passes_logs/2026/01/10/R4.6S_Anadyr/R4.6S_Anadyr__20260110_140830_NOAA_21_JPSS-2_rec.log

#Pass ID: 20260110_140830_NOAA 21 (JPSS-2)
#Satellite: NOAA 21 (JPSS-2)
#Configuration: NOAA-21
#almurnet v.1.7.20251203
#Start time: 2026-01-10 14:08:32

#Version: 2.2.20231116
#Station: R4.6S_Anadyr
#Location: 177.4865 lon 64.73178 lat
#TLE: 1 54234U 22150A   26009.79679979  .00000100  00000+0  68070-4 0  9993
#TLE: 2 54234  98.7494 310.7596 0000833 322.2782  37.8335 14.19533646164071

#Time	Az	El	Level	Level2	SNR	BER	BlckErr	Temp	State	Recorded	gain1	gain2
2026-01-10 14:08:32.68	19.51	0.11	-48.2	-63.1	3.5	1.51e+00	0	25	0	0	60	51887
2026-01-10 14:08:33.68	19.53	0.17	-48.1	-61.0	3.5	1.52e+00	0	26	104	0	60	39480
2026-01-10 14:08:34.69	19.55	0.23	-48.3	-61.1	3.5	1.52e+00	0	26	104	0	60	39897
2026-01-10 14:08:35.70	19.57	0.29	-48.2	-61.1	3.5	1.51e+00	0	26	104	0	60	39942
2026-01-10 14:08:36.71	19.60	0.35	-48.3	-61.0	3.5	1.52e+00	0	26	104	0	60	39581
2026-01-10 14:08:37.72	19.62	0.41	-48.2	-61.2	3.5	1.52e+00	0	26	104	0	60	40068
2026-01-10 14:08:38.73	19.64	0.47	-48.3	-61.1	3.5	1.52e+00	0	27	104	0	60	40007
2026-01-10 14:08:39.74	19.66	0.53	-48.3	-61.1	3.5	1.52e+00	0	27	104	0	60	39792
2026-01-10 14:08:40.75	19.68	0.59	-48.1	-61.1	3.5	1.52e+00	0	27	104	0	60	39724
2026-01-10 14:08:41.76	19.71	0.65	-48.1	-61.0	3.5	1.52e+00	0	27	104	0	60	39286
2026-01-10 14:08:42.77	19.73	0.71	-48.0	-60.9	3.5	1.52e+00	0	27	104	0	60	38814
2026-01-10 14:08:43.78	19.75	0.77	-47.9	-60.7	3.5	1.52e+00	0	27	104	0	60	38220
2026-01-10 14:08:44.78	19.77	0.83	-47.7	-60.5	3.5	1.52e+00	0	27	104	0	60	37176
2026-01-10 14:08:45.79	19.80	0.89	-47.5	-60.4	3.5	1.52e+00	0	27	104	0	60	36613
2026-01-10 14:08:46.80	19.82	0.95	-47.3	-60.1	3.5	1.52e+00	0	27	104	0	60	35534
2026-01-10 14:08:47.81	19.84	1.01	-47.1	-59.8	3.5	1.52e+00	0	27	104	0	60	34476
2026-01-10 14:08:48.82	19.86	1.07	-46.7	-59.5	3.5	1.52e+00	0	27	104	0	60	33103
2026-01-10 14:08:49.84	19.89	1.14	-46.7	-59.5	3.5	1.52e+00	0	27	104	0	60	32952
2026-01-10 14:08:50.85	19.91	1.20	-46.7	-59.5	3.5	1.52e+00	0	27	104	0	60	33075
2026-01-10 14:08:51.86	19.93	1.26	-46.7	-59.4	3.5	1.52e+00	0	27	104	0	60	32751
2026-01-10 14:08:52.87	19.95	1.32	-46.7	-59.4	3.5	1.52e+00	0	27	104	0	60	32756
2026-01-10 14:08:53.88	19.98	1.38	-46.7	-59.4	3.5	1.52e+00	0	27	104	0	60	32679
2026-01-10 14:08:54.89	20.00	1.45	-46.6	-59.3	3.5	1.52e+00	0	27	104	0	60	32306
2026-01-10 14:08:55.90	20.02	1.51	-46.6	-59.3	3.5	1.52e+00	0	27	104	0	60	32559
2026-01-10 14:08:56.91	20.05	1.57	-46.6	-59.5	3.5	1.52e+00	0	27	104	0	60	33026
2026-01-10 14:08:57.92	20.07	1.63	-46.6	-59.4	3.5	1.52e+00	0	27	104	0	60	32720
2026-01-10 14:08:58.93	20.09	1.70	-46.6	-59.4	3.5	1.52e+00	0	27	104	0	60	32890
2026-01-10 14:08:59.94	20.12	1.76	-46.6	-59.4	3.5	1.52e+00	0	27	104	0	60	32854
2026-01-10 14:09:00.94	20.14	1.82	-46.6	-59.5	3.5	1.52e+00	0	27	104	0	60	32964
2026-01-10 14:09:01.95	20.17	1.88	-46.6	-59.4	3.5	1.52e+00	0	27	104	0	60	32632
2026-01-10 14:09:02.96	20.19	1.95	-46.6	-59.4	3.5	1.52e+00	0	27	104	0	60	32874
2026-01-10 14:09:03.97	20.21	2.01	-46.6	-59.4	3.5	1.52e+00	0	27	104	0	60	32839
2026-01-10 14:09:04.98	20.24	2.07	-46.6	-59.5	3.5	1.52e+00	0	27	104	0	60	32975
2026-01-10 14:09:05.99	20.26	2.14	-46.6	-59.4	3.5	1.52e+00	0	27	104	0	60	32773
2026-01-10 14:09:07.00	20.28	2.20	-46.6	-59.1	3.5	1.51e+00	0	27	104	0	60	31469
2026-01-10 14:09:08.01	20.31	2.26	-46.6	-58.6	3.5	1.51e+00	0	27	104	0	60	29856
2026-01-10 14:09:09.02	20.33	2.33	-46.5	-57.9	3.5	1.51e+00	0	27	104	0	60	27490
2026-01-10 14:09:10.03	20.36	2.39	-46.4	-57.3	3.6	1.51e+00	0	27	104	0	60	25785
2026-01-10 14:09:11.04	20.38	2.46	-46.4	-57.0	3.8	1.49e+00	0	27	104	0	60	24804
2026-01-10 14:09:12.05	20.41	2.52	-46.4	-57.2	3.8	1.50e+00	0	27	104	0	60	25353
2026-01-10 14:09:13.06	20.43	2.59	-46.4	-57.5	3.6	1.50e+00	0	27	104	0	60	26280
2026-01-10 14:09:14.07	20.46	2.65	-46.4	-56.9	3.8	1.50e+00	0	27	104	0	60	24484
2026-01-10 14:09:15.07	20.48	2.72	-46.2	-55.3	4.6	1.12e+00	123	27	104	0	60	20544
2026-01-10 14:09:16.08	20.51	2.78	-45.7	-52.7	6.5	1.16e+00	123	27	104	0	60	15124
2026-01-10 14:09:17.09	20.53	2.85	-44.6	-48.8	9.6	4.60e-02	122	27	0	1048576	60	9660
2026-01-10 14:09:18.10	20.56	2.91	-43.5	-46.6	12.0	7.88e-04	120	27	0	4194304	60	7514
2026-01-10 14:09:19.11	20.58	2.98	-42.0	-44.3	14.4	6.10e-06	122	27	0	7340032	58	6438
2026-01-10 14:09:20.13	20.61	3.04	-40.8	-42.7	16.0	0.00e+00	123	27	0	10485760	56	6004
2026-01-10 14:09:21.13	20.63	3.11	-39.9	-41.6	17.0	0.00e+00	123	27	0	13631488	54	5965
2026-01-10 14:09:22.14	20.66	3.17	-39.3	-40.8	17.9	0.00e+00	121	27	0	16777216	52	6119
2026-01-10 14:09:23.15	20.68	3.24	-38.7	-40.1	18.4	0.00e+00	123	27	0	19922944	50	6317
2026-01-10 14:09:24.16	20.71	3.31	-38.2	-39.5	18.9	0.00e+00	123	27	0	23068672	50	5917
2026-01-10 14:09:25.17	20.73	3.37	-38.2	-39.6	18.8	0.00e+00	123	27	0	26214400	50	5955
2026-01-10 14:09:26.18	20.76	3.44	-38.5	-39.8	18.6	0.00e+00	122	27	0	29360128	50	6127
2026-01-10 14:09:27.19	20.79	3.51	-39.5	-41.1	17.3	0.00e+00	122	27	0	32505856	50	7100
2026-01-10 14:09:28.20	20.81	3.57	-40.1	-41.7	16.8	0.00e+00	123	27	0	35651584	52	6799
2026-01-10 14:09:29.21	20.84	3.64	-41.4	-43.4	15.0	0.00e+00	122	27	0	38797312	54	7370
2026-01-10 14:09:30.22	20.86	3.71	-42.1	-44.5	15.3	1.50e-06	122	27	0	41943040	56	7379
2026-01-10 14:09:31.23	20.89	3.77	-37.5	-38.7	19.8	0.00e+00	123	27	0	45088768	48	6049
2026-01-10 14:09:32.24	20.92	3.84	-38.6	-39.9	19.0	0.00e+00	123	27	0	48234496	50	6201
2026-01-10 14:09:33.25	20.94	3.91	-46.5	-58.8	3.5	1.52e+00	0	27	104	49283072	60	30591
2026-01-10 14:09:34.26	20.97	3.98	-39.7	-41.6	17.2	0.00e+00	123	27	104	49283072	56	5320
2026-01-10 14:09:35.27	21.00	4.05	-45.7	-52.4	4.2	1.39e+00	0	27	104	50331648	60	14611
2026-01-10 14:09:36.28	21.02	4.11	-40.5	-42.2	16.5	0.00e+00	123	27	0	50331648	54	6383
2026-01-10 14:09:37.29	21.05	4.18	-40.2	-41.9	17.0	0.00e+00	123	27	0	53477376	54	6167
2026-01-10 14:09:38.30	21.08	4.25	-40.2	-41.9	16.9	0.00e+00	120	27	0	56623104	54	6178
2026-01-10 14:09:39.31	21.10	4.32	-40.2	-41.9	16.8	0.00e+00	122	27	0	59768832	54	6185
2026-01-10 14:09:40.32	21.13	4.39	-40.4	-42.2	16.8	0.00e+00	122	27	0	62914560	54	6358
2026-01-10 14:09:41.33	21.16	4.46	-40.5	-42.2	16.4	0.00e+00	123	27	0	66060288	54	6376
2026-01-10 14:09:42.34	21.19	4.53	-40.3	-42.0	17.0	0.00e+00	123	27	0	69206016	54	6248
2026-01-10 14:09:43.35	21.21	4.60	-39.9	-41.5	17.0	0.00e+00	123	27	0	72351744	54	5901
2026-01-10 14:09:44.36	21.24	4.67	-40.4	-42.1	16.7	0.00e+00	120	27	0	75497472	54	6315
2026-01-10 14:09:45.37	21.27	4.74	-40.3	-42.0	17.0	0.00e+00	122	27	0	78643200	54	6233
2026-01-10 14:09:46.38	21.30	4.81	-40.3	-42.0	17.2	0.00e+00	120	27	0	81788928	54	6273
2026-01-10 14:09:47.39	21.32	4.88	-40.0	-41.6	17.6	0.00e+00	123	27	0	84934656	54	5936
2026-01-10 14:09:48.40	21.35	4.95	-39.4	-40.9	18.1	0.00e+00	120	27	0	88080384	52	6141
2026-01-10 14:09:49.41	21.38	5.02	-39.5	-41.0	18.0	0.00e+00	122	27	0	91226112	52	6256
2026-01-10 14:09:50.42	21.41	5.09	-39.4	-40.9	18.2	0.00e+00	123	27	0	94371840	52	6149
2026-01-10 14:09:51.43	21.44	5.16	-39.3	-40.7	18.4	0.00e+00	122	27	0	97517568	52	6035
2026-01-10 14:09:52.44	21.47	5.23	-39.0	-40.4	18.5	0.00e+00	122	27	0	100663296	52	5845
2026-01-10 14:09:53.44	21.49	5.30	-39.1	-40.5	18.4	0.00e+00	123	27	0	103809024	52	5908
2026-01-10 14:09:54.45	21.52	5.37	-38.9	-40.3	18.9	0.00e+00	120	27	0	106954752	52	5759
2026-01-10 14:09:55.46	21.55	5.44	-37.8	-39.1	19.8	0.00e+00	123	28	0	110100480	50	5610
2026-01-10 14:09:56.47	21.58	5.51	-37.3	-38.5	20.3	0.00e+00	120	28	0	113246208	48	5904
2026-01-10 14:09:57.48	21.61	5.59	-37.1	-38.2	20.6	0.00e+00	122	27	0	116391936	48	5725
2026-01-10 14:09:58.50	21.64	5.66	-36.7	-37.9	21.0	0.00e+00	120	28	0	119537664	46	6148
2026-01-10 14:09:59.51	21.67	5.73	-36.4	-37.5	21.3	0.00e+00	122	27	0	122683392	46	5874
2026-01-10 14:10:00.51	21.70	5.80	-36.4	-37.5	21.2	0.00e+00	123	28	0	125829120	46	5905
2026-01-10 14:10:01.52	21.73	5.88	-36.5	-37.5	21.3	0.00e+00	123	27	0	128974848	46	5926
2026-01-10 14:10:02.53	21.76	5.95	-36.3	-37.4	21.3	0.00e+00	122	27	0	132120576	46	5824
2026-01-10 14:10:03.54	21.79	6.02	-36.3	-37.4	21.4	0.00e+00	122	28	0	135266304	46	5825
2026-01-10 14:10:04.54	21.82	6.10	-36.3	-37.3	21.5	0.00e+00	120	28	0	139460608	46	5789
2026-01-10 14:10:05.55	21.85	6.17	-36.4	-37.5	21.3	0.00e+00	122	27	0	142606336	46	5886
2026-01-10 14:10:06.57	21.88	6.24	-36.2	-37.2	21.5	0.00e+00	122	28	0	144703488	46	5712
2026-01-10 14:10:07.58	21.91	6.32	-36.2	-37.3	21.5	0.00e+00	122	28	0	147849216	46	5753
2026-01-10 14:10:08.59	21.94	6.39	-36.3	-37.3	21.5	0.00e+00	123	28	0	150994944	46	5790
2026-01-10 14:10:09.60	21.97	6.47	-36.4	-37.5	21.4	0.00e+00	122	28	0	155189248	46	5892
2026-01-10 14:10:10.61	22.00	6.54	-36.6	-37.7	21.2	0.00e+00	120	28	0	158334976	46	6024
2026-01-10 14:10:11.61	22.03	6.61	-36.2	-37.3	21.5	0.00e+00	123	28	0	161480704	46	5747
2026-01-10 14:10:12.63	22.06	6.69	-36.3	-37.4	21.5	0.00e+00	122	28	0	164626432	46	5813
2026-01-10 14:10:13.64	22.09	6.77	-36.1	-37.2	21.6	0.00e+00	123	28	0	166723584	46	5695
2026-01-10 14:10:14.65	22.13	6.84	-36.2	-37.3	21.7	0.00e+00	122	28	0	170917888	46	5727
2026-01-10 14:10:15.66	22.16	6.92	-35.9	-36.9	21.9	0.00e+00	122	28	0	174063616	46	5528
2026-01-10 14:10:16.67	22.19	6.99	-35.9	-37.0	21.9	0.00e+00	122	28	0	177209344	46	5546
2026-01-10 14:10:17.68	22.22	7.07	-36.0	-37.0	21.8	0.00e+00	122	28	0	180355072	46	5577
2026-01-10 14:10:18.69	22.25	7.15	-35.9	-36.9	21.9	0.00e+00	123	28	0	183500800	46	5529
2026-01-10 14:10:19.70	22.28	7.22	-35.9	-37.0	21.9	0.00e+00	123	28	0	186646528	46	5556
2026-01-10 14:10:20.71	22.32	7.30	-36.0	-37.0	21.9	0.00e+00	122	28	0	189792256	46	5577
2026-01-10 14:10:21.72	22.35	7.38	-35.7	-36.8	22.1	0.00e+00	123	28	0	192937984	44	6092
2026-01-10 14:10:22.73	22.38	7.45	-35.7	-36.8	22.1	0.00e+00	123	28	0	196083712	44	6082
2026-01-10 14:10:23.74	22.41	7.53	-35.8	-36.8	22.0	0.00e+00	123	28	0	199229440	44	6130
2026-01-10 14:10:24.75	22.45	7.61	-35.7	-36.7	22.1	0.00e+00	120	28	0	202375168	44	6023
2026-01-10 14:10:25.76	22.48	7.69	-35.7	-36.8	22.1	0.00e+00	120	28	0	205520896	44	6068
2026-01-10 14:10:26.77	22.51	7.76	-35.8	-36.9	22.1	0.00e+00	122	28	0	208666624	44	6149
2026-01-10 14:10:27.78	22.55	7.84	-35.6	-36.6	22.3	0.00e+00	123	28	0	211812352	44	5982
2026-01-10 14:10:28.79	22.58	7.92	-35.6	-36.6	22.2	0.00e+00	123	28	0	214958080	44	5979
2026-01-10 14:10:29.80	22.61	8.00	-35.7	-36.7	22.0	0.00e+00	123	28	0	218103808	44	6062
2026-01-10 14:10:30.81	22.65	8.08	-35.6	-36.6	22.3	0.00e+00	123	28	0	221249536	44	5949
2026-01-10 14:10:31.82	22.68	8.16	-35.7	-36.7	22.2	0.00e+00	123	28	0	224395264	44	6015
2026-01-10 14:10:32.82	22.71	8.24	-35.6	-36.6	22.3	0.00e+00	127	28	0	227540992	44	5948
2026-01-10 14:10:33.83	22.75	8.32	-35.5	-36.5	22.4	0.00e+00	122	28	0	230686720	44	5875
2026-01-10 14:10:34.84	22.78	8.40	-35.4	-36.4	22.4	0.00e+00	123	28	0	233832448	44	5828
2026-01-10 14:10:35.85	22.82	8.48	-35.6	-36.6	22.3	0.00e+00	122	28	0	236978176	44	5943
2026-01-10 14:10:36.86	22.85	8.56	-35.3	-36.3	22.5	0.00e+00	122	28	0	240123904	44	5789
2026-01-10 14:10:37.87	22.89	8.64	-35.3	-36.3	22.5	0.00e+00	123	28	0	243269632	44	5791
2026-01-10 14:10:38.88	22.92	8.72	-35.4	-36.3	22.6	0.00e+00	122	28	0	246415360	44	5786
2026-01-10 14:10:39.89	22.96	8.80	-35.2	-36.2	22.6	0.00e+00	122	28	0	249561088	44	5674
2026-01-10 14:10:40.90	22.99	8.88	-35.4	-36.4	22.6	0.00e+00	120	28	0	252706816	44	5794
2026-01-10 14:10:41.91	23.03	8.96	-35.2	-36.2	22.7	0.00e+00	123	28	0	255852544	44	5683
2026-01-10 14:10:42.92	23.06	9.05	-35.4	-36.4	22.5	0.00e+00	123	28	0	258998272	44	5811
2026-01-10 14:10:43.93	23.10	9.13	-35.1	-36.1	22.8	0.00e+00	123	28	0	262144000	44	5608
2026-01-10 14:10:44.94	23.13	9.21	-35.1	-36.1	22.8	0.00e+00	123	28	0	265289728	44	5637
2026-01-10 14:10:45.95	23.17	9.29	-35.1	-36.1	22.8	0.00e+00	122	28	0	268435456	44	5606
2026-01-10 14:10:46.96	23.21	9.38	-35.1	-36.0	22.8	0.00e+00	122	28	0	271581184	44	5592
2026-01-10 14:10:47.97	23.24	9.46	-35.0	-35.9	22.9	0.00e+00	121	28	0	274726912	44	5522
2026-01-10 14:10:48.98	23.28	9.54	-35.1	-36.1	22.8	0.00e+00	122	28	0	277872640	44	5639
2026-01-10 14:10:49.99	23.32	9.63	-35.0	-36.0	22.9	0.00e+00	123	28	0	281018368	44	5550
2026-01-10 14:10:51.00	23.35	9.71	-35.0	-35.9	22.9	0.00e+00	123	28	0	284164096	44	5525
2026-01-10 14:10:52.01	23.39	9.80	-34.9	-35.8	23.0	0.00e+00	120	28	0	287309824	44	5452
2026-01-10 14:10:53.02	23.43	9.88	-34.9	-35.9	23.0	0.00e+00	123	28	0	290455552	44	5484
2026-01-10 14:10:54.03	23.47	9.97	-34.8	-35.8	23.0	0.00e+00	123	28	0	293601280	44	5425
2026-01-10 14:10:55.04	23.50	10.05	-34.7	-35.7	23.1	0.00e+00	123	28	0	296747008	42	6018
2026-01-10 14:10:56.05	23.54	10.14	-34.9	-35.9	23.0	0.00e+00	120	28	0	299892736	42	6182
2026-01-10 14:10:57.06	23.58	10.22	-34.9	-35.9	23.0	0.00e+00	122	28	0	303038464	42	6151
2026-01-10 14:10:58.07	23.62	10.31	-34.7	-35.7	23.2	0.00e+00	122	28	0	306184192	42	6001
2026-01-10 14:10:59.08	23.66	10.40	-34.8	-35.8	23.1	0.00e+00	122	28	0	309329920	42	6116
2026-01-10 14:11:00.08	23.70	10.48	-34.7	-35.7	23.2	0.00e+00	120	28	0	312475648	42	6026
2026-01-10 14:11:01.09	23.74	10.57	-34.7	-35.7	23.2	0.00e+00	123	28	0	315621376	42	6019
2026-01-10 14:11:02.10	23.78	10.66	-34.6	-35.6	23.3	0.00e+00	120	28	0	318767104	42	5967
2026-01-10 14:11:03.11	23.81	10.75	-34.6	-35.5	23.4	0.00e+00	122	28	0	321912832	42	5907
2026-01-10 14:11:04.12	23.85	10.83	-34.6	-35.5	23.4	0.00e+00	123	28	0	325058560	42	5903
2026-01-10 14:11:05.13	23.89	10.92	-34.7	-35.6	23.3	0.00e+00	122	28	0	328204288	42	5977
2026-01-10 14:11:06.14	23.93	11.01	-34.6	-35.5	23.4	0.00e+00	123	28	0	331350016	42	5903
2026-01-10 14:11:07.15	23.97	11.10	-34.6	-35.5	23.4	0.00e+00	122	28	0	334495744	42	5902
2026-01-10 14:11:08.16	24.02	11.19	-34.4	-35.3	23.5	0.00e+00	123	28	0	337641472	42	5782
2026-01-10 14:11:09.17	24.06	11.28	-34.4	-35.3	23.5	0.00e+00	123	28	0	340787200	42	5787
2026-01-10 14:11:10.18	24.10	11.37	-34.5	-35.4	23.5	0.00e+00	123	28	0	343932928	42	5856
2026-01-10 14:11:11.19	24.14	11.46	-34.4	-35.3	23.5	0.00e+00	120	28	0	347078656	42	5776
2026-01-10 14:11:12.20	24.18	11.55	-34.4	-35.4	23.5	0.00e+00	122	28	0	350224384	42	5795
2026-01-10 14:11:13.21	24.22	11.64	-34.3	-35.3	23.6	0.00e+00	123	28	0	353370112	42	5739
2026-01-10 14:11:14.22	24.26	11.73	-34.3	-35.3	23.6	0.00e+00	123	28	0	356515840	42	5730
2026-01-10 14:11:15.23	24.31	11.82	-34.4	-35.3	23.6	0.00e+00	122	28	0	359661568	42	5768
2026-01-10 14:11:16.24	24.35	11.92	-34.4	-35.3	23.6	0.00e+00	123	28	0	362807296	42	5777
2026-01-10 14:11:17.25	24.39	12.01	-34.3	-35.2	23.6	0.00e+00	122	28	0	365953024	42	5711
2026-01-10 14:11:18.26	24.43	12.10	-34.2	-35.1	23.7	0.00e+00	122	28	0	369098752	42	5646
2026-01-10 14:11:19.27	24.48	12.19	-34.4	-35.3	23.6	0.00e+00	123	28	0	372244480	42	5764
2026-01-10 14:11:20.27	24.52	12.29	-34.1	-35.0	23.8	0.00e+00	122	28	0	375390208	42	5588
2026-01-10 14:11:21.29	24.56	12.38	-34.2	-35.1	23.7	0.00e+00	122	28	0	378535936	42	5646
2026-01-10 14:11:22.29	24.61	12.47	-34.2	-35.1	23.7	0.00e+00	123	28	0	381681664	42	5647
2026-01-10 14:11:23.30	24.65	12.57	-34.1	-35.0	23.8	0.00e+00	123	28	0	384827392	42	5547
2026-01-10 14:11:24.31	24.70	12.66	-34.1	-35.1	23.8	0.00e+00	123	28	0	387973120	42	5611
2026-01-10 14:11:25.32	24.74	12.76	-34.0	-34.9	23.8	0.00e+00	123	28	0	391118848	42	5530
2026-01-10 14:11:26.33	24.79	12.85	-34.0	-35.0	23.9	0.00e+00	123	28	0	394264576	42	5531
2026-01-10 14:11:27.34	24.83	12.95	-34.1	-35.0	23.8	0.00e+00	122	28	0	397410304	42	5562
2026-01-10 14:11:28.35	24.88	13.04	-34.0	-34.9	23.8	0.00e+00	122	28	0	400556032	42	5509
2026-01-10 14:11:29.36	24.92	13.14	-34.0	-34.9	23.9	0.00e+00	123	28	0	403701760	42	5502
2026-01-10 14:11:30.37	24.97	13.24	-34.0	-34.9	23.9	0.00e+00	122	28	0	406847488	42	5511
2026-01-10 14:11:31.38	25.01	13.33	-34.0	-34.9	24.0	0.00e+00	123	28	0	409993216	42	5482
2026-01-10 14:11:32.39	25.06	13.43	-34.0	-34.9	23.8	0.00e+00	120	28	0	413138944	42	5476
2026-01-10 14:11:33.40	25.11	13.53	-34.0	-34.9	23.9	0.00e+00	123	29	0	416284672	42	5482
2026-01-10 14:11:34.41	25.15	13.63	-33.9	-34.8	24.0	0.00e+00	122	28	0	419430400	42	5437
2026-01-10 14:11:35.41	25.20	13.73	-33.9	-34.8	23.9	0.00e+00	120	28	0	422576128	42	5430
2026-01-10 14:11:36.43	25.25	13.83	-34.0	-34.9	23.9	0.00e+00	123	28	0	425721856	42	5507
2026-01-10 14:11:37.44	25.30	13.93	-34.0	-34.9	23.9	0.00e+00	123	28	0	428867584	42	5529
2026-01-10 14:11:38.44	25.34	14.02	-34.0	-34.9	23.9	0.00e+00	123	28	0	432013312	42	5509
2026-01-10 14:11:39.45	25.39	14.13	-34.0	-34.9	23.9	0.00e+00	123	28	0	435159040	42	5512
2026-01-10 14:11:40.46	25.44	14.23	-33.8	-34.7	24.1	0.00e+00	122	29	0	438304768	42	5389
2026-01-10 14:11:41.47	25.49	14.33	-33.8	-34.7	24.1	0.00e+00	123	28	0	441450496	42	5386
2026-01-10 14:11:42.48	25.54	14.43	-33.8	-34.8	24.0	0.00e+00	123	28	0	444596224	42	5409
2026-01-10 14:11:43.49	25.59	14.53	-33.9	-34.8	23.9	0.00e+00	119	29	0	447741952	42	5428
2026-01-10 14:11:44.50	25.64	14.63	-33.8	-34.7	24.1	0.00e+00	123	29	0	450887680	42	5364
2026-01-10 14:11:45.51	25.69	14.74	-33.7	-34.6	24.2	0.00e+00	120	29	0	454033408	40	5979
2026-01-10 14:11:46.52	25.74	14.84	-33.8	-34.7	24.0	0.00e+00	123	28	0	457179136	40	6032
2026-01-10 14:11:47.53	25.79	14.94	-33.7	-34.6	24.2	0.00e+00	122	28	0	460324864	40	5958
2026-01-10 14:11:48.54	25.84	15.05	-33.8	-34.7	24.0	0.00e+00	123	28	0	463470592	40	6063
2026-01-10 14:11:49.55	25.89	15.15	-33.8	-34.7	24.1	0.00e+00	123	29	0	466616320	40	5997
2026-01-10 14:11:50.56	25.95	15.26	-34.1	-35.0	24.0	0.00e+00	122	29	0	469762048	40	6231
2026-01-10 14:11:51.57	26.00	15.36	-33.7	-34.6	24.2	0.00e+00	123	29	0	472907776	40	5953
2026-01-10 14:11:52.58	26.05	15.47	-33.7	-34.6	24.1	0.00e+00	123	29	0	476053504	40	5994
2026-01-10 14:11:53.59	26.10	15.57	-33.7	-34.6	24.1	0.00e+00	120	28	0	479199232	40	5960
2026-01-10 14:11:54.60	26.16	15.68	-33.7	-34.6	24.1	0.00e+00	120	29	0	483393536	40	5993
2026-01-10 14:11:55.61	26.21	15.79	-33.6	-34.5	24.2	0.00e+00	123	29	0	485490688	40	5898
2026-01-10 14:11:56.62	26.26	15.89	-33.6	-34.5	24.3	0.00e+00	123	28	0	488636416	40	5923
2026-01-10 14:11:57.63	26.32	16.00	-33.6	-34.5	24.3	0.00e+00	120	29	0	491782144	40	5919
2026-01-10 14:11:58.64	26.37	16.11	-33.7	-34.6	24.2	0.00e+00	123	29	0	494927872	40	5927
2026-01-10 14:11:59.65	26.43	16.22	-33.7	-34.6	24.2	0.00e+00	120	29	0	499122176	40	5932
2026-01-10 14:12:00.66	26.48	16.33	-33.7	-34.7	24.2	0.00e+00	122	29	0	502267904	40	6001
2026-01-10 14:12:01.67	26.54	16.44	-33.6	-34.5	24.3	0.00e+00	123	28	0	505413632	40	5900
2026-01-10 14:12:02.68	26.60	16.55	-33.7	-34.6	24.3	0.00e+00	123	29	0	507510784	40	5927
2026-01-10 14:12:03.69	26.65	16.66	-33.6	-34.5	24.3	0.00e+00	122	28	0	510656512	40	5897
2026-01-10 14:12:04.70	26.71	16.77	-33.6	-34.5	24.3	0.00e+00	123	29	0	514850816	40	5861
2026-01-10 14:12:05.71	26.77	16.88	-33.6	-34.5	24.3	0.00e+00	120	29	0	517996544	40	5893
2026-01-10 14:12:06.72	26.83	16.99	-33.6	-34.5	24.3	0.00e+00	122	29	0	521142272	40	5864
2026-01-10 14:12:07.73	26.88	17.11	-33.7	-34.6	24.3	0.00e+00	123	29	0	524288000	40	5979
2026-01-10 14:12:08.74	26.94	17.22	-33.7	-34.6	24.3	0.00e+00	123	29	0	527433728	40	5933
2026-01-10 14:12:09.75	27.00	17.33	-33.5	-34.4	24.4	0.00e+00	123	29	0	530579456	40	5838
2026-01-10 14:12:10.76	27.06	17.45	-33.7	-34.6	24.3	0.00e+00	120	29	0	533725184	40	5928
2026-01-10 14:12:11.77	27.12	17.56	-33.6	-34.5	24.3	0.00e+00	123	29	0	536870912	40	5903
2026-01-10 14:12:12.78	27.18	17.68	-33.6	-34.5	24.2	0.00e+00	120	29	0	540016640	40	5920
2026-01-10 14:12:13.79	27.24	17.79	-33.6	-34.5	24.3	0.00e+00	123	29	0	543162368	40	5908
2026-01-10 14:12:14.80	27.30	17.91	-33.9	-34.8	24.2	0.00e+00	123	29	0	546308096	40	6077
2026-01-10 14:12:15.81	27.36	18.03	-33.7	-34.6	24.3	0.00e+00	122	29	0	549453824	40	5938
2026-01-10 14:12:16.82	27.43	18.15	-33.8	-34.7	24.2	0.00e+00	123	29	0	552599552	40	6040
2026-01-10 14:12:17.83	27.49	18.26	-33.8	-34.7	24.1	0.00e+00	123	29	0	555745280	40	6005
2026-01-10 14:12:18.84	27.55	18.38	-33.7	-34.6	24.2	0.00e+00	123	29	0	558891008	40	5991
2026-01-10 14:12:19.86	27.61	18.50	-33.9	-34.8	24.1	0.00e+00	121	29	0	562036736	40	6073
2026-01-10 14:12:20.86	27.68	18.62	-33.8	-34.7	24.2	0.00e+00	123	29	0	565182464	40	6048
2026-01-10 14:12:21.87	27.74	18.74	-33.9	-34.8	24.1	0.00e+00	122	29	0	568328192	40	6096
2026-01-10 14:12:22.88	27.81	18.86	-33.9	-34.8	24.1	0.00e+00	123	29	0	571473920	40	6133
2026-01-10 14:12:23.90	27.87	18.98	-33.9	-34.8	24.2	0.00e+00	123	29	0	574619648	40	6088
2026-01-10 14:12:24.91	27.94	19.11	-34.0	-34.9	24.1	0.00e+00	122	29	0	577765376	40	6200
2026-01-10 14:12:25.92	28.00	19.23	-34.0	-34.9	24.1	0.00e+00	122	29	0	580911104	40	6169
2026-01-10 14:12:26.93	28.07	19.35	-34.1	-35.0	24.0	0.00e+00	127	29	0	584056832	40	6260
2026-01-10 14:12:27.94	28.14	19.47	-34.0	-34.9	24.0	0.00e+00	123	29	0	587202560	40	6166
2026-01-10 14:12:28.95	28.21	19.60	-34.0	-34.9	24.0	0.00e+00	123	29	0	590348288	40	6169
2026-01-10 14:12:29.96	28.27	19.72	-34.0	-35.0	24.0	0.00e+00	122	29	0	593494016	40	6213
2026-01-10 14:12:30.97	28.34	19.85	-34.1	-35.0	24.0	0.00e+00	123	29	0	596639744	40	6247
2026-01-10 14:12:31.98	28.41	19.97	-34.0	-34.9	24.0	0.00e+00	120	29	0	599785472	40	6202
2026-01-10 14:12:32.99	28.48	20.10	-34.0	-34.9	24.0	0.00e+00	122	29	0	602931200	40	6167
2026-01-10 14:12:34.00	28.55	20.23	-33.8	-34.7	24.3	0.00e+00	120	29	0	606076928	40	6016
2026-01-10 14:12:35.01	28.62	20.35	-33.8	-34.7	24.2	0.00e+00	123	29	0	609222656	40	6016
2026-01-10 14:12:36.02	28.69	20.48	-33.6	-34.5	24.3	0.00e+00	120	29	0	612368384	40	5904
2026-01-10 14:12:37.03	28.77	20.61	-33.6	-34.5	24.4	0.00e+00	122	29	0	615514112	40	5862
2026-01-10 14:12:38.04	28.84	20.74	-33.5	-34.4	24.4	0.00e+00	120	29	0	618659840	40	5817
2026-01-10 14:12:39.05	28.91	20.87	-33.6	-34.5	24.3	0.00e+00	123	29	0	621805568	40	5888
2026-01-10 14:12:40.06	28.99	21.00	-33.3	-34.2	24.6	0.00e+00	123	29	0	624951296	40	5715
2026-01-10 14:12:41.07	29.06	21.13	-33.4	-34.3	24.5	0.00e+00	120	29	0	628097024	40	5749
2026-01-10 14:12:42.08	29.13	21.27	-33.6	-34.5	24.4	0.00e+00	123	29	0	631242752	40	5914
2026-01-10 14:12:43.09	29.21	21.40	-33.2	-34.1	24.7	0.00e+00	123	29	0	634388480	40	5598
2026-01-10 14:12:44.10	29.29	21.53	-33.1	-34.0	24.6	0.00e+00	123	29	0	637534208	40	5547
2026-01-10 14:12:45.11	29.36	21.67	-33.0	-33.9	24.8	0.00e+00	120	29	0	640679936	40	5490
2026-01-10 14:12:46.12	29.44	21.80	-33.0	-33.9	24.8	0.00e+00	123	29	0	643825664	40	5479
2026-01-10 14:12:47.13	29.52	21.94	-32.8	-33.7	25.0	0.00e+00	123	29	0	646971392	40	5366
2026-01-10 14:12:48.15	29.60	22.07	-32.7	-33.6	25.1	0.00e+00	123	29	0	650117120	38	5953
2026-01-10 14:12:49.16	29.68	22.21	-32.7	-33.6	25.0	0.00e+00	123	29	0	653262848	38	5976
2026-01-10 14:12:50.17	29.76	22.35	-32.5	-33.4	25.2	0.00e+00	123	29	0	656408576	38	5825
2026-01-10 14:12:51.17	29.84	22.48	-32.7	-33.6	25.0	0.00e+00	121	29	0	659554304	38	5969
2026-01-10 14:12:52.18	29.92	22.62	-32.8	-33.7	24.9	0.00e+00	123	29	0	662700032	38	6021
2026-01-10 14:12:53.19	30.00	22.76	-32.6	-33.5	25.1	0.00e+00	120	29	0	665845760	38	5876
2026-01-10 14:12:54.21	30.08	22.90	-32.7	-33.6	25.1	0.00e+00	122	29	0	668991488	38	5965
2026-01-10 14:12:55.22	30.17	23.05	-32.7	-33.5	25.0	0.00e+00	123	29	0	672137216	38	5906
2026-01-10 14:12:56.22	30.25	23.19	-32.6	-33.5	25.2	0.00e+00	122	29	0	675282944	38	5902
2026-01-10 14:12:57.23	30.34	23.33	-32.8	-33.6	25.0	0.00e+00	122	29	0	678428672	38	5980
2026-01-10 14:12:58.24	30.42	23.47	-32.2	-33.1	25.4	0.00e+00	123	29	0	681574400	38	5627
2026-01-10 14:12:59.25	30.51	23.62	-32.3	-33.2	25.4	0.00e+00	123	29	0	684720128	38	5689
2026-01-10 14:13:00.26	30.59	23.76	-32.3	-33.1	25.4	0.00e+00	123	29	0	687865856	38	5655
2026-01-10 14:13:01.27	30.68	23.91	-32.3	-33.2	25.4	0.00e+00	122	29	0	691011584	38	5676
2026-01-10 14:13:02.28	30.77	24.05	-32.4	-33.2	25.4	0.00e+00	123	29	0	694157312	38	5723
2026-01-10 14:13:03.29	30.86	24.20	-32.3	-33.2	25.4	0.00e+00	123	29	0	697303040	38	5683
2026-01-10 14:13:04.30	30.95	24.35	-32.4	-33.3	25.2	0.00e+00	120	29	0	700448768	38	5728
2026-01-10 14:13:05.32	31.04	24.50	-32.5	-33.3	25.3	0.00e+00	123	29	0	703594496	38	5759
2026-01-10 14:13:06.33	31.13	24.65	-32.5	-33.4	25.2	0.00e+00	122	29	0	706740224	38	5802
2026-01-10 14:13:07.34	31.23	24.80	-32.5	-33.4	25.2	0.00e+00	123	29	0	709885952	38	5797
2026-01-10 14:13:08.34	31.32	24.94	-32.7	-33.6	25.1	0.00e+00	122	29	0	713031680	38	5929
2026-01-10 14:13:09.36	31.41	25.10	-32.7	-33.5	25.1	0.00e+00	120	29	0	716177408	38	5921
2026-01-10 14:13:10.37	31.51	25.25	-32.7	-33.5	25.1	0.00e+00	123	29	0	719323136	38	5918
2026-01-10 14:13:11.37	31.61	25.40	-32.7	-33.5	25.1	0.00e+00	122	29	0	722468864	38	5922
2026-01-10 14:13:12.38	31.70	25.56	-32.7	-33.6	25.1	0.00e+00	122	29	0	725614592	38	5945
2026-01-10 14:13:13.39	31.80	25.71	-32.9	-33.7	25.0	0.00e+00	120	29	0	728760320	38	6062
2026-01-10 14:13:14.41	31.90	25.87	-32.9	-33.8	24.9	0.00e+00	122	29	0	731906048	38	6068
2026-01-10 14:13:15.42	32.00	26.02	-32.9	-33.8	24.9	0.00e+00	122	29	0	735051776	38	6099
2026-01-10 14:13:16.42	32.10	26.18	-33.3	-34.1	24.7	0.00e+00	123	29	0	738197504	38	6344
2026-01-10 14:13:17.43	32.20	26.34	-33.2	-34.1	24.7	0.00e+00	120	29	0	741343232	38	6322
2026-01-10 14:13:18.45	32.30	26.50	-33.3	-34.2	24.5	0.00e+00	123	29	0	744488960	38	6410
2026-01-10 14:13:19.46	32.41	26.66	-33.5	-34.4	24.4	0.00e+00	123	29	0	747634688	38	6533
2026-01-10 14:13:20.46	32.51	26.82	-33.6	-34.5	24.3	0.00e+00	122	29	0	750780416	38	6601
2026-01-10 14:13:21.47	32.62	26.98	-33.6	-34.5	24.3	0.00e+00	123	29	0	753926144	38	6581
2026-01-10 14:13:22.48	32.72	27.14	-33.6	-34.5	24.4	0.00e+00	123	29	0	757071872	38	6583
2026-01-10 14:13:23.49	32.83	27.30	-33.7	-34.6	24.2	0.00e+00	123	29	0	760217600	38	6706
2026-01-10 14:13:24.50	32.94	27.47	-33.8	-34.8	24.2	0.00e+00	120	29	0	763363328	40	6072
2026-01-10 14:13:25.51	33.05	27.63	-33.9	-34.8	24.2	0.00e+00	123	29	0	766509056	40	6088
2026-01-10 14:13:26.52	33.16	27.80	-33.8	-34.7	24.2	0.00e+00	122	29	0	769654784	40	6038
2026-01-10 14:13:27.53	33.27	27.97	-33.9	-34.8	24.1	0.00e+00	123	29	0	772800512	40	6107
2026-01-10 14:13:28.54	33.39	28.13	-33.9	-34.9	24.0	0.00e+00	122	29	0	776994816	40	6137
2026-01-10 14:13:29.55	33.50	28.30	-34.0	-34.9	24.0	0.00e+00	123	29	0	779091968	40	6171
2026-01-10 14:13:30.56	33.62	28.47	-34.0	-34.9	23.9	0.00e+00	123	29	0	782237696	40	6196
2026-01-10 14:13:31.57	33.73	28.64	-34.1	-35.0	23.9	0.00e+00	123	29	0	785383424	40	6271
2026-01-10 14:13:32.58	33.85	28.81	-34.0	-34.9	24.0	0.00e+00	122	29	0	788529152	40	6170
2026-01-10 14:13:33.59	33.97	28.99	-33.9	-34.9	23.9	0.00e+00	123	29	0	791674880	40	6137
2026-01-10 14:13:34.60	34.09	29.16	-33.9	-34.9	23.9	0.00e+00	123	29	0	795869184	40	6136
2026-01-10 14:13:35.61	34.21	29.33	-33.9	-34.8	23.8	0.00e+00	123	29	0	799014912	40	6104
2026-01-10 14:13:36.62	34.34	29.51	-33.8	-34.7	23.9	0.00e+00	123	29	0	801112064	40	6048
2026-01-10 14:13:37.63	34.46	29.69	-33.8	-34.8	23.8	0.00e+00	122	29	0	804257792	40	6096
2026-01-10 14:13:38.64	34.59	29.86	-33.7	-34.7	24.0	0.00e+00	122	29	0	807403520	40	5999
2026-01-10 14:13:39.65	34.71	30.04	-33.8	-34.8	23.9	0.00e+00	122	29	0	811597824	40	6067
2026-01-10 14:13:40.66	34.84	30.22	-33.5	-34.4	24.2	0.00e+00	123	29	0	814743552	40	5846
2026-01-10 14:13:41.67	34.97	30.40	-33.5	-34.4	24.1	0.00e+00	120	29	0	817889280	40	5837
2026-01-10 14:13:42.68	35.10	30.58	-33.6	-34.5	24.2	0.00e+00	122	29	0	821035008	40	5891
2026-01-10 14:13:43.69	35.23	30.76	-33.5	-34.4	24.4	0.00e+00	122	29	0	824180736	40	5798
2026-01-10 14:13:44.70	35.37	30.95	-33.4	-34.3	24.4	0.00e+00	123	29	0	827326464	40	5751
2026-01-10 14:13:45.71	35.50	31.13	-33.4	-34.3	24.6	0.00e+00	123	29	0	830472192	40	5727
2026-01-10 14:13:46.72	35.64	31.31	-33.4	-34.3	24.5	0.00e+00	118	29	0	833617920	40	5755
2026-01-10 14:13:47.73	35.78	31.50	-33.5	-34.5	24.3	0.00e+00	122	29	0	836763648	40	5859
2026-01-10 14:13:48.74	35.92	31.69	-33.2	-34.1	24.6	0.00e+00	122	29	0	839909376	40	5625
2026-01-10 14:13:49.75	36.06	31.88	-33.3	-34.2	24.6	0.00e+00	123	29	0	843055104	40	5686
2026-01-10 14:13:50.76	36.20	32.06	-33.2	-34.1	24.7	0.00e+00	123	29	0	846200832	40	5650
2026-01-10 14:13:51.77	36.35	32.25	-33.3	-34.2	24.8	0.00e+00	123	29	0	849346560	40	5671
2026-01-10 14:13:52.78	36.50	32.45	-33.4	-34.3	24.7	0.00e+00	122	29	0	852492288	40	5774
2026-01-10 14:13:53.79	36.64	32.64	-33.5	-34.4	24.7	0.00e+00	122	29	0	855638016	40	5798
2026-01-10 14:13:54.80	36.79	32.83	-33.5	-34.4	24.7	0.00e+00	123	29	0	858783744	40	5795
2026-01-10 14:13:55.81	36.94	33.03	-33.5	-34.4	24.6	0.00e+00	123	29	0	861929472	40	5828
2026-01-10 14:13:56.82	37.10	33.22	-33.7	-34.6	24.4	0.00e+00	123	29	0	865075200	40	5964
2026-01-10 14:13:57.83	37.25	33.42	-33.8	-34.7	24.3	0.00e+00	123	29	0	868220928	40	6050
2026-01-10 14:13:58.84	37.41	33.61	-33.9	-34.8	24.2	0.00e+00	123	29	0	871366656	40	6101
2026-01-10 14:13:59.85	37.57	33.81	-33.9	-34.8	24.3	0.00e+00	122	29	0	874512384	40	6085
2026-01-10 14:14:00.86	37.73	34.01	-34.0	-34.9	24.1	0.00e+00	123	29	0	877658112	40	6188
2026-01-10 14:14:01.87	37.89	34.21	-34.2	-35.1	24.0	0.00e+00	122	29	0	880803840	40	6340
2026-01-10 14:14:02.88	38.06	34.41	-34.4	-35.4	23.9	0.00e+00	122	29	0	883949568	40	6513
2026-01-10 14:14:03.89	38.22	34.62	-34.4	-35.3	23.9	0.00e+00	122	29	0	887095296	40	6467
2026-01-10 14:14:04.90	38.39	34.82	-34.6	-35.6	23.8	0.00e+00	123	29	0	890241024	40	6657
2026-01-10 14:14:05.91	38.56	35.03	-34.7	-35.6	23.6	0.00e+00	123	29	0	893386752	40	6684
2026-01-10 14:14:06.92	38.74	35.23	-34.7	-35.6	23.7	0.00e+00	122	29	0	896532480	42	5980
2026-01-10 14:14:07.93	38.91	35.44	-34.7	-35.6	23.7	0.00e+00	123	29	0	899678208	42	5974
2026-01-10 14:14:08.94	39.09	35.65	-34.6	-35.6	23.7	0.00e+00	123	29	0	902823936	42	5947
2026-01-10 14:14:09.95	39.27	35.85	-34.8	-35.7	23.6	0.00e+00	122	29	0	905969664	42	6039
2026-01-10 14:14:10.96	39.45	36.07	-34.8	-35.8	23.5	0.00e+00	122	29	0	909115392	42	6100
2026-01-10 14:14:11.97	39.63	36.28	-34.8	-35.7	23.6	0.00e+00	122	29	0	912261120	42	6048
2026-01-10 14:14:12.98	39.82	36.49	-34.9	-35.9	23.5	0.00e+00	123	30	0	915406848	42	6150
2026-01-10 14:14:13.98	40.01	36.70	-35.0	-36.0	23.4	0.00e+00	123	29	0	918552576	42	6223
2026-01-10 14:14:14.99	40.20	36.91	-34.8	-35.8	23.5	0.00e+00	123	30	0	921698304	42	6095
2026-01-10 14:14:16.00	40.39	37.13	-35.0	-35.9	23.5	0.00e+00	120	30	0	924844032	42	6183
2026-01-10 14:14:17.01	40.59	37.35	-34.8	-35.7	23.6	0.00e+00	123	29	0	927989760	42	6040
2026-01-10 14:14:18.02	40.79	37.56	-34.8	-35.7	23.6	0.00e+00	123	29	0	931135488	42	6061
2026-01-10 14:14:19.03	40.99	37.78	-35.1	-36.0	23.4	0.00e+00	122	30	0	934281216	42	6236
2026-01-10 14:14:20.04	41.19	38.00	-35.2	-36.2	23.3	0.00e+00	123	30	0	937426944	42	6367
2026-01-10 14:14:21.05	41.40	38.22	-35.3	-36.3	23.3	0.00e+00	123	29	0	940572672	42	6439
2026-01-10 14:14:22.06	41.61	38.44	-35.4	-36.4	23.1	0.00e+00	123	29	0	943718400	42	6502
2026-01-10 14:14:23.07	41.82	38.67	-35.6	-36.5	23.0	0.00e+00	123	30	0	946864128	42	6619
2026-01-10 14:14:24.08	42.03	38.89	-35.6	-36.5	23.0	0.00e+00	123	30	0	950009856	42	6621
2026-01-10 14:14:25.09	42.25	39.12	-35.6	-36.6	23.0	0.00e+00	123	29	0	953155584	42	6676
2026-01-10 14:14:26.10	42.47	39.34	-35.7	-36.7	22.8	0.00e+00	122	29	0	956301312	42	6771
2026-01-10 14:14:27.11	42.70	39.57	-35.9	-36.9	22.6	0.00e+00	123	29	0	959447040	44	6155
2026-01-10 14:14:28.12	42.93	39.80	-36.0	-37.0	22.6	0.00e+00	120	30	0	962592768	44	6249
2026-01-10 14:14:29.13	43.16	40.03	-36.1	-37.1	22.5	0.00e+00	123	29	0	965738496	44	6344
2026-01-10 14:14:30.15	43.39	40.26	-36.0	-37.0	22.6	0.00e+00	123	29	0	968884224	44	6247
2026-01-10 14:14:31.16	43.63	40.49	-36.0	-37.0	22.6	0.00e+00	122	29	0	972029952	44	6259
2026-01-10 14:14:32.16	43.87	40.72	-36.0	-37.1	22.6	0.00e+00	123	30	0	975175680	44	6286
2026-01-10 14:14:33.17	44.11	40.95	-36.1	-37.1	22.5	0.00e+00	123	29	0	978321408	44	6345
2026-01-10 14:14:34.18	44.36	41.18	-35.9	-36.9	22.6	0.00e+00	123	29	0	981467136	44	6165
2026-01-10 14:14:35.19	44.61	41.42	-35.8	-36.8	22.7	0.00e+00	123	29	0	984612864	44	6066
2026-01-10 14:14:36.20	44.86	41.65	-35.9	-36.9	22.6	0.00e+00	123	29	0	987758592	44	6153
2026-01-10 14:14:37.21	45.12	41.89	-35.9	-36.9	22.7	0.00e+00	123	29	0	990904320	44	6177
2026-01-10 14:14:38.22	45.38	42.13	-35.9	-36.9	22.6	0.00e+00	123	29	0	994050048	44	6184
2026-01-10 14:14:39.23	45.65	42.37	-36.2	-37.2	22.4	0.00e+00	123	30	0	997195776	44	6362
2026-01-10 14:14:40.24	45.92	42.61	-36.2	-37.2	22.4	0.00e+00	122	30	0	1000341504	44	6403
2026-01-10 14:14:41.25	46.19	42.85	-36.5	-37.5	22.2	0.00e+00	123	29	0	1003487232	44	6592
2026-01-10 14:14:42.26	46.47	43.09	-36.6	-37.7	22.0	0.00e+00	122	29	0	1006632960	44	6734
2026-01-10 14:14:43.27	46.75	43.33	-36.6	-37.7	21.9	0.00e+00	123	29	0	1009778688	44	6732
2026-01-10 14:14:44.28	47.03	43.57	-36.3	-37.4	22.3	0.00e+00	122	30	0	1012924416	44	6499
2026-01-10 14:14:45.29	47.32	43.81	-36.3	-37.3	22.3	0.00e+00	122	30	0	1016070144	44	6476
2026-01-10 14:14:46.30	47.62	44.06	-36.2	-37.3	22.2	0.00e+00	123	30	0	1019215872	44	6437
2026-01-10 14:14:47.31	47.92	44.30	-36.1	-37.1	22.4	0.00e+00	120	30	0	1022361600	44	6331
2026-01-10 14:14:48.32	48.22	44.55	-36.1	-37.1	22.5	0.00e+00	122	29	0	1025507328	44	6305
2026-01-10 14:14:49.33	48.53	44.79	-36.2	-37.2	22.3	0.00e+00	122	29	0	1028653056	44	6372
2026-01-10 14:14:50.34	48.84	45.04	-36.3	-37.3	22.2	0.00e+00	123	30	0	1031798784	44	6498
2026-01-10 14:14:51.35	49.16	45.29	-36.4	-37.4	22.1	0.00e+00	123	29	0	1034944512	44	6504
2026-01-10 14:14:52.36	49.48	45.54	-36.1	-37.1	22.5	0.00e+00	120	29	0	1038090240	44	6319
2026-01-10 14:14:53.37	49.81	45.78	-36.2	-37.2	22.4	0.00e+00	122	30	0	1041235968	44	6353
2026-01-10 14:14:54.37	50.14	46.03	-36.1	-37.1	22.5	0.00e+00	123	30	0	1044381696	44	6329
2026-01-10 14:14:55.38	50.48	46.28	-36.1	-37.0	22.5	0.00e+00	123	30	0	1047527424	44	6275
2026-01-10 14:14:56.39	50.82	46.53	-35.7	-36.7	22.8	0.00e+00	120	30	0	1050673152	44	5996
2026-01-10 14:14:57.40	51.17	46.78	-35.4	-36.4	23.0	0.00e+00	123	30	0	1053818880	44	5798
2026-01-10 14:14:58.41	51.52	47.03	-35.3	-36.3	23.2	0.00e+00	122	30	0	1056964608	44	5733
2026-01-10 14:14:59.42	51.88	47.28	-35.6	-36.6	22.9	0.00e+00	120	30	0	1060110336	44	5952
2026-01-10 14:15:00.44	52.25	47.54	-36.2	-37.2	22.5	0.00e+00	123	30	0	1063256064	44	6369
2026-01-10 14:15:01.44	52.62	47.79	-36.4	-37.4	22.3	0.00e+00	120	30	0	1066401792	44	6569
2026-01-10 14:15:02.46	53.00	48.04	-36.4	-37.4	22.2	0.00e+00	123	30	0	1069547520	44	6525
2026-01-10 14:15:03.47	53.39	48.29	-36.6	-37.6	22.1	0.00e+00	122	30	0	1072693248	44	6694
2026-01-10 14:15:04.48	53.78	48.54	-36.2	-37.2	22.5	0.00e+00	122	30	0	1075838976	44	6357
2026-01-10 14:15:05.49	54.17	48.80	-35.8	-36.8	22.7	0.00e+00	123	30	0	1078984704	44	6111
2026-01-10 14:15:06.50	54.58	49.05	-35.3	-36.3	23.1	0.00e+00	123	30	0	1082130432	44	5747
2026-01-10 14:15:07.51	54.99	49.30	-35.1	-36.0	23.3	0.00e+00	120	30	0	1085276160	44	5568
2026-01-10 14:15:08.52	55.40	49.55	-35.1	-36.0	23.4	0.00e+00	122	30	0	1088421888	44	5564
2026-01-10 14:15:09.52	55.82	49.80	-35.2	-36.1	23.1	0.00e+00	122	30	0	1091567616	44	5628
2026-01-10 14:15:10.54	56.26	50.05	-35.0	-35.9	23.3	0.00e+00	123	30	0	1094713344	44	5506
2026-01-10 14:15:11.55	56.69	50.30	-35.2	-36.2	23.2	0.00e+00	123	30	0	1097859072	44	5692
2026-01-10 14:15:12.56	57.14	50.56	-35.2	-36.2	23.2	0.00e+00	123	30	0	1101004800	44	5683
2026-01-10 14:15:13.57	57.59	50.81	-35.3	-36.3	23.1	0.00e+00	123	30	0	1104150528	44	5748
2026-01-10 14:15:14.58	58.05	51.06	-35.2	-36.2	22.9	0.00e+00	122	30	0	1107296256	44	5704
2026-01-10 14:15:15.59	58.52	51.30	-35.5	-36.5	22.9	0.00e+00	122	30	0	1110441984	44	5914
2026-01-10 14:15:16.60	58.99	51.55	-35.5	-36.5	23.0	0.00e+00	122	30	0	1114636288	44	5905
2026-01-10 14:15:17.61	59.47	51.80	-35.4	-36.4	23.1	0.00e+00	122	30	0	1117782016	44	5801
2026-01-10 14:15:18.62	59.96	52.05	-35.1	-36.0	23.3	0.00e+00	120	30	0	1119879168	44	5587
2026-01-10 14:15:19.63	60.46	52.29	-34.8	-35.8	23.5	0.00e+00	122	30	0	1123024896	42	6084
2026-01-10 14:15:20.63	60.96	52.54	-34.8	-35.8	23.6	0.00e+00	122	30	0	1126170624	42	6097
2026-01-10 14:15:21.64	61.48	52.78	-35.1	-36.1	23.3	0.00e+00	120	30	0	1130364928	42	6279
2026-01-10 14:15:22.65	62.00	53.02	-35.2	-36.2	23.1	0.00e+00	122	30	0	1133510656	42	6400
2026-01-10 14:15:23.66	62.54	53.26	-35.1	-36.1	23.1	0.00e+00	122	30	0	1136656384	42	6305
2026-01-10 14:15:24.67	63.08	53.50	-34.6	-35.5	23.6	0.00e+00	122	30	0	1139802112	42	5910
2026-01-10 14:15:25.68	63.63	53.74	-34.3	-35.2	23.8	0.00e+00	122	30	0	1141899264	42	5718
2026-01-10 14:15:26.69	64.19	53.98	-34.1	-35.0	24.0	0.00e+00	122	30	0	1146093568	42	5572
2026-01-10 14:15:27.70	64.76	54.22	-34.2	-35.1	24.1	0.00e+00	123	30	0	1149239296	42	5604
2026-01-10 14:15:28.71	65.33	54.45	-34.4	-35.3	23.9	0.00e+00	123	30	0	1152385024	42	5773
2026-01-10 14:15:29.72	65.92	54.68	-34.7	-35.7	23.7	0.00e+00	123	30	0	1155530752	42	6011
2026-01-10 14:15:30.73	66.52	54.91	-34.4	-35.4	23.9	0.00e+00	122	30	0	1158676480	42	5810
2026-01-10 14:15:31.74	67.12	55.14	-34.3	-35.3	23.9	0.00e+00	123	30	0	1161822208	42	5759
2026-01-10 14:15:32.75	67.74	55.37	-34.3	-35.2	24.1	0.00e+00	123	30	0	1164967936	42	5679
2026-01-10 14:15:33.76	68.37	55.59	-34.0	-34.9	24.2	0.00e+00	123	30	0	1168113664	42	5513
2026-01-10 14:15:34.77	69.00	55.81	-33.8	-34.8	24.3	0.00e+00	121	30	0	1171259392	42	5412
2026-01-10 14:15:35.78	69.65	56.03	-34.0	-35.0	24.2	0.00e+00	123	30	0	1174405120	42	5536
2026-01-10 14:15:36.79	70.30	56.24	-34.2	-35.2	24.1	0.00e+00	123	30	0	1177550848	42	5672
2026-01-10 14:15:37.80	70.97	56.46	-33.8	-34.7	24.4	0.00e+00	123	30	0	1180696576	42	5402
2026-01-10 14:15:38.81	71.65	56.67	-33.5	-34.4	24.7	0.00e+00	122	30	0	1183842304	40	5806
2026-01-10 14:15:39.82	72.33	56.87	-33.4	-34.2	24.7	0.00e+00	123	30	0	1186988032	40	5723
2026-01-10 14:15:40.83	73.03	57.08	-33.1	-34.0	24.7	0.00e+00	122	30	0	1190133760	40	5547
2026-01-10 14:15:41.84	73.74	57.28	-33.2	-34.0	24.4	0.00e+00	123	30	0	1193279488	40	5588
2026-01-10 14:15:42.85	74.46	57.47	-33.4	-34.3	24.5	0.00e+00	123	30	0	1196425216	40	5734
2026-01-10 14:15:43.86	75.18	57.67	-33.5	-34.4	24.2	0.00e+00	123	30	0	1199570944	40	5840
2026-01-10 14:15:44.87	75.92	57.86	-33.5	-34.4	24.2	0.00e+00	120	30	0	1202716672	40	5818
2026-01-10 14:15:45.88	76.67	58.04	-33.5	-34.4	24.1	0.00e+00	123	30	0	1205862400	40	5811
2026-01-10 14:15:46.89	77.43	58.23	-33.4	-34.3	24.1	0.00e+00	120	30	0	1209008128	40	5763
2026-01-10 14:15:47.90	78.20	58.40	-33.4	-34.3	24.3	0.00e+00	122	30	0	1212153856	40	5757
2026-01-10 14:15:48.91	78.98	58.58	-33.2	-34.1	24.8	0.00e+00	122	30	0	1215299584	40	5632
2026-01-10 14:15:49.92	79.77	58.75	-33.3	-34.2	24.7	0.00e+00	122	30	0	1218445312	40	5673
2026-01-10 14:15:50.92	80.56	58.91	-33.3	-34.2	24.7	0.00e+00	120	30	0	1221591040	40	5710
2026-01-10 14:15:51.93	81.37	59.07	-33.3	-34.2	24.8	0.00e+00	123	30	0	1224736768	40	5661
2026-01-10 14:15:52.95	82.20	59.22	-33.2	-34.1	24.7	0.00e+00	122	30	0	1227882496	40	5649
2026-01-10 14:15:53.96	83.02	59.37	-33.2	-34.1	24.8	0.00e+00	123	30	0	1231028224	40	5597
2026-01-10 14:15:54.97	83.86	59.52	-32.9	-33.8	24.9	0.00e+00	120	30	0	1234173952	40	5457
2026-01-10 14:15:55.98	84.71	59.66	-33.0	-33.9	24.9	0.00e+00	123	30	0	1237319680	40	5501
2026-01-10 14:15:56.99	85.56	59.79	-33.0	-33.9	24.9	0.00e+00	123	30	0	1240465408	40	5494
2026-01-10 14:15:58.00	86.43	59.92	-32.9	-33.7	24.9	0.00e+00	123	30	0	1243611136	40	5403
2026-01-10 14:15:59.01	87.30	60.05	-32.8	-33.7	25.0	0.00e+00	122	30	0	1246756864	40	5387
2026-01-10 14:16:00.02	88.18	60.16	-32.9	-33.7	25.0	0.00e+00	122	30	0	1249902592	40	5400
2026-01-10 14:16:01.03	89.07	60.27	-32.7	-33.5	25.3	0.00e+00	123	30	0	1253048320	38	5912
2026-01-10 14:16:02.04	89.97	60.38	-32.6	-33.5	25.3	0.00e+00	123	30	0	1256194048	38	5878
2026-01-10 14:16:03.05	90.87	60.48	-32.8	-33.7	25.1	0.00e+00	122	30	0	1259339776	38	6006
2026-01-10 14:16:04.06	91.79	60.57	-33.1	-34.0	24.8	0.00e+00	123	30	0	1262485504	38	6254
2026-01-10 14:16:05.07	92.70	60.66	-33.1	-33.9	24.9	0.00e+00	123	30	0	1265631232	38	6198
2026-01-10 14:16:06.08	93.63	60.74	-33.1	-33.9	24.9	0.00e+00	122	30	0	1268776960	38	6199
2026-01-10 14:16:07.10	94.56	60.82	-33.3	-34.2	24.5	0.00e+00	120	30	0	1271922688	38	6376
2026-01-10 14:16:08.10	95.49	60.88	-33.3	-34.1	24.7	0.00e+00	122	30	0	1275068416	38	6348
2026-01-10 14:16:09.11	96.43	60.95	-33.1	-34.0	24.8	0.00e+00	122	30	0	1278214144	38	6272
2026-01-10 14:16:10.12	97.37	61.00	-32.8	-33.7	24.7	0.00e+00	122	30	0	1281359872	38	6018
2026-01-10 14:16:11.13	98.32	61.05	-32.8	-33.7	24.8	0.00e+00	123	30	0	1284505600	38	6041
2026-01-10 14:16:12.15	99.28	61.09	-32.8	-33.7	25.1	0.00e+00	123	30	0	1287651328	38	6010
2026-01-10 14:16:13.16	100.24	61.12	-32.7	-33.5	25.3	0.00e+00	123	30	0	1290797056	38	5912
2026-01-10 14:16:14.17	101.19	61.15	-32.9	-33.8	25.0	0.00e+00	123	30	0	1293942784	38	6073
2026-01-10 14:16:15.18	102.15	61.17	-33.2	-34.1	24.8	0.00e+00	122	30	0	1297088512	38	6338
2026-01-10 14:16:16.18	103.10	61.18	-33.2	-34.1	24.8	0.00e+00	122	30	0	1300234240	38	6309
2026-01-10 14:16:17.20	104.07	61.19	-32.7	-33.6	25.1	0.00e+00	123	30	0	1303379968	38	5940
2026-01-10 14:16:18.21	105.03	61.19	-32.8	-33.7	24.9	0.00e+00	123	30	0	1306525696	38	6052
2026-01-10 14:16:19.22	105.99	61.18	-33.1	-34.0	24.8	0.00e+00	120	30	0	1309671424	38	6249
2026-01-10 14:16:20.23	106.95	61.17	-32.9	-33.8	25.1	0.00e+00	123	30	0	1312817152	38	6104
2026-01-10 14:16:21.24	107.91	61.15	-32.7	-33.5	25.3	0.00e+00	123	30	0	1315962880	38	5908
2026-01-10 14:16:22.25	108.86	61.12	-32.7	-33.5	25.2	0.00e+00	123	30	0	1319108608	38	5921
2026-01-10 14:16:23.26	109.82	61.09	-32.9	-33.8	25.2	0.00e+00	120	30	0	1322254336	38	6068
2026-01-10 14:16:24.27	110.77	61.04	-32.2	-33.0	25.6	0.00e+00	122	30	0	1325400064	38	5555
2026-01-10 14:16:25.28	111.72	61.00	-32.1	-33.0	25.5	0.00e+00	120	30	0	1328545792	38	5537
2026-01-10 14:16:26.29	112.66	60.94	-32.6	-33.4	25.2	0.00e+00	122	30	0	1331691520	38	5815
2026-01-10 14:16:27.30	113.60	60.88	-33.0	-33.9	24.9	0.00e+00	123	30	0	1334837248	38	6161
2026-01-10 14:16:28.31	114.53	60.81	-33.1	-34.0	24.9	0.00e+00	123	30	0	1337982976	38	6255
2026-01-10 14:16:29.32	115.46	60.73	-33.1	-33.9	25.0	0.00e+00	122	30	0	1341128704	38	6202
2026-01-10 14:16:30.33	116.39	60.65	-33.1	-34.0	24.9	0.00e+00	122	30	0	1344274432	38	6212
2026-01-10 14:16:31.34	117.30	60.56	-32.6	-33.4	25.3	0.00e+00	120	30	0	1347420160	38	5831
2026-01-10 14:16:32.35	118.21	60.47	-32.4	-33.3	25.4	0.00e+00	120	30	0	1350565888	38	5751
2026-01-10 14:16:33.37	119.13	60.37	-32.6	-33.5	25.4	0.00e+00	123	30	0	1353711616	38	5880
2026-01-10 14:16:34.38	120.02	60.26	-33.0	-33.9	24.9	0.00e+00	123	30	0	1356857344	38	6141
2026-01-10 14:16:35.39	120.91	60.15	-33.0	-33.9	24.9	0.00e+00	123	30	0	1360003072	38	6186
2026-01-10 14:16:36.39	121.79	60.03	-32.7	-33.6	25.1	0.00e+00	123	30	0	1363148800	38	5961
2026-01-10 14:16:37.40	122.66	59.91	-32.7	-33.6	25.1	0.00e+00	123	30	0	1366294528	38	5940
2026-01-10 14:16:38.42	123.53	59.78	-32.7	-33.6	25.2	0.00e+00	123	30	0	1369440256	38	5972
2026-01-10 14:16:39.42	124.38	59.65	-33.0	-33.8	25.1	0.00e+00	122	30	0	1372585984	38	6126
2026-01-10 14:16:40.43	125.23	59.50	-32.9	-33.7	25.1	0.00e+00	122	30	0	1375731712	38	6059
2026-01-10 14:16:41.44	126.07	59.36	-33.0	-33.8	24.9	0.00e+00	122	30	0	1378877440	38	6131
2026-01-10 14:16:42.45	126.89	59.21	-32.7	-33.6	25.1	0.00e+00	123	30	0	1382023168	38	5934
2026-01-10 14:16:43.46	127.71	59.05	-32.7	-33.5	25.1	0.00e+00	123	30	0	1385168896	38	5911
2026-01-10 14:16:44.47	128.52	58.89	-32.7	-33.6	25.0	0.00e+00	123	30	0	1388314624	38	5931
2026-01-10 14:16:45.48	129.32	58.73	-32.8	-33.7	25.1	0.00e+00	123	30	0	1391460352	38	6047
2026-01-10 14:16:46.49	130.11	58.56	-32.7	-33.6	25.2	0.00e+00	123	30	0	1394606080	38	5948
2026-01-10 14:16:47.50	130.89	58.38	-32.8	-33.6	25.2	0.00e+00	122	30	0	1397751808	38	5982
2026-01-10 14:16:48.51	131.66	58.20	-32.7	-33.5	25.2	0.00e+00	123	30	0	1400897536	38	5926
2026-01-10 14:16:49.52	132.42	58.02	-33.2	-34.1	24.5	0.00e+00	123	30	0	1404043264	38	6335
2026-01-10 14:16:50.53	133.17	57.84	-34.0	-34.9	24.1	0.00e+00	123	30	0	1407188992	40	6202
2026-01-10 14:16:51.54	133.91	57.65	-34.0	-34.9	24.3	0.00e+00	123	30	0	1410334720	40	6199
2026-01-10 14:16:52.55	134.63	57.45	-33.7	-34.6	24.5	0.00e+00	123	30	0	1413480448	40	5929
2026-01-10 14:16:53.56	135.35	57.25	-33.5	-34.4	24.5	0.00e+00	122	30	0	1416626176	40	5847
2026-01-10 14:16:54.57	136.06	57.05	-33.3	-34.2	24.8	0.00e+00	122	30	0	1419771904	40	5696
2026-01-10 14:16:55.58	136.76	56.85	-33.3	-34.2	24.8	0.00e+00	120	30	0	1422917632	40	5679
2026-01-10 14:16:56.60	137.45	56.64	-33.1	-33.9	25.0	0.00e+00	123	30	0	1427111936	40	5528
2026-01-10 14:16:57.61	138.13	56.43	-33.6	-34.5	24.6	0.00e+00	123	30	0	1430257664	40	5869
2026-01-10 14:16:58.62	138.79	56.21	-33.5	-34.4	24.5	0.00e+00	123	30	0	1433403392	40	5797
2026-01-10 14:16:59.62	139.44	56.00	-33.7	-34.6	24.3	0.00e+00	123	30	0	1435500544	40	5954
2026-01-10 14:17:00.63	140.09	55.78	-33.6	-34.5	24.5	0.00e+00	123	30	0	1438646272	40	5883
2026-01-10 14:17:01.65	140.73	55.56	-33.5	-34.4	24.4	0.00e+00	122	30	0	1442840576	40	5839
2026-01-10 14:17:02.66	141.36	55.33	-33.7	-34.6	24.5	0.00e+00	123	30	0	1445986304	40	5947
2026-01-10 14:17:03.67	141.97	55.10	-34.0	-34.9	24.3	0.00e+00	122	30	0	1449132032	40	6169
2026-01-10 14:17:04.68	142.58	54.88	-34.5	-35.4	23.7	0.00e+00	122	30	0	1452277760	40	6570
2026-01-10 14:17:05.69	143.17	54.64	-34.9	-35.9	23.5	0.00e+00	122	30	0	1455423488	42	6192
2026-01-10 14:17:06.70	143.76	54.41	-34.8	-35.8	23.6	0.00e+00	123	30	0	1458569216	42	6070
2026-01-10 14:17:07.71	144.34	54.18	-34.6	-35.6	23.6	0.00e+00	122	30	0	1461714944	42	5927
2026-01-10 14:17:08.72	144.91	53.94	-34.5	-35.5	23.3	0.00e+00	123	30	0	1464860672	42	5904
2026-01-10 14:17:09.73	145.47	53.70	-34.7	-35.7	23.6	0.00e+00	122	30	0	1468006400	42	6035
2026-01-10 14:17:10.74	146.02	53.46	-34.4	-35.4	23.8	0.00e+00	122	30	0	1471152128	42	5811
2026-01-10 14:17:11.75	146.56	53.22	-34.5	-35.4	23.9	0.00e+00	122	30	0	1474297856	42	5852
2026-01-10 14:17:12.76	147.09	52.98	-34.8	-35.8	23.3	0.00e+00	123	30	0	1477443584	42	6120
2026-01-10 14:17:13.77	147.62	52.74	-35.5	-36.4	23.1	0.00e+00	122	30	0	1480589312	42	6563
2026-01-10 14:17:14.78	148.13	52.49	-35.1	-36.1	23.3	0.00e+00	123	30	0	1483735040	42	6314
2026-01-10 14:17:15.79	148.64	52.24	-34.4	-35.4	23.8	0.00e+00	123	30	0	1486880768	42	5795
2026-01-10 14:17:16.80	149.14	52.00	-34.2	-35.1	24.1	0.00e+00	123	30	0	1490026496	42	5605
2026-01-10 14:17:17.81	149.63	51.75	-34.3	-35.2	24.1	0.00e+00	123	30	0	1493172224	42	5711
2026-01-10 14:17:18.82	150.11	51.50	-34.3	-35.2	24.1	0.00e+00	122	30	0	1496317952	42	5718
2026-01-10 14:17:19.83	150.58	51.25	-34.9	-35.8	23.5	0.00e+00	123	30	0	1499463680	42	6112
2026-01-10 14:17:20.84	151.05	51.00	-35.7	-36.7	22.8	0.00e+00	122	30	0	1502609408	42	6769
2026-01-10 14:17:21.85	151.51	50.75	-36.6	-37.7	21.9	0.00e+00	123	30	0	1505755136	44	6784
2026-01-10 14:17:22.86	151.96	50.50	-36.7	-37.8	21.9	0.00e+00	123	30	0	1508900864	46	6122
2026-01-10 14:17:23.87	152.40	50.25	-36.0	-37.0	22.3	0.00e+00	123	30	0	1512046592	46	5553
2026-01-10 14:17:24.88	152.84	50.00	-35.8	-36.8	22.1	0.00e+00	123	30	0	1515192320	44	6120
2026-01-10 14:17:25.89	153.27	49.74	-35.2	-36.2	22.9	0.00e+00	123	30	0	1518338048	44	5686
2026-01-10 14:17:26.90	153.69	49.49	-34.6	-35.6	23.6	0.00e+00	122	30	0	1521483776	42	5931
2026-01-10 14:17:27.91	154.11	49.24	-34.9	-35.9	23.5	0.00e+00	120	30	0	1524629504	42	6143
2026-01-10 14:17:28.92	154.52	48.99	-35.8	-36.8	22.7	0.00e+00	122	30	0	1527775232	42	6853
2026-01-10 14:17:29.93	154.92	48.73	-36.5	-37.6	22.0	0.00e+00	123	30	0	1530920960	44	6714
2026-01-10 14:17:30.94	155.32	48.48	-36.7	-37.8	22.0	0.00e+00	122	30	0	1534066688	44	6847
2026-01-10 14:17:31.95	155.71	48.23	-36.3	-37.4	22.4	0.00e+00	120	30	0	1537212416	44	6502
2026-01-10 14:17:32.96	156.09	47.97	-35.6	-36.6	22.9	0.00e+00	123	30	0	1540358144	44	5989
2026-01-10 14:17:33.97	156.47	47.72	-35.5	-36.5	22.7	0.00e+00	122	30	0	1543503872	44	5909
2026-01-10 14:17:34.98	156.84	47.47	-35.4	-36.4	23.0	0.00e+00	120	30	0	1546649600	44	5841
2026-01-10 14:17:35.99	157.21	47.22	-35.1	-36.1	23.4	0.00e+00	123	30	0	1549795328	44	5608
2026-01-10 14:17:36.99	157.56	46.97	-35.0	-35.9	23.5	0.00e+00	120	30	0	1552941056	44	5478
2026-01-10 14:17:38.01	157.92	46.71	-35.3	-36.3	23.2	0.00e+00	123	30	0	1556086784	44	5758
2026-01-10 14:17:39.02	158.27	46.46	-36.3	-37.4	22.2	0.00e+00	120	30	0	1559232512	44	6529
2026-01-10 14:17:40.03	158.61	46.21	-37.4	-38.6	21.2	0.00e+00	123	30	0	1562378240	46	6708
2026-01-10 14:17:41.04	158.95	45.96	-37.6	-38.8	21.1	0.00e+00	120	30	0	1565523968	46	6862
2026-01-10 14:17:42.05	159.28	45.71	-37.1	-38.2	21.5	0.00e+00	122	30	0	1568669696	46	6407
2026-01-10 14:17:43.06	159.61	45.46	-36.9	-38.0	21.6	0.00e+00	123	30	0	1571815424	46	6239
2026-01-10 14:17:44.07	159.93	45.21	-37.1	-38.2	21.6	0.00e+00	122	30	0	1574961152	46	6409
2026-01-10 14:17:45.08	160.25	44.97	-37.0	-38.1	21.7	0.00e+00	122	30	0	1578106880	46	6328
2026-01-10 14:17:46.09	160.56	44.72	-36.6	-37.6	21.9	0.00e+00	120	30	0	1581252608	46	5990
2026-01-10 14:17:47.10	160.87	44.47	-36.2	-37.2	22.2	0.00e+00	123	30	0	1584398336	46	5716
2026-01-10 14:17:48.11	161.17	44.22	-36.0	-37.0	22.5	0.00e+00	123	30	0	1587544064	46	5546
2026-01-10 14:17:49.12	161.47	43.98	-36.2	-37.2	22.4	0.00e+00	123	30	0	1590689792	46	5703
2026-01-10 14:17:50.13	161.77	43.73	-36.6	-37.6	22.1	0.00e+00	122	30	0	1593835520	46	5946
2026-01-10 14:17:51.14	162.06	43.49	-36.3	-37.3	22.2	0.00e+00	123	30	0	1596981248	46	5778
2026-01-10 14:17:52.15	162.34	43.25	-36.1	-37.0	22.5	0.00e+00	122	30	0	1600126976	46	5590
2026-01-10 14:17:53.16	162.62	43.00	-35.8	-36.8	22.8	0.00e+00	121	30	0	1603272704	46	5437
2026-01-10 14:17:54.17	162.90	42.76	-35.6	-36.5	23.0	0.00e+00	123	30	0	1606418432	44	5920
2026-01-10 14:17:55.18	163.17	42.52	-35.6	-36.6	23.0	0.00e+00	123	30	0	1609564160	44	5934
2026-01-10 14:17:56.19	163.44	42.28	-35.0	-35.9	23.5	0.00e+00	123	30	0	1612709888	44	5497
2026-01-10 14:17:57.20	163.71	42.04	-34.8	-35.6	23.7	0.00e+00	120	30	0	1615855616	42	5988
2026-01-10 14:17:58.21	163.97	41.80	-35.1	-36.0	23.4	0.00e+00	122	30	0	1619001344	42	6247
2026-01-10 14:17:59.22	164.23	41.57	-35.6	-36.5	23.0	0.00e+00	123	30	0	1622147072	42	6633
2026-01-10 14:18:00.23	164.48	41.33	-35.8	-36.8	22.8	0.00e+00	121	30	0	1625292800	44	6074
2026-01-10 14:18:01.24	164.73	41.09	-35.9	-36.9	22.7	0.00e+00	123	30	0	1628438528	44	6145
2026-01-10 14:18:02.25	164.98	40.86	-35.6	-36.6	22.8	0.00e+00	122	30	0	1631584256	44	5980
2026-01-10 14:18:03.26	165.22	40.63	-35.4	-36.3	22.9	0.00e+00	122	30	0	1634729984	44	5778
2026-01-10 14:18:04.27	165.46	40.39	-35.1	-36.0	23.0	0.00e+00	122	30	0	1637875712	44	5580
2026-01-10 14:18:05.28	165.70	40.16	-35.4	-36.4	22.6	0.00e+00	122	30	0	1641021440	44	5809
2026-01-10 14:18:06.29	165.93	39.93	-35.7	-36.7	22.6	0.00e+00	122	30	0	1644167168	44	6058
2026-01-10 14:18:07.30	166.16	39.70	-35.8	-36.8	22.8	0.00e+00	122	30	0	1647312896	44	6065
2026-01-10 14:18:08.31	166.39	39.47	-35.5	-36.5	23.1	0.00e+00	120	30	0	1650458624	44	5864
2026-01-10 14:18:09.32	166.61	39.24	-35.6	-36.5	23.0	0.00e+00	123	30	0	1653604352	44	5916
2026-01-10 14:18:10.33	166.83	39.02	-35.5	-36.5	23.0	0.00e+00	121	30	0	1656750080	44	5871
2026-01-10 14:18:11.34	167.05	38.79	-35.6	-36.6	22.9	0.00e+00	123	30	0	1659895808	44	5928
2026-01-10 14:18:12.35	167.27	38.57	-35.6	-36.6	22.7	0.00e+00	122	30	0	1663041536	44	5933
2026-01-10 14:18:13.36	167.48	38.34	-35.9	-36.9	22.6	0.00e+00	122	30	0	1666187264	44	6180
2026-01-10 14:18:14.37	167.69	38.12	-36.3	-37.3	22.3	0.00e+00	122	30	0	1669332992	44	6471
2026-01-10 14:18:15.38	167.89	37.90	-36.2	-37.3	22.4	0.00e+00	120	30	0	1672478720	44	6445
2026-01-10 14:18:16.39	168.10	37.68	-36.0	-37.0	22.5	0.00e+00	123	30	0	1675624448	44	6255
2026-01-10 14:18:17.40	168.30	37.46	-35.9	-37.0	22.8	0.00e+00	122	30	0	1678770176	44	6209
2026-01-10 14:18:18.41	168.50	37.24	-35.5	-36.5	22.9	0.00e+00	123	30	0	1681915904	44	5905
2026-01-10 14:18:19.42	168.69	37.02	-35.2	-36.1	23.3	0.00e+00	122	30	0	1685061632	44	5645
2026-01-10 14:18:20.43	168.88	36.81	-34.9	-35.9	23.5	0.00e+00	123	30	0	1688207360	44	5470
2026-01-10 14:18:21.44	169.08	36.59	-34.4	-35.3	23.9	0.00e+00	122	30	0	1691353088	42	5753
2026-01-10 14:18:22.45	169.26	36.38	-34.4	-35.3	23.9	0.00e+00	122	30	0	1694498816	42	5765
2026-01-10 14:18:23.46	169.45	36.17	-34.6	-35.5	23.8	0.00e+00	122	30	0	1697644544	42	5882
2026-01-10 14:18:24.47	169.63	35.95	-34.6	-35.5	23.9	0.00e+00	122	30	0	1700790272	42	5901
2026-01-10 14:18:25.48	169.82	35.74	-34.7	-35.6	23.7	0.00e+00	123	30	0	1703936000	42	5976
2026-01-10 14:18:26.49	169.99	35.53	-35.0	-35.9	23.5	0.00e+00	123	30	0	1707081728	42	6179
2026-01-10 14:18:27.50	170.17	35.33	-35.2	-36.1	23.4	0.00e+00	120	30	0	1710227456	42	6329
2026-01-10 14:18:28.51	170.35	35.12	-35.2	-36.2	23.3	0.00e+00	123	30	0	1713373184	42	6362
2026-01-10 14:18:29.52	170.52	34.91	-35.3	-36.3	23.1	0.00e+00	122	30	0	1716518912	42	6474
2026-01-10 14:18:30.53	170.69	34.71	-35.6	-36.6	22.9	0.00e+00	122	30	0	1719664640	42	6689
2026-01-10 14:18:31.54	170.86	34.50	-35.5	-36.5	23.0	0.00e+00	120	30	0	1723858944	42	6620
2026-01-10 14:18:32.55	171.02	34.30	-35.3	-36.3	23.2	0.00e+00	123	30	0	1725956096	42	6451
2026-01-10 14:18:33.57	171.19	34.09	-35.1	-36.1	23.3	0.00e+00	123	30	0	1729101824	42	6294
2026-01-10 14:18:34.57	171.35	33.89	-34.5	-35.4	23.8	0.00e+00	122	30	0	1732247552	42	5848
2026-01-10 14:18:35.58	171.51	33.69	-34.3	-35.2	24.0	0.00e+00	123	30	0	1735393280	42	5682
2026-01-10 14:18:36.60	171.67	33.49	-34.3	-35.2	23.9	0.00e+00	122	30	0	1739587584	42	5713
2026-01-10 14:18:37.61	171.83	33.30	-34.1	-35.0	24.1	0.00e+00	123	30	0	1742733312	42	5572
2026-01-10 14:18:38.62	171.98	33.10	-33.9	-34.8	24.4	0.00e+00	123	30	0	1745879040	42	5422
2026-01-10 14:18:39.63	172.13	32.90	-33.7	-34.6	24.4	0.00e+00	123	30	0	1749024768	40	5950
2026-01-10 14:18:40.64	172.29	32.71	-33.7	-34.5	24.6	0.00e+00	123	30	0	1751121920	40	5911
2026-01-10 14:18:41.65	172.44	32.51	-33.5	-34.4	24.6	0.00e+00	122	30	0	1755316224	40	5820
2026-01-10 14:18:42.66	172.58	32.32	-33.3	-34.2	24.8	0.00e+00	123	30	0	1758461952	40	5671
2026-01-10 14:18:43.67	172.73	32.13	-33.2	-34.1	24.8	0.00e+00	123	30	0	1761607680	40	5612
2026-01-10 14:18:44.67	172.87	31.94	-33.2	-34.0	24.9	0.00e+00	122	30	0	1764753408	40	5579
2026-01-10 14:18:45.68	173.01	31.75	-33.3	-34.1	24.7	0.00e+00	123	30	0	1767899136	40	5638
2026-01-10 14:18:46.69	173.16	31.56	-33.2	-34.1	24.8	0.00e+00	122	30	0	1771044864	40	5621
2026-01-10 14:18:47.70	173.30	31.37	-33.4	-34.3	24.8	0.00e+00	123	30	0	1774190592	40	5736
2026-01-10 14:18:48.71	173.43	31.19	-33.6	-34.5	24.5	0.00e+00	123	30	0	1777336320	40	5875
2026-01-10 14:18:49.72	173.57	31.00	-33.7	-34.6	24.5	0.00e+00	120	30	0	1780482048	40	5935
2026-01-10 14:18:50.73	173.71	30.82	-33.6	-34.5	24.5	0.00e+00	122	30	0	1783627776	40	5869
2026-01-10 14:18:51.75	173.84	30.63	-33.7	-34.6	24.5	0.00e+00	123	30	0	1786773504	40	5958
2026-01-10 14:18:52.75	173.97	30.45	-33.7	-34.5	24.4	0.00e+00	122	30	0	1789919232	40	5926
2026-01-10 14:18:53.76	174.10	30.27	-33.6	-34.6	24.4	0.00e+00	123	30	0	1793064960	40	5938
2026-01-10 14:18:54.78	174.23	30.09	-33.6	-34.5	24.4	0.00e+00	123	30	0	1796210688	40	5926
2026-01-10 14:18:55.79	174.36	29.91	-33.4	-34.3	24.6	0.00e+00	123	30	0	1799356416	40	5761
2026-01-10 14:18:56.80	174.49	29.73	-33.2	-34.1	24.8	0.00e+00	120	30	0	1802502144	40	5629
2026-01-10 14:18:57.81	174.61	29.55	-33.2	-34.1	24.7	0.00e+00	123	30	0	1805647872	40	5636
2026-01-10 14:18:58.81	174.73	29.38	-33.0	-33.9	24.7	0.00e+00	122	30	0	1808793600	40	5479
2026-01-10 14:18:59.83	174.86	29.20	-32.9	-33.8	24.8	0.00e+00	123	30	0	1811939328	40	5440
2026-01-10 14:19:00.84	174.98	29.02	-32.9	-33.8	24.8	0.00e+00	123	30	0	1815085056	40	5412
2026-01-10 14:19:01.85	175.10	28.85	-32.8	-33.7	24.7	0.00e+00	122	30	0	1818230784	40	5387
2026-01-10 14:19:02.86	175.22	28.68	-33.0	-33.9	24.7	0.00e+00	120	30	0	1821376512	40	5486
2026-01-10 14:19:03.86	175.33	28.51	-33.0	-33.9	24.8	0.00e+00	122	30	0	1824522240	40	5509
2026-01-10 14:19:04.87	175.45	28.34	-33.2	-34.1	24.7	0.00e+00	123	30	0	1827667968	40	5637
2026-01-10 14:19:05.88	175.57	28.17	-33.2	-34.1	24.8	0.00e+00	122	30	0	1830813696	40	5617
2026-01-10 14:19:06.89	175.68	28.00	-33.2	-34.1	24.9	0.00e+00	122	30	0	1833959424	40	5631
2026-01-10 14:19:07.90	175.79	27.83	-33.2	-34.0	24.9	0.00e+00	120	30	0	1837105152	40	5586
2026-01-10 14:19:08.91	175.90	27.66	-33.1	-33.9	24.9	0.00e+00	122	30	0	1840250880	40	5522
2026-01-10 14:19:09.92	176.01	27.50	-33.1	-34.0	25.0	0.00e+00	123	30	0	1843396608	40	5532
2026-01-10 14:19:10.93	176.12	27.33	-33.0	-33.9	24.9	0.00e+00	123	30	0	1846542336	40	5497
2026-01-10 14:19:11.94	176.23	27.16	-33.0	-33.9	24.9	0.00e+00	122	30	0	1849688064	40	5475
2026-01-10 14:19:12.95	176.34	27.00	-32.8	-33.7	25.1	0.00e+00	120	30	0	1852833792	40	5359
2026-01-10 14:19:13.96	176.45	26.84	-33.0	-33.9	25.0	0.00e+00	122	30	0	1855979520	40	5468
2026-01-10 14:19:14.97	176.55	26.68	-33.0	-33.9	25.0	0.00e+00	122	30	0	1859125248	40	5484
2026-01-10 14:19:15.98	176.66	26.51	-33.2	-34.0	24.8	0.00e+00	123	30	0	1862270976	40	5592
2026-01-10 14:19:16.99	176.76	26.35	-33.2	-34.1	24.8	0.00e+00	123	30	0	1865416704	40	5622
2026-01-10 14:19:18.00	176.86	26.20	-33.3	-34.2	24.7	0.00e+00	123	30	0	1868562432	40	5693
2026-01-10 14:19:19.01	176.96	26.04	-33.3	-34.2	24.6	0.00e+00	123	30	0	1871708160	40	5708
2026-01-10 14:19:20.02	177.06	25.88	-33.4	-34.3	24.7	0.00e+00	123	30	0	1874853888	40	5729
2026-01-10 14:19:21.03	177.16	25.72	-33.3	-34.2	24.6	0.00e+00	122	30	0	1877999616	40	5719
2026-01-10 14:19:22.04	177.26	25.57	-33.4	-34.3	24.6	0.00e+00	123	30	0	1881145344	40	5736
2026-01-10 14:19:23.05	177.36	25.41	-33.4	-34.3	24.5	0.00e+00	122	30	0	1884291072	40	5782
2026-01-10 14:19:24.06	177.45	25.26	-33.4	-34.3	24.5	0.00e+00	120	30	0	1887436800	40	5769
2026-01-10 14:19:25.07	177.55	25.10	-33.4	-34.3	24.6	0.00e+00	122	30	0	1890582528	40	5750
2026-01-10 14:19:26.08	177.64	24.95	-33.3	-34.2	24.5	0.00e+00	120	30	0	1893728256	40	5722
2026-01-10 14:19:27.09	177.74	24.80	-33.3	-34.2	24.6	0.00e+00	123	30	0	1896873984	40	5678
2026-01-10 14:19:28.10	177.83	24.65	-33.3	-34.2	24.5	0.00e+00	120	30	0	1900019712	40	5665
2026-01-10 14:19:29.11	177.92	24.50	-33.3	-34.2	24.5	0.00e+00	122	30	0	1903165440	40	5666
2026-01-10 14:19:30.12	178.01	24.35	-33.3	-34.2	24.5	0.00e+00	123	30	0	1906311168	40	5721
2026-01-10 14:19:31.13	178.11	24.20	-33.1	-34.0	24.7	0.00e+00	122	30	0	1909456896	40	5534
2026-01-10 14:19:32.14	178.20	24.05	-33.1	-33.9	24.7	0.00e+00	122	30	0	1912602624	40	5521
2026-01-10 14:19:33.15	178.28	23.90	-33.2	-34.1	24.5	0.00e+00	122	30	0	1915748352	40	5629
2026-01-10 14:19:34.16	178.37	23.76	-33.0	-33.9	24.7	0.00e+00	122	30	0	1918894080	40	5468
2026-01-10 14:19:35.17	178.46	23.61	-33.1	-34.0	24.6	0.00e+00	122	30	0	1922039808	40	5546
2026-01-10 14:19:36.18	178.55	23.46	-33.2	-34.0	24.6	0.00e+00	123	30	0	1925185536	40	5584
2026-01-10 14:19:37.19	178.63	23.32	-32.9	-33.8	24.9	7.00e-07	123	30	0	1928331264	40	5433
2026-01-10 14:19:38.20	178.72	23.18	-32.9	-33.7	24.9	0.00e+00	122	30	0	1931476992	40	5399
2026-01-10 14:19:39.21	178.80	23.03	-32.8	-33.7	25.0	0.00e+00	121	30	0	1934622720	40	5379
2026-01-10 14:19:40.22	178.89	22.89	-33.0	-33.9	24.9	0.00e+00	123	30	0	1937768448	40	5484
2026-01-10 14:19:41.23	178.97	22.75	-32.9	-33.8	24.9	0.00e+00	122	30	0	1940914176	40	5412
2026-01-10 14:19:42.24	179.05	22.61	-32.9	-33.8	25.0	0.00e+00	123	30	0	1944059904	40	5420
2026-01-10 14:19:43.25	179.13	22.47	-32.9	-33.7	24.9	0.00e+00	122	30	0	1947205632	40	5399
2026-01-10 14:19:44.26	179.21	22.33	-32.9	-33.8	24.9	0.00e+00	120	30	0	1950351360	40	5435
2026-01-10 14:19:45.27	179.29	22.19	-32.9	-33.7	24.9	0.00e+00	123	30	0	1953497088	40	5391
2026-01-10 14:19:46.28	179.37	22.05	-33.0	-33.8	24.9	0.00e+00	120	30	0	1956642816	40	5455
2026-01-10 14:19:47.29	179.45	21.92	-33.1	-34.0	24.8	0.00e+00	123	30	0	1959788544	40	5554
2026-01-10 14:19:48.30	179.53	21.78	-33.2	-34.1	24.7	0.00e+00	122	30	0	1962934272	40	5597
2026-01-10 14:19:49.31	179.61	21.64	-33.2	-34.1	24.6	0.00e+00	123	30	0	1966080000	40	5641
2026-01-10 14:19:50.32	179.68	21.51	-33.4	-34.2	24.6	0.00e+00	122	30	0	1969225728	40	5725
2026-01-10 14:19:51.33	179.76	21.38	-33.3	-34.2	24.6	0.00e+00	123	30	0	1972371456	40	5720
2026-01-10 14:19:52.34	179.84	21.24	-33.5	-34.4	24.5	0.00e+00	122	30	0	1975517184	40	5800
2026-01-10 14:19:53.35	179.91	21.11	-33.5	-34.4	24.4	0.00e+00	122	30	0	1978662912	40	5819
2026-01-10 14:19:54.36	179.98	20.98	-33.5	-34.4	24.4	0.00e+00	120	30	0	1981808640	40	5832
