passes_logs/2026/01/10/R4.6S_Anadyr/R4.6S_Anadyr__20260110_161830_SUOMI_NPP_rec.log

#Pass ID: 20260110_161830_SUOMI NPP
#Satellite: SUOMI NPP
#Configuration: NPP
#almurnet v.1.7.20251203
#Start time: 2026-01-10 16:18:31

#Version: 2.2.20231116
#Station: R4.6S_Anadyr
#Location: 177.4865 lon 64.73178 lat
#TLE: 1 37849U 11061A   26009.81756760  .00000113  00000+0  74747-4 0  9994
#TLE: 2 37849  98.7806 311.9110 0002525  72.5604 287.5848 14.19524046735974

#Time	Az	El	Level	Level2	SNR	BER	BlckErr	Temp	State	Recorded	gain1	gain2
2026-01-10 16:18:31.09	25.21	0.06	-48.4	-66.3	3.5	3.02e+01	0	28	0	0	60	79100
2026-01-10 16:18:32.10	25.18	0.12	-48.5	-63.7	3.5	1.51e+00	0	29	104	0	60	55339
2026-01-10 16:18:33.11	25.14	0.18	-48.3	-63.5	3.6	1.51e+00	0	29	104	0	60	54202
2026-01-10 16:18:34.11	25.10	0.24	-48.3	-63.5	3.6	1.51e+00	0	29	104	0	60	53789
2026-01-10 16:18:35.13	25.07	0.29	-48.3	-63.5	3.6	1.51e+00	0	29	104	0	60	54343
2026-01-10 16:18:36.13	25.03	0.35	-48.3	-63.5	3.6	1.51e+00	0	29	104	0	60	54379
2026-01-10 16:18:37.14	25.00	0.41	-48.3	-63.5	3.6	1.51e+00	0	29	104	0	60	53878
2026-01-10 16:18:38.15	24.96	0.47	-48.3	-63.5	3.6	1.51e+00	0	29	104	0	60	53780
2026-01-10 16:18:39.16	24.92	0.53	-48.2	-63.4	3.6	1.51e+00	0	29	104	0	60	53502
2026-01-10 16:18:40.17	24.89	0.59	-48.1	-63.3	3.6	1.51e+00	0	29	104	0	60	53085
2026-01-10 16:18:41.18	24.85	0.65	-48.0	-63.3	3.6	1.51e+00	0	29	104	0	60	52774
2026-01-10 16:18:42.19	24.81	0.71	-47.9	-63.1	3.6	1.51e+00	0	29	104	0	60	51612
2026-01-10 16:18:43.20	24.78	0.76	-47.8	-62.9	3.6	1.51e+00	0	29	104	0	60	50454
2026-01-10 16:18:44.21	24.74	0.82	-47.6	-62.8	3.6	1.51e+00	0	29	104	0	60	49716
2026-01-10 16:18:45.22	24.70	0.88	-47.4	-62.6	3.6	1.51e+00	0	29	104	0	60	48921
2026-01-10 16:18:46.23	24.67	0.94	-47.1	-62.3	3.6	1.51e+00	0	29	104	0	60	47122
2026-01-10 16:18:47.24	24.63	1.00	-46.7	-61.7	3.6	1.51e+00	0	29	104	0	60	44071
2026-01-10 16:18:48.25	24.59	1.06	-46.7	-61.8	3.6	1.51e+00	0	29	104	0	60	44531
2026-01-10 16:18:49.26	24.55	1.12	-46.7	-61.8	3.6	1.51e+00	0	29	104	0	60	44603
2026-01-10 16:18:50.27	24.51	1.18	-46.7	-61.9	3.6	1.51e+00	0	29	104	0	60	44739
2026-01-10 16:18:51.28	24.48	1.24	-46.7	-61.8	3.6	1.51e+00	0	29	104	0	60	44658
2026-01-10 16:18:52.29	24.44	1.30	-46.7	-61.8	3.6	1.51e+00	0	29	104	0	60	44549
2026-01-10 16:18:53.30	24.40	1.36	-46.7	-61.8	3.6	1.51e+00	0	30	104	0	60	44221
2026-01-10 16:18:54.31	24.36	1.42	-46.6	-61.7	3.6	1.51e+00	0	29	104	0	60	43881
2026-01-10 16:18:55.32	24.32	1.48	-46.6	-61.7	3.6	1.51e+00	0	29	104	0	60	44210
2026-01-10 16:18:56.33	24.28	1.54	-46.7	-61.7	3.6	1.51e+00	0	29	104	0	60	44097
2026-01-10 16:18:57.34	24.24	1.61	-46.7	-61.8	3.6	1.51e+00	0	29	104	0	60	44320
2026-01-10 16:18:58.34	24.20	1.67	-46.7	-61.8	3.6	1.51e+00	0	30	104	0	60	44656
2026-01-10 16:18:59.35	24.16	1.73	-46.7	-61.8	3.6	1.51e+00	0	29	104	0	60	44515
2026-01-10 16:19:00.36	24.12	1.79	-46.7	-61.8	3.6	1.51e+00	0	29	104	0	60	44494
2026-01-10 16:19:01.37	24.08	1.85	-46.7	-61.7	3.6	1.51e+00	0	29	104	0	60	44003
2026-01-10 16:19:02.38	24.04	1.91	-46.7	-61.6	3.6	1.51e+00	0	29	104	0	60	43423
2026-01-10 16:19:03.39	24.00	1.97	-46.6	-61.6	3.6	1.51e+00	0	29	104	0	60	43396
2026-01-10 16:19:04.40	23.96	2.03	-46.6	-61.6	3.6	1.51e+00	0	29	104	0	60	43215
2026-01-10 16:19:05.41	23.92	2.10	-46.7	-61.4	3.6	1.51e+00	0	29	104	0	60	42593
2026-01-10 16:19:06.42	23.88	2.16	-46.6	-61.7	3.6	1.51e+00	0	30	104	0	60	43824
2026-01-10 16:19:07.43	23.84	2.22	-46.6	-61.7	3.6	1.51e+00	0	29	104	0	60	44139
2026-01-10 16:19:08.44	23.80	2.28	-46.7	-61.8	3.6	1.51e+00	0	30	104	0	60	44472
2026-01-10 16:19:09.45	23.75	2.34	-46.6	-61.8	3.6	1.51e+00	0	30	104	0	60	44540
2026-01-10 16:19:10.46	23.71	2.41	-46.6	-61.7	3.6	1.51e+00	0	29	104	0	60	44099
2026-01-10 16:19:11.47	23.67	2.47	-46.6	-61.6	3.6	1.51e+00	0	30	104	0	60	43545
2026-01-10 16:19:12.48	23.63	2.53	-46.6	-61.6	3.6	1.51e+00	0	30	104	0	60	43215
2026-01-10 16:19:13.49	23.59	2.59	-46.7	-61.4	3.6	1.51e+00	0	30	104	0	60	42651
2026-01-10 16:19:14.50	23.54	2.66	-46.7	-61.3	3.6	1.51e+00	0	30	104	0	60	42094
2026-01-10 16:19:15.51	23.50	2.72	-46.6	-61.0	3.6	1.51e+00	0	30	104	0	60	40543
2026-01-10 16:19:16.52	23.46	2.78	-46.6	-60.9	3.6	1.51e+00	0	30	104	0	60	39997
2026-01-10 16:19:17.53	23.41	2.84	-46.6	-61.1	3.6	1.51e+00	0	30	104	0	60	41087
2026-01-10 16:19:18.54	23.37	2.91	-46.6	-61.5	3.6	1.51e+00	0	30	104	0	60	43143
2026-01-10 16:19:19.55	23.33	2.97	-46.7	-61.8	3.6	1.51e+00	0	30	104	0	60	44343
2026-01-10 16:19:20.56	23.28	3.04	-46.7	-61.4	3.6	1.51e+00	0	30	104	0	60	42711
2026-01-10 16:19:21.57	23.24	3.10	-46.5	-58.9	3.7	1.51e+00	0	30	104	0	60	31715
2026-01-10 16:19:22.58	23.20	3.16	-46.2	-54.9	5.5	1.15e+00	39	30	0	0	60	19979
2026-01-10 16:19:23.59	23.15	3.23	-45.9	-52.7	7.1	2.23e-01	0	30	0	2097152	60	15663
2026-01-10 16:19:24.60	23.11	3.29	-45.5	-51.3	9.0	3.73e-02	90	30	0	3145728	60	13297
2026-01-10 16:19:25.61	23.06	3.35	-44.7	-49.2	11.3	4.70e-03	0	30	0	5242880	60	10374
2026-01-10 16:19:26.62	23.02	3.42	-44.4	-48.4	12.2	7.41e-04	0	30	0	7340032	60	9482
2026-01-10 16:19:27.63	22.97	3.48	-43.9	-47.5	13.2	2.36e-05	0	30	0	9437184	60	8544
2026-01-10 16:19:28.64	22.93	3.55	-44.1	-47.8	12.8	5.34e-05	0	30	0	11534336	60	8905
2026-01-10 16:19:29.65	22.88	3.61	-44.8	-49.4	9.4	6.33e-05	37	30	0	12582912	60	10655
2026-01-10 16:19:30.66	22.83	3.68	-46.3	-56.1	4.8	1.51e+00	0	30	104	13631488	60	23085
2026-01-10 16:19:31.67	22.79	3.74	-40.9	-42.8	16.5	4.56e-01	65	30	104	13631488	54	7021
2026-01-10 16:19:32.68	22.74	3.81	-46.6	-60.9	3.6	1.18e+00	0	30	104	13631488	60	40186
2026-01-10 16:19:33.69	22.69	3.87	-42.8	-45.5	15.7	2.94e-01	0	30	104	13631488	60	6777
2026-01-10 16:19:34.70	22.65	3.94	-44.7	-49.1	11.7	1.11e-02	0	30	0	14680064	60	10257
2026-01-10 16:19:35.71	22.60	4.00	-42.9	-45.7	15.7	0.00e+00	0	30	0	16777216	60	6929
2026-01-10 16:19:36.72	22.55	4.07	-42.0	-44.2	16.5	0.00e+00	30	30	0	18874368	58	6587
2026-01-10 16:19:37.72	22.51	4.14	-41.9	-44.0	16.9	0.00e+00	0	30	0	19922944	56	7241
2026-01-10 16:19:38.73	22.46	4.20	-40.9	-42.6	18.1	0.00e+00	60	30	0	22020096	56	6136
2026-01-10 16:19:39.74	22.41	4.27	-40.3	-41.9	18.8	0.00e+00	0	30	0	24117248	54	6380
2026-01-10 16:19:40.75	22.36	4.33	-40.2	-41.8	18.9	0.00e+00	26	30	0	26214400	54	6278
2026-01-10 16:19:41.76	22.31	4.40	-40.4	-42.0	18.8	0.00e+00	0	30	0	28311552	54	6447
2026-01-10 16:19:42.77	22.26	4.47	-40.6	-42.3	18.4	0.00e+00	0	30	0	29360128	54	6653
2026-01-10 16:19:43.78	22.22	4.53	-40.5	-42.1	18.6	0.00e+00	34	30	0	31457280	54	6515
2026-01-10 16:19:44.79	22.17	4.60	-40.2	-41.7	19.2	0.00e+00	0	30	0	33554432	54	6222
2026-01-10 16:19:45.80	22.12	4.67	-40.1	-41.6	19.2	0.00e+00	30	30	0	35651584	54	6122
2026-01-10 16:19:46.81	22.07	4.73	-39.9	-41.3	19.4	0.00e+00	0	30	0	37748736	54	5960
2026-01-10 16:19:47.82	22.02	4.80	-40.0	-41.5	19.3	0.00e+00	0	30	0	38797312	54	6082
2026-01-10 16:19:48.83	21.97	4.87	-40.1	-41.6	19.2	0.00e+00	0	30	0	40894464	54	6127
2026-01-10 16:19:49.84	21.92	4.94	-40.0	-41.5	19.3	0.00e+00	0	30	0	42991616	54	6086
2026-01-10 16:19:50.85	21.87	5.00	-39.9	-41.4	19.4	0.00e+00	37	30	0	45088768	54	5981
2026-01-10 16:19:51.86	21.81	5.07	-40.0	-41.5	19.5	0.00e+00	0	30	0	47185920	54	6049
2026-01-10 16:19:52.87	21.76	5.14	-39.9	-41.3	19.5	0.00e+00	34	30	0	48234496	54	5930
2026-01-10 16:19:53.88	21.71	5.21	-39.8	-41.2	19.8	0.00e+00	0	30	0	50331648	52	6570
2026-01-10 16:19:54.89	21.66	5.28	-39.8	-41.3	19.6	0.00e+00	92	30	0	52428800	52	6640
2026-01-10 16:19:55.90	21.61	5.34	-39.8	-41.3	19.6	0.00e+00	0	30	0	54525952	52	6647
2026-01-10 16:19:56.91	21.56	5.41	-39.8	-41.2	19.7	0.00e+00	0	30	0	56623104	52	6602
2026-01-10 16:19:57.92	21.50	5.48	-40.1	-41.5	19.5	0.00e+00	25	30	0	57671680	52	6836
2026-01-10 16:19:58.93	21.45	5.55	-40.0	-41.4	19.5	0.00e+00	0	30	0	59768832	52	6760
2026-01-10 16:19:59.94	21.40	5.62	-39.7	-41.1	19.7	0.00e+00	31	30	0	61865984	52	6524
2026-01-10 16:20:00.95	21.34	5.69	-39.8	-41.2	19.8	0.00e+00	0	30	0	63963136	52	6589
2026-01-10 16:20:01.96	21.29	5.76	-39.7	-41.1	19.8	0.00e+00	81	30	0	66060288	52	6488
2026-01-10 16:20:02.97	21.24	5.83	-39.8	-41.2	19.7	0.00e+00	0	30	0	67108864	52	6595
2026-01-10 16:20:03.98	21.18	5.90	-39.8	-41.2	19.7	0.00e+00	0	30	0	69206016	52	6573
2026-01-10 16:20:04.99	21.13	5.97	-39.7	-41.1	19.8	0.00e+00	0	30	0	71303168	52	6531
2026-01-10 16:20:06.00	21.07	6.04	-39.8	-41.2	19.8	0.00e+00	0	30	0	73400320	52	6540
2026-01-10 16:20:07.01	21.02	6.11	-39.7	-41.1	19.9	0.00e+00	31	30	0	75497472	52	6479
2026-01-10 16:20:08.02	20.96	6.18	-39.6	-41.0	19.9	0.00e+00	0	30	0	77594624	52	6439
2026-01-10 16:20:09.03	20.91	6.25	-39.5	-40.9	20.0	0.00e+00	92	30	0	78643200	52	6345
2026-01-10 16:20:10.04	20.85	6.32	-39.6	-40.9	20.1	0.00e+00	0	30	0	80740352	52	6382
2026-01-10 16:20:11.05	20.79	6.39	-39.7	-41.1	20.0	0.00e+00	0	30	0	82837504	52	6475
2026-01-10 16:20:12.06	20.74	6.46	-39.7	-41.0	20.0	0.00e+00	0	30	0	84934656	52	6440
2026-01-10 16:20:13.07	20.68	6.53	-39.6	-40.9	20.1	0.00e+00	0	30	0	87031808	52	6383
2026-01-10 16:20:14.08	20.62	6.60	-39.8	-41.2	19.7	0.00e+00	38	30	0	88080384	52	6552
2026-01-10 16:20:15.09	20.57	6.68	-39.6	-41.0	20.1	0.00e+00	0	30	0	90177536	52	6409
2026-01-10 16:20:16.10	20.51	6.75	-39.8	-41.1	19.9	0.00e+00	92	30	0	92274688	52	6534
2026-01-10 16:20:17.11	20.45	6.82	-39.7	-41.1	19.9	0.00e+00	0	30	0	94371840	52	6508
2026-01-10 16:20:18.12	20.39	6.89	-39.5	-40.8	20.2	0.00e+00	0	30	0	96468992	52	6275
2026-01-10 16:20:19.13	20.33	6.96	-39.4	-40.7	20.3	0.00e+00	0	30	0	97517568	52	6185
2026-01-10 16:20:20.14	20.28	7.04	-39.7	-41.1	20.0	0.00e+00	0	30	0	99614720	52	6472
2026-01-10 16:20:21.14	20.22	7.11	-39.4	-40.7	20.3	0.00e+00	40	30	0	101711872	52	6231
2026-01-10 16:20:22.15	20.16	7.18	-39.5	-40.8	20.2	0.00e+00	0	30	0	103809024	52	6291
2026-01-10 16:20:23.16	20.10	7.25	-39.4	-40.7	20.3	0.00e+00	92	30	0	105906176	52	6238
2026-01-10 16:20:24.17	20.04	7.33	-39.6	-41.0	20.1	0.00e+00	0	30	0	106954752	52	6393
2026-01-10 16:20:25.19	19.98	7.40	-39.5	-40.9	20.2	0.00e+00	0	30	0	109051904	52	6342
2026-01-10 16:20:26.20	19.92	7.47	-39.3	-40.6	20.4	0.00e+00	0	30	0	111149056	52	6156
2026-01-10 16:20:27.21	19.85	7.55	-39.5	-40.8	20.2	0.00e+00	0	30	0	113246208	52	6256
2026-01-10 16:20:28.21	19.79	7.62	-39.5	-40.8	20.3	0.00e+00	0	30	0	115343360	52	6284
2026-01-10 16:20:29.22	19.73	7.69	-39.3	-40.5	20.4	0.00e+00	0	30	0	116391936	52	6088
2026-01-10 16:20:30.23	19.67	7.77	-39.5	-40.9	20.3	0.00e+00	40	30	0	118489088	52	6333
2026-01-10 16:20:31.24	19.61	7.84	-39.4	-40.7	20.5	0.00e+00	0	30	0	120586240	52	6216
2026-01-10 16:20:32.25	19.54	7.92	-39.4	-40.7	20.4	0.00e+00	78	30	0	122683392	52	6219
2026-01-10 16:20:33.26	19.48	7.99	-39.3	-40.5	20.5	0.00e+00	0	30	0	124780544	52	6101
2026-01-10 16:20:34.27	19.42	8.07	-39.2	-40.5	20.6	0.00e+00	0	30	0	125829120	52	6069
2026-01-10 16:20:35.28	19.35	8.14	-39.1	-40.3	20.7	0.00e+00	0	30	0	127926272	52	5930
2026-01-10 16:20:36.29	19.29	8.22	-39.1	-40.4	20.7	0.00e+00	0	30	0	130023424	52	5978
2026-01-10 16:20:37.30	19.22	8.29	-39.0	-40.2	20.7	0.00e+00	41	30	0	132120576	52	5883
2026-01-10 16:20:38.31	19.16	8.37	-39.2	-40.4	20.7	0.00e+00	0	30	0	134217728	52	6000
2026-01-10 16:20:39.32	19.09	8.44	-39.1	-40.3	20.8	0.00e+00	42	30	0	135266304	52	5955
2026-01-10 16:20:40.33	19.03	8.52	-39.1	-40.3	20.8	0.00e+00	0	30	0	137363456	52	5912
2026-01-10 16:20:41.34	18.96	8.60	-39.2	-40.5	20.6	0.00e+00	0	30	0	139460608	52	6049
2026-01-10 16:20:42.35	18.90	8.67	-38.9	-40.1	21.0	0.00e+00	0	30	0	141557760	52	5779
2026-01-10 16:20:43.36	18.83	8.75	-39.0	-40.2	20.9	0.00e+00	0	30	0	143654912	52	5839
2026-01-10 16:20:44.37	18.76	8.83	-39.1	-40.4	20.8	0.00e+00	92	30	0	145752064	52	5973
2026-01-10 16:20:45.38	18.69	8.90	-39.1	-40.4	20.7	0.00e+00	0	30	0	146800640	52	5989
2026-01-10 16:20:46.39	18.63	8.98	-38.8	-40.0	21.1	0.00e+00	90	30	0	148897792	52	5722
2026-01-10 16:20:47.40	18.56	9.06	-38.7	-39.9	21.1	0.00e+00	0	30	0	150994944	50	6360
2026-01-10 16:20:48.41	18.49	9.14	-38.5	-39.6	21.4	0.00e+00	33	30	0	153092096	50	6134
2026-01-10 16:20:49.41	18.42	9.21	-38.5	-39.6	21.4	0.00e+00	0	30	0	155189248	50	6115
2026-01-10 16:20:50.43	18.35	9.29	-38.4	-39.5	21.6	0.00e+00	0	30	0	156237824	50	6077
2026-01-10 16:20:51.44	18.28	9.37	-38.7	-39.9	21.2	0.00e+00	51	30	0	158334976	50	6330
2026-01-10 16:20:52.45	18.21	9.45	-38.4	-39.5	21.4	0.00e+00	0	30	0	160432128	50	6084
2026-01-10 16:20:53.45	18.14	9.53	-38.6	-39.8	21.3	0.00e+00	92	30	0	162529280	50	6283
2026-01-10 16:20:54.47	18.07	9.60	-38.5	-39.6	21.4	0.00e+00	33	30	0	164626432	50	6123
2026-01-10 16:20:55.48	18.00	9.68	-38.5	-39.7	21.4	0.00e+00	0	30	0	165675008	50	6187
2026-01-10 16:20:56.48	17.93	9.76	-38.6	-39.8	21.3	0.00e+00	0	30	0	167772160	50	6264
2026-01-10 16:20:57.49	17.86	9.84	-38.7	-39.9	21.2	0.00e+00	0	30	0	169869312	50	6351
2026-01-10 16:20:58.50	17.78	9.92	-38.3	-39.5	21.6	0.00e+00	38	30	0	171966464	50	6034
2026-01-10 16:20:59.51	17.71	10.00	-38.4	-39.6	21.5	0.00e+00	0	30	0	174063616	50	6123
2026-01-10 16:21:00.52	17.64	10.08	-38.4	-39.5	21.5	0.00e+00	92	30	0	175112192	50	6087
2026-01-10 16:21:01.53	17.56	10.16	-38.5	-39.6	21.5	0.00e+00	0	30	0	177209344	50	6155
2026-01-10 16:21:02.54	17.49	10.24	-38.4	-39.5	21.6	0.00e+00	92	30	0	179306496	50	6062
2026-01-10 16:21:03.55	17.41	10.32	-38.4	-39.5	21.6	0.00e+00	0	30	0	181403648	50	6047
2026-01-10 16:21:04.56	17.34	10.40	-38.5	-39.7	21.5	0.00e+00	0	30	0	183500800	50	6195
2026-01-10 16:21:05.57	17.26	10.48	-38.4	-39.6	21.6	0.00e+00	17	30	0	184549376	50	6104
2026-01-10 16:21:06.58	17.19	10.57	-38.4	-39.6	21.4	0.00e+00	0	30	0	186646528	50	6112
2026-01-10 16:21:07.59	17.11	10.65	-38.4	-39.5	21.5	0.00e+00	40	30	0	188743680	50	6080
2026-01-10 16:21:08.60	17.03	10.73	-38.4	-39.6	21.5	0.00e+00	0	30	0	190840832	50	6120
2026-01-10 16:21:09.60	16.96	10.81	-38.5	-39.7	21.4	0.00e+00	62	30	0	192937984	50	6202
2026-01-10 16:21:10.61	16.88	10.89	-38.5	-39.7	21.5	0.00e+00	0	30	0	193986560	50	6194
2026-01-10 16:21:11.62	16.80	10.98	-38.6	-39.7	21.4	0.00e+00	0	30	0	196083712	50	6220
2026-01-10 16:21:12.63	16.72	11.06	-38.6	-39.7	21.4	0.00e+00	0	30	0	198180864	50	6231
2026-01-10 16:21:13.64	16.64	11.14	-38.5	-39.6	21.5	0.00e+00	0	30	0	200278016	50	6157
2026-01-10 16:21:14.65	16.56	11.22	-38.4	-39.5	21.5	0.00e+00	64	30	0	202375168	50	6092
2026-01-10 16:21:15.66	16.48	11.31	-38.5	-39.7	21.5	0.00e+00	0	30	0	203423744	50	6199
2026-01-10 16:21:16.67	16.40	11.39	-38.6	-39.7	21.4	0.00e+00	92	30	0	205520896	50	6220
2026-01-10 16:21:17.68	16.32	11.47	-38.6	-39.8	21.4	0.00e+00	0	30	0	207618048	50	6265
2026-01-10 16:21:18.69	16.24	11.56	-38.6	-39.8	21.4	0.00e+00	0	30	0	209715200	50	6258
2026-01-10 16:21:19.71	16.15	11.64	-38.2	-39.3	21.8	0.00e+00	0	30	0	211812352	50	5951
2026-01-10 16:21:20.71	16.07	11.73	-38.3	-39.5	21.7	0.00e+00	0	30	0	213909504	50	6035
2026-01-10 16:21:21.72	15.99	11.81	-38.4	-39.5	21.7	0.00e+00	42	30	0	214958080	50	6055
2026-01-10 16:21:22.73	15.91	11.90	-38.2	-39.3	21.6	0.00e+00	0	30	0	217055232	50	5951
2026-01-10 16:21:23.74	15.82	11.98	-38.3	-39.4	21.7	0.00e+00	50	30	0	219152384	50	5989
2026-01-10 16:21:24.75	15.74	12.07	-38.2	-39.3	21.8	0.00e+00	0	30	0	221249536	50	5915
2026-01-10 16:21:25.76	15.65	12.15	-38.2	-39.3	21.8	0.00e+00	0	30	0	223346688	50	5911
2026-01-10 16:21:26.77	15.57	12.24	-38.0	-39.0	22.1	0.00e+00	0	30	0	224395264	50	5761
2026-01-10 16:21:27.78	15.48	12.32	-38.1	-39.2	21.9	0.00e+00	0	30	0	226492416	50	5837
2026-01-10 16:21:28.79	15.39	12.41	-38.2	-39.3	21.9	0.00e+00	38	30	0	228589568	50	5901
2026-01-10 16:21:29.80	15.31	12.50	-38.0	-39.1	22.0	0.00e+00	0	30	0	230686720	50	5795
2026-01-10 16:21:30.80	15.22	12.58	-37.8	-38.8	22.1	0.00e+00	91	30	0	232783872	48	6310
2026-01-10 16:21:31.81	15.13	12.67	-38.2	-39.3	21.8	0.00e+00	0	30	0	233832448	48	6644
2026-01-10 16:21:32.82	15.04	12.76	-37.8	-38.8	22.2	0.00e+00	12	30	0	235929600	48	6311
2026-01-10 16:21:33.83	14.95	12.85	-38.0	-39.1	21.9	0.00e+00	0	30	0	238026752	48	6508
2026-01-10 16:21:34.84	14.86	12.93	-38.0	-39.1	22.1	0.00e+00	0	30	0	240123904	48	6467
2026-01-10 16:21:35.86	14.77	13.02	-37.8	-38.9	22.2	0.00e+00	38	30	0	242221056	48	6350
2026-01-10 16:21:36.87	14.68	13.11	-38.0	-39.0	22.0	0.00e+00	0	30	0	243269632	48	6452
2026-01-10 16:21:37.88	14.59	13.20	-37.9	-38.9	22.2	0.00e+00	34	30	0	245366784	48	6375
2026-01-10 16:21:38.88	14.50	13.29	-37.6	-38.6	22.3	0.00e+00	0	30	0	247463936	48	6161
2026-01-10 16:21:39.90	14.40	13.38	-37.9	-39.0	22.3	0.00e+00	92	30	0	249561088	48	6409
2026-01-10 16:21:40.91	14.31	13.47	-37.5	-38.5	22.5	0.00e+00	0	30	0	251658240	48	6102
2026-01-10 16:21:41.91	14.22	13.55	-37.6	-38.6	22.4	0.00e+00	0	30	0	252706816	48	6155
2026-01-10 16:21:42.92	14.12	13.64	-37.6	-38.6	22.4	0.00e+00	0	30	0	254803968	48	6111
2026-01-10 16:21:43.93	14.03	13.73	-37.3	-38.3	22.7	0.00e+00	0	30	0	256901120	48	5901
2026-01-10 16:21:44.94	13.93	13.82	-37.7	-38.7	22.3	0.00e+00	66	30	0	258998272	48	6213
2026-01-10 16:21:45.96	13.83	13.92	-37.6	-38.6	22.4	0.00e+00	0	30	0	261095424	48	6170
2026-01-10 16:21:46.97	13.74	14.01	-37.3	-38.3	22.6	0.00e+00	78	30	0	262144000	48	5942
2026-01-10 16:21:47.98	13.64	14.10	-37.4	-38.3	22.7	0.00e+00	0	30	0	264241152	48	5959
2026-01-10 16:21:48.99	13.54	14.19	-37.4	-38.3	22.6	0.00e+00	0	30	0	266338304	48	5950
2026-01-10 16:21:50.00	13.44	14.28	-37.3	-38.3	22.7	0.00e+00	0	30	0	268435456	48	5920
2026-01-10 16:21:51.01	13.34	14.37	-37.3	-38.2	22.8	0.00e+00	0	30	0	270532608	48	5875
2026-01-10 16:21:52.02	13.24	14.46	-36.8	-37.7	23.1	0.00e+00	52	30	0	271581184	48	5520
2026-01-10 16:21:53.03	13.14	14.56	-37.5	-38.5	22.5	0.00e+00	0	30	0	273678336	48	6085
2026-01-10 16:21:54.04	13.04	14.65	-37.2	-38.2	22.8	0.00e+00	55	30	0	275775488	48	5834
2026-01-10 16:21:55.05	12.94	14.74	-37.2	-38.1	22.8	0.00e+00	0	30	0	277872640	48	5821
2026-01-10 16:21:56.06	12.83	14.84	-37.3	-38.2	22.8	0.00e+00	0	30	0	279969792	48	5880
2026-01-10 16:21:57.07	12.73	14.93	-37.3	-38.2	22.8	0.00e+00	0	30	0	282066944	48	5887
2026-01-10 16:21:58.07	12.63	15.02	-37.3	-38.3	22.7	0.00e+00	0	30	0	283115520	48	5916
2026-01-10 16:21:59.08	12.52	15.12	-37.5	-38.5	22.6	0.00e+00	33	30	0	285212672	48	6043
2026-01-10 16:22:00.09	12.42	15.21	-37.3	-38.2	22.7	0.00e+00	0	30	0	287309824	48	5882
2026-01-10 16:22:01.10	12.31	15.30	-37.6	-38.6	22.5	0.00e+00	74	30	0	289406976	48	6104
2026-01-10 16:22:02.11	12.20	15.40	-37.6	-38.6	22.5	0.00e+00	0	30	0	291504128	48	6148
2026-01-10 16:22:03.12	12.10	15.49	-37.8	-38.8	22.3	0.00e+00	0	30	0	292552704	48	6303
2026-01-10 16:22:04.13	11.99	15.59	-37.9	-39.0	22.2	0.00e+00	0	30	0	294649856	48	6394
2026-01-10 16:22:05.14	11.88	15.68	-37.9	-39.0	22.2	0.00e+00	0	30	0	296747008	48	6417
2026-01-10 16:22:06.15	11.77	15.78	-38.2	-39.3	21.9	0.00e+00	0	30	0	298844160	48	6674
2026-01-10 16:22:07.16	11.66	15.88	-38.1	-39.2	22.1	0.00e+00	0	30	0	300941312	48	6579
2026-01-10 16:22:08.17	11.55	15.97	-37.9	-39.0	22.0	0.00e+00	81	30	0	301989888	48	6413
2026-01-10 16:22:09.18	11.43	16.07	-38.1	-39.1	21.8	0.00e+00	0	30	0	304087040	48	6531
2026-01-10 16:22:10.19	11.32	16.17	-38.1	-39.1	22.1	0.00e+00	20	30	0	306184192	48	6521
2026-01-10 16:22:11.20	11.21	16.26	-37.9	-39.0	22.2	0.00e+00	0	30	0	308281344	48	6432
2026-01-10 16:22:12.21	11.09	16.36	-37.9	-38.9	22.3	0.00e+00	0	30	0	310378496	48	6357
2026-01-10 16:22:13.21	10.98	16.46	-37.5	-38.5	22.6	0.00e+00	42	30	0	311427072	48	6065
2026-01-10 16:22:14.22	10.86	16.55	-37.7	-38.8	22.3	0.00e+00	0	30	0	313524224	48	6262
2026-01-10 16:22:15.23	10.75	16.65	-37.8	-38.9	22.4	0.00e+00	92	30	0	315621376	48	6322
2026-01-10 16:22:16.25	10.63	16.75	-37.7	-38.7	22.5	0.00e+00	0	30	0	317718528	48	6217
2026-01-10 16:22:17.25	10.51	16.85	-37.8	-38.8	22.4	0.00e+00	59	30	0	319815680	48	6293
2026-01-10 16:22:18.26	10.39	16.95	-37.8	-38.8	22.3	0.00e+00	0	30	0	320864256	48	6301
2026-01-10 16:22:19.27	10.27	17.05	-37.7	-38.7	22.6	0.00e+00	0	30	0	322961408	48	6243
2026-01-10 16:22:20.28	10.15	17.15	-37.6	-38.6	22.6	0.00e+00	0	30	0	325058560	48	6108
2026-01-10 16:22:21.29	10.03	17.25	-37.4	-38.3	22.8	0.00e+00	0	30	0	327155712	48	5960
2026-01-10 16:22:22.31	9.91	17.35	-37.5	-38.5	22.7	0.00e+00	76	30	0	329252864	48	6047
2026-01-10 16:22:23.31	9.79	17.45	-37.0	-37.9	23.1	0.00e+00	0	30	0	330301440	48	5682
2026-01-10 16:22:24.33	9.66	17.55	-37.0	-37.9	23.1	0.00e+00	91	30	0	332398592	46	6357
2026-01-10 16:22:25.34	9.54	17.65	-36.9	-37.8	23.3	0.00e+00	0	30	0	334495744	46	6270
2026-01-10 16:22:26.35	9.41	17.75	-36.8	-37.6	23.4	0.00e+00	0	30	0	336592896	46	6161
2026-01-10 16:22:27.36	9.28	17.85	-36.9	-37.8	23.2	0.00e+00	0	30	0	338690048	46	6310
2026-01-10 16:22:28.37	9.16	17.95	-37.0	-37.9	23.2	0.00e+00	0	30	0	339738624	46	6354
2026-01-10 16:22:29.38	9.03	18.06	-37.2	-38.1	22.9	0.00e+00	92	30	0	341835776	46	6484
2026-01-10 16:22:30.39	8.90	18.16	-37.3	-38.2	23.0	0.00e+00	0	30	0	343932928	46	6583
2026-01-10 16:22:31.40	8.77	18.26	-37.4	-38.3	22.7	0.00e+00	31	30	0	346030080	46	6655
2026-01-10 16:22:32.41	8.64	18.36	-37.6	-38.5	22.7	0.00e+00	0	30	0	348127232	46	6840
2026-01-10 16:22:33.42	8.51	18.47	-37.6	-38.6	22.6	0.00e+00	0	30	0	350224384	46	6888
2026-01-10 16:22:34.43	8.37	18.57	-37.6	-38.6	22.7	0.00e+00	0	30	0	351272960	46	6871
2026-01-10 16:22:35.44	8.24	18.67	-37.6	-38.6	22.5	0.00e+00	0	30	0	353370112	48	6155
2026-01-10 16:22:36.45	8.10	18.78	-37.5	-38.4	22.7	0.00e+00	43	30	0	355467264	48	6017
2026-01-10 16:22:37.46	7.97	18.88	-37.6	-38.5	22.7	0.00e+00	0	30	0	357564416	48	6087
2026-01-10 16:22:38.47	7.83	18.99	-37.3	-38.2	22.9	0.00e+00	92	30	0	359661568	48	5852
2026-01-10 16:22:39.48	7.69	19.09	-37.2	-38.1	22.9	0.00e+00	0	30	0	360710144	48	5796
2026-01-10 16:22:40.49	7.56	19.20	-37.1	-38.0	23.0	0.00e+00	0	30	0	362807296	48	5716
2026-01-10 16:22:41.50	7.42	19.30	-36.9	-37.8	23.2	0.00e+00	0	30	0	364904448	48	5589
2026-01-10 16:22:42.51	7.28	19.41	-37.0	-37.9	22.9	0.00e+00	0	30	0	367001600	48	5665
2026-01-10 16:22:43.52	7.13	19.51	-37.2	-38.1	22.9	0.00e+00	24	30	0	369098752	48	5818
2026-01-10 16:22:44.53	6.99	19.62	-37.4	-38.3	23.0	0.00e+00	0	30	0	370147328	48	5926
2026-01-10 16:22:45.54	6.85	19.72	-38.0	-39.0	22.5	0.00e+00	76	30	0	372244480	48	6397
2026-01-10 16:22:46.55	6.70	19.83	-37.6	-38.6	22.6	0.00e+00	0	30	0	374341632	48	6131
2026-01-10 16:22:47.56	6.56	19.94	-37.8	-38.8	22.4	0.00e+00	0	30	0	376438784	48	6303
2026-01-10 16:22:48.57	6.41	20.04	-37.8	-38.8	22.5	0.00e+00	0	30	0	378535936	48	6289
2026-01-10 16:22:49.58	6.26	20.15	-38.0	-39.0	22.2	0.00e+00	0	29	0	379584512	48	6432
2026-01-10 16:22:50.59	6.12	20.26	-38.4	-39.6	21.8	0.00e+00	6	30	0	381681664	48	6855
2026-01-10 16:22:51.60	5.97	20.37	-37.8	-38.8	22.4	0.00e+00	0	30	0	383778816	48	6298
2026-01-10 16:22:52.61	5.82	20.47	-37.7	-38.7	22.4	0.00e+00	88	30	0	385875968	48	6239
2026-01-10 16:22:53.62	5.66	20.58	-37.8	-38.8	22.5	0.00e+00	0	30	0	387973120	48	6291
2026-01-10 16:22:54.63	5.51	20.69	-37.7	-38.7	22.5	0.00e+00	92	30	0	389021696	48	6218
2026-01-10 16:22:55.64	5.36	20.80	-37.7	-38.8	22.6	0.00e+00	0	29	0	391118848	48	6256
2026-01-10 16:22:56.65	5.20	20.91	-38.1	-39.2	22.1	0.00e+00	0	30	0	393216000	48	6562
2026-01-10 16:22:57.66	5.04	21.02	-38.3	-39.4	21.8	0.00e+00	0	30	0	395313152	48	6760
2026-01-10 16:22:58.67	4.89	21.13	-38.5	-39.7	21.2	0.00e+00	0	29	0	397410304	48	6943
2026-01-10 16:22:59.68	4.73	21.24	-38.6	-39.7	21.6	0.00e+00	92	29	0	398458880	48	6980
2026-01-10 16:23:00.69	4.57	21.35	-38.5	-39.7	21.7	0.00e+00	0	29	0	400556032	48	6952
2026-01-10 16:23:01.70	4.41	21.46	-38.7	-39.8	21.6	0.00e+00	92	29	0	402653184	50	6302
2026-01-10 16:23:02.71	4.24	21.57	-38.4	-39.5	22.0	0.00e+00	0	30	0	404750336	50	6056
2026-01-10 16:23:03.72	4.08	21.68	-38.3	-39.3	21.9	0.00e+00	0	29	0	406847488	50	5952
2026-01-10 16:23:04.73	3.92	21.79	-38.2	-39.2	22.2	0.00e+00	0	29	0	407896064	50	5864
2026-01-10 16:23:05.74	3.75	21.90	-38.0	-39.0	22.3	0.00e+00	0	29	0	409993216	50	5740
2026-01-10 16:23:06.75	3.58	22.01	-38.3	-39.4	22.0	0.00e+00	38	29	0	412090368	50	5993
2026-01-10 16:23:07.76	3.42	22.12	-37.7	-38.7	22.7	0.00e+00	0	29	0	414187520	48	6183
2026-01-10 16:23:08.77	3.25	22.24	-37.5	-38.4	22.7	0.00e+00	92	30	0	416284672	48	6013
2026-01-10 16:23:09.78	3.08	22.35	-37.3	-38.3	22.9	0.00e+00	0	29	0	418381824	48	5912
2026-01-10 16:23:10.79	2.90	22.46	-37.1	-38.0	23.1	0.00e+00	0	29	0	419430400	48	5754
2026-01-10 16:23:11.80	2.73	22.57	-37.4	-38.4	22.8	0.00e+00	0	29	0	421527552	48	5988
2026-01-10 16:23:12.81	2.56	22.69	-37.3	-38.3	23.0	0.00e+00	0	29	0	423624704	48	5914
2026-01-10 16:23:13.82	2.38	22.80	-37.1	-38.1	23.1	0.00e+00	38	29	0	425721856	48	5772
2026-01-10 16:23:14.83	2.20	22.91	-37.3	-38.2	23.0	0.00e+00	0	29	0	427819008	48	5873
2026-01-10 16:23:15.84	2.02	23.02	-37.2	-38.1	23.0	0.00e+00	39	30	0	428867584	48	5807
2026-01-10 16:23:16.85	1.84	23.14	-37.3	-38.3	22.8	0.00e+00	0	29	0	430964736	48	5921
2026-01-10 16:23:17.85	1.67	23.25	-37.3	-38.3	22.9	0.00e+00	0	29	0	433061888	48	5925
2026-01-10 16:23:18.86	1.48	23.36	-37.6	-38.6	22.7	0.00e+00	0	29	0	435159040	48	6127
2026-01-10 16:23:19.87	1.30	23.48	-37.2	-38.2	22.9	0.00e+00	0	29	0	437256192	48	5849
2026-01-10 16:23:20.88	1.11	23.59	-37.0	-37.9	23.1	0.00e+00	34	29	0	438304768	48	5682
2026-01-10 16:23:21.89	0.93	23.71	-37.2	-38.2	23.0	0.00e+00	0	29	0	440401920	48	5860
2026-01-10 16:23:22.90	0.74	23.82	-37.1	-38.0	23.1	0.00e+00	92	29	0	442499072	48	5735
2026-01-10 16:23:23.91	0.55	23.94	-37.0	-37.9	23.2	0.00e+00	0	29	0	444596224	48	5660
2026-01-10 16:23:24.92	0.36	24.05	-36.9	-37.8	23.3	0.00e+00	17	29	0	446693376	48	5587
2026-01-10 16:23:25.93	0.17	24.17	-36.9	-37.8	23.2	0.00e+00	0	29	0	447741952	46	6307
2026-01-10 16:23:26.94	359.97	24.28	-37.1	-38.0	23.1	0.00e+00	0	29	0	449839104	46	6419
2026-01-10 16:23:27.95	359.78	24.40	-37.5	-38.4	22.8	0.00e+00	0	29	0	451936256	46	6754
2026-01-10 16:23:28.96	359.58	24.51	-37.6	-38.6	22.6	0.00e+00	0	29	0	454033408	46	6915
2026-01-10 16:23:29.97	359.38	24.63	-37.7	-38.7	22.5	0.00e+00	92	29	0	456130560	48	6213
2026-01-10 16:23:30.98	359.18	24.74	-38.1	-39.1	22.1	0.00e+00	0	29	0	457179136	48	6539
2026-01-10 16:23:31.99	358.98	24.86	-38.2	-39.3	22.0	0.00e+00	88	29	0	459276288	48	6641
2026-01-10 16:23:33.00	358.78	24.98	-38.5	-39.5	21.2	0.00e+00	0	29	0	461373440	48	6822
2026-01-10 16:23:34.01	358.58	25.09	-38.9	-40.1	21.3	0.00e+00	0	29	0	463470592	50	6479
2026-01-10 16:23:35.02	358.37	25.21	-39.1	-40.3	21.2	0.00e+00	44	29	0	465567744	50	6645
2026-01-10 16:23:36.03	358.16	25.32	-39.3	-40.5	21.2	0.00e+00	0	29	0	466616320	50	6809
2026-01-10 16:23:37.04	357.96	25.44	-39.2	-40.4	21.2	0.00e+00	42	29	0	468713472	50	6703
2026-01-10 16:23:38.05	357.75	25.56	-39.0	-40.1	21.5	0.00e+00	0	29	0	470810624	50	6515
2026-01-10 16:23:39.06	357.53	25.67	-39.0	-40.2	21.4	0.00e+00	92	29	0	472907776	50	6572
2026-01-10 16:23:40.07	357.32	25.79	-39.1	-40.3	21.4	0.00e+00	0	29	0	475004928	50	6631
2026-01-10 16:23:41.08	357.11	25.91	-39.0	-40.2	21.4	0.00e+00	0	29	0	476053504	50	6568
2026-01-10 16:23:42.09	356.89	26.02	-39.2	-40.4	21.2	0.00e+00	0	29	0	478150656	50	6767
2026-01-10 16:23:43.10	356.67	26.14	-39.5	-40.8	20.9	0.00e+00	0	29	0	480247808	50	7065
2026-01-10 16:23:44.10	356.45	26.26	-39.3	-40.6	20.8	0.00e+00	42	29	0	482344960	50	6857
2026-01-10 16:23:45.12	356.23	26.37	-39.6	-40.9	20.7	0.00e+00	0	29	0	484442112	50	7126
2026-01-10 16:23:46.12	356.01	26.49	-39.4	-40.7	21.0	0.00e+00	91	29	0	486539264	50	6951
2026-01-10 16:23:47.13	355.78	26.61	-39.2	-40.4	21.3	0.00e+00	0	29	0	487587840	50	6693
2026-01-10 16:23:48.14	355.56	26.72	-39.0	-40.1	21.5	0.00e+00	0	29	0	489684992	50	6539
2026-01-10 16:23:49.15	355.33	26.84	-38.5	-39.6	21.8	0.00e+00	0	29	0	491782144	50	6132
2026-01-10 16:23:50.16	355.10	26.96	-38.2	-39.3	22.2	0.00e+00	0	29	0	493879296	50	5935
2026-01-10 16:23:51.17	354.87	27.08	-38.0	-39.1	22.4	0.00e+00	53	29	0	495976448	50	5787
2026-01-10 16:23:52.18	354.63	27.19	-37.7	-38.7	22.3	0.00e+00	0	29	0	497025024	48	6206
2026-01-10 16:23:53.19	354.40	27.31	-38.1	-39.1	22.4	0.00e+00	92	29	0	499122176	48	6534
2026-01-10 16:23:54.20	354.16	27.43	-38.1	-39.2	22.2	0.00e+00	0	29	0	501219328	48	6582
2026-01-10 16:23:55.21	353.92	27.54	-38.2	-39.2	22.2	0.00e+00	0	29	0	503316480	48	6606
2026-01-10 16:23:56.22	353.68	27.66	-38.2	-39.4	22.0	0.00e+00	0	29	0	505413632	48	6694
2026-01-10 16:23:57.23	353.44	27.78	-38.0	-39.1	22.3	0.00e+00	0	29	0	506462208	48	6479
2026-01-10 16:23:58.24	353.20	27.89	-38.0	-39.0	22.4	0.00e+00	44	29	0	508559360	48	6460
2026-01-10 16:23:59.25	352.95	28.01	-38.3	-39.4	22.0	0.00e+00	0	29	0	510656512	48	6696
2026-01-10 16:24:00.26	352.70	28.13	-38.8	-40.0	21.5	0.00e+00	89	29	0	512753664	48	7196
2026-01-10 16:24:01.27	352.45	28.24	-38.7	-39.8	21.6	0.00e+00	0	29	0	514850816	50	6295
2026-01-10 16:24:02.28	352.20	28.36	-39.2	-40.4	21.2	0.00e+00	40	29	0	515899392	50	6698
2026-01-10 16:24:03.29	351.95	28.47	-39.1	-40.3	21.4	0.00e+00	0	29	0	517996544	50	6625
2026-01-10 16:24:04.30	351.70	28.59	-38.5	-39.6	21.9	0.00e+00	0	29	0	520093696	50	6136
2026-01-10 16:24:05.31	351.44	28.71	-38.1	-39.2	22.0	0.00e+00	14	29	0	522190848	50	5852
2026-01-10 16:24:06.32	351.18	28.82	-38.5	-39.6	22.0	0.00e+00	0	29	0	524288000	50	6147
2026-01-10 16:24:07.33	350.92	28.94	-38.5	-39.7	21.8	0.00e+00	43	29	0	525336576	50	6180
2026-01-10 16:24:08.34	350.66	29.05	-38.8	-39.9	21.7	0.00e+00	0	29	0	527433728	50	6351
2026-01-10 16:24:09.35	350.39	29.17	-38.9	-40.0	21.7	0.00e+00	62	29	0	529530880	50	6443
2026-01-10 16:24:10.36	350.13	29.28	-39.0	-40.2	21.4	0.00e+00	0	29	0	531628032	50	6588
2026-01-10 16:24:11.37	349.86	29.40	-39.1	-40.4	21.1	0.00e+00	0	29	0	533725184	50	6715
2026-01-10 16:24:12.38	349.59	29.51	-39.3	-40.5	21.2	0.00e+00	0	29	0	534773760	50	6800
2026-01-10 16:24:13.39	349.32	29.62	-39.6	-40.9	20.8	0.00e+00	0	29	0	536870912	50	7121
2026-01-10 16:24:14.40	349.04	29.74	-38.8	-39.9	21.8	0.00e+00	92	29	0	538968064	50	6371
2026-01-10 16:24:15.41	348.77	29.85	-38.6	-39.7	21.9	0.00e+00	33	29	0	541065216	50	6209
2026-01-10 16:24:16.42	348.49	29.96	-38.1	-39.2	22.2	0.00e+00	92	29	0	543162368	50	5836
2026-01-10 16:24:17.43	348.21	30.08	-38.5	-39.6	21.9	0.00e+00	0	29	0	544210944	50	6138
2026-01-10 16:24:18.43	347.93	30.19	-39.1	-40.3	21.5	0.00e+00	0	29	0	546308096	50	6664
2026-01-10 16:24:19.44	347.64	30.30	-39.1	-40.3	21.4	0.00e+00	0	29	0	548405248	50	6632
2026-01-10 16:24:20.45	347.36	30.41	-39.4	-40.6	21.0	0.00e+00	0	29	0	550502400	50	6881
2026-01-10 16:24:21.47	347.07	30.53	-39.1	-40.3	21.3	0.00e+00	43	29	0	552599552	50	6677
2026-01-10 16:24:22.48	346.78	30.64	-39.4	-40.6	21.1	0.00e+00	0	29	0	554696704	50	6903
2026-01-10 16:24:23.49	346.49	30.75	-39.1	-40.3	21.5	0.00e+00	92	29	0	555745280	50	6622
2026-01-10 16:24:24.49	346.19	30.86	-39.1	-40.2	21.2	0.00e+00	0	29	0	557842432	50	6614
2026-01-10 16:24:25.51	345.90	30.97	-39.5	-40.7	21.0	0.00e+00	0	29	0	559939584	50	6967
2026-01-10 16:24:26.52	345.60	31.08	-40.3	-41.7	20.1	0.00e+00	0	29	0	562036736	52	6931
2026-01-10 16:24:27.53	345.30	31.18	-41.0	-42.6	19.3	0.00e+00	0	29	0	564133888	54	6876
2026-01-10 16:24:28.53	345.00	31.29	-41.3	-42.9	19.0	0.00e+00	45	29	0	565182464	54	7131
2026-01-10 16:24:29.54	344.69	31.40	-41.8	-43.6	18.1	0.00e+00	0	29	0	567279616	54	7760
2026-01-10 16:24:30.55	344.39	31.51	-41.6	-43.4	18.8	0.00e+00	92	29	0	569376768	56	6699
2026-01-10 16:24:31.56	344.08	31.61	-40.9	-42.5	19.4	0.00e+00	0	29	0	571473920	56	6056
2026-01-10 16:24:32.57	343.77	31.72	-39.9	-41.2	20.5	0.00e+00	0	29	0	573571072	54	5855
2026-01-10 16:24:33.58	343.46	31.83	-40.0	-41.3	20.5	0.00e+00	0	29	0	574619648	54	5959
2026-01-10 16:24:34.59	343.14	31.93	-39.8	-41.1	20.8	0.00e+00	0	29	0	576716800	54	5800
2026-01-10 16:24:35.60	342.83	32.03	-40.1	-41.4	20.4	0.00e+00	41	29	0	578813952	52	6724
2026-01-10 16:24:36.61	342.51	32.14	-40.6	-42.1	19.9	0.00e+00	0	29	0	580911104	52	7277
2026-01-10 16:24:37.62	342.19	32.24	-41.1	-42.7	19.0	0.00e+00	72	29	0	583008256	54	6943
2026-01-10 16:24:38.63	341.86	32.34	-41.3	-42.9	19.0	0.00e+00	0	29	0	584056832	54	7164
2026-01-10 16:24:39.64	341.54	32.45	-41.2	-42.8	19.1	0.00e+00	0	29	0	586153984	54	7018
2026-01-10 16:24:40.65	341.21	32.55	-41.1	-42.7	19.0	0.00e+00	0	29	0	588251136	54	6965
2026-01-10 16:24:41.66	340.88	32.65	-41.3	-42.9	19.0	0.00e+00	0	29	0	590348288	54	7165
2026-01-10 16:24:42.67	340.55	32.75	-41.8	-43.6	18.0	0.00e+00	21	29	0	592445440	54	7744
2026-01-10 16:24:43.68	340.22	32.85	-42.0	-43.7	18.3	0.00e+00	0	29	0	593494016	56	7002
2026-01-10 16:24:44.69	339.88	32.94	-41.4	-43.1	18.9	0.00e+00	41	29	0	595591168	56	6477
2026-01-10 16:24:45.70	339.55	33.04	-40.9	-42.4	19.4	0.00e+00	0	29	0	597688320	56	6003
2026-01-10 16:24:46.71	339.21	33.14	-40.5	-41.9	19.9	0.00e+00	0	29	0	599785472	54	6381
2026-01-10 16:24:47.72	338.87	33.23	-40.1	-41.5	20.1	0.00e+00	0	29	0	601882624	54	6047
2026-01-10 16:24:48.73	338.52	33.33	-40.4	-41.9	19.9	0.00e+00	0	29	0	602931200	54	6328
2026-01-10 16:24:49.74	338.18	33.42	-41.2	-43.0	18.6	0.00e+00	0	29	0	605028352	54	7185
2026-01-10 16:24:50.75	337.83	33.51	-41.8	-43.6	18.1	0.00e+00	0	29	0	607125504	54	7768
2026-01-10 16:24:51.76	337.48	33.61	-42.5	-44.6	17.5	0.00e+00	38	29	0	609222656	58	6895
2026-01-10 16:24:52.77	337.13	33.70	-42.1	-44.0	18.1	0.00e+00	0	29	0	611319808	58	6452
2026-01-10 16:24:53.78	336.78	33.79	-41.3	-43.0	19.0	0.00e+00	90	29	0	612368384	56	6398
2026-01-10 16:24:54.79	336.42	33.88	-40.5	-41.9	20.0	0.00e+00	0	29	0	614465536	54	6346
2026-01-10 16:24:55.80	336.07	33.96	-39.7	-40.9	20.4	0.00e+00	0	29	0	616562688	52	6366
2026-01-10 16:24:56.81	335.71	34.05	-40.0	-41.3	20.5	0.00e+00	9	29	0	618659840	52	6681
2026-01-10 16:24:57.82	335.35	34.14	-39.9	-41.2	20.4	0.00e+00	0	29	0	620756992	52	6582
2026-01-10 16:24:58.83	334.98	34.22	-40.7	-42.2	19.6	0.00e+00	37	29	0	622854144	54	6598
2026-01-10 16:24:59.84	334.62	34.31	-41.3	-43.0	18.9	0.00e+00	0	29	0	623902720	54	7242
2026-01-10 16:25:00.85	334.25	34.39	-41.0	-42.6	19.4	0.00e+00	92	29	0	625999872	54	6866
2026-01-10 16:25:01.86	333.88	34.47	-40.1	-41.4	20.3	0.00e+00	0	29	0	628097024	54	6013
2026-01-10 16:25:02.87	333.51	34.55	-39.0	-40.1	21.6	0.00e+00	0	29	0	630194176	52	5784
2026-01-10 16:25:03.88	333.14	34.63	-38.5	-39.5	22.0	0.00e+00	0	29	0	632291328	50	6067
2026-01-10 16:25:04.89	332.77	34.71	-38.9	-40.0	21.5	0.00e+00	0	29	0	633339904	50	6419
2026-01-10 16:25:05.90	332.39	34.78	-39.3	-40.5	20.9	0.00e+00	39	29	0	635437056	50	6774
2026-01-10 16:25:06.91	332.02	34.86	-40.1	-41.4	20.3	0.00e+00	0	29	0	637534208	52	6739
2026-01-10 16:25:07.91	331.64	34.93	-40.3	-41.7	20.0	0.00e+00	47	29	0	639631360	52	6956
2026-01-10 16:25:08.92	331.26	35.01	-39.7	-41.0	20.6	0.00e+00	0	29	0	641728512	52	6436
2026-01-10 16:25:09.93	330.88	35.08	-39.0	-40.2	21.1	0.00e+00	0	29	0	642777088	52	5855
2026-01-10 16:25:10.94	330.49	35.15	-38.7	-39.8	21.7	0.00e+00	0	29	0	644874240	50	6306
2026-01-10 16:25:11.95	330.11	35.22	-38.6	-39.7	21.9	0.00e+00	0	29	0	646971392	50	6223
2026-01-10 16:25:12.96	329.72	35.29	-39.0	-40.2	21.5	0.00e+00	43	29	0	649068544	50	6594
2026-01-10 16:25:13.98	329.32	35.35	-38.9	-40.0	21.2	0.00e+00	0	29	0	651165696	50	6452
2026-01-10 16:25:14.99	328.93	35.42	-39.2	-40.4	21.2	0.00e+00	91	29	0	652214272	50	6748
2026-01-10 16:25:16.00	328.54	35.48	-38.7	-39.8	21.8	0.00e+00	0	28	0	654311424	50	6283
2026-01-10 16:25:17.01	328.15	35.54	-37.6	-38.6	22.9	0.00e+00	0	29	0	656408576	50	5445
2026-01-10 16:25:18.02	327.75	35.61	-36.6	-37.4	23.6	0.00e+00	0	29	0	658505728	46	6012
2026-01-10 16:25:19.03	327.35	35.66	-36.1	-37.0	24.1	0.00e+00	0	29	0	660602880	46	5696
2026-01-10 16:25:20.04	326.96	35.72	-35.5	-36.3	24.4	0.00e+00	44	29	0	661651456	44	5944
2026-01-10 16:25:21.05	326.56	35.78	-35.9	-36.7	24.1	0.00e+00	0	29	0	663748608	44	6238
2026-01-10 16:25:22.06	326.16	35.83	-36.3	-37.2	23.7	0.00e+00	91	29	0	665845760	44	6560
2026-01-10 16:25:23.06	325.76	35.89	-36.3	-37.2	23.7	0.00e+00	0	29	0	667942912	44	6551
2026-01-10 16:25:24.07	325.35	35.94	-36.4	-37.2	23.8	0.00e+00	92	29	0	670040064	44	6583
2026-01-10 16:25:25.08	324.95	35.99	-36.4	-37.2	23.8	0.00e+00	0	29	0	671088640	44	6605
2026-01-10 16:25:26.09	324.54	36.04	-36.3	-37.2	23.9	0.00e+00	0	28	0	673185792	44	6576
2026-01-10 16:25:27.10	324.13	36.09	-36.4	-37.2	23.8	0.00e+00	0	28	0	675282944	44	6599
2026-01-10 16:25:28.11	323.72	36.13	-36.3	-37.1	23.9	0.00e+00	0	28	0	677380096	44	6523
2026-01-10 16:25:29.12	323.31	36.18	-36.0	-36.8	24.1	0.00e+00	72	28	0	679477248	44	6300
2026-01-10 16:25:30.13	322.90	36.22	-36.0	-36.8	24.2	0.00e+00	0	28	0	680525824	44	6311
2026-01-10 16:25:31.14	322.49	36.26	-36.2	-37.1	23.9	0.00e+00	92	28	0	682622976	44	6522
2026-01-10 16:25:32.15	322.08	36.30	-35.9	-36.8	24.1	0.00e+00	0	28	0	684720128	44	6268
2026-01-10 16:25:33.16	321.66	36.34	-35.9	-36.7	24.3	0.00e+00	0	28	0	686817280	44	6240
2026-01-10 16:25:34.17	321.25	36.37	-36.0	-36.9	24.1	0.00e+00	0	28	0	688914432	44	6336
2026-01-10 16:25:35.18	320.83	36.41	-36.1	-37.0	24.0	0.00e+00	0	29	0	691011584	44	6450
2026-01-10 16:25:36.19	320.42	36.44	-36.1	-37.0	23.6	0.00e+00	58	28	0	692060160	44	6414
2026-01-10 16:25:37.20	320.00	36.47	-37.2	-38.1	23.1	0.00e+00	0	29	0	694157312	46	6525
2026-01-10 16:25:38.20	319.58	36.50	-37.6	-38.6	22.8	0.00e+00	74	28	0	696254464	46	6897
2026-01-10 16:25:39.21	319.17	36.52	-36.9	-37.8	23.4	0.00e+00	0	29	0	698351616	48	5588
2026-01-10 16:25:40.22	318.75	36.55	-36.0	-36.8	24.2	0.00e+00	0	28	0	700448768	46	5595
2026-01-10 16:25:41.23	318.32	36.57	-35.7	-36.5	24.4	0.00e+00	0	28	0	701497344	44	6061
2026-01-10 16:25:42.24	317.90	36.60	-34.8	-35.6	24.9	0.00e+00	0	28	0	703594496	44	5462
2026-01-10 16:25:43.25	317.48	36.62	-34.9	-35.6	24.9	0.00e+00	19	28	0	705691648	42	6129
2026-01-10 16:25:44.26	317.06	36.64	-35.5	-36.3	24.6	0.00e+00	0	28	0	707788800	42	6659
2026-01-10 16:25:45.27	316.64	36.65	-36.4	-37.3	23.8	0.00e+00	80	28	0	709885952	44	6633
2026-01-10 16:25:46.28	316.21	36.67	-37.2	-38.2	23.1	0.00e+00	0	28	0	710934528	46	6553
2026-01-10 16:25:47.29	315.79	36.68	-37.6	-38.6	22.7	0.00e+00	0	28	0	713031680	46	6862
2026-01-10 16:25:48.30	315.37	36.69	-37.6	-38.6	23.0	0.00e+00	0	28	0	715128832	48	6104
2026-01-10 16:25:49.31	314.94	36.70	-37.2	-38.2	23.2	0.00e+00	0	28	0	717225984	48	5849
2026-01-10 16:25:50.32	314.52	36.71	-37.1	-38.1	23.0	0.00e+00	17	28	0	719323136	48	5768
2026-01-10 16:25:51.33	314.09	36.72	-37.3	-38.2	23.0	0.00e+00	0	28	0	720371712	48	5872
2026-01-10 16:25:52.34	313.67	36.72	-37.8	-38.8	22.7	0.00e+00	92	28	0	722468864	48	6275
2026-01-10 16:25:53.35	313.24	36.72	-38.5	-39.6	22.0	0.00e+00	0	29	0	724566016	48	6899
2026-01-10 16:25:54.36	312.82	36.72	-38.9	-40.1	21.4	0.00e+00	30	28	0	726663168	50	6508
2026-01-10 16:25:55.37	312.39	36.72	-39.2	-40.4	21.4	0.00e+00	0	28	0	728760320	50	6739
2026-01-10 16:25:56.38	311.97	36.72	-38.8	-39.9	21.8	0.00e+00	0	28	0	729808896	50	6377
2026-01-10 16:25:57.39	311.55	36.72	-37.9	-38.9	22.6	0.00e+00	0	28	0	731906048	50	5685
2026-01-10 16:25:58.40	311.12	36.71	-37.0	-37.9	23.3	0.00e+00	0	28	0	734003200	48	5682
2026-01-10 16:25:59.41	310.70	36.70	-36.7	-37.5	23.6	0.00e+00	91	28	0	736100352	46	6094
2026-01-10 16:26:00.42	310.27	36.69	-37.0	-38.0	23.2	0.00e+00	0	28	0	738197504	46	6400
2026-01-10 16:26:01.43	309.85	36.68	-37.6	-38.6	22.6	0.00e+00	92	28	0	739246080	46	6873
2026-01-10 16:26:02.44	309.42	36.67	-38.3	-39.4	22.0	0.00e+00	33	28	0	741343232	48	6731
2026-01-10 16:26:03.45	309.00	36.65	-38.5	-39.6	21.9	0.00e+00	0	28	0	743440384	50	6133
2026-01-10 16:26:04.46	308.58	36.63	-38.2	-39.2	22.3	0.00e+00	0	28	0	745537536	50	5837
2026-01-10 16:26:05.47	308.16	36.61	-38.0	-38.9	22.2	0.00e+00	0	28	0	747634688	50	5687
2026-01-10 16:26:06.48	307.73	36.59	-37.9	-38.9	22.5	0.00e+00	46	28	0	748683264	50	5663
2026-01-10 16:26:07.49	307.31	36.57	-37.7	-38.7	22.6	0.00e+00	0	28	0	750780416	50	5560
2026-01-10 16:26:08.50	306.89	36.55	-37.6	-38.6	22.8	0.00e+00	77	28	0	752877568	48	6109
2026-01-10 16:26:09.51	306.47	36.52	-37.8	-38.8	22.6	0.00e+00	0	28	0	754974720	48	6295
2026-01-10 16:26:10.52	306.05	36.49	-38.0	-39.0	22.3	0.00e+00	0	28	0	757071872	48	6447
2026-01-10 16:26:11.53	305.64	36.46	-39.6	-40.9	20.9	0.00e+00	0	28	0	759169024	50	7107
2026-01-10 16:26:12.54	305.22	36.43	-40.6	-42.1	19.8	0.00e+00	18	28	0	760217600	52	7307
2026-01-10 16:26:13.55	304.80	36.40	-41.2	-42.9	19.0	0.00e+00	29	28	0	762314752	54	7164
2026-01-10 16:26:14.56	304.38	36.37	-40.7	-42.2	19.7	0.00e+00	0	28	0	764411904	54	6608
2026-01-10 16:26:15.57	303.97	36.33	-39.8	-41.1	20.6	0.00e+00	92	28	0	766509056	52	6479
2026-01-10 16:26:16.58	303.55	36.29	-38.8	-39.9	21.7	0.00e+00	0	28	0	768606208	52	5636
2026-01-10 16:26:17.59	303.14	36.25	-38.3	-39.3	22.2	0.00e+00	0	28	0	769654784	50	5960
2026-01-10 16:26:18.60	302.73	36.21	-37.9	-38.8	22.6	0.00e+00	0	28	0	771751936	50	5613
2026-01-10 16:26:19.61	302.32	36.17	-38.1	-39.1	22.3	0.00e+00	0	28	0	773849088	48	6498
2026-01-10 16:26:20.62	301.91	36.12	-38.1	-39.1	22.2	0.00e+00	27	28	0	775946240	48	6529
2026-01-10 16:26:21.63	301.50	36.08	-38.5	-39.6	22.0	0.00e+00	0	28	0	778043392	48	6900
2026-01-10 16:26:22.64	301.09	36.03	-39.1	-40.3	21.4	0.00e+00	87	28	0	779091968	50	6645
2026-01-10 16:26:23.65	300.68	35.98	-39.6	-40.9	20.8	0.00e+00	0	28	0	781189120	52	6356
2026-01-10 16:26:24.66	300.28	35.93	-39.4	-40.6	21.2	0.00e+00	0	28	0	783286272	52	6145
2026-01-10 16:26:25.67	299.87	35.88	-38.9	-40.1	21.7	0.00e+00	0	28	0	785383424	52	5764
2026-01-10 16:26:26.68	299.47	35.82	-38.4	-39.5	21.9	0.00e+00	0	28	0	787480576	50	6055
2026-01-10 16:26:27.69	299.07	35.77	-38.3	-39.3	22.2	0.00e+00	20	28	0	788529152	50	5936
2026-01-10 16:26:28.70	298.67	35.71	-38.5	-39.6	22.0	0.00e+00	0	28	0	790626304	50	6118
2026-01-10 16:26:29.71	298.27	35.65	-38.1	-39.1	22.6	0.00e+00	90	28	0	792723456	50	5794
2026-01-10 16:26:30.72	297.87	35.59	-38.1	-39.1	22.5	0.00e+00	0	28	0	794820608	50	5806
2026-01-10 16:26:31.73	297.48	35.53	-38.3	-39.3	22.2	0.00e+00	0	28	0	796917760	50	5957
2026-01-10 16:26:32.74	297.08	35.47	-39.0	-40.3	21.5	0.00e+00	0	28	0	797966336	50	6618
2026-01-10 16:26:33.75	296.69	35.41	-39.5	-40.9	20.7	0.00e+00	0	28	0	800063488	50	7090
2026-01-10 16:26:34.76	296.30	35.34	-39.8	-41.2	20.9	0.00e+00	25	28	0	802160640	52	6546
2026-01-10 16:26:35.76	295.92	35.27	-39.6	-40.8	21.3	0.00e+00	0	28	0	804257792	52	6289
2026-01-10 16:26:36.77	295.53	35.21	-39.1	-40.3	21.6	0.00e+00	92	28	0	806354944	52	5957
2026-01-10 16:26:37.78	295.14	35.14	-37.9	-38.9	22.7	0.00e+00	0	28	0	807403520	50	5655
2026-01-10 16:26:38.79	294.76	35.07	-37.1	-38.0	23.3	0.00e+00	92	28	0	809500672	48	5720
2026-01-10 16:26:39.80	294.37	34.99	-36.6	-37.4	23.8	0.00e+00	0	28	0	811597824	46	6022
2026-01-10 16:26:40.81	293.99	34.92	-36.8	-37.7	23.4	0.00e+00	0	28	0	813694976	46	6225
2026-01-10 16:26:41.82	293.61	34.85	-38.1	-39.2	22.2	0.00e+00	41	28	0	815792128	48	6595
2026-01-10 16:26:42.83	293.23	34.77	-38.9	-40.1	21.5	0.00e+00	0	28	0	816840704	50	6488
2026-01-10 16:26:43.84	292.86	34.69	-39.2	-40.4	21.3	0.00e+00	49	28	0	818937856	50	6713
2026-01-10 16:26:44.85	292.48	34.61	-39.1	-40.2	21.6	0.00e+00	0	28	0	821035008	50	6606
2026-01-10 16:26:45.86	292.11	34.53	-38.0	-39.1	22.4	0.00e+00	72	28	0	823132160	50	5766
2026-01-10 16:26:46.87	291.74	34.45	-37.2	-38.1	23.2	0.00e+00	0	28	0	825229312	48	5810
2026-01-10 16:26:47.88	291.37	34.37	-36.7	-37.6	23.5	0.00e+00	0	28	0	827326464	46	6145
2026-01-10 16:26:48.89	291.01	34.29	-37.1	-38.1	23.3	0.00e+00	0	28	0	828375040	46	6479
2026-01-10 16:26:49.90	290.64	34.20	-37.6	-38.6	22.8	0.00e+00	0	28	0	830472192	46	6854
2026-01-10 16:26:50.91	290.28	34.12	-38.2	-39.3	22.0	0.00e+00	43	28	0	832569344	48	6618
2026-01-10 16:26:51.92	289.92	34.03	-38.6	-39.7	21.8	0.00e+00	0	28	0	834666496	48	6995
2026-01-10 16:26:52.93	289.56	33.95	-39.4	-40.6	21.2	0.00e+00	86	28	0	836763648	50	6892
2026-01-10 16:26:53.94	289.20	33.86	-40.1	-41.5	20.1	0.00e+00	0	28	0	837812224	52	6778
2026-01-10 16:26:54.95	288.85	33.77	-40.1	-41.6	20.2	0.00e+00	0	28	0	839909376	52	6864
2026-01-10 16:26:55.96	288.49	33.68	-39.5	-40.7	21.0	0.00e+00	0	28	0	842006528	52	6240
2026-01-10 16:26:56.97	288.14	33.59	-39.5	-40.8	21.0	0.00e+00	0	28	0	844103680	52	6267
2026-01-10 16:26:57.98	287.79	33.49	-39.4	-40.7	21.0	0.00e+00	44	28	0	846200832	52	6209
2026-01-10 16:26:58.99	287.44	33.40	-39.7	-41.0	20.6	0.00e+00	0	28	0	847249408	52	6461
2026-01-10 16:27:00.00	287.10	33.31	-39.5	-40.7	21.0	0.00e+00	76	28	0	849346560	52	6244
2026-01-10 16:27:01.01	286.75	33.21	-39.3	-40.5	21.1	0.00e+00	0	28	0	851443712	52	6092
2026-01-10 16:27:02.03	286.41	33.11	-39.9	-41.2	20.5	0.00e+00	0	28	0	853540864	52	6606
2026-01-10 16:27:03.04	286.07	33.02	-40.2	-41.7	20.1	0.00e+00	0	28	0	855638016	52	6951
2026-01-10 16:27:04.05	285.73	32.92	-39.5	-40.7	21.1	0.00e+00	0	28	0	856686592	52	6236
2026-01-10 16:27:05.06	285.40	32.82	-38.8	-39.9	21.8	0.00e+00	41	28	0	858783744	52	5648
2026-01-10 16:27:06.07	285.06	32.72	-38.4	-39.5	22.1	0.00e+00	0	28	0	860880896	50	6043
2026-01-10 16:27:07.08	284.73	32.62	-38.2	-39.3	22.1	0.00e+00	74	28	0	862978048	50	5898
2026-01-10 16:27:08.09	284.40	32.52	-37.9	-38.9	22.4	0.00e+00	0	28	0	865075200	50	5680
2026-01-10 16:27:09.10	284.08	32.42	-37.4	-38.4	22.8	0.00e+00	0	28	0	866123776	48	5977
2026-01-10 16:27:10.11	283.75	32.32	-37.0	-37.9	23.2	0.00e+00	0	28	0	868220928	48	5694
2026-01-10 16:27:11.12	283.43	32.22	-37.0	-37.9	23.3	0.00e+00	0	28	0	870318080	46	6386
2026-01-10 16:27:12.13	283.11	32.11	-37.5	-38.5	22.8	0.00e+00	43	28	0	872415232	46	6784
2026-01-10 16:27:13.14	282.79	32.01	-38.6	-39.7	21.7	0.00e+00	0	28	0	874512384	48	6946
2026-01-10 16:27:14.15	282.47	31.90	-39.2	-40.3	21.1	0.00e+00	42	28	0	875560960	50	6674
2026-01-10 16:27:15.16	282.16	31.80	-39.4	-40.5	21.2	0.00e+00	0	28	0	877658112	50	6828
2026-01-10 16:27:16.16	281.85	31.69	-39.3	-40.5	21.2	0.00e+00	90	28	0	879755264	50	6770
2026-01-10 16:27:17.17	281.54	31.59	-39.0	-40.1	21.8	0.00e+00	0	28	0	881852416	50	6506
2026-01-10 16:27:18.18	281.23	31.48	-37.8	-38.8	22.6	0.00e+00	0	28	0	883949568	50	5592
2026-01-10 16:27:19.19	280.92	31.37	-37.7	-38.7	22.6	0.00e+00	0	28	0	884998144	48	6176
2026-01-10 16:27:20.20	280.62	31.26	-38.0	-39.0	22.4	0.00e+00	0	28	0	887095296	48	6392
2026-01-10 16:27:21.21	280.32	31.16	-38.8	-39.9	21.7	0.00e+00	78	28	0	889192448	48	7125
2026-01-10 16:27:22.22	280.01	31.05	-39.9	-41.2	20.6	0.00e+00	0	28	0	891289600	52	6606
2026-01-10 16:27:23.23	279.72	30.94	-40.2	-41.5	20.1	0.00e+00	92	28	0	893386752	52	6835
2026-01-10 16:27:24.24	279.42	30.83	-40.2	-41.5	20.4	0.00e+00	0	28	0	895483904	52	6823
2026-01-10 16:27:25.25	279.13	30.72	-39.5	-40.7	20.8	0.00e+00	0	28	0	896532480	52	6182
2026-01-10 16:27:26.26	278.83	30.61	-38.9	-40.1	21.5	0.00e+00	0	28	0	898629632	52	5784
2026-01-10 16:27:27.27	278.54	30.49	-38.4	-39.5	22.1	0.00e+00	0	28	0	900726784	50	6064
2026-01-10 16:27:28.28	278.25	30.38	-38.9	-40.1	21.5	0.00e+00	53	28	0	902823936	50	6478
2026-01-10 16:27:29.29	277.97	30.27	-38.6	-39.7	21.8	0.00e+00	0	28	0	904921088	50	6240
2026-01-10 16:27:30.30	277.68	30.16	-38.8	-39.9	21.7	0.00e+00	89	28	0	905969664	50	6364
2026-01-10 16:27:31.31	277.40	30.05	-38.8	-40.0	21.6	0.00e+00	0	28	0	908066816	50	6408
2026-01-10 16:27:32.32	277.12	29.93	-39.3	-40.5	21.1	0.00e+00	0	28	0	910163968	50	6803
2026-01-10 16:27:33.33	276.84	29.82	-40.0	-41.4	20.4	0.00e+00	0	28	0	912261120	52	6708
2026-01-10 16:27:34.34	276.57	29.70	-40.0	-41.3	20.5	0.00e+00	0	28	0	914358272	52	6643
2026-01-10 16:27:35.35	276.29	29.59	-39.7	-40.9	20.9	0.00e+00	7	28	0	915406848	52	6370
2026-01-10 16:27:36.35	276.02	29.48	-39.4	-40.6	21.1	0.00e+00	0	28	0	917504000	52	6140
2026-01-10 16:27:37.36	275.75	29.36	-39.0	-40.1	21.5	0.00e+00	92	28	0	919601152	52	5788
2026-01-10 16:27:38.38	275.48	29.25	-39.1	-40.3	21.5	0.00e+00	0	28	0	921698304	52	5912
2026-01-10 16:27:39.39	275.21	29.13	-39.1	-40.3	21.3	0.00e+00	0	28	0	923795456	52	5925
2026-01-10 16:27:40.40	274.95	29.02	-39.3	-40.5	21.2	0.00e+00	0	28	0	924844032	52	6083
2026-01-10 16:27:41.41	274.69	28.90	-39.5	-40.7	20.8	0.00e+00	0	28	0	926941184	52	6233
2026-01-10 16:27:42.42	274.42	28.79	-39.7	-40.9	20.7	0.00e+00	38	28	0	929038336	52	6351
2026-01-10 16:27:43.43	274.17	28.67	-39.5	-40.8	20.9	0.00e+00	33	28	0	931135488	52	6258
2026-01-10 16:27:44.44	273.91	28.55	-39.3	-40.5	21.2	0.00e+00	92	28	0	933232640	52	6075
2026-01-10 16:27:45.45	273.65	28.44	-38.8	-40.0	21.8	0.00e+00	0	28	0	934281216	52	5698
2026-01-10 16:27:46.46	273.40	28.32	-38.1	-39.1	22.3	0.00e+00	4	28	0	936378368	50	5793
2026-01-10 16:27:47.47	273.15	28.20	-37.3	-38.3	23.0	0.00e+00	0	28	0	938475520	48	5902
2026-01-10 16:27:48.48	272.90	28.09	-36.8	-37.6	23.4	0.00e+00	0	28	0	940572672	48	5487
2026-01-10 16:27:49.49	272.65	27.97	-36.4	-37.3	23.8	0.00e+00	39	28	0	942669824	46	5898
2026-01-10 16:27:50.49	272.41	27.85	-36.4	-37.3	23.6	0.00e+00	0	28	0	943718400	46	5923
2026-01-10 16:27:51.50	272.16	27.74	-36.8	-37.7	23.5	0.00e+00	92	28	0	945815552	46	6199
2026-01-10 16:27:52.51	271.92	27.62	-36.9	-37.8	23.3	0.00e+00	0	28	0	947912704	46	6284
2026-01-10 16:27:53.52	271.68	27.50	-37.2	-38.1	23.2	0.00e+00	92	28	0	950009856	46	6510
2026-01-10 16:27:54.53	271.44	27.39	-37.1	-38.0	23.3	0.00e+00	0	28	0	952107008	46	6396
2026-01-10 16:27:55.54	271.20	27.27	-37.3	-38.2	23.1	0.00e+00	0	28	0	953155584	46	6548
2026-01-10 16:27:56.55	270.97	27.15	-37.1	-38.0	23.3	0.00e+00	0	28	0	955252736	46	6407
2026-01-10 16:27:57.56	270.73	27.03	-36.8	-37.6	23.4	0.00e+00	0	28	0	957349888	46	6147
2026-01-10 16:27:58.57	270.50	26.92	-36.2	-37.0	24.0	0.00e+00	40	28	0	959447040	46	5729
2026-01-10 16:27:59.58	270.27	26.80	-36.1	-36.9	24.0	0.00e+00	0	28	0	961544192	46	5683
2026-01-10 16:28:00.59	270.04	26.68	-36.3	-37.1	23.8	0.00e+00	92	28	0	963641344	46	5793
2026-01-10 16:28:01.60	269.82	26.57	-36.5	-37.4	23.6	0.00e+00	0	28	0	964689920	46	5984
2026-01-10 16:28:02.61	269.59	26.45	-36.9	-37.8	23.4	0.00e+00	0	28	0	966787072	46	6271
2026-01-10 16:28:03.62	269.37	26.33	-37.5	-38.5	22.8	0.00e+00	0	28	0	968884224	46	6801
2026-01-10 16:28:04.63	269.14	26.21	-37.4	-38.4	22.9	0.00e+00	0	28	0	970981376	46	6706
2026-01-10 16:28:05.64	268.92	26.10	-36.7	-37.6	23.5	0.00e+00	41	28	0	973078528	46	6158
2026-01-10 16:28:06.64	268.71	25.98	-36.4	-37.2	23.8	0.00e+00	0	28	0	974127104	46	5891
2026-01-10 16:28:07.66	268.49	25.86	-36.0	-36.9	23.9	0.00e+00	63	28	0	976224256	46	5646
2026-01-10 16:28:08.67	268.27	25.75	-36.0	-36.9	24.1	0.00e+00	0	28	0	978321408	46	5642
2026-01-10 16:28:09.68	268.06	25.63	-35.9	-36.7	24.2	0.00e+00	0	28	0	980418560	46	5518
2026-01-10 16:28:10.69	267.85	25.51	-36.4	-37.2	23.8	0.00e+00	0	28	0	982515712	46	5891
2026-01-10 16:28:11.70	267.64	25.39	-36.4	-37.2	23.8	0.00e+00	0	28	0	983564288	46	5883
2026-01-10 16:28:12.71	267.43	25.28	-36.1	-36.9	24.0	0.00e+00	42	28	0	985661440	46	5676
2026-01-10 16:28:13.72	267.22	25.16	-36.0	-36.9	24.0	0.00e+00	0	28	0	987758592	46	5654
2026-01-10 16:28:14.73	267.01	25.04	-36.3	-37.1	24.0	0.00e+00	92	28	0	989855744	46	5819
2026-01-10 16:28:15.74	266.81	24.93	-36.2	-37.0	23.8	0.00e+00	0	28	0	991952896	46	5727
2026-01-10 16:28:16.75	266.61	24.81	-36.2	-37.1	23.9	0.00e+00	33	28	0	993001472	46	5779
2026-01-10 16:28:17.76	266.41	24.70	-36.1	-36.9	24.0	0.00e+00	0	28	0	995098624	46	5672
2026-01-10 16:28:18.77	266.21	24.58	-36.0	-36.8	24.0	0.00e+00	0	28	0	997195776	46	5618
2026-01-10 16:28:19.78	266.01	24.46	-35.7	-36.5	24.3	0.00e+00	22	28	0	999292928	46	5439
2026-01-10 16:28:20.79	265.81	24.35	-35.7	-36.5	24.3	0.00e+00	0	28	0	1001390080	44	6087
2026-01-10 16:28:21.80	265.62	24.23	-35.9	-36.7	24.1	0.00e+00	92	28	0	1002438656	44	6213
2026-01-10 16:28:22.81	265.42	24.12	-35.8	-36.6	24.3	0.00e+00	0	28	0	1004535808	44	6131
2026-01-10 16:28:23.81	265.23	24.00	-35.8	-36.6	24.1	0.00e+00	61	28	0	1006632960	44	6137
2026-01-10 16:28:24.82	265.04	23.89	-36.2	-37.0	23.9	0.00e+00	0	28	0	1008730112	44	6447
2026-01-10 16:28:25.83	264.85	23.77	-36.5	-37.4	23.6	0.00e+00	0	27	0	1010827264	44	6697
2026-01-10 16:28:26.84	264.66	23.66	-36.3	-37.2	23.7	0.00e+00	34	27	0	1011875840	44	6560
2026-01-10 16:28:27.85	264.47	23.54	-36.6	-37.4	23.6	0.00e+00	0	28	0	1013972992	44	6765
2026-01-10 16:28:28.86	264.29	23.43	-36.3	-37.2	23.7	0.00e+00	92	27	0	1016070144	44	6570
2026-01-10 16:28:29.87	264.10	23.31	-36.3	-37.1	23.3	0.00e+00	0	28	0	1018167296	44	6537
2026-01-10 16:28:30.88	263.92	23.20	-36.4	-37.3	23.5	0.00e+00	90	27	0	1020264448	44	6657
2026-01-10 16:28:31.89	263.74	23.09	-37.0	-37.9	23.3	0.00e+00	0	27	0	1021313024	44	7130
2026-01-10 16:28:32.90	263.56	22.97	-37.0	-37.9	23.1	0.00e+00	0	28	0	1023410176	46	6365
2026-01-10 16:28:33.91	263.38	22.86	-37.3	-38.3	22.3	0.00e+00	0	28	0	1025507328	46	6644
2026-01-10 16:28:34.92	263.20	22.74	-37.9	-38.9	22.2	0.00e+00	0	28	0	1027604480	48	6365
2026-01-10 16:28:35.93	263.03	22.63	-37.9	-38.9	22.3	0.00e+00	35	28	0	1029701632	48	6359
2026-01-10 16:28:36.94	262.85	22.52	-38.0	-39.0	22.3	0.00e+00	0	28	0	1031798784	48	6428
2026-01-10 16:28:37.95	262.68	22.41	-37.6	-38.6	22.7	0.00e+00	87	28	0	1032847360	48	6106
2026-01-10 16:28:38.96	262.51	22.29	-37.9	-38.9	22.4	0.00e+00	0	28	0	1034944512	48	6375
2026-01-10 16:28:39.97	262.34	22.18	-37.6	-38.6	22.7	0.00e+00	0	28	0	1037041664	48	6133
2026-01-10 16:28:40.98	262.17	22.07	-37.8	-38.8	22.5	0.00e+00	0	28	0	1039138816	48	6310
2026-01-10 16:28:41.99	262.00	21.96	-38.2	-39.3	22.2	0.00e+00	0	28	0	1041235968	48	6633
2026-01-10 16:28:43.00	261.83	21.84	-38.2	-39.3	22.1	0.00e+00	28	28	0	1042284544	48	6660
2026-01-10 16:28:44.01	261.66	21.73	-38.3	-39.4	22.1	0.00e+00	0	28	0	1044381696	48	6697
2026-01-10 16:28:45.02	261.50	21.62	-38.3	-39.4	21.9	0.00e+00	92	27	0	1046478848	48	6744
2026-01-10 16:28:46.03	261.33	21.51	-38.6	-39.7	21.8	0.00e+00	0	28	0	1048576000	50	6198
2026-01-10 16:28:47.04	261.17	21.40	-38.4	-39.5	22.0	0.00e+00	0	28	0	1050673152	50	6035
2026-01-10 16:28:48.05	261.01	21.29	-38.4	-39.5	21.9	0.00e+00	0	27	0	1051721728	50	6046
2026-01-10 16:28:49.06	260.85	21.18	-38.4	-39.5	21.9	0.00e+00	0	28	0	1053818880	50	6071
2026-01-10 16:28:50.07	260.69	21.07	-38.5	-39.6	21.8	0.00e+00	39	27	0	1055916032	50	6135
2026-01-10 16:28:51.08	260.53	20.96	-38.5	-39.6	21.8	0.00e+00	0	28	0	1058013184	50	6159
2026-01-10 16:28:52.09	260.38	20.85	-38.8	-39.9	21.5	0.00e+00	78	28	0	1060110336	50	6375
2026-01-10 16:28:53.10	260.22	20.74	-38.6	-39.7	21.7	0.00e+00	0	28	0	1061158912	50	6239
2026-01-10 16:28:54.11	260.07	20.63	-38.5	-39.6	21.9	0.00e+00	0	28	0	1063256064	50	6137
2026-01-10 16:28:55.12	259.91	20.52	-38.2	-39.3	22.2	0.00e+00	0	28	0	1065353216	50	5905
2026-01-10 16:28:56.12	259.76	20.42	-37.5	-38.5	22.7	0.00e+00	0	27	0	1067450368	48	6053
2026-01-10 16:28:57.13	259.61	20.31	-37.4	-38.3	22.8	0.00e+00	0	28	0	1069547520	48	5951
2026-01-10 16:28:58.14	259.46	20.20	-37.3	-38.2	23.0	0.00e+00	0	28	0	1070596096	48	5879
2026-01-10 16:28:59.16	259.31	20.09	-37.4	-38.3	22.9	0.00e+00	79	27	0	1072693248	48	5944
2026-01-10 16:29:00.17	259.16	19.98	-37.0	-38.0	23.2	0.00e+00	0	28	0	1074790400	48	5700
2026-01-10 16:29:01.17	259.02	19.88	-37.3	-38.3	22.9	0.00e+00	37	28	0	1076887552	48	5936
2026-01-10 16:29:02.19	258.87	19.77	-37.5	-38.5	22.8	0.00e+00	0	28	0	1078984704	48	6034
2026-01-10 16:29:03.20	258.72	19.66	-37.5	-38.5	22.7	0.00e+00	0	28	0	1080033280	48	6084
2026-01-10 16:29:04.21	258.58	19.56	-37.6	-38.6	22.6	0.00e+00	0	27	0	1082130432	48	6114
2026-01-10 16:29:05.22	258.44	19.45	-37.5	-38.4	22.9	0.00e+00	0	28	0	1084227584	48	6027
2026-01-10 16:29:06.23	258.29	19.34	-37.1	-38.0	23.0	0.00e+00	92	27	0	1086324736	48	5760
2026-01-10 16:29:07.23	258.15	19.24	-36.6	-37.4	23.6	0.00e+00	0	27	0	1088421888	46	6032
2026-01-10 16:29:08.24	258.01	19.13	-36.5	-37.4	23.5	0.00e+00	90	27	0	1089470464	46	5976
2026-01-10 16:29:09.25	257.88	19.03	-36.2	-37.0	23.8	0.00e+00	0	28	0	1091567616	46	5716
2026-01-10 16:29:10.26	257.74	18.92	-36.0	-36.8	24.0	0.00e+00	0	28	0	1093664768	46	5604
2026-01-10 16:29:11.27	257.60	18.82	-36.1	-37.0	23.9	0.00e+00	0	27	0	1095761920	46	5696
2026-01-10 16:29:12.28	257.46	18.71	-36.1	-36.9	23.9	0.00e+00	0	27	0	1097859072	46	5672
2026-01-10 16:29:13.29	257.33	18.61	-36.2	-37.1	23.8	0.00e+00	92	27	0	1099956224	46	5787
2026-01-10 16:29:14.30	257.20	18.51	-36.5	-37.3	23.6	0.00e+00	0	27	0	1101004800	46	5955
2026-01-10 16:29:15.31	257.06	18.40	-36.7	-37.6	23.3	0.00e+00	69	27	0	1103101952	46	6143
2026-01-10 16:29:16.32	256.93	18.30	-36.9	-37.8	23.2	0.00e+00	0	27	0	1105199104	46	6260
2026-01-10 16:29:17.33	256.80	18.20	-37.5	-38.4	22.7	0.00e+00	0	27	0	1107296256	46	6763
2026-01-10 16:29:18.33	256.67	18.09	-37.7	-38.7	22.5	0.00e+00	0	27	0	1109393408	46	6946
2026-01-10 16:29:19.34	256.54	17.99	-38.3	-39.3	22.0	0.00e+00	0	27	0	1110441984	48	6690
2026-01-10 16:29:20.36	256.41	17.89	-39.0	-40.1	21.6	0.00e+00	91	27	0	1112539136	50	6527
2026-01-10 16:29:21.36	256.28	17.79	-39.4	-40.7	20.8	0.00e+00	0	27	0	1114636288	50	6932
2026-01-10 16:29:22.37	256.16	17.69	-39.8	-41.1	20.5	0.00e+00	71	27	0	1116733440	52	6469
2026-01-10 16:29:23.38	256.03	17.59	-40.3	-41.7	20.0	0.00e+00	0	27	0	1118830592	52	6963
2026-01-10 16:29:24.39	255.90	17.48	-40.4	-41.8	20.0	0.00e+00	1	27	0	1119879168	52	7039
2026-01-10 16:29:25.39	255.78	17.38	-39.6	-40.8	20.6	0.00e+00	0	27	0	1121976320	52	6290
2026-01-10 16:29:26.40	255.66	17.28	-39.2	-40.4	21.2	0.00e+00	0	27	0	1124073472	52	5979
2026-01-10 16:29:27.41	255.53	17.18	-38.6	-39.7	21.7	0.00e+00	50	27	0	1126170624	52	5511
2026-01-10 16:29:28.42	255.41	17.08	-38.1	-39.1	22.1	0.00e+00	0	27	0	1128267776	50	5788
2026-01-10 16:29:29.43	255.29	16.98	-37.5	-38.5	22.7	0.00e+00	92	27	0	1129316352	48	6071
2026-01-10 16:29:30.44	255.17	16.88	-37.4	-38.4	22.9	0.00e+00	0	27	0	1131413504	48	5970
2026-01-10 16:29:31.45	255.05	16.79	-37.2	-38.1	23.0	0.00e+00	91	27	0	1133510656	48	5823
2026-01-10 16:29:32.46	254.93	16.69	-37.2	-38.2	23.0	0.00e+00	0	27	0	1135607808	48	5834
2026-01-10 16:29:33.47	254.82	16.59	-37.4	-38.4	22.8	0.00e+00	33	27	0	1137704960	48	5979
2026-01-10 16:29:34.47	254.70	16.49	-37.7	-38.8	22.4	0.00e+00	35	27	0	1138753536	48	6251
2026-01-10 16:29:35.49	254.58	16.39	-38.3	-39.4	21.9	0.00e+00	0	27	0	1140850688	48	6697
2026-01-10 16:29:36.50	254.47	16.29	-38.3	-39.4	21.8	0.00e+00	91	27	0	1142947840	48	6749
2026-01-10 16:29:37.51	254.35	16.20	-39.0	-40.1	21.2	0.00e+00	0	27	0	1145044992	50	6530
2026-01-10 16:29:38.52	254.24	16.10	-39.0	-40.2	21.1	0.00e+00	91	27	0	1147142144	50	6586
2026-01-10 16:29:39.53	254.12	16.00	-38.9	-40.0	21.2	0.00e+00	0	27	0	1148190720	50	6457
2026-01-10 16:29:40.54	254.01	15.91	-39.0	-40.1	21.3	0.00e+00	0	28	0	1150287872	50	6508
2026-01-10 16:29:41.55	253.90	15.81	-38.8	-39.9	21.6	0.00e+00	0	27	0	1152385024	50	6363
2026-01-10 16:29:42.56	253.79	15.71	-38.7	-39.8	21.4	0.00e+00	0	27	0	1154482176	50	6252
2026-01-10 16:29:43.57	253.68	15.62	-38.2	-39.2	22.1	0.00e+00	90	27	0	1156579328	50	5855
2026-01-10 16:29:44.58	253.57	15.52	-38.0	-39.0	22.2	0.00e+00	0	27	0	1157627904	50	5754
2026-01-10 16:29:45.59	253.46	15.43	-37.7	-38.7	22.5	1.50e-06	92	27	0	1159725056	48	6241
2026-01-10 16:29:46.60	253.35	15.33	-37.7	-38.7	22.3	0.00e+00	0	27	0	1161822208	48	6237
2026-01-10 16:29:47.61	253.24	15.24	-37.9	-39.0	22.2	0.00e+00	0	27	0	1163919360	48	6393
2026-01-10 16:29:48.62	253.14	15.14	-38.0	-39.0	22.2	0.00e+00	0	27	0	1166016512	48	6461
2026-01-10 16:29:49.63	253.03	15.05	-38.2	-39.3	22.0	0.00e+00	0	27	0	1168113664	48	6655
2026-01-10 16:29:50.64	252.93	14.95	-38.3	-39.3	21.9	0.00e+00	30	27	0	1169162240	48	6687
2026-01-10 16:29:51.65	252.82	14.86	-38.6	-39.7	21.6	0.00e+00	0	27	0	1171259392	48	6942
2026-01-10 16:29:52.66	252.72	14.77	-38.5	-39.6	21.6	0.00e+00	91	27	0	1173356544	48	6858
2026-01-10 16:29:53.67	252.61	14.67	-38.6	-39.7	21.7	0.00e+00	0	27	0	1175453696	48	7000
2026-01-10 16:29:54.68	252.51	14.58	-38.5	-39.5	21.7	0.00e+00	0	27	0	1177550848	48	6840
2026-01-10 16:29:55.69	252.41	14.49	-38.5	-39.6	21.8	0.00e+00	0	27	0	1178599424	48	6855
2026-01-10 16:29:56.70	252.31	14.39	-38.6	-39.7	21.6	0.00e+00	0	27	0	1180696576	48	6950
2026-01-10 16:29:57.71	252.21	14.30	-38.5	-39.6	21.7	0.00e+00	24	27	0	1182793728	50	6127
2026-01-10 16:29:58.72	252.11	14.21	-38.6	-39.7	21.6	0.00e+00	0	27	0	1184890880	50	6178
2026-01-10 16:29:59.73	252.01	14.12	-38.5	-39.6	21.6	0.00e+00	92	27	0	1186988032	50	6153
2026-01-10 16:30:00.74	251.91	14.03	-38.6	-39.7	21.6	0.00e+00	0	27	0	1188036608	50	6208
2026-01-10 16:30:01.75	251.81	13.93	-38.7	-39.8	21.6	0.00e+00	0	27	0	1190133760	50	6279
2026-01-10 16:30:02.76	251.71	13.84	-38.9	-40.0	21.3	0.00e+00	0	27	0	1192230912	50	6448
2026-01-10 16:30:03.77	251.62	13.75	-38.7	-39.8	21.5	0.00e+00	0	27	0	1194328064	50	6311
2026-01-10 16:30:04.78	251.52	13.66	-38.5	-39.6	21.7	0.00e+00	35	27	0	1196425216	50	6122
2026-01-10 16:30:05.79	251.42	13.57	-38.5	-39.5	21.7	0.00e+00	0	27	0	1197473792	50	6099
2026-01-10 16:30:06.80	251.33	13.48	-38.0	-39.0	22.2	0.00e+00	90	27	0	1199570944	50	5736
