passes_logs/2026/01/10/R4.6S_Anadyr/R4.6S_Anadyr__20260110_175820_SUOMI_NPP_rec.log

#Pass ID: 20260110_175820_SUOMI NPP
#Satellite: SUOMI NPP
#Configuration: NPP
#almurnet v.1.7.20251203
#Start time: 2026-01-10 17:58:21

#Version: 2.2.20231116
#Station: R4.6S_Anadyr
#Location: 177.4865 lon 64.73178 lat
#TLE: 1 37849U 11061A   26009.81756760  .00000113  00000+0  74747-4 0  9994
#TLE: 2 37849  98.7806 311.9110 0002525  72.5604 287.5848 14.19524046735974

#Time	Az	El	Level	Level2	SNR	BER	BlckErr	Temp	State	Recorded	gain1	gain2
2026-01-10 17:58:21.75	35.56	0.05	-48.0	-59.6	3.5	8.45e-01	0	25	0	0	60	34677
2026-01-10 17:58:22.76	35.49	0.10	-48.1	-63.3	3.6	1.51e+00	0	26	104	0	60	52758
2026-01-10 17:58:23.77	35.43	0.16	-48.1	-63.3	3.6	1.51e+00	0	26	104	0	60	52906
2026-01-10 17:58:24.77	35.36	0.21	-48.2	-63.3	3.6	1.51e+00	0	27	104	0	60	53091
2026-01-10 17:58:25.79	35.29	0.26	-48.2	-63.3	3.6	1.51e+00	0	27	104	0	60	52957
2026-01-10 17:58:26.80	35.23	0.31	-48.2	-63.3	3.6	1.51e+00	0	27	104	0	60	53135
2026-01-10 17:58:27.81	35.16	0.36	-48.2	-63.4	3.6	1.51e+00	0	27	104	0	60	53379
2026-01-10 17:58:28.82	35.09	0.42	-48.2	-63.5	3.6	1.51e+00	0	27	104	0	60	53844
2026-01-10 17:58:29.83	35.03	0.47	-48.2	-63.3	3.6	1.51e+00	0	27	104	0	60	53106
2026-01-10 17:58:30.84	34.96	0.52	-48.1	-63.4	3.6	1.51e+00	0	27	104	0	60	53174
2026-01-10 17:58:31.85	34.89	0.57	-48.1	-63.3	3.6	1.51e+00	0	27	104	0	60	52888
2026-01-10 17:58:32.86	34.82	0.63	-48.0	-63.2	3.6	1.51e+00	0	27	104	0	60	52062
2026-01-10 17:58:33.87	34.75	0.68	-47.9	-63.1	3.6	1.51e+00	0	27	104	0	60	51924
2026-01-10 17:58:34.88	34.68	0.73	-47.8	-63.0	3.6	1.51e+00	0	27	104	0	60	51312
2026-01-10 17:58:35.89	34.62	0.78	-47.7	-62.9	3.6	1.51e+00	0	27	104	0	60	50727
2026-01-10 17:58:36.90	34.55	0.84	-47.6	-62.7	3.6	1.51e+00	0	27	104	0	60	49473
2026-01-10 17:58:37.91	34.48	0.89	-47.3	-62.5	3.6	1.51e+00	0	27	104	0	60	47946
2026-01-10 17:58:38.92	34.41	0.94	-46.8	-62.0	3.6	1.51e+00	0	27	104	0	60	45277
2026-01-10 17:58:39.93	34.34	1.00	-46.5	-61.6	3.6	1.51e+00	0	27	104	0	60	43642
2026-01-10 17:58:40.94	34.27	1.05	-46.5	-61.6	3.6	1.51e+00	0	27	104	0	60	43476
2026-01-10 17:58:41.95	34.20	1.10	-46.5	-61.5	3.6	1.51e+00	0	27	104	0	60	43144
2026-01-10 17:58:42.96	34.13	1.16	-46.5	-61.6	3.6	1.51e+00	0	27	104	0	60	43507
2026-01-10 17:58:43.97	34.05	1.21	-46.5	-61.6	3.6	1.51e+00	0	27	104	0	60	43473
2026-01-10 17:58:44.98	33.98	1.26	-46.5	-61.6	3.6	1.51e+00	0	27	104	0	60	43470
2026-01-10 17:58:45.99	33.91	1.31	-46.5	-61.6	3.6	1.51e+00	0	27	104	0	60	43542
2026-01-10 17:58:47.00	33.84	1.37	-46.5	-61.6	3.6	1.51e+00	0	27	104	0	60	43543
2026-01-10 17:58:48.01	33.77	1.42	-46.5	-61.6	3.6	1.51e+00	0	27	104	0	60	43443
2026-01-10 17:58:49.02	33.70	1.48	-46.5	-61.6	3.6	1.51e+00	0	27	104	0	60	43236
2026-01-10 17:58:50.03	33.62	1.53	-46.5	-61.6	3.6	1.51e+00	0	27	104	0	60	43247
2026-01-10 17:58:51.04	33.55	1.58	-46.5	-61.7	3.6	1.51e+00	0	27	104	0	60	43829
2026-01-10 17:58:52.05	33.48	1.64	-46.5	-61.6	3.6	1.51e+00	0	27	104	0	60	43461
2026-01-10 17:58:53.06	33.40	1.69	-46.5	-61.6	3.6	1.51e+00	0	27	104	0	60	43334
2026-01-10 17:58:54.07	33.33	1.74	-46.5	-61.6	3.6	1.51e+00	0	27	104	0	60	43400
2026-01-10 17:58:55.08	33.25	1.80	-46.5	-61.6	3.6	1.51e+00	0	27	104	0	60	43496
2026-01-10 17:58:56.09	33.18	1.85	-46.5	-61.6	3.6	1.51e+00	0	27	104	0	60	43521
2026-01-10 17:58:57.10	33.11	1.90	-46.5	-61.5	3.6	1.51e+00	0	27	104	0	60	43026
2026-01-10 17:58:58.11	33.03	1.96	-46.5	-61.5	3.6	1.51e+00	0	27	104	0	60	42863
2026-01-10 17:58:59.11	32.96	2.01	-46.4	-61.4	3.6	1.51e+00	0	27	104	0	60	42265
2026-01-10 17:59:00.12	32.88	2.07	-46.5	-61.2	3.6	1.51e+00	0	27	104	0	60	41569
2026-01-10 17:59:01.13	32.81	2.12	-46.4	-61.3	3.6	1.51e+00	0	27	104	0	60	41764
2026-01-10 17:59:02.14	32.73	2.17	-46.4	-61.5	3.6	1.51e+00	0	27	104	0	60	42826
2026-01-10 17:59:03.15	32.65	2.23	-46.5	-61.6	3.6	1.51e+00	0	27	104	0	60	43448
2026-01-10 17:59:04.16	32.58	2.28	-46.5	-61.6	3.6	1.51e+00	0	27	104	0	60	43495
2026-01-10 17:59:05.17	32.50	2.34	-46.5	-61.6	3.6	1.51e+00	0	27	104	0	60	43209
2026-01-10 17:59:06.18	32.42	2.39	-46.5	-61.5	3.6	1.51e+00	0	27	104	0	60	43188
2026-01-10 17:59:07.19	32.34	2.45	-46.5	-61.6	3.6	1.51e+00	0	27	104	0	60	43462
2026-01-10 17:59:08.20	32.27	2.50	-46.5	-61.6	3.6	1.51e+00	0	27	104	0	60	43377
2026-01-10 17:59:09.21	32.19	2.56	-46.5	-61.4	3.6	1.51e+00	0	27	104	0	60	42451
2026-01-10 17:59:10.22	32.11	2.61	-46.4	-61.0	3.6	1.51e+00	0	27	104	0	60	40389
2026-01-10 17:59:11.23	32.03	2.66	-46.4	-60.6	3.6	1.51e+00	0	27	104	0	60	38904
2026-01-10 17:59:12.25	31.95	2.72	-46.4	-60.8	3.6	1.51e+00	0	27	104	0	60	39855
2026-01-10 17:59:13.26	31.87	2.77	-46.4	-61.3	3.6	1.51e+00	0	27	104	0	60	41947
2026-01-10 17:59:14.27	31.79	2.83	-46.4	-60.9	3.6	1.51e+00	0	27	104	0	60	40001
2026-01-10 17:59:15.28	31.71	2.88	-46.3	-58.1	4.0	1.49e+00	0	27	104	0	60	29037
2026-01-10 17:59:16.29	31.63	2.94	-46.0	-54.1	5.6	8.25e-01	0	27	0	1048576	60	18226
2026-01-10 17:59:17.30	31.55	2.99	-45.5	-51.7	7.9	1.49e-01	0	27	0	3145728	60	13960
2026-01-10 17:59:18.31	31.47	3.05	-45.0	-50.3	10.0	2.81e-02	0	27	0	4194304	60	11783
2026-01-10 17:59:19.32	31.39	3.10	-45.1	-50.6	8.7	5.10e-03	0	27	0	6291456	60	12220
2026-01-10 17:59:20.33	31.31	3.16	-46.5	-60.7	3.6	1.52e+00	0	27	104	7340032	60	39403
2026-01-10 17:59:21.34	31.23	3.21	-46.2	-56.3	4.4	1.51e+00	0	27	104	7340032	60	23520
2026-01-10 17:59:22.35	31.14	3.27	-44.9	-50.4	11.0	1.96e-01	37	27	104	7340032	60	11925
2026-01-10 17:59:23.36	31.06	3.33	-40.9	-42.8	17.5	0.00e+00	0	27	0	8388608	56	6284
2026-01-10 17:59:24.37	30.98	3.38	-46.3	-60.5	3.6	1.51e+00	0	27	104	9437184	60	38146
2026-01-10 17:59:25.38	30.89	3.44	-41.2	-43.2	16.9	6.06e-01	42	27	104	9437184	56	6547
2026-01-10 17:59:26.39	30.81	3.49	-40.5	-42.3	18.2	0.00e+00	0	27	0	10485760	54	6629
2026-01-10 17:59:27.40	30.73	3.55	-40.9	-42.7	18.0	0.00e+00	39	27	0	12582912	54	6989
2026-01-10 17:59:28.41	30.64	3.60	-40.9	-42.7	17.9	0.00e+00	0	27	0	13631488	54	7000
2026-01-10 17:59:29.42	30.56	3.66	-40.7	-42.4	18.2	0.00e+00	84	27	0	15728640	54	6725
2026-01-10 17:59:30.42	30.47	3.71	-41.0	-42.8	17.8	0.00e+00	0	27	0	17825792	54	7068
2026-01-10 17:59:31.43	30.39	3.77	-40.7	-42.5	18.1	0.00e+00	0	27	0	19922944	54	6777
2026-01-10 17:59:32.44	30.30	3.83	-40.8	-42.6	17.9	0.00e+00	0	27	0	22020096	54	6904
2026-01-10 17:59:33.45	30.22	3.88	-40.7	-42.4	18.2	0.00e+00	0	27	0	23068672	54	6730
2026-01-10 17:59:34.46	30.13	3.94	-40.6	-42.3	18.3	0.00e+00	37	27	0	25165824	54	6640
2026-01-10 17:59:35.47	30.04	3.99	-40.5	-42.2	18.5	0.00e+00	0	27	0	27262976	54	6540
2026-01-10 17:59:36.48	29.96	4.05	-40.6	-42.3	18.3	0.00e+00	91	27	0	29360128	54	6662
2026-01-10 17:59:37.49	29.87	4.10	-40.6	-42.3	18.3	0.00e+00	0	27	0	31457280	54	6653
2026-01-10 17:59:38.50	29.78	4.16	-40.7	-42.4	18.3	0.00e+00	0	27	0	33554432	54	6730
2026-01-10 17:59:39.51	29.69	4.22	-40.5	-42.1	18.5	0.00e+00	0	27	0	34603008	54	6539
2026-01-10 17:59:40.52	29.61	4.27	-40.3	-41.8	18.8	0.00e+00	0	27	0	36700160	54	6314
2026-01-10 17:59:41.53	29.52	4.33	-40.1	-41.6	19.0	0.00e+00	44	27	0	38797312	54	6167
2026-01-10 17:59:42.54	29.43	4.39	-40.2	-41.7	19.0	0.00e+00	0	27	0	40894464	54	6227
2026-01-10 17:59:43.55	29.34	4.44	-40.2	-41.7	19.1	0.00e+00	82	27	0	42991616	54	6228
2026-01-10 17:59:44.56	29.25	4.50	-40.3	-41.9	18.8	0.00e+00	0	27	0	44040192	54	6318
2026-01-10 17:59:45.57	29.16	4.56	-40.1	-41.7	19.1	0.00e+00	0	27	0	46137344	54	6188
2026-01-10 17:59:46.58	29.07	4.61	-40.3	-41.8	19.1	0.00e+00	0	27	0	48234496	54	6300
2026-01-10 17:59:47.59	28.98	4.67	-39.9	-41.4	19.4	0.00e+00	0	27	0	50331648	54	6006
2026-01-10 17:59:48.60	28.89	4.73	-39.9	-41.4	19.2	0.00e+00	41	27	0	52428800	54	6009
2026-01-10 17:59:49.61	28.80	4.78	-39.7	-41.1	19.6	0.00e+00	0	27	0	53477376	54	5774
2026-01-10 17:59:50.62	28.70	4.84	-39.7	-41.1	19.7	0.00e+00	91	27	0	55574528	52	6526
2026-01-10 17:59:51.63	28.61	4.90	-39.7	-41.1	19.6	0.00e+00	0	27	0	57671680	52	6524
2026-01-10 17:59:52.64	28.52	4.95	-39.9	-41.4	19.4	0.00e+00	33	27	0	59768832	52	6703
2026-01-10 17:59:53.65	28.43	5.01	-40.2	-41.7	19.2	0.00e+00	0	27	0	61865984	52	6961
2026-01-10 17:59:54.66	28.33	5.07	-40.0	-41.5	19.3	0.00e+00	0	27	0	62914560	52	6795
2026-01-10 17:59:55.67	28.24	5.12	-39.9	-41.3	19.4	0.00e+00	0	27	0	65011712	52	6685
2026-01-10 17:59:56.68	28.14	5.18	-39.8	-41.2	19.6	0.00e+00	0	27	0	67108864	52	6596
2026-01-10 17:59:57.69	28.05	5.24	-39.7	-41.1	19.8	0.00e+00	92	27	0	69206016	52	6475
2026-01-10 17:59:58.70	27.95	5.29	-39.6	-40.9	19.9	0.00e+00	0	27	0	71303168	52	6364
2026-01-10 17:59:59.71	27.86	5.35	-39.9	-41.4	19.4	0.00e+00	80	27	0	72351744	52	6717
2026-01-10 18:00:00.72	27.76	5.41	-39.6	-40.9	19.9	0.00e+00	0	27	0	74448896	52	6372
2026-01-10 18:00:01.73	27.67	5.47	-39.8	-41.3	19.7	0.00e+00	0	27	0	76546048	52	6627
2026-01-10 18:00:02.74	27.57	5.52	-39.8	-41.2	19.6	0.00e+00	0	27	0	78643200	52	6574
2026-01-10 18:00:03.75	27.47	5.58	-39.9	-41.3	19.6	0.00e+00	0	27	0	80740352	52	6622
2026-01-10 18:00:04.76	27.38	5.64	-40.0	-41.5	19.3	0.00e+00	43	27	0	81788928	52	6795
2026-01-10 18:00:05.77	27.28	5.70	-40.4	-41.9	19.0	0.00e+00	0	27	0	83886080	52	7115
2026-01-10 18:00:06.77	27.18	5.75	-40.2	-41.7	19.2	0.00e+00	90	27	0	85983232	52	6967
2026-01-10 18:00:07.78	27.08	5.81	-40.4	-42.0	19.0	0.00e+00	0	27	0	88080384	52	7192
2026-01-10 18:00:08.79	26.98	5.87	-40.5	-42.1	18.9	0.00e+00	0	27	0	90177536	52	7319
2026-01-10 18:00:09.80	26.88	5.93	-40.6	-42.2	18.8	0.00e+00	0	27	0	91226112	52	7344
2026-01-10 18:00:10.81	26.78	5.98	-40.6	-42.2	18.8	0.00e+00	0	27	0	93323264	54	6579
2026-01-10 18:00:11.82	26.68	6.04	-40.4	-42.0	18.9	0.00e+00	87	27	0	95420416	54	6426
2026-01-10 18:00:12.83	26.58	6.10	-40.4	-41.9	19.1	0.00e+00	0	27	0	97517568	54	6357
2026-01-10 18:00:13.84	26.48	6.16	-40.5	-42.1	19.0	0.00e+00	92	27	0	99614720	54	6472
2026-01-10 18:00:14.85	26.38	6.21	-40.4	-42.0	19.0	0.00e+00	0	27	0	101711872	54	6427
2026-01-10 18:00:15.86	26.28	6.27	-40.7	-42.3	18.9	0.00e+00	0	27	0	102760448	54	6633
2026-01-10 18:00:16.87	26.18	6.33	-40.2	-41.7	19.4	0.00e+00	0	27	0	104857600	54	6184
2026-01-10 18:00:17.88	26.07	6.39	-40.1	-41.5	19.4	0.00e+00	0	27	0	106954752	54	6065
2026-01-10 18:00:18.89	25.97	6.45	-40.0	-41.5	19.4	0.00e+00	25	27	0	109051904	54	6050
2026-01-10 18:00:19.90	25.87	6.50	-40.2	-41.7	19.3	0.00e+00	0	27	0	111149056	54	6183
2026-01-10 18:00:20.91	25.76	6.56	-40.2	-41.6	19.4	0.00e+00	92	27	0	112197632	54	6163
2026-01-10 18:00:21.92	25.66	6.62	-40.1	-41.6	19.4	0.00e+00	0	27	0	114294784	54	6121
2026-01-10 18:00:22.93	25.56	6.68	-39.9	-41.3	19.6	0.00e+00	0	27	0	116391936	54	5919
2026-01-10 18:00:23.94	25.45	6.74	-39.9	-41.3	19.7	0.00e+00	0	27	0	118489088	54	5942
2026-01-10 18:00:24.95	25.34	6.80	-40.0	-41.4	19.5	0.00e+00	0	27	0	120586240	54	6031
2026-01-10 18:00:25.96	25.24	6.85	-39.8	-41.2	19.8	0.00e+00	20	27	0	121634816	52	6544
2026-01-10 18:00:26.97	25.13	6.91	-39.8	-41.1	19.8	0.00e+00	0	27	0	123731968	52	6514
2026-01-10 18:00:27.98	25.02	6.97	-39.8	-41.1	19.9	0.00e+00	92	27	0	125829120	52	6531
2026-01-10 18:00:28.99	24.92	7.03	-39.9	-41.3	19.5	0.00e+00	0	27	0	127926272	52	6667
2026-01-10 18:00:30.00	24.81	7.09	-39.9	-41.3	19.4	0.00e+00	0	27	0	130023424	52	6676
2026-01-10 18:00:31.00	24.70	7.15	-40.1	-41.6	19.5	0.00e+00	0	27	0	131072000	52	6850
2026-01-10 18:00:32.01	24.59	7.20	-40.1	-41.5	19.5	0.00e+00	0	27	0	133169152	52	6828
2026-01-10 18:00:33.02	24.48	7.26	-40.0	-41.4	19.7	0.00e+00	24	27	0	135266304	52	6755
2026-01-10 18:00:34.03	24.37	7.32	-40.0	-41.4	19.7	0.00e+00	0	27	0	137363456	52	6709
2026-01-10 18:00:35.04	24.26	7.38	-39.9	-41.3	19.7	0.00e+00	39	27	0	139460608	52	6644
2026-01-10 18:00:36.05	24.15	7.44	-40.0	-41.4	19.6	0.00e+00	0	27	0	140509184	52	6758
2026-01-10 18:00:37.06	24.04	7.50	-40.3	-41.8	19.3	0.00e+00	90	27	0	142606336	52	7048
2026-01-10 18:00:38.07	23.93	7.56	-40.1	-41.5	19.6	0.00e+00	0	27	0	144703488	52	6820
2026-01-10 18:00:39.08	23.82	7.61	-40.4	-41.9	19.3	0.00e+00	0	27	0	146800640	52	7116
2026-01-10 18:00:40.09	23.71	7.67	-40.2	-41.7	19.5	0.00e+00	7	27	0	148897792	52	6961
2026-01-10 18:00:41.10	23.59	7.73	-40.2	-41.7	19.5	0.00e+00	0	27	0	149946368	52	6945
2026-01-10 18:00:42.11	23.48	7.79	-40.3	-41.8	19.3	0.00e+00	8	27	0	152043520	52	7034
2026-01-10 18:00:43.12	23.37	7.85	-40.4	-41.9	19.2	0.00e+00	0	27	0	154140672	52	7134
2026-01-10 18:00:44.13	23.25	7.91	-40.3	-41.8	19.4	0.00e+00	32	27	0	156237824	52	7031
2026-01-10 18:00:45.14	23.14	7.97	-40.4	-42.0	19.2	0.00e+00	0	27	0	158334976	52	7196
2026-01-10 18:00:46.15	23.02	8.03	-39.9	-41.3	19.9	0.00e+00	0	27	0	159383552	52	6649
2026-01-10 18:00:47.16	22.91	8.09	-40.0	-41.4	19.8	0.00e+00	0	27	0	161480704	52	6725
2026-01-10 18:00:48.16	22.79	8.14	-40.0	-41.4	19.7	0.00e+00	0	27	0	163577856	52	6721
2026-01-10 18:00:49.17	22.67	8.20	-39.9	-41.3	19.8	0.00e+00	44	27	0	165675008	52	6686
2026-01-10 18:00:50.19	22.56	8.26	-39.9	-41.3	19.9	0.00e+00	0	27	0	167772160	52	6633
2026-01-10 18:00:51.19	22.44	8.32	-40.0	-41.5	19.6	0.00e+00	92	27	0	169869312	52	6793
2026-01-10 18:00:52.21	22.32	8.38	-39.6	-40.9	20.2	0.00e+00	0	27	0	170917888	52	6380
2026-01-10 18:00:53.22	22.20	8.44	-39.4	-40.7	20.3	0.00e+00	0	27	0	173015040	52	6239
2026-01-10 18:00:54.23	22.08	8.50	-39.5	-40.8	20.3	0.00e+00	0	27	0	175112192	52	6252
2026-01-10 18:00:55.24	21.96	8.56	-39.4	-40.6	20.4	0.00e+00	0	27	0	177209344	52	6158
2026-01-10 18:00:56.25	21.84	8.62	-39.3	-40.5	20.6	0.00e+00	39	27	0	179306496	52	6090
2026-01-10 18:00:57.25	21.72	8.68	-39.2	-40.5	20.6	0.00e+00	33	27	0	180355072	52	6037
2026-01-10 18:00:58.26	21.60	8.74	-39.3	-40.6	20.4	0.00e+00	90	27	0	182452224	52	6120
2026-01-10 18:00:59.27	21.48	8.80	-39.3	-40.5	20.5	0.00e+00	0	27	0	184549376	52	6088
2026-01-10 18:01:00.28	21.36	8.85	-39.2	-40.4	20.7	0.00e+00	0	27	0	186646528	52	6006
2026-01-10 18:01:01.29	21.23	8.91	-39.4	-40.7	20.4	0.00e+00	0	27	0	188743680	52	6195
2026-01-10 18:01:02.30	21.11	8.97	-39.4	-40.7	20.4	0.00e+00	0	27	0	189792256	52	6209
2026-01-10 18:01:03.31	20.99	9.03	-39.3	-40.6	20.5	0.00e+00	42	27	0	191889408	52	6138
2026-01-10 18:01:04.32	20.86	9.09	-39.2	-40.5	20.6	0.00e+00	0	27	0	193986560	52	6062
2026-01-10 18:01:05.33	20.74	9.15	-39.0	-40.2	20.8	0.00e+00	92	27	0	196083712	52	5893
2026-01-10 18:01:06.34	20.61	9.21	-39.2	-40.4	20.6	0.00e+00	0	27	0	198180864	52	6020
2026-01-10 18:01:07.35	20.49	9.27	-39.1	-40.4	20.7	0.00e+00	91	27	0	199229440	52	5987
2026-01-10 18:01:08.36	20.36	9.33	-39.3	-40.6	20.6	0.00e+00	0	27	0	201326592	52	6130
2026-01-10 18:01:09.37	20.23	9.39	-39.4	-40.7	20.4	0.00e+00	0	27	0	203423744	52	6219
2026-01-10 18:01:10.38	20.11	9.45	-39.5	-40.8	20.4	0.00e+00	43	27	0	205520896	52	6271
2026-01-10 18:01:11.39	19.98	9.51	-39.6	-40.9	20.3	0.00e+00	0	27	0	207618048	52	6349
2026-01-10 18:01:12.40	19.85	9.57	-39.6	-40.9	20.3	0.00e+00	91	27	0	208666624	52	6388
2026-01-10 18:01:13.41	19.72	9.63	-39.7	-41.1	20.2	0.00e+00	0	27	0	210763776	52	6507
2026-01-10 18:01:14.42	19.59	9.68	-39.6	-41.0	20.3	0.00e+00	37	27	0	212860928	52	6401
2026-01-10 18:01:15.42	19.46	9.74	-39.4	-40.8	20.4	0.00e+00	0	27	0	214958080	52	6251
2026-01-10 18:01:16.43	19.33	9.80	-39.5	-40.8	20.4	0.00e+00	0	27	0	217055232	52	6294
2026-01-10 18:01:17.44	19.20	9.86	-39.4	-40.7	20.5	0.00e+00	0	27	0	218103808	52	6186
2026-01-10 18:01:18.45	19.07	9.92	-39.3	-40.6	20.5	0.00e+00	0	27	0	220200960	52	6163
2026-01-10 18:01:19.46	18.94	9.98	-39.3	-40.6	20.7	0.00e+00	84	27	0	222298112	52	6106
2026-01-10 18:01:20.47	18.80	10.04	-39.2	-40.4	20.6	0.00e+00	0	27	0	224395264	52	6012
2026-01-10 18:01:21.48	18.67	10.10	-39.1	-40.4	20.8	0.00e+00	90	27	0	226492416	52	5967
2026-01-10 18:01:22.49	18.54	10.16	-39.2	-40.4	20.7	0.00e+00	0	27	0	227540992	52	6017
2026-01-10 18:01:23.50	18.40	10.22	-38.9	-40.1	20.5	0.00e+00	0	27	0	229638144	52	5800
2026-01-10 18:01:24.51	18.27	10.28	-39.0	-40.2	20.8	0.00e+00	0	27	0	231735296	52	5864
2026-01-10 18:01:25.52	18.13	10.34	-38.9	-40.1	21.1	0.00e+00	0	27	0	233832448	52	5784
2026-01-10 18:01:26.53	18.00	10.40	-38.8	-40.0	20.9	0.00e+00	38	27	0	235929600	50	6455
2026-01-10 18:01:27.54	17.86	10.46	-38.8	-40.0	21.2	0.00e+00	0	27	0	238026752	50	6397
2026-01-10 18:01:28.55	17.72	10.51	-38.8	-40.0	21.1	0.00e+00	90	27	0	239075328	50	6420
2026-01-10 18:01:29.56	17.58	10.57	-38.8	-40.0	21.2	0.00e+00	0	27	0	241172480	50	6432
2026-01-10 18:01:30.57	17.44	10.63	-38.7	-39.9	21.2	0.00e+00	0	27	0	243269632	50	6336
2026-01-10 18:01:31.58	17.31	10.69	-38.8	-40.0	21.1	0.00e+00	0	27	0	245366784	50	6412
2026-01-10 18:01:32.59	17.17	10.75	-38.8	-39.9	21.2	0.00e+00	0	27	0	247463936	50	6378
2026-01-10 18:01:33.60	17.03	10.81	-38.9	-40.1	21.0	0.00e+00	36	27	0	248512512	50	6501
2026-01-10 18:01:34.61	16.88	10.87	-39.1	-40.4	20.8	0.00e+00	0	27	0	250609664	50	6735
2026-01-10 18:01:35.61	16.75	10.93	-39.1	-40.4	20.7	0.00e+00	92	27	0	252706816	50	6726
2026-01-10 18:01:36.62	16.60	10.99	-39.2	-40.4	20.8	0.00e+00	0	27	0	254803968	50	6753
2026-01-10 18:01:37.63	16.46	11.05	-39.2	-40.4	20.8	0.00e+00	0	27	0	256901120	50	6741
2026-01-10 18:01:38.64	16.32	11.10	-38.8	-39.9	21.2	0.00e+00	0	27	0	257949696	50	6363
2026-01-10 18:01:39.65	16.17	11.16	-38.9	-40.1	21.1	0.00e+00	0	27	0	260046848	50	6479
2026-01-10 18:01:40.66	16.03	11.22	-38.9	-40.1	21.1	0.00e+00	11	27	0	262144000	50	6475
2026-01-10 18:01:41.67	15.88	11.28	-38.8	-39.9	21.3	0.00e+00	0	27	0	264241152	50	6374
2026-01-10 18:01:42.68	15.74	11.34	-38.7	-39.9	21.3	0.00e+00	92	27	0	266338304	50	6318
2026-01-10 18:01:43.69	15.59	11.40	-39.0	-40.2	21.1	0.00e+00	0	27	0	267386880	50	6542
2026-01-10 18:01:44.70	15.45	11.46	-38.8	-40.0	21.2	0.00e+00	0	27	0	269484032	50	6394
2026-01-10 18:01:45.72	15.30	11.52	-38.9	-40.0	21.2	0.00e+00	0	27	0	271581184	50	6437
2026-01-10 18:01:46.73	15.15	11.58	-38.7	-39.9	21.3	0.00e+00	0	27	0	273678336	50	6318
2026-01-10 18:01:47.74	15.00	11.63	-38.6	-39.7	21.4	0.00e+00	0	27	0	275775488	50	6242
2026-01-10 18:01:48.75	14.85	11.69	-38.8	-40.0	21.2	0.00e+00	0	27	0	276824064	50	6404
2026-01-10 18:01:49.75	14.70	11.75	-38.8	-40.0	21.3	0.00e+00	92	27	0	278921216	50	6396
2026-01-10 18:01:50.76	14.55	11.81	-38.9	-40.1	21.1	0.00e+00	0	27	0	281018368	50	6508
2026-01-10 18:01:51.77	14.40	11.87	-39.2	-40.4	20.8	0.00e+00	92	27	0	283115520	50	6714
2026-01-10 18:01:52.78	14.25	11.93	-39.0	-40.2	21.1	0.00e+00	0	27	0	285212672	50	6558
2026-01-10 18:01:53.79	14.10	11.98	-38.9	-40.1	21.1	0.00e+00	0	27	0	286261248	50	6486
2026-01-10 18:01:54.80	13.95	12.04	-38.9	-40.1	21.1	0.00e+00	0	27	0	288358400	50	6505
2026-01-10 18:01:55.81	13.79	12.10	-38.9	-40.1	21.0	0.00e+00	0	27	0	290455552	50	6521
2026-01-10 18:01:56.82	13.64	12.16	-39.0	-40.2	20.9	0.00e+00	92	27	0	292552704	50	6541
2026-01-10 18:01:57.83	13.48	12.22	-39.2	-40.5	20.8	0.00e+00	0	27	0	294649856	50	6792
2026-01-10 18:01:58.84	13.33	12.27	-39.3	-40.6	20.7	0.00e+00	92	27	0	295698432	50	6849
2026-01-10 18:01:59.85	13.17	12.33	-39.2	-40.5	20.8	0.00e+00	0	27	0	297795584	50	6790
2026-01-10 18:02:00.85	13.02	12.39	-39.2	-40.4	20.9	0.00e+00	0	27	0	299892736	50	6734
2026-01-10 18:02:01.86	12.86	12.45	-39.3	-40.5	20.8	0.00e+00	0	27	0	301989888	50	6815
2026-01-10 18:02:02.88	12.70	12.51	-39.2	-40.4	20.9	0.00e+00	0	27	0	304087040	50	6747
2026-01-10 18:02:03.88	12.54	12.56	-39.0	-40.2	20.9	0.00e+00	46	27	0	306184192	50	6585
2026-01-10 18:02:04.89	12.39	12.62	-38.9	-40.1	20.9	0.00e+00	0	27	0	307232768	50	6497
2026-01-10 18:02:05.91	12.22	12.68	-39.1	-40.3	20.9	0.00e+00	92	27	0	309329920	50	6663
2026-01-10 18:02:06.92	12.06	12.73	-39.3	-40.6	20.7	0.00e+00	0	27	0	311427072	50	6880
2026-01-10 18:02:07.93	11.90	12.79	-39.4	-40.6	20.7	0.00e+00	0	27	0	313524224	50	6917
2026-01-10 18:02:08.94	11.74	12.85	-39.3	-40.6	20.7	0.00e+00	0	27	0	315621376	50	6849
2026-01-10 18:02:09.94	11.58	12.91	-39.2	-40.4	20.9	0.00e+00	0	27	0	316669952	50	6719
2026-01-10 18:02:10.95	11.42	12.96	-38.9	-40.1	21.2	0.00e+00	45	27	0	318767104	50	6476
2026-01-10 18:02:11.97	11.25	13.02	-39.3	-40.5	21.0	0.00e+00	0	27	0	320864256	50	6824
2026-01-10 18:02:12.98	11.09	13.08	-39.0	-40.2	21.1	0.00e+00	92	27	0	322961408	50	6563
2026-01-10 18:02:13.98	10.93	13.13	-39.2	-40.4	20.8	0.00e+00	0	27	0	325058560	50	6716
2026-01-10 18:02:14.99	10.76	13.19	-39.3	-40.6	20.7	0.00e+00	0	27	0	326107136	50	6856
2026-01-10 18:02:16.00	10.59	13.25	-39.6	-40.9	20.6	0.00e+00	0	27	0	328204288	50	7144
2026-01-10 18:02:17.01	10.43	13.30	-39.4	-40.7	20.7	0.00e+00	0	27	0	330301440	50	6949
2026-01-10 18:02:18.02	10.26	13.36	-39.3	-40.5	20.7	0.00e+00	47	27	0	332398592	50	6839
2026-01-10 18:02:19.03	10.09	13.41	-39.3	-40.6	21.0	0.00e+00	0	27	0	334495744	50	6862
2026-01-10 18:02:20.04	9.92	13.47	-39.1	-40.3	21.1	0.00e+00	92	27	0	335544320	50	6627
2026-01-10 18:02:21.05	9.75	13.53	-38.6	-39.7	21.4	0.00e+00	0	27	0	337641472	50	6213
2026-01-10 18:02:22.06	9.58	13.58	-38.7	-39.8	21.1	0.00e+00	36	27	0	339738624	50	6300
2026-01-10 18:02:23.07	9.41	13.64	-38.8	-40.0	21.2	0.00e+00	0	27	0	341835776	50	6393
2026-01-10 18:02:24.08	9.24	13.69	-38.7	-39.9	21.3	0.00e+00	0	27	0	343932928	50	6325
2026-01-10 18:02:25.09	9.07	13.75	-38.2	-39.3	21.8	0.00e+00	13	27	0	344981504	50	5940
2026-01-10 18:02:26.10	8.90	13.80	-38.0	-39.0	22.1	0.00e+00	0	27	0	347078656	50	5751
2026-01-10 18:02:27.11	8.72	13.86	-37.7	-38.7	22.3	0.00e+00	60	27	0	349175808	48	6217
2026-01-10 18:02:28.12	8.55	13.91	-37.4	-38.4	22.6	0.00e+00	0	27	0	351272960	48	5996
2026-01-10 18:02:29.13	8.38	13.97	-37.4	-38.4	22.5	0.00e+00	90	27	0	353370112	48	5981
2026-01-10 18:02:30.14	8.20	14.02	-37.6	-38.6	22.4	0.00e+00	0	27	0	354418688	48	6123
2026-01-10 18:02:31.15	8.02	14.08	-37.4	-38.4	22.5	0.00e+00	0	27	0	356515840	48	5976
2026-01-10 18:02:32.16	7.85	14.13	-37.4	-38.4	22.6	0.00e+00	0	27	0	358612992	48	5999
2026-01-10 18:02:33.17	7.67	14.19	-37.4	-38.4	22.6	0.00e+00	0	27	0	360710144	48	6019
2026-01-10 18:02:34.18	7.49	14.24	-37.4	-38.4	22.5	0.00e+00	78	27	0	362807296	48	5974
2026-01-10 18:02:35.19	7.31	14.29	-37.5	-38.5	22.7	0.00e+00	0	27	0	363855872	48	6034
2026-01-10 18:02:36.20	7.14	14.35	-37.0	-37.9	22.9	0.00e+00	92	27	0	365953024	48	5694
2026-01-10 18:02:37.20	6.96	14.40	-37.1	-38.0	22.9	0.00e+00	0	27	0	368050176	48	5746
2026-01-10 18:02:38.21	6.78	14.45	-37.2	-38.2	22.6	0.00e+00	33	27	0	370147328	48	5858
2026-01-10 18:02:39.22	6.60	14.51	-37.2	-38.2	22.8	0.00e+00	0	27	0	372244480	48	5836
2026-01-10 18:02:40.23	6.41	14.56	-37.1	-38.1	22.9	0.00e+00	0	27	0	374341632	48	5781
2026-01-10 18:02:41.24	6.23	14.61	-37.2	-38.2	22.8	0.00e+00	43	27	0	375390208	48	5872
2026-01-10 18:02:42.25	6.05	14.67	-36.9	-37.8	23.0	0.00e+00	0	27	0	377487360	48	5595
2026-01-10 18:02:43.26	5.87	14.72	-36.9	-37.8	23.0	0.00e+00	92	27	0	379584512	48	5617
2026-01-10 18:02:44.27	5.68	14.77	-37.0	-37.9	23.0	0.00e+00	0	27	0	381681664	48	5661
2026-01-10 18:02:45.28	5.50	14.82	-37.1	-38.1	22.7	0.00e+00	0	27	0	383778816	48	5775
2026-01-10 18:02:46.29	5.31	14.87	-37.4	-38.4	22.6	0.00e+00	0	27	0	384827392	48	6003
2026-01-10 18:02:47.30	5.12	14.93	-37.5	-38.5	22.6	0.00e+00	0	27	0	386924544	48	6043
2026-01-10 18:02:48.31	4.94	14.98	-37.6	-38.6	22.5	0.00e+00	0	27	0	389021696	48	6144
2026-01-10 18:02:49.32	4.75	15.03	-37.7	-38.7	22.4	0.00e+00	0	27	0	391118848	48	6218
2026-01-10 18:02:50.33	4.56	15.08	-37.7	-38.8	22.4	0.00e+00	72	27	0	393216000	48	6271
2026-01-10 18:02:51.33	4.37	15.13	-37.7	-38.7	22.5	0.00e+00	0	27	0	394264576	48	6222
2026-01-10 18:02:52.34	4.18	15.18	-37.5	-38.5	22.5	0.00e+00	34	27	0	396361728	48	6102
2026-01-10 18:02:53.35	3.99	15.23	-37.4	-38.5	22.4	0.00e+00	0	27	0	398458880	48	6067
2026-01-10 18:02:54.36	3.80	15.28	-37.2	-38.3	22.7	0.00e+00	0	27	0	400556032	48	5902
2026-01-10 18:02:55.37	3.61	15.33	-37.5	-38.6	22.5	0.00e+00	48	27	0	402653184	48	6116
2026-01-10 18:02:56.38	3.42	15.38	-37.5	-38.5	22.7	0.00e+00	0	27	0	403701760	48	6090
2026-01-10 18:02:57.39	3.23	15.43	-37.1	-38.1	22.8	0.00e+00	68	27	0	405798912	48	5805
2026-01-10 18:02:58.41	3.03	15.48	-37.1	-38.1	23.0	0.00e+00	0	27	0	407896064	48	5811
2026-01-10 18:02:59.42	2.84	15.53	-36.3	-37.2	23.6	0.00e+00	72	27	0	409993216	46	5887
2026-01-10 18:03:00.43	2.64	15.58	-36.0	-36.9	24.0	0.00e+00	0	27	0	412090368	46	5634
2026-01-10 18:03:01.44	2.45	15.63	-35.8	-36.6	24.1	0.00e+00	0	27	0	413138944	46	5487
2026-01-10 18:03:02.45	2.25	15.68	-35.9	-36.8	24.0	0.00e+00	0	27	0	415236096	46	5572
2026-01-10 18:03:03.45	2.05	15.72	-36.3	-37.1	23.7	0.00e+00	0	27	0	417333248	46	5814
2026-01-10 18:03:04.46	1.86	15.77	-36.4	-37.3	23.5	0.00e+00	35	27	0	419430400	46	5939
2026-01-10 18:03:05.47	1.66	15.82	-36.7	-37.6	23.3	0.00e+00	0	27	0	421527552	46	6140
2026-01-10 18:03:06.49	1.46	15.87	-36.7	-37.7	23.2	0.00e+00	92	27	0	422576128	46	6194
2026-01-10 18:03:07.50	1.26	15.91	-36.8	-37.7	22.7	0.00e+00	0	27	0	424673280	46	6212
2026-01-10 18:03:08.51	1.06	15.96	-36.3	-37.2	23.6	0.00e+00	0	27	0	426770432	46	5852
2026-01-10 18:03:09.52	0.86	16.01	-36.3	-37.2	23.6	0.00e+00	0	27	0	428867584	46	5868
2026-01-10 18:03:10.53	0.66	16.05	-36.5	-37.5	23.5	0.00e+00	0	27	0	430964736	46	6048
2026-01-10 18:03:11.54	0.45	16.10	-36.9	-37.8	23.1	0.00e+00	73	27	0	432013312	46	6296
2026-01-10 18:03:12.55	0.25	16.15	-37.1	-38.1	23.0	0.00e+00	0	27	0	434110464	46	6531
2026-01-10 18:03:13.56	0.05	16.19	-37.1	-38.0	23.0	0.00e+00	92	27	0	436207616	46	6458
2026-01-10 18:03:14.57	359.85	16.24	-36.9	-37.9	23.1	0.00e+00	0	27	0	438304768	46	6334
2026-01-10 18:03:15.58	359.64	16.28	-36.6	-37.5	23.3	0.00e+00	0	27	0	440401920	46	6056
2026-01-10 18:03:16.59	359.44	16.33	-36.5	-37.4	23.5	0.00e+00	0	27	0	442499072	46	6004
2026-01-10 18:03:17.60	359.23	16.37	-36.6	-37.6	23.4	0.00e+00	0	27	0	443547648	46	6107
2026-01-10 18:03:18.61	359.02	16.42	-36.5	-37.5	23.4	0.00e+00	39	27	0	445644800	46	6043
2026-01-10 18:03:19.62	358.82	16.46	-36.5	-37.4	23.3	0.00e+00	0	27	0	447741952	46	6016
2026-01-10 18:03:20.63	358.61	16.50	-36.3	-37.2	23.7	0.00e+00	65	27	0	449839104	46	5868
2026-01-10 18:03:21.64	358.40	16.55	-36.4	-37.3	23.6	0.00e+00	0	27	0	451936256	46	5939
2026-01-10 18:03:22.65	358.19	16.59	-35.9	-36.7	24.0	0.00e+00	0	27	0	452984832	46	5556
2026-01-10 18:03:23.66	357.98	16.63	-35.9	-36.8	24.0	0.00e+00	0	27	0	455081984	46	5573
2026-01-10 18:03:24.67	357.77	16.67	-35.9	-36.8	23.9	0.00e+00	0	27	0	457179136	46	5609
2026-01-10 18:03:25.68	357.56	16.72	-36.0	-36.9	23.7	0.00e+00	26	27	0	459276288	46	5681
2026-01-10 18:03:26.69	357.35	16.76	-36.2	-37.1	23.8	0.00e+00	0	27	0	461373440	46	5779
2026-01-10 18:03:27.70	357.14	16.80	-36.3	-37.2	23.6	0.00e+00	91	27	0	462422016	46	5865
2026-01-10 18:03:28.71	356.93	16.84	-36.1	-37.0	23.7	0.00e+00	0	27	0	464519168	46	5743
2026-01-10 18:03:29.72	356.72	16.88	-36.1	-36.9	23.9	0.00e+00	0	27	0	466616320	46	5689
2026-01-10 18:03:30.73	356.50	16.92	-36.3	-37.1	23.7	0.00e+00	0	27	0	468713472	46	5823
2026-01-10 18:03:31.74	356.29	16.96	-36.4	-37.3	23.5	0.00e+00	0	27	0	470810624	46	5907
2026-01-10 18:03:32.75	356.07	17.00	-36.6	-37.5	23.2	0.00e+00	2	27	0	471859200	46	6095
2026-01-10 18:03:33.76	355.86	17.04	-37.0	-38.0	22.9	0.00e+00	0	27	0	473956352	46	6399
2026-01-10 18:03:34.77	355.64	17.08	-37.2	-38.2	22.7	0.00e+00	77	27	0	476053504	46	6560
2026-01-10 18:03:35.78	355.43	17.12	-37.2	-38.2	22.8	0.00e+00	0	27	0	478150656	46	6584
2026-01-10 18:03:36.79	355.21	17.15	-37.0	-38.0	23.1	0.00e+00	0	27	0	480247808	46	6419
2026-01-10 18:03:37.80	354.99	17.19	-36.8	-37.7	23.2	0.00e+00	0	27	0	481296384	46	6240
2026-01-10 18:03:38.81	354.77	17.23	-36.5	-37.4	23.4	0.00e+00	0	27	0	483393536	46	6001
2026-01-10 18:03:39.82	354.56	17.27	-36.5	-37.4	23.5	0.00e+00	17	27	0	485490688	46	6008
2026-01-10 18:03:40.83	354.34	17.30	-36.3	-37.2	23.5	0.00e+00	0	27	0	487587840	46	5896
2026-01-10 18:03:41.84	354.12	17.34	-36.4	-37.3	23.5	0.00e+00	42	27	0	489684992	46	5944
2026-01-10 18:03:42.85	353.90	17.38	-36.4	-37.3	23.6	0.00e+00	0	27	0	490733568	46	5940
2026-01-10 18:03:43.86	353.68	17.41	-36.2	-37.1	23.8	0.00e+00	92	27	0	492830720	46	5790
2026-01-10 18:03:44.87	353.45	17.45	-35.7	-36.5	23.6	0.00e+00	0	27	0	494927872	44	6087
2026-01-10 18:03:45.88	353.23	17.48	-35.3	-36.1	24.0	0.00e+00	0	27	0	497025024	44	5826
2026-01-10 18:03:46.89	353.01	17.52	-35.3	-36.1	24.4	0.00e+00	9	27	0	499122176	44	5775
2026-01-10 18:03:47.90	352.79	17.55	-35.4	-36.2	24.4	0.00e+00	0	27	0	500170752	44	5847
2026-01-10 18:03:48.91	352.56	17.58	-35.5	-36.3	24.2	0.00e+00	46	27	0	502267904	44	5925
2026-01-10 18:03:49.92	352.34	17.62	-35.8	-36.7	24.2	0.00e+00	0	27	0	504365056	44	6179
2026-01-10 18:03:50.93	352.12	17.65	-35.6	-36.5	24.2	0.00e+00	48	27	0	506462208	44	6034
2026-01-10 18:03:51.94	351.89	17.68	-35.5	-36.4	24.3	0.00e+00	0	27	0	508559360	44	5973
2026-01-10 18:03:52.95	351.67	17.71	-35.4	-36.3	24.3	0.00e+00	0	27	0	510656512	44	5901
2026-01-10 18:03:53.96	351.44	17.74	-35.4	-36.2	24.4	0.00e+00	0	27	0	511705088	44	5896
2026-01-10 18:03:54.97	351.21	17.78	-35.4	-36.2	24.3	0.00e+00	0	27	0	513802240	44	5867
2026-01-10 18:03:55.98	350.99	17.81	-35.8	-36.6	24.0	0.00e+00	44	27	0	515899392	44	6151
2026-01-10 18:03:56.99	350.76	17.84	-35.9	-36.8	23.7	0.00e+00	0	27	0	517996544	44	6271
2026-01-10 18:03:58.00	350.53	17.87	-36.2	-37.1	23.7	0.00e+00	71	27	0	520093696	44	6500
2026-01-10 18:03:59.01	350.31	17.90	-36.5	-37.4	23.5	0.00e+00	0	27	0	521142272	44	6712
2026-01-10 18:04:00.02	350.08	17.92	-36.5	-37.4	23.5	0.00e+00	0	27	0	523239424	44	6724
2026-01-10 18:04:01.03	349.85	17.95	-36.4	-37.3	23.6	0.00e+00	0	27	0	525336576	44	6667
2026-01-10 18:04:02.04	349.62	17.98	-36.3	-37.2	23.7	0.00e+00	0	27	0	527433728	44	6548
2026-01-10 18:04:03.05	349.39	18.01	-36.3	-37.2	23.6	0.00e+00	21	27	0	529530880	44	6597
2026-01-10 18:04:04.06	349.16	18.04	-36.5	-37.4	23.5	0.00e+00	0	27	0	530579456	44	6730
2026-01-10 18:04:05.07	348.93	18.06	-36.9	-37.8	23.2	0.00e+00	32	27	0	532676608	46	6287
2026-01-10 18:04:06.08	348.70	18.09	-37.0	-37.9	23.1	0.00e+00	0	27	0	534773760	46	6369
2026-01-10 18:04:07.09	348.47	18.11	-37.1	-38.1	23.0	0.00e+00	21	27	0	536870912	46	6473
2026-01-10 18:04:08.10	348.23	18.14	-37.2	-38.2	22.8	0.00e+00	0	27	0	538968064	46	6579
2026-01-10 18:04:09.11	348.00	18.16	-37.1	-38.0	23.0	0.00e+00	0	27	0	540016640	46	6435
2026-01-10 18:04:10.11	347.77	18.19	-37.1	-38.1	23.0	0.00e+00	20	27	0	542113792	46	6491
2026-01-10 18:04:11.12	347.54	18.21	-37.0	-37.9	23.0	0.00e+00	0	27	0	544210944	46	6383
2026-01-10 18:04:12.13	347.31	18.24	-37.1	-38.1	23.0	0.00e+00	92	27	0	546308096	46	6508
2026-01-10 18:04:13.14	347.07	18.26	-37.1	-38.0	23.0	0.00e+00	0	27	0	548405248	46	6432
2026-01-10 18:04:14.15	346.84	18.28	-37.0	-38.0	23.1	0.00e+00	45	27	0	549453824	46	6412
2026-01-10 18:04:15.16	346.60	18.30	-37.0	-37.9	23.1	0.00e+00	0	27	0	551550976	46	6370
2026-01-10 18:04:16.17	346.37	18.33	-36.6	-37.5	23.4	0.00e+00	0	27	0	553648128	46	6045
2026-01-10 18:04:17.18	346.13	18.35	-36.5	-37.3	23.6	0.00e+00	43	27	0	555745280	46	5956
2026-01-10 18:04:18.19	345.90	18.37	-36.0	-36.8	23.9	0.00e+00	0	27	0	557842432	46	5611
2026-01-10 18:04:19.20	345.66	18.39	-36.1	-36.9	23.8	0.00e+00	92	27	0	558891008	46	5683
2026-01-10 18:04:20.21	345.43	18.41	-36.3	-37.2	23.6	0.00e+00	33	27	0	560988160	46	5878
2026-01-10 18:04:21.22	345.19	18.43	-36.5	-37.4	23.4	0.00e+00	90	27	0	563085312	46	6018
2026-01-10 18:04:22.23	344.95	18.44	-36.9	-37.8	23.2	0.00e+00	0	27	0	565182464	46	6303
2026-01-10 18:04:23.25	344.71	18.46	-37.0	-37.9	23.1	0.00e+00	0	27	0	567279616	46	6340
2026-01-10 18:04:24.25	344.48	18.48	-37.0	-38.0	23.2	0.00e+00	0	27	0	568328192	46	6395
2026-01-10 18:04:25.26	344.24	18.50	-36.9	-37.8	23.2	0.00e+00	0	27	0	570425344	46	6303
2026-01-10 18:04:26.27	344.00	18.51	-36.9	-37.9	23.2	0.00e+00	47	27	0	572522496	46	6330
2026-01-10 18:04:27.28	343.77	18.53	-36.7	-37.6	23.4	0.00e+00	0	27	0	574619648	46	6124
2026-01-10 18:04:28.29	343.53	18.55	-36.9	-37.8	23.3	0.00e+00	92	27	0	576716800	46	6287
2026-01-10 18:04:29.30	343.29	18.56	-37.4	-38.4	22.7	0.00e+00	0	27	0	578813952	46	6765
2026-01-10 18:04:30.31	343.05	18.58	-37.8	-38.8	22.2	0.00e+00	0	27	0	579862528	46	7056
2026-01-10 18:04:31.32	342.81	18.59	-38.4	-39.5	21.8	0.00e+00	0	27	0	581959680	48	6834
2026-01-10 18:04:32.33	342.57	18.60	-38.9	-40.1	21.4	0.00e+00	0	27	0	584056832	50	6495
2026-01-10 18:04:33.34	342.33	18.62	-38.8	-40.1	21.2	0.00e+00	45	27	0	586153984	50	6465
2026-01-10 18:04:34.35	342.09	18.63	-38.8	-40.0	21.6	0.00e+00	0	27	0	588251136	50	6433
2026-01-10 18:04:35.36	341.85	18.64	-38.6	-39.8	21.5	0.00e+00	90	27	0	589299712	50	6271
2026-01-10 18:04:36.37	341.61	18.65	-38.2	-39.3	22.0	0.00e+00	0	27	0	591396864	50	5964
2026-01-10 18:04:37.38	341.37	18.67	-37.6	-38.6	22.6	0.00e+00	0	27	0	593494016	48	6169
2026-01-10 18:04:38.39	341.13	18.68	-37.7	-38.8	22.4	0.00e+00	0	27	0	595591168	48	6256
2026-01-10 18:04:39.40	340.89	18.69	-37.5	-38.5	22.6	0.00e+00	0	27	0	597688320	48	6060
2026-01-10 18:04:40.41	340.65	18.70	-37.5	-38.6	22.5	0.00e+00	45	27	0	598736896	48	6127
2026-01-10 18:04:41.42	340.41	18.70	-37.6	-38.6	22.4	0.00e+00	0	27	0	600834048	48	6159
2026-01-10 18:04:42.43	340.17	18.71	-37.7	-38.7	22.4	0.00e+00	92	27	0	602931200	48	6241
2026-01-10 18:04:43.44	339.93	18.72	-37.5	-38.5	22.7	0.00e+00	0	27	0	605028352	48	6091
2026-01-10 18:04:44.45	339.69	18.73	-37.5	-38.6	22.6	0.00e+00	49	27	0	607125504	48	6115
2026-01-10 18:04:45.46	339.45	18.74	-37.4	-38.4	22.7	0.00e+00	0	27	0	608174080	48	6011
2026-01-10 18:04:46.47	339.21	18.74	-37.3	-38.3	22.9	0.00e+00	0	27	0	610271232	48	5944
2026-01-10 18:04:47.48	338.96	18.75	-37.1	-38.1	23.0	0.00e+00	41	27	0	612368384	48	5786
2026-01-10 18:04:48.49	338.72	18.75	-37.1	-38.1	22.9	0.00e+00	0	27	0	614465536	48	5768
2026-01-10 18:04:49.49	338.48	18.76	-36.8	-37.7	23.3	0.00e+00	62	27	0	616562688	48	5550
2026-01-10 18:04:50.50	338.24	18.76	-36.6	-37.5	23.4	0.00e+00	0	27	0	617611264	46	6076
2026-01-10 18:04:51.51	338.00	18.77	-36.8	-37.8	23.2	0.00e+00	80	27	0	619708416	46	6252
2026-01-10 18:04:52.52	337.76	18.77	-37.1	-38.1	23.0	0.00e+00	0	27	0	621805568	46	6518
2026-01-10 18:04:53.53	337.52	18.77	-37.0	-38.0	23.0	0.00e+00	0	27	0	623902720	46	6444
2026-01-10 18:04:54.54	337.27	18.77	-37.1	-38.1	23.0	0.00e+00	0	27	0	625999872	46	6514
2026-01-10 18:04:55.55	337.03	18.78	-37.1	-38.1	23.0	0.00e+00	0	27	0	627048448	46	6520
2026-01-10 18:04:56.56	336.79	18.78	-37.1	-38.1	23.0	0.00e+00	91	27	0	629145600	46	6502
2026-01-10 18:04:57.57	336.55	18.78	-37.0	-37.9	23.1	0.00e+00	0	27	0	631242752	46	6383
2026-01-10 18:04:58.58	336.31	18.78	-37.1	-38.0	23.1	0.00e+00	92	27	0	633339904	46	6437
2026-01-10 18:04:59.59	336.06	18.78	-37.0	-38.0	23.0	0.00e+00	0	27	0	635437056	46	6432
2026-01-10 18:05:00.60	335.82	18.78	-37.1	-38.1	23.0	0.00e+00	0	27	0	636485632	46	6510
2026-01-10 18:05:01.61	335.58	18.77	-37.1	-38.1	23.0	0.00e+00	0	27	0	638582784	46	6508
2026-01-10 18:05:02.62	335.34	18.77	-37.1	-38.0	23.0	0.00e+00	0	27	0	640679936	46	6456
2026-01-10 18:05:03.63	335.10	18.77	-37.0	-38.0	23.2	0.00e+00	39	27	0	642777088	46	6426
2026-01-10 18:05:04.64	334.85	18.77	-36.9	-37.8	23.1	0.00e+00	0	27	0	644874240	46	6317
2026-01-10 18:05:05.65	334.61	18.76	-36.7	-37.6	23.3	0.00e+00	65	27	0	646971392	46	6146
2026-01-10 18:05:06.66	334.37	18.76	-36.8	-37.7	23.3	0.00e+00	0	27	0	648019968	46	6212
2026-01-10 18:05:07.67	334.13	18.75	-36.8	-37.8	23.3	0.00e+00	0	27	0	650117120	46	6251
2026-01-10 18:05:08.68	333.89	18.75	-36.8	-37.7	23.3	0.00e+00	0	27	0	652214272	46	6232
2026-01-10 18:05:09.69	333.64	18.74	-37.0	-38.0	23.0	0.00e+00	0	27	0	654311424	46	6414
2026-01-10 18:05:10.70	333.40	18.74	-37.4	-38.5	22.7	0.00e+00	26	27	0	656408576	46	6776
2026-01-10 18:05:11.71	333.16	18.73	-38.0	-39.1	22.1	0.00e+00	0	27	0	657457152	48	6484
2026-01-10 18:05:12.72	332.92	18.72	-38.3	-39.5	21.8	0.00e+00	92	27	0	659554304	48	6775
2026-01-10 18:05:13.73	332.68	18.71	-38.5	-39.6	21.4	0.00e+00	0	27	0	661651456	48	6909
2026-01-10 18:05:14.74	332.44	18.71	-38.6	-39.8	21.6	0.00e+00	0	27	0	663748608	48	7009
2026-01-10 18:05:15.75	332.20	18.70	-38.2	-39.3	21.9	0.00e+00	0	27	0	665845760	48	6653
2026-01-10 18:05:16.76	331.96	18.69	-37.9	-39.0	22.3	0.00e+00	0	27	0	666894336	48	6415
2026-01-10 18:05:17.77	331.72	18.68	-37.5	-38.5	22.7	0.00e+00	23	27	0	668991488	48	6095
2026-01-10 18:05:18.78	331.48	18.67	-36.7	-37.6	23.3	0.00e+00	0	27	0	671088640	46	6123
2026-01-10 18:05:19.79	331.23	18.66	-36.7	-37.6	23.3	0.00e+00	92	27	0	673185792	46	6165
2026-01-10 18:05:20.80	330.99	18.64	-36.2	-37.1	23.9	0.00e+00	0	27	0	675282944	46	5767
2026-01-10 18:05:21.80	330.76	18.63	-36.2	-37.1	23.7	0.00e+00	0	27	0	676331520	46	5787
2026-01-10 18:05:22.81	330.52	18.62	-36.0	-36.9	23.9	0.00e+00	0	27	0	678428672	46	5660
2026-01-10 18:05:23.82	330.28	18.61	-36.4	-37.4	23.5	0.00e+00	0	27	0	680525824	46	5973
2026-01-10 18:05:24.83	330.04	18.59	-36.5	-37.4	23.5	0.00e+00	5	27	0	682622976	46	6019
2026-01-10 18:05:25.83	329.80	18.58	-36.6	-37.5	23.5	0.00e+00	0	27	0	684720128	46	6081
2026-01-10 18:05:26.84	329.56	18.56	-36.5	-37.3	23.5	0.00e+00	43	27	0	685768704	46	5954
2026-01-10 18:05:27.85	329.32	18.55	-36.2	-37.1	23.7	0.00e+00	0	27	0	687865856	46	5794
2026-01-10 18:05:28.86	329.09	18.53	-36.1	-36.9	23.8	0.00e+00	87	27	0	689963008	46	5689
2026-01-10 18:05:29.87	328.85	18.52	-36.2	-37.1	23.8	0.00e+00	0	27	0	692060160	46	5805
2026-01-10 18:05:30.88	328.61	18.50	-36.3	-37.2	23.7	0.00e+00	0	27	0	694157312	46	5893
2026-01-10 18:05:31.89	328.37	18.48	-36.3	-37.2	23.7	0.00e+00	0	27	0	695205888	46	5848
2026-01-10 18:05:32.90	328.14	18.47	-36.3	-37.1	23.7	0.00e+00	0	27	0	697303040	46	5821
2026-01-10 18:05:33.91	327.90	18.45	-35.9	-36.7	24.1	0.00e+00	42	27	0	699400192	46	5559
2026-01-10 18:05:34.92	327.66	18.43	-35.8	-36.6	23.8	0.00e+00	0	27	0	701497344	44	6131
2026-01-10 18:05:35.93	327.42	18.41	-35.4	-36.2	24.3	0.00e+00	71	27	0	703594496	44	5848
2026-01-10 18:05:36.94	327.19	18.39	-35.5	-36.4	24.2	0.00e+00	0	27	0	704643072	44	5986
2026-01-10 18:05:37.95	326.95	18.37	-35.6	-36.4	24.2	0.00e+00	0	27	0	706740224	44	5996
2026-01-10 18:05:38.96	326.72	18.35	-35.4	-36.2	24.4	0.00e+00	17	27	0	708837376	44	5845
2026-01-10 18:05:39.97	326.48	18.33	-35.5	-36.3	24.3	0.00e+00	0	27	0	710934528	44	5947
2026-01-10 18:05:40.98	326.25	18.31	-35.5	-36.3	24.4	0.00e+00	45	27	0	713031680	44	5962
2026-01-10 18:05:41.99	326.01	18.28	-35.9	-36.7	24.1	0.00e+00	0	28	0	715128832	44	6231
2026-01-10 18:05:43.00	325.78	18.26	-35.9	-36.8	24.0	0.00e+00	92	27	0	716177408	44	6274
2026-01-10 18:05:44.01	325.54	18.24	-35.9	-36.7	23.9	0.00e+00	0	27	0	718274560	44	6210
2026-01-10 18:05:45.02	325.31	18.22	-36.1	-37.0	23.9	0.00e+00	0	27	0	720371712	44	6411
2026-01-10 18:05:46.03	325.08	18.19	-35.9	-36.7	23.7	0.00e+00	0	27	0	722468864	44	6237
2026-01-10 18:05:47.04	324.85	18.17	-36.1	-37.0	23.8	0.00e+00	0	27	0	724566016	44	6415
2026-01-10 18:05:48.05	324.61	18.14	-36.1	-37.0	23.8	0.00e+00	36	27	0	725614592	44	6409
2026-01-10 18:05:49.06	324.38	18.12	-36.1	-37.0	23.9	0.00e+00	0	27	0	727711744	44	6433
2026-01-10 18:05:50.07	324.15	18.09	-36.1	-37.0	23.8	0.00e+00	12	28	0	729808896	44	6407
2026-01-10 18:05:51.08	323.92	18.06	-36.0	-36.9	23.9	0.00e+00	0	28	0	731906048	44	6357
2026-01-10 18:05:52.09	323.69	18.04	-36.0	-36.8	23.9	0.00e+00	0	28	0	734003200	44	6312
2026-01-10 18:05:53.10	323.46	18.01	-36.1	-37.0	23.8	0.00e+00	0	27	0	735051776	44	6394
2026-01-10 18:05:54.11	323.23	17.98	-36.1	-36.9	23.9	0.00e+00	0	27	0	737148928	44	6382
2026-01-10 18:05:55.12	323.00	17.96	-36.2	-37.0	23.7	0.00e+00	62	28	0	739246080	44	6447
2026-01-10 18:05:56.13	322.77	17.93	-36.5	-37.4	23.5	0.00e+00	0	27	0	741343232	44	6704
2026-01-10 18:05:57.14	322.54	17.90	-36.9	-37.9	23.3	0.00e+00	92	27	0	743440384	46	6337
2026-01-10 18:05:58.15	322.31	17.87	-37.0	-37.9	23.0	0.00e+00	0	28	0	744488960	46	6363
2026-01-10 18:05:59.16	322.08	17.84	-37.3	-38.3	22.9	0.00e+00	12	28	0	746586112	46	6642
2026-01-10 18:06:00.16	321.86	17.81	-37.6	-38.6	22.5	0.00e+00	0	28	0	748683264	48	6143
2026-01-10 18:06:01.15	321.64	17.78	-37.8	-38.8	22.5	0.00e+00	0	28	0	750780416	48	6273
2026-01-10 18:06:02.16	321.41	17.75	-38.1	-39.1	22.3	0.00e+00	0	28	0	752877568	48	6506
2026-01-10 18:06:03.18	321.18	17.72	-37.9	-38.9	22.4	0.00e+00	0	28	0	753926144	48	6343
2026-01-10 18:06:04.19	320.96	17.68	-37.9	-39.0	22.3	0.00e+00	92	28	0	756023296	48	6407
2026-01-10 18:06:05.20	320.73	17.65	-38.2	-39.3	22.1	0.00e+00	0	28	0	758120448	48	6619
2026-01-10 18:06:06.21	320.51	17.62	-37.9	-39.0	22.3	0.00e+00	92	28	0	760217600	48	6391
2026-01-10 18:06:07.22	320.28	17.59	-37.6	-38.6	22.6	0.00e+00	0	28	0	762314752	48	6132
2026-01-10 18:06:08.23	320.06	17.55	-37.7	-38.7	22.6	0.00e+00	0	28	0	763363328	48	6187
2026-01-10 18:06:09.24	319.84	17.52	-37.5	-38.5	22.6	0.00e+00	0	28	0	765460480	48	6068
2026-01-10 18:06:10.25	319.61	17.48	-37.9	-39.0	22.2	0.00e+00	0	28	0	767557632	48	6415
2026-01-10 18:06:11.26	319.39	17.45	-37.3	-38.3	22.9	0.00e+00	40	28	0	769654784	48	5932
2026-01-10 18:06:12.26	319.17	17.42	-37.3	-38.2	23.0	0.00e+00	0	28	0	771751936	48	5895
2026-01-10 18:06:13.27	318.95	17.38	-37.6	-38.6	22.6	0.00e+00	92	28	0	772800512	48	6164
2026-01-10 18:06:14.28	318.73	17.34	-37.5	-38.5	22.8	0.00e+00	0	28	0	774897664	48	6073
2026-01-10 18:06:15.29	318.51	17.31	-37.7	-38.8	22.5	0.00e+00	0	28	0	776994816	48	6254
2026-01-10 18:06:16.31	318.29	17.27	-37.8	-38.8	22.5	0.00e+00	0	28	0	779091968	48	6250
2026-01-10 18:06:17.32	318.07	17.23	-38.1	-39.1	22.3	0.00e+00	0	28	0	781189120	48	6494
2026-01-10 18:06:18.33	317.85	17.20	-37.7	-38.7	22.5	0.00e+00	74	28	0	783286272	48	6214
2026-01-10 18:06:19.34	317.63	17.16	-37.8	-38.8	22.6	0.00e+00	0	28	0	784334848	48	6256
2026-01-10 18:06:20.35	317.42	17.12	-37.9	-38.9	22.4	0.00e+00	73	28	0	786432000	48	6330
2026-01-10 18:06:21.36	317.20	17.08	-37.7	-38.7	22.5	0.00e+00	0	28	0	788529152	48	6213
2026-01-10 18:06:22.37	316.98	17.04	-37.6	-38.6	22.7	0.00e+00	0	28	0	790626304	48	6131
2026-01-10 18:06:23.38	316.77	17.00	-37.6	-38.6	22.6	0.00e+00	0	28	0	792723456	48	6133
2026-01-10 18:06:24.38	316.56	16.96	-37.7	-38.6	22.6	0.00e+00	0	28	0	793772032	48	6167
2026-01-10 18:06:25.40	316.34	16.92	-37.6	-38.6	22.6	0.00e+00	44	28	0	795869184	48	6108
2026-01-10 18:06:26.41	316.13	16.88	-37.5	-38.5	22.8	0.00e+00	0	28	0	797966336	48	6051
2026-01-10 18:06:27.42	315.91	16.84	-37.5	-38.4	22.9	0.00e+00	92	28	0	800063488	48	6008
2026-01-10 18:06:28.43	315.70	16.80	-37.5	-38.4	22.8	0.00e+00	0	28	0	802160640	48	6016
2026-01-10 18:06:29.44	315.49	16.76	-37.3	-38.3	22.8	0.00e+00	0	28	0	803209216	48	5913
2026-01-10 18:06:30.45	315.28	16.72	-37.4	-38.4	22.7	0.00e+00	0	28	0	805306368	48	5971
2026-01-10 18:06:31.46	315.07	16.68	-37.4	-38.3	22.8	0.00e+00	0	28	0	807403520	48	5947
2026-01-10 18:06:32.47	314.86	16.64	-37.0	-37.9	23.1	0.00e+00	6	28	0	809500672	48	5666
2026-01-10 18:06:33.48	314.65	16.59	-36.9	-37.8	22.8	0.00e+00	0	28	0	811597824	48	5584
2026-01-10 18:06:34.49	314.44	16.55	-36.6	-37.5	23.5	0.00e+00	92	28	0	812646400	46	6037
2026-01-10 18:06:35.50	314.23	16.51	-36.6	-37.4	23.5	0.00e+00	0	28	0	814743552	46	6019
2026-01-10 18:06:36.51	314.02	16.46	-36.4	-37.3	23.4	0.00e+00	10	28	0	816840704	46	5898
2026-01-10 18:06:37.52	313.81	16.42	-36.4	-37.2	23.7	0.00e+00	0	28	0	818937856	46	5867
2026-01-10 18:06:38.53	313.61	16.38	-36.4	-37.3	23.7	0.00e+00	0	28	0	821035008	46	5904
2026-01-10 18:06:39.54	313.40	16.33	-36.2	-37.0	23.8	0.00e+00	0	28	0	822083584	46	5736
2026-01-10 18:06:40.54	313.20	16.29	-36.2	-37.0	23.9	0.00e+00	0	28	0	824180736	46	5729
2026-01-10 18:06:41.56	312.99	16.24	-36.2	-37.1	23.8	0.00e+00	92	28	0	826277888	46	5770
2026-01-10 18:06:42.57	312.79	16.20	-36.5	-37.4	23.6	0.00e+00	0	28	0	828375040	46	5983
2026-01-10 18:06:43.57	312.58	16.15	-36.8	-37.8	23.2	0.00e+00	92	28	0	830472192	46	6246
2026-01-10 18:06:44.58	312.38	16.11	-37.3	-38.3	22.8	0.00e+00	0	28	0	831520768	46	6664
2026-01-10 18:06:45.59	312.18	16.06	-37.7	-38.7	22.4	0.00e+00	0	28	0	833617920	46	6966
2026-01-10 18:06:46.60	311.98	16.01	-37.9	-39.0	22.0	0.00e+00	0	28	0	835715072	48	6410
2026-01-10 18:06:47.61	311.78	15.97	-38.1	-39.1	22.4	0.00e+00	0	28	0	837812224	48	6511
2026-01-10 18:06:48.62	311.58	15.92	-38.1	-39.1	22.1	0.00e+00	36	28	0	839909376	48	6518
2026-01-10 18:06:49.63	311.38	15.87	-38.2	-39.2	21.9	0.00e+00	0	28	0	840957952	48	6564
2026-01-10 18:06:50.64	311.18	15.82	-37.9	-38.9	22.3	0.00e+00	90	28	0	843055104	48	6387
2026-01-10 18:06:51.65	310.98	15.78	-38.2	-39.2	22.3	0.00e+00	0	28	0	845152256	48	6571
2026-01-10 18:06:52.65	310.78	15.73	-37.7	-38.7	22.5	0.00e+00	0	28	0	847249408	48	6188
2026-01-10 18:06:53.66	310.59	15.68	-37.8	-38.8	22.5	0.00e+00	0	28	0	849346560	48	6272
2026-01-10 18:06:54.67	310.39	15.63	-37.8	-38.8	22.5	0.00e+00	0	28	0	851443712	48	6305
2026-01-10 18:06:55.68	310.19	15.58	-38.3	-39.4	22.0	0.00e+00	40	28	0	852492288	48	6738
2026-01-10 18:06:56.69	310.00	15.54	-38.3	-39.4	21.9	0.00e+00	0	28	0	854589440	48	6697
2026-01-10 18:06:57.70	309.80	15.49	-38.3	-39.4	22.0	0.00e+00	92	28	0	856686592	48	6705
2026-01-10 18:06:58.71	309.61	15.44	-38.1	-39.1	22.2	0.00e+00	0	28	0	858783744	48	6505
2026-01-10 18:06:59.72	309.42	15.39	-38.2	-39.2	22.1	0.00e+00	0	28	0	860880896	48	6561
2026-01-10 18:07:00.73	309.22	15.34	-38.1	-39.1	22.3	0.00e+00	0	28	0	861929472	48	6476
2026-01-10 18:07:01.74	309.03	15.29	-37.8	-38.8	22.4	0.00e+00	0	28	0	864026624	48	6290
2026-01-10 18:07:02.75	308.84	15.24	-37.5	-38.4	22.8	0.00e+00	37	28	0	866123776	48	5993
2026-01-10 18:07:03.76	308.65	15.19	-37.5	-38.5	22.7	0.00e+00	0	28	0	868220928	48	6052
2026-01-10 18:07:04.77	308.46	15.14	-37.5	-38.4	22.7	0.00e+00	68	28	0	870318080	48	6011
2026-01-10 18:07:05.78	308.27	15.08	-37.5	-38.5	22.8	0.00e+00	0	28	0	871366656	48	6056
2026-01-10 18:07:06.79	308.08	15.03	-37.6	-38.5	22.7	0.00e+00	0	28	0	873463808	48	6083
2026-01-10 18:07:07.80	307.89	14.98	-37.4	-38.3	22.9	0.00e+00	0	28	0	875560960	48	5955
2026-01-10 18:07:08.81	307.71	14.93	-37.2	-38.1	23.0	0.00e+00	0	28	0	877658112	48	5779
2026-01-10 18:07:09.82	307.52	14.88	-37.4	-38.3	22.8	0.00e+00	43	28	0	879755264	48	5935
2026-01-10 18:07:10.83	307.33	14.83	-37.2	-38.2	23.0	0.00e+00	0	28	0	880803840	48	5831
2026-01-10 18:07:11.84	307.15	14.77	-37.5	-38.5	22.6	0.00e+00	92	28	0	882900992	48	6057
2026-01-10 18:07:12.85	306.96	14.72	-37.9	-38.9	22.4	0.00e+00	0	28	0	884998144	48	6360
2026-01-10 18:07:13.86	306.78	14.67	-38.0	-39.0	22.2	0.00e+00	68	28	0	887095296	48	6443
2026-01-10 18:07:14.87	306.59	14.62	-38.0	-39.0	22.3	0.00e+00	0	28	0	889192448	48	6405
2026-01-10 18:07:15.88	306.41	14.56	-38.0	-39.1	22.2	0.00e+00	0	28	0	890241024	48	6478
2026-01-10 18:07:16.89	306.23	14.51	-37.7	-38.7	22.4	0.00e+00	0	28	0	892338176	48	6215
2026-01-10 18:07:17.90	306.05	14.46	-37.7	-38.7	22.6	0.00e+00	0	28	0	894435328	48	6205
2026-01-10 18:07:18.91	305.87	14.40	-37.4	-38.3	22.8	0.00e+00	55	28	0	896532480	48	5963
2026-01-10 18:07:19.92	305.69	14.35	-37.4	-38.4	22.8	0.00e+00	0	28	0	898629632	48	5974
2026-01-10 18:07:20.93	305.51	14.30	-37.4	-38.3	22.8	0.00e+00	84	28	0	899678208	48	5951
2026-01-10 18:07:21.94	305.33	14.24	-37.3	-38.2	22.9	0.00e+00	0	28	0	901775360	48	5875
2026-01-10 18:07:22.95	305.15	14.19	-37.6	-38.6	22.7	0.00e+00	0	28	0	903872512	48	6133
2026-01-10 18:07:23.96	304.97	14.13	-37.8	-38.8	22.4	0.00e+00	0	28	0	905969664	48	6299
2026-01-10 18:07:24.97	304.80	14.08	-38.2	-39.2	22.1	0.00e+00	0	28	0	908066816	48	6548
2026-01-10 18:07:25.98	304.62	14.03	-38.6	-39.6	21.7	0.00e+00	32	28	0	909115392	48	6925
2026-01-10 18:07:26.99	304.44	13.97	-39.1	-40.2	21.3	0.00e+00	0	28	0	911212544	50	6577
2026-01-10 18:07:28.00	304.27	13.92	-39.4	-40.6	20.9	0.00e+00	54	28	0	913309696	50	6868
2026-01-10 18:07:29.00	304.10	13.86	-40.0	-41.3	20.2	0.00e+00	0	28	0	915406848	52	6687
2026-01-10 18:07:30.02	303.92	13.81	-40.3	-41.6	19.9	0.00e+00	0	28	0	917504000	52	6926
2026-01-10 18:07:31.03	303.75	13.75	-40.4	-41.9	19.7	0.00e+00	0	28	0	919601152	52	7090
2026-01-10 18:07:32.03	303.58	13.70	-40.6	-42.1	19.6	0.00e+00	0	28	0	920649728	52	7270
2026-01-10 18:07:33.05	303.40	13.64	-40.7	-42.2	19.6	0.00e+00	39	28	0	922746880	52	7380
2026-01-10 18:07:34.06	303.23	13.58	-40.1	-41.4	20.2	0.00e+00	0	28	0	924844032	52	6732
2026-01-10 18:07:35.07	303.06	13.53	-40.0	-41.4	20.3	0.00e+00	24	28	0	926941184	52	6707
2026-01-10 18:07:36.08	302.89	13.47	-39.9	-41.2	20.4	0.00e+00	0	28	0	929038336	52	6586
2026-01-10 18:07:37.09	302.72	13.42	-39.8	-41.1	20.5	0.00e+00	0	28	0	930086912	52	6500
2026-01-10 18:07:38.10	302.55	13.36	-39.6	-40.8	20.7	0.00e+00	0	28	0	932184064	52	6279
2026-01-10 18:07:39.11	302.39	13.30	-39.6	-40.9	20.8	0.00e+00	0	28	0	934281216	52	6318
2026-01-10 18:07:40.12	302.22	13.25	-39.5	-40.7	20.9	0.00e+00	14	28	0	936378368	52	6196
2026-01-10 18:07:41.13	302.05	13.19	-39.1	-40.2	21.2	0.00e+00	0	28	0	938475520	52	5880
2026-01-10 18:07:42.14	301.89	13.14	-38.9	-40.1	21.4	0.00e+00	90	28	0	939524096	52	5765
2026-01-10 18:07:43.15	301.72	13.08	-38.8	-39.9	21.5	0.00e+00	0	28	0	941621248	52	5649
2026-01-10 18:07:44.16	301.56	13.02	-38.7	-39.8	21.6	0.00e+00	18	28	0	943718400	50	6255
2026-01-10 18:07:45.17	301.39	12.96	-38.6	-39.7	21.7	0.00e+00	0	28	0	945815552	50	6203
2026-01-10 18:07:46.18	301.23	12.91	-38.6	-39.7	21.7	0.00e+00	0	28	0	947912704	50	6184
2026-01-10 18:07:47.19	301.07	12.85	-38.9	-40.0	21.3	0.00e+00	42	28	0	948961280	50	6423
2026-01-10 18:07:48.20	300.91	12.79	-39.0	-40.1	21.2	0.00e+00	0	28	0	951058432	50	6497
2026-01-10 18:07:49.21	300.74	12.74	-39.3	-40.5	20.9	0.00e+00	90	28	0	953155584	50	6842
2026-01-10 18:07:50.22	300.58	12.68	-39.2	-40.3	21.1	0.00e+00	0	28	0	955252736	50	6673
2026-01-10 18:07:51.23	300.42	12.62	-39.0	-40.1	21.3	0.00e+00	91	28	0	957349888	50	6500
2026-01-10 18:07:52.24	300.26	12.56	-38.8	-39.9	21.4	0.00e+00	0	28	0	958398464	50	6349
2026-01-10 18:07:53.25	300.11	12.51	-38.6	-39.7	21.7	0.00e+00	33	28	0	960495616	50	6196
2026-01-10 18:07:54.26	299.95	12.45	-38.2	-39.3	22.0	0.00e+00	0	28	0	962592768	50	5909
2026-01-10 18:07:55.27	299.79	12.39	-38.0	-39.0	22.2	0.00e+00	0	28	0	964689920	50	5739
2026-01-10 18:07:56.28	299.63	12.33	-38.0	-39.0	22.3	0.00e+00	92	28	0	966787072	50	5749
2026-01-10 18:07:57.29	299.48	12.28	-37.9	-38.9	22.3	0.00e+00	0	28	0	967835648	50	5679
2026-01-10 18:07:58.30	299.32	12.22	-38.0	-39.0	22.1	0.00e+00	91	28	0	969932800	50	5756
2026-01-10 18:07:59.31	299.17	12.16	-38.2	-39.2	22.1	0.00e+00	0	28	0	972029952	50	5889
2026-01-10 18:08:00.32	299.01	12.10	-38.2	-39.2	22.1	0.00e+00	0	28	0	974127104	50	5869
2026-01-10 18:08:01.32	298.86	12.04	-38.3	-39.3	21.9	0.00e+00	0	28	0	976224256	50	5963
2026-01-10 18:08:02.33	298.71	11.99	-38.3	-39.3	22.0	0.00e+00	0	28	0	977272832	50	5933
2026-01-10 18:08:03.34	298.55	11.93	-38.5	-39.6	21.7	0.00e+00	82	28	0	979369984	50	6119
2026-01-10 18:08:04.35	298.40	11.87	-38.4	-39.5	21.8	0.00e+00	0	28	0	981467136	50	6072
2026-01-10 18:08:05.36	298.25	11.81	-38.6	-39.7	21.5	0.00e+00	55	28	0	983564288	50	6226
2026-01-10 18:08:06.37	298.10	11.75	-38.7	-39.8	21.4	0.00e+00	0	28	0	985661440	50	6247
2026-01-10 18:08:07.38	297.95	11.69	-38.5	-39.5	21.7	0.00e+00	0	28	0	987758592	50	6092
2026-01-10 18:08:08.39	297.80	11.63	-38.5	-39.6	21.7	0.00e+00	0	28	0	988807168	50	6132
2026-01-10 18:08:09.40	297.65	11.58	-38.4	-39.5	21.8	0.00e+00	0	28	0	990904320	50	6082
2026-01-10 18:08:10.41	297.50	11.52	-38.6	-39.7	21.7	0.00e+00	21	28	0	993001472	50	6210
2026-01-10 18:08:11.42	297.35	11.46	-38.4	-39.5	21.8	0.00e+00	0	29	0	995098624	50	6055
2026-01-10 18:08:12.43	297.21	11.40	-38.1	-39.2	22.0	0.00e+00	64	28	0	997195776	50	5853
2026-01-10 18:08:13.44	297.06	11.34	-38.0	-39.0	22.2	0.00e+00	0	28	0	998244352	50	5751
2026-01-10 18:08:14.45	296.91	11.28	-38.0	-39.1	22.1	0.00e+00	0	28	0	1000341504	50	5775
2026-01-10 18:08:15.46	296.77	11.22	-37.9	-39.0	22.3	0.00e+00	0	29	0	1002438656	50	5697
2026-01-10 18:08:16.47	296.62	11.16	-37.7	-38.7	22.4	0.00e+00	0	28	0	1004535808	48	6204
2026-01-10 18:08:17.47	296.48	11.11	-37.5	-38.5	22.5	0.00e+00	17	28	0	1006632960	48	6068
2026-01-10 18:08:18.48	296.34	11.05	-37.4	-38.4	22.8	0.00e+00	0	28	0	1007681536	48	5965
2026-01-10 18:08:19.49	296.19	10.99	-37.2	-38.2	22.8	0.00e+00	92	28	0	1009778688	48	5837
2026-01-10 18:08:20.50	296.05	10.93	-37.0	-37.9	23.0	0.00e+00	0	28	0	1011875840	48	5685
2026-01-10 18:08:21.51	295.91	10.87	-36.7	-37.6	23.3	0.00e+00	0	29	0	1013972992	46	6128
2026-01-10 18:08:22.53	295.77	10.81	-36.5	-37.4	23.4	0.00e+00	0	29	0	1016070144	46	5999
2026-01-10 18:08:23.53	295.63	10.75	-36.3	-37.2	23.4	0.00e+00	0	29	0	1017118720	46	5865
2026-01-10 18:08:24.54	295.49	10.69	-36.7	-37.5	23.4	0.00e+00	0	29	0	1019215872	46	6102
2026-01-10 18:08:25.55	295.35	10.63	-36.6	-37.5	23.3	0.00e+00	0	29	0	1021313024	46	6087
2026-01-10 18:08:26.56	295.21	10.57	-37.0	-37.9	23.0	0.00e+00	83	29	0	1023410176	46	6384
2026-01-10 18:08:27.57	295.07	10.51	-37.1	-38.0	22.9	0.00e+00	0	28	0	1025507328	46	6419
2026-01-10 18:08:28.58	294.93	10.45	-37.2	-38.2	22.8	0.00e+00	0	29	0	1026555904	46	6573
2026-01-10 18:08:29.59	294.80	10.40	-37.0	-38.0	23.0	0.00e+00	0	28	0	1028653056	46	6405
2026-01-10 18:08:30.60	294.66	10.34	-37.2	-38.2	22.8	0.00e+00	0	28	0	1030750208	46	6571
2026-01-10 18:08:31.61	294.52	10.28	-37.4	-38.3	22.6	0.00e+00	0	28	0	1032847360	46	6679
2026-01-10 18:08:32.62	294.39	10.22	-37.3	-38.3	22.7	0.00e+00	0	28	0	1034944512	46	6651
2026-01-10 18:08:33.63	294.25	10.16	-37.4	-38.4	22.6	0.00e+00	92	28	0	1035993088	46	6714
2026-01-10 18:08:34.64	294.12	10.10	-37.1	-38.1	22.8	0.00e+00	0	28	0	1038090240	46	6472
2026-01-10 18:08:35.65	293.98	10.04	-36.9	-37.9	23.0	0.00e+00	95	28	0	1040187392	46	6322
2026-01-10 18:08:36.66	293.85	9.98	-36.8	-37.7	23.1	0.00e+00	0	29	0	1042284544	46	6237
2026-01-10 18:08:37.67	293.72	9.92	-36.8	-37.7	23.2	0.00e+00	0	29	0	1044381696	46	6201
2026-01-10 18:08:38.68	293.59	9.86	-36.6	-37.6	23.4	0.00e+00	0	29	0	1045430272	46	6104
2026-01-10 18:08:39.69	293.45	9.80	-36.6	-37.5	23.3	0.00e+00	0	29	0	1047527424	46	6049
2026-01-10 18:08:40.70	293.32	9.74	-36.7	-37.6	23.2	0.00e+00	36	29	0	1049624576	46	6149
2026-01-10 18:08:41.71	293.19	9.68	-36.7	-37.6	23.2	0.00e+00	0	28	0	1051721728	46	6132
2026-01-10 18:08:42.72	293.06	9.62	-36.9	-37.8	22.9	0.00e+00	43	29	0	1053818880	46	6317
2026-01-10 18:08:43.73	292.93	9.56	-36.9	-37.8	23.1	0.00e+00	0	29	0	1055916032	46	6311
2026-01-10 18:08:44.74	292.80	9.50	-36.9	-37.9	23.0	0.00e+00	0	29	0	1056964608	46	6328
2026-01-10 18:08:45.75	292.68	9.45	-37.1	-38.0	22.8	0.00e+00	0	29	0	1059061760	46	6444
2026-01-10 18:08:46.76	292.55	9.39	-37.0	-38.0	22.9	0.00e+00	0	29	0	1061158912	46	6427
2026-01-10 18:08:47.77	292.42	9.33	-37.4	-38.4	22.5	0.00e+00	38	29	0	1063256064	46	6726
2026-01-10 18:08:48.78	292.29	9.27	-37.5	-38.4	22.4	0.00e+00	0	29	0	1065353216	46	6768
2026-01-10 18:08:49.78	292.17	9.21	-37.5	-38.5	22.4	0.00e+00	42	29	0	1066401792	46	6775
2026-01-10 18:08:50.79	292.04	9.15	-37.4	-38.4	22.4	0.00e+00	0	29	0	1068498944	46	6736
2026-01-10 18:08:51.80	291.92	9.09	-37.7	-38.7	21.9	0.00e+00	0	29	0	1070596096	48	6212
2026-01-10 18:08:52.81	291.79	9.03	-37.9	-38.9	21.9	0.00e+00	0	29	0	1072693248	48	6374
2026-01-10 18:08:53.82	291.67	8.97	-37.9	-39.0	22.0	0.00e+00	0	29	0	1074790400	48	6431
2026-01-10 18:08:54.83	291.55	8.91	-38.1	-39.2	21.8	0.00e+00	44	29	0	1075838976	48	6547
2026-01-10 18:08:55.84	291.42	8.85	-37.9	-38.9	22.0	0.00e+00	0	29	0	1077936128	48	6366
2026-01-10 18:08:56.85	291.30	8.79	-38.0	-39.1	21.8	0.00e+00	81	29	0	1080033280	48	6511
2026-01-10 18:08:57.86	291.18	8.73	-38.0	-39.1	21.6	0.00e+00	0	29	0	1082130432	48	6478
2026-01-10 18:08:58.87	291.06	8.67	-38.2	-39.3	21.4	0.00e+00	29	29	0	1084227584	48	6628
2026-01-10 18:08:59.88	290.93	8.61	-37.8	-38.8	22.0	0.00e+00	0	29	0	1085276160	48	6294
2026-01-10 18:09:00.89	290.81	8.56	-37.6	-38.6	22.1	0.00e+00	0	29	0	1087373312	48	6146
2026-01-10 18:09:01.90	290.69	8.50	-37.5	-38.5	22.4	0.00e+00	0	29	0	1089470464	48	6070
2026-01-10 18:09:02.91	290.57	8.44	-37.4	-38.3	22.5	0.00e+00	0	29	0	1091567616	48	5961
2026-01-10 18:09:03.92	290.45	8.38	-37.3	-38.2	22.6	0.00e+00	92	29	0	1093664768	48	5892
2026-01-10 18:09:04.93	290.34	8.32	-37.2	-38.2	22.6	0.00e+00	0	29	0	1094713344	48	5866
2026-01-10 18:09:05.94	290.22	8.26	-37.3	-38.2	22.4	0.00e+00	92	29	0	1096810496	48	5890
2026-01-10 18:09:06.95	290.10	8.20	-37.1	-38.1	22.7	0.00e+00	0	29	0	1098907648	48	5781
2026-01-10 18:09:07.96	289.98	8.14	-37.3	-38.3	22.6	0.00e+00	0	29	0	1101004800	48	5911
2026-01-10 18:09:08.97	289.87	8.08	-37.3	-38.3	22.4	0.00e+00	0	29	0	1103101952	48	5930
2026-01-10 18:09:09.98	289.75	8.02	-37.6	-38.6	22.3	0.00e+00	0	29	0	1104150528	48	6131
2026-01-10 18:09:10.99	289.63	7.96	-37.9	-39.0	21.9	0.00e+00	75	29	0	1106247680	48	6399
2026-01-10 18:09:12.00	289.52	7.91	-38.0	-39.0	22.0	0.00e+00	0	29	0	1108344832	48	6431
2026-01-10 18:09:13.01	289.40	7.85	-38.2	-39.3	21.7	0.00e+00	92	29	0	1110441984	48	6655
2026-01-10 18:09:14.02	289.29	7.79	-38.5	-39.6	21.4	0.00e+00	0	29	0	1112539136	48	6918
2026-01-10 18:09:15.03	289.18	7.73	-38.6	-39.8	21.3	0.00e+00	0	29	0	1113587712	48	7044
2026-01-10 18:09:16.04	289.06	7.67	-38.7	-39.9	21.2	0.00e+00	0	29	0	1115684864	50	6348
2026-01-10 18:09:17.05	288.95	7.61	-38.7	-39.8	21.3	0.00e+00	0	29	0	1117782016	50	6313
2026-01-10 18:09:18.06	288.84	7.55	-38.5	-39.6	21.4	0.00e+00	3	29	0	1119879168	50	6156
2026-01-10 18:09:19.07	288.72	7.49	-38.5	-39.6	21.5	0.00e+00	0	29	0	1121976320	50	6109
2026-01-10 18:09:20.09	288.61	7.43	-38.5	-39.6	21.4	0.00e+00	92	29	0	1124073472	50	6137
2026-01-10 18:09:21.10	288.50	7.37	-38.3	-39.3	21.6	0.00e+00	0	29	0	1125122048	50	5961
2026-01-10 18:09:22.11	288.39	7.32	-38.4	-39.5	21.5	0.00e+00	0	29	0	1127219200	50	6044
2026-01-10 18:09:23.12	288.28	7.26	-38.2	-39.3	21.6	0.00e+00	0	29	0	1129316352	50	5933
2026-01-10 18:09:24.12	288.17	7.20	-38.2	-39.3	21.6	0.00e+00	0	29	0	1131413504	50	5905
2026-01-10 18:09:25.14	288.06	7.14	-38.3	-39.4	21.6	0.00e+00	7	29	0	1133510656	50	5970
2026-01-10 18:09:26.15	287.95	7.08	-38.5	-39.6	21.3	0.00e+00	0	29	0	1134559232	50	6144
2026-01-10 18:09:27.16	287.84	7.02	-38.6	-39.7	21.3	0.00e+00	90	29	0	1136656384	50	6232
2026-01-10 18:09:28.17	287.74	6.96	-38.3	-39.4	21.4	0.00e+00	0	29	0	1138753536	50	6018
2026-01-10 18:09:29.18	287.63	6.91	-38.1	-39.2	21.7	0.00e+00	0	29	0	1140850688	50	5855
2026-01-10 18:09:30.19	287.52	6.85	-38.1	-39.2	21.7	0.00e+00	0	29	0	1142947840	50	5843
2026-01-10 18:09:31.19	287.42	6.79	-38.3	-39.4	21.6	0.00e+00	0	29	0	1143996416	50	5996
2026-01-10 18:09:32.20	287.31	6.73	-38.3	-39.3	21.5	0.00e+00	28	29	0	1146093568	50	5961
2026-01-10 18:09:33.22	287.20	6.67	-38.3	-39.4	21.4	0.00e+00	33	29	0	1148190720	50	6018
2026-01-10 18:09:34.23	287.10	6.61	-38.5	-39.6	21.4	0.00e+00	92	29	0	1150287872	50	6152
2026-01-10 18:09:35.24	286.99	6.56	-38.6	-39.8	21.1	0.00e+00	0	29	0	1152385024	50	6254
2026-01-10 18:09:36.24	286.89	6.50	-38.8	-40.0	21.0	0.00e+00	0	29	0	1153433600	50	6452
2026-01-10 18:09:37.26	286.79	6.44	-38.8	-40.0	21.1	0.00e+00	0	29	0	1155530752	50	6435
2026-01-10 18:09:38.27	286.68	6.38	-39.0	-40.2	20.9	0.00e+00	0	29	0	1157627904	50	6545
2026-01-10 18:09:39.28	286.58	6.32	-39.0	-40.2	20.7	0.00e+00	32	29	0	1159725056	50	6589
2026-01-10 18:09:40.29	286.48	6.27	-39.2	-40.4	20.6	0.00e+00	0	29	0	1161822208	50	6750
2026-01-10 18:09:41.30	286.37	6.21	-39.4	-40.7	20.4	0.00e+00	92	29	0	1162870784	50	6936
2026-01-10 18:09:42.31	286.27	6.15	-39.2	-40.4	20.6	0.00e+00	0	29	0	1164967936	50	6758
2026-01-10 18:09:43.32	286.17	6.09	-39.2	-40.4	20.5	0.00e+00	33	29	0	1167065088	50	6768
2026-01-10 18:09:44.33	286.07	6.03	-39.4	-40.7	20.4	0.00e+00	0	29	0	1169162240	50	6972
2026-01-10 18:09:45.34	285.97	5.98	-39.1	-40.4	20.6	0.00e+00	0	29	0	1171259392	50	6701
2026-01-10 18:09:46.35	285.87	5.92	-39.3	-40.6	20.3	0.00e+00	0	29	0	1172307968	50	6880
2026-01-10 18:09:47.36	285.77	5.86	-39.1	-40.3	20.6	0.00e+00	0	29	0	1174405120	50	6631
2026-01-10 18:09:48.37	285.67	5.80	-39.0	-40.2	20.7	0.00e+00	57	29	0	1176502272	50	6548
2026-01-10 18:09:49.38	285.57	5.75	-38.9	-40.1	20.9	0.00e+00	0	29	0	1178599424	50	6505
2026-01-10 18:09:50.39	285.47	5.69	-39.0	-40.2	20.8	0.00e+00	92	29	0	1180696576	50	6596
2026-01-10 18:09:51.40	285.37	5.63	-39.1	-40.4	20.6	0.00e+00	0	29	0	1181745152	50	6696
2026-01-10 18:09:52.41	285.28	5.57	-39.0	-40.2	20.6	0.00e+00	0	29	0	1183842304	50	6559
2026-01-10 18:09:53.42	285.18	5.52	-39.3	-40.6	20.3	0.00e+00	0	29	0	1185939456	50	6886
2026-01-10 18:09:54.42	285.08	5.46	-39.5	-40.8	20.3	0.00e+00	0	29	0	1188036608	50	7050
2026-01-10 18:09:55.44	284.98	5.40	-39.8	-41.2	19.8	0.00e+00	90	29	0	1190133760	52	6575
2026-01-10 18:09:56.45	284.89	5.34	-40.0	-41.5	19.5	0.00e+00	0	29	0	1191182336	52	6779
2026-01-10 18:09:57.46	284.79	5.29	-40.0	-41.5	19.5	0.00e+00	72	29	0	1193279488	52	6781
2026-01-10 18:09:58.47	284.70	5.23	-40.3	-41.8	19.2	0.00e+00	0	29	0	1195376640	52	7038
2026-01-10 18:09:59.48	284.60	5.17	-40.6	-42.2	19.0	0.00e+00	0	29	0	1197473792	52	7376
