passes_logs/2026/01/10/R4.6S_Anadyr/R4.6S_Anadyr__20260110_212632_TY-39_rec.log

#Pass ID: 20260110_212632_TY-39
#Satellite: TY-39
#Configuration: TY-39
#almurnet v.1.7.20251203
#Start time: 2026-01-10 21:26:38

#Version: 2.2.20231116
#Station: R4.6S_Anadyr
#Location: 177.4865 lon 64.73178 lat
#TLE: 1 51832U 22019J   26009.95414056  .00002581  00000-0  12418-3 0  9999
#TLE: 2 51832  97.3652  76.7669 0010387  67.4480 292.7854 15.19614524213766

#Time	Az	El	Level	Level2	SNR	BER	BlckErr	Temp	State	Recorded	gain1	gain2
2026-01-10 21:26:38.50	22.06	0.34	-48.1	-60.6	3.4	1.52e+00	0	27	0	0	60	37633
2026-01-10 21:26:39.51	22.14	0.40	-48.4	-50.8	3.6	0.00e+00	0	28	104	0	60	42689
2026-01-10 21:26:40.52	22.22	0.46	-48.4	-51.0	3.5	0.00e+00	0	28	104	0	60	43291
2026-01-10 21:26:41.53	22.30	0.52	-48.4	-50.9	3.6	0.00e+00	0	28	104	0	60	42843
2026-01-10 21:26:42.54	22.38	0.58	-48.3	-50.8	3.6	0.00e+00	0	28	104	0	60	42362
2026-01-10 21:26:43.55	22.46	0.63	-48.1	-50.6	3.6	0.00e+00	0	28	104	0	60	41571
2026-01-10 21:26:44.56	22.54	0.69	-48.2	-50.6	3.6	0.00e+00	0	28	104	0	60	41710
2026-01-10 21:26:45.57	22.63	0.75	-47.9	-50.4	3.6	0.00e+00	0	28	104	0	60	40786
2026-01-10 21:26:46.58	22.71	0.81	-47.9	-50.4	3.6	0.00e+00	0	28	104	0	60	40734
2026-01-10 21:26:47.59	22.79	0.87	-47.8	-50.3	3.6	0.00e+00	0	29	104	0	60	40101
2026-01-10 21:26:48.60	22.88	0.93	-47.6	-50.0	3.6	0.00e+00	0	28	104	0	60	38839
2026-01-10 21:26:49.61	22.96	0.99	-47.4	-49.9	3.6	0.00e+00	0	29	104	0	60	38133
2026-01-10 21:26:50.62	23.05	1.05	-46.7	-49.3	3.6	0.00e+00	0	29	104	0	60	35626
2026-01-10 21:26:51.63	23.13	1.10	-46.7	-49.2	3.6	0.00e+00	0	29	104	0	60	35514
2026-01-10 21:26:52.64	23.22	1.16	-46.7	-49.2	3.6	0.00e+00	0	29	104	0	60	35234
2026-01-10 21:26:53.65	23.30	1.22	-46.7	-49.2	3.6	0.00e+00	0	29	104	0	60	35185
2026-01-10 21:26:54.66	23.39	1.28	-46.7	-49.2	3.6	0.00e+00	0	29	104	0	60	35285
2026-01-10 21:26:55.66	23.47	1.34	-46.7	-49.2	3.6	0.00e+00	0	29	104	0	60	35269
2026-01-10 21:26:56.67	23.56	1.40	-46.7	-49.2	3.6	0.00e+00	0	29	104	0	60	35344
2026-01-10 21:26:57.68	23.65	1.46	-46.7	-49.2	3.6	0.00e+00	0	29	104	0	60	35167
2026-01-10 21:26:58.69	23.73	1.52	-46.7	-49.2	3.6	0.00e+00	0	29	104	0	60	35255
2026-01-10 21:26:59.70	23.82	1.58	-46.7	-49.2	3.6	0.00e+00	0	29	104	0	60	35282
2026-01-10 21:27:00.71	23.91	1.64	-46.7	-49.1	3.6	0.00e+00	0	29	104	0	60	34967
2026-01-10 21:27:01.72	24.00	1.70	-46.6	-49.2	3.6	0.00e+00	0	29	104	0	60	35128
2026-01-10 21:27:02.73	24.09	1.76	-46.7	-49.1	3.6	0.00e+00	0	29	104	0	60	35011
2026-01-10 21:27:03.74	24.18	1.82	-46.6	-49.1	3.6	0.00e+00	0	29	104	0	60	34995
2026-01-10 21:27:04.76	24.27	1.89	-46.6	-49.1	3.6	0.00e+00	0	29	104	0	60	35021
2026-01-10 21:27:05.77	24.36	1.95	-46.6	-49.1	3.6	0.00e+00	0	29	104	0	60	35077
2026-01-10 21:27:06.78	24.45	2.01	-46.7	-49.2	3.6	0.00e+00	0	29	104	0	60	35134
2026-01-10 21:27:07.79	24.55	2.07	-46.7	-49.1	3.6	0.00e+00	0	29	104	0	60	35011
2026-01-10 21:27:08.80	24.64	2.13	-46.6	-49.1	3.6	0.00e+00	0	29	104	0	60	35044
2026-01-10 21:27:09.81	24.73	2.19	-46.6	-49.0	3.6	0.00e+00	0	29	104	0	60	34655
2026-01-10 21:27:10.82	24.82	2.25	-46.6	-49.0	3.6	0.00e+00	0	29	104	0	60	34588
2026-01-10 21:27:11.83	24.92	2.32	-46.6	-49.0	3.6	0.00e+00	0	29	104	0	60	34556
2026-01-10 21:27:12.84	25.01	2.38	-46.6	-49.0	3.6	0.00e+00	0	29	104	0	60	34390
2026-01-10 21:27:13.85	25.11	2.44	-46.6	-49.0	3.6	0.00e+00	0	29	104	0	60	34687
2026-01-10 21:27:14.86	25.20	2.50	-46.6	-49.1	3.6	0.00e+00	0	29	104	0	60	35040
2026-01-10 21:27:15.87	25.30	2.56	-46.7	-49.1	3.6	0.00e+00	0	29	104	0	60	35119
2026-01-10 21:27:16.88	25.39	2.63	-46.7	-49.1	3.6	0.00e+00	0	29	104	0	60	34985
2026-01-10 21:27:17.89	25.49	2.69	-46.6	-49.1	3.6	0.00e+00	0	29	104	0	60	34982
2026-01-10 21:27:18.90	25.59	2.75	-46.7	-49.2	3.6	0.00e+00	0	30	104	0	60	35132
2026-01-10 21:27:19.91	25.68	2.81	-46.7	-49.1	3.6	0.00e+00	0	29	104	0	60	35024
2026-01-10 21:27:20.92	25.78	2.88	-46.6	-49.1	3.6	0.00e+00	0	29	104	0	60	35114
2026-01-10 21:27:21.93	25.88	2.94	-46.6	-49.1	3.6	0.00e+00	0	30	104	0	60	35053
2026-01-10 21:27:22.94	25.98	3.00	-46.6	-49.2	3.6	0.00e+00	0	30	104	0	60	35301
2026-01-10 21:27:23.95	26.08	3.07	-46.7	-49.1	3.6	0.00e+00	0	30	104	0	60	35077
2026-01-10 21:27:24.96	26.18	3.13	-46.7	-49.1	3.6	0.00e+00	0	30	104	0	60	34991
2026-01-10 21:27:25.96	26.28	3.19	-46.6	-49.1	3.6	0.00e+00	0	30	104	0	60	35078
2026-01-10 21:27:26.97	26.38	3.26	-46.7	-49.2	3.6	0.00e+00	0	30	104	0	60	35194
2026-01-10 21:27:27.99	26.48	3.32	-46.7	-49.2	3.6	0.00e+00	0	30	104	0	60	35137
2026-01-10 21:27:29.00	26.59	3.38	-46.6	-49.1	3.6	0.00e+00	0	30	104	0	60	35000
2026-01-10 21:27:30.01	26.69	3.45	-46.6	-49.1	3.6	0.00e+00	0	30	104	0	60	34989
2026-01-10 21:27:31.02	26.79	3.51	-46.7	-49.1	3.6	0.00e+00	0	30	104	0	60	35106
2026-01-10 21:27:32.03	26.90	3.58	-46.7	-49.1	3.6	0.00e+00	0	30	104	0	60	35055
2026-01-10 21:27:33.04	27.00	3.64	-46.6	-49.1	3.6	0.00e+00	0	30	104	0	60	35062
2026-01-10 21:27:34.04	27.10	3.71	-46.7	-49.2	3.6	0.00e+00	0	30	104	0	60	35384
2026-01-10 21:27:35.06	27.21	3.77	-46.7	-49.2	3.6	0.00e+00	0	30	104	0	60	35280
2026-01-10 21:27:36.07	27.32	3.84	-46.7	-49.2	3.6	0.00e+00	0	30	104	0	60	35193
2026-01-10 21:27:37.08	27.42	3.90	-46.6	-49.1	3.6	0.00e+00	0	30	104	0	60	34975
2026-01-10 21:27:38.09	27.53	3.97	-46.6	-49.2	3.6	0.00e+00	0	30	104	0	60	35260
2026-01-10 21:27:39.10	27.64	4.03	-46.8	-49.2	3.6	0.00e+00	0	30	104	0	60	35359
2026-01-10 21:27:40.11	27.75	4.10	-46.7	-49.2	3.6	0.00e+00	0	30	104	0	60	35447
2026-01-10 21:27:41.12	27.86	4.16	-46.7	-49.2	3.6	0.00e+00	0	30	104	0	60	35206
2026-01-10 21:27:42.12	27.97	4.23	-47.0	-49.5	3.6	0.00e+00	0	30	104	0	60	36505
2026-01-10 21:27:43.13	28.08	4.29	-46.8	-49.3	3.5	0.00e+00	0	30	104	0	60	35781
2026-01-10 21:27:44.14	28.19	4.36	-46.6	-49.1	3.6	0.00e+00	0	30	104	0	60	35087
2026-01-10 21:27:45.15	28.30	4.43	-46.8	-49.2	3.6	0.00e+00	0	30	104	0	60	35506
2026-01-10 21:27:46.16	28.41	4.49	-46.7	-49.2	3.6	0.00e+00	0	30	104	0	60	35428
2026-01-10 21:27:47.17	28.52	4.56	-29.3	-29.6	11.9	0.00e+00	0	30	104	0	34	16542
2026-01-10 21:27:48.18	28.64	4.63	-45.5	-47.4	3.6	0.00e+00	0	30	104	0	60	28614
2026-01-10 21:27:49.19	28.75	4.69	-42.3	-42.0	7.6	0.00e+00	2213	30	0	25165824	60	15332
2026-01-10 21:27:50.20	28.87	4.76	-38.5	-38.6	9.1	2.25e-02	0	30	0	100663296	52	16442
2026-01-10 21:27:51.21	28.98	4.83	-31.5	-31.9	14.0	6.34e-03	0	30	0	176160768	38	17074
2026-01-10 21:27:52.22	29.10	4.89	-31.6	-32.0	13.7	0.00e+00	0	30	0	251658240	38	17220
2026-01-10 21:27:53.23	29.21	4.96	-32.0	-32.4	13.6	0.00e+00	0	30	0	327155712	38	18064
2026-01-10 21:27:54.24	29.33	5.03	-30.5	-30.9	14.5	6.90e-06	0	30	0	402653184	38	15223
2026-01-10 21:27:55.25	29.45	5.10	-29.4	-29.8	15.1	0.00e+00	0	30	0	478150656	34	16964
2026-01-10 21:27:56.26	29.57	5.16	-28.7	-29.1	15.4	0.00e+00	0	30	0	553648128	32	17465
2026-01-10 21:27:57.27	29.69	5.23	-28.6	-29.0	15.3	0.00e+00	0	31	0	629145600	32	17342
2026-01-10 21:27:58.28	29.81	5.30	-28.5	-28.9	15.4	0.00e+00	0	30	0	704643072	32	17136
2026-01-10 21:27:59.28	29.93	5.37	-28.8	-29.2	15.2	0.00e+00	0	30	0	780140544	32	17698
2026-01-10 21:28:00.29	30.05	5.44	-28.8	-29.3	15.2	0.00e+00	0	30	0	855638016	32	17827
2026-01-10 21:28:01.30	30.17	5.50	-28.3	-28.8	15.4	0.00e+00	0	30	0	931135488	32	16814
2026-01-10 21:28:02.31	30.29	5.57	-28.6	-29.0	15.3	0.00e+00	0	30	0	1006632960	32	17245
2026-01-10 21:28:03.32	30.41	5.64	-28.3	-28.8	15.4	0.00e+00	0	31	0	1082130432	32	16853
2026-01-10 21:28:04.33	30.54	5.71	-28.5	-28.9	15.3	0.00e+00	0	31	0	1157627904	32	17085
2026-01-10 21:28:05.34	30.66	5.78	-28.7	-29.1	15.2	0.00e+00	0	31	0	1233125376	32	17593
2026-01-10 21:28:06.35	30.79	5.85	-28.6	-29.1	15.1	0.00e+00	0	31	0	1308622848	32	17420
2026-01-10 21:28:07.36	30.92	5.92	-28.2	-28.6	15.4	0.00e+00	0	31	0	1384120320	32	16527
2026-01-10 21:28:08.37	31.04	5.99	-28.4	-28.8	15.4	0.00e+00	0	31	0	1459617792	32	16873
2026-01-10 21:28:09.38	31.17	6.06	-28.3	-28.7	15.4	0.00e+00	0	31	0	1535115264	32	16778
2026-01-10 21:28:10.39	31.30	6.13	-28.3	-28.7	15.5	0.00e+00	0	31	0	1610612736	32	16701
2026-01-10 21:28:11.40	31.43	6.20	-28.7	-29.1	15.4	0.00e+00	0	31	0	1686110208	32	17429
2026-01-10 21:28:12.41	31.56	6.27	-27.7	-28.1	15.7	0.00e+00	0	31	0	1761607680	32	15679
2026-01-10 21:28:13.42	31.69	6.34	-28.3	-28.8	15.5	0.00e+00	0	31	0	1845493760	30	18865
2026-01-10 21:28:14.43	31.82	6.41	-28.1	-28.6	15.6	0.00e+00	0	31	0	1920991232	30	18487
2026-01-10 21:28:15.44	31.95	6.48	-28.3	-28.7	15.5	0.00e+00	0	31	0	1996488704	30	18755
2026-01-10 21:28:16.45	32.09	6.55	-28.3	-28.7	15.6	0.00e+00	0	31	0	2063597568	30	18823
2026-01-10 21:28:17.46	32.22	6.62	-27.8	-28.3	15.8	0.00e+00	0	31	0	2139095040	30	17813
2026-01-10 21:28:18.46	32.35	6.69	-28.0	-28.4	15.7	0.00e+00	0	31	0	2214592512	30	18148
2026-01-10 21:28:19.47	32.49	6.76	-28.1	-28.5	15.7	0.00e+00	0	31	0	2298478592	30	18338
2026-01-10 21:28:20.48	32.62	6.83	-28.0	-28.4	15.7	0.00e+00	0	31	0	2373976064	30	18169
2026-01-10 21:28:21.49	32.76	6.91	-27.7	-28.2	15.8	0.00e+00	0	31	0	2449473536	30	17624
2026-01-10 21:28:22.50	32.90	6.98	-27.7	-28.1	15.8	0.00e+00	0	31	0	2524971008	30	17505
2026-01-10 21:28:23.51	33.04	7.05	-28.0	-28.4	15.7	0.00e+00	0	31	0	2592079872	30	18105
2026-01-10 21:28:24.52	33.18	7.12	-27.7	-28.1	15.8	0.00e+00	0	31	0	2675965952	30	17576
2026-01-10 21:28:25.53	33.32	7.19	-27.8	-28.2	15.8	0.00e+00	0	31	0	2751463424	30	17755
2026-01-10 21:28:26.54	33.46	7.27	-27.7	-28.1	15.8	0.00e+00	0	31	0	2826960896	30	17586
2026-01-10 21:28:27.55	33.60	7.34	-27.7	-28.1	15.8	0.00e+00	0	31	0	2902458368	30	17553
2026-01-10 21:28:28.56	33.74	7.41	-27.9	-28.4	15.6	0.00e+00	0	31	0	2977955840	30	18060
2026-01-10 21:28:29.57	33.89	7.48	-27.7	-28.1	15.7	0.00e+00	0	31	0	3053453312	30	17540
2026-01-10 21:28:30.58	34.03	7.56	-27.8	-28.2	15.7	0.00e+00	0	31	0	3128950784	30	17714
2026-01-10 21:28:31.59	34.18	7.63	-27.5	-27.9	15.7	0.00e+00	0	31	0	3204448256	30	17184
2026-01-10 21:28:32.60	34.32	7.70	-27.6	-28.0	15.8	0.00e+00	0	31	0	3279945728	30	17383
2026-01-10 21:28:33.61	34.47	7.78	-27.8	-28.2	15.8	0.00e+00	0	31	0	3355443200	30	17659
2026-01-10 21:28:34.62	34.62	7.85	-27.4	-27.8	15.8	0.00e+00	0	31	0	3430940672	30	17003
2026-01-10 21:28:35.63	34.77	7.92	-27.5	-28.0	15.8	0.00e+00	0	31	0	3506438144	30	17250
2026-01-10 21:28:36.64	34.92	8.00	-27.4	-27.8	15.8	0.00e+00	0	31	0	3581935616	30	16916
2026-01-10 21:28:37.65	35.07	8.07	-27.2	-27.7	15.9	0.00e+00	0	31	0	3657433088	30	16629
2026-01-10 21:28:38.66	35.22	8.15	-27.5	-27.9	15.8	0.00e+00	0	31	0	3732930560	30	17147
2026-01-10 21:28:39.67	35.37	8.22	-27.5	-28.0	15.8	0.00e+00	0	31	0	3808428032	30	17272
2026-01-10 21:28:40.68	35.53	8.29	-27.2	-27.6	16.0	0.00e+00	0	31	0	3883925504	30	16592
2026-01-10 21:28:41.69	35.68	8.37	-27.3	-27.7	16.0	0.00e+00	0	31	0	3959422976	30	16775
2026-01-10 21:28:42.70	35.84	8.44	-27.3	-27.7	16.0	0.00e+00	0	31	0	4034920448	30	16701
2026-01-10 21:28:43.71	35.99	8.52	-27.2	-27.6	16.0	0.00e+00	0	31	0	4110417920	30	16535
2026-01-10 21:28:44.72	36.15	8.59	-27.1	-27.5	15.9	0.00e+00	0	31	0	4185915392	30	16346
2026-01-10 21:28:45.73	36.31	8.67	-27.1	-27.5	15.8	0.00e+00	0	31	0	4261412864	30	16338
2026-01-10 21:28:46.74	36.47	8.74	-27.1	-27.6	15.8	0.00e+00	0	31	0	4336910336	30	16515
2026-01-10 21:28:47.75	36.63	8.82	-27.1	-27.6	15.8	0.00e+00	0	31	0	4412407808	30	16463
2026-01-10 21:28:48.76	36.79	8.89	-27.1	-27.5	15.7	0.00e+00	0	31	0	4487905280	30	16351
2026-01-10 21:28:49.77	36.95	8.97	-27.1	-27.5	15.8	0.00e+00	0	31	0	4571791360	30	16386
2026-01-10 21:28:50.78	37.12	9.05	-27.0	-27.5	15.7	0.00e+00	0	31	0	4647288832	30	16266
2026-01-10 21:28:51.79	37.28	9.12	-27.0	-27.4	15.8	0.00e+00	0	31	0	4722786304	30	16198
2026-01-10 21:28:52.80	37.45	9.20	-26.9	-27.3	15.9	0.00e+00	0	31	0	4789895168	30	16033
2026-01-10 21:28:53.81	37.61	9.27	-27.0	-27.4	15.8	0.00e+00	0	31	0	4865392640	30	16167
2026-01-10 21:28:54.82	37.78	9.35	-26.9	-27.4	15.8	0.00e+00	0	31	0	4940890112	30	16073
2026-01-10 21:28:55.83	37.95	9.43	-26.9	-27.4	15.8	0.00e+00	0	31	0	5024776192	30	16074
2026-01-10 21:28:56.84	38.12	9.50	-26.9	-27.4	15.9	0.00e+00	0	31	0	5100273664	30	16103
2026-01-10 21:28:57.85	38.29	9.58	-26.8	-27.3	16.0	0.00e+00	0	31	0	5175771136	30	15943
2026-01-10 21:28:58.86	38.46	9.66	-26.8	-27.3	16.0	0.00e+00	0	31	0	5251268608	30	15922
2026-01-10 21:28:59.86	38.63	9.73	-26.8	-27.3	16.0	0.00e+00	0	31	0	5318377472	30	15929
2026-01-10 21:29:00.87	38.81	9.81	-26.8	-27.3	16.1	0.00e+00	0	31	0	5402263552	30	15894
2026-01-10 21:29:01.88	38.98	9.89	-26.8	-27.2	16.2	0.00e+00	0	31	0	5477761024	28	17750
2026-01-10 21:29:02.89	39.16	9.96	-26.6	-27.0	16.1	0.00e+00	0	31	0	5553258496	28	17347
2026-01-10 21:29:03.90	39.33	10.04	-26.7	-27.2	16.0	0.00e+00	0	31	0	5628755968	28	17671
2026-01-10 21:29:04.91	39.51	10.12	-26.5	-27.0	16.1	0.00e+00	0	31	0	5704253440	28	17294
2026-01-10 21:29:05.92	39.69	10.20	-26.6	-27.0	16.0	0.00e+00	0	32	0	5779750912	28	17367
2026-01-10 21:29:06.93	39.87	10.27	-26.6	-27.1	16.0	0.00e+00	0	31	0	5855248384	28	17475
2026-01-10 21:29:07.94	40.05	10.35	-26.5	-27.0	16.1	0.00e+00	0	31	0	5930745856	28	17223
2026-01-10 21:29:08.95	40.24	10.43	-26.6	-27.0	16.1	0.00e+00	0	31	0	6006243328	28	17350
2026-01-10 21:29:09.96	40.42	10.51	-26.5	-26.9	16.2	0.00e+00	0	31	0	6081740800	28	17198
2026-01-10 21:29:10.97	40.61	10.59	-26.4	-26.8	16.2	0.00e+00	0	31	0	6157238272	28	16953
2026-01-10 21:29:11.98	40.79	10.66	-26.5	-26.9	16.2	0.00e+00	0	31	0	6232735744	28	17167
2026-01-10 21:29:12.99	40.98	10.74	-26.5	-26.9	16.1	0.00e+00	0	31	0	6308233216	28	17131
2026-01-10 21:29:14.00	41.17	10.82	-26.3	-26.7	16.2	0.00e+00	0	31	0	6383730688	28	16738
2026-01-10 21:29:15.01	41.36	10.90	-26.5	-26.9	16.2	0.00e+00	0	31	0	6459228160	28	17107
2026-01-10 21:29:16.02	41.55	10.98	-26.3	-26.7	16.3	0.00e+00	0	32	0	6534725632	28	16777
2026-01-10 21:29:17.03	41.74	11.06	-26.2	-26.7	16.3	0.00e+00	0	31	0	6610223104	28	16657
2026-01-10 21:29:18.04	41.94	11.14	-26.2	-26.6	16.2	0.00e+00	0	32	0	6685720576	28	16607
2026-01-10 21:29:19.05	42.13	11.21	-26.3	-26.7	16.1	0.00e+00	0	32	0	6761218048	28	16809
2026-01-10 21:29:20.06	42.33	11.29	-26.2	-26.6	16.1	0.00e+00	0	32	0	6836715520	28	16573
2026-01-10 21:29:21.07	42.53	11.37	-26.2	-26.6	16.1	0.00e+00	0	31	0	6912212992	28	16555
2026-01-10 21:29:22.08	42.73	11.45	-26.1	-26.5	16.1	0.00e+00	0	32	0	6987710464	28	16396
2026-01-10 21:29:23.09	42.93	11.53	-26.3	-26.7	16.0	0.00e+00	0	32	0	7063207936	28	16726
2026-01-10 21:29:24.10	43.13	11.61	-26.1	-26.5	15.8	0.00e+00	0	32	0	7138705408	28	16334
2026-01-10 21:29:25.10	43.33	11.69	-26.0	-26.4	15.7	0.00e+00	0	32	0	7214202880	28	16183
2026-01-10 21:29:26.11	43.53	11.77	-26.0	-26.4	15.8	0.00e+00	0	32	0	7289700352	28	16233
2026-01-10 21:29:27.12	43.74	11.85	-26.0	-26.5	16.0	0.00e+00	0	32	0	7373586432	28	16253
2026-01-10 21:29:28.13	43.94	11.93	-25.9	-26.3	16.2	0.00e+00	0	31	0	7449083904	28	16005
2026-01-10 21:29:29.14	44.15	12.01	-26.0	-26.5	16.3	0.00e+00	0	32	0	7516192768	28	16302
2026-01-10 21:29:30.15	44.36	12.09	-26.0	-26.4	16.3	0.00e+00	0	32	0	7591690240	28	16148
2026-01-10 21:29:31.16	44.57	12.17	-25.9	-26.3	16.3	0.00e+00	0	32	0	7667187712	28	15984
2026-01-10 21:29:32.17	44.78	12.25	-25.9	-26.4	16.3	0.00e+00	0	31	0	7751073792	28	16114
2026-01-10 21:29:33.18	45.00	12.33	-25.9	-26.3	16.4	0.00e+00	0	32	0	7826571264	28	15994
2026-01-10 21:29:34.19	45.21	12.41	-25.9	-26.4	16.3	0.00e+00	0	32	0	7902068736	28	16119
2026-01-10 21:29:35.20	45.43	12.49	-25.8	-26.3	16.4	0.00e+00	0	32	0	7977566208	26	17832
2026-01-10 21:29:36.21	45.64	12.57	-25.9	-26.4	16.1	0.00e+00	0	32	0	8044675072	26	18090
2026-01-10 21:29:37.22	45.86	12.65	-25.8	-26.3	16.1	0.00e+00	0	32	0	8128561152	26	17879
2026-01-10 21:29:38.23	46.08	12.72	-25.7	-26.2	16.1	0.00e+00	0	32	0	8204058624	26	17653
2026-01-10 21:29:39.24	46.31	12.80	-25.8	-26.2	16.2	0.00e+00	0	32	0	8279556096	26	17780
2026-01-10 21:29:40.25	46.53	12.88	-25.7	-26.1	16.3	0.00e+00	0	32	0	8355053568	26	17562
2026-01-10 21:29:41.26	46.75	12.96	-25.7	-26.1	16.2	0.00e+00	0	32	0	8430551040	26	17515
2026-01-10 21:29:42.27	46.98	13.04	-25.7	-26.1	16.1	0.00e+00	0	32	0	8506048512	26	17503
2026-01-10 21:29:43.28	47.21	13.12	-25.6	-26.1	16.0	0.00e+00	0	32	0	8581545984	26	17470
2026-01-10 21:29:44.28	47.43	13.20	-25.6	-26.0	16.3	0.00e+00	0	32	0	8657043456	26	17389
2026-01-10 21:29:45.30	47.67	13.28	-25.7	-26.1	16.2	0.00e+00	0	32	0	8732540928	26	17547
2026-01-10 21:29:46.31	47.90	13.36	-25.6	-26.1	16.5	0.00e+00	0	32	0	8808038400	26	17508
2026-01-10 21:29:47.32	48.13	13.44	-25.6	-26.0	16.5	0.00e+00	0	32	0	8883535872	26	17310
2026-01-10 21:29:48.33	48.36	13.52	-25.7	-26.2	16.4	0.00e+00	0	32	0	8959033344	26	17641
2026-01-10 21:29:49.34	48.60	13.60	-25.5	-25.9	16.5	0.00e+00	0	32	0	9034530816	26	17107
2026-01-10 21:29:50.35	48.84	13.68	-25.5	-25.9	16.4	0.00e+00	0	32	0	9110028288	26	17087
2026-01-10 21:29:51.36	49.08	13.76	-25.4	-25.9	16.4	0.00e+00	0	32	0	9185525760	26	17109
2026-01-10 21:29:52.37	49.32	13.84	-25.5	-25.9	16.4	0.00e+00	0	32	0	9261023232	26	17200
2026-01-10 21:29:53.38	49.56	13.92	-25.4	-25.9	16.3	0.00e+00	0	32	0	9336520704	26	17064
2026-01-10 21:29:54.39	49.80	14.00	-25.6	-26.0	16.0	0.00e+00	0	32	0	9412018176	26	17281
2026-01-10 21:29:55.40	50.05	14.08	-25.5	-25.9	15.7	0.00e+00	0	32	0	9487515648	26	17129
2026-01-10 21:29:56.40	50.29	14.16	-25.2	-25.7	15.8	0.00e+00	0	32	0	9563013120	26	16646
2026-01-10 21:29:57.42	50.54	14.24	-25.3	-25.7	15.8	0.00e+00	0	32	0	9638510592	26	16733
2026-01-10 21:29:58.42	50.79	14.32	-25.2	-25.7	15.6	0.00e+00	0	32	0	9714008064	26	16630
2026-01-10 21:29:59.43	51.04	14.39	-25.4	-25.8	15.6	0.00e+00	0	32	0	9789505536	26	16998
2026-01-10 21:30:00.45	51.30	14.47	-25.2	-25.6	15.5	0.00e+00	0	32	0	9865003008	26	16588
2026-01-10 21:30:01.46	51.55	14.55	-25.1	-25.6	15.5	0.00e+00	0	32	0	9940500480	26	16456
2026-01-10 21:30:02.47	51.81	14.63	-25.1	-25.5	15.5	0.00e+00	0	32	0	10024386560	26	16401
2026-01-10 21:30:03.48	52.07	14.71	-25.1	-25.6	15.6	0.00e+00	0	32	0	10099884032	26	16506
2026-01-10 21:30:04.49	52.33	14.79	-25.0	-25.4	15.5	0.00e+00	0	32	0	10166992896	26	16214
2026-01-10 21:30:05.50	52.59	14.87	-25.0	-25.4	15.8	0.00e+00	0	32	0	10242490368	26	16196
2026-01-10 21:30:06.51	52.85	14.94	-25.0	-25.4	15.9	0.00e+00	0	32	0	10317987840	26	16186
2026-01-10 21:30:07.52	53.11	15.02	-25.0	-25.5	16.2	0.00e+00	0	32	0	10401873920	26	16326
2026-01-10 21:30:08.53	53.38	15.10	-25.0	-25.5	16.1	0.00e+00	0	32	0	10477371392	26	16300
2026-01-10 21:30:09.54	53.65	15.18	-24.9	-25.3	16.4	0.00e+00	0	32	0	10552868864	26	16006
2026-01-10 21:30:10.55	53.91	15.25	-25.0	-25.5	16.4	0.00e+00	0	32	0	10628366336	26	16254
2026-01-10 21:30:11.56	54.18	15.33	-24.9	-25.4	16.3	0.00e+00	0	32	0	10703863808	26	16132
2026-01-10 21:30:12.57	54.46	15.41	-24.9	-25.4	16.3	0.00e+00	0	32	0	10770972672	26	16142
2026-01-10 21:30:13.58	54.73	15.48	-24.8	-25.3	16.4	0.00e+00	0	32	0	10854858752	26	15948
2026-01-10 21:30:14.59	55.01	15.56	-24.8	-25.2	16.5	0.00e+00	0	32	0	10930356224	26	15865
2026-01-10 21:30:15.60	55.28	15.64	-24.7	-25.2	16.6	0.00e+00	0	32	0	11005853696	26	15795
2026-01-10 21:30:16.61	55.56	15.71	-24.8	-25.2	16.4	0.00e+00	0	32	0	11081351168	24	17767
2026-01-10 21:30:17.62	55.84	15.79	-24.8	-25.3	16.4	0.00e+00	0	32	0	11156848640	24	17810
2026-01-10 21:30:18.63	56.12	15.86	-24.8	-25.3	16.5	0.00e+00	0	32	0	11232346112	24	17832
2026-01-10 21:30:19.64	56.41	15.94	-24.7	-25.1	16.6	0.00e+00	0	32	0	11307843584	24	17584
2026-01-10 21:30:20.65	56.69	16.01	-24.7	-25.1	16.6	0.00e+00	0	32	0	11383341056	24	17578
2026-01-10 21:30:21.66	56.98	16.09	-24.7	-25.2	16.6	0.00e+00	0	32	0	11458838528	24	17659
2026-01-10 21:30:22.67	57.27	16.16	-24.8	-25.2	16.5	0.00e+00	0	32	0	11534336000	24	17792
2026-01-10 21:30:23.68	57.56	16.23	-24.9	-25.4	16.6	0.00e+00	0	32	0	11609833472	24	18063
2026-01-10 21:30:24.69	57.85	16.31	-24.7	-25.2	16.5	0.00e+00	0	32	0	11685330944	24	17643
2026-01-10 21:30:25.70	58.14	16.38	-24.5	-25.0	16.7	0.00e+00	0	32	0	11760828416	24	17223
2026-01-10 21:30:26.71	58.44	16.45	-24.5	-25.0	16.5	0.00e+00	0	32	0	11836325888	24	17293
2026-01-10 21:30:27.72	58.73	16.53	-24.6	-25.0	16.3	0.00e+00	0	32	0	11911823360	24	17329
2026-01-10 21:30:28.73	59.03	16.60	-24.5	-25.0	16.1	0.00e+00	0	32	0	11987320832	24	17224
2026-01-10 21:30:29.74	59.33	16.67	-24.4	-24.9	16.3	0.00e+00	0	32	0	12062818304	24	17043
2026-01-10 21:30:30.75	59.63	16.74	-24.6	-25.1	16.5	0.00e+00	0	32	0	12138315776	24	17437
2026-01-10 21:30:31.76	59.94	16.81	-24.5	-24.9	16.6	0.00e+00	0	32	0	12213813248	24	17199
2026-01-10 21:30:32.77	60.24	16.88	-24.5	-24.9	16.6	0.00e+00	0	32	0	12297699328	24	17113
2026-01-10 21:30:33.78	60.55	16.95	-24.4	-24.9	16.2	0.00e+00	0	32	0	12364808192	24	17061
2026-01-10 21:30:34.79	60.86	17.02	-24.4	-24.9	16.1	0.00e+00	0	32	0	12440305664	24	17061
2026-01-10 21:30:35.80	61.17	17.09	-24.3	-24.8	16.0	0.00e+00	0	32	0	12515803136	24	16892
2026-01-10 21:30:36.81	61.48	17.16	-24.5	-24.9	16.1	0.00e+00	0	32	0	12591300608	24	17150
2026-01-10 21:30:37.82	61.79	17.23	-24.3	-24.8	16.5	0.00e+00	0	32	0	12675186688	24	16841
2026-01-10 21:30:38.83	62.10	17.29	-24.5	-24.9	16.6	0.00e+00	0	32	0	12750684160	24	17176
2026-01-10 21:30:39.84	62.42	17.36	-24.4	-24.9	16.7	0.00e+00	0	32	0	12826181632	24	17007
2026-01-10 21:30:40.85	62.74	17.43	-24.3	-24.8	16.7	0.00e+00	0	32	0	12893290496	24	16821
2026-01-10 21:30:41.86	63.06	17.49	-24.4	-24.8	16.7	0.00e+00	0	32	0	12968787968	24	16980
2026-01-10 21:30:42.87	63.38	17.56	-24.3	-24.8	16.7	0.00e+00	0	32	0	13052674048	24	16810
2026-01-10 21:30:43.88	63.70	17.62	-24.4	-24.8	16.7	0.00e+00	0	32	0	13128171520	24	16935
2026-01-10 21:30:44.89	64.03	17.69	-24.2	-24.7	16.7	0.00e+00	0	32	0	13203668992	24	16667
2026-01-10 21:30:45.90	64.35	17.75	-24.2	-24.7	16.7	0.00e+00	0	32	0	13279166464	24	16696
2026-01-10 21:30:46.91	64.68	17.81	-24.3	-24.7	16.6	0.00e+00	0	32	0	13354663936	24	16740
2026-01-10 21:30:47.92	65.01	17.88	-24.2	-24.6	16.6	0.00e+00	0	32	0	13430161408	24	16591
2026-01-10 21:30:48.93	65.34	17.94	-24.2	-24.6	16.7	0.00e+00	0	32	0	13505658880	24	16546
2026-01-10 21:30:49.94	65.67	18.00	-24.2	-24.6	16.6	0.00e+00	0	32	0	13581156352	24	16562
2026-01-10 21:30:50.95	66.00	18.06	-24.1	-24.5	16.4	0.00e+00	0	32	0	13656653824	24	16369
2026-01-10 21:30:51.96	66.34	18.12	-24.1	-24.5	15.9	0.00e+00	0	32	0	13732151296	24	16383
2026-01-10 21:30:52.97	66.67	18.18	-24.1	-24.5	16.2	0.00e+00	0	32	0	13807648768	24	16353
2026-01-10 21:30:53.98	67.01	18.24	-24.1	-24.5	16.6	0.00e+00	0	32	0	13883146240	24	16347
2026-01-10 21:30:54.99	67.35	18.30	-24.0	-24.5	16.7	0.00e+00	0	32	0	13958643712	24	16282
2026-01-10 21:30:56.00	67.69	18.35	-24.0	-24.5	16.7	0.00e+00	0	32	0	14034141184	24	16297
2026-01-10 21:30:57.00	68.03	18.41	-24.0	-24.5	16.7	0.00e+00	0	32	0	14109638656	24	16272
2026-01-10 21:30:58.01	68.38	18.47	-24.0	-24.5	16.7	0.00e+00	0	32	0	14185136128	24	16251
2026-01-10 21:30:59.02	68.72	18.52	-23.9	-24.4	16.7	0.00e+00	0	32	0	14260633600	24	16118
2026-01-10 21:31:00.04	69.07	18.58	-24.0	-24.4	16.7	0.00e+00	0	32	0	14336131072	24	16234
2026-01-10 21:31:01.04	69.42	18.63	-24.0	-24.5	16.7	0.00e+00	0	32	0	14411628544	24	16269
2026-01-10 21:31:02.05	69.77	18.68	-24.1	-24.5	16.6	0.00e+00	0	32	0	14487126016	24	16369
2026-01-10 21:31:03.06	70.12	18.73	-23.9	-24.4	16.6	0.00e+00	0	32	0	14562623488	24	16077
2026-01-10 21:31:04.08	70.47	18.78	-24.1	-24.5	16.8	0.00e+00	0	32	0	14638120960	24	16376
2026-01-10 21:31:05.09	70.83	18.83	-23.9	-24.4	16.8	0.00e+00	0	32	0	14713618432	24	16095
2026-01-10 21:31:06.09	71.18	18.88	-24.1	-24.5	16.5	0.00e+00	0	32	0	14789115904	24	16338
2026-01-10 21:31:07.10	71.53	18.93	-23.9	-24.3	16.3	0.00e+00	0	32	0	14864613376	24	15955
2026-01-10 21:31:08.11	71.89	18.98	-23.9	-24.4	16.2	0.00e+00	0	32	0	14940110848	24	16125
2026-01-10 21:31:09.12	72.25	19.03	-23.9	-24.4	16.4	0.00e+00	0	32	0	15023996928	24	16058
2026-01-10 21:31:10.13	72.61	19.07	-24.0	-24.5	16.3	0.00e+00	0	32	0	15091105792	24	16272
2026-01-10 21:31:11.14	72.97	19.12	-24.1	-24.5	16.6	0.00e+00	0	32	0	15166603264	24	16374
2026-01-10 21:31:12.15	73.33	19.16	-24.2	-24.7	16.6	0.00e+00	0	32	0	15242100736	24	16690
2026-01-10 21:31:13.15	73.69	19.20	-23.8	-24.2	16.7	0.00e+00	0	32	0	15317598208	24	15860
2026-01-10 21:31:14.16	74.06	19.25	-23.8	-24.3	16.7	0.00e+00	0	32	0	15393095680	22	17812
2026-01-10 21:31:15.17	74.42	19.29	-23.8	-24.2	16.7	0.00e+00	0	33	0	15476981760	22	17688
2026-01-10 21:31:16.18	74.79	19.33	-23.9	-24.3	16.8	0.00e+00	0	32	0	15552479232	22	17956
2026-01-10 21:31:17.19	75.16	19.37	-24.0	-24.5	16.8	0.00e+00	0	32	0	15619588096	22	18224
2026-01-10 21:31:18.20	75.53	19.41	-23.8	-24.2	16.8	0.00e+00	0	32	0	15695085568	22	17758
2026-01-10 21:31:19.21	75.90	19.44	-23.9	-24.4	16.7	0.00e+00	0	32	0	15770583040	22	18013
2026-01-10 21:31:20.22	76.27	19.48	-23.8	-24.2	16.8	0.00e+00	0	32	0	15846080512	22	17705
2026-01-10 21:31:21.23	76.64	19.52	-23.7	-24.2	16.7	0.00e+00	0	32	0	15929966592	22	17647
2026-01-10 21:31:22.24	77.02	19.55	-23.7	-24.2	16.7	0.00e+00	0	32	0	16005464064	22	17689
2026-01-10 21:31:23.25	77.39	19.58	-23.7	-24.2	16.8	0.00e+00	0	32	0	16080961536	22	17676
2026-01-10 21:31:24.26	77.77	19.62	-23.8	-24.2	16.8	0.00e+00	0	32	0	16156459008	22	17726
2026-01-10 21:31:25.26	78.14	19.65	-23.6	-24.1	16.8	0.00e+00	0	32	0	16223567872	22	17420
2026-01-10 21:31:26.28	78.52	19.68	-23.8	-24.2	16.5	0.00e+00	0	32	0	16307453952	22	17705
2026-01-10 21:31:27.28	78.89	19.71	-23.7	-24.1	16.4	0.00e+00	0	32	0	16382951424	22	17533
2026-01-10 21:31:28.29	79.27	19.74	-23.6	-24.1	16.5	0.00e+00	0	33	0	16458448896	22	17418
2026-01-10 21:31:29.31	79.65	19.76	-23.7	-24.2	16.5	0.00e+00	0	33	0	16533946368	22	17675
2026-01-10 21:31:30.32	80.03	19.79	-23.7	-24.1	16.6	0.00e+00	0	32	0	16609443840	22	17592
2026-01-10 21:31:31.33	80.41	19.81	-23.7	-24.1	16.8	0.00e+00	0	32	0	16684941312	22	17600
2026-01-10 21:31:32.34	80.80	19.84	-23.6	-24.0	16.9	0.00e+00	0	32	0	16760438784	22	17344
2026-01-10 21:31:33.34	81.17	19.86	-23.6	-24.1	16.8	0.00e+00	0	32	0	16835936256	22	17432
2026-01-10 21:31:34.36	81.56	19.88	-23.7	-24.1	16.9	0.00e+00	0	32	0	16911433728	22	17591
2026-01-10 21:31:35.37	81.94	19.90	-23.6	-24.1	16.8	0.00e+00	0	32	0	16986931200	22	17479
2026-01-10 21:31:36.37	82.32	19.92	-23.6	-24.1	16.9	0.00e+00	0	33	0	17062428672	22	17459
2026-01-10 21:31:37.39	82.71	19.94	-23.7	-24.1	16.8	0.00e+00	0	33	0	17137926144	22	17517
2026-01-10 21:31:38.39	83.09	19.96	-23.5	-23.9	16.8	0.00e+00	0	33	0	17213423616	22	17159
2026-01-10 21:31:39.40	83.48	19.97	-23.6	-24.0	16.8	0.00e+00	0	33	0	17288921088	22	17323
2026-01-10 21:31:40.42	83.87	19.99	-23.6	-24.0	16.8	0.00e+00	0	33	0	17364418560	22	17339
2026-01-10 21:31:41.43	84.25	20.00	-24.1	-24.5	16.7	0.00e+00	0	32	0	17439916032	22	18426
2026-01-10 21:31:42.44	84.64	20.01	-23.7	-24.2	16.7	0.00e+00	0	32	0	17515413504	22	17621
2026-01-10 21:31:43.45	85.03	20.02	-23.5	-24.0	16.6	0.00e+00	0	32	0	17590910976	22	17209
2026-01-10 21:31:44.46	85.42	20.03	-23.6	-24.1	16.5	0.00e+00	0	33	0	17666408448	22	17448
2026-01-10 21:31:45.47	85.80	20.04	-23.6	-24.1	16.8	0.00e+00	0	33	0	17750294528	22	17466
2026-01-10 21:31:46.48	86.19	20.05	-23.7	-24.1	16.8	0.00e+00	0	32	0	17817403392	22	17580
2026-01-10 21:31:47.49	86.58	20.06	-23.5	-24.0	16.8	0.00e+00	0	33	0	17892900864	22	17287
2026-01-10 21:31:48.50	86.97	20.06	-23.6	-24.0	16.9	0.00e+00	0	32	0	17968398336	22	17368
2026-01-10 21:31:49.51	87.36	20.07	-23.5	-23.9	16.7	0.00e+00	0	33	0	18043895808	22	17189
2026-01-10 21:31:50.52	87.74	20.07	-23.5	-23.9	16.9	0.00e+00	0	32	0	18127781888	22	17192
2026-01-10 21:31:51.53	88.13	20.07	-23.5	-23.9	16.8	0.00e+00	0	33	0	18203279360	22	17166
2026-01-10 21:31:52.54	88.52	20.07	-23.6	-24.0	16.8	0.00e+00	0	32	0	18278776832	22	17321
2026-01-10 21:31:53.55	88.91	20.07	-23.6	-24.1	16.8	0.00e+00	0	33	0	18345885696	22	17402
2026-01-10 21:31:54.56	89.30	20.07	-23.5	-23.9	16.9	0.00e+00	0	33	0	18421383168	22	17123
2026-01-10 21:31:55.57	89.69	20.07	-23.6	-24.1	16.9	0.00e+00	0	32	0	18505269248	22	17462
2026-01-10 21:31:56.58	90.08	20.06	-23.6	-24.0	16.8	0.00e+00	0	33	0	18580766720	22	17281
2026-01-10 21:31:57.59	90.46	20.06	-23.5	-24.0	16.8	0.00e+00	0	33	0	18656264192	22	17257
2026-01-10 21:31:58.60	90.85	20.05	-23.6	-24.0	16.9	0.00e+00	0	33	0	18731761664	22	17346
2026-01-10 21:31:59.61	91.24	20.04	-23.6	-24.0	16.8	0.00e+00	0	33	0	18807259136	22	17377
2026-01-10 21:32:00.62	91.63	20.04	-23.6	-24.0	16.8	0.00e+00	0	33	0	18882756608	22	17393
2026-01-10 21:32:01.63	92.01	20.03	-23.6	-24.0	16.8	0.00e+00	0	33	0	18958254080	22	17310
2026-01-10 21:32:02.64	92.40	20.02	-23.6	-24.1	16.8	0.00e+00	0	33	0	19033751552	22	17453
2026-01-10 21:32:03.65	92.79	20.00	-23.5	-23.9	16.8	0.00e+00	0	32	0	19109249024	22	17169
2026-01-10 21:32:04.66	93.18	19.99	-23.5	-24.0	16.8	0.00e+00	0	33	0	19184746496	22	17230
2026-01-10 21:32:05.67	93.56	19.97	-23.6	-24.1	16.8	0.00e+00	0	33	0	19260243968	22	17481
2026-01-10 21:32:06.68	93.95	19.96	-23.7	-24.1	16.9	0.00e+00	0	33	0	19335741440	22	17594
2026-01-10 21:32:07.69	94.33	19.94	-24.0	-24.5	16.7	0.00e+00	0	33	0	19411238912	22	18263
2026-01-10 21:32:08.70	94.72	19.92	-23.9	-24.3	16.7	0.00e+00	0	33	0	19486736384	22	17920
2026-01-10 21:32:09.71	95.10	19.91	-24.0	-24.4	16.8	0.00e+00	0	33	0	19562233856	22	18205
2026-01-10 21:32:10.72	95.48	19.88	-23.7	-24.2	16.8	0.00e+00	0	33	0	19637731328	22	17635
2026-01-10 21:32:11.73	95.87	19.86	-23.8	-24.3	16.8	0.00e+00	0	33	0	19713228800	22	17847
2026-01-10 21:32:12.74	96.25	19.84	-23.9	-24.3	16.7	0.00e+00	0	33	0	19788726272	22	18000
2026-01-10 21:32:13.75	96.63	19.82	-23.7	-24.2	16.9	0.00e+00	0	33	0	19864223744	22	17652
2026-01-10 21:32:14.76	97.01	19.79	-23.8	-24.3	16.8	0.00e+00	0	33	0	19939721216	22	17855
2026-01-10 21:32:15.77	97.39	19.77	-23.8	-24.2	16.8	0.00e+00	0	33	0	20015218688	22	17778
2026-01-10 21:32:16.78	97.77	19.74	-23.7	-24.1	16.7	0.00e+00	0	33	0	20090716160	22	17595
2026-01-10 21:32:17.79	98.15	19.71	-23.8	-24.3	16.6	0.00e+00	0	33	0	20166213632	22	17810
2026-01-10 21:32:18.80	98.53	19.68	-23.6	-24.1	16.7	0.00e+00	0	33	0	20241711104	22	17454
2026-01-10 21:32:19.81	98.91	19.65	-23.7	-24.1	16.7	0.00e+00	0	33	0	20317208576	22	17502
2026-01-10 21:32:20.82	99.28	19.62	-23.6	-24.1	16.8	0.00e+00	0	33	0	20401094656	22	17512
2026-01-10 21:32:21.83	99.66	19.59	-23.6	-24.1	16.8	0.00e+00	0	33	0	20476592128	22	17434
2026-01-10 21:32:22.84	100.04	19.56	-23.7	-24.2	16.9	0.00e+00	0	33	0	20543700992	22	17647
2026-01-10 21:32:23.85	100.41	19.52	-23.8	-24.2	16.8	0.00e+00	0	33	0	20619198464	22	17734
2026-01-10 21:32:24.86	100.78	19.49	-23.9	-24.4	16.8	0.00e+00	0	33	0	20694695936	22	18027
2026-01-10 21:32:25.87	101.15	19.45	-23.6	-24.1	16.9	0.00e+00	0	33	0	20778582016	22	17458
2026-01-10 21:32:26.88	101.52	19.41	-23.8	-24.2	16.8	0.00e+00	0	33	0	20854079488	22	17685
2026-01-10 21:32:27.89	101.89	19.37	-23.7	-24.2	16.8	0.00e+00	0	33	0	20929576960	22	17686
2026-01-10 21:32:28.90	102.26	19.33	-23.8	-24.3	16.8	0.00e+00	0	33	0	21005074432	22	17930
2026-01-10 21:32:29.91	102.63	19.29	-23.8	-24.3	16.7	0.00e+00	0	33	0	21072183296	22	17919
2026-01-10 21:32:30.92	103.00	19.25	-23.8	-24.3	16.8	0.00e+00	0	33	0	21156069376	22	17857
2026-01-10 21:32:31.93	103.36	19.21	-23.8	-24.3	16.8	0.00e+00	0	33	0	21231566848	22	17925
2026-01-10 21:32:32.94	103.73	19.17	-23.9	-24.3	16.8	0.00e+00	0	33	0	21307064320	22	17975
2026-01-10 21:32:33.95	104.09	19.12	-24.0	-24.4	16.8	0.00e+00	0	33	0	21382561792	22	18173
2026-01-10 21:32:34.96	104.45	19.08	-24.0	-24.4	16.8	0.00e+00	0	33	0	21458059264	22	18128
2026-01-10 21:32:35.97	104.81	19.03	-23.8	-24.2	16.8	0.00e+00	0	33	0	21533556736	22	17777
2026-01-10 21:32:36.98	105.17	18.98	-23.9	-24.3	16.9	0.00e+00	0	33	0	21609054208	22	17937
2026-01-10 21:32:37.99	105.53	18.94	-23.8	-24.3	16.8	0.00e+00	0	33	0	21684551680	22	17832
2026-01-10 21:32:39.00	105.89	18.89	-23.9	-24.4	16.9	0.00e+00	0	33	0	21760049152	22	18047
2026-01-10 21:32:40.01	106.24	18.84	-24.1	-24.5	16.8	0.00e+00	0	33	0	21835546624	22	18405
2026-01-10 21:32:41.01	106.59	18.79	-24.0	-24.5	16.8	0.00e+00	0	33	0	21911044096	22	18323
2026-01-10 21:32:42.03	106.95	18.74	-24.2	-24.7	16.8	0.00e+00	0	33	0	21986541568	22	18688
2026-01-10 21:32:43.04	107.30	18.69	-24.2	-24.7	16.7	0.00e+00	0	33	0	22062039040	22	18740
2026-01-10 21:32:44.05	107.65	18.63	-24.4	-24.9	16.8	0.00e+00	0	33	0	22137536512	22	19101
2026-01-10 21:32:45.06	108.00	18.58	-24.3	-24.8	16.7	0.00e+00	0	33	0	22213033984	22	18920
2026-01-10 21:32:46.06	108.35	18.53	-24.0	-24.5	16.8	0.00e+00	0	33	0	22288531456	22	18264
2026-01-10 21:32:47.08	108.70	18.47	-24.0	-24.5	16.8	0.00e+00	0	33	0	22364028928	22	18255
2026-01-10 21:32:48.09	109.04	18.41	-24.0	-24.5	16.8	0.00e+00	0	33	0	22439526400	22	18243
2026-01-10 21:32:49.10	109.38	18.36	-24.0	-24.5	16.8	0.00e+00	0	33	0	22515023872	22	18275
2026-01-10 21:32:50.10	109.72	18.30	-24.1	-24.6	16.8	0.00e+00	0	33	0	22590521344	22	18492
2026-01-10 21:32:51.11	110.06	18.24	-24.0	-24.5	16.8	0.00e+00	0	33	0	22666018816	22	18243
2026-01-10 21:32:52.12	110.40	18.18	-24.1	-24.6	16.7	0.00e+00	0	33	0	22741516288	22	18436
2026-01-10 21:32:53.13	110.74	18.13	-24.1	-24.5	16.8	0.00e+00	0	33	0	22817013760	22	18380
2026-01-10 21:32:54.14	111.07	18.07	-24.3	-24.7	16.7	0.00e+00	0	33	0	22892511232	22	18795
2026-01-10 21:32:55.15	111.41	18.00	-24.2	-24.6	16.8	0.00e+00	0	33	0	22968008704	22	18596
2026-01-10 21:32:56.16	111.74	17.94	-24.1	-24.6	16.8	0.00e+00	0	33	0	23043506176	22	18542
2026-01-10 21:32:57.17	112.07	17.88	-24.4	-24.8	16.7	0.00e+00	0	33	0	23119003648	22	19073
2026-01-10 21:32:58.18	112.40	17.82	-24.1	-24.6	16.8	0.00e+00	0	33	0	23194501120	22	18446
2026-01-10 21:32:59.19	112.73	17.76	-24.3	-24.7	16.8	0.00e+00	0	33	0	23269998592	22	18796
2026-01-10 21:33:00.20	113.06	17.69	-24.2	-24.6	16.8	0.00e+00	0	33	0	23345496064	22	18639
2026-01-10 21:33:01.20	113.38	17.63	-24.2	-24.7	16.8	0.00e+00	0	33	0	23420993536	22	18648
2026-01-10 21:33:02.21	113.70	17.56	-24.2	-24.6	16.8	0.00e+00	0	33	0	23496491008	22	18586
2026-01-10 21:33:03.22	114.03	17.50	-24.2	-24.7	16.8	0.00e+00	0	33	0	23580377088	22	18756
2026-01-10 21:33:04.23	114.35	17.43	-24.3	-24.8	16.8	0.00e+00	0	33	0	23655874560	22	18925
2026-01-10 21:33:05.24	114.66	17.36	-24.4	-24.9	16.8	0.00e+00	0	33	0	23731372032	22	19146
2026-01-10 21:33:06.25	114.98	17.30	-24.3	-24.7	16.8	0.00e+00	0	33	0	23798480896	22	18856
2026-01-10 21:33:07.26	115.30	17.23	-24.4	-24.8	16.7	0.00e+00	0	33	0	23873978368	22	19032
2026-01-10 21:33:08.27	115.61	17.16	-24.3	-24.8	16.7	0.00e+00	0	33	0	23957864448	22	18915
2026-01-10 21:33:09.28	115.92	17.09	-24.4	-24.9	16.7	0.00e+00	0	33	0	24033361920	22	19121
2026-01-10 21:33:10.29	116.23	17.02	-24.4	-24.9	16.8	0.00e+00	0	33	0	24108859392	22	19128
2026-01-10 21:33:11.30	116.54	16.95	-24.6	-25.0	16.7	0.00e+00	0	33	0	24184356864	22	19477
2026-01-10 21:33:12.31	116.85	16.88	-24.5	-25.0	16.7	0.00e+00	0	33	0	24259854336	22	19334
2026-01-10 21:33:13.32	117.16	16.81	-24.5	-24.9	16.7	0.00e+00	0	33	0	24335351808	22	19267
2026-01-10 21:33:14.33	117.46	16.74	-24.4	-24.9	16.7	0.00e+00	0	33	0	24410849280	22	19206
2026-01-10 21:33:15.34	117.76	16.67	-24.5	-25.0	16.7	0.00e+00	0	33	0	24486346752	22	19416
2026-01-10 21:33:16.35	118.06	16.60	-24.6	-25.0	16.7	0.00e+00	0	33	0	24561844224	22	19477
2026-01-10 21:33:17.36	118.36	16.53	-24.6	-25.1	16.7	0.00e+00	0	33	0	24637341696	22	19573
2026-01-10 21:33:18.37	118.66	16.45	-24.6	-25.1	16.7	0.00e+00	0	33	0	24712839168	22	19657
2026-01-10 21:33:19.38	118.96	16.38	-24.7	-25.1	16.7	0.00e+00	0	33	0	24788336640	22	19740
2026-01-10 21:33:20.39	119.25	16.31	-24.7	-25.1	16.7	0.00e+00	0	33	0	24863834112	24	17541
2026-01-10 21:33:21.40	119.54	16.23	-24.7	-25.1	16.7	0.00e+00	0	33	0	24939331584	24	17543
2026-01-10 21:33:22.41	119.83	16.16	-24.6	-25.0	16.8	0.00e+00	0	33	0	25014829056	24	17394
2026-01-10 21:33:23.42	120.12	16.09	-24.7	-25.1	16.7	0.00e+00	0	33	0	25090326528	24	17562
2026-01-10 21:33:24.43	120.41	16.01	-24.8	-25.3	16.6	0.00e+00	0	33	0	25165824000	24	17864
2026-01-10 21:33:25.44	120.70	15.94	-24.7	-25.2	16.7	0.00e+00	0	33	0	25241321472	24	17713
2026-01-10 21:33:26.45	120.98	15.86	-24.8	-25.3	16.7	0.00e+00	0	33	0	25316818944	24	17877
2026-01-10 21:33:27.46	121.26	15.79	-24.9	-25.3	16.7	0.00e+00	0	33	0	25392316416	24	17984
2026-01-10 21:33:28.47	121.55	15.71	-24.8	-25.3	16.7	0.00e+00	0	33	0	25467813888	24	17860
2026-01-10 21:33:29.48	121.83	15.63	-24.9	-25.4	16.7	0.00e+00	0	33	0	25543311360	24	18066
2026-01-10 21:33:30.49	122.10	15.56	-24.9	-25.4	16.6	0.00e+00	0	33	0	25618808832	24	18026
2026-01-10 21:33:31.50	122.38	15.48	-24.9	-25.3	16.6	0.00e+00	0	33	0	25694306304	24	17942
2026-01-10 21:33:32.51	122.65	15.40	-25.0	-25.4	16.6	0.00e+00	0	33	0	25769803776	24	18176
2026-01-10 21:33:33.52	122.93	15.33	-24.9	-25.3	16.7	0.00e+00	0	33	0	25853689856	24	17938
2026-01-10 21:33:34.53	123.20	15.25	-24.8	-25.3	16.7	0.00e+00	0	33	0	25920798720	24	17911
2026-01-10 21:33:35.54	123.47	15.17	-25.0	-25.4	16.6	0.00e+00	0	33	0	25996296192	24	18191
2026-01-10 21:33:36.54	123.73	15.10	-24.9	-25.4	16.7	0.00e+00	0	33	0	26071793664	24	18080
2026-01-10 21:33:37.55	124.00	15.02	-25.0	-25.4	16.6	0.00e+00	0	33	0	26147291136	24	18191
2026-01-10 21:33:38.56	124.26	14.94	-25.1	-25.6	16.6	0.00e+00	0	33	0	26222788608	24	18463
2026-01-10 21:33:39.57	124.53	14.86	-25.0	-25.4	16.6	0.00e+00	0	33	0	26306674688	24	18186
2026-01-10 21:33:40.58	124.79	14.78	-25.1	-25.5	16.6	0.00e+00	0	33	0	26382172160	24	18388
2026-01-10 21:33:41.59	125.05	14.70	-25.2	-25.7	16.6	0.00e+00	0	33	0	26457669632	24	18712
2026-01-10 21:33:42.60	125.31	14.63	-25.1	-25.6	16.6	0.00e+00	0	33	0	26524778496	24	18480
2026-01-10 21:33:43.61	125.56	14.55	-25.2	-25.6	16.6	0.00e+00	0	33	0	26600275968	24	18579
2026-01-10 21:33:44.61	125.82	14.47	-25.2	-25.6	16.6	0.00e+00	0	33	0	26675773440	24	18565
2026-01-10 21:33:45.62	126.07	14.39	-25.2	-25.7	16.6	0.00e+00	0	33	0	26759659520	24	18675
2026-01-10 21:33:46.64	126.33	14.31	-25.3	-25.7	16.5	0.00e+00	0	33	0	26835156992	24	18839
2026-01-10 21:33:47.65	126.58	14.23	-25.2	-25.7	16.6	0.00e+00	0	33	0	26910654464	24	18670
2026-01-10 21:33:48.65	126.82	14.15	-25.3	-25.8	16.5	0.00e+00	0	33	0	26986151936	24	18905
2026-01-10 21:33:49.67	127.07	14.07	-25.3	-25.8	16.6	0.00e+00	0	33	0	27053260800	24	18866
2026-01-10 21:33:50.68	127.32	13.99	-25.3	-25.8	16.6	0.00e+00	0	33	0	27137146880	24	18865
2026-01-10 21:33:51.69	127.56	13.91	-25.4	-25.9	16.5	0.00e+00	0	33	0	27212644352	24	19165
2026-01-10 21:33:52.70	127.81	13.83	-25.4	-25.9	16.6	0.00e+00	0	33	0	27288141824	24	19172
2026-01-10 21:33:53.71	128.05	13.75	-25.4	-25.9	16.6	0.00e+00	0	33	0	27363639296	24	19111
2026-01-10 21:33:54.72	128.29	13.67	-25.4	-25.9	16.5	0.00e+00	0	33	0	27439136768	24	19111
2026-01-10 21:33:55.73	128.53	13.59	-25.3	-25.8	16.6	0.00e+00	0	33	0	27514634240	24	18982
2026-01-10 21:33:56.74	128.76	13.51	-25.5	-26.0	16.5	0.00e+00	0	33	0	27590131712	24	19316
2026-01-10 21:33:57.75	129.00	13.43	-25.6	-26.0	16.5	0.00e+00	0	33	0	27665629184	24	19474
2026-01-10 21:33:58.76	129.23	13.35	-25.5	-26.0	16.4	0.00e+00	0	33	0	27741126656	24	19357
2026-01-10 21:33:59.77	129.46	13.27	-25.5	-26.0	16.6	0.00e+00	0	33	0	27816624128	24	19373
2026-01-10 21:34:00.78	129.70	13.19	-25.6	-26.1	16.5	0.00e+00	0	33	0	27892121600	24	19659
2026-01-10 21:34:01.78	129.92	13.11	-25.7	-26.2	16.5	0.00e+00	0	33	0	27967619072	24	19847
2026-01-10 21:34:02.79	130.15	13.03	-25.6	-26.1	16.5	0.00e+00	0	33	0	28043116544	26	17491
2026-01-10 21:34:03.81	130.38	12.95	-25.7	-26.1	16.6	0.00e+00	0	33	0	28118614016	26	17585
2026-01-10 21:34:04.81	130.60	12.87	-25.6	-26.1	16.5	0.00e+00	0	33	0	28194111488	26	17489
2026-01-10 21:34:05.82	130.83	12.79	-25.7	-26.1	16.5	0.00e+00	0	33	0	28269608960	26	17525
2026-01-10 21:34:06.83	131.05	12.71	-25.7	-26.1	16.5	0.00e+00	0	33	0	28345106432	26	17543
2026-01-10 21:34:07.84	131.27	12.63	-25.7	-26.2	16.5	0.00e+00	0	33	0	28420603904	26	17643
2026-01-10 21:34:08.85	131.49	12.55	-25.7	-26.2	16.4	0.00e+00	0	33	0	28496101376	26	17675
2026-01-10 21:34:09.86	131.71	12.47	-25.8	-26.2	16.4	0.00e+00	0	33	0	28571598848	26	17786
2026-01-10 21:34:10.87	131.92	12.39	-25.8	-26.3	16.5	0.00e+00	0	33	0	28647096320	26	17901
2026-01-10 21:34:11.88	132.14	12.31	-25.9	-26.4	16.4	0.00e+00	0	33	0	28722593792	26	18019
2026-01-10 21:34:12.89	132.35	12.23	-25.9	-26.3	16.4	0.00e+00	0	33	0	28798091264	26	17957
2026-01-10 21:34:13.90	132.56	12.15	-25.8	-26.3	16.4	0.00e+00	0	33	0	28873588736	26	17889
2026-01-10 21:34:14.91	132.78	12.07	-25.9	-26.4	16.4	0.00e+00	0	33	0	28949086208	26	18133
2026-01-10 21:34:15.92	132.99	11.99	-26.0	-26.5	16.4	0.00e+00	0	33	0	29032972288	26	18272
2026-01-10 21:34:16.93	133.19	11.91	-25.9	-26.4	16.4	0.00e+00	0	33	0	29108469760	26	18098
2026-01-10 21:34:17.94	133.40	11.83	-26.0	-26.4	16.4	0.00e+00	0	33	0	29183967232	26	18206
2026-01-10 21:34:18.95	133.61	11.75	-26.2	-26.6	16.3	0.00e+00	0	33	0	29251076096	26	18601
2026-01-10 21:34:19.96	133.81	11.67	-26.3	-26.7	16.4	0.00e+00	0	33	0	29326573568	26	18817
2026-01-10 21:34:20.97	134.01	11.59	-26.0	-26.5	16.4	0.00e+00	0	33	0	29410459648	26	18263
2026-01-10 21:34:21.98	134.22	11.51	-26.2	-26.7	16.3	0.00e+00	0	33	0	29485957120	26	18689
2026-01-10 21:34:22.99	134.42	11.43	-26.2	-26.7	16.3	0.00e+00	0	33	0	29561454592	26	18677
2026-01-10 21:34:24.00	134.62	11.35	-26.2	-26.7	16.3	0.00e+00	0	33	0	29636952064	26	18646
2026-01-10 21:34:25.01	134.81	11.27	-26.3	-26.8	16.3	0.00e+00	0	33	0	29712449536	26	18875
2026-01-10 21:34:26.02	135.01	11.19	-26.5	-26.9	16.3	0.00e+00	0	33	0	29787947008	26	19268
2026-01-10 21:34:27.03	135.21	11.11	-26.5	-27.0	16.3	0.00e+00	0	33	0	29863444480	26	19374
2026-01-10 21:34:28.04	135.40	11.03	-26.4	-26.8	16.3	0.00e+00	0	33	0	29938941952	26	18993
2026-01-10 21:34:29.05	135.59	10.96	-26.3	-26.8	16.4	0.00e+00	0	33	0	30014439424	26	18975
2026-01-10 21:34:30.05	135.78	10.88	-26.3	-26.8	16.3	0.00e+00	0	33	0	30089936896	26	18932
2026-01-10 21:34:31.06	135.97	10.80	-26.3	-26.8	16.3	0.00e+00	0	33	0	30165434368	26	18934
2026-01-10 21:34:32.07	136.16	10.72	-26.3	-26.8	16.3	0.00e+00	0	33	0	30240931840	26	18983
2026-01-10 21:34:33.08	136.35	10.64	-26.5	-26.9	16.3	0.00e+00	0	33	0	30316429312	26	19252
2026-01-10 21:34:34.09	136.54	10.56	-26.3	-26.8	16.3	0.00e+00	0	33	0	30391926784	26	18968
2026-01-10 21:34:35.10	136.73	10.48	-26.5	-27.0	16.2	0.00e+00	0	33	0	30467424256	26	19309
2026-01-10 21:34:36.12	136.91	10.40	-26.5	-26.9	16.2	0.00e+00	0	33	0	30542921728	26	19278
2026-01-10 21:34:37.12	137.09	10.33	-26.4	-26.9	16.3	0.00e+00	0	33	0	30618419200	26	19166
2026-01-10 21:34:38.13	137.28	10.25	-26.6	-27.0	16.2	0.00e+00	0	33	0	30693916672	26	19508
2026-01-10 21:34:39.14	137.46	10.17	-26.6	-27.0	16.3	0.00e+00	0	33	0	30769414144	26	19502
2026-01-10 21:34:40.15	137.64	10.09	-26.6	-27.0	16.2	0.00e+00	0	33	0	30844911616	26	19430
2026-01-10 21:34:41.16	137.82	10.01	-26.6	-27.1	16.2	0.00e+00	0	33	0	30920409088	26	19589
2026-01-10 21:34:42.17	137.99	9.94	-26.7	-27.1	16.2	0.00e+00	0	33	0	30995906560	28	17577
2026-01-10 21:34:43.18	138.17	9.86	-26.7	-27.1	16.3	0.00e+00	0	33	0	31071404032	28	17587
2026-01-10 21:34:44.19	138.34	9.78	-26.6	-27.1	16.2	0.00e+00	0	33	0	31146901504	28	17492
2026-01-10 21:34:45.20	138.52	9.70	-26.8	-27.3	16.2	0.00e+00	0	33	0	31222398976	28	17847
2026-01-10 21:34:46.21	138.69	9.63	-26.9	-27.4	16.1	0.00e+00	0	33	0	31297896448	28	18093
2026-01-10 21:34:47.22	138.86	9.55	-27.1	-27.6	16.0	0.00e+00	0	33	0	31373393920	28	18451
2026-01-10 21:34:48.23	139.04	9.47	-27.2	-27.7	15.9	0.00e+00	0	33	0	31448891392	28	18752
2026-01-10 21:34:49.24	139.21	9.40	-27.3	-27.8	16.0	0.00e+00	0	33	0	31524388864	28	18960
2026-01-10 21:34:50.25	139.37	9.32	-27.6	-28.0	15.8	0.00e+00	0	32	0	31599886336	28	19413
2026-01-10 21:34:51.26	139.54	9.24	-27.7	-28.2	15.8	0.00e+00	0	32	0	31675383808	28	19760
2026-01-10 21:34:52.27	139.71	9.17	-28.0	-28.4	15.7	0.00e+00	0	33	0	31750881280	30	18185
2026-01-10 21:34:53.28	139.87	9.09	-28.3	-28.7	15.6	0.00e+00	0	32	0	31834767360	30	18824
2026-01-10 21:34:54.29	140.04	9.01	-28.6	-29.0	15.4	0.00e+00	0	33	0	31901876224	30	19410
2026-01-10 21:34:55.30	140.20	8.94	-28.9	-29.3	15.2	0.00e+00	0	33	0	31977373696	32	17903
2026-01-10 21:34:56.31	140.37	8.86	-29.1	-29.6	15.1	0.00e+00	0	33	0	32052871168	32	18517
2026-01-10 21:34:57.32	140.53	8.78	-29.5	-30.0	14.9	0.00e+00	0	32	0	32136757248	32	19371
2026-01-10 21:34:58.33	140.69	8.71	-29.8	-30.2	14.7	0.00e+00	0	33	0	32212254720	34	17790
2026-01-10 21:34:59.34	140.85	8.63	-30.0	-30.4	14.5	0.00e+00	0	33	0	32287752192	34	18211
2026-01-10 21:35:00.35	141.01	8.56	-30.3	-30.7	14.4	0.00e+00	0	32	0	32363249664	34	18790
2026-01-10 21:35:01.36	141.16	8.48	-30.4	-30.9	14.2	0.00e+00	0	33	0	32438747136	34	19102
2026-01-10 21:35:02.37	141.32	8.41	-30.6	-31.0	14.2	0.00e+00	0	32	0	32514244608	34	19396
2026-01-10 21:35:03.38	141.48	8.33	-30.6	-31.0	14.2	0.00e+00	0	32	0	32589742080	34	19431
2026-01-10 21:35:04.39	141.63	8.26	-30.4	-30.8	14.3	0.00e+00	0	32	0	32665239552	34	19002
2026-01-10 21:35:05.40	141.78	8.18	-30.4	-30.8	14.3	0.00e+00	0	33	0	32740737024	34	18962
2026-01-10 21:35:06.41	141.94	8.11	-30.2	-30.6	14.5	0.00e+00	0	32	0	32816234496	34	18570
2026-01-10 21:35:07.42	142.09	8.03	-30.0	-30.4	14.6	0.00e+00	0	32	0	32891731968	34	18109
2026-01-10 21:35:08.43	142.24	7.96	-30.0	-30.4	14.6	0.00e+00	0	32	0	32967229440	34	18113
2026-01-10 21:35:09.44	142.39	7.89	-29.8	-30.3	14.7	0.00e+00	0	32	0	33042726912	34	17808
2026-01-10 21:35:10.45	142.54	7.81	-29.8	-30.3	14.7	0.00e+00	0	32	0	33118224384	34	17873
2026-01-10 21:35:11.46	142.69	7.74	-29.3	-29.8	14.9	0.00e+00	0	32	0	33193721856	34	16879
2026-01-10 21:35:12.47	142.84	7.66	-29.5	-29.9	14.9	0.00e+00	0	32	0	33269219328	34	17139
2026-01-10 21:35:13.48	142.98	7.59	-29.6	-30.0	14.8	0.00e+00	0	32	0	33344716800	34	17318
2026-01-10 21:35:14.49	143.13	7.52	-29.7	-30.1	14.8	0.00e+00	0	32	0	33420214272	34	17505
2026-01-10 21:35:15.50	143.27	7.44	-29.2	-29.6	15.1	0.00e+00	0	32	0	33495711744	34	16528
2026-01-10 21:35:16.51	143.42	7.37	-29.3	-29.7	14.9	0.00e+00	0	32	0	33571209216	34	16723
2026-01-10 21:35:17.52	143.56	7.30	-29.0	-29.4	15.2	0.00e+00	0	32	0	33646706688	34	16214
2026-01-10 21:35:18.53	143.70	7.22	-29.1	-29.5	15.2	0.00e+00	0	32	0	33722204160	34	16351
2026-01-10 21:35:19.54	143.84	7.15	-29.2	-29.6	15.1	0.00e+00	0	32	0	33797701632	34	16539
2026-01-10 21:35:20.55	143.98	7.08	-29.0	-29.5	15.1	0.00e+00	0	32	0	33873199104	34	16302
2026-01-10 21:35:21.55	144.12	7.01	-29.1	-29.6	15.1	0.00e+00	0	32	0	33948696576	34	16462
2026-01-10 21:35:22.56	144.26	6.94	-29.2	-29.6	15.1	0.00e+00	0	32	0	34024194048	34	16527
2026-01-10 21:35:23.57	144.40	6.86	-29.0	-29.5	15.1	0.00e+00	0	32	0	34099691520	34	16261
2026-01-10 21:35:24.58	144.53	6.79	-29.0	-29.5	15.1	0.00e+00	0	32	0	34175188992	34	16252
2026-01-10 21:35:25.59	144.67	6.72	-29.1	-29.6	15.1	0.00e+00	0	32	0	34250686464	34	16492
2026-01-10 21:35:26.60	144.81	6.65	-29.2	-29.7	15.1	0.00e+00	0	32	0	34326183936	34	16621
2026-01-10 21:35:27.61	144.94	6.58	-29.1	-29.5	15.1	0.00e+00	0	32	0	34401681408	34	16344
2026-01-10 21:35:28.62	145.07	6.51	-29.2	-29.6	15.1	0.00e+00	0	32	0	34485567488	34	16606
2026-01-10 21:35:29.63	145.21	6.43	-28.8	-29.3	15.2	0.00e+00	0	32	0	34561064960	34	15879
2026-01-10 21:35:30.64	145.34	6.36	-28.8	-29.3	15.2	0.00e+00	0	32	0	34628173824	32	17826
2026-01-10 21:35:31.65	145.47	6.29	-28.9	-29.3	15.2	0.00e+00	0	32	0	34703671296	32	17932
2026-01-10 21:35:32.66	145.60	6.22	-29.0	-29.4	15.2	0.00e+00	0	32	0	34779168768	32	18164
2026-01-10 21:35:33.67	145.73	6.15	-29.4	-29.8	15.1	0.00e+00	0	32	0	34854666240	32	18974
2026-01-10 21:35:34.68	145.86	6.08	-29.2	-29.7	15.1	0.00e+00	0	32	0	34938552320	32	18688
2026-01-10 21:35:35.69	145.99	6.01	-29.1	-29.5	15.2	0.00e+00	0	32	0	35014049792	32	18309
2026-01-10 21:35:36.70	146.12	5.94	-29.0	-29.5	15.2	0.00e+00	0	32	0	35089547264	32	18323
2026-01-10 21:35:37.71	146.24	5.87	-29.4	-29.8	15.0	0.00e+00	0	32	0	35165044736	32	18963
2026-01-10 21:35:38.72	146.37	5.80	-29.0	-29.5	15.1	0.00e+00	0	32	0	35232153600	32	18266
2026-01-10 21:35:39.70	146.49	5.73	-29.1	-29.5	15.1	0.00e+00	0	32	0	35316039680	32	18307
2026-01-10 21:35:40.71	146.62	5.66	-29.0	-29.4	15.3	0.00e+00	0	32	0	35391537152	32	18188
2026-01-10 21:35:41.72	146.74	5.59	-29.0	-29.5	15.1	0.00e+00	0	32	0	35467034624	32	18270
2026-01-10 21:35:42.73	146.86	5.53	-28.8	-29.2	15.3	0.00e+00	0	32	0	35542532096	32	17780
2026-01-10 21:35:43.74	146.99	5.46	-29.1	-29.5	15.1	0.00e+00	0	32	0	35618029568	32	18325
2026-01-10 21:35:44.75	147.11	5.39	-46.9	-49.4	3.6	0.00e+00	0	32	104	35651584000	60	36325
2026-01-10 21:35:45.76	147.23	5.32	-46.8	-49.3	3.6	0.00e+00	0	32	104	35651584000	60	35907
2026-01-10 21:35:46.77	147.35	5.25	-46.8	-49.3	3.6	0.00e+00	0	32	104	35651584000	60	35702
2026-01-10 21:35:47.78	147.47	5.18	-46.8	-49.4	3.6	0.00e+00	0	32	104	35651584000	60	35941
2026-01-10 21:35:48.79	147.59	5.11	-46.8	-49.4	3.6	0.00e+00	0	32	104	35651584000	60	36056
2026-01-10 21:35:49.80	147.71	5.05	-46.8	-49.3	3.6	0.00e+00	0	32	104	35651584000	60	35873
2026-01-10 21:35:50.81	147.82	4.98	-46.6	-49.1	3.6	0.00e+00	0	32	104	35651584000	60	34859
2026-01-10 21:35:51.82	147.94	4.91	-46.9	-49.4	3.6	0.00e+00	0	32	104	35651584000	60	36256
2026-01-10 21:35:52.83	148.06	4.84	-46.8	-49.4	3.6	0.00e+00	0	32	104	35651584000	60	35964
2026-01-10 21:35:53.84	148.17	4.77	-46.8	-49.3	3.6	0.00e+00	0	32	104	35651584000	60	35840
2026-01-10 21:35:54.85	148.29	4.71	-46.6	-49.1	3.6	0.00e+00	0	32	104	35651584000	60	34933
2026-01-10 21:35:55.86	148.40	4.64	-46.9	-49.4	3.6	0.00e+00	0	32	104	35651584000	60	36278
2026-01-10 21:35:56.87	148.52	4.57	-46.7	-49.2	3.6	0.00e+00	0	32	104	35651584000	60	35443
2026-01-10 21:35:57.88	148.63	4.51	-46.8	-49.3	3.6	0.00e+00	0	32	104	35651584000	60	35602
2026-01-10 21:35:58.88	148.74	4.44	-46.4	-49.0	3.6	0.00e+00	0	32	104	35651584000	60	34378
2026-01-10 21:35:59.89	148.85	4.37	-46.8	-49.3	3.6	0.00e+00	0	32	104	35651584000	60	35927
2026-01-10 21:36:00.90	148.96	4.31	-46.6	-49.1	3.6	0.00e+00	0	31	104	35651584000	60	34940
2026-01-10 21:36:01.91	149.07	4.24	-46.7	-49.2	3.6	0.00e+00	0	32	104	35651584000	60	35358
2026-01-10 21:36:02.92	149.18	4.17	-46.3	-48.8	3.6	0.00e+00	0	32	104	35651584000	60	33921
2026-01-10 21:36:03.93	149.29	4.11	-46.8	-49.3	3.6	0.00e+00	0	32	104	35651584000	60	35588
2026-01-10 21:36:04.95	149.40	4.04	-46.5	-49.1	3.6	0.00e+00	0	32	104	35651584000	60	34814
2026-01-10 21:36:05.95	149.51	3.98	-46.6	-49.1	3.6	0.00e+00	0	32	104	35651584000	60	34961
2026-01-10 21:36:06.96	149.62	3.91	-46.3	-48.8	3.6	0.00e+00	0	32	104	35651584000	60	33672
2026-01-10 21:36:07.97	149.73	3.84	-46.7	-49.2	3.6	0.00e+00	0	32	104	35651584000	60	35270
2026-01-10 21:36:08.98	149.83	3.78	-46.5	-49.0	3.6	0.00e+00	0	32	104	35651584000	60	34428
2026-01-10 21:36:09.99	149.94	3.71	-46.6	-49.0	3.6	0.00e+00	0	31	104	35651584000	60	34706
2026-01-10 21:36:11.00	150.04	3.65	-46.2	-48.7	3.6	0.00e+00	0	32	104	35651584000	60	33267
2026-01-10 21:36:12.01	150.15	3.58	-46.7	-49.2	3.6	0.00e+00	0	32	104	35651584000	60	35326
2026-01-10 21:36:13.02	150.25	3.52	-46.4	-48.9	3.6	0.00e+00	0	31	104	35651584000	60	34091
2026-01-10 21:36:14.03	150.36	3.45	-46.5	-49.0	3.6	0.00e+00	0	31	104	35651584000	60	34557
2026-01-10 21:36:15.04	150.46	3.39	-46.1	-48.6	3.6	0.00e+00	0	31	104	35651584000	60	32849
2026-01-10 21:36:16.04	150.56	3.33	-46.7	-49.1	3.6	0.00e+00	0	31	104	35651584000	60	35080
2026-01-10 21:36:17.05	150.66	3.26	-46.3	-48.8	3.5	0.00e+00	0	31	104	35651584000	60	33607
2026-01-10 21:36:18.06	150.76	3.20	-46.4	-48.9	3.6	0.00e+00	0	31	104	35651584000	60	34320
2026-01-10 21:36:19.08	150.87	3.13	-45.9	-48.5	3.6	0.00e+00	0	31	104	35651584000	60	32466
2026-01-10 21:36:20.09	150.97	3.07	-46.6	-49.1	3.6	0.00e+00	0	31	104	35651584000	60	34790
2026-01-10 21:36:21.10	151.07	3.01	-46.2	-48.7	3.6	0.00e+00	0	31	104	35651584000	60	33353
2026-01-10 21:36:22.11	151.17	2.94	-46.8	-49.3	3.6	0.00e+00	0	31	104	35651584000	60	35823
2026-01-10 21:36:23.12	151.27	2.88	-46.9	-49.4	3.6	0.00e+00	0	31	104	35651584000	60	36325
2026-01-10 21:36:24.13	151.36	2.81	-47.6	-50.1	3.6	0.00e+00	0	31	104	35651584000	60	39094
2026-01-10 21:36:25.14	151.46	2.75	-47.9	-50.4	3.6	0.00e+00	0	31	104	35651584000	60	40484
2026-01-10 21:36:26.15	151.56	2.69	-48.1	-50.5	3.6	0.00e+00	0	31	104	35651584000	60	41135
2026-01-10 21:36:27.15	151.65	2.63	-48.1	-50.6	3.6	0.00e+00	0	31	104	35651584000	60	41375
2026-01-10 21:36:28.16	151.75	2.56	-48.3	-50.7	3.6	0.00e+00	0	31	104	35651584000	60	42195
2026-01-10 21:36:29.18	151.85	2.50	-48.0	-50.6	3.6	0.00e+00	0	31	104	35651584000	60	41337
2026-01-10 21:36:30.19	151.94	2.44	-48.3	-50.8	3.6	0.00e+00	0	31	104	35651584000	60	42304
2026-01-10 21:36:31.19	152.04	2.38	-48.2	-50.7	3.6	0.00e+00	0	31	104	35651584000	60	41932
2026-01-10 21:36:32.20	152.13	2.31	-48.2	-50.7	3.6	0.00e+00	0	31	104	35651584000	60	41761
2026-01-10 21:36:33.21	152.22	2.25	-48.2	-50.7	3.6	0.00e+00	0	31	104	35651584000	60	42132
2026-01-10 21:36:34.22	152.32	2.19	-48.2	-50.7	3.6	0.00e+00	0	31	104	35651584000	60	41747
2026-01-10 21:36:35.23	152.41	2.13	-48.2	-50.7	3.6	0.00e+00	0	31	104	35651584000	60	41842
2026-01-10 21:36:36.24	152.50	2.07	-48.2	-50.7	3.6	0.00e+00	0	31	104	35651584000	60	41975
2026-01-10 21:36:37.25	152.59	2.00	-48.1	-50.6	3.6	0.00e+00	0	31	104	35651584000	60	41387
2026-01-10 21:36:38.25	152.68	1.94	-48.1	-50.6	3.6	0.00e+00	0	31	104	35651584000	60	41530
2026-01-10 21:36:39.26	152.78	1.88	-48.1	-50.6	3.6	0.00e+00	0	31	104	35651584000	60	41658
2026-01-10 21:36:40.27	152.87	1.82	-48.1	-50.6	3.6	0.00e+00	0	31	104	35651584000	60	41630
2026-01-10 21:36:41.28	152.96	1.76	-48.1	-50.6	3.6	0.00e+00	0	31	104	35651584000	60	41472
2026-01-10 21:36:42.29	153.05	1.70	-48.1	-50.6	3.6	0.00e+00	0	31	104	35651584000	60	41683
2026-01-10 21:36:43.30	153.13	1.64	-48.2	-50.7	3.6	0.00e+00	0	31	104	35651584000	60	41837
2026-01-10 21:36:44.31	153.22	1.58	-48.2	-50.7	3.6	0.00e+00	0	31	104	35651584000	60	41826
2026-01-10 21:36:45.32	153.31	1.52	-48.1	-50.6	3.6	0.00e+00	0	31	104	35651584000	60	41589
2026-01-10 21:36:46.33	153.40	1.46	-48.1	-50.6	3.6	0.00e+00	0	31	104	35651584000	60	41708
2026-01-10 21:36:47.34	153.49	1.40	-48.2	-50.6	3.6	0.00e+00	0	31	104	35651584000	60	41618
2026-01-10 21:36:48.35	153.57	1.34	-48.1	-50.6	3.6	0.00e+00	0	31	104	35651584000	60	41642
2026-01-10 21:36:49.36	153.66	1.27	-48.2	-50.6	3.5	0.00e+00	0	31	104	35651584000	60	41710
2026-01-10 21:36:50.37	153.75	1.21	-48.1	-50.6	3.6	0.00e+00	0	31	104	35651584000	60	41668
2026-01-10 21:36:51.38	153.83	1.15	-48.1	-50.6	3.6	0.00e+00	0	31	104	35651584000	60	41421
2026-01-10 21:36:52.39	153.92	1.10	-48.1	-50.6	3.6	0.00e+00	0	31	104	35651584000	60	41345
2026-01-10 21:36:53.40	154.00	1.04	-48.1	-50.6	3.6	0.00e+00	0	31	104	35651584000	60	41495
2026-01-10 21:36:54.41	154.09	0.98	-48.1	-50.7	3.6	0.00e+00	0	31	104	35651584000	60	41802
2026-01-10 21:36:55.42	154.17	0.92	-48.1	-50.6	3.6	0.00e+00	0	31	104	35651584000	60	41544
2026-01-10 21:36:56.43	154.25	0.86	-48.1	-50.6	3.6	0.00e+00	0	31	104	35651584000	60	41405
2026-01-10 21:36:57.44	154.34	0.80	-48.1	-50.7	3.6	0.00e+00	0	31	104	35651584000	60	41758
2026-01-10 21:36:58.45	154.42	0.74	-48.1	-50.6	3.6	0.00e+00	0	31	104	35651584000	60	41614
2026-01-10 21:36:59.46	154.50	0.68	-48.1	-50.7	3.6	0.00e+00	0	31	104	35651584000	60	41810
2026-01-10 21:37:00.47	154.58	0.62	-48.1	-50.6	3.6	0.00e+00	0	31	104	35651584000	60	41568
2026-01-10 21:37:01.48	154.67	0.56	-48.1	-50.7	3.6	0.00e+00	0	31	104	35651584000	60	41794
2026-01-10 21:37:02.49	154.75	0.50	-48.1	-50.6	3.6	0.00e+00	0	31	104	35651584000	60	41590
2026-01-10 21:37:03.50	154.83	0.44	-48.2	-50.7	3.6	0.00e+00	0	31	104	35651584000	60	41817
2026-01-10 21:37:04.51	154.91	0.39	-48.1	-50.7	3.6	0.00e+00	0	31	104	35651584000	60	41892
2026-01-10 21:37:05.52	154.99	0.33	-48.1	-50.6	3.6	0.00e+00	0	31	104	35651584000	60	41575
2026-01-10 21:37:06.52	155.07	0.27	-48.2	-50.7	3.6	0.00e+00	0	31	104	35651584000	60	41801
2026-01-10 21:37:07.53	155.15	0.21	-48.1	-50.6	3.6	0.00e+00	0	31	104	35651584000	60	41621
2026-01-10 21:37:08.55	155.22	0.15	-48.1	-50.6	3.6	0.00e+00	0	31	104	35651584000	60	41304
2026-01-10 21:37:09.56	155.30	0.10	-48.1	-50.6	3.6	0.00e+00	0	31	104	35651584000	60	41273
2026-01-10 21:37:10.56	155.38	0.04	-48.1	-50.6	3.6	0.00e+00	0	31	104	35651584000	60	41556

#Closed at: 2026-01-10 21:37:11
#Recorded file [35651 MB]: D:/lorett/data/35029_260111_092638.dat