passes_logs/2026/01/10/R4.6S_Anadyr/R4.6S_Anadyr__20260110_220157_AQUA_rec.log

#Pass ID: 20260110_220157_AQUA
#Satellite: AQUA
#Configuration: AQUA
#almurnet v.1.7.20251203
#Start time: 2026-01-10 22:02:02

#Version: 2.2.20231116
#Station: R4.6S_Anadyr
#Location: 177.4865 lon 64.73178 lat
#TLE: 1 27424U 02022A   26009.89520876  .00001045  00000+0  21914-3 0  9996
#TLE: 2 27424  98.4076 336.2372 0002032  84.5955   1.0356 14.61811442260144

#Time	Az	El	Level	Level2	SNR	BER	BlckErr	Temp	State	Recorded	gain1	gain2
2026-01-10 22:02:02.29	63.11	0.22	-48.1	-49.5	3.3	0.00e+00	0	26	0	0	60	36730
2026-01-10 22:02:03.26	63.02	0.27	-48.4	-66.3	3.5	7.71e-01	0	27	104	0	60	79088
2026-01-10 22:02:04.24	62.93	0.32	-48.5	-66.3	3.5	7.71e-01	0	27	104	0	60	79895
2026-01-10 22:02:05.22	62.84	0.36	-48.4	-66.3	3.5	7.71e-01	0	27	104	0	60	79236
2026-01-10 22:02:06.19	62.75	0.41	-48.4	-66.2	3.5	7.71e-01	0	27	104	0	60	78963
2026-01-10 22:02:07.17	62.66	0.46	-48.3	-66.3	3.5	7.71e-01	0	27	104	0	60	79442
2026-01-10 22:02:08.15	62.57	0.50	-48.3	-66.3	3.5	7.71e-01	0	27	104	0	60	79321
2026-01-10 22:02:09.13	62.48	0.55	-47.9	-66.3	3.5	7.71e-01	0	27	104	0	60	79036
2026-01-10 22:02:10.11	62.39	0.60	-48.2	-66.2	3.5	7.71e-01	0	27	104	0	60	78527
2026-01-10 22:02:11.09	62.29	0.64	-47.9	-66.2	3.5	7.71e-01	0	27	104	0	60	78207
2026-01-10 22:02:12.06	62.20	0.69	-47.9	-66.0	3.5	7.71e-01	0	27	104	0	60	76884
2026-01-10 22:02:13.04	62.11	0.74	-47.8	-65.8	3.5	7.71e-01	0	27	104	0	60	75403
2026-01-10 22:02:14.02	62.02	0.78	-47.6	-65.7	3.5	7.71e-01	0	27	104	0	60	73853
2026-01-10 22:02:14.99	61.92	0.83	-47.3	-65.3	3.5	7.71e-01	0	27	104	0	60	70578
2026-01-10 22:02:15.97	61.83	0.88	-46.1	-64.6	3.5	7.71e-01	0	27	104	0	60	65720
2026-01-10 22:02:16.95	61.73	0.93	-46.1	-64.6	3.5	7.71e-01	0	27	104	0	60	65564
2026-01-10 22:02:17.92	61.64	0.97	-46.1	-64.6	3.5	7.71e-01	0	27	104	0	60	65200
2026-01-10 22:02:18.90	61.55	1.02	-46.1	-64.6	3.5	7.71e-01	0	27	104	0	60	65179
2026-01-10 22:02:19.87	61.45	1.07	-46.1	-64.6	3.6	7.71e-01	0	27	104	0	60	65448
2026-01-10 22:02:20.85	61.36	1.11	-46.1	-64.6	3.5	7.71e-01	0	27	104	0	60	65196
2026-01-10 22:02:21.82	61.26	1.16	-46.0	-64.6	3.5	7.71e-01	0	27	104	0	60	65085
2026-01-10 22:02:22.80	61.17	1.21	-46.0	-64.6	3.5	7.71e-01	0	27	104	0	60	65255
2026-01-10 22:02:23.78	61.07	1.25	-46.0	-64.6	3.5	7.71e-01	0	27	104	0	60	65292
2026-01-10 22:02:24.76	60.97	1.30	-46.0	-64.6	3.5	7.71e-01	0	27	104	0	60	65348
2026-01-10 22:02:25.74	60.87	1.35	-46.0	-64.6	3.5	7.71e-01	0	27	104	0	60	65150
2026-01-10 22:02:26.71	60.78	1.40	-46.0	-64.5	3.5	7.71e-01	0	27	104	0	60	64907
2026-01-10 22:02:27.69	60.68	1.44	-46.0	-64.6	3.5	7.71e-01	0	27	104	0	60	65193
2026-01-10 22:02:28.67	60.58	1.49	-46.0	-64.5	3.5	7.71e-01	0	27	104	0	60	64978
2026-01-10 22:02:29.65	60.48	1.54	-46.0	-64.6	3.5	7.71e-01	0	27	104	0	60	65227
2026-01-10 22:02:30.63	60.38	1.58	-46.0	-64.5	3.5	7.71e-01	0	27	104	0	60	64970
2026-01-10 22:02:31.61	60.28	1.63	-46.0	-64.6	3.5	7.71e-01	0	27	104	0	60	65249
2026-01-10 22:02:32.58	60.19	1.68	-46.0	-64.6	3.5	7.71e-01	0	27	104	0	60	65203
2026-01-10 22:02:33.56	60.09	1.73	-46.0	-64.6	3.5	7.71e-01	0	27	104	0	60	65029
2026-01-10 22:02:34.54	59.99	1.77	-46.0	-64.6	3.5	7.71e-01	0	27	104	0	60	65130
2026-01-10 22:02:35.51	59.89	1.82	-46.0	-64.5	3.5	7.71e-01	0	27	104	0	60	64779
2026-01-10 22:02:36.49	59.78	1.87	-46.0	-64.5	3.5	7.71e-01	0	27	104	0	60	64828
2026-01-10 22:02:37.47	59.68	1.91	-46.0	-64.5	3.5	7.71e-01	0	27	104	0	60	64752
2026-01-10 22:02:38.45	59.58	1.96	-46.0	-64.5	3.5	7.71e-01	0	27	104	0	60	64592
2026-01-10 22:02:39.43	59.48	2.01	-46.0	-64.4	3.5	7.71e-01	0	27	104	0	60	64217
2026-01-10 22:02:40.40	59.38	2.06	-46.0	-64.5	3.5	7.71e-01	0	27	104	0	60	64657
2026-01-10 22:02:41.38	59.27	2.10	-46.0	-64.5	3.5	7.71e-01	0	27	104	0	60	64644
2026-01-10 22:02:42.35	59.17	2.15	-46.0	-64.4	3.5	7.71e-01	0	27	104	0	60	63915
2026-01-10 22:02:43.33	59.07	2.20	-46.0	-64.4	3.5	7.71e-01	0	27	104	0	60	64165
2026-01-10 22:02:44.31	58.96	2.25	-45.9	-64.2	3.5	7.71e-01	0	27	104	0	60	62410
2026-01-10 22:02:45.29	58.86	2.29	-45.9	-64.1	3.5	7.71e-01	0	27	104	0	60	61925
2026-01-10 22:02:46.26	58.76	2.34	-45.9	-64.1	3.5	7.71e-01	0	27	104	0	60	61717
2026-01-10 22:02:47.24	58.65	2.39	-45.9	-64.3	3.5	7.71e-01	0	27	104	0	60	63455
2026-01-10 22:02:48.22	58.54	2.44	-46.0	-64.5	3.5	7.71e-01	0	27	104	0	60	64584
2026-01-10 22:02:49.20	58.44	2.48	-46.0	-64.6	3.5	7.71e-01	0	27	104	0	60	64995
2026-01-10 22:02:50.18	58.33	2.53	-46.0	-64.4	3.5	7.71e-01	0	27	104	0	60	63626
2026-01-10 22:02:51.15	58.23	2.58	-46.0	-64.4	3.5	7.71e-01	0	27	104	0	60	63981
2026-01-10 22:02:52.13	58.12	2.62	-46.0	-64.5	3.5	7.71e-01	0	27	104	0	60	64521
2026-01-10 22:02:53.11	58.01	2.67	-46.0	-64.3	3.5	7.71e-01	0	27	104	0	60	63420
2026-01-10 22:02:54.09	57.90	2.72	-45.9	-63.8	3.5	7.71e-01	0	27	104	0	60	59359
2026-01-10 22:02:55.07	57.80	2.77	-45.8	-63.4	3.5	7.71e-01	0	27	104	0	60	56844
2026-01-10 22:02:56.04	57.69	2.81	-45.9	-63.9	3.5	7.71e-01	0	27	104	0	60	60532
2026-01-10 22:02:57.02	57.58	2.86	-45.9	-63.9	3.5	7.71e-01	0	27	104	0	60	60543
2026-01-10 22:02:57.99	57.47	2.91	-45.4	-61.4	3.6	7.71e-01	0	27	104	0	60	45325
2026-01-10 22:02:58.97	57.36	2.96	-43.7	-56.9	3.5	7.71e-01	0	27	104	0	60	26973
2026-01-10 22:02:59.95	57.25	3.00	-42.0	-53.8	3.5	7.71e-01	0	27	104	0	60	18931
2026-01-10 22:03:00.92	57.14	3.05	-46.9	-64.5	3.5	7.71e-01	0	27	104	0	60	64470
2026-01-10 22:03:01.90	57.03	3.10	-46.0	-64.4	3.5	7.71e-01	0	27	104	0	60	64158
2026-01-10 22:03:02.88	56.92	3.15	-41.9	-53.8	3.5	7.71e-01	0	27	104	0	56	23719
2026-01-10 22:03:03.85	56.81	3.19	-38.3	-49.1	3.6	7.71e-01	0	27	104	0	50	19442
2026-01-10 22:03:04.83	56.69	3.24	-44.6	-63.6	3.5	7.71e-01	0	27	104	0	60	58531
2026-01-10 22:03:05.81	56.58	3.29	-39.7	-50.7	3.6	7.71e-01	0	27	104	0	56	16667
2026-01-10 22:03:06.79	56.47	3.33	-38.0	-48.7	3.5	7.71e-01	0	27	104	0	52	16533
2026-01-10 22:03:07.77	56.35	3.38	-37.7	-48.2	3.5	7.71e-01	0	27	104	0	50	17593
2026-01-10 22:03:08.75	56.24	3.43	-37.2	-47.7	3.6	7.71e-01	0	27	104	0	50	16606
2026-01-10 22:03:09.72	56.13	3.48	-43.6	-55.7	3.5	7.71e-01	0	27	104	0	56	29425
2026-01-10 22:03:10.70	56.01	3.52	-38.7	-49.3	3.5	7.71e-01	0	27	104	0	50	20058
2026-01-10 22:03:11.68	55.90	3.57	-44.8	-59.4	3.4	7.71e-01	0	27	104	0	60	36033
2026-01-10 22:03:12.65	55.78	3.62	-41.6	-52.9	3.4	7.71e-01	0	27	104	0	60	16966
2026-01-10 22:03:13.63	55.67	3.67	-44.0	-58.7	3.5	7.71e-01	0	27	104	0	56	41875
2026-01-10 22:03:14.60	55.55	3.71	-42.2	-54.3	3.5	7.71e-01	0	27	104	0	60	19938
2026-01-10 22:03:15.58	55.43	3.76	-38.5	-49.1	3.5	7.71e-01	0	27	104	0	52	17417
2026-01-10 22:03:16.55	55.32	3.81	-39.5	-50.3	3.5	7.71e-01	0	27	104	0	52	19924
2026-01-10 22:03:17.53	55.20	3.85	-39.3	-50.0	3.5	7.71e-01	0	27	104	0	52	19293
2026-01-10 22:03:18.51	55.08	3.90	-39.0	-49.7	3.5	7.71e-01	0	27	104	0	52	18643
2026-01-10 22:03:19.48	54.96	3.95	-42.5	-54.0	3.5	7.71e-01	0	27	104	0	60	19394
2026-01-10 22:03:20.46	54.85	4.00	-39.3	-50.1	3.5	7.71e-01	0	27	104	0	54	17361
2026-01-10 22:03:21.43	54.73	4.04	-45.8	-64.6	3.5	7.71e-01	0	27	104	0	60	65533
2026-01-10 22:03:22.41	54.61	4.09	-42.2	-54.1	3.6	7.71e-01	0	27	104	0	60	19554
2026-01-10 22:03:23.39	54.49	4.14	-40.4	-51.5	3.5	7.71e-01	0	27	104	0	54	20505
2026-01-10 22:03:24.37	54.37	4.18	-39.8	-50.9	3.5	7.71e-01	0	27	104	0	54	18967
2026-01-10 22:03:25.34	54.25	4.23	-40.0	-51.1	3.5	7.71e-01	0	27	104	0	54	19575
2026-01-10 22:03:26.32	54.12	4.28	-40.2	-51.4	3.5	7.71e-01	0	27	104	0	54	20276
2026-01-10 22:03:27.30	54.00	4.33	-40.2	-51.4	3.5	7.71e-01	0	27	104	0	54	20158
2026-01-10 22:03:28.28	53.88	4.37	-39.4	-50.3	3.5	7.71e-01	0	27	104	0	54	17711
2026-01-10 22:03:29.26	53.76	4.42	-39.8	-50.7	3.5	7.71e-01	0	27	104	0	54	18676
2026-01-10 22:03:30.23	53.63	4.47	-46.7	-64.2	3.5	7.71e-01	0	27	104	0	60	62057
2026-01-10 22:03:31.21	53.51	4.51	-40.0	-51.0	3.5	7.71e-01	0	27	104	0	58	15246
2026-01-10 22:03:32.18	53.39	4.56	-44.1	-64.4	3.5	7.71e-01	0	27	104	0	60	63982
2026-01-10 22:03:33.16	53.26	4.61	-40.6	-51.5	3.5	7.71e-01	0	27	104	0	56	18279
2026-01-10 22:03:34.14	53.14	4.65	-40.9	-52.0	3.5	7.71e-01	0	27	104	0	56	19338
2026-01-10 22:03:35.11	53.01	4.70	-40.4	-51.4	3.5	7.71e-01	0	27	104	0	56	18076
2026-01-10 22:03:36.09	52.89	4.75	-39.6	-50.6	3.5	7.71e-01	0	27	104	0	54	18320
2026-01-10 22:03:37.06	52.76	4.79	-38.4	-49.0	3.5	7.71e-01	0	27	104	0	50	19318
2026-01-10 22:03:38.05	52.63	4.84	-40.7	-51.9	3.5	7.71e-01	0	27	104	0	54	21355
2026-01-10 22:03:39.02	52.51	4.89	-47.1	-64.7	3.5	7.71e-01	0	27	104	0	60	66406
2026-01-10 22:03:40.00	52.38	4.93	-44.8	-57.9	3.5	7.71e-01	0	27	104	0	60	30112
2026-01-10 22:03:40.98	52.25	4.98	-46.1	-64.3	3.5	7.71e-01	0	27	104	0	60	63478
2026-01-10 22:03:41.95	52.12	5.03	-45.6	-59.8	3.5	7.71e-01	0	27	104	0	60	37764
2026-01-10 22:03:42.93	51.99	5.07	-45.5	-59.4	3.5	7.71e-01	0	27	104	0	60	35835
2026-01-10 22:03:43.91	51.86	5.12	-45.6	-59.5	3.5	7.71e-01	0	27	104	0	60	36506
2026-01-10 22:03:44.88	51.74	5.17	-44.7	-57.6	3.5	7.71e-01	0	27	104	0	60	29359
2026-01-10 22:03:45.86	51.61	5.21	-41.2	-52.3	3.5	7.71e-01	0	27	104	0	58	17859
2026-01-10 22:03:46.84	51.47	5.26	-45.6	-64.6	3.5	7.71e-01	0	27	104	0	60	65079
2026-01-10 22:03:47.82	51.34	5.31	-40.1	-50.9	3.4	7.71e-01	0	27	104	0	54	18990
2026-01-10 22:03:48.80	51.21	5.35	-47.2	-64.7	3.5	7.71e-01	0	27	104	0	60	66007
2026-01-10 22:03:49.78	51.08	5.40	-37.3	-47.7	3.5	7.71e-01	0	27	104	0	50	16656
2026-01-10 22:03:50.75	50.95	5.45	-37.6	-48.1	3.5	7.71e-01	0	27	104	0	50	17306
2026-01-10 22:03:51.73	50.81	5.49	-37.6	-48.1	3.5	7.71e-01	0	27	104	0	50	17367
2026-01-10 22:03:52.70	50.68	5.54	-37.6	-48.2	3.5	7.71e-01	0	27	104	0	50	17533
2026-01-10 22:03:53.68	50.55	5.58	-37.6	-48.1	3.5	7.71e-01	0	27	104	0	50	17423
2026-01-10 22:03:54.66	50.41	5.63	-36.7	-47.0	3.5	7.71e-01	0	27	104	0	48	17200
2026-01-10 22:03:55.64	50.28	5.68	-37.3	-47.7	3.5	7.71e-01	0	27	104	0	48	18683
2026-01-10 22:03:56.62	50.14	5.72	-43.2	-55.0	3.5	7.71e-01	0	27	104	0	56	27199
2026-01-10 22:03:57.60	50.00	5.77	-42.4	-54.2	3.6	7.71e-01	0	27	104	0	60	19767
2026-01-10 22:03:58.57	49.87	5.81	-40.3	-51.1	3.4	7.71e-01	0	27	104	0	52	21993
2026-01-10 22:03:59.55	49.73	5.86	-45.8	-64.0	3.5	7.71e-01	0	27	104	0	60	60688
2026-01-10 22:04:00.52	49.59	5.91	-43.4	-55.3	3.5	7.71e-01	0	27	104	0	60	22356
2026-01-10 22:04:01.50	49.46	5.95	-43.4	-55.3	3.5	7.71e-01	0	27	104	0	60	22476
2026-01-10 22:04:02.47	49.32	6.00	-43.6	-55.8	3.5	7.71e-01	0	27	104	0	60	23727
2026-01-10 22:04:03.45	49.18	6.04	-41.8	-53.2	3.5	7.71e-01	0	27	104	0	60	17618
2026-01-10 22:04:04.43	49.04	6.09	-43.3	-55.4	3.6	7.71e-01	0	27	104	0	56	28665
2026-01-10 22:04:05.41	48.90	6.13	-42.7	-54.5	3.6	7.71e-01	0	27	104	0	60	20443
2026-01-10 22:04:06.38	48.76	6.18	-43.9	-56.2	3.5	7.71e-01	0	27	104	0	60	24815
2026-01-10 22:04:07.36	48.62	6.22	-44.9	-57.8	3.6	7.71e-01	0	27	104	0	60	30019
2026-01-10 22:04:08.33	48.48	6.27	-37.6	-48.0	3.5	7.71e-01	0	27	104	0	50	17115
2026-01-10 22:04:09.31	48.34	6.32	-37.8	-48.3	3.5	7.71e-01	0	27	104	0	50	17797
2026-01-10 22:04:10.29	48.19	6.36	-37.2	-47.6	3.5	7.71e-01	0	27	104	0	50	16421
2026-01-10 22:04:11.27	48.05	6.41	-36.9	-47.3	3.5	7.71e-01	0	27	104	0	48	17742
2026-01-10 22:04:12.24	47.91	6.45	-36.9	-47.3	3.5	7.71e-01	0	27	104	0	48	17708
2026-01-10 22:04:13.22	47.76	6.50	-36.1	-46.3	3.5	7.71e-01	0	27	104	0	48	15892
2026-01-10 22:04:14.20	47.62	6.54	-38.5	-49.1	3.5	7.71e-01	0	27	104	0	52	17328
2026-01-10 22:04:15.18	47.47	6.59	-47.0	-64.1	3.5	7.71e-01	0	27	104	0	60	61375
2026-01-10 22:04:16.16	47.33	6.63	-40.4	-51.3	3.5	7.71e-01	0	27	104	0	60	14133
2026-01-10 22:04:17.13	47.18	6.67	-46.5	-64.7	3.5	7.71e-01	0	27	104	0	60	66423
2026-01-10 22:04:18.11	47.04	6.72	-39.2	-49.9	3.6	7.71e-01	0	27	104	0	54	17011
2026-01-10 22:04:19.09	46.89	6.76	-39.0	-49.7	3.5	7.71e-01	0	27	104	0	54	16554
2026-01-10 22:04:20.06	46.74	6.81	-38.3	-48.9	3.5	7.71e-01	0	27	104	0	52	16945
2026-01-10 22:04:21.04	46.60	6.85	-38.3	-48.9	3.5	7.71e-01	0	27	104	0	52	16939
2026-01-10 22:04:22.02	46.45	6.90	-46.8	-62.4	3.5	7.71e-01	0	27	104	0	60	50774
2026-01-10 22:04:23.00	46.30	6.94	-43.4	-55.2	3.5	7.71e-01	0	27	104	0	60	22107
2026-01-10 22:04:23.98	46.15	6.99	-45.5	-64.8	3.5	7.71e-01	0	27	104	0	60	66939
2026-01-10 22:04:24.95	46.00	7.03	-46.4	-63.9	3.5	7.71e-01	0	27	104	0	60	60418
2026-01-10 22:04:25.93	45.85	7.07	-42.1	-53.5	3.6	7.71e-01	0	27	104	0	56	22913
2026-01-10 22:04:26.90	45.70	7.12	-42.1	-53.5	3.5	7.71e-01	0	27	104	0	58	20353
2026-01-10 22:04:27.88	45.55	7.16	-42.2	-53.7	3.5	7.71e-01	0	27	104	0	58	20906
2026-01-10 22:04:28.85	45.40	7.20	-42.2	-53.7	3.5	7.71e-01	0	27	104	0	58	20888
2026-01-10 22:04:29.83	45.25	7.25	-42.5	-54.4	3.5	7.71e-01	0	27	104	0	58	22743
2026-01-10 22:04:30.81	45.09	7.29	-45.1	-60.5	3.5	7.71e-01	0	27	104	0	60	40845
2026-01-10 22:04:31.78	44.94	7.33	-39.1	-49.9	3.5	7.71e-01	0	27	104	0	54	17015
2026-01-10 22:04:32.76	44.79	7.38	-46.7	-63.2	3.5	7.71e-01	0	27	104	0	60	55738
2026-01-10 22:04:33.74	44.63	7.42	-40.3	-51.1	3.5	7.71e-01	0	27	104	0	56	17457
2026-01-10 22:04:34.71	44.48	7.46	-45.1	-59.2	3.5	7.71e-01	0	27	104	0	56	44104
2026-01-10 22:04:35.69	44.32	7.51	-40.2	-51.2	3.1	7.71e-01	0	27	104	0	60	13899
2026-01-10 22:04:36.67	44.17	7.55	-37.3	-47.7	3.5	7.71e-01	0	27	104	0	50	16530
2026-01-10 22:04:37.64	44.01	7.59	-36.4	-46.7	3.5	7.71e-01	0	27	104	0	48	16654
2026-01-10 22:04:38.62	43.85	7.63	-36.5	-46.9	3.5	7.71e-01	0	27	104	0	48	16935
2026-01-10 22:04:39.60	43.70	7.68	-37.5	-48.0	3.5	7.71e-01	0	27	104	0	46	21532
2026-01-10 22:04:40.59	43.54	7.72	-35.6	-45.8	3.5	7.71e-01	0	27	104	0	48	14999
2026-01-10 22:04:41.56	43.38	7.76	-40.5	-51.3	3.5	7.71e-01	0	27	104	0	50	25181
2026-01-10 22:04:42.54	43.22	7.80	-43.6	-55.7	3.5	7.71e-01	0	27	104	0	60	23365
2026-01-10 22:04:43.52	43.06	7.85	-40.5	-51.4	3.8	7.71e-01	0	27	104	0	50	25533
2026-01-10 22:04:44.49	42.90	7.89	-46.3	-62.0	3.5	7.71e-01	0	27	104	0	60	48504
2026-01-10 22:04:45.47	42.74	7.93	-38.6	-49.2	3.5	7.71e-01	0	27	104	0	52	17544
2026-01-10 22:04:46.44	42.58	7.97	-38.1	-48.6	3.5	7.71e-01	0	27	104	0	52	16386
2026-01-10 22:04:47.42	42.42	8.01	-37.5	-48.0	3.5	7.71e-01	0	27	104	0	50	17166
2026-01-10 22:04:48.39	42.26	8.05	-37.0	-47.5	3.5	7.71e-01	0	27	104	0	48	18132
2026-01-10 22:04:49.37	42.10	8.10	-43.2	-54.9	3.5	7.71e-01	0	27	104	0	60	21433
2026-01-10 22:04:50.35	41.93	8.14	-39.4	-50.1	3.5	7.71e-01	0	27	104	0	56	15538
2026-01-10 22:04:51.33	41.77	8.18	-45.9	-65.2	3.5	7.71e-01	0	27	104	0	60	70058
2026-01-10 22:04:52.31	41.61	8.22	-45.7	-60.1	3.5	7.71e-01	0	27	104	0	60	39085
2026-01-10 22:04:53.29	41.44	8.26	-37.9	-48.4	3.5	7.71e-01	0	27	104	0	50	18024
2026-01-10 22:04:54.26	41.28	8.30	-37.8	-48.3	3.5	7.71e-01	0	27	104	0	50	17710
2026-01-10 22:04:55.24	41.11	8.34	-37.2	-47.6	3.5	7.71e-01	0	27	104	0	50	16429
2026-01-10 22:04:56.22	40.94	8.38	-36.1	-46.4	3.5	7.71e-01	0	27	104	0	48	16118
2026-01-10 22:04:57.20	40.78	8.42	-35.8	-46.1	3.5	7.71e-01	0	27	104	0	46	17389
2026-01-10 22:04:58.18	40.61	8.46	-35.7	-46.0	3.5	7.71e-01	0	27	104	0	46	17196
2026-01-10 22:04:59.16	40.44	8.50	-37.8	-48.3	3.5	7.71e-01	0	27	104	0	50	17865
2026-01-10 22:05:00.14	40.27	8.54	-46.9	-65.0	3.5	7.71e-01	0	27	104	0	60	68831
2026-01-10 22:05:01.12	40.11	8.58	-39.6	-50.2	3.5	7.71e-01	0	27	104	0	56	15635
2026-01-10 22:05:02.09	39.94	8.62	-45.0	-64.6	3.5	7.71e-01	0	27	104	0	60	65068
2026-01-10 22:05:03.07	39.77	8.66	-40.5	-51.6	3.5	7.71e-01	0	27	104	0	58	16332
2026-01-10 22:05:04.05	39.60	8.70	-38.8	-49.5	3.5	7.71e-01	0	27	104	0	52	18107
2026-01-10 22:05:05.03	39.43	8.74	-37.1	-47.5	3.5	7.71e-01	0	27	104	0	50	16285
2026-01-10 22:05:06.00	39.26	8.78	-36.2	-46.5	3.5	7.71e-01	0	27	104	0	48	16255
2026-01-10 22:05:06.98	39.09	8.82	-40.6	-51.5	3.5	7.71e-01	0	28	104	0	54	20435
2026-01-10 22:05:07.96	38.91	8.85	-37.6	-48.2	3.5	7.71e-01	0	27	104	0	48	19682
2026-01-10 22:05:08.94	38.74	8.89	-46.5	-65.0	3.5	7.71e-01	0	27	104	0	60	68258
2026-01-10 22:05:09.91	38.57	8.93	-42.7	-54.2	3.5	7.71e-01	0	27	104	0	60	19777
2026-01-10 22:05:10.89	38.39	8.97	-46.2	-65.2	3.5	7.71e-01	0	27	104	0	60	69890
2026-01-10 22:05:11.86	38.22	9.01	-39.6	-50.3	3.5	7.71e-01	0	27	104	0	56	15859
2026-01-10 22:05:12.84	38.05	9.04	-38.5	-49.0	3.5	7.71e-01	0	27	104	0	52	17240
2026-01-10 22:05:13.82	37.87	9.08	-37.4	-47.8	3.5	7.71e-01	0	27	104	0	50	16876
2026-01-10 22:05:14.79	37.70	9.12	-36.7	-47.1	3.5	7.71e-01	0	27	104	0	48	17456
2026-01-10 22:05:15.77	37.52	9.16	-37.8	-48.3	3.5	7.71e-01	0	27	104	0	48	19924
2026-01-10 22:05:16.75	37.34	9.19	-36.0	-46.4	3.5	7.71e-01	0	27	104	0	46	18038
2026-01-10 22:05:17.73	37.17	9.23	-45.8	-60.8	3.4	7.71e-01	0	27	104	0	60	42204
2026-01-10 22:05:18.70	36.99	9.27	-42.6	-54.0	3.5	7.71e-01	0	27	104	0	60	19392
2026-01-10 22:05:19.68	36.81	9.30	-43.4	-55.8	3.5	7.71e-01	0	27	104	0	52	37755
2026-01-10 22:05:20.66	36.63	9.34	-45.0	-59.6	3.5	7.71e-01	0	27	104	0	60	36668
2026-01-10 22:05:21.64	36.46	9.37	-41.0	-52.2	3.5	7.71e-01	0	27	104	0	58	17566
2026-01-10 22:05:22.61	36.28	9.41	-39.2	-49.9	3.5	7.71e-01	0	27	104	0	54	17023
2026-01-10 22:05:23.59	36.10	9.45	-38.1	-48.5	3.5	7.71e-01	0	27	104	0	52	16322
2026-01-10 22:05:24.57	35.92	9.48	-39.7	-50.4	3.5	7.71e-01	0	27	104	0	50	22751
2026-01-10 22:05:25.55	35.74	9.52	-43.5	-55.4	3.5	7.71e-01	0	27	104	0	60	22669
2026-01-10 22:05:26.52	35.56	9.55	-38.2	-48.7	3.4	7.71e-01	0	27	104	0	50	18557
2026-01-10 22:05:27.50	35.37	9.59	-45.5	-64.5	3.5	7.71e-01	0	27	104	0	60	64827
2026-01-10 22:05:28.48	35.19	9.62	-40.3	-51.3	3.5	7.71e-01	0	27	104	0	60	14054
2026-01-10 22:05:29.45	35.01	9.66	-37.1	-47.5	3.5	7.71e-01	0	27	104	0	48	18253
2026-01-10 22:05:30.43	34.83	9.69	-36.7	-47.1	3.5	7.71e-01	0	27	104	0	48	17358
2026-01-10 22:05:31.41	34.64	9.72	-36.3	-46.7	3.5	7.71e-01	0	27	104	0	48	16685
2026-01-10 22:05:32.39	34.46	9.76	-36.2	-46.6	3.6	7.71e-01	0	27	104	0	48	16331
2026-01-10 22:05:33.36	34.27	9.79	-36.2	-46.6	3.5	7.71e-01	0	27	104	0	48	16327
2026-01-10 22:05:34.34	34.09	9.82	-36.3	-46.6	3.5	7.71e-01	0	27	104	0	48	16433
2026-01-10 22:05:35.32	33.90	9.86	-36.8	-47.2	3.5	7.71e-01	0	27	104	0	48	17499
2026-01-10 22:05:36.29	33.72	9.89	-45.5	-61.0	3.5	7.71e-01	0	27	104	0	60	43151
2026-01-10 22:05:37.27	33.53	9.92	-37.9	-48.4	3.7	7.71e-01	0	27	104	0	54	14300
2026-01-10 22:05:38.25	33.34	9.96	-46.7	-65.0	3.5	7.71e-01	0	27	104	0	60	68265
2026-01-10 22:05:39.22	33.16	9.99	-40.1	-51.1	3.5	7.71e-01	0	27	104	0	54	19465
2026-01-10 22:05:40.20	32.97	10.02	-38.3	-49.0	3.5	7.71e-01	0	27	104	0	52	17195
2026-01-10 22:05:41.18	32.78	10.05	-36.8	-47.2	3.5	7.71e-01	0	27	104	0	48	17612
2026-01-10 22:05:42.16	32.59	10.08	-35.9	-46.2	3.5	7.71e-01	0	27	104	0	46	17687
2026-01-10 22:05:43.13	32.41	10.11	-39.4	-50.0	3.5	7.71e-01	0	27	104	0	54	17268
2026-01-10 22:05:44.11	32.22	10.14	-37.4	-47.9	3.5	7.71e-01	0	27	104	0	48	19107
2026-01-10 22:05:45.09	32.02	10.18	-46.3	-65.2	3.5	7.71e-01	0	27	104	0	60	70251
2026-01-10 22:05:46.06	31.84	10.21	-40.9	-51.7	3.5	7.71e-01	0	27	104	0	56	18595
2026-01-10 22:05:47.04	31.64	10.24	-47.3	-64.7	3.5	7.71e-01	0	27	104	0	60	66420
2026-01-10 22:05:48.02	31.45	10.27	-36.8	-47.3	3.5	7.71e-01	0	27	104	0	50	15923
2026-01-10 22:05:49.00	31.26	10.30	-35.9	-46.2	3.5	7.71e-01	0	27	104	0	48	15704
2026-01-10 22:05:49.97	31.07	10.33	-36.1	-46.4	3.5	7.71e-01	0	27	104	0	46	18048
2026-01-10 22:05:50.95	30.88	10.35	-36.1	-46.5	3.5	7.71e-01	0	27	104	0	46	18176
2026-01-10 22:05:51.93	30.68	10.38	-44.6	-57.2	3.5	7.71e-01	0	27	104	0	60	27966
2026-01-10 22:05:52.91	30.49	10.41	-36.7	-47.1	3.6	7.71e-01	0	27	104	0	46	19536
2026-01-10 22:05:53.89	30.30	10.44	-46.4	-65.2	3.5	7.71e-01	0	27	104	0	60	70060
2026-01-10 22:05:54.87	30.10	10.47	-40.6	-51.5	3.5	7.71e-01	0	27	104	0	54	20412
2026-01-10 22:05:55.84	29.91	10.50	-46.8	-64.6	3.5	7.71e-01	0	27	104	0	60	65673
2026-01-10 22:05:56.82	29.71	10.53	-37.9	-48.4	3.6	7.71e-01	0	27	104	0	52	16065
2026-01-10 22:05:57.80	29.52	10.55	-36.1	-46.4	3.5	7.71e-01	0	27	104	0	48	16090
2026-01-10 22:05:58.78	29.32	10.58	-35.7	-45.9	3.5	7.71e-01	0	27	104	0	46	17049
2026-01-10 22:05:59.75	29.13	10.61	-35.4	-45.7	3.5	7.71e-01	0	27	104	0	46	16596
2026-01-10 22:06:00.72	28.93	10.63	-39.3	-50.0	3.5	7.71e-01	0	27	104	0	50	21532
2026-01-10 22:06:01.70	28.73	10.66	-35.1	-45.4	3.5	7.71e-01	0	27	104	0	46	16000
2026-01-10 22:06:02.68	28.54	10.69	-43.8	-56.3	3.4	7.71e-01	0	27	104	0	54	35338
2026-01-10 22:06:03.65	28.34	10.71	-42.7	-54.1	3.5	7.71e-01	0	27	104	0	60	19612
2026-01-10 22:06:04.63	28.14	10.74	-44.8	-57.9	3.8	7.71e-01	0	27	104	0	54	42664
2026-01-10 22:06:05.61	27.94	10.76	-45.6	-59.7	3.5	7.71e-01	0	27	104	0	60	37238
2026-01-10 22:06:06.58	27.75	10.79	-41.3	-52.5	3.5	7.71e-01	0	27	104	0	58	18205
2026-01-10 22:06:07.56	27.55	10.81	-39.3	-49.9	3.5	7.71e-01	0	27	104	0	54	17079
2026-01-10 22:06:08.54	27.35	10.84	-38.0	-48.6	3.5	7.71e-01	0	27	104	0	52	16440
2026-01-10 22:06:09.52	27.15	10.86	-38.6	-49.3	3.5	7.71e-01	0	27	104	0	50	19895
2026-01-10 22:06:10.49	26.95	10.88	-43.1	-54.7	3.5	7.71e-01	0	27	104	0	60	20943
2026-01-10 22:06:11.47	26.75	10.91	-38.4	-48.9	3.5	7.71e-01	0	27	104	0	50	19084
2026-01-10 22:06:12.45	26.54	10.93	-47.1	-64.6	3.5	7.71e-01	0	27	104	0	60	65698
2026-01-10 22:06:13.43	26.34	10.95	-43.3	-55.4	3.6	7.71e-01	0	27	104	0	60	22668
2026-01-10 22:06:14.41	26.14	10.98	-36.9	-47.4	3.5	7.71e-01	0	27	104	0	48	17916
2026-01-10 22:06:15.39	25.94	11.00	-36.4	-46.8	3.5	7.71e-01	0	27	104	0	48	16793
2026-01-10 22:06:16.36	25.74	11.02	-36.0	-46.3	3.5	7.71e-01	0	27	104	0	48	15945
2026-01-10 22:06:17.34	25.53	11.04	-35.4	-45.6	3.6	7.71e-01	0	27	104	0	46	16477
2026-01-10 22:06:18.32	25.33	11.06	-35.3	-45.4	3.6	7.71e-01	0	27	104	0	46	16113
2026-01-10 22:06:19.29	25.13	11.08	-36.1	-46.4	3.6	7.71e-01	0	27	104	0	46	17941
2026-01-10 22:06:20.27	24.92	11.11	-36.7	-47.1	3.4	7.71e-01	0	27	104	0	48	17318
2026-01-10 22:06:21.25	24.72	11.13	-46.3	-59.2	4.5	7.71e-01	0	27	104	0	60	35036
2026-01-10 22:06:22.22	24.52	11.15	-36.9	-38.4	26.9	7.71e-01	45	27	0	0	52	5051
2026-01-10 22:06:23.20	24.31	11.17	-47.2	-62.9	3.6	7.71e-01	0	27	104	1048576	60	53468
2026-01-10 22:06:24.17	24.11	11.18	-36.4	-37.8	26.8	7.71e-01	58	27	0	1572864	48	5979
2026-01-10 22:06:25.15	23.90	11.20	-35.6	-37.0	27.8	7.71e-01	45	27	0	3145728	46	6093
2026-01-10 22:06:26.13	23.70	11.22	-35.3	-36.5	28.1	7.71e-01	58	27	0	5242880	46	5788
2026-01-10 22:06:27.11	23.49	11.24	-34.8	-36.1	28.5	7.71e-01	61	27	0	6815744	44	6150
2026-01-10 22:06:28.09	23.28	11.26	-34.6	-35.8	28.6	7.71e-01	46	27	0	8912896	44	5993
2026-01-10 22:06:29.06	23.08	11.28	-34.5	-35.8	28.7	7.71e-01	56	27	0	10485760	44	5933
2026-01-10 22:06:30.05	22.87	11.30	-34.6	-35.9	28.6	7.71e-01	60	27	0	12582912	44	5999
2026-01-10 22:06:31.02	22.67	11.31	-34.4	-35.7	28.8	7.71e-01	61	27	0	14155776	44	5887
2026-01-10 22:06:32.00	22.46	11.33	-34.6	-35.8	28.6	7.71e-01	59	27	0	16252928	44	5985
2026-01-10 22:06:32.97	22.25	11.35	-34.7	-35.9	28.6	7.71e-01	50	27	0	17825792	44	6058
2026-01-10 22:06:33.95	22.04	11.36	-34.6	-35.9	28.6	7.71e-01	62	27	0	19922944	44	6051
2026-01-10 22:06:34.93	21.84	11.38	-34.7	-36.0	28.5	7.71e-01	60	27	0	21495808	44	6125
2026-01-10 22:06:35.91	21.63	11.39	-34.6	-35.9	28.7	7.71e-01	46	27	0	23592960	44	6038
2026-01-10 22:06:36.88	21.42	11.41	-34.7	-36.0	28.6	7.71e-01	59	27	0	25165824	44	6069
2026-01-10 22:06:37.86	21.21	11.42	-34.5	-35.7	28.8	7.71e-01	57	27	0	27262976	44	5912
2026-01-10 22:06:38.83	21.00	11.44	-34.6	-35.9	28.6	7.71e-01	56	27	0	28835840	44	6024
2026-01-10 22:06:39.81	20.80	11.45	-34.5	-35.8	28.7	7.71e-01	55	27	0	30932992	44	5948
2026-01-10 22:06:40.79	20.59	11.47	-34.6	-35.9	28.6	7.71e-01	62	27	0	32505856	44	6012
2026-01-10 22:06:41.77	20.38	11.48	-34.6	-35.9	28.6	7.71e-01	58	27	0	34603008	44	6016
2026-01-10 22:06:42.75	20.17	11.49	-34.6	-35.8	28.7	7.71e-01	59	27	0	36175872	44	5976
2026-01-10 22:06:43.72	19.96	11.51	-34.5	-35.8	28.8	7.71e-01	57	27	0	38273024	44	5935
2026-01-10 22:06:44.70	19.75	11.52	-34.5	-35.8	28.8	7.71e-01	59	27	0	39845888	44	5955
2026-01-10 22:06:45.68	19.54	11.53	-34.7	-35.9	28.6	7.71e-01	60	27	0	41943040	44	6047
2026-01-10 22:06:46.66	19.33	11.54	-34.6	-35.8	28.6	7.71e-01	48	27	0	43515904	44	5980
2026-01-10 22:06:47.64	19.11	11.55	-34.4	-35.7	28.8	7.71e-01	57	27	0	45613056	44	5880
2026-01-10 22:06:48.62	18.90	11.57	-34.5	-35.7	28.8	7.71e-01	59	27	0	47185920	44	5917
2026-01-10 22:06:49.59	18.69	11.58	-34.4	-35.7	28.8	7.71e-01	58	27	0	49283072	44	5866
2026-01-10 22:06:50.57	18.48	11.59	-34.6	-35.8	28.6	7.71e-01	59	27	0	50855936	44	5983
2026-01-10 22:06:51.54	18.27	11.60	-34.6	-35.9	28.6	7.71e-01	47	27	0	52428800	44	6013
2026-01-10 22:06:52.52	18.06	11.61	-34.8	-36.0	28.5	7.71e-01	60	27	0	54525952	44	6111
2026-01-10 22:06:53.49	17.85	11.62	-34.7	-35.9	28.6	7.71e-01	58	27	0	56098816	44	6052
2026-01-10 22:06:54.47	17.64	11.63	-34.6	-35.9	28.6	7.71e-01	54	27	0	58195968	44	6000
2026-01-10 22:06:55.45	17.43	11.63	-34.4	-35.6	28.8	7.71e-01	59	27	0	59768832	44	5840
2026-01-10 22:06:56.43	17.21	11.64	-34.6	-35.8	28.7	7.71e-01	57	27	0	61865984	44	5968
2026-01-10 22:06:57.40	17.00	11.65	-34.5	-35.8	28.8	7.71e-01	56	27	0	63963136	44	5935
2026-01-10 22:06:58.38	16.79	11.66	-34.7	-35.9	28.6	7.71e-01	60	27	0	65536000	44	6041
2026-01-10 22:06:59.36	16.58	11.66	-34.7	-35.9	28.6	7.71e-01	61	27	0	67633152	44	6042
2026-01-10 22:07:00.34	16.37	11.67	-34.7	-36.0	28.6	7.71e-01	60	27	0	69206016	44	6106
2026-01-10 22:07:01.32	16.15	11.68	-34.7	-36.0	28.6	7.71e-01	62	27	0	71303168	44	6083
2026-01-10 22:07:02.30	15.94	11.68	-34.6	-35.8	28.7	7.71e-01	57	27	0	72876032	44	5974
2026-01-10 22:07:03.28	15.73	11.69	-34.6	-35.8	28.7	7.71e-01	62	27	0	74973184	44	5959
2026-01-10 22:07:04.25	15.51	11.70	-34.6	-35.8	28.7	7.71e-01	61	27	0	76546048	44	5982
2026-01-10 22:07:05.23	15.30	11.70	-34.5	-35.8	28.7	7.71e-01	44	27	0	78118912	44	5950
2026-01-10 22:07:06.20	15.09	11.71	-34.5	-35.7	28.8	7.71e-01	55	27	0	80216064	44	5903
2026-01-10 22:07:07.18	14.88	11.71	-34.5	-35.7	28.8	7.71e-01	59	27	0	81788928	44	5923
2026-01-10 22:07:08.16	14.66	11.71	-34.7	-35.9	28.7	7.71e-01	58	27	0	83886080	44	6043
2026-01-10 22:07:09.13	14.45	11.72	-34.6	-35.9	28.7	7.71e-01	58	27	0	85458944	44	5996
2026-01-10 22:07:10.11	14.24	11.72	-34.6	-35.9	28.6	7.71e-01	47	27	0	87556096	44	6014
2026-01-10 22:07:11.09	14.02	11.72	-34.6	-35.9	28.7	7.71e-01	59	27	0	89128960	44	5998
2026-01-10 22:07:12.06	13.81	11.73	-34.6	-35.9	28.7	7.71e-01	55	27	0	91226112	44	6034
2026-01-10 22:07:13.04	13.60	11.73	-34.7	-35.9	28.7	7.71e-01	53	27	0	92798976	44	6051
2026-01-10 22:07:14.01	13.39	11.73	-34.7	-35.9	28.6	7.71e-01	59	27	0	94896128	44	6046
2026-01-10 22:07:14.99	13.17	11.73	-34.7	-35.9	28.7	7.71e-01	57	27	0	96468992	44	6026
2026-01-10 22:07:15.97	12.96	11.73	-34.8	-36.0	28.5	7.71e-01	50	27	0	98566144	44	6122
2026-01-10 22:07:16.95	12.74	11.73	-34.5	-35.8	28.8	7.71e-01	59	27	0	100139008	44	5929
2026-01-10 22:07:17.93	12.53	11.73	-34.4	-35.6	29.0	7.71e-01	56	27	0	102236160	44	5825
2026-01-10 22:07:18.91	12.32	11.73	-34.5	-35.8	28.7	7.71e-01	62	27	0	103809024	44	5950
2026-01-10 22:07:19.88	12.11	11.73	-34.6	-35.8	28.7	7.71e-01	62	27	0	105906176	44	5964
2026-01-10 22:07:20.87	11.89	11.73	-34.7	-36.0	28.5	7.71e-01	45	27	0	107479040	44	6094
2026-01-10 22:07:21.84	11.68	11.73	-34.7	-35.9	28.6	7.71e-01	59	27	0	109576192	44	6052
2026-01-10 22:07:22.82	11.46	11.73	-34.7	-35.9	28.6	7.71e-01	61	27	0	111149056	44	6041
2026-01-10 22:07:23.79	11.25	11.73	-34.7	-35.9	28.6	7.71e-01	59	27	0	113246208	44	6058
2026-01-10 22:07:24.76	11.04	11.73	-34.6	-35.8	28.7	7.71e-01	63	27	0	114819072	44	5972
2026-01-10 22:07:25.74	10.83	11.72	-34.6	-35.9	28.6	7.71e-01	58	27	0	116916224	44	6025
2026-01-10 22:07:26.72	10.61	11.72	-34.5	-35.7	28.7	7.71e-01	46	27	0	118489088	44	5898
2026-01-10 22:07:27.70	10.40	11.72	-34.5	-35.8	28.8	7.71e-01	60	27	0	120586240	44	5930
2026-01-10 22:07:28.68	10.19	11.71	-34.6	-35.8	28.7	7.71e-01	58	27	0	122159104	44	5959
2026-01-10 22:07:29.65	9.97	11.71	-34.7	-35.9	28.6	7.71e-01	60	27	0	124256256	44	6061
2026-01-10 22:07:30.63	9.76	11.70	-34.7	-36.0	28.6	7.71e-01	60	27	0	125829120	44	6067
2026-01-10 22:07:31.60	9.55	11.70	-34.9	-36.1	28.4	7.71e-01	59	27	0	127926272	44	6205
2026-01-10 22:07:32.58	9.34	11.69	-34.8	-36.1	28.5	7.71e-01	58	27	0	129499136	44	6155
2026-01-10 22:07:33.56	9.12	11.69	-34.6	-35.8	28.7	7.71e-01	59	27	0	131596288	44	5993
2026-01-10 22:07:34.53	8.91	11.68	-34.7	-36.0	28.6	7.71e-01	48	27	0	133169152	44	6067
2026-01-10 22:07:35.51	8.70	11.68	-34.6	-35.9	28.6	7.71e-01	59	27	0	135266304	44	6017
2026-01-10 22:07:36.49	8.49	11.67	-34.7	-35.9	28.7	7.71e-01	60	27	0	136839168	44	6047
2026-01-10 22:07:37.47	8.27	11.66	-34.8	-36.1	28.4	7.71e-01	52	27	0	138936320	44	6175
2026-01-10 22:07:38.45	8.06	11.66	-34.7	-35.9	28.6	7.71e-01	61	27	0	140509184	44	6057
2026-01-10 22:07:39.43	7.85	11.65	-34.7	-35.9	28.6	7.71e-01	60	27	0	142606336	44	6059
2026-01-10 22:07:40.40	7.64	11.64	-34.5	-35.8	28.7	7.71e-01	61	27	0	144179200	44	5948
2026-01-10 22:07:41.38	7.42	11.63	-34.6	-35.9	28.7	7.71e-01	59	27	0	146276352	44	6018
2026-01-10 22:07:42.35	7.21	11.62	-34.6	-35.9	28.7	7.71e-01	56	27	0	147849216	44	6010
2026-01-10 22:07:43.33	7.00	11.61	-34.6	-35.9	28.7	7.71e-01	62	27	0	149946368	44	6005
2026-01-10 22:07:44.30	6.79	11.61	-34.6	-35.8	28.7	7.71e-01	59	27	0	151519232	44	5989
2026-01-10 22:07:45.28	6.58	11.60	-34.6	-35.9	28.7	7.71e-01	45	27	0	153616384	44	6001
2026-01-10 22:07:46.26	6.37	11.59	-34.6	-35.9	28.7	7.71e-01	56	27	0	155189248	44	5998
2026-01-10 22:07:47.23	6.16	11.57	-34.5	-35.8	28.8	7.71e-01	59	27	0	157286400	44	5935
2026-01-10 22:07:48.20	5.95	11.56	-34.7	-35.9	28.7	7.71e-01	60	27	0	158859264	44	6034
2026-01-10 22:07:49.18	5.74	11.55	-34.6	-35.9	28.6	7.71e-01	58	27	0	160956416	44	6013
2026-01-10 22:07:50.16	5.53	11.54	-34.7	-36.0	28.6	7.71e-01	45	27	0	162529280	44	6099
2026-01-10 22:07:51.14	5.32	11.53	-34.7	-36.0	28.6	7.71e-01	61	27	0	164626432	44	6092
2026-01-10 22:07:52.12	5.11	11.52	-34.6	-35.8	28.7	7.71e-01	55	27	0	166199296	44	5967
2026-01-10 22:07:53.10	4.90	11.50	-34.6	-35.8	28.7	7.71e-01	51	27	0	168296448	44	5968
2026-01-10 22:07:54.08	4.69	11.49	-34.5	-35.7	28.8	7.71e-01	56	27	0	169869312	44	5886
2026-01-10 22:07:55.05	4.48	11.48	-34.6	-35.8	28.7	7.71e-01	60	27	0	171966464	44	5968
2026-01-10 22:07:56.03	4.27	11.46	-34.7	-35.9	28.6	7.71e-01	49	27	0	173539328	44	6064
2026-01-10 22:07:57.01	4.06	11.45	-34.7	-35.9	28.7	7.71e-01	59	27	0	175636480	44	6038
2026-01-10 22:07:57.98	3.85	11.44	-34.8	-36.1	28.5	7.71e-01	57	27	0	177209344	44	6166
2026-01-10 22:07:58.96	3.64	11.42	-34.7	-35.9	28.6	7.71e-01	60	27	0	179306496	44	6036
2026-01-10 22:07:59.93	3.44	11.41	-34.7	-35.9	28.7	7.71e-01	63	27	0	180879360	44	6028
2026-01-10 22:08:00.91	3.23	11.39	-34.6	-35.9	28.6	7.71e-01	60	27	0	182976512	44	6005
2026-01-10 22:08:01.89	3.02	11.38	-34.6	-35.9	28.7	7.71e-01	59	27	0	184549376	44	6006
2026-01-10 22:08:02.86	2.81	11.36	-34.7	-35.9	28.7	7.71e-01	57	27	0	186646528	44	6057
2026-01-10 22:08:03.84	2.61	11.34	-34.6	-35.8	28.6	7.71e-01	46	27	0	188219392	44	5957
2026-01-10 22:08:04.82	2.40	11.33	-34.6	-35.8	28.7	7.71e-01	57	27	0	190316544	44	5973
2026-01-10 22:08:05.79	2.19	11.31	-34.7	-35.9	28.6	7.71e-01	62	27	0	191889408	44	6043
2026-01-10 22:08:06.77	1.99	11.29	-34.7	-36.0	28.6	7.71e-01	40	27	0	193986560	44	6078
2026-01-10 22:08:07.75	1.78	11.28	-34.8	-36.1	28.6	7.71e-01	60	27	0	195559424	44	6137
2026-01-10 22:08:08.73	1.57	11.26	-34.7	-36.0	28.6	7.71e-01	56	27	0	197656576	44	6085
2026-01-10 22:08:09.71	1.37	11.24	-34.8	-36.0	28.5	7.71e-01	59	27	0	199229440	44	6118
2026-01-10 22:08:10.69	1.16	11.22	-34.7	-35.9	28.6	7.71e-01	58	27	0	201326592	44	6046
2026-01-10 22:08:11.67	0.95	11.20	-34.8	-36.1	28.5	7.71e-01	55	27	0	202899456	44	6164
2026-01-10 22:08:12.65	0.75	11.18	-34.9	-36.1	28.5	7.71e-01	52	27	0	204996608	44	6189
2026-01-10 22:08:13.62	0.55	11.16	-34.9	-36.2	28.5	7.71e-01	58	27	0	206569472	44	6249
2026-01-10 22:08:14.60	0.34	11.14	-35.0	-36.3	28.3	7.71e-01	47	27	0	208666624	44	6285
2026-01-10 22:08:15.58	0.14	11.12	-35.0	-36.3	28.3	7.71e-01	52	27	0	210239488	44	6317
2026-01-10 22:08:16.55	359.93	11.10	-34.9	-36.2	28.5	7.71e-01	58	27	0	212336640	44	6208
2026-01-10 22:08:17.53	359.73	11.08	-34.9	-36.2	28.4	7.71e-01	58	27	0	213909504	44	6240
2026-01-10 22:08:18.51	359.53	11.06	-34.7	-35.9	28.7	7.71e-01	60	27	0	216006656	44	6021
2026-01-10 22:08:19.49	359.32	11.04	-34.8	-36.0	28.5	7.71e-01	53	27	0	217579520	44	6108
2026-01-10 22:08:20.47	359.12	11.02	-34.7	-35.9	28.6	7.71e-01	63	27	0	219676672	44	6050
2026-01-10 22:08:21.44	358.92	10.99	-34.8	-36.1	28.5	7.71e-01	57	27	0	221249536	44	6158
2026-01-10 22:08:22.42	358.72	10.97	-34.9	-36.1	28.4	7.71e-01	55	27	0	223346688	44	6197
2026-01-10 22:08:23.39	358.52	10.95	-34.8	-36.0	28.5	7.71e-01	62	27	0	224919552	44	6111
2026-01-10 22:08:24.37	358.32	10.93	-34.8	-36.1	28.5	7.71e-01	57	27	0	227016704	44	6148
2026-01-10 22:08:25.35	358.11	10.90	-34.9	-36.1	28.5	7.71e-01	46	27	0	228589568	44	6183
2026-01-10 22:08:26.32	357.92	10.88	-34.9	-36.1	28.4	7.71e-01	59	27	0	230686720	44	6184
2026-01-10 22:08:27.30	357.71	10.86	-34.7	-35.9	28.7	7.71e-01	59	27	0	232259584	44	6025
2026-01-10 22:08:28.28	357.51	10.83	-34.7	-35.9	28.6	7.71e-01	57	27	0	233832448	44	6062
2026-01-10 22:08:29.26	357.31	10.81	-34.8	-36.0	28.5	7.71e-01	60	27	0	235929600	44	6126
2026-01-10 22:08:30.24	357.12	10.78	-34.8	-36.0	28.6	7.71e-01	46	27	0	237502464	44	6134
2026-01-10 22:08:31.22	356.92	10.76	-34.8	-36.1	28.5	7.71e-01	55	27	0	239599616	44	6145
2026-01-10 22:08:32.19	356.72	10.73	-34.8	-36.1	28.5	7.71e-01	58	27	0	241172480	44	6139
2026-01-10 22:08:33.17	356.52	10.71	-34.9	-36.2	28.3	7.71e-01	54	27	0	243269632	44	6240
2026-01-10 22:08:34.14	356.33	10.68	-35.0	-36.3	28.3	7.71e-01	61	27	0	244842496	44	6323
2026-01-10 22:08:35.12	356.13	10.66	-35.0	-36.3	28.3	7.71e-01	60	27	0	246939648	44	6304
2026-01-10 22:08:36.09	355.93	10.63	-34.9	-36.1	28.4	7.71e-01	45	27	0	248512512	44	6184
2026-01-10 22:08:37.07	355.74	10.60	-34.8	-36.0	28.6	7.71e-01	59	27	0	250609664	44	6097
2026-01-10 22:08:38.05	355.54	10.58	-34.7	-36.0	28.5	7.71e-01	61	27	0	252182528	44	6079
2026-01-10 22:08:39.03	355.34	10.55	-34.9	-36.2	28.4	7.71e-01	56	27	0	254279680	44	6232
2026-01-10 22:08:40.00	355.15	10.52	-34.9	-36.2	28.4	7.71e-01	63	27	0	256376832	44	6273
2026-01-10 22:08:40.98	354.95	10.49	-35.1	-36.4	28.2	7.71e-01	55	27	0	257949696	44	6368
2026-01-10 22:08:41.96	354.76	10.47	-35.0	-36.3	28.3	7.71e-01	60	27	0	259522560	44	6282
2026-01-10 22:08:42.93	354.57	10.44	-35.1	-36.4	28.1	7.71e-01	58	27	0	261619712	44	6399
2026-01-10 22:08:43.91	354.37	10.41	-35.1	-36.4	28.2	7.71e-01	53	27	0	263192576	44	6368
2026-01-10 22:08:44.88	354.18	10.38	-35.1	-36.4	28.2	7.71e-01	61	27	0	265289728	44	6385
2026-01-10 22:08:45.87	353.99	10.35	-34.9	-36.2	28.3	7.71e-01	58	27	0	266862592	44	6206
2026-01-10 22:08:46.84	353.80	10.32	-35.0	-36.2	28.3	7.71e-01	57	27	0	268959744	44	6251
2026-01-10 22:08:47.82	353.60	10.29	-34.8	-36.1	28.5	7.71e-01	57	27	0	270532608	44	6152
2026-01-10 22:08:48.80	353.41	10.26	-35.0	-36.3	28.3	7.71e-01	52	27	0	272629760	44	6320
2026-01-10 22:08:49.77	353.22	10.23	-35.0	-36.3	28.4	7.71e-01	60	27	0	274202624	44	6308
2026-01-10 22:08:50.75	353.03	10.20	-35.1	-36.3	28.2	7.71e-01	59	27	0	276299776	44	6335
2026-01-10 22:08:51.73	352.84	10.17	-35.2	-36.5	28.1	7.71e-01	45	27	0	277872640	44	6462
2026-01-10 22:08:52.70	352.65	10.14	-35.3	-36.6	28.0	7.71e-01	63	27	0	279969792	44	6508
2026-01-10 22:08:53.68	352.46	10.11	-35.0	-36.3	28.3	7.71e-01	58	27	0	281542656	44	6306
2026-01-10 22:08:54.66	352.27	10.08	-35.2	-36.5	28.0	7.71e-01	49	27	0	283639808	44	6435
2026-01-10 22:08:55.64	352.09	10.05	-35.1	-36.4	28.2	7.71e-01	57	27	0	285212672	44	6361
2026-01-10 22:08:56.61	351.90	10.02	-35.3	-36.6	28.1	7.71e-01	59	27	0	287309824	44	6529
2026-01-10 22:08:57.59	351.71	9.98	-35.0	-36.3	28.2	7.71e-01	56	27	0	288882688	44	6300
2026-01-10 22:08:58.57	351.52	9.95	-35.2	-36.5	28.0	7.71e-01	63	27	0	290979840	44	6442
2026-01-10 22:08:59.55	351.34	9.92	-35.4	-36.7	27.8	7.71e-01	47	27	0	292552704	44	6603
2026-01-10 22:09:00.53	351.15	9.89	-35.2	-36.4	28.0	7.71e-01	62	27	0	294649856	44	6419
2026-01-10 22:09:01.50	350.97	9.85	-35.5	-36.9	27.7	7.71e-01	57	27	0	296222720	44	6742
2026-01-10 22:09:02.48	350.78	9.82	-35.2	-36.5	27.9	7.71e-01	51	27	0	298319872	44	6475
2026-01-10 22:09:03.46	350.59	9.79	-35.8	-37.1	27.4	7.71e-01	59	27	0	299892736	44	6930
2026-01-10 22:09:04.44	350.41	9.75	-34.9	-36.2	28.2	7.71e-01	59	27	0	301989888	46	5532
2026-01-10 22:09:05.42	350.23	9.72	-35.4	-36.7	27.8	7.71e-01	55	27	0	303562752	44	6625
2026-01-10 22:09:06.40	350.04	9.68	-34.9	-36.2	28.2	7.71e-01	60	27	0	305659904	44	6229
2026-01-10 22:09:07.38	349.86	9.65	-35.8	-37.2	27.3	7.71e-01	63	27	0	307232768	44	6978
2026-01-10 22:09:08.36	349.68	9.62	-34.8	-36.0	28.4	7.71e-01	57	27	0	309329920	46	5462
2026-01-10 22:09:09.34	349.49	9.58	-35.5	-36.9	27.3	7.71e-01	61	27	0	310902784	44	6739
2026-01-10 22:09:10.32	349.31	9.55	-34.9	-36.1	28.3	7.71e-01	63	27	0	312999936	46	5507
2026-01-10 22:09:11.30	349.13	9.51	-36.0	-37.4	27.0	7.71e-01	60	27	0	314572800	44	7138
2026-01-10 22:09:12.28	348.95	9.48	-34.9	-36.2	28.2	7.71e-01	60	27	0	316669952	46	5540
2026-01-10 22:09:13.25	348.77	9.44	-36.3	-37.7	27.0	7.71e-01	45	27	0	318242816	46	6599
2026-01-10 22:09:14.22	348.59	9.41	-35.3	-36.5	28.0	7.71e-01	59	27	0	320339968	46	5771
2026-01-10 22:09:15.20	348.41	9.37	-36.0	-37.4	27.3	7.71e-01	63	27	0	321912832	46	6366
2026-01-10 22:09:16.17	348.24	9.33	-35.8	-37.1	27.4	7.71e-01	57	27	0	324009984	46	6164
2026-01-10 22:09:17.15	348.06	9.30	-36.1	-37.5	27.1	7.71e-01	56	27	0	325582848	46	6447
2026-01-10 22:09:18.13	347.88	9.26	-35.8	-37.1	27.4	7.71e-01	57	27	0	327680000	46	6197
2026-01-10 22:09:19.11	347.70	9.22	-35.4	-36.7	27.7	7.71e-01	59	27	0	329252864	46	5915
2026-01-10 22:09:20.09	347.53	9.19	-35.9	-37.2	27.3	7.71e-01	59	27	0	331350016	46	6259
2026-01-10 22:09:21.06	347.35	9.15	-35.1	-36.3	27.9	7.71e-01	53	27	0	332922880	44	6329
2026-01-10 22:09:22.05	347.17	9.11	-35.7	-37.0	27.5	7.71e-01	59	27	0	335020032	44	6868
2026-01-10 22:09:23.02	347.00	9.08	-35.4	-36.7	27.8	7.71e-01	59	28	0	336592896	44	6587
2026-01-10 22:09:24.00	346.82	9.04	-35.8	-37.1	27.5	7.71e-01	45	28	0	338690048	44	6931
2026-01-10 22:09:24.97	346.65	9.00	-35.3	-36.6	27.9	7.71e-01	56	27	0	340262912	44	6534
2026-01-10 22:09:25.95	346.48	8.96	-35.9	-37.2	27.3	7.71e-01	61	28	0	342360064	44	7042
2026-01-10 22:09:26.93	346.30	8.93	-35.1	-36.4	28.0	7.71e-01	58	28	0	343932928	44	6376
2026-01-10 22:09:27.91	346.13	8.89	-36.0	-37.4	27.3	7.71e-01	57	28	0	346030080	46	6357
2026-01-10 22:09:28.89	345.96	8.85	-35.2	-36.5	28.0	7.71e-01	44	28	0	347602944	46	5755
2026-01-10 22:09:29.87	345.79	8.81	-36.2	-37.6	26.9	7.71e-01	64	28	0	349700096	46	6544
2026-01-10 22:09:30.84	345.62	8.77	-35.3	-36.5	27.9	7.71e-01	60	28	0	351272960	46	5759
2026-01-10 22:09:31.82	345.45	8.73	-35.8	-37.1	27.4	7.71e-01	44	28	0	353370112	46	6184
2026-01-10 22:09:32.80	345.27	8.69	-35.7	-37.1	27.4	7.71e-01	59	28	0	354942976	46	6139
2026-01-10 22:09:33.78	345.10	8.65	-35.7	-37.0	27.5	7.71e-01	60	28	0	357040128	46	6106
2026-01-10 22:09:34.76	344.94	8.62	-35.9	-37.3	27.3	7.71e-01	62	28	0	358612992	46	6287
2026-01-10 22:09:35.74	344.77	8.58	-35.6	-36.9	27.6	7.71e-01	58	28	0	360710144	46	6036
2026-01-10 22:09:36.72	344.60	8.54	-36.2	-37.6	27.0	7.71e-01	58	28	0	362283008	46	6548
2026-01-10 22:09:37.70	344.43	8.50	-35.7	-37.0	27.5	7.71e-01	60	28	0	364380160	46	6089
2026-01-10 22:09:38.68	344.26	8.46	-35.7	-37.0	27.6	7.71e-01	59	28	0	365953024	46	6110
2026-01-10 22:09:39.65	344.10	8.42	-35.9	-37.2	27.3	7.71e-01	54	28	0	368050176	46	6243
2026-01-10 22:09:40.63	343.93	8.38	-35.8	-37.1	27.4	7.71e-01	58	28	0	369623040	46	6177
2026-01-10 22:09:41.61	343.76	8.34	-36.0	-37.4	27.2	7.71e-01	60	28	0	371720192	46	6384
2026-01-10 22:09:42.59	343.60	8.29	-35.5	-36.8	27.7	7.71e-01	46	28	0	373293056	46	5930
2026-01-10 22:09:43.56	343.44	8.25	-36.0	-37.3	27.2	7.71e-01	58	28	0	375390208	46	6326
2026-01-10 22:09:44.54	343.27	8.21	-35.7	-37.1	27.4	7.71e-01	61	28	0	376963072	46	6144
2026-01-10 22:09:45.52	343.11	8.17	-36.1	-37.4	27.1	7.71e-01	57	28	0	379060224	46	6421
2026-01-10 22:09:46.49	342.95	8.13	-36.0	-37.3	27.2	7.71e-01	61	28	0	380633088	46	6314
2026-01-10 22:09:47.47	342.78	8.09	-36.1	-37.5	26.9	7.71e-01	56	28	0	382730240	46	6460
2026-01-10 22:09:48.45	342.62	8.05	-36.0	-37.4	27.2	7.71e-01	61	28	0	384303104	46	6367
2026-01-10 22:09:49.43	342.46	8.01	-35.9	-37.3	27.2	7.71e-01	57	28	0	386400256	46	6298
2026-01-10 22:09:50.41	342.30	7.97	-35.9	-37.3	27.1	7.71e-01	59	28	0	387973120	46	6314
2026-01-10 22:09:51.38	342.14	7.92	-35.7	-37.0	27.4	7.71e-01	60	28	0	390070272	46	6104
2026-01-10 22:09:52.36	341.98	7.88	-36.0	-37.4	27.1	7.71e-01	59	28	0	391643136	46	6373
2026-01-10 22:09:53.34	341.82	7.84	-36.0	-37.3	27.0	7.71e-01	51	28	0	393740288	46	6330
2026-01-10 22:09:54.32	341.66	7.80	-35.9	-37.3	27.2	7.71e-01	62	28	0	395313152	46	6279
2026-01-10 22:09:55.30	341.50	7.76	-36.5	-37.9	26.5	7.71e-01	59	28	0	397410304	46	6796
2026-01-10 22:09:56.27	341.34	7.71	-36.2	-37.5	26.9	7.71e-01	62	28	0	398983168	46	6493
2026-01-10 22:09:57.25	341.18	7.67	-36.4	-37.8	26.7	7.71e-01	57	28	0	401080320	46	6655
2026-01-10 22:09:58.23	341.03	7.63	-35.9	-37.2	27.2	7.71e-01	61	28	0	402653184	46	6239
2026-01-10 22:09:59.21	340.87	7.59	-36.2	-37.6	26.8	7.71e-01	57	28	0	404750336	46	6549
2026-01-10 22:10:00.19	340.71	7.54	-36.1	-37.5	27.1	7.71e-01	59	28	0	406323200	46	6450
2026-01-10 22:10:01.16	340.56	7.50	-36.2	-37.6	26.8	7.71e-01	43	28	0	408420352	46	6554
2026-01-10 22:10:02.14	340.40	7.46	-35.8	-37.1	27.2	7.71e-01	59	28	0	409993216	46	6201
2026-01-10 22:10:03.12	340.25	7.42	-36.5	-37.9	26.6	7.71e-01	57	28	0	412090368	46	6754
2026-01-10 22:10:04.10	340.10	7.37	-36.1	-37.4	27.0	7.71e-01	50	28	0	413663232	46	6389
2026-01-10 22:10:05.08	339.94	7.33	-36.2	-37.6	26.4	7.71e-01	60	28	0	415760384	46	6526
2026-01-10 22:10:06.05	339.79	7.29	-36.9	-38.3	26.0	7.71e-01	59	28	0	417333248	48	6315
2026-01-10 22:10:07.03	339.64	7.24	-36.5	-37.9	26.4	7.71e-01	58	28	0	419430400	48	6025
2026-01-10 22:10:08.00	339.49	7.20	-37.4	-39.0	25.5	7.71e-01	62	28	0	421003264	48	6818
2026-01-10 22:10:08.98	339.34	7.16	-37.3	-38.7	25.7	7.71e-01	50	28	0	423100416	48	6602
2026-01-10 22:10:09.95	339.19	7.11	-37.7	-39.3	25.2	7.71e-01	60	28	0	424673280	48	7087
2026-01-10 22:10:10.93	339.03	7.07	-36.9	-38.3	26.2	7.71e-01	56	28	0	426770432	48	6300
2026-01-10 22:10:11.91	338.88	7.02	-36.6	-38.0	26.3	7.71e-01	50	28	0	428343296	48	6084
2026-01-10 22:10:12.89	338.73	6.98	-36.6	-38.0	26.2	7.71e-01	58	28	0	430440448	48	6114
2026-01-10 22:10:13.87	338.59	6.94	-36.0	-37.3	26.9	7.71e-01	58	28	0	432013312	46	6340
2026-01-10 22:10:14.85	338.44	6.89	-36.7	-38.1	26.3	7.71e-01	58	28	0	434110464	46	6944
2026-01-10 22:10:15.82	338.29	6.85	-36.3	-37.7	26.7	7.71e-01	61	28	0	435683328	46	6583
2026-01-10 22:10:16.80	338.14	6.80	-36.6	-38.0	26.4	7.71e-01	54	28	0	437780480	46	6839
2026-01-10 22:10:17.78	337.99	6.76	-36.5	-37.9	26.5	7.71e-01	61	28	0	439353344	46	6735
2026-01-10 22:10:18.76	337.85	6.71	-36.2	-37.6	26.8	7.71e-01	60	28	0	441450496	46	6540
2026-01-10 22:10:19.74	337.70	6.67	-36.5	-37.9	26.5	7.71e-01	39	28	0	443023360	46	6735
2026-01-10 22:10:20.72	337.56	6.62	-36.5	-37.9	26.4	7.71e-01	58	28	0	445120512	46	6764
2026-01-10 22:10:21.71	337.41	6.58	-36.7	-38.2	26.1	7.71e-01	57	28	0	446693376	48	6235
2026-01-10 22:10:22.69	337.26	6.53	-36.3	-37.6	26.6	7.71e-01	44	28	0	448790528	48	5845
2026-01-10 22:10:23.67	337.12	6.49	-37.1	-38.7	25.7	7.71e-01	58	28	0	450363392	48	6581
2026-01-10 22:10:24.66	336.98	6.44	-37.1	-38.6	25.4	7.71e-01	58	28	0	452460544	48	6540
2026-01-10 22:10:25.64	336.83	6.40	-36.6	-38.0	26.2	7.71e-01	52	28	0	454033408	48	6103
2026-01-10 22:10:26.62	336.69	6.35	-37.3	-38.8	25.4	7.71e-01	59	28	0	456130560	48	6705
2026-01-10 22:10:27.60	336.55	6.31	-37.2	-38.7	25.3	7.71e-01	59	28	0	457703424	48	6586
2026-01-10 22:10:28.59	336.40	6.26	-36.9	-38.4	25.7	7.71e-01	55	28	0	459800576	48	6371
2026-01-10 22:10:29.57	336.26	6.22	-37.3	-38.8	25.2	7.71e-01	60	28	0	461373440	48	6708
2026-01-10 22:10:30.55	336.12	6.17	-36.5	-37.9	26.2	7.71e-01	49	28	0	463470592	48	6030
2026-01-10 22:10:31.53	335.98	6.13	-36.7	-38.2	25.8	7.71e-01	53	28	0	465043456	48	6224
2026-01-10 22:10:32.51	335.84	6.08	-37.3	-38.8	25.3	7.71e-01	57	28	0	467140608	48	6709
2026-01-10 22:10:33.49	335.70	6.03	-37.4	-38.9	25.0	7.71e-01	58	28	0	468713472	48	6795
2026-01-10 22:10:34.47	335.56	5.99	-37.3	-38.9	25.0	7.71e-01	52	28	0	470810624	48	6756
2026-01-10 22:10:35.45	335.43	5.94	-37.5	-39.1	24.5	7.71e-01	61	28	0	472383488	48	6951
2026-01-10 22:10:36.43	335.29	5.90	-37.9	-39.6	24.0	7.71e-01	59	28	0	474480640	48	7348
2026-01-10 22:10:37.41	335.15	5.85	-38.2	-39.9	23.5	7.71e-01	59	28	0	476053504	50	6785
2026-01-10 22:10:38.39	335.01	5.81	-38.2	-40.0	23.2	7.71e-01	45	28	0	478150656	50	6868
2026-01-10 22:10:39.37	334.88	5.76	-38.8	-40.8	22.3	7.71e-01	60	28	0	479723520	50	7506
2026-01-10 22:10:40.36	334.74	5.71	-38.7	-40.7	22.0	7.71e-01	53	28	0	481820672	50	7451
2026-01-10 22:10:41.34	334.60	5.67	-38.9	-41.0	21.7	7.71e-01	46	28	0	483393536	50	7718
2026-01-10 22:10:42.32	334.47	5.62	-39.1	-41.3	21.7	7.71e-01	59	28	0	485490688	52	7055
2026-01-10 22:10:43.30	334.33	5.57	-39.2	-41.3	21.6	7.71e-01	57	28	0	487063552	52	7046
2026-01-10 22:10:44.29	334.20	5.53	-39.2	-41.5	21.3	7.71e-01	59	28	0	489160704	52	7217
2026-01-10 22:10:45.28	334.06	5.48	-39.5	-41.8	20.9	7.71e-01	57	28	0	490733568	52	7478
2026-01-10 22:10:46.27	333.93	5.43	-39.6	-42.0	20.7	7.71e-01	50	28	0	492830720	52	7641
2026-01-10 22:10:47.26	333.80	5.39	-39.8	-42.2	20.5	7.71e-01	60	28	0	494927872	52	7874
2026-01-10 22:10:48.25	333.66	5.34	-39.9	-42.3	20.4	7.71e-01	59	28	0	496500736	54	7114
2026-01-10 22:10:49.25	333.53	5.29	-39.5	-41.7	20.9	7.71e-01	46	28	0	498597888	54	6635
2026-01-10 22:10:50.24	333.40	5.25	-39.6	-41.9	20.8	7.71e-01	59	28	0	500170752	54	6751
2026-01-10 22:10:51.23	333.26	5.20	-39.7	-42.0	20.6	7.71e-01	61	28	0	502267904	54	6883
2026-01-10 22:10:52.22	333.13	5.15	-39.3	-41.6	20.8	7.71e-01	53	28	0	503840768	54	6547
2026-01-10 22:10:53.21	333.00	5.10	-39.4	-41.7	20.8	7.71e-01	58	28	0	505937920	54	6647
2026-01-10 22:10:54.21	332.87	5.06	-39.6	-42.0	20.6	7.71e-01	44	28	0	507510784	54	6866
2026-01-10 22:10:55.19	332.74	5.01	-39.1	-41.2	21.5	7.71e-01	56	28	0	509607936	54	6271
2026-01-10 22:10:56.19	332.61	4.96	-38.5	-40.3	22.8	7.71e-01	58	28	0	511180800	52	6343
2026-01-10 22:10:57.20	332.48	4.91	-38.5	-40.4	22.8	7.71e-01	45	28	0	513277952	52	6390
2026-01-10 22:10:58.21	332.35	4.87	-38.6	-40.5	22.8	7.71e-01	58	28	0	515375104	52	6475
2026-01-10 22:10:59.22	332.22	4.82	-38.4	-40.3	23.0	7.71e-01	60	28	0	516947968	52	6287
2026-01-10 22:11:00.23	332.08	4.77	-38.1	-39.8	23.8	7.71e-01	59	28	0	519045120	52	5964
2026-01-10 22:11:01.23	331.96	4.72	-37.8	-39.5	24.2	7.71e-01	57	28	0	520617984	50	6474
2026-01-10 22:11:02.23	331.83	4.67	-37.7	-39.3	24.5	7.71e-01	56	28	0	522715136	50	6343
2026-01-10 22:11:03.22	331.70	4.63	-37.4	-39.0	24.9	7.71e-01	56	28	0	524812288	50	6082
2026-01-10 22:11:04.22	331.57	4.58	-37.4	-39.0	24.9	7.71e-01	61	28	0	526385152	50	6069
2026-01-10 22:11:05.22	331.45	4.53	-37.7	-39.3	24.6	7.71e-01	44	28	0	528482304	50	6350
2026-01-10 22:11:06.21	331.32	4.48	-37.3	-38.9	25.1	7.71e-01	55	28	0	530055168	50	6016
2026-01-10 22:11:07.21	331.20	4.44	-37.1	-38.6	25.4	7.71e-01	61	28	0	532152320	50	5855
2026-01-10 22:11:08.21	331.07	4.39	-37.1	-38.6	25.4	7.71e-01	61	28	0	534249472	50	5849
2026-01-10 22:11:09.20	330.95	4.34	-37.1	-38.6	25.5	7.71e-01	60	28	0	535822336	50	5811
2026-01-10 22:11:10.20	330.82	4.29	-37.1	-38.6	25.3	7.71e-01	46	28	0	537395200	50	5854
2026-01-10 22:11:11.19	330.70	4.24	-36.9	-38.4	25.7	7.71e-01	59	28	0	539492352	48	6404
2026-01-10 22:11:12.19	330.58	4.20	-37.6	-39.2	24.9	7.71e-01	58	28	0	541589504	48	7008
2026-01-10 22:11:13.19	330.45	4.15	-37.5	-39.1	25.0	7.71e-01	45	28	0	543162368	48	6911
2026-01-10 22:11:14.19	330.33	4.10	-37.3	-38.8	25.3	7.71e-01	60	28	0	545259520	48	6670
2026-01-10 22:11:15.20	330.21	4.05	-37.1	-38.7	25.4	7.71e-01	60	28	0	547356672	48	6579
2026-01-10 22:11:16.21	330.09	4.00	-37.4	-39.0	25.2	7.71e-01	60	28	0	548929536	48	6812
2026-01-10 22:11:17.22	329.96	3.95	-37.0	-38.5	25.4	7.71e-01	60	28	0	551026688	48	6448
2026-01-10 22:11:18.23	329.84	3.90	-36.8	-38.3	25.8	7.71e-01	56	28	0	552599552	48	6291
2026-01-10 22:11:19.25	329.72	3.86	-37.2	-38.7	25.2	7.71e-01	57	28	0	554696704	48	6617
2026-01-10 22:11:20.26	329.60	3.81	-37.4	-39.0	25.0	7.71e-01	58	28	0	556793856	48	6838
2026-01-10 22:11:21.27	329.48	3.76	-37.4	-39.0	24.9	7.71e-01	45	28	0	558366720	48	6841
2026-01-10 22:11:22.28	329.36	3.71	-37.3	-38.8	25.1	7.71e-01	58	28	0	560463872	48	6686
2026-01-10 22:11:23.29	329.24	3.66	-37.3	-38.8	24.9	7.71e-01	62	28	0	562036736	48	6684
2026-01-10 22:11:24.30	329.12	3.61	-38.0	-39.6	24.4	7.71e-01	58	28	0	564133888	48	7353
2026-01-10 22:11:25.31	329.00	3.56	-37.7	-39.3	24.6	7.71e-01	61	28	0	566231040	50	6306
2026-01-10 22:11:26.32	328.88	3.51	-37.5	-39.0	24.7	7.71e-01	61	28	0	567803904	50	6126
2026-01-10 22:11:27.32	328.76	3.47	-37.2	-38.7	25.1	7.71e-01	63	28	0	569901056	50	5888
2026-01-10 22:11:28.33	328.65	3.42	-37.9	-39.5	24.2	7.71e-01	58	28	0	571473920	50	6485
2026-01-10 22:11:29.34	328.53	3.37	-38.2	-39.9	24.0	7.71e-01	53	28	0	573571072	50	6760
2026-01-10 22:11:30.35	328.41	3.32	-37.8	-39.4	24.4	7.71e-01	62	28	0	575668224	50	6365
2026-01-10 22:11:31.36	328.30	3.27	-37.3	-38.9	24.9	7.71e-01	61	28	0	577241088	50	6005
2026-01-10 22:11:32.37	328.18	3.22	-37.8	-39.4	24.3	7.71e-01	60	28	0	579338240	50	6408
2026-01-10 22:11:33.38	328.07	3.17	-38.3	-40.1	23.7	7.71e-01	58	28	0	580911104	50	6911
2026-01-10 22:11:34.40	327.95	3.12	-37.7	-39.4	24.3	7.71e-01	47	28	0	583008256	50	6352
2026-01-10 22:11:35.41	327.84	3.07	-37.2	-38.7	25.0	7.71e-01	59	28	0	585105408	50	5914
2026-01-10 22:11:36.41	327.72	3.03	-39.4	-41.3	6.9	7.71e-01	58	28	0	586678272	50	7964
2026-01-10 22:11:37.42	327.61	2.98	-47.3	-65.2	3.5	7.71e-01	0	28	104	586678272	60	69953
2026-01-10 22:11:38.43	327.50	2.93	-47.8	-65.7	3.5	7.71e-01	0	29	104	586678272	60	74472
2026-01-10 22:11:39.44	327.38	2.88	-47.7	-66.0	3.5	7.71e-01	0	28	104	586678272	60	76852
2026-01-10 22:11:40.45	327.27	2.83	-48.0	-66.2	3.5	7.71e-01	0	29	104	586678272	60	78536
2026-01-10 22:11:41.46	327.16	2.78	-48.0	-66.3	3.5	7.71e-01	0	28	104	586678272	60	79086
2026-01-10 22:11:42.47	327.05	2.73	-47.9	-66.3	3.5	7.71e-01	0	29	104	586678272	60	79610
2026-01-10 22:11:43.49	326.93	2.68	-47.4	-66.3	3.5	7.71e-01	0	29	104	586678272	60	79911
2026-01-10 22:11:44.50	326.82	2.63	-47.8	-66.4	3.5	7.71e-01	0	29	104	586678272	60	80053
2026-01-10 22:11:45.51	326.71	2.59	-47.7	-66.4	3.5	7.71e-01	0	29	104	586678272	60	80440
2026-01-10 22:11:46.52	326.60	2.54	-48.0	-66.3	3.5	7.71e-01	0	29	104	586678272	60	79570
2026-01-10 22:11:47.53	326.49	2.49	-48.2	-66.3	3.5	7.71e-01	0	29	104	586678272	60	79361
2026-01-10 22:11:48.54	326.39	2.44	-48.2	-66.2	3.5	7.71e-01	0	29	104	586678272	60	78784
2026-01-10 22:11:49.55	326.28	2.39	-47.9	-66.2	3.5	7.71e-01	0	29	104	586678272	60	78499
2026-01-10 22:11:50.56	326.17	2.34	-48.2	-66.1	3.5	7.71e-01	0	29	104	586678272	60	77753
2026-01-10 22:11:51.57	326.06	2.29	-47.7	-66.1	3.5	7.71e-01	0	29	104	586678272	60	78111
2026-01-10 22:11:52.58	325.95	2.24	-48.2	-66.3	3.5	7.71e-01	0	29	104	586678272	60	79869
2026-01-10 22:11:53.59	325.85	2.19	-48.4	-66.3	3.5	7.71e-01	0	29	104	586678272	60	79821
2026-01-10 22:11:54.60	325.74	2.15	-48.4	-66.3	3.5	7.71e-01	0	29	104	586678272	60	79498
2026-01-10 22:11:55.61	325.63	2.10	-48.4	-66.3	3.5	7.71e-01	0	29	104	586678272	60	79483
2026-01-10 22:11:56.61	325.53	2.05	-48.4	-66.2	3.5	7.71e-01	0	29	104	586678272	60	78646
2026-01-10 22:11:57.62	325.42	2.00	-48.4	-66.3	3.5	7.71e-01	0	29	104	586678272	60	79164
2026-01-10 22:11:58.63	325.32	1.95	-48.4	-66.3	3.5	7.71e-01	0	29	104	586678272	60	79279
2026-01-10 22:11:59.64	325.21	1.90	-48.4	-66.3	3.5	7.71e-01	0	29	104	586678272	60	79232
2026-01-10 22:12:00.65	325.11	1.85	-48.4	-66.2	3.5	7.71e-01	0	29	104	586678272	60	78884
2026-01-10 22:12:01.66	325.01	1.80	-48.4	-66.2	3.5	7.71e-01	0	29	104	586678272	60	78741
2026-01-10 22:12:02.67	324.90	1.76	-48.3	-66.2	3.5	7.71e-01	0	29	104	586678272	60	78954
2026-01-10 22:12:03.68	324.80	1.71	-48.3	-66.2	3.5	7.71e-01	0	29	104	586678272	60	78639
2026-01-10 22:12:04.69	324.70	1.66	-48.3	-66.2	3.5	7.71e-01	0	29	104	586678272	60	78934
2026-01-10 22:12:05.70	324.60	1.61	-48.4	-66.2	3.5	7.71e-01	0	29	104	586678272	60	78588
2026-01-10 22:12:06.71	324.49	1.56	-48.3	-66.2	3.5	7.71e-01	0	29	104	586678272	60	79003
2026-01-10 22:12:07.72	324.39	1.51	-48.3	-66.2	3.5	7.71e-01	0	29	104	586678272	60	78169
2026-01-10 22:12:08.73	324.29	1.46	-48.3	-66.2	3.5	7.71e-01	0	29	104	586678272	60	78702
2026-01-10 22:12:09.74	324.19	1.41	-48.3	-66.2	3.5	7.71e-01	0	29	104	586678272	60	78911
2026-01-10 22:12:10.75	324.09	1.37	-48.3	-66.2	3.5	7.71e-01	0	29	104	586678272	60	78735
2026-01-10 22:12:11.76	323.99	1.32	-48.3	-66.2	3.5	7.71e-01	0	29	104	586678272	60	78676
2026-01-10 22:12:12.77	323.89	1.27	-48.3	-66.2	3.5	7.71e-01	0	29	104	586678272	60	78661
2026-01-10 22:12:13.77	323.79	1.22	-48.3	-66.2	3.5	7.71e-01	0	29	104	586678272	60	78532
2026-01-10 22:12:14.79	323.69	1.17	-48.3	-66.2	3.5	7.71e-01	0	29	104	586678272	60	78806
2026-01-10 22:12:15.79	323.59	1.12	-48.3	-66.2	3.5	7.71e-01	0	29	104	586678272	60	78600
2026-01-10 22:12:16.80	323.50	1.07	-48.3	-66.2	3.5	7.71e-01	0	29	104	586678272	60	78570
2026-01-10 22:12:17.81	323.40	1.03	-48.3	-66.2	3.5	7.71e-01	0	29	104	586678272	60	78162
2026-01-10 22:12:18.83	323.30	0.98	-48.3	-66.2	3.5	7.71e-01	0	29	104	586678272	60	78465
2026-01-10 22:12:19.84	323.20	0.93	-48.3	-66.2	3.5	7.71e-01	0	29	104	586678272	60	78442
2026-01-10 22:12:20.84	323.11	0.88	-48.3	-66.2	3.5	7.71e-01	0	29	104	586678272	60	78242
2026-01-10 22:12:21.85	323.01	0.83	-48.3	-66.1	3.5	7.71e-01	0	29	104	586678272	60	78023
2026-01-10 22:12:22.86	322.91	0.78	-48.3	-66.2	3.5	7.71e-01	0	29	104	586678272	60	78511
2026-01-10 22:12:23.88	322.82	0.73	-48.3	-66.2	3.5	7.71e-01	0	29	104	586678272	60	78499
2026-01-10 22:12:24.88	322.72	0.69	-48.3	-66.2	3.5	7.71e-01	0	29	104	586678272	60	78391
2026-01-10 22:12:25.90	322.63	0.64	-48.3	-66.2	3.5	7.71e-01	0	29	104	586678272	60	78615
2026-01-10 22:12:26.90	322.53	0.59	-48.3	-66.2	3.5	7.71e-01	0	29	104	586678272	60	78216
2026-01-10 22:12:27.91	322.44	0.54	-48.3	-66.2	3.5	7.71e-01	0	29	104	586678272	60	78207
2026-01-10 22:12:28.92	322.35	0.49	-48.3	-66.2	3.5	7.71e-01	0	29	104	586678272	60	78336
2026-01-10 22:12:29.93	322.25	0.44	-48.3	-66.2	3.5	7.71e-01	0	29	104	586678272	60	78571
2026-01-10 22:12:30.94	322.16	0.40	-48.3	-66.2	3.5	7.71e-01	0	29	104	586678272	60	78537
2026-01-10 22:12:31.95	322.07	0.35	-48.3	-66.2	3.5	7.71e-01	0	29	104	586678272	60	78480
2026-01-10 22:12:32.96	321.97	0.30	-48.3	-66.2	3.5	7.71e-01	0	29	104	586678272	60	78458
2026-01-10 22:12:33.97	321.88	0.25	-48.3	-66.2	3.5	7.71e-01	0	29	104	586678272	60	78261
2026-01-10 22:12:34.98	321.79	0.20	-48.3	-66.1	3.5	7.71e-01	0	29	104	586678272	60	77780
2026-01-10 22:12:35.99	321.70	0.15	-48.3	-66.2	3.5	7.71e-01	0	29	104	586678272	60	78456
2026-01-10 22:12:37.00	321.61	0.11	-48.3	-66.2	3.5	7.71e-01	0	29	104	586678272	60	78791
2026-01-10 22:12:38.01	321.52	0.06	-48.3	-66.2	3.5	7.71e-01	0	29	104	586678272	60	78316
2026-01-10 22:12:39.02	321.43	0.01	-48.3	-66.2	3.5	7.71e-01	0	29	104	586678272	60	78313
2026-01-10 22:12:40.03	321.34	-0.04	-48.3	-66.2	3.5	7.71e-01	0	29	104	586678272	60	78298
2026-01-10 22:12:41.04	321.25	-0.09	-48.3	-66.2	3.5	7.71e-01	0	29	104	586678272	60	78830

#Closed at: 2026-01-10 22:12:41
#Recorded file [586 MB]: D:/lorett/data/35029_260111_100202.dat