passes_logs/2026/01/10/R4.6S_Anadyr/R4.6S_Anadyr__20260110_202615_AQUA_rec.log

#Pass ID: 20260110_202615_AQUA
#Satellite: AQUA
#Configuration: AQUA
#almurnet v.1.7.20251203
#Start time: 2026-01-10 20:26:16

#Version: 2.2.20231116
#Station: R4.6S_Anadyr
#Location: 177.4865 lon 64.73178 lat
#TLE: 1 27424U 02022A   26009.89520876  .00001045  00000+0  21914-3 0  9996
#TLE: 2 27424  98.4076 336.2372 0002032  84.5955   1.0356 14.61811442260144

#Time	Az	El	Level	Level2	SNR	BER	BlckErr	Temp	State	Recorded	gain1	gain2
2026-01-10 20:26:16.05	39.28	0.03	-48.1	-63.1	3.6	1.51e+00	0	24	0	0	60	51668
2026-01-10 20:26:17.06	39.19	0.08	-48.4	-66.3	3.5	3.02e+01	0	25	104	0	60	79549
2026-01-10 20:26:18.07	39.10	0.13	-48.6	-66.4	3.5	3.02e+01	0	25	104	0	60	80802
2026-01-10 20:26:19.07	39.01	0.18	-48.5	-66.4	3.5	3.02e+01	0	25	104	0	60	80646
2026-01-10 20:26:20.08	38.92	0.22	-48.5	-66.4	3.5	3.02e+01	0	25	104	0	60	80012
2026-01-10 20:26:21.09	38.82	0.27	-48.6	-66.4	3.5	3.02e+01	0	26	104	0	60	80595
2026-01-10 20:26:22.10	38.73	0.32	-48.6	-66.5	3.5	3.02e+01	0	26	104	0	60	81045
2026-01-10 20:26:23.11	38.64	0.37	-48.5	-66.4	3.5	3.02e+01	0	26	104	0	60	80142
2026-01-10 20:26:24.12	38.54	0.42	-48.4	-66.3	3.5	3.02e+01	0	26	104	0	60	79820
2026-01-10 20:26:25.13	38.45	0.46	-48.4	-66.3	3.5	3.02e+01	0	26	104	0	60	79150
2026-01-10 20:26:26.14	38.36	0.51	-48.2	-66.2	3.5	3.02e+01	0	26	104	0	60	78219
2026-01-10 20:26:27.15	38.26	0.56	-48.1	-66.2	3.5	3.02e+01	0	26	104	0	60	78724
2026-01-10 20:26:28.16	38.17	0.61	-47.9	-66.0	3.5	3.02e+01	0	26	104	0	60	77068
2026-01-10 20:26:29.17	38.07	0.66	-47.5	-65.9	3.5	3.02e+01	0	26	104	0	60	75992
2026-01-10 20:26:30.18	37.97	0.70	-47.7	-65.7	3.5	3.02e+01	0	26	104	0	60	74376
2026-01-10 20:26:31.19	37.88	0.75	-47.4	-65.4	3.5	3.02e+01	0	26	104	0	60	71458
2026-01-10 20:26:32.20	37.78	0.80	-46.7	-64.8	3.5	3.02e+01	0	26	104	0	60	67067
2026-01-10 20:26:33.21	37.69	0.85	-46.6	-64.7	3.5	3.02e+01	0	26	104	0	60	65801
2026-01-10 20:26:34.22	37.59	0.90	-46.6	-64.7	3.5	3.02e+01	0	26	104	0	60	65951
2026-01-10 20:26:35.23	37.49	0.95	-46.6	-64.7	3.5	3.02e+01	0	26	104	0	60	65738
2026-01-10 20:26:36.24	37.39	0.99	-46.6	-64.6	3.5	3.02e+01	0	26	104	0	60	65712
2026-01-10 20:26:37.25	37.30	1.04	-46.5	-64.6	3.5	3.02e+01	0	26	104	0	60	65150
2026-01-10 20:26:38.26	37.20	1.09	-46.6	-64.6	3.5	3.02e+01	0	26	104	0	60	65725
2026-01-10 20:26:39.27	37.10	1.14	-46.6	-64.6	3.5	3.02e+01	0	26	104	0	60	65287
2026-01-10 20:26:40.28	37.00	1.19	-46.6	-64.6	3.5	3.02e+01	0	26	104	0	60	65546
2026-01-10 20:26:41.29	36.90	1.24	-46.5	-64.7	3.5	3.02e+01	0	26	104	0	60	65807
2026-01-10 20:26:42.30	36.80	1.28	-46.6	-64.6	3.5	3.02e+01	0	26	104	0	60	65550
2026-01-10 20:26:43.31	36.70	1.33	-46.5	-64.6	3.5	3.02e+01	0	26	104	0	60	65407
2026-01-10 20:26:44.32	36.60	1.38	-46.5	-64.6	3.5	3.02e+01	0	26	104	0	60	65182
2026-01-10 20:26:45.33	36.50	1.43	-46.5	-64.6	3.5	3.02e+01	0	26	104	0	60	65024
2026-01-10 20:26:46.34	36.40	1.48	-46.5	-64.6	3.5	3.02e+01	0	26	104	0	60	65206
2026-01-10 20:26:47.35	36.29	1.53	-46.5	-64.6	3.5	3.02e+01	0	26	104	0	60	65248
2026-01-10 20:26:48.36	36.19	1.58	-46.6	-64.6	3.5	3.02e+01	0	26	104	0	60	65582
2026-01-10 20:26:49.37	36.09	1.62	-46.5	-64.6	3.5	3.02e+01	0	26	104	0	60	65075
2026-01-10 20:26:50.38	35.99	1.67	-46.5	-64.6	3.5	3.02e+01	0	26	104	0	60	65141
2026-01-10 20:26:51.39	35.88	1.72	-46.5	-64.6	3.5	3.02e+01	0	26	104	0	60	65212
2026-01-10 20:26:52.40	35.78	1.77	-46.5	-64.6	3.5	3.02e+01	0	26	104	0	60	65101
2026-01-10 20:26:53.41	35.67	1.82	-46.5	-64.6	3.5	3.02e+01	0	26	104	0	60	65019
2026-01-10 20:26:54.42	35.57	1.87	-46.5	-64.5	3.5	3.02e+01	0	26	104	0	60	64745
2026-01-10 20:26:55.43	35.46	1.92	-46.5	-64.5	3.5	3.02e+01	0	26	104	0	60	64856
2026-01-10 20:26:56.44	35.36	1.96	-46.5	-64.4	3.5	3.02e+01	0	26	104	0	60	64191
2026-01-10 20:26:57.45	35.25	2.01	-46.5	-64.6	3.5	3.02e+01	0	26	104	0	60	65113
2026-01-10 20:26:58.46	35.15	2.06	-46.5	-64.6	3.5	3.02e+01	0	26	104	0	60	65020
2026-01-10 20:26:59.47	35.04	2.11	-46.5	-64.5	3.5	3.02e+01	0	26	104	0	60	64639
2026-01-10 20:27:00.48	34.93	2.16	-46.5	-64.4	3.5	3.02e+01	0	26	104	0	60	64193
2026-01-10 20:27:01.49	34.83	2.21	-46.5	-64.5	3.5	3.02e+01	0	26	104	0	60	64244
2026-01-10 20:27:02.50	34.72	2.26	-46.5	-64.3	3.5	3.02e+01	0	26	104	0	60	62831
2026-01-10 20:27:03.51	34.61	2.30	-46.4	-64.2	3.5	3.02e+01	0	26	104	0	60	62154
2026-01-10 20:27:04.52	34.50	2.35	-46.5	-64.2	3.5	3.02e+01	0	26	104	0	60	62654
2026-01-10 20:27:05.52	34.39	2.40	-46.5	-64.5	3.5	3.02e+01	0	26	104	0	60	64532
2026-01-10 20:27:06.54	34.28	2.45	-46.5	-64.6	3.5	3.02e+01	0	26	104	0	60	65204
2026-01-10 20:27:07.54	34.18	2.50	-46.5	-64.5	3.5	3.02e+01	0	26	104	0	60	64639
2026-01-10 20:27:08.55	34.07	2.55	-46.4	-64.3	3.5	3.02e+01	0	26	104	0	60	63328
2026-01-10 20:27:09.56	33.95	2.60	-46.5	-64.5	3.5	3.02e+01	0	27	104	0	60	64325
2026-01-10 20:27:10.57	33.84	2.64	-46.4	-64.5	3.5	3.02e+01	0	27	104	0	60	64434
2026-01-10 20:27:11.58	33.73	2.69	-46.3	-63.9	3.5	3.02e+01	0	26	104	0	60	60274
2026-01-10 20:27:12.59	33.62	2.74	-46.3	-63.5	3.5	3.02e+01	0	26	104	0	60	57605
2026-01-10 20:27:13.60	33.51	2.79	-46.3	-63.8	3.5	3.02e+01	0	27	104	0	60	59783
2026-01-10 20:27:14.61	33.40	2.84	-46.4	-64.0	3.5	3.02e+01	0	27	104	0	60	61316
2026-01-10 20:27:15.62	33.28	2.89	-45.9	-61.7	3.5	3.02e+01	0	27	104	0	60	46898
2026-01-10 20:27:16.63	33.17	2.94	-44.7	-58.3	3.5	3.02e+01	0	26	104	0	60	31555
2026-01-10 20:27:17.64	33.06	2.98	-43.0	-55.0	3.5	3.02e+01	0	27	104	0	60	21732
2026-01-10 20:27:18.65	32.94	3.03	-43.4	-55.6	3.5	3.02e+01	0	26	104	0	60	23233
2026-01-10 20:27:19.66	32.83	3.08	-46.5	-63.4	3.5	3.02e+01	0	26	104	0	60	56724
2026-01-10 20:27:20.67	32.71	3.13	-42.2	-53.8	3.5	3.02e+01	0	27	104	0	60	18866
2026-01-10 20:27:21.68	32.60	3.18	-36.8	-47.2	3.6	3.02e+01	0	27	104	0	48	17658
2026-01-10 20:27:22.69	32.48	3.23	-46.2	-62.4	3.5	3.02e+01	0	27	104	0	60	50450
2026-01-10 20:27:23.70	32.36	3.28	-39.9	-50.8	3.5	3.02e+01	0	27	104	0	60	13302
2026-01-10 20:27:24.71	32.25	3.32	-37.2	-47.7	3.5	3.02e+01	0	27	104	0	50	16526
2026-01-10 20:27:25.72	32.13	3.37	-37.4	-47.9	3.5	3.02e+01	0	27	104	0	48	19099
2026-01-10 20:27:26.73	32.01	3.42	-37.2	-47.6	3.5	3.02e+01	0	27	104	0	48	18516
2026-01-10 20:27:27.74	31.89	3.47	-45.9	-60.4	3.5	3.02e+01	0	27	104	0	60	40464
2026-01-10 20:27:28.75	31.77	3.52	-43.4	-55.7	3.5	3.02e+01	0	27	104	0	60	23348
2026-01-10 20:27:29.76	31.65	3.57	-46.5	-63.7	3.5	3.02e+01	0	27	104	0	60	58919
2026-01-10 20:27:30.77	31.54	3.62	-46.5	-64.1	3.5	3.02e+01	0	27	104	0	60	61477
2026-01-10 20:27:31.78	31.42	3.66	-41.0	-52.1	3.5	3.02e+01	0	27	104	0	56	19421
2026-01-10 20:27:32.79	31.29	3.71	-41.3	-52.5	3.5	3.02e+01	0	27	104	0	58	18156
2026-01-10 20:27:33.80	31.17	3.76	-41.4	-52.6	3.5	3.02e+01	0	27	104	0	56	20712
2026-01-10 20:27:34.81	31.05	3.81	-40.9	-52.0	3.5	3.02e+01	0	27	104	0	56	19339
2026-01-10 20:27:35.82	30.93	3.86	-40.5	-51.6	3.6	3.02e+01	0	27	104	0	56	18363
2026-01-10 20:27:36.83	30.81	3.91	-38.6	-49.3	3.5	3.02e+01	0	27	104	0	52	17761
2026-01-10 20:27:37.84	30.69	3.95	-41.9	-53.4	3.5	3.02e+01	0	27	104	0	56	22658
2026-01-10 20:27:38.85	30.56	4.00	-46.5	-63.0	3.5	3.02e+01	0	27	104	0	60	54301
2026-01-10 20:27:39.86	30.44	4.05	-40.6	-51.6	3.5	3.02e+01	0	27	104	0	56	18361
2026-01-10 20:27:40.87	30.31	4.10	-46.8	-64.5	3.5	3.02e+01	0	27	104	0	60	64760
2026-01-10 20:27:41.88	30.19	4.15	-39.4	-50.1	3.5	3.02e+01	0	27	104	0	56	15570
2026-01-10 20:27:42.89	30.07	4.20	-38.4	-49.0	3.5	3.02e+01	0	27	104	0	52	17108
2026-01-10 20:27:43.90	29.94	4.24	-37.5	-48.0	3.5	3.02e+01	0	27	104	0	50	17285
2026-01-10 20:27:44.91	29.81	4.29	-36.9	-47.4	3.5	3.02e+01	0	27	104	0	50	15960
2026-01-10 20:27:45.92	29.69	4.34	-43.7	-55.8	3.5	3.02e+01	0	27	104	0	60	23830
2026-01-10 20:27:46.93	29.56	4.39	-41.0	-52.0	3.5	3.02e+01	0	27	104	0	58	17108
2026-01-10 20:27:47.94	29.43	4.44	-46.7	-64.4	3.5	3.02e+01	0	27	104	0	60	63900
2026-01-10 20:27:48.94	29.31	4.48	-46.6	-63.9	3.5	3.02e+01	0	27	104	0	60	59996
2026-01-10 20:27:49.96	29.18	4.53	-38.1	-48.6	3.5	3.02e+01	0	27	104	0	50	18474
2026-01-10 20:27:50.97	29.05	4.58	-37.6	-48.0	3.5	3.02e+01	0	27	104	0	50	17172
2026-01-10 20:27:51.98	28.92	4.63	-37.3	-47.7	3.5	3.02e+01	0	27	104	0	50	16647
2026-01-10 20:27:52.99	28.79	4.68	-36.9	-47.3	3.5	3.02e+01	0	27	104	0	48	17813
2026-01-10 20:27:54.00	28.66	4.73	-37.0	-47.5	3.5	3.02e+01	0	27	104	0	48	18233
2026-01-10 20:27:55.01	28.53	4.77	-37.0	-47.4	3.6	3.02e+01	0	27	104	0	48	18007
2026-01-10 20:27:56.02	28.40	4.82	-41.6	-53.0	3.5	3.02e+01	0	27	104	0	56	21553
2026-01-10 20:27:57.02	28.27	4.87	-46.8	-64.4	3.5	3.02e+01	0	27	104	0	60	63726
2026-01-10 20:27:58.03	28.13	4.92	-40.4	-51.2	3.5	3.02e+01	0	27	104	0	56	17678
2026-01-10 20:27:59.04	28.00	4.96	-46.9	-64.4	3.5	3.02e+01	0	27	104	0	60	64022
2026-01-10 20:28:00.05	27.87	5.01	-40.7	-51.6	3.5	3.02e+01	0	27	104	0	56	18495
2026-01-10 20:28:01.06	27.74	5.06	-40.0	-50.8	3.5	3.02e+01	0	27	104	0	56	16808
2026-01-10 20:28:02.07	27.60	5.11	-39.9	-50.7	3.5	3.02e+01	0	27	104	0	56	16588
2026-01-10 20:28:03.08	27.47	5.16	-38.8	-49.3	3.5	3.02e+01	0	27	104	0	52	17889
2026-01-10 20:28:04.09	27.33	5.20	-44.8	-57.6	3.6	3.02e+01	0	27	104	0	60	29312
2026-01-10 20:28:05.10	27.20	5.25	-40.8	-51.7	3.4	3.02e+01	0	27	104	0	58	16686
2026-01-10 20:28:06.11	27.06	5.30	-46.9	-64.5	3.5	3.02e+01	0	27	104	0	60	64376
2026-01-10 20:28:07.12	26.92	5.35	-47.0	-64.2	3.5	3.02e+01	0	27	104	0	60	62348
2026-01-10 20:28:08.13	26.79	5.39	-40.9	-51.9	3.5	3.02e+01	0	27	104	0	54	21516
2026-01-10 20:28:09.14	26.65	5.44	-39.7	-50.5	3.5	3.02e+01	0	27	104	0	54	18232
2026-01-10 20:28:10.15	26.51	5.49	-38.2	-48.7	3.5	3.02e+01	0	27	104	0	52	16692
2026-01-10 20:28:11.15	26.37	5.53	-37.1	-47.5	3.6	3.02e+01	0	27	104	0	50	16250
2026-01-10 20:28:12.16	26.23	5.58	-36.5	-46.9	3.5	3.02e+01	0	27	104	0	48	16958
2026-01-10 20:28:13.17	26.10	5.63	-36.8	-47.2	3.5	3.02e+01	0	27	104	0	48	17648
2026-01-10 20:28:14.18	25.96	5.68	-41.1	-52.2	3.5	3.02e+01	0	27	104	0	58	17648
2026-01-10 20:28:15.19	25.81	5.72	-47.1	-64.5	3.5	3.02e+01	0	27	104	0	60	64653
2026-01-10 20:28:16.20	25.67	5.77	-39.9	-50.7	3.5	3.02e+01	0	27	104	0	58	14800
2026-01-10 20:28:17.21	25.53	5.82	-47.0	-64.8	3.5	3.02e+01	0	27	104	0	60	66693
2026-01-10 20:28:18.22	25.39	5.86	-38.0	-48.4	3.5	3.02e+01	0	27	104	0	52	16110
2026-01-10 20:28:19.23	25.25	5.91	-37.0	-47.5	3.6	3.02e+01	0	27	104	0	50	16219
2026-01-10 20:28:20.24	25.10	5.96	-36.6	-46.9	3.5	3.02e+01	0	27	104	0	48	17091
2026-01-10 20:28:21.25	24.96	6.00	-37.0	-47.3	3.5	3.02e+01	0	27	104	0	48	17857
2026-01-10 20:28:22.26	24.82	6.05	-45.5	-59.0	3.5	3.02e+01	0	27	104	0	60	34105
2026-01-10 20:28:23.27	24.67	6.10	-38.6	-49.1	3.6	3.02e+01	0	27	104	0	54	15467
2026-01-10 20:28:24.28	24.53	6.14	-47.1	-64.9	3.5	3.02e+01	0	27	104	0	60	67397
2026-01-10 20:28:25.29	24.38	6.19	-45.9	-60.0	3.5	3.02e+01	0	27	104	0	60	38564
2026-01-10 20:28:26.30	24.24	6.24	-40.2	-51.0	3.5	3.02e+01	0	27	104	0	54	19351
2026-01-10 20:28:27.31	24.09	6.28	-39.1	-49.7	3.5	3.02e+01	0	27	104	0	54	16627
2026-01-10 20:28:28.32	23.94	6.33	-37.8	-48.2	3.5	3.02e+01	0	27	104	0	50	17647
2026-01-10 20:28:29.33	23.79	6.37	-36.5	-46.9	3.5	3.02e+01	0	27	104	0	48	16944
2026-01-10 20:28:30.34	23.65	6.42	-36.1	-46.3	3.5	3.02e+01	0	27	104	0	48	15914
2026-01-10 20:28:31.35	23.50	6.47	-36.1	-46.4	3.5	3.02e+01	0	27	104	0	48	16107
2026-01-10 20:28:32.36	23.35	6.51	-39.3	-49.9	3.5	3.02e+01	0	27	104	0	54	16923
2026-01-10 20:28:33.37	23.20	6.56	-44.4	-56.7	3.6	3.02e+01	0	28	104	0	60	26227
2026-01-10 20:28:34.38	23.05	6.60	-37.6	-48.0	3.5	3.02e+01	0	27	104	0	50	17143
2026-01-10 20:28:35.39	22.90	6.65	-47.4	-65.2	3.5	3.02e+01	0	27	104	0	60	70021
2026-01-10 20:28:36.40	22.74	6.70	-39.5	-50.2	3.5	3.02e+01	0	27	104	0	54	17511
2026-01-10 20:28:37.41	22.59	6.74	-38.5	-49.0	3.5	3.02e+01	0	28	104	0	52	17206
2026-01-10 20:28:38.42	22.44	6.79	-37.5	-48.0	3.5	3.02e+01	0	28	104	0	50	17104
2026-01-10 20:28:39.43	22.29	6.83	-37.6	-48.0	3.5	3.02e+01	0	27	104	0	50	17214
2026-01-10 20:28:40.44	22.13	6.88	-42.3	-53.6	3.5	3.02e+01	0	28	104	0	58	20684
2026-01-10 20:28:41.45	21.98	6.92	-38.3	-48.8	3.5	3.02e+01	0	27	104	0	52	16777
2026-01-10 20:28:42.46	21.83	6.97	-47.2	-64.2	3.5	3.02e+01	0	28	104	0	60	62384
2026-01-10 20:28:43.47	21.67	7.01	-40.6	-51.4	3.6	3.02e+01	0	28	104	0	60	14254
2026-01-10 20:28:44.48	21.51	7.06	-36.8	-47.1	3.5	3.02e+01	0	28	104	0	48	17396
2026-01-10 20:28:45.49	21.36	7.10	-36.4	-46.7	3.5	3.02e+01	0	27	104	0	48	16546
2026-01-10 20:28:46.50	21.20	7.15	-36.0	-46.2	3.5	3.02e+01	0	28	104	0	46	17672
2026-01-10 20:28:47.51	21.04	7.19	-36.1	-46.4	3.5	3.02e+01	0	28	104	0	46	17904
2026-01-10 20:28:48.52	20.89	7.23	-36.6	-47.0	3.6	3.02e+01	0	28	104	0	46	19191
2026-01-10 20:28:49.53	20.73	7.28	-38.5	-49.1	3.5	3.02e+01	0	27	104	0	50	19434
2026-01-10 20:28:50.54	20.57	7.32	-39.2	-49.8	3.5	3.02e+01	0	28	104	0	52	18817
2026-01-10 20:28:51.55	20.41	7.37	-43.2	-55.0	3.6	3.02e+01	0	28	104	0	60	21569
2026-01-10 20:28:52.56	20.25	7.41	-42.6	-53.9	3.4	3.02e+01	0	28	104	0	52	30056
2026-01-10 20:28:53.57	20.09	7.45	-45.0	-57.8	3.5	3.02e+01	0	28	104	0	60	29951
2026-01-10 20:28:54.58	19.93	7.50	-39.4	-50.0	3.5	3.02e+01	0	28	104	0	54	17230
2026-01-10 20:28:55.59	19.77	7.54	-39.3	-49.9	3.5	3.02e+01	0	28	104	0	54	17089
2026-01-10 20:28:56.60	19.61	7.59	-38.7	-49.2	3.5	3.02e+01	0	28	104	0	52	17609
2026-01-10 20:28:57.61	19.44	7.63	-37.3	-47.8	3.5	3.02e+01	0	28	104	0	50	16742
2026-01-10 20:28:58.62	19.28	7.67	-36.6	-47.0	3.5	3.02e+01	0	28	104	0	48	17102
2026-01-10 20:28:59.63	19.12	7.71	-43.1	-54.7	3.5	3.02e+01	0	28	104	0	54	29394
2026-01-10 20:29:00.64	18.95	7.76	-41.7	-52.8	3.5	3.02e+01	0	28	104	0	60	16723
2026-01-10 20:29:01.65	18.79	7.80	-44.5	-56.9	3.5	3.02e+01	0	28	104	0	54	38191
2026-01-10 20:29:02.66	18.62	7.84	-44.3	-56.5	3.5	3.02e+01	0	28	104	0	60	25654
2026-01-10 20:29:03.67	18.46	7.89	-39.3	-49.9	3.5	3.02e+01	0	28	104	0	54	16916
2026-01-10 20:29:04.67	18.29	7.93	-39.0	-49.6	3.5	3.02e+01	0	28	104	0	52	18499
2026-01-10 20:29:05.68	18.13	7.97	-37.9	-48.4	3.5	3.02e+01	0	28	104	0	52	15981
2026-01-10 20:29:06.69	17.96	8.01	-43.9	-55.9	3.5	3.02e+01	0	28	104	0	58	26959
2026-01-10 20:29:07.70	17.79	8.05	-43.2	-54.9	3.5	3.02e+01	0	28	104	0	60	21355
2026-01-10 20:29:08.71	17.62	8.10	-47.3	-64.7	3.5	3.02e+01	0	28	104	0	60	66244
2026-01-10 20:29:09.72	17.45	8.14	-47.1	-63.3	3.5	3.02e+01	0	28	104	0	60	55997
2026-01-10 20:29:10.73	17.28	8.18	-35.7	-46.0	3.5	3.02e+01	0	28	104	0	48	15290
2026-01-10 20:29:11.74	17.11	8.22	-35.9	-46.2	3.5	3.02e+01	0	28	104	0	46	17494
2026-01-10 20:29:12.75	16.94	8.26	-36.1	-46.4	3.5	3.02e+01	0	28	104	0	46	17957
2026-01-10 20:29:13.76	16.77	8.30	-35.8	-46.0	3.5	3.02e+01	0	28	104	0	46	17269
2026-01-10 20:29:14.77	16.60	8.34	-35.8	-46.1	3.6	3.02e+01	0	28	104	0	46	17461
2026-01-10 20:29:15.78	16.43	8.39	-36.1	-46.5	3.5	3.02e+01	0	28	104	0	46	18113
2026-01-10 20:29:16.79	16.25	8.43	-37.9	-48.3	3.5	3.02e+01	0	28	104	0	48	20055
2026-01-10 20:29:17.80	16.08	8.47	-47.1	-63.0	3.5	3.02e+01	0	28	104	0	60	54297
2026-01-10 20:29:18.81	15.91	8.51	-41.1	-52.0	3.6	3.02e+01	0	28	104	0	56	19218
2026-01-10 20:29:19.82	15.73	8.55	-47.5	-65.1	3.5	3.02e+01	0	28	104	0	60	69015
2026-01-10 20:29:20.82	15.56	8.59	-41.6	-52.6	3.5	3.02e+01	0	28	104	0	60	16438
2026-01-10 20:29:21.83	15.39	8.63	-39.1	-49.7	3.5	3.02e+01	0	28	104	0	54	16642
2026-01-10 20:29:22.84	15.21	8.67	-38.3	-48.8	3.5	3.02e+01	0	28	104	0	52	16805
2026-01-10 20:29:23.85	15.03	8.71	-37.8	-48.2	3.5	3.02e+01	0	28	104	0	50	17649
2026-01-10 20:29:24.86	14.86	8.75	-38.6	-49.2	3.5	3.02e+01	0	28	104	0	50	19696
2026-01-10 20:29:25.88	14.68	8.78	-38.9	-49.4	3.5	3.02e+01	0	28	104	0	50	20313
2026-01-10 20:29:26.88	14.50	8.82	-47.4	-65.3	3.5	3.02e+01	0	28	104	0	60	70593
2026-01-10 20:29:27.89	14.32	8.86	-41.0	-51.9	3.5	3.02e+01	0	28	104	0	56	19121
2026-01-10 20:29:28.90	14.14	8.90	-47.4	-64.8	3.5	3.02e+01	0	28	104	0	60	66575
2026-01-10 20:29:29.91	13.96	8.94	-40.3	-51.0	3.5	3.02e+01	0	28	104	0	56	17279
2026-01-10 20:29:30.92	13.78	8.98	-38.4	-49.0	3.6	3.02e+01	0	28	104	0	52	17121
2026-01-10 20:29:31.93	13.60	9.02	-37.6	-48.0	3.5	3.02e+01	0	28	104	0	50	17265
2026-01-10 20:29:32.94	13.42	9.05	-37.4	-47.8	3.5	3.02e+01	0	28	104	0	50	16759
2026-01-10 20:29:33.95	13.24	9.09	-46.9	-62.2	3.5	3.02e+01	0	28	104	0	60	49430
2026-01-10 20:29:34.96	13.06	9.13	-41.6	-52.7	3.5	3.02e+01	0	28	104	0	60	16531
2026-01-10 20:29:35.97	12.88	9.17	-47.3	-64.3	3.5	3.02e+01	0	28	104	0	60	62941
2026-01-10 20:29:36.98	12.69	9.20	-47.4	-64.6	3.5	3.02e+01	0	28	104	0	60	65667
2026-01-10 20:29:37.99	12.51	9.24	-36.2	-46.5	3.5	3.02e+01	0	28	104	0	46	18178
2026-01-10 20:29:39.00	12.32	9.28	-35.7	-46.0	3.5	3.02e+01	0	28	104	0	46	17228
2026-01-10 20:29:40.01	12.14	9.31	-35.5	-45.8	3.5	3.02e+01	0	28	104	0	46	16772
2026-01-10 20:29:41.02	11.95	9.35	-35.4	-45.6	3.5	3.02e+01	0	28	104	0	46	16493
2026-01-10 20:29:42.03	11.77	9.38	-35.5	-45.8	3.5	3.02e+01	0	28	104	0	46	16758
2026-01-10 20:29:43.04	11.58	9.42	-37.6	-48.1	3.6	3.02e+01	0	28	104	0	48	19481
2026-01-10 20:29:44.05	11.40	9.46	-39.2	-49.8	3.5	3.02e+01	0	28	104	0	50	21145
2026-01-10 20:29:45.06	11.21	9.49	-47.6	-65.4	3.5	3.02e+01	0	28	104	0	60	71432
2026-01-10 20:29:46.06	11.02	9.53	-40.5	-51.2	3.5	3.02e+01	0	28	104	0	56	17619
2026-01-10 20:29:47.07	10.83	9.56	-47.3	-64.2	3.5	3.02e+01	0	28	104	0	60	62415
2026-01-10 20:29:48.08	10.65	9.60	-39.5	-50.1	3.5	3.02e+01	0	28	104	0	54	17425
2026-01-10 20:29:49.09	10.46	9.63	-39.7	-50.4	3.5	3.02e+01	0	28	104	0	54	17931
2026-01-10 20:29:50.10	10.27	9.66	-38.1	-48.5	3.5	3.02e+01	0	28	104	0	52	16255
2026-01-10 20:29:51.11	10.08	9.70	-37.2	-47.5	3.5	3.02e+01	0	28	104	0	50	16251
2026-01-10 20:29:52.12	9.89	9.73	-46.3	-60.6	3.5	3.02e+01	0	28	104	0	60	41062
2026-01-10 20:29:53.13	9.69	9.77	-40.3	-51.0	3.6	3.02e+01	0	28	104	0	58	15318
2026-01-10 20:29:54.14	9.50	9.80	-47.2	-63.9	3.5	3.02e+01	0	28	104	0	60	60259
2026-01-10 20:29:55.15	9.31	9.83	-47.5	-64.9	3.5	3.02e+01	0	28	104	0	60	67535
2026-01-10 20:29:56.16	9.12	9.87	-39.0	-49.6	3.5	3.02e+01	0	28	104	0	52	18492
2026-01-10 20:29:57.17	8.93	9.90	-38.0	-48.4	3.5	3.02e+01	0	28	104	0	50	18065
2026-01-10 20:29:58.18	8.73	9.93	-38.2	-48.6	3.5	3.02e+01	0	28	104	0	50	18427
2026-01-10 20:29:59.19	8.54	9.96	-37.4	-47.8	3.5	3.02e+01	0	28	104	0	50	16851
2026-01-10 20:30:00.19	8.35	9.99	-37.5	-47.9	3.5	3.02e+01	0	28	104	0	50	17013
2026-01-10 20:30:01.20	8.15	10.03	-36.9	-47.3	3.5	3.02e+01	0	28	104	0	48	17830
2026-01-10 20:30:02.21	7.95	10.06	-39.0	-49.6	3.5	3.02e+01	0	28	104	0	54	16368
2026-01-10 20:30:03.23	7.76	10.09	-47.0	-62.4	3.5	3.02e+01	0	28	104	0	60	50543
2026-01-10 20:30:04.23	7.56	10.12	-36.1	-46.4	3.5	3.02e+01	0	28	104	0	50	14248
2026-01-10 20:30:05.24	7.37	10.15	-47.5	-64.9	3.5	3.02e+01	0	28	104	0	60	67847
2026-01-10 20:30:06.25	7.17	10.18	-35.7	-46.0	3.5	3.02e+01	0	28	104	0	46	17099
2026-01-10 20:30:07.26	6.97	10.21	-35.5	-45.8	3.5	3.02e+01	0	28	104	0	46	16772
2026-01-10 20:30:08.27	6.77	10.24	-35.3	-45.6	3.5	3.02e+01	0	28	104	0	46	16362
2026-01-10 20:30:09.28	6.57	10.27	-35.6	-45.9	3.5	3.02e+01	0	28	104	0	46	16992
2026-01-10 20:30:10.29	6.38	10.30	-45.7	-59.0	3.5	3.02e+01	0	28	104	0	60	34362
2026-01-10 20:30:11.30	6.18	10.33	-37.3	-47.7	3.6	3.02e+01	0	28	104	0	52	14836
2026-01-10 20:30:12.31	5.98	10.36	-47.2	-63.1	3.5	3.02e+01	0	28	104	0	60	55283
2026-01-10 20:30:13.32	5.78	10.38	-46.5	-60.9	3.6	3.02e+01	0	28	104	0	60	42790
2026-01-10 20:30:14.33	5.58	10.41	-39.5	-50.1	3.6	3.02e+01	0	28	104	0	52	19498
2026-01-10 20:30:15.34	5.37	10.44	-38.4	-48.8	3.5	3.02e+01	0	28	104	0	52	16844
2026-01-10 20:30:16.35	5.17	10.47	-39.1	-49.7	3.5	3.02e+01	0	28	104	0	52	18595
2026-01-10 20:30:17.36	4.97	10.49	-38.8	-49.3	3.5	3.02e+01	0	28	104	0	52	17882
2026-01-10 20:30:18.37	4.77	10.52	-37.7	-48.0	3.4	3.02e+01	0	28	104	0	52	15329
2026-01-10 20:30:19.38	4.57	10.55	-37.3	-47.6	3.6	3.02e+01	0	28	104	0	50	16507
2026-01-10 20:30:20.39	4.36	10.57	-38.6	-49.1	3.5	3.02e+01	0	28	104	0	52	17355
2026-01-10 20:30:21.40	4.16	10.60	-43.8	-55.7	3.5	3.02e+01	0	28	104	0	60	23548
2026-01-10 20:30:22.41	3.95	10.63	-36.7	-47.0	3.5	3.02e+01	0	28	104	0	48	17274
2026-01-10 20:30:23.42	3.75	10.65	-47.3	-64.3	3.5	3.02e+01	0	28	104	0	60	63128
2026-01-10 20:30:24.43	3.55	10.68	-36.8	-47.2	3.5	3.02e+01	0	28	104	0	48	17521
2026-01-10 20:30:25.44	3.34	10.70	-36.8	-47.1	3.5	3.02e+01	0	28	104	0	48	17438
2026-01-10 20:30:26.45	3.14	10.73	-36.8	-47.2	3.5	3.02e+01	0	28	104	0	48	17492
2026-01-10 20:30:27.46	2.93	10.75	-39.2	-49.8	3.5	3.02e+01	0	28	104	0	48	23626
2026-01-10 20:30:28.47	2.72	10.77	-43.4	-55.0	3.6	3.02e+01	0	28	104	0	60	21644
2026-01-10 20:30:29.48	2.52	10.80	-37.3	-47.6	3.5	3.02e+01	0	28	104	0	48	18499
2026-01-10 20:30:30.49	2.31	10.82	-47.6	-64.9	3.5	3.02e+01	0	28	104	0	60	67777
2026-01-10 20:30:31.50	2.10	10.84	-39.1	-49.7	3.5	3.02e+01	0	28	104	0	58	13240
2026-01-10 20:30:32.51	1.89	10.87	-36.9	-47.3	3.5	3.02e+01	0	28	104	0	50	15797
2026-01-10 20:30:33.52	1.69	10.89	-36.1	-46.5	3.6	3.02e+01	0	28	104	0	48	16146
2026-01-10 20:30:34.53	1.48	10.91	-35.9	-46.1	3.4	3.02e+01	0	28	104	0	48	15560
2026-01-10 20:30:35.53	1.27	10.93	-35.8	-46.1	3.5	3.02e+01	0	28	104	0	46	17314
2026-01-10 20:30:36.54	1.06	10.95	-35.5	-45.8	3.5	3.02e+01	0	28	104	0	46	16733
2026-01-10 20:30:37.55	0.85	10.97	-35.4	-45.6	3.5	3.02e+01	0	28	104	0	46	16404
2026-01-10 20:30:38.56	0.64	11.00	-41.9	-52.9	3.5	3.02e+01	0	29	104	0	52	26821
2026-01-10 20:30:39.57	0.43	11.02	-39.6	-50.2	3.5	3.02e+01	0	28	104	0	58	14026
2026-01-10 20:30:40.58	0.22	11.04	-43.5	-55.1	3.4	3.02e+01	0	28	104	0	50	39099
2026-01-10 20:30:41.59	0.01	11.06	-46.4	-60.4	3.6	3.02e+01	0	28	104	0	60	40516
2026-01-10 20:30:42.60	359.80	11.08	-39.6	-50.2	3.5	3.02e+01	0	28	104	0	54	17567
2026-01-10 20:30:43.61	359.59	11.09	-39.3	-49.9	3.5	3.02e+01	0	29	104	0	52	18988
2026-01-10 20:30:44.62	359.38	11.11	-37.5	-47.9	3.5	3.02e+01	0	28	104	0	50	17042
2026-01-10 20:30:45.63	359.17	11.13	-39.5	-50.1	3.5	3.02e+01	0	28	104	0	48	24614
2026-01-10 20:30:46.64	358.95	11.15	-40.9	-51.7	3.5	3.02e+01	0	28	104	0	58	16637
2026-01-10 20:30:47.65	358.74	11.17	-45.1	-57.7	3.5	3.02e+01	0	28	104	0	52	47040
2026-01-10 20:30:48.66	358.53	11.18	-46.1	-59.7	3.5	3.02e+01	0	28	104	0	60	36997
2026-01-10 20:30:49.67	358.32	11.20	-35.7	-46.0	3.5	3.02e+01	0	29	104	0	46	17133
2026-01-10 20:30:50.68	358.10	11.22	-36.2	-46.4	3.5	3.02e+01	0	29	104	0	48	16104
2026-01-10 20:30:51.69	357.89	11.23	-35.7	-46.0	3.5	3.02e+01	0	29	104	0	46	17154
2026-01-10 20:30:52.70	357.68	11.25	-35.6	-45.8	3.5	3.02e+01	0	29	104	0	46	16891
2026-01-10 20:30:53.71	357.46	11.27	-35.6	-45.9	3.5	3.02e+01	0	28	104	0	46	17076
2026-01-10 20:30:54.72	357.25	11.28	-36.6	-46.9	3.5	3.02e+01	0	29	104	0	46	19070
2026-01-10 20:30:55.73	357.03	11.30	-37.9	-48.3	3.5	3.02e+01	0	29	104	0	48	20010
2026-01-10 20:30:56.74	356.82	11.31	-47.6	-64.9	3.5	3.02e+01	0	29	104	0	60	67883
2026-01-10 20:30:57.75	356.60	11.32	-45.3	-58.2	3.5	3.02e+01	0	28	104	0	60	31326
2026-01-10 20:30:58.76	356.39	11.34	-36.2	-46.4	3.5	3.02e+01	0	28	104	0	46	18093
2026-01-10 20:30:59.77	356.17	11.35	-36.1	-46.4	3.5	3.02e+01	0	29	104	0	48	16007
2026-01-10 20:31:00.78	355.96	11.36	-35.8	-46.1	3.5	3.02e+01	0	29	104	0	46	17298
2026-01-10 20:31:01.78	355.74	11.38	-35.5	-45.7	3.5	3.02e+01	0	28	104	0	46	16612
2026-01-10 20:31:02.79	355.53	11.39	-35.5	-45.7	3.5	3.02e+01	0	28	104	0	46	16593
2026-01-10 20:31:03.80	355.31	11.40	-35.8	-46.1	3.5	3.02e+01	0	29	104	0	46	17397
2026-01-10 20:31:04.81	355.10	11.41	-37.9	-48.3	3.5	3.02e+01	0	29	104	0	48	20063
2026-01-10 20:31:05.82	354.88	11.42	-47.6	-65.1	3.5	3.02e+01	0	28	104	0	60	69515
2026-01-10 20:31:06.83	354.66	11.43	-46.6	-61.1	3.5	3.02e+01	0	29	104	0	60	43809
2026-01-10 20:31:07.84	354.45	11.44	-40.1	-50.7	3.5	3.02e+01	0	29	104	0	52	20929
2026-01-10 20:31:08.85	354.23	11.45	-39.0	-49.5	3.5	3.02e+01	0	29	104	0	54	16196
2026-01-10 20:31:09.86	354.01	11.46	-39.6	-50.2	3.5	3.02e+01	0	29	104	0	52	19635
2026-01-10 20:31:10.87	353.79	11.47	-39.4	-50.0	3.5	3.02e+01	0	29	104	0	54	17179
2026-01-10 20:31:11.88	353.58	11.48	-38.0	-48.4	3.5	3.02e+01	0	29	104	0	52	16007
2026-01-10 20:31:12.89	353.36	11.49	-36.7	-47.0	3.5	3.02e+01	0	29	104	0	48	17280
2026-01-10 20:31:13.90	353.14	11.50	-42.5	-53.7	3.7	3.02e+01	0	29	104	0	56	23482
2026-01-10 20:31:14.91	352.92	11.51	-45.4	-58.3	3.5	3.02e+01	0	29	104	0	60	31647
2026-01-10 20:31:15.92	352.70	11.51	-39.4	-49.9	3.6	3.02e+01	0	29	104	0	52	19127
2026-01-10 20:31:16.93	352.49	11.52	-47.7	-64.8	3.5	3.02e+01	0	29	104	0	60	66682
2026-01-10 20:31:17.94	352.27	11.53	-37.3	-47.6	3.5	3.02e+01	0	29	104	0	52	14679
2026-01-10 20:31:18.95	352.05	11.53	-36.9	-47.3	3.4	3.02e+01	0	29	104	0	48	17721
2026-01-10 20:31:19.96	351.83	11.54	-36.1	-46.3	3.4	3.02e+01	0	29	104	0	48	15925
2026-01-10 20:31:20.96	351.61	11.55	-36.0	-46.2	3.6	3.02e+01	0	29	104	0	46	17653
2026-01-10 20:31:21.97	351.40	11.55	-43.5	-46.7	5.1	3.02e+01	0	29	104	0	60	8308
2026-01-10 20:31:22.98	351.18	11.56	-38.4	-40.2	22.9	3.02e+01	60	29	104	0	52	6233
2026-01-10 20:31:23.99	350.96	11.56	-47.6	-61.5	3.8	3.02e+01	0	29	104	524288	60	45523
2026-01-10 20:31:25.00	350.74	11.56	-43.0	-45.7	19.9	3.02e+01	60	29	0	524288	60	7398
2026-01-10 20:31:26.01	350.52	11.57	-40.4	-42.3	22.7	3.02e+01	60	29	0	2621440	54	7124
2026-01-10 20:31:27.02	350.30	11.57	-35.4	-36.7	28.1	3.02e+01	58	29	0	4194304	46	5871
2026-01-10 20:31:28.03	350.08	11.57	-35.4	-36.7	28.0	3.02e+01	59	29	0	6291456	46	5886
2026-01-10 20:31:29.04	349.86	11.58	-35.1	-36.4	28.3	3.02e+01	45	29	0	8388608	46	5691
2026-01-10 20:31:30.05	349.64	11.58	-35.0	-36.3	28.4	3.02e+01	60	29	0	9961472	46	5610
2026-01-10 20:31:31.06	349.42	11.58	-35.0	-36.2	28.4	3.02e+01	60	29	0	12058624	46	5588
2026-01-10 20:31:32.07	349.21	11.58	-35.1	-36.3	28.3	3.02e+01	49	29	0	14155776	44	6339
2026-01-10 20:31:33.08	348.99	11.58	-35.2	-36.4	28.3	3.02e+01	57	29	0	15728640	44	6398
2026-01-10 20:31:34.09	348.77	11.58	-35.3	-36.5	28.2	3.02e+01	60	29	0	17825792	44	6493
2026-01-10 20:31:35.10	348.55	11.58	-35.3	-36.6	28.2	3.02e+01	60	29	0	19398656	44	6544
2026-01-10 20:31:36.11	348.33	11.58	-35.1	-36.3	28.3	3.02e+01	55	29	0	21495808	44	6325
2026-01-10 20:31:37.12	348.11	11.58	-35.0	-36.3	28.4	3.02e+01	51	29	0	23592960	44	6286
2026-01-10 20:31:38.13	347.89	11.58	-35.0	-36.3	28.4	3.02e+01	61	29	0	25165824	44	6309
2026-01-10 20:31:39.14	347.67	11.58	-34.9	-36.1	28.4	3.02e+01	58	29	0	27262976	44	6190
2026-01-10 20:31:40.15	347.45	11.58	-35.0	-36.3	28.4	3.02e+01	49	29	0	28835840	44	6300
2026-01-10 20:31:41.16	347.23	11.58	-35.0	-36.3	28.4	3.02e+01	62	29	0	30932992	44	6289
2026-01-10 20:31:42.17	347.01	11.57	-35.0	-36.3	28.4	3.02e+01	46	29	0	33030144	44	6311
2026-01-10 20:31:43.18	346.79	11.57	-35.0	-36.3	28.4	3.02e+01	56	29	0	34603008	44	6309
2026-01-10 20:31:44.19	346.58	11.57	-35.0	-36.3	28.4	3.02e+01	60	29	0	36700160	44	6323
2026-01-10 20:31:45.20	346.36	11.56	-35.2	-36.4	28.3	3.02e+01	46	29	0	38273024	44	6406
2026-01-10 20:31:46.21	346.14	11.56	-35.1	-36.3	28.2	3.02e+01	57	29	0	40370176	44	6339
2026-01-10 20:31:47.22	345.92	11.56	-35.1	-36.3	28.3	3.02e+01	60	29	0	42467328	44	6339
2026-01-10 20:31:48.23	345.70	11.55	-35.0	-36.3	28.4	3.02e+01	57	29	0	44040192	44	6323
2026-01-10 20:31:49.24	345.48	11.55	-35.0	-36.3	28.4	3.02e+01	60	29	0	46137344	44	6301
2026-01-10 20:31:50.26	345.26	11.54	-35.2	-36.4	28.4	3.02e+01	55	29	0	47710208	44	6404
2026-01-10 20:31:51.27	345.04	11.53	-35.3	-36.6	28.1	3.02e+01	59	29	0	49807360	44	6507
2026-01-10 20:31:52.27	344.83	11.53	-35.1	-36.4	28.2	3.02e+01	59	29	0	51904512	44	6395
2026-01-10 20:31:53.28	344.61	11.52	-35.0	-36.3	28.4	3.02e+01	52	29	0	53477376	44	6295
2026-01-10 20:31:54.29	344.39	11.51	-35.0	-36.3	28.3	3.02e+01	63	29	0	55574528	44	6307
2026-01-10 20:31:55.30	344.17	11.51	-35.0	-36.3	28.4	3.02e+01	59	29	0	57147392	44	6283
2026-01-10 20:31:56.31	343.95	11.50	-35.1	-36.3	28.3	3.02e+01	59	29	0	59244544	44	6334
2026-01-10 20:31:57.32	343.73	11.49	-35.1	-36.4	28.3	3.02e+01	61	29	0	61341696	44	6375
2026-01-10 20:31:58.33	343.52	11.48	-35.2	-36.4	28.2	3.02e+01	62	29	0	62914560	44	6423
2026-01-10 20:31:59.34	343.30	11.47	-35.3	-36.6	28.1	3.02e+01	61	29	0	65011712	44	6504
2026-01-10 20:32:00.35	343.08	11.46	-35.2	-36.5	28.2	3.02e+01	56	29	0	67108864	44	6441
2026-01-10 20:32:01.36	342.86	11.45	-35.3	-36.5	28.2	3.02e+01	44	29	0	68681728	44	6493
2026-01-10 20:32:02.37	342.65	11.44	-35.3	-36.6	28.2	3.02e+01	58	29	0	70778880	44	6539
2026-01-10 20:32:03.38	342.43	11.43	-35.3	-36.6	28.1	3.02e+01	61	29	0	72351744	44	6526
2026-01-10 20:32:04.39	342.21	11.42	-35.5	-36.8	27.9	3.02e+01	59	29	0	74448896	44	6695
2026-01-10 20:32:05.40	342.00	11.41	-35.5	-36.8	27.9	3.02e+01	59	29	0	76546048	44	6680
2026-01-10 20:32:06.41	341.78	11.40	-35.1	-36.3	28.4	3.02e+01	54	29	0	78118912	44	6348
2026-01-10 20:32:07.42	341.56	11.39	-35.1	-36.4	28.3	3.02e+01	52	29	0	80216064	44	6391
2026-01-10 20:32:08.43	341.35	11.37	-35.1	-36.4	28.3	3.02e+01	59	29	0	82313216	44	6355
2026-01-10 20:32:09.44	341.13	11.36	-35.2	-36.5	28.2	3.02e+01	52	29	0	83886080	44	6456
2026-01-10 20:32:10.45	340.92	11.35	-35.1	-36.4	28.3	3.02e+01	61	29	0	85983232	44	6398
2026-01-10 20:32:11.46	340.70	11.34	-35.3	-36.6	28.2	3.02e+01	44	29	0	87556096	44	6503
2026-01-10 20:32:12.47	340.49	11.32	-35.1	-36.3	28.4	3.02e+01	61	29	0	89653248	44	6336
2026-01-10 20:32:13.48	340.27	11.31	-35.2	-36.4	28.2	3.02e+01	57	29	0	91750400	44	6403
2026-01-10 20:32:14.49	340.06	11.29	-35.0	-36.3	28.3	3.02e+01	50	29	0	93323264	44	6309
2026-01-10 20:32:15.51	339.84	11.28	-35.3	-36.6	28.2	3.02e+01	57	29	0	95420416	44	6522
2026-01-10 20:32:16.51	339.63	11.26	-35.3	-36.5	28.2	3.02e+01	58	29	0	96993280	44	6492
2026-01-10 20:32:17.53	339.41	11.25	-35.2	-36.5	28.2	3.02e+01	59	29	0	99090432	44	6470
2026-01-10 20:32:18.54	339.20	11.23	-35.6	-36.8	27.8	3.02e+01	58	29	0	101187584	44	6718
2026-01-10 20:32:19.55	338.98	11.22	-35.1	-36.3	28.3	3.02e+01	46	29	0	102760448	44	6328
2026-01-10 20:32:20.55	338.77	11.20	-35.6	-36.9	27.8	3.02e+01	60	29	0	104857600	44	6745
2026-01-10 20:32:21.56	338.56	11.18	-34.9	-36.1	28.5	3.02e+01	58	29	0	106954752	44	6182
2026-01-10 20:32:22.57	338.35	11.16	-35.4	-36.7	28.0	3.02e+01	47	29	0	108527616	44	6610
2026-01-10 20:32:23.58	338.14	11.15	-35.2	-36.5	28.2	3.02e+01	56	29	0	110624768	44	6432
2026-01-10 20:32:24.59	337.92	11.13	-35.3	-36.6	28.1	3.02e+01	62	29	0	112197632	44	6499
2026-01-10 20:32:25.60	337.71	11.11	-35.4	-36.7	28.0	3.02e+01	57	29	0	114294784	44	6574
2026-01-10 20:32:26.61	337.50	11.09	-35.6	-36.9	27.8	3.02e+01	61	29	0	115867648	44	6799
2026-01-10 20:32:27.62	337.29	11.07	-36.0	-37.3	27.5	3.02e+01	56	29	0	117964800	44	7097
2026-01-10 20:32:28.63	337.08	11.05	-35.3	-36.6	28.1	3.02e+01	59	29	0	120061952	46	5814
2026-01-10 20:32:29.64	336.87	11.03	-35.6	-36.9	27.8	3.02e+01	53	29	0	121634816	46	6052
2026-01-10 20:32:30.65	336.66	11.01	-35.5	-36.8	28.0	3.02e+01	51	29	0	123731968	46	5935
2026-01-10 20:32:31.66	336.45	10.99	-35.6	-36.9	28.0	3.02e+01	57	29	0	125829120	46	6001
2026-01-10 20:32:32.67	336.24	10.97	-34.9	-36.2	28.5	3.02e+01	59	29	0	127401984	44	6215
2026-01-10 20:32:33.68	336.03	10.95	-35.3	-36.6	28.1	3.02e+01	57	29	0	129499136	44	6521
2026-01-10 20:32:34.69	335.82	10.93	-35.4	-36.7	28.1	3.02e+01	57	29	0	131072000	44	6580
2026-01-10 20:32:35.70	335.61	10.91	-35.2	-36.5	28.1	3.02e+01	59	29	0	133169152	44	6449
2026-01-10 20:32:36.71	335.40	10.89	-35.5	-36.8	27.8	3.02e+01	56	29	0	135266304	44	6725
2026-01-10 20:32:37.72	335.19	10.86	-35.2	-36.4	28.3	3.02e+01	56	29	0	136839168	44	6396
2026-01-10 20:32:38.73	334.98	10.84	-35.5	-36.8	27.8	3.02e+01	45	29	0	138936320	44	6713
2026-01-10 20:32:39.74	334.78	10.82	-35.1	-36.3	28.2	3.02e+01	57	29	0	140509184	44	6349
2026-01-10 20:32:40.75	334.57	10.79	-35.4	-36.7	28.0	3.02e+01	59	29	0	142606336	44	6612
2026-01-10 20:32:41.76	334.36	10.77	-35.3	-36.5	28.1	3.02e+01	62	29	0	144703488	44	6497
2026-01-10 20:32:42.77	334.16	10.75	-35.3	-36.6	27.9	3.02e+01	58	29	0	146276352	44	6554
2026-01-10 20:32:43.78	333.95	10.72	-35.6	-36.9	27.6	3.02e+01	63	29	0	148373504	44	6790
2026-01-10 20:32:44.79	333.75	10.70	-35.2	-36.4	28.2	3.02e+01	61	29	0	150470656	44	6386
2026-01-10 20:32:45.80	333.54	10.67	-35.6	-36.9	27.8	3.02e+01	64	29	0	152043520	44	6801
2026-01-10 20:32:46.81	333.34	10.65	-35.4	-36.6	28.0	3.02e+01	56	29	0	154140672	44	6549
2026-01-10 20:32:47.82	333.13	10.62	-35.5	-36.8	27.8	3.02e+01	60	29	0	155713536	44	6717
2026-01-10 20:32:48.83	332.93	10.60	-35.4	-36.6	28.0	3.02e+01	36	29	0	157810688	44	6555
2026-01-10 20:32:49.83	332.73	10.57	-35.5	-36.8	28.0	3.02e+01	56	29	0	159907840	44	6680
2026-01-10 20:32:50.84	332.52	10.54	-35.2	-36.5	28.2	3.02e+01	63	29	0	161480704	44	6435
2026-01-10 20:32:51.85	332.32	10.52	-35.6	-36.9	27.7	3.02e+01	46	29	0	163577856	44	6775
2026-01-10 20:32:52.86	332.12	10.49	-35.2	-36.4	28.3	3.02e+01	59	29	0	165150720	44	6412
2026-01-10 20:32:53.87	331.92	10.46	-35.6	-36.9	27.9	3.02e+01	59	29	0	167247872	44	6741
2026-01-10 20:32:54.88	331.71	10.44	-35.4	-36.7	27.9	3.02e+01	61	29	0	169345024	44	6644
2026-01-10 20:32:55.89	331.51	10.41	-35.9	-37.3	27.4	3.02e+01	59	29	0	170917888	44	7064
2026-01-10 20:32:56.90	331.31	10.38	-35.4	-36.7	28.0	3.02e+01	45	29	0	173015040	46	5894
2026-01-10 20:32:57.91	331.11	10.35	-36.0	-37.4	27.4	3.02e+01	59	29	0	175112192	46	6365
2026-01-10 20:32:58.92	330.91	10.32	-34.8	-36.1	28.5	3.02e+01	59	29	0	176685056	44	6155
2026-01-10 20:32:59.93	330.71	10.29	-35.6	-36.9	27.7	3.02e+01	45	29	0	178782208	44	6803
2026-01-10 20:33:00.94	330.51	10.26	-35.3	-36.6	28.0	3.02e+01	61	29	0	180355072	44	6506
2026-01-10 20:33:01.95	330.31	10.24	-35.8	-37.1	27.7	3.02e+01	59	29	0	182452224	44	6940
2026-01-10 20:33:02.96	330.12	10.21	-35.5	-36.8	27.9	3.02e+01	60	29	0	184025088	44	6713
2026-01-10 20:33:03.97	329.92	10.18	-35.8	-37.2	27.6	3.02e+01	58	29	0	186122240	44	6981
2026-01-10 20:33:04.98	329.72	10.14	-35.4	-36.7	28.0	3.02e+01	54	29	0	188219392	44	6627
2026-01-10 20:33:05.99	329.52	10.11	-35.5	-36.8	27.9	3.02e+01	60	29	0	189792256	44	6703
2026-01-10 20:33:06.99	329.33	10.08	-35.7	-37.1	27.6	3.02e+01	56	29	0	191889408	44	6895
2026-01-10 20:33:08.00	329.13	10.05	-35.0	-36.3	28.3	3.02e+01	52	29	0	193462272	44	6286
2026-01-10 20:33:09.02	328.94	10.02	-36.3	-37.7	26.9	3.02e+01	60	29	0	195559424	46	6626
2026-01-10 20:33:10.02	328.74	9.99	-35.2	-36.4	28.3	3.02e+01	63	29	0	197656576	46	5677
2026-01-10 20:33:11.03	328.55	9.96	-36.3	-37.7	27.1	3.02e+01	53	29	0	199229440	46	6585
2026-01-10 20:33:12.04	328.36	9.93	-35.9	-37.2	27.6	3.02e+01	61	29	0	201326592	46	6242
2026-01-10 20:33:13.05	328.16	9.89	-36.2	-37.5	27.3	3.02e+01	52	29	0	203423744	46	6458
2026-01-10 20:33:14.06	327.97	9.86	-35.8	-37.1	27.6	3.02e+01	61	29	0	204996608	46	6196
2026-01-10 20:33:15.07	327.78	9.83	-35.8	-37.1	27.7	3.02e+01	59	29	0	207093760	46	6178
2026-01-10 20:33:16.08	327.58	9.79	-36.5	-37.9	26.7	3.02e+01	49	29	0	208666624	46	6787
2026-01-10 20:33:17.09	327.39	9.76	-35.4	-36.6	27.8	3.02e+01	58	29	0	210763776	46	5852
2026-01-10 20:33:18.10	327.20	9.73	-36.9	-38.4	26.4	3.02e+01	60	29	0	212860928	46	7141
2026-01-10 20:33:19.11	327.01	9.69	-35.1	-36.3	28.3	3.02e+01	59	29	0	214433792	46	5636
2026-01-10 20:33:20.12	326.82	9.66	-36.6	-38.1	26.7	3.02e+01	55	29	0	216530944	46	6903
2026-01-10 20:33:21.13	326.63	9.63	-35.4	-36.7	28.0	3.02e+01	53	29	0	218628096	46	5887
2026-01-10 20:33:22.14	326.44	9.59	-36.1	-37.5	27.2	3.02e+01	60	29	0	220200960	46	6445
2026-01-10 20:33:23.15	326.25	9.56	-36.3	-37.6	27.2	3.02e+01	57	29	0	222298112	46	6541
2026-01-10 20:33:24.16	326.06	9.52	-35.8	-37.1	27.7	3.02e+01	48	29	0	223870976	46	6142
2026-01-10 20:33:25.17	325.88	9.49	-36.6	-38.1	26.8	3.02e+01	61	29	0	225968128	46	6885
2026-01-10 20:33:26.17	325.69	9.45	-35.4	-36.7	27.9	3.02e+01	46	29	0	228065280	46	5863
2026-01-10 20:33:27.18	325.50	9.42	-36.3	-37.6	27.0	3.02e+01	60	29	0	229638144	46	6561
2026-01-10 20:33:28.19	325.32	9.38	-35.6	-36.9	27.5	3.02e+01	61	29	0	231735296	46	6002
2026-01-10 20:33:29.20	325.13	9.34	-35.5	-36.8	27.8	3.02e+01	55	29	0	233308160	46	5959
2026-01-10 20:33:30.21	324.95	9.31	-35.9	-37.2	27.5	3.02e+01	59	29	0	235405312	46	6268
2026-01-10 20:33:31.22	324.76	9.27	-36.0	-37.3	27.5	3.02e+01	59	29	0	237502464	46	6313
2026-01-10 20:33:32.23	324.58	9.23	-35.8	-37.1	27.7	3.02e+01	57	29	0	239075328	46	6143
2026-01-10 20:33:33.24	324.39	9.20	-36.0	-37.4	27.3	3.02e+01	59	29	0	241172480	46	6352
2026-01-10 20:33:34.25	324.21	9.16	-35.6	-36.9	27.7	3.02e+01	44	29	0	242745344	46	6039
2026-01-10 20:33:35.26	324.03	9.12	-36.4	-37.8	26.9	3.02e+01	59	29	0	244842496	46	6693
2026-01-10 20:33:36.27	323.84	9.08	-36.0	-37.3	27.3	3.02e+01	58	29	0	246939648	46	6335
2026-01-10 20:33:37.28	323.66	9.05	-36.7	-38.1	26.7	3.02e+01	56	29	0	248512512	46	6931
2026-01-10 20:33:38.29	323.48	9.01	-35.7	-37.0	27.7	3.02e+01	63	29	0	250609664	46	6092
2026-01-10 20:33:39.30	323.30	8.97	-35.9	-37.2	27.5	3.02e+01	60	29	0	252182528	46	6273
2026-01-10 20:33:40.31	323.12	8.93	-35.8	-37.1	27.6	3.02e+01	59	29	0	254279680	46	6177
2026-01-10 20:33:41.32	322.94	8.89	-36.1	-37.4	27.3	3.02e+01	60	29	0	256376832	46	6388
2026-01-10 20:33:42.33	322.76	8.86	-35.8	-37.1	27.6	3.02e+01	48	29	0	257949696	46	6197
2026-01-10 20:33:43.34	322.58	8.82	-36.4	-37.8	27.0	3.02e+01	59	29	0	260046848	46	6693
2026-01-10 20:33:44.35	322.41	8.78	-36.2	-37.5	27.2	3.02e+01	58	29	0	261619712	46	6486
2026-01-10 20:33:45.36	322.23	8.74	-36.5	-37.9	26.9	3.02e+01	44	29	0	263716864	46	6731
2026-01-10 20:33:46.37	322.05	8.70	-36.2	-37.5	27.2	3.02e+01	63	29	0	265814016	46	6492
2026-01-10 20:33:47.38	321.87	8.66	-35.7	-37.0	27.7	3.02e+01	60	29	0	267386880	46	6091
2026-01-10 20:33:48.38	321.70	8.62	-36.1	-37.4	27.3	3.02e+01	60	29	0	269484032	46	6417
2026-01-10 20:33:49.40	321.52	8.58	-35.8	-37.2	27.4	3.02e+01	57	29	0	271581184	46	6211
2026-01-10 20:33:50.41	321.35	8.54	-35.9	-37.3	27.4	3.02e+01	53	29	0	273154048	46	6291
2026-01-10 20:33:51.42	321.17	8.50	-36.5	-37.9	26.9	3.02e+01	56	29	0	275251200	46	6749
2026-01-10 20:33:52.43	321.00	8.46	-36.5	-37.8	26.9	3.02e+01	58	29	0	276824064	46	6719
2026-01-10 20:33:53.43	320.83	8.42	-36.1	-37.4	27.2	3.02e+01	53	29	0	278921216	46	6401
2026-01-10 20:33:54.44	320.65	8.38	-36.2	-37.6	27.3	3.02e+01	60	29	0	281018368	46	6505
2026-01-10 20:33:55.45	320.48	8.34	-35.9	-37.2	27.6	3.02e+01	54	29	0	282591232	46	6214
2026-01-10 20:33:56.46	320.31	8.30	-35.9	-37.2	27.5	3.02e+01	57	29	0	284688384	46	6270
2026-01-10 20:33:57.48	320.14	8.25	-36.2	-37.5	27.2	3.02e+01	59	29	0	286785536	46	6492
2026-01-10 20:33:58.49	319.97	8.21	-35.9	-37.2	27.4	3.02e+01	51	29	0	288358400	46	6221
2026-01-10 20:33:59.49	319.80	8.17	-36.1	-37.4	27.3	3.02e+01	59	29	0	290455552	46	6373
2026-01-10 20:34:00.51	319.63	8.13	-36.6	-38.0	26.7	3.02e+01	57	29	0	292028416	46	6845
2026-01-10 20:34:01.52	319.46	8.09	-35.6	-36.9	27.7	3.02e+01	62	29	0	294125568	46	6019
2026-01-10 20:34:02.53	319.29	8.05	-36.2	-37.6	27.1	3.02e+01	59	29	0	296222720	46	6543
2026-01-10 20:34:03.54	319.12	8.00	-36.2	-37.5	27.0	3.02e+01	46	29	0	297795584	46	6495
2026-01-10 20:34:04.54	318.96	7.96	-35.8	-37.1	27.5	3.02e+01	58	29	0	299892736	46	6186
2026-01-10 20:34:05.55	318.79	7.92	-36.4	-37.8	26.9	3.02e+01	55	29	0	301465600	46	6722
2026-01-10 20:34:06.56	318.62	7.88	-36.3	-37.7	27.1	3.02e+01	51	29	0	303562752	46	6577
2026-01-10 20:34:07.57	318.46	7.84	-36.3	-37.6	27.1	3.02e+01	63	29	0	305659904	46	6573
2026-01-10 20:34:08.58	318.29	7.79	-36.4	-37.7	26.9	3.02e+01	56	29	0	307232768	46	6646
2026-01-10 20:34:09.59	318.13	7.75	-36.0	-37.4	27.3	3.02e+01	58	29	0	309329920	46	6376
2026-01-10 20:34:10.60	317.96	7.71	-36.5	-37.9	26.9	3.02e+01	58	29	0	310902784	46	6736
2026-01-10 20:34:11.61	317.80	7.66	-36.1	-37.4	27.2	3.02e+01	37	29	0	312999936	46	6389
2026-01-10 20:34:12.62	317.64	7.62	-36.0	-37.4	27.2	3.02e+01	58	29	0	315097088	46	6370
2026-01-10 20:34:13.63	317.47	7.58	-36.5	-38.0	26.7	3.02e+01	60	29	0	316669952	46	6809
2026-01-10 20:34:14.64	317.31	7.53	-36.0	-37.3	27.3	3.02e+01	45	29	0	318767104	46	6333
2026-01-10 20:34:15.65	317.15	7.49	-36.6	-38.0	26.4	3.02e+01	59	29	0	320339968	46	6852
2026-01-10 20:34:16.65	316.99	7.45	-37.4	-38.9	25.6	3.02e+01	57	29	0	322437120	48	6797
2026-01-10 20:34:17.66	316.83	7.40	-37.0	-38.3	26.4	3.02e+01	61	29	0	324534272	48	6336
2026-01-10 20:34:18.67	316.67	7.36	-37.7	-39.3	25.5	3.02e+01	56	29	0	326107136	48	7054
2026-01-10 20:34:19.68	316.51	7.31	-37.5	-39.0	25.2	3.02e+01	54	29	0	328204288	50	6127
2026-01-10 20:34:20.69	316.35	7.27	-36.7	-38.1	26.7	3.02e+01	58	29	0	329777152	48	6144
2026-01-10 20:34:21.70	316.19	7.23	-37.3	-38.8	26.0	3.02e+01	58	29	0	331874304	48	6680
2026-01-10 20:34:22.71	316.03	7.18	-37.0	-38.5	26.0	3.02e+01	44	29	0	333971456	48	6479
2026-01-10 20:34:23.72	315.88	7.14	-36.2	-37.5	27.2	3.02e+01	60	29	0	335544320	48	5778
2026-01-10 20:34:24.73	315.72	7.09	-36.7	-38.2	26.3	3.02e+01	58	29	0	337641472	48	6209
2026-01-10 20:34:25.74	315.56	7.05	-36.5	-38.0	26.7	3.02e+01	58	29	0	339738624	48	6072
2026-01-10 20:34:26.75	315.41	7.00	-35.8	-37.1	27.5	3.02e+01	56	29	0	341311488	46	6200
2026-01-10 20:34:27.76	315.25	6.96	-36.5	-38.0	26.5	3.02e+01	60	29	0	343408640	46	6839
2026-01-10 20:34:28.77	315.10	6.91	-36.7	-38.1	26.4	3.02e+01	61	29	0	344981504	46	6927
2026-01-10 20:34:29.78	314.94	6.87	-36.3	-37.7	27.0	3.02e+01	57	29	0	347078656	46	6594
2026-01-10 20:34:30.79	314.79	6.82	-36.7	-38.2	26.6	3.02e+01	59	29	0	349175808	46	6966
2026-01-10 20:34:31.80	314.64	6.78	-36.7	-38.2	26.7	3.02e+01	57	29	0	350748672	46	6976
2026-01-10 20:34:32.81	314.48	6.73	-36.4	-37.8	26.9	3.02e+01	45	29	0	352845824	46	6667
2026-01-10 20:34:33.82	314.33	6.69	-36.8	-38.3	26.4	3.02e+01	58	29	0	354942976	46	7105
2026-01-10 20:34:34.83	314.18	6.64	-36.7	-38.1	26.5	3.02e+01	59	29	0	356515840	48	6151
2026-01-10 20:34:35.84	314.03	6.60	-36.2	-37.5	27.2	3.02e+01	45	29	0	358612992	48	5770
2026-01-10 20:34:36.85	313.88	6.55	-36.6	-38.0	26.6	3.02e+01	57	29	0	360185856	48	6103
2026-01-10 20:34:37.86	313.73	6.50	-36.9	-38.4	26.1	3.02e+01	61	29	0	362283008	48	6377
2026-01-10 20:34:38.87	313.58	6.46	-36.5	-37.8	26.8	3.02e+01	59	29	0	364380160	48	5987
2026-01-10 20:34:39.88	313.43	6.41	-36.5	-37.8	26.7	3.02e+01	58	29	0	365953024	48	5976
2026-01-10 20:34:40.89	313.28	6.37	-36.8	-38.2	26.4	3.02e+01	44	29	0	368050176	48	6262
2026-01-10 20:34:41.90	313.14	6.32	-36.9	-38.3	26.5	3.02e+01	58	29	0	369623040	48	6303
2026-01-10 20:34:42.91	312.99	6.27	-36.5	-37.8	26.7	3.02e+01	62	29	0	371720192	48	5981
2026-01-10 20:34:43.92	312.84	6.23	-36.8	-38.2	26.6	3.02e+01	47	29	0	373817344	48	6248
2026-01-10 20:34:44.93	312.69	6.18	-36.8	-38.2	26.4	3.02e+01	58	29	0	375390208	48	6268
2026-01-10 20:34:45.94	312.55	6.13	-36.9	-38.2	26.4	3.02e+01	61	29	0	377487360	48	6276
2026-01-10 20:34:46.94	312.41	6.09	-37.2	-38.7	26.1	3.02e+01	57	29	0	379060224	48	6581
2026-01-10 20:34:47.96	312.26	6.04	-37.1	-38.6	26.0	3.02e+01	59	29	0	381157376	48	6529
2026-01-10 20:34:48.97	312.11	5.99	-36.9	-38.3	26.2	3.02e+01	55	29	0	383254528	48	6294
2026-01-10 20:34:49.97	311.97	5.95	-36.7	-38.1	26.4	3.02e+01	53	29	0	384827392	48	6175
2026-01-10 20:34:50.98	311.83	5.90	-36.9	-38.3	26.4	3.02e+01	58	29	0	386924544	48	6334
2026-01-10 20:34:51.99	311.69	5.85	-37.0	-38.4	26.1	3.02e+01	48	29	0	388497408	48	6414
2026-01-10 20:34:53.00	311.54	5.81	-36.9	-38.3	26.3	3.02e+01	61	29	0	390594560	48	6310
2026-01-10 20:34:54.01	311.40	5.76	-37.1	-38.6	25.9	3.02e+01	61	29	0	392691712	48	6558
2026-01-10 20:34:55.02	311.26	5.71	-37.0	-38.5	26.1	3.02e+01	58	29	0	394264576	48	6463
2026-01-10 20:34:56.03	311.12	5.67	-36.8	-38.2	26.4	3.02e+01	62	29	0	396361728	48	6254
2026-01-10 20:34:57.04	310.98	5.62	-36.9	-38.3	26.3	3.02e+01	53	29	0	397934592	48	6335
2026-01-10 20:34:58.05	310.84	5.57	-37.1	-38.6	26.1	3.02e+01	60	29	0	400031744	48	6514
2026-01-10 20:34:59.06	310.70	5.53	-37.1	-38.6	25.8	3.02e+01	60	29	0	402128896	48	6562
2026-01-10 20:35:00.07	310.56	5.48	-37.0	-38.5	26.0	3.02e+01	49	29	0	403701760	48	6454
2026-01-10 20:35:01.08	310.42	5.43	-37.1	-38.5	25.8	3.02e+01	59	30	0	405798912	48	6497
2026-01-10 20:35:02.09	310.29	5.38	-37.3	-38.8	25.7	3.02e+01	62	30	0	407896064	48	6673
2026-01-10 20:35:03.10	310.15	5.34	-37.8	-39.4	25.3	3.02e+01	56	29	0	409468928	48	7178
2026-01-10 20:35:04.11	310.01	5.29	-37.4	-38.9	25.6	3.02e+01	57	29	0	411566080	48	6800
2026-01-10 20:35:05.12	309.88	5.24	-37.3	-38.8	25.7	3.02e+01	54	29	0	413138944	48	6679
2026-01-10 20:35:06.13	309.74	5.19	-36.9	-38.3	26.2	3.02e+01	58	29	0	415236096	48	6342
2026-01-10 20:35:07.14	309.61	5.15	-37.0	-38.4	26.1	3.02e+01	60	29	0	417333248	48	6389
2026-01-10 20:35:08.14	309.47	5.10	-37.0	-38.5	26.0	3.02e+01	47	29	0	418906112	48	6454
2026-01-10 20:35:09.15	309.34	5.05	-37.1	-38.5	26.1	3.02e+01	53	29	0	421003264	48	6486
2026-01-10 20:35:10.16	309.20	5.00	-37.1	-38.6	25.9	3.02e+01	48	29	0	423100416	48	6521
2026-01-10 20:35:11.17	309.07	4.95	-37.2	-38.7	25.8	3.02e+01	59	29	0	424673280	48	6594
2026-01-10 20:35:12.18	308.94	4.91	-37.2	-38.7	25.8	3.02e+01	60	29	0	426770432	48	6632
2026-01-10 20:35:13.19	308.81	4.86	-37.3	-38.8	25.6	3.02e+01	52	29	0	428343296	48	6683
2026-01-10 20:35:14.20	308.67	4.81	-37.3	-38.8	25.7	3.02e+01	58	29	0	430440448	48	6677
2026-01-10 20:35:15.21	308.54	4.76	-37.0	-38.5	25.8	3.02e+01	61	29	0	432537600	48	6444
2026-01-10 20:35:16.22	308.41	4.72	-37.2	-38.6	25.9	3.02e+01	58	30	0	434110464	48	6558
2026-01-10 20:35:17.23	308.28	4.67	-37.3	-38.8	25.8	3.02e+01	60	29	0	436207616	48	6682
2026-01-10 20:35:18.24	308.15	4.62	-37.3	-38.8	25.5	3.02e+01	46	30	0	437780480	48	6658
2026-01-10 20:35:19.25	308.02	4.57	-37.3	-38.9	25.7	3.02e+01	59	30	0	439877632	48	6727
2026-01-10 20:35:20.26	307.89	4.52	-37.2	-38.7	25.6	3.02e+01	60	30	0	441450496	48	6640
2026-01-10 20:35:21.27	307.77	4.48	-37.2	-38.7	25.7	3.02e+01	53	30	0	443547648	48	6632
2026-01-10 20:35:22.28	307.64	4.43	-37.2	-38.7	25.8	3.02e+01	61	30	0	445644800	48	6586
2026-01-10 20:35:23.29	307.51	4.38	-37.3	-38.8	25.6	3.02e+01	60	30	0	447217664	48	6720
2026-01-10 20:35:24.30	307.38	4.33	-37.6	-39.1	25.4	3.02e+01	58	30	0	449314816	48	6959
2026-01-10 20:35:25.30	307.26	4.28	-37.5	-39.0	25.4	3.02e+01	58	30	0	451411968	48	6848
2026-01-10 20:35:26.32	307.13	4.23	-37.4	-38.9	25.6	3.02e+01	64	30	0	452984832	48	6766
2026-01-10 20:35:27.33	307.00	4.19	-37.1	-38.5	25.9	3.02e+01	62	30	0	455081984	48	6491
2026-01-10 20:35:28.34	306.88	4.14	-37.5	-39.0	25.3	3.02e+01	50	30	0	456654848	48	6840
2026-01-10 20:35:29.34	306.76	4.09	-37.8	-39.3	25.0	3.02e+01	45	30	0	458752000	48	7100
2026-01-10 20:35:30.35	306.63	4.04	-37.7	-39.3	25.2	3.02e+01	59	30	0	460849152	50	6344
2026-01-10 20:35:31.36	306.51	3.99	-37.6	-39.2	25.2	3.02e+01	59	30	0	462422016	50	6208
2026-01-10 20:35:32.37	306.38	3.94	-37.3	-38.8	25.3	3.02e+01	58	30	0	464519168	50	5973
2026-01-10 20:35:33.38	306.26	3.90	-37.4	-38.9	25.5	3.02e+01	58	30	0	466092032	50	6049
2026-01-10 20:35:34.39	306.14	3.85	-37.6	-39.1	25.2	3.02e+01	48	30	0	468189184	50	6187
2026-01-10 20:35:35.40	306.02	3.80	-37.8	-39.4	25.1	3.02e+01	61	29	0	470286336	50	6398
2026-01-10 20:35:36.41	305.90	3.75	-37.9	-39.5	24.9	3.02e+01	62	30	0	471859200	50	6482
2026-01-10 20:35:37.42	305.77	3.70	-37.7	-39.3	24.8	3.02e+01	53	30	0	473956352	50	6317
2026-01-10 20:35:38.43	305.65	3.65	-37.8	-39.3	25.1	3.02e+01	59	30	0	476053504	50	6345
2026-01-10 20:35:39.42	305.54	3.61	-37.5	-39.1	25.1	3.02e+01	59	30	0	477626368	50	6157
2026-01-10 20:35:40.42	305.42	3.56	-37.6	-39.2	25.2	3.02e+01	59	30	0	479723520	50	6217
2026-01-10 20:35:41.44	305.30	3.51	-37.7	-39.3	25.0	3.02e+01	62	30	0	481296384	50	6302
2026-01-10 20:35:42.45	305.18	3.46	-37.7	-39.2	25.1	3.02e+01	54	30	0	483393536	50	6256
2026-01-10 20:35:43.46	305.06	3.41	-38.1	-39.7	24.6	3.02e+01	57	30	0	485490688	50	6585
2026-01-10 20:35:44.46	304.94	3.36	-37.9	-39.5	24.8	3.02e+01	61	30	0	487063552	50	6430
2026-01-10 20:35:45.47	304.83	3.32	-38.1	-39.7	24.5	3.02e+01	61	30	0	489160704	50	6585
2026-01-10 20:35:46.48	304.71	3.27	-37.7	-39.2	25.0	3.02e+01	59	30	0	490733568	50	6246
2026-01-10 20:35:47.49	304.59	3.22	-37.6	-39.1	25.1	3.02e+01	39	30	0	492830720	50	6198
2026-01-10 20:35:48.50	304.48	3.17	-37.8	-39.4	24.6	3.02e+01	62	30	0	494927872	50	6393
2026-01-10 20:35:49.51	304.36	3.12	-38.1	-39.7	24.7	3.02e+01	61	30	0	496500736	50	6604
2026-01-10 20:35:50.52	304.24	3.07	-37.8	-39.4	24.8	3.02e+01	46	30	0	498597888	50	6414
2026-01-10 20:35:51.53	304.13	3.02	-38.2	-39.9	24.3	3.02e+01	57	30	0	500170752	50	6762
2026-01-10 20:35:52.54	304.02	2.97	-47.1	-62.6	3.5	3.02e+01	0	30	104	502267904	60	51947
2026-01-10 20:35:53.55	303.90	2.93	-47.8	-65.7	3.5	3.02e+01	0	30	104	502267904	60	74435
2026-01-10 20:35:54.56	303.79	2.88	-48.2	-66.0	3.5	3.02e+01	0	30	104	502267904	60	76815
2026-01-10 20:35:55.57	303.67	2.83	-48.4	-66.2	3.5	3.02e+01	0	30	104	502267904	60	78413
2026-01-10 20:35:56.58	303.56	2.78	-48.5	-66.3	3.5	3.02e+01	0	30	104	502267904	60	79445
2026-01-10 20:35:57.59	303.45	2.73	-48.6	-66.4	3.5	3.02e+01	0	30	104	502267904	60	80279
2026-01-10 20:35:58.60	303.34	2.68	-48.7	-66.5	3.5	3.02e+01	0	30	104	502267904	60	81276
2026-01-10 20:35:59.61	303.23	2.63	-48.6	-66.5	3.5	3.02e+01	0	30	104	502267904	60	81176
2026-01-10 20:36:00.62	303.11	2.59	-48.6	-66.5	3.5	3.02e+01	0	30	104	502267904	60	81434
2026-01-10 20:36:01.63	303.00	2.54	-48.6	-66.5	3.5	3.02e+01	0	30	104	502267904	60	81372
2026-01-10 20:36:02.64	302.89	2.49	-48.4	-66.4	3.5	3.02e+01	0	30	104	502267904	60	80302
2026-01-10 20:36:03.64	302.78	2.44	-48.1	-66.4	3.5	3.02e+01	0	30	104	502267904	60	80450
2026-01-10 20:36:04.65	302.67	2.39	-48.0	-66.4	3.5	3.02e+01	0	30	104	502267904	60	80373
2026-01-10 20:36:05.67	302.56	2.34	-48.2	-66.3	3.5	3.02e+01	0	30	104	502267904	60	79871
2026-01-10 20:36:06.68	302.46	2.29	-48.4	-66.3	3.5	3.02e+01	0	30	104	502267904	60	79339
2026-01-10 20:36:07.69	302.35	2.24	-48.3	-66.3	3.5	3.02e+01	0	30	104	502267904	60	79163
2026-01-10 20:36:08.70	302.24	2.20	-48.2	-66.3	3.5	3.02e+01	0	30	104	502267904	60	79310
2026-01-10 20:36:09.70	302.13	2.15	-48.5	-66.4	3.5	3.02e+01	0	30	104	502267904	60	80080
2026-01-10 20:36:10.71	302.03	2.10	-48.5	-66.4	3.5	3.02e+01	0	30	104	502267904	60	80385
2026-01-10 20:36:11.72	301.92	2.05	-48.4	-66.4	3.5	3.02e+01	0	30	104	502267904	60	80055
2026-01-10 20:36:12.73	301.81	2.00	-48.4	-66.3	3.5	3.02e+01	0	30	104	502267904	60	79100
2026-01-10 20:36:13.74	301.71	1.95	-48.4	-66.3	3.5	3.02e+01	0	30	104	502267904	60	79926
2026-01-10 20:36:14.75	301.60	1.91	-48.5	-66.4	3.5	3.02e+01	0	30	104	502267904	60	80173
2026-01-10 20:36:15.76	301.50	1.86	-48.4	-66.4	3.5	3.02e+01	0	30	104	502267904	60	80208
2026-01-10 20:36:16.77	301.39	1.81	-48.4	-66.3	3.5	3.02e+01	0	30	104	502267904	60	79926
2026-01-10 20:36:17.78	301.29	1.76	-48.4	-66.3	3.5	3.02e+01	0	30	104	502267904	60	79849
2026-01-10 20:36:18.79	301.18	1.71	-48.4	-66.4	3.5	3.02e+01	0	30	104	502267904	60	79980
2026-01-10 20:36:19.80	301.08	1.66	-48.4	-66.3	3.5	3.02e+01	0	30	104	502267904	60	79566
2026-01-10 20:36:20.81	300.98	1.61	-48.4	-66.3	3.5	3.02e+01	0	30	104	502267904	60	79830
2026-01-10 20:36:21.82	300.87	1.57	-48.4	-66.3	3.5	3.02e+01	0	30	104	502267904	60	79782
2026-01-10 20:36:22.83	300.77	1.52	-48.4	-66.3	3.5	3.02e+01	0	30	104	502267904	60	79074
2026-01-10 20:36:23.84	300.67	1.47	-48.4	-66.3	3.5	3.02e+01	0	30	104	502267904	60	79839
2026-01-10 20:36:24.85	300.57	1.42	-48.5	-66.3	3.5	3.02e+01	0	30	104	502267904	60	79751
2026-01-10 20:36:25.86	300.47	1.37	-48.4	-66.4	3.5	3.02e+01	0	30	104	502267904	60	80528
2026-01-10 20:36:26.86	300.37	1.32	-48.4	-66.3	3.5	3.02e+01	0	30	104	502267904	60	79511
2026-01-10 20:36:27.88	300.26	1.27	-48.5	-66.4	3.5	3.02e+01	0	30	104	502267904	60	80117
2026-01-10 20:36:28.88	300.17	1.23	-48.4	-66.4	3.5	3.02e+01	0	30	104	502267904	60	79985
2026-01-10 20:36:29.89	300.07	1.18	-48.3	-66.2	3.4	3.02e+01	0	30	104	502267904	60	78784
2026-01-10 20:36:30.90	299.97	1.13	-48.3	-66.2	3.5	3.02e+01	0	30	104	502267904	60	78987
2026-01-10 20:36:31.91	299.87	1.08	-48.4	-66.3	3.5	3.02e+01	0	30	104	502267904	60	79769
2026-01-10 20:36:32.92	299.77	1.03	-48.4	-66.3	3.5	3.02e+01	0	30	104	502267904	60	79695
2026-01-10 20:36:33.93	299.67	0.98	-48.4	-66.4	3.5	3.02e+01	0	30	104	502267904	60	80203
2026-01-10 20:36:34.94	299.57	0.94	-48.4	-66.3	3.5	3.02e+01	0	30	104	502267904	60	79566
2026-01-10 20:36:35.95	299.47	0.89	-48.4	-66.3	3.5	3.02e+01	0	30	104	502267904	60	79530
2026-01-10 20:36:36.96	299.38	0.84	-48.5	-66.4	3.5	3.02e+01	0	30	104	502267904	60	80783
2026-01-10 20:36:37.97	299.28	0.79	-48.4	-66.3	3.5	3.02e+01	0	30	104	502267904	60	79724
2026-01-10 20:36:38.98	299.18	0.74	-48.4	-66.3	3.5	3.02e+01	0	30	104	502267904	60	79192
2026-01-10 20:36:39.99	299.09	0.69	-48.4	-66.3	3.5	3.02e+01	0	30	104	502267904	60	79783
2026-01-10 20:36:41.00	298.99	0.65	-48.4	-66.3	3.5	3.02e+01	0	30	104	502267904	60	79660
2026-01-10 20:36:42.01	298.90	0.60	-48.5	-66.4	3.5	3.02e+01	0	30	104	502267904	60	80172
2026-01-10 20:36:43.02	298.80	0.55	-48.4	-66.3	3.5	3.02e+01	0	30	104	502267904	60	79213
2026-01-10 20:36:44.03	298.71	0.50	-48.4	-66.3	3.5	3.02e+01	0	30	104	502267904	60	79751
2026-01-10 20:36:45.04	298.61	0.45	-48.4	-66.3	3.5	3.02e+01	0	30	104	502267904	60	79356
2026-01-10 20:36:46.05	298.52	0.41	-48.5	-66.4	3.5	3.02e+01	0	30	104	502267904	60	80671
2026-01-10 20:36:47.06	298.42	0.36	-48.5	-66.4	3.5	3.02e+01	0	30	104	502267904	60	80101
2026-01-10 20:36:48.07	298.33	0.31	-48.4	-66.3	3.5	3.02e+01	0	30	104	502267904	60	79261
2026-01-10 20:36:49.07	298.24	0.26	-48.3	-66.3	3.5	3.02e+01	0	30	104	502267904	60	79073
2026-01-10 20:36:50.08	298.14	0.21	-48.4	-66.3	3.5	3.02e+01	0	30	104	502267904	60	79083
2026-01-10 20:36:51.09	298.05	0.17	-48.3	-66.3	3.5	3.02e+01	0	30	104	502267904	60	79297
2026-01-10 20:36:52.10	297.96	0.12	-48.4	-66.4	3.5	3.02e+01	0	30	104	502267904	60	80083
2026-01-10 20:36:53.11	297.87	0.07	-48.4	-66.3	3.5	3.02e+01	0	30	104	502267904	60	79642
2026-01-10 20:36:54.12	297.78	0.02	-48.4	-66.3	3.5	3.02e+01	0	30	104	502267904	60	79530

#Closed at: 2026-01-10 20:36:55
#Recorded file [502 MB]: D:/lorett/data/35029_260111_082616.dat