passes_logs/2026/01/10/R4.6S_Anadyr/R4.6S_Anadyr__20260110_051631_FENGYUN_3D_rec.log

#Pass ID: 20260110_051631_FENGYUN 3D
#Satellite: FENGYUN 3D
#Configuration: FENGYUN 3D
#almurnet v.1.7.20251203
#Start time: 2026-01-10 05:16:32

#Version: 2.2.20231116
#Station: R4.6S_Anadyr
#Location: 177.4865 lon 64.73178 lat
#TLE: 1 43010U 17072A   26008.59015185 -.00000067  00000+0 -98204-5 0  9997
#TLE: 2 43010  98.9935 340.3069 0002117 119.1923 240.9464 14.19693468422340

#Time	Az	El	Level	Level2	SNR	BER	BlckErr	Temp	State	Recorded	gain1	gain2
2026-01-10 05:16:32.95	237.76	0.05	-48.2	-65.9	3.5	3.03e+01	0	24	0	0	60	76197
2026-01-10 05:16:33.96	237.86	0.10	-47.9	-59.9	3.5	8.45e-01	0	25	104	0	60	35827
2026-01-10 05:16:34.97	237.95	0.14	-47.9	-60.1	3.5	8.45e-01	0	25	104	0	60	36719
2026-01-10 05:16:35.98	238.04	0.18	-48.0	-60.1	3.6	8.45e-01	0	25	104	0	60	36694
2026-01-10 05:16:36.99	238.14	0.22	-47.9	-60.1	3.6	8.46e-01	0	25	104	0	60	36499
2026-01-10 05:16:38.00	238.23	0.27	-47.9	-60.0	3.6	8.45e-01	0	26	104	0	60	36234
2026-01-10 05:16:39.01	238.32	0.31	-47.9	-60.1	3.6	8.45e-01	0	26	104	0	60	36628
2026-01-10 05:16:40.02	238.42	0.35	-47.7	-60.1	3.6	8.44e-01	0	26	104	0	60	36428
2026-01-10 05:16:41.03	238.51	0.39	-47.5	-60.1	3.6	8.45e-01	0	26	104	0	60	36383
2026-01-10 05:16:42.04	238.61	0.44	-47.8	-60.1	3.6	8.46e-01	0	26	104	0	60	36685
2026-01-10 05:16:43.05	238.70	0.48	-48.0	-60.1	3.6	8.44e-01	0	26	104	0	60	36740
2026-01-10 05:16:44.06	238.80	0.52	-48.0	-60.1	3.6	8.46e-01	0	26	104	0	60	36454
2026-01-10 05:16:45.07	238.89	0.57	-47.9	-60.0	3.6	8.45e-01	0	26	104	0	60	36271
2026-01-10 05:16:46.08	238.99	0.61	-47.9	-60.0	3.6	8.45e-01	0	26	104	0	60	36012
2026-01-10 05:16:47.09	239.08	0.65	-47.8	-59.9	3.6	8.45e-01	0	26	104	0	60	35790
2026-01-10 05:16:48.10	239.18	0.69	-47.7	-59.7	3.6	8.45e-01	0	26	104	0	60	35083
2026-01-10 05:16:49.11	239.28	0.74	-47.3	-59.4	3.6	8.45e-01	0	26	104	0	60	33648
2026-01-10 05:16:50.12	239.37	0.78	-46.6	-58.7	3.6	8.45e-01	0	26	104	0	60	30962
2026-01-10 05:16:51.13	239.47	0.82	-46.0	-58.0	3.6	8.46e-01	0	26	104	0	60	28732
2026-01-10 05:16:52.14	239.57	0.86	-45.9	-57.9	3.6	8.46e-01	0	26	104	0	60	28462
2026-01-10 05:16:53.15	239.66	0.91	-45.9	-57.9	3.6	8.46e-01	0	26	104	0	60	28455
2026-01-10 05:16:54.16	239.76	0.95	-45.9	-58.0	3.6	8.47e-01	0	26	104	0	60	28598
2026-01-10 05:16:55.17	239.86	0.99	-45.9	-57.8	3.6	8.45e-01	0	26	104	0	60	28167
2026-01-10 05:16:56.18	239.96	1.03	-45.9	-57.8	3.6	8.45e-01	0	26	104	0	60	28113
2026-01-10 05:16:57.19	240.06	1.08	-45.9	-57.8	3.6	8.45e-01	0	26	104	0	60	28136
2026-01-10 05:16:58.20	240.16	1.12	-45.9	-57.9	3.6	8.45e-01	0	26	104	0	60	28384
2026-01-10 05:16:59.21	240.26	1.16	-45.9	-57.8	3.6	8.45e-01	0	26	104	0	60	28131
2026-01-10 05:17:00.22	240.35	1.21	-45.9	-57.9	3.6	8.46e-01	0	26	104	0	60	28282
2026-01-10 05:17:01.22	240.45	1.25	-45.9	-57.8	3.6	8.46e-01	0	26	104	0	60	28125
2026-01-10 05:17:02.23	240.55	1.29	-45.9	-57.9	3.6	8.46e-01	0	26	104	0	60	28240
2026-01-10 05:17:03.24	240.65	1.33	-45.9	-57.9	3.6	8.46e-01	0	26	104	0	60	28257
2026-01-10 05:17:04.25	240.75	1.38	-45.8	-57.8	3.6	8.45e-01	0	26	104	0	60	27975
2026-01-10 05:17:05.26	240.85	1.42	-45.9	-57.9	3.6	8.46e-01	0	26	104	0	60	28508
2026-01-10 05:17:06.27	240.96	1.46	-45.9	-57.9	3.6	8.44e-01	0	26	104	0	60	28255
2026-01-10 05:17:07.28	241.06	1.50	-45.9	-57.8	3.6	8.45e-01	0	26	104	0	60	28179
2026-01-10 05:17:08.29	241.16	1.55	-45.9	-57.9	3.5	8.44e-01	0	26	104	0	60	28538
2026-01-10 05:17:09.30	241.26	1.59	-45.9	-57.8	3.6	8.46e-01	0	26	104	0	60	28045
2026-01-10 05:17:10.31	241.36	1.63	-45.9	-57.8	3.6	8.45e-01	0	26	104	0	60	28126
2026-01-10 05:17:11.32	241.46	1.67	-45.8	-57.8	3.6	8.46e-01	0	26	104	0	60	28015
2026-01-10 05:17:12.33	241.57	1.72	-45.8	-57.8	3.6	8.45e-01	0	26	104	0	60	28159
2026-01-10 05:17:13.34	241.67	1.76	-45.9	-57.8	3.6	8.44e-01	0	26	104	0	60	27972
2026-01-10 05:17:14.35	241.77	1.80	-45.8	-57.7	3.6	8.44e-01	0	26	104	0	60	27790
2026-01-10 05:17:15.36	241.88	1.84	-45.8	-57.7	3.6	8.46e-01	0	26	104	0	60	27734
2026-01-10 05:17:16.37	241.98	1.89	-45.8	-57.6	3.6	8.46e-01	0	26	104	0	60	27514
2026-01-10 05:17:17.38	242.09	1.93	-45.8	-57.6	3.6	8.44e-01	0	26	104	0	60	27408
2026-01-10 05:17:18.39	242.19	1.97	-45.8	-57.5	3.6	8.45e-01	0	26	104	0	60	27099
2026-01-10 05:17:19.40	242.29	2.01	-45.8	-57.6	3.6	8.47e-01	0	26	104	0	60	27350
2026-01-10 05:17:20.41	242.40	2.06	-45.8	-57.4	3.6	8.45e-01	0	26	104	0	60	26916
2026-01-10 05:17:21.42	242.50	2.10	-45.8	-57.5	3.6	8.46e-01	0	26	104	0	60	27017
2026-01-10 05:17:22.43	242.61	2.14	-45.8	-57.3	3.6	8.45e-01	0	26	104	0	60	26403
2026-01-10 05:17:23.44	242.72	2.18	-45.8	-57.2	3.6	8.45e-01	0	26	104	0	60	26156
2026-01-10 05:17:24.45	242.82	2.23	-45.8	-57.0	3.6	8.46e-01	0	26	104	0	60	25550
2026-01-10 05:17:25.46	242.93	2.27	-45.8	-56.8	3.6	8.45e-01	0	26	104	0	60	24949
2026-01-10 05:17:26.47	243.04	2.31	-45.7	-56.5	3.6	8.46e-01	0	26	104	0	60	24270
2026-01-10 05:17:27.48	243.14	2.35	-45.7	-56.3	3.6	8.45e-01	0	26	104	0	60	23719
2026-01-10 05:17:28.49	243.25	2.40	-45.7	-56.1	3.6	8.45e-01	0	26	104	0	60	23007
2026-01-10 05:17:29.50	243.36	2.44	-45.7	-56.1	3.6	8.45e-01	0	26	104	0	60	23134
2026-01-10 05:17:30.51	243.47	2.48	-45.7	-56.3	3.6	8.45e-01	0	26	104	0	60	23621
2026-01-10 05:17:31.52	243.57	2.52	-45.7	-56.4	3.5	8.45e-01	0	26	104	0	60	23819
2026-01-10 05:17:32.53	243.68	2.56	-45.7	-55.9	3.6	8.46e-01	0	26	104	0	60	22518
2026-01-10 05:17:33.54	243.79	2.61	-45.5	-54.7	4.0	8.43e-01	0	26	104	0	60	19551
2026-01-10 05:17:34.55	243.90	2.65	-45.2	-51.5	4.4	8.13e-01	0	26	0	0	60	13660
2026-01-10 05:17:35.56	244.01	2.69	-44.8	-49.8	6.0	6.00e-01	0	26	0	1048576	60	11143
2026-01-10 05:17:36.57	244.12	2.73	-44.2	-48.4	7.7	1.26e-01	0	26	0	7340032	60	9501
2026-01-10 05:17:37.58	244.23	2.78	-43.6	-47.1	9.3	4.06e-02	0	26	0	12582912	60	8215
2026-01-10 05:17:38.59	244.34	2.82	-43.1	-46.2	10.3	8.55e-03	0	26	0	18874368	60	7414
2026-01-10 05:17:39.60	244.45	2.86	-42.6	-45.4	11.2	2.19e-03	0	26	0	24117248	58	7525
2026-01-10 05:17:40.61	244.56	2.90	-42.2	-44.8	11.8	9.60e-04	0	26	0	29360128	58	7042
2026-01-10 05:17:41.62	244.67	2.94	-42.1	-44.5	12.1	3.60e-04	0	26	0	35651584	58	6834
2026-01-10 05:17:42.63	244.78	2.99	-42.5	-45.3	11.2	7.83e-04	0	26	0	40894464	58	7443
2026-01-10 05:17:43.64	244.90	3.03	-39.5	-41.0	14.8	1.14e-05	0	26	0	47185920	52	6400
2026-01-10 05:17:44.65	245.01	3.07	-40.5	-42.3	14.3	6.40e-05	0	26	0	52428800	54	6638
2026-01-10 05:17:45.66	245.12	3.11	-42.4	-45.0	10.3	1.85e-04	0	26	0	57671680	56	8101
2026-01-10 05:17:46.66	245.23	3.15	-45.4	-52.8	3.7	2.87e-01	0	26	0	61865984	60	15745
2026-01-10 05:17:47.67	245.34	3.20	-38.1	-39.3	17.1	2.79e-01	0	26	104	61865984	52	5260
2026-01-10 05:17:48.68	245.46	3.24	-38.8	-40.1	17.2	0.00e+00	0	26	0	66060288	52	5782
2026-01-10 05:17:49.69	245.57	3.28	-38.2	-39.4	17.8	0.00e+00	0	26	0	71303168	50	6001
2026-01-10 05:17:50.70	245.69	3.32	-37.9	-39.0	18.2	0.00e+00	0	26	0	77594624	50	5730
2026-01-10 05:17:51.71	245.80	3.36	-37.8	-38.9	18.4	0.00e+00	0	26	0	82837504	50	5660
2026-01-10 05:17:52.72	245.91	3.40	-37.5	-38.5	18.8	0.00e+00	0	26	0	89128960	48	6101
2026-01-10 05:17:53.73	246.03	3.45	-37.1	-38.2	19.1	0.00e+00	0	26	0	94371840	48	5835
2026-01-10 05:17:54.74	246.14	3.49	-37.1	-38.1	19.1	0.00e+00	0	26	0	99614720	48	5779
2026-01-10 05:17:55.75	246.26	3.53	-37.1	-38.1	19.2	0.00e+00	0	26	0	105906176	48	5799
2026-01-10 05:17:56.76	246.38	3.57	-36.9	-37.9	19.4	0.00e+00	0	26	0	111149056	48	5639
2026-01-10 05:17:57.77	246.49	3.61	-36.7	-37.7	19.6	0.00e+00	0	26	0	117440512	46	6186
2026-01-10 05:17:58.78	246.61	3.66	-36.5	-37.5	19.8	0.00e+00	0	26	0	122683392	46	6070
2026-01-10 05:17:59.79	246.73	3.70	-36.3	-37.2	20.1	0.00e+00	0	26	0	127926272	46	5884
2026-01-10 05:18:00.80	246.84	3.74	-36.3	-37.3	20.0	0.00e+00	0	26	0	134217728	46	5919
2026-01-10 05:18:01.81	246.96	3.78	-36.4	-37.4	20.0	0.00e+00	0	26	0	139460608	46	5995
2026-01-10 05:18:02.82	247.08	3.82	-36.5	-37.4	20.0	0.00e+00	0	26	0	145752064	46	6005
2026-01-10 05:18:03.83	247.20	3.86	-36.3	-37.2	20.3	0.00e+00	0	26	0	150994944	46	5896
2026-01-10 05:18:04.84	247.31	3.90	-36.2	-37.2	20.3	0.00e+00	0	26	0	157286400	46	5829
2026-01-10 05:18:05.85	247.43	3.95	-36.3	-37.2	20.3	0.00e+00	0	26	0	162529280	46	5863
2026-01-10 05:18:06.86	247.55	3.99	-36.0	-36.9	20.6	0.00e+00	0	26	0	167772160	46	5658
2026-01-10 05:18:07.87	247.67	4.03	-35.9	-36.8	20.7	0.00e+00	0	26	0	174063616	46	5594
2026-01-10 05:18:08.88	247.79	4.07	-35.5	-36.4	21.0	0.00e+00	0	26	0	179306496	44	6008
2026-01-10 05:18:09.89	247.91	4.11	-35.6	-36.5	21.0	0.00e+00	0	26	0	185597952	44	6076
2026-01-10 05:18:10.90	248.03	4.15	-35.5	-36.4	21.0	0.00e+00	0	26	0	190840832	44	6012
2026-01-10 05:18:11.91	248.15	4.19	-35.4	-36.3	21.2	0.00e+00	0	26	0	196083712	44	5937
2026-01-10 05:18:12.92	248.27	4.23	-35.4	-36.3	21.1	0.00e+00	0	26	0	202375168	44	5933
2026-01-10 05:18:13.93	248.39	4.28	-35.0	-35.8	21.6	0.00e+00	0	26	0	207618048	44	5609
2026-01-10 05:18:14.94	248.52	4.32	-34.9	-35.7	21.8	0.00e+00	0	26	0	213909504	44	5503
2026-01-10 05:18:15.95	248.64	4.36	-34.7	-35.6	22.0	0.00e+00	0	26	0	219152384	42	6116
2026-01-10 05:18:16.96	248.76	4.40	-34.7	-35.5	22.1	0.00e+00	0	27	0	224395264	42	6098
2026-01-10 05:18:17.96	248.88	4.44	-34.5	-35.2	22.3	0.00e+00	0	27	0	230686720	42	5886
2026-01-10 05:18:18.97	249.01	4.48	-34.3	-35.1	22.5	0.00e+00	0	26	0	235929600	42	5819
2026-01-10 05:18:19.98	249.13	4.52	-34.4	-35.2	22.4	0.00e+00	0	27	0	242221056	42	5843
2026-01-10 05:18:20.99	249.25	4.56	-34.5	-35.3	22.3	0.00e+00	0	26	0	247463936	42	5918
2026-01-10 05:18:22.00	249.38	4.60	-34.3	-35.1	22.6	0.00e+00	0	26	0	253755392	42	5771
2026-01-10 05:18:23.01	249.50	4.64	-34.4	-35.1	22.4	0.00e+00	0	26	0	258998272	42	5819
2026-01-10 05:18:24.02	249.62	4.68	-34.4	-35.2	22.4	0.00e+00	0	27	0	265289728	42	5856
2026-01-10 05:18:25.03	249.75	4.72	-34.4	-35.2	22.4	0.00e+00	0	27	0	270532608	42	5864
2026-01-10 05:18:26.04	249.88	4.76	-34.5	-35.3	22.5	0.00e+00	0	27	0	275775488	42	5901
2026-01-10 05:18:27.05	250.00	4.80	-34.3	-35.1	22.5	0.00e+00	0	27	0	282066944	42	5806
2026-01-10 05:18:28.06	250.13	4.85	-34.5	-35.3	22.3	0.00e+00	0	27	0	287309824	42	5961
2026-01-10 05:18:29.07	250.25	4.89	-34.6	-35.4	22.2	0.00e+00	0	27	0	293601280	42	6002
2026-01-10 05:18:30.08	250.38	4.93	-34.5	-35.3	22.4	0.00e+00	0	26	0	298844160	42	5909
2026-01-10 05:18:31.09	250.51	4.97	-34.5	-35.3	22.5	0.00e+00	0	27	0	304087040	42	5927
2026-01-10 05:18:32.10	250.63	5.01	-34.2	-35.0	22.6	0.00e+00	0	27	0	310378496	42	5748
2026-01-10 05:18:33.11	250.76	5.05	-34.2	-35.0	22.7	0.00e+00	0	26	0	315621376	42	5728
2026-01-10 05:18:34.12	250.89	5.09	-34.4	-35.2	22.5	0.00e+00	0	27	0	321912832	42	5853
2026-01-10 05:18:35.13	251.02	5.13	-34.3	-35.1	22.6	0.00e+00	0	27	0	327155712	42	5772
2026-01-10 05:18:36.14	251.15	5.17	-34.3	-35.1	22.6	0.00e+00	0	26	0	332398592	42	5802
2026-01-10 05:18:37.15	251.28	5.21	-34.4	-35.1	22.5	0.00e+00	0	27	0	338690048	42	5824
2026-01-10 05:18:38.16	251.40	5.25	-34.3	-35.1	22.6	0.00e+00	0	27	0	343932928	42	5770
2026-01-10 05:18:39.17	251.53	5.29	-34.3	-35.0	22.7	0.00e+00	0	27	0	350224384	42	5757
2026-01-10 05:18:40.18	251.66	5.33	-34.1	-34.9	22.8	0.00e+00	0	27	0	355467264	42	5667
2026-01-10 05:18:41.19	251.79	5.37	-34.1	-34.9	22.7	0.00e+00	0	27	0	361758720	42	5691
2026-01-10 05:18:42.20	251.93	5.41	-34.1	-34.9	22.9	0.00e+00	0	26	0	367001600	42	5650
2026-01-10 05:18:43.21	252.06	5.44	-34.2	-35.0	22.8	0.00e+00	0	27	0	372244480	42	5704
2026-01-10 05:18:44.22	252.19	5.48	-34.1	-34.8	22.9	0.00e+00	0	26	0	378535936	42	5616
2026-01-10 05:18:45.23	252.32	5.52	-34.1	-34.9	22.9	0.00e+00	0	27	0	383778816	42	5652
2026-01-10 05:18:46.24	252.45	5.56	-33.9	-34.6	23.0	0.00e+00	0	27	0	390070272	42	5485
2026-01-10 05:18:47.25	252.58	5.60	-33.9	-34.7	23.1	0.00e+00	0	26	0	395313152	42	5520
2026-01-10 05:18:48.26	252.72	5.64	-33.8	-34.5	23.2	0.00e+00	0	26	0	400556032	42	5420
2026-01-10 05:18:49.27	252.85	5.68	-33.7	-34.5	23.2	0.00e+00	0	27	0	406847488	40	6053
2026-01-10 05:18:50.28	252.98	5.72	-33.7	-34.5	23.1	0.00e+00	0	26	0	412090368	40	6052
2026-01-10 05:18:51.29	253.12	5.76	-33.9	-34.7	23.1	0.00e+00	0	27	0	418381824	40	6187
2026-01-10 05:18:52.30	253.25	5.80	-33.6	-34.3	23.3	0.00e+00	0	26	0	423624704	40	5957
2026-01-10 05:18:53.31	253.39	5.84	-33.7	-34.5	23.2	0.00e+00	0	26	0	428867584	40	6034
2026-01-10 05:18:54.32	253.52	5.88	-33.7	-34.4	23.3	0.00e+00	0	27	0	435159040	40	6023
2026-01-10 05:18:55.33	253.65	5.91	-33.6	-34.3	23.3	0.00e+00	0	27	0	440401920	40	5949
2026-01-10 05:18:56.34	253.79	5.95	-33.6	-34.3	23.3	0.00e+00	0	26	0	446693376	40	5944
2026-01-10 05:18:57.35	253.93	5.99	-33.9	-34.7	23.0	0.00e+00	0	27	0	451936256	40	6195
2026-01-10 05:18:58.36	254.06	6.03	-33.8	-34.6	23.2	0.00e+00	0	27	0	458227712	40	6128
2026-01-10 05:18:59.37	254.20	6.07	-33.8	-34.5	23.2	0.00e+00	0	27	0	463470592	40	6085
2026-01-10 05:19:00.38	254.34	6.11	-33.6	-34.4	23.3	0.00e+00	0	27	0	469762048	40	5967
2026-01-10 05:19:01.39	254.47	6.15	-33.6	-34.3	23.4	0.00e+00	0	27	0	475004928	40	5943
2026-01-10 05:19:02.40	254.61	6.18	-33.6	-34.3	23.5	0.00e+00	0	27	0	480247808	40	5918
2026-01-10 05:19:03.41	254.75	6.22	-33.6	-34.4	23.4	0.00e+00	0	27	0	486539264	40	5969
2026-01-10 05:19:04.42	254.89	6.26	-33.7	-34.4	23.3	0.00e+00	0	27	0	491782144	40	6017
2026-01-10 05:19:05.43	255.03	6.30	-33.8	-34.5	23.3	0.00e+00	0	27	0	498073600	40	6060
2026-01-10 05:19:06.44	255.16	6.34	-33.6	-34.3	23.5	0.00e+00	0	27	0	503316480	40	5933
2026-01-10 05:19:07.45	255.30	6.37	-33.5	-34.2	23.5	0.00e+00	0	27	0	508559360	40	5859
2026-01-10 05:19:08.46	255.44	6.41	-33.6	-34.3	23.5	0.00e+00	0	27	0	514850816	40	5964
2026-01-10 05:19:09.47	255.58	6.45	-33.4	-34.1	23.7	0.00e+00	0	27	0	520093696	40	5799
2026-01-10 05:19:10.48	255.72	6.49	-33.7	-34.4	23.4	0.00e+00	0	27	0	526385152	40	6006
2026-01-10 05:19:11.49	255.86	6.52	-33.7	-34.4	23.4	0.00e+00	0	27	0	531628032	40	6023
2026-01-10 05:19:12.50	256.01	6.56	-33.5	-34.2	23.5	0.00e+00	0	27	0	536870912	40	5869
2026-01-10 05:19:13.51	256.15	6.60	-33.6	-34.3	23.4	0.00e+00	0	26	0	543162368	40	5958
2026-01-10 05:19:14.52	256.29	6.63	-33.6	-34.3	23.5	0.00e+00	0	27	0	548405248	40	5944
2026-01-10 05:19:15.53	256.43	6.67	-33.6	-34.4	23.4	0.00e+00	0	27	0	554696704	40	5981
2026-01-10 05:19:16.54	256.57	6.71	-33.6	-34.4	23.5	0.00e+00	0	27	0	559939584	40	5968
2026-01-10 05:19:17.55	256.72	6.75	-33.5	-34.2	23.5	0.00e+00	0	27	0	566231040	40	5857
2026-01-10 05:19:18.56	256.86	6.78	-33.4	-34.2	23.6	0.00e+00	0	27	0	571473920	40	5840
2026-01-10 05:19:19.57	257.00	6.82	-33.3	-34.1	23.7	0.00e+00	0	27	0	577765376	40	5776
2026-01-10 05:19:20.58	257.15	6.86	-33.3	-34.0	23.7	0.00e+00	0	27	0	583008256	40	5722
2026-01-10 05:19:21.59	257.29	6.89	-33.3	-34.1	23.7	0.00e+00	0	27	0	588251136	40	5783
2026-01-10 05:19:22.59	257.43	6.93	-33.2	-33.9	23.8	0.00e+00	0	27	0	594542592	40	5668
2026-01-10 05:19:23.61	257.58	6.96	-33.0	-33.7	24.0	0.00e+00	0	27	0	599785472	40	5560
2026-01-10 05:19:24.62	257.72	7.00	-33.1	-33.8	24.0	0.00e+00	0	27	0	606076928	40	5574
2026-01-10 05:19:25.63	257.87	7.04	-33.1	-33.8	24.0	0.00e+00	0	27	0	611319808	40	5591
2026-01-10 05:19:26.64	258.02	7.07	-33.1	-33.8	23.9	0.00e+00	0	27	0	616562688	40	5612
2026-01-10 05:19:27.65	258.16	7.11	-33.1	-33.8	24.0	0.00e+00	0	27	0	622854144	40	5600
2026-01-10 05:19:28.66	258.31	7.14	-33.2	-34.0	23.8	0.00e+00	0	27	0	628097024	40	5700
2026-01-10 05:19:29.67	258.46	7.18	-33.1	-33.8	23.8	0.00e+00	0	27	0	634388480	40	5623
2026-01-10 05:19:30.68	258.60	7.22	-33.3	-34.0	23.7	0.00e+00	0	27	0	639631360	40	5710
2026-01-10 05:19:31.69	258.75	7.25	-33.2	-33.9	23.9	0.00e+00	0	27	0	644874240	40	5672
2026-01-10 05:19:32.70	258.90	7.29	-33.3	-34.0	23.8	0.00e+00	0	27	0	651165696	40	5756
2026-01-10 05:19:33.71	259.05	7.32	-33.3	-34.0	23.7	0.00e+00	0	27	0	656408576	40	5712
2026-01-10 05:19:34.71	259.19	7.36	-33.4	-34.2	23.6	0.00e+00	0	27	0	662700032	40	5831
2026-01-10 05:19:35.73	259.34	7.39	-33.4	-34.1	23.6	0.00e+00	0	27	0	667942912	40	5828
2026-01-10 05:19:36.73	259.49	7.43	-33.3	-34.0	23.8	0.00e+00	0	27	0	674234368	40	5761
2026-01-10 05:19:37.74	259.64	7.46	-33.3	-34.1	23.7	0.00e+00	0	27	0	679477248	40	5779
2026-01-10 05:19:38.75	259.79	7.49	-33.1	-33.9	24.0	0.00e+00	0	27	0	684720128	40	5651
2026-01-10 05:19:39.76	259.94	7.53	-33.0	-33.7	24.0	0.00e+00	0	27	0	691011584	40	5557
2026-01-10 05:19:40.77	260.09	7.56	-33.0	-33.7	24.1	0.00e+00	0	27	0	696254464	40	5537
2026-01-10 05:19:41.78	260.24	7.60	-33.1	-33.8	24.0	0.00e+00	0	27	0	702545920	40	5590
2026-01-10 05:19:42.79	260.39	7.63	-33.0	-33.7	24.1	0.00e+00	0	27	0	707788800	40	5512
2026-01-10 05:19:43.80	260.55	7.67	-33.0	-33.7	24.1	0.00e+00	0	27	0	713031680	40	5509
2026-01-10 05:19:44.81	260.70	7.70	-33.0	-33.7	24.1	0.00e+00	0	27	0	719323136	40	5561
2026-01-10 05:19:45.82	260.85	7.73	-33.0	-33.7	24.1	0.00e+00	0	27	0	724566016	40	5530
2026-01-10 05:19:46.83	261.00	7.77	-33.1	-33.8	24.1	0.00e+00	0	27	0	730857472	40	5590
2026-01-10 05:19:47.84	261.16	7.80	-33.0	-33.8	24.0	0.00e+00	0	27	0	736100352	40	5567
2026-01-10 05:19:48.85	261.31	7.83	-33.2	-33.9	23.9	0.00e+00	0	27	0	741343232	40	5652
2026-01-10 05:19:49.86	261.46	7.87	-33.3	-34.0	23.8	0.00e+00	0	27	0	747634688	40	5718
2026-01-10 05:19:50.87	261.62	7.90	-33.4	-34.2	23.7	0.00e+00	0	27	0	752877568	40	5843
2026-01-10 05:19:51.88	261.77	7.93	-33.1	-33.9	24.0	0.00e+00	0	27	0	759169024	40	5652
2026-01-10 05:19:52.89	261.93	7.97	-33.2	-34.0	23.8	0.00e+00	0	27	0	764411904	40	5705
2026-01-10 05:19:53.90	262.08	8.00	-33.3	-34.1	23.8	0.00e+00	0	27	0	770703360	40	5768
2026-01-10 05:19:54.91	262.24	8.03	-33.2	-34.0	23.8	0.00e+00	0	27	0	775946240	40	5702
2026-01-10 05:19:55.92	262.39	8.06	-33.0	-33.7	24.0	0.00e+00	0	27	0	782237696	40	5555
2026-01-10 05:19:56.93	262.55	8.10	-33.1	-33.8	24.0	0.00e+00	0	27	0	787480576	40	5620
2026-01-10 05:19:57.94	262.71	8.13	-33.0	-33.7	24.2	0.00e+00	0	27	0	792723456	40	5523
2026-01-10 05:19:58.95	262.86	8.16	-33.1	-33.8	24.0	0.00e+00	0	27	0	799014912	40	5601
2026-01-10 05:19:59.95	263.02	8.19	-32.9	-33.6	24.2	0.00e+00	0	27	0	804257792	40	5500
2026-01-10 05:20:00.96	263.18	8.22	-32.9	-33.7	24.2	0.00e+00	0	27	0	810549248	40	5507
2026-01-10 05:20:01.98	263.33	8.25	-33.1	-33.8	24.0	0.00e+00	0	27	0	815792128	40	5620
2026-01-10 05:20:02.98	263.49	8.29	-33.0	-33.7	24.0	0.00e+00	0	27	0	821035008	40	5563
2026-01-10 05:20:03.99	263.65	8.32	-33.0	-33.8	24.1	0.00e+00	0	27	0	827326464	40	5579
2026-01-10 05:20:05.00	263.81	8.35	-33.0	-33.8	24.1	0.00e+00	0	27	0	832569344	40	5583
2026-01-10 05:20:06.02	263.97	8.38	-33.0	-33.8	24.0	0.00e+00	0	27	0	838860800	40	5589
2026-01-10 05:20:07.03	264.13	8.41	-32.8	-33.5	24.3	0.00e+00	0	27	0	844103680	40	5422
2026-01-10 05:20:08.04	264.29	8.44	-32.7	-33.4	24.4	0.00e+00	0	27	0	849346560	38	6002
2026-01-10 05:20:09.05	264.45	8.47	-32.8	-33.5	24.4	0.00e+00	0	27	0	855638016	38	6064
2026-01-10 05:20:10.06	264.61	8.50	-32.8	-33.5	24.4	0.00e+00	0	27	0	860880896	38	6057
2026-01-10 05:20:11.07	264.77	8.53	-32.9	-33.6	24.4	0.00e+00	0	27	0	867172352	38	6126
2026-01-10 05:20:12.08	264.93	8.56	-32.8	-33.5	24.3	0.00e+00	0	27	0	872415232	38	6064
2026-01-10 05:20:13.09	265.09	8.59	-33.0	-33.7	24.2	0.00e+00	0	27	0	878706688	38	6194
2026-01-10 05:20:14.10	265.25	8.62	-32.7	-33.4	24.4	0.00e+00	0	27	0	883949568	38	6032
2026-01-10 05:20:15.11	265.41	8.65	-32.6	-33.3	24.6	0.00e+00	0	27	0	889192448	38	5944
2026-01-10 05:20:16.12	265.58	8.68	-32.7	-33.4	24.5	0.00e+00	0	27	0	895483904	38	5988
2026-01-10 05:20:17.13	265.74	8.71	-32.7	-33.4	24.5	0.00e+00	0	27	0	900726784	38	6019
2026-01-10 05:20:18.14	265.90	8.74	-32.8	-33.5	24.3	0.00e+00	0	27	0	907018240	38	6098
2026-01-10 05:20:19.15	266.07	8.77	-32.8	-33.4	24.5	0.00e+00	0	27	0	912261120	38	6027
2026-01-10 05:20:20.16	266.23	8.80	-32.9	-33.6	24.3	0.00e+00	0	27	0	917504000	38	6107
2026-01-10 05:20:21.17	266.39	8.82	-32.9	-33.6	24.2	0.00e+00	0	27	0	923795456	38	6122
2026-01-10 05:20:22.18	266.56	8.85	-32.9	-33.6	24.3	0.00e+00	0	27	0	929038336	38	6112
2026-01-10 05:20:23.19	266.72	8.88	-32.6	-33.3	24.6	0.00e+00	0	27	0	935329792	38	5919
2026-01-10 05:20:24.19	266.88	8.91	-32.6	-33.3	24.5	0.00e+00	0	27	0	940572672	38	5904
2026-01-10 05:20:25.20	267.05	8.94	-32.5	-33.2	24.6	0.00e+00	0	27	0	945815552	38	5863
2026-01-10 05:20:26.22	267.22	8.96	-32.6	-33.3	24.5	0.00e+00	0	27	0	952107008	38	5915
2026-01-10 05:20:27.23	267.38	8.99	-32.5	-33.2	24.7	0.00e+00	0	27	0	957349888	38	5869
2026-01-10 05:20:28.23	267.55	9.02	-32.6	-33.3	24.5	0.00e+00	0	27	0	963641344	38	5920
2026-01-10 05:20:29.24	267.71	9.05	-32.5	-33.2	24.6	0.00e+00	0	27	0	968884224	38	5887
2026-01-10 05:20:30.25	267.88	9.07	-32.6	-33.3	24.6	0.00e+00	0	27	0	975175680	38	5939
2026-01-10 05:20:31.27	268.05	9.10	-32.7	-33.4	24.4	0.00e+00	0	27	0	980418560	38	5983
2026-01-10 05:20:32.28	268.21	9.13	-32.7	-33.4	24.4	0.00e+00	0	27	0	986710016	38	5998
2026-01-10 05:20:33.29	268.38	9.15	-32.8	-33.5	24.3	0.00e+00	0	27	0	991952896	38	6077
2026-01-10 05:20:34.30	268.55	9.18	-32.7	-33.4	24.5	0.00e+00	0	27	0	997195776	38	5996
2026-01-10 05:20:35.31	268.72	9.21	-32.8	-33.5	24.4	0.00e+00	0	27	0	1003487232	38	6068
2026-01-10 05:20:36.32	268.89	9.23	-32.6	-33.3	24.5	0.00e+00	0	27	0	1008730112	38	5958
2026-01-10 05:20:37.33	269.05	9.26	-32.5	-33.2	24.6	0.00e+00	0	27	0	1015021568	38	5876
2026-01-10 05:20:38.33	269.22	9.28	-32.5	-33.2	24.6	0.00e+00	0	27	0	1020264448	38	5870
2026-01-10 05:20:39.34	269.39	9.31	-32.5	-33.2	24.6	0.00e+00	0	27	0	1025507328	38	5875
2026-01-10 05:20:40.36	269.56	9.33	-32.5	-33.2	24.7	0.00e+00	0	27	0	1031798784	38	5837
2026-01-10 05:20:41.36	269.73	9.36	-32.6	-33.4	24.5	0.00e+00	0	27	0	1037041664	38	5969
2026-01-10 05:20:42.38	269.90	9.38	-32.6	-33.3	24.5	0.00e+00	0	27	0	1043333120	38	5919
2026-01-10 05:20:43.38	270.07	9.41	-32.6	-33.3	24.6	0.00e+00	0	27	0	1048576000	38	5920
2026-01-10 05:20:44.40	270.24	9.43	-32.7	-33.4	24.5	0.00e+00	0	27	0	1053818880	38	6031
2026-01-10 05:20:45.41	270.41	9.46	-32.7	-33.4	24.4	0.00e+00	0	27	0	1060110336	38	6031
2026-01-10 05:20:46.42	270.58	9.48	-32.6	-33.4	24.5	0.00e+00	0	27	0	1065353216	38	5968
2026-01-10 05:20:47.43	270.75	9.50	-32.6	-33.3	24.6	0.00e+00	0	27	0	1071644672	38	5941
2026-01-10 05:20:48.43	270.92	9.53	-32.5	-33.2	24.7	0.00e+00	0	27	0	1076887552	38	5852
2026-01-10 05:20:49.44	271.10	9.55	-32.5	-33.2	24.6	0.00e+00	0	27	0	1083179008	38	5876
2026-01-10 05:20:50.46	271.27	9.57	-32.4	-33.1	24.6	0.00e+00	0	27	0	1088421888	38	5810
2026-01-10 05:20:51.46	271.44	9.60	-32.4	-33.1	24.7	0.00e+00	0	27	0	1093664768	38	5821
2026-01-10 05:20:52.47	271.61	9.62	-32.6	-33.3	24.5	0.00e+00	0	27	0	1099956224	38	5931
2026-01-10 05:20:53.48	271.79	9.64	-32.7	-33.5	24.5	0.00e+00	0	27	0	1105199104	38	6035
2026-01-10 05:20:54.49	271.96	9.66	-32.7	-33.4	24.5	0.00e+00	0	27	0	1111490560	38	5986
2026-01-10 05:20:55.50	272.13	9.69	-32.7	-33.4	24.5	0.00e+00	0	27	0	1116733440	38	6028
2026-01-10 05:20:56.51	272.31	9.71	-32.8	-33.4	24.4	0.00e+00	0	27	0	1121976320	38	6032
2026-01-10 05:20:57.52	272.48	9.73	-32.7	-33.5	24.5	0.00e+00	0	27	0	1128267776	38	6035
2026-01-10 05:20:58.53	272.65	9.75	-32.7	-33.4	24.5	0.00e+00	0	27	0	1133510656	38	6012
2026-01-10 05:20:59.54	272.83	9.77	-32.6	-33.4	24.5	0.00e+00	0	27	0	1139802112	38	5992
2026-01-10 05:21:00.55	273.00	9.79	-32.6	-33.3	24.6	0.00e+00	0	27	0	1145044992	38	5908
2026-01-10 05:21:01.56	273.18	9.81	-32.5	-33.3	24.6	0.00e+00	0	27	0	1150287872	38	5909
2026-01-10 05:21:02.56	273.35	9.83	-32.7	-33.3	24.5	0.00e+00	0	27	0	1156579328	38	5957
2026-01-10 05:21:03.57	273.53	9.86	-32.4	-33.1	24.7	0.00e+00	0	27	0	1161822208	38	5792
2026-01-10 05:21:04.59	273.70	9.88	-32.4	-33.1	24.8	0.00e+00	0	27	0	1168113664	38	5772
2026-01-10 05:21:05.59	273.88	9.90	-32.4	-33.1	24.7	0.00e+00	0	27	0	1173356544	38	5803
2026-01-10 05:21:06.60	274.05	9.91	-32.4	-33.1	24.8	0.00e+00	0	27	0	1179648000	38	5775
2026-01-10 05:21:07.62	274.23	9.93	-32.3	-33.0	24.8	0.00e+00	0	27	0	1184890880	38	5731
2026-01-10 05:21:08.63	274.41	9.95	-32.2	-32.9	24.9	0.00e+00	0	27	0	1191182336	38	5657
2026-01-10 05:21:09.63	274.58	9.97	-32.3	-32.9	24.9	0.00e+00	0	27	0	1196425216	38	5686
2026-01-10 05:21:10.64	274.76	9.99	-32.1	-32.8	25.0	0.00e+00	0	27	0	1201668096	38	5584
2026-01-10 05:21:11.65	274.94	10.01	-32.2	-32.9	25.0	0.00e+00	0	27	0	1207959552	38	5664
2026-01-10 05:21:12.66	275.11	10.03	-32.1	-32.8	25.0	0.00e+00	0	27	0	1213202432	38	5600
2026-01-10 05:21:13.67	275.29	10.05	-32.2	-32.8	24.9	0.00e+00	0	27	0	1219493888	38	5621
2026-01-10 05:21:14.68	275.47	10.06	-32.1	-32.8	25.0	0.00e+00	0	27	0	1224736768	38	5583
2026-01-10 05:21:15.69	275.65	10.08	-32.1	-32.8	25.0	0.00e+00	0	27	0	1229979648	38	5605
2026-01-10 05:21:16.70	275.83	10.10	-32.2	-32.9	25.0	0.00e+00	0	27	0	1236271104	38	5673
2026-01-10 05:21:17.71	276.00	10.12	-32.2	-32.9	25.0	0.00e+00	0	27	0	1241513984	38	5682
2026-01-10 05:21:18.72	276.18	10.13	-32.1	-32.8	25.0	0.00e+00	0	27	0	1247805440	38	5608
2026-01-10 05:21:19.73	276.36	10.15	-32.0	-32.7	25.2	0.00e+00	0	27	0	1253048320	38	5516
2026-01-10 05:21:20.74	276.54	10.17	-32.1	-32.7	25.1	0.00e+00	0	27	0	1258291200	38	5559
2026-01-10 05:21:21.75	276.72	10.18	-32.0	-32.6	25.2	0.00e+00	0	27	0	1264582656	38	5470
2026-01-10 05:21:22.76	276.90	10.20	-31.9	-32.5	25.2	0.00e+00	0	27	0	1269825536	38	5434
2026-01-10 05:21:23.77	277.08	10.22	-31.8	-32.4	25.3	0.00e+00	0	27	0	1276116992	38	5361
2026-01-10 05:21:24.78	277.26	10.23	-31.9	-32.6	25.2	0.00e+00	0	27	0	1281359872	38	5463
2026-01-10 05:21:25.79	277.44	10.25	-31.8	-32.5	25.3	0.00e+00	0	27	0	1287651328	38	5405
2026-01-10 05:21:26.80	277.62	10.26	-32.0	-32.6	25.1	0.00e+00	0	27	0	1292894208	38	5502
2026-01-10 05:21:27.80	277.80	10.28	-32.1	-32.8	25.0	0.00e+00	0	27	0	1298137088	38	5586
2026-01-10 05:21:28.81	277.98	10.29	-32.2	-32.9	24.9	0.00e+00	0	27	0	1304428544	38	5661
2026-01-10 05:21:29.82	278.16	10.31	-32.3	-33.0	24.8	0.00e+00	0	27	0	1309671424	38	5698
2026-01-10 05:21:30.83	278.34	10.32	-32.2	-33.0	25.0	0.00e+00	0	27	0	1315962880	38	5702
2026-01-10 05:21:31.84	278.52	10.33	-32.2	-33.0	24.9	0.00e+00	0	27	0	1321205760	38	5698
2026-01-10 05:21:32.85	278.70	10.35	-32.2	-32.9	25.0	0.00e+00	0	27	0	1326448640	38	5641
2026-01-10 05:21:33.86	278.88	10.36	-32.1	-32.8	25.1	0.00e+00	0	27	0	1332740096	38	5590
2026-01-10 05:21:34.87	279.06	10.37	-32.1	-32.7	25.1	0.00e+00	0	27	0	1337982976	38	5556
2026-01-10 05:21:35.88	279.25	10.39	-32.0	-32.7	25.1	0.00e+00	0	27	0	1344274432	38	5546
2026-01-10 05:21:36.89	279.43	10.40	-32.1	-32.7	25.0	0.00e+00	0	27	0	1349517312	38	5541
2026-01-10 05:21:37.90	279.61	10.41	-32.0	-32.7	25.1	0.00e+00	0	27	0	1354760192	38	5529
2026-01-10 05:21:38.91	279.79	10.42	-32.1	-32.7	25.1	0.00e+00	0	27	0	1361051648	38	5563
2026-01-10 05:21:39.92	279.97	10.44	-32.1	-32.8	25.1	0.00e+00	0	27	0	1366294528	38	5582
2026-01-10 05:21:40.93	280.16	10.45	-32.1	-32.8	25.1	0.00e+00	0	27	0	1372585984	38	5607
2026-01-10 05:21:41.94	280.34	10.46	-32.1	-32.7	25.0	0.00e+00	0	27	0	1377828864	38	5552
2026-01-10 05:21:42.95	280.52	10.47	-32.2	-32.9	25.0	0.00e+00	0	27	0	1384120320	38	5632
2026-01-10 05:21:43.96	280.70	10.48	-32.3	-33.1	24.9	0.00e+00	0	27	0	1389363200	38	5767
2026-01-10 05:21:44.97	280.89	10.49	-32.2	-32.9	24.9	0.00e+00	0	27	0	1395654656	38	5644
2026-01-10 05:21:45.98	281.07	10.50	-32.3	-33.0	24.9	0.00e+00	0	27	0	1400897536	38	5735
2026-01-10 05:21:46.99	281.25	10.51	-32.3	-33.0	24.8	0.00e+00	0	27	0	1406140416	38	5758
2026-01-10 05:21:47.99	281.43	10.52	-32.4	-33.1	24.8	0.00e+00	0	27	0	1412431872	38	5800
2026-01-10 05:21:49.00	281.62	10.53	-32.3	-33.0	24.9	0.00e+00	0	27	0	1417674752	38	5754
2026-01-10 05:21:50.01	281.80	10.54	-32.4	-33.2	24.7	0.00e+00	0	27	0	1422917632	38	5834
2026-01-10 05:21:51.02	281.98	10.55	-32.3	-33.0	24.8	0.00e+00	0	27	0	1429209088	38	5743
2026-01-10 05:21:52.03	282.17	10.56	-32.4	-33.1	24.8	0.00e+00	0	27	0	1434451968	38	5803
2026-01-10 05:21:53.04	282.35	10.57	-32.3	-33.0	24.9	0.00e+00	0	27	0	1440743424	38	5739
2026-01-10 05:21:54.05	282.53	10.58	-32.3	-33.0	24.9	0.00e+00	0	27	0	1445986304	38	5733
2026-01-10 05:21:55.06	282.72	10.59	-32.3	-33.0	24.8	0.00e+00	0	27	0	1451229184	38	5725
2026-01-10 05:21:56.07	282.90	10.59	-32.6	-33.3	24.7	0.00e+00	0	27	0	1457520640	38	5916
2026-01-10 05:21:57.08	283.09	10.60	-32.4	-33.1	24.9	0.00e+00	0	27	0	1462763520	38	5777
2026-01-10 05:21:58.09	283.27	10.61	-32.3	-33.0	24.9	0.00e+00	0	27	0	1469054976	38	5748
2026-01-10 05:21:59.10	283.46	10.62	-32.3	-33.0	24.8	0.00e+00	0	27	0	1474297856	38	5700
2026-01-10 05:22:00.11	283.64	10.62	-32.4	-33.1	24.8	0.00e+00	0	27	0	1480589312	38	5784
2026-01-10 05:22:01.12	283.82	10.63	-32.1	-32.8	25.1	0.00e+00	0	27	0	1485832192	38	5578
2026-01-10 05:22:02.12	284.01	10.64	-32.0	-32.6	25.1	0.00e+00	0	27	0	1492123648	38	5487
2026-01-10 05:22:03.13	284.19	10.64	-32.0	-32.6	25.2	0.00e+00	0	27	0	1497366528	38	5496
2026-01-10 05:22:04.14	284.38	10.65	-32.0	-32.6	25.2	0.00e+00	0	27	0	1502609408	38	5490
2026-01-10 05:22:05.15	284.56	10.65	-32.0	-32.7	25.1	0.00e+00	0	27	0	1508900864	38	5544
2026-01-10 05:22:06.16	284.75	10.66	-32.0	-32.6	25.2	0.00e+00	0	27	0	1514143744	38	5466
2026-01-10 05:22:07.17	284.93	10.66	-32.0	-32.7	25.1	0.00e+00	0	27	0	1520435200	38	5505
2026-01-10 05:22:08.18	285.12	10.67	-32.1	-32.7	25.1	0.00e+00	0	27	0	1525678080	38	5539
2026-01-10 05:22:09.19	285.30	10.67	-32.3	-33.0	25.0	0.00e+00	0	27	0	1530920960	38	5727
2026-01-10 05:22:10.19	285.48	10.68	-32.1	-32.8	25.1	0.00e+00	0	27	0	1537212416	38	5595
2026-01-10 05:22:11.20	285.67	10.68	-32.2	-32.9	25.0	0.00e+00	0	27	0	1542455296	38	5637
2026-01-10 05:22:12.21	285.85	10.68	-32.4	-33.1	24.9	0.00e+00	0	27	0	1547698176	38	5776
2026-01-10 05:22:13.22	286.04	10.69	-32.4	-33.0	24.8	0.00e+00	0	27	0	1553989632	38	5751
2026-01-10 05:22:14.23	286.22	10.69	-32.3	-32.9	25.0	0.00e+00	0	27	0	1559232512	38	5681
2026-01-10 05:22:15.24	286.41	10.69	-32.3	-32.9	24.9	0.00e+00	0	27	0	1565523968	38	5695
2026-01-10 05:22:16.25	286.60	10.70	-32.1	-32.8	25.0	0.00e+00	0	27	0	1570766848	38	5585
2026-01-10 05:22:17.26	286.78	10.70	-32.2	-32.9	25.0	0.00e+00	0	27	0	1577058304	38	5639
2026-01-10 05:22:18.27	286.97	10.70	-32.1	-32.8	25.1	0.00e+00	0	27	0	1582301184	38	5601
2026-01-10 05:22:19.28	287.15	10.70	-32.1	-32.7	25.1	0.00e+00	0	27	0	1588592640	38	5556
2026-01-10 05:22:20.29	287.34	10.71	-32.0	-32.6	25.2	0.00e+00	0	27	0	1593835520	38	5483
2026-01-10 05:22:21.30	287.52	10.71	-32.1	-32.8	25.1	0.00e+00	0	27	0	1599078400	38	5573
2026-01-10 05:22:22.31	287.71	10.71	-31.9	-32.6	25.2	0.00e+00	0	27	0	1605369856	38	5474
2026-01-10 05:22:23.32	287.89	10.71	-32.0	-32.6	25.2	0.00e+00	0	27	0	1610612736	38	5469
2026-01-10 05:22:24.33	288.08	10.71	-32.0	-32.6	25.1	0.00e+00	0	27	0	1616904192	38	5480
2026-01-10 05:22:25.34	288.26	10.71	-32.0	-32.7	25.1	0.00e+00	0	27	0	1622147072	38	5524
2026-01-10 05:22:26.34	288.45	10.71	-32.0	-32.7	25.2	0.00e+00	0	27	0	1627389952	38	5533
2026-01-10 05:22:27.35	288.63	10.71	-32.0	-32.7	25.1	0.00e+00	0	27	0	1633681408	38	5552
2026-01-10 05:22:28.36	288.82	10.71	-32.1	-32.8	25.1	0.00e+00	0	27	0	1638924288	38	5584
2026-01-10 05:22:29.37	289.00	10.71	-32.1	-32.8	25.1	0.00e+00	0	27	0	1645215744	38	5581
2026-01-10 05:22:30.38	289.19	10.71	-32.0	-32.7	25.1	0.00e+00	0	27	0	1650458624	38	5555
2026-01-10 05:22:31.39	289.37	10.71	-32.0	-32.7	25.1	0.00e+00	0	27	0	1655701504	38	5541
2026-01-10 05:22:32.40	289.56	10.70	-32.1	-32.8	25.0	0.00e+00	0	27	0	1661992960	38	5592
2026-01-10 05:22:33.41	289.74	10.70	-32.1	-32.8	25.0	0.00e+00	0	27	0	1667235840	38	5596
2026-01-10 05:22:34.42	289.93	10.70	-32.2	-32.8	24.9	0.00e+00	0	27	0	1673527296	38	5616
2026-01-10 05:22:35.43	290.12	10.70	-32.2	-32.9	25.0	0.00e+00	0	27	0	1678770176	38	5646
2026-01-10 05:22:36.44	290.30	10.70	-32.2	-32.8	25.0	0.00e+00	0	27	0	1685061632	38	5607
2026-01-10 05:22:37.45	290.49	10.69	-32.2	-32.9	25.0	0.00e+00	0	27	0	1690304512	38	5666
2026-01-10 05:22:38.46	290.67	10.69	-32.4	-33.1	24.8	0.00e+00	0	27	0	1695547392	38	5787
2026-01-10 05:22:39.47	290.86	10.69	-32.3	-33.0	24.8	0.00e+00	0	27	0	1701838848	38	5735
2026-01-10 05:22:40.48	291.04	10.68	-32.4	-33.1	24.7	0.00e+00	0	27	0	1707081728	38	5817
2026-01-10 05:22:41.49	291.23	10.68	-32.3	-33.0	24.8	0.00e+00	0	27	0	1713373184	38	5718
2026-01-10 05:22:42.49	291.41	10.67	-32.2	-32.9	24.9	0.00e+00	0	27	0	1718616064	38	5677
2026-01-10 05:22:43.51	291.60	10.67	-32.3	-33.0	24.8	0.00e+00	0	27	0	1723858944	38	5708
2026-01-10 05:22:44.52	291.78	10.67	-32.3	-33.0	24.9	0.00e+00	0	27	0	1730150400	38	5705
2026-01-10 05:22:45.52	291.96	10.66	-32.2	-32.8	25.0	0.00e+00	0	27	0	1735393280	38	5604
2026-01-10 05:22:46.53	292.15	10.65	-32.1	-32.7	25.1	0.00e+00	0	27	0	1741684736	38	5556
2026-01-10 05:22:47.54	292.33	10.65	-32.0	-32.7	25.1	0.00e+00	0	27	0	1746927616	38	5525
2026-01-10 05:22:48.55	292.52	10.64	-32.1	-32.7	25.1	0.00e+00	0	27	0	1752170496	38	5541
2026-01-10 05:22:49.56	292.70	10.64	-32.1	-32.8	25.1	0.00e+00	0	27	0	1758461952	38	5588
2026-01-10 05:22:50.57	292.89	10.63	-32.2	-32.8	25.0	0.00e+00	0	27	0	1763704832	38	5616
2026-01-10 05:22:51.58	293.07	10.62	-32.2	-32.8	24.9	0.00e+00	0	27	0	1769996288	38	5620
2026-01-10 05:22:52.59	293.25	10.62	-32.3	-33.0	24.9	0.00e+00	0	27	0	1775239168	38	5747
2026-01-10 05:22:53.60	293.44	10.61	-32.4	-33.1	24.8	0.00e+00	0	27	0	1781530624	38	5773
2026-01-10 05:22:54.61	293.62	10.60	-32.1	-32.8	25.0	0.00e+00	0	27	0	1786773504	38	5592
2026-01-10 05:22:55.62	293.81	10.60	-32.3	-33.0	24.8	0.00e+00	0	27	0	1793064960	38	5734
2026-01-10 05:22:56.63	293.99	10.59	-32.2	-32.8	25.0	0.00e+00	0	27	0	1798307840	38	5630
2026-01-10 05:22:57.64	294.17	10.58	-32.2	-32.9	25.0	0.00e+00	0	27	0	1803550720	38	5689
2026-01-10 05:22:58.65	294.36	10.57	-32.3	-33.0	24.9	0.00e+00	0	27	0	1809842176	38	5699
2026-01-10 05:22:59.66	294.54	10.56	-32.5	-33.1	24.7	0.00e+00	0	27	0	1815085056	38	5828
2026-01-10 05:23:00.67	294.73	10.55	-32.5	-33.2	24.7	0.00e+00	0	27	0	1821376512	38	5832
2026-01-10 05:23:01.67	294.91	10.55	-32.6	-33.3	24.6	0.00e+00	0	27	0	1826619392	38	5903
2026-01-10 05:23:02.69	295.09	10.54	-32.5	-33.2	24.6	0.00e+00	0	27	0	1831862272	38	5884
2026-01-10 05:23:03.69	295.27	10.53	-32.5	-33.2	24.7	0.00e+00	0	27	0	1838153728	38	5888
2026-01-10 05:23:04.70	295.46	10.52	-32.6	-33.3	24.6	0.00e+00	0	27	0	1843396608	38	5902
2026-01-10 05:23:05.71	295.64	10.51	-32.6	-33.3	24.6	0.00e+00	0	27	0	1849688064	38	5937
2026-01-10 05:23:06.72	295.82	10.50	-32.5	-33.2	24.7	0.00e+00	0	27	0	1854930944	38	5890
2026-01-10 05:23:07.73	296.00	10.49	-32.5	-33.2	24.8	0.00e+00	0	27	0	1860173824	38	5888
2026-01-10 05:23:08.74	296.19	10.47	-32.5	-33.1	24.7	0.00e+00	0	27	0	1866465280	38	5810
2026-01-10 05:23:09.75	296.37	10.46	-32.4	-33.1	24.8	0.00e+00	0	27	0	1871708160	38	5780
2026-01-10 05:23:10.76	296.55	10.45	-32.4	-33.1	24.8	0.00e+00	0	27	0	1877999616	38	5804
2026-01-10 05:23:11.77	296.73	10.44	-32.4	-33.0	24.8	0.00e+00	0	27	0	1883242496	38	5755
2026-01-10 05:23:12.78	296.92	10.43	-32.3	-33.0	24.9	0.00e+00	0	27	0	1889533952	38	5726
2026-01-10 05:23:13.79	297.10	10.42	-32.4	-33.1	24.9	0.00e+00	0	27	0	1894776832	38	5775
2026-01-10 05:23:14.80	297.28	10.40	-32.3	-33.1	24.9	0.00e+00	0	27	0	1900019712	38	5765
2026-01-10 05:23:15.81	297.46	10.39	-32.2	-32.9	25.0	0.00e+00	0	27	0	1906311168	38	5668
2026-01-10 05:23:16.82	297.64	10.38	-32.2	-32.9	24.9	0.00e+00	0	27	0	1911554048	38	5685
2026-01-10 05:23:17.83	297.82	10.37	-32.3	-33.0	24.8	0.00e+00	0	27	0	1917845504	38	5726
2026-01-10 05:23:18.84	298.00	10.35	-32.1	-32.8	25.0	0.00e+00	0	27	0	1923088384	38	5612
2026-01-10 05:23:19.85	298.19	10.34	-32.2	-32.8	25.0	0.00e+00	0	27	0	1928331264	38	5614
2026-01-10 05:23:20.86	298.37	10.33	-32.1	-32.7	25.0	0.00e+00	0	27	0	1934622720	38	5544
2026-01-10 05:23:21.87	298.55	10.31	-32.1	-32.8	25.0	0.00e+00	0	27	0	1939865600	38	5591
2026-01-10 05:23:22.88	298.73	10.30	-32.2	-32.9	25.0	0.00e+00	0	27	0	1946157056	38	5686
2026-01-10 05:23:23.89	298.91	10.28	-32.4	-33.1	24.8	0.00e+00	0	27	0	1951399936	38	5776
2026-01-10 05:23:24.90	299.09	10.27	-32.4	-33.1	24.8	0.00e+00	0	27	0	1956642816	38	5772
2026-01-10 05:23:25.91	299.27	10.25	-32.4	-33.1	24.7	0.00e+00	0	27	0	1962934272	38	5823
2026-01-10 05:23:26.92	299.45	10.24	-32.5	-33.2	24.7	0.00e+00	0	27	0	1968177152	38	5837
2026-01-10 05:23:27.92	299.62	10.22	-32.4	-33.1	24.8	0.00e+00	0	27	0	1974468608	38	5827
2026-01-10 05:23:28.93	299.80	10.21	-32.4	-33.1	24.8	0.00e+00	0	27	0	1979711488	38	5798
2026-01-10 05:23:29.94	299.98	10.19	-32.3	-32.9	24.9	0.00e+00	0	27	0	1986002944	38	5687
2026-01-10 05:23:30.95	300.16	10.17	-32.2	-32.8	25.0	0.00e+00	0	27	0	1991245824	38	5605
2026-01-10 05:23:31.96	300.34	10.16	-32.3	-32.9	25.0	0.00e+00	0	27	0	1996488704	38	5652
2026-01-10 05:23:32.97	300.52	10.14	-32.2	-32.9	25.0	0.00e+00	0	27	0	2002780160	38	5683
2026-01-10 05:23:33.98	300.70	10.12	-32.3	-33.0	24.9	0.00e+00	0	27	0	2008023040	38	5711
2026-01-10 05:23:34.99	300.87	10.11	-32.3	-33.0	24.9	0.00e+00	0	27	0	2014314496	38	5739
2026-01-10 05:23:36.00	301.05	10.09	-32.3	-32.9	24.8	0.00e+00	0	27	0	2019557376	38	5683
2026-01-10 05:23:37.01	301.23	10.07	-32.3	-33.0	24.9	0.00e+00	0	27	0	2024800256	38	5757
2026-01-10 05:23:38.02	301.41	10.05	-32.3	-33.0	24.9	0.00e+00	0	27	0	2031091712	38	5749
2026-01-10 05:23:39.03	301.58	10.04	-32.3	-33.1	24.8	0.00e+00	0	27	0	2036334592	38	5763
2026-01-10 05:23:40.04	301.76	10.02	-32.4	-33.1	24.8	0.00e+00	0	27	0	2042626048	38	5825
2026-01-10 05:23:41.05	301.94	10.00	-32.5	-33.2	24.7	0.00e+00	0	27	0	2047868928	38	5872
2026-01-10 05:23:42.06	302.11	9.98	-32.6	-33.4	24.7	0.00e+00	0	27	0	2053111808	38	5978
2026-01-10 05:23:43.07	302.29	9.96	-32.7	-33.4	24.5	0.00e+00	0	27	0	2059403264	38	5997
2026-01-10 05:23:44.08	302.47	9.94	-32.6	-33.2	24.6	0.00e+00	0	27	0	2064646144	38	5868
2026-01-10 05:23:45.09	302.64	9.92	-32.7	-33.4	24.5	0.00e+00	0	27	0	2070937600	38	5965
2026-01-10 05:23:46.10	302.82	9.90	-32.7	-33.4	24.5	0.00e+00	0	27	0	2076180480	38	6014
2026-01-10 05:23:47.10	302.99	9.88	-32.7	-33.4	24.5	0.00e+00	0	27	0	2082471936	38	6022
2026-01-10 05:23:48.11	303.17	9.86	-32.7	-33.4	24.6	0.00e+00	0	27	0	2087714816	38	6000
2026-01-10 05:23:49.12	303.34	9.84	-32.8	-33.4	24.5	0.00e+00	0	27	0	2094006272	38	6015
2026-01-10 05:23:50.13	303.52	9.82	-32.9	-33.6	24.4	0.00e+00	0	27	0	2099249152	38	6153
2026-01-10 05:23:51.14	303.69	9.80	-33.0	-33.8	24.3	0.00e+00	0	27	0	2104492032	38	6269
2026-01-10 05:23:52.15	303.87	9.78	-32.8	-33.5	24.5	0.00e+00	0	27	0	2110783488	38	6095
2026-01-10 05:23:53.16	304.04	9.76	-32.9	-33.6	24.4	0.00e+00	0	27	0	2116026368	38	6115
2026-01-10 05:23:54.17	304.21	9.74	-32.8	-33.5	24.5	0.00e+00	0	27	0	2122317824	38	6060
2026-01-10 05:23:55.18	304.39	9.72	-32.9	-33.5	24.4	0.00e+00	0	27	0	2127560704	38	6076
2026-01-10 05:23:56.19	304.56	9.70	-32.8	-33.4	24.5	0.00e+00	0	27	0	2132803584	38	6001
2026-01-10 05:23:57.20	304.73	9.67	-32.8	-33.6	24.5	0.00e+00	0	27	0	2139095040	38	6111
2026-01-10 05:23:58.21	304.91	9.65	-32.6	-33.4	24.6	0.00e+00	0	27	0	2144337920	38	5979
2026-01-10 05:23:59.22	305.08	9.63	-32.8	-33.5	24.5	0.00e+00	0	27	0	2150629376	38	6096
2026-01-10 05:24:00.23	305.25	9.61	-32.8	-33.5	24.5	0.00e+00	0	27	0	2155872256	38	6096
2026-01-10 05:24:01.24	305.42	9.58	-32.6	-33.3	24.6	0.00e+00	0	27	0	2161115136	38	5908
2026-01-10 05:24:02.25	305.59	9.56	-32.7	-33.3	24.6	0.00e+00	0	27	0	2167406592	38	5922
2026-01-10 05:24:03.26	305.77	9.54	-32.5	-33.1	24.7	0.00e+00	0	27	0	2172649472	38	5821
2026-01-10 05:24:04.27	305.94	9.52	-32.5	-33.2	24.7	0.00e+00	0	27	0	2178940928	38	5833
2026-01-10 05:24:05.28	306.11	9.49	-32.7	-33.4	24.6	0.00e+00	0	27	0	2184183808	38	5999
2026-01-10 05:24:06.29	306.28	9.47	-32.6	-33.2	24.7	0.00e+00	0	27	0	2190475264	38	5881
2026-01-10 05:24:07.30	306.45	9.44	-32.7	-33.4	24.6	0.00e+00	0	27	0	2195718144	38	6004
2026-01-10 05:24:08.30	306.62	9.42	-32.7	-33.4	24.6	0.00e+00	0	27	0	2200961024	38	5973
2026-01-10 05:24:09.32	306.79	9.40	-32.7	-33.5	24.5	0.00e+00	0	27	0	2207252480	38	6068
2026-01-10 05:24:10.33	306.96	9.37	-32.8	-33.5	24.5	0.00e+00	0	27	0	2212495360	38	6082
2026-01-10 05:24:11.34	307.13	9.35	-32.8	-33.5	24.4	0.00e+00	0	27	0	2218786816	38	6057
2026-01-10 05:24:12.34	307.30	9.32	-33.0	-33.7	24.3	0.00e+00	0	27	0	2224029696	38	6224
2026-01-10 05:24:13.35	307.46	9.30	-33.0	-33.8	24.2	0.00e+00	0	27	0	2229272576	38	6250
2026-01-10 05:24:14.36	307.63	9.27	-32.8	-33.5	24.4	0.00e+00	0	27	0	2235564032	38	6086
2026-01-10 05:24:15.37	307.80	9.25	-32.9	-33.7	24.4	0.00e+00	0	27	0	2240806912	38	6177
2026-01-10 05:24:16.38	307.97	9.22	-32.8	-33.6	24.4	0.00e+00	0	27	0	2247098368	38	6105
2026-01-10 05:24:17.39	308.14	9.19	-32.9	-33.6	24.4	0.00e+00	0	27	0	2252341248	38	6157
2026-01-10 05:24:18.40	308.30	9.17	-32.9	-33.7	24.3	0.00e+00	0	27	0	2257584128	38	6207
2026-01-10 05:24:19.41	308.47	9.14	-33.0	-33.7	24.3	0.00e+00	0	27	0	2263875584	38	6192
2026-01-10 05:24:20.42	308.64	9.12	-33.0	-33.7	24.3	0.00e+00	0	27	0	2269118464	38	6237
2026-01-10 05:24:21.43	308.80	9.09	-33.0	-33.7	24.3	0.00e+00	0	27	0	2275409920	38	6236
2026-01-10 05:24:22.44	308.97	9.06	-33.0	-33.8	24.3	0.00e+00	0	27	0	2280652800	38	6265
2026-01-10 05:24:23.45	309.14	9.04	-33.0	-33.7	24.3	0.00e+00	0	27	0	2286944256	38	6194
2026-01-10 05:24:24.46	309.30	9.01	-33.0	-33.7	24.3	0.00e+00	0	27	0	2292187136	38	6187
2026-01-10 05:24:25.47	309.47	8.98	-33.1	-33.9	24.2	0.00e+00	0	27	0	2298478592	38	6324
2026-01-10 05:24:26.48	309.63	8.95	-33.1	-33.8	24.2	0.00e+00	0	27	0	2303721472	38	6254
2026-01-10 05:24:27.49	309.80	8.93	-33.2	-33.8	24.1	0.00e+00	0	27	0	2308964352	38	6314
2026-01-10 05:24:28.50	309.96	8.90	-33.0	-33.7	24.3	0.00e+00	0	27	0	2315255808	38	6190
2026-01-10 05:24:29.51	310.12	8.87	-32.9	-33.7	24.3	0.00e+00	0	27	0	2320498688	38	6205
2026-01-10 05:24:30.51	310.29	8.84	-33.0	-33.6	24.2	0.00e+00	0	27	0	2325741568	38	6172
2026-01-10 05:24:31.52	310.45	8.81	-32.9	-33.6	24.4	0.00e+00	0	27	0	2332033024	38	6151
2026-01-10 05:24:32.53	310.61	8.79	-32.9	-33.6	24.3	0.00e+00	0	27	0	2337275904	38	6156
2026-01-10 05:24:33.54	310.77	8.76	-32.9	-33.6	24.3	0.00e+00	0	27	0	2343567360	38	6143
2026-01-10 05:24:34.55	310.94	8.73	-33.0	-33.7	24.4	0.00e+00	0	27	0	2348810240	38	6199
2026-01-10 05:24:35.56	311.10	8.70	-32.9	-33.6	24.2	0.00e+00	0	27	0	2354053120	38	6137
2026-01-10 05:24:36.56	311.26	8.67	-33.0	-33.7	24.2	0.00e+00	0	27	0	2360344576	38	6192
2026-01-10 05:24:37.57	311.42	8.64	-33.2	-33.9	24.1	0.00e+00	0	27	0	2365587456	38	6375
2026-01-10 05:24:38.58	311.58	8.61	-33.2	-33.9	24.1	0.00e+00	0	27	0	2371878912	38	6332
2026-01-10 05:24:39.59	311.74	8.58	-33.1	-33.8	24.1	0.00e+00	0	27	0	2377121792	38	6262
2026-01-10 05:24:40.60	311.90	8.55	-33.4	-34.1	23.9	0.00e+00	0	27	0	2383413248	38	6507
2026-01-10 05:24:41.61	312.06	8.52	-33.3	-33.9	24.0	0.00e+00	0	27	0	2388656128	38	6365
2026-01-10 05:24:42.62	312.22	8.49	-33.4	-34.2	24.0	0.00e+00	0	27	0	2394947584	38	6544
2026-01-10 05:24:43.63	312.38	8.46	-33.2	-33.9	24.0	0.00e+00	0	27	0	2400190464	38	6387
2026-01-10 05:24:44.64	312.54	8.43	-33.5	-34.3	23.9	0.00e+00	0	27	0	2405433344	38	6643
2026-01-10 05:24:45.65	312.70	8.40	-33.4	-34.1	23.8	0.00e+00	0	27	0	2411724800	38	6465
2026-01-10 05:24:46.66	312.86	8.37	-33.1	-33.7	24.1	0.00e+00	0	27	0	2416967680	38	6245
2026-01-10 05:24:47.67	313.02	8.34	-33.1	-33.8	24.2	0.00e+00	0	27	0	2423259136	38	6278
2026-01-10 05:24:48.68	313.18	8.31	-33.2	-33.9	24.0	0.00e+00	0	27	0	2428502016	38	6345
2026-01-10 05:24:49.69	313.33	8.28	-33.3	-34.0	24.0	0.00e+00	0	27	0	2433744896	38	6433
2026-01-10 05:24:50.70	313.49	8.25	-33.2	-33.9	24.0	0.00e+00	0	27	0	2440036352	38	6387
2026-01-10 05:24:51.71	313.65	8.22	-33.2	-33.9	24.0	0.00e+00	0	27	0	2445279232	38	6323
2026-01-10 05:24:52.72	313.81	8.18	-33.3	-34.0	23.9	0.00e+00	0	27	0	2451570688	38	6402
2026-01-10 05:24:53.73	313.96	8.15	-33.3	-34.0	23.8	0.00e+00	0	27	0	2456813568	38	6453
2026-01-10 05:24:54.74	314.12	8.12	-33.3	-34.1	23.9	0.00e+00	0	27	0	2462056448	38	6466
2026-01-10 05:24:55.75	314.27	8.09	-33.4	-34.1	23.8	0.00e+00	0	27	0	2468347904	38	6488
2026-01-10 05:24:56.76	314.43	8.06	-33.3	-34.1	23.9	0.00e+00	0	27	0	2473590784	38	6512
2026-01-10 05:24:57.77	314.58	8.02	-33.3	-34.0	23.9	0.00e+00	0	27	0	2479882240	38	6450
2026-01-10 05:24:58.78	314.74	7.99	-33.1	-33.9	24.0	0.00e+00	0	27	0	2485125120	38	6340
2026-01-10 05:24:59.79	314.89	7.96	-33.2	-33.8	24.0	0.00e+00	0	27	0	2491416576	38	6299
2026-01-10 05:25:00.80	315.05	7.93	-33.1	-33.8	24.1	0.00e+00	0	27	0	2496659456	38	6312
2026-01-10 05:25:01.81	315.20	7.89	-33.1	-33.7	24.1	0.00e+00	0	27	0	2501902336	38	6238
2026-01-10 05:25:02.82	315.35	7.86	-33.0	-33.8	24.1	0.00e+00	0	27	0	2508193792	38	6246
2026-01-10 05:25:03.83	315.51	7.83	-33.2	-33.9	24.0	0.00e+00	0	27	0	2513436672	38	6352
2026-01-10 05:25:04.84	315.66	7.79	-33.3	-34.0	23.9	0.00e+00	0	27	0	2519728128	38	6419
2026-01-10 05:25:05.85	315.81	7.76	-33.2	-33.9	23.9	0.00e+00	0	27	0	2524971008	38	6357
2026-01-10 05:25:06.86	315.96	7.73	-33.3	-34.1	23.8	0.00e+00	0	27	0	2530213888	38	6495
2026-01-10 05:25:07.87	316.11	7.69	-33.4	-34.1	23.7	0.00e+00	0	27	0	2536505344	38	6505
2026-01-10 05:25:08.88	316.27	7.66	-33.6	-34.3	23.7	0.00e+00	0	27	0	2541748224	38	6619
2026-01-10 05:25:09.89	316.42	7.63	-33.5	-34.3	23.6	0.00e+00	0	27	0	2548039680	38	6643
2026-01-10 05:25:10.90	316.57	7.59	-33.6	-34.3	23.6	0.00e+00	0	27	0	2553282560	38	6618
2026-01-10 05:25:11.91	316.72	7.56	-33.6	-34.4	23.6	0.00e+00	0	27	0	2558525440	38	6703
2026-01-10 05:25:12.92	316.87	7.52	-33.6	-34.3	23.6	0.00e+00	0	27	0	2564816896	38	6637
2026-01-10 05:25:13.94	317.02	7.49	-33.5	-34.3	23.6	0.00e+00	0	27	0	2570059776	38	6643
2026-01-10 05:25:14.95	317.17	7.46	-33.6	-34.3	23.6	0.00e+00	0	27	0	2576351232	38	6651
2026-01-10 05:25:15.96	317.32	7.42	-33.7	-34.4	23.5	0.00e+00	0	27	0	2581594112	38	6733
2026-01-10 05:25:16.97	317.47	7.39	-33.5	-34.2	23.7	0.00e+00	0	27	0	2587885568	38	6554
2026-01-10 05:25:17.98	317.61	7.35	-33.6	-34.2	23.6	0.00e+00	0	27	0	2593128448	38	6601
2026-01-10 05:25:18.99	317.76	7.32	-33.4	-34.1	23.8	0.00e+00	0	27	0	2599419904	38	6489
2026-01-10 05:25:20.00	317.91	7.28	-33.5	-34.2	23.7	0.00e+00	0	27	0	2604662784	38	6613
2026-01-10 05:25:21.01	318.06	7.25	-33.5	-34.1	23.7	0.00e+00	0	27	0	2609905664	38	6527
2026-01-10 05:25:22.01	318.20	7.21	-33.5	-34.2	23.7	0.00e+00	0	27	0	2616197120	38	6541
2026-01-10 05:25:23.02	318.35	7.18	-33.5	-34.3	23.6	0.00e+00	0	27	0	2621440000	40	5926
2026-01-10 05:25:24.03	318.49	7.14	-33.3	-34.0	23.8	0.00e+00	0	27	0	2627731456	40	5733
2026-01-10 05:25:25.04	318.64	7.11	-33.4	-34.1	23.7	0.00e+00	0	27	0	2632974336	40	5827
2026-01-10 05:25:26.05	318.79	7.07	-33.4	-34.1	23.7	0.00e+00	0	27	0	2638217216	40	5796
2026-01-10 05:25:27.06	318.93	7.03	-33.5	-34.2	23.5	0.00e+00	0	27	0	2644508672	40	5878
2026-01-10 05:25:28.07	319.08	7.00	-33.5	-34.2	23.6	0.00e+00	0	27	0	2649751552	40	5896
2026-01-10 05:25:29.07	319.22	6.96	-33.5	-34.2	23.6	0.00e+00	0	27	0	2656043008	40	5877
2026-01-10 05:25:30.08	319.36	6.93	-33.6	-34.3	23.5	0.00e+00	0	27	0	2661285888	40	5931
2026-01-10 05:25:31.10	319.51	6.89	-33.6	-34.2	23.6	0.00e+00	0	27	0	2666528768	40	5877
2026-01-10 05:25:32.11	319.65	6.85	-33.6	-34.4	23.4	0.00e+00	0	27	0	2672820224	40	5996
2026-01-10 05:25:33.12	319.80	6.82	-33.4	-34.1	23.7	0.00e+00	0	27	0	2678063104	40	5780
2026-01-10 05:25:34.13	319.94	6.78	-33.4	-34.2	23.7	0.00e+00	0	27	0	2684354560	40	5843
2026-01-10 05:25:35.14	320.08	6.75	-33.3	-34.0	23.7	0.00e+00	0	27	0	2689597440	40	5706
2026-01-10 05:25:36.15	320.22	6.71	-33.5	-34.2	23.6	0.00e+00	0	27	0	2695888896	40	5853
2026-01-10 05:25:37.16	320.36	6.67	-33.5	-34.2	23.5	0.00e+00	0	27	0	2701131776	40	5868
2026-01-10 05:25:38.17	320.51	6.64	-33.6	-34.3	23.4	0.00e+00	0	27	0	2707423232	40	5953
2026-01-10 05:25:39.18	320.65	6.60	-33.6	-34.4	23.4	0.00e+00	0	27	0	2712666112	40	5985
2026-01-10 05:25:40.19	320.79	6.56	-33.7	-34.5	23.3	0.00e+00	0	27	0	2717908992	40	6062
2026-01-10 05:25:41.19	320.93	6.53	-33.8	-34.5	23.3	0.00e+00	0	27	0	2724200448	40	6056
2026-01-10 05:25:42.20	321.07	6.49	-33.9	-34.6	23.1	0.00e+00	0	27	0	2729443328	40	6152
2026-01-10 05:25:43.21	321.21	6.45	-33.9	-34.6	23.1	0.00e+00	0	27	0	2734686208	40	6166
2026-01-10 05:25:44.22	321.34	6.41	-33.9	-34.6	23.1	0.00e+00	0	27	0	2740977664	40	6166
2026-01-10 05:25:45.23	321.48	6.38	-34.0	-34.8	23.0	0.00e+00	0	27	0	2746220544	40	6298
2026-01-10 05:25:46.24	321.62	6.34	-33.9	-34.7	23.1	0.00e+00	0	27	0	2752512000	40	6182
2026-01-10 05:25:47.25	321.76	6.30	-34.1	-34.9	22.9	0.00e+00	0	27	0	2757754880	40	6329
2026-01-10 05:25:48.26	321.90	6.26	-33.9	-34.7	23.1	0.00e+00	0	27	0	2762997760	40	6185
2026-01-10 05:25:49.27	322.04	6.23	-34.0	-34.8	23.1	0.00e+00	0	27	0	2769289216	40	6272
2026-01-10 05:25:50.28	322.17	6.19	-33.9	-34.6	23.1	0.00e+00	0	27	0	2774532096	40	6162
2026-01-10 05:25:51.29	322.31	6.15	-33.9	-34.7	23.1	0.00e+00	0	27	0	2780823552	40	6203
2026-01-10 05:25:52.30	322.45	6.11	-33.9	-34.7	23.2	0.00e+00	0	27	0	2786066432	40	6176
2026-01-10 05:25:53.30	322.58	6.07	-33.8	-34.5	23.2	0.00e+00	0	27	0	2792357888	40	6090
2026-01-10 05:25:54.31	322.72	6.04	-33.9	-34.5	23.1	0.00e+00	0	27	0	2797600768	40	6103
2026-01-10 05:25:55.32	322.85	6.00	-33.9	-34.7	23.1	0.00e+00	0	27	0	2803892224	40	6182
2026-01-10 05:25:56.33	322.99	5.96	-33.9	-34.6	23.1	0.00e+00	0	27	0	2809135104	40	6138
2026-01-10 05:25:57.34	323.12	5.92	-34.0	-34.6	23.0	0.00e+00	0	27	0	2814377984	40	6159
2026-01-10 05:25:58.35	323.26	5.88	-34.1	-34.8	23.0	0.00e+00	0	27	0	2820669440	40	6253
2026-01-10 05:25:59.36	323.39	5.84	-34.0	-34.8	23.0	0.00e+00	0	27	0	2825912320	40	6282
2026-01-10 05:26:00.37	323.53	5.81	-34.1	-34.9	22.9	0.00e+00	0	27	0	2832203776	40	6355
2026-01-10 05:26:01.38	323.66	5.77	-34.0	-34.7	22.9	0.00e+00	0	27	0	2837446656	40	6242
2026-01-10 05:26:02.39	323.79	5.73	-34.1	-34.8	22.9	0.00e+00	0	27	0	2842689536	40	6292
2026-01-10 05:26:03.40	323.92	5.69	-34.2	-34.9	22.8	0.00e+00	0	27	0	2848980992	40	6347
2026-01-10 05:26:04.41	324.06	5.65	-34.1	-34.8	22.8	0.00e+00	0	27	0	2854223872	40	6284
2026-01-10 05:26:05.42	324.19	5.61	-34.0	-34.8	22.9	0.00e+00	0	27	0	2860515328	40	6271
2026-01-10 05:26:06.43	324.32	5.57	-34.1	-34.8	22.9	0.00e+00	0	27	0	2865758208	40	6294
2026-01-10 05:26:07.44	324.45	5.53	-34.0	-34.9	22.9	0.00e+00	0	27	0	2871001088	40	6324
2026-01-10 05:26:08.45	324.58	5.49	-34.1	-34.9	22.9	0.00e+00	0	27	0	2877292544	40	6352
2026-01-10 05:26:09.46	324.71	5.46	-34.1	-34.9	22.9	0.00e+00	0	27	0	2882535424	40	6354
2026-01-10 05:26:10.47	324.85	5.42	-34.2	-34.9	22.8	0.00e+00	0	27	0	2888826880	40	6388
2026-01-10 05:26:11.47	324.97	5.38	-34.0	-34.7	22.9	0.00e+00	0	27	0	2894069760	40	6187
2026-01-10 05:26:12.48	325.10	5.34	-33.9	-34.7	22.9	0.00e+00	0	27	0	2900361216	40	6201
2026-01-10 05:26:13.49	325.23	5.30	-33.8	-34.6	23.0	0.00e+00	0	27	0	2905604096	40	6143
2026-01-10 05:26:14.50	325.36	5.26	-33.8	-34.5	23.0	0.00e+00	0	27	0	2910846976	40	6076
2026-01-10 05:26:15.51	325.49	5.22	-34.0	-34.8	22.8	0.00e+00	0	27	0	2917138432	40	6283
2026-01-10 05:26:16.52	325.62	5.18	-34.0	-34.8	22.8	0.00e+00	0	27	0	2922381312	40	6254
2026-01-10 05:26:17.53	325.75	5.14	-33.9	-34.6	22.8	0.00e+00	0	27	0	2928672768	40	6145
2026-01-10 05:26:18.54	325.88	5.10	-34.1	-34.9	22.7	0.00e+00	0	27	0	2933915648	40	6328
2026-01-10 05:26:19.54	326.00	5.06	-34.0	-34.8	22.7	0.00e+00	0	27	0	2939158528	40	6280
2026-01-10 05:26:20.55	326.13	5.02	-34.3	-35.1	22.6	0.00e+00	0	27	0	2945449984	40	6469
2026-01-10 05:26:21.56	326.26	4.98	-34.2	-35.1	22.5	0.00e+00	0	27	0	2950692864	40	6475
2026-01-10 05:26:22.57	326.38	4.94	-34.2	-35.1	22.4	0.00e+00	0	27	0	2956984320	40	6494
2026-01-10 05:26:23.58	326.51	4.90	-34.5	-35.4	22.2	0.00e+00	0	27	0	2962227200	40	6718
2026-01-10 05:26:24.59	326.63	4.86	-34.5	-35.3	22.2	0.00e+00	0	27	0	2967470080	40	6688
2026-01-10 05:26:25.60	326.76	4.82	-34.7	-35.5	22.0	0.00e+00	0	27	0	2973761536	40	6817
2026-01-10 05:26:26.61	326.88	4.78	-34.7	-35.4	22.1	0.00e+00	0	27	0	2979004416	42	6023
2026-01-10 05:26:27.62	327.01	4.74	-34.6	-35.4	22.1	0.00e+00	0	27	0	2985295872	42	6021
2026-01-10 05:26:28.63	327.13	4.70	-34.6	-35.5	22.2	0.00e+00	0	27	0	2990538752	42	6036
2026-01-10 05:26:29.64	327.26	4.66	-34.5	-35.4	22.2	0.00e+00	0	27	0	2996830208	42	5980
2026-01-10 05:26:30.65	327.38	4.62	-34.5	-35.2	22.1	0.00e+00	0	27	0	3002073088	42	5879
2026-01-10 05:26:31.65	327.50	4.58	-34.4	-35.1	22.3	0.00e+00	0	27	0	3007315968	42	5810
2026-01-10 05:26:32.66	327.63	4.54	-34.3	-35.1	22.3	0.00e+00	0	27	0	3013607424	42	5772
2026-01-10 05:26:33.67	327.75	4.50	-34.4	-35.2	22.3	0.00e+00	0	27	0	3018850304	42	5841
2026-01-10 05:26:34.68	327.87	4.46	-34.4	-35.1	22.3	0.00e+00	0	27	0	3025141760	42	5826
2026-01-10 05:26:35.69	327.99	4.42	-34.6	-35.4	22.2	0.00e+00	0	27	0	3030384640	42	5995
2026-01-10 05:26:36.70	328.12	4.38	-34.4	-35.1	22.2	0.00e+00	0	27	0	3035627520	42	5824
2026-01-10 05:26:37.71	328.24	4.34	-34.6	-35.4	22.0	0.00e+00	0	27	0	3041918976	42	5991
2026-01-10 05:26:38.72	328.36	4.30	-34.9	-35.7	21.8	0.00e+00	0	27	0	3047161856	42	6225
2026-01-10 05:26:39.73	328.48	4.26	-34.9	-35.7	21.8	0.00e+00	0	27	0	3053453312	42	6176
2026-01-10 05:26:40.74	328.60	4.22	-35.3	-36.2	21.4	0.00e+00	0	27	0	3058696192	42	6540
2026-01-10 05:26:41.75	328.72	4.18	-34.9	-35.8	21.7	0.00e+00	0	27	0	3063939072	42	6297
2026-01-10 05:26:42.76	328.84	4.13	-35.1	-35.9	21.5	0.00e+00	0	27	0	3070230528	42	6359
2026-01-10 05:26:43.77	328.96	4.09	-35.2	-36.0	21.4	0.00e+00	0	27	0	3075473408	42	6439
2026-01-10 05:26:44.78	329.08	4.05	-35.1	-35.9	21.5	0.00e+00	0	27	0	3081764864	42	6364
2026-01-10 05:26:45.79	329.20	4.01	-35.0	-35.9	21.5	0.00e+00	0	27	0	3087007744	42	6337
2026-01-10 05:26:46.80	329.32	3.97	-35.3	-36.2	21.3	0.00e+00	0	27	0	3093299200	42	6551
2026-01-10 05:26:47.81	329.43	3.93	-34.8	-35.6	21.7	0.00e+00	0	27	0	3098542080	42	6129
2026-01-10 05:26:48.82	329.55	3.89	-35.0	-35.8	21.5	0.00e+00	0	27	0	3104833536	42	6285
2026-01-10 05:26:49.83	329.67	3.85	-35.3	-36.1	21.1	0.00e+00	0	27	0	3110076416	42	6521
2026-01-10 05:26:50.83	329.79	3.81	-34.9	-35.8	21.5	0.00e+00	0	27	0	3115319296	42	6252
2026-01-10 05:26:51.85	329.90	3.77	-34.9	-35.8	21.4	0.00e+00	0	27	0	3121610752	42	6268
2026-01-10 05:26:52.85	330.02	3.72	-34.9	-35.8	21.4	0.00e+00	0	27	0	3126853632	42	6313
2026-01-10 05:26:53.86	330.14	3.68	-35.1	-35.9	21.1	0.00e+00	0	27	0	3132096512	42	6323
2026-01-10 05:26:54.87	330.25	3.64	-35.1	-36.0	21.1	0.00e+00	0	27	0	3138387968	42	6410
2026-01-10 05:26:55.88	330.37	3.60	-35.2	-36.1	20.9	0.00e+00	0	27	0	3143630848	42	6482
2026-01-10 05:26:56.89	330.48	3.56	-35.5	-36.4	20.5	0.00e+00	0	27	0	3149922304	42	6741
2026-01-10 05:26:57.90	330.60	3.52	-35.7	-36.7	20.2	0.00e+00	0	27	0	3155165184	44	6206
2026-01-10 05:26:58.91	330.71	3.48	-36.0	-37.0	19.7	0.00e+00	0	27	0	3161456640	44	6437
2026-01-10 05:26:59.92	330.83	3.44	-36.4	-37.4	19.1	0.00e+00	0	27	0	3166699520	44	6758
2026-01-10 05:27:00.93	330.94	3.39	-36.8	-37.9	18.3	0.00e+00	0	27	0	3171942400	46	6390
2026-01-10 05:27:01.94	331.06	3.35	-37.3	-38.6	17.5	0.00e+00	0	27	0	3178233856	46	6850
2026-01-10 05:27:02.95	331.17	3.31	-37.9	-39.2	16.6	0.00e+00	0	27	0	3183476736	48	6604
2026-01-10 05:27:03.96	331.28	3.27	-38.4	-39.9	15.5	0.00e+00	0	27	0	3189768192	48	7152
2026-01-10 05:27:04.97	331.40	3.23	-39.2	-41.0	13.9	3.40e-06	0	27	0	3195011072	50	7234
2026-01-10 05:27:05.98	331.51	3.19	-40.0	-42.3	12.3	1.44e-04	0	27	0	3201302528	52	7490
2026-01-10 05:27:06.99	331.62	3.15	-40.6	-43.4	10.6	1.95e-03	0	27	0	3206545408	52	8493
2026-01-10 05:27:08.00	331.73	3.10	-41.1	-44.7	8.8	2.36e-02	0	27	0	3211788288	54	8767
2026-01-10 05:27:09.01	331.85	3.06	-41.6	-45.9	7.1	1.07e-01	0	27	0	3218079744	54	10117
2026-01-10 05:27:10.02	331.96	3.02	-42.0	-47.2	5.6	3.67e-01	0	27	0	3223322624	56	10438
2026-01-10 05:27:11.03	332.07	2.98	-46.8	-58.8	3.6	8.46e-01	0	27	104	3225419776	60	31566
2026-01-10 05:27:12.04	332.18	2.94	-47.2	-59.3	3.6	8.45e-01	0	27	104	3225419776	60	33258
2026-01-10 05:27:13.05	332.29	2.90	-47.5	-59.6	3.6	8.45e-01	0	27	104	3225419776	60	34581
2026-01-10 05:27:14.06	332.40	2.85	-47.7	-59.8	3.5	8.46e-01	0	27	104	3225419776	60	35410
2026-01-10 05:27:15.07	332.51	2.81	-47.8	-59.9	3.6	8.45e-01	0	27	104	3225419776	60	35702
2026-01-10 05:27:16.08	332.62	2.77	-47.8	-60.0	3.6	8.44e-01	0	27	104	3225419776	60	36027
2026-01-10 05:27:17.09	332.73	2.73	-48.0	-60.1	3.6	8.44e-01	0	27	104	3225419776	60	36647
2026-01-10 05:27:18.10	332.84	2.69	-48.0	-60.1	3.6	8.45e-01	0	27	104	3225419776	60	36760
2026-01-10 05:27:19.11	332.95	2.64	-47.9	-60.0	3.6	8.45e-01	0	27	104	3225419776	60	36281
2026-01-10 05:27:20.12	333.06	2.60	-48.0	-60.1	3.6	8.46e-01	0	27	104	3225419776	60	36525
2026-01-10 05:27:21.13	333.16	2.56	-47.9	-60.0	3.6	8.44e-01	0	27	104	3225419776	60	36220
2026-01-10 05:27:22.14	333.27	2.52	-47.8	-60.0	3.6	8.44e-01	0	27	104	3225419776	60	36305
2026-01-10 05:27:23.15	333.38	2.48	-47.7	-60.0	3.6	8.45e-01	0	27	104	3225419776	60	36138
2026-01-10 05:27:24.15	333.49	2.44	-47.6	-60.0	3.6	8.45e-01	0	27	104	3225419776	60	36186
2026-01-10 05:27:25.17	333.59	2.39	-47.8	-59.9	3.6	8.45e-01	0	27	104	3225419776	60	35716
2026-01-10 05:27:26.17	333.70	2.35	-48.0	-60.1	3.6	8.45e-01	0	27	104	3225419776	60	36637
2026-01-10 05:27:27.19	333.81	2.31	-47.9	-60.0	3.6	8.45e-01	0	27	104	3225419776	60	36309
2026-01-10 05:27:28.20	333.91	2.27	-47.9	-60.0	3.6	8.46e-01	0	27	104	3225419776	60	36229
2026-01-10 05:27:29.20	334.02	2.23	-47.9	-60.0	3.6	8.44e-01	0	27	104	3225419776	60	36267
2026-01-10 05:27:30.22	334.13	2.18	-47.9	-60.0	3.6	8.46e-01	0	27	104	3225419776	60	36122
2026-01-10 05:27:31.22	334.23	2.14	-47.8	-60.0	3.6	8.46e-01	0	27	104	3225419776	60	36238
2026-01-10 05:27:32.23	334.33	2.10	-47.8	-60.0	3.6	8.46e-01	0	27	104	3225419776	60	35945
2026-01-10 05:27:33.24	334.44	2.06	-47.9	-60.0	3.6	8.46e-01	0	27	104	3225419776	60	36082
2026-01-10 05:27:34.25	334.54	2.02	-47.8	-60.0	3.6	8.45e-01	0	27	104	3225419776	60	36171
2026-01-10 05:27:35.26	334.65	1.97	-47.9	-60.0	3.6	8.46e-01	0	27	104	3225419776	60	36052
2026-01-10 05:27:36.27	334.75	1.93	-47.9	-60.0	3.6	8.45e-01	0	27	104	3225419776	60	36216
2026-01-10 05:27:37.28	334.86	1.89	-47.9	-60.1	3.6	8.45e-01	0	27	104	3225419776	60	36373
2026-01-10 05:27:38.29	334.96	1.85	-47.9	-60.0	3.6	8.45e-01	0	27	104	3225419776	60	35990
2026-01-10 05:27:39.30	335.06	1.81	-47.9	-60.0	3.6	8.46e-01	0	27	104	3225419776	60	36030
2026-01-10 05:27:40.31	335.17	1.76	-47.9	-60.0	3.6	8.45e-01	0	27	104	3225419776	60	36220
2026-01-10 05:27:41.32	335.27	1.72	-47.8	-60.0	3.6	8.45e-01	0	27	104	3225419776	60	36092
2026-01-10 05:27:42.33	335.37	1.68	-47.9	-60.0	3.6	8.45e-01	0	27	104	3225419776	60	35957
2026-01-10 05:27:43.34	335.47	1.64	-47.8	-60.0	3.6	8.45e-01	0	27	104	3225419776	60	35973
2026-01-10 05:27:44.35	335.57	1.59	-47.9	-60.0	3.6	8.46e-01	0	27	104	3225419776	60	36169
2026-01-10 05:27:45.36	335.68	1.55	-47.9	-60.0	3.6	8.46e-01	0	27	104	3225419776	60	36213
2026-01-10 05:27:46.37	335.78	1.51	-47.8	-59.9	3.6	8.45e-01	0	27	104	3225419776	60	35926
2026-01-10 05:27:47.38	335.88	1.47	-47.9	-60.0	3.6	8.44e-01	0	27	104	3225419776	60	36269
2026-01-10 05:27:48.39	335.98	1.43	-47.9	-60.0	3.6	8.46e-01	0	27	104	3225419776	60	36293
2026-01-10 05:27:49.40	336.08	1.38	-47.9	-60.0	3.6	8.46e-01	0	27	104	3225419776	60	36190
2026-01-10 05:27:50.41	336.18	1.34	-47.9	-60.0	3.5	8.46e-01	0	27	104	3225419776	60	36212
2026-01-10 05:27:51.42	336.28	1.30	-47.9	-60.0	3.6	8.45e-01	0	27	104	3225419776	60	36242
2026-01-10 05:27:52.43	336.38	1.26	-47.9	-60.0	3.6	8.45e-01	0	27	104	3225419776	60	36147
2026-01-10 05:27:53.44	336.48	1.22	-47.9	-60.0	3.6	8.45e-01	0	27	104	3225419776	60	36052
2026-01-10 05:27:54.45	336.58	1.17	-47.9	-60.0	3.6	8.46e-01	0	27	104	3225419776	60	36009
2026-01-10 05:27:55.46	336.68	1.13	-47.8	-60.0	3.6	8.44e-01	0	27	104	3225419776	60	35957
2026-01-10 05:27:56.47	336.77	1.09	-47.8	-59.9	3.6	8.46e-01	0	27	104	3225419776	60	35891
2026-01-10 05:27:57.48	336.87	1.05	-47.8	-59.9	3.6	8.46e-01	0	27	104	3225419776	60	35831
2026-01-10 05:27:58.49	336.97	1.00	-47.9	-60.0	3.6	8.45e-01	0	27	104	3225419776	60	36193
2026-01-10 05:27:59.51	337.07	0.96	-47.9	-60.0	3.6	8.45e-01	0	27	104	3225419776	60	36146
2026-01-10 05:28:00.51	337.17	0.92	-47.9	-60.0	3.6	8.45e-01	0	27	104	3225419776	60	35976
2026-01-10 05:28:01.53	337.26	0.88	-47.9	-59.9	3.6	8.46e-01	0	27	104	3225419776	60	35929
2026-01-10 05:28:02.54	337.36	0.84	-47.8	-59.9	3.6	8.45e-01	0	27	104	3225419776	60	35782
2026-01-10 05:28:03.55	337.46	0.79	-47.8	-60.0	3.6	8.46e-01	0	27	104	3225419776	60	35969
2026-01-10 05:28:04.55	337.55	0.75	-47.8	-60.0	3.6	8.45e-01	0	27	104	3225419776	60	36058
2026-01-10 05:28:05.56	337.65	0.71	-47.8	-59.9	3.6	8.45e-01	0	27	104	3225419776	60	35797
2026-01-10 05:28:06.57	337.74	0.67	-47.9	-60.0	3.6	8.46e-01	0	27	104	3225419776	60	36150
