passes_logs/2026/01/10/R4.6S_Anadyr/R4.6S_Anadyr__20260110_231108_TY-42_rec.log

#Pass ID: 20260110_231108_TY-42
#Satellite: TY-42
#Configuration: TY-42_900M
#almurnet v.1.7.20251203
#Start time: 2026-01-10 23:11:39

#Version: 2.2.20231116
#Station: R4.6S_Anadyr
#Location: 177.4865 lon 64.73178 lat
#TLE: 1 64048U 25103A   26010.69280093  .00008009  00000-0  38191-3 0 09991
#TLE: 2 64048 097.4118 086.1910 0001767 092.5284 306.6825 15.19162806 36165

#Time	Az	El	Level	Level2	SNR	BER	BlckErr	Temp	State	Recorded	gain1	gain2
2026-01-10 23:11:39.39	18.88	2.06	-48.0	-60.5	3.4	1.52e+00	0	25	0	0	60	37206
2026-01-10 23:11:40.40	18.90	2.13	-46.7	-49.1	6.1	0.00e+00	0	26	104	0	60	35086
2026-01-10 23:11:41.41	18.93	2.20	-46.7	-49.2	6.1	0.00e+00	0	26	104	0	60	35128
2026-01-10 23:11:42.42	18.95	2.27	-46.7	-49.1	6.1	0.00e+00	0	26	104	0	60	34984
2026-01-10 23:11:43.42	18.98	2.34	-46.7	-49.2	6.1	0.00e+00	0	26	104	0	60	35191
2026-01-10 23:11:44.44	19.00	2.41	-46.7	-49.2	6.1	0.00e+00	0	27	104	0	60	35370
2026-01-10 23:11:45.45	19.02	2.48	-46.7	-49.2	6.1	0.00e+00	0	27	104	0	60	35290
2026-01-10 23:11:46.45	19.05	2.56	-46.7	-49.1	6.1	0.00e+00	0	27	104	0	60	35067
2026-01-10 23:11:47.46	19.07	2.63	-46.7	-49.2	6.1	0.00e+00	0	27	104	0	60	35220
2026-01-10 23:11:48.47	19.10	2.70	-46.6	-49.1	6.1	0.00e+00	0	27	104	0	60	35044
2026-01-10 23:11:49.48	19.12	2.77	-46.7	-49.1	6.1	0.00e+00	0	27	104	0	60	34912
2026-01-10 23:11:50.49	19.15	2.84	-46.7	-49.1	6.1	0.00e+00	0	27	104	0	60	35031
2026-01-10 23:11:51.50	19.17	2.91	-46.7	-49.2	6.1	0.00e+00	0	27	104	0	60	35196
2026-01-10 23:11:52.51	19.20	2.99	-46.7	-49.2	6.1	0.00e+00	0	27	104	0	60	35244
2026-01-10 23:11:53.52	19.22	3.06	-46.7	-49.2	6.1	0.00e+00	0	27	104	0	60	35131
2026-01-10 23:11:54.53	19.25	3.13	-46.6	-49.2	6.1	0.00e+00	0	27	104	0	60	35126
2026-01-10 23:11:55.54	19.27	3.21	-46.6	-49.1	6.1	0.00e+00	0	27	104	0	60	35083
2026-01-10 23:11:56.55	19.30	3.28	-46.7	-49.1	6.1	0.00e+00	0	27	104	0	60	34952
2026-01-10 23:11:57.56	19.33	3.35	-46.6	-49.1	6.1	0.00e+00	0	27	104	0	60	35091
2026-01-10 23:11:58.56	19.35	3.43	-46.6	-49.1	6.1	0.00e+00	0	27	104	0	60	34906
2026-01-10 23:11:59.58	19.38	3.50	-31.3	-31.6	12.0	0.00e+00	5459	27	104	0	38	16605
2026-01-10 23:12:00.58	19.40	3.58	-30.3	-30.7	14.3	0.00e+00	0	27	0	50331648	36	16719
2026-01-10 23:12:01.60	19.43	3.65	-29.8	-30.2	14.6	1.00e-01	0	27	0	159383552	36	15816
2026-01-10 23:12:02.60	19.46	3.73	-29.5	-29.9	14.6	1.00e-01	0	27	0	276824064	34	17071
2026-01-10 23:12:03.62	19.49	3.80	-29.7	-30.1	14.6	1.17e-02	0	28	0	394264576	34	17428
2026-01-10 23:12:04.62	19.51	3.88	-30.6	-31.0	14.1	1.17e-02	0	27	0	503316480	34	19510
2026-01-10 23:12:05.63	19.54	3.95	-31.9	-32.3	13.4	1.95e-02	0	27	0	620756992	38	17901
2026-01-10 23:12:06.64	19.57	4.03	-34.2	-34.5	12.1	1.95e-02	5	28	0	729808896	42	18396
2026-01-10 23:12:07.65	19.59	4.11	-30.5	-30.9	14.3	1.95e-02	0	28	0	838860800	40	13530
2026-01-10 23:12:08.66	19.62	4.18	-31.0	-31.2	12.7	0.00e+00	4881	27	104	897581056	44	11182
2026-01-10 23:12:09.67	19.65	4.26	-36.8	-37.2	10.2	0.00e+00	105	27	104	914358272	52	14008
2026-01-10 23:12:10.68	19.68	4.34	-41.3	-41.9	8.6	0.00e+00	0	27	104	914358272	60	15321
2026-01-10 23:12:11.69	19.70	4.42	-32.0	-32.3	11.9	0.00e+00	5241	27	104	914358272	40	16014
2026-01-10 23:12:12.70	19.73	4.49	-46.0	-48.2	6.1	0.00e+00	0	28	104	914358272	60	31584
2026-01-10 23:12:13.71	19.76	4.57	-32.0	-32.3	12.1	0.00e+00	1806	28	104	914358272	40	15994
2026-01-10 23:12:14.72	19.79	4.65	-31.8	-32.1	13.5	0.00e+00	0	28	0	947912704	38	17535
2026-01-10 23:12:15.73	19.82	4.73	-31.3	-31.7	13.9	1.40e-01	0	28	0	1056964608	38	16674
2026-01-10 23:12:16.74	19.85	4.81	-29.8	-30.2	14.6	1.40e-01	0	28	0	1174405120	36	15846
2026-01-10 23:12:17.75	19.88	4.89	-28.7	-29.1	14.9	1.40e-01	0	28	0	1283457024	34	15643
2026-01-10 23:12:18.76	19.90	4.97	-28.3	-28.6	15.2	1.47e-02	0	28	0	1400897536	32	16612
2026-01-10 23:12:19.77	19.93	5.05	-27.7	-28.1	15.4	1.47e-02	0	28	0	1518338048	30	17466
2026-01-10 23:12:20.78	19.96	5.13	-27.7	-28.1	15.3	4.16e-03	0	28	0	1627389952	30	17484
2026-01-10 23:12:21.79	19.99	5.21	-27.3	-27.7	15.4	4.16e-03	0	28	0	1736441856	30	16772
2026-01-10 23:12:22.80	20.02	5.29	-27.4	-27.8	15.4	2.60e-03	0	28	0	1853882368	30	16812
2026-01-10 23:12:23.81	20.05	5.37	-27.3	-27.7	15.4	2.60e-03	0	28	0	1971322880	30	16638
2026-01-10 23:12:24.82	20.08	5.45	-27.3	-27.7	15.4	2.60e-03	0	28	0	2080374784	30	16764
2026-01-10 23:12:25.83	20.11	5.54	-27.4	-27.9	15.5	2.38e-03	0	28	0	2197815296	30	17009
2026-01-10 23:12:26.84	20.14	5.62	-27.2	-27.6	15.5	2.38e-03	0	28	0	2306867200	30	16458
2026-01-10 23:12:27.86	20.18	5.70	-27.3	-27.7	15.5	2.24e-03	0	28	0	2424307712	30	16683
2026-01-10 23:12:28.87	20.21	5.79	-27.0	-27.4	15.5	2.24e-03	0	28	0	2541748224	30	16076
2026-01-10 23:12:29.87	20.24	5.87	-27.0	-27.4	15.5	2.24e-03	0	28	0	2650800128	30	16215
2026-01-10 23:12:30.88	20.27	5.95	-26.7	-27.1	15.6	1.95e-03	0	28	0	2759852032	30	15678
2026-01-10 23:12:31.89	20.30	6.04	-26.9	-27.3	15.5	1.95e-03	0	28	0	2877292544	28	17944
2026-01-10 23:12:32.90	20.33	6.12	-26.9	-27.3	15.6	1.95e-03	0	28	0	2986344448	28	17873
2026-01-10 23:12:33.91	20.36	6.21	-26.9	-27.3	15.6	1.59e-03	0	28	0	3103784960	28	17814
2026-01-10 23:12:34.92	20.40	6.29	-26.6	-27.0	15.7	1.59e-03	0	28	0	3221225472	28	17310
2026-01-10 23:12:35.93	20.43	6.38	-26.6	-27.0	15.7	1.51e-03	0	28	0	3330277376	28	17400
2026-01-10 23:12:36.94	20.46	6.46	-26.6	-27.0	15.7	1.51e-03	0	28	0	3447717888	28	17386
2026-01-10 23:12:37.95	20.49	6.55	-26.5	-26.9	15.7	1.28e-03	0	28	0	3556769792	28	17029
2026-01-10 23:12:38.96	20.53	6.64	-26.6	-27.0	15.7	1.28e-03	0	28	0	3674210304	28	17232
2026-01-10 23:12:39.97	20.56	6.72	-26.4	-26.8	15.7	1.28e-03	0	28	0	3791650816	28	16985
2026-01-10 23:12:40.98	20.59	6.81	-26.5	-26.9	15.7	1.28e-03	0	28	0	3900702720	28	17053
2026-01-10 23:12:41.98	20.63	6.90	-26.6	-27.0	15.7	1.28e-03	0	28	0	4009754624	28	17373
2026-01-10 23:12:42.99	20.66	6.99	-26.6	-27.0	15.7	9.86e-04	0	28	0	4127195136	28	17247
2026-01-10 23:12:44.00	20.69	7.08	-26.5	-26.9	15.7	9.86e-04	0	28	0	4236247040	28	17019
2026-01-10 23:12:45.01	20.73	7.16	-26.4	-26.8	15.7	1.12e-03	0	29	0	4353687552	28	16990
2026-01-10 23:12:46.02	20.76	7.25	-26.2	-26.6	15.8	1.12e-03	0	28	0	4471128064	28	16513
2026-01-10 23:12:47.02	20.80	7.34	-26.1	-26.5	15.8	1.12e-03	0	29	0	4580179968	28	16291
2026-01-10 23:12:48.04	20.83	7.43	-26.3	-26.7	15.9	6.43e-04	0	29	0	4689231872	28	16663
2026-01-10 23:12:49.05	20.87	7.52	-26.1	-26.5	15.9	6.43e-04	0	29	0	4806672384	28	16290
2026-01-10 23:12:50.06	20.90	7.62	-26.2	-26.6	15.8	6.43e-04	0	29	0	4915724288	28	16430
2026-01-10 23:12:51.07	20.94	7.71	-26.1	-26.5	15.9	5.39e-04	0	28	0	5033164800	28	16328
2026-01-10 23:12:52.08	20.97	7.80	-26.2	-26.6	15.8	5.39e-04	0	29	0	5150605312	28	16518
2026-01-10 23:12:53.09	21.01	7.89	-26.0	-26.4	15.8	5.39e-04	0	28	0	5259657216	28	16125
2026-01-10 23:12:54.09	21.05	7.98	-26.0	-26.4	15.9	4.36e-04	0	28	0	5377097728	28	16054
2026-01-10 23:12:55.11	21.08	8.08	-26.0	-26.4	15.9	4.36e-04	0	29	0	5486149632	28	16237
2026-01-10 23:12:56.12	21.12	8.17	-25.9	-26.3	15.9	5.88e-04	0	29	0	5603590144	28	16023
2026-01-10 23:12:57.13	21.16	8.27	-25.8	-26.2	15.9	3.49e-04	0	29	0	5721030656	26	17714
2026-01-10 23:12:58.14	21.20	8.36	-25.8	-26.2	15.9	3.49e-04	0	29	0	5830082560	26	17726
2026-01-10 23:12:59.15	21.23	8.46	-25.9	-26.3	15.9	3.49e-04	0	29	0	5939134464	26	17866
2026-01-10 23:13:00.16	21.27	8.55	-25.9	-26.3	15.9	3.49e-04	0	29	0	6056574976	26	17851
2026-01-10 23:13:01.17	21.31	8.65	-25.9	-26.3	16.0	4.25e-04	0	29	0	6174015488	26	17836
2026-01-10 23:13:02.18	21.35	8.75	-25.8	-26.2	16.0	4.25e-04	0	29	0	6283067392	26	17648
2026-01-10 23:13:03.18	21.39	8.84	-25.6	-26.0	16.0	3.65e-04	0	29	0	6400507904	26	17399
2026-01-10 23:13:04.20	21.43	8.94	-25.6	-26.0	16.0	3.65e-04	0	29	0	6509559808	26	17360
2026-01-10 23:13:05.20	21.46	9.04	-25.5	-25.9	16.0	3.00e-04	0	29	0	6618611712	26	17110
2026-01-10 23:13:06.22	21.50	9.14	-25.3	-25.7	16.1	3.00e-04	0	29	0	6744440832	26	16790
2026-01-10 23:13:07.22	21.54	9.24	-25.5	-25.9	16.0	1.69e-04	0	29	0	6853492736	26	17068
2026-01-10 23:13:08.24	21.58	9.34	-25.4	-25.8	16.0	1.91e-04	0	29	0	6962544640	26	16953
2026-01-10 23:13:09.25	21.63	9.44	-25.6	-26.0	16.0	1.91e-04	0	29	0	7079985152	26	17231
2026-01-10 23:13:10.26	21.67	9.54	-25.3	-25.7	16.1	2.07e-04	0	29	0	7189037056	26	16748
2026-01-10 23:13:11.26	21.71	9.64	-25.3	-25.7	16.1	2.07e-04	0	29	0	7306477568	26	16636
2026-01-10 23:13:12.28	21.75	9.74	-25.2	-25.6	16.1	2.07e-04	0	29	0	7423918080	26	16468
2026-01-10 23:13:13.29	21.79	9.84	-25.3	-25.7	16.1	1.74e-04	0	29	0	7532969984	26	16741
2026-01-10 23:13:14.30	21.83	9.95	-25.0	-25.4	16.2	1.74e-04	0	29	0	7650410496	26	16145
2026-01-10 23:13:15.31	21.88	10.05	-25.1	-25.6	16.1	1.25e-04	0	29	0	7767851008	26	16431
2026-01-10 23:13:16.32	21.92	10.15	-25.1	-25.5	16.1	1.25e-04	0	29	0	7876902912	26	16241
2026-01-10 23:13:17.33	21.96	10.26	-24.7	-25.2	16.2	1.58e-04	0	29	0	7985954816	26	15704
2026-01-10 23:13:18.34	22.00	10.36	-25.0	-25.4	16.2	1.58e-04	0	29	0	8103395328	24	18015
2026-01-10 23:13:19.35	22.05	10.47	-24.7	-25.2	16.2	9.26e-05	0	29	0	8212447232	24	17604
2026-01-10 23:13:20.36	22.09	10.58	-24.7	-25.1	16.1	1.42e-04	0	29	0	8329887744	24	17559
2026-01-10 23:13:21.37	22.14	10.68	-24.7	-25.1	16.1	1.42e-04	0	29	0	8447328256	24	17410
2026-01-10 23:13:22.37	22.18	10.79	-24.7	-25.1	15.9	1.42e-04	0	29	0	8556380160	24	17494
2026-01-10 23:13:23.38	22.23	10.90	-24.5	-24.9	15.9	3.22e-04	0	29	0	8673820672	24	17010
2026-01-10 23:13:24.40	22.27	11.01	-24.5	-24.9	15.8	3.22e-04	0	29	0	8782872576	24	17148
2026-01-10 23:13:25.40	22.32	11.12	-24.4	-24.8	15.9	3.05e-04	0	29	0	8891924480	24	16980
2026-01-10 23:13:26.41	22.37	11.23	-24.5	-24.8	16.1	3.05e-04	0	29	0	9009364992	24	17001
2026-01-10 23:13:27.42	22.41	11.34	-24.3	-24.7	16.3	1.58e-04	0	29	0	9126805504	24	16718
2026-01-10 23:13:28.43	22.46	11.45	-24.3	-24.7	16.3	1.58e-04	0	29	0	9235857408	24	16716
2026-01-10 23:13:29.44	22.51	11.56	-24.2	-24.6	16.3	1.58e-04	0	29	0	9353297920	24	16599
2026-01-10 23:13:30.45	22.55	11.67	-24.2	-24.6	16.3	4.90e-05	0	29	0	9462349824	24	16523
2026-01-10 23:13:31.46	22.60	11.79	-24.2	-24.6	16.3	4.90e-05	0	29	0	9579790336	24	16559
2026-01-10 23:13:32.47	22.65	11.90	-24.0	-24.4	16.3	4.35e-05	0	29	0	9697230848	24	16214
2026-01-10 23:13:33.48	22.70	12.01	-24.1	-24.5	16.3	4.35e-05	0	29	0	9806282752	24	16292
2026-01-10 23:13:34.49	22.75	12.13	-24.0	-24.4	16.4	1.63e-05	0	29	0	9915334656	24	16149
2026-01-10 23:13:35.50	22.80	12.25	-24.0	-24.4	16.4	1.63e-05	0	29	0	10032775168	24	16239
2026-01-10 23:13:36.51	22.85	12.36	-24.0	-24.4	16.4	4.90e-05	0	29	0	10150215680	24	16171
2026-01-10 23:13:37.52	22.90	12.48	-24.2	-24.6	16.3	4.90e-05	0	29	0	10259267584	24	16524
2026-01-10 23:13:38.53	22.95	12.60	-23.9	-24.3	16.3	3.81e-05	0	29	0	10376708096	24	16006
2026-01-10 23:13:39.54	23.01	12.72	-23.9	-24.3	16.4	3.81e-05	0	29	0	10485760000	24	15952
2026-01-10 23:13:40.55	23.06	12.84	-23.8	-24.2	16.4	4.90e-05	0	29	0	10603200512	24	15849
2026-01-10 23:13:41.55	23.11	12.96	-23.9	-24.3	16.4	4.90e-05	0	29	0	10712252416	24	15948
2026-01-10 23:13:42.56	23.16	13.08	-23.8	-24.2	16.4	4.90e-05	0	29	0	10829692928	24	15858
2026-01-10 23:13:43.57	23.22	13.20	-23.7	-24.1	16.4	4.90e-05	0	29	0	10938744832	22	17535
2026-01-10 23:13:44.59	23.27	13.33	-23.6	-24.0	16.4	2.72e-05	0	29	0	11056185344	22	17331
2026-01-10 23:13:45.60	23.33	13.45	-23.5	-23.9	16.5	2.72e-05	0	29	0	11165237248	22	17100
2026-01-10 23:13:46.60	23.38	13.57	-23.4	-23.8	16.5	2.72e-05	0	29	0	11282677760	22	16938
2026-01-10 23:13:47.62	23.44	13.70	-23.4	-23.8	16.4	5.40e-06	0	29	0	11400118272	22	16894
2026-01-10 23:13:48.62	23.49	13.82	-23.2	-23.7	16.4	5.40e-06	0	29	0	11509170176	22	16644
2026-01-10 23:13:49.63	23.55	13.95	-23.3	-23.7	16.5	0.00e+00	0	29	0	11626610688	22	16744
2026-01-10 23:13:50.64	23.61	14.08	-23.2	-23.7	16.5	0.00e+00	0	29	0	11735662592	22	16646
2026-01-10 23:13:51.66	23.67	14.21	-23.1	-23.5	16.5	2.17e-05	0	29	0	11844714496	22	16368
2026-01-10 23:13:52.66	23.72	14.34	-23.1	-23.5	16.4	2.17e-05	0	29	0	11970543616	22	16373
2026-01-10 23:13:53.67	23.78	14.47	-23.1	-23.5	16.5	1.63e-05	0	29	0	12079595520	22	16368
2026-01-10 23:13:54.68	23.84	14.60	-23.0	-23.4	16.5	1.63e-05	0	29	0	12188647424	22	16212
2026-01-10 23:13:55.69	23.90	14.73	-22.9	-23.3	16.6	3.26e-05	0	29	0	12306087936	22	16034
2026-01-10 23:13:56.70	23.96	14.86	-22.9	-23.3	16.6	3.26e-05	0	29	0	12415139840	22	15989
2026-01-10 23:13:57.71	24.02	15.00	-23.0	-23.4	16.5	0.00e+00	0	29	0	12532580352	22	16158
2026-01-10 23:13:58.72	24.09	15.13	-22.8	-23.2	16.5	0.00e+00	0	29	0	12650020864	22	15803
2026-01-10 23:13:59.73	24.15	15.27	-22.7	-23.1	16.6	5.40e-06	0	29	0	12759072768	20	17453
2026-01-10 23:14:00.74	24.21	15.41	-22.8	-23.3	16.6	5.40e-06	0	29	0	12868124672	20	17848
2026-01-10 23:14:01.75	24.28	15.54	-22.8	-23.2	16.6	0.00e+00	0	29	0	12985565184	20	17691
2026-01-10 23:14:02.76	24.34	15.68	-22.6	-23.0	16.5	0.00e+00	0	29	0	13103005696	20	17365
2026-01-10 23:14:03.77	24.41	15.82	-22.5	-23.0	16.6	0.00e+00	0	29	0	13212057600	20	17236
2026-01-10 23:14:04.77	24.47	15.96	-22.5	-22.9	16.6	0.00e+00	0	29	0	13329498112	20	17166
2026-01-10 23:14:05.79	24.54	16.11	-22.2	-22.7	16.7	0.00e+00	0	29	0	13438550016	20	16653
2026-01-10 23:14:06.80	24.60	16.25	-22.3	-22.7	16.7	0.00e+00	0	29	0	13555990528	20	16765
2026-01-10 23:14:07.81	24.67	16.39	-22.2	-22.6	16.7	0.00e+00	0	29	0	13665042432	20	16595
2026-01-10 23:14:08.82	24.74	16.54	-22.3	-22.7	16.7	0.00e+00	0	29	0	13782482944	20	16792
2026-01-10 23:14:09.83	24.81	16.68	-22.1	-22.6	16.7	0.00e+00	0	29	0	13899923456	20	16468
2026-01-10 23:14:10.83	24.88	16.83	-22.1	-22.5	16.7	0.00e+00	0	29	0	14008975360	20	16384
2026-01-10 23:14:11.84	24.95	16.98	-22.0	-22.5	16.6	0.00e+00	0	29	0	14118027264	20	16255
2026-01-10 23:14:12.85	25.02	17.13	-22.2	-22.6	16.6	0.00e+00	0	29	0	14235467776	20	16543
2026-01-10 23:14:13.86	25.09	17.28	-22.1	-22.6	16.7	0.00e+00	0	29	0	14344519680	20	16470
2026-01-10 23:14:14.86	25.17	17.43	-22.1	-22.5	16.7	0.00e+00	0	29	0	14461960192	20	16417
2026-01-10 23:14:15.87	25.24	17.58	-22.2	-22.6	16.7	0.00e+00	0	29	0	14579400704	20	16531
2026-01-10 23:14:16.89	25.32	17.74	-22.0	-22.4	16.7	0.00e+00	0	29	0	14688452608	20	16142
2026-01-10 23:14:17.89	25.39	17.89	-21.9	-22.3	16.7	0.00e+00	0	29	0	14797504512	20	15933
2026-01-10 23:14:18.91	25.47	18.05	-21.8	-22.2	16.7	0.00e+00	0	29	0	14914945024	20	15853
2026-01-10 23:14:19.92	25.55	18.21	-21.6	-22.0	16.7	0.00e+00	0	29	0	15032385536	18	17316
2026-01-10 23:14:20.93	25.62	18.37	-21.6	-22.0	16.8	0.00e+00	0	29	0	15141437440	18	17373
2026-01-10 23:14:21.94	25.70	18.53	-21.4	-21.8	16.8	0.00e+00	0	29	0	15258877952	18	16967
2026-01-10 23:14:22.95	25.78	18.69	-21.5	-21.9	16.8	0.00e+00	0	29	0	15367929856	18	17029
2026-01-10 23:14:23.96	25.87	18.85	-21.4	-21.8	16.8	0.00e+00	0	29	0	15485370368	18	16904
2026-01-10 23:14:24.97	25.95	19.02	-21.3	-21.7	16.8	0.00e+00	0	29	0	15602810880	18	16726
2026-01-10 23:14:25.98	26.03	19.18	-21.3	-21.7	16.8	0.00e+00	0	29	0	15711862784	18	16782
2026-01-10 23:14:26.99	26.11	19.35	-21.2	-21.6	16.8	0.00e+00	0	29	0	15829303296	18	16461
2026-01-10 23:14:28.00	26.20	19.52	-21.2	-21.6	16.9	0.00e+00	0	29	0	15938355200	18	16499
2026-01-10 23:14:29.00	26.28	19.68	-21.2	-21.6	16.8	0.00e+00	0	29	0	16047407104	18	16526
2026-01-10 23:14:30.02	26.37	19.86	-20.9	-21.4	16.9	0.00e+00	0	29	0	16164847616	18	16108
2026-01-10 23:14:31.02	26.46	20.03	-21.0	-21.4	16.9	0.00e+00	0	29	0	16282288128	18	16175
2026-01-10 23:14:32.03	26.55	20.20	-20.9	-21.3	16.9	0.00e+00	0	29	0	16391340032	18	16047
2026-01-10 23:14:33.04	26.64	20.38	-20.8	-21.3	16.9	0.00e+00	0	29	0	16508780544	18	15873
2026-01-10 23:14:34.05	26.73	20.56	-20.7	-21.2	17.0	0.00e+00	0	29	0	16617832448	16	17613
2026-01-10 23:14:35.06	26.82	20.73	-20.6	-21.1	16.9	0.00e+00	0	29	0	16735272960	16	17436
2026-01-10 23:14:36.07	26.92	20.91	-20.6	-21.0	16.9	0.00e+00	0	29	0	16852713472	16	17363
2026-01-10 23:14:37.08	27.01	21.10	-20.4	-20.9	17.0	0.00e+00	0	29	0	16961765376	16	17014
2026-01-10 23:14:38.09	27.11	21.28	-20.5	-20.9	16.9	0.00e+00	0	29	0	17070817280	16	17168
2026-01-10 23:14:39.10	27.20	21.46	-20.4	-20.9	17.0	0.00e+00	0	30	0	17188257792	16	17008
2026-01-10 23:14:40.11	27.30	21.65	-20.4	-20.8	17.0	0.00e+00	0	29	0	17305698304	16	16974
2026-01-10 23:14:41.12	27.40	21.84	-20.3	-20.7	17.0	0.00e+00	0	29	0	17414750208	16	16792
2026-01-10 23:14:42.13	27.50	22.03	-20.3	-20.7	17.0	0.00e+00	0	29	0	17532190720	16	16676
2026-01-10 23:14:43.14	27.61	22.22	-20.3	-20.8	17.0	0.00e+00	0	29	0	17641242624	16	16823
2026-01-10 23:14:44.15	27.71	22.41	-20.0	-20.4	17.0	0.00e+00	0	29	0	17758683136	16	16205
2026-01-10 23:14:45.16	27.82	22.61	-20.0	-20.4	17.0	0.00e+00	0	29	0	17876123648	16	16200
2026-01-10 23:14:46.17	27.92	22.80	-20.0	-20.4	17.0	0.00e+00	0	29	0	17985175552	16	16153
2026-01-10 23:14:47.18	28.03	23.00	-19.7	-20.1	17.1	0.00e+00	0	30	0	18094227456	16	15658
2026-01-10 23:14:48.19	28.14	23.20	-19.6	-20.1	17.1	0.00e+00	0	29	0	18211667968	14	17420
2026-01-10 23:14:49.20	28.25	23.40	-19.7	-20.1	17.1	0.00e+00	0	29	0	18320719872	14	17467
2026-01-10 23:14:50.21	28.37	23.61	-19.5	-19.9	17.1	0.00e+00	0	29	0	18438160384	14	17142
2026-01-10 23:14:51.22	28.48	23.81	-19.5	-19.9	17.1	0.00e+00	0	29	0	18555600896	14	17085
2026-01-10 23:14:52.23	28.60	24.02	-19.3	-19.8	17.1	0.00e+00	0	30	0	18664652800	14	16848
2026-01-10 23:14:53.24	28.71	24.23	-19.5	-19.9	17.1	0.00e+00	0	30	0	18782093312	14	17097
2026-01-10 23:14:54.25	28.83	24.44	-19.4	-19.8	17.1	0.00e+00	0	29	0	18891145216	14	16969
2026-01-10 23:14:55.26	28.96	24.66	-19.0	-19.4	17.1	0.00e+00	0	30	0	19008585728	14	16203
2026-01-10 23:14:56.27	29.08	24.87	-19.1	-19.5	17.2	0.00e+00	0	29	0	19117637632	14	16377
2026-01-10 23:14:57.28	29.20	25.09	-19.0	-19.4	17.2	0.00e+00	0	30	0	19235078144	14	16182
2026-01-10 23:14:58.29	29.33	25.31	-18.6	-19.1	17.2	0.00e+00	0	29	0	19344130048	12	17431
2026-01-10 23:14:59.30	29.46	25.53	-18.7	-19.1	17.2	0.00e+00	0	29	0	19461570560	12	17545
2026-01-10 23:15:00.30	29.59	25.75	-18.5	-18.9	17.2	0.00e+00	0	29	0	19570622464	12	17185
2026-01-10 23:15:01.32	29.72	25.98	-18.6	-19.0	17.2	0.00e+00	0	30	0	19688062976	12	17256
2026-01-10 23:15:02.32	29.86	26.21	-18.3	-18.7	17.2	0.00e+00	0	29	0	19805503488	12	16783
2026-01-10 23:15:03.33	29.99	26.44	-18.4	-18.8	17.2	0.00e+00	0	29	0	19914555392	12	16856
2026-01-10 23:15:04.34	30.13	26.67	-18.2	-18.6	17.2	0.00e+00	0	30	0	20023607296	12	16571
2026-01-10 23:15:05.35	30.27	26.91	-18.0	-18.4	17.3	0.00e+00	0	29	0	20141047808	12	16230
2026-01-10 23:15:06.35	30.41	27.14	-18.0	-18.5	17.3	0.00e+00	0	29	0	20250099712	12	16257
2026-01-10 23:15:07.36	30.56	27.38	-18.0	-18.4	17.2	0.00e+00	0	29	0	20367540224	12	16209
2026-01-10 23:15:08.37	30.71	27.62	-18.1	-18.5	17.2	0.00e+00	0	30	0	20484980736	12	16391
2026-01-10 23:15:09.38	30.86	27.87	-17.9	-18.3	17.3	0.00e+00	0	30	0	20594032640	12	15986
2026-01-10 23:15:10.39	31.01	28.12	-18.0	-18.4	17.3	0.00e+00	0	29	0	20711473152	12	16168
2026-01-10 23:15:11.40	31.17	28.36	-18.0	-18.4	17.3	0.00e+00	0	29	0	20820525056	12	16112
2026-01-10 23:15:12.42	31.33	28.62	-17.6	-18.0	17.3	0.00e+00	0	30	0	20937965568	10	17353
2026-01-10 23:15:13.42	31.48	28.87	-17.5	-17.9	17.3	0.00e+00	0	29	0	21047017472	10	17037
2026-01-10 23:15:14.44	31.65	29.13	-17.4	-17.8	17.3	0.00e+00	0	29	0	21164457984	10	16956
2026-01-10 23:15:15.45	31.82	29.39	-17.4	-17.8	17.3	0.00e+00	0	29	0	21273509888	10	16827
2026-01-10 23:15:16.46	31.98	29.65	-17.3	-17.7	17.2	0.00e+00	0	29	0	21390950400	10	16715
2026-01-10 23:15:17.47	32.16	29.92	-17.3	-17.7	17.2	0.00e+00	0	30	0	21508390912	10	16711
2026-01-10 23:15:18.47	32.33	30.18	-17.3	-17.7	17.3	0.00e+00	0	29	0	21617442816	10	16651
2026-01-10 23:15:19.49	32.51	30.46	-17.2	-17.6	17.4	0.00e+00	0	29	0	21734883328	10	16472
2026-01-10 23:15:20.50	32.69	30.73	-17.1	-17.4	17.4	0.00e+00	0	29	0	21843935232	10	16224
2026-01-10 23:15:21.51	32.88	31.00	-17.0	-17.4	17.4	0.00e+00	0	29	0	21952987136	10	16164
2026-01-10 23:15:22.52	33.06	31.28	-16.8	-17.2	17.4	0.00e+00	0	29	0	22078816256	10	15846
2026-01-10 23:15:23.53	33.25	31.56	-16.7	-17.1	17.3	0.00e+00	0	30	0	22187868160	8	17515
2026-01-10 23:15:24.54	33.45	31.85	-16.6	-17.0	17.4	0.00e+00	0	29	0	22296920064	8	17333
2026-01-10 23:15:25.55	33.65	32.14	-16.6	-17.0	17.4	0.00e+00	0	30	0	22414360576	8	17280
2026-01-10 23:15:26.56	33.85	32.43	-16.8	-17.1	17.4	0.00e+00	0	30	0	22523412480	8	17575
2026-01-10 23:15:27.57	34.06	32.72	-16.5	-16.9	17.4	0.00e+00	0	29	0	22640852992	8	17146
2026-01-10 23:15:28.57	34.26	33.01	-16.5	-16.9	17.4	0.00e+00	0	29	0	22758293504	8	17005
2026-01-10 23:15:29.58	34.48	33.31	-16.1	-16.4	17.5	0.00e+00	0	29	0	22867345408	8	16226
2026-01-10 23:15:30.60	34.70	33.62	-16.1	-16.5	17.5	0.00e+00	0	30	0	22976397312	8	16295
2026-01-10 23:15:31.60	34.92	33.92	-16.0	-16.4	17.4	0.00e+00	0	29	0	23093837824	8	16134
2026-01-10 23:15:32.61	35.15	34.23	-15.9	-16.3	17.4	0.00e+00	0	29	0	23211278336	8	15893
2026-01-10 23:15:33.62	35.38	34.54	-15.9	-16.3	17.4	0.00e+00	0	30	0	23320330240	8	15883
2026-01-10 23:15:34.63	35.61	34.85	-15.6	-16.0	17.5	0.00e+00	0	30	0	23437770752	6	17289
2026-01-10 23:15:35.64	35.86	35.17	-15.7	-16.1	17.4	0.00e+00	0	29	0	23546822656	6	17412
2026-01-10 23:15:36.65	36.10	35.49	-15.6	-16.0	17.5	0.00e+00	0	29	0	23664263168	6	17360
2026-01-10 23:15:37.66	36.35	35.82	-15.5	-15.8	17.5	0.00e+00	0	29	0	23781703680	6	16979
2026-01-10 23:15:38.67	36.61	36.14	-15.4	-15.8	17.5	0.00e+00	0	30	0	23890755584	6	16895
2026-01-10 23:15:39.68	36.87	36.48	-15.2	-15.6	17.5	0.00e+00	0	29	0	24008196096	6	16529
2026-01-10 23:15:40.69	37.14	36.81	-15.0	-15.4	17.6	0.00e+00	0	30	0	24117248000	6	16099
2026-01-10 23:15:41.70	37.41	37.15	-15.1	-15.5	17.6	0.00e+00	0	30	0	24226299904	6	16296
2026-01-10 23:15:42.71	37.69	37.49	-14.9	-15.3	17.5	0.00e+00	0	30	0	24343740416	6	16029
2026-01-10 23:15:43.72	37.98	37.83	-14.8	-15.2	17.6	0.00e+00	0	30	0	24461180928	6	15779
2026-01-10 23:15:44.73	38.27	38.18	-14.7	-15.0	17.6	0.00e+00	0	30	0	24570232832	4	17391
2026-01-10 23:15:45.74	38.57	38.53	-14.6	-15.0	17.6	0.00e+00	0	30	0	24687673344	4	17270
2026-01-10 23:15:46.75	38.87	38.88	-14.6	-15.0	17.6	0.00e+00	0	30	0	24796725248	4	17225
2026-01-10 23:15:47.76	39.19	39.24	-14.6	-14.9	17.6	0.00e+00	0	30	0	24905777152	4	17195
2026-01-10 23:15:48.76	39.50	39.60	-14.4	-14.8	17.6	0.00e+00	0	30	0	25031606272	4	16847
2026-01-10 23:15:49.77	39.83	39.96	-14.3	-14.7	17.6	0.00e+00	0	30	0	25140658176	4	16697
2026-01-10 23:15:50.78	40.16	40.33	-14.2	-14.6	17.6	0.00e+00	0	30	0	25249710080	4	16533
2026-01-10 23:15:51.79	40.51	40.70	-14.2	-14.6	17.6	0.00e+00	0	29	0	25367150592	4	16461
2026-01-10 23:15:52.80	40.86	41.08	-13.7	-14.1	17.6	0.00e+00	0	29	0	25476202496	4	15685
2026-01-10 23:15:53.81	41.22	41.45	-13.9	-14.3	17.6	0.00e+00	0	29	0	25593643008	2	17849
2026-01-10 23:15:54.82	41.58	41.83	-13.8	-14.1	17.6	0.00e+00	0	29	0	25711083520	2	17572
2026-01-10 23:15:55.83	41.96	42.22	-13.6	-14.0	17.6	0.00e+00	0	29	0	25820135424	2	17218
2026-01-10 23:15:56.84	42.35	42.60	-13.7	-14.1	17.7	0.00e+00	0	29	0	25937575936	2	17491
2026-01-10 23:15:57.85	42.74	42.99	-13.4	-13.8	17.7	0.00e+00	0	29	0	26046627840	2	16987
2026-01-10 23:15:58.86	43.15	43.39	-13.4	-13.8	17.7	0.00e+00	0	30	0	26164068352	2	16880
2026-01-10 23:15:59.87	43.57	43.78	-13.1	-13.5	17.8	0.00e+00	0	29	0	26273120256	2	16408
2026-01-10 23:16:00.88	43.99	44.18	-13.2	-13.6	17.7	0.00e+00	0	29	0	26390560768	2	16532
2026-01-10 23:16:01.89	44.43	44.59	-13.1	-13.5	17.7	0.00e+00	0	30	0	26499612672	2	16250
2026-01-10 23:16:02.89	44.88	44.99	-13.1	-13.5	17.7	0.00e+00	0	29	0	26617053184	2	16283
2026-01-10 23:16:03.90	45.34	45.39	-12.9	-13.3	17.7	0.00e+00	0	30	0	26726105088	2	16026
2026-01-10 23:16:04.92	45.82	45.81	-12.8	-13.2	17.7	0.00e+00	0	30	0	26843545600	2	15689
2026-01-10 23:16:05.93	46.31	46.22	-12.0	-12.4	17.8	0.00e+00	0	29	0	26960986112	46	17223
2026-01-10 23:16:06.94	46.81	46.64	-11.8	-12.1	17.8	0.00e+00	0	30	0	27070038016	46	16790
2026-01-10 23:16:07.95	47.32	47.05	-11.8	-12.2	17.8	0.00e+00	0	29	0	27179089920	46	16873
2026-01-10 23:16:08.96	47.85	47.47	-11.7	-12.1	17.8	0.00e+00	0	30	0	27296530432	46	16626
2026-01-10 23:16:09.97	48.39	47.90	-11.7	-12.0	17.8	0.00e+00	0	30	0	27413970944	46	16551
2026-01-10 23:16:10.98	48.95	48.32	-11.6	-11.9	17.9	0.00e+00	0	30	0	27523022848	46	16406
2026-01-10 23:16:11.98	49.52	48.74	-11.4	-11.8	17.9	0.00e+00	0	30	0	27640463360	46	16086
2026-01-10 23:16:12.99	50.11	49.17	-11.4	-11.8	17.9	0.00e+00	0	30	0	27749515264	46	16058
2026-01-10 23:16:14.00	50.72	49.60	-11.1	-11.4	18.0	0.00e+00	0	30	0	27866955776	44	17384
2026-01-10 23:16:15.01	51.35	50.03	-11.1	-11.4	17.9	0.00e+00	0	29	0	27984396288	44	17326
2026-01-10 23:16:16.02	51.99	50.46	-11.1	-11.5	17.9	0.00e+00	0	30	0	28093448192	44	17452
2026-01-10 23:16:17.03	52.66	50.89	-11.2	-11.6	18.0	0.00e+00	0	30	0	28202500096	44	17701
2026-01-10 23:16:18.04	53.34	51.32	-11.0	-11.4	18.0	0.00e+00	0	30	0	28319940608	44	17212
2026-01-10 23:16:19.05	54.04	51.75	-11.0	-11.3	18.0	0.00e+00	0	30	0	28428992512	44	17181
2026-01-10 23:16:20.06	54.77	52.18	-10.8	-11.1	18.0	0.00e+00	0	29	0	28546433024	44	16755
2026-01-10 23:16:21.07	55.51	52.62	-10.8	-11.2	18.0	0.00e+00	0	29	0	28663873536	44	16888
2026-01-10 23:16:22.08	56.28	53.05	-10.5	-10.8	18.0	0.00e+00	0	29	0	28772925440	44	16235
2026-01-10 23:16:23.09	57.08	53.48	-10.6	-11.0	18.0	0.00e+00	0	30	0	28890365952	44	16444
2026-01-10 23:16:24.10	57.89	53.90	-10.3	-10.7	18.0	0.00e+00	0	29	0	28999417856	44	15985
2026-01-10 23:16:25.10	58.72	54.33	-10.3	-10.7	18.1	0.00e+00	0	30	0	29108469760	44	15915
2026-01-10 23:16:26.11	59.59	54.75	-10.2	-10.5	18.1	0.00e+00	0	30	0	29225910272	44	15668
2026-01-10 23:16:27.12	60.48	55.17	-10.1	-10.5	18.1	0.00e+00	0	30	0	29343350784	42	17501
2026-01-10 23:16:28.13	61.40	55.59	-10.2	-10.6	18.1	0.00e+00	0	30	0	29452402688	42	17655
2026-01-10 23:16:29.14	62.35	56.00	-10.1	-10.4	18.1	0.00e+00	0	30	0	29569843200	42	17396
2026-01-10 23:16:30.15	63.33	56.41	-10.0	-10.3	18.0	0.00e+00	0	30	0	29678895104	42	17148
2026-01-10 23:16:31.16	64.34	56.81	-10.0	-10.4	18.1	0.00e+00	0	30	0	29796335616	42	17249
2026-01-10 23:16:32.17	65.37	57.21	-9.8	-10.2	18.1	0.00e+00	0	30	0	29913776128	42	16819
2026-01-10 23:16:33.18	66.44	57.61	-9.9	-10.2	18.1	0.00e+00	0	30	0	30022828032	42	16990
2026-01-10 23:16:34.19	67.54	57.99	-9.8	-10.1	18.1	0.00e+00	0	30	0	30131879936	42	16778
2026-01-10 23:16:35.20	68.67	58.37	-9.8	-10.1	18.0	0.00e+00	0	30	0	30249320448	42	16754
2026-01-10 23:16:36.21	69.84	58.74	-9.6	-10.0	18.1	0.00e+00	0	30	0	30366760960	42	16477
2026-01-10 23:16:37.22	71.03	59.11	-9.6	-9.9	18.0	0.00e+00	0	30	0	30475812864	42	16406
2026-01-10 23:16:38.23	72.26	59.46	-9.7	-10.0	18.0	0.00e+00	0	30	0	30593253376	42	16587
2026-01-10 23:16:39.24	73.53	59.81	-9.5	-9.8	18.0	0.00e+00	0	29	0	30702305280	42	16205
2026-01-10 23:16:40.25	74.83	60.14	-9.5	-9.9	18.0	0.00e+00	0	29	0	30819745792	42	16337
2026-01-10 23:16:41.26	76.16	60.46	-9.5	-9.8	18.0	0.00e+00	0	29	0	30937186304	42	16155
2026-01-10 23:16:42.27	77.53	60.77	-9.6	-9.9	18.0	0.00e+00	0	30	0	31046238208	42	16369
2026-01-10 23:16:43.28	78.93	61.07	-9.3	-9.7	18.0	0.00e+00	0	30	0	31155290112	42	15935
2026-01-10 23:16:44.29	80.36	61.35	-9.5	-9.9	18.0	0.00e+00	0	30	0	31272730624	42	16253
2026-01-10 23:16:45.30	81.83	61.62	-9.3	-9.7	17.9	0.00e+00	0	30	0	31381782528	42	15962
2026-01-10 23:16:46.31	83.32	61.87	-9.5	-9.9	18.0	0.00e+00	0	30	0	31499223040	42	16261
2026-01-10 23:16:47.32	84.85	62.11	-9.5	-9.9	18.0	0.00e+00	0	30	0	31616663552	42	16330
2026-01-10 23:16:48.33	86.41	62.33	-9.5	-9.9	18.0	0.00e+00	0	30	0	31725715456	42	16295
2026-01-10 23:16:49.34	87.99	62.54	-9.5	-9.8	18.0	0.00e+00	0	30	0	31843155968	42	16154
2026-01-10 23:16:50.35	89.60	62.72	-9.5	-9.8	18.0	0.00e+00	0	30	0	31952207872	42	16158
2026-01-10 23:16:51.36	91.24	62.89	-9.5	-9.9	18.0	0.00e+00	0	30	0	32069648384	42	16337
2026-01-10 23:16:52.37	92.90	63.04	-9.5	-9.9	18.0	0.00e+00	0	30	0	32187088896	42	16328
2026-01-10 23:16:53.38	94.57	63.17	-9.5	-9.8	18.0	0.00e+00	0	30	0	32296140800	42	16196
2026-01-10 23:16:54.39	96.27	63.28	-9.4	-9.8	18.0	0.00e+00	0	30	0	32405192704	42	16103
2026-01-10 23:16:55.40	97.97	63.36	-9.4	-9.7	18.0	0.00e+00	0	30	0	32522633216	42	15982
2026-01-10 23:16:56.41	99.69	63.43	-9.3	-9.6	18.0	0.00e+00	0	30	0	32640073728	42	15843
2026-01-10 23:16:57.42	101.42	63.48	-9.1	-9.5	18.0	0.00e+00	0	30	0	32749125632	40	17444
2026-01-10 23:16:58.43	103.16	63.50	-9.3	-9.7	18.0	0.00e+00	0	30	0	32866566144	40	17859
2026-01-10 23:16:59.44	104.89	63.51	-9.2	-9.6	18.0	0.00e+00	0	30	0	32975618048	40	17711
2026-01-10 23:17:00.45	106.63	63.49	-9.2	-9.5	18.1	0.00e+00	0	30	0	33084669952	40	17588
2026-01-10 23:17:01.46	108.36	63.45	-9.2	-9.5	18.0	0.00e+00	0	30	0	33202110464	40	17554
2026-01-10 23:17:02.46	110.06	63.40	-9.3	-9.6	18.0	0.00e+00	0	30	0	33319550976	40	17772
2026-01-10 23:17:03.47	111.78	63.32	-9.2	-9.6	18.0	0.00e+00	0	30	0	33428602880	40	17626
2026-01-10 23:17:04.48	113.48	63.22	-9.3	-9.7	17.9	0.00e+00	0	30	0	33546043392	40	17897
2026-01-10 23:17:05.49	115.16	63.10	-9.3	-9.7	17.9	0.00e+00	0	30	0	33655095296	40	17812
2026-01-10 23:17:06.50	116.83	62.96	-9.2	-9.6	17.9	0.00e+00	0	30	0	33772535808	40	17723
2026-01-10 23:17:07.51	118.48	62.80	-9.3	-9.6	17.9	0.00e+00	0	30	0	33889976320	40	17801
2026-01-10 23:17:08.52	120.10	62.62	-9.3	-9.7	17.9	0.00e+00	0	30	0	33999028224	40	17850
2026-01-10 23:17:09.53	121.70	62.42	-9.4	-9.8	17.9	0.00e+00	0	30	0	34116468736	40	18130
2026-01-10 23:17:10.54	123.27	62.21	-9.3	-9.7	17.9	0.00e+00	0	30	0	34225520640	40	17910
2026-01-10 23:17:11.55	124.81	61.98	-9.5	-9.9	17.9	0.00e+00	0	30	0	34334572544	40	18306
2026-01-10 23:17:12.56	126.32	61.73	-9.4	-9.8	17.9	0.00e+00	0	30	0	34452013056	40	18045
2026-01-10 23:17:13.57	127.80	61.47	-9.4	-9.8	17.8	0.00e+00	0	30	0	34569453568	40	18141
2026-01-10 23:17:14.58	129.25	61.19	-9.4	-9.8	17.8	0.00e+00	0	30	0	34678505472	40	18061
2026-01-10 23:17:15.58	130.66	60.90	-9.5	-9.9	17.8	0.00e+00	0	30	0	34795945984	40	18340
2026-01-10 23:17:16.59	132.04	60.60	-9.6	-9.9	17.8	0.00e+00	0	30	0	34904997888	40	18387
2026-01-10 23:17:17.61	133.40	60.28	-9.5	-9.9	17.8	0.00e+00	0	30	0	35014049792	40	18263
2026-01-10 23:17:18.62	134.72	59.95	-9.6	-10.0	17.8	0.00e+00	0	30	0	35139878912	40	18464
2026-01-10 23:17:19.63	136.00	59.61	-9.5	-9.9	17.8	0.00e+00	0	30	0	35248930816	40	18273
2026-01-10 23:17:20.63	137.23	59.26	-9.5	-9.9	17.8	0.00e+00	0	30	0	35357982720	40	18324
2026-01-10 23:17:21.64	138.45	58.90	-9.6	-9.9	17.8	0.00e+00	0	30	0	35475423232	40	18402
2026-01-10 23:17:22.65	139.63	58.53	-9.6	-10.0	17.8	0.00e+00	0	30	0	35584475136	40	18554
2026-01-10 23:17:23.66	140.77	58.15	-9.7	-10.0	17.8	0.00e+00	0	30	0	35701915648	40	18561
2026-01-10 23:17:24.68	141.90	57.76	-9.7	-10.0	17.8	0.00e+00	0	30	0	35819356160	40	18581
2026-01-10 23:17:25.69	142.98	57.37	-9.7	-10.1	17.8	0.00e+00	0	30	0	35928408064	40	18688
2026-01-10 23:17:26.70	144.03	56.98	-9.8	-10.1	17.8	0.00e+00	0	30	0	36045848576	40	18811
2026-01-10 23:17:27.71	145.06	56.57	-9.8	-10.1	17.8	0.00e+00	0	30	0	36154900480	40	18852
2026-01-10 23:17:28.71	146.04	56.17	-9.9	-10.2	17.9	0.00e+00	0	30	0	36272340992	40	19068
2026-01-10 23:17:29.72	147.00	55.75	-9.9	-10.3	17.8	0.00e+00	0	30	0	36381392896	40	19129
2026-01-10 23:17:30.73	147.93	55.34	-10.0	-10.3	17.8	0.00e+00	0	30	0	36498833408	40	19264
2026-01-10 23:17:31.74	148.84	54.92	-10.0	-10.4	17.9	0.00e+00	0	30	0	36607885312	40	19358
2026-01-10 23:17:32.75	149.72	54.49	-10.0	-10.3	17.9	0.00e+00	0	30	0	36725325824	40	19278
2026-01-10 23:17:33.76	150.57	54.07	-10.1	-10.4	17.9	0.00e+00	0	30	0	36842766336	40	19421
2026-01-10 23:17:34.77	151.40	53.64	-10.2	-10.5	17.9	0.00e+00	0	30	0	36951818240	42	17543
2026-01-10 23:17:35.78	152.20	53.21	-10.2	-10.5	17.9	0.00e+00	0	30	0	37069258752	42	17518
2026-01-10 23:17:36.79	152.98	52.78	-10.3	-10.7	17.9	0.00e+00	0	30	0	37178310656	42	17858
2026-01-10 23:17:37.80	153.74	52.35	-10.3	-10.6	17.9	0.00e+00	0	30	0	37287362560	42	17775
2026-01-10 23:17:38.81	154.48	51.91	-10.3	-10.7	17.9	0.00e+00	0	30	0	37404803072	42	17877
2026-01-10 23:17:39.82	155.19	51.48	-10.5	-10.8	17.9	0.00e+00	0	30	0	37522243584	42	18150
2026-01-10 23:17:40.83	155.88	51.05	-10.5	-10.8	17.9	0.00e+00	0	30	0	37631295488	42	18217
2026-01-10 23:17:41.84	156.56	50.61	-10.6	-10.9	17.9	0.00e+00	0	30	0	37748736000	42	18320
2026-01-10 23:17:42.85	157.21	50.18	-10.7	-11.1	17.9	0.00e+00	0	30	0	37857787904	42	18656
2026-01-10 23:17:43.86	157.84	49.75	-10.7	-11.0	17.9	0.00e+00	0	30	0	37975228416	42	18587
2026-01-10 23:17:44.87	158.46	49.32	-10.8	-11.1	17.9	0.00e+00	0	30	0	38092668928	42	18766
2026-01-10 23:17:45.87	159.05	48.89	-48.0	-50.5	6.1	0.00e+00	0	30	104	38159777792	60	40910
2026-01-10 23:17:46.88	159.64	48.46	-48.0	-50.5	6.1	0.00e+00	0	30	104	38159777792	60	40981
2026-01-10 23:17:47.89	160.20	48.04	-48.0	-50.5	6.1	0.00e+00	0	30	104	38159777792	60	41075
2026-01-10 23:17:48.90	160.75	47.61	-48.0	-50.5	6.1	0.00e+00	0	30	104	38159777792	60	41066
2026-01-10 23:17:49.91	161.29	47.19	-48.0	-50.5	6.1	0.00e+00	0	30	104	38159777792	60	41076
2026-01-10 23:17:50.92	161.81	46.77	-48.0	-50.5	6.1	0.00e+00	0	30	104	38159777792	60	41066
2026-01-10 23:17:51.93	162.32	46.35	-48.0	-50.5	6.1	0.00e+00	0	30	104	38159777792	60	41248
2026-01-10 23:17:52.94	162.81	45.94	-48.0	-50.4	6.1	0.00e+00	0	30	104	38159777792	60	40734
2026-01-10 23:17:53.96	163.30	45.52	-48.0	-50.5	6.1	0.00e+00	0	30	104	38159777792	60	40988
2026-01-10 23:17:54.97	163.77	45.11	-48.0	-50.5	6.1	0.00e+00	0	30	104	38159777792	60	40876
2026-01-10 23:17:55.98	164.22	44.70	-48.0	-50.5	6.1	0.00e+00	0	30	104	38159777792	60	41026
2026-01-10 23:17:56.99	164.67	44.30	-48.0	-50.5	6.1	0.00e+00	0	30	104	38159777792	60	41161
2026-01-10 23:17:58.00	165.10	43.89	-47.9	-50.4	6.1	0.00e+00	0	30	104	38159777792	60	40661
2026-01-10 23:17:59.01	165.52	43.50	-48.0	-50.5	6.1	0.00e+00	0	30	104	38159777792	60	40941
2026-01-10 23:18:00.01	165.93	43.10	-48.0	-50.5	6.1	0.00e+00	0	30	104	38159777792	60	40919
2026-01-10 23:18:01.02	166.33	42.71	-47.8	-50.4	6.1	0.00e+00	0	30	104	38159777792	60	40493
2026-01-10 23:18:02.03	166.72	42.32	-47.7	-50.3	6.1	0.00e+00	0	30	104	38159777792	60	40001
2026-01-10 23:18:03.04	167.10	41.93	-47.8	-50.3	6.1	0.00e+00	0	30	104	38159777792	60	40228
2026-01-10 23:18:04.05	167.47	41.55	-47.9	-50.4	6.1	0.00e+00	0	30	104	38159777792	60	40529
2026-01-10 23:18:05.06	167.84	41.17	-47.5	-50.1	6.1	0.00e+00	0	30	104	38159777792	60	38957
2026-01-10 23:18:06.07	168.19	40.79	-47.6	-50.1	6.1	0.00e+00	0	30	104	38159777792	60	39405
2026-01-10 23:18:07.08	168.54	40.42	-47.6	-50.1	6.1	0.00e+00	0	30	104	38159777792	60	39383
2026-01-10 23:18:08.09	168.87	40.05	-47.7	-50.3	6.1	0.00e+00	0	30	104	38159777792	60	39989
2026-01-10 23:18:09.10	169.20	39.68	-47.8	-50.3	6.1	0.00e+00	0	30	104	38159777792	60	40217
2026-01-10 23:18:10.11	169.53	39.32	-47.8	-50.3	6.1	0.00e+00	0	30	104	38159777792	60	40053
2026-01-10 23:18:11.12	169.84	38.96	-47.8	-50.4	6.1	0.00e+00	0	30	104	38159777792	60	40426
2026-01-10 23:18:12.12	170.15	38.61	-47.9	-50.4	6.1	0.00e+00	0	30	104	38159777792	60	40478
2026-01-10 23:18:13.13	170.45	38.25	-48.0	-50.4	6.1	0.00e+00	0	30	104	38159777792	60	40711
2026-01-10 23:18:14.14	170.74	37.90	-47.9	-50.4	6.1	0.00e+00	0	30	104	38159777792	60	40768
2026-01-10 23:18:15.15	171.03	37.55	-48.0	-50.5	6.1	0.00e+00	0	30	104	38159777792	60	40935
2026-01-10 23:18:16.16	171.31	37.21	-48.0	-50.5	6.1	0.00e+00	0	30	104	38159777792	60	40922
2026-01-10 23:18:17.17	171.59	36.87	-48.0	-50.5	6.1	0.00e+00	0	30	104	38159777792	60	41034
2026-01-10 23:18:18.18	171.86	36.53	-48.0	-50.4	6.1	0.00e+00	0	30	104	38159777792	60	40666
2026-01-10 23:18:19.19	172.13	36.20	-48.0	-50.5	6.1	0.00e+00	0	30	104	38159777792	60	41069
2026-01-10 23:18:20.20	172.38	35.87	-48.0	-50.5	6.1	0.00e+00	0	30	104	38159777792	60	40888
2026-01-10 23:18:21.21	172.64	35.54	-47.9	-50.4	6.1	0.00e+00	0	30	104	38159777792	60	40611
2026-01-10 23:18:22.22	172.89	35.22	-47.8	-50.3	6.1	0.00e+00	0	30	104	38159777792	60	40277
2026-01-10 23:18:23.23	173.13	34.90	-47.9	-50.4	6.0	0.00e+00	0	30	104	38159777792	60	40606
2026-01-10 23:18:24.24	173.37	34.58	-47.9	-50.4	6.1	0.00e+00	0	30	104	38159777792	60	40507
2026-01-10 23:18:25.25	173.60	34.27	-47.8	-50.3	6.1	0.00e+00	0	30	104	38159777792	60	40088
2026-01-10 23:18:26.26	173.83	33.96	-47.7	-50.2	6.1	0.00e+00	0	30	104	38159777792	60	39817
2026-01-10 23:18:27.27	174.06	33.65	-48.0	-50.5	6.1	0.00e+00	0	30	104	38159777792	60	40900
2026-01-10 23:18:28.28	174.28	33.34	-47.7	-50.3	6.1	0.00e+00	0	30	104	38159777792	60	39920
2026-01-10 23:18:29.29	174.49	33.04	-47.6	-50.1	6.1	0.00e+00	0	30	104	38159777792	60	39277
2026-01-10 23:18:30.30	174.70	32.74	-47.6	-50.2	6.1	0.00e+00	0	30	104	38159777792	60	39597
2026-01-10 23:18:31.31	174.91	32.45	-47.6	-50.2	6.1	0.00e+00	0	30	104	38159777792	60	39683
2026-01-10 23:18:32.32	175.11	32.16	-47.5	-50.1	6.1	0.00e+00	0	30	104	38159777792	60	39037
2026-01-10 23:18:33.33	175.31	31.87	-47.8	-50.3	6.1	0.00e+00	0	30	104	38159777792	60	39994
2026-01-10 23:18:34.34	175.51	31.58	-47.8	-50.3	6.1	0.00e+00	0	30	104	38159777792	60	40256
2026-01-10 23:18:35.35	175.70	31.30	-47.8	-50.4	6.1	0.00e+00	0	30	104	38159777792	60	40348
2026-01-10 23:18:36.35	175.89	31.02	-47.8	-50.3	6.1	0.00e+00	0	30	104	38159777792	60	39967
2026-01-10 23:18:37.36	176.08	30.74	-47.9	-50.4	6.1	0.00e+00	0	30	104	38159777792	60	40653
2026-01-10 23:18:38.38	176.26	30.46	-48.0	-50.5	6.1	0.00e+00	0	30	104	38159777792	60	40852
2026-01-10 23:18:39.39	176.44	30.19	-47.8	-50.3	6.1	0.00e+00	0	30	104	38159777792	60	40221
2026-01-10 23:18:40.39	176.62	29.92	-47.9	-50.4	6.1	0.00e+00	0	30	104	38159777792	60	40436
2026-01-10 23:18:41.40	176.79	29.66	-48.0	-50.5	6.1	0.00e+00	0	30	104	38159777792	60	40899
2026-01-10 23:18:42.42	176.96	29.39	-48.0	-50.4	6.1	0.00e+00	0	30	104	38159777792	60	40773
2026-01-10 23:18:43.42	177.13	29.13	-48.0	-50.5	6.1	0.00e+00	0	30	104	38159777792	60	41043
2026-01-10 23:18:44.43	177.29	28.87	-47.9	-50.4	6.1	0.00e+00	0	30	104	38159777792	60	40709
2026-01-10 23:18:45.44	177.45	28.61	-48.0	-50.4	6.1	0.00e+00	0	30	104	38159777792	60	40754
2026-01-10 23:18:46.45	177.61	28.36	-47.9	-50.4	6.1	0.00e+00	0	30	104	38159777792	60	40669
2026-01-10 23:18:47.46	177.77	28.11	-47.9	-50.4	6.1	0.00e+00	0	30	104	38159777792	60	40655
2026-01-10 23:18:48.47	177.92	27.86	-48.0	-50.5	6.1	0.00e+00	0	30	104	38159777792	60	40933
2026-01-10 23:18:49.48	178.07	27.61	-47.8	-50.3	6.1	0.00e+00	0	30	104	38159777792	60	40312
2026-01-10 23:18:50.49	178.22	27.37	-47.8	-50.3	6.1	0.00e+00	0	30	104	38159777792	60	40183
2026-01-10 23:18:51.50	178.37	27.13	-47.9	-50.5	6.1	0.00e+00	0	30	104	38159777792	60	40970
2026-01-10 23:18:52.51	178.51	26.89	-47.9	-50.4	6.1	0.00e+00	0	30	104	38159777792	60	40425
2026-01-10 23:18:53.52	178.65	26.65	-47.7	-50.3	6.1	0.00e+00	0	30	104	38159777792	60	39987
2026-01-10 23:18:54.53	178.79	26.42	-47.7	-50.2	6.1	0.00e+00	0	30	104	38159777792	60	39673
2026-01-10 23:18:55.54	178.93	26.19	-47.8	-50.3	6.1	0.00e+00	0	30	104	38159777792	60	40123
2026-01-10 23:18:56.55	179.07	25.96	-47.7	-50.2	6.1	0.00e+00	0	30	104	38159777792	60	39804
2026-01-10 23:18:57.55	179.20	25.73	-47.7	-50.2	6.1	0.00e+00	0	30	104	38159777792	60	39638
2026-01-10 23:18:58.56	179.33	25.50	-47.7	-50.2	6.1	0.00e+00	0	30	104	38159777792	60	39482
2026-01-10 23:18:59.57	179.46	25.28	-47.7	-50.2	6.1	0.00e+00	0	30	104	38159777792	60	39756
2026-01-10 23:19:00.58	179.59	25.06	-47.4	-50.0	6.1	0.00e+00	0	30	104	38159777792	60	38916
2026-01-10 23:19:01.59	179.71	24.84	-47.6	-50.1	6.1	0.00e+00	0	30	104	38159777792	60	39386
2026-01-10 23:19:02.60	179.84	24.62	-47.6	-50.2	6.1	0.00e+00	0	30	104	38159777792	60	39477
2026-01-10 23:19:03.61	179.96	24.41	-47.5	-50.1	6.0	0.00e+00	0	30	104	38159777792	60	39165
2026-01-10 23:19:04.62	180.08	24.19	-47.4	-50.0	6.1	0.00e+00	0	30	104	38159777792	60	38778
2026-01-10 23:19:05.63	180.20	23.98	-47.6	-50.1	6.1	0.00e+00	0	30	104	38159777792	60	39278
2026-01-10 23:19:06.64	180.31	23.77	-47.7	-50.2	6.1	0.00e+00	0	30	104	38159777792	60	39587
2026-01-10 23:19:07.65	180.43	23.57	-47.5	-50.1	6.1	0.00e+00	0	30	104	38159777792	60	39036
2026-01-10 23:19:08.66	180.54	23.36	-47.5	-50.1	6.1	0.00e+00	0	30	104	38159777792	60	39074
2026-01-10 23:19:09.67	180.65	23.16	-47.4	-50.0	6.1	0.00e+00	0	30	104	38159777792	60	38952
2026-01-10 23:19:10.68	180.76	22.96	-47.5	-50.0	6.1	0.00e+00	0	30	104	38159777792	60	38840
2026-01-10 23:19:11.69	180.87	22.76	-47.5	-50.0	6.1	0.00e+00	0	30	104	38159777792	60	38757
2026-01-10 23:19:12.70	180.98	22.56	-47.5	-50.0	6.1	0.00e+00	0	30	104	38159777792	60	38808
2026-01-10 23:19:13.71	181.08	22.36	-47.4	-50.0	6.1	0.00e+00	0	30	104	38159777792	60	38564
2026-01-10 23:19:14.72	181.19	22.17	-47.5	-50.0	6.1	0.00e+00	0	30	104	38159777792	60	38844
2026-01-10 23:19:15.73	181.29	21.97	-47.5	-50.0	6.1	0.00e+00	0	30	104	38159777792	60	38790
2026-01-10 23:19:16.73	181.39	21.78	-47.6	-50.2	6.1	0.00e+00	0	30	104	38159777792	60	39560
2026-01-10 23:19:17.74	181.49	21.60	-47.4	-50.0	6.1	0.00e+00	0	30	104	38159777792	60	38873
2026-01-10 23:19:18.75	181.59	21.41	-47.5	-50.1	6.1	0.00e+00	0	30	104	38159777792	60	39014
2026-01-10 23:19:19.76	181.69	21.22	-47.5	-50.1	6.1	0.00e+00	0	30	104	38159777792	60	38979
2026-01-10 23:19:20.77	181.79	21.04	-47.4	-50.0	6.1	0.00e+00	0	30	104	38159777792	60	38790
2026-01-10 23:19:21.78	181.88	20.85	-47.6	-50.1	6.1	0.00e+00	0	30	104	38159777792	60	39121
2026-01-10 23:19:22.79	181.97	20.67	-47.6	-50.1	6.1	0.00e+00	0	30	104	38159777792	60	39237
2026-01-10 23:19:23.80	182.07	20.49	-47.6	-50.1	6.1	0.00e+00	0	30	104	38159777792	60	39334
2026-01-10 23:19:24.81	182.16	20.32	-47.6	-50.1	6.1	0.00e+00	0	30	104	38159777792	60	39331
2026-01-10 23:19:25.82	182.25	20.14	-47.5	-50.1	6.1	0.00e+00	0	30	104	38159777792	60	38999
2026-01-10 23:19:26.83	182.34	19.96	-47.6	-50.1	6.1	0.00e+00	0	30	104	38159777792	60	39355
2026-01-10 23:19:27.83	182.43	19.79	-47.6	-50.1	6.1	0.00e+00	0	31	104	38159777792	60	39092
2026-01-10 23:19:28.84	182.51	19.62	-47.7	-50.2	6.1	0.00e+00	0	30	104	38159777792	60	39615
2026-01-10 23:19:29.86	182.60	19.45	-47.5	-50.0	6.1	0.00e+00	0	30	104	38159777792	60	38854
2026-01-10 23:19:30.86	182.68	19.28	-47.5	-50.1	6.1	0.00e+00	0	30	104	38159777792	60	39036
2026-01-10 23:19:31.87	182.77	19.11	-47.5	-50.0	6.1	0.00e+00	0	30	104	38159777792	60	38897
2026-01-10 23:19:32.88	182.85	18.94	-47.5	-50.0	6.1	0.00e+00	0	30	104	38159777792	60	38932
2026-01-10 23:19:33.89	182.93	18.78	-47.5	-50.0	6.1	0.00e+00	0	30	104	38159777792	60	38829
2026-01-10 23:19:34.90	183.01	18.61	-47.5	-50.1	6.1	0.00e+00	0	30	104	38159777792	60	39016
2026-01-10 23:19:35.91	183.09	18.45	-47.6	-50.1	6.1	0.00e+00	0	31	104	38159777792	60	39262
2026-01-10 23:19:36.92	183.17	18.29	-47.4	-50.0	6.1	0.00e+00	0	30	104	38159777792	60	38679
2026-01-10 23:19:37.93	183.25	18.13	-47.3	-49.8	6.1	0.00e+00	0	30	104	38159777792	60	38047
2026-01-10 23:19:38.94	183.33	17.97	-47.4	-50.0	6.1	0.00e+00	0	30	104	38159777792	60	38536
2026-01-10 23:19:39.95	183.41	17.81	-47.4	-50.0	6.1	0.00e+00	0	30	104	38159777792	60	38562
2026-01-10 23:19:40.96	183.48	17.66	-47.3	-49.8	6.1	0.00e+00	0	30	104	38159777792	60	38003
2026-01-10 23:19:41.97	183.56	17.50	-47.3	-49.9	6.1	0.00e+00	0	31	104	38159777792	60	38270
2026-01-10 23:19:42.98	183.63	17.35	-47.3	-49.9	6.1	0.00e+00	0	31	104	38159777792	60	38255
2026-01-10 23:19:43.99	183.70	17.20	-47.3	-49.9	6.1	0.00e+00	0	31	104	38159777792	60	38172
2026-01-10 23:19:45.00	183.78	17.04	-47.3	-49.9	6.1	0.00e+00	0	30	104	38159777792	60	38299
2026-01-10 23:19:46.01	183.85	16.89	-47.3	-49.8	6.1	0.00e+00	0	31	104	38159777792	60	38038
2026-01-10 23:19:47.02	183.92	16.74	-47.4	-50.0	6.1	0.00e+00	0	31	104	38159777792	60	38582
2026-01-10 23:19:48.03	183.99	16.60	-47.4	-50.0	6.1	0.00e+00	0	31	104	38159777792	60	38542
2026-01-10 23:19:49.04	184.06	16.45	-47.3	-49.9	6.1	0.00e+00	0	30	104	38159777792	60	38476
2026-01-10 23:19:50.05	184.13	16.30	-47.2	-49.8	6.1	0.00e+00	0	31	104	38159777792	60	37657
2026-01-10 23:19:51.06	184.19	16.16	-47.3	-49.9	6.1	0.00e+00	0	31	104	38159777792	60	38234
2026-01-10 23:19:52.07	184.26	16.01	-47.1	-49.6	6.1	0.00e+00	0	31	104	38159777792	60	37164
2026-01-10 23:19:53.08	184.33	15.87	-47.3	-49.9	6.1	0.00e+00	0	31	104	38159777792	60	38432
2026-01-10 23:19:54.09	184.39	15.73	-47.2	-49.8	6.1	0.00e+00	0	30	104	38159777792	60	38067
2026-01-10 23:19:55.10	184.46	15.59	-47.1	-49.8	6.1	0.00e+00	0	31	104	38159777792	60	37686
2026-01-10 23:19:56.10	184.52	15.45	-47.4	-49.9	6.1	0.00e+00	0	31	104	38159777792	60	38234
2026-01-10 23:19:57.11	184.59	15.31	-47.2	-49.8	6.1	0.00e+00	0	31	104	38159777792	60	37861
2026-01-10 23:19:58.12	184.65	15.17	-47.3	-49.9	6.1	0.00e+00	0	31	104	38159777792	60	38146
2026-01-10 23:19:59.13	184.71	15.04	-47.4	-50.0	6.1	0.00e+00	0	31	104	38159777792	60	38684
2026-01-10 23:20:00.14	184.77	14.90	-47.3	-49.9	6.1	0.00e+00	0	31	104	38159777792	60	38139
2026-01-10 23:20:01.15	184.83	14.77	-47.1	-49.7	6.1	0.00e+00	0	31	104	38159777792	60	37485
2026-01-10 23:20:02.16	184.90	14.63	-47.0	-49.6	6.1	0.00e+00	0	31	104	38159777792	60	37028
2026-01-10 23:20:03.17	184.95	14.50	-47.0	-49.6	6.1	0.00e+00	0	31	104	38159777792	60	37098
2026-01-10 23:20:04.18	185.01	14.37	-47.1	-49.7	6.1	0.00e+00	0	31	104	38159777792	60	37413
2026-01-10 23:20:05.19	185.07	14.24	-46.9	-49.6	6.1	0.00e+00	0	31	104	38159777792	60	36840
2026-01-10 23:20:06.20	185.13	14.11	-47.0	-49.6	6.1	0.00e+00	0	31	104	38159777792	60	36904
2026-01-10 23:20:07.21	185.19	13.98	-47.2	-49.8	6.1	0.00e+00	0	31	104	38159777792	60	37907
2026-01-10 23:20:08.22	185.25	13.85	-47.3	-49.8	6.1	0.00e+00	0	31	104	38159777792	60	37919
2026-01-10 23:20:09.22	185.30	13.72	-47.0	-49.6	6.1	0.00e+00	0	31	104	38159777792	60	37096
2026-01-10 23:20:10.24	185.36	13.59	-46.9	-49.4	6.1	0.00e+00	0	31	104	38159777792	60	36316
2026-01-10 23:20:11.24	185.41	13.47	-47.2	-49.7	6.1	0.00e+00	0	31	104	38159777792	60	37625
2026-01-10 23:20:12.25	185.47	13.34	-46.9	-49.6	6.1	0.00e+00	0	31	104	38159777792	60	36856
2026-01-10 23:20:13.26	185.52	13.22	-47.0	-49.6	6.1	0.00e+00	0	31	104	38159777792	60	36935
2026-01-10 23:20:14.27	185.58	13.10	-47.0	-49.6	6.1	0.00e+00	0	31	104	38159777792	60	37016
2026-01-10 23:20:15.28	185.63	12.97	-47.0	-49.6	6.1	0.00e+00	0	31	104	38159777792	60	37128
2026-01-10 23:20:16.29	185.68	12.85	-46.9	-49.5	6.1	0.00e+00	0	31	104	38159777792	60	36764
2026-01-10 23:20:17.30	185.74	12.73	-47.0	-49.6	6.1	0.00e+00	0	31	104	38159777792	60	36879
2026-01-10 23:20:18.31	185.79	12.61	-46.5	-49.1	6.1	0.00e+00	0	31	104	38159777792	60	35057
2026-01-10 23:20:19.32	185.84	12.49	-47.1	-49.7	6.1	0.00e+00	0	31	104	38159777792	60	37292
2026-01-10 23:20:20.33	185.89	12.37	-46.6	-49.3	6.1	0.00e+00	0	31	104	38159777792	60	35641
2026-01-10 23:20:21.34	185.94	12.25	-46.4	-49.1	6.1	0.00e+00	0	31	104	38159777792	60	34965
2026-01-10 23:20:22.35	185.99	12.14	-46.5	-49.2	6.1	0.00e+00	0	31	104	38159777792	60	35301
2026-01-10 23:20:23.36	186.04	12.02	-46.5	-49.2	6.1	0.00e+00	0	31	104	38159777792	60	35444
2026-01-10 23:20:24.37	186.09	11.90	-46.3	-49.0	6.1	0.00e+00	0	31	104	38159777792	60	34619
2026-01-10 23:20:25.38	186.14	11.79	-46.3	-49.0	6.1	0.00e+00	0	31	104	38159777792	60	34396
2026-01-10 23:20:26.39	186.19	11.67	-46.3	-48.9	6.1	0.00e+00	0	31	104	38159777792	60	34304
2026-01-10 23:20:27.40	186.24	11.56	-46.1	-48.8	6.1	0.00e+00	0	31	104	38159777792	60	33898
2026-01-10 23:20:28.41	186.28	11.45	-46.7	-49.4	6.1	0.00e+00	0	31	104	38159777792	60	36030
2026-01-10 23:20:29.41	186.33	11.33	-46.3	-49.0	6.1	0.00e+00	0	31	104	38159777792	60	34345
2026-01-10 23:20:30.43	186.38	11.22	-46.3	-49.0	6.1	0.00e+00	0	31	104	38159777792	60	34657
2026-01-10 23:20:31.44	186.42	11.11	-46.6	-49.3	6.1	0.00e+00	0	31	104	38159777792	60	35773
2026-01-10 23:20:32.44	186.47	11.00	-46.7	-49.4	6.1	0.00e+00	0	31	104	38159777792	60	35999
2026-01-10 23:20:33.45	186.51	10.89	-46.4	-49.2	6.1	0.00e+00	0	31	104	38159777792	60	35129
2026-01-10 23:20:34.46	186.56	10.78	-46.5	-49.2	6.1	0.00e+00	0	31	104	38159777792	60	35239
2026-01-10 23:20:35.47	186.61	10.67	-46.4	-49.1	6.1	0.00e+00	0	31	104	38159777792	60	34995
2026-01-10 23:20:36.48	186.65	10.56	-46.2	-48.9	6.1	0.00e+00	0	31	104	38159777792	60	34316
2026-01-10 23:20:37.49	186.69	10.46	-46.9	-49.5	6.1	0.00e+00	0	31	104	38159777792	60	36457
2026-01-10 23:20:38.50	186.74	10.35	-46.8	-49.4	6.1	0.00e+00	0	31	104	38159777792	60	36159
2026-01-10 23:20:39.51	186.78	10.24	-46.8	-49.4	6.1	0.00e+00	0	31	104	38159777792	60	36083
2026-01-10 23:20:40.52	186.82	10.14	-46.7	-49.4	6.1	0.00e+00	0	31	104	38159777792	60	36014
2026-01-10 23:20:41.53	186.87	10.03	-46.3	-49.0	6.1	0.00e+00	0	31	104	38159777792	60	34684
2026-01-10 23:20:42.54	186.91	9.93	-46.7	-49.3	6.1	0.00e+00	0	31	104	38159777792	60	35841
2026-01-10 23:20:43.55	186.95	9.82	-46.7	-49.3	6.1	0.00e+00	0	31	104	38159777792	60	35859
2026-01-10 23:20:44.56	186.99	9.72	-46.4	-49.1	6.1	0.00e+00	0	31	104	38159777792	60	34957
2026-01-10 23:20:45.57	187.03	9.62	-46.6	-49.3	6.1	0.00e+00	0	31	104	38159777792	60	35712
2026-01-10 23:20:46.58	187.08	9.52	-46.7	-49.4	6.1	0.00e+00	0	31	104	38159777792	60	35973
2026-01-10 23:20:47.59	187.12	9.41	-46.8	-49.3	6.1	0.00e+00	0	31	104	38159777792	60	35863
2026-01-10 23:20:48.60	187.16	9.31	-46.7	-49.4	6.1	0.00e+00	0	31	104	38159777792	60	35984
2026-01-10 23:20:49.61	187.20	9.21	-46.5	-49.1	6.1	0.00e+00	0	31	104	38159777792	60	34953
2026-01-10 23:20:50.62	187.24	9.11	-46.7	-49.3	6.1	0.00e+00	0	31	104	38159777792	60	35912
2026-01-10 23:20:51.63	187.28	9.01	-47.1	-49.6	6.1	0.00e+00	0	31	104	38159777792	60	37046
2026-01-10 23:20:52.63	187.31	8.91	-46.8	-49.4	6.1	0.00e+00	0	31	104	38159777792	60	36125
2026-01-10 23:20:53.64	187.35	8.82	-46.5	-49.1	6.1	0.00e+00	0	31	104	38159777792	60	34752
2026-01-10 23:20:54.65	187.39	8.72	-46.7	-49.3	6.1	0.00e+00	0	31	104	38159777792	60	35667
2026-01-10 23:20:55.66	187.43	8.62	-46.7	-49.4	6.1	0.00e+00	0	31	104	38159777792	60	35943
2026-01-10 23:20:56.67	187.47	8.52	-46.6	-49.2	6.1	0.00e+00	0	31	104	38159777792	60	35509
2026-01-10 23:20:57.68	187.51	8.43	-46.6	-49.2	6.1	0.00e+00	0	31	104	38159777792	60	35371
2026-01-10 23:20:58.69	187.54	8.33	-46.8	-49.4	6.1	0.00e+00	0	31	104	38159777792	60	36144
2026-01-10 23:20:59.70	187.58	8.23	-47.0	-49.6	6.1	0.00e+00	0	31	104	38159777792	60	36840
2026-01-10 23:21:00.71	187.62	8.14	-47.0	-49.6	6.1	0.00e+00	0	31	104	38159777792	60	36793
2026-01-10 23:21:01.72	187.66	8.04	-46.7	-49.3	6.1	0.00e+00	0	31	104	38159777792	60	35813
2026-01-10 23:21:02.73	187.69	7.95	-46.9	-49.5	6.1	0.00e+00	0	31	104	38159777792	60	36442
2026-01-10 23:21:03.74	187.73	7.86	-47.0	-49.5	6.1	0.00e+00	0	31	104	38159777792	60	36649
2026-01-10 23:21:04.75	187.76	7.76	-46.7	-49.3	6.1	0.00e+00	0	31	104	38159777792	60	35866
2026-01-10 23:21:05.76	187.80	7.67	-46.8	-49.4	6.1	0.00e+00	0	31	104	38159777792	60	36144
2026-01-10 23:21:06.77	187.83	7.58	-46.5	-49.1	6.1	0.00e+00	0	31	104	38159777792	60	35048
2026-01-10 23:21:07.78	187.87	7.49	-46.5	-49.1	6.1	0.00e+00	0	31	104	38159777792	60	34991
2026-01-10 23:21:08.80	187.90	7.39	-46.4	-49.0	6.1	0.00e+00	0	31	104	38159777792	60	34642
2026-01-10 23:21:09.81	187.94	7.30	-46.4	-49.0	6.1	0.00e+00	0	31	104	38159777792	60	34587
2026-01-10 23:21:10.82	187.97	7.21	-46.3	-48.9	6.1	0.00e+00	0	31	104	38159777792	60	34175
2026-01-10 23:21:11.82	188.01	7.12	-46.4	-49.0	6.1	0.00e+00	0	31	104	38159777792	60	34651
2026-01-10 23:21:12.83	188.04	7.03	-46.3	-49.0	6.1	0.00e+00	0	31	104	38159777792	60	34379
2026-01-10 23:21:13.84	188.08	6.94	-46.3	-49.0	6.1	0.00e+00	0	31	104	38159777792	60	34377
2026-01-10 23:21:14.85	188.11	6.85	-46.5	-49.1	6.1	0.00e+00	0	31	104	38159777792	60	35085
2026-01-10 23:21:15.86	188.14	6.76	-46.3	-49.0	6.1	0.00e+00	0	31	104	38159777792	60	34514
2026-01-10 23:21:16.87	188.18	6.68	-46.5	-49.1	6.1	0.00e+00	0	31	104	38159777792	60	34992
2026-01-10 23:21:17.88	188.21	6.59	-46.6	-49.2	6.1	0.00e+00	0	31	104	38159777792	60	35168
2026-01-10 23:21:18.89	188.24	6.50	-46.5	-49.1	6.1	0.00e+00	0	31	104	38159777792	60	35023
2026-01-10 23:21:19.90	188.27	6.41	-46.5	-49.2	6.1	0.00e+00	0	31	104	38159777792	60	35179
2026-01-10 23:21:20.91	188.31	6.33	-46.4	-49.0	6.1	0.00e+00	0	31	104	38159777792	60	34644
2026-01-10 23:21:21.92	188.34	6.24	-46.6	-49.2	6.1	0.00e+00	0	31	104	38159777792	60	35213
2026-01-10 23:21:22.93	188.37	6.15	-46.4	-49.0	6.1	0.00e+00	0	31	104	38159777792	60	34622
2026-01-10 23:21:23.94	188.40	6.07	-46.4	-49.1	6.1	0.00e+00	0	31	104	38159777792	60	34802
2026-01-10 23:21:24.94	188.43	5.98	-46.3	-48.9	6.1	0.00e+00	0	31	104	38159777792	60	34207
2026-01-10 23:21:25.96	188.46	5.90	-46.4	-49.0	6.1	0.00e+00	0	31	104	38159777792	60	34707
2026-01-10 23:21:26.97	188.49	5.81	-46.3	-48.9	6.1	0.00e+00	0	31	104	38159777792	60	34221
2026-01-10 23:21:27.97	188.52	5.73	-46.0	-48.7	6.1	0.00e+00	0	31	104	38159777792	60	33404
2026-01-10 23:21:28.98	188.55	5.65	-46.6	-49.2	6.1	0.00e+00	0	31	104	38159777792	60	35288
2026-01-10 23:21:29.99	188.58	5.56	-46.2	-48.8	6.1	0.00e+00	0	31	104	38159777792	60	33676
2026-01-10 23:21:31.00	188.61	5.48	-46.6	-49.2	6.1	0.00e+00	0	31	104	38159777792	60	35176
2026-01-10 23:21:32.01	188.64	5.40	-46.6	-49.2	6.1	0.00e+00	0	31	104	38159777792	60	35138
2026-01-10 23:21:33.02	188.67	5.31	-46.8	-49.3	6.1	0.00e+00	0	31	104	38159777792	60	35790
2026-01-10 23:21:34.03	188.70	5.23	-46.4	-49.0	6.1	0.00e+00	0	31	104	38159777792	60	34688
2026-01-10 23:21:35.04	188.73	5.15	-46.7	-49.2	6.1	0.00e+00	0	31	104	38159777792	60	35361
2026-01-10 23:21:36.05	188.76	5.07	-46.7	-49.3	6.1	0.00e+00	0	31	104	38159777792	60	35643
2026-01-10 23:21:37.06	188.79	4.99	-46.7	-49.2	6.1	0.00e+00	0	31	104	38159777792	60	35502
2026-01-10 23:21:38.07	188.82	4.91	-46.6	-49.2	6.1	0.00e+00	0	31	104	38159777792	60	35308
2026-01-10 23:21:39.08	188.85	4.83	-46.9	-49.4	6.1	0.00e+00	0	31	104	38159777792	60	36112
2026-01-10 23:21:40.08	188.88	4.75	-46.9	-49.4	6.1	0.00e+00	0	31	104	38159777792	60	36003
2026-01-10 23:21:41.09	188.91	4.67	-46.7	-49.2	6.1	0.00e+00	0	31	104	38159777792	60	35480
2026-01-10 23:21:42.10	188.93	4.59	-46.8	-49.4	6.1	0.00e+00	0	31	104	38159777792	60	35991
2026-01-10 23:21:43.11	188.96	4.51	-46.9	-49.4	6.1	0.00e+00	0	31	104	38159777792	60	36009
2026-01-10 23:21:44.12	188.99	4.43	-46.8	-49.3	6.1	0.00e+00	0	31	104	38159777792	60	35827
2026-01-10 23:21:45.13	189.02	4.35	-46.6	-49.1	6.1	0.00e+00	0	31	104	38159777792	60	34873
2026-01-10 23:21:46.14	189.04	4.27	-46.8	-49.3	6.1	0.00e+00	0	31	104	38159777792	60	35754
2026-01-10 23:21:47.15	189.07	4.20	-46.8	-49.3	6.1	0.00e+00	0	31	104	38159777792	60	35586
2026-01-10 23:21:48.16	189.10	4.12	-46.8	-49.3	6.1	0.00e+00	0	31	104	38159777792	60	35798
2026-01-10 23:21:49.17	189.13	4.04	-46.4	-48.9	6.1	0.00e+00	0	31	104	38159777792	60	34277
2026-01-10 23:21:50.18	189.15	3.96	-46.8	-49.3	6.1	0.00e+00	0	31	104	38159777792	60	35764
2026-01-10 23:21:51.19	189.18	3.89	-46.6	-49.1	6.1	0.00e+00	0	31	104	38159777792	60	35077
2026-01-10 23:21:52.20	189.21	3.81	-46.8	-49.2	6.1	0.00e+00	0	31	104	38159777792	60	35416
2026-01-10 23:21:53.21	189.23	3.73	-46.4	-48.9	6.1	0.00e+00	0	31	104	38159777792	60	34023
2026-01-10 23:21:54.22	189.26	3.66	-46.7	-49.3	6.1	0.00e+00	0	31	104	38159777792	60	35631
2026-01-10 23:21:55.23	189.29	3.58	-46.6	-49.1	6.1	0.00e+00	0	31	104	38159777792	60	34927
2026-01-10 23:21:56.23	189.31	3.51	-46.7	-49.2	6.1	0.00e+00	0	31	104	38159777792	60	35182
2026-01-10 23:21:57.24	189.34	3.43	-46.4	-48.9	6.1	0.00e+00	0	31	104	38159777792	60	33991
2026-01-10 23:21:58.25	189.36	3.36	-46.7	-49.2	6.1	0.00e+00	0	31	104	38159777792	60	35245
2026-01-10 23:21:59.26	189.39	3.28	-46.5	-49.0	6.1	0.00e+00	0	31	104	38159777792	60	34640
2026-01-10 23:22:00.27	189.41	3.21	-46.6	-49.1	6.1	0.00e+00	0	31	104	38159777792	60	34991
2026-01-10 23:22:01.28	189.44	3.13	-46.2	-48.6	6.1	0.00e+00	0	31	104	38159777792	60	33139
2026-01-10 23:22:02.29	189.46	3.06	-46.5	-49.1	6.1	0.00e+00	0	31	104	38159777792	60	34760
2026-01-10 23:22:03.30	189.49	2.99	-46.3	-48.8	6.1	0.00e+00	0	31	104	38159777792	60	33806
2026-01-10 23:22:04.31	189.51	2.91	-46.9	-49.4	6.1	0.00e+00	0	31	104	38159777792	60	35999
2026-01-10 23:22:05.32	189.54	2.84	-47.3	-49.8	6.1	0.00e+00	0	31	104	38159777792	60	37678
2026-01-10 23:22:06.33	189.56	2.77	-47.6	-50.1	6.1	0.00e+00	0	31	104	38159777792	60	38991
2026-01-10 23:22:07.34	189.59	2.69	-47.8	-50.3	6.1	0.00e+00	0	31	104	38159777792	60	40250
2026-01-10 23:22:08.35	189.61	2.62	-48.0	-50.5	6.1	0.00e+00	0	31	104	38159777792	60	40814
2026-01-10 23:22:09.36	189.64	2.55	-48.0	-50.5	6.1	0.00e+00	0	31	104	38159777792	60	41020
2026-01-10 23:22:10.37	189.66	2.48	-48.0	-50.5	6.1	0.00e+00	0	31	104	38159777792	60	40877
2026-01-10 23:22:11.38	189.68	2.41	-48.1	-50.6	6.1	0.00e+00	0	31	104	38159777792	60	41522
2026-01-10 23:22:12.38	189.71	2.34	-48.1	-50.6	6.1	0.00e+00	0	31	104	38159777792	60	41425
2026-01-10 23:22:13.39	189.73	2.26	-47.8	-50.3	6.1	0.00e+00	0	31	104	38159777792	60	40244
2026-01-10 23:22:14.41	189.75	2.19	-47.9	-50.4	6.1	0.00e+00	0	31	104	38159777792	60	40779
2026-01-10 23:22:15.42	189.78	2.12	-47.9	-50.4	6.1	0.00e+00	0	31	104	38159777792	60	40652
2026-01-10 23:22:16.43	189.80	2.05	-47.7	-50.3	6.1	0.00e+00	0	31	104	38159777792	60	39906
2026-01-10 23:22:17.44	189.82	1.98	-47.9	-50.4	6.1	0.00e+00	0	31	104	38159777792	60	40751
2026-01-10 23:22:18.45	189.85	1.91	-47.4	-49.9	6.1	0.00e+00	0	31	104	38159777792	60	38459
2026-01-10 23:22:19.46	189.87	1.84	-48.1	-50.6	6.1	0.00e+00	0	31	104	38159777792	60	41476
2026-01-10 23:22:20.46	189.89	1.77	-48.1	-50.6	6.1	0.00e+00	0	31	104	38159777792	60	41380
2026-01-10 23:22:21.47	189.92	1.70	-48.1	-50.5	6.1	0.00e+00	0	31	104	38159777792	60	41260
2026-01-10 23:22:22.48	189.94	1.63	-48.0	-50.5	6.1	0.00e+00	0	31	104	38159777792	60	41232
2026-01-10 23:22:23.49	189.96	1.56	-48.0	-50.5	6.1	0.00e+00	0	31	104	38159777792	60	41214
2026-01-10 23:22:24.50	189.98	1.50	-48.0	-50.6	6.1	0.00e+00	0	31	104	38159777792	60	41314
2026-01-10 23:22:25.51	190.00	1.43	-48.0	-50.5	6.1	0.00e+00	0	31	104	38159777792	60	41034
2026-01-10 23:22:26.52	190.03	1.36	-48.0	-50.5	6.1	0.00e+00	0	31	104	38159777792	60	41176
2026-01-10 23:22:27.53	190.05	1.29	-48.0	-50.5	6.1	0.00e+00	0	31	104	38159777792	60	40940
2026-01-10 23:22:28.54	190.07	1.22	-48.0	-50.5	6.1	0.00e+00	0	31	104	38159777792	60	40944
2026-01-10 23:22:29.55	190.09	1.15	-48.0	-50.4	6.1	0.00e+00	0	31	104	38159777792	60	40719
2026-01-10 23:22:30.56	190.11	1.09	-48.0	-50.5	6.1	0.00e+00	0	31	104	38159777792	60	41157
2026-01-10 23:22:31.57	190.14	1.02	-48.0	-50.5	6.1	0.00e+00	0	31	104	38159777792	60	41124
2026-01-10 23:22:32.58	190.16	0.95	-48.0	-50.5	6.1	0.00e+00	0	31	104	38159777792	60	40965
2026-01-10 23:22:33.58	190.18	0.89	-48.0	-50.5	6.1	0.00e+00	0	31	104	38159777792	60	40934
2026-01-10 23:22:34.59	190.20	0.82	-48.0	-50.5	6.1	0.00e+00	0	31	104	38159777792	60	41045
2026-01-10 23:22:35.60	190.22	0.75	-48.1	-50.6	6.1	0.00e+00	0	31	104	38159777792	60	41267
2026-01-10 23:22:36.61	190.24	0.69	-48.0	-50.5	6.1	0.00e+00	0	31	104	38159777792	60	40876
2026-01-10 23:22:37.62	190.26	0.62	-48.0	-50.5	6.1	0.00e+00	0	31	104	38159777792	60	40801
2026-01-10 23:22:38.63	190.28	0.55	-48.0	-50.5	6.1	0.00e+00	0	31	104	38159777792	60	40826
2026-01-10 23:22:39.64	190.30	0.49	-48.0	-50.5	6.1	0.00e+00	0	31	104	38159777792	60	41153
2026-01-10 23:22:40.65	190.32	0.42	-48.0	-50.5	6.1	0.00e+00	0	31	104	38159777792	60	40903
2026-01-10 23:22:41.66	190.35	0.36	-48.0	-50.5	6.1	0.00e+00	0	31	104	38159777792	60	40989
2026-01-10 23:22:42.67	190.37	0.29	-48.0	-50.5	6.1	0.00e+00	0	31	104	38159777792	60	40961
2026-01-10 23:22:43.68	190.39	0.23	-48.0	-50.5	6.1	0.00e+00	0	31	104	38159777792	60	40879
2026-01-10 23:22:44.69	190.41	0.16	-48.0	-50.4	6.1	0.00e+00	0	31	104	38159777792	60	40774
2026-01-10 23:22:45.70	190.43	0.10	-48.0	-50.5	6.1	0.00e+00	0	31	104	38159777792	60	40921
2026-01-10 23:22:46.71	190.45	0.03	-48.0	-50.5	6.1	0.00e+00	0	31	104	38159777792	60	40924
2026-01-10 23:22:47.72	190.47	-0.03	-48.0	-50.4	6.1	0.00e+00	0	31	104	38159777792	60	40714
2026-01-10 23:22:48.73	190.49	-0.10	-48.0	-50.5	6.1	0.00e+00	0	31	104	38159777792	60	41119

#Closed at: 2026-01-10 23:22:49
#Recorded file [38159 MB]: D:/lorett/data/35029_260111_111139.dat