passes_logs/2026/01/10/R4.6S_Anadyr/R4.6S_Anadyr__20260110_021221_AQUA_rec.log

#Pass ID: 20260110_021221_AQUA
#Satellite: AQUA
#Configuration: AQUA
#almurnet v.1.7.20251203
#Start time: 2026-01-10 02:12:23

#Version: 2.2.20231116
#Station: R4.6S_Anadyr
#Location: 177.4865 lon 64.73178 lat
#TLE: 1 27424U 02022A   26009.00333547  .00001046  00000+0  21942-3 0  9998
#TLE: 2 27424  98.4075 335.3304 0002026  85.7625 349.1392 14.61808998260012

#Time	Az	El	Level	Level2	SNR	BER	BlckErr	Temp	State	Recorded	gain1	gain2
2026-01-10 02:12:23.11	163.40	0.11	-47.9	-59.5	3.4	8.45e-01	0	23	0	0	60	34318
2026-01-10 02:12:24.12	163.42	0.17	-48.4	-66.3	3.5	3.02e+01	0	24	104	0	60	79085
2026-01-10 02:12:25.13	163.43	0.24	-48.5	-66.4	3.5	3.02e+01	0	24	104	0	60	80153
2026-01-10 02:12:26.14	163.44	0.30	-48.5	-66.4	3.5	3.02e+01	0	24	104	0	60	80316
2026-01-10 02:12:27.15	163.45	0.36	-48.5	-66.3	3.5	3.02e+01	0	24	104	0	60	79792
2026-01-10 02:12:28.15	163.46	0.42	-48.5	-66.4	3.5	3.02e+01	0	24	104	0	60	79945
2026-01-10 02:12:29.16	163.48	0.49	-48.5	-66.4	3.5	3.02e+01	0	24	104	0	60	80550
2026-01-10 02:12:30.17	163.49	0.55	-48.5	-66.4	3.5	3.02e+01	0	24	104	0	60	80368
2026-01-10 02:12:31.18	163.50	0.61	-48.5	-66.3	3.5	3.02e+01	0	24	104	0	60	79627
2026-01-10 02:12:32.20	163.51	0.68	-48.4	-66.2	3.5	3.02e+01	0	24	104	0	60	78878
2026-01-10 02:12:33.20	163.53	0.74	-48.1	-66.1	3.5	3.02e+01	0	24	104	0	60	77558
2026-01-10 02:12:34.21	163.54	0.81	-48.0	-66.0	3.5	3.02e+01	0	24	104	0	60	76870
2026-01-10 02:12:35.22	163.55	0.87	-48.0	-65.9	3.5	3.02e+01	0	24	104	0	60	75772
2026-01-10 02:12:36.23	163.56	0.93	-47.7	-65.6	3.5	3.02e+01	0	24	104	0	60	73520
2026-01-10 02:12:37.24	163.58	1.00	-46.5	-64.2	3.5	3.02e+01	0	24	104	0	60	62359
2026-01-10 02:12:38.25	163.59	1.06	-47.2	-65.0	3.5	3.02e+01	0	24	104	0	60	68703
2026-01-10 02:12:39.26	163.60	1.13	-47.0	-64.8	3.5	3.02e+01	0	25	104	0	60	66663
2026-01-10 02:12:40.27	163.61	1.19	-46.9	-64.8	3.5	3.02e+01	0	25	104	0	60	66551
2026-01-10 02:12:41.28	163.63	1.26	-46.9	-64.8	3.5	3.02e+01	0	25	104	0	60	66768
2026-01-10 02:12:42.29	163.64	1.32	-46.9	-64.7	3.5	3.02e+01	0	25	104	0	60	66389
2026-01-10 02:12:43.30	163.65	1.39	-46.9	-64.8	3.5	3.02e+01	0	25	104	0	60	66703
2026-01-10 02:12:44.31	163.66	1.46	-46.9	-64.7	3.5	3.02e+01	0	25	104	0	60	66058
2026-01-10 02:12:45.32	163.68	1.52	-46.9	-64.6	3.5	3.02e+01	0	25	104	0	60	65139
2026-01-10 02:12:46.33	163.69	1.59	-46.9	-64.4	3.5	3.02e+01	0	25	104	0	60	63797
2026-01-10 02:12:47.34	163.70	1.65	-46.9	-64.2	3.5	3.02e+01	0	25	104	0	60	62568
2026-01-10 02:12:48.35	163.72	1.72	-46.9	-63.8	3.5	3.02e+01	0	25	104	0	60	59626
2026-01-10 02:12:49.36	163.73	1.79	-46.9	-63.8	3.5	3.02e+01	0	25	104	0	60	59382
2026-01-10 02:12:50.37	163.74	1.85	-46.9	-63.5	3.5	3.02e+01	0	25	104	0	60	57638
2026-01-10 02:12:51.38	163.76	1.92	-46.9	-63.7	3.5	3.02e+01	0	25	104	0	60	59178
2026-01-10 02:12:52.39	163.77	1.99	-46.9	-63.9	3.5	3.02e+01	0	25	104	0	60	60471
2026-01-10 02:12:53.40	163.78	2.05	-46.9	-64.2	3.5	3.02e+01	0	25	104	0	60	62126
2026-01-10 02:12:54.41	163.80	2.12	-46.9	-64.5	3.5	3.02e+01	0	25	104	0	60	64487
2026-01-10 02:12:55.42	163.81	2.19	-46.9	-64.6	3.5	3.02e+01	0	25	104	0	60	65549
2026-01-10 02:12:56.43	163.82	2.26	-46.9	-64.7	3.5	3.02e+01	0	25	104	0	60	65784
2026-01-10 02:12:57.44	163.84	2.32	-46.9	-64.5	3.5	3.02e+01	0	25	104	0	60	64364
2026-01-10 02:12:58.45	163.85	2.39	-46.9	-64.2	3.5	3.02e+01	0	25	104	0	60	62165
2026-01-10 02:12:59.46	163.86	2.46	-46.9	-63.8	3.5	3.02e+01	0	25	104	0	60	59803
2026-01-10 02:13:00.47	163.88	2.53	-46.9	-63.2	3.5	3.02e+01	0	25	104	0	60	55681
2026-01-10 02:13:01.48	163.89	2.60	-46.9	-62.5	3.8	3.02e+01	0	25	104	0	60	51269
2026-01-10 02:13:02.49	163.90	2.66	-46.8	-61.0	4.2	3.02e+01	0	25	104	0	60	43114
2026-01-10 02:13:03.50	163.92	2.73	-46.7	-60.3	3.7	3.02e+01	0	25	104	0	60	39785
2026-01-10 02:13:04.51	163.93	2.80	-46.7	-59.5	3.8	3.02e+01	0	25	104	0	60	36381
2026-01-10 02:13:05.52	163.95	2.87	-46.7	-59.0	5.1	3.02e+01	0	25	0	0	60	34247
2026-01-10 02:13:06.53	163.96	2.94	-46.7	-59.3	5.2	3.02e+01	9	25	104	0	60	35631
2026-01-10 02:13:07.54	163.97	3.01	-46.7	-60.2	4.6	3.02e+01	0	25	104	0	60	39315
2026-01-10 02:13:08.55	163.99	3.08	-46.6	-58.8	5.9	3.02e+01	90	25	104	0	60	33596
2026-01-10 02:13:09.56	164.00	3.15	-46.2	-54.3	9.4	3.02e+01	0	25	0	1572864	60	19886
2026-01-10 02:13:10.57	164.02	3.22	-45.2	-50.8	13.3	3.02e+01	0	25	0	3145728	60	13282
2026-01-10 02:13:11.58	164.03	3.29	-44.2	-48.4	16.3	3.02e+01	0	25	0	5242880	60	10086
2026-01-10 02:13:12.59	164.04	3.36	-42.8	-45.8	18.7	3.02e+01	0	25	0	7340032	60	7498
2026-01-10 02:13:13.60	164.06	3.43	-41.1	-43.5	20.9	3.02e+01	0	25	0	8912896	58	6447
2026-01-10 02:13:14.61	164.07	3.50	-40.1	-42.1	22.5	3.02e+01	0	25	0	11010048	56	6163
2026-01-10 02:13:15.62	164.09	3.58	-39.2	-41.0	23.3	3.02e+01	0	25	0	12582912	54	6093
2026-01-10 02:13:16.63	164.10	3.65	-38.4	-40.0	24.1	3.02e+01	0	25	0	14680064	52	6117
2026-01-10 02:13:17.64	164.12	3.72	-38.0	-39.6	24.5	3.02e+01	0	25	0	16777216	52	5835
2026-01-10 02:13:18.65	164.13	3.79	-38.4	-40.1	24.1	3.02e+01	0	25	0	18350080	52	6172
2026-01-10 02:13:19.66	164.15	3.86	-38.5	-40.2	24.0	3.02e+01	0	25	0	20447232	52	6206
2026-01-10 02:13:20.67	164.16	3.94	-39.3	-41.2	23.0	3.02e+01	0	25	0	22020096	52	6990
2026-01-10 02:13:21.68	164.18	4.01	-44.6	-49.1	13.4	3.02e+01	0	25	0	24117248	60	11011
2026-01-10 02:13:22.69	164.19	4.08	-38.8	-40.5	23.6	3.02e+01	0	25	0	26214400	54	5746
2026-01-10 02:13:23.70	164.21	4.15	-41.9	-44.6	18.4	3.02e+01	0	25	0	27787264	52	10411
2026-01-10 02:13:24.71	164.22	4.23	-41.4	-44.0	19.6	3.02e+01	0	25	104	28835840	60	6096
2026-01-10 02:13:25.72	164.24	4.30	-43.1	-46.4	15.7	3.02e+01	0	25	0	29360128	52	12799
2026-01-10 02:13:26.73	164.25	4.37	-42.0	-44.3	22.0	3.02e+01	0	25	0	31457280	60	6336
2026-01-10 02:13:27.74	164.27	4.45	-37.8	-39.4	24.8	3.02e+01	0	25	0	33030144	52	5690
2026-01-10 02:13:28.75	164.28	4.52	-37.7	-39.2	25.2	3.02e+01	0	25	0	35127296	50	6259
2026-01-10 02:13:29.76	164.30	4.60	-36.8	-38.3	26.1	3.02e+01	0	25	0	36700160	48	6310
2026-01-10 02:13:30.76	164.31	4.67	-36.2	-37.6	26.5	3.02e+01	0	25	0	38797312	48	5808
2026-01-10 02:13:31.77	164.33	4.74	-36.2	-37.5	26.6	3.02e+01	0	25	0	40370176	48	5784
2026-01-10 02:13:32.79	164.34	4.82	-35.9	-37.3	26.8	3.02e+01	0	25	0	42467328	46	6332
2026-01-10 02:13:33.80	164.36	4.90	-35.6	-37.0	27.2	3.02e+01	0	25	0	44564480	46	6079
2026-01-10 02:13:34.80	164.38	4.97	-35.6	-36.9	27.2	3.02e+01	0	25	0	46137344	46	6018
2026-01-10 02:13:35.81	164.39	5.05	-35.6	-36.9	27.2	3.02e+01	0	25	0	48234496	46	6033
2026-01-10 02:13:36.82	164.41	5.12	-35.6	-37.0	27.2	3.02e+01	0	25	0	50331648	46	6084
2026-01-10 02:13:37.83	164.42	5.20	-35.5	-36.8	27.3	3.02e+01	0	25	0	51904512	46	5987
2026-01-10 02:13:38.84	164.44	5.28	-35.4	-36.8	27.3	3.02e+01	0	25	0	54001664	46	5934
2026-01-10 02:13:39.85	164.46	5.35	-35.5	-36.8	27.3	3.02e+01	0	25	0	55574528	46	5988
2026-01-10 02:13:40.86	164.47	5.43	-35.6	-36.9	27.2	3.02e+01	0	25	0	57671680	46	6053
2026-01-10 02:13:41.87	164.49	5.51	-35.8	-37.1	27.2	3.02e+01	0	25	0	59768832	46	6164
2026-01-10 02:13:42.88	164.50	5.58	-35.5	-36.9	27.4	3.02e+01	0	25	0	61341696	46	5997
2026-01-10 02:13:43.89	164.52	5.66	-35.4	-36.8	27.4	3.02e+01	0	25	0	63438848	46	5937
2026-01-10 02:13:44.90	164.54	5.74	-35.5	-36.8	27.4	3.02e+01	0	25	0	65536000	46	5959
2026-01-10 02:13:45.90	164.55	5.82	-35.4	-36.7	27.5	3.02e+01	0	25	0	67108864	46	5891
2026-01-10 02:13:46.91	164.57	5.89	-35.2	-36.5	27.7	3.02e+01	0	25	0	69206016	46	5769
2026-01-10 02:13:47.92	164.59	5.97	-35.3	-36.6	27.6	3.02e+01	0	25	0	70778880	46	5805
2026-01-10 02:13:48.93	164.60	6.05	-35.3	-36.6	27.6	3.02e+01	0	25	0	72876032	46	5832
2026-01-10 02:13:49.94	164.62	6.13	-35.3	-36.6	27.6	3.02e+01	0	25	0	74973184	46	5820
2026-01-10 02:13:50.94	164.64	6.21	-35.3	-36.6	27.7	3.02e+01	0	25	0	76546048	46	5843
2026-01-10 02:13:51.95	164.65	6.29	-35.4	-36.7	27.6	3.02e+01	0	25	0	78643200	46	5925
2026-01-10 02:13:52.96	164.67	6.37	-35.2	-36.5	27.8	3.02e+01	0	25	0	80216064	46	5733
2026-01-10 02:13:53.97	164.69	6.45	-35.2	-36.5	27.8	3.02e+01	0	25	0	82313216	46	5755
2026-01-10 02:13:54.97	164.71	6.53	-35.2	-36.5	27.8	3.02e+01	0	25	0	83886080	46	5748
2026-01-10 02:13:55.98	164.72	6.61	-35.2	-36.5	27.8	3.02e+01	0	25	0	85983232	46	5770
2026-01-10 02:13:56.99	164.74	6.69	-35.3	-36.6	27.7	3.02e+01	0	25	0	88080384	46	5850
2026-01-10 02:13:58.00	164.76	6.77	-35.0	-36.3	28.0	3.02e+01	0	25	0	89653248	46	5650
2026-01-10 02:13:59.01	164.78	6.86	-35.1	-36.4	27.9	3.02e+01	0	25	0	91750400	46	5686
2026-01-10 02:14:00.02	164.79	6.94	-35.3	-36.6	27.7	3.02e+01	0	25	0	93847552	46	5831
2026-01-10 02:14:01.03	164.81	7.02	-35.2	-36.5	27.8	3.02e+01	0	25	0	95420416	46	5760
2026-01-10 02:14:02.04	164.83	7.10	-35.3	-36.6	27.7	3.02e+01	0	25	0	97517568	46	5802
2026-01-10 02:14:03.05	164.85	7.19	-35.1	-36.4	27.9	3.02e+01	0	25	0	99090432	46	5668
2026-01-10 02:14:04.06	164.87	7.27	-35.1	-36.4	27.9	3.02e+01	0	25	0	101187584	46	5692
2026-01-10 02:14:05.06	164.88	7.35	-35.1	-36.4	28.0	3.02e+01	0	25	0	103284736	46	5692
2026-01-10 02:14:06.07	164.90	7.44	-35.3	-36.6	27.8	3.02e+01	0	25	0	104857600	46	5821
2026-01-10 02:14:07.08	164.92	7.52	-35.1	-36.3	28.0	3.02e+01	0	25	0	106954752	46	5659
2026-01-10 02:14:08.09	164.94	7.60	-35.1	-36.3	27.9	3.02e+01	0	25	0	108527616	46	5656
2026-01-10 02:14:09.10	164.96	7.69	-35.0	-36.3	28.0	3.02e+01	0	25	0	110624768	46	5646
2026-01-10 02:14:10.11	164.98	7.77	-35.2	-36.5	27.9	3.02e+01	0	25	0	112721920	46	5772
2026-01-10 02:14:11.12	164.99	7.86	-35.2	-36.5	28.0	3.02e+01	0	25	0	114294784	46	5737
2026-01-10 02:14:12.13	165.01	7.95	-35.1	-36.4	28.0	3.02e+01	0	25	0	116391936	46	5681
2026-01-10 02:14:13.14	165.03	8.03	-35.0	-36.3	28.1	3.02e+01	0	25	0	118489088	46	5645
2026-01-10 02:14:14.15	165.05	8.12	-34.9	-36.1	28.2	3.02e+01	0	25	0	120061952	44	6186
2026-01-10 02:14:15.16	165.07	8.20	-35.0	-36.3	28.0	3.02e+01	0	25	0	122159104	44	6326
2026-01-10 02:14:16.17	165.09	8.29	-34.9	-36.1	28.2	3.02e+01	0	25	0	123731968	44	6191
2026-01-10 02:14:17.18	165.11	8.38	-34.9	-36.1	28.2	3.02e+01	0	25	0	125829120	44	6203
2026-01-10 02:14:18.19	165.13	8.47	-34.7	-36.0	28.3	3.02e+01	0	25	0	127926272	44	6100
2026-01-10 02:14:19.19	165.15	8.55	-34.7	-36.0	28.3	3.02e+01	0	25	0	129499136	44	6076
2026-01-10 02:14:20.20	165.17	8.64	-34.8	-36.1	28.3	3.02e+01	0	25	0	131596288	44	6153
2026-01-10 02:14:21.21	165.19	8.73	-34.7	-35.9	28.4	3.02e+01	0	25	0	133169152	44	6037
2026-01-10 02:14:22.22	165.21	8.82	-34.8	-36.0	28.4	3.02e+01	0	25	0	135266304	44	6115
2026-01-10 02:14:23.23	165.23	8.91	-34.6	-35.8	28.6	3.02e+01	0	25	0	137363456	44	5976
2026-01-10 02:14:24.24	165.25	9.00	-34.5	-35.7	28.6	3.02e+01	0	25	0	138936320	44	5905
2026-01-10 02:14:25.25	165.27	9.09	-34.5	-35.7	28.6	3.02e+01	0	25	0	141033472	44	5900
2026-01-10 02:14:26.26	165.29	9.18	-34.5	-35.7	28.7	3.02e+01	0	25	0	142606336	44	5888
2026-01-10 02:14:27.27	165.31	9.27	-34.4	-35.6	28.7	3.02e+01	0	25	0	144703488	44	5835
2026-01-10 02:14:28.27	165.33	9.36	-34.4	-35.7	28.7	3.02e+01	0	25	0	146800640	44	5865
2026-01-10 02:14:29.28	165.35	9.45	-34.3	-35.5	28.8	3.02e+01	0	25	0	148373504	44	5771
2026-01-10 02:14:30.29	165.37	9.55	-34.3	-35.6	28.7	3.02e+01	0	25	0	150470656	44	5798
2026-01-10 02:14:31.30	165.39	9.64	-34.3	-35.5	28.9	3.02e+01	0	25	0	152043520	44	5757
2026-01-10 02:14:32.31	165.41	9.73	-34.4	-35.6	28.7	3.02e+01	0	25	0	154140672	44	5848
2026-01-10 02:14:33.32	165.43	9.82	-34.4	-35.6	28.7	3.02e+01	0	25	0	156237824	44	5829
2026-01-10 02:14:34.33	165.45	9.92	-34.6	-35.9	28.5	3.02e+01	0	25	0	157810688	44	6004
2026-01-10 02:14:35.34	165.48	10.01	-34.3	-35.5	28.8	3.02e+01	0	25	0	159907840	44	5748
2026-01-10 02:14:36.35	165.50	10.11	-34.5	-35.8	28.6	3.02e+01	0	25	0	162004992	44	5946
2026-01-10 02:14:37.36	165.52	10.20	-34.5	-35.7	28.7	3.02e+01	0	25	0	163577856	44	5914
2026-01-10 02:14:38.37	165.54	10.30	-34.4	-35.7	28.7	3.02e+01	0	25	0	165675008	44	5881
2026-01-10 02:14:39.37	165.56	10.39	-34.3	-35.6	28.8	3.02e+01	0	25	0	167247872	44	5795
2026-01-10 02:14:40.38	165.58	10.49	-34.3	-35.6	28.9	3.02e+01	0	25	0	169345024	44	5809
2026-01-10 02:14:41.39	165.61	10.58	-34.3	-35.5	28.9	3.02e+01	0	25	0	171442176	44	5785
2026-01-10 02:14:42.40	165.63	10.68	-34.1	-35.4	29.0	3.02e+01	0	25	0	173015040	44	5665
2026-01-10 02:14:43.41	165.65	10.78	-34.2	-35.4	29.0	3.02e+01	0	25	0	175112192	44	5688
2026-01-10 02:14:44.42	165.67	10.87	-34.2	-35.4	29.0	3.02e+01	0	25	0	176685056	44	5712
2026-01-10 02:14:45.43	165.70	10.97	-34.3	-35.5	29.0	3.02e+01	0	25	0	178782208	44	5744
2026-01-10 02:14:46.44	165.72	11.07	-34.3	-35.5	29.0	3.02e+01	0	25	0	180879360	44	5743
2026-01-10 02:14:47.45	165.74	11.17	-34.1	-35.3	29.0	3.02e+01	0	25	0	182452224	44	5653
2026-01-10 02:14:48.46	165.77	11.27	-34.2	-35.4	29.0	3.02e+01	0	25	0	184549376	44	5692
2026-01-10 02:14:49.47	165.79	11.37	-34.2	-35.4	28.9	3.02e+01	0	25	0	186122240	44	5703
2026-01-10 02:14:50.48	165.81	11.47	-34.2	-35.5	28.9	3.02e+01	0	25	0	188219392	44	5740
2026-01-10 02:14:51.49	165.84	11.57	-34.3	-35.5	28.9	3.02e+01	0	25	0	190316544	44	5740
2026-01-10 02:14:52.50	165.86	11.67	-34.2	-35.4	29.0	3.02e+01	0	25	0	191889408	44	5725
2026-01-10 02:14:53.51	165.88	11.77	-34.2	-35.4	29.1	3.02e+01	0	25	0	193986560	44	5678
2026-01-10 02:14:54.52	165.91	11.88	-34.2	-35.4	29.0	3.02e+01	0	25	0	195559424	44	5679
2026-01-10 02:14:55.53	165.93	11.98	-34.1	-35.3	29.1	3.02e+01	0	25	0	197656576	44	5658
2026-01-10 02:14:56.54	165.96	12.08	-34.1	-35.3	29.1	3.02e+01	0	25	0	199753728	44	5630
2026-01-10 02:14:57.55	165.98	12.18	-34.1	-35.3	29.1	3.02e+01	0	25	0	201326592	44	5633
2026-01-10 02:14:58.56	166.01	12.29	-34.1	-35.3	29.1	3.02e+01	0	25	0	203423744	44	5635
2026-01-10 02:14:59.57	166.03	12.39	-34.2	-35.4	29.1	3.02e+01	0	25	0	204996608	44	5679
2026-01-10 02:15:00.58	166.06	12.50	-34.1	-35.3	29.2	3.02e+01	0	25	0	207093760	44	5618
2026-01-10 02:15:01.59	166.08	12.60	-33.9	-35.1	29.4	3.02e+01	0	25	0	209190912	42	6163
2026-01-10 02:15:02.60	166.11	12.71	-34.0	-35.2	29.3	3.02e+01	0	25	0	210763776	42	6250
2026-01-10 02:15:03.60	166.13	12.82	-33.8	-35.0	29.4	3.02e+01	0	25	0	212860928	42	6116
2026-01-10 02:15:04.61	166.16	12.92	-33.9	-35.1	29.3	3.02e+01	0	25	0	214958080	42	6184
2026-01-10 02:15:05.63	166.18	13.03	-33.7	-34.9	29.5	3.02e+01	0	25	0	216530944	42	6032
2026-01-10 02:15:06.64	166.21	13.14	-33.7	-34.9	29.6	3.02e+01	0	25	0	218628096	42	6014
2026-01-10 02:15:07.64	166.23	13.25	-33.6	-34.8	29.7	3.02e+01	0	25	0	220200960	42	5951
2026-01-10 02:15:08.66	166.26	13.36	-33.7	-34.9	29.5	3.02e+01	0	25	0	222298112	42	6048
2026-01-10 02:15:09.67	166.29	13.47	-33.5	-34.7	29.7	3.02e+01	0	25	0	224395264	42	5891
2026-01-10 02:15:10.68	166.31	13.58	-33.5	-34.7	29.7	3.02e+01	0	25	0	225968128	42	5902
2026-01-10 02:15:11.68	166.34	13.69	-33.5	-34.7	29.7	3.02e+01	0	25	0	228065280	42	5885
2026-01-10 02:15:12.69	166.37	13.80	-33.5	-34.7	29.7	3.02e+01	0	25	0	230162432	42	5906
2026-01-10 02:15:13.70	166.40	13.91	-33.6	-34.8	29.7	3.02e+01	0	25	0	231735296	42	5931
2026-01-10 02:15:14.71	166.42	14.02	-33.6	-34.7	29.7	3.02e+01	0	25	0	233832448	42	5910
2026-01-10 02:15:15.72	166.45	14.14	-33.6	-34.8	29.7	3.02e+01	0	25	0	235405312	42	5938
2026-01-10 02:15:16.73	166.48	14.25	-33.6	-34.8	29.6	3.02e+01	0	25	0	237502464	42	5944
2026-01-10 02:15:17.73	166.51	14.36	-33.6	-34.8	29.7	3.02e+01	0	25	0	239599616	42	5963
2026-01-10 02:15:18.74	166.53	14.48	-33.7	-34.9	29.6	3.02e+01	0	25	0	241172480	42	5995
2026-01-10 02:15:19.75	166.56	14.59	-33.6	-34.7	29.7	3.02e+01	0	25	0	243269632	42	5920
2026-01-10 02:15:20.76	166.59	14.71	-33.6	-34.8	29.7	3.02e+01	0	25	0	244842496	42	5932
2026-01-10 02:15:21.77	166.62	14.83	-33.7	-34.9	29.7	3.02e+01	0	25	0	246939648	42	6014
2026-01-10 02:15:22.78	166.65	14.94	-33.6	-34.8	29.7	3.02e+01	0	25	0	249036800	42	5985
2026-01-10 02:15:23.79	166.68	15.06	-33.6	-34.8	29.7	3.02e+01	0	25	0	250609664	42	5960
2026-01-10 02:15:24.80	166.71	15.18	-33.7	-34.8	29.7	3.02e+01	0	25	0	252706816	42	5993
2026-01-10 02:15:25.81	166.74	15.30	-33.7	-34.9	29.6	3.02e+01	0	25	0	254279680	42	5995
2026-01-10 02:15:26.82	166.77	15.42	-33.6	-34.8	29.7	3.02e+01	0	25	0	256376832	42	5932
2026-01-10 02:15:27.83	166.80	15.54	-33.5	-34.7	29.8	3.02e+01	0	25	0	258473984	42	5884
2026-01-10 02:15:28.84	166.83	15.66	-33.7	-34.9	29.6	3.02e+01	0	25	0	260046848	42	6026
2026-01-10 02:15:29.85	166.86	15.78	-33.5	-34.7	29.8	3.02e+01	0	25	0	262144000	42	5872
2026-01-10 02:15:30.86	166.89	15.91	-33.5	-34.7	29.8	3.02e+01	0	25	0	263716864	42	5900
2026-01-10 02:15:31.87	166.92	16.03	-33.2	-34.4	30.0	3.02e+01	0	25	0	265814016	42	5704
2026-01-10 02:15:32.88	166.95	16.15	-33.4	-34.5	30.0	3.02e+01	0	25	0	267911168	42	5785
2026-01-10 02:15:33.89	166.99	16.28	-33.2	-34.4	30.0	3.02e+01	0	25	0	269484032	42	5687
2026-01-10 02:15:34.90	167.02	16.40	-33.3	-34.4	30.0	3.02e+01	0	25	0	271581184	42	5717
2026-01-10 02:15:35.90	167.05	16.53	-33.2	-34.4	30.1	3.02e+01	0	25	0	273154048	42	5693
2026-01-10 02:15:36.91	167.08	16.65	-33.4	-34.6	30.0	3.02e+01	0	25	0	275251200	42	5801
2026-01-10 02:15:37.92	167.11	16.78	-33.4	-34.5	29.9	3.02e+01	0	25	0	277348352	42	5785
2026-01-10 02:15:38.93	167.15	16.91	-33.4	-34.5	30.0	3.02e+01	0	25	0	278921216	42	5782
2026-01-10 02:15:39.94	167.18	17.04	-33.4	-34.6	29.9	3.02e+01	0	25	0	281018368	42	5847
2026-01-10 02:15:40.95	167.21	17.17	-33.3	-34.5	30.0	3.02e+01	0	25	0	283115520	42	5778
2026-01-10 02:15:41.96	167.25	17.30	-33.5	-34.7	29.9	3.02e+01	0	25	0	284688384	42	5868
2026-01-10 02:15:42.96	167.28	17.43	-33.5	-34.7	29.9	3.02e+01	0	25	0	286785536	42	5888
2026-01-10 02:15:43.97	167.32	17.56	-33.6	-34.8	29.8	3.02e+01	0	25	0	288358400	42	5955
2026-01-10 02:15:44.98	167.35	17.69	-33.7	-34.9	29.7	3.02e+01	0	25	0	290455552	42	6009
2026-01-10 02:15:45.99	167.39	17.83	-33.6	-34.8	29.7	3.02e+01	0	25	0	292552704	42	5970
2026-01-10 02:15:47.00	167.42	17.96	-33.6	-34.8	29.8	3.02e+01	0	25	0	294125568	42	5938
2026-01-10 02:15:48.00	167.46	18.10	-33.6	-34.7	29.8	3.02e+01	0	25	0	296222720	42	5921
2026-01-10 02:15:49.01	167.49	18.23	-33.6	-34.8	29.8	3.02e+01	0	25	0	297795584	42	5964
2026-01-10 02:15:50.02	167.53	18.37	-33.6	-34.8	29.8	3.02e+01	0	25	0	299892736	42	5939
2026-01-10 02:15:51.03	167.56	18.51	-33.5	-34.7	29.9	3.02e+01	0	25	0	301989888	42	5907
2026-01-10 02:15:52.04	167.60	18.64	-33.6	-34.8	29.8	3.02e+01	0	25	0	303562752	42	5951
2026-01-10 02:15:53.05	167.64	18.78	-33.6	-34.8	29.8	3.02e+01	0	25	0	305659904	42	5936
2026-01-10 02:15:54.06	167.68	18.92	-33.7	-34.9	29.7	3.02e+01	0	25	0	307232768	42	6031
2026-01-10 02:15:55.07	167.71	19.06	-33.5	-34.7	29.9	3.02e+01	0	25	0	309329920	42	5896
2026-01-10 02:15:56.08	167.75	19.21	-33.5	-34.7	29.8	3.02e+01	0	25	0	311427072	42	5903
2026-01-10 02:15:57.09	167.79	19.35	-33.6	-34.8	29.8	3.02e+01	0	25	0	312999936	42	5951
2026-01-10 02:15:58.10	167.83	19.49	-33.5	-34.7	29.9	3.02e+01	0	25	0	315097088	42	5903
2026-01-10 02:15:59.11	167.87	19.64	-33.6	-34.8	29.8	3.02e+01	0	25	0	316669952	42	5954
2026-01-10 02:16:00.11	167.91	19.78	-33.6	-34.8	29.9	3.02e+01	0	25	0	318767104	42	5937
2026-01-10 02:16:01.12	167.95	19.93	-33.4	-34.6	30.0	3.02e+01	0	25	0	320864256	42	5819
2026-01-10 02:16:02.13	167.99	20.07	-33.6	-34.8	29.8	3.02e+01	0	25	0	322437120	42	5940
2026-01-10 02:16:03.14	168.03	20.22	-33.5	-34.7	29.9	3.02e+01	0	25	0	324534272	42	5912
2026-01-10 02:16:04.14	168.07	20.37	-33.5	-34.7	29.9	3.02e+01	0	25	0	326631424	42	5875
2026-01-10 02:16:05.16	168.11	20.52	-33.5	-34.7	29.9	3.02e+01	0	25	0	328204288	42	5916
2026-01-10 02:16:06.16	168.15	20.67	-33.5	-34.7	29.9	3.02e+01	0	25	0	330301440	42	5877
2026-01-10 02:16:07.17	168.19	20.82	-33.6	-34.8	29.9	3.02e+01	0	25	0	331874304	42	5927
2026-01-10 02:16:08.18	168.23	20.98	-33.6	-34.8	29.8	3.02e+01	0	26	0	333971456	42	5963
2026-01-10 02:16:09.19	168.28	21.13	-33.6	-34.8	29.9	3.02e+01	0	26	0	336068608	42	5938
2026-01-10 02:16:10.20	168.32	21.29	-33.7	-34.9	29.7	3.02e+01	0	26	0	337641472	42	6036
2026-01-10 02:16:11.21	168.36	21.44	-33.7	-34.9	29.8	3.02e+01	0	26	0	339738624	42	6003
2026-01-10 02:16:12.22	168.41	21.60	-33.6	-34.8	29.8	3.02e+01	0	26	0	341311488	42	5962
2026-01-10 02:16:13.23	168.45	21.76	-33.7	-34.8	29.7	3.02e+01	0	26	0	343408640	42	5988
2026-01-10 02:16:14.23	168.50	21.92	-33.7	-34.8	29.8	3.02e+01	0	25	0	345505792	42	5987
2026-01-10 02:16:15.24	168.54	22.08	-33.7	-34.8	29.8	3.02e+01	0	26	0	347078656	42	5980
2026-01-10 02:16:16.25	168.59	22.24	-33.6	-34.8	29.8	3.02e+01	0	25	0	349175808	42	5977
2026-01-10 02:16:17.26	168.64	22.40	-33.8	-35.0	29.7	3.02e+01	0	25	0	350748672	42	6094
2026-01-10 02:16:18.27	168.68	22.56	-33.7	-34.9	29.7	3.02e+01	0	26	0	352845824	42	6043
2026-01-10 02:16:19.28	168.73	22.73	-33.9	-35.1	29.6	3.02e+01	0	25	0	354942976	42	6146
2026-01-10 02:16:20.29	168.78	22.89	-34.0	-35.2	29.5	3.02e+01	0	25	0	356515840	42	6225
2026-01-10 02:16:21.30	168.83	23.06	-34.0	-35.2	29.5	3.02e+01	0	26	0	358612992	42	6242
2026-01-10 02:16:22.31	168.87	23.23	-34.1	-35.3	29.4	3.02e+01	0	26	0	360185856	42	6320
2026-01-10 02:16:23.32	168.92	23.40	-34.2	-35.4	29.4	3.02e+01	0	26	0	362283008	42	6366
2026-01-10 02:16:24.33	168.97	23.57	-33.9	-35.1	29.6	3.02e+01	0	26	0	364380160	42	6184
2026-01-10 02:16:25.34	169.02	23.74	-34.0	-35.2	29.5	3.02e+01	0	25	0	365953024	42	6262
2026-01-10 02:16:26.35	169.08	23.92	-33.8	-35.0	29.7	3.02e+01	0	26	0	368050176	42	6110
2026-01-10 02:16:27.36	169.13	24.09	-33.9	-35.1	29.6	3.02e+01	0	25	0	369623040	42	6171
2026-01-10 02:16:28.37	169.18	24.27	-33.9	-35.0	29.7	3.02e+01	0	26	0	371720192	42	6131
2026-01-10 02:16:29.38	169.23	24.44	-34.0	-35.2	29.6	3.02e+01	0	25	0	373817344	42	6208
2026-01-10 02:16:30.39	169.28	24.62	-34.0	-35.2	29.6	3.02e+01	0	25	0	375390208	42	6217
2026-01-10 02:16:31.40	169.34	24.80	-33.9	-35.0	29.6	3.02e+01	0	26	0	377487360	42	6130
2026-01-10 02:16:32.40	169.39	24.98	-33.9	-35.1	29.7	3.02e+01	0	25	0	379584512	42	6137
2026-01-10 02:16:33.41	169.45	25.16	-33.9	-35.1	29.7	3.02e+01	0	26	0	381157376	42	6168
2026-01-10 02:16:34.42	169.50	25.34	-33.9	-35.1	29.7	3.02e+01	0	26	0	383254528	42	6167
2026-01-10 02:16:35.43	169.56	25.53	-33.8	-35.0	29.7	3.02e+01	0	25	0	384827392	42	6095
2026-01-10 02:16:36.44	169.62	25.72	-33.9	-35.0	29.7	3.02e+01	0	26	0	386924544	42	6127
2026-01-10 02:16:37.45	169.67	25.90	-33.8	-35.0	29.7	3.02e+01	0	25	0	389021696	42	6074
2026-01-10 02:16:38.46	169.73	26.09	-33.7	-34.9	29.9	3.02e+01	0	26	0	390594560	42	6024
2026-01-10 02:16:39.47	169.79	26.28	-33.8	-34.9	29.8	3.02e+01	0	25	0	392691712	42	6056
2026-01-10 02:16:40.48	169.85	26.47	-33.6	-34.7	29.9	3.02e+01	0	25	0	394788864	42	5921
2026-01-10 02:16:41.49	169.91	26.67	-33.6	-34.7	29.9	3.02e+01	0	25	0	396361728	42	5917
2026-01-10 02:16:42.50	169.97	26.86	-33.5	-34.6	30.0	3.02e+01	0	26	0	398458880	42	5853
2026-01-10 02:16:43.50	170.03	27.06	-33.6	-34.8	29.9	3.02e+01	0	25	0	400031744	42	5959
2026-01-10 02:16:44.51	170.09	27.25	-33.6	-34.8	29.9	3.02e+01	0	25	0	402128896	42	5957
2026-01-10 02:16:45.52	170.16	27.45	-33.5	-34.7	30.0	3.02e+01	0	26	0	403701760	42	5900
2026-01-10 02:16:46.53	170.22	27.65	-33.5	-34.7	30.0	3.02e+01	0	25	0	405798912	42	5906
2026-01-10 02:16:47.54	170.29	27.86	-33.5	-34.7	29.9	3.02e+01	0	25	0	407896064	42	5894
2026-01-10 02:16:48.55	170.35	28.06	-33.4	-34.5	30.1	3.02e+01	0	25	0	409468928	42	5787
2026-01-10 02:16:49.56	170.42	28.27	-33.3	-34.5	30.2	3.02e+01	0	26	0	411566080	42	5750
2026-01-10 02:16:50.57	170.49	28.47	-33.2	-34.4	30.2	3.02e+01	0	26	0	413138944	42	5692
2026-01-10 02:16:51.58	170.55	28.68	-33.1	-34.3	30.3	3.02e+01	0	25	0	415236096	42	5623
2026-01-10 02:16:52.59	170.62	28.89	-33.1	-34.3	30.3	3.02e+01	0	25	0	417333248	42	5607
2026-01-10 02:16:53.60	170.69	29.10	-33.3	-34.4	30.2	3.02e+01	0	25	0	418906112	42	5707
2026-01-10 02:16:54.61	170.76	29.32	-33.2	-34.3	30.3	3.02e+01	0	25	0	421003264	42	5652
2026-01-10 02:16:55.62	170.83	29.53	-33.0	-34.2	30.4	3.02e+01	0	26	0	423100416	42	5553
2026-01-10 02:16:56.63	170.91	29.75	-33.1	-34.3	30.3	3.02e+01	0	26	0	424673280	42	5633
2026-01-10 02:16:57.64	170.98	29.97	-33.2	-34.3	30.4	3.02e+01	0	25	0	426770432	42	5645
2026-01-10 02:16:58.65	171.06	30.19	-33.3	-34.5	30.2	3.02e+01	0	25	0	428343296	42	5746
2026-01-10 02:16:59.66	171.13	30.41	-33.3	-34.4	30.2	3.02e+01	0	26	0	430440448	42	5713
2026-01-10 02:17:00.67	171.21	30.64	-33.2	-34.3	30.3	3.02e+01	0	25	0	432537600	42	5657
2026-01-10 02:17:01.67	171.28	30.86	-33.0	-34.2	30.5	3.02e+01	0	25	0	434110464	42	5556
2026-01-10 02:17:02.68	171.36	31.09	-33.2	-34.3	30.3	3.02e+01	0	25	0	436207616	42	5633
2026-01-10 02:17:03.69	171.44	31.32	-33.4	-34.6	30.2	3.02e+01	0	25	0	437780480	42	5804
2026-01-10 02:17:04.70	171.52	31.55	-33.5	-34.7	30.1	3.02e+01	0	25	0	439877632	42	5866
2026-01-10 02:17:05.71	171.61	31.78	-33.6	-34.8	30.0	3.02e+01	0	25	0	441974784	42	5965
2026-01-10 02:17:06.72	171.69	32.02	-33.4	-34.6	30.1	3.02e+01	0	25	0	443547648	42	5817
2026-01-10 02:17:07.73	171.77	32.26	-33.4	-34.5	30.2	3.02e+01	0	25	0	445644800	42	5770
2026-01-10 02:17:08.74	171.86	32.50	-33.1	-34.3	30.4	3.02e+01	0	25	0	447741952	42	5620
2026-01-10 02:17:09.75	171.95	32.74	-33.3	-34.5	30.3	3.02e+01	0	25	0	449314816	42	5743
2026-01-10 02:17:10.76	172.03	32.98	-33.5	-34.7	30.0	3.02e+01	0	25	0	451411968	42	5890
2026-01-10 02:17:11.77	172.12	33.23	-33.8	-35.0	29.8	3.02e+01	0	26	0	452984832	42	6109
2026-01-10 02:17:12.78	172.22	33.47	-34.0	-35.2	29.7	3.02e+01	0	25	0	455081984	42	6260
2026-01-10 02:17:13.79	172.31	33.72	-34.1	-35.3	29.6	3.02e+01	0	25	0	457179136	42	6310
2026-01-10 02:17:14.80	172.40	33.98	-34.0	-35.2	29.6	3.02e+01	0	25	0	458752000	42	6243
2026-01-10 02:17:15.81	172.50	34.23	-34.2	-35.4	29.5	3.02e+01	0	26	0	460849152	42	6379
2026-01-10 02:17:16.82	172.59	34.49	-34.2	-35.4	29.5	3.02e+01	0	26	0	462422016	42	6354
2026-01-10 02:17:17.82	172.69	34.74	-34.3	-35.5	29.5	3.02e+01	0	25	0	464519168	42	6432
2026-01-10 02:17:18.83	172.79	35.00	-34.4	-35.6	29.3	3.02e+01	0	25	0	466616320	42	6565
2026-01-10 02:17:19.84	172.89	35.26	-34.6	-35.8	29.1	3.02e+01	0	25	0	468189184	42	6690
2026-01-10 02:17:20.85	172.99	35.53	-34.7	-35.9	29.0	3.02e+01	0	25	0	470286336	42	6791
2026-01-10 02:17:21.86	173.10	35.80	-34.7	-36.0	28.9	3.02e+01	0	25	0	471859200	42	6822
2026-01-10 02:17:22.87	173.20	36.06	-34.7	-36.0	29.0	3.02e+01	0	25	0	473956352	42	6815
2026-01-10 02:17:23.88	173.31	36.34	-34.8	-36.0	28.9	3.02e+01	0	25	0	476053504	42	6869
2026-01-10 02:17:24.89	173.42	36.61	-35.0	-36.2	28.8	3.02e+01	0	25	0	477626368	44	6261
2026-01-10 02:17:25.90	173.53	36.89	-35.4	-36.7	28.4	3.02e+01	0	26	0	479723520	44	6589
2026-01-10 02:17:26.91	173.65	37.17	-35.5	-36.7	28.3	3.02e+01	0	25	0	481296384	44	6640
2026-01-10 02:17:27.92	173.76	37.45	-35.1	-36.4	28.7	3.02e+01	0	25	0	483393536	44	6356
2026-01-10 02:17:28.93	173.88	37.73	-35.1	-36.4	28.6	3.02e+01	0	25	0	485490688	44	6375
2026-01-10 02:17:29.94	174.00	38.02	-35.6	-36.9	28.2	3.02e+01	0	26	0	487063552	44	6770
2026-01-10 02:17:30.95	174.12	38.30	-35.7	-36.9	28.1	3.02e+01	0	25	0	489160704	44	6792
2026-01-10 02:17:31.96	174.24	38.59	-35.6	-36.8	28.2	3.02e+01	0	25	0	491257856	44	6704
2026-01-10 02:17:32.97	174.37	38.89	-35.5	-36.8	28.3	3.02e+01	0	26	0	492830720	44	6655
2026-01-10 02:17:33.98	174.50	39.18	-35.4	-36.6	28.4	3.02e+01	0	25	0	494927872	44	6554
2026-01-10 02:17:34.99	174.63	39.48	-35.3	-36.6	28.5	3.02e+01	0	25	0	496500736	44	6518
2026-01-10 02:17:35.99	174.76	39.78	-35.2	-36.5	28.5	3.02e+01	0	25	0	498597888	44	6437
2026-01-10 02:17:37.00	174.90	40.08	-35.4	-36.6	28.4	3.02e+01	0	26	0	500695040	44	6573
2026-01-10 02:17:38.01	175.03	40.39	-35.3	-36.5	28.4	3.02e+01	0	25	0	502267904	44	6498
2026-01-10 02:17:39.02	175.17	40.70	-35.2	-36.5	28.6	3.02e+01	0	25	0	504365056	44	6425
2026-01-10 02:17:40.03	175.32	41.01	-34.7	-36.0	29.0	3.02e+01	0	25	0	505937920	44	6081
2026-01-10 02:17:41.04	175.46	41.32	-34.5	-35.7	29.2	3.02e+01	0	25	0	508035072	44	5886
2026-01-10 02:17:42.04	175.61	41.64	-34.4	-35.6	29.2	3.02e+01	0	25	0	510132224	44	5848
2026-01-10 02:17:43.05	175.76	41.96	-34.3	-35.6	29.3	3.02e+01	0	25	0	511705088	44	5796
2026-01-10 02:17:44.06	175.92	42.28	-34.0	-35.2	29.6	3.02e+01	0	25	0	513802240	42	6221
2026-01-10 02:17:45.07	176.07	42.60	-33.9	-35.1	29.8	3.02e+01	0	25	0	515375104	42	6161
2026-01-10 02:17:46.08	176.24	42.93	-33.9	-35.1	29.8	3.02e+01	0	25	0	517472256	42	6137
2026-01-10 02:17:47.09	176.40	43.26	-34.0	-35.1	29.8	3.02e+01	0	25	0	519569408	42	6200
2026-01-10 02:17:48.10	176.57	43.60	-33.7	-34.8	30.0	3.02e+01	0	26	0	521142272	42	5986
2026-01-10 02:17:49.11	176.74	43.93	-33.6	-34.8	30.0	3.02e+01	0	25	0	523239424	42	5971
2026-01-10 02:17:50.12	176.91	44.27	-33.7	-34.9	29.9	3.02e+01	0	25	0	524812288	42	6017
2026-01-10 02:17:51.13	177.09	44.61	-33.7	-34.9	29.9	3.02e+01	0	26	0	526909440	42	6012
2026-01-10 02:17:52.14	177.27	44.96	-33.7	-34.9	29.9	3.02e+01	0	26	0	529006592	42	6054
2026-01-10 02:17:53.15	177.46	45.30	-33.2	-34.3	30.3	3.02e+01	0	26	0	530579456	42	5654
2026-01-10 02:17:54.16	177.65	45.65	-33.3	-34.5	30.3	3.02e+01	0	26	0	532676608	42	5737
2026-01-10 02:17:55.17	177.85	46.01	-33.6	-34.8	30.0	3.02e+01	0	25	0	534249472	42	5940
2026-01-10 02:17:56.18	178.05	46.36	-33.5	-34.6	30.0	3.02e+01	0	25	0	536346624	42	5853
2026-01-10 02:17:57.19	178.25	46.72	-33.5	-34.6	30.1	3.02e+01	0	26	0	538443776	42	5858
2026-01-10 02:17:58.20	178.46	47.08	-33.4	-34.6	30.1	3.02e+01	0	26	0	540016640	42	5826
2026-01-10 02:17:59.20	178.67	47.44	-33.5	-34.7	30.1	3.02e+01	0	25	0	542113792	42	5864
2026-01-10 02:18:00.22	178.89	47.81	-33.6	-34.8	29.9	3.02e+01	0	26	0	544210944	42	5927
2026-01-10 02:18:01.22	179.11	48.18	-33.6	-34.7	29.9	3.02e+01	0	26	0	545783808	42	5923
2026-01-10 02:18:02.23	179.34	48.55	-33.3	-34.5	30.4	3.02e+01	0	26	0	547880960	42	5759
2026-01-10 02:18:03.24	179.57	48.93	-33.7	-34.9	29.9	3.02e+01	0	25	0	549453824	42	6033
2026-01-10 02:18:04.25	179.81	49.31	-33.6	-34.8	30.0	3.02e+01	0	26	0	551550976	42	5959
2026-01-10 02:18:05.26	180.06	49.69	-33.5	-34.7	30.2	3.02e+01	0	26	0	553648128	42	5859
2026-01-10 02:18:06.27	180.31	50.07	-33.2	-34.4	30.3	3.02e+01	0	25	0	555220992	42	5695
2026-01-10 02:18:07.28	180.57	50.46	-33.0	-34.1	30.5	3.02e+01	0	25	0	557318144	42	5504
2026-01-10 02:18:08.29	180.84	50.85	-33.1	-34.3	30.5	3.02e+01	0	26	0	559415296	42	5633
2026-01-10 02:18:09.30	181.11	51.24	-33.1	-34.3	30.4	3.02e+01	0	25	0	560988160	42	5609
2026-01-10 02:18:10.31	181.39	51.64	-32.8	-34.0	30.5	3.02e+01	0	25	0	563085312	40	6096
2026-01-10 02:18:11.32	181.68	52.04	-32.7	-33.9	30.7	3.02e+01	0	25	0	564658176	40	6025
2026-01-10 02:18:12.33	181.97	52.44	-33.1	-34.3	30.4	3.02e+01	0	25	0	566755328	40	6298
2026-01-10 02:18:13.34	182.27	52.84	-33.1	-34.3	30.4	3.02e+01	0	25	0	568852480	40	6306
2026-01-10 02:18:14.35	182.59	53.25	-32.9	-34.0	30.6	3.02e+01	0	26	0	570425344	40	6098
2026-01-10 02:18:15.36	182.91	53.66	-32.6	-33.7	30.9	3.02e+01	0	25	0	572522496	40	5900
2026-01-10 02:18:16.37	183.24	54.07	-32.8	-33.9	30.7	3.02e+01	0	26	0	574095360	40	6042
2026-01-10 02:18:17.38	183.57	54.48	-33.0	-34.2	30.5	3.02e+01	0	26	0	576192512	40	6220
2026-01-10 02:18:18.39	183.92	54.90	-33.2	-34.4	30.3	3.02e+01	0	26	0	578289664	40	6395
2026-01-10 02:18:19.40	184.28	55.32	-33.2	-34.4	30.4	3.02e+01	0	26	0	579862528	40	6358
2026-01-10 02:18:20.40	184.65	55.73	-33.5	-34.6	30.2	3.02e+01	0	25	0	581959680	40	6554
2026-01-10 02:18:21.41	185.03	56.16	-33.9	-35.1	29.8	3.02e+01	0	26	0	583532544	40	6909
2026-01-10 02:18:22.42	185.42	56.58	-34.0	-35.2	29.7	3.02e+01	0	26	0	585629696	42	6223
2026-01-10 02:18:23.43	185.83	57.01	-34.5	-35.7	29.3	3.02e+01	0	26	0	587726848	42	6590
2026-01-10 02:18:24.44	186.25	57.44	-34.2	-35.4	29.6	3.02e+01	0	26	0	589299712	42	6400
2026-01-10 02:18:25.45	186.68	57.87	-34.4	-35.6	29.3	3.02e+01	0	26	0	591396864	42	6520
2026-01-10 02:18:26.46	187.12	58.30	-34.7	-35.9	29.1	3.02e+01	0	26	0	592969728	42	6802
2026-01-10 02:18:27.47	187.58	58.74	-34.6	-35.9	29.1	3.02e+01	0	26	0	595066880	42	6744
2026-01-10 02:18:28.48	188.06	59.18	-35.0	-36.3	28.8	3.02e+01	0	26	0	597164032	44	6307
2026-01-10 02:18:29.48	188.55	59.61	-35.2	-36.4	28.5	3.02e+01	0	26	0	598736896	44	6422
2026-01-10 02:18:30.50	189.06	60.05	-35.3	-36.5	28.5	3.02e+01	0	26	0	600834048	44	6469
2026-01-10 02:18:31.51	189.58	60.49	-35.8	-37.1	28.1	3.02e+01	0	26	0	602406912	44	6904
2026-01-10 02:18:32.51	190.12	60.93	-35.9	-37.1	28.0	3.02e+01	0	26	0	604504064	44	6954
2026-01-10 02:18:33.52	190.69	61.37	-36.2	-37.6	27.6	3.02e+01	0	26	0	606601216	46	6499
2026-01-10 02:18:34.53	191.27	61.81	-36.7	-38.1	27.2	3.02e+01	0	26	0	608174080	46	6905
2026-01-10 02:18:35.54	191.88	62.26	-36.9	-38.2	26.9	3.02e+01	0	26	0	610271232	46	7017
2026-01-10 02:18:36.55	192.50	62.70	-37.0	-38.4	26.9	3.02e+01	0	26	0	612368384	48	6377
2026-01-10 02:18:37.55	193.15	63.14	-37.2	-38.6	26.7	3.02e+01	0	26	0	613941248	48	6535
2026-01-10 02:18:38.56	193.82	63.58	-37.5	-38.9	26.4	3.02e+01	0	26	0	616038400	48	6745
2026-01-10 02:18:39.58	194.53	64.03	-37.9	-39.3	25.9	3.02e+01	0	26	0	617611264	48	7104
2026-01-10 02:18:40.59	195.26	64.47	-38.0	-39.4	25.7	3.02e+01	0	25	0	619708416	50	6411
2026-01-10 02:18:41.59	196.01	64.90	-38.0	-39.4	25.9	3.02e+01	0	26	0	621805568	50	6393
2026-01-10 02:18:42.60	196.80	65.34	-38.4	-39.9	25.4	3.02e+01	0	25	0	623378432	50	6763
2026-01-10 02:18:43.61	197.62	65.78	-38.2	-39.6	25.7	3.02e+01	0	26	0	625475584	50	6571
2026-01-10 02:18:44.62	198.47	66.22	-38.9	-40.5	25.0	3.02e+01	0	26	0	627048448	52	6473
2026-01-10 02:18:45.63	199.36	66.65	-39.0	-40.6	24.8	3.02e+01	0	26	0	629145600	52	6517
2026-01-10 02:18:46.64	200.28	67.08	-39.1	-40.7	24.7	3.02e+01	0	26	0	631242752	52	6604
2026-01-10 02:18:47.65	201.24	67.50	-39.4	-41.1	24.3	3.02e+01	0	26	0	632815616	52	6901
2026-01-10 02:18:48.66	202.25	67.93	-39.5	-41.1	24.3	3.02e+01	0	26	0	634912768	52	6935
2026-01-10 02:18:49.67	203.29	68.34	-39.7	-41.4	24.1	3.02e+01	0	26	0	636485632	52	7161
2026-01-10 02:18:50.68	204.38	68.76	-39.3	-40.9	24.5	3.02e+01	0	26	0	638582784	52	6770
2026-01-10 02:18:51.69	205.51	69.17	-39.9	-41.6	23.8	3.02e+01	0	26	0	640679936	52	7328
2026-01-10 02:18:52.70	206.70	69.57	-39.2	-40.8	24.5	3.02e+01	0	26	0	642252800	52	6686
2026-01-10 02:18:53.71	207.93	69.96	-39.2	-40.9	24.4	3.02e+01	0	26	0	644349952	52	6750
2026-01-10 02:18:54.71	209.20	70.35	-39.5	-41.2	24.4	3.02e+01	0	26	0	645922816	52	6998
2026-01-10 02:18:55.72	210.54	70.73	-38.3	-39.9	25.5	3.02e+01	0	26	0	648019968	52	6009
2026-01-10 02:18:56.74	211.96	71.10	-37.4	-38.9	26.3	3.02e+01	0	26	0	650117120	50	6009
2026-01-10 02:18:57.74	213.40	71.46	-37.6	-39.1	26.1	3.02e+01	0	26	0	651689984	50	6187
2026-01-10 02:18:58.75	214.91	71.81	-37.0	-38.4	26.8	3.02e+01	0	26	0	653787136	50	5695
2026-01-10 02:18:59.76	216.49	72.15	-37.1	-38.5	26.6	3.02e+01	0	26	0	655884288	50	5778
2026-01-10 02:19:00.77	218.13	72.48	-36.9	-38.3	26.9	3.02e+01	0	26	0	657457152	50	5648
2026-01-10 02:19:01.78	219.84	72.79	-36.6	-37.9	27.2	3.02e+01	0	26	0	659554304	48	6041
2026-01-10 02:19:02.79	221.61	73.09	-37.0	-38.5	26.8	3.02e+01	0	26	0	661127168	48	6425
2026-01-10 02:19:03.80	223.45	73.38	-37.0	-38.4	26.7	3.02e+01	0	26	0	663224320	48	6380
2026-01-10 02:19:04.81	225.35	73.64	-36.7	-38.0	27.2	3.02e+01	0	26	0	665321472	48	6094
2026-01-10 02:19:05.82	227.32	73.90	-37.6	-39.1	26.3	3.02e+01	0	26	0	666894336	48	6910
2026-01-10 02:19:06.83	229.34	74.13	-37.1	-38.5	26.7	3.02e+01	0	26	0	668991488	48	6469
2026-01-10 02:19:07.84	231.43	74.35	-36.6	-38.0	27.0	3.02e+01	0	26	0	670564352	48	6091
2026-01-10 02:19:08.84	233.56	74.54	-36.9	-38.2	26.9	3.02e+01	0	26	0	672661504	48	6277
2026-01-10 02:19:09.85	235.76	74.71	-36.1	-37.4	27.6	3.02e+01	0	26	0	674758656	48	5681
2026-01-10 02:19:10.86	238.01	74.86	-36.5	-37.8	27.4	3.02e+01	0	26	0	676331520	48	5980
2026-01-10 02:19:11.87	240.30	74.99	-36.1	-37.4	27.6	3.02e+01	0	26	0	678428672	48	5724
2026-01-10 02:19:12.88	242.63	75.10	-36.1	-37.5	27.6	3.02e+01	0	26	0	680525824	48	5730
2026-01-10 02:19:13.89	245.00	75.18	-36.2	-37.5	27.6	3.02e+01	0	26	0	682098688	46	6480
2026-01-10 02:19:14.90	247.38	75.24	-36.9	-38.2	27.0	3.02e+01	0	26	0	684195840	48	6277
2026-01-10 02:19:15.91	249.78	75.27	-36.1	-37.4	27.7	3.02e+01	0	26	0	685768704	48	5718
2026-01-10 02:19:16.92	252.19	75.28	-36.0	-37.3	27.7	3.02e+01	0	26	0	687865856	46	6314
2026-01-10 02:19:17.93	254.59	75.26	-36.5	-37.8	27.3	3.02e+01	0	26	0	689963008	46	6693
2026-01-10 02:19:18.94	256.99	75.22	-36.3	-37.7	27.5	3.02e+01	0	26	0	691535872	46	6579
2026-01-10 02:19:19.95	259.36	75.15	-36.1	-37.4	27.6	3.02e+01	0	26	0	693633024	46	6404
2026-01-10 02:19:20.96	261.72	75.06	-36.5	-37.8	27.3	3.02e+01	0	26	0	695205888	46	6725
2026-01-10 02:19:21.97	264.03	74.95	-36.3	-37.6	27.4	3.02e+01	0	26	0	697303040	46	6514
2026-01-10 02:19:22.98	266.31	74.81	-36.8	-38.2	26.9	3.02e+01	0	26	0	699400192	46	7002
2026-01-10 02:19:23.99	268.54	74.65	-36.0	-37.3	27.8	3.02e+01	0	26	0	700973056	48	5599
2026-01-10 02:19:25.00	270.72	74.47	-35.7	-37.0	28.1	3.02e+01	0	26	0	703070208	46	6096
2026-01-10 02:19:26.01	272.85	74.27	-36.2	-37.5	27.7	3.02e+01	0	26	0	704643072	46	6443
2026-01-10 02:19:27.02	274.92	74.05	-36.3	-37.6	27.5	3.02e+01	0	26	0	706740224	46	6505
2026-01-10 02:19:28.03	276.92	73.81	-36.1	-37.4	27.7	3.02e+01	0	26	0	708837376	46	6376
2026-01-10 02:19:29.04	278.86	73.55	-36.0	-37.3	27.8	3.02e+01	0	26	0	710410240	46	6328
2026-01-10 02:19:30.05	280.74	73.28	-36.4	-37.8	27.3	3.02e+01	0	26	0	712507392	46	6655
2026-01-10 02:19:31.06	282.55	72.99	-36.7	-38.0	27.2	3.02e+01	0	26	0	714080256	46	6870
2026-01-10 02:19:32.07	284.30	72.68	-36.5	-37.8	27.3	3.02e+01	0	26	0	716177408	46	6673
2026-01-10 02:19:33.08	285.98	72.36	-36.8	-38.1	27.2	3.02e+01	0	26	0	718274560	46	6933
2026-01-10 02:19:34.09	287.60	72.03	-37.2	-38.6	26.7	3.02e+01	0	26	0	719847424	48	6526
2026-01-10 02:19:35.10	289.15	71.69	-36.9	-38.3	27.0	3.02e+01	0	26	0	721944576	48	6304
2026-01-10 02:19:36.10	290.63	71.34	-36.5	-37.9	27.4	3.02e+01	0	26	0	724041728	48	5997
2026-01-10 02:19:37.11	292.07	70.97	-37.2	-38.6	26.5	3.02e+01	0	26	0	725614592	48	6559
2026-01-10 02:19:38.12	293.44	70.60	-36.6	-37.9	27.1	3.02e+01	0	26	0	727711744	48	6061
2026-01-10 02:19:39.13	294.76	70.22	-36.5	-37.8	27.4	3.02e+01	0	26	0	729284608	48	5986
2026-01-10 02:19:40.14	296.03	69.83	-37.0	-38.3	27.1	3.02e+01	0	26	0	731381760	48	6323
2026-01-10 02:19:41.15	297.24	69.43	-37.4	-38.8	26.5	3.02e+01	0	26	0	733478912	48	6718
2026-01-10 02:19:42.16	298.41	69.03	-37.3	-38.7	26.6	3.02e+01	0	26	0	735051776	48	6597
2026-01-10 02:19:43.17	299.53	68.62	-36.7	-38.1	27.0	3.02e+01	0	26	0	737148928	48	6152
2026-01-10 02:19:44.18	300.60	68.20	-37.4	-38.8	26.3	3.02e+01	0	26	0	738721792	48	6672
2026-01-10 02:19:45.19	301.63	67.79	-37.6	-39.0	26.2	3.02e+01	0	26	0	740818944	48	6864
2026-01-10 02:19:46.20	302.61	67.36	-36.8	-38.1	27.1	3.02e+01	0	26	0	742916096	48	6171
2026-01-10 02:19:47.21	303.56	66.94	-36.7	-38.0	27.1	3.02e+01	0	26	0	744488960	48	6122
2026-01-10 02:19:48.22	304.47	66.51	-36.9	-38.3	26.8	3.02e+01	0	26	0	746586112	48	6306
2026-01-10 02:19:49.23	305.34	66.07	-36.4	-37.8	27.4	3.02e+01	0	26	0	748683264	48	5927
2026-01-10 02:19:50.24	306.18	65.64	-36.4	-37.7	27.4	3.02e+01	0	26	0	750256128	48	5915
2026-01-10 02:19:51.25	306.99	65.20	-35.8	-37.0	28.1	3.02e+01	0	26	0	752353280	46	6121
2026-01-10 02:19:52.26	307.77	64.76	-36.6	-38.0	27.4	3.02e+01	0	26	0	753926144	46	6826
2026-01-10 02:19:53.27	308.51	64.32	-35.9	-37.2	28.0	3.02e+01	0	26	0	756023296	46	6223
2026-01-10 02:19:54.27	309.22	63.89	-35.3	-36.6	28.4	3.02e+01	0	26	0	757596160	46	5817
2026-01-10 02:19:55.28	309.92	63.45	-34.9	-36.2	28.0	3.02e+01	0	26	0	759693312	46	5548
2026-01-10 02:19:56.29	310.58	63.00	-35.0	-36.2	28.8	3.02e+01	0	26	0	761790464	44	6230
2026-01-10 02:19:57.30	311.22	62.56	-35.1	-36.4	28.5	3.02e+01	0	26	0	763363328	44	6381
2026-01-10 02:19:58.31	311.84	62.12	-34.9	-36.1	28.8	3.02e+01	0	26	0	765460480	44	6195
2026-01-10 02:19:59.32	312.44	61.68	-35.1	-36.4	28.5	3.02e+01	0	26	0	767033344	44	6374
2026-01-10 02:20:00.33	313.02	61.24	-35.5	-36.8	28.3	3.02e+01	0	26	0	769130496	44	6694
2026-01-10 02:20:01.34	313.57	60.80	-35.2	-36.5	28.6	3.02e+01	0	26	0	771227648	44	6449
2026-01-10 02:20:02.35	314.11	60.36	-34.7	-35.9	29.0	3.02e+01	0	26	0	772800512	44	6036
2026-01-10 02:20:03.36	314.63	59.92	-34.7	-36.0	28.8	3.02e+01	0	26	0	774897664	44	6070
2026-01-10 02:20:04.37	315.13	59.48	-34.5	-35.7	29.1	3.02e+01	0	26	0	776994816	44	5925
2026-01-10 02:20:05.38	315.62	59.05	-34.4	-35.6	29.3	3.02e+01	0	26	0	778567680	44	5807
2026-01-10 02:20:06.38	316.08	58.62	-34.2	-35.5	29.4	3.02e+01	0	26	0	780664832	44	5728
2026-01-10 02:20:07.39	316.54	58.18	-33.9	-35.1	29.8	3.02e+01	0	26	0	782237696	42	6148
2026-01-10 02:20:08.40	316.98	57.75	-33.9	-35.1	29.7	3.02e+01	0	26	0	784334848	42	6156
2026-01-10 02:20:09.41	317.40	57.32	-33.9	-35.1	29.7	3.02e+01	0	26	0	786432000	42	6140
2026-01-10 02:20:10.42	317.82	56.89	-33.9	-35.0	29.9	3.02e+01	0	26	0	788004864	42	6133
2026-01-10 02:20:11.43	318.22	56.47	-33.6	-34.8	30.0	3.02e+01	0	26	0	790102016	42	5950
2026-01-10 02:20:12.44	318.61	56.05	-33.6	-34.8	30.1	3.02e+01	0	26	0	792199168	42	5938
2026-01-10 02:20:13.45	318.98	55.62	-33.0	-34.2	30.6	3.02e+01	0	26	0	793772032	42	5566
2026-01-10 02:20:14.46	319.35	55.21	-33.1	-34.3	30.4	3.02e+01	0	25	0	795869184	42	5640
2026-01-10 02:20:15.47	319.70	54.79	-33.1	-34.3	30.5	3.02e+01	0	26	0	797442048	40	6290
2026-01-10 02:20:16.48	320.05	54.37	-33.2	-34.3	30.3	3.02e+01	0	26	0	799539200	40	6350
2026-01-10 02:20:17.49	320.39	53.96	-33.2	-34.3	30.4	3.02e+01	0	26	0	801636352	40	6337
2026-01-10 02:20:18.50	320.71	53.55	-33.3	-34.4	30.2	3.02e+01	0	26	0	803209216	40	6421
2026-01-10 02:20:19.51	321.03	53.15	-33.2	-34.3	30.2	3.02e+01	0	26	0	805306368	40	6348
2026-01-10 02:20:20.52	321.34	52.74	-33.0	-34.1	30.5	3.02e+01	0	26	0	806879232	40	6162
2026-01-10 02:20:21.53	321.64	52.34	-33.3	-34.5	30.2	3.02e+01	0	26	0	808976384	40	6453
2026-01-10 02:20:22.54	321.93	51.94	-33.8	-35.0	29.8	3.02e+01	0	26	0	811073536	40	6835
2026-01-10 02:20:23.55	322.21	51.55	-33.7	-34.9	29.8	3.02e+01	0	26	0	812646400	40	6772
2026-01-10 02:20:24.56	322.49	51.15	-33.5	-34.6	30.1	3.02e+01	0	26	0	814743552	40	6573
2026-01-10 02:20:25.57	322.76	50.76	-33.7	-34.9	29.9	3.02e+01	0	26	0	816316416	40	6729
2026-01-10 02:20:26.58	323.02	50.38	-34.1	-35.3	29.6	3.02e+01	0	26	0	818413568	42	6312
2026-01-10 02:20:27.58	323.28	49.99	-34.1	-35.3	29.5	3.02e+01	0	26	0	820510720	42	6326
2026-01-10 02:20:28.59	323.53	49.61	-34.2	-35.4	29.5	3.02e+01	0	26	0	822083584	42	6414
2026-01-10 02:20:29.60	323.77	49.23	-34.4	-35.6	29.3	3.02e+01	0	25	0	824180736	42	6546
2026-01-10 02:20:30.61	324.01	48.86	-34.4	-35.6	29.4	3.02e+01	0	26	0	825753600	42	6521
2026-01-10 02:20:31.62	324.24	48.48	-34.1	-35.3	29.4	3.02e+01	0	26	0	827850752	42	6307
2026-01-10 02:20:32.63	324.47	48.11	-33.9	-35.1	29.7	3.02e+01	0	26	0	829947904	42	6162
2026-01-10 02:20:33.64	324.69	47.74	-34.0	-35.2	29.6	3.02e+01	0	26	0	831520768	42	6266
2026-01-10 02:20:34.65	324.91	47.38	-34.1	-35.3	29.6	3.02e+01	0	25	0	833617920	42	6309
2026-01-10 02:20:35.66	325.12	47.02	-34.0	-35.2	29.7	3.02e+01	0	26	0	835190784	42	6269
2026-01-10 02:20:36.67	325.33	46.66	-33.9	-35.1	29.7	3.02e+01	0	26	0	837287936	42	6157
2026-01-10 02:20:37.67	325.53	46.30	-33.8	-35.0	29.9	3.02e+01	0	26	0	839385088	42	6104
2026-01-10 02:20:38.68	325.72	45.95	-34.5	-35.7	29.2	3.02e+01	0	26	0	840957952	42	6595
2026-01-10 02:20:39.70	325.92	45.60	-34.6	-35.8	29.2	3.02e+01	0	26	0	843055104	42	6700
2026-01-10 02:20:40.70	326.11	45.25	-34.3	-35.5	29.3	3.02e+01	0	26	0	845152256	42	6491
2026-01-10 02:20:41.71	326.29	44.91	-34.3	-35.5	29.3	3.02e+01	0	26	0	846725120	42	6445
2026-01-10 02:20:42.72	326.47	44.56	-34.1	-35.3	29.6	3.02e+01	0	25	0	848822272	42	6328
2026-01-10 02:20:43.73	326.65	44.22	-33.9	-35.1	29.7	3.02e+01	0	25	0	850395136	42	6176
2026-01-10 02:20:44.74	326.82	43.89	-34.0	-35.2	29.9	3.02e+01	0	25	0	852492288	42	6213
2026-01-10 02:20:45.75	326.99	43.55	-34.0	-35.2	29.7	3.02e+01	0	26	0	854589440	42	6247
2026-01-10 02:20:46.76	327.16	43.22	-34.3	-35.5	29.4	3.02e+01	0	25	0	856162304	42	6432
2026-01-10 02:20:47.77	327.32	42.90	-34.3	-35.4	29.4	3.02e+01	0	26	0	858259456	42	6421
2026-01-10 02:20:48.78	327.48	42.57	-34.3	-35.5	29.4	3.02e+01	0	25	0	860356608	42	6477
2026-01-10 02:20:49.79	327.64	42.25	-34.9	-36.1	28.9	3.02e+01	0	26	0	861929472	42	6935
2026-01-10 02:20:50.80	327.79	41.93	-35.1	-36.3	28.7	3.02e+01	0	26	0	864026624	44	6344
2026-01-10 02:20:51.81	327.94	41.61	-35.1	-36.3	28.6	3.02e+01	0	26	0	865599488	44	6312
2026-01-10 02:20:52.82	328.09	41.29	-34.9	-36.1	29.0	3.02e+01	0	25	0	867696640	44	6167
2026-01-10 02:20:53.82	328.24	40.99	-34.8	-36.1	28.9	3.02e+01	0	26	0	869269504	44	6135
2026-01-10 02:20:54.83	328.38	40.68	-34.8	-36.1	28.9	3.02e+01	0	26	0	871366656	44	6151
2026-01-10 02:20:55.84	328.52	40.37	-34.9	-36.2	28.8	3.02e+01	0	26	0	873463808	44	6212
2026-01-10 02:20:56.85	328.65	40.06	-34.9	-36.2	28.9	3.02e+01	0	26	0	875036672	44	6220
2026-01-10 02:20:57.86	328.79	39.76	-34.9	-36.2	28.8	3.02e+01	0	26	0	877133824	44	6244
2026-01-10 02:20:58.87	328.92	39.46	-35.0	-36.2	28.9	3.02e+01	0	26	0	878706688	44	6237
2026-01-10 02:20:59.88	329.05	39.17	-34.9	-36.1	28.8	3.02e+01	0	26	0	880803840	44	6160
2026-01-10 02:21:00.89	329.18	38.87	-34.6	-35.8	29.2	3.02e+01	0	26	0	882900992	44	5960
2026-01-10 02:21:01.90	329.30	38.58	-34.7	-35.9	29.1	3.02e+01	0	25	0	884473856	44	6018
2026-01-10 02:21:02.91	329.43	38.29	-34.7	-36.0	29.0	3.02e+01	0	25	0	886571008	44	6067
2026-01-10 02:21:03.92	329.55	38.01	-34.6	-35.8	29.1	3.02e+01	0	26	0	888668160	44	5970
2026-01-10 02:21:04.93	329.67	37.72	-34.6	-35.8	29.1	3.02e+01	0	26	0	890241024	44	5950
2026-01-10 02:21:05.93	329.78	37.44	-34.5	-35.8	29.2	3.02e+01	0	25	0	892338176	44	5927
2026-01-10 02:21:06.95	329.90	37.16	-34.4	-35.6	29.4	3.02e+01	0	25	0	893911040	44	5821
2026-01-10 02:21:07.96	330.01	36.88	-34.2	-35.4	29.5	3.02e+01	0	25	0	896008192	44	5710
2026-01-10 02:21:08.97	330.12	36.61	-34.1	-35.3	29.6	3.02e+01	0	26	0	898105344	44	5658
2026-01-10 02:21:09.98	330.23	36.34	-34.1	-35.3	29.5	3.02e+01	0	26	0	899678208	44	5644
2026-01-10 02:21:10.99	330.34	36.07	-34.0	-35.2	29.6	3.02e+01	0	26	0	901775360	44	5544
2026-01-10 02:21:11.99	330.44	35.80	-34.0	-35.1	29.7	3.02e+01	0	26	0	903348224	42	6200
2026-01-10 02:21:13.00	330.55	35.54	-33.8	-35.0	29.9	3.02e+01	0	26	0	905445376	42	6072
2026-01-10 02:21:14.01	330.65	35.27	-33.2	-34.4	30.3	3.02e+01	0	26	0	907542528	42	5667
2026-01-10 02:21:15.02	330.75	35.01	-33.2	-34.4	30.4	3.02e+01	0	26	0	909115392	42	5674
2026-01-10 02:21:16.03	330.85	34.76	-33.2	-34.4	30.4	3.02e+01	0	26	0	911212544	42	5663
2026-01-10 02:21:17.04	330.95	34.50	-33.1	-34.2	30.5	3.02e+01	0	26	0	913309696	42	5569
2026-01-10 02:21:18.05	331.05	34.24	-33.1	-34.2	30.5	3.02e+01	0	25	0	914882560	42	5573
2026-01-10 02:21:19.06	331.14	33.99	-33.0	-34.2	30.5	3.02e+01	0	25	0	916979712	42	5564
2026-01-10 02:21:20.07	331.23	33.74	-32.8	-33.9	30.7	3.02e+01	0	26	0	918552576	40	6048
2026-01-10 02:21:21.08	331.33	33.49	-32.5	-33.6	30.9	3.02e+01	0	26	0	920649728	40	5857
2026-01-10 02:21:22.09	331.42	33.25	-32.6	-33.7	30.8	3.02e+01	0	26	0	922746880	40	5919
2026-01-10 02:21:23.10	331.51	33.00	-32.9	-34.0	30.7	3.02e+01	0	25	0	924319744	40	6115
2026-01-10 02:21:24.11	331.59	32.76	-32.9	-34.0	30.6	3.02e+01	0	25	0	926416896	40	6121
2026-01-10 02:21:25.12	331.68	32.52	-33.0	-34.2	30.5	3.02e+01	0	25	0	927989760	40	6227
2026-01-10 02:21:26.12	331.77	32.29	-33.0	-34.2	30.4	3.02e+01	0	26	0	930086912	40	6244
2026-01-10 02:21:27.13	331.85	32.05	-32.7	-33.8	30.6	3.02e+01	0	26	0	932184064	40	5983
2026-01-10 02:21:28.14	331.93	31.82	-32.4	-33.6	30.8	3.02e+01	0	26	0	933756928	40	5796
2026-01-10 02:21:29.15	332.01	31.58	-32.6	-33.7	30.8	3.02e+01	0	26	0	935854080	40	5903
2026-01-10 02:21:30.16	332.10	31.35	-32.6	-33.8	30.8	3.02e+01	0	25	0	937426944	40	5936
2026-01-10 02:21:31.17	332.18	31.13	-32.4	-33.6	30.8	3.02e+01	0	25	0	939524096	40	5818
2026-01-10 02:21:32.18	332.25	30.90	-32.5	-33.6	30.8	3.02e+01	0	25	0	941621248	40	5851
2026-01-10 02:21:33.19	332.33	30.67	-32.5	-33.7	30.8	3.02e+01	0	25	0	943194112	40	5862
2026-01-10 02:21:34.20	332.41	30.45	-32.4	-33.5	30.9	3.02e+01	0	26	0	945291264	40	5771
2026-01-10 02:21:35.21	332.48	30.23	-32.5	-33.7	30.8	3.02e+01	0	26	0	946864128	40	5870
2026-01-10 02:21:36.22	332.56	30.01	-32.6	-33.7	30.8	3.02e+01	0	25	0	948961280	40	5891
2026-01-10 02:21:37.22	332.63	29.79	-32.5	-33.7	30.8	3.02e+01	0	26	0	951058432	40	5863
2026-01-10 02:21:38.23	332.70	29.58	-32.7	-33.9	30.7	3.02e+01	0	26	0	952631296	40	6015
2026-01-10 02:21:39.24	332.78	29.36	-32.6	-33.8	30.8	3.02e+01	0	26	0	954728448	40	5952
2026-01-10 02:21:40.25	332.85	29.15	-32.8	-33.9	30.7	3.02e+01	0	26	0	956301312	40	6060
2026-01-10 02:21:41.26	332.92	28.94	-32.9	-34.1	30.6	3.02e+01	0	26	0	958398464	40	6138
2026-01-10 02:21:42.27	332.98	28.73	-33.0	-34.1	30.4	3.02e+01	0	26	0	960495616	40	6199
2026-01-10 02:21:43.28	333.05	28.52	-33.0	-34.1	30.5	3.02e+01	0	25	0	962068480	40	6197
2026-01-10 02:21:44.29	333.12	28.32	-33.1	-34.3	30.4	3.02e+01	0	25	0	964165632	40	6299
2026-01-10 02:21:45.30	333.19	28.11	-33.2	-34.4	30.2	3.02e+01	0	26	0	966262784	40	6383
2026-01-10 02:21:46.31	333.25	27.91	-33.3	-34.4	30.1	3.02e+01	0	25	0	967835648	40	6418
2026-01-10 02:21:47.32	333.32	27.71	-33.3	-34.4	30.1	3.02e+01	0	26	0	969932800	40	6415
2026-01-10 02:21:48.33	333.38	27.51	-33.3	-34.4	30.1	3.02e+01	0	26	0	971505664	40	6415
2026-01-10 02:21:49.34	333.44	27.31	-33.4	-34.5	30.1	3.02e+01	0	25	0	973602816	40	6477
2026-01-10 02:21:50.34	333.51	27.12	-33.7	-34.9	29.8	3.02e+01	0	25	0	975699968	40	6730
2026-01-10 02:21:51.35	333.57	26.92	-33.4	-34.5	30.0	3.02e+01	0	25	0	977272832	40	6490
2026-01-10 02:21:52.36	333.63	26.73	-33.4	-34.6	30.0	3.02e+01	0	25	0	979369984	40	6548
2026-01-10 02:21:53.37	333.69	26.54	-33.4	-34.6	30.0	3.02e+01	0	25	0	980942848	40	6510
2026-01-10 02:21:54.38	333.75	26.35	-33.5	-34.7	30.0	3.02e+01	0	25	0	983040000	40	6611
2026-01-10 02:21:55.39	333.81	26.16	-33.5	-34.7	29.9	3.02e+01	0	25	0	985137152	40	6619
2026-01-10 02:21:56.40	333.87	25.97	-33.7	-34.9	29.8	3.02e+01	0	25	0	986710016	40	6751
2026-01-10 02:21:57.41	333.92	25.78	-33.7	-34.9	29.7	3.02e+01	0	25	0	988807168	40	6742
2026-01-10 02:21:58.42	333.98	25.60	-33.8	-35.0	29.6	3.02e+01	0	25	0	990380032	40	6861
2026-01-10 02:21:59.43	334.04	25.41	-33.7	-34.9	29.7	3.02e+01	0	25	0	992477184	40	6763
2026-01-10 02:22:00.44	334.09	25.23	-33.7	-34.9	29.7	3.02e+01	0	25	0	994574336	40	6792
2026-01-10 02:22:01.45	334.15	25.05	-33.5	-34.6	29.9	3.02e+01	0	25	0	996147200	40	6568
2026-01-10 02:22:02.45	334.20	24.87	-33.5	-34.7	29.9	3.02e+01	0	25	0	998244352	40	6623
2026-01-10 02:22:03.46	334.26	24.69	-33.5	-34.7	29.9	3.02e+01	0	25	0	999817216	40	6585
2026-01-10 02:22:04.47	334.31	24.52	-33.5	-34.7	29.8	3.02e+01	0	25	0	1001914368	40	6604
2026-01-10 02:22:05.48	334.36	24.34	-33.5	-34.6	29.9	3.02e+01	0	25	0	1004011520	40	6562
2026-01-10 02:22:06.49	334.41	24.16	-33.5	-34.7	29.9	3.02e+01	0	25	0	1005584384	40	6595
2026-01-10 02:22:07.50	334.47	23.99	-33.6	-34.8	29.9	3.02e+01	0	25	0	1007681536	40	6677
2026-01-10 02:22:08.51	334.52	23.82	-33.8	-35.0	29.8	3.02e+01	0	25	0	1009778688	40	6833
2026-01-10 02:22:09.52	334.57	23.65	-34.0	-35.2	28.9	3.02e+01	0	25	0	1011351552	40	7030
2026-01-10 02:22:10.53	334.62	23.48	-33.7	-34.9	29.7	3.02e+01	0	25	0	1013448704	42	6022
2026-01-10 02:22:11.54	334.67	23.31	-33.8	-34.9	29.7	3.02e+01	0	25	0	1015021568	42	6053
2026-01-10 02:22:12.55	334.72	23.14	-33.7	-34.9	29.7	3.02e+01	0	25	0	1017118720	42	6023
2026-01-10 02:22:13.55	334.76	22.98	-33.8	-34.9	29.7	3.02e+01	0	25	0	1019215872	42	6052
2026-01-10 02:22:14.56	334.81	22.81	-33.9	-35.1	29.7	3.02e+01	0	25	0	1020788736	42	6143
2026-01-10 02:22:15.57	334.86	22.65	-33.9	-35.1	29.6	3.02e+01	0	25	0	1022885888	42	6175
2026-01-10 02:22:16.58	334.91	22.49	-34.0	-35.2	29.6	3.02e+01	0	25	0	1024458752	42	6225
2026-01-10 02:22:17.59	334.95	22.32	-34.0	-35.2	29.5	3.02e+01	0	25	0	1026555904	42	6244
2026-01-10 02:22:18.60	335.00	22.16	-33.7	-34.9	29.7	3.02e+01	0	25	0	1028653056	42	6015
2026-01-10 02:22:19.61	335.05	22.00	-33.6	-34.7	29.8	3.02e+01	0	25	0	1030225920	42	5916
2026-01-10 02:22:20.62	335.09	21.84	-33.6	-34.8	29.9	3.02e+01	0	25	0	1032323072	42	5931
2026-01-10 02:22:21.63	335.14	21.69	-33.5	-34.7	29.9	3.02e+01	0	25	0	1034420224	42	5909
2026-01-10 02:22:22.63	335.18	21.53	-33.7	-34.9	29.8	3.02e+01	0	25	0	1035993088	42	6034
2026-01-10 02:22:23.64	335.22	21.38	-33.8	-35.0	29.7	3.02e+01	0	25	0	1038090240	42	6065
2026-01-10 02:22:24.65	335.27	21.22	-33.7	-34.9	29.7	3.02e+01	0	25	0	1039663104	42	6030
2026-01-10 02:22:25.66	335.31	21.07	-33.6	-34.8	29.8	3.02e+01	0	25	0	1041760256	42	5948
2026-01-10 02:22:26.67	335.35	20.92	-33.6	-34.8	29.8	3.02e+01	0	25	0	1043333120	42	5948
2026-01-10 02:22:27.68	335.40	20.77	-33.6	-34.8	29.8	3.02e+01	0	25	0	1045430272	42	5971
2026-01-10 02:22:28.69	335.44	20.61	-33.6	-34.8	29.8	3.02e+01	0	25	0	1047527424	42	5967
2026-01-10 02:22:29.70	335.48	20.47	-33.6	-34.8	29.8	3.02e+01	0	25	0	1049100288	42	5969
2026-01-10 02:22:30.71	335.52	20.32	-33.5	-34.7	29.9	3.02e+01	0	25	0	1051197440	42	5873
2026-01-10 02:22:31.72	335.56	20.17	-33.5	-34.6	29.9	3.02e+01	0	25	0	1052770304	42	5858
2026-01-10 02:22:32.72	335.60	20.02	-33.4	-34.6	29.9	3.02e+01	0	25	0	1054867456	42	5823
2026-01-10 02:22:33.73	335.64	19.88	-33.5	-34.6	29.8	3.02e+01	0	25	0	1056964608	42	5852
2026-01-10 02:22:34.74	335.68	19.73	-33.3	-34.5	29.9	3.02e+01	0	25	0	1058537472	42	5762
2026-01-10 02:22:35.75	335.72	19.59	-33.3	-34.5	30.0	3.02e+01	0	25	0	1060634624	42	5772
2026-01-10 02:22:36.76	335.76	19.45	-33.2	-34.4	30.1	3.02e+01	0	25	0	1062731776	42	5673
2026-01-10 02:22:37.76	335.80	19.31	-33.2	-34.4	30.0	3.02e+01	0	25	0	1064304640	42	5688
2026-01-10 02:22:38.77	335.84	19.17	-33.2	-34.3	30.1	3.02e+01	0	25	0	1066401792	42	5637
2026-01-10 02:22:39.78	335.88	19.03	-33.1	-34.3	30.2	3.02e+01	0	25	0	1067974656	42	5621
2026-01-10 02:22:40.79	335.91	18.89	-33.2	-34.4	30.2	3.02e+01	0	25	0	1070071808	42	5665
2026-01-10 02:22:41.80	335.95	18.75	-33.2	-34.3	30.2	3.02e+01	0	25	0	1072168960	42	5655
2026-01-10 02:22:42.81	335.99	18.61	-33.2	-34.4	30.1	3.02e+01	0	25	0	1073741824	42	5660
2026-01-10 02:22:43.81	336.02	18.47	-33.2	-34.4	30.2	3.02e+01	0	25	0	1075838976	42	5685
2026-01-10 02:22:44.82	336.06	18.34	-33.3	-34.5	29.9	3.02e+01	0	25	0	1077411840	42	5734
2026-01-10 02:22:45.83	336.10	18.20	-33.3	-34.4	30.0	3.02e+01	0	25	0	1079508992	42	5724
2026-01-10 02:22:46.84	336.13	18.07	-33.3	-34.5	30.0	3.02e+01	0	25	0	1081606144	42	5743
2026-01-10 02:22:47.85	336.17	17.93	-33.2	-34.4	30.0	3.02e+01	0	25	0	1083179008	42	5681
2026-01-10 02:22:48.86	336.20	17.80	-33.3	-34.5	30.0	3.02e+01	0	25	0	1085276160	42	5743
2026-01-10 02:22:49.86	336.24	17.67	-33.4	-34.6	29.9	3.02e+01	0	25	0	1086849024	42	5796
2026-01-10 02:22:50.87	336.27	17.54	-33.5	-34.6	29.9	3.02e+01	0	25	0	1088946176	42	5838
2026-01-10 02:22:51.88	336.31	17.41	-33.4	-34.6	29.9	3.02e+01	0	25	0	1091043328	42	5816
2026-01-10 02:22:52.89	336.34	17.28	-33.2	-34.3	30.1	3.02e+01	0	25	0	1092616192	42	5641
2026-01-10 02:22:53.90	336.38	17.15	-33.3	-34.4	30.1	3.02e+01	0	25	0	1094713344	42	5707
2026-01-10 02:22:54.91	336.41	17.02	-33.2	-34.3	30.1	3.02e+01	0	25	0	1096286208	42	5635
2026-01-10 02:22:55.92	336.44	16.89	-33.2	-34.3	30.1	3.02e+01	0	25	0	1098383360	42	5659
2026-01-10 02:22:56.93	336.48	16.77	-33.1	-34.3	30.1	3.02e+01	0	25	0	1100480512	42	5628
2026-01-10 02:22:57.93	336.51	16.64	-33.2	-34.3	30.2	3.02e+01	0	25	0	1102053376	42	5644
2026-01-10 02:22:58.94	336.54	16.52	-33.4	-34.5	29.9	3.02e+01	0	25	0	1104150528	42	5781
2026-01-10 02:22:59.95	336.57	16.39	-33.2	-34.4	30.0	3.02e+01	0	25	0	1106247680	42	5672
2026-01-10 02:23:00.96	336.61	16.27	-33.3	-34.5	29.9	3.02e+01	0	25	0	1107820544	42	5750
2026-01-10 02:23:01.97	336.64	16.14	-33.3	-34.5	29.9	3.02e+01	0	25	0	1109917696	42	5763
2026-01-10 02:23:02.98	336.67	16.02	-33.3	-34.5	29.9	3.02e+01	0	25	0	1111490560	42	5760
2026-01-10 02:23:03.99	336.70	15.90	-33.2	-34.4	30.0	3.02e+01	0	25	0	1113587712	42	5708
2026-01-10 02:23:05.00	336.73	15.78	-33.3	-34.5	30.0	3.02e+01	0	25	0	1115684864	42	5745
2026-01-10 02:23:06.00	336.76	15.66	-33.2	-34.4	30.0	3.02e+01	0	25	0	1117257728	42	5704
2026-01-10 02:23:07.01	336.79	15.54	-33.3	-34.4	30.0	3.02e+01	0	25	0	1119354880	42	5713
2026-01-10 02:23:08.02	336.82	15.42	-33.4	-34.6	29.8	3.02e+01	0	25	0	1120927744	42	5834
2026-01-10 02:23:09.03	336.85	15.30	-33.4	-34.6	30.0	3.02e+01	0	25	0	1123024896	42	5810
2026-01-10 02:23:10.04	336.88	15.18	-33.4	-34.6	29.9	3.02e+01	0	25	0	1125122048	42	5820
2026-01-10 02:23:11.04	336.91	15.07	-33.4	-34.6	29.9	3.02e+01	0	25	0	1126694912	42	5826
2026-01-10 02:23:12.05	336.94	14.95	-33.5	-34.7	29.8	3.02e+01	0	25	0	1128792064	42	5882
2026-01-10 02:23:13.06	336.97	14.83	-33.4	-34.6	29.9	3.02e+01	0	25	0	1130364928	42	5851
2026-01-10 02:23:14.07	337.00	14.72	-33.5	-34.7	29.8	3.02e+01	0	25	0	1132462080	42	5863
2026-01-10 02:23:15.08	337.03	14.60	-33.6	-34.8	29.8	3.02e+01	0	25	0	1134559232	42	5938
2026-01-10 02:23:16.09	337.06	14.49	-33.5	-34.7	29.8	3.02e+01	0	25	0	1136132096	42	5875
2026-01-10 02:23:17.10	337.09	14.37	-33.7	-34.9	29.6	3.02e+01	0	25	0	1138229248	42	5995
2026-01-10 02:23:18.10	337.12	14.26	-33.6	-34.8	29.7	3.02e+01	0	25	0	1139802112	42	5942
2026-01-10 02:23:19.11	337.14	14.15	-33.5	-34.7	29.8	3.02e+01	0	25	0	1141899264	42	5898
2026-01-10 02:23:20.12	337.17	14.04	-33.6	-34.8	29.7	3.02e+01	0	25	0	1143996416	42	5966
2026-01-10 02:23:21.13	337.20	13.92	-33.6	-34.8	29.7	3.02e+01	0	25	0	1145569280	42	5962
2026-01-10 02:23:22.14	337.23	13.81	-33.7	-34.8	29.6	3.02e+01	0	25	0	1147666432	42	5993
2026-01-10 02:23:23.15	337.26	13.70	-33.6	-34.8	29.7	3.02e+01	0	25	0	1149239296	42	5937
2026-01-10 02:23:24.16	337.28	13.59	-33.6	-34.8	29.6	3.02e+01	0	25	0	1151336448	42	5959
2026-01-10 02:23:25.16	337.31	13.49	-33.6	-34.8	29.6	3.02e+01	0	25	0	1153433600	42	5985
2026-01-10 02:23:26.17	337.34	13.38	-33.6	-34.8	29.6	3.02e+01	0	25	0	1155006464	42	5969
2026-01-10 02:23:27.18	337.36	13.27	-33.7	-35.0	29.5	3.02e+01	0	25	0	1157103616	42	6065
2026-01-10 02:23:28.19	337.39	13.16	-33.7	-34.9	29.5	3.02e+01	0	25	0	1159200768	42	6037
2026-01-10 02:23:29.20	337.42	13.05	-33.9	-35.1	29.3	3.02e+01	0	25	0	1160773632	42	6169
2026-01-10 02:23:30.21	337.44	12.95	-33.9	-35.1	29.3	3.02e+01	0	25	0	1162870784	42	6204
2026-01-10 02:23:31.22	337.47	12.84	-33.7	-34.9	29.4	3.02e+01	0	25	0	1164443648	42	6063
2026-01-10 02:23:32.23	337.49	12.73	-33.8	-35.0	29.4	3.02e+01	0	25	0	1166540800	42	6089
2026-01-10 02:23:33.24	337.52	12.63	-33.8	-35.0	29.4	3.02e+01	0	25	0	1168637952	42	6082
2026-01-10 02:23:34.24	337.55	12.53	-33.7	-34.9	29.5	3.02e+01	0	25	0	1170210816	42	6043
2026-01-10 02:23:35.26	337.57	12.42	-33.8	-35.0	29.4	3.02e+01	0	25	0	1172307968	42	6077
2026-01-10 02:23:36.26	337.60	12.32	-33.7	-34.9	29.5	3.02e+01	0	25	0	1173880832	42	6045
2026-01-10 02:23:37.27	337.62	12.21	-33.8	-35.0	29.4	3.02e+01	0	25	0	1175977984	42	6123
2026-01-10 02:23:38.28	337.65	12.11	-33.8	-35.0	29.4	3.02e+01	0	25	0	1178075136	42	6101
2026-01-10 02:23:39.29	337.67	12.01	-33.8	-35.0	29.4	3.02e+01	0	25	0	1179648000	42	6132
2026-01-10 02:23:40.30	337.70	11.91	-34.2	-44.0	3.4	3.02e+01	0	25	104	1181220864	42	17181
2026-01-10 02:23:41.31	337.72	11.81	-34.2	-44.3	3.4	3.02e+01	0	25	104	1181220864	42	17888
2026-01-10 02:23:42.32	337.74	11.71	-34.2	-44.5	3.6	3.02e+01	0	25	104	1181220864	42	18251
2026-01-10 02:23:43.32	337.77	11.61	-34.3	-44.4	3.6	3.02e+01	0	25	104	1181220864	42	18066
2026-01-10 02:23:44.33	337.79	11.51	-43.9	-56.0	3.6	3.02e+01	0	25	104	1181220864	60	24376
2026-01-10 02:23:45.34	337.82	11.41	-35.9	-46.2	3.4	3.02e+01	0	25	104	1181220864	50	13937
2026-01-10 02:23:46.35	337.84	11.31	-46.6	-62.2	3.5	3.02e+01	0	25	104	1181220864	60	49444
2026-01-10 02:23:47.36	337.86	11.21	-39.8	-50.6	3.3	3.02e+01	0	25	104	1181220864	58	14568
2026-01-10 02:23:48.37	337.89	11.11	-39.5	-50.1	3.6	3.02e+01	0	25	104	1181220864	54	17434
2026-01-10 02:23:49.38	337.91	11.01	-36.3	-46.7	3.6	3.02e+01	0	25	104	1181220864	48	16517
2026-01-10 02:23:50.39	337.93	10.92	-35.7	-46.1	3.3	3.02e+01	0	25	104	1181220864	46	17331
2026-01-10 02:23:51.40	337.96	10.82	-35.2	-45.4	4.1	3.02e+01	0	25	104	1181220864	46	15980
2026-01-10 02:23:52.40	337.98	10.72	-35.0	-45.2	3.4	3.02e+01	0	25	104	1181220864	46	15694
2026-01-10 02:23:53.41	338.00	10.63	-36.2	-46.5	4.1	3.02e+01	0	25	104	1181220864	46	18272
2026-01-10 02:23:54.42	338.02	10.53	-36.9	-47.3	4.1	3.02e+01	0	25	104	1181220864	50	15800
2026-01-10 02:23:55.43	338.05	10.44	-43.6	-55.6	3.6	3.02e+01	0	25	104	1181220864	60	23113
2026-01-10 02:23:56.44	338.07	10.34	-43.2	-55.0	3.5	3.02e+01	0	25	104	1181220864	60	21717
