passes_logs/2026/01/10/R4.6S_Anadyr/R4.6S_Anadyr__20260110_122804_NOAA_21_JPSS-2_rec.log

#Pass ID: 20260110_122804_NOAA 21 (JPSS-2)
#Satellite: NOAA 21 (JPSS-2)
#Configuration: NOAA-21
#almurnet v.1.7.20251203
#Start time: 2026-01-10 12:28:05

#Version: 2.2.20231116
#Station: R4.6S_Anadyr
#Location: 177.4865 lon 64.73178 lat
#TLE: 1 54234U 22150A   26009.79679979  .00000100  00000+0  68070-4 0  9993
#TLE: 2 54234  98.7494 310.7596 0000833 322.2782  37.8335 14.19533646164071

#Time	Az	El	Level	Level2	SNR	BER	BlckErr	Temp	State	Recorded	gain1	gain2
2026-01-10 12:28:05.83	18.94	0.06	-48.2	-63.1	3.5	1.51e+00	0	27	0	0	60	51761
2026-01-10 12:28:06.83	19.01	0.11	-48.4	-61.2	3.5	1.52e+00	0	29	104	0	60	40381
2026-01-10 12:28:07.84	19.08	0.16	-48.3	-61.1	3.5	1.52e+00	0	29	104	0	60	39958
2026-01-10 12:28:08.85	19.16	0.21	-48.3	-61.1	3.5	1.52e+00	0	29	104	0	60	39687
2026-01-10 12:28:09.86	19.23	0.26	-48.2	-61.1	3.5	1.52e+00	0	29	104	0	60	39836
2026-01-10 12:28:10.87	19.30	0.31	-48.3	-61.1	3.5	1.51e+00	0	29	104	0	60	40040
2026-01-10 12:28:11.88	19.37	0.36	-48.3	-61.1	3.5	1.52e+00	0	29	104	0	60	39969
2026-01-10 12:28:12.89	19.45	0.41	-48.3	-61.1	3.5	1.52e+00	0	29	104	0	60	39699
2026-01-10 12:28:13.90	19.52	0.46	-48.2	-61.1	3.5	1.52e+00	0	29	104	0	60	39797
2026-01-10 12:28:14.91	19.59	0.51	-48.1	-61.0	3.5	1.52e+00	0	29	104	0	60	39326
2026-01-10 12:28:15.92	19.67	0.56	-48.1	-60.9	3.5	1.52e+00	0	29	104	0	60	39080
2026-01-10 12:28:16.93	19.74	0.61	-47.9	-60.8	3.5	1.52e+00	0	29	104	0	60	38377
2026-01-10 12:28:17.94	19.81	0.66	-47.8	-60.6	3.5	1.52e+00	0	29	104	0	60	37792
2026-01-10 12:28:18.95	19.89	0.71	-47.6	-60.5	3.5	1.52e+00	0	29	104	0	60	37246
2026-01-10 12:28:19.96	19.96	0.77	-47.4	-60.3	3.5	1.51e+00	0	29	104	0	60	36325
2026-01-10 12:28:20.97	20.04	0.82	-47.2	-59.9	3.5	1.52e+00	0	29	104	0	60	34863
2026-01-10 12:28:21.98	20.11	0.87	-46.6	-59.4	3.5	1.52e+00	0	29	104	0	60	32859
2026-01-10 12:28:22.99	20.19	0.92	-46.6	-59.4	3.5	1.52e+00	0	29	104	0	60	32668
2026-01-10 12:28:24.00	20.26	0.97	-46.6	-59.3	3.5	1.52e+00	0	29	104	0	60	32413
2026-01-10 12:28:25.01	20.34	1.02	-46.5	-59.3	3.5	1.52e+00	0	29	104	0	60	32385
2026-01-10 12:28:26.02	20.42	1.07	-46.6	-59.3	3.5	1.52e+00	0	29	104	0	60	32416
2026-01-10 12:28:27.03	20.49	1.12	-46.6	-59.3	3.5	1.52e+00	0	29	104	0	60	32433
2026-01-10 12:28:28.04	20.57	1.17	-46.6	-59.3	3.5	1.52e+00	0	30	104	0	60	32430
2026-01-10 12:28:29.05	20.65	1.22	-46.5	-59.3	3.5	1.52e+00	0	30	104	0	60	32484
2026-01-10 12:28:30.06	20.72	1.28	-46.5	-59.3	3.5	1.52e+00	0	29	104	0	60	32419
2026-01-10 12:28:31.07	20.80	1.33	-46.5	-59.3	3.5	1.52e+00	0	29	104	0	60	32389
2026-01-10 12:28:32.08	20.88	1.38	-46.5	-59.3	3.5	1.52e+00	0	30	104	0	60	32555
2026-01-10 12:28:33.09	20.95	1.43	-46.5	-59.4	3.5	1.52e+00	0	30	104	0	60	32577
2026-01-10 12:28:34.10	21.03	1.48	-46.5	-59.3	3.5	1.51e+00	0	30	104	0	60	32466
2026-01-10 12:28:35.11	21.11	1.53	-46.5	-59.4	3.5	1.52e+00	0	30	104	0	60	32595
2026-01-10 12:28:36.12	21.19	1.59	-46.5	-59.3	3.5	1.52e+00	0	30	104	0	60	32544
2026-01-10 12:28:37.13	21.27	1.64	-46.5	-59.3	3.5	1.52e+00	0	30	104	0	60	32437
2026-01-10 12:28:38.14	21.35	1.69	-46.5	-59.3	3.5	1.52e+00	0	30	104	0	60	32471
2026-01-10 12:28:39.15	21.43	1.74	-46.5	-59.2	3.5	1.52e+00	0	30	104	0	60	31977
2026-01-10 12:28:40.16	21.51	1.79	-46.5	-59.2	3.5	1.52e+00	0	30	104	0	60	32174
2026-01-10 12:28:41.17	21.59	1.84	-46.5	-59.2	3.5	1.52e+00	0	30	104	0	60	32177
2026-01-10 12:28:42.18	21.67	1.90	-46.5	-59.3	3.5	1.52e+00	0	30	104	0	60	32388
2026-01-10 12:28:43.19	21.75	1.95	-46.5	-59.3	3.5	1.52e+00	0	30	104	0	60	32308
2026-01-10 12:28:44.20	21.83	2.00	-46.5	-59.3	3.5	1.51e+00	0	30	104	0	60	32350
2026-01-10 12:28:45.21	21.91	2.05	-46.5	-59.3	3.5	1.52e+00	0	30	104	0	60	32207
2026-01-10 12:28:46.22	21.99	2.10	-46.5	-59.3	3.5	1.52e+00	0	30	104	0	60	32317
2026-01-10 12:28:47.23	22.07	2.16	-46.5	-59.2	3.5	1.52e+00	0	30	104	0	60	32177
2026-01-10 12:28:48.24	22.15	2.21	-46.5	-58.9	3.5	1.52e+00	0	30	104	0	60	30928
2026-01-10 12:28:49.25	22.23	2.26	-46.4	-58.3	3.5	1.52e+00	0	30	104	0	60	28820
2026-01-10 12:28:50.26	22.32	2.31	-46.4	-58.0	3.5	1.52e+00	0	30	104	0	60	27957
2026-01-10 12:28:51.27	22.40	2.37	-46.4	-58.2	3.5	1.51e+00	0	30	104	0	60	28680
2026-01-10 12:28:52.28	22.48	2.42	-46.4	-57.9	3.5	1.51e+00	0	30	104	0	60	27699
2026-01-10 12:28:53.29	22.56	2.47	-46.1	-55.0	4.8	1.49e+00	0	30	104	0	60	19828
2026-01-10 12:28:54.30	22.65	2.52	-45.2	-50.3	7.8	1.98e-01	0	30	0	1048576	60	11534
2026-01-10 12:28:55.31	22.73	2.58	-43.8	-47.2	11.5	3.76e-03	0	30	0	4194304	60	8021
2026-01-10 12:28:56.32	22.81	2.63	-41.8	-44.1	14.5	2.20e-06	0	30	0	7340032	58	6332
2026-01-10 12:28:57.33	22.90	2.68	-40.7	-42.6	16.1	0.00e+00	0	30	0	10485760	56	5971
2026-01-10 12:28:58.34	22.98	2.73	-39.5	-41.1	17.4	0.00e+00	0	30	0	13631488	52	6334
2026-01-10 12:28:59.35	23.07	2.79	-39.1	-40.6	17.9	0.00e+00	0	30	0	16777216	52	5956
2026-01-10 12:29:00.36	23.15	2.84	-39.1	-40.6	17.9	0.00e+00	0	30	0	19922944	52	5977
2026-01-10 12:29:01.37	23.24	2.89	-39.5	-41.1	17.4	0.00e+00	0	30	0	23068672	52	6327
2026-01-10 12:29:02.38	23.32	2.95	-40.7	-42.6	15.9	0.00e+00	0	30	0	26214400	52	7474
2026-01-10 12:29:03.39	23.41	3.00	-42.6	-45.3	13.1	8.30e-06	0	30	0	29360128	56	8092
2026-01-10 12:29:04.40	23.49	3.05	-42.6	-45.2	13.9	7.19e-04	0	30	0	32505856	58	7135
2026-01-10 12:29:05.41	23.58	3.11	-39.3	-40.9	18.0	0.00e+00	0	30	0	35651584	52	6137
2026-01-10 12:29:06.42	23.67	3.16	-40.8	-42.7	14.5	0.00e+00	0	30	0	38797312	50	8511
2026-01-10 12:29:07.43	23.75	3.21	-46.5	-59.2	3.5	1.51e+00	0	30	104	39845888	60	32066
2026-01-10 12:29:08.44	23.84	3.26	-41.6	-44.0	17.2	5.00e-01	0	30	104	39845888	60	5591
2026-01-10 12:29:09.45	23.93	3.32	-41.8	-43.9	15.6	1.98e-05	0	30	0	41943040	58	6161
2026-01-10 12:29:10.46	24.02	3.37	-38.9	-40.3	18.6	0.00e+00	0	30	0	45088768	52	5758
2026-01-10 12:29:11.47	24.11	3.43	-38.5	-39.9	18.7	0.00e+00	0	30	0	48234496	50	6135
2026-01-10 12:29:12.48	24.19	3.48	-38.8	-40.2	18.8	0.00e+00	0	30	0	51380224	50	6357
2026-01-10 12:29:13.49	24.28	3.53	-38.2	-39.5	19.3	0.00e+00	0	30	0	54525952	50	5890
2026-01-10 12:29:14.50	24.37	3.59	-38.0	-39.3	19.4	0.00e+00	0	30	0	57671680	50	5772
2026-01-10 12:29:15.51	24.46	3.64	-38.0	-39.3	19.4	0.00e+00	0	30	0	60817408	50	5726
2026-01-10 12:29:16.51	24.55	3.69	-38.1	-39.4	19.3	0.00e+00	0	30	0	63963136	50	5844
2026-01-10 12:29:17.52	24.64	3.75	-38.1	-39.4	19.3	0.00e+00	0	30	0	67108864	50	5828
2026-01-10 12:29:18.53	24.73	3.80	-37.8	-39.1	19.6	0.00e+00	0	30	0	70254592	50	5609
2026-01-10 12:29:19.55	24.82	3.85	-37.9	-39.2	19.5	0.00e+00	0	30	0	73400320	50	5670
2026-01-10 12:29:20.56	24.91	3.91	-38.0	-39.3	19.4	0.00e+00	0	30	0	76546048	50	5741
2026-01-10 12:29:21.57	25.00	3.96	-37.9	-39.2	19.5	0.00e+00	0	30	0	79691776	50	5694
2026-01-10 12:29:22.58	25.10	4.02	-37.8	-39.0	19.8	0.00e+00	0	30	0	82837504	50	5557
2026-01-10 12:29:23.59	25.19	4.07	-37.8	-39.0	19.7	0.00e+00	0	30	0	85983232	48	6268
2026-01-10 12:29:24.60	25.28	4.12	-37.7	-39.0	19.7	0.00e+00	0	30	0	89128960	48	6226
2026-01-10 12:29:25.60	25.37	4.18	-37.7	-39.0	19.8	0.00e+00	0	30	0	92274688	48	6220
2026-01-10 12:29:26.61	25.46	4.23	-37.8	-39.1	19.7	0.00e+00	0	30	0	95420416	48	6292
2026-01-10 12:29:27.62	25.56	4.29	-37.8	-39.1	19.7	0.00e+00	0	30	0	98566144	48	6298
2026-01-10 12:29:28.63	25.65	4.34	-38.1	-39.4	19.4	0.00e+00	0	30	0	101711872	48	6539
2026-01-10 12:29:29.64	25.75	4.40	-37.6	-38.8	19.9	0.00e+00	0	30	0	104857600	48	6128
2026-01-10 12:29:30.65	25.84	4.45	-37.6	-38.8	19.9	0.00e+00	0	30	0	108003328	48	6109
2026-01-10 12:29:31.66	25.93	4.50	-37.5	-38.7	20.1	0.00e+00	0	30	0	111149056	48	6050
2026-01-10 12:29:32.67	26.03	4.56	-37.4	-38.7	20.1	0.00e+00	0	30	0	114294784	48	5996
2026-01-10 12:29:33.68	26.12	4.61	-37.5	-38.7	20.1	0.00e+00	0	30	0	117440512	48	6044
2026-01-10 12:29:34.69	26.22	4.67	-37.5	-38.7	20.1	0.00e+00	0	30	0	121634816	48	6061
2026-01-10 12:29:35.70	26.32	4.72	-37.4	-38.6	20.2	0.00e+00	0	30	0	124780544	48	5993
2026-01-10 12:29:36.71	26.41	4.78	-37.3	-38.5	20.3	0.00e+00	0	30	0	126877696	48	5919
2026-01-10 12:29:37.72	26.51	4.83	-37.4	-38.6	20.2	0.00e+00	0	30	0	130023424	48	5957
2026-01-10 12:29:38.73	26.60	4.89	-37.3	-38.5	20.4	0.00e+00	0	30	0	133169152	48	5859
2026-01-10 12:29:39.74	26.70	4.94	-37.3	-38.5	20.3	0.00e+00	0	30	0	137363456	48	5895
2026-01-10 12:29:40.75	26.80	5.00	-37.2	-38.4	20.4	0.00e+00	0	30	0	140509184	48	5838
2026-01-10 12:29:41.76	26.90	5.05	-37.2	-38.4	20.4	0.00e+00	0	30	0	143654912	48	5816
2026-01-10 12:29:42.77	27.00	5.11	-37.3	-38.5	20.5	0.00e+00	0	30	0	146800640	48	5860
2026-01-10 12:29:43.78	27.09	5.16	-37.3	-38.5	20.3	0.00e+00	0	30	0	148897792	48	5877
2026-01-10 12:29:44.79	27.19	5.22	-37.2	-38.4	20.5	0.00e+00	0	30	0	153092096	48	5800
2026-01-10 12:29:45.80	27.29	5.27	-37.1	-38.3	20.6	0.00e+00	0	30	0	156237824	48	5742
2026-01-10 12:29:46.81	27.39	5.33	-37.1	-38.3	20.6	0.00e+00	0	30	0	159383552	48	5727
2026-01-10 12:29:47.82	27.49	5.38	-37.1	-38.2	20.6	0.00e+00	0	30	0	162529280	48	5714
2026-01-10 12:29:48.83	27.59	5.44	-37.2	-38.4	20.5	0.00e+00	0	30	0	165675008	48	5796
2026-01-10 12:29:49.84	27.69	5.49	-37.0	-38.1	20.7	0.00e+00	0	30	0	168820736	48	5619
2026-01-10 12:29:50.85	27.79	5.55	-36.9	-38.1	20.7	0.00e+00	0	30	0	171966464	48	5605
2026-01-10 12:29:51.86	27.90	5.60	-36.9	-38.0	20.8	0.00e+00	0	30	0	175112192	48	5577
2026-01-10 12:29:52.87	28.00	5.66	-37.0	-38.1	20.7	0.00e+00	0	30	0	178257920	48	5635
2026-01-10 12:29:53.88	28.10	5.72	-36.9	-38.0	20.8	0.00e+00	0	30	0	181403648	48	5556
2026-01-10 12:29:54.89	28.20	5.77	-36.9	-38.1	20.8	0.00e+00	0	30	0	184549376	48	5608
2026-01-10 12:29:55.90	28.31	5.83	-36.8	-37.9	20.9	0.00e+00	0	30	0	187695104	48	5520
2026-01-10 12:29:56.91	28.41	5.88	-36.9	-38.0	20.8	0.00e+00	0	30	0	190840832	46	6251
2026-01-10 12:29:57.92	28.51	5.94	-36.8	-38.0	20.9	0.00e+00	0	30	0	193986560	46	6238
2026-01-10 12:29:58.93	28.62	5.99	-36.8	-37.9	21.0	0.00e+00	0	30	0	197132288	46	6158
2026-01-10 12:29:59.94	28.72	6.05	-36.7	-37.8	21.0	0.00e+00	0	30	0	200278016	46	6107
2026-01-10 12:30:00.95	28.83	6.10	-36.7	-37.8	21.0	0.00e+00	0	30	0	203423744	46	6097
2026-01-10 12:30:01.96	28.93	6.16	-36.7	-37.8	21.0	0.00e+00	0	30	0	206569472	46	6120
2026-01-10 12:30:02.97	29.04	6.22	-36.7	-37.8	21.0	0.00e+00	0	30	0	209715200	46	6121
2026-01-10 12:30:03.99	29.14	6.27	-36.7	-37.8	21.1	0.00e+00	0	30	0	212860928	46	6124
2026-01-10 12:30:04.99	29.25	6.33	-36.6	-37.8	21.1	0.00e+00	0	30	0	216006656	46	6074
2026-01-10 12:30:06.00	29.36	6.38	-36.7	-37.9	21.0	0.00e+00	0	30	0	219152384	46	6137
2026-01-10 12:30:07.01	29.46	6.44	-36.7	-37.8	21.1	0.00e+00	0	30	0	222298112	46	6071
2026-01-10 12:30:08.03	29.57	6.50	-36.5	-37.6	21.2	0.00e+00	0	30	0	225443840	46	5981
2026-01-10 12:30:09.04	29.68	6.55	-36.6	-37.7	21.2	0.00e+00	0	30	0	228589568	46	6031
2026-01-10 12:30:10.05	29.79	6.61	-36.6	-37.7	21.2	0.00e+00	0	30	0	231735296	46	5998
2026-01-10 12:30:11.06	29.90	6.67	-36.6	-37.7	21.2	0.00e+00	0	30	0	234881024	46	6052
2026-01-10 12:30:12.07	30.01	6.72	-36.6	-37.7	21.2	0.00e+00	0	30	0	238026752	46	6017
2026-01-10 12:30:13.08	30.12	6.78	-36.7	-37.8	21.2	0.00e+00	0	30	0	241172480	46	6108
2026-01-10 12:30:14.08	30.23	6.83	-36.6	-37.7	21.3	0.00e+00	0	30	0	244318208	46	6019
2026-01-10 12:30:15.09	30.34	6.89	-36.5	-37.6	21.4	0.00e+00	0	30	0	247463936	46	5953
2026-01-10 12:30:16.10	30.45	6.95	-36.5	-37.6	21.3	0.00e+00	0	30	0	250609664	46	5956
2026-01-10 12:30:17.11	30.56	7.00	-36.4	-37.5	21.4	0.00e+00	0	30	0	253755392	46	5903
2026-01-10 12:30:18.12	30.67	7.06	-36.3	-37.4	21.6	0.00e+00	0	30	0	256901120	46	5809
2026-01-10 12:30:19.13	30.78	7.12	-36.4	-37.5	21.5	0.00e+00	0	30	0	260046848	46	5890
2026-01-10 12:30:20.14	30.89	7.17	-36.3	-37.4	21.5	0.00e+00	0	30	0	263192576	46	5803
2026-01-10 12:30:21.15	31.01	7.23	-36.4	-37.4	21.5	0.00e+00	0	30	0	266338304	46	5852
2026-01-10 12:30:22.16	31.12	7.29	-36.3	-37.4	21.6	0.00e+00	0	30	0	269484032	46	5826
2026-01-10 12:30:23.17	31.23	7.34	-36.3	-37.3	21.6	0.00e+00	0	31	0	272629760	46	5763
2026-01-10 12:30:24.18	31.35	7.40	-36.3	-37.3	21.6	0.00e+00	0	30	0	275775488	46	5777
2026-01-10 12:30:25.19	31.46	7.46	-36.1	-37.1	21.8	0.00e+00	0	30	0	278921216	46	5616
2026-01-10 12:30:26.20	31.58	7.51	-36.1	-37.2	21.7	0.00e+00	0	30	0	282066944	46	5670
2026-01-10 12:30:27.21	31.69	7.57	-36.1	-37.1	21.8	0.00e+00	0	30	0	285212672	46	5651
2026-01-10 12:30:28.22	31.81	7.63	-36.1	-37.1	21.8	0.00e+00	0	30	0	288358400	46	5655
2026-01-10 12:30:29.23	31.93	7.68	-36.0	-37.1	21.9	0.00e+00	0	30	0	291504128	46	5605
2026-01-10 12:30:30.24	32.04	7.74	-35.9	-37.0	21.9	0.00e+00	0	30	0	294649856	46	5539
2026-01-10 12:30:31.25	32.16	7.80	-36.0	-37.1	21.9	0.00e+00	0	30	0	297795584	46	5601
2026-01-10 12:30:32.26	32.28	7.85	-36.2	-37.2	21.7	0.00e+00	0	30	0	300941312	46	5713
2026-01-10 12:30:33.27	32.39	7.91	-36.1	-37.2	21.8	0.00e+00	0	30	0	304087040	46	5682
2026-01-10 12:30:34.28	32.51	7.97	-36.0	-37.0	21.8	0.00e+00	0	30	0	307232768	46	5591
2026-01-10 12:30:35.29	32.63	8.03	-36.2	-37.2	21.7	0.00e+00	0	30	0	310378496	46	5725
2026-01-10 12:30:36.30	32.75	8.08	-36.1	-37.1	21.8	0.00e+00	0	30	0	313524224	46	5631
2026-01-10 12:30:37.31	32.87	8.14	-36.0	-37.1	21.9	0.00e+00	0	30	0	316669952	46	5617
2026-01-10 12:30:38.32	32.99	8.20	-35.9	-36.9	22.0	0.00e+00	0	30	0	319815680	46	5524
2026-01-10 12:30:39.33	33.11	8.25	-35.8	-36.8	22.0	0.00e+00	0	30	0	322961408	46	5455
2026-01-10 12:30:40.34	33.23	8.31	-35.8	-36.8	22.1	0.00e+00	0	31	0	326107136	46	5451
2026-01-10 12:30:41.35	33.35	8.37	-35.7	-36.8	22.1	0.00e+00	0	30	0	329252864	44	6065
2026-01-10 12:30:42.36	33.48	8.42	-35.7	-36.8	22.1	0.00e+00	0	31	0	332398592	44	6089
2026-01-10 12:30:43.37	33.60	8.48	-35.7	-36.7	22.1	0.00e+00	0	30	0	335544320	44	6061
2026-01-10 12:30:44.38	33.72	8.54	-35.8	-36.8	22.1	0.00e+00	0	30	0	338690048	44	6110
2026-01-10 12:30:45.39	33.85	8.60	-35.8	-36.9	22.1	0.00e+00	0	31	0	341835776	44	6145
2026-01-10 12:30:46.40	33.97	8.65	-36.0	-37.0	21.9	0.00e+00	0	30	0	344981504	44	6276
2026-01-10 12:30:47.41	34.09	8.71	-36.0	-37.1	21.9	0.00e+00	0	31	0	348127232	44	6320
2026-01-10 12:30:48.42	34.22	8.77	-35.9	-36.9	22.0	0.00e+00	0	31	0	351272960	44	6164
2026-01-10 12:30:49.42	34.34	8.82	-35.8	-36.8	22.1	0.00e+00	0	30	0	354418688	44	6134
2026-01-10 12:30:50.44	34.47	8.88	-35.8	-36.8	22.0	0.00e+00	0	31	0	357564416	44	6134
2026-01-10 12:30:51.45	34.60	8.94	-35.6	-36.6	22.2	0.00e+00	0	31	0	360710144	44	5974
2026-01-10 12:30:52.46	34.72	9.00	-35.6	-36.6	22.2	0.00e+00	0	31	0	363855872	44	5963
2026-01-10 12:30:53.47	34.85	9.05	-35.6	-36.6	22.3	0.00e+00	0	31	0	367001600	44	5984
2026-01-10 12:30:54.48	34.98	9.11	-35.5	-36.5	22.4	0.00e+00	0	31	0	370147328	44	5896
2026-01-10 12:30:55.49	35.11	9.17	-35.5	-36.5	22.4	0.00e+00	0	31	0	373293056	44	5907
2026-01-10 12:30:56.50	35.24	9.23	-35.4	-36.4	22.5	0.00e+00	0	30	0	376438784	44	5819
2026-01-10 12:30:57.51	35.36	9.28	-35.5	-36.5	22.4	0.00e+00	0	31	0	379584512	44	5871
2026-01-10 12:30:58.52	35.49	9.34	-35.4	-36.4	22.6	0.00e+00	0	31	0	382730240	44	5809
2026-01-10 12:30:59.53	35.62	9.40	-35.4	-36.4	22.6	0.00e+00	0	31	0	385875968	44	5795
2026-01-10 12:31:00.54	35.75	9.46	-35.4	-36.4	22.6	0.00e+00	0	31	0	389021696	44	5800
2026-01-10 12:31:01.55	35.89	9.51	-35.3	-36.3	22.7	0.00e+00	0	31	0	392167424	44	5729
2026-01-10 12:31:02.56	36.02	9.57	-35.3	-36.3	22.7	0.00e+00	0	31	0	395313152	44	5747
2026-01-10 12:31:03.57	36.15	9.63	-35.2	-36.2	22.7	0.00e+00	0	31	0	398458880	44	5706
2026-01-10 12:31:04.58	36.28	9.69	-35.2	-36.2	22.8	0.00e+00	0	31	0	401604608	44	5708
2026-01-10 12:31:05.59	36.42	9.74	-35.2	-36.2	22.8	0.00e+00	0	31	0	404750336	44	5660
2026-01-10 12:31:06.60	36.55	9.80	-35.4	-36.3	22.7	0.00e+00	0	31	0	407896064	44	5782
2026-01-10 12:31:07.61	36.68	9.86	-35.2	-36.2	22.7	0.00e+00	0	31	0	411041792	44	5700
2026-01-10 12:31:08.61	36.82	9.92	-35.4	-36.4	22.6	0.00e+00	0	31	0	414187520	44	5818
2026-01-10 12:31:09.62	36.95	9.97	-35.3	-36.3	22.7	0.00e+00	0	31	0	417333248	44	5731
2026-01-10 12:31:10.64	37.09	10.03	-35.3	-36.2	22.7	0.00e+00	0	31	0	420478976	44	5717
2026-01-10 12:31:11.64	37.22	10.09	-35.2	-36.2	22.7	0.00e+00	0	31	0	423624704	44	5694
2026-01-10 12:31:12.65	37.36	10.15	-35.2	-36.1	22.8	0.00e+00	0	31	0	426770432	44	5654
2026-01-10 12:31:13.66	37.50	10.20	-35.1	-36.1	22.8	0.00e+00	0	31	0	429916160	44	5612
2026-01-10 12:31:14.67	37.64	10.26	-35.2	-36.2	22.7	0.00e+00	0	31	0	433061888	44	5682
2026-01-10 12:31:15.68	37.77	10.32	-35.1	-36.1	22.8	0.00e+00	0	31	0	436207616	44	5621
2026-01-10 12:31:16.69	37.91	10.38	-35.2	-36.2	22.8	0.00e+00	0	31	0	440401920	44	5708
2026-01-10 12:31:17.70	38.05	10.43	-35.2	-36.2	22.7	0.00e+00	0	31	0	442499072	44	5666
2026-01-10 12:31:18.71	38.19	10.49	-35.2	-36.2	22.7	0.00e+00	0	31	0	445644800	44	5708
2026-01-10 12:31:19.72	38.33	10.55	-35.2	-36.2	22.7	0.00e+00	0	31	0	448790528	44	5694
2026-01-10 12:31:20.73	38.47	10.60	-35.2	-36.2	22.7	0.00e+00	0	31	0	451936256	44	5663
2026-01-10 12:31:21.74	38.61	10.66	-35.1	-36.0	22.8	0.00e+00	0	31	0	456130560	44	5582
2026-01-10 12:31:22.75	38.76	10.72	-35.1	-36.1	22.9	0.00e+00	0	31	0	459276288	44	5617
2026-01-10 12:31:23.76	38.90	10.78	-35.2	-36.2	22.7	0.00e+00	0	31	0	462422016	44	5680
2026-01-10 12:31:24.77	39.04	10.83	-35.1	-36.1	22.8	0.00e+00	0	31	0	464519168	44	5616
2026-01-10 12:31:25.78	39.19	10.89	-35.0	-36.0	22.9	0.00e+00	0	31	0	467664896	44	5575
2026-01-10 12:31:26.79	39.33	10.95	-35.0	-36.0	22.9	0.00e+00	0	31	0	471859200	44	5577
2026-01-10 12:31:27.80	39.47	11.01	-35.1	-36.0	22.9	0.00e+00	0	30	0	475004928	44	5594
2026-01-10 12:31:28.81	39.62	11.06	-35.0	-36.0	22.9	0.00e+00	0	31	0	478150656	44	5534
2026-01-10 12:31:29.82	39.77	11.12	-34.8	-35.8	23.1	0.00e+00	0	31	0	481296384	44	5411
2026-01-10 12:31:30.83	39.91	11.18	-34.8	-35.8	23.2	0.00e+00	0	31	0	484442112	44	5421
2026-01-10 12:31:31.84	40.06	11.23	-34.8	-35.7	23.1	0.00e+00	0	31	0	487587840	44	5403
2026-01-10 12:31:32.85	40.21	11.29	-34.7	-35.7	23.3	0.00e+00	0	31	0	490733568	42	6014
2026-01-10 12:31:33.86	40.35	11.35	-34.6	-35.6	23.3	0.00e+00	0	31	0	493879296	42	5952
2026-01-10 12:31:34.87	40.50	11.41	-34.6	-35.5	23.4	0.00e+00	0	31	0	497025024	42	5917
2026-01-10 12:31:35.88	40.65	11.46	-34.6	-35.6	23.3	0.00e+00	0	31	0	500170752	42	5944
2026-01-10 12:31:36.89	40.80	11.52	-34.7	-35.6	23.3	0.00e+00	0	31	0	503316480	42	5985
2026-01-10 12:31:37.89	40.95	11.58	-34.7	-35.7	23.2	0.00e+00	0	31	0	506462208	42	6013
2026-01-10 12:31:38.91	41.10	11.63	-34.7	-35.7	23.2	0.00e+00	0	31	0	509607936	42	6031
2026-01-10 12:31:39.91	41.25	11.69	-34.8	-35.8	23.2	0.00e+00	0	31	0	512753664	42	6099
2026-01-10 12:31:40.92	41.40	11.75	-35.0	-36.0	23.1	0.00e+00	0	31	0	515899392	42	6218
2026-01-10 12:31:41.94	41.56	11.80	-34.9	-35.8	23.0	0.00e+00	0	31	0	519045120	42	6117
2026-01-10 12:31:42.94	41.71	11.86	-35.0	-35.9	23.0	0.00e+00	0	31	0	522190848	42	6201
2026-01-10 12:31:43.95	41.86	11.92	-34.9	-35.9	23.0	0.00e+00	0	31	0	525336576	42	6188
2026-01-10 12:31:44.96	42.02	11.97	-34.8	-35.7	23.2	0.00e+00	0	31	0	528482304	42	6038
2026-01-10 12:31:45.97	42.17	12.03	-34.7	-35.7	23.2	0.00e+00	0	31	0	531628032	42	6036
2026-01-10 12:31:46.98	42.33	12.09	-34.8	-35.7	23.1	0.00e+00	0	31	0	534773760	42	6045
2026-01-10 12:31:47.99	42.48	12.14	-34.8	-35.8	23.2	0.00e+00	0	31	0	537919488	42	6091
2026-01-10 12:31:49.00	42.64	12.20	-34.8	-35.8	23.2	0.00e+00	0	31	0	541065216	42	6079
2026-01-10 12:31:50.01	42.80	12.25	-34.8	-35.7	23.3	0.00e+00	0	31	0	544210944	42	6046
2026-01-10 12:31:51.02	42.96	12.31	-34.7	-35.6	23.4	0.00e+00	0	31	0	547356672	42	5993
2026-01-10 12:31:52.03	43.11	12.37	-34.7	-35.6	23.4	0.00e+00	0	31	0	550502400	42	5992
2026-01-10 12:31:53.04	43.27	12.42	-34.7	-35.6	23.4	0.00e+00	0	31	0	553648128	42	5988
2026-01-10 12:31:54.05	43.43	12.48	-34.6	-35.6	23.5	0.00e+00	0	31	0	556793856	42	5953
2026-01-10 12:31:55.06	43.59	12.53	-34.7	-35.6	23.4	0.00e+00	0	31	0	559939584	42	5993
2026-01-10 12:31:56.07	43.75	12.59	-34.7	-35.6	23.4	0.00e+00	0	31	0	563085312	42	5979
2026-01-10 12:31:57.08	43.91	12.65	-34.5	-35.5	23.5	0.00e+00	0	31	0	566231040	42	5864
2026-01-10 12:31:58.09	44.08	12.70	-34.6	-35.5	23.5	0.00e+00	0	31	0	569376768	42	5875
2026-01-10 12:31:59.10	44.24	12.76	-34.5	-35.5	23.6	0.00e+00	0	31	0	572522496	42	5863
2026-01-10 12:32:00.11	44.40	12.81	-34.4	-35.3	23.7	0.00e+00	0	31	0	575668224	42	5753
2026-01-10 12:32:01.12	44.56	12.87	-34.4	-35.3	23.6	0.00e+00	0	31	0	578813952	42	5783
2026-01-10 12:32:02.13	44.73	12.92	-34.3	-35.2	23.6	0.00e+00	0	31	0	581959680	42	5721
2026-01-10 12:32:03.14	44.89	12.98	-34.4	-35.4	23.5	0.00e+00	0	31	0	585105408	42	5814
2026-01-10 12:32:04.15	45.06	13.03	-34.4	-35.3	23.6	0.00e+00	0	31	0	588251136	42	5775
2026-01-10 12:32:05.16	45.22	13.09	-34.5	-35.4	23.5	0.00e+00	0	31	0	591396864	42	5825
2026-01-10 12:32:06.17	45.39	13.14	-34.5	-35.4	23.6	0.00e+00	0	31	0	594542592	42	5836
2026-01-10 12:32:07.18	45.56	13.20	-34.5	-35.4	23.5	0.00e+00	0	31	0	597688320	42	5832
2026-01-10 12:32:08.19	45.73	13.25	-34.4	-35.3	23.6	0.00e+00	0	31	0	600834048	42	5775
2026-01-10 12:32:09.20	45.89	13.31	-34.5	-35.4	23.6	0.00e+00	0	31	0	603979776	42	5812
2026-01-10 12:32:10.21	46.06	13.36	-34.4	-35.3	23.7	0.00e+00	0	31	0	607125504	42	5791
2026-01-10 12:32:11.22	46.23	13.42	-34.4	-35.3	23.7	0.00e+00	0	31	0	610271232	42	5778
2026-01-10 12:32:12.23	46.40	13.47	-34.6	-35.5	23.5	0.00e+00	0	31	0	613416960	42	5891
2026-01-10 12:32:13.24	46.57	13.53	-34.6	-35.6	23.5	0.00e+00	0	31	0	616562688	42	5949
2026-01-10 12:32:14.25	46.75	13.58	-34.7	-35.6	23.5	0.00e+00	0	31	0	619708416	42	5968
2026-01-10 12:32:15.26	46.92	13.64	-34.8	-35.7	23.5	0.00e+00	0	31	0	622854144	42	6037
2026-01-10 12:32:16.27	47.09	13.69	-34.7	-35.6	23.5	0.00e+00	0	31	0	625999872	42	5954
2026-01-10 12:32:17.28	47.26	13.74	-34.6	-35.5	23.5	0.00e+00	0	31	0	629145600	42	5915
2026-01-10 12:32:18.29	47.44	13.80	-34.5	-35.4	23.7	0.00e+00	0	31	0	632291328	42	5852
2026-01-10 12:32:19.30	47.61	13.85	-34.4	-35.3	23.8	0.00e+00	0	31	0	635437056	42	5783
2026-01-10 12:32:20.31	47.79	13.90	-34.6	-35.5	23.6	0.00e+00	0	31	0	638582784	42	5907
2026-01-10 12:32:21.32	47.96	13.96	-34.5	-35.4	23.6	0.00e+00	0	31	0	641728512	42	5854
2026-01-10 12:32:22.33	48.14	14.01	-34.4	-35.4	23.6	0.00e+00	0	31	0	644874240	42	5814
2026-01-10 12:32:23.34	48.32	14.06	-34.5	-35.5	23.5	0.00e+00	0	31	0	648019968	42	5880
2026-01-10 12:32:24.34	48.49	14.12	-34.6	-35.5	23.5	0.00e+00	0	31	0	651165696	42	5918
2026-01-10 12:32:25.36	48.67	14.17	-34.6	-35.5	23.3	0.00e+00	0	31	0	654311424	42	5917
2026-01-10 12:32:26.36	48.85	14.22	-34.9	-35.8	23.3	0.00e+00	0	31	0	657457152	42	6113
2026-01-10 12:32:27.38	49.03	14.28	-35.0	-35.9	23.2	0.00e+00	0	31	0	660602880	42	6187
2026-01-10 12:32:28.38	49.21	14.33	-35.0	-35.9	23.0	0.00e+00	0	31	0	663748608	42	6192
2026-01-10 12:32:29.40	49.39	14.38	-34.7	-35.7	23.4	0.00e+00	0	31	0	666894336	42	5995
2026-01-10 12:32:30.40	49.57	14.43	-34.7	-35.7	23.2	0.00e+00	0	31	0	670040064	42	6029
2026-01-10 12:32:31.41	49.75	14.48	-34.7	-35.7	23.3	0.00e+00	0	31	0	673185792	42	6012
2026-01-10 12:32:32.42	49.93	14.54	-34.8	-35.8	23.3	0.00e+00	0	31	0	676331520	42	6092
2026-01-10 12:32:33.43	50.12	14.59	-34.8	-35.7	23.4	0.00e+00	0	31	0	679477248	42	6063
2026-01-10 12:32:34.44	50.30	14.64	-34.7	-35.6	23.5	0.00e+00	0	31	0	682622976	42	5988
2026-01-10 12:32:35.45	50.49	14.69	-34.7	-35.7	23.4	0.00e+00	0	31	0	685768704	42	5997
2026-01-10 12:32:36.46	50.67	14.74	-34.5	-35.4	23.7	0.00e+00	0	31	0	688914432	42	5825
2026-01-10 12:32:37.47	50.86	14.79	-34.5	-35.4	23.6	0.00e+00	0	31	0	692060160	42	5819
2026-01-10 12:32:38.48	51.04	14.84	-34.4	-35.3	23.7	0.00e+00	0	31	0	695205888	42	5755
2026-01-10 12:32:39.49	51.23	14.89	-34.4	-35.3	23.7	0.00e+00	0	31	0	698351616	42	5768
2026-01-10 12:32:40.50	51.42	14.94	-34.6	-35.5	23.6	0.00e+00	0	31	0	701497344	42	5919
2026-01-10 12:32:41.51	51.61	14.99	-34.6	-35.5	23.5	0.00e+00	0	31	0	704643072	42	5912
2026-01-10 12:32:42.52	51.79	15.04	-34.6	-35.6	23.4	0.00e+00	0	31	0	707788800	42	5929
2026-01-10 12:32:43.53	51.98	15.09	-34.5	-35.5	23.5	0.00e+00	0	31	0	710934528	42	5869
2026-01-10 12:32:44.54	52.17	15.14	-34.6	-35.6	23.4	0.00e+00	0	31	0	714080256	42	5928
2026-01-10 12:32:45.55	52.36	15.19	-34.7	-35.7	23.3	0.00e+00	0	31	0	717225984	42	6040
2026-01-10 12:32:46.56	52.55	15.24	-34.6	-35.6	23.5	0.00e+00	0	31	0	720371712	42	5949
2026-01-10 12:32:47.57	52.75	15.29	-34.6	-35.5	23.5	0.00e+00	0	31	0	723517440	42	5905
2026-01-10 12:32:48.58	52.94	15.34	-34.4	-35.3	23.7	0.00e+00	0	31	0	726663168	42	5791
2026-01-10 12:32:49.59	53.13	15.39	-34.3	-35.3	23.8	0.00e+00	0	31	0	729808896	42	5731
2026-01-10 12:32:50.60	53.33	15.44	-34.2	-35.1	24.0	0.00e+00	0	31	0	732954624	42	5634
2026-01-10 12:32:51.61	53.52	15.49	-34.2	-35.2	23.9	0.00e+00	0	31	0	736100352	42	5665
2026-01-10 12:32:52.62	53.71	15.54	-34.1	-35.0	24.1	0.00e+00	0	31	0	739246080	42	5567
2026-01-10 12:32:53.63	53.91	15.58	-34.1	-35.0	24.0	0.00e+00	0	31	0	742391808	42	5586
2026-01-10 12:32:54.64	54.11	15.63	-34.2	-35.1	23.8	0.00e+00	0	31	0	745537536	42	5619
2026-01-10 12:32:55.65	54.30	15.68	-34.3	-35.3	23.7	0.00e+00	0	31	0	748683264	42	5742
2026-01-10 12:32:56.66	54.50	15.73	-34.3	-35.3	23.7	0.00e+00	0	31	0	751828992	42	5746
2026-01-10 12:32:57.67	54.70	15.77	-34.4	-35.3	23.6	0.00e+00	0	31	0	754974720	42	5774
2026-01-10 12:32:58.68	54.90	15.82	-34.4	-35.3	23.6	0.00e+00	0	31	0	758120448	42	5766
2026-01-10 12:32:59.69	55.10	15.87	-34.4	-35.3	23.6	0.00e+00	0	31	0	761266176	42	5777
2026-01-10 12:33:00.70	55.30	15.91	-34.4	-35.4	23.6	0.00e+00	0	31	0	764411904	42	5801
2026-01-10 12:33:01.71	55.50	15.96	-34.4	-35.3	23.7	0.00e+00	0	31	0	767557632	42	5785
2026-01-10 12:33:02.72	55.70	16.00	-34.4	-35.3	23.8	0.00e+00	0	31	0	770703360	42	5785
2026-01-10 12:33:03.73	55.90	16.05	-34.2	-35.1	24.0	0.00e+00	0	31	0	773849088	42	5622
2026-01-10 12:33:04.74	56.10	16.10	-34.1	-35.0	24.1	0.00e+00	0	31	0	776994816	42	5579
2026-01-10 12:33:05.75	56.30	16.14	-34.2	-35.1	24.1	0.00e+00	0	31	0	781189120	42	5598
2026-01-10 12:33:06.76	56.51	16.19	-34.2	-35.1	23.9	0.00e+00	0	31	0	783286272	42	5612
2026-01-10 12:33:07.77	56.71	16.23	-34.3	-35.2	23.8	0.00e+00	0	31	0	786432000	42	5676
2026-01-10 12:33:08.78	56.92	16.27	-34.3	-35.2	23.7	0.00e+00	0	31	0	789577728	42	5690
2026-01-10 12:33:09.79	57.12	16.32	-34.3	-35.2	23.7	0.00e+00	0	31	0	792723456	42	5709
2026-01-10 12:33:10.79	57.32	16.36	-34.2	-35.1	23.8	0.00e+00	0	31	0	796917760	42	5621
2026-01-10 12:33:11.80	57.53	16.41	-34.1	-35.1	23.8	0.00e+00	0	31	0	800063488	42	5596
2026-01-10 12:33:12.81	57.74	16.45	-34.2	-35.2	23.7	0.00e+00	0	31	0	803209216	42	5673
2026-01-10 12:33:13.82	57.94	16.49	-34.2	-35.2	23.7	0.00e+00	0	31	0	805306368	42	5671
2026-01-10 12:33:14.83	58.15	16.53	-34.1	-35.0	23.8	0.00e+00	0	31	0	808452096	42	5551
2026-01-10 12:33:15.85	58.36	16.58	-33.9	-34.9	23.9	0.00e+00	0	31	0	812646400	42	5481
2026-01-10 12:33:16.85	58.57	16.62	-34.0	-34.9	24.0	0.00e+00	0	31	0	815792128	42	5530
2026-01-10 12:33:17.86	58.78	16.66	-33.9	-34.8	24.1	0.00e+00	0	31	0	818937856	42	5438
2026-01-10 12:33:18.87	58.99	16.70	-33.9	-34.8	24.0	0.00e+00	0	31	0	822083584	42	5441
2026-01-10 12:33:19.88	59.20	16.74	-34.0	-34.9	23.9	0.00e+00	0	31	0	825229312	42	5516
2026-01-10 12:33:20.89	59.41	16.79	-33.8	-34.7	24.1	0.00e+00	0	31	0	828375040	42	5371
2026-01-10 12:33:21.90	59.63	16.83	-33.8	-34.8	24.0	0.00e+00	0	31	0	831520768	40	6080
2026-01-10 12:33:22.91	59.84	16.87	-33.9	-34.8	24.1	0.00e+00	0	31	0	834666496	40	6098
2026-01-10 12:33:23.92	60.05	16.91	-34.0	-34.9	24.0	0.00e+00	0	31	0	837812224	40	6175
2026-01-10 12:33:24.93	60.26	16.95	-34.0	-34.9	24.1	0.00e+00	0	31	0	840957952	40	6156
2026-01-10 12:33:25.94	60.48	16.99	-33.8	-34.7	24.0	0.00e+00	0	31	0	844103680	40	6058
2026-01-10 12:33:26.95	60.69	17.02	-33.9	-34.8	24.1	0.00e+00	0	31	0	847249408	40	6096
2026-01-10 12:33:27.96	60.91	17.06	-33.8	-34.8	24.1	0.00e+00	0	31	0	850395136	40	6069
2026-01-10 12:33:28.97	61.13	17.10	-33.9	-34.8	24.0	0.00e+00	0	31	0	853540864	40	6098
2026-01-10 12:33:29.98	61.34	17.14	-33.8	-34.8	24.1	0.00e+00	0	31	0	856686592	40	6065
2026-01-10 12:33:30.99	61.56	17.18	-33.7	-34.6	24.1	0.00e+00	0	31	0	859832320	40	5967
2026-01-10 12:33:32.00	61.78	17.22	-33.7	-34.6	24.2	0.00e+00	0	31	0	862978048	40	5935
2026-01-10 12:33:33.00	61.99	17.25	-33.8	-34.7	24.2	0.00e+00	0	31	0	866123776	40	6026
2026-01-10 12:33:34.01	62.21	17.29	-33.7	-34.6	24.2	0.00e+00	0	31	0	869269504	40	5949
2026-01-10 12:33:35.02	62.43	17.33	-33.6	-34.5	24.4	0.00e+00	0	31	0	872415232	40	5873
2026-01-10 12:33:36.03	62.65	17.36	-33.7	-34.6	24.3	0.00e+00	0	31	0	875560960	40	5970
2026-01-10 12:33:37.04	62.87	17.40	-33.5	-34.4	24.4	0.00e+00	0	31	0	878706688	40	5799
2026-01-10 12:33:38.05	63.09	17.43	-33.5	-34.4	24.3	0.00e+00	0	31	0	881852416	40	5824
2026-01-10 12:33:39.06	63.31	17.47	-33.5	-34.4	24.4	0.00e+00	0	31	0	884998144	40	5823
2026-01-10 12:33:40.07	63.53	17.50	-33.4	-34.3	24.4	0.00e+00	0	31	0	888143872	40	5772
2026-01-10 12:33:41.08	63.75	17.54	-33.5	-34.4	24.4	0.00e+00	0	31	0	891289600	40	5813
2026-01-10 12:33:42.09	63.98	17.57	-33.5	-34.4	24.4	0.00e+00	0	31	0	894435328	40	5809
2026-01-10 12:33:43.10	64.20	17.60	-33.6	-34.6	24.2	0.00e+00	0	31	0	897581056	40	5934
2026-01-10 12:33:44.11	64.42	17.64	-33.6	-34.5	24.3	0.00e+00	0	31	0	900726784	40	5863
2026-01-10 12:33:45.12	64.65	17.67	-33.4	-34.3	24.5	0.00e+00	0	31	0	903872512	40	5784
2026-01-10 12:33:46.13	64.87	17.70	-33.4	-34.3	24.5	0.00e+00	0	31	0	907018240	40	5757
2026-01-10 12:33:47.14	65.10	17.74	-33.4	-34.3	24.5	0.00e+00	0	31	0	910163968	40	5759
2026-01-10 12:33:48.15	65.32	17.77	-33.4	-34.3	24.5	0.00e+00	0	31	0	913309696	40	5736
2026-01-10 12:33:49.16	65.55	17.80	-33.5	-34.4	24.3	0.00e+00	0	31	0	916455424	40	5802
2026-01-10 12:33:50.17	65.78	17.83	-33.4	-34.3	24.2	0.00e+00	0	31	0	919601152	40	5743
2026-01-10 12:33:51.18	66.00	17.86	-33.5	-34.4	24.3	0.00e+00	0	31	0	922746880	40	5808
2026-01-10 12:33:52.19	66.23	17.89	-33.5	-34.4	24.2	0.00e+00	0	31	0	925892608	40	5850
2026-01-10 12:33:53.20	66.46	17.92	-33.7	-34.6	24.3	0.00e+00	0	31	0	929038336	40	5933
2026-01-10 12:33:54.22	66.69	17.95	-33.7	-34.6	24.3	0.00e+00	0	31	0	932184064	40	5956
2026-01-10 12:33:55.23	66.92	17.98	-33.5	-34.4	24.5	0.00e+00	0	31	0	935329792	40	5816
2026-01-10 12:33:56.24	67.15	18.01	-33.5	-34.4	24.4	0.00e+00	0	31	0	938475520	40	5853
2026-01-10 12:33:57.25	67.38	18.04	-33.3	-34.1	24.5	0.00e+00	0	31	0	941621248	40	5654
2026-01-10 12:33:58.26	67.61	18.06	-33.3	-34.2	24.4	0.00e+00	0	31	0	944766976	40	5722
2026-01-10 12:33:59.27	67.84	18.09	-33.4	-34.3	24.4	0.00e+00	0	31	0	947912704	40	5767
2026-01-10 12:34:00.28	68.07	18.12	-33.3	-34.1	24.4	0.00e+00	0	31	0	951058432	40	5655
2026-01-10 12:34:01.28	68.30	18.14	-33.4	-34.2	24.4	0.00e+00	0	31	0	954204160	40	5716
2026-01-10 12:34:02.29	68.53	18.17	-33.3	-34.2	24.4	0.00e+00	0	31	0	957349888	40	5693
2026-01-10 12:34:03.30	68.76	18.20	-33.4	-34.3	24.4	0.00e+00	0	31	0	960495616	40	5742
2026-01-10 12:34:04.31	68.99	18.22	-33.4	-34.3	24.5	0.00e+00	0	31	0	963641344	40	5776
2026-01-10 12:34:05.33	69.23	18.25	-33.3	-34.2	24.6	0.00e+00	0	31	0	966787072	40	5690
2026-01-10 12:34:06.34	69.46	18.27	-33.5	-34.4	24.5	0.00e+00	0	31	0	969932800	40	5824
2026-01-10 12:34:07.35	69.69	18.29	-33.3	-34.2	24.6	0.00e+00	0	31	0	973078528	40	5669
2026-01-10 12:34:08.36	69.93	18.32	-33.5	-34.4	24.3	0.00e+00	0	31	0	976224256	40	5854
2026-01-10 12:34:09.37	70.16	18.34	-33.4	-34.3	24.3	0.00e+00	0	31	0	979369984	40	5770
2026-01-10 12:34:10.38	70.40	18.36	-33.5	-34.4	24.1	0.00e+00	0	31	0	982515712	40	5839
2026-01-10 12:34:11.39	70.63	18.39	-33.6	-34.6	24.1	0.00e+00	0	31	0	985661440	40	5941
2026-01-10 12:34:12.40	70.87	18.41	-33.6	-34.6	24.2	0.00e+00	0	31	0	988807168	40	5938
2026-01-10 12:34:13.41	71.10	18.43	-33.6	-34.5	24.3	0.00e+00	0	31	0	991952896	40	5916
2026-01-10 12:34:14.42	71.34	18.45	-33.7	-34.6	24.3	0.00e+00	0	31	0	995098624	40	5937
2026-01-10 12:34:15.42	71.57	18.47	-33.7	-34.6	24.2	0.00e+00	0	31	0	998244352	40	5987
2026-01-10 12:34:16.43	71.81	18.49	-33.6	-34.5	24.4	0.00e+00	0	31	0	1001390080	40	5883
2026-01-10 12:34:17.44	72.04	18.51	-33.7	-34.6	24.1	0.00e+00	0	31	0	1004535808	40	5965
2026-01-10 12:34:18.46	72.28	18.53	-33.8	-34.7	24.0	0.00e+00	0	31	0	1007681536	40	6026
2026-01-10 12:34:19.46	72.52	18.55	-33.8	-34.7	24.1	0.00e+00	0	31	0	1010827264	40	6042
2026-01-10 12:34:20.47	72.76	18.56	-33.8	-34.7	24.1	0.00e+00	0	31	0	1013972992	40	6031
2026-01-10 12:34:21.48	72.99	18.58	-33.8	-34.7	24.2	0.00e+00	0	31	0	1017118720	40	6054
2026-01-10 12:34:22.49	73.23	18.60	-33.8	-34.7	24.2	0.00e+00	0	31	0	1020264448	40	6064
2026-01-10 12:34:23.50	73.47	18.62	-33.7	-34.6	24.3	0.00e+00	0	31	0	1023410176	40	5990
2026-01-10 12:34:24.51	73.71	18.63	-33.5	-34.4	24.4	0.00e+00	0	31	0	1026555904	40	5847
2026-01-10 12:34:25.52	73.95	18.65	-33.4	-34.4	24.5	0.00e+00	0	31	0	1029701632	40	5795
2026-01-10 12:34:26.54	74.19	18.66	-33.4	-34.3	24.5	0.00e+00	0	31	0	1032847360	40	5781
2026-01-10 12:34:27.55	74.43	18.68	-33.5	-34.4	24.4	0.00e+00	0	31	0	1035993088	40	5806
2026-01-10 12:34:28.56	74.67	18.69	-33.5	-34.4	24.4	0.00e+00	0	31	0	1039138816	40	5813
2026-01-10 12:34:29.57	74.91	18.71	-33.6	-34.5	24.3	0.00e+00	0	31	0	1042284544	40	5899
2026-01-10 12:34:30.58	75.15	18.72	-33.6	-34.5	24.4	0.00e+00	0	31	0	1045430272	40	5879
2026-01-10 12:34:31.59	75.39	18.73	-33.6	-34.5	24.4	0.00e+00	0	31	0	1048576000	40	5867
2026-01-10 12:34:32.60	75.63	18.75	-33.6	-34.5	24.3	0.00e+00	0	31	0	1051721728	40	5869
2026-01-10 12:34:33.61	75.87	18.76	-33.6	-34.5	24.3	0.00e+00	0	31	0	1054867456	40	5903
2026-01-10 12:34:34.62	76.11	18.77	-33.7	-34.6	24.2	0.00e+00	0	31	0	1058013184	40	5945
2026-01-10 12:34:35.63	76.35	18.78	-33.8	-34.7	24.1	0.00e+00	0	31	0	1061158912	40	6039
2026-01-10 12:34:36.64	76.59	18.79	-33.8	-34.7	24.1	0.00e+00	0	31	0	1064304640	40	6045
2026-01-10 12:34:37.65	76.83	18.80	-33.8	-34.7	24.1	0.00e+00	0	31	0	1067450368	40	6057
2026-01-10 12:34:38.66	77.08	18.81	-33.7	-34.6	24.2	0.00e+00	0	31	0	1070596096	40	5956
2026-01-10 12:34:39.67	77.32	18.82	-33.5	-34.5	24.3	0.00e+00	0	31	0	1073741824	40	5867
2026-01-10 12:34:40.68	77.56	18.83	-33.5	-34.5	24.2	0.00e+00	0	31	0	1076887552	40	5868
2026-01-10 12:34:41.69	77.80	18.83	-33.5	-34.4	24.4	0.00e+00	0	31	0	1080033280	40	5804
2026-01-10 12:34:42.70	78.04	18.84	-33.6	-34.5	24.2	0.00e+00	0	31	0	1083179008	40	5900
2026-01-10 12:34:43.71	78.29	18.85	-33.5	-34.4	24.3	0.00e+00	0	31	0	1086324736	40	5857
2026-01-10 12:34:44.72	78.53	18.86	-33.5	-34.4	24.3	0.00e+00	0	31	0	1089470464	40	5856
2026-01-10 12:34:45.73	78.77	18.86	-33.6	-34.5	24.4	0.00e+00	0	31	0	1092616192	40	5870
2026-01-10 12:34:46.74	79.01	18.87	-33.4	-34.3	24.4	0.00e+00	0	31	0	1096810496	40	5754
2026-01-10 12:34:47.75	79.26	18.87	-33.4	-34.3	24.4	0.00e+00	0	31	0	1098907648	40	5782
2026-01-10 12:34:48.76	79.50	18.88	-33.4	-34.3	24.4	0.00e+00	0	31	0	1102053376	40	5750
2026-01-10 12:34:49.77	79.74	18.88	-33.4	-34.3	24.5	0.00e+00	0	31	0	1105199104	40	5761
2026-01-10 12:34:50.78	79.98	18.88	-33.4	-34.3	24.5	0.00e+00	0	31	0	1108344832	40	5744
2026-01-10 12:34:51.79	80.23	18.89	-33.4	-34.3	24.3	0.00e+00	0	31	0	1112539136	40	5791
2026-01-10 12:34:52.80	80.47	18.89	-33.3	-34.2	24.5	0.00e+00	0	31	0	1115684864	40	5699
2026-01-10 12:34:53.81	80.71	18.89	-33.4	-34.3	24.5	0.00e+00	0	31	0	1118830592	40	5755
2026-01-10 12:34:54.82	80.96	18.89	-33.4	-34.3	24.3	0.00e+00	0	31	0	1121976320	40	5783
2026-01-10 12:34:55.83	81.20	18.89	-33.5	-34.4	24.4	0.00e+00	0	31	0	1124073472	40	5820
2026-01-10 12:34:56.84	81.44	18.89	-33.6	-34.5	24.1	0.00e+00	0	31	0	1127219200	40	5914
2026-01-10 12:34:57.85	81.68	18.89	-33.8	-34.8	24.1	0.00e+00	0	31	0	1131413504	40	6073
2026-01-10 12:34:58.85	81.93	18.89	-34.0	-34.9	24.0	0.00e+00	0	31	0	1134559232	40	6175
2026-01-10 12:34:59.87	82.17	18.89	-33.7	-34.6	24.2	0.00e+00	0	31	0	1137704960	40	5954
2026-01-10 12:35:00.87	82.41	18.89	-33.6	-34.6	24.3	0.00e+00	0	31	0	1140850688	40	5929
2026-01-10 12:35:01.88	82.65	18.89	-33.6	-34.5	24.4	0.00e+00	0	31	0	1143996416	40	5872
2026-01-10 12:35:02.89	82.90	18.89	-33.5	-34.5	24.3	0.00e+00	0	31	0	1147142144	40	5869
2026-01-10 12:35:03.90	83.14	18.88	-33.6	-34.5	24.2	0.00e+00	0	31	0	1150287872	40	5899
2026-01-10 12:35:04.91	83.38	18.88	-33.7	-34.7	24.1	0.00e+00	0	31	0	1153433600	40	6018
2026-01-10 12:35:05.92	83.63	18.88	-33.7	-34.6	24.2	0.00e+00	0	31	0	1156579328	40	5937
2026-01-10 12:35:06.93	83.87	18.87	-33.7	-34.6	24.2	0.00e+00	0	31	0	1159725056	40	5976
2026-01-10 12:35:07.94	84.11	18.87	-33.7	-34.6	24.2	0.00e+00	0	31	0	1162870784	40	5940
2026-01-10 12:35:08.95	84.35	18.86	-33.5	-34.4	24.4	0.00e+00	0	31	0	1166016512	40	5830
2026-01-10 12:35:09.96	84.60	18.86	-33.5	-34.4	24.4	0.00e+00	0	31	0	1169162240	40	5824
2026-01-10 12:35:10.97	84.84	18.85	-33.6	-34.5	24.2	0.00e+00	0	31	0	1172307968	40	5907
2026-01-10 12:35:11.98	85.08	18.84	-33.5	-34.4	24.3	0.00e+00	0	31	0	1175453696	40	5827
2026-01-10 12:35:12.99	85.32	18.83	-33.6	-34.5	24.1	0.00e+00	0	31	0	1178599424	40	5913
2026-01-10 12:35:14.00	85.57	18.83	-33.6	-34.5	24.2	0.00e+00	0	31	0	1181745152	40	5898
2026-01-10 12:35:15.01	85.81	18.82	-33.7	-34.6	24.0	0.00e+00	0	31	0	1184890880	40	5969
2026-01-10 12:35:16.02	86.05	18.81	-33.7	-34.7	24.2	0.00e+00	0	31	0	1188036608	40	5998
2026-01-10 12:35:17.04	86.29	18.80	-33.4	-34.3	24.4	0.00e+00	0	31	0	1191182336	40	5783
2026-01-10 12:35:18.04	86.53	18.79	-33.3	-34.2	24.5	0.00e+00	0	31	0	1194328064	40	5692
2026-01-10 12:35:19.06	86.78	18.78	-33.4	-34.3	24.4	0.00e+00	0	31	0	1197473792	40	5772
2026-01-10 12:35:20.06	87.02	18.77	-33.4	-34.3	24.3	0.00e+00	0	31	0	1200619520	40	5757
2026-01-10 12:35:21.07	87.26	18.76	-33.5	-34.4	24.3	0.00e+00	0	31	0	1203765248	40	5816
2026-01-10 12:35:22.08	87.50	18.74	-33.7	-34.6	24.2	0.00e+00	0	31	0	1206910976	40	5938
2026-01-10 12:35:23.09	87.74	18.73	-33.6	-34.5	24.3	0.00e+00	0	31	0	1210056704	40	5923
2026-01-10 12:35:24.10	87.98	18.72	-33.6	-34.5	24.3	0.00e+00	0	31	0	1213202432	40	5917
2026-01-10 12:35:25.12	88.22	18.71	-33.7	-34.6	24.2	0.00e+00	0	31	0	1216348160	40	5938
2026-01-10 12:35:26.13	88.46	18.69	-33.4	-34.3	24.3	0.00e+00	0	31	0	1219493888	40	5773
2026-01-10 12:35:27.14	88.70	18.68	-33.2	-34.1	24.5	0.00e+00	0	31	0	1222639616	40	5601
2026-01-10 12:35:28.15	88.94	18.66	-33.2	-34.1	24.4	0.00e+00	0	31	0	1225785344	40	5614
2026-01-10 12:35:29.16	89.18	18.65	-33.2	-34.1	24.5	0.00e+00	0	31	0	1228931072	40	5630
2026-01-10 12:35:30.17	89.42	18.63	-33.2	-34.1	24.5	0.00e+00	0	31	0	1232076800	40	5595
2026-01-10 12:35:31.18	89.66	18.62	-33.1	-34.0	24.6	0.00e+00	0	31	0	1235222528	40	5551
2026-01-10 12:35:32.19	89.90	18.60	-33.2	-34.1	24.6	0.00e+00	0	31	0	1238368256	40	5600
2026-01-10 12:35:33.20	90.14	18.58	-33.1	-34.0	24.5	0.00e+00	0	31	0	1241513984	40	5593
2026-01-10 12:35:34.21	90.38	18.56	-33.1	-33.9	24.6	0.00e+00	0	31	0	1244659712	40	5529
2026-01-10 12:35:35.22	90.61	18.55	-33.1	-34.0	24.4	0.00e+00	0	31	0	1247805440	40	5549
2026-01-10 12:35:36.23	90.85	18.53	-33.1	-34.0	24.4	0.00e+00	0	31	0	1250951168	40	5579
2026-01-10 12:35:37.24	91.09	18.51	-33.1	-34.0	24.5	0.00e+00	0	31	0	1254096896	40	5564
2026-01-10 12:35:38.22	91.32	18.49	-33.2	-34.1	24.5	0.00e+00	0	31	0	1257242624	40	5651
2026-01-10 12:35:39.23	91.56	18.47	-33.1	-34.0	24.6	0.00e+00	0	31	0	1260388352	40	5563
2026-01-10 12:35:40.24	91.79	18.45	-33.1	-34.0	24.7	0.00e+00	0	31	0	1263534080	40	5549
2026-01-10 12:35:41.25	92.03	18.43	-33.1	-33.9	24.6	0.00e+00	0	31	0	1266679808	40	5524
2026-01-10 12:35:42.26	92.26	18.41	-33.0	-33.9	24.5	0.00e+00	0	31	0	1269825536	40	5521
2026-01-10 12:35:43.27	92.50	18.38	-33.2	-34.1	24.5	0.00e+00	0	31	0	1272971264	40	5614
2026-01-10 12:35:44.28	92.74	18.36	-33.3	-34.1	24.4	0.00e+00	0	31	0	1276116992	40	5656
2026-01-10 12:35:45.29	92.97	18.34	-33.1	-33.9	24.5	0.00e+00	0	31	0	1279262720	40	5527
2026-01-10 12:35:46.31	93.21	18.32	-33.1	-34.0	24.5	0.00e+00	0	31	0	1282408448	40	5554
2026-01-10 12:35:47.31	93.44	18.29	-33.2	-34.1	24.2	0.00e+00	0	31	0	1285554176	40	5653
2026-01-10 12:35:48.32	93.67	18.27	-33.2	-34.1	24.4	0.00e+00	0	31	0	1288699904	40	5629
2026-01-10 12:35:49.33	93.91	18.24	-33.3	-34.2	24.3	0.00e+00	0	31	0	1291845632	40	5681
2026-01-10 12:35:50.34	94.14	18.22	-33.3	-34.2	24.4	0.00e+00	0	31	0	1294991360	40	5683
2026-01-10 12:35:51.35	94.37	18.19	-33.4	-34.3	24.4	0.00e+00	0	31	0	1298137088	40	5731
2026-01-10 12:35:52.36	94.60	18.17	-33.4	-34.3	24.4	0.00e+00	0	31	0	1301282816	40	5779
2026-01-10 12:35:53.37	94.84	18.14	-33.4	-34.4	24.4	0.00e+00	0	31	0	1304428544	40	5794
2026-01-10 12:35:54.39	95.07	18.12	-33.5	-34.4	24.5	0.00e+00	0	31	0	1307574272	40	5821
2026-01-10 12:35:55.39	95.30	18.09	-33.3	-34.2	24.6	0.00e+00	0	31	0	1310720000	40	5709
2026-01-10 12:35:56.40	95.53	18.06	-33.4	-34.3	24.5	0.00e+00	0	31	0	1313865728	40	5730
2026-01-10 12:35:57.41	95.76	18.03	-33.4	-34.3	24.5	0.00e+00	0	31	0	1317011456	40	5743
2026-01-10 12:35:58.42	95.99	18.00	-33.2	-34.1	24.5	0.00e+00	0	31	0	1320157184	40	5635
2026-01-10 12:35:59.43	96.22	17.98	-33.4	-34.3	24.5	0.00e+00	0	31	0	1323302912	40	5747
2026-01-10 12:36:00.44	96.45	17.95	-33.2	-34.1	24.6	0.00e+00	0	31	0	1326448640	40	5648
2026-01-10 12:36:01.45	96.68	17.92	-33.2	-34.1	24.6	0.00e+00	0	31	0	1329594368	40	5653
2026-01-10 12:36:02.46	96.91	17.89	-33.1	-34.0	24.7	0.00e+00	0	31	0	1332740096	40	5589
2026-01-10 12:36:03.47	97.14	17.86	-33.2	-34.1	24.6	0.00e+00	0	31	0	1335885824	40	5608
2026-01-10 12:36:04.48	97.36	17.83	-33.1	-34.0	24.7	0.00e+00	0	31	0	1339031552	40	5545
2026-01-10 12:36:05.48	97.59	17.80	-33.3	-34.1	24.6	0.00e+00	0	31	0	1342177280	40	5645
2026-01-10 12:36:06.49	97.81	17.76	-33.3	-34.1	24.6	0.00e+00	0	31	0	1345323008	40	5652
2026-01-10 12:36:07.50	98.04	17.73	-33.3	-34.1	24.6	0.00e+00	0	31	0	1348468736	40	5651
2026-01-10 12:36:08.51	98.27	17.70	-33.3	-34.2	24.7	0.00e+00	0	31	0	1351614464	40	5668
2026-01-10 12:36:09.52	98.49	17.67	-33.3	-34.2	24.6	0.00e+00	0	31	0	1354760192	40	5674
2026-01-10 12:36:10.53	98.72	17.63	-33.3	-34.2	24.5	0.00e+00	0	31	0	1357905920	40	5683
2026-01-10 12:36:11.54	98.94	17.60	-33.2	-34.1	24.6	0.00e+00	0	31	0	1361051648	40	5646
2026-01-10 12:36:12.55	99.16	17.57	-33.3	-34.2	24.6	0.00e+00	0	31	0	1364197376	40	5703
2026-01-10 12:36:13.56	99.39	17.53	-33.3	-34.2	24.6	0.00e+00	0	31	0	1367343104	40	5691
2026-01-10 12:36:14.57	99.61	17.50	-33.2	-34.1	24.6	0.00e+00	0	31	0	1370488832	40	5625
2026-01-10 12:36:15.58	99.83	17.46	-33.3	-34.2	24.5	0.00e+00	0	31	0	1373634560	40	5662
2026-01-10 12:36:16.60	100.06	17.43	-33.2	-34.0	24.6	0.00e+00	0	31	0	1376780288	40	5590
2026-01-10 12:36:17.61	100.28	17.39	-33.3	-34.2	24.5	0.00e+00	0	31	0	1379926016	40	5701
2026-01-10 12:36:18.62	100.50	17.36	-33.4	-34.3	24.5	0.00e+00	0	31	0	1383071744	40	5746
2026-01-10 12:36:19.63	100.72	17.32	-33.3	-34.2	24.5	0.00e+00	0	31	0	1386217472	40	5684
2026-01-10 12:36:20.64	100.94	17.28	-33.3	-34.2	24.3	0.00e+00	0	31	0	1389363200	40	5717
2026-01-10 12:36:21.65	101.16	17.25	-33.4	-34.3	24.4	0.00e+00	0	31	0	1392508928	40	5749
2026-01-10 12:36:22.66	101.38	17.21	-33.5	-34.4	24.4	0.00e+00	0	31	0	1395654656	40	5811
2026-01-10 12:36:23.67	101.59	17.17	-33.4	-34.3	24.4	0.00e+00	0	31	0	1398800384	40	5746
2026-01-10 12:36:24.68	101.81	17.13	-33.5	-34.4	24.4	0.00e+00	0	31	0	1401946112	40	5803
2026-01-10 12:36:25.69	102.03	17.09	-33.3	-34.2	24.4	0.00e+00	0	31	0	1405091840	40	5712
2026-01-10 12:36:26.70	102.25	17.06	-33.4	-34.3	24.5	0.00e+00	0	31	0	1408237568	40	5734
2026-01-10 12:36:27.71	102.46	17.02	-33.3	-34.2	24.5	0.00e+00	0	31	0	1411383296	40	5720
2026-01-10 12:36:28.72	102.68	16.98	-33.5	-34.4	24.4	0.00e+00	0	30	0	1414529024	40	5815
2026-01-10 12:36:29.73	102.89	16.94	-33.4	-34.3	24.4	0.00e+00	0	31	0	1417674752	40	5732
2026-01-10 12:36:30.74	103.11	16.90	-33.5	-34.4	24.3	0.00e+00	0	31	0	1420820480	40	5827
2026-01-10 12:36:31.75	103.32	16.86	-33.6	-34.6	24.2	0.00e+00	0	31	0	1423966208	40	5927
2026-01-10 12:36:32.76	103.53	16.82	-33.7	-34.6	24.1	0.00e+00	0	30	0	1428160512	40	5974
2026-01-10 12:36:33.77	103.75	16.78	-33.8	-34.7	24.0	0.00e+00	0	30	0	1431306240	40	6051
2026-01-10 12:36:34.78	103.96	16.73	-33.9	-34.9	23.9	0.00e+00	0	31	0	1434451968	40	6142
2026-01-10 12:36:35.79	104.17	16.69	-34.1	-35.0	23.8	0.00e+00	0	31	0	1437597696	40	6240
2026-01-10 12:36:36.80	104.38	16.65	-33.8	-34.7	24.1	0.00e+00	0	30	0	1439694848	40	6036
2026-01-10 12:36:37.81	104.59	16.61	-33.9	-34.8	24.0	0.00e+00	0	31	0	1443889152	40	6099
2026-01-10 12:36:38.82	104.80	16.57	-33.8	-34.8	24.1	0.00e+00	0	31	0	1447034880	40	6074
2026-01-10 12:36:39.83	105.01	16.52	-33.8	-34.7	24.1	0.00e+00	0	30	0	1450180608	40	6020
2026-01-10 12:36:40.84	105.22	16.48	-33.9	-34.8	24.0	0.00e+00	0	31	0	1453326336	40	6099
2026-01-10 12:36:41.85	105.43	16.44	-33.8	-34.7	24.1	0.00e+00	0	31	0	1456472064	40	6063
2026-01-10 12:36:42.86	105.64	16.39	-33.9	-34.8	24.0	0.00e+00	0	31	0	1459617792	40	6115
2026-01-10 12:36:43.87	105.84	16.35	-33.8	-34.7	24.0	0.00e+00	0	30	0	1462763520	40	6048
2026-01-10 12:36:44.88	106.05	16.31	-33.8	-34.7	23.9	0.00e+00	0	31	0	1465909248	40	6043
2026-01-10 12:36:45.89	106.25	16.26	-34.0	-34.9	23.8	0.00e+00	0	30	0	1469054976	40	6187
2026-01-10 12:36:46.90	106.46	16.22	-34.0	-34.9	23.7	0.00e+00	0	30	0	1472200704	40	6193
2026-01-10 12:36:47.90	106.66	16.17	-34.1	-35.0	23.6	0.00e+00	0	30	0	1475346432	40	6276
2026-01-10 12:36:48.91	106.87	16.13	-34.1	-35.0	23.7	0.00e+00	0	31	0	1478492160	40	6256
2026-01-10 12:36:49.92	107.07	16.08	-34.1	-35.0	23.8	0.00e+00	0	30	0	1481637888	40	6264
2026-01-10 12:36:50.93	107.27	16.04	-34.1	-35.0	23.8	0.00e+00	0	31	0	1484783616	40	6238
2026-01-10 12:36:51.94	107.48	15.99	-33.8	-34.8	23.9	0.00e+00	0	31	0	1487929344	40	6092
2026-01-10 12:36:52.95	107.68	15.94	-33.8	-34.7	24.0	0.00e+00	0	30	0	1491075072	40	6026
2026-01-10 12:36:53.96	107.88	15.90	-33.8	-34.8	24.0	0.00e+00	0	30	0	1494220800	40	6075
2026-01-10 12:36:54.97	108.08	15.85	-33.7	-34.7	24.1	0.00e+00	0	30	0	1497366528	40	6010
2026-01-10 12:36:55.98	108.28	15.80	-33.7	-34.7	24.0	0.00e+00	0	30	0	1500512256	40	6000
2026-01-10 12:36:56.98	108.48	15.76	-33.9	-34.8	23.9	0.00e+00	0	31	0	1503657984	40	6120
2026-01-10 12:36:57.99	108.67	15.71	-33.9	-34.8	23.9	0.00e+00	0	30	0	1506803712	40	6101
2026-01-10 12:36:59.00	108.87	15.66	-34.0	-34.9	23.8	0.00e+00	0	30	0	1509949440	40	6171
2026-01-10 12:37:00.01	109.07	15.61	-34.1	-35.1	23.7	0.00e+00	0	30	0	1513095168	40	6293
2026-01-10 12:37:01.02	109.27	15.57	-34.3	-35.2	23.7	0.00e+00	0	30	0	1516240896	40	6389
2026-01-10 12:37:02.03	109.46	15.52	-34.2	-35.1	23.7	0.00e+00	0	30	0	1519386624	40	6333
2026-01-10 12:37:03.04	109.66	15.47	-34.4	-35.4	23.5	0.00e+00	0	30	0	1522532352	40	6513
2026-01-10 12:37:04.05	109.85	15.42	-34.3	-35.2	23.6	0.00e+00	0	30	0	1525678080	40	6400
2026-01-10 12:37:05.06	110.05	15.37	-34.2	-35.2	23.6	0.00e+00	0	30	0	1528823808	40	6361
2026-01-10 12:37:06.07	110.24	15.32	-34.0	-35.0	23.8	0.00e+00	0	30	0	1531969536	40	6218
2026-01-10 12:37:07.08	110.43	15.27	-34.0	-35.0	23.8	0.00e+00	0	30	0	1535115264	40	6213
2026-01-10 12:37:08.09	110.63	15.22	-33.9	-34.8	24.0	0.00e+00	0	30	0	1538260992	40	6123
2026-01-10 12:37:09.10	110.82	15.17	-34.0	-35.0	23.8	0.00e+00	0	30	0	1541406720	40	6214
2026-01-10 12:37:10.11	111.01	15.12	-33.7	-34.6	24.1	0.00e+00	0	30	0	1544552448	40	5956
2026-01-10 12:37:11.12	111.20	15.07	-33.7	-34.6	24.0	0.00e+00	0	30	0	1547698176	40	5990
2026-01-10 12:37:12.13	111.39	15.02	-33.7	-34.6	24.2	0.00e+00	0	30	0	1550843904	40	5933
2026-01-10 12:37:13.14	111.58	14.97	-33.7	-34.6	24.1	0.00e+00	0	30	0	1553989632	40	5989
2026-01-10 12:37:14.15	111.77	14.92	-33.8	-34.7	23.9	0.00e+00	0	30	0	1557135360	40	6031
2026-01-10 12:37:15.16	111.96	14.87	-33.9	-34.8	23.9	0.00e+00	0	30	0	1560281088	40	6081
2026-01-10 12:37:16.17	112.14	14.82	-34.0	-34.9	23.8	0.00e+00	0	30	0	1563426816	40	6186
2026-01-10 12:37:17.18	112.33	14.77	-34.1	-35.0	23.8	0.00e+00	0	30	0	1566572544	40	6270
2026-01-10 12:37:18.19	112.52	14.72	-34.0	-34.9	23.9	0.00e+00	0	30	0	1569718272	40	6199
2026-01-10 12:37:19.20	112.70	14.67	-34.2	-35.1	23.7	0.00e+00	0	30	0	1572864000	40	6317
2026-01-10 12:37:20.21	112.89	14.61	-34.2	-35.2	23.5	0.00e+00	0	30	0	1576009728	40	6380
2026-01-10 12:37:21.22	113.07	14.56	-34.0	-35.0	23.7	0.00e+00	0	30	0	1579155456	40	6211
2026-01-10 12:37:22.23	113.26	14.51	-34.1	-35.1	23.6	0.00e+00	0	30	0	1582301184	40	6280
2026-01-10 12:37:23.24	113.44	14.46	-34.1	-35.0	23.7	0.00e+00	0	30	0	1585446912	40	6261
2026-01-10 12:37:24.25	113.62	14.41	-33.9	-34.8	23.9	0.00e+00	0	30	0	1588592640	40	6114
2026-01-10 12:37:25.26	113.80	14.35	-33.8	-34.7	24.0	0.00e+00	0	30	0	1591738368	40	6060
2026-01-10 12:37:26.27	113.99	14.30	-33.9	-34.8	23.9	0.00e+00	0	30	0	1594884096	40	6113
2026-01-10 12:37:27.28	114.17	14.25	-33.9	-34.8	23.9	0.00e+00	0	30	0	1598029824	40	6106
2026-01-10 12:37:28.29	114.35	14.19	-33.9	-34.8	23.9	0.00e+00	0	30	0	1601175552	40	6109
2026-01-10 12:37:29.30	114.53	14.14	-34.0	-34.9	23.9	0.00e+00	0	30	0	1604321280	40	6182
2026-01-10 12:37:30.31	114.71	14.09	-34.0	-35.0	23.9	0.00e+00	0	30	0	1607467008	40	6207
2026-01-10 12:37:31.32	114.88	14.03	-34.2	-35.1	23.8	0.00e+00	0	30	0	1610612736	40	6317
2026-01-10 12:37:32.33	115.06	13.98	-33.9	-34.9	24.0	0.00e+00	0	30	0	1613758464	40	6135
2026-01-10 12:37:33.34	115.24	13.93	-34.1	-35.0	23.8	0.00e+00	0	30	0	1616904192	40	6259
2026-01-10 12:37:34.34	115.41	13.87	-34.1	-35.1	23.7	0.00e+00	0	30	0	1620049920	40	6290
2026-01-10 12:37:35.36	115.59	13.82	-34.2	-35.1	23.7	0.00e+00	0	30	0	1623195648	40	6342
2026-01-10 12:37:36.37	115.77	13.77	-34.4	-35.3	23.6	0.00e+00	0	30	0	1626341376	40	6475
2026-01-10 12:37:37.38	115.94	13.71	-34.2	-35.1	23.7	0.00e+00	0	30	0	1629487104	40	6303
2026-01-10 12:37:38.38	116.11	13.66	-34.3	-35.2	23.6	0.00e+00	0	30	0	1632632832	40	6408
2026-01-10 12:37:39.39	116.29	13.60	-34.1	-35.1	23.7	0.00e+00	0	30	0	1635778560	40	6305
2026-01-10 12:37:40.40	116.46	13.55	-34.2	-35.1	23.6	0.00e+00	0	30	0	1638924288	40	6343
2026-01-10 12:37:41.41	116.63	13.49	-34.1	-35.0	23.8	0.00e+00	0	30	0	1642070016	40	6269
2026-01-10 12:37:42.42	116.80	13.44	-34.0	-35.0	23.8	0.00e+00	0	30	0	1645215744	40	6210
2026-01-10 12:37:43.43	116.97	13.38	-34.1	-35.1	23.7	0.00e+00	0	30	0	1648361472	40	6290
2026-01-10 12:37:44.44	117.14	13.33	-33.9	-34.8	23.9	0.00e+00	0	30	0	1651507200	40	6134
2026-01-10 12:37:45.45	117.31	13.27	-33.9	-34.9	23.9	0.00e+00	0	30	0	1654652928	40	6154
2026-01-10 12:37:46.46	117.48	13.22	-34.0	-35.0	23.9	0.00e+00	0	30	0	1657798656	40	6223
2026-01-10 12:37:47.47	117.65	13.16	-33.9	-34.8	24.0	0.00e+00	0	30	0	1660944384	40	6102
2026-01-10 12:37:48.48	117.82	13.11	-34.0	-34.9	23.9	0.00e+00	0	30	0	1664090112	40	6197
2026-01-10 12:37:49.49	117.98	13.05	-34.0	-35.0	23.8	0.00e+00	0	30	0	1667235840	40	6209
2026-01-10 12:37:50.50	118.15	13.00	-34.1	-35.0	23.7	0.00e+00	0	30	0	1670381568	40	6254
2026-01-10 12:37:51.51	118.32	12.94	-34.1	-35.0	23.7	0.00e+00	0	30	0	1673527296	40	6268
2026-01-10 12:37:52.52	118.48	12.89	-34.1	-35.1	23.7	0.00e+00	0	30	0	1676673024	40	6285
2026-01-10 12:37:53.53	118.65	12.83	-34.1	-35.0	23.8	0.00e+00	0	30	0	1679818752	40	6266
2026-01-10 12:37:54.54	118.81	12.77	-34.2	-35.1	23.7	0.00e+00	0	30	0	1682964480	40	6315
2026-01-10 12:37:55.55	118.97	12.72	-34.2	-35.1	23.7	0.00e+00	0	30	0	1686110208	40	6328
2026-01-10 12:37:56.56	119.14	12.66	-34.3	-35.2	23.6	0.00e+00	0	30	0	1689255936	40	6410
2026-01-10 12:37:57.57	119.30	12.61	-34.2	-35.2	23.7	0.00e+00	0	30	0	1692401664	40	6379
2026-01-10 12:37:58.58	119.46	12.55	-34.1	-35.1	23.7	0.00e+00	0	30	0	1695547392	40	6296
2026-01-10 12:37:59.59	119.62	12.49	-34.1	-35.0	23.8	0.00e+00	0	30	0	1698693120	40	6246
2026-01-10 12:38:00.60	119.78	12.44	-34.1	-35.0	23.8	0.00e+00	0	30	0	1701838848	40	6251
2026-01-10 12:38:01.61	119.94	12.38	-34.0	-34.9	23.9	0.00e+00	0	30	0	1704984576	40	6153
2026-01-10 12:38:02.62	120.10	12.32	-34.1	-35.0	23.8	0.00e+00	0	30	0	1708130304	40	6214
2026-01-10 12:38:03.63	120.26	12.27	-34.0	-34.9	23.9	0.00e+00	0	30	0	1711276032	40	6167
2026-01-10 12:38:04.64	120.42	12.21	-34.0	-34.9	23.9	0.00e+00	0	30	0	1714421760	40	6181
2026-01-10 12:38:05.65	120.58	12.15	-34.1	-35.0	23.9	0.00e+00	0	30	0	1717567488	40	6234
2026-01-10 12:38:06.66	120.73	12.10	-33.9	-34.8	24.0	0.00e+00	0	30	0	1720713216	40	6079
2026-01-10 12:38:07.67	120.89	12.04	-34.0	-34.9	23.9	0.00e+00	0	30	0	1723858944	40	6203
2026-01-10 12:38:08.68	121.05	11.98	-34.0	-34.9	23.9	0.00e+00	0	30	0	1727004672	40	6151
2026-01-10 12:38:09.69	121.20	11.93	-33.9	-34.8	23.9	0.00e+00	0	30	0	1730150400	40	6099
2026-01-10 12:38:10.70	121.36	11.87	-34.0	-35.0	23.8	0.00e+00	0	30	0	1733296128	40	6209
2026-01-10 12:38:11.71	121.51	11.81	-34.0	-35.0	23.8	0.00e+00	0	30	0	1736441856	40	6212
2026-01-10 12:38:12.72	121.66	11.75	-34.2	-35.2	23.7	0.00e+00	0	30	0	1739587584	40	6360
2026-01-10 12:38:13.73	121.82	11.70	-34.1	-35.1	23.7	0.00e+00	0	30	0	1742733312	40	6278
2026-01-10 12:38:14.74	121.97	11.64	-34.2	-35.1	23.6	0.00e+00	0	30	0	1745879040	40	6340
2026-01-10 12:38:15.75	122.12	11.58	-34.3	-35.2	23.5	0.00e+00	0	30	0	1749024768	40	6423
2026-01-10 12:38:16.76	122.27	11.53	-34.2	-35.1	23.6	0.00e+00	0	30	0	1753219072	40	6347
2026-01-10 12:38:17.77	122.42	11.47	-34.4	-35.3	23.4	0.00e+00	0	30	0	1755316224	40	6475
2026-01-10 12:38:18.78	122.57	11.41	-34.3	-35.2	23.5	0.00e+00	0	30	0	1758461952	40	6393
2026-01-10 12:38:19.79	122.72	11.35	-34.4	-35.3	23.4	0.00e+00	0	30	0	1761607680	40	6497
2026-01-10 12:38:20.80	122.87	11.30	-34.4	-35.4	23.3	0.00e+00	0	30	0	1764753408	40	6528
2026-01-10 12:38:21.81	123.02	11.24	-34.5	-35.5	23.3	0.00e+00	0	30	0	1768947712	40	6609
2026-01-10 12:38:22.82	123.17	11.18	-34.6	-35.6	23.2	0.00e+00	0	30	0	1772093440	40	6663
2026-01-10 12:38:23.83	123.32	11.12	-34.8	-35.7	23.1	0.00e+00	0	30	0	1775239168	42	6056
2026-01-10 12:38:24.85	123.46	11.06	-34.7	-35.6	23.1	0.00e+00	0	30	0	1777336320	42	5973
2026-01-10 12:38:25.86	123.61	11.01	-34.8	-35.8	23.1	0.00e+00	0	30	0	1780482048	42	6081
2026-01-10 12:38:26.87	123.76	10.95	-34.8	-35.7	23.1	0.00e+00	0	30	0	1784676352	42	6060
2026-01-10 12:38:27.88	123.90	10.89	-35.0	-35.9	22.9	0.00e+00	0	30	0	1787822080	42	6203
2026-01-10 12:38:28.88	124.04	10.83	-34.9	-35.9	22.9	0.00e+00	0	30	0	1790967808	42	6151
2026-01-10 12:38:29.89	124.19	10.78	-34.9	-35.9	22.9	0.00e+00	0	30	0	1794113536	42	6150
2026-01-10 12:38:30.90	124.33	10.72	-35.0	-36.0	22.8	0.00e+00	0	29	0	1797259264	42	6210
2026-01-10 12:38:31.91	124.47	10.66	-35.0	-36.0	22.7	0.00e+00	0	30	0	1800404992	42	6265
2026-01-10 12:38:32.92	124.62	10.60	-35.1	-36.0	22.7	0.00e+00	0	30	0	1803550720	42	6272
2026-01-10 12:38:33.93	124.76	10.55	-35.0	-36.0	22.7	0.00e+00	0	30	0	1806696448	42	6265
2026-01-10 12:38:34.94	124.90	10.49	-35.1	-36.1	22.7	0.00e+00	0	30	0	1809842176	42	6326
2026-01-10 12:38:35.95	125.04	10.43	-35.2	-36.2	22.7	0.00e+00	0	30	0	1812987904	42	6364
2026-01-10 12:38:36.96	125.18	10.37	-35.0	-36.0	22.8	0.00e+00	0	30	0	1816133632	42	6215
2026-01-10 12:38:37.98	125.32	10.31	-35.0	-36.0	22.8	0.00e+00	0	30	0	1819279360	42	6242
2026-01-10 12:38:38.98	125.46	10.26	-35.0	-36.0	22.7	0.00e+00	0	30	0	1822425088	42	6270
2026-01-10 12:38:40.00	125.60	10.20	-35.1	-36.0	22.8	0.00e+00	0	30	0	1825570816	42	6272
2026-01-10 12:38:41.00	125.74	10.14	-34.8	-35.8	22.9	0.00e+00	0	29	0	1828716544	42	6113
2026-01-10 12:38:42.01	125.87	10.08	-34.8	-35.8	23.0	0.00e+00	0	30	0	1831862272	42	6076
2026-01-10 12:38:43.02	126.01	10.02	-34.9	-35.9	22.8	0.00e+00	0	30	0	1835008000	42	6176
2026-01-10 12:38:44.03	126.15	9.97	-34.9	-35.9	22.9	0.00e+00	0	30	0	1838153728	42	6151
2026-01-10 12:38:45.04	126.28	9.91	-34.9	-35.9	22.9	0.00e+00	0	30	0	1841299456	42	6158
2026-01-10 12:38:46.06	126.42	9.85	-34.9	-35.9	22.9	0.00e+00	0	30	0	1844445184	42	6184
2026-01-10 12:38:47.07	126.55	9.79	-35.1	-36.0	22.8	0.00e+00	0	30	0	1847590912	42	6261
2026-01-10 12:38:48.08	126.69	9.73	-35.1	-36.0	22.8	0.00e+00	0	30	0	1850736640	42	6276
2026-01-10 12:38:49.09	126.82	9.68	-34.9	-35.9	22.8	0.00e+00	0	29	0	1853882368	42	6176
2026-01-10 12:38:50.09	126.95	9.62	-35.2	-36.1	22.7	0.00e+00	0	29	0	1857028096	42	6337
2026-01-10 12:38:51.10	127.09	9.56	-35.0	-36.0	22.8	0.00e+00	0	29	0	1860173824	42	6261
2026-01-10 12:38:52.12	127.22	9.50	-35.1	-36.1	22.7	0.00e+00	0	30	0	1863319552	42	6317
2026-01-10 12:38:53.12	127.35	9.44	-35.2	-36.2	22.7	0.00e+00	0	29	0	1866465280	42	6364
2026-01-10 12:38:54.14	127.48	9.39	-35.2	-36.2	22.6	0.00e+00	0	29	0	1869611008	42	6391
2026-01-10 12:38:55.14	127.61	9.33	-35.2	-36.2	22.6	0.00e+00	0	29	0	1872756736	42	6416
2026-01-10 12:38:56.15	127.74	9.27	-35.2	-36.2	22.6	0.00e+00	0	29	0	1875902464	42	6422
2026-01-10 12:38:57.17	127.88	9.21	-35.2	-36.2	22.7	0.00e+00	0	29	0	1879048192	42	6371
2026-01-10 12:38:58.17	128.00	9.15	-35.3	-36.3	22.6	0.00e+00	0	29	0	1882193920	42	6461
2026-01-10 12:38:59.18	128.13	9.10	-35.4	-36.3	22.5	0.00e+00	0	29	0	1885339648	42	6497
2026-01-10 12:39:00.19	128.26	9.04	-35.2	-36.2	22.7	0.00e+00	0	29	0	1888485376	42	6375
2026-01-10 12:39:01.20	128.39	8.98	-35.2	-36.2	22.6	0.00e+00	0	29	0	1891631104	42	6357
2026-01-10 12:39:02.21	128.52	8.92	-35.2	-36.2	22.6	0.00e+00	0	29	0	1894776832	42	6370
2026-01-10 12:39:03.22	128.64	8.87	-35.1	-36.1	22.5	0.00e+00	0	29	0	1897922560	42	6318
2026-01-10 12:39:04.23	128.77	8.81	-35.2	-36.2	22.5	0.00e+00	0	29	0	1901068288	42	6395
2026-01-10 12:39:05.24	128.90	8.75	-35.3	-36.3	22.4	0.00e+00	0	29	0	1904214016	42	6457
2026-01-10 12:39:06.25	129.02	8.69	-35.3	-36.4	22.3	0.00e+00	0	29	0	1907359744	42	6499
2026-01-10 12:39:07.26	129.15	8.63	-35.4	-36.4	22.2	0.00e+00	0	29	0	1910505472	42	6529
2026-01-10 12:39:08.27	129.27	8.58	-35.5	-36.5	22.1	0.00e+00	0	29	0	1913651200	42	6640
2026-01-10 12:39:09.28	129.40	8.52	-35.5	-36.5	22.1	0.00e+00	0	29	0	1916796928	42	6645
2026-01-10 12:39:10.29	129.52	8.46	-35.5	-36.5	22.2	0.00e+00	0	29	0	1919942656	42	6623
2026-01-10 12:39:11.30	129.64	8.40	-35.5	-36.6	22.2	0.00e+00	0	29	0	1923088384	42	6668
2026-01-10 12:39:12.31	129.76	8.35	-35.6	-36.6	22.3	0.00e+00	0	29	0	1926234112	42	6711
2026-01-10 12:39:13.32	129.89	8.29	-35.5	-36.5	22.3	0.00e+00	0	29	0	1929379840	42	6636
2026-01-10 12:39:14.33	130.01	8.23	-35.6	-36.6	22.3	0.00e+00	0	29	0	1932525568	42	6674
2026-01-10 12:39:15.34	130.13	8.17	-35.8	-36.8	22.2	0.00e+00	0	29	0	1935671296	42	6818
2026-01-10 12:39:16.35	130.25	8.11	-35.4	-36.5	22.3	0.00e+00	0	29	0	1938817024	44	5860
2026-01-10 12:39:17.36	130.37	8.06	-35.5	-36.5	22.2	0.00e+00	0	29	0	1941962752	44	5919
2026-01-10 12:39:18.37	130.49	8.00	-35.5	-36.5	22.3	0.00e+00	0	29	0	1945108480	44	5913
2026-01-10 12:39:19.38	130.61	7.94	-35.6	-36.6	22.2	0.00e+00	0	29	0	1948254208	44	5959
2026-01-10 12:39:20.38	130.73	7.88	-35.6	-36.6	22.2	0.00e+00	0	29	0	1951399936	44	5956
2026-01-10 12:39:21.39	130.85	7.83	-35.7	-36.8	22.0	0.00e+00	0	29	0	1954545664	44	6067
2026-01-10 12:39:22.40	130.96	7.77	-35.9	-36.9	21.9	0.00e+00	0	29	0	1957691392	44	6187
2026-01-10 12:39:23.41	131.08	7.71	-35.8	-36.8	21.9	0.00e+00	0	29	0	1960837120	44	6085
2026-01-10 12:39:24.42	131.20	7.65	-35.8	-36.9	21.9	0.00e+00	0	29	0	1963982848	44	6140
2026-01-10 12:39:25.44	131.32	7.60	-35.8	-36.9	21.9	0.00e+00	0	29	0	1967128576	44	6167
2026-01-10 12:39:26.45	131.43	7.54	-35.8	-36.9	21.9	0.00e+00	0	29	0	1970274304	44	6156
2026-01-10 12:39:27.45	131.55	7.48	-35.9	-37.0	21.7	0.00e+00	0	29	0	1973420032	44	6226
2026-01-10 12:39:28.46	131.66	7.43	-35.8	-36.9	21.9	0.00e+00	0	29	0	1976565760	44	6161
2026-01-10 12:39:29.48	131.78	7.37	-35.9	-37.0	21.8	0.00e+00	0	29	0	1979711488	44	6211
2026-01-10 12:39:30.48	131.89	7.31	-36.0	-37.1	21.7	0.00e+00	0	29	0	1982857216	44	6314
2026-01-10 12:39:31.49	132.01	7.25	-36.1	-37.2	21.6	0.00e+00	0	29	0	1986002944	44	6370
2026-01-10 12:39:32.50	132.12	7.20	-36.0	-37.1	21.7	0.00e+00	0	29	0	1989148672	44	6336
2026-01-10 12:39:33.51	132.23	7.14	-36.0	-37.0	21.8	0.00e+00	0	29	0	1992294400	44	6276
2026-01-10 12:39:34.53	132.35	7.08	-36.0	-37.1	21.7	0.00e+00	0	29	0	1995440128	44	6284
2026-01-10 12:39:35.54	132.46	7.02	-36.1	-37.1	21.7	0.00e+00	0	29	0	1998585856	44	6348
2026-01-10 12:39:36.55	132.57	6.97	-36.0	-37.0	21.7	0.00e+00	0	29	0	2001731584	44	6275
2026-01-10 12:39:37.56	132.68	6.91	-36.0	-37.0	21.8	0.00e+00	0	29	0	2004877312	44	6254
2026-01-10 12:39:38.57	132.80	6.85	-35.9	-36.9	21.9	0.00e+00	0	29	0	2008023040	44	6185
2026-01-10 12:39:39.58	132.91	6.80	-35.8	-36.8	21.9	0.00e+00	0	29	0	2011168768	44	6113
2026-01-10 12:39:40.59	133.02	6.74	-35.8	-36.9	21.8	0.00e+00	0	29	0	2014314496	44	6152
2026-01-10 12:39:41.60	133.13	6.68	-35.9	-37.0	21.8	0.00e+00	0	29	0	2017460224	44	6224
2026-01-10 12:39:42.61	133.24	6.63	-36.1	-37.2	21.5	0.00e+00	0	29	0	2020605952	44	6362
2026-01-10 12:39:43.62	133.35	6.57	-36.1	-37.2	21.4	0.00e+00	0	29	0	2023751680	44	6414
