passes_logs/2026/01/10/R4.6S_Anadyr/R4.6S_Anadyr__20260110_002237_NOAA_21_JPSS-2_rec.log

#Pass ID: 20260110_002237_NOAA 21 (JPSS-2)
#Satellite: NOAA 21 (JPSS-2)
#Configuration: NOAA-21
#almurnet v.1.7.20251203
#Start time: 2026-01-10 00:22:40

#Version: 2.2.20231116
#Station: R4.6S_Anadyr
#Location: 177.4865 lon 64.73178 lat
#TLE: 1 54234U 22150A   26008.59854928  .00000127  00000+0  81204-4 0  9992
#TLE: 2 54234  98.7494 309.5759 0000887 327.7487  32.3634 14.19533414163905

#Time	Az	El	Level	Level2	SNR	BER	BlckErr	Temp	State	Recorded	gain1	gain2
2026-01-10 00:22:40.11	160.29	0.16	-48.0	-62.9	3.5	1.51e+00	0	22	0	0	60	50563
2026-01-10 00:22:41.12	160.30	0.22	-48.0	-60.9	3.5	1.52e+00	0	23	104	0	60	38847
2026-01-10 00:22:42.12	160.31	0.28	-48.2	-61.1	3.5	1.52e+00	0	23	104	0	60	39710
2026-01-10 00:22:43.14	160.31	0.34	-48.2	-61.1	3.5	1.52e+00	0	24	104	0	60	39738
2026-01-10 00:22:44.14	160.32	0.40	-48.1	-61.0	3.5	1.51e+00	0	24	104	0	60	39266
2026-01-10 00:22:45.15	160.33	0.46	-48.2	-61.1	3.5	1.51e+00	0	24	104	0	60	39613
2026-01-10 00:22:46.16	160.34	0.52	-48.2	-61.1	3.5	1.52e+00	0	24	104	0	60	39652
2026-01-10 00:22:47.17	160.35	0.58	-48.1	-60.9	3.5	1.52e+00	0	24	104	0	60	38818
2026-01-10 00:22:48.18	160.36	0.65	-48.0	-60.9	3.5	1.52e+00	0	24	104	0	60	38759
2026-01-10 00:22:49.19	160.37	0.71	-47.9	-60.8	3.5	1.52e+00	0	24	104	0	60	38535
2026-01-10 00:22:50.20	160.37	0.77	-47.8	-60.7	3.5	1.52e+00	0	24	104	0	60	38147
2026-01-10 00:22:51.21	160.38	0.83	-47.7	-60.6	3.5	1.52e+00	0	24	104	0	60	37755
2026-01-10 00:22:52.22	160.39	0.89	-47.7	-60.5	3.5	1.52e+00	0	24	104	0	60	37205
2026-01-10 00:22:53.23	160.40	0.96	-47.4	-60.3	3.5	1.52e+00	0	24	104	0	60	36135
2026-01-10 00:22:54.24	160.41	1.02	-45.9	-58.8	3.5	1.52e+00	0	24	104	0	60	30555
2026-01-10 00:22:55.25	160.42	1.08	-46.6	-59.5	3.5	1.52e+00	0	24	104	0	60	33041
2026-01-10 00:22:56.26	160.43	1.15	-46.5	-59.3	3.5	1.52e+00	0	24	104	0	60	32562
2026-01-10 00:22:57.27	160.43	1.21	-46.5	-59.3	3.5	1.52e+00	0	24	104	0	60	32559
2026-01-10 00:22:58.28	160.44	1.27	-46.5	-59.3	3.5	1.52e+00	0	24	104	0	60	32213
2026-01-10 00:22:59.28	160.45	1.33	-46.5	-59.3	3.5	1.51e+00	0	24	104	0	60	32222
2026-01-10 00:23:00.29	160.46	1.40	-46.5	-59.2	3.5	1.51e+00	0	24	104	0	60	32123
2026-01-10 00:23:01.31	160.47	1.46	-46.5	-59.1	3.5	1.52e+00	0	24	104	0	60	31693
2026-01-10 00:23:02.31	160.48	1.52	-46.5	-58.9	3.5	1.52e+00	0	24	104	0	60	30987
2026-01-10 00:23:03.32	160.49	1.59	-46.5	-58.9	3.5	1.52e+00	0	24	104	0	60	30891
2026-01-10 00:23:04.33	160.50	1.65	-46.5	-58.8	3.5	1.52e+00	0	24	104	0	60	30465
2026-01-10 00:23:05.34	160.50	1.72	-46.5	-58.7	3.5	1.52e+00	0	24	104	0	60	30297
2026-01-10 00:23:06.35	160.51	1.78	-46.4	-58.7	3.5	1.52e+00	0	24	104	0	60	30142
2026-01-10 00:23:07.36	160.52	1.84	-46.5	-58.9	3.5	1.52e+00	0	24	104	0	60	31004
2026-01-10 00:23:08.37	160.53	1.91	-46.5	-59.0	3.5	1.52e+00	0	24	104	0	60	31180
2026-01-10 00:23:09.38	160.54	1.97	-46.5	-59.1	3.5	1.52e+00	0	24	104	0	60	31710
2026-01-10 00:23:10.39	160.55	2.04	-46.5	-59.2	3.5	1.52e+00	0	24	104	0	60	32132
2026-01-10 00:23:11.40	160.56	2.10	-46.5	-59.3	3.5	1.52e+00	0	24	104	0	60	32349
2026-01-10 00:23:12.41	160.57	2.17	-46.5	-59.3	3.5	1.52e+00	0	24	104	0	60	32389
2026-01-10 00:23:13.42	160.58	2.23	-46.5	-59.2	3.5	1.51e+00	0	24	104	0	60	31961
2026-01-10 00:23:14.43	160.59	2.30	-46.5	-59.2	3.5	1.52e+00	0	24	104	0	60	31839
2026-01-10 00:23:15.44	160.60	2.37	-46.5	-59.0	3.5	1.52e+00	0	24	104	0	60	31185
2026-01-10 00:23:16.45	160.60	2.43	-46.5	-58.8	3.5	1.51e+00	0	24	104	0	60	30708
2026-01-10 00:23:17.46	160.61	2.50	-46.4	-58.6	3.5	1.52e+00	0	24	104	0	60	30024
2026-01-10 00:23:18.47	160.62	2.56	-46.4	-58.1	3.5	1.51e+00	0	24	104	0	60	28143
2026-01-10 00:23:19.47	160.63	2.63	-46.3	-57.5	3.5	1.51e+00	0	24	104	0	60	26357
2026-01-10 00:23:20.48	160.64	2.69	-46.3	-57.2	3.5	1.51e+00	0	24	104	0	60	25492
2026-01-10 00:23:21.49	160.65	2.76	-46.3	-57.1	3.7	1.51e+00	0	24	104	0	60	25244
2026-01-10 00:23:22.50	160.66	2.83	-46.3	-57.3	3.7	1.51e+00	0	24	104	0	60	25699
2026-01-10 00:23:23.51	160.67	2.89	-46.3	-57.4	3.5	1.51e+00	0	24	104	0	60	26144
2026-01-10 00:23:24.52	160.68	2.96	-46.3	-57.2	3.5	1.51e+00	0	24	104	0	60	25409
2026-01-10 00:23:25.53	160.69	3.03	-46.1	-55.8	3.6	1.47e+00	0	24	104	0	60	21766
2026-01-10 00:23:26.54	160.70	3.10	-45.7	-53.3	4.0	8.92e-01	0	24	104	0	60	16322
2026-01-10 00:23:27.55	160.71	3.16	-45.0	-50.1	8.2	8.19e-02	120	24	0	0	60	11204
2026-01-10 00:23:28.56	160.72	3.23	-43.8	-47.3	11.1	3.67e-03	122	24	0	3145728	60	8135
2026-01-10 00:23:29.57	160.73	3.30	-42.9	-45.7	12.9	2.62e-04	121	24	0	6291456	60	6730
2026-01-10 00:23:30.58	160.74	3.37	-41.5	-43.6	15.0	0.00e+00	123	24	0	9437184	56	6718
2026-01-10 00:23:31.59	160.75	3.43	-40.9	-42.8	15.8	0.00e+00	123	24	0	12582912	56	6084
2026-01-10 00:23:32.60	160.76	3.50	-39.6	-41.2	17.4	0.00e+00	120	24	0	15728640	54	5707
2026-01-10 00:23:33.61	160.76	3.57	-39.1	-40.6	17.9	0.00e+00	123	24	0	18874368	52	5940
2026-01-10 00:23:34.61	160.77	3.64	-39.1	-40.6	17.8	0.00e+00	123	24	0	22020096	52	5979
2026-01-10 00:23:35.63	160.78	3.71	-38.8	-40.2	18.2	0.00e+00	122	24	0	25165824	50	6396
2026-01-10 00:23:36.64	160.79	3.78	-38.9	-40.4	18.1	0.00e+00	122	24	0	28311552	50	6502
2026-01-10 00:23:37.65	160.80	3.85	-39.3	-40.9	17.6	0.00e+00	123	24	0	31457280	50	6933
2026-01-10 00:23:38.65	160.81	3.92	-40.9	-42.9	14.6	0.00e+00	123	25	0	34603008	52	7732
2026-01-10 00:23:39.67	160.82	3.99	-44.8	-50.0	10.4	1.45e+00	123	24	104	36700160	60	11137
2026-01-10 00:23:40.68	160.83	4.06	-38.9	-40.4	17.7	0.00e+00	123	24	0	37748736	52	5809
2026-01-10 00:23:41.69	160.84	4.13	-45.8	-53.9	6.1	1.35e+00	59	24	104	38797312	60	17477
2026-01-10 00:23:42.69	160.85	4.19	-41.4	-43.5	14.5	6.80e-06	123	24	0	39845888	56	6649
2026-01-10 00:23:43.70	160.86	4.27	-45.6	-52.6	4.3	1.51e+00	0	25	104	40894464	60	14946
2026-01-10 00:23:44.71	160.87	4.34	-41.6	-44.2	14.6	3.80e-06	123	24	104	40894464	56	7157
2026-01-10 00:23:45.72	160.88	4.41	-40.9	-42.9	15.8	0.00e+00	120	25	0	42991616	56	6143
2026-01-10 00:23:46.73	160.89	4.48	-39.1	-40.6	18.2	0.00e+00	123	24	0	46137344	52	5934
2026-01-10 00:23:47.74	160.90	4.55	-37.7	-38.9	19.5	0.00e+00	123	25	0	49283072	50	5519
2026-01-10 00:23:48.75	160.91	4.62	-37.5	-38.8	19.6	0.00e+00	123	24	0	52428800	48	6091
2026-01-10 00:23:49.76	160.92	4.69	-37.5	-38.7	20.0	0.00e+00	122	25	0	55574528	48	6049
2026-01-10 00:23:50.77	160.93	4.76	-37.2	-38.4	19.9	0.00e+00	122	25	0	58720256	48	5858
2026-01-10 00:23:51.78	160.94	4.83	-37.4	-38.7	20.0	0.00e+00	123	25	0	61865984	48	6012
2026-01-10 00:23:52.79	160.95	4.91	-37.4	-38.7	19.7	0.00e+00	120	25	0	65011712	48	6033
2026-01-10 00:23:53.79	160.97	4.98	-37.5	-38.8	19.8	0.00e+00	122	25	0	68157440	48	6073
2026-01-10 00:23:54.81	160.98	5.05	-37.5	-38.7	19.6	0.00e+00	122	25	0	71303168	48	6060
2026-01-10 00:23:55.81	160.99	5.12	-37.1	-38.3	20.1	0.00e+00	123	25	0	74448896	48	5778
2026-01-10 00:23:56.82	161.00	5.19	-37.0	-38.2	20.3	0.00e+00	123	25	0	77594624	48	5669
2026-01-10 00:23:57.83	161.01	5.27	-36.5	-37.6	20.9	0.00e+00	120	24	0	80740352	46	5965
2026-01-10 00:23:58.84	161.02	5.34	-36.5	-37.6	20.9	0.00e+00	124	25	0	83886080	46	5977
2026-01-10 00:23:59.85	161.03	5.41	-36.3	-37.4	21.1	0.00e+00	123	25	0	87031808	46	5827
2026-01-10 00:24:00.86	161.04	5.49	-36.2	-37.3	21.3	0.00e+00	123	25	0	90177536	46	5754
2026-01-10 00:24:01.87	161.05	5.56	-36.2	-37.3	21.2	0.00e+00	123	25	0	93323264	46	5747
2026-01-10 00:24:02.88	161.06	5.63	-36.2	-37.3	21.3	0.00e+00	122	25	0	96468992	46	5734
2026-01-10 00:24:03.89	161.07	5.71	-36.1	-37.2	21.3	0.00e+00	120	25	0	99614720	46	5709
2026-01-10 00:24:04.90	161.08	5.78	-36.2	-37.3	21.2	0.00e+00	123	25	0	102760448	46	5788
2026-01-10 00:24:05.91	161.09	5.86	-36.1	-37.2	21.3	0.00e+00	123	25	0	105906176	46	5706
2026-01-10 00:24:06.92	161.10	5.93	-36.0	-37.1	21.4	0.00e+00	123	25	0	109051904	46	5595
2026-01-10 00:24:07.93	161.11	6.01	-36.0	-37.1	21.4	0.00e+00	122	25	0	112197632	46	5637
2026-01-10 00:24:08.94	161.12	6.08	-36.0	-37.1	21.5	0.00e+00	123	25	0	115343360	46	5599
2026-01-10 00:24:09.95	161.14	6.16	-36.1	-37.2	21.4	0.00e+00	123	25	0	118489088	46	5670
2026-01-10 00:24:10.95	161.15	6.23	-35.9	-37.0	21.6	0.00e+00	123	25	0	121634816	46	5555
2026-01-10 00:24:11.97	161.16	6.31	-36.0	-37.0	21.5	0.00e+00	122	25	0	124780544	46	5592
2026-01-10 00:24:12.97	161.17	6.39	-36.0	-37.0	21.6	0.00e+00	123	25	0	127926272	46	5572
2026-01-10 00:24:13.99	161.18	6.46	-36.0	-37.1	21.5	0.00e+00	120	25	0	131072000	46	5605
2026-01-10 00:24:15.00	161.19	6.54	-36.0	-37.1	21.5	0.00e+00	122	25	0	134217728	46	5603
2026-01-10 00:24:16.00	161.20	6.61	-35.8	-36.8	21.7	0.00e+00	122	25	0	137363456	46	5464
2026-01-10 00:24:17.01	161.21	6.69	-35.7	-36.7	21.7	0.00e+00	122	25	0	140509184	44	6029
2026-01-10 00:24:18.02	161.22	6.77	-35.8	-36.9	21.7	0.00e+00	122	25	0	143654912	44	6145
2026-01-10 00:24:19.03	161.24	6.85	-35.7	-36.7	21.8	0.00e+00	120	25	0	146800640	44	6056
2026-01-10 00:24:20.04	161.25	6.92	-35.7	-36.8	21.7	0.00e+00	122	25	0	149946368	44	6080
2026-01-10 00:24:21.05	161.26	7.00	-35.8	-36.8	21.8	0.00e+00	123	25	0	153092096	44	6122
2026-01-10 00:24:22.07	161.27	7.08	-35.7	-36.7	21.8	0.00e+00	123	25	0	156237824	44	6062
2026-01-10 00:24:23.07	161.28	7.16	-35.5	-36.5	22.0	0.00e+00	123	25	0	159383552	44	5902
2026-01-10 00:24:24.09	161.29	7.24	-35.6	-36.6	22.0	0.00e+00	123	25	0	162529280	44	5960
2026-01-10 00:24:25.09	161.30	7.32	-35.4	-36.4	22.1	0.00e+00	122	25	0	165675008	44	5852
2026-01-10 00:24:26.10	161.32	7.40	-35.5	-36.5	22.0	0.00e+00	123	25	0	168820736	44	5907
2026-01-10 00:24:27.11	161.33	7.47	-35.5	-36.5	22.1	0.00e+00	123	25	0	171966464	44	5880
2026-01-10 00:24:28.12	161.34	7.55	-35.4	-36.4	22.2	0.00e+00	115	25	0	175112192	44	5831
2026-01-10 00:24:29.13	161.35	7.63	-35.4	-36.4	22.2	0.00e+00	123	25	0	178257920	44	5821
2026-01-10 00:24:30.14	161.36	7.71	-35.3	-36.3	22.2	0.00e+00	120	25	0	181403648	44	5752
2026-01-10 00:24:31.15	161.38	7.79	-35.2	-36.2	22.4	0.00e+00	120	25	0	184549376	44	5688
2026-01-10 00:24:32.16	161.39	7.88	-35.3	-36.3	22.3	0.00e+00	122	25	0	187695104	44	5788
2026-01-10 00:24:33.17	161.40	7.96	-35.1	-36.1	22.4	0.00e+00	120	25	0	190840832	44	5646
2026-01-10 00:24:34.17	161.41	8.04	-35.3	-36.3	22.2	0.00e+00	123	25	0	193986560	44	5784
2026-01-10 00:24:35.18	161.42	8.12	-35.2	-36.2	22.4	0.00e+00	123	25	0	197132288	44	5704
2026-01-10 00:24:36.19	161.44	8.20	-34.9	-36.0	22.6	0.00e+00	123	25	0	200278016	44	5532
2026-01-10 00:24:37.20	161.45	8.28	-35.1	-36.1	22.5	0.00e+00	122	25	0	203423744	44	5609
2026-01-10 00:24:38.21	161.46	8.36	-35.0	-36.0	22.5	0.00e+00	123	25	0	206569472	44	5587
2026-01-10 00:24:39.22	161.47	8.45	-34.9	-35.9	22.6	0.00e+00	120	25	0	209715200	44	5518
2026-01-10 00:24:40.23	161.48	8.53	-34.9	-35.9	22.7	0.00e+00	122	25	0	212860928	44	5504
2026-01-10 00:24:41.24	161.50	8.61	-35.0	-36.0	22.7	0.00e+00	123	25	0	216006656	44	5555
2026-01-10 00:24:42.25	161.51	8.70	-34.8	-35.8	22.8	0.00e+00	123	25	0	219152384	44	5417
2026-01-10 00:24:43.26	161.52	8.78	-34.9	-35.9	22.7	0.00e+00	122	25	0	222298112	44	5526
2026-01-10 00:24:44.27	161.53	8.86	-34.8	-35.7	22.8	0.00e+00	120	25	0	225443840	44	5402
2026-01-10 00:24:45.28	161.55	8.95	-34.9	-35.9	22.7	0.00e+00	122	25	0	228589568	44	5508
2026-01-10 00:24:46.29	161.56	9.03	-34.8	-35.8	22.8	0.00e+00	122	25	0	231735296	42	6073
2026-01-10 00:24:47.29	161.57	9.11	-34.8	-35.7	22.8	0.00e+00	123	25	0	234881024	42	6058
2026-01-10 00:24:48.30	161.58	9.20	-34.9	-35.8	22.8	0.00e+00	123	25	0	238026752	42	6134
2026-01-10 00:24:49.31	161.60	9.29	-34.6	-35.6	23.0	0.00e+00	123	25	0	241172480	42	5977
2026-01-10 00:24:50.32	161.61	9.37	-34.7	-35.7	22.9	0.00e+00	123	25	0	244318208	42	6005
2026-01-10 00:24:51.33	161.62	9.46	-34.6	-35.6	23.0	0.00e+00	122	25	0	247463936	42	5965
2026-01-10 00:24:52.34	161.64	9.54	-34.8	-35.8	22.8	0.00e+00	122	25	0	250609664	42	6096
2026-01-10 00:24:53.35	161.65	9.63	-34.5	-35.5	23.1	0.00e+00	120	25	0	253755392	42	5900
2026-01-10 00:24:54.36	161.66	9.72	-34.6	-35.6	23.0	0.00e+00	122	25	0	256901120	42	5939
2026-01-10 00:24:55.37	161.68	9.80	-34.7	-35.7	23.0	0.00e+00	123	25	0	260046848	42	6026
2026-01-10 00:24:56.38	161.69	9.89	-34.5	-35.5	23.1	0.00e+00	120	25	0	264241152	42	5893
2026-01-10 00:24:57.39	161.70	9.98	-34.5	-35.5	23.1	0.00e+00	123	25	0	267386880	42	5875
2026-01-10 00:24:58.40	161.72	10.07	-34.3	-35.3	23.3	0.00e+00	120	25	0	269484032	42	5753
2026-01-10 00:24:59.41	161.73	10.15	-34.3	-35.3	23.3	0.00e+00	122	25	0	272629760	42	5756
2026-01-10 00:25:00.43	161.74	10.24	-34.5	-35.5	23.2	0.00e+00	120	25	0	276824064	42	5863
2026-01-10 00:25:01.44	161.76	10.33	-34.3	-35.3	23.4	0.00e+00	123	25	0	279969792	42	5727
2026-01-10 00:25:02.44	161.77	10.42	-34.4	-35.4	23.3	0.00e+00	120	25	0	283115520	42	5793
2026-01-10 00:25:03.45	161.78	10.51	-34.2	-35.2	23.4	0.00e+00	122	25	0	286261248	42	5667
2026-01-10 00:25:04.47	161.80	10.60	-34.3	-35.2	23.4	0.00e+00	123	25	0	289406976	42	5698
2026-01-10 00:25:05.47	161.81	10.69	-34.4	-35.3	23.3	0.00e+00	122	25	0	292552704	42	5768
2026-01-10 00:25:06.48	161.82	10.78	-34.1	-35.1	23.5	0.00e+00	123	25	0	295698432	42	5609
2026-01-10 00:25:07.49	161.84	10.87	-34.3	-35.2	23.4	0.00e+00	123	25	0	298844160	42	5711
2026-01-10 00:25:08.50	161.85	10.96	-34.1	-35.1	23.5	0.00e+00	122	25	0	301989888	42	5595
2026-01-10 00:25:09.51	161.87	11.06	-34.1	-35.0	23.5	0.00e+00	122	25	0	305135616	42	5593
2026-01-10 00:25:10.52	161.88	11.15	-34.1	-35.1	23.5	0.00e+00	123	25	0	308281344	42	5608
2026-01-10 00:25:11.53	161.89	11.24	-34.0	-34.9	23.7	0.00e+00	120	25	0	311427072	42	5501
2026-01-10 00:25:12.54	161.91	11.33	-34.1	-35.0	23.6	0.00e+00	122	25	0	314572800	42	5579
2026-01-10 00:25:13.55	161.92	11.42	-33.9	-34.9	23.7	0.00e+00	123	25	0	317718528	42	5468
2026-01-10 00:25:14.56	161.94	11.52	-33.9	-34.8	23.8	0.00e+00	123	25	0	320864256	42	5424
2026-01-10 00:25:15.57	161.95	11.61	-34.0	-34.9	23.6	0.00e+00	122	25	0	324009984	42	5505
2026-01-10 00:25:16.58	161.97	11.71	-34.0	-34.9	23.7	0.00e+00	120	25	0	327155712	42	5506
2026-01-10 00:25:17.58	161.98	11.80	-33.9	-34.9	23.7	0.00e+00	122	25	0	330301440	42	5492
2026-01-10 00:25:18.60	161.99	11.90	-33.8	-34.8	23.8	0.00e+00	120	25	0	333447168	42	5414
2026-01-10 00:25:19.61	162.01	11.99	-33.8	-34.8	23.8	0.00e+00	120	25	0	336592896	42	5411
2026-01-10 00:25:20.61	162.02	12.08	-33.9	-34.8	23.8	0.00e+00	122	25	0	339738624	42	5439
2026-01-10 00:25:21.63	162.04	12.18	-33.8	-34.7	23.9	0.00e+00	123	25	0	342884352	42	5385
2026-01-10 00:25:22.64	162.05	12.28	-33.8	-34.7	23.8	0.00e+00	123	25	0	346030080	42	5392
2026-01-10 00:25:23.64	162.07	12.37	-33.7	-34.7	23.9	0.00e+00	121	25	0	349175808	40	6006
2026-01-10 00:25:24.65	162.08	12.47	-33.8	-34.7	23.9	0.00e+00	122	25	0	352321536	40	6036
2026-01-10 00:25:25.67	162.10	12.57	-33.9	-34.8	23.7	0.00e+00	120	25	0	355467264	40	6082
2026-01-10 00:25:26.67	162.11	12.67	-33.8	-34.8	23.8	0.00e+00	123	25	0	358612992	40	6069
2026-01-10 00:25:27.68	162.13	12.76	-33.6	-34.5	24.0	0.00e+00	122	25	0	361758720	40	5892
2026-01-10 00:25:28.69	162.15	12.86	-33.6	-34.6	24.0	0.00e+00	122	25	0	364904448	40	5927
2026-01-10 00:25:29.70	162.16	12.96	-33.9	-34.8	23.9	0.00e+00	122	25	0	368050176	40	6084
2026-01-10 00:25:30.71	162.18	13.06	-33.6	-34.5	24.0	0.00e+00	123	25	0	371195904	40	5913
2026-01-10 00:25:31.72	162.19	13.16	-33.6	-34.5	24.0	0.00e+00	123	25	0	374341632	40	5899
2026-01-10 00:25:32.73	162.21	13.26	-33.8	-34.7	23.8	0.00e+00	122	25	0	377487360	40	6016
2026-01-10 00:25:33.74	162.22	13.36	-33.6	-34.5	24.0	0.00e+00	122	25	0	380633088	40	5925
2026-01-10 00:25:34.75	162.24	13.46	-33.6	-34.5	24.0	0.00e+00	122	25	0	383778816	40	5910
2026-01-10 00:25:35.76	162.26	13.56	-33.6	-34.5	24.1	0.00e+00	123	25	0	386924544	40	5902
2026-01-10 00:25:36.77	162.27	13.67	-33.5	-34.5	24.0	0.00e+00	122	25	0	390070272	40	5860
2026-01-10 00:25:37.78	162.29	13.77	-33.7	-34.6	24.0	0.00e+00	121	25	0	393216000	40	5976
2026-01-10 00:25:38.79	162.30	13.87	-33.6	-34.5	24.1	0.00e+00	123	25	0	396361728	40	5873
2026-01-10 00:25:39.80	162.32	13.97	-33.5	-34.4	24.0	0.00e+00	122	25	0	399507456	40	5848
2026-01-10 00:25:40.80	162.34	14.08	-33.6	-34.6	24.0	0.00e+00	123	25	0	402653184	40	5935
2026-01-10 00:25:41.81	162.35	14.18	-33.6	-34.5	24.0	0.00e+00	120	25	0	405798912	40	5890
2026-01-10 00:25:42.82	162.37	14.28	-33.7	-34.6	23.9	0.00e+00	123	25	0	408944640	40	5973
2026-01-10 00:25:43.83	162.39	14.39	-33.5	-34.4	24.1	0.00e+00	123	25	0	412090368	40	5855
2026-01-10 00:25:44.84	162.40	14.50	-33.5	-34.5	24.0	0.00e+00	122	25	0	415236096	40	5862
2026-01-10 00:25:45.84	162.42	14.60	-33.7	-34.7	24.0	0.00e+00	123	25	0	418381824	40	6000
2026-01-10 00:25:46.85	162.44	14.71	-33.6	-34.5	24.0	0.00e+00	122	25	0	421527552	40	5886
2026-01-10 00:25:47.86	162.45	14.81	-33.5	-34.4	24.1	0.00e+00	120	25	0	424673280	40	5852
2026-01-10 00:25:48.87	162.47	14.92	-33.5	-34.5	24.1	0.00e+00	120	25	0	427819008	40	5859
2026-01-10 00:25:49.88	162.49	15.03	-33.5	-34.4	24.1	0.00e+00	123	25	0	430964736	40	5833
2026-01-10 00:25:50.89	162.51	15.14	-33.6	-34.5	24.0	0.00e+00	123	25	0	434110464	40	5882
2026-01-10 00:25:51.91	162.52	15.25	-33.6	-34.5	24.0	0.00e+00	123	25	0	437256192	40	5887
2026-01-10 00:25:52.91	162.54	15.35	-33.5	-34.5	24.1	0.00e+00	123	25	0	440401920	40	5869
2026-01-10 00:25:53.92	162.56	15.46	-33.7	-34.6	23.9	0.00e+00	123	25	0	443547648	40	5973
2026-01-10 00:25:54.93	162.58	15.57	-33.7	-34.6	24.1	0.00e+00	122	25	0	446693376	40	5940
2026-01-10 00:25:55.94	162.59	15.68	-33.6	-34.5	24.0	0.00e+00	123	25	0	449839104	40	5889
2026-01-10 00:25:56.95	162.61	15.80	-33.9	-34.8	23.9	0.00e+00	120	25	0	452984832	40	6098
2026-01-10 00:25:57.96	162.63	15.91	-33.6	-34.5	24.0	0.00e+00	123	25	0	456130560	40	5912
2026-01-10 00:25:58.97	162.65	16.02	-33.7	-34.7	24.0	0.00e+00	122	25	0	459276288	40	6001
2026-01-10 00:25:59.98	162.67	16.13	-33.8	-34.7	23.9	0.00e+00	123	25	0	462422016	40	6024
2026-01-10 00:26:00.99	162.69	16.25	-33.6	-34.5	24.0	0.00e+00	123	25	0	465567744	40	5910
2026-01-10 00:26:02.00	162.70	16.36	-33.6	-34.6	24.0	0.00e+00	122	25	0	468713472	40	5945
2026-01-10 00:26:03.01	162.72	16.47	-33.7	-34.6	24.0	0.00e+00	120	25	0	471859200	40	5957
2026-01-10 00:26:04.02	162.74	16.59	-33.7	-34.6	24.0	0.00e+00	123	25	0	475004928	40	5967
2026-01-10 00:26:05.03	162.76	16.70	-33.6	-34.5	24.0	0.00e+00	123	25	0	478150656	40	5910
2026-01-10 00:26:06.04	162.78	16.82	-33.7	-34.6	23.9	0.00e+00	122	25	0	481296384	40	5951
2026-01-10 00:26:07.05	162.80	16.94	-33.6	-34.5	24.1	0.00e+00	123	25	0	484442112	40	5880
2026-01-10 00:26:08.06	162.82	17.05	-33.7	-34.6	24.0	0.00e+00	123	25	0	487587840	40	5957
2026-01-10 00:26:09.07	162.84	17.17	-33.7	-34.7	24.0	0.00e+00	123	25	0	490733568	40	6002
2026-01-10 00:26:10.08	162.86	17.29	-33.8	-34.8	23.9	0.00e+00	123	25	0	493879296	40	6082
2026-01-10 00:26:11.09	162.88	17.41	-33.6	-34.5	24.0	0.00e+00	123	25	0	497025024	40	5919
2026-01-10 00:26:12.10	162.90	17.53	-33.6	-34.5	24.1	0.00e+00	123	25	0	500170752	40	5888
2026-01-10 00:26:13.11	162.92	17.65	-33.6	-34.5	24.1	0.00e+00	123	25	0	503316480	40	5872
2026-01-10 00:26:14.12	162.94	17.77	-33.6	-34.6	24.0	0.00e+00	120	25	0	506462208	40	5929
2026-01-10 00:26:15.13	162.96	17.89	-33.7	-34.6	24.0	0.00e+00	123	25	0	509607936	40	5969
2026-01-10 00:26:16.14	162.98	18.01	-33.7	-34.7	23.9	0.00e+00	120	25	0	512753664	40	6006
2026-01-10 00:26:17.15	163.00	18.13	-33.6	-34.5	24.1	0.00e+00	123	25	0	515899392	40	5900
2026-01-10 00:26:18.16	163.02	18.25	-33.6	-34.5	24.1	0.00e+00	123	25	0	519045120	40	5912
2026-01-10 00:26:19.17	163.04	18.38	-33.6	-34.5	24.1	0.00e+00	123	25	0	522190848	40	5887
2026-01-10 00:26:20.17	163.06	18.50	-33.5	-34.4	24.1	0.00e+00	123	25	0	525336576	40	5852
2026-01-10 00:26:21.18	163.08	18.63	-33.4	-34.3	24.2	0.00e+00	123	25	0	528482304	40	5775
2026-01-10 00:26:22.19	163.10	18.75	-33.5	-34.4	24.2	0.00e+00	123	25	0	531628032	40	5823
2026-01-10 00:26:23.20	163.12	18.88	-33.4	-34.3	24.2	0.00e+00	123	25	0	534773760	40	5727
2026-01-10 00:26:24.21	163.14	19.00	-33.5	-34.4	24.2	0.00e+00	120	25	0	537919488	40	5830
2026-01-10 00:26:25.22	163.17	19.13	-33.4	-34.4	24.2	0.00e+00	122	25	0	541065216	40	5795
2026-01-10 00:26:26.23	163.19	19.26	-33.4	-34.3	24.2	0.00e+00	123	25	0	544210944	40	5785
2026-01-10 00:26:27.24	163.21	19.39	-33.3	-34.2	24.3	0.00e+00	123	25	0	547356672	40	5703
2026-01-10 00:26:28.25	163.23	19.52	-33.3	-34.2	24.3	0.00e+00	120	25	0	550502400	40	5678
2026-01-10 00:26:29.26	163.25	19.65	-33.2	-34.1	24.5	0.00e+00	123	25	0	553648128	40	5638
2026-01-10 00:26:30.27	163.28	19.78	-33.3	-34.2	24.4	0.00e+00	123	25	0	556793856	40	5675
2026-01-10 00:26:31.28	163.30	19.91	-33.0	-33.9	24.5	0.00e+00	120	25	0	559939584	40	5523
2026-01-10 00:26:32.29	163.32	20.04	-33.0	-33.9	24.6	0.00e+00	123	25	0	563085312	40	5480
2026-01-10 00:26:33.30	163.34	20.17	-32.9	-33.8	24.7	0.00e+00	123	25	0	566231040	40	5418
2026-01-10 00:26:34.31	163.37	20.31	-33.0	-33.8	24.6	0.00e+00	122	25	0	569376768	40	5466
2026-01-10 00:26:35.31	163.39	20.44	-32.8	-33.7	24.8	0.00e+00	120	25	0	572522496	40	5356
2026-01-10 00:26:36.32	163.41	20.57	-32.9	-33.8	24.7	0.00e+00	122	25	0	575668224	40	5413
2026-01-10 00:26:37.33	163.44	20.71	-33.0	-33.9	24.6	0.00e+00	120	25	0	578813952	40	5473
2026-01-10 00:26:38.34	163.46	20.84	-32.7	-33.6	24.8	0.00e+00	123	25	0	581959680	38	5958
2026-01-10 00:26:39.35	163.48	20.98	-32.6	-33.5	25.0	0.00e+00	120	25	0	585105408	38	5873
2026-01-10 00:26:40.36	163.51	21.12	-32.5	-33.4	24.9	0.00e+00	123	25	0	588251136	38	5829
2026-01-10 00:26:41.37	163.53	21.26	-32.5	-33.3	25.0	0.00e+00	122	25	0	591396864	38	5789
2026-01-10 00:26:42.38	163.56	21.40	-32.4	-33.3	25.0	0.00e+00	123	25	0	594542592	38	5752
2026-01-10 00:26:43.39	163.58	21.54	-32.6	-33.4	25.0	0.00e+00	122	25	0	597688320	38	5834
2026-01-10 00:26:44.40	163.61	21.68	-32.3	-33.1	25.2	0.00e+00	122	25	0	600834048	38	5638
2026-01-10 00:26:45.41	163.63	21.82	-32.3	-33.1	25.1	0.00e+00	123	25	0	603979776	38	5646
2026-01-10 00:26:46.42	163.66	21.96	-32.2	-33.0	25.2	0.00e+00	123	25	0	607125504	38	5564
2026-01-10 00:26:47.43	163.68	22.10	-32.2	-33.0	25.2	0.00e+00	123	25	0	610271232	38	5588
2026-01-10 00:26:48.44	163.71	22.25	-32.0	-32.9	25.3	0.00e+00	122	25	0	613416960	38	5480
2026-01-10 00:26:49.45	163.73	22.39	-32.1	-33.0	25.3	0.00e+00	122	25	0	616562688	38	5545
2026-01-10 00:26:50.46	163.76	22.54	-32.0	-32.9	25.4	0.00e+00	123	25	0	619708416	38	5469
2026-01-10 00:26:51.47	163.79	22.68	-32.0	-32.8	25.4	0.00e+00	123	25	0	622854144	38	5458
2026-01-10 00:26:52.48	163.81	22.83	-31.9	-32.7	25.4	0.00e+00	123	25	0	627048448	38	5374
2026-01-10 00:26:53.49	163.84	22.98	-31.9	-32.7	25.5	0.00e+00	122	25	0	630194176	38	5376
2026-01-10 00:26:54.50	163.87	23.13	-31.9	-32.7	25.4	0.00e+00	122	25	0	633339904	38	5399
2026-01-10 00:26:55.51	163.89	23.28	-31.8	-32.6	25.5	0.00e+00	123	25	0	635437056	38	5343
2026-01-10 00:26:56.52	163.92	23.43	-31.7	-32.5	25.6	0.00e+00	122	25	0	638582784	36	5923
2026-01-10 00:26:57.52	163.95	23.58	-31.7	-32.6	25.6	0.00e+00	122	25	0	642777088	36	5939
2026-01-10 00:26:58.53	163.98	23.73	-31.8	-32.6	25.5	0.00e+00	123	25	0	645922816	36	5966
2026-01-10 00:26:59.55	164.00	23.89	-31.7	-32.5	25.7	0.00e+00	123	25	0	649068544	36	5926
2026-01-10 00:27:00.56	164.03	24.04	-31.7	-32.6	25.7	0.00e+00	122	25	0	652214272	36	5944
2026-01-10 00:27:01.57	164.06	24.20	-31.8	-32.6	25.6	0.00e+00	122	25	0	655360000	36	5962
2026-01-10 00:27:02.57	164.09	24.35	-31.8	-32.7	25.6	0.00e+00	123	25	0	658505728	36	6012
2026-01-10 00:27:03.59	164.12	24.51	-31.8	-32.7	25.6	0.00e+00	123	25	0	661651456	36	6017
2026-01-10 00:27:04.60	164.15	24.67	-31.8	-32.7	25.6	0.00e+00	124	25	0	664797184	36	6003
2026-01-10 00:27:05.61	164.18	24.83	-31.8	-32.7	25.6	0.00e+00	123	25	0	667942912	36	6011
2026-01-10 00:27:06.62	164.21	24.99	-31.9	-32.8	25.5	0.00e+00	122	25	0	671088640	36	6096
2026-01-10 00:27:07.63	164.24	25.15	-31.9	-32.8	25.6	0.00e+00	122	25	0	674234368	36	6091
2026-01-10 00:27:08.64	164.27	25.31	-32.1	-32.9	25.4	0.00e+00	121	25	0	677380096	36	6170
2026-01-10 00:27:09.65	164.30	25.47	-32.1	-33.0	25.4	0.00e+00	122	25	0	680525824	36	6217
2026-01-10 00:27:10.66	164.33	25.63	-32.2	-33.1	25.3	0.00e+00	123	25	0	683671552	36	6283
2026-01-10 00:27:11.67	164.36	25.80	-32.3	-33.2	25.2	0.00e+00	122	25	0	686817280	36	6385
2026-01-10 00:27:12.68	164.39	25.96	-32.4	-33.3	25.2	0.00e+00	120	25	0	689963008	36	6453
2026-01-10 00:27:13.69	164.42	26.13	-32.6	-33.5	25.1	0.00e+00	123	25	0	693108736	36	6602
2026-01-10 00:27:14.70	164.46	26.30	-32.6	-33.5	25.1	0.00e+00	122	25	0	696254464	36	6618
2026-01-10 00:27:15.70	164.49	26.47	-32.8	-33.7	25.0	0.00e+00	123	25	0	699400192	38	6025
2026-01-10 00:27:16.71	164.52	26.64	-33.0	-33.9	24.7	0.00e+00	123	25	0	702545920	38	6150
2026-01-10 00:27:17.72	164.55	26.81	-33.1	-34.0	24.8	0.00e+00	123	25	0	705691648	38	6250
2026-01-10 00:27:18.73	164.59	26.98	-33.3	-34.2	24.5	0.00e+00	120	25	0	708837376	38	6407
2026-01-10 00:27:19.74	164.62	27.15	-33.5	-34.3	24.4	0.00e+00	122	25	0	711983104	38	6495
2026-01-10 00:27:20.75	164.65	27.33	-33.7	-34.6	24.3	0.00e+00	122	25	0	715128832	38	6657
2026-01-10 00:27:21.76	164.69	27.50	-33.9	-34.8	24.2	0.00e+00	122	25	0	718274560	40	6099
2026-01-10 00:27:22.77	164.72	27.68	-33.9	-34.8	24.0	0.00e+00	120	25	0	721420288	40	6116
2026-01-10 00:27:23.78	164.76	27.86	-33.7	-34.6	24.2	0.00e+00	122	25	0	724566016	40	5932
2026-01-10 00:27:24.79	164.79	28.03	-33.8	-34.7	24.1	0.00e+00	123	25	0	727711744	40	6030
2026-01-10 00:27:25.80	164.83	28.21	-33.8	-34.7	24.1	0.00e+00	120	25	0	730857472	40	6064
2026-01-10 00:27:26.81	164.86	28.40	-33.8	-34.8	24.0	0.00e+00	122	25	0	734003200	40	6078
2026-01-10 00:27:27.82	164.90	28.58	-33.7	-34.6	24.1	0.00e+00	123	25	0	737148928	40	5940
2026-01-10 00:27:28.82	164.94	28.76	-33.7	-34.6	24.2	0.00e+00	120	25	0	740294656	40	5960
2026-01-10 00:27:29.83	164.97	28.94	-33.7	-34.7	24.1	0.00e+00	123	25	0	743440384	40	5995
2026-01-10 00:27:30.84	165.01	29.13	-33.5	-34.4	24.2	0.00e+00	120	25	0	746586112	40	5818
2026-01-10 00:27:31.85	165.05	29.32	-33.4	-34.3	24.4	0.00e+00	123	25	0	749731840	40	5772
2026-01-10 00:27:32.86	165.09	29.50	-33.3	-34.2	24.4	0.00e+00	122	25	0	752877568	40	5710
2026-01-10 00:27:33.87	165.13	29.69	-33.2	-34.1	24.5	0.00e+00	122	25	0	756023296	40	5604
2026-01-10 00:27:34.88	165.17	29.88	-33.0	-33.9	24.7	0.00e+00	121	25	0	759169024	40	5528
2026-01-10 00:27:35.89	165.21	30.08	-33.0	-33.9	24.6	0.00e+00	123	25	0	762314752	40	5492
2026-01-10 00:27:36.90	165.25	30.27	-32.9	-33.8	24.8	0.00e+00	123	25	0	765460480	40	5456
2026-01-10 00:27:37.91	165.29	30.46	-33.0	-33.9	24.7	0.00e+00	122	25	0	768606208	40	5483
2026-01-10 00:27:38.92	165.33	30.66	-32.8	-33.7	24.9	0.00e+00	122	25	0	771751936	40	5350
2026-01-10 00:27:39.93	165.37	30.86	-32.8	-33.6	24.9	0.00e+00	120	25	0	774897664	40	5342
2026-01-10 00:27:40.94	165.41	31.06	-32.7	-33.6	25.0	0.00e+00	122	25	0	778043392	38	5955
2026-01-10 00:27:41.95	165.45	31.26	-32.7	-33.6	25.0	0.00e+00	120	25	0	781189120	38	5966
2026-01-10 00:27:42.96	165.50	31.46	-32.6	-33.5	25.1	0.00e+00	122	25	0	784334848	38	5884
2026-01-10 00:27:43.97	165.54	31.66	-32.6	-33.5	25.1	0.00e+00	123	25	0	787480576	38	5889
2026-01-10 00:27:44.98	165.58	31.86	-32.6	-33.5	25.1	0.00e+00	122	25	0	790626304	38	5902
2026-01-10 00:27:45.99	165.63	32.07	-32.7	-33.6	25.1	0.00e+00	120	25	0	793772032	38	5945
2026-01-10 00:27:47.00	165.67	32.28	-32.6	-33.4	25.1	0.00e+00	123	25	0	796917760	38	5843
2026-01-10 00:27:48.01	165.72	32.48	-32.6	-33.4	25.1	0.00e+00	121	25	0	800063488	38	5851
2026-01-10 00:27:49.02	165.76	32.69	-32.7	-33.6	24.9	0.00e+00	123	25	0	803209216	38	5935
2026-01-10 00:27:50.03	165.81	32.90	-32.6	-33.5	25.0	0.00e+00	123	25	0	806354944	38	5876
2026-01-10 00:27:51.04	165.86	33.12	-32.7	-33.6	25.0	0.00e+00	123	25	0	809500672	38	5956
2026-01-10 00:27:52.05	165.90	33.33	-32.9	-33.8	24.9	0.00e+00	123	25	0	812646400	38	6108
2026-01-10 00:27:53.06	165.95	33.55	-33.1	-33.9	24.7	0.00e+00	122	25	0	815792128	38	6188
2026-01-10 00:27:54.07	166.00	33.76	-33.1	-33.9	24.7	0.00e+00	124	25	0	818937856	38	6204
2026-01-10 00:27:55.08	166.05	33.98	-33.2	-34.1	24.6	0.00e+00	123	25	0	822083584	38	6329
2026-01-10 00:27:56.09	166.10	34.20	-33.4	-34.3	24.5	0.00e+00	123	25	0	825229312	38	6452
2026-01-10 00:27:57.09	166.15	34.42	-33.6	-34.5	24.4	0.00e+00	122	25	0	828375040	38	6621
2026-01-10 00:27:58.10	166.20	34.65	-33.7	-34.6	24.3	0.00e+00	122	25	0	831520768	38	6666
2026-01-10 00:27:59.11	166.25	34.87	-33.6	-34.5	24.3	0.00e+00	120	25	0	834666496	40	5888
2026-01-10 00:28:00.12	166.31	35.10	-33.9	-34.8	24.1	0.00e+00	122	25	0	837812224	40	6082
2026-01-10 00:28:01.13	166.36	35.32	-34.1	-35.0	24.1	0.00e+00	120	25	0	840957952	40	6207
2026-01-10 00:28:02.14	166.41	35.55	-34.0	-34.9	24.1	0.00e+00	122	25	0	844103680	40	6190
2026-01-10 00:28:03.15	166.47	35.79	-34.2	-35.1	23.9	0.00e+00	122	25	0	847249408	40	6332
2026-01-10 00:28:04.16	166.52	36.02	-34.3	-35.2	23.8	0.00e+00	120	25	0	850395136	40	6412
2026-01-10 00:28:05.17	166.58	36.25	-34.6	-35.5	23.7	0.00e+00	120	25	0	853540864	40	6604
2026-01-10 00:28:06.18	166.64	36.49	-34.6	-35.6	23.5	0.00e+00	123	25	0	856686592	40	6677
2026-01-10 00:28:07.18	166.69	36.72	-34.5	-35.4	23.6	0.00e+00	123	25	0	859832320	40	6563
2026-01-10 00:28:08.19	166.75	36.96	-34.6	-35.6	23.6	0.00e+00	123	25	0	862978048	40	6666
2026-01-10 00:28:09.20	166.81	37.21	-34.8	-35.7	23.4	0.00e+00	120	25	0	866123776	40	6771
2026-01-10 00:28:10.21	166.87	37.45	-34.7	-35.7	23.5	0.00e+00	123	25	0	869269504	42	6006
2026-01-10 00:28:11.22	166.93	37.69	-34.9	-35.8	23.5	0.00e+00	120	25	0	872415232	42	6100
2026-01-10 00:28:12.23	166.99	37.94	-34.7	-35.7	23.5	0.00e+00	120	25	0	875560960	42	6001
2026-01-10 00:28:13.24	167.05	38.19	-34.9	-35.9	23.4	0.00e+00	121	25	0	878706688	42	6144
2026-01-10 00:28:14.25	167.12	38.44	-35.1	-36.1	23.2	0.00e+00	123	25	0	881852416	42	6305
2026-01-10 00:28:15.26	167.18	38.69	-34.7	-35.6	23.6	0.00e+00	123	25	0	884998144	42	5966
2026-01-10 00:28:16.27	167.25	38.94	-34.8	-35.8	23.5	0.00e+00	123	25	0	888143872	42	6076
2026-01-10 00:28:17.28	167.31	39.20	-34.6	-35.5	23.7	0.00e+00	120	25	0	891289600	42	5896
2026-01-10 00:28:18.29	167.38	39.46	-34.6	-35.5	23.6	0.00e+00	123	25	0	894435328	42	5916
2026-01-10 00:28:19.30	167.45	39.72	-34.7	-35.6	23.6	0.00e+00	120	25	0	897581056	42	5965
2026-01-10 00:28:20.31	167.52	39.98	-34.7	-35.7	23.5	0.00e+00	123	25	0	900726784	42	6001
2026-01-10 00:28:21.32	167.59	40.24	-34.6	-35.5	23.6	0.00e+00	120	25	0	903872512	42	5926
2026-01-10 00:28:22.33	167.66	40.51	-34.7	-35.6	23.6	0.00e+00	122	25	0	907018240	42	5978
2026-01-10 00:28:23.34	167.73	40.77	-34.7	-35.7	23.5	0.00e+00	120	25	0	910163968	42	6017
2026-01-10 00:28:24.35	167.81	41.04	-34.9	-35.9	23.3	0.00e+00	122	25	0	913309696	42	6144
2026-01-10 00:28:25.36	167.88	41.31	-35.1	-36.0	23.1	0.00e+00	123	25	0	916455424	42	6274
2026-01-10 00:28:26.37	167.96	41.59	-35.1	-36.1	23.0	0.00e+00	123	25	0	919601152	42	6308
2026-01-10 00:28:27.38	168.04	41.86	-35.3	-36.3	22.9	0.00e+00	121	25	0	922746880	42	6427
2026-01-10 00:28:28.39	168.12	42.14	-35.3	-36.3	22.9	0.00e+00	123	25	0	925892608	42	6428
2026-01-10 00:28:29.40	168.20	42.42	-35.6	-36.6	22.6	0.00e+00	123	25	0	929038336	42	6714
2026-01-10 00:28:30.41	168.28	42.70	-35.9	-36.9	22.3	0.00e+00	122	25	0	932184064	44	6183
2026-01-10 00:28:31.42	168.36	42.98	-36.2	-37.2	22.1	0.00e+00	120	25	0	935329792	44	6386
2026-01-10 00:28:32.43	168.44	43.27	-36.4	-37.4	21.9	0.00e+00	120	25	0	938475520	44	6543
2026-01-10 00:28:33.44	168.53	43.56	-36.5	-37.5	21.9	0.00e+00	123	25	0	941621248	44	6613
2026-01-10 00:28:34.45	168.62	43.85	-36.4	-37.5	21.9	0.00e+00	123	25	0	944766976	44	6604
2026-01-10 00:28:35.46	168.71	44.14	-36.4	-37.5	21.8	0.00e+00	122	25	0	947912704	44	6588
2026-01-10 00:28:36.47	168.80	44.43	-36.3	-37.4	21.9	0.00e+00	122	25	0	951058432	44	6538
2026-01-10 00:28:37.48	168.89	44.73	-36.3	-37.4	22.0	0.00e+00	123	25	0	954204160	44	6502
2026-01-10 00:28:38.48	168.98	45.02	-36.5	-37.6	21.8	0.00e+00	123	25	0	957349888	44	6712
2026-01-10 00:28:39.49	169.08	45.32	-36.4	-37.4	22.0	0.00e+00	123	25	0	960495616	44	6548
2026-01-10 00:28:40.50	169.17	45.62	-36.5	-37.5	21.9	0.00e+00	122	25	0	963641344	44	6619
2026-01-10 00:28:41.51	169.27	45.93	-36.5	-37.6	21.8	0.00e+00	122	25	0	966787072	44	6693
2026-01-10 00:28:42.52	169.37	46.24	-36.5	-37.6	21.8	0.00e+00	120	25	0	969932800	44	6669
2026-01-10 00:28:43.53	169.47	46.54	-36.5	-37.6	21.7	0.00e+00	123	25	0	974127104	44	6701
2026-01-10 00:28:44.54	169.58	46.86	-36.6	-37.7	21.7	0.00e+00	122	25	0	976224256	44	6730
2026-01-10 00:28:45.55	169.68	47.17	-36.7	-37.8	21.6	0.00e+00	122	25	0	979369984	44	6864
2026-01-10 00:28:46.56	169.79	47.48	-36.4	-37.5	21.9	0.00e+00	122	25	0	982515712	44	6585
2026-01-10 00:28:47.57	169.90	47.80	-36.1	-37.2	22.1	0.00e+00	121	25	0	985661440	44	6394
2026-01-10 00:28:48.58	170.02	48.12	-36.3	-37.4	21.9	0.00e+00	123	25	0	989855744	44	6528
2026-01-10 00:28:49.59	170.13	48.45	-35.6	-36.6	22.5	0.00e+00	120	25	0	993001472	44	5985
2026-01-10 00:28:50.60	170.25	48.77	-35.3	-36.3	22.8	0.00e+00	120	25	0	996147200	44	5782
2026-01-10 00:28:51.61	170.37	49.10	-35.1	-36.0	23.1	0.00e+00	122	25	0	998244352	44	5591
2026-01-10 00:28:52.62	170.49	49.43	-35.0	-36.0	23.2	0.00e+00	122	25	0	1001390080	44	5576
2026-01-10 00:28:53.63	170.62	49.76	-34.9	-35.8	23.4	0.00e+00	122	25	0	1005584384	44	5454
2026-01-10 00:28:54.64	170.74	50.09	-34.7	-35.6	23.6	0.00e+00	122	25	0	1008730112	42	5960
2026-01-10 00:28:55.65	170.87	50.43	-34.5	-35.5	23.7	0.00e+00	123	25	0	1011875840	42	5867
2026-01-10 00:28:56.65	171.01	50.76	-34.6	-35.5	23.6	0.00e+00	123	25	0	1015021568	42	5918
2026-01-10 00:28:57.67	171.14	51.11	-34.6	-35.6	23.6	0.00e+00	122	25	0	1018167296	42	5932
2026-01-10 00:28:58.67	171.28	51.45	-34.8	-35.7	23.5	0.00e+00	121	25	0	1021313024	42	6034
2026-01-10 00:28:59.68	171.42	51.79	-35.0	-35.9	23.2	0.00e+00	123	25	0	1024458752	42	6197
2026-01-10 00:29:00.69	171.57	52.14	-34.9	-35.8	23.4	0.00e+00	123	25	0	1027604480	42	6091
2026-01-10 00:29:01.70	171.72	52.49	-34.8	-35.7	23.5	0.00e+00	123	25	0	1030750208	42	6022
2026-01-10 00:29:02.71	171.87	52.84	-34.4	-35.3	23.9	0.00e+00	122	25	0	1033895936	42	5776
2026-01-10 00:29:03.72	172.03	53.20	-34.3	-35.2	23.7	0.00e+00	120	25	0	1037041664	42	5686
2026-01-10 00:29:04.73	172.19	53.55	-33.6	-34.5	24.3	0.00e+00	123	25	0	1040187392	40	5919
2026-01-10 00:29:05.74	172.35	53.91	-33.5	-34.4	24.5	0.00e+00	122	25	0	1043333120	40	5838
2026-01-10 00:29:06.75	172.52	54.27	-33.4	-34.3	24.5	7.00e-07	123	25	0	1046478848	40	5773
2026-01-10 00:29:07.76	172.69	54.64	-33.5	-34.4	24.6	0.00e+00	121	25	0	1049624576	40	5796
2026-01-10 00:29:08.77	172.87	55.00	-33.2	-34.0	24.8	0.00e+00	123	25	0	1052770304	40	5587
2026-01-10 00:29:09.78	173.05	55.37	-32.9	-33.8	24.9	0.00e+00	123	25	0	1055916032	40	5437
2026-01-10 00:29:10.78	173.23	55.74	-32.9	-33.7	24.9	0.00e+00	123	25	0	1059061760	40	5403
2026-01-10 00:29:11.80	173.43	56.12	-33.0	-33.9	24.7	0.00e+00	123	25	0	1062207488	40	5496
2026-01-10 00:29:12.80	173.62	56.49	-33.2	-34.1	24.4	0.00e+00	121	25	0	1065353216	40	5647
2026-01-10 00:29:13.81	173.82	56.86	-33.5	-34.4	24.3	0.00e+00	123	25	0	1068498944	40	5844
2026-01-10 00:29:14.82	174.03	57.24	-33.6	-34.5	24.3	0.00e+00	123	25	0	1071644672	40	5896
2026-01-10 00:29:15.83	174.24	57.63	-33.7	-34.6	24.3	0.00e+00	122	25	0	1074790400	40	5969
2026-01-10 00:29:16.84	174.46	58.01	-33.2	-34.1	24.7	0.00e+00	122	25	0	1077936128	40	5603
2026-01-10 00:29:17.85	174.68	58.40	-33.0	-33.9	24.8	0.00e+00	122	25	0	1081081856	40	5477
2026-01-10 00:29:18.86	174.91	58.78	-33.0	-33.9	24.8	0.00e+00	123	25	0	1084227584	40	5480
2026-01-10 00:29:19.87	175.15	59.17	-32.7	-33.5	24.7	0.00e+00	123	25	0	1087373312	38	5919
2026-01-10 00:29:20.88	175.39	59.57	-32.5	-33.4	24.7	0.00e+00	122	25	0	1090519040	38	5809
2026-01-10 00:29:21.89	175.65	59.96	-32.4	-33.2	25.1	0.00e+00	123	25	0	1093664768	38	5703
2026-01-10 00:29:22.90	175.91	60.36	-32.1	-32.9	25.4	0.00e+00	120	25	0	1096810496	38	5522
2026-01-10 00:29:23.91	176.17	60.75	-31.9	-32.7	25.6	0.00e+00	123	25	0	1099956224	38	5384
2026-01-10 00:29:24.92	176.45	61.15	-31.8	-32.6	25.5	0.00e+00	123	25	0	1103101952	38	5336
2026-01-10 00:29:25.93	176.73	61.56	-31.8	-32.6	25.6	0.00e+00	122	25	0	1106247680	38	5317
2026-01-10 00:29:26.94	177.03	61.96	-31.8	-32.7	25.5	0.00e+00	122	25	0	1109393408	36	5997
2026-01-10 00:29:27.95	177.33	62.37	-31.7	-32.6	25.5	0.00e+00	123	25	0	1112539136	36	5928
2026-01-10 00:29:28.96	177.65	62.77	-31.8	-32.6	25.6	0.00e+00	123	25	0	1115684864	36	5986
2026-01-10 00:29:29.97	177.97	63.18	-31.6	-32.5	25.8	0.00e+00	122	25	0	1118830592	36	5871
2026-01-10 00:29:30.98	178.31	63.59	-31.5	-32.3	25.8	0.00e+00	122	25	0	1121976320	36	5790
2026-01-10 00:29:31.99	178.66	64.00	-31.3	-32.1	25.9	0.00e+00	122	25	0	1125122048	36	5658
2026-01-10 00:29:33.00	179.02	64.42	-31.3	-32.2	26.0	0.00e+00	123	25	0	1128267776	36	5661
2026-01-10 00:29:34.01	179.39	64.83	-31.4	-32.2	25.9	0.00e+00	123	25	0	1131413504	36	5685
2026-01-10 00:29:35.01	179.78	65.25	-30.9	-31.8	26.2	0.00e+00	123	25	0	1134559232	36	5406
2026-01-10 00:29:36.02	180.18	65.66	-31.2	-32.0	26.0	0.00e+00	123	25	0	1137704960	36	5569
2026-01-10 00:29:37.03	180.60	66.08	-31.5	-32.3	25.9	0.00e+00	123	25	0	1140850688	36	5759
2026-01-10 00:29:38.04	181.03	66.50	-31.6	-32.5	25.9	0.00e+00	123	25	0	1143996416	36	5880
2026-01-10 00:29:39.05	181.48	66.92	-31.7	-32.5	25.6	0.00e+00	123	25	0	1147142144	36	5906
2026-01-10 00:29:40.06	181.95	67.34	-31.4	-32.3	25.6	0.00e+00	122	25	0	1150287872	36	5729
2026-01-10 00:29:41.07	182.44	67.76	-31.5	-32.4	25.5	0.00e+00	120	25	0	1153433600	36	5813
2026-01-10 00:29:42.08	182.95	68.19	-31.3	-32.2	25.6	0.00e+00	120	25	0	1156579328	36	5662
2026-01-10 00:29:43.09	183.48	68.61	-31.6	-32.5	25.5	0.00e+00	122	25	0	1159725056	36	5864
2026-01-10 00:29:44.10	184.03	69.03	-31.4	-32.3	25.0	0.00e+00	122	25	0	1162870784	36	5768
2026-01-10 00:29:45.11	184.61	69.45	-31.6	-32.5	25.0	0.00e+00	122	25	0	1166016512	36	5866
2026-01-10 00:29:46.12	185.21	69.88	-31.4	-32.3	25.5	0.00e+00	122	25	0	1169162240	36	5731
2026-01-10 00:29:47.13	185.84	70.30	-31.4	-32.2	25.8	0.00e+00	123	25	0	1172307968	36	5708
2026-01-10 00:29:48.14	186.50	70.72	-31.2	-32.0	26.0	0.00e+00	122	25	0	1175453696	36	5562
2026-01-10 00:29:49.15	187.20	71.14	-31.2	-32.0	25.8	0.00e+00	121	25	0	1178599424	36	5578
2026-01-10 00:29:50.16	187.92	71.56	-31.5	-32.4	25.3	0.00e+00	122	25	0	1181745152	36	5810
2026-01-10 00:29:51.17	188.68	71.98	-31.7	-32.6	25.2	0.00e+00	122	25	0	1184890880	36	5947
2026-01-10 00:29:52.18	189.48	72.40	-32.0	-32.9	25.3	0.00e+00	123	25	0	1188036608	36	6139
2026-01-10 00:29:53.19	190.32	72.82	-32.2	-33.1	25.5	0.00e+00	122	25	0	1191182336	36	6284
2026-01-10 00:29:54.20	191.21	73.23	-32.2	-33.1	25.4	0.00e+00	121	25	0	1194328064	36	6302
2026-01-10 00:29:55.21	192.14	73.64	-31.6	-32.4	25.9	0.00e+00	123	25	0	1197473792	36	5845
2026-01-10 00:29:56.21	193.11	74.05	-31.5	-32.3	26.0	0.00e+00	123	25	0	1200619520	36	5751
2026-01-10 00:29:57.22	194.14	74.45	-31.7	-32.5	25.7	0.00e+00	122	25	0	1203765248	36	5921
2026-01-10 00:29:58.23	195.23	74.85	-31.7	-32.6	25.5	0.00e+00	120	25	0	1206910976	36	5956
2026-01-10 00:29:59.24	196.38	75.25	-31.2	-32.1	25.7	0.00e+00	123	25	0	1210056704	36	5608
2026-01-10 00:30:00.25	197.59	75.64	-30.8	-31.6	26.2	0.00e+00	122	25	0	1213202432	36	5291
2026-01-10 00:30:01.26	198.88	76.03	-31.0	-31.8	26.2	0.00e+00	122	25	0	1216348160	36	5441
2026-01-10 00:30:02.27	200.24	76.41	-31.4	-32.2	26.0	0.00e+00	123	25	0	1219493888	36	5691
2026-01-10 00:30:03.28	201.68	76.78	-31.6	-32.4	25.9	0.00e+00	123	25	0	1222639616	36	5807
2026-01-10 00:30:04.29	203.21	77.15	-31.5	-32.3	25.9	0.00e+00	123	25	0	1225785344	36	5781
2026-01-10 00:30:05.30	204.82	77.50	-31.6	-32.4	25.8	0.00e+00	120	25	0	1228931072	36	5814
2026-01-10 00:30:06.31	206.54	77.85	-31.3	-32.1	26.1	0.00e+00	123	25	0	1232076800	36	5617
2026-01-10 00:30:07.32	208.35	78.19	-31.5	-32.3	25.9	0.00e+00	120	25	0	1235222528	36	5737
2026-01-10 00:30:08.33	210.27	78.52	-31.7	-32.5	25.7	0.00e+00	122	25	0	1238368256	36	5915
2026-01-10 00:30:09.34	212.31	78.83	-31.7	-32.6	25.7	0.00e+00	123	25	0	1241513984	36	5945
2026-01-10 00:30:10.35	214.46	79.13	-31.6	-32.4	25.8	0.00e+00	120	25	0	1244659712	36	5806
2026-01-10 00:30:11.36	216.73	79.41	-31.0	-31.8	26.0	0.00e+00	121	25	0	1247805440	36	5446
2026-01-10 00:30:12.37	219.13	79.68	-30.9	-31.8	25.8	0.00e+00	123	25	0	1250951168	36	5421
2026-01-10 00:30:13.38	221.65	79.93	-31.0	-31.8	25.5	0.00e+00	122	25	0	1254096896	36	5454
2026-01-10 00:30:14.39	224.29	80.16	-31.3	-32.1	25.7	0.00e+00	122	25	0	1257242624	36	5624
2026-01-10 00:30:15.40	227.06	80.37	-31.7	-32.5	25.4	0.00e+00	123	25	0	1260388352	36	5901
2026-01-10 00:30:16.41	229.94	80.55	-31.7	-32.6	25.4	0.00e+00	122	25	0	1263534080	36	5967
2026-01-10 00:30:17.41	232.90	80.71	-31.7	-32.5	25.5	0.00e+00	122	25	0	1266679808	36	5889
2026-01-10 00:30:18.42	235.99	80.85	-31.4	-32.2	25.8	0.00e+00	123	25	0	1269825536	36	5725
2026-01-10 00:30:19.43	239.17	80.95	-31.6	-32.5	25.6	0.00e+00	123	25	0	1272971264	36	5868
2026-01-10 00:30:20.44	242.41	81.04	-31.7	-32.5	25.5	0.00e+00	123	25	0	1276116992	36	5919
2026-01-10 00:30:21.45	245.70	81.09	-31.7	-32.6	25.7	0.00e+00	123	25	0	1279262720	36	5950
2026-01-10 00:30:22.46	249.02	81.11	-31.8	-32.6	25.6	0.00e+00	123	25	0	1282408448	36	5976
2026-01-10 00:30:23.47	252.34	81.10	-32.1	-33.0	25.5	0.00e+00	123	25	0	1285554176	36	6248
2026-01-10 00:30:24.48	255.65	81.07	-31.7	-32.5	25.8	0.00e+00	122	25	0	1288699904	36	5892
2026-01-10 00:30:25.48	258.89	81.00	-31.6	-32.4	25.9	0.00e+00	123	25	0	1291845632	36	5814
2026-01-10 00:30:26.49	262.10	80.91	-31.8	-32.7	25.6	0.00e+00	122	25	0	1294991360	36	6002
2026-01-10 00:30:27.50	265.24	80.79	-31.6	-32.4	25.7	0.00e+00	122	25	0	1298137088	36	5846
2026-01-10 00:30:28.51	268.28	80.64	-30.9	-31.7	26.1	0.00e+00	120	25	0	1301282816	36	5391
2026-01-10 00:30:29.52	271.23	80.47	-31.0	-31.8	25.9	0.00e+00	123	25	0	1304428544	36	5463
2026-01-10 00:30:30.53	274.06	80.28	-31.6	-32.5	25.6	0.00e+00	123	25	0	1307574272	36	5875
2026-01-10 00:30:31.54	276.77	80.06	-31.7	-32.6	25.7	0.00e+00	123	25	0	1310720000	36	5949
2026-01-10 00:30:32.55	279.36	79.82	-31.8	-32.6	25.7	0.00e+00	122	25	0	1313865728	36	5975
2026-01-10 00:30:33.56	281.82	79.56	-32.1	-33.0	25.4	0.00e+00	123	25	0	1317011456	36	6207
2026-01-10 00:30:34.57	284.16	79.29	-32.2	-33.1	25.4	0.00e+00	123	25	0	1320157184	36	6329
2026-01-10 00:30:35.57	286.35	79.00	-31.5	-32.4	25.8	0.00e+00	122	25	0	1323302912	36	5795
2026-01-10 00:30:36.59	288.47	78.69	-30.9	-31.7	26.1	0.00e+00	123	25	0	1326448640	36	5383
2026-01-10 00:30:37.59	290.43	78.38	-31.3	-32.1	26.1	0.00e+00	123	25	0	1329594368	36	5620
2026-01-10 00:30:38.60	292.31	78.05	-31.3	-32.1	26.0	0.00e+00	122	25	0	1332740096	36	5620
2026-01-10 00:30:39.61	294.08	77.70	-31.0	-31.8	26.2	0.00e+00	122	25	0	1335885824	36	5458
2026-01-10 00:30:40.62	295.74	77.35	-31.1	-31.9	26.0	0.00e+00	120	25	0	1339031552	36	5510
2026-01-10 00:30:41.63	297.32	76.99	-31.2	-32.1	25.6	0.00e+00	122	25	0	1342177280	36	5608
2026-01-10 00:30:42.64	298.81	76.62	-31.4	-32.2	25.7	0.00e+00	123	25	0	1345323008	36	5711
2026-01-10 00:30:43.65	300.21	76.25	-31.4	-32.2	26.0	0.00e+00	122	25	0	1348468736	36	5683
2026-01-10 00:30:44.66	301.54	75.86	-31.7	-32.5	25.7	0.00e+00	122	25	0	1351614464	36	5894
2026-01-10 00:30:45.67	302.79	75.47	-32.1	-33.0	25.5	0.00e+00	123	25	0	1354760192	36	6223
2026-01-10 00:30:46.67	303.97	75.08	-31.7	-32.5	25.7	0.00e+00	123	25	0	1358954496	36	5906
2026-01-10 00:30:47.68	305.09	74.69	-31.8	-32.6	25.3	0.00e+00	123	25	0	1361051648	36	5966
2026-01-10 00:30:48.69	306.16	74.28	-31.9	-32.7	25.3	0.00e+00	122	25	0	1364197376	36	6059
2026-01-10 00:30:49.70	307.16	73.88	-32.0	-32.9	25.3	0.00e+00	120	25	0	1367343104	36	6144
2026-01-10 00:30:50.70	308.11	73.47	-31.5	-32.3	25.5	0.00e+00	122	25	0	1370488832	36	5760
2026-01-10 00:30:51.71	309.02	73.06	-31.5	-32.3	25.6	0.00e+00	122	25	0	1373634560	36	5787
2026-01-10 00:30:52.72	309.88	72.65	-31.6	-32.4	25.8	0.00e+00	123	25	0	1376780288	36	5830
2026-01-10 00:30:53.73	310.71	72.23	-31.5	-32.3	25.8	0.00e+00	123	25	0	1380974592	36	5788
2026-01-10 00:30:54.74	311.49	71.81	-31.3	-32.1	25.9	0.00e+00	123	25	0	1384120320	36	5628
2026-01-10 00:30:55.75	312.23	71.40	-30.9	-31.7	26.2	0.00e+00	120	25	0	1386217472	36	5367
2026-01-10 00:30:56.76	312.95	70.98	-31.0	-31.8	26.1	0.00e+00	123	25	0	1389363200	36	5422
2026-01-10 00:30:57.77	313.62	70.56	-31.9	-32.7	25.4	0.00e+00	123	25	0	1392508928	36	6063
2026-01-10 00:30:58.77	314.26	70.14	-32.3	-33.2	25.0	0.00e+00	123	25	0	1395654656	36	6405
2026-01-10 00:30:59.78	314.88	69.72	-31.9	-32.7	25.1	0.00e+00	120	25	0	1399848960	36	6059
2026-01-10 00:31:00.79	315.48	69.29	-31.5	-32.4	25.2	0.00e+00	122	25	0	1402994688	36	5794
2026-01-10 00:31:01.80	316.04	68.87	-31.4	-32.3	25.6	0.00e+00	123	25	0	1406140416	36	5733
2026-01-10 00:31:02.81	316.59	68.45	-31.0	-31.8	25.9	0.00e+00	123	25	0	1408237568	36	5463
2026-01-10 00:31:03.82	317.11	68.03	-31.5	-32.4	25.8	0.00e+00	123	25	0	1411383296	36	5802
2026-01-10 00:31:04.83	317.61	67.61	-32.4	-33.3	25.2	0.00e+00	123	25	0	1415577600	36	6479
2026-01-10 00:31:05.84	318.09	67.19	-33.0	-33.9	24.6	0.00e+00	123	25	0	1418723328	38	6187
2026-01-10 00:31:06.85	318.55	66.77	-32.8	-33.7	24.2	0.00e+00	123	25	0	1421869056	38	6058
2026-01-10 00:31:07.86	318.99	66.35	-31.8	-32.7	24.9	0.00e+00	123	25	0	1425014784	38	5395
2026-01-10 00:31:08.87	319.42	65.93	-31.3	-32.1	25.2	0.00e+00	123	25	0	1428160512	36	5656
2026-01-10 00:31:09.87	319.83	65.52	-30.9	-31.7	25.7	0.00e+00	120	25	0	1431306240	36	5387
2026-01-10 00:31:10.88	320.22	65.10	-30.7	-31.5	26.3	0.00e+00	123	25	0	1434451968	34	5924
2026-01-10 00:31:11.89	320.61	64.69	-31.8	-32.7	25.6	0.00e+00	123	25	0	1437597696	34	6752
2026-01-10 00:31:12.90	320.97	64.27	-33.3	-34.3	24.0	0.00e+00	123	25	0	1440743424	38	6467
2026-01-10 00:31:13.91	321.33	63.86	-33.7	-34.7	23.9	0.00e+00	122	25	0	1443889152	40	6029
2026-01-10 00:31:14.92	321.67	63.45	-33.2	-34.1	24.5	0.00e+00	122	25	0	1447034880	40	5657
2026-01-10 00:31:15.93	322.00	63.04	-32.8	-33.6	24.9	0.00e+00	122	25	0	1450180608	40	5337
2026-01-10 00:31:16.94	322.32	62.63	-32.0	-32.8	25.6	0.00e+00	120	25	0	1453326336	38	5435
2026-01-10 00:31:17.95	322.63	62.23	-31.5	-32.3	25.9	0.00e+00	123	25	0	1456472064	36	5784
2026-01-10 00:31:18.96	322.93	61.83	-31.2	-32.0	26.0	0.00e+00	121	25	0	1459617792	36	5573
2026-01-10 00:31:19.97	323.23	61.42	-32.3	-33.1	25.1	0.00e+00	123	25	0	1462763520	36	6347
2026-01-10 00:31:20.98	323.51	61.02	-33.5	-34.4	24.2	0.00e+00	121	25	0	1465909248	38	6520
2026-01-10 00:31:21.99	323.78	60.63	-34.2	-35.1	23.8	0.00e+00	120	25	0	1469054976	40	6337
2026-01-10 00:31:23.00	324.04	60.23	-33.8	-34.7	23.7	0.00e+00	123	25	0	1472200704	40	6053
2026-01-10 00:31:24.01	324.30	59.83	-32.9	-33.8	23.8	0.00e+00	120	25	0	1475346432	40	5466
2026-01-10 00:31:25.02	324.55	59.44	-32.3	-33.2	24.6	0.00e+00	121	25	0	1478492160	38	5713
2026-01-10 00:31:26.03	324.79	59.05	-31.6	-32.5	25.6	0.00e+00	123	25	0	1481637888	36	5867
2026-01-10 00:31:27.04	325.03	58.66	-31.7	-32.5	25.7	0.00e+00	122	25	0	1484783616	36	5909
2026-01-10 00:31:28.05	325.25	58.28	-32.2	-33.1	25.3	0.00e+00	123	25	0	1487929344	36	6294
2026-01-10 00:31:29.06	325.48	57.89	-33.0	-33.9	24.6	0.00e+00	122	25	0	1491075072	38	6139
2026-01-10 00:31:30.07	325.69	57.51	-34.1	-35.0	23.9	0.00e+00	120	25	0	1494220800	40	6255
2026-01-10 00:31:31.08	325.90	57.13	-35.3	-36.4	22.9	0.00e+00	122	25	0	1497366528	42	6512
2026-01-10 00:31:32.09	326.10	56.75	-36.0	-37.2	21.7	0.00e+00	122	25	0	1500512256	44	6392
2026-01-10 00:31:33.10	326.30	56.38	-35.7	-37.0	21.3	0.00e+00	123	25	0	1503657984	44	6211
2026-01-10 00:31:34.11	326.50	56.01	-34.9	-36.0	22.1	0.00e+00	121	25	0	1506803712	44	5583
2026-01-10 00:31:35.11	326.68	55.64	-34.5	-35.5	23.2	0.00e+00	123	25	0	1509949440	42	5868
2026-01-10 00:31:36.12	326.87	55.27	-34.0	-34.9	24.0	0.00e+00	123	25	0	1513095168	42	5521
2026-01-10 00:31:37.13	327.05	54.90	-33.9	-34.7	24.1	0.00e+00	123	25	0	1516240896	40	6064
2026-01-10 00:31:38.14	327.22	54.54	-34.3	-35.2	23.5	0.00e+00	123	25	0	1519386624	40	6393
2026-01-10 00:31:39.15	327.39	54.18	-35.2	-36.2	22.6	0.00e+00	122	25	0	1522532352	42	6378
2026-01-10 00:31:40.16	327.56	53.82	-34.8	-35.8	23.1	0.00e+00	122	25	0	1525678080	42	6075
2026-01-10 00:31:41.17	327.72	53.46	-34.6	-35.5	23.4	0.00e+00	122	25	0	1528823808	42	5912
2026-01-10 00:31:42.18	327.88	53.11	-35.5	-36.5	22.7	0.00e+00	123	25	0	1531969536	42	6616
2026-01-10 00:31:43.19	328.03	52.75	-35.8	-36.9	22.4	0.00e+00	123	25	0	1535115264	44	6159
2026-01-10 00:31:44.20	328.19	52.40	-35.7	-36.8	22.6	0.00e+00	123	25	0	1538260992	44	6094
2026-01-10 00:31:45.21	328.33	52.06	-35.4	-36.4	22.7	0.00e+00	123	25	0	1541406720	44	5829
2026-01-10 00:31:46.21	328.48	51.71	-35.0	-36.0	23.1	0.00e+00	123	25	0	1544552448	44	5552
2026-01-10 00:31:47.23	328.62	51.37	-34.1	-35.0	23.8	0.00e+00	120	25	0	1547698176	42	5591
2026-01-10 00:31:48.23	328.76	51.03	-33.8	-34.7	24.3	0.00e+00	123	25	0	1550843904	40	6016
2026-01-10 00:31:49.24	328.89	50.69	-34.0	-34.9	23.9	0.00e+00	122	25	0	1553989632	40	6157
2026-01-10 00:31:50.25	329.02	50.36	-34.5	-35.4	23.5	0.00e+00	122	25	0	1557135360	40	6547
2026-01-10 00:31:51.26	329.15	50.02	-35.0	-35.9	23.1	0.00e+00	123	25	0	1560281088	42	6194
2026-01-10 00:31:52.27	329.28	49.69	-35.3	-36.3	22.6	0.00e+00	120	25	0	1563426816	42	6490
2026-01-10 00:31:53.28	329.40	49.36	-35.5	-36.6	22.2	0.00e+00	123	25	0	1566572544	42	6692
2026-01-10 00:31:54.29	329.52	49.03	-35.6	-36.6	22.0	0.00e+00	122	25	0	1569718272	42	6698
2026-01-10 00:31:55.30	329.64	48.71	-35.3	-36.3	22.6	0.00e+00	123	25	0	1572864000	42	6482
2026-01-10 00:31:56.31	329.76	48.39	-35.4	-36.4	22.6	0.00e+00	120	25	0	1576009728	42	6556
2026-01-10 00:31:57.32	329.88	48.06	-35.6	-36.5	22.6	0.00e+00	122	25	0	1579155456	42	6644
2026-01-10 00:31:58.33	329.99	47.75	-35.6	-36.6	22.6	0.00e+00	122	25	0	1582301184	44	5941
2026-01-10 00:31:59.34	330.10	47.43	-35.2	-36.2	23.0	0.00e+00	122	25	0	1585446912	44	5681
2026-01-10 00:32:00.35	330.21	47.12	-34.6	-35.5	23.3	0.00e+00	123	25	0	1588592640	42	5909
2026-01-10 00:32:01.35	330.31	46.81	-34.7	-35.6	23.1	0.00e+00	121	25	0	1591738368	42	5969
2026-01-10 00:32:02.36	330.41	46.50	-34.3	-35.2	23.5	0.00e+00	120	25	0	1594884096	42	5720
2026-01-10 00:32:03.37	330.52	46.19	-34.7	-35.6	23.5	0.00e+00	123	25	0	1598029824	42	5954
2026-01-10 00:32:04.38	330.62	45.89	-35.3	-36.2	23.0	0.00e+00	120	25	0	1601175552	42	6422
2026-01-10 00:32:05.39	330.71	45.59	-35.9	-36.9	22.4	0.00e+00	123	25	0	1604321280	44	6201
2026-01-10 00:32:06.40	330.81	45.28	-36.5	-37.6	21.7	0.00e+00	120	25	0	1607467008	44	6690
2026-01-10 00:32:07.41	330.90	44.99	-37.0	-38.2	20.9	0.00e+00	122	25	0	1610612736	46	6383
2026-01-10 00:32:08.42	331.00	44.69	-37.3	-38.5	20.6	0.00e+00	123	25	0	1613758464	46	6621
2026-01-10 00:32:09.43	331.09	44.40	-37.0	-38.2	21.3	0.00e+00	123	25	0	1616904192	46	6367
2026-01-10 00:32:10.44	331.18	44.10	-36.5	-37.5	22.0	0.00e+00	123	25	0	1620049920	46	5892
2026-01-10 00:32:11.45	331.27	43.81	-35.8	-36.8	22.5	0.00e+00	122	25	0	1623195648	46	5448
2026-01-10 00:32:12.46	331.35	43.53	-35.2	-36.2	22.9	0.00e+00	123	25	0	1626341376	44	5691
2026-01-10 00:32:13.46	331.44	43.24	-35.1	-36.1	23.0	0.00e+00	123	25	0	1629487104	44	5597
2026-01-10 00:32:14.47	331.52	42.96	-35.1	-36.1	22.8	0.00e+00	123	25	0	1632632832	44	5640
2026-01-10 00:32:15.48	331.60	42.68	-35.4	-36.4	22.7	0.00e+00	123	25	0	1635778560	44	5814
2026-01-10 00:32:16.49	331.69	42.40	-35.2	-36.2	23.0	0.00e+00	123	25	0	1638924288	44	5661
2026-01-10 00:32:17.50	331.77	42.12	-35.1	-36.0	22.9	0.00e+00	123	25	0	1642070016	44	5591
2026-01-10 00:32:18.51	331.84	41.85	-35.1	-36.1	22.7	0.00e+00	120	25	0	1645215744	44	5609
2026-01-10 00:32:19.52	331.92	41.57	-34.8	-35.8	22.9	0.00e+00	123	25	0	1648361472	44	5449
2026-01-10 00:32:20.53	332.00	41.30	-34.8	-35.8	22.9	0.00e+00	123	25	0	1651507200	44	5450
2026-01-10 00:32:21.54	332.07	41.03	-35.0	-35.9	23.0	0.00e+00	122	25	0	1654652928	44	5517
2026-01-10 00:32:22.55	332.15	40.77	-35.4	-36.4	22.7	0.00e+00	122	25	0	1657798656	44	5852
2026-01-10 00:32:23.56	332.22	40.50	-35.9	-36.9	22.4	0.00e+00	122	25	0	1660944384	44	6197
2026-01-10 00:32:24.57	332.29	40.24	-36.1	-37.2	22.2	0.00e+00	123	25	0	1664090112	44	6359
2026-01-10 00:32:25.58	332.36	39.98	-36.1	-37.2	22.2	0.00e+00	124	25	0	1667235840	44	6373
2026-01-10 00:32:26.59	332.43	39.72	-36.2	-37.2	22.1	0.00e+00	123	25	0	1670381568	44	6418
2026-01-10 00:32:27.60	332.50	39.46	-36.1	-37.1	22.1	0.00e+00	122	25	0	1673527296	44	6346
2026-01-10 00:32:28.61	332.56	39.20	-35.9	-36.9	22.3	0.00e+00	122	25	0	1676673024	44	6202
2026-01-10 00:32:29.62	332.63	38.95	-35.5	-36.5	22.5	0.00e+00	122	25	0	1679818752	44	5914
2026-01-10 00:32:30.63	332.70	38.70	-35.4	-36.4	22.7	0.00e+00	122	25	0	1682964480	44	5837
2026-01-10 00:32:31.64	332.76	38.44	-35.0	-36.0	23.1	0.00e+00	123	25	0	1686110208	44	5571
2026-01-10 00:32:32.65	332.82	38.20	-35.0	-36.0	23.2	0.00e+00	122	25	0	1689255936	44	5539
2026-01-10 00:32:33.66	332.89	37.95	-34.4	-35.3	23.7	0.00e+00	122	25	0	1692401664	42	5778
2026-01-10 00:32:34.67	332.95	37.70	-34.2	-35.1	23.9	0.00e+00	122	25	0	1695547392	42	5641
2026-01-10 00:32:35.68	333.01	37.46	-34.3	-35.3	23.8	0.00e+00	123	25	0	1698693120	42	5729
2026-01-10 00:32:36.69	333.07	37.22	-34.4	-35.4	23.7	0.00e+00	123	25	0	1701838848	42	5800
2026-01-10 00:32:37.70	333.13	36.98	-34.6	-35.6	23.6	0.00e+00	123	25	0	1704984576	42	5958
2026-01-10 00:32:38.70	333.19	36.74	-34.6	-35.6	23.6	0.00e+00	123	25	0	1708130304	42	5933
2026-01-10 00:32:39.71	333.24	36.51	-34.2	-35.2	23.8	0.00e+00	122	25	0	1711276032	42	5704
2026-01-10 00:32:40.72	333.30	36.27	-34.0	-35.0	23.9	0.00e+00	123	25	0	1714421760	42	5537
2026-01-10 00:32:41.73	333.36	36.04	-34.0	-35.0	23.8	0.00e+00	123	25	0	1717567488	42	5557
2026-01-10 00:32:42.74	333.41	35.81	-34.1	-35.0	23.6	0.00e+00	123	25	0	1720713216	42	5582
2026-01-10 00:32:43.75	333.47	35.58	-34.1	-35.1	23.7	0.00e+00	123	25	0	1723858944	42	5604
2026-01-10 00:32:44.76	333.52	35.35	-34.3	-35.3	23.6	0.00e+00	122	25	0	1727004672	42	5746
2026-01-10 00:32:45.77	333.57	35.12	-34.4	-35.3	23.5	0.00e+00	123	25	0	1730150400	42	5785
2026-01-10 00:32:46.78	333.63	34.90	-34.4	-35.4	23.5	0.00e+00	122	25	0	1733296128	42	5798
2026-01-10 00:32:47.79	333.68	34.67	-34.4	-35.3	23.6	0.00e+00	123	25	0	1736441856	42	5775
2026-01-10 00:32:48.80	333.73	34.45	-34.5	-35.5	23.4	0.00e+00	123	25	0	1739587584	42	5905
2026-01-10 00:32:49.81	333.78	34.23	-34.5	-35.5	23.4	0.00e+00	123	25	0	1742733312	42	5901
2026-01-10 00:32:50.82	333.83	34.01	-34.5	-35.5	23.4	0.00e+00	122	25	0	1745879040	42	5898
2026-01-10 00:32:51.83	333.88	33.80	-34.5	-35.5	23.4	0.00e+00	124	25	0	1749024768	42	5903
2026-01-10 00:32:52.84	333.93	33.58	-34.3	-35.3	23.6	0.00e+00	123	25	0	1752170496	42	5735
2026-01-10 00:32:53.85	333.98	33.37	-34.1	-35.1	23.7	0.00e+00	123	25	0	1755316224	42	5611
2026-01-10 00:32:54.86	334.02	33.15	-33.9	-34.9	23.7	0.00e+00	123	25	0	1758461952	42	5490
2026-01-10 00:32:55.87	334.07	32.94	-34.0	-34.9	23.7	0.00e+00	123	25	0	1761607680	42	5513
2026-01-10 00:32:56.88	334.12	32.73	-33.6	-34.6	23.9	0.00e+00	123	25	0	1765801984	40	5929
2026-01-10 00:32:57.89	334.16	32.52	-33.4	-34.3	24.1	0.00e+00	122	25	0	1768947712	40	5741
2026-01-10 00:32:58.90	334.21	32.32	-33.2	-34.1	24.2	0.00e+00	123	25	0	1772093440	40	5610
2026-01-10 00:32:59.91	334.25	32.11	-33.2	-34.1	24.3	0.00e+00	122	25	0	1774190592	40	5622
2026-01-10 00:33:00.92	334.30	31.91	-33.2	-34.1	24.4	0.00e+00	123	25	0	1777336320	40	5612
2026-01-10 00:33:01.93	334.34	31.70	-32.8	-33.6	24.8	0.00e+00	123	25	0	1781530624	40	5331
2026-01-10 00:33:02.93	334.38	31.51	-32.4	-33.3	25.0	0.00e+00	123	25	0	1784676352	38	5749
2026-01-10 00:33:03.94	334.43	31.31	-32.3	-33.2	25.1	0.00e+00	122	25	0	1787822080	38	5671
2026-01-10 00:33:04.95	334.47	31.11	-32.2	-33.1	25.0	0.00e+00	122	25	0	1790967808	38	5609
2026-01-10 00:33:05.96	334.51	30.91	-32.3	-33.1	25.0	0.00e+00	122	25	0	1794113536	38	5657
2026-01-10 00:33:06.97	334.55	30.71	-32.4	-33.3	25.0	0.00e+00	122	25	0	1797259264	38	5732
2026-01-10 00:33:07.98	334.59	30.52	-32.6	-33.5	24.9	0.00e+00	122	25	0	1800404992	38	5881
2026-01-10 00:33:08.99	334.64	30.32	-32.5	-33.4	25.0	0.00e+00	123	25	0	1803550720	38	5824
2026-01-10 00:33:10.00	334.68	30.13	-32.7	-33.6	24.9	0.00e+00	123	25	0	1806696448	38	5958
2026-01-10 00:33:11.01	334.72	29.94	-32.8	-33.7	24.9	0.00e+00	122	25	0	1809842176	38	6025
2026-01-10 00:33:12.02	334.75	29.75	-32.8	-33.7	24.8	0.00e+00	123	25	0	1812987904	38	6014
2026-01-10 00:33:13.03	334.79	29.56	-33.0	-33.8	24.7	0.00e+00	123	25	0	1816133632	38	6127
2026-01-10 00:33:14.04	334.83	29.38	-33.2	-34.1	24.5	0.00e+00	123	25	0	1819279360	38	6290
2026-01-10 00:33:15.05	334.87	29.19	-33.4	-34.3	24.5	0.00e+00	122	25	0	1822425088	38	6427
2026-01-10 00:33:16.06	334.91	29.01	-33.6	-34.5	24.3	0.00e+00	123	25	0	1825570816	38	6597
2026-01-10 00:33:17.07	334.95	28.82	-33.6	-34.5	24.3	0.00e+00	123	25	0	1828716544	40	5891
2026-01-10 00:33:18.08	334.98	28.64	-33.7	-34.6	24.2	0.00e+00	122	25	0	1831862272	40	5993
2026-01-10 00:33:19.09	335.02	28.46	-33.6	-34.5	24.2	0.00e+00	122	25	0	1835008000	40	5885
2026-01-10 00:33:20.10	335.06	28.28	-33.7	-34.6	24.2	0.00e+00	123	25	0	1838153728	40	5962
2026-01-10 00:33:21.11	335.09	28.10	-33.5	-34.5	24.2	0.00e+00	122	25	0	1841299456	40	5861
2026-01-10 00:33:22.11	335.13	27.92	-33.6	-34.5	24.2	0.00e+00	122	26	0	1844445184	40	5914
2026-01-10 00:33:23.12	335.16	27.75	-33.6	-34.5	24.2	0.00e+00	123	25	0	1847590912	40	5903
2026-01-10 00:33:24.13	335.20	27.57	-33.5	-34.4	24.3	0.00e+00	123	25	0	1850736640	40	5841
2026-01-10 00:33:25.15	335.23	27.40	-33.3	-34.2	24.5	0.00e+00	123	25	0	1853882368	40	5684
2026-01-10 00:33:26.16	335.27	27.22	-33.2	-34.1	24.5	0.00e+00	123	25	0	1857028096	40	5600
2026-01-10 00:33:27.17	335.30	27.05	-33.3	-34.2	24.4	0.00e+00	123	25	0	1860173824	40	5723
2026-01-10 00:33:28.18	335.33	26.88	-33.3	-34.2	24.4	0.00e+00	122	25	0	1863319552	40	5695
2026-01-10 00:33:29.18	335.37	26.71	-33.2	-34.1	24.4	0.00e+00	123	25	0	1866465280	40	5629
2026-01-10 00:33:30.19	335.40	26.54	-33.3	-34.2	24.3	0.00e+00	120	25	0	1869611008	40	5694
2026-01-10 00:33:31.20	335.43	26.37	-33.3	-34.3	24.3	0.00e+00	122	25	0	1872756736	40	5739
2026-01-10 00:33:32.21	335.46	26.21	-33.2	-34.2	24.3	0.00e+00	121	25	0	1875902464	40	5669
2026-01-10 00:33:33.22	335.50	26.04	-33.2	-34.2	24.3	0.00e+00	123	25	0	1879048192	40	5668
2026-01-10 00:33:34.23	335.53	25.88	-33.2	-34.1	24.4	0.00e+00	123	25	0	1882193920	40	5631
2026-01-10 00:33:35.24	335.56	25.71	-33.1	-34.0	24.5	0.00e+00	120	25	0	1885339648	40	5565
2026-01-10 00:33:36.25	335.59	25.55	-33.2	-34.1	24.4	0.00e+00	122	25	0	1888485376	40	5644
2026-01-10 00:33:37.26	335.62	25.39	-33.1	-34.0	24.5	0.00e+00	120	25	0	1891631104	40	5572
2026-01-10 00:33:38.27	335.65	25.23	-33.0	-33.9	24.6	0.00e+00	123	25	0	1894776832	40	5507
2026-01-10 00:33:39.28	335.68	25.07	-33.1	-34.1	24.5	0.00e+00	122	25	0	1897922560	40	5601
2026-01-10 00:33:40.29	335.71	24.91	-33.0	-33.9	24.6	0.00e+00	123	25	0	1901068288	40	5513
2026-01-10 00:33:41.30	335.74	24.75	-33.0	-33.9	24.6	0.00e+00	122	25	0	1904214016	40	5506
2026-01-10 00:33:42.31	335.77	24.59	-33.0	-33.9	24.6	0.00e+00	120	25	0	1907359744	40	5526
2026-01-10 00:33:43.31	335.80	24.44	-32.9	-33.7	24.7	0.00e+00	123	25	0	1910505472	40	5389
2026-01-10 00:33:44.32	335.83	24.28	-32.7	-33.5	24.9	0.00e+00	122	25	0	1913651200	38	5916
2026-01-10 00:33:45.33	335.86	24.13	-32.6	-33.5	24.8	0.00e+00	123	25	0	1916796928	38	5905
2026-01-10 00:33:46.34	335.89	23.98	-32.6	-33.5	24.9	0.00e+00	122	25	0	1919942656	38	5899
2026-01-10 00:33:47.35	335.92	23.82	-32.6	-33.5	24.9	0.00e+00	122	25	0	1923088384	38	5863
2026-01-10 00:33:48.36	335.95	23.67	-32.5	-33.3	24.9	0.00e+00	123	25	0	1926234112	38	5783
2026-01-10 00:33:49.37	335.97	23.52	-32.5	-33.4	24.9	0.00e+00	120	25	0	1929379840	38	5801
2026-01-10 00:33:50.37	336.00	23.37	-32.5	-33.4	24.9	0.00e+00	122	25	0	1932525568	38	5822
2026-01-10 00:33:51.38	336.03	23.22	-32.5	-33.3	24.8	0.00e+00	123	26	0	1935671296	38	5790
2026-01-10 00:33:52.40	336.06	23.07	-32.5	-33.3	24.9	0.00e+00	120	25	0	1938817024	38	5774
2026-01-10 00:33:53.41	336.08	22.93	-32.3	-33.2	24.9	0.00e+00	122	25	0	1941962752	38	5694
2026-01-10 00:33:54.41	336.11	22.78	-32.5	-33.3	24.8	0.00e+00	120	25	0	1945108480	38	5778
2026-01-10 00:33:55.42	336.14	22.64	-32.4	-33.3	25.0	0.00e+00	123	25	0	1948254208	38	5732
2026-01-10 00:33:56.43	336.16	22.49	-32.3	-33.2	25.0	0.00e+00	123	25	0	1951399936	38	5688
