passes_logs/2026/01/10/R4.6S_Anadyr/R4.6S_Anadyr__20260110_015214_FENGYUN_3D_rec.log

#Pass ID: 20260110_015214_FENGYUN 3D
#Satellite: FENGYUN 3D
#Configuration: FENGYUN 3D
#almurnet v.1.7.20251203
#Start time: 2026-01-10 01:52:16

#Version: 2.2.20231116
#Station: R4.6S_Anadyr
#Location: 177.4865 lon 64.73178 lat
#TLE: 1 43010U 17072A   26008.59015185 -.00000067  00000+0 -98204-5 0  9997
#TLE: 2 43010  98.9935 340.3069 0002117 119.1923 240.9464 14.19693468422340

#Time	Az	El	Level	Level2	SNR	BER	BlckErr	Temp	State	Recorded	gain1	gain2
2026-01-10 01:52:16.20	146.75	0.13	-47.9	-62.8	3.5	1.51e+00	0	22	0	0	60	49932
2026-01-10 01:52:17.21	146.75	0.19	-47.9	-60.0	3.6	8.46e-01	0	23	104	0	60	36140
2026-01-10 01:52:18.22	146.74	0.25	-48.0	-60.1	3.6	8.45e-01	0	23	104	0	60	36404
2026-01-10 01:52:19.23	146.73	0.32	-48.0	-60.1	3.6	8.46e-01	0	23	104	0	60	36501
2026-01-10 01:52:20.24	146.72	0.38	-48.0	-60.1	3.6	8.45e-01	0	23	104	0	60	36567
2026-01-10 01:52:21.25	146.72	0.44	-48.1	-60.1	3.6	8.46e-01	0	24	104	0	60	36737
2026-01-10 01:52:22.26	146.71	0.50	-48.1	-60.1	3.6	8.44e-01	0	24	104	0	60	36709
2026-01-10 01:52:23.27	146.70	0.56	-48.0	-60.1	3.6	8.46e-01	0	24	104	0	60	36438
2026-01-10 01:52:24.28	146.70	0.62	-47.9	-60.0	3.6	8.45e-01	0	24	104	0	60	36084
2026-01-10 01:52:25.29	146.69	0.68	-47.5	-59.9	3.6	8.45e-01	0	24	104	0	60	35786
2026-01-10 01:52:26.30	146.68	0.75	-47.7	-59.9	3.6	8.46e-01	0	24	104	0	60	35536
2026-01-10 01:52:27.31	146.68	0.81	-47.6	-59.7	3.6	8.46e-01	0	24	104	0	60	34876
2026-01-10 01:52:28.32	146.67	0.87	-47.4	-59.5	3.6	8.45e-01	0	24	104	0	60	34059
2026-01-10 01:52:29.33	146.66	0.93	-47.2	-59.3	3.6	8.46e-01	0	24	104	0	60	33411
2026-01-10 01:52:30.34	146.65	1.00	-46.8	-59.0	3.6	8.45e-01	0	24	104	0	60	32358
2026-01-10 01:52:31.35	146.65	1.06	-46.3	-58.4	3.6	8.45e-01	0	24	104	0	60	30166
2026-01-10 01:52:32.36	146.64	1.12	-45.9	-58.1	3.6	8.44e-01	0	24	104	0	60	29188
2026-01-10 01:52:33.37	146.63	1.18	-45.8	-58.1	3.6	8.45e-01	0	24	104	0	60	29019
2026-01-10 01:52:34.38	146.62	1.25	-45.8	-58.0	3.6	8.46e-01	0	24	104	0	60	28835
2026-01-10 01:52:35.39	146.62	1.31	-45.8	-58.0	3.6	8.44e-01	0	24	104	0	60	28725
2026-01-10 01:52:36.40	146.61	1.37	-45.8	-58.0	3.6	8.45e-01	0	24	104	0	60	28573
2026-01-10 01:52:37.41	146.60	1.44	-45.8	-58.0	3.6	8.46e-01	0	24	104	0	60	28610
2026-01-10 01:52:38.42	146.59	1.50	-45.8	-57.8	3.6	8.46e-01	0	24	104	0	60	28218
2026-01-10 01:52:39.43	146.59	1.56	-45.8	-57.8	3.6	8.44e-01	0	24	104	0	60	28058
2026-01-10 01:52:40.43	146.58	1.63	-45.8	-57.8	3.6	8.45e-01	0	24	104	0	60	27900
2026-01-10 01:52:41.44	146.57	1.69	-45.8	-57.7	3.6	8.45e-01	0	24	104	0	60	27838
2026-01-10 01:52:42.45	146.56	1.76	-45.8	-57.7	3.6	8.46e-01	0	24	104	0	60	27849
2026-01-10 01:52:43.46	146.55	1.82	-45.8	-57.6	3.6	8.46e-01	0	24	104	0	60	27443
2026-01-10 01:52:44.47	146.55	1.89	-45.8	-57.7	3.6	8.44e-01	0	24	104	0	60	27644
2026-01-10 01:52:45.48	146.54	1.95	-45.8	-57.7	3.6	8.45e-01	0	24	104	0	60	27652
2026-01-10 01:52:46.49	146.53	2.01	-45.8	-57.6	3.6	8.45e-01	0	24	104	0	60	27548
2026-01-10 01:52:47.50	146.52	2.08	-45.8	-57.7	3.6	8.45e-01	0	24	104	0	60	27802
2026-01-10 01:52:48.51	146.51	2.14	-45.8	-57.7	3.6	8.46e-01	0	24	104	0	60	27608
2026-01-10 01:52:49.52	146.51	2.21	-45.7	-57.8	3.5	8.45e-01	0	24	104	0	60	27936
2026-01-10 01:52:50.53	146.50	2.28	-45.8	-57.8	3.5	8.45e-01	0	24	104	0	60	27970
2026-01-10 01:52:51.54	146.49	2.34	-45.8	-57.8	3.6	8.45e-01	0	24	104	0	60	28165
2026-01-10 01:52:52.55	146.48	2.41	-45.8	-57.8	3.6	8.45e-01	0	24	104	0	60	28077
2026-01-10 01:52:53.56	146.47	2.47	-45.8	-57.9	3.6	8.44e-01	0	24	104	0	60	28378
2026-01-10 01:52:54.57	146.46	2.54	-45.8	-57.8	3.6	8.46e-01	0	24	104	0	60	28117
2026-01-10 01:52:55.58	146.46	2.60	-45.8	-57.9	3.6	8.45e-01	0	24	104	0	60	28297
2026-01-10 01:52:56.59	146.45	2.67	-45.8	-57.9	3.6	8.46e-01	0	24	104	0	60	28261
2026-01-10 01:52:57.60	146.44	2.74	-45.8	-58.0	3.6	8.45e-01	0	24	104	0	60	28602
2026-01-10 01:52:58.61	146.43	2.80	-45.8	-58.0	3.6	8.46e-01	0	24	104	0	60	28726
2026-01-10 01:52:59.62	146.42	2.87	-45.8	-58.1	3.6	8.45e-01	0	24	104	0	60	28963
2026-01-10 01:53:00.63	146.41	2.94	-45.8	-57.9	3.6	8.45e-01	0	24	104	0	60	28259
2026-01-10 01:53:01.64	146.40	3.00	-45.7	-56.8	3.6	8.46e-01	0	24	104	0	60	25086
2026-01-10 01:53:02.65	146.39	3.07	-45.5	-55.0	3.9	8.45e-01	0	24	104	0	60	20300
2026-01-10 01:53:03.66	146.39	3.14	-45.2	-51.8	4.6	8.23e-01	0	24	0	0	60	14011
2026-01-10 01:53:04.67	146.38	3.21	-44.6	-49.4	6.9	4.12e-01	0	24	0	3145728	60	10715
2026-01-10 01:53:05.68	146.37	3.27	-43.9	-47.9	8.5	5.82e-02	0	24	0	8388608	60	9003
2026-01-10 01:53:06.69	146.36	3.34	-43.3	-46.6	10.1	8.36e-03	0	24	0	13631488	60	7723
2026-01-10 01:53:07.70	146.35	3.41	-42.0	-44.5	12.2	1.95e-03	0	24	0	19922944	58	6786
2026-01-10 01:53:08.70	146.34	3.48	-40.9	-42.9	14.2	3.40e-06	0	24	0	25165824	56	6354
2026-01-10 01:53:09.71	146.33	3.55	-40.4	-42.1	14.9	0.00e+00	0	24	0	31457280	54	6529
2026-01-10 01:53:10.72	146.32	3.61	-39.8	-41.4	15.7	0.00e+00	0	24	0	36700160	54	6031
2026-01-10 01:53:11.73	146.31	3.68	-39.2	-40.6	16.5	0.00e+00	0	24	0	42991616	52	6142
2026-01-10 01:53:12.74	146.30	3.75	-38.9	-40.3	16.8	0.00e+00	0	24	0	48234496	52	5933
2026-01-10 01:53:13.75	146.29	3.82	-39.1	-40.5	16.5	0.00e+00	0	24	0	53477376	52	6062
2026-01-10 01:53:14.76	146.28	3.89	-41.7	-43.9	11.2	0.00e+00	0	24	0	59768832	52	8968
2026-01-10 01:53:15.77	146.27	3.96	-44.8	-49.2	7.6	8.71e-02	0	24	0	65011712	60	10401
2026-01-10 01:53:16.78	146.26	4.03	-42.2	-44.8	10.5	4.50e-06	0	24	0	71303168	52	9992
2026-01-10 01:53:17.79	146.25	4.10	-37.6	-38.7	18.7	6.67e-03	0	24	0	76546048	50	5537
2026-01-10 01:53:18.80	146.24	4.17	-44.4	-49.2	6.0	1.76e-02	0	24	0	81788928	58	11691
2026-01-10 01:53:19.81	146.23	4.24	-37.8	-38.9	17.7	7.48e-02	0	24	104	82837504	50	5659
2026-01-10 01:53:20.82	146.22	4.31	-36.7	-37.8	19.5	0.00e+00	0	24	0	87031808	46	6260
2026-01-10 01:53:21.83	146.21	4.38	-36.2	-37.2	20.1	0.00e+00	0	24	0	92274688	46	5843
2026-01-10 01:53:22.83	146.20	4.45	-35.7	-36.6	20.8	0.00e+00	0	24	0	97517568	44	6110
2026-01-10 01:53:23.84	146.19	4.52	-35.5	-36.3	21.0	0.00e+00	0	24	0	103809024	44	5954
2026-01-10 01:53:24.85	146.18	4.59	-35.5	-36.3	21.0	0.00e+00	0	24	0	109051904	44	5958
2026-01-10 01:53:25.86	146.17	4.66	-35.3	-36.2	21.2	0.00e+00	0	24	0	115343360	44	5876
2026-01-10 01:53:26.87	146.16	4.73	-35.4	-36.2	21.2	0.00e+00	0	24	0	120586240	44	5863
2026-01-10 01:53:27.87	146.15	4.81	-35.4	-36.3	21.1	0.00e+00	0	24	0	125829120	44	5926
2026-01-10 01:53:28.88	146.14	4.88	-35.5	-36.3	21.1	0.00e+00	0	24	0	132120576	44	5948
2026-01-10 01:53:29.89	146.13	4.95	-35.2	-36.0	21.4	0.00e+00	0	24	0	137363456	44	5760
2026-01-10 01:53:30.90	146.12	5.02	-35.3	-36.2	21.3	0.00e+00	0	24	0	143654912	44	5840
2026-01-10 01:53:31.91	146.11	5.09	-35.1	-36.0	21.5	0.00e+00	0	24	0	148897792	44	5716
2026-01-10 01:53:32.92	146.10	5.17	-35.0	-35.9	21.6	0.00e+00	0	24	0	155189248	44	5659
2026-01-10 01:53:33.93	146.09	5.24	-35.2	-36.1	21.5	0.00e+00	0	24	0	160432128	44	5789
2026-01-10 01:53:34.94	146.08	5.31	-34.8	-35.7	21.8	0.00e+00	0	24	0	165675008	44	5513
2026-01-10 01:53:35.95	146.07	5.39	-35.0	-35.8	21.7	0.00e+00	0	24	0	171966464	44	5630
2026-01-10 01:53:36.96	146.06	5.46	-34.8	-35.6	21.9	0.00e+00	0	24	0	177209344	44	5489
2026-01-10 01:53:37.97	146.05	5.53	-34.8	-35.6	21.9	0.00e+00	0	24	0	183500800	42	6156
2026-01-10 01:53:38.98	146.04	5.61	-34.9	-35.7	22.0	0.00e+00	0	24	0	188743680	42	6220
2026-01-10 01:53:39.99	146.02	5.68	-34.8	-35.7	21.9	0.00e+00	0	24	0	193986560	42	6177
2026-01-10 01:53:41.00	146.01	5.75	-34.8	-35.6	22.0	0.00e+00	0	24	0	200278016	42	6150
2026-01-10 01:53:42.01	146.00	5.83	-34.6	-35.5	22.1	0.00e+00	0	24	0	205520896	42	6034
2026-01-10 01:53:43.02	145.99	5.90	-34.7	-35.5	22.1	0.00e+00	0	24	0	211812352	42	6061
2026-01-10 01:53:44.03	145.98	5.98	-34.7	-35.5	22.1	0.00e+00	0	24	0	217055232	42	6051
2026-01-10 01:53:45.04	145.97	6.05	-34.6	-35.4	22.2	0.00e+00	0	24	0	223346688	42	6012
2026-01-10 01:53:46.05	145.96	6.13	-34.5	-35.3	22.3	0.00e+00	0	24	0	228589568	42	5935
2026-01-10 01:53:47.06	145.94	6.20	-34.5	-35.3	22.3	0.00e+00	0	24	0	233832448	42	5916
2026-01-10 01:53:48.07	145.93	6.28	-34.6	-35.4	22.3	0.00e+00	0	24	0	240123904	42	5993
2026-01-10 01:53:49.08	145.92	6.36	-34.5	-35.4	22.4	0.00e+00	0	24	0	245366784	42	5970
2026-01-10 01:53:50.09	145.91	6.43	-34.4	-35.2	22.5	0.00e+00	0	24	0	251658240	42	5855
2026-01-10 01:53:51.10	145.90	6.51	-34.5	-35.3	22.4	0.00e+00	0	24	0	256901120	42	5943
2026-01-10 01:53:52.11	145.88	6.59	-34.3	-35.1	22.6	0.00e+00	0	24	0	262144000	42	5801
2026-01-10 01:53:53.12	145.87	6.66	-34.3	-35.1	22.6	0.00e+00	0	24	0	268435456	42	5786
2026-01-10 01:53:54.13	145.86	6.74	-34.2	-35.1	22.7	0.00e+00	0	24	0	273678336	42	5768
2026-01-10 01:53:55.14	145.85	6.82	-34.2	-35.0	22.8	0.00e+00	0	24	0	279969792	42	5732
2026-01-10 01:53:56.15	145.83	6.89	-34.2	-35.0	22.8	0.00e+00	0	24	0	285212672	42	5739
2026-01-10 01:53:57.16	145.82	6.97	-34.1	-34.9	22.9	0.00e+00	0	24	0	290455552	42	5669
2026-01-10 01:53:58.17	145.81	7.05	-34.2	-34.9	22.9	0.00e+00	0	24	0	296747008	42	5685
2026-01-10 01:53:59.18	145.80	7.13	-34.2	-34.9	22.9	0.00e+00	0	24	0	301989888	42	5687
2026-01-10 01:54:00.19	145.78	7.21	-34.2	-35.0	22.8	0.00e+00	0	24	0	308281344	42	5725
2026-01-10 01:54:01.20	145.77	7.29	-34.2	-34.9	22.9	0.00e+00	0	24	0	313524224	42	5694
2026-01-10 01:54:02.21	145.76	7.36	-34.1	-34.9	22.9	0.00e+00	0	24	0	319815680	42	5668
2026-01-10 01:54:03.22	145.75	7.44	-34.1	-34.9	23.0	0.00e+00	0	24	0	325058560	42	5641
2026-01-10 01:54:04.23	145.73	7.52	-34.0	-34.7	23.1	0.00e+00	0	24	0	331350016	42	5546
2026-01-10 01:54:05.24	145.72	7.60	-34.0	-34.8	23.0	0.00e+00	0	24	0	336592896	42	5569
2026-01-10 01:54:06.25	145.71	7.68	-34.0	-34.8	23.0	0.00e+00	0	25	0	341835776	42	5580
2026-01-10 01:54:07.26	145.69	7.76	-33.8	-34.6	23.2	0.00e+00	0	24	0	348127232	42	5454
2026-01-10 01:54:08.27	145.68	7.84	-33.9	-34.7	23.1	0.00e+00	0	24	0	353370112	42	5533
2026-01-10 01:54:09.28	145.67	7.92	-33.9	-34.6	23.2	0.00e+00	0	24	0	359661568	42	5480
2026-01-10 01:54:10.29	145.65	8.01	-33.8	-34.6	23.2	0.00e+00	0	25	0	364904448	40	6139
2026-01-10 01:54:11.30	145.64	8.09	-33.9	-34.6	23.2	0.00e+00	0	24	0	370147328	40	6159
2026-01-10 01:54:12.31	145.62	8.17	-33.6	-34.4	23.4	0.00e+00	0	24	0	376438784	40	5998
2026-01-10 01:54:13.31	145.61	8.25	-33.6	-34.3	23.5	0.00e+00	0	25	0	381681664	40	5963
2026-01-10 01:54:14.32	145.60	8.33	-33.7	-34.4	23.4	0.00e+00	0	24	0	387973120	40	5998
2026-01-10 01:54:15.33	145.58	8.41	-33.5	-34.2	23.6	0.00e+00	0	24	0	393216000	40	5863
2026-01-10 01:54:16.34	145.57	8.50	-33.5	-34.2	23.6	0.00e+00	0	25	0	398458880	40	5875
2026-01-10 01:54:17.35	145.55	8.58	-33.5	-34.2	23.7	0.00e+00	0	25	0	404750336	40	5849
2026-01-10 01:54:18.36	145.54	8.66	-33.5	-34.2	23.6	0.00e+00	0	25	0	409993216	40	5870
2026-01-10 01:54:19.37	145.52	8.75	-33.4	-34.1	23.7	0.00e+00	0	24	0	416284672	40	5784
2026-01-10 01:54:20.38	145.51	8.83	-33.3	-34.0	23.8	0.00e+00	0	25	0	421527552	40	5742
2026-01-10 01:54:21.39	145.50	8.91	-33.3	-34.0	23.8	0.00e+00	0	25	0	427819008	40	5734
2026-01-10 01:54:22.39	145.48	9.00	-33.3	-34.0	23.8	0.00e+00	0	24	0	433061888	40	5742
2026-01-10 01:54:23.41	145.47	9.08	-33.2	-33.9	23.9	0.00e+00	0	25	0	438304768	40	5653
2026-01-10 01:54:24.42	145.45	9.17	-33.2	-34.0	23.9	0.00e+00	0	24	0	444596224	40	5697
2026-01-10 01:54:25.42	145.44	9.25	-33.1	-33.8	24.0	0.00e+00	0	24	0	449839104	40	5629
2026-01-10 01:54:26.44	145.42	9.34	-33.0	-33.7	24.1	0.00e+00	0	24	0	456130560	40	5554
2026-01-10 01:54:27.45	145.40	9.42	-33.0	-33.7	24.2	0.00e+00	0	24	0	461373440	40	5540
2026-01-10 01:54:28.45	145.39	9.51	-33.1	-33.8	24.1	0.00e+00	0	24	0	466616320	40	5575
2026-01-10 01:54:29.47	145.37	9.59	-33.0	-33.7	24.1	0.00e+00	0	25	0	472907776	40	5549
2026-01-10 01:54:30.47	145.36	9.68	-33.0	-33.8	24.2	0.00e+00	0	25	0	478150656	40	5576
2026-01-10 01:54:31.48	145.34	9.77	-32.9	-33.6	24.2	0.00e+00	0	25	0	484442112	40	5483
2026-01-10 01:54:32.49	145.33	9.85	-32.8	-33.5	24.4	0.00e+00	0	25	0	489684992	40	5382
2026-01-10 01:54:33.50	145.31	9.94	-32.8	-33.5	24.4	0.00e+00	0	25	0	494927872	38	6061
2026-01-10 01:54:34.51	145.29	10.03	-32.8	-33.5	24.4	0.00e+00	0	24	0	501219328	38	6078
2026-01-10 01:54:35.52	145.28	10.12	-32.7	-33.4	24.4	0.00e+00	0	25	0	506462208	38	6006
2026-01-10 01:54:36.53	145.26	10.21	-32.8	-33.5	24.4	0.00e+00	0	24	0	512753664	38	6045
2026-01-10 01:54:37.54	145.24	10.29	-32.7	-33.4	24.5	0.00e+00	0	24	0	517996544	38	6003
2026-01-10 01:54:38.55	145.23	10.38	-32.8	-33.5	24.4	0.00e+00	0	25	0	524288000	38	6051
2026-01-10 01:54:39.56	145.21	10.47	-32.6	-33.3	24.5	0.00e+00	0	25	0	529530880	38	5961
2026-01-10 01:54:40.57	145.19	10.56	-32.6	-33.3	24.6	0.00e+00	0	24	0	534773760	38	5912
2026-01-10 01:54:41.58	145.18	10.65	-32.5	-33.2	24.7	0.00e+00	0	25	0	541065216	38	5875
2026-01-10 01:54:42.59	145.16	10.74	-32.6	-33.2	24.6	0.00e+00	0	24	0	546308096	38	5894
2026-01-10 01:54:43.59	145.14	10.83	-32.5	-33.2	24.6	0.00e+00	0	24	0	552599552	38	5862
2026-01-10 01:54:44.60	145.13	10.92	-32.4	-33.1	24.7	0.00e+00	0	25	0	557842432	38	5811
2026-01-10 01:54:45.61	145.11	11.01	-32.5	-33.2	24.6	0.00e+00	0	24	0	563085312	38	5882
2026-01-10 01:54:46.62	145.09	11.11	-32.5	-33.2	24.7	0.00e+00	0	24	0	569376768	38	5881
2026-01-10 01:54:47.63	145.07	11.20	-32.5	-33.2	24.6	0.00e+00	0	24	0	574619648	38	5858
2026-01-10 01:54:48.64	145.06	11.29	-32.4	-33.1	24.8	0.00e+00	0	24	0	580911104	38	5799
2026-01-10 01:54:49.65	145.04	11.38	-32.5	-33.2	24.6	0.00e+00	0	24	0	586153984	38	5851
2026-01-10 01:54:50.66	145.02	11.48	-32.6	-33.3	24.5	0.00e+00	0	25	0	591396864	38	5930
2026-01-10 01:54:51.67	145.00	11.57	-32.3	-33.0	24.8	0.00e+00	0	24	0	597688320	38	5723
2026-01-10 01:54:52.68	144.98	11.66	-32.3	-33.0	24.8	0.00e+00	0	24	0	602931200	38	5719
2026-01-10 01:54:53.69	144.96	11.76	-32.3	-33.0	24.9	0.00e+00	0	25	0	609222656	38	5713
2026-01-10 01:54:54.70	144.95	11.85	-32.2	-32.9	25.0	0.00e+00	0	25	0	614465536	38	5665
2026-01-10 01:54:55.70	144.93	11.94	-32.3	-33.0	25.0	0.00e+00	0	25	0	620756992	38	5702
2026-01-10 01:54:56.71	144.91	12.04	-32.2	-32.9	25.0	0.00e+00	0	25	0	625999872	38	5662
2026-01-10 01:54:57.72	144.89	12.14	-32.3	-33.0	24.9	0.00e+00	0	25	0	632291328	38	5727
2026-01-10 01:54:58.73	144.87	12.23	-32.1	-32.8	25.1	0.00e+00	0	25	0	637534208	38	5591
2026-01-10 01:54:59.74	144.85	12.33	-32.2	-32.9	25.0	0.00e+00	0	25	0	642777088	38	5672
2026-01-10 01:55:00.75	144.83	12.42	-32.1	-32.8	25.1	0.00e+00	0	25	0	649068544	38	5592
2026-01-10 01:55:01.76	144.81	12.52	-32.3	-33.0	24.8	0.00e+00	0	24	0	654311424	38	5712
2026-01-10 01:55:02.77	144.79	12.62	-32.1	-32.8	25.1	0.00e+00	0	25	0	660602880	38	5609
2026-01-10 01:55:03.78	144.77	12.72	-32.0	-32.6	25.2	0.00e+00	0	25	0	665845760	38	5502
2026-01-10 01:55:04.79	144.75	12.81	-32.0	-32.7	25.2	0.00e+00	0	25	0	671088640	38	5515
2026-01-10 01:55:05.80	144.73	12.91	-32.0	-32.7	25.3	0.00e+00	0	25	0	677380096	38	5526
2026-01-10 01:55:06.81	144.71	13.01	-32.0	-32.7	25.2	0.00e+00	0	24	0	682622976	38	5526
2026-01-10 01:55:07.82	144.69	13.11	-32.0	-32.7	25.3	0.00e+00	0	25	0	688914432	38	5504
2026-01-10 01:55:08.83	144.67	13.21	-31.8	-32.5	25.4	0.00e+00	0	25	0	694157312	38	5418
2026-01-10 01:55:09.84	144.65	13.31	-31.8	-32.5	25.4	0.00e+00	0	24	0	699400192	38	5416
2026-01-10 01:55:10.85	144.63	13.41	-31.8	-32.4	25.5	0.00e+00	0	25	0	705691648	38	5371
2026-01-10 01:55:11.85	144.60	13.51	-31.7	-32.4	25.6	0.00e+00	0	25	0	710934528	36	5987
2026-01-10 01:55:12.86	144.58	13.61	-31.7	-32.4	25.4	0.00e+00	0	24	0	717225984	36	5975
2026-01-10 01:55:13.87	144.56	13.72	-31.7	-32.4	25.5	0.00e+00	0	25	0	722468864	36	6015
2026-01-10 01:55:14.88	144.54	13.82	-31.6	-32.2	25.6	0.00e+00	0	25	0	728760320	36	5884
2026-01-10 01:55:15.89	144.52	13.92	-31.6	-32.3	25.5	0.00e+00	0	25	0	734003200	36	5917
2026-01-10 01:55:16.90	144.50	14.02	-31.5	-32.2	25.7	0.00e+00	0	24	0	739246080	36	5832
2026-01-10 01:55:17.91	144.47	14.13	-31.5	-32.2	25.7	0.00e+00	0	25	0	745537536	36	5858
2026-01-10 01:55:18.92	144.45	14.23	-31.4	-32.1	25.9	0.00e+00	0	25	0	750780416	36	5771
2026-01-10 01:55:19.93	144.43	14.34	-31.4	-32.1	25.8	0.00e+00	0	25	0	757071872	36	5787
2026-01-10 01:55:20.94	144.41	14.44	-31.6	-32.2	25.8	0.00e+00	0	25	0	762314752	36	5867
2026-01-10 01:55:21.95	144.38	14.55	-31.4	-32.0	25.9	0.00e+00	0	25	0	767557632	36	5748
2026-01-10 01:55:22.96	144.36	14.65	-31.2	-31.9	26.0	0.00e+00	0	25	0	773849088	36	5659
2026-01-10 01:55:23.97	144.34	14.76	-31.1	-31.8	26.1	0.00e+00	0	25	0	779091968	36	5583
2026-01-10 01:55:24.97	144.31	14.86	-31.2	-31.8	25.9	0.00e+00	0	24	0	785383424	36	5630
2026-01-10 01:55:25.98	144.29	14.97	-31.1	-31.7	26.1	0.00e+00	0	25	0	790626304	36	5562
2026-01-10 01:55:26.99	144.26	15.08	-31.0	-31.6	26.3	0.00e+00	0	25	0	795869184	36	5493
2026-01-10 01:55:28.00	144.24	15.19	-30.9	-31.6	26.3	0.00e+00	0	25	0	802160640	36	5454
2026-01-10 01:55:29.01	144.22	15.29	-31.0	-31.7	26.3	0.00e+00	0	25	0	807403520	36	5520
2026-01-10 01:55:30.02	144.19	15.40	-31.0	-31.7	26.3	0.00e+00	0	25	0	813694976	36	5523
2026-01-10 01:55:31.03	144.17	15.51	-31.0	-31.7	26.3	0.00e+00	0	25	0	818937856	36	5531
2026-01-10 01:55:32.04	144.14	15.62	-30.8	-31.4	26.5	0.00e+00	0	25	0	825229312	36	5368
2026-01-10 01:55:33.05	144.12	15.73	-30.8	-31.5	26.4	0.00e+00	0	25	0	830472192	34	6044
2026-01-10 01:55:34.06	144.09	15.84	-30.7	-31.4	26.5	0.00e+00	0	25	0	835715072	34	5967
2026-01-10 01:55:35.07	144.07	15.96	-30.7	-31.3	26.5	0.00e+00	0	25	0	842006528	34	5934
2026-01-10 01:55:36.08	144.04	16.07	-30.6	-31.2	26.5	0.00e+00	0	25	0	847249408	34	5864
2026-01-10 01:55:37.09	144.01	16.18	-30.6	-31.3	26.6	0.00e+00	0	25	0	853540864	34	5915
2026-01-10 01:55:38.10	143.99	16.29	-30.6	-31.3	26.6	0.00e+00	0	25	0	858783744	34	5934
2026-01-10 01:55:39.11	143.96	16.41	-30.6	-31.3	26.6	0.00e+00	0	25	0	864026624	34	5916
2026-01-10 01:55:40.11	143.93	16.52	-30.4	-31.1	26.7	0.00e+00	0	25	0	870318080	34	5774
2026-01-10 01:55:41.12	143.91	16.64	-30.5	-31.1	26.7	0.00e+00	0	25	0	875560960	34	5794
2026-01-10 01:55:42.13	143.88	16.75	-30.4	-31.0	26.9	0.00e+00	0	25	0	881852416	34	5728
2026-01-10 01:55:43.14	143.85	16.87	-30.3	-30.9	26.9	0.00e+00	0	25	0	887095296	34	5688
2026-01-10 01:55:44.15	143.82	16.98	-30.4	-31.0	26.8	0.00e+00	0	25	0	892338176	34	5735
2026-01-10 01:55:45.16	143.80	17.10	-30.3	-30.9	26.9	0.00e+00	0	25	0	898629632	34	5668
2026-01-10 01:55:46.17	143.77	17.22	-30.3	-30.9	26.9	0.00e+00	0	25	0	903872512	34	5686
2026-01-10 01:55:47.18	143.74	17.33	-30.3	-30.9	26.9	0.00e+00	0	25	0	910163968	34	5663
2026-01-10 01:55:48.19	143.71	17.45	-30.2	-30.8	27.0	0.00e+00	0	25	0	915406848	34	5597
2026-01-10 01:55:49.20	143.68	17.57	-30.2	-30.9	27.0	0.00e+00	0	25	0	921698304	34	5641
2026-01-10 01:55:50.21	143.65	17.69	-30.1	-30.8	27.1	0.00e+00	0	25	0	926941184	34	5583
2026-01-10 01:55:51.22	143.62	17.81	-30.1	-30.8	27.1	0.00e+00	0	25	0	933232640	34	5581
2026-01-10 01:55:52.23	143.59	17.93	-30.1	-30.7	27.1	0.00e+00	0	25	0	938475520	34	5566
2026-01-10 01:55:53.23	143.56	18.05	-30.0	-30.7	27.1	0.00e+00	0	25	0	943718400	34	5526
2026-01-10 01:55:54.24	143.53	18.17	-30.2	-30.9	27.0	0.00e+00	0	25	0	950009856	34	5641
2026-01-10 01:55:55.25	143.50	18.30	-30.1	-30.8	27.1	0.00e+00	0	25	0	955252736	34	5574
2026-01-10 01:55:56.26	143.47	18.42	-30.0	-30.6	27.1	0.00e+00	0	25	0	960495616	34	5457
2026-01-10 01:55:57.27	143.44	18.54	-30.1	-30.8	27.0	0.00e+00	0	25	0	966787072	34	5570
2026-01-10 01:55:58.28	143.41	18.67	-30.1	-30.7	27.1	0.00e+00	0	25	0	972029952	34	5555
2026-01-10 01:55:59.28	143.38	18.79	-30.1	-30.7	27.1	0.00e+00	0	25	0	978321408	34	5530
2026-01-10 01:56:00.30	143.35	18.92	-30.0	-30.6	27.2	0.00e+00	0	25	0	983564288	34	5476
2026-01-10 01:56:01.31	143.31	19.04	-30.1	-30.7	27.1	0.00e+00	0	25	0	988807168	34	5541
2026-01-10 01:56:02.31	143.28	19.17	-30.1	-30.7	27.1	0.00e+00	0	25	0	995098624	34	5527
2026-01-10 01:56:03.33	143.25	19.30	-30.0	-30.7	27.1	0.00e+00	0	25	0	1000341504	34	5534
2026-01-10 01:56:04.34	143.22	19.43	-30.0	-30.7	27.2	0.00e+00	0	25	0	1006632960	34	5506
2026-01-10 01:56:05.34	143.18	19.55	-30.0	-30.7	27.2	0.00e+00	0	25	0	1011875840	34	5504
2026-01-10 01:56:06.35	143.15	19.68	-30.1	-30.7	27.1	0.00e+00	0	25	0	1018167296	34	5548
2026-01-10 01:56:07.36	143.12	19.81	-30.0	-30.6	27.2	0.00e+00	0	25	0	1023410176	34	5490
2026-01-10 01:56:08.37	143.08	19.95	-30.1	-30.8	27.1	0.00e+00	0	25	0	1029701632	34	5569
2026-01-10 01:56:09.38	143.05	20.08	-30.1	-30.7	27.2	0.00e+00	0	25	0	1034944512	34	5552
2026-01-10 01:56:10.39	143.01	20.21	-30.2	-30.8	27.2	0.00e+00	0	25	0	1040187392	34	5609
2026-01-10 01:56:11.40	142.98	20.34	-30.2	-30.8	27.1	0.00e+00	0	25	0	1046478848	34	5619
2026-01-10 01:56:12.41	142.94	20.48	-30.2	-30.8	27.1	0.00e+00	0	25	0	1051721728	34	5587
2026-01-10 01:56:13.42	142.91	20.61	-30.1	-30.8	27.2	0.00e+00	0	25	0	1058013184	34	5579
2026-01-10 01:56:14.43	142.87	20.74	-30.2	-30.8	27.1	0.00e+00	0	25	0	1063256064	34	5615
2026-01-10 01:56:15.44	142.83	20.88	-30.0	-30.6	27.2	0.00e+00	0	25	0	1068498944	34	5480
2026-01-10 01:56:16.45	142.80	21.02	-30.0	-30.7	27.3	0.00e+00	0	25	0	1074790400	34	5518
2026-01-10 01:56:17.46	142.76	21.15	-30.0	-30.7	27.3	0.00e+00	0	25	0	1080033280	34	5508
2026-01-10 01:56:18.47	142.72	21.29	-30.0	-30.6	27.2	0.00e+00	0	25	0	1086324736	34	5486
2026-01-10 01:56:19.47	142.68	21.43	-29.8	-30.4	27.4	0.00e+00	0	25	0	1091567616	34	5364
2026-01-10 01:56:20.48	142.64	21.57	-29.8	-30.4	27.5	0.00e+00	0	25	0	1096810496	34	5372
2026-01-10 01:56:21.49	142.61	21.71	-29.7	-30.4	27.4	0.00e+00	0	25	0	1103101952	32	5979
2026-01-10 01:56:22.50	142.57	21.85	-29.8	-30.4	27.5	0.00e+00	0	25	0	1108344832	32	6019
2026-01-10 01:56:23.51	142.53	21.99	-29.6	-30.3	27.6	0.00e+00	0	25	0	1114636288	32	5904
2026-01-10 01:56:24.51	142.49	22.13	-29.5	-30.1	27.7	0.00e+00	0	25	0	1119879168	32	5805
2026-01-10 01:56:25.52	142.45	22.27	-29.5	-30.1	27.6	0.00e+00	0	25	0	1126170624	32	5818
2026-01-10 01:56:26.53	142.41	22.42	-29.3	-29.9	27.8	0.00e+00	0	25	0	1131413504	32	5656
2026-01-10 01:56:27.54	142.36	22.56	-29.3	-30.0	27.8	0.00e+00	0	25	0	1136656384	32	5707
2026-01-10 01:56:28.55	142.32	22.71	-29.3	-29.9	27.9	0.00e+00	0	25	0	1142947840	32	5683
2026-01-10 01:56:29.56	142.28	22.86	-29.0	-29.6	28.0	0.00e+00	0	25	0	1148190720	32	5499
2026-01-10 01:56:30.57	142.24	23.00	-29.0	-29.6	28.1	0.00e+00	0	25	0	1154482176	32	5463
2026-01-10 01:56:31.58	142.20	23.15	-28.9	-29.5	28.2	0.00e+00	0	25	0	1159725056	32	5422
2026-01-10 01:56:32.59	142.15	23.30	-28.9	-29.5	28.1	0.00e+00	0	25	0	1164967936	32	5433
2026-01-10 01:56:33.60	142.11	23.45	-28.9	-29.5	28.2	0.00e+00	0	25	0	1171259392	32	5416
2026-01-10 01:56:34.61	142.06	23.60	-28.9	-29.5	28.2	0.00e+00	0	25	0	1176502272	32	5394
2026-01-10 01:56:35.62	142.02	23.75	-28.8	-29.4	28.2	0.00e+00	0	25	0	1182793728	32	5322
2026-01-10 01:56:36.63	141.97	23.90	-28.9	-29.5	28.1	0.00e+00	0	25	0	1188036608	30	6071
2026-01-10 01:56:37.64	141.93	24.06	-29.0	-29.6	28.1	0.00e+00	0	25	0	1193279488	30	6129
2026-01-10 01:56:38.65	141.88	24.21	-29.0	-29.6	28.1	0.00e+00	0	25	0	1199570944	30	6107
2026-01-10 01:56:39.67	141.83	24.37	-29.0	-29.6	28.1	0.00e+00	0	25	0	1204813824	30	6173
2026-01-10 01:56:40.68	141.79	24.52	-29.1	-29.7	27.9	0.00e+00	0	25	0	1211105280	30	6240
2026-01-10 01:56:41.69	141.74	24.68	-29.1	-29.7	28.0	0.00e+00	0	25	0	1216348160	30	6204
2026-01-10 01:56:42.70	141.69	24.84	-29.3	-29.9	27.9	0.00e+00	0	25	0	1222639616	30	6326
2026-01-10 01:56:43.71	141.64	25.00	-29.1	-29.7	28.1	0.00e+00	0	25	0	1227882496	30	6184
2026-01-10 01:56:44.72	141.59	25.16	-29.1	-29.8	28.0	0.00e+00	0	25	0	1234173952	30	6266
2026-01-10 01:56:45.73	141.54	25.32	-29.0	-29.6	28.1	0.00e+00	0	25	0	1239416832	30	6162
2026-01-10 01:56:46.74	141.49	25.48	-29.0	-29.7	28.0	0.00e+00	0	25	0	1244659712	30	6199
2026-01-10 01:56:47.75	141.44	25.64	-29.1	-29.7	27.9	0.00e+00	0	25	0	1250951168	30	6226
2026-01-10 01:56:48.76	141.39	25.80	-28.9	-29.5	28.2	0.00e+00	0	25	0	1256194048	30	6052
2026-01-10 01:56:49.77	141.34	25.97	-28.8	-29.5	28.3	0.00e+00	0	25	0	1262485504	30	6057
2026-01-10 01:56:50.78	141.29	26.13	-28.8	-29.4	28.2	0.00e+00	0	25	0	1267728384	30	6015
2026-01-10 01:56:51.79	141.23	26.30	-28.8	-29.5	28.3	0.00e+00	0	25	0	1272971264	30	6051
2026-01-10 01:56:52.79	141.18	26.46	-28.8	-29.5	28.3	0.00e+00	0	25	0	1279262720	30	6039
2026-01-10 01:56:53.80	141.13	26.63	-28.9	-29.6	28.1	0.00e+00	0	25	0	1284505600	30	6108
2026-01-10 01:56:54.81	141.07	26.80	-29.0	-29.6	28.2	0.00e+00	0	25	0	1289748480	30	6160
2026-01-10 01:56:55.82	141.02	26.97	-29.0	-29.6	28.0	0.00e+00	0	25	0	1296039936	30	6170
2026-01-10 01:56:56.83	140.96	27.14	-29.1	-29.8	28.0	0.00e+00	0	25	0	1301282816	30	6258
2026-01-10 01:56:57.83	140.90	27.31	-29.0	-29.6	28.1	0.00e+00	0	25	0	1307574272	30	6159
2026-01-10 01:56:58.84	140.85	27.49	-29.0	-29.6	28.1	0.00e+00	0	25	0	1312817152	30	6163
2026-01-10 01:56:59.85	140.79	27.66	-29.0	-29.6	28.1	0.00e+00	0	25	0	1319108608	30	6166
2026-01-10 01:57:00.86	140.73	27.84	-29.0	-29.6	28.2	0.00e+00	0	25	0	1324351488	30	6127
2026-01-10 01:57:01.87	140.67	28.02	-28.8	-29.4	28.3	0.00e+00	0	25	0	1330642944	30	6008
2026-01-10 01:57:02.88	140.61	28.19	-28.7	-29.3	28.4	0.00e+00	0	25	0	1335885824	30	5961
2026-01-10 01:57:03.89	140.55	28.37	-28.8	-29.4	28.4	0.00e+00	0	25	0	1341128704	30	5975
2026-01-10 01:57:04.90	140.49	28.55	-28.7	-29.3	28.4	0.00e+00	0	25	0	1347420160	30	5897
2026-01-10 01:57:05.91	140.43	28.73	-28.6	-29.2	28.5	0.00e+00	0	25	0	1352663040	30	5892
2026-01-10 01:57:06.91	140.36	28.91	-28.7	-29.4	28.2	0.00e+00	0	25	0	1358954496	30	5976
2026-01-10 01:57:07.92	140.30	29.10	-28.8	-29.4	28.2	0.00e+00	0	25	0	1364197376	30	6017
2026-01-10 01:57:08.93	140.24	29.28	-28.9	-29.5	28.2	0.00e+00	0	25	0	1369440256	30	6101
2026-01-10 01:57:09.94	140.17	29.47	-28.9	-29.6	28.2	0.00e+00	0	25	0	1375731712	30	6108
2026-01-10 01:57:10.95	140.10	29.65	-28.9	-29.5	28.2	0.00e+00	0	25	0	1380974592	30	6093
2026-01-10 01:57:11.96	140.04	29.84	-29.1	-29.8	27.9	0.00e+00	0	25	0	1386217472	30	6268
2026-01-10 01:57:12.97	139.97	30.03	-28.9	-29.6	28.2	0.00e+00	0	25	0	1392508928	30	6106
2026-01-10 01:57:13.98	139.90	30.22	-29.0	-29.6	28.2	0.00e+00	0	25	0	1397751808	30	6138
2026-01-10 01:57:14.99	139.83	30.41	-28.8	-29.5	28.3	0.00e+00	0	25	0	1404043264	30	6051
2026-01-10 01:57:16.00	139.76	30.61	-28.9	-29.5	28.2	0.00e+00	0	25	0	1409286144	30	6083
2026-01-10 01:57:17.01	139.69	30.80	-28.7	-29.3	28.4	0.00e+00	0	25	0	1415577600	30	5904
2026-01-10 01:57:18.01	139.62	31.00	-28.6	-29.2	28.4	0.00e+00	0	25	0	1420820480	30	5875
2026-01-10 01:57:19.02	139.55	31.19	-28.6	-29.2	28.5	0.00e+00	0	25	0	1427111936	30	5879
2026-01-10 01:57:20.03	139.47	31.39	-28.6	-29.2	28.5	0.00e+00	0	25	0	1432354816	30	5856
2026-01-10 01:57:21.04	139.40	31.59	-28.5	-29.1	28.6	0.00e+00	0	25	0	1437597696	30	5795
2026-01-10 01:57:22.05	139.32	31.79	-28.5	-29.1	28.6	0.00e+00	0	25	0	1443889152	30	5782
2026-01-10 01:57:23.06	139.24	31.99	-28.3	-28.9	28.7	0.00e+00	0	25	0	1449132032	30	5638
2026-01-10 01:57:24.07	139.17	32.20	-28.1	-28.7	28.8	0.00e+00	0	25	0	1455423488	30	5564
2026-01-10 01:57:25.08	139.09	32.40	-28.1	-28.7	28.9	0.00e+00	0	25	0	1460666368	30	5553
2026-01-10 01:57:26.10	139.01	32.61	-28.1	-28.7	28.9	0.00e+00	0	25	0	1465909248	30	5534
2026-01-10 01:57:27.10	138.93	32.81	-28.1	-28.7	28.9	0.00e+00	0	25	0	1472200704	30	5519
2026-01-10 01:57:28.11	138.84	33.02	-28.0	-28.6	28.9	0.00e+00	0	25	0	1477443584	30	5473
2026-01-10 01:57:29.12	138.76	33.23	-28.1	-28.7	28.8	0.00e+00	0	25	0	1483735040	30	5543
2026-01-10 01:57:30.13	138.68	33.44	-28.2	-28.8	28.8	0.00e+00	0	25	0	1488977920	30	5599
2026-01-10 01:57:31.14	138.59	33.66	-28.2	-28.8	28.8	0.00e+00	0	25	0	1494220800	30	5607
2026-01-10 01:57:32.15	138.50	33.87	-28.4	-29.0	28.6	0.00e+00	0	25	0	1500512256	30	5732
2026-01-10 01:57:33.16	138.42	34.09	-28.4	-29.0	28.6	0.00e+00	0	25	0	1505755136	30	5743
2026-01-10 01:57:34.17	138.33	34.30	-28.4	-29.0	28.6	0.00e+00	0	25	0	1512046592	30	5756
2026-01-10 01:57:35.18	138.24	34.52	-28.4	-29.1	28.6	0.00e+00	0	25	0	1517289472	30	5768
2026-01-10 01:57:36.19	138.15	34.74	-28.3	-28.9	28.7	0.00e+00	0	25	0	1523580928	30	5645
2026-01-10 01:57:37.20	138.05	34.96	-28.1	-28.7	28.9	0.00e+00	0	25	0	1528823808	30	5551
2026-01-10 01:57:38.21	137.96	35.19	-27.9	-28.6	28.9	0.00e+00	0	25	0	1534066688	30	5446
2026-01-10 01:57:39.22	137.86	35.41	-27.9	-28.5	29.0	0.00e+00	0	25	0	1540358144	30	5396
2026-01-10 01:57:40.22	137.77	35.64	-28.1	-28.7	28.9	0.00e+00	0	25	0	1545601024	30	5518
2026-01-10 01:57:41.23	137.67	35.86	-27.9	-28.5	29.0	0.00e+00	0	25	0	1551892480	30	5394
2026-01-10 01:57:42.24	137.57	36.09	-28.1	-28.8	28.9	0.00e+00	0	25	0	1557135360	30	5581
2026-01-10 01:57:43.25	137.47	36.32	-28.2	-28.8	28.8	0.00e+00	0	25	0	1562378240	30	5571
2026-01-10 01:57:44.26	137.37	36.55	-28.2	-28.8	28.8	0.00e+00	0	25	0	1568669696	30	5611
2026-01-10 01:57:45.27	137.26	36.79	-28.3	-28.9	28.7	0.00e+00	0	25	0	1573912576	30	5692
2026-01-10 01:57:46.28	137.16	37.02	-28.5	-29.1	28.6	0.00e+00	0	25	0	1580204032	30	5802
2026-01-10 01:57:47.29	137.05	37.26	-28.5	-29.1	28.6	0.00e+00	0	25	0	1585446912	30	5779
2026-01-10 01:57:48.30	136.94	37.50	-28.4	-29.0	28.7	0.00e+00	0	25	0	1590689792	30	5717
2026-01-10 01:57:49.31	136.83	37.74	-28.4	-29.0	28.6	0.00e+00	0	25	0	1596981248	30	5741
2026-01-10 01:57:50.32	136.72	37.98	-28.4	-29.0	28.6	0.00e+00	0	25	0	1602224128	30	5745
2026-01-10 01:57:51.32	136.60	38.22	-28.3	-28.9	28.7	0.00e+00	0	25	0	1608515584	30	5660
2026-01-10 01:57:52.34	136.49	38.47	-28.4	-29.0	28.7	0.00e+00	0	25	0	1613758464	30	5715
2026-01-10 01:57:53.34	136.37	38.71	-28.5	-29.2	28.5	0.00e+00	0	25	0	1620049920	30	5830
2026-01-10 01:57:54.35	136.25	38.96	-28.7	-29.3	28.5	0.00e+00	0	25	0	1625292800	30	5924
2026-01-10 01:57:55.36	136.13	39.21	-28.7	-29.3	28.4	0.00e+00	0	25	0	1630535680	30	5945
2026-01-10 01:57:56.37	136.01	39.46	-28.8	-29.5	28.4	0.00e+00	0	25	0	1636827136	30	6036
2026-01-10 01:57:57.38	135.88	39.71	-28.8	-29.4	28.4	0.00e+00	0	25	0	1642070016	30	6023
2026-01-10 01:57:58.39	135.75	39.97	-28.8	-29.4	28.4	0.00e+00	0	25	0	1648361472	30	6021
2026-01-10 01:57:59.40	135.62	40.22	-28.8	-29.5	28.3	0.00e+00	0	25	0	1653604352	30	6034
2026-01-10 01:58:00.41	135.49	40.48	-29.0	-29.6	28.3	0.00e+00	0	25	0	1658847232	30	6128
2026-01-10 01:58:01.42	135.36	40.74	-28.8	-29.4	28.4	0.00e+00	0	25	0	1665138688	30	5992
2026-01-10 01:58:02.43	135.22	41.00	-28.8	-29.4	28.4	0.00e+00	0	25	0	1670381568	30	6004
2026-01-10 01:58:03.44	135.09	41.27	-28.8	-29.4	28.4	0.00e+00	0	25	0	1676673024	30	6014
2026-01-10 01:58:04.45	134.95	41.53	-28.8	-29.4	28.4	0.00e+00	0	25	0	1681915904	30	6000
2026-01-10 01:58:05.46	134.80	41.80	-28.8	-29.4	28.4	0.00e+00	0	25	0	1687158784	30	6002
2026-01-10 01:58:06.47	134.66	42.07	-28.7	-29.3	28.5	0.00e+00	0	25	0	1693450240	30	5934
2026-01-10 01:58:07.47	134.51	42.33	-28.8	-29.4	28.4	0.00e+00	0	25	0	1698693120	30	5983
2026-01-10 01:58:08.48	134.36	42.61	-28.7	-29.3	28.5	0.00e+00	0	25	0	1704984576	30	5914
2026-01-10 01:58:09.49	134.21	42.88	-28.3	-28.9	28.7	0.00e+00	0	25	0	1710227456	30	5638
2026-01-10 01:58:10.50	134.05	43.15	-28.2	-28.8	28.8	0.00e+00	0	25	0	1716518912	30	5624
2026-01-10 01:58:11.51	133.89	43.43	-28.4	-29.0	28.7	0.00e+00	0	25	0	1721761792	30	5724
2026-01-10 01:58:12.52	133.73	43.71	-28.3	-28.9	28.7	0.00e+00	0	25	0	1728053248	30	5645
2026-01-10 01:58:13.53	133.57	43.99	-28.4	-29.0	28.6	0.00e+00	0	25	0	1733296128	30	5741
2026-01-10 01:58:14.54	133.40	44.27	-28.5	-29.1	28.5	0.00e+00	0	25	0	1738539008	30	5804
2026-01-10 01:58:15.55	133.23	44.56	-28.5	-29.2	28.6	0.00e+00	0	25	0	1744830464	30	5830
2026-01-10 01:58:16.56	133.06	44.84	-28.6	-29.2	28.5	0.00e+00	0	25	0	1750073344	30	5875
2026-01-10 01:58:17.57	132.88	45.13	-28.6	-29.3	28.5	0.00e+00	0	25	0	1756364800	30	5908
2026-01-10 01:58:18.58	132.70	45.42	-28.6	-29.3	28.5	0.00e+00	0	25	0	1761607680	30	5913
2026-01-10 01:58:19.59	132.52	45.71	-28.6	-29.2	28.5	0.00e+00	0	25	0	1766850560	30	5886
2026-01-10 01:58:20.59	132.34	46.00	-28.5	-29.1	28.6	0.00e+00	0	25	0	1773142016	30	5790
2026-01-10 01:58:21.60	132.15	46.30	-28.5	-29.1	28.6	0.00e+00	0	25	0	1778384896	30	5824
2026-01-10 01:58:22.61	131.95	46.59	-28.5	-29.1	28.5	0.00e+00	0	25	0	1783627776	30	5825
2026-01-10 01:58:23.62	131.75	46.89	-28.6	-29.2	28.5	0.00e+00	0	25	0	1789919232	30	5860
2026-01-10 01:58:24.63	131.55	47.19	-28.8	-29.4	28.4	0.00e+00	0	25	0	1795162112	30	5975
2026-01-10 01:58:25.64	131.35	47.49	-28.9	-29.5	28.2	0.00e+00	0	25	0	1801453568	30	6099
2026-01-10 01:58:26.65	131.14	47.80	-29.0	-29.6	28.2	0.00e+00	0	25	0	1806696448	30	6171
2026-01-10 01:58:27.66	130.93	48.10	-29.2	-29.8	28.1	0.00e+00	0	25	0	1812987904	30	6301
2026-01-10 01:58:28.67	130.71	48.41	-29.3	-29.9	28.0	0.00e+00	0	25	0	1818230784	30	6365
2026-01-10 01:58:29.68	130.49	48.72	-29.6	-30.2	27.8	0.00e+00	0	25	0	1824522240	30	6606
2026-01-10 01:58:30.69	130.26	49.03	-29.7	-30.3	27.6	0.00e+00	0	25	0	1829765120	32	5952
2026-01-10 01:58:31.70	130.03	49.34	-29.7	-30.3	27.8	0.00e+00	0	25	0	1835008000	32	5928
2026-01-10 01:58:32.71	129.79	49.65	-29.6	-30.2	27.8	0.00e+00	0	25	0	1841299456	32	5879
2026-01-10 01:58:33.72	129.55	49.97	-29.5	-30.1	27.9	0.00e+00	0	25	0	1846542336	32	5824
2026-01-10 01:58:34.73	129.30	50.28	-29.5	-30.1	27.9	0.00e+00	0	25	0	1852833792	32	5795
2026-01-10 01:58:35.74	129.05	50.60	-29.6	-30.1	27.8	0.00e+00	0	25	0	1858076672	32	5828
2026-01-10 01:58:36.75	128.79	50.92	-29.9	-30.5	27.6	0.00e+00	0	25	0	1863319552	32	6070
2026-01-10 01:58:37.75	128.53	51.24	-30.3	-30.9	27.2	0.00e+00	0	25	0	1869611008	32	6344
2026-01-10 01:58:38.76	128.26	51.56	-30.3	-30.9	27.2	0.00e+00	0	25	0	1874853888	32	6368
2026-01-10 01:58:39.77	127.99	51.89	-29.9	-30.5	27.5	0.00e+00	0	25	0	1881145344	32	6101
2026-01-10 01:58:40.78	127.71	52.21	-29.7	-30.3	27.6	0.00e+00	0	25	0	1886388224	32	5950
2026-01-10 01:58:41.79	127.42	52.54	-29.5	-30.1	27.9	0.00e+00	0	25	0	1891631104	32	5796
2026-01-10 01:58:42.80	127.13	52.87	-29.5	-30.1	27.9	0.00e+00	0	25	0	1897922560	32	5806
2026-01-10 01:58:43.81	126.83	53.20	-29.5	-30.1	27.9	0.00e+00	0	25	0	1903165440	32	5802
2026-01-10 01:58:44.82	126.52	53.53	-29.4	-30.0	27.9	0.00e+00	0	25	0	1909456896	32	5753
2026-01-10 01:58:45.83	126.21	53.87	-29.4	-30.1	27.9	0.00e+00	0	25	0	1914699776	32	5763
2026-01-10 01:58:46.84	125.88	54.20	-29.3	-29.9	28.0	0.00e+00	0	25	0	1920991232	32	5655
2026-01-10 01:58:47.85	125.55	54.54	-29.5	-30.1	27.8	0.00e+00	0	25	0	1926234112	32	5805
2026-01-10 01:58:48.86	125.22	54.87	-29.8	-30.5	27.6	0.00e+00	0	25	0	1931476992	32	6059
2026-01-10 01:58:49.87	124.87	55.21	-29.9	-30.6	27.5	0.00e+00	0	25	0	1937768448	32	6112
2026-01-10 01:58:50.87	124.52	55.55	-29.5	-30.1	27.9	0.00e+00	0	25	0	1943011328	32	5779
2026-01-10 01:58:51.88	124.16	55.89	-29.2	-29.8	28.0	0.00e+00	0	25	0	1949302784	32	5612
2026-01-10 01:58:52.89	123.79	56.23	-29.3	-29.9	28.1	0.00e+00	0	25	0	1954545664	32	5666
2026-01-10 01:58:53.90	123.40	56.57	-29.4	-30.0	27.9	0.00e+00	0	25	0	1959788544	32	5759
2026-01-10 01:58:54.91	123.01	56.91	-29.7	-30.3	27.6	0.00e+00	0	25	0	1966080000	32	5940
2026-01-10 01:58:55.92	122.61	57.26	-29.0	-29.6	28.3	0.00e+00	0	25	0	1971322880	32	5481
2026-01-10 01:58:56.93	122.20	57.60	-28.9	-29.5	28.2	0.00e+00	0	25	0	1977614336	32	5383
2026-01-10 01:58:57.94	121.78	57.94	-29.0	-29.5	28.2	0.00e+00	0	25	0	1982857216	30	6099
2026-01-10 01:58:58.95	121.35	58.29	-29.5	-30.2	27.8	0.00e+00	0	25	0	1988100096	30	6553
2026-01-10 01:58:59.96	120.90	58.63	-29.7	-30.3	27.7	0.00e+00	0	25	0	1994391552	32	5936
2026-01-10 01:59:00.97	120.45	58.98	-29.2	-29.8	28.1	0.00e+00	0	25	0	1999634432	32	5574
2026-01-10 01:59:01.98	119.98	59.33	-29.1	-29.6	28.2	0.00e+00	0	25	0	2005925888	32	5492
2026-01-10 01:59:02.99	119.50	59.67	-29.2	-29.8	28.0	0.00e+00	0	25	0	2011168768	32	5612
2026-01-10 01:59:03.99	119.01	60.02	-29.6	-30.2	27.6	0.00e+00	0	25	0	2017460224	32	5867
2026-01-10 01:59:05.00	118.50	60.36	-29.4	-30.0	27.9	0.00e+00	0	25	0	2022703104	32	5756
2026-01-10 01:59:06.01	117.98	60.71	-29.2	-29.8	28.1	0.00e+00	0	25	0	2027945984	32	5614
2026-01-10 01:59:07.02	117.44	61.05	-29.1	-29.7	28.2	0.00e+00	0	25	0	2034237440	32	5554
2026-01-10 01:59:08.03	116.89	61.40	-28.5	-29.1	28.6	0.00e+00	0	25	0	2039480320	30	5800
2026-01-10 01:59:09.04	116.33	61.74	-28.3	-28.9	28.7	0.00e+00	0	25	0	2045771776	30	5681
2026-01-10 01:59:10.05	115.74	62.09	-28.5	-29.0	28.6	0.00e+00	0	25	0	2051014656	30	5760
2026-01-10 01:59:11.06	115.14	62.43	-28.5	-29.1	28.6	0.00e+00	0	25	0	2056257536	30	5821
2026-01-10 01:59:12.07	114.53	62.77	-28.3	-28.9	28.8	0.00e+00	0	25	0	2062548992	30	5646
2026-01-10 01:59:13.08	113.89	63.11	-28.3	-28.9	28.7	0.00e+00	0	25	0	2067791872	30	5692
2026-01-10 01:59:14.09	113.24	63.45	-28.3	-28.9	28.8	0.00e+00	0	25	0	2074083328	30	5646
2026-01-10 01:59:15.10	112.57	63.79	-28.2	-28.7	28.8	0.00e+00	0	25	0	2079326208	30	5564
2026-01-10 01:59:16.11	111.88	64.13	-28.0	-28.6	28.8	0.00e+00	0	25	0	2084569088	30	5496
2026-01-10 01:59:17.11	111.17	64.46	-28.1	-28.8	28.8	0.00e+00	0	25	0	2090860544	30	5576
2026-01-10 01:59:18.12	110.44	64.79	-27.9	-28.5	28.9	0.00e+00	0	25	0	2096103424	30	5423
2026-01-10 01:59:19.13	109.68	65.12	-27.6	-28.2	29.2	0.00e+00	0	25	0	2102394880	28	5840
2026-01-10 01:59:20.14	108.90	65.44	-27.7	-28.4	29.1	0.00e+00	0	25	0	2107637760	28	5979
2026-01-10 01:59:21.15	108.10	65.77	-27.7	-28.3	29.1	0.00e+00	0	25	0	2113929216	28	5913
2026-01-10 01:59:22.16	107.28	66.09	-27.7	-28.3	29.1	0.00e+00	0	25	0	2119172096	28	5898
2026-01-10 01:59:23.17	106.43	66.41	-27.4	-28.0	29.3	0.00e+00	0	25	0	2125463552	28	5746
2026-01-10 01:59:24.18	105.55	66.72	-27.5	-28.1	29.2	0.00e+00	0	25	0	2130706432	28	5813
2026-01-10 01:59:25.19	104.65	67.03	-27.2	-27.8	29.4	0.00e+00	0	25	0	2135949312	28	5609
2026-01-10 01:59:26.20	103.72	67.33	-27.2	-27.8	29.4	0.00e+00	0	25	0	2142240768	28	5591
2026-01-10 01:59:27.21	102.77	67.64	-27.6	-28.3	29.2	0.00e+00	0	25	0	2147483648	28	5910
2026-01-10 01:59:28.22	101.78	67.93	-27.7	-28.4	29.1	0.00e+00	0	25	0	2153775104	28	5973
2026-01-10 01:59:29.23	100.77	68.22	-27.3	-27.9	29.4	0.00e+00	0	25	0	2159017984	28	5670
2026-01-10 01:59:30.24	99.73	68.51	-27.3	-27.9	29.4	0.00e+00	0	25	0	2164260864	28	5657
2026-01-10 01:59:31.25	98.66	68.79	-27.5	-28.0	29.3	0.00e+00	0	25	0	2170552320	28	5741
2026-01-10 01:59:32.26	97.55	69.06	-27.4	-28.0	29.3	0.00e+00	0	25	0	2175795200	28	5729
2026-01-10 01:59:33.26	96.43	69.32	-27.3	-27.9	29.3	0.00e+00	0	25	0	2182086656	28	5679
2026-01-10 01:59:34.28	95.25	69.59	-27.6	-28.3	29.1	0.00e+00	0	25	0	2187329536	28	5914
2026-01-10 01:59:35.28	94.07	69.83	-27.4	-28.0	29.3	0.00e+00	0	25	0	2192572416	28	5727
2026-01-10 01:59:36.29	92.84	70.08	-27.3	-27.9	29.3	0.00e+00	0	25	0	2198863872	28	5673
2026-01-10 01:59:37.30	91.58	70.31	-27.5	-28.1	29.3	0.00e+00	0	25	0	2204106752	28	5807
2026-01-10 01:59:38.31	90.29	70.54	-27.5	-28.0	29.2	0.00e+00	0	25	0	2210398208	28	5761
2026-01-10 01:59:39.32	88.96	70.76	-27.5	-28.2	29.1	0.00e+00	0	25	0	2215641088	28	5840
2026-01-10 01:59:40.33	87.60	70.97	-27.5	-28.1	29.2	0.00e+00	0	25	0	2221932544	28	5824
2026-01-10 01:59:41.34	86.21	71.17	-27.6	-28.3	29.0	0.00e+00	0	25	0	2227175424	28	5897
2026-01-10 01:59:42.35	84.80	71.36	-27.7	-28.3	29.0	0.00e+00	0	25	0	2232418304	28	5930
2026-01-10 01:59:43.36	83.35	71.53	-27.9	-28.5	28.9	0.00e+00	0	25	0	2238709760	28	6070
2026-01-10 01:59:44.37	81.87	71.70	-27.5	-28.1	29.2	0.00e+00	0	25	0	2243952640	28	5796
2026-01-10 01:59:45.38	80.36	71.85	-27.4	-28.1	29.2	0.00e+00	0	25	0	2250244096	28	5767
2026-01-10 01:59:46.39	78.83	72.00	-27.7	-28.4	29.1	0.00e+00	0	25	0	2255486976	28	5965
2026-01-10 01:59:47.40	77.27	72.13	-27.9	-28.5	29.1	0.00e+00	0	25	0	2260729856	28	6093
2026-01-10 01:59:48.41	75.69	72.25	-27.7	-28.3	29.2	0.00e+00	0	25	0	2267021312	28	5915
2026-01-10 01:59:49.42	74.09	72.35	-27.7	-28.3	29.2	0.00e+00	0	25	0	2272264192	28	5941
2026-01-10 01:59:50.43	72.47	72.44	-27.8	-28.5	29.1	0.00e+00	0	25	0	2278555648	28	6047
2026-01-10 01:59:51.43	70.85	72.52	-27.7	-28.3	29.1	0.00e+00	0	25	0	2283798528	28	5951
2026-01-10 01:59:52.44	69.20	72.59	-27.8	-28.4	29.0	0.00e+00	0	25	0	2289041408	28	6016
2026-01-10 01:59:53.45	67.54	72.64	-27.8	-28.4	29.0	0.00e+00	0	25	0	2295332864	28	6028
2026-01-10 01:59:54.46	65.87	72.67	-28.0	-28.6	28.9	0.00e+00	0	25	0	2300575744	28	6156
2026-01-10 01:59:55.47	64.19	72.70	-27.8	-28.4	29.0	0.00e+00	0	25	0	2306867200	28	6005
2026-01-10 01:59:56.48	62.51	72.71	-27.7	-28.3	29.1	0.00e+00	0	25	0	2312110080	28	5903
2026-01-10 01:59:57.49	60.83	72.70	-27.3	-27.9	29.3	0.00e+00	0	25	0	2318401536	28	5646
2026-01-10 01:59:58.50	59.15	72.68	-27.5	-28.1	29.2	0.00e+00	0	25	0	2323644416	28	5821
2026-01-10 01:59:59.51	57.48	72.65	-27.4	-28.0	29.3	0.00e+00	0	25	0	2328887296	28	5715
2026-01-10 02:00:00.52	55.81	72.60	-27.4	-28.0	29.2	0.00e+00	0	25	0	2335178752	28	5727
2026-01-10 02:00:01.53	54.16	72.54	-27.4	-28.0	29.3	0.00e+00	0	25	0	2340421632	28	5726
2026-01-10 02:00:02.54	52.52	72.46	-27.3	-28.0	29.2	0.00e+00	0	25	0	2346713088	28	5704
2026-01-10 02:00:03.55	50.90	72.38	-27.4	-28.0	29.0	0.00e+00	0	25	0	2351955968	28	5711
2026-01-10 02:00:04.55	49.31	72.27	-27.3	-28.0	29.2	0.00e+00	0	25	0	2357198848	28	5702
2026-01-10 02:00:05.56	47.72	72.16	-27.2	-27.8	29.4	0.00e+00	0	25	0	2363490304	28	5600
2026-01-10 02:00:06.57	46.16	72.03	-27.2	-27.8	29.5	0.00e+00	0	25	0	2368733184	28	5589
2026-01-10 02:00:07.58	44.62	71.89	-27.2	-27.8	29.4	0.00e+00	0	25	0	2375024640	28	5591
2026-01-10 02:00:08.59	43.11	71.74	-27.3	-27.9	29.3	0.00e+00	0	25	0	2380267520	28	5683
2026-01-10 02:00:09.60	41.62	71.58	-27.1	-27.6	29.5	0.00e+00	0	25	0	2385510400	28	5486
2026-01-10 02:00:10.61	40.17	71.40	-26.9	-27.5	29.6	0.00e+00	0	25	0	2391801856	28	5388
2026-01-10 02:00:11.62	38.74	71.22	-27.1	-27.6	29.5	0.00e+00	0	25	0	2397044736	28	5467
2026-01-10 02:00:12.63	37.35	71.02	-27.2	-27.7	29.4	0.00e+00	0	25	0	2403336192	28	5559
2026-01-10 02:00:13.64	35.98	70.82	-27.3	-27.9	29.4	0.00e+00	0	25	0	2408579072	28	5693
2026-01-10 02:00:14.65	34.65	70.60	-27.4	-28.0	29.2	0.00e+00	0	25	0	2414870528	28	5745
2026-01-10 02:00:15.66	33.35	70.38	-27.3	-27.9	29.3	0.00e+00	0	25	0	2420113408	28	5641
2026-01-10 02:00:16.67	32.08	70.14	-27.1	-27.7	29.4	0.00e+00	0	25	0	2426404864	28	5551
2026-01-10 02:00:17.68	30.84	69.90	-27.4	-28.1	29.3	0.00e+00	0	25	0	2431647744	28	5764
2026-01-10 02:00:18.68	29.65	69.65	-27.5	-28.2	29.3	0.00e+00	0	25	0	2436890624	28	5839
2026-01-10 02:00:19.70	28.47	69.39	-27.4	-28.0	29.4	0.00e+00	0	25	0	2443182080	28	5746
2026-01-10 02:00:20.71	27.33	69.13	-27.1	-27.6	29.4	0.00e+00	0	25	0	2448424960	28	5493
2026-01-10 02:00:21.71	26.23	68.86	-27.0	-27.7	29.5	0.00e+00	0	25	0	2453667840	28	5520
2026-01-10 02:00:22.72	25.15	68.58	-27.3	-27.8	29.3	0.00e+00	0	25	0	2459959296	28	5620
2026-01-10 02:00:23.73	24.10	68.30	-27.4	-28.1	29.2	0.00e+00	0	25	0	2465202176	28	5769
2026-01-10 02:00:24.75	23.07	68.01	-27.2	-27.7	29.3	0.00e+00	0	25	0	2471493632	28	5527
2026-01-10 02:00:25.75	22.09	67.72	-27.0	-27.5	29.5	0.00e+00	0	25	0	2476736512	28	5389
2026-01-10 02:00:26.76	21.13	67.42	-27.3	-27.8	29.1	0.00e+00	0	25	0	2481979392	28	5619
2026-01-10 02:00:27.77	20.19	67.11	-27.8	-28.5	28.9	0.00e+00	0	25	0	2488270848	28	6062
2026-01-10 02:00:28.78	19.28	66.81	-27.6	-28.2	29.1	0.00e+00	0	25	0	2493513728	28	5895
2026-01-10 02:00:29.79	18.40	66.49	-27.4	-27.9	29.4	0.00e+00	0	25	0	2499805184	28	5682
2026-01-10 02:00:30.80	17.55	66.18	-27.4	-27.9	29.3	0.00e+00	0	25	0	2505048064	28	5683
2026-01-10 02:00:31.81	16.72	65.86	-27.4	-28.0	29.3	0.00e+00	0	25	0	2511339520	28	5758
2026-01-10 02:00:32.82	15.91	65.54	-27.5	-28.0	29.0	0.00e+00	0	25	0	2516582400	28	5752
2026-01-10 02:00:33.83	15.13	65.21	-27.4	-27.9	29.3	0.00e+00	0	25	0	2522873856	28	5681
2026-01-10 02:00:34.83	14.38	64.89	-27.5	-28.0	29.1	0.00e+00	0	25	0	2528116736	28	5750
2026-01-10 02:00:35.84	13.64	64.56	-27.4	-27.9	29.2	0.00e+00	0	25	0	2533359616	28	5667
2026-01-10 02:00:36.85	12.92	64.22	-27.3	-27.8	29.2	0.00e+00	0	25	0	2539651072	28	5623
2026-01-10 02:00:37.86	12.22	63.89	-27.7	-28.4	29.0	0.00e+00	0	25	0	2544893952	28	5966
2026-01-10 02:00:38.87	11.55	63.55	-27.8	-28.4	29.0	0.00e+00	0	25	0	2551185408	28	5992
2026-01-10 02:00:39.88	10.89	63.21	-27.9	-28.5	28.9	0.00e+00	0	25	0	2556428288	28	6086
2026-01-10 02:00:40.89	10.25	62.87	-28.0	-28.6	28.9	0.00e+00	0	25	0	2561671168	28	6161
2026-01-10 02:00:41.90	9.63	62.53	-28.1	-28.8	28.7	0.00e+00	0	25	0	2567962624	28	6249
2026-01-10 02:00:42.91	9.03	62.19	-28.1	-28.8	28.7	0.00e+00	0	25	0	2573205504	28	6280
2026-01-10 02:00:43.92	8.44	61.85	-28.1	-28.7	28.8	0.00e+00	0	25	0	2579496960	28	6196
2026-01-10 02:00:44.93	7.87	61.50	-28.2	-28.7	28.7	0.00e+00	0	25	0	2584739840	28	6244
2026-01-10 02:00:45.94	7.32	61.16	-27.9	-28.5	28.9	0.00e+00	0	25	0	2589982720	28	6060
2026-01-10 02:00:46.94	6.78	60.82	-27.8	-28.4	28.9	0.00e+00	0	25	0	2596274176	28	6004
2026-01-10 02:00:47.95	6.26	60.47	-27.8	-28.4	29.0	0.00e+00	0	25	0	2601517056	28	5981
2026-01-10 02:00:48.96	5.75	60.13	-28.0	-28.6	28.9	0.00e+00	0	25	0	2607808512	28	6134
2026-01-10 02:00:49.97	5.25	59.78	-28.3	-29.0	28.6	0.00e+00	0	25	0	2613051392	28	6408
2026-01-10 02:00:50.98	4.77	59.44	-28.5	-29.0	28.4	0.00e+00	0	25	0	2619342848	28	6445
2026-01-10 02:00:51.99	4.30	59.09	-28.5	-29.2	28.4	0.00e+00	0	25	0	2624585728	28	6594
2026-01-10 02:00:52.99	3.84	58.75	-28.7	-29.2	28.4	0.00e+00	0	25	0	2629828608	28	6593
2026-01-10 02:00:54.00	3.39	58.40	-28.9	-29.4	28.3	0.00e+00	0	25	0	2636120064	30	6006
2026-01-10 02:00:55.01	2.96	58.06	-28.8	-29.5	28.3	0.00e+00	0	25	0	2641362944	30	6060
2026-01-10 02:00:56.02	2.53	57.72	-28.8	-29.4	28.3	0.00e+00	0	25	0	2647654400	30	5999
2026-01-10 02:00:57.03	2.12	57.37	-29.1	-29.8	28.2	0.00e+00	0	25	0	2652897280	30	6281
2026-01-10 02:00:58.04	1.72	57.03	-29.4	-29.9	27.9	0.00e+00	0	25	0	2658140160	30	6381
2026-01-10 02:00:59.05	1.33	56.69	-29.6	-30.1	27.8	0.00e+00	0	25	0	2664431616	30	6531
2026-01-10 02:01:00.06	0.94	56.35	-29.5	-30.2	27.9	0.00e+00	0	25	0	2669674496	30	6568
2026-01-10 02:01:01.07	0.57	56.01	-29.4	-30.1	27.8	0.00e+00	0	25	0	2675965952	30	6477
2026-01-10 02:01:02.08	0.20	55.67	-29.3	-29.8	27.9	0.00e+00	0	25	0	2681208832	30	6307
2026-01-10 02:01:03.09	359.85	55.33	-29.1	-29.8	28.1	0.00e+00	0	25	0	2686451712	30	6281
2026-01-10 02:01:04.10	359.50	54.99	-29.3	-29.9	27.9	0.00e+00	0	25	0	2692743168	30	6335
2026-01-10 02:01:05.11	359.16	54.65	-29.5	-30.1	27.8	0.00e+00	0	25	0	2697986048	30	6471
2026-01-10 02:01:06.12	358.83	54.32	-29.5	-30.1	27.9	0.00e+00	0	25	0	2704277504	30	6498
2026-01-10 02:01:07.13	358.51	53.99	-29.6	-30.2	27.9	0.00e+00	0	25	0	2709520384	30	6591
2026-01-10 02:01:08.14	358.19	53.65	-29.3	-29.9	28.0	0.00e+00	0	25	0	2715811840	30	6330
2026-01-10 02:01:09.15	357.88	53.32	-29.1	-29.8	28.1	0.00e+00	0	25	0	2721054720	30	6267
2026-01-10 02:01:10.16	357.58	52.99	-29.0	-29.5	28.1	0.00e+00	0	25	0	2726297600	30	6084
2026-01-10 02:01:11.17	357.28	52.66	-28.8	-29.5	28.2	0.00e+00	0	25	0	2732589056	30	6059
2026-01-10 02:01:12.18	357.00	52.34	-28.7	-29.2	28.1	0.00e+00	0	25	0	2737831936	30	5892
2026-01-10 02:01:13.19	356.71	52.01	-28.5	-29.0	28.3	0.00e+00	0	25	0	2744123392	30	5744
2026-01-10 02:01:14.20	356.44	51.69	-28.7	-29.2	28.4	0.00e+00	0	25	0	2749366272	30	5855
2026-01-10 02:01:15.21	356.17	51.36	-28.7	-29.3	28.1	0.00e+00	0	25	0	2754609152	30	5901
2026-01-10 02:01:16.22	355.90	51.04	-28.8	-29.5	27.8	0.00e+00	0	25	0	2760900608	30	6070
2026-01-10 02:01:17.23	355.65	50.72	-28.8	-29.5	28.1	0.00e+00	0	25	0	2766143488	30	6092
2026-01-10 02:01:18.24	355.39	50.41	-28.9	-29.6	28.1	0.00e+00	0	25	0	2772434944	30	6122
2026-01-10 02:01:19.24	355.15	50.09	-28.8	-29.5	28.3	0.00e+00	0	25	0	2777677824	30	6090
2026-01-10 02:01:20.25	354.90	49.78	-28.8	-29.5	28.3	0.00e+00	0	25	0	2782920704	30	6093
2026-01-10 02:01:21.26	354.67	49.46	-28.6	-29.2	28.4	0.00e+00	0	25	0	2789212160	30	5835
2026-01-10 02:01:22.27	354.43	49.15	-28.5	-29.0	28.6	0.00e+00	0	25	0	2794455040	30	5728
2026-01-10 02:01:23.28	354.21	48.84	-28.3	-29.0	28.7	0.00e+00	0	25	0	2800746496	30	5727
2026-01-10 02:01:24.29	353.98	48.53	-28.7	-29.3	28.2	0.00e+00	0	25	0	2805989376	30	5907
2026-01-10 02:01:25.30	353.77	48.23	-28.8	-29.3	28.3	0.00e+00	0	25	0	2812280832	30	5943
2026-01-10 02:01:26.31	353.55	47.92	-28.6	-29.1	28.5	0.00e+00	0	25	0	2817523712	30	5798
2026-01-10 02:01:27.32	353.34	47.62	-28.3	-28.9	28.7	0.00e+00	0	25	0	2822766592	30	5631
2026-01-10 02:01:28.33	353.13	47.32	-28.3	-28.8	28.7	0.00e+00	0	25	0	2829058048	30	5604
2026-01-10 02:01:29.34	352.93	47.02	-28.4	-29.1	28.6	0.00e+00	0	25	0	2834300928	30	5785
2026-01-10 02:01:30.35	352.73	46.72	-28.4	-29.0	28.5	0.00e+00	0	25	0	2840592384	30	5707
2026-01-10 02:01:31.36	352.54	46.42	-28.3	-29.1	28.6	0.00e+00	0	25	0	2845835264	30	5767
2026-01-10 02:01:32.37	352.35	46.13	-28.2	-28.8	28.5	0.00e+00	0	25	0	2852126720	30	5586
2026-01-10 02:01:33.38	352.16	45.84	-28.1	-28.6	28.9	0.00e+00	0	25	0	2857369600	30	5488
2026-01-10 02:01:34.39	351.98	45.55	-28.0	-28.5	28.9	0.00e+00	0	25	0	2862612480	30	5428
2026-01-10 02:01:35.40	351.80	45.26	-28.0	-28.7	28.7	0.00e+00	0	25	0	2868903936	30	5506
2026-01-10 02:01:36.41	351.62	44.97	-28.1	-28.8	28.7	0.00e+00	0	25	0	2874146816	30	5593
2026-01-10 02:01:37.42	351.45	44.69	-28.2	-28.9	28.7	0.00e+00	0	25	0	2880438272	30	5684
2026-01-10 02:01:38.43	351.28	44.40	-28.4	-29.1	28.6	0.00e+00	0	25	0	2885681152	30	5768
2026-01-10 02:01:39.44	351.11	44.12	-28.2	-28.9	28.8	0.00e+00	0	25	0	2890924032	30	5664
2026-01-10 02:01:40.45	350.95	43.84	-28.2	-28.9	28.8	0.00e+00	0	25	0	2897215488	30	5642
2026-01-10 02:01:41.46	350.78	43.56	-27.9	-28.5	28.9	0.00e+00	0	25	0	2902458368	30	5406
2026-01-10 02:01:42.47	350.63	43.28	-27.9	-28.4	29.0	0.00e+00	0	25	0	2908749824	30	5371
2026-01-10 02:01:43.48	350.47	43.01	-27.8	-28.4	29.0	0.00e+00	0	25	0	2913992704	30	5318
2026-01-10 02:01:44.49	350.32	42.74	-27.8	-28.5	29.0	0.00e+00	0	25	0	2919235584	30	5422
2026-01-10 02:01:45.50	350.17	42.46	-27.8	-28.5	29.0	0.00e+00	0	25	0	2925527040	30	5423
2026-01-10 02:01:46.51	350.02	42.19	-27.9	-28.5	29.0	0.00e+00	0	25	0	2930769920	30	5439
2026-01-10 02:01:47.52	349.87	41.93	-28.0	-28.7	28.9	0.00e+00	0	25	0	2937061376	30	5540
2026-01-10 02:01:48.53	349.73	41.66	-28.1	-28.7	28.8	0.00e+00	0	25	0	2942304256	30	5515
2026-01-10 02:01:49.54	349.59	41.40	-28.2	-28.7	28.8	0.00e+00	0	25	0	2948595712	30	5540
2026-01-10 02:01:50.55	349.45	41.13	-27.9	-28.5	28.9	0.00e+00	0	25	0	2953838592	30	5405
2026-01-10 02:01:51.56	349.32	40.87	-28.2	-28.7	28.8	0.00e+00	0	25	0	2959081472	30	5535
2026-01-10 02:01:52.57	349.18	40.61	-28.0	-28.6	28.8	0.00e+00	0	25	0	2965372928	30	5443
2026-01-10 02:01:53.58	349.05	40.35	-28.0	-28.6	28.9	0.00e+00	0	25	0	2970615808	30	5450
2026-01-10 02:01:54.59	348.92	40.10	-28.0	-28.5	28.8	0.00e+00	0	25	0	2976907264	30	5402
2026-01-10 02:01:55.60	348.79	39.84	-28.0	-28.5	28.8	0.00e+00	0	25	0	2982150144	30	5437
2026-01-10 02:01:56.61	348.67	39.59	-27.8	-28.4	29.0	0.00e+00	0	25	0	2987393024	30	5326
2026-01-10 02:01:57.61	348.55	39.34	-27.8	-28.4	29.0	0.00e+00	0	25	0	2993684480	30	5363
2026-01-10 02:01:58.63	348.42	39.09	-27.8	-28.5	28.9	0.00e+00	0	25	0	2998927360	28	6073
2026-01-10 02:01:59.63	348.30	38.85	-27.7	-28.4	29.0	0.00e+00	0	25	0	3005218816	28	5997
2026-01-10 02:02:00.65	348.19	38.60	-27.7	-28.4	29.1	0.00e+00	0	25	0	3010461696	28	5966
2026-01-10 02:02:01.66	348.07	38.35	-27.6	-28.2	29.1	0.00e+00	0	25	0	3015704576	28	5842
2026-01-10 02:02:02.66	347.96	38.11	-27.8	-28.3	28.9	0.00e+00	0	25	0	3021996032	28	5951
2026-01-10 02:02:03.67	347.84	37.87	-27.9	-28.6	28.9	0.00e+00	0	25	0	3027238912	28	6143
2026-01-10 02:02:04.68	347.73	37.63	-27.5	-28.0	29.1	0.00e+00	0	25	0	3033530368	28	5755
2026-01-10 02:02:05.69	347.63	37.39	-27.7	-28.3	29.1	0.00e+00	0	25	0	3038773248	28	5959
2026-01-10 02:02:06.70	347.52	37.16	-27.4	-27.9	29.2	0.00e+00	0	25	0	3045064704	28	5693
2026-01-10 02:02:07.71	347.41	36.92	-27.5	-28.0	29.1	0.00e+00	0	25	0	3050307584	28	5737
2026-01-10 02:02:08.72	347.31	36.69	-27.6	-28.1	29.0	0.00e+00	0	25	0	3056599040	28	5826
2026-01-10 02:02:09.73	347.21	36.46	-27.7	-28.3	29.0	0.00e+00	0	25	0	3061841920	28	5908
2026-01-10 02:02:10.74	347.10	36.23	-27.8	-28.3	28.9	0.00e+00	0	25	0	3067084800	28	5945
2026-01-10 02:02:11.75	347.00	36.00	-27.8	-28.4	28.9	0.00e+00	0	25	0	3073376256	28	5972
2026-01-10 02:02:12.76	346.91	35.77	-27.9	-28.5	28.8	0.00e+00	0	25	0	3078619136	28	6073
2026-01-10 02:02:13.77	346.81	35.54	-28.0	-28.6	28.8	0.00e+00	0	25	0	3084910592	28	6108
2026-01-10 02:02:14.78	346.71	35.32	-27.8	-28.4	28.9	0.00e+00	0	25	0	3090153472	28	5993
2026-01-10 02:02:15.79	346.62	35.10	-27.8	-28.3	29.0	0.00e+00	0	25	0	3095396352	28	5946
2026-01-10 02:02:16.80	346.53	34.88	-27.6	-28.2	29.1	0.00e+00	0	25	0	3101687808	28	5862
2026-01-10 02:02:17.81	346.44	34.66	-27.5	-28.0	29.1	0.00e+00	0	25	0	3106930688	28	5749
2026-01-10 02:02:18.82	346.35	34.44	-27.4	-28.0	29.2	0.00e+00	0	25	0	3113222144	28	5712
2026-01-10 02:02:19.83	346.26	34.22	-27.5	-28.0	29.2	0.00e+00	0	25	0	3118465024	28	5735
2026-01-10 02:02:20.84	346.17	34.01	-27.4	-27.9	29.2	0.00e+00	0	25	0	3123707904	28	5672
2026-01-10 02:02:21.86	346.08	33.79	-27.6	-28.1	29.1	0.00e+00	0	25	0	3129999360	28	5779
2026-01-10 02:02:22.87	346.00	33.58	-27.6	-28.3	29.0	0.00e+00	0	25	0	3135242240	28	5924
2026-01-10 02:02:23.88	345.91	33.37	-27.7	-28.4	29.0	0.00e+00	0	25	0	3141533696	28	6005
2026-01-10 02:02:24.88	345.83	33.16	-27.7	-28.4	29.0	0.00e+00	0	25	0	3146776576	28	5984
2026-01-10 02:02:25.89	345.75	32.95	-27.8	-28.5	28.9	0.00e+00	0	25	0	3153068032	28	6075
2026-01-10 02:02:26.90	345.67	32.74	-28.0	-28.7	28.8	0.00e+00	0	25	0	3158310912	28	6177
2026-01-10 02:02:27.91	345.59	32.54	-28.1	-28.8	28.6	0.00e+00	0	25	0	3164602368	28	6271
2026-01-10 02:02:28.92	345.51	32.33	-28.2	-28.9	28.5	0.00e+00	0	25	0	3169845248	28	6338
2026-01-10 02:02:29.93	345.43	32.13	-28.3	-29.0	28.5	0.00e+00	0	25	0	3175088128	28	6445
2026-01-10 02:02:30.94	345.35	31.93	-28.3	-29.0	28.6	0.00e+00	0	25	0	3181379584	28	6411
2026-01-10 02:02:31.95	345.28	31.73	-28.4	-29.1	28.5	0.00e+00	0	25	0	3186622464	28	6519
2026-01-10 02:02:32.96	345.20	31.53	-28.5	-29.2	28.4	0.00e+00	0	25	0	3191865344	28	6572
2026-01-10 02:02:33.97	345.13	31.33	-28.5	-29.2	28.4	0.00e+00	0	25	0	3198156800	28	6560
2026-01-10 02:02:34.98	345.06	31.13	-28.5	-29.2	28.4	0.00e+00	0	25	0	3203399680	28	6606
2026-01-10 02:02:35.99	344.98	30.94	-28.5	-29.2	28.4	0.00e+00	0	25	0	3209691136	28	6615
2026-01-10 02:02:37.00	344.91	30.74	-28.5	-29.2	28.4	0.00e+00	0	25	0	3214934016	28	6607
2026-01-10 02:02:38.01	344.84	30.55	-28.5	-29.1	28.4	0.00e+00	0	25	0	3220176896	28	6474
2026-01-10 02:02:39.02	344.77	30.36	-28.5	-29.2	28.3	0.00e+00	0	25	0	3226468352	28	6611
2026-01-10 02:02:40.03	344.71	30.17	-28.4	-29.2	28.5	0.00e+00	0	25	0	3231711232	28	6540
2026-01-10 02:02:41.03	344.64	29.98	-28.4	-28.9	28.3	0.00e+00	0	25	0	3238002688	28	6382
2026-01-10 02:02:42.05	344.57	29.79	-28.4	-29.0	28.5	0.00e+00	0	25	0	3243245568	28	6427
2026-01-10 02:02:43.06	344.50	29.61	-28.5	-29.1	28.4	0.00e+00	0	25	0	3249537024	28	6465
2026-01-10 02:02:44.06	344.44	29.42	-28.2	-28.7	28.6	0.00e+00	0	25	0	3254779904	28	6231
2026-01-10 02:02:45.07	344.38	29.24	-28.2	-28.8	28.6	0.00e+00	0	25	0	3261071360	28	6253
2026-01-10 02:02:46.08	344.31	29.05	-28.2	-28.7	28.7	0.00e+00	0	25	0	3266314240	28	6237
2026-01-10 02:02:47.09	344.25	28.87	-28.1	-28.7	28.6	0.00e+00	0	25	0	3271557120	28	6176
2026-01-10 02:02:48.10	344.19	28.69	-28.1	-28.6	28.6	0.00e+00	0	25	0	3277848576	28	6162
2026-01-10 02:02:49.11	344.13	28.51	-28.1	-28.7	28.7	0.00e+00	0	25	0	3283091456	28	6174
2026-01-10 02:02:50.12	344.07	28.33	-28.1	-28.6	28.7	0.00e+00	0	25	0	3289382912	28	6162
2026-01-10 02:02:51.13	344.01	28.15	-28.1	-28.7	28.7	0.00e+00	0	25	0	3294625792	28	6184
2026-01-10 02:02:52.14	343.95	27.98	-28.2	-28.7	28.6	0.00e+00	0	25	0	3299868672	28	6228
2026-01-10 02:02:53.14	343.89	27.80	-28.2	-28.7	28.6	0.00e+00	0	25	0	3306160128	28	6234
2026-01-10 02:02:54.15	343.83	27.63	-28.2	-28.7	28.7	0.00e+00	0	25	0	3311403008	28	6231
2026-01-10 02:02:55.16	343.77	27.46	-28.2	-28.8	28.7	0.00e+00	0	25	0	3316645888	28	6249
2026-01-10 02:02:56.17	343.72	27.28	-28.3	-28.8	28.6	0.00e+00	0	25	0	3322937344	28	6300
2026-01-10 02:02:57.18	343.66	27.11	-28.3	-28.9	28.5	0.00e+00	0	25	0	3328180224	28	6328
2026-01-10 02:02:58.19	343.61	26.94	-28.5	-29.1	28.4	0.00e+00	0	25	0	3334471680	28	6467
2026-01-10 02:02:59.20	343.55	26.77	-28.4	-28.9	28.5	0.00e+00	0	25	0	3339714560	28	6379
2026-01-10 02:03:00.20	343.50	26.61	-28.5	-29.1	28.4	0.00e+00	0	25	0	3346006016	28	6488
2026-01-10 02:03:01.21	343.44	26.44	-28.4	-29.0	28.4	0.00e+00	0	25	0	3351248896	28	6425
2026-01-10 02:03:02.22	343.39	26.27	-28.7	-29.2	28.3	0.00e+00	0	25	0	3357540352	28	6612
2026-01-10 02:03:03.22	343.34	26.11	-28.6	-29.3	28.3	0.00e+00	0	25	0	3362783232	28	6659
2026-01-10 02:03:04.23	343.29	25.95	-28.6	-29.3	28.3	0.00e+00	0	25	0	3368026112	28	6666
2026-01-10 02:03:05.24	343.24	25.78	-28.5	-29.2	28.4	0.00e+00	0	25	0	3374317568	30	5846
2026-01-10 02:03:06.25	343.19	25.62	-28.6	-29.3	28.3	0.00e+00	0	25	0	3379560448	30	5945
2026-01-10 02:03:07.26	343.14	25.46	-28.7	-29.3	28.2	0.00e+00	0	25	0	3384803328	30	5921
2026-01-10 02:03:08.27	343.09	25.30	-28.5	-29.1	28.4	0.00e+00	0	25	0	3391094784	30	5784
2026-01-10 02:03:09.28	343.04	25.14	-28.7	-29.2	28.3	0.00e+00	0	25	0	3396337664	30	5873
2026-01-10 02:03:10.29	342.99	24.98	-28.6	-29.3	28.3	0.00e+00	0	25	0	3402629120	30	5908
2026-01-10 02:03:11.30	342.94	24.82	-28.7	-29.4	28.1	0.00e+00	0	25	0	3407872000	30	5986
2026-01-10 02:03:12.31	342.90	24.67	-28.6	-29.3	28.2	0.00e+00	0	25	0	3413114880	30	5928
2026-01-10 02:03:13.32	342.85	24.51	-28.8	-29.5	28.1	0.00e+00	0	25	0	3419406336	30	6044
2026-01-10 02:03:14.33	342.80	24.36	-28.8	-29.5	28.2	0.00e+00	0	25	0	3424649216	30	6040
2026-01-10 02:03:15.34	342.76	24.20	-29.0	-29.7	28.0	0.00e+00	0	25	0	3430940672	30	6218
2026-01-10 02:03:16.35	342.71	24.05	-29.0	-29.5	28.1	0.00e+00	0	25	0	3436183552	30	6079
2026-01-10 02:03:17.35	342.67	23.90	-29.1	-29.7	27.9	0.00e+00	0	25	0	3442475008	30	6182
2026-01-10 02:03:18.36	342.62	23.75	-29.1	-29.7	28.0	0.00e+00	0	25	0	3447717888	30	6186
2026-01-10 02:03:19.37	342.58	23.60	-29.2	-29.8	27.8	0.00e+00	0	25	0	3454009344	30	6272
2026-01-10 02:03:20.38	342.54	23.45	-29.2	-29.8	27.9	0.00e+00	0	25	0	3459252224	30	6280
2026-01-10 02:03:21.39	342.49	23.30	-29.4	-29.9	27.7	0.00e+00	0	25	0	3464495104	30	6374
2026-01-10 02:03:22.40	342.45	23.15	-29.3	-29.9	27.7	0.00e+00	0	25	0	3470786560	30	6353
2026-01-10 02:03:23.41	342.41	23.00	-29.5	-30.0	27.7	0.00e+00	0	25	0	3476029440	30	6461
2026-01-10 02:03:24.42	342.37	22.86	-29.4	-30.0	27.7	0.00e+00	0	25	0	3482320896	30	6413
2026-01-10 02:03:25.42	342.33	22.71	-29.3	-29.9	27.7	0.00e+00	0	25	0	3487563776	30	6361
2026-01-10 02:03:26.43	342.28	22.57	-29.6	-30.2	27.6	0.00e+00	0	25	0	3492806656	30	6544
2026-01-10 02:03:27.44	342.24	22.43	-29.4	-30.0	27.7	0.00e+00	0	25	0	3499098112	30	6416
2026-01-10 02:03:28.45	342.20	22.28	-29.4	-30.1	27.7	0.00e+00	0	25	0	3504340992	30	6506
2026-01-10 02:03:29.46	342.16	22.14	-29.5	-30.1	27.6	0.00e+00	0	25	0	3509583872	30	6473
2026-01-10 02:03:30.47	342.13	22.00	-29.4	-30.0	27.7	0.00e+00	0	25	0	3515875328	30	6406
2026-01-10 02:03:31.48	342.09	21.86	-29.4	-29.9	27.6	0.00e+00	0	25	0	3521118208	30	6363
2026-01-10 02:03:32.49	342.05	21.72	-29.5	-30.1	27.5	0.00e+00	0	25	0	3527409664	30	6469
2026-01-10 02:03:33.50	342.01	21.58	-29.5	-30.1	27.5	0.00e+00	0	25	0	3532652544	30	6469
2026-01-10 02:03:34.51	341.97	21.44	-29.4	-29.9	27.7	0.00e+00	0	25	0	3538944000	30	6375
2026-01-10 02:03:35.51	341.94	21.30	-29.5	-30.0	27.6	0.00e+00	0	25	0	3544186880	30	6446
2026-01-10 02:03:36.52	341.90	21.17	-29.4	-30.0	27.7	0.00e+00	0	25	0	3550478336	30	6405
2026-01-10 02:03:37.53	341.86	21.03	-29.5	-30.0	27.7	0.00e+00	0	25	0	3555721216	30	6428
2026-01-10 02:03:38.55	341.82	20.89	-29.5	-30.0	27.6	0.00e+00	0	25	0	3560964096	30	6435
2026-01-10 02:03:39.55	341.79	20.76	-29.5	-30.0	27.6	0.00e+00	0	25	0	3567255552	30	6453
2026-01-10 02:03:40.57	341.75	20.62	-29.5	-30.2	27.6	0.00e+00	0	25	0	3572498432	30	6560
2026-01-10 02:03:41.58	341.72	20.49	-29.8	-30.4	27.4	0.00e+00	0	25	0	3578789888	30	6695
2026-01-10 02:03:42.59	341.68	20.36	-29.6	-30.1	27.5	0.00e+00	0	25	0	3584032768	32	5822
2026-01-10 02:03:43.59	341.65	20.23	-29.5	-30.1	27.6	0.00e+00	0	25	0	3589275648	32	5791
2026-01-10 02:03:44.60	341.62	20.10	-29.5	-30.2	27.6	0.00e+00	0	25	0	3595567104	32	5862
2026-01-10 02:03:45.61	341.58	19.97	-29.5	-30.2	27.5	0.00e+00	0	25	0	3600809984	32	5887
2026-01-10 02:03:46.62	341.55	19.84	-29.5	-30.1	27.5	0.00e+00	0	25	0	3607101440	32	5781
