passes_logs/2026/01/10/R4.6S_Anadyr/R4.6S_Anadyr__20260110_113810_NOAA_20_JPSS-1_rec.log

#Pass ID: 20260110_113810_NOAA 20 (JPSS-1)
#Satellite: NOAA 20 (JPSS-1)
#Configuration: NOAA 20
#almurnet v.1.7.20251203
#Start time: 2026-01-10 11:38:11

#Version: 2.2.20231116
#Station: R4.6S_Anadyr
#Location: 177.4865 lon 64.73178 lat
#TLE: 1 43013U 17073A   26009.69119415  .00000109  00000+0  72598-4 0  9996
#TLE: 2 43013  98.7631 310.6868 0001678  46.7442 313.3874 14.19534878421981

#Time	Az	El	Level	Level2	SNR	BER	BlckErr	Temp	State	Recorded	gain1	gain2
2026-01-10 11:38:11.22	20.50	0.04	-47.9	-59.6	3.5	8.44e-01	0	27	0	0	60	34409
2026-01-10 11:38:12.23	20.59	0.08	-48.3	-63.6	3.6	1.51e+00	0	29	104	0	60	54709
2026-01-10 11:38:13.24	20.69	0.12	-48.4	-63.6	3.6	1.51e+00	0	29	104	0	60	54719
2026-01-10 11:38:14.25	20.78	0.16	-48.4	-63.6	3.6	1.51e+00	0	29	104	0	60	54630
2026-01-10 11:38:15.26	20.88	0.20	-48.2	-63.4	3.6	1.51e+00	0	29	104	0	60	53759
2026-01-10 11:38:16.27	20.98	0.24	-48.3	-63.5	3.6	1.51e+00	0	29	104	0	60	53949
2026-01-10 11:38:17.28	21.07	0.28	-48.2	-63.4	3.6	1.51e+00	0	29	104	0	60	53627
2026-01-10 11:38:18.29	21.17	0.32	-48.2	-63.4	3.6	1.51e+00	0	29	104	0	60	53180
2026-01-10 11:38:19.30	21.26	0.36	-48.2	-63.4	3.6	1.51e+00	0	29	104	0	60	53189
2026-01-10 11:38:20.31	21.36	0.40	-48.2	-63.3	3.6	1.51e+00	0	29	104	0	60	52994
2026-01-10 11:38:21.32	21.46	0.44	-48.1	-63.2	3.6	1.51e+00	0	29	104	0	60	52463
2026-01-10 11:38:22.33	21.55	0.48	-47.9	-63.1	3.6	1.51e+00	0	29	104	0	60	51703
2026-01-10 11:38:23.34	21.65	0.52	-47.9	-63.0	3.6	1.51e+00	0	29	104	0	60	51317
2026-01-10 11:38:24.35	21.75	0.57	-47.7	-62.9	3.6	1.51e+00	0	29	104	0	60	50647
2026-01-10 11:38:25.36	21.85	0.61	-47.6	-62.8	3.6	1.51e+00	0	29	104	0	60	49771
2026-01-10 11:38:26.37	21.95	0.65	-47.4	-62.6	3.6	1.51e+00	0	29	104	0	60	48482
2026-01-10 11:38:27.38	22.04	0.69	-47.0	-62.2	3.6	1.51e+00	0	29	104	0	60	46549
2026-01-10 11:38:28.39	22.14	0.73	-46.5	-61.7	3.6	1.51e+00	0	29	104	0	60	44188
2026-01-10 11:38:29.40	22.24	0.77	-46.5	-61.7	3.6	1.51e+00	0	29	104	0	60	43763
2026-01-10 11:38:30.41	22.34	0.81	-46.5	-61.7	3.6	1.51e+00	0	29	104	0	60	43786
2026-01-10 11:38:31.42	22.44	0.85	-46.5	-61.6	3.6	1.51e+00	0	29	104	0	60	43652
2026-01-10 11:38:32.42	22.54	0.89	-46.5	-61.6	3.6	1.51e+00	0	29	104	0	60	43667
2026-01-10 11:38:33.43	22.64	0.93	-46.5	-61.7	3.6	1.51e+00	0	29	104	0	60	43921
2026-01-10 11:38:34.44	22.74	0.97	-46.5	-61.6	3.6	1.51e+00	0	29	104	0	60	43575
2026-01-10 11:38:35.45	22.84	1.01	-46.5	-61.7	3.6	1.51e+00	0	29	104	0	60	43711
2026-01-10 11:38:36.46	22.94	1.05	-46.5	-61.6	3.6	1.51e+00	0	29	104	0	60	43313
2026-01-10 11:38:37.47	23.04	1.09	-46.5	-61.6	3.6	1.51e+00	0	29	104	0	60	43408
2026-01-10 11:38:38.48	23.14	1.14	-46.4	-61.6	3.6	1.51e+00	0	29	104	0	60	43396
2026-01-10 11:38:39.49	23.25	1.18	-46.5	-61.7	3.6	1.51e+00	0	29	104	0	60	43753
2026-01-10 11:38:40.50	23.35	1.22	-46.5	-61.6	3.6	1.51e+00	0	29	104	0	60	43448
2026-01-10 11:38:41.51	23.45	1.26	-46.5	-61.7	3.6	1.51e+00	0	29	104	0	60	43874
2026-01-10 11:38:42.52	23.55	1.30	-46.5	-61.6	3.6	1.51e+00	0	29	104	0	60	43572
2026-01-10 11:38:43.53	23.65	1.34	-46.5	-61.6	3.6	1.51e+00	0	29	104	0	60	43677
2026-01-10 11:38:44.54	23.76	1.38	-46.5	-61.6	3.6	1.51e+00	0	29	104	0	60	43602
2026-01-10 11:38:45.55	23.86	1.42	-46.5	-61.7	3.6	1.51e+00	0	29	104	0	60	43831
2026-01-10 11:38:46.56	23.96	1.46	-46.5	-61.6	3.6	1.51e+00	0	29	104	0	60	43413
2026-01-10 11:38:47.57	24.07	1.50	-46.5	-61.6	3.6	1.51e+00	0	29	104	0	60	43339
2026-01-10 11:38:48.58	24.17	1.54	-46.5	-61.6	3.6	1.51e+00	0	29	104	0	60	43508
2026-01-10 11:38:49.59	24.28	1.58	-46.4	-61.5	3.6	1.51e+00	0	29	104	0	60	43181
2026-01-10 11:38:50.60	24.38	1.62	-46.5	-61.6	3.6	1.51e+00	0	29	104	0	60	43605
2026-01-10 11:38:51.61	24.48	1.66	-46.5	-61.7	3.6	1.51e+00	0	29	104	0	60	43769
2026-01-10 11:38:52.62	24.59	1.70	-46.5	-61.6	3.6	1.51e+00	0	29	104	0	60	43442
2026-01-10 11:38:53.63	24.70	1.74	-46.5	-61.6	3.6	1.51e+00	0	29	104	0	60	43217
2026-01-10 11:38:54.64	24.80	1.78	-46.5	-61.6	3.6	1.51e+00	0	29	104	0	60	43216
2026-01-10 11:38:55.65	24.91	1.82	-46.4	-61.6	3.6	1.51e+00	0	29	104	0	60	43374
2026-01-10 11:38:56.66	25.01	1.86	-46.4	-61.6	3.6	1.51e+00	0	29	104	0	60	43437
2026-01-10 11:38:57.67	25.12	1.91	-46.4	-61.6	3.6	1.51e+00	0	29	104	0	60	43267
2026-01-10 11:38:58.68	25.23	1.95	-46.4	-61.6	3.6	1.51e+00	0	29	104	0	60	43403
2026-01-10 11:38:59.69	25.33	1.99	-46.4	-61.6	3.6	1.51e+00	0	29	104	0	60	43389
2026-01-10 11:39:00.70	25.44	2.03	-46.4	-61.6	3.6	1.51e+00	0	29	104	0	60	43611
2026-01-10 11:39:01.71	25.55	2.07	-46.4	-61.6	3.6	1.51e+00	0	29	104	0	60	43560
2026-01-10 11:39:02.72	25.66	2.11	-46.4	-61.6	3.6	1.51e+00	0	29	104	0	60	43515
2026-01-10 11:39:03.73	25.76	2.15	-46.4	-61.6	3.6	1.51e+00	0	29	104	0	60	43402
2026-01-10 11:39:04.74	25.87	2.19	-46.4	-61.6	3.6	1.51e+00	0	29	104	0	60	43488
2026-01-10 11:39:05.75	25.98	2.23	-46.4	-61.5	3.6	1.51e+00	0	29	104	0	60	43027
2026-01-10 11:39:06.76	26.09	2.27	-46.4	-61.4	3.5	1.51e+00	0	29	104	0	60	42543
2026-01-10 11:39:07.77	26.20	2.31	-46.4	-61.5	3.6	1.51e+00	0	29	104	0	60	42818
2026-01-10 11:39:08.78	26.31	2.35	-46.4	-61.5	3.6	1.51e+00	0	29	104	0	60	43049
2026-01-10 11:39:09.79	26.42	2.39	-46.4	-61.5	3.6	1.51e+00	0	29	104	0	60	43121
2026-01-10 11:39:10.80	26.53	2.43	-46.4	-61.5	3.6	1.51e+00	0	29	104	0	60	43041
2026-01-10 11:39:11.81	26.64	2.47	-46.4	-61.5	3.6	1.51e+00	0	29	104	0	60	43163
2026-01-10 11:39:12.82	26.75	2.51	-46.4	-61.5	3.6	1.51e+00	0	29	104	0	60	43058
2026-01-10 11:39:13.82	26.86	2.55	-46.4	-61.1	3.5	1.51e+00	0	29	104	0	60	41164
2026-01-10 11:39:14.83	26.97	2.59	-46.4	-60.2	3.6	1.51e+00	0	29	104	0	60	37095
2026-01-10 11:39:15.84	27.08	2.63	-46.4	-60.4	3.6	1.51e+00	0	29	104	0	60	37687
2026-01-10 11:39:16.85	27.19	2.67	-46.4	-60.9	3.6	1.51e+00	0	29	104	0	60	40045
2026-01-10 11:39:17.86	27.31	2.71	-46.2	-57.7	3.9	1.50e+00	0	29	104	0	60	27582
2026-01-10 11:39:18.87	27.42	2.75	-45.4	-51.7	8.6	4.39e-01	0	29	0	0	60	13908
2026-01-10 11:39:19.88	27.53	2.79	-43.9	-47.6	13.2	1.17e-02	0	29	0	2097152	60	8632
2026-01-10 11:39:20.89	27.64	2.83	-42.4	-45.0	15.6	7.00e-07	56	29	0	3145728	58	7197
2026-01-10 11:39:21.90	27.76	2.87	-41.5	-43.5	17.2	0.00e+00	92	29	0	5242880	56	6836
2026-01-10 11:39:22.91	27.87	2.91	-40.9	-42.8	17.8	0.00e+00	3	29	0	7340032	56	6248
2026-01-10 11:39:23.92	27.98	2.95	-41.2	-43.2	17.3	0.00e+00	92	29	0	9437184	56	6577
2026-01-10 11:39:24.94	28.10	2.99	-42.5	-45.1	15.4	0.00e+00	56	29	0	11534336	56	8154
2026-01-10 11:39:25.95	28.21	3.03	-43.9	-47.7	12.6	0.00e+00	25	29	0	13631488	58	9819
2026-01-10 11:39:26.96	28.33	3.07	-41.9	-44.1	16.6	0.00e+00	55	29	0	14680064	58	6500
2026-01-10 11:39:27.96	28.44	3.10	-40.5	-42.2	18.4	0.00e+00	57	29	0	16777216	54	6572
2026-01-10 11:39:28.98	28.56	3.14	-46.4	-60.5	3.6	3.87e-04	0	29	104	17825792	60	38361
2026-01-10 11:39:29.99	28.67	3.18	-46.2	-59.1	3.7	1.50e+00	0	29	104	17825792	60	32562
2026-01-10 11:39:31.00	28.79	3.22	-43.1	-45.9	14.4	3.48e-04	92	29	0	17825792	56	8967
2026-01-10 11:39:32.01	28.91	3.26	-40.1	-41.6	19.1	0.00e+00	2	29	0	19922944	54	6170
2026-01-10 11:39:33.02	29.02	3.30	-39.7	-41.2	19.5	0.00e+00	90	29	0	22020096	52	6577
2026-01-10 11:39:34.03	29.14	3.34	-39.9	-41.3	19.4	0.00e+00	25	29	0	24117248	52	6674
2026-01-10 11:39:35.04	29.26	3.38	-39.8	-41.3	19.4	0.00e+00	0	29	0	25165824	52	6667
2026-01-10 11:39:36.05	29.37	3.42	-39.7	-41.2	19.6	0.00e+00	2	29	0	27262976	52	6545
2026-01-10 11:39:37.06	29.49	3.46	-39.5	-40.9	19.8	0.00e+00	2	29	0	29360128	52	6374
2026-01-10 11:39:38.07	29.61	3.50	-39.5	-40.9	19.8	0.00e+00	91	29	0	31457280	52	6378
2026-01-10 11:39:39.08	29.73	3.54	-39.6	-41.0	19.7	0.00e+00	0	29	0	33554432	52	6411
2026-01-10 11:39:40.08	29.84	3.58	-39.6	-41.0	19.7	0.00e+00	90	29	0	34603008	52	6448
2026-01-10 11:39:41.09	29.96	3.62	-39.7	-41.1	19.7	0.00e+00	0	29	0	36700160	52	6507
2026-01-10 11:39:42.10	30.08	3.65	-39.7	-41.2	19.6	0.00e+00	57	29	0	38797312	52	6545
2026-01-10 11:39:43.11	30.20	3.69	-39.7	-41.1	19.7	0.00e+00	49	29	0	40894464	52	6489
2026-01-10 11:39:44.12	30.32	3.73	-39.7	-41.1	19.6	0.00e+00	58	29	0	42991616	52	6539
2026-01-10 11:39:45.13	30.44	3.77	-39.5	-40.9	19.8	0.00e+00	90	29	0	44040192	52	6374
2026-01-10 11:39:46.14	30.56	3.81	-39.4	-40.8	20.0	0.00e+00	0	29	0	46137344	52	6261
2026-01-10 11:39:47.15	30.68	3.85	-39.5	-40.9	20.0	0.00e+00	92	29	0	48234496	52	6332
2026-01-10 11:39:48.16	30.80	3.89	-39.5	-40.8	20.0	0.00e+00	57	29	0	50331648	52	6306
2026-01-10 11:39:49.17	30.93	3.93	-39.4	-40.7	20.1	0.00e+00	23	29	0	52428800	52	6222
2026-01-10 11:39:50.18	31.05	3.97	-39.5	-40.8	20.1	0.00e+00	24	29	0	53477376	52	6294
2026-01-10 11:39:51.19	31.17	4.00	-39.3	-40.6	20.3	0.00e+00	23	29	0	55574528	52	6117
2026-01-10 11:39:52.20	31.29	4.04	-39.4	-40.8	20.1	0.00e+00	89	29	0	57671680	52	6264
2026-01-10 11:39:53.21	31.41	4.08	-39.3	-40.6	20.2	0.00e+00	0	29	0	59768832	52	6161
2026-01-10 11:39:54.22	31.54	4.12	-39.2	-40.5	20.3	0.00e+00	91	29	0	61865984	52	6087
2026-01-10 11:39:55.22	31.66	4.16	-39.3	-40.7	20.2	0.00e+00	0	29	0	62914560	52	6175
2026-01-10 11:39:56.23	31.78	4.20	-39.3	-40.6	20.3	0.00e+00	92	29	0	65011712	52	6123
2026-01-10 11:39:57.24	31.91	4.23	-39.2	-40.5	20.3	0.00e+00	0	29	0	67108864	52	6100
2026-01-10 11:39:58.25	32.03	4.27	-39.3	-40.6	20.3	0.00e+00	0	29	0	69206016	52	6124
2026-01-10 11:39:59.26	32.15	4.31	-39.0	-40.3	20.6	0.00e+00	0	29	0	71303168	52	5933
2026-01-10 11:40:00.27	32.28	4.35	-39.1	-40.4	20.5	0.00e+00	0	29	0	72351744	52	5975
2026-01-10 11:40:01.28	32.40	4.39	-39.2	-40.5	20.4	0.00e+00	88	29	0	74448896	52	6047
2026-01-10 11:40:02.29	32.53	4.42	-39.1	-40.3	20.5	0.00e+00	0	29	0	76546048	52	5956
2026-01-10 11:40:03.31	32.66	4.46	-39.3	-40.6	20.3	0.00e+00	17	29	0	78643200	52	6124
2026-01-10 11:40:04.32	32.78	4.50	-39.1	-40.4	20.5	0.00e+00	56	29	0	80740352	52	5978
2026-01-10 11:40:05.33	32.91	4.54	-39.2	-40.5	20.3	0.00e+00	57	29	0	82837504	52	6088
2026-01-10 11:40:06.34	33.03	4.58	-39.2	-40.5	20.4	0.00e+00	55	29	0	83886080	52	6097
2026-01-10 11:40:07.35	33.16	4.61	-39.2	-40.5	20.3	0.00e+00	56	29	0	85983232	52	6081
2026-01-10 11:40:08.36	33.29	4.65	-39.4	-40.7	20.2	0.00e+00	92	29	0	88080384	52	6208
2026-01-10 11:40:09.37	33.42	4.69	-39.4	-40.7	20.2	0.00e+00	51	29	0	90177536	52	6197
2026-01-10 11:40:10.38	33.54	4.73	-39.4	-40.7	20.2	0.00e+00	90	29	0	92274688	52	6210
2026-01-10 11:40:11.39	33.67	4.77	-39.4	-40.7	20.2	0.00e+00	0	29	0	93323264	52	6233
2026-01-10 11:40:12.40	33.80	4.80	-39.5	-40.9	20.1	0.00e+00	26	29	0	95420416	52	6323
2026-01-10 11:40:13.41	33.93	4.84	-39.5	-40.9	20.1	0.00e+00	23	29	0	97517568	52	6347
2026-01-10 11:40:14.42	34.06	4.88	-39.4	-40.7	20.3	0.00e+00	26	29	0	99614720	52	6201
2026-01-10 11:40:15.43	34.19	4.91	-39.5	-40.8	20.2	0.00e+00	57	29	0	101711872	52	6263
2026-01-10 11:40:16.44	34.32	4.95	-39.5	-40.8	20.2	0.00e+00	5	29	0	102760448	52	6268
2026-01-10 11:40:17.45	34.45	4.99	-39.6	-40.9	20.1	0.00e+00	91	29	0	104857600	52	6362
2026-01-10 11:40:18.46	34.58	5.03	-39.6	-40.9	20.1	0.00e+00	5	29	0	106954752	52	6370
2026-01-10 11:40:19.47	34.71	5.06	-39.7	-41.0	20.0	0.00e+00	5	29	0	109051904	52	6439
2026-01-10 11:40:20.48	34.84	5.10	-39.5	-40.9	20.2	0.00e+00	6	29	0	111149056	52	6318
2026-01-10 11:40:21.48	34.97	5.14	-39.5	-40.9	20.2	0.00e+00	0	29	0	112197632	52	6339
2026-01-10 11:40:22.49	35.10	5.17	-39.6	-40.9	20.2	0.00e+00	0	28	0	114294784	52	6341
2026-01-10 11:40:23.50	35.23	5.21	-39.6	-41.0	20.1	0.00e+00	55	29	0	116391936	52	6405
2026-01-10 11:40:24.51	35.37	5.25	-39.6	-41.0	20.0	0.00e+00	92	29	0	118489088	52	6412
2026-01-10 11:40:25.52	35.50	5.28	-39.6	-41.0	20.1	0.00e+00	5	29	0	120586240	52	6398
2026-01-10 11:40:26.53	35.63	5.32	-39.6	-40.9	20.1	0.00e+00	91	29	0	121634816	52	6386
2026-01-10 11:40:27.54	35.76	5.36	-39.6	-40.9	20.1	0.00e+00	37	28	0	123731968	52	6384
2026-01-10 11:40:28.55	35.90	5.39	-39.6	-40.9	20.2	0.00e+00	30	29	0	125829120	52	6386
2026-01-10 11:40:29.56	36.03	5.43	-39.4	-40.7	20.4	0.00e+00	31	29	0	127926272	52	6201
2026-01-10 11:40:30.57	36.17	5.46	-39.4	-40.7	20.3	0.00e+00	56	29	0	130023424	52	6217
2026-01-10 11:40:31.58	36.30	5.50	-39.5	-40.8	20.3	0.00e+00	90	29	0	131072000	52	6268
2026-01-10 11:40:32.59	36.44	5.54	-39.4	-40.7	20.4	0.00e+00	28	29	0	133169152	52	6183
2026-01-10 11:40:33.60	36.57	5.57	-39.5	-40.8	20.2	0.00e+00	91	29	0	135266304	52	6256
2026-01-10 11:40:34.61	36.71	5.61	-39.4	-40.7	20.4	0.00e+00	7	29	0	137363456	52	6207
2026-01-10 11:40:35.62	36.84	5.64	-39.4	-40.7	20.4	0.00e+00	31	29	0	139460608	52	6219
2026-01-10 11:40:36.63	36.98	5.68	-39.4	-40.7	20.4	0.00e+00	6	29	0	140509184	52	6227
2026-01-10 11:40:37.63	37.11	5.72	-39.3	-40.6	20.5	0.00e+00	27	28	0	142606336	52	6137
2026-01-10 11:40:38.64	37.25	5.75	-39.3	-40.6	20.4	0.00e+00	23	29	0	144703488	52	6147
2026-01-10 11:40:39.66	37.39	5.79	-39.2	-40.5	20.6	0.00e+00	8	29	0	146800640	52	6047
2026-01-10 11:40:40.67	37.53	5.82	-39.2	-40.5	20.5	0.00e+00	91	28	0	148897792	52	6057
2026-01-10 11:40:41.68	37.66	5.86	-39.3	-40.6	20.5	0.00e+00	7	28	0	150994944	52	6136
2026-01-10 11:40:42.69	37.80	5.89	-39.2	-40.5	20.6	0.00e+00	58	29	0	152043520	52	6060
2026-01-10 11:40:43.70	37.94	5.93	-39.3	-40.6	20.5	0.00e+00	57	28	0	154140672	52	6146
2026-01-10 11:40:44.71	38.08	5.96	-39.3	-40.5	20.6	0.00e+00	57	28	0	156237824	52	6101
2026-01-10 11:40:45.72	38.22	6.00	-39.2	-40.4	20.7	0.00e+00	0	28	0	158334976	52	6014
2026-01-10 11:40:46.73	38.36	6.03	-39.2	-40.4	20.7	0.00e+00	0	29	0	160432128	52	6026
2026-01-10 11:40:47.74	38.50	6.07	-39.2	-40.4	20.7	0.00e+00	92	28	0	161480704	52	6021
2026-01-10 11:40:48.75	38.64	6.10	-39.2	-40.5	20.7	0.00e+00	23	28	0	163577856	52	6043
2026-01-10 11:40:49.76	38.78	6.14	-39.4	-40.7	20.5	0.00e+00	88	28	0	165675008	52	6227
2026-01-10 11:40:50.77	38.92	6.17	-39.1	-40.3	20.9	0.00e+00	58	28	0	167772160	52	5909
2026-01-10 11:40:51.78	39.06	6.20	-39.1	-40.3	20.8	0.00e+00	24	28	0	169869312	52	5964
2026-01-10 11:40:52.79	39.20	6.24	-39.0	-40.2	20.8	0.00e+00	25	28	0	170917888	52	5882
2026-01-10 11:40:53.80	39.34	6.27	-39.1	-40.3	20.8	0.00e+00	23	28	0	173015040	52	5960
2026-01-10 11:40:54.81	39.48	6.31	-39.0	-40.2	20.9	0.00e+00	55	28	0	175112192	52	5841
2026-01-10 11:40:55.81	39.62	6.34	-39.1	-40.3	20.8	0.00e+00	24	28	0	177209344	52	5916
2026-01-10 11:40:56.83	39.77	6.37	-39.2	-40.4	20.8	0.00e+00	92	28	0	179306496	52	6020
2026-01-10 11:40:57.84	39.91	6.41	-39.2	-40.4	20.6	0.00e+00	2	28	0	180355072	52	6025
2026-01-10 11:40:58.85	40.05	6.44	-39.2	-40.4	20.7	0.00e+00	0	28	0	182452224	52	6026
2026-01-10 11:40:59.86	40.20	6.48	-39.3	-40.6	20.5	0.00e+00	0	28	0	184549376	52	6139
2026-01-10 11:41:00.87	40.34	6.51	-39.4	-40.7	20.5	0.00e+00	0	28	0	186646528	52	6180
2026-01-10 11:41:01.88	40.49	6.54	-39.4	-40.7	20.5	0.00e+00	12	28	0	188743680	52	6201
2026-01-10 11:41:02.89	40.63	6.58	-39.4	-40.7	20.4	0.00e+00	58	28	0	190840832	52	6190
2026-01-10 11:41:03.90	40.77	6.61	-39.5	-40.8	20.4	0.00e+00	92	28	0	191889408	52	6282
2026-01-10 11:41:04.91	40.92	6.64	-39.4	-40.7	20.5	0.00e+00	0	28	0	193986560	52	6229
2026-01-10 11:41:05.92	41.07	6.67	-39.4	-40.6	20.6	0.00e+00	43	28	0	196083712	52	6154
2026-01-10 11:41:06.93	41.21	6.71	-39.3	-40.5	20.8	0.00e+00	5	28	0	198180864	52	6058
2026-01-10 11:41:07.94	41.36	6.74	-39.3	-40.6	20.6	0.00e+00	56	28	0	200278016	52	6106
2026-01-10 11:41:08.94	41.50	6.77	-39.3	-40.5	20.7	0.00e+00	49	28	0	201326592	52	6094
2026-01-10 11:41:09.95	41.65	6.80	-39.3	-40.6	20.7	0.00e+00	24	28	0	203423744	52	6112
2026-01-10 11:41:10.96	41.80	6.84	-39.4	-40.7	20.6	0.00e+00	92	28	0	205520896	52	6179
2026-01-10 11:41:11.97	41.94	6.87	-39.4	-40.6	20.6	0.00e+00	23	28	0	207618048	52	6153
2026-01-10 11:41:12.98	42.09	6.90	-39.5	-40.8	20.4	0.00e+00	90	28	0	208666624	52	6251
2026-01-10 11:41:13.99	42.24	6.93	-39.4	-40.6	20.6	0.00e+00	2	28	0	210763776	52	6158
2026-01-10 11:41:15.00	42.39	6.96	-39.4	-40.6	20.6	0.00e+00	0	28	0	212860928	52	6156
2026-01-10 11:41:16.01	42.53	7.00	-39.4	-40.6	20.6	0.00e+00	0	28	0	214958080	52	6162
2026-01-10 11:41:17.02	42.68	7.03	-39.4	-40.7	20.6	0.00e+00	0	28	0	217055232	52	6188
2026-01-10 11:41:18.03	42.83	7.06	-39.4	-40.6	20.5	0.00e+00	43	28	0	219152384	52	6155
2026-01-10 11:41:19.04	42.98	7.09	-39.5	-40.7	20.5	0.00e+00	0	28	0	220200960	52	6239
2026-01-10 11:41:20.05	43.13	7.12	-39.5	-40.8	20.5	0.00e+00	92	28	0	222298112	52	6272
2026-01-10 11:41:21.06	43.28	7.15	-39.6	-40.9	20.4	0.00e+00	2	28	0	224395264	52	6386
2026-01-10 11:41:22.07	43.43	7.18	-39.9	-41.3	20.0	0.00e+00	22	28	0	226492416	52	6647
2026-01-10 11:41:23.08	43.58	7.22	-39.6	-40.9	20.4	0.00e+00	0	28	0	228589568	52	6371
2026-01-10 11:41:24.09	43.73	7.25	-39.8	-41.1	20.1	0.00e+00	57	28	0	229638144	52	6517
2026-01-10 11:41:25.10	43.89	7.28	-39.7	-41.0	20.3	0.00e+00	58	28	0	231735296	52	6417
2026-01-10 11:41:26.11	44.04	7.31	-39.8	-41.1	20.1	0.00e+00	0	28	0	233832448	52	6533
2026-01-10 11:41:27.12	44.19	7.34	-39.8	-41.1	20.2	0.00e+00	92	28	0	235929600	52	6527
2026-01-10 11:41:28.13	44.34	7.37	-39.7	-41.0	20.3	0.00e+00	57	28	0	238026752	52	6463
2026-01-10 11:41:29.14	44.49	7.40	-39.8	-41.1	20.2	0.00e+00	63	28	0	239075328	52	6528
2026-01-10 11:41:30.15	44.65	7.43	-39.7	-41.0	20.4	0.00e+00	0	28	0	241172480	52	6396
2026-01-10 11:41:31.16	44.80	7.46	-39.6	-40.9	20.4	0.00e+00	0	28	0	243269632	52	6350
2026-01-10 11:41:32.17	44.95	7.49	-39.7	-41.0	20.4	0.00e+00	42	28	0	245366784	52	6407
2026-01-10 11:41:33.19	45.11	7.52	-39.7	-41.0	20.4	0.00e+00	0	28	0	247463936	52	6395
2026-01-10 11:41:34.20	45.26	7.55	-39.6	-40.9	20.4	0.00e+00	92	28	0	248512512	52	6376
2026-01-10 11:41:35.21	45.42	7.57	-39.6	-40.9	20.5	0.00e+00	24	28	0	250609664	52	6329
2026-01-10 11:41:36.22	45.57	7.60	-39.5	-40.8	20.5	0.00e+00	91	28	0	252706816	52	6268
2026-01-10 11:41:37.23	45.73	7.63	-39.6	-40.8	20.4	0.00e+00	2	28	0	254803968	52	6314
2026-01-10 11:41:38.24	45.88	7.66	-39.5	-40.8	20.4	0.00e+00	2	28	0	256901120	52	6284
2026-01-10 11:41:39.25	46.04	7.69	-39.6	-40.9	20.5	0.00e+00	0	28	0	258998272	52	6325
2026-01-10 11:41:40.26	46.19	7.72	-39.7	-41.0	20.4	0.00e+00	0	28	0	260046848	52	6392
2026-01-10 11:41:41.27	46.35	7.75	-39.7	-41.0	20.4	0.00e+00	92	28	0	262144000	52	6458
2026-01-10 11:41:42.28	46.51	7.78	-39.4	-40.6	20.7	0.00e+00	0	28	0	264241152	52	6173
2026-01-10 11:41:43.29	46.66	7.80	-39.4	-40.7	20.6	0.00e+00	92	28	0	266338304	52	6195
2026-01-10 11:41:44.30	46.82	7.83	-39.5	-40.8	20.5	0.00e+00	0	28	0	268435456	52	6255
2026-01-10 11:41:45.31	46.98	7.86	-39.5	-40.7	20.7	0.00e+00	0	28	0	269484032	52	6222
2026-01-10 11:41:46.32	47.14	7.89	-39.6	-40.9	20.6	0.00e+00	0	28	0	271581184	52	6322
2026-01-10 11:41:47.33	47.29	7.91	-39.5	-40.8	20.7	0.00e+00	0	28	0	273678336	52	6247
2026-01-10 11:41:48.34	47.45	7.94	-39.6	-40.8	20.6	0.00e+00	0	28	0	275775488	52	6297
2026-01-10 11:41:49.35	47.61	7.97	-39.5	-40.8	20.6	0.00e+00	50	28	0	277872640	52	6279
2026-01-10 11:41:50.36	47.77	8.00	-39.5	-40.8	20.6	0.00e+00	92	28	0	278921216	52	6279
2026-01-10 11:41:51.37	47.93	8.02	-39.7	-40.9	20.5	0.00e+00	31	28	0	281018368	52	6374
2026-01-10 11:41:52.38	48.09	8.05	-39.7	-41.0	20.3	0.00e+00	76	28	0	283115520	52	6456
2026-01-10 11:41:53.39	48.25	8.08	-39.5	-40.8	20.6	0.00e+00	5	28	0	285212672	52	6268
2026-01-10 11:41:54.40	48.41	8.10	-39.5	-40.7	20.7	0.00e+00	0	28	0	287309824	52	6213
2026-01-10 11:41:55.41	48.57	8.13	-39.6	-40.8	20.5	0.00e+00	0	28	0	288358400	52	6305
2026-01-10 11:41:56.42	48.73	8.15	-39.5	-40.7	20.1	0.00e+00	5	28	0	290455552	52	6239
2026-01-10 11:41:57.42	48.89	8.18	-39.3	-40.6	20.8	0.00e+00	92	28	0	292552704	52	6113
2026-01-10 11:41:58.44	49.05	8.21	-39.3	-40.5	20.8	0.00e+00	0	28	0	294649856	52	6057
2026-01-10 11:41:59.45	49.21	8.23	-39.3	-40.5	20.8	0.00e+00	90	28	0	296747008	52	6064
2026-01-10 11:42:00.46	49.37	8.26	-39.3	-40.6	20.8	0.00e+00	0	28	0	297795584	52	6111
2026-01-10 11:42:01.47	49.53	8.28	-39.3	-40.5	20.9	0.00e+00	7	28	0	299892736	52	6074
2026-01-10 11:42:02.48	49.70	8.31	-39.4	-40.6	20.7	0.00e+00	6	28	0	301989888	52	6168
2026-01-10 11:42:03.49	49.86	8.33	-39.5	-40.8	20.6	0.00e+00	56	28	0	304087040	52	6250
2026-01-10 11:42:04.50	50.02	8.36	-39.5	-40.7	20.7	0.00e+00	92	28	0	306184192	52	6222
2026-01-10 11:42:05.51	50.18	8.38	-39.5	-40.7	20.7	0.00e+00	57	28	0	307232768	52	6231
2026-01-10 11:42:06.52	50.35	8.40	-39.5	-40.8	20.6	0.00e+00	92	28	0	309329920	52	6284
2026-01-10 11:42:07.53	50.51	8.43	-39.5	-40.7	20.6	0.00e+00	56	28	0	311427072	52	6212
2026-01-10 11:42:08.53	50.67	8.45	-39.4	-40.7	20.8	0.00e+00	29	28	0	313524224	52	6198
2026-01-10 11:42:09.54	50.84	8.48	-39.3	-40.6	20.8	0.00e+00	0	28	0	315621376	52	6120
2026-01-10 11:42:10.55	51.00	8.50	-39.4	-40.6	20.8	0.00e+00	57	28	0	316669952	52	6153
2026-01-10 11:42:11.56	51.17	8.52	-39.2	-40.4	21.0	0.00e+00	0	28	0	318767104	52	6012
2026-01-10 11:42:12.57	51.33	8.55	-39.4	-40.6	20.9	0.00e+00	29	28	0	320864256	52	6125
2026-01-10 11:42:13.58	51.50	8.57	-39.2	-40.4	20.9	0.00e+00	92	28	0	322961408	52	6026
2026-01-10 11:42:14.59	51.66	8.59	-39.3	-40.5	20.9	0.00e+00	31	28	0	325058560	52	6086
2026-01-10 11:42:15.60	51.83	8.61	-39.3	-40.5	20.9	0.00e+00	90	28	0	327155712	52	6046
2026-01-10 11:42:16.61	51.99	8.64	-39.4	-40.6	20.8	0.00e+00	6	28	0	328204288	52	6146
2026-01-10 11:42:17.62	52.16	8.66	-39.4	-40.7	20.8	0.00e+00	0	28	0	330301440	52	6191
2026-01-10 11:42:18.63	52.32	8.68	-39.3	-40.5	20.8	0.00e+00	34	28	0	332398592	52	6098
2026-01-10 11:42:19.64	52.49	8.70	-39.3	-40.5	21.0	0.00e+00	7	28	0	334495744	52	6089
2026-01-10 11:42:20.65	52.66	8.73	-39.2	-40.4	20.9	0.00e+00	92	28	0	336592896	52	6019
2026-01-10 11:42:21.67	52.83	8.75	-39.2	-40.4	21.0	0.00e+00	0	28	0	337641472	52	6025
2026-01-10 11:42:22.68	52.99	8.77	-39.3	-40.5	20.9	0.00e+00	90	28	0	339738624	52	6055
2026-01-10 11:42:23.68	53.16	8.79	-39.3	-40.5	21.0	0.00e+00	6	28	0	341835776	52	6075
2026-01-10 11:42:24.69	53.33	8.81	-39.2	-40.4	21.1	0.00e+00	0	28	0	343932928	52	5992
2026-01-10 11:42:25.70	53.49	8.83	-39.2	-40.4	21.0	0.00e+00	0	28	0	346030080	52	6031
2026-01-10 11:42:26.71	53.66	8.85	-39.3	-40.5	21.0	0.00e+00	0	28	0	347078656	52	6042
2026-01-10 11:42:27.72	53.83	8.87	-39.3	-40.5	21.1	0.00e+00	41	28	0	349175808	52	6036
2026-01-10 11:42:28.73	54.00	8.89	-39.2	-40.4	21.1	0.00e+00	56	28	0	351272960	52	6004
2026-01-10 11:42:29.74	54.17	8.91	-39.3	-40.5	21.0	0.00e+00	92	28	0	353370112	52	6053
2026-01-10 11:42:30.75	54.34	8.93	-39.3	-40.5	20.8	0.00e+00	24	28	0	355467264	52	6085
2026-01-10 11:42:31.76	54.51	8.95	-39.2	-40.4	20.9	0.00e+00	58	28	0	356515840	52	5987
2026-01-10 11:42:32.77	54.68	8.97	-39.2	-40.4	21.1	0.00e+00	23	28	0	358612992	52	5983
2026-01-10 11:42:33.78	54.85	8.99	-39.2	-40.4	21.1	0.00e+00	57	28	0	360710144	52	5971
2026-01-10 11:42:34.79	55.02	9.01	-39.2	-40.4	21.0	0.00e+00	89	28	0	362807296	52	5982
2026-01-10 11:42:35.80	55.19	9.03	-39.3	-40.5	21.0	0.00e+00	26	28	0	364904448	52	6038
2026-01-10 11:42:36.81	55.36	9.05	-39.4	-40.7	20.9	0.00e+00	92	28	0	365953024	52	6182
2026-01-10 11:42:37.82	55.53	9.07	-39.4	-40.6	20.9	0.00e+00	24	28	0	368050176	52	6148
2026-01-10 11:42:38.83	55.70	9.08	-39.7	-40.9	20.8	0.00e+00	92	28	0	370147328	52	6364
2026-01-10 11:42:39.84	55.87	9.10	-39.2	-40.4	21.1	0.00e+00	0	28	0	372244480	52	6019
2026-01-10 11:42:40.85	56.04	9.12	-39.3	-40.5	21.0	0.00e+00	0	28	0	374341632	52	6043
2026-01-10 11:42:41.86	56.21	9.14	-39.2	-40.4	21.1	0.00e+00	0	28	0	375390208	52	6013
2026-01-10 11:42:42.87	56.38	9.15	-39.3	-40.6	20.9	0.00e+00	0	28	0	377487360	52	6109
2026-01-10 11:42:43.88	56.56	9.17	-39.4	-40.7	20.8	0.00e+00	92	28	0	379584512	52	6175
2026-01-10 11:42:44.89	56.73	9.19	-39.4	-40.6	20.8	0.00e+00	0	28	0	381681664	52	6164
2026-01-10 11:42:45.90	56.90	9.21	-39.5	-40.8	20.7	0.00e+00	92	28	0	383778816	52	6271
2026-01-10 11:42:46.91	57.07	9.22	-39.5	-40.8	20.7	0.00e+00	52	28	0	384827392	52	6273
2026-01-10 11:42:47.92	57.25	9.24	-39.4	-40.7	20.8	0.00e+00	0	28	0	386924544	52	6195
2026-01-10 11:42:48.93	57.42	9.25	-39.4	-40.6	20.8	0.00e+00	47	28	0	389021696	52	6166
2026-01-10 11:42:49.94	57.59	9.27	-39.5	-40.8	20.8	0.00e+00	53	28	0	391118848	52	6258
2026-01-10 11:42:50.95	57.76	9.29	-39.4	-40.6	20.8	0.00e+00	76	28	0	393216000	52	6136
2026-01-10 11:42:51.96	57.94	9.30	-39.4	-40.7	20.8	0.00e+00	51	28	0	395313152	52	6180
2026-01-10 11:42:52.97	58.11	9.32	-39.4	-40.7	20.7	0.00e+00	92	28	0	396361728	52	6196
2026-01-10 11:42:53.98	58.28	9.33	-39.4	-40.6	20.8	0.00e+00	56	28	0	398458880	52	6173
2026-01-10 11:42:54.99	58.46	9.35	-39.6	-40.9	20.6	0.00e+00	23	28	0	400556032	52	6340
2026-01-10 11:42:56.00	58.63	9.36	-39.6	-40.9	20.5	0.00e+00	0	28	0	402653184	52	6342
2026-01-10 11:42:57.01	58.81	9.38	-39.7	-41.0	20.5	0.00e+00	2	28	0	404750336	52	6411
2026-01-10 11:42:58.02	58.98	9.39	-39.7	-41.0	20.5	0.00e+00	39	28	0	405798912	52	6419
2026-01-10 11:42:59.03	59.16	9.40	-39.9	-41.2	20.4	0.00e+00	0	28	0	407896064	52	6571
2026-01-10 11:43:00.04	59.33	9.42	-40.0	-41.3	20.2	0.00e+00	90	28	0	409993216	52	6691
2026-01-10 11:43:01.05	59.51	9.43	-40.2	-41.5	20.1	0.00e+00	2	28	0	412090368	52	6832
2026-01-10 11:43:02.06	59.68	9.44	-40.1	-41.5	20.1	0.00e+00	92	28	0	414187520	52	6786
2026-01-10 11:43:03.07	59.86	9.46	-40.2	-41.6	20.0	0.00e+00	0	28	0	415236096	52	6900
2026-01-10 11:43:04.08	60.03	9.47	-40.2	-41.6	19.8	0.00e+00	2	28	0	417333248	52	6916
2026-01-10 11:43:05.09	60.21	9.48	-40.3	-41.7	19.8	0.00e+00	0	28	0	419430400	52	6972
2026-01-10 11:43:06.10	60.38	9.49	-40.5	-41.9	19.8	0.00e+00	0	28	0	421527552	52	7156
2026-01-10 11:43:07.10	60.56	9.51	-40.4	-41.9	19.7	0.00e+00	92	28	0	423624704	52	7100
2026-01-10 11:43:08.12	60.73	9.52	-40.2	-41.6	20.0	0.00e+00	0	28	0	424673280	52	6877
2026-01-10 11:43:09.13	60.91	9.53	-40.2	-41.6	20.0	0.00e+00	90	28	0	426770432	52	6872
2026-01-10 11:43:10.14	61.09	9.54	-40.2	-41.6	20.0	0.00e+00	59	28	0	428867584	52	6855
2026-01-10 11:43:11.15	61.26	9.55	-39.9	-41.2	20.2	0.00e+00	22	27	0	430964736	52	6604
2026-01-10 11:43:12.16	61.44	9.56	-39.9	-41.2	20.3	0.00e+00	58	28	0	433061888	52	6610
2026-01-10 11:43:13.17	61.62	9.57	-39.9	-41.3	20.3	0.00e+00	25	28	0	434110464	52	6635
2026-01-10 11:43:14.18	61.79	9.58	-39.8	-41.1	20.5	0.00e+00	58	28	0	436207616	52	6495
2026-01-10 11:43:15.19	61.97	9.60	-39.8	-41.1	20.5	0.00e+00	0	28	0	438304768	52	6533
2026-01-10 11:43:16.19	62.14	9.61	-39.9	-41.2	20.4	0.00e+00	92	28	0	440401920	52	6562
2026-01-10 11:43:17.20	62.32	9.61	-40.0	-41.3	20.3	0.00e+00	28	28	0	442499072	52	6668
2026-01-10 11:43:18.21	62.50	9.62	-40.1	-41.5	20.2	0.00e+00	0	28	0	443547648	52	6781
2026-01-10 11:43:19.22	62.68	9.63	-40.1	-41.5	20.1	0.00e+00	29	28	0	445644800	52	6796
2026-01-10 11:43:20.23	62.85	9.64	-40.2	-41.6	19.9	0.00e+00	29	28	0	447741952	52	6904
2026-01-10 11:43:21.24	63.03	9.65	-40.3	-41.7	19.8	0.00e+00	0	28	0	449839104	52	6975
2026-01-10 11:43:22.25	63.21	9.66	-40.2	-41.6	20.0	0.00e+00	0	28	0	451936256	52	6904
2026-01-10 11:43:23.26	63.39	9.67	-40.0	-41.3	20.2	0.00e+00	92	27	0	452984832	52	6685
2026-01-10 11:43:24.27	63.56	9.68	-40.1	-41.5	20.1	0.00e+00	0	27	0	455081984	52	6791
2026-01-10 11:43:25.28	63.74	9.68	-40.0	-41.4	20.2	0.00e+00	21	27	0	457179136	52	6714
2026-01-10 11:43:26.29	63.92	9.69	-39.7	-41.0	20.5	0.00e+00	55	28	0	459276288	52	6391
2026-01-10 11:43:27.30	64.10	9.70	-39.7	-41.0	20.5	0.00e+00	57	28	0	461373440	52	6428
2026-01-10 11:43:28.31	64.28	9.71	-39.7	-41.0	20.6	0.00e+00	0	28	0	463470592	52	6413
2026-01-10 11:43:29.32	64.45	9.71	-39.8	-41.1	20.5	0.00e+00	56	28	0	464519168	52	6485
2026-01-10 11:43:30.33	64.63	9.72	-39.6	-40.8	20.8	0.00e+00	90	27	0	466616320	52	6310
2026-01-10 11:43:31.34	64.81	9.73	-39.7	-40.9	20.7	0.00e+00	2	28	0	468713472	52	6359
2026-01-10 11:43:32.35	64.99	9.73	-39.7	-40.9	20.6	0.00e+00	92	27	0	470810624	52	6367
2026-01-10 11:43:33.36	65.17	9.74	-39.8	-41.1	20.6	0.00e+00	25	28	0	472907776	52	6478
2026-01-10 11:43:34.37	65.35	9.75	-39.6	-40.9	20.7	0.00e+00	26	28	0	473956352	52	6319
2026-01-10 11:43:35.38	65.53	9.75	-39.7	-40.9	20.5	0.00e+00	25	28	0	476053504	52	6365
2026-01-10 11:43:36.39	65.71	9.76	-39.8	-41.1	20.5	0.00e+00	5	27	0	478150656	52	6475
2026-01-10 11:43:37.40	65.88	9.76	-39.7	-41.0	20.5	0.00e+00	92	28	0	480247808	52	6440
2026-01-10 11:43:38.41	66.06	9.77	-39.7	-41.0	20.7	0.00e+00	0	28	0	482344960	52	6394
2026-01-10 11:43:39.42	66.24	9.77	-39.8	-41.0	20.6	0.00e+00	92	27	0	483393536	52	6431
2026-01-10 11:43:40.43	66.42	9.77	-39.8	-41.1	20.5	0.00e+00	24	28	0	485490688	52	6488
2026-01-10 11:43:41.44	66.60	9.78	-39.6	-40.8	20.8	0.00e+00	23	28	0	487587840	52	6286
2026-01-10 11:43:42.45	66.78	9.78	-39.7	-40.9	20.8	0.00e+00	0	28	0	489684992	52	6348
2026-01-10 11:43:43.46	66.96	9.79	-39.5	-40.7	20.9	0.00e+00	6	27	0	491782144	52	6243
2026-01-10 11:43:44.47	67.14	9.79	-39.5	-40.7	20.9	0.00e+00	8	28	0	492830720	52	6222
2026-01-10 11:43:45.48	67.32	9.79	-39.4	-40.6	21.0	0.00e+00	0	28	0	494927872	52	6159
2026-01-10 11:43:46.49	67.50	9.80	-39.3	-40.4	21.0	0.00e+00	92	28	0	497025024	52	6028
2026-01-10 11:43:47.50	67.68	9.80	-39.1	-40.3	21.2	0.00e+00	49	28	0	499122176	52	5900
2026-01-10 11:43:48.51	67.86	9.80	-39.0	-40.2	21.2	0.00e+00	92	28	0	501219328	52	5871
2026-01-10 11:43:49.52	68.03	9.80	-38.9	-40.1	21.4	0.00e+00	0	27	0	502267904	52	5794
2026-01-10 11:43:50.53	68.21	9.80	-38.7	-39.8	21.6	0.00e+00	0	28	0	504365056	50	6276
2026-01-10 11:43:51.54	68.39	9.81	-38.7	-39.8	21.5	0.00e+00	0	28	0	506462208	50	6315
2026-01-10 11:43:52.54	68.57	9.81	-38.6	-39.8	21.7	0.00e+00	51	28	0	508559360	50	6257
2026-01-10 11:43:53.55	68.75	9.81	-38.7	-39.8	21.6	0.00e+00	92	28	0	510656512	50	6288
2026-01-10 11:43:54.56	68.93	9.81	-38.6	-39.7	21.6	0.00e+00	54	28	0	511705088	50	6235
2026-01-10 11:43:55.57	69.11	9.81	-38.6	-39.7	21.6	0.00e+00	92	28	0	513802240	50	6227
2026-01-10 11:43:56.58	69.29	9.81	-38.7	-39.8	21.6	0.00e+00	30	28	0	515899392	50	6293
2026-01-10 11:43:57.59	69.47	9.81	-38.7	-39.8	21.6	0.00e+00	7	28	0	517996544	50	6283
2026-01-10 11:43:58.60	69.65	9.81	-38.7	-39.8	21.5	0.00e+00	31	28	0	520093696	50	6307
2026-01-10 11:43:59.61	69.83	9.81	-38.7	-39.8	21.6	0.00e+00	9	28	0	521142272	50	6291
2026-01-10 11:44:00.62	70.01	9.81	-38.6	-39.7	21.7	0.00e+00	91	28	0	523239424	50	6185
2026-01-10 11:44:01.63	70.19	9.81	-38.5	-39.5	21.9	0.00e+00	7	28	0	525336576	50	6102
2026-01-10 11:44:02.64	70.37	9.81	-38.2	-39.3	22.0	0.00e+00	92	28	0	527433728	50	5940
2026-01-10 11:44:03.65	70.55	9.81	-38.1	-39.2	22.1	0.00e+00	8	28	0	529530880	50	5845
2026-01-10 11:44:04.66	70.73	9.80	-38.1	-39.2	22.1	0.00e+00	0	28	0	531628032	50	5856
2026-01-10 11:44:05.67	70.91	9.80	-38.0	-39.1	21.9	0.00e+00	6	28	0	532676608	50	5764
2026-01-10 11:44:06.68	71.09	9.80	-38.2	-39.2	21.7	0.00e+00	0	28	0	534773760	50	5858
2026-01-10 11:44:07.69	71.26	9.80	-38.3	-39.3	22.2	0.00e+00	60	28	0	536870912	50	5955
2026-01-10 11:44:08.70	71.44	9.80	-38.2	-39.3	22.1	0.00e+00	0	28	0	538968064	50	5915
2026-01-10 11:44:09.71	71.62	9.79	-38.4	-39.5	22.0	0.00e+00	90	28	0	541065216	50	6066
2026-01-10 11:44:10.72	71.80	9.79	-38.3	-39.4	21.9	0.00e+00	0	28	0	542113792	50	6022
2026-01-10 11:44:11.73	71.98	9.79	-38.5	-39.6	21.9	0.00e+00	75	28	0	544210944	50	6152
2026-01-10 11:44:12.74	72.16	9.78	-38.4	-39.5	21.9	0.00e+00	25	28	0	546308096	50	6043
2026-01-10 11:44:13.75	72.34	9.78	-38.3	-39.4	21.8	0.00e+00	58	28	0	548405248	50	6016
2026-01-10 11:44:14.76	72.52	9.78	-38.1	-39.2	22.1	0.00e+00	0	28	0	550502400	50	5830
2026-01-10 11:44:15.77	72.70	9.77	-38.1	-39.2	22.2	0.00e+00	30	28	0	551550976	50	5863
2026-01-10 11:44:16.78	72.88	9.77	-38.0	-39.1	22.2	0.00e+00	92	28	0	553648128	50	5780
2026-01-10 11:44:17.79	73.06	9.76	-38.2	-39.2	22.2	0.00e+00	0	28	0	555745280	50	5883
2026-01-10 11:44:18.80	73.24	9.76	-38.1	-39.1	22.2	0.00e+00	91	28	0	557842432	50	5824
2026-01-10 11:44:19.81	73.42	9.75	-38.1	-39.1	22.2	0.00e+00	31	28	0	559939584	50	5827
2026-01-10 11:44:20.82	73.59	9.75	-37.9	-38.9	22.3	0.00e+00	32	28	0	560988160	50	5680
2026-01-10 11:44:21.83	73.77	9.74	-38.0	-39.0	22.3	0.00e+00	28	28	0	563085312	50	5716
2026-01-10 11:44:22.84	73.95	9.73	-38.2	-39.2	22.1	0.00e+00	0	28	0	565182464	50	5866
2026-01-10 11:44:23.85	74.13	9.73	-38.1	-39.2	22.0	0.00e+00	91	28	0	567279616	50	5872
2026-01-10 11:44:24.86	74.31	9.72	-38.1	-39.2	22.1	0.00e+00	0	28	0	569376768	50	5844
2026-01-10 11:44:25.86	74.49	9.72	-38.1	-39.2	22.1	0.00e+00	90	28	0	570425344	50	5874
2026-01-10 11:44:26.88	74.67	9.71	-38.1	-39.2	22.1	0.00e+00	2	28	0	572522496	50	5848
2026-01-10 11:44:27.89	74.85	9.70	-38.0	-39.1	22.1	0.00e+00	56	28	0	574619648	50	5808
2026-01-10 11:44:28.90	75.02	9.69	-38.2	-39.3	22.0	0.00e+00	56	28	0	576716800	50	5947
2026-01-10 11:44:29.91	75.20	9.69	-38.1	-39.1	22.1	0.00e+00	0	28	0	578813952	50	5828
2026-01-10 11:44:30.92	75.38	9.68	-37.9	-39.0	22.2	0.00e+00	2	28	0	579862528	50	5727
2026-01-10 11:44:31.93	75.56	9.67	-38.0	-39.1	22.0	0.00e+00	0	28	0	581959680	50	5824
2026-01-10 11:44:32.94	75.74	9.66	-38.1	-39.2	22.0	0.00e+00	92	28	0	584056832	50	5861
2026-01-10 11:44:33.95	75.91	9.65	-37.9	-39.0	22.2	0.00e+00	56	28	0	586153984	50	5719
2026-01-10 11:44:34.96	76.09	9.64	-38.0	-39.2	22.1	0.00e+00	92	28	0	588251136	50	5836
2026-01-10 11:44:35.97	76.27	9.64	-37.9	-39.1	22.2	0.00e+00	25	28	0	589299712	50	5777
2026-01-10 11:44:36.98	76.45	9.63	-37.9	-39.1	22.0	0.00e+00	23	28	0	591396864	50	5773
2026-01-10 11:44:37.99	76.62	9.62	-38.0	-39.2	22.0	0.00e+00	0	28	0	593494016	50	5836
2026-01-10 11:44:38.99	76.80	9.61	-38.0	-39.1	22.1	0.00e+00	0	28	0	595591168	50	5818
2026-01-10 11:44:40.00	76.98	9.60	-38.0	-39.1	22.2	0.00e+00	92	28	0	597688320	50	5816
2026-01-10 11:44:41.01	77.15	9.59	-38.1	-39.2	22.1	0.00e+00	2	28	0	599785472	50	5859
2026-01-10 11:44:42.02	77.33	9.58	-38.1	-39.2	22.0	0.00e+00	92	28	0	600834048	50	5887
2026-01-10 11:44:43.03	77.51	9.57	-38.2	-39.4	21.9	0.00e+00	0	28	0	602931200	50	5999
2026-01-10 11:44:44.04	77.68	9.55	-38.3	-39.4	21.9	0.00e+00	0	28	0	605028352	50	6005
2026-01-10 11:44:45.05	77.86	9.54	-38.3	-39.4	21.9	0.00e+00	0	28	0	607125504	50	6002
2026-01-10 11:44:46.06	78.04	9.53	-38.3	-39.5	21.8	0.00e+00	0	28	0	609222656	50	6043
2026-01-10 11:44:47.07	78.21	9.52	-38.3	-39.4	21.8	0.00e+00	92	28	0	610271232	50	5999
2026-01-10 11:44:48.08	78.39	9.51	-38.3	-39.5	21.8	0.00e+00	0	28	0	612368384	50	6043
2026-01-10 11:44:49.09	78.57	9.50	-38.4	-39.5	21.8	0.00e+00	90	28	0	614465536	50	6098
2026-01-10 11:44:50.10	78.74	9.48	-38.5	-39.7	21.7	0.00e+00	0	28	0	616562688	50	6184
2026-01-10 11:44:51.11	78.92	9.47	-38.4	-39.6	21.7	0.00e+00	0	28	0	618659840	50	6168
2026-01-10 11:44:52.12	79.09	9.46	-38.4	-39.6	21.7	0.00e+00	0	28	0	619708416	50	6158
2026-01-10 11:44:53.13	79.27	9.45	-38.3	-39.6	21.7	0.00e+00	0	28	0	621805568	50	6111
2026-01-10 11:44:54.14	79.44	9.43	-38.1	-39.3	22.0	0.00e+00	0	28	0	623902720	50	5900
2026-01-10 11:44:55.15	79.62	9.42	-37.9	-39.0	22.2	0.00e+00	55	28	0	625999872	50	5759
2026-01-10 11:44:56.16	79.80	9.40	-37.9	-39.0	22.3	0.00e+00	92	28	0	628097024	50	5703
2026-01-10 11:44:57.17	79.97	9.39	-38.0	-39.1	22.1	0.00e+00	57	28	0	629145600	50	5793
2026-01-10 11:44:58.18	80.14	9.38	-38.1	-39.2	22.0	0.00e+00	92	28	0	631242752	50	5880
2026-01-10 11:44:59.18	80.32	9.36	-38.0	-39.1	22.1	0.00e+00	0	28	0	633339904	50	5826
2026-01-10 11:45:00.19	80.49	9.35	-38.1	-39.3	22.0	0.00e+00	0	28	0	635437056	50	5920
2026-01-10 11:45:01.20	80.67	9.33	-38.1	-39.2	22.1	0.00e+00	0	28	0	637534208	50	5847
2026-01-10 11:45:02.21	80.84	9.32	-38.2	-39.4	21.8	0.00e+00	24	28	0	638582784	50	5974
2026-01-10 11:45:03.22	81.01	9.30	-38.5	-39.7	21.6	0.00e+00	89	28	0	640679936	50	6211
2026-01-10 11:45:04.23	81.19	9.29	-38.4	-39.5	21.7	0.00e+00	25	28	0	642777088	50	6100
2026-01-10 11:45:05.24	81.36	9.27	-38.3	-39.4	21.9	0.00e+00	92	28	0	644874240	50	6007
2026-01-10 11:45:06.25	81.53	9.26	-38.4	-39.5	21.8	0.00e+00	0	28	0	646971392	50	6088
2026-01-10 11:45:07.26	81.71	9.24	-38.2	-39.3	21.9	0.00e+00	0	28	0	648019968	50	5919
2026-01-10 11:45:08.27	81.88	9.22	-38.3	-39.3	21.8	0.00e+00	0	28	0	650117120	50	5955
2026-01-10 11:45:09.28	82.05	9.21	-38.1	-39.2	21.8	0.00e+00	0	28	0	652214272	50	5855
2026-01-10 11:45:10.29	82.23	9.19	-38.1	-39.1	22.0	0.00e+00	92	28	0	654311424	50	5815
2026-01-10 11:45:11.30	82.40	9.17	-37.9	-39.0	22.2	0.00e+00	54	28	0	656408576	50	5703
2026-01-10 11:45:12.31	82.57	9.16	-37.9	-38.9	22.2	0.00e+00	92	28	0	657457152	50	5695
2026-01-10 11:45:13.32	82.74	9.14	-37.7	-38.7	22.3	0.00e+00	0	28	0	659554304	48	6225
2026-01-10 11:45:14.33	82.92	9.12	-37.6	-38.6	22.5	0.00e+00	2	28	0	661651456	48	6148
2026-01-10 11:45:15.34	83.09	9.10	-37.7	-38.7	22.4	0.00e+00	0	28	0	663748608	48	6203
2026-01-10 11:45:16.35	83.26	9.08	-37.7	-38.7	22.4	0.00e+00	31	28	0	665845760	48	6194
2026-01-10 11:45:17.36	83.43	9.07	-37.5	-38.5	22.5	0.00e+00	5	28	0	667942912	48	6094
2026-01-10 11:45:18.37	83.60	9.05	-37.5	-38.5	22.6	0.00e+00	33	28	0	668991488	48	6099
2026-01-10 11:45:19.38	83.77	9.03	-37.5	-38.5	22.6	0.00e+00	92	28	0	671088640	48	6073
2026-01-10 11:45:20.39	83.94	9.01	-37.5	-38.5	22.6	0.00e+00	32	28	0	673185792	48	6065
2026-01-10 11:45:21.39	84.11	8.99	-37.6	-38.6	22.5	0.00e+00	92	28	0	675282944	48	6168
2026-01-10 11:45:22.40	84.28	8.97	-37.6	-38.6	22.5	0.00e+00	6	28	0	677380096	48	6143
2026-01-10 11:45:23.42	84.45	8.95	-37.8	-38.8	22.3	0.00e+00	0	28	0	678428672	48	6289
2026-01-10 11:45:24.43	84.62	8.93	-37.8	-38.9	22.2	0.00e+00	26	28	0	680525824	48	6332
2026-01-10 11:45:25.43	84.79	8.91	-37.8	-38.9	22.2	0.00e+00	26	28	0	682622976	48	6339
2026-01-10 11:45:26.45	84.96	8.89	-37.9	-38.9	22.1	0.00e+00	92	28	0	684720128	48	6379
2026-01-10 11:45:27.46	85.13	8.87	-37.8	-38.8	22.2	0.00e+00	5	28	0	686817280	48	6307
2026-01-10 11:45:28.47	85.30	8.85	-37.9	-38.9	22.1	0.00e+00	90	28	0	687865856	48	6366
2026-01-10 11:45:29.48	85.47	8.83	-37.9	-38.9	22.1	0.00e+00	6	28	0	689963008	48	6362
2026-01-10 11:45:30.49	85.64	8.81	-37.8	-38.9	22.2	0.00e+00	54	28	0	692060160	48	6344
2026-01-10 11:45:31.50	85.80	8.79	-37.8	-38.9	22.1	0.00e+00	0	28	0	694157312	48	6332
2026-01-10 11:45:32.51	85.97	8.77	-37.8	-38.8	22.2	0.00e+00	55	28	0	696254464	48	6299
2026-01-10 11:45:33.52	86.14	8.75	-37.8	-38.9	22.2	0.00e+00	92	28	0	697303040	48	6354
2026-01-10 11:45:34.53	86.31	8.73	-38.0	-39.0	22.1	0.00e+00	53	28	0	699400192	48	6460
2026-01-10 11:45:35.54	86.47	8.70	-38.1	-39.1	21.9	0.00e+00	88	28	0	701497344	48	6528
2026-01-10 11:45:36.55	86.64	8.68	-38.0	-39.1	22.0	0.00e+00	56	28	0	703594496	48	6495
2026-01-10 11:45:37.56	86.81	8.66	-38.0	-39.1	22.0	0.00e+00	9	28	0	705691648	48	6477
2026-01-10 11:45:38.57	86.98	8.64	-38.1	-39.2	22.0	0.00e+00	55	28	0	706740224	48	6552
2026-01-10 11:45:39.58	87.14	8.61	-37.7	-38.8	22.4	0.00e+00	51	28	0	708837376	48	6246
2026-01-10 11:45:40.59	87.31	8.59	-37.5	-38.5	22.5	0.00e+00	25	28	0	710934528	48	6084
2026-01-10 11:45:41.60	87.47	8.57	-37.4	-38.5	22.7	0.00e+00	31	28	0	713031680	48	6034
2026-01-10 11:45:42.61	87.64	8.55	-37.5	-38.5	22.6	0.00e+00	92	28	0	715128832	48	6084
2026-01-10 11:45:43.62	87.80	8.52	-37.5	-38.5	22.6	0.00e+00	6	28	0	716177408	48	6064
2026-01-10 11:45:44.63	87.97	8.50	-37.5	-38.5	22.5	0.00e+00	91	28	0	718274560	48	6090
2026-01-10 11:45:45.64	88.13	8.47	-37.6	-38.6	22.5	0.00e+00	0	28	0	720371712	48	6141
2026-01-10 11:45:46.65	88.30	8.45	-37.8	-38.9	22.3	0.00e+00	6	28	0	722468864	48	6326
2026-01-10 11:45:47.66	88.46	8.43	-38.0	-39.1	22.0	0.00e+00	0	28	0	724566016	48	6487
2026-01-10 11:45:48.67	88.63	8.40	-38.2	-39.3	21.9	0.00e+00	0	28	0	725614592	48	6620
2026-01-10 11:45:49.68	88.79	8.38	-38.1	-39.2	21.8	0.00e+00	92	28	0	727711744	48	6608
2026-01-10 11:45:50.69	88.95	8.35	-38.3	-39.4	21.7	0.00e+00	49	28	0	729808896	48	6746
2026-01-10 11:45:51.70	89.12	8.33	-38.3	-39.5	21.7	0.00e+00	92	28	0	731906048	48	6779
2026-01-10 11:45:52.71	89.28	8.30	-38.3	-39.5	21.6	0.00e+00	50	28	0	734003200	48	6781
2026-01-10 11:45:53.72	89.44	8.28	-38.3	-39.4	21.7	0.00e+00	0	28	0	736100352	48	6751
2026-01-10 11:45:54.73	89.60	8.25	-38.3	-39.4	21.7	0.00e+00	0	28	0	737148928	48	6707
2026-01-10 11:45:55.74	89.77	8.23	-38.4	-39.5	21.7	0.00e+00	54	28	0	739246080	48	6780
2026-01-10 11:45:56.75	89.93	8.20	-38.2	-39.2	21.8	0.00e+00	90	28	0	741343232	48	6611
2026-01-10 11:45:57.76	90.09	8.18	-38.1	-39.2	21.9	0.00e+00	26	28	0	743440384	48	6564
2026-01-10 11:45:58.77	90.25	8.15	-38.1	-39.2	21.9	0.00e+00	92	28	0	745537536	48	6563
2026-01-10 11:45:59.78	90.41	8.12	-38.1	-39.2	21.7	0.00e+00	55	28	0	746586112	48	6576
2026-01-10 11:46:00.79	90.57	8.10	-38.1	-39.3	21.8	0.00e+00	91	28	0	748683264	48	6626
2026-01-10 11:46:01.79	90.73	8.07	-38.2	-39.4	21.6	0.00e+00	25	28	0	750780416	48	6765
2026-01-10 11:46:02.80	90.89	8.05	-38.3	-39.5	21.6	0.00e+00	27	28	0	752877568	48	6846
2026-01-10 11:46:03.81	91.05	8.02	-38.6	-39.8	21.4	0.00e+00	50	28	0	754974720	48	7022
2026-01-10 11:46:04.82	91.21	7.99	-38.7	-39.8	21.0	0.00e+00	2	28	0	756023296	48	7088
2026-01-10 11:46:05.83	91.37	7.96	-38.7	-39.8	21.3	0.00e+00	92	28	0	758120448	50	6304
2026-01-10 11:46:06.84	91.53	7.94	-38.8	-40.0	21.2	0.00e+00	0	28	0	760217600	50	6457
2026-01-10 11:46:07.85	91.69	7.91	-38.8	-40.0	21.1	0.00e+00	92	28	0	762314752	50	6452
2026-01-10 11:46:08.86	91.85	7.88	-38.9	-40.2	20.8	0.00e+00	0	28	0	764411904	50	6590
2026-01-10 11:46:09.87	92.01	7.85	-39.1	-40.4	20.7	0.00e+00	0	28	0	765460480	50	6715
2026-01-10 11:46:10.88	92.16	7.83	-39.3	-40.7	20.5	0.00e+00	0	29	0	767557632	50	6972
2026-01-10 11:46:11.89	92.32	7.80	-39.6	-41.0	20.2	0.00e+00	0	28	0	769654784	50	7221
2026-01-10 11:46:12.90	92.48	7.77	-39.9	-41.3	19.9	0.00e+00	91	28	0	771751936	52	6678
2026-01-10 11:46:13.91	92.64	7.74	-40.0	-41.5	19.7	0.00e+00	54	28	0	773849088	52	6810
2026-01-10 11:46:14.92	92.79	7.71	-40.1	-41.7	19.5	0.00e+00	92	28	0	774897664	52	7002
2026-01-10 11:46:15.93	92.95	7.68	-40.0	-41.7	19.5	0.00e+00	49	28	0	776994816	52	6984
2026-01-10 11:46:16.94	93.10	7.66	-40.1	-41.7	19.6	0.00e+00	32	28	0	779091968	52	6953
2026-01-10 11:46:17.94	93.26	7.63	-39.9	-41.5	19.7	0.00e+00	50	28	0	781189120	52	6822
2026-01-10 11:46:18.95	93.41	7.60	-40.0	-41.5	19.6	0.00e+00	0	28	0	783286272	52	6811
2026-01-10 11:46:19.96	93.57	7.57	-39.8	-41.3	20.0	0.00e+00	89	28	0	784334848	52	6640
2026-01-10 11:46:20.97	93.72	7.54	-39.9	-41.3	19.9	0.00e+00	49	28	0	786432000	52	6660
2026-01-10 11:46:21.98	93.88	7.51	-39.8	-41.2	20.0	0.00e+00	90	28	0	788529152	52	6576
2026-01-10 11:46:22.99	94.03	7.48	-40.0	-41.4	19.7	0.00e+00	32	28	0	790626304	52	6746
2026-01-10 11:46:24.00	94.19	7.45	-40.0	-41.5	19.6	0.00e+00	84	28	0	792723456	52	6780
2026-01-10 11:46:25.01	94.34	7.42	-39.8	-41.2	19.9	0.00e+00	27	28	0	793772032	52	6578
2026-01-10 11:46:26.02	94.49	7.39	-39.7	-41.1	20.0	0.00e+00	27	28	0	795869184	52	6527
2026-01-10 11:46:27.03	94.65	7.36	-39.6	-41.1	20.1	0.00e+00	0	29	0	797966336	52	6496
2026-01-10 11:46:28.04	94.80	7.33	-39.7	-41.1	20.0	0.00e+00	2	28	0	800063488	52	6525
2026-01-10 11:46:29.05	94.95	7.30	-39.5	-41.0	20.2	0.00e+00	91	29	0	802160640	52	6409
2026-01-10 11:46:30.06	95.11	7.27	-39.7	-41.1	20.0	0.00e+00	0	29	0	804257792	52	6498
2026-01-10 11:46:31.07	95.26	7.24	-39.8	-41.3	19.9	0.00e+00	91	29	0	805306368	52	6619
2026-01-10 11:46:32.08	95.41	7.21	-40.0	-41.5	19.7	0.00e+00	0	28	0	807403520	52	6774
2026-01-10 11:46:33.08	95.56	7.18	-40.3	-41.9	19.4	0.00e+00	53	28	0	809500672	52	7115
2026-01-10 11:46:34.09	95.71	7.15	-40.5	-42.0	19.1	0.00e+00	0	29	0	811597824	52	7247
2026-01-10 11:46:35.10	95.86	7.11	-40.7	-42.4	18.7	0.00e+00	0	29	0	813694976	52	7579
2026-01-10 11:46:36.11	96.01	7.08	-40.9	-42.7	18.4	0.00e+00	91	28	0	814743552	54	6975
2026-01-10 11:46:37.12	96.16	7.05	-41.0	-42.9	18.2	0.00e+00	0	29	0	816840704	54	7153
2026-01-10 11:46:38.13	96.31	7.02	-41.2	-43.2	17.9	0.00e+00	91	28	0	818937856	54	7369
2026-01-10 11:46:39.14	96.46	6.99	-41.3	-43.3	17.9	0.00e+00	27	28	0	821035008	54	7494
2026-01-10 11:46:40.15	96.61	6.96	-41.1	-43.1	18.0	0.00e+00	26	29	0	823132160	54	7301
2026-01-10 11:46:41.16	96.76	6.92	-40.9	-42.9	18.2	0.00e+00	29	29	0	824180736	54	7144
2026-01-10 11:46:42.17	96.91	6.89	-41.0	-43.0	18.2	0.00e+00	0	28	0	826277888	54	7238
2026-01-10 11:46:43.18	97.05	6.86	-40.8	-42.9	18.2	0.00e+00	54	28	0	828375040	54	7136
2026-01-10 11:46:44.19	97.20	6.83	-40.7	-42.9	18.2	0.00e+00	26	29	0	830472192	54	7095
2026-01-10 11:46:45.20	97.35	6.79	-40.8	-42.9	18.1	0.00e+00	92	29	0	832569344	54	7165
2026-01-10 11:46:46.21	97.50	6.76	-40.7	-42.8	18.3	0.00e+00	32	28	0	833617920	54	7014
2026-01-10 11:46:47.22	97.64	6.73	-40.9	-42.9	18.2	0.00e+00	92	29	0	835715072	54	7111
2026-01-10 11:46:48.23	97.79	6.70	-40.7	-42.6	18.4	0.00e+00	0	29	0	837812224	54	6884
2026-01-10 11:46:49.24	97.94	6.66	-40.7	-42.4	18.6	0.00e+00	0	29	0	839909376	54	6751
2026-01-10 11:46:50.25	98.08	6.63	-40.6	-42.2	18.9	0.00e+00	17	29	0	842006528	54	6615
2026-01-10 11:46:51.25	98.23	6.60	-40.5	-42.1	18.9	0.00e+00	0	29	0	843055104	54	6525
2026-01-10 11:46:52.26	98.37	6.56	-40.6	-42.3	18.8	0.00e+00	90	28	0	845152256	54	6678
2026-01-10 11:46:53.27	98.52	6.53	-40.5	-42.3	18.8	0.00e+00	0	29	0	847249408	54	6679
2026-01-10 11:46:54.28	98.66	6.50	-40.5	-42.4	18.7	0.00e+00	92	29	0	849346560	54	6746
2026-01-10 11:46:55.29	98.81	6.46	-40.4	-42.4	18.7	0.00e+00	0	29	0	851443712	54	6733
2026-01-10 11:46:56.30	98.95	6.43	-40.4	-42.6	18.6	0.00e+00	0	29	0	852492288	54	6876
2026-01-10 11:46:57.31	99.09	6.39	-40.5	-42.6	18.5	0.00e+00	0	29	0	854589440	54	6896
2026-01-10 11:46:58.32	99.24	6.36	-40.7	-42.7	18.3	0.00e+00	0	29	0	856686592	54	7007
2026-01-10 11:46:59.33	99.38	6.33	-40.5	-42.4	18.7	0.00e+00	92	29	0	858783744	54	6750
2026-01-10 11:47:00.34	99.52	6.29	-40.4	-42.1	18.9	0.00e+00	52	29	0	860880896	54	6523
2026-01-10 11:47:01.35	99.67	6.26	-40.5	-42.1	18.9	0.00e+00	92	28	0	861929472	54	6536
2026-01-10 11:47:02.36	99.81	6.22	-40.3	-42.0	19.1	0.00e+00	30	28	0	864026624	54	6391
2026-01-10 11:47:03.37	99.95	6.19	-40.2	-41.9	19.1	0.00e+00	29	28	0	866123776	54	6346
2026-01-10 11:47:04.38	100.09	6.15	-40.1	-41.7	19.3	0.00e+00	27	29	0	868220928	54	6182
2026-01-10 11:47:05.39	100.23	6.12	-40.0	-41.6	19.4	0.00e+00	6	29	0	870318080	54	6138
2026-01-10 11:47:06.40	100.37	6.09	-40.0	-41.6	19.4	0.00e+00	71	28	0	872415232	54	6141
2026-01-10 11:47:07.41	100.51	6.05	-40.3	-41.9	19.2	0.00e+00	0	29	0	873463808	54	6339
2026-01-10 11:47:08.42	100.65	6.02	-40.4	-42.0	19.0	0.00e+00	91	29	0	875560960	54	6439
2026-01-10 11:47:09.42	100.79	5.98	-40.7	-42.3	18.6	0.00e+00	28	29	0	877658112	54	6671
2026-01-10 11:47:10.43	100.93	5.95	-40.9	-42.8	18.1	0.00e+00	68	29	0	879755264	54	7038
2026-01-10 11:47:11.44	101.07	5.91	-40.7	-42.7	18.3	0.00e+00	0	29	0	881852416	54	6956
2026-01-10 11:47:12.45	101.21	5.87	-40.8	-42.8	18.3	0.00e+00	0	29	0	882900992	54	7033
2026-01-10 11:47:13.46	101.35	5.84	-41.0	-43.0	18.2	0.00e+00	6	29	0	884998144	54	7172
2026-01-10 11:47:14.47	101.49	5.80	-40.9	-42.5	18.5	0.00e+00	0	29	0	887095296	54	6848
2026-01-10 11:47:15.48	101.62	5.77	-40.7	-42.3	18.6	0.00e+00	92	29	0	889192448	54	6689
2026-01-10 11:47:16.49	101.76	5.73	-40.5	-42.1	18.7	0.00e+00	0	29	0	891289600	54	6509
2026-01-10 11:47:17.50	101.90	5.70	-40.2	-41.8	19.2	0.00e+00	90	29	0	892338176	54	6269
2026-01-10 11:47:18.51	102.04	5.66	-39.9	-41.4	19.5	0.00e+00	0	29	0	894435328	54	6027
2026-01-10 11:47:19.52	102.17	5.62	-39.8	-41.4	19.6	0.00e+00	45	29	0	896532480	54	5989
2026-01-10 11:47:20.53	102.31	5.59	-39.8	-41.2	19.8	0.00e+00	16	29	0	898629632	52	6579
2026-01-10 11:47:21.54	102.45	5.55	-39.8	-41.2	19.6	0.00e+00	6	29	0	900726784	52	6603
2026-01-10 11:47:22.55	102.58	5.52	-39.8	-41.3	19.6	0.00e+00	92	29	0	901775360	52	6662
2026-01-10 11:47:23.56	102.72	5.48	-39.9	-41.4	19.6	0.00e+00	45	29	0	903872512	52	6740
2026-01-10 11:47:24.57	102.85	5.44	-40.0	-41.5	19.5	0.00e+00	92	29	0	905969664	52	6832
2026-01-10 11:47:25.58	102.99	5.41	-40.0	-41.6	19.2	0.00e+00	53	29	0	908066816	52	6911
2026-01-10 11:47:26.59	103.12	5.37	-39.9	-41.6	19.2	0.00e+00	35	29	0	910163968	52	6853
2026-01-10 11:47:27.60	103.25	5.33	-39.8	-41.5	19.3	0.00e+00	34	29	0	911212544	52	6785
2026-01-10 11:47:28.61	103.39	5.30	-40.2	-41.9	18.9	0.00e+00	33	29	0	913309696	52	7116
2026-01-10 11:47:29.62	103.52	5.26	-40.1	-41.7	19.2	0.00e+00	47	29	0	915406848	52	6936
2026-01-10 11:47:30.63	103.65	5.22	-40.0	-41.5	19.4	0.00e+00	6	29	0	917504000	52	6818
2026-01-10 11:47:31.63	103.79	5.19	-40.1	-41.6	19.3	0.00e+00	92	29	0	919601152	52	6917
2026-01-10 11:47:32.65	103.92	5.15	-39.9	-41.4	19.4	0.00e+00	0	29	0	920649728	52	6766
2026-01-10 11:47:33.65	104.05	5.11	-39.7	-41.3	19.6	0.00e+00	92	29	0	922746880	52	6647
2026-01-10 11:47:34.66	104.18	5.08	-39.7	-41.4	19.4	0.00e+00	9	29	0	924844032	52	6754
2026-01-10 11:47:35.67	104.31	5.04	-39.6	-41.6	19.1	0.00e+00	7	29	0	926941184	52	6925
2026-01-10 11:47:36.68	104.44	5.00	-39.5	-41.6	19.3	0.00e+00	6	29	0	929038336	52	6883
2026-01-10 11:47:37.69	104.58	4.96	-39.8	-41.8	19.1	0.00e+00	0	29	0	930086912	52	7035
2026-01-10 11:47:38.70	104.71	4.93	-40.0	-41.8	19.1	0.00e+00	91	29	0	932184064	52	7037
2026-01-10 11:47:39.71	104.84	4.89	-40.3	-42.0	18.7	0.00e+00	52	29	0	934281216	52	7201
2026-01-10 11:47:40.72	104.97	4.85	-40.1	-41.8	18.9	0.00e+00	92	29	0	936378368	52	7071
2026-01-10 11:47:41.73	105.10	4.81	-40.0	-41.8	18.9	0.00e+00	0	29	0	938475520	52	7044
2026-01-10 11:47:42.74	105.22	4.78	-40.0	-41.8	18.8	0.00e+00	30	29	0	940572672	52	7062
2026-01-10 11:47:43.75	105.35	4.74	-39.5	-41.2	19.5	0.00e+00	41	29	0	941621248	52	6550
2026-01-10 11:47:44.76	105.48	4.70	-39.4	-41.0	19.7	0.00e+00	52	29	0	943718400	52	6427
2026-01-10 11:47:45.77	105.61	4.66	-39.4	-40.9	19.8	0.00e+00	92	29	0	945815552	52	6351
2026-01-10 11:47:46.78	105.74	4.62	-39.0	-40.4	20.2	0.00e+00	47	29	0	947912704	52	6027
2026-01-10 11:47:47.79	105.87	4.59	-39.2	-40.6	20.0	0.00e+00	92	29	0	950009856	52	6141
2026-01-10 11:47:48.79	105.99	4.55	-39.3	-40.7	19.9	0.00e+00	36	29	0	951058432	52	6239
2026-01-10 11:47:49.80	106.12	4.51	-39.0	-40.4	20.2	0.00e+00	0	29	0	953155584	52	5996
2026-01-10 11:47:50.81	106.25	4.47	-39.0	-40.4	20.2	0.00e+00	0	29	0	955252736	52	5976
2026-01-10 11:47:51.82	106.37	4.43	-39.2	-40.6	19.9	0.00e+00	0	29	0	957349888	52	6169
2026-01-10 11:47:52.83	106.50	4.40	-39.7	-41.2	19.4	0.00e+00	68	29	0	958398464	52	6551
2026-01-10 11:47:53.84	106.62	4.36	-39.4	-40.8	19.7	0.00e+00	0	29	0	960495616	52	6295
2026-01-10 11:47:54.85	106.75	4.32	-39.2	-40.8	19.7	0.00e+00	92	29	0	962592768	52	6285
2026-01-10 11:47:55.86	106.87	4.28	-38.9	-40.8	19.7	0.00e+00	3	29	0	964689920	52	6302
2026-01-10 11:47:56.87	107.00	4.24	-39.0	-41.1	19.4	0.00e+00	92	29	0	966787072	52	6468
2026-01-10 11:47:57.88	107.12	4.20	-38.8	-40.8	19.6	0.00e+00	0	29	0	968884224	52	6315
2026-01-10 11:47:58.89	107.25	4.16	-38.9	-40.9	19.5	0.00e+00	51	29	0	969932800	52	6364
2026-01-10 11:47:59.90	107.37	4.13	-39.0	-40.9	19.4	0.00e+00	0	29	0	972029952	52	6374
2026-01-10 11:48:00.91	107.49	4.09	-38.7	-40.9	19.5	0.00e+00	0	29	0	974127104	50	7096
2026-01-10 11:48:01.92	107.62	4.05	-38.5	-40.8	19.5	0.00e+00	92	29	0	976224256	50	7074
2026-01-10 11:48:02.93	107.74	4.01	-38.9	-41.4	18.9	0.00e+00	4	29	0	978321408	50	7518
2026-01-10 11:48:03.94	107.86	3.97	-39.4	-41.7	18.6	0.00e+00	92	29	0	979369984	50	7777
2026-01-10 11:48:04.95	107.99	3.93	-39.9	-42.0	18.3	0.00e+00	51	29	0	981467136	52	7190
2026-01-10 11:48:05.95	108.11	3.89	-40.1	-41.8	18.4	0.00e+00	29	29	0	983564288	52	7064
2026-01-10 11:48:06.96	108.23	3.85	-40.0	-41.7	18.5	0.00e+00	30	29	0	985661440	52	6947
2026-01-10 11:48:07.97	108.35	3.81	-40.6	-42.5	17.7	0.00e+00	30	29	0	987758592	52	7632
2026-01-10 11:48:08.98	108.47	3.77	-40.3	-42.2	17.9	0.00e+00	60	29	0	988807168	52	7373
2026-01-10 11:48:09.99	108.59	3.74	-40.6	-42.6	17.3	0.00e+00	31	29	0	990904320	52	7713
2026-01-10 11:48:11.00	108.71	3.70	-41.0	-43.0	17.1	0.00e+00	92	29	0	993001472	54	7231
2026-01-10 11:48:12.01	108.83	3.66	-40.0	-41.7	18.3	0.00e+00	0	29	0	995098624	54	6244
2026-01-10 11:48:13.02	108.95	3.62	-39.6	-41.4	18.7	0.00e+00	92	29	0	997195776	52	6725
2026-01-10 11:48:14.03	109.07	3.58	-40.0	-41.9	18.2	0.00e+00	29	29	0	998244352	52	7132
2026-01-10 11:48:15.04	109.19	3.54	-40.0	-41.7	18.3	0.00e+00	2	29	0	1000341504	52	6995
2026-01-10 11:48:16.05	109.31	3.50	-40.1	-41.9	18.1	0.00e+00	91	29	0	1002438656	52	7141
2026-01-10 11:48:17.06	109.43	3.46	-40.1	-42.0	18.0	0.00e+00	0	29	0	1004535808	52	7241
2026-01-10 11:48:18.07	109.55	3.42	-39.8	-41.7	18.2	0.00e+00	92	29	0	1006632960	52	6997
2026-01-10 11:48:19.08	109.66	3.38	-39.9	-41.8	18.0	0.00e+00	0	29	0	1007681536	52	7088
2026-01-10 11:48:20.09	109.78	3.34	-39.8	-41.6	18.3	0.00e+00	75	29	0	1009778688	52	6908
2026-01-10 11:48:21.10	109.90	3.30	-39.9	-41.6	18.3	0.00e+00	0	29	0	1011875840	52	6916
2026-01-10 11:48:22.11	110.02	3.26	-40.3	-42.1	17.7	0.00e+00	0	29	0	1013972992	52	7315
2026-01-10 11:48:23.11	110.13	3.22	-40.5	-42.5	17.4	0.00e+00	0	29	0	1016070144	52	7643
2026-01-10 11:48:24.12	110.25	3.18	-40.0	-42.0	17.7	0.00e+00	53	29	0	1017118720	52	7237
2026-01-10 11:48:25.13	110.36	3.14	-39.8	-42.0	17.6	0.00e+00	92	29	0	1019215872	52	7252
2026-01-10 11:48:26.14	110.48	3.10	-40.0	-42.4	17.2	0.00e+00	2	29	0	1021313024	52	7516
2026-01-10 11:48:27.15	110.60	3.06	-40.3	-42.8	16.8	0.00e+00	90	29	0	1023410176	52	7940
2026-01-10 11:48:28.17	110.71	3.02	-40.4	-42.5	17.4	0.00e+00	52	29	0	1025507328	52	7617
2026-01-10 11:48:29.18	110.83	2.98	-46.2	-62.2	3.6	1.49e+00	0	29	104	1025507328	60	46390
2026-01-10 11:48:30.19	110.94	2.94	-47.5	-62.7	3.6	1.51e+00	0	29	104	1025507328	60	49450
2026-01-10 11:48:31.20	111.06	2.90	-47.7	-62.9	3.6	1.51e+00	0	29	104	1025507328	60	50739
2026-01-10 11:48:32.21	111.17	2.86	-47.8	-63.0	3.6	1.51e+00	0	29	104	1025507328	60	51243
2026-01-10 11:48:33.22	111.28	2.82	-47.9	-63.1	3.6	1.51e+00	0	29	104	1025507328	60	51878
2026-01-10 11:48:34.23	111.40	2.78	-48.0	-63.2	3.6	1.51e+00	0	29	104	1025507328	60	52184
2026-01-10 11:48:35.24	111.51	2.74	-48.0	-63.2	3.6	1.51e+00	0	29	104	1025507328	60	52507
2026-01-10 11:48:36.25	111.62	2.70	-48.1	-63.3	3.6	1.51e+00	0	29	104	1025507328	60	52718
2026-01-10 11:48:37.26	111.74	2.66	-47.8	-63.3	3.6	1.51e+00	0	29	104	1025507328	60	52891
2026-01-10 11:48:38.27	111.85	2.62	-48.1	-63.2	3.6	1.51e+00	0	29	104	1025507328	60	52444
2026-01-10 11:48:39.28	111.96	2.58	-48.1	-63.2	3.6	1.51e+00	0	29	104	1025507328	60	52424
2026-01-10 11:48:40.29	112.07	2.54	-48.1	-63.3	3.6	1.51e+00	0	29	104	1025507328	60	52734
2026-01-10 11:48:41.30	112.18	2.50	-48.0	-63.3	3.6	1.51e+00	0	29	104	1025507328	60	52910
2026-01-10 11:48:42.30	112.29	2.46	-48.1	-63.3	3.6	1.51e+00	0	29	104	1025507328	60	52606
2026-01-10 11:48:43.31	112.40	2.42	-48.1	-63.2	3.6	1.51e+00	0	29	104	1025507328	60	52529
2026-01-10 11:48:44.32	112.51	2.38	-48.1	-63.2	3.6	1.51e+00	0	29	104	1025507328	60	52321
2026-01-10 11:48:45.33	112.62	2.34	-48.1	-63.3	3.6	1.51e+00	0	29	104	1025507328	60	52584
2026-01-10 11:48:46.34	112.73	2.30	-48.1	-63.3	3.6	1.51e+00	0	29	104	1025507328	60	52679
2026-01-10 11:48:47.35	112.84	2.26	-48.1	-63.2	3.6	1.51e+00	0	29	104	1025507328	60	52382
2026-01-10 11:48:48.36	112.95	2.22	-48.1	-63.2	3.6	1.51e+00	0	29	104	1025507328	60	52416
2026-01-10 11:48:49.37	113.06	2.18	-48.1	-63.3	3.6	1.51e+00	0	29	104	1025507328	60	52576
2026-01-10 11:48:50.38	113.17	2.14	-48.1	-63.3	3.6	1.51e+00	0	29	104	1025507328	60	52564
2026-01-10 11:48:51.39	113.28	2.09	-48.1	-63.2	3.6	1.51e+00	0	29	104	1025507328	60	52315
2026-01-10 11:48:52.40	113.39	2.05	-48.0	-63.2	3.6	1.51e+00	0	29	104	1025507328	60	52298
2026-01-10 11:48:53.41	113.50	2.01	-48.1	-63.2	3.6	1.51e+00	0	29	104	1025507328	60	52205
2026-01-10 11:48:54.42	113.60	1.97	-48.1	-63.2	3.6	1.51e+00	0	29	104	1025507328	60	52333
2026-01-10 11:48:55.43	113.71	1.93	-48.1	-63.3	3.6	1.51e+00	0	29	104	1025507328	60	52838
2026-01-10 11:48:56.44	113.82	1.89	-48.1	-63.3	3.6	1.51e+00	0	29	104	1025507328	60	52816
2026-01-10 11:48:57.45	113.93	1.85	-48.1	-63.2	3.6	1.51e+00	0	29	104	1025507328	60	52482
2026-01-10 11:48:58.46	114.03	1.81	-48.1	-63.2	3.6	1.51e+00	0	29	104	1025507328	60	52476
2026-01-10 11:48:59.47	114.14	1.77	-48.1	-63.3	3.6	1.51e+00	0	29	104	1025507328	60	52751
2026-01-10 11:49:00.48	114.24	1.73	-48.1	-63.2	3.6	1.51e+00	0	29	104	1025507328	60	52518
2026-01-10 11:49:01.49	114.35	1.69	-48.1	-63.3	3.6	1.51e+00	0	29	104	1025507328	60	52571
2026-01-10 11:49:02.50	114.45	1.65	-48.1	-63.3	3.6	1.51e+00	0	29	104	1025507328	60	52621
2026-01-10 11:49:03.51	114.56	1.61	-48.1	-63.2	3.6	1.51e+00	0	29	104	1025507328	60	52245
2026-01-10 11:49:04.52	114.66	1.56	-48.0	-63.2	3.6	1.51e+00	0	29	104	1025507328	60	52485
2026-01-10 11:49:05.53	114.77	1.52	-48.1	-63.3	3.6	1.51e+00	0	29	104	1025507328	60	52630
2026-01-10 11:49:06.54	114.87	1.48	-48.1	-63.3	3.6	1.51e+00	0	29	104	1025507328	60	52578
2026-01-10 11:49:07.55	114.98	1.44	-48.1	-63.3	3.6	1.51e+00	0	29	104	1025507328	60	53088
2026-01-10 11:49:08.56	115.08	1.40	-48.1	-63.3	3.6	1.51e+00	0	29	104	1025507328	60	52583
2026-01-10 11:49:09.57	115.19	1.36	-48.1	-63.3	3.6	1.51e+00	0	29	104	1025507328	60	52710
2026-01-10 11:49:10.58	115.29	1.32	-48.2	-63.3	3.6	1.51e+00	0	29	104	1025507328	60	52930
2026-01-10 11:49:11.59	115.39	1.28	-48.1	-63.2	3.6	1.51e+00	0	29	104	1025507328	60	52499
2026-01-10 11:49:12.60	115.49	1.24	-48.1	-63.3	3.6	1.51e+00	0	29	104	1025507328	60	52990
2026-01-10 11:49:13.61	115.60	1.20	-48.1	-63.3	3.6	1.51e+00	0	29	104	1025507328	60	52763
2026-01-10 11:49:14.62	115.70	1.15	-48.2	-63.3	3.6	1.51e+00	0	29	104	1025507328	60	52833
2026-01-10 11:49:15.63	115.80	1.11	-48.2	-63.4	3.6	1.51e+00	0	29	104	1025507328	60	53260
2026-01-10 11:49:16.64	115.90	1.07	-48.1	-63.3	3.6	1.51e+00	0	29	104	1025507328	60	52768
2026-01-10 11:49:17.65	116.00	1.03	-48.1	-63.3	3.6	1.51e+00	0	29	104	1025507328	60	52577
2026-01-10 11:49:18.66	116.10	0.99	-48.1	-63.3	3.6	1.51e+00	0	29	104	1025507328	60	52647
2026-01-10 11:49:19.67	116.21	0.95	-48.1	-63.2	3.6	1.51e+00	0	29	104	1025507328	60	52325
2026-01-10 11:49:20.68	116.31	0.91	-48.1	-63.3	3.6	1.51e+00	0	29	104	1025507328	60	53057
2026-01-10 11:49:21.69	116.41	0.87	-48.2	-63.3	3.6	1.51e+00	0	29	104	1025507328	60	53142
2026-01-10 11:49:22.70	116.51	0.83	-48.1	-63.3	3.6	1.51e+00	0	29	104	1025507328	60	52591
2026-01-10 11:49:23.71	116.61	0.78	-48.1	-63.2	3.6	1.51e+00	0	29	104	1025507328	60	52403
2026-01-10 11:49:24.72	116.71	0.74	-48.1	-63.2	3.6	1.51e+00	0	29	104	1025507328	60	52382
2026-01-10 11:49:25.73	116.80	0.70	-48.1	-63.2	3.6	1.51e+00	0	29	104	1025507328	60	52535
2026-01-10 11:49:26.74	116.90	0.66	-48.1	-63.3	3.6	1.51e+00	0	29	104	1025507328	60	52597
2026-01-10 11:49:27.74	117.00	0.62	-48.1	-63.3	3.6	1.51e+00	0	29	104	1025507328	60	52740
2026-01-10 11:49:28.75	117.10	0.58	-48.1	-63.3	3.6	1.51e+00	0	29	104	1025507328	60	53060
2026-01-10 11:49:29.76	117.20	0.54	-48.1	-63.3	3.6	1.51e+00	0	29	104	1025507328	60	52704
2026-01-10 11:49:30.77	117.30	0.50	-48.2	-63.4	3.6	1.51e+00	0	29	104	1025507328	60	53179
2026-01-10 11:49:31.78	117.39	0.46	-48.1	-63.3	3.6	1.51e+00	0	29	104	1025507328	60	52959
2026-01-10 11:49:32.79	117.49	0.41	-48.1	-63.2	3.6	1.51e+00	0	29	104	1025507328	60	52367
2026-01-10 11:49:33.80	117.59	0.37	-48.1	-63.2	3.6	1.51e+00	0	29	104	1025507328	60	52539
2026-01-10 11:49:34.81	117.68	0.33	-48.1	-63.3	3.6	1.51e+00	0	29	104	1025507328	60	52795
2026-01-10 11:49:35.82	117.78	0.29	-48.1	-63.2	3.6	1.51e+00	0	29	104	1025507328	60	52343
2026-01-10 11:49:36.83	117.88	0.25	-48.1	-63.3	3.6	1.51e+00	0	29	104	1025507328	60	52555
2026-01-10 11:49:37.84	117.97	0.21	-48.1	-63.3	3.6	1.51e+00	0	29	104	1025507328	60	52641
2026-01-10 11:49:38.85	118.07	0.17	-48.1	-63.3	3.6	1.51e+00	0	29	104	1025507328	60	53004
2026-01-10 11:49:39.86	118.17	0.13	-48.2	-63.3	3.6	1.51e+00	0	29	104	1025507328	60	52751
2026-01-10 11:49:40.87	118.26	0.08	-48.1	-63.3	3.6	1.51e+00	0	29	104	1025507328	60	52875
2026-01-10 11:49:41.88	118.36	0.04	-48.2	-63.3	3.6	1.51e+00	0	29	104	1025507328	60	53017
2026-01-10 11:49:42.89	118.45	0.00	-48.2	-63.3	3.6	1.51e+00	0	29	104	1025507328	60	52922
2026-01-10 11:49:43.90	118.55	-0.04	-48.2	-63.3	3.6	1.51e+00	0	29	104	1025507328	60	53003
2026-01-10 11:49:44.91	118.64	-0.08	-48.1	-63.3	3.6	1.51e+00	0	29	104	1025507328	60	53020

#Closed at: 2026-01-10 11:49:45
#Recorded file [1025 MB]: D:/lorett/data/35029_260110_233811.dat