passes_logs/2026/01/10/R4.6S_Anadyr/R4.6S_Anadyr__20260110_171821_FENGYUN_3D_rec.log

#Pass ID: 20260110_171821_FENGYUN 3D
#Satellite: FENGYUN 3D
#Configuration: FENGYUN 3D
#almurnet v.1.7.20251203
#Start time: 2026-01-10 17:18:24

#Version: 2.2.20231116
#Station: R4.6S_Anadyr
#Location: 177.4865 lon 64.73178 lat
#TLE: 1 43010U 17072A   26009.92921666 -.00000228  00000+0 -86059-4 0  9998
#TLE: 2 43010  98.9936 341.6668 0002176 116.7510 243.3888 14.19693142422537

#Time	Az	El	Level	Level2	SNR	BER	BlckErr	Temp	State	Recorded	gain1	gain2
2026-01-10 17:18:24.35	22.25	0.17	-48.1	-58.8	3.3	8.40e-01	0	26	0	0	60	31366
2026-01-10 17:18:25.36	22.24	0.23	-48.1	-60.3	3.6	8.44e-01	0	26	104	0	60	37338
2026-01-10 17:18:26.37	22.23	0.29	-48.2	-60.3	3.6	8.46e-01	0	26	104	0	60	37371
2026-01-10 17:18:27.37	22.22	0.35	-48.1	-60.2	3.6	8.45e-01	0	26	104	0	60	37040
2026-01-10 17:18:28.39	22.21	0.42	-48.1	-60.2	3.6	8.45e-01	0	26	104	0	60	37172
2026-01-10 17:18:29.40	22.20	0.48	-48.1	-60.1	3.6	8.45e-01	0	26	104	0	60	36674
2026-01-10 17:18:30.41	22.19	0.54	-48.0	-60.1	3.6	8.46e-01	0	26	104	0	60	36462
2026-01-10 17:18:31.41	22.18	0.60	-47.9	-60.0	3.6	8.45e-01	0	26	104	0	60	36099
2026-01-10 17:18:32.43	22.17	0.66	-47.7	-59.8	3.6	8.45e-01	0	26	104	0	60	35123
2026-01-10 17:18:33.43	22.16	0.72	-47.5	-59.6	3.6	8.46e-01	0	26	104	0	60	34553
2026-01-10 17:18:34.44	22.15	0.78	-47.4	-59.5	3.6	8.46e-01	0	26	104	0	60	34005
2026-01-10 17:18:35.45	22.14	0.84	-47.2	-59.3	3.6	8.46e-01	0	26	104	0	60	33189
2026-01-10 17:18:36.46	22.13	0.91	-46.7	-58.8	3.6	8.45e-01	0	26	104	0	60	31479
2026-01-10 17:18:37.47	22.12	0.97	-46.6	-58.7	3.6	8.45e-01	0	26	104	0	60	31130
2026-01-10 17:18:38.48	22.11	1.03	-46.6	-58.7	3.6	8.45e-01	0	26	104	0	60	31027
2026-01-10 17:18:39.49	22.10	1.09	-46.6	-58.7	3.6	8.45e-01	0	26	104	0	60	30960
2026-01-10 17:18:40.50	22.09	1.15	-46.6	-58.4	3.6	8.45e-01	0	26	104	0	60	30151
2026-01-10 17:18:41.51	22.08	1.22	-46.6	-58.4	3.6	8.45e-01	0	26	104	0	60	30138
2026-01-10 17:18:42.52	22.07	1.28	-46.6	-58.3	3.6	8.48e-01	0	26	104	0	60	29722
2026-01-10 17:18:43.53	22.06	1.34	-46.5	-58.2	3.6	8.45e-01	0	26	104	0	60	29503
2026-01-10 17:18:44.55	22.05	1.41	-46.5	-58.1	3.6	8.46e-01	0	26	104	0	60	29002
2026-01-10 17:18:45.55	22.04	1.47	-46.5	-58.0	3.6	8.44e-01	0	26	104	0	60	28718
2026-01-10 17:18:46.56	22.03	1.53	-46.5	-57.9	3.6	8.45e-01	0	26	104	0	60	28498
2026-01-10 17:18:47.57	22.02	1.59	-46.5	-57.9	3.6	8.44e-01	0	26	104	0	60	28278
2026-01-10 17:18:48.58	22.01	1.66	-46.5	-58.1	3.6	8.45e-01	0	26	104	0	60	29200
2026-01-10 17:18:49.59	21.99	1.72	-46.5	-58.4	3.6	8.45e-01	0	26	104	0	60	30217
2026-01-10 17:18:50.60	21.98	1.79	-46.5	-58.6	3.6	8.45e-01	0	26	104	0	60	30644
2026-01-10 17:18:51.61	21.97	1.85	-46.5	-58.7	3.6	8.46e-01	0	26	104	0	60	31020
2026-01-10 17:18:52.62	21.96	1.91	-46.5	-58.6	3.6	8.45e-01	0	26	104	0	60	30613
2026-01-10 17:18:53.63	21.95	1.98	-46.5	-58.5	3.6	8.45e-01	0	26	104	0	60	30432
2026-01-10 17:18:54.65	21.94	2.04	-46.5	-58.4	3.6	8.45e-01	0	26	104	0	60	30185
2026-01-10 17:18:55.65	21.93	2.11	-46.5	-58.1	3.6	8.44e-01	0	26	104	0	60	28912
2026-01-10 17:18:56.67	21.92	2.17	-46.5	-57.8	3.6	8.46e-01	0	26	104	0	60	27975
2026-01-10 17:18:57.67	21.90	2.24	-46.4	-57.2	3.6	8.45e-01	0	26	104	0	60	26163
2026-01-10 17:18:58.69	21.89	2.30	-46.4	-57.2	3.6	8.46e-01	0	26	104	0	60	26069
2026-01-10 17:18:59.70	21.88	2.37	-46.4	-56.6	3.7	8.43e-01	0	26	104	0	60	24523
2026-01-10 17:19:00.70	21.87	2.43	-46.3	-56.1	3.7	8.43e-01	0	26	104	0	60	22962
2026-01-10 17:19:01.72	21.86	2.50	-46.2	-55.5	3.7	8.43e-01	0	26	104	0	60	21645
2026-01-10 17:19:02.72	21.85	2.56	-46.3	-55.9	3.7	8.42e-01	0	26	104	0	60	22509
2026-01-10 17:19:03.73	21.83	2.63	-46.3	-55.6	3.7	8.41e-01	0	26	0	0	60	21661
2026-01-10 17:19:04.75	21.82	2.69	-46.2	-55.6	3.9	8.41e-01	0	26	104	0	60	21674
2026-01-10 17:19:05.75	21.81	2.76	-46.2	-55.0	4.0	8.42e-01	0	26	104	0	60	20305
2026-01-10 17:19:06.76	21.80	2.82	-45.8	-51.9	4.8	7.96e-01	0	26	0	0	60	14178
2026-01-10 17:19:07.78	21.79	2.89	-45.2	-49.8	6.8	3.09e-01	0	26	0	3145728	60	11212
2026-01-10 17:19:08.79	21.77	2.96	-44.2	-47.7	9.5	3.44e-02	0	26	0	8388608	60	8731
2026-01-10 17:19:09.79	21.76	3.02	-43.1	-45.7	11.7	2.51e-03	0	26	0	14680064	60	6984
2026-01-10 17:19:10.80	21.75	3.09	-42.2	-44.3	13.2	8.81e-05	0	26	0	19922944	58	6680
2026-01-10 17:19:11.81	21.74	3.16	-41.2	-42.9	14.7	3.40e-06	0	26	0	26214400	56	6373
2026-01-10 17:19:12.82	21.72	3.22	-40.4	-42.0	15.6	0.00e+00	0	26	0	31457280	54	6451
2026-01-10 17:19:13.83	21.71	3.29	-40.0	-41.4	16.1	0.00e+00	0	26	0	37748736	52	6722
2026-01-10 17:19:14.84	21.70	3.36	-39.2	-40.5	17.1	0.00e+00	0	26	0	42991616	52	6063
2026-01-10 17:19:15.86	21.69	3.43	-39.3	-40.7	16.9	0.00e+00	0	26	0	48234496	52	6174
2026-01-10 17:19:16.87	21.67	3.49	-40.0	-41.4	16.2	0.00e+00	0	26	0	54525952	52	6742
2026-01-10 17:19:17.88	21.66	3.56	-40.2	-41.7	15.9	0.00e+00	0	26	0	59768832	52	6945
2026-01-10 17:19:18.89	21.65	3.63	-40.9	-42.5	14.9	0.00e+00	0	26	0	66060288	54	6848
2026-01-10 17:19:19.90	21.63	3.70	-46.5	-57.3	3.6	3.04e-01	0	26	104	70254592	60	26385
2026-01-10 17:19:20.91	21.62	3.77	-43.5	-46.6	5.6	8.26e-01	0	27	104	70254592	60	7744
2026-01-10 17:19:21.92	21.61	3.83	-46.3	-57.2	3.6	4.31e-01	0	26	104	70254592	60	26213
2026-01-10 17:19:22.93	21.59	3.90	-35.4	-36.3	6.2	8.19e-01	0	26	104	70254592	44	5922
2026-01-10 17:19:23.94	21.58	3.97	-46.4	-57.0	3.6	5.15e-01	0	26	104	70254592	60	25484
2026-01-10 17:19:24.95	21.57	4.04	-35.4	-36.3	21.5	1.48e-03	0	27	0	70254592	46	5274
2026-01-10 17:19:25.96	21.55	4.11	-35.2	-36.0	21.5	0.00e+00	0	27	0	76546048	44	5750
2026-01-10 17:19:26.97	21.54	4.18	-35.1	-35.9	21.8	0.00e+00	0	26	0	81788928	44	5683
2026-01-10 17:19:27.98	21.53	4.25	-34.8	-35.6	22.0	0.00e+00	0	27	0	88080384	42	6156
2026-01-10 17:19:28.99	21.51	4.32	-34.6	-35.4	22.4	0.00e+00	0	26	0	93323264	42	5984
2026-01-10 17:19:30.00	21.50	4.39	-34.8	-35.6	22.2	0.00e+00	0	27	0	98566144	42	6132
2026-01-10 17:19:31.01	21.48	4.46	-34.9	-35.7	22.0	0.00e+00	0	26	0	104857600	42	6234
2026-01-10 17:19:32.02	21.47	4.53	-34.9	-35.7	22.1	0.00e+00	0	26	0	110100480	42	6218
2026-01-10 17:19:33.03	21.45	4.60	-34.7	-35.5	22.3	0.00e+00	0	27	0	116391936	42	6077
2026-01-10 17:19:34.04	21.44	4.67	-34.7	-35.5	22.3	0.00e+00	0	27	0	121634816	42	6047
2026-01-10 17:19:35.05	21.43	4.74	-34.7	-35.5	22.3	0.00e+00	0	27	0	126877696	42	6072
2026-01-10 17:19:36.06	21.41	4.81	-34.8	-35.6	22.3	0.00e+00	0	27	0	133169152	42	6128
2026-01-10 17:19:37.07	21.40	4.88	-34.7	-35.5	22.3	0.00e+00	0	27	0	138412032	42	6077
2026-01-10 17:19:38.08	21.38	4.95	-34.7	-35.4	22.4	0.00e+00	0	27	0	144703488	42	6026
2026-01-10 17:19:39.09	21.37	5.02	-34.5	-35.3	22.4	0.00e+00	0	27	0	149946368	42	5939
2026-01-10 17:19:40.10	21.35	5.10	-34.5	-35.3	22.5	0.00e+00	0	27	0	155189248	42	5945
2026-01-10 17:19:41.11	21.34	5.17	-34.7	-35.5	22.2	0.00e+00	0	27	0	161480704	42	6067
2026-01-10 17:19:42.12	21.32	5.24	-34.9	-35.7	22.1	0.00e+00	0	27	0	166723584	42	6228
2026-01-10 17:19:43.13	21.31	5.31	-34.6	-35.3	22.6	0.00e+00	0	27	0	173015040	42	5948
2026-01-10 17:19:44.14	21.29	5.39	-34.7	-35.4	22.5	0.00e+00	0	27	0	178257920	42	6026
2026-01-10 17:19:45.15	21.28	5.46	-34.5	-35.2	22.7	0.00e+00	0	27	0	184549376	42	5884
2026-01-10 17:19:46.16	21.26	5.53	-34.7	-35.5	22.5	0.00e+00	0	27	0	189792256	42	6082
2026-01-10 17:19:47.17	21.25	5.60	-34.5	-35.2	22.7	0.00e+00	0	27	0	196083712	42	5877
2026-01-10 17:19:48.18	21.23	5.68	-34.1	-34.9	23.0	0.00e+00	0	27	0	201326592	42	5653
2026-01-10 17:19:49.19	21.21	5.75	-34.1	-34.9	23.0	0.00e+00	0	27	0	206569472	42	5631
2026-01-10 17:19:50.20	21.20	5.82	-34.4	-35.2	22.8	0.00e+00	0	27	0	212860928	42	5843
2026-01-10 17:19:51.21	21.18	5.90	-34.4	-35.1	22.9	0.00e+00	0	27	0	218103808	42	5796
2026-01-10 17:19:52.22	21.17	5.97	-34.3	-35.1	22.8	0.00e+00	0	27	0	224395264	42	5804
2026-01-10 17:19:53.23	21.15	6.05	-34.3	-35.0	22.9	0.00e+00	0	27	0	229638144	42	5752
2026-01-10 17:19:54.24	21.13	6.12	-34.1	-34.9	23.1	0.00e+00	0	27	0	234881024	42	5661
2026-01-10 17:19:55.25	21.12	6.20	-34.2	-34.9	23.0	0.00e+00	0	27	0	241172480	42	5676
2026-01-10 17:19:56.26	21.10	6.27	-34.1	-34.8	23.2	0.00e+00	0	27	0	246415360	42	5606
2026-01-10 17:19:57.27	21.08	6.35	-34.1	-34.8	23.1	0.00e+00	0	27	0	252706816	42	5622
2026-01-10 17:19:58.28	21.07	6.42	-34.0	-34.8	23.2	0.00e+00	0	27	0	257949696	42	5571
2026-01-10 17:19:59.29	21.05	6.50	-34.0	-34.8	23.2	0.00e+00	0	27	0	263192576	42	5570
2026-01-10 17:20:00.30	21.03	6.57	-33.9	-34.6	23.4	0.00e+00	0	27	0	269484032	42	5478
2026-01-10 17:20:01.31	21.02	6.65	-34.0	-34.7	23.2	0.00e+00	0	27	0	274726912	42	5563
2026-01-10 17:20:02.32	21.00	6.72	-34.0	-34.7	23.3	0.00e+00	0	27	0	281018368	42	5566
2026-01-10 17:20:03.33	20.98	6.80	-33.9	-34.7	23.3	0.00e+00	0	27	0	286261248	42	5524
2026-01-10 17:20:04.34	20.96	6.88	-33.9	-34.7	23.4	0.00e+00	0	27	0	292552704	42	5529
2026-01-10 17:20:05.35	20.95	6.95	-33.9	-34.6	23.4	0.00e+00	0	27	0	297795584	42	5469
2026-01-10 17:20:06.36	20.93	7.03	-33.9	-34.7	23.2	0.00e+00	0	27	0	303038464	42	5520
2026-01-10 17:20:07.37	20.91	7.11	-33.9	-34.7	23.3	0.00e+00	0	27	0	309329920	42	5511
2026-01-10 17:20:08.38	20.89	7.19	-34.2	-35.0	23.1	0.00e+00	0	27	0	314572800	42	5700
2026-01-10 17:20:09.39	20.88	7.26	-34.2	-34.9	23.1	0.00e+00	0	27	0	320864256	42	5692
2026-01-10 17:20:10.40	20.86	7.34	-33.7	-34.4	23.6	0.00e+00	0	27	0	326107136	40	6028
2026-01-10 17:20:11.41	20.84	7.42	-33.8	-34.6	23.4	0.00e+00	0	27	0	331350016	40	6146
2026-01-10 17:20:12.42	20.82	7.50	-33.6	-34.4	23.7	0.00e+00	0	27	0	337641472	40	5978
2026-01-10 17:20:13.43	20.80	7.58	-33.6	-34.3	23.7	0.00e+00	0	27	0	342884352	40	5932
2026-01-10 17:20:14.44	20.78	7.66	-33.7	-34.5	23.6	0.00e+00	0	27	0	349175808	40	6049
2026-01-10 17:20:15.45	20.77	7.74	-33.6	-34.4	23.6	0.00e+00	0	27	0	354418688	40	5987
2026-01-10 17:20:16.46	20.75	7.82	-33.8	-34.5	23.6	0.00e+00	0	27	0	359661568	40	6072
2026-01-10 17:20:17.47	20.73	7.90	-33.4	-34.2	23.9	0.00e+00	0	27	0	365953024	40	5829
2026-01-10 17:20:18.48	20.71	7.98	-33.5	-34.3	23.8	0.00e+00	0	27	0	371195904	40	5901
2026-01-10 17:20:19.48	20.69	8.06	-33.4	-34.2	23.9	0.00e+00	0	27	0	377487360	40	5834
2026-01-10 17:20:20.49	20.67	8.14	-33.5	-34.2	23.8	0.00e+00	0	27	0	382730240	40	5852
2026-01-10 17:20:21.51	20.65	8.22	-33.4	-34.1	23.9	0.00e+00	0	27	0	389021696	40	5780
2026-01-10 17:20:22.52	20.63	8.30	-33.5	-34.2	23.8	0.00e+00	0	27	0	394264576	40	5861
2026-01-10 17:20:23.53	20.61	8.38	-33.7	-34.4	23.7	0.00e+00	0	27	0	400556032	40	6032
2026-01-10 17:20:24.54	20.59	8.46	-33.4	-34.1	24.0	0.00e+00	0	27	0	405798912	40	5803
2026-01-10 17:20:25.55	20.57	8.54	-33.5	-34.2	23.9	0.00e+00	0	27	0	411041792	40	5861
2026-01-10 17:20:26.56	20.55	8.62	-33.3	-34.0	24.1	0.00e+00	0	27	0	417333248	40	5740
2026-01-10 17:20:27.57	20.53	8.71	-33.2	-33.9	24.2	0.00e+00	0	27	0	422576128	40	5667
2026-01-10 17:20:28.58	20.51	8.79	-33.3	-34.0	24.1	0.00e+00	0	27	0	428867584	40	5700
2026-01-10 17:20:29.59	20.49	8.87	-33.2	-33.9	24.2	0.00e+00	0	27	0	434110464	40	5650
2026-01-10 17:20:30.60	20.47	8.96	-33.2	-33.9	24.2	0.00e+00	0	27	0	439353344	40	5664
2026-01-10 17:20:31.61	20.45	9.04	-33.2	-33.9	24.2	0.00e+00	0	27	0	445644800	40	5641
2026-01-10 17:20:32.62	20.43	9.12	-33.1	-33.8	24.2	0.00e+00	0	27	0	450887680	40	5624
2026-01-10 17:20:33.63	20.41	9.21	-33.1	-33.9	24.2	0.00e+00	0	27	0	457179136	40	5651
2026-01-10 17:20:34.64	20.38	9.29	-33.2	-33.9	24.3	0.00e+00	0	27	0	462422016	40	5647
2026-01-10 17:20:35.65	20.36	9.38	-33.1	-33.9	24.2	0.00e+00	0	27	0	467664896	40	5657
2026-01-10 17:20:36.66	20.34	9.46	-32.9	-33.6	24.4	0.00e+00	0	27	0	473956352	40	5497
2026-01-10 17:20:37.67	20.32	9.55	-33.1	-33.8	24.3	0.00e+00	0	27	0	479199232	40	5570
2026-01-10 17:20:38.68	20.30	9.63	-33.0	-33.7	24.4	0.00e+00	0	27	0	485490688	40	5523
2026-01-10 17:20:39.69	20.28	9.72	-33.0	-33.7	24.4	0.00e+00	0	27	0	490733568	40	5550
2026-01-10 17:20:40.70	20.25	9.80	-33.2	-33.9	24.2	0.00e+00	0	27	0	497025024	40	5674
2026-01-10 17:20:41.71	20.23	9.89	-32.9	-33.6	24.5	0.00e+00	0	27	0	502267904	40	5488
2026-01-10 17:20:42.72	20.21	9.98	-32.9	-33.6	24.5	0.00e+00	0	27	0	508559360	40	5495
2026-01-10 17:20:43.73	20.19	10.06	-33.1	-33.8	24.4	0.00e+00	0	27	0	513802240	40	5574
2026-01-10 17:20:44.74	20.16	10.15	-32.8	-33.5	24.6	0.00e+00	0	27	0	519045120	40	5403
2026-01-10 17:20:45.75	20.14	10.24	-32.8	-33.5	24.6	0.00e+00	0	27	0	525336576	40	5421
2026-01-10 17:20:46.76	20.12	10.32	-32.8	-33.5	24.7	0.00e+00	0	27	0	530579456	40	5400
2026-01-10 17:20:47.77	20.09	10.41	-32.7	-33.4	24.7	0.00e+00	0	27	0	536870912	38	5980
2026-01-10 17:20:48.78	20.07	10.50	-32.8	-33.5	24.6	0.00e+00	0	27	0	542113792	38	6080
2026-01-10 17:20:49.79	20.05	10.59	-32.6	-33.3	24.8	0.00e+00	0	27	0	547356672	38	5908
2026-01-10 17:20:50.80	20.02	10.68	-32.6	-33.3	24.8	0.00e+00	0	27	0	553648128	38	5939
2026-01-10 17:20:51.82	20.00	10.77	-32.5	-33.2	24.8	0.00e+00	0	27	0	558891008	38	5889
2026-01-10 17:20:52.83	19.97	10.86	-32.6	-33.3	24.8	0.00e+00	0	27	0	565182464	38	5953
2026-01-10 17:20:53.84	19.95	10.95	-32.6	-33.3	24.7	0.00e+00	0	27	0	570425344	38	5935
2026-01-10 17:20:54.85	19.93	11.04	-32.6	-33.3	24.8	0.00e+00	0	27	0	575668224	38	5915
2026-01-10 17:20:55.86	19.90	11.13	-32.4	-33.1	24.9	0.00e+00	0	27	0	581959680	38	5811
2026-01-10 17:20:56.87	19.88	11.22	-32.4	-33.1	25.0	0.00e+00	0	27	0	587202560	38	5807
2026-01-10 17:20:57.88	19.85	11.31	-32.4	-33.1	25.1	0.00e+00	0	27	0	593494016	38	5763
2026-01-10 17:20:58.89	19.83	11.40	-32.5	-33.2	24.9	0.00e+00	0	27	0	598736896	38	5869
2026-01-10 17:20:59.90	19.80	11.49	-32.4	-33.1	25.1	0.00e+00	0	28	0	605028352	38	5772
2026-01-10 17:21:00.91	19.77	11.59	-32.4	-33.1	25.1	0.00e+00	0	27	0	610271232	38	5799
2026-01-10 17:21:01.92	19.75	11.68	-32.4	-33.0	25.2	0.00e+00	0	28	0	616562688	38	5756
2026-01-10 17:21:02.93	19.72	11.77	-32.4	-33.1	24.9	0.00e+00	0	27	0	621805568	38	5816
2026-01-10 17:21:03.94	19.70	11.87	-32.3	-33.0	25.1	0.00e+00	0	28	0	627048448	38	5704
2026-01-10 17:21:04.95	19.67	11.96	-32.4	-33.1	25.2	0.00e+00	0	28	0	633339904	38	5795
2026-01-10 17:21:05.96	19.64	12.05	-32.4	-33.1	25.1	0.00e+00	0	27	0	638582784	38	5796
2026-01-10 17:21:06.97	19.62	12.15	-32.5	-33.1	25.0	0.00e+00	0	28	0	644874240	38	5824
2026-01-10 17:21:07.98	19.59	12.24	-32.2	-32.9	25.3	0.00e+00	0	28	0	650117120	38	5677
2026-01-10 17:21:08.99	19.56	12.34	-32.2	-32.9	25.2	0.00e+00	0	28	0	655360000	38	5671
2026-01-10 17:21:10.00	19.54	12.43	-32.2	-32.9	25.3	0.00e+00	0	27	0	661651456	38	5651
2026-01-10 17:21:11.02	19.51	12.53	-32.1	-32.8	25.3	0.00e+00	0	28	0	666894336	38	5600
2026-01-10 17:21:12.03	19.48	12.63	-32.1	-32.7	25.4	0.00e+00	0	28	0	673185792	38	5561
2026-01-10 17:21:13.03	19.45	12.72	-32.1	-32.8	25.4	0.00e+00	0	28	0	678428672	38	5598
2026-01-10 17:21:14.05	19.42	12.82	-32.1	-32.8	25.3	0.00e+00	0	28	0	683671552	38	5588
2026-01-10 17:21:15.05	19.40	12.92	-32.0	-32.7	25.4	0.00e+00	0	28	0	689963008	38	5517
2026-01-10 17:21:16.06	19.37	13.01	-32.1	-32.8	25.3	0.00e+00	0	28	0	695205888	38	5568
2026-01-10 17:21:17.07	19.34	13.11	-32.1	-32.8	25.3	0.00e+00	0	28	0	701497344	38	5574
2026-01-10 17:21:18.08	19.31	13.21	-32.0	-32.7	25.4	0.00e+00	0	28	0	706740224	38	5540
2026-01-10 17:21:19.09	19.28	13.31	-32.0	-32.6	25.5	0.00e+00	0	28	0	713031680	38	5498
2026-01-10 17:21:20.10	19.25	13.41	-31.9	-32.6	25.5	0.00e+00	0	28	0	718274560	38	5463
2026-01-10 17:21:21.11	19.22	13.51	-32.0	-32.7	25.4	0.00e+00	0	28	0	724566016	38	5533
2026-01-10 17:21:22.12	19.19	13.61	-31.9	-32.6	25.5	0.00e+00	0	28	0	729808896	38	5482
2026-01-10 17:21:23.13	19.16	13.71	-31.9	-32.6	25.5	0.00e+00	0	28	0	735051776	38	5473
2026-01-10 17:21:24.14	19.13	13.81	-31.9	-32.6	25.6	0.00e+00	0	28	0	741343232	38	5447
2026-01-10 17:21:25.15	19.10	13.91	-31.9	-32.6	25.7	0.00e+00	0	28	0	746586112	38	5445
2026-01-10 17:21:26.16	19.07	14.01	-31.8	-32.5	25.7	0.00e+00	0	28	0	752877568	36	6063
2026-01-10 17:21:27.17	19.04	14.11	-31.8	-32.5	25.7	0.00e+00	0	28	0	758120448	36	6041
2026-01-10 17:21:28.19	19.00	14.22	-31.7	-32.5	25.8	0.00e+00	0	28	0	763363328	36	6035
2026-01-10 17:21:29.19	18.97	14.32	-31.7	-32.4	25.8	0.00e+00	0	28	0	769654784	36	5993
2026-01-10 17:21:30.20	18.94	14.42	-31.6	-32.2	25.8	0.00e+00	0	28	0	774897664	36	5871
2026-01-10 17:21:31.21	18.91	14.53	-31.5	-32.2	26.0	0.00e+00	0	28	0	781189120	36	5851
2026-01-10 17:21:32.22	18.88	14.63	-31.5	-32.2	26.0	0.00e+00	0	28	0	786432000	36	5851
2026-01-10 17:21:33.23	18.84	14.74	-31.6	-32.2	25.9	0.00e+00	0	28	0	791674880	36	5870
2026-01-10 17:21:34.24	18.81	14.84	-31.4	-32.0	26.1	0.00e+00	0	28	0	797966336	36	5714
2026-01-10 17:21:35.25	18.78	14.95	-31.4	-32.1	26.1	0.00e+00	0	28	0	803209216	36	5779
2026-01-10 17:21:36.26	18.74	15.05	-31.4	-32.1	26.1	0.00e+00	0	28	0	809500672	36	5763
2026-01-10 17:21:37.27	18.71	15.16	-31.3	-31.9	26.1	0.00e+00	0	28	0	814743552	36	5675
2026-01-10 17:21:38.28	18.68	15.27	-31.3	-32.0	26.2	0.00e+00	0	28	0	821035008	36	5721
2026-01-10 17:21:39.29	18.64	15.37	-31.6	-32.2	25.9	0.00e+00	0	28	0	826277888	36	5884
2026-01-10 17:21:40.31	18.61	15.48	-31.1	-31.8	26.3	0.00e+00	0	28	0	831520768	36	5577
2026-01-10 17:21:41.32	18.57	15.59	-31.3	-31.9	26.2	0.00e+00	0	28	0	837812224	36	5663
2026-01-10 17:21:42.32	18.54	15.70	-31.1	-31.7	26.2	0.00e+00	0	28	0	843055104	36	5556
2026-01-10 17:21:43.34	18.50	15.81	-31.0	-31.6	26.3	0.00e+00	0	28	0	849346560	36	5493
2026-01-10 17:21:44.35	18.47	15.92	-31.0	-31.6	26.4	0.00e+00	0	28	0	854589440	36	5495
2026-01-10 17:21:45.36	18.43	16.03	-30.9	-31.6	26.4	0.00e+00	0	28	0	859832320	36	5459
2026-01-10 17:21:46.37	18.39	16.14	-31.1	-31.7	26.1	0.00e+00	0	28	0	866123776	36	5564
2026-01-10 17:21:47.38	18.36	16.25	-31.0	-31.7	26.5	0.00e+00	0	28	0	871366656	36	5505
2026-01-10 17:21:48.39	18.32	16.36	-30.8	-31.4	26.6	0.00e+00	0	28	0	877658112	36	5358
2026-01-10 17:21:49.40	18.28	16.48	-30.8	-31.4	26.6	0.00e+00	0	28	0	882900992	34	6000
2026-01-10 17:21:50.41	18.25	16.59	-30.7	-31.3	26.8	0.00e+00	0	28	0	888143872	34	5949
2026-01-10 17:21:51.42	18.21	16.70	-30.7	-31.3	26.7	0.00e+00	0	28	0	894435328	34	5940
2026-01-10 17:21:52.43	18.17	16.82	-30.7	-31.3	26.7	0.00e+00	0	28	0	899678208	34	5950
2026-01-10 17:21:53.44	18.13	16.93	-30.7	-31.3	26.7	0.00e+00	0	28	0	905969664	34	5957
2026-01-10 17:21:54.45	18.09	17.04	-30.9	-31.5	26.6	0.00e+00	0	28	0	911212544	34	6059
2026-01-10 17:21:55.46	18.05	17.16	-30.7	-31.3	26.7	0.00e+00	0	28	0	917504000	34	5940
2026-01-10 17:21:56.47	18.01	17.28	-30.5	-31.2	26.9	0.00e+00	0	28	0	922746880	34	5836
2026-01-10 17:21:57.48	17.97	17.39	-30.6	-31.2	26.8	0.00e+00	0	28	0	929038336	34	5853
2026-01-10 17:21:58.48	17.93	17.51	-30.4	-31.0	27.0	0.00e+00	0	28	0	934281216	34	5750
2026-01-10 17:21:59.50	17.89	17.63	-30.4	-31.1	27.0	0.00e+00	0	28	0	939524096	34	5767
2026-01-10 17:22:00.51	17.85	17.74	-30.4	-31.0	27.0	0.00e+00	0	28	0	945815552	34	5740
2026-01-10 17:22:01.52	17.81	17.86	-30.6	-31.2	26.8	0.00e+00	0	28	0	951058432	34	5874
2026-01-10 17:22:02.53	17.77	17.98	-30.3	-31.0	27.1	0.00e+00	0	28	0	957349888	34	5716
2026-01-10 17:22:03.54	17.73	18.10	-30.3	-31.0	27.0	0.00e+00	0	28	0	962592768	34	5703
2026-01-10 17:22:04.55	17.69	18.22	-30.3	-31.0	27.0	0.00e+00	0	28	0	967835648	34	5699
2026-01-10 17:22:05.56	17.64	18.34	-30.4	-31.0	27.0	0.00e+00	0	28	0	974127104	34	5744
2026-01-10 17:22:06.57	17.60	18.47	-30.3	-30.9	27.1	0.00e+00	0	28	0	979369984	34	5678
2026-01-10 17:22:07.58	17.56	18.59	-30.4	-31.0	27.0	0.00e+00	0	28	0	985661440	34	5748
2026-01-10 17:22:08.59	17.51	18.71	-30.3	-31.0	27.1	0.00e+00	0	28	0	990904320	34	5706
2026-01-10 17:22:09.60	17.47	18.83	-30.2	-30.9	27.1	0.00e+00	0	28	0	996147200	34	5661
2026-01-10 17:22:10.61	17.42	18.96	-30.2	-30.8	27.2	0.00e+00	0	28	0	1002438656	34	5630
2026-01-10 17:22:11.62	17.38	19.08	-30.2	-30.8	27.1	0.00e+00	0	28	0	1007681536	34	5628
2026-01-10 17:22:12.63	17.33	19.21	-30.3	-30.9	27.1	0.00e+00	0	28	0	1013972992	34	5659
2026-01-10 17:22:13.63	17.29	19.33	-30.3	-30.9	27.1	0.00e+00	0	28	0	1019215872	34	5675
2026-01-10 17:22:14.65	17.24	19.46	-30.2	-30.9	27.2	0.00e+00	0	28	0	1025507328	34	5644
2026-01-10 17:22:15.65	17.20	19.58	-30.2	-30.9	27.1	0.00e+00	0	28	0	1030750208	34	5639
2026-01-10 17:22:16.66	17.15	19.71	-30.2	-30.8	27.2	0.00e+00	0	28	0	1037041664	34	5602
2026-01-10 17:22:17.68	17.10	19.84	-30.3	-30.9	27.2	0.00e+00	0	28	0	1042284544	34	5684
2026-01-10 17:22:18.69	17.05	19.97	-30.2	-30.8	27.2	0.00e+00	0	28	0	1047527424	34	5628
2026-01-10 17:22:19.70	17.00	20.10	-30.2	-30.9	27.2	0.00e+00	0	28	0	1053818880	34	5670
2026-01-10 17:22:20.71	16.96	20.23	-30.2	-30.8	27.2	0.00e+00	0	28	0	1059061760	34	5591
2026-01-10 17:22:21.72	16.91	20.36	-30.2	-30.8	27.1	0.00e+00	0	28	0	1065353216	34	5605
2026-01-10 17:22:22.73	16.86	20.49	-30.2	-30.8	27.2	0.00e+00	0	28	0	1070596096	34	5614
2026-01-10 17:22:23.74	16.81	20.62	-30.3	-31.0	27.1	0.00e+00	0	28	0	1075838976	34	5707
2026-01-10 17:22:24.75	16.76	20.76	-30.2	-30.8	27.2	0.00e+00	0	28	0	1082130432	34	5629
2026-01-10 17:22:25.76	16.71	20.89	-30.2	-30.9	27.3	0.00e+00	0	28	0	1087373312	34	5633
2026-01-10 17:22:26.77	16.65	21.02	-30.3	-30.9	27.1	0.00e+00	0	28	0	1093664768	34	5664
2026-01-10 17:22:27.78	16.60	21.16	-30.2	-30.8	27.3	0.00e+00	0	28	0	1098907648	34	5612
2026-01-10 17:22:28.79	16.55	21.29	-30.2	-30.9	27.2	0.00e+00	0	28	0	1104150528	34	5648
2026-01-10 17:22:29.80	16.50	21.43	-30.2	-30.8	27.2	0.00e+00	0	28	0	1110441984	34	5626
2026-01-10 17:22:30.81	16.44	21.57	-30.2	-30.8	27.3	0.00e+00	0	28	0	1115684864	34	5588
2026-01-10 17:22:31.82	16.39	21.71	-30.3	-30.9	27.1	0.00e+00	0	28	0	1121976320	34	5650
2026-01-10 17:22:32.83	16.33	21.84	-29.9	-30.6	27.4	0.00e+00	0	28	0	1127219200	34	5453
2026-01-10 17:22:33.84	16.28	21.98	-30.1	-30.7	27.2	0.00e+00	0	28	0	1133510656	34	5553
2026-01-10 17:22:34.85	16.22	22.12	-30.0	-30.6	27.5	0.00e+00	0	28	0	1138753536	34	5466
2026-01-10 17:22:35.86	16.17	22.26	-29.8	-30.4	27.6	0.00e+00	0	28	0	1143996416	34	5361
2026-01-10 17:22:36.87	16.11	22.40	-29.9	-30.5	27.5	0.00e+00	0	28	0	1150287872	32	6063
2026-01-10 17:22:37.88	16.05	22.55	-29.5	-30.1	27.8	0.00e+00	0	28	0	1155530752	32	5819
2026-01-10 17:22:38.89	16.00	22.69	-29.6	-30.2	27.8	0.00e+00	0	28	0	1161822208	32	5842
2026-01-10 17:22:39.90	15.94	22.83	-29.2	-29.8	28.0	0.00e+00	0	28	0	1167065088	32	5612
2026-01-10 17:22:40.91	15.88	22.98	-29.3	-29.9	28.0	0.00e+00	0	28	0	1172307968	32	5671
2026-01-10 17:22:41.92	15.82	23.12	-29.1	-29.7	28.2	0.00e+00	0	28	0	1178599424	32	5556
2026-01-10 17:22:42.93	15.76	23.27	-29.1	-29.7	28.1	0.00e+00	0	28	0	1183842304	32	5525
2026-01-10 17:22:43.94	15.70	23.42	-29.1	-29.7	28.1	0.00e+00	0	28	0	1190133760	32	5564
2026-01-10 17:22:44.95	15.64	23.56	-28.9	-29.5	28.3	0.00e+00	0	28	0	1195376640	32	5436
2026-01-10 17:22:45.96	15.57	23.71	-29.0	-29.6	28.2	0.00e+00	0	28	0	1201668096	32	5476
2026-01-10 17:22:46.97	15.51	23.86	-29.0	-29.6	28.2	0.00e+00	0	28	0	1206910976	32	5461
2026-01-10 17:22:47.98	15.45	24.01	-29.1	-29.7	28.0	0.00e+00	0	28	0	1212153856	32	5521
2026-01-10 17:22:49.00	15.38	24.16	-29.1	-29.7	28.2	0.00e+00	0	28	0	1218445312	32	5525
2026-01-10 17:22:50.01	15.32	24.31	-29.3	-29.9	28.0	0.00e+00	0	28	0	1223688192	32	5640
2026-01-10 17:22:51.02	15.25	24.47	-29.2	-29.9	28.0	0.00e+00	0	28	0	1229979648	32	5640
2026-01-10 17:22:52.03	15.19	24.62	-29.5	-30.1	27.9	0.00e+00	0	28	0	1235222528	32	5776
2026-01-10 17:22:53.04	15.12	24.77	-29.3	-30.0	28.0	0.00e+00	0	28	0	1241513984	32	5698
2026-01-10 17:22:54.05	15.05	24.93	-29.4	-30.0	28.0	0.00e+00	0	28	0	1246756864	32	5751
2026-01-10 17:22:55.06	14.99	25.09	-29.4	-30.0	27.9	0.00e+00	0	28	0	1251999744	32	5744
2026-01-10 17:22:56.07	14.92	25.24	-29.4	-30.0	27.9	0.00e+00	0	28	0	1258291200	32	5709
2026-01-10 17:22:57.08	14.85	25.40	-29.3	-30.0	28.0	0.00e+00	0	28	0	1263534080	32	5705
2026-01-10 17:22:58.09	14.78	25.56	-29.2	-29.8	28.1	0.00e+00	0	28	0	1269825536	32	5610
2026-01-10 17:22:59.10	14.71	25.72	-29.4	-30.0	27.9	0.00e+00	0	28	0	1275068416	32	5744
2026-01-10 17:23:00.11	14.64	25.88	-29.2	-29.8	28.0	0.00e+00	0	28	0	1280311296	32	5606
2026-01-10 17:23:01.12	14.56	26.04	-29.1	-29.7	28.2	0.00e+00	0	28	0	1286602752	32	5543
2026-01-10 17:23:02.13	14.49	26.20	-29.0	-29.6	28.2	0.00e+00	0	28	0	1291845632	32	5490
2026-01-10 17:23:03.14	14.42	26.37	-29.1	-29.7	28.2	0.00e+00	0	28	0	1298137088	32	5548
2026-01-10 17:23:04.15	14.34	26.53	-29.0	-29.7	28.1	0.00e+00	0	28	0	1303379968	32	5503
2026-01-10 17:23:05.16	14.27	26.70	-29.1	-29.7	28.2	0.00e+00	0	28	0	1308622848	32	5548
2026-01-10 17:23:06.17	14.19	26.86	-29.0	-29.6	28.2	0.00e+00	0	28	0	1314914304	32	5468
2026-01-10 17:23:07.18	14.11	27.03	-29.2	-29.8	28.2	0.00e+00	0	28	0	1320157184	32	5587
2026-01-10 17:23:08.19	14.03	27.20	-29.1	-29.7	28.2	0.00e+00	0	29	0	1326448640	32	5515
2026-01-10 17:23:09.20	13.96	27.37	-29.2	-29.8	28.0	0.00e+00	0	28	0	1331691520	32	5620
2026-01-10 17:23:10.21	13.88	27.54	-29.2	-29.9	28.0	0.00e+00	0	28	0	1337982976	32	5644
2026-01-10 17:23:11.22	13.79	27.71	-29.3	-29.9	28.0	0.00e+00	0	28	0	1343225856	32	5677
2026-01-10 17:23:12.23	13.71	27.88	-29.1	-29.7	28.2	0.00e+00	0	29	0	1349517312	32	5540
2026-01-10 17:23:13.24	13.63	28.05	-29.1	-29.7	28.2	0.00e+00	0	28	0	1354760192	32	5539
2026-01-10 17:23:14.25	13.55	28.23	-29.0	-29.7	28.2	0.00e+00	0	28	0	1360003072	32	5527
2026-01-10 17:23:15.26	13.46	28.40	-29.1	-29.7	28.2	0.00e+00	0	29	0	1366294528	32	5551
2026-01-10 17:23:16.27	13.38	28.58	-29.2	-29.8	28.1	0.00e+00	0	29	0	1371537408	32	5600
2026-01-10 17:23:17.28	13.29	28.75	-28.9	-29.6	28.2	0.00e+00	0	29	0	1377828864	32	5464
2026-01-10 17:23:18.29	13.20	28.93	-29.0	-29.6	28.3	0.00e+00	0	29	0	1383071744	32	5475
2026-01-10 17:23:19.30	13.11	29.11	-28.9	-29.5	28.3	0.00e+00	0	28	0	1388314624	32	5433
2026-01-10 17:23:20.31	13.02	29.29	-29.0	-29.6	28.2	0.00e+00	0	28	0	1394606080	32	5467
2026-01-10 17:23:21.32	12.93	29.47	-28.9	-29.5	28.3	0.00e+00	0	29	0	1399848960	32	5403
2026-01-10 17:23:22.33	12.84	29.66	-28.8	-29.5	28.3	0.00e+00	0	29	0	1406140416	32	5409
2026-01-10 17:23:23.34	12.75	29.84	-28.8	-29.5	28.3	0.00e+00	0	28	0	1411383296	32	5379
2026-01-10 17:23:24.35	12.66	30.02	-28.8	-29.4	28.4	0.00e+00	0	29	0	1416626176	32	5371
2026-01-10 17:23:25.37	12.56	30.21	-28.9	-29.5	28.4	0.00e+00	0	29	0	1422917632	30	6078
2026-01-10 17:23:26.38	12.46	30.40	-28.8	-29.4	28.4	0.00e+00	0	29	0	1428160512	30	5985
2026-01-10 17:23:27.39	12.37	30.59	-28.8	-29.4	28.5	0.00e+00	0	29	0	1434451968	30	5979
2026-01-10 17:23:28.40	12.27	30.78	-28.7	-29.4	28.4	0.00e+00	0	29	0	1439694848	30	5976
2026-01-10 17:23:29.41	12.17	30.97	-28.9	-29.5	28.4	0.00e+00	0	28	0	1445986304	30	6076
2026-01-10 17:23:30.41	12.07	31.16	-29.0	-29.6	28.3	0.00e+00	0	29	0	1451229184	30	6173
2026-01-10 17:23:31.42	11.97	31.35	-28.9	-29.5	28.4	0.00e+00	0	29	0	1457520640	30	6076
2026-01-10 17:23:32.43	11.86	31.54	-28.8	-29.4	28.4	0.00e+00	0	29	0	1462763520	30	5990
2026-01-10 17:23:33.44	11.76	31.74	-28.8	-29.4	28.5	0.00e+00	0	29	0	1468006400	30	5986
2026-01-10 17:23:34.45	11.65	31.93	-28.7	-29.4	28.5	0.00e+00	0	29	0	1474297856	30	5977
2026-01-10 17:23:35.46	11.54	32.13	-28.9	-29.5	28.4	0.00e+00	0	29	0	1479540736	30	6096
2026-01-10 17:23:36.47	11.43	32.33	-28.8	-29.4	28.4	0.00e+00	0	29	0	1485832192	30	6012
2026-01-10 17:23:37.48	11.32	32.53	-28.8	-29.4	28.4	0.00e+00	0	29	0	1491075072	30	5996
2026-01-10 17:23:38.49	11.21	32.73	-28.6	-29.2	28.6	0.00e+00	0	29	0	1496317952	30	5875
2026-01-10 17:23:39.50	11.10	32.93	-28.6	-29.2	28.6	0.00e+00	0	29	0	1502609408	30	5871
2026-01-10 17:23:40.51	10.98	33.14	-28.6	-29.2	28.6	0.00e+00	0	29	0	1507852288	30	5851
2026-01-10 17:23:41.52	10.87	33.34	-28.5	-29.1	28.6	0.00e+00	0	29	0	1514143744	30	5796
2026-01-10 17:23:42.53	10.75	33.55	-28.4	-29.1	28.7	0.00e+00	0	29	0	1519386624	30	5768
2026-01-10 17:23:43.54	10.63	33.75	-28.5	-29.1	28.7	0.00e+00	0	29	0	1524629504	30	5790
2026-01-10 17:23:44.55	10.51	33.96	-28.7	-29.3	28.5	0.00e+00	0	29	0	1530920960	30	5914
2026-01-10 17:23:45.56	10.39	34.17	-28.8	-29.4	28.5	0.00e+00	0	29	0	1536163840	30	5986
2026-01-10 17:23:46.57	10.27	34.38	-28.9	-29.5	28.4	0.00e+00	0	28	0	1542455296	30	6078
2026-01-10 17:23:47.58	10.14	34.60	-28.6	-29.2	28.6	0.00e+00	0	29	0	1547698176	30	5872
2026-01-10 17:23:48.59	10.01	34.81	-28.7	-29.3	28.6	0.00e+00	0	29	0	1553989632	30	5946
2026-01-10 17:23:49.60	9.88	35.02	-28.7	-29.3	28.6	0.00e+00	0	29	0	1559232512	30	5925
2026-01-10 17:23:50.61	9.75	35.24	-28.4	-29.1	28.7	0.00e+00	0	29	0	1565523968	30	5764
2026-01-10 17:23:51.62	9.62	35.46	-28.4	-29.0	28.7	0.00e+00	0	29	0	1570766848	30	5735
2026-01-10 17:23:52.63	9.49	35.68	-28.2	-28.8	28.9	0.00e+00	0	29	0	1576009728	30	5611
2026-01-10 17:23:53.64	9.35	35.90	-28.2	-28.8	28.9	0.00e+00	0	29	0	1582301184	30	5579
2026-01-10 17:23:54.65	9.21	36.12	-28.1	-28.7	29.0	0.00e+00	0	29	0	1587544064	30	5532
2026-01-10 17:23:55.66	9.07	36.34	-28.0	-28.6	29.1	0.00e+00	0	29	0	1593835520	30	5498
2026-01-10 17:23:56.67	8.93	36.56	-28.1	-28.7	29.0	0.00e+00	0	29	0	1599078400	30	5529
2026-01-10 17:23:57.68	8.78	36.79	-28.1	-28.7	29.0	0.00e+00	0	29	0	1604321280	30	5555
2026-01-10 17:23:58.69	8.64	37.02	-28.2	-28.8	28.9	0.00e+00	0	29	0	1610612736	30	5614
2026-01-10 17:23:59.70	8.49	37.25	-28.2	-28.8	28.9	0.00e+00	0	29	0	1615855616	30	5602
2026-01-10 17:24:00.71	8.34	37.47	-28.4	-29.0	28.8	0.00e+00	0	29	0	1622147072	30	5724
2026-01-10 17:24:01.73	8.19	37.71	-28.5	-29.1	28.7	0.00e+00	0	29	0	1627389952	30	5787
2026-01-10 17:24:02.74	8.03	37.94	-28.5	-29.1	28.7	0.00e+00	0	29	0	1632632832	30	5823
2026-01-10 17:24:03.75	7.87	38.17	-28.5	-29.1	28.7	0.00e+00	0	29	0	1638924288	30	5767
2026-01-10 17:24:04.76	7.71	38.41	-28.4	-29.0	28.8	0.00e+00	0	29	0	1644167168	30	5714
2026-01-10 17:24:05.77	7.55	38.65	-28.5	-29.2	28.7	0.00e+00	0	29	0	1650458624	30	5835
2026-01-10 17:24:06.78	7.39	38.88	-28.5	-29.1	28.7	0.00e+00	0	29	0	1655701504	30	5784
2026-01-10 17:24:07.79	7.22	39.12	-28.5	-29.2	28.6	0.00e+00	0	29	0	1661992960	30	5840
2026-01-10 17:24:08.80	7.05	39.36	-28.6	-29.2	28.7	0.00e+00	0	29	0	1667235840	30	5840
2026-01-10 17:24:09.81	6.88	39.61	-28.7	-29.4	28.5	0.00e+00	0	29	0	1672478720	30	5975
2026-01-10 17:24:10.82	6.70	39.85	-28.5	-29.1	28.7	0.00e+00	0	29	0	1678770176	30	5807
2026-01-10 17:24:11.83	6.53	40.09	-28.6	-29.2	28.6	0.00e+00	0	29	0	1684013056	30	5845
2026-01-10 17:24:12.84	6.35	40.34	-28.6	-29.2	28.6	0.00e+00	0	29	0	1690304512	30	5866
2026-01-10 17:24:13.85	6.16	40.59	-28.9	-29.5	28.4	0.00e+00	0	29	0	1695547392	30	6066
2026-01-10 17:24:14.86	5.98	40.84	-29.0	-29.7	28.3	0.00e+00	0	29	0	1700790272	30	6184
2026-01-10 17:24:15.87	5.79	41.09	-29.2	-29.9	28.2	0.00e+00	0	29	0	1707081728	30	6320
2026-01-10 17:24:16.88	5.60	41.34	-29.2	-29.8	28.2	0.00e+00	0	29	0	1712324608	30	6302
2026-01-10 17:24:17.88	5.41	41.59	-29.1	-29.7	28.2	0.00e+00	0	29	0	1718616064	30	6222
2026-01-10 17:24:18.89	5.21	41.84	-28.9	-29.5	28.4	0.00e+00	0	29	0	1723858944	30	6093
2026-01-10 17:24:19.90	5.01	42.10	-28.9	-29.6	28.5	0.00e+00	0	29	0	1729101824	30	6112
2026-01-10 17:24:20.91	4.80	42.36	-29.0	-29.6	28.4	0.00e+00	0	29	0	1735393280	30	6158
2026-01-10 17:24:21.92	4.59	42.61	-28.9	-29.5	28.3	0.00e+00	0	29	0	1740636160	30	6043
2026-01-10 17:24:22.93	4.38	42.87	-29.0	-29.6	28.3	0.00e+00	0	29	0	1746927616	30	6116
2026-01-10 17:24:23.94	4.17	43.14	-29.0	-29.7	28.3	0.00e+00	0	29	0	1752170496	30	6206
2026-01-10 17:24:24.95	3.95	43.40	-29.0	-29.6	28.3	0.00e+00	0	29	0	1758461952	30	6143
2026-01-10 17:24:25.96	3.73	43.66	-29.0	-29.6	28.3	0.00e+00	0	29	0	1763704832	30	6129
2026-01-10 17:24:26.97	3.50	43.93	-28.9	-29.5	28.4	0.00e+00	0	29	0	1769996288	30	6061
2026-01-10 17:24:27.98	3.27	44.19	-29.0	-29.6	28.3	0.00e+00	0	29	0	1775239168	30	6150
2026-01-10 17:24:28.99	3.04	44.46	-29.1	-29.8	28.2	0.00e+00	0	29	0	1780482048	30	6256
2026-01-10 17:24:30.00	2.80	44.73	-29.1	-29.7	28.3	0.00e+00	0	29	0	1786773504	30	6204
2026-01-10 17:24:31.01	2.56	45.00	-29.1	-29.7	28.2	0.00e+00	0	29	0	1792016384	30	6228
2026-01-10 17:24:32.02	2.31	45.27	-29.0	-29.6	28.4	0.00e+00	0	29	0	1798307840	30	6138
2026-01-10 17:24:33.03	2.06	45.55	-29.0	-29.6	28.3	0.00e+00	0	29	0	1803550720	30	6140
2026-01-10 17:24:34.04	1.81	45.82	-28.9	-29.5	28.4	0.00e+00	0	29	0	1808793600	30	6093
2026-01-10 17:24:35.05	1.55	46.10	-29.0	-29.7	28.2	0.00e+00	0	29	0	1815085056	30	6196
2026-01-10 17:24:36.06	1.29	46.37	-29.0	-29.7	28.2	0.00e+00	0	29	0	1820327936	30	6174
2026-01-10 17:24:37.07	1.02	46.65	-29.3	-29.9	28.1	0.00e+00	0	29	0	1826619392	30	6375
2026-01-10 17:24:38.09	0.74	46.93	-29.1	-29.7	28.2	0.00e+00	0	29	0	1831862272	30	6211
2026-01-10 17:24:39.10	0.46	47.21	-29.1	-29.7	28.3	0.00e+00	0	29	0	1837105152	30	6224
2026-01-10 17:24:40.11	0.18	47.49	-29.0	-29.6	28.3	0.00e+00	0	29	0	1843396608	30	6171
2026-01-10 17:24:41.12	359.89	47.78	-29.2	-29.8	28.1	0.00e+00	0	29	0	1848639488	30	6294
2026-01-10 17:24:42.13	359.59	48.06	-29.4	-30.0	28.1	0.00e+00	0	29	0	1854930944	30	6402
2026-01-10 17:24:43.14	359.29	48.34	-29.4	-30.1	28.0	0.00e+00	0	29	0	1860173824	30	6471
2026-01-10 17:24:44.15	358.99	48.63	-29.4	-30.0	28.0	0.00e+00	0	29	0	1866465280	30	6453
2026-01-10 17:24:45.15	358.68	48.91	-29.5	-30.1	27.9	0.00e+00	0	29	0	1871708160	30	6529
2026-01-10 17:24:46.16	358.36	49.20	-29.7	-30.3	27.8	0.00e+00	0	29	0	1877999616	32	5960
2026-01-10 17:24:47.18	358.04	49.49	-30.0	-30.6	27.5	0.00e+00	0	29	0	1883242496	32	6153
2026-01-10 17:24:48.19	357.71	49.78	-30.1	-30.8	27.5	0.00e+00	0	29	0	1888485376	32	6254
2026-01-10 17:24:49.19	357.38	50.07	-30.0	-30.6	27.6	0.00e+00	0	29	0	1894776832	32	6125
2026-01-10 17:24:50.20	357.03	50.36	-29.8	-30.4	27.8	0.00e+00	0	29	0	1900019712	32	6010
2026-01-10 17:24:51.21	356.68	50.65	-30.1	-30.8	27.5	0.00e+00	0	29	0	1906311168	32	6249
2026-01-10 17:24:52.23	356.32	50.94	-30.1	-30.7	27.5	0.00e+00	0	29	0	1911554048	32	6243
2026-01-10 17:24:53.23	355.96	51.23	-30.1	-30.7	27.4	0.00e+00	0	29	0	1916796928	32	6231
2026-01-10 17:24:54.24	355.59	51.53	-30.0	-30.5	27.6	0.00e+00	0	29	0	1923088384	32	6095
2026-01-10 17:24:55.25	355.22	51.82	-29.7	-30.3	27.7	0.00e+00	0	29	0	1928331264	32	5953
2026-01-10 17:24:56.26	354.83	52.12	-29.7	-30.4	27.8	0.00e+00	0	29	0	1934622720	32	5972
2026-01-10 17:24:57.27	354.44	52.41	-29.9	-30.5	27.7	0.00e+00	0	29	0	1939865600	32	6083
2026-01-10 17:24:58.28	354.04	52.71	-30.0	-30.6	27.6	0.00e+00	0	29	0	1945108480	32	6131
2026-01-10 17:24:59.29	353.63	53.00	-29.7	-30.4	27.8	0.00e+00	0	29	0	1951399936	32	5972
2026-01-10 17:25:00.30	353.21	53.30	-29.5	-30.2	27.9	0.00e+00	0	29	0	1956642816	32	5837
2026-01-10 17:25:01.31	352.78	53.59	-29.7	-30.3	27.7	0.00e+00	0	29	0	1962934272	32	5926
2026-01-10 17:25:02.32	352.35	53.89	-30.0	-30.6	27.5	0.00e+00	0	29	0	1968177152	32	6171
2026-01-10 17:25:03.33	351.90	54.18	-30.0	-30.6	27.5	0.00e+00	0	29	0	1974468608	32	6147
2026-01-10 17:25:04.35	351.44	54.48	-30.2	-30.8	27.5	0.00e+00	0	29	0	1979711488	32	6311
2026-01-10 17:25:05.36	350.98	54.78	-30.2	-30.8	27.4	0.00e+00	0	29	0	1984954368	32	6288
2026-01-10 17:25:06.37	350.51	55.07	-30.0	-30.7	27.5	0.00e+00	0	29	0	1991245824	32	6220
2026-01-10 17:25:07.38	350.02	55.37	-29.9	-30.5	27.6	0.00e+00	0	29	0	1996488704	32	6057
2026-01-10 17:25:08.39	349.53	55.66	-29.9	-30.5	27.6	0.00e+00	0	29	0	2002780160	32	6075
2026-01-10 17:25:09.40	349.02	55.96	-29.8	-30.4	27.7	0.00e+00	0	29	0	2008023040	32	5994
2026-01-10 17:25:10.41	348.51	56.25	-29.4	-30.0	28.0	0.00e+00	0	29	0	2013265920	32	5742
2026-01-10 17:25:11.42	347.98	56.54	-29.3	-29.9	28.1	0.00e+00	0	29	0	2019557376	32	5675
2026-01-10 17:25:12.43	347.45	56.83	-29.3	-29.9	28.0	0.00e+00	0	29	0	2024800256	32	5682
2026-01-10 17:25:13.44	346.90	57.12	-29.4	-30.0	28.1	0.00e+00	0	29	0	2031091712	32	5738
2026-01-10 17:25:14.45	346.34	57.41	-29.3	-29.9	28.2	0.00e+00	0	29	0	2036334592	32	5650
2026-01-10 17:25:15.46	345.76	57.70	-29.0	-29.7	28.2	0.00e+00	0	29	0	2041577472	32	5535
2026-01-10 17:25:16.47	345.18	57.99	-29.1	-29.8	28.3	0.00e+00	0	29	0	2047868928	32	5582
2026-01-10 17:25:17.48	344.58	58.27	-29.5	-30.1	28.0	0.00e+00	0	29	0	2053111808	32	5782
2026-01-10 17:25:18.50	343.96	58.56	-29.5	-30.2	27.8	0.00e+00	0	29	0	2059403264	32	5830
2026-01-10 17:25:19.51	343.34	58.84	-29.5	-30.1	28.0	0.00e+00	0	29	0	2064646144	32	5810
2026-01-10 17:25:20.52	342.70	59.12	-29.5	-30.1	27.9	0.00e+00	0	29	0	2070937600	32	5815
2026-01-10 17:25:21.53	342.05	59.40	-29.6	-30.3	27.7	0.00e+00	0	29	0	2076180480	32	5918
2026-01-10 17:25:22.54	341.38	59.68	-29.6	-30.3	27.8	0.00e+00	0	29	0	2082471936	32	5915
2026-01-10 17:25:23.55	340.70	59.95	-29.7	-30.4	27.8	0.00e+00	0	29	0	2087714816	32	5982
2026-01-10 17:25:24.56	340.01	60.22	-29.5	-30.1	27.9	0.00e+00	0	29	0	2092957696	32	5776
2026-01-10 17:25:25.57	339.30	60.49	-29.6	-30.3	27.9	0.00e+00	0	29	0	2099249152	32	5904
2026-01-10 17:25:26.58	338.57	60.75	-29.4	-30.0	28.0	0.00e+00	0	29	0	2104492032	32	5727
2026-01-10 17:25:27.59	337.83	61.02	-29.5	-30.0	27.8	0.00e+00	0	29	0	2110783488	32	5760
2026-01-10 17:25:28.60	337.08	61.28	-29.5	-30.2	27.9	0.00e+00	0	29	0	2116026368	32	5839
2026-01-10 17:25:29.61	336.31	61.53	-29.4	-30.1	27.9	0.00e+00	0	29	0	2121269248	32	5765
2026-01-10 17:25:30.62	335.52	61.78	-29.2	-29.8	28.1	0.00e+00	0	29	0	2127560704	32	5613
2026-01-10 17:25:31.63	334.71	62.03	-29.4	-30.1	27.9	0.00e+00	0	29	0	2132803584	32	5770
2026-01-10 17:25:32.64	333.89	62.27	-29.2	-29.9	28.1	0.00e+00	0	29	0	2139095040	32	5687
2026-01-10 17:25:33.65	333.06	62.51	-28.6	-29.2	28.5	0.00e+00	0	29	0	2144337920	30	5864
2026-01-10 17:25:34.66	332.20	62.75	-28.5	-29.1	28.7	0.00e+00	0	29	0	2149580800	30	5823
2026-01-10 17:25:35.67	331.33	62.98	-28.8	-29.4	28.5	0.00e+00	0	29	0	2155872256	30	6008
2026-01-10 17:25:36.67	330.46	63.20	-29.1	-29.8	28.2	0.00e+00	0	29	0	2161115136	30	6258
2026-01-10 17:25:37.69	329.54	63.43	-29.0	-29.7	28.2	0.00e+00	0	29	0	2167406592	30	6220
2026-01-10 17:25:38.70	328.62	63.64	-28.9	-29.5	28.4	0.00e+00	0	29	0	2172649472	30	6067
2026-01-10 17:25:39.71	327.68	63.85	-28.6	-29.3	28.6	0.00e+00	0	29	0	2178940928	30	5898
2026-01-10 17:25:40.72	326.73	64.06	-28.3	-28.9	28.8	0.00e+00	0	29	0	2184183808	30	5667
2026-01-10 17:25:41.73	325.76	64.25	-28.2	-28.8	28.8	0.00e+00	0	29	0	2190475264	30	5598
2026-01-10 17:25:42.74	324.77	64.44	-28.2	-28.8	28.8	0.00e+00	0	29	0	2195718144	30	5574
2026-01-10 17:25:43.75	323.76	64.63	-28.1	-28.7	29.0	0.00e+00	0	29	0	2200961024	30	5533
2026-01-10 17:25:44.76	322.74	64.81	-28.0	-28.7	28.9	0.00e+00	0	29	0	2207252480	30	5520
2026-01-10 17:25:45.77	321.70	64.98	-28.0	-28.6	28.9	0.00e+00	0	29	0	2212495360	30	5490
2026-01-10 17:25:46.78	320.65	65.14	-27.9	-28.5	29.1	0.00e+00	0	29	0	2218786816	30	5425
2026-01-10 17:25:47.79	319.58	65.30	-27.8	-28.5	29.0	0.00e+00	0	29	0	2224029696	30	5398
2026-01-10 17:25:48.80	318.50	65.45	-28.1	-28.8	29.0	0.00e+00	0	29	0	2229272576	30	5568
2026-01-10 17:25:49.81	317.40	65.59	-28.3	-29.0	28.7	0.00e+00	0	29	0	2235564032	30	5701
2026-01-10 17:25:50.82	316.29	65.73	-28.3	-28.9	28.8	0.00e+00	0	29	0	2240806912	30	5673
2026-01-10 17:25:51.83	315.17	65.85	-28.2	-28.8	28.9	0.00e+00	0	29	0	2247098368	30	5596
2026-01-10 17:25:52.84	314.03	65.97	-28.2	-28.8	28.9	0.00e+00	0	29	0	2252341248	30	5610
2026-01-10 17:25:53.85	312.88	66.08	-27.9	-28.5	29.1	0.00e+00	0	29	0	2257584128	30	5417
2026-01-10 17:25:54.86	311.72	66.18	-27.6	-28.2	29.3	0.00e+00	0	29	0	2263875584	28	5885
2026-01-10 17:25:55.87	310.55	66.27	-27.8	-28.4	29.1	0.00e+00	0	29	0	2269118464	28	5991
2026-01-10 17:25:56.88	309.37	66.35	-28.0	-28.6	28.9	0.00e+00	0	29	0	2275409920	28	6138
2026-01-10 17:25:57.89	308.18	66.42	-27.9	-28.5	29.0	0.00e+00	0	29	0	2280652800	28	6069
2026-01-10 17:25:58.90	306.99	66.48	-28.0	-28.6	28.8	0.00e+00	0	29	0	2286944256	28	6119
2026-01-10 17:25:59.91	305.78	66.54	-27.6	-28.1	29.2	0.00e+00	0	29	0	2292187136	28	5823
2026-01-10 17:26:00.92	304.58	66.58	-27.6	-28.2	29.2	0.00e+00	0	29	0	2298478592	28	5842
2026-01-10 17:26:01.93	303.36	66.62	-27.7	-28.2	29.2	0.00e+00	0	29	0	2303721472	28	5888
2026-01-10 17:26:02.94	302.15	66.64	-27.8	-28.4	29.1	0.00e+00	0	29	0	2308964352	28	6014
2026-01-10 17:26:03.95	300.93	66.66	-27.6	-28.2	29.3	0.00e+00	0	29	0	2315255808	28	5849
2026-01-10 17:26:04.96	299.71	66.67	-27.6	-28.2	29.2	0.00e+00	0	29	0	2320498688	28	5889
2026-01-10 17:26:05.97	298.49	66.66	-27.3	-28.0	29.3	0.00e+00	0	29	0	2326790144	28	5699
2026-01-10 17:26:06.98	297.27	66.65	-27.4	-28.1	29.3	0.00e+00	0	29	0	2332033024	28	5776
2026-01-10 17:26:07.99	296.05	66.63	-27.6	-28.2	29.2	0.00e+00	0	29	0	2337275904	28	5873
2026-01-10 17:26:09.00	294.84	66.59	-27.5	-28.1	29.2	0.00e+00	0	29	0	2343567360	28	5814
2026-01-10 17:26:10.01	293.63	66.55	-27.6	-28.2	29.1	0.00e+00	0	29	0	2348810240	28	5877
2026-01-10 17:26:11.02	292.42	66.50	-27.6	-28.2	29.1	0.00e+00	0	29	0	2355101696	28	5853
2026-01-10 17:26:12.03	291.22	66.44	-27.7	-28.3	29.0	0.00e+00	0	29	0	2360344576	28	5938
2026-01-10 17:26:13.04	290.03	66.37	-27.5	-28.1	29.1	0.00e+00	0	29	0	2365587456	28	5797
2026-01-10 17:26:14.05	288.85	66.29	-27.4	-27.9	29.2	0.00e+00	0	29	0	2371878912	28	5695
2026-01-10 17:26:15.06	287.68	66.20	-27.4	-28.0	29.3	0.00e+00	0	29	0	2377121792	28	5737
2026-01-10 17:26:16.07	286.51	66.10	-27.6	-28.3	29.1	0.00e+00	0	29	0	2383413248	28	5913
2026-01-10 17:26:17.08	285.36	66.00	-27.5	-28.2	29.3	0.00e+00	0	29	0	2388656128	28	5853
2026-01-10 17:26:18.09	284.22	65.88	-27.4	-27.9	29.3	0.00e+00	0	29	0	2394947584	28	5676
2026-01-10 17:26:19.10	283.09	65.76	-27.4	-28.1	29.3	0.00e+00	0	29	0	2400190464	28	5766
2026-01-10 17:26:20.11	281.98	65.63	-27.8	-28.4	29.1	0.00e+00	0	29	0	2406481920	28	5991
2026-01-10 17:26:21.12	280.87	65.49	-27.8	-28.3	29.1	0.00e+00	0	29	0	2411724800	28	5957
2026-01-10 17:26:22.14	279.78	65.34	-27.4	-28.0	29.3	0.00e+00	0	29	0	2416967680	28	5728
2026-01-10 17:26:23.14	278.71	65.18	-27.6	-28.1	29.1	0.00e+00	0	29	0	2423259136	28	5827
2026-01-10 17:26:24.15	277.66	65.02	-28.2	-28.9	28.8	0.00e+00	0	29	0	2428502016	28	6343
2026-01-10 17:26:25.16	276.61	64.85	-28.0	-28.5	28.9	0.00e+00	0	29	0	2434793472	28	6094
2026-01-10 17:26:26.18	275.58	64.67	-28.2	-28.9	28.8	0.00e+00	0	29	0	2440036352	28	6323
2026-01-10 17:26:27.19	274.57	64.49	-28.4	-28.9	28.7	0.00e+00	0	29	0	2445279232	28	6380
2026-01-10 17:26:28.20	273.58	64.30	-28.2	-28.8	28.8	0.00e+00	0	29	0	2451570688	28	6284
2026-01-10 17:26:29.21	272.60	64.10	-28.1	-28.7	28.8	0.00e+00	0	29	0	2456813568	28	6237
2026-01-10 17:26:30.22	271.64	63.90	-28.3	-28.9	28.7	0.00e+00	0	29	0	2463105024	28	6345
2026-01-10 17:26:31.23	270.70	63.69	-28.2	-28.9	28.8	0.00e+00	0	29	0	2468347904	28	6359
2026-01-10 17:26:32.24	269.77	63.48	-28.1	-28.8	28.7	0.00e+00	0	29	0	2473590784	28	6308
2026-01-10 17:26:33.25	268.86	63.26	-28.0	-28.7	28.9	0.00e+00	0	29	0	2479882240	28	6185
2026-01-10 17:26:34.26	267.97	63.03	-27.9	-28.5	28.9	0.00e+00	0	29	0	2485125120	28	6046
2026-01-10 17:26:35.27	267.09	62.80	-28.4	-29.0	28.7	0.00e+00	0	29	0	2491416576	28	6457
2026-01-10 17:26:36.28	266.23	62.57	-28.8	-29.5	28.3	0.00e+00	0	29	0	2496659456	30	6087
2026-01-10 17:26:37.29	265.39	62.33	-28.8	-29.6	28.4	0.00e+00	0	29	0	2502950912	30	6104
2026-01-10 17:26:38.30	264.57	62.08	-28.5	-29.0	28.5	0.00e+00	0	29	0	2508193792	30	5730
2026-01-10 17:26:39.31	263.76	61.84	-28.4	-29.0	28.7	0.00e+00	0	29	0	2513436672	30	5743
2026-01-10 17:26:40.32	262.97	61.59	-28.6	-29.2	28.6	0.00e+00	0	29	0	2519728128	30	5863
2026-01-10 17:26:41.33	262.19	61.33	-28.4	-29.1	28.6	0.00e+00	0	29	0	2524971008	30	5763
2026-01-10 17:26:42.34	261.43	61.07	-28.3	-28.8	28.7	0.00e+00	0	29	0	2531262464	30	5630
2026-01-10 17:26:43.35	260.68	60.81	-28.5	-29.1	28.6	0.00e+00	0	29	0	2536505344	30	5797
2026-01-10 17:26:44.36	259.95	60.54	-28.9	-29.5	28.3	0.00e+00	0	29	0	2541748224	30	6077
2026-01-10 17:26:45.37	259.24	60.28	-29.0	-29.7	28.2	0.00e+00	0	29	0	2548039680	30	6243
2026-01-10 17:26:46.38	258.54	60.01	-29.0	-29.7	28.2	0.00e+00	0	29	0	2553282560	30	6193
2026-01-10 17:26:47.39	257.86	59.73	-29.0	-29.6	28.2	0.00e+00	0	29	0	2559574016	30	6157
2026-01-10 17:26:48.40	257.19	59.46	-29.2	-29.9	28.1	0.00e+00	0	29	0	2564816896	30	6343
2026-01-10 17:26:49.41	256.53	59.18	-29.5	-30.1	27.9	0.00e+00	0	29	0	2571108352	30	6469
2026-01-10 17:26:50.42	255.89	58.90	-29.4	-30.1	27.9	0.00e+00	0	29	0	2576351232	30	6510
2026-01-10 17:26:51.44	255.25	58.61	-29.2	-29.9	28.0	0.00e+00	0	29	0	2581594112	30	6339
2026-01-10 17:26:52.45	254.64	58.33	-28.9	-29.4	28.5	0.00e+00	0	29	0	2587885568	30	6013
2026-01-10 17:26:53.46	254.04	58.04	-28.8	-29.4	28.2	0.00e+00	0	30	0	2593128448	30	5975
2026-01-10 17:26:54.47	253.45	57.76	-29.1	-29.8	28.1	0.00e+00	0	29	0	2599419904	30	6257
2026-01-10 17:26:55.48	252.87	57.47	-29.0	-29.7	28.2	0.00e+00	0	29	0	2604662784	30	6203
2026-01-10 17:26:56.49	252.31	57.18	-29.0	-29.7	28.1	0.00e+00	0	30	0	2610954240	30	6197
2026-01-10 17:26:57.50	251.75	56.89	-29.5	-30.2	27.9	0.00e+00	0	30	0	2616197120	30	6556
2026-01-10 17:26:58.51	251.21	56.59	-29.9	-30.6	27.5	0.00e+00	0	30	0	2621440000	32	6122
2026-01-10 17:26:59.52	250.68	56.30	-29.6	-30.3	27.7	0.00e+00	0	30	0	2627731456	32	5933
2026-01-10 17:27:00.53	250.16	56.01	-29.3	-29.9	28.0	0.00e+00	0	30	0	2632974336	32	5652
2026-01-10 17:27:01.54	249.66	55.71	-29.2	-29.8	28.1	0.00e+00	0	30	0	2639265792	32	5586
2026-01-10 17:27:02.55	249.16	55.42	-29.3	-29.9	28.1	0.00e+00	0	30	0	2644508672	32	5636
2026-01-10 17:27:03.56	248.67	55.12	-29.3	-30.0	28.0	0.00e+00	0	30	0	2649751552	32	5739
2026-01-10 17:27:04.57	248.20	54.83	-29.3	-29.9	27.9	0.00e+00	0	30	0	2656043008	32	5636
2026-01-10 17:27:05.58	247.73	54.53	-29.4	-30.1	28.0	0.00e+00	0	30	0	2661285888	32	5820
2026-01-10 17:27:06.59	247.27	54.23	-29.5	-30.2	27.9	0.00e+00	0	30	0	2667577344	32	5834
2026-01-10 17:27:07.60	246.83	53.94	-29.3	-29.9	28.1	0.00e+00	0	30	0	2672820224	32	5653
2026-01-10 17:27:08.61	246.39	53.64	-29.2	-29.9	28.1	0.00e+00	0	30	0	2679111680	32	5677
2026-01-10 17:27:09.62	245.96	53.34	-29.3	-30.0	28.1	0.00e+00	0	30	0	2684354560	32	5703
2026-01-10 17:27:10.63	245.54	53.05	-29.3	-30.0	28.0	0.00e+00	0	30	0	2689597440	32	5711
2026-01-10 17:27:11.64	245.13	52.75	-29.3	-29.9	28.1	0.00e+00	0	30	0	2695888896	32	5665
2026-01-10 17:27:12.66	244.72	52.45	-29.6	-30.3	27.8	0.00e+00	0	29	0	2701131776	32	5925
2026-01-10 17:27:13.67	244.32	52.16	-29.9	-30.5	27.5	0.00e+00	0	30	0	2707423232	32	6064
2026-01-10 17:27:14.68	243.93	51.86	-29.8	-30.4	27.7	0.00e+00	0	29	0	2712666112	32	6021
2026-01-10 17:27:15.69	243.55	51.57	-29.5	-30.2	27.9	0.00e+00	0	29	0	2718957568	32	5875
2026-01-10 17:27:16.70	243.18	51.27	-29.5	-30.1	27.9	0.00e+00	0	29	0	2724200448	32	5789
2026-01-10 17:27:17.71	242.82	50.98	-29.7	-30.2	27.8	0.00e+00	0	29	0	2729443328	32	5887
2026-01-10 17:27:18.72	242.46	50.69	-29.2	-29.7	28.1	0.00e+00	0	29	0	2735734784	32	5548
2026-01-10 17:27:19.73	242.11	50.39	-29.0	-29.7	28.2	0.00e+00	0	30	0	2740977664	32	5547
2026-01-10 17:27:20.74	241.76	50.10	-29.0	-29.7	28.2	0.00e+00	0	30	0	2747269120	32	5534
2026-01-10 17:27:21.75	241.42	49.81	-29.2	-29.9	28.0	0.00e+00	0	29	0	2752512000	32	5643
2026-01-10 17:27:22.76	241.09	49.52	-29.2	-29.8	28.0	0.00e+00	0	29	0	2758803456	32	5601
2026-01-10 17:27:23.78	240.76	49.23	-29.0	-29.7	27.8	0.00e+00	0	29	0	2764046336	32	5517
2026-01-10 17:27:24.79	240.44	48.94	-29.0	-29.6	27.8	0.00e+00	0	30	0	2769289216	32	5489
2026-01-10 17:27:25.80	240.13	48.65	-28.7	-29.3	27.8	0.00e+00	0	30	0	2775580672	30	5956
2026-01-10 17:27:26.80	239.83	48.37	-28.7	-29.3	28.2	0.00e+00	0	30	0	2780823552	30	5940
2026-01-10 17:27:27.81	239.52	48.08	-28.5	-29.1	28.5	0.00e+00	0	30	0	2787115008	30	5791
2026-01-10 17:27:28.82	239.23	47.80	-28.6	-29.2	28.4	0.00e+00	0	30	0	2792357888	30	5843
2026-01-10 17:27:29.84	238.94	47.51	-28.6	-29.3	28.5	0.00e+00	0	30	0	2797600768	30	5934
2026-01-10 17:27:30.84	238.65	47.23	-28.7	-29.3	28.4	0.00e+00	0	30	0	2803892224	30	5899
2026-01-10 17:27:31.85	238.37	46.95	-28.6	-29.2	28.5	0.00e+00	0	30	0	2809135104	30	5847
2026-01-10 17:27:32.87	238.09	46.67	-28.4	-29.0	28.6	0.00e+00	0	30	0	2815426560	30	5730
2026-01-10 17:27:33.88	237.82	46.39	-28.3	-29.0	28.7	0.00e+00	0	30	0	2820669440	30	5752
2026-01-10 17:27:34.88	237.56	46.11	-28.2	-28.8	28.8	0.00e+00	0	30	0	2826960896	30	5572
2026-01-10 17:27:35.90	237.30	45.84	-28.3	-28.8	28.8	0.00e+00	0	30	0	2832203776	30	5625
2026-01-10 17:27:36.90	237.04	45.56	-28.3	-28.9	28.8	0.00e+00	0	30	0	2837446656	30	5641
2026-01-10 17:27:37.92	236.79	45.29	-28.3	-28.9	28.8	0.00e+00	0	30	0	2843738112	30	5648
2026-01-10 17:27:38.93	236.54	45.01	-28.1	-28.7	28.8	0.00e+00	0	30	0	2848980992	30	5524
2026-01-10 17:27:39.93	236.30	44.74	-28.2	-28.8	28.9	0.00e+00	0	30	0	2855272448	30	5569
2026-01-10 17:27:40.94	236.06	44.47	-28.3	-29.0	28.8	0.00e+00	0	30	0	2860515328	30	5761
2026-01-10 17:27:41.96	235.83	44.20	-28.6	-29.2	28.6	0.00e+00	0	30	0	2865758208	30	5853
2026-01-10 17:27:42.96	235.60	43.94	-28.8	-29.4	28.4	0.00e+00	0	30	0	2872049664	30	5978
2026-01-10 17:27:43.97	235.37	43.67	-28.8	-29.4	28.4	0.00e+00	0	30	0	2877292544	30	5976
2026-01-10 17:27:44.98	235.15	43.40	-28.7	-29.3	28.4	0.00e+00	0	29	0	2883584000	30	5897
2026-01-10 17:27:45.99	234.93	43.14	-28.6	-29.3	28.7	0.00e+00	0	29	0	2888826880	30	5899
2026-01-10 17:27:47.00	234.71	42.88	-28.6	-29.2	28.6	0.00e+00	0	30	0	2894069760	30	5840
2026-01-10 17:27:48.01	234.50	42.62	-28.6	-29.1	28.6	0.00e+00	0	30	0	2900361216	30	5809
2026-01-10 17:27:49.02	234.29	42.36	-28.8	-29.3	28.5	0.00e+00	0	29	0	2905604096	30	5929
2026-01-10 17:27:50.03	234.08	42.10	-28.6	-29.3	28.5	0.00e+00	0	30	0	2911895552	30	5918
2026-01-10 17:27:51.04	233.88	41.84	-28.5	-29.2	28.6	0.00e+00	0	30	0	2917138432	30	5879
2026-01-10 17:27:52.05	233.68	41.59	-28.4	-29.0	28.7	0.00e+00	0	30	0	2923429888	30	5708
2026-01-10 17:27:53.06	233.49	41.33	-28.4	-29.0	28.6	0.00e+00	0	30	0	2928672768	30	5700
2026-01-10 17:27:54.07	233.29	41.08	-28.3	-29.0	28.7	0.00e+00	0	30	0	2934964224	30	5741
2026-01-10 17:27:55.08	233.10	40.83	-28.2	-28.8	28.8	0.00e+00	0	30	0	2940207104	30	5583
2026-01-10 17:27:56.09	232.92	40.58	-28.1	-28.7	28.9	0.00e+00	0	30	0	2945449984	30	5510
2026-01-10 17:27:57.10	232.73	40.33	-28.0	-28.6	29.0	0.00e+00	0	30	0	2951741440	30	5447
2026-01-10 17:27:58.11	232.55	40.08	-28.1	-28.8	28.9	0.00e+00	0	30	0	2956984320	30	5571
2026-01-10 17:27:59.12	232.37	39.84	-28.3	-29.0	28.7	0.00e+00	0	30	0	2963275776	30	5746
2026-01-10 17:28:00.13	232.20	39.59	-28.4	-29.0	28.8	0.00e+00	0	30	0	2968518656	30	5759
2026-01-10 17:28:01.14	232.02	39.35	-28.1	-28.7	28.9	0.00e+00	0	30	0	2973761536	30	5512
2026-01-10 17:28:02.15	231.85	39.11	-28.2	-28.8	28.6	0.00e+00	0	30	0	2980052992	30	5586
2026-01-10 17:28:03.16	231.69	38.87	-28.0	-28.7	29.0	0.00e+00	0	30	0	2985295872	30	5517
2026-01-10 17:28:04.17	231.52	38.63	-28.0	-28.5	28.9	0.00e+00	0	30	0	2991587328	30	5392
2026-01-10 17:28:05.18	231.36	38.39	-28.0	-28.5	29.0	0.00e+00	0	30	0	2996830208	30	5408
2026-01-10 17:28:06.19	231.20	38.15	-28.1	-28.6	28.9	0.00e+00	0	30	0	3002073088	30	5486
2026-01-10 17:28:07.20	231.04	37.92	-28.2	-28.7	28.9	0.00e+00	0	30	0	3008364544	30	5557
2026-01-10 17:28:08.21	230.88	37.69	-28.3	-28.9	28.8	0.00e+00	0	30	0	3013607424	30	5663
2026-01-10 17:28:09.22	230.73	37.45	-28.4	-29.0	28.7	0.00e+00	0	30	0	3019898880	30	5712
2026-01-10 17:28:10.23	230.58	37.22	-28.3	-28.8	28.8	0.00e+00	0	30	0	3025141760	30	5630
2026-01-10 17:28:11.24	230.43	36.99	-28.3	-29.0	28.7	0.00e+00	0	30	0	3031433216	30	5719
2026-01-10 17:28:12.25	230.28	36.77	-28.3	-28.9	28.7	0.00e+00	0	30	0	3036676096	30	5679
2026-01-10 17:28:13.26	230.14	36.54	-28.1	-28.7	29.0	0.00e+00	0	30	0	3042967552	30	5561
2026-01-10 17:28:14.27	229.99	36.31	-28.1	-28.8	28.9	0.00e+00	0	30	0	3048210432	30	5601
2026-01-10 17:28:15.28	229.85	36.09	-28.3	-29.0	28.8	0.00e+00	0	30	0	3053453312	30	5715
2026-01-10 17:28:16.29	229.71	35.87	-28.4	-28.9	28.7	0.00e+00	0	30	0	3059744768	30	5675
2026-01-10 17:28:17.30	229.58	35.65	-28.4	-29.0	28.7	0.00e+00	0	30	0	3064987648	30	5712
2026-01-10 17:28:18.31	229.44	35.43	-28.3	-28.9	28.8	0.00e+00	0	30	0	3071279104	30	5657
2026-01-10 17:28:19.33	229.31	35.21	-28.4	-29.1	28.7	0.00e+00	0	30	0	3076521984	30	5786
2026-01-10 17:28:20.33	229.18	34.99	-28.3	-29.0	28.6	0.00e+00	0	30	0	3081764864	30	5741
2026-01-10 17:28:21.35	229.05	34.77	-28.4	-29.1	28.7	0.00e+00	0	30	0	3088056320	30	5778
2026-01-10 17:28:22.36	228.92	34.56	-28.5	-29.2	28.6	0.00e+00	0	30	0	3093299200	30	5863
2026-01-10 17:28:23.37	228.79	34.35	-28.4	-29.1	28.7	0.00e+00	0	30	0	3099590656	30	5813
2026-01-10 17:28:24.38	228.67	34.13	-28.6	-29.3	28.5	0.00e+00	0	30	0	3104833536	30	5915
2026-01-10 17:28:25.39	228.54	33.92	-28.3	-28.9	28.7	0.00e+00	0	30	0	3110076416	30	5665
2026-01-10 17:28:26.40	228.42	33.71	-28.4	-29.0	28.6	0.00e+00	0	30	0	3116367872	30	5698
2026-01-10 17:28:27.41	228.30	33.51	-28.3	-28.9	28.6	0.00e+00	0	30	0	3121610752	30	5655
2026-01-10 17:28:28.42	228.18	33.30	-28.6	-29.1	28.6	0.00e+00	0	30	0	3127902208	30	5794
2026-01-10 17:28:29.43	228.07	33.09	-28.5	-29.0	28.7	0.00e+00	0	30	0	3133145088	30	5745
2026-01-10 17:28:30.44	227.95	32.89	-28.3	-28.8	28.7	0.00e+00	0	30	0	3139436544	30	5612
2026-01-10 17:28:31.44	227.84	32.69	-28.4	-29.0	28.7	0.00e+00	0	30	0	3144679424	30	5705
2026-01-10 17:28:32.46	227.73	32.48	-28.6	-29.1	28.6	0.00e+00	0	30	0	3149922304	30	5799
2026-01-10 17:28:33.47	227.61	32.28	-28.6	-29.2	28.5	0.00e+00	0	30	0	3156213760	30	5853
2026-01-10 17:28:34.48	227.51	32.08	-28.8	-29.3	28.4	0.00e+00	0	30	0	3161456640	30	5949
2026-01-10 17:28:35.49	227.40	31.89	-28.7	-29.4	28.4	0.00e+00	0	30	0	3167748096	30	5989
2026-01-10 17:28:36.50	227.29	31.69	-28.9	-29.4	28.3	0.00e+00	0	30	0	3172990976	30	6015
2026-01-10 17:28:37.51	227.18	31.49	-28.9	-29.5	28.3	0.00e+00	0	30	0	3178233856	30	6084
2026-01-10 17:28:38.52	227.08	31.30	-28.7	-29.3	28.5	0.00e+00	0	30	0	3184525312	30	5912
2026-01-10 17:28:39.53	226.98	31.10	-28.7	-29.2	28.4	0.00e+00	0	30	0	3189768192	30	5890
2026-01-10 17:28:40.54	226.88	30.91	-28.8	-29.5	28.4	0.00e+00	0	30	0	3196059648	30	6047
2026-01-10 17:28:41.55	226.78	30.72	-28.8	-29.3	28.4	0.00e+00	0	30	0	3201302528	30	5959
2026-01-10 17:28:42.56	226.68	30.53	-28.7	-29.2	28.5	0.00e+00	0	30	0	3206545408	30	5883
2026-01-10 17:28:43.57	226.58	30.34	-28.7	-29.3	28.5	0.00e+00	0	30	0	3212836864	30	5910
2026-01-10 17:28:44.58	226.48	30.15	-28.8	-29.4	28.4	0.00e+00	0	30	0	3218079744	30	5979
2026-01-10 17:28:45.59	226.39	29.97	-28.8	-29.4	28.4	0.00e+00	0	30	0	3224371200	30	5981
2026-01-10 17:28:46.60	226.29	29.78	-29.1	-29.6	28.2	0.00e+00	0	30	0	3229614080	30	6136
2026-01-10 17:28:47.61	226.20	29.60	-28.9	-29.4	28.3	0.00e+00	0	30	0	3235905536	30	6015
2026-01-10 17:28:48.62	226.11	29.41	-29.0	-29.6	28.2	0.00e+00	0	30	0	3241148416	30	6120
2026-01-10 17:28:49.63	226.01	29.23	-29.1	-29.7	28.1	0.00e+00	0	30	0	3247439872	30	6175
2026-01-10 17:28:50.63	225.92	29.05	-29.0	-29.5	28.3	0.00e+00	0	30	0	3252682752	30	6080
2026-01-10 17:28:51.64	225.84	28.87	-29.0	-29.5	28.3	0.00e+00	0	30	0	3257925632	30	6093
2026-01-10 17:28:52.66	225.75	28.69	-29.0	-29.5	28.2	0.00e+00	0	30	0	3264217088	30	6084
2026-01-10 17:28:53.67	225.66	28.51	-28.9	-29.6	28.3	0.00e+00	0	30	0	3269459968	30	6142
2026-01-10 17:28:54.68	225.57	28.34	-29.0	-29.7	28.2	0.00e+00	0	30	0	3275751424	30	6217
2026-01-10 17:28:55.68	225.49	28.16	-29.0	-29.7	28.3	0.00e+00	0	30	0	3280994304	30	6193
2026-01-10 17:28:56.69	225.40	27.99	-28.9	-29.6	28.3	0.00e+00	0	30	0	3286237184	30	6152
2026-01-10 17:28:57.70	225.32	27.81	-29.0	-29.6	28.2	0.00e+00	0	30	0	3292528640	30	6124
2026-01-10 17:28:58.71	225.24	27.64	-28.9	-29.5	28.3	0.00e+00	0	30	0	3297771520	30	6040
2026-01-10 17:28:59.72	225.16	27.47	-29.0	-29.6	28.2	0.00e+00	0	30	0	3304062976	30	6120
2026-01-10 17:29:00.73	225.08	27.30	-29.2	-29.9	28.0	0.00e+00	0	30	0	3309305856	30	6337
2026-01-10 17:29:01.74	225.00	27.13	-28.9	-29.6	28.2	0.00e+00	0	30	0	3314548736	30	6130
2026-01-10 17:29:02.75	224.92	26.96	-28.9	-29.6	28.3	0.00e+00	0	30	0	3320840192	30	6136
2026-01-10 17:29:03.76	224.84	26.79	-28.9	-29.6	28.3	0.00e+00	0	30	0	3326083072	30	6111
2026-01-10 17:29:04.77	224.76	26.63	-28.9	-29.6	28.3	0.00e+00	0	30	0	3332374528	30	6112
2026-01-10 17:29:05.78	224.69	26.46	-28.8	-29.4	28.4	0.00e+00	0	30	0	3337617408	30	5990
2026-01-10 17:29:06.79	224.61	26.30	-28.9	-29.5	28.3	0.00e+00	0	30	0	3343908864	30	6103
2026-01-10 17:29:07.81	224.54	26.13	-28.8	-29.5	28.4	0.00e+00	0	30	0	3349151744	30	6077
2026-01-10 17:29:08.82	224.46	25.97	-29.0	-29.7	28.2	0.00e+00	0	30	0	3355443200	30	6197
2026-01-10 17:29:09.83	224.39	25.81	-28.9	-29.6	28.3	0.00e+00	0	30	0	3360686080	30	6155
2026-01-10 17:29:10.84	224.32	25.64	-29.0	-29.6	28.3	0.00e+00	0	30	0	3365928960	30	6172
2026-01-10 17:29:11.84	224.25	25.49	-29.1	-29.8	28.2	0.00e+00	0	30	0	3372220416	30	6253
2026-01-10 17:29:12.85	224.18	25.33	-29.0	-29.7	28.2	0.00e+00	0	30	0	3377463296	30	6234
2026-01-10 17:29:13.86	224.11	25.17	-29.1	-29.8	28.1	0.00e+00	0	30	0	3383754752	30	6303
2026-01-10 17:29:14.87	224.04	25.01	-29.2	-29.9	28.0	0.00e+00	0	30	0	3388997632	30	6377
2026-01-10 17:29:15.88	223.97	24.85	-29.2	-29.9	28.0	0.00e+00	0	30	0	3394240512	30	6352
2026-01-10 17:29:16.89	223.90	24.70	-29.3	-30.0	28.0	0.00e+00	0	30	0	3400531968	30	6408
2026-01-10 17:29:17.90	223.83	24.54	-29.3	-30.0	28.1	0.00e+00	0	30	0	3405774848	30	6401
2026-01-10 17:29:18.91	223.77	24.39	-29.3	-30.0	28.0	0.00e+00	0	30	0	3411017728	30	6412
2026-01-10 17:29:19.92	223.70	24.24	-29.4	-30.1	28.0	0.00e+00	0	30	0	3417309184	30	6474
2026-01-10 17:29:20.92	223.64	24.09	-29.2	-29.9	28.0	0.00e+00	0	30	0	3422552064	30	6387
2026-01-10 17:29:21.93	223.57	23.93	-29.4	-30.0	27.8	0.00e+00	0	30	0	3428843520	30	6426
2026-01-10 17:29:22.94	223.51	23.78	-29.3	-29.9	28.0	0.00e+00	0	30	0	3434086400	30	6332
2026-01-10 17:29:23.95	223.44	23.63	-29.4	-30.1	27.9	0.00e+00	0	30	0	3440377856	30	6479
2026-01-10 17:29:24.96	223.38	23.48	-29.3	-30.0	28.0	0.00e+00	0	30	0	3445620736	30	6395
2026-01-10 17:29:25.97	223.32	23.34	-29.3	-29.8	27.9	0.00e+00	0	30	0	3451912192	30	6296
2026-01-10 17:29:26.98	223.26	23.19	-29.3	-29.8	28.0	0.00e+00	0	30	0	3457155072	30	6309
2026-01-10 17:29:27.99	223.20	23.04	-29.3	-29.8	28.0	0.00e+00	0	30	0	3462397952	30	6310
2026-01-10 17:29:29.00	223.14	22.90	-29.4	-29.9	27.9	0.00e+00	0	30	0	3468689408	30	6367
2026-01-10 17:29:30.01	223.08	22.75	-29.3	-29.8	28.0	0.00e+00	0	30	0	3473932288	30	6285
2026-01-10 17:29:31.02	223.02	22.61	-29.4	-29.9	27.9	0.00e+00	0	30	0	3480223744	30	6354
2026-01-10 17:29:32.03	222.96	22.46	-29.4	-29.9	27.9	0.00e+00	0	30	0	3485466624	30	6378
2026-01-10 17:29:33.04	222.90	22.32	-29.5	-30.0	27.9	0.00e+00	0	30	0	3490709504	30	6432
2026-01-10 17:29:34.06	222.84	22.18	-29.4	-30.0	27.6	0.00e+00	0	30	0	3497000960	30	6422
2026-01-10 17:29:35.07	222.79	22.04	-29.6	-30.1	27.6	0.00e+00	0	30	0	3502243840	30	6510
2026-01-10 17:29:36.08	222.73	21.90	-29.6	-30.1	27.5	0.00e+00	0	30	0	3508535296	30	6534
2026-01-10 17:29:37.09	222.68	21.76	-29.6	-30.2	27.5	0.00e+00	0	30	0	3513778176	30	6574
2026-01-10 17:29:38.10	222.62	21.62	-29.7	-30.3	27.4	0.00e+00	0	30	0	3519021056	32	5897
2026-01-10 17:29:39.11	222.57	21.48	-29.7	-30.3	27.4	0.00e+00	0	30	0	3525312512	32	5916
2026-01-10 17:29:40.12	222.51	21.34	-29.8	-30.4	27.3	0.00e+00	0	30	0	3530555392	32	5987
2026-01-10 17:29:41.12	222.46	21.21	-29.9	-30.5	27.3	0.00e+00	0	30	0	3536846848	32	6044
2026-01-10 17:29:42.13	222.41	21.07	-30.0	-30.6	27.2	1.10e-06	0	30	0	3542089728	32	6120
2026-01-10 17:29:43.15	222.35	20.93	-29.8	-30.4	27.3	0.00e+00	0	30	0	3547332608	32	5998
2026-01-10 17:29:44.15	222.30	20.80	-29.8	-30.4	27.3	0.00e+00	0	30	0	3553624064	32	6007
2026-01-10 17:29:45.16	222.25	20.67	-29.9	-30.5	27.3	0.00e+00	0	30	0	3558866944	32	6078
2026-01-10 17:29:46.17	222.20	20.53	-29.8	-30.4	27.3	0.00e+00	0	30	0	3565158400	32	5970
2026-01-10 17:29:47.18	222.15	20.40	-29.8	-30.4	27.3	0.00e+00	0	30	0	3570401280	32	5974
2026-01-10 17:29:48.19	222.10	20.27	-29.7	-30.4	27.4	0.00e+00	0	30	0	3576692736	32	6009
2026-01-10 17:29:49.20	222.05	20.14	-29.8	-30.5	27.3	0.00e+00	0	30	0	3581935616	32	6090
2026-01-10 17:29:50.21	222.00	20.01	-29.7	-30.4	27.4	0.00e+00	0	30	0	3588227072	32	5984
2026-01-10 17:29:51.22	221.95	19.88	-29.7	-30.4	27.4	0.00e+00	0	30	0	3593469952	32	6002
2026-01-10 17:29:52.23	221.90	19.75	-29.7	-30.2	27.5	0.00e+00	0	30	0	3598712832	32	5874
2026-01-10 17:29:53.24	221.85	19.62	-29.8	-30.5	27.4	0.00e+00	0	30	0	3605004288	32	6038
2026-01-10 17:29:54.25	221.80	19.49	-29.6	-30.3	27.5	0.00e+00	0	30	0	3610247168	32	5945
2026-01-10 17:29:55.26	221.76	19.36	-29.7	-30.2	27.4	0.00e+00	0	30	0	3616538624	32	5893
2026-01-10 17:29:56.27	221.71	19.24	-29.8	-30.4	27.3	0.00e+00	0	30	0	3621781504	32	5998
2026-01-10 17:29:57.29	221.66	19.11	-29.9	-30.6	27.3	0.00e+00	0	30	0	3627024384	32	6107
2026-01-10 17:29:58.30	221.62	18.98	-30.0	-30.7	27.2	0.00e+00	0	30	0	3633315840	32	6174
