passes_logs/2026/01/10/R4.6S_Anadyr/R4.6S_Anadyr__20260110_163909_NOAA_20_JPSS-1_rec.log

#Pass ID: 20260110_163909_NOAA 20 (JPSS-1)
#Satellite: NOAA 20 (JPSS-1)
#Configuration: NOAA 20
#almurnet v.1.7.20251203
#Start time: 2026-01-10 16:39:10

#Version: 2.2.20231116
#Station: R4.6S_Anadyr
#Location: 177.4865 lon 64.73178 lat
#TLE: 1 43013U 17073A   26009.69119415  .00000109  00000+0  72598-4 0  9996
#TLE: 2 43013  98.7631 310.6868 0001678  46.7442 313.3874 14.19534878421981

#Time	Az	El	Level	Level2	SNR	BER	BlckErr	Temp	State	Recorded	gain1	gain2
2026-01-10 16:39:10.70	27.14	0.06	-48.0	-62.9	3.5	1.51e+00	0	27	0	0	60	50332
2026-01-10 16:39:11.71	27.10	0.12	-48.2	-63.4	3.6	1.51e+00	0	28	104	0	60	53296
2026-01-10 16:39:12.71	27.05	0.18	-48.1	-63.3	3.6	1.51e+00	0	28	104	0	60	52989
2026-01-10 16:39:13.73	27.01	0.23	-48.2	-63.3	3.6	1.51e+00	0	28	104	0	60	53137
2026-01-10 16:39:14.73	26.96	0.29	-48.1	-63.3	3.6	1.51e+00	0	29	104	0	60	53095
2026-01-10 16:39:15.74	26.92	0.35	-48.2	-63.3	3.6	1.51e+00	0	28	104	0	60	53020
2026-01-10 16:39:16.75	26.87	0.40	-48.2	-63.4	3.6	1.51e+00	0	28	104	0	60	53319
2026-01-10 16:39:17.76	26.83	0.46	-48.2	-63.4	3.6	1.51e+00	0	28	104	0	60	53586
2026-01-10 16:39:18.77	26.78	0.52	-48.1	-63.3	3.6	1.51e+00	0	28	104	0	60	53101
2026-01-10 16:39:19.78	26.73	0.58	-48.1	-63.2	3.6	1.51e+00	0	29	104	0	60	52507
2026-01-10 16:39:20.79	26.69	0.63	-48.0	-63.1	3.6	1.51e+00	0	29	104	0	60	51793
2026-01-10 16:39:21.80	26.64	0.69	-47.8	-63.0	3.6	1.51e+00	0	29	104	0	60	51104
2026-01-10 16:39:22.81	26.60	0.75	-47.7	-62.9	3.6	1.51e+00	0	29	104	0	60	50375
2026-01-10 16:39:23.82	26.55	0.81	-47.6	-62.7	3.6	1.51e+00	0	29	104	0	60	49607
2026-01-10 16:39:24.83	26.50	0.86	-47.4	-62.6	3.6	1.51e+00	0	29	104	0	60	48484
2026-01-10 16:39:25.84	26.45	0.92	-47.1	-62.3	3.6	1.51e+00	0	29	104	0	60	46914
2026-01-10 16:39:26.85	26.41	0.98	-46.6	-61.8	3.6	1.51e+00	0	29	104	0	60	44357
2026-01-10 16:39:27.86	26.36	1.04	-46.6	-61.7	3.6	1.51e+00	0	29	104	0	60	43810
2026-01-10 16:39:28.87	26.31	1.10	-46.6	-61.7	3.6	1.51e+00	0	29	104	0	60	43725
2026-01-10 16:39:29.87	26.26	1.16	-46.6	-61.7	3.6	1.51e+00	0	29	104	0	60	43999
2026-01-10 16:39:30.89	26.21	1.21	-46.5	-61.7	3.6	1.51e+00	0	29	104	0	60	43861
2026-01-10 16:39:31.89	26.17	1.27	-46.6	-61.7	3.6	1.51e+00	0	29	104	0	60	43815
2026-01-10 16:39:32.90	26.12	1.33	-46.5	-61.7	3.6	1.51e+00	0	29	104	0	60	44091
2026-01-10 16:39:33.91	26.07	1.39	-46.5	-61.7	3.6	1.51e+00	0	29	104	0	60	43792
2026-01-10 16:39:34.92	26.02	1.45	-46.5	-61.7	3.6	1.51e+00	0	29	104	0	60	43859
2026-01-10 16:39:35.93	25.97	1.51	-46.5	-61.7	3.6	1.51e+00	0	29	104	0	60	43752
2026-01-10 16:39:36.94	25.92	1.57	-46.5	-61.7	3.6	1.51e+00	0	29	104	0	60	43988
2026-01-10 16:39:37.95	25.87	1.63	-46.5	-61.7	3.6	1.51e+00	0	29	104	0	60	43779
2026-01-10 16:39:38.96	25.82	1.68	-46.5	-61.7	3.6	1.51e+00	0	29	104	0	60	43878
2026-01-10 16:39:39.97	25.77	1.74	-46.5	-61.7	3.7	1.51e+00	0	29	104	0	60	43860
2026-01-10 16:39:40.98	25.72	1.80	-46.5	-61.7	3.6	1.51e+00	0	29	104	0	60	43805
2026-01-10 16:39:41.99	25.67	1.86	-46.5	-61.6	3.5	1.51e+00	0	29	104	0	60	43647
2026-01-10 16:39:43.00	25.62	1.92	-46.5	-61.6	3.6	1.51e+00	0	29	104	0	60	43577
2026-01-10 16:39:44.01	25.57	1.98	-46.5	-61.5	3.6	1.51e+00	0	29	104	0	60	42900
2026-01-10 16:39:45.02	25.52	2.04	-46.5	-61.5	3.6	1.51e+00	0	29	104	0	60	42743
2026-01-10 16:39:46.03	25.47	2.10	-46.5	-61.5	3.6	1.51e+00	0	29	104	0	60	42868
2026-01-10 16:39:47.03	25.41	2.16	-46.5	-61.6	3.6	1.51e+00	0	29	104	0	60	43290
2026-01-10 16:39:48.04	25.36	2.22	-46.5	-61.6	3.6	1.51e+00	0	29	104	0	60	43676
2026-01-10 16:39:49.05	25.31	2.28	-46.5	-61.7	3.6	1.51e+00	0	29	104	0	60	43836
2026-01-10 16:39:50.06	25.26	2.34	-46.5	-61.7	3.6	1.51e+00	0	29	104	0	60	43958
2026-01-10 16:39:51.07	25.21	2.40	-46.5	-61.7	3.6	1.51e+00	0	29	104	0	60	43841
2026-01-10 16:39:52.08	25.15	2.46	-46.5	-61.6	3.6	1.51e+00	0	29	104	0	60	43601
2026-01-10 16:39:53.09	25.10	2.52	-46.5	-61.6	3.6	1.51e+00	0	29	104	0	60	43484
2026-01-10 16:39:54.10	25.05	2.59	-46.5	-61.5	3.6	1.51e+00	0	29	104	0	60	43142
2026-01-10 16:39:55.11	24.99	2.65	-46.5	-61.5	3.6	1.51e+00	0	29	104	0	60	42781
2026-01-10 16:39:56.12	24.94	2.71	-46.5	-61.3	3.6	1.51e+00	0	29	104	0	60	42072
2026-01-10 16:39:57.13	24.88	2.77	-46.5	-61.1	3.6	1.51e+00	0	29	104	0	60	41027
2026-01-10 16:39:58.14	24.83	2.83	-46.5	-61.1	3.6	1.51e+00	0	29	104	0	60	40859
2026-01-10 16:39:59.15	24.78	2.89	-46.5	-61.4	3.6	1.51e+00	0	29	104	0	60	42365
2026-01-10 16:40:00.16	24.72	2.95	-46.5	-61.6	3.6	1.51e+00	0	29	104	0	60	43645
2026-01-10 16:40:01.17	24.67	3.01	-46.5	-60.8	3.6	1.51e+00	0	29	104	0	60	39753
2026-01-10 16:40:02.18	24.61	3.08	-46.4	-58.5	4.0	1.51e+00	0	29	104	0	60	30297
2026-01-10 16:40:03.19	24.56	3.14	-46.1	-54.8	5.5	9.82e-01	21	29	0	0	60	19781
2026-01-10 16:40:04.19	24.50	3.20	-45.7	-52.3	7.6	1.30e-01	24	29	0	2097152	60	14855
2026-01-10 16:40:05.20	24.44	3.26	-45.2	-50.5	9.7	2.75e-02	56	29	0	4194304	60	12141
2026-01-10 16:40:06.21	24.39	3.32	-44.8	-49.6	10.8	6.44e-03	23	29	0	5242880	60	10889
2026-01-10 16:40:07.22	24.33	3.38	-44.6	-48.9	11.4	1.15e-03	25	29	0	7340032	60	10125
2026-01-10 16:40:08.23	24.27	3.45	-44.4	-48.6	11.5	4.44e-04	37	29	0	9437184	60	9755
2026-01-10 16:40:09.24	24.22	3.51	-45.6	-52.0	7.7	2.08e-02	25	29	0	11534336	60	14390
2026-01-10 16:40:10.25	24.16	3.57	-46.2	-54.6	7.0	6.28e-01	92	29	0	13631488	60	19303
2026-01-10 16:40:11.26	24.10	3.63	-46.0	-53.8	7.5	4.79e-01	0	29	0	14680064	60	17621
2026-01-10 16:40:12.27	24.04	3.70	-40.3	-41.9	18.6	0.00e+00	0	29	0	16777216	54	6376
2026-01-10 16:40:13.28	23.99	3.76	-46.5	-61.2	3.6	9.84e-01	0	29	104	17825792	60	41321
2026-01-10 16:40:14.29	23.93	3.82	-41.6	-43.7	16.6	2.41e-01	0	29	104	17825792	58	6218
2026-01-10 16:40:15.30	23.87	3.89	-41.6	-43.6	17.1	0.00e+00	0	29	0	18874368	56	6901
2026-01-10 16:40:16.31	23.81	3.95	-41.2	-43.0	17.8	0.00e+00	0	29	0	20971520	56	6459
2026-01-10 16:40:17.32	23.75	4.01	-41.5	-43.5	17.4	0.00e+00	92	29	0	22020096	56	6795
2026-01-10 16:40:18.33	23.69	4.08	-41.5	-43.5	17.5	0.00e+00	0	29	0	24117248	56	6787
2026-01-10 16:40:19.34	23.63	4.14	-40.5	-42.1	18.7	0.00e+00	14	29	0	26214400	54	6531
2026-01-10 16:40:20.34	23.57	4.20	-40.6	-42.2	18.7	0.00e+00	0	29	0	28311552	54	6567
2026-01-10 16:40:21.36	23.51	4.27	-40.3	-41.9	18.9	0.00e+00	0	29	0	30408704	54	6374
2026-01-10 16:40:22.36	23.45	4.33	-40.2	-41.8	19.0	0.00e+00	36	29	0	31457280	54	6274
2026-01-10 16:40:23.37	23.39	4.39	-40.1	-41.5	19.3	0.00e+00	32	29	0	33554432	54	6096
2026-01-10 16:40:24.38	23.33	4.46	-40.0	-41.4	19.4	0.00e+00	92	29	0	35651584	54	6026
2026-01-10 16:40:25.39	23.27	4.52	-40.2	-41.7	19.2	0.00e+00	27	29	0	37748736	54	6215
2026-01-10 16:40:26.40	23.21	4.59	-40.4	-41.9	19.1	0.00e+00	22	29	0	39845888	54	6374
2026-01-10 16:40:27.41	23.14	4.65	-40.0	-41.5	19.4	0.00e+00	2	29	0	40894464	54	6038
2026-01-10 16:40:28.42	23.08	4.72	-40.3	-41.9	19.1	0.00e+00	26	29	0	42991616	54	6336
2026-01-10 16:40:29.43	23.02	4.78	-40.0	-41.4	19.5	0.00e+00	26	29	0	45088768	54	6015
2026-01-10 16:40:30.44	22.96	4.85	-39.9	-41.3	19.6	0.00e+00	26	29	0	47185920	54	5955
2026-01-10 16:40:31.45	22.89	4.91	-40.0	-41.4	19.6	0.00e+00	86	29	0	49283072	52	6765
2026-01-10 16:40:32.46	22.83	4.98	-39.9	-41.3	19.7	0.00e+00	24	29	0	50331648	52	6669
2026-01-10 16:40:33.47	22.77	5.04	-39.9	-41.3	19.7	0.00e+00	92	29	0	52428800	52	6679
2026-01-10 16:40:34.48	22.70	5.11	-39.9	-41.3	19.7	0.00e+00	6	29	0	54525952	52	6650
2026-01-10 16:40:35.49	22.64	5.17	-40.0	-41.5	19.6	0.00e+00	5	29	0	56623104	52	6774
2026-01-10 16:40:36.50	22.57	5.24	-39.9	-41.3	19.7	0.00e+00	0	29	0	58720256	52	6673
2026-01-10 16:40:37.51	22.51	5.30	-39.8	-41.2	19.9	0.00e+00	0	29	0	60817408	52	6591
2026-01-10 16:40:38.52	22.44	5.37	-39.9	-41.3	19.7	0.00e+00	0	30	0	61865984	52	6618
2026-01-10 16:40:39.53	22.38	5.44	-39.9	-41.3	19.7	0.00e+00	56	29	0	63963136	52	6649
2026-01-10 16:40:40.54	22.31	5.50	-39.9	-41.3	19.7	0.00e+00	92	29	0	66060288	52	6645
2026-01-10 16:40:41.55	22.25	5.57	-40.0	-41.4	19.7	0.00e+00	0	29	0	68157440	52	6734
2026-01-10 16:40:42.56	22.18	5.64	-40.0	-41.5	19.8	0.00e+00	27	29	0	70254592	52	6770
2026-01-10 16:40:43.57	22.11	5.70	-40.1	-41.6	19.5	0.00e+00	33	29	0	71303168	52	6885
2026-01-10 16:40:44.58	22.04	5.77	-40.0	-41.4	19.8	0.00e+00	29	29	0	73400320	52	6698
2026-01-10 16:40:45.59	21.98	5.84	-40.0	-41.4	19.8	0.00e+00	49	29	0	75497472	52	6711
2026-01-10 16:40:46.60	21.91	5.90	-39.9	-41.3	19.8	0.00e+00	50	30	0	77594624	52	6681
2026-01-10 16:40:47.61	21.84	5.97	-39.9	-41.3	19.8	0.00e+00	92	29	0	79691776	52	6661
2026-01-10 16:40:48.62	21.77	6.04	-40.0	-41.4	19.8	0.00e+00	6	29	0	80740352	52	6722
2026-01-10 16:40:49.63	21.70	6.10	-39.8	-41.2	20.0	0.00e+00	92	29	0	82837504	52	6578
2026-01-10 16:40:50.64	21.63	6.17	-40.1	-41.5	19.7	0.00e+00	6	30	0	84934656	52	6828
2026-01-10 16:40:51.65	21.56	6.24	-39.9	-41.3	19.9	0.00e+00	7	29	0	87031808	52	6672
2026-01-10 16:40:52.66	21.49	6.31	-40.1	-41.5	19.6	0.00e+00	6	29	0	89128960	52	6840
2026-01-10 16:40:53.67	21.42	6.38	-39.8	-41.2	20.1	0.00e+00	6	30	0	90177536	52	6581
2026-01-10 16:40:54.68	21.35	6.44	-40.0	-41.4	19.8	0.00e+00	91	30	0	92274688	52	6718
2026-01-10 16:40:55.69	21.28	6.51	-40.0	-41.4	19.8	0.00e+00	6	30	0	94371840	52	6752
2026-01-10 16:40:56.70	21.21	6.58	-40.1	-41.5	19.8	0.00e+00	92	30	0	96468992	52	6821
2026-01-10 16:40:57.71	21.14	6.65	-40.1	-41.5	19.8	0.00e+00	0	30	0	98566144	52	6774
2026-01-10 16:40:58.72	21.07	6.72	-40.1	-41.5	19.7	0.00e+00	0	30	0	100663296	52	6835
2026-01-10 16:40:59.73	21.00	6.79	-39.9	-41.3	19.9	0.00e+00	0	30	0	101711872	52	6644
2026-01-10 16:41:00.74	20.92	6.85	-40.0	-41.3	19.9	0.00e+00	0	29	0	103809024	52	6687
2026-01-10 16:41:01.75	20.85	6.92	-40.0	-41.4	19.9	0.00e+00	0	30	0	105906176	52	6693
2026-01-10 16:41:02.76	20.78	6.99	-40.1	-41.5	19.8	0.00e+00	0	30	0	108003328	52	6793
2026-01-10 16:41:03.77	20.70	7.06	-40.0	-41.4	19.8	0.00e+00	92	30	0	110100480	52	6715
2026-01-10 16:41:04.78	20.63	7.13	-40.0	-41.4	19.9	0.00e+00	49	30	0	111149056	52	6733
2026-01-10 16:41:05.79	20.55	7.20	-39.9	-41.3	20.0	0.00e+00	91	30	0	113246208	52	6636
2026-01-10 16:41:06.79	20.48	7.27	-39.9	-41.3	20.0	0.00e+00	24	30	0	115343360	52	6649
2026-01-10 16:41:07.80	20.40	7.34	-39.9	-41.2	20.1	0.00e+00	24	30	0	117440512	52	6592
2026-01-10 16:41:08.81	20.33	7.41	-39.9	-41.2	20.1	0.00e+00	58	30	0	118489088	52	6584
2026-01-10 16:41:09.82	20.25	7.48	-40.0	-41.3	20.0	0.00e+00	26	30	0	120586240	52	6690
2026-01-10 16:41:10.83	20.18	7.55	-40.0	-41.3	20.0	0.00e+00	92	30	0	122683392	52	6679
2026-01-10 16:41:11.84	20.10	7.62	-39.7	-41.0	20.3	0.00e+00	0	30	0	124780544	52	6407
2026-01-10 16:41:12.85	20.02	7.69	-39.7	-41.0	20.3	0.00e+00	92	30	0	126877696	52	6438
2026-01-10 16:41:13.86	19.94	7.76	-39.6	-40.9	20.4	0.00e+00	0	29	0	128974848	52	6333
2026-01-10 16:41:14.87	19.87	7.83	-39.6	-40.9	20.4	0.00e+00	2	30	0	130023424	52	6329
2026-01-10 16:41:15.88	19.79	7.90	-39.6	-40.9	20.4	0.00e+00	0	30	0	132120576	52	6368
2026-01-10 16:41:16.89	19.71	7.97	-39.5	-40.8	20.6	0.00e+00	0	30	0	134217728	52	6249
2026-01-10 16:41:17.90	19.63	8.05	-39.5	-40.7	20.6	0.00e+00	37	30	0	136314880	52	6217
2026-01-10 16:41:18.91	19.55	8.12	-39.4	-40.7	20.7	0.00e+00	2	30	0	138412032	52	6187
2026-01-10 16:41:19.92	19.47	8.19	-39.5	-40.8	20.6	0.00e+00	92	30	0	139460608	52	6253
2026-01-10 16:41:20.93	19.39	8.26	-39.3	-40.5	20.8	0.00e+00	53	30	0	141557760	52	6102
2026-01-10 16:41:21.94	19.31	8.33	-39.3	-40.5	20.8	0.00e+00	0	30	0	143654912	52	6087
2026-01-10 16:41:22.94	19.23	8.40	-39.3	-40.6	20.7	0.00e+00	0	30	0	145752064	52	6110
2026-01-10 16:41:23.95	19.15	8.48	-39.3	-40.5	20.8	0.00e+00	54	30	0	147849216	52	6089
2026-01-10 16:41:24.96	19.06	8.55	-39.3	-40.5	20.8	0.00e+00	0	30	0	148897792	52	6048
2026-01-10 16:41:25.97	18.98	8.62	-39.2	-40.4	20.8	0.00e+00	58	30	0	150994944	52	6023
2026-01-10 16:41:26.98	18.90	8.69	-39.1	-40.3	21.0	0.00e+00	92	30	0	153092096	52	5947
2026-01-10 16:41:27.99	18.82	8.77	-39.1	-40.3	21.1	0.00e+00	25	30	0	155189248	52	5905
2026-01-10 16:41:29.00	18.73	8.84	-39.2	-40.4	21.0	0.00e+00	92	30	0	157286400	52	5965
2026-01-10 16:41:30.01	18.65	8.91	-39.0	-40.2	21.2	0.00e+00	25	30	0	158334976	52	5884
2026-01-10 16:41:31.02	18.56	8.99	-39.1	-40.3	21.0	0.00e+00	0	30	0	160432128	52	5950
2026-01-10 16:41:32.03	18.48	9.06	-39.0	-40.2	21.2	0.00e+00	25	30	0	162529280	52	5832
2026-01-10 16:41:33.04	18.39	9.13	-38.9	-40.0	21.3	0.00e+00	23	30	0	164626432	52	5743
2026-01-10 16:41:34.05	18.31	9.21	-39.0	-40.1	21.2	0.00e+00	92	30	0	166723584	52	5822
2026-01-10 16:41:35.06	18.22	9.28	-38.9	-40.1	21.4	0.00e+00	2	30	0	167772160	52	5772
2026-01-10 16:41:36.07	18.13	9.35	-39.0	-40.1	21.3	0.00e+00	92	30	0	169869312	52	5815
2026-01-10 16:41:37.08	18.04	9.43	-38.8	-40.0	21.5	0.00e+00	2	30	0	171966464	52	5700
2026-01-10 16:41:38.09	17.96	9.50	-38.9	-40.1	21.4	0.00e+00	0	30	0	174063616	52	5763
2026-01-10 16:41:39.10	17.87	9.58	-38.9	-40.0	21.4	0.00e+00	0	30	0	176160768	52	5734
2026-01-10 16:41:40.11	17.78	9.65	-38.8	-39.9	21.5	0.00e+00	0	30	0	177209344	52	5692
2026-01-10 16:41:41.12	17.69	9.73	-38.9	-40.1	21.3	0.00e+00	91	30	0	179306496	52	5767
2026-01-10 16:41:42.13	17.60	9.80	-38.8	-39.9	21.6	0.00e+00	62	30	0	181403648	52	5671
2026-01-10 16:41:43.14	17.51	9.88	-38.8	-39.9	21.4	0.00e+00	92	30	0	183500800	50	6344
2026-01-10 16:41:44.15	17.42	9.95	-38.8	-39.9	21.4	0.00e+00	60	30	0	185597952	50	6390
2026-01-10 16:41:45.16	17.33	10.03	-38.7	-39.8	21.5	0.00e+00	90	30	0	186646528	50	6296
2026-01-10 16:41:46.17	17.24	10.10	-38.7	-39.8	21.6	0.00e+00	2	30	0	188743680	50	6316
2026-01-10 16:41:47.18	17.14	10.18	-38.8	-39.9	21.6	0.00e+00	0	30	0	190840832	50	6330
2026-01-10 16:41:48.19	17.05	10.25	-38.8	-39.9	21.6	0.00e+00	0	30	0	192937984	50	6341
2026-01-10 16:41:49.20	16.96	10.33	-38.7	-39.9	21.6	0.00e+00	29	30	0	195035136	50	6321
2026-01-10 16:41:50.21	16.86	10.41	-38.7	-39.8	21.5	0.00e+00	92	30	0	197132288	50	6297
2026-01-10 16:41:51.22	16.77	10.48	-38.7	-39.8	21.6	0.00e+00	0	30	0	198180864	50	6304
2026-01-10 16:41:52.23	16.67	10.56	-38.8	-40.0	21.5	0.00e+00	90	30	0	200278016	50	6401
2026-01-10 16:41:53.24	16.58	10.63	-38.7	-39.8	21.7	0.00e+00	28	30	0	202375168	50	6280
2026-01-10 16:41:54.25	16.48	10.71	-38.7	-39.8	21.7	0.00e+00	0	30	0	204472320	50	6299
2026-01-10 16:41:55.26	16.39	10.79	-38.6	-39.7	21.7	0.00e+00	0	30	0	206569472	50	6245
2026-01-10 16:41:56.27	16.29	10.87	-38.7	-39.8	21.6	0.00e+00	2	30	0	207618048	50	6295
2026-01-10 16:41:57.28	16.19	10.94	-38.7	-39.8	21.7	0.00e+00	92	30	0	209715200	50	6277
2026-01-10 16:41:58.29	16.10	11.02	-38.7	-39.8	21.6	0.00e+00	2	30	0	211812352	50	6307
2026-01-10 16:41:59.30	16.00	11.10	-38.8	-39.9	21.6	0.00e+00	92	30	0	213909504	50	6335
2026-01-10 16:42:00.31	15.90	11.18	-38.7	-39.8	21.7	0.00e+00	0	30	0	216006656	50	6289
2026-01-10 16:42:01.32	15.80	11.25	-38.6	-39.7	21.7	0.00e+00	58	30	0	217055232	50	6210
2026-01-10 16:42:02.33	15.70	11.33	-38.4	-39.5	22.0	0.00e+00	0	30	0	219152384	50	6058
2026-01-10 16:42:03.33	15.60	11.41	-38.4	-39.5	22.0	0.00e+00	0	30	0	221249536	50	6062
2026-01-10 16:42:04.34	15.50	11.49	-38.4	-39.5	22.0	0.00e+00	55	30	0	223346688	50	6060
2026-01-10 16:42:05.35	15.40	11.57	-38.4	-39.5	22.0	0.00e+00	59	30	0	225443840	50	6072
2026-01-10 16:42:06.36	15.29	11.64	-38.4	-39.5	22.0	0.00e+00	92	30	0	226492416	50	6060
2026-01-10 16:42:07.37	15.19	11.72	-38.4	-39.5	21.8	0.00e+00	58	30	0	228589568	50	6084
2026-01-10 16:42:08.38	15.09	11.80	-38.5	-39.6	21.9	0.00e+00	24	30	0	230686720	50	6108
2026-01-10 16:42:09.39	14.98	11.88	-38.5	-39.6	21.9	0.00e+00	57	30	0	232783872	50	6111
2026-01-10 16:42:10.40	14.88	11.96	-38.5	-39.6	21.9	0.00e+00	0	30	0	234881024	50	6109
2026-01-10 16:42:11.41	14.77	12.04	-38.4	-39.5	21.9	0.00e+00	0	30	0	235929600	50	6079
2026-01-10 16:42:12.42	14.67	12.12	-38.5	-39.6	22.0	0.00e+00	6	30	0	238026752	50	6114
2026-01-10 16:42:13.43	14.56	12.20	-38.5	-39.6	21.9	0.00e+00	92	30	0	240123904	50	6111
2026-01-10 16:42:14.44	14.45	12.28	-38.4	-39.4	22.1	0.00e+00	24	30	0	242221056	50	6010
2026-01-10 16:42:15.45	14.35	12.36	-38.4	-39.5	22.0	0.00e+00	90	30	0	244318208	50	6073
2026-01-10 16:42:16.46	14.24	12.44	-38.4	-39.5	22.1	0.00e+00	6	30	0	245366784	50	6071
2026-01-10 16:42:17.47	14.13	12.52	-38.4	-39.5	22.0	0.00e+00	0	30	0	247463936	50	6086
2026-01-10 16:42:18.48	14.02	12.60	-38.6	-39.7	21.9	0.00e+00	5	30	0	249561088	50	6189
2026-01-10 16:42:19.48	13.91	12.68	-38.5	-39.6	22.0	0.00e+00	5	30	0	251658240	50	6149
2026-01-10 16:42:20.49	13.80	12.76	-38.5	-39.6	21.9	0.00e+00	90	30	0	253755392	50	6163
2026-01-10 16:42:21.50	13.69	12.84	-38.4	-39.4	22.0	0.00e+00	0	30	0	254803968	50	6014
2026-01-10 16:42:22.51	13.58	12.93	-38.5	-39.5	22.0	0.00e+00	90	30	0	256901120	50	6075
2026-01-10 16:42:23.52	13.46	13.01	-38.4	-39.4	22.2	0.00e+00	0	30	0	258998272	50	6027
2026-01-10 16:42:24.53	13.35	13.09	-38.3	-39.4	22.1	0.00e+00	0	30	0	261095424	50	5986
2026-01-10 16:42:25.54	13.24	13.17	-38.4	-39.4	22.1	0.00e+00	6	30	0	263192576	50	6032
2026-01-10 16:42:26.55	13.12	13.25	-38.4	-39.5	22.0	0.00e+00	0	30	0	265289728	50	6048
2026-01-10 16:42:27.56	13.01	13.33	-38.5	-39.6	21.9	0.00e+00	57	30	0	266338304	50	6138
2026-01-10 16:42:28.57	12.89	13.42	-38.5	-39.6	22.0	0.00e+00	29	30	0	268435456	50	6136
2026-01-10 16:42:29.58	12.77	13.50	-38.5	-39.6	21.9	0.00e+00	92	30	0	270532608	50	6151
2026-01-10 16:42:30.59	12.66	13.58	-38.6	-39.7	21.9	0.00e+00	52	30	0	272629760	50	6181
2026-01-10 16:42:31.60	12.54	13.66	-38.6	-39.6	21.9	0.00e+00	92	30	0	274726912	50	6164
2026-01-10 16:42:32.61	12.42	13.75	-38.6	-39.7	21.8	0.00e+00	32	30	0	275775488	50	6215
2026-01-10 16:42:33.62	12.30	13.83	-38.5	-39.5	22.0	0.00e+00	0	30	0	277872640	50	6091
2026-01-10 16:42:34.63	12.18	13.91	-38.4	-39.4	22.1	0.00e+00	0	30	0	279969792	50	6023
2026-01-10 16:42:35.64	12.06	14.00	-38.5	-39.5	21.9	0.00e+00	6	30	0	282066944	50	6094
2026-01-10 16:42:36.65	11.94	14.08	-38.5	-39.6	21.9	0.00e+00	92	30	0	284164096	50	6149
2026-01-10 16:42:37.66	11.82	14.16	-38.6	-39.7	21.6	0.00e+00	6	30	0	285212672	50	6207
2026-01-10 16:42:38.67	11.69	14.25	-38.5	-39.5	21.9	0.00e+00	9	30	0	287309824	50	6084
2026-01-10 16:42:39.68	11.57	14.33	-38.5	-39.6	21.9	0.00e+00	7	30	0	289406976	50	6113
2026-01-10 16:42:40.68	11.45	14.41	-38.3	-39.4	22.2	0.00e+00	6	30	0	291504128	50	5996
2026-01-10 16:42:41.69	11.32	14.50	-38.5	-39.5	22.1	0.00e+00	0	30	0	293601280	50	6074
2026-01-10 16:42:42.70	11.20	14.58	-38.4	-39.4	22.2	0.00e+00	0	30	0	294649856	50	6013
2026-01-10 16:42:43.71	11.07	14.67	-38.3	-39.4	22.2	0.00e+00	92	30	0	296747008	50	5991
2026-01-10 16:42:44.72	10.94	14.75	-38.4	-39.4	22.1	0.00e+00	0	30	0	298844160	50	6024
2026-01-10 16:42:45.73	10.82	14.84	-38.5	-39.5	22.1	0.00e+00	91	30	0	300941312	50	6069
2026-01-10 16:42:46.74	10.69	14.92	-38.3	-39.3	22.2	0.00e+00	60	30	0	303038464	50	5936
2026-01-10 16:42:47.75	10.56	15.01	-38.3	-39.3	22.3	0.00e+00	54	30	0	304087040	50	5928
2026-01-10 16:42:48.76	10.43	15.09	-38.2	-39.3	22.3	0.00e+00	56	30	0	306184192	50	5912
2026-01-10 16:42:49.77	10.30	15.18	-38.3	-39.3	22.3	0.00e+00	53	30	0	308281344	50	5919
2026-01-10 16:42:50.78	10.16	15.26	-38.2	-39.2	22.4	0.00e+00	59	30	0	310378496	50	5879
2026-01-10 16:42:51.79	10.03	15.35	-38.2	-39.2	22.4	0.00e+00	21	30	0	312475648	50	5848
2026-01-10 16:42:52.80	9.90	15.44	-38.2	-39.2	22.4	0.00e+00	91	30	0	313524224	50	5865
2026-01-10 16:42:53.81	9.76	15.52	-38.3	-39.3	22.3	0.00e+00	21	30	0	315621376	50	5913
2026-01-10 16:42:54.82	9.63	15.61	-38.3	-39.3	22.3	0.00e+00	4	30	0	317718528	50	5939
2026-01-10 16:42:55.82	9.50	15.69	-38.3	-39.4	22.2	0.00e+00	0	30	0	319815680	50	5985
2026-01-10 16:42:56.83	9.36	15.78	-38.2	-39.3	22.4	0.00e+00	0	30	0	321912832	50	5900
2026-01-10 16:42:57.84	9.22	15.87	-38.2	-39.3	22.4	0.00e+00	24	30	0	322961408	50	5900
2026-01-10 16:42:58.85	9.08	15.95	-38.3	-39.3	22.3	0.00e+00	2	30	0	325058560	50	5945
2026-01-10 16:42:59.86	8.95	16.04	-38.3	-39.3	22.4	0.00e+00	92	30	0	327155712	50	5925
2026-01-10 16:43:00.87	8.81	16.13	-38.2	-39.2	22.4	0.00e+00	0	30	0	329252864	50	5856
2026-01-10 16:43:01.88	8.67	16.21	-38.2	-39.2	22.4	0.00e+00	91	30	0	331350016	50	5847
2026-01-10 16:43:02.89	8.52	16.30	-38.2	-39.2	22.3	0.00e+00	0	30	0	333447168	50	5865
2026-01-10 16:43:03.90	8.38	16.39	-38.1	-39.1	22.5	0.00e+00	2	30	0	334495744	50	5787
2026-01-10 16:43:04.91	8.24	16.48	-38.1	-39.1	22.5	0.00e+00	0	30	0	336592896	50	5819
2026-01-10 16:43:05.92	8.09	16.56	-38.0	-39.0	22.6	0.00e+00	55	30	0	338690048	50	5735
2026-01-10 16:43:06.93	7.95	16.65	-38.0	-39.0	22.5	0.00e+00	91	30	0	340787200	50	5707
2026-01-10 16:43:07.93	7.81	16.74	-38.1	-39.1	22.5	0.00e+00	0	30	0	342884352	50	5793
2026-01-10 16:43:08.95	7.66	16.83	-37.7	-38.7	22.8	0.00e+00	92	30	0	343932928	50	5549
2026-01-10 16:43:09.95	7.51	16.92	-37.9	-38.9	22.6	0.00e+00	0	30	0	346030080	48	6356
2026-01-10 16:43:10.96	7.36	17.00	-37.6	-38.6	23.0	0.00e+00	60	30	0	348127232	48	6132
2026-01-10 16:43:11.97	7.21	17.09	-37.7	-38.6	23.0	0.00e+00	26	30	0	350224384	48	6164
2026-01-10 16:43:12.98	7.06	17.18	-37.5	-38.5	23.1	0.00e+00	27	30	0	352321536	48	6060
2026-01-10 16:43:13.99	6.91	17.27	-37.5	-38.5	23.0	0.00e+00	38	30	0	353370112	48	6064
2026-01-10 16:43:15.00	6.76	17.36	-37.5	-38.5	23.1	0.00e+00	5	30	0	355467264	48	6065
2026-01-10 16:43:16.01	6.61	17.45	-37.6	-38.6	22.9	0.00e+00	92	30	0	357564416	48	6141
2026-01-10 16:43:17.02	6.45	17.54	-37.7	-38.6	23.0	0.00e+00	22	30	0	359661568	48	6172
2026-01-10 16:43:18.03	6.30	17.63	-37.7	-38.7	22.9	0.00e+00	92	30	0	361758720	48	6224
2026-01-10 16:43:19.04	6.14	17.71	-37.7	-38.6	22.9	0.00e+00	0	30	0	362807296	48	6161
2026-01-10 16:43:20.05	5.99	17.80	-37.7	-38.6	23.0	0.00e+00	0	30	0	364904448	48	6155
2026-01-10 16:43:21.06	5.83	17.89	-37.7	-38.7	22.8	0.00e+00	27	30	0	367001600	48	6196
2026-01-10 16:43:22.07	5.67	17.98	-37.7	-38.7	22.8	0.00e+00	2	30	0	369098752	48	6192
2026-01-10 16:43:23.08	5.51	18.07	-37.5	-38.5	23.1	0.00e+00	91	30	0	371195904	48	6043
2026-01-10 16:43:24.09	5.35	18.16	-37.5	-38.4	22.2	0.00e+00	0	30	0	372244480	48	6005
2026-01-10 16:43:25.10	5.19	18.25	-37.5	-38.5	23.1	0.00e+00	91	30	0	374341632	48	6039
2026-01-10 16:43:26.11	5.03	18.34	-37.5	-38.4	23.0	0.00e+00	62	30	0	376438784	48	6030
2026-01-10 16:43:27.12	4.87	18.43	-37.4	-38.3	23.3	0.00e+00	0	30	0	378535936	48	5928
2026-01-10 16:43:28.13	4.70	18.52	-37.5	-38.5	23.1	0.00e+00	0	30	0	380633088	48	6061
2026-01-10 16:43:29.14	4.54	18.61	-37.6	-38.5	23.1	0.00e+00	55	30	0	381681664	48	6087
2026-01-10 16:43:30.15	4.37	18.70	-37.7	-38.7	23.0	0.00e+00	50	30	0	383778816	48	6197
2026-01-10 16:43:31.16	4.20	18.79	-37.5	-38.4	23.2	0.00e+00	0	30	0	385875968	48	6012
2026-01-10 16:43:32.16	4.04	18.88	-37.6	-38.6	23.0	0.00e+00	92	30	0	387973120	48	6114
2026-01-10 16:43:33.17	3.87	18.97	-37.5	-38.4	23.2	0.00e+00	61	30	0	390070272	48	6009
2026-01-10 16:43:34.18	3.70	19.06	-37.5	-38.4	23.3	0.00e+00	62	30	0	391118848	48	6000
2026-01-10 16:43:35.19	3.52	19.15	-37.3	-38.3	23.3	0.00e+00	59	30	0	393216000	48	5903
2026-01-10 16:43:36.20	3.35	19.24	-37.3	-38.2	23.4	0.00e+00	25	30	0	395313152	48	5886
2026-01-10 16:43:37.21	3.18	19.33	-37.3	-38.2	23.4	0.00e+00	0	30	0	397410304	48	5892
2026-01-10 16:43:38.22	3.00	19.42	-37.3	-38.2	23.4	0.00e+00	0	30	0	399507456	48	5879
2026-01-10 16:43:39.23	2.83	19.52	-37.3	-38.3	23.3	0.00e+00	90	30	0	401604608	48	5906
2026-01-10 16:43:40.24	2.65	19.61	-37.5	-38.4	23.3	0.00e+00	21	30	0	402653184	48	5987
2026-01-10 16:43:41.25	2.47	19.70	-37.5	-38.5	23.1	0.00e+00	91	30	0	404750336	48	6059
2026-01-10 16:43:42.26	2.30	19.79	-37.6	-38.6	23.1	0.00e+00	19	30	0	406847488	48	6117
2026-01-10 16:43:43.27	2.12	19.88	-37.7	-38.6	23.0	0.00e+00	0	30	0	408944640	48	6171
2026-01-10 16:43:44.28	1.94	19.97	-37.7	-38.7	23.0	0.00e+00	0	30	0	411041792	48	6213
2026-01-10 16:43:45.29	1.75	20.06	-37.6	-38.5	23.1	0.00e+00	0	30	0	412090368	48	6103
2026-01-10 16:43:46.30	1.57	20.15	-37.7	-38.6	23.0	0.00e+00	91	30	0	414187520	48	6157
2026-01-10 16:43:47.31	1.39	20.24	-37.7	-38.7	22.9	0.00e+00	0	30	0	416284672	48	6203
2026-01-10 16:43:48.32	1.20	20.33	-37.7	-38.7	23.0	0.00e+00	92	30	0	418381824	48	6180
2026-01-10 16:43:49.33	1.01	20.42	-37.8	-38.7	22.9	0.00e+00	0	30	0	420478976	48	6237
2026-01-10 16:43:50.34	0.83	20.52	-37.9	-38.9	22.8	0.00e+00	59	30	0	421527552	48	6327
2026-01-10 16:43:51.35	0.64	20.61	-37.7	-38.7	23.0	0.00e+00	53	30	0	423624704	48	6216
2026-01-10 16:43:52.36	0.45	20.70	-37.8	-38.8	23.0	0.00e+00	54	30	0	425721856	48	6280
2026-01-10 16:43:53.37	0.26	20.79	-37.7	-38.7	23.0	0.00e+00	67	30	0	427819008	48	6176
2026-01-10 16:43:54.38	0.06	20.88	-37.7	-38.7	22.9	0.00e+00	0	30	0	429916160	48	6207
2026-01-10 16:43:55.39	359.87	20.97	-37.8	-38.8	22.9	0.00e+00	91	30	0	430964736	48	6265
2026-01-10 16:43:56.40	359.68	21.06	-37.7	-38.7	23.0	0.00e+00	55	30	0	433061888	48	6187
2026-01-10 16:43:57.41	359.48	21.15	-37.7	-38.7	23.0	0.00e+00	32	30	0	435159040	48	6193
2026-01-10 16:43:58.43	359.28	21.24	-37.7	-38.7	23.0	0.00e+00	21	30	0	437256192	48	6202
2026-01-10 16:43:59.44	359.08	21.33	-37.6	-38.6	23.1	0.00e+00	25	30	0	439353344	48	6136
2026-01-10 16:44:00.45	358.89	21.43	-37.7	-38.7	23.0	0.00e+00	59	30	0	440401920	48	6189
2026-01-10 16:44:01.46	358.68	21.52	-37.5	-38.5	23.2	0.00e+00	27	30	0	442499072	48	6059
2026-01-10 16:44:02.47	358.48	21.61	-37.5	-38.5	23.2	0.00e+00	92	30	0	444596224	48	6035
2026-01-10 16:44:03.48	358.28	21.70	-37.4	-38.3	23.3	0.00e+00	0	30	0	446693376	48	5930
2026-01-10 16:44:04.49	358.08	21.79	-37.3	-38.2	23.4	0.00e+00	91	30	0	448790528	48	5884
2026-01-10 16:44:05.50	357.87	21.88	-37.2	-38.1	23.4	0.00e+00	0	30	0	449839104	48	5776
2026-01-10 16:44:06.51	357.66	21.97	-37.1	-38.0	23.6	0.00e+00	5	30	0	451936256	48	5725
2026-01-10 16:44:07.51	357.46	22.06	-37.1	-38.0	23.7	0.00e+00	0	30	0	454033408	48	5723
2026-01-10 16:44:08.52	357.25	22.15	-37.2	-38.1	23.5	0.00e+00	0	30	0	456130560	48	5791
2026-01-10 16:44:09.53	357.04	22.24	-37.1	-38.0	23.6	0.00e+00	92	30	0	458227712	48	5751
2026-01-10 16:44:10.54	356.83	22.33	-37.1	-38.0	23.6	0.00e+00	0	30	0	459276288	48	5760
2026-01-10 16:44:11.55	356.62	22.42	-37.1	-38.0	23.6	0.00e+00	59	30	0	461373440	48	5740
2026-01-10 16:44:12.56	356.40	22.51	-37.1	-38.0	23.5	0.00e+00	59	30	0	463470592	48	5747
2026-01-10 16:44:13.57	356.19	22.60	-37.0	-37.9	23.7	0.00e+00	61	30	0	465567744	48	5651
2026-01-10 16:44:14.58	355.97	22.69	-37.0	-37.9	23.8	0.00e+00	26	30	0	467664896	48	5636
2026-01-10 16:44:15.59	355.75	22.78	-36.8	-37.7	23.9	0.00e+00	32	30	0	469762048	48	5544
2026-01-10 16:44:16.60	355.53	22.87	-36.7	-37.6	24.0	0.00e+00	58	30	0	470810624	48	5482
2026-01-10 16:44:17.61	355.31	22.96	-36.7	-37.6	24.0	0.00e+00	0	30	0	472907776	46	6163
2026-01-10 16:44:18.62	355.09	23.05	-36.6	-37.5	24.0	0.00e+00	90	30	0	475004928	46	6076
2026-01-10 16:44:19.63	354.87	23.13	-36.8	-37.7	24.1	0.00e+00	28	30	0	477102080	46	6198
2026-01-10 16:44:20.64	354.65	23.22	-36.7	-37.6	24.0	0.00e+00	66	30	0	479199232	46	6138
2026-01-10 16:44:21.65	354.42	23.31	-36.7	-37.6	24.1	0.00e+00	5	30	0	480247808	46	6108
2026-01-10 16:44:22.65	354.20	23.40	-36.8	-37.7	23.9	0.00e+00	26	30	0	482344960	46	6183
2026-01-10 16:44:23.66	353.97	23.49	-36.6	-37.5	24.1	0.00e+00	62	30	0	484442112	46	6059
2026-01-10 16:44:24.67	353.74	23.58	-36.7	-37.5	24.0	0.00e+00	0	30	0	486539264	46	6087
2026-01-10 16:44:25.68	353.51	23.66	-36.7	-37.6	24.0	0.00e+00	92	30	0	488636416	46	6147
2026-01-10 16:44:26.69	353.28	23.75	-36.7	-37.5	24.1	0.00e+00	0	30	0	489684992	46	6096
2026-01-10 16:44:27.69	353.05	23.84	-36.5	-37.4	24.3	0.00e+00	37	30	0	491782144	46	5999
2026-01-10 16:44:28.70	352.81	23.92	-36.4	-37.3	24.3	0.00e+00	0	30	0	493879296	46	5911
2026-01-10 16:44:29.71	352.58	24.01	-36.4	-37.2	24.3	0.00e+00	0	30	0	495976448	46	5887
2026-01-10 16:44:30.72	352.34	24.10	-36.4	-37.3	24.4	0.00e+00	0	30	0	498073600	46	5920
2026-01-10 16:44:31.73	352.10	24.18	-36.2	-37.0	24.5	0.00e+00	0	30	0	499122176	46	5751
2026-01-10 16:44:32.74	351.86	24.27	-36.3	-37.2	24.4	0.00e+00	92	30	0	501219328	46	5848
2026-01-10 16:44:33.75	351.62	24.36	-36.1	-37.0	24.6	0.00e+00	0	30	0	503316480	46	5722
2026-01-10 16:44:34.76	351.38	24.44	-36.3	-37.2	24.5	0.00e+00	92	30	0	505413632	46	5869
2026-01-10 16:44:35.77	351.13	24.53	-36.4	-37.2	24.4	0.00e+00	61	30	0	507510784	46	5886
2026-01-10 16:44:36.78	350.89	24.61	-36.3	-37.2	24.5	0.00e+00	20	30	0	508559360	46	5853
2026-01-10 16:44:37.79	350.64	24.70	-36.2	-37.1	24.4	0.00e+00	19	30	0	510656512	46	5768
2026-01-10 16:44:38.80	350.39	24.78	-36.3	-37.1	24.5	0.00e+00	20	30	0	512753664	46	5791
2026-01-10 16:44:39.81	350.15	24.87	-36.3	-37.2	24.3	0.00e+00	56	30	0	514850816	46	5848
2026-01-10 16:44:40.82	349.90	24.95	-36.5	-37.3	24.3	0.00e+00	0	30	0	516947968	46	5940
2026-01-10 16:44:41.83	349.64	25.03	-36.7	-37.5	24.2	0.00e+00	92	30	0	517996544	46	6097
2026-01-10 16:44:42.84	349.39	25.12	-36.5	-37.4	24.3	0.00e+00	19	30	0	520093696	46	5980
2026-01-10 16:44:43.85	349.14	25.20	-36.5	-37.3	24.3	0.00e+00	21	30	0	522190848	46	5939
2026-01-10 16:44:44.86	348.88	25.28	-36.6	-37.4	24.2	0.00e+00	21	30	0	524288000	46	6030
2026-01-10 16:44:45.87	348.62	25.36	-36.8	-37.7	24.0	0.00e+00	0	30	0	526385152	46	6215
2026-01-10 16:44:46.88	348.36	25.44	-36.9	-37.8	23.8	0.00e+00	25	30	0	527433728	46	6275
2026-01-10 16:44:47.89	348.10	25.53	-36.8	-37.6	23.9	0.00e+00	0	30	0	529530880	46	6165
2026-01-10 16:44:48.89	347.85	25.61	-36.9	-37.8	23.8	0.00e+00	92	30	0	531628032	46	6272
2026-01-10 16:44:49.90	347.58	25.69	-36.8	-37.7	23.9	0.00e+00	2	30	0	533725184	46	6187
2026-01-10 16:44:50.91	347.32	25.77	-37.0	-37.8	23.8	0.00e+00	92	30	0	535822336	46	6300
2026-01-10 16:44:51.92	347.05	25.85	-37.0	-37.9	23.8	0.00e+00	61	30	0	537919488	46	6322
2026-01-10 16:44:52.93	346.79	25.92	-37.0	-37.9	23.8	0.00e+00	61	30	0	538968064	46	6364
2026-01-10 16:44:53.94	346.52	26.00	-37.0	-37.9	23.8	0.00e+00	0	30	0	541065216	46	6375
2026-01-10 16:44:54.95	346.25	26.08	-37.1	-38.0	23.7	0.00e+00	55	30	0	543162368	46	6395
2026-01-10 16:44:55.96	345.98	26.16	-37.2	-38.1	23.6	0.00e+00	92	30	0	545259520	46	6494
2026-01-10 16:44:56.97	345.71	26.24	-37.2	-38.1	23.7	0.00e+00	25	30	0	547356672	46	6529
2026-01-10 16:44:57.98	345.43	26.31	-37.2	-38.1	23.6	0.00e+00	92	31	0	548405248	46	6492
2026-01-10 16:44:58.99	345.16	26.39	-37.3	-38.2	23.5	0.00e+00	0	30	0	550502400	46	6548
2026-01-10 16:45:00.00	344.88	26.47	-37.2	-38.1	23.5	0.00e+00	20	30	0	552599552	46	6506
2026-01-10 16:45:01.00	344.61	26.54	-37.4	-38.3	23.4	0.00e+00	62	30	0	554696704	46	6684
2026-01-10 16:45:02.01	344.33	26.61	-37.4	-38.3	23.5	0.00e+00	61	30	0	555745280	46	6643
2026-01-10 16:45:03.02	344.05	26.69	-37.5	-38.5	23.3	0.00e+00	90	30	0	557842432	46	6779
2026-01-10 16:45:04.03	343.77	26.76	-37.5	-38.5	23.3	0.00e+00	20	30	0	559939584	46	6788
2026-01-10 16:45:05.04	343.49	26.83	-37.5	-38.4	23.3	0.00e+00	92	31	0	562036736	46	6756
2026-01-10 16:45:06.05	343.20	26.91	-37.6	-38.5	23.2	0.00e+00	0	30	0	564133888	46	6845
2026-01-10 16:45:07.06	342.92	26.98	-37.4	-38.4	23.4	0.00e+00	0	30	0	566231040	46	6698
2026-01-10 16:45:08.07	342.63	27.05	-37.5	-38.5	23.3	0.00e+00	0	31	0	567279616	46	6771
2026-01-10 16:45:09.08	342.34	27.12	-37.6	-38.5	23.1	0.00e+00	0	30	0	569376768	46	6830
2026-01-10 16:45:10.09	342.05	27.19	-37.6	-38.5	23.2	0.00e+00	0	30	0	571473920	46	6814
2026-01-10 16:45:11.10	341.76	27.26	-37.5	-38.4	23.3	0.00e+00	0	30	0	573571072	46	6741
2026-01-10 16:45:12.11	341.47	27.33	-37.4	-38.4	23.4	0.00e+00	92	30	0	575668224	46	6702
2026-01-10 16:45:13.12	341.18	27.40	-37.4	-38.3	23.4	0.00e+00	62	30	0	576716800	46	6668
2026-01-10 16:45:14.13	340.88	27.46	-37.4	-38.3	23.5	0.00e+00	92	30	0	578813952	46	6625
2026-01-10 16:45:15.14	340.59	27.53	-37.4	-38.3	23.6	0.00e+00	0	30	0	580911104	46	6643
2026-01-10 16:45:16.15	340.29	27.60	-37.2	-38.1	23.6	0.00e+00	63	30	0	583008256	46	6480
2026-01-10 16:45:17.15	340.00	27.66	-37.2	-38.1	23.6	0.00e+00	42	30	0	585105408	46	6532
2026-01-10 16:45:18.16	339.70	27.73	-37.3	-38.2	23.5	0.00e+00	64	30	0	586153984	46	6576
2026-01-10 16:45:19.17	339.40	27.79	-37.3	-38.2	23.5	0.00e+00	92	30	0	588251136	46	6587
2026-01-10 16:45:20.18	339.10	27.85	-37.2	-38.1	23.6	0.00e+00	64	31	0	590348288	46	6501
2026-01-10 16:45:21.19	338.79	27.91	-37.3	-38.2	23.5	0.00e+00	92	30	0	592445440	46	6600
2026-01-10 16:45:22.20	338.49	27.98	-37.4	-38.3	23.5	0.00e+00	0	30	0	594542592	46	6673
2026-01-10 16:45:23.21	338.19	28.04	-37.4	-38.3	23.6	0.00e+00	0	30	0	595591168	46	6628
2026-01-10 16:45:24.22	337.88	28.10	-37.3	-38.2	23.6	0.00e+00	2	30	0	597688320	46	6544
2026-01-10 16:45:25.23	337.57	28.16	-37.3	-38.2	23.6	0.00e+00	17	30	0	599785472	46	6581
2026-01-10 16:45:26.24	337.26	28.21	-37.4	-38.3	23.4	0.00e+00	92	31	0	601882624	46	6646
2026-01-10 16:45:27.25	336.95	28.27	-37.4	-38.3	23.5	0.00e+00	19	30	0	603979776	46	6671
2026-01-10 16:45:28.26	336.64	28.33	-37.5	-38.5	23.3	0.00e+00	90	30	0	605028352	46	6776
2026-01-10 16:45:29.27	336.33	28.39	-37.5	-38.5	23.3	0.00e+00	0	31	0	607125504	46	6787
2026-01-10 16:45:30.28	336.02	28.44	-37.6	-38.6	23.2	0.00e+00	53	30	0	609222656	46	6858
2026-01-10 16:45:31.29	335.70	28.49	-37.6	-38.6	23.2	0.00e+00	0	30	0	611319808	48	6136
2026-01-10 16:45:32.30	335.39	28.55	-37.7	-38.7	23.2	0.00e+00	0	31	0	613416960	48	6184
2026-01-10 16:45:33.31	335.07	28.60	-37.6	-38.6	23.2	0.00e+00	61	30	0	615514112	48	6107
2026-01-10 16:45:34.32	334.76	28.65	-37.3	-38.2	23.5	0.00e+00	0	30	0	616562688	48	5888
2026-01-10 16:45:35.33	334.44	28.70	-37.4	-38.3	23.4	0.00e+00	92	31	0	618659840	48	5917
2026-01-10 16:45:36.34	334.12	28.75	-37.5	-38.4	23.3	0.00e+00	61	31	0	620756992	48	6033
2026-01-10 16:45:37.35	333.80	28.80	-37.8	-38.7	23.0	0.00e+00	91	30	0	622854144	48	6226
2026-01-10 16:45:38.36	333.48	28.85	-38.0	-38.9	22.9	0.00e+00	0	31	0	623902720	48	6377
2026-01-10 16:45:39.37	333.15	28.90	-37.9	-38.9	22.9	0.00e+00	0	30	0	625999872	48	6368
2026-01-10 16:45:40.38	332.83	28.94	-38.1	-39.1	22.8	0.00e+00	52	30	0	628097024	48	6484
2026-01-10 16:45:41.39	332.51	28.99	-38.1	-39.0	22.8	0.00e+00	60	31	0	630194176	48	6452
2026-01-10 16:45:42.40	332.18	29.03	-38.0	-39.0	22.8	0.00e+00	92	31	0	632291328	48	6428
2026-01-10 16:45:43.41	331.86	29.08	-38.0	-38.9	22.9	0.00e+00	61	31	0	634388480	48	6364
2026-01-10 16:45:44.42	331.53	29.12	-38.1	-39.1	22.8	0.00e+00	91	31	0	635437056	48	6493
2026-01-10 16:45:45.43	331.20	29.16	-38.2	-39.2	22.7	0.00e+00	22	30	0	637534208	48	6602
2026-01-10 16:45:46.44	330.87	29.20	-38.1	-39.1	22.8	0.00e+00	0	30	0	639631360	48	6505
2026-01-10 16:45:47.45	330.54	29.24	-38.1	-39.1	22.8	0.00e+00	0	31	0	641728512	48	6509
2026-01-10 16:45:48.46	330.21	29.28	-37.9	-38.9	23.0	0.00e+00	26	31	0	643825664	48	6332
2026-01-10 16:45:49.47	329.88	29.32	-37.9	-38.8	23.0	0.00e+00	70	31	0	644874240	48	6301
2026-01-10 16:45:50.47	329.55	29.35	-38.0	-38.9	22.9	0.00e+00	0	31	0	646971392	48	6368
2026-01-10 16:45:51.48	329.22	29.39	-38.0	-39.0	22.9	0.00e+00	91	31	0	649068544	48	6395
2026-01-10 16:45:52.49	328.89	29.42	-38.1	-39.1	22.8	0.00e+00	0	31	0	651165696	48	6471
2026-01-10 16:45:53.50	328.55	29.46	-38.1	-39.1	22.8	0.00e+00	45	31	0	653262848	48	6465
2026-01-10 16:45:54.51	328.22	29.49	-38.2	-39.2	22.7	0.00e+00	0	31	0	654311424	48	6564
2026-01-10 16:45:55.52	327.88	29.52	-38.2	-39.2	22.7	0.00e+00	0	31	0	656408576	48	6566
2026-01-10 16:45:56.53	327.55	29.55	-38.1	-39.1	22.8	0.00e+00	0	31	0	658505728	48	6489
2026-01-10 16:45:57.54	327.21	29.58	-37.8	-38.7	23.1	0.00e+00	61	31	0	660602880	48	6222
2026-01-10 16:45:58.55	326.87	29.61	-37.8	-38.7	23.1	0.00e+00	91	31	0	662700032	48	6208
2026-01-10 16:45:59.56	326.54	29.63	-38.0	-38.9	22.9	0.00e+00	0	31	0	663748608	48	6357
2026-01-10 16:46:00.57	326.20	29.66	-38.1	-39.1	22.8	0.00e+00	91	31	0	665845760	48	6469
2026-01-10 16:46:01.58	325.86	29.68	-38.2	-39.2	22.7	0.00e+00	0	30	0	667942912	48	6576
2026-01-10 16:46:02.59	325.52	29.71	-38.3	-39.3	22.4	0.00e+00	62	31	0	670040064	48	6643
2026-01-10 16:46:03.59	325.18	29.73	-38.3	-39.3	22.6	0.00e+00	60	30	0	672137216	48	6616
2026-01-10 16:46:04.60	324.84	29.75	-38.2	-39.2	22.7	0.00e+00	61	31	0	673185792	48	6597
2026-01-10 16:46:05.62	324.50	29.77	-38.4	-39.4	22.6	0.00e+00	92	31	0	675282944	48	6749
2026-01-10 16:46:06.63	324.16	29.79	-38.6	-39.6	22.3	0.00e+00	7	31	0	677380096	48	6902
2026-01-10 16:46:07.64	323.82	29.81	-38.7	-39.8	22.1	0.00e+00	92	30	0	679477248	48	7036
2026-01-10 16:46:08.64	323.48	29.82	-38.8	-39.8	22.2	0.00e+00	26	30	0	681574400	50	6270
2026-01-10 16:46:09.65	323.14	29.84	-38.7	-39.8	22.1	0.00e+00	8	31	0	682622976	50	6276
2026-01-10 16:46:10.66	322.79	29.85	-39.0	-40.1	21.9	0.00e+00	25	30	0	684720128	50	6472
2026-01-10 16:46:11.67	322.45	29.87	-39.1	-40.2	21.9	0.00e+00	7	30	0	686817280	50	6560
2026-01-10 16:46:12.68	322.11	29.88	-39.0	-40.0	21.9	0.00e+00	85	31	0	688914432	50	6457
2026-01-10 16:46:13.69	321.76	29.89	-39.0	-40.1	21.9	0.00e+00	0	31	0	691011584	50	6531
2026-01-10 16:46:14.70	321.42	29.90	-38.8	-39.8	22.1	0.00e+00	92	31	0	692060160	50	6310
2026-01-10 16:46:15.71	321.08	29.91	-38.8	-39.8	22.2	0.00e+00	7	30	0	694157312	50	6295
2026-01-10 16:46:16.72	320.73	29.92	-38.8	-39.9	22.1	0.00e+00	46	30	0	696254464	50	6343
2026-01-10 16:46:17.73	320.39	29.92	-39.1	-40.1	21.9	0.00e+00	0	30	0	698351616	50	6528
2026-01-10 16:46:18.74	320.04	29.93	-39.2	-40.3	21.7	0.00e+00	56	30	0	700448768	50	6675
2026-01-10 16:46:19.75	319.70	29.93	-39.3	-40.4	21.6	0.00e+00	0	30	0	702545920	50	6696
2026-01-10 16:46:20.76	319.36	29.94	-39.1	-40.1	21.9	0.00e+00	57	30	0	703594496	50	6526
2026-01-10 16:46:21.77	319.01	29.94	-39.0	-40.1	22.0	0.00e+00	90	30	0	705691648	50	6478
2026-01-10 16:46:22.77	318.67	29.94	-39.1	-40.2	21.8	0.00e+00	24	30	0	707788800	50	6582
2026-01-10 16:46:23.79	318.32	29.94	-39.0	-40.1	21.9	0.00e+00	90	30	0	709885952	50	6515
2026-01-10 16:46:24.80	317.98	29.94	-39.0	-40.1	21.9	0.00e+00	20	30	0	711983104	50	6507
2026-01-10 16:46:25.81	317.63	29.93	-39.0	-40.1	21.8	0.00e+00	20	30	0	713031680	50	6478
2026-01-10 16:46:26.82	317.29	29.93	-39.1	-40.2	21.4	0.00e+00	21	30	0	715128832	50	6592
2026-01-10 16:46:27.83	316.94	29.92	-39.3	-40.5	21.5	0.00e+00	21	30	0	717225984	50	6789
2026-01-10 16:46:28.83	316.60	29.92	-39.1	-40.2	21.8	0.00e+00	92	30	0	719323136	50	6576
2026-01-10 16:46:29.84	316.26	29.91	-39.0	-40.1	22.0	0.00e+00	21	30	0	721420288	50	6469
2026-01-10 16:46:30.85	315.92	29.90	-38.9	-40.0	22.1	0.00e+00	91	30	0	722468864	50	6397
2026-01-10 16:46:31.86	315.57	29.89	-39.0	-40.1	21.9	0.00e+00	0	30	0	724566016	50	6523
2026-01-10 16:46:32.87	315.23	29.88	-39.1	-40.2	21.8	0.00e+00	0	31	0	726663168	50	6609
2026-01-10 16:46:33.88	314.88	29.87	-38.8	-39.9	22.2	0.00e+00	0	30	0	728760320	50	6326
2026-01-10 16:46:34.89	314.54	29.86	-38.7	-39.7	22.2	0.00e+00	2	30	0	730857472	50	6226
2026-01-10 16:46:35.90	314.20	29.84	-38.2	-39.1	22.8	0.00e+00	0	30	0	731906048	50	5799
2026-01-10 16:46:36.91	313.86	29.83	-38.1	-39.1	22.8	0.00e+00	0	30	0	734003200	50	5802
2026-01-10 16:46:37.92	313.51	29.81	-38.3	-39.3	22.6	0.00e+00	91	30	0	736100352	50	5911
2026-01-10 16:46:38.93	313.17	29.79	-38.6	-39.6	22.4	0.00e+00	60	30	0	738197504	50	6129
2026-01-10 16:46:39.94	312.83	29.77	-38.3	-39.3	22.7	0.00e+00	46	30	0	740294656	50	5910
2026-01-10 16:46:40.95	312.49	29.75	-38.1	-39.0	22.9	0.00e+00	59	30	0	741343232	50	5756
2026-01-10 16:46:41.96	312.15	29.73	-37.8	-38.7	23.1	0.00e+00	61	30	0	743440384	50	5552
2026-01-10 16:46:42.97	311.81	29.71	-37.8	-38.8	23.1	0.00e+00	0	30	0	745537536	48	6264
2026-01-10 16:46:43.98	311.47	29.68	-37.7	-38.6	23.1	0.00e+00	60	30	0	747634688	48	6172
2026-01-10 16:46:44.99	311.13	29.66	-37.7	-38.7	23.2	0.00e+00	92	30	0	749731840	48	6178
2026-01-10 16:46:46.00	310.79	29.63	-37.7	-38.7	23.1	0.00e+00	55	30	0	750780416	48	6191
2026-01-10 16:46:47.00	310.46	29.61	-37.7	-38.7	23.2	0.00e+00	92	30	0	752877568	48	6196
2026-01-10 16:46:48.02	310.12	29.58	-37.9	-38.8	23.0	0.00e+00	31	30	0	754974720	48	6294
2026-01-10 16:46:49.03	309.78	29.55	-37.8	-38.7	23.2	0.00e+00	2	30	0	757071872	48	6220
2026-01-10 16:46:50.04	309.44	29.52	-37.9	-38.8	23.0	0.00e+00	26	30	0	759169024	48	6304
2026-01-10 16:46:51.04	309.11	29.49	-37.9	-38.9	23.0	0.00e+00	0	30	0	760217600	48	6327
2026-01-10 16:46:52.05	308.78	29.46	-37.6	-38.5	23.3	0.00e+00	90	30	0	762314752	48	6099
2026-01-10 16:46:53.06	308.44	29.43	-37.6	-38.6	23.3	0.00e+00	26	30	0	764411904	48	6111
2026-01-10 16:46:54.07	308.11	29.39	-37.7	-38.6	23.2	0.00e+00	92	30	0	766509056	48	6143
2026-01-10 16:46:55.08	307.78	29.36	-37.7	-38.6	23.2	0.00e+00	0	30	0	768606208	48	6171
2026-01-10 16:46:56.09	307.44	29.32	-37.7	-38.6	23.3	0.00e+00	0	30	0	770703360	48	6173
2026-01-10 16:46:57.10	307.11	29.28	-37.5	-38.5	23.5	0.00e+00	2	30	0	771751936	48	6043
2026-01-10 16:46:58.11	306.78	29.24	-37.7	-38.6	23.3	0.00e+00	0	30	0	773849088	48	6152
2026-01-10 16:46:59.12	306.45	29.20	-37.8	-38.8	23.1	0.00e+00	62	30	0	775946240	48	6250
2026-01-10 16:47:00.12	306.13	29.16	-37.7	-38.6	23.2	0.00e+00	63	30	0	778043392	48	6138
2026-01-10 16:47:01.13	305.80	29.12	-37.7	-38.6	23.2	0.00e+00	92	30	0	780140544	48	6138
2026-01-10 16:47:02.14	305.47	29.08	-37.7	-38.6	23.2	0.00e+00	62	30	0	781189120	48	6173
2026-01-10 16:47:03.15	305.15	29.04	-37.5	-38.4	23.5	0.00e+00	92	30	0	783286272	48	6003
2026-01-10 16:47:04.16	304.82	28.99	-37.4	-38.3	23.5	0.00e+00	0	30	0	785383424	48	5940
2026-01-10 16:47:05.17	304.50	28.95	-37.3	-38.2	23.6	0.00e+00	20	30	0	787480576	48	5844
2026-01-10 16:47:06.17	304.18	28.90	-37.3	-38.2	23.6	0.00e+00	2	30	0	789577728	48	5883
2026-01-10 16:47:07.18	303.85	28.86	-37.5	-38.4	23.4	0.00e+00	0	30	0	790626304	48	6027
2026-01-10 16:47:08.19	303.53	28.81	-37.6	-38.5	23.3	0.00e+00	91	30	0	792723456	48	6055
2026-01-10 16:47:09.19	303.21	28.76	-37.8	-38.7	23.0	0.00e+00	19	30	0	794820608	48	6218
2026-01-10 16:47:10.20	302.89	28.71	-37.9	-38.8	23.1	0.00e+00	92	30	0	796917760	48	6294
2026-01-10 16:47:11.21	302.57	28.66	-37.9	-38.9	22.9	0.00e+00	21	30	0	799014912	48	6350
2026-01-10 16:47:12.22	302.26	28.61	-38.1	-39.1	22.7	0.00e+00	0	30	0	800063488	48	6507
2026-01-10 16:47:13.23	301.94	28.55	-38.2	-39.2	22.7	0.00e+00	20	30	0	802160640	48	6571
2026-01-10 16:47:14.24	301.62	28.50	-38.3	-39.3	22.6	0.00e+00	0	30	0	804257792	48	6688
2026-01-10 16:47:15.24	301.31	28.45	-38.5	-39.6	22.5	0.00e+00	88	30	0	806354944	48	6851
2026-01-10 16:47:16.25	301.00	28.39	-38.6	-39.6	22.3	0.00e+00	0	30	0	808452096	48	6890
2026-01-10 16:47:17.26	300.69	28.34	-38.5	-39.5	22.4	0.00e+00	92	30	0	809500672	48	6825
2026-01-10 16:47:18.27	300.38	28.28	-38.4	-39.4	22.5	0.00e+00	0	30	0	811597824	48	6757
2026-01-10 16:47:19.28	300.07	28.22	-38.4	-39.4	22.5	0.00e+00	91	30	0	813694976	48	6714
2026-01-10 16:47:20.29	299.76	28.16	-38.5	-39.6	22.4	0.00e+00	0	30	0	815792128	48	6864
2026-01-10 16:47:21.30	299.45	28.10	-38.6	-39.6	22.4	0.00e+00	2	30	0	817889280	48	6880
2026-01-10 16:47:22.31	299.14	28.04	-38.6	-39.7	22.2	0.00e+00	0	30	0	818937856	48	6953
2026-01-10 16:47:23.32	298.84	27.98	-38.6	-39.7	22.3	0.00e+00	0	30	0	821035008	48	6935
2026-01-10 16:47:24.33	298.53	27.92	-38.6	-39.6	22.3	0.00e+00	92	30	0	823132160	48	6908
2026-01-10 16:47:25.34	298.23	27.86	-38.5	-39.5	22.4	0.00e+00	0	30	0	825229312	48	6829
2026-01-10 16:47:26.34	297.93	27.80	-38.3	-39.3	22.5	0.00e+00	92	30	0	827326464	48	6640
2026-01-10 16:47:27.35	297.63	27.73	-38.4	-39.4	22.5	0.00e+00	0	30	0	828375040	48	6744
2026-01-10 16:47:28.36	297.33	27.67	-38.5	-39.5	22.4	0.00e+00	60	30	0	830472192	48	6791
2026-01-10 16:47:29.37	297.03	27.60	-38.7	-39.8	21.9	0.00e+00	46	30	0	832569344	48	7016
2026-01-10 16:47:30.38	296.73	27.54	-38.7	-39.7	22.2	0.00e+00	2	30	0	834666496	48	6955
2026-01-10 16:47:31.39	296.44	27.47	-38.7	-39.7	22.2	0.00e+00	92	30	0	836763648	50	6226
2026-01-10 16:47:32.40	296.14	27.40	-38.7	-39.7	22.2	0.00e+00	59	30	0	837812224	50	6236
2026-01-10 16:47:33.41	295.85	27.33	-38.9	-39.9	22.1	0.00e+00	90	30	0	839909376	50	6369
2026-01-10 16:47:34.42	295.55	27.27	-38.8	-39.8	22.2	0.00e+00	6	30	0	842006528	50	6304
2026-01-10 16:47:35.43	295.26	27.20	-38.8	-39.8	22.1	0.00e+00	4	30	0	844103680	50	6278
2026-01-10 16:47:36.44	294.97	27.13	-38.8	-39.9	21.9	0.00e+00	5	30	0	846200832	50	6339
2026-01-10 16:47:37.45	294.69	27.06	-38.6	-39.6	22.4	0.00e+00	6	30	0	847249408	50	6146
2026-01-10 16:47:38.46	294.40	26.98	-38.5	-39.5	22.4	0.00e+00	13	30	0	849346560	50	6075
2026-01-10 16:47:39.47	294.11	26.91	-38.4	-39.4	22.5	0.00e+00	0	30	0	851443712	50	5985
2026-01-10 16:47:40.48	293.83	26.84	-38.5	-39.6	22.3	0.00e+00	92	30	0	853540864	50	6128
2026-01-10 16:47:41.49	293.54	26.77	-38.5	-39.6	22.4	0.00e+00	5	30	0	855638016	50	6108
2026-01-10 16:47:42.50	293.26	26.69	-38.4	-39.4	22.5	0.00e+00	92	30	0	856686592	50	6016
2026-01-10 16:47:43.51	292.98	26.62	-38.5	-39.5	22.5	0.00e+00	7	30	0	858783744	50	6062
2026-01-10 16:47:44.52	292.70	26.54	-38.5	-39.5	22.4	0.00e+00	0	30	0	860880896	50	6086
2026-01-10 16:47:45.53	292.42	26.47	-38.5	-39.6	22.4	0.00e+00	6	30	0	862978048	50	6115
2026-01-10 16:47:46.54	292.15	26.39	-38.5	-39.5	22.4	0.00e+00	54	30	0	865075200	50	6046
2026-01-10 16:47:47.55	291.87	26.32	-38.2	-39.2	22.8	0.00e+00	92	30	0	867172352	50	5835
2026-01-10 16:47:48.55	291.60	26.24	-38.2	-39.1	22.7	0.00e+00	0	30	0	868220928	50	5820
2026-01-10 16:47:49.56	291.33	26.16	-37.9	-38.9	23.0	0.00e+00	90	30	0	870318080	50	5642
2026-01-10 16:47:50.57	291.06	26.09	-37.8	-38.8	23.0	0.00e+00	52	30	0	872415232	50	5572
2026-01-10 16:47:51.58	290.79	26.01	-37.8	-38.7	23.2	0.00e+00	30	30	0	874512384	50	5531
2026-01-10 16:47:52.59	290.52	25.93	-37.7	-38.6	23.3	0.00e+00	48	30	0	876609536	48	6140
2026-01-10 16:47:53.60	290.25	25.85	-37.6	-38.5	23.3	0.00e+00	0	30	0	877658112	48	6100
2026-01-10 16:47:54.61	289.98	25.77	-37.7	-38.6	23.1	0.00e+00	92	30	0	879755264	48	6154
2026-01-10 16:47:55.62	289.72	25.69	-37.7	-38.6	23.2	0.00e+00	6	30	0	881852416	48	6171
2026-01-10 16:47:56.63	289.46	25.61	-37.7	-38.6	23.3	0.00e+00	92	30	0	883949568	48	6134
2026-01-10 16:47:57.64	289.19	25.53	-37.6	-38.6	23.2	0.00e+00	7	30	0	886046720	48	6104
2026-01-10 16:47:58.65	288.93	25.45	-37.7	-38.6	23.2	0.00e+00	6	30	0	887095296	48	6141
2026-01-10 16:47:59.66	288.67	25.37	-37.5	-38.4	23.2	0.00e+00	6	30	0	889192448	48	6024
2026-01-10 16:48:00.67	288.42	25.28	-37.5	-38.4	23.3	0.00e+00	7	30	0	891289600	48	6032
2026-01-10 16:48:01.67	288.16	25.20	-37.4	-38.3	23.4	0.00e+00	92	30	0	893386752	48	5918
2026-01-10 16:48:02.69	287.90	25.12	-37.3	-38.2	23.6	0.00e+00	6	30	0	895483904	48	5886
2026-01-10 16:48:03.69	287.65	25.04	-37.0	-37.9	23.8	0.00e+00	92	30	0	896532480	48	5650
2026-01-10 16:48:04.70	287.40	24.95	-36.9	-37.8	23.8	0.00e+00	0	30	0	898629632	48	5604
2026-01-10 16:48:05.71	287.15	24.87	-37.1	-37.9	23.8	0.00e+00	60	30	0	900726784	48	5690
2026-01-10 16:48:06.72	286.90	24.78	-37.2	-38.1	23.6	0.00e+00	58	30	0	902823936	48	5781
2026-01-10 16:48:07.73	286.65	24.70	-37.4	-38.3	23.4	0.00e+00	60	30	0	904921088	48	5933
2026-01-10 16:48:08.74	286.40	24.61	-37.2	-38.1	23.6	0.00e+00	0	30	0	905969664	48	5771
2026-01-10 16:48:09.75	286.16	24.53	-37.1	-38.0	23.7	0.00e+00	0	30	0	908066816	48	5714
2026-01-10 16:48:10.76	285.91	24.44	-36.8	-37.7	24.0	0.00e+00	92	30	0	910163968	48	5526
2026-01-10 16:48:11.77	285.67	24.36	-36.8	-37.6	23.9	0.00e+00	58	30	0	912261120	48	5489
2026-01-10 16:48:12.78	285.43	24.27	-36.7	-37.5	24.1	0.00e+00	91	30	0	914358272	46	6082
2026-01-10 16:48:13.79	285.19	24.19	-36.5	-37.3	24.3	0.00e+00	53	30	0	915406848	46	5956
2026-01-10 16:48:14.80	284.95	24.10	-36.5	-37.3	24.3	0.00e+00	23	30	0	917504000	46	5960
2026-01-10 16:48:15.81	284.71	24.01	-36.5	-37.3	24.4	0.00e+00	28	30	0	919601152	46	5913
2026-01-10 16:48:16.82	284.47	23.92	-36.5	-37.4	24.3	0.00e+00	27	30	0	921698304	46	5968
2026-01-10 16:48:17.83	284.24	23.84	-36.4	-37.2	24.4	0.00e+00	92	30	0	923795456	46	5867
2026-01-10 16:48:18.84	284.00	23.75	-36.4	-37.2	24.3	0.00e+00	27	30	0	924844032	46	5880
2026-01-10 16:48:19.85	283.77	23.66	-36.4	-37.2	24.4	0.00e+00	92	29	0	926941184	46	5855
2026-01-10 16:48:20.86	283.54	23.57	-36.4	-37.2	24.4	0.00e+00	0	30	0	929038336	46	5859
2026-01-10 16:48:21.87	283.31	23.49	-36.3	-37.1	24.6	0.00e+00	0	29	0	931135488	46	5777
2026-01-10 16:48:22.88	283.08	23.40	-36.1	-36.9	24.6	0.00e+00	0	30	0	933232640	46	5637
2026-01-10 16:48:23.89	282.85	23.31	-35.9	-36.7	24.6	0.00e+00	0	30	0	935329792	46	5533
2026-01-10 16:48:24.90	282.63	23.22	-35.9	-36.7	24.8	0.00e+00	37	29	0	936378368	46	5514
2026-01-10 16:48:25.91	282.40	23.13	-36.1	-36.9	24.7	0.00e+00	2	29	0	938475520	46	5639
2026-01-10 16:48:26.92	282.18	23.04	-35.9	-36.7	24.8	0.00e+00	92	29	0	940572672	46	5524
2026-01-10 16:48:27.93	281.96	22.95	-35.9	-36.7	24.9	0.00e+00	0	29	0	942669824	46	5513
2026-01-10 16:48:28.94	281.74	22.86	-35.8	-36.6	24.8	0.00e+00	59	29	0	944766976	46	5476
2026-01-10 16:48:29.95	281.52	22.77	-35.9	-36.7	24.8	0.00e+00	0	29	0	945815552	46	5514
2026-01-10 16:48:30.96	281.30	22.68	-35.8	-36.6	24.9	0.00e+00	58	29	0	947912704	46	5463
2026-01-10 16:48:31.97	281.08	22.59	-35.7	-36.5	25.0	0.00e+00	24	30	0	950009856	44	6044
2026-01-10 16:48:32.98	280.87	22.50	-35.6	-36.4	24.9	0.00e+00	59	29	0	952107008	44	6004
2026-01-10 16:48:33.99	280.65	22.41	-35.6	-36.4	24.9	0.00e+00	90	30	0	954204160	44	6012
2026-01-10 16:48:35.00	280.44	22.32	-35.4	-36.2	25.2	0.00e+00	0	29	0	955252736	44	5856
2026-01-10 16:48:36.01	280.23	22.23	-35.3	-36.1	25.2	0.00e+00	92	29	0	957349888	44	5783
2026-01-10 16:48:37.02	280.02	22.14	-35.4	-36.2	25.1	0.00e+00	0	29	0	959447040	44	5837
2026-01-10 16:48:38.02	279.81	22.05	-35.2	-35.9	25.4	0.00e+00	0	29	0	961544192	44	5695
2026-01-10 16:48:39.03	279.60	21.96	-35.2	-36.0	25.4	0.00e+00	24	29	0	963641344	44	5709
2026-01-10 16:48:40.04	279.39	21.87	-35.0	-35.8	25.5	0.00e+00	22	29	0	964689920	44	5579
2026-01-10 16:48:41.05	279.19	21.78	-35.0	-35.8	25.5	0.00e+00	92	29	0	966787072	44	5591
2026-01-10 16:48:42.06	278.98	21.69	-35.1	-35.8	25.6	0.00e+00	25	29	0	968884224	44	5619
2026-01-10 16:48:43.07	278.78	21.60	-34.9	-35.7	25.6	0.00e+00	92	29	0	970981376	44	5515
2026-01-10 16:48:44.08	278.58	21.51	-35.1	-35.9	25.4	0.00e+00	0	29	0	973078528	44	5646
2026-01-10 16:48:45.09	278.37	21.42	-35.2	-36.0	25.4	0.00e+00	9	29	0	974127104	44	5723
2026-01-10 16:48:46.10	278.17	21.33	-34.9	-35.6	25.7	0.00e+00	2	29	0	976224256	44	5482
2026-01-10 16:48:47.11	277.98	21.24	-35.0	-35.8	25.5	0.00e+00	0	29	0	978321408	44	5602
2026-01-10 16:48:48.12	277.78	21.14	-34.9	-35.6	25.6	0.00e+00	31	29	0	980418560	44	5500
2026-01-10 16:48:49.13	277.58	21.05	-34.9	-35.7	25.6	0.00e+00	52	29	0	982515712	44	5532
2026-01-10 16:48:50.13	277.39	20.96	-35.0	-35.8	25.5	0.00e+00	91	29	0	983564288	44	5568
2026-01-10 16:48:51.14	277.19	20.87	-35.0	-35.7	25.5	0.00e+00	0	29	0	985661440	44	5556
2026-01-10 16:48:52.15	277.00	20.78	-34.8	-35.6	25.1	0.00e+00	53	29	0	987758592	44	5487
2026-01-10 16:48:53.16	276.81	20.69	-35.0	-35.8	24.9	0.00e+00	52	29	0	989855744	44	5584
2026-01-10 16:48:54.17	276.62	20.60	-35.0	-35.8	25.1	0.00e+00	23	29	0	991952896	44	5587
2026-01-10 16:48:55.18	276.43	20.51	-35.0	-35.8	25.1	0.00e+00	35	29	0	993001472	44	5599
2026-01-10 16:48:56.19	276.24	20.42	-35.0	-35.8	25.3	0.00e+00	59	29	0	995098624	44	5579
2026-01-10 16:48:57.20	276.05	20.32	-35.0	-35.8	25.1	0.00e+00	90	29	0	997195776	44	5585
2026-01-10 16:48:58.21	275.87	20.23	-35.0	-35.8	25.5	0.00e+00	0	29	0	999292928	44	5583
2026-01-10 16:48:59.22	275.68	20.14	-35.2	-35.9	25.4	0.00e+00	0	29	0	1001390080	44	5679
2026-01-10 16:49:00.22	275.50	20.05	-35.2	-35.9	25.3	0.00e+00	23	29	0	1003487232	44	5691
2026-01-10 16:49:01.24	275.32	19.96	-35.3	-36.1	25.2	0.00e+00	0	29	0	1004535808	44	5798
2026-01-10 16:49:02.24	275.14	19.87	-35.2	-36.0	25.2	0.00e+00	0	29	0	1006632960	44	5732
2026-01-10 16:49:03.25	274.96	19.78	-35.1	-35.9	25.1	0.00e+00	24	29	0	1008730112	44	5670
2026-01-10 16:49:04.26	274.78	19.69	-35.4	-36.2	25.1	0.00e+00	92	29	0	1010827264	44	5832
2026-01-10 16:49:05.27	274.60	19.60	-35.3	-36.1	25.1	0.00e+00	0	29	0	1012924416	44	5803
2026-01-10 16:49:06.28	274.42	19.51	-35.4	-36.1	25.1	0.00e+00	92	29	0	1013972992	44	5824
2026-01-10 16:49:07.29	274.24	19.41	-35.5	-36.3	24.8	0.00e+00	0	29	0	1016070144	44	5928
2026-01-10 16:49:08.30	274.07	19.32	-35.6	-36.4	24.0	0.00e+00	16	29	0	1018167296	44	5975
2026-01-10 16:49:09.31	273.89	19.23	-35.7	-36.5	24.9	0.00e+00	56	29	0	1020264448	44	6037
2026-01-10 16:49:10.32	273.72	19.14	-35.6	-36.4	24.9	0.00e+00	56	29	0	1022361600	44	6008
2026-01-10 16:49:11.33	273.55	19.05	-35.5	-36.3	24.9	0.00e+00	7	29	0	1023410176	44	5933
2026-01-10 16:49:12.34	273.38	18.96	-35.6	-36.4	24.9	0.00e+00	0	29	0	1025507328	44	5972
2026-01-10 16:49:13.35	273.21	18.87	-35.6	-36.4	25.0	0.00e+00	90	29	0	1027604480	44	6014
2026-01-10 16:49:14.36	273.04	18.78	-35.6	-36.4	25.0	0.00e+00	0	29	0	1029701632	44	6021
2026-01-10 16:49:15.37	272.87	18.69	-35.8	-36.6	24.8	0.00e+00	0	29	0	1031798784	44	6156
2026-01-10 16:49:16.38	272.70	18.60	-35.9	-36.7	24.7	0.00e+00	31	29	0	1032847360	44	6238
2026-01-10 16:49:17.39	272.54	18.51	-36.0	-36.8	24.6	0.00e+00	51	29	0	1034944512	44	6293
2026-01-10 16:49:18.40	272.37	18.42	-36.2	-37.0	24.4	0.00e+00	0	29	0	1037041664	44	6421
2026-01-10 16:49:19.41	272.21	18.33	-36.3	-37.1	24.4	0.00e+00	30	29	0	1039138816	44	6494
2026-01-10 16:49:20.42	272.05	18.24	-36.3	-37.1	24.3	0.00e+00	92	29	0	1041235968	44	6526
2026-01-10 16:49:21.43	271.88	18.15	-36.4	-37.3	24.2	0.00e+00	5	29	0	1042284544	44	6620
2026-01-10 16:49:22.44	271.72	18.06	-36.4	-37.2	24.2	0.00e+00	5	29	0	1044381696	44	6613
2026-01-10 16:49:23.45	271.56	17.97	-36.4	-37.2	24.3	0.00e+00	0	29	0	1046478848	44	6591
2026-01-10 16:49:24.46	271.40	17.88	-36.5	-37.4	24.1	0.00e+00	25	29	0	1048576000	44	6715
2026-01-10 16:49:25.47	271.25	17.79	-36.5	-37.3	24.1	0.00e+00	6	29	0	1050673152	44	6684
2026-01-10 16:49:26.48	271.09	17.70	-36.4	-37.3	24.1	0.00e+00	0	29	0	1051721728	44	6656
2026-01-10 16:49:27.49	270.93	17.61	-36.5	-37.4	24.0	0.00e+00	92	29	0	1053818880	44	6723
2026-01-10 16:49:28.50	270.78	17.52	-36.4	-37.3	24.2	0.00e+00	5	29	0	1055916032	44	6646
2026-01-10 16:49:29.51	270.62	17.43	-36.4	-37.3	24.2	0.00e+00	92	29	0	1058013184	44	6632
2026-01-10 16:49:30.51	270.47	17.34	-36.5	-37.3	24.1	0.00e+00	0	29	0	1060110336	44	6668
2026-01-10 16:49:31.53	270.32	17.25	-36.5	-37.4	24.1	0.00e+00	52	29	0	1061158912	44	6737
2026-01-10 16:49:32.54	270.16	17.16	-36.5	-37.3	24.1	0.00e+00	55	29	0	1063256064	44	6688
2026-01-10 16:49:33.55	270.01	17.07	-36.6	-37.4	24.0	0.00e+00	0	29	0	1065353216	44	6747
2026-01-10 16:49:34.55	269.86	16.99	-36.5	-37.4	23.9	0.00e+00	55	29	0	1067450368	44	6722
2026-01-10 16:49:35.56	269.72	16.90	-36.7	-37.5	24.0	0.00e+00	28	29	0	1069547520	44	6828
2026-01-10 16:49:36.58	269.57	16.81	-36.8	-37.6	23.8	0.00e+00	92	29	0	1070596096	46	6163
2026-01-10 16:49:37.59	269.42	16.72	-36.8	-37.7	23.8	0.00e+00	5	29	0	1072693248	46	6220
2026-01-10 16:49:38.60	269.27	16.63	-36.7	-37.6	23.9	0.00e+00	55	29	0	1074790400	46	6155
2026-01-10 16:49:39.61	269.13	16.54	-36.7	-37.6	23.9	0.00e+00	37	29	0	1076887552	46	6113
2026-01-10 16:49:40.61	268.98	16.46	-36.7	-37.6	23.9	0.00e+00	31	29	0	1078984704	46	6139
2026-01-10 16:49:41.62	268.84	16.37	-36.7	-37.6	23.8	0.00e+00	0	29	0	1081081856	46	6155
2026-01-10 16:49:42.63	268.70	16.28	-36.9	-37.7	23.7	0.00e+00	7	29	0	1082130432	46	6236
2026-01-10 16:49:43.64	268.56	16.19	-36.9	-37.8	23.7	0.00e+00	92	29	0	1084227584	46	6280
2026-01-10 16:49:44.64	268.42	16.11	-37.1	-38.0	23.5	0.00e+00	6	29	0	1086324736	46	6400
2026-01-10 16:49:45.66	268.27	16.02	-37.0	-37.9	23.7	0.00e+00	67	29	0	1088421888	46	6331
2026-01-10 16:49:46.66	268.14	15.93	-37.0	-37.9	23.7	0.00e+00	6	29	0	1090519040	46	6352
2026-01-10 16:49:47.67	268.00	15.85	-37.0	-37.8	23.7	0.00e+00	7	29	0	1091567616	46	6312
2026-01-10 16:49:48.68	267.86	15.76	-36.9	-37.8	23.7	0.00e+00	0	29	0	1093664768	46	6266
2026-01-10 16:49:49.69	267.72	15.67	-37.1	-38.0	23.6	0.00e+00	7	29	0	1095761920	46	6401
2026-01-10 16:49:50.70	267.58	15.59	-37.0	-37.8	23.6	0.00e+00	91	29	0	1097859072	46	6312
2026-01-10 16:49:51.71	267.45	15.50	-37.0	-37.9	23.6	0.00e+00	7	29	0	1098907648	46	6376
2026-01-10 16:49:52.72	267.31	15.41	-37.0	-37.9	23.5	0.00e+00	92	29	0	1101004800	46	6373
2026-01-10 16:49:53.73	267.18	15.33	-37.2	-38.1	23.4	0.00e+00	0	29	0	1103101952	46	6491
2026-01-10 16:49:54.74	267.05	15.24	-37.2	-38.1	23.5	0.00e+00	54	29	0	1105199104	46	6479
2026-01-10 16:49:55.75	266.92	15.16	-37.3	-38.2	23.3	0.00e+00	55	29	0	1107296256	46	6602
2026-01-10 16:49:56.76	266.78	15.07	-37.3	-38.2	23.3	0.00e+00	0	29	0	1109393408	46	6593
2026-01-10 16:49:57.77	266.65	14.98	-37.3	-38.2	23.3	0.00e+00	53	29	0	1110441984	46	6558
2026-01-10 16:49:58.78	266.52	14.90	-37.3	-38.2	23.3	0.00e+00	55	29	0	1112539136	46	6600
2026-01-10 16:49:59.79	266.39	14.81	-37.4	-38.4	23.2	0.00e+00	92	29	0	1114636288	46	6716
2026-01-10 16:50:00.80	266.26	14.73	-37.5	-38.4	23.1	0.00e+00	25	29	0	1116733440	46	6751
2026-01-10 16:50:01.80	266.14	14.64	-37.5	-38.5	23.0	0.00e+00	49	29	0	1118830592	46	6804
2026-01-10 16:50:02.81	266.01	14.56	-37.5	-38.5	23.1	0.00e+00	56	29	0	1119879168	46	6771
2026-01-10 16:50:03.82	265.88	14.48	-37.6	-38.5	23.0	0.00e+00	27	29	0	1121976320	46	6842
2026-01-10 16:50:04.83	265.76	14.39	-37.6	-38.6	23.0	0.00e+00	30	29	0	1124073472	48	6125
2026-01-10 16:50:05.84	265.63	14.31	-37.5	-38.5	23.0	0.00e+00	27	29	0	1126170624	48	6062
2026-01-10 16:50:06.85	265.51	14.22	-37.6	-38.6	23.0	0.00e+00	92	29	0	1128267776	48	6109
2026-01-10 16:50:07.86	265.39	14.14	-37.6	-38.6	23.0	0.00e+00	0	29	0	1129316352	48	6114
2026-01-10 16:50:08.87	265.26	14.05	-37.6	-38.5	22.9	0.00e+00	90	29	0	1131413504	48	6098
2026-01-10 16:50:09.88	265.14	13.97	-37.7	-38.6	22.9	0.00e+00	2	29	0	1133510656	48	6153
2026-01-10 16:50:10.89	265.02	13.89	-37.8	-38.8	22.8	0.00e+00	0	29	0	1135607808	48	6265
2026-01-10 16:50:11.90	264.90	13.80	-37.9	-38.9	22.7	0.00e+00	0	29	0	1137704960	48	6335
2026-01-10 16:50:12.91	264.78	13.72	-38.0	-39.0	22.6	0.00e+00	0	29	0	1138753536	48	6406
2026-01-10 16:50:13.92	264.66	13.64	-38.1	-39.1	22.4	0.00e+00	92	29	0	1140850688	48	6500
2026-01-10 16:50:14.93	264.54	13.55	-38.2	-39.2	22.3	0.00e+00	55	29	0	1142947840	48	6615
2026-01-10 16:50:15.94	264.42	13.47	-38.3	-39.4	22.2	0.00e+00	90	29	0	1145044992	48	6701
2026-01-10 16:50:16.95	264.31	13.39	-38.3	-39.4	22.2	0.00e+00	49	29	0	1147142144	48	6735
2026-01-10 16:50:17.96	264.19	13.31	-38.3	-39.4	22.2	0.00e+00	0	29	0	1148190720	48	6707
2026-01-10 16:50:18.97	264.07	13.22	-38.2	-39.3	22.3	0.00e+00	4	29	0	1150287872	48	6643
2026-01-10 16:50:19.98	263.96	13.14	-38.2	-39.3	22.3	0.00e+00	49	29	0	1152385024	48	6620
2026-01-10 16:50:20.99	263.84	13.06	-38.2	-39.3	22.3	0.00e+00	33	29	0	1154482176	48	6625
2026-01-10 16:50:22.00	263.73	12.98	-38.3	-39.3	22.3	0.00e+00	49	29	0	1156579328	48	6644
2026-01-10 16:50:23.00	263.62	12.90	-38.2	-39.2	22.4	0.00e+00	90	29	0	1157627904	48	6574
2026-01-10 16:50:24.01	263.51	12.82	-38.3	-39.3	22.3	0.00e+00	27	29	0	1159725056	48	6643
2026-01-10 16:50:25.02	263.39	12.73	-38.2	-39.2	22.3	0.00e+00	91	29	0	1161822208	48	6597
2026-01-10 16:50:26.04	263.28	12.65	-38.2	-39.3	22.2	0.00e+00	27	29	0	1163919360	48	6635
2026-01-10 16:50:27.04	263.17	12.57	-38.2	-39.2	22.3	0.00e+00	0	29	0	1166016512	48	6589
2026-01-10 16:50:28.05	263.06	12.49	-38.2	-39.2	22.3	0.00e+00	25	29	0	1167065088	48	6567
2026-01-10 16:50:29.06	262.95	12.41	-38.2	-39.2	22.3	0.00e+00	2	29	0	1169162240	48	6583
2026-01-10 16:50:30.07	262.84	12.33	-38.3	-39.4	22.2	0.00e+00	91	29	0	1171259392	48	6722
2026-01-10 16:50:31.08	262.73	12.25	-38.3	-39.4	22.1	0.00e+00	0	29	0	1173356544	48	6693
2026-01-10 16:50:32.09	262.63	12.17	-38.5	-39.5	22.0	0.00e+00	91	29	0	1175453696	48	6814
2026-01-10 16:50:33.10	262.52	12.09	-38.5	-39.5	22.0	0.00e+00	2	29	0	1177550848	48	6812
2026-01-10 16:50:34.11	262.41	12.01	-38.5	-39.6	21.9	0.00e+00	0	28	0	1178599424	48	6894
2026-01-10 16:50:35.12	262.31	11.93	-38.4	-39.5	22.0	0.00e+00	0	29	0	1180696576	48	6775
2026-01-10 16:50:36.13	262.20	11.85	-38.4	-39.5	22.0	0.00e+00	54	29	0	1182793728	48	6800
2026-01-10 16:50:37.14	262.10	11.77	-38.4	-39.5	21.9	0.00e+00	92	29	0	1184890880	48	6812
2026-01-10 16:50:38.15	261.99	11.69	-38.6	-39.7	21.7	0.00e+00	0	29	0	1186988032	48	6974
2026-01-10 16:50:39.16	261.89	11.61	-38.6	-39.7	21.7	0.00e+00	92	28	0	1188036608	48	6982
2026-01-10 16:50:40.17	261.79	11.53	-38.5	-39.6	21.8	0.00e+00	26	29	0	1190133760	48	6914
2026-01-10 16:50:41.18	261.68	11.46	-38.4	-39.5	22.0	0.00e+00	53	29	0	1192230912	48	6795
2026-01-10 16:50:42.19	261.58	11.38	-38.7	-39.8	21.7	0.00e+00	0	29	0	1194328064	48	7017
2026-01-10 16:50:43.20	261.48	11.30	-38.4	-39.5	22.1	0.00e+00	0	29	0	1196425216	48	6778
2026-01-10 16:50:44.20	261.38	11.22	-38.5	-39.6	21.9	0.00e+00	22	29	0	1197473792	48	6884
