passes_logs/2026/01/10/R4.6S_Anadyr/R4.6S_Anadyr__20260110_233711_AQUA_rec.log

#Pass ID: 20260110_233711_AQUA
#Satellite: AQUA
#Configuration: AQUA
#almurnet v.1.7.20251203
#Start time: 2026-01-10 23:37:15

#Version: 2.2.20231116
#Station: R4.6S_Anadyr
#Location: 177.4865 lon 64.73178 lat
#TLE: 1 27424U 02022A   26009.89520876  .00001045  00000+0  21914-3 0  9996
#TLE: 2 27424  98.4076 336.2372 0002032  84.5955   1.0356 14.61811442260144

#Time	Az	El	Level	Level2	SNR	BER	BlckErr	Temp	State	Recorded	gain1	gain2
2026-01-10 23:37:15.17	97.83	0.22	-48.0	-49.6	5.7	0.00e+00	0	25	0	0	60	36781
2026-01-10 23:37:16.15	97.76	0.28	-48.3	-66.1	3.5	7.69e-01	0	26	104	0	60	78031
2026-01-10 23:37:17.12	97.69	0.33	-48.2	-66.1	3.5	7.69e-01	0	26	104	0	60	77735
2026-01-10 23:37:18.10	97.63	0.39	-48.2	-66.1	3.5	7.69e-01	0	26	104	0	60	77862
2026-01-10 23:37:19.08	97.56	0.44	-48.3	-66.1	3.5	7.69e-01	0	26	104	0	60	77621
2026-01-10 23:37:20.06	97.50	0.49	-48.2	-66.1	3.5	7.69e-01	0	26	104	0	60	77473
2026-01-10 23:37:21.04	97.43	0.55	-48.0	-66.1	3.5	7.69e-01	0	26	104	0	60	77785
2026-01-10 23:37:22.01	97.36	0.60	-48.1	-66.0	3.5	7.69e-01	0	26	104	0	60	77126
2026-01-10 23:37:22.99	97.29	0.66	-47.9	-66.1	3.5	7.69e-01	0	26	104	0	60	77922
2026-01-10 23:37:23.97	97.23	0.71	-47.4	-66.0	3.5	7.69e-01	0	26	104	0	60	76694
2026-01-10 23:37:24.95	97.16	0.77	-47.4	-65.9	3.5	7.69e-01	0	26	104	0	60	75879
2026-01-10 23:37:25.93	97.09	0.82	-47.4	-65.8	3.5	7.69e-01	0	26	104	0	60	74646
2026-01-10 23:37:26.91	97.02	0.88	-47.4	-65.6	3.5	7.69e-01	0	26	104	0	60	72925
2026-01-10 23:37:27.89	96.95	0.93	-47.0	-65.2	3.5	7.69e-01	0	26	104	0	60	69831
2026-01-10 23:37:28.86	96.88	0.98	-46.2	-64.6	3.6	7.69e-01	0	26	104	0	60	65099
2026-01-10 23:37:29.84	96.81	1.04	-46.3	-64.5	3.5	7.69e-01	0	26	104	0	60	64948
2026-01-10 23:37:30.82	96.74	1.09	-46.3	-64.5	3.5	7.69e-01	0	26	104	0	60	64303
2026-01-10 23:37:31.80	96.67	1.15	-46.3	-64.5	3.5	7.69e-01	0	26	104	0	60	64845
2026-01-10 23:37:32.78	96.60	1.21	-46.3	-64.5	3.5	7.69e-01	0	26	104	0	60	64486
2026-01-10 23:37:33.76	96.53	1.26	-46.2	-64.5	3.5	7.69e-01	0	26	104	0	60	64623
2026-01-10 23:37:34.74	96.46	1.32	-46.2	-64.5	3.5	7.69e-01	0	26	104	0	60	64777
2026-01-10 23:37:35.72	96.39	1.37	-46.2	-64.5	3.5	7.69e-01	0	26	104	0	60	64438
2026-01-10 23:37:36.70	96.32	1.43	-46.2	-64.5	3.5	7.69e-01	0	26	104	0	60	64259
2026-01-10 23:37:37.68	96.25	1.48	-46.2	-64.5	3.5	7.69e-01	0	26	104	0	60	64403
2026-01-10 23:37:38.66	96.18	1.54	-46.2	-64.4	3.5	7.69e-01	0	26	104	0	60	64218
2026-01-10 23:37:39.64	96.10	1.59	-46.2	-64.5	3.5	7.69e-01	0	26	104	0	60	64413
2026-01-10 23:37:40.62	96.03	1.65	-46.2	-64.5	3.5	7.69e-01	0	26	104	0	60	64398
2026-01-10 23:37:41.60	95.96	1.71	-46.2	-64.4	3.5	7.69e-01	0	26	104	0	60	64174
2026-01-10 23:37:42.57	95.88	1.76	-46.2	-64.4	3.5	7.69e-01	0	26	104	0	60	63947
2026-01-10 23:37:43.56	95.81	1.82	-46.2	-64.4	3.5	7.69e-01	0	26	104	0	60	63648
2026-01-10 23:37:44.53	95.74	1.87	-46.2	-64.4	3.6	7.69e-01	0	26	104	0	60	64176
2026-01-10 23:37:45.51	95.66	1.93	-46.2	-64.5	3.5	7.69e-01	0	26	104	0	60	64415
2026-01-10 23:37:46.49	95.59	1.99	-46.2	-64.5	3.5	7.69e-01	0	26	104	0	60	64300
2026-01-10 23:37:47.46	95.51	2.04	-46.2	-64.5	3.5	7.69e-01	0	26	104	0	60	64494
2026-01-10 23:37:48.43	95.44	2.10	-46.2	-64.5	3.5	7.69e-01	0	26	104	0	60	64329
2026-01-10 23:37:49.41	95.36	2.16	-46.2	-64.4	3.5	7.69e-01	0	26	104	0	60	63994
2026-01-10 23:37:50.39	95.29	2.21	-46.2	-64.4	3.5	7.69e-01	0	27	104	0	60	63558
2026-01-10 23:37:51.37	95.21	2.27	-46.2	-64.3	3.5	7.69e-01	0	27	104	0	60	63388
2026-01-10 23:37:52.35	95.13	2.33	-46.2	-64.2	3.5	7.69e-01	0	27	104	0	60	62254
2026-01-10 23:37:53.32	95.06	2.38	-46.1	-64.1	3.5	7.69e-01	0	26	104	0	60	61862
2026-01-10 23:37:54.30	94.98	2.44	-46.2	-64.2	3.5	7.69e-01	0	26	104	0	60	62485
2026-01-10 23:37:55.27	94.90	2.50	-46.2	-64.3	3.5	7.69e-01	0	26	104	0	60	63310
2026-01-10 23:37:56.26	94.82	2.55	-46.2	-64.5	3.5	7.69e-01	0	27	104	0	60	64505
2026-01-10 23:37:57.23	94.74	2.61	-46.2	-64.5	3.5	7.69e-01	0	26	104	0	60	64252
2026-01-10 23:37:58.20	94.67	2.67	-46.2	-64.4	3.5	7.69e-01	0	27	104	0	60	63957
2026-01-10 23:37:59.18	94.59	2.72	-46.2	-64.4	3.5	7.69e-01	0	27	104	0	60	64016
2026-01-10 23:38:00.17	94.51	2.78	-46.2	-64.5	3.5	7.69e-01	0	26	104	0	60	64263
2026-01-10 23:38:01.15	94.43	2.84	-46.2	-64.4	3.5	7.69e-01	0	26	104	0	60	63610
2026-01-10 23:38:02.12	94.35	2.90	-46.1	-63.9	3.5	7.69e-01	0	26	104	0	60	60573
2026-01-10 23:38:03.10	94.27	2.95	-46.1	-63.6	3.5	7.69e-01	0	26	104	0	60	58521
2026-01-10 23:38:04.08	94.19	3.01	-46.1	-63.8	3.5	7.69e-01	0	27	104	0	60	59336
2026-01-10 23:38:05.06	94.10	3.07	-46.2	-64.4	3.5	7.69e-01	0	27	104	0	60	63629
2026-01-10 23:38:06.04	94.02	3.13	-46.0	-63.0	3.5	7.69e-01	0	26	104	0	60	54265
2026-01-10 23:38:07.01	93.94	3.19	-45.0	-59.5	3.5	7.69e-01	0	27	104	0	60	36203
2026-01-10 23:38:07.99	93.86	3.24	-43.1	-55.3	3.5	7.69e-01	0	27	104	0	60	22359
2026-01-10 23:38:08.97	93.78	3.30	-41.5	-53.0	3.5	7.69e-01	0	27	104	0	58	19301
2026-01-10 23:38:09.95	93.69	3.36	-40.5	-51.7	3.5	7.69e-01	0	27	104	0	56	18626
2026-01-10 23:38:10.93	93.61	3.42	-46.4	-64.8	3.5	7.69e-01	0	27	104	0	60	66656
2026-01-10 23:38:11.91	93.53	3.48	-43.7	-56.5	3.5	7.69e-01	0	26	104	0	60	25744
2026-01-10 23:38:12.88	93.44	3.54	-46.2	-64.3	3.5	7.69e-01	0	27	104	0	60	63247
2026-01-10 23:38:13.86	93.36	3.59	-46.0	-62.4	3.5	7.69e-01	0	27	104	0	60	50891
2026-01-10 23:38:14.84	93.27	3.65	-39.6	-50.5	3.5	7.69e-01	0	26	104	0	52	20546
2026-01-10 23:38:15.82	93.19	3.71	-40.0	-51.0	3.5	7.69e-01	0	26	104	0	56	17201
2026-01-10 23:38:16.79	93.10	3.77	-39.4	-50.2	3.5	7.69e-01	0	26	104	0	54	17540
2026-01-10 23:38:17.76	93.02	3.83	-38.9	-49.6	3.5	7.69e-01	0	27	104	0	52	18365
2026-01-10 23:38:18.74	92.93	3.89	-38.0	-48.6	3.5	7.69e-01	0	27	104	0	52	16420
2026-01-10 23:38:19.73	92.84	3.95	-37.0	-47.5	3.5	7.69e-01	0	26	104	0	48	18313
2026-01-10 23:38:20.71	92.76	4.01	-38.5	-49.2	3.5	7.69e-01	0	26	104	0	48	22176
2026-01-10 23:38:21.68	92.67	4.07	-42.2	-54.1	3.5	7.69e-01	0	27	104	0	54	27688
2026-01-10 23:38:22.66	92.58	4.12	-44.2	-57.5	3.5	7.69e-01	0	27	104	0	60	28981
2026-01-10 23:38:23.64	92.49	4.18	-44.6	-58.9	3.5	7.69e-01	0	27	104	0	56	42632
2026-01-10 23:38:24.62	92.40	4.24	-44.8	-59.7	3.5	7.69e-01	0	27	104	0	60	37020
2026-01-10 23:38:25.60	92.31	4.30	-40.8	-52.1	3.5	7.69e-01	0	27	104	0	56	19490
2026-01-10 23:38:26.58	92.22	4.36	-40.6	-51.9	3.5	7.69e-01	0	27	104	0	56	19001
2026-01-10 23:38:27.56	92.13	4.42	-39.2	-50.1	3.5	7.69e-01	0	27	104	0	54	17473
2026-01-10 23:38:28.53	92.04	4.48	-38.4	-49.1	3.5	7.69e-01	0	26	104	0	52	17362
2026-01-10 23:38:29.51	91.95	4.54	-41.1	-52.3	3.5	7.69e-01	0	26	104	0	56	19917
2026-01-10 23:38:30.49	91.86	4.60	-38.2	-48.9	3.5	7.69e-01	0	27	104	0	52	17052
2026-01-10 23:38:31.47	91.77	4.66	-45.8	-63.7	3.5	7.69e-01	0	27	104	0	60	59252
2026-01-10 23:38:32.44	91.68	4.72	-42.6	-54.3	3.6	7.69e-01	0	27	104	0	60	19998
2026-01-10 23:38:33.42	91.58	4.78	-39.3	-50.2	3.5	7.69e-01	0	27	104	0	52	19827
2026-01-10 23:38:34.40	91.49	4.84	-38.6	-49.3	3.5	7.69e-01	0	27	104	0	52	17842
2026-01-10 23:38:35.37	91.40	4.90	-37.7	-48.3	3.5	7.69e-01	0	27	104	0	52	15784
2026-01-10 23:38:36.35	91.30	4.96	-36.6	-47.1	3.5	7.69e-01	0	27	104	0	48	17320
2026-01-10 23:38:37.33	91.21	5.02	-36.3	-46.7	3.5	7.69e-01	0	27	104	0	48	16512
2026-01-10 23:38:38.31	91.12	5.09	-36.3	-46.6	3.5	7.69e-01	0	27	104	0	48	16402
2026-01-10 23:38:39.28	91.02	5.15	-39.2	-49.9	3.5	7.69e-01	0	27	104	0	54	16948
2026-01-10 23:38:40.26	90.92	5.21	-46.3	-62.0	3.5	7.69e-01	0	27	104	0	60	48572
2026-01-10 23:38:41.24	90.83	5.27	-39.5	-50.2	3.6	7.69e-01	0	27	104	0	56	15750
2026-01-10 23:38:42.21	90.73	5.33	-46.6	-64.6	3.5	7.69e-01	0	27	104	0	60	65658
2026-01-10 23:38:43.19	90.64	5.39	-38.4	-49.0	3.5	7.69e-01	0	27	104	0	52	17179
2026-01-10 23:38:44.17	90.54	5.45	-37.5	-48.0	3.5	7.69e-01	0	27	104	0	50	17248
2026-01-10 23:38:45.15	90.44	5.51	-36.8	-47.3	3.5	7.69e-01	0	27	104	0	48	17723
2026-01-10 23:38:46.13	90.34	5.57	-36.2	-46.6	3.5	7.69e-01	0	27	104	0	48	16404
2026-01-10 23:38:47.11	90.24	5.64	-41.2	-52.5	3.5	7.69e-01	0	27	104	0	56	20391
2026-01-10 23:38:48.09	90.14	5.70	-42.6	-54.3	3.6	7.69e-01	0	27	104	0	58	22300
2026-01-10 23:38:49.07	90.04	5.76	-46.7	-64.8	3.5	7.69e-01	0	27	104	0	60	66568
2026-01-10 23:38:50.04	89.94	5.82	-46.7	-64.5	3.5	7.69e-01	0	27	104	0	60	64592
2026-01-10 23:38:51.02	89.84	5.88	-42.7	-54.6	3.5	7.69e-01	0	27	104	0	58	23079
2026-01-10 23:38:52.00	89.74	5.94	-41.5	-52.8	3.5	7.69e-01	0	27	104	0	58	18877
2026-01-10 23:38:52.98	89.64	6.01	-41.3	-52.5	3.5	7.69e-01	0	27	104	0	56	20482
2026-01-10 23:38:53.96	89.54	6.07	-41.1	-52.4	3.5	7.69e-01	0	27	104	0	56	20169
2026-01-10 23:38:54.93	89.43	6.13	-38.9	-49.6	3.5	7.69e-01	0	27	104	0	54	16365
2026-01-10 23:38:55.92	89.33	6.19	-36.6	-47.0	3.5	7.69e-01	0	27	104	0	48	17191
2026-01-10 23:38:56.89	89.23	6.25	-39.0	-49.7	3.6	7.69e-01	0	27	104	0	50	20949
2026-01-10 23:38:57.87	89.12	6.32	-46.1	-61.4	3.5	7.69e-01	0	26	104	0	60	45316
2026-01-10 23:38:58.84	89.02	6.38	-42.2	-53.9	3.5	7.69e-01	0	27	104	0	60	18986
2026-01-10 23:38:59.82	88.91	6.44	-44.9	-58.4	3.5	7.69e-01	0	27	104	0	58	35788
2026-01-10 23:39:00.79	88.81	6.50	-42.9	-54.7	3.6	7.69e-01	0	27	104	0	60	20889
2026-01-10 23:39:01.78	88.70	6.57	-39.3	-49.9	3.5	7.69e-01	0	27	104	0	54	17050
2026-01-10 23:39:02.76	88.59	6.63	-37.9	-48.5	3.5	7.69e-01	0	27	104	0	52	16242
2026-01-10 23:39:03.74	88.49	6.69	-37.1	-47.6	3.5	7.69e-01	0	26	104	0	50	16357
2026-01-10 23:39:04.72	88.38	6.76	-40.0	-51.0	3.5	7.69e-01	0	27	104	0	52	21670
2026-01-10 23:39:05.70	88.27	6.82	-43.1	-55.1	3.5	7.69e-01	0	27	104	0	58	24513
2026-01-10 23:39:06.67	88.16	6.88	-42.7	-54.5	4.0	7.69e-01	0	27	104	0	50	36352
2026-01-10 23:39:07.65	88.05	6.95	-46.4	-63.9	3.5	7.69e-01	0	27	104	0	60	60073
2026-01-10 23:39:08.63	87.94	7.01	-40.0	-50.9	3.5	7.69e-01	0	27	104	0	58	15181
2026-01-10 23:39:09.61	87.83	7.07	-41.0	-52.2	3.5	7.69e-01	0	27	104	0	58	17577
2026-01-10 23:39:10.59	87.72	7.14	-40.4	-51.4	3.5	7.69e-01	0	27	104	0	56	18030
2026-01-10 23:39:11.56	87.61	7.20	-40.5	-51.6	3.5	7.69e-01	0	26	104	0	56	18329
2026-01-10 23:39:12.54	87.50	7.26	-41.0	-52.2	3.5	7.69e-01	0	27	104	0	56	19749
2026-01-10 23:39:13.52	87.39	7.33	-43.2	-55.3	3.6	7.69e-01	0	26	104	0	60	22317
2026-01-10 23:39:14.50	87.27	7.39	-42.5	-54.0	3.5	7.69e-01	0	27	104	0	60	19376
2026-01-10 23:39:15.48	87.16	7.45	-36.9	-47.3	3.5	7.69e-01	0	27	104	0	50	15785
2026-01-10 23:39:16.45	87.05	7.52	-44.8	-58.3	3.5	7.69e-01	0	27	104	0	60	31507
2026-01-10 23:39:17.43	86.93	7.58	-37.1	-47.6	3.6	7.69e-01	0	27	104	0	52	14554
2026-01-10 23:39:18.41	86.81	7.65	-46.5	-63.1	3.5	7.69e-01	0	27	104	0	60	54784
2026-01-10 23:39:19.39	86.70	7.71	-37.6	-48.1	3.5	7.69e-01	0	26	104	0	50	17445
2026-01-10 23:39:20.36	86.58	7.77	-36.9	-47.3	3.5	7.69e-01	0	27	104	0	50	15884
2026-01-10 23:39:21.34	86.47	7.84	-36.4	-46.8	3.5	7.69e-01	0	27	104	0	48	16725
2026-01-10 23:39:22.32	86.35	7.90	-36.1	-46.4	3.5	7.69e-01	0	27	104	0	48	16067
2026-01-10 23:39:23.29	86.23	7.97	-39.2	-49.9	3.6	7.69e-01	0	27	104	0	56	15067
2026-01-10 23:39:24.27	86.11	8.03	-37.3	-47.8	3.6	7.69e-01	0	27	104	0	50	16737
2026-01-10 23:39:25.25	85.99	8.10	-46.3	-61.3	3.6	7.69e-01	0	27	104	0	60	44851
2026-01-10 23:39:26.23	85.87	8.16	-39.6	-50.4	3.5	7.69e-01	0	27	104	0	56	15970
2026-01-10 23:39:27.21	85.75	8.23	-46.9	-64.1	3.5	7.69e-01	0	27	104	0	60	61999
2026-01-10 23:39:28.18	85.63	8.29	-36.0	-46.3	3.5	7.69e-01	0	27	104	0	48	15837
2026-01-10 23:39:29.16	85.51	8.35	-35.9	-46.2	3.5	7.69e-01	0	27	104	0	46	17603
2026-01-10 23:39:30.14	85.39	8.42	-35.4	-45.7	3.5	7.69e-01	0	27	104	0	46	16574
2026-01-10 23:39:31.12	85.26	8.49	-35.2	-45.5	3.5	7.69e-01	0	27	104	0	46	16247
2026-01-10 23:39:32.10	85.14	8.55	-41.7	-52.9	3.5	7.69e-01	0	27	104	0	58	19130
2026-01-10 23:39:33.08	85.01	8.62	-37.7	-48.2	3.5	7.69e-01	0	27	104	0	48	19733
2026-01-10 23:39:34.06	84.89	8.68	-46.7	-64.1	3.5	7.69e-01	0	27	104	0	60	61818
2026-01-10 23:39:35.03	84.77	8.75	-43.1	-55.3	3.5	7.69e-01	0	27	104	0	60	22289
2026-01-10 23:39:36.00	84.64	8.81	-47.0	-65.1	3.5	7.69e-01	0	27	104	0	60	69064
2026-01-10 23:39:36.98	84.51	8.88	-37.2	-47.7	3.5	7.69e-01	0	27	104	0	50	16530
2026-01-10 23:39:37.96	84.39	8.94	-36.4	-46.8	3.5	7.69e-01	0	27	104	0	50	14923
2026-01-10 23:39:38.94	84.26	9.01	-37.1	-47.5	3.6	7.69e-01	0	27	104	0	48	18176
2026-01-10 23:39:39.92	84.13	9.07	-36.4	-46.7	3.5	7.69e-01	0	27	104	0	48	16672
2026-01-10 23:39:40.90	84.00	9.14	-38.5	-49.0	3.5	7.69e-01	0	27	104	0	50	19270
2026-01-10 23:39:41.88	83.87	9.20	-36.9	-47.3	3.5	7.69e-01	0	27	104	0	44	22430
2026-01-10 23:39:42.85	83.74	9.27	-46.2	-62.0	3.5	7.69e-01	0	27	104	0	60	48211
2026-01-10 23:39:43.84	83.61	9.34	-45.7	-59.4	3.5	7.69e-01	0	27	104	0	60	36065
2026-01-10 23:39:44.81	83.48	9.40	-46.2	-61.7	3.4	7.69e-01	0	27	104	0	60	46992
2026-01-10 23:39:45.78	83.35	9.47	-41.1	-52.3	3.5	7.69e-01	0	27	104	0	60	15781
2026-01-10 23:39:46.76	83.21	9.53	-39.0	-49.8	3.6	7.69e-01	0	27	104	0	54	16787
2026-01-10 23:39:47.74	83.08	9.60	-37.6	-48.2	3.5	7.69e-01	0	27	104	0	50	17649
2026-01-10 23:39:48.71	82.95	9.66	-36.4	-46.8	3.5	7.69e-01	0	27	104	0	48	16866
2026-01-10 23:39:49.69	82.81	9.73	-38.0	-48.4	3.6	7.69e-01	0	27	104	0	46	22790
2026-01-10 23:39:50.67	82.67	9.80	-34.9	-45.1	3.5	7.69e-01	0	27	104	0	44	17384
2026-01-10 23:39:51.65	82.54	9.86	-39.5	-50.2	3.5	7.69e-01	0	27	104	0	46	27863
2026-01-10 23:39:52.63	82.40	9.93	-42.6	-54.4	3.5	7.69e-01	0	27	104	0	60	20210
2026-01-10 23:39:53.60	82.26	10.00	-39.2	-49.9	3.5	7.69e-01	0	27	104	0	48	24013
2026-01-10 23:39:54.57	82.13	10.06	-45.1	-58.7	3.5	7.69e-01	0	27	104	0	60	33169
2026-01-10 23:39:55.55	81.99	10.13	-39.1	-49.8	3.5	7.69e-01	0	27	104	0	54	16829
2026-01-10 23:39:56.53	81.85	10.20	-39.1	-49.9	3.5	7.69e-01	0	27	104	0	52	19006
2026-01-10 23:39:57.50	81.71	10.26	-38.4	-49.0	3.5	7.69e-01	0	27	104	0	52	17119
2026-01-10 23:39:58.48	81.56	10.33	-36.8	-47.2	3.5	7.69e-01	0	27	104	0	48	17494
2026-01-10 23:39:59.46	81.42	10.39	-37.6	-48.0	3.5	7.69e-01	0	27	104	0	48	19219
2026-01-10 23:40:00.43	81.28	10.46	-43.6	-56.1	3.6	7.69e-01	0	27	104	0	60	24548
2026-01-10 23:40:01.41	81.14	10.53	-43.3	-55.1	3.5	7.69e-01	0	27	104	0	60	21788
2026-01-10 23:40:02.39	80.99	10.59	-42.7	-54.2	3.5	7.69e-01	0	27	104	0	60	19792
2026-01-10 23:40:03.37	80.85	10.66	-35.8	-46.1	3.5	7.69e-01	0	27	104	0	46	17418
2026-01-10 23:40:04.34	80.70	10.73	-34.8	-45.0	3.5	7.69e-01	0	27	104	0	44	17240
2026-01-10 23:40:05.32	80.56	10.79	-34.5	-44.8	3.5	7.69e-01	0	27	104	0	44	16755
2026-01-10 23:40:06.30	80.41	10.86	-34.6	-44.8	3.5	7.69e-01	0	27	104	0	44	16862
2026-01-10 23:40:07.28	80.26	10.93	-34.6	-44.9	3.5	7.69e-01	0	27	104	0	44	16958
2026-01-10 23:40:08.25	80.11	10.99	-34.6	-44.9	3.5	7.69e-01	0	27	104	0	44	16951
2026-01-10 23:40:09.23	79.96	11.06	-36.5	-46.9	3.5	7.69e-01	0	27	104	0	48	16917
2026-01-10 23:40:10.20	79.82	11.13	-46.9	-63.8	3.5	7.69e-01	0	27	104	0	60	59497
2026-01-10 23:40:11.18	79.66	11.19	-43.3	-55.1	3.5	7.69e-01	0	27	104	0	60	21933
2026-01-10 23:40:12.15	79.51	11.26	-47.0	-65.1	3.5	7.69e-01	0	27	104	0	60	68869
2026-01-10 23:40:13.13	79.36	11.33	-38.7	-49.3	3.5	7.69e-01	0	27	104	0	54	15820
2026-01-10 23:40:14.11	79.21	11.40	-39.1	-49.8	3.5	7.69e-01	0	27	104	0	52	18790
2026-01-10 23:40:15.09	79.05	11.46	-38.3	-48.9	3.5	7.69e-01	0	27	104	0	52	16948
2026-01-10 23:40:16.06	78.90	11.53	-37.0	-47.5	3.5	7.69e-01	0	27	104	0	50	16188
2026-01-10 23:40:17.04	78.75	11.60	-40.2	-51.1	3.5	7.69e-01	0	27	104	0	52	21954
2026-01-10 23:40:18.01	78.59	11.66	-36.1	-46.5	3.5	7.69e-01	0	27	104	0	44	20329
2026-01-10 23:40:18.99	78.43	11.73	-47.3	-64.6	3.5	7.69e-01	0	27	104	0	60	65669
2026-01-10 23:40:19.97	78.28	11.80	-43.4	-55.5	3.5	7.69e-01	0	27	104	0	60	22887
2026-01-10 23:40:20.95	78.12	11.86	-46.9	-64.6	3.5	7.69e-01	0	27	104	0	60	65307
2026-01-10 23:40:21.92	77.96	11.93	-37.0	-47.4	3.5	7.69e-01	0	27	104	0	50	16000
2026-01-10 23:40:22.90	77.80	12.00	-36.0	-46.3	3.5	7.69e-01	0	27	104	0	48	15895
2026-01-10 23:40:23.88	77.64	12.07	-36.1	-46.5	3.5	7.69e-01	0	27	104	0	48	16260
2026-01-10 23:40:24.86	77.48	12.13	-35.7	-46.2	3.6	7.69e-01	0	27	104	0	46	17510
2026-01-10 23:40:25.84	77.31	12.20	-40.0	-50.8	3.6	7.69e-01	0	27	104	0	52	21201
2026-01-10 23:40:26.82	77.15	12.27	-35.0	-45.3	3.5	7.69e-01	0	27	104	0	42	19928
2026-01-10 23:40:27.80	76.98	12.33	-45.3	-59.2	3.4	7.69e-01	0	27	104	0	58	39544
2026-01-10 23:40:28.78	76.82	12.40	-43.1	-54.8	3.5	7.69e-01	0	27	104	0	60	21094
2026-01-10 23:40:29.76	76.65	12.47	-41.5	-53.0	3.4	7.69e-01	0	27	104	0	48	34428
2026-01-10 23:40:30.74	76.49	12.54	-41.4	-52.9	3.5	7.69e-01	0	27	104	0	60	16971
2026-01-10 23:40:31.72	76.32	12.60	-38.8	-49.5	3.5	7.69e-01	0	27	104	0	52	18142
2026-01-10 23:40:32.70	76.15	12.67	-38.3	-48.9	3.5	7.69e-01	0	27	104	0	52	17087
2026-01-10 23:40:33.68	75.98	12.74	-38.8	-49.6	3.6	7.69e-01	0	27	104	0	52	18370
2026-01-10 23:40:34.66	75.81	12.80	-36.7	-47.5	3.5	7.69e-01	0	27	104	0	48	18274
2026-01-10 23:40:35.64	75.64	12.87	-42.2	-54.9	3.5	7.69e-01	0	27	104	0	52	33868
2026-01-10 23:40:36.62	75.47	12.94	-36.5	-47.2	3.5	7.69e-01	0	27	104	0	48	17520
2026-01-10 23:40:37.60	75.30	13.00	-46.3	-62.4	3.5	7.69e-01	0	27	104	0	60	50564
2026-01-10 23:40:38.57	75.12	13.07	-38.6	-49.4	3.5	7.69e-01	0	27	104	0	60	11392
2026-01-10 23:40:39.55	74.95	13.14	-35.9	-46.3	3.5	7.69e-01	0	27	104	0	46	17829
2026-01-10 23:40:40.53	74.77	13.20	-35.6	-46.0	3.5	7.69e-01	0	27	104	0	46	17148
2026-01-10 23:40:41.50	74.60	13.27	-35.5	-45.8	3.5	7.69e-01	0	27	104	0	46	16825
2026-01-10 23:40:42.48	74.42	13.34	-35.1	-45.3	3.5	7.69e-01	0	27	104	0	46	15772
2026-01-10 23:40:43.46	74.24	13.40	-34.1	-44.4	3.5	7.69e-01	0	27	104	0	44	16015
2026-01-10 23:40:44.44	74.07	13.47	-34.7	-45.0	3.5	7.69e-01	0	27	104	0	44	17192
2026-01-10 23:40:45.41	73.89	13.54	-35.0	-45.2	3.5	7.69e-01	0	27	104	0	46	15727
2026-01-10 23:40:46.39	73.71	13.60	-44.9	-58.0	3.6	7.69e-01	0	27	104	0	60	30525
2026-01-10 23:40:47.37	73.53	13.67	-35.6	-45.9	3.4	7.69e-01	0	27	104	0	50	13449
2026-01-10 23:40:48.35	73.34	13.73	-46.6	-61.2	3.5	7.69e-01	0	27	104	0	60	44234
2026-01-10 23:40:49.33	73.16	13.80	-37.5	-47.9	3.5	7.69e-01	0	27	104	0	50	16966
2026-01-10 23:40:50.31	72.98	13.87	-36.3	-46.6	3.5	7.69e-01	0	27	104	0	48	16477
2026-01-10 23:40:51.29	72.79	13.93	-35.0	-45.3	3.5	7.69e-01	0	27	104	0	46	15807
2026-01-10 23:40:52.27	72.61	14.00	-34.3	-44.5	3.5	7.69e-01	0	27	104	0	44	16266
2026-01-10 23:40:53.24	72.42	14.06	-37.8	-48.3	3.5	7.69e-01	0	27	104	0	52	15773
2026-01-10 23:40:54.22	72.23	14.13	-35.6	-46.0	3.5	7.69e-01	0	27	104	0	46	17095
2026-01-10 23:40:55.20	72.05	14.20	-47.2	-64.0	3.5	7.69e-01	0	28	104	0	60	61071
2026-01-10 23:40:56.18	71.86	14.26	-43.6	-55.3	3.5	7.69e-01	0	27	104	0	60	22519
2026-01-10 23:40:57.16	71.67	14.33	-46.8	-65.2	3.5	7.69e-01	0	27	104	0	60	70384
2026-01-10 23:40:58.14	71.47	14.39	-38.7	-49.3	3.5	7.69e-01	0	27	104	0	52	17757
2026-01-10 23:40:59.11	71.28	14.46	-37.1	-47.6	3.5	7.69e-01	0	27	104	0	50	16366
2026-01-10 23:41:00.09	71.09	14.52	-36.2	-46.7	3.5	7.69e-01	0	28	104	0	48	16526
2026-01-10 23:41:01.07	70.90	14.59	-36.2	-46.6	3.5	7.69e-01	0	27	104	0	48	16511
2026-01-10 23:41:02.04	70.70	14.65	-43.6	-57.5	3.5	7.69e-01	0	27	104	0	60	28851
2026-01-10 23:41:03.02	70.51	14.72	-43.8	-57.4	3.5	7.69e-01	0	28	104	0	60	28511
2026-01-10 23:41:04.00	70.31	14.78	-44.9	-65.1	3.5	7.69e-01	0	27	104	0	60	69217
2026-01-10 23:41:04.98	70.12	14.84	-47.3	-65.4	3.5	7.69e-01	0	28	104	0	60	72053
2026-01-10 23:41:05.96	69.92	14.91	-35.1	-45.6	3.5	7.69e-01	0	27	104	0	44	18424
2026-01-10 23:41:06.94	69.72	14.97	-35.0	-45.4	3.5	7.69e-01	0	27	104	0	44	17990
2026-01-10 23:41:07.92	69.52	15.04	-35.2	-45.6	3.5	7.69e-01	0	27	104	0	44	18348
2026-01-10 23:41:08.89	69.32	15.10	-34.9	-45.2	3.5	7.69e-01	0	28	104	0	44	17527
2026-01-10 23:41:09.87	69.12	15.16	-34.2	-44.5	3.5	7.69e-01	0	28	104	0	44	16225
2026-01-10 23:41:10.84	68.91	15.23	-34.6	-44.9	3.5	7.69e-01	0	28	104	0	44	17045
2026-01-10 23:41:11.82	68.71	15.29	-35.0	-45.3	3.5	7.69e-01	0	28	104	0	44	17794
2026-01-10 23:41:12.80	68.51	15.35	-45.9	-60.8	3.5	7.69e-01	0	28	104	0	60	42122
2026-01-10 23:41:13.78	68.30	15.42	-42.8	-54.7	3.5	7.69e-01	0	28	104	0	60	20988
2026-01-10 23:41:14.76	68.09	15.48	-42.3	-53.8	3.5	7.69e-01	0	28	104	0	50	33561
2026-01-10 23:41:15.74	67.88	15.54	-41.2	-52.9	3.6	7.69e-01	0	28	104	0	60	16982
2026-01-10 23:41:16.71	67.68	15.60	-38.3	-49.4	3.6	7.69e-01	0	28	104	0	52	17985
2026-01-10 23:41:17.69	67.47	15.67	-38.3	-49.5	3.6	7.69e-01	0	27	104	0	52	18266
2026-01-10 23:41:18.66	67.26	15.73	-37.2	-47.8	3.5	7.69e-01	0	28	104	0	50	16870
2026-01-10 23:41:19.64	67.05	15.79	-38.0	-48.5	3.6	7.69e-01	0	28	104	0	48	20487
2026-01-10 23:41:20.62	66.84	15.85	-34.5	-44.7	3.5	7.69e-01	0	28	104	0	46	14873
2026-01-10 23:41:21.60	66.62	15.91	-37.2	-47.6	3.3	7.69e-01	0	28	104	0	44	23162
2026-01-10 23:41:22.58	66.41	15.97	-41.7	-53.0	3.5	7.69e-01	0	28	104	0	60	17139
2026-01-10 23:41:23.56	66.19	16.04	-35.0	-45.4	3.5	7.69e-01	0	28	104	0	44	17904
2026-01-10 23:41:24.53	65.98	16.10	-46.7	-61.3	3.5	7.69e-01	0	28	104	0	60	44785
2026-01-10 23:41:25.51	65.76	16.16	-41.1	-51.9	3.6	7.69e-01	0	28	104	0	58	17057
2026-01-10 23:41:26.49	65.54	16.22	-38.1	-48.6	3.5	7.69e-01	0	28	104	0	52	16390
2026-01-10 23:41:27.47	65.32	16.28	-35.9	-46.2	3.5	7.69e-01	0	28	104	0	48	15704
2026-01-10 23:41:28.45	65.11	16.34	-34.7	-44.9	3.5	7.69e-01	0	28	104	0	44	16981
2026-01-10 23:41:29.42	64.89	16.40	-34.6	-44.8	3.5	7.69e-01	0	28	104	0	46	14887
2026-01-10 23:41:30.39	64.67	16.46	-34.8	-45.0	3.5	7.69e-01	0	28	104	0	46	15398
2026-01-10 23:41:31.37	64.44	16.51	-46.7	-61.7	3.5	7.69e-01	0	28	104	0	60	46752
2026-01-10 23:41:32.36	64.22	16.57	-37.7	-48.2	3.5	7.69e-01	0	28	104	0	54	13913
2026-01-10 23:41:33.33	64.00	16.63	-45.8	-63.0	3.5	7.69e-01	0	28	104	0	60	54338
2026-01-10 23:41:34.31	63.77	16.69	-37.0	-47.4	3.5	7.69e-01	0	28	104	0	50	15985
2026-01-10 23:41:35.29	63.54	16.75	-37.4	-47.8	3.5	7.69e-01	0	28	104	0	50	16758
2026-01-10 23:41:36.27	63.32	16.81	-37.6	-48.0	3.5	7.69e-01	0	28	104	0	50	17223
2026-01-10 23:41:37.25	63.09	16.86	-37.0	-47.4	3.5	7.69e-01	0	28	104	0	50	15991
2026-01-10 23:41:38.22	62.86	16.92	-36.1	-46.4	3.5	7.69e-01	0	28	104	0	48	16030
2026-01-10 23:41:39.20	62.63	16.98	-35.4	-45.7	3.5	7.69e-01	0	28	104	0	46	16593
2026-01-10 23:41:40.18	62.40	17.03	-46.7	-65.5	3.5	7.69e-01	0	28	104	0	60	72787
2026-01-10 23:41:41.16	62.17	17.09	-43.4	-55.2	3.6	7.69e-01	0	28	104	0	60	22062
2026-01-10 23:41:42.14	61.93	17.15	-47.0	-65.5	3.5	7.69e-01	0	28	104	0	60	72782
2026-01-10 23:41:43.11	61.70	17.20	-42.9	-55.3	3.5	7.69e-01	0	28	104	0	60	22290
2026-01-10 23:41:44.10	61.47	17.26	-40.3	-51.9	3.5	7.69e-01	0	28	104	0	56	18960
2026-01-10 23:41:45.07	61.23	17.31	-38.1	-49.0	3.5	7.69e-01	0	28	104	0	52	17148
2026-01-10 23:41:46.05	61.00	17.37	-36.9	-47.5	3.5	7.69e-01	0	28	104	0	48	18273
2026-01-10 23:41:47.03	60.76	17.42	-40.2	-51.8	3.5	7.69e-01	0	28	104	0	52	23709
2026-01-10 23:41:48.01	60.52	17.47	-35.5	-46.1	3.5	7.69e-01	0	28	104	0	42	21769
2026-01-10 23:41:48.98	60.28	17.53	-47.0	-65.4	3.5	7.69e-01	0	28	104	0	60	72027
2026-01-10 23:41:49.96	60.04	17.58	-42.0	-53.8	3.5	7.69e-01	0	28	104	0	56	23634
2026-01-10 23:41:50.94	59.80	17.63	-46.8	-62.7	3.5	7.69e-01	0	28	104	0	60	52382
2026-01-10 23:41:51.92	59.56	17.69	-38.2	-48.7	3.5	7.69e-01	0	28	104	0	52	16625
2026-01-10 23:41:52.89	59.32	17.74	-37.2	-47.6	3.5	7.69e-01	0	28	104	0	48	18455
2026-01-10 23:41:53.87	59.07	17.79	-37.2	-47.7	3.5	7.69e-01	0	28	104	0	48	18680
2026-01-10 23:41:54.85	58.83	17.84	-37.4	-48.0	3.5	7.69e-01	0	28	104	0	48	19294
2026-01-10 23:41:55.83	58.58	17.89	-37.9	-48.6	3.5	7.69e-01	0	28	104	0	48	20607
2026-01-10 23:41:56.81	58.34	17.94	-34.6	-45.1	3.5	7.69e-01	0	28	104	0	44	17292
2026-01-10 23:41:57.79	58.09	17.99	-45.2	-64.3	3.5	7.69e-01	0	28	104	0	60	63387
2026-01-10 23:41:58.76	57.84	18.04	-43.0	-55.9	3.5	7.69e-01	0	28	104	0	60	23975
2026-01-10 23:41:59.74	57.59	18.09	-43.8	-56.0	3.5	7.69e-01	0	28	104	0	54	34389
2026-01-10 23:42:00.72	57.34	18.14	-40.1	-51.0	3.6	7.69e-01	0	28	104	0	60	13621
2026-01-10 23:42:01.70	57.09	18.19	-36.9	-47.3	3.5	7.69e-01	0	28	104	0	48	17720
2026-01-10 23:42:02.68	56.84	18.24	-36.1	-46.5	3.5	7.69e-01	0	28	104	0	48	16141
2026-01-10 23:42:03.66	56.59	18.28	-35.1	-45.4	3.5	7.69e-01	0	28	104	0	46	15951
2026-01-10 23:42:04.63	56.34	18.33	-36.5	-46.8	3.5	7.69e-01	0	28	104	0	44	21084
2026-01-10 23:42:05.61	56.08	18.38	-34.8	-45.1	3.5	7.69e-01	0	28	104	0	46	15432
2026-01-10 23:42:06.59	55.83	18.42	-37.7	-48.2	3.5	7.69e-01	0	28	104	0	44	24962
2026-01-10 23:42:07.57	55.57	18.47	-45.9	-60.3	3.5	7.69e-01	0	28	104	0	60	39811
2026-01-10 23:42:08.55	55.32	18.51	-40.8	-52.1	3.5	7.69e-01	0	28	104	0	54	21795
2026-01-10 23:42:09.52	55.06	18.56	-46.9	-64.5	3.5	7.69e-01	0	28	104	0	60	64464
2026-01-10 23:42:10.50	54.80	18.60	-42.9	-54.7	3.5	7.69e-01	0	28	104	0	60	20868
2026-01-10 23:42:11.47	54.55	18.65	-41.1	-52.2	3.5	7.69e-01	0	28	104	0	58	17563
2026-01-10 23:42:12.45	54.29	18.69	-39.6	-50.5	3.5	7.69e-01	0	28	104	0	54	18156
2026-01-10 23:42:13.43	54.03	18.73	-38.1	-48.6	3.5	7.69e-01	0	28	104	0	52	16479
2026-01-10 23:42:14.41	53.77	18.77	-38.2	-48.7	3.5	7.69e-01	0	28	104	0	50	18732
2026-01-10 23:42:15.39	53.50	18.82	-42.1	-53.3	3.5	7.69e-01	0	28	104	0	60	17726
2026-01-10 23:42:16.37	53.24	18.86	-44.6	-56.9	3.5	7.69e-01	0	28	104	0	60	26951
2026-01-10 23:42:17.35	52.98	18.90	-46.1	-60.7	3.5	7.69e-01	0	28	104	0	60	41736
2026-01-10 23:42:18.33	52.71	18.94	-37.1	-47.4	3.5	7.69e-01	0	28	104	0	48	17983
2026-01-10 23:42:19.31	52.45	18.98	-36.5	-46.8	3.5	7.69e-01	0	28	104	0	48	16725
2026-01-10 23:42:20.28	52.18	19.02	-36.2	-46.4	3.5	7.69e-01	0	28	104	0	48	16125
2026-01-10 23:42:21.26	51.92	19.06	-36.0	-46.3	3.5	7.69e-01	0	28	104	0	48	15889
2026-01-10 23:42:22.24	51.65	19.09	-35.2	-45.5	3.5	7.69e-01	0	28	104	0	46	16142
2026-01-10 23:42:23.22	51.38	19.13	-34.5	-44.8	3.5	7.69e-01	0	28	104	0	44	16773
2026-01-10 23:42:24.20	51.11	19.17	-36.2	-46.5	3.5	7.69e-01	0	28	104	0	46	18294
2026-01-10 23:42:25.17	50.85	19.20	-47.7	-65.6	3.5	7.69e-01	0	28	104	0	60	73700
2026-01-10 23:42:26.15	50.58	19.24	-41.0	-52.0	3.5	7.69e-01	0	28	104	0	58	17106
2026-01-10 23:42:27.13	50.31	19.27	-47.6	-65.2	3.5	7.69e-01	0	28	104	0	60	69841
2026-01-10 23:42:28.10	50.04	19.31	-35.2	-45.4	3.5	7.69e-01	0	28	104	0	46	16118
2026-01-10 23:42:29.08	49.77	19.34	-34.8	-45.0	3.5	7.69e-01	0	28	104	0	44	17226
2026-01-10 23:42:30.06	49.49	19.38	-34.5	-44.7	3.5	7.69e-01	0	28	104	0	44	16566
2026-01-10 23:42:31.03	49.22	19.41	-34.6	-44.8	3.5	7.69e-01	0	28	104	0	44	16777
2026-01-10 23:42:32.01	48.95	19.44	-45.0	-57.7	3.5	7.69e-01	0	28	104	0	60	29607
2026-01-10 23:42:32.99	48.67	19.47	-36.1	-46.5	3.5	7.69e-01	0	28	104	0	44	20375
2026-01-10 23:42:33.97	48.40	19.50	-47.9	-65.6	3.5	7.69e-01	0	28	104	0	60	73480
2026-01-10 23:42:34.94	48.13	19.53	-44.5	-56.6	3.5	7.69e-01	0	28	104	0	60	26000
2026-01-10 23:42:35.92	47.85	19.56	-47.9	-65.6	3.5	7.69e-01	0	28	104	0	60	73116
2026-01-10 23:42:36.89	47.58	19.59	-41.0	-51.8	3.5	7.69e-01	0	28	104	0	60	15008
2026-01-10 23:42:37.87	47.30	19.62	-39.9	-50.5	3.5	7.69e-01	0	28	104	0	56	16248
2026-01-10 23:42:38.85	47.02	19.65	-40.2	-50.8	3.5	7.69e-01	0	28	104	0	54	18901
2026-01-10 23:42:39.83	46.74	19.67	-40.7	-51.5	3.5	7.69e-01	0	28	104	0	54	20355
2026-01-10 23:42:40.80	46.47	19.70	-39.9	-50.6	3.5	7.69e-01	0	28	104	0	52	20586
2026-01-10 23:42:41.78	46.19	19.73	-47.5	-63.9	3.5	7.69e-01	0	28	104	0	60	60131
2026-01-10 23:42:42.75	45.91	19.75	-39.8	-50.6	3.5	7.69e-01	0	28	104	0	50	23215
2026-01-10 23:42:43.73	45.63	19.78	-47.2	-63.6	3.5	7.69e-01	0	28	104	0	60	58070
2026-01-10 23:42:44.72	45.35	19.80	-36.8	-47.1	3.4	7.69e-01	0	28	104	0	52	13822
2026-01-10 23:42:45.69	45.07	19.82	-36.4	-46.6	3.4	7.69e-01	0	28	104	0	48	16418
2026-01-10 23:42:46.67	44.79	19.85	-36.0	-37.6	5.2	7.69e-01	0	28	104	0	46	6523
2026-01-10 23:42:47.65	44.50	19.87	-35.0	-36.2	28.6	7.69e-01	0	28	0	0	46	5566
2026-01-10 23:42:48.63	44.22	19.89	-34.5	-35.7	29.0	7.69e-01	0	28	0	2097152	44	5913
2026-01-10 23:42:49.61	43.94	19.91	-34.5	-35.7	28.9	7.69e-01	0	28	0	3670016	44	5912
2026-01-10 23:42:50.59	43.66	19.93	-34.4	-35.7	29.0	7.69e-01	0	28	0	5767168	44	5864
2026-01-10 23:42:51.56	43.37	19.95	-34.3	-35.5	29.2	7.69e-01	0	28	0	7340032	44	5746
2026-01-10 23:42:52.54	43.09	19.97	-34.1	-35.3	29.3	7.69e-01	0	28	0	9437184	44	5653
2026-01-10 23:42:53.51	42.81	19.98	-34.3	-35.6	29.2	7.69e-01	0	28	0	11010048	44	5793
2026-01-10 23:42:54.49	42.52	20.00	-34.6	-35.9	28.9	7.69e-01	0	28	0	13107200	44	5995
2026-01-10 23:42:55.47	42.24	20.02	-34.7	-35.9	28.9	7.69e-01	0	28	0	14680064	44	6038
2026-01-10 23:42:56.44	41.96	20.03	-34.5	-35.7	28.9	7.69e-01	0	28	0	16777216	44	5914
2026-01-10 23:42:57.42	41.67	20.05	-34.3	-35.5	29.1	7.69e-01	0	28	0	18350080	44	5779
2026-01-10 23:42:58.40	41.38	20.06	-34.3	-35.5	29.2	7.69e-01	0	28	0	20447232	44	5749
2026-01-10 23:42:59.38	41.10	20.08	-34.3	-35.5	29.3	7.69e-01	0	28	0	22020096	44	5742
2026-01-10 23:43:00.36	40.81	20.09	-34.4	-35.6	29.1	7.69e-01	0	28	0	24117248	44	5824
2026-01-10 23:43:01.34	40.53	20.10	-34.5	-35.7	29.0	7.69e-01	0	28	0	25690112	44	5899
2026-01-10 23:43:02.31	40.24	20.11	-34.6	-35.8	29.0	7.69e-01	0	28	0	27787264	44	5951
2026-01-10 23:43:03.29	39.95	20.12	-34.4	-35.6	29.0	7.69e-01	0	28	0	29360128	44	5856
2026-01-10 23:43:04.27	39.67	20.13	-34.4	-35.6	29.1	7.69e-01	0	28	0	31457280	44	5835
2026-01-10 23:43:05.24	39.38	20.14	-34.4	-35.6	29.1	7.69e-01	0	28	0	33030144	44	5819
2026-01-10 23:43:06.22	39.09	20.15	-34.4	-35.7	29.1	7.69e-01	0	28	0	35127296	44	5870
2026-01-10 23:43:07.20	38.81	20.16	-34.4	-35.6	29.0	7.69e-01	0	28	0	36700160	44	5850
2026-01-10 23:43:08.18	38.52	20.17	-34.5	-35.8	29.0	7.69e-01	0	28	0	38797312	44	5933
2026-01-10 23:43:09.16	38.23	20.17	-34.4	-35.7	29.0	7.69e-01	0	28	0	40370176	44	5859
2026-01-10 23:43:10.13	37.94	20.18	-34.3	-35.6	29.1	7.69e-01	0	28	0	42467328	44	5800
2026-01-10 23:43:11.11	37.66	20.18	-34.5	-35.7	29.0	7.69e-01	0	28	0	44040192	44	5889
2026-01-10 23:43:12.09	37.37	20.19	-34.3	-35.6	29.1	7.69e-01	0	28	0	46137344	44	5805
2026-01-10 23:43:13.06	37.08	20.19	-34.5	-35.7	29.0	7.69e-01	0	28	0	47710208	44	5922
2026-01-10 23:43:14.04	36.79	20.19	-34.5	-35.7	29.0	7.69e-01	0	28	0	49807360	44	5894
2026-01-10 23:43:15.02	36.50	20.20	-34.5	-35.7	29.1	7.69e-01	0	28	0	51380224	44	5914
2026-01-10 23:43:15.99	36.22	20.20	-34.5	-35.8	28.9	7.69e-01	0	28	0	53477376	44	5939
2026-01-10 23:43:16.97	35.93	20.20	-34.4	-35.6	29.1	7.69e-01	0	28	0	55050240	44	5851
2026-01-10 23:43:17.95	35.64	20.20	-34.4	-35.7	29.0	7.69e-01	0	28	0	57147392	44	5870
2026-01-10 23:43:18.93	35.35	20.20	-34.6	-35.9	28.9	7.69e-01	0	28	0	58720256	44	5997
2026-01-10 23:43:19.90	35.07	20.19	-34.4	-35.6	29.1	7.69e-01	0	28	0	60817408	44	5856
2026-01-10 23:43:20.87	34.78	20.19	-34.4	-35.6	29.1	7.69e-01	0	28	0	62390272	44	5834
2026-01-10 23:43:21.85	34.49	20.19	-34.5	-35.8	28.9	7.69e-01	0	28	0	64487424	44	5949
2026-01-10 23:43:22.83	34.20	20.19	-34.6	-35.8	28.9	7.69e-01	0	28	0	66060288	44	5972
2026-01-10 23:43:23.81	33.92	20.18	-34.3	-35.5	29.2	7.69e-01	0	28	0	68157440	44	5787
2026-01-10 23:43:24.78	33.63	20.18	-34.3	-35.5	29.2	7.69e-01	0	28	0	69730304	44	5774
2026-01-10 23:43:25.76	33.34	20.17	-34.4	-35.6	29.1	7.69e-01	0	28	0	71827456	44	5826
2026-01-10 23:43:26.74	33.05	20.16	-34.5	-35.8	29.0	7.69e-01	0	28	0	73400320	44	5927
2026-01-10 23:43:27.71	32.77	20.16	-34.6	-35.8	28.9	7.69e-01	0	28	0	75497472	44	5947
2026-01-10 23:43:28.69	32.48	20.15	-34.5	-35.7	29.0	7.69e-01	0	28	0	77070336	44	5901
2026-01-10 23:43:29.67	32.19	20.14	-34.4	-35.6	29.1	7.69e-01	0	28	0	79167488	44	5839
2026-01-10 23:43:30.64	31.91	20.13	-34.4	-35.7	29.0	7.69e-01	0	28	0	80740352	44	5859
2026-01-10 23:43:31.62	31.62	20.12	-34.5	-35.7	29.0	7.69e-01	0	28	0	82837504	44	5876
2026-01-10 23:43:32.60	31.34	20.11	-34.4	-35.6	29.0	7.69e-01	0	28	0	84410368	44	5852
2026-01-10 23:43:33.58	31.05	20.10	-34.5	-35.7	28.9	7.69e-01	0	28	0	86507520	44	5922
2026-01-10 23:43:34.55	30.77	20.08	-34.7	-35.9	28.8	7.69e-01	0	28	0	88080384	44	6059
2026-01-10 23:43:35.53	30.48	20.07	-34.6	-35.8	28.9	7.69e-01	0	29	0	90177536	44	5971
2026-01-10 23:43:36.50	30.20	20.06	-34.3	-35.5	29.1	7.69e-01	0	29	0	91750400	44	5745
2026-01-10 23:43:37.48	29.91	20.04	-34.5	-35.7	28.9	7.69e-01	0	28	0	93847552	44	5884
2026-01-10 23:43:38.46	29.63	20.03	-34.5	-35.8	29.0	7.69e-01	0	28	0	95420416	44	5943
2026-01-10 23:43:39.44	29.34	20.01	-34.6	-35.8	28.9	7.69e-01	0	28	0	97517568	44	5990
2026-01-10 23:43:40.42	29.06	19.99	-34.5	-35.7	28.9	7.69e-01	0	28	0	99090432	44	5898
2026-01-10 23:43:41.39	28.77	19.98	-34.4	-35.6	29.0	7.69e-01	0	28	0	101187584	44	5835
2026-01-10 23:43:42.37	28.49	19.96	-34.4	-35.6	29.1	7.69e-01	0	28	0	102760448	44	5831
2026-01-10 23:43:43.34	28.21	19.94	-34.4	-35.6	28.9	7.69e-01	0	28	0	104857600	44	5850
2026-01-10 23:43:44.32	27.93	19.92	-34.3	-35.5	29.1	7.69e-01	0	29	0	106430464	44	5773
2026-01-10 23:43:45.30	27.64	19.90	-34.4	-35.6	29.1	7.69e-01	0	29	0	108527616	44	5829
2026-01-10 23:43:46.27	27.36	19.88	-34.4	-35.6	29.1	7.69e-01	0	28	0	110100480	44	5830
2026-01-10 23:43:47.25	27.08	19.86	-34.4	-35.6	29.1	7.69e-01	0	28	0	112197632	44	5804
2026-01-10 23:43:48.23	26.80	19.84	-34.4	-35.7	29.0	7.69e-01	0	28	0	113770496	44	5861
2026-01-10 23:43:49.21	26.52	19.81	-34.4	-35.7	28.9	7.69e-01	0	28	0	115867648	44	5873
2026-01-10 23:43:50.19	26.24	19.79	-34.3	-35.6	29.1	7.69e-01	0	28	0	117440512	44	5799
2026-01-10 23:43:51.17	25.96	19.77	-34.3	-35.5	29.1	7.69e-01	0	29	0	119537664	44	5779
2026-01-10 23:43:52.14	25.68	19.74	-34.3	-35.5	29.2	7.69e-01	0	29	0	121110528	44	5786
2026-01-10 23:43:53.12	25.40	19.72	-34.5	-35.7	29.0	7.69e-01	0	29	0	123207680	44	5922
2026-01-10 23:43:54.10	25.12	19.69	-34.5	-35.8	28.8	7.69e-01	0	29	0	124780544	44	5943
2026-01-10 23:43:55.07	24.85	19.66	-34.5	-35.7	29.0	7.69e-01	0	29	0	126877696	44	5917
2026-01-10 23:43:56.06	24.57	19.64	-34.3	-35.6	29.0	7.69e-01	0	29	0	128450560	44	5797
2026-01-10 23:43:57.04	24.29	19.61	-34.2	-35.4	29.2	7.69e-01	0	29	0	130547712	44	5693
2026-01-10 23:43:58.02	24.01	19.58	-34.4	-35.7	29.0	7.69e-01	0	29	0	132120576	44	5869
2026-01-10 23:43:58.99	23.74	19.55	-34.5	-35.8	28.9	7.69e-01	0	28	0	134217728	44	5953
2026-01-10 23:43:59.97	23.46	19.52	-34.4	-35.7	29.0	7.69e-01	0	28	0	135790592	44	5880
2026-01-10 23:44:00.94	23.19	19.49	-34.4	-35.7	28.9	7.69e-01	0	28	0	137887744	44	5875
2026-01-10 23:44:01.92	22.92	19.46	-34.4	-35.7	29.0	7.69e-01	0	29	0	139460608	44	5864
2026-01-10 23:44:02.90	22.64	19.43	-34.3	-35.5	29.2	7.69e-01	0	28	0	141557760	44	5741
2026-01-10 23:44:03.87	22.37	19.39	-34.3	-35.5	29.1	7.69e-01	0	29	0	143130624	44	5745
2026-01-10 23:44:04.85	22.10	19.36	-34.3	-35.5	29.1	7.69e-01	0	29	0	145227776	44	5746
2026-01-10 23:44:05.83	21.83	19.33	-34.4	-35.6	29.0	7.69e-01	0	29	0	146800640	44	5839
2026-01-10 23:44:06.81	21.56	19.29	-34.5	-35.7	29.0	7.69e-01	0	29	0	148897792	44	5910
2026-01-10 23:44:07.79	21.29	19.26	-34.7	-35.9	28.8	7.69e-01	0	29	0	150470656	44	6057
2026-01-10 23:44:08.77	21.02	19.22	-34.4	-35.6	29.0	7.69e-01	0	29	0	152567808	44	5817
2026-01-10 23:44:09.74	20.75	19.19	-34.4	-35.6	29.0	7.69e-01	0	29	0	154140672	44	5840
2026-01-10 23:44:10.72	20.48	19.15	-34.2	-35.5	29.1	7.69e-01	0	29	0	156237824	44	5746
2026-01-10 23:44:11.70	20.21	19.11	-34.3	-35.6	29.0	7.69e-01	0	29	0	157810688	44	5795
2026-01-10 23:44:12.68	19.95	19.08	-34.4	-35.6	29.0	7.69e-01	0	29	0	159383552	44	5817
2026-01-10 23:44:13.66	19.68	19.04	-34.3	-35.6	29.1	7.69e-01	0	29	0	161480704	44	5806
2026-01-10 23:44:14.63	19.42	19.00	-34.4	-35.7	28.9	7.69e-01	0	29	0	163053568	44	5871
2026-01-10 23:44:15.61	19.15	18.96	-34.3	-35.5	29.1	7.69e-01	0	29	0	165150720	44	5759
2026-01-10 23:44:16.58	18.89	18.92	-34.4	-35.6	29.1	7.69e-01	0	29	0	166723584	44	5832
2026-01-10 23:44:17.56	18.63	18.88	-34.4	-35.6	28.9	7.69e-01	0	29	0	168820736	44	5838
2026-01-10 23:44:18.54	18.36	18.84	-34.4	-35.6	29.0	7.69e-01	0	29	0	170917888	44	5815
2026-01-10 23:44:19.51	18.10	18.80	-34.4	-35.7	28.9	7.69e-01	0	29	0	172490752	44	5877
2026-01-10 23:44:20.49	17.84	18.76	-34.4	-35.7	28.9	7.69e-01	0	29	0	174587904	44	5871
2026-01-10 23:44:21.47	17.58	18.72	-34.4	-35.7	28.9	7.69e-01	0	29	0	176160768	44	5871
2026-01-10 23:44:22.44	17.32	18.67	-34.2	-35.5	29.1	7.69e-01	0	29	0	178257920	44	5739
2026-01-10 23:44:23.42	17.07	18.63	-34.2	-35.4	29.1	7.69e-01	0	29	0	179830784	44	5723
2026-01-10 23:44:24.39	16.81	18.59	-34.2	-35.4	29.1	7.69e-01	0	29	0	181403648	44	5685
2026-01-10 23:44:25.37	16.55	18.54	-34.3	-35.5	29.1	7.69e-01	0	29	0	183500800	44	5741
2026-01-10 23:44:26.35	16.30	18.50	-34.3	-35.5	29.1	7.69e-01	0	29	0	185073664	44	5773
2026-01-10 23:44:27.33	16.04	18.45	-34.2	-35.4	29.2	7.69e-01	0	29	0	187170816	44	5720
2026-01-10 23:44:28.31	15.79	18.41	-34.3	-35.6	29.1	7.69e-01	0	29	0	188743680	44	5815
2026-01-10 23:44:29.29	15.53	18.36	-34.5	-35.7	28.9	7.69e-01	0	29	0	190840832	44	5926
2026-01-10 23:44:30.26	15.28	18.31	-34.3	-35.5	29.1	7.69e-01	0	29	0	192413696	44	5759
2026-01-10 23:44:31.24	15.03	18.27	-34.4	-35.6	29.0	7.69e-01	0	29	0	194510848	44	5813
2026-01-10 23:44:32.22	14.78	18.22	-34.3	-35.5	29.1	7.69e-01	0	29	0	196083712	44	5744
2026-01-10 23:44:33.20	14.53	18.17	-34.1	-35.3	29.3	7.69e-01	0	29	0	198180864	44	5616
2026-01-10 23:44:34.18	14.28	18.12	-34.2	-35.4	29.1	7.69e-01	0	29	0	199753728	44	5679
2026-01-10 23:44:35.16	14.03	18.07	-34.4	-35.6	29.0	7.69e-01	0	29	0	201850880	44	5816
2026-01-10 23:44:36.13	13.78	18.02	-34.3	-35.5	29.0	7.69e-01	0	29	0	203948032	44	5761
2026-01-10 23:44:37.11	13.53	17.97	-34.3	-35.5	29.1	7.69e-01	0	29	0	205520896	44	5731
2026-01-10 23:44:38.09	13.29	17.92	-34.3	-35.5	29.1	7.69e-01	0	29	0	207093760	44	5742
2026-01-10 23:44:39.07	13.04	17.87	-34.4	-35.6	29.0	7.69e-01	0	29	0	209190912	44	5841
2026-01-10 23:44:40.05	12.80	17.82	-34.3	-35.5	29.1	7.69e-01	0	29	0	210763776	44	5739
2026-01-10 23:44:41.02	12.56	17.77	-34.2	-35.4	29.1	7.69e-01	0	29	0	212860928	44	5714
2026-01-10 23:44:42.00	12.31	17.72	-34.2	-35.4	29.1	7.69e-01	0	29	0	214433792	44	5715
2026-01-10 23:44:42.98	12.07	17.67	-34.3	-35.5	29.0	7.69e-01	0	29	0	216530944	44	5775
2026-01-10 23:44:43.96	11.83	17.61	-34.3	-35.5	29.0	7.69e-01	0	29	0	218103808	44	5767
2026-01-10 23:44:44.94	11.59	17.56	-34.2	-35.4	29.1	7.69e-01	0	29	0	220200960	44	5710
2026-01-10 23:44:45.92	11.35	17.51	-34.2	-35.5	29.1	7.69e-01	0	29	0	221773824	44	5731
2026-01-10 23:44:46.89	11.11	17.46	-34.1	-35.3	29.1	7.69e-01	0	29	0	223870976	44	5658
2026-01-10 23:44:47.87	10.88	17.40	-34.1	-35.3	29.3	7.69e-01	0	29	0	225443840	44	5615
2026-01-10 23:44:48.85	10.64	17.35	-34.2	-35.5	29.2	7.69e-01	0	29	0	227540992	44	5735
2026-01-10 23:44:49.83	10.40	17.29	-34.3	-35.5	29.0	7.69e-01	0	29	0	229113856	44	5774
2026-01-10 23:44:50.81	10.17	17.24	-34.2	-35.5	29.1	7.69e-01	0	29	0	231211008	44	5740
2026-01-10 23:44:51.78	9.94	17.18	-34.1	-35.3	29.3	7.69e-01	0	29	0	232783872	44	5609
2026-01-10 23:44:52.76	9.71	17.13	-34.0	-35.2	29.3	7.69e-01	0	29	0	234881024	44	5557
2026-01-10 23:44:53.74	9.47	17.07	-34.0	-35.2	29.3	7.69e-01	0	29	0	236453888	44	5592
2026-01-10 23:44:54.72	9.24	17.01	-34.2	-35.4	29.1	7.69e-01	0	29	0	238551040	44	5719
2026-01-10 23:44:55.70	9.01	16.96	-34.4	-35.7	28.9	7.69e-01	0	29	0	240123904	44	5873
2026-01-10 23:44:56.68	8.78	16.90	-34.4	-35.6	29.0	7.69e-01	0	29	0	242221056	44	5845
2026-01-10 23:44:57.65	8.56	16.84	-34.3	-35.5	29.0	7.69e-01	0	29	0	243793920	44	5763
2026-01-10 23:44:58.63	8.33	16.79	-34.3	-35.6	29.0	7.69e-01	0	29	0	245891072	44	5794
2026-01-10 23:44:59.61	8.10	16.73	-34.0	-35.2	29.3	7.69e-01	0	29	0	247463936	44	5557
2026-01-10 23:45:00.59	7.88	16.67	-34.1	-35.3	29.2	7.69e-01	0	29	0	249561088	44	5614
2026-01-10 23:45:01.56	7.66	16.61	-34.1	-35.3	29.1	7.69e-01	0	29	0	251133952	44	5630
2026-01-10 23:45:02.54	7.43	16.55	-34.1	-35.3	29.2	7.69e-01	0	29	0	253231104	44	5639
2026-01-10 23:45:03.52	7.21	16.50	-34.2	-35.4	29.1	7.69e-01	0	29	0	254803968	44	5714
2026-01-10 23:45:04.50	6.99	16.44	-34.3	-35.5	29.1	7.69e-01	0	29	0	256901120	44	5759
2026-01-10 23:45:05.47	6.77	16.38	-34.2	-35.4	29.1	7.69e-01	0	29	0	258473984	44	5700
2026-01-10 23:45:06.45	6.55	16.32	-34.1	-35.3	29.3	7.69e-01	0	29	0	260571136	44	5607
2026-01-10 23:45:07.43	6.33	16.26	-34.1	-35.3	29.2	7.69e-01	0	29	0	262144000	44	5648
2026-01-10 23:45:08.41	6.11	16.20	-34.3	-35.5	29.1	7.69e-01	0	29	0	264241152	44	5784
2026-01-10 23:45:09.38	5.90	16.14	-34.1	-35.3	29.2	7.69e-01	0	29	0	265814016	44	5633
2026-01-10 23:45:10.35	5.68	16.08	-34.1	-35.4	29.2	7.69e-01	0	29	0	267911168	44	5666
2026-01-10 23:45:11.32	5.47	16.02	-34.0	-35.2	29.3	7.69e-01	0	29	0	269484032	44	5586
2026-01-10 23:45:12.30	5.26	15.96	-34.1	-35.3	29.2	7.69e-01	0	29	0	271581184	44	5641
2026-01-10 23:45:13.28	5.04	15.90	-34.2	-35.4	29.1	7.69e-01	0	29	0	273154048	44	5677
2026-01-10 23:45:14.26	4.83	15.83	-34.3	-35.5	29.0	7.69e-01	0	29	0	275251200	44	5745
2026-01-10 23:45:15.24	4.62	15.77	-34.2	-35.4	29.0	7.69e-01	0	29	0	276824064	44	5695
2026-01-10 23:45:16.21	4.41	15.71	-34.2	-35.4	29.1	7.69e-01	0	29	0	278921216	44	5722
2026-01-10 23:45:17.19	4.20	15.65	-34.1	-35.3	29.2	7.69e-01	0	29	0	280494080	44	5642
2026-01-10 23:45:18.17	3.99	15.59	-34.1	-35.3	29.2	7.69e-01	0	29	0	282591232	44	5640
2026-01-10 23:45:19.15	3.79	15.52	-34.1	-35.3	29.2	7.69e-01	0	29	0	284164096	42	6338
2026-01-10 23:45:20.13	3.58	15.46	-34.1	-35.3	29.2	7.69e-01	0	29	0	286261248	42	6335
2026-01-10 23:45:21.10	3.38	15.40	-34.2	-35.4	29.1	7.69e-01	0	29	0	287834112	42	6412
2026-01-10 23:45:22.08	3.17	15.34	-34.2	-35.5	29.0	7.69e-01	0	29	0	289931264	42	6432
2026-01-10 23:45:23.05	2.97	15.27	-34.3	-35.6	29.0	7.69e-01	0	29	0	291504128	42	6521
2026-01-10 23:45:24.03	2.77	15.21	-34.4	-35.6	29.0	7.69e-01	0	29	0	293601280	42	6543
2026-01-10 23:45:25.01	2.56	15.15	-34.2	-35.4	29.0	7.69e-01	0	29	0	295174144	42	6391
2026-01-10 23:45:25.99	2.36	15.08	-34.0	-35.2	29.2	7.69e-01	0	29	0	297271296	42	6244
2026-01-10 23:45:26.97	2.16	15.02	-34.1	-35.4	29.1	7.69e-01	0	29	0	298844160	42	6363
2026-01-10 23:45:27.94	1.97	14.96	-34.1	-35.3	29.2	7.69e-01	0	29	0	300941312	42	6280
2026-01-10 23:45:28.92	1.77	14.89	-34.3	-35.5	29.0	7.69e-01	0	29	0	302514176	42	6476
2026-01-10 23:45:29.89	1.57	14.83	-34.1	-35.3	29.1	7.69e-01	0	29	0	304611328	42	6350
2026-01-10 23:45:30.87	1.38	14.77	-34.4	-35.6	29.0	7.69e-01	0	29	0	306184192	42	6542
2026-01-10 23:45:31.85	1.18	14.70	-34.4	-35.6	28.9	7.69e-01	0	29	0	308281344	42	6526
2026-01-10 23:45:32.83	0.99	14.64	-34.2	-35.4	29.1	7.69e-01	0	29	0	309854208	42	6402
2026-01-10 23:45:33.80	0.79	14.57	-34.2	-35.5	29.1	7.69e-01	0	29	0	311951360	42	6443
2026-01-10 23:45:34.78	0.60	14.51	-34.1	-35.4	29.1	7.69e-01	0	29	0	313524224	42	6369
2026-01-10 23:45:35.75	0.41	14.44	-34.3	-35.6	28.9	7.69e-01	0	29	0	315621376	42	6506
2026-01-10 23:45:36.73	0.22	14.38	-34.5	-35.7	28.8	7.69e-01	0	29	0	317194240	42	6648
2026-01-10 23:45:37.71	0.03	14.31	-34.8	-36.1	28.7	7.69e-01	0	29	0	319291392	42	6915
2026-01-10 23:45:38.68	359.84	14.25	-34.6	-35.8	28.7	7.69e-01	0	29	0	320864256	42	6726
2026-01-10 23:45:39.66	359.65	14.18	-34.7	-36.0	28.7	7.69e-01	0	29	0	322961408	42	6823
2026-01-10 23:45:40.64	359.47	14.12	-34.6	-35.8	28.7	7.69e-01	0	29	0	324534272	42	6684
2026-01-10 23:45:41.62	359.28	14.05	-34.1	-35.4	29.1	7.69e-01	0	29	0	326631424	42	6353
2026-01-10 23:45:42.60	359.09	13.99	-34.2	-35.5	29.0	7.69e-01	0	29	0	328204288	42	6425
2026-01-10 23:45:43.58	358.91	13.92	-34.2	-35.5	29.0	7.69e-01	0	29	0	330301440	42	6434
2026-01-10 23:45:44.55	358.73	13.85	-34.4	-35.6	29.0	7.69e-01	0	29	0	331874304	42	6523
2026-01-10 23:45:45.53	358.55	13.79	-34.5	-35.7	28.8	7.69e-01	0	29	0	333971456	42	6649
2026-01-10 23:45:46.50	358.37	13.72	-34.4	-35.6	28.9	7.69e-01	0	29	0	335544320	42	6533
2026-01-10 23:45:47.48	358.18	13.66	-34.2	-35.5	28.9	7.69e-01	0	29	0	337641472	42	6442
2026-01-10 23:45:48.46	358.00	13.59	-34.4	-35.6	28.9	7.69e-01	0	29	0	339214336	42	6527
2026-01-10 23:45:49.44	357.82	13.53	-34.2	-35.4	29.0	7.69e-01	0	29	0	341311488	42	6364
2026-01-10 23:45:50.42	357.65	13.46	-34.6	-35.9	28.6	7.69e-01	0	29	0	342884352	42	6727
2026-01-10 23:45:51.39	357.47	13.39	-34.4	-35.6	28.9	7.69e-01	0	29	0	344981504	42	6514
2026-01-10 23:45:52.37	357.29	13.33	-34.7	-35.9	28.6	7.69e-01	0	29	0	346554368	42	6800
2026-01-10 23:45:53.35	357.12	13.26	-34.5	-35.8	28.6	7.69e-01	0	29	0	348651520	42	6661
2026-01-10 23:45:54.33	356.94	13.19	-34.5	-35.7	28.8	7.69e-01	0	29	0	350224384	42	6618
2026-01-10 23:45:55.31	356.77	13.13	-34.2	-35.4	29.0	7.69e-01	0	29	0	352321536	42	6370
2026-01-10 23:45:56.29	356.59	13.06	-34.5	-35.7	28.9	7.69e-01	0	29	0	353894400	42	6628
2026-01-10 23:45:57.26	356.42	12.99	-34.3	-35.5	28.9	7.69e-01	0	29	0	355991552	42	6489
2026-01-10 23:45:58.24	356.25	12.93	-34.6	-35.9	28.7	7.69e-01	0	29	0	357564416	42	6750
2026-01-10 23:45:59.22	356.08	12.86	-34.3	-35.5	28.9	7.69e-01	0	29	0	359661568	42	6486
2026-01-10 23:46:00.19	355.91	12.80	-34.6	-35.9	28.6	7.69e-01	0	29	0	361234432	42	6760
2026-01-10 23:46:01.17	355.74	12.73	-34.5	-35.7	28.7	7.69e-01	0	29	0	363331584	42	6607
2026-01-10 23:46:02.15	355.58	12.66	-34.8	-36.0	28.4	7.69e-01	0	29	0	364904448	42	6874
2026-01-10 23:46:03.13	355.41	12.59	-34.7	-36.0	28.4	7.69e-01	0	29	0	366477312	42	6808
2026-01-10 23:46:04.11	355.24	12.53	-35.1	-36.4	28.1	7.69e-01	0	29	0	368574464	44	6400
2026-01-10 23:46:05.08	355.08	12.46	-34.2	-35.4	28.9	7.69e-01	0	29	0	370147328	44	5723
2026-01-10 23:46:06.06	354.91	12.39	-34.8	-36.1	28.3	7.69e-01	0	29	0	372244480	44	6181
2026-01-10 23:46:07.04	354.75	12.33	-34.2	-35.4	28.9	7.69e-01	0	29	0	374341632	44	5689
2026-01-10 23:46:08.02	354.58	12.26	-35.1	-36.4	28.1	7.69e-01	0	29	0	375914496	44	6383
2026-01-10 23:46:09.00	354.42	12.19	-34.1	-35.3	28.9	7.69e-01	0	29	0	378011648	44	5618
2026-01-10 23:46:09.98	354.26	12.13	-34.9	-36.2	28.3	7.69e-01	0	29	0	379584512	44	6263
2026-01-10 23:46:10.95	354.10	12.06	-34.2	-35.4	28.8	7.69e-01	0	29	0	381681664	44	5691
2026-01-10 23:46:11.93	353.94	11.99	-34.7	-36.0	28.4	7.69e-01	0	29	0	383254528	44	6117
2026-01-10 23:46:12.91	353.78	11.93	-34.6	-35.8	28.5	7.69e-01	0	29	0	385351680	44	5960
2026-01-10 23:46:13.89	353.62	11.86	-35.0	-36.3	28.1	7.69e-01	0	29	0	386924544	44	6323
2026-01-10 23:46:14.86	353.47	11.79	-35.1	-36.3	27.9	7.69e-01	0	29	0	388497408	44	6347
2026-01-10 23:46:15.84	353.31	11.73	-34.7	-35.9	28.4	7.69e-01	0	29	0	390594560	44	6060
2026-01-10 23:46:16.82	353.15	11.66	-35.0	-36.3	27.9	7.69e-01	0	29	0	392167424	44	6332
2026-01-10 23:46:17.79	353.00	11.59	-34.9	-36.1	28.2	7.69e-01	0	29	0	394264576	44	6175
2026-01-10 23:46:18.77	352.84	11.53	-35.4	-36.7	27.6	7.69e-01	0	29	0	395837440	44	6619
2026-01-10 23:46:19.75	352.69	11.46	-35.6	-36.9	27.7	7.69e-01	0	29	0	397934592	44	6759
2026-01-10 23:46:20.73	352.54	11.39	-36.2	-37.6	27.1	7.69e-01	0	29	0	399507456	46	6517
2026-01-10 23:46:21.71	352.39	11.33	-35.6	-36.9	27.7	7.69e-01	0	29	0	401604608	46	5995
2026-01-10 23:46:22.69	352.23	11.26	-36.5	-37.9	26.7	7.69e-01	0	29	0	403701760	46	6767
2026-01-10 23:46:23.66	352.08	11.19	-35.1	-36.4	27.9	7.69e-01	0	29	0	405274624	46	5692
2026-01-10 23:46:24.64	351.93	11.13	-35.2	-36.5	27.7	7.69e-01	0	29	0	407371776	44	6459
2026-01-10 23:46:25.62	351.79	11.06	-35.2	-36.5	27.6	7.69e-01	0	29	0	408944640	44	6453
2026-01-10 23:46:26.59	351.64	10.99	-34.4	-35.5	28.6	7.69e-01	0	29	0	411041792	44	5779
2026-01-10 23:46:27.57	351.49	10.93	-35.4	-36.8	27.6	7.69e-01	0	29	0	412614656	44	6707
2026-01-10 23:46:28.55	351.34	10.86	-34.2	-35.4	28.7	7.69e-01	0	29	0	414187520	44	5666
2026-01-10 23:46:29.53	351.20	10.79	-34.9	-36.2	28.0	7.69e-01	0	29	0	416284672	44	6261
2026-01-10 23:46:30.51	351.05	10.73	-34.8	-36.1	27.9	7.69e-01	0	29	0	417857536	44	6155
2026-01-10 23:46:31.49	350.91	10.66	-34.6	-35.9	28.2	7.69e-01	0	29	0	419954688	44	5998
2026-01-10 23:46:32.47	350.76	10.59	-35.6	-37.0	27.1	7.69e-01	0	29	0	421527552	44	6812
2026-01-10 23:46:33.45	350.62	10.53	-34.1	-35.3	28.7	7.69e-01	0	29	0	423624704	44	5633
2026-01-10 23:46:34.42	350.48	10.46	-35.1	-36.5	27.6	7.69e-01	0	29	0	425197568	44	6441
2026-01-10 23:46:35.40	350.34	10.39	-34.8	-36.1	27.4	7.69e-01	0	29	0	427294720	44	6181
2026-01-10 23:46:36.37	350.20	10.33	-34.5	-35.7	28.0	7.69e-01	0	29	0	428867584	44	5911
2026-01-10 23:46:37.36	350.05	10.26	-36.1	-37.5	26.7	7.69e-01	0	29	0	430964736	46	6474
2026-01-10 23:46:38.33	349.91	10.19	-35.2	-36.5	27.8	7.69e-01	0	29	0	432537600	46	5726
2026-01-10 23:46:39.30	349.78	10.13	-36.7	-38.1	26.3	7.69e-01	0	29	0	434634752	46	6930
2026-01-10 23:46:40.28	349.64	10.06	-35.7	-37.0	27.1	7.69e-01	0	29	0	436207616	46	6089
2026-01-10 23:46:41.26	349.50	10.00	-34.8	-36.0	28.0	7.69e-01	0	29	0	438304768	44	6091
2026-01-10 23:46:42.23	349.37	9.93	-35.6	-37.0	27.3	7.69e-01	0	29	0	439877632	44	6846
2026-01-10 23:46:43.21	349.23	9.86	-35.0	-36.2	28.1	7.69e-01	0	29	0	441974784	44	6244
2026-01-10 23:46:44.19	349.09	9.80	-35.1	-36.4	27.8	7.69e-01	0	29	0	443547648	44	6420
2026-01-10 23:46:45.16	348.96	9.73	-35.3	-36.6	27.4	7.69e-01	0	29	0	445644800	44	6547
2026-01-10 23:46:46.14	348.82	9.67	-34.5	-35.7	28.4	7.69e-01	0	29	0	447217664	44	5906
2026-01-10 23:46:47.12	348.69	9.60	-35.3	-36.6	27.6	7.69e-01	0	29	0	449314816	44	6563
2026-01-10 23:46:48.09	348.56	9.53	-35.2	-36.6	27.5	7.69e-01	0	29	0	450887680	44	6506
2026-01-10 23:46:49.07	348.43	9.47	-35.1	-36.4	27.9	7.69e-01	0	29	0	452984832	44	6362
2026-01-10 23:46:50.05	348.30	9.40	-36.0	-37.5	27.0	7.69e-01	0	29	0	454557696	46	6430
2026-01-10 23:46:51.02	348.17	9.34	-35.0	-36.3	27.7	7.69e-01	0	29	0	456654848	46	5636
2026-01-10 23:46:52.00	348.03	9.27	-34.9	-36.2	28.0	7.69e-01	0	29	0	458227712	44	6213
2026-01-10 23:46:52.98	347.91	9.21	-35.6	-37.0	27.3	7.69e-01	0	29	0	460324864	44	6815
2026-01-10 23:46:53.95	347.78	9.14	-34.8	-36.1	28.1	7.69e-01	0	29	0	461897728	44	6165
2026-01-10 23:46:54.93	347.65	9.08	-35.0	-36.2	27.9	7.69e-01	0	29	0	463994880	44	6274
2026-01-10 23:46:55.91	347.52	9.01	-35.5	-36.8	27.5	7.69e-01	0	29	0	465567744	44	6703
2026-01-10 23:46:56.89	347.39	8.95	-35.4	-36.7	27.7	7.69e-01	0	29	0	467664896	44	6611
2026-01-10 23:46:57.86	347.27	8.88	-35.5	-36.8	27.5	7.69e-01	0	29	0	469237760	44	6691
2026-01-10 23:46:58.84	347.14	8.81	-36.0	-37.4	27.1	7.69e-01	0	29	0	471334912	44	7202
2026-01-10 23:46:59.82	347.02	8.75	-35.6	-36.9	27.4	7.69e-01	0	29	0	472907776	46	6003
2026-01-10 23:47:00.80	346.89	8.68	-35.6	-36.9	27.4	7.69e-01	0	29	0	475004928	46	6008
2026-01-10 23:47:01.78	346.77	8.62	-35.8	-37.2	27.1	7.69e-01	0	29	0	476577792	46	6268
2026-01-10 23:47:02.76	346.64	8.55	-35.5	-36.8	27.3	7.69e-01	0	29	0	478674944	46	5962
2026-01-10 23:47:03.74	346.52	8.49	-35.3	-36.6	27.5	7.69e-01	0	29	0	480247808	46	5810
2026-01-10 23:47:04.71	346.40	8.43	-35.9	-37.3	27.1	7.69e-01	0	29	0	482344960	46	6332
2026-01-10 23:47:05.69	346.28	8.36	-35.4	-36.7	27.4	7.69e-01	0	29	0	483917824	46	5909
2026-01-10 23:47:06.67	346.16	8.30	-35.3	-36.6	27.6	7.69e-01	0	29	0	486014976	46	5821
2026-01-10 23:47:07.65	346.04	8.23	-36.0	-37.4	27.0	7.69e-01	0	29	0	487587840	46	6377
2026-01-10 23:47:08.63	345.92	8.17	-35.5	-36.9	27.3	7.69e-01	0	29	0	489684992	46	5996
2026-01-10 23:47:09.60	345.80	8.10	-35.3	-36.6	27.7	7.69e-01	0	29	0	491257856	46	5793
2026-01-10 23:47:10.58	345.68	8.04	-35.7	-37.1	27.4	7.69e-01	0	29	0	493355008	46	6142
2026-01-10 23:47:11.55	345.56	7.97	-35.8	-37.1	27.2	7.69e-01	0	29	0	494927872	46	6176
2026-01-10 23:47:12.53	345.45	7.91	-35.5	-36.8	27.5	7.69e-01	0	29	0	497025024	46	5958
2026-01-10 23:47:13.51	345.33	7.85	-35.6	-36.9	27.4	7.69e-01	0	29	0	498597888	46	6030
2026-01-10 23:47:14.49	345.21	7.78	-36.0	-37.4	26.9	7.69e-01	0	29	0	500695040	46	6357
2026-01-10 23:47:15.47	345.10	7.72	-35.3	-36.6	27.6	7.69e-01	0	29	0	502267904	46	5850
2026-01-10 23:47:16.45	344.98	7.65	-35.4	-36.7	27.5	7.69e-01	0	29	0	504365056	46	5912
2026-01-10 23:47:17.43	344.87	7.59	-35.9	-37.3	27.1	7.69e-01	0	29	0	505937920	46	6299
2026-01-10 23:47:18.40	344.75	7.53	-35.7	-37.1	27.2	7.69e-01	0	29	0	508035072	46	6166
2026-01-10 23:47:19.39	344.64	7.46	-35.6	-36.9	27.4	7.69e-01	0	29	0	509607936	46	6041
2026-01-10 23:47:20.36	344.53	7.40	-35.7	-37.1	27.3	7.69e-01	0	29	0	511705088	46	6168
2026-01-10 23:47:21.34	344.42	7.33	-35.7	-37.0	27.3	7.69e-01	0	29	0	513277952	46	6123
2026-01-10 23:47:22.31	344.30	7.27	-35.8	-37.1	27.2	7.69e-01	0	29	0	515375104	46	6186
2026-01-10 23:47:23.29	344.19	7.21	-35.6	-36.9	27.3	7.69e-01	0	29	0	516947968	46	6016
2026-01-10 23:47:24.27	344.08	7.14	-35.8	-37.2	27.1	7.69e-01	0	29	0	519045120	46	6233
2026-01-10 23:47:25.25	343.97	7.08	-36.0	-37.4	26.8	7.69e-01	0	29	0	520617984	46	6351
2026-01-10 23:47:26.22	343.86	7.02	-35.8	-37.2	27.0	7.69e-01	0	29	0	522715136	46	6210
2026-01-10 23:47:27.20	343.75	6.96	-35.8	-37.2	26.9	7.69e-01	0	29	0	524288000	46	6237
2026-01-10 23:47:28.18	343.65	6.89	-36.2	-37.6	26.7	7.69e-01	0	30	0	526385152	46	6516
2026-01-10 23:47:29.16	343.54	6.83	-35.9	-37.2	27.0	7.69e-01	0	29	0	527958016	46	6276
2026-01-10 23:47:30.13	343.43	6.77	-36.1	-37.4	26.8	7.69e-01	0	29	0	530055168	46	6414
2026-01-10 23:47:31.11	343.32	6.70	-35.9	-37.2	26.9	7.69e-01	0	29	0	531628032	46	6272
2026-01-10 23:47:32.09	343.22	6.64	-35.8	-37.2	26.9	7.69e-01	0	29	0	533725184	46	6251
2026-01-10 23:47:33.06	343.11	6.58	-35.9	-37.2	26.8	7.69e-01	0	29	0	535298048	46	6269
2026-01-10 23:47:34.04	343.01	6.52	-35.8	-37.2	27.0	7.69e-01	0	29	0	537395200	46	6208
2026-01-10 23:47:35.01	342.90	6.45	-35.9	-37.2	26.8	7.69e-01	0	29	0	538968064	46	6262
2026-01-10 23:47:35.99	342.80	6.39	-36.2	-37.6	26.4	7.69e-01	0	29	0	541065216	46	6537
2026-01-10 23:47:36.97	342.69	6.33	-36.3	-37.8	26.2	7.69e-01	0	29	0	542638080	46	6653
2026-01-10 23:47:37.94	342.59	6.27	-36.4	-37.8	26.2	7.69e-01	0	29	0	544735232	46	6719
2026-01-10 23:47:38.92	342.49	6.21	-36.8	-38.3	25.7	7.69e-01	0	29	0	546308096	46	7113
2026-01-10 23:47:39.90	342.39	6.14	-37.0	-38.6	25.3	7.69e-01	0	29	0	548405248	48	6511
2026-01-10 23:47:40.88	342.28	6.08	-37.1	-38.6	25.2	7.69e-01	0	29	0	549978112	48	6539
2026-01-10 23:47:41.85	342.18	6.02	-37.2	-38.8	25.1	7.69e-01	0	29	0	552075264	48	6651
2026-01-10 23:47:42.83	342.08	5.96	-37.3	-38.8	25.0	7.69e-01	0	29	0	553648128	48	6708
2026-01-10 23:47:43.81	341.98	5.90	-37.5	-39.1	24.5	7.69e-01	0	29	0	555745280	48	6899
2026-01-10 23:47:44.79	341.88	5.83	-37.6	-39.2	24.5	7.69e-01	0	30	0	557318144	48	7000
2026-01-10 23:47:45.76	341.78	5.77	-37.5	-39.1	24.5	7.69e-01	0	29	0	559415296	48	6917
2026-01-10 23:47:46.74	341.68	5.71	-37.8	-39.5	24.1	7.69e-01	0	29	0	560988160	48	7247
2026-01-10 23:47:47.72	341.59	5.65	-38.1	-39.8	23.7	7.69e-01	0	30	0	563085312	50	6688
2026-01-10 23:47:48.70	341.49	5.59	-38.3	-40.1	23.4	7.69e-01	0	30	0	564658176	50	6885
2026-01-10 23:47:49.68	341.39	5.53	-38.3	-40.1	23.3	7.69e-01	0	29	0	566755328	50	6958
2026-01-10 23:47:50.65	341.29	5.47	-38.6	-40.5	22.7	7.69e-01	0	29	0	568328192	50	7222
2026-01-10 23:47:51.63	341.20	5.41	-39.0	-41.0	22.1	7.69e-01	0	29	0	569901056	50	7656
2026-01-10 23:47:52.61	341.10	5.35	-39.3	-41.4	21.6	7.69e-01	0	30	0	571998208	52	7171
2026-01-10 23:47:53.58	341.00	5.28	-39.6	-41.9	21.0	7.69e-01	0	29	0	574095360	52	7548
2026-01-10 23:47:54.56	340.91	5.22	-39.7	-42.0	20.9	7.69e-01	0	29	0	575668224	52	7660
2026-01-10 23:47:55.54	340.81	5.16	-39.9	-42.4	20.5	7.69e-01	0	30	0	577765376	54	7138
2026-01-10 23:47:56.52	340.72	5.10	-40.2	-42.8	19.7	7.69e-01	0	30	0	579338240	54	7547
2026-01-10 23:47:57.50	340.63	5.04	-40.5	-43.3	19.1	7.69e-01	0	30	0	581435392	54	7926
2026-01-10 23:47:58.48	340.53	4.98	-40.6	-43.5	18.9	7.69e-01	0	30	0	583008256	54	8102
2026-01-10 23:47:59.45	340.44	4.92	-40.9	-44.0	18.2	7.69e-01	0	30	0	585105408	54	8626
2026-01-10 23:48:00.43	340.35	4.86	-41.2	-44.6	17.4	7.69e-01	0	30	0	586678272	56	8261
2026-01-10 23:48:01.41	340.25	4.80	-41.5	-45.2	16.8	7.69e-01	0	30	0	588775424	56	8835
2026-01-10 23:48:02.39	340.16	4.74	-41.7	-45.7	16.3	7.69e-01	0	30	0	590348288	56	9300
2026-01-10 23:48:03.37	340.07	4.68	-41.9	-46.1	15.8	7.69e-01	0	30	0	592445440	56	9791
2026-01-10 23:48:04.35	339.98	4.62	-42.1	-46.6	15.1	7.69e-01	0	30	0	594018304	58	9234
2026-01-10 23:48:05.33	339.89	4.56	-42.3	-47.1	14.6	7.69e-01	0	30	0	595591168	58	9762
2026-01-10 23:48:06.30	339.80	4.50	-42.4	-47.6	14.0	7.69e-01	0	30	0	597688320	58	10326
2026-01-10 23:48:07.28	339.71	4.44	-42.6	-48.1	13.5	7.69e-01	0	30	0	599261184	58	10966
2026-01-10 23:48:08.26	339.62	4.38	-42.7	-48.7	12.6	7.69e-01	0	30	0	601358336	58	11752
2026-01-10 23:48:09.24	339.53	4.32	-42.8	-49.2	11.8	7.69e-01	0	30	0	603455488	58	12508
2026-01-10 23:48:10.22	339.44	4.26	-42.8	-49.6	11.4	7.69e-01	0	30	0	605028352	58	13078
2026-01-10 23:48:11.20	339.35	4.20	-42.9	-50.2	10.6	7.69e-01	0	30	0	607125504	58	13894
2026-01-10 23:48:12.18	339.27	4.14	-43.1	-50.9	9.8	7.69e-01	0	30	0	608698368	60	13511
2026-01-10 23:48:13.16	339.18	4.08	-43.2	-51.4	9.1	7.69e-01	0	30	0	610795520	60	14271
2026-01-10 23:48:14.13	339.09	4.03	-43.2	-52.1	8.2	7.69e-01	27	30	0	612368384	60	15443
2026-01-10 23:48:15.11	339.01	3.97	-43.2	-52.7	7.6	7.69e-01	90	30	0	614465536	60	16544
2026-01-10 23:48:16.09	338.92	3.91	-43.3	-53.6	6.2	7.69e-01	92	30	0	616038400	60	18394
2026-01-10 23:48:17.07	338.83	3.85	-43.3	-55.6	4.0	7.69e-01	0	30	104	617611264	60	23092
2026-01-10 23:48:18.04	338.75	3.79	-43.3	-56.0	4.9	7.69e-01	0	30	0	617611264	60	24419
2026-01-10 23:48:19.02	338.66	3.73	-43.4	-57.3	4.4	7.69e-01	0	30	104	617611264	60	28288
2026-01-10 23:48:20.00	338.58	3.67	-43.3	-58.2	4.0	7.69e-01	0	30	104	617611264	60	31176
2026-01-10 23:48:20.97	338.50	3.61	-43.3	-58.9	3.6	7.69e-01	0	30	104	617611264	60	33952
2026-01-10 23:48:21.95	338.41	3.56	-43.3	-59.6	3.5	7.69e-01	0	30	104	617611264	60	36900
2026-01-10 23:48:22.93	338.33	3.50	-43.4	-59.5	3.5	7.69e-01	0	30	104	617611264	60	36163
2026-01-10 23:48:23.91	338.25	3.44	-43.4	-61.2	3.5	7.69e-01	0	30	104	617611264	60	44101
2026-01-10 23:48:24.88	338.16	3.38	-43.3	-61.0	3.5	7.69e-01	0	30	104	617611264	60	43410
2026-01-10 23:48:25.86	338.08	3.32	-43.5	-60.1	3.5	7.69e-01	0	30	104	617611264	60	38822
2026-01-10 23:48:26.84	338.00	3.27	-43.5	-60.2	3.5	7.69e-01	0	30	104	617611264	60	39374
2026-01-10 23:48:27.81	337.92	3.21	-43.5	-60.4	3.5	7.69e-01	0	30	104	617611264	60	40130
2026-01-10 23:48:28.79	337.84	3.15	-43.4	-60.6	3.5	7.69e-01	0	30	104	617611264	60	41288
2026-01-10 23:48:29.77	337.76	3.09	-43.4	-60.6	3.5	7.69e-01	0	30	104	617611264	60	41285
2026-01-10 23:48:30.75	337.68	3.03	-43.3	-60.9	3.5	7.69e-01	0	30	104	617611264	60	42679
2026-01-10 23:48:31.73	337.60	2.98	-43.5	-61.3	3.5	7.69e-01	0	30	104	617611264	60	44887
2026-01-10 23:48:32.70	337.52	2.92	-47.4	-65.2	3.5	7.69e-01	0	30	104	617611264	60	70424
2026-01-10 23:48:33.69	337.44	2.86	-47.8	-65.6	3.5	7.69e-01	0	30	104	617611264	60	73727
2026-01-10 23:48:34.66	337.36	2.80	-48.0	-65.9	3.5	7.69e-01	0	30	104	617611264	60	75612
2026-01-10 23:48:35.64	337.28	2.75	-48.1	-66.1	3.5	7.69e-01	0	30	104	617611264	60	77232
2026-01-10 23:48:36.62	337.20	2.69	-48.2	-66.1	3.5	7.69e-01	0	30	104	617611264	60	77871
2026-01-10 23:48:37.60	337.12	2.63	-48.2	-66.1	3.5	7.69e-01	0	30	104	617611264	60	78003
2026-01-10 23:48:38.57	337.05	2.58	-48.4	-66.3	3.5	7.69e-01	0	30	104	617611264	60	79329
2026-01-10 23:48:39.55	336.97	2.52	-48.3	-66.3	3.5	7.69e-01	0	30	104	617611264	60	79529
2026-01-10 23:48:40.53	336.89	2.46	-48.1	-66.3	3.5	7.69e-01	0	30	104	617611264	60	79162
2026-01-10 23:48:41.50	336.82	2.41	-48.3	-66.2	3.5	7.69e-01	0	30	104	617611264	60	78934
2026-01-10 23:48:42.47	336.74	2.35	-47.4	-66.1	3.5	7.69e-01	0	30	104	617611264	60	77900
2026-01-10 23:48:43.45	336.67	2.29	-48.0	-66.1	3.5	7.69e-01	0	30	104	617611264	60	77843
2026-01-10 23:48:44.43	336.59	2.24	-48.1	-66.0	3.5	7.69e-01	0	30	104	617611264	60	77039
2026-01-10 23:48:45.40	336.51	2.18	-47.9	-66.1	3.5	7.69e-01	0	30	104	617611264	60	77448
2026-01-10 23:48:46.38	336.44	2.12	-47.8	-66.1	3.5	7.69e-01	0	30	104	617611264	60	78076
2026-01-10 23:48:47.36	336.37	2.07	-48.2	-66.1	3.5	7.69e-01	0	30	104	617611264	60	77874
2026-01-10 23:48:48.33	336.29	2.01	-48.2	-66.0	3.5	7.69e-01	0	30	104	617611264	60	76964
2026-01-10 23:48:49.32	336.22	1.96	-48.2	-66.1	3.5	7.69e-01	0	30	104	617611264	60	77664
2026-01-10 23:48:50.29	336.14	1.90	-48.2	-66.1	3.5	7.69e-01	0	30	104	617611264	60	77499
2026-01-10 23:48:51.27	336.07	1.84	-48.2	-66.1	3.5	7.69e-01	0	30	104	617611264	60	77567
2026-01-10 23:48:52.25	336.00	1.79	-48.2	-66.1	3.5	7.69e-01	0	30	104	617611264	60	77902
2026-01-10 23:48:53.23	335.92	1.73	-48.2	-66.0	3.5	7.69e-01	0	30	104	617611264	60	77211
2026-01-10 23:48:54.20	335.85	1.68	-48.1	-66.0	3.5	7.69e-01	0	30	104	617611264	60	77103
2026-01-10 23:48:55.18	335.78	1.62	-48.2	-66.1	3.5	7.69e-01	0	30	104	617611264	60	77760
