passes_logs/2026/01/10/R4.6S_Anadyr/R4.6S_Anadyr__20260110_185830_FENGYUN_3D_rec.log

#Pass ID: 20260110_185830_FENGYUN 3D
#Satellite: FENGYUN 3D
#Configuration: FENGYUN 3D
#almurnet v.1.7.20251203
#Start time: 2026-01-10 18:58:32

#Version: 2.2.20231116
#Station: R4.6S_Anadyr
#Location: 177.4865 lon 64.73178 lat
#TLE: 1 43010U 17072A   26009.92921666 -.00000228  00000+0 -86059-4 0  9998
#TLE: 2 43010  98.9936 341.6668 0002176 116.7510 243.3888 14.19693142422537

#Time	Az	El	Level	Level2	SNR	BER	BlckErr	Temp	State	Recorded	gain1	gain2
2026-01-10 18:58:32.07	29.10	0.10	-48.1	-63.0	3.5	1.51e+00	0	27	0	0	60	51345
2026-01-10 18:58:33.07	29.05	0.15	-48.1	-60.2	3.6	8.46e-01	0	28	104	0	60	37018
2026-01-10 18:58:34.08	29.00	0.21	-48.0	-60.2	3.6	8.44e-01	0	28	104	0	60	36870
2026-01-10 18:58:35.09	28.96	0.26	-48.0	-60.1	3.6	8.45e-01	0	28	104	0	60	36771
2026-01-10 18:58:36.10	28.91	0.32	-48.1	-60.3	3.6	8.46e-01	0	28	104	0	60	37335
2026-01-10 18:58:37.11	28.86	0.38	-48.2	-60.3	3.6	8.45e-01	0	28	104	0	60	37462
2026-01-10 18:58:38.12	28.81	0.43	-48.2	-60.3	3.6	8.46e-01	0	28	104	0	60	37272
2026-01-10 18:58:39.13	28.75	0.49	-48.2	-60.3	3.6	8.45e-01	0	28	104	0	60	37230
2026-01-10 18:58:40.14	28.70	0.55	-48.1	-60.2	3.6	8.45e-01	0	28	104	0	60	37058
2026-01-10 18:58:41.15	28.65	0.60	-48.1	-60.2	3.6	8.45e-01	0	28	104	0	60	37035
2026-01-10 18:58:42.16	28.60	0.66	-48.0	-60.1	3.6	8.46e-01	0	28	104	0	60	36770
2026-01-10 18:58:43.17	28.55	0.72	-47.9	-60.0	3.6	8.44e-01	0	28	104	0	60	36070
2026-01-10 18:58:44.18	28.50	0.77	-47.8	-59.9	3.6	8.45e-01	0	28	104	0	60	35617
2026-01-10 18:58:45.19	28.45	0.83	-47.7	-59.7	3.6	8.45e-01	0	28	104	0	60	35076
2026-01-10 18:58:46.20	28.40	0.89	-47.5	-59.6	3.6	8.45e-01	0	28	104	0	60	34337
2026-01-10 18:58:47.21	28.34	0.94	-47.3	-59.4	3.5	8.46e-01	0	28	104	0	60	33623
2026-01-10 18:58:48.22	28.29	1.00	-47.0	-59.0	3.6	8.45e-01	0	28	104	0	60	32206
2026-01-10 18:58:49.23	28.24	1.06	-46.5	-58.5	3.6	8.45e-01	0	29	104	0	60	30491
2026-01-10 18:58:50.24	28.19	1.12	-46.5	-58.5	3.6	8.45e-01	0	28	104	0	60	30262
2026-01-10 18:58:51.25	28.13	1.17	-46.5	-58.4	3.6	8.45e-01	0	29	104	0	60	30210
2026-01-10 18:58:52.26	28.08	1.23	-46.5	-58.5	3.6	8.47e-01	0	29	104	0	60	30305
2026-01-10 18:58:53.27	28.03	1.29	-46.5	-58.5	3.6	8.45e-01	0	29	104	0	60	30528
2026-01-10 18:58:54.28	27.97	1.35	-46.5	-58.5	3.5	8.46e-01	0	29	104	0	60	30313
2026-01-10 18:58:55.29	27.92	1.40	-46.5	-58.5	3.6	8.46e-01	0	29	104	0	60	30256
2026-01-10 18:58:56.29	27.87	1.46	-46.5	-58.5	3.6	8.46e-01	0	29	104	0	60	30470
2026-01-10 18:58:57.31	27.81	1.52	-46.5	-58.5	3.6	8.44e-01	0	29	104	0	60	30514
2026-01-10 18:58:58.31	27.76	1.58	-46.5	-58.5	3.6	8.45e-01	0	29	104	0	60	30467
2026-01-10 18:58:59.32	27.70	1.64	-46.5	-58.5	3.6	8.46e-01	0	29	104	0	60	30484
2026-01-10 18:59:00.34	27.65	1.70	-46.5	-58.5	3.6	8.44e-01	0	29	104	0	60	30505
2026-01-10 18:59:01.35	27.59	1.75	-46.5	-58.6	3.6	8.45e-01	0	29	104	0	60	30628
2026-01-10 18:59:02.35	27.54	1.81	-46.5	-58.6	3.6	8.45e-01	0	29	104	0	60	30646
2026-01-10 18:59:03.36	27.48	1.87	-46.5	-58.6	3.6	8.45e-01	0	29	104	0	60	30596
2026-01-10 18:59:04.37	27.43	1.93	-46.5	-58.5	3.6	8.43e-01	0	29	104	0	60	30488
2026-01-10 18:59:05.38	27.37	1.99	-46.5	-58.4	3.6	8.45e-01	0	29	104	0	60	29941
2026-01-10 18:59:06.39	27.31	2.05	-46.5	-58.2	3.6	8.46e-01	0	29	104	0	60	29238
2026-01-10 18:59:07.40	27.26	2.11	-46.5	-58.1	3.6	8.45e-01	0	29	104	0	60	28901
2026-01-10 18:59:08.41	27.20	2.16	-46.4	-58.0	3.6	8.45e-01	0	29	104	0	60	28646
2026-01-10 18:59:09.42	27.14	2.22	-46.4	-58.0	3.6	8.46e-01	0	29	104	0	60	28704
2026-01-10 18:59:10.43	27.09	2.28	-46.4	-58.1	3.6	8.46e-01	0	29	104	0	60	29168
2026-01-10 18:59:11.44	27.03	2.34	-46.5	-58.5	3.6	8.45e-01	0	29	104	0	60	30339
2026-01-10 18:59:12.45	26.97	2.40	-46.5	-58.5	3.6	8.45e-01	0	29	104	0	60	30446
2026-01-10 18:59:13.46	26.91	2.46	-46.5	-58.5	3.6	8.45e-01	0	29	104	0	60	30465
2026-01-10 18:59:14.47	26.85	2.52	-46.5	-58.4	3.6	8.46e-01	0	29	104	0	60	30059
2026-01-10 18:59:15.48	26.80	2.58	-46.5	-58.5	3.6	8.46e-01	0	29	104	0	60	30276
2026-01-10 18:59:16.49	26.74	2.64	-46.5	-58.4	3.6	8.45e-01	0	29	104	0	60	30220
2026-01-10 18:59:17.50	26.68	2.70	-46.4	-58.3	3.6	8.45e-01	0	29	104	0	60	29625
2026-01-10 18:59:18.50	26.62	2.76	-46.4	-57.8	3.6	8.45e-01	0	29	104	0	60	28205
2026-01-10 18:59:19.51	26.56	2.82	-46.4	-57.3	3.6	8.45e-01	0	29	104	0	60	26591
2026-01-10 18:59:20.52	26.50	2.88	-46.4	-57.3	3.6	8.44e-01	0	29	104	0	60	26543
2026-01-10 18:59:21.53	26.44	2.94	-46.4	-57.7	3.6	8.45e-01	0	29	104	0	60	27630
2026-01-10 18:59:22.54	26.38	3.00	-46.5	-58.5	3.6	8.45e-01	0	29	104	0	60	30284
2026-01-10 18:59:23.55	26.32	3.06	-46.4	-57.4	3.6	8.45e-01	0	29	104	0	60	26656
2026-01-10 18:59:24.56	26.26	3.12	-45.8	-53.4	4.9	8.41e-01	0	29	104	0	60	16893
2026-01-10 18:59:25.57	26.20	3.18	-45.0	-49.4	7.5	1.62e-01	0	29	0	2097152	60	10691
2026-01-10 18:59:26.58	26.13	3.24	-43.6	-46.7	10.6	1.11e-02	0	29	0	7340032	60	7794
2026-01-10 18:59:27.59	26.07	3.30	-42.2	-44.4	12.9	1.79e-04	0	29	0	13631488	58	6744
2026-01-10 18:59:28.60	26.01	3.37	-41.5	-43.4	14.2	1.02e-05	0	29	0	18874368	56	6768
2026-01-10 18:59:29.61	25.95	3.43	-41.0	-42.8	14.6	0.00e+00	0	29	0	25165824	56	6274
2026-01-10 18:59:30.62	25.89	3.49	-42.6	-45.0	11.5	3.66e-05	0	29	0	30408704	56	8076
2026-01-10 18:59:31.63	25.82	3.55	-37.3	-38.3	20.3	3.12e-03	0	29	0	36700160	50	5256
2026-01-10 18:59:32.64	25.76	3.61	-45.8	-53.0	3.4	1.10e-06	0	29	0	41943040	56	20337
2026-01-10 18:59:33.65	25.70	3.67	-44.3	-48.1	5.3	8.44e-01	0	29	104	41943040	60	9175
2026-01-10 18:59:34.66	25.63	3.73	-37.2	-38.2	19.1	0.00e+00	0	29	0	41943040	48	5873
2026-01-10 18:59:35.67	25.57	3.80	-38.0	-39.1	18.6	0.00e+00	0	29	0	47185920	50	5823
2026-01-10 18:59:36.68	25.50	3.86	-36.9	-37.8	19.8	0.00e+00	0	29	0	53477376	48	5617
2026-01-10 18:59:37.69	25.44	3.92	-36.5	-37.4	20.4	0.00e+00	0	29	0	58720256	46	6006
2026-01-10 18:59:38.70	25.37	3.98	-35.6	-36.5	21.3	0.00e+00	0	29	0	65011712	44	6068
2026-01-10 18:59:39.71	25.31	4.04	-34.8	-35.6	22.0	0.00e+00	0	29	0	70254592	44	5450
2026-01-10 18:59:40.72	25.24	4.11	-34.9	-35.7	21.9	0.00e+00	0	29	0	75497472	44	5563
2026-01-10 18:59:41.73	25.18	4.17	-34.7	-35.5	22.1	0.00e+00	0	29	0	81788928	42	6079
2026-01-10 18:59:42.74	25.11	4.23	-34.9	-35.7	22.0	0.00e+00	0	29	0	87031808	42	6196
2026-01-10 18:59:43.75	25.05	4.29	-34.8	-35.6	22.1	0.00e+00	0	29	0	93323264	42	6145
2026-01-10 18:59:44.76	24.98	4.36	-34.6	-35.4	22.3	0.00e+00	0	29	0	98566144	42	6022
2026-01-10 18:59:45.77	24.91	4.42	-34.5	-35.3	22.5	0.00e+00	0	29	0	103809024	42	5900
2026-01-10 18:59:46.78	24.84	4.48	-34.7	-35.4	22.3	0.00e+00	0	29	0	110100480	42	6020
2026-01-10 18:59:47.79	24.78	4.54	-34.6	-35.3	22.4	0.00e+00	0	29	0	115343360	42	5949
2026-01-10 18:59:48.80	24.71	4.61	-34.4	-35.2	22.5	0.00e+00	0	29	0	121634816	42	5860
2026-01-10 18:59:49.81	24.64	4.67	-34.7	-35.5	22.3	0.00e+00	0	29	0	126877696	42	6053
2026-01-10 18:59:50.82	24.57	4.73	-34.3	-35.1	22.6	0.00e+00	0	29	0	133169152	42	5791
2026-01-10 18:59:51.83	24.50	4.80	-34.3	-35.1	22.7	0.00e+00	0	29	0	138412032	42	5771
2026-01-10 18:59:52.84	24.43	4.86	-34.1	-34.8	22.8	0.00e+00	0	29	0	144703488	42	5612
2026-01-10 18:59:53.85	24.37	4.93	-34.3	-35.1	22.7	0.00e+00	0	29	0	149946368	42	5804
2026-01-10 18:59:54.86	24.30	4.99	-34.1	-34.9	22.9	0.00e+00	0	29	0	155189248	42	5665
2026-01-10 18:59:55.87	24.23	5.05	-34.2	-34.9	22.9	0.00e+00	0	29	0	161480704	42	5673
2026-01-10 18:59:56.87	24.16	5.12	-34.1	-34.9	22.9	0.00e+00	0	29	0	166723584	42	5656
2026-01-10 18:59:57.88	24.09	5.18	-34.2	-34.9	22.9	0.00e+00	0	29	0	173015040	42	5664
2026-01-10 18:59:58.89	24.01	5.24	-34.3	-35.1	22.8	0.00e+00	0	29	0	178257920	42	5763
2026-01-10 18:59:59.90	23.94	5.31	-34.2	-34.9	23.0	0.00e+00	0	29	0	183500800	42	5683
2026-01-10 19:00:00.91	23.87	5.37	-34.2	-35.0	22.9	0.00e+00	0	29	0	189792256	42	5705
2026-01-10 19:00:01.92	23.80	5.44	-34.3	-35.0	22.9	0.00e+00	0	29	0	195035136	42	5756
2026-01-10 19:00:02.93	23.73	5.50	-34.5	-35.3	22.6	0.00e+00	0	29	0	200278016	42	5948
2026-01-10 19:00:03.94	23.65	5.57	-34.6	-35.3	22.6	0.00e+00	0	29	0	206569472	42	5953
2026-01-10 19:00:04.95	23.58	5.63	-34.0	-34.7	23.1	0.00e+00	0	29	0	211812352	42	5565
2026-01-10 19:00:05.96	23.51	5.70	-34.3	-35.0	22.8	0.00e+00	0	29	0	218103808	42	5751
2026-01-10 19:00:06.97	23.43	5.76	-33.9	-34.7	23.2	0.00e+00	0	29	0	223346688	42	5505
2026-01-10 19:00:07.98	23.36	5.83	-34.3	-35.1	22.8	0.00e+00	0	29	0	229638144	42	5793
2026-01-10 19:00:08.99	23.28	5.89	-34.1	-34.9	23.0	0.00e+00	0	29	0	234881024	42	5653
2026-01-10 19:00:10.00	23.21	5.96	-34.3	-35.1	22.9	0.00e+00	0	29	0	241172480	42	5763
2026-01-10 19:00:11.01	23.13	6.02	-34.1	-34.8	23.1	0.00e+00	0	29	0	246415360	42	5607
2026-01-10 19:00:12.02	23.06	6.09	-34.1	-34.9	23.0	0.00e+00	0	29	0	251658240	42	5662
2026-01-10 19:00:13.03	22.98	6.16	-34.2	-34.9	23.0	0.00e+00	0	29	0	257949696	42	5678
2026-01-10 19:00:14.04	22.91	6.22	-34.0	-34.7	23.2	0.00e+00	0	29	0	263192576	42	5558
2026-01-10 19:00:15.05	22.83	6.29	-34.0	-34.8	23.2	0.00e+00	0	29	0	269484032	42	5577
2026-01-10 19:00:16.06	22.75	6.35	-34.0	-34.7	23.2	0.00e+00	0	29	0	274726912	42	5565
2026-01-10 19:00:17.07	22.68	6.42	-33.9	-34.7	23.3	0.00e+00	0	29	0	279969792	42	5513
2026-01-10 19:00:18.08	22.60	6.49	-34.1	-34.9	23.2	0.00e+00	0	29	0	286261248	42	5642
2026-01-10 19:00:19.09	22.52	6.55	-34.1	-34.8	23.1	0.00e+00	0	29	0	291504128	42	5615
2026-01-10 19:00:20.10	22.44	6.62	-33.8	-34.5	23.4	0.00e+00	0	29	0	297795584	40	6076
2026-01-10 19:00:21.11	22.36	6.69	-33.9	-34.6	23.3	0.00e+00	0	29	0	303038464	40	6122
2026-01-10 19:00:22.12	22.28	6.75	-33.9	-34.6	23.3	0.00e+00	0	29	0	308281344	40	6140
2026-01-10 19:00:23.13	22.20	6.82	-33.9	-34.6	23.3	0.00e+00	0	29	0	314572800	40	6165
2026-01-10 19:00:24.14	22.12	6.89	-33.9	-34.7	23.4	0.00e+00	0	29	0	319815680	40	6188
2026-01-10 19:00:25.15	22.04	6.96	-34.0	-34.7	23.2	0.00e+00	0	29	0	326107136	40	6192
2026-01-10 19:00:26.16	21.96	7.02	-33.9	-34.6	23.5	0.00e+00	0	29	0	331350016	40	6164
2026-01-10 19:00:27.17	21.88	7.09	-33.9	-34.6	23.3	0.00e+00	0	29	0	337641472	40	6163
2026-01-10 19:00:28.18	21.80	7.16	-33.9	-34.6	23.4	0.00e+00	0	29	0	342884352	40	6124
2026-01-10 19:00:29.19	21.72	7.23	-33.9	-34.7	23.4	0.00e+00	0	29	0	349175808	40	6191
2026-01-10 19:00:30.20	21.64	7.29	-33.8	-34.6	23.5	0.00e+00	0	29	0	354418688	40	6105
2026-01-10 19:00:31.21	21.55	7.36	-33.7	-34.4	23.6	0.00e+00	0	29	0	359661568	40	6030
2026-01-10 19:00:32.23	21.47	7.43	-33.8	-34.6	23.5	0.00e+00	0	29	0	365953024	40	6108
2026-01-10 19:00:33.24	21.39	7.50	-33.7	-34.4	23.6	0.00e+00	0	29	0	371195904	40	6019
2026-01-10 19:00:34.25	21.30	7.57	-33.6	-34.3	23.7	0.00e+00	0	29	0	377487360	40	5962
2026-01-10 19:00:35.26	21.22	7.64	-33.7	-34.4	23.6	0.00e+00	0	29	0	382730240	40	6013
2026-01-10 19:00:36.27	21.13	7.70	-33.7	-34.4	23.6	0.00e+00	0	29	0	387973120	40	5988
2026-01-10 19:00:37.28	21.05	7.77	-33.9	-34.6	23.5	0.00e+00	0	29	0	394264576	40	6148
2026-01-10 19:00:38.29	20.96	7.84	-33.7	-34.4	23.6	0.00e+00	0	29	0	399507456	40	5987
2026-01-10 19:00:39.30	20.88	7.91	-33.8	-34.5	23.5	0.00e+00	0	29	0	405798912	40	6059
2026-01-10 19:00:40.31	20.79	7.98	-33.6	-34.3	23.7	0.00e+00	0	29	0	411041792	40	5931
2026-01-10 19:00:41.32	20.70	8.05	-33.6	-34.3	23.7	0.00e+00	0	29	0	416284672	40	5949
2026-01-10 19:00:42.33	20.61	8.12	-33.5	-34.3	23.7	0.00e+00	0	29	0	422576128	40	5920
2026-01-10 19:00:43.34	20.53	8.19	-33.6	-34.3	23.7	0.00e+00	0	29	0	427819008	40	5953
2026-01-10 19:00:44.35	20.44	8.26	-33.5	-34.3	23.8	0.00e+00	0	29	0	434110464	40	5901
2026-01-10 19:00:45.36	20.35	8.33	-33.5	-34.3	23.9	0.00e+00	0	29	0	439353344	40	5908
2026-01-10 19:00:46.36	20.26	8.40	-33.5	-34.2	23.8	0.00e+00	0	29	0	445644800	40	5889
2026-01-10 19:00:47.38	20.17	8.47	-33.5	-34.2	23.9	0.00e+00	0	29	0	450887680	40	5843
2026-01-10 19:00:48.39	20.08	8.54	-33.5	-34.2	23.9	0.00e+00	0	29	0	457179136	40	5877
2026-01-10 19:00:49.40	19.99	8.61	-33.3	-34.0	24.1	0.00e+00	0	29	0	462422016	40	5702
2026-01-10 19:00:50.41	19.90	8.68	-33.2	-33.9	24.2	0.00e+00	0	29	0	467664896	40	5648
2026-01-10 19:00:51.42	19.81	8.75	-33.0	-33.8	24.3	0.00e+00	0	29	0	473956352	40	5567
2026-01-10 19:00:52.43	19.72	8.82	-33.0	-33.7	24.4	0.00e+00	0	29	0	479199232	40	5539
2026-01-10 19:00:53.44	19.62	8.89	-33.1	-33.8	24.3	0.00e+00	0	29	0	485490688	40	5597
2026-01-10 19:00:54.45	19.53	8.96	-33.1	-33.8	24.2	0.00e+00	0	29	0	490733568	40	5613
2026-01-10 19:00:55.46	19.44	9.03	-33.0	-33.7	24.3	0.00e+00	0	29	0	495976448	40	5558
2026-01-10 19:00:56.47	19.34	9.10	-33.1	-33.8	24.3	0.00e+00	0	29	0	502267904	40	5583
2026-01-10 19:00:57.48	19.25	9.18	-33.1	-33.8	24.4	0.00e+00	0	29	0	507510784	40	5578
2026-01-10 19:00:58.49	19.16	9.25	-33.0	-33.7	24.4	0.00e+00	0	29	0	513802240	40	5558
2026-01-10 19:00:59.50	19.06	9.32	-33.1	-33.8	24.3	0.00e+00	0	29	0	519045120	40	5587
2026-01-10 19:01:00.51	18.96	9.39	-33.0	-33.7	24.4	0.00e+00	0	29	0	524288000	40	5507
2026-01-10 19:01:01.52	18.87	9.46	-33.1	-33.7	24.3	0.00e+00	0	29	0	530579456	40	5565
2026-01-10 19:01:02.53	18.77	9.53	-33.1	-33.7	24.3	0.00e+00	0	29	0	535822336	40	5564
2026-01-10 19:01:03.54	18.67	9.61	-33.0	-33.7	24.4	0.00e+00	0	29	0	542113792	40	5560
2026-01-10 19:01:04.55	18.58	9.68	-33.0	-33.7	24.4	0.00e+00	0	29	0	547356672	40	5526
2026-01-10 19:01:05.56	18.48	9.75	-32.9	-33.7	24.4	0.00e+00	0	29	0	553648128	40	5514
2026-01-10 19:01:06.57	18.38	9.82	-33.0	-33.7	24.3	0.00e+00	0	29	0	558891008	40	5547
2026-01-10 19:01:07.58	18.28	9.89	-32.8	-33.5	24.5	0.00e+00	0	29	0	564133888	40	5420
2026-01-10 19:01:08.59	18.18	9.97	-33.0	-33.7	24.4	0.00e+00	0	29	0	570425344	40	5506
2026-01-10 19:01:09.59	18.08	10.04	-33.0	-33.7	24.5	0.00e+00	0	29	0	575668224	40	5504
2026-01-10 19:01:10.60	17.98	10.11	-32.8	-33.5	24.6	0.00e+00	0	29	0	581959680	40	5400
2026-01-10 19:01:11.62	17.88	10.19	-32.8	-33.5	24.6	0.00e+00	0	29	0	587202560	40	5396
2026-01-10 19:01:12.63	17.78	10.26	-32.8	-33.5	24.7	0.00e+00	0	29	0	592445440	38	6044
2026-01-10 19:01:13.64	17.67	10.33	-32.6	-33.3	24.8	0.00e+00	0	29	0	598736896	38	5960
2026-01-10 19:01:14.65	17.57	10.41	-32.6	-33.3	24.9	0.00e+00	0	29	0	603979776	38	5912
2026-01-10 19:01:15.66	17.47	10.48	-32.6	-33.3	24.9	0.00e+00	0	29	0	610271232	38	5939
2026-01-10 19:01:16.67	17.36	10.55	-32.5	-33.2	24.9	0.00e+00	0	29	0	615514112	38	5887
2026-01-10 19:01:17.68	17.26	10.63	-32.6	-33.3	24.8	0.00e+00	0	29	0	620756992	38	5913
2026-01-10 19:01:18.69	17.16	10.70	-32.5	-33.1	24.9	0.00e+00	0	29	0	627048448	38	5810
2026-01-10 19:01:19.70	17.05	10.78	-32.7	-33.4	24.8	0.00e+00	0	29	0	632291328	38	6009
2026-01-10 19:01:20.71	16.94	10.85	-32.7	-33.4	24.7	0.00e+00	0	29	0	638582784	38	5967
2026-01-10 19:01:21.72	16.84	10.92	-32.5	-33.1	25.0	0.00e+00	0	29	0	643825664	38	5812
2026-01-10 19:01:22.73	16.73	11.00	-32.4	-33.1	25.0	0.00e+00	0	29	0	650117120	38	5764
2026-01-10 19:01:23.74	16.62	11.07	-32.4	-33.1	25.1	0.00e+00	0	29	0	655360000	38	5783
2026-01-10 19:01:24.75	16.51	11.15	-32.3	-33.0	25.2	0.00e+00	0	29	0	661651456	38	5728
2026-01-10 19:01:25.76	16.40	11.22	-32.4	-33.0	25.0	0.00e+00	0	29	0	666894336	38	5756
2026-01-10 19:01:26.77	16.30	11.30	-32.4	-33.1	25.1	0.00e+00	0	29	0	672137216	38	5763
2026-01-10 19:01:27.78	16.19	11.37	-32.4	-33.1	25.1	0.00e+00	0	29	0	678428672	38	5770
2026-01-10 19:01:28.79	16.07	11.45	-32.5	-33.2	25.0	0.00e+00	0	29	0	683671552	38	5851
2026-01-10 19:01:29.80	15.96	11.52	-32.5	-33.2	24.9	0.00e+00	0	29	0	689963008	38	5857
2026-01-10 19:01:30.81	15.85	11.60	-32.7	-33.3	24.8	0.00e+00	0	29	0	695205888	38	5961
2026-01-10 19:01:31.82	15.74	11.67	-32.7	-33.4	24.8	0.00e+00	0	29	0	700448768	38	6002
2026-01-10 19:01:32.83	15.63	11.75	-32.8	-33.5	24.7	0.00e+00	0	29	0	706740224	38	6047
2026-01-10 19:01:33.84	15.51	11.83	-32.4	-33.1	25.1	0.00e+00	0	29	0	711983104	38	5805
2026-01-10 19:01:34.85	15.40	11.90	-32.6	-33.3	25.0	0.00e+00	0	29	0	718274560	38	5916
2026-01-10 19:01:35.86	15.28	11.98	-32.4	-33.1	24.9	0.00e+00	0	29	0	723517440	38	5818
2026-01-10 19:01:36.87	15.17	12.05	-32.6	-33.2	25.0	0.00e+00	0	29	0	728760320	38	5888
2026-01-10 19:01:37.88	15.05	12.13	-32.3	-33.0	25.2	0.00e+00	0	29	0	735051776	38	5723
2026-01-10 19:01:38.89	14.93	12.21	-32.4	-33.1	25.1	0.00e+00	0	29	0	740294656	38	5800
2026-01-10 19:01:39.90	14.82	12.28	-32.5	-33.2	25.0	0.00e+00	0	29	0	746586112	38	5849
2026-01-10 19:01:40.91	14.70	12.36	-32.6	-33.4	24.9	0.00e+00	0	29	0	751828992	38	5971
2026-01-10 19:01:41.92	14.58	12.44	-32.4	-33.1	25.1	0.00e+00	0	29	0	758120448	38	5781
2026-01-10 19:01:42.93	14.46	12.51	-32.3	-33.0	25.2	0.00e+00	0	29	0	763363328	38	5730
2026-01-10 19:01:43.94	14.34	12.59	-32.4	-33.1	25.2	0.00e+00	0	29	0	769654784	38	5776
2026-01-10 19:01:44.95	14.22	12.67	-32.2	-32.9	25.3	0.00e+00	0	29	0	774897664	38	5644
2026-01-10 19:01:45.96	14.10	12.75	-32.2	-32.9	25.3	0.00e+00	0	29	0	780140544	38	5666
2026-01-10 19:01:46.97	13.98	12.82	-32.0	-32.7	25.4	0.00e+00	0	29	0	786432000	38	5544
2026-01-10 19:01:47.98	13.86	12.90	-32.0	-32.7	25.5	0.00e+00	0	29	0	791674880	38	5506
2026-01-10 19:01:48.99	13.73	12.98	-32.2	-32.8	25.4	0.00e+00	0	29	0	797966336	38	5624
2026-01-10 19:01:50.00	13.61	13.06	-32.0	-32.7	25.5	0.00e+00	0	29	0	803209216	38	5537
2026-01-10 19:01:51.02	13.48	13.13	-32.0	-32.7	25.5	0.00e+00	0	29	0	808452096	38	5518
2026-01-10 19:01:52.03	13.36	13.21	-32.1	-32.8	25.4	0.00e+00	0	29	0	814743552	38	5591
2026-01-10 19:01:53.04	13.23	13.29	-32.1	-32.7	25.4	0.00e+00	0	29	0	819986432	38	5559
2026-01-10 19:01:54.05	13.11	13.37	-31.9	-32.6	25.5	0.00e+00	0	29	0	826277888	38	5487
2026-01-10 19:01:55.06	12.98	13.45	-31.8	-32.5	25.6	0.00e+00	0	29	0	831520768	38	5422
2026-01-10 19:01:56.06	12.85	13.52	-31.9	-32.5	25.7	0.00e+00	0	29	0	836763648	38	5427
2026-01-10 19:01:57.08	12.72	13.60	-31.8	-32.5	25.7	0.00e+00	0	29	0	843055104	38	5379
2026-01-10 19:01:58.09	12.59	13.68	-31.8	-32.5	25.6	0.00e+00	0	29	0	848297984	38	5419
2026-01-10 19:01:59.10	12.46	13.76	-31.8	-32.5	25.7	0.00e+00	0	29	0	854589440	38	5403
2026-01-10 19:02:00.11	12.33	13.84	-32.0	-32.7	25.5	0.00e+00	0	29	0	859832320	38	5512
2026-01-10 19:02:01.12	12.20	13.92	-31.8	-32.4	25.7	0.00e+00	0	29	0	866123776	36	6030
2026-01-10 19:02:02.13	12.07	14.00	-31.8	-32.5	25.7	0.00e+00	0	29	0	871366656	36	6052
2026-01-10 19:02:03.14	11.93	14.08	-31.6	-32.2	25.9	0.00e+00	0	29	0	877658112	36	5874
2026-01-10 19:02:04.15	11.80	14.16	-31.6	-32.3	25.8	0.00e+00	0	29	0	882900992	36	5939
2026-01-10 19:02:05.16	11.67	14.23	-31.4	-32.1	26.1	0.00e+00	0	29	0	888143872	36	5767
2026-01-10 19:02:06.17	11.53	14.31	-31.4	-32.0	26.1	0.00e+00	0	29	0	894435328	36	5748
2026-01-10 19:02:07.18	11.40	14.39	-31.6	-32.2	25.9	0.00e+00	0	29	0	899678208	36	5885
2026-01-10 19:02:08.19	11.26	14.47	-31.3	-31.9	26.2	0.00e+00	0	29	0	905969664	36	5665
2026-01-10 19:02:09.20	11.12	14.55	-31.3	-32.0	26.1	0.00e+00	0	29	0	911212544	36	5728
2026-01-10 19:02:10.21	10.98	14.63	-31.4	-32.0	26.1	0.00e+00	0	29	0	916455424	36	5750
2026-01-10 19:02:11.22	10.84	14.71	-31.5	-32.1	26.0	0.00e+00	0	29	0	922746880	36	5788
2026-01-10 19:02:12.23	10.70	14.79	-31.5	-32.1	25.9	0.00e+00	0	29	0	927989760	36	5819
2026-01-10 19:02:13.24	10.56	14.87	-31.4	-32.0	26.2	0.00e+00	0	29	0	934281216	36	5741
2026-01-10 19:02:14.25	10.42	14.95	-31.5	-32.1	26.1	0.00e+00	0	29	0	939524096	36	5803
2026-01-10 19:02:15.26	10.28	15.03	-31.3	-32.0	26.1	0.00e+00	0	29	0	944766976	36	5700
2026-01-10 19:02:16.27	10.14	15.11	-31.4	-32.1	26.1	0.00e+00	0	29	0	951058432	36	5787
2026-01-10 19:02:17.28	9.99	15.19	-31.4	-32.1	26.1	0.00e+00	0	29	0	956301312	36	5766
2026-01-10 19:02:18.29	9.85	15.27	-31.4	-32.0	26.2	0.00e+00	0	29	0	962592768	36	5734
2026-01-10 19:02:19.30	9.71	15.36	-31.5	-32.1	26.1	0.00e+00	0	29	0	967835648	36	5809
2026-01-10 19:02:20.31	9.56	15.44	-31.1	-31.8	26.3	0.00e+00	0	29	0	974127104	36	5597
2026-01-10 19:02:21.32	9.41	15.52	-31.3	-31.9	26.1	0.00e+00	0	29	0	979369984	36	5688
2026-01-10 19:02:22.33	9.26	15.60	-31.3	-31.9	26.2	0.00e+00	0	29	0	985661440	36	5694
2026-01-10 19:02:23.34	9.12	15.68	-31.2	-31.8	26.3	0.00e+00	0	29	0	990904320	36	5625
2026-01-10 19:02:24.35	8.97	15.76	-31.2	-31.9	26.3	0.00e+00	0	29	0	996147200	36	5643
2026-01-10 19:02:25.36	8.82	15.84	-31.2	-31.8	26.3	0.00e+00	0	29	0	1002438656	36	5609
2026-01-10 19:02:26.38	8.66	15.92	-31.0	-31.7	26.4	0.00e+00	0	29	0	1007681536	36	5524
2026-01-10 19:02:27.39	8.51	16.00	-31.0	-31.6	26.5	0.00e+00	0	29	0	1013972992	36	5496
2026-01-10 19:02:28.40	8.36	16.08	-31.1	-31.7	26.4	0.00e+00	0	29	0	1019215872	36	5540
2026-01-10 19:02:29.41	8.21	16.17	-31.1	-31.7	26.4	0.00e+00	0	29	0	1024458752	36	5550
2026-01-10 19:02:30.42	8.05	16.25	-31.1	-31.8	26.4	0.00e+00	0	29	0	1030750208	36	5573
2026-01-10 19:02:31.43	7.90	16.33	-31.2	-31.9	26.3	0.00e+00	0	29	0	1035993088	36	5635
2026-01-10 19:02:32.44	7.74	16.41	-31.1	-31.8	26.4	0.00e+00	0	29	0	1042284544	36	5587
2026-01-10 19:02:33.45	7.58	16.49	-31.3	-31.9	26.2	0.00e+00	0	29	0	1047527424	36	5664
2026-01-10 19:02:34.46	7.43	16.57	-31.2	-31.9	26.3	0.00e+00	0	29	0	1052770304	36	5642
2026-01-10 19:02:35.47	7.27	16.65	-31.1	-31.8	26.3	0.00e+00	0	29	0	1059061760	36	5599
2026-01-10 19:02:36.48	7.11	16.74	-31.2	-31.8	26.3	0.00e+00	0	29	0	1064304640	36	5625
2026-01-10 19:02:37.49	6.95	16.82	-31.0	-31.6	26.4	0.00e+00	0	29	0	1070596096	36	5479
2026-01-10 19:02:38.50	6.79	16.90	-31.1	-31.7	26.3	0.00e+00	0	29	0	1075838976	36	5560
2026-01-10 19:02:39.51	6.62	16.98	-30.9	-31.5	26.6	0.00e+00	0	29	0	1082130432	36	5407
2026-01-10 19:02:40.52	6.46	17.06	-30.8	-31.4	26.6	0.00e+00	0	29	0	1087373312	36	5376
2026-01-10 19:02:41.53	6.30	17.14	-30.7	-31.3	26.8	0.00e+00	0	29	0	1092616192	36	5279
2026-01-10 19:02:42.54	6.13	17.23	-30.6	-31.2	26.7	0.00e+00	0	29	0	1098907648	34	5888
2026-01-10 19:02:43.55	5.97	17.31	-30.6	-31.2	26.8	0.00e+00	0	29	0	1104150528	34	5856
2026-01-10 19:02:44.56	5.80	17.39	-30.8	-31.4	26.7	0.00e+00	0	29	0	1110441984	34	5994
2026-01-10 19:02:45.57	5.63	17.47	-30.6	-31.3	26.8	0.00e+00	0	29	0	1115684864	34	5902
2026-01-10 19:02:46.58	5.46	17.55	-30.8	-31.5	26.7	0.00e+00	0	29	0	1120927744	34	6035
2026-01-10 19:02:47.59	5.29	17.64	-30.7	-31.3	26.7	0.00e+00	0	29	0	1127219200	34	5939
2026-01-10 19:02:48.60	5.12	17.72	-30.7	-31.3	26.7	0.00e+00	0	29	0	1132462080	34	5951
2026-01-10 19:02:49.61	4.95	17.80	-30.9	-31.6	26.6	0.00e+00	0	29	0	1138753536	34	6135
2026-01-10 19:02:50.62	4.78	17.88	-31.0	-31.7	26.5	0.00e+00	0	29	0	1143996416	34	6199
2026-01-10 19:02:51.63	4.61	17.96	-30.6	-31.2	26.9	0.00e+00	0	29	0	1150287872	34	5877
2026-01-10 19:02:52.64	4.43	18.05	-30.6	-31.2	26.8	0.00e+00	0	29	0	1155530752	34	5849
2026-01-10 19:02:53.65	4.26	18.13	-30.5	-31.1	26.9	0.00e+00	0	29	0	1160773632	34	5788
2026-01-10 19:02:54.67	4.08	18.21	-30.5	-31.1	27.0	0.00e+00	0	29	0	1167065088	34	5816
2026-01-10 19:02:55.68	3.90	18.29	-30.4	-31.1	27.0	0.00e+00	0	29	0	1172307968	34	5779
2026-01-10 19:02:56.69	3.72	18.37	-30.5	-31.1	26.9	0.00e+00	0	29	0	1178599424	34	5823
2026-01-10 19:02:57.70	3.54	18.46	-30.4	-31.0	26.9	0.00e+00	0	29	0	1183842304	34	5715
2026-01-10 19:02:58.71	3.36	18.54	-30.4	-31.0	27.0	0.00e+00	0	29	0	1190133760	34	5756
2026-01-10 19:02:59.72	3.18	18.62	-30.5	-31.1	26.9	0.00e+00	0	29	0	1195376640	34	5784
2026-01-10 19:03:00.73	3.00	18.70	-30.7	-31.3	26.8	0.00e+00	0	29	0	1201668096	34	5942
2026-01-10 19:03:01.74	2.82	18.78	-30.7	-31.3	26.8	0.00e+00	0	29	0	1206910976	34	5944
2026-01-10 19:03:02.75	2.63	18.87	-30.7	-31.3	26.8	0.00e+00	0	29	0	1212153856	34	5958
2026-01-10 19:03:03.76	2.45	18.95	-30.7	-31.3	26.8	0.00e+00	0	29	0	1218445312	34	5932
2026-01-10 19:03:04.77	2.26	19.03	-30.6	-31.3	26.9	0.00e+00	0	29	0	1223688192	34	5909
2026-01-10 19:03:05.78	2.08	19.11	-30.7	-31.3	26.8	0.00e+00	0	29	0	1229979648	34	5956
2026-01-10 19:03:06.80	1.89	19.19	-30.5	-31.1	27.0	0.00e+00	0	29	0	1235222528	34	5813
2026-01-10 19:03:07.80	1.70	19.27	-30.5	-31.1	26.9	0.00e+00	0	29	0	1240465408	34	5825
2026-01-10 19:03:08.81	1.51	19.35	-30.4	-31.1	27.0	0.00e+00	0	29	0	1246756864	34	5768
2026-01-10 19:03:09.82	1.32	19.44	-30.5	-31.1	26.9	0.00e+00	0	29	0	1251999744	34	5784
2026-01-10 19:03:10.83	1.12	19.52	-30.5	-31.1	27.0	0.00e+00	0	29	0	1258291200	34	5777
2026-01-10 19:03:11.85	0.93	19.60	-30.5	-31.1	26.9	0.00e+00	0	29	0	1263534080	34	5794
2026-01-10 19:03:12.86	0.73	19.68	-30.4	-31.1	27.0	0.00e+00	0	29	0	1268776960	34	5765
2026-01-10 19:03:13.87	0.54	19.76	-30.4	-31.1	27.0	0.00e+00	0	29	0	1275068416	34	5764
2026-01-10 19:03:14.88	0.34	19.84	-30.4	-31.0	27.0	0.00e+00	0	29	0	1280311296	34	5760
2026-01-10 19:03:15.89	0.15	19.92	-30.3	-30.9	27.2	0.00e+00	0	29	0	1286602752	34	5664
2026-01-10 19:03:16.90	359.95	20.00	-30.3	-30.9	27.2	0.00e+00	0	29	0	1291845632	34	5654
2026-01-10 19:03:17.91	359.75	20.09	-30.2	-30.8	27.3	0.00e+00	0	29	0	1298137088	34	5596
2026-01-10 19:03:18.92	359.55	20.17	-30.1	-30.7	27.3	0.00e+00	0	29	0	1303379968	34	5539
2026-01-10 19:03:19.93	359.34	20.25	-30.2	-30.8	27.3	0.00e+00	0	29	0	1308622848	34	5609
2026-01-10 19:03:20.94	359.14	20.33	-30.2	-30.8	27.2	0.00e+00	0	29	0	1314914304	34	5595
2026-01-10 19:03:21.95	358.94	20.41	-30.1	-30.7	27.3	0.00e+00	0	29	0	1320157184	34	5540
2026-01-10 19:03:22.96	358.73	20.49	-30.0	-30.6	27.3	0.00e+00	0	29	0	1326448640	34	5502
2026-01-10 19:03:23.97	358.53	20.57	-30.0	-30.6	27.3	0.00e+00	0	29	0	1331691520	34	5501
2026-01-10 19:03:24.98	358.32	20.65	-30.0	-30.7	27.2	0.00e+00	0	29	0	1336934400	34	5524
2026-01-10 19:03:25.99	358.11	20.73	-30.1	-30.7	27.3	0.00e+00	0	29	0	1343225856	34	5533
2026-01-10 19:03:27.00	357.90	20.81	-30.1	-30.7	27.3	0.00e+00	0	28	0	1348468736	34	5524
2026-01-10 19:03:28.01	357.69	20.88	-30.0	-30.7	27.3	0.00e+00	0	29	0	1354760192	34	5507
2026-01-10 19:03:29.02	357.48	20.96	-30.0	-30.6	27.4	0.00e+00	0	29	0	1360003072	34	5486
2026-01-10 19:03:30.03	357.27	21.04	-30.0	-30.6	27.3	0.00e+00	0	28	0	1365245952	34	5443
2026-01-10 19:03:31.04	357.05	21.12	-29.8	-30.4	27.6	0.00e+00	0	29	0	1371537408	34	5335
2026-01-10 19:03:32.05	356.84	21.20	-29.9	-30.5	27.4	0.00e+00	0	29	0	1376780288	32	6069
2026-01-10 19:03:33.06	356.62	21.28	-29.8	-30.4	27.5	0.00e+00	0	29	0	1383071744	32	5981
2026-01-10 19:03:34.07	356.40	21.36	-29.9	-30.5	27.4	0.00e+00	0	29	0	1388314624	32	6102
2026-01-10 19:03:35.08	356.19	21.44	-29.9	-30.5	27.4	0.00e+00	0	29	0	1394606080	32	6097
2026-01-10 19:03:36.09	355.97	21.51	-29.9	-30.6	27.4	0.00e+00	0	28	0	1399848960	32	6106
2026-01-10 19:03:37.10	355.75	21.59	-29.8	-30.5	27.5	0.00e+00	0	29	0	1406140416	32	6043
2026-01-10 19:03:38.11	355.52	21.67	-30.0	-30.5	27.5	0.00e+00	0	29	0	1411383296	32	6103
2026-01-10 19:03:39.12	355.30	21.75	-29.8	-30.4	27.5	0.00e+00	0	29	0	1416626176	32	5994
2026-01-10 19:03:40.14	355.08	21.82	-29.9	-30.6	27.4	0.00e+00	0	29	0	1422917632	32	6122
2026-01-10 19:03:41.15	354.85	21.90	-30.1	-30.7	27.3	0.00e+00	0	29	0	1428160512	32	6201
2026-01-10 19:03:42.16	354.62	21.98	-30.0	-30.6	27.5	0.00e+00	0	29	0	1434451968	32	6126
2026-01-10 19:03:43.17	354.40	22.05	-29.9	-30.5	27.4	0.00e+00	0	29	0	1439694848	32	6102
2026-01-10 19:03:44.18	354.17	22.13	-29.8	-30.4	27.5	0.00e+00	0	29	0	1444937728	32	5996
2026-01-10 19:03:45.19	353.94	22.20	-29.8	-30.4	27.5	0.00e+00	0	29	0	1451229184	32	6033
2026-01-10 19:03:46.20	353.71	22.28	-29.8	-30.4	27.6	0.00e+00	0	29	0	1456472064	32	6019
2026-01-10 19:03:47.21	353.48	22.35	-29.9	-30.5	27.4	0.00e+00	0	29	0	1462763520	32	6076
2026-01-10 19:03:48.22	353.24	22.43	-29.8	-30.4	27.5	0.00e+00	0	28	0	1468006400	32	5969
2026-01-10 19:03:49.23	353.01	22.50	-29.8	-30.4	27.4	0.00e+00	0	28	0	1473249280	32	5992
2026-01-10 19:03:50.24	352.77	22.58	-29.7	-30.4	27.6	0.00e+00	0	29	0	1479540736	32	5983
2026-01-10 19:03:51.25	352.54	22.65	-29.8	-30.4	27.5	0.00e+00	0	29	0	1484783616	32	5999
2026-01-10 19:03:52.25	352.30	22.73	-29.8	-30.4	27.5	0.00e+00	0	29	0	1491075072	32	6016
2026-01-10 19:03:53.26	352.06	22.80	-29.9	-30.5	27.5	0.00e+00	0	28	0	1496317952	32	6067
2026-01-10 19:03:54.27	351.82	22.87	-29.7	-30.3	27.6	0.00e+00	0	28	0	1502609408	32	5952
2026-01-10 19:03:55.28	351.58	22.94	-29.7	-30.4	27.4	0.00e+00	0	29	0	1507852288	32	5988
2026-01-10 19:03:56.29	351.34	23.02	-29.8	-30.4	27.6	0.00e+00	0	29	0	1514143744	32	5972
2026-01-10 19:03:57.30	351.10	23.09	-29.8	-30.4	27.4	0.00e+00	0	28	0	1519386624	32	6030
2026-01-10 19:03:58.32	350.85	23.16	-29.8	-30.4	27.5	0.00e+00	0	28	0	1524629504	32	6007
2026-01-10 19:03:59.33	350.60	23.23	-29.8	-30.4	27.6	0.00e+00	0	28	0	1530920960	32	5990
2026-01-10 19:04:00.34	350.36	23.30	-29.7	-30.3	27.5	0.00e+00	0	28	0	1536163840	32	5953
2026-01-10 19:04:01.35	350.11	23.37	-29.6	-30.2	27.7	0.00e+00	0	29	0	1542455296	32	5883
2026-01-10 19:04:02.36	349.86	23.44	-29.6	-30.2	27.8	0.00e+00	0	28	0	1547698176	32	5868
2026-01-10 19:04:03.37	349.61	23.51	-29.9	-30.5	27.5	0.00e+00	0	28	0	1552941056	32	6082
2026-01-10 19:04:04.38	349.36	23.58	-29.8	-30.4	27.6	0.00e+00	0	28	0	1559232512	32	6032
2026-01-10 19:04:05.39	349.11	23.65	-29.6	-30.3	27.8	0.00e+00	0	28	0	1564475392	32	5897
2026-01-10 19:04:06.40	348.85	23.72	-29.7	-30.3	27.6	0.00e+00	0	28	0	1570766848	32	5935
2026-01-10 19:04:07.41	348.60	23.79	-29.5	-30.1	27.8	0.00e+00	0	28	0	1576009728	32	5798
2026-01-10 19:04:08.42	348.34	23.86	-29.4	-30.0	27.9	0.00e+00	0	28	0	1581252608	32	5726
2026-01-10 19:04:09.43	348.09	23.92	-29.4	-30.0	27.8	0.00e+00	0	28	0	1587544064	32	5731
2026-01-10 19:04:10.44	347.83	23.99	-29.6	-30.2	27.8	0.00e+00	0	28	0	1592786944	32	5852
2026-01-10 19:04:11.45	347.57	24.06	-29.7	-30.3	27.7	0.00e+00	0	28	0	1599078400	32	5926
2026-01-10 19:04:12.46	347.31	24.12	-29.7	-30.4	27.7	0.00e+00	0	28	0	1604321280	32	5979
2026-01-10 19:04:13.47	347.05	24.19	-29.8	-30.4	27.6	0.00e+00	0	28	0	1610612736	32	5973
2026-01-10 19:04:14.48	346.79	24.25	-29.5	-30.1	27.8	0.00e+00	0	28	0	1615855616	32	5822
2026-01-10 19:04:15.49	346.52	24.32	-29.5	-30.1	27.8	0.00e+00	0	28	0	1622147072	32	5808
2026-01-10 19:04:16.50	346.26	24.38	-29.4	-30.0	27.8	0.00e+00	0	28	0	1627389952	32	5733
2026-01-10 19:04:17.51	345.99	24.44	-29.3	-29.9	27.9	0.00e+00	0	28	0	1632632832	32	5692
2026-01-10 19:04:18.52	345.73	24.51	-29.4	-30.0	27.8	0.00e+00	0	28	0	1638924288	32	5711
2026-01-10 19:04:19.53	345.46	24.57	-29.1	-29.7	28.0	0.00e+00	0	28	0	1644167168	32	5555
2026-01-10 19:04:20.54	345.19	24.63	-29.2	-29.8	28.0	0.00e+00	0	28	0	1650458624	32	5625
2026-01-10 19:04:21.55	344.92	24.69	-29.2	-29.8	28.0	0.00e+00	0	28	0	1655701504	32	5576
2026-01-10 19:04:22.56	344.65	24.75	-29.1	-29.7	28.1	0.00e+00	0	28	0	1660944384	32	5537
2026-01-10 19:04:23.57	344.38	24.81	-29.1	-29.8	28.1	0.00e+00	0	28	0	1667235840	32	5570
2026-01-10 19:04:24.58	344.10	24.87	-29.1	-29.8	28.1	0.00e+00	0	28	0	1672478720	32	5567
2026-01-10 19:04:25.59	343.83	24.93	-29.2	-29.8	28.0	0.00e+00	0	28	0	1678770176	32	5626
2026-01-10 19:04:26.60	343.55	24.99	-29.2	-29.8	28.1	0.00e+00	0	28	0	1684013056	32	5619
2026-01-10 19:04:27.61	343.28	25.05	-29.3	-29.9	28.0	0.00e+00	0	28	0	1689255936	32	5654
2026-01-10 19:04:28.62	343.00	25.10	-29.4	-30.0	27.9	0.00e+00	0	28	0	1695547392	32	5708
2026-01-10 19:04:29.63	342.72	25.16	-29.3	-29.9	27.9	0.00e+00	0	28	0	1700790272	32	5680
2026-01-10 19:04:30.64	342.44	25.21	-29.4	-30.0	27.9	0.00e+00	0	28	0	1707081728	32	5740
2026-01-10 19:04:31.65	342.16	25.27	-29.4	-30.0	27.9	0.00e+00	0	28	0	1712324608	32	5736
2026-01-10 19:04:32.66	341.88	25.32	-29.2	-29.8	28.0	0.00e+00	0	28	0	1718616064	32	5626
2026-01-10 19:04:33.67	341.60	25.38	-29.2	-29.7	28.0	0.00e+00	0	28	0	1723858944	32	5554
2026-01-10 19:04:34.68	341.32	25.43	-29.2	-29.8	28.1	0.00e+00	0	28	0	1730150400	32	5611
2026-01-10 19:04:35.69	341.03	25.48	-29.1	-29.8	28.1	0.00e+00	0	28	0	1735393280	32	5579
2026-01-10 19:04:36.70	340.75	25.54	-29.2	-29.8	28.1	0.00e+00	0	28	0	1740636160	32	5594
2026-01-10 19:04:37.71	340.46	25.59	-29.0	-29.6	28.1	0.00e+00	0	28	0	1746927616	32	5490
2026-01-10 19:04:38.72	340.18	25.64	-29.1	-29.7	28.1	0.00e+00	0	28	0	1752170496	32	5553
2026-01-10 19:04:39.73	339.89	25.69	-29.1	-29.7	28.1	0.00e+00	0	28	0	1758461952	32	5528
2026-01-10 19:04:40.74	339.60	25.74	-28.9	-29.5	28.2	0.00e+00	0	28	0	1763704832	32	5424
2026-01-10 19:04:41.75	339.31	25.78	-29.2	-29.8	28.0	0.00e+00	0	28	0	1768947712	32	5580
2026-01-10 19:04:42.76	339.02	25.83	-29.2	-29.9	28.1	0.00e+00	0	28	0	1775239168	32	5632
2026-01-10 19:04:43.77	338.73	25.88	-29.3	-30.0	27.8	0.00e+00	0	28	0	1780482048	32	5728
2026-01-10 19:04:44.78	338.44	25.93	-29.2	-29.8	28.0	0.00e+00	0	28	0	1786773504	32	5620
2026-01-10 19:04:45.79	338.14	25.97	-29.2	-29.8	28.1	0.00e+00	0	28	0	1792016384	32	5605
2026-01-10 19:04:46.80	337.85	26.02	-29.2	-29.8	28.0	0.00e+00	0	28	0	1797259264	32	5622
2026-01-10 19:04:47.81	337.55	26.06	-29.1	-29.7	28.1	0.00e+00	0	28	0	1803550720	32	5525
2026-01-10 19:04:48.82	337.26	26.10	-29.0	-29.6	28.1	0.00e+00	0	28	0	1808793600	32	5484
2026-01-10 19:04:49.83	336.96	26.15	-29.0	-29.6	28.1	0.00e+00	0	28	0	1815085056	32	5484
2026-01-10 19:04:50.84	336.66	26.19	-29.2	-29.9	28.0	0.00e+00	0	28	0	1820327936	32	5634
2026-01-10 19:04:51.85	336.37	26.23	-29.4	-30.0	27.8	0.00e+00	0	28	0	1826619392	32	5730
2026-01-10 19:04:52.86	336.07	26.27	-29.4	-30.0	27.9	0.00e+00	0	28	0	1831862272	32	5754
2026-01-10 19:04:53.87	335.77	26.31	-29.4	-30.0	28.0	0.00e+00	0	28	0	1837105152	32	5727
2026-01-10 19:04:54.88	335.47	26.35	-29.3	-29.9	28.0	0.00e+00	0	28	0	1843396608	32	5664
2026-01-10 19:04:55.89	335.17	26.38	-29.1	-29.7	28.1	0.00e+00	0	28	0	1848639488	32	5555
2026-01-10 19:04:56.90	334.86	26.42	-29.1	-29.8	28.1	0.00e+00	0	28	0	1854930944	32	5568
2026-01-10 19:04:57.91	334.56	26.46	-29.0	-29.6	28.2	0.00e+00	0	28	0	1860173824	32	5444
2026-01-10 19:04:58.92	334.26	26.49	-29.1	-29.7	28.1	0.00e+00	0	28	0	1865416704	32	5526
2026-01-10 19:04:59.93	333.96	26.53	-29.1	-29.8	28.1	0.00e+00	0	28	0	1871708160	32	5571
2026-01-10 19:05:00.94	333.65	26.56	-28.9	-29.5	28.3	0.00e+00	0	28	0	1876951040	32	5390
2026-01-10 19:05:01.95	333.35	26.59	-29.0	-29.6	28.2	0.00e+00	0	28	0	1883242496	32	5478
2026-01-10 19:05:02.96	333.04	26.62	-28.9	-29.5	28.3	0.00e+00	0	28	0	1888485376	32	5388
2026-01-10 19:05:03.97	332.73	26.65	-28.9	-29.6	28.3	0.00e+00	0	28	0	1893728256	32	5452
2026-01-10 19:05:04.98	332.43	26.68	-29.0	-29.6	28.2	0.00e+00	0	28	0	1900019712	32	5452
2026-01-10 19:05:05.99	332.12	26.71	-29.0	-29.6	28.2	0.00e+00	0	28	0	1905262592	32	5464
2026-01-10 19:05:07.00	331.81	26.74	-29.1	-29.7	28.2	0.00e+00	0	28	0	1911554048	32	5517
2026-01-10 19:05:08.01	331.50	26.77	-29.2	-29.8	28.0	0.00e+00	0	28	0	1916796928	32	5626
2026-01-10 19:05:09.02	331.19	26.80	-29.3	-29.9	28.0	0.00e+00	0	28	0	1923088384	32	5670
2026-01-10 19:05:10.04	330.88	26.82	-29.3	-29.9	28.0	0.00e+00	0	28	0	1928331264	32	5690
2026-01-10 19:05:11.05	330.57	26.85	-29.1	-29.7	28.1	0.00e+00	0	28	0	1934622720	32	5518
2026-01-10 19:05:12.06	330.26	26.87	-29.1	-29.7	28.2	0.00e+00	0	28	0	1939865600	32	5530
2026-01-10 19:05:13.07	329.95	26.89	-29.0	-29.6	28.2	0.00e+00	0	28	0	1945108480	32	5483
2026-01-10 19:05:14.08	329.64	26.91	-29.1	-29.7	28.1	0.00e+00	0	28	0	1951399936	32	5564
2026-01-10 19:05:15.09	329.33	26.94	-29.1	-29.7	28.1	0.00e+00	0	28	0	1956642816	32	5540
2026-01-10 19:05:16.10	329.01	26.96	-29.2	-29.8	28.1	0.00e+00	0	28	0	1962934272	32	5597
2026-01-10 19:05:17.11	328.70	26.98	-29.2	-29.9	28.1	0.00e+00	0	28	0	1968177152	32	5635
2026-01-10 19:05:18.12	328.39	26.99	-29.2	-29.7	28.0	0.00e+00	0	28	0	1973420032	32	5564
2026-01-10 19:05:19.13	328.07	27.01	-29.0	-29.6	28.2	0.00e+00	0	28	0	1979711488	32	5455
2026-01-10 19:05:20.14	327.76	27.03	-29.0	-29.7	28.2	0.00e+00	0	28	0	1984954368	32	5512
2026-01-10 19:05:21.15	327.45	27.04	-29.1	-29.7	28.1	0.00e+00	0	28	0	1991245824	32	5535
2026-01-10 19:05:22.16	327.13	27.06	-29.2	-29.8	28.0	0.00e+00	0	28	0	1996488704	32	5609
2026-01-10 19:05:23.17	326.82	27.07	-29.3	-29.9	28.0	0.00e+00	0	28	0	2001731584	32	5645
2026-01-10 19:05:24.18	326.50	27.08	-29.0	-29.6	28.2	0.00e+00	0	28	0	2008023040	32	5465
2026-01-10 19:05:25.19	326.19	27.09	-28.9	-29.5	28.3	0.00e+00	0	28	0	2013265920	32	5425
2026-01-10 19:05:26.20	325.87	27.11	-28.8	-29.4	28.4	0.00e+00	0	28	0	2019557376	30	6021
2026-01-10 19:05:27.21	325.55	27.11	-28.8	-29.4	28.4	0.00e+00	0	28	0	2024800256	30	6014
2026-01-10 19:05:28.22	325.24	27.12	-28.9	-29.5	28.2	0.00e+00	0	28	0	2031091712	30	6095
2026-01-10 19:05:29.23	324.92	27.13	-28.9	-29.5	28.3	0.00e+00	0	28	0	2036334592	30	6089
2026-01-10 19:05:30.24	324.61	27.14	-28.8	-29.4	28.3	0.00e+00	0	28	0	2042626048	30	6032
2026-01-10 19:05:31.25	324.29	27.14	-28.7	-29.3	28.4	0.00e+00	0	28	0	2047868928	30	5903
2026-01-10 19:05:32.26	323.97	27.15	-28.6	-29.3	28.4	0.00e+00	0	28	0	2053111808	30	5898
2026-01-10 19:05:33.27	323.66	27.15	-28.6	-29.3	28.3	0.00e+00	0	28	0	2059403264	30	5897
2026-01-10 19:05:34.28	323.34	27.16	-28.7	-29.4	28.4	0.00e+00	0	28	0	2064646144	30	5975
2026-01-10 19:05:35.29	323.02	27.16	-28.8	-29.4	28.4	0.00e+00	0	28	0	2070937600	30	5998
2026-01-10 19:05:36.30	322.71	27.16	-29.0	-29.5	28.2	0.00e+00	0	28	0	2076180480	30	6099
2026-01-10 19:05:37.31	322.39	27.16	-29.1	-29.7	28.1	0.00e+00	0	28	0	2081423360	30	6243
2026-01-10 19:05:38.32	322.07	27.16	-29.3	-29.9	28.0	0.00e+00	0	28	0	2087714816	30	6378
2026-01-10 19:05:39.33	321.76	27.16	-29.4	-30.1	27.9	0.00e+00	0	28	0	2092957696	30	6478
2026-01-10 19:05:40.34	321.44	27.15	-29.4	-30.0	27.9	0.00e+00	0	28	0	2099249152	30	6419
2026-01-10 19:05:41.35	321.12	27.15	-29.3	-29.9	28.1	0.00e+00	0	28	0	2104492032	30	6323
2026-01-10 19:05:42.36	320.81	27.14	-29.2	-29.8	28.1	0.00e+00	0	28	0	2109734912	30	6280
2026-01-10 19:05:43.37	320.49	27.14	-29.2	-29.8	28.1	0.00e+00	0	28	0	2116026368	30	6309
2026-01-10 19:05:44.38	320.17	27.13	-29.2	-29.8	28.0	0.00e+00	0	28	0	2121269248	30	6260
2026-01-10 19:05:45.39	319.86	27.12	-29.1	-29.7	28.1	0.00e+00	0	28	0	2127560704	30	6207
2026-01-10 19:05:46.40	319.54	27.12	-29.2	-29.8	27.7	0.00e+00	0	28	0	2132803584	30	6314
2026-01-10 19:05:47.41	319.23	27.11	-28.9	-29.5	28.0	0.00e+00	0	28	0	2139095040	30	6080
2026-01-10 19:05:48.42	318.91	27.10	-28.9	-29.5	27.8	0.00e+00	0	28	0	2144337920	30	6040
2026-01-10 19:05:49.43	318.60	27.08	-28.7	-29.3	28.4	0.00e+00	0	28	0	2149580800	30	5951
2026-01-10 19:05:50.44	318.28	27.07	-28.8	-29.4	28.3	0.00e+00	0	28	0	2155872256	30	5973
2026-01-10 19:05:51.45	317.97	27.06	-28.9	-29.5	28.3	0.00e+00	0	28	0	2161115136	30	6074
2026-01-10 19:05:52.46	317.65	27.04	-28.9	-29.5	28.1	0.00e+00	0	28	0	2167406592	30	6074
2026-01-10 19:05:53.47	317.34	27.03	-29.0	-29.7	28.2	0.00e+00	0	28	0	2172649472	30	6213
2026-01-10 19:05:54.48	317.02	27.01	-29.1	-29.7	28.1	0.00e+00	0	28	0	2177892352	30	6204
2026-01-10 19:05:55.49	316.71	26.99	-29.2	-29.8	28.0	0.00e+00	0	28	0	2184183808	30	6275
2026-01-10 19:05:56.50	316.39	26.98	-29.3	-29.9	28.0	0.00e+00	0	28	0	2189426688	30	6351
2026-01-10 19:05:57.51	316.08	26.96	-29.2	-29.8	27.9	0.00e+00	0	28	0	2195718144	30	6300
2026-01-10 19:05:58.52	315.77	26.94	-29.2	-29.8	28.1	0.00e+00	0	28	0	2200961024	30	6285
2026-01-10 19:05:59.53	315.46	26.92	-29.0	-29.6	28.1	0.00e+00	0	28	0	2206203904	30	6149
2026-01-10 19:06:00.52	315.15	26.90	-29.0	-29.5	28.1	0.00e+00	0	28	0	2212495360	30	6101
2026-01-10 19:06:01.53	314.84	26.87	-28.9	-29.5	28.3	0.00e+00	0	28	0	2217738240	30	6047
2026-01-10 19:06:02.54	314.53	26.85	-29.0	-29.6	28.2	0.00e+00	0	28	0	2224029696	30	6119
2026-01-10 19:06:03.55	314.22	26.82	-29.1	-29.7	28.1	0.00e+00	0	28	0	2229272576	30	6242
2026-01-10 19:06:04.56	313.91	26.80	-29.0	-29.6	28.3	0.00e+00	0	28	0	2235564032	30	6156
2026-01-10 19:06:05.57	313.60	26.77	-28.8	-29.4	28.4	0.00e+00	0	28	0	2240806912	30	6028
2026-01-10 19:06:06.58	313.29	26.74	-28.8	-29.4	28.4	0.00e+00	0	28	0	2246049792	30	5995
2026-01-10 19:06:07.59	312.98	26.72	-28.9	-29.5	28.2	0.00e+00	0	28	0	2252341248	30	6094
2026-01-10 19:06:08.60	312.67	26.69	-28.9	-29.5	28.2	0.00e+00	0	28	0	2257584128	30	6056
2026-01-10 19:06:09.61	312.37	26.66	-29.0	-29.6	28.2	0.00e+00	0	28	0	2263875584	30	6155
2026-01-10 19:06:10.62	312.06	26.63	-29.1	-29.7	28.1	0.00e+00	0	28	0	2269118464	30	6229
2026-01-10 19:06:11.63	311.75	26.59	-29.1	-29.7	28.1	0.00e+00	0	28	0	2274361344	30	6204
2026-01-10 19:06:12.64	311.45	26.56	-29.1	-29.8	28.1	0.00e+00	0	28	0	2280652800	30	6263
2026-01-10 19:06:13.65	311.14	26.53	-29.1	-29.7	28.1	0.00e+00	0	28	0	2285895680	30	6238
2026-01-10 19:06:14.66	310.84	26.49	-29.1	-29.7	28.1	0.00e+00	0	28	0	2292187136	30	6226
2026-01-10 19:06:15.67	310.54	26.46	-29.0	-29.6	28.2	0.00e+00	0	28	0	2297430016	30	6158
2026-01-10 19:06:16.68	310.23	26.42	-28.9	-29.6	28.3	0.00e+00	0	28	0	2303721472	30	6116
2026-01-10 19:06:17.69	309.93	26.39	-28.9	-29.5	28.3	0.00e+00	0	28	0	2308964352	30	6068
2026-01-10 19:06:18.70	309.63	26.35	-28.8	-29.4	28.4	0.00e+00	0	28	0	2314207232	30	5979
2026-01-10 19:06:19.71	309.33	26.31	-28.8	-29.3	28.3	0.00e+00	0	28	0	2320498688	30	5954
2026-01-10 19:06:20.72	309.03	26.27	-28.6	-29.2	28.4	0.00e+00	0	28	0	2325741568	30	5843
2026-01-10 19:06:21.73	308.73	26.23	-28.6	-29.2	28.5	0.00e+00	0	28	0	2332033024	30	5840
2026-01-10 19:06:22.74	308.43	26.19	-28.7	-29.3	28.4	0.00e+00	0	28	0	2337275904	30	5924
2026-01-10 19:06:23.75	308.13	26.15	-29.0	-29.6	28.2	0.00e+00	0	28	0	2343567360	30	6166
2026-01-10 19:06:24.76	307.84	26.11	-29.1	-29.7	28.1	0.00e+00	0	28	0	2348810240	30	6231
2026-01-10 19:06:25.77	307.54	26.06	-28.9	-29.5	28.2	0.00e+00	0	28	0	2354053120	30	6093
2026-01-10 19:06:26.78	307.24	26.02	-28.9	-29.6	28.2	0.00e+00	0	28	0	2360344576	30	6136
2026-01-10 19:06:27.79	306.95	25.97	-29.1	-29.6	28.2	0.00e+00	0	28	0	2365587456	30	6147
2026-01-10 19:06:28.80	306.66	25.93	-29.1	-29.6	28.1	0.00e+00	0	28	0	2371878912	30	6128
2026-01-10 19:06:29.81	306.36	25.88	-29.0	-29.7	28.1	0.00e+00	0	28	0	2377121792	30	6186
2026-01-10 19:06:30.82	306.07	25.84	-29.0	-29.5	28.2	0.00e+00	0	28	0	2382364672	30	6064
2026-01-10 19:06:31.83	305.78	25.79	-29.1	-29.7	28.1	0.00e+00	0	28	0	2388656128	30	6238
2026-01-10 19:06:32.84	305.49	25.74	-29.0	-29.7	28.1	0.00e+00	0	28	0	2393899008	30	6182
2026-01-10 19:06:33.85	305.20	25.69	-29.1	-29.8	28.1	0.00e+00	0	28	0	2400190464	30	6255
2026-01-10 19:06:34.86	304.91	25.64	-29.1	-29.8	28.1	0.00e+00	0	28	0	2405433344	30	6263
2026-01-10 19:06:35.88	304.62	25.59	-29.1	-29.7	28.2	0.00e+00	0	28	0	2410676224	30	6212
2026-01-10 19:06:36.89	304.34	25.54	-29.2	-29.8	28.1	0.00e+00	0	28	0	2416967680	30	6312
2026-01-10 19:06:37.90	304.05	25.49	-29.2	-29.7	28.0	0.00e+00	0	28	0	2422210560	30	6239
2026-01-10 19:06:38.91	303.77	25.43	-29.0	-29.7	28.0	0.00e+00	0	28	0	2428502016	30	6220
2026-01-10 19:06:39.92	303.48	25.38	-29.0	-29.5	28.1	0.00e+00	0	28	0	2433744896	30	6071
2026-01-10 19:06:40.93	303.20	25.33	-28.9	-29.4	28.2	0.00e+00	0	28	0	2440036352	30	6031
2026-01-10 19:06:41.94	302.92	25.27	-28.9	-29.5	28.3	0.00e+00	0	28	0	2445279232	30	6075
2026-01-10 19:06:42.95	302.64	25.22	-28.9	-29.4	28.2	0.00e+00	0	28	0	2451570688	30	6012
2026-01-10 19:06:43.96	302.36	25.16	-29.0	-29.6	28.2	0.00e+00	0	28	0	2456813568	30	6137
2026-01-10 19:06:44.97	302.08	25.10	-29.1	-29.7	28.1	0.00e+00	0	28	0	2462056448	30	6236
2026-01-10 19:06:45.98	301.80	25.05	-28.9	-29.5	28.3	0.00e+00	0	28	0	2468347904	30	6089
2026-01-10 19:06:46.99	301.52	24.99	-28.8	-29.4	28.3	0.00e+00	0	28	0	2473590784	30	5998
2026-01-10 19:06:48.00	301.25	24.93	-28.8	-29.4	28.4	0.00e+00	0	28	0	2479882240	30	5988
2026-01-10 19:06:49.01	300.97	24.87	-28.8	-29.3	28.3	0.00e+00	0	28	0	2485125120	30	5962
2026-01-10 19:06:50.02	300.70	24.81	-29.0	-29.6	28.2	0.00e+00	0	28	0	2490368000	30	6141
2026-01-10 19:06:51.03	300.43	24.75	-29.0	-29.5	28.1	0.00e+00	0	28	0	2496659456	30	6056
2026-01-10 19:06:52.04	300.15	24.69	-29.1	-29.6	28.2	0.00e+00	0	28	0	2501902336	30	6127
2026-01-10 19:06:53.05	299.88	24.63	-29.1	-29.8	28.1	0.00e+00	0	28	0	2508193792	30	6271
2026-01-10 19:06:54.07	299.61	24.57	-29.1	-29.8	28.1	0.00e+00	0	28	0	2513436672	30	6260
2026-01-10 19:06:55.07	299.35	24.51	-29.1	-29.8	28.1	0.00e+00	0	28	0	2518679552	30	6269
2026-01-10 19:06:56.08	299.08	24.44	-29.1	-29.6	28.1	0.00e+00	0	28	0	2524971008	30	6165
2026-01-10 19:06:57.09	298.81	24.38	-29.1	-29.8	28.1	0.00e+00	0	28	0	2530213888	30	6276
2026-01-10 19:06:58.10	298.55	24.32	-29.1	-29.7	28.2	0.00e+00	0	28	0	2536505344	30	6183
2026-01-10 19:06:59.11	298.28	24.25	-29.1	-29.6	28.1	0.00e+00	0	28	0	2541748224	30	6156
2026-01-10 19:07:00.12	298.02	24.19	-29.0	-29.6	28.2	0.00e+00	0	28	0	2548039680	30	6166
2026-01-10 19:07:01.13	297.76	24.12	-29.2	-29.8	28.1	0.00e+00	0	28	0	2553282560	30	6261
2026-01-10 19:07:02.14	297.50	24.06	-29.2	-29.9	28.0	0.00e+00	0	28	0	2559574016	30	6327
2026-01-10 19:07:03.15	297.24	23.99	-29.2	-29.7	28.1	0.00e+00	0	28	0	2564816896	30	6242
2026-01-10 19:07:04.16	296.98	23.92	-29.2	-29.7	28.1	0.00e+00	0	28	0	2570059776	30	6242
2026-01-10 19:07:05.17	296.72	23.86	-29.1	-29.7	28.1	0.00e+00	0	28	0	2576351232	30	6243
2026-01-10 19:07:06.18	296.47	23.79	-29.3	-29.9	27.9	0.00e+00	0	28	0	2581594112	30	6340
2026-01-10 19:07:07.20	296.21	23.72	-29.4	-30.0	27.9	0.00e+00	0	28	0	2587885568	30	6437
2026-01-10 19:07:08.20	295.96	23.65	-29.5	-30.0	27.9	0.00e+00	0	28	0	2593128448	30	6438
2026-01-10 19:07:09.21	295.70	23.58	-29.3	-29.9	28.0	0.00e+00	0	28	0	2598371328	30	6346
2026-01-10 19:07:10.22	295.45	23.51	-29.3	-29.8	27.9	0.00e+00	0	28	0	2604662784	30	6311
2026-01-10 19:07:11.23	295.20	23.44	-29.3	-29.8	28.0	0.00e+00	0	28	0	2609905664	30	6305
2026-01-10 19:07:12.24	294.95	23.37	-29.3	-29.9	28.0	0.00e+00	0	28	0	2616197120	30	6326
2026-01-10 19:07:13.25	294.70	23.30	-29.4	-30.0	27.9	0.00e+00	0	28	0	2621440000	30	6461
2026-01-10 19:07:14.26	294.45	23.23	-29.4	-29.9	28.0	0.00e+00	0	28	0	2626682880	30	6348
2026-01-10 19:07:15.27	294.21	23.16	-29.3	-29.9	27.9	0.00e+00	0	28	0	2632974336	30	6371
2026-01-10 19:07:16.28	293.96	23.09	-29.2	-29.9	28.0	0.00e+00	0	28	0	2638217216	30	6356
2026-01-10 19:07:17.29	293.72	23.02	-29.0	-29.6	28.2	0.00e+00	0	28	0	2644508672	30	6134
2026-01-10 19:07:18.30	293.48	22.94	-29.0	-29.6	28.1	0.00e+00	0	28	0	2649751552	30	6118
2026-01-10 19:07:19.31	293.23	22.87	-29.1	-29.6	28.1	0.00e+00	0	28	0	2656043008	30	6135
2026-01-10 19:07:20.32	292.99	22.80	-29.2	-29.7	28.1	0.00e+00	0	28	0	2661285888	30	6216
2026-01-10 19:07:21.34	292.75	22.72	-29.1	-29.7	28.1	0.00e+00	0	28	0	2667577344	30	6203
2026-01-10 19:07:22.34	292.52	22.65	-29.2	-29.7	28.1	0.00e+00	0	27	0	2672820224	30	6212
2026-01-10 19:07:23.35	292.28	22.58	-29.2	-29.8	28.0	0.00e+00	0	28	0	2678063104	30	6301
2026-01-10 19:07:24.36	292.04	22.50	-29.3	-29.8	27.8	0.00e+00	0	28	0	2684354560	30	6305
2026-01-10 19:07:25.38	291.80	22.43	-29.4	-29.9	27.7	0.00e+00	0	27	0	2689597440	30	6367
2026-01-10 19:07:26.39	291.57	22.35	-29.4	-30.0	27.7	0.00e+00	0	27	0	2695888896	30	6444
2026-01-10 19:07:27.40	291.34	22.28	-29.5	-30.2	27.6	0.00e+00	0	27	0	2701131776	30	6565
2026-01-10 19:07:28.40	291.11	22.20	-29.4	-30.0	27.7	0.00e+00	0	27	0	2706374656	30	6404
2026-01-10 19:07:29.42	290.88	22.13	-29.4	-30.0	27.7	0.00e+00	0	28	0	2712666112	30	6419
2026-01-10 19:07:30.43	290.65	22.05	-29.4	-30.1	27.7	0.00e+00	0	27	0	2717908992	30	6490
2026-01-10 19:07:31.44	290.42	21.97	-29.4	-29.9	27.8	0.00e+00	0	27	0	2724200448	30	6383
2026-01-10 19:07:32.45	290.19	21.90	-29.4	-30.0	27.6	0.00e+00	0	28	0	2729443328	30	6413
2026-01-10 19:07:33.46	289.97	21.82	-29.4	-29.9	27.7	0.00e+00	0	28	0	2734686208	30	6340
2026-01-10 19:07:34.47	289.74	21.74	-29.2	-29.9	27.8	0.00e+00	0	27	0	2740977664	30	6367
2026-01-10 19:07:35.48	289.52	21.66	-29.2	-29.7	27.9	0.00e+00	0	28	0	2746220544	30	6203
2026-01-10 19:07:36.49	289.30	21.59	-29.4	-30.0	27.6	0.00e+00	0	28	0	2752512000	30	6418
2026-01-10 19:07:37.50	289.07	21.51	-29.7	-30.2	27.5	0.00e+00	0	28	0	2757754880	30	6613
2026-01-10 19:07:38.52	288.85	21.43	-29.8	-30.4	27.4	0.00e+00	0	28	0	2764046336	32	6022
2026-01-10 19:07:39.53	288.63	21.35	-29.8	-30.5	27.2	0.00e+00	0	28	0	2769289216	32	6040
2026-01-10 19:07:40.53	288.42	21.27	-29.6	-30.3	27.4	0.00e+00	0	27	0	2775580672	32	5912
2026-01-10 19:07:41.54	288.20	21.20	-29.6	-30.3	27.6	0.00e+00	0	27	0	2780823552	32	5915
2026-01-10 19:07:42.55	287.98	21.12	-29.6	-30.2	27.5	0.00e+00	0	27	0	2786066432	32	5840
2026-01-10 19:07:43.56	287.77	21.04	-29.8	-30.5	27.3	0.00e+00	0	28	0	2792357888	32	6042
2026-01-10 19:07:44.57	287.56	20.96	-29.8	-30.4	27.4	0.00e+00	0	27	0	2797600768	32	6001
2026-01-10 19:07:45.58	287.34	20.88	-29.9	-30.6	27.2	0.00e+00	0	28	0	2803892224	32	6140
2026-01-10 19:07:46.59	287.13	20.80	-29.9	-30.5	27.2	0.00e+00	0	27	0	2809135104	32	6052
2026-01-10 19:07:47.60	286.92	20.72	-29.9	-30.5	27.2	0.00e+00	0	27	0	2814377984	32	6049
2026-01-10 19:07:48.61	286.71	20.64	-29.8	-30.4	27.1	0.00e+00	0	27	0	2820669440	32	6016
2026-01-10 19:07:49.62	286.50	20.56	-30.1	-30.6	26.9	0.00e+00	0	28	0	2825912320	32	6141
2026-01-10 19:07:50.63	286.30	20.48	-30.3	-30.9	26.9	0.00e+00	0	27	0	2832203776	32	6380
2026-01-10 19:07:51.64	286.09	20.40	-30.4	-31.0	26.8	0.00e+00	0	28	0	2837446656	32	6429
2026-01-10 19:07:52.66	285.89	20.32	-30.3	-31.0	26.8	0.00e+00	0	27	0	2842689536	32	6428
2026-01-10 19:07:53.66	285.68	20.24	-30.0	-30.6	27.0	0.00e+00	0	28	0	2848980992	32	6122
2026-01-10 19:07:54.67	285.48	20.16	-30.0	-30.5	26.8	0.00e+00	0	27	0	2854223872	32	6075
2026-01-10 19:07:55.69	285.28	20.08	-30.0	-30.7	26.9	0.00e+00	0	27	0	2860515328	32	6180
2026-01-10 19:07:56.69	285.08	20.00	-30.0	-30.5	26.9	0.00e+00	0	28	0	2865758208	32	6088
2026-01-10 19:07:57.70	284.88	19.91	-30.1	-30.6	27.2	0.00e+00	0	28	0	2872049664	32	6145
2026-01-10 19:07:58.71	284.68	19.83	-30.1	-30.7	26.9	0.00e+00	0	27	0	2877292544	32	6189
2026-01-10 19:07:59.72	284.48	19.75	-30.0	-30.5	26.9	0.00e+00	0	27	0	2882535424	32	6102
2026-01-10 19:08:00.73	284.29	19.67	-30.0	-30.5	27.1	0.00e+00	0	27	0	2888826880	32	6069
2026-01-10 19:08:01.74	284.09	19.59	-30.0	-30.6	27.1	0.00e+00	0	27	0	2894069760	32	6168
2026-01-10 19:08:02.75	283.90	19.51	-30.2	-30.7	27.0	0.00e+00	0	28	0	2900361216	32	6233
2026-01-10 19:08:03.76	283.71	19.43	-30.1	-30.7	27.1	0.00e+00	0	27	0	2905604096	32	6221
2026-01-10 19:08:04.77	283.51	19.35	-30.0	-30.7	27.1	0.00e+00	0	27	0	2910846976	32	6194
2026-01-10 19:08:05.78	283.32	19.26	-29.9	-30.5	27.2	0.00e+00	0	28	0	2917138432	32	6084
2026-01-10 19:08:06.79	283.13	19.18	-30.0	-30.6	27.2	0.00e+00	0	28	0	2922381312	32	6168
2026-01-10 19:08:07.80	282.94	19.10	-29.9	-30.6	27.2	0.00e+00	0	27	0	2928672768	32	6119
2026-01-10 19:08:08.81	282.75	19.02	-30.1	-30.8	27.1	0.00e+00	0	27	0	2933915648	32	6307
2026-01-10 19:08:09.82	282.57	18.94	-30.1	-30.6	27.1	0.00e+00	0	27	0	2939158528	32	6160
2026-01-10 19:08:10.83	282.38	18.85	-30.0	-30.6	27.1	0.00e+00	0	28	0	2945449984	32	6157
2026-01-10 19:08:11.84	282.20	18.77	-30.1	-30.8	27.0	0.00e+00	0	28	0	2950692864	32	6300
2026-01-10 19:08:12.85	282.01	18.69	-30.3	-31.0	26.9	0.00e+00	0	27	0	2956984320	32	6411
2026-01-10 19:08:13.86	281.83	18.61	-30.3	-30.9	26.9	0.00e+00	0	27	0	2962227200	32	6335
2026-01-10 19:08:14.87	281.65	18.53	-30.3	-30.9	26.9	0.00e+00	0	27	0	2968518656	32	6336
2026-01-10 19:08:15.88	281.47	18.44	-30.3	-31.0	26.9	0.00e+00	0	27	0	2973761536	32	6458
2026-01-10 19:08:16.89	281.29	18.36	-30.5	-31.2	26.8	0.00e+00	0	27	0	2980052992	32	6577
2026-01-10 19:08:17.90	281.11	18.28	-30.6	-31.3	26.7	0.00e+00	0	28	0	2985295872	32	6644
2026-01-10 19:08:18.91	280.93	18.20	-30.5	-31.2	26.8	0.00e+00	0	27	0	2990538752	32	6559
2026-01-10 19:08:19.92	280.75	18.12	-30.5	-31.1	26.8	0.00e+00	0	27	0	2996830208	32	6496
2026-01-10 19:08:20.93	280.58	18.03	-30.4	-31.1	26.8	0.00e+00	0	27	0	3002073088	32	6520
2026-01-10 19:08:21.94	280.40	17.95	-30.4	-30.9	26.9	0.00e+00	0	27	0	3008364544	32	6366
2026-01-10 19:08:22.95	280.23	17.87	-30.2	-30.7	27.0	0.00e+00	0	27	0	3013607424	32	6218
2026-01-10 19:08:23.96	280.06	17.79	-30.2	-30.9	27.0	0.00e+00	0	27	0	3018850304	32	6364
2026-01-10 19:08:24.97	279.88	17.70	-30.3	-30.8	26.9	0.00e+00	0	27	0	3025141760	32	6305
2026-01-10 19:08:25.98	279.71	17.62	-30.4	-31.0	26.8	0.00e+00	0	27	0	3030384640	32	6411
2026-01-10 19:08:26.99	279.54	17.54	-30.5	-31.2	26.8	0.00e+00	0	27	0	3036676096	32	6567
2026-01-10 19:08:28.00	279.37	17.46	-30.6	-31.1	26.7	0.00e+00	0	27	0	3041918976	32	6518
2026-01-10 19:08:29.01	279.20	17.38	-30.5	-31.1	26.6	0.00e+00	0	27	0	3047161856	32	6491
2026-01-10 19:08:30.02	279.04	17.29	-30.6	-31.2	26.7	0.00e+00	0	27	0	3053453312	32	6563
2026-01-10 19:08:31.03	278.87	17.21	-30.7	-31.3	26.6	0.00e+00	0	27	0	3058696192	32	6617
2026-01-10 19:08:32.04	278.70	17.13	-30.7	-31.3	26.6	0.00e+00	0	27	0	3064987648	34	5913
2026-01-10 19:08:33.05	278.54	17.05	-30.7	-31.3	26.6	0.00e+00	0	27	0	3070230528	34	5906
2026-01-10 19:08:34.06	278.38	16.96	-30.8	-31.5	26.5	0.00e+00	0	27	0	3076521984	34	6073
2026-01-10 19:08:35.07	278.21	16.88	-30.8	-31.5	26.5	0.00e+00	0	27	0	3081764864	34	6077
2026-01-10 19:08:36.08	278.05	16.80	-30.8	-31.5	26.4	0.00e+00	0	27	0	3087007744	34	6063
2026-01-10 19:08:37.09	277.89	16.72	-30.8	-31.6	26.5	0.00e+00	0	27	0	3093299200	34	6106
2026-01-10 19:08:38.10	277.73	16.64	-30.8	-31.4	26.5	0.00e+00	0	27	0	3098542080	34	5968
2026-01-10 19:08:39.11	277.57	16.56	-30.9	-31.5	26.5	0.00e+00	0	27	0	3104833536	34	6096
2026-01-10 19:08:40.12	277.41	16.47	-30.8	-31.4	26.3	0.00e+00	0	27	0	3110076416	34	6006
2026-01-10 19:08:41.13	277.25	16.39	-30.9	-31.6	26.4	0.00e+00	0	27	0	3115319296	34	6149
2026-01-10 19:08:42.14	277.10	16.31	-31.1	-31.8	26.2	0.00e+00	0	27	0	3121610752	34	6283
2026-01-10 19:08:43.15	276.94	16.23	-30.9	-31.5	26.3	0.00e+00	0	27	0	3126853632	34	6071
2026-01-10 19:08:44.16	276.79	16.15	-30.9	-31.5	26.3	0.00e+00	0	27	0	3133145088	34	6067
2026-01-10 19:08:45.17	276.63	16.07	-31.0	-31.5	26.3	0.00e+00	0	27	0	3138387968	34	6098
2026-01-10 19:08:46.18	276.48	15.98	-31.0	-31.6	26.2	0.00e+00	0	27	0	3143630848	34	6106
2026-01-10 19:08:47.19	276.33	15.90	-31.1	-31.7	26.2	0.00e+00	0	27	0	3149922304	34	6196
2026-01-10 19:08:48.20	276.17	15.82	-31.1	-31.8	26.1	0.00e+00	0	27	0	3155165184	34	6278
2026-01-10 19:08:49.21	276.02	15.74	-31.2	-31.9	26.2	0.00e+00	0	27	0	3161456640	34	6336
2026-01-10 19:08:50.22	275.87	15.66	-31.3	-32.1	26.1	0.00e+00	0	27	0	3166699520	34	6469
2026-01-10 19:08:51.23	275.72	15.58	-31.1	-31.7	26.2	0.00e+00	0	27	0	3172990976	34	6209
2026-01-10 19:08:52.24	275.58	15.50	-31.1	-31.6	26.3	0.00e+00	0	27	0	3178233856	34	6167
2026-01-10 19:08:53.25	275.43	15.42	-31.1	-31.8	26.2	0.00e+00	0	27	0	3184525312	34	6284
2026-01-10 19:08:54.26	275.28	15.33	-31.1	-31.8	26.2	0.00e+00	0	27	0	3189768192	34	6273
2026-01-10 19:08:55.27	275.14	15.25	-31.1	-31.8	26.3	0.00e+00	0	27	0	3195011072	34	6311
2026-01-10 19:08:56.28	274.99	15.17	-31.1	-31.8	26.2	0.00e+00	0	28	0	3201302528	34	6260
2026-01-10 19:08:57.29	274.85	15.09	-31.1	-31.8	26.1	0.00e+00	0	27	0	3206545408	34	6275
2026-01-10 19:08:58.30	274.70	15.01	-31.1	-31.7	26.2	0.00e+00	0	27	0	3212836864	34	6181
2026-01-10 19:08:59.31	274.56	14.93	-31.1	-31.8	26.3	0.00e+00	0	27	0	3218079744	34	6282
2026-01-10 19:09:00.32	274.42	14.85	-31.2	-31.8	26.1	0.00e+00	0	27	0	3223322624	34	6269
2026-01-10 19:09:01.33	274.28	14.77	-31.2	-32.0	26.1	0.00e+00	0	27	0	3229614080	34	6398
2026-01-10 19:09:02.34	274.14	14.69	-31.2	-31.8	26.1	0.00e+00	0	27	0	3234856960	34	6282
2026-01-10 19:09:03.35	274.00	14.61	-31.3	-31.9	26.0	0.00e+00	0	27	0	3241148416	34	6355
2026-01-10 19:09:04.36	273.86	14.53	-31.3	-32.0	26.0	0.00e+00	0	27	0	3246391296	34	6443
2026-01-10 19:09:05.37	273.72	14.45	-31.5	-32.2	25.9	0.00e+00	0	27	0	3251634176	34	6590
2026-01-10 19:09:06.38	273.58	14.37	-31.5	-32.0	25.9	0.00e+00	0	27	0	3257925632	34	6453
2026-01-10 19:09:07.39	273.45	14.29	-31.6	-32.2	25.8	0.00e+00	0	27	0	3263168512	34	6598
2026-01-10 19:09:08.40	273.31	14.21	-31.6	-32.3	25.8	0.00e+00	0	27	0	3269459968	34	6624
2026-01-10 19:09:09.41	273.17	14.13	-31.6	-32.1	25.8	0.00e+00	0	27	0	3274702848	34	6531
2026-01-10 19:09:10.42	273.04	14.05	-31.6	-32.3	25.8	0.00e+00	0	27	0	3280994304	34	6642
2026-01-10 19:09:11.43	272.91	13.97	-31.5	-32.1	25.8	0.00e+00	0	27	0	3286237184	34	6475
2026-01-10 19:09:12.44	272.77	13.89	-31.5	-32.3	25.8	0.00e+00	0	27	0	3292528640	34	6629
2026-01-10 19:09:13.45	272.64	13.81	-31.6	-32.3	25.8	0.00e+00	0	27	0	3297771520	34	6632
2026-01-10 19:09:14.46	272.51	13.74	-31.6	-32.2	25.7	0.00e+00	0	27	0	3303014400	34	6558
2026-01-10 19:09:15.47	272.38	13.66	-31.5	-32.1	25.9	0.00e+00	0	27	0	3309305856	34	6496
2026-01-10 19:09:16.48	272.25	13.58	-31.5	-32.2	25.8	0.00e+00	0	27	0	3314548736	34	6610
2026-01-10 19:09:17.49	272.12	13.50	-31.6	-32.2	25.7	0.00e+00	0	27	0	3320840192	34	6585
2026-01-10 19:09:18.50	271.99	13.42	-31.9	-32.6	25.6	0.00e+00	0	27	0	3326083072	36	6116
2026-01-10 19:09:19.51	271.86	13.34	-31.9	-32.5	25.5	0.00e+00	0	27	0	3331325952	36	6065
2026-01-10 19:09:20.52	271.74	13.26	-31.9	-32.5	25.5	0.00e+00	0	27	0	3337617408	36	6068
2026-01-10 19:09:21.53	271.61	13.18	-32.0	-32.8	25.4	0.00e+00	0	27	0	3342860288	36	6266
2026-01-10 19:09:22.54	271.48	13.11	-32.1	-32.7	25.3	0.00e+00	0	27	0	3349151744	36	6209
2026-01-10 19:09:23.55	271.36	13.03	-32.1	-32.7	25.3	0.00e+00	0	27	0	3354394624	36	6188
2026-01-10 19:09:24.56	271.23	12.95	-32.1	-32.8	25.4	0.00e+00	0	27	0	3359637504	36	6292
2026-01-10 19:09:25.57	271.11	12.87	-32.1	-32.9	25.4	0.00e+00	0	27	0	3365928960	36	6335
2026-01-10 19:09:26.58	270.99	12.80	-32.1	-32.7	25.3	0.00e+00	0	27	0	3371171840	36	6212
2026-01-10 19:09:27.59	270.86	12.72	-32.1	-32.6	25.4	0.00e+00	0	27	0	3377463296	36	6168
2026-01-10 19:09:28.60	270.74	12.64	-32.0	-32.7	25.3	0.00e+00	0	27	0	3382706176	36	6237
2026-01-10 19:09:29.61	270.62	12.56	-32.1	-32.7	25.3	0.00e+00	0	27	0	3387949056	36	6202
2026-01-10 19:09:30.61	270.50	12.49	-31.9	-32.5	25.4	0.00e+00	0	27	0	3394240512	36	6083
2026-01-10 19:09:31.62	270.38	12.41	-32.0	-32.7	25.4	0.00e+00	0	27	0	3399483392	36	6245
2026-01-10 19:09:32.63	270.26	12.33	-31.9	-32.5	25.4	0.00e+00	0	27	0	3405774848	36	6091
2026-01-10 19:09:33.64	270.14	12.25	-32.0	-32.8	25.3	0.00e+00	0	27	0	3411017728	36	6247
2026-01-10 19:09:34.65	270.02	12.18	-32.1	-32.7	25.3	0.00e+00	0	27	0	3417309184	36	6224
2026-01-10 19:09:35.66	269.91	12.10	-32.0	-32.6	25.4	0.00e+00	0	27	0	3422552064	36	6152
2026-01-10 19:09:36.67	269.79	12.02	-32.1	-32.8	25.3	0.00e+00	0	27	0	3427794944	36	6283
2026-01-10 19:09:37.68	269.67	11.95	-32.0	-32.6	25.3	0.00e+00	0	27	0	3434086400	36	6104
2026-01-10 19:09:38.69	269.56	11.87	-32.0	-32.5	25.3	0.00e+00	0	27	0	3439329280	36	6103
2026-01-10 19:09:39.70	269.44	11.80	-32.0	-32.6	25.3	0.00e+00	0	27	0	3445620736	36	6135
2026-01-10 19:09:40.71	269.33	11.72	-32.0	-32.6	25.4	0.00e+00	0	27	0	3450863616	36	6115
2026-01-10 19:09:41.72	269.22	11.64	-32.1	-32.8	25.3	0.00e+00	0	27	0	3456106496	36	6261
2026-01-10 19:09:42.73	269.10	11.57	-32.1	-32.7	25.3	0.00e+00	0	27	0	3462397952	36	6216
2026-01-10 19:09:43.74	268.99	11.49	-32.1	-32.9	25.2	0.00e+00	0	27	0	3467640832	36	6322
2026-01-10 19:09:44.75	268.88	11.42	-32.4	-33.0	25.0	0.00e+00	0	27	0	3473932288	36	6403
2026-01-10 19:09:45.76	268.77	11.34	-32.5	-33.3	24.8	0.00e+00	0	27	0	3479175168	36	6639
2026-01-10 19:09:46.77	268.66	11.27	-32.4	-33.1	25.0	0.00e+00	0	27	0	3484418048	36	6470
2026-01-10 19:09:47.78	268.54	11.19	-32.4	-33.2	24.9	0.00e+00	0	27	0	3490709504	36	6566
2026-01-10 19:09:48.79	268.44	11.12	-32.6	-33.3	24.8	0.00e+00	0	27	0	3495952384	36	6672
2026-01-10 19:09:49.80	268.33	11.04	-32.5	-33.2	24.8	0.00e+00	0	27	0	3502243840	36	6547
2026-01-10 19:09:50.81	268.22	10.97	-32.5	-33.1	24.8	0.00e+00	0	27	0	3507486720	36	6526
2026-01-10 19:09:51.82	268.11	10.89	-32.6	-33.4	24.7	0.00e+00	0	27	0	3513778176	36	6709
2026-01-10 19:09:52.83	268.00	10.82	-32.5	-33.1	24.8	0.00e+00	0	27	0	3519021056	36	6531
2026-01-10 19:09:53.83	267.90	10.74	-32.5	-33.1	24.9	0.00e+00	0	27	0	3525312512	36	6513
2026-01-10 19:09:54.84	267.79	10.67	-32.7	-33.5	24.6	0.00e+00	0	27	0	3530555392	36	6788
2026-01-10 19:09:55.85	267.68	10.59	-32.7	-33.4	24.7	0.00e+00	0	27	0	3535798272	38	5993
2026-01-10 19:09:56.86	267.58	10.52	-32.6	-33.4	24.7	0.00e+00	0	27	0	3542089728	38	5979
2026-01-10 19:09:57.87	267.47	10.45	-32.7	-33.3	24.6	0.00e+00	0	27	0	3547332608	38	5958
2026-01-10 19:09:58.88	267.37	10.37	-32.7	-33.3	24.6	0.00e+00	0	27	0	3553624064	38	5964
2026-01-10 19:09:59.89	267.27	10.30	-32.8	-33.5	24.5	0.00e+00	0	27	0	3558866944	38	6062
2026-01-10 19:10:00.90	267.16	10.23	-33.0	-33.8	24.3	0.00e+00	0	27	0	3564109824	38	6281
2026-01-10 19:10:01.91	267.06	10.15	-33.1	-33.8	24.3	0.00e+00	0	27	0	3570401280	38	6314
2026-01-10 19:10:02.92	266.96	10.08	-32.9	-33.5	24.5	0.00e+00	0	27	0	3575644160	38	6082
2026-01-10 19:10:03.93	266.86	10.01	-32.7	-33.4	24.6	0.00e+00	0	27	0	3580887040	38	5967
2026-01-10 19:10:04.94	266.76	9.93	-32.7	-33.4	24.7	0.00e+00	0	27	0	3587178496	38	5973
2026-01-10 19:10:05.95	266.66	9.86	-32.7	-33.5	24.6	0.00e+00	0	27	0	3592421376	38	6040
