passes_logs/2026/01/10/R4.6S_Anadyr/R4.6S_Anadyr__20260110_195730_NOAA_20_JPSS-1_rec.log

#Pass ID: 20260110_195730_NOAA 20 (JPSS-1)
#Satellite: NOAA 20 (JPSS-1)
#Configuration: NOAA 20
#almurnet v.1.7.20251203
#Start time: 2026-01-10 19:57:31

#Version: 2.2.20231116
#Station: R4.6S_Anadyr
#Location: 177.4865 lon 64.73178 lat
#TLE: 1 43013U 17073A   26009.69119415  .00000109  00000+0  72598-4 0  9996
#TLE: 2 43013  98.7631 310.6868 0001678  46.7442 313.3874 14.19534878421981

#Time	Az	El	Level	Level2	SNR	BER	BlckErr	Temp	State	Recorded	gain1	gain2
2026-01-10 19:57:31.95	61.50	0.06	-48.1	-63.0	3.5	1.51e+00	0	25	0	0	60	50796
2026-01-10 19:57:32.96	61.42	0.11	-48.1	-63.3	3.6	1.51e+00	0	26	104	0	60	52952
2026-01-10 19:57:33.97	61.35	0.16	-48.2	-63.4	3.6	1.51e+00	0	26	104	0	60	53329
2026-01-10 19:57:34.98	61.27	0.21	-48.1	-63.4	3.6	1.51e+00	0	26	104	0	60	53190
2026-01-10 19:57:35.99	61.20	0.26	-48.2	-63.4	3.6	1.51e+00	0	26	104	0	60	53325
2026-01-10 19:57:37.00	61.12	0.31	-48.2	-63.4	3.6	1.51e+00	0	26	104	0	60	53734
2026-01-10 19:57:38.01	61.04	0.35	-48.2	-63.4	3.6	1.51e+00	0	26	104	0	60	53391
2026-01-10 19:57:39.02	60.96	0.40	-48.2	-63.3	3.6	1.51e+00	0	26	104	0	60	53044
2026-01-10 19:57:40.03	60.89	0.45	-48.2	-63.4	3.6	1.51e+00	0	26	104	0	60	53399
2026-01-10 19:57:41.04	60.81	0.50	-48.1	-63.3	3.6	1.51e+00	0	26	104	0	60	53103
2026-01-10 19:57:42.05	60.73	0.55	-48.1	-63.3	3.6	1.51e+00	0	26	104	0	60	52951
2026-01-10 19:57:43.06	60.65	0.60	-48.1	-63.3	3.6	1.51e+00	0	27	104	0	60	52640
2026-01-10 19:57:44.07	60.58	0.65	-48.0	-63.3	3.6	1.51e+00	0	26	104	0	60	52840
2026-01-10 19:57:45.08	60.50	0.70	-48.0	-63.2	3.6	1.51e+00	0	26	104	0	60	51974
2026-01-10 19:57:46.09	60.42	0.75	-47.8	-63.0	3.6	1.51e+00	0	27	104	0	60	51333
2026-01-10 19:57:47.10	60.34	0.80	-47.7	-62.8	3.6	1.51e+00	0	26	104	0	60	50172
2026-01-10 19:57:48.11	60.26	0.85	-47.4	-62.6	3.6	1.51e+00	0	26	104	0	60	48687
2026-01-10 19:57:49.12	60.18	0.90	-46.9	-62.1	3.6	1.51e+00	0	26	104	0	60	45912
2026-01-10 19:57:50.13	60.10	0.95	-46.4	-61.6	3.6	1.51e+00	0	27	104	0	60	43380
2026-01-10 19:57:51.14	60.02	1.00	-46.4	-61.6	3.6	1.51e+00	0	26	104	0	60	43239
2026-01-10 19:57:52.15	59.94	1.05	-46.4	-61.5	3.6	1.51e+00	0	27	104	0	60	43033
2026-01-10 19:57:53.16	59.86	1.10	-46.4	-61.5	3.6	1.51e+00	0	26	104	0	60	43163
2026-01-10 19:57:54.17	59.78	1.15	-46.4	-61.5	3.6	1.51e+00	0	27	104	0	60	43017
2026-01-10 19:57:55.18	59.69	1.20	-46.4	-61.5	3.6	1.51e+00	0	27	104	0	60	42968
2026-01-10 19:57:56.19	59.61	1.25	-46.4	-61.5	3.6	1.51e+00	0	27	104	0	60	42863
2026-01-10 19:57:57.20	59.53	1.30	-46.4	-61.6	3.6	1.51e+00	0	26	104	0	60	43333
2026-01-10 19:57:58.21	59.45	1.35	-46.4	-61.5	3.6	1.51e+00	0	27	104	0	60	42920
2026-01-10 19:57:59.22	59.37	1.40	-46.4	-61.5	3.6	1.51e+00	0	26	104	0	60	43065
2026-01-10 19:58:00.23	59.28	1.45	-46.4	-61.5	3.6	1.51e+00	0	27	104	0	60	43141
2026-01-10 19:58:01.23	59.20	1.50	-46.4	-61.4	3.6	1.51e+00	0	26	104	0	60	42643
2026-01-10 19:58:02.24	59.12	1.55	-46.3	-61.5	3.6	1.51e+00	0	27	104	0	60	43013
2026-01-10 19:58:03.25	59.03	1.60	-46.3	-61.5	3.6	1.51e+00	0	26	104	0	60	42805
2026-01-10 19:58:04.26	58.95	1.65	-46.3	-61.5	3.6	1.51e+00	0	27	104	0	60	42926
2026-01-10 19:58:05.27	58.86	1.70	-46.3	-61.5	3.6	1.51e+00	0	27	104	0	60	42783
2026-01-10 19:58:06.28	58.78	1.75	-46.4	-61.5	3.6	1.51e+00	0	27	104	0	60	43017
2026-01-10 19:58:07.29	58.70	1.80	-46.3	-61.5	3.6	1.51e+00	0	27	104	0	60	42723
2026-01-10 19:58:08.30	58.61	1.85	-46.4	-61.5	3.6	1.51e+00	0	27	104	0	60	42941
2026-01-10 19:58:09.31	58.52	1.90	-46.3	-61.5	3.5	1.51e+00	0	27	104	0	60	43097
2026-01-10 19:58:10.32	58.44	1.95	-46.3	-61.4	3.6	1.51e+00	0	27	104	0	60	42521
2026-01-10 19:58:11.33	58.35	2.00	-46.3	-61.4	3.6	1.51e+00	0	27	104	0	60	42441
2026-01-10 19:58:12.34	58.27	2.05	-46.4	-61.3	3.6	1.51e+00	0	27	104	0	60	41960
2026-01-10 19:58:13.35	58.18	2.10	-46.4	-61.2	3.6	1.51e+00	0	27	104	0	60	41589
2026-01-10 19:58:14.36	58.09	2.15	-46.3	-61.2	3.6	1.51e+00	0	27	104	0	60	41321
2026-01-10 19:58:15.37	58.00	2.20	-46.3	-61.3	3.6	1.51e+00	0	27	104	0	60	41808
2026-01-10 19:58:16.38	57.92	2.25	-46.3	-61.4	3.6	1.51e+00	0	27	104	0	60	42389
2026-01-10 19:58:17.39	57.83	2.30	-46.4	-61.5	3.6	1.51e+00	0	27	104	0	60	43140
2026-01-10 19:58:18.40	57.74	2.35	-46.3	-61.5	3.6	1.51e+00	0	27	104	0	60	42907
2026-01-10 19:58:19.41	57.65	2.40	-46.3	-61.5	3.6	1.51e+00	0	27	104	0	60	42770
2026-01-10 19:58:20.42	57.56	2.46	-46.3	-61.4	3.6	1.51e+00	0	27	104	0	60	42620
2026-01-10 19:58:21.43	57.47	2.51	-46.3	-61.5	3.6	1.51e+00	0	27	104	0	60	43124
2026-01-10 19:58:22.44	57.38	2.56	-46.3	-61.5	3.6	1.51e+00	0	27	104	0	60	42953
2026-01-10 19:58:23.44	57.29	2.61	-46.3	-61.2	3.6	1.51e+00	0	27	104	0	60	41293
2026-01-10 19:58:24.46	57.20	2.66	-46.3	-60.7	3.6	1.51e+00	0	27	104	0	60	39376
2026-01-10 19:58:25.46	57.11	2.71	-46.3	-60.4	3.6	1.51e+00	0	27	104	0	60	37870
2026-01-10 19:58:26.47	57.02	2.76	-46.3	-61.0	3.6	1.51e+00	0	27	104	0	60	40773
2026-01-10 19:58:27.49	56.93	2.81	-46.3	-61.2	3.6	1.51e+00	0	27	104	0	60	41434
2026-01-10 19:58:28.49	56.84	2.86	-46.2	-59.1	3.6	1.51e+00	0	27	104	0	60	32531
2026-01-10 19:58:29.50	56.75	2.91	-46.0	-55.1	5.2	1.17e+00	92	27	0	0	60	20580
2026-01-10 19:58:30.51	56.66	2.96	-45.3	-51.2	8.6	2.21e-01	92	27	0	2097152	60	13120
2026-01-10 19:58:31.53	56.56	3.01	-44.6	-49.1	11.2	3.99e-03	71	27	0	4194304	60	10322
2026-01-10 19:58:32.54	56.47	3.07	-44.6	-49.3	10.7	6.55e-04	92	27	0	5242880	60	10524
2026-01-10 19:58:33.55	56.38	3.12	-43.5	-46.7	14.0	2.64e-02	6	27	0	7340032	60	7832
2026-01-10 19:58:34.56	56.28	3.17	-44.9	-50.5	7.6	1.60e-05	90	27	0	9437184	58	13545
2026-01-10 19:58:35.57	56.19	3.22	-46.3	-60.3	3.6	1.51e+00	0	27	104	9437184	60	37420
2026-01-10 19:58:36.57	56.10	3.27	-43.8	-47.5	5.8	1.50e+00	0	27	104	9437184	60	8547
2026-01-10 19:58:37.58	56.00	3.32	-44.2	-48.4	12.4	2.92e-02	0	27	0	9437184	60	9496
2026-01-10 19:58:38.59	55.91	3.37	-44.1	-48.0	12.4	1.23e-04	92	27	0	11534336	60	9122
2026-01-10 19:58:39.60	55.81	3.42	-44.2	-48.2	12.4	3.58e-04	92	27	0	12582912	60	9253
2026-01-10 19:58:40.61	55.72	3.47	-44.2	-48.1	12.7	3.31e-04	69	27	0	14680064	60	9190
2026-01-10 19:58:41.62	55.62	3.52	-44.3	-48.4	11.4	9.04e-04	92	27	0	16777216	60	9531
2026-01-10 19:58:42.63	55.52	3.58	-44.4	-48.5	12.3	4.82e-04	2	27	0	18874368	60	9592
2026-01-10 19:58:43.64	55.43	3.63	-44.3	-48.5	11.5	3.43e-04	92	27	0	20971520	60	9570
2026-01-10 19:58:44.65	55.33	3.68	-43.5	-46.6	14.2	1.52e-05	2	27	0	22020096	60	7760
2026-01-10 19:58:45.66	55.23	3.73	-42.8	-45.5	15.4	0.00e+00	92	27	0	24117248	60	6811
2026-01-10 19:58:46.67	55.13	3.78	-42.0	-44.2	16.6	0.00e+00	90	27	0	26214400	58	6562
2026-01-10 19:58:47.68	55.04	3.83	-42.0	-44.3	16.5	0.00e+00	18	27	0	28311552	58	6624
2026-01-10 19:58:48.69	54.94	3.88	-42.0	-44.2	16.6	0.00e+00	92	27	0	30408704	58	6549
2026-01-10 19:58:49.70	54.84	3.93	-41.9	-44.1	16.7	0.00e+00	17	27	0	31457280	58	6497
2026-01-10 19:58:50.71	54.74	3.99	-41.7	-43.7	17.2	0.00e+00	92	27	0	33554432	56	6989
2026-01-10 19:58:51.72	54.64	4.04	-41.5	-43.5	17.4	0.00e+00	5	27	0	35651584	56	6803
2026-01-10 19:58:52.73	54.54	4.09	-41.4	-43.2	17.6	0.00e+00	92	27	0	37748736	56	6609
2026-01-10 19:58:53.74	54.44	4.14	-41.5	-43.5	17.4	0.00e+00	56	27	0	39845888	56	6819
2026-01-10 19:58:54.75	54.34	4.19	-41.3	-43.1	17.7	0.00e+00	64	27	0	40894464	56	6530
2026-01-10 19:58:55.76	54.24	4.24	-41.5	-43.4	17.5	0.00e+00	91	27	0	42991616	56	6708
2026-01-10 19:58:56.77	54.14	4.29	-41.4	-43.3	17.6	0.00e+00	63	27	0	45088768	56	6620
2026-01-10 19:58:57.78	54.04	4.34	-41.4	-43.3	17.7	0.00e+00	91	27	0	47185920	56	6618
2026-01-10 19:58:58.79	53.94	4.40	-41.0	-42.7	18.2	0.00e+00	63	27	0	49283072	56	6245
2026-01-10 19:58:59.80	53.83	4.45	-41.0	-42.8	18.2	0.00e+00	90	27	0	50331648	56	6251
2026-01-10 19:59:00.81	53.73	4.50	-41.0	-42.7	18.3	0.00e+00	72	27	0	52428800	56	6204
2026-01-10 19:59:01.82	53.63	4.55	-41.1	-42.8	18.2	0.00e+00	0	27	0	54525952	56	6292
2026-01-10 19:59:02.83	53.52	4.60	-40.9	-42.7	18.3	0.00e+00	91	27	0	56623104	56	6185
2026-01-10 19:59:03.84	53.42	4.65	-41.0	-42.7	18.3	0.00e+00	1	27	0	58720256	56	6192
2026-01-10 19:59:04.85	53.32	4.70	-41.0	-42.7	18.3	0.00e+00	92	27	0	59768832	56	6243
2026-01-10 19:59:05.86	53.21	4.76	-41.1	-42.8	18.2	0.00e+00	0	27	0	61865984	56	6311
2026-01-10 19:59:06.87	53.11	4.81	-40.9	-42.6	18.4	0.00e+00	91	27	0	63963136	56	6120
2026-01-10 19:59:07.88	53.00	4.86	-40.6	-42.2	18.7	0.00e+00	0	27	0	66060288	54	6606
2026-01-10 19:59:08.89	52.89	4.91	-40.6	-42.2	18.7	0.00e+00	91	27	0	68157440	54	6598
2026-01-10 19:59:09.90	52.79	4.96	-40.6	-42.2	18.8	0.00e+00	92	27	0	69206016	54	6549
2026-01-10 19:59:10.91	52.68	5.01	-40.5	-42.1	18.8	0.00e+00	18	27	0	71303168	54	6533
2026-01-10 19:59:11.92	52.57	5.07	-40.4	-42.0	19.0	0.00e+00	92	27	0	73400320	54	6435
2026-01-10 19:59:12.93	52.47	5.12	-40.6	-42.2	18.7	0.00e+00	64	27	0	75497472	54	6545
2026-01-10 19:59:13.94	52.36	5.17	-40.5	-42.1	18.8	0.00e+00	90	27	0	77594624	54	6518
2026-01-10 19:59:14.95	52.25	5.22	-40.8	-42.5	18.6	0.00e+00	0	27	0	79691776	54	6789
2026-01-10 19:59:15.96	52.14	5.27	-40.8	-42.5	18.4	0.00e+00	63	27	0	80740352	54	6785
2026-01-10 19:59:16.97	52.03	5.32	-40.6	-42.2	18.8	0.00e+00	92	27	0	82837504	54	6583
2026-01-10 19:59:17.98	51.93	5.37	-40.4	-42.0	19.0	0.00e+00	0	27	0	84934656	54	6405
2026-01-10 19:59:18.99	51.82	5.43	-40.4	-41.9	19.1	0.00e+00	92	27	0	87031808	54	6380
2026-01-10 19:59:20.00	51.71	5.48	-40.3	-41.8	18.8	0.00e+00	64	27	0	89128960	54	6251
2026-01-10 19:59:21.01	51.60	5.53	-40.3	-41.8	19.3	0.00e+00	89	27	0	90177536	54	6250
2026-01-10 19:59:22.02	51.48	5.58	-40.0	-41.4	19.5	0.00e+00	0	27	0	92274688	54	6024
2026-01-10 19:59:23.03	51.37	5.63	-40.2	-41.7	19.3	0.00e+00	0	27	0	94371840	54	6192
2026-01-10 19:59:24.04	51.26	5.68	-40.1	-41.6	19.4	0.00e+00	92	27	0	96468992	54	6152
2026-01-10 19:59:25.05	51.15	5.74	-40.1	-41.5	19.6	0.00e+00	0	27	0	98566144	54	6089
2026-01-10 19:59:26.06	51.04	5.79	-39.9	-41.3	19.8	0.00e+00	92	27	0	99614720	54	5921
2026-01-10 19:59:27.07	50.92	5.84	-40.0	-41.4	19.6	0.00e+00	0	27	0	101711872	54	6024
2026-01-10 19:59:28.08	50.81	5.89	-40.0	-41.4	19.7	0.00e+00	92	27	0	103809024	54	5974
2026-01-10 19:59:29.09	50.70	5.94	-40.0	-41.4	19.7	0.00e+00	19	27	0	105906176	54	6021
2026-01-10 19:59:30.10	50.58	5.99	-39.9	-41.3	19.7	0.00e+00	92	27	0	108003328	54	5954
2026-01-10 19:59:31.11	50.47	6.05	-40.0	-41.4	19.8	0.00e+00	0	27	0	109051904	54	5976
2026-01-10 19:59:32.11	50.35	6.10	-39.9	-41.4	19.7	0.00e+00	0	27	0	111149056	54	5974
2026-01-10 19:59:33.12	50.24	6.15	-39.9	-41.3	19.8	0.00e+00	92	27	0	113246208	54	5916
2026-01-10 19:59:34.13	50.12	6.20	-40.0	-41.5	19.7	0.00e+00	18	27	0	115343360	54	6038
2026-01-10 19:59:35.14	50.01	6.25	-40.1	-41.5	19.6	0.00e+00	92	27	0	117440512	54	6073
2026-01-10 19:59:36.15	49.89	6.30	-40.1	-41.6	19.6	0.00e+00	62	27	0	118489088	54	6111
2026-01-10 19:59:37.16	49.77	6.35	-40.1	-41.5	19.7	0.00e+00	92	27	0	120586240	54	6091
2026-01-10 19:59:38.17	49.66	6.41	-40.2	-41.6	19.5	0.00e+00	0	27	0	122683392	54	6155
2026-01-10 19:59:39.18	49.54	6.46	-40.1	-41.5	19.6	0.00e+00	0	27	0	124780544	54	6061
2026-01-10 19:59:40.19	49.42	6.51	-40.0	-41.4	19.7	0.00e+00	92	27	0	126877696	54	6008
2026-01-10 19:59:41.20	49.30	6.56	-40.1	-41.5	19.6	0.00e+00	0	27	0	127926272	54	6080
2026-01-10 19:59:42.21	49.18	6.61	-40.1	-41.6	19.6	0.00e+00	92	27	0	130023424	54	6108
2026-01-10 19:59:43.22	49.06	6.66	-40.2	-41.7	19.5	0.00e+00	2	27	0	132120576	54	6212
2026-01-10 19:59:44.23	48.94	6.71	-40.3	-41.7	19.5	0.00e+00	92	27	0	134217728	54	6238
2026-01-10 19:59:45.24	48.82	6.77	-40.1	-41.6	19.7	0.00e+00	0	27	0	136314880	54	6131
2026-01-10 19:59:46.25	48.70	6.82	-40.2	-41.7	19.6	0.00e+00	87	27	0	137363456	54	6187
2026-01-10 19:59:47.25	48.58	6.87	-40.1	-41.5	19.6	0.00e+00	0	27	0	139460608	54	6096
2026-01-10 19:59:48.26	48.46	6.92	-40.2	-41.6	19.7	0.00e+00	17	27	0	141557760	54	6133
2026-01-10 19:59:49.27	48.34	6.97	-40.1	-41.5	19.7	0.00e+00	91	27	0	143654912	54	6074
2026-01-10 19:59:50.28	48.21	7.02	-40.0	-41.3	19.9	0.00e+00	0	27	0	145752064	54	5955
2026-01-10 19:59:51.29	48.09	7.07	-40.0	-41.3	19.8	0.00e+00	91	27	0	147849216	54	5958
2026-01-10 19:59:52.30	47.97	7.12	-40.1	-41.5	19.6	0.00e+00	0	27	0	148897792	54	6070
2026-01-10 19:59:53.31	47.84	7.17	-39.9	-41.3	19.8	0.00e+00	92	27	0	150994944	54	5925
2026-01-10 19:59:54.32	47.72	7.23	-39.8	-41.1	19.9	0.00e+00	0	27	0	153092096	54	5822
2026-01-10 19:59:55.33	47.59	7.28	-39.9	-41.3	19.9	0.00e+00	0	27	0	155189248	54	5948
2026-01-10 19:59:56.34	47.47	7.33	-39.7	-41.1	20.1	0.00e+00	92	27	0	157286400	54	5773
2026-01-10 19:59:57.35	47.34	7.38	-40.0	-41.3	19.9	0.00e+00	63	27	0	158334976	52	6680
2026-01-10 19:59:58.36	47.22	7.43	-39.8	-41.1	20.2	0.00e+00	92	27	0	160432128	52	6523
2026-01-10 19:59:59.37	47.09	7.48	-39.9	-41.2	20.0	0.00e+00	2	27	0	162529280	52	6611
2026-01-10 20:00:00.38	46.96	7.53	-39.8	-41.1	20.2	0.00e+00	90	27	0	164626432	52	6521
2026-01-10 20:00:01.39	46.83	7.58	-39.9	-41.3	20.0	0.00e+00	64	27	0	166723584	52	6660
2026-01-10 20:00:02.40	46.71	7.63	-39.9	-41.3	20.1	0.00e+00	0	27	0	167772160	52	6616
2026-01-10 20:00:03.41	46.58	7.69	-40.0	-41.3	20.0	0.00e+00	92	27	0	169869312	52	6665
2026-01-10 20:00:04.42	46.45	7.74	-39.9	-41.3	20.1	0.00e+00	4	27	0	171966464	52	6662
2026-01-10 20:00:05.43	46.32	7.79	-39.9	-41.3	20.1	0.00e+00	90	27	0	174063616	52	6662
2026-01-10 20:00:06.44	46.19	7.84	-39.7	-41.0	20.2	0.00e+00	6	27	0	176160768	52	6425
2026-01-10 20:00:07.45	46.06	7.89	-39.7	-41.0	20.4	0.00e+00	92	27	0	177209344	52	6406
2026-01-10 20:00:08.46	45.93	7.94	-39.7	-41.0	20.4	0.00e+00	5	27	0	179306496	52	6396
2026-01-10 20:00:09.47	45.80	7.99	-39.6	-40.9	20.4	0.00e+00	90	27	0	181403648	52	6371
2026-01-10 20:00:10.48	45.66	8.04	-39.6	-40.9	20.4	0.00e+00	0	27	0	183500800	52	6334
2026-01-10 20:00:11.49	45.53	8.09	-39.6	-40.9	20.4	0.00e+00	5	27	0	185597952	52	6371
2026-01-10 20:00:12.50	45.40	8.14	-39.6	-40.9	20.5	0.00e+00	92	27	0	186646528	52	6359
2026-01-10 20:00:13.51	45.27	8.19	-39.5	-40.8	20.4	0.00e+00	5	27	0	188743680	52	6300
2026-01-10 20:00:14.52	45.13	8.24	-39.6	-40.9	20.5	0.00e+00	92	27	0	190840832	52	6342
2026-01-10 20:00:15.53	45.00	8.29	-39.4	-40.6	20.7	0.00e+00	18	27	0	192937984	52	6156
2026-01-10 20:00:16.54	44.86	8.34	-39.5	-40.8	20.6	0.00e+00	92	27	0	195035136	52	6276
2026-01-10 20:00:17.55	44.73	8.39	-39.5	-40.8	20.5	0.00e+00	0	27	0	196083712	52	6256
2026-01-10 20:00:18.56	44.59	8.44	-39.4	-40.7	20.7	0.00e+00	68	27	0	198180864	52	6190
2026-01-10 20:00:19.57	44.46	8.49	-39.3	-40.5	20.8	0.00e+00	92	27	0	200278016	52	6098
2026-01-10 20:00:20.58	44.32	8.54	-39.2	-40.4	20.9	0.00e+00	67	27	0	202375168	52	6027
2026-01-10 20:00:21.59	44.18	8.59	-39.3	-40.5	20.8	0.00e+00	90	27	0	204472320	52	6099
2026-01-10 20:00:22.60	44.05	8.64	-39.3	-40.6	20.8	0.00e+00	69	27	0	205520896	52	6119
2026-01-10 20:00:23.61	43.91	8.69	-39.5	-40.7	20.7	0.00e+00	92	27	0	207618048	52	6216
2026-01-10 20:00:24.62	43.77	8.74	-39.4	-40.7	20.7	0.00e+00	4	27	0	209715200	52	6197
2026-01-10 20:00:25.63	43.63	8.79	-39.3	-40.6	20.8	0.00e+00	2	27	0	211812352	52	6128
2026-01-10 20:00:26.64	43.49	8.84	-39.4	-40.7	20.7	0.00e+00	91	27	0	213909504	52	6198
2026-01-10 20:00:27.65	43.35	8.89	-39.5	-40.7	20.7	0.00e+00	1	27	0	216006656	52	6234
2026-01-10 20:00:28.66	43.21	8.94	-39.3	-40.5	20.8	0.00e+00	92	27	0	217055232	52	6094
2026-01-10 20:00:29.67	43.07	8.99	-39.4	-40.6	20.7	0.00e+00	0	27	0	219152384	52	6159
2026-01-10 20:00:30.68	42.93	9.04	-39.4	-40.6	20.8	0.00e+00	92	27	0	221249536	52	6160
2026-01-10 20:00:31.69	42.79	9.09	-39.4	-40.6	20.7	0.00e+00	2	27	0	223346688	52	6157
2026-01-10 20:00:32.70	42.64	9.14	-39.4	-40.6	20.8	0.00e+00	92	27	0	225443840	52	6127
2026-01-10 20:00:33.71	42.50	9.19	-39.5	-40.7	20.7	0.00e+00	26	27	0	226492416	52	6231
2026-01-10 20:00:34.72	42.36	9.24	-39.5	-40.7	20.6	0.00e+00	60	27	0	228589568	52	6220
2026-01-10 20:00:35.73	42.21	9.29	-39.5	-40.8	20.7	0.00e+00	92	27	0	230686720	52	6281
2026-01-10 20:00:36.74	42.07	9.34	-39.4	-40.6	20.8	0.00e+00	19	27	0	232783872	52	6127
2026-01-10 20:00:37.75	41.93	9.39	-39.5	-40.8	20.7	0.00e+00	84	27	0	234881024	52	6264
2026-01-10 20:00:38.76	41.78	9.44	-39.4	-40.7	20.7	0.00e+00	17	27	0	235929600	52	6181
2026-01-10 20:00:39.77	41.63	9.48	-39.4	-40.6	20.8	0.00e+00	2	27	0	238026752	52	6148
2026-01-10 20:00:40.78	41.49	9.53	-39.3	-40.5	20.9	0.00e+00	70	27	0	240123904	52	6081
2026-01-10 20:00:41.79	41.34	9.58	-39.3	-40.5	21.0	0.00e+00	0	27	0	242221056	52	6065
2026-01-10 20:00:42.80	41.19	9.63	-39.3	-40.5	20.9	0.00e+00	92	27	0	244318208	52	6042
2026-01-10 20:00:43.81	41.05	9.68	-39.0	-40.2	21.1	0.00e+00	1	27	0	245366784	52	5859
2026-01-10 20:00:44.82	40.90	9.73	-38.9	-40.0	21.4	0.00e+00	86	27	0	247463936	52	5755
2026-01-10 20:00:45.83	40.75	9.78	-38.9	-40.1	21.3	0.00e+00	0	27	0	249561088	52	5767
2026-01-10 20:00:46.84	40.60	9.82	-38.9	-40.0	21.4	0.00e+00	0	27	0	251658240	52	5724
2026-01-10 20:00:47.85	40.45	9.87	-39.1	-40.2	21.3	0.00e+00	0	27	0	253755392	52	5879
2026-01-10 20:00:48.86	40.30	9.92	-38.8	-39.9	21.5	0.00e+00	0	27	0	254803968	52	5668
2026-01-10 20:00:49.87	40.15	9.97	-38.8	-39.9	21.5	0.00e+00	90	27	0	256901120	52	5682
2026-01-10 20:00:50.88	40.00	10.02	-38.6	-39.7	21.7	0.00e+00	0	27	0	258998272	50	6232
2026-01-10 20:00:51.89	39.85	10.06	-38.5	-39.5	21.8	0.00e+00	90	27	0	261095424	50	6097
2026-01-10 20:00:52.90	39.69	10.11	-38.5	-39.6	21.8	0.00e+00	18	27	0	263192576	50	6125
2026-01-10 20:00:53.91	39.54	10.16	-38.5	-39.6	21.8	0.00e+00	18	27	0	264241152	50	6119
2026-01-10 20:00:54.92	39.39	10.21	-38.3	-39.3	22.0	0.00e+00	19	27	0	266338304	50	5946
2026-01-10 20:00:55.93	39.23	10.25	-38.2	-39.2	22.2	0.00e+00	62	27	0	268435456	50	5867
2026-01-10 20:00:56.94	39.08	10.30	-38.2	-39.2	22.1	0.00e+00	13	27	0	270532608	50	5887
2026-01-10 20:00:57.95	38.92	10.35	-38.0	-39.0	22.4	0.00e+00	19	27	0	272629760	50	5733
2026-01-10 20:00:58.96	38.77	10.39	-38.0	-39.0	22.3	0.00e+00	91	27	0	273678336	50	5742
2026-01-10 20:00:59.97	38.61	10.44	-38.0	-39.0	22.4	0.00e+00	0	27	0	275775488	50	5717
2026-01-10 20:01:00.98	38.46	10.49	-37.9	-38.9	22.4	0.00e+00	91	27	0	277872640	50	5692
2026-01-10 20:01:01.99	38.30	10.53	-37.8	-38.8	22.4	0.00e+00	0	27	0	279969792	50	5612
2026-01-10 20:01:03.00	38.14	10.58	-37.9	-38.9	22.3	0.00e+00	2	27	0	282066944	50	5695
2026-01-10 20:01:04.01	37.98	10.63	-37.9	-38.9	22.5	0.00e+00	0	26	0	284164096	50	5656
2026-01-10 20:01:05.02	37.83	10.67	-37.8	-38.8	22.4	0.00e+00	0	27	0	285212672	48	6267
2026-01-10 20:01:06.02	37.67	10.72	-37.6	-38.6	22.7	0.00e+00	90	27	0	287309824	48	6130
2026-01-10 20:01:07.03	37.51	10.77	-37.7	-38.7	22.5	0.00e+00	0	27	0	289406976	48	6193
2026-01-10 20:01:08.04	37.35	10.81	-37.7	-38.7	22.6	0.00e+00	63	26	0	291504128	48	6192
2026-01-10 20:01:09.05	37.19	10.86	-37.5	-38.5	22.7	0.00e+00	0	27	0	293601280	48	6082
2026-01-10 20:01:10.06	37.03	10.90	-37.6	-38.6	22.6	0.00e+00	0	27	0	294649856	48	6130
2026-01-10 20:01:11.07	36.87	10.95	-37.6	-38.5	22.7	0.00e+00	0	27	0	296747008	48	6103
2026-01-10 20:01:12.08	36.70	10.99	-37.4	-38.4	22.9	0.00e+00	20	27	0	298844160	48	5990
2026-01-10 20:01:13.09	36.54	11.04	-37.5	-38.4	22.8	0.00e+00	92	27	0	300941312	48	6018
2026-01-10 20:01:14.10	36.38	11.08	-37.4	-38.3	23.0	0.00e+00	0	27	0	303038464	48	5947
2026-01-10 20:01:15.11	36.22	11.13	-37.6	-38.5	22.7	0.00e+00	90	27	0	304087040	48	6102
2026-01-10 20:01:16.12	36.05	11.17	-37.5	-38.4	22.8	0.00e+00	62	27	0	306184192	48	6031
2026-01-10 20:01:17.13	35.89	11.22	-37.4	-38.3	22.8	0.00e+00	19	27	0	308281344	48	5958
2026-01-10 20:01:18.14	35.72	11.26	-37.4	-38.4	22.9	0.00e+00	60	27	0	310378496	48	5992
2026-01-10 20:01:19.15	35.56	11.31	-37.2	-38.2	23.0	0.00e+00	61	27	0	312475648	48	5838
2026-01-10 20:01:20.16	35.39	11.35	-37.1	-38.1	23.1	0.00e+00	0	26	0	313524224	48	5781
2026-01-10 20:01:21.17	35.22	11.39	-37.3	-38.2	23.1	0.00e+00	2	26	0	315621376	48	5885
2026-01-10 20:01:22.18	35.06	11.44	-37.4	-38.3	23.0	0.00e+00	89	27	0	317718528	48	5955
2026-01-10 20:01:23.19	34.89	11.48	-37.4	-38.3	23.0	0.00e+00	0	26	0	319815680	48	5962
2026-01-10 20:01:24.20	34.72	11.53	-37.2	-38.2	23.2	0.00e+00	92	27	0	321912832	48	5836
2026-01-10 20:01:25.21	34.55	11.57	-37.1	-38.1	23.3	0.00e+00	60	27	0	322961408	48	5766
2026-01-10 20:01:26.22	34.38	11.61	-37.0	-37.9	23.3	0.00e+00	0	27	0	325058560	48	5676
2026-01-10 20:01:27.23	34.21	11.65	-36.9	-37.8	23.1	0.00e+00	0	27	0	327155712	48	5626
2026-01-10 20:01:28.24	34.04	11.70	-37.0	-37.9	22.6	0.00e+00	0	27	0	329252864	48	5648
2026-01-10 20:01:29.25	33.87	11.74	-36.8	-37.7	23.4	0.00e+00	90	27	0	331350016	48	5557
2026-01-10 20:01:30.26	33.70	11.78	-36.8	-37.7	23.3	0.00e+00	0	27	0	332398592	48	5560
2026-01-10 20:01:31.27	33.53	11.82	-36.9	-37.8	23.3	0.00e+00	2	26	0	334495744	48	5612
2026-01-10 20:01:32.28	33.36	11.87	-37.0	-37.9	23.3	0.00e+00	18	27	0	336592896	48	5660
2026-01-10 20:01:33.29	33.19	11.91	-36.9	-37.8	23.4	0.00e+00	18	27	0	338690048	48	5626
2026-01-10 20:01:34.30	33.01	11.95	-36.9	-37.8	23.5	0.00e+00	0	27	0	340787200	48	5572
2026-01-10 20:01:35.31	32.84	11.99	-37.0	-37.9	23.4	0.00e+00	18	27	0	341835776	48	5676
2026-01-10 20:01:36.32	32.67	12.03	-37.1	-38.1	23.2	0.00e+00	92	27	0	343932928	48	5779
2026-01-10 20:01:37.33	32.49	12.07	-37.1	-38.0	23.3	0.00e+00	17	27	0	346030080	48	5759
2026-01-10 20:01:38.34	32.32	12.12	-37.2	-38.1	23.2	0.00e+00	92	27	0	348127232	48	5826
2026-01-10 20:01:39.35	32.14	12.16	-37.1	-38.1	23.2	0.00e+00	0	27	0	350224384	48	5783
2026-01-10 20:01:40.36	31.96	12.20	-37.2	-38.2	23.1	0.00e+00	63	27	0	352321536	48	5829
2026-01-10 20:01:41.37	31.79	12.24	-37.2	-38.1	23.2	0.00e+00	61	27	0	353370112	48	5791
2026-01-10 20:01:42.38	31.61	12.28	-37.1	-38.0	23.2	0.00e+00	2	27	0	355467264	48	5753
2026-01-10 20:01:43.39	31.43	12.32	-37.1	-38.1	23.2	0.00e+00	14	27	0	357564416	48	5777
2026-01-10 20:01:44.40	31.26	12.36	-37.3	-38.3	22.9	0.00e+00	62	27	0	359661568	48	5909
2026-01-10 20:01:45.41	31.08	12.40	-37.3	-38.3	23.0	0.00e+00	92	27	0	361758720	48	5901
2026-01-10 20:01:46.42	30.90	12.44	-37.4	-38.4	23.0	0.00e+00	3	27	0	362807296	48	5976
2026-01-10 20:01:47.43	30.72	12.48	-37.4	-38.3	23.0	0.00e+00	2	27	0	364904448	48	5958
2026-01-10 20:01:48.44	30.54	12.51	-37.4	-38.4	23.0	0.00e+00	2	27	0	367001600	48	5975
2026-01-10 20:01:49.45	30.36	12.55	-37.5	-38.5	22.8	0.00e+00	1	27	0	369098752	48	6055
2026-01-10 20:01:50.46	30.18	12.59	-37.5	-38.4	22.9	0.00e+00	0	26	0	371195904	48	6023
2026-01-10 20:01:51.47	30.00	12.63	-37.4	-38.4	22.9	0.00e+00	19	27	0	372244480	48	5977
2026-01-10 20:01:52.48	29.81	12.67	-37.2	-38.2	23.0	0.00e+00	92	27	0	374341632	48	5842
2026-01-10 20:01:53.49	29.63	12.71	-37.3	-38.3	23.0	0.00e+00	6	27	0	376438784	48	5897
2026-01-10 20:01:54.50	29.45	12.74	-37.5	-38.4	22.9	0.00e+00	20	27	0	378535936	48	6020
2026-01-10 20:01:55.52	29.26	12.78	-37.4	-38.3	23.0	0.00e+00	18	27	0	380633088	48	5955
2026-01-10 20:01:56.53	29.08	12.82	-37.2	-38.1	23.1	0.00e+00	68	27	0	381681664	48	5806
2026-01-10 20:01:57.54	28.90	12.86	-37.3	-38.3	23.0	0.00e+00	5	27	0	383778816	48	5913
2026-01-10 20:01:58.54	28.71	12.89	-37.3	-38.3	22.7	0.00e+00	19	27	0	385875968	48	5922
2026-01-10 20:01:59.55	28.53	12.93	-37.3	-38.3	23.1	0.00e+00	83	27	0	387973120	48	5913
2026-01-10 20:02:00.57	28.34	12.96	-37.2	-38.1	23.1	0.00e+00	67	27	0	390070272	48	5827
2026-01-10 20:02:01.58	28.15	13.00	-37.3	-38.3	23.1	0.00e+00	91	27	0	392167424	48	5927
2026-01-10 20:02:02.59	27.97	13.04	-37.2	-38.2	23.2	0.00e+00	65	27	0	393216000	48	5837
2026-01-10 20:02:03.60	27.78	13.07	-37.4	-38.3	23.0	0.00e+00	4	27	0	395313152	48	5925
2026-01-10 20:02:04.61	27.59	13.11	-37.3	-38.3	23.2	0.00e+00	66	27	0	397410304	48	5903
2026-01-10 20:02:05.62	27.41	13.14	-37.1	-38.0	23.2	0.00e+00	1	27	0	399507456	48	5755
2026-01-10 20:02:06.63	27.22	13.18	-37.0	-37.9	23.4	0.00e+00	76	27	0	401604608	48	5695
2026-01-10 20:02:07.63	27.03	13.21	-37.0	-37.9	23.4	0.00e+00	4	27	0	402653184	48	5672
2026-01-10 20:02:08.64	26.84	13.24	-37.0	-37.9	23.3	0.00e+00	91	27	0	404750336	48	5688
2026-01-10 20:02:09.65	26.65	13.28	-37.0	-37.9	23.4	0.00e+00	3	27	0	406847488	48	5661
2026-01-10 20:02:10.66	26.46	13.31	-37.0	-38.0	23.3	0.00e+00	19	27	0	408944640	48	5702
2026-01-10 20:02:11.67	26.27	13.35	-37.0	-38.0	23.4	0.00e+00	3	27	0	411041792	48	5701
2026-01-10 20:02:12.68	26.08	13.38	-37.1	-38.0	23.3	0.00e+00	2	27	0	412090368	48	5702
2026-01-10 20:02:13.69	25.89	13.41	-37.0	-37.9	23.2	0.00e+00	0	27	0	414187520	48	5672
2026-01-10 20:02:14.70	25.70	13.44	-37.0	-37.9	23.4	0.00e+00	1	27	0	416284672	48	5654
2026-01-10 20:02:15.71	25.50	13.48	-37.0	-38.0	23.3	0.00e+00	91	27	0	418381824	48	5702
2026-01-10 20:02:16.72	25.31	13.51	-37.0	-37.9	23.4	0.00e+00	21	27	0	420478976	48	5659
2026-01-10 20:02:17.73	25.12	13.54	-37.0	-37.9	23.4	0.00e+00	90	27	0	421527552	48	5664
2026-01-10 20:02:18.74	24.92	13.57	-37.0	-37.9	23.4	0.00e+00	20	27	0	423624704	48	5665
2026-01-10 20:02:19.75	24.73	13.60	-37.0	-37.9	23.4	0.00e+00	18	27	0	425721856	48	5645
2026-01-10 20:02:20.76	24.54	13.63	-36.7	-37.7	23.4	0.00e+00	17	27	0	427819008	48	5504
2026-01-10 20:02:21.77	24.34	13.66	-36.9	-37.8	23.5	0.00e+00	0	27	0	429916160	46	6315
2026-01-10 20:02:22.78	24.15	13.69	-36.9	-37.8	23.5	0.00e+00	91	27	0	430964736	46	6263
2026-01-10 20:02:23.79	23.95	13.72	-36.7	-37.6	23.7	0.00e+00	0	27	0	433061888	46	6120
2026-01-10 20:02:24.80	23.76	13.75	-36.8	-37.7	23.6	0.00e+00	92	27	0	435159040	46	6195
2026-01-10 20:02:25.81	23.56	13.78	-36.8	-37.7	23.5	0.00e+00	0	27	0	437256192	46	6205
2026-01-10 20:02:26.82	23.36	13.81	-36.9	-37.8	23.4	0.00e+00	0	27	0	439353344	46	6310
2026-01-10 20:02:27.83	23.17	13.84	-37.0	-37.9	23.5	0.00e+00	0	27	0	440401920	46	6327
2026-01-10 20:02:28.84	22.97	13.87	-36.9	-37.8	23.5	0.00e+00	0	27	0	442499072	46	6286
2026-01-10 20:02:29.85	22.77	13.90	-36.9	-37.8	23.6	0.00e+00	92	27	0	444596224	46	6253
2026-01-10 20:02:30.86	22.57	13.92	-36.8	-37.7	23.6	0.00e+00	0	27	0	446693376	46	6187
2026-01-10 20:02:31.87	22.37	13.95	-36.8	-37.7	23.6	0.00e+00	90	27	0	448790528	46	6206
2026-01-10 20:02:32.88	22.17	13.98	-37.0	-37.9	23.4	0.00e+00	19	27	0	449839104	46	6331
2026-01-10 20:02:33.89	21.97	14.01	-36.9	-37.8	23.5	0.00e+00	20	27	0	451936256	46	6247
2026-01-10 20:02:34.90	21.77	14.03	-36.9	-37.8	23.6	0.00e+00	0	27	0	454033408	46	6313
2026-01-10 20:02:35.91	21.57	14.06	-36.7	-37.6	23.7	0.00e+00	13	27	0	456130560	46	6120
2026-01-10 20:02:36.92	21.37	14.09	-36.8	-37.7	23.5	0.00e+00	2	27	0	458227712	46	6213
2026-01-10 20:02:37.93	21.17	14.11	-37.0	-37.9	23.3	0.00e+00	62	27	0	460324864	46	6351
2026-01-10 20:02:38.94	20.97	14.14	-37.0	-38.0	23.3	0.00e+00	92	27	0	461373440	46	6408
2026-01-10 20:02:39.95	20.77	14.16	-37.2	-38.2	23.1	0.00e+00	63	27	0	463470592	46	6545
2026-01-10 20:02:40.96	20.57	14.19	-37.3	-38.3	23.1	0.00e+00	92	27	0	465567744	46	6644
2026-01-10 20:02:41.97	20.37	14.21	-37.3	-38.2	23.2	0.00e+00	63	27	0	467664896	46	6572
2026-01-10 20:02:42.98	20.16	14.23	-37.1	-38.0	23.3	0.00e+00	0	27	0	469762048	46	6448
2026-01-10 20:02:43.99	19.96	14.26	-37.2	-38.1	23.2	0.00e+00	0	27	0	470810624	46	6529
2026-01-10 20:02:45.00	19.76	14.28	-37.2	-38.2	23.2	0.00e+00	0	27	0	472907776	46	6561
2026-01-10 20:02:46.01	19.55	14.30	-37.3	-38.3	23.0	0.00e+00	90	27	0	475004928	46	6635
2026-01-10 20:02:47.02	19.35	14.33	-37.6	-38.5	22.9	0.00e+00	0	27	0	477102080	46	6823
2026-01-10 20:02:48.03	19.15	14.35	-37.6	-38.5	22.8	0.00e+00	92	27	0	479199232	46	6844
2026-01-10 20:02:49.04	18.94	14.37	-37.5	-38.5	22.8	0.00e+00	2	27	0	480247808	46	6820
2026-01-10 20:02:50.05	18.74	14.39	-37.6	-38.6	22.9	0.00e+00	0	27	0	482344960	46	6849
2026-01-10 20:02:51.05	18.53	14.41	-37.5	-38.4	23.0	0.00e+00	0	27	0	484442112	46	6734
2026-01-10 20:02:52.06	18.33	14.43	-37.5	-38.5	22.9	0.00e+00	14	27	0	486539264	46	6798
2026-01-10 20:02:53.07	18.12	14.46	-37.7	-38.7	22.7	0.00e+00	92	27	0	488636416	46	6952
2026-01-10 20:02:54.09	17.92	14.48	-37.7	-38.7	22.7	0.00e+00	0	27	0	489684992	48	6183
2026-01-10 20:02:55.10	17.71	14.50	-37.8	-38.8	22.6	0.00e+00	92	27	0	491782144	48	6284
2026-01-10 20:02:56.11	17.50	14.51	-37.8	-38.8	22.6	0.00e+00	22	27	0	493879296	48	6259
2026-01-10 20:02:57.12	17.30	14.53	-37.6	-38.6	22.8	0.00e+00	61	27	0	495976448	48	6117
2026-01-10 20:02:58.13	17.09	14.55	-37.6	-38.6	22.8	0.00e+00	0	27	0	498073600	48	6157
2026-01-10 20:02:59.14	16.88	14.57	-37.7	-38.7	22.9	0.00e+00	0	27	0	499122176	48	6212
2026-01-10 20:03:00.15	16.68	14.59	-37.5	-38.5	22.9	0.00e+00	0	27	0	501219328	48	6056
2026-01-10 20:03:01.16	16.47	14.61	-37.3	-38.3	23.1	0.00e+00	63	27	0	503316480	48	5910
2026-01-10 20:03:02.17	16.26	14.62	-37.4	-38.3	23.1	0.00e+00	89	27	0	505413632	48	5942
2026-01-10 20:03:03.18	16.05	14.64	-37.2	-38.2	23.2	0.00e+00	62	27	0	507510784	48	5845
2026-01-10 20:03:04.19	15.84	14.66	-37.2	-38.2	23.2	0.00e+00	92	27	0	508559360	48	5840
2026-01-10 20:03:05.20	15.63	14.67	-37.1	-38.0	23.3	0.00e+00	0	27	0	510656512	48	5709
2026-01-10 20:03:06.21	15.43	14.69	-37.0	-37.9	23.4	0.00e+00	0	27	0	512753664	48	5656
2026-01-10 20:03:07.22	15.22	14.71	-37.0	-37.9	23.5	0.00e+00	0	27	0	514850816	48	5637
2026-01-10 20:03:08.23	15.01	14.72	-37.0	-37.9	23.4	0.00e+00	0	27	0	516947968	48	5670
2026-01-10 20:03:09.24	14.80	14.74	-37.2	-38.1	23.2	0.00e+00	92	27	0	517996544	48	5791
2026-01-10 20:03:10.25	14.59	14.75	-37.1	-38.0	23.3	0.00e+00	0	27	0	520093696	48	5754
2026-01-10 20:03:11.26	14.38	14.76	-37.2	-38.1	23.2	0.00e+00	92	27	0	522190848	48	5803
2026-01-10 20:03:12.27	14.17	14.78	-37.2	-38.2	23.1	0.00e+00	0	27	0	524288000	48	5834
2026-01-10 20:03:13.28	13.96	14.79	-37.2	-38.1	23.2	0.00e+00	17	27	0	526385152	48	5790
2026-01-10 20:03:14.29	13.75	14.80	-37.2	-38.1	23.3	0.00e+00	0	27	0	528482304	48	5808
2026-01-10 20:03:15.30	13.54	14.82	-37.2	-38.1	23.2	0.00e+00	0	27	0	529530880	48	5799
2026-01-10 20:03:16.31	13.32	14.83	-37.2	-38.2	23.1	0.00e+00	70	27	0	531628032	48	5831
2026-01-10 20:03:17.32	13.11	14.84	-37.4	-38.4	23.0	0.00e+00	65	27	0	533725184	48	5981
2026-01-10 20:03:18.33	12.90	14.85	-37.4	-38.4	23.1	0.00e+00	92	27	0	535822336	48	6008
2026-01-10 20:03:19.34	12.69	14.86	-37.4	-38.4	23.0	0.00e+00	68	27	0	537919488	48	5973
2026-01-10 20:03:20.35	12.48	14.87	-37.3	-38.3	23.1	0.00e+00	70	27	0	538968064	48	5925
2026-01-10 20:03:21.36	12.27	14.88	-37.2	-38.2	23.2	0.00e+00	14	27	0	541065216	48	5849
2026-01-10 20:03:22.37	12.06	14.89	-37.3	-38.2	23.2	0.00e+00	0	27	0	543162368	48	5896
2026-01-10 20:03:23.38	11.84	14.90	-37.3	-38.2	23.2	0.00e+00	0	27	0	545259520	48	5884
2026-01-10 20:03:24.39	11.63	14.91	-37.4	-38.4	23.0	0.00e+00	3	27	0	547356672	48	5984
2026-01-10 20:03:25.40	11.42	14.92	-37.3	-38.2	23.2	0.00e+00	92	27	0	548405248	48	5862
2026-01-10 20:03:26.41	11.21	14.93	-37.4	-38.3	23.1	0.00e+00	2	27	0	550502400	48	5944
2026-01-10 20:03:27.42	10.99	14.93	-37.4	-38.4	23.0	0.00e+00	71	27	0	552599552	48	5965
2026-01-10 20:03:28.43	10.78	14.94	-37.6	-38.6	22.8	0.00e+00	3	27	0	554696704	48	6121
2026-01-10 20:03:29.44	10.57	14.95	-37.3	-38.2	23.2	0.00e+00	0	27	0	556793856	48	5865
2026-01-10 20:03:30.45	10.36	14.96	-37.3	-38.2	23.2	0.00e+00	6	27	0	557842432	48	5877
2026-01-10 20:03:31.46	10.14	14.96	-37.2	-38.2	23.2	0.00e+00	2	27	0	559939584	48	5843
2026-01-10 20:03:32.47	9.93	14.97	-37.3	-38.3	23.0	0.00e+00	92	27	0	562036736	48	5924
2026-01-10 20:03:33.48	9.72	14.97	-37.2	-38.1	23.2	0.00e+00	19	27	0	564133888	48	5791
2026-01-10 20:03:34.49	9.50	14.98	-37.4	-38.3	23.0	0.00e+00	92	27	0	566231040	48	5947
2026-01-10 20:03:35.50	9.29	14.98	-37.4	-38.3	23.1	0.00e+00	3	27	0	567279616	48	5945
2026-01-10 20:03:36.51	9.08	14.99	-37.3	-38.2	23.1	0.00e+00	3	27	0	569376768	48	5875
2026-01-10 20:03:37.52	8.86	14.99	-37.2	-38.2	23.2	0.00e+00	4	27	0	571473920	48	5850
2026-01-10 20:03:38.53	8.65	14.99	-37.1	-38.1	23.3	0.00e+00	18	27	0	573571072	48	5768
2026-01-10 20:03:39.54	8.44	15.00	-37.1	-38.1	23.3	0.00e+00	90	28	0	575668224	48	5768
2026-01-10 20:03:40.55	8.22	15.00	-37.0	-38.0	23.2	0.00e+00	68	28	0	576716800	48	5700
2026-01-10 20:03:41.56	8.01	15.00	-37.2	-38.1	23.3	0.00e+00	90	27	0	578813952	48	5788
2026-01-10 20:03:42.57	7.80	15.00	-37.1	-38.0	23.3	0.00e+00	67	28	0	580911104	48	5760
2026-01-10 20:03:43.58	7.58	15.01	-37.1	-38.1	23.3	0.00e+00	85	28	0	583008256	48	5762
2026-01-10 20:03:44.59	7.37	15.01	-37.2	-38.2	23.2	0.00e+00	66	28	0	585105408	48	5846
2026-01-10 20:03:45.60	7.16	15.01	-37.3	-38.3	23.2	0.00e+00	0	28	0	586153984	48	5903
2026-01-10 20:03:46.61	6.94	15.01	-37.2	-38.2	23.2	0.00e+00	77	27	0	588251136	48	5835
2026-01-10 20:03:47.62	6.73	15.01	-37.2	-38.1	23.3	0.00e+00	0	28	0	590348288	48	5789
2026-01-10 20:03:48.63	6.52	15.01	-37.2	-38.1	23.3	0.00e+00	92	28	0	592445440	48	5787
2026-01-10 20:03:49.64	6.30	15.01	-36.9	-37.8	23.6	0.00e+00	1	28	0	594542592	48	5582
2026-01-10 20:03:50.65	6.09	15.00	-37.0	-37.9	23.5	0.00e+00	92	28	0	596639744	48	5665
2026-01-10 20:03:51.66	5.88	15.00	-36.9	-37.8	23.3	0.00e+00	1	28	0	597688320	48	5596
2026-01-10 20:03:52.67	5.66	15.00	-37.0	-37.9	23.4	0.00e+00	6	28	0	599785472	48	5680
2026-01-10 20:03:53.68	5.45	15.00	-37.0	-38.0	23.3	0.00e+00	5	28	0	601882624	48	5701
2026-01-10 20:03:54.69	5.24	14.99	-37.1	-38.1	23.3	0.00e+00	2	28	0	603979776	48	5768
2026-01-10 20:03:55.70	5.02	14.99	-37.2	-38.2	23.2	0.00e+00	92	28	0	606076928	48	5855
2026-01-10 20:03:56.71	4.81	14.99	-37.4	-38.3	23.0	0.00e+00	2	28	0	607125504	48	5964
2026-01-10 20:03:57.72	4.60	14.98	-37.3	-38.2	23.1	0.00e+00	92	28	0	609222656	48	5877
2026-01-10 20:03:58.73	4.38	14.98	-37.3	-38.2	23.1	0.00e+00	62	28	0	611319808	48	5890
2026-01-10 20:03:59.74	4.17	14.97	-37.4	-38.3	23.1	0.00e+00	65	28	0	613416960	48	5953
2026-01-10 20:04:00.75	3.96	14.97	-37.3	-38.3	23.1	0.00e+00	61	28	0	615514112	48	5910
2026-01-10 20:04:01.76	3.74	14.96	-37.4	-38.4	23.0	0.00e+00	68	28	0	616562688	48	6013
2026-01-10 20:04:02.77	3.53	14.96	-37.4	-38.4	23.1	0.00e+00	91	28	0	618659840	48	5990
2026-01-10 20:04:03.78	3.32	14.95	-37.5	-38.5	22.9	0.00e+00	62	28	0	620756992	48	6052
2026-01-10 20:04:04.79	3.11	14.94	-37.6	-38.6	22.8	0.00e+00	92	28	0	622854144	48	6146
2026-01-10 20:04:05.80	2.89	14.94	-37.7	-38.7	22.7	0.00e+00	60	28	0	624951296	48	6185
2026-01-10 20:04:06.81	2.68	14.93	-37.8	-38.8	22.6	0.00e+00	36	28	0	625999872	48	6296
2026-01-10 20:04:07.82	2.47	14.92	-37.5	-38.4	23.0	0.00e+00	0	28	0	628097024	48	6032
2026-01-10 20:04:08.83	2.26	14.91	-37.4	-38.4	23.1	0.00e+00	0	28	0	630194176	48	6001
2026-01-10 20:04:09.84	2.04	14.90	-37.3	-38.3	23.2	0.00e+00	0	28	0	632291328	48	5905
2026-01-10 20:04:10.85	1.83	14.89	-37.4	-38.4	23.1	0.00e+00	2	28	0	634388480	48	6000
2026-01-10 20:04:11.85	1.62	14.88	-37.3	-38.2	23.2	0.00e+00	91	28	0	635437056	48	5873
2026-01-10 20:04:12.86	1.41	14.87	-37.3	-38.3	23.2	0.00e+00	2	28	0	637534208	48	5900
2026-01-10 20:04:13.87	1.20	14.86	-37.6	-38.6	22.9	0.00e+00	19	28	0	639631360	48	6124
2026-01-10 20:04:14.88	0.99	14.85	-37.6	-38.5	22.8	0.00e+00	0	28	0	641728512	48	6088
2026-01-10 20:04:15.89	0.78	14.84	-37.9	-38.9	22.6	0.00e+00	0	28	0	643825664	48	6331
2026-01-10 20:04:16.90	0.57	14.83	-37.7	-38.6	22.7	0.00e+00	0	28	0	644874240	48	6169
2026-01-10 20:04:17.91	0.35	14.82	-37.7	-38.7	22.8	0.00e+00	0	28	0	646971392	48	6198
2026-01-10 20:04:18.92	0.14	14.80	-37.6	-38.6	22.8	0.00e+00	91	28	0	649068544	48	6142
2026-01-10 20:04:19.93	359.93	14.79	-37.7	-38.7	22.8	0.00e+00	13	28	0	651165696	48	6234
2026-01-10 20:04:20.94	359.72	14.78	-37.6	-38.5	22.9	0.00e+00	92	28	0	653262848	48	6103
2026-01-10 20:04:21.95	359.51	14.77	-37.5	-38.5	22.9	0.00e+00	68	28	0	654311424	48	6063
2026-01-10 20:04:22.96	359.30	14.75	-37.2	-38.2	23.2	0.00e+00	70	28	0	656408576	48	5843
2026-01-10 20:04:23.97	359.09	14.74	-37.2	-38.1	23.3	0.00e+00	66	28	0	658505728	48	5819
2026-01-10 20:04:24.98	358.88	14.72	-37.1	-38.1	23.3	0.00e+00	64	28	0	660602880	48	5783
2026-01-10 20:04:25.99	358.67	14.71	-37.1	-38.1	23.3	0.00e+00	90	28	0	662700032	48	5771
2026-01-10 20:04:27.00	358.47	14.69	-37.1	-38.0	23.3	0.00e+00	0	28	0	664797184	48	5756
2026-01-10 20:04:28.01	358.26	14.68	-37.2	-38.2	23.2	0.00e+00	92	28	0	665845760	48	5847
2026-01-10 20:04:29.02	358.05	14.66	-37.3	-38.2	23.1	0.00e+00	2	28	0	667942912	48	5882
2026-01-10 20:04:30.03	357.84	14.64	-37.3	-38.2	23.2	0.00e+00	39	28	0	670040064	48	5862
2026-01-10 20:04:31.04	357.63	14.63	-37.2	-38.2	23.2	0.00e+00	0	28	0	672137216	48	5843
2026-01-10 20:04:32.05	357.42	14.61	-37.2	-38.2	23.2	0.00e+00	0	28	0	674234368	48	5847
2026-01-10 20:04:33.06	357.22	14.59	-37.2	-38.2	23.3	0.00e+00	0	28	0	675282944	48	5837
2026-01-10 20:04:34.07	357.01	14.57	-37.0	-38.0	23.4	0.00e+00	0	28	0	677380096	48	5697
2026-01-10 20:04:35.08	356.80	14.56	-37.1	-38.0	23.4	0.00e+00	92	28	0	679477248	48	5737
2026-01-10 20:04:36.09	356.59	14.54	-37.1	-38.0	23.4	0.00e+00	0	28	0	681574400	48	5739
2026-01-10 20:04:37.10	356.39	14.52	-37.1	-38.0	23.3	0.00e+00	92	28	0	683671552	48	5742
2026-01-10 20:04:38.11	356.18	14.50	-37.0	-37.9	23.3	0.00e+00	0	28	0	684720128	48	5676
2026-01-10 20:04:39.12	355.97	14.48	-37.1	-38.1	23.3	0.00e+00	20	28	0	686817280	48	5777
2026-01-10 20:04:40.13	355.77	14.46	-37.0	-37.9	23.3	0.00e+00	0	28	0	688914432	48	5682
2026-01-10 20:04:41.14	355.56	14.44	-36.9	-37.9	23.3	0.00e+00	20	28	0	691011584	48	5644
2026-01-10 20:04:42.15	355.36	14.42	-37.0	-37.9	23.3	0.00e+00	92	28	0	693108736	48	5667
2026-01-10 20:04:43.16	355.15	14.40	-37.2	-38.2	23.3	0.00e+00	0	28	0	694157312	48	5848
2026-01-10 20:04:44.17	354.95	14.37	-37.2	-38.2	23.2	0.00e+00	92	28	0	696254464	48	5832
2026-01-10 20:04:45.18	354.74	14.35	-37.5	-38.5	23.1	0.00e+00	62	28	0	698351616	48	6044
2026-01-10 20:04:46.19	354.54	14.33	-37.4	-38.3	23.1	0.00e+00	0	28	0	700448768	48	5946
2026-01-10 20:04:47.20	354.34	14.31	-37.5	-38.4	23.1	0.00e+00	0	28	0	702545920	48	6016
2026-01-10 20:04:48.21	354.13	14.28	-37.6	-38.5	23.1	0.00e+00	0	28	0	703594496	48	6070
2026-01-10 20:04:49.22	353.93	14.26	-37.6	-38.6	23.0	0.00e+00	92	28	0	705691648	48	6132
2026-01-10 20:04:50.23	353.73	14.24	-37.6	-38.5	22.9	0.00e+00	0	28	0	707788800	48	6077
2026-01-10 20:04:51.24	353.52	14.21	-37.3	-38.3	23.1	0.00e+00	92	28	0	709885952	48	5903
2026-01-10 20:04:52.25	353.32	14.19	-37.4	-38.4	23.0	0.00e+00	0	28	0	711983104	48	5968
2026-01-10 20:04:53.26	353.12	14.17	-37.3	-38.3	23.1	0.00e+00	34	28	0	713031680	48	5903
2026-01-10 20:04:54.27	352.92	14.14	-37.2	-38.1	23.2	0.00e+00	17	28	0	715128832	48	5804
2026-01-10 20:04:55.28	352.72	14.11	-37.2	-38.1	23.2	0.00e+00	18	28	0	717225984	48	5827
2026-01-10 20:04:56.29	352.52	14.09	-37.2	-38.1	23.2	0.00e+00	0	28	0	719323136	48	5813
2026-01-10 20:04:57.30	352.32	14.06	-37.3	-38.2	23.1	0.00e+00	0	28	0	721420288	48	5879
2026-01-10 20:04:58.31	352.12	14.04	-37.4	-38.3	23.2	0.00e+00	92	28	0	722468864	48	5933
2026-01-10 20:04:59.32	351.92	14.01	-37.4	-38.3	23.1	0.00e+00	0	28	0	724566016	48	5927
2026-01-10 20:05:00.33	351.72	13.98	-37.3	-38.3	23.1	0.00e+00	92	28	0	726663168	48	5919
2026-01-10 20:05:01.34	351.52	13.96	-37.5	-38.4	23.0	0.00e+00	16	28	0	728760320	48	6005
2026-01-10 20:05:02.35	351.32	13.93	-37.4	-38.3	23.1	0.00e+00	16	28	0	730857472	48	5934
2026-01-10 20:05:03.36	351.12	13.90	-37.4	-38.4	23.1	0.00e+00	5	28	0	732954624	48	5972
2026-01-10 20:05:04.37	350.92	13.87	-37.4	-38.3	23.1	0.00e+00	64	28	0	734003200	48	5934
2026-01-10 20:05:05.38	350.73	13.84	-37.3	-38.3	23.0	0.00e+00	92	28	0	736100352	48	5911
2026-01-10 20:05:06.39	350.53	13.82	-37.5	-38.4	23.0	0.00e+00	0	28	0	738197504	48	6011
2026-01-10 20:05:07.40	350.33	13.79	-37.5	-38.5	22.9	0.00e+00	0	28	0	740294656	48	6072
2026-01-10 20:05:08.41	350.14	13.76	-37.6	-38.6	22.9	0.00e+00	65	28	0	742391808	48	6148
2026-01-10 20:05:09.42	349.94	13.73	-37.5	-38.5	22.9	0.00e+00	1	28	0	743440384	48	6078
2026-01-10 20:05:10.43	349.75	13.70	-37.4	-38.3	23.1	0.00e+00	2	28	0	745537536	48	5946
2026-01-10 20:05:11.44	349.55	13.67	-37.4	-38.3	23.0	0.00e+00	4	28	0	747634688	48	5947
2026-01-10 20:05:12.45	349.36	13.64	-37.3	-38.2	23.1	0.00e+00	91	28	0	749731840	48	5890
2026-01-10 20:05:13.46	349.16	13.61	-37.3	-38.3	23.1	0.00e+00	0	28	0	751828992	48	5904
2026-01-10 20:05:14.47	348.97	13.58	-37.3	-38.2	23.1	0.00e+00	92	28	0	752877568	48	5878
2026-01-10 20:05:15.48	348.77	13.54	-37.1	-38.0	23.3	0.00e+00	5	28	0	754974720	48	5743
2026-01-10 20:05:16.49	348.58	13.51	-37.0	-37.9	23.4	0.00e+00	56	28	0	757071872	48	5669
2026-01-10 20:05:17.50	348.39	13.48	-37.1	-38.0	23.3	0.00e+00	5	28	0	759169024	48	5754
2026-01-10 20:05:18.51	348.20	13.45	-37.0	-38.0	23.4	0.00e+00	6	28	0	761266176	48	5696
2026-01-10 20:05:19.52	348.01	13.42	-37.0	-37.9	23.3	0.00e+00	17	28	0	762314752	48	5691
2026-01-10 20:05:20.53	347.81	13.38	-37.1	-38.0	23.2	0.00e+00	18	28	0	764411904	48	5710
2026-01-10 20:05:21.53	347.62	13.35	-37.1	-38.0	23.2	0.00e+00	92	28	0	766509056	48	5746
2026-01-10 20:05:22.55	347.43	13.32	-37.1	-38.1	23.2	0.00e+00	69	28	0	768606208	48	5791
2026-01-10 20:05:23.55	347.24	13.28	-37.1	-38.0	22.8	0.00e+00	10	28	0	770703360	48	5760
2026-01-10 20:05:24.56	347.05	13.25	-37.1	-38.1	23.2	0.00e+00	0	28	0	772800512	48	5772
2026-01-10 20:05:25.58	346.86	13.22	-37.0	-38.0	23.3	0.00e+00	72	28	0	773849088	48	5705
2026-01-10 20:05:26.59	346.68	13.18	-37.0	-37.9	23.3	0.00e+00	0	28	0	775946240	48	5684
2026-01-10 20:05:27.60	346.49	13.15	-37.0	-38.0	23.2	0.00e+00	3	28	0	778043392	48	5703
2026-01-10 20:05:28.60	346.30	13.11	-37.0	-38.0	23.3	0.00e+00	92	28	0	780140544	48	5697
2026-01-10 20:05:29.61	346.11	13.08	-37.0	-38.0	23.3	0.00e+00	3	28	0	782237696	48	5713
2026-01-10 20:05:30.62	345.93	13.04	-37.1	-38.1	23.2	0.00e+00	91	28	0	783286272	48	5802
2026-01-10 20:05:31.63	345.74	13.01	-37.1	-38.1	23.2	0.00e+00	6	28	0	785383424	48	5799
2026-01-10 20:05:32.65	345.55	12.97	-37.1	-38.1	23.1	0.00e+00	6	28	0	787480576	48	5776
2026-01-10 20:05:33.65	345.37	12.93	-37.3	-38.2	22.9	0.00e+00	2	28	0	789577728	48	5892
2026-01-10 20:05:34.66	345.18	12.90	-37.0	-38.0	23.2	0.00e+00	3	28	0	791674880	48	5734
2026-01-10 20:05:35.67	345.00	12.86	-37.0	-38.0	23.3	0.00e+00	92	28	0	792723456	48	5727
2026-01-10 20:05:36.69	344.81	12.82	-37.1	-38.1	23.2	0.00e+00	2	28	0	794820608	48	5784
2026-01-10 20:05:37.69	344.63	12.79	-37.0	-38.0	23.3	0.00e+00	92	28	0	796917760	48	5708
2026-01-10 20:05:38.70	344.45	12.75	-37.0	-38.0	23.3	0.00e+00	4	28	0	799014912	48	5716
2026-01-10 20:05:39.72	344.26	12.71	-37.0	-38.0	23.4	0.00e+00	69	28	0	801112064	48	5696
2026-01-10 20:05:40.72	344.08	12.67	-37.0	-38.0	23.3	0.00e+00	75	28	0	802160640	48	5724
2026-01-10 20:05:41.74	343.90	12.64	-37.0	-38.0	23.3	0.00e+00	70	28	0	804257792	48	5697
2026-01-10 20:05:42.75	343.72	12.60	-37.1	-38.1	23.2	0.00e+00	14	28	0	806354944	48	5772
2026-01-10 20:05:43.76	343.54	12.56	-37.0	-37.9	23.3	0.00e+00	64	28	0	808452096	48	5687
2026-01-10 20:05:44.77	343.36	12.52	-37.0	-37.9	23.4	0.00e+00	91	28	0	810549248	48	5688
2026-01-10 20:05:45.78	343.18	12.48	-37.0	-37.9	23.4	0.00e+00	66	28	0	811597824	48	5672
2026-01-10 20:05:46.79	343.00	12.44	-37.1	-38.1	23.3	0.00e+00	90	28	0	813694976	48	5771
2026-01-10 20:05:47.80	342.82	12.40	-37.0	-38.0	23.3	0.00e+00	69	28	0	815792128	48	5732
2026-01-10 20:05:48.81	342.64	12.36	-37.0	-38.0	23.3	0.00e+00	67	28	0	817889280	48	5731
2026-01-10 20:05:49.82	342.46	12.32	-37.2	-38.2	23.1	0.00e+00	0	28	0	819986432	48	5878
2026-01-10 20:05:50.83	342.29	12.28	-37.2	-38.3	23.1	0.00e+00	0	28	0	821035008	48	5901
2026-01-10 20:05:51.84	342.11	12.24	-37.3	-38.3	22.9	0.00e+00	92	29	0	823132160	48	5948
2026-01-10 20:05:52.85	341.93	12.20	-37.5	-38.5	22.8	0.00e+00	0	28	0	825229312	48	6059
2026-01-10 20:05:53.86	341.76	12.16	-37.6	-38.6	22.7	0.00e+00	90	28	0	827326464	48	6148
2026-01-10 20:05:54.87	341.58	12.12	-37.7	-38.8	22.5	0.00e+00	0	28	0	829423616	48	6261
2026-01-10 20:05:55.88	341.41	12.08	-37.7	-38.8	22.5	0.00e+00	12	28	0	830472192	48	6273
2026-01-10 20:05:56.89	341.23	12.04	-37.8	-38.9	22.5	0.00e+00	0	28	0	832569344	48	6354
2026-01-10 20:05:57.90	341.06	12.00	-37.8	-38.9	22.4	0.00e+00	0	29	0	834666496	48	6373
2026-01-10 20:05:58.91	340.88	11.96	-38.0	-39.1	22.2	0.00e+00	78	29	0	836763648	48	6493
2026-01-10 20:05:59.92	340.71	11.92	-37.9	-39.0	22.4	0.00e+00	17	29	0	838860800	48	6417
2026-01-10 20:06:00.90	340.54	11.88	-37.8	-38.9	22.4	0.00e+00	92	28	0	839909376	48	6375
2026-01-10 20:06:01.90	340.37	11.83	-37.9	-39.0	22.3	0.00e+00	2	29	0	842006528	48	6441
2026-01-10 20:06:02.91	340.20	11.79	-38.0	-39.1	22.2	0.00e+00	5	29	0	844103680	48	6496
2026-01-10 20:06:03.92	340.03	11.75	-38.0	-39.1	22.2	0.00e+00	10	29	0	846200832	48	6534
2026-01-10 20:06:04.93	339.86	11.71	-38.0	-39.2	22.2	0.00e+00	10	28	0	848297984	48	6551
2026-01-10 20:06:05.94	339.69	11.66	-38.1	-39.3	22.1	0.00e+00	0	29	0	849346560	48	6639
2026-01-10 20:06:06.95	339.52	11.62	-38.2	-39.4	22.0	0.00e+00	17	28	0	851443712	48	6705
2026-01-10 20:06:07.96	339.35	11.58	-38.3	-39.4	21.9	0.00e+00	92	28	0	853540864	48	6757
2026-01-10 20:06:08.97	339.18	11.54	-38.4	-39.5	21.8	0.00e+00	1	28	0	855638016	48	6843
2026-01-10 20:06:09.98	339.02	11.49	-38.5	-39.7	21.7	0.00e+00	92	29	0	857735168	48	6981
2026-01-10 20:06:10.99	338.85	11.45	-38.6	-39.8	21.5	0.00e+00	0	29	0	858783744	48	7074
2026-01-10 20:06:12.00	338.68	11.40	-38.8	-40.1	21.4	0.00e+00	0	28	0	860880896	50	6478
2026-01-10 20:06:13.01	338.51	11.36	-38.8	-40.1	21.2	0.00e+00	69	29	0	862978048	50	6485
2026-01-10 20:06:14.02	338.35	11.32	-38.9	-40.1	21.3	0.00e+00	0	29	0	865075200	50	6518
2026-01-10 20:06:15.03	338.18	11.27	-39.0	-40.2	21.2	0.00e+00	91	29	0	867172352	50	6601
2026-01-10 20:06:16.04	338.02	11.23	-39.2	-40.6	20.9	0.00e+00	0	29	0	869269504	50	6857
2026-01-10 20:06:17.05	337.85	11.18	-39.2	-40.5	20.9	0.00e+00	90	28	0	870318080	50	6801
2026-01-10 20:06:18.06	337.69	11.14	-39.2	-40.5	21.1	0.00e+00	0	28	0	872415232	50	6813
2026-01-10 20:06:19.07	337.53	11.09	-39.5	-40.9	20.8	0.00e+00	0	29	0	874512384	50	7119
2026-01-10 20:06:20.08	337.36	11.05	-39.5	-40.8	20.6	0.00e+00	9	29	0	876609536	50	7043
2026-01-10 20:06:21.09	337.20	11.00	-39.3	-40.6	20.8	0.00e+00	11	29	0	878706688	50	6851
2026-01-10 20:06:22.10	337.04	10.96	-39.1	-40.3	21.2	0.00e+00	0	29	0	879755264	50	6670
2026-01-10 20:06:23.11	336.88	10.91	-39.2	-40.4	21.0	0.00e+00	16	29	0	881852416	50	6760
2026-01-10 20:06:24.12	336.72	10.87	-39.2	-40.5	20.9	0.00e+00	89	29	0	883949568	50	6793
2026-01-10 20:06:25.13	336.56	10.82	-39.4	-40.7	20.6	0.00e+00	65	29	0	886046720	50	6968
2026-01-10 20:06:26.14	336.40	10.78	-39.5	-40.8	20.6	0.00e+00	0	29	0	888143872	50	7025
2026-01-10 20:06:27.15	336.24	10.73	-39.7	-41.0	20.4	0.00e+00	0	29	0	889192448	50	7195
2026-01-10 20:06:28.16	336.08	10.68	-39.8	-41.2	20.3	0.00e+00	71	29	0	891289600	52	6577
2026-01-10 20:06:29.17	335.92	10.64	-39.9	-41.3	20.1	0.00e+00	7	29	0	893386752	52	6647
2026-01-10 20:06:30.18	335.76	10.59	-40.0	-41.4	20.1	0.00e+00	0	29	0	895483904	52	6726
2026-01-10 20:06:31.18	335.61	10.55	-40.0	-41.4	20.0	0.00e+00	90	29	0	897581056	52	6751
2026-01-10 20:06:32.19	335.45	10.50	-40.0	-41.4	20.1	0.00e+00	0	29	0	898629632	52	6732
2026-01-10 20:06:33.20	335.29	10.45	-40.0	-41.4	20.0	0.00e+00	92	29	0	900726784	52	6722
2026-01-10 20:06:34.21	335.14	10.41	-39.9	-41.3	20.2	0.00e+00	0	29	0	902823936	52	6651
2026-01-10 20:06:35.22	334.98	10.36	-39.9	-41.3	20.2	0.00e+00	0	28	0	904921088	52	6653
2026-01-10 20:06:36.23	334.83	10.31	-39.9	-41.3	20.1	0.00e+00	2	29	0	907018240	52	6669
2026-01-10 20:06:37.24	334.67	10.27	-40.0	-41.4	20.1	0.00e+00	0	29	0	908066816	52	6754
2026-01-10 20:06:38.25	334.52	10.22	-40.1	-41.5	20.0	0.00e+00	87	28	0	910163968	52	6809
2026-01-10 20:06:39.26	334.37	10.17	-40.1	-41.4	19.9	0.00e+00	13	29	0	912261120	52	6765
2026-01-10 20:06:40.27	334.21	10.12	-40.1	-41.5	19.8	0.00e+00	91	29	0	914358272	52	6840
2026-01-10 20:06:41.28	334.06	10.08	-40.3	-41.7	19.6	0.00e+00	0	29	0	916455424	52	6980
2026-01-10 20:06:42.29	333.91	10.03	-40.2	-41.6	19.7	0.00e+00	0	29	0	917504000	52	6920
2026-01-10 20:06:43.30	333.76	9.98	-40.3	-41.8	19.5	0.00e+00	0	29	0	919601152	52	7070
2026-01-10 20:06:44.31	333.61	9.93	-40.4	-41.9	19.7	0.00e+00	8	29	0	921698304	52	7098
2026-01-10 20:06:45.32	333.46	9.88	-40.4	-41.9	19.6	0.00e+00	90	29	0	923795456	52	7093
2026-01-10 20:06:46.33	333.31	9.84	-40.3	-41.7	19.7	0.00e+00	69	29	0	925892608	52	6995
2026-01-10 20:06:47.34	333.16	9.79	-40.3	-41.8	19.6	0.00e+00	92	29	0	926941184	52	7042
2026-01-10 20:06:48.35	333.01	9.74	-40.1	-41.5	19.9	0.00e+00	15	29	0	929038336	52	6788
2026-01-10 20:06:49.35	332.86	9.69	-40.2	-41.7	19.9	0.00e+00	83	29	0	931135488	52	6928
2026-01-10 20:06:50.36	332.72	9.64	-40.2	-41.6	19.9	0.00e+00	2	29	0	933232640	52	6858
2026-01-10 20:06:51.38	332.57	9.59	-40.2	-41.6	19.8	0.00e+00	0	29	0	935329792	52	6882
2026-01-10 20:06:52.39	332.42	9.55	-40.3	-41.8	19.7	0.00e+00	12	29	0	937426944	52	7011
2026-01-10 20:06:53.39	332.28	9.50	-40.5	-41.9	19.5	0.00e+00	0	29	0	938475520	52	7166
2026-01-10 20:06:54.41	332.13	9.45	-40.3	-41.7	19.7	0.00e+00	92	29	0	940572672	52	6994
2026-01-10 20:06:55.41	331.98	9.40	-40.4	-41.9	19.6	0.00e+00	0	29	0	942669824	52	7090
2026-01-10 20:06:56.42	331.84	9.35	-40.3	-41.7	19.8	0.00e+00	92	29	0	944766976	52	6969
2026-01-10 20:06:57.43	331.70	9.30	-40.2	-41.6	19.8	0.00e+00	6	29	0	946864128	52	6898
2026-01-10 20:06:58.45	331.55	9.25	-40.1	-41.5	19.8	0.00e+00	0	29	0	947912704	52	6780
2026-01-10 20:06:59.45	331.41	9.20	-40.1	-41.5	20.0	0.00e+00	0	29	0	950009856	52	6777
2026-01-10 20:07:00.46	331.27	9.16	-39.8	-41.1	20.2	0.00e+00	7	29	0	952107008	52	6527
2026-01-10 20:07:01.48	331.12	9.11	-39.8	-41.1	20.2	0.00e+00	91	29	0	954204160	52	6529
2026-01-10 20:07:02.48	330.98	9.06	-39.7	-41.0	20.4	0.00e+00	6	29	0	956301312	52	6461
2026-01-10 20:07:03.49	330.84	9.01	-39.7	-41.0	20.4	0.00e+00	92	29	0	957349888	52	6440
2026-01-10 20:07:04.50	330.70	8.96	-39.6	-40.9	20.5	0.00e+00	14	29	0	959447040	52	6378
2026-01-10 20:07:05.51	330.56	8.91	-39.7	-41.0	20.4	0.00e+00	4	29	0	961544192	52	6402
2026-01-10 20:07:06.52	330.42	8.86	-39.8	-41.1	20.3	0.00e+00	6	29	0	963641344	52	6482
2026-01-10 20:07:07.53	330.28	8.81	-39.6	-40.8	20.4	0.00e+00	7	29	0	965738496	52	6304
2026-01-10 20:07:08.54	330.14	8.76	-39.7	-40.9	20.3	0.00e+00	13	29	0	966787072	52	6384
2026-01-10 20:07:09.55	330.00	8.71	-39.6	-40.9	20.4	0.00e+00	10	29	0	968884224	52	6356
2026-01-10 20:07:10.56	329.86	8.66	-39.5	-40.8	20.6	0.00e+00	90	29	0	970981376	52	6280
2026-01-10 20:07:11.57	329.73	8.61	-39.6	-40.8	20.5	0.00e+00	73	29	0	973078528	52	6298
2026-01-10 20:07:12.58	329.59	8.56	-39.6	-40.9	20.4	0.00e+00	39	29	0	975175680	52	6359
2026-01-10 20:07:13.59	329.45	8.51	-39.4	-40.7	20.6	0.00e+00	0	29	0	976224256	52	6206
2026-01-10 20:07:14.60	329.32	8.46	-39.4	-40.6	20.7	0.00e+00	72	29	0	978321408	52	6145
2026-01-10 20:07:15.61	329.18	8.41	-39.4	-40.7	20.6	0.00e+00	0	29	0	980418560	52	6189
2026-01-10 20:07:16.62	329.05	8.36	-39.4	-40.6	20.7	0.00e+00	0	29	0	982515712	52	6137
2026-01-10 20:07:17.63	328.91	8.31	-39.4	-40.6	20.7	0.00e+00	92	29	0	984612864	52	6147
2026-01-10 20:07:18.64	328.78	8.26	-39.3	-40.5	20.8	0.00e+00	5	29	0	985661440	52	6049
2026-01-10 20:07:19.64	328.65	8.21	-39.2	-40.5	20.8	0.00e+00	92	29	0	987758592	52	6050
2026-01-10 20:07:20.65	328.51	8.16	-39.2	-40.4	20.9	0.00e+00	7	29	0	989855744	52	6020
2026-01-10 20:07:21.67	328.38	8.11	-39.0	-40.2	21.1	0.00e+00	5	29	0	991952896	52	5836
2026-01-10 20:07:22.67	328.25	8.06	-39.0	-40.1	21.1	7.00e-07	0	29	0	994050048	52	5819
2026-01-10 20:07:23.69	328.12	8.01	-38.8	-39.9	21.3	0.00e+00	6	29	0	995098624	50	6366
2026-01-10 20:07:24.69	327.99	7.96	-38.9	-40.1	21.2	0.00e+00	92	29	0	997195776	50	6511
2026-01-10 20:07:25.70	327.86	7.90	-38.8	-40.0	21.2	0.00e+00	6	29	0	999292928	50	6395
2026-01-10 20:07:26.71	327.72	7.85	-38.5	-39.7	21.5	0.00e+00	91	29	0	1001390080	50	6182
2026-01-10 20:07:27.72	327.60	7.80	-38.5	-39.6	21.6	0.00e+00	68	29	0	1003487232	50	6137
2026-01-10 20:07:28.73	327.47	7.75	-38.6	-39.7	21.5	0.00e+00	68	29	0	1005584384	50	6224
2026-01-10 20:07:29.74	327.34	7.70	-38.6	-39.7	21.6	0.00e+00	13	29	0	1006632960	50	6195
2026-01-10 20:07:30.75	327.21	7.65	-38.4	-39.5	21.7	0.00e+00	13	29	0	1008730112	50	6083
2026-01-10 20:07:31.76	327.08	7.60	-38.4	-39.5	21.6	0.00e+00	0	29	0	1010827264	50	6051
2026-01-10 20:07:32.77	326.95	7.55	-38.3	-39.4	21.8	0.00e+00	75	29	0	1012924416	50	5979
2026-01-10 20:07:33.78	326.83	7.50	-38.3	-39.4	21.7	0.00e+00	92	29	0	1015021568	50	6020
2026-01-10 20:07:34.79	326.70	7.45	-38.1	-39.2	21.9	0.00e+00	67	29	0	1016070144	50	5851
2026-01-10 20:07:35.80	326.57	7.40	-38.2	-39.3	21.9	0.00e+00	91	29	0	1018167296	50	5914
2026-01-10 20:07:36.82	326.45	7.34	-38.1	-39.2	21.9	0.00e+00	0	29	0	1020264448	50	5830
2026-01-10 20:07:37.82	326.32	7.29	-38.0	-39.0	22.0	0.00e+00	0	29	0	1022361600	50	5755
2026-01-10 20:07:38.83	326.20	7.24	-37.9	-38.9	22.2	0.00e+00	0	29	0	1024458752	50	5691
2026-01-10 20:07:39.84	326.07	7.19	-38.1	-39.1	22.0	0.00e+00	0	29	0	1025507328	50	5804
2026-01-10 20:07:40.85	325.95	7.14	-38.0	-39.1	22.0	0.00e+00	91	29	0	1027604480	50	5773
2026-01-10 20:07:41.86	325.83	7.09	-38.0	-39.0	22.1	0.00e+00	0	29	0	1029701632	50	5731
2026-01-10 20:07:42.87	325.70	7.04	-37.9	-38.9	22.1	0.00e+00	92	29	0	1031798784	50	5684
2026-01-10 20:07:43.88	325.58	6.99	-38.1	-39.2	21.9	0.00e+00	0	29	0	1033895936	50	5855
2026-01-10 20:07:44.89	325.46	6.94	-37.9	-38.9	22.1	0.00e+00	0	29	0	1034944512	50	5674
2026-01-10 20:07:45.90	325.34	6.88	-38.1	-39.1	22.0	0.00e+00	2	29	0	1037041664	50	5806
2026-01-10 20:07:46.91	325.21	6.83	-38.0	-39.1	21.9	0.00e+00	5	29	0	1039138816	50	5763
2026-01-10 20:07:47.92	325.09	6.78	-38.1	-39.2	21.9	0.00e+00	92	29	0	1041235968	50	5852
2026-01-10 20:07:48.93	324.97	6.73	-38.0	-39.1	21.8	0.00e+00	8	29	0	1043333120	50	5808
2026-01-10 20:07:49.94	324.85	6.68	-38.1	-39.2	21.9	0.00e+00	92	29	0	1044381696	50	5862
2026-01-10 20:07:50.95	324.73	6.63	-38.1	-39.2	21.4	0.00e+00	68	29	0	1046478848	50	5836
2026-01-10 20:07:51.96	324.61	6.58	-38.1	-39.2	21.7	0.00e+00	69	29	0	1048576000	50	5849
2026-01-10 20:07:52.97	324.50	6.52	-38.2	-39.3	21.7	0.00e+00	71	29	0	1050673152	50	5932
2026-01-10 20:07:53.98	324.38	6.47	-38.2	-39.3	21.8	0.00e+00	2	29	0	1052770304	50	5918
2026-01-10 20:07:54.99	324.26	6.42	-38.3	-39.4	21.7	0.00e+00	0	29	0	1053818880	50	6032
2026-01-10 20:07:56.00	324.14	6.37	-38.3	-39.4	21.7	0.00e+00	0	29	0	1055916032	50	5998
2026-01-10 20:07:57.01	324.03	6.32	-38.3	-39.4	21.7	0.00e+00	92	29	0	1058013184	50	5975
2026-01-10 20:07:58.02	323.91	6.27	-38.2	-39.3	21.7	0.00e+00	0	29	0	1060110336	50	5943
2026-01-10 20:07:59.03	323.79	6.22	-38.0	-39.0	22.0	0.00e+00	92	29	0	1062207488	50	5759
2026-01-10 20:08:00.04	323.68	6.16	-38.0	-39.1	22.0	0.00e+00	0	29	0	1063256064	50	5774
2026-01-10 20:08:01.05	323.56	6.11	-38.2	-39.3	21.8	0.00e+00	0	29	0	1065353216	50	5907
2026-01-10 20:08:02.06	323.45	6.06	-38.3	-39.4	21.7	0.00e+00	0	29	0	1067450368	50	6022
2026-01-10 20:08:03.07	323.33	6.01	-38.2	-39.3	21.7	0.00e+00	0	29	0	1069547520	50	5943
2026-01-10 20:08:04.08	323.22	5.96	-38.3	-39.4	21.7	0.00e+00	92	29	0	1071644672	50	5980
2026-01-10 20:08:05.09	323.11	5.91	-38.3	-39.5	21.5	0.00e+00	14	29	0	1073741824	50	6041
2026-01-10 20:08:06.10	322.99	5.86	-38.5	-39.6	21.3	0.00e+00	92	29	0	1074790400	50	6161
2026-01-10 20:08:07.11	322.88	5.80	-38.6	-39.8	21.4	0.00e+00	13	29	0	1076887552	50	6246
2026-01-10 20:08:08.12	322.77	5.75	-38.8	-40.0	21.1	0.00e+00	13	29	0	1078984704	50	6413
2026-01-10 20:08:09.13	322.65	5.70	-38.7	-39.9	21.1	0.00e+00	5	29	0	1081081856	50	6355
2026-01-10 20:08:10.14	322.54	5.65	-38.7	-39.8	21.2	0.00e+00	0	29	0	1083179008	50	6310
2026-01-10 20:08:11.15	322.43	5.60	-38.6	-39.7	21.4	0.00e+00	92	29	0	1084227584	50	6224
2026-01-10 20:08:12.16	322.32	5.55	-38.6	-39.8	21.2	0.00e+00	11	29	0	1086324736	50	6287
2026-01-10 20:08:13.17	322.21	5.49	-38.7	-39.8	21.1	0.00e+00	90	29	0	1088421888	50	6307
2026-01-10 20:08:14.18	322.10	5.44	-38.6	-39.8	21.3	0.00e+00	68	29	0	1090519040	50	6302
2026-01-10 20:08:15.19	321.99	5.39	-38.8	-40.0	21.0	0.00e+00	0	29	0	1092616192	50	6463
2026-01-10 20:08:16.20	321.88	5.34	-38.8	-40.0	20.9	0.00e+00	69	29	0	1093664768	50	6457
2026-01-10 20:08:17.21	321.77	5.29	-38.9	-40.2	20.9	0.00e+00	0	29	0	1095761920	50	6550
2026-01-10 20:08:18.22	321.67	5.24	-38.7	-39.9	21.1	0.00e+00	92	29	0	1097859072	50	6348
2026-01-10 20:08:19.23	321.56	5.19	-38.8	-40.0	21.0	0.00e+00	0	29	0	1099956224	50	6428
2026-01-10 20:08:20.24	321.45	5.13	-38.7	-39.9	21.0	0.00e+00	92	29	0	1102053376	50	6320
2026-01-10 20:08:21.26	321.34	5.08	-38.6	-39.7	21.2	0.00e+00	0	29	0	1103101952	50	6226
2026-01-10 20:08:22.26	321.24	5.03	-38.7	-39.9	21.0	0.00e+00	10	29	0	1105199104	50	6347
2026-01-10 20:08:23.27	321.13	4.98	-38.8	-40.0	20.8	0.00e+00	2	29	0	1107296256	50	6435
2026-01-10 20:08:24.28	321.02	4.93	-38.6	-39.8	21.1	0.00e+00	12	29	0	1109393408	50	6297
2026-01-10 20:08:25.29	320.92	4.88	-38.6	-39.8	21.1	0.00e+00	0	29	0	1111490560	50	6294
2026-01-10 20:08:26.30	320.81	4.83	-38.7	-39.8	21.2	0.00e+00	0	29	0	1112539136	50	6308
2026-01-10 20:08:27.31	320.71	4.77	-38.9	-40.1	20.8	0.00e+00	91	29	0	1114636288	50	6502
2026-01-10 20:08:28.32	320.60	4.72	-39.0	-40.2	20.7	0.00e+00	11	29	0	1116733440	50	6574
2026-01-10 20:08:29.33	320.50	4.67	-39.1	-40.4	20.5	0.00e+00	92	29	0	1118830592	50	6746
2026-01-10 20:08:30.34	320.40	4.62	-39.2	-40.4	20.4	0.00e+00	71	29	0	1120927744	50	6752
2026-01-10 20:08:31.35	320.29	4.57	-39.4	-40.7	20.2	0.00e+00	73	29	0	1121976320	50	6943
2026-01-10 20:08:32.36	320.19	4.52	-39.4	-40.7	20.2	0.00e+00	76	29	0	1124073472	50	6996
2026-01-10 20:08:33.37	320.09	4.47	-39.2	-40.5	20.4	0.00e+00	73	29	0	1126170624	50	6804
2026-01-10 20:08:34.39	319.98	4.41	-39.3	-40.6	20.0	0.00e+00	92	29	0	1128267776	50	6904
2026-01-10 20:08:35.40	319.88	4.36	-39.6	-40.9	20.0	0.00e+00	0	29	0	1130364928	50	7155
2026-01-10 20:08:36.40	319.78	4.31	-39.5	-40.9	20.0	0.00e+00	92	29	0	1131413504	50	7113
2026-01-10 20:08:37.42	319.68	4.26	-39.5	-40.8	20.0	0.00e+00	0	29	0	1133510656	50	7048
2026-01-10 20:08:38.43	319.58	4.21	-39.7	-41.1	19.7	0.00e+00	0	29	0	1135607808	50	7321
2026-01-10 20:08:39.43	319.48	4.16	-39.4	-40.8	20.0	0.00e+00	0	29	0	1137704960	50	7043
2026-01-10 20:08:40.44	319.38	4.11	-39.5	-40.8	20.0	0.00e+00	5	29	0	1139802112	50	7072
2026-01-10 20:08:41.45	319.28	4.05	-39.6	-41.0	19.9	0.00e+00	92	29	0	1141899264	50	7225
2026-01-10 20:08:42.46	319.18	4.00	-39.3	-40.6	20.2	0.00e+00	0	29	0	1142947840	50	6899
2026-01-10 20:08:43.47	319.08	3.95	-39.4	-40.8	20.0	0.00e+00	92	29	0	1145044992	50	7017
2026-01-10 20:08:44.48	318.98	3.90	-39.6	-41.0	19.9	0.00e+00	6	29	0	1147142144	50	7193
2026-01-10 20:08:45.49	318.88	3.85	-39.8	-41.3	19.6	0.00e+00	73	29	0	1149239296	50	7461
2026-01-10 20:08:46.50	318.79	3.80	-39.6	-41.0	19.8	0.00e+00	4	29	0	1151336448	52	6400
2026-01-10 20:08:47.51	318.69	3.75	-39.9	-41.3	19.5	0.00e+00	5	29	0	1152385024	52	6661
2026-01-10 20:08:48.52	318.59	3.70	-39.8	-41.2	19.6	0.00e+00	0	29	0	1154482176	52	6578
2026-01-10 20:08:49.53	318.49	3.64	-39.9	-41.3	19.4	0.00e+00	4	29	0	1156579328	52	6688
2026-01-10 20:08:50.54	318.40	3.59	-40.1	-41.6	19.1	0.00e+00	90	29	0	1158676480	52	6891
2026-01-10 20:08:51.55	318.30	3.54	-40.3	-41.8	18.9	0.00e+00	83	29	0	1160773632	52	7086
2026-01-10 20:08:52.56	318.21	3.49	-40.0	-41.6	19.2	0.00e+00	90	29	0	1161822208	52	6854
2026-01-10 20:08:53.56	318.11	3.44	-40.3	-41.9	18.9	0.00e+00	0	29	0	1163919360	52	7135
2026-01-10 20:08:54.57	318.02	3.39	-40.4	-42.0	18.7	0.00e+00	0	29	0	1166016512	52	7199
2026-01-10 20:08:55.58	317.92	3.34	-40.3	-41.8	18.9	0.00e+00	77	29	0	1168113664	52	7083
2026-01-10 20:08:56.59	317.83	3.29	-40.5	-42.1	18.7	0.00e+00	0	29	0	1170210816	52	7299
2026-01-10 20:08:57.60	317.73	3.24	-40.2	-41.8	18.9	0.00e+00	92	29	0	1171259392	52	7050
2026-01-10 20:08:58.61	317.64	3.19	-40.3	-41.9	18.8	0.00e+00	0	29	0	1173356544	52	7129
2026-01-10 20:08:59.62	317.55	3.14	-40.4	-42.0	18.6	0.00e+00	92	29	0	1175453696	52	7217
2026-01-10 20:09:00.63	317.45	3.08	-40.6	-42.2	18.6	0.00e+00	6	29	0	1177550848	52	7411
2026-01-10 20:09:01.64	317.36	3.03	-40.7	-42.4	18.2	0.00e+00	16	29	0	1179648000	52	7595
2026-01-10 20:09:02.65	317.27	2.98	-46.8	-61.9	3.6	7.44e-01	0	29	104	1180696576	60	45074
2026-01-10 20:09:03.66	317.18	2.93	-47.5	-62.6	3.6	1.51e+00	0	29	104	1180696576	60	48938
2026-01-10 20:09:04.67	317.08	2.88	-47.8	-63.0	3.5	1.51e+00	0	29	104	1180696576	60	50838
2026-01-10 20:09:05.68	316.99	2.83	-48.0	-63.1	3.6	1.51e+00	0	29	104	1180696576	60	51938
2026-01-10 20:09:06.69	316.90	2.78	-48.1	-63.3	3.6	1.51e+00	0	29	104	1180696576	60	53087
2026-01-10 20:09:07.70	316.81	2.73	-48.2	-63.4	3.6	1.51e+00	0	29	104	1180696576	60	53323
2026-01-10 20:09:08.71	316.72	2.68	-48.3	-63.5	3.6	1.51e+00	0	30	104	1180696576	60	53834
2026-01-10 20:09:09.72	316.63	2.63	-48.3	-63.5	3.6	1.51e+00	0	30	104	1180696576	60	54182
