passes_logs/2026/01/10/R4.6S_Anadyr/R4.6S_Anadyr__20260110_125742_SUOMI_NPP_rec.log

#Pass ID: 20260110_125742_SUOMI NPP
#Satellite: SUOMI NPP
#Configuration: NPP
#almurnet v.1.7.20251203
#Start time: 2026-01-10 12:57:45

#Version: 2.2.20231116
#Station: R4.6S_Anadyr
#Location: 177.4865 lon 64.73178 lat
#TLE: 1 37849U 11061A   26009.81756760  .00000113  00000+0  74747-4 0  9994
#TLE: 2 37849  98.7806 311.9110 0002525  72.5604 287.5848 14.19524046735974

#Time	Az	El	Level	Level2	SNR	BER	BlckErr	Temp	State	Recorded	gain1	gain2
2026-01-10 12:57:45.47	18.93	0.15	-48.2	-60.7	3.5	1.52e+00	0	28	0	0	60	37976
2026-01-10 12:57:46.48	18.99	0.20	-48.2	-63.4	3.6	1.51e+00	0	29	104	0	60	53595
2026-01-10 12:57:47.49	19.05	0.26	-48.5	-63.7	3.6	1.51e+00	0	29	104	0	60	55070
2026-01-10 12:57:48.50	19.11	0.31	-48.3	-63.5	3.6	1.51e+00	0	29	104	0	60	54213
2026-01-10 12:57:49.51	19.17	0.36	-48.2	-63.5	3.6	1.51e+00	0	29	104	0	60	53875
2026-01-10 12:57:50.52	19.23	0.42	-48.3	-63.5	3.6	1.51e+00	0	29	104	0	60	54316
2026-01-10 12:57:51.53	19.29	0.47	-48.3	-63.4	3.6	1.51e+00	0	29	104	0	60	53581
2026-01-10 12:57:52.54	19.35	0.53	-48.2	-63.4	3.6	1.51e+00	0	29	104	0	60	53747
2026-01-10 12:57:53.55	19.41	0.58	-48.3	-63.5	3.6	1.51e+00	0	29	104	0	60	54237
2026-01-10 12:57:54.56	19.48	0.63	-48.3	-63.5	3.6	1.51e+00	0	29	104	0	60	54355
2026-01-10 12:57:55.57	19.54	0.69	-48.3	-63.5	3.6	1.51e+00	0	29	104	0	60	53883
2026-01-10 12:57:56.58	19.60	0.74	-48.3	-63.4	3.6	1.51e+00	0	29	104	0	60	53758
2026-01-10 12:57:57.59	19.66	0.80	-48.2	-63.4	3.6	1.51e+00	0	29	104	0	60	53173
2026-01-10 12:57:58.60	19.72	0.85	-48.1	-63.3	3.6	1.51e+00	0	29	104	0	60	52837
2026-01-10 12:57:59.61	19.79	0.91	-48.0	-63.1	3.6	1.51e+00	0	29	104	0	60	51940
2026-01-10 12:58:00.62	19.85	0.96	-47.8	-63.0	3.6	1.51e+00	0	29	104	0	60	51104
2026-01-10 12:58:01.63	19.91	1.02	-47.7	-62.8	3.6	1.51e+00	0	29	104	0	60	50180
2026-01-10 12:58:02.64	19.98	1.07	-47.5	-62.7	3.6	1.51e+00	0	29	104	0	60	49102
2026-01-10 12:58:03.65	20.04	1.13	-47.3	-62.4	3.6	1.51e+00	0	29	104	0	60	47835
2026-01-10 12:58:04.65	20.10	1.18	-46.8	-61.9	3.6	1.51e+00	0	29	104	0	60	45220
2026-01-10 12:58:05.66	20.17	1.24	-46.7	-61.7	3.6	1.51e+00	0	29	104	0	60	44151
2026-01-10 12:58:06.67	20.23	1.29	-46.6	-61.8	3.6	1.51e+00	0	29	104	0	60	44359
2026-01-10 12:58:07.68	20.29	1.35	-46.6	-61.8	3.6	1.51e+00	0	29	104	0	60	44421
2026-01-10 12:58:08.69	20.36	1.40	-46.6	-61.8	3.6	1.51e+00	0	29	104	0	60	44409
2026-01-10 12:58:09.70	20.42	1.46	-46.6	-61.8	3.6	1.51e+00	0	29	104	0	60	44308
2026-01-10 12:58:10.71	20.49	1.51	-46.6	-61.8	3.6	1.51e+00	0	30	104	0	60	44383
2026-01-10 12:58:11.72	20.55	1.57	-46.6	-61.8	3.6	1.51e+00	0	29	104	0	60	44550
2026-01-10 12:58:12.73	20.62	1.62	-46.6	-61.7	3.6	1.51e+00	0	29	104	0	60	44128
2026-01-10 12:58:13.74	20.68	1.68	-46.6	-61.8	3.6	1.51e+00	0	29	104	0	60	44250
2026-01-10 12:58:14.75	20.75	1.74	-46.6	-61.7	3.6	1.51e+00	0	29	104	0	60	44189
2026-01-10 12:58:15.76	20.82	1.79	-46.6	-61.7	3.6	1.51e+00	0	29	104	0	60	43813
2026-01-10 12:58:16.77	20.88	1.85	-46.6	-61.7	3.6	1.51e+00	0	29	104	0	60	43795
2026-01-10 12:58:17.78	20.95	1.90	-46.6	-61.6	3.6	1.51e+00	0	29	104	0	60	43552
2026-01-10 12:58:18.79	21.02	1.96	-46.6	-61.7	3.6	1.51e+00	0	30	104	0	60	43808
2026-01-10 12:58:19.80	21.08	2.02	-46.6	-61.6	3.6	1.51e+00	0	30	104	0	60	43550
2026-01-10 12:58:20.81	21.15	2.07	-46.6	-61.7	3.6	1.51e+00	0	30	104	0	60	44100
2026-01-10 12:58:21.81	21.22	2.13	-46.6	-61.7	3.6	1.51e+00	0	30	104	0	60	44045
2026-01-10 12:58:22.82	21.28	2.18	-46.6	-61.7	3.6	1.51e+00	0	30	104	0	60	44068
2026-01-10 12:58:23.83	21.35	2.24	-46.6	-61.8	3.6	1.51e+00	0	30	104	0	60	44287
2026-01-10 12:58:24.84	21.42	2.30	-46.6	-61.5	3.6	1.51e+00	0	30	104	0	60	42913
2026-01-10 12:58:25.85	21.49	2.35	-46.6	-60.9	3.6	1.51e+00	0	30	104	0	60	39872
2026-01-10 12:58:26.86	21.56	2.41	-46.5	-60.1	3.6	1.51e+00	0	30	104	0	60	36527
2026-01-10 12:58:27.87	21.63	2.47	-46.5	-59.9	3.6	1.51e+00	0	30	104	0	60	35731
2026-01-10 12:58:28.88	21.70	2.52	-46.6	-60.4	3.6	1.51e+00	0	30	104	0	60	37752
2026-01-10 12:58:29.90	21.77	2.58	-46.6	-60.5	3.6	1.51e+00	0	30	104	0	60	38346
2026-01-10 12:58:30.90	21.84	2.64	-46.4	-58.2	3.8	1.50e+00	0	30	104	0	60	29414
2026-01-10 12:58:31.91	21.91	2.70	-45.9	-53.6	6.7	4.26e-01	0	30	0	0	60	17217
2026-01-10 12:58:32.92	21.98	2.75	-45.0	-49.9	10.5	2.82e-02	39	30	0	2097152	60	11345
2026-01-10 12:58:33.93	22.05	2.81	-43.5	-46.6	14.2	3.07e-04	0	30	0	4194304	60	7692
2026-01-10 12:58:34.94	22.12	2.87	-42.2	-44.6	16.1	0.00e+00	81	30	0	5242880	58	6881
2026-01-10 12:58:35.95	22.19	2.93	-40.9	-42.7	18.0	0.00e+00	0	30	0	7340032	56	6243
2026-01-10 12:58:36.96	22.26	2.98	-40.1	-41.7	18.9	0.00e+00	0	30	0	9437184	54	6193
2026-01-10 12:58:37.97	22.33	3.04	-39.8	-41.4	19.1	0.00e+00	0	30	0	11534336	54	5972
2026-01-10 12:58:38.98	22.40	3.10	-40.0	-41.6	18.9	0.00e+00	0	30	0	13631488	54	6128
2026-01-10 12:58:39.99	22.47	3.16	-40.4	-42.0	18.4	0.00e+00	0	30	0	14680064	54	6463
2026-01-10 12:58:41.00	22.55	3.21	-41.3	-43.4	17.2	0.00e+00	0	30	0	16777216	54	7511
2026-01-10 12:58:42.02	22.62	3.27	-42.9	-45.6	15.1	0.00e+00	92	30	0	18874368	58	7714
2026-01-10 12:58:43.02	22.69	3.33	-44.2	-48.0	12.2	4.50e-06	0	30	0	20971520	60	9059
2026-01-10 12:58:44.03	22.76	3.39	-41.4	-43.4	17.4	1.50e-06	10	30	0	23068672	56	6697
2026-01-10 12:58:45.04	22.84	3.45	-40.0	-41.5	19.0	0.00e+00	0	30	0	24117248	54	6095
2026-01-10 12:58:46.05	22.91	3.51	-46.5	-60.3	3.6	7.08e-01	0	30	104	25165824	60	37317
2026-01-10 12:58:47.06	22.99	3.56	-45.9	-53.5	7.9	1.49e+00	0	30	104	25165824	60	17162
2026-01-10 12:58:48.07	23.06	3.62	-45.7	-51.7	9.4	3.66e-03	0	30	0	25165824	60	13954
2026-01-10 12:58:49.08	23.13	3.68	-41.9	-44.0	16.7	6.80e-06	90	30	0	27262976	58	6460
2026-01-10 12:58:50.09	23.21	3.74	-41.6	-43.6	16.9	0.00e+00	27	30	0	29360128	56	6881
2026-01-10 12:58:51.10	23.28	3.80	-41.8	-43.9	17.1	0.00e+00	90	30	0	31457280	56	7122
2026-01-10 12:58:52.11	23.36	3.86	-41.5	-43.4	17.3	0.00e+00	0	30	0	33554432	56	6751
2026-01-10 12:58:53.12	23.43	3.92	-41.9	-44.0	16.9	0.00e+00	0	30	0	34603008	56	7214
2026-01-10 12:58:54.13	23.51	3.98	-41.3	-43.2	17.4	0.00e+00	0	30	0	36700160	56	6581
2026-01-10 12:58:55.14	23.59	4.04	-41.7	-43.7	17.2	0.00e+00	0	30	0	38797312	56	6968
2026-01-10 12:58:56.14	23.66	4.09	-41.3	-43.2	17.8	0.00e+00	92	30	0	40894464	56	6581
2026-01-10 12:58:57.15	23.74	4.15	-40.6	-42.3	18.7	0.00e+00	27	30	0	42991616	56	5900
2026-01-10 12:58:58.16	23.82	4.21	-40.3	-41.9	19.3	0.00e+00	92	30	0	44040192	54	6324
2026-01-10 12:58:59.17	23.89	4.27	-39.6	-41.0	19.4	0.00e+00	0	30	0	46137344	52	6452
2026-01-10 12:59:00.18	23.97	4.33	-39.7	-41.1	19.7	0.00e+00	0	30	0	48234496	52	6500
2026-01-10 12:59:01.19	24.05	4.39	-39.2	-40.5	20.2	0.00e+00	0	30	0	50331648	52	6059
2026-01-10 12:59:02.20	24.13	4.45	-39.0	-40.3	20.5	0.00e+00	0	30	0	52428800	52	5934
2026-01-10 12:59:03.21	24.21	4.51	-39.0	-40.2	20.4	0.00e+00	43	30	0	53477376	52	5872
2026-01-10 12:59:04.22	24.28	4.57	-39.1	-40.3	20.4	0.00e+00	0	30	0	55574528	52	5952
2026-01-10 12:59:05.23	24.36	4.63	-39.0	-40.3	20.3	0.00e+00	45	30	0	57671680	52	5944
2026-01-10 12:59:06.24	24.44	4.69	-38.9	-40.1	20.6	0.00e+00	0	30	0	59768832	52	5799
2026-01-10 12:59:07.25	24.52	4.75	-38.7	-39.9	20.8	0.00e+00	0	30	0	61865984	50	6345
2026-01-10 12:59:08.26	24.60	4.81	-38.7	-39.9	20.8	0.00e+00	0	30	0	62914560	50	6341
2026-01-10 12:59:09.27	24.68	4.87	-38.8	-40.1	20.6	0.00e+00	0	30	0	65011712	50	6483
2026-01-10 12:59:10.28	24.76	4.94	-38.8	-40.0	20.7	0.00e+00	40	30	0	67108864	50	6411
2026-01-10 12:59:11.29	24.84	5.00	-38.9	-40.2	20.6	0.00e+00	0	30	0	69206016	50	6565
2026-01-10 12:59:12.30	24.93	5.06	-38.8	-40.1	20.7	0.00e+00	92	30	0	71303168	50	6469
2026-01-10 12:59:13.31	25.01	5.12	-38.6	-39.8	20.9	0.00e+00	0	30	0	73400320	50	6276
2026-01-10 12:59:14.32	25.09	5.18	-38.8	-40.0	20.7	0.00e+00	46	30	0	74448896	50	6446
2026-01-10 12:59:15.33	25.17	5.24	-38.7	-40.0	20.8	0.00e+00	0	30	0	76546048	50	6406
2026-01-10 12:59:16.34	25.25	5.30	-39.0	-40.3	20.6	0.00e+00	0	30	0	78643200	50	6626
2026-01-10 12:59:17.35	25.34	5.36	-38.7	-39.9	20.8	0.00e+00	42	30	0	80740352	50	6369
2026-01-10 12:59:18.36	25.42	5.42	-38.8	-40.1	20.7	0.00e+00	0	30	0	82837504	50	6487
2026-01-10 12:59:19.37	25.50	5.49	-38.8	-40.0	20.8	0.00e+00	92	30	0	83886080	50	6458
2026-01-10 12:59:20.38	25.59	5.55	-38.8	-40.0	20.8	0.00e+00	0	30	0	85983232	50	6444
2026-01-10 12:59:21.39	25.67	5.61	-38.8	-40.0	20.7	0.00e+00	69	30	0	88080384	50	6457
2026-01-10 12:59:22.40	25.76	5.67	-38.8	-40.0	20.8	0.00e+00	0	30	0	90177536	50	6430
2026-01-10 12:59:23.41	25.84	5.73	-38.8	-40.0	20.8	0.00e+00	0	30	0	92274688	50	6436
2026-01-10 12:59:24.42	25.93	5.79	-38.7	-39.9	20.9	0.00e+00	29	30	0	93323264	50	6388
2026-01-10 12:59:25.43	26.01	5.86	-38.9	-40.1	20.7	0.00e+00	0	30	0	95420416	50	6529
2026-01-10 12:59:26.44	26.10	5.92	-38.8	-40.0	20.9	0.00e+00	32	30	0	97517568	50	6416
2026-01-10 12:59:27.45	26.18	5.98	-38.6	-39.8	21.0	0.00e+00	0	30	0	99614720	50	6286
2026-01-10 12:59:28.46	26.27	6.04	-38.6	-39.8	21.0	0.00e+00	76	30	0	101711872	50	6267
2026-01-10 12:59:29.47	26.36	6.11	-38.6	-39.8	20.9	0.00e+00	0	30	0	102760448	50	6258
2026-01-10 12:59:30.48	26.44	6.17	-38.6	-39.7	20.9	0.00e+00	0	30	0	104857600	50	6231
2026-01-10 12:59:31.49	26.53	6.23	-38.5	-39.7	20.9	0.00e+00	8	30	0	106954752	50	6219
2026-01-10 12:59:32.50	26.62	6.29	-38.8	-40.0	20.9	0.00e+00	0	30	0	109051904	50	6410
2026-01-10 12:59:33.50	26.71	6.36	-38.7	-39.8	21.0	0.00e+00	34	30	0	111149056	50	6316
2026-01-10 12:59:34.51	26.80	6.42	-38.6	-39.8	21.1	0.00e+00	0	30	0	112197632	50	6285
2026-01-10 12:59:35.53	26.89	6.48	-38.7	-39.9	21.0	0.00e+00	92	30	0	114294784	50	6323
2026-01-10 12:59:36.54	26.98	6.55	-38.4	-39.5	21.3	0.00e+00	0	30	0	116391936	50	6086
2026-01-10 12:59:37.54	27.06	6.61	-38.7	-39.8	21.1	0.00e+00	0	30	0	118489088	50	6300
2026-01-10 12:59:38.55	27.15	6.67	-38.7	-39.9	21.1	0.00e+00	0	30	0	120586240	50	6323
2026-01-10 12:59:39.56	27.25	6.73	-38.7	-39.9	21.1	0.00e+00	0	30	0	121634816	50	6375
2026-01-10 12:59:40.57	27.34	6.80	-38.8	-40.0	20.9	0.00e+00	39	30	0	123731968	50	6400
2026-01-10 12:59:41.58	27.43	6.86	-38.9	-40.1	20.8	0.00e+00	0	30	0	125829120	50	6530
2026-01-10 12:59:42.59	27.52	6.93	-39.1	-40.3	20.7	0.00e+00	44	30	0	127926272	50	6653
2026-01-10 12:59:43.60	27.61	6.99	-39.0	-40.3	20.7	0.00e+00	0	30	0	130023424	50	6622
2026-01-10 12:59:44.61	27.70	7.05	-39.0	-40.2	20.7	0.00e+00	0	30	0	131072000	50	6580
2026-01-10 12:59:45.62	27.80	7.12	-39.0	-40.2	20.8	0.00e+00	0	30	0	133169152	50	6569
2026-01-10 12:59:46.63	27.89	7.18	-39.0	-40.2	20.7	0.00e+00	0	30	0	135266304	50	6613
2026-01-10 12:59:47.64	27.98	7.25	-39.1	-40.3	20.7	0.00e+00	38	30	0	137363456	50	6640
2026-01-10 12:59:48.65	28.08	7.31	-39.1	-40.3	20.8	0.00e+00	0	30	0	139460608	50	6649
2026-01-10 12:59:49.66	28.17	7.38	-39.2	-40.5	20.6	0.00e+00	91	30	0	141557760	50	6773
2026-01-10 12:59:50.67	28.27	7.44	-39.2	-40.4	20.6	0.00e+00	0	30	0	142606336	50	6748
2026-01-10 12:59:51.68	28.36	7.50	-38.9	-40.1	21.1	0.00e+00	62	30	0	144703488	50	6501
2026-01-10 12:59:52.69	28.46	7.57	-38.8	-40.0	21.0	0.00e+00	0	30	0	146800640	50	6447
2026-01-10 12:59:53.70	28.55	7.63	-38.8	-40.0	21.1	0.00e+00	0	30	0	148897792	50	6393
2026-01-10 12:59:54.70	28.65	7.70	-38.4	-39.5	21.4	0.00e+00	35	30	0	150994944	50	6060
2026-01-10 12:59:55.71	28.75	7.76	-38.4	-39.5	21.4	0.00e+00	0	30	0	152043520	50	6071
2026-01-10 12:59:56.72	28.84	7.83	-38.3	-39.4	21.5	0.00e+00	89	30	0	154140672	50	6024
2026-01-10 12:59:57.73	28.94	7.89	-38.2	-39.3	21.6	0.00e+00	0	30	0	156237824	50	5904
2026-01-10 12:59:58.74	29.04	7.96	-38.1	-39.2	21.8	0.00e+00	92	30	0	158334976	50	5886
2026-01-10 12:59:59.75	29.14	8.02	-38.0	-39.1	21.8	0.00e+00	0	30	0	160432128	50	5791
2026-01-10 13:00:00.76	29.24	8.09	-38.0	-39.0	22.0	0.00e+00	0	30	0	161480704	50	5759
2026-01-10 13:00:01.77	29.34	8.16	-37.9	-39.0	22.0	0.00e+00	0	30	0	163577856	50	5699
2026-01-10 13:00:02.78	29.44	8.22	-37.8	-38.8	22.0	0.00e+00	0	30	0	165675008	50	5616
2026-01-10 13:00:03.79	29.54	8.29	-37.9	-39.0	21.9	0.00e+00	39	30	0	167772160	50	5700
2026-01-10 13:00:04.80	29.64	8.35	-38.0	-39.1	21.8	0.00e+00	0	30	0	169869312	50	5764
2026-01-10 13:00:05.81	29.74	8.42	-38.0	-39.0	22.0	0.00e+00	87	30	0	170917888	50	5753
2026-01-10 13:00:06.82	29.84	8.49	-38.0	-39.0	21.9	0.00e+00	0	30	0	173015040	50	5749
2026-01-10 13:00:07.83	29.94	8.55	-38.0	-39.1	21.9	0.00e+00	0	30	0	175112192	50	5779
2026-01-10 13:00:08.84	30.04	8.62	-37.9	-38.9	22.0	0.00e+00	0	30	0	177209344	50	5681
2026-01-10 13:00:09.85	30.15	8.68	-38.0	-39.1	21.9	0.00e+00	0	30	0	179306496	50	5804
2026-01-10 13:00:10.85	30.25	8.75	-38.1	-39.1	21.8	0.00e+00	62	30	0	180355072	50	5816
2026-01-10 13:00:11.87	30.35	8.82	-37.9	-38.9	22.0	0.00e+00	0	30	0	182452224	50	5687
2026-01-10 13:00:12.87	30.46	8.88	-38.2	-39.3	21.7	0.00e+00	91	30	0	184549376	50	5904
2026-01-10 13:00:13.89	30.56	8.95	-38.3	-39.4	21.6	0.00e+00	0	30	0	186646528	50	5974
2026-01-10 13:00:14.90	30.67	9.02	-38.2	-39.3	21.7	0.00e+00	0	30	0	188743680	50	5914
2026-01-10 13:00:15.90	30.77	9.08	-38.4	-39.6	21.4	0.00e+00	0	30	0	189792256	50	6104
2026-01-10 13:00:16.91	30.88	9.15	-38.4	-39.5	21.4	0.00e+00	0	30	0	191889408	50	6077
2026-01-10 13:00:17.92	30.98	9.22	-38.4	-39.6	21.2	0.00e+00	45	30	0	193986560	50	6144
2026-01-10 13:00:18.93	31.09	9.29	-38.6	-39.7	21.4	0.00e+00	0	30	0	196083712	50	6208
2026-01-10 13:00:19.94	31.20	9.35	-38.7	-39.9	21.2	0.00e+00	92	30	0	198180864	50	6325
2026-01-10 13:00:20.95	31.31	9.42	-38.7	-39.9	21.3	0.00e+00	0	30	0	199229440	50	6320
2026-01-10 13:00:21.96	31.41	9.49	-38.7	-39.9	21.3	0.00e+00	0	30	0	201326592	50	6331
2026-01-10 13:00:22.97	31.52	9.56	-38.6	-39.7	21.4	0.00e+00	0	30	0	203423744	50	6235
2026-01-10 13:00:23.98	31.63	9.62	-38.6	-39.7	21.4	0.00e+00	0	30	0	205520896	50	6209
2026-01-10 13:00:24.99	31.74	9.69	-38.7	-39.8	21.2	0.00e+00	12	30	0	207618048	50	6302
2026-01-10 13:00:26.00	31.85	9.76	-38.5	-39.7	21.4	0.00e+00	0	30	0	209715200	50	6184
2026-01-10 13:00:27.01	31.96	9.83	-38.6	-39.7	21.3	0.00e+00	48	30	0	210763776	50	6220
2026-01-10 13:00:28.02	32.07	9.90	-38.4	-39.5	21.6	0.00e+00	0	30	0	212860928	50	6044
2026-01-10 13:00:29.03	32.19	9.97	-38.5	-39.6	21.6	0.00e+00	90	30	0	214958080	50	6152
2026-01-10 13:00:30.04	32.30	10.03	-38.6	-39.7	21.4	0.00e+00	0	30	0	217055232	50	6216
2026-01-10 13:00:31.05	32.41	10.10	-38.5	-39.7	21.5	0.00e+00	0	30	0	219152384	50	6184
2026-01-10 13:00:32.06	32.52	10.17	-38.7	-39.8	21.3	0.00e+00	2	30	0	220200960	50	6280
2026-01-10 13:00:33.07	32.64	10.24	-38.7	-39.9	21.3	0.00e+00	0	30	0	222298112	50	6334
2026-01-10 13:00:34.08	32.75	10.31	-38.7	-39.9	21.3	0.00e+00	90	30	0	224395264	50	6346
2026-01-10 13:00:35.09	32.87	10.38	-38.6	-39.7	21.3	0.00e+00	0	30	0	226492416	50	6240
2026-01-10 13:00:36.10	32.98	10.45	-38.8	-40.0	21.1	0.00e+00	92	30	0	228589568	50	6428
2026-01-10 13:00:37.11	33.10	10.52	-38.6	-39.7	21.5	0.00e+00	0	30	0	229638144	50	6231
2026-01-10 13:00:38.11	33.21	10.58	-38.5	-39.6	21.5	0.00e+00	0	30	0	231735296	50	6112
2026-01-10 13:00:39.12	33.33	10.65	-38.5	-39.6	21.6	0.00e+00	0	30	0	233832448	50	6160
2026-01-10 13:00:40.13	33.45	10.72	-38.6	-39.7	21.5	0.00e+00	0	30	0	235929600	50	6207
2026-01-10 13:00:41.14	33.57	10.79	-38.4	-39.5	21.6	0.00e+00	92	30	0	238026752	50	6086
2026-01-10 13:00:42.15	33.68	10.86	-38.2	-39.2	22.0	0.00e+00	0	30	0	239075328	50	5867
2026-01-10 13:00:43.16	33.80	10.93	-37.9	-38.9	22.1	0.00e+00	65	30	0	241172480	50	5695
2026-01-10 13:00:44.17	33.92	11.00	-38.0	-39.0	22.1	0.00e+00	0	30	0	243269632	50	5728
2026-01-10 13:00:45.18	34.04	11.07	-37.7	-38.7	22.3	0.00e+00	0	30	0	245366784	48	6184
2026-01-10 13:00:46.19	34.16	11.14	-37.7	-38.7	22.3	0.00e+00	0	30	0	247463936	48	6191
2026-01-10 13:00:47.20	34.29	11.21	-37.6	-38.6	22.4	0.00e+00	0	30	0	248512512	48	6127
2026-01-10 13:00:48.21	34.41	11.28	-37.5	-38.4	22.5	0.00e+00	47	30	0	250609664	48	6027
2026-01-10 13:00:49.22	34.53	11.35	-37.5	-38.5	22.3	0.00e+00	0	30	0	252706816	48	6075
2026-01-10 13:00:50.23	34.65	11.42	-37.6	-38.6	22.4	0.00e+00	90	30	0	254803968	48	6114
2026-01-10 13:00:51.24	34.78	11.49	-37.6	-38.6	21.9	0.00e+00	0	30	0	256901120	48	6152
2026-01-10 13:00:52.25	34.90	11.56	-37.3	-38.3	22.4	0.00e+00	0	30	0	257949696	48	5923
2026-01-10 13:00:53.26	35.02	11.63	-37.4	-38.4	22.6	0.00e+00	0	30	0	260046848	48	5972
2026-01-10 13:00:54.27	35.15	11.70	-37.4	-38.4	22.5	0.00e+00	0	30	0	262144000	48	6008
2026-01-10 13:00:55.28	35.28	11.78	-37.1	-38.1	22.8	0.00e+00	20	30	0	264241152	48	5762
2026-01-10 13:00:56.29	35.40	11.85	-37.2	-38.2	22.7	0.00e+00	0	30	0	266338304	48	5872
2026-01-10 13:00:57.30	35.53	11.92	-37.2	-38.1	22.8	0.00e+00	92	30	0	267386880	48	5798
2026-01-10 13:00:58.31	35.66	11.99	-37.1	-38.0	22.9	0.00e+00	0	30	0	269484032	48	5749
2026-01-10 13:00:59.32	35.78	12.06	-37.1	-38.0	23.0	0.00e+00	0	30	0	271581184	48	5736
2026-01-10 13:01:00.33	35.91	12.13	-37.1	-38.1	22.9	0.00e+00	0	30	0	273678336	48	5787
2026-01-10 13:01:01.34	36.04	12.20	-37.2	-38.2	22.8	0.00e+00	0	30	0	275775488	48	5829
2026-01-10 13:01:02.35	36.17	12.27	-37.1	-38.0	22.9	0.00e+00	22	30	0	277872640	48	5727
2026-01-10 13:01:03.36	36.30	12.34	-37.2	-38.2	22.9	0.00e+00	0	30	0	278921216	48	5859
2026-01-10 13:01:04.37	36.43	12.42	-37.2	-38.2	22.8	0.00e+00	92	30	0	281018368	48	5838
2026-01-10 13:01:05.38	36.57	12.49	-37.3	-38.3	22.8	0.00e+00	0	30	0	283115520	48	5917
2026-01-10 13:01:06.39	36.70	12.56	-37.3	-38.3	22.8	0.00e+00	29	30	0	285212672	48	5921
2026-01-10 13:01:07.40	36.83	12.63	-37.1	-38.1	23.0	0.00e+00	0	30	0	287309824	48	5797
2026-01-10 13:01:08.41	36.97	12.70	-37.2	-38.2	22.9	0.00e+00	0	30	0	288358400	48	5850
2026-01-10 13:01:09.42	37.10	12.77	-37.3	-38.3	22.7	0.00e+00	0	30	0	290455552	48	5908
2026-01-10 13:01:10.43	37.23	12.85	-37.2	-38.1	22.9	0.00e+00	0	30	0	292552704	48	5819
2026-01-10 13:01:11.44	37.37	12.92	-37.3	-38.3	22.7	0.00e+00	92	30	0	294649856	48	5904
2026-01-10 13:01:12.45	37.51	12.99	-37.4	-38.3	22.7	0.00e+00	0	30	0	296747008	48	5958
2026-01-10 13:01:13.46	37.64	13.06	-37.3	-38.3	22.8	0.00e+00	41	30	0	297795584	48	5912
2026-01-10 13:01:14.47	37.78	13.13	-37.4	-38.4	22.6	0.00e+00	0	30	0	299892736	48	6015
2026-01-10 13:01:15.48	37.92	13.21	-37.5	-38.4	22.5	0.00e+00	0	30	0	301989888	48	6024
2026-01-10 13:01:16.49	38.06	13.28	-37.7	-38.8	22.4	0.00e+00	39	30	0	304087040	48	6254
2026-01-10 13:01:17.50	38.20	13.35	-37.6	-38.6	22.5	0.00e+00	0	30	0	306184192	48	6128
2026-01-10 13:01:18.51	38.34	13.42	-37.7	-38.7	22.4	0.00e+00	36	30	0	307232768	48	6226
2026-01-10 13:01:19.52	38.48	13.50	-37.5	-38.5	22.5	0.00e+00	0	30	0	309329920	48	6098
2026-01-10 13:01:20.52	38.62	13.57	-37.5	-38.5	22.6	0.00e+00	92	30	0	311427072	48	6074
2026-01-10 13:01:21.53	38.76	13.64	-37.4	-38.4	22.6	0.00e+00	0	30	0	313524224	48	6008
2026-01-10 13:01:22.54	38.90	13.71	-37.4	-38.3	22.8	0.00e+00	0	30	0	315621376	48	5963
2026-01-10 13:01:23.56	39.05	13.79	-37.3	-38.3	22.8	0.00e+00	0	30	0	316669952	48	5899
2026-01-10 13:01:24.57	39.19	13.86	-37.1	-38.1	22.9	0.00e+00	0	30	0	318767104	48	5779
2026-01-10 13:01:25.57	39.34	13.93	-37.0	-37.9	23.2	0.00e+00	42	30	0	320864256	48	5664
2026-01-10 13:01:26.58	39.48	14.01	-37.0	-37.9	23.1	0.00e+00	0	30	0	322961408	48	5688
2026-01-10 13:01:27.60	39.63	14.08	-37.2	-38.1	23.0	0.00e+00	90	30	0	325058560	48	5816
2026-01-10 13:01:28.60	39.77	14.15	-36.9	-37.9	23.2	0.00e+00	0	30	0	326107136	48	5644
2026-01-10 13:01:29.61	39.92	14.22	-36.9	-37.8	23.2	0.00e+00	0	30	0	328204288	46	6303
2026-01-10 13:01:30.62	40.07	14.30	-36.8	-37.7	23.2	0.00e+00	0	30	0	330301440	46	6241
2026-01-10 13:01:31.63	40.22	14.37	-36.8	-37.7	23.3	0.00e+00	0	30	0	332398592	46	6230
2026-01-10 13:01:32.64	40.37	14.44	-36.5	-37.4	23.5	0.00e+00	46	31	0	334495744	46	5985
2026-01-10 13:01:33.65	40.52	14.52	-36.7	-37.6	23.3	0.00e+00	0	30	0	335544320	46	6169
2026-01-10 13:01:34.66	40.67	14.59	-36.7	-37.6	23.4	0.00e+00	92	30	0	337641472	46	6156
2026-01-10 13:01:35.67	40.82	14.66	-36.5	-37.4	23.5	0.00e+00	0	30	0	339738624	46	5994
2026-01-10 13:01:36.68	40.98	14.74	-36.7	-37.6	23.4	0.00e+00	14	30	0	341835776	46	6127
2026-01-10 13:01:37.69	41.13	14.81	-36.6	-37.5	23.4	0.00e+00	0	30	0	343932928	46	6068
2026-01-10 13:01:38.70	41.28	14.88	-36.6	-37.5	23.4	0.00e+00	0	30	0	346030080	46	6044
2026-01-10 13:01:39.71	41.44	14.96	-36.5	-37.4	23.4	0.00e+00	42	30	0	347078656	46	5979
2026-01-10 13:01:40.72	41.59	15.03	-36.5	-37.4	23.3	0.00e+00	0	30	0	349175808	46	5982
2026-01-10 13:01:41.73	41.75	15.11	-36.3	-37.2	23.6	0.00e+00	92	30	0	351272960	46	5843
2026-01-10 13:01:42.74	41.91	15.18	-36.5	-37.4	23.1	0.00e+00	0	30	0	353370112	46	6024
2026-01-10 13:01:43.75	42.06	15.25	-36.5	-37.4	23.5	0.00e+00	0	30	0	355467264	46	6005
2026-01-10 13:01:44.76	42.22	15.33	-36.6	-37.5	23.4	0.00e+00	0	30	0	356515840	46	6096
2026-01-10 13:01:45.77	42.38	15.40	-36.8	-37.7	23.2	0.00e+00	0	30	0	358612992	46	6203
2026-01-10 13:01:46.78	42.54	15.47	-36.9	-37.8	23.2	0.00e+00	0	30	0	360710144	46	6274
2026-01-10 13:01:47.78	42.70	15.55	-36.9	-37.8	23.2	0.00e+00	0	30	0	362807296	46	6292
2026-01-10 13:01:48.80	42.86	15.62	-37.1	-38.0	23.1	0.00e+00	92	30	0	364904448	46	6431
2026-01-10 13:01:49.80	43.03	15.69	-37.1	-38.1	23.0	0.00e+00	0	30	0	365953024	46	6491
2026-01-10 13:01:50.81	43.19	15.77	-36.9	-37.8	23.3	0.00e+00	92	30	0	368050176	46	6269
2026-01-10 13:01:51.82	43.35	15.84	-36.9	-37.9	23.2	0.00e+00	0	30	0	370147328	46	6323
2026-01-10 13:01:52.83	43.52	15.92	-36.9	-37.8	23.3	0.00e+00	0	30	0	372244480	46	6310
2026-01-10 13:01:53.84	43.68	15.99	-36.9	-37.8	23.2	0.00e+00	0	30	0	374341632	46	6305
2026-01-10 13:01:54.85	43.85	16.06	-37.1	-38.1	23.0	0.00e+00	0	30	0	375390208	46	6473
2026-01-10 13:01:55.86	44.02	16.14	-37.1	-38.1	23.0	0.00e+00	44	30	0	377487360	46	6475
2026-01-10 13:01:56.87	44.18	16.21	-37.4	-38.4	22.7	0.00e+00	0	30	0	379584512	46	6695
2026-01-10 13:01:57.88	44.35	16.28	-37.0	-38.0	23.2	0.00e+00	64	30	0	381681664	46	6402
2026-01-10 13:01:58.89	44.52	16.36	-36.9	-37.8	23.2	0.00e+00	0	30	0	383778816	46	6288
2026-01-10 13:01:59.90	44.69	16.43	-37.0	-37.9	23.2	0.00e+00	0	30	0	384827392	46	6352
2026-01-10 13:02:00.91	44.86	16.51	-36.8	-37.7	23.3	0.00e+00	0	30	0	386924544	46	6244
2026-01-10 13:02:01.92	45.04	16.58	-36.7	-37.6	23.4	0.00e+00	0	30	0	389021696	46	6139
2026-01-10 13:02:02.93	45.21	16.65	-36.4	-37.2	23.6	0.00e+00	33	30	0	391118848	46	5886
2026-01-10 13:02:03.94	45.38	16.73	-36.3	-37.1	23.8	0.00e+00	0	30	0	393216000	46	5816
2026-01-10 13:02:04.94	45.56	16.80	-36.1	-37.0	23.8	0.00e+00	90	30	0	394264576	46	5707
2026-01-10 13:02:05.95	45.73	16.87	-36.1	-37.0	23.9	0.00e+00	0	30	0	396361728	46	5708
2026-01-10 13:02:06.96	45.91	16.95	-36.1	-36.9	23.9	0.00e+00	0	30	0	398458880	46	5672
2026-01-10 13:02:07.97	46.08	17.02	-36.1	-37.0	23.8	0.00e+00	0	30	0	400556032	46	5706
2026-01-10 13:02:08.98	46.26	17.09	-36.0	-36.9	24.0	0.00e+00	0	30	0	402653184	46	5667
2026-01-10 13:02:09.99	46.44	17.17	-36.0	-36.8	24.0	0.00e+00	18	30	0	403701760	46	5621
2026-01-10 13:02:11.00	46.62	17.24	-35.9	-36.8	24.0	0.00e+00	0	30	0	405798912	46	5607
2026-01-10 13:02:12.01	46.80	17.31	-35.9	-36.7	24.2	0.00e+00	90	31	0	407896064	46	5563
2026-01-10 13:02:13.02	46.98	17.39	-35.8	-36.7	24.1	0.00e+00	0	31	0	409993216	46	5503
2026-01-10 13:02:14.03	47.16	17.46	-35.9	-36.8	24.1	0.00e+00	0	30	0	412090368	46	5574
2026-01-10 13:02:15.04	47.35	17.53	-36.0	-36.9	23.8	0.00e+00	0	31	0	414187520	46	5676
2026-01-10 13:02:16.05	47.53	17.61	-36.0	-36.8	24.0	0.00e+00	0	30	0	415236096	46	5624
2026-01-10 13:02:17.06	47.71	17.68	-36.0	-36.9	23.9	0.00e+00	46	31	0	417333248	46	5694
2026-01-10 13:02:18.07	47.90	17.75	-36.2	-37.1	23.9	0.00e+00	0	31	0	419430400	46	5779
2026-01-10 13:02:19.08	48.09	17.83	-36.1	-36.9	23.9	0.00e+00	92	30	0	421527552	46	5683
2026-01-10 13:02:20.09	48.27	17.90	-36.1	-37.0	23.8	0.00e+00	0	30	0	423624704	46	5704
2026-01-10 13:02:21.10	48.46	17.97	-36.1	-37.0	23.8	0.00e+00	29	30	0	424673280	46	5723
2026-01-10 13:02:22.11	48.65	18.04	-36.0	-36.8	24.0	0.00e+00	0	31	0	426770432	46	5611
2026-01-10 13:02:23.12	48.84	18.12	-35.8	-36.7	24.1	0.00e+00	0	30	0	428867584	46	5519
2026-01-10 13:02:24.13	49.03	18.19	-36.1	-36.9	24.0	0.00e+00	32	30	0	430964736	46	5678
2026-01-10 13:02:25.14	49.22	18.26	-36.1	-37.0	23.8	0.00e+00	0	30	0	433061888	46	5720
2026-01-10 13:02:26.15	49.42	18.33	-36.1	-37.0	23.7	0.00e+00	41	30	0	434110464	46	5707
2026-01-10 13:02:27.16	49.61	18.41	-36.2	-37.1	23.9	0.00e+00	0	30	0	436207616	46	5812
2026-01-10 13:02:28.17	49.80	18.48	-36.5	-37.4	23.5	0.00e+00	87	31	0	438304768	46	6030
2026-01-10 13:02:29.18	50.00	18.55	-36.5	-37.4	23.5	0.00e+00	0	31	0	440401920	46	5988
2026-01-10 13:02:30.19	50.20	18.62	-36.3	-37.1	23.8	0.00e+00	0	30	0	442499072	46	5827
2026-01-10 13:02:31.20	50.39	18.70	-36.3	-37.2	23.8	0.00e+00	0	30	0	443547648	46	5871
2026-01-10 13:02:32.20	50.59	18.77	-36.5	-37.4	23.6	0.00e+00	0	31	0	445644800	46	5994
2026-01-10 13:02:33.21	50.79	18.84	-36.3	-37.1	23.7	0.00e+00	26	30	0	447741952	46	5817
2026-01-10 13:02:34.22	50.99	18.91	-36.4	-37.3	23.6	0.00e+00	0	30	0	449839104	46	5911
2026-01-10 13:02:35.23	51.19	18.98	-36.5	-37.4	23.6	0.00e+00	86	30	0	451936256	46	6021
2026-01-10 13:02:36.24	51.39	19.05	-36.5	-37.4	23.1	0.00e+00	0	30	0	452984832	46	6012
2026-01-10 13:02:37.25	51.59	19.12	-36.5	-37.4	23.6	0.00e+00	0	30	0	455081984	46	5983
2026-01-10 13:02:38.26	51.80	19.19	-36.4	-37.3	23.7	0.00e+00	0	30	0	457179136	46	5931
2026-01-10 13:02:39.27	52.00	19.26	-36.2	-37.1	23.8	0.00e+00	0	30	0	459276288	46	5799
2026-01-10 13:02:40.28	52.21	19.34	-36.1	-36.9	24.0	0.00e+00	40	31	0	461373440	46	5683
2026-01-10 13:02:41.29	52.41	19.41	-36.0	-36.9	24.0	0.00e+00	0	30	0	462422016	46	5664
2026-01-10 13:02:42.30	52.62	19.48	-36.0	-36.9	24.0	0.00e+00	90	30	0	464519168	46	5642
2026-01-10 13:02:43.31	52.83	19.55	-36.2	-37.0	23.9	0.00e+00	0	30	0	466616320	46	5753
2026-01-10 13:02:44.32	53.04	19.62	-36.2	-37.1	23.8	0.00e+00	0	30	0	468713472	46	5779
2026-01-10 13:02:45.33	53.25	19.69	-36.4	-37.3	23.6	0.00e+00	0	30	0	470810624	46	5919
2026-01-10 13:02:46.34	53.46	19.76	-36.7	-37.7	23.4	0.00e+00	0	30	0	471859200	46	6194
2026-01-10 13:02:47.35	53.67	19.83	-36.9	-37.8	23.2	0.00e+00	41	30	0	473956352	46	6280
2026-01-10 13:02:48.35	53.88	19.89	-37.3	-38.2	23.1	0.00e+00	0	30	0	476053504	46	6598
2026-01-10 13:02:49.36	54.09	19.96	-37.1	-38.0	23.1	0.00e+00	91	30	0	478150656	46	6435
2026-01-10 13:02:50.37	54.31	20.03	-37.0	-37.9	23.1	0.00e+00	0	30	0	480247808	46	6371
2026-01-10 13:02:51.38	54.53	20.10	-36.9	-37.8	23.2	0.00e+00	18	31	0	482344960	46	6315
2026-01-10 13:02:52.40	54.74	20.17	-37.1	-38.0	23.2	0.00e+00	0	30	0	483393536	46	6452
2026-01-10 13:02:53.40	54.96	20.24	-37.0	-37.9	23.3	0.00e+00	0	30	0	485490688	46	6378
2026-01-10 13:02:54.41	55.18	20.31	-37.0	-37.9	23.3	0.00e+00	39	30	0	487587840	46	6382
2026-01-10 13:02:55.42	55.40	20.37	-37.3	-38.3	23.0	0.00e+00	0	30	0	489684992	46	6659
2026-01-10 13:02:56.43	55.62	20.44	-37.3	-38.3	22.9	0.00e+00	38	30	0	491782144	46	6636
2026-01-10 13:02:57.44	55.84	20.51	-37.1	-38.1	23.0	0.00e+00	0	30	0	492830720	46	6514
2026-01-10 13:02:58.45	56.06	20.58	-36.9	-37.8	23.3	0.00e+00	48	31	0	494927872	46	6303
2026-01-10 13:02:59.46	56.28	20.64	-36.7	-37.6	23.5	0.00e+00	0	30	0	497025024	46	6166
2026-01-10 13:03:00.47	56.51	20.71	-36.6	-37.5	23.6	0.00e+00	0	31	0	499122176	46	6042
2026-01-10 13:03:01.48	56.73	20.78	-36.7	-37.7	23.5	0.00e+00	0	31	0	500170752	46	6179
2026-01-10 13:03:02.49	56.96	20.84	-37.0	-38.0	23.2	0.00e+00	0	30	0	502267904	46	6394
2026-01-10 13:03:03.50	57.19	20.91	-37.6	-38.7	22.6	0.00e+00	42	31	0	504365056	46	6962
2026-01-10 13:03:04.51	57.42	20.97	-38.1	-39.2	22.2	0.00e+00	0	31	0	506462208	48	6609
2026-01-10 13:03:05.52	57.64	21.04	-38.2	-39.4	22.2	0.00e+00	90	31	0	508559360	48	6702
2026-01-10 13:03:06.53	57.87	21.10	-37.9	-38.9	22.4	0.00e+00	0	30	0	510656512	48	6348
2026-01-10 13:03:07.54	58.11	21.17	-37.5	-38.5	22.7	0.00e+00	0	30	0	511705088	48	6069
2026-01-10 13:03:08.55	58.34	21.23	-37.1	-38.0	23.3	0.00e+00	0	31	0	513802240	48	5735
2026-01-10 13:03:09.56	58.57	21.30	-36.6	-37.5	23.7	0.00e+00	0	30	0	515899392	46	6067
2026-01-10 13:03:10.57	58.80	21.36	-36.5	-37.3	23.7	0.00e+00	47	30	0	517996544	46	5954
2026-01-10 13:03:11.58	59.04	21.42	-36.7	-37.6	23.5	0.00e+00	0	31	0	520093696	46	6147
2026-01-10 13:03:12.59	59.27	21.49	-36.8	-37.7	23.4	0.00e+00	89	31	0	521142272	46	6219
2026-01-10 13:03:13.60	59.51	21.55	-36.5	-37.4	23.7	0.00e+00	0	31	0	523239424	46	6019
2026-01-10 13:03:14.61	59.75	21.61	-36.7	-37.6	23.6	0.00e+00	0	31	0	525336576	46	6119
2026-01-10 13:03:15.62	59.99	21.67	-36.4	-37.3	23.7	0.00e+00	0	30	0	527433728	46	5958
2026-01-10 13:03:16.63	60.23	21.74	-36.5	-37.3	23.4	0.00e+00	0	30	0	529530880	46	5956
2026-01-10 13:03:17.64	60.47	21.80	-36.6	-37.5	23.5	0.00e+00	48	30	0	530579456	46	6039
2026-01-10 13:03:18.66	60.71	21.86	-36.9	-37.8	23.4	0.00e+00	0	30	0	532676608	46	6269
2026-01-10 13:03:19.66	60.95	21.92	-37.0	-37.9	23.3	0.00e+00	92	31	0	534773760	46	6382
2026-01-10 13:03:20.67	61.19	21.98	-37.2	-38.2	23.1	0.00e+00	0	31	0	536870912	46	6554
2026-01-10 13:03:21.68	61.44	22.04	-36.6	-37.5	23.7	0.00e+00	0	31	0	538968064	46	6073
2026-01-10 13:03:22.69	61.68	22.10	-36.6	-37.5	23.7	0.00e+00	0	31	0	540016640	46	6035
2026-01-10 13:03:23.70	61.93	22.16	-36.3	-37.1	24.1	0.00e+00	0	31	0	542113792	46	5814
2026-01-10 13:03:24.71	62.17	22.22	-35.9	-36.7	24.2	0.00e+00	45	31	0	544210944	46	5538
2026-01-10 13:03:25.73	62.42	22.28	-35.9	-36.8	24.2	0.00e+00	0	31	0	546308096	46	5588
2026-01-10 13:03:26.74	62.67	22.33	-36.1	-36.9	24.2	0.00e+00	70	31	0	548405248	46	5677
2026-01-10 13:03:27.75	62.92	22.39	-36.3	-37.2	23.9	0.00e+00	0	30	0	550502400	46	5872
2026-01-10 13:03:28.76	63.17	22.45	-36.4	-37.3	23.6	0.00e+00	1	31	0	551550976	46	5945
2026-01-10 13:03:29.76	63.42	22.51	-36.6	-37.5	23.6	0.00e+00	0	31	0	553648128	46	6092
2026-01-10 13:03:30.77	63.67	22.56	-36.9	-37.8	23.4	0.00e+00	0	31	0	555745280	46	6273
2026-01-10 13:03:31.78	63.93	22.62	-37.4	-38.4	23.0	0.00e+00	0	31	0	557842432	46	6721
2026-01-10 13:03:32.79	64.18	22.67	-37.8	-38.8	22.7	0.00e+00	0	31	0	559939584	46	7011
2026-01-10 13:03:33.80	64.44	22.73	-37.9	-38.9	22.5	0.00e+00	92	31	0	560988160	48	6355
2026-01-10 13:03:34.81	64.69	22.78	-37.6	-38.6	22.8	0.00e+00	33	31	0	563085312	48	6141
2026-01-10 13:03:35.82	64.95	22.84	-37.3	-38.3	23.0	0.00e+00	47	31	0	565182464	48	5913
2026-01-10 13:03:36.83	65.21	22.89	-36.8	-37.7	23.4	0.00e+00	0	31	0	567279616	48	5530
2026-01-10 13:03:37.84	65.46	22.94	-36.7	-37.5	23.7	0.00e+00	0	31	0	569376768	46	6100
2026-01-10 13:03:38.85	65.72	23.00	-36.5	-37.4	23.7	0.00e+00	0	31	0	570425344	46	5991
2026-01-10 13:03:39.86	65.98	23.05	-36.9	-37.8	23.3	0.00e+00	0	31	0	572522496	46	6258
2026-01-10 13:03:40.87	66.25	23.10	-37.5	-38.5	22.9	0.00e+00	41	31	0	574619648	46	6770
2026-01-10 13:03:41.88	66.51	23.15	-37.9	-39.0	22.4	0.00e+00	0	31	0	576716800	48	6413
2026-01-10 13:03:42.89	66.77	23.20	-38.0	-39.1	22.4	0.00e+00	91	31	0	578813952	48	6491
2026-01-10 13:03:43.90	67.03	23.25	-38.1	-39.1	22.3	0.00e+00	0	31	0	579862528	48	6517
2026-01-10 13:03:44.91	67.30	23.30	-38.0	-39.1	22.5	0.00e+00	0	31	0	581959680	48	6466
2026-01-10 13:03:45.92	67.56	23.35	-37.6	-38.6	22.8	0.00e+00	0	31	0	584056832	48	6151
2026-01-10 13:03:46.93	67.83	23.40	-37.6	-38.6	22.6	0.00e+00	0	31	0	586153984	48	6133
2026-01-10 13:03:47.94	68.10	23.45	-37.7	-38.6	22.8	0.00e+00	90	31	0	588251136	48	6173
2026-01-10 13:03:48.95	68.36	23.49	-37.7	-38.7	22.7	0.00e+00	0	31	0	589299712	48	6223
2026-01-10 13:03:49.96	68.63	23.54	-37.9	-38.9	22.5	0.00e+00	92	31	0	591396864	48	6348
2026-01-10 13:03:50.96	68.90	23.59	-37.7	-38.7	22.1	0.00e+00	0	31	0	593494016	48	6234
2026-01-10 13:03:51.97	69.17	23.63	-37.9	-38.9	22.4	0.00e+00	0	31	0	595591168	48	6324
2026-01-10 13:03:52.98	69.44	23.68	-37.9	-38.9	22.6	0.00e+00	0	31	0	597688320	48	6348
2026-01-10 13:03:53.99	69.71	23.72	-38.4	-39.5	21.8	0.00e+00	0	31	0	598736896	48	6823
2026-01-10 13:03:55.00	69.98	23.77	-39.2	-40.4	21.2	0.00e+00	16	31	0	600834048	50	6749
2026-01-10 13:03:56.01	70.26	23.81	-39.9	-41.2	20.6	0.00e+00	0	31	0	602931200	52	6590
2026-01-10 13:03:57.02	70.53	23.85	-40.7	-42.2	19.7	0.00e+00	91	31	0	605028352	52	7380
2026-01-10 13:03:58.03	70.80	23.90	-40.9	-42.4	19.4	0.00e+00	0	31	0	607125504	54	6753
2026-01-10 13:03:59.04	71.08	23.94	-40.4	-41.8	20.2	0.00e+00	0	31	0	608174080	54	6274
2026-01-10 13:04:00.05	71.36	23.98	-39.7	-41.0	20.8	0.00e+00	0	31	0	610271232	54	5710
2026-01-10 13:04:01.04	71.63	24.02	-39.2	-40.4	21.3	0.00e+00	0	31	0	612368384	52	5999
2026-01-10 13:04:02.05	71.90	24.06	-39.1	-40.3	21.5	0.00e+00	17	31	0	614465536	52	5920
2026-01-10 13:04:03.06	72.18	24.10	-39.4	-40.6	21.1	0.00e+00	0	31	0	616562688	52	6143
2026-01-10 13:04:04.07	72.46	24.14	-39.4	-40.6	21.1	0.00e+00	16	31	0	617611264	52	6134
2026-01-10 13:04:05.08	72.74	24.17	-39.4	-40.6	21.2	0.00e+00	0	31	0	619708416	52	6107
2026-01-10 13:04:06.09	73.02	24.21	-39.2	-40.4	21.2	0.00e+00	92	31	0	621805568	52	5992
2026-01-10 13:04:07.10	73.30	24.25	-39.1	-40.2	21.4	0.00e+00	0	31	0	623902720	52	5880
2026-01-10 13:04:08.11	73.58	24.28	-38.7	-39.8	21.7	0.00e+00	0	31	0	625999872	50	6315
2026-01-10 13:04:09.12	73.86	24.32	-38.5	-39.5	21.9	0.00e+00	46	31	0	627048448	50	6102
2026-01-10 13:04:10.13	74.15	24.35	-38.7	-39.8	21.7	0.00e+00	0	31	0	629145600	50	6302
2026-01-10 13:04:11.14	74.43	24.39	-38.8	-39.9	21.6	0.00e+00	53	31	0	631242752	50	6354
2026-01-10 13:04:12.14	74.71	24.42	-39.1	-40.3	21.2	0.00e+00	0	31	0	633339904	50	6648
2026-01-10 13:04:13.15	75.00	24.45	-39.4	-40.6	21.1	0.00e+00	92	31	0	635437056	50	6920
2026-01-10 13:04:14.16	75.28	24.49	-39.7	-41.0	20.6	0.00e+00	0	31	0	636485632	50	7237
2026-01-10 13:04:15.17	75.57	24.52	-39.9	-41.3	20.5	0.00e+00	32	31	0	638582784	52	6654
2026-01-10 13:04:16.18	75.85	24.55	-39.4	-40.7	20.9	0.00e+00	0	31	0	640679936	52	6231
2026-01-10 13:04:17.19	76.14	24.58	-39.1	-40.3	21.3	0.00e+00	0	31	0	642777088	52	5961
2026-01-10 13:04:18.20	76.43	24.61	-38.8	-39.9	21.7	0.00e+00	44	31	0	644874240	52	5647
2026-01-10 13:04:19.21	76.71	24.63	-38.1	-39.1	22.5	0.00e+00	0	31	0	646971392	50	5777
2026-01-10 13:04:20.22	77.00	24.66	-37.7	-38.7	22.6	0.00e+00	77	31	0	648019968	48	6216
2026-01-10 13:04:21.23	77.29	24.69	-37.6	-38.5	22.8	0.00e+00	0	31	0	650117120	48	6088
2026-01-10 13:04:22.24	77.58	24.72	-37.1	-38.0	23.2	0.00e+00	0	31	0	652214272	48	5720
2026-01-10 13:04:23.25	77.87	24.74	-36.8	-37.6	23.5	0.00e+00	0	31	0	654311424	48	5495
2026-01-10 13:04:24.26	78.16	24.77	-36.5	-37.4	23.6	0.00e+00	0	31	0	656408576	46	5986
2026-01-10 13:04:25.27	78.45	24.79	-36.4	-37.3	23.7	0.00e+00	44	31	0	657457152	46	5925
2026-01-10 13:04:26.28	78.74	24.81	-36.9	-37.8	23.3	0.00e+00	0	31	0	659554304	46	6285
2026-01-10 13:04:27.29	79.03	24.84	-37.8	-38.8	22.5	0.00e+00	91	31	0	661651456	46	7045
2026-01-10 13:04:28.30	79.32	24.86	-38.0	-39.2	20.8	0.00e+00	0	31	0	663748608	48	6586
2026-01-10 13:04:29.31	79.62	24.88	-37.3	-39.0	18.2	0.00e+00	0	31	0	665845760	48	6464
2026-01-10 13:04:30.32	79.91	24.90	-37.5	-38.7	20.7	0.00e+00	0	31	0	666894336	48	6239
2026-01-10 13:04:31.33	80.20	24.92	-37.2	-38.2	22.9	0.00e+00	0	31	0	668991488	48	5846
2026-01-10 13:04:32.34	80.50	24.94	-37.0	-37.9	23.2	0.00e+00	35	31	0	671088640	48	5692
2026-01-10 13:04:33.35	80.79	24.96	-37.2	-38.1	23.1	0.00e+00	0	31	0	673185792	48	5820
2026-01-10 13:04:34.36	81.08	24.97	-37.6	-38.6	22.6	0.00e+00	80	31	0	675282944	48	6121
2026-01-10 13:04:35.37	81.38	24.99	-38.0	-39.1	22.4	0.00e+00	0	31	0	676331520	48	6470
2026-01-10 13:04:36.38	81.67	25.01	-38.1	-39.1	22.2	0.00e+00	79	31	0	678428672	48	6495
2026-01-10 13:04:37.39	81.97	25.02	-37.7	-38.7	22.6	0.00e+00	0	31	0	680525824	48	6203
2026-01-10 13:04:38.40	82.26	25.03	-37.4	-38.3	22.8	0.00e+00	0	31	0	682622976	48	5949
2026-01-10 13:04:39.41	82.56	25.05	-37.4	-38.4	22.8	0.00e+00	39	31	0	684720128	48	5996
2026-01-10 13:04:40.42	82.85	25.06	-37.7	-38.7	22.6	0.00e+00	0	31	0	685768704	48	6244
2026-01-10 13:04:41.43	83.15	25.07	-37.8	-38.8	22.5	0.00e+00	59	31	0	687865856	48	6288
2026-01-10 13:04:42.43	83.44	25.08	-37.4	-38.4	22.8	0.00e+00	0	31	0	689963008	48	5995
2026-01-10 13:04:43.44	83.74	25.09	-37.5	-38.4	22.8	0.00e+00	27	31	0	692060160	48	6028
2026-01-10 13:04:44.45	84.04	25.10	-36.3	-37.2	23.9	0.00e+00	0	31	0	694157312	46	5848
2026-01-10 13:04:45.46	84.33	25.11	-35.9	-36.7	24.2	0.00e+00	0	31	0	695205888	46	5535
2026-01-10 13:04:46.47	84.63	25.12	-35.8	-36.7	24.2	0.00e+00	0	31	0	697303040	44	6188
2026-01-10 13:04:47.48	84.93	25.13	-36.1	-36.9	24.0	0.00e+00	0	31	0	699400192	44	6376
2026-01-10 13:04:48.49	85.22	25.13	-36.6	-37.6	23.5	0.00e+00	38	31	0	701497344	44	6852
2026-01-10 13:04:49.50	85.52	25.14	-36.8	-37.7	23.4	0.00e+00	0	31	0	703594496	46	6237
2026-01-10 13:04:50.51	85.82	25.14	-36.8	-37.7	23.3	0.00e+00	92	31	0	704643072	46	6224
2026-01-10 13:04:51.52	86.12	25.15	-36.5	-37.4	23.7	0.00e+00	0	31	0	706740224	46	5976
2026-01-10 13:04:52.53	86.41	25.15	-36.4	-37.2	23.7	0.00e+00	0	31	0	708837376	46	5896
2026-01-10 13:04:53.54	86.71	25.15	-36.5	-37.4	23.6	0.00e+00	0	31	0	710934528	46	6003
2026-01-10 13:04:54.55	87.01	25.15	-36.4	-37.3	23.7	0.00e+00	0	31	0	713031680	46	5900
2026-01-10 13:04:55.56	87.31	25.16	-36.5	-37.4	23.6	0.00e+00	71	31	0	714080256	46	6001
2026-01-10 13:04:56.57	87.60	25.16	-36.6	-37.5	23.5	0.00e+00	0	31	0	716177408	46	6078
2026-01-10 13:04:57.58	87.90	25.15	-37.0	-37.9	23.2	0.00e+00	84	31	0	718274560	46	6366
2026-01-10 13:04:58.59	88.20	25.15	-37.1	-38.0	23.2	0.00e+00	0	31	0	720371712	46	6415
2026-01-10 13:04:59.60	88.50	25.15	-37.3	-38.2	23.0	0.00e+00	0	31	0	722468864	46	6614
2026-01-10 13:05:00.61	88.80	25.15	-37.5	-38.4	22.8	0.00e+00	0	31	0	724566016	46	6767
2026-01-10 13:05:01.62	89.09	25.14	-37.8	-38.9	22.5	0.00e+00	0	31	0	725614592	48	6319
2026-01-10 13:05:02.63	89.39	25.14	-38.0	-39.0	22.4	0.00e+00	16	31	0	727711744	48	6438
2026-01-10 13:05:03.63	89.68	25.13	-37.8	-38.8	22.6	0.00e+00	0	31	0	729808896	48	6292
2026-01-10 13:05:04.64	89.98	25.13	-37.5	-38.5	22.9	0.00e+00	90	31	0	731906048	48	6069
2026-01-10 13:05:05.65	90.28	25.12	-37.2	-38.2	23.0	0.00e+00	0	31	0	734003200	48	5848
2026-01-10 13:05:06.66	90.58	25.11	-37.3	-38.2	23.0	0.00e+00	0	31	0	735051776	48	5874
2026-01-10 13:05:07.67	90.87	25.10	-37.1	-38.0	23.1	0.00e+00	0	31	0	737148928	48	5731
2026-01-10 13:05:08.68	91.17	25.09	-36.9	-37.8	23.3	0.00e+00	0	31	0	739246080	48	5572
2026-01-10 13:05:09.69	91.47	25.08	-36.6	-37.5	23.5	0.00e+00	43	31	0	741343232	46	6070
2026-01-10 13:05:10.70	91.76	25.07	-36.5	-37.4	23.5	0.00e+00	0	31	0	743440384	46	6012
2026-01-10 13:05:11.71	92.06	25.06	-36.6	-37.5	23.4	0.00e+00	82	31	0	744488960	46	6065
2026-01-10 13:05:12.72	92.35	25.05	-36.9	-37.8	23.2	0.00e+00	0	31	0	746586112	46	6283
2026-01-10 13:05:13.73	92.65	25.03	-37.0	-37.9	23.2	0.00e+00	82	31	0	748683264	46	6378
2026-01-10 13:05:14.74	92.95	25.02	-36.9	-37.9	23.2	0.00e+00	0	31	0	750780416	46	6323
2026-01-10 13:05:15.75	93.24	25.00	-36.7	-37.6	23.4	0.00e+00	0	31	0	752877568	46	6152
2026-01-10 13:05:16.75	93.53	24.99	-36.6	-37.5	23.5	0.00e+00	40	31	0	753926144	46	6085
2026-01-10 13:05:17.76	93.83	24.97	-36.8	-37.7	23.4	0.00e+00	0	31	0	756023296	46	6224
2026-01-10 13:05:18.77	94.12	24.95	-36.8	-37.7	23.4	0.00e+00	42	31	0	758120448	46	6206
2026-01-10 13:05:19.78	94.41	24.93	-36.7	-37.6	23.7	0.00e+00	0	31	0	760217600	46	6147
2026-01-10 13:05:20.79	94.71	24.92	-36.2	-37.1	23.9	0.00e+00	62	31	0	762314752	46	5825
2026-01-10 13:05:21.80	95.00	24.90	-36.0	-36.8	24.0	0.00e+00	0	31	0	763363328	46	5620
2026-01-10 13:05:22.81	95.29	24.88	-35.6	-36.5	24.3	0.00e+00	0	31	0	765460480	44	6045
2026-01-10 13:05:23.82	95.59	24.85	-35.7	-36.5	24.3	0.00e+00	0	31	0	767557632	44	6053
2026-01-10 13:05:24.83	95.88	24.83	-35.8	-36.7	24.3	0.00e+00	0	31	0	769654784	44	6177
2026-01-10 13:05:25.84	96.17	24.81	-35.6	-36.4	24.2	0.00e+00	91	31	0	771751936	44	6032
2026-01-10 13:05:26.85	96.46	24.79	-35.7	-36.5	24.3	0.00e+00	0	31	0	772800512	44	6058
2026-01-10 13:05:27.86	96.75	24.76	-35.6	-36.4	24.4	0.00e+00	91	31	0	774897664	44	5984
2026-01-10 13:05:28.87	97.04	24.74	-35.7	-36.6	24.0	0.00e+00	0	31	0	776994816	44	6107
2026-01-10 13:05:29.88	97.33	24.71	-35.9	-36.8	24.0	0.00e+00	0	31	0	779091968	44	6249
2026-01-10 13:05:30.89	97.62	24.68	-36.1	-36.9	23.9	0.00e+00	0	31	0	781189120	44	6383
2026-01-10 13:05:31.90	97.91	24.66	-36.1	-37.0	23.8	0.00e+00	0	31	0	782237696	44	6409
2026-01-10 13:05:32.91	98.20	24.63	-36.0	-36.8	24.0	0.00e+00	43	31	0	784334848	44	6311
2026-01-10 13:05:33.92	98.49	24.60	-35.9	-36.7	24.0	0.00e+00	0	31	0	786432000	44	6219
2026-01-10 13:05:34.93	98.78	24.57	-35.9	-36.8	24.2	0.00e+00	53	31	0	788529152	44	6260
2026-01-10 13:05:35.94	99.06	24.54	-36.0	-36.8	24.0	0.00e+00	0	31	0	790626304	44	6306
2026-01-10 13:05:36.95	99.35	24.51	-35.8	-36.7	24.1	0.00e+00	0	31	0	792723456	44	6200
2026-01-10 13:05:37.96	99.64	24.48	-35.5	-36.3	24.5	0.00e+00	0	31	0	793772032	44	5919
2026-01-10 13:05:38.97	99.92	24.45	-35.3	-36.1	24.1	0.00e+00	0	31	0	795869184	44	5775
2026-01-10 13:05:39.98	100.21	24.41	-35.2	-36.1	24.6	0.00e+00	46	31	0	797966336	44	5762
2026-01-10 13:05:40.99	100.49	24.38	-35.4	-36.3	24.4	0.00e+00	0	31	0	800063488	44	5898
2026-01-10 13:05:42.00	100.77	24.35	-35.5	-36.3	24.3	0.00e+00	92	31	0	802160640	44	5959
2026-01-10 13:05:43.01	101.06	24.31	-35.4	-36.2	24.5	0.00e+00	0	31	0	803209216	44	5858
2026-01-10 13:05:44.02	101.34	24.28	-35.2	-36.0	24.5	0.00e+00	3	31	0	805306368	44	5749
2026-01-10 13:05:45.03	101.62	24.24	-35.2	-36.0	24.6	0.00e+00	0	31	0	807403520	44	5726
2026-01-10 13:05:46.04	101.90	24.20	-34.8	-35.6	25.0	0.00e+00	0	31	0	809500672	44	5456
2026-01-10 13:05:47.04	102.18	24.17	-34.5	-35.3	25.1	0.00e+00	63	31	0	811597824	42	5927
2026-01-10 13:05:48.06	102.46	24.13	-34.6	-35.4	25.1	0.00e+00	0	31	0	812646400	42	5992
2026-01-10 13:05:49.07	102.74	24.09	-34.5	-35.2	25.0	0.00e+00	20	31	0	814743552	42	5872
2026-01-10 13:05:50.08	103.02	24.05	-34.8	-35.5	25.0	0.00e+00	0	31	0	816840704	42	6091
2026-01-10 13:05:51.08	103.30	24.01	-34.9	-35.8	24.7	0.00e+00	65	31	0	818937856	42	6249
2026-01-10 13:05:52.09	103.57	23.97	-35.1	-35.9	24.6	0.00e+00	29	31	0	821035008	42	6369
2026-01-10 13:05:53.10	103.85	23.93	-34.9	-35.7	24.9	0.00e+00	0	30	0	822083584	42	6203
2026-01-10 13:05:54.11	104.12	23.88	-34.7	-35.5	24.9	0.00e+00	41	31	0	824180736	42	6083
2026-01-10 13:05:55.12	104.40	23.84	-34.6	-35.4	25.1	0.00e+00	0	30	0	826277888	42	5968
2026-01-10 13:05:56.13	104.67	23.80	-34.0	-34.8	25.3	0.00e+00	43	31	0	828375040	42	5595
2026-01-10 13:05:57.14	104.95	23.75	-34.2	-35.0	25.4	0.00e+00	0	30	0	830472192	42	5719
2026-01-10 13:05:58.15	105.22	23.71	-34.6	-35.4	25.0	0.00e+00	92	31	0	831520768	42	5968
2026-01-10 13:05:59.16	105.49	23.67	-34.9	-35.8	24.8	0.00e+00	28	30	0	833617920	42	6248
2026-01-10 13:06:00.17	105.76	23.62	-34.6	-35.4	24.9	0.00e+00	0	31	0	835715072	42	6007
2026-01-10 13:06:01.18	106.03	23.57	-34.8	-35.6	24.8	0.00e+00	0	31	0	837812224	42	6155
2026-01-10 13:06:02.19	106.30	23.53	-34.7	-35.5	25.1	0.00e+00	0	30	0	839909376	42	6084
2026-01-10 13:06:03.20	106.57	23.48	-34.3	-35.0	25.2	0.00e+00	43	30	0	840957952	42	5751
2026-01-10 13:06:04.21	106.84	23.43	-34.3	-35.0	25.5	0.00e+00	0	31	0	843055104	42	5735
2026-01-10 13:06:05.21	107.11	23.38	-34.0	-34.7	25.4	0.00e+00	87	31	0	845152256	42	5535
2026-01-10 13:06:06.23	107.37	23.34	-34.2	-34.9	25.4	0.00e+00	0	31	0	847249408	42	5676
2026-01-10 13:06:07.24	107.64	23.29	-34.7	-35.4	25.0	0.00e+00	0	31	0	849346560	42	6033
2026-01-10 13:06:08.24	107.90	23.24	-35.1	-35.9	24.7	0.00e+00	0	31	0	850395136	42	6337
2026-01-10 13:06:09.25	108.17	23.19	-35.3	-36.1	24.7	0.00e+00	0	30	0	852492288	42	6491
2026-01-10 13:06:10.26	108.43	23.13	-34.8	-35.6	25.0	0.00e+00	45	31	0	854589440	42	6136
2026-01-10 13:06:11.27	108.69	23.08	-34.6	-35.3	25.2	0.00e+00	0	30	0	856686592	42	5955
2026-01-10 13:06:12.29	108.96	23.03	-34.3	-35.0	25.3	0.00e+00	90	30	0	858783744	42	5733
2026-01-10 13:06:13.29	109.21	22.98	-34.2	-34.9	25.4	0.00e+00	0	30	0	860880896	42	5692
2026-01-10 13:06:14.30	109.47	22.93	-34.4	-35.1	25.2	0.00e+00	0	30	0	861929472	42	5804
2026-01-10 13:06:15.32	109.74	22.87	-34.5	-35.3	25.2	0.00e+00	0	30	0	864026624	42	5924
2026-01-10 13:06:16.32	109.99	22.82	-34.6	-35.4	25.1	0.00e+00	0	30	0	866123776	42	5972
2026-01-10 13:06:17.33	110.25	22.76	-34.7	-35.5	25.0	0.00e+00	43	30	0	868220928	42	6073
2026-01-10 13:06:18.34	110.50	22.71	-34.5	-35.2	25.1	0.00e+00	0	30	0	870318080	42	5892
2026-01-10 13:06:19.35	110.76	22.65	-34.6	-35.4	24.9	0.00e+00	90	30	0	871366656	42	6006
2026-01-10 13:06:20.36	111.01	22.60	-34.6	-35.3	25.0	0.00e+00	0	30	0	873463808	42	5949
2026-01-10 13:06:21.37	111.27	22.54	-34.7	-35.5	24.4	0.00e+00	29	30	0	875560960	42	6069
2026-01-10 13:06:22.38	111.52	22.48	-35.0	-35.8	24.5	0.00e+00	0	30	0	877658112	42	6314
2026-01-10 13:06:23.39	111.77	22.43	-35.1	-35.9	24.6	0.00e+00	0	30	0	879755264	42	6334
2026-01-10 13:06:24.40	112.02	22.37	-35.3	-36.1	24.5	0.00e+00	0	30	0	880803840	42	6539
2026-01-10 13:06:25.41	112.27	22.31	-35.1	-35.9	24.6	0.00e+00	0	30	0	882900992	42	6345
2026-01-10 13:06:26.42	112.52	22.25	-35.3	-36.1	24.6	0.00e+00	92	30	0	884998144	42	6492
2026-01-10 13:06:27.42	112.77	22.20	-35.1	-35.9	24.6	0.00e+00	0	30	0	887095296	42	6387
2026-01-10 13:06:28.43	113.02	22.14	-35.3	-36.1	24.5	0.00e+00	90	30	0	889192448	42	6528
2026-01-10 13:06:29.44	113.26	22.08	-35.4	-36.2	24.5	0.00e+00	0	30	0	890241024	42	6578
2026-01-10 13:06:30.45	113.51	22.02	-35.6	-36.5	24.3	0.00e+00	0	30	0	892338176	42	6800
2026-01-10 13:06:31.46	113.75	21.96	-35.7	-36.6	24.2	0.00e+00	8	30	0	894435328	44	6121
2026-01-10 13:06:32.47	114.00	21.90	-35.6	-36.5	24.2	0.00e+00	0	30	0	896532480	44	6074
2026-01-10 13:06:33.48	114.24	21.83	-35.6	-36.5	24.3	0.00e+00	91	30	0	898629632	44	6082
2026-01-10 13:06:34.49	114.48	21.77	-35.5	-36.4	24.2	0.00e+00	0	30	0	899678208	44	5967
2026-01-10 13:06:35.50	114.72	21.71	-35.2	-36.0	24.5	0.00e+00	92	30	0	901775360	44	5732
2026-01-10 13:06:36.51	114.96	21.65	-35.4	-36.2	23.9	0.00e+00	0	30	0	903872512	44	5847
2026-01-10 13:06:37.53	115.20	21.59	-35.4	-36.3	24.3	0.00e+00	0	30	0	905969664	44	5906
2026-01-10 13:06:38.54	115.44	21.52	-35.3	-36.2	24.4	0.00e+00	0	30	0	908066816	44	5835
2026-01-10 13:06:39.54	115.68	21.46	-35.9	-36.8	24.0	0.00e+00	0	30	0	909115392	44	6268
2026-01-10 13:06:40.55	115.91	21.40	-36.3	-37.3	23.6	0.00e+00	92	30	0	911212544	44	6620
2026-01-10 13:06:41.57	116.15	21.33	-36.7	-37.7	23.4	0.00e+00	0	30	0	913309696	46	6199
2026-01-10 13:06:42.57	116.38	21.27	-36.9	-37.9	23.3	0.00e+00	92	30	0	915406848	46	6330
2026-01-10 13:06:43.58	116.62	21.20	-36.7	-37.7	23.4	0.00e+00	0	30	0	917504000	46	6200
2026-01-10 13:06:44.59	116.85	21.14	-35.9	-36.7	24.1	0.00e+00	0	30	0	918552576	46	5559
2026-01-10 13:06:45.60	117.08	21.07	-35.5	-36.3	24.4	0.00e+00	0	30	0	920649728	44	5933
2026-01-10 13:06:46.61	117.31	21.01	-34.9	-35.7	24.8	0.00e+00	0	30	0	922746880	44	5564
2026-01-10 13:06:47.62	117.54	20.94	-34.6	-35.4	24.9	0.00e+00	41	30	0	924844032	42	6024
2026-01-10 13:06:48.63	117.77	20.88	-34.7	-35.5	24.9	0.00e+00	0	30	0	926941184	42	6041
2026-01-10 13:06:49.64	118.00	20.81	-35.1	-35.9	24.7	0.00e+00	91	30	0	929038336	42	6342
2026-01-10 13:06:50.65	118.22	20.74	-35.3	-36.1	24.5	0.00e+00	0	30	0	930086912	42	6529
2026-01-10 13:06:51.66	118.45	20.68	-35.7	-36.6	24.0	0.00e+00	0	30	0	932184064	44	6127
2026-01-10 13:06:52.67	118.67	20.61	-36.1	-37.0	23.8	0.00e+00	0	30	0	934281216	44	6411
2026-01-10 13:06:53.68	118.90	20.54	-36.4	-37.3	23.6	0.00e+00	0	30	0	936378368	44	6632
2026-01-10 13:06:54.69	119.12	20.48	-36.4	-37.3	23.6	0.00e+00	17	30	0	938475520	44	6674
2026-01-10 13:06:55.70	119.34	20.41	-36.6	-37.5	23.5	0.00e+00	0	30	0	939524096	44	6800
2026-01-10 13:06:56.70	119.56	20.34	-36.5	-37.4	23.6	0.00e+00	92	30	0	941621248	44	6726
2026-01-10 13:06:57.71	119.78	20.27	-36.5	-37.4	23.5	0.00e+00	0	30	0	943718400	44	6743
2026-01-10 13:06:58.72	120.00	20.20	-36.5	-37.4	23.5	0.00e+00	87	30	0	945815552	44	6707
2026-01-10 13:06:59.73	120.22	20.13	-36.5	-37.4	23.6	0.00e+00	0	30	0	947912704	44	6739
2026-01-10 13:07:00.74	120.43	20.07	-36.4	-37.3	23.7	0.00e+00	0	30	0	948961280	44	6661
2026-01-10 13:07:01.75	120.65	20.00	-36.1	-37.0	23.8	0.00e+00	36	30	0	951058432	44	6439
2026-01-10 13:07:02.76	120.87	19.93	-36.1	-37.0	23.7	0.00e+00	0	30	0	953155584	44	6452
2026-01-10 13:07:03.77	121.08	19.86	-36.2	-37.1	23.7	0.00e+00	39	30	0	955252736	44	6534
2026-01-10 13:07:04.78	121.29	19.79	-36.4	-37.3	23.6	0.00e+00	0	30	0	957349888	44	6627
2026-01-10 13:07:05.79	121.51	19.72	-36.8	-37.7	23.3	0.00e+00	92	30	0	958398464	46	6216
2026-01-10 13:07:06.80	121.72	19.65	-37.0	-38.0	23.1	0.00e+00	0	30	0	960495616	46	6408
2026-01-10 13:07:07.80	121.93	19.58	-37.5	-38.6	22.7	0.00e+00	0	30	0	962592768	46	6850
2026-01-10 13:07:08.82	122.14	19.51	-37.3	-38.3	22.8	0.00e+00	42	30	0	964689920	46	6681
2026-01-10 13:07:09.82	122.34	19.44	-36.9	-37.8	23.2	0.00e+00	0	30	0	966787072	46	6306
2026-01-10 13:07:10.84	122.55	19.37	-36.6	-37.5	23.5	0.00e+00	92	30	0	967835648	46	6076
2026-01-10 13:07:11.85	122.76	19.29	-36.2	-37.1	23.7	0.00e+00	0	30	0	969932800	46	5791
2026-01-10 13:07:12.86	122.97	19.22	-35.7	-36.5	24.2	0.00e+00	91	30	0	972029952	44	6080
2026-01-10 13:07:13.87	123.17	19.15	-35.2	-36.0	24.4	0.00e+00	0	30	0	974127104	44	5733
2026-01-10 13:07:14.88	123.38	19.08	-35.5	-36.3	24.2	0.00e+00	0	30	0	976224256	44	5963
2026-01-10 13:07:15.89	123.58	19.01	-36.0	-36.9	23.8	0.00e+00	0	30	0	977272832	44	6320
2026-01-10 13:07:16.90	123.78	18.94	-36.4	-37.3	23.4	0.00e+00	0	30	0	979369984	44	6668
2026-01-10 13:07:17.90	123.98	18.87	-37.0	-38.0	23.0	0.00e+00	40	30	0	981467136	46	6400
2026-01-10 13:07:18.91	124.18	18.79	-37.1	-38.1	23.1	0.00e+00	0	30	0	983564288	46	6504
2026-01-10 13:07:19.93	124.38	18.72	-37.2	-38.2	22.9	0.00e+00	91	30	0	985661440	46	6562
2026-01-10 13:07:20.93	124.58	18.65	-36.6	-37.5	23.4	0.00e+00	0	30	0	986710016	46	6046
2026-01-10 13:07:21.94	124.78	18.58	-36.4	-37.3	23.6	0.00e+00	0	30	0	988807168	46	5916
2026-01-10 13:07:22.95	124.97	18.50	-36.4	-37.2	23.6	0.00e+00	0	30	0	990904320	46	5884
2026-01-10 13:07:23.96	125.17	18.43	-36.5	-37.4	23.7	0.00e+00	0	30	0	993001472	46	5971
2026-01-10 13:07:24.97	125.36	18.36	-36.6	-37.6	23.4	0.00e+00	43	30	0	995098624	46	6108
2026-01-10 13:07:25.98	125.56	18.29	-36.9	-37.8	23.2	0.00e+00	0	30	0	996147200	46	6304
2026-01-10 13:07:26.99	125.75	18.21	-36.9	-37.9	23.1	0.00e+00	31	30	0	998244352	46	6351
2026-01-10 13:07:28.00	125.94	18.14	-36.9	-37.8	23.3	0.00e+00	0	30	0	1000341504	46	6298
2026-01-10 13:07:29.01	126.13	18.07	-36.6	-37.5	23.3	0.00e+00	0	30	0	1002438656	46	6077
2026-01-10 13:07:30.02	126.32	17.99	-36.4	-37.3	23.7	0.00e+00	0	30	0	1004535808	46	5935
2026-01-10 13:07:31.03	126.51	17.92	-36.0	-36.9	23.9	0.00e+00	0	30	0	1005584384	46	5641
2026-01-10 13:07:32.04	126.70	17.85	-35.8	-36.7	24.0	0.00e+00	8	30	0	1007681536	46	5526
2026-01-10 13:07:33.05	126.89	17.77	-35.9	-36.8	23.9	0.00e+00	0	30	0	1009778688	46	5574
2026-01-10 13:07:34.05	127.07	17.70	-36.3	-37.1	23.7	0.00e+00	92	30	0	1011875840	46	5824
2026-01-10 13:07:35.07	127.26	17.63	-36.4	-37.3	23.6	0.00e+00	0	30	0	1013972992	46	5900
2026-01-10 13:07:36.08	127.45	17.55	-36.5	-37.4	23.5	0.00e+00	65	30	0	1015021568	46	6003
2026-01-10 13:07:37.09	127.63	17.48	-36.6	-37.5	23.4	0.00e+00	0	30	0	1017118720	46	6072
2026-01-10 13:07:38.10	127.81	17.41	-36.3	-37.2	23.6	0.00e+00	0	30	0	1019215872	46	5863
2026-01-10 13:07:39.11	128.00	17.33	-36.0	-36.9	23.9	0.00e+00	37	30	0	1021313024	46	5640
2026-01-10 13:07:40.12	128.18	17.26	-36.0	-36.8	24.0	0.00e+00	0	30	0	1023410176	46	5618
2026-01-10 13:07:41.12	128.36	17.18	-35.7	-36.6	24.0	0.00e+00	92	30	0	1025507328	44	6111
2026-01-10 13:07:42.13	128.54	17.11	-35.5	-36.4	24.2	0.00e+00	0	29	0	1026555904	44	5965
2026-01-10 13:07:43.15	128.72	17.04	-35.9	-36.8	23.8	0.00e+00	90	30	0	1028653056	44	6265
2026-01-10 13:07:44.15	128.89	16.96	-36.4	-37.3	23.6	0.00e+00	0	30	0	1030750208	44	6632
2026-01-10 13:07:45.16	129.07	16.89	-36.7	-37.6	23.2	0.00e+00	0	30	0	1032847360	44	6905
2026-01-10 13:07:46.17	129.25	16.81	-37.1	-38.1	22.8	0.00e+00	0	30	0	1034944512	46	6507
2026-01-10 13:07:47.19	129.42	16.74	-37.0	-37.9	23.0	0.00e+00	0	30	0	1035993088	46	6389
2026-01-10 13:07:48.20	129.60	16.66	-36.8	-37.8	23.2	0.00e+00	92	29	0	1038090240	46	6269
2026-01-10 13:07:49.21	129.77	16.59	-36.4	-37.3	23.5	0.00e+00	0	29	0	1040187392	46	5960
2026-01-10 13:07:50.22	129.95	16.52	-36.0	-36.9	23.8	0.00e+00	91	29	0	1042284544	46	5662
2026-01-10 13:07:51.23	130.12	16.44	-36.0	-36.8	23.8	0.00e+00	0	29	0	1044381696	46	5616
2026-01-10 13:07:52.24	130.29	16.37	-35.8	-36.6	24.0	0.00e+00	0	29	0	1045430272	46	5479
2026-01-10 13:07:53.25	130.46	16.29	-36.0	-36.9	23.9	0.00e+00	0	30	0	1047527424	46	5644
2026-01-10 13:07:54.26	130.63	16.22	-36.3	-37.2	23.7	0.00e+00	0	29	0	1049624576	46	5839
2026-01-10 13:07:55.27	130.80	16.15	-36.4	-37.3	23.6	0.00e+00	79	29	0	1051721728	46	5936
2026-01-10 13:07:56.28	130.97	16.07	-36.2	-37.1	23.7	0.00e+00	0	30	0	1053818880	46	5816
2026-01-10 13:07:57.29	131.13	16.00	-36.3	-37.2	23.5	0.00e+00	92	30	0	1054867456	46	5872
2026-01-10 13:07:58.30	131.30	15.92	-35.9	-36.8	24.0	0.00e+00	0	29	0	1056964608	46	5585
2026-01-10 13:07:59.31	131.47	15.85	-35.9	-36.7	24.0	0.00e+00	0	29	0	1059061760	46	5544
2026-01-10 13:08:00.32	131.63	15.77	-35.9	-36.8	23.9	0.00e+00	0	30	0	1061158912	46	5575
2026-01-10 13:08:01.33	131.80	15.70	-35.9	-36.7	24.0	0.00e+00	0	29	0	1063256064	46	5549
2026-01-10 13:08:02.34	131.96	15.62	-36.1	-37.0	23.8	0.00e+00	41	29	0	1065353216	46	5719
2026-01-10 13:08:03.35	132.12	15.55	-36.5	-37.4	23.5	0.00e+00	0	30	0	1066401792	46	6023
2026-01-10 13:08:04.36	132.28	15.48	-37.1	-38.1	23.0	0.00e+00	91	29	0	1068498944	46	6483
2026-01-10 13:08:05.37	132.44	15.40	-37.5	-38.5	22.6	0.00e+00	0	29	0	1070596096	46	6817
2026-01-10 13:08:06.38	132.61	15.33	-37.8	-38.8	22.4	0.00e+00	18	29	0	1072693248	48	6297
2026-01-10 13:08:07.39	132.76	15.25	-38.0	-39.1	22.2	0.00e+00	0	29	0	1074790400	48	6494
2026-01-10 13:08:08.40	132.92	15.18	-38.1	-39.1	22.1	0.00e+00	0	29	0	1075838976	48	6533
2026-01-10 13:08:09.41	133.08	15.11	-37.9	-38.9	22.3	0.00e+00	16	29	0	1077936128	48	6364
2026-01-10 13:08:10.42	133.24	15.03	-37.6	-38.6	22.4	0.00e+00	0	29	0	1080033280	48	6157
2026-01-10 13:08:11.43	133.40	14.96	-37.4	-38.4	22.6	0.00e+00	90	29	0	1082130432	48	6012
2026-01-10 13:08:12.44	133.55	14.88	-37.2	-38.2	22.8	0.00e+00	0	29	0	1084227584	48	5876
2026-01-10 13:08:13.45	133.71	14.81	-37.0	-38.0	23.0	0.00e+00	0	29	0	1085276160	48	5727
2026-01-10 13:08:14.46	133.86	14.73	-36.6	-37.5	23.4	0.00e+00	0	29	0	1087373312	46	6058
2026-01-10 13:08:15.47	134.01	14.66	-36.5	-37.4	23.4	0.00e+00	0	29	0	1089470464	46	6021
2026-01-10 13:08:16.48	134.17	14.59	-36.2	-37.0	23.7	0.00e+00	24	29	0	1091567616	46	5760
2026-01-10 13:08:17.49	134.32	14.51	-36.0	-36.9	23.8	0.00e+00	0	29	0	1093664768	46	5654
2026-01-10 13:08:18.50	134.47	14.44	-36.1	-37.0	23.7	0.00e+00	84	29	0	1094713344	46	5699
2026-01-10 13:08:19.51	134.62	14.37	-35.8	-36.6	24.0	0.00e+00	0	29	0	1096810496	46	5500
2026-01-10 13:08:20.52	134.77	14.29	-35.8	-36.7	24.0	0.00e+00	90	29	0	1098907648	44	6195
2026-01-10 13:08:21.53	134.92	14.22	-35.6	-36.4	24.1	0.00e+00	0	29	0	1101004800	44	6026
2026-01-10 13:08:22.54	135.07	14.14	-35.6	-36.5	24.1	0.00e+00	0	29	0	1103101952	44	6052
2026-01-10 13:08:23.55	135.21	14.07	-35.7	-36.6	24.1	0.00e+00	0	29	0	1104150528	44	6112
2026-01-10 13:08:24.56	135.36	14.00	-35.8	-36.6	23.9	0.00e+00	0	29	0	1106247680	44	6152
2026-01-10 13:08:25.57	135.51	13.92	-36.0	-36.9	23.8	0.00e+00	92	29	0	1108344832	44	6362
2026-01-10 13:08:26.58	135.65	13.85	-36.2	-37.1	23.6	0.00e+00	0	29	0	1110441984	44	6511
2026-01-10 13:08:27.59	135.80	13.78	-36.6	-37.5	22.8	0.00e+00	89	29	0	1112539136	44	6791
2026-01-10 13:08:28.60	135.94	13.70	-36.9	-37.9	22.9	0.00e+00	0	29	0	1113587712	46	6337
2026-01-10 13:08:29.62	136.09	13.63	-37.3	-38.3	22.6	0.00e+00	0	29	0	1115684864	46	6622
2026-01-10 13:08:30.63	136.23	13.56	-37.5	-38.5	22.5	0.00e+00	0	29	0	1117782016	46	6815
2026-01-10 13:08:31.63	136.37	13.48	-37.7	-38.7	22.3	0.00e+00	0	29	0	1119879168	48	6208
2026-01-10 13:08:32.64	136.51	13.41	-37.7	-38.8	22.2	0.00e+00	37	29	0	1121976320	48	6286
2026-01-10 13:08:33.65	136.65	13.34	-37.8	-38.8	21.8	0.00e+00	0	29	0	1123024896	48	6292
2026-01-10 13:08:34.66	136.79	13.26	-37.7	-38.8	22.3	0.00e+00	37	29	0	1125122048	48	6283
2026-01-10 13:08:35.67	136.93	13.19	-37.5	-38.5	22.3	0.00e+00	0	29	0	1127219200	48	6082
2026-01-10 13:08:36.68	137.07	13.12	-37.3	-38.4	22.7	0.00e+00	0	29	0	1129316352	48	5973
2026-01-10 13:08:37.70	137.21	13.04	-37.1	-38.0	22.9	0.00e+00	0	29	0	1131413504	48	5758
2026-01-10 13:08:38.70	137.35	12.97	-37.2	-38.1	22.8	0.00e+00	0	29	0	1133510656	48	5815
2026-01-10 13:08:39.71	137.48	12.90	-37.1	-38.1	22.8	0.00e+00	36	29	0	1134559232	48	5790
2026-01-10 13:08:40.72	137.62	12.83	-36.9	-37.9	22.9	0.00e+00	0	29	0	1136656384	48	5635
2026-01-10 13:08:41.73	137.76	12.75	-37.0	-37.9	23.0	0.00e+00	62	29	0	1138753536	48	5677
2026-01-10 13:08:42.74	137.89	12.68	-36.7	-37.7	23.2	0.00e+00	0	29	0	1140850688	46	6185
2026-01-10 13:08:43.75	138.03	12.61	-36.8	-37.7	23.1	0.00e+00	0	29	0	1142947840	46	6240
2026-01-10 13:08:44.76	138.16	12.54	-36.9	-37.9	23.0	0.00e+00	0	29	0	1143996416	46	6331
2026-01-10 13:08:45.77	138.29	12.47	-36.9	-37.9	23.0	0.00e+00	0	29	0	1146093568	46	6356
2026-01-10 13:08:46.78	138.42	12.39	-36.9	-37.9	23.0	0.00e+00	36	29	0	1148190720	46	6329
2026-01-10 13:08:47.79	138.56	12.32	-37.0	-37.9	23.0	0.00e+00	0	29	0	1150287872	46	6374
2026-01-10 13:08:48.80	138.69	12.25	-36.9	-37.9	23.0	0.00e+00	82	29	0	1152385024	46	6333
2026-01-10 13:08:49.81	138.82	12.18	-37.1	-38.1	22.9	0.00e+00	0	29	0	1153433600	46	6487
2026-01-10 13:08:50.82	138.95	12.11	-37.0	-38.0	22.9	0.00e+00	77	29	0	1155530752	46	6404
2026-01-10 13:08:51.83	139.08	12.03	-37.2	-38.2	22.7	0.00e+00	0	29	0	1157627904	46	6553
2026-01-10 13:08:52.84	139.21	11.96	-37.5	-38.5	22.5	0.00e+00	0	29	0	1159725056	46	6789
2026-01-10 13:08:53.85	139.33	11.89	-37.4	-38.4	22.4	0.00e+00	37	29	0	1161822208	46	6720
2026-01-10 13:08:54.86	139.46	11.82	-37.7	-38.7	22.1	0.00e+00	0	29	0	1162870784	46	6991
2026-01-10 13:08:55.86	139.59	11.75	-38.0	-39.1	21.8	0.00e+00	92	29	0	1164967936	48	6486
2026-01-10 13:08:56.88	139.71	11.68	-38.4	-39.5	21.3	0.00e+00	0	29	0	1167065088	48	6801
2026-01-10 13:08:57.89	139.84	11.60	-38.9	-40.2	20.7	0.00e+00	16	29	0	1169162240	50	6545
2026-01-10 13:08:58.89	139.96	11.53	-39.2	-40.5	20.3	0.00e+00	0	29	0	1171259392	50	6815
2026-01-10 13:08:59.91	140.09	11.46	-39.6	-41.1	19.7	0.00e+00	0	29	0	1172307968	50	7259
2026-01-10 13:09:00.91	140.21	11.39	-40.0	-41.5	19.3	0.00e+00	37	29	0	1174405120	52	6838
2026-01-10 13:09:01.92	140.34	11.32	-40.2	-41.8	19.1	0.00e+00	0	29	0	1176502272	52	7035
2026-01-10 13:09:02.93	140.46	11.25	-40.6	-42.3	18.3	0.00e+00	35	29	0	1178599424	52	7504
2026-01-10 13:09:03.94	140.58	11.18	-40.8	-42.6	18.0	0.00e+00	0	29	0	1180696576	54	6884
2026-01-10 13:09:04.95	140.70	11.11	-41.0	-42.9	17.6	0.00e+00	92	29	0	1181745152	54	7167
2026-01-10 13:09:05.96	140.82	11.04	-41.2	-43.2	17.2	0.00e+00	0	29	0	1183842304	54	7341
2026-01-10 13:09:06.97	140.94	10.97	-41.1	-43.1	17.4	0.00e+00	0	29	0	1185939456	54	7291
2026-01-10 13:09:07.98	141.06	10.90	-41.0	-43.0	17.4	0.00e+00	3	29	0	1188036608	54	7233
2026-01-10 13:09:08.99	141.18	10.83	-41.0	-42.9	17.5	0.00e+00	0	29	0	1190133760	54	7152
2026-01-10 13:09:10.00	141.30	10.76	-40.5	-42.2	18.2	0.00e+00	50	29	0	1191182336	54	6597
2026-01-10 13:09:11.01	141.42	10.69	-40.3	-42.0	18.5	0.00e+00	0	29	0	1193279488	54	6442
2026-01-10 13:09:12.02	141.54	10.62	-40.0	-41.6	18.9	0.00e+00	92	29	0	1195376640	54	6126
2026-01-10 13:09:13.03	141.66	10.55	-39.9	-41.5	19.0	0.00e+00	5	29	0	1197473792	54	6035
2026-01-10 13:09:14.04	141.77	10.48	-39.8	-41.3	19.4	0.00e+00	0	29	0	1199570944	52	6624
2026-01-10 13:09:15.06	141.89	10.41	-39.2	-40.7	19.8	0.00e+00	0	29	0	1201668096	52	6175
2026-01-10 13:09:16.07	142.00	10.34	-39.3	-40.7	19.9	0.00e+00	0	29	0	1202716672	52	6182
2026-01-10 13:09:17.07	142.12	10.27	-39.3	-40.6	20.0	0.00e+00	62	29	0	1204813824	52	6149
2026-01-10 13:09:18.08	142.23	10.20	-38.9	-40.2	20.4	0.00e+00	0	29	0	1206910976	52	5880
2026-01-10 13:09:19.09	142.35	10.13	-39.1	-40.4	20.3	0.00e+00	92	29	0	1209008128	52	6007
2026-01-10 13:09:20.11	142.46	10.06	-38.7	-39.9	20.9	0.00e+00	0	29	0	1211105280	50	6383
2026-01-10 13:09:21.12	142.58	9.99	-38.8	-40.1	20.7	0.00e+00	69	29	0	1212153856	50	6473
2026-01-10 13:09:22.13	142.69	9.92	-38.8	-40.0	20.8	0.00e+00	0	29	0	1214251008	50	6418
2026-01-10 13:09:23.14	142.80	9.85	-38.4	-39.6	21.1	0.00e+00	0	29	0	1216348160	50	6155
