passes_logs/2026/01/10/R4.6S_Anadyr/R4.6S_Anadyr__20260110_145854_NOAA_20_JPSS-1_rec.log

#Pass ID: 20260110_145854_NOAA 20 (JPSS-1)
#Satellite: NOAA 20 (JPSS-1)
#Configuration: NOAA 20
#almurnet v.1.7.20251203
#Start time: 2026-01-10 14:58:57

#Version: 2.2.20231116
#Station: R4.6S_Anadyr
#Location: 177.4865 lon 64.73178 lat
#TLE: 1 43013U 17073A   26009.69119415  .00000109  00000+0  72598-4 0  9996
#TLE: 2 43013  98.7631 310.6868 0001678  46.7442 313.3874 14.19534878421981

#Time	Az	El	Level	Level2	SNR	BER	BlckErr	Temp	State	Recorded	gain1	gain2
2026-01-10 14:58:57.99	21.08	0.20	-48.2	-61.9	3.3	1.54e+00	0	27	0	0	60	45190
2026-01-10 14:58:59.00	21.07	0.26	-48.3	-63.4	3.6	1.51e+00	0	27	104	0	60	53368
2026-01-10 14:59:00.01	21.07	0.32	-48.3	-63.5	3.6	1.51e+00	0	27	104	0	60	53936
2026-01-10 14:59:01.02	21.07	0.38	-48.3	-63.4	3.6	1.51e+00	0	27	104	0	60	53676
2026-01-10 14:59:02.03	21.06	0.44	-48.2	-63.4	3.6	1.51e+00	0	27	104	0	60	53577
2026-01-10 14:59:03.04	21.06	0.50	-48.1	-63.3	3.6	1.51e+00	0	27	104	0	60	53057
2026-01-10 14:59:04.05	21.06	0.57	-48.1	-63.3	3.6	1.51e+00	0	27	104	0	60	52831
2026-01-10 14:59:05.06	21.05	0.63	-48.0	-63.2	3.6	1.51e+00	0	27	104	0	60	52414
2026-01-10 14:59:06.07	21.05	0.69	-47.9	-63.1	3.6	1.51e+00	0	27	104	0	60	51463
2026-01-10 14:59:07.08	21.05	0.75	-47.6	-62.9	3.6	1.51e+00	0	28	104	0	60	50412
2026-01-10 14:59:08.09	21.05	0.81	-47.5	-62.7	3.6	1.51e+00	0	27	104	0	60	49209
2026-01-10 14:59:09.10	21.04	0.87	-47.3	-62.5	3.6	1.51e+00	0	28	104	0	60	48007
2026-01-10 14:59:10.11	21.04	0.94	-46.9	-62.1	3.6	1.51e+00	0	28	104	0	60	45954
2026-01-10 14:59:11.12	21.04	1.00	-46.7	-61.9	3.6	1.51e+00	0	28	104	0	60	45001
2026-01-10 14:59:12.13	21.03	1.06	-46.7	-61.9	3.6	1.51e+00	0	28	104	0	60	44967
2026-01-10 14:59:13.14	21.03	1.12	-46.7	-61.8	3.6	1.51e+00	0	28	104	0	60	44579
2026-01-10 14:59:14.15	21.03	1.18	-46.7	-61.8	3.6	1.51e+00	0	28	104	0	60	44659
2026-01-10 14:59:15.16	21.02	1.25	-46.7	-61.8	3.6	1.51e+00	0	28	104	0	60	44482
2026-01-10 14:59:16.16	21.02	1.31	-46.7	-61.8	3.6	1.51e+00	0	28	104	0	60	44359
2026-01-10 14:59:17.17	21.02	1.37	-46.7	-61.6	3.6	1.51e+00	0	28	104	0	60	43526
2026-01-10 14:59:18.18	21.01	1.44	-46.7	-61.7	3.6	1.51e+00	0	28	104	0	60	43898
2026-01-10 14:59:19.20	21.01	1.50	-46.6	-61.6	3.6	1.51e+00	0	28	104	0	60	43410
2026-01-10 14:59:20.21	21.01	1.56	-46.6	-61.7	3.6	1.51e+00	0	28	104	0	60	43779
2026-01-10 14:59:21.21	21.00	1.63	-46.6	-61.7	3.6	1.51e+00	0	28	104	0	60	43840
2026-01-10 14:59:22.23	21.00	1.69	-46.6	-61.7	3.6	1.51e+00	0	28	104	0	60	44020
2026-01-10 14:59:23.24	20.99	1.75	-46.6	-61.8	3.6	1.51e+00	0	28	104	0	60	44567
2026-01-10 14:59:24.25	20.99	1.82	-46.7	-61.8	3.6	1.51e+00	0	28	104	0	60	44619
2026-01-10 14:59:25.26	20.99	1.88	-46.7	-61.8	3.6	1.51e+00	0	28	104	0	60	44716
2026-01-10 14:59:26.27	20.98	1.95	-46.7	-61.8	3.6	1.51e+00	0	28	104	0	60	44299
2026-01-10 14:59:27.28	20.98	2.01	-46.6	-61.7	3.6	1.51e+00	0	28	104	0	60	44170
2026-01-10 14:59:28.29	20.98	2.07	-46.6	-61.7	3.6	1.51e+00	0	28	104	0	60	44068
2026-01-10 14:59:29.30	20.97	2.14	-46.6	-61.7	3.6	1.51e+00	0	28	104	0	60	43745
2026-01-10 14:59:30.31	20.97	2.20	-46.6	-61.6	3.6	1.51e+00	0	28	104	0	60	43260
2026-01-10 14:59:31.32	20.96	2.27	-46.6	-61.3	3.6	1.51e+00	0	28	104	0	60	42200
2026-01-10 14:59:32.33	20.96	2.33	-46.6	-60.9	3.6	1.51e+00	0	28	104	0	60	40048
2026-01-10 14:59:33.34	20.96	2.40	-46.6	-60.6	3.6	1.51e+00	0	28	104	0	60	38644
2026-01-10 14:59:34.35	20.95	2.46	-46.6	-60.4	3.6	1.51e+00	0	28	104	0	60	37817
2026-01-10 14:59:35.36	20.95	2.53	-46.6	-60.2	3.6	1.51e+00	0	28	104	0	60	36816
2026-01-10 14:59:36.37	20.94	2.60	-46.6	-59.9	3.6	1.51e+00	0	28	104	0	60	35722
2026-01-10 14:59:37.38	20.94	2.66	-46.6	-60.0	3.6	1.51e+00	0	28	104	0	60	36261
2026-01-10 14:59:38.39	20.94	2.73	-46.6	-60.0	3.6	1.51e+00	0	28	104	0	60	36031
2026-01-10 14:59:39.40	20.93	2.79	-46.5	-59.1	3.8	1.46e+00	0	28	104	0	60	32680
2026-01-10 14:59:40.41	20.93	2.86	-46.4	-56.2	4.3	1.31e+00	92	28	0	0	60	23275
2026-01-10 14:59:41.42	20.92	2.93	-46.2	-54.4	5.2	6.50e-01	0	28	0	2097152	60	19035
2026-01-10 14:59:42.43	20.92	2.99	-45.9	-52.9	7.0	3.47e-01	49	28	0	4194304	60	15890
2026-01-10 14:59:43.44	20.91	3.06	-45.4	-51.1	9.1	3.95e-02	0	28	0	6291456	60	13013
2026-01-10 14:59:44.45	20.91	3.13	-45.1	-50.0	10.5	9.45e-03	0	28	0	7340032	60	11423
2026-01-10 14:59:45.46	20.91	3.19	-44.6	-48.8	11.9	1.63e-03	0	28	0	9437184	60	9928
2026-01-10 14:59:46.47	20.90	3.26	-44.2	-47.9	12.9	1.66e-04	2	28	0	11534336	60	8987
2026-01-10 14:59:47.48	20.90	3.33	-44.0	-47.6	13.3	6.02e-05	92	28	0	13631488	60	8660
2026-01-10 14:59:48.49	20.89	3.40	-43.6	-46.8	13.9	6.80e-06	1	28	0	15728640	60	7949
2026-01-10 14:59:49.50	20.89	3.46	-43.6	-46.8	14.0	1.50e-06	92	28	0	16777216	60	7921
2026-01-10 14:59:50.51	20.88	3.53	-43.8	-47.1	13.6	1.06e-05	85	28	0	18874368	60	8231
2026-01-10 14:59:51.52	20.88	3.60	-44.2	-48.0	12.6	1.98e-05	2	28	0	20971520	60	9080
2026-01-10 14:59:52.53	20.87	3.67	-44.6	-48.9	11.6	2.27e-04	84	28	0	23068672	60	10044
2026-01-10 14:59:53.54	20.87	3.74	-42.3	-44.5	16.4	9.38e-04	4	28	0	25165824	60	6081
2026-01-10 14:59:54.55	20.86	3.81	-43.4	-46.4	13.3	0.00e+00	91	28	0	26214400	58	8451
2026-01-10 14:59:55.56	20.86	3.87	-45.6	-52.2	5.1	4.52e-03	0	28	0	28311552	60	14677
2026-01-10 14:59:56.57	20.85	3.94	-44.9	-49.8	5.7	1.51e+00	0	28	104	28311552	60	11166
2026-01-10 14:59:57.58	20.85	4.01	-45.4	-51.5	7.2	1.31e-01	75	28	104	28311552	60	13510
2026-01-10 14:59:58.59	20.84	4.08	-44.5	-48.5	5.7	1.51e+00	9	28	104	28311552	60	9622
2026-01-10 14:59:59.60	20.84	4.15	-41.8	-43.9	16.5	0.00e+00	78	28	104	28311552	58	6382
2026-01-10 15:00:00.61	20.83	4.22	-41.7	-43.7	17.3	0.00e+00	6	28	0	29360128	58	6196
2026-01-10 15:00:01.62	20.83	4.29	-41.0	-42.8	18.2	0.00e+00	0	28	0	31457280	56	6255
2026-01-10 15:00:02.63	20.82	4.36	-41.1	-42.8	18.2	0.00e+00	0	28	0	33554432	56	6280
2026-01-10 15:00:03.64	20.82	4.43	-41.2	-43.0	18.1	0.00e+00	90	28	0	35651584	56	6426
2026-01-10 15:00:04.65	20.81	4.50	-41.1	-42.9	18.1	0.00e+00	0	28	0	36700160	56	6353
2026-01-10 15:00:05.66	20.81	4.57	-41.1	-42.9	18.2	0.00e+00	10	28	0	38797312	56	6355
2026-01-10 15:00:06.67	20.80	4.64	-41.1	-42.8	18.2	0.00e+00	10	28	0	40894464	56	6314
2026-01-10 15:00:07.68	20.80	4.71	-41.0	-42.7	18.4	0.00e+00	9	28	0	42991616	56	6212
2026-01-10 15:00:08.69	20.79	4.78	-41.1	-42.8	18.2	0.00e+00	0	28	0	45088768	56	6317
2026-01-10 15:00:09.70	20.79	4.86	-41.0	-42.6	18.4	0.00e+00	8	28	0	46137344	56	6161
2026-01-10 15:00:10.71	20.78	4.93	-41.0	-42.7	18.4	0.00e+00	90	28	0	48234496	56	6186
2026-01-10 15:00:11.71	20.77	5.00	-41.1	-42.9	18.2	0.00e+00	71	29	0	50331648	56	6324
2026-01-10 15:00:12.72	20.77	5.07	-40.9	-42.6	18.6	0.00e+00	92	28	0	52428800	56	6115
2026-01-10 15:00:13.73	20.76	5.14	-40.9	-42.5	18.5	0.00e+00	71	28	0	54525952	56	6079
2026-01-10 15:00:14.74	20.76	5.21	-40.8	-42.4	18.7	0.00e+00	9	28	0	55574528	56	6025
2026-01-10 15:00:15.75	20.75	5.29	-40.9	-42.6	18.6	0.00e+00	5	28	0	57671680	56	6108
2026-01-10 15:00:16.76	20.75	5.36	-41.0	-42.6	18.5	0.00e+00	0	28	0	59768832	56	6157
2026-01-10 15:00:17.77	20.74	5.43	-40.8	-42.4	18.7	0.00e+00	90	28	0	61865984	54	6729
2026-01-10 15:00:18.78	20.73	5.51	-40.7	-42.2	18.7	0.00e+00	77	28	0	63963136	54	6614
2026-01-10 15:00:19.79	20.73	5.58	-40.7	-42.3	18.9	0.00e+00	90	28	0	65011712	54	6677
2026-01-10 15:00:20.80	20.72	5.65	-40.7	-42.2	18.9	0.00e+00	77	28	0	67108864	54	6598
2026-01-10 15:00:21.81	20.72	5.73	-40.7	-42.3	18.8	0.00e+00	0	28	0	69206016	54	6618
2026-01-10 15:00:22.82	20.71	5.80	-40.6	-42.2	19.0	0.00e+00	0	28	0	71303168	54	6567
2026-01-10 15:00:23.83	20.70	5.87	-40.6	-42.1	19.1	0.00e+00	0	28	0	73400320	54	6516
2026-01-10 15:00:24.84	20.70	5.95	-40.6	-42.2	18.9	0.00e+00	0	29	0	75497472	54	6560
2026-01-10 15:00:25.85	20.69	6.02	-40.4	-42.0	19.2	0.00e+00	3	28	0	76546048	54	6401
2026-01-10 15:00:26.86	20.68	6.10	-40.4	-41.9	19.3	0.00e+00	92	28	0	78643200	54	6369
2026-01-10 15:00:27.87	20.68	6.17	-40.5	-42.0	19.2	0.00e+00	0	29	0	80740352	54	6446
2026-01-10 15:00:28.88	20.67	6.25	-40.5	-42.0	19.2	0.00e+00	92	28	0	82837504	54	6411
2026-01-10 15:00:29.89	20.66	6.32	-40.5	-42.0	19.3	0.00e+00	11	29	0	84934656	54	6399
2026-01-10 15:00:30.90	20.66	6.40	-40.3	-41.8	19.5	0.00e+00	9	29	0	85983232	54	6250
2026-01-10 15:00:31.91	20.65	6.48	-40.4	-41.8	19.4	0.00e+00	0	29	0	88080384	54	6315
2026-01-10 15:00:32.92	20.64	6.55	-40.3	-41.7	19.5	0.00e+00	10	29	0	90177536	54	6215
2026-01-10 15:00:33.93	20.64	6.63	-40.3	-41.8	19.5	0.00e+00	92	29	0	92274688	54	6284
2026-01-10 15:00:34.94	20.63	6.70	-40.4	-41.9	19.4	0.00e+00	4	29	0	94371840	54	6363
2026-01-10 15:00:35.95	20.62	6.78	-40.4	-41.9	19.4	0.00e+00	92	29	0	95420416	54	6354
2026-01-10 15:00:36.96	20.62	6.86	-40.2	-41.7	19.6	0.00e+00	69	29	0	97517568	54	6208
2026-01-10 15:00:37.97	20.61	6.93	-40.3	-41.7	19.6	0.00e+00	71	29	0	99614720	54	6238
2026-01-10 15:00:38.98	20.60	7.01	-40.2	-41.6	19.7	0.00e+00	71	29	0	101711872	54	6141
2026-01-10 15:00:39.99	20.60	7.09	-40.3	-41.8	19.6	0.00e+00	0	29	0	103809024	54	6255
2026-01-10 15:00:41.00	20.59	7.17	-40.3	-41.7	19.7	0.00e+00	80	29	0	104857600	54	6206
2026-01-10 15:00:42.01	20.58	7.25	-40.1	-41.5	19.8	0.00e+00	0	29	0	106954752	54	6076
2026-01-10 15:00:43.02	20.57	7.32	-40.2	-41.6	19.7	0.00e+00	90	29	0	109051904	54	6169
2026-01-10 15:00:44.03	20.57	7.40	-40.1	-41.5	19.8	0.00e+00	0	29	0	111149056	54	6080
2026-01-10 15:00:45.03	20.56	7.48	-40.1	-41.5	19.8	0.00e+00	92	29	0	113246208	54	6089
2026-01-10 15:00:46.05	20.55	7.56	-40.1	-41.5	19.8	0.00e+00	0	29	0	114294784	54	6095
2026-01-10 15:00:47.05	20.54	7.64	-40.0	-41.3	20.0	0.00e+00	0	29	0	116391936	54	5960
2026-01-10 15:00:48.07	20.54	7.72	-40.1	-41.5	19.9	0.00e+00	0	29	0	118489088	54	6091
2026-01-10 15:00:49.08	20.53	7.80	-40.0	-41.4	20.0	0.00e+00	10	29	0	120586240	54	5983
2026-01-10 15:00:50.09	20.52	7.88	-40.0	-41.4	20.0	0.00e+00	92	29	0	122683392	54	5977
2026-01-10 15:00:51.10	20.51	7.96	-39.9	-41.3	20.1	0.00e+00	0	29	0	123731968	54	5929
2026-01-10 15:00:52.11	20.50	8.04	-40.0	-41.4	20.0	0.00e+00	90	29	0	125829120	54	5978
2026-01-10 15:00:53.11	20.50	8.12	-40.0	-41.4	20.1	0.00e+00	76	29	0	127926272	54	5991
2026-01-10 15:00:54.13	20.49	8.20	-40.0	-41.4	20.0	0.00e+00	6	29	0	130023424	54	5995
2026-01-10 15:00:55.13	20.48	8.28	-40.0	-41.4	20.1	0.00e+00	0	29	0	132120576	54	5973
2026-01-10 15:00:56.15	20.47	8.37	-39.9	-41.3	20.1	0.00e+00	68	29	0	133169152	54	5911
2026-01-10 15:00:57.15	20.46	8.45	-39.8	-41.1	20.2	0.00e+00	92	29	0	135266304	54	5817
2026-01-10 15:00:58.16	20.46	8.53	-39.9	-41.2	20.3	0.00e+00	0	29	0	137363456	54	5857
2026-01-10 15:00:59.17	20.45	8.61	-39.8	-41.2	20.3	0.00e+00	68	29	0	139460608	54	5840
2026-01-10 15:01:00.18	20.44	8.69	-39.9	-41.2	20.3	0.00e+00	70	29	0	141557760	54	5843
2026-01-10 15:01:01.19	20.43	8.78	-39.8	-41.1	20.5	0.00e+00	0	29	0	143654912	52	6467
2026-01-10 15:01:02.20	20.42	8.86	-39.8	-41.1	20.4	0.00e+00	75	29	0	144703488	52	6522
2026-01-10 15:01:03.21	20.41	8.94	-39.7	-41.0	20.5	0.00e+00	0	29	0	146800640	52	6427
2026-01-10 15:01:04.22	20.40	9.03	-39.8	-41.1	20.3	0.00e+00	92	29	0	148897792	52	6504
2026-01-10 15:01:05.23	20.40	9.11	-39.8	-41.1	20.4	0.00e+00	0	29	0	150994944	52	6524
2026-01-10 15:01:06.25	20.39	9.20	-39.8	-41.1	20.4	0.00e+00	91	29	0	153092096	52	6528
2026-01-10 15:01:07.25	20.38	9.28	-39.8	-41.1	20.5	0.00e+00	0	29	0	154140672	52	6476
2026-01-10 15:01:08.26	20.37	9.37	-39.7	-40.9	20.6	0.00e+00	45	29	0	156237824	52	6374
2026-01-10 15:01:09.27	20.36	9.45	-39.7	-41.0	20.6	0.00e+00	0	29	0	158334976	52	6415
2026-01-10 15:01:10.28	20.35	9.54	-39.7	-41.0	20.6	0.00e+00	5	29	0	160432128	52	6435
2026-01-10 15:01:11.29	20.34	9.62	-39.6	-40.9	20.7	0.00e+00	0	29	0	162529280	52	6324
2026-01-10 15:01:12.30	20.33	9.71	-39.6	-40.8	20.7	0.00e+00	0	29	0	163577856	52	6299
2026-01-10 15:01:13.31	20.32	9.79	-39.5	-40.7	20.8	0.00e+00	92	29	0	165675008	52	6216
2026-01-10 15:01:14.32	20.31	9.88	-39.5	-40.8	20.8	0.00e+00	0	29	0	167772160	52	6259
2026-01-10 15:01:15.34	20.30	9.97	-39.7	-40.9	20.6	0.00e+00	0	29	0	169869312	52	6379
2026-01-10 15:01:16.34	20.29	10.06	-39.8	-41.1	20.5	0.00e+00	71	29	0	171966464	52	6518
2026-01-10 15:01:17.35	20.28	10.14	-39.8	-41.1	20.3	0.00e+00	74	29	0	173015040	52	6525
2026-01-10 15:01:18.37	20.27	10.23	-39.9	-41.2	20.5	0.00e+00	0	29	0	175112192	52	6559
2026-01-10 15:01:19.38	20.26	10.32	-39.8	-41.0	20.6	0.00e+00	0	29	0	177209344	52	6449
2026-01-10 15:01:20.39	20.25	10.41	-39.4	-40.6	20.9	0.00e+00	92	29	0	179306496	52	6135
2026-01-10 15:01:21.40	20.24	10.50	-39.3	-40.5	21.1	0.00e+00	5	29	0	181403648	52	6073
2026-01-10 15:01:22.40	20.23	10.59	-39.4	-40.6	21.0	0.00e+00	67	29	0	182452224	52	6158
2026-01-10 15:01:23.42	20.22	10.68	-39.3	-40.6	21.0	0.00e+00	5	29	0	184549376	52	6121
2026-01-10 15:01:24.42	20.21	10.77	-39.5	-40.7	20.9	0.00e+00	6	29	0	186646528	52	6224
2026-01-10 15:01:25.43	20.20	10.86	-39.4	-40.7	21.0	0.00e+00	5	29	0	188743680	52	6176
2026-01-10 15:01:26.44	20.19	10.95	-39.2	-40.4	21.1	0.00e+00	0	29	0	190840832	52	6018
2026-01-10 15:01:27.45	20.18	11.04	-39.3	-40.5	21.0	0.00e+00	77	29	0	191889408	52	6099
2026-01-10 15:01:28.46	20.17	11.13	-39.3	-40.5	21.1	0.00e+00	10	29	0	193986560	52	6093
2026-01-10 15:01:29.47	20.16	11.22	-39.3	-40.5	21.1	0.00e+00	95	29	0	196083712	52	6062
2026-01-10 15:01:30.48	20.15	11.31	-39.2	-40.4	21.2	0.00e+00	6	29	0	198180864	52	5976
2026-01-10 15:01:31.49	20.14	11.40	-39.2	-40.4	21.2	0.00e+00	6	29	0	200278016	52	6019
2026-01-10 15:01:32.50	20.12	11.50	-39.2	-40.4	21.2	0.00e+00	10	29	0	201326592	52	5985
2026-01-10 15:01:33.51	20.11	11.59	-39.2	-40.4	21.2	0.00e+00	5	29	0	203423744	52	5987
2026-01-10 15:01:34.52	20.10	11.68	-39.2	-40.3	21.3	0.00e+00	0	29	0	205520896	52	5964
2026-01-10 15:01:35.52	20.09	11.78	-39.1	-40.3	21.3	0.00e+00	81	29	0	207618048	52	5925
2026-01-10 15:01:36.53	20.08	11.87	-39.1	-40.3	21.3	0.00e+00	92	29	0	209715200	52	5907
2026-01-10 15:01:37.54	20.07	11.96	-39.1	-40.3	21.4	0.00e+00	4	29	0	211812352	52	5907
2026-01-10 15:01:38.55	20.05	12.06	-39.2	-40.3	21.3	0.00e+00	72	29	0	212860928	52	5951
2026-01-10 15:01:39.56	20.04	12.15	-39.1	-40.3	21.4	0.00e+00	76	29	0	214958080	52	5905
2026-01-10 15:01:40.57	20.03	12.25	-39.0	-40.1	21.5	0.00e+00	74	29	0	217055232	52	5805
2026-01-10 15:01:41.58	20.02	12.34	-39.0	-40.2	21.5	0.00e+00	0	29	0	219152384	52	5848
2026-01-10 15:01:42.59	20.01	12.44	-39.0	-40.2	21.5	0.00e+00	0	29	0	221249536	52	5834
2026-01-10 15:01:43.60	19.99	12.54	-39.0	-40.1	21.5	0.00e+00	92	29	0	222298112	52	5822
2026-01-10 15:01:44.61	19.98	12.63	-39.0	-40.1	21.6	0.00e+00	6	29	0	224395264	52	5795
2026-01-10 15:01:45.62	19.97	12.73	-38.9	-40.1	21.5	0.00e+00	92	29	0	226492416	52	5783
2026-01-10 15:01:46.63	19.96	12.83	-38.9	-40.0	21.6	0.00e+00	0	29	0	228589568	52	5751
2026-01-10 15:01:47.64	19.94	12.93	-38.8	-39.9	21.8	0.00e+00	0	29	0	230686720	52	5668
2026-01-10 15:01:48.65	19.93	13.03	-38.9	-40.0	21.8	0.00e+00	5	29	0	231735296	52	5756
2026-01-10 15:01:49.66	19.92	13.12	-38.8	-39.9	21.7	0.00e+00	8	29	0	233832448	50	6327
2026-01-10 15:01:50.67	19.90	13.22	-38.8	-39.9	21.7	0.00e+00	92	29	0	235929600	50	6352
2026-01-10 15:01:51.68	19.89	13.32	-38.8	-40.0	21.7	0.00e+00	6	29	0	238026752	50	6391
2026-01-10 15:01:52.69	19.88	13.42	-38.7	-39.8	21.9	0.00e+00	92	29	0	240123904	50	6271
2026-01-10 15:01:53.70	19.86	13.52	-38.7	-39.8	21.8	0.00e+00	7	29	0	241172480	50	6299
2026-01-10 15:01:54.71	19.85	13.63	-38.7	-39.7	21.9	0.00e+00	12	29	0	243269632	50	6235
2026-01-10 15:01:55.72	19.84	13.73	-38.5	-39.6	22.1	0.00e+00	71	29	0	245366784	50	6123
2026-01-10 15:01:56.73	19.82	13.83	-38.6	-39.6	22.0	0.00e+00	71	29	0	247463936	50	6161
2026-01-10 15:01:57.74	19.81	13.93	-38.6	-39.7	21.9	0.00e+00	1	29	0	249561088	50	6209
2026-01-10 15:01:58.75	19.80	14.03	-38.5	-39.6	22.1	0.00e+00	75	29	0	250609664	50	6118
2026-01-10 15:01:59.76	19.78	14.14	-38.7	-39.8	21.9	0.00e+00	90	29	0	252706816	50	6266
2026-01-10 15:02:00.77	19.77	14.24	-38.6	-39.6	22.0	0.00e+00	0	29	0	254803968	50	6164
2026-01-10 15:02:01.78	19.75	14.34	-38.4	-39.5	22.2	0.00e+00	90	29	0	256901120	50	6035
2026-01-10 15:02:02.79	19.74	14.45	-38.3	-39.4	22.3	0.00e+00	68	29	0	258998272	50	5967
2026-01-10 15:02:03.80	19.72	14.55	-38.4	-39.4	22.2	0.00e+00	69	29	0	260046848	50	6032
2026-01-10 15:02:04.81	19.71	14.66	-38.4	-39.5	22.2	0.00e+00	0	29	0	262144000	50	6040
2026-01-10 15:02:05.82	19.69	14.76	-38.4	-39.4	22.2	0.00e+00	0	29	0	264241152	50	6013
2026-01-10 15:02:06.83	19.68	14.87	-38.2	-39.2	22.5	0.00e+00	92	29	0	266338304	50	5845
2026-01-10 15:02:07.84	19.66	14.98	-38.2	-39.3	22.4	0.00e+00	0	29	0	268435456	50	5898
2026-01-10 15:02:08.85	19.65	15.08	-38.2	-39.2	22.5	0.00e+00	91	29	0	269484032	50	5867
2026-01-10 15:02:09.86	19.63	15.19	-38.1	-39.1	22.4	0.00e+00	13	29	0	271581184	50	5827
2026-01-10 15:02:10.87	19.62	15.30	-38.0	-39.0	22.7	0.00e+00	3	29	0	273678336	50	5741
2026-01-10 15:02:11.88	19.60	15.41	-37.9	-38.9	22.7	0.00e+00	0	29	0	275775488	50	5692
2026-01-10 15:02:12.89	19.58	15.52	-37.9	-38.9	22.7	0.00e+00	0	29	0	277872640	50	5661
2026-01-10 15:02:13.90	19.57	15.63	-38.0	-39.0	22.7	0.00e+00	3	29	0	279969792	50	5713
2026-01-10 15:02:14.91	19.55	15.74	-37.8	-38.8	22.9	0.00e+00	73	29	0	281018368	50	5584
2026-01-10 15:02:15.92	19.53	15.85	-37.9	-38.9	22.7	0.00e+00	90	29	0	283115520	50	5674
2026-01-10 15:02:16.93	19.52	15.96	-37.9	-38.9	22.8	0.00e+00	14	29	0	285212672	50	5652
2026-01-10 15:02:17.94	19.50	16.07	-37.8	-38.8	22.8	0.00e+00	69	29	0	287309824	50	5603
2026-01-10 15:02:18.95	19.48	16.18	-37.7	-38.6	22.9	0.00e+00	3	29	0	289406976	48	6171
2026-01-10 15:02:19.96	19.47	16.29	-37.6	-38.6	23.1	0.00e+00	70	29	0	290455552	48	6123
2026-01-10 15:02:20.97	19.45	16.41	-37.8	-38.8	22.8	0.00e+00	2	29	0	292552704	48	6260
2026-01-10 15:02:21.98	19.43	16.52	-37.7	-38.7	23.0	0.00e+00	72	29	0	294649856	48	6227
2026-01-10 15:02:22.99	19.42	16.64	-37.6	-38.6	23.0	0.00e+00	92	29	0	296747008	48	6114
2026-01-10 15:02:24.00	19.40	16.75	-37.6	-38.5	23.1	0.00e+00	70	29	0	298844160	48	6097
2026-01-10 15:02:25.01	19.38	16.87	-37.5	-38.4	23.2	0.00e+00	92	29	0	299892736	48	6004
2026-01-10 15:02:26.02	19.36	16.98	-37.4	-38.3	23.3	0.00e+00	0	29	0	301989888	48	5951
2026-01-10 15:02:27.03	19.34	17.10	-37.4	-38.3	23.2	0.00e+00	0	29	0	304087040	48	5932
2026-01-10 15:02:28.04	19.32	17.21	-37.4	-38.3	23.3	0.00e+00	0	29	0	306184192	48	5934
2026-01-10 15:02:29.05	19.31	17.33	-37.5	-38.5	23.1	0.00e+00	0	29	0	308281344	48	6045
2026-01-10 15:02:30.06	19.29	17.45	-37.2	-38.1	23.5	0.00e+00	92	29	0	309329920	48	5826
2026-01-10 15:02:31.07	19.27	17.57	-37.3	-38.2	23.4	0.00e+00	2	29	0	311427072	48	5860
2026-01-10 15:02:32.07	19.25	17.69	-37.3	-38.2	23.3	0.00e+00	92	29	0	313524224	48	5856
2026-01-10 15:02:33.08	19.23	17.81	-37.1	-38.0	23.6	0.00e+00	0	29	0	315621376	48	5742
2026-01-10 15:02:34.09	19.21	17.93	-37.1	-38.0	23.6	0.00e+00	0	29	0	317718528	48	5730
2026-01-10 15:02:35.10	19.19	18.05	-37.1	-38.1	23.5	0.00e+00	0	29	0	318767104	48	5764
2026-01-10 15:02:36.11	19.17	18.17	-37.1	-38.1	23.6	0.00e+00	68	29	0	320864256	48	5766
2026-01-10 15:02:37.12	19.15	18.29	-37.2	-38.1	23.6	0.00e+00	90	29	0	322961408	48	5766
2026-01-10 15:02:38.14	19.13	18.41	-37.0	-37.9	23.7	0.00e+00	10	29	0	325058560	48	5655
2026-01-10 15:02:39.15	19.11	18.54	-37.0	-37.9	23.7	0.00e+00	92	29	0	327155712	48	5634
2026-01-10 15:02:40.15	19.09	18.66	-36.9	-37.8	23.8	0.00e+00	65	29	0	328204288	48	5587
2026-01-10 15:02:41.16	19.07	18.78	-36.9	-37.8	23.8	0.00e+00	69	29	0	330301440	48	5620
2026-01-10 15:02:42.17	19.05	18.91	-36.9	-37.8	23.8	0.00e+00	0	29	0	332398592	48	5607
2026-01-10 15:02:43.18	19.03	19.04	-37.0	-37.9	23.8	0.00e+00	0	29	0	334495744	48	5651
2026-01-10 15:02:44.19	19.00	19.16	-37.0	-37.9	23.7	0.00e+00	12	29	0	336592896	48	5687
2026-01-10 15:02:45.20	18.98	19.29	-37.0	-37.9	23.7	0.00e+00	66	29	0	337641472	48	5668
2026-01-10 15:02:46.21	18.96	19.42	-37.0	-37.9	23.7	0.00e+00	92	29	0	339738624	48	5665
2026-01-10 15:02:47.22	18.94	19.54	-36.9	-37.8	23.8	0.00e+00	0	29	0	341835776	48	5588
2026-01-10 15:02:48.23	18.92	19.67	-36.9	-37.7	23.9	0.00e+00	62	29	0	343932928	48	5560
2026-01-10 15:02:49.24	18.89	19.80	-36.9	-37.8	23.8	0.00e+00	1	29	0	346030080	48	5580
2026-01-10 15:02:50.25	18.87	19.93	-36.8	-37.7	24.0	0.00e+00	0	29	0	348127232	46	6174
2026-01-10 15:02:51.26	18.85	20.06	-36.8	-37.7	23.9	0.00e+00	0	29	0	349175808	46	6192
2026-01-10 15:02:52.26	18.83	20.20	-36.9	-37.8	23.8	0.00e+00	2	29	0	351272960	46	6254
2026-01-10 15:02:53.27	18.80	20.33	-36.9	-37.8	23.9	0.00e+00	92	29	0	353370112	46	6264
2026-01-10 15:02:54.28	18.78	20.46	-36.9	-37.8	23.7	0.00e+00	0	29	0	355467264	46	6300
2026-01-10 15:02:55.29	18.75	20.59	-36.8	-37.7	23.9	0.00e+00	92	29	0	357564416	46	6200
2026-01-10 15:02:56.30	18.73	20.73	-36.7	-37.6	24.0	0.00e+00	0	29	0	358612992	46	6151
2026-01-10 15:02:57.31	18.71	20.86	-36.9	-37.8	23.9	0.00e+00	68	29	0	360710144	46	6292
2026-01-10 15:02:58.32	18.68	21.00	-36.7	-37.6	24.1	0.00e+00	0	29	0	362807296	46	6140
2026-01-10 15:02:59.33	18.66	21.14	-36.8	-37.7	24.0	0.00e+00	0	29	0	364904448	46	6217
2026-01-10 15:03:00.34	18.63	21.27	-36.8	-37.7	23.9	0.00e+00	13	29	0	367001600	46	6202
2026-01-10 15:03:01.35	18.60	21.41	-36.8	-37.7	24.0	0.00e+00	71	29	0	368050176	46	6192
2026-01-10 15:03:02.36	18.58	21.55	-36.7	-37.5	24.1	0.00e+00	92	29	0	370147328	46	6071
2026-01-10 15:03:03.37	18.55	21.69	-36.7	-37.5	24.1	0.00e+00	0	29	0	372244480	46	6081
2026-01-10 15:03:04.38	18.53	21.83	-36.7	-37.6	24.0	0.00e+00	25	29	0	374341632	46	6124
2026-01-10 15:03:05.39	18.50	21.97	-36.8	-37.7	24.0	0.00e+00	69	29	0	376438784	46	6211
2026-01-10 15:03:06.40	18.47	22.11	-36.6	-37.5	24.1	0.00e+00	0	29	0	377487360	46	6071
2026-01-10 15:03:07.41	18.45	22.26	-36.9	-37.7	23.9	0.00e+00	0	29	0	379584512	46	6236
2026-01-10 15:03:08.42	18.42	22.40	-36.8	-37.7	24.0	0.00e+00	0	29	0	381681664	46	6208
2026-01-10 15:03:09.43	18.39	22.55	-36.7	-37.6	24.0	0.00e+00	91	29	0	383778816	46	6122
2026-01-10 15:03:10.44	18.36	22.69	-36.7	-37.6	24.1	0.00e+00	0	29	0	385875968	46	6147
2026-01-10 15:03:11.44	18.33	22.84	-36.5	-37.4	24.2	0.00e+00	91	29	0	386924544	46	5997
2026-01-10 15:03:12.45	18.31	22.98	-36.6	-37.4	24.3	0.00e+00	0	29	0	389021696	46	6019
2026-01-10 15:03:13.46	18.28	23.13	-36.4	-37.3	24.3	0.00e+00	0	29	0	391118848	46	5924
2026-01-10 15:03:14.47	18.25	23.28	-36.4	-37.3	24.3	0.00e+00	3	30	0	393216000	46	5909
2026-01-10 15:03:15.48	18.22	23.43	-36.4	-37.2	24.4	0.00e+00	5	29	0	395313152	46	5858
2026-01-10 15:03:16.49	18.19	23.58	-36.3	-37.2	24.4	0.00e+00	91	29	0	396361728	46	5846
2026-01-10 15:03:17.50	18.16	23.73	-36.3	-37.2	24.4	0.00e+00	7	29	0	398458880	46	5838
2026-01-10 15:03:18.51	18.13	23.88	-36.4	-37.2	24.3	0.00e+00	91	29	0	400556032	46	5876
2026-01-10 15:03:19.52	18.10	24.03	-36.5	-37.3	24.3	0.00e+00	8	29	0	402653184	46	5939
2026-01-10 15:03:20.53	18.06	24.19	-36.5	-37.4	24.3	0.00e+00	15	30	0	404750336	46	5983
2026-01-10 15:03:21.54	18.03	24.34	-36.5	-37.4	24.3	0.00e+00	0	29	0	405798912	46	5973
2026-01-10 15:03:22.55	18.00	24.50	-36.5	-37.4	24.3	0.00e+00	71	29	0	407896064	46	5999
2026-01-10 15:03:23.56	17.97	24.65	-36.4	-37.3	24.3	0.00e+00	4	29	0	409993216	46	5919
2026-01-10 15:03:24.57	17.94	24.81	-36.6	-37.4	24.3	0.00e+00	72	29	0	412090368	46	5998
2026-01-10 15:03:25.57	17.90	24.97	-36.5	-37.3	24.2	0.00e+00	90	29	0	414187520	46	5962
2026-01-10 15:03:26.58	17.87	25.13	-36.6	-37.4	24.2	0.00e+00	0	29	0	416284672	46	6031
2026-01-10 15:03:27.59	17.84	25.29	-36.6	-37.5	24.1	0.00e+00	50	29	0	417333248	46	6065
2026-01-10 15:03:28.60	17.80	25.45	-36.8	-37.7	24.0	0.00e+00	2	29	0	419430400	46	6219
2026-01-10 15:03:29.61	17.77	25.61	-36.9	-37.8	24.0	0.00e+00	8	29	0	421527552	46	6285
2026-01-10 15:03:30.62	17.73	25.77	-37.1	-38.0	23.8	0.00e+00	0	29	0	423624704	46	6399
2026-01-10 15:03:31.63	17.70	25.94	-36.8	-37.7	24.0	0.00e+00	7	29	0	425721856	46	6214
2026-01-10 15:03:32.64	17.66	26.10	-36.9	-37.7	24.0	0.00e+00	95	29	0	426770432	46	6235
2026-01-10 15:03:33.65	17.63	26.27	-36.9	-37.8	24.0	0.00e+00	6	29	0	428867584	46	6264
2026-01-10 15:03:34.66	17.59	26.44	-37.0	-37.9	23.8	0.00e+00	92	29	0	430964736	46	6360
2026-01-10 15:03:35.67	17.55	26.61	-37.1	-38.0	23.7	0.00e+00	15	29	0	433061888	46	6456
2026-01-10 15:03:36.68	17.51	26.77	-37.3	-38.3	23.5	0.00e+00	16	30	0	435159040	46	6616
2026-01-10 15:03:37.69	17.48	26.94	-37.4	-38.3	23.5	0.00e+00	0	29	0	436207616	46	6643
2026-01-10 15:03:38.70	17.44	27.12	-37.4	-38.4	23.4	0.00e+00	4	29	0	438304768	46	6696
2026-01-10 15:03:39.71	17.40	27.29	-37.5	-38.5	23.4	0.00e+00	92	30	0	440401920	46	6780
2026-01-10 15:03:40.72	17.36	27.46	-37.7	-38.6	23.3	0.00e+00	65	30	0	442499072	46	6890
2026-01-10 15:03:41.73	17.32	27.64	-37.7	-38.6	23.2	0.00e+00	92	29	0	444596224	46	6910
2026-01-10 15:03:42.74	17.28	27.81	-37.9	-38.9	22.9	0.00e+00	16	29	0	445644800	48	6327
2026-01-10 15:03:43.75	17.24	27.99	-38.0	-38.9	22.9	0.00e+00	15	29	0	447741952	48	6376
2026-01-10 15:03:44.75	17.20	28.17	-38.1	-39.1	22.8	0.00e+00	17	29	0	449839104	48	6501
2026-01-10 15:03:45.76	17.16	28.34	-38.3	-39.3	22.7	0.00e+00	64	30	0	451936256	48	6628
2026-01-10 15:03:46.77	17.11	28.52	-38.4	-39.4	22.5	0.00e+00	13	29	0	454033408	48	6708
2026-01-10 15:03:47.78	17.07	28.71	-38.5	-39.5	22.3	0.00e+00	67	29	0	455081984	48	6828
2026-01-10 15:03:48.79	17.03	28.89	-38.8	-39.9	22.2	0.00e+00	92	30	0	457179136	50	6320
2026-01-10 15:03:49.80	16.98	29.07	-39.0	-40.1	21.8	0.00e+00	67	29	0	459276288	50	6471
2026-01-10 15:03:50.81	16.94	29.26	-39.0	-40.0	21.9	0.00e+00	48	29	0	461373440	50	6442
2026-01-10 15:03:51.82	16.89	29.44	-39.0	-40.1	21.9	0.00e+00	0	29	0	463470592	50	6481
2026-01-10 15:03:52.83	16.85	29.63	-39.2	-40.3	21.7	0.00e+00	0	29	0	464519168	50	6688
2026-01-10 15:03:53.84	16.80	29.82	-39.5	-40.6	21.4	0.00e+00	0	29	0	466616320	50	6880
2026-01-10 15:03:54.85	16.76	30.01	-39.3	-40.4	21.6	0.00e+00	2	29	0	468713472	50	6738
2026-01-10 15:03:55.86	16.71	30.20	-39.3	-40.4	21.7	0.00e+00	92	29	0	470810624	50	6748
2026-01-10 15:03:56.87	16.66	30.39	-39.4	-40.6	21.5	0.00e+00	15	30	0	472907776	50	6851
2026-01-10 15:03:57.88	16.61	30.59	-39.5	-40.6	21.4	0.00e+00	90	29	0	473956352	50	6899
2026-01-10 15:03:58.89	16.56	30.78	-39.6	-40.8	21.2	0.00e+00	2	30	0	476053504	50	7016
2026-01-10 15:03:59.90	16.51	30.98	-39.8	-41.0	21.1	0.00e+00	1	30	0	478150656	52	6440
2026-01-10 15:04:00.89	16.46	31.17	-39.8	-41.0	21.2	0.00e+00	0	29	0	480247808	52	6403
2026-01-10 15:04:01.90	16.41	31.37	-39.9	-41.1	20.9	0.00e+00	16	30	0	482344960	52	6508
2026-01-10 15:04:02.91	16.36	31.57	-39.8	-41.0	21.0	0.00e+00	92	30	0	484442112	52	6394
2026-01-10 15:04:03.92	16.31	31.77	-40.0	-41.2	20.9	0.00e+00	65	30	0	485490688	52	6606
2026-01-10 15:04:04.93	16.25	31.97	-40.2	-41.5	20.7	0.00e+00	92	29	0	487587840	52	6784
2026-01-10 15:04:05.94	16.20	32.18	-40.1	-41.3	20.9	0.00e+00	63	30	0	489684992	52	6670
2026-01-10 15:04:06.95	16.15	32.38	-40.1	-41.4	20.8	0.00e+00	65	29	0	491782144	52	6697
2026-01-10 15:04:07.96	16.09	32.59	-40.2	-41.5	20.6	0.00e+00	64	30	0	493879296	52	6839
2026-01-10 15:04:08.97	16.03	32.80	-40.1	-41.3	20.8	0.00e+00	68	30	0	494927872	52	6673
2026-01-10 15:04:09.98	15.98	33.01	-40.0	-41.2	21.0	0.00e+00	2	30	0	497025024	52	6547
2026-01-10 15:04:10.99	15.92	33.22	-39.9	-41.1	21.0	0.00e+00	0	30	0	499122176	52	6495
2026-01-10 15:04:12.00	15.86	33.43	-39.7	-40.9	21.2	0.00e+00	92	30	0	501219328	52	6366
2026-01-10 15:04:13.01	15.80	33.65	-39.4	-40.6	21.5	0.00e+00	0	30	0	503316480	52	6124
2026-01-10 15:04:14.02	15.74	33.86	-39.6	-40.7	21.3	0.00e+00	66	30	0	504365056	52	6237
2026-01-10 15:04:15.03	15.68	34.08	-39.4	-40.5	21.5	0.00e+00	0	30	0	506462208	52	6093
2026-01-10 15:04:16.04	15.62	34.30	-39.1	-40.2	21.9	0.00e+00	0	30	0	508559360	52	5841
2026-01-10 15:04:17.04	15.55	34.51	-38.9	-40.0	22.1	0.00e+00	0	30	0	510656512	52	5708
2026-01-10 15:04:18.05	15.49	34.74	-38.7	-39.7	22.3	0.00e+00	0	30	0	512753664	50	6221
2026-01-10 15:04:19.06	15.43	34.96	-38.6	-39.6	22.4	0.00e+00	92	30	0	513802240	50	6148
2026-01-10 15:04:20.07	15.36	35.18	-38.6	-39.7	22.5	0.00e+00	0	30	0	515899392	50	6194
2026-01-10 15:04:21.08	15.29	35.41	-38.2	-39.2	22.8	0.00e+00	92	30	0	517996544	50	5865
2026-01-10 15:04:22.09	15.23	35.64	-37.9	-38.8	23.2	0.00e+00	10	30	0	520093696	50	5608
2026-01-10 15:04:23.10	15.16	35.87	-37.8	-38.7	23.2	0.00e+00	0	30	0	522190848	48	6243
2026-01-10 15:04:24.11	15.09	36.10	-37.2	-38.1	23.8	0.00e+00	65	30	0	523239424	48	5803
2026-01-10 15:04:25.12	15.02	36.33	-37.0	-37.8	24.0	0.00e+00	16	30	0	525336576	48	5623
2026-01-10 15:04:26.13	14.95	36.56	-36.8	-37.6	24.1	0.00e+00	68	30	0	527433728	48	5498
2026-01-10 15:04:27.14	14.87	36.80	-36.8	-37.7	24.1	0.00e+00	0	30	0	529530880	46	6193
2026-01-10 15:04:28.15	14.80	37.04	-36.8	-37.6	24.2	0.00e+00	92	30	0	531628032	46	6173
2026-01-10 15:04:29.16	14.72	37.28	-36.6	-37.5	23.8	0.00e+00	65	30	0	532676608	46	6063
2026-01-10 15:04:30.16	14.65	37.52	-36.6	-37.5	24.1	0.00e+00	65	30	0	534773760	46	6064
2026-01-10 15:04:31.17	14.57	37.76	-36.7	-37.5	24.2	0.00e+00	64	30	0	536870912	46	6093
2026-01-10 15:04:32.18	14.49	38.00	-36.6	-37.5	24.3	0.00e+00	63	30	0	538968064	46	6066
2026-01-10 15:04:33.19	14.41	38.25	-36.6	-37.5	24.3	0.00e+00	84	30	0	541065216	46	6053
2026-01-10 15:04:34.20	14.33	38.50	-36.5	-37.4	24.5	0.00e+00	0	30	0	542113792	46	5980
2026-01-10 15:04:35.22	14.25	38.75	-36.4	-37.3	24.5	0.00e+00	92	30	0	544210944	46	5917
2026-01-10 15:04:36.22	14.16	39.00	-36.8	-37.6	24.3	0.00e+00	0	30	0	546308096	46	6158
2026-01-10 15:04:37.24	14.08	39.25	-36.9	-37.7	24.1	0.00e+00	78	30	0	548405248	46	6226
2026-01-10 15:04:38.24	13.99	39.50	-36.9	-37.8	24.0	0.00e+00	0	30	0	550502400	46	6287
2026-01-10 15:04:39.26	13.90	39.76	-37.2	-38.1	23.8	0.00e+00	16	30	0	552599552	46	6466
2026-01-10 15:04:40.27	13.81	40.02	-37.4	-38.3	23.6	0.00e+00	0	30	0	553648128	46	6677
2026-01-10 15:04:41.28	13.72	40.28	-37.6	-38.5	23.4	0.00e+00	14	30	0	555745280	46	6803
2026-01-10 15:04:42.29	13.63	40.54	-37.6	-38.5	23.4	0.00e+00	92	30	0	557842432	46	6823
2026-01-10 15:04:43.30	13.53	40.81	-37.7	-38.7	23.2	0.00e+00	0	30	0	559939584	48	6179
2026-01-10 15:04:44.31	13.44	41.07	-37.9	-38.9	23.1	0.00e+00	92	30	0	560988160	48	6347
2026-01-10 15:04:45.32	13.34	41.34	-38.0	-39.0	23.1	0.00e+00	12	30	0	563085312	48	6404
2026-01-10 15:04:46.33	13.24	41.61	-38.1	-39.0	23.1	0.00e+00	9	30	0	565182464	48	6448
2026-01-10 15:04:47.34	13.14	41.88	-38.1	-39.1	22.9	0.00e+00	70	30	0	567279616	48	6502
2026-01-10 15:04:48.34	13.04	42.15	-38.2	-39.1	22.9	0.00e+00	10	30	0	569376768	48	6536
2026-01-10 15:04:49.35	12.93	42.43	-38.5	-39.5	22.5	0.00e+00	12	30	0	570425344	48	6820
2026-01-10 15:04:50.36	12.83	42.71	-38.6	-39.7	22.4	0.00e+00	0	30	0	572522496	48	6930
2026-01-10 15:04:51.37	12.72	42.98	-38.8	-39.9	22.1	0.00e+00	90	30	0	574619648	50	6335
2026-01-10 15:04:52.38	12.61	43.27	-38.9	-39.9	22.2	0.00e+00	72	30	0	576716800	50	6388
2026-01-10 15:04:53.39	12.50	43.55	-38.8	-39.9	22.1	0.00e+00	92	30	0	578813952	50	6325
2026-01-10 15:04:54.40	12.38	43.83	-38.9	-40.0	22.1	0.00e+00	3	30	0	580911104	50	6419
2026-01-10 15:04:55.41	12.27	44.12	-39.1	-40.1	21.7	0.00e+00	5	30	0	581959680	50	6534
2026-01-10 15:04:56.42	12.15	44.41	-39.2	-40.2	21.7	0.00e+00	13	30	0	584056832	50	6602
2026-01-10 15:04:57.43	12.03	44.70	-38.8	-39.8	22.2	0.00e+00	0	30	0	586153984	50	6312
2026-01-10 15:04:58.44	11.90	44.99	-38.8	-39.8	22.2	0.00e+00	90	30	0	588251136	50	6307
2026-01-10 15:04:59.45	11.78	45.29	-38.9	-40.0	22.0	0.00e+00	0	30	0	590348288	50	6415
2026-01-10 15:05:00.46	11.65	45.59	-39.0	-40.1	22.0	0.00e+00	15	30	0	591396864	50	6471
2026-01-10 15:05:01.47	11.52	45.89	-38.9	-40.0	22.0	0.00e+00	17	30	0	593494016	50	6439
2026-01-10 15:05:02.48	11.39	46.19	-38.9	-39.9	22.2	0.00e+00	7	30	0	595591168	50	6372
2026-01-10 15:05:03.49	11.25	46.49	-39.2	-40.3	21.8	0.00e+00	0	30	0	597688320	50	6666
2026-01-10 15:05:04.50	11.11	46.80	-39.4	-40.6	21.5	0.00e+00	17	30	0	599785472	50	6868
2026-01-10 15:05:05.51	10.97	47.10	-40.0	-41.2	21.1	0.00e+00	92	30	0	600834048	52	6552
2026-01-10 15:05:06.52	10.82	47.41	-40.3	-41.6	20.7	0.00e+00	17	30	0	602931200	52	6886
2026-01-10 15:05:07.53	10.68	47.72	-40.6	-42.0	20.1	0.00e+00	92	30	0	605028352	52	7189
2026-01-10 15:05:08.54	10.53	48.04	-41.3	-42.8	19.6	0.00e+00	16	30	0	607125504	54	7010
2026-01-10 15:05:09.55	10.37	48.35	-41.2	-42.7	19.6	0.00e+00	17	30	0	609222656	54	6967
2026-01-10 15:05:10.56	10.22	48.67	-40.9	-42.3	19.9	0.00e+00	70	30	0	610271232	54	6635
2026-01-10 15:05:11.57	10.06	48.99	-40.3	-41.6	20.7	0.00e+00	69	30	0	612368384	54	6129
2026-01-10 15:05:12.58	9.89	49.31	-40.3	-41.6	20.8	0.00e+00	92	30	0	614465536	54	6104
2026-01-10 15:05:13.58	9.73	49.63	-39.9	-41.1	21.0	0.00e+00	0	30	0	616562688	54	5803
2026-01-10 15:05:14.59	9.56	49.96	-38.8	-39.8	22.3	0.00e+00	92	30	0	618659840	52	5620
2026-01-10 15:05:15.60	9.38	50.29	-38.6	-39.6	22.5	0.00e+00	75	30	0	619708416	50	6170
2026-01-10 15:05:16.61	9.20	50.62	-37.4	-38.3	23.7	0.00e+00	7	30	0	621805568	48	5914
2026-01-10 15:05:17.62	9.02	50.95	-36.8	-37.7	24.1	0.00e+00	0	30	0	623902720	48	5533
2026-01-10 15:05:18.63	8.83	51.28	-36.3	-37.1	24.7	0.00e+00	0	30	0	625999872	46	5805
2026-01-10 15:05:19.64	8.64	51.62	-36.1	-36.9	24.8	0.00e+00	0	30	0	628097024	46	5674
2026-01-10 15:05:20.65	8.45	51.96	-36.0	-36.8	24.8	0.00e+00	0	30	0	629145600	46	5587
2026-01-10 15:05:21.66	8.25	52.30	-36.2	-37.0	24.7	0.00e+00	91	30	0	631242752	46	5742
2026-01-10 15:05:22.67	8.04	52.64	-36.1	-36.9	24.7	0.00e+00	12	30	0	633339904	46	5686
2026-01-10 15:05:23.68	7.83	52.99	-35.8	-36.6	25.0	0.00e+00	16	30	0	635437056	46	5487
2026-01-10 15:05:24.69	7.62	53.33	-35.9	-36.7	24.9	0.00e+00	5	30	0	637534208	46	5539
2026-01-10 15:05:25.70	7.40	53.68	-36.0	-36.8	24.8	0.00e+00	17	30	0	638582784	46	5619
2026-01-10 15:05:26.71	7.17	54.03	-36.0	-36.8	24.9	0.00e+00	14	30	0	640679936	46	5578
2026-01-10 15:05:27.72	6.94	54.38	-35.7	-36.4	25.2	0.00e+00	19	30	0	642777088	44	6032
2026-01-10 15:05:28.73	6.70	54.74	-35.4	-36.1	25.3	0.00e+00	92	30	0	644874240	44	5821
2026-01-10 15:05:29.74	6.46	55.09	-35.7	-36.5	25.1	0.00e+00	64	30	0	646971392	44	6080
2026-01-10 15:05:30.75	6.21	55.45	-36.1	-36.9	24.6	0.00e+00	92	30	0	649068544	44	6368
2026-01-10 15:05:31.76	5.95	55.81	-36.6	-37.5	24.2	0.00e+00	0	30	0	650117120	44	6797
2026-01-10 15:05:32.77	5.69	56.17	-37.1	-37.9	23.9	0.00e+00	64	30	0	652214272	46	6371
2026-01-10 15:05:33.78	5.42	56.54	-37.8	-38.8	23.2	0.00e+00	63	30	0	654311424	48	6279
2026-01-10 15:05:34.79	5.14	56.90	-38.3	-39.3	22.7	0.00e+00	65	30	0	656408576	48	6667
2026-01-10 15:05:35.80	4.86	57.27	-38.6	-39.6	22.4	0.00e+00	89	30	0	658505728	48	6898
2026-01-10 15:05:36.81	4.56	57.64	-38.7	-39.8	22.3	0.00e+00	0	30	0	659554304	50	6257
2026-01-10 15:05:37.82	4.26	58.01	-39.3	-40.4	21.7	0.00e+00	90	30	0	661651456	50	6754
2026-01-10 15:05:38.83	3.95	58.38	-39.8	-41.0	21.2	0.00e+00	0	30	0	663748608	52	6398
2026-01-10 15:05:39.84	3.63	58.75	-39.4	-40.5	21.7	0.00e+00	0	30	0	665845760	52	6097
2026-01-10 15:05:40.85	3.31	59.13	-38.9	-39.9	22.1	0.00e+00	0	30	0	667942912	52	5674
2026-01-10 15:05:41.86	2.97	59.50	-38.8	-39.9	22.2	0.00e+00	17	30	0	668991488	50	6318
2026-01-10 15:05:42.87	2.62	59.88	-37.7	-38.6	23.4	0.00e+00	17	30	0	671088640	48	6120
2026-01-10 15:05:43.88	2.26	60.26	-37.0	-37.8	24.0	0.00e+00	18	30	0	673185792	48	5623
2026-01-10 15:05:44.89	1.89	60.64	-36.9	-37.8	24.0	0.00e+00	90	30	0	675282944	48	5572
2026-01-10 15:05:45.90	1.51	61.02	-36.1	-37.0	24.7	0.00e+00	13	30	0	677380096	46	5708
2026-01-10 15:05:46.91	1.12	61.40	-35.8	-36.6	25.1	0.00e+00	90	30	0	678428672	46	5440
2026-01-10 15:05:47.92	0.72	61.79	-35.1	-35.9	25.6	0.00e+00	68	30	0	680525824	44	5643
2026-01-10 15:05:48.93	0.30	62.17	-34.9	-35.6	25.7	0.00e+00	70	30	0	682622976	44	5502
2026-01-10 15:05:49.94	359.87	62.56	-35.4	-36.2	25.4	0.00e+00	0	30	0	684720128	44	5861
2026-01-10 15:05:50.95	359.42	62.94	-35.8	-36.6	25.0	0.00e+00	12	30	0	686817280	44	6134
2026-01-10 15:05:51.96	358.96	63.33	-36.0	-36.8	24.7	0.00e+00	91	30	0	688914432	44	6287
2026-01-10 15:05:52.97	358.49	63.71	-35.8	-36.6	24.9	0.00e+00	69	30	0	689963008	44	6166
2026-01-10 15:05:53.98	358.00	64.10	-36.0	-36.8	24.9	0.00e+00	92	30	0	692060160	44	6292
2026-01-10 15:05:55.00	357.48	64.49	-36.1	-36.9	24.7	0.00e+00	0	30	0	694157312	44	6359
2026-01-10 15:05:56.01	356.96	64.88	-36.2	-37.0	24.7	0.00e+00	2	30	0	696254464	44	6416
2026-01-10 15:05:57.01	356.42	65.26	-36.3	-37.1	24.5	0.00e+00	0	30	0	698351616	44	6533
2026-01-10 15:05:58.02	355.85	65.65	-36.4	-37.2	24.2	0.00e+00	0	30	0	699400192	44	6586
2026-01-10 15:05:59.03	355.27	66.04	-36.8	-37.7	24.0	0.00e+00	90	30	0	701497344	44	6962
2026-01-10 15:06:00.04	354.67	66.43	-37.6	-38.6	23.3	0.00e+00	0	30	0	703594496	46	6858
2026-01-10 15:06:01.05	354.04	66.81	-38.3	-39.2	22.8	0.00e+00	90	30	0	705691648	48	6613
2026-01-10 15:06:02.05	353.39	67.19	-38.5	-39.6	22.4	0.00e+00	0	30	0	706740224	48	6859
2026-01-10 15:06:03.06	352.72	67.58	-38.5	-39.6	22.2	0.00e+00	0	30	0	708837376	48	6879
2026-01-10 15:06:04.07	352.02	67.96	-38.6	-39.6	22.4	0.00e+00	19	30	0	710934528	48	6908
2026-01-10 15:06:05.08	351.29	68.34	-37.9	-38.9	22.9	0.00e+00	0	30	0	713031680	48	6357
2026-01-10 15:06:06.09	350.53	68.72	-37.8	-38.8	23.1	0.00e+00	20	30	0	715128832	48	6252
2026-01-10 15:06:07.10	349.74	69.10	-37.8	-38.8	23.2	0.00e+00	0	30	0	717225984	48	6266
2026-01-10 15:06:08.11	348.93	69.47	-37.3	-38.2	23.6	0.00e+00	92	30	0	718274560	48	5891
2026-01-10 15:06:09.12	348.07	69.85	-37.0	-37.8	23.8	0.00e+00	62	30	0	720371712	48	5626
2026-01-10 15:06:10.13	347.19	70.22	-36.8	-37.7	24.0	0.00e+00	92	30	0	722468864	48	5552
2026-01-10 15:06:11.14	346.27	70.58	-36.4	-37.3	24.5	0.00e+00	0	30	0	724566016	46	5910
2026-01-10 15:06:12.15	345.31	70.95	-36.1	-36.9	24.8	0.00e+00	63	30	0	726663168	46	5653
2026-01-10 15:06:13.16	344.31	71.31	-35.9	-36.7	24.8	0.00e+00	0	30	0	727711744	46	5564
2026-01-10 15:06:14.17	343.27	71.66	-36.4	-37.2	23.9	0.00e+00	2	30	0	729808896	46	5882
2026-01-10 15:06:15.18	342.19	72.01	-36.5	-37.4	24.3	0.00e+00	92	30	0	731906048	46	5966
2026-01-10 15:06:16.19	341.06	72.36	-36.3	-37.1	24.5	0.00e+00	66	30	0	734003200	46	5807
2026-01-10 15:06:17.20	339.88	72.69	-37.3	-38.2	23.6	0.00e+00	90	30	0	736100352	46	6608
2026-01-10 15:06:18.20	338.67	73.02	-38.3	-39.3	22.7	0.00e+00	2	30	0	737148928	48	6681
2026-01-10 15:06:19.21	337.39	73.35	-38.0	-39.0	22.8	0.00e+00	0	30	0	739246080	48	6450
2026-01-10 15:06:20.22	336.06	73.67	-37.5	-38.4	23.4	0.00e+00	0	30	0	741343232	48	6012
2026-01-10 15:06:21.23	334.68	73.98	-37.6	-38.6	23.3	0.00e+00	0	30	0	743440384	48	6116
2026-01-10 15:06:22.24	333.24	74.28	-38.0	-39.0	23.0	0.00e+00	82	30	0	745537536	48	6417
2026-01-10 15:06:23.25	331.74	74.57	-38.7	-39.7	22.5	0.00e+00	0	30	0	746586112	48	6942
2026-01-10 15:06:24.26	330.18	74.86	-39.0	-40.0	22.0	0.00e+00	91	30	0	748683264	50	6452
2026-01-10 15:06:25.27	328.56	75.13	-38.9	-40.0	22.1	0.00e+00	16	30	0	750780416	50	6391
2026-01-10 15:06:26.28	326.88	75.39	-39.0	-40.1	22.0	0.00e+00	38	30	0	752877568	50	6474
2026-01-10 15:06:27.29	325.14	75.64	-39.6	-40.8	21.2	0.00e+00	0	30	0	754974720	50	7045
2026-01-10 15:06:28.30	323.34	75.87	-39.5	-40.7	21.4	0.00e+00	0	30	0	756023296	52	6215
2026-01-10 15:06:29.31	321.47	76.10	-39.2	-40.4	21.6	0.00e+00	15	30	0	758120448	52	5984
2026-01-10 15:06:30.32	319.54	76.30	-39.7	-41.0	21.2	0.00e+00	64	30	0	760217600	52	6397
2026-01-10 15:06:31.33	317.56	76.50	-40.0	-41.3	20.9	0.00e+00	92	30	0	762314752	52	6646
2026-01-10 15:06:32.34	315.52	76.67	-40.1	-41.4	20.7	0.00e+00	18	30	0	764411904	52	6723
2026-01-10 15:06:33.34	313.44	76.83	-40.1	-41.4	20.7	0.00e+00	90	30	0	765460480	52	6699
2026-01-10 15:06:34.35	311.29	76.97	-39.3	-40.5	21.7	0.00e+00	0	30	0	767557632	52	6047
2026-01-10 15:06:35.36	309.10	77.10	-39.7	-40.9	21.0	0.00e+00	0	30	0	769654784	52	6327
2026-01-10 15:06:36.37	306.87	77.20	-40.8	-42.3	19.8	0.00e+00	67	30	0	771751936	54	6657
2026-01-10 15:06:37.38	304.60	77.29	-41.3	-42.8	19.5	0.00e+00	63	30	0	773849088	54	7058
2026-01-10 15:06:38.39	302.30	77.36	-40.2	-41.5	20.8	0.00e+00	92	30	0	774897664	54	6040
2026-01-10 15:06:39.40	299.99	77.40	-39.9	-41.1	21.0	0.00e+00	0	30	0	776994816	54	5773
2026-01-10 15:06:40.41	297.66	77.43	-39.8	-41.0	21.1	0.00e+00	91	30	0	779091968	54	5703
2026-01-10 15:06:41.42	295.32	77.44	-39.8	-41.0	21.1	0.00e+00	0	30	0	781189120	52	6426
2026-01-10 15:06:42.43	292.98	77.42	-39.8	-40.9	21.1	0.00e+00	5	30	0	783286272	52	6389
2026-01-10 15:06:43.44	290.65	77.39	-39.0	-40.1	21.7	0.00e+00	4	30	0	785383424	52	5783
2026-01-10 15:06:44.45	288.34	77.33	-39.4	-40.6	21.5	0.00e+00	0	30	0	786432000	52	6110
2026-01-10 15:06:45.46	286.06	77.26	-39.7	-40.8	21.4	0.00e+00	91	30	0	788529152	52	6312
2026-01-10 15:06:46.47	283.80	77.16	-39.2	-40.3	21.8	0.00e+00	10	30	0	790626304	52	5930
2026-01-10 15:06:47.48	281.58	77.05	-38.5	-39.6	22.5	0.00e+00	91	30	0	792723456	50	6119
2026-01-10 15:06:48.50	279.39	76.92	-38.5	-39.5	22.4	0.00e+00	11	30	0	794820608	50	6051
2026-01-10 15:06:49.51	277.26	76.77	-39.2	-40.3	21.6	0.00e+00	92	30	0	795869184	50	6669
2026-01-10 15:06:50.52	275.19	76.60	-39.9	-41.1	21.1	0.00e+00	75	30	0	797966336	52	6478
2026-01-10 15:06:51.53	273.16	76.42	-40.5	-41.8	20.3	0.00e+00	71	30	0	800063488	52	7057
2026-01-10 15:06:52.53	271.22	76.22	-41.0	-42.4	19.8	0.00e+00	0	30	0	802160640	54	6737
2026-01-10 15:06:53.54	269.32	76.01	-40.9	-42.3	19.9	0.00e+00	74	30	0	804257792	54	6626
2026-01-10 15:06:54.55	267.48	75.78	-40.8	-42.1	20.1	0.00e+00	91	30	0	805306368	54	6526
2026-01-10 15:06:55.56	265.70	75.54	-40.5	-41.8	20.3	0.00e+00	2	30	0	807403520	54	6300
2026-01-10 15:06:56.57	263.98	75.28	-40.2	-41.4	20.7	0.00e+00	92	30	0	809500672	54	5994
2026-01-10 15:06:57.58	262.32	75.02	-40.0	-41.2	20.7	0.00e+00	0	30	0	811597824	54	5873
2026-01-10 15:06:58.59	260.73	74.74	-40.6	-42.0	20.2	0.00e+00	68	30	0	813694976	54	6399
2026-01-10 15:06:59.60	259.19	74.45	-40.0	-41.2	20.8	0.00e+00	0	30	0	814743552	54	5852
2026-01-10 15:07:00.61	257.72	74.16	-39.4	-40.6	21.6	0.00e+00	2	30	0	816840704	52	6115
2026-01-10 15:07:01.62	256.30	73.85	-39.6	-40.8	21.4	0.00e+00	92	30	0	818937856	52	6269
2026-01-10 15:07:02.63	254.94	73.54	-39.1	-40.2	21.8	0.00e+00	2	30	0	821035008	52	5870
2026-01-10 15:07:03.64	253.63	73.21	-39.6	-40.8	21.3	0.00e+00	92	30	0	823132160	52	6260
2026-01-10 15:07:04.64	252.39	72.89	-39.1	-40.2	21.9	0.00e+00	5	30	0	824180736	52	5875
2026-01-10 15:07:05.65	251.18	72.55	-38.7	-39.8	22.2	0.00e+00	2	30	0	826277888	50	6269
2026-01-10 15:07:06.66	250.02	72.21	-38.0	-39.0	22.9	0.00e+00	0	30	0	828375040	50	5697
2026-01-10 15:07:07.67	248.91	71.86	-37.6	-38.5	23.4	0.00e+00	17	30	0	830472192	48	6067
2026-01-10 15:07:08.68	247.84	71.51	-37.6	-38.6	23.3	0.00e+00	71	30	0	832569344	48	6124
2026-01-10 15:07:09.69	246.82	71.16	-37.8	-38.7	23.2	0.00e+00	4	30	0	833617920	48	6222
2026-01-10 15:07:10.70	245.84	70.79	-38.0	-38.9	23.0	0.00e+00	92	30	0	835715072	48	6383
2026-01-10 15:07:11.71	244.89	70.43	-38.5	-39.5	22.5	0.00e+00	16	30	0	837812224	48	6808
2026-01-10 15:07:12.72	243.99	70.06	-39.2	-40.3	21.6	0.00e+00	63	30	0	839909376	50	6680
2026-01-10 15:07:13.73	243.11	69.69	-39.6	-40.8	21.5	0.00e+00	17	30	0	842006528	50	7028
2026-01-10 15:07:14.74	242.28	69.31	-39.5	-40.6	21.5	0.00e+00	16	30	0	843055104	50	6906
2026-01-10 15:07:15.75	241.47	68.94	-39.5	-40.7	21.5	0.00e+00	0	30	0	845152256	50	6947
2026-01-10 15:07:16.76	240.70	68.56	-39.7	-40.8	21.2	0.00e+00	70	30	0	847249408	50	7087
2026-01-10 15:07:17.77	239.95	68.18	-39.4	-40.6	21.4	0.00e+00	92	30	0	849346560	50	6851
2026-01-10 15:07:18.78	239.23	67.79	-39.1	-40.2	21.7	0.00e+00	0	30	0	851443712	50	6543
2026-01-10 15:07:19.79	238.54	67.41	-38.7	-39.7	22.3	0.00e+00	92	30	0	853540864	50	6205
2026-01-10 15:07:20.80	237.87	67.03	-38.4	-39.4	22.7	0.00e+00	0	30	0	854589440	50	5977
2026-01-10 15:07:21.81	237.23	66.64	-38.4	-39.4	22.5	0.00e+00	0	30	0	856686592	50	5976
2026-01-10 15:07:22.83	236.61	66.25	-37.9	-38.8	23.1	0.00e+00	2	30	0	858783744	50	5588
2026-01-10 15:07:23.84	236.01	65.86	-37.7	-38.7	23.3	0.00e+00	0	30	0	860880896	50	5504
2026-01-10 15:07:24.85	235.44	65.47	-37.4	-38.3	23.5	0.00e+00	92	30	0	862978048	48	5914
2026-01-10 15:07:25.85	234.88	65.09	-37.0	-37.9	23.8	0.00e+00	0	30	0	864026624	48	5636
2026-01-10 15:07:26.87	234.34	64.70	-36.8	-37.6	24.3	0.00e+00	92	30	0	866123776	48	5488
2026-01-10 15:07:27.87	233.83	64.31	-35.8	-36.6	25.0	0.00e+00	16	30	0	868220928	46	5464
2026-01-10 15:07:28.89	233.32	63.92	-35.6	-36.4	25.2	0.00e+00	16	30	0	870318080	44	5984
2026-01-10 15:07:29.89	232.84	63.53	-34.8	-35.5	25.8	0.00e+00	15	30	0	872415232	44	5419
2026-01-10 15:07:30.90	232.37	63.15	-35.1	-35.8	25.7	0.00e+00	0	30	0	873463808	42	6304
2026-01-10 15:07:31.92	231.92	62.76	-35.4	-36.2	25.3	0.00e+00	92	30	0	875560960	42	6544
2026-01-10 15:07:32.93	231.48	62.37	-36.1	-36.9	24.8	0.00e+00	18	30	0	877658112	44	6351
2026-01-10 15:07:33.94	231.05	61.98	-36.2	-37.1	24.6	0.00e+00	92	30	0	879755264	44	6481
2026-01-10 15:07:34.95	230.64	61.60	-36.4	-37.2	24.5	0.00e+00	17	30	0	881852416	44	6586
2026-01-10 15:07:35.96	230.24	61.22	-36.9	-37.8	24.0	0.00e+00	92	30	0	882900992	46	6251
2026-01-10 15:07:36.97	229.85	60.83	-37.4	-38.4	23.5	0.00e+00	2	30	0	884998144	46	6697
2026-01-10 15:07:37.98	229.48	60.45	-37.9	-38.9	22.8	0.00e+00	66	30	0	887095296	48	6344
2026-01-10 15:07:38.99	229.11	60.07	-39.3	-40.5	21.5	0.00e+00	17	30	0	889192448	50	6790
2026-01-10 15:07:39.99	228.76	59.70	-40.6	-42.0	20.3	0.00e+00	67	30	0	891289600	52	7222
2026-01-10 15:07:41.00	228.42	59.32	-41.1	-42.6	19.7	0.00e+00	90	30	0	892338176	54	6849
2026-01-10 15:07:42.01	228.08	58.94	-41.6	-43.2	19.0	0.00e+00	2	30	0	894435328	54	7377
2026-01-10 15:07:43.03	227.76	58.56	-41.1	-42.6	19.6	0.00e+00	91	30	0	896532480	54	6903
2026-01-10 15:07:44.04	227.44	58.19	-40.8	-42.2	20.1	0.00e+00	0	30	0	898629632	54	6549
2026-01-10 15:07:45.05	227.14	57.82	-40.8	-42.2	20.0	0.00e+00	0	30	0	900726784	54	6578
2026-01-10 15:07:46.05	226.84	57.45	-40.8	-42.2	20.1	0.00e+00	0	30	0	901775360	54	6583
2026-01-10 15:07:47.07	226.55	57.08	-40.3	-41.6	20.6	0.00e+00	2	30	0	903872512	54	6119
2026-01-10 15:07:48.08	226.27	56.71	-40.1	-41.3	20.9	0.00e+00	92	30	0	905969664	54	5927
2026-01-10 15:07:49.08	225.99	56.35	-39.5	-40.6	21.5	0.00e+00	11	30	0	908066816	52	6138
2026-01-10 15:07:50.09	225.73	55.99	-38.7	-39.7	22.3	0.00e+00	92	30	0	910163968	52	5537
2026-01-10 15:07:51.11	225.46	55.62	-38.0	-39.0	23.0	0.00e+00	71	30	0	912261120	50	5707
2026-01-10 15:07:52.12	225.21	55.26	-37.8	-38.7	23.1	0.00e+00	11	30	0	913309696	50	5559
2026-01-10 15:07:53.13	224.96	54.90	-37.8	-38.8	23.2	0.00e+00	12	30	0	915406848	48	6246
2026-01-10 15:07:54.14	224.72	54.55	-37.9	-38.9	23.0	0.00e+00	0	30	0	917504000	48	6329
2026-01-10 15:07:55.14	224.49	54.20	-37.5	-38.4	23.6	0.00e+00	90	30	0	919601152	48	6015
2026-01-10 15:07:56.16	224.26	53.84	-36.7	-37.6	24.2	0.00e+00	65	30	0	921698304	46	6144
2026-01-10 15:07:57.17	224.03	53.49	-36.8	-37.7	24.3	0.00e+00	92	30	0	922746880	46	6182
2026-01-10 15:07:58.18	223.81	53.14	-36.2	-37.0	24.7	0.00e+00	64	30	0	924844032	46	5737
2026-01-10 15:07:59.19	223.60	52.80	-36.4	-37.2	24.6	0.00e+00	83	30	0	926941184	46	5870
2026-01-10 15:08:00.20	223.39	52.45	-36.4	-37.2	24.4	0.00e+00	0	30	0	929038336	46	5851
2026-01-10 15:08:01.20	223.19	52.11	-36.5	-37.4	24.5	0.00e+00	67	30	0	931135488	46	5987
2026-01-10 15:08:02.21	222.99	51.77	-36.8	-37.7	24.2	0.00e+00	12	30	0	932184064	46	6192
2026-01-10 15:08:03.22	222.80	51.43	-37.5	-38.4	23.6	0.00e+00	0	30	0	934281216	46	6746
2026-01-10 15:08:04.23	222.61	51.10	-37.9	-38.9	23.0	0.00e+00	90	30	0	936378368	48	6343
2026-01-10 15:08:05.24	222.42	50.76	-38.0	-39.0	23.0	0.00e+00	0	30	0	938475520	48	6425
2026-01-10 15:08:06.25	222.24	50.43	-38.0	-39.0	23.0	0.00e+00	90	30	0	940572672	48	6424
2026-01-10 15:08:07.26	222.07	50.10	-38.8	-39.9	22.2	0.00e+00	0	30	0	941621248	48	7121
2026-01-10 15:08:08.27	221.89	49.77	-39.2	-40.3	21.8	0.00e+00	0	30	0	943718400	50	6663
2026-01-10 15:08:09.28	221.72	49.45	-39.4	-40.5	21.7	0.00e+00	0	30	0	945815552	50	6792
2026-01-10 15:08:10.29	221.56	49.12	-39.1	-40.2	21.9	0.00e+00	0	30	0	947912704	50	6562
2026-01-10 15:08:11.30	221.39	48.80	-39.4	-40.5	21.6	0.00e+00	92	30	0	950009856	50	6832
2026-01-10 15:08:12.31	221.24	48.48	-39.7	-40.8	21.3	0.00e+00	67	30	0	951058432	50	7072
2026-01-10 15:08:13.32	221.08	48.16	-39.7	-40.9	21.2	0.00e+00	92	30	0	953155584	52	6367
2026-01-10 15:08:14.33	220.93	47.85	-39.6	-40.8	21.2	0.00e+00	13	30	0	955252736	52	6271
2026-01-10 15:08:15.34	220.78	47.53	-39.8	-41.0	20.9	0.00e+00	37	30	0	957349888	52	6411
2026-01-10 15:08:16.35	220.63	47.22	-39.7	-40.9	21.2	0.00e+00	71	30	0	959447040	52	6333
2026-01-10 15:08:17.36	220.49	46.91	-39.5	-40.6	21.4	0.00e+00	6	30	0	961544192	52	6154
2026-01-10 15:08:18.37	220.35	46.61	-39.3	-40.4	21.7	0.00e+00	92	30	0	962592768	52	6004
2026-01-10 15:08:19.38	220.21	46.30	-39.3	-40.5	21.6	0.00e+00	0	30	0	964689920	52	6039
2026-01-10 15:08:20.39	220.08	46.00	-39.4	-40.6	21.7	0.00e+00	91	30	0	966787072	52	6108
2026-01-10 15:08:21.40	219.94	45.70	-39.4	-40.5	21.6	0.00e+00	0	30	0	968884224	52	6084
2026-01-10 15:08:22.40	219.81	45.40	-39.4	-40.5	21.5	0.00e+00	90	30	0	969932800	52	6069
2026-01-10 15:08:23.41	219.69	45.10	-39.4	-40.6	21.7	0.00e+00	0	30	0	972029952	52	6108
2026-01-10 15:08:24.42	219.56	44.81	-39.2	-40.4	21.8	0.00e+00	5	30	0	974127104	52	5981
2026-01-10 15:08:25.43	219.44	44.51	-39.6	-40.7	21.4	0.00e+00	0	30	0	976224256	52	6243
2026-01-10 15:08:26.44	219.32	44.22	-40.0	-41.2	21.0	0.00e+00	6	30	0	978321408	52	6609
2026-01-10 15:08:27.45	219.20	43.93	-40.5	-41.9	20.4	0.00e+00	92	30	0	979369984	52	7104
2026-01-10 15:08:28.46	219.08	43.65	-40.5	-41.9	20.4	0.00e+00	6	30	0	981467136	52	7100
2026-01-10 15:08:29.47	218.97	43.36	-40.5	-41.9	20.2	0.00e+00	90	30	0	983564288	52	7119
2026-01-10 15:08:30.48	218.86	43.08	-40.8	-42.3	20.0	0.00e+00	14	30	0	985661440	54	6623
2026-01-10 15:08:31.49	218.75	42.80	-40.5	-41.9	20.3	0.00e+00	5	30	0	987758592	54	6372
2026-01-10 15:08:32.50	218.64	42.52	-40.5	-41.9	20.4	0.00e+00	2	30	0	989855744	54	6319
2026-01-10 15:08:33.50	218.54	42.25	-40.2	-41.4	20.8	0.00e+00	5	30	0	990904320	54	6029
2026-01-10 15:08:34.51	218.43	41.97	-40.0	-41.2	21.0	0.00e+00	92	30	0	993001472	54	5883
2026-01-10 15:08:35.52	218.33	41.70	-39.7	-40.9	21.1	0.00e+00	71	30	0	995098624	54	5669
2026-01-10 15:08:36.53	218.23	41.43	-39.6	-40.8	21.3	0.00e+00	90	30	0	997195776	52	6291
2026-01-10 15:08:37.54	218.13	41.16	-39.6	-40.8	21.3	0.00e+00	15	30	0	999292928	52	6278
2026-01-10 15:08:38.55	218.03	40.89	-39.8	-41.0	21.2	0.00e+00	47	30	0	1000341504	52	6421
2026-01-10 15:08:39.56	217.94	40.62	-39.8	-41.0	21.1	0.00e+00	0	30	0	1002438656	52	6464
2026-01-10 15:08:40.57	217.84	40.36	-40.2	-41.5	20.8	0.00e+00	0	30	0	1004535808	52	6815
2026-01-10 15:08:41.59	217.75	40.09	-40.3	-41.6	20.8	0.00e+00	0	30	0	1006632960	52	6890
2026-01-10 15:08:42.60	217.66	39.83	-40.2	-41.5	20.9	0.00e+00	71	30	0	1008730112	52	6793
2026-01-10 15:08:43.61	217.57	39.58	-40.1	-41.4	21.0	0.00e+00	91	30	0	1009778688	52	6726
2026-01-10 15:08:44.62	217.48	39.32	-40.1	-41.3	21.0	0.00e+00	0	30	0	1011875840	52	6643
2026-01-10 15:08:45.62	217.40	39.07	-39.8	-40.9	21.3	0.00e+00	92	30	0	1013972992	52	6390
2026-01-10 15:08:46.64	217.31	38.81	-39.9	-41.1	21.1	0.00e+00	0	30	0	1016070144	52	6536
2026-01-10 15:08:47.65	217.23	38.56	-39.7	-40.9	21.4	0.00e+00	7	30	0	1018167296	52	6364
2026-01-10 15:08:48.66	217.15	38.31	-39.7	-40.8	21.4	0.00e+00	15	30	0	1019215872	52	6295
2026-01-10 15:08:49.67	217.06	38.06	-39.3	-40.4	21.8	0.00e+00	9	30	0	1021313024	52	5972
2026-01-10 15:08:50.68	216.98	37.82	-38.9	-40.0	22.2	0.00e+00	92	30	0	1023410176	52	5719
2026-01-10 15:08:51.69	216.91	37.57	-39.0	-40.1	22.0	0.00e+00	7	30	0	1025507328	52	5808
2026-01-10 15:08:52.70	216.83	37.33	-39.3	-40.4	21.7	0.00e+00	92	30	0	1027604480	52	5993
2026-01-10 15:08:53.71	216.75	37.09	-39.2	-40.3	21.9	0.00e+00	71	30	0	1029701632	52	5956
2026-01-10 15:08:54.72	216.68	36.85	-39.2	-40.3	21.8	0.00e+00	69	30	0	1030750208	52	5940
2026-01-10 15:08:55.73	216.60	36.61	-39.0	-40.1	22.0	0.00e+00	81	30	0	1032847360	52	5767
2026-01-10 15:08:56.74	216.53	36.38	-38.7	-39.8	22.3	0.00e+00	14	30	0	1034944512	50	6259
2026-01-10 15:08:57.75	216.46	36.14	-38.6	-39.6	22.6	0.00e+00	92	30	0	1037041664	50	6112
2026-01-10 15:08:58.76	216.39	35.91	-38.6	-39.6	22.6	0.00e+00	69	30	0	1039138816	50	6111
2026-01-10 15:08:59.77	216.32	35.68	-38.4	-39.4	22.6	0.00e+00	92	30	0	1040187392	50	6028
2026-01-10 15:09:00.78	216.25	35.45	-38.6	-39.6	22.5	0.00e+00	0	30	0	1042284544	50	6121
2026-01-10 15:09:01.79	216.18	35.22	-38.7	-39.7	22.4	0.00e+00	0	30	0	1044381696	50	6233
2026-01-10 15:09:02.80	216.12	35.00	-38.8	-39.9	22.2	0.00e+00	0	30	0	1046478848	50	6328
2026-01-10 15:09:03.81	216.05	34.77	-38.8	-39.9	22.2	0.00e+00	0	30	0	1048576000	50	6343
2026-01-10 15:09:04.82	215.99	34.55	-38.8	-39.8	22.2	0.00e+00	92	30	0	1049624576	50	6315
2026-01-10 15:09:05.83	215.92	34.33	-38.8	-39.9	22.2	0.00e+00	2	30	0	1051721728	50	6339
2026-01-10 15:09:06.84	215.86	34.11	-38.9	-39.9	22.2	0.00e+00	92	30	0	1053818880	50	6365
2026-01-10 15:09:07.85	215.80	33.89	-39.0	-40.0	22.1	0.00e+00	0	30	0	1055916032	50	6438
2026-01-10 15:09:08.86	215.74	33.67	-39.4	-40.5	21.6	0.00e+00	85	30	0	1058013184	50	6848
2026-01-10 15:09:09.87	215.68	33.46	-39.6	-40.7	21.4	0.00e+00	2	30	0	1059061760	50	6971
2026-01-10 15:09:10.88	215.62	33.24	-39.6	-40.8	21.4	0.00e+00	0	30	0	1061158912	52	6264
2026-01-10 15:09:11.89	215.56	33.03	-39.8	-41.0	21.2	0.00e+00	0	30	0	1063256064	52	6413
2026-01-10 15:09:12.90	215.50	32.82	-39.9	-41.0	21.2	0.00e+00	13	30	0	1065353216	52	6461
2026-01-10 15:09:13.91	215.44	32.61	-40.0	-41.2	21.0	0.00e+00	92	30	0	1067450368	52	6544
2026-01-10 15:09:14.92	215.39	32.40	-40.0	-41.2	21.0	0.00e+00	4	30	0	1068498944	52	6599
2026-01-10 15:09:15.93	215.33	32.20	-40.1	-41.4	20.8	0.00e+00	92	30	0	1070596096	52	6720
2026-01-10 15:09:16.94	215.28	31.99	-40.3	-41.6	20.5	0.00e+00	7	30	0	1072693248	52	6905
2026-01-10 15:09:17.95	215.22	31.79	-40.5	-41.8	20.4	0.00e+00	72	30	0	1074790400	52	7080
2026-01-10 15:09:18.96	215.17	31.58	-40.5	-41.9	20.4	0.00e+00	81	30	0	1076887552	52	7113
2026-01-10 15:09:19.97	215.12	31.38	-40.6	-41.9	20.3	0.00e+00	0	30	0	1077936128	52	7144
2026-01-10 15:09:20.98	215.06	31.18	-40.5	-41.8	20.4	0.00e+00	92	30	0	1080033280	52	7045
2026-01-10 15:09:21.99	215.01	30.98	-40.7	-42.1	20.2	0.00e+00	0	30	0	1082130432	52	7269
2026-01-10 15:09:23.00	214.96	30.79	-40.8	-42.1	20.0	0.00e+00	92	30	0	1084227584	52	7336
2026-01-10 15:09:24.01	214.91	30.59	-40.6	-41.9	20.3	0.00e+00	2	30	0	1086324736	54	6367
2026-01-10 15:09:25.02	214.86	30.40	-40.6	-41.9	20.3	0.00e+00	0	30	0	1087373312	54	6385
2026-01-10 15:09:26.03	214.81	30.20	-40.5	-41.9	20.3	0.00e+00	0	30	0	1089470464	54	6351
2026-01-10 15:09:27.04	214.77	30.01	-40.2	-41.4	20.8	0.00e+00	0	30	0	1091567616	54	6031
2026-01-10 15:09:28.05	214.72	29.82	-40.0	-41.2	20.9	0.00e+00	92	30	0	1093664768	54	5879
2026-01-10 15:09:29.06	214.67	29.63	-40.1	-41.3	20.9	0.00e+00	12	30	0	1095761920	54	5961
2026-01-10 15:09:30.07	214.63	29.44	-39.8	-41.0	21.2	0.00e+00	92	30	0	1097859072	52	6452
2026-01-10 15:09:31.08	214.58	29.25	-39.9	-41.1	21.1	0.00e+00	0	30	0	1098907648	52	6495
2026-01-10 15:09:32.09	214.54	29.07	-39.8	-41.0	21.1	0.00e+00	92	30	0	1101004800	52	6436
2026-01-10 15:09:33.10	214.49	28.88	-39.9	-41.1	21.1	0.00e+00	0	30	0	1103101952	52	6495
2026-01-10 15:09:34.11	214.45	28.70	-39.9	-41.1	20.9	0.00e+00	13	30	0	1105199104	52	6539
2026-01-10 15:09:35.11	214.40	28.52	-39.8	-41.0	21.2	0.00e+00	0	30	0	1107296256	52	6406
2026-01-10 15:09:36.13	214.36	28.34	-39.7	-40.8	21.3	0.00e+00	68	30	0	1108344832	52	6313
2026-01-10 15:09:37.14	214.32	28.16	-39.5	-40.6	21.5	0.00e+00	92	30	0	1110441984	52	6155
2026-01-10 15:09:38.15	214.28	27.98	-39.4	-40.5	21.5	0.00e+00	0	30	0	1112539136	52	6067
2026-01-10 15:09:39.16	214.23	27.80	-39.1	-40.2	21.9	0.00e+00	0	30	0	1114636288	52	5829
2026-01-10 15:09:40.17	214.19	27.62	-39.0	-40.1	22.0	0.00e+00	73	30	0	1116733440	52	5790
2026-01-10 15:09:41.18	214.15	27.45	-38.9	-40.0	22.1	0.00e+00	68	30	0	1117782016	52	5718
2026-01-10 15:09:42.19	214.11	27.27	-38.9	-39.9	22.2	0.00e+00	68	30	0	1119879168	52	5676
2026-01-10 15:09:43.20	214.07	27.10	-38.8	-39.9	22.2	0.00e+00	0	30	0	1121976320	50	6319
2026-01-10 15:09:44.21	214.03	26.93	-38.8	-39.9	22.2	0.00e+00	91	30	0	1124073472	50	6339
2026-01-10 15:09:45.22	214.00	26.76	-38.8	-39.9	22.1	0.00e+00	2	30	0	1126170624	50	6351
2026-01-10 15:09:46.23	213.96	26.59	-38.9	-40.0	22.1	0.00e+00	91	30	0	1127219200	50	6429
2026-01-10 15:09:47.24	213.92	26.42	-38.8	-39.9	22.2	0.00e+00	0	30	0	1129316352	50	6367
2026-01-10 15:09:48.25	213.88	26.25	-38.8	-39.9	22.1	0.00e+00	17	30	0	1131413504	50	6348
2026-01-10 15:09:49.25	213.85	26.08	-38.9	-39.9	22.1	0.00e+00	2	30	0	1133510656	50	6377
2026-01-10 15:09:50.26	213.81	25.92	-39.0	-40.1	21.9	0.00e+00	3	30	0	1135607808	50	6525
2026-01-10 15:09:51.27	213.77	25.75	-38.8	-39.8	22.1	0.00e+00	87	30	0	1136656384	50	6298
2026-01-10 15:09:52.29	213.74	25.59	-38.9	-40.0	22.0	0.00e+00	6	30	0	1138753536	50	6401
2026-01-10 15:09:53.29	213.70	25.42	-38.7	-39.8	22.2	0.00e+00	92	30	0	1140850688	50	6246
2026-01-10 15:09:54.30	213.67	25.26	-38.7	-39.8	22.3	0.00e+00	0	30	0	1142947840	50	6276
2026-01-10 15:09:55.31	213.63	25.10	-38.4	-39.5	22.6	0.00e+00	0	30	0	1145044992	50	6042
2026-01-10 15:09:56.32	213.60	24.94	-38.6	-39.6	22.4	0.00e+00	71	30	0	1146093568	50	6154
2026-01-10 15:09:57.33	213.57	24.78	-38.5	-39.5	22.5	0.00e+00	11	30	0	1148190720	50	6088
2026-01-10 15:09:58.34	213.53	24.62	-38.3	-39.4	22.7	0.00e+00	0	30	0	1150287872	50	5973
2026-01-10 15:09:59.35	213.50	24.47	-38.0	-39.0	22.9	0.00e+00	10	30	0	1152385024	50	5724
2026-01-10 15:10:00.36	213.47	24.31	-37.8	-38.7	23.1	0.00e+00	91	30	0	1154482176	50	5566
2026-01-10 15:10:01.37	213.43	24.15	-37.8	-38.8	23.0	0.00e+00	73	30	0	1155530752	50	5581
2026-01-10 15:10:02.38	213.40	24.00	-37.8	-38.7	23.1	0.00e+00	91	30	0	1157627904	48	6235
2026-01-10 15:10:03.39	213.37	23.85	-37.8	-38.7	23.1	0.00e+00	0	30	0	1159725056	48	6223
2026-01-10 15:10:04.39	213.34	23.69	-37.6	-38.5	23.3	0.00e+00	73	30	0	1161822208	48	6085
2026-01-10 15:10:05.40	213.31	23.54	-37.6	-38.5	23.3	0.00e+00	71	30	0	1163919360	48	6071
2026-01-10 15:10:06.41	213.28	23.39	-37.6	-38.5	23.3	0.00e+00	0	30	0	1166016512	48	6097
2026-01-10 15:10:07.42	213.25	23.24	-37.6	-38.5	23.3	0.00e+00	92	30	0	1167065088	48	6060
2026-01-10 15:10:08.43	213.22	23.09	-37.7	-38.6	23.2	0.00e+00	0	30	0	1169162240	48	6151
2026-01-10 15:10:09.44	213.19	22.94	-37.8	-38.7	23.1	0.00e+00	92	29	0	1171259392	48	6212
2026-01-10 15:10:10.45	213.16	22.80	-37.7	-38.6	23.1	0.00e+00	5	30	0	1173356544	48	6141
2026-01-10 15:10:11.46	213.13	22.65	-37.6	-38.5	23.3	0.00e+00	8	30	0	1175453696	48	6095
2026-01-10 15:10:12.47	213.10	22.50	-37.6	-38.5	23.3	0.00e+00	6	30	0	1176502272	48	6064
2026-01-10 15:10:13.48	213.07	22.36	-37.7	-38.6	23.2	0.00e+00	10	29	0	1178599424	48	6142
2026-01-10 15:10:14.49	213.05	22.21	-37.8	-38.7	23.1	0.00e+00	44	29	0	1180696576	48	6236
2026-01-10 15:10:15.50	213.02	22.07	-37.7	-38.7	23.2	0.00e+00	7	30	0	1182793728	48	6182
2026-01-10 15:10:16.51	212.99	21.93	-37.9	-38.8	23.1	0.00e+00	92	30	0	1184890880	48	6290
2026-01-10 15:10:17.52	212.96	21.79	-38.0	-39.0	22.9	0.00e+00	2	29	0	1185939456	48	6404
2026-01-10 15:10:18.53	212.94	21.64	-37.9	-38.9	23.0	0.00e+00	80	30	0	1188036608	48	6354
2026-01-10 15:10:19.54	212.91	21.50	-38.2	-39.2	22.7	0.00e+00	82	30	0	1190133760	48	6544
2026-01-10 15:10:20.55	212.88	21.36	-37.9	-38.9	23.0	0.00e+00	81	29	0	1192230912	48	6332
2026-01-10 15:10:21.56	212.86	21.23	-38.1	-39.1	22.8	0.00e+00	74	30	0	1194328064	48	6485
2026-01-10 15:10:22.56	212.83	21.09	-38.1	-39.1	22.7	0.00e+00	81	29	0	1195376640	48	6519
2026-01-10 15:10:23.57	212.80	20.95	-38.2	-39.1	22.7	0.00e+00	92	29	0	1197473792	48	6531
2026-01-10 15:10:24.58	212.78	20.82	-38.3	-39.3	22.6	0.00e+00	0	29	0	1199570944	48	6661
2026-01-10 15:10:25.59	212.75	20.68	-38.3	-39.3	22.5	0.00e+00	91	29	0	1201668096	48	6670
2026-01-10 15:10:26.60	212.73	20.54	-38.4	-39.4	22.5	0.00e+00	0	29	0	1203765248	48	6740
2026-01-10 15:10:27.61	212.70	20.41	-38.5	-39.6	22.5	0.00e+00	0	29	0	1204813824	48	6851
2026-01-10 15:10:28.62	212.68	20.28	-38.6	-39.7	22.3	0.00e+00	6	30	0	1206910976	48	6930
2026-01-10 15:10:29.63	212.66	20.14	-38.4	-39.5	22.5	0.00e+00	8	29	0	1209008128	48	6775
2026-01-10 15:10:30.64	212.63	20.01	-38.5	-39.5	22.4	0.00e+00	90	29	0	1211105280	48	6798
2026-01-10 15:10:31.65	212.61	19.88	-38.7	-39.7	22.3	0.00e+00	7	29	0	1213202432	48	6996
2026-01-10 15:10:32.66	212.59	19.75	-38.5	-39.5	22.4	0.00e+00	95	29	0	1214251008	48	6795
