passes_logs/2026/01/10/R4.6S_Anadyr/R4.6S_Anadyr__20260110_131827_NOAA_20_JPSS-1_rec.log

#Pass ID: 20260110_131827_NOAA 20 (JPSS-1)
#Satellite: NOAA 20 (JPSS-1)
#Configuration: NOAA 20
#almurnet v.1.7.20251203
#Start time: 2026-01-10 13:18:30

#Version: 2.2.20231116
#Station: R4.6S_Anadyr
#Location: 177.4865 lon 64.73178 lat
#TLE: 1 43013U 17073A   26009.69119415  .00000109  00000+0  72598-4 0  9996
#TLE: 2 43013  98.7631 310.6868 0001678  46.7442 313.3874 14.19534878421981

#Time	Az	El	Level	Level2	SNR	BER	BlckErr	Temp	State	Recorded	gain1	gain2
2026-01-10 13:18:30.12	18.89	0.17	-48.3	-62.1	3.3	1.54e+00	0	28	0	0	60	46117
2026-01-10 13:18:31.12	18.94	0.22	-48.3	-63.4	3.6	1.51e+00	0	28	104	0	60	53764
2026-01-10 13:18:32.13	18.99	0.28	-48.3	-63.5	3.6	1.51e+00	0	28	104	0	60	53929
2026-01-10 13:18:33.14	19.04	0.34	-48.3	-63.5	3.6	1.51e+00	0	28	104	0	60	54175
2026-01-10 13:18:34.15	19.08	0.39	-48.2	-63.5	3.6	1.51e+00	0	28	104	0	60	53791
2026-01-10 13:18:35.16	19.13	0.45	-48.2	-63.4	3.6	1.51e+00	0	28	104	0	60	53638
2026-01-10 13:18:36.17	19.18	0.51	-48.1	-63.3	3.6	1.51e+00	0	28	104	0	60	53074
2026-01-10 13:18:37.18	19.23	0.56	-48.0	-63.2	3.6	1.51e+00	0	28	104	0	60	52011
2026-01-10 13:18:38.19	19.28	0.62	-47.9	-63.1	3.6	1.51e+00	0	28	104	0	60	51544
2026-01-10 13:18:39.20	19.32	0.68	-47.6	-62.8	3.6	1.51e+00	0	28	104	0	60	50124
2026-01-10 13:18:40.21	19.37	0.73	-47.5	-62.7	3.6	1.51e+00	0	28	104	0	60	49403
2026-01-10 13:18:41.22	19.42	0.79	-47.3	-62.5	3.6	1.51e+00	0	28	104	0	60	47954
2026-01-10 13:18:42.23	19.47	0.85	-46.9	-62.1	3.6	1.51e+00	0	28	104	0	60	46088
2026-01-10 13:18:43.24	19.52	0.91	-46.7	-61.8	3.6	1.51e+00	0	28	104	0	60	44557
2026-01-10 13:18:44.25	19.57	0.96	-46.6	-61.8	3.6	1.51e+00	0	28	104	0	60	44433
2026-01-10 13:18:45.26	19.62	1.02	-46.6	-61.8	3.6	1.51e+00	0	28	104	0	60	44271
2026-01-10 13:18:46.27	19.67	1.08	-46.6	-61.8	3.6	1.51e+00	0	28	104	0	60	44373
2026-01-10 13:18:47.28	19.72	1.14	-46.6	-61.8	3.6	1.51e+00	0	28	104	0	60	44498
2026-01-10 13:18:48.29	19.77	1.20	-46.6	-61.8	3.6	1.51e+00	0	28	104	0	60	44298
2026-01-10 13:18:49.30	19.82	1.25	-46.6	-61.8	3.6	1.51e+00	0	28	104	0	60	44446
2026-01-10 13:18:50.31	19.87	1.31	-46.6	-61.8	3.6	1.51e+00	0	28	104	0	60	44655
2026-01-10 13:18:51.32	19.92	1.37	-46.6	-61.8	3.6	1.51e+00	0	28	104	0	60	44466
2026-01-10 13:18:52.33	19.97	1.43	-46.6	-61.7	3.6	1.51e+00	0	28	104	0	60	44193
2026-01-10 13:18:53.34	20.02	1.49	-46.6	-61.8	3.6	1.51e+00	0	28	104	0	60	44221
2026-01-10 13:18:54.35	20.07	1.55	-46.6	-61.7	3.6	1.51e+00	0	28	104	0	60	44084
2026-01-10 13:18:55.36	20.12	1.60	-46.6	-61.7	3.6	1.51e+00	0	29	104	0	60	43987
2026-01-10 13:18:56.37	20.18	1.66	-46.6	-61.7	3.6	1.51e+00	0	28	104	0	60	43966
2026-01-10 13:18:57.38	20.23	1.72	-46.6	-61.7	3.6	1.51e+00	0	28	104	0	60	43993
2026-01-10 13:18:58.39	20.28	1.78	-46.6	-61.7	3.6	1.51e+00	0	29	104	0	60	43927
2026-01-10 13:18:59.40	20.33	1.84	-46.6	-61.8	3.6	1.51e+00	0	28	104	0	60	44348
2026-01-10 13:19:00.41	20.38	1.90	-46.6	-61.8	3.6	1.51e+00	0	29	104	0	60	44230
2026-01-10 13:19:01.42	20.44	1.96	-46.6	-61.7	3.6	1.51e+00	0	28	104	0	60	44144
2026-01-10 13:19:02.43	20.49	2.02	-46.6	-61.8	3.6	1.51e+00	0	28	104	0	60	44319
2026-01-10 13:19:03.44	20.54	2.08	-46.6	-61.8	3.6	1.51e+00	0	29	104	0	60	44654
2026-01-10 13:19:04.45	20.59	2.14	-46.6	-61.7	3.6	1.51e+00	0	29	104	0	60	43786
2026-01-10 13:19:05.46	20.65	2.20	-46.6	-61.5	3.6	1.51e+00	0	28	104	0	60	43172
2026-01-10 13:19:06.47	20.70	2.26	-46.6	-61.2	3.6	1.51e+00	0	29	104	0	60	41636
2026-01-10 13:19:07.48	20.75	2.32	-46.6	-60.8	3.6	1.51e+00	0	28	104	0	60	39408
2026-01-10 13:19:08.49	20.81	2.38	-46.6	-60.8	3.6	1.51e+00	0	29	104	0	60	39799
2026-01-10 13:19:09.50	20.86	2.44	-46.6	-61.4	3.6	1.51e+00	0	29	104	0	60	42481
2026-01-10 13:19:10.51	20.92	2.50	-46.6	-61.7	3.6	1.51e+00	0	29	104	0	60	43885
2026-01-10 13:19:11.52	20.97	2.56	-46.5	-60.5	3.6	1.51e+00	0	29	104	0	60	38107
2026-01-10 13:19:12.53	21.03	2.62	-46.3	-57.1	4.6	1.47e+00	91	29	104	0	60	25765
2026-01-10 13:19:13.54	21.08	2.68	-45.9	-52.8	7.2	4.71e-01	5	29	0	1048576	60	15863
2026-01-10 13:19:14.55	21.14	2.74	-45.0	-50.0	10.5	1.35e-02	38	29	0	2097152	60	11427
2026-01-10 13:19:15.56	21.19	2.80	-44.1	-47.8	12.9	5.67e-04	56	29	0	4194304	60	8868
2026-01-10 13:19:16.57	21.25	2.86	-43.3	-46.3	14.5	8.30e-06	32	29	0	6291456	60	7492
2026-01-10 13:19:17.58	21.30	2.92	-42.2	-44.5	16.2	0.00e+00	80	29	0	8388608	58	6837
2026-01-10 13:19:18.59	21.36	2.99	-41.9	-44.1	16.8	0.00e+00	6	29	0	10485760	58	6471
2026-01-10 13:19:19.60	21.41	3.05	-41.5	-43.5	17.3	0.00e+00	92	28	0	11534336	56	6824
2026-01-10 13:19:20.61	21.47	3.11	-41.5	-43.5	17.2	0.00e+00	7	29	0	13631488	56	6823
2026-01-10 13:19:21.62	21.53	3.17	-41.9	-44.0	16.7	0.00e+00	92	29	0	15728640	56	7244
2026-01-10 13:19:22.63	21.58	3.23	-42.4	-44.9	15.9	0.00e+00	5	29	0	17825792	56	7969
2026-01-10 13:19:23.64	21.64	3.29	-43.3	-46.4	14.2	0.00e+00	0	29	0	19922944	58	8475
2026-01-10 13:19:24.65	21.70	3.36	-44.4	-48.6	12.0	8.85e-05	5	29	0	20971520	60	9693
2026-01-10 13:19:25.66	21.75	3.42	-43.1	-45.9	14.9	7.40e-04	0	29	0	23068672	60	7144
2026-01-10 13:19:26.67	21.81	3.48	-46.2	-56.3	4.3	0.00e+00	90	29	0	25165824	60	23518
2026-01-10 13:19:27.68	21.87	3.54	-44.4	-48.5	5.5	1.48e+00	0	29	104	25165824	60	9651
2026-01-10 13:19:28.69	21.93	3.60	-44.3	-48.1	13.0	1.87e-01	92	29	0	25165824	60	9161
2026-01-10 13:19:29.70	21.99	3.67	-46.6	-59.0	3.6	3.00e-06	0	29	104	26214400	60	32078
2026-01-10 13:19:30.71	22.04	3.73	-44.7	-49.3	5.6	1.50e+00	0	29	104	26214400	60	10486
2026-01-10 13:19:31.72	22.10	3.79	-43.8	-47.1	13.9	7.60e-06	34	29	0	26214400	60	8205
2026-01-10 13:19:32.72	22.16	3.85	-43.6	-46.6	14.4	2.20e-06	35	29	0	28311552	60	7714
2026-01-10 13:19:33.73	22.22	3.92	-43.1	-45.8	15.1	0.00e+00	44	29	0	29360128	60	7062
2026-01-10 13:19:34.75	22.28	3.98	-43.3	-46.1	15.0	0.00e+00	40	29	0	31457280	60	7318
2026-01-10 13:19:35.75	22.34	4.04	-42.2	-44.4	16.7	0.00e+00	90	29	0	33554432	58	6713
2026-01-10 13:19:36.76	22.40	4.11	-41.7	-43.7	17.4	0.00e+00	42	29	0	35651584	58	6242
2026-01-10 13:19:37.77	22.46	4.17	-41.5	-43.4	17.5	0.00e+00	41	29	0	37748736	56	6760
2026-01-10 13:19:38.78	22.52	4.23	-41.2	-42.9	18.1	0.00e+00	0	29	0	38797312	56	6389
2026-01-10 13:19:39.79	22.58	4.30	-41.0	-42.7	18.4	0.00e+00	47	29	0	40894464	56	6189
2026-01-10 13:19:40.80	22.64	4.36	-41.1	-42.8	18.4	0.00e+00	62	29	0	42991616	56	6265
2026-01-10 13:19:41.81	22.70	4.43	-40.8	-42.5	18.6	0.00e+00	0	29	0	45088768	56	6061
2026-01-10 13:19:42.82	22.76	4.49	-40.8	-42.5	18.5	0.00e+00	92	29	0	47185920	56	6060
2026-01-10 13:19:43.83	22.83	4.55	-40.9	-42.5	18.6	0.00e+00	0	29	0	48234496	56	6080
2026-01-10 13:19:44.84	22.89	4.62	-41.0	-42.6	18.5	0.00e+00	92	29	0	50331648	56	6172
2026-01-10 13:19:45.85	22.95	4.68	-40.6	-42.1	18.8	0.00e+00	0	29	0	52428800	54	6533
2026-01-10 13:19:46.86	23.01	4.75	-40.6	-42.2	18.9	0.00e+00	0	29	0	54525952	54	6568
2026-01-10 13:19:47.87	23.07	4.81	-40.6	-42.3	18.8	0.00e+00	0	29	0	56623104	54	6616
2026-01-10 13:19:48.88	23.14	4.88	-40.7	-42.3	18.8	0.00e+00	33	29	0	57671680	54	6678
2026-01-10 13:19:49.89	23.20	4.94	-40.5	-42.1	18.9	0.00e+00	92	29	0	59768832	54	6509
2026-01-10 13:19:50.90	23.26	5.01	-40.8	-42.4	18.7	0.00e+00	39	29	0	61865984	54	6755
2026-01-10 13:19:51.91	23.33	5.07	-40.7	-42.3	18.7	0.00e+00	92	29	0	63963136	54	6666
2026-01-10 13:19:52.92	23.39	5.14	-40.4	-41.9	19.2	0.00e+00	39	29	0	66060288	54	6344
2026-01-10 13:19:53.93	23.45	5.21	-40.4	-41.9	19.2	0.00e+00	40	29	0	67108864	54	6388
2026-01-10 13:19:54.94	23.52	5.27	-40.4	-41.9	19.2	0.00e+00	4	29	0	69206016	54	6370
2026-01-10 13:19:55.95	23.58	5.34	-40.3	-41.8	19.4	0.00e+00	35	29	0	71303168	54	6315
2026-01-10 13:19:56.96	23.65	5.40	-40.5	-42.0	19.2	0.00e+00	0	29	0	73400320	54	6420
2026-01-10 13:19:57.96	23.71	5.47	-40.3	-41.7	19.3	0.00e+00	41	29	0	75497472	54	6240
2026-01-10 13:19:58.97	23.78	5.53	-40.2	-41.7	19.5	0.00e+00	92	29	0	76546048	54	6220
2026-01-10 13:19:59.98	23.84	5.60	-40.1	-41.6	19.6	0.00e+00	0	29	0	78643200	54	6135
2026-01-10 13:20:00.99	23.91	5.67	-40.1	-41.6	19.6	0.00e+00	2	29	0	80740352	54	6125
2026-01-10 13:20:02.00	23.98	5.73	-39.9	-41.3	19.8	0.00e+00	0	29	0	82837504	54	5954
2026-01-10 13:20:03.01	24.04	5.80	-40.1	-41.6	19.6	0.00e+00	2	29	0	84934656	54	6123
2026-01-10 13:20:04.02	24.11	5.87	-40.1	-41.5	19.7	0.00e+00	49	29	0	85983232	54	6099
2026-01-10 13:20:05.03	24.18	5.94	-40.1	-41.5	19.6	0.00e+00	2	29	0	88080384	54	6044
2026-01-10 13:20:06.04	24.25	6.00	-40.0	-41.4	19.8	0.00e+00	92	29	0	90177536	54	6002
2026-01-10 13:20:07.05	24.31	6.07	-39.8	-41.2	20.0	0.00e+00	0	29	0	92274688	54	5848
2026-01-10 13:20:08.06	24.38	6.14	-39.9	-41.2	20.0	0.00e+00	92	29	0	94371840	52	6612
2026-01-10 13:20:09.07	24.45	6.21	-39.9	-41.2	20.1	0.00e+00	2	29	0	96468992	52	6603
2026-01-10 13:20:10.08	24.52	6.27	-39.8	-41.1	20.2	0.00e+00	0	29	0	97517568	52	6519
2026-01-10 13:20:11.09	24.59	6.34	-39.8	-41.1	20.2	0.00e+00	0	29	0	99614720	52	6510
2026-01-10 13:20:12.10	24.66	6.41	-39.9	-41.3	20.1	0.00e+00	0	29	0	101711872	52	6619
2026-01-10 13:20:13.11	24.73	6.48	-39.8	-41.2	20.1	0.00e+00	92	29	0	103809024	52	6542
2026-01-10 13:20:14.11	24.79	6.55	-39.8	-41.2	20.1	0.00e+00	40	29	0	105906176	52	6553
2026-01-10 13:20:15.12	24.86	6.61	-39.8	-41.2	20.1	0.00e+00	91	29	0	106954752	52	6556
2026-01-10 13:20:16.13	24.94	6.68	-39.8	-41.2	20.2	0.00e+00	41	29	0	109051904	52	6541
2026-01-10 13:20:17.14	25.01	6.75	-39.8	-41.1	20.2	0.00e+00	39	29	0	111149056	52	6498
2026-01-10 13:20:18.15	25.08	6.82	-39.8	-41.2	20.1	0.00e+00	0	29	0	113246208	52	6559
2026-01-10 13:20:19.16	25.15	6.89	-39.7	-41.0	20.3	0.00e+00	0	29	0	115343360	52	6460
2026-01-10 13:20:20.17	25.22	6.96	-39.7	-41.0	20.3	0.00e+00	0	29	0	116391936	52	6441
2026-01-10 13:20:21.18	25.29	7.03	-39.6	-40.9	20.3	0.00e+00	2	29	0	118489088	52	6387
2026-01-10 13:20:22.19	25.36	7.10	-39.5	-40.8	20.6	0.00e+00	91	29	0	120586240	52	6251
2026-01-10 13:20:23.20	25.44	7.17	-39.6	-40.9	20.4	0.00e+00	2	29	0	122683392	52	6364
2026-01-10 13:20:24.21	25.51	7.24	-39.4	-40.7	20.7	0.00e+00	73	29	0	124780544	52	6199
2026-01-10 13:20:25.22	25.58	7.31	-39.5	-40.7	20.7	0.00e+00	0	29	0	125829120	52	6231
2026-01-10 13:20:26.23	25.66	7.38	-39.3	-40.5	20.8	0.00e+00	0	29	0	127926272	52	6092
2026-01-10 13:20:27.24	25.73	7.45	-39.1	-40.3	21.0	0.00e+00	0	29	0	130023424	52	5957
2026-01-10 13:20:28.25	25.81	7.52	-39.1	-40.3	21.0	0.00e+00	0	29	0	132120576	52	5961
2026-01-10 13:20:29.26	25.88	7.59	-39.1	-40.3	21.0	0.00e+00	92	29	0	134217728	52	5955
2026-01-10 13:20:30.27	25.96	7.66	-38.9	-40.1	21.3	0.00e+00	0	29	0	135266304	52	5794
2026-01-10 13:20:31.28	26.03	7.73	-38.9	-40.0	21.3	0.00e+00	92	29	0	137363456	52	5731
2026-01-10 13:20:32.29	26.11	7.80	-38.8	-39.9	21.4	0.00e+00	42	29	0	139460608	50	6365
2026-01-10 13:20:33.30	26.18	7.88	-38.7	-39.9	21.4	0.00e+00	40	29	0	141557760	50	6340
2026-01-10 13:20:34.31	26.26	7.95	-38.6	-39.8	21.6	0.00e+00	0	29	0	143654912	50	6252
2026-01-10 13:20:35.31	26.33	8.02	-38.6	-39.7	21.6	0.00e+00	0	29	0	144703488	50	6235
2026-01-10 13:20:36.32	26.41	8.09	-38.5	-39.6	21.7	0.00e+00	92	29	0	146800640	50	6150
2026-01-10 13:20:37.33	26.49	8.16	-38.7	-39.8	21.6	0.00e+00	45	29	0	148897792	50	6291
2026-01-10 13:20:38.34	26.57	8.23	-38.5	-39.5	21.8	0.00e+00	92	29	0	150994944	50	6103
2026-01-10 13:20:39.35	26.65	8.31	-38.5	-39.6	21.7	0.00e+00	40	29	0	153092096	50	6136
2026-01-10 13:20:40.36	26.72	8.38	-38.5	-39.5	21.8	0.00e+00	41	29	0	154140672	50	6092
2026-01-10 13:20:41.37	26.80	8.45	-38.4	-39.5	21.9	0.00e+00	41	29	0	156237824	50	6066
2026-01-10 13:20:42.38	26.88	8.53	-38.5	-39.5	21.7	0.00e+00	0	29	0	158334976	50	6100
2026-01-10 13:20:43.39	26.96	8.60	-38.3	-39.4	22.0	0.00e+00	18	29	0	160432128	50	5969
2026-01-10 13:20:44.40	27.04	8.67	-38.3	-39.4	21.9	0.00e+00	47	29	0	162529280	50	5984
2026-01-10 13:20:45.41	27.12	8.75	-38.2	-39.2	22.1	0.00e+00	92	29	0	164626432	50	5875
2026-01-10 13:20:46.42	27.20	8.82	-38.2	-39.2	22.1	0.00e+00	6	29	0	165675008	50	5883
2026-01-10 13:20:47.42	27.28	8.89	-38.0	-39.1	22.2	0.00e+00	90	29	0	167772160	50	5776
2026-01-10 13:20:48.43	27.36	8.97	-38.0	-39.1	22.3	0.00e+00	0	29	0	169869312	50	5777
2026-01-10 13:20:49.44	27.45	9.04	-38.1	-39.2	22.2	0.00e+00	5	29	0	171966464	50	5839
2026-01-10 13:20:50.45	27.53	9.11	-37.9	-38.9	22.4	0.00e+00	0	29	0	174063616	50	5636
2026-01-10 13:20:51.46	27.61	9.19	-37.8	-38.8	22.5	0.00e+00	5	29	0	175112192	50	5594
2026-01-10 13:20:52.47	27.69	9.26	-37.9	-38.9	22.5	0.00e+00	92	29	0	177209344	50	5641
2026-01-10 13:20:53.48	27.78	9.34	-37.8	-38.8	22.6	0.00e+00	37	29	0	179306496	48	6269
2026-01-10 13:20:54.49	27.86	9.41	-37.7	-38.7	22.6	0.00e+00	92	29	0	181403648	48	6187
2026-01-10 13:20:55.50	27.95	9.49	-37.8	-38.8	22.6	0.00e+00	42	29	0	183500800	48	6252
2026-01-10 13:20:56.51	28.03	9.56	-37.8	-38.8	22.5	0.00e+00	0	29	0	184549376	48	6310
2026-01-10 13:20:57.52	28.12	9.64	-37.6	-38.6	22.7	0.00e+00	0	29	0	186646528	48	6159
2026-01-10 13:20:58.53	28.20	9.71	-37.7	-38.7	22.7	0.00e+00	42	29	0	188743680	48	6191
2026-01-10 13:20:59.54	28.29	9.79	-37.9	-38.9	22.5	0.00e+00	83	29	0	190840832	48	6339
2026-01-10 13:21:00.55	28.37	9.87	-37.8	-38.8	22.6	0.00e+00	35	29	0	192937984	48	6263
2026-01-10 13:21:01.56	28.46	9.94	-37.8	-38.8	22.6	0.00e+00	91	29	0	193986560	48	6261
2026-01-10 13:21:02.57	28.55	10.02	-37.7	-38.7	22.7	0.00e+00	41	29	0	196083712	48	6187
2026-01-10 13:21:03.58	28.64	10.10	-37.8	-38.8	22.6	0.00e+00	46	29	0	198180864	48	6256
2026-01-10 13:21:04.59	28.72	10.17	-37.8	-38.8	22.6	0.00e+00	5	29	0	200278016	48	6275
2026-01-10 13:21:05.60	28.81	10.25	-37.8	-38.8	22.6	0.00e+00	0	29	0	202375168	48	6261
2026-01-10 13:21:06.61	28.90	10.33	-37.7	-38.6	22.7	0.00e+00	19	29	0	203423744	48	6168
2026-01-10 13:21:07.62	28.99	10.40	-37.6	-38.5	22.9	0.00e+00	53	29	0	205520896	48	6103
2026-01-10 13:21:08.62	29.08	10.48	-37.7	-38.6	22.8	0.00e+00	92	29	0	207618048	48	6164
2026-01-10 13:21:09.63	29.17	10.56	-37.6	-38.5	22.8	0.00e+00	0	29	0	209715200	48	6100
2026-01-10 13:21:10.64	29.26	10.64	-37.4	-38.3	23.1	0.00e+00	40	29	0	211812352	48	5943
2026-01-10 13:21:11.65	29.35	10.71	-37.6	-38.5	22.9	0.00e+00	7	29	0	212860928	48	6087
2026-01-10 13:21:12.67	29.45	10.79	-37.4	-38.3	23.0	0.00e+00	0	29	0	214958080	48	5962
2026-01-10 13:21:13.67	29.54	10.87	-37.4	-38.3	23.1	0.00e+00	0	29	0	217055232	48	5960
2026-01-10 13:21:14.68	29.63	10.95	-37.4	-38.3	23.0	0.00e+00	41	29	0	219152384	48	5956
2026-01-10 13:21:15.69	29.72	11.03	-37.5	-38.5	22.9	0.00e+00	92	29	0	221249536	48	6044
2026-01-10 13:21:16.70	29.82	11.11	-37.2	-38.2	23.2	0.00e+00	0	29	0	222298112	48	5836
2026-01-10 13:21:17.71	29.91	11.19	-37.3	-38.3	23.1	0.00e+00	92	29	0	224395264	48	5902
2026-01-10 13:21:18.72	30.01	11.27	-37.3	-38.2	23.2	0.00e+00	44	29	0	226492416	48	5855
2026-01-10 13:21:19.73	30.10	11.34	-37.3	-38.2	23.2	0.00e+00	40	29	0	228589568	48	5866
2026-01-10 13:21:20.74	30.20	11.42	-37.3	-38.3	23.1	0.00e+00	39	29	0	230686720	48	5906
2026-01-10 13:21:21.75	30.29	11.50	-37.4	-38.3	23.1	0.00e+00	38	29	0	232783872	48	5937
2026-01-10 13:21:22.76	30.39	11.58	-37.4	-38.4	23.0	0.00e+00	56	29	0	233832448	48	5994
2026-01-10 13:21:23.77	30.49	11.67	-37.2	-38.2	23.3	0.00e+00	46	29	0	235929600	48	5847
2026-01-10 13:21:24.78	30.58	11.75	-37.3	-38.3	23.2	0.00e+00	92	29	0	238026752	48	5921
2026-01-10 13:21:25.79	30.68	11.83	-37.2	-38.1	23.3	0.00e+00	0	29	0	240123904	48	5814
2026-01-10 13:21:26.80	30.78	11.91	-37.2	-38.2	23.3	0.00e+00	42	29	0	242221056	48	5835
2026-01-10 13:21:27.81	30.88	11.99	-37.2	-38.1	23.3	0.00e+00	37	29	0	243269632	48	5819
2026-01-10 13:21:28.82	30.98	12.07	-37.1	-38.0	23.4	0.00e+00	2	29	0	245366784	48	5748
2026-01-10 13:21:29.83	31.08	12.15	-37.2	-38.1	23.4	0.00e+00	69	29	0	247463936	48	5791
2026-01-10 13:21:30.83	31.18	12.23	-37.1	-38.0	23.4	0.00e+00	0	29	0	249561088	48	5733
2026-01-10 13:21:31.84	31.28	12.31	-36.9	-37.8	23.5	0.00e+00	90	29	0	251658240	48	5620
2026-01-10 13:21:32.85	31.38	12.40	-37.0	-37.9	23.5	0.00e+00	0	29	0	252706816	48	5672
2026-01-10 13:21:33.86	31.48	12.48	-37.0	-37.9	23.6	0.00e+00	90	29	0	254803968	48	5647
2026-01-10 13:21:34.87	31.59	12.56	-36.9	-37.8	23.6	0.00e+00	2	29	0	256901120	48	5585
2026-01-10 13:21:35.88	31.69	12.64	-36.9	-37.8	23.6	0.00e+00	42	29	0	258998272	48	5570
2026-01-10 13:21:36.89	31.79	12.73	-36.8	-37.7	23.6	0.00e+00	0	29	0	261095424	48	5541
2026-01-10 13:21:37.90	31.90	12.81	-36.9	-37.8	23.5	0.00e+00	42	29	0	262144000	48	5600
2026-01-10 13:21:38.91	32.00	12.89	-36.9	-37.8	23.6	0.00e+00	92	29	0	264241152	48	5567
2026-01-10 13:21:39.92	32.11	12.98	-36.9	-37.8	23.6	0.00e+00	37	30	0	266338304	48	5625
2026-01-10 13:21:40.93	32.22	13.06	-36.9	-37.8	23.5	0.00e+00	92	29	0	268435456	48	5620
2026-01-10 13:21:41.94	32.32	13.14	-36.9	-37.8	23.6	0.00e+00	40	29	0	270532608	48	5602
2026-01-10 13:21:42.95	32.43	13.23	-37.0	-37.9	23.5	0.00e+00	39	29	0	271581184	48	5655
2026-01-10 13:21:43.96	32.54	13.31	-37.0	-37.9	23.5	0.00e+00	38	29	0	273678336	48	5686
2026-01-10 13:21:44.97	32.65	13.40	-37.1	-38.1	23.3	0.00e+00	42	29	0	275775488	48	5765
2026-01-10 13:21:45.98	32.76	13.48	-37.0	-37.9	23.5	0.00e+00	91	29	0	277872640	48	5660
2026-01-10 13:21:46.99	32.86	13.57	-37.1	-38.1	23.4	0.00e+00	0	29	0	279969792	48	5774
2026-01-10 13:21:48.00	32.98	13.65	-37.1	-38.0	23.5	0.00e+00	92	29	0	281018368	48	5746
2026-01-10 13:21:49.01	33.09	13.74	-37.1	-38.0	23.4	0.00e+00	45	29	0	283115520	48	5751
2026-01-10 13:21:50.02	33.20	13.82	-37.2	-38.1	23.4	0.00e+00	87	29	0	285212672	48	5815
2026-01-10 13:21:51.03	33.31	13.91	-37.2	-38.1	23.4	0.00e+00	2	29	0	287309824	48	5794
2026-01-10 13:21:52.04	33.42	13.99	-37.3	-38.2	23.4	0.00e+00	0	29	0	289406976	48	5856
2026-01-10 13:21:53.04	33.54	14.08	-37.2	-38.1	23.3	0.00e+00	11	29	0	290455552	48	5816
2026-01-10 13:21:54.05	33.65	14.17	-37.4	-38.3	23.2	0.00e+00	0	29	0	292552704	48	5945
2026-01-10 13:21:55.06	33.76	14.25	-37.4	-38.3	23.2	0.00e+00	92	29	0	294649856	48	5921
2026-01-10 13:21:56.07	33.88	14.34	-37.4	-38.4	23.2	0.00e+00	0	29	0	296747008	48	5972
2026-01-10 13:21:57.08	34.00	14.43	-37.5	-38.4	23.1	0.00e+00	26	29	0	298844160	48	5996
2026-01-10 13:21:58.09	34.11	14.51	-37.6	-38.5	23.1	0.00e+00	45	29	0	300941312	48	6074
2026-01-10 13:21:59.10	34.23	14.60	-37.5	-38.5	23.1	0.00e+00	44	30	0	301989888	48	6051
2026-01-10 13:22:00.11	34.35	14.69	-37.6	-38.5	23.1	0.00e+00	0	29	0	304087040	48	6098
2026-01-10 13:22:01.12	34.47	14.78	-37.6	-38.5	23.0	0.00e+00	44	29	0	306184192	48	6098
2026-01-10 13:22:02.13	34.59	14.86	-37.6	-38.5	23.0	0.00e+00	92	29	0	308281344	48	6100
2026-01-10 13:22:03.14	34.71	14.95	-37.5	-38.4	23.2	0.00e+00	0	29	0	310378496	48	6027
2026-01-10 13:22:04.15	34.83	15.04	-37.5	-38.4	23.1	0.00e+00	90	29	0	311427072	48	6031
2026-01-10 13:22:05.16	34.95	15.13	-37.5	-38.4	23.2	0.00e+00	39	29	0	313524224	48	6020
2026-01-10 13:22:06.17	35.07	15.22	-37.6	-38.5	23.1	0.00e+00	44	29	0	315621376	48	6072
2026-01-10 13:22:07.18	35.19	15.31	-37.6	-38.5	23.1	0.00e+00	37	30	0	317718528	48	6068
2026-01-10 13:22:08.19	35.32	15.40	-37.5	-38.4	23.2	0.00e+00	36	30	0	319815680	48	6024
2026-01-10 13:22:09.20	35.44	15.49	-37.5	-38.4	23.1	0.00e+00	38	30	0	320864256	48	6031
2026-01-10 13:22:10.21	35.56	15.58	-37.6	-38.6	23.0	0.00e+00	0	30	0	322961408	48	6135
2026-01-10 13:22:11.22	35.69	15.67	-37.6	-38.6	23.1	0.00e+00	90	30	0	325058560	48	6108
2026-01-10 13:22:12.22	35.82	15.76	-37.6	-38.5	23.0	0.00e+00	38	29	0	327155712	48	6068
2026-01-10 13:22:13.23	35.94	15.85	-37.6	-38.6	22.5	0.00e+00	0	29	0	329252864	48	6140
2026-01-10 13:22:14.24	36.07	15.94	-37.7	-38.6	22.8	0.00e+00	0	29	0	330301440	48	6162
2026-01-10 13:22:15.25	36.20	16.03	-37.8	-38.7	22.8	0.00e+00	2	29	0	332398592	48	6226
2026-01-10 13:22:16.26	36.33	16.12	-37.7	-38.7	22.9	0.00e+00	2	29	0	334495744	48	6207
2026-01-10 13:22:17.27	36.46	16.21	-37.8	-38.8	22.8	0.00e+00	0	30	0	336592896	48	6293
2026-01-10 13:22:18.28	36.59	16.30	-37.9	-38.9	22.8	0.00e+00	90	30	0	338690048	48	6351
2026-01-10 13:22:19.29	36.72	16.39	-37.9	-38.9	22.8	0.00e+00	0	29	0	339738624	48	6348
2026-01-10 13:22:20.30	36.85	16.48	-37.9	-38.9	22.7	0.00e+00	81	30	0	341835776	48	6360
2026-01-10 13:22:21.31	36.99	16.58	-38.0	-39.0	22.8	0.00e+00	0	30	0	343932928	48	6391
2026-01-10 13:22:22.32	37.12	16.67	-37.9	-38.8	22.8	0.00e+00	0	29	0	346030080	48	6309
2026-01-10 13:22:23.33	37.25	16.76	-37.9	-38.8	22.8	0.00e+00	0	30	0	348127232	48	6314
2026-01-10 13:22:24.34	37.39	16.85	-37.9	-38.8	22.8	0.00e+00	44	29	0	349175808	48	6317
2026-01-10 13:22:25.35	37.53	16.95	-37.8	-38.8	22.9	0.00e+00	92	30	0	351272960	48	6284
2026-01-10 13:22:26.36	37.66	17.04	-37.9	-38.9	22.9	0.00e+00	2	30	0	353370112	48	6339
2026-01-10 13:22:27.37	37.80	17.13	-38.0	-39.0	22.7	0.00e+00	25	30	0	355467264	48	6448
2026-01-10 13:22:28.38	37.94	17.23	-38.0	-39.0	22.8	0.00e+00	38	29	0	357564416	48	6393
2026-01-10 13:22:29.39	38.08	17.32	-38.0	-39.0	22.7	0.00e+00	5	29	0	358612992	48	6444
2026-01-10 13:22:30.40	38.22	17.41	-38.1	-39.1	22.7	0.00e+00	6	30	0	360710144	48	6477
2026-01-10 13:22:31.41	38.36	17.51	-38.0	-39.0	22.7	0.00e+00	40	29	0	362807296	48	6410
2026-01-10 13:22:32.42	38.50	17.60	-37.9	-38.8	22.9	0.00e+00	31	30	0	364904448	48	6317
2026-01-10 13:22:33.42	38.65	17.70	-37.8	-38.8	22.9	0.00e+00	7	30	0	367001600	48	6255
2026-01-10 13:22:34.43	38.79	17.79	-37.8	-38.7	23.0	0.00e+00	92	29	0	369098752	48	6216
2026-01-10 13:22:35.44	38.93	17.88	-37.7	-38.7	23.1	0.00e+00	0	29	0	370147328	48	6190
2026-01-10 13:22:36.45	39.08	17.98	-37.6	-38.5	23.2	0.00e+00	13	30	0	372244480	48	6077
2026-01-10 13:22:37.46	39.23	18.07	-37.5	-38.5	23.3	0.00e+00	5	30	0	374341632	48	6047
2026-01-10 13:22:38.47	39.37	18.17	-37.4	-38.4	23.3	0.00e+00	0	30	0	376438784	48	5973
2026-01-10 13:22:39.48	39.52	18.27	-37.4	-38.3	23.4	0.00e+00	2	30	0	378535936	48	5935
2026-01-10 13:22:40.49	39.67	18.36	-37.5	-38.5	23.3	0.00e+00	45	30	0	379584512	48	6047
2026-01-10 13:22:41.50	39.82	18.46	-37.4	-38.3	23.3	0.00e+00	92	30	0	381681664	48	5951
2026-01-10 13:22:42.51	39.97	18.55	-37.6	-38.5	23.1	0.00e+00	44	30	0	383778816	48	6097
2026-01-10 13:22:43.52	40.13	18.65	-37.6	-38.5	23.3	0.00e+00	41	30	0	385875968	48	6065
2026-01-10 13:22:44.53	40.28	18.75	-37.6	-38.5	23.2	0.00e+00	43	30	0	386924544	48	6067
2026-01-10 13:22:45.54	40.43	18.84	-37.8	-38.7	23.2	0.00e+00	39	30	0	389021696	48	6215
2026-01-10 13:22:46.55	40.59	18.94	-37.5	-38.5	23.3	0.00e+00	23	30	0	391118848	48	6042
2026-01-10 13:22:47.56	40.74	19.04	-37.6	-38.5	23.3	0.00e+00	38	30	0	393216000	48	6047
2026-01-10 13:22:48.57	40.90	19.13	-37.4	-38.3	23.3	0.00e+00	92	30	0	395313152	48	5931
2026-01-10 13:22:49.58	41.06	19.23	-37.4	-38.3	23.4	0.00e+00	6	30	0	397410304	48	5963
2026-01-10 13:22:50.59	41.22	19.33	-37.4	-38.3	23.4	0.00e+00	92	30	0	398458880	48	5949
2026-01-10 13:22:51.60	41.38	19.43	-37.5	-38.4	23.4	0.00e+00	7	30	0	400556032	48	5996
2026-01-10 13:22:52.61	41.54	19.53	-37.4	-38.3	23.5	0.00e+00	47	29	0	402653184	48	5948
2026-01-10 13:22:53.62	41.70	19.62	-37.4	-38.3	23.4	0.00e+00	4	30	0	404750336	48	5938
2026-01-10 13:22:54.63	41.86	19.72	-37.3	-38.3	23.5	0.00e+00	0	30	0	406847488	48	5902
2026-01-10 13:22:55.64	42.02	19.82	-37.4	-38.3	23.4	0.00e+00	91	30	0	407896064	48	5956
2026-01-10 13:22:56.65	42.19	19.92	-37.5	-38.4	23.4	0.00e+00	6	30	0	409993216	48	5998
2026-01-10 13:22:57.66	42.35	20.02	-37.2	-38.1	23.6	0.00e+00	92	29	0	412090368	48	5794
2026-01-10 13:22:58.67	42.52	20.12	-37.1	-38.0	23.7	0.00e+00	6	30	0	414187520	48	5745
2026-01-10 13:22:59.68	42.69	20.22	-37.1	-38.0	23.7	0.00e+00	44	30	0	416284672	48	5707
2026-01-10 13:23:00.69	42.86	20.31	-36.9	-37.7	23.9	0.00e+00	45	29	0	417333248	48	5559
2026-01-10 13:23:01.70	43.03	20.41	-36.9	-37.7	23.8	0.00e+00	46	30	0	419430400	48	5553
2026-01-10 13:23:02.71	43.20	20.51	-36.7	-37.6	23.8	0.00e+00	3	30	0	421527552	48	5471
2026-01-10 13:23:03.72	43.37	20.61	-36.7	-37.6	24.1	0.00e+00	0	30	0	423624704	46	6136
2026-01-10 13:23:04.73	43.54	20.71	-36.8	-37.7	24.0	0.00e+00	92	30	0	425721856	46	6180
2026-01-10 13:23:05.74	43.72	20.81	-36.8	-37.7	24.0	0.00e+00	44	30	0	426770432	46	6205
2026-01-10 13:23:06.75	43.89	20.91	-36.7	-37.6	24.1	0.00e+00	90	30	0	428867584	46	6125
2026-01-10 13:23:07.76	44.07	21.01	-36.8	-37.6	24.1	0.00e+00	38	30	0	430964736	46	6165
2026-01-10 13:23:08.77	44.25	21.11	-36.8	-37.7	24.1	0.00e+00	36	30	0	433061888	46	6176
2026-01-10 13:23:09.78	44.43	21.21	-36.8	-37.7	24.0	0.00e+00	42	30	0	435159040	46	6179
2026-01-10 13:23:10.79	44.61	21.32	-36.6	-37.5	24.1	0.00e+00	0	30	0	437256192	46	6059
2026-01-10 13:23:11.79	44.79	21.41	-36.6	-37.4	24.2	0.00e+00	90	30	0	438304768	46	6009
2026-01-10 13:23:12.80	44.97	21.52	-36.3	-37.1	24.5	0.00e+00	0	30	0	440401920	46	5828
2026-01-10 13:23:13.81	45.15	21.62	-36.5	-37.3	24.3	0.00e+00	92	30	0	442499072	46	5916
2026-01-10 13:23:14.82	45.34	21.72	-36.3	-37.1	24.5	0.00e+00	37	30	0	444596224	46	5800
2026-01-10 13:23:15.83	45.52	21.82	-36.1	-36.9	24.7	0.00e+00	0	30	0	446693376	46	5674
2026-01-10 13:23:16.84	45.71	21.92	-36.1	-36.9	24.7	0.00e+00	0	30	0	447741952	46	5693
2026-01-10 13:23:17.85	45.90	22.02	-36.0	-36.8	24.8	0.00e+00	0	30	0	449839104	46	5606
2026-01-10 13:23:18.86	46.09	22.12	-36.0	-36.8	24.7	0.00e+00	71	30	0	451936256	46	5605
2026-01-10 13:23:19.87	46.28	22.23	-36.1	-36.9	24.7	0.00e+00	0	30	0	454033408	46	5656
2026-01-10 13:23:20.88	46.47	22.33	-35.8	-36.6	25.1	0.00e+00	92	30	0	456130560	46	5477
2026-01-10 13:23:21.89	46.66	22.43	-35.6	-36.4	25.0	0.00e+00	0	30	0	457179136	44	6016
2026-01-10 13:23:22.90	46.86	22.53	-35.4	-36.2	25.2	0.00e+00	57	30	0	459276288	44	5861
2026-01-10 13:23:23.91	47.05	22.63	-35.5	-36.2	25.2	0.00e+00	0	30	0	461373440	44	5892
2026-01-10 13:23:24.92	47.25	22.73	-35.1	-35.9	25.5	0.00e+00	46	30	0	463470592	44	5670
2026-01-10 13:23:25.93	47.45	22.84	-35.3	-36.0	25.4	0.00e+00	18	30	0	465567744	44	5744
2026-01-10 13:23:26.94	47.65	22.94	-35.2	-36.0	25.4	0.00e+00	44	30	0	466616320	44	5709
2026-01-10 13:23:27.95	47.85	23.04	-35.2	-36.0	25.4	0.00e+00	92	30	0	468713472	44	5723
2026-01-10 13:23:28.96	48.05	23.14	-35.3	-36.0	25.3	0.00e+00	37	30	0	470810624	44	5748
2026-01-10 13:23:29.97	48.25	23.25	-35.4	-36.1	25.3	0.00e+00	92	30	0	472907776	44	5816
2026-01-10 13:23:30.98	48.46	23.35	-35.4	-36.2	25.2	0.00e+00	0	30	0	475004928	44	5868
2026-01-10 13:23:31.99	48.66	23.45	-35.5	-36.3	25.0	0.00e+00	38	30	0	476053504	44	5921
2026-01-10 13:23:33.00	48.87	23.55	-35.6	-36.4	25.1	0.00e+00	0	30	0	478150656	44	6015
2026-01-10 13:23:34.01	49.08	23.66	-35.6	-36.4	25.2	0.00e+00	35	30	0	480247808	44	5987
2026-01-10 13:23:35.02	49.29	23.76	-35.3	-36.1	25.4	0.00e+00	90	30	0	482344960	44	5776
2026-01-10 13:23:36.03	49.50	23.86	-35.5	-36.2	25.2	0.00e+00	0	30	0	484442112	44	5889
2026-01-10 13:23:37.04	49.71	23.96	-35.5	-36.3	25.2	0.00e+00	92	30	0	485490688	44	5904
2026-01-10 13:23:38.05	49.92	24.07	-35.7	-36.5	25.1	0.00e+00	0	30	0	487587840	44	6072
2026-01-10 13:23:39.06	50.14	24.17	-35.7	-36.5	25.0	0.00e+00	0	30	0	489684992	44	6055
2026-01-10 13:23:40.07	50.36	24.27	-35.8	-36.7	24.9	0.00e+00	0	30	0	491782144	44	6175
2026-01-10 13:23:41.08	50.57	24.37	-36.0	-36.8	24.7	0.00e+00	0	30	0	493879296	44	6293
2026-01-10 13:23:42.09	50.79	24.48	-35.8	-36.6	24.9	0.00e+00	25	30	0	494927872	44	6156
2026-01-10 13:23:43.10	51.01	24.58	-35.8	-36.6	25.0	0.00e+00	44	30	0	497025024	44	6135
2026-01-10 13:23:44.11	51.24	24.68	-35.8	-36.6	24.9	0.00e+00	94	30	0	499122176	44	6123
2026-01-10 13:23:45.12	51.46	24.78	-35.9	-36.7	24.9	0.00e+00	0	30	0	501219328	44	6187
2026-01-10 13:23:46.13	51.68	24.89	-35.9	-36.7	24.9	0.00e+00	0	30	0	503316480	44	6207
2026-01-10 13:23:47.14	51.91	24.99	-36.0	-36.8	24.8	0.00e+00	0	30	0	505413632	44	6288
2026-01-10 13:23:48.15	52.14	25.09	-36.1	-36.9	24.7	0.00e+00	40	30	0	506462208	44	6353
2026-01-10 13:23:49.16	52.37	25.19	-36.2	-37.0	24.5	0.00e+00	23	30	0	508559360	44	6423
2026-01-10 13:23:50.17	52.60	25.29	-36.2	-37.0	24.3	0.00e+00	42	30	0	510656512	44	6461
2026-01-10 13:23:51.18	52.83	25.40	-36.3	-37.2	24.4	0.00e+00	91	30	0	512753664	44	6567
2026-01-10 13:23:52.19	53.06	25.50	-36.1	-36.9	24.6	0.00e+00	40	30	0	514850816	44	6383
2026-01-10 13:23:53.20	53.30	25.60	-36.2	-37.1	24.5	0.00e+00	92	30	0	515899392	44	6475
2026-01-10 13:23:54.21	53.54	25.70	-36.2	-37.0	24.7	0.00e+00	0	30	0	517996544	44	6415
2026-01-10 13:23:55.22	53.77	25.80	-36.2	-37.0	24.6	0.00e+00	0	30	0	520093696	44	6438
2026-01-10 13:23:56.23	54.01	25.90	-36.2	-37.0	24.6	0.00e+00	0	30	0	522190848	44	6449
2026-01-10 13:23:57.24	54.25	26.01	-36.5	-37.4	24.3	0.00e+00	0	30	0	524288000	44	6719
2026-01-10 13:23:58.25	54.50	26.11	-36.8	-37.6	24.0	0.00e+00	90	30	0	525336576	46	6172
2026-01-10 13:23:59.26	54.74	26.21	-37.0	-37.9	23.8	0.00e+00	0	30	0	527433728	46	6372
2026-01-10 13:24:00.27	54.99	26.31	-37.3	-38.2	23.6	0.00e+00	92	30	0	529530880	46	6569
2026-01-10 13:24:01.28	55.23	26.41	-37.2	-38.1	23.6	0.00e+00	0	30	0	531628032	46	6501
2026-01-10 13:24:02.29	55.48	26.51	-37.4	-38.3	23.6	0.00e+00	0	30	0	533725184	46	6616
2026-01-10 13:24:03.30	55.73	26.61	-37.4	-38.3	23.5	0.00e+00	0	30	0	534773760	46	6627
2026-01-10 13:24:04.31	55.98	26.71	-37.2	-38.1	23.7	0.00e+00	0	30	0	536870912	46	6506
2026-01-10 13:24:05.32	56.24	26.81	-37.3	-38.2	23.6	0.00e+00	4	30	0	538968064	46	6563
2026-01-10 13:24:06.33	56.49	26.91	-37.5	-38.4	23.5	0.00e+00	43	30	0	541065216	46	6713
2026-01-10 13:24:07.34	56.75	27.01	-37.4	-38.3	23.6	0.00e+00	91	30	0	543162368	46	6648
2026-01-10 13:24:08.35	57.01	27.11	-37.5	-38.4	23.4	0.00e+00	46	30	0	544210944	46	6733
2026-01-10 13:24:09.36	57.27	27.21	-37.3	-38.2	23.7	0.00e+00	48	30	0	546308096	46	6569
2026-01-10 13:24:10.37	57.53	27.31	-37.4	-38.3	23.6	0.00e+00	2	30	0	548405248	46	6645
2026-01-10 13:24:11.38	57.79	27.40	-37.6	-38.5	23.6	0.00e+00	0	30	0	550502400	46	6772
2026-01-10 13:24:12.39	58.06	27.50	-37.4	-38.3	23.5	0.00e+00	36	30	0	552599552	46	6656
2026-01-10 13:24:13.40	58.32	27.60	-37.7	-38.6	23.3	0.00e+00	6	30	0	553648128	46	6914
2026-01-10 13:24:14.41	58.59	27.70	-38.1	-39.0	22.9	0.00e+00	91	30	0	555745280	48	6443
2026-01-10 13:24:15.42	58.86	27.80	-38.4	-39.4	22.6	0.00e+00	42	30	0	557842432	48	6730
2026-01-10 13:24:16.43	59.13	27.89	-38.8	-39.9	22.2	0.00e+00	91	30	0	559939584	50	6328
2026-01-10 13:24:17.43	59.40	27.99	-39.0	-40.0	22.1	0.00e+00	7	30	0	562036736	50	6433
2026-01-10 13:24:18.45	59.68	28.08	-39.0	-40.0	22.0	0.00e+00	0	30	0	563085312	50	6462
2026-01-10 13:24:19.45	59.95	28.18	-39.3	-40.4	21.8	0.00e+00	0	30	0	565182464	50	6707
2026-01-10 13:24:20.46	60.23	28.28	-39.3	-40.4	21.6	0.00e+00	0	30	0	567279616	50	6751
2026-01-10 13:24:21.47	60.50	28.37	-39.5	-40.7	21.4	0.00e+00	90	30	0	569376768	50	6950
2026-01-10 13:24:22.49	60.79	28.47	-39.9	-41.0	21.1	0.00e+00	0	30	0	571473920	52	6457
2026-01-10 13:24:23.50	61.07	28.56	-40.1	-41.4	20.8	0.00e+00	90	30	0	573571072	52	6701
2026-01-10 13:24:24.51	61.35	28.65	-40.4	-41.6	20.5	0.00e+00	0	30	0	574619648	52	6926
2026-01-10 13:24:25.51	61.64	28.75	-40.5	-41.8	20.2	0.00e+00	5	30	0	576716800	52	7075
2026-01-10 13:24:26.53	61.93	28.84	-40.5	-41.8	20.3	0.00e+00	45	30	0	578813952	52	7036
2026-01-10 13:24:27.54	62.22	28.93	-40.5	-41.8	20.3	0.00e+00	45	30	0	580911104	52	7072
2026-01-10 13:24:28.55	62.51	29.03	-40.4	-41.7	20.7	0.00e+00	48	30	0	583008256	52	6969
2026-01-10 13:24:29.55	62.80	29.12	-40.3	-41.6	20.6	0.00e+00	45	30	0	584056832	52	6857
2026-01-10 13:24:30.56	63.09	29.21	-40.3	-41.6	20.7	0.00e+00	91	30	0	586153984	52	6865
2026-01-10 13:24:31.57	63.38	29.30	-40.3	-41.5	20.7	0.00e+00	41	30	0	588251136	52	6813
2026-01-10 13:24:32.58	63.68	29.39	-40.5	-41.8	20.4	0.00e+00	6	30	0	590348288	52	7052
2026-01-10 13:24:33.59	63.98	29.48	-40.5	-41.8	20.4	0.00e+00	0	30	0	592445440	52	7024
2026-01-10 13:24:34.60	64.28	29.57	-40.7	-42.0	20.2	0.00e+00	6	30	0	593494016	52	7228
2026-01-10 13:24:35.61	64.58	29.65	-40.7	-42.0	20.2	0.00e+00	0	30	0	595591168	54	6461
2026-01-10 13:24:36.62	64.89	29.74	-40.6	-42.0	20.1	0.00e+00	7	30	0	597688320	54	6423
2026-01-10 13:24:37.63	65.19	29.83	-40.4	-41.7	20.5	0.00e+00	92	30	0	599785472	54	6227
2026-01-10 13:24:38.64	65.50	29.92	-40.3	-41.5	20.7	0.00e+00	0	30	0	601882624	54	6090
2026-01-10 13:24:39.65	65.81	30.00	-39.9	-41.1	21.1	0.00e+00	71	30	0	602931200	54	5773
2026-01-10 13:24:40.66	66.12	30.09	-40.0	-41.2	21.0	0.00e+00	0	30	0	605028352	54	5846
2026-01-10 13:24:41.67	66.43	30.17	-39.5	-40.6	21.6	0.00e+00	6	30	0	607125504	52	6170
2026-01-10 13:24:42.68	66.74	30.26	-39.6	-40.7	21.5	0.00e+00	5	30	0	609222656	52	6244
2026-01-10 13:24:43.69	67.06	30.34	-39.4	-40.5	21.6	0.00e+00	44	30	0	611319808	52	6077
2026-01-10 13:24:44.70	67.37	30.42	-39.3	-40.4	21.7	0.00e+00	91	30	0	612368384	52	6011
2026-01-10 13:24:45.71	67.69	30.50	-39.4	-40.5	21.6	0.00e+00	39	30	0	614465536	52	6100
2026-01-10 13:24:46.72	68.01	30.59	-39.6	-40.7	21.5	0.00e+00	92	30	0	616562688	52	6239
2026-01-10 13:24:47.73	68.33	30.67	-39.5	-40.7	21.4	0.00e+00	0	30	0	618659840	52	6174
2026-01-10 13:24:48.74	68.65	30.75	-39.6	-40.8	21.4	0.00e+00	40	30	0	620756992	52	6259
2026-01-10 13:24:49.75	68.98	30.82	-39.3	-40.4	21.7	0.00e+00	36	30	0	621805568	52	6033
2026-01-10 13:24:50.76	69.30	30.90	-39.3	-40.4	21.8	0.00e+00	40	30	0	623902720	52	5989
2026-01-10 13:24:51.77	69.63	30.98	-39.0	-40.0	22.1	0.00e+00	90	30	0	625999872	52	5760
2026-01-10 13:24:52.78	69.96	31.06	-38.7	-39.7	22.3	0.00e+00	40	30	0	628097024	52	5552
2026-01-10 13:24:53.79	70.29	31.13	-38.6	-39.6	22.4	0.00e+00	91	30	0	630194176	50	6150
2026-01-10 13:24:54.80	70.62	31.21	-38.9	-40.0	21.8	0.00e+00	36	30	0	631242752	50	6421
2026-01-10 13:24:55.81	70.96	31.28	-39.2	-40.2	21.7	0.00e+00	48	30	0	633339904	50	6607
2026-01-10 13:24:56.82	71.29	31.36	-39.7	-40.9	21.1	0.00e+00	0	30	0	635437056	50	7127
2026-01-10 13:24:57.83	71.63	31.43	-40.5	-41.8	20.4	0.00e+00	35	30	0	637534208	52	7016
2026-01-10 13:24:58.83	71.96	31.50	-40.7	-42.1	19.9	0.00e+00	0	30	0	639631360	54	6511
2026-01-10 13:24:59.84	72.30	31.57	-40.6	-41.9	20.3	0.00e+00	0	30	0	641728512	54	6388
2026-01-10 13:25:00.85	72.64	31.64	-40.4	-41.6	20.5	0.00e+00	91	30	0	642777088	54	6168
2026-01-10 13:25:01.86	72.99	31.71	-40.2	-41.4	20.8	0.00e+00	0	30	0	644874240	54	6032
2026-01-10 13:25:02.87	73.33	31.78	-39.4	-40.5	21.7	0.00e+00	71	30	0	646971392	52	6088
2026-01-10 13:25:03.88	73.67	31.84	-39.0	-40.1	22.0	0.00e+00	44	30	0	649068544	52	5801
2026-01-10 13:25:04.89	74.02	31.91	-38.9	-40.0	22.0	0.00e+00	45	30	0	651165696	52	5721
2026-01-10 13:25:05.90	74.37	31.97	-38.9	-40.0	22.1	0.00e+00	0	30	0	652214272	52	5710
2026-01-10 13:25:06.91	74.72	32.04	-39.0	-40.1	22.0	0.00e+00	3	30	0	654311424	52	5794
2026-01-10 13:25:07.92	75.07	32.10	-39.2	-40.3	21.7	0.00e+00	90	30	0	656408576	52	5922
2026-01-10 13:25:08.93	75.42	32.16	-39.3	-40.4	21.6	0.00e+00	46	30	0	658505728	52	6026
2026-01-10 13:25:09.94	75.77	32.22	-39.4	-40.6	21.5	0.00e+00	91	30	0	660602880	52	6127
2026-01-10 13:25:10.95	76.13	32.28	-39.6	-40.8	21.3	0.00e+00	46	30	0	661651456	52	6283
2026-01-10 13:25:11.96	76.49	32.34	-39.8	-40.9	21.3	0.00e+00	37	30	0	663748608	52	6371
2026-01-10 13:25:12.96	76.84	32.40	-39.5	-40.7	21.3	0.00e+00	45	30	0	665845760	52	6177
2026-01-10 13:25:13.98	77.20	32.45	-39.3	-40.4	21.6	0.00e+00	35	30	0	667942912	52	5991
2026-01-10 13:25:14.99	77.56	32.51	-39.2	-40.3	21.7	0.00e+00	90	30	0	670040064	52	5963
2026-01-10 13:25:15.99	77.92	32.56	-39.5	-40.7	21.4	0.00e+00	40	30	0	671088640	52	6199
2026-01-10 13:25:17.00	78.28	32.62	-39.5	-40.6	21.5	0.00e+00	90	30	0	673185792	52	6128
2026-01-10 13:25:18.01	78.64	32.67	-39.7	-40.8	21.2	0.00e+00	41	30	0	675282944	52	6292
2026-01-10 13:25:19.02	79.01	32.72	-39.9	-41.1	21.0	0.00e+00	54	30	0	677380096	52	6525
2026-01-10 13:25:20.03	79.37	32.77	-39.9	-41.1	20.9	0.00e+00	0	30	0	679477248	52	6527
2026-01-10 13:25:21.04	79.74	32.82	-40.0	-41.3	21.0	0.00e+00	0	30	0	680525824	52	6641
2026-01-10 13:25:22.05	80.11	32.86	-39.6	-40.7	21.4	0.00e+00	0	30	0	682622976	52	6236
2026-01-10 13:25:23.06	80.48	32.91	-39.6	-40.7	21.5	0.00e+00	0	30	0	684720128	52	6220
2026-01-10 13:25:24.07	80.85	32.95	-39.4	-40.5	21.7	0.00e+00	92	30	0	686817280	52	6060
2026-01-10 13:25:25.08	81.22	33.00	-39.2	-40.4	21.7	0.00e+00	2	30	0	688914432	52	5966
2026-01-10 13:25:26.09	81.59	33.04	-38.9	-40.0	22.0	0.00e+00	92	30	0	689963008	52	5709
2026-01-10 13:25:27.10	81.96	33.08	-39.0	-40.0	21.9	0.00e+00	0	30	0	692060160	52	5756
2026-01-10 13:25:28.11	82.33	33.12	-39.1	-40.2	21.8	0.00e+00	0	30	0	694157312	52	5856
2026-01-10 13:25:29.12	82.71	33.16	-39.3	-40.4	21.6	0.00e+00	0	30	0	696254464	52	6007
2026-01-10 13:25:30.13	83.08	33.20	-39.7	-40.9	21.3	0.00e+00	0	30	0	698351616	52	6323
2026-01-10 13:25:31.14	83.46	33.23	-39.8	-41.0	21.1	0.00e+00	90	30	0	699400192	52	6464
2026-01-10 13:25:32.15	83.84	33.27	-39.9	-41.1	20.9	0.00e+00	36	30	0	701497344	52	6492
2026-01-10 13:25:33.16	84.22	33.30	-39.9	-41.1	21.0	0.00e+00	90	30	0	703594496	52	6509
2026-01-10 13:25:34.17	84.59	33.33	-39.6	-40.7	21.5	0.00e+00	48	30	0	705691648	52	6235
2026-01-10 13:25:35.18	84.97	33.36	-39.6	-40.8	21.3	0.00e+00	46	30	0	707788800	52	6296
2026-01-10 13:25:36.19	85.35	33.39	-39.9	-41.1	21.0	0.00e+00	0	30	0	709885952	52	6529
2026-01-10 13:25:37.20	85.73	33.42	-40.3	-41.6	20.4	0.00e+00	2	30	0	710934528	52	6886
2026-01-10 13:25:38.21	86.11	33.45	-40.3	-41.6	20.5	0.00e+00	10	30	0	713031680	52	6882
2026-01-10 13:25:39.22	86.50	33.47	-40.3	-41.6	20.6	0.00e+00	0	30	0	715128832	52	6897
2026-01-10 13:25:40.23	86.88	33.49	-40.0	-41.2	20.9	0.00e+00	92	30	0	717225984	52	6586
2026-01-10 13:25:41.24	87.26	33.52	-39.7	-40.8	21.2	0.00e+00	2	30	0	719323136	52	6315
2026-01-10 13:25:42.25	87.65	33.54	-39.4	-40.5	21.5	0.00e+00	58	30	0	720371712	52	6080
2026-01-10 13:25:43.26	88.03	33.56	-39.2	-40.2	21.8	0.00e+00	2	30	0	722468864	52	5895
2026-01-10 13:25:44.27	88.41	33.58	-39.1	-40.2	21.9	0.00e+00	0	30	0	724566016	52	5863
2026-01-10 13:25:45.28	88.80	33.59	-39.1	-40.2	21.8	0.00e+00	0	30	0	726663168	52	5849
2026-01-10 13:25:46.29	89.18	33.61	-39.3	-40.5	21.6	0.00e+00	0	30	0	728760320	52	6048
2026-01-10 13:25:47.30	89.57	33.62	-39.5	-40.7	21.3	0.00e+00	90	30	0	729808896	52	6201
2026-01-10 13:25:48.31	89.95	33.63	-39.8	-40.9	21.2	0.00e+00	39	30	0	731906048	52	6383
2026-01-10 13:25:49.31	90.34	33.65	-39.6	-40.8	21.3	0.00e+00	92	30	0	734003200	52	6285
2026-01-10 13:25:50.32	90.72	33.66	-39.7	-40.8	21.3	0.00e+00	0	30	0	736100352	52	6302
2026-01-10 13:25:51.33	91.11	33.66	-39.5	-40.7	21.5	0.00e+00	39	30	0	738197504	52	6185
2026-01-10 13:25:52.34	91.50	33.67	-39.1	-40.2	21.9	0.00e+00	51	30	0	739246080	52	5829
2026-01-10 13:25:53.35	91.88	33.68	-38.9	-40.0	22.1	0.00e+00	42	30	0	741343232	52	5720
2026-01-10 13:25:54.36	92.27	33.68	-39.0	-40.1	21.9	0.00e+00	90	30	0	743440384	52	5789
2026-01-10 13:25:55.37	92.66	33.68	-39.4	-40.6	21.5	0.00e+00	0	30	0	745537536	52	6134
2026-01-10 13:25:56.38	93.05	33.68	-39.6	-40.8	21.2	0.00e+00	92	30	0	747634688	52	6294
2026-01-10 13:25:57.39	93.43	33.68	-39.4	-40.6	21.5	0.00e+00	35	30	0	748683264	52	6136
2026-01-10 13:25:58.39	93.82	33.68	-39.1	-40.3	21.8	0.00e+00	6	30	0	750780416	52	5897
2026-01-10 13:25:59.41	94.21	33.68	-38.7	-39.7	22.3	0.00e+00	38	30	0	752877568	52	5555
2026-01-10 13:26:00.41	94.59	33.68	-38.4	-39.4	22.4	0.00e+00	5	30	0	754974720	50	5975
2026-01-10 13:26:01.42	94.98	33.67	-38.3	-39.3	22.6	0.00e+00	29	30	0	757071872	50	5940
2026-01-10 13:26:02.43	95.36	33.66	-38.2	-39.2	22.7	0.00e+00	0	30	0	758120448	50	5874
2026-01-10 13:26:03.44	95.75	33.65	-38.3	-39.2	22.7	0.00e+00	92	30	0	760217600	50	5888
2026-01-10 13:26:04.45	96.14	33.64	-38.2	-39.1	22.7	0.00e+00	5	30	0	762314752	50	5816
2026-01-10 13:26:05.46	96.52	33.63	-38.8	-39.9	22.2	0.00e+00	91	30	0	764411904	50	6332
2026-01-10 13:26:06.47	96.91	33.62	-39.3	-40.4	21.6	0.00e+00	0	30	0	766509056	50	6744
2026-01-10 13:26:07.48	97.30	33.60	-39.6	-40.8	21.4	0.00e+00	0	30	0	767557632	50	7040
2026-01-10 13:26:08.49	97.68	33.59	-39.6	-40.8	21.2	0.00e+00	0	30	0	769654784	50	7051
2026-01-10 13:26:09.50	98.07	33.57	-39.6	-40.8	21.4	0.00e+00	0	30	0	771751936	52	6254
2026-01-10 13:26:10.51	98.45	33.55	-39.8	-41.0	21.0	0.00e+00	92	30	0	773849088	52	6403
2026-01-10 13:26:11.52	98.83	33.53	-39.8	-41.1	21.0	0.00e+00	43	30	0	775946240	52	6466
2026-01-10 13:26:12.53	99.22	33.51	-39.9	-41.2	21.0	0.00e+00	90	30	0	776994816	52	6544
2026-01-10 13:26:13.53	99.60	33.49	-40.1	-41.3	20.8	0.00e+00	45	30	0	779091968	52	6673
2026-01-10 13:26:14.54	99.98	33.46	-40.1	-41.4	20.8	0.00e+00	42	30	0	781189120	52	6739
2026-01-10 13:26:15.55	100.36	33.44	-40.1	-41.4	20.8	0.00e+00	50	30	0	783286272	52	6695
2026-01-10 13:26:16.56	100.74	33.41	-39.8	-41.1	20.9	0.00e+00	38	30	0	785383424	52	6470
2026-01-10 13:26:17.57	101.12	33.38	-39.6	-40.8	21.4	0.00e+00	92	30	0	786432000	52	6272
2026-01-10 13:26:18.58	101.50	33.35	-39.4	-40.6	21.4	0.00e+00	6	30	0	788529152	52	6135
2026-01-10 13:26:19.59	101.88	33.32	-39.7	-40.9	21.1	0.00e+00	92	30	0	790626304	52	6368
2026-01-10 13:26:20.60	102.26	33.29	-40.0	-41.3	20.9	0.00e+00	6	30	0	792723456	52	6625
2026-01-10 13:26:21.61	102.64	33.26	-40.2	-41.4	20.7	0.00e+00	90	30	0	794820608	52	6745
2026-01-10 13:26:22.62	103.02	33.22	-39.9	-41.1	21.0	0.00e+00	4	30	0	795869184	52	6513
2026-01-10 13:26:23.63	103.39	33.19	-40.0	-41.3	20.8	0.00e+00	6	30	0	797966336	52	6617
2026-01-10 13:26:24.64	103.77	33.15	-40.0	-41.2	20.9	0.00e+00	90	30	0	800063488	52	6609
2026-01-10 13:26:25.65	104.14	33.11	-40.1	-41.4	20.7	0.00e+00	0	30	0	802160640	52	6711
2026-01-10 13:26:26.66	104.52	33.07	-40.5	-41.8	20.4	0.00e+00	90	30	0	804257792	52	7037
2026-01-10 13:26:27.67	104.89	33.03	-40.8	-42.1	20.0	0.00e+00	0	30	0	806354944	52	7337
2026-01-10 13:26:28.68	105.26	32.99	-40.7	-42.0	20.1	0.00e+00	60	30	0	807403520	54	6461
2026-01-10 13:26:29.69	105.63	32.94	-40.5	-41.8	20.4	0.00e+00	47	30	0	809500672	54	6255
2026-01-10 13:26:30.70	106.00	32.90	-40.4	-41.7	20.6	0.00e+00	45	30	0	811597824	54	6220
2026-01-10 13:26:31.71	106.37	32.85	-39.4	-40.5	21.7	0.00e+00	0	30	0	813694976	52	6082
2026-01-10 13:26:32.72	106.74	32.80	-39.3	-40.4	21.6	0.00e+00	45	30	0	815792128	52	5996
2026-01-10 13:26:33.73	107.11	32.75	-39.2	-40.3	21.7	0.00e+00	91	30	0	816840704	52	5928
2026-01-10 13:26:34.74	107.47	32.70	-39.5	-40.8	21.2	0.00e+00	46	30	0	818937856	52	6263
2026-01-10 13:26:35.75	107.84	32.65	-39.6	-40.8	21.2	0.00e+00	92	30	0	821035008	52	6312
2026-01-10 13:26:36.75	108.20	32.60	-39.8	-41.0	21.2	0.00e+00	44	30	0	823132160	52	6457
2026-01-10 13:26:37.76	108.56	32.55	-39.7	-40.9	21.2	0.00e+00	36	30	0	825229312	52	6326
2026-01-10 13:26:38.77	108.92	32.49	-39.7	-40.9	21.3	0.00e+00	36	30	0	826277888	52	6337
2026-01-10 13:26:39.78	109.28	32.44	-39.7	-40.8	21.3	0.00e+00	0	30	0	828375040	52	6290
2026-01-10 13:26:40.79	109.64	32.38	-39.7	-40.9	21.2	0.00e+00	90	30	0	830472192	52	6372
2026-01-10 13:26:41.80	110.00	32.32	-40.0	-41.3	20.9	0.00e+00	0	30	0	832569344	52	6628
2026-01-10 13:26:42.81	110.35	32.26	-40.1	-41.3	20.8	0.00e+00	92	30	0	834666496	52	6680
2026-01-10 13:26:43.82	110.71	32.20	-39.8	-41.0	21.1	0.00e+00	37	30	0	835715072	52	6444
2026-01-10 13:26:44.83	111.06	32.14	-39.7	-40.9	21.3	0.00e+00	0	30	0	837812224	52	6330
2026-01-10 13:26:45.84	111.41	32.08	-39.3	-40.4	21.7	0.00e+00	0	30	0	839909376	52	5986
2026-01-10 13:26:46.85	111.77	32.02	-39.0	-40.0	22.1	0.00e+00	0	30	0	842006528	52	5736
2026-01-10 13:26:47.86	112.12	31.95	-38.9	-40.0	22.1	0.00e+00	0	30	0	844103680	52	5704
2026-01-10 13:26:48.87	112.46	31.89	-38.8	-39.8	22.3	0.00e+00	0	30	0	845152256	52	5627
2026-01-10 13:26:49.88	112.81	31.82	-38.9	-40.0	22.0	0.00e+00	92	30	0	847249408	52	5707
2026-01-10 13:26:50.89	113.16	31.75	-38.9	-40.0	22.0	0.00e+00	0	30	0	849346560	52	5732
2026-01-10 13:26:51.90	113.50	31.68	-39.1	-40.2	21.8	0.00e+00	90	30	0	851443712	52	5848
2026-01-10 13:26:52.91	113.84	31.61	-39.2	-40.3	21.8	0.00e+00	0	30	0	853540864	52	5901
2026-01-10 13:26:53.92	114.18	31.54	-39.5	-40.6	21.5	0.00e+00	45	30	0	854589440	52	6152
2026-01-10 13:26:54.93	114.52	31.47	-39.9	-41.1	21.0	0.00e+00	0	30	0	856686592	52	6499
2026-01-10 13:26:55.94	114.86	31.40	-40.0	-41.2	21.0	0.00e+00	44	30	0	858783744	52	6576
2026-01-10 13:26:56.95	115.20	31.33	-39.9	-41.1	21.0	0.00e+00	92	30	0	860880896	52	6488
2026-01-10 13:26:57.96	115.53	31.25	-39.6	-40.7	21.3	0.00e+00	45	30	0	862978048	52	6224
2026-01-10 13:26:58.97	115.87	31.18	-39.5	-40.6	21.5	0.00e+00	90	30	0	864026624	52	6146
2026-01-10 13:26:59.98	116.20	31.10	-39.2	-40.3	21.7	0.00e+00	37	30	0	866123776	52	5946
2026-01-10 13:27:00.98	116.53	31.03	-39.3	-40.5	21.3	0.00e+00	57	30	0	868220928	52	6046
2026-01-10 13:27:01.99	116.86	30.95	-39.4	-40.5	21.5	0.00e+00	0	30	0	870318080	52	6080
2026-01-10 13:27:03.00	117.19	30.87	-39.4	-40.5	21.5	0.00e+00	0	30	0	872415232	52	6067
2026-01-10 13:27:04.01	117.51	30.79	-39.3	-40.4	21.8	0.00e+00	90	30	0	874512384	52	5978
2026-01-10 13:27:05.02	117.84	30.71	-38.8	-39.8	22.2	0.00e+00	2	30	0	875560960	52	5620
2026-01-10 13:27:06.03	118.16	30.63	-38.8	-39.9	22.2	0.00e+00	90	30	0	877658112	52	5632
2026-01-10 13:27:07.04	118.48	30.55	-39.0	-40.1	21.9	0.00e+00	0	30	0	879755264	52	5786
2026-01-10 13:27:08.05	118.80	30.47	-39.4	-40.5	21.4	0.00e+00	31	30	0	881852416	52	6076
2026-01-10 13:27:09.06	119.12	30.39	-39.6	-40.7	21.4	0.00e+00	0	30	0	883949568	52	6212
2026-01-10 13:27:10.07	119.44	30.31	-39.7	-40.8	21.2	0.00e+00	2	30	0	884998144	52	6311
2026-01-10 13:27:11.08	119.75	30.22	-39.7	-40.8	21.2	0.00e+00	2	30	0	887095296	52	6316
2026-01-10 13:27:12.09	120.07	30.14	-39.6	-40.7	21.4	0.00e+00	0	30	0	889192448	52	6231
2026-01-10 13:27:13.10	120.38	30.05	-39.8	-40.9	21.2	0.00e+00	92	30	0	891289600	52	6377
2026-01-10 13:27:14.11	120.69	29.97	-39.7	-40.9	21.2	0.00e+00	0	30	0	893386752	52	6340
2026-01-10 13:27:15.12	121.00	29.88	-39.5	-40.7	21.4	0.00e+00	92	30	0	894435328	52	6204
2026-01-10 13:27:16.13	121.30	29.79	-39.1	-40.2	21.9	0.00e+00	43	30	0	896532480	52	5849
2026-01-10 13:27:17.14	121.61	29.70	-38.8	-39.8	22.3	0.00e+00	42	30	0	898629632	52	5612
2026-01-10 13:27:18.15	121.91	29.62	-38.3	-39.3	22.6	0.00e+00	0	30	0	900726784	50	5931
2026-01-10 13:27:19.16	122.21	29.53	-38.3	-39.2	22.7	0.00e+00	43	30	0	902823936	50	5891
2026-01-10 13:27:20.17	122.52	29.44	-38.7	-39.7	22.2	0.00e+00	92	30	0	903872512	50	6245
2026-01-10 13:27:21.18	122.81	29.35	-38.9	-40.0	22.1	0.00e+00	2	30	0	905969664	50	6394
2026-01-10 13:27:22.19	123.11	29.26	-38.8	-39.9	22.2	0.00e+00	91	30	0	908066816	50	6339
2026-01-10 13:27:23.20	123.41	29.17	-38.9	-39.9	22.2	0.00e+00	0	30	0	910163968	50	6382
2026-01-10 13:27:24.21	123.70	29.07	-38.8	-39.8	22.2	0.00e+00	60	30	0	912261120	50	6302
2026-01-10 13:27:25.22	123.99	28.98	-38.8	-39.9	22.1	0.00e+00	0	30	0	913309696	50	6319
2026-01-10 13:27:26.23	124.28	28.89	-39.0	-40.1	21.8	0.00e+00	0	30	0	915406848	50	6512
2026-01-10 13:27:27.24	124.57	28.80	-39.4	-40.5	21.6	0.00e+00	90	30	0	917504000	50	6822
2026-01-10 13:27:28.24	124.86	28.70	-39.4	-40.6	21.5	0.00e+00	0	30	0	919601152	50	6871
2026-01-10 13:27:29.25	125.14	28.61	-39.2	-40.3	21.7	0.00e+00	92	30	0	921698304	50	6639
2026-01-10 13:27:30.26	125.43	28.51	-38.6	-39.6	22.3	0.00e+00	0	30	0	922746880	50	6142
2026-01-10 13:27:31.27	125.71	28.42	-38.5	-39.5	22.5	0.00e+00	0	30	0	924844032	50	6051
2026-01-10 13:27:32.28	125.99	28.32	-38.5	-39.5	22.4	0.00e+00	0	30	0	926941184	50	6059
2026-01-10 13:27:33.29	126.27	28.23	-39.0	-40.1	21.7	0.00e+00	0	30	0	929038336	50	6534
2026-01-10 13:27:34.30	126.55	28.13	-39.6	-40.8	21.3	0.00e+00	41	30	0	931135488	50	7055
2026-01-10 13:27:35.31	126.82	28.04	-39.4	-40.6	21.5	0.00e+00	0	30	0	932184064	52	6136
2026-01-10 13:27:36.32	127.10	27.94	-38.8	-39.8	22.2	0.00e+00	92	30	0	934281216	52	5618
2026-01-10 13:27:37.33	127.37	27.84	-38.3	-39.3	22.6	0.00e+00	43	30	0	936378368	50	5898
2026-01-10 13:27:38.34	127.64	27.74	-38.4	-39.4	22.4	0.00e+00	95	30	0	938475520	50	6023
2026-01-10 13:27:39.35	127.91	27.65	-38.2	-39.2	22.8	0.00e+00	0	30	0	940572672	50	5840
2026-01-10 13:27:40.36	128.18	27.55	-38.6	-39.6	22.3	0.00e+00	41	30	0	942669824	50	6146
2026-01-10 13:27:41.37	128.45	27.45	-39.3	-40.4	21.4	0.00e+00	24	30	0	943718400	50	6752
2026-01-10 13:27:42.38	128.71	27.35	-39.8	-41.0	20.9	0.00e+00	39	30	0	945815552	52	6445
2026-01-10 13:27:43.39	128.97	27.25	-39.2	-40.3	21.7	0.00e+00	92	30	0	947912704	52	5928
2026-01-10 13:27:44.40	129.24	27.15	-38.7	-39.7	22.2	0.00e+00	37	30	0	950009856	50	6234
2026-01-10 13:27:45.41	129.50	27.05	-38.4	-39.4	22.5	0.00e+00	90	30	0	952107008	50	6033
2026-01-10 13:27:46.42	129.75	26.95	-38.2	-39.2	22.7	0.00e+00	5	30	0	953155584	50	5867
2026-01-10 13:27:47.42	130.01	26.85	-38.6	-39.6	22.3	0.00e+00	5	30	0	955252736	50	6171
2026-01-10 13:27:48.43	130.26	26.75	-39.1	-40.2	21.8	0.00e+00	6	30	0	957349888	50	6567
2026-01-10 13:27:49.44	130.52	26.65	-39.4	-40.6	21.5	0.00e+00	0	30	0	959447040	50	6853
2026-01-10 13:27:50.45	130.77	26.55	-39.0	-40.1	21.9	0.00e+00	88	30	0	961544192	50	6506
2026-01-10 13:27:51.46	131.02	26.45	-38.8	-39.9	22.1	0.00e+00	0	30	0	962592768	50	6344
2026-01-10 13:27:52.47	131.27	26.35	-38.8	-39.8	22.1	0.00e+00	92	30	0	964689920	50	6284
2026-01-10 13:27:53.48	131.52	26.25	-38.6	-39.6	22.3	0.00e+00	7	30	0	966787072	50	6120
2026-01-10 13:27:54.49	131.76	26.15	-38.6	-39.7	22.2	0.00e+00	42	30	0	968884224	50	6184
2026-01-10 13:27:55.50	132.01	26.05	-39.2	-40.3	21.6	0.00e+00	0	30	0	970981376	50	6629
2026-01-10 13:27:56.51	132.25	25.94	-39.9	-41.1	20.8	0.00e+00	42	30	0	972029952	52	6529
2026-01-10 13:27:57.52	132.49	25.84	-39.8	-41.0	21.3	0.00e+00	43	30	0	974127104	52	6450
2026-01-10 13:27:58.53	132.73	25.74	-38.3	-39.3	22.6	0.00e+00	45	30	0	976224256	50	5960
2026-01-10 13:27:59.54	132.97	25.64	-37.2	-38.1	23.6	0.00e+00	92	30	0	978321408	48	5818
2026-01-10 13:28:00.55	133.20	25.54	-37.0	-37.9	23.9	0.00e+00	43	30	0	980418560	48	5672
2026-01-10 13:28:01.56	133.44	25.43	-36.7	-37.5	24.2	0.00e+00	90	30	0	981467136	46	6074
2026-01-10 13:28:02.57	133.67	25.33	-37.0	-37.9	23.9	0.00e+00	44	30	0	983564288	46	6347
2026-01-10 13:28:03.58	133.91	25.23	-37.6	-38.5	23.0	0.00e+00	46	30	0	985661440	46	6845
2026-01-10 13:28:04.59	134.14	25.13	-38.0	-39.0	22.9	0.00e+00	51	30	0	987758592	48	6432
2026-01-10 13:28:05.60	134.37	25.02	-37.8	-38.8	23.0	0.00e+00	43	30	0	989855744	48	6265
2026-01-10 13:28:06.61	134.59	24.92	-37.4	-38.4	23.4	0.00e+00	89	30	0	990904320	48	5971
2026-01-10 13:28:07.61	134.82	24.82	-37.2	-38.1	23.6	0.00e+00	7	30	0	993001472	48	5794
2026-01-10 13:28:08.62	135.04	24.71	-37.0	-37.9	23.8	0.00e+00	92	30	0	995098624	48	5649
2026-01-10 13:28:09.63	135.27	24.61	-36.8	-37.6	24.1	0.00e+00	0	30	0	997195776	48	5488
2026-01-10 13:28:10.64	135.49	24.51	-36.9	-37.8	23.9	0.00e+00	7	30	0	999292928	46	6286
2026-01-10 13:28:11.65	135.71	24.41	-37.4	-38.3	23.5	0.00e+00	0	30	0	1000341504	46	6661
2026-01-10 13:28:12.66	135.93	24.30	-37.7	-38.6	23.1	0.00e+00	0	30	0	1002438656	46	6923
2026-01-10 13:28:13.67	136.15	24.20	-37.6	-38.6	23.3	0.00e+00	90	30	0	1004535808	48	6123
2026-01-10 13:28:14.68	136.36	24.10	-37.3	-38.2	23.6	0.00e+00	43	30	0	1006632960	48	5856
2026-01-10 13:28:15.69	136.58	23.99	-37.3	-38.3	23.5	0.00e+00	90	30	0	1008730112	48	5897
2026-01-10 13:28:16.70	136.79	23.89	-36.3	-37.2	24.5	0.00e+00	38	30	0	1010827264	46	5834
2026-01-10 13:28:17.71	137.01	23.79	-36.0	-36.8	24.7	0.00e+00	69	31	0	1011875840	46	5605
2026-01-10 13:28:18.72	137.22	23.68	-36.0	-36.8	24.7	0.00e+00	37	30	0	1013972992	46	5613
2026-01-10 13:28:19.73	137.43	23.58	-36.2	-37.0	24.6	0.00e+00	37	30	0	1016070144	46	5712
2026-01-10 13:28:20.74	137.64	23.48	-36.2	-37.1	24.5	0.00e+00	0	30	0	1018167296	46	5775
2026-01-10 13:28:21.75	137.84	23.37	-36.3	-37.1	24.5	0.00e+00	44	30	0	1020264448	46	5791
2026-01-10 13:28:22.76	138.05	23.27	-36.0	-36.8	24.7	0.00e+00	92	30	0	1021313024	46	5615
2026-01-10 13:28:23.77	138.25	23.17	-35.8	-36.6	24.9	0.00e+00	44	30	0	1023410176	46	5492
2026-01-10 13:28:24.78	138.46	23.07	-35.8	-36.6	24.9	0.00e+00	91	30	0	1025507328	44	6106
2026-01-10 13:28:25.79	138.66	22.96	-35.7	-36.5	25.0	0.00e+00	2	30	0	1027604480	44	6087
2026-01-10 13:28:26.80	138.86	22.86	-35.7	-36.5	25.0	0.00e+00	39	30	0	1029701632	44	6035
2026-01-10 13:28:27.81	139.06	22.76	-35.7	-36.5	25.0	0.00e+00	38	30	0	1030750208	44	6092
2026-01-10 13:28:28.82	139.26	22.65	-35.8	-36.6	25.0	0.00e+00	39	30	0	1032847360	44	6109
2026-01-10 13:28:29.83	139.45	22.55	-35.8	-36.6	24.8	0.00e+00	92	30	0	1034944512	44	6169
2026-01-10 13:28:30.84	139.65	22.45	-36.0	-36.8	24.6	0.00e+00	0	30	0	1037041664	44	6256
2026-01-10 13:28:31.85	139.84	22.35	-35.9	-36.7	24.8	0.00e+00	92	30	0	1039138816	44	6226
2026-01-10 13:28:32.86	140.04	22.24	-35.8	-36.6	24.5	0.00e+00	0	30	0	1040187392	44	6127
2026-01-10 13:28:33.87	140.23	22.14	-35.8	-36.6	24.6	0.00e+00	0	30	0	1042284544	44	6112
2026-01-10 13:28:34.88	140.42	22.04	-35.4	-36.1	25.1	0.00e+00	5	30	0	1044381696	44	5822
2026-01-10 13:28:35.89	140.61	21.94	-35.3	-36.0	25.3	0.00e+00	0	30	0	1046478848	44	5758
2026-01-10 13:28:36.90	140.80	21.83	-35.2	-36.0	25.3	0.00e+00	90	30	0	1048576000	44	5717
2026-01-10 13:28:37.91	140.98	21.73	-35.4	-36.1	25.2	0.00e+00	41	30	0	1049624576	44	5818
2026-01-10 13:28:38.92	141.17	21.63	-35.5	-36.3	25.1	0.00e+00	91	30	0	1051721728	44	5955
2026-01-10 13:28:39.94	141.35	21.53	-35.5	-36.3	25.0	0.00e+00	40	30	0	1053818880	44	5938
2026-01-10 13:28:40.94	141.54	21.43	-35.7	-36.5	24.9	0.00e+00	57	30	0	1055916032	44	6063
2026-01-10 13:28:41.94	141.72	21.33	-35.7	-36.5	24.8	0.00e+00	40	30	0	1058013184	44	6103
2026-01-10 13:28:42.95	141.90	21.23	-35.7	-36.5	25.0	0.00e+00	0	30	0	1059061760	44	6038
2026-01-10 13:28:43.97	142.08	21.12	-35.4	-36.2	25.2	0.00e+00	7	30	0	1061158912	44	5846
2026-01-10 13:28:44.98	142.26	21.02	-35.2	-36.0	25.4	0.00e+00	41	30	0	1063256064	44	5714
2026-01-10 13:28:45.98	142.43	20.92	-35.1	-35.9	25.4	0.00e+00	91	30	0	1065353216	44	5653
2026-01-10 13:28:46.99	142.61	20.82	-35.2	-35.9	25.5	0.00e+00	0	30	0	1067450368	44	5677
2026-01-10 13:28:48.00	142.79	20.72	-35.1	-35.8	25.4	0.00e+00	90	30	0	1068498944	44	5607
2026-01-10 13:28:49.02	142.96	20.62	-35.3	-36.0	25.3	0.00e+00	2	30	0	1070596096	44	5746
2026-01-10 13:28:50.03	143.14	20.52	-35.4	-36.2	25.2	0.00e+00	2	30	0	1072693248	44	5846
2026-01-10 13:28:51.03	143.31	20.42	-35.7	-36.5	24.8	0.00e+00	0	30	0	1074790400	44	6090
2026-01-10 13:28:52.04	143.48	20.32	-36.1	-36.9	24.6	0.00e+00	0	30	0	1076887552	44	6344
2026-01-10 13:28:53.05	143.65	20.22	-36.1	-37.0	24.5	0.00e+00	92	31	0	1078984704	44	6399
2026-01-10 13:28:54.06	143.82	20.12	-36.2	-37.1	24.4	0.00e+00	0	30	0	1080033280	44	6485
2026-01-10 13:28:55.07	143.98	20.02	-36.1	-36.9	24.5	0.00e+00	92	30	0	1082130432	44	6334
2026-01-10 13:28:56.08	144.15	19.92	-36.0	-36.9	24.5	0.00e+00	42	30	0	1084227584	44	6339
2026-01-10 13:28:57.09	144.32	19.82	-36.0	-36.9	24.5	0.00e+00	0	30	0	1086324736	44	6319
2026-01-10 13:28:58.10	144.48	19.72	-35.8	-36.6	24.9	0.00e+00	2	30	0	1088421888	44	6138
2026-01-10 13:28:59.11	144.64	19.62	-35.7	-36.5	24.9	0.00e+00	0	30	0	1089470464	44	6078
2026-01-10 13:29:00.12	144.81	19.52	-35.7	-36.5	24.9	0.00e+00	0	30	0	1091567616	44	6039
2026-01-10 13:29:01.13	144.97	19.43	-35.8	-36.6	24.8	0.00e+00	40	30	0	1093664768	44	6170
2026-01-10 13:29:02.14	145.13	19.33	-35.8	-36.6	24.8	0.00e+00	91	30	0	1095761920	44	6158
2026-01-10 13:29:03.15	145.29	19.23	-35.9	-36.8	24.7	0.00e+00	41	31	0	1097859072	44	6247
2026-01-10 13:29:04.16	145.45	19.13	-36.1	-36.9	24.6	0.00e+00	39	30	0	1098907648	44	6363
2026-01-10 13:29:05.17	145.60	19.03	-36.0	-36.8	24.6	0.00e+00	40	30	0	1101004800	44	6311
2026-01-10 13:29:06.18	145.76	18.93	-36.1	-37.0	24.5	0.00e+00	0	30	0	1103101952	44	6408
2026-01-10 13:29:07.19	145.92	18.84	-36.2	-37.1	24.4	0.00e+00	0	30	0	1105199104	44	6470
2026-01-10 13:29:08.20	146.07	18.74	-36.2	-37.0	24.4	0.00e+00	0	30	0	1107296256	44	6449
2026-01-10 13:29:09.21	146.23	18.64	-36.2	-37.0	24.4	0.00e+00	91	30	0	1108344832	44	6458
2026-01-10 13:29:10.22	146.38	18.54	-36.3	-37.1	24.4	0.00e+00	40	30	0	1110441984	44	6518
2026-01-10 13:29:11.23	146.53	18.45	-36.3	-37.1	24.4	0.00e+00	92	30	0	1112539136	44	6511
2026-01-10 13:29:12.24	146.68	18.35	-36.4	-37.2	24.1	0.00e+00	0	30	0	1114636288	44	6609
2026-01-10 13:29:13.25	146.83	18.25	-36.5	-37.3	24.2	0.00e+00	0	30	0	1116733440	44	6658
2026-01-10 13:29:14.26	146.98	18.16	-36.5	-37.4	24.1	0.00e+00	0	30	0	1117782016	44	6698
2026-01-10 13:29:15.27	147.13	18.06	-36.4	-37.3	24.2	0.00e+00	0	30	0	1119879168	44	6625
2026-01-10 13:29:16.28	147.28	17.97	-36.5	-37.3	24.1	0.00e+00	92	30	0	1121976320	44	6676
2026-01-10 13:29:17.29	147.42	17.87	-36.5	-37.3	24.1	0.00e+00	0	30	0	1124073472	44	6686
2026-01-10 13:29:18.30	147.57	17.78	-36.5	-37.3	24.1	0.00e+00	92	30	0	1126170624	44	6666
2026-01-10 13:29:19.31	147.71	17.68	-36.6	-37.5	24.0	0.00e+00	33	30	0	1127219200	44	6801
2026-01-10 13:29:20.32	147.86	17.58	-36.9	-37.8	23.8	0.00e+00	0	30	0	1129316352	46	6254
2026-01-10 13:29:21.33	148.00	17.49	-37.2	-38.1	23.4	0.00e+00	0	30	0	1131413504	46	6483
2026-01-10 13:29:22.34	148.14	17.39	-37.6	-38.6	23.1	0.00e+00	2	30	0	1133510656	46	6863
2026-01-10 13:29:23.35	148.28	17.30	-37.8	-38.8	22.9	0.00e+00	92	30	0	1135607808	48	6269
2026-01-10 13:29:24.36	148.42	17.21	-38.1	-39.1	22.6	0.00e+00	44	31	0	1136656384	48	6529
2026-01-10 13:29:25.37	148.56	17.11	-38.2	-39.3	22.4	0.00e+00	92	31	0	1138753536	48	6637
2026-01-10 13:29:26.38	148.70	17.02	-38.1	-39.1	22.6	0.00e+00	6	30	0	1140850688	48	6502
2026-01-10 13:29:27.39	148.84	16.92	-38.0	-39.0	22.8	0.00e+00	31	30	0	1142947840	48	6405
2026-01-10 13:29:28.40	148.97	16.83	-37.8	-38.8	22.9	0.00e+00	5	30	0	1145044992	48	6250
2026-01-10 13:29:29.41	149.11	16.74	-37.3	-38.2	23.4	0.00e+00	43	31	0	1147142144	48	5862
2026-01-10 13:29:30.42	149.25	16.64	-37.2	-38.1	23.5	0.00e+00	0	30	0	1148190720	48	5806
2026-01-10 13:29:31.43	149.38	16.55	-37.2	-38.1	23.4	0.00e+00	5	30	0	1150287872	48	5819
2026-01-10 13:29:32.44	149.51	16.46	-37.4	-38.3	23.3	0.00e+00	92	30	0	1152385024	48	5940
2026-01-10 13:29:33.45	149.65	16.37	-37.4	-38.3	23.3	0.00e+00	0	30	0	1154482176	48	5914
2026-01-10 13:29:34.46	149.78	16.27	-37.5	-38.5	23.1	0.00e+00	92	30	0	1156579328	48	6053
2026-01-10 13:29:35.47	149.91	16.18	-37.6	-38.6	23.0	0.00e+00	0	30	0	1157627904	48	6115
2026-01-10 13:29:36.48	150.04	16.09	-37.9	-38.8	22.8	0.00e+00	0	30	0	1159725056	48	6311
2026-01-10 13:29:37.49	150.17	16.00	-37.9	-38.9	22.7	0.00e+00	0	30	0	1161822208	48	6344
2026-01-10 13:29:38.50	150.30	15.91	-38.0	-39.0	22.6	0.00e+00	39	31	0	1163919360	48	6455
2026-01-10 13:29:39.51	150.43	15.82	-38.1	-39.1	22.6	0.00e+00	91	31	0	1166016512	48	6490
2026-01-10 13:29:40.52	150.56	15.72	-38.1	-39.1	22.5	0.00e+00	38	30	0	1167065088	48	6522
2026-01-10 13:29:41.53	150.68	15.63	-37.8	-38.8	22.8	0.00e+00	90	31	0	1169162240	48	6256
2026-01-10 13:29:42.54	150.81	15.54	-37.7	-38.7	22.8	0.00e+00	38	30	0	1171259392	48	6205
2026-01-10 13:29:43.55	150.93	15.45	-37.5	-38.4	23.1	0.00e+00	50	31	0	1173356544	48	6001
2026-01-10 13:29:44.56	151.06	15.36	-37.2	-38.2	23.2	0.00e+00	48	31	0	1175453696	48	5839
2026-01-10 13:29:45.57	151.18	15.27	-37.1	-38.0	23.5	0.00e+00	6	30	0	1176502272	48	5716
2026-01-10 13:29:46.58	151.30	15.18	-37.1	-38.0	23.5	0.00e+00	38	31	0	1178599424	48	5708
2026-01-10 13:29:47.59	151.43	15.09	-37.0	-37.9	23.6	0.00e+00	8	30	0	1180696576	48	5664
2026-01-10 13:29:48.60	151.55	15.00	-37.2	-38.1	23.4	0.00e+00	92	31	0	1182793728	48	5816
2026-01-10 13:29:49.61	151.67	14.91	-37.4	-38.4	23.2	0.00e+00	54	30	0	1184890880	48	5966
2026-01-10 13:29:50.62	151.79	14.83	-37.5	-38.5	23.0	0.00e+00	92	30	0	1185939456	48	6050
2026-01-10 13:29:51.63	151.91	14.74	-37.7	-38.7	22.9	0.00e+00	55	30	0	1188036608	48	6179
2026-01-10 13:29:52.64	152.03	14.65	-37.8	-38.8	22.7	0.00e+00	7	30	0	1190133760	48	6308
2026-01-10 13:29:53.65	152.15	14.56	-37.9	-38.9	22.6	0.00e+00	2	30	0	1192230912	48	6388
2026-01-10 13:29:54.66	152.26	14.47	-38.0	-39.0	22.6	0.00e+00	0	31	0	1194328064	48	6417
2026-01-10 13:29:55.67	152.38	14.38	-38.0	-39.0	22.6	0.00e+00	91	30	0	1195376640	48	6404
2026-01-10 13:29:56.67	152.50	14.30	-37.9	-38.9	22.7	0.00e+00	8	31	0	1197473792	48	6341
2026-01-10 13:29:57.68	152.61	14.21	-37.8	-38.8	22.7	0.00e+00	92	30	0	1199570944	48	6281
2026-01-10 13:29:58.69	152.73	14.12	-37.5	-38.5	23.0	0.00e+00	38	30	0	1201668096	48	6070
2026-01-10 13:29:59.70	152.84	14.04	-37.3	-38.3	23.2	0.00e+00	0	31	0	1203765248	48	5919
2026-01-10 13:30:00.71	152.96	13.95	-37.4	-38.4	23.1	0.00e+00	0	31	0	1204813824	48	5986
2026-01-10 13:30:01.72	153.07	13.86	-37.4	-38.3	23.0	0.00e+00	0	31	0	1206910976	48	5944
2026-01-10 13:30:02.73	153.18	13.78	-37.3	-38.2	23.1	0.00e+00	92	31	0	1209008128	48	5882
2026-01-10 13:30:03.74	153.29	13.69	-37.6	-38.5	22.7	0.00e+00	37	31	0	1211105280	48	6087
2026-01-10 13:30:04.75	153.40	13.60	-37.7	-38.7	22.5	0.00e+00	92	31	0	1213202432	48	6221
