passes_logs/2026/01/10/R4.6S_Anadyr/R4.6S_Anadyr__20260110_005220_SUOMI_NPP_rec.log

#Pass ID: 20260110_005220_SUOMI NPP
#Satellite: SUOMI NPP
#Configuration: NPP
#almurnet v.1.7.20251203
#Start time: 2026-01-10 00:52:24

#Version: 2.2.20231116
#Station: R4.6S_Anadyr
#Location: 177.4865 lon 64.73178 lat
#TLE: 1 37849U 11061A   26008.05542337  .00000108  00000+0  71976-4 0  9997
#TLE: 2 37849  98.7805 310.1641 0002540  75.6410 284.5048 14.19523335735721

#Time	Az	El	Level	Level2	SNR	BER	BlckErr	Temp	State	Recorded	gain1	gain2
2026-01-10 00:52:24.03	170.95	0.18	-48.2	-61.9	3.3	1.54e+00	0	24	0	0	60	45121
2026-01-10 00:52:25.04	170.97	0.24	-48.1	-63.3	3.6	1.51e+00	0	24	104	0	60	52821
2026-01-10 00:52:26.05	170.99	0.31	-48.0	-63.3	3.6	1.51e+00	0	24	104	0	60	52669
2026-01-10 00:52:27.06	171.01	0.37	-48.1	-63.2	3.6	1.51e+00	0	24	104	0	60	52529
2026-01-10 00:52:28.07	171.03	0.43	-48.0	-63.2	3.6	1.51e+00	0	24	104	0	60	52465
2026-01-10 00:52:29.08	171.05	0.49	-47.9	-63.2	3.6	1.51e+00	0	24	104	0	60	52248
2026-01-10 00:52:30.09	171.07	0.55	-47.9	-63.1	3.6	1.51e+00	0	24	104	0	60	51679
2026-01-10 00:52:31.10	171.10	0.61	-47.9	-63.1	3.6	1.51e+00	0	24	104	0	60	51374
2026-01-10 00:52:32.11	171.12	0.67	-47.8	-63.0	3.6	1.51e+00	0	24	104	0	60	51073
2026-01-10 00:52:33.12	171.14	0.73	-47.7	-62.9	3.6	1.51e+00	0	24	104	0	60	50570
2026-01-10 00:52:34.13	171.16	0.79	-47.6	-62.8	3.6	1.51e+00	0	24	104	0	60	49897
2026-01-10 00:52:35.13	171.18	0.85	-47.4	-62.6	3.6	1.51e+00	0	24	104	0	60	48820
2026-01-10 00:52:36.15	171.20	0.92	-47.2	-62.4	3.6	1.51e+00	0	24	104	0	60	47552
2026-01-10 00:52:37.15	171.23	0.98	-46.7	-61.9	3.6	1.51e+00	0	24	104	0	60	44916
2026-01-10 00:52:38.17	171.25	1.04	-46.5	-61.6	3.6	1.51e+00	0	24	104	0	60	43233
2026-01-10 00:52:39.17	171.27	1.10	-46.5	-61.6	3.6	1.51e+00	0	24	104	0	60	43504
2026-01-10 00:52:40.19	171.29	1.16	-46.5	-61.6	3.6	1.51e+00	0	24	104	0	60	43442
2026-01-10 00:52:41.20	171.32	1.23	-46.5	-61.6	3.6	1.51e+00	0	24	104	0	60	43623
2026-01-10 00:52:42.20	171.34	1.29	-46.4	-61.6	3.6	1.51e+00	0	24	104	0	60	43575
2026-01-10 00:52:43.21	171.36	1.35	-46.5	-61.6	3.6	1.51e+00	0	24	104	0	60	43441
2026-01-10 00:52:44.22	171.38	1.41	-46.4	-61.6	3.6	1.51e+00	0	24	104	0	60	43367
2026-01-10 00:52:45.23	171.41	1.48	-46.5	-61.5	3.6	1.51e+00	0	24	104	0	60	42852
2026-01-10 00:52:46.24	171.43	1.54	-46.4	-61.4	3.6	1.51e+00	0	24	104	0	60	42487
2026-01-10 00:52:47.25	171.45	1.60	-46.5	-61.4	3.6	1.51e+00	0	24	104	0	60	42352
2026-01-10 00:52:48.26	171.47	1.67	-46.4	-61.3	3.6	1.51e+00	0	24	104	0	60	41995
2026-01-10 00:52:49.27	171.50	1.73	-46.4	-61.4	3.6	1.51e+00	0	24	104	0	60	42539
2026-01-10 00:52:50.28	171.52	1.79	-46.4	-61.5	3.5	1.51e+00	0	24	104	0	60	42796
2026-01-10 00:52:51.29	171.54	1.86	-46.4	-61.6	3.6	1.51e+00	0	24	104	0	60	43242
2026-01-10 00:52:52.30	171.57	1.92	-46.4	-61.6	3.6	1.51e+00	0	24	104	0	60	43511
2026-01-10 00:52:53.31	171.59	1.98	-46.4	-61.6	3.6	1.51e+00	0	24	104	0	60	43447
2026-01-10 00:52:54.32	171.61	2.05	-46.4	-61.5	3.6	1.51e+00	0	24	104	0	60	42838
2026-01-10 00:52:55.33	171.64	2.11	-46.4	-61.4	3.6	1.51e+00	0	24	104	0	60	42624
2026-01-10 00:52:56.34	171.66	2.18	-46.4	-61.3	3.6	1.51e+00	0	24	104	0	60	42183
2026-01-10 00:52:57.35	171.69	2.24	-46.4	-61.3	3.6	1.51e+00	0	24	104	0	60	41777
2026-01-10 00:52:58.36	171.71	2.31	-46.4	-61.0	3.6	1.51e+00	0	24	104	0	60	40460
2026-01-10 00:52:59.37	171.73	2.37	-46.4	-60.7	3.6	1.51e+00	0	24	104	0	60	39117
2026-01-10 00:53:00.38	171.76	2.43	-46.4	-60.5	3.6	1.51e+00	0	24	104	0	60	38235
2026-01-10 00:53:01.39	171.78	2.50	-46.4	-60.4	3.6	1.51e+00	0	24	104	0	60	37680
2026-01-10 00:53:02.40	171.81	2.57	-46.4	-60.5	3.6	1.51e+00	0	24	104	0	60	38225
2026-01-10 00:53:03.41	171.83	2.63	-46.4	-60.9	3.6	1.51e+00	0	24	104	0	60	40033
2026-01-10 00:53:04.42	171.85	2.70	-46.4	-61.4	3.6	1.51e+00	0	24	104	0	60	42387
2026-01-10 00:53:05.43	171.88	2.76	-46.4	-60.8	3.6	1.51e+00	0	24	104	0	60	39767
2026-01-10 00:53:06.44	171.90	2.83	-46.3	-58.4	3.9	1.51e+00	0	24	104	0	60	29920
2026-01-10 00:53:07.45	171.93	2.89	-45.9	-53.7	5.9	1.03e+00	92	24	0	1048576	60	17563
2026-01-10 00:53:08.46	171.95	2.96	-45.3	-51.0	9.1	9.48e-02	13	24	0	2097152	60	12858
2026-01-10 00:53:09.47	171.98	3.03	-44.5	-49.0	11.2	8.91e-03	92	24	0	4194304	60	10183
2026-01-10 00:53:10.47	172.00	3.09	-43.5	-46.8	13.7	1.35e-04	92	24	0	6291456	60	7898
2026-01-10 00:53:11.48	172.03	3.16	-42.7	-45.5	15.2	0.00e+00	0	24	0	8388608	60	6775
2026-01-10 00:53:12.49	172.05	3.22	-41.8	-44.0	16.5	0.00e+00	93	24	0	10485760	58	6404
2026-01-10 00:53:13.50	172.08	3.29	-41.1	-43.0	17.5	0.00e+00	0	24	0	11534336	56	6450
2026-01-10 00:53:14.51	172.10	3.36	-40.6	-42.3	18.0	0.00e+00	91	24	0	13631488	54	6666
2026-01-10 00:53:15.52	172.13	3.43	-40.3	-42.1	18.2	0.00e+00	0	24	0	15728640	54	6473
2026-01-10 00:53:16.53	172.15	3.49	-40.4	-42.1	18.2	0.00e+00	91	24	0	17825792	54	6504
2026-01-10 00:53:17.54	172.18	3.56	-40.6	-42.4	17.8	0.00e+00	92	24	0	19922944	54	6742
2026-01-10 00:53:18.55	172.21	3.63	-41.2	-43.2	17.2	0.00e+00	92	24	0	20971520	54	7367
2026-01-10 00:53:19.56	172.23	3.70	-41.0	-42.9	17.7	0.00e+00	91	24	0	23068672	56	6323
2026-01-10 00:53:20.57	172.26	3.76	-40.9	-42.8	17.6	0.00e+00	0	24	0	25165824	54	7030
2026-01-10 00:53:21.58	172.28	3.83	-40.8	-42.6	15.8	0.00e+00	91	24	0	27262976	56	6159
2026-01-10 00:53:22.59	172.31	3.90	-46.0	-54.3	8.2	1.50e+00	2	24	104	27262976	60	18680
2026-01-10 00:53:23.60	172.34	3.97	-41.2	-43.0	17.5	2.48e-03	91	24	0	27262976	60	5132
2026-01-10 00:53:24.60	172.36	4.04	-43.8	-47.0	14.1	5.60e-02	91	24	0	29360128	60	8070
2026-01-10 00:53:25.61	172.39	4.11	-41.7	-43.8	16.9	0.00e+00	92	24	0	31457280	56	7055
2026-01-10 00:53:26.62	172.42	4.18	-41.3	-43.2	17.4	0.00e+00	92	24	0	33554432	56	6576
2026-01-10 00:53:27.63	172.44	4.24	-40.9	-42.7	17.9	0.00e+00	0	24	0	35651584	56	6235
2026-01-10 00:53:28.64	172.47	4.31	-41.1	-43.0	17.6	0.00e+00	92	24	0	36700160	56	6423
2026-01-10 00:53:29.65	172.50	4.38	-40.6	-42.3	18.4	0.00e+00	0	24	0	38797312	56	5907
2026-01-10 00:53:30.66	172.52	4.45	-40.1	-41.7	19.0	0.00e+00	92	24	0	40894464	54	6186
2026-01-10 00:53:31.67	172.55	4.52	-40.1	-41.6	18.9	0.00e+00	17	24	0	42991616	54	6149
2026-01-10 00:53:32.68	172.58	4.59	-39.9	-41.5	19.0	0.00e+00	92	24	0	45088768	54	6046
2026-01-10 00:53:33.69	172.61	4.66	-40.1	-41.6	18.9	0.00e+00	92	24	0	47185920	54	6144
2026-01-10 00:53:34.70	172.63	4.73	-39.7	-41.1	19.4	0.00e+00	0	24	0	48234496	52	6538
2026-01-10 00:53:35.71	172.66	4.81	-39.4	-40.8	19.8	0.00e+00	92	24	0	50331648	52	6264
2026-01-10 00:53:36.71	172.69	4.88	-39.4	-40.8	19.8	0.00e+00	0	24	0	52428800	52	6276
2026-01-10 00:53:37.72	172.72	4.95	-39.2	-40.6	20.1	0.00e+00	92	24	0	54525952	52	6119
2026-01-10 00:53:38.73	172.74	5.02	-38.9	-40.2	20.4	0.00e+00	0	24	0	56623104	52	5838
2026-01-10 00:53:39.74	172.77	5.09	-39.0	-40.3	20.3	0.00e+00	92	24	0	57671680	52	5932
2026-01-10 00:53:40.75	172.80	5.16	-39.1	-40.4	20.1	0.00e+00	91	24	0	59768832	52	5997
2026-01-10 00:53:41.76	172.83	5.23	-39.1	-40.4	20.0	0.00e+00	92	24	0	61865984	52	6017
2026-01-10 00:53:42.77	172.86	5.30	-39.1	-40.5	20.1	0.00e+00	92	24	0	63963136	52	6048
2026-01-10 00:53:43.78	172.89	5.38	-39.2	-40.5	20.1	0.00e+00	0	24	0	66060288	52	6086
2026-01-10 00:53:44.79	172.92	5.45	-39.1	-40.4	20.1	0.00e+00	92	24	0	67108864	52	6027
2026-01-10 00:53:45.80	172.94	5.52	-38.9	-40.2	20.4	0.00e+00	0	24	0	69206016	52	5852
2026-01-10 00:53:46.81	172.97	5.59	-39.0	-40.2	20.4	0.00e+00	92	24	0	71303168	52	5886
2026-01-10 00:53:47.82	173.00	5.67	-39.1	-40.4	20.2	0.00e+00	90	24	0	73400320	52	6002
2026-01-10 00:53:48.83	173.03	5.74	-38.8	-40.1	20.6	0.00e+00	90	25	0	75497472	52	5767
2026-01-10 00:53:49.84	173.06	5.81	-38.8	-40.0	20.6	0.00e+00	92	24	0	76546048	50	6435
2026-01-10 00:53:50.85	173.09	5.89	-38.9	-40.2	20.5	0.00e+00	0	25	0	78643200	50	6544
2026-01-10 00:53:51.86	173.12	5.96	-38.6	-39.8	20.8	0.00e+00	92	24	0	80740352	50	6300
2026-01-10 00:53:52.87	173.15	6.03	-38.5	-39.7	20.9	0.00e+00	0	24	0	82837504	50	6231
2026-01-10 00:53:53.88	173.18	6.11	-38.5	-39.7	20.9	0.00e+00	91	24	0	84934656	50	6187
2026-01-10 00:53:54.89	173.21	6.18	-38.1	-39.3	21.2	0.00e+00	92	25	0	85983232	50	5916
2026-01-10 00:53:55.90	173.24	6.26	-38.3	-39.5	21.1	0.00e+00	92	24	0	88080384	50	6059
2026-01-10 00:53:56.91	173.27	6.33	-38.2	-39.3	21.2	0.00e+00	90	24	0	90177536	50	5964
2026-01-10 00:53:57.92	173.30	6.41	-38.2	-39.3	21.2	0.00e+00	0	24	0	92274688	50	5948
2026-01-10 00:53:58.93	173.33	6.48	-38.2	-39.3	21.2	0.00e+00	90	24	0	94371840	50	5935
2026-01-10 00:53:59.94	173.36	6.56	-38.1	-39.2	21.3	0.00e+00	0	24	0	95420416	50	5880
2026-01-10 00:54:00.95	173.39	6.63	-38.1	-39.3	21.3	0.00e+00	92	24	0	97517568	50	5897
2026-01-10 00:54:01.96	173.42	6.71	-38.2	-39.3	21.2	0.00e+00	36	24	0	99614720	50	5927
2026-01-10 00:54:02.97	173.46	6.79	-38.0	-39.1	21.3	0.00e+00	90	24	0	101711872	50	5788
2026-01-10 00:54:03.98	173.49	6.86	-38.2	-39.4	21.3	0.00e+00	92	24	0	103809024	50	5971
2026-01-10 00:54:04.99	173.52	6.94	-38.0	-39.1	21.5	0.00e+00	0	24	0	104857600	50	5785
2026-01-10 00:54:06.00	173.55	7.01	-38.1	-39.2	21.4	0.00e+00	90	24	0	106954752	50	5842
2026-01-10 00:54:07.01	173.58	7.09	-38.0	-39.2	21.4	0.00e+00	0	24	0	109051904	50	5838
2026-01-10 00:54:08.01	173.61	7.17	-38.0	-39.1	21.5	0.00e+00	92	24	0	111149056	50	5822
2026-01-10 00:54:09.02	173.65	7.25	-37.9	-38.9	21.6	0.00e+00	77	24	0	113246208	50	5692
2026-01-10 00:54:10.03	173.68	7.32	-38.0	-39.2	21.4	0.00e+00	91	25	0	115343360	50	5832
2026-01-10 00:54:11.04	173.71	7.40	-37.9	-39.0	21.6	0.00e+00	92	24	0	116391936	50	5754
2026-01-10 00:54:12.05	173.74	7.48	-37.9	-39.0	21.7	0.00e+00	0	24	0	118489088	50	5720
2026-01-10 00:54:13.06	173.78	7.56	-37.8	-38.9	21.6	0.00e+00	58	24	0	120586240	48	6378
2026-01-10 00:54:14.07	173.81	7.64	-37.9	-39.0	21.6	0.00e+00	0	24	0	122683392	48	6401
2026-01-10 00:54:15.08	173.84	7.72	-37.8	-38.9	21.6	0.00e+00	91	24	0	124780544	48	6371
2026-01-10 00:54:16.09	173.88	7.79	-37.8	-38.9	21.7	0.00e+00	0	24	0	125829120	48	6354
2026-01-10 00:54:17.10	173.91	7.87	-37.9	-39.0	21.6	0.00e+00	92	25	0	127926272	48	6422
2026-01-10 00:54:18.11	173.94	7.95	-37.7	-38.8	21.7	0.00e+00	90	24	0	130023424	48	6289
2026-01-10 00:54:19.12	173.98	8.03	-37.8	-38.9	21.7	0.00e+00	0	25	0	132120576	48	6378
2026-01-10 00:54:20.13	174.01	8.11	-37.8	-38.9	21.7	0.00e+00	30	24	0	134217728	48	6344
2026-01-10 00:54:21.14	174.04	8.19	-37.7	-38.7	21.9	0.00e+00	0	25	0	135266304	48	6244
2026-01-10 00:54:22.15	174.08	8.27	-37.5	-38.6	22.0	0.00e+00	77	25	0	137363456	48	6127
2026-01-10 00:54:23.16	174.11	8.35	-37.7	-38.8	21.9	0.00e+00	0	24	0	139460608	48	6247
2026-01-10 00:54:24.16	174.15	8.43	-37.6	-38.6	21.9	0.00e+00	91	24	0	141557760	48	6172
2026-01-10 00:54:25.17	174.18	8.52	-37.5	-38.6	22.0	0.00e+00	90	25	0	143654912	48	6105
2026-01-10 00:54:26.18	174.22	8.60	-37.4	-38.4	22.2	0.00e+00	20	25	0	144703488	48	6024
2026-01-10 00:54:27.19	174.25	8.68	-37.5	-38.6	22.0	0.00e+00	64	25	0	146800640	48	6112
2026-01-10 00:54:28.20	174.29	8.76	-37.5	-38.5	22.1	0.00e+00	0	25	0	148897792	48	6075
2026-01-10 00:54:29.21	174.32	8.84	-37.3	-38.4	22.2	0.00e+00	90	24	0	150994944	48	5977
2026-01-10 00:54:30.22	174.36	8.93	-37.4	-38.4	22.1	0.00e+00	0	25	0	153092096	48	6031
2026-01-10 00:54:31.23	174.39	9.01	-37.5	-38.6	22.2	0.00e+00	91	25	0	154140672	48	6106
2026-01-10 00:54:32.24	174.43	9.09	-37.4	-38.4	22.2	0.00e+00	17	24	0	156237824	48	6004
2026-01-10 00:54:33.25	174.47	9.18	-37.3	-38.4	22.3	0.00e+00	0	25	0	158334976	48	5979
2026-01-10 00:54:34.25	174.50	9.26	-37.2	-38.2	22.3	0.00e+00	92	24	0	160432128	48	5880
2026-01-10 00:54:35.27	174.54	9.34	-37.0	-38.0	22.6	0.00e+00	0	24	0	162529280	48	5714
2026-01-10 00:54:36.28	174.58	9.43	-37.0	-38.0	22.5	0.00e+00	92	25	0	163577856	48	5750
2026-01-10 00:54:37.28	174.61	9.51	-37.2	-38.2	22.4	0.00e+00	0	24	0	165675008	48	5853
2026-01-10 00:54:38.29	174.65	9.60	-36.9	-37.9	22.6	0.00e+00	92	25	0	167772160	48	5655
2026-01-10 00:54:39.31	174.69	9.68	-36.8	-37.8	22.7	0.00e+00	91	25	0	169869312	46	6247
2026-01-10 00:54:40.31	174.72	9.77	-37.0	-37.9	22.7	0.00e+00	92	25	0	171966464	46	6381
2026-01-10 00:54:41.32	174.76	9.85	-36.7	-37.7	22.8	0.00e+00	91	25	0	173015040	46	6187
2026-01-10 00:54:42.33	174.80	9.94	-36.7	-37.6	23.0	0.00e+00	0	25	0	175112192	46	6128
2026-01-10 00:54:43.34	174.84	10.02	-36.6	-37.6	23.0	0.00e+00	91	24	0	177209344	46	6119
2026-01-10 00:54:44.35	174.88	10.11	-36.6	-37.6	22.9	0.00e+00	0	25	0	179306496	46	6111
2026-01-10 00:54:45.36	174.91	10.20	-36.5	-37.5	23.0	0.00e+00	91	24	0	181403648	46	6040
2026-01-10 00:54:46.37	174.95	10.28	-36.5	-37.4	22.9	0.00e+00	20	25	0	183500800	46	6031
2026-01-10 00:54:47.38	174.99	10.37	-36.6	-37.6	22.9	0.00e+00	88	25	0	184549376	46	6107
2026-01-10 00:54:48.39	175.03	10.46	-36.9	-37.8	22.8	0.00e+00	91	25	0	186646528	46	6296
2026-01-10 00:54:49.40	175.07	10.55	-36.5	-37.5	23.0	0.00e+00	0	25	0	188743680	46	6044
2026-01-10 00:54:50.41	175.11	10.63	-36.6	-37.5	23.1	0.00e+00	80	25	0	190840832	46	6072
2026-01-10 00:54:51.41	175.15	10.72	-36.5	-37.4	23.1	0.00e+00	0	25	0	192937984	46	6023
2026-01-10 00:54:52.42	175.19	10.81	-36.4	-37.4	23.1	0.00e+00	91	25	0	193986560	46	5980
2026-01-10 00:54:53.43	175.23	10.90	-36.7	-37.6	22.9	0.00e+00	0	25	0	196083712	46	6156
2026-01-10 00:54:54.44	175.27	10.99	-36.7	-37.7	22.9	0.00e+00	91	25	0	198180864	46	6190
2026-01-10 00:54:55.45	175.31	11.08	-36.6	-37.5	23.1	0.00e+00	92	25	0	200278016	46	6073
2026-01-10 00:54:56.46	175.35	11.17	-36.6	-37.6	22.9	0.00e+00	0	25	0	202375168	46	6119
2026-01-10 00:54:57.47	175.39	11.26	-36.3	-37.2	23.3	0.00e+00	92	24	0	203423744	46	5865
2026-01-10 00:54:58.48	175.43	11.35	-36.2	-37.1	23.2	0.00e+00	0	25	0	205520896	46	5820
2026-01-10 00:54:59.49	175.48	11.44	-36.1	-37.0	23.5	0.00e+00	92	25	0	207618048	46	5742
2026-01-10 00:55:00.50	175.52	11.53	-36.3	-37.2	23.2	0.00e+00	0	25	0	209715200	46	5878
2026-01-10 00:55:01.51	175.56	11.63	-36.1	-36.9	23.4	0.00e+00	92	25	0	211812352	46	5687
2026-01-10 00:55:02.51	175.60	11.72	-36.1	-37.0	23.4	0.00e+00	68	25	0	212860928	46	5741
2026-01-10 00:55:03.52	175.65	11.81	-36.2	-37.1	23.0	0.00e+00	54	25	0	214958080	46	5816
2026-01-10 00:55:04.53	175.69	11.90	-36.2	-37.0	23.5	0.00e+00	92	25	0	217055232	46	5743
2026-01-10 00:55:05.54	175.73	12.00	-35.9	-36.8	23.0	0.00e+00	0	25	0	219152384	46	5596
2026-01-10 00:55:06.55	175.77	12.09	-36.0	-36.9	23.6	0.00e+00	92	25	0	221249536	46	5656
2026-01-10 00:55:07.56	175.82	12.18	-36.1	-36.9	23.2	0.00e+00	0	25	0	222298112	46	5692
2026-01-10 00:55:08.57	175.86	12.28	-36.1	-37.0	23.5	0.00e+00	92	25	0	224395264	46	5712
2026-01-10 00:55:09.58	175.91	12.37	-35.9	-36.7	23.6	0.00e+00	12	25	0	226492416	46	5552
2026-01-10 00:55:10.59	175.95	12.47	-36.0	-36.9	23.5	0.00e+00	78	25	0	228589568	46	5664
2026-01-10 00:55:11.60	176.00	12.56	-35.9	-36.8	23.6	0.00e+00	92	25	0	230686720	46	5601
2026-01-10 00:55:12.60	176.04	12.66	-35.8	-36.7	23.7	0.00e+00	0	25	0	231735296	46	5523
2026-01-10 00:55:13.61	176.08	12.75	-35.9	-36.8	23.6	0.00e+00	90	25	0	233832448	46	5591
2026-01-10 00:55:14.62	176.13	12.85	-35.8	-36.6	23.7	0.00e+00	0	25	0	235929600	46	5472
2026-01-10 00:55:15.63	176.18	12.95	-35.8	-36.7	23.7	0.00e+00	92	25	0	238026752	46	5515
2026-01-10 00:55:16.63	176.22	13.04	-36.0	-36.9	23.6	0.00e+00	65	25	0	240123904	46	5643
2026-01-10 00:55:17.64	176.27	13.14	-35.9	-36.8	23.7	0.00e+00	92	25	0	241172480	46	5601
2026-01-10 00:55:18.65	176.31	13.24	-35.9	-36.8	23.7	0.00e+00	90	25	0	243269632	46	5584
2026-01-10 00:55:19.66	176.36	13.33	-36.2	-37.0	23.5	0.00e+00	0	25	0	245366784	46	5755
2026-01-10 00:55:20.67	176.41	13.43	-36.2	-37.1	23.5	0.00e+00	92	25	0	247463936	46	5788
2026-01-10 00:55:21.67	176.46	13.53	-36.0	-36.9	23.6	0.00e+00	0	24	0	249561088	46	5653
2026-01-10 00:55:22.68	176.50	13.63	-36.0	-36.8	23.6	0.00e+00	92	25	0	250609664	46	5611
2026-01-10 00:55:23.69	176.55	13.73	-35.9	-36.8	23.7	0.00e+00	18	25	0	252706816	46	5581
2026-01-10 00:55:24.70	176.60	13.83	-35.9	-36.8	23.6	0.00e+00	92	25	0	254803968	46	5584
2026-01-10 00:55:25.71	176.65	13.93	-35.9	-36.8	23.7	0.00e+00	90	25	0	256901120	46	5591
2026-01-10 00:55:26.72	176.70	14.03	-36.1	-37.0	23.5	0.00e+00	0	25	0	258998272	46	5706
2026-01-10 00:55:27.73	176.75	14.13	-36.2	-37.0	23.6	0.00e+00	92	25	0	260046848	46	5754
2026-01-10 00:55:28.74	176.80	14.23	-36.1	-37.0	23.6	0.00e+00	0	25	0	262144000	46	5716
2026-01-10 00:55:29.75	176.85	14.34	-36.0	-36.9	23.6	0.00e+00	91	25	0	264241152	46	5633
2026-01-10 00:55:30.76	176.90	14.44	-36.2	-37.1	23.6	0.00e+00	9	25	0	266338304	46	5775
2026-01-10 00:55:31.77	176.95	14.54	-36.0	-36.9	23.6	0.00e+00	91	25	0	268435456	46	5642
2026-01-10 00:55:32.78	177.00	14.65	-36.2	-37.1	23.5	0.00e+00	90	25	0	269484032	46	5784
2026-01-10 00:55:33.79	177.05	14.75	-36.2	-37.1	23.5	0.00e+00	49	25	0	271581184	46	5804
2026-01-10 00:55:34.79	177.10	14.85	-36.3	-37.3	23.3	0.00e+00	90	25	0	273678336	46	5899
2026-01-10 00:55:35.80	177.15	14.96	-36.2	-37.1	23.4	0.00e+00	0	25	0	275775488	46	5775
2026-01-10 00:55:36.81	177.20	15.06	-36.5	-37.4	23.4	0.00e+00	90	25	0	277872640	46	5971
2026-01-10 00:55:37.82	177.26	15.17	-36.2	-37.1	23.4	0.00e+00	0	25	0	279969792	46	5801
2026-01-10 00:55:38.83	177.31	15.27	-36.6	-37.5	23.2	0.00e+00	92	25	0	281018368	46	6060
2026-01-10 00:55:39.84	177.36	15.38	-36.5	-37.4	23.2	0.00e+00	90	24	0	283115520	46	6029
2026-01-10 00:55:40.84	177.42	15.49	-36.4	-37.3	23.5	0.00e+00	91	25	0	285212672	46	5917
2026-01-10 00:55:41.85	177.47	15.59	-36.6	-37.5	23.2	0.00e+00	92	25	0	287309824	46	6078
2026-01-10 00:55:42.86	177.52	15.70	-36.3	-37.2	23.4	0.00e+00	0	24	0	289406976	46	5863
2026-01-10 00:55:43.87	177.58	15.81	-36.4	-37.3	23.3	0.00e+00	92	24	0	290455552	46	5920
2026-01-10 00:55:44.88	177.63	15.92	-36.3	-37.2	23.5	0.00e+00	0	25	0	292552704	46	5837
2026-01-10 00:55:45.89	177.69	16.03	-36.4	-37.3	23.4	0.00e+00	90	25	0	294649856	46	5920
2026-01-10 00:55:46.90	177.74	16.14	-36.4	-37.3	23.3	0.00e+00	23	25	0	296747008	46	5919
2026-01-10 00:55:47.91	177.80	16.25	-36.7	-37.7	23.1	0.00e+00	92	25	0	298844160	46	6178
2026-01-10 00:55:48.92	177.86	16.36	-36.4	-37.3	23.3	0.00e+00	92	25	0	299892736	46	5918
2026-01-10 00:55:49.93	177.91	16.47	-36.7	-37.6	23.1	0.00e+00	0	25	0	301989888	46	6126
2026-01-10 00:55:50.94	177.97	16.58	-36.5	-37.4	23.2	0.00e+00	90	25	0	304087040	46	6033
2026-01-10 00:55:51.95	178.03	16.69	-36.6	-37.6	23.2	0.00e+00	0	25	0	306184192	46	6108
2026-01-10 00:55:52.96	178.09	16.81	-36.7	-37.7	23.1	0.00e+00	92	25	0	308281344	46	6183
2026-01-10 00:55:53.97	178.15	16.92	-36.8	-37.8	23.0	0.00e+00	24	25	0	309329920	46	6255
2026-01-10 00:55:54.98	178.20	17.03	-36.6	-37.6	23.1	0.00e+00	92	25	0	311427072	46	6109
2026-01-10 00:55:55.99	178.26	17.15	-36.8	-37.8	23.0	0.00e+00	92	25	0	313524224	46	6255
2026-01-10 00:55:57.00	178.32	17.26	-36.9	-37.8	23.0	0.00e+00	0	25	0	315621376	46	6288
2026-01-10 00:55:58.01	178.38	17.38	-36.7	-37.7	23.0	0.00e+00	92	25	0	317718528	46	6192
2026-01-10 00:55:59.02	178.44	17.49	-36.9	-37.8	23.1	0.00e+00	0	25	0	318767104	46	6276
2026-01-10 00:56:00.03	178.51	17.61	-36.6	-37.6	23.3	0.00e+00	92	25	0	320864256	46	6107
2026-01-10 00:56:01.04	178.57	17.72	-36.6	-37.5	23.3	0.00e+00	0	25	0	322961408	46	6083
2026-01-10 00:56:02.05	178.63	17.84	-36.6	-37.5	23.2	0.00e+00	92	25	0	325058560	46	6064
2026-01-10 00:56:03.05	178.69	17.96	-36.7	-37.6	23.1	0.00e+00	92	25	0	327155712	46	6168
2026-01-10 00:56:04.06	178.75	18.08	-36.6	-37.5	23.2	0.00e+00	0	25	0	328204288	46	6059
2026-01-10 00:56:05.07	178.82	18.19	-36.6	-37.5	23.2	0.00e+00	92	25	0	330301440	46	6103
2026-01-10 00:56:06.08	178.88	18.31	-36.7	-37.6	23.1	0.00e+00	0	25	0	332398592	46	6173
2026-01-10 00:56:07.09	178.95	18.43	-36.7	-37.6	23.0	0.00e+00	92	25	0	334495744	46	6151
2026-01-10 00:56:08.10	179.01	18.55	-36.8	-37.7	23.1	0.00e+00	0	25	0	336592896	46	6207
2026-01-10 00:56:09.11	179.08	18.67	-36.9	-37.9	22.9	0.00e+00	92	25	0	337641472	46	6332
2026-01-10 00:56:10.12	179.14	18.80	-36.8	-37.7	23.1	0.00e+00	79	25	0	339738624	46	6217
2026-01-10 00:56:11.13	179.21	18.92	-36.5	-37.4	23.3	0.00e+00	88	25	0	341835776	46	5994
2026-01-10 00:56:12.14	179.27	19.04	-36.7	-37.7	23.1	0.00e+00	92	25	0	343932928	46	6182
2026-01-10 00:56:13.15	179.34	19.16	-36.8	-37.7	23.2	0.00e+00	22	25	0	346030080	46	6204
2026-01-10 00:56:14.16	179.41	19.29	-36.7	-37.6	23.1	0.00e+00	81	25	0	348127232	46	6144
2026-01-10 00:56:15.17	179.48	19.41	-36.9	-37.8	23.2	0.00e+00	0	25	0	349175808	46	6267
2026-01-10 00:56:16.18	179.55	19.54	-36.7	-37.6	23.2	0.00e+00	92	25	0	351272960	46	6123
2026-01-10 00:56:17.19	179.62	19.66	-36.7	-37.6	23.1	0.00e+00	80	25	0	353370112	46	6128
2026-01-10 00:56:18.20	179.69	19.79	-36.3	-37.2	23.6	0.00e+00	71	25	0	355467264	46	5848
2026-01-10 00:56:19.20	179.76	19.91	-36.6	-37.4	23.3	0.00e+00	92	25	0	357564416	46	6024
2026-01-10 00:56:20.21	179.83	20.04	-36.4	-37.3	23.4	0.00e+00	0	25	0	358612992	46	5928
2026-01-10 00:56:21.22	179.90	20.17	-36.4	-37.3	23.3	0.00e+00	90	25	0	360710144	46	5924
2026-01-10 00:56:22.23	179.97	20.30	-36.3	-37.1	23.5	0.00e+00	0	25	0	362807296	46	5828
2026-01-10 00:56:23.24	180.04	20.43	-36.4	-37.3	23.5	0.00e+00	92	25	0	364904448	46	5905
2026-01-10 00:56:24.25	180.12	20.56	-36.7	-37.6	23.2	0.00e+00	23	25	0	367001600	46	6124
2026-01-10 00:56:25.26	180.19	20.69	-36.8	-37.7	23.2	0.00e+00	88	25	0	368050176	46	6189
2026-01-10 00:56:26.26	180.26	20.82	-36.8	-37.7	23.1	0.00e+00	92	25	0	370147328	46	6199
2026-01-10 00:56:27.27	180.34	20.95	-36.7	-37.7	23.2	0.00e+00	12	25	0	372244480	46	6184
2026-01-10 00:56:28.28	180.41	21.08	-36.9	-37.8	23.0	0.00e+00	60	25	0	374341632	46	6283
2026-01-10 00:56:29.29	180.49	21.21	-36.9	-37.8	23.1	0.00e+00	0	25	0	376438784	46	6293
2026-01-10 00:56:30.30	180.57	21.35	-36.8	-37.8	23.0	0.00e+00	92	25	0	377487360	46	6268
2026-01-10 00:56:31.31	180.65	21.48	-36.8	-37.7	23.1	0.00e+00	23	25	0	379584512	46	6212
2026-01-10 00:56:32.32	180.72	21.62	-36.9	-37.8	23.0	0.00e+00	92	25	0	381681664	46	6307
2026-01-10 00:56:33.33	180.80	21.75	-36.9	-37.9	23.0	0.00e+00	90	25	0	383778816	46	6325
2026-01-10 00:56:34.34	180.88	21.89	-36.7	-37.6	23.2	0.00e+00	0	25	0	385875968	46	6138
2026-01-10 00:56:35.35	180.96	22.03	-36.5	-37.4	23.4	0.00e+00	90	25	0	386924544	46	6020
2026-01-10 00:56:36.35	181.04	22.16	-36.5	-37.4	23.4	0.00e+00	0	25	0	389021696	46	5999
2026-01-10 00:56:37.36	181.12	22.30	-36.0	-36.9	23.8	0.00e+00	92	25	0	391118848	46	5672
2026-01-10 00:56:38.37	181.21	22.44	-35.9	-36.8	23.9	0.00e+00	9	25	0	393216000	46	5605
2026-01-10 00:56:39.38	181.29	22.58	-35.9	-36.8	23.9	0.00e+00	92	25	0	395313152	46	5593
2026-01-10 00:56:40.39	181.37	22.72	-35.4	-36.3	24.2	0.00e+00	92	25	0	396361728	44	5899
2026-01-10 00:56:41.40	181.46	22.86	-35.5	-36.3	24.3	0.00e+00	0	25	0	398458880	44	5915
2026-01-10 00:56:42.41	181.54	23.00	-35.4	-36.3	24.3	0.00e+00	92	25	0	400556032	44	5902
2026-01-10 00:56:43.42	181.63	23.15	-35.3	-36.1	24.5	0.00e+00	0	25	0	402653184	44	5780
2026-01-10 00:56:44.43	181.71	23.29	-35.2	-36.1	24.4	0.00e+00	92	25	0	404750336	44	5766
2026-01-10 00:56:45.44	181.80	23.43	-35.0	-35.8	24.5	0.00e+00	0	25	0	405798912	44	5588
2026-01-10 00:56:46.45	181.89	23.58	-34.8	-35.6	24.7	0.00e+00	92	25	0	407896064	44	5453
2026-01-10 00:56:47.46	181.98	23.72	-34.9	-35.6	24.7	0.00e+00	92	25	0	409993216	44	5501
2026-01-10 00:56:48.47	182.07	23.87	-34.6	-35.4	24.8	0.00e+00	0	25	0	412090368	42	6010
2026-01-10 00:56:49.48	182.16	24.02	-34.6	-35.3	24.9	0.00e+00	92	25	0	414187520	42	5954
2026-01-10 00:56:50.49	182.25	24.17	-34.4	-35.2	25.0	0.00e+00	0	25	0	415236096	42	5841
2026-01-10 00:56:51.50	182.34	24.32	-34.5	-35.3	24.9	0.00e+00	92	25	0	417333248	42	5934
2026-01-10 00:56:52.51	182.44	24.46	-34.3	-35.0	25.1	0.00e+00	0	25	0	419430400	42	5755
2026-01-10 00:56:53.52	182.53	24.62	-34.7	-35.4	24.8	0.00e+00	92	25	0	421527552	42	6029
2026-01-10 00:56:54.53	182.62	24.77	-34.5	-35.3	24.9	0.00e+00	17	25	0	423624704	42	5927
2026-01-10 00:56:55.54	182.72	24.92	-34.5	-35.2	25.0	0.00e+00	92	25	0	424673280	42	5887
2026-01-10 00:56:56.55	182.82	25.07	-34.7	-35.5	24.8	0.00e+00	90	25	0	426770432	42	6047
2026-01-10 00:56:57.56	182.91	25.22	-34.5	-35.3	25.0	0.00e+00	0	25	0	428867584	42	5937
2026-01-10 00:56:58.57	183.01	25.38	-34.5	-35.3	24.9	0.00e+00	92	25	0	430964736	42	5952
2026-01-10 00:56:59.57	183.11	25.53	-34.4	-35.2	25.0	0.00e+00	0	25	0	433061888	42	5877
2026-01-10 00:57:00.58	183.21	25.69	-34.5	-35.3	24.9	0.00e+00	91	25	0	434110464	42	5916
2026-01-10 00:57:01.59	183.31	25.84	-34.4	-35.2	24.9	0.00e+00	19	25	0	436207616	42	5875
2026-01-10 00:57:02.60	183.41	26.00	-34.7	-35.5	24.8	0.00e+00	92	25	0	438304768	42	6043
2026-01-10 00:57:03.61	183.52	26.16	-34.9	-35.8	24.6	0.00e+00	92	25	0	440401920	42	6254
2026-01-10 00:57:04.62	183.62	26.32	-35.1	-35.9	24.5	0.00e+00	0	25	0	442499072	42	6378
2026-01-10 00:57:05.63	183.73	26.48	-35.4	-36.2	24.2	0.00e+00	90	25	0	444596224	42	6608
2026-01-10 00:57:06.64	183.83	26.64	-35.4	-36.3	24.3	0.00e+00	0	25	0	445644800	42	6644
2026-01-10 00:57:07.65	183.94	26.80	-35.5	-36.3	24.1	0.00e+00	92	25	0	447741952	42	6681
2026-01-10 00:57:08.66	184.05	26.97	-35.4	-36.3	24.3	0.00e+00	0	25	0	449839104	44	5912
2026-01-10 00:57:09.67	184.16	27.13	-35.4	-36.2	24.2	0.00e+00	92	25	0	451936256	44	5875
2026-01-10 00:57:10.68	184.27	27.29	-35.4	-36.3	24.2	0.00e+00	92	25	0	454033408	44	5897
2026-01-10 00:57:11.68	184.38	27.46	-35.2	-36.1	24.4	0.00e+00	0	25	0	455081984	44	5783
2026-01-10 00:57:12.69	184.49	27.62	-35.2	-36.0	24.4	0.00e+00	92	25	0	457179136	44	5720
2026-01-10 00:57:13.70	184.60	27.79	-35.1	-35.9	24.2	0.00e+00	0	25	0	459276288	44	5659
2026-01-10 00:57:14.71	184.72	27.96	-35.3	-36.1	24.4	0.00e+00	90	25	0	461373440	44	5816
2026-01-10 00:57:15.72	184.83	28.13	-35.1	-35.9	24.4	0.00e+00	0	25	0	463470592	44	5689
2026-01-10 00:57:16.73	184.95	28.30	-35.2	-36.0	24.5	0.00e+00	92	25	0	464519168	44	5709
2026-01-10 00:57:17.74	185.07	28.47	-35.6	-36.4	24.2	0.00e+00	21	25	0	466616320	44	5982
2026-01-10 00:57:18.75	185.19	28.64	-35.2	-36.0	24.5	0.00e+00	0	25	0	468713472	44	5752
2026-01-10 00:57:19.76	185.31	28.81	-35.3	-36.1	24.4	0.00e+00	92	25	0	470810624	44	5779
2026-01-10 00:57:20.77	185.43	28.99	-35.6	-36.4	24.2	0.00e+00	0	25	0	472907776	44	5997
2026-01-10 00:57:21.78	185.56	29.16	-35.6	-36.4	24.2	0.00e+00	92	25	0	473956352	44	6019
2026-01-10 00:57:22.79	185.68	29.34	-35.7	-36.5	24.1	0.00e+00	0	25	0	476053504	44	6067
2026-01-10 00:57:23.80	185.81	29.51	-36.1	-37.0	23.8	0.00e+00	90	25	0	478150656	44	6411
2026-01-10 00:57:24.81	185.93	29.69	-36.1	-37.0	23.8	0.00e+00	22	25	0	480247808	44	6408
2026-01-10 00:57:25.82	186.06	29.87	-36.0	-36.9	23.9	0.00e+00	0	25	0	482344960	44	6336
2026-01-10 00:57:26.83	186.19	30.05	-36.7	-37.6	23.2	0.00e+00	91	25	0	483393536	44	6902
2026-01-10 00:57:27.84	186.32	30.23	-36.5	-37.4	23.4	0.00e+00	0	25	0	485490688	46	6013
2026-01-10 00:57:28.85	186.46	30.41	-37.1	-38.1	22.9	0.00e+00	92	25	0	487587840	46	6491
2026-01-10 00:57:29.86	186.59	30.59	-37.2	-38.1	23.0	0.00e+00	0	25	0	489684992	46	6521
2026-01-10 00:57:30.87	186.73	30.77	-37.5	-38.5	22.8	0.00e+00	91	25	0	491782144	46	6810
2026-01-10 00:57:31.88	186.87	30.96	-37.6	-38.7	22.6	0.00e+00	0	25	0	492830720	46	6931
2026-01-10 00:57:32.89	187.00	31.14	-37.8	-38.8	22.3	0.00e+00	92	25	0	494927872	48	6278
2026-01-10 00:57:33.90	187.14	31.33	-38.3	-39.4	21.9	0.00e+00	92	25	0	497025024	48	6744
2026-01-10 00:57:34.91	187.29	31.52	-38.8	-39.9	21.4	0.00e+00	0	25	0	499122176	48	7156
2026-01-10 00:57:35.91	187.43	31.70	-39.4	-40.7	20.7	0.00e+00	56	25	0	501219328	50	6962
2026-01-10 00:57:36.92	187.57	31.89	-39.6	-40.9	20.6	0.00e+00	0	25	0	502267904	52	6359
2026-01-10 00:57:37.93	187.72	32.08	-40.2	-41.6	20.1	0.00e+00	79	25	0	504365056	52	6879
2026-01-10 00:57:38.94	187.87	32.28	-40.4	-41.9	19.6	0.00e+00	17	25	0	506462208	52	7105
2026-01-10 00:57:39.95	188.02	32.47	-39.8	-41.1	20.4	0.00e+00	91	25	0	508559360	52	6490
2026-01-10 00:57:40.96	188.17	32.66	-40.0	-41.3	20.3	0.00e+00	92	25	0	510656512	52	6664
2026-01-10 00:57:41.97	188.33	32.86	-39.7	-40.9	20.7	0.00e+00	0	25	0	512753664	52	6369
2026-01-10 00:57:42.98	188.48	33.05	-39.2	-40.4	21.1	0.00e+00	77	25	0	513802240	52	6007
2026-01-10 00:57:43.99	188.64	33.25	-38.6	-39.6	21.7	0.00e+00	0	25	0	515899392	50	6160
2026-01-10 00:57:45.00	188.80	33.44	-38.6	-39.7	21.7	0.00e+00	92	25	0	517996544	50	6195
2026-01-10 00:57:46.01	188.96	33.64	-38.5	-39.6	21.7	0.00e+00	0	25	0	520093696	50	6153
2026-01-10 00:57:47.02	189.12	33.84	-37.6	-38.6	22.4	0.00e+00	92	25	0	522190848	48	6127
2026-01-10 00:57:48.03	189.29	34.04	-37.6	-38.6	22.5	0.00e+00	91	25	0	523239424	48	6122
2026-01-10 00:57:49.04	189.46	34.25	-37.4	-38.4	22.7	0.00e+00	0	25	0	525336576	48	6003
2026-01-10 00:57:50.05	189.62	34.45	-37.3	-38.3	22.7	0.00e+00	92	25	0	527433728	48	5938
2026-01-10 00:57:51.05	189.79	34.65	-37.2	-38.1	22.4	0.00e+00	0	25	0	529530880	48	5825
2026-01-10 00:57:52.06	189.97	34.85	-37.3	-38.3	22.9	0.00e+00	90	25	0	531628032	48	5916
2026-01-10 00:57:53.07	190.14	35.06	-37.6	-38.6	22.6	0.00e+00	0	25	0	532676608	48	6165
2026-01-10 00:57:54.08	190.32	35.27	-37.4	-38.4	22.8	0.00e+00	92	25	0	534773760	48	6022
2026-01-10 00:57:55.09	190.50	35.48	-37.8	-38.8	22.4	0.00e+00	61	25	0	536870912	48	6313
2026-01-10 00:57:56.10	190.68	35.68	-37.9	-38.9	22.4	0.00e+00	21	25	0	538968064	48	6366
2026-01-10 00:57:57.11	190.87	35.89	-38.8	-40.0	21.5	0.00e+00	92	25	0	541065216	48	7175
2026-01-10 00:57:58.12	191.05	36.11	-38.4	-39.4	21.9	0.00e+00	0	25	0	542113792	50	6024
2026-01-10 00:57:59.13	191.24	36.32	-38.6	-39.7	21.6	0.00e+00	82	25	0	544210944	50	6215
2026-01-10 00:58:00.14	191.43	36.53	-38.7	-39.8	21.7	0.00e+00	0	25	0	546308096	50	6287
2026-01-10 00:58:01.15	191.63	36.75	-38.8	-39.9	21.4	0.00e+00	84	25	0	548405248	50	6341
2026-01-10 00:58:02.16	191.83	36.96	-38.9	-40.0	21.4	0.00e+00	76	25	0	550502400	50	6454
2026-01-10 00:58:03.17	192.02	37.18	-37.8	-38.8	22.4	0.00e+00	90	25	0	551550976	48	6269
2026-01-10 00:58:04.18	192.23	37.40	-38.6	-39.7	21.7	0.00e+00	92	25	0	553648128	48	6972
2026-01-10 00:58:05.19	192.43	37.61	-38.3	-39.3	22.0	0.00e+00	0	25	0	555745280	48	6662
2026-01-10 00:58:06.20	192.64	37.83	-39.0	-40.2	21.5	0.00e+00	82	25	0	557842432	50	6557
2026-01-10 00:58:07.21	192.85	38.05	-39.1	-40.3	21.2	0.00e+00	0	25	0	559939584	50	6641
2026-01-10 00:58:08.22	193.06	38.28	-39.4	-40.7	20.7	0.00e+00	92	25	0	560988160	50	6971
2026-01-10 00:58:09.23	193.28	38.50	-38.6	-39.7	21.6	0.00e+00	75	25	0	563085312	50	6186
2026-01-10 00:58:10.24	193.49	38.72	-38.4	-39.5	21.9	0.00e+00	92	25	0	565182464	50	6044
2026-01-10 00:58:11.25	193.72	38.95	-38.1	-39.1	22.1	0.00e+00	96	25	0	567279616	50	5807
2026-01-10 00:58:12.26	193.94	39.17	-37.9	-38.9	22.2	0.00e+00	0	25	0	569376768	48	6377
2026-01-10 00:58:13.27	194.17	39.40	-38.5	-39.6	21.7	0.00e+00	92	25	0	570425344	48	6908
2026-01-10 00:58:14.28	194.40	39.63	-38.9	-40.1	21.4	0.00e+00	0	25	0	572522496	48	7270
2026-01-10 00:58:15.29	194.63	39.86	-38.9	-40.0	21.4	0.00e+00	92	25	0	574619648	50	6423
2026-01-10 00:58:16.30	194.87	40.09	-38.8	-40.0	21.1	0.00e+00	38	25	0	576716800	50	6411
2026-01-10 00:58:17.31	195.11	40.32	-39.0	-40.1	21.6	0.00e+00	92	25	0	578813952	50	6522
2026-01-10 00:58:18.32	195.35	40.55	-38.7	-39.9	21.5	0.00e+00	92	25	0	580911104	50	6352
2026-01-10 00:58:19.33	195.60	40.78	-38.3	-39.4	21.6	0.00e+00	0	25	0	581959680	50	6007
2026-01-10 00:58:20.33	195.85	41.01	-37.3	-38.3	22.8	0.00e+00	90	25	0	584056832	48	5901
2026-01-10 00:58:21.34	196.10	41.25	-37.2	-38.1	23.0	0.00e+00	0	25	0	586153984	48	5793
2026-01-10 00:58:22.35	196.36	41.48	-36.9	-37.8	22.5	0.00e+00	92	25	0	588251136	48	5579
2026-01-10 00:58:23.36	196.62	41.72	-37.1	-38.0	23.1	0.00e+00	0	25	0	590348288	46	6422
2026-01-10 00:58:24.37	196.89	41.95	-37.0	-37.9	23.0	0.00e+00	90	25	0	591396864	46	6332
2026-01-10 00:58:25.38	197.16	42.19	-37.7	-38.7	22.4	0.00e+00	92	25	0	593494016	46	6928
2026-01-10 00:58:26.39	197.43	42.43	-38.0	-39.0	22.1	0.00e+00	92	25	0	595591168	48	6441
2026-01-10 00:58:27.40	197.71	42.67	-38.5	-39.7	21.6	0.00e+00	92	25	0	597688320	48	6957
2026-01-10 00:58:28.41	197.99	42.91	-38.4	-39.5	22.0	0.00e+00	0	25	0	599785472	50	6092
2026-01-10 00:58:29.42	198.27	43.15	-37.9	-39.0	22.3	0.00e+00	92	25	0	600834048	50	5709
2026-01-10 00:58:30.43	198.56	43.39	-38.1	-39.1	22.2	0.00e+00	0	25	0	602931200	50	5824
2026-01-10 00:58:31.44	198.86	43.64	-37.7	-38.8	22.5	0.00e+00	92	25	0	605028352	48	6246
2026-01-10 00:58:32.44	199.15	43.88	-37.7	-38.7	22.5	0.00e+00	90	25	0	607125504	48	6236
2026-01-10 00:58:33.45	199.46	44.12	-37.5	-38.5	22.8	0.00e+00	73	25	0	609222656	48	6098
2026-01-10 00:58:34.46	199.76	44.37	-37.4	-38.4	22.7	0.00e+00	90	25	0	610271232	48	6005
2026-01-10 00:58:35.47	200.08	44.61	-37.7	-38.7	22.5	0.00e+00	0	25	0	612368384	48	6232
2026-01-10 00:58:36.48	200.39	44.86	-37.8	-38.8	22.6	0.00e+00	92	25	0	614465536	48	6301
2026-01-10 00:58:37.49	200.72	45.10	-38.0	-39.0	22.4	0.00e+00	0	25	0	616562688	48	6441
2026-01-10 00:58:38.50	201.04	45.35	-38.1	-39.1	22.3	0.00e+00	92	25	0	618659840	48	6538
2026-01-10 00:58:39.51	201.38	45.60	-37.6	-38.6	22.7	0.00e+00	19	25	0	619708416	48	6116
2026-01-10 00:58:40.52	201.71	45.85	-37.9	-39.0	22.4	0.00e+00	92	25	0	621805568	48	6406
2026-01-10 00:58:41.53	202.05	46.09	-37.4	-38.4	22.8	0.00e+00	90	25	0	623902720	48	6019
2026-01-10 00:58:42.54	202.40	46.34	-36.9	-37.9	23.2	0.00e+00	0	25	0	625999872	48	5648
2026-01-10 00:58:43.55	202.76	46.59	-37.1	-38.1	23.0	0.00e+00	92	25	0	628097024	48	5778
2026-01-10 00:58:44.56	203.11	46.84	-37.0	-38.0	22.8	0.00e+00	0	25	0	629145600	46	6446
2026-01-10 00:58:45.57	203.48	47.09	-37.2	-38.2	22.9	0.00e+00	90	25	0	631242752	46	6560
2026-01-10 00:58:46.58	203.85	47.34	-37.8	-38.8	22.4	0.00e+00	0	25	0	633339904	46	7045
2026-01-10 00:58:47.59	204.23	47.59	-37.6	-38.6	22.6	0.00e+00	90	25	0	635437056	48	6121
2026-01-10 00:58:48.60	204.61	47.84	-37.6	-38.6	22.6	0.00e+00	92	25	0	637534208	48	6124
2026-01-10 00:58:49.61	205.00	48.09	-37.3	-38.3	23.0	0.00e+00	0	25	0	638582784	48	5916
2026-01-10 00:58:50.62	205.39	48.34	-36.8	-37.7	23.4	0.00e+00	87	25	0	640679936	46	6222
2026-01-10 00:58:51.63	205.79	48.59	-36.1	-36.9	23.9	0.00e+00	0	25	0	642777088	46	5682
2026-01-10 00:58:52.64	206.20	48.84	-35.6	-36.4	24.2	0.00e+00	92	25	0	644874240	44	5981
2026-01-10 00:58:53.65	206.61	49.09	-35.9	-36.7	23.8	0.00e+00	0	25	0	646971392	44	6192
2026-01-10 00:58:54.65	207.03	49.34	-36.7	-37.5	23.2	0.00e+00	91	25	0	649068544	44	6847
2026-01-10 00:58:55.66	207.46	49.59	-38.2	-39.2	22.1	0.00e+00	92	25	0	650117120	48	6611
2026-01-10 00:58:56.67	207.89	49.84	-39.3	-40.6	20.8	0.00e+00	0	25	0	652214272	50	6897
2026-01-10 00:58:57.68	208.33	50.09	-39.2	-40.4	21.1	0.00e+00	70	25	0	654311424	50	6754
2026-01-10 00:58:58.70	208.79	50.34	-38.4	-39.5	22.2	0.00e+00	0	25	0	656408576	50	6046
2026-01-10 00:58:59.70	209.24	50.59	-37.0	-37.9	23.2	0.00e+00	90	25	0	658505728	48	5667
2026-01-10 00:59:00.71	209.70	50.83	-36.5	-37.3	23.4	0.00e+00	0	25	0	659554304	46	5942
2026-01-10 00:59:01.72	210.17	51.08	-37.1	-38.1	23.1	0.00e+00	90	25	0	661651456	46	6470
2026-01-10 00:59:02.73	210.65	51.33	-37.4	-38.3	22.8	0.00e+00	92	25	0	663748608	46	6686
2026-01-10 00:59:03.74	211.14	51.57	-37.3	-38.2	23.1	0.00e+00	34	25	0	665845760	46	6596
2026-01-10 00:59:04.74	211.63	51.81	-36.6	-37.5	23.4	0.00e+00	91	25	0	666894336	46	6069
2026-01-10 00:59:05.76	212.14	52.06	-36.8	-37.7	23.3	0.00e+00	0	25	0	668991488	46	6205
2026-01-10 00:59:06.77	212.65	52.30	-36.9	-37.9	23.1	0.00e+00	91	25	0	671088640	46	6329
2026-01-10 00:59:07.78	213.17	52.54	-37.3	-38.4	22.2	0.00e+00	0	25	0	673185792	46	6701
2026-01-10 00:59:08.79	213.70	52.78	-37.2	-38.2	23.1	0.00e+00	92	25	0	675282944	46	6544
2026-01-10 00:59:09.80	214.23	53.02	-37.0	-38.0	23.3	0.00e+00	23	25	0	677380096	46	6419
2026-01-10 00:59:10.81	214.78	53.26	-36.3	-37.2	23.8	0.00e+00	0	25	0	678428672	46	5853
2026-01-10 00:59:11.82	215.33	53.49	-36.0	-36.8	24.2	0.00e+00	92	25	0	680525824	46	5624
2026-01-10 00:59:12.82	215.89	53.73	-36.0	-36.8	23.9	0.00e+00	0	25	0	682622976	44	6299
2026-01-10 00:59:13.84	216.47	53.96	-36.5	-37.4	23.7	0.00e+00	92	25	0	684720128	44	6746
2026-01-10 00:59:14.85	217.05	54.19	-36.4	-37.3	23.5	0.00e+00	0	25	0	686817280	44	6630
2026-01-10 00:59:15.86	217.64	54.42	-36.0	-36.9	23.9	0.00e+00	92	25	0	687865856	44	6348
2026-01-10 00:59:16.86	218.23	54.64	-35.8	-36.6	23.9	0.00e+00	20	25	0	689963008	44	6132
2026-01-10 00:59:17.87	218.84	54.87	-36.1	-37.0	23.7	0.00e+00	0	25	0	692060160	44	6399
2026-01-10 00:59:18.88	219.46	55.09	-36.5	-37.4	23.6	0.00e+00	92	25	0	694157312	44	6712
2026-01-10 00:59:19.89	220.09	55.31	-36.0	-36.8	23.8	0.00e+00	0	25	0	696254464	44	6316
2026-01-10 00:59:20.90	220.73	55.53	-35.6	-36.4	24.2	0.00e+00	92	25	0	697303040	44	6020
2026-01-10 00:59:21.91	221.38	55.74	-36.0	-36.9	23.8	0.00e+00	0	25	0	699400192	44	6334
2026-01-10 00:59:22.92	222.04	55.96	-36.3	-37.2	23.6	0.00e+00	92	25	0	701497344	44	6568
2026-01-10 00:59:23.93	222.70	56.16	-36.2	-37.0	23.9	0.00e+00	27	25	0	703594496	44	6457
2026-01-10 00:59:24.95	223.39	56.37	-35.8	-36.6	23.9	0.00e+00	90	25	0	705691648	44	6171
2026-01-10 00:59:25.96	224.08	56.58	-36.4	-37.3	23.5	0.00e+00	92	25	0	706740224	44	6687
2026-01-10 00:59:26.97	224.77	56.77	-37.2	-38.2	22.4	0.00e+00	0	25	0	708837376	46	6594
2026-01-10 00:59:27.98	225.48	56.97	-37.5	-38.6	22.7	0.00e+00	92	25	0	710934528	46	6860
2026-01-10 00:59:28.99	226.20	57.16	-37.0	-37.9	23.2	0.00e+00	0	25	0	713031680	46	6376
2026-01-10 00:59:30.00	226.93	57.35	-36.3	-37.1	23.7	0.00e+00	90	25	0	715128832	46	5811
2026-01-10 00:59:31.01	227.67	57.54	-36.1	-36.9	24.0	0.00e+00	25	25	0	717225984	46	5682
2026-01-10 00:59:32.02	228.41	57.72	-35.6	-36.4	24.0	0.00e+00	91	25	0	718274560	44	6028
2026-01-10 00:59:33.03	229.17	57.90	-35.2	-36.0	24.6	0.00e+00	91	25	0	720371712	44	5734
2026-01-10 00:59:34.03	229.93	58.07	-35.1	-35.9	24.4	0.00e+00	0	25	0	722468864	44	5634
2026-01-10 00:59:35.04	230.71	58.24	-35.2	-36.0	24.6	0.00e+00	91	25	0	724566016	44	5726
2026-01-10 00:59:36.05	231.50	58.40	-35.7	-36.5	24.2	0.00e+00	0	25	0	726663168	44	6096
2026-01-10 00:59:37.06	232.29	58.56	-36.1	-36.9	23.8	0.00e+00	52	25	0	727711744	44	6376
2026-01-10 00:59:38.06	233.09	58.72	-36.9	-37.8	23.2	0.00e+00	0	25	0	729808896	46	6289
2026-01-10 00:59:39.07	233.91	58.87	-36.8	-37.8	23.2	0.00e+00	91	25	0	731906048	46	6256
2026-01-10 00:59:40.08	234.73	59.01	-37.0	-37.9	23.1	0.00e+00	88	25	0	734003200	46	6388
2026-01-10 00:59:41.09	235.56	59.15	-35.7	-36.5	24.1	0.00e+00	0	25	0	735051776	46	5427
2026-01-10 00:59:42.10	236.41	59.29	-35.1	-35.9	24.7	0.00e+00	83	25	0	737148928	44	5646
2026-01-10 00:59:43.11	237.26	59.42	-34.5	-35.3	25.0	0.00e+00	0	25	0	739246080	42	5917
2026-01-10 00:59:44.12	238.11	59.54	-35.0	-35.8	24.6	0.00e+00	77	25	0	741343232	42	6295
2026-01-10 00:59:45.13	238.98	59.66	-35.5	-36.4	24.3	0.00e+00	0	25	0	743440384	42	6704
2026-01-10 00:59:46.14	239.86	59.77	-35.7	-36.6	24.0	0.00e+00	89	25	0	745537536	44	6106
2026-01-10 00:59:47.15	240.74	59.88	-36.5	-37.5	23.3	0.00e+00	83	25	0	746586112	44	6772
2026-01-10 00:59:48.16	241.63	59.98	-37.4	-38.4	22.5	0.00e+00	0	25	0	748683264	46	6745
2026-01-10 00:59:49.17	242.52	60.08	-37.7	-38.7	22.5	0.00e+00	61	25	0	750780416	46	6978
2026-01-10 00:59:50.17	243.42	60.16	-37.2	-38.2	23.0	0.00e+00	26	25	0	752877568	46	6578
2026-01-10 00:59:51.18	244.32	60.25	-36.5	-37.3	23.4	0.00e+00	92	25	0	754974720	46	5959
2026-01-10 00:59:52.19	245.24	60.32	-36.5	-37.4	23.5	0.00e+00	0	25	0	756023296	46	5986
2026-01-10 00:59:53.20	246.16	60.39	-36.9	-37.7	23.2	0.00e+00	92	25	0	758120448	46	6243
2026-01-10 00:59:54.21	247.08	60.46	-37.6	-38.6	22.5	0.00e+00	19	25	0	760217600	46	6867
2026-01-10 00:59:55.22	248.01	60.51	-37.3	-38.3	22.9	0.00e+00	0	25	0	762314752	46	6626
2026-01-10 00:59:56.23	248.94	60.57	-37.1	-38.1	23.0	0.00e+00	92	25	0	764411904	46	6466
2026-01-10 00:59:57.24	249.88	60.61	-36.3	-37.2	23.6	0.00e+00	5	25	0	765460480	46	5844
2026-01-10 00:59:58.25	250.82	60.65	-36.6	-37.6	23.4	0.00e+00	92	25	0	767557632	46	6104
2026-01-10 00:59:59.25	251.75	60.68	-37.8	-38.8	22.3	0.00e+00	0	25	0	769654784	46	7081
2026-01-10 01:00:00.26	252.69	60.70	-38.4	-39.5	21.9	0.00e+00	92	25	0	771751936	48	6827
2026-01-10 01:00:01.27	253.63	60.72	-37.7	-38.7	22.6	0.00e+00	0	25	0	773849088	48	6194
2026-01-10 01:00:02.28	254.58	60.73	-37.1	-38.1	23.0	0.00e+00	49	25	0	774897664	48	5769
2026-01-10 01:00:03.29	255.53	60.73	-37.2	-38.2	22.7	0.00e+00	92	25	0	776994816	48	5830
2026-01-10 01:00:04.30	256.47	60.73	-36.8	-37.8	23.4	0.00e+00	0	25	0	779091968	46	6254
2026-01-10 01:00:05.31	257.42	60.72	-35.0	-35.8	24.7	0.00e+00	41	25	0	781189120	44	5607
2026-01-10 01:00:06.32	258.36	60.70	-35.4	-36.3	24.3	0.00e+00	0	25	0	783286272	44	5906
2026-01-10 01:00:07.33	259.30	60.68	-36.5	-37.5	23.3	0.00e+00	92	25	0	784334848	44	6796
2026-01-10 01:00:08.34	260.24	60.65	-36.1	-37.0	23.9	0.00e+00	0	25	0	786432000	44	6391
2026-01-10 01:00:09.34	261.17	60.61	-35.1	-35.9	24.6	0.00e+00	92	25	0	788529152	44	5667
2026-01-10 01:00:10.35	262.11	60.57	-35.4	-36.2	24.3	0.00e+00	92	25	0	790626304	44	5862
2026-01-10 01:00:11.36	263.04	60.52	-35.7	-36.5	24.0	0.00e+00	0	25	0	792723456	44	6055
2026-01-10 01:00:12.37	263.97	60.46	-35.7	-36.5	24.1	0.00e+00	51	25	0	793772032	44	6077
2026-01-10 01:00:13.38	264.89	60.40	-35.7	-36.5	24.0	0.00e+00	0	25	0	795869184	44	6079
2026-01-10 01:00:14.39	265.81	60.33	-35.8	-36.6	23.9	0.00e+00	61	25	0	797966336	44	6160
2026-01-10 01:00:15.40	266.72	60.25	-36.6	-37.5	23.3	0.00e+00	0	25	0	800063488	44	6808
2026-01-10 01:00:16.41	267.63	60.17	-37.5	-38.5	22.6	0.00e+00	90	25	0	802160640	46	6808
2026-01-10 01:00:17.42	268.53	60.08	-37.6	-38.7	22.4	0.00e+00	36	25	0	803209216	48	6175
2026-01-10 01:00:18.43	269.43	59.99	-37.7	-38.7	22.4	0.00e+00	0	25	0	805306368	48	6220
2026-01-10 01:00:19.44	270.32	59.88	-38.1	-39.2	22.1	0.00e+00	92	25	0	807403520	48	6556
2026-01-10 01:00:20.44	271.19	59.78	-37.7	-38.7	22.5	0.00e+00	0	25	0	809500672	48	6224
2026-01-10 01:00:21.45	272.07	59.67	-37.5	-38.5	22.5	0.00e+00	55	25	0	811597824	48	6049
2026-01-10 01:00:22.46	272.93	59.55	-38.0	-39.0	22.0	0.00e+00	0	25	0	813694976	48	6448
2026-01-10 01:00:23.47	273.79	59.42	-39.0	-40.2	20.9	0.00e+00	92	25	0	814743552	50	6554
2026-01-10 01:00:24.48	274.64	59.30	-39.0	-40.2	21.1	0.00e+00	22	25	0	816840704	50	6583
2026-01-10 01:00:25.48	275.47	59.16	-39.3	-40.6	20.6	0.00e+00	0	25	0	818937856	50	6866
2026-01-10 01:00:26.49	276.31	59.02	-40.3	-41.7	19.7	0.00e+00	92	25	0	821035008	52	6954
2026-01-10 01:00:27.50	277.13	58.88	-40.4	-41.9	20.0	0.00e+00	0	25	0	823132160	52	7095
2026-01-10 01:00:28.51	277.95	58.73	-39.2	-40.4	21.1	0.00e+00	63	25	0	824180736	52	6028
2026-01-10 01:00:29.52	278.75	58.57	-37.9	-38.9	22.4	0.00e+00	0	25	0	826277888	50	5680
2026-01-10 01:00:30.53	279.55	58.41	-38.3	-39.3	22.1	0.00e+00	92	25	0	828375040	48	6673
2026-01-10 01:00:31.54	280.33	58.25	-38.1	-39.1	22.3	0.00e+00	19	25	0	830472192	48	6537
2026-01-10 01:00:32.55	281.11	58.08	-37.0	-38.0	22.9	0.00e+00	35	25	0	832569344	48	5712
2026-01-10 01:00:33.56	281.88	57.91	-36.8	-37.7	23.3	0.00e+00	92	25	0	833617920	46	6201
2026-01-10 01:00:34.57	282.64	57.73	-36.0	-36.9	23.9	0.00e+00	0	25	0	835715072	46	5651
2026-01-10 01:00:35.57	283.38	57.55	-35.2	-36.0	24.4	0.00e+00	90	25	0	837812224	44	5756
2026-01-10 01:00:36.59	284.12	57.37	-35.3	-36.1	24.4	0.00e+00	0	25	0	839909376	44	5817
2026-01-10 01:00:37.59	284.84	57.18	-34.8	-35.6	24.7	0.00e+00	92	25	0	842006528	44	5466
2026-01-10 01:00:38.60	285.56	56.99	-34.7	-35.4	24.8	0.00e+00	15	25	0	843055104	42	6021
2026-01-10 01:00:39.61	286.27	56.79	-34.7	-35.4	25.0	0.00e+00	32	25	0	845152256	42	6015
2026-01-10 01:00:40.62	286.96	56.59	-34.5	-35.2	25.1	0.00e+00	90	25	0	847249408	42	5881
2026-01-10 01:00:41.62	287.64	56.39	-34.3	-35.1	25.4	0.00e+00	0	25	0	849346560	42	5781
2026-01-10 01:00:42.63	288.32	56.19	-34.5	-35.2	25.1	0.00e+00	22	25	0	851443712	42	5896
2026-01-10 01:00:43.64	288.99	55.98	-33.9	-34.6	25.5	0.00e+00	0	25	0	852492288	40	6149
2026-01-10 01:00:44.65	289.65	55.77	-33.3	-34.0	25.7	0.00e+00	92	25	0	854589440	40	5713
2026-01-10 01:00:45.66	290.30	55.55	-34.2	-35.0	25.1	0.00e+00	0	25	0	856686592	40	6399
2026-01-10 01:00:46.67	290.93	55.34	-35.8	-36.7	23.9	0.00e+00	90	25	0	858783744	44	6185
2026-01-10 01:00:47.68	291.56	55.12	-35.3	-36.2	24.5	0.00e+00	96	25	0	860880896	44	5836
2026-01-10 01:00:48.69	292.18	54.90	-33.3	-34.0	26.0	0.00e+00	0	25	0	861929472	40	5717
2026-01-10 01:00:49.70	292.79	54.67	-32.8	-33.5	26.0	0.00e+00	22	25	0	864026624	40	5389
2026-01-10 01:00:50.71	293.39	54.45	-33.9	-34.6	25.0	0.00e+00	0	25	0	866123776	40	6131
2026-01-10 01:00:51.72	293.98	54.22	-34.9	-35.7	24.7	0.00e+00	90	25	0	868220928	42	6204
2026-01-10 01:00:52.73	294.56	53.99	-34.1	-34.8	25.0	0.00e+00	0	25	0	870318080	42	5617
2026-01-10 01:00:53.74	295.13	53.76	-34.3	-35.1	25.2	0.00e+00	91	25	0	871366656	42	5815
2026-01-10 01:00:54.75	295.70	53.53	-35.5	-36.4	24.2	0.00e+00	92	25	0	873463808	42	6719
2026-01-10 01:00:55.76	296.25	53.29	-34.9	-35.7	24.8	0.00e+00	0	25	0	875560960	42	6183
2026-01-10 01:00:56.76	296.79	53.06	-33.9	-34.7	25.4	0.00e+00	23	25	0	877658112	42	5530
2026-01-10 01:00:57.77	297.33	52.82	-33.5	-34.3	25.3	0.00e+00	0	25	0	879755264	40	5923
2026-01-10 01:00:58.78	297.85	52.58	-33.7	-34.4	25.4	0.00e+00	92	25	0	880803840	40	6016
2026-01-10 01:00:59.79	298.37	52.34	-33.3	-34.1	25.7	0.00e+00	0	25	0	882900992	40	5770
2026-01-10 01:01:00.80	298.88	52.10	-32.8	-33.5	26.0	0.00e+00	90	25	0	884998144	40	5380
2026-01-10 01:01:01.81	299.39	51.86	-33.7	-34.4	25.4	0.00e+00	23	25	0	887095296	40	6008
2026-01-10 01:01:02.82	299.88	51.61	-35.5	-36.4	24.2	0.00e+00	0	25	0	889192448	42	6731
2026-01-10 01:01:03.83	300.37	51.37	-36.8	-37.7	23.1	0.00e+00	92	25	0	890241024	44	6981
2026-01-10 01:01:04.84	300.85	51.12	-37.4	-38.4	22.7	0.00e+00	0	25	0	892338176	46	6735
2026-01-10 01:01:05.85	301.32	50.88	-37.2	-38.2	22.8	0.00e+00	92	25	0	894435328	46	6580
2026-01-10 01:01:06.86	301.78	50.63	-36.5	-37.5	23.6	0.00e+00	0	25	0	896532480	46	6057
2026-01-10 01:01:07.87	302.24	50.38	-35.6	-36.4	24.3	0.00e+00	92	25	0	898629632	44	6014
2026-01-10 01:01:08.88	302.69	50.13	-35.5	-36.3	24.1	0.00e+00	25	25	0	899678208	44	5927
2026-01-10 01:01:09.89	303.13	49.89	-36.8	-37.7	23.2	0.00e+00	0	25	0	901775360	44	6969
2026-01-10 01:01:10.89	303.56	49.64	-37.9	-38.9	22.2	0.00e+00	90	25	0	903872512	46	7140
2026-01-10 01:01:11.90	303.99	49.39	-38.6	-39.8	21.6	0.00e+00	0	25	0	905969664	50	6282
2026-01-10 01:01:12.91	304.41	49.14	-39.5	-40.8	20.6	0.00e+00	39	25	0	908066816	50	7016
2026-01-10 01:01:13.92	304.82	48.89	-40.3	-41.7	19.8	0.00e+00	0	25	0	910163968	52	6970
2026-01-10 01:01:14.93	305.23	48.64	-39.6	-40.9	20.7	0.00e+00	90	25	0	911212544	52	6367
2026-01-10 01:01:15.94	305.63	48.39	-38.3	-39.4	21.9	0.00e+00	0	25	0	913309696	50	6000
2026-01-10 01:01:16.95	306.02	48.15	-38.6	-39.7	21.8	0.00e+00	0	25	0	915406848	50	6227
2026-01-10 01:01:17.96	306.41	47.90	-39.9	-41.2	20.5	0.00e+00	92	25	0	917504000	52	6565
2026-01-10 01:01:18.97	306.80	47.65	-40.2	-41.6	19.8	0.00e+00	0	25	0	919601152	52	6852
2026-01-10 01:01:19.98	307.17	47.40	-39.4	-40.6	21.0	0.00e+00	90	25	0	920649728	52	6153
2026-01-10 01:01:20.99	307.54	47.15	-38.0	-39.0	22.2	0.00e+00	0	25	0	922746880	50	5739
2026-01-10 01:01:22.00	307.91	46.90	-38.5	-39.5	21.7	0.00e+00	92	25	0	924844032	50	6097
2026-01-10 01:01:23.01	308.27	46.65	-39.2	-40.4	21.2	0.00e+00	0	25	0	926941184	50	6709
2026-01-10 01:01:24.02	308.62	46.40	-40.6	-42.1	19.8	0.00e+00	0	25	0	929038336	54	6498
2026-01-10 01:01:25.03	308.97	46.16	-39.2	-40.4	21.1	0.00e+00	91	25	0	930086912	52	6026
2026-01-10 01:01:26.04	309.31	45.91	-37.3	-38.2	23.1	0.00e+00	0	25	0	932184064	48	5843
2026-01-10 01:01:27.05	309.65	45.66	-36.6	-37.4	23.5	0.00e+00	0	25	0	934281216	46	6019
2026-01-10 01:01:28.06	309.98	45.41	-35.9	-36.7	24.0	0.00e+00	0	25	0	936378368	46	5531
2026-01-10 01:01:29.07	310.31	45.17	-35.9	-36.7	24.0	0.00e+00	92	25	0	938475520	46	5555
2026-01-10 01:01:30.08	310.63	44.92	-36.2	-37.1	23.9	0.00e+00	0	25	0	939524096	46	5784
2026-01-10 01:01:31.09	310.94	44.68	-37.6	-38.6	22.5	0.00e+00	91	25	0	941621248	46	6884
2026-01-10 01:01:32.09	311.25	44.44	-39.3	-40.5	21.0	0.00e+00	65	25	0	943718400	50	6836
2026-01-10 01:01:33.11	311.56	44.19	-40.2	-41.6	20.1	0.00e+00	0	25	0	945815552	52	6916
2026-01-10 01:01:34.11	311.86	43.95	-38.6	-39.7	21.8	0.00e+00	85	25	0	947912704	52	5533
2026-01-10 01:01:35.12	312.16	43.71	-37.0	-37.9	23.2	0.00e+00	0	25	0	948961280	48	5673
2026-01-10 01:01:36.13	312.46	43.47	-35.7	-36.5	24.2	0.00e+00	75	25	0	951058432	44	6067
2026-01-10 01:01:37.14	312.75	43.22	-36.4	-37.3	23.4	0.00e+00	0	25	0	953155584	44	6679
2026-01-10 01:01:38.15	313.03	42.98	-37.5	-38.5	22.6	0.00e+00	83	25	0	955252736	46	6779
2026-01-10 01:01:39.16	313.31	42.75	-37.6	-38.6	22.6	0.00e+00	41	25	0	957349888	48	6132
2026-01-10 01:01:40.17	313.59	42.51	-37.1	-38.1	22.8	0.00e+00	0	25	0	958398464	48	5791
2026-01-10 01:01:41.18	313.87	42.27	-36.6	-37.5	23.4	0.00e+00	39	25	0	960495616	46	6048
2026-01-10 01:01:42.19	314.13	42.03	-36.6	-37.5	23.5	0.00e+00	0	25	0	962592768	46	6041
2026-01-10 01:01:43.20	314.40	41.80	-36.5	-37.4	23.5	0.00e+00	92	25	0	964689920	46	5984
2026-01-10 01:01:44.21	314.66	41.56	-36.6	-37.5	23.4	0.00e+00	22	25	0	966787072	46	6080
2026-01-10 01:01:45.22	314.92	41.33	-36.8	-37.7	23.2	0.00e+00	92	25	0	967835648	46	6212
2026-01-10 01:01:46.23	315.17	41.09	-37.8	-38.8	22.3	0.00e+00	12	25	0	969932800	46	7018
2026-01-10 01:01:47.24	315.43	40.86	-39.0	-40.2	21.3	0.00e+00	21	25	0	972029952	50	6555
2026-01-10 01:01:48.25	315.67	40.63	-39.1	-40.3	21.2	0.00e+00	66	25	0	974127104	50	6686
2026-01-10 01:01:49.26	315.92	40.40	-38.2	-39.3	22.0	0.00e+00	0	25	0	976224256	50	5902
2026-01-10 01:01:50.27	316.16	40.17	-36.9	-37.9	23.1	0.00e+00	92	25	0	977272832	48	5646
2026-01-10 01:01:51.27	316.39	39.94	-36.1	-36.9	23.9	0.00e+00	0	25	0	979369984	46	5664
2026-01-10 01:01:52.28	316.63	39.71	-35.7	-36.6	24.1	0.00e+00	92	25	0	981467136	44	6107
2026-01-10 01:01:53.29	316.86	39.49	-36.4	-37.3	23.5	0.00e+00	0	25	0	983564288	44	6648
2026-01-10 01:01:54.30	317.08	39.26	-37.8	-38.8	22.0	0.00e+00	0	25	0	985661440	48	6274
2026-01-10 01:01:55.31	317.31	39.04	-39.4	-40.6	20.9	0.00e+00	90	25	0	987758592	50	6900
2026-01-10 01:01:56.32	317.53	38.81	-40.0	-41.4	20.5	0.00e+00	0	25	0	988807168	52	6713
2026-01-10 01:01:57.33	317.75	38.59	-38.8	-39.9	21.6	0.00e+00	90	25	0	990904320	52	5688
2026-01-10 01:01:58.34	317.96	38.37	-37.5	-38.5	22.6	0.00e+00	0	25	0	993001472	48	6078
2026-01-10 01:01:59.35	318.18	38.15	-36.7	-37.6	23.4	0.00e+00	66	25	0	995098624	46	6117
2026-01-10 01:02:00.36	318.39	37.93	-35.9	-36.7	23.8	0.00e+00	9	25	0	997195776	46	5535
2026-01-10 01:02:01.37	318.59	37.71	-35.8	-36.7	24.0	0.00e+00	0	25	0	998244352	44	6175
2026-01-10 01:02:02.38	318.80	37.49	-36.4	-37.2	23.6	0.00e+00	91	25	0	1000341504	44	6564
2026-01-10 01:02:03.39	319.00	37.27	-36.9	-37.8	22.6	0.00e+00	0	25	0	1002438656	46	6290
2026-01-10 01:02:04.40	319.20	37.06	-37.8	-38.7	22.4	0.00e+00	92	25	0	1004535808	48	6229
2026-01-10 01:02:05.41	319.40	36.84	-38.0	-39.0	22.1	0.00e+00	0	25	0	1006632960	48	6437
2026-01-10 01:02:06.41	319.59	36.63	-37.9	-38.9	22.3	0.00e+00	63	25	0	1007681536	48	6384
2026-01-10 01:02:07.42	319.78	36.42	-37.6	-38.6	22.6	0.00e+00	0	25	0	1009778688	48	6129
2026-01-10 01:02:08.43	319.97	36.21	-37.5	-38.4	22.8	0.00e+00	70	25	0	1011875840	48	6023
2026-01-10 01:02:09.44	320.16	36.00	-36.4	-37.3	23.6	0.00e+00	22	25	0	1013972992	46	5910
2026-01-10 01:02:10.45	320.34	35.79	-36.2	-37.0	23.7	0.00e+00	0	25	0	1016070144	46	5749
2026-01-10 01:02:11.46	320.52	35.58	-36.6	-37.4	23.5	0.00e+00	16	25	0	1017118720	46	6018
2026-01-10 01:02:12.47	320.70	35.37	-36.5	-37.3	23.5	0.00e+00	0	25	0	1019215872	46	5925
2026-01-10 01:02:13.48	320.88	35.17	-37.2	-38.0	23.0	0.00e+00	90	25	0	1021313024	46	6462
2026-01-10 01:02:14.49	321.06	34.96	-38.0	-39.0	22.1	0.00e+00	0	25	0	1023410176	48	6411
2026-01-10 01:02:15.49	321.23	34.76	-39.5	-40.7	20.6	0.00e+00	48	25	0	1025507328	50	6995
2026-01-10 01:02:16.50	321.40	34.56	-40.7	-42.2	19.9	0.00e+00	16	25	0	1026555904	52	7338
2026-01-10 01:02:17.51	321.57	34.35	-41.0	-42.6	19.2	0.00e+00	0	25	0	1028653056	54	6855
2026-01-10 01:02:18.52	321.74	34.15	-40.4	-41.9	19.7	0.00e+00	48	25	0	1030750208	54	6376
2026-01-10 01:02:19.53	321.90	33.95	-39.5	-40.7	20.8	0.00e+00	0	25	0	1032847360	52	6237
2026-01-10 01:02:20.54	322.07	33.75	-38.5	-39.7	21.5	0.00e+00	64	25	0	1034944512	50	6190
2026-01-10 01:02:21.55	322.23	33.56	-37.7	-38.8	22.5	0.00e+00	0	25	0	1035993088	48	6268
2026-01-10 01:02:22.55	322.39	33.36	-37.1	-38.1	23.0	0.00e+00	90	25	0	1038090240	48	5781
2026-01-10 01:02:23.56	322.55	33.17	-36.7	-37.6	23.4	0.00e+00	0	25	0	1040187392	48	5463
2026-01-10 01:02:24.57	322.70	32.97	-36.5	-37.4	23.5	0.00e+00	0	25	0	1042284544	46	5987
2026-01-10 01:02:25.58	322.86	32.78	-36.9	-37.8	23.1	0.00e+00	92	25	0	1044381696	46	6317
2026-01-10 01:02:26.59	323.01	32.58	-37.1	-38.1	23.0	0.00e+00	0	25	0	1045430272	46	6481
2026-01-10 01:02:27.60	323.16	32.39	-37.4	-38.4	22.8	0.00e+00	55	25	0	1047527424	46	6737
2026-01-10 01:02:28.61	323.31	32.20	-37.1	-38.0	23.0	0.00e+00	0	25	0	1049624576	46	6431
2026-01-10 01:02:29.62	323.45	32.01	-37.3	-38.2	22.9	0.00e+00	88	25	0	1051721728	46	6569
2026-01-10 01:02:30.63	323.60	31.82	-36.6	-37.5	23.4	0.00e+00	0	25	0	1053818880	46	6071
2026-01-10 01:02:31.64	323.74	31.64	-36.8	-37.7	23.3	0.00e+00	0	25	0	1054867456	46	6175
2026-01-10 01:02:32.65	323.89	31.45	-37.2	-38.1	23.0	0.00e+00	95	25	0	1056964608	46	6514
2026-01-10 01:02:33.66	324.03	31.26	-36.8	-37.7	23.1	0.00e+00	0	25	0	1059061760	46	6222
2026-01-10 01:02:34.66	324.17	31.08	-37.6	-38.6	22.6	0.00e+00	39	25	0	1061158912	46	6859
2026-01-10 01:02:35.68	324.30	30.90	-38.2	-39.3	21.9	0.00e+00	0	25	0	1063256064	48	6651
2026-01-10 01:02:36.69	324.44	30.71	-38.3	-39.4	21.9	0.00e+00	92	25	0	1064304640	48	6710
2026-01-10 01:02:37.69	324.57	30.53	-39.2	-40.4	21.1	0.00e+00	0	25	0	1066401792	50	6753
2026-01-10 01:02:38.70	324.71	30.35	-38.8	-40.0	21.4	0.00e+00	0	25	0	1068498944	50	6414
2026-01-10 01:02:39.71	324.84	30.17	-38.4	-39.5	21.8	0.00e+00	18	25	0	1070596096	50	6050
2026-01-10 01:02:40.72	324.97	30.00	-38.0	-39.0	22.2	0.00e+00	0	25	0	1072693248	50	5747
2026-01-10 01:02:41.73	325.10	29.82	-37.4	-38.4	22.6	0.00e+00	92	25	0	1073741824	48	6028
2026-01-10 01:02:42.74	325.23	29.64	-36.7	-37.7	23.3	0.00e+00	0	25	0	1075838976	46	6180
2026-01-10 01:02:43.75	325.35	29.46	-36.4	-37.2	23.5	0.00e+00	92	25	0	1077936128	46	5892
2026-01-10 01:02:44.76	325.48	29.29	-36.1	-37.0	23.8	0.00e+00	0	25	0	1080033280	46	5718
2026-01-10 01:02:45.77	325.60	29.12	-35.1	-35.9	24.5	0.00e+00	8	25	0	1082130432	44	5692
2026-01-10 01:02:46.78	325.73	28.94	-35.2	-36.0	24.4	0.00e+00	18	25	0	1084227584	44	5756
2026-01-10 01:02:47.79	325.85	28.77	-35.2	-36.1	24.3	0.00e+00	0	25	0	1085276160	44	5762
2026-01-10 01:02:48.79	325.97	28.60	-35.3	-36.1	24.3	0.00e+00	14	25	0	1087373312	44	5809
2026-01-10 01:02:49.81	326.09	28.43	-36.2	-37.1	23.5	0.00e+00	0	25	0	1089470464	44	6498
2026-01-10 01:02:50.82	326.20	28.26	-36.5	-37.4	23.4	0.00e+00	88	25	0	1091567616	44	6749
2026-01-10 01:02:51.83	326.32	28.09	-37.5	-38.5	22.4	0.00e+00	0	25	0	1093664768	46	6810
2026-01-10 01:02:52.83	326.43	27.93	-38.2	-39.3	21.7	0.00e+00	92	25	0	1094713344	48	6668
2026-01-10 01:02:53.84	326.55	27.76	-38.3	-39.5	21.6	0.00e+00	5	25	0	1096810496	48	6771
2026-01-10 01:02:54.86	326.66	27.59	-39.0	-40.2	20.9	0.00e+00	0	25	0	1098907648	50	6580
2026-01-10 01:02:55.87	326.77	27.43	-39.0	-40.2	21.1	0.00e+00	91	25	0	1101004800	50	6581
2026-01-10 01:02:56.87	326.88	27.27	-38.6	-39.8	21.5	0.00e+00	0	25	0	1103101952	50	6296
2026-01-10 01:02:57.88	326.99	27.10	-38.0	-39.1	22.1	0.00e+00	92	25	0	1104150528	50	5780
2026-01-10 01:02:58.89	327.10	26.94	-37.4	-38.5	22.5	0.00e+00	0	25	0	1106247680	48	6035
2026-01-10 01:02:59.90	327.21	26.78	-37.2	-38.1	22.7	0.00e+00	92	25	0	1108344832	48	5819
2026-01-10 01:03:00.90	327.31	26.62	-37.3	-38.3	22.6	0.00e+00	0	25	0	1110441984	48	5936
2026-01-10 01:03:01.90	327.42	26.46	-37.1	-38.1	22.8	0.00e+00	0	25	0	1112539136	48	5800
2026-01-10 01:03:02.91	327.52	26.30	-37.2	-38.2	22.7	0.00e+00	90	25	0	1113587712	48	5837
2026-01-10 01:03:03.92	327.63	26.14	-37.7	-38.7	22.4	0.00e+00	0	25	0	1115684864	48	6190
2026-01-10 01:03:04.93	327.73	25.99	-37.6	-38.6	22.4	0.00e+00	21	25	0	1117782016	48	6113
2026-01-10 01:03:05.94	327.83	25.83	-37.6	-38.6	22.3	0.00e+00	0	25	0	1119879168	48	6170
2026-01-10 01:03:06.95	327.93	25.68	-38.0	-39.1	22.0	0.00e+00	69	25	0	1121976320	48	6505
2026-01-10 01:03:07.96	328.03	25.52	-37.6	-38.6	22.2	0.00e+00	0	25	0	1123024896	48	6167
2026-01-10 01:03:08.97	328.13	25.37	-37.9	-39.0	22.1	0.00e+00	0	25	0	1125122048	48	6396
2026-01-10 01:03:09.98	328.23	25.21	-37.8	-38.8	22.3	0.00e+00	16	25	0	1127219200	48	6272
2026-01-10 01:03:10.98	328.32	25.06	-37.4	-38.3	22.5	0.00e+00	0	25	0	1129316352	48	5955
2026-01-10 01:03:11.99	328.42	24.91	-37.4	-38.4	22.6	0.00e+00	92	25	0	1131413504	48	5980
2026-01-10 01:03:13.00	328.51	24.76	-37.0	-38.0	22.9	0.00e+00	0	25	0	1132462080	48	5716
2026-01-10 01:03:14.01	328.61	24.61	-36.7	-37.7	23.1	0.00e+00	0	25	0	1134559232	46	6195
2026-01-10 01:03:15.02	328.70	24.46	-36.8	-37.7	22.9	0.00e+00	0	25	0	1136656384	46	6205
2026-01-10 01:03:16.03	328.80	24.31	-36.2	-37.1	23.6	0.00e+00	0	25	0	1138753536	46	5766
2026-01-10 01:03:17.04	328.89	24.17	-35.9	-36.8	23.8	0.00e+00	53	25	0	1140850688	46	5572
2026-01-10 01:03:18.05	328.98	24.02	-35.6	-36.5	24.0	0.00e+00	0	25	0	1141899264	46	5402
2026-01-10 01:03:19.06	329.07	23.87	-35.4	-36.2	24.1	0.00e+00	92	25	0	1143996416	44	5857
2026-01-10 01:03:20.07	329.16	23.73	-35.2	-36.0	24.3	0.00e+00	0	25	0	1146093568	44	5752
2026-01-10 01:03:21.08	329.25	23.58	-35.3	-36.1	24.3	0.00e+00	0	25	0	1148190720	44	5807
2026-01-10 01:03:22.09	329.33	23.44	-35.0	-35.8	24.5	0.00e+00	0	25	0	1150287872	44	5628
2026-01-10 01:03:23.10	329.42	23.30	-34.9	-35.7	24.3	0.00e+00	0	25	0	1151336448	44	5537
2026-01-10 01:03:24.11	329.51	23.16	-35.0	-35.8	24.4	0.00e+00	76	25	0	1153433600	44	5615
2026-01-10 01:03:25.12	329.59	23.01	-35.0	-35.8	24.4	0.00e+00	0	25	0	1155530752	44	5582
2026-01-10 01:03:26.12	329.68	22.87	-35.2	-36.0	24.3	0.00e+00	76	25	0	1157627904	44	5744
2026-01-10 01:03:27.13	329.76	22.73	-35.4	-36.3	24.1	0.00e+00	0	25	0	1159725056	44	5900
2026-01-10 01:03:28.14	329.84	22.60	-35.6	-36.4	24.0	0.00e+00	25	25	0	1160773632	44	5984
2026-01-10 01:03:29.15	329.93	22.46	-35.9	-36.8	23.8	0.00e+00	0	25	0	1162870784	44	6263
2026-01-10 01:03:30.16	330.01	22.32	-36.2	-37.1	23.5	0.00e+00	0	25	0	1164967936	44	6498
2026-01-10 01:03:31.17	330.09	22.18	-36.5	-37.4	23.2	0.00e+00	0	25	0	1167065088	44	6760
2026-01-10 01:03:32.18	330.17	22.04	-37.0	-38.0	22.9	0.00e+00	0	25	0	1169162240	46	6423
2026-01-10 01:03:33.19	330.25	21.91	-37.3	-38.3	22.7	0.00e+00	77	25	0	1170210816	46	6684
2026-01-10 01:03:34.20	330.33	21.77	-37.6	-38.7	22.3	0.00e+00	16	25	0	1172307968	46	6953
2026-01-10 01:03:35.21	330.41	21.64	-37.7	-38.8	22.2	0.00e+00	73	25	0	1174405120	48	6291
2026-01-10 01:03:36.22	330.49	21.50	-37.6	-38.7	22.2	0.00e+00	0	25	0	1176502272	48	6199
2026-01-10 01:03:37.23	330.57	21.37	-37.7	-38.7	22.2	0.00e+00	0	25	0	1178599424	48	6244
2026-01-10 01:03:38.24	330.64	21.24	-37.5	-38.6	22.4	0.00e+00	0	25	0	1180696576	48	6145
2026-01-10 01:03:39.25	330.72	21.11	-37.0	-38.1	22.8	0.00e+00	0	25	0	1181745152	48	5772
2026-01-10 01:03:40.26	330.79	20.98	-37.0	-38.0	22.7	0.00e+00	92	25	0	1183842304	48	5760
2026-01-10 01:03:41.27	330.87	20.84	-36.5	-37.4	23.3	0.00e+00	0	25	0	1185939456	46	6002
2026-01-10 01:03:42.28	330.94	20.71	-36.2	-37.1	23.5	0.00e+00	92	25	0	1188036608	46	5822
2026-01-10 01:03:43.28	331.02	20.59	-35.7	-36.6	23.9	0.00e+00	0	25	0	1190133760	46	5488
2026-01-10 01:03:44.29	331.09	20.46	-35.3	-36.2	24.2	0.00e+00	17	25	0	1191182336	44	5859
2026-01-10 01:03:45.30	331.16	20.33	-35.3	-36.1	24.3	0.00e+00	0	25	0	1193279488	44	5791
2026-01-10 01:03:46.31	331.23	20.20	-34.6	-35.4	24.7	0.00e+00	0	25	0	1195376640	42	6023
2026-01-10 01:03:47.32	331.31	20.07	-34.5	-35.3	24.9	0.00e+00	87	25	0	1197473792	42	5937
2026-01-10 01:03:48.33	331.38	19.95	-34.2	-35.0	25.0	0.00e+00	0	25	0	1199570944	42	5735
2026-01-10 01:03:49.34	331.45	19.82	-34.1	-34.9	24.9	0.00e+00	95	25	0	1200619520	42	5639
2026-01-10 01:03:50.35	331.52	19.70	-34.1	-34.9	25.1	0.00e+00	0	25	0	1202716672	42	5655
2026-01-10 01:03:51.36	331.59	19.57	-33.8	-34.6	25.2	0.00e+00	0	25	0	1204813824	42	5456
2026-01-10 01:03:52.37	331.66	19.45	-33.9	-34.7	25.2	0.00e+00	0	25	0	1206910976	42	5503
2026-01-10 01:03:53.38	331.72	19.33	-33.9	-34.7	25.2	0.00e+00	0	25	0	1209008128	42	5507
