passes_logs/2026/01/10/R4.6S_Anadyr/R4.6S_Anadyr__20260110_143810_SUOMI_NPP_rec.log

#Pass ID: 20260110_143810_SUOMI NPP
#Satellite: SUOMI NPP
#Configuration: NPP
#almurnet v.1.7.20251203
#Start time: 2026-01-10 14:38:11

#Version: 2.2.20231116
#Station: R4.6S_Anadyr
#Location: 177.4865 lon 64.73178 lat
#TLE: 1 37849U 11061A   26009.81756760  .00000113  00000+0  74747-4 0  9994
#TLE: 2 37849  98.7806 311.9110 0002525  72.5604 287.5848 14.19524046735974

#Time	Az	El	Level	Level2	SNR	BER	BlckErr	Temp	State	Recorded	gain1	gain2
2026-01-10 14:38:11.84	20.24	0.10	-48.1	-60.6	3.4	1.52e+00	0	26	0	0	60	37561
2026-01-10 14:38:12.85	20.25	0.16	-48.2	-63.4	3.6	1.51e+00	0	27	104	0	60	53378
2026-01-10 14:38:13.86	20.26	0.23	-48.2	-63.4	3.6	1.51e+00	0	27	104	0	60	53502
2026-01-10 14:38:14.87	20.27	0.29	-48.2	-63.4	3.6	1.51e+00	0	28	104	0	60	53677
2026-01-10 14:38:15.88	20.28	0.35	-48.2	-63.4	3.6	1.51e+00	0	28	104	0	60	53637
2026-01-10 14:38:16.89	20.29	0.41	-48.3	-63.4	3.6	1.51e+00	0	28	104	0	60	53599
2026-01-10 14:38:17.90	20.30	0.47	-48.3	-63.5	3.6	1.51e+00	0	28	104	0	60	53840
2026-01-10 14:38:18.91	20.31	0.53	-48.2	-63.4	3.6	1.51e+00	0	28	104	0	60	53640
2026-01-10 14:38:19.92	20.32	0.59	-48.1	-63.3	3.6	1.51e+00	0	28	104	0	60	53105
2026-01-10 14:38:20.93	20.33	0.65	-48.1	-63.3	3.6	1.51e+00	0	28	104	0	60	52864
2026-01-10 14:38:21.94	20.34	0.71	-48.0	-63.2	3.6	1.51e+00	0	28	104	0	60	52269
2026-01-10 14:38:22.95	20.35	0.77	-47.9	-63.1	3.6	1.51e+00	0	28	104	0	60	51576
2026-01-10 14:38:23.96	20.36	0.84	-47.7	-62.8	3.6	1.51e+00	0	28	104	0	60	50155
2026-01-10 14:38:24.97	20.37	0.90	-47.5	-62.7	3.6	1.51e+00	0	28	104	0	60	49334
2026-01-10 14:38:25.98	20.38	0.96	-47.3	-62.5	3.6	1.51e+00	0	28	104	0	60	48062
2026-01-10 14:38:26.99	20.39	1.02	-47.0	-62.1	3.6	1.51e+00	0	28	104	0	60	46123
2026-01-10 14:38:28.00	20.40	1.08	-46.7	-61.8	3.6	1.51e+00	0	28	104	0	60	44656
2026-01-10 14:38:29.01	20.41	1.15	-46.7	-61.8	3.6	1.51e+00	0	28	104	0	60	44567
2026-01-10 14:38:30.02	20.42	1.21	-46.7	-61.9	3.6	1.51e+00	0	28	104	0	60	44762
2026-01-10 14:38:31.03	20.43	1.27	-46.7	-61.9	3.6	1.51e+00	0	28	104	0	60	44933
2026-01-10 14:38:32.04	20.44	1.33	-46.7	-61.8	3.6	1.51e+00	0	28	104	0	60	44319
2026-01-10 14:38:33.05	20.45	1.40	-46.7	-61.7	3.6	1.51e+00	0	28	104	0	60	44044
2026-01-10 14:38:34.06	20.46	1.46	-46.7	-61.7	3.6	1.51e+00	0	28	104	0	60	43959
2026-01-10 14:38:35.07	20.47	1.52	-46.7	-61.8	3.6	1.51e+00	0	28	104	0	60	44424
2026-01-10 14:38:36.08	20.48	1.59	-46.7	-61.8	3.6	1.51e+00	0	28	104	0	60	44339
2026-01-10 14:38:37.09	20.49	1.65	-46.7	-61.8	3.6	1.51e+00	0	28	104	0	60	44237
2026-01-10 14:38:38.10	20.50	1.71	-46.7	-61.8	3.6	1.51e+00	0	28	104	0	60	44550
2026-01-10 14:38:39.11	20.51	1.78	-46.7	-61.9	3.6	1.51e+00	0	28	104	0	60	44798
2026-01-10 14:38:40.12	20.52	1.84	-46.7	-61.8	3.6	1.51e+00	0	28	104	0	60	44687
2026-01-10 14:38:41.12	20.53	1.90	-46.7	-61.8	3.6	1.51e+00	0	28	104	0	60	44572
2026-01-10 14:38:42.13	20.54	1.97	-46.7	-61.8	3.6	1.51e+00	0	28	104	0	60	44692
2026-01-10 14:38:43.14	20.55	2.03	-46.7	-61.9	3.6	1.51e+00	0	28	104	0	60	44844
2026-01-10 14:38:44.16	20.56	2.10	-46.7	-61.9	3.6	1.51e+00	0	28	104	0	60	44732
2026-01-10 14:38:45.16	20.57	2.16	-46.7	-61.8	3.6	1.51e+00	0	28	104	0	60	44625
2026-01-10 14:38:46.18	20.58	2.23	-46.7	-61.7	3.6	1.51e+00	0	28	104	0	60	43992
2026-01-10 14:38:47.19	20.59	2.29	-46.7	-61.5	3.6	1.51e+00	0	28	104	0	60	42943
2026-01-10 14:38:48.20	20.60	2.36	-46.7	-61.0	3.6	1.51e+00	0	28	104	0	60	40450
2026-01-10 14:38:49.21	20.61	2.42	-46.6	-60.3	3.6	1.51e+00	0	28	104	0	60	37288
2026-01-10 14:38:50.22	20.62	2.49	-46.6	-59.8	3.6	1.51e+00	0	28	104	0	60	35175
2026-01-10 14:38:51.22	20.63	2.55	-46.6	-59.6	3.6	1.50e+00	0	28	104	0	60	34590
2026-01-10 14:38:52.24	20.64	2.62	-46.6	-59.2	3.8	1.48e+00	0	28	104	0	60	32976
2026-01-10 14:38:53.25	20.65	2.68	-46.6	-59.4	3.7	1.50e+00	0	28	104	0	60	33821
2026-01-10 14:38:54.26	20.66	2.75	-46.5	-58.8	3.8	1.48e+00	0	28	104	0	60	31508
2026-01-10 14:38:55.27	20.67	2.82	-46.5	-58.1	4.1	1.48e+00	0	28	104	0	60	28941
2026-01-10 14:38:56.28	20.68	2.88	-46.3	-54.8	5.2	8.81e-01	0	29	0	1048576	60	19789
2026-01-10 14:38:57.29	20.69	2.95	-46.0	-53.0	7.0	2.37e-01	0	29	0	2097152	60	16065
2026-01-10 14:38:58.30	20.70	3.02	-45.4	-51.1	9.2	5.06e-02	0	29	0	4194304	60	12929
2026-01-10 14:38:59.31	20.71	3.08	-44.7	-49.1	11.7	7.24e-03	79	28	0	6291456	60	10274
2026-01-10 14:39:00.32	20.72	3.15	-44.0	-47.6	13.1	5.87e-05	0	28	0	8388608	60	8692
2026-01-10 14:39:01.33	20.73	3.22	-43.5	-46.6	14.3	6.80e-06	56	28	0	10485760	60	7750
2026-01-10 14:39:02.34	20.74	3.28	-43.1	-45.9	14.9	0.00e+00	0	29	0	11534336	60	7141
2026-01-10 14:39:03.35	20.75	3.35	-42.5	-45.0	15.7	0.00e+00	45	29	0	13631488	58	7200
2026-01-10 14:39:04.36	20.76	3.42	-42.3	-44.7	16.0	0.00e+00	0	29	0	15728640	58	6961
2026-01-10 14:39:05.37	20.77	3.49	-42.0	-44.3	16.4	0.00e+00	0	29	0	17825792	58	6653
2026-01-10 14:39:06.37	20.78	3.55	-42.6	-45.1	15.6	0.00e+00	40	28	0	19922944	58	7256
2026-01-10 14:39:07.38	20.79	3.62	-42.9	-45.6	15.1	0.00e+00	0	29	0	20971520	58	7703
2026-01-10 14:39:08.39	20.80	3.69	-43.4	-46.5	14.2	0.00e+00	71	29	0	23068672	58	8540
2026-01-10 14:39:09.40	20.81	3.76	-44.1	-47.8	12.8	7.60e-06	0	29	0	25165824	60	8840
2026-01-10 14:39:10.41	20.83	3.83	-43.0	-45.7	15.7	1.13e-04	52	28	0	27262976	60	7006
2026-01-10 14:39:11.42	20.84	3.89	-41.7	-43.8	16.7	0.00e+00	0	29	0	29360128	56	7027
2026-01-10 14:39:12.43	20.85	3.96	-43.8	-47.2	12.8	5.56e-05	0	29	0	31457280	60	8289
2026-01-10 14:39:13.44	20.86	4.03	-45.8	-52.6	5.3	1.50e+00	0	29	104	31457280	60	15355
2026-01-10 14:39:14.45	20.87	4.10	-42.6	-45.2	14.0	6.06e-01	0	29	104	31457280	56	8264
2026-01-10 14:39:15.46	20.88	4.17	-46.7	-61.5	3.8	1.51e+00	0	29	104	31457280	60	43110
2026-01-10 14:39:16.47	20.89	4.24	-43.6	-46.7	14.2	3.80e-06	0	29	0	31457280	60	7808
2026-01-10 14:39:17.48	20.90	4.31	-43.2	-46.0	14.7	0.00e+00	88	29	0	32505856	60	7194
2026-01-10 14:39:18.48	20.91	4.38	-42.7	-45.2	15.6	0.00e+00	0	29	0	34603008	60	6594
2026-01-10 14:39:19.50	20.92	4.45	-43.0	-45.6	15.4	0.00e+00	0	28	0	36700160	58	7720
2026-01-10 14:39:20.50	20.93	4.52	-42.7	-45.2	15.8	0.00e+00	0	29	0	38797312	58	7412
2026-01-10 14:39:21.51	20.94	4.59	-42.5	-44.9	16.0	0.00e+00	0	29	0	40894464	58	7134
2026-01-10 14:39:22.52	20.96	4.66	-42.8	-45.3	15.6	0.00e+00	3	29	0	41943040	58	7485
2026-01-10 14:39:23.53	20.97	4.73	-41.6	-43.6	17.6	0.00e+00	0	29	0	44040192	56	6903
2026-01-10 14:39:24.54	20.98	4.80	-40.8	-42.4	18.5	0.00e+00	90	29	0	46137344	56	6020
2026-01-10 14:39:25.55	20.99	4.87	-40.7	-42.4	18.5	0.00e+00	0	29	0	48234496	54	6743
2026-01-10 14:39:26.56	21.00	4.95	-40.0	-41.5	19.3	0.00e+00	0	29	0	50331648	54	6086
2026-01-10 14:39:27.57	21.01	5.02	-40.0	-41.5	19.3	0.00e+00	0	29	0	51380224	54	6051
2026-01-10 14:39:28.58	21.02	5.09	-39.9	-41.3	19.5	0.00e+00	0	29	0	53477376	54	5937
2026-01-10 14:39:29.59	21.03	5.16	-40.1	-41.5	19.3	0.00e+00	81	29	0	55574528	54	6103
2026-01-10 14:39:30.60	21.05	5.23	-39.9	-41.3	19.6	0.00e+00	0	29	0	57671680	54	5940
2026-01-10 14:39:31.61	21.06	5.31	-39.9	-41.3	19.6	0.00e+00	44	29	0	59768832	54	5930
2026-01-10 14:39:32.62	21.07	5.38	-39.7	-41.1	19.8	0.00e+00	0	29	0	61865984	52	6522
2026-01-10 14:39:33.63	21.08	5.45	-39.7	-41.1	19.7	0.00e+00	0	29	0	62914560	52	6480
2026-01-10 14:39:34.64	21.09	5.52	-39.7	-41.1	19.8	0.00e+00	0	29	0	65011712	52	6505
2026-01-10 14:39:35.65	21.10	5.60	-39.7	-41.1	19.8	0.00e+00	0	29	0	67108864	52	6522
2026-01-10 14:39:36.65	21.11	5.67	-39.7	-41.1	19.9	0.00e+00	1	29	0	69206016	52	6513
2026-01-10 14:39:37.67	21.13	5.74	-39.6	-41.0	19.9	0.00e+00	0	29	0	71303168	52	6423
2026-01-10 14:39:38.67	21.14	5.82	-39.9	-41.3	19.7	0.00e+00	89	29	0	72351744	52	6638
2026-01-10 14:39:39.68	21.15	5.89	-39.8	-41.2	19.7	0.00e+00	0	29	0	74448896	52	6580
2026-01-10 14:39:40.69	21.16	5.97	-39.9	-41.3	19.7	0.00e+00	39	29	0	76546048	52	6649
2026-01-10 14:39:41.70	21.17	6.04	-39.7	-41.1	19.9	0.00e+00	0	29	0	78643200	52	6488
2026-01-10 14:39:42.71	21.18	6.11	-39.9	-41.3	19.8	0.00e+00	0	29	0	80740352	52	6630
2026-01-10 14:39:43.72	21.20	6.19	-39.8	-41.2	19.8	0.00e+00	1	29	0	81788928	52	6611
2026-01-10 14:39:44.73	21.21	6.26	-39.8	-41.2	19.8	0.00e+00	0	29	0	83886080	52	6553
2026-01-10 14:39:45.74	21.22	6.34	-39.6	-40.9	20.0	0.00e+00	24	29	0	85983232	52	6372
2026-01-10 14:39:46.75	21.23	6.42	-39.5	-40.9	20.1	0.00e+00	0	29	0	88080384	52	6319
2026-01-10 14:39:47.76	21.24	6.49	-39.6	-40.9	20.0	0.00e+00	0	29	0	90177536	52	6381
2026-01-10 14:39:48.77	21.26	6.57	-39.5	-40.8	20.2	0.00e+00	0	29	0	91226112	52	6267
2026-01-10 14:39:49.78	21.27	6.64	-39.4	-40.7	20.3	0.00e+00	32	29	0	93323264	52	6183
2026-01-10 14:39:50.79	21.28	6.72	-39.3	-40.6	20.4	0.00e+00	1	29	0	95420416	52	6115
2026-01-10 14:39:51.80	21.29	6.80	-39.3	-40.6	20.4	0.00e+00	0	29	0	97517568	52	6146
2026-01-10 14:39:52.81	21.30	6.87	-39.1	-40.3	20.6	0.00e+00	13	29	0	99614720	52	5956
2026-01-10 14:39:53.82	21.32	6.95	-39.1	-40.3	20.7	0.00e+00	0	29	0	100663296	52	5964
2026-01-10 14:39:54.83	21.33	7.03	-39.2	-40.4	20.7	0.00e+00	87	29	0	102760448	52	6032
2026-01-10 14:39:55.84	21.34	7.11	-39.2	-40.5	20.6	0.00e+00	0	29	0	104857600	52	6039
2026-01-10 14:39:56.84	21.35	7.18	-39.2	-40.4	20.6	0.00e+00	0	29	0	106954752	52	6017
2026-01-10 14:39:57.85	21.36	7.26	-39.0	-40.2	20.7	0.00e+00	0	29	0	109051904	52	5885
2026-01-10 14:39:58.87	21.38	7.34	-38.9	-40.1	20.8	0.00e+00	0	29	0	110100480	52	5801
2026-01-10 14:39:59.88	21.39	7.42	-38.8	-40.0	21.0	0.00e+00	1	29	0	112197632	52	5737
2026-01-10 14:40:00.88	21.40	7.50	-38.9	-40.1	20.9	0.00e+00	29	29	0	114294784	52	5784
2026-01-10 14:40:01.89	21.41	7.57	-38.9	-40.1	20.9	0.00e+00	80	29	0	116391936	52	5817
2026-01-10 14:40:02.90	21.43	7.65	-38.8	-40.1	20.9	0.00e+00	0	29	0	118489088	52	5762
2026-01-10 14:40:03.91	21.44	7.73	-38.8	-40.0	21.0	0.00e+00	0	29	0	119537664	52	5747
2026-01-10 14:40:04.92	21.45	7.81	-38.7	-39.8	21.1	0.00e+00	0	29	0	121634816	50	6307
2026-01-10 14:40:05.93	21.47	7.89	-38.5	-39.7	21.3	0.00e+00	0	29	0	123731968	50	6190
2026-01-10 14:40:06.94	21.48	7.97	-38.6	-39.8	21.2	0.00e+00	2	29	0	125829120	50	6246
2026-01-10 14:40:07.95	21.49	8.05	-38.6	-39.8	21.2	0.00e+00	0	29	0	127926272	50	6295
2026-01-10 14:40:08.96	21.50	8.13	-38.8	-40.0	21.0	0.00e+00	92	29	0	130023424	50	6460
2026-01-10 14:40:09.97	21.52	8.22	-38.7	-39.9	21.1	0.00e+00	0	29	0	131072000	50	6340
2026-01-10 14:40:10.98	21.53	8.30	-38.6	-39.8	21.2	0.00e+00	0	29	0	133169152	50	6256
2026-01-10 14:40:11.99	21.54	8.38	-38.7	-39.9	21.2	0.00e+00	0	29	0	135266304	50	6363
2026-01-10 14:40:13.00	21.56	8.46	-38.4	-39.6	21.4	0.00e+00	0	29	0	137363456	50	6114
2026-01-10 14:40:14.01	21.57	8.54	-38.3	-39.4	21.6	0.00e+00	0	29	0	139460608	50	5995
2026-01-10 14:40:15.02	21.58	8.63	-38.3	-39.5	21.5	0.00e+00	0	29	0	140509184	50	6039
2026-01-10 14:40:16.03	21.59	8.71	-38.2	-39.3	21.7	0.00e+00	61	29	0	142606336	50	5901
2026-01-10 14:40:17.04	21.61	8.79	-38.2	-39.3	21.6	0.00e+00	0	29	0	144703488	50	5959
2026-01-10 14:40:18.05	21.62	8.87	-38.2	-39.3	21.7	0.00e+00	89	29	0	146800640	50	5918
2026-01-10 14:40:19.07	21.63	8.96	-38.2	-39.3	21.7	0.00e+00	0	29	0	148897792	50	5955
2026-01-10 14:40:20.08	21.65	9.04	-38.1	-39.2	21.8	0.00e+00	0	29	0	149946368	50	5846
2026-01-10 14:40:21.09	21.66	9.13	-38.3	-39.4	21.5	0.00e+00	0	29	0	152043520	50	6015
2026-01-10 14:40:22.10	21.67	9.21	-38.0	-39.1	21.9	0.00e+00	0	29	0	154140672	50	5802
2026-01-10 14:40:23.11	21.69	9.29	-38.0	-39.1	21.8	0.00e+00	92	29	0	156237824	50	5798
2026-01-10 14:40:24.12	21.70	9.38	-38.1	-39.2	21.7	0.00e+00	0	29	0	158334976	50	5872
2026-01-10 14:40:25.13	21.72	9.46	-38.0	-39.1	21.9	0.00e+00	92	29	0	159383552	50	5803
2026-01-10 14:40:26.14	21.73	9.55	-38.1	-39.2	21.9	0.00e+00	0	29	0	161480704	50	5856
2026-01-10 14:40:27.15	21.74	9.64	-37.9	-38.9	22.0	0.00e+00	0	29	0	163577856	48	6383
2026-01-10 14:40:28.16	21.76	9.72	-37.9	-39.0	21.9	0.00e+00	29	29	0	165675008	48	6397
2026-01-10 14:40:29.17	21.77	9.81	-37.7	-38.7	22.2	0.00e+00	0	29	0	167772160	48	6238
2026-01-10 14:40:30.18	21.78	9.90	-37.8	-38.9	22.0	0.00e+00	90	29	0	168820736	48	6331
2026-01-10 14:40:31.19	21.80	9.98	-37.7	-38.7	22.2	0.00e+00	0	29	0	170917888	48	6241
2026-01-10 14:40:32.20	21.81	10.07	-37.7	-38.7	22.3	0.00e+00	90	29	0	173015040	48	6221
2026-01-10 14:40:33.21	21.83	10.16	-37.6	-38.6	22.3	0.00e+00	0	29	0	175112192	48	6145
2026-01-10 14:40:34.22	21.84	10.24	-37.6	-38.7	22.2	0.00e+00	0	29	0	177209344	48	6186
2026-01-10 14:40:35.23	21.85	10.33	-37.6	-38.6	22.3	0.00e+00	0	29	0	178257920	48	6136
2026-01-10 14:40:36.24	21.87	10.42	-37.8	-38.8	22.1	0.00e+00	0	29	0	180355072	48	6302
2026-01-10 14:40:37.25	21.88	10.51	-37.5	-38.6	22.4	0.00e+00	3	29	0	182452224	48	6104
2026-01-10 14:40:38.26	21.90	10.60	-37.5	-38.5	22.3	0.00e+00	0	29	0	184549376	48	6068
2026-01-10 14:40:39.27	21.91	10.69	-37.5	-38.5	22.4	0.00e+00	92	29	0	186646528	48	6059
2026-01-10 14:40:40.28	21.93	10.78	-37.5	-38.5	22.3	0.00e+00	0	29	0	187695104	48	6086
2026-01-10 14:40:41.29	21.94	10.87	-37.6	-38.6	22.3	0.00e+00	0	29	0	189792256	48	6117
2026-01-10 14:40:42.29	21.96	10.96	-37.5	-38.5	22.4	0.00e+00	0	29	0	191889408	48	6088
2026-01-10 14:40:43.30	21.97	11.05	-37.3	-38.3	22.6	0.00e+00	0	29	0	193986560	48	5948
2026-01-10 14:40:44.31	21.98	11.14	-37.4	-38.4	22.5	0.00e+00	92	29	0	196083712	48	6016
2026-01-10 14:40:45.32	22.00	11.23	-37.2	-38.2	22.7	0.00e+00	0	29	0	198180864	48	5881
2026-01-10 14:40:46.33	22.01	11.32	-37.3	-38.3	22.7	0.00e+00	92	29	0	199229440	48	5903
2026-01-10 14:40:47.34	22.03	11.42	-37.1	-38.1	22.8	0.00e+00	0	29	0	201326592	48	5766
2026-01-10 14:40:48.35	22.04	11.51	-37.2	-38.2	22.6	0.00e+00	0	29	0	203423744	48	5885
2026-01-10 14:40:49.36	22.06	11.60	-37.1	-38.1	22.8	0.00e+00	0	29	0	205520896	48	5778
2026-01-10 14:40:50.37	22.07	11.69	-37.1	-38.1	22.8	0.00e+00	0	29	0	207618048	48	5774
2026-01-10 14:40:51.38	22.09	11.79	-36.9	-37.9	22.9	0.00e+00	60	29	0	208666624	48	5659
2026-01-10 14:40:52.39	22.10	11.88	-37.0	-37.9	22.9	0.00e+00	0	29	0	210763776	48	5686
2026-01-10 14:40:53.40	22.12	11.98	-36.9	-37.9	22.9	0.00e+00	89	29	0	212860928	48	5660
2026-01-10 14:40:54.41	22.14	12.07	-37.0	-38.0	22.9	0.00e+00	0	29	0	214958080	48	5726
2026-01-10 14:40:55.42	22.15	12.17	-36.9	-37.9	23.0	0.00e+00	0	29	0	217055232	48	5658
2026-01-10 14:40:56.43	22.17	12.26	-36.9	-37.9	23.0	0.00e+00	0	29	0	218103808	48	5650
2026-01-10 14:40:57.44	22.18	12.36	-36.7	-37.7	23.1	0.00e+00	0	29	0	220200960	48	5526
2026-01-10 14:40:58.45	22.20	12.45	-36.8	-37.7	23.1	0.00e+00	0	29	0	222298112	46	6243
2026-01-10 14:40:59.46	22.21	12.55	-36.7	-37.7	23.2	0.00e+00	0	29	0	224395264	46	6192
2026-01-10 14:41:00.47	22.23	12.65	-36.7	-37.6	23.3	0.00e+00	59	29	0	226492416	46	6125
2026-01-10 14:41:01.47	22.25	12.74	-36.8	-37.7	23.1	0.00e+00	0	29	0	227540992	46	6205
2026-01-10 14:41:02.48	22.26	12.84	-36.7	-37.6	23.2	0.00e+00	39	29	0	229638144	46	6134
2026-01-10 14:41:03.49	22.28	12.94	-36.9	-37.8	23.1	0.00e+00	0	29	0	231735296	46	6277
2026-01-10 14:41:04.50	22.29	13.04	-36.5	-37.4	23.4	0.00e+00	0	29	0	233832448	46	5972
2026-01-10 14:41:05.51	22.31	13.14	-36.4	-37.3	23.4	0.00e+00	17	29	0	235929600	46	5959
2026-01-10 14:41:06.52	22.33	13.24	-36.5	-37.4	23.5	0.00e+00	0	29	0	236978176	46	5993
2026-01-10 14:41:07.53	22.34	13.34	-36.4	-37.3	23.5	0.00e+00	88	29	0	239075328	46	5951
2026-01-10 14:41:08.54	22.36	13.44	-36.5	-37.4	23.4	0.00e+00	0	29	0	241172480	46	5992
2026-01-10 14:41:09.55	22.38	13.54	-36.5	-37.4	23.5	0.00e+00	76	29	0	243269632	46	5989
2026-01-10 14:41:10.56	22.39	13.64	-36.3	-37.2	23.6	0.00e+00	0	29	0	245366784	46	5856
2026-01-10 14:41:11.57	22.41	13.74	-36.4	-37.3	23.4	0.00e+00	0	29	0	246415360	46	5928
2026-01-10 14:41:12.58	22.43	13.84	-36.5	-37.4	23.4	0.00e+00	0	29	0	248512512	46	5972
2026-01-10 14:41:13.59	22.44	13.94	-36.4	-37.3	23.5	0.00e+00	0	29	0	250609664	46	5904
2026-01-10 14:41:14.60	22.46	14.04	-36.4	-37.3	23.5	0.00e+00	87	29	0	252706816	46	5931
2026-01-10 14:41:15.61	22.48	14.15	-36.4	-37.3	23.6	0.00e+00	0	29	0	254803968	46	5921
2026-01-10 14:41:16.62	22.49	14.25	-36.4	-37.2	23.5	0.00e+00	83	29	0	255852544	46	5888
2026-01-10 14:41:17.63	22.51	14.36	-36.4	-37.3	23.6	0.00e+00	0	29	0	257949696	46	5930
2026-01-10 14:41:18.64	22.53	14.46	-36.4	-37.2	23.5	0.00e+00	0	29	0	260046848	46	5888
2026-01-10 14:41:19.65	22.55	14.56	-36.3	-37.2	23.6	0.00e+00	0	29	0	262144000	46	5882
2026-01-10 14:41:20.66	22.56	14.67	-36.4	-37.3	23.5	0.00e+00	0	29	0	264241152	46	5911
2026-01-10 14:41:21.67	22.58	14.78	-36.3	-37.1	23.6	0.00e+00	92	29	0	266338304	46	5827
2026-01-10 14:41:22.68	22.60	14.88	-36.4	-37.3	23.5	0.00e+00	0	29	0	267386880	46	5928
2026-01-10 14:41:23.69	22.62	14.99	-36.2	-37.0	23.7	0.00e+00	90	29	0	269484032	46	5747
2026-01-10 14:41:24.70	22.63	15.10	-36.2	-37.0	23.8	0.00e+00	0	29	0	271581184	46	5747
2026-01-10 14:41:25.71	22.65	15.20	-36.2	-37.1	23.6	0.00e+00	0	29	0	273678336	46	5807
2026-01-10 14:41:26.72	22.67	15.31	-36.2	-37.1	23.7	0.00e+00	0	29	0	275775488	46	5766
2026-01-10 14:41:27.73	22.69	15.42	-36.1	-37.0	23.7	0.00e+00	0	29	0	276824064	46	5734
2026-01-10 14:41:28.74	22.71	15.53	-36.2	-37.1	23.6	0.00e+00	69	29	0	278921216	46	5801
2026-01-10 14:41:29.75	22.73	15.64	-36.0	-36.9	23.8	0.00e+00	0	29	0	281018368	46	5659
2026-01-10 14:41:30.76	22.74	15.75	-36.1	-37.0	23.9	0.00e+00	58	29	0	283115520	46	5730
2026-01-10 14:41:31.77	22.76	15.86	-36.2	-37.0	23.6	0.00e+00	0	29	0	285212672	46	5749
2026-01-10 14:41:32.78	22.78	15.97	-36.2	-37.1	23.6	0.00e+00	0	29	0	286261248	46	5793
2026-01-10 14:41:33.79	22.80	16.08	-36.4	-37.2	23.2	0.00e+00	0	29	0	288358400	46	5895
2026-01-10 14:41:34.80	22.82	16.19	-36.3	-37.2	23.3	0.00e+00	0	29	0	290455552	46	5848
2026-01-10 14:41:35.81	22.84	16.31	-36.3	-37.2	23.1	0.00e+00	61	29	0	292552704	46	5840
2026-01-10 14:41:36.82	22.86	16.42	-36.2	-37.0	23.2	0.00e+00	0	29	0	294649856	46	5746
2026-01-10 14:41:37.83	22.88	16.53	-36.2	-37.1	23.7	0.00e+00	92	29	0	295698432	46	5784
2026-01-10 14:41:38.84	22.90	16.65	-36.4	-37.3	23.3	0.00e+00	0	29	0	297795584	46	5950
2026-01-10 14:41:39.85	22.91	16.76	-36.4	-37.3	23.5	0.00e+00	84	29	0	299892736	46	5907
2026-01-10 14:41:40.86	22.93	16.88	-36.3	-37.2	23.5	0.00e+00	0	29	0	301989888	46	5848
2026-01-10 14:41:41.87	22.95	16.99	-36.4	-37.3	23.4	0.00e+00	0	29	0	304087040	46	5932
2026-01-10 14:41:42.87	22.97	17.11	-36.2	-37.1	23.7	0.00e+00	0	29	0	305135616	46	5796
2026-01-10 14:41:43.88	22.99	17.23	-36.5	-37.3	23.6	0.00e+00	0	29	0	307232768	46	5963
2026-01-10 14:41:44.89	23.01	17.34	-36.6	-37.5	23.5	0.00e+00	8	30	0	309329920	46	6048
2026-01-10 14:41:45.91	23.03	17.46	-36.7	-37.6	23.4	0.00e+00	0	29	0	311427072	46	6159
2026-01-10 14:41:46.91	23.05	17.58	-36.5	-37.4	23.5	0.00e+00	92	30	0	313524224	46	5976
2026-01-10 14:41:47.92	23.07	17.70	-36.6	-37.5	23.5	0.00e+00	0	29	0	314572800	46	6091
2026-01-10 14:41:48.93	23.10	17.82	-36.6	-37.6	23.4	0.00e+00	0	29	0	316669952	46	6104
2026-01-10 14:41:49.94	23.12	17.94	-36.7	-37.6	23.4	0.00e+00	0	29	0	318767104	46	6150
2026-01-10 14:41:50.95	23.14	18.06	-36.8	-37.8	23.3	0.00e+00	0	29	0	320864256	46	6253
2026-01-10 14:41:51.96	23.16	18.18	-36.8	-37.8	23.3	0.00e+00	0	29	0	322961408	46	6260
2026-01-10 14:41:52.97	23.18	18.30	-36.6	-37.6	23.4	0.00e+00	0	30	0	324009984	46	6104
2026-01-10 14:41:53.98	23.20	18.43	-36.9	-37.8	23.4	0.00e+00	92	30	0	326107136	46	6254
2026-01-10 14:41:54.99	23.22	18.55	-36.8	-37.7	23.3	0.00e+00	0	29	0	328204288	46	6239
2026-01-10 14:41:56.00	23.24	18.67	-37.0	-37.9	23.2	0.00e+00	0	30	0	330301440	46	6338
2026-01-10 14:41:57.01	23.26	18.80	-37.0	-38.0	23.3	0.00e+00	0	30	0	332398592	46	6397
2026-01-10 14:41:58.02	23.29	18.92	-36.9	-37.9	23.3	0.00e+00	0	30	0	334495744	46	6337
2026-01-10 14:41:59.03	23.31	19.05	-37.2	-38.1	23.0	0.00e+00	0	30	0	335544320	46	6524
2026-01-10 14:42:00.04	23.33	19.18	-37.2	-38.2	23.0	0.00e+00	0	30	0	337641472	46	6569
2026-01-10 14:42:01.05	23.35	19.30	-37.1	-38.0	23.1	0.00e+00	66	29	0	339738624	46	6443
2026-01-10 14:42:02.05	23.37	19.43	-37.1	-38.0	23.1	0.00e+00	0	30	0	341835776	46	6438
2026-01-10 14:42:03.06	23.40	19.56	-37.2	-38.1	23.0	0.00e+00	0	30	0	343932928	46	6521
2026-01-10 14:42:04.07	23.42	19.69	-37.4	-38.3	23.0	0.00e+00	0	30	0	344981504	46	6667
2026-01-10 14:42:05.08	23.44	19.82	-37.3	-38.2	22.8	0.00e+00	0	29	0	347078656	46	6607
2026-01-10 14:42:06.09	23.47	19.95	-37.3	-38.2	22.9	0.00e+00	6	30	0	349175808	46	6590
2026-01-10 14:42:07.10	23.49	20.08	-37.6	-38.5	22.7	0.00e+00	0	30	0	351272960	46	6848
2026-01-10 14:42:08.11	23.51	20.21	-37.6	-38.6	22.6	0.00e+00	90	30	0	353370112	48	6160
2026-01-10 14:42:09.12	23.54	20.34	-37.7	-38.7	22.6	0.00e+00	0	30	0	354418688	48	6187
2026-01-10 14:42:10.13	23.56	20.48	-37.8	-38.8	22.4	0.00e+00	92	30	0	356515840	48	6314
2026-01-10 14:42:11.14	23.58	20.61	-37.7	-38.7	22.4	0.00e+00	0	30	0	358612992	48	6244
2026-01-10 14:42:12.15	23.61	20.74	-37.6	-38.5	22.5	0.00e+00	25	30	0	360710144	48	6087
2026-01-10 14:42:13.16	23.63	20.88	-38.0	-39.0	22.3	0.00e+00	4	30	0	362807296	48	6448
2026-01-10 14:42:14.17	23.66	21.02	-37.8	-38.8	22.6	0.00e+00	0	30	0	363855872	48	6279
2026-01-10 14:42:15.18	23.68	21.15	-37.7	-38.7	22.5	0.00e+00	92	30	0	365953024	48	6214
2026-01-10 14:42:16.19	23.71	21.29	-37.7	-38.7	22.6	0.00e+00	0	30	0	368050176	48	6192
2026-01-10 14:42:17.20	23.73	21.43	-37.8	-38.8	22.4	0.00e+00	90	30	0	370147328	48	6307
2026-01-10 14:42:18.21	23.76	21.57	-37.7	-38.7	22.6	0.00e+00	0	30	0	372244480	48	6238
2026-01-10 14:42:19.22	23.78	21.71	-38.0	-39.1	22.4	0.00e+00	0	30	0	373293056	48	6479
2026-01-10 14:42:20.23	23.81	21.85	-37.9	-38.9	22.4	0.00e+00	0	30	0	375390208	48	6355
2026-01-10 14:42:21.24	23.83	21.99	-38.0	-39.0	22.3	0.00e+00	0	30	0	377487360	48	6420
2026-01-10 14:42:22.25	23.86	22.13	-38.1	-39.1	22.2	0.00e+00	92	30	0	379584512	48	6495
2026-01-10 14:42:23.26	23.88	22.28	-38.2	-39.3	22.3	0.00e+00	0	30	0	381681664	48	6635
2026-01-10 14:42:24.27	23.91	22.42	-38.2	-39.2	22.2	0.00e+00	91	30	0	382730240	48	6602
2026-01-10 14:42:25.28	23.94	22.56	-38.1	-39.1	22.1	0.00e+00	0	30	0	384827392	48	6539
2026-01-10 14:42:26.29	23.96	22.71	-38.1	-39.2	22.2	0.00e+00	0	30	0	386924544	48	6542
2026-01-10 14:42:27.30	23.99	22.86	-38.1	-39.1	22.2	0.00e+00	0	30	0	389021696	48	6486
2026-01-10 14:42:28.31	24.02	23.00	-38.1	-39.1	22.2	0.00e+00	0	30	0	391118848	48	6538
2026-01-10 14:42:29.32	24.04	23.15	-38.0	-39.0	22.4	0.00e+00	92	30	0	392167424	48	6397
2026-01-10 14:42:30.33	24.07	23.30	-38.0	-39.0	22.3	0.00e+00	0	30	0	394264576	48	6450
2026-01-10 14:42:31.34	24.10	23.45	-37.9	-38.9	22.4	0.00e+00	92	30	0	396361728	48	6322
2026-01-10 14:42:32.35	24.13	23.60	-37.9	-38.9	22.5	0.00e+00	0	30	0	398458880	48	6318
2026-01-10 14:42:33.36	24.16	23.75	-37.8	-38.7	22.6	0.00e+00	0	30	0	400556032	48	6231
2026-01-10 14:42:34.37	24.18	23.90	-37.9	-38.8	22.6	0.00e+00	0	30	0	402653184	48	6308
2026-01-10 14:42:35.38	24.21	24.06	-37.7	-38.7	22.7	0.00e+00	0	30	0	403701760	48	6175
2026-01-10 14:42:36.39	24.24	24.21	-37.8	-38.8	22.6	0.00e+00	58	30	0	405798912	48	6268
2026-01-10 14:42:37.40	24.27	24.37	-37.7	-38.6	22.7	0.00e+00	0	30	0	407896064	48	6159
2026-01-10 14:42:38.41	24.30	24.52	-37.8	-38.7	22.4	0.00e+00	82	30	0	409993216	48	6230
2026-01-10 14:42:39.42	24.33	24.68	-37.7	-38.7	23.1	0.00e+00	0	30	0	412090368	48	6180
2026-01-10 14:42:40.43	24.36	24.84	-37.6	-38.6	22.7	0.00e+00	0	30	0	413138944	48	6123
2026-01-10 14:42:41.44	24.39	25.00	-37.7	-38.7	22.6	0.00e+00	0	30	0	415236096	48	6198
2026-01-10 14:42:42.45	24.42	25.16	-37.4	-38.4	22.9	0.00e+00	0	30	0	417333248	48	5991
2026-01-10 14:42:43.46	24.45	25.32	-37.4	-38.3	22.9	0.00e+00	4	30	0	419430400	48	5961
2026-01-10 14:42:44.47	24.48	25.48	-37.5	-38.5	22.8	0.00e+00	0	30	0	421527552	48	6059
2026-01-10 14:42:45.48	24.51	25.64	-37.3	-38.3	23.0	0.00e+00	91	30	0	422576128	48	5923
2026-01-10 14:42:46.49	24.54	25.80	-37.4	-38.4	22.9	0.00e+00	0	30	0	424673280	48	5981
2026-01-10 14:42:47.50	24.58	25.97	-37.4	-38.4	23.0	0.00e+00	91	30	0	426770432	48	5971
2026-01-10 14:42:48.51	24.61	26.14	-37.4	-38.4	22.9	0.00e+00	0	30	0	428867584	48	5984
2026-01-10 14:42:49.52	24.64	26.30	-37.2	-38.2	23.1	0.00e+00	3	30	0	430964736	48	5847
2026-01-10 14:42:50.53	24.67	26.47	-37.5	-38.4	22.8	0.00e+00	45	30	0	432013312	48	6025
2026-01-10 14:42:51.54	24.71	26.64	-37.5	-38.5	22.8	0.00e+00	0	30	0	434110464	48	6079
2026-01-10 14:42:52.55	24.74	26.81	-37.7	-38.8	22.6	0.00e+00	90	30	0	436207616	48	6250
2026-01-10 14:42:53.56	24.77	26.98	-37.9	-38.9	22.5	0.00e+00	0	30	0	438304768	48	6349
2026-01-10 14:42:54.57	24.81	27.15	-37.8	-38.8	22.6	0.00e+00	90	30	0	440401920	48	6273
2026-01-10 14:42:55.58	24.84	27.32	-37.8	-38.8	22.5	0.00e+00	0	30	0	441450496	48	6261
2026-01-10 14:42:56.59	24.88	27.50	-37.5	-38.5	22.9	0.00e+00	0	30	0	443547648	48	6043
2026-01-10 14:42:57.60	24.91	27.67	-37.6	-38.6	22.8	0.00e+00	5	30	0	445644800	48	6108
2026-01-10 14:42:58.61	24.95	27.85	-37.9	-38.9	22.5	0.00e+00	0	30	0	447741952	48	6378
2026-01-10 14:42:59.62	24.98	28.03	-37.4	-38.4	22.9	0.00e+00	92	30	0	449839104	48	5972
2026-01-10 14:43:00.63	25.02	28.21	-37.2	-38.1	23.1	0.00e+00	0	30	0	450887680	48	5799
2026-01-10 14:43:01.64	25.05	28.39	-37.6	-38.5	22.8	0.00e+00	90	30	0	452984832	48	6103
2026-01-10 14:43:02.65	25.09	28.57	-37.5	-38.5	22.9	0.00e+00	0	30	0	455081984	48	6063
2026-01-10 14:43:03.66	25.13	28.75	-37.7	-38.7	22.7	0.00e+00	0	30	0	457179136	48	6239
2026-01-10 14:43:04.67	25.17	28.93	-37.7	-38.7	22.6	0.00e+00	6	30	0	459276288	48	6223
2026-01-10 14:43:05.68	25.20	29.12	-37.9	-38.9	22.4	0.00e+00	0	30	0	460324864	48	6383
2026-01-10 14:43:06.69	25.24	29.30	-38.3	-39.3	22.2	0.00e+00	91	30	0	462422016	48	6675
2026-01-10 14:43:07.70	25.28	29.49	-38.3	-39.4	22.2	0.00e+00	0	30	0	464519168	48	6734
2026-01-10 14:43:08.71	25.32	29.68	-38.6	-39.7	21.8	0.00e+00	91	30	0	466616320	48	6967
2026-01-10 14:43:09.72	25.36	29.87	-38.5	-39.6	22.0	0.00e+00	0	30	0	468713472	48	6904
2026-01-10 14:43:10.73	25.40	30.06	-38.7	-39.8	21.8	0.00e+00	0	30	0	470810624	48	7075
2026-01-10 14:43:11.74	25.44	30.25	-38.8	-40.0	21.7	0.00e+00	0	30	0	471859200	48	7177
2026-01-10 14:43:12.75	25.48	30.44	-39.0	-40.1	21.5	0.00e+00	0	30	0	473956352	50	6532
2026-01-10 14:43:13.76	25.52	30.64	-39.3	-40.5	21.1	0.00e+00	84	30	0	476053504	50	6839
2026-01-10 14:43:14.77	25.56	30.83	-39.1	-40.3	21.4	0.00e+00	0	30	0	478150656	50	6655
2026-01-10 14:43:15.78	25.60	31.03	-39.7	-41.0	20.7	0.00e+00	90	30	0	480247808	52	6424
2026-01-10 14:43:16.79	25.65	31.23	-40.3	-41.7	20.5	0.00e+00	0	30	0	481296384	52	6964
2026-01-10 14:43:17.80	25.69	31.43	-40.4	-41.8	19.7	0.00e+00	0	30	0	483393536	52	7027
2026-01-10 14:43:18.81	25.73	31.63	-41.3	-42.9	19.0	0.00e+00	0	30	0	485490688	54	7146
2026-01-10 14:43:19.82	25.78	31.83	-41.1	-42.7	19.5	0.00e+00	0	30	0	487587840	54	6935
2026-01-10 14:43:20.83	25.82	32.04	-40.9	-42.5	19.4	0.00e+00	9	30	0	489684992	54	6804
2026-01-10 14:43:21.84	25.87	32.24	-41.1	-42.7	19.2	0.00e+00	0	30	0	490733568	54	6988
2026-01-10 14:43:22.85	25.91	32.45	-40.4	-41.9	20.0	0.00e+00	92	30	0	492830720	54	6331
2026-01-10 14:43:23.87	25.96	32.66	-40.9	-42.4	19.4	0.00e+00	0	30	0	494927872	54	6734
2026-01-10 14:43:24.87	26.00	32.87	-40.6	-42.1	19.7	0.00e+00	0	30	0	497025024	54	6507
2026-01-10 14:43:25.88	26.05	33.08	-41.2	-42.8	19.0	0.00e+00	0	30	0	499122176	54	7055
2026-01-10 14:43:26.89	26.10	33.29	-40.7	-42.2	19.5	0.00e+00	0	30	0	500170752	54	6608
2026-01-10 14:43:27.90	26.15	33.51	-40.0	-41.4	20.4	0.00e+00	0	30	0	502267904	54	5999
2026-01-10 14:43:28.91	26.20	33.72	-39.7	-41.0	20.8	0.00e+00	0	30	0	504365056	52	6407
2026-01-10 14:43:29.92	26.24	33.94	-39.0	-40.2	21.4	0.00e+00	36	30	0	506462208	52	5843
2026-01-10 14:43:30.93	26.29	34.16	-38.8	-39.9	21.2	0.00e+00	0	30	0	508559360	52	5690
2026-01-10 14:43:31.94	26.35	34.38	-38.2	-39.2	22.3	0.00e+00	77	30	0	509607936	50	5896
2026-01-10 14:43:32.95	26.40	34.60	-37.6	-38.6	22.6	0.00e+00	0	30	0	511705088	48	6143
2026-01-10 14:43:33.96	26.45	34.82	-37.3	-38.3	23.1	0.00e+00	0	30	0	513802240	48	5903
2026-01-10 14:43:34.97	26.50	35.05	-37.2	-38.1	23.1	0.00e+00	0	30	0	515899392	48	5811
2026-01-10 14:43:35.98	26.55	35.28	-37.7	-38.6	22.7	0.00e+00	0	30	0	517996544	48	6165
2026-01-10 14:43:36.99	26.61	35.50	-37.2	-38.2	23.2	0.00e+00	91	30	0	519045120	48	5836
2026-01-10 14:43:38.00	26.66	35.73	-37.2	-38.1	23.2	0.00e+00	0	30	0	521142272	48	5791
2026-01-10 14:43:39.01	26.72	35.97	-36.9	-37.7	23.6	0.00e+00	60	30	0	523239424	48	5556
2026-01-10 14:43:40.02	26.77	36.20	-36.8	-37.7	23.5	0.00e+00	0	30	0	525336576	46	6176
2026-01-10 14:43:41.03	26.83	36.43	-37.0	-38.0	23.3	0.00e+00	0	30	0	527433728	46	6401
2026-01-10 14:43:42.04	26.89	36.67	-36.7	-37.6	23.4	0.00e+00	0	30	0	528482304	46	6155
2026-01-10 14:43:43.05	26.95	36.91	-37.1	-38.0	23.3	0.00e+00	0	30	0	530579456	46	6443
2026-01-10 14:43:44.06	27.01	37.15	-37.2	-38.2	23.0	0.00e+00	43	30	0	532676608	46	6575
2026-01-10 14:43:45.07	27.07	37.39	-37.3	-38.3	23.1	0.00e+00	0	30	0	534773760	46	6637
2026-01-10 14:43:46.08	27.13	37.63	-37.9	-39.0	22.8	0.00e+00	92	30	0	536870912	46	7201
2026-01-10 14:43:47.09	27.19	37.88	-37.8	-38.8	22.6	0.00e+00	0	30	0	538968064	48	6289
2026-01-10 14:43:48.10	27.25	38.12	-37.7	-38.7	22.7	0.00e+00	0	30	0	540016640	48	6233
2026-01-10 14:43:49.11	27.31	38.37	-37.7	-38.8	22.7	0.00e+00	27	30	0	542113792	48	6248
2026-01-10 14:43:50.12	27.38	38.62	-37.5	-38.5	22.9	0.00e+00	0	30	0	544210944	48	6100
2026-01-10 14:43:51.13	27.44	38.88	-37.3	-38.3	23.1	0.00e+00	67	30	0	546308096	48	5920
2026-01-10 14:43:52.14	27.51	39.13	-37.4	-38.4	22.9	0.00e+00	7	30	0	548405248	48	6015
2026-01-10 14:43:53.14	27.58	39.38	-37.9	-39.0	22.4	0.00e+00	90	30	0	549453824	48	6460
2026-01-10 14:43:54.15	27.65	39.64	-38.2	-39.3	22.3	0.00e+00	0	30	0	551550976	48	6674
2026-01-10 14:43:55.16	27.71	39.90	-38.8	-40.0	21.7	0.00e+00	0	30	0	553648128	50	6463
2026-01-10 14:43:56.17	27.79	40.16	-38.9	-40.1	21.6	0.00e+00	24	30	0	555745280	50	6488
2026-01-10 14:43:57.18	27.86	40.43	-38.9	-40.1	21.5	0.00e+00	0	30	0	557842432	50	6515
2026-01-10 14:43:58.19	27.93	40.69	-39.2	-40.4	21.2	0.00e+00	9	30	0	558891008	50	6768
2026-01-10 14:43:59.20	28.00	40.96	-38.5	-39.6	21.9	0.00e+00	21	30	0	560988160	50	6145
2026-01-10 14:44:00.21	28.08	41.23	-38.9	-40.1	21.8	0.00e+00	92	30	0	563085312	50	6515
2026-01-10 14:44:01.22	28.15	41.50	-38.2	-39.3	22.2	0.00e+00	0	30	0	565182464	50	5922
2026-01-10 14:44:02.23	28.23	41.77	-37.5	-38.5	23.2	0.00e+00	90	30	0	567279616	48	6050
2026-01-10 14:44:03.24	28.31	42.05	-37.5	-38.4	23.0	0.00e+00	0	30	0	568328192	48	6016
2026-01-10 14:44:04.25	28.39	42.33	-37.2	-38.1	23.0	0.00e+00	0	30	0	570425344	48	5794
2026-01-10 14:44:05.26	28.47	42.61	-36.8	-37.7	23.5	0.00e+00	6	30	0	572522496	46	6199
2026-01-10 14:44:06.26	28.55	42.88	-36.4	-37.3	23.8	0.00e+00	0	30	0	574619648	46	5918
2026-01-10 14:44:07.27	28.64	43.17	-36.3	-37.2	23.9	0.00e+00	92	30	0	576716800	46	5829
2026-01-10 14:44:08.28	28.72	43.45	-36.1	-37.0	24.0	0.00e+00	0	30	0	577765376	46	5736
2026-01-10 14:44:09.30	28.81	43.74	-36.3	-37.2	23.8	0.00e+00	87	30	0	579862528	46	5855
2026-01-10 14:44:10.31	28.90	44.03	-36.6	-37.6	23.6	0.00e+00	0	30	0	581959680	46	6122
2026-01-10 14:44:11.32	28.99	44.33	-36.9	-37.9	23.4	0.00e+00	0	30	0	584056832	46	6335
2026-01-10 14:44:12.33	29.08	44.62	-37.7	-38.7	22.6	0.00e+00	0	30	0	586153984	46	6958
2026-01-10 14:44:13.34	29.17	44.92	-37.7	-38.7	22.7	0.00e+00	0	30	0	587202560	48	6223
2026-01-10 14:44:14.34	29.26	45.21	-38.6	-39.8	21.8	0.00e+00	10	30	0	589299712	48	7025
2026-01-10 14:44:15.36	29.36	45.51	-39.4	-40.7	21.4	0.00e+00	0	30	0	591396864	50	6945
2026-01-10 14:44:16.37	29.46	45.82	-39.5	-40.8	21.0	0.00e+00	89	30	0	593494016	50	7059
2026-01-10 14:44:17.38	29.56	46.12	-39.8	-41.1	20.7	0.00e+00	0	30	0	595591168	50	7327
2026-01-10 14:44:18.39	29.66	46.43	-39.6	-40.8	20.9	0.00e+00	0	30	0	596639744	52	6310
2026-01-10 14:44:19.40	29.77	46.74	-40.1	-41.5	20.7	0.00e+00	0	30	0	598736896	52	6821
2026-01-10 14:44:20.41	29.87	47.05	-39.5	-40.8	21.1	0.00e+00	0	30	0	600834048	52	6268
2026-01-10 14:44:21.42	29.98	47.36	-39.6	-40.9	20.9	0.00e+00	91	30	0	602931200	52	6330
2026-01-10 14:44:22.43	30.09	47.68	-38.6	-39.7	21.7	0.00e+00	0	30	0	605028352	50	6230
2026-01-10 14:44:23.44	30.20	48.00	-38.5	-39.6	22.0	0.00e+00	91	30	0	607125504	50	6170
2026-01-10 14:44:24.45	30.32	48.32	-38.0	-39.0	22.6	0.00e+00	0	30	0	608174080	50	5747
2026-01-10 14:44:25.46	30.43	48.64	-37.2	-38.2	23.2	0.00e+00	0	30	0	610271232	48	5845
2026-01-10 14:44:26.47	30.55	48.97	-37.0	-37.9	23.4	0.00e+00	0	30	0	612368384	48	5655
2026-01-10 14:44:27.48	30.67	49.29	-36.6	-37.5	23.7	0.00e+00	0	30	0	614465536	46	6058
2026-01-10 14:44:28.49	30.80	49.62	-36.5	-37.5	23.7	0.00e+00	59	30	0	616562688	46	6036
2026-01-10 14:44:29.50	30.92	49.96	-35.8	-36.7	24.3	0.00e+00	0	30	0	617611264	46	5526
2026-01-10 14:44:30.51	31.05	50.29	-36.2	-37.1	24.0	0.00e+00	92	30	0	619708416	46	5772
2026-01-10 14:44:31.52	31.19	50.63	-36.0	-36.9	24.1	0.00e+00	0	30	0	621805568	46	5675
2026-01-10 14:44:32.53	31.32	50.97	-35.9	-36.7	24.2	0.00e+00	0	30	0	623902720	44	6233
2026-01-10 14:44:33.53	31.46	51.30	-35.6	-36.4	24.4	0.00e+00	0	30	0	625999872	44	6031
2026-01-10 14:44:34.54	31.60	51.65	-35.2	-36.0	24.6	0.00e+00	0	30	0	627048448	44	5736
2026-01-10 14:44:35.55	31.74	51.99	-35.0	-35.9	24.7	0.00e+00	6	30	0	629145600	44	5638
2026-01-10 14:44:36.56	31.89	52.34	-34.9	-35.8	24.8	0.00e+00	0	30	0	631242752	42	6264
2026-01-10 14:44:37.57	32.04	52.69	-35.1	-35.9	24.7	0.00e+00	92	30	0	633339904	42	6387
2026-01-10 14:44:38.58	32.20	53.05	-34.8	-35.6	24.9	0.00e+00	0	30	0	635437056	42	6158
2026-01-10 14:44:39.59	32.36	53.40	-35.2	-36.1	24.9	0.00e+00	90	30	0	636485632	42	6469
2026-01-10 14:44:40.60	32.52	53.76	-35.1	-35.9	24.8	0.00e+00	0	30	0	638582784	42	6346
2026-01-10 14:44:41.61	32.69	54.12	-35.2	-36.1	24.7	0.00e+00	0	30	0	640679936	42	6475
2026-01-10 14:44:42.62	32.86	54.48	-34.4	-35.1	25.5	0.00e+00	59	30	0	642777088	42	5811
2026-01-10 14:44:43.63	33.03	54.84	-34.0	-34.8	25.5	0.00e+00	0	30	0	644874240	42	5588
2026-01-10 14:44:44.64	33.21	55.21	-34.2	-35.0	25.3	0.00e+00	10	30	0	645922816	42	5720
2026-01-10 14:44:45.65	33.39	55.58	-34.4	-35.2	25.3	0.00e+00	0	30	0	648019968	42	5858
2026-01-10 14:44:46.66	33.58	55.95	-34.4	-35.2	25.3	0.00e+00	92	30	0	650117120	42	5867
2026-01-10 14:44:47.67	33.78	56.32	-34.2	-35.0	25.4	0.00e+00	0	30	0	652214272	42	5760
2026-01-10 14:44:48.68	33.98	56.70	-33.8	-34.5	24.8	0.00e+00	0	30	0	654311424	40	6097
2026-01-10 14:44:49.69	34.18	57.08	-33.6	-34.4	25.8	0.00e+00	9	30	0	655360000	40	5989
2026-01-10 14:44:50.70	34.39	57.46	-33.4	-34.1	26.0	0.00e+00	0	30	0	657457152	40	5827
2026-01-10 14:44:51.71	34.61	57.84	-33.3	-34.0	25.8	0.00e+00	92	30	0	659554304	40	5760
2026-01-10 14:44:52.72	34.83	58.22	-33.9	-34.7	25.5	0.00e+00	0	30	0	661651456	40	6199
2026-01-10 14:44:53.73	35.06	58.61	-33.8	-34.5	25.5	0.00e+00	92	30	0	663748608	40	6087
2026-01-10 14:44:54.74	35.29	59.00	-34.1	-34.8	25.5	0.00e+00	0	30	0	664797184	40	6276
2026-01-10 14:44:55.75	35.53	59.39	-34.3	-35.0	25.0	0.00e+00	0	30	0	666894336	40	6462
2026-01-10 14:44:56.75	35.78	59.78	-34.4	-35.2	25.2	0.00e+00	0	30	0	668991488	40	6544
2026-01-10 14:44:57.76	36.04	60.17	-35.0	-35.8	24.9	0.00e+00	0	30	0	671088640	42	6282
2026-01-10 14:44:58.77	36.30	60.57	-35.6	-36.5	24.4	0.00e+00	81	30	0	673185792	42	6810
2026-01-10 14:44:59.78	36.57	60.97	-35.1	-35.9	24.8	0.00e+00	0	30	0	675282944	42	6362
2026-01-10 14:45:00.79	36.85	61.37	-34.5	-35.3	25.1	0.00e+00	65	30	0	676331520	42	5912
2026-01-10 14:45:01.80	37.14	61.77	-34.3	-35.1	25.3	0.00e+00	0	30	0	678428672	42	5772
2026-01-10 14:45:02.81	37.44	62.18	-35.0	-35.8	24.7	0.00e+00	0	30	0	680525824	42	6291
2026-01-10 14:45:03.82	37.75	62.58	-35.4	-36.3	24.7	0.00e+00	0	30	0	682622976	42	6629
2026-01-10 14:45:04.83	38.08	62.99	-34.8	-35.6	25.0	0.00e+00	0	30	0	684720128	42	6168
2026-01-10 14:45:05.84	38.41	63.40	-34.7	-35.5	25.3	0.00e+00	70	30	0	685768704	42	6071
2026-01-10 14:45:06.85	38.75	63.81	-34.9	-35.8	24.8	0.00e+00	0	30	0	687865856	42	6270
2026-01-10 14:45:07.86	39.11	64.22	-35.2	-36.0	24.6	0.00e+00	46	30	0	689963008	42	6427
2026-01-10 14:45:08.87	39.47	64.64	-35.0	-35.8	24.6	0.00e+00	0	30	0	692060160	42	6315
2026-01-10 14:45:09.88	39.86	65.05	-34.6	-35.3	25.1	0.00e+00	33	30	0	694157312	42	5953
2026-01-10 14:45:10.89	40.25	65.47	-34.7	-35.5	25.2	0.00e+00	0	30	0	695205888	42	6097
2026-01-10 14:45:11.89	40.66	65.88	-34.8	-35.6	25.0	0.00e+00	0	30	0	697303040	42	6117
2026-01-10 14:45:12.90	41.09	66.30	-34.9	-35.7	24.9	0.00e+00	0	30	0	699400192	42	6192
2026-01-10 14:45:13.91	41.53	66.72	-35.4	-36.2	24.6	0.00e+00	0	30	0	701497344	42	6555
2026-01-10 14:45:14.92	41.99	67.14	-36.4	-37.3	23.9	0.00e+00	59	30	0	703594496	44	6619
2026-01-10 14:45:15.93	42.47	67.56	-36.4	-37.3	23.8	0.00e+00	0	30	0	704643072	46	5940
2026-01-10 14:45:16.94	42.97	67.98	-36.0	-36.9	24.2	0.00e+00	62	30	0	706740224	46	5645
2026-01-10 14:45:17.95	43.49	68.41	-35.8	-36.6	24.3	0.00e+00	0	30	0	708837376	44	6138
2026-01-10 14:45:18.96	44.04	68.83	-37.1	-38.0	23.2	0.00e+00	0	30	0	710934528	46	6422
2026-01-10 14:45:19.97	44.60	69.25	-38.5	-39.7	21.8	0.00e+00	0	30	0	713031680	48	6930
2026-01-10 14:45:20.98	45.20	69.67	-39.1	-40.2	21.4	0.00e+00	0	30	0	714080256	50	6585
2026-01-10 14:45:21.99	45.82	70.10	-38.8	-39.9	21.7	0.00e+00	92	30	0	716177408	50	6332
2026-01-10 14:45:23.00	46.46	70.52	-39.6	-40.8	21.1	0.00e+00	0	30	0	718274560	52	6252
2026-01-10 14:45:24.00	47.14	70.94	-39.5	-40.7	21.2	0.00e+00	73	30	0	720371712	52	6196
2026-01-10 14:45:25.02	47.85	71.36	-38.9	-40.0	21.7	0.00e+00	0	30	0	722468864	52	5738
2026-01-10 14:45:26.02	48.59	71.78	-39.2	-40.3	21.3	0.00e+00	0	30	0	723517440	52	5955
2026-01-10 14:45:27.03	49.37	72.19	-39.6	-40.9	20.9	0.00e+00	0	30	0	725614592	52	6331
2026-01-10 14:45:28.04	50.20	72.61	-40.2	-41.7	20.2	0.00e+00	0	30	0	727711744	52	7001
2026-01-10 14:45:29.05	51.06	73.03	-40.9	-42.6	19.0	0.00e+00	73	30	0	729808896	54	6885
2026-01-10 14:45:30.06	51.97	73.44	-41.5	-43.2	18.7	0.00e+00	0	30	0	731906048	56	6607
2026-01-10 14:45:31.07	52.93	73.85	-39.7	-40.9	20.8	0.00e+00	74	30	0	732954624	54	5693
2026-01-10 14:45:32.08	53.94	74.25	-38.1	-39.1	22.5	0.00e+00	0	30	0	735051776	50	5802
2026-01-10 14:45:33.09	55.00	74.66	-36.7	-37.6	23.4	0.00e+00	0	30	0	737148928	48	5446
2026-01-10 14:45:34.10	56.12	75.06	-36.9	-37.8	23.6	0.00e+00	0	30	0	739246080	46	6287
2026-01-10 14:45:35.11	57.31	75.45	-37.1	-38.0	23.2	0.00e+00	0	30	0	741343232	46	6419
2026-01-10 14:45:36.12	58.57	75.84	-37.9	-38.9	22.5	0.00e+00	92	30	0	743440384	48	6329
2026-01-10 14:45:37.13	59.90	76.22	-39.8	-41.1	20.7	0.00e+00	0	30	0	744488960	50	7309
2026-01-10 14:45:38.14	61.30	76.60	-38.6	-39.7	21.8	0.00e+00	92	30	0	746586112	52	5519
2026-01-10 14:45:39.15	62.79	76.97	-37.2	-38.1	23.2	0.00e+00	0	30	0	748683264	48	5819
2026-01-10 14:45:40.16	64.37	77.33	-37.6	-38.6	22.9	0.00e+00	0	30	0	750780416	48	6165
2026-01-10 14:45:41.17	66.04	77.68	-38.4	-39.4	22.2	0.00e+00	0	30	0	752877568	48	6727
2026-01-10 14:45:42.18	67.81	78.02	-37.4	-38.3	23.0	0.00e+00	0	30	0	753926144	48	5938
2026-01-10 14:45:43.19	69.68	78.36	-37.6	-38.5	22.7	0.00e+00	90	30	0	756023296	48	6081
2026-01-10 14:45:44.20	71.67	78.67	-39.3	-40.4	21.3	0.00e+00	0	30	0	758120448	50	6767
2026-01-10 14:45:45.21	73.77	78.98	-40.4	-41.7	20.3	0.00e+00	83	30	0	760217600	52	6991
2026-01-10 14:45:46.22	75.98	79.27	-40.3	-41.6	20.4	0.00e+00	0	30	0	762314752	52	6868
2026-01-10 14:45:47.23	78.32	79.55	-38.6	-39.7	22.2	0.00e+00	0	30	0	763363328	50	6237
2026-01-10 14:45:48.24	80.79	79.80	-39.1	-40.3	21.3	0.00e+00	0	30	0	765460480	50	6650
2026-01-10 14:45:49.25	83.38	80.04	-39.7	-41.2	20.8	0.00e+00	0	30	0	767557632	52	6573
2026-01-10 14:45:50.26	86.09	80.26	-40.2	-41.6	20.3	0.00e+00	8	30	0	769654784	52	6915
2026-01-10 14:45:51.26	88.90	80.45	-40.6	-42.0	20.0	0.00e+00	0	30	0	771751936	52	7240
2026-01-10 14:45:52.28	91.87	80.62	-40.6	-42.1	20.0	0.00e+00	73	30	0	772800512	54	6514
2026-01-10 14:45:53.29	94.92	80.77	-39.8	-41.0	20.8	0.00e+00	0	30	0	774897664	54	5728
2026-01-10 14:45:54.30	98.06	80.89	-38.5	-39.5	22.1	0.00e+00	88	30	0	776994816	50	6078
2026-01-10 14:45:55.31	101.27	80.98	-38.3	-39.3	22.3	0.00e+00	0	30	0	779091968	50	5926
2026-01-10 14:45:56.31	104.51	81.05	-38.9	-40.0	21.7	0.00e+00	0	30	0	781189120	50	6450
2026-01-10 14:45:57.32	107.81	81.08	-38.9	-40.1	21.9	0.00e+00	6	30	0	782237696	50	6471
2026-01-10 14:45:58.33	111.14	81.09	-38.7	-39.8	21.8	0.00e+00	0	30	0	784334848	50	6275
2026-01-10 14:45:59.34	114.45	81.06	-39.6	-40.9	20.9	0.00e+00	90	30	0	786432000	50	7090
2026-01-10 14:46:00.35	117.74	81.01	-40.9	-42.4	19.4	0.00e+00	0	30	0	788529152	54	6731
2026-01-10 14:46:01.36	120.98	80.93	-40.1	-41.5	20.4	0.00e+00	92	30	0	790626304	54	6057
2026-01-10 14:46:02.37	124.15	80.82	-41.7	-43.4	18.4	0.00e+00	0	30	0	791674880	54	7574
2026-01-10 14:46:03.38	127.23	80.69	-42.7	-44.9	17.6	0.00e+00	0	30	0	793772032	56	7989
2026-01-10 14:46:04.39	130.22	80.52	-41.5	-43.0	19.1	0.00e+00	0	30	0	795869184	56	6448
2026-01-10 14:46:05.40	133.10	80.34	-40.6	-41.9	20.1	0.00e+00	0	30	0	797966336	56	5667
2026-01-10 14:46:06.41	135.86	80.13	-41.3	-42.9	19.1	0.00e+00	0	30	0	800063488	54	7166
2026-01-10 14:46:07.42	138.50	79.90	-42.6	-44.7	17.4	0.00e+00	0	30	0	801112064	56	7804
2026-01-10 14:46:08.43	141.02	79.65	-41.0	-42.5	19.5	0.00e+00	61	30	0	803209216	56	6052
2026-01-10 14:46:09.44	143.41	79.38	-41.2	-42.7	19.5	0.00e+00	0	30	0	805306368	56	6185
2026-01-10 14:46:10.45	145.67	79.10	-39.4	-40.6	21.3	0.00e+00	0	30	0	807403520	52	6116
2026-01-10 14:46:11.46	147.82	78.79	-38.2	-39.2	22.3	0.00e+00	0	30	0	809500672	50	5895
2026-01-10 14:46:12.47	149.85	78.48	-37.9	-38.9	22.6	0.00e+00	0	30	0	811597824	50	5647
2026-01-10 14:46:13.48	151.77	78.15	-38.2	-39.2	22.4	0.00e+00	80	30	0	812646400	48	6588
2026-01-10 14:46:14.49	153.58	77.82	-38.4	-39.5	22.2	0.00e+00	0	30	0	814743552	48	6810
2026-01-10 14:46:15.50	155.29	77.47	-38.5	-39.6	22.0	0.00e+00	92	30	0	816840704	48	6872
2026-01-10 14:46:16.50	156.89	77.11	-37.5	-38.4	23.0	0.00e+00	0	30	0	818937856	48	6009
2026-01-10 14:46:17.51	158.41	76.75	-36.0	-36.8	24.2	0.00e+00	0	30	0	821035008	46	5602
2026-01-10 14:46:18.52	159.85	76.37	-36.7	-37.6	23.4	0.00e+00	0	30	0	822083584	44	6883
2026-01-10 14:46:19.53	161.21	75.99	-37.5	-38.4	23.0	0.00e+00	0	30	0	824180736	46	6741
2026-01-10 14:46:20.54	162.49	75.60	-37.6	-38.7	22.5	0.00e+00	4	30	0	826277888	46	6936
2026-01-10 14:46:21.55	163.71	75.21	-38.8	-40.0	21.6	0.00e+00	0	30	0	828375040	50	6421
2026-01-10 14:46:22.56	164.86	74.81	-38.8	-40.0	21.6	0.00e+00	92	30	0	830472192	50	6424
2026-01-10 14:46:23.57	165.95	74.41	-37.7	-38.7	22.7	0.00e+00	0	30	0	831520768	50	5559
2026-01-10 14:46:24.58	166.98	74.00	-37.5	-38.5	22.8	0.00e+00	24	30	0	833617920	48	6055
2026-01-10 14:46:25.59	167.95	73.60	-36.6	-37.5	23.7	0.00e+00	0	30	0	835715072	46	6074
2026-01-10 14:46:26.60	168.88	73.18	-36.4	-37.2	23.9	0.00e+00	0	30	0	837812224	46	5879
2026-01-10 14:46:27.61	169.77	72.77	-37.6	-38.5	22.7	0.00e+00	51	30	0	839909376	46	6826
2026-01-10 14:46:28.62	170.60	72.35	-38.7	-39.8	21.9	0.00e+00	0	30	0	840957952	50	6257
2026-01-10 14:46:29.63	171.40	71.94	-39.2	-40.3	21.2	0.00e+00	27	30	0	843055104	50	6675
2026-01-10 14:46:30.64	172.16	71.52	-41.7	-43.4	18.5	0.00e+00	0	30	0	845152256	54	7566
2026-01-10 14:46:31.65	172.89	71.09	-43.0	-45.2	17.3	0.00e+00	90	30	0	847249408	58	7345
2026-01-10 14:46:32.66	173.58	70.67	-42.0	-43.8	18.7	0.00e+00	0	30	0	849346560	58	6283
2026-01-10 14:46:33.67	174.24	70.25	-40.1	-41.4	20.5	0.00e+00	0	30	0	850395136	54	5976
2026-01-10 14:46:34.67	174.86	69.83	-41.1	-42.6	19.0	0.00e+00	0	30	0	852492288	54	6886
2026-01-10 14:46:35.68	175.47	69.41	-43.0	-45.2	16.7	0.00e+00	0	30	0	854589440	58	7420
2026-01-10 14:46:36.69	176.04	68.98	-43.1	-45.3	17.3	0.00e+00	7	30	0	856686592	58	7437
2026-01-10 14:46:37.70	176.60	68.56	-42.1	-44.0	18.4	0.00e+00	0	30	0	858783744	58	6422
2026-01-10 14:46:38.71	177.13	68.14	-39.9	-41.1	20.8	0.00e+00	90	30	0	859832320	54	5784
2026-01-10 14:46:39.72	177.64	67.71	-38.7	-39.7	21.9	0.00e+00	0	30	0	861929472	52	5514
2026-01-10 14:46:40.73	178.12	67.29	-37.9	-38.9	22.3	0.00e+00	0	30	0	864026624	50	5631
2026-01-10 14:46:41.74	178.59	66.87	-39.6	-40.8	21.4	0.00e+00	0	30	0	866123776	50	7049
2026-01-10 14:46:42.75	179.04	66.45	-40.2	-41.5	20.4	0.00e+00	0	30	0	868220928	52	6805
2026-01-10 14:46:43.76	179.48	66.03	-39.3	-40.4	21.4	0.00e+00	6	30	0	869269504	52	5967
2026-01-10 14:46:44.77	179.89	65.61	-37.7	-38.6	22.8	0.00e+00	0	30	0	871366656	50	5493
2026-01-10 14:46:45.78	180.30	65.19	-39.5	-40.8	20.9	0.00e+00	73	30	0	873463808	50	7071
2026-01-10 14:46:46.79	180.68	64.78	-41.7	-43.6	18.2	0.00e+00	0	30	0	875560960	54	7703
2026-01-10 14:46:47.80	181.06	64.36	-40.1	-41.6	20.3	0.00e+00	0	30	0	877658112	54	6129
2026-01-10 14:46:48.81	181.42	63.95	-37.1	-38.1	23.3	0.00e+00	0	30	0	879755264	48	5791
2026-01-10 14:46:49.82	181.77	63.54	-37.0	-37.9	23.1	0.00e+00	0	30	0	880803840	46	6387
2026-01-10 14:46:50.83	182.10	63.13	-36.8	-37.7	23.4	0.00e+00	8	30	0	882900992	46	6191
2026-01-10 14:46:51.84	182.43	62.72	-36.5	-37.4	23.8	0.00e+00	0	30	0	884998144	46	5991
2026-01-10 14:46:52.85	182.74	62.31	-37.0	-38.0	23.1	0.00e+00	92	30	0	887095296	46	6415
2026-01-10 14:46:53.85	183.04	61.91	-37.3	-38.3	23.3	0.00e+00	0	30	0	888143872	46	6668
2026-01-10 14:46:54.86	183.34	61.50	-35.5	-36.4	24.5	0.00e+00	0	30	0	890241024	46	5324
2026-01-10 14:46:55.87	183.62	61.10	-34.6	-35.4	25.1	0.00e+00	0	30	0	892338176	42	5976
2026-01-10 14:46:56.88	183.90	60.70	-35.5	-36.3	24.6	0.00e+00	0	30	0	894435328	42	6650
2026-01-10 14:46:57.89	184.16	60.30	-35.6	-36.4	24.4	0.00e+00	9	30	0	896532480	44	6015
2026-01-10 14:46:58.90	184.42	59.90	-36.4	-37.3	23.8	0.00e+00	0	30	0	897581056	44	6634
2026-01-10 14:46:59.91	184.68	59.51	-37.1	-38.1	23.2	0.00e+00	90	30	0	899678208	46	6505
2026-01-10 14:47:00.92	184.92	59.12	-36.9	-37.8	23.4	0.00e+00	0	30	0	901775360	46	6316
2026-01-10 14:47:01.93	185.16	58.73	-37.1	-38.1	23.2	0.00e+00	57	30	0	903872512	46	6511
2026-01-10 14:47:02.94	185.39	58.34	-37.8	-38.8	22.6	0.00e+00	0	30	0	905969664	48	6297
2026-01-10 14:47:03.95	185.61	57.95	-37.4	-38.5	23.1	0.00e+00	0	30	0	908066816	48	6047
2026-01-10 14:47:04.96	185.83	57.57	-36.1	-36.9	24.1	0.00e+00	0	30	0	909115392	46	5694
2026-01-10 14:47:05.97	186.04	57.19	-35.7	-36.5	24.2	0.00e+00	0	30	0	911212544	44	6090
2026-01-10 14:47:06.98	186.25	56.81	-36.3	-37.2	23.9	0.00e+00	89	30	0	913309696	44	6570
2026-01-10 14:47:07.98	186.45	56.43	-36.3	-37.2	23.7	0.00e+00	0	30	0	915406848	44	6603
2026-01-10 14:47:09.00	186.65	56.05	-36.5	-37.4	23.7	0.00e+00	89	30	0	917504000	44	6768
2026-01-10 14:47:10.01	186.84	55.68	-36.5	-37.4	23.8	0.00e+00	0	30	0	918552576	44	6708
2026-01-10 14:47:11.02	187.02	55.31	-37.8	-38.8	22.6	0.00e+00	0	30	0	920649728	48	6303
2026-01-10 14:47:12.02	187.20	54.95	-37.5	-38.5	23.0	0.00e+00	0	30	0	922746880	48	6093
2026-01-10 14:47:13.03	187.38	54.58	-36.7	-37.6	23.7	0.00e+00	0	30	0	924844032	46	6170
2026-01-10 14:47:14.04	187.55	54.22	-36.2	-37.1	23.8	0.00e+00	70	30	0	926941184	46	5808
2026-01-10 14:47:15.05	187.72	53.85	-37.9	-39.0	22.6	0.00e+00	0	30	0	927989760	46	7202
2026-01-10 14:47:16.06	187.88	53.49	-40.0	-41.4	20.3	0.00e+00	69	30	0	930086912	52	6736
2026-01-10 14:47:17.07	188.04	53.14	-40.3	-41.8	20.0	0.00e+00	5	30	0	932184064	54	6304
2026-01-10 14:47:18.08	188.20	52.78	-39.3	-40.6	21.3	0.00e+00	0	30	0	934281216	52	6110
2026-01-10 14:47:19.09	188.35	52.43	-37.4	-38.3	23.1	0.00e+00	0	30	0	936378368	48	5945
2026-01-10 14:47:20.10	188.50	52.08	-37.1	-38.0	23.3	0.00e+00	5	30	0	937426944	48	5753
2026-01-10 14:47:21.11	188.64	51.73	-37.3	-38.2	23.0	0.00e+00	4	30	0	939524096	48	5874
2026-01-10 14:47:22.12	188.79	51.39	-37.7	-38.7	22.6	0.00e+00	0	30	0	941621248	48	6228
2026-01-10 14:47:23.13	188.93	51.04	-38.5	-39.6	22.1	0.00e+00	92	30	0	943718400	48	6877
2026-01-10 14:47:24.14	189.06	50.70	-38.9	-40.1	21.7	0.00e+00	0	30	0	945815552	50	6469
2026-01-10 14:47:25.15	189.20	50.36	-38.3	-39.4	22.3	0.00e+00	35	30	0	946864128	50	6014
2026-01-10 14:47:26.16	189.33	50.03	-37.4	-38.4	23.2	0.00e+00	0	30	0	948961280	48	5992
2026-01-10 14:47:27.17	189.45	49.69	-36.7	-37.6	23.5	0.00e+00	0	30	0	951058432	46	6169
2026-01-10 14:47:28.18	189.58	49.36	-36.5	-37.4	23.8	0.00e+00	7	30	0	953155584	46	6012
2026-01-10 14:47:29.19	189.70	49.03	-37.2	-38.2	23.3	0.00e+00	0	30	0	955252736	46	6553
2026-01-10 14:47:30.20	189.82	48.71	-38.2	-39.3	22.4	0.00e+00	92	30	0	956301312	48	6617
2026-01-10 14:47:31.21	189.94	48.38	-39.5	-40.8	21.0	0.00e+00	0	30	0	958398464	50	7028
2026-01-10 14:47:32.21	190.05	48.06	-42.1	-44.2	17.9	0.00e+00	0	30	0	960495616	54	8260
2026-01-10 14:47:33.22	190.17	47.74	-44.8	-49.4	12.6	0.00e+00	0	30	0	962592768	60	10704
2026-01-10 14:47:34.23	190.28	47.43	-44.0	-47.5	14.7	1.02e-04	0	30	0	964689920	60	8586
2026-01-10 14:47:35.24	190.38	47.11	-42.1	-44.1	18.2	0.00e+00	6	30	0	965738496	58	6535
2026-01-10 14:47:36.25	190.49	46.80	-39.6	-40.9	21.4	0.00e+00	0	30	0	967835648	54	5641
2026-01-10 14:47:37.27	190.60	46.48	-38.3	-39.3	22.4	0.00e+00	92	30	0	969932800	50	5928
2026-01-10 14:47:38.27	190.70	46.18	-38.0	-39.0	22.5	0.00e+00	0	30	0	972029952	50	5743
2026-01-10 14:47:39.28	190.80	45.87	-37.8	-38.8	22.6	0.00e+00	92	30	0	974127104	48	6312
2026-01-10 14:47:40.29	190.90	45.57	-38.8	-40.0	21.6	0.00e+00	0	30	0	976224256	50	6400
2026-01-10 14:47:41.30	190.99	45.26	-39.8	-41.2	20.4	0.00e+00	0	30	0	977272832	52	6565
2026-01-10 14:47:42.31	191.09	44.96	-40.2	-41.7	20.3	0.00e+00	6	30	0	979369984	52	6948
2026-01-10 14:47:43.32	191.18	44.67	-39.5	-40.8	21.2	0.00e+00	0	30	0	981467136	52	6259
2026-01-10 14:47:44.33	191.27	44.37	-39.0	-40.2	21.8	0.00e+00	4	30	0	983564288	52	5858
2026-01-10 14:47:45.34	191.36	44.08	-37.5	-38.5	22.9	0.00e+00	0	30	0	985661440	48	6067
2026-01-10 14:47:46.35	191.45	43.78	-37.4	-38.4	23.0	0.00e+00	91	30	0	986710016	48	6001
2026-01-10 14:47:47.36	191.54	43.50	-36.0	-36.9	24.1	0.00e+00	0	30	0	988807168	46	5661
2026-01-10 14:47:48.37	191.63	43.21	-35.6	-36.4	24.5	0.00e+00	0	30	0	990904320	46	5363
2026-01-10 14:47:49.38	191.71	42.92	-35.6	-36.4	24.5	0.00e+00	0	30	0	993001472	44	6028
2026-01-10 14:47:50.39	191.79	42.64	-36.3	-37.2	23.9	0.00e+00	0	30	0	995098624	44	6542
2026-01-10 14:47:51.40	191.87	42.36	-37.1	-38.1	23.1	0.00e+00	0	30	0	996147200	46	6523
2026-01-10 14:47:52.41	191.95	42.08	-37.5	-38.6	22.8	0.00e+00	0	30	0	998244352	46	6870
2026-01-10 14:47:53.42	192.03	41.80	-38.0	-39.1	22.3	0.00e+00	92	30	0	1000341504	48	6529
2026-01-10 14:47:54.43	192.11	41.53	-38.7	-39.9	21.7	0.00e+00	0	30	0	1002438656	48	7145
2026-01-10 14:47:55.43	192.19	41.26	-39.1	-40.3	21.5	0.00e+00	0	30	0	1004535808	50	6692
2026-01-10 14:47:56.44	192.26	40.99	-38.7	-39.9	21.8	0.00e+00	0	30	0	1005584384	50	6351
2026-01-10 14:47:57.45	192.33	40.72	-38.4	-39.6	22.1	0.00e+00	0	30	0	1007681536	50	6132
2026-01-10 14:47:58.46	192.41	40.45	-37.2	-38.2	23.1	0.00e+00	0	30	0	1009778688	48	5839
2026-01-10 14:47:59.47	192.48	40.19	-36.7	-37.6	23.5	0.00e+00	0	30	0	1011875840	48	5468
2026-01-10 14:48:00.48	192.55	39.92	-36.1	-36.9	24.1	0.00e+00	92	30	0	1013972992	46	5690
2026-01-10 14:48:01.49	192.62	39.66	-35.6	-36.4	24.5	0.00e+00	0	30	0	1015021568	46	5351
2026-01-10 14:48:02.50	192.69	39.40	-36.1	-36.9	24.2	0.00e+00	27	30	0	1017118720	44	6368
2026-01-10 14:48:03.51	192.75	39.14	-36.6	-37.4	22.3	0.00e+00	0	30	0	1019215872	44	6751
2026-01-10 14:48:04.52	192.82	38.89	-37.9	-38.9	22.4	0.00e+00	3	30	0	1021313024	46	7140
2026-01-10 14:48:05.53	192.89	38.63	-38.6	-39.7	21.7	0.00e+00	0	30	0	1023410176	48	6953
2026-01-10 14:48:06.54	192.95	38.38	-40.9	-42.5	19.2	0.00e+00	0	30	0	1024458752	54	6819
2026-01-10 14:48:07.55	193.01	38.13	-42.6	-44.8	17.1	0.00e+00	78	30	0	1026555904	58	7025
2026-01-10 14:48:08.56	193.08	37.88	-44.3	-47.9	14.3	0.00e+00	0	30	0	1028653056	60	8957
2026-01-10 14:48:09.57	193.14	37.64	-45.0	-49.5	12.7	9.10e-06	67	30	0	1030750208	60	10787
2026-01-10 14:48:10.57	193.20	37.40	-44.4	-48.0	14.5	5.30e-06	0	30	0	1032847360	60	9091
2026-01-10 14:48:11.58	193.26	37.15	-42.9	-45.3	17.0	0.00e+00	0	30	0	1033895936	60	6658
2026-01-10 14:48:12.59	193.32	36.91	-40.9	-42.5	19.6	0.00e+00	7	30	0	1035993088	56	6041
2026-01-10 14:48:13.60	193.38	36.67	-39.0	-40.2	21.6	0.00e+00	0	30	0	1038090240	52	5888
2026-01-10 14:48:14.61	193.43	36.43	-37.5	-38.5	22.8	0.00e+00	76	30	0	1040187392	48	6086
2026-01-10 14:48:15.62	193.49	36.20	-37.3	-38.3	23.1	0.00e+00	0	30	0	1042284544	48	5923
2026-01-10 14:48:16.63	193.55	35.96	-37.3	-38.3	23.0	0.00e+00	92	29	0	1044381696	48	5912
2026-01-10 14:48:17.64	193.60	35.73	-37.9	-38.9	22.7	0.00e+00	0	29	0	1045430272	48	6356
2026-01-10 14:48:18.65	193.66	35.50	-38.8	-40.0	21.6	0.00e+00	0	29	0	1047527424	48	7197
2026-01-10 14:48:19.66	193.71	35.27	-40.1	-41.4	20.5	0.00e+00	3	29	0	1049624576	52	6763
2026-01-10 14:48:20.67	193.76	35.04	-40.7	-42.2	19.6	0.00e+00	0	29	0	1051721728	52	7390
2026-01-10 14:48:21.68	193.82	34.82	-40.9	-42.6	19.3	0.00e+00	54	30	0	1053818880	54	6865
2026-01-10 14:48:22.69	193.87	34.59	-42.4	-44.6	17.5	0.00e+00	0	30	0	1054867456	56	7698
2026-01-10 14:48:23.70	193.92	34.37	-42.7	-45.0	17.2	0.00e+00	92	30	0	1056964608	58	7197
2026-01-10 14:48:24.71	193.97	34.15	-44.6	-48.3	13.9	0.00e+00	0	30	0	1059061760	60	9423
2026-01-10 14:48:25.72	194.02	33.93	-45.3	-49.7	12.4	3.50e-05	0	30	0	1061158912	60	11062
2026-01-10 14:48:26.73	194.07	33.71	-45.1	-49.5	12.5	3.23e-04	0	30	0	1063256064	60	10730
2026-01-10 14:48:27.74	194.12	33.49	-45.7	-50.9	10.7	5.37e-03	0	30	0	1064304640	60	12728
2026-01-10 14:48:28.74	194.17	33.28	-45.9	-51.5	10.2	4.87e-03	3	29	0	1066401792	60	13571
2026-01-10 14:48:29.75	194.21	33.07	-45.2	-49.7	11.7	2.07e-04	0	30	0	1068498944	60	11022
2026-01-10 14:48:30.76	194.26	32.85	-44.4	-47.8	14.4	3.00e-06	85	30	0	1070596096	60	8916
2026-01-10 14:48:31.77	194.31	32.64	-43.6	-46.3	16.0	0.00e+00	0	30	0	1072693248	60	7507
2026-01-10 14:48:32.78	194.35	32.43	-42.1	-44.0	18.2	0.00e+00	0	30	0	1073741824	58	6392
2026-01-10 14:48:33.79	194.40	32.22	-40.9	-42.5	19.7	0.00e+00	0	29	0	1075838976	56	6039
2026-01-10 14:48:34.80	194.44	32.02	-40.4	-41.8	20.1	0.00e+00	0	30	0	1077936128	54	6281
2026-01-10 14:48:35.81	194.49	31.81	-40.3	-41.6	20.4	0.00e+00	5	29	0	1080033280	54	6151
2026-01-10 14:48:36.81	194.53	31.61	-39.6	-40.9	20.8	0.00e+00	0	29	0	1082130432	52	6355
2026-01-10 14:48:37.83	194.57	31.41	-39.3	-40.5	21.4	0.00e+00	90	29	0	1083179008	52	6064
2026-01-10 14:48:38.84	194.62	31.21	-39.4	-40.6	21.0	0.00e+00	0	30	0	1085276160	52	6140
2026-01-10 14:48:39.85	194.66	31.01	-40.0	-41.3	20.7	0.00e+00	58	29	0	1087373312	52	6628
2026-01-10 14:48:40.86	194.70	30.81	-40.1	-41.5	20.3	0.00e+00	0	29	0	1089470464	52	6799
2026-01-10 14:48:41.87	194.74	30.61	-40.6	-42.1	19.9	0.00e+00	0	29	0	1091567616	52	7296
2026-01-10 14:48:42.88	194.78	30.41	-41.2	-42.9	19.1	0.00e+00	3	29	0	1092616192	54	7098
2026-01-10 14:48:43.89	194.82	30.22	-40.8	-42.4	19.7	0.00e+00	0	29	0	1094713344	54	6699
2026-01-10 14:48:44.90	194.86	30.03	-40.3	-41.8	20.0	0.00e+00	74	29	0	1096810496	54	6256
2026-01-10 14:48:45.91	194.90	29.84	-40.3	-41.7	20.0	0.00e+00	0	29	0	1098907648	54	6243
2026-01-10 14:48:46.92	194.94	29.64	-40.0	-41.4	20.4	0.00e+00	12	29	0	1101004800	54	5994
2026-01-10 14:48:47.93	194.98	29.46	-39.7	-41.0	20.8	0.00e+00	0	29	0	1102053376	52	6419
2026-01-10 14:48:48.94	195.02	29.27	-39.3	-40.6	21.3	0.00e+00	0	29	0	1104150528	52	6116
2026-01-10 14:48:49.95	195.06	29.08	-38.9	-40.0	21.7	0.00e+00	5	29	0	1106247680	52	5752
2026-01-10 14:48:50.96	195.10	28.90	-38.5	-39.6	21.9	0.00e+00	0	29	0	1108344832	50	6132
2026-01-10 14:48:51.97	195.13	28.71	-38.6	-39.7	21.8	0.00e+00	92	29	0	1110441984	50	6235
2026-01-10 14:48:52.98	195.17	28.53	-38.4	-39.4	22.1	0.00e+00	0	29	0	1112539136	50	6017
2026-01-10 14:48:53.99	195.21	28.35	-38.6	-39.7	22.0	0.00e+00	92	29	0	1113587712	50	6204
2026-01-10 14:48:55.00	195.24	28.16	-38.5	-39.5	22.0	0.00e+00	0	29	0	1115684864	50	6096
2026-01-10 14:48:56.01	195.28	27.99	-38.2	-39.2	22.4	0.00e+00	0	29	0	1117782016	50	5842
2026-01-10 14:48:57.02	195.31	27.81	-38.1	-39.1	22.4	0.00e+00	17	29	0	1119879168	50	5810
2026-01-10 14:48:58.03	195.35	27.63	-37.6	-38.6	22.8	0.00e+00	0	29	0	1121976320	48	6143
2026-01-10 14:48:59.04	195.38	27.45	-37.2	-38.1	23.2	0.00e+00	0	29	0	1123024896	48	5792
2026-01-10 14:49:00.05	195.42	27.28	-37.0	-37.9	23.3	0.00e+00	0	29	0	1125122048	48	5652
2026-01-10 14:49:01.06	195.45	27.10	-36.7	-37.6	23.6	0.00e+00	92	29	0	1127219200	46	6115
2026-01-10 14:49:02.07	195.48	26.93	-36.5	-37.4	23.8	0.00e+00	0	29	0	1129316352	46	5980
2026-01-10 14:49:03.08	195.52	26.76	-36.4	-37.2	23.9	0.00e+00	0	29	0	1131413504	46	5882
2026-01-10 14:49:04.09	195.55	26.59	-36.3	-37.1	23.9	0.00e+00	0	29	0	1132462080	46	5816
2026-01-10 14:49:05.10	195.58	26.42	-36.1	-37.0	24.1	0.00e+00	0	29	0	1134559232	46	5733
2026-01-10 14:49:06.11	195.62	26.25	-36.1	-37.0	23.9	0.00e+00	92	29	0	1136656384	46	5719
2026-01-10 14:49:07.12	195.65	26.08	-35.9	-36.8	24.1	0.00e+00	32	29	0	1138753536	46	5588
2026-01-10 14:49:08.13	195.68	25.92	-36.1	-37.0	24.0	0.00e+00	92	29	0	1140850688	46	5732
2026-01-10 14:49:09.14	195.71	25.75	-36.1	-37.0	24.1	0.00e+00	0	29	0	1141899264	46	5727
2026-01-10 14:49:10.15	195.74	25.59	-36.2	-37.1	24.1	0.00e+00	10	29	0	1143996416	46	5822
2026-01-10 14:49:11.16	195.77	25.42	-36.2	-37.1	24.0	0.00e+00	0	29	0	1146093568	46	5779
2026-01-10 14:49:12.17	195.80	25.26	-36.2	-37.1	23.9	0.00e+00	0	29	0	1148190720	46	5766
2026-01-10 14:49:13.18	195.83	25.10	-36.3	-37.2	23.8	0.00e+00	2	29	0	1150287872	46	5844
2026-01-10 14:49:14.19	195.86	24.94	-36.3	-37.2	23.8	0.00e+00	27	29	0	1151336448	46	5877
2026-01-10 14:49:15.20	195.89	24.78	-36.6	-37.5	23.6	0.00e+00	92	29	0	1153433600	46	6061
2026-01-10 14:49:16.21	195.92	24.62	-36.8	-37.7	23.4	0.00e+00	0	29	0	1155530752	46	6213
2026-01-10 14:49:17.22	195.95	24.46	-36.7	-37.7	23.5	0.00e+00	0	29	0	1157627904	46	6178
2026-01-10 14:49:18.23	195.98	24.31	-36.7	-37.6	23.6	0.00e+00	0	29	0	1159725056	46	6150
2026-01-10 14:49:19.24	196.01	24.15	-36.6	-37.5	23.7	0.00e+00	0	29	0	1160773632	46	6045
2026-01-10 14:49:20.25	196.04	23.99	-36.4	-37.3	23.8	0.00e+00	2	29	0	1162870784	46	5930
2026-01-10 14:49:21.26	196.07	23.84	-35.9	-36.8	24.1	0.00e+00	0	29	0	1164967936	46	5587
2026-01-10 14:49:22.27	196.10	23.69	-35.7	-36.6	24.2	0.00e+00	91	29	0	1167065088	44	6124
2026-01-10 14:49:23.28	196.12	23.54	-35.8	-36.6	24.2	0.00e+00	0	29	0	1169162240	44	6156
2026-01-10 14:49:24.29	196.15	23.38	-35.9	-36.7	24.2	0.00e+00	92	29	0	1170210816	44	6217
2026-01-10 14:49:25.29	196.18	23.24	-35.4	-36.2	24.4	0.00e+00	0	29	0	1172307968	44	5883
2026-01-10 14:49:26.30	196.20	23.09	-35.2	-36.0	24.7	0.00e+00	0	29	0	1174405120	44	5724
2026-01-10 14:49:27.31	196.23	22.94	-34.9	-35.7	24.8	0.00e+00	2	29	0	1176502272	44	5550
2026-01-10 14:49:28.33	196.26	22.79	-35.1	-35.9	24.7	0.00e+00	0	29	0	1178599424	44	5685
2026-01-10 14:49:29.34	196.28	22.64	-34.9	-35.7	24.7	0.00e+00	29	29	0	1179648000	44	5532
2026-01-10 14:49:30.34	196.31	22.50	-35.1	-35.9	24.7	0.00e+00	0	29	0	1181745152	44	5664
2026-01-10 14:49:31.35	196.34	22.35	-35.1	-35.9	24.6	0.00e+00	92	29	0	1183842304	44	5674
2026-01-10 14:49:32.37	196.36	22.20	-35.2	-36.0	24.8	0.00e+00	0	29	0	1185939456	44	5722
2026-01-10 14:49:33.37	196.39	22.06	-35.4	-36.2	24.6	0.00e+00	0	29	0	1188036608	44	5847
2026-01-10 14:49:34.38	196.41	21.92	-35.6	-36.4	24.3	0.00e+00	0	29	0	1190133760	44	6015
2026-01-10 14:49:35.39	196.44	21.78	-35.8	-36.7	24.3	0.00e+00	0	29	0	1191182336	44	6191
2026-01-10 14:49:36.40	196.46	21.64	-35.7	-36.5	24.4	0.00e+00	11	29	0	1193279488	44	6066
2026-01-10 14:49:37.41	196.49	21.50	-35.8	-36.7	24.2	0.00e+00	0	29	0	1195376640	44	6208
2026-01-10 14:49:38.42	196.51	21.36	-35.7	-36.6	24.2	0.00e+00	87	29	0	1197473792	44	6133
2026-01-10 14:49:39.43	196.54	21.22	-35.9	-36.7	24.2	0.00e+00	0	29	0	1199570944	44	6244
2026-01-10 14:49:40.44	196.56	21.08	-36.2	-37.1	24.0	0.00e+00	0	29	0	1200619520	44	6485
2026-01-10 14:49:41.45	196.59	20.94	-36.1	-37.0	23.9	0.00e+00	0	29	0	1202716672	44	6451
2026-01-10 14:49:42.46	196.61	20.80	-36.2	-37.1	23.8	0.00e+00	0	29	0	1204813824	44	6497
2026-01-10 14:49:43.47	196.63	20.67	-36.3	-37.2	23.7	0.00e+00	81	29	0	1206910976	44	6605
2026-01-10 14:49:44.48	196.66	20.53	-36.5	-37.4	23.6	0.00e+00	0	29	0	1209008128	44	6707
2026-01-10 14:49:45.49	196.68	20.40	-36.6	-37.5	23.5	0.00e+00	90	29	0	1210056704	44	6808
2026-01-10 14:49:46.49	196.70	20.27	-36.6	-37.5	23.5	0.00e+00	0	29	0	1212153856	46	6073
2026-01-10 14:49:47.50	196.73	20.13	-37.0	-37.9	23.2	0.00e+00	0	29	0	1214251008	46	6372
2026-01-10 14:49:48.51	196.75	20.00	-36.6	-37.5	23.5	0.00e+00	0	29	0	1216348160	46	6069
