passes_logs/2026/01/10/R4.6S_Anadyr/R4.6S_Anadyr__20260110_023435_SUOMI_NPP_rec.log

#Pass ID: 20260110_023435_SUOMI NPP
#Satellite: SUOMI NPP
#Configuration: NPP
#almurnet v.1.7.20251203
#Start time: 2026-01-10 02:34:38

#Version: 2.2.20231116
#Station: R4.6S_Anadyr
#Location: 177.4865 lon 64.73178 lat
#TLE: 1 37849U 11061A   26008.05542337  .00000108  00000+0  71976-4 0  9997
#TLE: 2 37849  98.7805 310.1641 0002540  75.6410 284.5048 14.19523335735721

#Time	Az	El	Level	Level2	SNR	BER	BlckErr	Temp	State	Recorded	gain1	gain2
2026-01-10 02:34:38.24	216.30	0.13	-48.2	-66.0	3.5	3.02e+01	0	23	0	0	60	76384
2026-01-10 02:34:39.25	216.37	0.18	-48.0	-63.4	3.6	1.51e+00	0	24	104	0	60	53361
2026-01-10 02:34:40.25	216.44	0.23	-48.1	-63.3	3.6	1.51e+00	0	24	104	0	60	52768
2026-01-10 02:34:41.26	216.51	0.28	-48.0	-63.2	3.6	1.51e+00	0	24	104	0	60	52388
2026-01-10 02:34:42.27	216.59	0.33	-48.0	-63.3	3.6	1.51e+00	0	24	104	0	60	52806
2026-01-10 02:34:43.28	216.66	0.38	-48.1	-63.3	3.6	1.51e+00	0	24	104	0	60	53054
2026-01-10 02:34:44.29	216.73	0.43	-48.1	-63.3	3.6	1.51e+00	0	24	104	0	60	52567
2026-01-10 02:34:45.30	216.81	0.48	-48.1	-63.3	3.6	1.51e+00	0	24	104	0	60	52641
2026-01-10 02:34:46.31	216.88	0.53	-48.1	-63.3	3.6	1.51e+00	0	24	104	0	60	52719
2026-01-10 02:34:47.32	216.95	0.58	-48.0	-63.2	3.6	1.51e+00	0	24	104	0	60	52169
2026-01-10 02:34:48.33	217.03	0.63	-47.9	-63.2	3.6	1.51e+00	0	24	104	0	60	52352
2026-01-10 02:34:49.34	217.10	0.69	-47.7	-63.1	3.6	1.51e+00	0	24	104	0	60	51521
2026-01-10 02:34:50.35	217.18	0.74	-47.8	-63.1	3.6	1.51e+00	0	24	104	0	60	51629
2026-01-10 02:34:51.36	217.25	0.79	-47.7	-63.0	3.6	1.51e+00	0	24	104	0	60	51027
2026-01-10 02:34:52.37	217.33	0.84	-47.5	-62.7	3.6	1.51e+00	0	24	104	0	60	49490
2026-01-10 02:34:53.38	217.40	0.89	-47.3	-62.4	3.6	1.51e+00	0	24	104	0	60	47767
2026-01-10 02:34:54.39	217.48	0.94	-46.5	-61.5	3.6	1.51e+00	0	24	104	0	60	42756
2026-01-10 02:34:55.40	217.56	0.99	-46.3	-61.5	3.6	1.51e+00	0	24	104	0	60	42720
2026-01-10 02:34:56.41	217.63	1.05	-46.3	-61.4	3.6	1.51e+00	0	24	104	0	60	42306
2026-01-10 02:34:57.42	217.71	1.10	-46.3	-61.4	3.6	1.51e+00	0	24	104	0	60	42417
2026-01-10 02:34:58.43	217.79	1.15	-46.3	-61.3	3.6	1.51e+00	0	24	104	0	60	42064
2026-01-10 02:34:59.44	217.86	1.20	-46.3	-61.4	3.6	1.51e+00	0	24	104	0	60	42259
2026-01-10 02:35:00.45	217.94	1.25	-46.3	-61.4	3.6	1.51e+00	0	24	104	0	60	42333
2026-01-10 02:35:01.46	218.02	1.30	-46.3	-61.3	3.6	1.51e+00	0	24	104	0	60	41898
2026-01-10 02:35:02.47	218.10	1.36	-46.2	-61.4	3.6	1.51e+00	0	24	104	0	60	42227
2026-01-10 02:35:03.48	218.18	1.41	-46.3	-61.4	3.6	1.51e+00	0	24	104	0	60	42272
2026-01-10 02:35:04.49	218.25	1.46	-46.2	-61.3	3.6	1.51e+00	0	24	104	0	60	42201
2026-01-10 02:35:05.50	218.33	1.51	-46.2	-61.3	3.6	1.51e+00	0	24	104	0	60	42100
2026-01-10 02:35:06.51	218.41	1.56	-46.2	-61.4	3.6	1.51e+00	0	24	104	0	60	42232
2026-01-10 02:35:07.52	218.49	1.62	-46.3	-61.4	3.6	1.51e+00	0	24	104	0	60	42611
2026-01-10 02:35:08.53	218.57	1.67	-46.3	-61.4	3.6	1.51e+00	0	24	104	0	60	42529
2026-01-10 02:35:09.54	218.65	1.72	-46.3	-61.4	3.6	1.51e+00	0	24	104	0	60	42491
2026-01-10 02:35:10.55	218.73	1.77	-46.3	-61.4	3.6	1.51e+00	0	24	104	0	60	42375
2026-01-10 02:35:11.56	218.81	1.83	-46.2	-61.4	3.6	1.51e+00	0	24	104	0	60	42516
2026-01-10 02:35:12.57	218.89	1.88	-46.2	-61.3	3.6	1.51e+00	0	24	104	0	60	42074
2026-01-10 02:35:13.58	218.97	1.93	-46.2	-61.2	3.6	1.51e+00	0	24	104	0	60	41628
2026-01-10 02:35:14.59	219.05	1.98	-46.2	-61.2	3.6	1.51e+00	0	24	104	0	60	41506
2026-01-10 02:35:15.60	219.14	2.04	-46.2	-61.2	3.6	1.51e+00	0	24	104	0	60	41613
2026-01-10 02:35:16.61	219.22	2.09	-46.2	-61.3	3.6	1.51e+00	0	25	104	0	60	41924
2026-01-10 02:35:17.62	219.30	2.14	-46.2	-61.4	3.6	1.51e+00	0	25	104	0	60	42611
2026-01-10 02:35:18.63	219.38	2.19	-46.3	-61.4	3.6	1.51e+00	0	25	104	0	60	42495
2026-01-10 02:35:19.64	219.46	2.25	-46.2	-61.4	3.6	1.51e+00	0	25	104	0	60	42336
2026-01-10 02:35:20.65	219.55	2.30	-46.3	-61.3	3.6	1.51e+00	0	25	104	0	60	42217
2026-01-10 02:35:21.66	219.63	2.35	-46.3	-61.3	3.6	1.51e+00	0	25	104	0	60	42073
2026-01-10 02:35:22.67	219.71	2.41	-46.2	-60.7	3.6	1.51e+00	0	25	104	0	60	39216
2026-01-10 02:35:23.68	219.80	2.46	-46.2	-60.4	3.6	1.51e+00	0	25	104	0	60	37869
2026-01-10 02:35:24.69	219.88	2.51	-46.2	-60.1	3.6	1.51e+00	0	25	104	0	60	36537
2026-01-10 02:35:25.70	219.97	2.56	-46.2	-59.9	3.6	1.51e+00	0	25	104	0	60	35718
2026-01-10 02:35:26.71	220.05	2.62	-46.2	-60.3	3.6	1.51e+00	0	25	104	0	60	37579
2026-01-10 02:35:27.72	220.14	2.67	-46.2	-58.8	3.7	1.51e+00	0	25	104	0	60	31523
2026-01-10 02:35:28.73	220.22	2.72	-45.6	-53.9	6.3	7.76e-01	0	25	0	0	60	17975
2026-01-10 02:35:29.74	220.31	2.78	-45.0	-50.6	9.3	1.04e-01	0	25	0	1048576	60	12292
2026-01-10 02:35:30.75	220.39	2.83	-44.1	-48.2	12.1	1.74e-03	0	25	0	3145728	60	9252
2026-01-10 02:35:31.75	220.48	2.88	-42.7	-45.6	14.6	1.50e-06	0	25	0	5242880	60	6888
2026-01-10 02:35:32.76	220.56	2.94	-42.2	-44.7	15.5	0.00e+00	0	25	0	7340032	58	6950
2026-01-10 02:35:33.77	220.65	2.99	-41.9	-44.3	15.9	0.00e+00	0	25	0	9437184	58	6670
2026-01-10 02:35:34.78	220.74	3.04	-41.7	-44.0	16.1	0.00e+00	0	25	0	10485760	56	7175
2026-01-10 02:35:35.79	220.82	3.10	-42.5	-45.2	14.8	0.00e+00	0	25	0	12582912	56	8315
2026-01-10 02:35:36.77	220.91	3.15	-46.6	-60.8	3.6	6.00e-01	0	25	104	14680064	60	39420
2026-01-10 02:35:37.79	221.00	3.20	-42.8	-45.6	5.9	1.50e+00	0	25	104	14680064	60	6896
2026-01-10 02:35:38.80	221.09	3.26	-45.6	-53.4	5.3	0.00e+00	0	25	0	14680064	60	16878
2026-01-10 02:35:39.81	221.17	3.31	-45.9	-58.3	3.7	1.51e+00	0	25	104	14680064	60	29558
2026-01-10 02:35:40.81	221.26	3.37	-40.6	-42.4	17.0	3.27e-01	0	25	104	14680064	54	6733
2026-01-10 02:35:41.82	221.35	3.42	-41.9	-44.1	16.3	0.00e+00	0	25	0	15728640	56	7333
2026-01-10 02:35:42.83	221.44	3.47	-42.4	-44.9	15.6	0.00e+00	0	25	0	17825792	56	7997
2026-01-10 02:35:43.84	221.53	3.53	-42.5	-45.1	15.1	0.00e+00	0	25	0	19922944	56	8228
2026-01-10 02:35:44.85	221.62	3.58	-42.3	-44.8	15.8	0.00e+00	0	25	0	22020096	58	7036
2026-01-10 02:35:45.86	221.71	3.64	-41.7	-43.8	16.7	0.00e+00	0	25	0	23068672	56	7062
2026-01-10 02:35:46.87	221.80	3.69	-41.4	-43.4	17.0	0.00e+00	0	25	0	25165824	56	6731
2026-01-10 02:35:47.88	221.89	3.74	-41.4	-43.4	17.0	0.00e+00	0	25	0	27262976	56	6763
2026-01-10 02:35:48.89	221.98	3.80	-41.5	-43.5	17.0	0.00e+00	0	25	0	29360128	56	6828
2026-01-10 02:35:49.90	222.08	3.85	-41.5	-43.6	16.8	0.00e+00	0	25	0	31457280	56	6866
2026-01-10 02:35:50.91	222.17	3.91	-41.3	-43.3	17.2	0.00e+00	0	25	0	32505856	56	6619
2026-01-10 02:35:51.92	222.26	3.96	-41.1	-43.1	17.4	0.00e+00	0	25	0	34603008	56	6498
2026-01-10 02:35:52.92	222.35	4.02	-41.2	-43.2	17.3	0.00e+00	0	25	0	36700160	56	6610
2026-01-10 02:35:53.93	222.45	4.07	-41.1	-43.1	17.4	0.00e+00	0	25	0	38797312	56	6511
2026-01-10 02:35:54.94	222.54	4.12	-40.8	-42.7	17.8	0.00e+00	0	25	0	40894464	56	6182
2026-01-10 02:35:55.95	222.63	4.18	-41.0	-42.9	17.6	0.00e+00	0	25	0	41943040	56	6330
2026-01-10 02:35:56.96	222.73	4.23	-40.9	-42.7	17.7	0.00e+00	0	25	0	44040192	56	6227
2026-01-10 02:35:57.97	222.82	4.29	-40.9	-42.7	17.8	0.00e+00	0	25	0	46137344	56	6186
2026-01-10 02:35:58.98	222.91	4.34	-40.9	-42.8	17.7	0.00e+00	0	25	0	48234496	56	6275
2026-01-10 02:35:59.99	223.01	4.40	-40.9	-42.7	17.7	0.00e+00	0	25	0	50331648	56	6219
2026-01-10 02:36:01.00	223.11	4.45	-40.6	-42.4	17.8	0.00e+00	0	25	0	51380224	54	6731
2026-01-10 02:36:02.01	223.20	4.51	-41.0	-42.8	17.6	0.00e+00	0	25	0	53477376	54	7087
2026-01-10 02:36:03.02	223.30	4.56	-41.0	-43.0	17.4	0.00e+00	0	25	0	55574528	54	7178
2026-01-10 02:36:04.03	223.39	4.62	-40.9	-42.7	17.7	0.00e+00	0	25	0	57671680	54	6970
2026-01-10 02:36:05.04	223.49	4.67	-41.1	-43.0	17.4	0.00e+00	0	25	0	59768832	54	7172
2026-01-10 02:36:06.05	223.59	4.73	-41.3	-43.2	17.3	0.00e+00	0	25	0	61865984	54	7419
2026-01-10 02:36:07.06	223.68	4.78	-41.4	-43.4	17.1	0.00e+00	0	25	0	62914560	54	7578
2026-01-10 02:36:08.07	223.78	4.84	-41.5	-43.4	17.0	0.00e+00	0	25	0	65011712	54	7592
2026-01-10 02:36:09.08	223.88	4.89	-41.3	-43.3	17.2	0.00e+00	0	25	0	67108864	54	7482
2026-01-10 02:36:10.09	223.98	4.95	-41.5	-43.6	16.8	0.00e+00	0	25	0	69206016	54	7726
2026-01-10 02:36:11.10	224.08	5.00	-41.7	-43.9	16.5	0.00e+00	0	25	0	71303168	54	7994
2026-01-10 02:36:12.11	224.18	5.06	-41.6	-43.7	17.0	0.00e+00	0	25	0	72351744	56	6962
2026-01-10 02:36:13.12	224.28	5.12	-41.8	-43.9	16.7	0.00e+00	0	25	0	74448896	56	7121
2026-01-10 02:36:14.13	224.38	5.17	-42.0	-44.2	16.4	0.00e+00	0	25	0	76546048	56	7397
2026-01-10 02:36:15.14	224.48	5.23	-42.0	-44.2	16.5	0.00e+00	0	25	0	78643200	56	7349
2026-01-10 02:36:16.15	224.58	5.28	-41.9	-44.1	16.6	0.00e+00	0	25	0	80740352	56	7257
2026-01-10 02:36:17.16	224.68	5.34	-42.1	-44.3	16.3	0.00e+00	0	25	0	81788928	56	7478
2026-01-10 02:36:18.17	224.78	5.39	-42.2	-44.4	16.2	0.00e+00	0	25	0	83886080	56	7592
2026-01-10 02:36:19.17	224.88	5.45	-42.1	-44.4	16.3	0.00e+00	0	25	0	85983232	56	7519
2026-01-10 02:36:20.18	224.98	5.50	-42.1	-44.4	16.2	0.00e+00	0	25	0	88080384	56	7514
2026-01-10 02:36:21.19	225.08	5.56	-42.2	-44.5	16.3	0.00e+00	0	25	0	90177536	56	7642
2026-01-10 02:36:22.20	225.19	5.62	-42.2	-44.5	16.1	0.00e+00	0	25	0	91226112	56	7616
2026-01-10 02:36:23.21	225.29	5.67	-42.3	-44.6	16.0	0.00e+00	0	25	0	93323264	56	7731
2026-01-10 02:36:24.22	225.39	5.73	-42.3	-44.6	16.2	0.00e+00	0	25	0	95420416	56	7753
2026-01-10 02:36:25.23	225.50	5.78	-42.2	-44.5	16.3	0.00e+00	0	25	0	97517568	56	7651
2026-01-10 02:36:26.24	225.60	5.84	-42.3	-44.5	16.2	0.00e+00	0	25	0	99614720	56	7681
2026-01-10 02:36:27.25	225.71	5.90	-42.1	-44.4	16.2	0.00e+00	0	25	0	100663296	56	7554
2026-01-10 02:36:28.26	225.81	5.95	-42.2	-44.4	16.4	0.00e+00	0	25	0	102760448	56	7571
2026-01-10 02:36:29.27	225.92	6.01	-42.1	-44.3	16.4	0.00e+00	0	25	0	104857600	56	7500
2026-01-10 02:36:30.27	226.02	6.06	-42.0	-44.2	16.5	0.00e+00	0	25	0	106954752	56	7402
2026-01-10 02:36:31.28	226.13	6.12	-42.1	-44.3	16.5	0.00e+00	0	25	0	109051904	56	7447
2026-01-10 02:36:32.29	226.24	6.18	-42.2	-44.4	16.3	0.00e+00	0	25	0	110100480	56	7581
2026-01-10 02:36:33.30	226.34	6.23	-42.2	-44.4	16.3	0.00e+00	0	25	0	112197632	56	7591
2026-01-10 02:36:34.31	226.45	6.29	-42.3	-44.6	16.3	0.00e+00	0	25	0	114294784	56	7720
2026-01-10 02:36:35.32	226.56	6.35	-42.4	-44.7	16.2	0.00e+00	0	25	0	116391936	56	7855
2026-01-10 02:36:36.33	226.67	6.40	-42.5	-44.8	16.2	0.00e+00	0	25	0	118489088	56	7872
2026-01-10 02:36:37.34	226.78	6.46	-42.4	-44.7	16.2	0.00e+00	0	25	0	119537664	56	7819
2026-01-10 02:36:38.35	226.88	6.52	-42.4	-44.7	16.3	0.00e+00	0	25	0	121634816	56	7775
2026-01-10 02:36:39.36	226.99	6.57	-42.3	-44.5	16.3	0.00e+00	0	25	0	123731968	56	7673
2026-01-10 02:36:40.37	227.10	6.63	-42.2	-44.3	16.7	0.00e+00	0	25	0	125829120	56	7455
2026-01-10 02:36:41.38	227.21	6.68	-42.3	-44.5	16.4	0.00e+00	0	25	0	127926272	56	7635
2026-01-10 02:36:42.38	227.32	6.74	-42.4	-44.7	16.4	0.00e+00	0	25	0	130023424	56	7809
2026-01-10 02:36:43.39	227.44	6.80	-42.1	-44.2	16.7	0.00e+00	0	25	0	131072000	56	7400
2026-01-10 02:36:44.40	227.55	6.85	-42.1	-44.2	16.8	0.00e+00	0	25	0	133169152	56	7420
2026-01-10 02:36:45.41	227.66	6.91	-42.1	-44.2	16.7	0.00e+00	0	25	0	135266304	56	7422
2026-01-10 02:36:46.42	227.77	6.97	-41.9	-44.0	17.0	0.00e+00	0	25	0	137363456	56	7191
2026-01-10 02:36:47.43	227.88	7.02	-41.9	-44.0	16.9	0.00e+00	0	25	0	139460608	56	7194
2026-01-10 02:36:48.44	228.00	7.08	-42.0	-44.1	16.8	0.00e+00	0	25	0	140509184	56	7310
2026-01-10 02:36:49.45	228.11	7.14	-42.1	-44.3	16.7	0.00e+00	0	25	0	142606336	56	7427
2026-01-10 02:36:50.46	228.23	7.20	-42.1	-44.2	16.9	0.00e+00	0	25	0	144703488	56	7350
2026-01-10 02:36:51.47	228.34	7.25	-42.1	-44.2	16.8	0.00e+00	0	25	0	146800640	56	7389
2026-01-10 02:36:52.48	228.45	7.31	-42.2	-44.3	16.7	0.00e+00	0	25	0	148897792	56	7475
2026-01-10 02:36:53.49	228.57	7.37	-42.2	-44.4	16.6	0.00e+00	0	25	0	149946368	56	7528
2026-01-10 02:36:54.50	228.69	7.42	-42.2	-44.4	16.7	0.00e+00	0	25	0	152043520	56	7519
2026-01-10 02:36:55.50	228.80	7.48	-42.3	-44.5	16.6	0.00e+00	0	25	0	154140672	56	7623
2026-01-10 02:36:56.51	228.92	7.54	-42.4	-44.7	16.5	0.00e+00	0	25	0	156237824	56	7796
2026-01-10 02:36:57.52	229.03	7.59	-42.5	-44.8	16.3	0.00e+00	0	25	0	158334976	56	7871
2026-01-10 02:36:58.53	229.15	7.65	-42.4	-44.7	16.4	0.00e+00	0	25	0	159383552	56	7795
2026-01-10 02:36:59.54	229.27	7.71	-42.5	-44.8	16.3	0.00e+00	0	25	0	161480704	56	7929
2026-01-10 02:37:00.55	229.39	7.77	-42.6	-44.9	16.2	0.00e+00	0	25	0	163577856	56	7967
2026-01-10 02:37:01.56	229.51	7.82	-42.6	-44.9	16.3	0.00e+00	0	25	0	165675008	56	8003
2026-01-10 02:37:02.57	229.63	7.88	-42.6	-44.9	16.1	0.00e+00	0	25	0	167772160	56	8011
2026-01-10 02:37:03.58	229.75	7.94	-42.7	-45.0	16.0	0.00e+00	0	25	0	168820736	58	7234
2026-01-10 02:37:04.59	229.87	7.99	-42.5	-44.8	16.3	0.00e+00	0	25	0	170917888	58	7058
2026-01-10 02:37:05.60	229.99	8.05	-42.6	-44.9	16.3	0.00e+00	0	25	0	173015040	58	7115
2026-01-10 02:37:06.61	230.11	8.11	-42.7	-45.0	16.1	0.00e+00	0	25	0	175112192	58	7212
2026-01-10 02:37:07.62	230.23	8.17	-42.4	-44.7	16.5	0.00e+00	0	25	0	177209344	58	6928
2026-01-10 02:37:08.63	230.35	8.22	-42.4	-44.6	16.6	0.00e+00	0	25	0	178257920	58	6865
2026-01-10 02:37:09.64	230.48	8.28	-42.2	-44.3	16.8	0.00e+00	0	25	0	180355072	58	6632
2026-01-10 02:37:10.65	230.60	8.34	-42.0	-44.0	17.1	0.00e+00	0	25	0	182452224	58	6450
2026-01-10 02:37:11.66	230.72	8.40	-42.1	-44.3	16.8	0.00e+00	0	25	0	184549376	58	6626
2026-01-10 02:37:12.67	230.85	8.45	-42.0	-44.1	17.1	0.00e+00	0	25	0	186646528	58	6491
2026-01-10 02:37:13.68	230.97	8.51	-42.0	-44.0	17.1	0.00e+00	0	25	0	187695104	58	6432
2026-01-10 02:37:14.69	231.10	8.57	-42.0	-44.0	17.1	0.00e+00	0	25	0	189792256	58	6458
2026-01-10 02:37:15.70	231.22	8.63	-42.0	-44.0	17.2	0.00e+00	0	25	0	191889408	58	6441
2026-01-10 02:37:16.71	231.35	8.68	-42.1	-44.1	17.0	0.00e+00	0	25	0	193986560	58	6506
2026-01-10 02:37:17.72	231.47	8.74	-42.2	-44.3	16.9	0.00e+00	0	25	0	196083712	58	6675
2026-01-10 02:37:18.73	231.60	8.80	-42.1	-44.2	17.0	0.00e+00	0	25	0	198180864	58	6564
2026-01-10 02:37:19.74	231.73	8.86	-42.0	-44.1	17.0	0.00e+00	0	25	0	199229440	58	6513
2026-01-10 02:37:20.74	231.85	8.91	-42.2	-44.3	16.9	0.00e+00	0	25	0	201326592	58	6624
2026-01-10 02:37:21.76	231.98	8.97	-42.2	-44.3	16.9	0.00e+00	0	25	0	203423744	58	6643
2026-01-10 02:37:22.76	232.11	9.03	-42.0	-44.0	17.1	0.00e+00	0	25	0	205520896	58	6394
2026-01-10 02:37:23.77	232.24	9.09	-42.1	-44.1	17.1	0.00e+00	0	25	0	206569472	58	6527
2026-01-10 02:37:24.78	232.37	9.14	-42.1	-44.2	17.0	0.00e+00	0	25	0	208666624	58	6599
2026-01-10 02:37:25.79	232.50	9.20	-42.0	-44.0	17.2	0.00e+00	0	25	0	210763776	58	6435
2026-01-10 02:37:26.80	232.63	9.26	-42.1	-44.1	17.0	0.00e+00	0	25	0	212860928	58	6509
2026-01-10 02:37:27.81	232.76	9.32	-42.1	-44.1	17.0	0.00e+00	0	25	0	214958080	58	6530
2026-01-10 02:37:28.82	232.89	9.38	-42.0	-44.0	17.2	0.00e+00	0	25	0	216006656	58	6439
2026-01-10 02:37:29.83	233.03	9.43	-42.0	-44.0	17.2	0.00e+00	0	25	0	218103808	58	6421
2026-01-10 02:37:30.84	233.16	9.49	-41.9	-43.9	17.2	0.00e+00	0	25	0	220200960	58	6333
2026-01-10 02:37:31.85	233.29	9.55	-41.8	-43.8	17.4	0.00e+00	0	25	0	222298112	58	6276
2026-01-10 02:37:32.86	233.43	9.61	-41.7	-43.6	17.5	0.00e+00	0	25	0	224395264	56	6911
2026-01-10 02:37:33.87	233.56	9.66	-41.9	-43.9	17.4	0.00e+00	0	25	0	226492416	56	7149
2026-01-10 02:37:34.88	233.70	9.72	-41.7	-43.7	17.6	0.00e+00	0	25	0	227540992	56	6941
2026-01-10 02:37:35.88	233.83	9.78	-41.9	-43.9	17.4	0.00e+00	0	25	0	229638144	56	7127
2026-01-10 02:37:36.89	233.97	9.84	-41.8	-43.7	17.4	0.00e+00	0	25	0	231735296	56	7004
2026-01-10 02:37:37.90	234.10	9.89	-41.9	-43.9	17.5	0.00e+00	0	25	0	233832448	56	7096
2026-01-10 02:37:38.91	234.24	9.95	-41.8	-43.8	17.5	0.00e+00	0	25	0	235929600	56	7008
2026-01-10 02:37:39.92	234.38	10.01	-41.8	-43.7	17.6	0.00e+00	0	25	0	236978176	56	6956
2026-01-10 02:37:40.93	234.51	10.07	-41.7	-43.6	17.6	0.00e+00	0	25	0	239075328	56	6901
2026-01-10 02:37:41.94	234.65	10.12	-41.6	-43.5	17.8	0.00e+00	0	25	0	241172480	56	6787
2026-01-10 02:37:42.95	234.79	10.18	-41.6	-43.5	17.8	0.00e+00	0	25	0	243269632	56	6786
2026-01-10 02:37:43.96	234.93	10.24	-41.5	-43.4	17.8	0.00e+00	0	25	0	245366784	56	6698
2026-01-10 02:37:44.97	235.07	10.30	-41.4	-43.1	18.0	0.00e+00	0	25	0	246415360	56	6536
2026-01-10 02:37:45.97	235.21	10.35	-41.5	-43.3	18.0	0.00e+00	0	25	0	248512512	56	6617
2026-01-10 02:37:46.98	235.35	10.41	-41.3	-43.1	18.2	0.00e+00	0	25	0	250609664	56	6488
2026-01-10 02:37:47.99	235.49	10.47	-41.3	-43.0	18.3	0.00e+00	0	25	0	252706816	56	6417
2026-01-10 02:37:49.00	235.64	10.53	-41.0	-42.6	18.6	0.00e+00	0	25	0	254803968	56	6166
2026-01-10 02:37:50.01	235.78	10.58	-41.1	-42.7	18.6	0.00e+00	0	25	0	255852544	56	6243
2026-01-10 02:37:51.02	235.92	10.64	-40.9	-42.5	18.7	0.00e+00	0	25	0	257949696	56	6101
2026-01-10 02:37:52.03	236.06	10.70	-41.0	-42.6	18.7	0.00e+00	0	25	0	260046848	56	6143
2026-01-10 02:37:53.04	236.21	10.76	-40.9	-42.5	18.8	0.00e+00	0	25	0	262144000	56	6051
2026-01-10 02:37:54.04	236.35	10.81	-40.9	-42.6	18.6	0.00e+00	0	25	0	264241152	54	6855
2026-01-10 02:37:55.05	236.50	10.87	-41.0	-42.7	18.4	0.00e+00	0	25	0	265289728	54	6941
2026-01-10 02:37:56.06	236.64	10.93	-40.6	-42.2	18.9	0.00e+00	0	25	0	267386880	54	6554
2026-01-10 02:37:57.07	236.79	10.98	-40.6	-42.2	19.0	0.00e+00	0	25	0	269484032	54	6551
2026-01-10 02:37:58.08	236.94	11.04	-40.4	-41.8	19.2	0.00e+00	0	25	0	271581184	54	6316
2026-01-10 02:37:59.09	237.09	11.10	-40.2	-41.7	19.5	0.00e+00	0	25	0	273678336	54	6191
2026-01-10 02:38:00.10	237.23	11.16	-40.0	-41.4	19.6	0.00e+00	0	25	0	274726912	54	5992
2026-01-10 02:38:01.11	237.38	11.21	-40.0	-41.5	19.6	0.00e+00	0	25	0	276824064	54	6045
2026-01-10 02:38:02.12	237.53	11.27	-39.9	-41.2	19.8	0.00e+00	0	25	0	278921216	54	5886
2026-01-10 02:38:03.12	237.68	11.33	-39.7	-41.0	20.0	0.00e+00	0	25	0	281018368	54	5744
2026-01-10 02:38:04.13	237.83	11.38	-39.7	-41.1	19.9	0.00e+00	0	25	0	283115520	52	6471
2026-01-10 02:38:05.14	237.98	11.44	-39.5	-40.8	20.1	0.00e+00	0	25	0	284164096	52	6315
2026-01-10 02:38:06.15	238.13	11.50	-39.6	-40.9	20.1	0.00e+00	0	25	0	286261248	52	6385
2026-01-10 02:38:07.16	238.29	11.56	-39.5	-40.8	20.2	0.00e+00	0	25	0	288358400	52	6291
2026-01-10 02:38:08.16	238.44	11.61	-39.4	-40.7	20.3	0.00e+00	0	25	0	290455552	52	6232
2026-01-10 02:38:09.17	238.59	11.67	-39.4	-40.7	20.3	0.00e+00	0	25	0	292552704	52	6239
2026-01-10 02:38:10.18	238.74	11.72	-39.4	-40.7	20.4	0.00e+00	0	25	0	294649856	52	6201
2026-01-10 02:38:11.19	238.90	11.78	-39.4	-40.7	20.3	0.00e+00	0	25	0	295698432	52	6193
2026-01-10 02:38:12.20	239.05	11.84	-39.4	-40.7	20.4	0.00e+00	0	25	0	297795584	52	6218
2026-01-10 02:38:13.21	239.21	11.89	-39.4	-40.6	20.3	0.00e+00	0	25	0	299892736	52	6169
2026-01-10 02:38:14.22	239.36	11.95	-39.3	-40.6	20.6	0.00e+00	0	25	0	301989888	52	6114
2026-01-10 02:38:15.23	239.52	12.01	-39.2	-40.4	20.6	0.00e+00	0	25	0	304087040	52	6001
2026-01-10 02:38:16.24	239.68	12.06	-39.1	-40.4	20.6	0.00e+00	0	25	0	305135616	52	5991
2026-01-10 02:38:17.25	239.84	12.12	-38.8	-40.0	21.0	0.00e+00	0	25	0	307232768	52	5725
2026-01-10 02:38:18.26	239.99	12.18	-38.8	-39.9	21.0	0.00e+00	0	25	0	309329920	52	5690
2026-01-10 02:38:19.27	240.15	12.23	-38.5	-39.6	21.3	0.00e+00	0	25	0	311427072	50	6170
2026-01-10 02:38:20.28	240.31	12.29	-38.6	-39.7	21.3	0.00e+00	0	25	0	313524224	50	6224
2026-01-10 02:38:21.29	240.47	12.35	-38.4	-39.6	21.4	0.00e+00	0	25	0	314572800	50	6112
2026-01-10 02:38:22.30	240.63	12.40	-38.4	-39.5	21.4	0.00e+00	0	25	0	316669952	50	6071
2026-01-10 02:38:23.31	240.80	12.46	-38.4	-39.5	21.4	0.00e+00	0	25	0	318767104	50	6086
2026-01-10 02:38:24.32	240.96	12.51	-38.6	-39.7	21.3	0.00e+00	0	25	0	320864256	50	6216
2026-01-10 02:38:25.32	241.12	12.57	-38.2	-39.3	21.7	0.00e+00	0	25	0	322961408	50	5962
2026-01-10 02:38:26.33	241.28	12.62	-38.1	-39.2	21.8	0.00e+00	0	25	0	324009984	50	5843
2026-01-10 02:38:27.34	241.45	12.68	-38.0	-39.1	21.8	0.00e+00	0	25	0	326107136	50	5780
2026-01-10 02:38:28.35	241.61	12.74	-37.8	-38.9	22.0	0.00e+00	0	25	0	328204288	50	5632
2026-01-10 02:38:29.36	241.78	12.79	-37.8	-38.8	22.1	0.00e+00	0	25	0	330301440	50	5619
2026-01-10 02:38:30.37	241.94	12.85	-37.3	-38.3	22.4	0.00e+00	0	25	0	332398592	48	5946
2026-01-10 02:38:31.38	242.11	12.90	-37.3	-38.3	22.5	0.00e+00	0	25	0	333447168	48	5935
2026-01-10 02:38:32.39	242.27	12.96	-37.2	-38.1	22.6	0.00e+00	0	25	0	335544320	48	5822
2026-01-10 02:38:33.40	242.44	13.01	-37.1	-38.0	22.7	0.00e+00	0	25	0	337641472	48	5755
2026-01-10 02:38:34.41	242.61	13.07	-36.9	-37.9	22.9	0.00e+00	0	25	0	339738624	48	5633
2026-01-10 02:38:35.42	242.78	13.12	-37.0	-37.9	22.5	0.00e+00	0	25	0	341835776	48	5670
2026-01-10 02:38:36.43	242.95	13.18	-37.1	-38.1	22.6	0.00e+00	0	25	0	342884352	48	5807
2026-01-10 02:38:37.44	243.12	13.23	-37.1	-38.0	22.7	0.00e+00	0	25	0	344981504	48	5755
2026-01-10 02:38:38.45	243.29	13.29	-37.3	-38.3	22.6	0.00e+00	0	25	0	347078656	48	5956
2026-01-10 02:38:39.46	243.46	13.34	-37.3	-38.3	22.6	0.00e+00	0	25	0	349175808	48	5897
2026-01-10 02:38:40.46	243.63	13.39	-37.2	-38.2	22.7	0.00e+00	0	25	0	351272960	48	5855
2026-01-10 02:38:41.47	243.80	13.45	-37.2	-38.2	22.7	0.00e+00	0	25	0	352321536	48	5852
2026-01-10 02:38:42.48	243.97	13.50	-37.3	-38.3	22.6	0.00e+00	0	25	0	354418688	48	5947
2026-01-10 02:38:43.49	244.15	13.56	-37.1	-38.0	22.8	0.00e+00	0	25	0	356515840	48	5736
2026-01-10 02:38:44.50	244.32	13.61	-37.2	-38.2	22.6	0.00e+00	0	25	0	358612992	48	5858
2026-01-10 02:38:45.51	244.50	13.66	-37.3	-38.3	22.6	0.00e+00	0	25	0	360710144	48	5951
2026-01-10 02:38:46.52	244.67	13.72	-36.8	-37.7	22.9	0.00e+00	0	25	0	361758720	48	5549
2026-01-10 02:38:47.53	244.85	13.77	-37.0	-38.0	22.8	0.00e+00	0	25	0	363855872	48	5703
2026-01-10 02:38:48.54	245.02	13.82	-36.8	-37.8	23.0	0.00e+00	0	25	0	365953024	48	5581
2026-01-10 02:38:49.55	245.20	13.88	-37.0	-38.0	22.9	0.00e+00	0	25	0	368050176	48	5706
2026-01-10 02:38:50.56	245.38	13.93	-36.8	-37.7	23.1	0.00e+00	0	25	0	370147328	48	5522
2026-01-10 02:38:51.57	245.56	13.98	-36.5	-37.3	23.4	0.00e+00	0	25	0	371195904	46	5961
2026-01-10 02:38:52.58	245.74	14.04	-36.6	-37.5	23.2	0.00e+00	0	25	0	373293056	46	6097
2026-01-10 02:38:53.59	245.92	14.09	-36.6	-37.5	23.3	0.00e+00	0	25	0	375390208	46	6086
2026-01-10 02:38:54.60	246.10	14.14	-36.6	-37.5	23.2	0.00e+00	0	25	0	377487360	46	6076
2026-01-10 02:38:55.60	246.28	14.19	-36.7	-37.6	23.1	0.00e+00	0	25	0	379584512	46	6159
2026-01-10 02:38:56.62	246.46	14.25	-36.9	-37.8	23.1	0.00e+00	0	25	0	380633088	46	6287
2026-01-10 02:38:57.62	246.64	14.30	-37.0	-37.9	23.0	0.00e+00	0	25	0	382730240	46	6363
2026-01-10 02:38:58.63	246.82	14.35	-37.1	-38.0	22.9	0.00e+00	0	25	0	384827392	46	6444
2026-01-10 02:38:59.64	247.00	14.40	-37.3	-38.2	22.7	0.00e+00	0	25	0	386924544	46	6609
2026-01-10 02:39:00.65	247.19	14.45	-36.8	-37.8	23.0	0.00e+00	0	25	0	389021696	46	6257
2026-01-10 02:39:01.66	247.37	14.50	-37.0	-37.9	23.0	0.00e+00	0	25	0	391118848	46	6354
2026-01-10 02:39:02.67	247.56	14.56	-37.0	-37.9	23.0	0.00e+00	0	25	0	392167424	46	6340
2026-01-10 02:39:03.68	247.74	14.61	-36.7	-37.6	23.2	0.00e+00	0	25	0	394264576	46	6157
2026-01-10 02:39:04.69	247.93	14.66	-36.7	-37.6	23.1	0.00e+00	0	25	0	396361728	46	6115
2026-01-10 02:39:05.70	248.12	14.71	-36.8	-37.7	23.1	0.00e+00	0	25	0	398458880	46	6211
2026-01-10 02:39:06.71	248.31	14.76	-37.0	-37.9	22.9	0.00e+00	0	25	0	400556032	46	6383
2026-01-10 02:39:07.72	248.49	14.81	-37.1	-38.0	22.7	0.00e+00	0	25	0	401604608	46	6447
2026-01-10 02:39:08.73	248.68	14.86	-37.2	-38.2	22.7	0.00e+00	0	25	0	403701760	46	6549
2026-01-10 02:39:09.73	248.87	14.91	-37.6	-38.5	22.5	0.00e+00	0	25	0	405798912	46	6847
2026-01-10 02:39:10.74	249.06	14.96	-37.6	-38.6	22.3	0.00e+00	0	25	0	407896064	46	6903
2026-01-10 02:39:11.75	249.25	15.01	-37.5	-38.5	22.6	0.00e+00	0	25	0	409993216	46	6775
2026-01-10 02:39:12.76	249.44	15.06	-37.3	-38.2	22.8	0.00e+00	0	25	0	411041792	46	6586
2026-01-10 02:39:13.77	249.63	15.11	-37.5	-38.5	22.5	0.00e+00	0	25	0	413138944	46	6783
2026-01-10 02:39:14.77	249.83	15.16	-37.3	-38.3	22.5	0.00e+00	0	25	0	415236096	46	6661
2026-01-10 02:39:15.78	250.02	15.20	-37.7	-38.7	22.4	0.00e+00	0	25	0	417333248	46	6957
2026-01-10 02:39:16.79	250.21	15.25	-37.9	-38.9	22.1	0.00e+00	0	25	0	419430400	48	6374
2026-01-10 02:39:17.80	250.41	15.30	-37.9	-38.9	22.2	0.00e+00	0	25	0	420478976	48	6364
2026-01-10 02:39:18.81	250.60	15.35	-38.0	-39.1	21.9	0.00e+00	0	25	0	422576128	48	6486
2026-01-10 02:39:19.82	250.80	15.40	-37.9	-39.0	22.0	0.00e+00	0	25	0	424673280	48	6420
2026-01-10 02:39:20.83	250.99	15.45	-38.0	-39.0	22.1	0.00e+00	0	25	0	426770432	48	6439
2026-01-10 02:39:21.84	251.19	15.49	-37.9	-39.0	22.1	0.00e+00	0	25	0	428867584	48	6421
2026-01-10 02:39:22.84	251.39	15.54	-37.8	-38.8	22.3	0.00e+00	0	25	0	429916160	48	6279
2026-01-10 02:39:23.85	251.58	15.59	-37.7	-38.7	22.4	0.00e+00	0	25	0	432013312	48	6183
2026-01-10 02:39:24.86	251.78	15.63	-37.6	-38.6	22.3	0.00e+00	0	25	0	434110464	48	6122
2026-01-10 02:39:25.87	251.98	15.68	-37.6	-38.6	22.4	0.00e+00	0	25	0	436207616	48	6144
2026-01-10 02:39:26.88	252.18	15.73	-37.6	-38.6	22.4	0.00e+00	0	25	0	438304768	48	6163
2026-01-10 02:39:27.89	252.38	15.77	-37.7	-38.7	22.5	0.00e+00	0	25	0	439353344	48	6207
2026-01-10 02:39:28.90	252.58	15.82	-37.6	-38.5	22.4	0.00e+00	0	25	0	441450496	48	6102
2026-01-10 02:39:29.90	252.78	15.86	-37.7	-38.7	22.2	0.00e+00	0	25	0	443547648	48	6240
2026-01-10 02:39:30.91	252.99	15.91	-37.8	-38.8	22.2	0.00e+00	0	25	0	445644800	48	6294
2026-01-10 02:39:31.92	253.19	15.95	-38.0	-39.1	22.1	0.00e+00	0	25	0	447741952	48	6482
2026-01-10 02:39:32.93	253.39	16.00	-38.3	-39.4	21.8	0.00e+00	0	25	0	448790528	48	6745
2026-01-10 02:39:33.94	253.60	16.04	-38.4	-39.5	21.7	0.00e+00	0	25	0	450887680	48	6816
2026-01-10 02:39:34.94	253.80	16.09	-38.3	-39.4	21.8	0.00e+00	0	25	0	452984832	48	6738
2026-01-10 02:39:35.95	254.00	16.13	-38.1	-39.1	22.0	0.00e+00	0	25	0	455081984	48	6505
2026-01-10 02:39:36.96	254.21	16.18	-38.1	-39.1	21.9	0.00e+00	0	25	0	457179136	48	6531
2026-01-10 02:39:37.97	254.42	16.22	-37.8	-38.8	22.2	0.00e+00	0	25	0	458227712	48	6261
2026-01-10 02:39:38.98	254.62	16.26	-37.8	-38.8	22.0	0.00e+00	0	25	0	460324864	48	6252
2026-01-10 02:39:39.99	254.83	16.31	-37.7	-38.7	22.3	0.00e+00	0	25	0	462422016	48	6203
2026-01-10 02:39:41.00	255.04	16.35	-38.0	-39.1	22.0	0.00e+00	0	25	0	464519168	48	6468
2026-01-10 02:39:42.01	255.25	16.39	-38.0	-39.1	22.0	0.00e+00	0	25	0	466616320	48	6475
2026-01-10 02:39:43.02	255.46	16.43	-38.3	-39.4	21.8	0.00e+00	0	25	0	467664896	48	6714
2026-01-10 02:39:44.03	255.67	16.48	-38.4	-39.4	21.7	0.00e+00	0	25	0	469762048	48	6759
2026-01-10 02:39:45.04	255.88	16.52	-38.2	-39.3	21.7	0.00e+00	0	25	0	471859200	48	6657
2026-01-10 02:39:46.05	256.09	16.56	-38.2	-39.3	21.8	0.00e+00	0	25	0	473956352	48	6648
2026-01-10 02:39:47.06	256.30	16.60	-38.2	-39.3	21.9	0.00e+00	0	25	0	476053504	48	6625
2026-01-10 02:39:48.07	256.51	16.64	-37.9	-38.9	22.2	0.00e+00	0	25	0	477102080	48	6366
2026-01-10 02:39:49.08	256.72	16.68	-38.0	-39.1	22.0	0.00e+00	0	25	0	479199232	48	6501
2026-01-10 02:39:50.09	256.94	16.72	-38.1	-39.1	22.0	0.00e+00	0	25	0	481296384	48	6495
2026-01-10 02:39:51.10	257.15	16.76	-37.8	-38.8	22.2	0.00e+00	0	25	0	483393536	48	6283
2026-01-10 02:39:52.11	257.36	16.80	-37.8	-38.8	22.2	0.00e+00	0	25	0	485490688	48	6311
2026-01-10 02:39:53.12	257.58	16.84	-37.9	-39.0	22.2	0.00e+00	0	25	0	487587840	48	6401
2026-01-10 02:39:54.13	257.79	16.88	-37.6	-38.6	22.5	0.00e+00	0	25	0	488636416	48	6120
2026-01-10 02:39:55.14	258.01	16.92	-37.4	-38.3	22.7	0.00e+00	0	25	0	490733568	48	5939
2026-01-10 02:39:56.14	258.22	16.95	-37.3	-38.2	22.7	0.00e+00	0	25	0	492830720	48	5892
2026-01-10 02:39:57.15	258.44	16.99	-37.4	-38.4	22.4	0.00e+00	0	25	0	494927872	48	5972
2026-01-10 02:39:58.16	258.66	17.03	-37.6	-38.6	22.5	0.00e+00	0	25	0	497025024	48	6105
2026-01-10 02:39:59.17	258.88	17.07	-37.8	-38.8	22.3	0.00e+00	0	25	0	498073600	48	6284
2026-01-10 02:40:00.18	259.10	17.10	-37.8	-38.8	22.4	0.00e+00	0	25	0	500170752	48	6255
2026-01-10 02:40:01.19	259.31	17.14	-37.9	-39.0	22.1	0.00e+00	0	25	0	502267904	48	6393
2026-01-10 02:40:02.20	259.53	17.18	-37.9	-38.9	22.1	0.00e+00	0	25	0	504365056	48	6343
2026-01-10 02:40:03.21	259.75	17.21	-37.8	-38.8	22.4	0.00e+00	0	25	0	506462208	48	6257
2026-01-10 02:40:04.22	259.97	17.25	-37.4	-38.4	22.6	0.00e+00	0	25	0	507510784	48	6003
2026-01-10 02:40:05.22	260.19	17.28	-36.8	-37.7	23.1	0.00e+00	0	25	0	509607936	48	5512
2026-01-10 02:40:06.23	260.41	17.32	-36.8	-37.7	23.1	0.00e+00	0	25	0	511705088	46	6211
2026-01-10 02:40:07.24	260.64	17.35	-36.7	-37.6	23.3	0.00e+00	0	25	0	513802240	46	6117
2026-01-10 02:40:08.25	260.86	17.39	-36.7	-37.6	23.3	0.00e+00	0	25	0	515899392	46	6131
2026-01-10 02:40:09.26	261.08	17.42	-37.0	-37.9	23.0	0.00e+00	0	25	0	516947968	46	6343
2026-01-10 02:40:10.27	261.31	17.45	-37.2	-38.2	22.7	0.00e+00	0	25	0	519045120	46	6580
2026-01-10 02:40:11.28	261.53	17.49	-37.5	-38.5	22.5	0.00e+00	0	25	0	521142272	46	6826
2026-01-10 02:40:12.29	261.75	17.52	-37.4	-38.3	22.7	0.00e+00	0	25	0	523239424	46	6664
2026-01-10 02:40:13.30	261.98	17.55	-37.3	-38.2	22.8	0.00e+00	0	25	0	525336576	46	6606
2026-01-10 02:40:14.31	262.20	17.58	-37.3	-38.3	22.8	0.00e+00	0	25	0	526385152	46	6616
2026-01-10 02:40:15.32	262.43	17.61	-37.3	-38.2	22.7	0.00e+00	0	25	0	528482304	46	6594
2026-01-10 02:40:16.33	262.66	17.64	-37.3	-38.2	22.8	0.00e+00	0	25	0	530579456	46	6587
2026-01-10 02:40:17.34	262.88	17.68	-37.1	-38.0	22.9	0.00e+00	0	25	0	532676608	46	6430
2026-01-10 02:40:18.35	263.11	17.71	-36.9	-37.8	22.9	0.00e+00	0	25	0	534773760	46	6316
2026-01-10 02:40:19.36	263.34	17.74	-36.6	-37.5	23.3	0.00e+00	0	25	0	535822336	46	6057
2026-01-10 02:40:20.36	263.56	17.76	-36.5	-37.3	23.3	0.00e+00	0	25	0	537919488	46	5960
2026-01-10 02:40:21.37	263.79	17.79	-36.4	-37.3	23.5	0.00e+00	0	25	0	540016640	46	5925
2026-01-10 02:40:22.39	264.02	17.82	-36.2	-37.1	23.6	0.00e+00	0	25	0	542113792	46	5767
2026-01-10 02:40:23.40	264.25	17.85	-36.4	-37.3	23.5	0.00e+00	0	25	0	544210944	46	5909
2026-01-10 02:40:24.40	264.48	17.88	-36.7	-37.6	23.2	0.00e+00	0	25	0	545259520	46	6127
2026-01-10 02:40:25.41	264.71	17.91	-37.1	-38.1	23.2	0.00e+00	0	25	0	547356672	46	6504
2026-01-10 02:40:26.42	264.94	17.93	-37.1	-38.1	22.9	0.00e+00	0	25	0	549453824	46	6492
2026-01-10 02:40:27.43	265.17	17.96	-37.3	-38.3	22.7	0.00e+00	0	25	0	551550976	46	6673
2026-01-10 02:40:28.44	265.40	17.98	-37.1	-38.0	23.0	0.00e+00	0	25	0	553648128	46	6449
2026-01-10 02:40:29.44	265.63	18.01	-36.9	-37.9	23.0	0.00e+00	0	25	0	555745280	46	6335
2026-01-10 02:40:30.45	265.86	18.04	-36.6	-37.5	23.2	0.00e+00	0	25	0	556793856	46	6055
2026-01-10 02:40:31.46	266.10	18.06	-36.6	-37.5	23.3	0.00e+00	0	25	0	558891008	46	6043
2026-01-10 02:40:32.47	266.33	18.08	-36.6	-37.5	23.3	0.00e+00	0	25	0	560988160	46	6059
2026-01-10 02:40:33.48	266.56	18.11	-36.5	-37.3	23.5	0.00e+00	0	25	0	563085312	46	5956
2026-01-10 02:40:34.49	266.79	18.13	-36.3	-37.2	23.7	0.00e+00	0	25	0	565182464	46	5838
2026-01-10 02:40:35.50	267.03	18.16	-36.2	-37.1	23.7	0.00e+00	0	25	0	566231040	46	5802
2026-01-10 02:40:36.51	267.26	18.18	-36.0	-36.9	23.8	0.00e+00	0	25	0	568328192	46	5648
2026-01-10 02:40:37.52	267.50	18.20	-36.0	-36.8	23.8	0.00e+00	0	26	0	570425344	46	5603
2026-01-10 02:40:38.53	267.73	18.22	-36.1	-37.0	23.7	0.00e+00	0	25	0	572522496	46	5733
2026-01-10 02:40:39.54	267.97	18.24	-36.5	-37.4	23.4	0.00e+00	0	25	0	574619648	46	6019
2026-01-10 02:40:40.55	268.20	18.26	-36.6	-37.4	23.4	0.00e+00	0	25	0	575668224	46	6029
2026-01-10 02:40:41.56	268.44	18.28	-36.6	-37.5	23.3	0.00e+00	0	25	0	577765376	46	6097
2026-01-10 02:40:42.56	268.67	18.30	-36.5	-37.4	23.5	0.00e+00	0	25	0	579862528	46	5996
2026-01-10 02:40:43.57	268.91	18.32	-36.2	-37.1	23.6	0.00e+00	0	25	0	581959680	46	5762
2026-01-10 02:40:44.58	269.14	18.34	-36.1	-37.0	23.8	0.00e+00	0	25	0	584056832	46	5730
2026-01-10 02:40:45.59	269.38	18.36	-36.2	-37.1	23.6	0.00e+00	0	25	0	585105408	46	5788
2026-01-10 02:40:46.60	269.62	18.38	-36.4	-37.3	23.5	0.00e+00	0	25	0	587202560	46	5927
2026-01-10 02:40:47.61	269.86	18.40	-37.1	-38.0	23.0	0.00e+00	0	25	0	589299712	46	6453
2026-01-10 02:40:48.62	270.09	18.42	-37.3	-38.2	22.7	0.00e+00	0	25	0	591396864	46	6612
2026-01-10 02:40:49.62	270.33	18.43	-37.3	-38.3	22.7	0.00e+00	0	25	0	593494016	46	6632
2026-01-10 02:40:50.63	270.57	18.45	-37.1	-38.0	23.0	0.00e+00	0	25	0	594542592	46	6443
2026-01-10 02:40:51.64	270.81	18.46	-36.8	-37.7	23.1	0.00e+00	0	25	0	596639744	46	6232
2026-01-10 02:40:52.65	271.04	18.48	-36.8	-37.7	23.1	0.00e+00	0	25	0	598736896	46	6212
2026-01-10 02:40:53.66	271.28	18.49	-37.0	-37.9	22.8	0.00e+00	0	25	0	600834048	46	6340
2026-01-10 02:40:54.67	271.52	18.51	-37.4	-38.3	22.6	0.00e+00	0	25	0	602931200	46	6681
2026-01-10 02:40:55.68	271.76	18.52	-37.5	-38.5	22.5	0.00e+00	0	25	0	603979776	46	6771
2026-01-10 02:40:56.69	272.00	18.54	-37.4	-38.4	22.6	0.00e+00	0	25	0	606076928	46	6707
2026-01-10 02:40:57.70	272.24	18.55	-37.2	-38.2	22.7	0.00e+00	0	25	0	608174080	46	6544
2026-01-10 02:40:58.71	272.48	18.56	-37.1	-38.0	22.9	0.00e+00	0	25	0	610271232	46	6414
2026-01-10 02:40:59.72	272.72	18.57	-37.1	-38.1	22.9	0.00e+00	0	25	0	612368384	46	6480
2026-01-10 02:41:00.73	272.96	18.58	-37.0	-38.0	23.0	0.00e+00	0	25	0	613416960	46	6391
2026-01-10 02:41:01.74	273.20	18.60	-37.3	-38.2	22.7	0.00e+00	0	25	0	615514112	46	6611
2026-01-10 02:41:02.75	273.44	18.61	-37.6	-38.6	22.4	0.00e+00	0	25	0	617611264	46	6889
2026-01-10 02:41:03.76	273.68	18.62	-37.9	-38.9	22.2	0.00e+00	0	25	0	619708416	48	6372
2026-01-10 02:41:04.77	273.92	18.63	-38.2	-39.2	21.9	0.00e+00	0	25	0	621805568	48	6579
2026-01-10 02:41:05.77	274.16	18.64	-37.9	-38.9	22.2	0.00e+00	0	25	0	622854144	48	6368
2026-01-10 02:41:06.78	274.40	18.64	-37.9	-38.9	22.2	0.00e+00	0	25	0	624951296	48	6382
2026-01-10 02:41:07.80	274.65	18.65	-37.8	-38.8	22.3	0.00e+00	0	25	0	627048448	48	6268
2026-01-10 02:41:08.80	274.89	18.66	-37.6	-38.7	22.4	0.00e+00	0	25	0	629145600	48	6176
2026-01-10 02:41:09.81	275.13	18.67	-37.6	-38.6	22.5	0.00e+00	0	25	0	631242752	48	6132
2026-01-10 02:41:10.82	275.37	18.67	-37.6	-38.6	22.4	0.00e+00	0	25	0	632291328	48	6150
2026-01-10 02:41:11.83	275.61	18.68	-37.7	-38.7	22.4	0.00e+00	0	25	0	634388480	48	6231
2026-01-10 02:41:12.84	275.85	18.69	-37.6	-38.6	22.4	0.00e+00	0	25	0	636485632	48	6158
2026-01-10 02:41:13.85	276.10	18.69	-37.6	-38.6	22.5	0.00e+00	0	25	0	638582784	48	6132
2026-01-10 02:41:14.86	276.34	18.70	-37.3	-38.3	22.7	0.00e+00	0	25	0	640679936	48	5909
2026-01-10 02:41:15.87	276.58	18.70	-37.3	-38.2	22.6	0.00e+00	0	25	0	641728512	48	5856
2026-01-10 02:41:16.88	276.82	18.70	-37.3	-38.3	22.8	0.00e+00	0	25	0	643825664	48	5912
2026-01-10 02:41:17.89	277.06	18.71	-37.2	-38.2	22.7	0.00e+00	0	25	0	645922816	48	5858
2026-01-10 02:41:18.90	277.31	18.71	-37.2	-38.2	22.8	0.00e+00	0	25	0	648019968	48	5833
2026-01-10 02:41:19.90	277.55	18.71	-37.2	-38.1	22.8	0.00e+00	0	25	0	650117120	48	5799
2026-01-10 02:41:20.91	277.79	18.71	-37.3	-38.3	22.8	0.00e+00	0	25	0	652214272	48	5902
2026-01-10 02:41:21.92	278.03	18.71	-37.0	-38.0	22.9	0.00e+00	0	25	0	653262848	48	5703
2026-01-10 02:41:22.93	278.27	18.71	-37.2	-38.1	22.9	0.00e+00	0	25	0	655360000	48	5804
2026-01-10 02:41:23.94	278.51	18.71	-37.3	-38.3	22.7	0.00e+00	0	25	0	657457152	48	5910
2026-01-10 02:41:24.95	278.76	18.71	-37.4	-38.4	22.6	0.00e+00	0	25	0	659554304	48	5970
2026-01-10 02:41:25.96	279.00	18.71	-37.6	-38.5	22.6	0.00e+00	0	25	0	661651456	48	6095
2026-01-10 02:41:26.97	279.24	18.71	-37.5	-38.5	22.5	0.00e+00	0	25	0	662700032	48	6083
2026-01-10 02:41:27.98	279.48	18.71	-37.8	-38.8	22.3	0.00e+00	0	25	0	664797184	48	6265
2026-01-10 02:41:28.99	279.73	18.71	-37.7	-38.7	22.4	0.00e+00	0	25	0	666894336	48	6205
2026-01-10 02:41:30.00	279.97	18.71	-37.8	-38.8	22.3	0.00e+00	0	25	0	668991488	48	6250
2026-01-10 02:41:31.01	280.21	18.70	-38.0	-39.0	22.1	0.00e+00	0	25	0	671088640	48	6414
2026-01-10 02:41:32.02	280.45	18.70	-38.1	-39.1	22.0	0.00e+00	0	25	0	672137216	48	6519
2026-01-10 02:41:33.03	280.69	18.69	-38.3	-39.4	21.9	0.00e+00	0	25	0	674234368	48	6722
2026-01-10 02:41:34.04	280.94	18.69	-38.1	-39.2	22.0	0.00e+00	0	25	0	676331520	48	6566
2026-01-10 02:41:35.05	281.18	18.68	-38.0	-39.0	22.1	0.00e+00	0	25	0	678428672	48	6448
2026-01-10 02:41:36.06	281.42	18.68	-37.6	-38.6	22.3	0.00e+00	0	25	0	680525824	48	6155
2026-01-10 02:41:37.06	281.66	18.67	-37.3	-38.2	22.8	0.00e+00	0	25	0	681574400	48	5867
2026-01-10 02:41:38.07	281.90	18.67	-37.2	-38.1	22.8	0.00e+00	0	25	0	683671552	48	5807
2026-01-10 02:41:39.08	282.14	18.66	-36.9	-37.7	22.5	0.00e+00	0	25	0	685768704	48	5561
2026-01-10 02:41:40.09	282.38	18.65	-36.9	-37.9	22.9	0.00e+00	0	25	0	687865856	48	5642
2026-01-10 02:41:41.10	282.62	18.64	-37.1	-38.1	22.9	0.00e+00	0	25	0	689963008	48	5783
2026-01-10 02:41:42.11	282.86	18.63	-37.4	-38.4	22.4	0.00e+00	0	25	0	691011584	48	6015
2026-01-10 02:41:43.11	283.10	18.62	-37.4	-38.4	22.6	0.00e+00	0	25	0	693108736	48	5980
2026-01-10 02:41:44.12	283.34	18.62	-37.6	-38.6	22.4	0.00e+00	0	25	0	695205888	48	6148
2026-01-10 02:41:45.13	283.58	18.61	-37.5	-38.5	22.4	0.00e+00	0	25	0	697303040	48	6062
2026-01-10 02:41:46.14	283.82	18.59	-37.6	-38.6	22.4	0.00e+00	0	25	0	699400192	48	6141
2026-01-10 02:41:47.15	284.06	18.58	-37.8	-38.8	22.3	0.00e+00	0	25	0	700448768	48	6316
2026-01-10 02:41:48.16	284.30	18.57	-37.9	-38.9	22.2	0.00e+00	0	25	0	702545920	48	6351
2026-01-10 02:41:49.17	284.54	18.56	-38.1	-39.1	22.0	0.00e+00	0	25	0	704643072	48	6516
2026-01-10 02:41:50.18	284.78	18.55	-38.1	-39.1	22.0	0.00e+00	0	25	0	706740224	48	6521
2026-01-10 02:41:51.19	285.02	18.53	-38.0	-39.1	22.1	0.00e+00	0	25	0	708837376	48	6487
2026-01-10 02:41:52.20	285.26	18.52	-38.1	-39.2	22.0	0.00e+00	0	25	0	709885952	48	6548
2026-01-10 02:41:53.21	285.50	18.51	-38.0	-39.0	22.1	0.00e+00	0	25	0	711983104	48	6405
2026-01-10 02:41:54.22	285.74	18.49	-37.9	-39.0	22.0	0.00e+00	0	25	0	714080256	48	6414
2026-01-10 02:41:55.23	285.98	18.48	-37.9	-38.9	21.9	0.00e+00	0	25	0	716177408	48	6387
2026-01-10 02:41:56.24	286.22	18.46	-38.1	-39.2	22.1	0.00e+00	0	25	0	718274560	48	6544
2026-01-10 02:41:57.25	286.46	18.45	-38.1	-39.1	22.2	0.00e+00	0	25	0	720371712	48	6524
2026-01-10 02:41:58.26	286.69	18.43	-37.7	-38.7	22.2	0.00e+00	0	25	0	721420288	48	6228
2026-01-10 02:41:59.26	286.93	18.41	-37.4	-38.4	22.6	0.00e+00	0	25	0	723517440	48	5968
2026-01-10 02:42:00.27	287.17	18.40	-37.2	-38.2	22.8	0.00e+00	0	25	0	725614592	48	5843
2026-01-10 02:42:01.28	287.40	18.38	-36.8	-37.7	23.1	0.00e+00	0	25	0	727711744	48	5552
2026-01-10 02:42:02.29	287.64	18.36	-36.7	-37.6	23.2	0.00e+00	0	25	0	729808896	46	6150
2026-01-10 02:42:03.30	287.88	18.34	-36.7	-37.6	23.2	0.00e+00	0	25	0	730857472	46	6148
2026-01-10 02:42:04.31	288.11	18.32	-36.7	-37.6	23.3	0.00e+00	0	25	0	732954624	46	6148
2026-01-10 02:42:05.32	288.35	18.30	-37.0	-37.9	22.8	0.00e+00	0	25	0	735051776	46	6384
2026-01-10 02:42:06.33	288.58	18.28	-36.7	-37.6	23.2	0.00e+00	0	25	0	737148928	46	6134
2026-01-10 02:42:07.34	288.82	18.26	-36.8	-37.7	23.1	0.00e+00	0	25	0	739246080	46	6223
2026-01-10 02:42:08.35	289.05	18.24	-37.2	-38.1	22.7	0.00e+00	0	25	0	740294656	46	6516
2026-01-10 02:42:09.36	289.29	18.22	-37.6	-38.6	22.4	0.00e+00	0	25	0	742391808	46	6871
2026-01-10 02:42:10.37	289.52	18.20	-37.6	-38.6	22.5	0.00e+00	0	25	0	744488960	46	6887
2026-01-10 02:42:11.38	289.76	18.18	-37.7	-38.7	22.2	0.00e+00	0	25	0	746586112	46	6964
2026-01-10 02:42:12.39	289.99	18.15	-37.6	-38.6	22.4	0.00e+00	0	25	0	748683264	48	6122
2026-01-10 02:42:13.40	290.22	18.13	-37.5	-38.5	22.4	0.00e+00	0	25	0	749731840	48	6048
2026-01-10 02:42:14.40	290.45	18.11	-37.9	-38.9	22.0	0.00e+00	0	25	0	751828992	48	6351
2026-01-10 02:42:15.41	290.69	18.08	-37.8	-38.9	22.2	0.00e+00	0	25	0	753926144	48	6319
2026-01-10 02:42:16.42	290.92	18.06	-37.5	-38.5	22.4	0.00e+00	0	25	0	756023296	48	6090
2026-01-10 02:42:17.43	291.15	18.03	-37.6	-38.6	22.4	0.00e+00	0	25	0	758120448	48	6107
2026-01-10 02:42:18.44	291.38	18.01	-37.5	-38.4	22.6	0.00e+00	0	25	0	759169024	48	6032
2026-01-10 02:42:19.45	291.61	17.98	-37.3	-38.2	22.8	0.00e+00	0	25	0	761266176	48	5876
2026-01-10 02:42:20.46	291.84	17.96	-37.0	-37.9	23.0	0.00e+00	0	25	0	763363328	48	5676
2026-01-10 02:42:21.47	292.07	17.93	-36.8	-37.7	23.2	0.00e+00	0	25	0	765460480	48	5518
2026-01-10 02:42:22.48	292.30	17.90	-36.6	-37.5	23.3	0.00e+00	0	25	0	767557632	46	6095
2026-01-10 02:42:23.49	292.53	17.88	-36.8	-37.8	23.1	0.00e+00	0	25	0	768606208	46	6255
2026-01-10 02:42:24.50	292.76	17.85	-37.1	-38.0	22.9	0.00e+00	0	25	0	770703360	46	6447
2026-01-10 02:42:25.51	292.99	17.82	-37.3	-38.3	22.8	0.00e+00	0	25	0	772800512	46	6668
2026-01-10 02:42:26.52	293.22	17.79	-37.4	-38.4	22.4	0.00e+00	0	25	0	774897664	46	6728
2026-01-10 02:42:27.53	293.45	17.76	-37.4	-38.4	22.6	0.00e+00	0	25	0	776994816	46	6766
2026-01-10 02:42:28.54	293.67	17.73	-37.3	-38.3	22.7	0.00e+00	0	25	0	778043392	46	6634
2026-01-10 02:42:29.55	293.90	17.70	-37.1	-38.0	22.7	0.00e+00	0	25	0	780140544	46	6440
2026-01-10 02:42:30.55	294.12	17.67	-36.8	-37.7	23.1	0.00e+00	0	25	0	782237696	46	6233
2026-01-10 02:42:31.56	294.35	17.64	-36.6	-37.5	23.3	0.00e+00	0	25	0	784334848	46	6039
2026-01-10 02:42:32.57	294.58	17.61	-36.5	-37.4	23.3	0.00e+00	0	25	0	786432000	46	6020
2026-01-10 02:42:33.58	294.80	17.58	-36.8	-37.7	23.1	0.00e+00	0	25	0	788529152	46	6197
2026-01-10 02:42:34.59	295.03	17.55	-36.8	-37.7	23.2	0.00e+00	0	25	0	789577728	46	6230
2026-01-10 02:42:35.60	295.25	17.52	-36.9	-37.9	23.0	0.00e+00	0	25	0	791674880	46	6330
2026-01-10 02:42:36.61	295.47	17.48	-36.9	-37.8	23.0	0.00e+00	0	25	0	793772032	46	6260
2026-01-10 02:42:37.62	295.70	17.45	-36.7	-37.6	23.1	0.00e+00	0	25	0	795869184	46	6140
2026-01-10 02:42:38.63	295.92	17.42	-36.6	-37.5	23.2	0.00e+00	0	25	0	797966336	46	6042
2026-01-10 02:42:39.64	296.14	17.39	-36.4	-37.3	23.5	0.00e+00	0	25	0	799014912	46	5899
2026-01-10 02:42:40.64	296.36	17.35	-36.3	-37.2	23.5	0.00e+00	0	25	0	801112064	46	5861
2026-01-10 02:42:41.65	296.58	17.32	-36.2	-37.1	23.6	0.00e+00	0	25	0	803209216	46	5794
2026-01-10 02:42:42.66	296.80	17.28	-36.2	-37.1	23.6	0.00e+00	0	25	0	805306368	46	5819
2026-01-10 02:42:43.67	297.02	17.25	-36.4	-37.3	23.5	0.00e+00	0	25	0	806354944	46	5909
2026-01-10 02:42:44.68	297.24	17.21	-36.2	-37.1	23.6	0.00e+00	0	25	0	808452096	46	5785
2026-01-10 02:42:45.69	297.46	17.18	-36.2	-37.1	23.5	0.00e+00	0	25	0	810549248	46	5798
2026-01-10 02:42:46.70	297.68	17.14	-36.3	-37.2	23.5	0.00e+00	0	25	0	812646400	46	5873
2026-01-10 02:42:47.71	297.90	17.10	-36.4	-37.3	23.5	0.00e+00	0	25	0	814743552	46	5952
2026-01-10 02:42:48.72	298.12	17.07	-36.5	-37.4	23.4	0.00e+00	0	25	0	816840704	46	6010
2026-01-10 02:42:49.73	298.34	17.03	-36.5	-37.4	23.5	0.00e+00	0	25	0	817889280	46	5979
2026-01-10 02:42:50.74	298.55	16.99	-36.4	-37.3	23.4	0.00e+00	0	25	0	819986432	46	5915
2026-01-10 02:42:51.75	298.77	16.96	-36.0	-36.9	23.7	0.00e+00	0	25	0	822083584	46	5672
2026-01-10 02:42:52.76	298.98	16.92	-36.3	-37.2	23.6	0.00e+00	0	25	0	824180736	46	5834
2026-01-10 02:42:53.77	299.20	16.88	-36.2	-37.1	23.5	0.00e+00	0	25	0	826277888	46	5810
2026-01-10 02:42:54.77	299.41	16.84	-36.3	-37.2	23.4	0.00e+00	0	25	0	827326464	46	5867
2026-01-10 02:42:55.78	299.63	16.80	-36.6	-37.5	23.2	0.00e+00	0	25	0	829423616	46	6083
2026-01-10 02:42:56.79	299.84	16.76	-36.4	-37.3	23.4	0.00e+00	0	25	0	831520768	46	5912
2026-01-10 02:42:57.80	300.05	16.72	-36.4	-37.3	23.4	0.00e+00	0	25	0	833617920	46	5938
2026-01-10 02:42:58.81	300.26	16.68	-36.3	-37.2	23.5	0.00e+00	0	25	0	835715072	46	5834
2026-01-10 02:42:59.82	300.48	16.64	-36.4	-37.3	23.4	0.00e+00	0	25	0	836763648	46	5961
2026-01-10 02:43:00.83	300.69	16.60	-36.7	-37.6	23.2	0.00e+00	0	25	0	838860800	46	6134
2026-01-10 02:43:01.84	300.90	16.56	-36.9	-37.8	23.1	0.00e+00	0	25	0	840957952	46	6310
2026-01-10 02:43:02.85	301.11	16.52	-36.9	-37.9	22.9	0.00e+00	0	25	0	843055104	46	6357
2026-01-10 02:43:03.86	301.32	16.48	-36.6	-37.5	23.3	0.00e+00	0	25	0	845152256	46	6064
2026-01-10 02:43:04.87	301.53	16.44	-36.5	-37.5	23.3	0.00e+00	0	25	0	846200832	46	6037
2026-01-10 02:43:05.88	301.73	16.40	-36.5	-37.4	23.2	0.00e+00	0	25	0	848297984	46	5967
2026-01-10 02:43:06.89	301.94	16.35	-36.3	-37.1	23.6	0.00e+00	0	25	0	850395136	46	5813
2026-01-10 02:43:07.90	302.15	16.31	-36.3	-37.2	23.6	0.00e+00	0	25	0	852492288	46	5841
2026-01-10 02:43:08.90	302.35	16.27	-36.3	-37.1	23.3	0.00e+00	0	25	0	854589440	46	5819
2026-01-10 02:43:09.91	302.56	16.22	-36.3	-37.2	23.5	0.00e+00	0	25	0	855638016	46	5835
2026-01-10 02:43:10.92	302.77	16.18	-36.5	-37.4	23.2	0.00e+00	0	25	0	857735168	46	6024
2026-01-10 02:43:11.93	302.97	16.14	-36.8	-37.7	23.1	0.00e+00	0	25	0	859832320	46	6231
2026-01-10 02:43:12.95	303.18	16.09	-36.6	-37.5	23.3	0.00e+00	0	25	0	861929472	46	6064
2026-01-10 02:43:13.96	303.38	16.05	-36.5	-37.4	23.4	0.00e+00	0	25	0	864026624	46	5986
2026-01-10 02:43:14.96	303.58	16.01	-36.4	-37.3	23.4	0.00e+00	0	25	0	865075200	46	5908
2026-01-10 02:43:15.97	303.79	15.96	-36.2	-37.1	23.6	0.00e+00	0	25	0	867172352	46	5763
2026-01-10 02:43:16.98	303.99	15.92	-36.2	-37.1	23.5	0.00e+00	0	25	0	869269504	46	5780
2026-01-10 02:43:17.99	304.19	15.87	-36.6	-37.5	23.2	0.00e+00	0	25	0	871366656	46	6071
2026-01-10 02:43:19.00	304.39	15.83	-36.7	-37.6	23.0	0.00e+00	0	25	0	873463808	46	6148
2026-01-10 02:43:20.01	304.59	15.78	-37.3	-38.3	22.3	0.00e+00	0	25	0	874512384	46	6672
2026-01-10 02:43:21.02	304.79	15.73	-37.6	-38.7	22.3	0.00e+00	0	25	0	876609536	46	6957
2026-01-10 02:43:22.03	304.99	15.69	-37.8	-38.8	22.2	0.00e+00	0	25	0	878706688	48	6280
2026-01-10 02:43:23.03	305.18	15.64	-38.0	-39.1	21.8	0.00e+00	0	25	0	880803840	48	6475
2026-01-10 02:43:24.04	305.38	15.60	-37.8	-38.9	22.0	0.00e+00	0	25	0	882900992	48	6323
2026-01-10 02:43:25.05	305.58	15.55	-37.5	-38.5	22.3	0.00e+00	0	25	0	884998144	48	6089
2026-01-10 02:43:26.06	305.78	15.50	-37.2	-38.1	22.9	0.00e+00	0	25	0	886046720	48	5814
2026-01-10 02:43:27.07	305.97	15.45	-36.8	-37.8	22.9	0.00e+00	0	25	0	888143872	48	5572
2026-01-10 02:43:28.08	306.17	15.41	-37.1	-38.0	22.8	0.00e+00	0	25	0	890241024	48	5742
2026-01-10 02:43:29.09	306.36	15.36	-36.8	-37.7	23.1	0.00e+00	0	25	0	892338176	46	6195
2026-01-10 02:43:30.10	306.56	15.31	-36.8	-37.7	22.9	0.00e+00	0	25	0	894435328	46	6227
2026-01-10 02:43:31.11	306.75	15.26	-36.7	-37.6	23.2	0.00e+00	0	25	0	895483904	46	6116
2026-01-10 02:43:32.12	306.94	15.21	-36.7	-37.6	23.2	0.00e+00	0	25	0	897581056	46	6136
2026-01-10 02:43:33.13	307.14	15.17	-36.7	-37.7	23.1	0.00e+00	0	25	0	899678208	46	6188
2026-01-10 02:43:34.13	307.33	15.12	-36.8	-37.8	23.0	0.00e+00	0	25	0	901775360	46	6261
2026-01-10 02:43:35.14	307.52	15.07	-37.0	-37.9	22.9	0.00e+00	0	25	0	903872512	46	6352
2026-01-10 02:43:36.15	307.71	15.02	-37.2	-38.1	22.8	0.00e+00	0	25	0	904921088	46	6518
2026-01-10 02:43:37.16	307.90	14.97	-37.3	-38.2	22.7	0.00e+00	0	25	0	907018240	46	6610
2026-01-10 02:43:38.17	308.09	14.92	-37.4	-38.4	22.4	0.00e+00	0	25	0	909115392	46	6696
2026-01-10 02:43:39.18	308.28	14.87	-37.7	-38.7	22.1	0.00e+00	0	25	0	911212544	46	6979
2026-01-10 02:43:40.19	308.46	14.82	-38.2	-39.2	21.9	0.00e+00	0	25	0	913309696	48	6607
2026-01-10 02:43:41.20	308.65	14.77	-38.3	-39.4	21.7	0.00e+00	0	25	0	914358272	48	6731
2026-01-10 02:43:42.21	308.84	14.72	-38.6	-39.7	21.4	0.00e+00	0	25	0	916455424	48	6989
2026-01-10 02:43:43.22	309.02	14.67	-38.5	-39.6	21.5	0.00e+00	0	25	0	918552576	50	6152
2026-01-10 02:43:44.23	309.21	14.62	-38.5	-39.6	21.6	0.00e+00	0	25	0	920649728	50	6110
2026-01-10 02:43:45.24	309.39	14.57	-38.2	-39.3	21.7	0.00e+00	0	25	0	922746880	50	5905
2026-01-10 02:43:46.25	309.58	14.52	-37.9	-39.0	22.0	0.00e+00	0	25	0	923795456	50	5732
2026-01-10 02:43:47.26	309.76	14.47	-37.6	-38.7	22.2	0.00e+00	0	25	0	925892608	48	6177
2026-01-10 02:43:48.27	309.95	14.42	-37.5	-38.5	22.3	0.00e+00	0	25	0	927989760	48	6102
2026-01-10 02:43:49.28	310.13	14.36	-37.5	-38.6	22.3	0.00e+00	0	25	0	930086912	48	6116
2026-01-10 02:43:50.28	310.31	14.31	-37.5	-38.6	22.3	0.00e+00	0	25	0	932184064	48	6104
2026-01-10 02:43:51.30	310.49	14.26	-37.8	-38.8	22.0	0.00e+00	0	25	0	933232640	48	6300
2026-01-10 02:43:52.31	310.67	14.21	-37.4	-38.5	22.4	0.00e+00	0	25	0	935329792	48	6044
2026-01-10 02:43:53.31	310.85	14.16	-37.1	-38.1	22.6	0.00e+00	0	25	0	937426944	48	5824
2026-01-10 02:43:54.32	311.03	14.11	-37.2	-38.2	22.5	0.00e+00	0	25	0	939524096	48	5871
2026-01-10 02:43:55.33	311.21	14.05	-37.1	-38.1	22.6	0.00e+00	0	25	0	941621248	48	5787
2026-01-10 02:43:56.33	311.39	14.00	-37.0	-38.0	22.6	0.00e+00	0	25	0	942669824	48	5736
2026-01-10 02:43:57.34	311.56	13.95	-37.1	-38.1	22.6	0.00e+00	0	25	0	944766976	48	5819
2026-01-10 02:43:58.35	311.74	13.90	-37.4	-38.4	22.4	0.00e+00	0	25	0	946864128	48	5978
2026-01-10 02:43:59.36	311.92	13.84	-37.4	-38.4	22.3	0.00e+00	0	25	0	948961280	48	6021
2026-01-10 02:44:00.37	312.09	13.79	-37.7	-38.7	22.2	0.00e+00	0	25	0	951058432	48	6234
2026-01-10 02:44:01.38	312.27	13.74	-37.7	-38.8	22.1	0.00e+00	0	25	0	953155584	48	6286
2026-01-10 02:44:02.39	312.44	13.68	-37.7	-38.8	22.0	0.00e+00	0	25	0	954204160	48	6286
2026-01-10 02:44:03.40	312.62	13.63	-37.8	-38.9	22.0	0.00e+00	0	25	0	956301312	48	6340
2026-01-10 02:44:04.41	312.79	13.58	-37.6	-38.6	22.2	0.00e+00	0	25	0	958398464	48	6168
2026-01-10 02:44:05.41	312.96	13.53	-37.5	-38.5	22.2	0.00e+00	0	25	0	960495616	48	6096
2026-01-10 02:44:06.42	313.13	13.47	-37.6	-38.6	22.0	0.00e+00	0	25	0	961544192	48	6159
2026-01-10 02:44:07.43	313.30	13.42	-37.9	-39.0	21.8	0.00e+00	0	25	0	963641344	48	6432
2026-01-10 02:44:08.44	313.47	13.36	-38.2	-39.3	21.6	0.00e+00	0	25	0	965738496	48	6648
2026-01-10 02:44:09.45	313.65	13.31	-38.1	-39.2	21.7	0.00e+00	0	25	0	967835648	48	6601
2026-01-10 02:44:10.46	313.82	13.26	-38.1	-39.2	21.7	0.00e+00	0	25	0	969932800	48	6582
2026-01-10 02:44:11.47	313.98	13.20	-37.9	-39.0	21.8	0.00e+00	0	25	0	970981376	48	6413
2026-01-10 02:44:12.48	314.15	13.15	-37.9	-39.0	21.8	0.00e+00	0	25	0	973078528	48	6422
2026-01-10 02:44:13.49	314.32	13.09	-37.8	-38.8	21.8	0.00e+00	0	25	0	975175680	48	6313
2026-01-10 02:44:14.50	314.49	13.04	-37.6	-38.7	22.1	0.00e+00	0	25	0	977272832	48	6210
2026-01-10 02:44:15.51	314.65	12.98	-37.5	-38.6	22.3	0.00e+00	0	25	0	979369984	48	6115
2026-01-10 02:44:16.51	314.82	12.93	-37.5	-38.5	22.3	0.00e+00	0	25	0	981467136	48	6099
2026-01-10 02:44:17.52	314.98	12.87	-37.9	-38.9	21.9	0.00e+00	0	25	0	982515712	48	6379
2026-01-10 02:44:18.53	315.15	12.82	-37.8	-38.9	22.0	0.00e+00	0	25	0	984612864	48	6329
2026-01-10 02:44:19.54	315.31	12.76	-37.9	-38.9	21.9	0.00e+00	0	25	0	986710016	48	6380
2026-01-10 02:44:20.55	315.48	12.71	-38.0	-39.0	21.9	0.00e+00	0	25	0	988807168	48	6463
2026-01-10 02:44:21.56	315.64	12.65	-37.6	-38.7	22.1	0.00e+00	0	25	0	990904320	48	6203
2026-01-10 02:44:22.57	315.80	12.60	-37.5	-38.6	22.1	0.00e+00	0	25	0	991952896	48	6115
2026-01-10 02:44:23.58	315.97	12.54	-37.3	-38.3	22.4	0.00e+00	0	25	0	994050048	48	5939
2026-01-10 02:44:24.59	316.13	12.49	-37.1	-38.1	22.7	0.00e+00	0	25	0	996147200	48	5820
2026-01-10 02:44:25.61	316.29	12.43	-36.8	-37.8	22.7	0.00e+00	0	25	0	998244352	48	5595
2026-01-10 02:44:26.62	316.45	12.38	-36.9	-37.9	22.8	0.00e+00	0	25	0	1000341504	48	5637
2026-01-10 02:44:27.63	316.61	12.32	-36.8	-37.7	22.8	0.00e+00	0	25	0	1001390080	48	5544
2026-01-10 02:44:28.64	316.77	12.27	-36.8	-37.8	22.8	0.00e+00	0	25	0	1003487232	46	6256
2026-01-10 02:44:29.65	316.93	12.21	-37.0	-38.0	22.7	0.00e+00	0	25	0	1005584384	46	6395
2026-01-10 02:44:30.65	317.08	12.15	-37.1	-38.1	22.6	0.00e+00	0	25	0	1007681536	46	6476
2026-01-10 02:44:31.66	317.24	12.10	-37.1	-38.1	22.7	0.00e+00	0	25	0	1009778688	46	6468
2026-01-10 02:44:32.68	317.40	12.04	-37.3	-38.4	22.3	0.00e+00	0	25	0	1010827264	46	6706
2026-01-10 02:44:33.68	317.55	11.99	-37.0	-38.0	22.7	0.00e+00	0	25	0	1012924416	46	6431
2026-01-10 02:44:34.70	317.71	11.93	-37.2	-38.2	22.4	0.00e+00	0	25	0	1015021568	46	6590
2026-01-10 02:44:35.71	317.86	11.87	-37.1	-38.1	22.7	0.00e+00	0	25	0	1017118720	46	6470
2026-01-10 02:44:36.72	318.02	11.82	-36.9	-37.9	22.8	0.00e+00	0	25	0	1019215872	46	6344
2026-01-10 02:44:37.72	318.17	11.76	-37.0	-38.0	22.7	0.00e+00	0	25	0	1020264448	46	6436
2026-01-10 02:44:38.73	318.32	11.71	-37.1	-38.0	22.7	0.00e+00	0	25	0	1022361600	46	6455
2026-01-10 02:44:39.74	318.48	11.65	-36.9	-37.9	22.7	0.00e+00	0	25	0	1024458752	46	6356
2026-01-10 02:44:40.75	318.63	11.59	-37.1	-38.1	22.6	0.00e+00	0	25	0	1026555904	46	6506
2026-01-10 02:44:41.76	318.78	11.54	-36.9	-37.9	22.7	0.00e+00	0	25	0	1028653056	46	6365
2026-01-10 02:44:42.77	318.93	11.48	-37.0	-38.0	22.5	0.00e+00	0	25	0	1029701632	46	6441
2026-01-10 02:44:43.78	319.08	11.42	-37.1	-38.1	22.6	0.00e+00	0	25	0	1031798784	46	6495
2026-01-10 02:44:44.79	319.23	11.37	-37.1	-38.1	22.6	0.00e+00	0	25	0	1033895936	46	6471
2026-01-10 02:44:45.80	319.38	11.31	-37.2	-38.2	22.5	0.00e+00	0	25	0	1035993088	46	6577
2026-01-10 02:44:46.81	319.53	11.25	-37.1	-38.1	22.5	0.00e+00	0	25	0	1038090240	46	6484
2026-01-10 02:44:47.81	319.68	11.20	-36.6	-37.5	23.0	0.00e+00	0	25	0	1039138816	46	6100
2026-01-10 02:44:48.82	319.82	11.14	-36.5	-37.4	22.9	0.00e+00	0	25	0	1041235968	46	6011
2026-01-10 02:44:49.83	319.97	11.08	-36.4	-37.4	23.0	0.00e+00	0	25	0	1043333120	46	5968
2026-01-10 02:44:50.84	320.12	11.03	-36.1	-37.0	23.4	0.00e+00	0	25	0	1045430272	46	5721
2026-01-10 02:44:51.85	320.26	10.97	-36.0	-36.9	23.5	0.00e+00	0	25	0	1047527424	46	5688
2026-01-10 02:44:52.86	320.41	10.91	-36.0	-36.9	23.5	0.00e+00	0	25	0	1049624576	46	5655
2026-01-10 02:44:53.87	320.55	10.86	-36.1	-37.0	23.5	0.00e+00	0	25	0	1050673152	46	5709
2026-01-10 02:44:54.88	320.70	10.80	-36.2	-37.1	23.3	0.00e+00	0	25	0	1052770304	46	5763
2026-01-10 02:44:55.89	320.84	10.74	-36.3	-37.2	23.2	0.00e+00	0	25	0	1054867456	46	5878
2026-01-10 02:44:56.89	320.98	10.69	-36.4	-37.4	23.1	0.00e+00	0	25	0	1056964608	46	5970
2026-01-10 02:44:57.90	321.13	10.63	-36.5	-37.4	23.0	0.00e+00	0	25	0	1059061760	46	6023
2026-01-10 02:44:58.91	321.27	10.57	-36.5	-37.5	23.0	0.00e+00	0	25	0	1060110336	46	6058
2026-01-10 02:44:59.92	321.41	10.52	-36.6	-37.5	23.0	0.00e+00	0	25	0	1062207488	46	6088
2026-01-10 02:45:00.93	321.55	10.46	-36.8	-37.8	22.8	0.00e+00	0	25	0	1064304640	46	6260
2026-01-10 02:45:01.94	321.69	10.40	-36.7	-37.6	22.9	0.00e+00	0	25	0	1066401792	46	6158
2026-01-10 02:45:02.95	321.83	10.35	-36.9	-37.9	22.8	0.00e+00	0	25	0	1068498944	46	6319
2026-01-10 02:45:03.96	321.97	10.29	-36.8	-37.8	22.8	0.00e+00	0	25	0	1069547520	46	6280
2026-01-10 02:45:04.97	322.11	10.23	-36.9	-37.9	22.6	0.00e+00	0	25	0	1071644672	46	6337
2026-01-10 02:45:05.98	322.25	10.17	-37.2	-38.2	22.3	0.00e+00	0	25	0	1073741824	46	6600
2026-01-10 02:45:06.98	322.39	10.12	-37.4	-38.4	22.2	0.00e+00	0	25	0	1075838976	46	6726
2026-01-10 02:45:08.00	322.53	10.06	-37.5	-38.6	22.1	0.00e+00	0	25	0	1077936128	46	6883
2026-01-10 02:45:09.00	322.66	10.00	-37.6	-38.6	22.0	0.00e+00	0	25	0	1078984704	46	6913
2026-01-10 02:45:10.01	322.80	9.95	-37.8	-38.9	21.8	0.00e+00	0	25	0	1081081856	48	6335
2026-01-10 02:45:11.02	322.93	9.89	-37.7	-38.7	22.0	0.00e+00	0	25	0	1083179008	48	6228
2026-01-10 02:45:12.03	323.07	9.83	-37.4	-38.5	22.1	0.00e+00	0	25	0	1085276160	48	6047
2026-01-10 02:45:13.04	323.20	9.78	-37.2	-38.2	22.4	0.00e+00	0	25	0	1087373312	48	5887
2026-01-10 02:45:14.05	323.34	9.72	-37.1	-38.1	22.4	0.00e+00	0	25	0	1088421888	48	5823
2026-01-10 02:45:15.06	323.47	9.66	-36.7	-37.7	22.7	0.00e+00	0	25	0	1090519040	46	6211
2026-01-10 02:45:16.07	323.61	9.60	-36.6	-37.5	23.0	0.00e+00	0	25	0	1092616192	46	6088
2026-01-10 02:45:17.08	323.74	9.55	-36.5	-37.4	23.0	0.00e+00	0	25	0	1094713344	46	6021
2026-01-10 02:45:18.09	323.87	9.49	-36.7	-37.6	22.9	0.00e+00	0	25	0	1096810496	46	6149
2026-01-10 02:45:19.10	324.00	9.43	-36.7	-37.7	22.8	0.00e+00	0	25	0	1097859072	46	6178
2026-01-10 02:45:20.11	324.13	9.38	-36.8	-37.8	22.6	0.00e+00	0	25	0	1099956224	46	6283
2026-01-10 02:45:21.12	324.27	9.32	-37.1	-38.1	22.5	0.00e+00	0	25	0	1102053376	46	6473
2026-01-10 02:45:22.13	324.40	9.26	-37.5	-38.5	22.2	0.00e+00	0	25	0	1104150528	46	6800
2026-01-10 02:45:23.14	324.53	9.20	-37.7	-38.8	21.8	0.00e+00	0	25	0	1106247680	46	7025
2026-01-10 02:45:24.15	324.66	9.15	-37.9	-39.0	21.7	0.00e+00	0	25	0	1107296256	48	6394
2026-01-10 02:45:25.16	324.78	9.09	-38.0	-39.2	21.5	0.00e+00	0	25	0	1109393408	48	6547
2026-01-10 02:45:26.17	324.91	9.03	-38.1	-39.2	21.5	0.00e+00	0	25	0	1111490560	48	6593
2026-01-10 02:45:27.18	325.04	8.98	-38.2	-39.4	21.3	0.00e+00	0	25	0	1113587712	48	6726
2026-01-10 02:45:28.19	325.17	8.92	-38.1	-39.2	21.4	0.00e+00	0	25	0	1115684864	48	6575
2026-01-10 02:45:29.20	325.30	8.86	-37.9	-39.0	21.6	0.00e+00	0	25	0	1117782016	48	6443
2026-01-10 02:45:30.20	325.42	8.81	-38.0	-39.1	21.6	0.00e+00	0	25	0	1118830592	48	6496
2026-01-10 02:45:31.21	325.55	8.75	-38.1	-39.2	21.5	0.00e+00	0	25	0	1120927744	48	6554
2026-01-10 02:45:32.22	325.67	8.69	-38.1	-39.2	21.4	0.00e+00	0	25	0	1123024896	48	6587
2026-01-10 02:45:33.23	325.80	8.63	-38.1	-39.2	21.4	0.00e+00	0	25	0	1125122048	48	6611
2026-01-10 02:45:34.24	325.92	8.58	-38.1	-39.2	21.4	0.00e+00	0	25	0	1127219200	48	6563
2026-01-10 02:45:35.24	326.05	8.52	-38.5	-39.6	21.1	0.00e+00	0	25	0	1128267776	48	6908
2026-01-10 02:45:36.26	326.17	8.46	-38.8	-40.0	20.8	0.00e+00	0	25	0	1130364928	50	6451
2026-01-10 02:45:37.27	326.29	8.41	-38.4	-39.5	21.1	0.00e+00	0	25	0	1132462080	50	6097
2026-01-10 02:45:38.27	326.42	8.35	-38.4	-39.5	21.2	0.00e+00	0	25	0	1134559232	50	6094
2026-01-10 02:45:39.28	326.54	8.29	-38.4	-39.6	21.1	0.00e+00	0	25	0	1136656384	50	6132
2026-01-10 02:45:40.29	326.66	8.24	-38.4	-39.6	21.1	0.00e+00	0	25	0	1137704960	50	6124
2026-01-10 02:45:41.30	326.78	8.18	-38.5	-39.8	20.7	0.00e+00	0	25	0	1139802112	50	6251
2026-01-10 02:45:42.31	326.90	8.12	-38.5	-39.7	20.8	0.00e+00	0	25	0	1141899264	50	6239
2026-01-10 02:45:43.32	327.02	8.07	-38.4	-39.6	21.0	0.00e+00	0	25	0	1143996416	50	6159
2026-01-10 02:45:44.33	327.14	8.01	-38.4	-39.6	21.1	0.00e+00	0	25	0	1146093568	50	6141
2026-01-10 02:45:45.34	327.26	7.95	-38.5	-39.7	21.1	0.00e+00	0	25	0	1147142144	50	6183
2026-01-10 02:45:46.35	327.38	7.90	-38.5	-39.6	21.0	0.00e+00	0	25	0	1149239296	50	6169
2026-01-10 02:45:47.36	327.50	7.84	-38.6	-39.8	20.8	0.00e+00	0	25	0	1151336448	50	6296
2026-01-10 02:45:48.36	327.62	7.78	-38.8	-40.0	20.6	0.00e+00	0	25	0	1153433600	50	6432
2026-01-10 02:45:49.37	327.74	7.73	-38.9	-40.2	20.1	0.00e+00	0	25	0	1155530752	50	6555
2026-01-10 02:45:50.38	327.85	7.67	-38.9	-40.2	20.2	0.00e+00	0	25	0	1156579328	50	6584
2026-01-10 02:45:51.39	327.97	7.61	-39.1	-40.5	20.3	0.00e+00	0	25	0	1158676480	50	6775
2026-01-10 02:45:52.40	328.09	7.56	-38.9	-40.2	20.4	0.00e+00	0	25	0	1160773632	50	6565
2026-01-10 02:45:53.41	328.20	7.50	-38.7	-40.0	20.7	0.00e+00	0	25	0	1162870784	50	6415
2026-01-10 02:45:54.42	328.32	7.44	-38.6	-39.8	20.7	0.00e+00	0	25	0	1164967936	50	6316
2026-01-10 02:45:55.43	328.43	7.39	-38.4	-39.6	21.1	0.00e+00	0	25	0	1166016512	50	6115
2026-01-10 02:45:56.44	328.55	7.33	-38.2	-39.4	21.2	0.00e+00	0	25	0	1168113664	50	5999
2026-01-10 02:45:57.45	328.66	7.27	-38.4	-39.6	21.0	0.00e+00	0	25	0	1170210816	50	6119
2026-01-10 02:45:58.46	328.78	7.22	-37.9	-39.0	21.5	0.00e+00	0	25	0	1172307968	50	5748
2026-01-10 02:45:59.47	328.89	7.16	-37.8	-38.8	21.6	0.00e+00	0	25	0	1174405120	50	5617
2026-01-10 02:46:00.48	329.00	7.10	-37.8	-38.9	21.7	0.00e+00	0	25	0	1175453696	48	6346
2026-01-10 02:46:01.48	329.11	7.05	-37.8	-38.9	21.5	0.00e+00	0	25	0	1177550848	48	6381
2026-01-10 02:46:02.50	329.23	6.99	-37.9	-39.0	21.4	0.00e+00	0	25	0	1179648000	48	6456
2026-01-10 02:46:03.51	329.34	6.94	-38.1	-39.2	21.4	0.00e+00	0	25	0	1181745152	48	6602
2026-01-10 02:46:04.51	329.45	6.88	-38.3	-39.5	21.1	0.00e+00	0	25	0	1183842304	48	6805
2026-01-10 02:46:05.52	329.56	6.82	-38.7	-39.9	20.7	0.00e+00	0	25	0	1184890880	48	7129
2026-01-10 02:46:06.53	329.67	6.77	-39.2	-40.5	19.9	0.00e+00	0	25	0	1186988032	50	6842
2026-01-10 02:46:07.55	329.78	6.71	-39.5	-40.9	20.0	0.00e+00	0	25	0	1189085184	50	7106
2026-01-10 02:46:08.55	329.89	6.66	-39.4	-40.7	20.0	0.00e+00	0	25	0	1191182336	50	6969
2026-01-10 02:46:09.56	330.00	6.60	-39.5	-40.9	19.8	0.00e+00	0	25	0	1193279488	50	7154
2026-01-10 02:46:10.57	330.11	6.54	-39.4	-40.8	19.8	0.00e+00	0	25	0	1194328064	50	7069
2026-01-10 02:46:11.58	330.22	6.49	-39.4	-40.8	19.9	0.00e+00	0	25	0	1196425216	50	7054
2026-01-10 02:46:12.59	330.33	6.43	-39.3	-40.7	19.9	0.00e+00	0	25	0	1198522368	50	6935
2026-01-10 02:46:13.60	330.44	6.38	-39.1	-40.4	20.2	0.00e+00	0	25	0	1200619520	50	6759
