passes_logs/2026/01/10/R4.6S_Anadyr/R4.6S_Anadyr__20260110_181848_NOAA_20_JPSS-1_rec.log

#Pass ID: 20260110_181848_NOAA 20 (JPSS-1)
#Satellite: NOAA 20 (JPSS-1)
#Configuration: NOAA 20
#almurnet v.1.7.20251203
#Start time: 2026-01-10 18:18:51

#Version: 2.2.20231116
#Station: R4.6S_Anadyr
#Location: 177.4865 lon 64.73178 lat
#TLE: 1 43013U 17073A   26009.69119415  .00000109  00000+0  72598-4 0  9996
#TLE: 2 43013  98.7631 310.6868 0001678  46.7442 313.3874 14.19534878421981

#Time	Az	El	Level	Level2	SNR	BER	BlckErr	Temp	State	Recorded	gain1	gain2
2026-01-10 18:18:51.17	39.29	0.11	-48.1	-63.0	3.5	1.51e+00	0	26	0	0	60	51143
2026-01-10 18:18:52.18	39.22	0.16	-48.1	-63.4	3.6	1.51e+00	0	27	104	0	60	53247
2026-01-10 18:18:53.19	39.15	0.22	-48.1	-63.3	3.6	1.51e+00	0	27	104	0	60	52938
2026-01-10 18:18:54.20	39.08	0.27	-48.2	-63.4	3.6	1.51e+00	0	27	104	0	60	53283
2026-01-10 18:18:55.21	39.01	0.32	-48.2	-63.4	3.6	1.51e+00	0	27	104	0	60	53390
2026-01-10 18:18:56.22	38.94	0.37	-48.3	-63.5	3.6	1.51e+00	0	27	104	0	60	53868
2026-01-10 18:18:57.23	38.87	0.42	-48.2	-63.4	3.6	1.51e+00	0	27	104	0	60	53461
2026-01-10 18:18:58.24	38.79	0.47	-48.2	-63.4	3.6	1.51e+00	0	27	104	0	60	53291
2026-01-10 18:18:59.25	38.72	0.52	-48.1	-63.3	3.6	1.51e+00	0	27	104	0	60	52776
2026-01-10 18:19:00.26	38.65	0.57	-48.1	-63.2	3.6	1.51e+00	0	27	104	0	60	52390
2026-01-10 18:19:01.27	38.58	0.62	-48.0	-63.2	3.6	1.51e+00	0	27	104	0	60	52412
2026-01-10 18:19:02.28	38.50	0.67	-48.0	-63.2	3.6	1.51e+00	0	27	104	0	60	51969
2026-01-10 18:19:03.28	38.43	0.73	-47.9	-63.0	3.6	1.51e+00	0	27	104	0	60	51198
2026-01-10 18:19:04.29	38.36	0.78	-47.7	-62.9	3.6	1.51e+00	0	27	104	0	60	50386
2026-01-10 18:19:05.30	38.28	0.83	-47.5	-62.7	3.6	1.51e+00	0	27	104	0	60	49124
2026-01-10 18:19:06.31	38.21	0.88	-47.2	-62.3	3.5	1.51e+00	0	27	104	0	60	47317
2026-01-10 18:19:07.32	38.13	0.93	-46.6	-61.8	3.6	1.51e+00	0	27	104	0	60	44243
2026-01-10 18:19:08.33	38.06	0.98	-46.5	-61.7	3.6	1.51e+00	0	27	104	0	60	43741
2026-01-10 18:19:09.34	37.98	1.03	-46.5	-61.6	3.6	1.51e+00	0	27	104	0	60	43522
2026-01-10 18:19:10.35	37.91	1.09	-46.5	-61.6	3.6	1.51e+00	0	27	104	0	60	43553
2026-01-10 18:19:11.36	37.83	1.14	-46.5	-61.6	3.6	1.51e+00	0	27	104	0	60	43348
2026-01-10 18:19:12.37	37.76	1.19	-46.5	-61.6	3.6	1.51e+00	0	27	104	0	60	43651
2026-01-10 18:19:13.38	37.68	1.24	-46.5	-61.6	3.6	1.51e+00	0	27	104	0	60	43576
2026-01-10 18:19:14.39	37.60	1.29	-46.5	-61.6	3.6	1.51e+00	0	27	104	0	60	43262
2026-01-10 18:19:15.40	37.53	1.34	-46.5	-61.6	3.6	1.51e+00	0	27	104	0	60	43328
2026-01-10 18:19:16.41	37.45	1.40	-46.5	-61.6	3.6	1.51e+00	0	27	104	0	60	43405
2026-01-10 18:19:17.41	37.37	1.45	-46.5	-61.6	3.6	1.51e+00	0	27	104	0	60	43390
2026-01-10 18:19:18.42	37.30	1.50	-46.5	-61.6	3.6	1.51e+00	0	27	104	0	60	43319
2026-01-10 18:19:19.43	37.22	1.55	-46.5	-61.5	3.6	1.51e+00	0	27	104	0	60	43190
2026-01-10 18:19:20.44	37.14	1.60	-46.5	-61.6	3.6	1.51e+00	0	27	104	0	60	43243
2026-01-10 18:19:21.45	37.06	1.65	-46.4	-61.6	3.6	1.51e+00	0	27	104	0	60	43287
2026-01-10 18:19:22.46	36.98	1.71	-46.5	-61.6	3.6	1.51e+00	0	27	104	0	60	43328
2026-01-10 18:19:23.47	36.90	1.76	-46.5	-61.6	3.6	1.51e+00	0	27	104	0	60	43524
2026-01-10 18:19:24.48	36.82	1.81	-46.5	-61.6	3.6	1.51e+00	0	28	104	0	60	43277
2026-01-10 18:19:25.49	36.74	1.86	-46.4	-61.6	3.6	1.51e+00	0	27	104	0	60	43421
2026-01-10 18:19:26.50	36.66	1.92	-46.4	-61.6	3.6	1.51e+00	0	27	104	0	60	43374
2026-01-10 18:19:27.51	36.58	1.97	-46.5	-61.5	3.6	1.51e+00	0	27	104	0	60	43175
2026-01-10 18:19:28.52	36.50	2.02	-46.4	-61.5	3.6	1.51e+00	0	27	104	0	60	42787
2026-01-10 18:19:29.53	36.42	2.07	-46.4	-61.4	3.6	1.51e+00	0	27	104	0	60	42233
2026-01-10 18:19:30.54	36.34	2.12	-46.4	-61.3	3.6	1.51e+00	0	27	104	0	60	41802
2026-01-10 18:19:31.55	36.26	2.18	-46.4	-61.2	3.6	1.51e+00	0	28	104	0	60	41688
2026-01-10 18:19:32.56	36.18	2.23	-46.4	-61.4	3.6	1.51e+00	0	28	104	0	60	42706
2026-01-10 18:19:33.58	36.09	2.28	-46.4	-61.6	3.6	1.51e+00	0	27	104	0	60	43256
2026-01-10 18:19:34.59	36.01	2.33	-46.4	-61.6	3.6	1.51e+00	0	27	104	0	60	43512
2026-01-10 18:19:35.60	35.93	2.39	-46.4	-61.6	3.6	1.51e+00	0	28	104	0	60	43208
2026-01-10 18:19:36.61	35.85	2.44	-46.4	-61.5	3.6	1.51e+00	0	28	104	0	60	42984
2026-01-10 18:19:37.62	35.76	2.49	-46.4	-61.5	3.6	1.51e+00	0	28	104	0	60	42874
2026-01-10 18:19:38.63	35.68	2.55	-46.4	-61.6	3.6	1.51e+00	0	28	104	0	60	43397
2026-01-10 18:19:39.64	35.60	2.60	-46.4	-61.5	3.6	1.51e+00	0	28	104	0	60	42744
2026-01-10 18:19:40.65	35.51	2.65	-46.4	-61.0	3.5	1.51e+00	0	27	104	0	60	40539
2026-01-10 18:19:41.66	35.43	2.70	-46.4	-60.5	3.6	1.51e+00	0	27	104	0	60	38463
2026-01-10 18:19:42.67	35.34	2.76	-46.4	-60.7	3.6	1.51e+00	0	28	104	0	60	39312
2026-01-10 18:19:43.68	35.26	2.81	-46.4	-61.2	3.5	1.51e+00	0	28	104	0	60	41579
2026-01-10 18:19:44.69	35.17	2.86	-46.4	-60.7	3.6	1.51e+00	0	27	104	0	60	39245
2026-01-10 18:19:45.70	35.09	2.92	-46.2	-57.7	4.2	1.47e+00	0	27	104	0	60	27613
2026-01-10 18:19:46.71	35.00	2.97	-45.8	-53.4	6.1	6.80e-01	0	27	0	1048576	60	16844
2026-01-10 18:19:47.72	34.91	3.02	-45.3	-51.2	8.7	7.33e-02	7	28	0	3145728	60	13138
2026-01-10 18:19:48.73	34.83	3.08	-44.6	-49.1	11.1	3.60e-03	7	28	0	5242880	60	10270
2026-01-10 18:19:49.74	34.74	3.13	-45.9	-53.3	5.5	6.52e-04	0	28	0	6291456	60	16790
2026-01-10 18:19:50.74	34.65	3.18	-44.5	-48.9	12.2	2.19e-01	0	27	104	7340032	60	10123
2026-01-10 18:19:51.75	34.57	3.23	-46.3	-59.7	3.5	7.29e-03	0	27	104	8388608	60	34936
2026-01-10 18:19:52.76	34.48	3.29	-46.2	-56.6	3.9	1.51e+00	0	28	104	8388608	60	24465
2026-01-10 18:19:53.78	34.39	3.34	-41.9	-44.0	16.5	7.93e-01	19	27	0	8388608	56	7222
2026-01-10 18:19:54.78	34.30	3.39	-42.6	-45.2	15.5	7.00e-07	6	28	0	10485760	58	7405
2026-01-10 18:19:55.79	34.21	3.45	-42.4	-44.9	15.4	0.00e+00	0	27	0	11534336	58	7124
2026-01-10 18:19:56.80	34.12	3.50	-42.8	-45.5	15.4	0.00e+00	0	28	0	13631488	58	7629
2026-01-10 18:19:57.81	34.03	3.55	-42.5	-45.1	15.4	0.00e+00	0	28	0	15728640	58	7296
2026-01-10 18:19:58.82	33.94	3.61	-42.0	-44.3	16.4	0.00e+00	91	28	0	17825792	58	6650
2026-01-10 18:19:59.83	33.85	3.66	-41.9	-44.1	16.7	0.00e+00	0	28	0	19922944	58	6513
2026-01-10 18:20:00.83	33.76	3.71	-41.8	-43.9	17.0	0.00e+00	92	27	0	20971520	56	7092
2026-01-10 18:20:01.84	33.67	3.77	-41.7	-43.7	17.1	0.00e+00	0	27	0	23068672	56	6999
2026-01-10 18:20:02.85	33.58	3.82	-41.7	-43.7	17.3	0.00e+00	81	27	0	25165824	56	6975
2026-01-10 18:20:03.86	33.49	3.88	-41.9	-43.9	17.0	0.00e+00	0	27	0	27262976	56	7161
2026-01-10 18:20:04.87	33.39	3.93	-41.8	-43.9	16.9	0.00e+00	80	27	0	29360128	56	7134
2026-01-10 18:20:05.88	33.30	3.98	-41.4	-43.3	17.6	0.00e+00	0	27	0	30408704	56	6664
2026-01-10 18:20:06.89	33.21	4.04	-41.7	-43.8	17.0	0.00e+00	0	27	0	32505856	56	7028
2026-01-10 18:20:07.90	33.12	4.09	-41.7	-43.8	17.1	0.00e+00	91	27	0	34603008	56	7016
2026-01-10 18:20:08.91	33.02	4.14	-41.5	-43.5	17.5	0.00e+00	0	27	0	36700160	56	6791
2026-01-10 18:20:09.92	32.93	4.20	-41.3	-43.1	17.8	0.00e+00	2	27	0	38797312	56	6512
2026-01-10 18:20:10.93	32.83	4.25	-41.2	-43.0	18.0	0.00e+00	0	27	0	39845888	56	6418
2026-01-10 18:20:11.94	32.74	4.31	-41.0	-42.7	18.1	0.00e+00	0	27	0	41943040	56	6218
2026-01-10 18:20:12.95	32.64	4.36	-41.1	-42.8	18.2	0.00e+00	0	27	0	44040192	56	6290
2026-01-10 18:20:13.96	32.55	4.41	-41.2	-43.0	18.0	0.00e+00	0	27	0	46137344	56	6463
2026-01-10 18:20:14.97	32.45	4.47	-41.2	-43.0	18.1	0.00e+00	92	27	0	48234496	56	6396
2026-01-10 18:20:15.98	32.36	4.52	-41.2	-43.0	18.0	0.00e+00	0	27	0	49283072	56	6395
2026-01-10 18:20:16.99	32.26	4.58	-41.2	-43.0	18.1	0.00e+00	92	27	0	51380224	56	6391
2026-01-10 18:20:18.00	32.16	4.63	-40.8	-42.5	18.5	0.00e+00	0	27	0	53477376	56	6072
2026-01-10 18:20:19.01	32.07	4.69	-40.6	-42.2	18.6	0.00e+00	4	27	0	55574528	54	6614
2026-01-10 18:20:20.02	31.97	4.74	-40.9	-42.5	18.4	0.00e+00	0	27	0	57671680	54	6821
2026-01-10 18:20:21.03	31.87	4.79	-41.2	-43.0	17.9	0.00e+00	82	27	0	58720256	54	7227
2026-01-10 18:20:22.04	31.77	4.85	-41.4	-43.3	17.7	0.00e+00	92	27	0	60817408	54	7448
2026-01-10 18:20:23.05	31.67	4.90	-41.1	-42.8	18.2	0.00e+00	0	27	0	62914560	54	7075
2026-01-10 18:20:24.06	31.57	4.96	-41.0	-42.7	18.3	0.00e+00	92	28	0	65011712	54	6958
2026-01-10 18:20:25.07	31.47	5.01	-41.0	-42.7	18.3	0.00e+00	0	27	0	67108864	54	6929
2026-01-10 18:20:26.07	31.38	5.07	-41.0	-42.6	18.4	0.00e+00	0	28	0	68157440	54	6923
2026-01-10 18:20:27.08	31.28	5.12	-41.0	-42.8	18.2	0.00e+00	3	27	0	70254592	54	7022
2026-01-10 18:20:28.09	31.17	5.17	-41.0	-42.7	18.3	0.00e+00	0	27	0	72351744	54	6979
2026-01-10 18:20:29.10	31.07	5.23	-40.9	-42.5	18.5	0.00e+00	61	27	0	74448896	54	6831
2026-01-10 18:20:30.11	30.97	5.28	-40.9	-42.5	18.5	0.00e+00	0	28	0	76546048	54	6815
2026-01-10 18:20:31.12	30.87	5.34	-40.9	-42.5	18.4	0.00e+00	91	27	0	78643200	54	6840
2026-01-10 18:20:32.13	30.77	5.39	-40.9	-42.6	18.5	0.00e+00	0	27	0	79691776	54	6875
2026-01-10 18:20:33.14	30.66	5.45	-40.9	-42.6	18.5	0.00e+00	80	27	0	81788928	54	6883
2026-01-10 18:20:34.15	30.56	5.50	-40.9	-42.5	18.5	0.00e+00	0	28	0	83886080	54	6841
2026-01-10 18:20:35.16	30.46	5.56	-41.0	-42.7	18.4	0.00e+00	0	27	0	85983232	54	7005
2026-01-10 18:20:36.17	30.35	5.61	-40.9	-42.5	18.5	0.00e+00	2	27	0	88080384	54	6825
2026-01-10 18:20:37.18	30.25	5.67	-40.8	-42.4	18.7	0.00e+00	81	28	0	89128960	54	6716
2026-01-10 18:20:38.19	30.15	5.72	-40.9	-42.5	18.6	0.00e+00	90	28	0	91226112	54	6817
2026-01-10 18:20:39.20	30.04	5.78	-40.8	-42.4	18.7	0.00e+00	0	27	0	93323264	54	6733
2026-01-10 18:20:40.21	29.94	5.83	-40.8	-42.4	18.7	0.00e+00	90	27	0	95420416	54	6708
2026-01-10 18:20:41.22	29.83	5.88	-40.8	-42.4	18.8	0.00e+00	0	28	0	97517568	54	6701
2026-01-10 18:20:42.23	29.72	5.94	-40.7	-42.3	18.9	0.00e+00	2	27	0	98566144	54	6666
2026-01-10 18:20:43.24	29.62	5.99	-40.8	-42.4	18.8	0.00e+00	0	27	0	100663296	54	6727
2026-01-10 18:20:44.25	29.51	6.05	-40.7	-42.3	18.9	0.00e+00	82	27	0	102760448	54	6648
2026-01-10 18:20:45.26	29.40	6.10	-40.7	-42.3	18.8	0.00e+00	91	27	0	104857600	54	6672
2026-01-10 18:20:46.27	29.29	6.16	-40.9	-42.5	18.7	0.00e+00	0	27	0	106954752	54	6792
2026-01-10 18:20:47.28	29.19	6.21	-40.9	-42.5	18.6	0.00e+00	92	27	0	108003328	54	6799
2026-01-10 18:20:48.29	29.08	6.27	-40.9	-42.5	18.7	0.00e+00	0	27	0	110100480	54	6814
2026-01-10 18:20:49.30	28.97	6.32	-40.8	-42.4	18.7	0.00e+00	2	27	0	112197632	54	6759
2026-01-10 18:20:50.31	28.86	6.38	-40.8	-42.4	18.8	0.00e+00	0	27	0	114294784	54	6747
2026-01-10 18:20:51.32	28.75	6.43	-40.6	-42.2	19.0	0.00e+00	0	28	0	116391936	54	6562
2026-01-10 18:20:52.33	28.64	6.49	-40.7	-42.3	18.8	0.00e+00	92	27	0	117440512	54	6667
2026-01-10 18:20:53.34	28.53	6.54	-40.5	-42.1	19.0	0.00e+00	2	27	0	119537664	54	6474
2026-01-10 18:20:54.35	28.41	6.60	-40.5	-42.1	19.1	0.00e+00	92	27	0	121634816	54	6485
2026-01-10 18:20:55.36	28.30	6.65	-40.4	-41.9	19.3	0.00e+00	0	27	0	123731968	54	6351
2026-01-10 18:20:56.37	28.19	6.71	-40.5	-42.0	19.2	0.00e+00	76	27	0	125829120	54	6435
2026-01-10 18:20:57.37	28.08	6.76	-40.4	-41.9	19.3	0.00e+00	2	27	0	126877696	54	6388
2026-01-10 18:20:58.38	27.97	6.82	-40.3	-41.7	19.5	0.00e+00	0	27	0	128974848	54	6222
2026-01-10 18:20:59.39	27.85	6.87	-40.1	-41.6	19.7	0.00e+00	87	27	0	131072000	54	6108
2026-01-10 18:21:00.40	27.74	6.93	-40.1	-41.6	19.7	0.00e+00	80	27	0	133169152	54	6105
2026-01-10 18:21:01.41	27.62	6.98	-40.0	-41.4	19.8	0.00e+00	92	28	0	135266304	54	6001
2026-01-10 18:21:02.42	27.51	7.04	-40.0	-41.4	19.8	0.00e+00	81	27	0	136314880	54	6032
2026-01-10 18:21:03.43	27.39	7.09	-40.1	-41.5	19.6	0.00e+00	92	27	0	138412032	54	6083
2026-01-10 18:21:04.44	27.28	7.15	-40.2	-41.6	19.2	0.00e+00	81	27	0	140509184	54	6120
2026-01-10 18:21:05.45	27.16	7.20	-39.9	-41.2	19.7	0.00e+00	82	27	0	142606336	54	5872
2026-01-10 18:21:06.46	27.04	7.26	-39.8	-41.2	20.0	0.00e+00	0	28	0	144703488	54	5848
2026-01-10 18:21:07.47	26.93	7.32	-39.8	-41.2	20.0	0.00e+00	0	28	0	146800640	54	5855
2026-01-10 18:21:08.48	26.81	7.37	-39.8	-41.2	20.0	0.00e+00	90	27	0	147849216	54	5843
2026-01-10 18:21:09.49	26.69	7.43	-39.9	-41.3	20.0	0.00e+00	0	27	0	149946368	54	5912
2026-01-10 18:21:10.50	26.57	7.48	-39.9	-41.2	20.1	0.00e+00	90	27	0	152043520	54	5892
2026-01-10 18:21:11.51	26.45	7.54	-39.9	-41.2	20.1	0.00e+00	0	27	0	154140672	54	5886
2026-01-10 18:21:12.52	26.33	7.59	-39.9	-41.2	20.0	0.00e+00	0	28	0	156237824	54	5888
2026-01-10 18:21:13.53	26.21	7.65	-39.8	-41.1	20.2	0.00e+00	6	27	0	157286400	54	5823
2026-01-10 18:21:14.54	26.09	7.70	-39.8	-41.1	20.2	0.00e+00	0	28	0	159383552	52	6501
2026-01-10 18:21:15.55	25.97	7.76	-39.7	-41.0	20.4	0.00e+00	92	27	0	161480704	52	6413
2026-01-10 18:21:16.56	25.85	7.81	-39.8	-41.1	20.1	0.00e+00	7	27	0	163577856	52	6491
2026-01-10 18:21:17.57	25.73	7.87	-39.5	-40.8	20.6	0.00e+00	92	28	0	165675008	52	6259
2026-01-10 18:21:18.58	25.61	7.92	-39.5	-40.7	20.6	0.00e+00	0	28	0	166723584	52	6241
2026-01-10 18:21:19.59	25.49	7.98	-39.5	-40.7	20.6	0.00e+00	0	27	0	168820736	52	6224
2026-01-10 18:21:20.60	25.36	8.03	-39.3	-40.5	20.7	0.00e+00	0	27	0	170917888	52	6098
2026-01-10 18:21:21.61	25.24	8.09	-39.4	-40.7	20.8	0.00e+00	0	27	0	173015040	52	6194
2026-01-10 18:21:22.62	25.11	8.14	-39.3	-40.5	20.8	0.00e+00	0	28	0	175112192	52	6088
2026-01-10 18:21:23.62	24.99	8.20	-39.4	-40.7	20.8	0.00e+00	81	28	0	176160768	52	6184
2026-01-10 18:21:24.63	24.87	8.25	-39.6	-40.8	20.5	0.00e+00	92	27	0	178257920	52	6303
2026-01-10 18:21:25.64	24.74	8.31	-39.4	-40.6	20.6	0.00e+00	86	27	0	180355072	52	6154
2026-01-10 18:21:26.65	24.61	8.36	-39.6	-40.9	20.5	0.00e+00	92	27	0	182452224	52	6342
2026-01-10 18:21:27.66	24.49	8.42	-39.5	-40.7	20.6	0.00e+00	86	27	0	184549376	52	6210
2026-01-10 18:21:28.67	24.36	8.47	-39.6	-40.9	20.5	0.00e+00	86	27	0	185597952	52	6336
2026-01-10 18:21:29.68	24.23	8.53	-39.5	-40.8	20.6	0.00e+00	0	27	0	187695104	52	6280
2026-01-10 18:21:30.69	24.10	8.58	-39.6	-40.9	20.6	0.00e+00	6	28	0	189792256	52	6372
2026-01-10 18:21:31.70	23.98	8.64	-39.5	-40.8	20.6	0.00e+00	90	28	0	191889408	52	6263
2026-01-10 18:21:32.71	23.85	8.69	-39.5	-40.8	20.6	0.00e+00	0	28	0	193986560	52	6263
2026-01-10 18:21:33.72	23.72	8.75	-39.6	-40.8	20.5	0.00e+00	91	28	0	195035136	52	6304
2026-01-10 18:21:34.73	23.59	8.80	-39.6	-40.9	20.5	0.00e+00	0	28	0	197132288	52	6375
2026-01-10 18:21:35.74	23.46	8.86	-39.5	-40.7	20.6	0.00e+00	5	27	0	199229440	52	6236
2026-01-10 18:21:36.76	23.32	8.91	-39.4	-40.7	20.6	0.00e+00	0	28	0	201326592	52	6202
2026-01-10 18:21:37.76	23.19	8.97	-39.5	-40.7	20.7	0.00e+00	0	28	0	203423744	52	6228
2026-01-10 18:21:38.77	23.06	9.02	-39.4	-40.6	20.8	0.00e+00	67	28	0	204472320	52	6132
2026-01-10 18:21:39.78	22.93	9.08	-39.4	-40.7	20.8	0.00e+00	0	28	0	206569472	52	6198
2026-01-10 18:21:40.79	22.80	9.13	-39.2	-40.5	21.0	0.00e+00	91	28	0	208666624	52	6034
2026-01-10 18:21:41.80	22.66	9.19	-39.4	-40.6	20.8	0.00e+00	81	28	0	210763776	52	6130
2026-01-10 18:21:42.81	22.53	9.24	-39.3	-40.5	20.9	0.00e+00	81	27	0	212860928	52	6065
2026-01-10 18:21:43.83	22.39	9.30	-39.3	-40.5	20.9	0.00e+00	81	27	0	214958080	52	6060
2026-01-10 18:21:44.84	22.26	9.35	-39.3	-40.5	21.0	0.00e+00	80	27	0	216006656	52	6051
2026-01-10 18:21:45.84	22.12	9.41	-39.2	-40.4	21.0	0.00e+00	64	27	0	218103808	52	5997
2026-01-10 18:21:46.85	21.99	9.46	-39.2	-40.4	21.1	0.00e+00	81	27	0	220200960	52	5973
2026-01-10 18:21:47.87	21.85	9.52	-39.2	-40.4	21.0	0.00e+00	92	27	0	222298112	52	6006
2026-01-10 18:21:48.87	21.71	9.57	-39.3	-40.5	20.9	0.00e+00	81	27	0	224395264	52	6037
2026-01-10 18:21:49.88	21.57	9.62	-39.3	-40.5	21.0	0.00e+00	92	27	0	225443840	52	6048
2026-01-10 18:21:50.89	21.44	9.68	-39.2	-40.4	21.1	0.00e+00	2	27	0	227540992	52	6008
2026-01-10 18:21:51.90	21.30	9.73	-39.3	-40.5	20.9	0.00e+00	0	27	0	229638144	52	6077
2026-01-10 18:21:52.91	21.16	9.79	-39.2	-40.4	21.0	0.00e+00	0	27	0	231735296	52	6018
2026-01-10 18:21:53.92	21.02	9.84	-39.1	-40.3	21.1	0.00e+00	0	27	0	233832448	52	5926
2026-01-10 18:21:54.93	20.88	9.90	-39.2	-40.4	20.9	0.00e+00	92	27	0	234881024	52	6013
2026-01-10 18:21:55.94	20.74	9.95	-39.2	-40.4	21.1	0.00e+00	0	27	0	236978176	52	5974
2026-01-10 18:21:56.95	20.59	10.00	-39.1	-40.3	21.1	0.00e+00	92	27	0	239075328	52	5946
2026-01-10 18:21:57.96	20.45	10.06	-39.2	-40.4	21.0	0.00e+00	0	27	0	241172480	52	6023
2026-01-10 18:21:58.97	20.31	10.11	-39.3	-40.5	21.0	0.00e+00	0	27	0	243269632	52	6056
2026-01-10 18:21:59.98	20.17	10.17	-39.2	-40.4	21.1	0.00e+00	2	27	0	244318208	52	6002
2026-01-10 18:22:00.99	20.02	10.22	-39.3	-40.5	21.1	0.00e+00	0	27	0	246415360	52	6044
2026-01-10 18:22:02.00	19.88	10.27	-39.3	-40.5	21.0	0.00e+00	92	27	0	248512512	52	6073
2026-01-10 18:22:03.01	19.73	10.33	-39.3	-40.5	20.9	0.00e+00	0	27	0	250609664	52	6098
2026-01-10 18:22:04.02	19.59	10.38	-39.2	-40.4	21.1	0.00e+00	92	27	0	252706816	52	5991
2026-01-10 18:22:05.03	19.44	10.44	-39.1	-40.3	21.2	0.00e+00	0	27	0	253755392	52	5930
2026-01-10 18:22:06.04	19.30	10.49	-39.1	-40.3	21.2	0.00e+00	81	27	0	255852544	52	5956
2026-01-10 18:22:07.05	19.15	10.54	-39.2	-40.4	21.2	0.00e+00	0	27	0	257949696	52	5966
2026-01-10 18:22:08.06	19.00	10.60	-39.2	-40.4	21.1	0.00e+00	0	27	0	260046848	52	6020
2026-01-10 18:22:09.07	18.85	10.65	-39.2	-40.4	21.1	0.00e+00	0	27	0	262144000	52	5998
2026-01-10 18:22:10.08	18.71	10.70	-39.1	-40.2	21.2	0.00e+00	0	27	0	263192576	52	5883
2026-01-10 18:22:11.09	18.56	10.76	-39.2	-40.3	21.2	0.00e+00	91	27	0	265289728	52	5954
2026-01-10 18:22:12.10	18.41	10.81	-39.0	-40.2	21.3	0.00e+00	0	27	0	267386880	52	5840
2026-01-10 18:22:13.11	18.26	10.86	-39.0	-40.2	21.3	0.00e+00	92	27	0	269484032	52	5831
2026-01-10 18:22:14.12	18.11	10.92	-39.0	-40.2	21.1	0.00e+00	0	27	0	271581184	52	5858
2026-01-10 18:22:15.13	17.95	10.97	-39.0	-40.1	21.3	0.00e+00	0	27	0	272629760	52	5789
2026-01-10 18:22:16.14	17.80	11.02	-39.2	-40.3	21.2	0.00e+00	2	27	0	274726912	52	5953
2026-01-10 18:22:17.15	17.65	11.07	-39.2	-40.3	21.2	0.00e+00	0	27	0	276824064	52	5951
2026-01-10 18:22:18.16	17.50	11.13	-39.3	-40.5	21.0	0.00e+00	92	28	0	278921216	52	6068
2026-01-10 18:22:19.17	17.34	11.18	-39.4	-40.6	20.9	0.00e+00	0	28	0	281018368	52	6150
2026-01-10 18:22:20.18	17.19	11.23	-39.3	-40.4	21.1	0.00e+00	92	27	0	283115520	52	6028
2026-01-10 18:22:21.19	17.03	11.28	-39.2	-40.4	21.1	0.00e+00	0	27	0	284164096	52	6016
2026-01-10 18:22:22.20	16.88	11.34	-39.0	-40.2	21.3	0.00e+00	81	27	0	286261248	52	5859
2026-01-10 18:22:23.21	16.72	11.39	-39.1	-40.2	21.3	0.00e+00	82	27	0	288358400	52	5858
2026-01-10 18:22:24.22	16.57	11.44	-38.9	-40.1	21.5	0.00e+00	0	27	0	290455552	52	5780
2026-01-10 18:22:25.22	16.41	11.49	-39.0	-40.2	21.4	0.00e+00	90	27	0	292552704	52	5835
2026-01-10 18:22:26.23	16.25	11.54	-39.0	-40.1	21.5	0.00e+00	0	27	0	293601280	52	5792
2026-01-10 18:22:27.24	16.09	11.60	-38.9	-40.1	21.6	0.00e+00	92	27	0	295698432	52	5765
2026-01-10 18:22:28.25	15.94	11.65	-38.8	-39.9	21.5	0.00e+00	81	27	0	297795584	50	6382
2026-01-10 18:22:29.26	15.78	11.70	-38.7	-39.8	21.7	0.00e+00	82	27	0	299892736	50	6276
2026-01-10 18:22:30.27	15.62	11.75	-38.6	-39.7	21.9	0.00e+00	0	27	0	301989888	50	6176
2026-01-10 18:22:31.28	15.46	11.80	-38.6	-39.7	21.7	0.00e+00	81	27	0	303038464	50	6217
2026-01-10 18:22:32.29	15.30	11.85	-38.6	-39.7	21.9	0.00e+00	80	27	0	305135616	50	6178
2026-01-10 18:22:33.30	15.13	11.91	-38.5	-39.6	21.8	0.00e+00	0	27	0	307232768	50	6162
2026-01-10 18:22:34.31	14.97	11.96	-38.5	-39.6	21.9	0.00e+00	90	27	0	309329920	50	6106
2026-01-10 18:22:35.32	14.81	12.01	-38.4	-39.4	22.0	0.00e+00	0	27	0	311427072	50	6011
2026-01-10 18:22:36.33	14.65	12.06	-38.3	-39.3	22.1	0.00e+00	90	27	0	312475648	50	5929
2026-01-10 18:22:37.34	14.48	12.11	-38.2	-39.2	22.2	0.00e+00	0	27	0	314572800	50	5847
2026-01-10 18:22:38.35	14.32	12.16	-38.1	-39.1	22.4	0.00e+00	0	27	0	316669952	50	5797
2026-01-10 18:22:39.36	14.15	12.21	-37.9	-38.9	22.5	0.00e+00	2	27	0	318767104	50	5691
2026-01-10 18:22:40.37	13.99	12.26	-37.8	-38.7	22.6	0.00e+00	0	27	0	320864256	50	5561
2026-01-10 18:22:41.38	13.82	12.31	-37.8	-38.8	22.6	0.00e+00	92	27	0	321912832	48	6252
2026-01-10 18:22:42.39	13.65	12.36	-37.7	-38.7	22.7	0.00e+00	0	27	0	324009984	48	6221
2026-01-10 18:22:43.40	13.49	12.41	-37.8	-38.7	22.8	0.00e+00	92	27	0	326107136	48	6244
2026-01-10 18:22:44.41	13.32	12.46	-37.6	-38.6	22.8	0.00e+00	81	27	0	328204288	48	6126
2026-01-10 18:22:45.42	13.15	12.51	-37.7	-38.6	22.8	0.00e+00	0	27	0	330301440	48	6166
2026-01-10 18:22:46.43	12.98	12.56	-37.7	-38.7	22.8	0.00e+00	81	27	0	331350016	48	6208
2026-01-10 18:22:47.44	12.81	12.61	-37.6	-38.5	22.9	0.00e+00	0	27	0	333447168	48	6099
2026-01-10 18:22:48.45	12.64	12.66	-37.6	-38.6	22.9	0.00e+00	92	27	0	335544320	48	6111
2026-01-10 18:22:49.46	12.47	12.71	-37.7	-38.7	22.7	0.00e+00	80	27	0	337641472	48	6207
2026-01-10 18:22:50.47	12.30	12.76	-37.7	-38.7	22.7	0.00e+00	90	27	0	339738624	48	6200
2026-01-10 18:22:51.48	12.13	12.80	-37.7	-38.7	22.8	0.00e+00	0	27	0	340787200	48	6221
2026-01-10 18:22:52.49	11.95	12.85	-37.7	-38.7	22.7	0.00e+00	7	27	0	342884352	48	6232
2026-01-10 18:22:53.50	11.78	12.90	-37.5	-38.5	22.9	0.00e+00	6	27	0	344981504	48	6041
2026-01-10 18:22:54.51	11.61	12.95	-37.5	-38.5	23.0	0.00e+00	0	27	0	347078656	48	6060
2026-01-10 18:22:55.52	11.43	13.00	-37.6	-38.6	22.9	0.00e+00	0	27	0	349175808	48	6112
2026-01-10 18:22:56.53	11.26	13.05	-37.4	-38.4	23.1	0.00e+00	0	27	0	351272960	48	5998
2026-01-10 18:22:57.54	11.08	13.09	-37.2	-38.2	23.2	0.00e+00	92	27	0	352321536	48	5835
2026-01-10 18:22:58.55	10.91	13.14	-37.4	-38.3	23.0	0.00e+00	5	27	0	354418688	48	5943
2026-01-10 18:22:59.55	10.73	13.19	-37.4	-38.3	23.1	0.00e+00	6	27	0	356515840	48	5959
2026-01-10 18:23:00.56	10.55	13.23	-37.2	-38.2	23.3	0.00e+00	5	27	0	358612992	48	5834
2026-01-10 18:23:01.57	10.38	13.28	-37.0	-38.0	23.4	0.00e+00	5	27	0	360710144	48	5703
2026-01-10 18:23:02.58	10.20	13.33	-36.9	-37.9	23.5	0.00e+00	5	27	0	361758720	48	5635
2026-01-10 18:23:03.59	10.02	13.38	-37.0	-37.9	23.5	0.00e+00	87	27	0	363855872	48	5655
2026-01-10 18:23:04.60	9.84	13.42	-36.9	-37.8	23.5	0.00e+00	92	27	0	365953024	48	5592
2026-01-10 18:23:05.61	9.66	13.47	-36.9	-37.8	22.7	0.00e+00	0	27	0	368050176	48	5598
2026-01-10 18:23:06.62	9.48	13.51	-36.8	-37.7	23.6	0.00e+00	92	27	0	370147328	48	5566
2026-01-10 18:23:07.63	9.30	13.56	-36.9	-37.7	23.5	0.00e+00	0	27	0	371195904	48	5563
2026-01-10 18:23:08.64	9.12	13.61	-36.8	-37.7	23.6	0.00e+00	87	27	0	373293056	48	5552
2026-01-10 18:23:09.65	8.93	13.65	-36.9	-37.8	23.6	0.00e+00	2	27	0	375390208	48	5586
2026-01-10 18:23:10.66	8.75	13.70	-36.9	-37.8	23.5	0.00e+00	85	27	0	377487360	48	5626
2026-01-10 18:23:11.67	8.57	13.74	-36.9	-37.8	23.5	0.00e+00	0	27	0	379584512	48	5617
2026-01-10 18:23:12.68	8.38	13.79	-36.9	-37.8	23.5	0.00e+00	85	27	0	380633088	48	5614
2026-01-10 18:23:13.69	8.20	13.83	-36.7	-37.6	23.7	0.00e+00	92	27	0	382730240	46	6155
2026-01-10 18:23:14.70	8.01	13.88	-36.9	-37.8	23.6	0.00e+00	0	27	0	384827392	46	6268
2026-01-10 18:23:15.71	7.83	13.92	-36.8	-37.7	23.7	0.00e+00	7	27	0	386924544	46	6179
2026-01-10 18:23:16.72	7.64	13.96	-36.9	-37.8	23.6	0.00e+00	7	27	0	389021696	46	6255
2026-01-10 18:23:17.73	7.46	14.01	-36.8	-37.7	23.7	0.00e+00	6	27	0	390070272	46	6217
2026-01-10 18:23:18.74	7.27	14.05	-36.9	-37.8	23.5	0.00e+00	15	27	0	392167424	46	6301
2026-01-10 18:23:19.75	7.08	14.09	-37.1	-38.0	23.4	0.00e+00	0	27	0	394264576	46	6439
2026-01-10 18:23:20.76	6.89	14.14	-37.2	-38.1	23.3	0.00e+00	92	27	0	396361728	46	6511
2026-01-10 18:23:21.77	6.70	14.18	-37.3	-38.2	23.2	0.00e+00	0	27	0	398458880	46	6587
2026-01-10 18:23:22.78	6.51	14.22	-37.3	-38.2	23.2	0.00e+00	92	27	0	399507456	46	6592
2026-01-10 18:23:23.79	6.32	14.26	-37.1	-38.1	23.4	0.00e+00	0	27	0	401604608	46	6484
2026-01-10 18:23:24.80	6.13	14.31	-37.1	-38.1	23.4	0.00e+00	0	27	0	403701760	46	6475
2026-01-10 18:23:25.81	5.94	14.35	-37.2	-38.1	23.3	0.00e+00	0	27	0	405798912	46	6504
2026-01-10 18:23:26.82	5.75	14.39	-37.2	-38.2	23.4	0.00e+00	0	27	0	407896064	46	6554
2026-01-10 18:23:27.83	5.56	14.43	-37.2	-38.2	23.2	0.00e+00	92	27	0	408944640	46	6550
2026-01-10 18:23:28.84	5.36	14.47	-37.2	-38.1	23.4	0.00e+00	0	27	0	411041792	46	6518
2026-01-10 18:23:29.85	5.17	14.51	-37.2	-38.1	23.4	0.00e+00	92	27	0	413138944	46	6533
2026-01-10 18:23:30.85	4.98	14.55	-37.2	-38.1	23.3	0.00e+00	81	27	0	415236096	46	6520
2026-01-10 18:23:31.86	4.78	14.59	-37.0	-37.9	23.5	0.00e+00	0	27	0	417333248	46	6363
2026-01-10 18:23:32.88	4.59	14.63	-37.1	-38.0	23.5	0.00e+00	0	27	0	419430400	46	6394
2026-01-10 18:23:33.88	4.39	14.67	-37.0	-37.9	23.3	0.00e+00	0	27	0	420478976	46	6373
2026-01-10 18:23:34.89	4.20	14.71	-37.2	-38.1	23.4	0.00e+00	92	27	0	422576128	46	6481
2026-01-10 18:23:35.90	4.00	14.75	-37.1	-38.0	23.5	0.00e+00	2	27	0	424673280	46	6406
2026-01-10 18:23:36.91	3.80	14.79	-37.0	-37.9	23.5	0.00e+00	92	27	0	426770432	46	6353
2026-01-10 18:23:37.92	3.61	14.83	-37.0	-38.0	23.5	0.00e+00	0	27	0	428867584	46	6399
2026-01-10 18:23:38.93	3.41	14.87	-36.9	-37.8	23.7	0.00e+00	0	27	0	429916160	46	6251
2026-01-10 18:23:39.94	3.21	14.91	-36.8	-37.6	23.8	0.00e+00	2	27	0	432013312	46	6170
2026-01-10 18:23:40.95	3.01	14.94	-36.7	-37.6	23.8	0.00e+00	0	27	0	434110464	46	6112
2026-01-10 18:23:41.96	2.81	14.98	-36.8	-37.7	23.8	0.00e+00	0	27	0	436207616	46	6211
2026-01-10 18:23:42.97	2.61	15.02	-36.6	-37.5	23.9	0.00e+00	0	27	0	438304768	46	6083
2026-01-10 18:23:43.98	2.41	15.06	-36.8	-37.7	23.8	0.00e+00	92	27	0	439353344	46	6208
2026-01-10 18:23:44.99	2.21	15.09	-36.7	-37.5	23.9	0.00e+00	82	27	0	441450496	46	6093
2026-01-10 18:23:46.00	2.01	15.13	-36.6	-37.5	23.9	0.00e+00	82	27	0	443547648	46	6047
2026-01-10 18:23:47.00	1.81	15.16	-36.7	-37.5	23.6	0.00e+00	0	27	0	445644800	46	6098
2026-01-10 18:23:48.01	1.60	15.20	-36.5	-37.3	23.4	0.00e+00	81	27	0	447741952	46	5956
2026-01-10 18:23:49.02	1.40	15.24	-36.5	-37.4	24.0	0.00e+00	0	27	0	448790528	46	5980
2026-01-10 18:23:50.03	1.20	15.27	-36.6	-37.4	24.0	0.00e+00	0	27	0	450887680	46	6024
2026-01-10 18:23:51.04	0.99	15.31	-36.7	-37.6	23.8	0.00e+00	92	27	0	452984832	46	6144
2026-01-10 18:23:52.05	0.79	15.34	-36.8	-37.7	23.8	0.00e+00	0	27	0	455081984	46	6211
2026-01-10 18:23:53.06	0.58	15.37	-36.9	-37.8	23.7	0.00e+00	92	27	0	457179136	46	6247
2026-01-10 18:23:54.07	0.38	15.41	-36.6	-37.5	23.9	0.00e+00	0	27	0	458227712	46	6044
2026-01-10 18:23:55.08	0.17	15.44	-36.5	-37.3	24.1	0.00e+00	0	27	0	460324864	46	5938
2026-01-10 18:23:56.09	359.96	15.47	-36.6	-37.4	24.1	0.00e+00	0	27	0	462422016	46	6007
2026-01-10 18:23:57.10	359.76	15.51	-36.5	-37.3	24.0	0.00e+00	0	27	0	464519168	46	5960
2026-01-10 18:23:58.11	359.55	15.54	-36.6	-37.5	23.9	0.00e+00	66	27	0	466616320	46	6073
2026-01-10 18:23:59.12	359.34	15.57	-36.8	-37.7	23.8	0.00e+00	0	27	0	467664896	46	6192
2026-01-10 18:24:00.13	359.13	15.60	-36.7	-37.6	23.8	0.00e+00	90	27	0	469762048	46	6109
2026-01-10 18:24:01.14	358.92	15.64	-36.6	-37.5	23.9	0.00e+00	0	27	0	471859200	46	6077
2026-01-10 18:24:02.15	358.72	15.67	-36.8	-37.7	23.8	0.00e+00	53	27	0	473956352	46	6191
2026-01-10 18:24:03.16	358.51	15.70	-36.6	-37.4	24.0	0.00e+00	0	27	0	476053504	46	6014
2026-01-10 18:24:04.17	358.30	15.73	-36.5	-37.4	24.0	0.00e+00	0	27	0	477102080	46	5980
2026-01-10 18:24:05.18	358.08	15.76	-36.7	-37.5	23.9	0.00e+00	0	27	0	479199232	46	6102
2026-01-10 18:24:06.19	357.87	15.79	-36.7	-37.6	23.8	0.00e+00	81	27	0	481296384	46	6157
2026-01-10 18:24:07.20	357.66	15.82	-36.9	-37.8	23.7	0.00e+00	92	27	0	483393536	46	6284
2026-01-10 18:24:08.21	357.45	15.85	-36.9	-37.8	23.8	0.00e+00	0	27	0	485490688	46	6267
2026-01-10 18:24:09.22	357.24	15.87	-36.8	-37.7	23.8	0.00e+00	92	27	0	487587840	46	6238
2026-01-10 18:24:10.23	357.03	15.90	-36.8	-37.7	23.7	0.00e+00	2	27	0	488636416	46	6235
2026-01-10 18:24:11.24	356.81	15.93	-36.7	-37.6	23.8	0.00e+00	0	27	0	490733568	46	6158
2026-01-10 18:24:12.25	356.60	15.96	-36.8	-37.6	23.6	0.00e+00	0	27	0	492830720	46	6166
2026-01-10 18:24:13.26	356.39	15.99	-36.5	-37.4	23.9	0.00e+00	0	27	0	494927872	46	5982
2026-01-10 18:24:14.27	356.17	16.01	-36.6	-37.5	23.9	0.00e+00	91	27	0	497025024	46	6036
2026-01-10 18:24:15.28	355.96	16.04	-36.6	-37.5	23.9	0.00e+00	0	27	0	498073600	46	6081
2026-01-10 18:24:16.29	355.74	16.06	-36.8	-37.7	23.7	0.00e+00	90	27	0	500170752	46	6208
2026-01-10 18:24:17.30	355.53	16.09	-36.7	-37.6	23.9	0.00e+00	0	27	0	502267904	46	6135
2026-01-10 18:24:18.31	355.31	16.12	-36.6	-37.5	23.9	0.00e+00	0	27	0	504365056	46	6080
2026-01-10 18:24:19.32	355.09	16.14	-36.7	-37.5	24.0	0.00e+00	0	27	0	506462208	46	6091
2026-01-10 18:24:20.33	354.88	16.16	-36.4	-37.3	24.2	0.00e+00	0	27	0	507510784	46	5901
2026-01-10 18:24:21.34	354.66	16.19	-36.6	-37.4	24.0	0.00e+00	92	27	0	509607936	46	6017
2026-01-10 18:24:22.35	354.44	16.21	-36.6	-37.4	24.0	0.00e+00	0	27	0	511705088	46	6011
2026-01-10 18:24:23.36	354.23	16.24	-36.7	-37.6	23.9	0.00e+00	92	27	0	513802240	46	6135
2026-01-10 18:24:24.37	354.01	16.26	-36.8	-37.7	23.7	0.00e+00	0	27	0	515899392	46	6216
2026-01-10 18:24:25.38	353.79	16.28	-36.9	-37.8	23.7	0.00e+00	71	27	0	516947968	46	6247
2026-01-10 18:24:26.39	353.57	16.30	-37.1	-38.0	23.5	0.00e+00	0	27	0	519045120	46	6414
2026-01-10 18:24:27.40	353.35	16.32	-37.0	-37.9	23.7	0.00e+00	0	27	0	521142272	46	6319
2026-01-10 18:24:28.41	353.13	16.35	-37.0	-37.9	23.6	0.00e+00	0	27	0	523239424	46	6368
2026-01-10 18:24:29.42	352.91	16.37	-37.1	-38.0	23.6	0.00e+00	82	27	0	525336576	46	6426
2026-01-10 18:24:30.43	352.69	16.39	-37.3	-38.2	23.4	0.00e+00	92	27	0	526385152	46	6599
2026-01-10 18:24:31.44	352.47	16.41	-37.4	-38.4	23.3	0.00e+00	0	27	0	528482304	46	6698
2026-01-10 18:24:32.45	352.25	16.43	-37.5	-38.4	23.2	0.00e+00	92	27	0	530579456	46	6765
2026-01-10 18:24:33.46	352.03	16.45	-37.4	-38.3	23.3	0.00e+00	82	27	0	532676608	46	6668
2026-01-10 18:24:34.47	351.81	16.46	-37.4	-38.3	23.3	0.00e+00	2	27	0	534773760	46	6639
2026-01-10 18:24:35.48	351.59	16.48	-37.3	-38.3	23.3	0.00e+00	0	27	0	535822336	46	6622
2026-01-10 18:24:36.49	351.37	16.50	-37.0	-37.9	23.4	0.00e+00	5	27	0	537919488	46	6369
2026-01-10 18:24:37.50	351.15	16.52	-36.9	-37.8	23.7	0.00e+00	92	27	0	540016640	46	6311
2026-01-10 18:24:38.51	350.92	16.54	-37.0	-37.9	23.7	0.00e+00	5	27	0	542113792	46	6323
2026-01-10 18:24:39.52	350.70	16.55	-37.0	-37.8	23.7	0.00e+00	92	27	0	544210944	46	6308
2026-01-10 18:24:40.53	350.48	16.57	-37.1	-37.9	23.6	0.00e+00	6	27	0	545259520	46	6388
2026-01-10 18:24:41.54	350.26	16.58	-37.1	-38.0	23.6	0.00e+00	5	27	0	547356672	46	6410
2026-01-10 18:24:42.55	350.03	16.60	-37.1	-38.0	23.5	0.00e+00	0	27	0	549453824	46	6452
2026-01-10 18:24:43.56	349.81	16.61	-37.1	-38.0	23.5	0.00e+00	5	27	0	551550976	46	6446
2026-01-10 18:24:44.57	349.59	16.63	-37.1	-38.0	23.5	0.00e+00	74	27	0	553648128	46	6432
2026-01-10 18:24:45.58	349.36	16.64	-37.2	-38.2	23.4	0.00e+00	0	27	0	555745280	46	6540
2026-01-10 18:24:46.59	349.14	16.66	-37.1	-38.1	23.4	0.00e+00	92	27	0	556793856	46	6467
2026-01-10 18:24:47.60	348.92	16.67	-37.3	-38.3	23.2	0.00e+00	86	27	0	558891008	46	6633
2026-01-10 18:24:48.61	348.69	16.68	-37.4	-38.3	23.2	0.00e+00	83	27	0	560988160	46	6668
2026-01-10 18:24:49.62	348.47	16.69	-37.4	-38.4	23.2	0.00e+00	0	27	0	563085312	46	6704
2026-01-10 18:24:50.63	348.24	16.71	-37.5	-38.5	23.1	0.00e+00	85	27	0	565182464	46	6800
2026-01-10 18:24:51.64	348.02	16.72	-37.4	-38.3	23.2	0.00e+00	0	27	0	566231040	46	6689
2026-01-10 18:24:52.65	347.79	16.73	-37.5	-38.4	23.2	0.00e+00	84	27	0	568328192	46	6758
2026-01-10 18:24:53.66	347.57	16.74	-37.2	-38.2	23.4	0.00e+00	92	27	0	570425344	46	6553
2026-01-10 18:24:54.67	347.34	16.75	-37.3	-38.3	23.4	0.00e+00	85	27	0	572522496	46	6619
2026-01-10 18:24:55.68	347.12	16.76	-37.3	-38.3	23.2	0.00e+00	90	27	0	574619648	46	6617
2026-01-10 18:24:56.69	346.89	16.77	-37.4	-38.3	23.3	0.00e+00	6	27	0	575668224	46	6646
2026-01-10 18:24:57.70	346.67	16.78	-37.4	-38.3	23.2	0.00e+00	0	27	0	577765376	46	6664
2026-01-10 18:24:58.71	346.44	16.79	-37.5	-38.4	23.1	0.00e+00	6	27	0	579862528	46	6755
2026-01-10 18:24:59.72	346.21	16.79	-37.4	-38.4	23.2	0.00e+00	4	27	0	581959680	46	6703
2026-01-10 18:25:00.73	345.99	16.80	-37.4	-38.3	23.2	0.00e+00	90	27	0	584056832	46	6670
2026-01-10 18:25:01.74	345.76	16.81	-37.4	-38.3	23.2	0.00e+00	6	27	0	585105408	46	6665
2026-01-10 18:25:02.75	345.53	16.81	-37.4	-38.3	23.2	0.00e+00	92	27	0	587202560	46	6671
2026-01-10 18:25:03.76	345.31	16.82	-37.3	-38.3	23.3	0.00e+00	6	27	0	589299712	46	6620
2026-01-10 18:25:04.77	345.08	16.83	-37.2	-38.2	23.3	0.00e+00	6	27	0	591396864	46	6548
2026-01-10 18:25:05.78	344.85	16.83	-37.3	-38.2	23.4	0.00e+00	0	27	0	593494016	46	6612
2026-01-10 18:25:06.79	344.63	16.84	-37.3	-38.3	23.4	0.00e+00	0	27	0	595591168	46	6619
2026-01-10 18:25:07.80	344.40	16.84	-37.3	-38.2	23.3	0.00e+00	45	27	0	596639744	46	6612
2026-01-10 18:25:08.81	344.17	16.84	-37.4	-38.3	23.3	0.00e+00	81	27	0	598736896	46	6655
2026-01-10 18:25:09.82	343.95	16.85	-37.4	-38.3	23.2	0.00e+00	90	27	0	600834048	46	6666
2026-01-10 18:25:10.83	343.72	16.85	-37.3	-38.3	23.2	0.00e+00	0	27	0	602931200	46	6622
2026-01-10 18:25:11.84	343.49	16.85	-37.3	-38.3	23.3	0.00e+00	0	27	0	605028352	46	6621
2026-01-10 18:25:12.85	343.27	16.85	-37.3	-38.3	23.4	0.00e+00	81	27	0	606076928	46	6616
2026-01-10 18:25:13.86	343.04	16.85	-37.3	-38.3	23.4	0.00e+00	81	27	0	608174080	46	6623
2026-01-10 18:25:14.87	342.81	16.86	-37.3	-38.3	23.3	0.00e+00	0	27	0	610271232	46	6616
2026-01-10 18:25:15.88	342.59	16.86	-37.3	-38.2	23.3	0.00e+00	81	27	0	612368384	46	6576
2026-01-10 18:25:16.89	342.36	16.86	-37.3	-38.3	23.3	0.00e+00	92	27	0	614465536	46	6638
2026-01-10 18:25:17.90	342.13	16.86	-37.5	-38.4	23.2	0.00e+00	0	27	0	615514112	46	6755
2026-01-10 18:25:18.91	341.90	16.85	-37.7	-38.6	23.0	0.00e+00	91	27	0	617611264	46	6924
2026-01-10 18:25:19.92	341.68	16.85	-37.7	-38.6	22.9	0.00e+00	0	27	0	619708416	46	6926
2026-01-10 18:25:20.93	341.45	16.85	-37.6	-38.5	22.9	0.00e+00	0	27	0	621805568	46	6846
2026-01-10 18:25:21.94	341.22	16.85	-37.6	-38.5	22.2	0.00e+00	0	27	0	623902720	46	6832
2026-01-10 18:25:22.95	341.00	16.85	-37.5	-38.5	23.0	0.00e+00	0	27	0	624951296	46	6787
2026-01-10 18:25:23.96	340.77	16.84	-37.4	-38.3	23.2	0.00e+00	91	27	0	627048448	46	6667
2026-01-10 18:25:24.97	340.54	16.84	-37.3	-38.3	23.2	0.00e+00	0	27	0	629145600	46	6643
2026-01-10 18:25:25.98	340.32	16.84	-37.4	-38.4	23.2	0.00e+00	90	27	0	631242752	46	6726
2026-01-10 18:25:26.98	340.09	16.83	-37.1	-38.0	23.4	0.00e+00	0	27	0	633339904	46	6454
2026-01-10 18:25:27.99	339.87	16.83	-37.3	-38.2	23.3	0.00e+00	81	27	0	634388480	46	6601
2026-01-10 18:25:29.00	339.64	16.82	-37.3	-38.3	23.2	0.00e+00	80	27	0	636485632	46	6644
2026-01-10 18:25:30.01	339.41	16.81	-37.4	-38.4	23.1	0.00e+00	0	27	0	638582784	46	6698
2026-01-10 18:25:31.02	339.19	16.81	-37.6	-38.6	22.9	0.00e+00	84	27	0	640679936	46	6867
2026-01-10 18:25:32.03	338.96	16.80	-37.5	-38.5	23.1	0.00e+00	0	27	0	642777088	46	6834
2026-01-10 18:25:33.03	338.74	16.79	-37.6	-38.7	22.9	0.00e+00	92	27	0	643825664	46	6928
2026-01-10 18:25:34.04	338.51	16.79	-37.7	-38.7	22.9	0.00e+00	81	27	0	645922816	46	6944
2026-01-10 18:25:35.05	338.28	16.78	-37.5	-38.5	23.2	0.00e+00	30	27	0	648019968	46	6799
2026-01-10 18:25:36.06	338.06	16.77	-37.5	-38.4	23.1	0.00e+00	0	27	0	650117120	46	6755
2026-01-10 18:25:37.07	337.83	16.76	-37.4	-38.4	23.3	0.00e+00	0	27	0	652214272	46	6731
2026-01-10 18:25:38.08	337.61	16.75	-37.4	-38.4	23.2	0.00e+00	82	27	0	653262848	46	6704
2026-01-10 18:25:39.09	337.38	16.74	-37.3	-38.2	23.3	0.00e+00	0	27	0	655360000	46	6602
2026-01-10 18:25:40.10	337.16	16.73	-37.2	-38.1	23.4	0.00e+00	90	27	0	657457152	46	6513
2026-01-10 18:25:41.11	336.93	16.72	-37.2	-38.1	23.5	0.00e+00	0	27	0	659554304	46	6498
2026-01-10 18:25:42.12	336.71	16.71	-37.0	-37.9	23.6	0.00e+00	92	27	0	661651456	46	6344
2026-01-10 18:25:43.13	336.48	16.70	-37.1	-38.0	23.6	0.00e+00	0	27	0	663748608	46	6401
2026-01-10 18:25:44.15	336.25	16.68	-37.1	-38.0	23.5	0.00e+00	0	27	0	664797184	46	6415
2026-01-10 18:25:45.15	336.03	16.67	-37.2	-38.2	23.3	0.00e+00	2	27	0	666894336	46	6557
2026-01-10 18:25:46.16	335.81	16.66	-37.3	-38.2	23.3	0.00e+00	0	27	0	668991488	46	6599
2026-01-10 18:25:47.17	335.58	16.64	-37.3	-38.3	23.3	0.00e+00	84	27	0	671088640	46	6620
2026-01-10 18:25:48.18	335.36	16.63	-37.2	-38.2	23.4	0.00e+00	0	27	0	672137216	46	6547
2026-01-10 18:25:49.19	335.14	16.62	-37.2	-38.1	23.5	0.00e+00	92	27	0	674234368	46	6497
2026-01-10 18:25:50.20	334.91	16.60	-37.2	-38.1	23.5	0.00e+00	81	27	0	676331520	46	6512
2026-01-10 18:25:51.21	334.69	16.59	-37.0	-37.9	23.7	0.00e+00	81	27	0	678428672	46	6331
2026-01-10 18:25:52.22	334.47	16.57	-36.8	-37.7	23.9	0.00e+00	0	27	0	680525824	46	6177
2026-01-10 18:25:53.24	334.24	16.55	-36.7	-37.6	23.9	0.00e+00	0	27	0	682622976	46	6142
2026-01-10 18:25:54.25	334.02	16.54	-36.7	-37.6	23.9	0.00e+00	92	27	0	683671552	46	6152
2026-01-10 18:25:55.25	333.80	16.52	-36.6	-37.5	23.9	0.00e+00	0	27	0	685768704	46	6077
2026-01-10 18:25:56.26	333.58	16.50	-36.7	-37.6	23.9	0.00e+00	92	27	0	687865856	46	6111
2026-01-10 18:25:57.27	333.36	16.49	-36.7	-37.6	23.9	0.00e+00	0	27	0	689963008	46	6159
2026-01-10 18:25:58.29	333.13	16.47	-36.8	-37.7	23.8	0.00e+00	0	27	0	692060160	46	6177
2026-01-10 18:25:59.29	332.91	16.45	-37.0	-37.9	23.6	0.00e+00	0	27	0	693108736	46	6318
2026-01-10 18:26:00.30	332.69	16.43	-36.7	-37.6	23.9	0.00e+00	0	27	0	695205888	46	6156
2026-01-10 18:26:01.31	332.47	16.41	-36.7	-37.6	23.9	0.00e+00	0	27	0	697303040	46	6155
2026-01-10 18:26:02.32	332.25	16.39	-36.8	-37.7	23.8	0.00e+00	0	27	0	699400192	46	6179
2026-01-10 18:26:03.33	332.03	16.37	-36.6	-37.5	23.9	0.00e+00	92	27	0	701497344	46	6075
2026-01-10 18:26:04.34	331.81	16.35	-36.5	-37.4	24.0	0.00e+00	0	27	0	702545920	46	5995
2026-01-10 18:26:05.35	331.59	16.33	-36.6	-37.4	24.0	0.00e+00	92	27	0	704643072	46	6027
2026-01-10 18:26:06.36	331.37	16.31	-36.6	-37.5	24.0	0.00e+00	0	27	0	706740224	46	6068
2026-01-10 18:26:07.37	331.16	16.28	-36.6	-37.5	24.0	0.00e+00	0	27	0	708837376	46	6059
2026-01-10 18:26:08.38	330.94	16.26	-36.6	-37.5	23.9	0.00e+00	0	27	0	710934528	46	6075
2026-01-10 18:26:09.39	330.72	16.24	-36.7	-37.6	23.9	0.00e+00	0	27	0	711983104	46	6105
2026-01-10 18:26:10.41	330.50	16.21	-36.8	-37.7	23.8	0.00e+00	90	27	0	714080256	46	6183
2026-01-10 18:26:11.42	330.28	16.19	-36.9	-37.8	23.8	0.00e+00	0	27	0	716177408	46	6250
2026-01-10 18:26:12.43	330.06	16.17	-36.8	-37.7	23.8	0.00e+00	90	27	0	718274560	46	6222
2026-01-10 18:26:13.44	329.85	16.14	-37.0	-37.9	23.6	0.00e+00	0	27	0	720371712	46	6352
2026-01-10 18:26:14.45	329.63	16.12	-37.0	-37.9	23.6	0.00e+00	81	27	0	721420288	46	6334
2026-01-10 18:26:15.46	329.42	16.09	-37.0	-37.9	23.6	0.00e+00	81	27	0	723517440	46	6335
2026-01-10 18:26:16.47	329.20	16.07	-37.1	-38.0	23.6	0.00e+00	0	27	0	725614592	46	6392
2026-01-10 18:26:17.48	328.99	16.04	-37.0	-37.9	23.6	0.00e+00	0	27	0	727711744	46	6342
2026-01-10 18:26:18.49	328.77	16.01	-37.0	-37.9	23.6	0.00e+00	0	27	0	729808896	46	6371
2026-01-10 18:26:19.49	328.56	15.99	-37.1	-38.1	23.5	0.00e+00	92	27	0	731906048	46	6468
2026-01-10 18:26:20.50	328.34	15.96	-37.1	-38.0	23.6	0.00e+00	0	27	0	732954624	46	6426
2026-01-10 18:26:21.51	328.13	15.93	-37.2	-38.1	23.5	0.00e+00	5	27	0	735051776	46	6481
2026-01-10 18:26:22.52	327.92	15.91	-37.2	-38.1	23.4	0.00e+00	0	27	0	737148928	46	6495
2026-01-10 18:26:23.54	327.70	15.88	-37.3	-38.2	23.3	0.00e+00	0	27	0	739246080	46	6580
2026-01-10 18:26:24.54	327.49	15.85	-37.4	-38.3	23.3	0.00e+00	0	27	0	741343232	46	6672
2026-01-10 18:26:25.55	327.28	15.82	-37.4	-38.3	23.3	0.00e+00	0	27	0	742391808	46	6657
2026-01-10 18:26:26.56	327.07	15.79	-37.4	-38.3	23.2	0.00e+00	91	27	0	744488960	46	6669
2026-01-10 18:26:27.58	326.85	15.76	-37.5	-38.4	23.2	0.00e+00	6	27	0	746586112	46	6748
2026-01-10 18:26:28.59	326.64	15.73	-37.5	-38.5	23.1	0.00e+00	91	27	0	748683264	46	6772
2026-01-10 18:26:29.60	326.43	15.70	-37.6	-38.6	23.1	0.00e+00	86	27	0	750780416	46	6863
2026-01-10 18:26:30.61	326.22	15.67	-37.6	-38.5	23.1	0.00e+00	0	27	0	751828992	46	6828
2026-01-10 18:26:31.62	326.01	15.64	-37.5	-38.4	23.1	0.00e+00	0	27	0	753926144	46	6750
2026-01-10 18:26:32.63	325.81	15.61	-37.5	-38.4	23.2	0.00e+00	86	27	0	756023296	46	6724
2026-01-10 18:26:33.64	325.60	15.58	-37.6	-38.5	23.1	0.00e+00	92	27	0	758120448	46	6841
2026-01-10 18:26:34.65	325.39	15.54	-37.4	-38.3	23.3	0.00e+00	0	27	0	760217600	46	6679
2026-01-10 18:26:35.66	325.18	15.51	-37.5	-38.4	23.2	0.00e+00	84	27	0	761266176	46	6748
2026-01-10 18:26:36.66	324.98	15.48	-37.5	-38.4	23.1	0.00e+00	86	27	0	763363328	46	6761
2026-01-10 18:26:37.67	324.77	15.45	-37.4	-38.4	23.2	0.00e+00	85	27	0	765460480	46	6723
2026-01-10 18:26:38.68	324.56	15.41	-37.5	-38.4	23.1	0.00e+00	86	27	0	767557632	46	6724
2026-01-10 18:26:39.69	324.36	15.38	-37.4	-38.3	23.3	0.00e+00	8	27	0	769654784	46	6653
2026-01-10 18:26:40.70	324.15	15.34	-37.5	-38.4	23.2	0.00e+00	92	27	0	770703360	46	6732
2026-01-10 18:26:41.71	323.95	15.31	-37.3	-38.2	23.4	0.00e+00	7	27	0	772800512	46	6597
2026-01-10 18:26:42.72	323.74	15.27	-37.2	-38.1	23.4	0.00e+00	90	27	0	774897664	46	6479
2026-01-10 18:26:43.73	323.54	15.24	-37.0	-37.9	23.6	0.00e+00	0	27	0	776994816	46	6352
2026-01-10 18:26:44.74	323.33	15.20	-37.1	-38.0	23.5	0.00e+00	85	27	0	779091968	46	6457
2026-01-10 18:26:45.75	323.13	15.17	-37.0	-37.9	23.6	0.00e+00	6	27	0	780140544	46	6318
2026-01-10 18:26:46.76	322.93	15.13	-37.2	-38.1	23.4	0.00e+00	7	27	0	782237696	46	6492
2026-01-10 18:26:47.77	322.73	15.10	-37.1	-38.0	23.5	0.00e+00	0	27	0	784334848	46	6441
2026-01-10 18:26:48.78	322.53	15.06	-37.2	-38.1	23.4	0.00e+00	0	27	0	786432000	46	6528
2026-01-10 18:26:49.79	322.33	15.02	-37.2	-38.2	23.3	0.00e+00	92	27	0	788529152	46	6547
2026-01-10 18:26:50.80	322.12	14.99	-37.3	-38.2	23.3	0.00e+00	81	27	0	789577728	46	6601
2026-01-10 18:26:51.81	321.92	14.95	-37.2	-38.1	23.4	0.00e+00	92	27	0	791674880	46	6473
2026-01-10 18:26:52.82	321.73	14.91	-37.2	-38.1	23.4	0.00e+00	82	27	0	793772032	46	6511
2026-01-10 18:26:53.83	321.53	14.87	-37.2	-38.1	23.5	0.00e+00	81	27	0	795869184	46	6512
2026-01-10 18:26:54.84	321.33	14.83	-37.2	-38.1	23.4	0.00e+00	79	27	0	797966336	46	6520
2026-01-10 18:26:55.85	321.13	14.79	-37.2	-38.1	23.4	0.00e+00	82	27	0	800063488	46	6536
2026-01-10 18:26:56.86	320.93	14.76	-37.2	-38.1	23.5	0.00e+00	92	27	0	801112064	46	6534
2026-01-10 18:26:57.87	320.74	14.72	-37.2	-38.1	23.2	0.00e+00	0	27	0	803209216	46	6529
2026-01-10 18:26:58.88	320.54	14.68	-37.2	-38.1	23.4	0.00e+00	92	27	0	805306368	46	6509
2026-01-10 18:26:59.89	320.34	14.64	-37.2	-38.1	23.4	0.00e+00	0	27	0	807403520	46	6469
2026-01-10 18:27:00.90	320.15	14.60	-37.4	-38.3	23.2	0.00e+00	2	27	0	809500672	46	6645
2026-01-10 18:27:01.91	319.95	14.56	-37.2	-38.1	23.4	0.00e+00	0	27	0	810549248	46	6497
2026-01-10 18:27:02.92	319.76	14.52	-37.1	-38.0	23.6	0.00e+00	0	27	0	812646400	46	6419
2026-01-10 18:27:03.93	319.57	14.48	-37.3	-38.2	23.4	0.00e+00	71	27	0	814743552	46	6568
2026-01-10 18:27:04.93	319.37	14.43	-37.2	-38.2	23.3	0.00e+00	0	27	0	816840704	46	6553
2026-01-10 18:27:05.94	319.18	14.39	-37.4	-38.3	23.2	0.00e+00	92	27	0	818937856	46	6668
2026-01-10 18:27:06.95	318.99	14.35	-37.4	-38.3	23.2	0.00e+00	2	27	0	819986432	46	6650
2026-01-10 18:27:07.96	318.80	14.31	-37.4	-38.3	23.3	0.00e+00	90	27	0	822083584	46	6675
2026-01-10 18:27:08.97	318.61	14.27	-37.4	-38.4	23.2	0.00e+00	2	27	0	824180736	46	6695
2026-01-10 18:27:09.98	318.42	14.23	-37.4	-38.3	23.2	0.00e+00	0	27	0	826277888	46	6690
2026-01-10 18:27:10.99	318.23	14.18	-37.4	-38.3	23.3	0.00e+00	0	27	0	828375040	46	6641
2026-01-10 18:27:12.00	318.04	14.14	-37.3	-38.2	23.3	0.00e+00	81	27	0	829423616	46	6606
2026-01-10 18:27:13.01	317.85	14.10	-37.3	-38.2	23.4	0.00e+00	92	27	0	831520768	46	6558
2026-01-10 18:27:14.02	317.66	14.05	-37.3	-38.2	23.4	0.00e+00	83	27	0	833617920	46	6560
2026-01-10 18:27:15.03	317.47	14.01	-37.0	-37.9	23.6	0.00e+00	90	27	0	835715072	46	6361
2026-01-10 18:27:16.03	317.29	13.97	-37.2	-38.1	23.4	0.00e+00	0	27	0	837812224	46	6512
2026-01-10 18:27:17.04	317.10	13.92	-37.2	-38.1	23.4	0.00e+00	81	27	0	838860800	46	6492
2026-01-10 18:27:18.05	316.92	13.88	-37.4	-38.3	23.2	0.00e+00	0	27	0	840957952	46	6684
2026-01-10 18:27:19.06	316.73	13.83	-37.7	-38.6	22.9	0.00e+00	81	27	0	843055104	46	6902
2026-01-10 18:27:20.07	316.55	13.79	-37.7	-38.7	22.8	0.00e+00	91	27	0	845152256	48	6212
2026-01-10 18:27:21.08	316.36	13.75	-37.8	-38.8	22.8	0.00e+00	81	27	0	847249408	48	6273
2026-01-10 18:27:22.09	316.18	13.70	-37.9	-38.9	22.7	0.00e+00	92	27	0	848297984	48	6369
2026-01-10 18:27:23.09	316.00	13.66	-37.9	-38.9	22.7	0.00e+00	0	27	0	850395136	48	6368
2026-01-10 18:27:24.10	315.81	13.61	-37.9	-38.9	22.7	0.00e+00	14	27	0	852492288	48	6379
2026-01-10 18:27:25.12	315.63	13.56	-38.0	-38.9	22.6	0.00e+00	0	27	0	854589440	48	6384
2026-01-10 18:27:26.13	315.45	13.52	-38.0	-39.0	22.6	0.00e+00	0	27	0	856686592	48	6398
2026-01-10 18:27:27.14	315.27	13.47	-38.0	-39.0	22.6	0.00e+00	92	27	0	857735168	48	6410
2026-01-10 18:27:28.15	315.09	13.43	-38.0	-39.0	22.6	0.00e+00	0	27	0	859832320	48	6464
2026-01-10 18:27:29.16	314.91	13.38	-38.1	-39.0	22.6	0.00e+00	91	27	0	861929472	48	6461
2026-01-10 18:27:30.17	314.73	13.33	-38.1	-39.1	22.4	0.00e+00	0	27	0	864026624	48	6524
2026-01-10 18:27:31.18	314.55	13.29	-38.3	-39.3	22.3	0.00e+00	0	27	0	866123776	48	6661
2026-01-10 18:27:32.19	314.37	13.24	-38.2	-39.2	22.4	0.00e+00	0	27	0	868220928	48	6590
2026-01-10 18:27:33.20	314.19	13.19	-38.3	-39.3	22.3	0.00e+00	81	27	0	869269504	48	6672
2026-01-10 18:27:34.21	314.02	13.14	-38.4	-39.4	22.2	0.00e+00	0	27	0	871366656	48	6753
2026-01-10 18:27:35.22	313.84	13.10	-38.5	-39.6	22.1	0.00e+00	0	27	0	873463808	48	6890
2026-01-10 18:27:36.23	313.67	13.05	-38.6	-39.7	22.0	0.00e+00	92	27	0	875560960	48	6929
2026-01-10 18:27:37.24	313.49	13.00	-38.7	-39.8	21.9	0.00e+00	82	27	0	877658112	48	7018
2026-01-10 18:27:38.25	313.32	12.95	-38.7	-39.8	21.9	0.00e+00	92	27	0	878706688	50	6300
2026-01-10 18:27:39.26	313.14	12.90	-38.8	-39.8	21.8	0.00e+00	0	27	0	880803840	50	6312
2026-01-10 18:27:40.27	312.97	12.86	-38.9	-40.0	21.6	0.00e+00	1	27	0	882900992	50	6464
2026-01-10 18:27:41.28	312.80	12.81	-39.0	-40.1	21.6	0.00e+00	82	27	0	884998144	50	6528
2026-01-10 18:27:42.29	312.62	12.76	-39.0	-40.1	21.4	0.00e+00	0	27	0	887095296	50	6513
2026-01-10 18:27:43.30	312.45	12.71	-39.1	-40.2	21.4	0.00e+00	92	27	0	888143872	50	6594
2026-01-10 18:27:44.30	312.28	12.66	-39.1	-40.2	21.5	0.00e+00	0	27	0	890241024	50	6573
2026-01-10 18:27:45.31	312.11	12.61	-39.0	-40.1	21.5	0.00e+00	92	27	0	892338176	50	6518
2026-01-10 18:27:46.32	311.94	12.56	-39.0	-40.1	21.4	0.00e+00	2	27	0	894435328	50	6513
2026-01-10 18:27:47.33	311.77	12.51	-39.0	-40.1	21.6	0.00e+00	0	27	0	896532480	50	6503
2026-01-10 18:27:48.34	311.60	12.46	-38.9	-40.0	21.7	0.00e+00	0	27	0	897581056	50	6448
2026-01-10 18:27:49.35	311.43	12.41	-38.9	-40.0	21.7	0.00e+00	0	27	0	899678208	50	6403
2026-01-10 18:27:50.36	311.27	12.36	-38.9	-40.0	21.6	0.00e+00	72	27	0	901775360	50	6456
2026-01-10 18:27:51.37	311.10	12.31	-39.1	-40.3	21.3	0.00e+00	0	27	0	903872512	50	6641
2026-01-10 18:27:52.38	310.93	12.26	-39.4	-40.6	21.1	0.00e+00	91	27	0	905969664	50	6871
2026-01-10 18:27:53.39	310.77	12.21	-39.6	-40.8	21.0	0.00e+00	0	27	0	907018240	50	7063
2026-01-10 18:27:54.40	310.60	12.16	-39.6	-40.8	20.9	0.00e+00	0	27	0	909115392	50	7069
2026-01-10 18:27:55.41	310.44	12.11	-39.8	-41.0	20.7	0.00e+00	2	27	0	911212544	50	7210
2026-01-10 18:27:56.42	310.27	12.06	-39.8	-41.0	20.8	0.00e+00	0	27	0	913309696	52	6463
2026-01-10 18:27:57.43	310.11	12.01	-39.7	-41.0	20.8	0.00e+00	0	27	0	915406848	52	6406
2026-01-10 18:27:58.44	309.95	11.96	-39.6	-40.9	20.9	0.00e+00	81	27	0	916455424	52	6320
2026-01-10 18:27:59.45	309.78	11.91	-39.6	-40.9	20.9	0.00e+00	90	27	0	918552576	52	6330
2026-01-10 18:28:00.45	309.62	11.86	-39.6	-40.8	20.9	0.00e+00	81	27	0	920649728	52	6299
2026-01-10 18:28:01.46	309.46	11.81	-39.5	-40.7	21.0	0.00e+00	92	27	0	922746880	52	6243
2026-01-10 18:28:02.47	309.30	11.76	-39.6	-40.9	20.9	0.00e+00	0	27	0	924844032	52	6320
2026-01-10 18:28:03.48	309.14	11.70	-39.6	-40.8	20.8	0.00e+00	0	27	0	925892608	52	6283
2026-01-10 18:28:04.49	308.98	11.65	-39.6	-40.9	20.8	0.00e+00	0	27	0	927989760	52	6335
2026-01-10 18:28:05.50	308.82	11.60	-39.7	-40.9	20.8	0.00e+00	0	27	0	930086912	52	6352
2026-01-10 18:28:06.51	308.66	11.55	-39.7	-40.9	20.8	0.00e+00	92	27	0	932184064	52	6388
2026-01-10 18:28:07.52	308.51	11.50	-39.7	-40.9	20.8	0.00e+00	5	27	0	934281216	52	6345
2026-01-10 18:28:08.53	308.35	11.44	-39.8	-41.0	20.8	0.00e+00	92	27	0	935329792	52	6450
2026-01-10 18:28:09.54	308.19	11.39	-39.7	-40.9	20.8	0.00e+00	0	27	0	937426944	52	6382
2026-01-10 18:28:10.55	308.04	11.34	-39.8	-41.0	20.7	0.00e+00	6	27	0	939524096	52	6422
2026-01-10 18:28:11.56	307.88	11.29	-39.7	-41.0	20.8	0.00e+00	0	27	0	941621248	52	6406
2026-01-10 18:28:12.57	307.73	11.23	-39.8	-41.0	20.7	0.00e+00	6	27	0	943718400	52	6433
2026-01-10 18:28:13.58	307.57	11.18	-39.7	-41.0	20.9	0.00e+00	19	27	0	944766976	52	6391
2026-01-10 18:28:14.59	307.42	11.13	-39.7	-40.9	20.8	0.00e+00	85	27	0	946864128	52	6363
2026-01-10 18:28:15.60	307.26	11.08	-39.6	-40.8	20.8	0.00e+00	92	27	0	948961280	52	6259
2026-01-10 18:28:16.61	307.11	11.02	-39.6	-40.9	20.8	0.00e+00	0	27	0	951058432	52	6320
2026-01-10 18:28:17.62	306.96	10.97	-39.7	-40.9	20.8	0.00e+00	92	27	0	953155584	52	6357
2026-01-10 18:28:18.63	306.81	10.92	-39.6	-40.9	20.7	0.00e+00	0	27	0	954204160	52	6341
2026-01-10 18:28:19.64	306.66	10.87	-39.6	-40.9	20.7	0.00e+00	8	27	0	956301312	52	6341
2026-01-10 18:28:20.65	306.51	10.81	-39.7	-40.9	20.8	0.00e+00	70	27	0	958398464	52	6359
2026-01-10 18:28:21.66	306.36	10.76	-39.7	-40.9	20.7	0.00e+00	80	27	0	960495616	52	6351
2026-01-10 18:28:22.67	306.21	10.71	-39.7	-40.9	20.8	0.00e+00	91	27	0	962592768	52	6370
2026-01-10 18:28:23.68	306.06	10.65	-39.5	-40.7	21.0	0.00e+00	6	27	0	964689920	52	6189
2026-01-10 18:28:24.69	305.91	10.60	-39.4	-40.6	21.1	0.00e+00	92	27	0	965738496	52	6141
2026-01-10 18:28:25.70	305.76	10.54	-39.4	-40.6	21.0	0.00e+00	8	27	0	967835648	52	6165
2026-01-10 18:28:26.71	305.61	10.49	-39.4	-40.6	21.1	0.00e+00	6	28	0	969932800	52	6138
2026-01-10 18:28:27.72	305.47	10.44	-39.2	-40.4	21.3	0.00e+00	6	27	0	972029952	52	5971
2026-01-10 18:28:28.73	305.32	10.38	-39.3	-40.5	21.1	0.00e+00	6	27	0	974127104	52	6070
2026-01-10 18:28:29.73	305.18	10.33	-39.2	-40.4	21.3	0.00e+00	63	27	0	975175680	52	5967
2026-01-10 18:28:30.74	305.03	10.28	-39.2	-40.3	21.3	0.00e+00	0	28	0	977272832	52	5956
2026-01-10 18:28:31.75	304.89	10.22	-39.2	-40.4	21.3	0.00e+00	90	27	0	979369984	52	5997
2026-01-10 18:28:32.76	304.74	10.17	-39.0	-40.1	21.5	0.00e+00	0	27	0	981467136	52	5822
2026-01-10 18:28:33.77	304.60	10.11	-39.0	-40.1	21.5	0.00e+00	8	27	0	983564288	52	5814
2026-01-10 18:28:34.78	304.46	10.06	-38.9	-40.0	21.5	0.00e+00	6	27	0	984612864	52	5761
2026-01-10 18:28:35.79	304.31	10.01	-38.9	-40.0	21.7	0.00e+00	81	27	0	986710016	52	5742
2026-01-10 18:28:36.80	304.17	9.95	-38.9	-40.0	21.6	0.00e+00	7	28	0	988807168	52	5701
2026-01-10 18:28:37.81	304.03	9.90	-38.9	-40.0	21.6	0.00e+00	82	28	0	990904320	52	5713
2026-01-10 18:28:38.82	303.89	9.84	-38.9	-40.0	21.7	0.00e+00	90	27	0	993001472	52	5704
2026-01-10 18:28:39.83	303.75	9.79	-38.8	-39.9	21.7	0.00e+00	0	28	0	994050048	52	5683
2026-01-10 18:28:40.84	303.61	9.74	-38.9	-40.0	21.5	0.00e+00	49	28	0	996147200	52	5761
2026-01-10 18:28:41.85	303.47	9.68	-38.8	-39.9	21.6	0.00e+00	0	28	0	998244352	52	5688
2026-01-10 18:28:42.86	303.33	9.63	-38.7	-39.9	21.6	0.00e+00	81	28	0	1000341504	50	6323
2026-01-10 18:28:43.87	303.19	9.57	-38.8	-39.9	21.7	0.00e+00	63	28	0	1002438656	50	6329
2026-01-10 18:28:44.88	303.06	9.52	-38.7	-39.8	21.8	0.00e+00	0	28	0	1003487232	50	6284
2026-01-10 18:28:45.89	302.92	9.46	-38.4	-39.5	22.1	0.00e+00	90	28	0	1005584384	50	6047
2026-01-10 18:28:46.90	302.78	9.41	-38.5	-39.6	21.9	0.00e+00	2	28	0	1007681536	50	6128
2026-01-10 18:28:47.91	302.65	9.35	-38.4	-39.4	22.1	0.00e+00	92	28	0	1009778688	50	6029
2026-01-10 18:28:48.92	302.51	9.30	-38.2	-39.2	22.2	0.00e+00	3	28	0	1011875840	50	5873
2026-01-10 18:28:49.92	302.38	9.24	-38.3	-39.3	22.2	0.00e+00	2	27	0	1012924416	50	5928
2026-01-10 18:28:50.93	302.24	9.19	-38.1	-39.1	22.4	0.00e+00	0	28	0	1015021568	50	5780
2026-01-10 18:28:51.94	302.11	9.13	-38.1	-39.1	22.4	0.00e+00	0	28	0	1017118720	50	5770
2026-01-10 18:28:52.95	301.97	9.08	-37.9	-38.9	22.4	0.00e+00	92	28	0	1019215872	50	5691
2026-01-10 18:28:53.96	301.84	9.03	-38.2	-39.2	22.3	0.00e+00	0	28	0	1021313024	50	5866
2026-01-10 18:28:54.97	301.71	8.97	-37.9	-39.0	22.5	0.00e+00	92	28	0	1022361600	50	5702
2026-01-10 18:28:55.98	301.58	8.92	-38.0	-39.1	22.3	0.00e+00	2	28	0	1024458752	50	5774
2026-01-10 18:28:56.99	301.45	8.86	-38.0	-39.0	22.5	0.00e+00	81	28	0	1026555904	50	5735
2026-01-10 18:28:58.00	301.31	8.81	-38.0	-39.0	22.4	0.00e+00	81	28	0	1028653056	50	5760
2026-01-10 18:28:59.01	301.18	8.75	-37.9	-38.9	22.4	0.00e+00	0	28	0	1030750208	50	5684
2026-01-10 18:29:00.02	301.05	8.70	-38.0	-39.1	22.3	0.00e+00	84	28	0	1032847360	50	5773
2026-01-10 18:29:01.03	300.93	8.64	-37.8	-38.8	22.3	0.00e+00	0	28	0	1033895936	50	5630
2026-01-10 18:29:02.04	300.80	8.59	-37.8	-38.8	22.7	0.00e+00	90	28	0	1035993088	48	6248
2026-01-10 18:29:03.05	300.67	8.53	-37.6	-38.6	22.6	0.00e+00	81	28	0	1038090240	48	6118
2026-01-10 18:29:04.06	300.54	8.48	-37.7	-38.7	22.7	0.00e+00	92	28	0	1040187392	48	6192
2026-01-10 18:29:05.07	300.41	8.42	-37.5	-38.4	22.8	0.00e+00	82	28	0	1042284544	48	6023
2026-01-10 18:29:06.08	300.29	8.37	-37.6	-38.6	22.2	0.00e+00	4	28	0	1043333120	48	6104
2026-01-10 18:29:07.09	300.16	8.31	-37.6	-38.5	22.5	0.00e+00	0	28	0	1045430272	48	6091
2026-01-10 18:29:08.10	300.03	8.25	-37.5	-38.5	22.6	0.00e+00	0	28	0	1047527424	48	6064
2026-01-10 18:29:09.11	299.91	8.20	-37.6	-38.6	22.8	0.00e+00	91	28	0	1049624576	48	6104
2026-01-10 18:29:10.12	299.78	8.14	-37.7	-38.7	22.6	0.00e+00	0	28	0	1051721728	48	6176
2026-01-10 18:29:11.13	299.66	8.09	-37.6	-38.6	22.7	0.00e+00	92	28	0	1052770304	48	6143
2026-01-10 18:29:12.13	299.53	8.03	-37.7	-38.7	22.6	0.00e+00	0	28	0	1054867456	48	6176
2026-01-10 18:29:13.15	299.41	7.98	-37.7	-38.6	22.6	0.00e+00	0	28	0	1056964608	48	6164
2026-01-10 18:29:14.16	299.29	7.92	-37.8	-38.8	22.5	0.00e+00	0	28	0	1059061760	48	6302
2026-01-10 18:29:15.17	299.16	7.87	-37.8	-38.8	22.5	0.00e+00	0	28	0	1061158912	48	6274
2026-01-10 18:29:16.18	299.04	7.81	-37.8	-38.8	22.5	0.00e+00	92	28	0	1062207488	48	6297
2026-01-10 18:29:17.19	298.92	7.76	-37.8	-38.8	22.5	0.00e+00	78	28	0	1064304640	48	6309
2026-01-10 18:29:18.20	298.80	7.70	-37.7	-38.8	22.4	0.00e+00	92	28	0	1066401792	48	6247
2026-01-10 18:29:19.21	298.68	7.65	-37.8	-38.8	22.5	0.00e+00	72	28	0	1068498944	48	6294
2026-01-10 18:29:20.22	298.56	7.59	-37.8	-38.8	22.6	0.00e+00	18	28	0	1070596096	48	6276
2026-01-10 18:29:21.23	298.44	7.54	-37.9	-38.9	22.5	0.00e+00	0	28	0	1071644672	48	6369
2026-01-10 18:29:22.24	298.32	7.48	-37.8	-38.8	22.5	0.00e+00	0	28	0	1073741824	48	6252
2026-01-10 18:29:23.25	298.20	7.43	-37.7	-38.7	22.6	0.00e+00	0	28	0	1075838976	48	6208
2026-01-10 18:29:24.26	298.08	7.37	-37.9	-38.9	22.4	0.00e+00	82	28	0	1077936128	48	6363
2026-01-10 18:29:25.27	297.96	7.32	-37.9	-38.9	22.2	0.00e+00	91	28	0	1080033280	48	6389
2026-01-10 18:29:26.28	297.85	7.26	-37.9	-38.9	22.3	0.00e+00	81	28	0	1081081856	48	6373
2026-01-10 18:29:27.29	297.73	7.21	-38.0	-39.1	22.2	0.00e+00	2	28	0	1083179008	48	6493
2026-01-10 18:29:28.29	297.61	7.15	-38.2	-39.2	22.0	0.00e+00	0	28	0	1085276160	48	6602
2026-01-10 18:29:29.30	297.50	7.10	-38.3	-39.4	21.9	0.00e+00	0	28	0	1087373312	48	6708
2026-01-10 18:29:30.31	297.38	7.04	-38.3	-39.4	21.9	0.00e+00	0	28	0	1089470464	48	6747
2026-01-10 18:29:31.32	297.27	6.99	-38.5	-39.6	21.7	0.00e+00	0	28	0	1090519040	48	6856
2026-01-10 18:29:32.32	297.15	6.93	-38.3	-39.4	21.9	0.00e+00	92	28	0	1092616192	48	6727
2026-01-10 18:29:33.33	297.04	6.88	-38.4	-39.4	21.8	0.00e+00	0	28	0	1094713344	48	6767
2026-01-10 18:29:34.35	296.92	6.82	-38.3	-39.4	21.8	0.00e+00	92	28	0	1096810496	48	6734
2026-01-10 18:29:35.36	296.81	6.77	-38.4	-39.5	21.8	0.00e+00	0	28	0	1098907648	48	6772
2026-01-10 18:29:36.37	296.70	6.71	-38.3	-39.4	21.8	0.00e+00	0	28	0	1101004800	48	6767
2026-01-10 18:29:37.38	296.58	6.66	-38.2	-39.3	22.0	0.00e+00	0	28	0	1102053376	48	6648
2026-01-10 18:29:38.39	296.47	6.60	-38.2	-39.3	22.0	0.00e+00	0	28	0	1104150528	48	6653
2026-01-10 18:29:39.39	296.36	6.55	-38.4	-39.5	21.7	0.00e+00	92	28	0	1106247680	48	6805
2026-01-10 18:29:40.41	296.25	6.49	-38.2	-39.3	22.0	0.00e+00	0	28	0	1108344832	48	6630
2026-01-10 18:29:41.42	296.14	6.43	-38.0	-39.1	22.1	0.00e+00	92	28	0	1110441984	48	6496
2026-01-10 18:29:42.43	296.03	6.38	-38.1	-39.2	22.1	0.00e+00	80	28	0	1111490560	48	6552
2026-01-10 18:29:43.44	295.92	6.32	-38.1	-39.1	22.1	0.00e+00	80	28	0	1113587712	48	6504
2026-01-10 18:29:44.44	295.81	6.27	-38.1	-39.2	22.0	0.00e+00	0	28	0	1115684864	48	6566
2026-01-10 18:29:45.46	295.70	6.21	-38.1	-39.2	22.0	0.00e+00	76	28	0	1117782016	48	6581
2026-01-10 18:29:46.47	295.59	6.16	-38.2	-39.3	21.9	0.00e+00	14	28	0	1119879168	48	6659
2026-01-10 18:29:47.47	295.48	6.11	-38.4	-39.5	21.7	0.00e+00	0	28	0	1120927744	48	6794
2026-01-10 18:29:48.49	295.37	6.05	-38.4	-39.5	21.7	0.00e+00	92	28	0	1123024896	48	6840
2026-01-10 18:29:49.49	295.27	6.00	-38.6	-39.7	21.5	0.00e+00	4	28	0	1125122048	48	6958
2026-01-10 18:29:50.50	295.16	5.94	-38.8	-39.9	21.3	0.00e+00	92	28	0	1127219200	50	6374
2026-01-10 18:29:51.51	295.05	5.89	-38.7	-39.9	21.4	0.00e+00	2	28	0	1129316352	50	6344
2026-01-10 18:29:52.52	294.95	5.83	-38.9	-40.0	21.2	0.00e+00	8	28	0	1130364928	50	6458
2026-01-10 18:29:53.53	294.84	5.78	-39.0	-40.2	21.0	0.00e+00	6	28	0	1132462080	50	6595
2026-01-10 18:29:54.54	294.74	5.72	-39.1	-40.3	21.0	0.00e+00	0	28	0	1134559232	50	6651
2026-01-10 18:29:55.55	294.63	5.67	-38.9	-40.1	21.0	0.00e+00	92	28	0	1136656384	50	6513
2026-01-10 18:29:56.56	294.53	5.61	-39.1	-40.3	21.0	0.00e+00	0	28	0	1138753536	50	6632
2026-01-10 18:29:57.57	294.42	5.56	-39.2	-40.5	20.6	0.00e+00	92	28	0	1139802112	50	6804
2026-01-10 18:29:58.58	294.32	5.50	-39.1	-40.3	20.9	0.00e+00	0	28	0	1141899264	50	6645
2026-01-10 18:29:59.59	294.22	5.45	-39.2	-40.4	20.8	0.00e+00	0	28	0	1143996416	50	6710
2026-01-10 18:30:00.60	294.11	5.39	-39.2	-40.4	20.8	0.00e+00	0	28	0	1146093568	50	6766
2026-01-10 18:30:01.61	294.01	5.34	-39.3	-40.5	20.7	0.00e+00	0	28	0	1148190720	50	6818
2026-01-10 18:30:02.62	293.91	5.28	-39.2	-40.4	20.8	0.00e+00	91	28	0	1149239296	50	6732
2026-01-10 18:30:03.63	293.81	5.23	-39.2	-40.4	20.7	0.00e+00	78	28	0	1151336448	50	6739
2026-01-10 18:30:04.64	293.70	5.17	-39.3	-40.6	20.5	0.00e+00	90	28	0	1153433600	50	6868
2026-01-10 18:30:05.65	293.60	5.12	-39.4	-40.6	20.5	0.00e+00	78	28	0	1155530752	50	6912
2026-01-10 18:30:06.65	293.50	5.07	-39.4	-40.7	20.5	0.00e+00	80	28	0	1157627904	50	6979
2026-01-10 18:30:07.66	293.40	5.01	-39.5	-40.8	20.2	0.00e+00	5	28	0	1158676480	50	7048
2026-01-10 18:30:08.67	293.30	4.96	-39.5	-40.8	20.3	0.00e+00	81	28	0	1160773632	50	7075
2026-01-10 18:30:09.68	293.20	4.90	-39.6	-41.0	20.2	0.00e+00	5	28	0	1162870784	50	7173
2026-01-10 18:30:10.69	293.11	4.85	-39.9	-41.3	19.9	0.00e+00	7	28	0	1164967936	52	6654
2026-01-10 18:30:11.70	293.01	4.79	-39.9	-41.3	19.8	0.00e+00	92	28	0	1167065088	52	6638
2026-01-10 18:30:12.71	292.91	4.74	-39.8	-41.2	20.0	0.00e+00	7	28	0	1169162240	52	6550
2026-01-10 18:30:13.72	292.81	4.69	-39.8	-41.2	19.9	0.00e+00	92	28	0	1170210816	52	6588
2026-01-10 18:30:14.73	292.71	4.63	-40.0	-41.5	19.7	0.00e+00	7	28	0	1172307968	52	6789
2026-01-10 18:30:15.74	292.62	4.58	-40.2	-41.6	19.6	0.00e+00	8	28	0	1174405120	52	6913
2026-01-10 18:30:16.75	292.52	4.52	-40.2	-41.7	19.4	0.00e+00	0	28	0	1176502272	52	6941
2026-01-10 18:30:17.76	292.42	4.47	-39.9	-41.3	19.8	0.00e+00	0	28	0	1178599424	52	6681
2026-01-10 18:30:18.77	292.33	4.41	-39.9	-41.4	19.7	0.00e+00	92	28	0	1179648000	52	6706
2026-01-10 18:30:19.78	292.23	4.36	-40.1	-41.6	19.5	0.00e+00	0	28	0	1181745152	52	6877
2026-01-10 18:30:20.79	292.13	4.31	-40.1	-41.6	19.5	0.00e+00	92	28	0	1183842304	52	6897
2026-01-10 18:30:21.80	292.04	4.25	-40.0	-41.4	19.6	0.00e+00	76	28	0	1185939456	52	6763
2026-01-10 18:30:22.81	291.94	4.20	-40.1	-41.5	19.6	0.00e+00	0	28	0	1188036608	52	6839
2026-01-10 18:30:23.82	291.85	4.14	-40.0	-41.5	19.6	0.00e+00	75	28	0	1189085184	52	6790
2026-01-10 18:30:24.83	291.76	4.09	-40.2	-41.7	19.4	0.00e+00	0	28	0	1191182336	52	6931
2026-01-10 18:30:25.84	291.66	4.04	-40.2	-41.7	19.3	0.00e+00	80	28	0	1193279488	52	6987
2026-01-10 18:30:26.84	291.57	3.98	-40.3	-41.8	19.2	0.00e+00	81	28	0	1195376640	52	7017
2026-01-10 18:30:27.85	291.48	3.93	-40.3	-41.9	19.2	0.00e+00	91	28	0	1197473792	52	7091
