passes_logs/2026/01/10/R4.6S_Anadyr/R4.6S_Anadyr__20260110_011318_NOAA_20_JPSS-1_rec.log

#Pass ID: 20260110_011318_NOAA 20 (JPSS-1)
#Satellite: NOAA 20 (JPSS-1)
#Configuration: NOAA 20
#almurnet v.1.7.20251203
#Start time: 2026-01-10 01:13:21

#Version: 2.2.20231116
#Station: R4.6S_Anadyr
#Location: 177.4865 lon 64.73178 lat
#TLE: 1 43013U 17073A   26008.91585656  .00000107  00000+0  71497-4 0  9999
#TLE: 2 43013  98.7631 309.9196 0001713  47.9261 312.2060 14.19534561421870

#Time	Az	El	Level	Level2	SNR	BER	BlckErr	Temp	State	Recorded	gain1	gain2
2026-01-10 01:13:21.84	181.77	0.17	-47.7	-61.8	3.3	1.54e+00	0	23	0	0	60	44418
2026-01-10 01:13:22.84	181.81	0.23	-47.8	-63.2	3.6	1.51e+00	0	24	104	0	60	52197
2026-01-10 01:13:23.85	181.84	0.29	-47.9	-63.2	3.6	1.51e+00	0	24	104	0	60	52110
2026-01-10 01:13:24.86	181.88	0.35	-48.0	-63.2	3.6	1.51e+00	0	24	104	0	60	52263
2026-01-10 01:13:25.87	181.91	0.41	-48.0	-63.1	3.6	1.51e+00	0	24	104	0	60	51829
2026-01-10 01:13:26.88	181.94	0.47	-48.0	-63.3	3.6	1.51e+00	0	24	104	0	60	52549
2026-01-10 01:13:27.89	181.98	0.53	-47.9	-63.1	3.6	1.51e+00	0	24	104	0	60	51824
2026-01-10 01:13:28.90	182.01	0.59	-47.9	-63.1	3.6	1.51e+00	0	24	104	0	60	51486
2026-01-10 01:13:29.91	182.05	0.65	-47.8	-63.1	3.6	1.51e+00	0	24	104	0	60	51360
2026-01-10 01:13:30.92	182.08	0.71	-47.5	-62.8	3.6	1.51e+00	0	24	104	0	60	49905
2026-01-10 01:13:31.93	182.12	0.77	-47.3	-62.5	3.6	1.51e+00	0	24	104	0	60	47997
2026-01-10 01:13:32.94	182.15	0.83	-46.8	-62.2	3.6	1.51e+00	0	24	104	0	60	46644
2026-01-10 01:13:33.95	182.19	0.89	-46.7	-61.9	3.5	1.51e+00	0	24	104	0	60	45110
2026-01-10 01:13:34.96	182.23	0.95	-46.6	-61.6	3.6	1.51e+00	0	24	104	0	60	43624
2026-01-10 01:13:35.97	182.26	1.01	-46.5	-61.7	3.6	1.51e+00	0	24	104	0	60	43854
2026-01-10 01:13:36.98	182.30	1.07	-46.5	-61.6	3.6	1.51e+00	0	24	104	0	60	43663
2026-01-10 01:13:37.99	182.33	1.13	-46.5	-61.7	3.6	1.51e+00	0	24	104	0	60	44071
2026-01-10 01:13:39.00	182.37	1.19	-46.5	-61.7	3.6	1.51e+00	0	24	104	0	60	44079
2026-01-10 01:13:40.01	182.40	1.25	-46.5	-61.7	3.6	1.51e+00	0	24	104	0	60	43950
2026-01-10 01:13:41.02	182.44	1.31	-46.5	-61.7	3.6	1.51e+00	0	24	104	0	60	43967
2026-01-10 01:13:42.03	182.48	1.37	-46.5	-61.6	3.6	1.51e+00	0	24	104	0	60	43512
2026-01-10 01:13:43.04	182.51	1.43	-46.5	-61.7	3.6	1.51e+00	0	24	104	0	60	43902
2026-01-10 01:13:44.05	182.55	1.50	-46.5	-61.6	3.6	1.51e+00	0	24	104	0	60	43549
2026-01-10 01:13:45.06	182.59	1.56	-46.5	-61.6	3.6	1.51e+00	0	24	104	0	60	43439
2026-01-10 01:13:46.07	182.62	1.62	-46.5	-61.6	3.6	1.51e+00	0	24	104	0	60	43317
2026-01-10 01:13:47.08	182.66	1.68	-46.5	-61.6	3.6	1.51e+00	0	24	104	0	60	43228
2026-01-10 01:13:48.09	182.70	1.74	-46.5	-61.6	3.6	1.51e+00	0	24	104	0	60	43209
2026-01-10 01:13:49.10	182.74	1.81	-46.5	-61.6	3.6	1.51e+00	0	24	104	0	60	43539
2026-01-10 01:13:50.11	182.77	1.87	-46.5	-61.6	3.6	1.51e+00	0	24	104	0	60	43386
2026-01-10 01:13:51.12	182.81	1.93	-46.5	-61.7	3.6	1.51e+00	0	24	104	0	60	43901
2026-01-10 01:13:52.13	182.85	1.99	-46.5	-61.7	3.6	1.51e+00	0	24	104	0	60	43822
2026-01-10 01:13:53.13	182.89	2.05	-46.5	-61.6	3.6	1.51e+00	0	24	104	0	60	43403
2026-01-10 01:13:54.15	182.93	2.12	-46.5	-61.6	3.6	1.51e+00	0	24	104	0	60	43369
2026-01-10 01:13:55.16	182.96	2.18	-46.5	-61.6	3.6	1.51e+00	0	24	104	0	60	43276
2026-01-10 01:13:56.17	183.00	2.24	-46.5	-61.6	3.6	1.51e+00	0	24	104	0	60	43665
2026-01-10 01:13:57.18	183.04	2.31	-46.5	-61.6	3.6	1.51e+00	0	24	104	0	60	43474
2026-01-10 01:13:58.19	183.08	2.37	-46.5	-61.4	3.6	1.51e+00	0	24	104	0	60	42685
2026-01-10 01:13:59.20	183.12	2.43	-46.5	-60.9	3.6	1.51e+00	0	24	104	0	60	40067
2026-01-10 01:14:00.21	183.16	2.50	-46.5	-60.4	3.6	1.51e+00	0	24	104	0	60	37727
2026-01-10 01:14:01.22	183.20	2.56	-46.4	-60.2	3.6	1.51e+00	0	24	104	0	60	36971
2026-01-10 01:14:02.23	183.24	2.62	-46.4	-60.3	3.6	1.51e+00	0	24	104	0	60	37232
2026-01-10 01:14:03.24	183.28	2.69	-46.5	-60.8	3.6	1.51e+00	0	24	104	0	60	39841
2026-01-10 01:14:04.25	183.32	2.75	-46.5	-61.4	3.6	1.51e+00	0	24	104	0	60	42463
2026-01-10 01:14:05.26	183.36	2.82	-46.5	-60.6	3.6	1.51e+00	0	24	104	0	60	38751
2026-01-10 01:14:06.27	183.40	2.88	-46.2	-56.9	4.0	1.46e+00	0	24	104	0	60	25355
2026-01-10 01:14:07.27	183.44	2.94	-45.6	-52.3	8.1	2.19e-01	92	24	0	0	60	14923
2026-01-10 01:14:08.28	183.48	3.01	-44.6	-49.0	11.4	1.38e-02	92	24	0	1048576	60	10187
2026-01-10 01:14:09.29	183.52	3.07	-43.7	-47.0	13.8	2.85e-04	92	24	0	3145728	60	8064
2026-01-10 01:14:10.30	183.56	3.14	-42.8	-45.4	15.5	0.00e+00	91	24	0	5242880	60	6756
2026-01-10 01:14:11.31	183.60	3.20	-41.9	-44.1	16.6	0.00e+00	92	24	0	7340032	58	6521
2026-01-10 01:14:12.32	183.64	3.27	-41.0	-42.9	17.8	0.00e+00	0	24	0	9437184	56	6346
2026-01-10 01:14:13.33	183.68	3.33	-40.7	-42.4	18.1	0.00e+00	92	24	0	10485760	54	6759
2026-01-10 01:14:14.34	183.72	3.40	-40.4	-42.0	18.6	0.00e+00	0	24	0	12582912	54	6453
2026-01-10 01:14:15.35	183.76	3.46	-40.6	-42.3	18.2	0.00e+00	92	24	0	14680064	54	6665
2026-01-10 01:14:16.36	183.80	3.53	-41.2	-43.1	17.5	0.00e+00	92	24	0	16777216	54	7265
2026-01-10 01:14:17.37	183.85	3.60	-40.9	-42.7	18.0	0.00e+00	91	24	0	18874368	54	6944
2026-01-10 01:14:18.38	183.89	3.66	-40.4	-42.1	18.5	0.00e+00	90	24	0	19922944	54	6498
2026-01-10 01:14:19.39	183.93	3.73	-40.9	-42.7	18.6	0.00e+00	0	24	0	22020096	56	6207
2026-01-10 01:14:20.39	183.97	3.79	-46.4	-61.1	3.6	1.42e+00	0	24	104	23068672	60	41059
2026-01-10 01:14:21.40	184.01	3.86	-44.5	-48.7	14.1	1.49e+00	15	24	104	23068672	60	9889
2026-01-10 01:14:22.41	184.06	3.93	-43.0	-45.8	15.6	0.00e+00	92	24	0	24117248	58	7890
2026-01-10 01:14:23.42	184.10	3.99	-42.0	-44.2	16.6	0.00e+00	90	24	0	25165824	56	7350
2026-01-10 01:14:24.43	184.14	4.06	-41.7	-43.7	17.2	0.00e+00	90	24	0	27262976	56	6942
2026-01-10 01:14:25.44	184.19	4.13	-41.4	-43.2	17.7	0.00e+00	92	24	0	29360128	56	6601
2026-01-10 01:14:26.45	184.23	4.19	-41.6	-43.6	17.2	0.00e+00	91	24	0	31457280	56	6919
2026-01-10 01:14:27.46	184.27	4.26	-41.4	-43.4	17.6	0.00e+00	91	24	0	33554432	56	6726
2026-01-10 01:14:28.47	184.32	4.33	-41.4	-43.3	17.7	0.00e+00	55	24	0	34603008	56	6624
2026-01-10 01:14:29.48	184.36	4.40	-41.3	-43.1	17.6	0.00e+00	90	24	0	36700160	56	6528
2026-01-10 01:14:30.49	184.41	4.46	-41.1	-42.9	17.9	0.00e+00	91	24	0	38797312	56	6351
2026-01-10 01:14:31.50	184.45	4.53	-41.3	-43.1	18.0	0.00e+00	91	24	0	40894464	56	6518
2026-01-10 01:14:32.51	184.49	4.60	-41.1	-42.9	18.1	0.00e+00	91	24	0	42991616	56	6379
2026-01-10 01:14:33.52	184.54	4.67	-40.8	-42.4	18.5	0.00e+00	91	24	0	44040192	56	6022
2026-01-10 01:14:34.53	184.58	4.74	-40.0	-41.5	19.3	0.00e+00	92	24	0	46137344	54	6062
2026-01-10 01:14:35.54	184.63	4.81	-39.8	-41.2	19.6	0.00e+00	2	24	0	48234496	54	5889
2026-01-10 01:14:36.55	184.67	4.87	-39.7	-41.2	19.6	0.00e+00	91	24	0	50331648	52	6560
2026-01-10 01:14:37.56	184.72	4.94	-39.7	-41.1	19.8	0.00e+00	0	24	0	52428800	52	6501
2026-01-10 01:14:38.57	184.77	5.01	-39.6	-40.9	19.9	0.00e+00	92	24	0	53477376	52	6390
2026-01-10 01:14:39.58	184.81	5.08	-39.8	-41.2	19.7	0.00e+00	90	24	0	55574528	52	6551
2026-01-10 01:14:40.59	184.86	5.15	-39.7	-41.1	19.8	0.00e+00	90	24	0	57671680	52	6510
2026-01-10 01:14:41.60	184.90	5.22	-39.5	-40.9	20.1	0.00e+00	92	24	0	59768832	52	6320
2026-01-10 01:14:42.61	184.95	5.29	-39.7	-41.0	19.9	0.00e+00	49	24	0	61865984	52	6444
2026-01-10 01:14:43.62	185.00	5.36	-39.6	-41.0	19.9	0.00e+00	92	24	0	62914560	52	6396
2026-01-10 01:14:44.63	185.04	5.43	-39.7	-41.1	19.9	0.00e+00	16	24	0	65011712	52	6467
2026-01-10 01:14:45.64	185.09	5.50	-39.6	-41.0	20.0	0.00e+00	92	24	0	67108864	52	6418
2026-01-10 01:14:46.65	185.14	5.57	-39.7	-41.1	19.9	0.00e+00	92	24	0	69206016	52	6503
2026-01-10 01:14:47.66	185.19	5.64	-39.9	-41.3	19.7	0.00e+00	92	24	0	71303168	52	6635
2026-01-10 01:14:48.67	185.23	5.71	-39.6	-40.9	20.1	0.00e+00	90	24	0	72351744	52	6356
2026-01-10 01:14:49.68	185.28	5.78	-39.5	-40.9	20.1	0.00e+00	92	24	0	74448896	52	6334
2026-01-10 01:14:50.69	185.33	5.86	-39.4	-40.7	20.3	0.00e+00	90	24	0	76546048	52	6220
2026-01-10 01:14:51.69	185.38	5.93	-39.5	-40.8	20.2	0.00e+00	6	24	0	78643200	52	6297
2026-01-10 01:14:52.70	185.43	6.00	-39.5	-40.9	20.1	0.00e+00	92	24	0	80740352	52	6343
2026-01-10 01:14:53.71	185.48	6.07	-39.4	-40.8	20.3	0.00e+00	90	24	0	82837504	52	6252
2026-01-10 01:14:54.72	185.53	6.14	-39.5	-40.8	20.3	0.00e+00	93	24	0	83886080	52	6279
2026-01-10 01:14:55.73	185.57	6.21	-39.4	-40.7	20.3	0.00e+00	91	24	0	85983232	52	6237
2026-01-10 01:14:56.74	185.62	6.29	-39.3	-40.6	20.4	0.00e+00	92	24	0	88080384	52	6150
2026-01-10 01:14:57.75	185.67	6.36	-39.3	-40.6	20.4	0.00e+00	90	24	0	90177536	52	6142
2026-01-10 01:14:58.76	185.72	6.43	-39.1	-40.4	20.6	0.00e+00	0	24	0	92274688	52	5987
2026-01-10 01:14:59.77	185.77	6.50	-39.2	-40.5	20.6	0.00e+00	92	24	0	93323264	52	6053
2026-01-10 01:15:00.78	185.82	6.58	-39.3	-40.6	20.4	0.00e+00	33	24	0	95420416	52	6153
2026-01-10 01:15:01.79	185.88	6.65	-39.0	-40.2	20.8	0.00e+00	92	24	0	97517568	52	5894
2026-01-10 01:15:02.79	185.93	6.72	-39.1	-40.3	20.8	0.00e+00	92	24	0	99614720	52	5945
2026-01-10 01:15:03.80	185.98	6.80	-39.2	-40.5	20.7	0.00e+00	91	24	0	100663296	52	6040
2026-01-10 01:15:04.81	186.03	6.87	-39.0	-40.3	20.9	0.00e+00	91	24	0	102760448	52	5901
2026-01-10 01:15:05.82	186.08	6.94	-38.9	-40.1	21.1	0.00e+00	90	24	0	104857600	52	5795
2026-01-10 01:15:06.83	186.13	7.02	-39.0	-40.2	20.9	0.00e+00	90	24	0	106954752	52	5836
2026-01-10 01:15:07.84	186.18	7.09	-38.8	-40.0	21.1	0.00e+00	0	24	0	109051904	52	5743
2026-01-10 01:15:08.85	186.24	7.17	-38.9	-40.1	21.1	0.00e+00	92	24	0	111149056	52	5782
2026-01-10 01:15:09.86	186.29	7.24	-38.9	-40.1	21.0	0.00e+00	92	25	0	112197632	52	5770
2026-01-10 01:15:10.87	186.34	7.32	-38.9	-40.1	21.1	0.00e+00	92	25	0	114294784	52	5784
2026-01-10 01:15:11.88	186.40	7.39	-38.8	-40.0	21.1	0.00e+00	90	24	0	116391936	52	5752
2026-01-10 01:15:12.88	186.45	7.47	-39.0	-40.2	21.0	0.00e+00	92	24	0	118489088	52	5842
2026-01-10 01:15:13.89	186.50	7.54	-38.9	-40.1	21.0	0.00e+00	92	24	0	120586240	52	5812
2026-01-10 01:15:14.90	186.56	7.62	-38.9	-40.1	21.0	0.00e+00	61	24	0	121634816	52	5812
2026-01-10 01:15:15.91	186.61	7.69	-38.9	-40.1	21.0	0.00e+00	92	25	0	123731968	52	5806
2026-01-10 01:15:16.92	186.67	7.77	-39.0	-40.2	21.0	0.00e+00	92	25	0	125829120	52	5832
2026-01-10 01:15:17.93	186.72	7.85	-38.8	-40.0	21.1	0.00e+00	93	25	0	127926272	52	5747
2026-01-10 01:15:18.94	186.78	7.92	-38.8	-40.0	21.2	0.00e+00	92	25	0	130023424	52	5714
2026-01-10 01:15:19.95	186.83	8.00	-38.9	-40.1	21.0	0.00e+00	92	25	0	131072000	52	5808
2026-01-10 01:15:20.96	186.89	8.08	-38.8	-40.0	21.2	0.00e+00	92	24	0	133169152	52	5708
2026-01-10 01:15:21.97	186.94	8.16	-38.7	-39.9	21.3	0.00e+00	0	25	0	135266304	50	6329
2026-01-10 01:15:22.98	187.00	8.23	-38.7	-39.8	21.3	0.00e+00	92	25	0	137363456	50	6314
2026-01-10 01:15:23.99	187.05	8.31	-38.6	-39.8	21.4	0.00e+00	33	25	0	139460608	50	6267
2026-01-10 01:15:25.00	187.11	8.39	-38.8	-39.9	21.3	0.00e+00	92	25	0	140509184	50	6378
2026-01-10 01:15:26.01	187.17	8.47	-38.7	-39.8	21.4	0.00e+00	92	25	0	142606336	50	6305
2026-01-10 01:15:27.02	187.23	8.54	-38.7	-39.9	21.3	0.00e+00	92	25	0	144703488	50	6351
2026-01-10 01:15:28.02	187.28	8.62	-38.6	-39.7	21.5	0.00e+00	91	25	0	146800640	50	6191
2026-01-10 01:15:29.03	187.34	8.70	-38.5	-39.6	21.7	0.00e+00	92	25	0	148897792	50	6120
2026-01-10 01:15:30.04	187.40	8.78	-38.6	-39.7	21.5	0.00e+00	90	24	0	149946368	50	6231
2026-01-10 01:15:31.05	187.46	8.86	-38.3	-39.4	21.8	0.00e+00	0	25	0	152043520	50	6005
2026-01-10 01:15:32.06	187.52	8.94	-38.2	-39.3	21.9	0.00e+00	91	24	0	154140672	50	5937
2026-01-10 01:15:33.07	187.57	9.02	-38.3	-39.4	21.8	0.00e+00	92	24	0	156237824	50	5995
2026-01-10 01:15:34.08	187.63	9.10	-38.2	-39.3	21.9	0.00e+00	92	25	0	158334976	50	5952
2026-01-10 01:15:35.09	187.69	9.18	-38.1	-39.2	22.0	0.00e+00	92	25	0	159383552	50	5868
2026-01-10 01:15:36.10	187.75	9.26	-38.2	-39.2	21.9	0.00e+00	92	24	0	161480704	50	5890
2026-01-10 01:15:37.11	187.81	9.34	-38.1	-39.1	22.0	0.00e+00	92	25	0	163577856	50	5826
2026-01-10 01:15:38.11	187.87	9.42	-38.0	-39.0	22.2	0.00e+00	0	25	0	165675008	50	5760
2026-01-10 01:15:39.12	187.93	9.50	-38.0	-39.1	22.1	0.00e+00	90	25	0	167772160	50	5776
2026-01-10 01:15:40.13	188.00	9.58	-38.0	-39.1	22.1	0.00e+00	92	25	0	168820736	50	5764
2026-01-10 01:15:41.14	188.06	9.66	-38.0	-39.0	22.2	0.00e+00	92	25	0	170917888	50	5733
2026-01-10 01:15:42.15	188.12	9.75	-37.9	-38.9	22.3	0.00e+00	92	25	0	173015040	50	5680
2026-01-10 01:15:43.16	188.18	9.83	-38.0	-39.1	22.1	0.00e+00	92	24	0	175112192	50	5798
2026-01-10 01:15:44.17	188.24	9.91	-37.9	-39.0	22.2	0.00e+00	92	24	0	177209344	50	5707
2026-01-10 01:15:45.18	188.31	9.99	-38.0	-39.1	22.1	0.00e+00	26	25	0	179306496	50	5771
2026-01-10 01:15:46.19	188.37	10.08	-38.0	-39.0	22.2	0.00e+00	92	25	0	180355072	50	5756
2026-01-10 01:15:47.20	188.43	10.16	-38.0	-39.0	22.3	0.00e+00	4	25	0	182452224	50	5760
2026-01-10 01:15:48.20	188.50	10.24	-38.1	-39.1	22.1	0.00e+00	92	25	0	184549376	50	5817
2026-01-10 01:15:49.21	188.56	10.33	-37.9	-38.9	22.3	0.00e+00	92	25	0	186646528	50	5687
2026-01-10 01:15:50.22	188.63	10.41	-37.9	-38.9	22.3	0.00e+00	92	25	0	188743680	50	5685
2026-01-10 01:15:51.23	188.69	10.49	-37.7	-38.8	22.4	0.00e+00	92	24	0	189792256	50	5574
2026-01-10 01:15:52.24	188.76	10.58	-37.6	-38.7	22.5	0.00e+00	58	24	0	191889408	48	6180
2026-01-10 01:15:53.25	188.82	10.66	-37.8	-38.8	22.4	0.00e+00	92	25	0	193986560	48	6286
2026-01-10 01:15:54.26	188.89	10.75	-37.6	-38.6	22.6	0.00e+00	0	24	0	196083712	48	6168
2026-01-10 01:15:55.27	188.95	10.83	-37.4	-38.4	22.8	0.00e+00	92	25	0	198180864	48	5995
2026-01-10 01:15:56.28	189.02	10.92	-37.5	-38.5	22.7	0.00e+00	91	25	0	199229440	48	6082
2026-01-10 01:15:57.29	189.09	11.00	-37.4	-38.3	22.8	0.00e+00	90	24	0	201326592	48	5948
2026-01-10 01:15:58.30	189.16	11.09	-37.2	-38.2	23.1	0.00e+00	92	25	0	203423744	48	5831
2026-01-10 01:15:59.31	189.22	11.18	-37.1	-38.0	23.1	0.00e+00	92	25	0	205520896	48	5738
2026-01-10 01:16:00.32	189.29	11.26	-37.1	-38.0	23.2	0.00e+00	92	25	0	207618048	48	5728
2026-01-10 01:16:01.33	189.36	11.35	-37.0	-37.9	23.3	0.00e+00	0	24	0	208666624	48	5679
2026-01-10 01:16:02.34	189.43	11.44	-36.9	-37.8	23.3	0.00e+00	91	24	0	210763776	48	5613
2026-01-10 01:16:03.34	189.50	11.52	-37.0	-38.0	23.2	0.00e+00	33	25	0	212860928	48	5704
2026-01-10 01:16:04.35	189.57	11.61	-36.9	-37.8	23.3	0.00e+00	92	25	0	214958080	48	5606
2026-01-10 01:16:05.36	189.64	11.70	-37.0	-37.9	23.3	0.00e+00	91	25	0	217055232	48	5661
2026-01-10 01:16:06.37	189.71	11.79	-36.7	-37.7	23.5	0.00e+00	92	25	0	218103808	48	5512
2026-01-10 01:16:07.38	189.78	11.87	-36.9	-37.8	23.4	0.00e+00	92	25	0	220200960	46	6291
2026-01-10 01:16:08.39	189.85	11.96	-36.9	-37.8	23.4	0.00e+00	34	24	0	222298112	46	6294
2026-01-10 01:16:09.40	189.92	12.05	-36.9	-37.9	23.2	0.00e+00	92	25	0	224395264	46	6339
2026-01-10 01:16:10.41	189.99	12.14	-36.8	-37.7	23.5	0.00e+00	0	25	0	226492416	46	6215
2026-01-10 01:16:11.42	190.07	12.23	-36.9	-37.8	23.3	0.00e+00	92	24	0	227540992	46	6303
2026-01-10 01:16:12.43	190.14	12.32	-37.1	-38.1	23.1	0.00e+00	92	25	0	229638144	46	6493
2026-01-10 01:16:13.44	190.21	12.41	-36.8	-37.7	23.5	0.00e+00	90	25	0	231735296	46	6238
2026-01-10 01:16:14.45	190.29	12.50	-36.8	-37.8	23.5	0.00e+00	92	25	0	233832448	46	6255
2026-01-10 01:16:15.46	190.36	12.59	-36.8	-37.7	23.5	0.00e+00	92	25	0	235929600	46	6228
2026-01-10 01:16:16.46	190.44	12.68	-36.8	-37.8	23.4	0.00e+00	92	25	0	236978176	46	6261
2026-01-10 01:16:17.47	190.51	12.77	-36.8	-37.7	23.5	0.00e+00	59	25	0	239075328	46	6237
2026-01-10 01:16:18.48	190.59	12.87	-36.8	-37.7	23.5	0.00e+00	90	25	0	241172480	46	6219
2026-01-10 01:16:19.49	190.66	12.96	-36.9	-37.8	23.5	0.00e+00	92	25	0	243269632	46	6261
2026-01-10 01:16:20.50	190.74	13.05	-36.7	-37.6	23.6	0.00e+00	92	25	0	245366784	46	6121
2026-01-10 01:16:21.51	190.82	13.14	-36.8	-37.7	23.5	0.00e+00	92	25	0	247463936	46	6231
2026-01-10 01:16:22.52	190.89	13.24	-36.6	-37.5	23.7	0.00e+00	90	25	0	248512512	46	6081
2026-01-10 01:16:23.53	190.97	13.33	-36.7	-37.6	23.7	0.00e+00	92	25	0	250609664	46	6105
2026-01-10 01:16:24.54	191.05	13.42	-36.6	-37.5	23.7	0.00e+00	0	25	0	252706816	46	6093
2026-01-10 01:16:25.55	191.13	13.52	-36.7	-37.6	23.6	0.00e+00	93	25	0	254803968	46	6153
2026-01-10 01:16:26.56	191.21	13.61	-36.6	-37.4	23.8	0.00e+00	80	25	0	256901120	46	6026
2026-01-10 01:16:27.57	191.29	13.70	-36.6	-37.5	23.7	0.00e+00	92	25	0	257949696	46	6050
2026-01-10 01:16:28.58	191.37	13.80	-36.5	-37.4	23.7	0.00e+00	92	25	0	260046848	46	6018
2026-01-10 01:16:29.59	191.45	13.89	-36.4	-37.3	23.8	0.00e+00	92	25	0	262144000	46	5952
2026-01-10 01:16:30.60	191.53	13.99	-36.6	-37.4	23.8	0.00e+00	92	25	0	264241152	46	6026
2026-01-10 01:16:31.60	191.61	14.08	-36.5	-37.4	23.9	0.00e+00	60	25	0	266338304	46	6013
2026-01-10 01:16:32.61	191.69	14.18	-36.4	-37.3	23.9	0.00e+00	92	25	0	267386880	46	5928
2026-01-10 01:16:33.62	191.78	14.28	-36.4	-37.3	23.9	0.00e+00	0	25	0	269484032	46	5942
2026-01-10 01:16:34.63	191.86	14.37	-36.3	-37.2	23.9	0.00e+00	92	25	0	271581184	46	5872
2026-01-10 01:16:35.64	191.94	14.47	-36.4	-37.3	23.9	0.00e+00	92	25	0	273678336	46	5924
2026-01-10 01:16:36.65	192.03	14.57	-36.5	-37.4	23.8	0.00e+00	92	25	0	275775488	46	5968
2026-01-10 01:16:37.66	192.11	14.67	-36.4	-37.2	24.0	0.00e+00	90	25	0	276824064	46	5881
2026-01-10 01:16:38.67	192.20	14.76	-36.4	-37.3	23.9	0.00e+00	92	25	0	278921216	46	5919
2026-01-10 01:16:39.68	192.28	14.86	-36.4	-37.3	24.0	0.00e+00	92	25	0	281018368	46	5915
2026-01-10 01:16:40.69	192.37	14.96	-36.4	-37.3	23.9	0.00e+00	63	25	0	283115520	46	5906
2026-01-10 01:16:41.70	192.46	15.06	-36.3	-37.2	24.0	0.00e+00	92	25	0	285212672	46	5855
2026-01-10 01:16:42.71	192.54	15.16	-36.2	-37.1	24.1	0.00e+00	90	25	0	286261248	46	5763
2026-01-10 01:16:43.72	192.63	15.26	-36.2	-37.0	24.2	0.00e+00	92	25	0	288358400	46	5721
2026-01-10 01:16:44.73	192.72	15.36	-36.2	-37.1	24.2	0.00e+00	92	25	0	290455552	46	5763
2026-01-10 01:16:45.74	192.81	15.46	-36.2	-37.1	24.2	0.00e+00	92	25	0	292552704	46	5787
2026-01-10 01:16:46.75	192.90	15.56	-36.1	-37.0	24.3	0.00e+00	92	25	0	294649856	46	5702
2026-01-10 01:16:47.76	192.99	15.66	-36.0	-36.9	24.4	0.00e+00	27	24	0	295698432	46	5644
2026-01-10 01:16:48.77	193.08	15.76	-36.1	-36.9	24.2	0.00e+00	92	25	0	297795584	46	5678
2026-01-10 01:16:49.77	193.17	15.86	-36.0	-36.8	24.4	0.00e+00	83	25	0	299892736	46	5593
2026-01-10 01:16:50.78	193.26	15.97	-36.1	-37.0	24.2	0.00e+00	92	25	0	301989888	46	5709
2026-01-10 01:16:51.79	193.36	16.07	-35.9	-36.8	24.4	0.00e+00	92	25	0	304087040	46	5568
2026-01-10 01:16:52.80	193.45	16.17	-36.0	-36.8	24.4	0.00e+00	90	25	0	305135616	46	5628
2026-01-10 01:16:53.81	193.54	16.28	-36.0	-36.8	24.4	0.00e+00	92	25	0	307232768	46	5592
2026-01-10 01:16:54.82	193.64	16.38	-36.0	-36.8	24.3	0.00e+00	65	25	0	309329920	46	5615
2026-01-10 01:16:55.83	193.73	16.48	-36.0	-36.9	24.3	0.00e+00	91	25	0	311427072	46	5655
2026-01-10 01:16:56.84	193.83	16.59	-36.0	-36.9	24.3	0.00e+00	0	25	0	313524224	46	5654
2026-01-10 01:16:57.85	193.93	16.69	-36.1	-37.0	24.2	0.00e+00	92	25	0	314572800	46	5701
2026-01-10 01:16:58.86	194.02	16.80	-36.1	-36.9	24.3	0.00e+00	91	25	0	316669952	46	5687
2026-01-10 01:16:59.87	194.12	16.90	-36.2	-37.0	24.2	0.00e+00	91	25	0	318767104	46	5757
2026-01-10 01:17:00.88	194.22	17.01	-36.2	-37.1	24.2	0.00e+00	92	25	0	320864256	46	5784
2026-01-10 01:17:01.89	194.32	17.12	-36.2	-37.1	24.2	0.00e+00	91	25	0	322961408	46	5762
2026-01-10 01:17:02.90	194.42	17.22	-36.4	-37.3	24.0	0.00e+00	92	25	0	324009984	46	5907
2026-01-10 01:17:03.91	194.52	17.33	-36.5	-37.3	23.9	0.00e+00	0	25	0	326107136	46	5955
2026-01-10 01:17:04.92	194.62	17.44	-36.4	-37.3	24.0	0.00e+00	92	25	0	328204288	46	5912
2026-01-10 01:17:05.92	194.72	17.54	-36.5	-37.4	23.9	0.00e+00	90	25	0	330301440	46	6016
2026-01-10 01:17:06.94	194.83	17.65	-36.6	-37.5	23.9	0.00e+00	92	25	0	332398592	46	6057
2026-01-10 01:17:07.94	194.93	17.76	-36.3	-37.2	24.1	0.00e+00	90	25	0	333447168	46	5856
2026-01-10 01:17:08.95	195.03	17.87	-36.4	-37.3	24.0	0.00e+00	92	25	0	335544320	46	5911
2026-01-10 01:17:09.96	195.14	17.98	-36.4	-37.3	23.9	0.00e+00	90	25	0	337641472	46	5943
2026-01-10 01:17:10.97	195.24	18.09	-36.6	-37.4	23.8	0.00e+00	0	25	0	339738624	46	6030
2026-01-10 01:17:11.98	195.35	18.20	-36.5	-37.3	24.0	0.00e+00	92	24	0	341835776	46	5957
2026-01-10 01:17:12.99	195.46	18.31	-36.6	-37.4	24.0	0.00e+00	2	25	0	343932928	46	6019
2026-01-10 01:17:14.00	195.56	18.42	-36.6	-37.5	23.8	0.00e+00	90	25	0	344981504	46	6044
2026-01-10 01:17:15.01	195.67	18.53	-36.7	-37.6	23.7	0.00e+00	92	25	0	347078656	46	6164
2026-01-10 01:17:16.02	195.78	18.64	-36.7	-37.6	23.8	0.00e+00	90	25	0	349175808	46	6158
2026-01-10 01:17:17.03	195.89	18.76	-36.7	-37.6	23.7	0.00e+00	92	25	0	351272960	46	6147
2026-01-10 01:17:18.04	196.00	18.87	-36.6	-37.5	23.9	0.00e+00	66	25	0	353370112	46	6094
2026-01-10 01:17:19.05	196.11	18.98	-36.8	-37.7	23.8	0.00e+00	92	25	0	354418688	46	6186
2026-01-10 01:17:20.05	196.22	19.10	-36.8	-37.7	23.7	0.00e+00	85	25	0	356515840	46	6213
2026-01-10 01:17:21.06	196.34	19.21	-36.8	-37.7	23.6	0.00e+00	92	25	0	358612992	46	6227
2026-01-10 01:17:22.07	196.45	19.32	-36.7	-37.6	23.9	0.00e+00	90	25	0	360710144	46	6134
2026-01-10 01:17:23.08	196.57	19.44	-36.8	-37.7	23.7	0.00e+00	91	25	0	362807296	46	6197
2026-01-10 01:17:24.09	196.68	19.55	-36.7	-37.6	23.8	0.00e+00	90	25	0	363855872	46	6139
2026-01-10 01:17:25.10	196.80	19.67	-36.8	-37.7	23.7	0.00e+00	61	25	0	365953024	46	6178
2026-01-10 01:17:26.11	196.92	19.79	-36.8	-37.7	23.7	0.00e+00	90	25	0	368050176	46	6204
2026-01-10 01:17:27.12	197.03	19.90	-36.9	-37.8	23.6	0.00e+00	7	25	0	370147328	46	6308
2026-01-10 01:17:28.13	197.15	20.02	-36.9	-37.8	23.6	0.00e+00	91	25	0	372244480	46	6258
2026-01-10 01:17:29.14	197.27	20.14	-36.8	-37.7	23.7	0.00e+00	90	25	0	373293056	46	6230
2026-01-10 01:17:30.14	197.39	20.25	-36.7	-37.6	23.8	0.00e+00	92	25	0	375390208	46	6164
2026-01-10 01:17:31.15	197.51	20.37	-37.0	-37.9	23.6	0.00e+00	92	25	0	377487360	46	6330
2026-01-10 01:17:32.16	197.64	20.49	-36.9	-37.9	23.5	0.00e+00	30	25	0	379584512	46	6318
2026-01-10 01:17:33.17	197.76	20.61	-36.9	-37.8	23.6	0.00e+00	92	25	0	381681664	46	6277
2026-01-10 01:17:34.18	197.89	20.73	-37.1	-38.0	23.4	0.00e+00	0	25	0	382730240	46	6462
2026-01-10 01:17:35.19	198.01	20.85	-36.8	-37.7	23.7	0.00e+00	92	25	0	384827392	46	6190
2026-01-10 01:17:36.19	198.14	20.97	-36.7	-37.6	23.8	0.00e+00	2	25	0	386924544	46	6163
2026-01-10 01:17:37.20	198.26	21.09	-36.9	-37.8	23.6	0.00e+00	92	25	0	389021696	46	6309
2026-01-10 01:17:38.22	198.39	21.21	-36.6	-37.5	23.9	0.00e+00	92	25	0	391118848	46	6088
2026-01-10 01:17:39.23	198.52	21.33	-36.7	-37.6	23.9	0.00e+00	0	25	0	392167424	46	6127
2026-01-10 01:17:40.24	198.65	21.46	-36.6	-37.5	24.0	0.00e+00	92	25	0	394264576	46	6069
2026-01-10 01:17:41.24	198.78	21.58	-36.7	-37.6	23.9	0.00e+00	45	25	0	396361728	46	6164
2026-01-10 01:17:42.26	198.92	21.70	-36.8	-37.7	23.7	0.00e+00	92	25	0	398458880	46	6190
2026-01-10 01:17:43.27	199.05	21.82	-36.6	-37.5	24.0	0.00e+00	0	25	0	400556032	46	6048
2026-01-10 01:17:44.28	199.18	21.95	-36.7	-37.6	23.8	0.00e+00	92	25	0	401604608	46	6133
2026-01-10 01:17:45.28	199.32	22.07	-36.4	-37.3	24.1	0.00e+00	92	25	0	403701760	46	5934
2026-01-10 01:17:46.29	199.45	22.20	-36.5	-37.4	23.9	0.00e+00	90	25	0	405798912	46	5971
2026-01-10 01:17:47.30	199.59	22.32	-36.5	-37.4	24.1	0.00e+00	92	25	0	407896064	46	5965
2026-01-10 01:17:48.31	199.73	22.45	-36.6	-37.5	24.0	0.00e+00	0	25	0	409993216	46	6056
2026-01-10 01:17:49.32	199.87	22.57	-36.7	-37.5	23.9	0.00e+00	92	25	0	412090368	46	6088
2026-01-10 01:17:50.33	200.01	22.70	-36.7	-37.6	23.8	0.00e+00	7	25	0	413138944	46	6108
2026-01-10 01:17:51.34	200.15	22.83	-36.6	-37.4	24.0	0.00e+00	92	25	0	415236096	46	6019
2026-01-10 01:17:52.35	200.30	22.96	-36.5	-37.4	24.0	0.00e+00	87	25	0	417333248	46	6000
2026-01-10 01:17:53.36	200.44	23.08	-36.7	-37.5	23.9	0.00e+00	92	25	0	419430400	46	6090
2026-01-10 01:17:54.37	200.59	23.21	-36.7	-37.6	23.7	0.00e+00	92	25	0	421527552	46	6159
2026-01-10 01:17:55.38	200.73	23.34	-36.8	-37.7	23.4	0.00e+00	0	25	0	422576128	46	6211
2026-01-10 01:17:56.38	200.88	23.47	-36.7	-37.6	23.8	0.00e+00	90	25	0	424673280	46	6168
2026-01-10 01:17:57.39	201.03	23.60	-36.7	-37.6	23.8	0.00e+00	0	25	0	426770432	46	6154
2026-01-10 01:17:58.40	201.18	23.73	-36.9	-37.8	23.7	0.00e+00	92	25	0	428867584	46	6290
2026-01-10 01:17:59.41	201.33	23.86	-36.7	-37.6	23.9	0.00e+00	0	25	0	430964736	46	6105
2026-01-10 01:18:00.42	201.48	23.99	-36.8	-37.8	23.8	0.00e+00	91	24	0	432013312	46	6249
2026-01-10 01:18:01.43	201.63	24.12	-36.5	-37.4	24.0	0.00e+00	92	25	0	434110464	46	6001
2026-01-10 01:18:02.44	201.79	24.26	-36.7	-37.6	23.9	0.00e+00	92	25	0	436207616	46	6134
2026-01-10 01:18:03.45	201.95	24.39	-36.6	-37.5	24.0	0.00e+00	92	25	0	438304768	46	6055
2026-01-10 01:18:04.46	202.10	24.52	-36.4	-37.3	24.2	0.00e+00	12	25	0	440401920	46	5912
2026-01-10 01:18:05.47	202.26	24.66	-36.6	-37.5	24.0	0.00e+00	90	25	0	441450496	46	6037
2026-01-10 01:18:06.48	202.42	24.79	-36.6	-37.5	23.9	0.00e+00	0	25	0	443547648	46	6052
2026-01-10 01:18:07.48	202.58	24.92	-36.5	-37.3	24.1	0.00e+00	90	25	0	445644800	46	5950
2026-01-10 01:18:08.50	202.75	25.06	-36.8	-37.7	23.9	0.00e+00	92	25	0	447741952	46	6179
2026-01-10 01:18:09.50	202.91	25.19	-36.8	-37.7	23.8	0.00e+00	90	25	0	449839104	46	6180
2026-01-10 01:18:10.51	203.07	25.33	-36.8	-37.7	23.8	0.00e+00	90	25	0	450887680	46	6186
2026-01-10 01:18:11.52	203.24	25.47	-36.9	-37.7	23.8	0.00e+00	5	25	0	452984832	46	6235
2026-01-10 01:18:12.53	203.41	25.60	-36.9	-37.7	23.8	0.00e+00	92	25	0	455081984	46	6240
2026-01-10 01:18:13.54	203.58	25.74	-36.8	-37.7	23.9	0.00e+00	0	25	0	457179136	46	6223
2026-01-10 01:18:14.55	203.75	25.88	-36.8	-37.6	23.9	0.00e+00	92	25	0	459276288	46	6171
2026-01-10 01:18:15.56	203.92	26.01	-36.8	-37.7	23.8	0.00e+00	92	25	0	460324864	46	6182
2026-01-10 01:18:16.57	204.10	26.15	-36.6	-37.5	24.0	0.00e+00	92	25	0	462422016	46	6088
2026-01-10 01:18:17.58	204.27	26.29	-36.7	-37.5	24.0	0.00e+00	92	25	0	464519168	46	6100
2026-01-10 01:18:18.59	204.45	26.43	-36.8	-37.6	23.9	0.00e+00	70	25	0	466616320	46	6164
2026-01-10 01:18:19.60	204.63	26.57	-36.8	-37.7	23.8	0.00e+00	92	25	0	468713472	46	6234
2026-01-10 01:18:20.61	204.81	26.71	-37.1	-38.0	23.6	0.00e+00	33	25	0	469762048	46	6411
2026-01-10 01:18:21.62	204.99	26.85	-37.2	-38.1	23.5	0.00e+00	92	25	0	471859200	46	6499
2026-01-10 01:18:22.63	205.17	26.99	-37.3	-38.2	23.4	0.00e+00	0	25	0	473956352	46	6610
2026-01-10 01:18:23.64	205.36	27.14	-37.4	-38.4	23.2	0.00e+00	91	25	0	476053504	46	6705
2026-01-10 01:18:24.65	205.54	27.28	-37.6	-38.6	23.1	0.00e+00	91	25	0	478150656	46	6865
2026-01-10 01:18:25.66	205.73	27.42	-37.8	-38.7	23.0	0.00e+00	92	25	0	480247808	48	6228
2026-01-10 01:18:26.66	205.92	27.56	-37.8	-38.8	22.8	0.00e+00	91	25	0	481296384	48	6295
2026-01-10 01:18:27.67	206.11	27.70	-38.0	-38.9	22.7	0.00e+00	14	25	0	483393536	48	6385
2026-01-10 01:18:28.67	206.30	27.85	-38.1	-39.1	22.6	0.00e+00	92	25	0	485490688	48	6467
2026-01-10 01:18:29.68	206.50	27.99	-37.9	-38.9	22.7	0.00e+00	59	25	0	487587840	48	6362
2026-01-10 01:18:30.69	206.69	28.14	-38.0	-39.0	22.7	0.00e+00	92	25	0	488636416	48	6417
2026-01-10 01:18:31.70	206.89	28.28	-37.8	-38.8	22.9	0.00e+00	91	25	0	490733568	48	6284
2026-01-10 01:18:32.71	207.09	28.43	-38.0	-39.0	22.7	0.00e+00	90	25	0	492830720	48	6442
2026-01-10 01:18:33.72	207.29	28.57	-38.2	-39.2	22.4	0.00e+00	91	25	0	494927872	48	6600
2026-01-10 01:18:34.73	207.50	28.72	-38.3	-39.3	22.3	0.00e+00	90	25	0	497025024	48	6666
2026-01-10 01:18:35.74	207.70	28.86	-38.3	-39.3	22.3	0.00e+00	92	25	0	498073600	48	6683
2026-01-10 01:18:36.75	207.91	29.01	-38.4	-39.4	22.3	0.00e+00	0	25	0	500170752	48	6729
2026-01-10 01:18:37.76	208.12	29.16	-38.4	-39.4	22.2	0.00e+00	92	24	0	502267904	48	6762
2026-01-10 01:18:38.77	208.33	29.30	-38.8	-39.8	21.8	0.00e+00	3	25	0	504365056	48	7088
2026-01-10 01:18:39.78	208.54	29.45	-38.8	-39.8	21.9	0.00e+00	90	25	0	506462208	50	6305
2026-01-10 01:18:40.79	208.76	29.60	-39.0	-40.1	21.7	0.00e+00	92	25	0	507510784	50	6493
2026-01-10 01:18:41.79	208.97	29.75	-39.1	-40.3	21.6	0.00e+00	90	25	0	509607936	50	6618
2026-01-10 01:18:42.80	209.19	29.90	-39.1	-40.2	21.6	0.00e+00	92	25	0	511705088	50	6583
2026-01-10 01:18:43.81	209.41	30.05	-39.0	-40.1	21.7	0.00e+00	36	25	0	513802240	50	6503
2026-01-10 01:18:44.82	209.63	30.20	-38.9	-40.0	21.8	0.00e+00	90	25	0	515899392	50	6415
2026-01-10 01:18:45.83	209.86	30.35	-38.6	-39.7	22.1	0.00e+00	31	25	0	517996544	50	6181
2026-01-10 01:18:46.84	210.09	30.50	-38.4	-39.4	22.3	0.00e+00	90	25	0	519045120	50	6030
2026-01-10 01:18:47.85	210.31	30.65	-38.2	-39.2	22.6	0.00e+00	92	25	0	521142272	50	5837
2026-01-10 01:18:48.86	210.55	30.80	-38.2	-39.2	22.5	0.00e+00	90	25	0	523239424	50	5863
2026-01-10 01:18:49.87	210.78	30.95	-38.0	-39.0	22.8	0.00e+00	92	25	0	525336576	50	5716
2026-01-10 01:18:50.87	211.01	31.10	-37.9	-38.8	22.8	0.00e+00	43	25	0	527433728	50	5616
2026-01-10 01:18:51.89	211.25	31.25	-38.1	-39.1	22.6	0.00e+00	92	25	0	528482304	50	5806
2026-01-10 01:18:52.89	211.49	31.40	-38.1	-39.1	22.7	0.00e+00	51	25	0	530579456	50	5802
2026-01-10 01:18:53.90	211.73	31.55	-38.3	-39.3	22.3	0.00e+00	90	25	0	532676608	50	5921
2026-01-10 01:18:54.90	211.97	31.70	-38.0	-39.0	22.6	0.00e+00	92	25	0	534773760	50	5753
2026-01-10 01:18:55.92	212.22	31.86	-38.1	-39.1	22.6	0.00e+00	92	25	0	536870912	50	5767
2026-01-10 01:18:56.92	212.47	32.01	-38.0	-39.0	22.6	0.00e+00	90	25	0	537919488	50	5758
2026-01-10 01:18:57.93	212.72	32.16	-37.8	-38.7	22.9	0.00e+00	92	25	0	540016640	50	5559
2026-01-10 01:18:58.94	212.97	32.32	-37.8	-38.8	22.8	0.00e+00	92	25	0	542113792	48	6285
2026-01-10 01:18:59.95	213.22	32.47	-38.0	-39.0	22.8	0.00e+00	31	25	0	544210944	48	6404
2026-01-10 01:19:00.96	213.48	32.62	-37.8	-38.7	22.9	0.00e+00	90	25	0	546308096	48	6235
2026-01-10 01:19:01.97	213.74	32.78	-37.8	-38.8	22.9	0.00e+00	0	25	0	547356672	48	6275
2026-01-10 01:19:02.98	214.01	32.93	-37.9	-38.9	22.7	0.00e+00	92	25	0	549453824	48	6360
2026-01-10 01:19:03.99	214.27	33.08	-38.2	-39.2	22.6	0.00e+00	90	25	0	551550976	48	6557
2026-01-10 01:19:05.00	214.54	33.24	-38.1	-39.1	22.5	0.00e+00	92	25	0	553648128	48	6499
2026-01-10 01:19:06.01	214.81	33.39	-38.0	-39.1	22.6	0.00e+00	92	25	0	555745280	48	6476
2026-01-10 01:19:07.02	215.08	33.55	-38.0	-39.0	22.8	0.00e+00	0	25	0	556793856	48	6400
2026-01-10 01:19:08.03	215.35	33.70	-38.1	-39.1	22.7	0.00e+00	92	25	0	558891008	48	6494
2026-01-10 01:19:09.03	215.63	33.85	-37.9	-38.8	22.9	0.00e+00	35	25	0	560988160	48	6311
2026-01-10 01:19:10.04	215.91	34.01	-37.9	-38.9	22.7	0.00e+00	90	25	0	563085312	48	6325
2026-01-10 01:19:11.05	216.19	34.16	-37.7	-38.7	22.9	0.00e+00	91	25	0	565182464	48	6199
2026-01-10 01:19:12.06	216.48	34.32	-37.8	-38.7	22.9	0.00e+00	92	25	0	566231040	48	6236
2026-01-10 01:19:13.07	216.77	34.47	-38.0	-39.0	22.7	0.00e+00	92	25	0	568328192	48	6400
2026-01-10 01:19:14.08	217.06	34.63	-38.1	-39.1	22.5	0.00e+00	91	25	0	570425344	48	6535
2026-01-10 01:19:15.09	217.35	34.78	-38.3	-39.3	22.4	0.00e+00	92	25	0	572522496	48	6650
2026-01-10 01:19:16.10	217.65	34.93	-38.3	-39.3	22.5	0.00e+00	46	25	0	574619648	48	6635
2026-01-10 01:19:17.11	217.95	35.09	-38.1	-39.1	22.5	0.00e+00	91	25	0	576716800	48	6492
2026-01-10 01:19:18.12	218.25	35.24	-38.0	-39.0	22.7	0.00e+00	92	25	0	577765376	48	6456
2026-01-10 01:19:19.13	218.55	35.40	-37.9	-38.9	22.8	0.00e+00	92	25	0	579862528	48	6337
2026-01-10 01:19:20.14	218.86	35.55	-37.5	-38.5	23.2	0.00e+00	91	25	0	581959680	48	6054
2026-01-10 01:19:21.14	219.17	35.70	-36.9	-37.8	23.6	0.00e+00	90	25	0	584056832	48	5607
2026-01-10 01:19:22.15	219.48	35.86	-36.9	-37.8	23.7	0.00e+00	90	25	0	586153984	48	5609
2026-01-10 01:19:23.16	219.80	36.01	-36.9	-37.8	23.9	0.00e+00	0	25	0	587202560	48	5579
2026-01-10 01:19:24.17	220.11	36.16	-36.5	-37.4	24.1	0.00e+00	91	25	0	589299712	46	5981
2026-01-10 01:19:25.18	220.44	36.31	-36.6	-37.4	24.1	0.00e+00	8	25	0	591396864	46	6011
2026-01-10 01:19:26.18	220.76	36.46	-36.7	-37.6	24.0	0.00e+00	90	25	0	593494016	46	6113
2026-01-10 01:19:27.19	221.09	36.62	-37.0	-37.9	23.7	0.00e+00	92	25	0	594542592	46	6327
2026-01-10 01:19:28.20	221.42	36.77	-37.1	-38.0	23.5	0.00e+00	92	25	0	596639744	46	6463
2026-01-10 01:19:29.21	221.75	36.92	-37.3	-38.2	23.4	0.00e+00	92	25	0	598736896	46	6580
2026-01-10 01:19:30.22	222.09	37.07	-37.3	-38.2	23.4	0.00e+00	44	25	0	600834048	46	6576
2026-01-10 01:19:31.23	222.43	37.22	-37.1	-38.0	23.6	0.00e+00	92	25	0	602931200	46	6408
2026-01-10 01:19:32.24	222.77	37.37	-37.1	-38.0	23.8	0.00e+00	78	25	0	605028352	46	6404
2026-01-10 01:19:33.25	223.12	37.52	-36.6	-37.5	24.0	0.00e+00	90	25	0	606076928	46	6071
2026-01-10 01:19:34.26	223.47	37.67	-36.7	-37.6	23.9	0.00e+00	92	25	0	608174080	46	6151
2026-01-10 01:19:35.27	223.82	37.82	-37.1	-38.0	23.6	0.00e+00	92	25	0	610271232	46	6437
2026-01-10 01:19:36.28	224.17	37.97	-37.2	-38.1	23.5	0.00e+00	90	25	0	612368384	46	6537
2026-01-10 01:19:37.29	224.53	38.12	-37.8	-38.8	22.9	0.00e+00	92	25	0	614465536	46	7071
2026-01-10 01:19:38.29	224.89	38.26	-38.2	-39.2	22.5	0.00e+00	92	25	0	615514112	48	6575
2026-01-10 01:19:39.30	225.26	38.41	-38.3	-39.3	22.3	0.00e+00	8	25	0	617611264	48	6674
2026-01-10 01:19:40.31	225.63	38.55	-38.3	-39.4	22.3	0.00e+00	92	25	0	619708416	48	6698
2026-01-10 01:19:41.32	226.00	38.70	-38.2	-39.3	22.4	0.00e+00	92	25	0	621805568	48	6642
2026-01-10 01:19:42.32	226.37	38.84	-38.2	-39.2	22.5	0.00e+00	92	25	0	623902720	48	6595
2026-01-10 01:19:43.33	226.75	38.98	-38.3	-39.3	22.4	0.00e+00	92	25	0	624951296	48	6659
2026-01-10 01:19:44.34	227.13	39.13	-38.3	-39.4	22.3	0.00e+00	92	25	0	627048448	48	6718
2026-01-10 01:19:45.35	227.51	39.27	-38.7	-39.8	21.9	0.00e+00	92	25	0	629145600	48	7053
2026-01-10 01:19:46.36	227.90	39.41	-38.9	-40.0	21.7	0.00e+00	2	25	0	631242752	50	6420
2026-01-10 01:19:47.37	228.29	39.55	-39.2	-40.4	21.3	0.00e+00	92	25	0	633339904	50	6736
2026-01-10 01:19:48.38	228.69	39.69	-39.0	-40.1	21.6	0.00e+00	38	25	0	634388480	50	6515
2026-01-10 01:19:49.39	229.09	39.83	-38.8	-39.9	22.0	0.00e+00	92	25	0	636485632	50	6332
2026-01-10 01:19:50.40	229.49	39.96	-38.3	-39.4	22.3	0.00e+00	92	24	0	638582784	50	5969
2026-01-10 01:19:51.41	229.89	40.10	-37.8	-38.8	22.8	0.00e+00	92	25	0	640679936	50	5616
2026-01-10 01:19:52.42	230.30	40.24	-37.6	-38.6	23.1	0.00e+00	92	25	0	642777088	48	6118
2026-01-10 01:19:53.43	230.71	40.37	-37.6	-38.6	23.1	0.00e+00	45	25	0	643825664	48	6113
2026-01-10 01:19:54.44	231.13	40.50	-37.9	-38.9	22.8	0.00e+00	92	25	0	645922816	48	6324
2026-01-10 01:19:55.45	231.54	40.64	-38.2	-39.2	22.5	0.00e+00	6	25	0	648019968	48	6599
2026-01-10 01:19:56.46	231.97	40.77	-38.4	-39.5	22.2	0.00e+00	92	25	0	650117120	48	6789
2026-01-10 01:19:57.47	232.39	40.90	-38.5	-39.5	22.3	0.00e+00	92	25	0	652214272	48	6830
2026-01-10 01:19:58.48	232.82	41.02	-38.2	-39.2	22.5	0.00e+00	92	25	0	653262848	48	6587
2026-01-10 01:19:59.49	233.25	41.15	-38.1	-39.1	22.7	0.00e+00	92	25	0	655360000	48	6492
2026-01-10 01:20:00.50	233.69	41.28	-37.8	-38.8	22.8	0.00e+00	92	25	0	657457152	48	6262
2026-01-10 01:20:01.51	234.12	41.40	-38.1	-39.1	22.7	0.00e+00	92	25	0	659554304	48	6487
2026-01-10 01:20:02.52	234.57	41.52	-38.6	-39.6	22.1	0.00e+00	11	25	0	661651456	48	6911
2026-01-10 01:20:03.53	235.01	41.64	-39.2	-40.4	21.5	0.00e+00	92	25	0	662700032	50	6698
2026-01-10 01:20:04.54	235.46	41.76	-39.5	-40.8	21.1	0.00e+00	92	25	0	664797184	50	7011
2026-01-10 01:20:05.54	235.91	41.88	-39.6	-40.8	21.1	0.00e+00	92	25	0	666894336	52	6280
2026-01-10 01:20:06.55	236.36	42.00	-39.3	-40.4	21.4	0.00e+00	92	25	0	668991488	52	6027
2026-01-10 01:20:07.56	236.82	42.11	-39.0	-40.1	21.8	0.00e+00	92	25	0	671088640	52	5787
2026-01-10 01:20:08.57	237.28	42.22	-39.1	-40.2	21.7	0.00e+00	92	24	0	673185792	52	5863
2026-01-10 01:20:09.58	237.74	42.34	-39.1	-40.3	21.6	0.00e+00	0	25	0	674234368	52	5912
2026-01-10 01:20:10.59	238.21	42.44	-39.7	-40.9	20.9	0.00e+00	92	25	0	676331520	52	6362
2026-01-10 01:20:11.60	238.68	42.55	-39.9	-41.2	20.6	0.00e+00	0	25	0	678428672	52	6588
2026-01-10 01:20:12.61	239.15	42.66	-40.3	-41.7	20.3	0.00e+00	92	25	0	680525824	52	6966
2026-01-10 01:20:13.62	239.63	42.76	-40.1	-41.4	20.6	0.00e+00	92	25	0	682622976	52	6708
2026-01-10 01:20:14.63	240.11	42.87	-39.7	-40.9	21.0	0.00e+00	90	25	0	683671552	52	6367
2026-01-10 01:20:15.64	240.59	42.97	-39.3	-40.5	21.4	0.00e+00	90	25	0	685768704	52	6044
2026-01-10 01:20:16.64	241.07	43.06	-39.3	-40.5	21.5	0.00e+00	31	25	0	687865856	52	6057
2026-01-10 01:20:17.65	241.56	43.16	-39.2	-40.4	21.5	0.00e+00	90	25	0	689963008	52	5997
2026-01-10 01:20:18.66	242.05	43.25	-39.4	-40.5	21.3	0.00e+00	0	25	0	692060160	52	6085
2026-01-10 01:20:19.67	242.55	43.35	-39.5	-40.7	21.3	0.00e+00	92	25	0	693108736	52	6234
2026-01-10 01:20:20.68	243.04	43.44	-39.5	-40.7	21.2	0.00e+00	92	25	0	695205888	52	6208
2026-01-10 01:20:21.69	243.54	43.52	-39.3	-40.4	21.4	0.00e+00	92	25	0	697303040	52	6016
2026-01-10 01:20:22.70	244.05	43.61	-39.1	-40.2	21.8	0.00e+00	92	25	0	699400192	52	5850
2026-01-10 01:20:23.71	244.55	43.69	-38.6	-39.7	22.2	0.00e+00	90	25	0	701497344	50	6195
2026-01-10 01:20:24.72	245.06	43.78	-38.6	-39.6	22.1	0.00e+00	92	25	0	702545920	50	6162
2026-01-10 01:20:25.73	245.57	43.85	-39.0	-40.1	21.7	0.00e+00	7	25	0	704643072	50	6520
2026-01-10 01:20:26.73	246.08	43.93	-38.8	-39.9	21.8	0.00e+00	92	25	0	706740224	50	6367
2026-01-10 01:20:27.74	246.59	44.01	-38.1	-39.1	22.5	0.00e+00	91	25	0	708837376	50	5802
2026-01-10 01:20:28.75	247.11	44.08	-37.7	-38.6	23.1	0.00e+00	92	25	0	710934528	50	5487
2026-01-10 01:20:29.76	247.63	44.15	-37.6	-38.6	23.1	0.00e+00	91	25	0	711983104	48	6126
2026-01-10 01:20:30.77	248.15	44.21	-37.7	-38.7	23.1	0.00e+00	91	25	0	714080256	48	6177
2026-01-10 01:20:31.78	248.67	44.28	-37.9	-38.9	22.7	0.00e+00	92	25	0	716177408	48	6357
2026-01-10 01:20:32.79	249.20	44.34	-38.3	-39.3	22.5	0.00e+00	0	25	0	718274560	48	6637
2026-01-10 01:20:33.80	249.73	44.40	-38.7	-39.7	21.9	0.00e+00	92	25	0	720371712	48	6982
2026-01-10 01:20:34.81	250.26	44.46	-38.9	-40.0	21.8	0.00e+00	28	25	0	721420288	50	6409
2026-01-10 01:20:35.82	250.79	44.51	-38.7	-39.7	22.1	0.00e+00	92	25	0	723517440	50	6220
2026-01-10 01:20:36.83	251.32	44.56	-38.6	-39.7	22.1	0.00e+00	92	25	0	725614592	50	6177
2026-01-10 01:20:37.83	251.85	44.61	-38.9	-40.0	22.0	0.00e+00	92	25	0	727711744	50	6406
2026-01-10 01:20:38.84	252.39	44.66	-38.8	-39.9	22.0	0.00e+00	92	25	0	729808896	50	6319
2026-01-10 01:20:39.85	252.93	44.70	-38.8	-39.8	22.0	0.00e+00	55	25	0	730857472	50	6317
2026-01-10 01:20:40.86	253.47	44.74	-38.8	-39.8	21.9	0.00e+00	92	25	0	732954624	50	6315
2026-01-10 01:20:41.87	254.01	44.78	-39.0	-40.1	21.8	0.00e+00	56	25	0	735051776	50	6528
2026-01-10 01:20:42.88	254.55	44.82	-39.2	-40.4	21.5	0.00e+00	92	25	0	737148928	50	6708
2026-01-10 01:20:43.89	255.09	44.85	-38.8	-39.9	21.9	0.00e+00	92	25	0	739246080	50	6369
2026-01-10 01:20:44.90	255.64	44.88	-38.7	-39.8	22.0	0.00e+00	92	25	0	740294656	50	6260
2026-01-10 01:20:45.91	256.18	44.91	-37.8	-38.7	23.0	0.00e+00	92	25	0	742391808	50	5563
2026-01-10 01:20:46.92	256.73	44.93	-37.6	-38.6	23.1	0.00e+00	0	25	0	744488960	48	6113
2026-01-10 01:20:47.93	257.27	44.96	-37.6	-38.5	23.1	0.00e+00	92	25	0	746586112	48	6101
2026-01-10 01:20:48.94	257.82	44.97	-37.6	-38.6	23.1	0.00e+00	0	25	0	748683264	48	6117
2026-01-10 01:20:49.95	258.37	44.99	-37.9	-38.9	22.8	0.00e+00	92	25	0	749731840	48	6337
2026-01-10 01:20:50.96	258.92	45.00	-38.3	-39.3	22.4	0.00e+00	91	25	0	751828992	48	6660
2026-01-10 01:20:51.97	259.47	45.01	-38.0	-39.0	22.6	0.00e+00	92	25	0	753926144	48	6414
2026-01-10 01:20:52.98	260.02	45.02	-37.9	-38.8	22.8	0.00e+00	92	25	0	756023296	48	6311
2026-01-10 01:20:53.98	260.56	45.03	-37.7	-38.7	23.1	0.00e+00	43	25	0	758120448	48	6222
2026-01-10 01:20:54.99	261.11	45.03	-37.6	-38.5	23.1	0.00e+00	92	25	0	759169024	48	6095
2026-01-10 01:20:56.00	261.66	45.03	-37.4	-38.4	23.3	0.00e+00	44	25	0	761266176	48	5982
2026-01-10 01:20:57.01	262.21	45.02	-37.2	-38.1	23.5	0.00e+00	92	25	0	763363328	48	5787
2026-01-10 01:20:58.02	262.76	45.02	-37.0	-37.9	23.7	0.00e+00	0	25	0	765460480	48	5663
2026-01-10 01:20:59.03	263.31	45.01	-36.8	-37.7	23.9	0.00e+00	92	25	0	767557632	46	6196
2026-01-10 01:21:00.04	263.86	45.00	-36.8	-37.7	23.9	0.00e+00	92	25	0	769654784	46	6210
2026-01-10 01:21:01.05	264.41	44.98	-37.1	-38.0	23.6	0.00e+00	92	25	0	770703360	46	6413
2026-01-10 01:21:02.05	264.95	44.96	-37.5	-38.5	23.1	0.00e+00	90	25	0	772800512	46	6801
2026-01-10 01:21:03.06	265.49	44.94	-37.6	-38.6	23.1	0.00e+00	0	25	0	774897664	48	6140
2026-01-10 01:21:04.07	266.04	44.92	-37.3	-38.2	23.5	0.00e+00	91	25	0	776994816	48	5848
2026-01-10 01:21:05.08	266.59	44.89	-36.6	-37.5	24.1	0.00e+00	55	25	0	779091968	46	6069
2026-01-10 01:21:06.09	267.13	44.86	-36.5	-37.4	24.2	0.00e+00	92	25	0	780140544	46	5967
2026-01-10 01:21:07.10	267.67	44.83	-36.8	-37.7	23.8	0.00e+00	92	25	0	782237696	46	6210
2026-01-10 01:21:08.11	268.22	44.80	-37.5	-38.4	23.2	0.00e+00	0	25	0	784334848	46	6756
2026-01-10 01:21:09.12	268.76	44.76	-37.7	-38.7	23.1	0.00e+00	91	25	0	786432000	46	6933
2026-01-10 01:21:10.12	269.29	44.72	-37.7	-38.6	23.1	0.00e+00	7	25	0	788529152	48	6173
2026-01-10 01:21:11.13	269.83	44.68	-37.4	-38.3	23.3	0.00e+00	90	25	0	789577728	48	5952
2026-01-10 01:21:12.14	270.37	44.63	-37.5	-38.4	23.2	0.00e+00	0	25	0	791674880	48	6024
2026-01-10 01:21:13.15	270.90	44.58	-37.6	-38.5	23.2	0.00e+00	90	25	0	793772032	48	6103
2026-01-10 01:21:14.16	271.43	44.53	-37.5	-38.4	23.3	0.00e+00	54	25	0	795869184	48	5978
2026-01-10 01:21:15.17	271.97	44.48	-37.5	-38.4	23.3	0.00e+00	90	25	0	797966336	48	5982
2026-01-10 01:21:16.18	272.50	44.42	-37.3	-38.2	23.2	0.00e+00	91	25	0	799014912	48	5889
2026-01-10 01:21:17.19	273.02	44.37	-37.9	-38.9	22.7	0.00e+00	91	25	0	801112064	48	6335
2026-01-10 01:21:18.20	273.55	44.30	-38.6	-39.7	22.0	0.00e+00	91	25	0	803209216	48	6967
2026-01-10 01:21:19.21	274.07	44.24	-39.3	-40.5	21.4	0.00e+00	30	25	0	805306368	50	6801
2026-01-10 01:21:20.22	274.60	44.17	-39.2	-40.3	21.5	0.00e+00	90	25	0	807403520	50	6654
2026-01-10 01:21:21.23	275.12	44.11	-38.8	-39.9	21.9	0.00e+00	0	25	0	808452096	50	6343
2026-01-10 01:21:22.23	275.63	44.04	-38.7	-39.8	22.1	0.00e+00	92	25	0	810549248	50	6295
2026-01-10 01:21:23.24	276.14	43.96	-39.0	-40.1	21.6	0.00e+00	91	25	0	812646400	50	6506
2026-01-10 01:21:24.25	276.66	43.89	-39.0	-40.2	21.5	0.00e+00	56	25	0	814743552	50	6547
2026-01-10 01:21:25.26	277.17	43.81	-38.8	-39.9	21.9	0.00e+00	92	25	0	816840704	50	6365
2026-01-10 01:21:26.27	277.67	43.73	-38.6	-39.6	22.2	0.00e+00	49	25	0	817889280	50	6147
2026-01-10 01:21:27.28	278.18	43.65	-38.0	-39.0	22.6	0.00e+00	92	25	0	819986432	50	5748
2026-01-10 01:21:28.29	278.68	43.56	-37.4	-38.4	23.4	0.00e+00	0	25	0	822083584	48	5966
2026-01-10 01:21:29.30	279.18	43.47	-37.9	-38.8	22.9	0.00e+00	90	25	0	824180736	48	6311
2026-01-10 01:21:30.31	279.68	43.39	-38.4	-39.5	22.3	0.00e+00	92	25	0	826277888	48	6775
2026-01-10 01:21:31.32	280.17	43.29	-38.3	-39.3	22.5	0.00e+00	0	25	0	827326464	48	6661
2026-01-10 01:21:32.33	280.66	43.20	-37.9	-38.8	22.8	0.00e+00	92	25	0	829423616	48	6313
2026-01-10 01:21:33.34	281.15	43.11	-37.6	-38.5	23.2	0.00e+00	20	25	0	831520768	48	6096
2026-01-10 01:21:34.35	281.64	43.01	-37.5	-38.5	23.1	0.00e+00	95	25	0	833617920	48	6052
2026-01-10 01:21:35.35	282.12	42.91	-37.8	-38.7	22.9	0.00e+00	35	25	0	835715072	48	6236
2026-01-10 01:21:36.36	282.60	42.81	-38.0	-39.0	22.7	0.00e+00	92	25	0	837812224	48	6408
2026-01-10 01:21:37.37	283.07	42.71	-37.6	-38.5	23.3	0.00e+00	35	25	0	838860800	48	6086
2026-01-10 01:21:38.38	283.55	42.60	-37.0	-37.9	23.6	0.00e+00	92	25	0	840957952	48	5664
2026-01-10 01:21:39.39	284.02	42.49	-36.8	-37.7	24.0	0.00e+00	92	25	0	843055104	46	6192
2026-01-10 01:21:40.40	284.49	42.39	-36.9	-37.8	23.6	0.00e+00	36	25	0	845152256	46	6293
2026-01-10 01:21:41.40	284.95	42.28	-37.9	-38.9	22.8	0.00e+00	92	25	0	847249408	46	7147
2026-01-10 01:21:42.41	285.41	42.16	-37.9	-38.9	22.9	0.00e+00	52	25	0	848297984	48	6327
2026-01-10 01:21:43.42	285.87	42.05	-36.9	-37.8	23.8	0.00e+00	92	25	0	850395136	48	5591
2026-01-10 01:21:44.43	286.32	41.93	-35.4	-36.2	25.2	0.00e+00	73	25	0	852492288	44	5832
2026-01-10 01:21:45.44	286.77	41.82	-34.9	-35.6	25.6	0.00e+00	90	25	0	854589440	44	5490
2026-01-10 01:21:46.45	287.22	41.70	-35.5	-36.3	24.9	0.00e+00	92	25	0	856686592	44	5912
2026-01-10 01:21:47.46	287.67	41.58	-36.4	-37.3	23.8	0.00e+00	10	25	0	857735168	44	6657
2026-01-10 01:21:48.47	288.11	41.46	-36.5	-37.3	24.1	0.00e+00	92	25	0	859832320	44	6692
2026-01-10 01:21:49.48	288.55	41.33	-35.9	-36.7	24.7	0.00e+00	57	25	0	861929472	44	6193
2026-01-10 01:21:50.49	288.98	41.21	-35.3	-36.1	25.2	0.00e+00	92	25	0	864026624	44	5767
2026-01-10 01:21:51.50	289.41	41.08	-35.2	-36.0	25.3	0.00e+00	59	25	0	866123776	44	5728
2026-01-10 01:21:52.50	289.84	40.96	-35.9	-36.7	24.7	0.00e+00	92	25	0	867172352	44	6194
2026-01-10 01:21:53.51	290.26	40.83	-36.1	-37.0	24.5	0.00e+00	92	25	0	869269504	44	6405
2026-01-10 01:21:54.52	290.69	40.70	-35.6	-36.4	24.9	0.00e+00	0	25	0	871366656	44	6012
2026-01-10 01:21:55.53	291.10	40.57	-35.1	-35.9	25.4	0.00e+00	92	25	0	873463808	44	5651
2026-01-10 01:21:56.54	291.52	40.44	-34.9	-35.6	25.6	0.00e+00	13	25	0	875560960	44	5492
2026-01-10 01:21:57.55	291.93	40.31	-34.9	-35.7	25.5	0.00e+00	92	25	0	876609536	44	5514
2026-01-10 01:21:58.56	292.34	40.17	-35.3	-36.1	25.1	0.00e+00	36	25	0	878706688	44	5811
2026-01-10 01:21:59.57	292.75	40.04	-35.7	-36.5	24.9	0.00e+00	92	25	0	880803840	44	6075
2026-01-10 01:22:00.58	293.15	39.90	-35.6	-36.4	24.9	0.00e+00	36	25	0	882900992	44	6029
2026-01-10 01:22:01.59	293.55	39.76	-35.6	-36.4	25.0	0.00e+00	84	25	0	884998144	44	6028
2026-01-10 01:22:02.60	293.94	39.62	-35.6	-36.4	24.9	0.00e+00	92	25	0	886046720	44	6032
2026-01-10 01:22:03.61	294.33	39.49	-35.9	-36.7	24.8	0.00e+00	33	25	0	888143872	44	6185
2026-01-10 01:22:04.62	294.72	39.35	-36.3	-37.2	24.2	0.00e+00	92	25	0	890241024	44	6555
2026-01-10 01:22:05.63	295.11	39.20	-36.7	-37.6	23.9	0.00e+00	50	25	0	892338176	44	6872
2026-01-10 01:22:06.63	295.48	39.06	-36.4	-37.3	24.3	0.00e+00	92	25	0	894435328	44	6623
2026-01-10 01:22:07.64	295.86	38.92	-35.9	-36.7	24.8	0.00e+00	59	25	0	895483904	44	6182
2026-01-10 01:22:08.65	296.24	38.78	-35.8	-36.6	24.7	0.00e+00	92	25	0	897581056	44	6166
2026-01-10 01:22:09.66	296.61	38.63	-36.0	-36.8	24.6	0.00e+00	92	25	0	899678208	44	6314
2026-01-10 01:22:10.67	296.98	38.49	-36.2	-37.0	24.5	0.00e+00	52	25	0	901775360	44	6448
2026-01-10 01:22:11.68	297.35	38.34	-36.1	-37.0	24.4	0.00e+00	92	25	0	903872512	44	6402
2026-01-10 01:22:12.69	297.71	38.20	-36.3	-37.2	24.3	0.00e+00	52	25	0	904921088	44	6549
2026-01-10 01:22:13.70	298.07	38.05	-36.4	-37.2	24.2	0.00e+00	91	25	0	907018240	44	6584
2026-01-10 01:22:14.71	298.42	37.90	-36.4	-37.3	24.2	0.00e+00	5	25	0	909115392	44	6622
2026-01-10 01:22:15.72	298.78	37.76	-36.3	-37.2	24.3	0.00e+00	91	25	0	911212544	44	6547
2026-01-10 01:22:16.72	299.12	37.61	-36.3	-37.2	24.2	0.00e+00	91	25	0	913309696	44	6555
2026-01-10 01:22:17.73	299.47	37.46	-36.8	-37.7	23.9	0.00e+00	7	25	0	914358272	46	6212
2026-01-10 01:22:18.74	299.81	37.31	-37.0	-37.9	23.7	0.00e+00	91	25	0	916455424	46	6375
2026-01-10 01:22:19.75	300.15	37.16	-37.0	-37.9	23.7	0.00e+00	6	25	0	918552576	46	6370
2026-01-10 01:22:20.76	300.49	37.01	-36.6	-37.5	24.0	0.00e+00	92	25	0	920649728	46	6053
2026-01-10 01:22:21.77	300.82	36.86	-36.3	-37.2	24.4	0.00e+00	0	25	0	922746880	46	5860
2026-01-10 01:22:22.78	301.16	36.71	-35.8	-36.6	24.8	0.00e+00	92	25	0	923795456	46	5454
2026-01-10 01:22:23.78	301.48	36.56	-35.6	-36.4	25.0	0.00e+00	3	25	0	925892608	44	5992
2026-01-10 01:22:24.79	301.81	36.41	-35.3	-36.1	25.2	0.00e+00	91	25	0	927989760	44	5763
2026-01-10 01:22:25.80	302.13	36.26	-35.4	-36.2	25.2	0.00e+00	90	25	0	930086912	44	5830
2026-01-10 01:22:26.81	302.45	36.11	-36.1	-36.9	24.5	0.00e+00	35	25	0	932184064	44	6353
2026-01-10 01:22:27.82	302.76	35.95	-36.7	-37.6	23.9	0.00e+00	90	25	0	934281216	44	6886
2026-01-10 01:22:28.83	303.08	35.80	-37.0	-37.9	23.7	0.00e+00	47	25	0	935329792	46	6378
2026-01-10 01:22:29.84	303.39	35.65	-36.6	-37.5	24.0	0.00e+00	92	25	0	937426944	46	6045
2026-01-10 01:22:30.85	303.70	35.50	-35.7	-36.4	24.8	0.00e+00	48	25	0	939524096	44	6029
2026-01-10 01:22:31.86	304.00	35.34	-35.8	-36.6	24.9	0.00e+00	92	25	0	941621248	44	6118
2026-01-10 01:22:32.87	304.30	35.19	-36.5	-37.3	24.1	0.00e+00	92	25	0	943718400	44	6666
2026-01-10 01:22:33.88	304.60	35.04	-37.4	-38.3	23.3	0.00e+00	47	25	0	944766976	46	6659
2026-01-10 01:22:34.89	304.90	34.88	-37.7	-38.7	22.9	0.00e+00	92	25	0	946864128	48	6181
2026-01-10 01:22:35.90	305.19	34.73	-37.4	-38.4	23.4	0.00e+00	0	25	0	948961280	48	5968
2026-01-10 01:22:36.91	305.48	34.58	-36.7	-37.5	24.0	0.00e+00	92	25	0	951058432	48	5438
2026-01-10 01:22:37.91	305.77	34.42	-36.4	-37.2	24.2	0.00e+00	0	25	0	953155584	46	5883
2026-01-10 01:22:38.92	306.06	34.27	-36.3	-37.2	24.4	0.00e+00	92	25	0	954204160	46	5833
2026-01-10 01:22:39.93	306.34	34.12	-36.7	-37.6	23.9	0.00e+00	72	25	0	956301312	46	6106
2026-01-10 01:22:40.94	306.62	33.96	-37.6	-38.6	23.0	0.00e+00	0	25	0	958398464	46	6856
2026-01-10 01:22:41.95	306.90	33.81	-38.5	-39.5	22.2	0.00e+00	91	25	0	960495616	48	6845
2026-01-10 01:22:42.95	307.17	33.66	-38.6	-39.7	22.2	0.00e+00	4	25	0	962592768	48	6936
2026-01-10 01:22:43.96	307.44	33.50	-37.5	-38.4	23.2	0.00e+00	92	25	0	963641344	48	6018
2026-01-10 01:22:44.97	307.71	33.35	-36.8	-37.7	23.8	0.00e+00	0	25	0	965738496	48	5538
2026-01-10 01:22:45.98	307.98	33.20	-36.7	-37.5	24.0	0.00e+00	91	25	0	967835648	48	5413
2026-01-10 01:22:46.99	308.25	33.05	-36.3	-37.1	24.5	0.00e+00	0	25	0	969932800	46	5783
2026-01-10 01:22:48.01	308.51	32.89	-36.9	-37.8	23.8	0.00e+00	34	25	0	972029952	46	6266
2026-01-10 01:22:49.02	308.77	32.74	-38.0	-39.0	22.4	0.00e+00	92	25	0	973078528	48	6430
2026-01-10 01:22:50.03	309.03	32.59	-39.3	-40.5	21.3	0.00e+00	47	25	0	975175680	50	6796
2026-01-10 01:22:51.03	309.28	32.43	-38.9	-40.0	21.9	0.00e+00	92	25	0	977272832	50	6448
2026-01-10 01:22:52.04	309.54	32.28	-37.8	-38.8	23.0	0.00e+00	49	25	0	979369984	50	5598
2026-01-10 01:22:53.05	309.79	32.13	-37.4	-38.3	23.3	0.00e+00	92	25	0	981467136	48	5911
2026-01-10 01:22:54.06	310.04	31.98	-36.7	-37.6	24.0	0.00e+00	0	25	0	982515712	46	6115
2026-01-10 01:22:55.07	310.28	31.83	-36.1	-36.9	24.6	0.00e+00	92	25	0	984612864	46	5672
2026-01-10 01:22:56.08	310.53	31.67	-36.6	-37.5	23.9	0.00e+00	92	25	0	986710016	46	6069
2026-01-10 01:22:57.08	310.77	31.52	-37.6	-38.5	23.0	0.00e+00	2	25	0	988807168	46	6835
2026-01-10 01:22:58.09	311.01	31.37	-38.7	-39.8	21.6	0.00e+00	90	25	0	990904320	48	7072
2026-01-10 01:22:59.10	311.25	31.22	-39.4	-40.6	21.2	0.00e+00	0	25	0	991952896	50	6897
2026-01-10 01:23:00.11	311.48	31.07	-39.2	-40.4	21.5	0.00e+00	91	25	0	994050048	50	6711
2026-01-10 01:23:01.12	311.72	30.92	-37.9	-38.9	22.8	0.00e+00	0	25	0	996147200	50	5673
2026-01-10 01:23:02.13	311.95	30.77	-36.9	-37.8	23.7	0.00e+00	92	25	0	998244352	48	5607
2026-01-10 01:23:03.14	312.18	30.62	-36.3	-37.1	24.0	0.00e+00	0	25	0	1000341504	46	5801
2026-01-10 01:23:04.15	312.40	30.47	-36.0	-36.8	24.7	0.00e+00	0	25	0	1002438656	46	5591
2026-01-10 01:23:05.16	312.63	30.32	-36.2	-37.1	24.4	0.00e+00	92	25	0	1003487232	46	5778
2026-01-10 01:23:06.17	312.85	30.17	-37.4	-38.3	22.6	0.00e+00	0	25	0	1005584384	46	6642
2026-01-10 01:23:07.18	313.07	30.03	-38.2	-39.3	22.4	0.00e+00	90	25	0	1007681536	48	6637
2026-01-10 01:23:08.19	313.29	29.88	-38.7	-39.8	21.9	0.00e+00	0	25	0	1009778688	50	6311
2026-01-10 01:23:09.20	313.51	29.73	-38.2	-39.3	22.4	0.00e+00	92	25	0	1011875840	50	5919
2026-01-10 01:23:10.21	313.72	29.58	-37.7	-38.7	23.0	0.00e+00	13	25	0	1012924416	48	6175
2026-01-10 01:23:11.22	313.94	29.44	-37.1	-38.0	23.7	0.00e+00	33	25	0	1015021568	48	5737
2026-01-10 01:23:12.23	314.15	29.29	-36.5	-37.4	24.3	0.00e+00	92	25	0	1017118720	46	5975
2026-01-10 01:23:13.24	314.36	29.14	-35.8	-36.6	24.7	0.00e+00	33	25	0	1019215872	46	5447
2026-01-10 01:23:14.25	314.57	29.00	-35.4	-36.1	25.1	0.00e+00	92	25	0	1020264448	44	5822
2026-01-10 01:23:15.26	314.77	28.85	-36.1	-36.9	24.5	0.00e+00	2	25	0	1022361600	44	6347
2026-01-10 01:23:16.27	314.97	28.70	-37.0	-37.9	23.6	0.00e+00	92	25	0	1024458752	46	6330
2026-01-10 01:23:17.28	315.18	28.56	-37.7	-38.7	22.9	0.00e+00	0	25	0	1026555904	46	6972
2026-01-10 01:23:18.28	315.38	28.42	-38.1	-39.2	22.5	0.00e+00	92	25	0	1028653056	48	6556
2026-01-10 01:23:19.29	315.57	28.27	-37.7	-38.7	23.0	0.00e+00	85	25	0	1030750208	48	6184
2026-01-10 01:23:20.30	315.77	28.13	-37.2	-38.1	23.5	0.00e+00	0	25	0	1031798784	48	5796
2026-01-10 01:23:21.31	315.97	27.99	-37.2	-38.1	23.6	0.00e+00	92	25	0	1033895936	48	5775
2026-01-10 01:23:22.32	316.16	27.84	-36.6	-37.4	24.1	0.00e+00	0	25	0	1035993088	46	5995
2026-01-10 01:23:23.33	316.35	27.70	-35.8	-36.6	24.8	0.00e+00	92	25	0	1038090240	46	5445
2026-01-10 01:23:24.34	316.54	27.56	-35.7	-36.5	24.8	0.00e+00	0	25	0	1040187392	44	6084
2026-01-10 01:23:25.35	316.73	27.42	-36.2	-37.0	24.3	0.00e+00	90	25	0	1041235968	44	6428
2026-01-10 01:23:26.35	316.92	27.28	-36.7	-37.6	23.8	0.00e+00	0	25	0	1043333120	44	6851
2026-01-10 01:23:27.36	317.10	27.13	-37.3	-38.2	23.3	0.00e+00	0	25	0	1045430272	46	6603
2026-01-10 01:23:28.37	317.28	26.99	-37.6	-38.6	23.0	0.00e+00	91	25	0	1047527424	46	6889
2026-01-10 01:23:29.38	317.47	26.85	-37.5	-38.5	23.1	0.00e+00	0	25	0	1049624576	48	6035
2026-01-10 01:23:30.39	317.65	26.71	-37.2	-38.2	23.4	0.00e+00	92	25	0	1050673152	48	5838
2026-01-10 01:23:31.40	317.83	26.58	-36.8	-37.7	23.9	0.00e+00	0	25	0	1052770304	48	5503
2026-01-10 01:23:32.41	318.00	26.44	-36.4	-37.2	24.2	0.00e+00	90	25	0	1054867456	46	5887
2026-01-10 01:23:33.42	318.18	26.30	-36.0	-36.8	24.7	0.00e+00	29	25	0	1056964608	46	5579
2026-01-10 01:23:34.43	318.35	26.16	-35.4	-36.2	24.9	0.00e+00	30	25	0	1059061760	44	5833
2026-01-10 01:23:35.44	318.53	26.02	-35.4	-36.1	25.1	0.00e+00	91	25	0	1060110336	44	5819
2026-01-10 01:23:36.45	318.70	25.89	-35.5	-36.3	25.0	0.00e+00	49	25	0	1062207488	44	5932
2026-01-10 01:23:37.45	318.87	25.75	-35.7	-36.5	24.7	0.00e+00	92	25	0	1064304640	44	6053
2026-01-10 01:23:38.46	319.04	25.61	-36.0	-36.8	24.5	0.00e+00	0	25	0	1066401792	44	6303
2026-01-10 01:23:39.47	319.20	25.48	-36.5	-37.3	24.1	0.00e+00	91	25	0	1068498944	44	6674
2026-01-10 01:23:40.48	319.37	25.34	-36.6	-37.5	23.9	0.00e+00	50	25	0	1069547520	44	6830
2026-01-10 01:23:41.49	319.53	25.21	-36.9	-37.8	23.6	0.00e+00	92	25	0	1071644672	46	6303
2026-01-10 01:23:42.50	319.70	25.07	-37.1	-38.0	23.5	0.00e+00	92	25	0	1073741824	46	6421
2026-01-10 01:23:43.51	319.86	24.94	-37.1	-38.0	23.5	0.00e+00	0	25	0	1075838976	46	6431
2026-01-10 01:23:44.52	320.02	24.81	-37.1	-38.0	23.5	0.00e+00	92	25	0	1077936128	46	6432
2026-01-10 01:23:45.52	320.18	24.68	-37.0	-37.9	23.7	0.00e+00	5	25	0	1078984704	46	6359
2026-01-10 01:23:46.53	320.34	24.54	-36.6	-37.5	23.9	0.00e+00	92	25	0	1081081856	46	6080
2026-01-10 01:23:47.54	320.49	24.41	-36.3	-37.2	24.3	0.00e+00	6	25	0	1083179008	46	5839
2026-01-10 01:23:48.55	320.65	24.28	-36.1	-36.9	24.4	0.00e+00	90	25	0	1085276160	46	5685
2026-01-10 01:23:49.56	320.80	24.15	-35.9	-36.8	24.5	0.00e+00	0	25	0	1087373312	46	5569
2026-01-10 01:23:50.56	320.95	24.02	-35.9	-36.7	24.5	0.00e+00	31	25	0	1088421888	46	5532
2026-01-10 01:23:51.57	321.11	23.89	-35.9	-36.7	24.7	0.00e+00	91	25	0	1090519040	46	5524
2026-01-10 01:23:52.58	321.26	23.76	-35.9	-36.7	24.6	0.00e+00	31	25	0	1092616192	46	5535
2026-01-10 01:23:53.59	321.41	23.63	-36.1	-37.0	24.4	0.00e+00	92	25	0	1094713344	46	5712
2026-01-10 01:23:54.60	321.55	23.50	-36.1	-37.0	24.3	0.00e+00	55	25	0	1096810496	46	5713
2026-01-10 01:23:55.61	321.70	23.37	-36.4	-37.2	24.2	0.00e+00	56	25	0	1098907648	46	5865
2026-01-10 01:23:56.62	321.85	23.24	-36.4	-37.3	24.1	0.00e+00	8	25	0	1099956224	46	5910
2026-01-10 01:23:57.63	321.99	23.12	-36.5	-37.4	24.1	0.00e+00	55	25	0	1102053376	46	5986
2026-01-10 01:23:58.64	322.14	22.99	-36.7	-37.5	23.8	0.00e+00	90	25	0	1104150528	46	6088
2026-01-10 01:23:59.65	322.28	22.86	-36.6	-37.4	23.9	0.00e+00	56	25	0	1106247680	46	6016
2026-01-10 01:24:00.66	322.42	22.74	-36.7	-37.5	23.9	0.00e+00	92	25	0	1108344832	46	6090
2026-01-10 01:24:01.67	322.56	22.61	-36.5	-37.3	24.1	0.00e+00	0	25	0	1109393408	46	5936
2026-01-10 01:24:02.68	322.70	22.48	-36.5	-37.4	24.0	0.00e+00	90	25	0	1111490560	46	6008
2026-01-10 01:24:03.68	322.83	22.36	-36.6	-37.4	24.0	0.00e+00	5	25	0	1113587712	46	6024
2026-01-10 01:24:04.69	322.97	22.24	-36.6	-37.5	23.9	0.00e+00	92	25	0	1115684864	46	6065
2026-01-10 01:24:05.70	323.11	22.11	-36.3	-37.1	24.2	0.00e+00	91	25	0	1117782016	46	5827
2026-01-10 01:24:06.71	323.24	21.99	-36.3	-37.2	24.2	0.00e+00	0	25	0	1118830592	46	5854
2026-01-10 01:24:07.72	323.38	21.87	-36.5	-37.3	24.1	0.00e+00	92	25	0	1120927744	46	5951
2026-01-10 01:24:08.73	323.51	21.74	-36.4	-37.3	24.0	0.00e+00	6	25	0	1123024896	46	5914
2026-01-10 01:24:09.74	323.64	21.62	-36.6	-37.5	23.9	0.00e+00	86	25	0	1125122048	46	6045
2026-01-10 01:24:10.75	323.77	21.50	-36.8	-37.7	23.6	0.00e+00	6	25	0	1127219200	46	6227
2026-01-10 01:24:11.75	323.90	21.38	-37.0	-37.8	23.5	0.00e+00	31	25	0	1128267776	46	6315
2026-01-10 01:24:12.76	324.03	21.26	-37.3	-38.3	23.2	0.00e+00	2	25	0	1130364928	46	6638
2026-01-10 01:24:13.77	324.16	21.14	-37.3	-38.2	23.2	0.00e+00	0	25	0	1132462080	46	6599
2026-01-10 01:24:14.78	324.28	21.02	-37.4	-38.3	23.2	0.00e+00	92	25	0	1134559232	46	6648
2026-01-10 01:24:15.79	324.41	20.90	-37.5	-38.4	23.0	0.00e+00	0	25	0	1136656384	46	6744
2026-01-10 01:24:16.80	324.54	20.78	-37.4	-38.3	23.0	0.00e+00	92	25	0	1137704960	46	6668
2026-01-10 01:24:17.81	324.66	20.66	-37.4	-38.3	23.1	0.00e+00	29	25	0	1139802112	46	6667
2026-01-10 01:24:18.82	324.78	20.54	-37.6	-38.5	23.0	0.00e+00	31	25	0	1141899264	46	6820
2026-01-10 01:24:19.83	324.91	20.43	-37.2	-38.1	23.2	0.00e+00	67	25	0	1143996416	46	6484
2026-01-10 01:24:20.84	325.03	20.31	-37.0	-38.0	23.3	0.00e+00	51	25	0	1146093568	46	6395
2026-01-10 01:24:21.85	325.15	20.19	-36.9	-37.8	23.6	0.00e+00	92	25	0	1147142144	46	6283
2026-01-10 01:24:22.86	325.27	20.07	-37.0	-37.9	23.6	0.00e+00	53	25	0	1149239296	46	6335
2026-01-10 01:24:23.87	325.39	19.96	-36.9	-37.8	23.7	0.00e+00	92	25	0	1151336448	46	6262
2026-01-10 01:24:24.88	325.50	19.84	-36.9	-37.7	23.7	0.00e+00	50	25	0	1153433600	46	6245
2026-01-10 01:24:25.89	325.62	19.73	-36.8	-37.7	23.7	0.00e+00	50	25	0	1155530752	46	6223
2026-01-10 01:24:26.90	325.74	19.61	-36.9	-37.8	23.5	0.00e+00	0	25	0	1156579328	46	6305
2026-01-10 01:24:27.91	325.85	19.50	-37.0	-37.9	23.4	0.00e+00	0	25	0	1158676480	46	6385
2026-01-10 01:24:28.92	325.97	19.38	-37.1	-38.0	23.5	0.00e+00	92	25	0	1160773632	46	6415
2026-01-10 01:24:29.93	326.08	19.27	-37.1	-38.0	23.4	0.00e+00	0	25	0	1162870784	46	6422
2026-01-10 01:24:30.94	326.19	19.16	-37.1	-38.0	23.4	0.00e+00	91	25	0	1164967936	46	6417
2026-01-10 01:24:31.95	326.31	19.04	-37.1	-38.0	23.4	0.00e+00	0	25	0	1166016512	46	6423
2026-01-10 01:24:32.95	326.42	18.93	-37.1	-38.0	23.4	0.00e+00	67	25	0	1168113664	46	6411
2026-01-10 01:24:33.96	326.53	18.82	-37.1	-38.1	23.3	0.00e+00	0	25	0	1170210816	46	6468
2026-01-10 01:24:34.97	326.64	18.71	-37.1	-38.0	23.4	0.00e+00	3	25	0	1172307968	46	6440
2026-01-10 01:24:35.97	326.74	18.60	-37.1	-38.0	23.4	0.00e+00	0	25	0	1174405120	46	6451
2026-01-10 01:24:36.98	326.85	18.49	-37.0	-37.9	23.5	0.00e+00	0	25	0	1175453696	46	6326
2026-01-10 01:24:37.99	326.96	18.38	-37.0	-37.9	23.5	0.00e+00	92	25	0	1177550848	46	6348
2026-01-10 01:24:39.00	327.07	18.27	-36.8	-37.7	23.7	0.00e+00	53	25	0	1179648000	46	6174
2026-01-10 01:24:40.01	327.17	18.16	-36.8	-37.7	23.7	0.00e+00	92	25	0	1181745152	46	6218
2026-01-10 01:24:41.02	327.28	18.05	-36.5	-37.4	23.9	0.00e+00	54	25	0	1183842304	46	6016
2026-01-10 01:24:42.03	327.38	17.94	-36.6	-37.4	23.9	0.00e+00	52	25	0	1184890880	46	6016
2026-01-10 01:24:43.04	327.49	17.83	-36.7	-37.5	23.8	0.00e+00	0	25	0	1186988032	46	6094
2026-01-10 01:24:44.05	327.59	17.73	-36.7	-37.6	23.7	0.00e+00	30	25	0	1189085184	46	6116
2026-01-10 01:24:45.06	327.69	17.62	-36.7	-37.6	23.7	0.00e+00	92	25	0	1191182336	46	6154
2026-01-10 01:24:46.07	327.79	17.51	-36.9	-37.8	23.6	0.00e+00	0	25	0	1193279488	46	6304
2026-01-10 01:24:47.08	327.90	17.40	-37.1	-38.0	23.3	0.00e+00	92	25	0	1195376640	46	6445
2026-01-10 01:24:48.09	328.00	17.30	-37.2	-38.1	23.2	0.00e+00	0	25	0	1196425216	46	6525
2026-01-10 01:24:49.10	328.10	17.19	-37.4	-38.4	23.0	0.00e+00	82	25	0	1198522368	46	6712
