passes_logs/2026/01/10/R4.6S_Anadyr/R4.6S_Anadyr__20260110_193717_SUOMI_NPP_rec.log

#Pass ID: 20260110_193717_SUOMI NPP
#Satellite: SUOMI NPP
#Configuration: NPP
#almurnet v.1.7.20251203
#Start time: 2026-01-10 19:37:18

#Version: 2.2.20231116
#Station: R4.6S_Anadyr
#Location: 177.4865 lon 64.73178 lat
#TLE: 1 37849U 11061A   26009.81756760  .00000113  00000+0  74747-4 0  9994
#TLE: 2 37849  98.7806 311.9110 0002525  72.5604 287.5848 14.19524046735974

#Time	Az	El	Level	Level2	SNR	BER	BlckErr	Temp	State	Recorded	gain1	gain2
2026-01-10 19:37:18.60	54.94	0.04	-47.9	-59.5	3.5	8.46e-01	0	24	0	0	60	34219
2026-01-10 19:37:19.61	54.87	0.09	-48.1	-63.2	3.6	1.51e+00	0	25	104	0	60	52515
2026-01-10 19:37:20.62	54.79	0.14	-48.1	-63.3	3.6	1.51e+00	0	25	104	0	60	52948
2026-01-10 19:37:21.63	54.72	0.19	-48.1	-63.3	3.6	1.51e+00	0	25	104	0	60	53042
2026-01-10 19:37:22.64	54.64	0.24	-48.1	-63.4	3.6	1.51e+00	0	26	104	0	60	53237
2026-01-10 19:37:23.65	54.56	0.29	-48.2	-63.4	3.6	1.51e+00	0	26	104	0	60	53225
2026-01-10 19:37:24.66	54.48	0.34	-48.2	-63.4	3.6	1.51e+00	0	25	104	0	60	53292
2026-01-10 19:37:25.67	54.41	0.39	-48.2	-63.4	3.6	1.51e+00	0	26	104	0	60	53200
2026-01-10 19:37:26.68	54.33	0.44	-48.1	-63.3	3.6	1.51e+00	0	26	104	0	60	52862
2026-01-10 19:37:27.69	54.25	0.49	-48.1	-63.3	3.6	1.51e+00	0	26	104	0	60	52622
2026-01-10 19:37:28.70	54.17	0.54	-48.0	-63.3	3.6	1.51e+00	0	26	104	0	60	52882
2026-01-10 19:37:29.71	54.09	0.58	-47.8	-63.3	3.6	1.51e+00	0	26	104	0	60	52606
2026-01-10 19:37:30.72	54.01	0.63	-48.0	-63.2	3.6	1.51e+00	0	26	104	0	60	52021
2026-01-10 19:37:31.73	53.93	0.68	-47.9	-63.0	3.6	1.51e+00	0	26	104	0	60	51250
2026-01-10 19:37:32.74	53.85	0.73	-47.7	-62.9	3.6	1.51e+00	0	26	104	0	60	50388
2026-01-10 19:37:33.75	53.77	0.78	-47.5	-62.6	3.6	1.51e+00	0	26	104	0	60	49035
2026-01-10 19:37:34.76	53.69	0.83	-47.1	-62.3	3.6	1.51e+00	0	26	104	0	60	46986
2026-01-10 19:37:35.77	53.61	0.88	-46.5	-61.6	3.6	1.51e+00	0	26	104	0	60	43613
2026-01-10 19:37:36.78	53.53	0.93	-46.4	-61.6	3.6	1.51e+00	0	26	104	0	60	43590
2026-01-10 19:37:37.79	53.45	0.98	-46.4	-61.6	3.6	1.51e+00	0	26	104	0	60	43380
2026-01-10 19:37:38.80	53.37	1.03	-46.4	-61.6	3.6	1.51e+00	0	26	104	0	60	43219
2026-01-10 19:37:39.81	53.29	1.08	-46.4	-61.6	3.6	1.51e+00	0	26	104	0	60	43351
2026-01-10 19:37:40.82	53.21	1.13	-46.4	-61.5	3.6	1.51e+00	0	26	104	0	60	42910
2026-01-10 19:37:41.83	53.12	1.18	-46.4	-61.5	3.6	1.51e+00	0	26	104	0	60	42934
2026-01-10 19:37:42.84	53.04	1.23	-46.4	-61.5	3.6	1.51e+00	0	26	104	0	60	42784
2026-01-10 19:37:43.85	52.96	1.28	-46.4	-61.6	3.6	1.51e+00	0	26	104	0	60	43236
2026-01-10 19:37:44.86	52.88	1.33	-46.3	-61.5	3.6	1.51e+00	0	26	104	0	60	42895
2026-01-10 19:37:45.87	52.79	1.38	-46.3	-61.5	3.6	1.51e+00	0	26	104	0	60	42911
2026-01-10 19:37:46.88	52.71	1.43	-46.4	-61.5	3.6	1.51e+00	0	26	104	0	60	43101
2026-01-10 19:37:47.89	52.62	1.48	-46.3	-61.5	3.6	1.51e+00	0	26	104	0	60	43046
2026-01-10 19:37:48.90	52.54	1.52	-46.4	-61.5	3.6	1.51e+00	0	26	104	0	60	42900
2026-01-10 19:37:49.90	52.46	1.57	-46.3	-61.5	3.6	1.51e+00	0	26	104	0	60	42837
2026-01-10 19:37:50.91	52.37	1.62	-46.3	-61.4	3.6	1.51e+00	0	26	104	0	60	42703
2026-01-10 19:37:51.92	52.29	1.67	-46.3	-61.4	3.6	1.51e+00	0	26	104	0	60	42341
2026-01-10 19:37:52.93	52.20	1.72	-46.3	-61.5	3.6	1.51e+00	0	26	104	0	60	42798
2026-01-10 19:37:53.94	52.12	1.77	-46.3	-61.5	3.6	1.51e+00	0	26	104	0	60	42963
2026-01-10 19:37:54.95	52.03	1.82	-46.3	-61.5	3.6	1.51e+00	0	26	104	0	60	42828
2026-01-10 19:37:55.96	51.94	1.87	-46.3	-61.5	3.6	1.51e+00	0	26	104	0	60	42781
2026-01-10 19:37:56.97	51.86	1.92	-46.3	-61.5	3.6	1.51e+00	0	26	104	0	60	42791
2026-01-10 19:37:57.98	51.77	1.97	-46.3	-61.4	3.5	1.51e+00	0	26	104	0	60	42557
2026-01-10 19:37:58.99	51.68	2.02	-46.3	-61.3	3.6	1.51e+00	0	26	104	0	60	41870
2026-01-10 19:38:00.00	51.59	2.07	-46.3	-61.1	3.6	1.51e+00	0	26	104	0	60	40879
2026-01-10 19:38:01.01	51.51	2.12	-46.3	-61.1	3.5	1.51e+00	0	26	104	0	60	41096
2026-01-10 19:38:02.02	51.42	2.17	-46.3	-61.1	3.6	1.51e+00	0	26	104	0	60	40854
2026-01-10 19:38:03.03	51.33	2.22	-46.3	-61.2	3.6	1.51e+00	0	26	104	0	60	41333
2026-01-10 19:38:04.04	51.24	2.27	-46.3	-61.4	3.6	1.51e+00	0	26	104	0	60	42339
2026-01-10 19:38:05.05	51.15	2.32	-46.3	-61.5	3.6	1.51e+00	0	26	104	0	60	42812
2026-01-10 19:38:06.06	51.06	2.37	-46.3	-61.5	3.6	1.51e+00	0	26	104	0	60	42823
2026-01-10 19:38:07.07	50.97	2.42	-46.3	-61.4	3.6	1.51e+00	0	26	104	0	60	42276
2026-01-10 19:38:08.08	50.88	2.47	-46.3	-61.5	3.6	1.51e+00	0	26	104	0	60	42777
2026-01-10 19:38:09.09	50.79	2.53	-46.3	-61.4	3.6	1.51e+00	0	26	104	0	60	42672
2026-01-10 19:38:10.09	50.70	2.58	-46.3	-61.3	3.6	1.51e+00	0	27	104	0	60	42162
2026-01-10 19:38:11.10	50.61	2.63	-46.3	-60.7	3.6	1.51e+00	0	27	104	0	60	39198
2026-01-10 19:38:12.11	50.52	2.68	-46.3	-60.2	3.6	1.51e+00	0	27	104	0	60	37115
2026-01-10 19:38:13.12	50.43	2.73	-46.3	-60.7	3.6	1.51e+00	0	27	104	0	60	39170
2026-01-10 19:38:14.13	50.34	2.78	-46.3	-61.2	3.6	1.51e+00	0	27	104	0	60	41534
2026-01-10 19:38:15.14	50.25	2.83	-46.3	-60.1	3.6	1.51e+00	0	27	104	0	60	36671
2026-01-10 19:38:16.15	50.15	2.88	-46.0	-55.6	4.8	1.05e+00	57	27	0	0	60	21728
2026-01-10 19:38:17.16	50.06	2.93	-45.6	-52.5	7.3	3.25e-01	0	27	0	2097152	60	15161
2026-01-10 19:38:18.17	49.97	2.98	-44.9	-50.2	9.8	3.94e-02	90	27	0	4194304	60	11723
2026-01-10 19:38:19.18	49.87	3.03	-44.4	-48.9	11.2	1.29e-03	20	27	0	5242880	60	10047
2026-01-10 19:38:20.19	49.78	3.08	-44.9	-49.8	10.5	1.63e-02	0	27	0	7340032	60	11184
2026-01-10 19:38:21.20	49.68	3.13	-43.0	-45.7	15.1	5.11e-05	92	27	0	9437184	60	6998
2026-01-10 19:38:22.21	49.59	3.18	-46.2	-61.1	3.6	1.51e+00	0	27	104	10485760	60	41048
2026-01-10 19:38:23.22	49.49	3.23	-46.0	-54.9	8.3	1.47e+00	28	27	104	10485760	60	20137
2026-01-10 19:38:24.23	49.40	3.28	-43.1	-46.1	14.3	0.00e+00	0	27	0	11534336	58	8190
2026-01-10 19:38:25.24	49.30	3.33	-42.4	-45.0	15.4	0.00e+00	92	27	0	13631488	58	7183
2026-01-10 19:38:26.25	49.21	3.38	-42.6	-45.3	15.2	7.00e-07	0	27	0	14680064	58	7423
2026-01-10 19:38:27.26	49.11	3.43	-42.4	-44.9	15.7	0.00e+00	0	27	0	16777216	58	7128
2026-01-10 19:38:28.27	49.01	3.48	-41.7	-43.9	16.9	0.00e+00	91	27	0	18874368	56	7101
2026-01-10 19:38:29.28	48.92	3.53	-41.3	-43.3	17.2	0.00e+00	0	27	0	20971520	56	6672
2026-01-10 19:38:30.29	48.82	3.59	-41.1	-43.0	17.6	0.00e+00	15	27	0	23068672	56	6429
2026-01-10 19:38:31.30	48.72	3.64	-41.3	-43.3	17.2	0.00e+00	0	27	0	24117248	56	6642
2026-01-10 19:38:32.31	48.62	3.69	-41.2	-43.2	17.1	0.00e+00	92	27	0	26214400	56	6573
2026-01-10 19:38:33.32	48.53	3.74	-41.8	-43.9	16.7	0.00e+00	0	27	0	28311552	56	7162
2026-01-10 19:38:34.33	48.43	3.79	-41.5	-43.6	17.2	0.00e+00	56	27	0	30408704	56	6859
2026-01-10 19:38:35.34	48.33	3.84	-41.5	-43.5	17.1	0.00e+00	90	27	0	32505856	56	6795
2026-01-10 19:38:36.35	48.23	3.89	-41.4	-43.4	17.4	0.00e+00	0	27	0	33554432	56	6708
2026-01-10 19:38:37.36	48.13	3.94	-41.4	-43.4	17.3	0.00e+00	92	27	0	35651584	56	6698
2026-01-10 19:38:38.37	48.03	3.99	-41.4	-43.3	17.4	0.00e+00	0	27	0	37748736	56	6668
2026-01-10 19:38:39.38	47.93	4.04	-41.1	-43.0	17.7	0.00e+00	71	27	0	39845888	56	6431
2026-01-10 19:38:40.39	47.83	4.09	-41.1	-43.0	17.7	0.00e+00	0	27	0	41943040	56	6436
2026-01-10 19:38:41.40	47.73	4.14	-41.2	-43.0	17.7	0.00e+00	91	27	0	42991616	56	6458
2026-01-10 19:38:42.41	47.62	4.20	-41.2	-43.0	17.6	0.00e+00	8	27	0	45088768	56	6451
2026-01-10 19:38:43.42	47.52	4.25	-41.0	-42.8	17.9	0.00e+00	0	27	0	47185920	56	6263
2026-01-10 19:38:44.43	47.42	4.30	-41.0	-42.8	17.9	0.00e+00	41	27	0	49283072	56	6292
2026-01-10 19:38:45.44	47.32	4.35	-41.3	-43.2	17.6	0.00e+00	0	27	0	51380224	56	6567
2026-01-10 19:38:46.45	47.21	4.40	-41.0	-42.8	17.9	0.00e+00	64	27	0	52428800	56	6303
2026-01-10 19:38:47.46	47.11	4.45	-41.1	-42.9	17.8	0.00e+00	0	27	0	54525952	56	6354
2026-01-10 19:38:48.47	47.01	4.50	-41.1	-43.0	17.8	0.00e+00	91	27	0	56623104	56	6440
2026-01-10 19:38:49.48	46.90	4.55	-41.2	-43.0	17.7	0.00e+00	9	27	0	58720256	56	6452
2026-01-10 19:38:50.49	46.80	4.60	-41.2	-43.0	17.8	0.00e+00	0	27	0	60817408	56	6449
2026-01-10 19:38:51.50	46.69	4.65	-41.2	-43.1	17.8	0.00e+00	58	27	0	61865984	56	6470
2026-01-10 19:38:52.51	46.59	4.70	-41.2	-43.0	17.8	0.00e+00	0	27	0	63963136	56	6440
2026-01-10 19:38:53.52	46.48	4.76	-41.4	-43.3	17.6	0.00e+00	91	27	0	66060288	56	6631
2026-01-10 19:38:54.53	46.38	4.81	-41.2	-43.1	17.9	0.00e+00	0	27	0	68157440	56	6470
2026-01-10 19:38:55.54	46.27	4.86	-41.1	-42.9	18.0	0.00e+00	62	27	0	70254592	56	6352
2026-01-10 19:38:56.55	46.16	4.91	-41.1	-43.0	17.8	0.00e+00	0	27	0	71303168	56	6432
2026-01-10 19:38:57.56	46.06	4.96	-41.0	-42.8	18.0	0.00e+00	0	27	0	73400320	56	6312
2026-01-10 19:38:58.57	45.95	5.01	-41.2	-43.1	17.8	0.00e+00	80	27	0	75497472	56	6471
2026-01-10 19:38:59.58	45.84	5.06	-41.1	-43.0	17.8	0.00e+00	0	27	0	77594624	56	6396
2026-01-10 19:39:00.59	45.73	5.11	-41.5	-43.4	17.6	0.00e+00	77	27	0	79691776	56	6758
2026-01-10 19:39:01.60	45.62	5.16	-41.3	-43.2	17.8	0.00e+00	0	27	0	81788928	56	6550
2026-01-10 19:39:02.61	45.51	5.21	-41.3	-43.2	17.8	0.00e+00	90	27	0	82837504	56	6544
2026-01-10 19:39:03.62	45.40	5.27	-41.4	-43.3	17.5	0.00e+00	0	27	0	84934656	56	6681
2026-01-10 19:39:04.63	45.29	5.32	-41.1	-42.9	18.0	0.00e+00	0	27	0	87031808	56	6345
2026-01-10 19:39:05.64	45.18	5.37	-41.1	-42.9	17.9	0.00e+00	92	27	0	89128960	56	6347
2026-01-10 19:39:06.65	45.07	5.42	-41.2	-43.0	17.9	0.00e+00	0	27	0	91226112	56	6423
2026-01-10 19:39:07.66	44.96	5.47	-41.1	-42.9	18.0	0.00e+00	14	27	0	92274688	56	6347
2026-01-10 19:39:08.67	44.85	5.52	-40.5	-42.1	18.8	0.00e+00	0	27	0	94371840	54	6507
2026-01-10 19:39:09.68	44.74	5.57	-40.5	-42.2	18.7	0.00e+00	90	27	0	96468992	54	6548
2026-01-10 19:39:10.69	44.63	5.62	-40.3	-41.9	18.9	0.00e+00	0	27	0	98566144	54	6348
2026-01-10 19:39:11.71	44.51	5.67	-40.5	-42.1	18.8	0.00e+00	54	27	0	100663296	54	6470
2026-01-10 19:39:12.71	44.40	5.72	-39.9	-41.3	19.4	0.00e+00	92	27	0	101711872	54	5955
2026-01-10 19:39:13.73	44.28	5.78	-39.9	-41.4	19.4	0.00e+00	0	27	0	103809024	54	5969
2026-01-10 19:39:14.74	44.17	5.83	-39.8	-41.2	19.6	0.00e+00	90	27	0	105906176	52	6596
2026-01-10 19:39:15.75	44.06	5.88	-40.0	-41.4	19.5	0.00e+00	0	27	0	108003328	52	6766
2026-01-10 19:39:16.76	43.94	5.93	-39.7	-41.0	19.9	0.00e+00	63	27	0	110100480	52	6456
2026-01-10 19:39:17.77	43.83	5.98	-39.7	-41.1	19.7	0.00e+00	0	27	0	111149056	52	6524
2026-01-10 19:39:18.78	43.71	6.03	-39.8	-41.2	19.6	0.00e+00	0	27	0	113246208	52	6594
2026-01-10 19:39:19.79	43.59	6.08	-39.6	-41.0	19.8	0.00e+00	92	27	0	115343360	52	6423
2026-01-10 19:39:20.80	43.48	6.13	-39.7	-41.1	19.8	0.00e+00	0	27	0	117440512	52	6473
2026-01-10 19:39:21.81	43.36	6.18	-39.8	-41.2	19.6	0.00e+00	10	27	0	119537664	52	6566
2026-01-10 19:39:22.82	43.24	6.23	-39.5	-40.8	20.0	0.00e+00	0	27	0	121634816	52	6290
2026-01-10 19:39:23.83	43.13	6.28	-39.7	-41.1	19.8	0.00e+00	58	27	0	122683392	52	6487
2026-01-10 19:39:24.84	43.01	6.34	-39.6	-41.0	19.8	0.00e+00	0	27	0	124780544	52	6436
2026-01-10 19:39:25.85	42.89	6.39	-39.6	-41.0	19.8	0.00e+00	64	27	0	126877696	52	6443
2026-01-10 19:39:26.86	42.77	6.44	-39.5	-40.9	19.9	0.00e+00	15	27	0	128974848	52	6359
2026-01-10 19:39:27.87	42.65	6.49	-39.7	-41.1	19.5	0.00e+00	0	27	0	131072000	52	6505
2026-01-10 19:39:28.88	42.53	6.54	-39.9	-41.3	19.6	0.00e+00	15	27	0	132120576	52	6662
2026-01-10 19:39:29.89	42.41	6.59	-39.7	-41.1	19.7	0.00e+00	0	27	0	134217728	52	6527
2026-01-10 19:39:30.90	42.29	6.64	-39.7	-41.0	20.0	0.00e+00	77	27	0	136314880	52	6451
2026-01-10 19:39:31.91	42.17	6.69	-39.5	-40.9	20.0	0.00e+00	0	27	0	138412032	52	6362
2026-01-10 19:39:32.92	42.05	6.74	-39.5	-40.8	20.1	0.00e+00	90	28	0	140509184	52	6299
2026-01-10 19:39:33.93	41.92	6.79	-39.3	-40.6	20.3	0.00e+00	15	27	0	141557760	52	6172
2026-01-10 19:39:34.94	41.80	6.84	-39.7	-41.1	19.8	0.00e+00	0	27	0	143654912	52	6481
2026-01-10 19:39:35.95	41.68	6.89	-39.7	-41.0	19.8	0.00e+00	91	28	0	145752064	52	6452
2026-01-10 19:39:36.96	41.56	6.94	-39.8	-41.2	19.7	0.00e+00	0	27	0	147849216	52	6590
2026-01-10 19:39:37.97	41.43	6.99	-40.0	-41.4	19.5	0.00e+00	91	27	0	149946368	52	6711
2026-01-10 19:39:38.98	41.31	7.05	-40.1	-41.5	19.5	0.00e+00	0	28	0	150994944	52	6812
2026-01-10 19:39:39.99	41.18	7.10	-40.1	-41.6	19.4	0.00e+00	48	27	0	153092096	52	6883
2026-01-10 19:39:41.00	41.06	7.15	-40.1	-41.5	19.5	0.00e+00	0	27	0	155189248	52	6827
2026-01-10 19:39:42.01	40.93	7.20	-40.0	-41.4	19.6	0.00e+00	0	27	0	157286400	52	6758
2026-01-10 19:39:43.02	40.81	7.25	-39.9	-41.3	19.6	0.00e+00	0	27	0	159383552	52	6664
2026-01-10 19:39:44.03	40.68	7.30	-40.1	-41.6	19.5	0.00e+00	0	28	0	160432128	52	6872
2026-01-10 19:39:45.04	40.55	7.35	-40.1	-41.6	19.4	0.00e+00	39	27	0	162529280	52	6864
2026-01-10 19:39:46.05	40.43	7.40	-40.1	-41.6	19.4	0.00e+00	0	28	0	164626432	52	6880
2026-01-10 19:39:47.06	40.30	7.45	-40.1	-41.5	19.4	0.00e+00	0	28	0	166723584	52	6811
2026-01-10 19:39:48.07	40.17	7.50	-40.1	-41.5	19.5	0.00e+00	11	27	0	168820736	52	6826
2026-01-10 19:39:49.08	40.04	7.55	-40.0	-41.4	19.6	0.00e+00	16	28	0	169869312	52	6724
2026-01-10 19:39:50.09	39.91	7.60	-39.8	-41.2	19.8	0.00e+00	21	28	0	171966464	52	6577
2026-01-10 19:39:51.10	39.78	7.65	-39.8	-41.2	19.8	0.00e+00	0	28	0	174063616	52	6592
2026-01-10 19:39:52.11	39.65	7.70	-39.8	-41.2	19.9	0.00e+00	90	28	0	176160768	52	6554
2026-01-10 19:39:53.12	39.52	7.75	-39.8	-41.2	19.8	0.00e+00	13	28	0	178257920	52	6549
2026-01-10 19:39:54.13	39.39	7.80	-39.6	-41.0	19.9	0.00e+00	0	28	0	179306496	52	6393
2026-01-10 19:39:55.14	39.26	7.85	-39.7	-41.0	20.0	0.00e+00	0	28	0	181403648	52	6452
2026-01-10 19:39:56.15	39.13	7.90	-39.7	-41.0	20.0	0.00e+00	15	28	0	183500800	52	6437
2026-01-10 19:39:57.16	38.99	7.95	-39.7	-41.0	20.0	0.00e+00	77	28	0	185597952	52	6430
2026-01-10 19:39:58.17	38.86	8.00	-39.7	-41.1	20.0	0.00e+00	0	28	0	187695104	52	6478
2026-01-10 19:39:59.18	38.73	8.05	-39.7	-41.1	20.0	0.00e+00	85	28	0	189792256	52	6497
2026-01-10 19:40:00.19	38.59	8.10	-39.5	-40.9	20.2	0.00e+00	0	28	0	190840832	52	6324
2026-01-10 19:40:01.20	38.46	8.15	-39.5	-40.8	20.2	0.00e+00	0	28	0	192937984	52	6286
2026-01-10 19:40:02.20	38.33	8.20	-39.6	-40.9	19.9	0.00e+00	0	28	0	195035136	52	6370
2026-01-10 19:40:03.22	38.19	8.25	-39.5	-40.9	20.1	0.00e+00	0	28	0	197132288	52	6337
2026-01-10 19:40:04.22	38.06	8.30	-39.6	-40.9	20.1	0.00e+00	65	28	0	199229440	52	6371
2026-01-10 19:40:05.24	37.92	8.35	-39.6	-40.9	20.1	0.00e+00	0	28	0	200278016	52	6361
2026-01-10 19:40:06.25	37.78	8.40	-39.6	-41.0	20.0	0.00e+00	92	28	0	202375168	52	6404
2026-01-10 19:40:07.26	37.65	8.44	-39.9	-41.3	19.7	0.00e+00	0	28	0	204472320	52	6669
2026-01-10 19:40:08.27	37.51	8.49	-40.1	-41.6	19.4	0.00e+00	0	28	0	206569472	52	6921
2026-01-10 19:40:09.28	37.37	8.54	-40.0	-41.5	19.7	0.00e+00	0	28	0	208666624	52	6808
2026-01-10 19:40:10.29	37.23	8.59	-40.0	-41.5	19.6	0.00e+00	0	28	0	209715200	52	6774
2026-01-10 19:40:11.30	37.09	8.64	-40.2	-41.7	19.4	0.00e+00	0	28	0	211812352	52	6933
2026-01-10 19:40:12.31	36.95	8.69	-40.0	-41.4	19.6	0.00e+00	0	28	0	213909504	52	6767
2026-01-10 19:40:13.32	36.81	8.74	-39.7	-41.1	20.0	0.00e+00	38	28	0	216006656	52	6522
2026-01-10 19:40:14.33	36.67	8.79	-39.7	-41.1	20.0	0.00e+00	0	28	0	218103808	52	6468
2026-01-10 19:40:15.34	36.53	8.84	-39.8	-41.2	19.8	0.00e+00	92	28	0	219152384	52	6578
2026-01-10 19:40:16.35	36.39	8.89	-39.8	-41.1	19.9	0.00e+00	0	28	0	221249536	52	6528
2026-01-10 19:40:17.36	36.25	8.93	-39.9	-41.3	19.8	0.00e+00	0	28	0	223346688	52	6641
2026-01-10 19:40:18.37	36.11	8.98	-40.0	-41.4	19.7	0.00e+00	9	28	0	225443840	52	6720
2026-01-10 19:40:19.38	35.96	9.03	-39.8	-41.2	19.9	0.00e+00	0	28	0	227540992	52	6583
2026-01-10 19:40:20.39	35.82	9.08	-39.4	-40.8	20.2	0.00e+00	92	28	0	228589568	52	6250
2026-01-10 19:40:21.40	35.68	9.13	-39.1	-40.3	20.6	0.00e+00	0	28	0	230686720	52	5952
2026-01-10 19:40:22.41	35.53	9.18	-39.2	-40.4	20.6	0.00e+00	80	28	0	232783872	52	6032
2026-01-10 19:40:23.42	35.39	9.22	-39.0	-40.3	20.6	0.00e+00	0	28	0	234881024	52	5923
2026-01-10 19:40:24.43	35.24	9.27	-39.0	-40.3	20.8	0.00e+00	0	28	0	236978176	52	5908
2026-01-10 19:40:25.43	35.10	9.32	-38.8	-40.0	20.9	0.00e+00	0	28	0	238026752	52	5734
2026-01-10 19:40:26.44	34.95	9.37	-38.9	-40.1	21.0	0.00e+00	0	28	0	240123904	52	5773
2026-01-10 19:40:27.45	34.80	9.42	-38.7	-39.9	21.1	0.00e+00	9	28	0	242221056	52	5694
2026-01-10 19:40:28.46	34.66	9.46	-38.8	-40.0	21.0	0.00e+00	0	28	0	244318208	50	6450
2026-01-10 19:40:29.47	34.51	9.51	-38.4	-39.5	21.4	0.00e+00	92	28	0	246415360	50	6083
2026-01-10 19:40:30.48	34.36	9.56	-38.4	-39.5	21.4	0.00e+00	0	28	0	247463936	50	6085
2026-01-10 19:40:31.49	34.21	9.61	-38.2	-39.4	21.4	0.00e+00	0	28	0	249561088	50	5965
2026-01-10 19:40:32.50	34.06	9.65	-38.2	-39.3	21.4	0.00e+00	0	28	0	251658240	50	5962
2026-01-10 19:40:33.51	33.91	9.70	-38.3	-39.4	21.4	0.00e+00	0	28	0	253755392	50	6001
2026-01-10 19:40:34.52	33.76	9.75	-38.1	-39.2	21.7	0.00e+00	81	28	0	255852544	50	5889
2026-01-10 19:40:35.53	33.61	9.80	-37.7	-38.7	21.7	0.00e+00	0	28	0	256901120	50	5552
2026-01-10 19:40:36.54	33.46	9.84	-37.6	-38.7	22.1	0.00e+00	92	28	0	258998272	48	6175
2026-01-10 19:40:37.55	33.31	9.89	-37.5	-38.5	22.2	0.00e+00	0	28	0	261095424	48	6067
2026-01-10 19:40:38.56	33.16	9.94	-37.3	-38.3	22.2	0.00e+00	0	28	0	263192576	48	5916
2026-01-10 19:40:39.57	33.01	9.98	-37.5	-38.5	22.2	0.00e+00	0	28	0	265289728	48	6103
2026-01-10 19:40:40.57	32.85	10.03	-37.6	-38.6	22.1	0.00e+00	0	28	0	267386880	48	6160
2026-01-10 19:40:41.59	32.70	10.08	-37.7	-38.8	22.1	0.00e+00	16	28	0	268435456	48	6258
2026-01-10 19:40:42.59	32.55	10.12	-37.9	-39.0	21.9	0.00e+00	0	28	0	270532608	48	6439
2026-01-10 19:40:43.60	32.39	10.17	-37.9	-39.0	21.8	0.00e+00	81	28	0	272629760	48	6437
2026-01-10 19:40:44.61	32.24	10.21	-38.2	-39.3	21.7	0.00e+00	0	28	0	274726912	48	6668
2026-01-10 19:40:45.62	32.08	10.26	-38.2	-39.4	21.7	0.00e+00	19	28	0	276824064	48	6698
2026-01-10 19:40:46.63	31.92	10.31	-38.1	-39.3	21.7	0.00e+00	0	28	0	277872640	48	6616
2026-01-10 19:40:47.64	31.77	10.35	-38.3	-39.5	21.3	0.00e+00	0	28	0	279969792	48	6770
2026-01-10 19:40:48.65	31.61	10.40	-38.3	-39.4	21.4	0.00e+00	10	28	0	282066944	48	6733
2026-01-10 19:40:49.66	31.45	10.44	-38.1	-39.2	21.6	0.00e+00	0	28	0	284164096	48	6561
2026-01-10 19:40:50.67	31.29	10.49	-37.9	-39.0	21.8	0.00e+00	92	28	0	286261248	48	6444
2026-01-10 19:40:51.68	31.14	10.53	-37.9	-38.9	21.9	0.00e+00	0	28	0	287309824	48	6384
2026-01-10 19:40:52.69	30.98	10.58	-37.7	-38.7	22.1	0.00e+00	92	28	0	289406976	48	6222
2026-01-10 19:40:53.70	30.82	10.62	-37.7	-38.7	22.0	0.00e+00	0	28	0	291504128	48	6228
2026-01-10 19:40:54.71	30.66	10.67	-37.5	-38.5	22.2	0.00e+00	0	28	0	293601280	48	6072
2026-01-10 19:40:55.72	30.50	10.71	-37.4	-38.4	22.4	0.00e+00	2	28	0	295698432	48	5995
2026-01-10 19:40:56.73	30.34	10.76	-37.2	-38.2	22.5	0.00e+00	0	28	0	296747008	48	5846
2026-01-10 19:40:57.74	30.17	10.80	-37.1	-38.1	22.6	0.00e+00	13	28	0	298844160	48	5800
2026-01-10 19:40:58.75	30.01	10.85	-36.9	-37.8	22.9	0.00e+00	0	28	0	300941312	48	5608
2026-01-10 19:40:59.76	29.85	10.89	-36.8	-37.8	22.9	0.00e+00	69	28	0	303038464	48	5576
2026-01-10 19:41:00.77	29.69	10.93	-36.9	-37.8	23.0	0.00e+00	0	28	0	305135616	46	6277
2026-01-10 19:41:01.78	29.52	10.98	-36.8	-37.8	22.9	0.00e+00	0	28	0	306184192	46	6277
2026-01-10 19:41:02.79	29.36	11.02	-36.9	-37.9	22.8	0.00e+00	0	28	0	308281344	46	6336
2026-01-10 19:41:03.80	29.19	11.06	-37.0	-37.9	22.7	0.00e+00	0	28	0	310378496	46	6368
2026-01-10 19:41:04.81	29.03	11.11	-37.1	-38.1	22.6	0.00e+00	16	28	0	312475648	46	6512
2026-01-10 19:41:05.82	28.86	11.15	-37.2	-38.2	22.5	0.00e+00	0	28	0	314572800	46	6603
2026-01-10 19:41:06.83	28.70	11.19	-37.2	-38.2	22.6	0.00e+00	39	28	0	315621376	46	6553
2026-01-10 19:41:07.84	28.53	11.24	-37.0	-37.9	22.7	0.00e+00	0	28	0	317718528	46	6380
2026-01-10 19:41:08.85	28.36	11.28	-36.9	-37.9	22.8	0.00e+00	0	28	0	319815680	46	6322
2026-01-10 19:41:09.86	28.20	11.32	-36.8	-37.8	22.8	0.00e+00	0	28	0	321912832	46	6247
2026-01-10 19:41:10.87	28.03	11.36	-36.8	-37.7	22.8	0.00e+00	11	28	0	324009984	46	6204
2026-01-10 19:41:11.88	27.86	11.41	-36.6	-37.5	23.0	0.00e+00	81	28	0	325058560	46	6088
2026-01-10 19:41:12.89	27.69	11.45	-36.6	-37.5	23.1	0.00e+00	0	28	0	327155712	46	6101
2026-01-10 19:41:13.90	27.52	11.49	-36.6	-37.5	23.1	0.00e+00	90	28	0	329252864	46	6046
2026-01-10 19:41:14.91	27.35	11.53	-36.6	-37.5	23.1	0.00e+00	0	28	0	331350016	46	6089
2026-01-10 19:41:15.92	27.18	11.57	-36.6	-37.5	23.1	0.00e+00	0	28	0	333447168	46	6066
2026-01-10 19:41:16.93	27.01	11.62	-36.7	-37.7	23.0	0.00e+00	0	28	0	335544320	46	6200
2026-01-10 19:41:17.94	26.84	11.66	-36.9	-37.9	22.9	0.00e+00	0	28	0	336592896	46	6334
2026-01-10 19:41:18.95	26.67	11.70	-37.2	-38.2	22.6	0.00e+00	64	28	0	338690048	46	6542
2026-01-10 19:41:19.96	26.49	11.74	-37.3	-38.4	22.5	0.00e+00	0	28	0	340787200	46	6704
2026-01-10 19:41:20.97	26.32	11.78	-37.5	-38.6	22.3	0.00e+00	31	28	0	342884352	46	6876
2026-01-10 19:41:21.98	26.15	11.82	-37.6	-38.7	22.3	0.00e+00	0	28	0	344981504	46	6952
2026-01-10 19:41:22.99	25.97	11.86	-37.5	-38.6	22.4	0.00e+00	0	28	0	346030080	46	6853
2026-01-10 19:41:24.00	25.80	11.90	-37.6	-38.7	22.3	0.00e+00	0	28	0	348127232	46	6947
2026-01-10 19:41:25.01	25.62	11.94	-37.6	-38.6	22.1	0.00e+00	0	28	0	350224384	46	6924
2026-01-10 19:41:26.02	25.45	11.98	-37.6	-38.6	22.1	0.00e+00	72	28	0	352321536	46	6874
2026-01-10 19:41:27.03	25.27	12.02	-37.4	-38.4	22.1	0.00e+00	0	28	0	354418688	46	6762
2026-01-10 19:41:28.04	25.10	12.06	-37.2	-38.2	22.6	0.00e+00	66	28	0	355467264	46	6578
2026-01-10 19:41:29.05	24.92	12.10	-37.3	-38.2	22.6	0.00e+00	0	28	0	357564416	46	6604
2026-01-10 19:41:30.06	24.74	12.14	-37.1	-38.1	22.7	0.00e+00	69	28	0	359661568	46	6481
2026-01-10 19:41:31.07	24.56	12.17	-37.3	-38.3	22.6	0.00e+00	14	28	0	361758720	46	6634
2026-01-10 19:41:32.08	24.39	12.21	-37.4	-38.4	22.5	0.00e+00	0	28	0	363855872	46	6744
2026-01-10 19:41:33.09	24.21	12.25	-37.7	-38.7	22.2	0.00e+00	13	28	0	364904448	46	6971
2026-01-10 19:41:34.10	24.03	12.29	-37.7	-38.8	22.3	0.00e+00	0	28	0	367001600	46	7008
2026-01-10 19:41:35.11	23.85	12.33	-37.5	-38.6	22.3	0.00e+00	50	28	0	369098752	46	6867
2026-01-10 19:41:36.12	23.67	12.36	-37.7	-38.8	22.2	0.00e+00	0	28	0	371195904	46	7013
2026-01-10 19:41:37.13	23.49	12.40	-37.6	-38.7	22.3	0.00e+00	92	28	0	373293056	46	6952
2026-01-10 19:41:38.14	23.31	12.44	-37.4	-38.4	22.4	0.00e+00	0	28	0	374341632	46	6745
2026-01-10 19:41:39.15	23.13	12.48	-37.2	-38.2	22.6	0.00e+00	0	28	0	376438784	46	6611
2026-01-10 19:41:40.16	22.94	12.51	-37.2	-38.2	22.6	0.00e+00	13	28	0	378535936	46	6607
2026-01-10 19:41:41.17	22.76	12.55	-36.9	-37.8	22.8	0.00e+00	0	28	0	380633088	46	6309
2026-01-10 19:41:42.18	22.58	12.58	-36.7	-37.7	23.0	0.00e+00	83	28	0	382730240	46	6174
2026-01-10 19:41:43.19	22.39	12.62	-36.7	-37.7	23.1	0.00e+00	16	29	0	383778816	46	6189
2026-01-10 19:41:44.20	22.21	12.66	-36.8	-37.7	23.1	0.00e+00	92	28	0	385875968	46	6202
2026-01-10 19:41:45.21	22.03	12.69	-37.0	-37.9	22.8	0.00e+00	0	28	0	387973120	46	6355
2026-01-10 19:41:46.22	21.84	12.73	-37.3	-38.2	22.6	0.00e+00	0	29	0	390070272	46	6615
2026-01-10 19:41:47.23	21.66	12.76	-37.4	-38.4	22.6	0.00e+00	0	28	0	392167424	46	6699
2026-01-10 19:41:48.24	21.47	12.80	-37.3	-38.3	22.6	0.00e+00	0	29	0	393216000	46	6619
2026-01-10 19:41:49.25	21.29	12.83	-37.3	-38.3	22.6	0.00e+00	73	29	0	395313152	46	6652
2026-01-10 19:41:50.26	21.10	12.87	-37.0	-38.0	22.9	0.00e+00	0	28	0	397410304	46	6396
2026-01-10 19:41:51.27	20.91	12.90	-37.0	-38.0	22.8	0.00e+00	38	28	0	399507456	46	6398
2026-01-10 19:41:52.28	20.72	12.93	-37.1	-38.0	22.8	0.00e+00	0	29	0	401604608	46	6451
2026-01-10 19:41:53.29	20.54	12.97	-37.2	-38.1	22.7	0.00e+00	0	28	0	403701760	46	6537
2026-01-10 19:41:54.30	20.35	13.00	-37.0	-38.0	22.8	0.00e+00	0	28	0	404750336	46	6431
2026-01-10 19:41:55.31	20.16	13.03	-37.2	-38.2	22.6	0.00e+00	0	28	0	406847488	46	6553
2026-01-10 19:41:56.32	19.97	13.07	-37.2	-38.2	22.5	0.00e+00	17	28	0	408944640	46	6578
2026-01-10 19:41:57.33	19.78	13.10	-37.4	-38.5	22.2	0.00e+00	0	29	0	411041792	46	6780
2026-01-10 19:41:58.34	19.59	13.13	-37.9	-39.0	21.9	0.00e+00	73	28	0	413138944	48	6407
2026-01-10 19:41:59.35	19.40	13.16	-38.1	-39.3	21.6	0.00e+00	0	29	0	414187520	48	6632
2026-01-10 19:42:00.36	19.21	13.19	-38.5	-39.7	21.4	0.00e+00	90	28	0	416284672	48	6942
2026-01-10 19:42:01.37	19.02	13.23	-38.3	-39.4	21.6	0.00e+00	0	29	0	418381824	48	6749
2026-01-10 19:42:02.38	18.83	13.26	-37.8	-38.9	22.1	0.00e+00	0	28	0	420478976	48	6346
2026-01-10 19:42:03.39	18.64	13.29	-37.5	-38.6	22.4	0.00e+00	0	29	0	422576128	48	6114
2026-01-10 19:42:04.40	18.44	13.32	-37.3	-38.3	22.7	0.00e+00	0	29	0	423624704	48	5908
2026-01-10 19:42:05.41	18.25	13.35	-37.0	-37.9	22.9	0.00e+00	92	29	0	425721856	48	5669
2026-01-10 19:42:06.42	18.06	13.38	-36.8	-37.7	23.0	0.00e+00	0	28	0	427819008	46	6199
2026-01-10 19:42:07.43	17.86	13.41	-36.7	-37.6	23.0	0.00e+00	92	29	0	429916160	46	6122
2026-01-10 19:42:08.44	17.67	13.44	-36.5	-37.4	23.0	0.00e+00	0	29	0	432013312	46	6002
2026-01-10 19:42:09.45	17.48	13.47	-36.5	-37.4	22.4	0.00e+00	0	29	0	433061888	46	6001
2026-01-10 19:42:10.46	17.28	13.49	-36.4	-37.3	23.2	0.00e+00	0	29	0	435159040	46	5923
2026-01-10 19:42:11.46	17.09	13.52	-36.4	-37.3	23.4	0.00e+00	0	29	0	437256192	46	5959
2026-01-10 19:42:12.48	16.89	13.55	-36.1	-37.0	23.5	0.00e+00	30	29	0	439353344	46	5697
2026-01-10 19:42:13.49	16.69	13.58	-36.2	-37.1	23.4	0.00e+00	0	29	0	441450496	46	5804
2026-01-10 19:42:14.50	16.50	13.61	-36.5	-37.4	23.3	0.00e+00	86	29	0	442499072	46	5998
2026-01-10 19:42:15.51	16.30	13.63	-36.5	-37.4	23.3	0.00e+00	0	29	0	444596224	46	5994
2026-01-10 19:42:16.52	16.10	13.66	-36.5	-37.4	23.3	0.00e+00	0	29	0	446693376	46	6010
2026-01-10 19:42:17.53	15.91	13.69	-36.3	-37.2	23.5	0.00e+00	0	29	0	448790528	46	5847
2026-01-10 19:42:18.54	15.71	13.71	-36.0	-36.9	23.7	0.00e+00	0	29	0	450887680	46	5650
2026-01-10 19:42:19.55	15.51	13.74	-36.1	-37.0	23.6	0.00e+00	92	28	0	451936256	46	5710
2026-01-10 19:42:20.56	15.31	13.77	-36.1	-37.0	23.6	0.00e+00	0	29	0	454033408	46	5717
2026-01-10 19:42:21.57	15.11	13.79	-36.3	-37.2	23.4	0.00e+00	92	29	0	456130560	46	5842
2026-01-10 19:42:22.58	14.92	13.82	-36.8	-37.7	22.7	0.00e+00	0	29	0	458227712	46	6217
2026-01-10 19:42:23.59	14.72	13.84	-37.0	-37.9	22.8	0.00e+00	0	29	0	460324864	46	6376
2026-01-10 19:42:24.60	14.52	13.87	-37.2	-38.2	22.7	0.00e+00	0	29	0	461373440	46	6574
2026-01-10 19:42:25.61	14.32	13.89	-37.3	-38.3	22.6	0.00e+00	0	29	0	463470592	46	6679
2026-01-10 19:42:26.62	14.12	13.91	-37.4	-38.4	22.5	0.00e+00	0	29	0	465567744	46	6698
2026-01-10 19:42:27.63	13.92	13.94	-37.3	-38.3	22.6	0.00e+00	0	29	0	467664896	46	6679
2026-01-10 19:42:28.64	13.71	13.96	-37.4	-38.5	22.5	0.00e+00	92	29	0	469762048	46	6778
2026-01-10 19:42:29.65	13.51	13.98	-37.6	-38.6	22.3	0.00e+00	0	29	0	471859200	46	6892
2026-01-10 19:42:30.66	13.31	14.01	-37.7	-38.8	22.2	0.00e+00	0	29	0	472907776	48	6275
2026-01-10 19:42:31.67	13.11	14.03	-37.8	-38.9	22.2	0.00e+00	0	29	0	475004928	48	6326
2026-01-10 19:42:32.68	12.91	14.05	-37.7	-38.7	22.2	0.00e+00	0	29	0	477102080	48	6241
2026-01-10 19:42:33.69	12.70	14.07	-37.8	-38.9	22.0	0.00e+00	15	29	0	479199232	48	6351
2026-01-10 19:42:34.70	12.50	14.09	-37.5	-38.6	22.3	0.00e+00	0	29	0	481296384	48	6119
2026-01-10 19:42:35.71	12.30	14.11	-37.6	-38.6	22.4	0.00e+00	90	29	0	482344960	48	6138
2026-01-10 19:42:36.72	12.09	14.13	-37.6	-38.7	22.3	0.00e+00	0	29	0	484442112	48	6204
2026-01-10 19:42:37.73	11.89	14.15	-37.5	-38.5	22.3	0.00e+00	0	29	0	486539264	48	6080
2026-01-10 19:42:38.74	11.69	14.17	-37.7	-38.8	22.1	0.00e+00	0	29	0	488636416	48	6273
2026-01-10 19:42:39.75	11.48	14.19	-37.8	-38.9	22.1	0.00e+00	0	29	0	490733568	48	6343
2026-01-10 19:42:40.76	11.28	14.21	-37.4	-38.4	22.6	0.00e+00	32	29	0	491782144	48	6003
2026-01-10 19:42:41.77	11.07	14.23	-37.4	-38.4	22.5	0.00e+00	0	29	0	493879296	48	5992
2026-01-10 19:42:42.78	10.87	14.25	-37.0	-38.0	22.8	0.00e+00	66	29	0	495976448	48	5709
2026-01-10 19:42:43.79	10.66	14.27	-37.0	-37.9	23.0	0.00e+00	0	29	0	498073600	48	5683
2026-01-10 19:42:44.80	10.46	14.29	-36.9	-37.8	23.0	0.00e+00	92	29	0	500170752	46	6307
2026-01-10 19:42:45.81	10.25	14.30	-36.8	-37.7	23.1	0.00e+00	0	29	0	501219328	46	6226
2026-01-10 19:42:46.82	10.05	14.32	-36.7	-37.6	23.2	0.00e+00	0	29	0	503316480	46	6127
2026-01-10 19:42:47.83	9.84	14.34	-36.5	-37.4	23.2	0.00e+00	0	29	0	505413632	46	5990
2026-01-10 19:42:48.83	9.63	14.35	-36.6	-37.6	23.2	0.00e+00	0	29	0	507510784	46	6109
2026-01-10 19:42:49.84	9.43	14.37	-36.5	-37.4	23.3	0.00e+00	14	29	0	509607936	46	6023
2026-01-10 19:42:50.85	9.22	14.38	-36.6	-37.5	23.2	0.00e+00	0	29	0	510656512	46	6072
2026-01-10 19:42:51.86	9.01	14.40	-36.9	-37.8	22.9	0.00e+00	92	29	0	512753664	46	6276
2026-01-10 19:42:52.87	8.81	14.41	-37.1	-38.0	22.9	0.00e+00	0	29	0	514850816	46	6424
2026-01-10 19:42:53.88	8.60	14.43	-37.2	-38.2	22.7	0.00e+00	0	29	0	516947968	46	6567
2026-01-10 19:42:54.89	8.39	14.44	-37.4	-38.3	22.6	0.00e+00	16	29	0	519045120	46	6691
2026-01-10 19:42:55.90	8.18	14.46	-37.5	-38.5	22.4	0.00e+00	0	29	0	520093696	46	6847
2026-01-10 19:42:56.91	7.97	14.47	-37.4	-38.4	22.4	0.00e+00	82	29	0	522190848	46	6748
2026-01-10 19:42:57.92	7.77	14.48	-37.2	-38.2	22.7	0.00e+00	0	29	0	524288000	46	6588
2026-01-10 19:42:58.93	7.56	14.49	-36.8	-37.8	23.0	0.00e+00	77	29	0	526385152	46	6252
2026-01-10 19:42:59.94	7.35	14.51	-37.0	-38.0	22.8	0.00e+00	0	29	0	528482304	46	6396
2026-01-10 19:43:00.95	7.14	14.52	-36.9	-37.9	22.9	0.00e+00	0	29	0	529530880	46	6322
2026-01-10 19:43:01.96	6.93	14.53	-36.9	-37.9	23.0	0.00e+00	0	29	0	531628032	46	6358
2026-01-10 19:43:02.97	6.72	14.54	-37.1	-38.1	22.8	0.00e+00	0	29	0	533725184	46	6474
2026-01-10 19:43:03.98	6.51	14.55	-37.2	-38.2	22.6	0.00e+00	56	29	0	535822336	46	6554
2026-01-10 19:43:04.99	6.30	14.56	-37.3	-38.3	22.6	0.00e+00	0	29	0	537919488	46	6672
2026-01-10 19:43:05.99	6.10	14.57	-37.5	-38.5	22.4	0.00e+00	22	29	0	540016640	46	6802
2026-01-10 19:43:07.00	5.89	14.58	-37.3	-38.4	22.6	0.00e+00	0	29	0	541065216	46	6699
2026-01-10 19:43:08.01	5.68	14.59	-37.4	-38.4	22.6	0.00e+00	18	29	0	543162368	46	6736
2026-01-10 19:43:09.02	5.47	14.60	-37.0	-38.0	22.9	0.00e+00	0	29	0	545259520	46	6432
2026-01-10 19:43:10.03	5.26	14.61	-37.3	-38.3	22.6	0.00e+00	0	29	0	547356672	46	6689
2026-01-10 19:43:11.04	5.04	14.62	-37.2	-38.2	22.8	0.00e+00	72	29	0	549453824	46	6541
2026-01-10 19:43:12.05	4.83	14.62	-37.2	-38.1	22.7	0.00e+00	0	29	0	550502400	46	6537
2026-01-10 19:43:13.06	4.62	14.63	-37.0	-38.0	22.8	0.00e+00	71	29	0	552599552	46	6429
2026-01-10 19:43:14.07	4.41	14.64	-37.0	-37.9	22.8	0.00e+00	0	29	0	554696704	46	6382
2026-01-10 19:43:15.08	4.20	14.64	-37.0	-38.0	22.9	0.00e+00	0	29	0	556793856	46	6403
2026-01-10 19:43:16.08	3.99	14.65	-37.0	-38.0	22.9	0.00e+00	0	29	0	558891008	46	6408
2026-01-10 19:43:17.09	3.78	14.66	-37.2	-38.2	22.7	0.00e+00	13	29	0	559939584	46	6606
2026-01-10 19:43:18.10	3.57	14.66	-36.8	-37.7	23.1	0.00e+00	15	29	0	562036736	46	6221
2026-01-10 19:43:19.11	3.36	14.67	-36.8	-37.8	23.1	0.00e+00	0	29	0	564133888	46	6255
2026-01-10 19:43:20.12	3.15	14.67	-36.9	-37.9	22.9	0.00e+00	90	29	0	566231040	46	6340
2026-01-10 19:43:21.13	2.94	14.67	-37.0	-37.9	22.9	0.00e+00	0	29	0	568328192	46	6364
2026-01-10 19:43:22.14	2.73	14.68	-37.1	-38.0	22.9	0.00e+00	92	29	0	569376768	46	6442
2026-01-10 19:43:23.15	2.52	14.68	-37.0	-38.0	22.8	0.00e+00	0	29	0	571473920	46	6400
2026-01-10 19:43:24.16	2.30	14.68	-37.2	-38.1	22.7	0.00e+00	13	29	0	573571072	46	6539
2026-01-10 19:43:25.17	2.09	14.69	-37.4	-38.4	22.5	0.00e+00	0	29	0	575668224	46	6717
2026-01-10 19:43:26.18	1.88	14.69	-37.4	-38.4	22.6	0.00e+00	0	29	0	577765376	46	6697
2026-01-10 19:43:27.19	1.67	14.69	-37.3	-38.3	22.6	0.00e+00	91	29	0	578813952	46	6690
2026-01-10 19:43:28.20	1.46	14.69	-37.4	-38.3	22.6	0.00e+00	0	29	0	580911104	46	6691
2026-01-10 19:43:29.21	1.25	14.69	-37.4	-38.4	22.5	0.00e+00	92	29	0	583008256	46	6736
2026-01-10 19:43:30.22	1.04	14.69	-37.3	-38.3	22.6	0.00e+00	0	29	0	585105408	46	6632
2026-01-10 19:43:31.23	0.82	14.69	-37.2	-38.2	22.7	0.00e+00	0	29	0	587202560	46	6570
2026-01-10 19:43:32.24	0.61	14.69	-36.9	-37.8	23.0	0.00e+00	0	29	0	588251136	46	6313
2026-01-10 19:43:33.25	0.40	14.69	-36.7	-37.6	23.1	0.00e+00	0	29	0	590348288	46	6142
2026-01-10 19:43:34.26	0.19	14.69	-36.6	-37.5	23.2	0.00e+00	73	29	0	592445440	46	6092
2026-01-10 19:43:35.27	359.98	14.69	-36.6	-37.5	23.2	0.00e+00	0	29	0	594542592	46	6095
2026-01-10 19:43:36.28	359.77	14.69	-36.6	-37.5	23.2	0.00e+00	69	29	0	596639744	46	6092
2026-01-10 19:43:37.30	359.55	14.69	-36.7	-37.7	23.1	0.00e+00	0	29	0	597688320	46	6184
2026-01-10 19:43:38.31	359.34	14.69	-37.0	-37.9	23.0	0.00e+00	0	29	0	599785472	46	6373
2026-01-10 19:43:39.32	359.13	14.68	-37.3	-38.2	22.6	0.00e+00	0	29	0	601882624	46	6614
2026-01-10 19:43:40.33	358.92	14.68	-37.5	-38.5	22.4	0.00e+00	0	29	0	603979776	46	6825
2026-01-10 19:43:41.34	358.71	14.68	-37.7	-38.7	22.3	0.00e+00	73	29	0	606076928	46	6986
2026-01-10 19:43:42.35	358.50	14.67	-37.5	-38.6	22.5	0.00e+00	0	29	0	608174080	46	6858
2026-01-10 19:43:43.36	358.29	14.67	-37.6	-38.6	22.4	0.00e+00	69	29	0	609222656	46	6926
2026-01-10 19:43:44.37	358.07	14.66	-37.5	-38.5	22.6	0.00e+00	0	29	0	611319808	46	6827
2026-01-10 19:43:45.37	357.87	14.66	-37.4	-38.4	22.5	0.00e+00	0	29	0	613416960	46	6766
2026-01-10 19:43:46.39	357.65	14.65	-37.4	-38.4	22.7	0.00e+00	0	29	0	615514112	46	6729
2026-01-10 19:43:47.40	357.44	14.65	-37.6	-38.7	22.3	0.00e+00	0	29	0	617611264	46	6935
2026-01-10 19:43:48.40	357.23	14.64	-37.8	-38.8	22.2	0.00e+00	12	29	0	618659840	46	7069
2026-01-10 19:43:49.41	357.02	14.63	-38.0	-39.1	21.9	0.00e+00	0	29	0	620756992	48	6468
2026-01-10 19:43:50.42	356.81	14.63	-38.1	-39.2	22.0	0.00e+00	74	29	0	622854144	48	6564
2026-01-10 19:43:51.43	356.60	14.62	-37.9	-39.0	21.9	0.00e+00	0	29	0	624951296	48	6394
2026-01-10 19:43:52.44	356.39	14.61	-37.8	-38.8	22.1	0.00e+00	0	29	0	627048448	48	6285
2026-01-10 19:43:53.45	356.18	14.60	-37.6	-38.7	22.4	0.00e+00	0	29	0	628097024	48	6177
2026-01-10 19:43:54.46	355.97	14.59	-37.5	-38.5	22.4	0.00e+00	0	29	0	630194176	48	6086
2026-01-10 19:43:55.47	355.76	14.58	-37.3	-38.3	22.6	0.00e+00	10	29	0	632291328	48	5905
2026-01-10 19:43:56.48	355.55	14.57	-37.2	-38.2	22.8	0.00e+00	0	29	0	634388480	48	5832
2026-01-10 19:43:57.49	355.34	14.56	-37.1	-38.1	22.8	0.00e+00	90	29	0	636485632	48	5776
2026-01-10 19:43:58.50	355.13	14.55	-36.9	-37.8	23.1	0.00e+00	0	29	0	637534208	48	5598
2026-01-10 19:43:59.51	354.92	14.54	-36.9	-37.9	23.0	0.00e+00	76	29	0	639631360	48	5649
2026-01-10 19:44:00.52	354.71	14.53	-37.0	-37.9	22.9	0.00e+00	0	29	0	641728512	48	5689
2026-01-10 19:44:01.53	354.50	14.52	-37.4	-38.5	22.5	0.00e+00	0	29	0	643825664	48	6034
2026-01-10 19:44:02.53	354.30	14.51	-37.1	-38.1	22.8	0.00e+00	0	29	0	645922816	48	5764
2026-01-10 19:44:03.54	354.09	14.50	-37.2	-38.2	22.7	0.00e+00	0	29	0	646971392	48	5871
2026-01-10 19:44:04.55	353.88	14.49	-37.3	-38.3	22.6	0.00e+00	92	29	0	649068544	48	5934
2026-01-10 19:44:05.56	353.67	14.47	-37.4	-38.4	22.5	0.00e+00	0	29	0	651165696	48	5995
2026-01-10 19:44:06.57	353.46	14.46	-37.4	-38.4	22.6	0.00e+00	81	29	0	653262848	48	6014
2026-01-10 19:44:07.58	353.25	14.45	-36.9	-37.9	23.1	0.00e+00	0	29	0	655360000	48	5640
2026-01-10 19:44:08.59	353.05	14.43	-36.5	-37.3	23.5	0.00e+00	0	29	0	656408576	46	5964
2026-01-10 19:44:09.60	352.84	14.42	-36.3	-37.2	23.5	0.00e+00	0	29	0	658505728	46	5880
2026-01-10 19:44:10.61	352.63	14.40	-36.2	-37.1	23.6	0.00e+00	0	29	0	660602880	46	5795
2026-01-10 19:44:11.62	352.42	14.39	-36.3	-37.1	23.6	0.00e+00	14	29	0	662700032	46	5820
2026-01-10 19:44:12.63	352.22	14.37	-36.3	-37.2	23.3	0.00e+00	0	29	0	664797184	46	5840
2026-01-10 19:44:13.64	352.01	14.36	-36.6	-37.6	23.3	0.00e+00	91	29	0	665845760	46	6118
2026-01-10 19:44:14.65	351.80	14.34	-36.7	-37.6	23.1	0.00e+00	0	29	0	667942912	46	6131
2026-01-10 19:44:15.66	351.60	14.32	-36.7	-37.6	23.2	0.00e+00	13	29	0	670040064	46	6132
2026-01-10 19:44:16.67	351.39	14.31	-36.9	-37.8	23.1	0.00e+00	0	29	0	672137216	46	6281
2026-01-10 19:44:17.68	351.19	14.29	-36.9	-37.8	23.0	0.00e+00	0	29	0	674234368	46	6306
2026-01-10 19:44:18.69	350.98	14.27	-37.0	-38.0	23.0	0.00e+00	8	29	0	676331520	46	6424
2026-01-10 19:44:19.70	350.77	14.25	-37.1	-38.1	22.8	0.00e+00	0	29	0	677380096	46	6508
2026-01-10 19:44:20.71	350.57	14.24	-37.3	-38.3	22.7	0.00e+00	85	29	0	679477248	46	6659
2026-01-10 19:44:21.72	350.36	14.22	-37.3	-38.3	22.6	0.00e+00	0	29	0	681574400	46	6634
2026-01-10 19:44:22.73	350.16	14.20	-37.3	-38.3	22.7	0.00e+00	0	29	0	683671552	46	6619
2026-01-10 19:44:23.74	349.96	14.18	-37.3	-38.3	22.7	0.00e+00	0	29	0	685768704	46	6628
2026-01-10 19:44:24.75	349.75	14.16	-37.2	-38.2	22.7	0.00e+00	0	29	0	686817280	46	6564
2026-01-10 19:44:25.76	349.55	14.14	-37.1	-38.1	22.7	0.00e+00	13	29	0	688914432	46	6524
2026-01-10 19:44:26.77	349.34	14.12	-37.3	-38.3	22.7	0.00e+00	0	29	0	691011584	46	6643
2026-01-10 19:44:27.78	349.14	14.10	-37.3	-38.3	22.5	0.00e+00	82	29	0	693108736	46	6692
2026-01-10 19:44:28.79	348.94	14.08	-37.3	-38.3	22.6	0.00e+00	17	29	0	695205888	46	6641
2026-01-10 19:44:29.80	348.74	14.06	-37.1	-38.1	22.9	0.00e+00	83	29	0	696254464	46	6486
2026-01-10 19:44:30.81	348.53	14.03	-37.1	-38.1	22.8	0.00e+00	0	29	0	698351616	46	6471
2026-01-10 19:44:31.82	348.33	14.01	-36.8	-37.7	23.1	0.00e+00	0	29	0	700448768	46	6227
2026-01-10 19:44:32.83	348.13	13.99	-36.7	-37.6	23.2	0.00e+00	49	29	0	702545920	46	6131
2026-01-10 19:44:33.84	347.93	13.97	-36.8	-37.8	23.1	0.00e+00	0	29	0	704643072	46	6256
2026-01-10 19:44:34.85	347.73	13.94	-36.8	-37.8	23.0	0.00e+00	92	29	0	705691648	46	6254
2026-01-10 19:44:35.85	347.53	13.92	-36.9	-37.8	23.0	0.00e+00	0	29	0	707788800	46	6288
2026-01-10 19:44:36.86	347.33	13.90	-37.0	-38.0	22.9	0.00e+00	91	29	0	709885952	46	6407
2026-01-10 19:44:37.87	347.13	13.87	-37.0	-37.9	22.9	0.00e+00	0	29	0	711983104	46	6384
2026-01-10 19:44:38.88	346.93	13.85	-36.8	-37.7	23.0	0.00e+00	0	29	0	714080256	46	6234
2026-01-10 19:44:39.89	346.73	13.82	-36.8	-37.7	23.0	0.00e+00	0	29	0	715128832	46	6228
2026-01-10 19:44:40.90	346.53	13.80	-36.7	-37.6	23.2	0.00e+00	0	29	0	717225984	46	6111
2026-01-10 19:44:41.91	346.33	13.77	-36.5	-37.4	23.3	0.00e+00	59	29	0	719323136	46	5998
2026-01-10 19:44:42.92	346.13	13.75	-36.5	-37.4	23.2	0.00e+00	0	29	0	721420288	46	6017
2026-01-10 19:44:43.93	345.93	13.72	-36.9	-37.8	23.0	0.00e+00	38	29	0	723517440	46	6285
2026-01-10 19:44:44.94	345.74	13.70	-36.9	-37.8	23.0	0.00e+00	0	29	0	724566016	46	6297
2026-01-10 19:44:45.94	345.54	13.67	-37.2	-38.2	22.7	0.00e+00	0	29	0	726663168	46	6554
2026-01-10 19:44:46.95	345.34	13.64	-37.4	-38.4	22.6	0.00e+00	0	29	0	728760320	46	6763
2026-01-10 19:44:47.96	345.15	13.62	-37.3	-38.3	22.6	0.00e+00	0	29	0	730857472	46	6633
2026-01-10 19:44:48.97	344.95	13.59	-37.4	-38.4	22.5	0.00e+00	0	29	0	732954624	46	6767
2026-01-10 19:44:49.98	344.76	13.56	-37.3	-38.3	22.6	0.00e+00	0	30	0	734003200	46	6683
2026-01-10 19:44:50.99	344.56	13.53	-37.2	-38.2	22.5	0.00e+00	30	29	0	736100352	46	6606
2026-01-10 19:44:52.00	344.36	13.50	-37.1	-38.1	22.7	0.00e+00	0	29	0	738197504	46	6475
2026-01-10 19:44:53.01	344.17	13.48	-37.5	-38.5	22.5	0.00e+00	0	29	0	740294656	46	6826
2026-01-10 19:44:54.02	343.98	13.45	-37.4	-38.4	22.6	0.00e+00	0	29	0	742391808	46	6727
2026-01-10 19:44:55.03	343.78	13.42	-37.5	-38.5	22.4	0.00e+00	0	29	0	744488960	46	6813
2026-01-10 19:44:56.04	343.59	13.39	-37.7	-38.7	22.2	0.00e+00	65	30	0	745537536	48	6243
2026-01-10 19:44:57.05	343.39	13.36	-37.5	-38.6	22.4	0.00e+00	0	30	0	747634688	48	6135
2026-01-10 19:44:58.06	343.20	13.33	-37.7	-38.8	22.2	0.00e+00	72	30	0	749731840	48	6275
2026-01-10 19:44:59.07	343.01	13.30	-37.6	-38.6	22.4	0.00e+00	0	30	0	751828992	48	6137
2026-01-10 19:45:00.08	342.82	13.27	-37.5	-38.5	22.4	0.00e+00	0	29	0	753926144	48	6088
2026-01-10 19:45:01.09	342.63	13.24	-37.2	-38.2	22.7	0.00e+00	0	30	0	754974720	48	5878
2026-01-10 19:45:02.10	342.43	13.20	-37.1	-38.1	22.8	0.00e+00	0	29	0	757071872	48	5815
2026-01-10 19:45:03.11	342.24	13.17	-37.2	-38.1	22.8	0.00e+00	2	29	0	759169024	48	5827
2026-01-10 19:45:04.12	342.05	13.14	-37.1	-38.1	22.8	0.00e+00	14	29	0	761266176	48	5809
2026-01-10 19:45:05.13	341.86	13.11	-37.1	-38.1	22.7	0.00e+00	80	29	0	763363328	48	5779
2026-01-10 19:45:06.14	341.67	13.08	-37.1	-38.1	22.6	0.00e+00	0	29	0	764411904	48	5778
2026-01-10 19:45:07.15	341.48	13.04	-37.1	-38.1	22.8	0.00e+00	45	30	0	766509056	48	5773
2026-01-10 19:45:08.16	341.30	13.01	-37.1	-38.1	22.8	0.00e+00	13	30	0	768606208	48	5776
2026-01-10 19:45:09.17	341.11	12.98	-36.8	-37.8	23.1	0.00e+00	0	30	0	770703360	46	6280
2026-01-10 19:45:10.18	340.92	12.94	-36.8	-37.8	23.0	0.00e+00	0	30	0	772800512	46	6273
2026-01-10 19:45:11.19	340.73	12.91	-36.8	-37.8	23.0	0.00e+00	16	29	0	773849088	46	6263
2026-01-10 19:45:12.20	340.55	12.88	-36.5	-37.4	23.3	0.00e+00	39	30	0	775946240	46	6023
2026-01-10 19:45:13.21	340.36	12.84	-36.5	-37.4	23.4	0.00e+00	0	30	0	778043392	46	6002
2026-01-10 19:45:14.22	340.17	12.81	-36.3	-37.2	23.4	0.00e+00	88	29	0	780140544	46	5881
2026-01-10 19:45:15.23	339.99	12.77	-36.3	-37.2	23.4	0.00e+00	0	30	0	782237696	46	5863
2026-01-10 19:45:16.24	339.80	12.74	-36.0	-36.9	23.7	0.00e+00	0	30	0	783286272	46	5666
2026-01-10 19:45:17.25	339.62	12.70	-36.1	-37.0	23.6	0.00e+00	0	30	0	785383424	46	5740
2026-01-10 19:45:18.26	339.43	12.67	-36.3	-37.2	23.2	0.00e+00	0	29	0	787480576	46	5849
2026-01-10 19:45:19.27	339.25	12.63	-36.4	-37.4	23.3	0.00e+00	18	30	0	789577728	46	5966
2026-01-10 19:45:20.28	339.07	12.60	-36.6	-37.5	23.1	0.00e+00	0	30	0	791674880	46	6074
2026-01-10 19:45:21.29	338.88	12.56	-37.0	-38.0	22.9	0.00e+00	92	29	0	792723456	46	6429
2026-01-10 19:45:22.30	338.70	12.52	-37.0	-37.9	22.6	0.00e+00	0	30	0	794820608	46	6367
2026-01-10 19:45:23.31	338.52	12.49	-37.3	-38.4	22.6	0.00e+00	0	30	0	796917760	46	6701
2026-01-10 19:45:24.32	338.34	12.45	-37.3	-38.3	22.6	0.00e+00	0	29	0	799014912	46	6645
2026-01-10 19:45:25.33	338.15	12.41	-37.4	-38.5	22.4	0.00e+00	0	30	0	801112064	46	6774
2026-01-10 19:45:26.34	337.97	12.38	-37.6	-38.6	22.2	0.00e+00	84	30	0	802160640	46	6912
2026-01-10 19:45:27.35	337.79	12.34	-37.7	-38.8	22.2	0.00e+00	15	29	0	804257792	46	7032
2026-01-10 19:45:28.36	337.61	12.30	-38.0	-39.1	21.8	0.00e+00	81	29	0	806354944	48	6527
2026-01-10 19:45:29.37	337.44	12.26	-38.0	-39.2	21.8	0.00e+00	0	30	0	808452096	48	6542
2026-01-10 19:45:30.38	337.26	12.23	-37.8	-38.9	22.1	0.00e+00	0	29	0	810549248	48	6325
2026-01-10 19:45:31.38	337.08	12.19	-37.8	-38.8	22.1	0.00e+00	0	30	0	812646400	48	6310
2026-01-10 19:45:32.39	336.90	12.15	-37.9	-38.9	22.1	0.00e+00	0	30	0	813694976	48	6383
2026-01-10 19:45:33.40	336.72	12.11	-37.7	-38.8	22.1	0.00e+00	50	30	0	815792128	48	6278
2026-01-10 19:45:34.41	336.55	12.07	-37.8	-38.8	22.1	0.00e+00	0	29	0	817889280	48	6294
2026-01-10 19:45:35.42	336.37	12.03	-37.9	-38.9	22.0	0.00e+00	81	29	0	819986432	48	6377
2026-01-10 19:45:36.43	336.20	11.99	-37.6	-38.6	22.2	0.00e+00	0	30	0	822083584	48	6140
2026-01-10 19:45:37.44	336.02	11.95	-37.7	-38.7	22.0	0.00e+00	16	30	0	823132160	48	6218
2026-01-10 19:45:38.45	335.84	11.91	-37.8	-38.9	22.1	7.00e-07	0	29	0	825229312	48	6326
2026-01-10 19:45:39.46	335.67	11.87	-37.7	-38.8	22.1	0.00e+00	0	30	0	827326464	48	6248
2026-01-10 19:45:40.47	335.50	11.83	-37.9	-39.0	21.9	0.00e+00	12	30	0	829423616	48	6434
2026-01-10 19:45:41.48	335.32	11.79	-38.0	-39.1	21.8	0.00e+00	0	30	0	831520768	48	6536
2026-01-10 19:45:42.49	335.15	11.75	-37.8	-38.8	22.1	0.00e+00	91	30	0	832569344	48	6306
2026-01-10 19:45:43.50	334.98	11.71	-37.8	-38.8	22.1	0.00e+00	0	30	0	834666496	48	6300
2026-01-10 19:45:44.50	334.81	11.67	-37.8	-38.8	22.1	0.00e+00	92	30	0	836763648	48	6288
2026-01-10 19:45:45.51	334.63	11.63	-37.7	-38.7	22.1	0.00e+00	0	30	0	838860800	48	6233
2026-01-10 19:45:46.53	334.46	11.59	-37.7	-38.8	22.2	0.00e+00	0	30	0	840957952	48	6250
2026-01-10 19:45:47.53	334.29	11.55	-37.9	-38.9	22.0	0.00e+00	0	30	0	842006528	48	6369
2026-01-10 19:45:48.54	334.12	11.51	-38.1	-39.2	21.8	0.00e+00	0	30	0	844103680	48	6576
2026-01-10 19:45:49.55	333.95	11.46	-38.2	-39.3	21.6	0.00e+00	5	30	0	846200832	48	6676
2026-01-10 19:45:50.56	333.78	11.42	-38.3	-39.4	21.6	0.00e+00	0	30	0	848297984	48	6740
2026-01-10 19:45:51.57	333.62	11.38	-38.1	-39.1	21.7	0.00e+00	92	30	0	850395136	48	6535
2026-01-10 19:45:52.58	333.45	11.34	-38.0	-39.1	22.0	0.00e+00	0	30	0	851443712	48	6490
2026-01-10 19:45:53.59	333.28	11.29	-37.8	-38.8	22.2	0.00e+00	0	30	0	853540864	48	6308
2026-01-10 19:45:54.60	333.11	11.25	-37.7	-38.7	22.1	0.00e+00	0	30	0	855638016	48	6227
2026-01-10 19:45:55.61	332.95	11.21	-37.6	-38.6	22.3	0.00e+00	0	30	0	857735168	48	6110
2026-01-10 19:45:56.62	332.78	11.17	-37.3	-38.3	22.5	0.00e+00	9	30	0	859832320	48	5900
2026-01-10 19:45:57.63	332.61	11.12	-37.4	-38.4	22.4	0.00e+00	0	30	0	860880896	48	5997
2026-01-10 19:45:58.64	332.45	11.08	-37.7	-38.7	22.1	0.00e+00	92	30	0	862978048	48	6198
2026-01-10 19:45:59.65	332.28	11.04	-38.1	-39.2	21.8	0.00e+00	0	30	0	865075200	48	6564
2026-01-10 19:46:00.66	332.12	10.99	-38.3	-39.4	21.6	0.00e+00	0	30	0	867172352	48	6744
2026-01-10 19:46:01.67	331.96	10.95	-38.7	-39.9	21.2	0.00e+00	0	30	0	869269504	48	7096
2026-01-10 19:46:02.68	331.79	10.90	-38.9	-40.2	20.9	0.00e+00	0	30	0	870318080	50	6556
2026-01-10 19:46:03.69	331.63	10.86	-39.4	-40.7	20.4	0.00e+00	81	30	0	872415232	50	7003
2026-01-10 19:46:04.69	331.47	10.82	-39.5	-40.8	20.3	0.00e+00	0	30	0	874512384	50	7071
2026-01-10 19:46:05.70	331.31	10.77	-39.3	-40.6	20.6	0.00e+00	92	30	0	876609536	50	6916
2026-01-10 19:46:06.71	331.15	10.73	-39.1	-40.3	20.8	0.00e+00	0	30	0	878706688	50	6676
2026-01-10 19:46:07.72	330.99	10.68	-38.9	-40.0	21.1	0.00e+00	0	30	0	880803840	50	6461
2026-01-10 19:46:08.73	330.83	10.64	-38.4	-39.6	21.5	0.00e+00	0	30	0	881852416	50	6123
2026-01-10 19:46:09.74	330.67	10.59	-38.4	-39.5	21.5	0.00e+00	0	30	0	883949568	50	6057
2026-01-10 19:46:10.75	330.51	10.55	-38.4	-39.5	21.5	0.00e+00	3	30	0	886046720	50	6100
2026-01-10 19:46:11.76	330.35	10.50	-38.4	-39.6	21.4	0.00e+00	0	30	0	888143872	50	6111
2026-01-10 19:46:12.77	330.19	10.46	-38.7	-39.8	21.1	0.00e+00	92	30	0	890241024	50	6316
2026-01-10 19:46:13.78	330.03	10.41	-38.9	-40.1	20.9	0.00e+00	0	30	0	891289600	50	6537
2026-01-10 19:46:14.79	329.87	10.37	-39.4	-40.6	20.3	0.00e+00	0	30	0	893386752	50	6927
2026-01-10 19:46:15.80	329.72	10.32	-40.0	-41.4	19.9	0.00e+00	0	30	0	895483904	52	6751
2026-01-10 19:46:16.81	329.56	10.28	-40.5	-42.1	19.1	0.00e+00	0	30	0	897581056	52	7266
2026-01-10 19:46:17.82	329.41	10.23	-40.9	-42.6	18.7	0.00e+00	13	30	0	899678208	54	6880
2026-01-10 19:46:18.83	329.25	10.18	-41.2	-43.0	18.3	0.00e+00	0	30	0	900726784	54	7234
2026-01-10 19:46:19.84	329.10	10.14	-41.5	-43.3	18.1	0.00e+00	19	30	0	902823936	54	7504
2026-01-10 19:46:20.84	328.94	10.09	-41.0	-42.7	18.4	0.00e+00	0	30	0	904921088	54	6970
2026-01-10 19:46:21.85	328.79	10.05	-41.0	-42.7	18.6	0.00e+00	77	30	0	907018240	54	6983
2026-01-10 19:46:22.86	328.64	10.00	-41.0	-42.6	18.6	0.00e+00	0	30	0	909115392	54	6924
2026-01-10 19:46:23.88	328.48	9.95	-40.8	-42.4	18.9	0.00e+00	0	30	0	910163968	54	6758
2026-01-10 19:46:24.88	328.33	9.91	-40.5	-42.0	19.2	0.00e+00	11	30	0	912261120	54	6428
2026-01-10 19:46:25.89	328.18	9.86	-40.3	-41.8	19.3	0.00e+00	0	30	0	914358272	54	6295
2026-01-10 19:46:26.90	328.03	9.81	-40.2	-41.7	19.5	0.00e+00	92	30	0	916455424	54	6174
2026-01-10 19:46:27.91	327.88	9.77	-40.2	-41.7	19.6	0.00e+00	0	30	0	918552576	54	6202
2026-01-10 19:46:28.92	327.73	9.72	-40.2	-41.7	19.4	0.00e+00	91	30	0	919601152	54	6176
2026-01-10 19:46:29.93	327.58	9.67	-40.1	-41.6	19.6	0.00e+00	0	30	0	921698304	54	6127
2026-01-10 19:46:30.94	327.43	9.62	-40.0	-41.4	19.7	0.00e+00	0	30	0	923795456	54	6016
2026-01-10 19:46:31.95	327.28	9.58	-39.7	-41.0	20.1	0.00e+00	0	30	0	925892608	52	6432
2026-01-10 19:46:32.96	327.13	9.53	-39.7	-41.0	20.2	0.00e+00	0	30	0	927989760	52	6440
2026-01-10 19:46:33.97	326.98	9.48	-39.6	-41.0	20.2	0.00e+00	68	30	0	929038336	52	6422
2026-01-10 19:46:34.98	326.84	9.43	-39.6	-40.9	20.2	0.00e+00	0	30	0	931135488	52	6365
2026-01-10 19:46:35.99	326.69	9.39	-39.5	-40.8	20.4	0.00e+00	65	30	0	933232640	52	6275
2026-01-10 19:46:37.00	326.54	9.34	-39.6	-40.9	20.3	0.00e+00	0	30	0	935329792	52	6354
2026-01-10 19:46:38.01	326.40	9.29	-39.7	-41.0	20.2	0.00e+00	0	30	0	937426944	52	6428
2026-01-10 19:46:39.02	326.25	9.24	-39.6	-40.9	20.2	0.00e+00	0	30	0	938475520	52	6387
2026-01-10 19:46:40.03	326.11	9.19	-39.7	-41.0	20.1	0.00e+00	0	30	0	940572672	52	6407
2026-01-10 19:46:41.04	325.96	9.15	-39.5	-40.7	20.3	0.00e+00	70	30	0	942669824	52	6227
2026-01-10 19:46:42.05	325.82	9.10	-39.3	-40.6	20.5	0.00e+00	0	30	0	944766976	52	6137
2026-01-10 19:46:43.06	325.68	9.05	-39.1	-40.3	20.7	0.00e+00	53	30	0	946864128	52	5940
2026-01-10 19:46:44.07	325.53	9.00	-39.0	-40.2	20.9	0.00e+00	0	30	0	948961280	52	5891
2026-01-10 19:46:45.08	325.39	8.95	-38.9	-40.1	21.1	0.00e+00	7	30	0	950009856	50	6474
2026-01-10 19:46:46.09	325.25	8.90	-38.7	-39.9	21.1	0.00e+00	0	30	0	952107008	50	6357
2026-01-10 19:46:47.10	325.11	8.85	-38.6	-39.8	21.1	0.00e+00	0	30	0	954204160	50	6272
2026-01-10 19:46:48.11	324.97	8.81	-38.6	-39.8	21.2	0.00e+00	24	30	0	956301312	50	6293
2026-01-10 19:46:49.12	324.82	8.76	-38.5	-39.7	21.2	0.00e+00	0	30	0	958398464	50	6205
2026-01-10 19:46:50.13	324.68	8.71	-38.5	-39.6	21.3	0.00e+00	91	30	0	959447040	50	6173
2026-01-10 19:46:51.14	324.55	8.66	-38.5	-39.7	21.3	0.00e+00	7	30	0	961544192	50	6205
2026-01-10 19:46:52.14	324.41	8.61	-38.8	-40.0	21.0	0.00e+00	90	30	0	963641344	50	6411
2026-01-10 19:46:53.16	324.27	8.56	-38.9	-40.1	20.9	0.00e+00	0	30	0	965738496	50	6511
2026-01-10 19:46:54.17	324.13	8.51	-39.0	-40.2	20.9	0.00e+00	15	30	0	967835648	50	6558
2026-01-10 19:46:55.18	323.99	8.46	-39.1	-40.4	20.7	0.00e+00	0	30	0	968884224	50	6721
2026-01-10 19:46:56.18	323.86	8.41	-38.9	-40.1	20.9	0.00e+00	0	30	0	970981376	50	6524
2026-01-10 19:46:57.19	323.72	8.36	-39.0	-40.3	20.8	0.00e+00	45	30	0	973078528	50	6627
2026-01-10 19:46:58.20	323.58	8.32	-39.1	-40.3	20.8	0.00e+00	0	30	0	975175680	50	6660
2026-01-10 19:46:59.21	323.45	8.27	-39.2	-40.5	20.5	0.00e+00	92	30	0	977272832	50	6805
2026-01-10 19:47:00.22	323.31	8.22	-39.2	-40.5	20.5	0.00e+00	0	30	0	978321408	50	6812
2026-01-10 19:47:01.23	323.18	8.17	-38.9	-40.1	20.7	0.00e+00	0	30	0	980418560	50	6539
2026-01-10 19:47:02.24	323.04	8.12	-39.2	-40.4	20.6	0.00e+00	0	30	0	982515712	50	6734
2026-01-10 19:47:03.25	322.91	8.07	-39.1	-40.3	20.7	0.00e+00	0	30	0	984612864	50	6684
2026-01-10 19:47:04.26	322.78	8.02	-39.1	-40.4	20.6	0.00e+00	41	30	0	986710016	50	6697
2026-01-10 19:47:05.27	322.64	7.97	-39.0	-40.2	20.7	0.00e+00	0	30	0	987758592	50	6571
2026-01-10 19:47:06.28	322.51	7.92	-39.1	-40.3	20.7	0.00e+00	90	30	0	989855744	50	6681
2026-01-10 19:47:07.29	322.38	7.87	-39.0	-40.3	20.8	0.00e+00	0	30	0	991952896	50	6644
2026-01-10 19:47:08.30	322.25	7.82	-39.2	-40.4	20.6	0.00e+00	0	30	0	994050048	50	6768
2026-01-10 19:47:09.31	322.12	7.77	-39.0	-40.2	20.9	0.00e+00	0	30	0	996147200	50	6613
2026-01-10 19:47:10.32	321.98	7.72	-39.1	-40.4	20.6	0.00e+00	0	30	0	997195776	50	6739
2026-01-10 19:47:11.33	321.85	7.67	-39.3	-40.6	20.5	0.00e+00	92	30	0	999292928	50	6859
2026-01-10 19:47:12.34	321.72	7.62	-39.3	-40.6	20.5	0.00e+00	0	30	0	1001390080	50	6896
2026-01-10 19:47:13.35	321.60	7.57	-39.0	-40.2	20.7	0.00e+00	91	30	0	1003487232	50	6599
2026-01-10 19:47:14.36	321.47	7.52	-38.9	-40.1	20.9	0.00e+00	0	30	0	1005584384	50	6477
2026-01-10 19:47:15.37	321.34	7.47	-38.3	-39.4	21.5	0.00e+00	0	30	0	1006632960	50	6005
2026-01-10 19:47:16.38	321.21	7.42	-37.9	-39.0	21.8	0.00e+00	0	30	0	1008730112	50	5710
2026-01-10 19:47:17.39	321.08	7.37	-38.1	-39.1	21.8	0.00e+00	0	30	0	1010827264	50	5827
2026-01-10 19:47:18.40	320.96	7.32	-37.7	-38.7	22.0	0.00e+00	47	30	0	1012924416	48	6224
2026-01-10 19:47:19.41	320.83	7.27	-37.6	-38.6	22.2	0.00e+00	0	30	0	1015021568	48	6158
2026-01-10 19:47:20.42	320.70	7.22	-37.5	-38.5	22.1	0.00e+00	92	30	0	1017118720	48	6101
2026-01-10 19:47:21.43	320.58	7.17	-37.6	-38.7	22.0	0.00e+00	0	30	0	1018167296	48	6181
2026-01-10 19:47:22.44	320.45	7.12	-37.8	-38.8	21.9	0.00e+00	0	30	0	1020264448	48	6293
2026-01-10 19:47:23.45	320.33	7.06	-37.7	-38.8	21.9	0.00e+00	0	30	0	1022361600	48	6290
2026-01-10 19:47:24.46	320.20	7.01	-37.8	-38.9	21.8	0.00e+00	0	30	0	1024458752	48	6355
2026-01-10 19:47:25.47	320.08	6.96	-38.0	-39.1	21.7	0.00e+00	64	30	0	1026555904	48	6522
2026-01-10 19:47:26.48	319.96	6.91	-38.0	-39.1	21.7	0.00e+00	0	30	0	1027604480	48	6475
2026-01-10 19:47:27.49	319.83	6.86	-37.7	-38.8	21.8	0.00e+00	89	30	0	1029701632	48	6265
2026-01-10 19:47:28.50	319.71	6.81	-38.1	-39.2	21.6	0.00e+00	0	30	0	1031798784	48	6560
2026-01-10 19:47:29.51	319.59	6.76	-37.8	-38.9	21.8	0.00e+00	1	30	0	1033895936	48	6338
2026-01-10 19:47:30.52	319.47	6.71	-37.7	-38.8	21.9	0.00e+00	0	30	0	1035993088	48	6280
2026-01-10 19:47:31.53	319.35	6.66	-37.7	-38.8	22.0	0.00e+00	24	30	0	1037041664	48	6280
2026-01-10 19:47:32.54	319.22	6.61	-37.7	-38.7	22.0	0.00e+00	17	30	0	1039138816	48	6206
2026-01-10 19:47:33.55	319.10	6.56	-37.6	-38.7	22.1	0.00e+00	0	30	0	1041235968	48	6178
2026-01-10 19:47:34.56	318.98	6.51	-37.6	-38.7	22.0	0.00e+00	5	30	0	1043333120	48	6209
2026-01-10 19:47:35.57	318.86	6.46	-37.5	-38.5	22.1	0.00e+00	0	30	0	1045430272	48	6076
2026-01-10 19:47:36.58	318.75	6.41	-37.7	-38.8	21.8	0.00e+00	26	30	0	1046478848	48	6263
2026-01-10 19:47:37.59	318.63	6.36	-37.9	-39.0	21.7	0.00e+00	0	30	0	1048576000	48	6430
2026-01-10 19:47:38.60	318.51	6.30	-38.0	-39.1	21.7	0.00e+00	0	30	0	1050673152	48	6521
2026-01-10 19:47:39.61	318.39	6.25	-38.0	-39.1	21.6	0.00e+00	0	30	0	1052770304	48	6494
2026-01-10 19:47:40.62	318.27	6.20	-38.1	-39.2	21.6	0.00e+00	0	30	0	1054867456	48	6608
2026-01-10 19:47:41.63	318.16	6.15	-38.2	-39.3	21.4	0.00e+00	2	30	0	1055916032	48	6649
2026-01-10 19:47:42.64	318.04	6.10	-38.2	-39.4	21.4	0.00e+00	5	30	0	1058013184	48	6736
2026-01-10 19:47:43.65	317.92	6.05	-38.5	-39.6	21.1	0.00e+00	92	30	0	1060110336	48	6919
2026-01-10 19:47:44.66	317.81	6.00	-38.2	-39.4	21.4	0.00e+00	0	30	0	1062207488	48	6709
2026-01-10 19:47:45.67	317.69	5.95	-38.4	-39.6	21.1	0.00e+00	0	30	0	1064304640	48	6887
2026-01-10 19:47:46.68	317.58	5.90	-38.5	-39.7	21.1	0.00e+00	0	30	0	1065353216	48	6983
2026-01-10 19:47:47.69	317.46	5.85	-38.5	-39.7	21.1	0.00e+00	0	30	0	1067450368	48	6982
2026-01-10 19:47:48.70	317.35	5.80	-38.4	-39.6	21.2	0.00e+00	7	30	0	1069547520	48	6916
2026-01-10 19:47:49.71	317.23	5.74	-38.4	-39.6	21.2	0.00e+00	0	30	0	1071644672	48	6876
2026-01-10 19:47:50.72	317.12	5.69	-38.5	-39.7	21.0	0.00e+00	30	30	0	1073741824	48	6948
2026-01-10 19:47:51.72	317.01	5.64	-38.6	-39.8	20.8	0.00e+00	0	30	0	1074790400	48	7087
2026-01-10 19:47:52.73	316.90	5.59	-38.6	-39.8	21.0	0.00e+00	0	30	0	1076887552	48	7013
2026-01-10 19:47:53.74	316.79	5.54	-38.7	-39.9	20.9	0.00e+00	7	30	0	1078984704	48	7153
2026-01-10 19:47:54.75	316.67	5.49	-38.4	-39.6	21.1	0.00e+00	0	30	0	1081081856	48	6895
2026-01-10 19:47:55.76	316.56	5.44	-38.5	-39.7	20.9	0.00e+00	7	30	0	1083179008	48	6967
2026-01-10 19:47:56.77	316.45	5.39	-38.5	-39.7	20.9	0.00e+00	0	30	0	1085276160	48	6947
2026-01-10 19:47:57.78	316.34	5.34	-38.6	-39.8	20.9	0.00e+00	92	30	0	1086324736	50	6306
2026-01-10 19:47:58.79	316.23	5.29	-38.5	-39.7	21.0	0.00e+00	0	30	0	1088421888	50	6218
2026-01-10 19:47:59.80	316.12	5.24	-38.2	-39.4	21.2	0.00e+00	0	30	0	1090519040	50	5991
2026-01-10 19:48:00.81	316.01	5.18	-38.6	-39.8	20.8	0.00e+00	0	30	0	1092616192	50	6312
2026-01-10 19:48:01.82	315.90	5.13	-38.6	-39.8	20.9	0.00e+00	0	30	0	1094713344	50	6303
2026-01-10 19:48:02.83	315.79	5.08	-38.6	-39.8	20.8	0.00e+00	73	30	0	1095761920	50	6273
2026-01-10 19:48:03.84	315.69	5.03	-38.3	-39.4	20.9	0.00e+00	0	30	0	1097859072	50	6016
2026-01-10 19:48:04.85	315.58	4.98	-38.4	-39.6	21.0	0.00e+00	60	30	0	1099956224	50	6155
2026-01-10 19:48:05.86	315.47	4.93	-38.6	-39.8	20.9	0.00e+00	0	30	0	1102053376	50	6276
2026-01-10 19:48:06.87	315.36	4.88	-38.5	-39.6	21.0	0.00e+00	49	30	0	1104150528	50	6172
2026-01-10 19:48:07.88	315.26	4.83	-38.8	-40.1	20.8	0.00e+00	0	30	0	1105199104	50	6474
2026-01-10 19:48:08.89	315.15	4.78	-38.5	-39.7	20.9	0.00e+00	0	30	0	1107296256	50	6224
2026-01-10 19:48:09.90	315.05	4.73	-38.3	-39.5	21.1	0.00e+00	9	30	0	1109393408	50	6062
2026-01-10 19:48:10.91	314.94	4.68	-38.6	-39.8	20.7	0.00e+00	0	30	0	1111490560	50	6316
2026-01-10 19:48:11.92	314.84	4.62	-38.8	-40.0	20.7	0.00e+00	27	30	0	1113587712	50	6428
2026-01-10 19:48:12.93	314.73	4.57	-38.7	-39.9	20.7	0.00e+00	0	30	0	1114636288	50	6347
2026-01-10 19:48:13.94	314.63	4.52	-39.1	-40.4	20.3	0.00e+00	79	30	0	1116733440	50	6744
2026-01-10 19:48:14.95	314.52	4.47	-39.3	-40.7	19.9	0.00e+00	0	30	0	1118830592	50	6939
2026-01-10 19:48:15.96	314.42	4.42	-39.3	-40.6	20.2	0.00e+00	0	30	0	1120927744	50	6907
2026-01-10 19:48:16.97	314.32	4.37	-39.5	-40.9	19.9	0.00e+00	0	30	0	1123024896	50	7096
2026-01-10 19:48:17.98	314.21	4.32	-39.5	-40.9	19.7	0.00e+00	0	30	0	1124073472	50	7147
2026-01-10 19:48:18.99	314.11	4.27	-39.5	-40.8	19.8	0.00e+00	91	30	0	1126170624	50	7075
2026-01-10 19:48:20.00	314.01	4.22	-39.4	-40.8	19.9	0.00e+00	0	30	0	1128267776	50	7029
2026-01-10 19:48:21.01	313.91	4.17	-39.0	-40.3	20.4	0.00e+00	90	30	0	1130364928	50	6655
2026-01-10 19:48:22.02	313.81	4.12	-39.1	-40.5	20.1	0.00e+00	0	30	0	1132462080	50	6771
2026-01-10 19:48:23.03	313.70	4.06	-39.3	-40.6	20.0	0.00e+00	0	30	0	1133510656	50	6917
2026-01-10 19:48:24.04	313.60	4.01	-39.6	-41.0	19.7	0.00e+00	0	30	0	1135607808	50	7214
2026-01-10 19:48:25.05	313.50	3.96	-38.8	-40.1	20.5	0.00e+00	0	30	0	1137704960	50	6501
2026-01-10 19:48:26.06	313.40	3.91	-38.7	-40.0	20.5	0.00e+00	68	30	0	1139802112	50	6405
2026-01-10 19:48:27.07	313.30	3.86	-38.5	-39.7	20.8	0.00e+00	0	30	0	1141899264	50	6212
2026-01-10 19:48:28.08	313.20	3.81	-38.4	-39.6	20.9	0.00e+00	92	30	0	1142947840	50	6111
2026-01-10 19:48:29.09	313.11	3.76	-38.5	-39.7	20.7	0.00e+00	10	30	0	1145044992	50	6234
2026-01-10 19:48:30.10	313.01	3.71	-38.4	-39.6	20.7	0.00e+00	0	30	0	1147142144	50	6104
2026-01-10 19:48:31.11	312.91	3.66	-38.2	-39.4	21.0	0.00e+00	0	30	0	1149239296	50	5988
2026-01-10 19:48:32.12	312.81	3.61	-38.4	-39.6	20.8	0.00e+00	22	30	0	1151336448	50	6170
2026-01-10 19:48:33.13	312.71	3.56	-38.5	-39.7	20.8	0.00e+00	8	30	0	1153433600	50	6229
2026-01-10 19:48:34.14	312.62	3.51	-38.5	-39.7	20.8	0.00e+00	0	30	0	1154482176	50	6183
2026-01-10 19:48:35.15	312.52	3.46	-38.9	-40.2	20.3	0.00e+00	92	30	0	1156579328	50	6585
2026-01-10 19:48:36.16	312.42	3.40	-38.9	-40.2	20.1	0.00e+00	0	30	0	1158676480	50	6573
2026-01-10 19:48:37.17	312.33	3.35	-38.8	-40.1	20.2	0.00e+00	0	30	0	1160773632	50	6499
2026-01-10 19:48:38.18	312.23	3.30	-39.2	-40.5	19.9	0.00e+00	22	30	0	1162870784	50	6824
2026-01-10 19:48:39.19	312.14	3.25	-39.3	-40.7	19.7	0.00e+00	0	30	0	1163919360	50	6944
2026-01-10 19:48:40.20	312.04	3.20	-39.3	-40.7	19.7	0.00e+00	23	30	0	1166016512	50	6952
2026-01-10 19:48:41.21	311.95	3.15	-39.6	-41.1	19.4	0.00e+00	0	30	0	1168113664	50	7305
2026-01-10 19:48:42.22	311.85	3.10	-39.8	-41.2	19.2	0.00e+00	92	30	0	1170210816	52	6604
2026-01-10 19:48:43.23	311.76	3.05	-39.9	-41.4	19.1	0.00e+00	0	30	0	1172307968	52	6748
2026-01-10 19:48:44.24	311.66	3.00	-40.2	-41.8	18.2	0.00e+00	64	30	0	1173356544	52	7016
2026-01-10 19:48:45.24	311.57	2.95	-47.3	-62.4	3.6	1.51e+00	0	30	104	1174405120	60	47793
2026-01-10 19:48:46.26	311.48	2.90	-47.7	-62.9	3.6	1.51e+00	0	30	104	1174405120	60	50570
2026-01-10 19:48:47.27	311.39	2.85	-48.0	-63.2	3.6	1.51e+00	0	30	104	1174405120	60	51993
2026-01-10 19:48:48.28	311.29	2.80	-48.1	-63.3	3.6	1.51e+00	0	30	104	1174405120	60	52747
2026-01-10 19:48:49.29	311.20	2.75	-48.2	-63.4	3.6	1.51e+00	0	30	104	1174405120	60	53202
2026-01-10 19:48:50.30	311.11	2.70	-48.2	-63.4	3.6	1.51e+00	0	30	104	1174405120	60	53227
2026-01-10 19:48:51.31	311.02	2.65	-48.3	-63.5	3.6	1.51e+00	0	30	104	1174405120	60	54120
2026-01-10 19:48:52.32	310.93	2.60	-48.3	-63.5	3.6	1.51e+00	0	30	104	1174405120	60	54209
2026-01-10 19:48:53.33	310.84	2.55	-48.2	-63.5	3.6	1.51e+00	0	30	104	1174405120	60	53864
2026-01-10 19:48:54.34	310.75	2.50	-48.0	-63.4	3.6	1.51e+00	0	30	104	1174405120	60	53651
2026-01-10 19:48:55.35	310.66	2.45	-47.7	-63.4	3.6	1.51e+00	0	30	104	1174405120	60	53505
2026-01-10 19:48:56.36	310.57	2.40	-48.0	-63.5	3.6	1.51e+00	0	30	104	1174405120	60	53835
2026-01-10 19:48:57.37	310.48	2.35	-48.0	-63.3	3.6	1.51e+00	0	30	104	1174405120	60	53102
2026-01-10 19:48:58.38	310.39	2.30	-47.9	-63.3	3.6	1.51e+00	0	30	104	1174405120	60	53069
