passes_logs/2026/01/10/R4.6S_Anadyr/R4.6S_Anadyr__20260110_222434_NOAA_21_JPSS-2_rec.log

#Pass ID: 20260110_222434_NOAA 21 (JPSS-2)
#Satellite: NOAA 21 (JPSS-2)
#Configuration: NOAA-21
#almurnet v.1.7.20251203
#Start time: 2026-01-10 22:24:36

#Version: 2.2.20231116
#Station: R4.6S_Anadyr
#Location: 177.4865 lon 64.73178 lat
#TLE: 1 54234U 22150A   26009.79679979  .00000100  00000+0  68070-4 0  9993
#TLE: 2 54234  98.7494 310.7596 0000833 322.2782  37.8335 14.19533646164071

#Time	Az	El	Level	Level2	SNR	BER	BlckErr	Temp	State	Recorded	gain1	gain2
2026-01-10 22:24:36.10	112.50	0.11	-48.3	-66.0	3.5	7.71e-01	0	25	0	0	60	76931
2026-01-10 22:24:37.10	112.46	0.16	-48.0	-60.9	3.5	1.51e+00	0	26	104	0	60	38806
2026-01-10 22:24:38.11	112.42	0.22	-48.1	-60.9	3.5	1.52e+00	0	26	104	0	60	39099
2026-01-10 22:24:39.12	112.37	0.28	-48.1	-60.9	3.5	1.52e+00	0	27	104	0	60	39129
2026-01-10 22:24:40.13	112.33	0.34	-48.1	-60.9	3.5	1.52e+00	0	27	104	0	60	39107
2026-01-10 22:24:41.14	112.28	0.39	-48.1	-60.9	3.5	1.52e+00	0	27	104	0	60	38973
2026-01-10 22:24:42.15	112.24	0.45	-48.0	-61.1	3.5	1.51e+00	0	27	104	0	60	39820
2026-01-10 22:24:43.16	112.20	0.51	-48.1	-61.0	3.5	1.52e+00	0	27	104	0	60	39310
2026-01-10 22:24:44.17	112.15	0.57	-48.1	-61.0	3.5	1.52e+00	0	27	104	0	60	39318
2026-01-10 22:24:45.18	112.11	0.63	-48.0	-61.0	3.5	1.52e+00	0	27	104	0	60	39233
2026-01-10 22:24:46.19	112.06	0.68	-47.9	-60.9	3.5	1.52e+00	0	27	104	0	60	39054
2026-01-10 22:24:47.20	112.02	0.74	-48.1	-60.9	3.5	1.52e+00	0	27	104	0	60	39044
2026-01-10 22:24:48.21	111.97	0.80	-47.9	-60.9	3.5	1.51e+00	0	27	104	0	60	38809
2026-01-10 22:24:49.22	111.92	0.86	-47.7	-60.7	3.5	1.52e+00	0	27	104	0	60	38260
2026-01-10 22:24:50.23	111.88	0.92	-46.8	-60.6	3.5	1.52e+00	0	27	104	0	60	37709
2026-01-10 22:24:51.24	111.83	0.98	-47.5	-60.4	3.5	1.52e+00	0	27	104	0	60	36834
2026-01-10 22:24:52.25	111.79	1.04	-46.0	-60.2	3.5	1.51e+00	0	27	104	0	60	35836
2026-01-10 22:24:53.26	111.74	1.09	-44.5	-59.4	3.5	1.52e+00	0	27	104	0	60	32820
2026-01-10 22:24:54.27	111.69	1.15	-45.8	-58.7	3.5	1.52e+00	0	27	104	0	60	30267
2026-01-10 22:24:55.28	111.65	1.21	-45.8	-58.7	3.5	1.52e+00	0	27	104	0	60	30149
2026-01-10 22:24:56.29	111.60	1.27	-45.8	-58.6	3.5	1.52e+00	0	27	104	0	60	29991
2026-01-10 22:24:57.30	111.55	1.33	-45.8	-58.7	3.5	1.52e+00	0	27	104	0	60	30203
2026-01-10 22:24:58.31	111.50	1.39	-45.8	-58.7	3.5	1.52e+00	0	27	104	0	60	30228
2026-01-10 22:24:59.31	111.46	1.45	-45.8	-58.7	3.5	1.52e+00	0	27	104	0	60	30326
2026-01-10 22:25:00.32	111.41	1.51	-45.8	-58.7	3.5	1.52e+00	0	27	104	0	60	30252
2026-01-10 22:25:01.33	111.36	1.57	-45.8	-58.7	3.5	1.52e+00	0	27	104	0	60	30226
2026-01-10 22:25:02.34	111.31	1.63	-45.8	-58.7	3.5	1.51e+00	0	27	104	0	60	30365
2026-01-10 22:25:03.35	111.27	1.69	-45.8	-58.6	3.5	1.52e+00	0	27	104	0	60	29996
2026-01-10 22:25:04.36	111.22	1.75	-45.8	-58.7	3.5	1.52e+00	0	27	104	0	60	30149
2026-01-10 22:25:05.37	111.17	1.81	-45.8	-58.7	3.5	1.52e+00	0	27	104	0	60	30346
2026-01-10 22:25:06.38	111.12	1.87	-45.8	-58.7	3.5	1.51e+00	0	27	104	0	60	30315
2026-01-10 22:25:07.39	111.07	1.93	-45.8	-58.7	3.5	1.52e+00	0	27	104	0	60	30281
2026-01-10 22:25:08.40	111.02	1.99	-45.8	-58.7	3.5	1.52e+00	0	27	104	0	60	30224
2026-01-10 22:25:09.41	110.97	2.05	-45.8	-58.6	3.5	1.52e+00	0	27	104	0	60	29942
2026-01-10 22:25:10.42	110.92	2.11	-45.8	-58.7	3.5	1.52e+00	0	27	104	0	60	30137
2026-01-10 22:25:11.43	110.87	2.17	-45.8	-58.7	3.5	1.52e+00	0	27	104	0	60	30173
2026-01-10 22:25:12.44	110.82	2.23	-45.8	-58.7	3.5	1.52e+00	0	27	104	0	60	30199
2026-01-10 22:25:13.45	110.77	2.29	-45.8	-58.7	3.5	1.52e+00	0	27	104	0	60	30314
2026-01-10 22:25:14.46	110.72	2.35	-45.8	-58.8	3.5	1.52e+00	0	27	104	0	60	30410
2026-01-10 22:25:15.47	110.67	2.42	-45.8	-58.7	3.5	1.52e+00	0	27	104	0	60	30372
2026-01-10 22:25:16.48	110.62	2.48	-45.8	-58.8	3.5	1.52e+00	0	27	104	0	60	30426
2026-01-10 22:25:17.48	110.57	2.54	-45.8	-58.7	3.6	1.52e+00	0	27	104	0	60	30248
2026-01-10 22:25:18.49	110.51	2.60	-45.8	-58.6	3.5	1.52e+00	0	27	104	0	60	29947
2026-01-10 22:25:19.50	110.46	2.66	-45.8	-58.6	3.5	1.52e+00	0	27	104	0	60	30000
2026-01-10 22:25:20.51	110.41	2.72	-45.8	-58.7	3.5	1.52e+00	0	27	104	0	60	30125
2026-01-10 22:25:21.52	110.36	2.78	-45.8	-58.7	3.5	1.52e+00	0	27	104	0	60	30268
2026-01-10 22:25:22.53	110.30	2.85	-45.8	-58.7	3.5	1.51e+00	0	27	104	0	60	30114
2026-01-10 22:25:23.54	110.25	2.91	-45.8	-58.5	3.5	1.52e+00	0	27	104	0	60	29566
2026-01-10 22:25:24.55	110.20	2.97	-45.7	-58.4	3.5	1.52e+00	0	27	104	0	60	29049
2026-01-10 22:25:25.56	110.15	3.03	-45.7	-58.3	3.5	1.52e+00	0	27	104	0	60	28945
2026-01-10 22:25:26.57	110.09	3.10	-45.7	-58.6	3.5	1.52e+00	0	27	104	0	60	29855
2026-01-10 22:25:27.58	110.04	3.16	-45.7	-58.2	3.5	1.52e+00	0	27	104	0	60	28586
2026-01-10 22:25:28.59	109.98	3.22	-45.6	-56.4	3.6	1.51e+00	0	27	104	0	60	23157
2026-01-10 22:25:29.60	109.93	3.28	-45.1	-53.1	5.4	1.15e+00	0	28	104	0	60	15886
2026-01-10 22:25:30.61	109.87	3.35	-44.3	-49.1	8.4	1.09e-01	0	27	0	1048576	60	10060
2026-01-10 22:25:31.62	109.82	3.41	-43.1	-46.6	11.1	4.83e-03	0	27	0	5242880	60	7538
2026-01-10 22:25:32.63	109.77	3.47	-42.1	-44.9	12.9	1.57e-04	0	28	0	7340032	58	6957
2026-01-10 22:25:33.63	109.71	3.54	-41.0	-43.2	14.8	0.00e+00	0	28	0	10485760	56	6423
2026-01-10 22:25:34.64	109.65	3.60	-44.3	-48.5	5.2	5.00e-02	0	27	0	13631488	56	11795
2026-01-10 22:25:35.65	109.60	3.66	-45.0	-57.0	3.5	1.51e+00	0	27	104	14680064	60	24911
2026-01-10 22:25:36.66	109.54	3.73	-40.4	-42.8	5.1	1.45e+00	0	27	104	14680064	56	6119
2026-01-10 22:25:37.67	109.49	3.79	-38.6	-40.2	17.9	0.00e+00	0	28	0	14680064	50	6382
2026-01-10 22:25:38.68	109.43	3.85	-43.2	-50.0	5.6	1.67e-05	0	27	0	17825792	58	12441
2026-01-10 22:25:39.69	109.37	3.92	-40.1	-42.4	5.0	1.46e+00	0	28	104	17825792	56	5806
2026-01-10 22:25:40.70	109.32	3.98	-38.2	-39.7	18.6	0.00e+00	0	27	0	17825792	50	6015
2026-01-10 22:25:41.71	109.26	4.05	-37.7	-39.1	19.1	0.00e+00	0	27	0	20971520	50	5614
2026-01-10 22:25:42.72	109.20	4.11	-37.9	-39.3	18.8	0.00e+00	0	27	0	24117248	48	6431
2026-01-10 22:25:43.73	109.14	4.18	-37.2	-38.5	19.7	0.00e+00	0	27	0	27262976	48	5926
2026-01-10 22:25:44.74	109.09	4.24	-37.3	-38.6	19.7	0.00e+00	0	27	0	30408704	48	5945
2026-01-10 22:25:45.75	109.03	4.30	-37.3	-38.6	19.8	0.00e+00	0	27	0	33554432	48	5946
2026-01-10 22:25:46.75	108.97	4.37	-37.1	-38.5	19.8	0.00e+00	0	27	0	36700160	48	5908
2026-01-10 22:25:47.76	108.91	4.43	-37.0	-38.5	19.7	0.00e+00	0	27	0	39845888	48	5884
2026-01-10 22:25:48.77	108.85	4.50	-36.6	-38.2	20.1	0.00e+00	0	27	0	42991616	46	6412
2026-01-10 22:25:49.78	108.79	4.56	-36.4	-38.2	20.3	0.00e+00	0	27	0	46137344	46	6357
2026-01-10 22:25:50.79	108.73	4.63	-36.0	-37.8	20.5	0.00e+00	0	27	0	49283072	46	6119
2026-01-10 22:25:51.80	108.67	4.69	-35.8	-37.6	20.8	0.00e+00	0	27	0	52428800	46	5973
2026-01-10 22:25:52.81	108.61	4.76	-36.0	-37.8	20.6	0.00e+00	0	27	0	55574528	46	6091
2026-01-10 22:25:53.82	108.55	4.83	-36.1	-37.9	20.6	0.00e+00	0	27	0	58720256	46	6158
2026-01-10 22:25:54.83	108.49	4.89	-36.3	-37.9	20.4	0.00e+00	0	27	0	61865984	46	6194
2026-01-10 22:25:55.84	108.43	4.96	-36.4	-37.9	20.5	0.00e+00	0	27	0	65011712	46	6163
2026-01-10 22:25:56.85	108.37	5.02	-35.9	-37.4	21.0	0.00e+00	0	27	0	68157440	46	5818
2026-01-10 22:25:57.86	108.30	5.09	-36.3	-37.7	20.7	0.00e+00	0	27	0	71303168	46	6030
2026-01-10 22:25:58.87	108.24	5.16	-36.1	-37.5	20.9	0.00e+00	0	27	0	74448896	46	5890
2026-01-10 22:25:59.88	108.18	5.22	-36.5	-37.9	20.6	0.00e+00	0	28	0	77594624	46	6155
2026-01-10 22:26:00.89	108.12	5.29	-36.6	-38.0	20.4	0.00e+00	0	27	0	80740352	46	6264
2026-01-10 22:26:01.90	108.05	5.36	-36.8	-38.3	20.5	0.00e+00	0	28	0	83886080	46	6429
2026-01-10 22:26:02.91	107.99	5.42	-36.4	-37.6	20.8	0.00e+00	0	27	0	87031808	46	5955
2026-01-10 22:26:03.92	107.93	5.49	-36.4	-37.6	20.9	0.00e+00	0	28	0	90177536	46	5949
2026-01-10 22:26:04.93	107.86	5.56	-36.3	-37.5	21.0	0.00e+00	0	27	0	93323264	46	5872
2026-01-10 22:26:05.94	107.80	5.63	-36.1	-37.3	21.2	0.00e+00	0	27	0	96468992	46	5781
2026-01-10 22:26:06.95	107.74	5.69	-36.3	-37.5	21.1	0.00e+00	0	27	0	99614720	46	5877
2026-01-10 22:26:07.96	107.67	5.76	-36.1	-37.3	21.2	0.00e+00	0	27	0	102760448	46	5775
2026-01-10 22:26:08.97	107.61	5.83	-36.2	-37.4	21.3	0.00e+00	0	27	0	105906176	46	5794
2026-01-10 22:26:09.98	107.54	5.90	-36.0	-37.1	21.4	0.00e+00	0	28	0	109051904	46	5642
2026-01-10 22:26:10.99	107.47	5.97	-36.0	-37.2	21.3	0.00e+00	0	27	0	112197632	46	5682
2026-01-10 22:26:12.00	107.41	6.03	-36.2	-37.3	21.3	0.00e+00	0	27	0	115343360	46	5779
2026-01-10 22:26:13.00	107.34	6.10	-35.8	-37.0	21.6	0.00e+00	0	27	0	118489088	46	5542
2026-01-10 22:26:14.01	107.28	6.17	-35.6	-36.6	21.9	0.00e+00	0	27	0	121634816	44	5992
2026-01-10 22:26:15.02	107.21	6.24	-36.0	-37.1	21.4	0.00e+00	0	27	0	124780544	44	6309
2026-01-10 22:26:16.03	107.14	6.31	-35.7	-36.8	21.7	0.00e+00	0	27	0	127926272	44	6099
2026-01-10 22:26:17.04	107.07	6.38	-35.7	-36.8	21.7	0.00e+00	0	27	0	131072000	44	6101
2026-01-10 22:26:18.05	107.01	6.45	-35.7	-36.8	21.8	0.00e+00	0	27	0	134217728	44	6069
2026-01-10 22:26:19.06	106.94	6.51	-35.6	-36.8	21.8	0.00e+00	0	27	0	137363456	44	6066
2026-01-10 22:26:20.07	106.87	6.58	-35.8	-36.9	21.8	0.00e+00	0	27	0	140509184	44	6175
2026-01-10 22:26:21.08	106.80	6.65	-35.5	-36.6	21.9	0.00e+00	0	27	0	143654912	44	5956
2026-01-10 22:26:22.09	106.73	6.72	-35.5	-36.5	22.0	0.00e+00	0	27	0	146800640	44	5922
2026-01-10 22:26:23.10	106.66	6.79	-35.5	-36.6	22.0	0.00e+00	0	27	0	149946368	44	5981
2026-01-10 22:26:24.11	106.59	6.86	-35.5	-36.6	21.9	0.00e+00	0	27	0	153092096	44	5969
2026-01-10 22:26:25.12	106.52	6.93	-35.5	-36.7	21.9	0.00e+00	0	27	0	156237824	44	6018
2026-01-10 22:26:26.13	106.45	7.00	-35.5	-36.7	21.9	0.00e+00	0	27	0	159383552	44	6010
2026-01-10 22:26:27.13	106.38	7.07	-35.6	-36.7	21.8	0.00e+00	0	27	0	162529280	44	6007
2026-01-10 22:26:28.15	106.31	7.14	-35.4	-36.5	22.0	0.00e+00	0	28	0	165675008	44	5874
2026-01-10 22:26:29.16	106.23	7.21	-35.4	-36.4	22.0	0.00e+00	0	28	0	168820736	44	5827
2026-01-10 22:26:30.17	106.16	7.29	-35.5	-36.5	22.0	0.00e+00	0	27	0	171966464	44	5922
2026-01-10 22:26:31.18	106.09	7.36	-35.4	-36.4	22.1	0.00e+00	0	27	0	175112192	44	5818
2026-01-10 22:26:32.19	106.02	7.43	-35.5	-36.6	22.0	0.00e+00	0	28	0	178257920	44	5960
2026-01-10 22:26:33.20	105.94	7.50	-35.4	-36.4	22.1	0.00e+00	0	27	0	181403648	44	5845
2026-01-10 22:26:34.21	105.87	7.57	-35.5	-36.6	22.0	0.00e+00	0	28	0	184549376	44	5976
2026-01-10 22:26:35.22	105.79	7.64	-35.2	-36.3	22.2	0.00e+00	0	28	0	187695104	44	5771
2026-01-10 22:26:36.23	105.72	7.71	-35.3	-36.4	22.2	0.00e+00	0	27	0	190840832	44	5847
2026-01-10 22:26:37.23	105.65	7.79	-35.2	-36.3	22.3	0.00e+00	0	27	0	193986560	44	5733
2026-01-10 22:26:38.24	105.57	7.86	-35.3	-36.3	22.3	0.00e+00	0	27	0	197132288	44	5783
2026-01-10 22:26:39.25	105.49	7.93	-35.0	-36.1	22.5	0.00e+00	0	28	0	200278016	44	5619
2026-01-10 22:26:40.26	105.42	8.00	-35.3	-36.3	22.3	0.00e+00	0	27	0	203423744	44	5766
2026-01-10 22:26:41.27	105.34	8.07	-35.3	-36.3	22.4	0.00e+00	0	27	0	206569472	44	5759
2026-01-10 22:26:42.28	105.27	8.15	-35.0	-36.0	22.6	0.00e+00	0	27	0	209715200	44	5594
2026-01-10 22:26:43.29	105.19	8.22	-35.0	-36.0	22.5	0.00e+00	0	28	0	212860928	44	5592
2026-01-10 22:26:44.30	105.11	8.29	-35.0	-35.9	22.6	0.00e+00	0	27	0	216006656	44	5528
2026-01-10 22:26:45.31	105.03	8.37	-35.0	-36.0	22.5	0.00e+00	0	27	0	219152384	44	5562
2026-01-10 22:26:46.32	104.95	8.44	-34.8	-35.7	22.8	0.00e+00	0	27	0	222298112	44	5397
2026-01-10 22:26:47.33	104.88	8.51	-34.9	-35.9	22.6	0.00e+00	0	27	0	225443840	44	5506
2026-01-10 22:26:48.34	104.80	8.59	-34.9	-36.0	22.6	0.00e+00	0	27	0	228589568	44	5569
2026-01-10 22:26:49.35	104.72	8.66	-34.8	-35.8	22.7	0.00e+00	0	27	0	231735296	44	5466
2026-01-10 22:26:50.36	104.64	8.74	-34.9	-35.9	22.7	0.00e+00	0	27	0	234881024	42	6186
2026-01-10 22:26:51.37	104.56	8.81	-34.8	-35.9	22.7	0.00e+00	0	27	0	238026752	42	6138
2026-01-10 22:26:52.38	104.47	8.88	-34.7	-35.8	22.7	0.00e+00	0	27	0	241172480	42	6096
2026-01-10 22:26:53.39	104.39	8.96	-34.9	-35.9	22.6	0.00e+00	0	27	0	244318208	42	6176
2026-01-10 22:26:54.40	104.31	9.03	-34.7	-35.8	22.8	0.00e+00	0	27	0	247463936	42	6097
2026-01-10 22:26:55.41	104.23	9.11	-34.8	-35.8	22.8	0.00e+00	0	27	0	250609664	42	6108
2026-01-10 22:26:56.42	104.15	9.18	-34.8	-35.9	22.8	0.00e+00	0	27	0	253755392	42	6173
2026-01-10 22:26:57.43	104.06	9.26	-34.5	-35.6	23.0	0.00e+00	0	27	0	256901120	42	5958
2026-01-10 22:26:58.44	103.98	9.33	-34.5	-35.5	23.1	0.00e+00	0	27	0	260046848	42	5926
2026-01-10 22:26:59.45	103.90	9.41	-34.7	-35.7	22.9	0.00e+00	0	27	0	263192576	42	6036
2026-01-10 22:27:00.46	103.81	9.48	-34.6	-35.7	23.0	0.00e+00	0	27	0	266338304	42	5995
2026-01-10 22:27:01.47	103.73	9.56	-34.8	-35.8	22.8	0.00e+00	0	27	0	269484032	42	6097
2026-01-10 22:27:02.48	103.64	9.64	-34.7	-35.7	23.0	0.00e+00	0	27	0	272629760	42	5996
2026-01-10 22:27:03.49	103.55	9.71	-34.8	-35.8	22.9	0.00e+00	0	27	0	275775488	42	6073
2026-01-10 22:27:04.49	103.47	9.79	-34.6	-35.6	23.1	0.00e+00	0	27	0	278921216	42	5944
2026-01-10 22:27:05.50	103.38	9.86	-34.4	-35.4	23.1	0.00e+00	0	27	0	282066944	42	5839
2026-01-10 22:27:06.51	103.30	9.94	-34.4	-35.5	23.1	0.00e+00	0	27	0	285212672	42	5877
2026-01-10 22:27:07.52	103.21	10.02	-34.5	-35.6	23.1	0.00e+00	0	27	0	288358400	42	5974
2026-01-10 22:27:08.53	103.12	10.10	-34.4	-35.6	23.0	0.00e+00	0	27	0	291504128	42	5962
2026-01-10 22:27:09.54	103.03	10.17	-34.5	-35.7	23.0	0.00e+00	0	27	0	294649856	42	6002
2026-01-10 22:27:10.55	102.94	10.25	-34.3	-35.5	23.1	0.00e+00	0	27	0	297795584	42	5883
2026-01-10 22:27:11.56	102.85	10.33	-34.2	-35.4	23.2	0.00e+00	0	27	0	300941312	42	5797
2026-01-10 22:27:12.57	102.76	10.41	-34.2	-35.4	23.2	0.00e+00	0	27	0	304087040	42	5814
2026-01-10 22:27:13.58	102.67	10.48	-34.1	-35.2	23.3	0.00e+00	0	27	0	307232768	42	5713
2026-01-10 22:27:14.59	102.58	10.56	-34.1	-35.3	23.4	0.00e+00	0	27	0	310378496	42	5733
2026-01-10 22:27:15.60	102.49	10.64	-34.3	-35.4	23.3	0.00e+00	0	27	0	313524224	42	5818
2026-01-10 22:27:16.61	102.40	10.72	-34.2	-35.3	23.4	0.00e+00	0	27	0	316669952	42	5730
2026-01-10 22:27:17.62	102.30	10.80	-34.2	-35.3	23.3	0.00e+00	0	27	0	320864256	42	5772
2026-01-10 22:27:18.63	102.21	10.88	-34.3	-35.4	23.3	0.00e+00	0	27	0	324009984	42	5810
2026-01-10 22:27:19.64	102.12	10.95	-34.3	-35.3	23.3	0.00e+00	0	27	0	326107136	42	5751
2026-01-10 22:27:20.65	102.02	11.03	-34.3	-35.3	23.4	0.00e+00	0	27	0	329252864	42	5780
2026-01-10 22:27:21.66	101.93	11.11	-34.4	-35.4	23.2	0.00e+00	0	28	0	332398592	42	5825
2026-01-10 22:27:22.67	101.83	11.19	-34.2	-35.2	23.4	0.00e+00	0	27	0	336592896	42	5683
2026-01-10 22:27:23.67	101.74	11.27	-34.3	-35.2	23.4	0.00e+00	0	27	0	339738624	42	5700
2026-01-10 22:27:24.68	101.64	11.35	-34.2	-35.1	23.5	0.00e+00	0	27	0	342884352	42	5626
2026-01-10 22:27:25.69	101.54	11.43	-34.0	-34.9	23.6	0.00e+00	0	28	0	346030080	42	5515
2026-01-10 22:27:26.70	101.45	11.51	-34.2	-35.1	23.5	0.00e+00	0	27	0	348127232	42	5625
2026-01-10 22:27:27.71	101.35	11.59	-34.1	-35.1	23.5	0.00e+00	0	27	0	352321536	42	5609
2026-01-10 22:27:28.72	101.25	11.67	-34.1	-35.1	23.5	0.00e+00	0	27	0	355467264	42	5612
2026-01-10 22:27:29.73	101.15	11.75	-34.2	-35.1	23.5	0.00e+00	0	27	0	358612992	42	5647
2026-01-10 22:27:30.74	101.05	11.83	-34.1	-35.1	23.4	0.00e+00	0	27	0	361758720	42	5624
2026-01-10 22:27:31.75	100.95	11.92	-34.1	-35.1	23.5	0.00e+00	0	27	0	364904448	42	5627
2026-01-10 22:27:32.76	100.85	12.00	-34.1	-35.0	23.6	0.00e+00	0	27	0	368050176	42	5584
2026-01-10 22:27:33.77	100.75	12.08	-34.1	-35.1	23.4	0.00e+00	0	27	0	371195904	42	5631
2026-01-10 22:27:34.78	100.65	12.16	-34.0	-35.0	23.6	0.00e+00	0	27	0	374341632	42	5534
2026-01-10 22:27:35.79	100.55	12.24	-34.1	-35.0	23.5	0.00e+00	0	27	0	377487360	42	5591
2026-01-10 22:27:36.80	100.44	12.32	-34.2	-35.1	23.5	0.00e+00	0	27	0	380633088	42	5638
2026-01-10 22:27:37.81	100.34	12.41	-34.2	-35.2	23.5	0.00e+00	0	27	0	383778816	42	5678
2026-01-10 22:27:38.82	100.23	12.49	-34.1	-35.1	23.6	0.00e+00	0	27	0	386924544	42	5610
2026-01-10 22:27:39.83	100.13	12.57	-34.0	-35.0	23.7	0.00e+00	0	27	0	390070272	42	5556
2026-01-10 22:27:40.84	100.02	12.65	-33.8	-34.8	23.8	0.00e+00	0	27	0	393216000	42	5419
2026-01-10 22:27:41.85	99.92	12.74	-33.8	-34.8	23.9	0.00e+00	0	27	0	396361728	42	5421
2026-01-10 22:27:42.86	99.81	12.82	-33.8	-34.7	23.9	0.00e+00	0	28	0	399507456	40	6007
2026-01-10 22:27:43.87	99.70	12.90	-33.7	-34.6	23.9	0.00e+00	0	28	0	402653184	40	5967
2026-01-10 22:27:44.87	99.60	12.99	-34.0	-34.9	23.8	0.00e+00	0	27	0	405798912	40	6191
2026-01-10 22:27:45.88	99.49	13.07	-33.8	-34.7	23.9	0.00e+00	0	27	0	408944640	40	6029
2026-01-10 22:27:46.89	99.38	13.15	-33.9	-34.9	23.8	0.00e+00	0	27	0	412090368	40	6148
2026-01-10 22:27:47.90	99.27	13.24	-33.7	-34.6	24.0	0.00e+00	0	27	0	415236096	40	5965
2026-01-10 22:27:48.91	99.16	13.32	-33.8	-34.7	23.7	0.00e+00	0	27	0	418381824	40	6028
2026-01-10 22:27:49.92	99.05	13.41	-33.9	-34.8	23.7	0.00e+00	0	27	0	421527552	40	6098
2026-01-10 22:27:50.93	98.94	13.49	-34.0	-34.9	23.7	0.00e+00	0	27	0	424673280	40	6201
2026-01-10 22:27:51.94	98.82	13.57	-34.0	-35.0	23.7	0.00e+00	0	27	0	427819008	40	6222
2026-01-10 22:27:52.95	98.71	13.66	-33.8	-34.7	23.9	0.00e+00	0	27	0	430964736	40	6051
2026-01-10 22:27:53.96	98.60	13.75	-33.8	-34.7	23.9	0.00e+00	0	27	0	434110464	40	6012
2026-01-10 22:27:54.97	98.48	13.83	-33.8	-34.7	23.9	0.00e+00	0	27	0	437256192	40	6057
2026-01-10 22:27:55.98	98.37	13.92	-33.9	-34.8	23.8	0.00e+00	0	27	0	440401920	40	6110
2026-01-10 22:27:56.99	98.25	14.00	-33.7	-34.6	24.1	0.00e+00	0	27	0	443547648	40	5956
2026-01-10 22:27:58.00	98.13	14.09	-33.7	-34.6	24.0	0.00e+00	0	27	0	446693376	40	5976
2026-01-10 22:27:59.01	98.02	14.17	-33.7	-34.7	24.0	0.00e+00	0	27	0	449839104	40	6008
2026-01-10 22:28:00.02	97.90	14.26	-33.6	-34.6	24.0	0.00e+00	0	27	0	452984832	40	5927
2026-01-10 22:28:01.03	97.78	14.35	-33.6	-34.5	24.1	0.00e+00	0	27	0	456130560	40	5893
2026-01-10 22:28:02.04	97.66	14.43	-33.5	-34.5	24.2	0.00e+00	0	27	0	459276288	40	5859
2026-01-10 22:28:03.05	97.54	14.52	-33.6	-34.5	24.0	0.00e+00	0	27	0	462422016	40	5926
2026-01-10 22:28:04.06	97.42	14.61	-33.6	-34.5	24.1	0.00e+00	0	27	0	465567744	40	5891
2026-01-10 22:28:05.07	97.30	14.69	-33.6	-34.5	24.1	0.00e+00	0	27	0	468713472	40	5898
2026-01-10 22:28:06.07	97.18	14.78	-33.6	-34.6	24.1	0.00e+00	0	27	0	471859200	40	5941
2026-01-10 22:28:07.08	97.06	14.87	-33.6	-34.6	24.0	0.00e+00	0	27	0	475004928	40	5937
2026-01-10 22:28:08.09	96.93	14.96	-33.7	-34.6	24.0	0.00e+00	0	27	0	478150656	40	5933
2026-01-10 22:28:09.10	96.81	15.04	-33.5	-34.4	24.2	0.00e+00	0	28	0	481296384	40	5833
2026-01-10 22:28:10.11	96.68	15.13	-33.6	-34.5	24.2	0.00e+00	0	27	0	484442112	40	5873
2026-01-10 22:28:11.12	96.56	15.22	-33.7	-34.6	24.1	0.00e+00	0	27	0	487587840	40	5952
2026-01-10 22:28:12.13	96.43	15.31	-33.7	-34.7	23.9	0.00e+00	0	27	0	490733568	40	6035
2026-01-10 22:28:13.14	96.30	15.40	-33.7	-34.6	24.0	0.00e+00	0	28	0	493879296	40	5982
2026-01-10 22:28:14.15	96.18	15.49	-33.7	-34.7	24.0	0.00e+00	0	27	0	497025024	40	6000
2026-01-10 22:28:15.16	96.05	15.57	-33.6	-34.6	24.1	0.00e+00	0	27	0	500170752	40	5959
2026-01-10 22:28:16.17	95.92	15.66	-33.7	-34.6	24.1	0.00e+00	0	27	0	503316480	40	5960
2026-01-10 22:28:17.18	95.79	15.75	-33.6	-34.6	24.1	0.00e+00	0	27	0	506462208	40	5935
2026-01-10 22:28:18.19	95.65	15.84	-33.7	-34.6	24.1	0.00e+00	0	27	0	509607936	40	5991
2026-01-10 22:28:19.20	95.52	15.93	-33.7	-34.7	24.0	0.00e+00	0	27	0	512753664	40	5999
2026-01-10 22:28:20.21	95.39	16.02	-33.8	-34.7	24.0	0.00e+00	0	27	0	515899392	40	6031
2026-01-10 22:28:21.22	95.26	16.11	-33.9	-34.8	23.9	0.00e+00	0	27	0	519045120	40	6105
2026-01-10 22:28:22.23	95.12	16.20	-33.8	-34.7	24.0	0.00e+00	0	27	0	522190848	40	6020
2026-01-10 22:28:23.24	94.99	16.29	-33.9	-34.8	23.9	0.00e+00	0	27	0	525336576	40	6080
2026-01-10 22:28:24.25	94.85	16.38	-34.0	-34.9	23.8	0.00e+00	0	28	0	528482304	40	6190
2026-01-10 22:28:25.26	94.71	16.47	-33.9	-34.9	23.9	0.00e+00	0	27	0	531628032	40	6137
2026-01-10 22:28:26.26	94.58	16.56	-33.9	-34.9	23.9	0.00e+00	0	27	0	534773760	40	6146
2026-01-10 22:28:27.27	94.44	16.65	-33.9	-34.9	23.9	0.00e+00	0	27	0	537919488	40	6153
2026-01-10 22:28:28.28	94.30	16.74	-33.9	-34.8	24.0	0.00e+00	0	27	0	541065216	40	6089
2026-01-10 22:28:29.29	94.16	16.84	-34.0	-34.9	23.9	0.00e+00	0	27	0	544210944	40	6203
2026-01-10 22:28:30.30	94.02	16.93	-33.9	-34.8	24.0	0.00e+00	0	27	0	547356672	40	6121
2026-01-10 22:28:31.31	93.87	17.02	-33.7	-34.7	24.1	0.00e+00	0	27	0	550502400	40	6005
2026-01-10 22:28:32.32	93.73	17.11	-33.8	-34.7	24.0	0.00e+00	0	27	0	553648128	40	6013
2026-01-10 22:28:33.33	93.59	17.20	-33.8	-34.7	24.1	0.00e+00	0	27	0	556793856	40	6009
2026-01-10 22:28:34.34	93.44	17.29	-33.8	-34.7	24.0	0.00e+00	0	27	0	559939584	40	6041
2026-01-10 22:28:35.35	93.30	17.39	-33.6	-34.6	24.1	0.00e+00	0	27	0	563085312	40	5937
2026-01-10 22:28:36.36	93.15	17.48	-33.6	-34.6	24.1	0.00e+00	0	27	0	566231040	40	5931
2026-01-10 22:28:37.37	93.00	17.57	-33.7	-34.6	24.0	0.00e+00	0	27	0	569376768	40	5942
2026-01-10 22:28:38.38	92.85	17.66	-33.7	-34.7	24.0	0.00e+00	0	27	0	572522496	40	6001
2026-01-10 22:28:39.38	92.71	17.76	-33.8	-34.7	24.0	0.00e+00	0	28	0	575668224	40	6054
2026-01-10 22:28:40.40	92.55	17.85	-33.8	-34.7	24.0	0.00e+00	0	27	0	578813952	40	6034
2026-01-10 22:28:41.40	92.40	17.94	-33.9	-34.8	24.0	0.00e+00	0	27	0	581959680	40	6111
2026-01-10 22:28:42.41	92.25	18.04	-34.0	-34.9	23.9	0.00e+00	0	27	0	585105408	40	6193
2026-01-10 22:28:43.42	92.10	18.13	-33.9	-34.8	24.0	0.00e+00	0	27	0	588251136	40	6098
2026-01-10 22:28:44.43	91.94	18.22	-33.5	-34.4	24.2	0.00e+00	0	27	0	591396864	40	5842
2026-01-10 22:28:45.44	91.79	18.32	-33.7	-34.6	24.1	0.00e+00	0	27	0	594542592	40	5959
2026-01-10 22:28:46.45	91.63	18.41	-33.5	-34.4	24.3	0.00e+00	0	27	0	597688320	40	5817
2026-01-10 22:28:47.45	91.48	18.50	-33.3	-34.2	24.4	0.00e+00	0	27	0	600834048	40	5712
2026-01-10 22:28:48.46	91.32	18.60	-33.4	-34.3	24.4	0.00e+00	0	27	0	603979776	40	5733
2026-01-10 22:28:49.47	91.16	18.69	-33.3	-34.2	24.4	0.00e+00	0	27	0	607125504	40	5677
2026-01-10 22:28:50.48	91.00	18.79	-33.3	-34.2	24.4	0.00e+00	0	27	0	610271232	40	5678
2026-01-10 22:28:51.49	90.84	18.88	-33.4	-34.3	24.3	0.00e+00	0	28	0	613416960	40	5742
2026-01-10 22:28:52.50	90.68	18.98	-33.4	-34.3	24.3	0.00e+00	0	27	0	616562688	40	5763
2026-01-10 22:28:53.51	90.51	19.07	-33.3	-34.2	24.3	0.00e+00	0	27	0	619708416	40	5695
2026-01-10 22:28:54.52	90.35	19.16	-33.4	-34.3	24.3	0.00e+00	0	27	0	622854144	40	5775
2026-01-10 22:28:55.53	90.19	19.26	-33.3	-34.2	24.4	0.00e+00	0	28	0	625999872	40	5683
2026-01-10 22:28:56.54	90.02	19.35	-33.3	-34.3	24.4	0.00e+00	0	27	0	629145600	40	5730
2026-01-10 22:28:57.55	89.85	19.45	-33.2	-34.1	24.5	0.00e+00	0	27	0	632291328	40	5620
2026-01-10 22:28:58.56	89.68	19.55	-33.1	-34.0	24.7	0.00e+00	0	27	0	635437056	40	5549
2026-01-10 22:28:59.57	89.51	19.64	-33.0	-33.9	24.6	0.00e+00	0	28	0	638582784	40	5528
2026-01-10 22:29:00.58	89.34	19.74	-33.0	-33.9	24.7	0.00e+00	0	27	0	641728512	40	5497
2026-01-10 22:29:01.59	89.17	19.83	-33.1	-34.0	24.5	0.00e+00	0	27	0	644874240	40	5570
2026-01-10 22:29:02.60	89.00	19.93	-33.0	-33.9	24.7	0.00e+00	0	27	0	648019968	40	5498
2026-01-10 22:29:03.61	88.83	20.02	-33.2	-34.1	24.5	0.00e+00	0	27	0	651165696	40	5625
2026-01-10 22:29:04.62	88.65	20.12	-33.0	-33.9	24.6	0.00e+00	0	27	0	654311424	40	5527
2026-01-10 22:29:05.63	88.48	20.21	-32.9	-33.8	24.7	0.00e+00	0	27	0	657457152	40	5440
2026-01-10 22:29:06.64	88.30	20.31	-32.9	-33.8	24.7	0.00e+00	0	27	0	660602880	40	5445
2026-01-10 22:29:07.65	88.12	20.41	-32.8	-33.6	24.8	0.00e+00	0	27	0	663748608	38	5977
2026-01-10 22:29:08.66	87.94	20.50	-32.8	-33.7	24.8	0.00e+00	0	27	0	666894336	38	5999
2026-01-10 22:29:09.67	87.76	20.60	-32.9	-33.8	24.8	0.00e+00	0	27	0	670040064	38	6089
2026-01-10 22:29:10.68	87.58	20.70	-32.8	-33.6	24.8	0.00e+00	0	27	0	673185792	38	5981
2026-01-10 22:29:11.68	87.40	20.79	-32.8	-33.7	24.8	0.00e+00	0	27	0	676331520	38	6012
2026-01-10 22:29:12.69	87.21	20.89	-32.9	-33.8	24.7	0.00e+00	0	27	0	679477248	38	6108
2026-01-10 22:29:13.70	87.03	20.98	-33.0	-33.8	24.7	0.00e+00	0	27	0	682622976	38	6125
2026-01-10 22:29:14.71	86.84	21.08	-32.9	-33.7	24.8	0.00e+00	0	27	0	685768704	38	6052
2026-01-10 22:29:15.72	86.66	21.18	-32.7	-33.6	24.9	0.00e+00	0	27	0	688914432	38	5939
2026-01-10 22:29:16.73	86.47	21.27	-32.8	-33.7	24.8	0.00e+00	0	27	0	692060160	38	6013
2026-01-10 22:29:17.74	86.28	21.37	-32.7	-33.6	24.9	0.00e+00	0	27	0	695205888	38	5970
2026-01-10 22:29:18.75	86.09	21.47	-32.7	-33.6	24.8	0.00e+00	0	27	0	698351616	38	5953
2026-01-10 22:29:19.76	85.89	21.56	-32.8	-33.6	24.8	0.00e+00	0	27	0	701497344	38	5988
2026-01-10 22:29:20.77	85.70	21.66	-32.6	-33.5	24.9	0.00e+00	0	27	0	705691648	38	5908
2026-01-10 22:29:21.78	85.51	21.76	-32.7	-33.6	24.8	0.00e+00	0	27	0	708837376	38	5974
2026-01-10 22:29:22.78	85.31	21.85	-32.8	-33.6	24.8	0.00e+00	0	27	0	711983104	38	5988
2026-01-10 22:29:23.79	85.11	21.95	-32.8	-33.7	24.7	0.00e+00	0	27	0	714080256	38	6021
2026-01-10 22:29:24.80	84.92	22.05	-33.0	-33.9	24.6	0.00e+00	0	27	0	717225984	38	6199
2026-01-10 22:29:25.81	84.72	22.14	-33.0	-33.9	24.7	0.00e+00	0	27	0	721420288	38	6195
2026-01-10 22:29:26.82	84.52	22.24	-33.0	-33.9	24.8	0.00e+00	0	27	0	724566016	38	6167
2026-01-10 22:29:27.83	84.31	22.34	-32.9	-33.8	24.8	0.00e+00	0	27	0	727711744	38	6109
2026-01-10 22:29:28.84	84.11	22.43	-32.7	-33.5	24.9	0.00e+00	0	27	0	730857472	38	5922
2026-01-10 22:29:29.85	83.91	22.53	-32.6	-33.5	24.8	0.00e+00	0	27	0	734003200	38	5909
2026-01-10 22:29:30.86	83.70	22.62	-32.8	-33.8	24.7	0.00e+00	0	27	0	737148928	38	6065
2026-01-10 22:29:31.87	83.49	22.72	-32.8	-33.6	24.8	0.00e+00	0	27	0	740294656	38	5994
2026-01-10 22:29:32.88	83.28	22.82	-32.8	-33.7	24.8	0.00e+00	0	27	0	743440384	38	6043
2026-01-10 22:29:33.89	83.07	22.91	-32.9	-33.8	24.8	0.00e+00	0	27	0	746586112	38	6119
2026-01-10 22:29:34.90	82.86	23.01	-32.9	-33.7	24.9	0.00e+00	0	27	0	749731840	38	6064
2026-01-10 22:29:35.91	82.65	23.11	-32.8	-33.7	25.0	0.00e+00	0	27	0	752877568	38	5997
2026-01-10 22:29:36.92	82.44	23.20	-32.8	-33.7	24.9	0.00e+00	0	27	0	756023296	38	6051
2026-01-10 22:29:37.93	82.22	23.30	-32.7	-33.6	25.0	0.00e+00	0	27	0	759169024	38	5930
2026-01-10 22:29:38.94	82.01	23.40	-32.6	-33.5	25.1	0.00e+00	0	27	0	762314752	38	5919
2026-01-10 22:29:39.95	81.79	23.49	-32.4	-33.2	25.1	0.00e+00	0	27	0	765460480	38	5723
2026-01-10 22:29:40.96	81.57	23.59	-32.3	-33.2	25.2	0.00e+00	0	27	0	768606208	38	5693
2026-01-10 22:29:41.98	81.35	23.68	-32.4	-33.3	25.1	0.00e+00	0	27	0	771751936	38	5745
2026-01-10 22:29:42.99	81.12	23.78	-32.4	-33.3	25.1	0.00e+00	0	27	0	774897664	38	5768
2026-01-10 22:29:44.00	80.90	23.88	-32.5	-33.4	25.1	0.00e+00	0	27	0	778043392	38	5815
2026-01-10 22:29:45.01	80.68	23.97	-32.6	-33.4	25.1	0.00e+00	0	27	0	781189120	38	5852
2026-01-10 22:29:46.02	80.45	24.07	-32.5	-33.4	25.1	0.00e+00	0	27	0	784334848	38	5840
2026-01-10 22:29:47.02	80.23	24.16	-32.6	-33.5	25.0	0.00e+00	0	27	0	787480576	38	5891
2026-01-10 22:29:48.03	80.00	24.26	-32.7	-33.6	24.9	0.00e+00	0	27	0	790626304	38	5962
2026-01-10 22:29:49.04	79.77	24.35	-32.7	-33.6	24.9	0.00e+00	0	27	0	793772032	38	5951
2026-01-10 22:29:50.05	79.53	24.44	-32.7	-33.6	24.8	0.00e+00	0	27	0	796917760	38	5949
2026-01-10 22:29:51.06	79.30	24.54	-32.9	-33.8	24.7	0.00e+00	0	27	0	800063488	38	6080
2026-01-10 22:29:52.07	79.07	24.63	-33.0	-33.9	24.7	0.00e+00	0	27	0	803209216	38	6197
2026-01-10 22:29:53.08	78.83	24.73	-33.0	-33.9	24.8	0.00e+00	0	27	0	806354944	38	6152
2026-01-10 22:29:54.09	78.59	24.82	-33.0	-33.9	24.8	0.00e+00	0	27	0	809500672	38	6202
2026-01-10 22:29:55.10	78.36	24.92	-33.0	-33.8	24.8	0.00e+00	0	27	0	812646400	38	6132
2026-01-10 22:29:56.11	78.12	25.01	-33.0	-34.0	24.7	0.00e+00	0	27	0	815792128	38	6209
2026-01-10 22:29:57.12	77.87	25.10	-33.0	-33.9	24.8	0.00e+00	0	27	0	818937856	38	6173
2026-01-10 22:29:58.13	77.63	25.20	-33.1	-34.0	24.7	0.00e+00	0	27	0	822083584	38	6234
2026-01-10 22:29:59.14	77.39	25.29	-33.1	-34.0	24.8	0.00e+00	0	27	0	825229312	38	6215
2026-01-10 22:30:00.15	77.14	25.38	-33.2	-34.1	24.6	0.00e+00	0	27	0	828375040	38	6295
2026-01-10 22:30:01.15	76.90	25.47	-33.2	-34.0	24.6	0.00e+00	0	27	0	831520768	38	6266
2026-01-10 22:30:02.16	76.65	25.56	-33.1	-33.9	24.7	0.00e+00	0	27	0	834666496	38	6196
2026-01-10 22:30:03.17	76.40	25.66	-33.1	-34.0	24.7	0.00e+00	0	27	0	837812224	38	6250
2026-01-10 22:30:04.18	76.15	25.75	-33.0	-33.9	24.8	0.00e+00	0	27	0	840957952	38	6162
2026-01-10 22:30:05.19	75.89	25.84	-32.9	-33.8	24.8	0.00e+00	0	27	0	844103680	38	6091
2026-01-10 22:30:06.20	75.64	25.93	-33.0	-34.0	24.7	0.00e+00	0	27	0	847249408	38	6210
2026-01-10 22:30:07.21	75.38	26.02	-33.0	-33.9	24.8	0.00e+00	0	27	0	850395136	38	6159
2026-01-10 22:30:08.22	75.13	26.11	-33.1	-34.1	24.8	0.00e+00	0	27	0	853540864	38	6287
2026-01-10 22:30:09.23	74.87	26.20	-33.1	-34.0	24.6	0.00e+00	0	27	0	856686592	38	6274
2026-01-10 22:30:10.24	74.61	26.29	-33.2	-34.1	24.6	0.00e+00	0	27	0	859832320	38	6322
2026-01-10 22:30:11.25	74.34	26.38	-33.2	-34.1	24.5	0.00e+00	0	27	0	862978048	38	6299
2026-01-10 22:30:12.26	74.08	26.47	-33.3	-34.2	24.5	0.00e+00	0	27	0	866123776	38	6372
2026-01-10 22:30:13.27	73.82	26.56	-33.1	-34.0	24.7	0.00e+00	0	27	0	869269504	38	6249
2026-01-10 22:30:14.28	73.55	26.64	-33.0	-33.9	24.7	0.00e+00	0	27	0	872415232	38	6175
2026-01-10 22:30:15.29	73.28	26.73	-33.1	-34.1	24.6	0.00e+00	0	27	0	875560960	38	6284
2026-01-10 22:30:16.30	73.01	26.82	-33.2	-34.1	24.6	0.00e+00	0	27	0	878706688	38	6315
2026-01-10 22:30:17.30	72.74	26.90	-33.3	-34.2	24.5	0.00e+00	0	27	0	881852416	38	6368
2026-01-10 22:30:18.31	72.47	26.99	-33.3	-34.2	24.5	0.00e+00	0	27	0	884998144	38	6409
2026-01-10 22:30:19.32	72.20	27.08	-33.1	-34.0	24.6	0.00e+00	0	27	0	888143872	38	6277
2026-01-10 22:30:20.33	71.92	27.16	-33.2	-34.1	24.5	0.00e+00	0	27	0	891289600	38	6328
2026-01-10 22:30:21.34	71.65	27.25	-33.3	-34.2	24.5	0.00e+00	0	27	0	894435328	38	6415
2026-01-10 22:30:22.35	71.37	27.33	-33.3	-34.2	24.6	0.00e+00	0	27	0	897581056	38	6362
2026-01-10 22:30:23.36	71.09	27.41	-33.2	-34.1	24.6	0.00e+00	0	27	0	900726784	38	6347
2026-01-10 22:30:24.37	70.81	27.50	-33.3	-34.2	24.6	0.00e+00	0	27	0	903872512	38	6414
2026-01-10 22:30:25.38	70.52	27.58	-33.2	-34.1	24.6	0.00e+00	0	27	0	907018240	38	6304
2026-01-10 22:30:26.39	70.24	27.66	-33.1	-34.0	24.6	0.00e+00	0	27	0	910163968	38	6242
2026-01-10 22:30:27.40	69.95	27.75	-33.1	-34.0	24.7	0.00e+00	0	27	0	913309696	38	6222
2026-01-10 22:30:28.41	69.67	27.83	-33.2	-34.1	24.7	0.00e+00	0	27	0	916455424	38	6300
2026-01-10 22:30:29.42	69.38	27.91	-33.1	-34.0	24.7	0.00e+00	0	27	0	919601152	38	6264
2026-01-10 22:30:30.43	69.09	27.99	-33.3	-34.2	24.5	0.00e+00	0	27	0	922746880	38	6391
2026-01-10 22:30:31.44	68.80	28.07	-33.4	-34.3	24.5	0.00e+00	0	27	0	925892608	38	6480
2026-01-10 22:30:32.45	68.51	28.15	-33.6	-34.5	24.4	0.00e+00	0	27	0	929038336	38	6582
2026-01-10 22:30:33.46	68.21	28.22	-33.5	-34.4	24.4	0.00e+00	0	27	0	932184064	38	6539
2026-01-10 22:30:34.47	67.92	28.30	-33.6	-34.5	24.4	0.00e+00	0	27	0	935329792	38	6623
2026-01-10 22:30:35.48	67.62	28.38	-33.5	-34.4	24.4	0.00e+00	0	27	0	938475520	38	6528
2026-01-10 22:30:36.49	67.32	28.45	-33.3	-34.2	24.6	0.00e+00	0	27	0	941621248	38	6392
2026-01-10 22:30:37.50	67.02	28.53	-33.1	-34.0	24.7	0.00e+00	0	27	0	944766976	38	6250
2026-01-10 22:30:38.51	66.72	28.61	-33.3	-34.2	24.4	0.00e+00	0	27	0	947912704	38	6353
2026-01-10 22:30:39.52	66.42	28.68	-33.4	-34.3	24.5	0.00e+00	0	27	0	951058432	38	6473
2026-01-10 22:30:40.53	66.11	28.75	-33.4	-34.2	24.6	0.00e+00	0	27	0	954204160	38	6423
2026-01-10 22:30:41.54	65.81	28.83	-33.3	-34.2	24.6	0.00e+00	0	27	0	957349888	38	6406
2026-01-10 22:30:42.55	65.50	28.90	-33.3	-34.2	24.7	0.00e+00	0	27	0	960495616	38	6351
2026-01-10 22:30:43.56	65.19	28.97	-33.3	-34.2	24.7	0.00e+00	0	27	0	963641344	38	6373
2026-01-10 22:30:44.57	64.88	29.04	-33.1	-34.0	24.8	0.00e+00	0	27	0	966787072	38	6236
2026-01-10 22:30:45.58	64.57	29.11	-33.1	-34.0	24.7	0.00e+00	0	27	0	969932800	38	6213
2026-01-10 22:30:46.59	64.26	29.18	-33.2	-34.1	24.5	0.00e+00	0	27	0	973078528	38	6303
2026-01-10 22:30:47.59	63.95	29.25	-33.4	-34.3	24.5	0.00e+00	0	27	0	976224256	38	6496
2026-01-10 22:30:48.61	63.63	29.32	-33.5	-34.4	24.4	0.00e+00	0	27	0	979369984	38	6572
2026-01-10 22:30:49.62	63.31	29.38	-33.5	-34.4	24.5	0.00e+00	0	27	0	982515712	38	6502
2026-01-10 22:30:50.63	62.99	29.45	-33.5	-34.4	24.5	0.00e+00	0	27	0	985661440	38	6557
2026-01-10 22:30:51.64	62.67	29.51	-33.5	-34.4	24.5	0.00e+00	0	27	0	988807168	38	6528
2026-01-10 22:30:52.65	62.35	29.58	-33.6	-34.5	24.4	0.00e+00	0	27	0	991952896	38	6635
2026-01-10 22:30:53.66	62.03	29.64	-33.6	-34.5	24.4	0.00e+00	0	27	0	995098624	38	6636
2026-01-10 22:30:54.67	61.71	29.70	-33.7	-34.6	24.3	0.00e+00	0	27	0	998244352	38	6679
2026-01-10 22:30:55.68	61.38	29.77	-33.7	-34.6	24.3	0.00e+00	0	27	0	1001390080	40	5958
2026-01-10 22:30:56.69	61.06	29.83	-33.6	-34.5	24.4	0.00e+00	0	27	0	1004535808	40	5866
2026-01-10 22:30:57.70	60.73	29.89	-33.6	-34.5	24.4	0.00e+00	0	27	0	1007681536	40	5896
2026-01-10 22:30:58.71	60.41	29.94	-33.6	-34.5	24.4	0.00e+00	0	27	0	1010827264	40	5892
2026-01-10 22:30:59.72	60.08	30.00	-33.6	-34.6	24.3	0.00e+00	0	27	0	1013972992	40	5930
2026-01-10 22:31:00.73	59.75	30.06	-33.8	-34.7	24.3	0.00e+00	0	27	0	1017118720	40	6027
2026-01-10 22:31:01.74	59.41	30.12	-33.8	-34.7	24.2	0.00e+00	0	27	0	1020264448	40	6044
2026-01-10 22:31:02.75	59.08	30.17	-33.9	-34.8	24.1	0.00e+00	0	27	0	1023410176	40	6089
2026-01-10 22:31:03.76	58.75	30.22	-34.0	-34.9	24.1	0.00e+00	0	27	0	1026555904	40	6202
2026-01-10 22:31:04.77	58.41	30.28	-33.9	-34.8	24.1	0.00e+00	0	27	0	1029701632	40	6115
2026-01-10 22:31:05.78	58.08	30.33	-33.8	-34.7	24.2	0.00e+00	0	27	0	1032847360	40	6047
2026-01-10 22:31:06.79	57.74	30.38	-33.7	-34.7	24.2	0.00e+00	0	27	0	1035993088	40	6005
2026-01-10 22:31:07.80	57.40	30.43	-33.7	-34.6	24.3	0.00e+00	0	27	0	1039138816	40	5959
2026-01-10 22:31:08.81	57.06	30.48	-33.9	-34.8	24.2	0.00e+00	0	27	0	1042284544	40	6090
2026-01-10 22:31:09.82	56.72	30.53	-33.9	-34.8	24.2	0.00e+00	0	27	0	1046478848	40	6109
2026-01-10 22:31:10.83	56.38	30.57	-33.9	-34.8	24.1	0.00e+00	0	27	0	1049624576	40	6119
2026-01-10 22:31:11.84	56.04	30.62	-34.0	-34.9	24.0	0.00e+00	0	27	0	1052770304	40	6199
2026-01-10 22:31:12.85	55.70	30.66	-34.1	-35.0	24.0	0.00e+00	0	27	0	1054867456	40	6247
2026-01-10 22:31:13.86	55.35	30.71	-34.1	-35.0	24.0	0.00e+00	0	27	0	1058013184	40	6256
2026-01-10 22:31:14.87	55.01	30.75	-34.3	-35.2	23.9	0.00e+00	0	27	0	1062207488	40	6395
2026-01-10 22:31:15.88	54.66	30.79	-34.0	-34.9	24.1	0.00e+00	0	27	0	1065353216	40	6196
2026-01-10 22:31:16.88	54.32	30.83	-33.9	-34.9	24.1	0.00e+00	0	27	0	1068498944	40	6144
2026-01-10 22:31:17.89	53.97	30.87	-33.8	-34.7	24.3	0.00e+00	0	27	0	1071644672	40	6050
2026-01-10 22:31:18.91	53.62	30.91	-33.7	-34.6	24.3	0.00e+00	0	27	0	1074790400	40	5936
2026-01-10 22:31:19.92	53.27	30.95	-33.7	-34.5	24.3	0.00e+00	0	27	0	1077936128	40	5922
2026-01-10 22:31:20.92	52.93	30.98	-33.5	-34.4	24.5	0.00e+00	0	27	0	1081081856	40	5831
2026-01-10 22:31:21.94	52.57	31.02	-33.6	-34.5	24.4	0.00e+00	0	27	0	1084227584	40	5863
2026-01-10 22:31:22.95	52.22	31.05	-33.5	-34.4	24.5	0.00e+00	0	27	0	1087373312	40	5817
2026-01-10 22:31:23.96	51.87	31.08	-33.3	-34.2	24.7	0.00e+00	0	27	0	1090519040	40	5667
2026-01-10 22:31:24.96	51.52	31.11	-33.2	-34.1	24.6	0.00e+00	0	27	0	1093664768	40	5639
2026-01-10 22:31:25.97	51.17	31.14	-33.5	-34.4	24.4	0.00e+00	0	27	0	1096810496	40	5812
2026-01-10 22:31:26.98	50.81	31.17	-33.6	-34.5	24.3	0.00e+00	0	27	0	1099956224	40	5888
2026-01-10 22:31:27.99	50.46	31.20	-33.6	-34.5	24.4	0.00e+00	0	27	0	1103101952	40	5909
2026-01-10 22:31:29.00	50.10	31.22	-33.5	-34.4	24.4	0.00e+00	0	27	0	1106247680	40	5851
2026-01-10 22:31:30.01	49.75	31.25	-33.7	-34.7	24.2	0.00e+00	0	27	0	1109393408	40	6008
2026-01-10 22:31:31.02	49.39	31.27	-33.8	-34.7	24.2	0.00e+00	0	27	0	1112539136	40	6063
2026-01-10 22:31:32.03	49.03	31.29	-33.7	-34.6	24.4	0.00e+00	0	27	0	1115684864	40	5955
2026-01-10 22:31:33.04	48.68	31.31	-33.8	-34.7	24.2	0.00e+00	0	27	0	1118830592	40	6060
2026-01-10 22:31:34.05	48.32	31.33	-33.8	-34.7	24.2	0.00e+00	0	27	0	1121976320	40	6062
2026-01-10 22:31:35.06	47.96	31.35	-33.9	-34.8	24.2	0.00e+00	0	27	0	1125122048	40	6134
2026-01-10 22:31:36.07	47.60	31.37	-33.8	-34.7	24.3	0.00e+00	0	27	0	1128267776	40	6018
2026-01-10 22:31:37.08	47.24	31.39	-33.9	-34.8	24.2	0.00e+00	0	27	0	1131413504	40	6109
2026-01-10 22:31:38.08	46.89	31.40	-34.0	-35.0	24.1	0.00e+00	0	27	0	1134559232	40	6211
2026-01-10 22:31:39.09	46.53	31.42	-34.1	-35.0	24.0	0.00e+00	0	27	0	1137704960	40	6219
2026-01-10 22:31:40.10	46.17	31.43	-34.2	-35.1	23.9	0.00e+00	0	27	0	1140850688	40	6317
2026-01-10 22:31:41.12	45.81	31.44	-34.1	-35.1	24.0	0.00e+00	0	27	0	1143996416	40	6284
2026-01-10 22:31:42.13	45.45	31.45	-34.1	-35.0	24.0	0.00e+00	0	27	0	1147142144	40	6276
2026-01-10 22:31:43.14	45.09	31.46	-34.0	-34.9	24.2	0.00e+00	0	27	0	1150287872	40	6162
2026-01-10 22:31:44.15	44.72	31.46	-33.9	-34.8	24.1	0.00e+00	0	27	0	1153433600	40	6134
2026-01-10 22:31:45.16	44.36	31.47	-33.6	-34.4	24.4	0.00e+00	0	27	0	1156579328	40	5855
2026-01-10 22:31:46.17	44.00	31.48	-33.6	-34.5	24.4	0.00e+00	0	27	0	1159725056	40	5870
2026-01-10 22:31:47.18	43.64	31.48	-33.8	-34.7	24.2	0.00e+00	0	27	0	1162870784	40	6038
2026-01-10 22:31:48.19	43.28	31.48	-33.8	-34.8	24.2	0.00e+00	0	28	0	1166016512	40	6066
2026-01-10 22:31:49.20	42.92	31.48	-34.1	-35.0	24.1	0.00e+00	0	27	0	1169162240	40	6267
2026-01-10 22:31:50.21	42.56	31.48	-34.3	-35.2	23.8	0.00e+00	0	27	0	1172307968	40	6390
2026-01-10 22:31:51.22	42.20	31.48	-34.3	-35.2	23.9	0.00e+00	0	27	0	1175453696	40	6406
2026-01-10 22:31:52.23	41.84	31.48	-34.3	-35.3	23.8	0.00e+00	0	27	0	1178599424	40	6433
2026-01-10 22:31:53.24	41.48	31.47	-34.3	-35.2	23.7	0.00e+00	0	28	0	1181745152	40	6407
2026-01-10 22:31:54.25	41.12	31.47	-34.3	-35.2	23.9	0.00e+00	0	28	0	1184890880	40	6391
2026-01-10 22:31:55.26	40.75	31.46	-34.2	-35.1	24.0	0.00e+00	0	28	0	1188036608	40	6295
2026-01-10 22:31:56.27	40.39	31.45	-33.8	-34.7	24.2	0.00e+00	0	28	0	1191182336	40	6014
2026-01-10 22:31:57.28	40.03	31.44	-33.9	-34.8	24.1	0.00e+00	0	28	0	1194328064	40	6082
2026-01-10 22:31:58.29	39.67	31.43	-33.9	-34.8	24.2	0.00e+00	0	28	0	1197473792	40	6118
2026-01-10 22:31:59.30	39.31	31.42	-33.8	-34.7	24.4	0.00e+00	0	28	0	1200619520	40	6006
2026-01-10 22:32:00.31	38.95	31.41	-33.5	-34.4	24.5	0.00e+00	0	28	0	1203765248	40	5843
2026-01-10 22:32:01.32	38.60	31.39	-33.3	-34.2	24.6	0.00e+00	0	28	0	1206910976	40	5663
2026-01-10 22:32:02.33	38.24	31.38	-33.5	-34.4	24.4	0.00e+00	0	28	0	1210056704	40	5820
2026-01-10 22:32:03.34	37.88	31.36	-33.7	-34.7	24.2	0.00e+00	0	28	0	1213202432	40	6000
2026-01-10 22:32:04.35	37.52	31.34	-33.8	-34.7	24.2	0.00e+00	0	28	0	1216348160	40	6027
2026-01-10 22:32:05.36	37.16	31.32	-33.9	-34.8	24.2	0.00e+00	0	28	0	1219493888	40	6098
2026-01-10 22:32:06.37	36.81	31.30	-33.9	-34.8	24.1	0.00e+00	0	28	0	1222639616	40	6102
2026-01-10 22:32:07.38	36.45	31.28	-33.6	-34.5	24.4	0.00e+00	0	28	0	1225785344	40	5918
2026-01-10 22:32:08.39	36.09	31.25	-33.6	-34.4	24.3	0.00e+00	0	28	0	1228931072	40	5852
2026-01-10 22:32:09.40	35.74	31.23	-33.8	-34.7	24.2	0.00e+00	0	28	0	1232076800	40	6030
2026-01-10 22:32:10.41	35.38	31.20	-33.8	-34.7	24.2	0.00e+00	0	28	0	1235222528	40	6051
2026-01-10 22:32:11.41	35.03	31.18	-33.9	-34.8	24.1	0.00e+00	0	28	0	1238368256	40	6104
2026-01-10 22:32:12.42	34.68	31.15	-34.0	-34.9	24.2	0.00e+00	0	28	0	1241513984	40	6176
2026-01-10 22:32:13.43	34.32	31.12	-34.0	-34.9	24.0	0.00e+00	0	28	0	1244659712	40	6173
2026-01-10 22:32:14.44	33.97	31.09	-33.7	-34.6	24.4	0.00e+00	0	28	0	1247805440	40	5965
2026-01-10 22:32:15.45	33.62	31.06	-33.7	-34.7	24.3	0.00e+00	0	28	0	1250951168	40	5998
2026-01-10 22:32:16.46	33.27	31.03	-33.7	-34.6	24.3	0.00e+00	0	28	0	1254096896	40	5963
2026-01-10 22:32:17.47	32.92	30.99	-33.7	-34.6	24.3	0.00e+00	0	28	0	1257242624	40	5993
2026-01-10 22:32:18.48	32.57	30.96	-33.8	-34.7	24.3	0.00e+00	0	28	0	1260388352	40	6007
2026-01-10 22:32:19.49	32.22	30.92	-33.9	-34.8	24.1	0.00e+00	0	28	0	1263534080	40	6121
2026-01-10 22:32:20.50	31.87	30.88	-33.9	-34.8	24.1	0.00e+00	0	28	0	1266679808	40	6126
2026-01-10 22:32:21.51	31.52	30.84	-34.1	-35.0	23.9	0.00e+00	0	28	0	1269825536	40	6265
2026-01-10 22:32:22.52	31.18	30.80	-34.2	-35.1	23.9	0.00e+00	0	28	0	1272971264	40	6337
2026-01-10 22:32:23.53	30.83	30.76	-34.3	-35.3	23.8	0.00e+00	0	28	0	1276116992	40	6440
2026-01-10 22:32:24.54	30.49	30.72	-34.3	-35.2	23.8	0.00e+00	0	28	0	1279262720	40	6409
2026-01-10 22:32:25.55	30.14	30.68	-34.3	-35.3	23.8	0.00e+00	0	28	0	1282408448	40	6424
2026-01-10 22:32:26.56	29.80	30.63	-34.1	-35.0	24.0	0.00e+00	0	28	0	1285554176	40	6249
2026-01-10 22:32:27.57	29.46	30.59	-33.8	-34.7	24.2	0.00e+00	0	28	0	1288699904	40	6012
2026-01-10 22:32:28.58	29.12	30.54	-33.8	-34.7	24.2	0.00e+00	0	28	0	1291845632	40	6001
2026-01-10 22:32:29.60	28.78	30.49	-33.4	-34.3	24.5	0.00e+00	0	28	0	1294991360	40	5752
2026-01-10 22:32:30.60	28.44	30.45	-33.1	-34.0	24.7	0.00e+00	0	28	0	1298137088	40	5550
2026-01-10 22:32:31.61	28.10	30.40	-33.2	-34.1	24.7	0.00e+00	0	28	0	1301282816	40	5601
2026-01-10 22:32:32.62	27.77	30.35	-33.2	-34.0	24.8	0.00e+00	0	28	0	1304428544	40	5580
2026-01-10 22:32:33.63	27.43	30.29	-33.2	-34.0	24.7	0.00e+00	0	28	0	1307574272	40	5592
2026-01-10 22:32:34.64	27.10	30.24	-33.3	-34.2	24.5	0.00e+00	0	28	0	1310720000	40	5695
2026-01-10 22:32:35.65	26.76	30.19	-33.3	-34.2	24.6	0.00e+00	0	28	0	1313865728	40	5700
2026-01-10 22:32:36.66	26.43	30.13	-33.5	-34.4	24.3	0.00e+00	0	28	0	1317011456	40	5829
2026-01-10 22:32:37.67	26.10	30.08	-33.7	-34.6	24.1	0.00e+00	0	28	0	1320157184	40	5959
2026-01-10 22:32:38.68	25.77	30.02	-33.7	-34.6	24.1	0.00e+00	0	28	0	1323302912	40	5990
2026-01-10 22:32:39.69	25.44	29.96	-33.5	-34.4	24.3	0.00e+00	0	28	0	1326448640	40	5803
2026-01-10 22:32:40.70	25.11	29.91	-33.5	-34.4	24.4	0.00e+00	0	28	0	1329594368	40	5824
2026-01-10 22:32:41.71	24.79	29.85	-33.2	-34.1	24.7	0.00e+00	0	28	0	1332740096	40	5612
2026-01-10 22:32:42.72	24.46	29.79	-33.2	-34.1	24.7	0.00e+00	0	28	0	1335885824	40	5617
2026-01-10 22:32:43.73	24.14	29.72	-33.2	-34.1	24.7	0.00e+00	0	28	0	1339031552	40	5611
2026-01-10 22:32:44.74	23.81	29.66	-33.5	-34.4	24.5	0.00e+00	0	28	0	1342177280	40	5801
2026-01-10 22:32:45.75	23.49	29.60	-33.6	-34.5	24.4	0.00e+00	0	28	0	1345323008	40	5875
2026-01-10 22:32:46.76	23.17	29.54	-33.6	-34.5	24.4	0.00e+00	0	28	0	1348468736	40	5891
2026-01-10 22:32:47.77	22.85	29.47	-33.7	-34.7	24.2	0.00e+00	0	28	0	1351614464	40	5999
2026-01-10 22:32:48.78	22.54	29.41	-33.2	-34.1	24.7	0.00e+00	0	28	0	1354760192	40	5639
2026-01-10 22:32:49.78	22.22	29.34	-33.3	-34.2	24.6	0.00e+00	0	28	0	1357905920	40	5669
2026-01-10 22:32:50.79	21.91	29.27	-33.2	-34.1	24.6	0.00e+00	0	28	0	1361051648	40	5627
2026-01-10 22:32:51.81	21.59	29.20	-33.2	-34.1	24.7	0.00e+00	0	28	0	1364197376	40	5609
2026-01-10 22:32:52.82	21.28	29.14	-33.3	-34.2	24.5	0.00e+00	0	28	0	1368391680	40	5683
2026-01-10 22:32:53.83	20.97	29.07	-33.4	-34.3	24.5	0.00e+00	0	28	0	1370488832	40	5740
2026-01-10 22:32:54.84	20.66	29.00	-33.5	-34.4	24.4	0.00e+00	0	28	0	1373634560	40	5803
2026-01-10 22:32:55.85	20.35	28.92	-33.4	-34.3	24.4	0.00e+00	0	28	0	1376780288	40	5752
2026-01-10 22:32:56.86	20.04	28.85	-33.1	-34.0	24.7	0.00e+00	0	28	0	1379926016	40	5542
2026-01-10 22:32:57.87	19.74	28.78	-32.8	-33.7	24.9	0.00e+00	0	28	0	1384120320	40	5344
2026-01-10 22:32:58.88	19.44	28.71	-32.5	-33.4	25.2	0.00e+00	0	28	0	1387266048	38	5820
2026-01-10 22:32:59.88	19.14	28.63	-32.5	-33.3	25.3	0.00e+00	0	28	0	1390411776	38	5764
2026-01-10 22:33:00.89	18.83	28.56	-32.5	-33.3	25.3	0.00e+00	0	28	0	1392508928	38	5770
2026-01-10 22:33:01.90	18.53	28.48	-32.5	-33.4	25.1	0.00e+00	0	28	0	1395654656	38	5828
2026-01-10 22:33:02.91	18.24	28.41	-32.8	-33.6	25.0	0.00e+00	0	28	0	1399848960	38	5987
2026-01-10 22:33:03.92	17.94	28.33	-33.0	-33.9	24.7	0.00e+00	0	28	0	1402994688	38	6138
2026-01-10 22:33:04.93	17.64	28.25	-33.2	-34.1	24.6	0.00e+00	0	28	0	1406140416	38	6297
2026-01-10 22:33:05.94	17.35	28.18	-33.0	-33.9	24.7	0.00e+00	0	28	0	1409286144	38	6188
2026-01-10 22:33:06.95	17.06	28.10	-33.2	-34.1	24.7	0.00e+00	0	28	0	1412431872	38	6290
2026-01-10 22:33:07.96	16.77	28.02	-33.2	-34.1	24.7	0.00e+00	0	28	0	1415577600	38	6280
2026-01-10 22:33:08.97	16.48	27.94	-33.2	-34.1	24.6	0.00e+00	0	28	0	1418723328	38	6322
2026-01-10 22:33:09.98	16.19	27.86	-33.3	-34.2	24.6	0.00e+00	0	28	0	1421869056	38	6382
2026-01-10 22:33:10.99	15.90	27.78	-33.6	-34.4	24.4	0.00e+00	0	28	0	1425014784	38	6570
2026-01-10 22:33:12.00	15.62	27.70	-33.7	-34.6	24.3	0.00e+00	0	28	0	1428160512	38	6660
2026-01-10 22:33:13.01	15.33	27.61	-33.7	-34.6	24.3	0.00e+00	0	28	0	1431306240	40	5947
2026-01-10 22:33:14.02	15.05	27.53	-33.6	-34.5	24.4	0.00e+00	0	28	0	1434451968	40	5876
2026-01-10 22:33:15.03	14.77	27.45	-33.3	-34.2	24.6	0.00e+00	0	28	0	1437597696	40	5715
2026-01-10 22:33:16.04	14.49	27.37	-33.1	-34.0	24.8	0.00e+00	0	28	0	1440743424	40	5537
2026-01-10 22:33:17.05	14.21	27.28	-33.1	-34.0	24.8	0.00e+00	0	28	0	1443889152	40	5544
2026-01-10 22:33:18.06	13.94	27.20	-32.6	-33.5	25.1	0.00e+00	0	28	0	1447034880	38	5860
2026-01-10 22:33:19.07	13.66	27.11	-32.8	-33.7	24.9	0.00e+00	0	28	0	1450180608	38	6033
2026-01-10 22:33:20.08	13.39	27.03	-32.6	-33.5	25.1	0.00e+00	0	28	0	1453326336	38	5903
2026-01-10 22:33:21.09	13.12	26.94	-32.8	-33.7	24.9	0.00e+00	0	28	0	1456472064	38	6010
2026-01-10 22:33:22.10	12.85	26.85	-32.9	-33.8	24.8	0.00e+00	0	28	0	1459617792	38	6095
2026-01-10 22:33:23.11	12.58	26.77	-32.7	-33.5	24.9	0.00e+00	0	28	0	1462763520	38	5920
2026-01-10 22:33:24.12	12.31	26.68	-32.6	-33.4	25.0	0.00e+00	0	28	0	1465909248	38	5858
2026-01-10 22:33:25.13	12.04	26.59	-32.3	-33.1	25.2	0.00e+00	0	28	0	1469054976	38	5642
2026-01-10 22:33:26.14	11.78	26.50	-32.3	-33.2	25.1	0.00e+00	0	28	0	1472200704	38	5687
2026-01-10 22:33:27.15	11.52	26.42	-32.2	-33.1	25.3	0.00e+00	0	28	0	1475346432	38	5609
2026-01-10 22:33:28.16	11.25	26.33	-32.5	-33.4	25.0	0.00e+00	0	28	0	1478492160	38	5815
2026-01-10 22:33:29.17	10.99	26.24	-32.8	-33.7	24.9	0.00e+00	0	28	0	1481637888	38	6029
2026-01-10 22:33:30.17	10.74	26.15	-33.0	-33.9	24.8	0.00e+00	0	28	0	1484783616	38	6178
2026-01-10 22:33:31.19	10.48	26.06	-33.2	-34.2	24.6	0.00e+00	0	28	0	1487929344	38	6361
2026-01-10 22:33:32.19	10.22	25.97	-33.2	-34.1	24.5	0.00e+00	0	28	0	1491075072	38	6326
2026-01-10 22:33:33.20	9.97	25.88	-33.1	-34.1	24.4	0.00e+00	0	28	0	1494220800	38	6281
2026-01-10 22:33:34.21	9.72	25.79	-33.1	-34.0	24.5	0.00e+00	0	28	0	1497366528	38	6233
2026-01-10 22:33:35.22	9.47	25.70	-33.0	-33.9	24.5	0.00e+00	0	28	0	1500512256	38	6178
2026-01-10 22:33:36.23	9.22	25.61	-33.1	-34.0	24.5	0.00e+00	0	28	0	1503657984	38	6243
2026-01-10 22:33:37.25	8.97	25.51	-33.0	-33.9	24.6	0.00e+00	0	28	0	1506803712	38	6154
2026-01-10 22:33:38.26	8.72	25.42	-33.1	-34.0	24.6	0.00e+00	0	28	0	1509949440	38	6214
2026-01-10 22:33:39.26	8.48	25.33	-33.2	-34.1	24.5	0.00e+00	0	28	0	1513095168	38	6333
2026-01-10 22:33:40.28	8.23	25.24	-33.2	-34.2	24.4	0.00e+00	0	28	0	1516240896	38	6352
2026-01-10 22:33:41.28	7.99	25.15	-33.4	-34.3	24.2	0.00e+00	0	28	0	1519386624	38	6482
2026-01-10 22:33:42.29	7.75	25.05	-33.5	-34.4	24.2	0.00e+00	0	28	0	1522532352	38	6555
2026-01-10 22:33:43.30	7.51	24.96	-33.5	-34.5	24.3	0.00e+00	0	28	0	1525678080	38	6588
2026-01-10 22:33:44.31	7.27	24.87	-33.4	-34.3	24.5	0.00e+00	0	28	0	1528823808	38	6479
2026-01-10 22:33:45.32	7.03	24.77	-33.3	-34.2	24.5	0.00e+00	0	28	0	1531969536	38	6393
2026-01-10 22:33:46.33	6.80	24.68	-33.4	-34.3	24.5	0.00e+00	0	28	0	1535115264	38	6461
2026-01-10 22:33:47.34	6.56	24.59	-33.4	-34.3	24.4	0.00e+00	0	28	0	1538260992	38	6456
2026-01-10 22:33:48.35	6.33	24.49	-33.1	-34.0	24.7	0.00e+00	0	28	0	1541406720	38	6260
2026-01-10 22:33:49.37	6.10	24.40	-33.1	-34.0	24.7	0.00e+00	0	28	0	1544552448	38	6264
2026-01-10 22:33:50.38	5.87	24.30	-33.1	-34.0	24.8	0.00e+00	0	29	0	1547698176	38	6218
2026-01-10 22:33:51.39	5.64	24.21	-33.0	-33.9	24.8	0.00e+00	0	28	0	1550843904	38	6169
2026-01-10 22:33:52.40	5.41	24.11	-33.0	-33.9	24.8	0.00e+00	0	28	0	1553989632	38	6165
2026-01-10 22:33:53.41	5.19	24.02	-33.0	-33.9	24.8	0.00e+00	0	28	0	1557135360	38	6194
2026-01-10 22:33:54.42	4.96	23.92	-33.1	-34.0	24.7	0.00e+00	0	29	0	1560281088	38	6271
2026-01-10 22:33:55.43	4.74	23.83	-33.2	-34.1	24.7	0.00e+00	0	29	0	1563426816	38	6282
2026-01-10 22:33:56.44	4.52	23.73	-33.1	-34.0	24.7	0.00e+00	0	29	0	1566572544	38	6257
2026-01-10 22:33:57.45	4.30	23.64	-33.1	-34.0	24.7	0.00e+00	0	29	0	1569718272	38	6230
2026-01-10 22:33:58.46	4.08	23.54	-33.2	-34.2	24.6	0.00e+00	0	28	0	1572864000	38	6352
2026-01-10 22:33:59.47	3.86	23.44	-33.4	-34.3	24.5	0.00e+00	0	28	0	1576009728	38	6478
2026-01-10 22:34:00.48	3.65	23.35	-33.3	-34.2	24.5	0.00e+00	0	29	0	1579155456	38	6413
2026-01-10 22:34:01.49	3.43	23.25	-33.3	-34.2	24.5	0.00e+00	0	28	0	1582301184	38	6407
2026-01-10 22:34:02.50	3.22	23.16	-33.3	-34.3	24.5	0.00e+00	0	28	0	1585446912	38	6429
2026-01-10 22:34:03.51	3.01	23.06	-33.3	-34.2	24.5	0.00e+00	0	28	0	1588592640	38	6407
2026-01-10 22:34:04.52	2.80	22.97	-33.2	-34.1	24.6	0.00e+00	0	28	0	1591738368	38	6334
2026-01-10 22:34:05.53	2.59	22.87	-33.1	-34.0	24.5	0.00e+00	0	29	0	1594884096	38	6260
2026-01-10 22:34:06.54	2.38	22.77	-33.2	-34.1	24.6	0.00e+00	0	29	0	1598029824	38	6298
2026-01-10 22:34:07.55	2.17	22.68	-33.2	-34.1	24.6	0.00e+00	0	28	0	1601175552	38	6319
2026-01-10 22:34:08.56	1.97	22.58	-33.2	-34.1	24.6	0.00e+00	0	29	0	1604321280	38	6302
2026-01-10 22:34:09.57	1.76	22.48	-33.2	-34.1	24.6	0.00e+00	0	28	0	1607467008	38	6348
2026-01-10 22:34:10.58	1.56	22.39	-33.2	-34.1	24.8	0.00e+00	0	29	0	1610612736	38	6292
2026-01-10 22:34:11.59	1.36	22.29	-33.0	-33.9	24.8	0.00e+00	0	28	0	1613758464	38	6163
2026-01-10 22:34:12.60	1.16	22.20	-33.1	-34.0	24.7	0.00e+00	0	29	0	1616904192	38	6264
2026-01-10 22:34:13.61	0.96	22.10	-33.0	-33.9	24.8	0.00e+00	0	29	0	1620049920	38	6173
2026-01-10 22:34:14.62	0.76	22.00	-33.1	-34.0	24.7	0.00e+00	0	29	0	1623195648	38	6230
2026-01-10 22:34:15.63	0.56	21.91	-33.0	-33.9	24.7	0.00e+00	0	29	0	1626341376	38	6169
2026-01-10 22:34:16.64	0.37	21.81	-33.0	-33.9	24.7	0.00e+00	0	29	0	1629487104	38	6177
2026-01-10 22:34:17.65	0.17	21.71	-33.1	-34.0	24.7	0.00e+00	0	29	0	1632632832	38	6223
2026-01-10 22:34:18.66	359.98	21.62	-33.1	-34.0	24.7	0.00e+00	0	29	0	1635778560	38	6227
2026-01-10 22:34:19.67	359.79	21.52	-33.2	-34.1	24.6	0.00e+00	0	29	0	1638924288	38	6301
2026-01-10 22:34:20.68	359.60	21.43	-32.9	-33.8	24.9	0.00e+00	0	29	0	1642070016	38	6073
2026-01-10 22:34:21.69	359.41	21.33	-32.7	-33.5	24.9	0.00e+00	0	29	0	1645215744	38	5924
2026-01-10 22:34:22.70	359.22	21.23	-32.7	-33.6	25.0	0.00e+00	0	29	0	1648361472	38	5966
2026-01-10 22:34:23.71	359.03	21.14	-32.7	-33.6	25.0	0.00e+00	0	29	0	1651507200	38	5932
2026-01-10 22:34:24.72	358.85	21.04	-32.6	-33.5	25.0	0.00e+00	0	29	0	1654652928	38	5898
2026-01-10 22:34:25.73	358.66	20.94	-32.7	-33.5	25.1	0.00e+00	0	29	0	1657798656	38	5926
2026-01-10 22:34:26.74	358.48	20.85	-32.8	-33.7	24.9	0.00e+00	0	29	0	1660944384	38	6011
2026-01-10 22:34:27.75	358.30	20.75	-32.9	-33.7	24.8	0.00e+00	0	29	0	1664090112	38	6063
2026-01-10 22:34:28.76	358.12	20.66	-33.1	-34.0	24.6	0.00e+00	0	29	0	1667235840	38	6235
2026-01-10 22:34:29.77	357.94	20.56	-33.2	-34.1	24.5	0.00e+00	0	29	0	1670381568	38	6344
2026-01-10 22:34:30.78	357.76	20.46	-33.2	-34.0	24.6	0.00e+00	0	29	0	1673527296	38	6277
2026-01-10 22:34:31.78	357.58	20.37	-33.2	-34.1	24.7	0.00e+00	0	29	0	1676673024	38	6297
2026-01-10 22:34:32.79	357.40	20.27	-33.3	-34.2	24.6	0.00e+00	0	29	0	1679818752	38	6358
2026-01-10 22:34:33.81	357.23	20.18	-33.2	-34.1	24.5	0.00e+00	0	29	0	1682964480	38	6341
2026-01-10 22:34:34.81	357.06	20.08	-33.2	-34.1	24.6	0.00e+00	0	29	0	1686110208	38	6337
2026-01-10 22:34:35.82	356.88	19.99	-33.0	-33.9	24.7	0.00e+00	0	29	0	1689255936	38	6164
2026-01-10 22:34:36.84	356.71	19.89	-33.1	-33.9	24.7	0.00e+00	0	29	0	1692401664	38	6187
2026-01-10 22:34:37.84	356.54	19.80	-32.9	-33.8	24.8	0.00e+00	0	29	0	1695547392	38	6115
2026-01-10 22:34:38.85	356.37	19.70	-32.7	-33.5	25.0	0.00e+00	0	29	0	1698693120	38	5909
2026-01-10 22:34:39.86	356.20	19.61	-32.5	-33.4	25.0	0.00e+00	0	29	0	1701838848	38	5841
2026-01-10 22:34:40.87	356.03	19.51	-32.7	-33.6	25.1	0.00e+00	0	29	0	1706033152	38	5928
2026-01-10 22:34:41.88	355.86	19.42	-32.8	-33.6	24.9	0.00e+00	0	29	0	1708130304	38	5994
2026-01-10 22:34:42.89	355.70	19.32	-32.9	-33.8	24.7	0.00e+00	0	29	0	1711276032	38	6080
2026-01-10 22:34:43.90	355.53	19.23	-33.1	-34.0	24.5	0.00e+00	0	29	0	1714421760	38	6276
2026-01-10 22:34:44.91	355.37	19.13	-33.3	-34.2	24.4	0.00e+00	0	29	0	1717567488	38	6408
2026-01-10 22:34:45.92	355.21	19.04	-33.3	-34.2	24.4	0.00e+00	0	29	0	1721761792	38	6416
2026-01-10 22:34:46.93	355.05	18.94	-33.4	-34.4	24.2	0.00e+00	0	29	0	1724907520	38	6527
2026-01-10 22:34:47.94	354.89	18.85	-33.3	-34.2	24.3	0.00e+00	0	29	0	1728053248	38	6406
2026-01-10 22:34:48.95	354.73	18.76	-33.1	-34.1	24.4	0.00e+00	0	29	0	1731198976	38	6279
2026-01-10 22:34:49.96	354.57	18.66	-33.1	-34.0	24.5	0.00e+00	0	29	0	1733296128	38	6248
2026-01-10 22:34:50.96	354.41	18.57	-33.0	-33.9	24.5	0.00e+00	0	29	0	1737490432	38	6197
2026-01-10 22:34:51.97	354.25	18.48	-32.9	-33.8	24.6	0.00e+00	0	29	0	1740636160	38	6115
2026-01-10 22:34:52.99	354.10	18.38	-33.1	-34.0	24.6	0.00e+00	0	29	0	1743781888	38	6232
2026-01-10 22:34:54.00	353.94	18.29	-33.1	-34.0	24.5	0.00e+00	0	29	0	1746927616	38	6274
2026-01-10 22:34:55.01	353.79	18.20	-33.2	-34.1	24.5	0.00e+00	0	29	0	1750073344	38	6334
2026-01-10 22:34:56.01	353.64	18.10	-33.5	-34.4	24.3	0.00e+00	0	29	0	1753219072	38	6529
2026-01-10 22:34:57.02	353.49	18.01	-33.6	-34.6	24.2	0.00e+00	0	29	0	1756364800	38	6662
2026-01-10 22:34:58.03	353.34	17.92	-33.7	-34.6	24.2	0.00e+00	0	29	0	1759510528	38	6682
2026-01-10 22:34:59.04	353.19	17.82	-33.7	-34.6	24.1	0.00e+00	0	29	0	1762656256	38	6714
2026-01-10 22:35:00.05	353.04	17.73	-33.6	-34.5	24.1	0.00e+00	0	29	0	1765801984	38	6649
2026-01-10 22:35:01.06	352.89	17.64	-33.7	-34.7	24.0	0.00e+00	0	29	0	1768947712	38	6728
2026-01-10 22:35:02.07	352.74	17.55	-33.6	-34.6	24.0	0.00e+00	0	29	0	1772093440	38	6652
2026-01-10 22:35:03.08	352.60	17.45	-33.5	-34.5	24.0	0.00e+00	0	29	0	1775239168	38	6612
2026-01-10 22:35:04.09	352.45	17.36	-33.5	-34.4	24.1	0.00e+00	0	29	0	1778384896	38	6557
2026-01-10 22:35:05.10	352.31	17.27	-33.5	-34.4	24.1	0.00e+00	0	29	0	1781530624	38	6573
2026-01-10 22:35:06.11	352.16	17.18	-33.5	-34.4	24.2	0.00e+00	0	29	0	1784676352	38	6530
2026-01-10 22:35:07.12	352.02	17.09	-33.3	-34.2	24.3	0.00e+00	0	29	0	1787822080	38	6394
2026-01-10 22:35:08.13	351.88	17.00	-33.3	-34.1	24.5	0.00e+00	0	29	0	1790967808	38	6343
2026-01-10 22:35:09.14	351.74	16.91	-33.1	-34.0	24.6	0.00e+00	0	29	0	1794113536	38	6256
2026-01-10 22:35:10.15	351.60	16.81	-33.1	-34.0	24.6	0.00e+00	0	29	0	1797259264	38	6217
2026-01-10 22:35:11.16	351.46	16.72	-33.2	-34.0	24.6	0.00e+00	0	29	0	1800404992	38	6276
2026-01-10 22:35:12.16	351.32	16.63	-33.3	-34.2	24.4	0.00e+00	0	29	0	1803550720	38	6362
2026-01-10 22:35:13.17	351.18	16.54	-33.3	-34.2	24.4	0.00e+00	0	29	0	1806696448	38	6411
2026-01-10 22:35:14.18	351.05	16.45	-33.5	-34.4	24.4	0.00e+00	0	29	0	1809842176	38	6521
2026-01-10 22:35:15.20	350.91	16.36	-33.6	-34.5	24.2	0.00e+00	0	29	0	1812987904	38	6599
2026-01-10 22:35:16.21	350.78	16.27	-33.7	-34.6	24.1	0.00e+00	0	29	0	1816133632	38	6678
2026-01-10 22:35:17.22	350.64	16.18	-33.7	-34.7	24.0	0.00e+00	0	29	0	1819279360	40	5996
2026-01-10 22:35:18.23	350.51	16.09	-33.7	-34.6	24.1	0.00e+00	0	29	0	1822425088	40	5943
2026-01-10 22:35:19.24	350.38	16.00	-33.6	-34.5	24.2	0.00e+00	0	29	0	1825570816	40	5875
2026-01-10 22:35:20.25	350.24	15.91	-33.7	-34.6	24.0	0.00e+00	0	29	0	1828716544	40	5947
2026-01-10 22:35:21.26	350.11	15.82	-33.4	-34.3	24.2	0.00e+00	0	29	0	1831862272	40	5780
2026-01-10 22:35:22.26	349.98	15.74	-33.4	-34.3	24.3	0.00e+00	0	29	0	1835008000	40	5758
2026-01-10 22:35:23.27	349.85	15.65	-33.3	-34.2	24.3	0.00e+00	0	29	0	1838153728	40	5697
2026-01-10 22:35:24.28	349.73	15.56	-33.3	-34.1	24.4	0.00e+00	0	29	0	1841299456	40	5655
2026-01-10 22:35:25.29	349.60	15.47	-33.1	-34.0	24.5	0.00e+00	0	29	0	1844445184	40	5574
2026-01-10 22:35:26.30	349.47	15.38	-33.3	-34.2	24.4	0.00e+00	0	29	0	1847590912	40	5672
2026-01-10 22:35:27.31	349.35	15.29	-33.2	-34.1	24.5	0.00e+00	0	29	0	1850736640	40	5637
2026-01-10 22:35:28.32	349.22	15.21	-33.4	-34.3	24.4	0.00e+00	0	29	0	1853882368	40	5768
2026-01-10 22:35:29.33	349.10	15.12	-33.4	-34.3	24.3	0.00e+00	0	29	0	1857028096	40	5784
2026-01-10 22:35:30.34	348.97	15.03	-33.5	-34.4	24.3	0.00e+00	0	29	0	1860173824	40	5850
2026-01-10 22:35:31.35	348.85	14.94	-33.7	-34.6	24.1	0.00e+00	0	29	0	1863319552	40	5992
2026-01-10 22:35:32.36	348.73	14.86	-33.7	-34.7	24.0	0.00e+00	0	29	0	1866465280	40	5999
2026-01-10 22:35:33.37	348.60	14.77	-33.9	-34.8	23.8	0.00e+00	0	29	0	1869611008	40	6125
2026-01-10 22:35:34.38	348.48	14.68	-33.9	-34.8	23.9	0.00e+00	0	29	0	1872756736	40	6111
2026-01-10 22:35:35.39	348.36	14.59	-34.0	-34.9	23.8	0.00e+00	0	29	0	1875902464	40	6193
2026-01-10 22:35:36.40	348.24	14.51	-34.0	-34.9	23.8	0.00e+00	0	29	0	1879048192	40	6179
2026-01-10 22:35:37.41	348.13	14.42	-34.0	-34.9	23.8	0.00e+00	0	29	0	1882193920	40	6174
2026-01-10 22:35:38.42	348.01	14.34	-33.8	-34.7	23.8	0.00e+00	0	29	0	1885339648	40	6058
2026-01-10 22:35:39.71	347.86	14.23	-33.9	-34.8	23.9	0.00e+00	0	29	0	1888485376	40	6115
2026-01-10 22:35:40.43	347.77	14.16	-33.9	-34.8	23.7	0.00e+00	0	29	0	1890582528	40	6125
2026-01-10 22:35:41.73	347.63	14.05	-34.0	-34.9	23.7	0.00e+00	0	29	0	1894776832	40	6196
2026-01-10 22:35:42.45	347.54	13.99	-33.9	-34.9	23.8	0.00e+00	0	29	0	1896873984	40	6140
2026-01-10 22:35:43.75	347.40	13.88	-33.9	-34.9	23.9	0.00e+00	0	29	0	1901068288	40	6142
2026-01-10 22:35:44.47	347.31	13.82	-33.9	-34.8	23.9	0.00e+00	0	29	0	1903165440	40	6092
2026-01-10 22:35:45.77	347.17	13.71	-33.9	-34.9	23.8	0.00e+00	0	29	0	1907359744	40	6135
2026-01-10 22:35:46.49	347.09	13.65	-33.9	-34.8	24.0	0.00e+00	0	29	0	1909456896	40	6100
2026-01-10 22:35:47.79	346.95	13.54	-34.0	-34.9	23.8	0.00e+00	0	29	0	1913651200	40	6198
2026-01-10 22:35:48.51	346.87	13.48	-34.1	-35.1	23.7	0.00e+00	0	29	0	1915748352	40	6322
2026-01-10 22:35:49.81	346.72	13.38	-34.3	-35.3	23.5	0.00e+00	0	29	0	1919942656	40	6440
2026-01-10 22:35:50.53	346.65	13.32	-34.3	-35.3	23.5	0.00e+00	0	29	0	1922039808	40	6474
2026-01-10 22:35:51.83	346.50	13.21	-34.4	-35.4	23.4	0.00e+00	0	29	0	1926234112	40	6536
2026-01-10 22:35:52.55	346.43	13.15	-34.6	-35.6	23.4	0.00e+00	0	29	0	1928331264	40	6667
2026-01-10 22:35:53.85	346.29	13.04	-34.6	-35.6	23.2	0.00e+00	0	29	0	1932525568	40	6668
2026-01-10 22:35:54.57	346.21	12.98	-34.6	-35.7	23.0	0.00e+00	0	29	0	1934622720	40	6738
2026-01-10 22:35:55.87	346.07	12.88	-34.9	-36.0	23.1	0.00e+00	0	29	0	1938817024	42	6229
2026-01-10 22:35:56.59	346.00	12.82	-35.1	-36.2	22.9	0.00e+00	0	29	0	1940914176	42	6357
2026-01-10 22:35:57.89	345.86	12.71	-34.8	-35.9	23.0	0.00e+00	0	29	0	1945108480	42	6148
2026-01-10 22:35:58.61	345.79	12.65	-35.0	-36.0	22.8	0.00e+00	0	29	0	1947205632	42	6253
2026-01-10 22:35:59.91	345.65	12.54	-34.8	-35.9	23.1	0.00e+00	0	29	0	1951399936	42	6158
2026-01-10 22:36:00.63	345.58	12.49	-35.0	-36.1	23.0	0.00e+00	0	29	0	1953497088	42	6284
2026-01-10 22:36:01.92	345.45	12.38	-35.0	-36.0	22.7	0.00e+00	0	29	0	1957691392	42	6262
2026-01-10 22:36:02.64	345.38	12.32	-35.0	-36.1	22.9	0.00e+00	0	29	0	1959788544	42	6315
2026-01-10 22:36:03.94	345.24	12.22	-34.9	-36.0	22.8	0.00e+00	0	29	0	1963982848	42	6233
2026-01-10 22:36:04.66	345.17	12.16	-34.8	-35.8	22.9	0.00e+00	0	29	0	1966080000	42	6101
2026-01-10 22:36:05.96	345.04	12.06	-34.7	-35.8	23.0	0.00e+00	0	29	0	1970274304	42	6084
2026-01-10 22:36:06.69	344.97	12.00	-34.8	-35.8	22.9	0.00e+00	0	29	0	1972371456	42	6097
2026-01-10 22:36:07.98	344.84	11.89	-34.7	-35.7	23.0	0.00e+00	0	29	0	1976565760	42	6042
2026-01-10 22:36:08.70	344.77	11.84	-34.8	-35.8	23.0	0.00e+00	0	29	0	1978662912	42	6113
2026-01-10 22:36:10.00	344.65	11.73	-34.5	-35.5	23.1	0.00e+00	0	29	0	1982857216	42	5892
2026-01-10 22:36:10.72	344.58	11.68	-34.6	-35.7	23.1	0.00e+00	0	29	0	1984954368	42	6002
2026-01-10 22:36:12.02	344.45	11.57	-34.6	-35.6	23.1	0.00e+00	0	29	0	1989148672	42	5950
2026-01-10 22:36:12.74	344.38	11.52	-34.5	-35.5	23.3	0.00e+00	0	29	0	1991245824	42	5903
