passes_logs/2026/01/10/R4.6S_Anadyr/R4.6S_Anadyr__20260110_035113_AQUA_rec.log

#Pass ID: 20260110_035113_AQUA
#Satellite: AQUA
#Configuration: AQUA
#almurnet v.1.7.20251203
#Start time: 2026-01-10 03:51:16

#Version: 2.2.20231116
#Station: R4.6S_Anadyr
#Location: 177.4865 lon 64.73178 lat
#TLE: 1 27424U 02022A   26009.00333547  .00001046  00000+0  21942-3 0  9998
#TLE: 2 27424  98.4075 335.3304 0002026  85.7625 349.1392 14.61808998260012

#Time	Az	El	Level	Level2	SNR	BER	BlckErr	Temp	State	Recorded	gain1	gain2
2026-01-10 03:51:16.64	208.72	0.17	-48.3	-64.9	3.3	3.03e+01	0	25	0	0	60	67297
2026-01-10 03:51:17.65	208.79	0.22	-48.2	-66.3	3.5	3.03e+01	0	25	104	0	60	79257
2026-01-10 03:51:18.66	208.86	0.27	-48.2	-66.3	3.5	3.03e+01	0	25	104	0	60	79669
2026-01-10 03:51:19.67	208.93	0.33	-48.2	-66.3	3.5	3.03e+01	0	25	104	0	60	79598
2026-01-10 03:51:20.68	209.01	0.38	-48.4	-66.3	3.5	3.03e+01	0	25	104	0	60	79887
2026-01-10 03:51:21.69	209.08	0.44	-48.4	-66.3	3.5	3.03e+01	0	25	104	0	60	79039
2026-01-10 03:51:22.70	209.15	0.49	-48.4	-66.2	3.5	3.03e+01	0	25	104	0	60	78723
2026-01-10 03:51:23.71	209.23	0.55	-48.3	-66.2	3.5	3.03e+01	0	25	104	0	60	78337
2026-01-10 03:51:24.72	209.30	0.60	-48.2	-66.2	3.5	3.03e+01	0	25	104	0	60	78273
2026-01-10 03:51:25.73	209.38	0.66	-48.2	-66.1	3.5	3.03e+01	0	25	104	0	60	77604
2026-01-10 03:51:26.74	209.45	0.71	-48.0	-66.0	3.5	3.03e+01	0	25	104	0	60	76997
2026-01-10 03:51:27.75	209.53	0.77	-48.0	-65.9	3.5	3.03e+01	0	25	104	0	60	75724
2026-01-10 03:51:28.76	209.60	0.83	-47.8	-65.6	3.5	3.03e+01	0	25	104	0	60	73519
2026-01-10 03:51:29.77	209.68	0.88	-47.3	-65.1	3.5	3.03e+01	0	26	104	0	60	69037
2026-01-10 03:51:30.78	209.75	0.94	-46.9	-64.6	3.5	3.03e+01	0	25	104	0	60	65429
2026-01-10 03:51:31.79	209.83	0.99	-46.9	-64.7	3.5	3.03e+01	0	25	104	0	60	65872
2026-01-10 03:51:32.80	209.91	1.05	-46.9	-64.7	3.5	3.03e+01	0	25	104	0	60	66345
2026-01-10 03:51:33.81	209.98	1.10	-46.9	-64.7	3.5	3.03e+01	0	25	104	0	60	66041
2026-01-10 03:51:34.81	210.06	1.16	-46.9	-64.8	3.5	3.03e+01	0	25	104	0	60	66793
2026-01-10 03:51:35.82	210.14	1.21	-46.9	-64.8	3.5	3.03e+01	0	25	104	0	60	66873
2026-01-10 03:51:36.84	210.22	1.27	-46.9	-64.8	3.5	3.03e+01	0	25	104	0	60	66575
2026-01-10 03:51:37.85	210.29	1.33	-46.9	-64.7	3.5	3.03e+01	0	25	104	0	60	66173
2026-01-10 03:51:38.85	210.37	1.38	-46.9	-64.6	3.5	3.03e+01	0	25	104	0	60	65234
2026-01-10 03:51:39.87	210.45	1.44	-46.9	-64.4	3.5	3.03e+01	0	26	104	0	60	64233
2026-01-10 03:51:40.87	210.53	1.50	-46.9	-64.6	3.5	3.03e+01	0	26	104	0	60	65559
2026-01-10 03:51:41.89	210.61	1.55	-46.9	-64.6	3.5	3.03e+01	0	25	104	0	60	65053
2026-01-10 03:51:42.90	210.69	1.61	-46.9	-64.6	3.5	3.03e+01	0	25	104	0	60	65670
2026-01-10 03:51:43.90	210.77	1.67	-46.9	-64.9	3.5	3.03e+01	0	26	104	0	60	67313
2026-01-10 03:51:44.92	210.85	1.72	-46.9	-64.8	3.5	3.03e+01	0	26	104	0	60	66573
2026-01-10 03:51:45.92	210.93	1.78	-46.9	-64.7	3.5	3.03e+01	0	26	104	0	60	65993
2026-01-10 03:51:46.94	211.01	1.84	-46.9	-64.7	3.5	3.03e+01	0	26	104	0	60	66073
2026-01-10 03:51:47.94	211.09	1.89	-46.9	-64.8	3.5	3.03e+01	0	26	104	0	60	66657
2026-01-10 03:51:48.95	211.17	1.95	-46.9	-64.8	3.5	3.03e+01	0	26	104	0	60	67027
2026-01-10 03:51:49.96	211.25	2.01	-46.9	-64.8	3.5	3.03e+01	0	26	104	0	60	67187
2026-01-10 03:51:50.97	211.34	2.06	-46.9	-64.6	3.5	3.03e+01	0	26	104	0	60	65515
2026-01-10 03:51:51.98	211.42	2.12	-47.0	-64.7	3.5	3.03e+01	0	26	104	0	60	66074
2026-01-10 03:51:52.99	211.50	2.18	-46.9	-64.8	3.5	3.03e+01	0	26	104	0	60	66740
2026-01-10 03:51:54.01	211.59	2.24	-46.9	-64.8	3.5	3.03e+01	0	26	104	0	60	66889
2026-01-10 03:51:55.02	211.67	2.29	-46.9	-64.5	3.5	3.03e+01	0	26	104	0	60	64738
2026-01-10 03:51:56.02	211.75	2.35	-46.9	-64.2	3.5	3.03e+01	0	26	104	0	60	62076
2026-01-10 03:51:57.03	211.84	2.41	-46.9	-64.4	3.5	3.03e+01	0	26	104	0	60	63928
2026-01-10 03:51:58.04	211.92	2.47	-46.9	-64.0	3.5	3.03e+01	0	26	104	0	60	60732
2026-01-10 03:51:59.05	212.01	2.52	-46.8	-63.1	3.5	3.03e+01	0	26	104	0	60	55189
2026-01-10 03:52:00.07	212.09	2.58	-46.8	-61.0	4.1	3.03e+01	0	26	104	0	60	43112
2026-01-10 03:52:01.08	212.18	2.64	-46.8	-60.7	4.6	3.03e+01	0	26	104	0	60	41869
2026-01-10 03:52:02.08	212.26	2.70	-46.8	-61.3	3.7	3.03e+01	0	26	104	0	60	44661
2026-01-10 03:52:03.09	212.35	2.76	-46.8	-61.8	4.0	3.03e+01	0	26	104	0	60	47182
2026-01-10 03:52:04.10	212.44	2.82	-46.4	-56.4	7.4	3.03e+01	92	26	0	0	60	25521
2026-01-10 03:52:05.11	212.52	2.87	-45.3	-50.9	13.8	3.03e+01	92	26	0	2097152	60	13476
2026-01-10 03:52:06.12	212.61	2.93	-43.5	-47.1	17.4	3.03e+01	92	26	0	4194304	60	8681
2026-01-10 03:52:07.13	212.70	2.99	-41.6	-44.1	20.3	3.03e+01	92	26	0	5767168	58	6944
2026-01-10 03:52:08.14	212.79	3.05	-40.4	-42.5	21.9	3.03e+01	90	26	0	7864320	56	6477
2026-01-10 03:52:09.15	212.87	3.11	-40.2	-42.3	22.1	3.03e+01	92	26	0	9437184	56	6294
2026-01-10 03:52:10.16	212.96	3.17	-40.1	-42.1	22.2	3.03e+01	90	26	0	11534336	56	6178
2026-01-10 03:52:11.17	213.05	3.23	-39.9	-41.8	22.4	3.03e+01	92	26	0	13631488	56	5963
2026-01-10 03:52:12.18	213.14	3.29	-46.9	-59.3	3.9	3.03e+01	0	26	104	14680064	60	35588
2026-01-10 03:52:13.19	213.23	3.34	-40.5	-42.5	21.9	3.03e+01	92	26	0	14680064	56	6496
2026-01-10 03:52:14.20	213.32	3.40	-46.7	-62.4	3.6	3.03e+01	0	26	104	16252928	60	50733
2026-01-10 03:52:15.21	213.41	3.46	-46.6	-58.7	5.7	3.03e+01	0	26	0	16252928	60	33072
2026-01-10 03:52:16.22	213.50	3.52	-39.9	-41.8	22.5	3.03e+01	88	26	0	17825792	54	6694
2026-01-10 03:52:17.23	213.60	3.58	-38.4	-40.0	24.3	3.03e+01	92	26	0	19922944	52	6115
2026-01-10 03:52:18.23	213.69	3.64	-38.0	-39.6	24.9	3.03e+01	92	26	0	21495808	52	5821
2026-01-10 03:52:19.24	213.78	3.70	-37.4	-38.9	25.3	3.03e+01	92	26	0	23592960	50	6052
2026-01-10 03:52:20.25	213.87	3.76	-37.5	-39.0	25.3	3.03e+01	92	26	0	25165824	50	6118
2026-01-10 03:52:21.26	213.96	3.82	-37.9	-39.5	24.9	3.03e+01	92	26	0	27262976	50	6443
2026-01-10 03:52:22.27	214.06	3.88	-37.4	-38.9	25.6	3.03e+01	92	26	0	29360128	50	6060
2026-01-10 03:52:23.28	214.15	3.94	-37.1	-38.6	25.8	3.03e+01	92	26	0	30932992	50	5807
2026-01-10 03:52:24.29	214.25	4.00	-37.4	-38.9	25.4	3.03e+01	92	26	0	33030144	50	6013
2026-01-10 03:52:25.30	214.34	4.06	-37.4	-38.8	25.5	3.03e+01	90	26	0	34603008	50	5994
2026-01-10 03:52:26.31	214.44	4.12	-37.2	-38.6	25.7	3.03e+01	92	26	0	36700160	50	5836
2026-01-10 03:52:27.32	214.53	4.18	-37.2	-38.7	25.7	3.03e+01	92	26	0	38797312	50	5872
2026-01-10 03:52:28.33	214.63	4.24	-37.3	-38.8	25.6	3.03e+01	92	26	0	40370176	50	5973
2026-01-10 03:52:29.34	214.72	4.30	-37.0	-38.5	25.9	3.03e+01	92	26	0	42467328	50	5766
2026-01-10 03:52:30.35	214.82	4.36	-37.0	-38.4	25.9	3.03e+01	90	26	0	44040192	48	6411
2026-01-10 03:52:31.35	214.92	4.42	-36.9	-38.4	26.0	3.03e+01	92	26	0	46137344	48	6376
2026-01-10 03:52:32.36	215.02	4.48	-37.0	-38.5	25.9	3.03e+01	92	26	0	48234496	48	6468
2026-01-10 03:52:33.37	215.11	4.54	-37.0	-38.5	25.9	3.03e+01	92	26	0	49807360	48	6428
2026-01-10 03:52:34.38	215.21	4.61	-37.1	-38.5	25.9	3.03e+01	92	26	0	51904512	48	6476
2026-01-10 03:52:35.39	215.31	4.67	-37.0	-38.4	26.0	3.03e+01	92	26	0	53477376	48	6423
2026-01-10 03:52:36.40	215.41	4.73	-37.0	-38.4	26.0	3.03e+01	91	26	0	55574528	48	6413
2026-01-10 03:52:37.41	215.51	4.79	-37.0	-38.4	26.0	3.03e+01	91	26	0	57671680	48	6402
2026-01-10 03:52:38.42	215.61	4.85	-37.0	-38.5	26.1	3.03e+01	92	26	0	59244544	48	6429
2026-01-10 03:52:39.42	215.71	4.91	-37.0	-38.5	26.0	3.03e+01	92	26	0	61341696	48	6436
2026-01-10 03:52:40.43	215.81	4.97	-36.8	-38.3	26.1	3.03e+01	90	26	0	62914560	48	6286
2026-01-10 03:52:41.45	215.91	5.03	-36.9	-38.3	26.2	3.03e+01	92	26	0	65011712	48	6313
2026-01-10 03:52:42.46	216.02	5.10	-36.9	-38.4	26.1	3.03e+01	91	26	0	67108864	48	6392
2026-01-10 03:52:43.46	216.12	5.16	-36.7	-38.2	26.3	3.03e+01	92	26	0	68681728	48	6226
2026-01-10 03:52:44.48	216.22	5.22	-36.8	-38.2	26.3	3.03e+01	92	26	0	70778880	48	6233
2026-01-10 03:52:45.49	216.32	5.28	-36.9	-38.4	26.2	3.03e+01	92	26	0	72876032	48	6380
2026-01-10 03:52:46.50	216.43	5.34	-36.8	-38.3	26.3	3.03e+01	90	26	0	74448896	48	6316
2026-01-10 03:52:47.51	216.53	5.41	-36.7	-38.2	26.4	3.03e+01	92	26	0	76546048	48	6214
2026-01-10 03:52:48.51	216.64	5.47	-36.7	-38.1	26.4	3.03e+01	90	26	0	78118912	48	6189
2026-01-10 03:52:49.52	216.74	5.53	-36.8	-38.3	26.3	3.03e+01	92	26	0	80216064	48	6285
2026-01-10 03:52:50.54	216.85	5.59	-36.7	-38.2	26.4	3.03e+01	89	26	0	82313216	48	6215
2026-01-10 03:52:51.55	216.95	5.66	-36.7	-38.1	26.4	3.03e+01	92	26	0	83886080	48	6154
2026-01-10 03:52:52.56	217.06	5.72	-36.6	-38.0	26.6	3.03e+01	92	26	0	85983232	48	6071
2026-01-10 03:52:53.57	217.17	5.78	-36.4	-37.8	26.7	3.03e+01	92	26	0	88080384	48	5983
2026-01-10 03:52:54.58	217.28	5.84	-36.5	-37.9	26.6	3.03e+01	90	26	0	89653248	48	6001
2026-01-10 03:52:55.59	217.38	5.91	-36.4	-37.8	26.7	3.03e+01	91	26	0	91750400	48	5962
2026-01-10 03:52:56.60	217.49	5.97	-36.5	-37.9	26.7	3.03e+01	91	26	0	93323264	48	6023
2026-01-10 03:52:57.61	217.60	6.03	-36.5	-37.9	26.7	3.03e+01	92	26	0	95420416	48	6049
2026-01-10 03:52:58.62	217.71	6.10	-36.3	-37.7	26.9	3.03e+01	90	26	0	97517568	48	5911
2026-01-10 03:52:59.63	217.82	6.16	-36.5	-37.9	26.7	3.03e+01	90	26	0	99090432	48	6012
2026-01-10 03:53:00.64	217.93	6.22	-36.6	-38.1	26.5	3.03e+01	92	26	0	101187584	48	6137
2026-01-10 03:53:01.65	218.04	6.29	-36.4	-37.8	26.7	3.03e+01	90	26	0	102760448	48	5988
2026-01-10 03:53:02.65	218.15	6.35	-36.4	-37.8	26.7	3.03e+01	92	26	0	104857600	48	5978
2026-01-10 03:53:03.66	218.27	6.41	-36.3	-37.7	26.9	3.03e+01	90	26	0	106954752	48	5887
2026-01-10 03:53:04.67	218.38	6.48	-36.4	-37.8	26.8	3.03e+01	92	26	0	108527616	48	5967
2026-01-10 03:53:05.68	218.49	6.54	-36.4	-37.8	26.8	3.03e+01	92	26	0	110624768	48	5930
2026-01-10 03:53:06.69	218.60	6.60	-36.4	-37.8	26.8	3.03e+01	90	26	0	112197632	48	5959
2026-01-10 03:53:07.70	218.72	6.67	-36.4	-37.8	26.9	3.03e+01	86	26	0	114294784	48	5956
2026-01-10 03:53:08.71	218.83	6.73	-36.3	-37.6	27.0	3.03e+01	91	26	0	116391936	48	5856
2026-01-10 03:53:09.72	218.95	6.80	-36.3	-37.7	26.9	3.03e+01	91	26	0	117964800	48	5879
2026-01-10 03:53:10.73	219.06	6.86	-36.4	-37.7	26.9	3.03e+01	92	26	0	120061952	48	5896
2026-01-10 03:53:11.74	219.18	6.92	-36.4	-37.7	26.9	3.03e+01	92	26	0	121634816	48	5921
2026-01-10 03:53:12.75	219.30	6.99	-36.4	-37.7	26.9	3.03e+01	91	26	0	123731968	48	5916
2026-01-10 03:53:13.76	219.42	7.05	-36.1	-37.5	27.2	3.03e+01	92	26	0	125829120	48	5763
2026-01-10 03:53:14.77	219.53	7.12	-36.1	-37.4	27.2	3.03e+01	92	26	0	127401984	48	5710
2026-01-10 03:53:15.78	219.65	7.18	-36.1	-37.5	27.3	3.03e+01	92	26	0	129499136	48	5731
2026-01-10 03:53:16.79	219.77	7.25	-36.1	-37.4	27.2	3.03e+01	92	26	0	131072000	48	5699
2026-01-10 03:53:17.80	219.89	7.31	-36.1	-37.4	27.2	3.03e+01	92	26	0	133169152	48	5707
2026-01-10 03:53:18.81	220.01	7.38	-36.2	-37.6	27.0	3.03e+01	91	26	0	135266304	48	5826
2026-01-10 03:53:19.82	220.13	7.44	-36.3	-37.7	27.0	3.03e+01	93	26	0	136839168	48	5872
2026-01-10 03:53:20.83	220.25	7.51	-36.3	-37.7	27.0	3.03e+01	92	26	0	138936320	48	5868
2026-01-10 03:53:21.84	220.37	7.57	-36.3	-37.6	27.0	3.03e+01	92	26	0	141033472	48	5858
2026-01-10 03:53:22.85	220.50	7.64	-36.0	-37.4	27.2	3.03e+01	92	26	0	142606336	48	5687
2026-01-10 03:53:23.86	220.62	7.70	-36.1	-37.4	27.2	3.03e+01	92	26	0	144703488	48	5717
2026-01-10 03:53:24.87	220.74	7.77	-36.0	-37.3	27.3	3.03e+01	89	26	0	146276352	48	5617
2026-01-10 03:53:25.88	220.87	7.83	-36.0	-37.4	27.3	3.03e+01	89	26	0	148373504	46	6378
2026-01-10 03:53:26.89	220.99	7.90	-36.2	-37.6	27.0	3.03e+01	90	26	0	150470656	46	6550
2026-01-10 03:53:27.89	221.12	7.96	-36.1	-37.5	27.2	3.03e+01	92	26	0	152043520	46	6439
2026-01-10 03:53:28.90	221.24	8.03	-36.3	-37.7	27.0	3.03e+01	90	26	0	154140672	46	6582
2026-01-10 03:53:29.91	221.37	8.10	-36.2	-37.6	27.1	3.03e+01	90	26	0	156237824	46	6522
2026-01-10 03:53:30.92	221.50	8.16	-36.1	-37.5	27.2	3.03e+01	90	26	0	157810688	46	6445
2026-01-10 03:53:31.93	221.62	8.23	-36.2	-37.5	27.2	3.03e+01	90	26	0	159907840	46	6467
2026-01-10 03:53:32.94	221.75	8.29	-36.1	-37.5	27.2	3.03e+01	91	26	0	161480704	46	6454
2026-01-10 03:53:33.95	221.88	8.36	-35.9	-37.2	27.4	3.03e+01	92	26	0	163577856	46	6274
2026-01-10 03:53:34.96	222.01	8.43	-36.1	-37.4	27.3	3.03e+01	92	26	0	165675008	46	6386
2026-01-10 03:53:35.97	222.14	8.49	-36.1	-37.4	27.3	3.03e+01	92	26	0	167247872	46	6397
2026-01-10 03:53:36.98	222.27	8.56	-36.1	-37.4	27.2	3.03e+01	90	26	0	169345024	46	6386
2026-01-10 03:53:37.99	222.40	8.63	-36.2	-37.5	27.2	3.03e+01	92	26	0	170917888	46	6475
2026-01-10 03:53:39.00	222.54	8.69	-36.2	-37.6	27.3	3.03e+01	93	26	0	173015040	46	6520
2026-01-10 03:53:40.01	222.67	8.76	-36.2	-37.6	27.3	3.03e+01	91	26	0	175112192	46	6519
2026-01-10 03:53:41.01	222.80	8.82	-36.3	-37.6	27.1	3.03e+01	91	26	0	176685056	46	6563
2026-01-10 03:53:42.02	222.93	8.89	-35.9	-37.3	27.4	3.03e+01	90	26	0	178782208	46	6283
2026-01-10 03:53:43.03	223.07	8.96	-36.0	-37.3	27.3	3.03e+01	92	26	0	180355072	46	6321
2026-01-10 03:53:44.04	223.20	9.02	-36.0	-37.4	27.4	3.03e+01	92	26	0	182452224	46	6357
2026-01-10 03:53:45.05	223.34	9.09	-36.1	-37.4	27.3	3.03e+01	92	26	0	184549376	46	6383
2026-01-10 03:53:46.06	223.48	9.16	-36.1	-37.5	27.3	3.03e+01	89	26	0	186122240	46	6430
2026-01-10 03:53:47.07	223.61	9.23	-36.1	-37.5	27.2	3.03e+01	92	26	0	188219392	46	6437
2026-01-10 03:53:48.08	223.75	9.29	-36.3	-37.7	27.1	3.03e+01	91	26	0	189792256	46	6610
2026-01-10 03:53:49.09	223.89	9.36	-36.3	-37.6	27.2	3.03e+01	88	26	0	191889408	46	6545
2026-01-10 03:53:50.10	224.03	9.43	-36.3	-37.6	27.2	3.03e+01	90	26	0	193986560	46	6525
2026-01-10 03:53:51.11	224.17	9.49	-36.1	-37.5	27.3	3.03e+01	92	26	0	195559424	46	6441
2026-01-10 03:53:52.12	224.31	9.56	-36.2	-37.6	27.2	3.03e+01	90	26	0	197656576	46	6520
2026-01-10 03:53:53.13	224.45	9.63	-36.1	-37.5	27.2	3.03e+01	92	26	0	199229440	46	6451
2026-01-10 03:53:54.14	224.59	9.70	-36.1	-37.5	27.2	3.03e+01	90	26	0	201326592	46	6471
2026-01-10 03:53:55.15	224.74	9.76	-36.1	-37.5	27.3	3.03e+01	92	26	0	203423744	46	6436
2026-01-10 03:53:56.16	224.88	9.83	-36.1	-37.4	27.3	3.03e+01	92	26	0	204996608	46	6405
2026-01-10 03:53:57.16	225.02	9.90	-36.0	-37.4	27.3	3.03e+01	92	26	0	207093760	46	6392
2026-01-10 03:53:58.17	225.17	9.97	-36.1	-37.5	27.3	3.03e+01	92	26	0	209190912	46	6431
2026-01-10 03:53:59.19	225.31	10.03	-36.3	-37.6	27.2	3.03e+01	92	26	0	210763776	46	6553
2026-01-10 03:54:00.20	225.46	10.10	-36.1	-37.5	27.3	3.03e+01	92	26	0	212860928	46	6427
2026-01-10 03:54:01.20	225.60	10.17	-36.2	-37.5	27.2	3.03e+01	92	26	0	214433792	46	6494
2026-01-10 03:54:02.21	225.75	10.24	-36.1	-37.5	27.2	3.03e+01	92	26	0	216530944	46	6474
2026-01-10 03:54:03.22	225.90	10.31	-36.1	-37.5	27.3	3.03e+01	92	26	0	218628096	46	6457
2026-01-10 03:54:04.24	226.05	10.37	-36.0	-37.4	27.4	3.03e+01	90	26	0	220200960	46	6389
2026-01-10 03:54:05.24	226.20	10.44	-36.1	-37.5	27.3	3.03e+01	92	26	0	222298112	46	6454
2026-01-10 03:54:06.25	226.35	10.51	-36.1	-37.5	27.3	3.03e+01	90	26	0	223870976	46	6440
2026-01-10 03:54:07.26	226.50	10.58	-36.2	-37.6	27.2	3.03e+01	92	26	0	225968128	46	6536
2026-01-10 03:54:08.27	226.65	10.65	-36.2	-37.6	27.3	3.03e+01	87	26	0	228065280	46	6515
2026-01-10 03:54:09.28	226.80	10.71	-36.2	-37.5	27.3	3.03e+01	92	26	0	229638144	46	6468
2026-01-10 03:54:10.29	226.96	10.78	-36.2	-37.5	27.2	3.03e+01	90	26	0	231735296	46	6494
2026-01-10 03:54:11.30	227.11	10.85	-36.0	-37.4	27.4	3.03e+01	92	26	0	233308160	46	6390
2026-01-10 03:54:12.31	227.27	10.92	-36.0	-37.4	27.4	3.03e+01	90	27	0	235405312	46	6371
2026-01-10 03:54:13.32	227.42	10.99	-36.1	-37.5	27.3	3.03e+01	92	27	0	237502464	46	6452
2026-01-10 03:54:14.33	227.58	11.06	-36.0	-37.4	27.4	3.03e+01	92	26	0	239075328	46	6367
2026-01-10 03:54:15.34	227.74	11.13	-36.1	-37.4	27.4	3.03e+01	92	26	0	241172480	46	6404
2026-01-10 03:54:16.35	227.89	11.19	-36.1	-37.4	27.3	3.03e+01	90	26	0	242745344	46	6382
2026-01-10 03:54:17.36	228.05	11.26	-36.0	-37.4	27.4	3.03e+01	90	26	0	244842496	46	6366
2026-01-10 03:54:18.37	228.21	11.33	-36.1	-37.4	27.4	3.03e+01	92	27	0	246939648	46	6387
2026-01-10 03:54:19.38	228.37	11.40	-36.1	-37.4	27.4	3.03e+01	91	27	0	248512512	46	6395
2026-01-10 03:54:20.39	228.53	11.47	-36.1	-37.4	27.4	3.03e+01	92	27	0	250609664	46	6376
2026-01-10 03:54:21.40	228.70	11.54	-36.2	-37.5	27.3	3.03e+01	92	27	0	252706816	46	6453
2026-01-10 03:54:22.40	228.86	11.60	-36.2	-37.5	27.3	3.03e+01	92	27	0	254279680	46	6442
2026-01-10 03:54:23.41	229.02	11.67	-36.3	-37.6	27.3	3.03e+01	92	27	0	256376832	46	6556
2026-01-10 03:54:24.42	229.18	11.74	-36.0	-37.3	27.4	3.03e+01	92	27	0	257949696	46	6329
2026-01-10 03:54:25.43	229.35	11.81	-35.9	-37.2	27.6	3.03e+01	91	27	0	260046848	46	6270
2026-01-10 03:54:26.44	229.51	11.88	-35.9	-37.2	27.6	3.03e+01	91	27	0	262144000	46	6272
2026-01-10 03:54:27.45	229.68	11.95	-35.9	-37.3	27.5	3.03e+01	83	27	0	263716864	46	6289
2026-01-10 03:54:28.46	229.85	12.02	-36.0	-37.4	27.5	3.03e+01	90	26	0	265814016	46	6364
2026-01-10 03:54:29.47	230.02	12.09	-36.0	-37.3	27.5	3.03e+01	92	26	0	267386880	46	6342
2026-01-10 03:54:30.48	230.19	12.15	-36.0	-37.3	27.5	3.03e+01	88	27	0	269484032	46	6339
2026-01-10 03:54:31.49	230.36	12.22	-35.8	-37.1	27.6	3.03e+01	92	26	0	271581184	46	6205
2026-01-10 03:54:32.50	230.53	12.29	-35.8	-37.2	27.6	3.03e+01	90	26	0	273154048	46	6211
2026-01-10 03:54:33.51	230.70	12.36	-35.9	-37.2	27.6	3.03e+01	92	27	0	275251200	46	6250
2026-01-10 03:54:34.52	230.87	12.43	-35.9	-37.2	27.6	3.03e+01	92	27	0	277348352	46	6260
2026-01-10 03:54:35.53	231.04	12.50	-36.1	-37.4	27.4	3.03e+01	92	26	0	278921216	46	6418
2026-01-10 03:54:36.54	231.22	12.57	-36.0	-37.4	27.4	3.03e+01	92	27	0	281018368	46	6353
2026-01-10 03:54:37.55	231.39	12.64	-35.8	-37.1	27.6	3.03e+01	90	26	0	282591232	46	6205
2026-01-10 03:54:38.56	231.57	12.70	-35.6	-36.9	27.9	3.03e+01	92	26	0	284688384	46	6035
2026-01-10 03:54:39.57	231.75	12.77	-35.7	-37.0	27.8	3.03e+01	90	26	0	286785536	46	6112
2026-01-10 03:54:40.58	231.92	12.84	-35.7	-37.0	27.8	3.03e+01	92	26	0	288358400	46	6115
2026-01-10 03:54:41.59	232.10	12.91	-35.8	-37.0	27.7	3.03e+01	92	27	0	290455552	46	6134
2026-01-10 03:54:42.60	232.28	12.98	-35.7	-37.0	27.8	3.03e+01	92	27	0	292028416	46	6112
2026-01-10 03:54:43.61	232.46	13.05	-35.7	-37.1	27.7	3.03e+01	92	26	0	294125568	46	6140
2026-01-10 03:54:44.62	232.64	13.12	-35.6	-36.9	27.9	3.03e+01	92	26	0	296222720	46	6050
2026-01-10 03:54:45.63	232.82	13.19	-35.6	-36.9	27.9	3.03e+01	92	27	0	297795584	46	6026
2026-01-10 03:54:46.64	233.01	13.25	-35.7	-37.0	27.8	3.03e+01	87	27	0	299892736	46	6112
2026-01-10 03:54:47.65	233.19	13.32	-35.7	-37.0	27.9	3.03e+01	92	26	0	301465600	46	6105
2026-01-10 03:54:48.66	233.37	13.39	-35.6	-36.9	27.9	3.03e+01	92	27	0	303562752	46	6020
2026-01-10 03:54:49.66	233.56	13.46	-35.5	-36.8	28.0	3.03e+01	92	27	0	305659904	46	5965
2026-01-10 03:54:50.67	233.74	13.53	-35.4	-36.7	28.1	3.03e+01	92	27	0	307232768	46	5887
2026-01-10 03:54:51.68	233.93	13.59	-35.5	-36.8	28.0	3.03e+01	92	26	0	309329920	46	5953
2026-01-10 03:54:52.69	234.12	13.66	-35.5	-36.8	28.0	3.03e+01	92	26	0	310902784	46	5961
2026-01-10 03:54:53.70	234.31	13.73	-35.4	-36.7	28.1	3.03e+01	90	26	0	312999936	46	5859
2026-01-10 03:54:54.71	234.50	13.80	-35.4	-36.6	28.1	3.03e+01	91	27	0	315097088	46	5858
2026-01-10 03:54:55.72	234.69	13.87	-35.3	-36.6	28.2	3.03e+01	92	27	0	316669952	46	5806
2026-01-10 03:54:56.73	234.88	13.94	-35.3	-36.6	28.2	3.03e+01	92	26	0	318767104	46	5811
2026-01-10 03:54:57.74	235.07	14.00	-35.2	-36.5	28.3	3.03e+01	92	26	0	320864256	46	5760
2026-01-10 03:54:58.75	235.27	14.07	-35.2	-36.5	28.2	3.03e+01	92	26	0	322437120	46	5765
2026-01-10 03:54:59.76	235.46	14.14	-35.2	-36.4	28.3	3.03e+01	92	27	0	324534272	46	5713
2026-01-10 03:55:00.77	235.66	14.21	-35.0	-36.3	28.4	3.03e+01	92	26	0	326107136	46	5626
2026-01-10 03:55:01.77	235.85	14.27	-35.1	-36.4	28.3	3.03e+01	92	26	0	328204288	46	5683
2026-01-10 03:55:02.79	236.05	14.34	-35.1	-36.3	28.5	3.03e+01	92	26	0	330301440	46	5644
2026-01-10 03:55:03.80	236.25	14.41	-34.8	-36.1	28.6	3.03e+01	92	26	0	331874304	44	6145
2026-01-10 03:55:04.81	236.45	14.48	-34.9	-36.2	28.5	3.03e+01	92	26	0	333971456	44	6217
2026-01-10 03:55:05.82	236.65	14.54	-34.9	-36.2	28.6	3.03e+01	92	26	0	335544320	44	6220
2026-01-10 03:55:06.83	236.85	14.61	-34.9	-36.2	28.6	3.03e+01	92	26	0	337641472	44	6211
2026-01-10 03:55:07.84	237.05	14.68	-34.9	-36.2	28.5	3.03e+01	92	26	0	339738624	44	6225
2026-01-10 03:55:08.85	237.25	14.74	-34.7	-36.0	28.8	3.03e+01	87	26	0	341311488	44	6069
2026-01-10 03:55:09.86	237.46	14.81	-34.8	-36.0	28.7	3.03e+01	88	27	0	343408640	44	6104
2026-01-10 03:55:10.87	237.66	14.88	-34.6	-35.9	28.8	3.03e+01	92	26	0	345505792	44	5999
2026-01-10 03:55:11.88	237.87	14.94	-34.7	-35.9	28.8	3.03e+01	90	26	0	347078656	44	6029
2026-01-10 03:55:12.89	238.07	15.01	-34.6	-35.8	28.9	3.03e+01	91	26	0	349175808	44	5950
2026-01-10 03:55:13.90	238.28	15.08	-34.5	-35.7	29.0	3.03e+01	90	26	0	350748672	44	5910
2026-01-10 03:55:14.91	238.49	15.14	-34.5	-35.8	28.9	3.03e+01	91	26	0	352845824	44	5933
2026-01-10 03:55:15.91	238.70	15.21	-34.4	-35.6	29.1	3.03e+01	90	26	0	354942976	44	5833
2026-01-10 03:55:16.92	238.91	15.27	-34.4	-35.6	29.0	3.03e+01	90	26	0	356515840	44	5856
2026-01-10 03:55:17.93	239.12	15.34	-34.5	-35.7	29.0	3.03e+01	92	26	0	358612992	44	5919
2026-01-10 03:55:18.94	239.33	15.40	-34.4	-35.6	29.1	3.03e+01	92	26	0	360185856	44	5819
2026-01-10 03:55:19.95	239.55	15.47	-34.4	-35.6	29.1	3.03e+01	91	26	0	362283008	44	5813
2026-01-10 03:55:20.96	239.76	15.54	-34.4	-35.6	29.1	3.03e+01	90	27	0	364380160	44	5821
2026-01-10 03:55:21.97	239.97	15.60	-34.5	-35.7	29.1	3.03e+01	92	26	0	365953024	44	5869
2026-01-10 03:55:22.98	240.19	15.67	-34.7	-35.9	28.8	3.03e+01	90	27	0	368050176	44	6020
2026-01-10 03:55:23.99	240.41	15.73	-34.3	-35.5	29.2	3.03e+01	92	26	0	369623040	44	5751
2026-01-10 03:55:25.00	240.63	15.79	-34.1	-35.4	29.3	3.03e+01	90	27	0	371720192	44	5663
2026-01-10 03:55:26.01	240.85	15.86	-34.1	-35.3	29.4	3.03e+01	92	26	0	373817344	44	5623
2026-01-10 03:55:27.02	241.07	15.92	-34.2	-35.4	29.3	3.03e+01	91	27	0	375390208	44	5705
2026-01-10 03:55:28.03	241.29	15.99	-34.1	-35.3	29.4	3.03e+01	91	27	0	377487360	44	5616
2026-01-10 03:55:29.04	241.51	16.05	-34.2	-35.4	29.3	3.03e+01	91	27	0	379060224	44	5682
2026-01-10 03:55:30.05	241.73	16.11	-34.2	-35.4	29.4	3.03e+01	91	26	0	381157376	44	5676
2026-01-10 03:55:31.06	241.96	16.18	-34.3	-35.5	29.2	3.03e+01	90	26	0	383254528	44	5773
2026-01-10 03:55:32.07	242.18	16.24	-34.2	-35.4	29.4	3.03e+01	91	27	0	384827392	44	5695
2026-01-10 03:55:33.08	242.41	16.30	-34.1	-35.3	29.4	3.03e+01	92	27	0	386924544	44	5603
2026-01-10 03:55:34.09	242.63	16.37	-34.0	-35.2	29.4	3.03e+01	90	26	0	389021696	44	5581
2026-01-10 03:55:35.10	242.86	16.43	-34.0	-35.2	29.5	3.03e+01	91	26	0	390594560	44	5547
2026-01-10 03:55:36.11	243.09	16.49	-34.0	-35.1	29.5	3.03e+01	92	26	0	392691712	42	6205
2026-01-10 03:55:37.12	243.32	16.55	-34.1	-35.3	29.5	3.03e+01	92	27	0	394264576	42	6324
2026-01-10 03:55:38.13	243.55	16.61	-34.1	-35.3	29.4	3.03e+01	90	27	0	396361728	42	6344
2026-01-10 03:55:39.14	243.78	16.67	-34.0	-35.2	29.5	3.03e+01	92	27	0	398458880	42	6263
2026-01-10 03:55:40.15	244.02	16.74	-34.0	-35.2	29.5	3.03e+01	91	27	0	400031744	42	6259
2026-01-10 03:55:41.16	244.25	16.80	-34.0	-35.2	29.5	3.03e+01	92	27	0	402128896	42	6252
2026-01-10 03:55:42.17	244.49	16.86	-34.3	-35.5	29.4	3.03e+01	92	27	0	403701760	42	6440
2026-01-10 03:55:43.18	244.72	16.92	-34.3	-35.5	29.2	3.03e+01	92	27	0	405798912	42	6487
2026-01-10 03:55:44.19	244.96	16.98	-34.3	-35.5	29.2	3.03e+01	90	27	0	407896064	42	6447
2026-01-10 03:55:45.19	245.19	17.04	-34.2	-35.4	29.4	3.03e+01	92	27	0	409468928	42	6360
2026-01-10 03:55:46.20	245.43	17.10	-34.2	-35.4	29.3	3.03e+01	92	27	0	411566080	42	6404
2026-01-10 03:55:47.21	245.67	17.16	-34.2	-35.4	29.4	3.03e+01	89	27	0	413663232	42	6363
2026-01-10 03:55:48.22	245.91	17.21	-34.1	-35.3	29.4	3.03e+01	92	27	0	415236096	42	6339
2026-01-10 03:55:49.22	246.15	17.27	-34.3	-35.5	29.3	3.03e+01	91	27	0	417333248	42	6433
2026-01-10 03:55:50.23	246.39	17.33	-34.1	-35.3	29.4	3.03e+01	92	27	0	418906112	42	6340
2026-01-10 03:55:51.24	246.64	17.39	-34.2	-35.4	29.4	3.03e+01	92	27	0	421003264	42	6408
2026-01-10 03:55:52.25	246.88	17.45	-34.3	-35.5	29.3	3.03e+01	90	27	0	422576128	42	6470
2026-01-10 03:55:53.26	247.13	17.50	-34.2	-35.4	29.4	3.03e+01	92	27	0	424673280	42	6358
2026-01-10 03:55:54.27	247.37	17.56	-34.1	-35.3	29.5	3.03e+01	90	27	0	426770432	42	6331
2026-01-10 03:55:55.28	247.62	17.62	-34.2	-35.4	29.3	3.03e+01	92	27	0	428343296	42	6411
2026-01-10 03:55:56.29	247.87	17.67	-34.1	-35.3	29.4	3.03e+01	90	27	0	430440448	42	6346
2026-01-10 03:55:57.30	248.12	17.73	-34.2	-35.3	29.4	3.03e+01	91	27	0	432013312	42	6347
2026-01-10 03:55:58.30	248.37	17.78	-34.2	-35.4	29.4	3.03e+01	91	27	0	434110464	42	6395
2026-01-10 03:55:59.32	248.62	17.84	-34.2	-35.4	29.4	3.03e+01	91	27	0	436207616	42	6400
2026-01-10 03:56:00.33	248.87	17.89	-34.2	-35.4	29.4	3.03e+01	91	27	0	437780480	42	6386
2026-01-10 03:56:01.34	249.13	17.95	-34.1	-35.3	29.4	3.03e+01	92	27	0	439877632	42	6312
2026-01-10 03:56:02.35	249.38	18.00	-34.2	-35.4	29.4	3.03e+01	92	27	0	441974784	42	6373
2026-01-10 03:56:03.36	249.64	18.06	-34.0	-35.2	29.6	3.03e+01	92	27	0	443547648	42	6262
2026-01-10 03:56:04.37	249.89	18.11	-34.2	-35.4	29.4	3.03e+01	91	27	0	445644800	42	6383
2026-01-10 03:56:05.37	250.15	18.16	-34.2	-35.4	29.4	3.03e+01	90	27	0	447217664	42	6383
2026-01-10 03:56:06.38	250.40	18.21	-34.2	-35.4	29.3	3.03e+01	92	27	0	449314816	42	6385
2026-01-10 03:56:07.39	250.66	18.27	-34.2	-35.4	29.4	3.03e+01	91	27	0	451411968	42	6366
2026-01-10 03:56:08.41	250.92	18.32	-34.1	-35.2	29.5	3.03e+01	90	27	0	452984832	42	6262
2026-01-10 03:56:09.41	251.18	18.37	-34.1	-35.3	29.5	3.03e+01	87	27	0	455081984	42	6313
2026-01-10 03:56:10.42	251.44	18.42	-34.2	-35.4	29.4	3.03e+01	89	27	0	457179136	42	6359
2026-01-10 03:56:11.43	251.70	18.47	-34.2	-35.4	29.4	3.03e+01	92	27	0	458752000	42	6383
2026-01-10 03:56:12.44	251.97	18.52	-34.3	-35.5	29.3	3.03e+01	90	27	0	460849152	42	6469
2026-01-10 03:56:13.45	252.23	18.57	-34.3	-35.5	29.4	3.03e+01	92	27	0	462422016	42	6438
2026-01-10 03:56:14.46	252.50	18.62	-34.3	-35.5	29.4	3.03e+01	92	27	0	464519168	42	6462
2026-01-10 03:56:15.47	252.76	18.67	-34.3	-35.5	29.3	3.03e+01	92	27	0	466616320	42	6455
2026-01-10 03:56:16.47	253.03	18.71	-34.2	-35.4	29.3	3.03e+01	90	27	0	468189184	42	6399
2026-01-10 03:56:17.48	253.29	18.76	-34.3	-35.5	29.3	3.03e+01	90	27	0	470286336	42	6465
2026-01-10 03:56:18.49	253.56	18.81	-34.4	-35.6	29.3	3.03e+01	92	27	0	471859200	42	6534
2026-01-10 03:56:19.50	253.83	18.85	-34.4	-35.6	29.2	3.03e+01	92	27	0	473956352	42	6571
2026-01-10 03:56:20.51	254.10	18.90	-34.2	-35.4	29.5	3.03e+01	89	27	0	476053504	42	6365
2026-01-10 03:56:21.52	254.37	18.94	-34.3	-35.5	29.3	3.03e+01	92	27	0	477626368	42	6468
2026-01-10 03:56:22.53	254.64	18.99	-34.3	-35.5	29.3	3.03e+01	92	27	0	479723520	42	6435
2026-01-10 03:56:23.54	254.92	19.03	-34.2	-35.4	29.4	3.03e+01	91	27	0	481296384	42	6403
2026-01-10 03:56:24.55	255.19	19.08	-34.1	-35.3	29.5	3.03e+01	90	27	0	483393536	42	6325
2026-01-10 03:56:25.56	255.46	19.12	-34.3	-35.5	29.3	3.03e+01	90	26	0	485490688	42	6453
2026-01-10 03:56:26.57	255.74	19.16	-34.2	-35.4	29.4	3.03e+01	91	27	0	487063552	42	6400
2026-01-10 03:56:27.58	256.01	19.21	-34.0	-35.2	29.6	3.03e+01	92	27	0	489160704	42	6253
2026-01-10 03:56:28.59	256.29	19.25	-34.1	-35.3	29.5	3.03e+01	92	27	0	490733568	42	6309
2026-01-10 03:56:29.60	256.57	19.29	-34.3	-35.5	29.4	3.03e+01	90	27	0	492830720	42	6442
2026-01-10 03:56:30.61	256.85	19.33	-34.3	-35.5	29.4	3.03e+01	92	27	0	494927872	42	6429
2026-01-10 03:56:31.62	257.12	19.37	-34.3	-35.5	29.3	3.03e+01	92	27	0	496500736	42	6494
2026-01-10 03:56:32.63	257.40	19.41	-34.4	-35.6	29.2	3.03e+01	92	26	0	498597888	42	6563
2026-01-10 03:56:33.64	257.68	19.45	-34.2	-35.4	29.4	3.03e+01	92	27	0	500170752	42	6366
2026-01-10 03:56:34.64	257.96	19.49	-34.2	-35.4	29.4	3.03e+01	91	26	0	502267904	42	6355
2026-01-10 03:56:35.65	258.24	19.52	-34.2	-35.4	29.4	3.03e+01	91	27	0	504365056	42	6377
2026-01-10 03:56:36.66	258.53	19.56	-34.3	-35.5	29.4	3.03e+01	92	26	0	505937920	42	6474
2026-01-10 03:56:37.67	258.81	19.60	-34.2	-35.4	29.4	3.03e+01	92	27	0	508035072	42	6412
2026-01-10 03:56:38.68	259.09	19.63	-34.2	-35.4	29.4	3.03e+01	91	27	0	510132224	42	6378
2026-01-10 03:56:39.69	259.38	19.67	-34.2	-35.4	29.4	3.03e+01	92	27	0	511705088	42	6376
2026-01-10 03:56:40.70	259.66	19.70	-34.3	-35.5	29.4	3.03e+01	90	26	0	513802240	42	6441
2026-01-10 03:56:41.71	259.95	19.74	-34.4	-35.6	29.3	3.03e+01	92	27	0	515375104	42	6502
2026-01-10 03:56:42.72	260.23	19.77	-34.2	-35.4	29.4	3.03e+01	90	27	0	517472256	42	6396
2026-01-10 03:56:43.73	260.52	19.80	-34.3	-35.5	29.4	3.03e+01	92	27	0	519569408	42	6466
2026-01-10 03:56:44.74	260.81	19.83	-34.2	-35.4	29.4	3.03e+01	92	27	0	521142272	42	6387
2026-01-10 03:56:45.75	261.10	19.87	-34.3	-35.5	29.3	3.03e+01	92	27	0	523239424	42	6430
2026-01-10 03:56:46.75	261.38	19.90	-34.2	-35.4	29.5	3.03e+01	92	27	0	524812288	42	6373
2026-01-10 03:56:47.76	261.67	19.93	-34.2	-35.5	29.4	3.03e+01	92	27	0	526909440	42	6424
2026-01-10 03:56:48.77	261.96	19.96	-34.1	-35.3	29.5	3.03e+01	92	27	0	529006592	42	6335
2026-01-10 03:56:49.78	262.25	19.99	-34.3	-35.5	29.3	3.03e+01	92	27	0	530579456	42	6485
2026-01-10 03:56:50.79	262.54	20.01	-34.4	-35.7	29.2	3.03e+01	86	27	0	532676608	42	6582
2026-01-10 03:56:51.79	262.83	20.04	-34.4	-35.6	29.3	3.03e+01	90	27	0	534249472	42	6535
2026-01-10 03:56:52.81	263.13	20.07	-34.4	-35.6	29.3	3.03e+01	92	27	0	536346624	42	6568
2026-01-10 03:56:53.82	263.42	20.09	-34.1	-35.3	29.6	3.03e+01	92	26	0	538443776	42	6298
2026-01-10 03:56:54.83	263.71	20.12	-34.3	-35.5	29.4	3.03e+01	92	27	0	540016640	42	6442
2026-01-10 03:56:55.84	264.01	20.14	-34.2	-35.4	29.3	3.03e+01	90	27	0	542113792	42	6423
2026-01-10 03:56:56.85	264.30	20.17	-34.3	-35.5	29.3	3.03e+01	92	27	0	543686656	42	6482
2026-01-10 03:56:57.85	264.59	20.19	-34.7	-36.0	29.3	3.03e+01	92	27	0	545783808	44	6083
2026-01-10 03:56:58.86	264.89	20.21	-34.4	-35.6	29.3	3.03e+01	92	27	0	547880960	44	5853
2026-01-10 03:56:59.87	265.18	20.24	-34.2	-35.4	29.4	3.03e+01	92	27	0	549453824	44	5703
2026-01-10 03:57:00.88	265.48	20.26	-34.4	-35.6	29.3	3.03e+01	92	26	0	551550976	44	5800
2026-01-10 03:57:01.89	265.78	20.28	-34.2	-35.4	29.4	3.03e+01	92	27	0	553648128	44	5703
2026-01-10 03:57:02.90	266.07	20.30	-34.2	-35.4	29.5	3.03e+01	89	26	0	555220992	44	5690
2026-01-10 03:57:03.91	266.37	20.32	-34.3	-35.5	29.4	3.03e+01	92	26	0	557318144	44	5735
2026-01-10 03:57:04.92	266.67	20.34	-34.3	-35.5	29.3	3.03e+01	91	27	0	558891008	44	5757
2026-01-10 03:57:05.93	266.97	20.35	-34.3	-35.5	29.2	3.03e+01	91	27	0	560988160	44	5767
2026-01-10 03:57:06.94	267.26	20.37	-34.2	-35.4	29.4	3.03e+01	91	27	0	563085312	44	5718
2026-01-10 03:57:07.95	267.56	20.39	-34.3	-35.5	29.2	3.03e+01	92	27	0	564658176	44	5762
2026-01-10 03:57:08.96	267.86	20.40	-34.1	-35.3	29.5	3.03e+01	92	27	0	566755328	44	5630
2026-01-10 03:57:09.97	268.16	20.42	-34.2	-35.4	29.4	3.03e+01	92	27	0	568328192	44	5705
2026-01-10 03:57:10.98	268.46	20.43	-34.4	-35.6	29.2	3.03e+01	90	27	0	570425344	44	5846
2026-01-10 03:57:11.99	268.76	20.44	-34.2	-35.4	29.4	3.03e+01	92	27	0	572522496	44	5685
2026-01-10 03:57:13.00	269.06	20.46	-34.3	-35.5	29.3	3.03e+01	92	27	0	574095360	44	5732
2026-01-10 03:57:14.01	269.36	20.47	-34.0	-35.2	29.5	3.03e+01	92	27	0	576192512	44	5584
2026-01-10 03:57:15.02	269.66	20.48	-34.2	-35.3	29.3	3.03e+01	90	27	0	578289664	44	5659
2026-01-10 03:57:16.03	269.96	20.49	-34.4	-35.6	29.3	3.03e+01	92	27	0	579862528	44	5813
2026-01-10 03:57:17.03	270.26	20.50	-34.3	-35.5	29.3	3.03e+01	92	27	0	581959680	44	5770
2026-01-10 03:57:18.04	270.56	20.51	-34.2	-35.4	29.3	3.03e+01	92	27	0	583532544	44	5687
2026-01-10 03:57:19.05	270.86	20.52	-34.2	-35.4	29.3	3.03e+01	92	27	0	585629696	44	5693
2026-01-10 03:57:20.06	271.16	20.52	-34.2	-35.4	29.4	3.03e+01	92	27	0	587726848	44	5662
2026-01-10 03:57:21.07	271.46	20.53	-34.3	-35.5	29.3	3.03e+01	90	27	0	589299712	44	5757
2026-01-10 03:57:22.08	271.76	20.54	-34.3	-35.5	29.3	3.03e+01	92	27	0	591396864	44	5775
2026-01-10 03:57:23.09	272.07	20.54	-34.0	-35.1	29.6	3.03e+01	91	27	0	592969728	44	5523
2026-01-10 03:57:24.10	272.37	20.55	-34.2	-35.4	29.5	3.03e+01	92	27	0	595066880	44	5692
2026-01-10 03:57:25.11	272.67	20.55	-34.3	-35.5	29.3	3.03e+01	92	27	0	597164032	44	5777
2026-01-10 03:57:26.12	272.97	20.55	-34.2	-35.4	29.4	3.03e+01	92	27	0	598736896	44	5679
2026-01-10 03:57:27.13	273.27	20.55	-34.2	-35.4	29.3	3.03e+01	92	27	0	600834048	44	5718
2026-01-10 03:57:28.14	273.57	20.55	-34.2	-35.4	29.4	3.03e+01	92	27	0	602406912	44	5686
2026-01-10 03:57:29.14	273.87	20.56	-34.0	-35.2	29.5	3.03e+01	92	27	0	604504064	44	5586
2026-01-10 03:57:30.15	274.18	20.55	-34.1	-35.3	29.5	3.03e+01	91	27	0	606601216	44	5647
2026-01-10 03:57:31.16	274.48	20.55	-34.1	-35.3	29.5	3.03e+01	92	27	0	608174080	44	5632
2026-01-10 03:57:32.17	274.78	20.55	-34.1	-35.3	29.4	3.03e+01	90	27	0	610271232	44	5654
2026-01-10 03:57:33.18	275.08	20.55	-34.0	-35.2	29.5	3.03e+01	91	27	0	611844096	44	5564
2026-01-10 03:57:34.19	275.38	20.55	-34.1	-35.3	29.4	3.03e+01	90	27	0	613941248	44	5641
2026-01-10 03:57:35.19	275.68	20.54	-34.0	-35.2	29.5	3.03e+01	92	27	0	616038400	44	5581
2026-01-10 03:57:36.20	275.98	20.54	-34.1	-35.3	29.5	3.03e+01	90	27	0	617611264	44	5605
2026-01-10 03:57:37.21	276.28	20.53	-34.2	-35.4	29.4	3.03e+01	91	27	0	619708416	44	5704
2026-01-10 03:57:38.22	276.59	20.53	-34.1	-35.3	29.4	3.03e+01	90	27	0	621805568	44	5657
2026-01-10 03:57:39.23	276.89	20.52	-34.2	-35.4	29.4	3.03e+01	91	27	0	623378432	44	5675
2026-01-10 03:57:40.24	277.19	20.51	-34.0	-35.2	29.5	3.03e+01	90	27	0	625475584	44	5568
2026-01-10 03:57:41.25	277.49	20.50	-34.0	-35.2	29.6	3.03e+01	91	27	0	627048448	44	5549
2026-01-10 03:57:42.26	277.79	20.49	-34.1	-35.3	29.5	3.03e+01	90	27	0	629145600	44	5608
2026-01-10 03:57:43.27	278.09	20.48	-34.2	-35.4	29.5	3.03e+01	92	27	0	631242752	44	5681
2026-01-10 03:57:44.28	278.39	20.47	-34.1	-35.3	29.4	3.03e+01	92	27	0	632815616	44	5650
2026-01-10 03:57:45.29	278.69	20.46	-34.3	-35.5	29.3	3.03e+01	92	27	0	634912768	44	5748
2026-01-10 03:57:46.30	278.99	20.45	-34.1	-35.3	29.5	3.03e+01	92	27	0	636485632	44	5611
2026-01-10 03:57:47.30	279.29	20.43	-34.0	-35.1	29.6	3.03e+01	92	27	0	638582784	42	6203
2026-01-10 03:57:48.31	279.58	20.42	-34.0	-35.2	29.6	3.03e+01	92	27	0	640679936	42	6264
2026-01-10 03:57:49.32	279.88	20.41	-34.2	-35.4	29.4	3.03e+01	92	27	0	642252800	42	6404
2026-01-10 03:57:50.33	280.18	20.39	-34.2	-35.4	29.4	3.03e+01	90	27	0	644349952	42	6358
2026-01-10 03:57:51.34	280.48	20.37	-34.3	-35.5	29.3	3.03e+01	92	27	0	645922816	42	6473
2026-01-10 03:57:52.35	280.78	20.36	-34.2	-35.4	29.4	3.03e+01	92	27	0	648019968	42	6380
2026-01-10 03:57:53.36	281.08	20.34	-34.2	-35.4	29.4	3.03e+01	92	27	0	650117120	42	6397
2026-01-10 03:57:54.37	281.37	20.32	-34.1	-35.3	29.5	3.03e+01	89	27	0	651689984	42	6313
2026-01-10 03:57:55.38	281.67	20.30	-34.1	-35.3	29.5	3.03e+01	92	27	0	653787136	42	6333
2026-01-10 03:57:56.39	281.97	20.28	-34.0	-35.2	29.6	3.03e+01	92	27	0	655360000	42	6232
2026-01-10 03:57:57.40	282.26	20.26	-34.0	-35.2	29.6	3.03e+01	92	27	0	657457152	42	6228
2026-01-10 03:57:58.41	282.56	20.24	-34.0	-35.2	29.5	3.03e+01	90	27	0	659554304	42	6241
2026-01-10 03:57:59.42	282.85	20.22	-34.1	-35.3	29.5	3.03e+01	92	27	0	661127168	42	6294
2026-01-10 03:58:00.43	283.15	20.20	-33.8	-35.0	29.7	3.03e+01	90	27	0	663224320	42	6119
2026-01-10 03:58:01.44	283.44	20.17	-33.8	-35.0	29.8	3.03e+01	91	27	0	664797184	42	6067
2026-01-10 03:58:02.45	283.74	20.15	-33.9	-35.1	29.6	3.03e+01	90	27	0	666894336	42	6174
2026-01-10 03:58:03.46	284.03	20.13	-34.0	-35.2	29.5	3.03e+01	91	27	0	668991488	42	6276
2026-01-10 03:58:04.47	284.32	20.10	-34.0	-35.1	29.5	3.03e+01	91	27	0	670564352	42	6205
2026-01-10 03:58:05.48	284.61	20.08	-33.9	-35.1	29.7	3.03e+01	92	27	0	672661504	42	6160
2026-01-10 03:58:06.49	284.91	20.05	-33.9	-35.1	29.6	3.03e+01	92	27	0	674758656	42	6181
2026-01-10 03:58:07.50	285.20	20.02	-34.0	-35.2	29.5	3.03e+01	92	27	0	676331520	42	6224
2026-01-10 03:58:08.51	285.49	19.99	-34.0	-35.2	29.5	3.03e+01	92	27	0	678428672	42	6263
2026-01-10 03:58:09.52	285.78	19.96	-33.9	-35.1	29.6	3.03e+01	90	27	0	680001536	42	6195
2026-01-10 03:58:10.53	286.07	19.94	-33.8	-34.9	29.8	3.03e+01	88	27	0	682098688	42	6059
2026-01-10 03:58:11.54	286.36	19.91	-34.0	-35.2	29.5	3.03e+01	89	27	0	684195840	42	6249
2026-01-10 03:58:12.54	286.64	19.88	-34.1	-35.3	29.5	3.03e+01	92	27	0	685768704	42	6331
2026-01-10 03:58:13.55	286.93	19.84	-34.1	-35.3	29.5	3.03e+01	88	27	0	687865856	42	6299
2026-01-10 03:58:14.56	287.22	19.81	-34.2	-35.3	29.3	3.03e+01	92	27	0	689963008	42	6348
2026-01-10 03:58:15.57	287.50	19.78	-33.9	-35.1	29.7	3.03e+01	92	27	0	691535872	42	6174
2026-01-10 03:58:16.58	287.79	19.75	-33.7	-34.9	29.8	3.03e+01	92	27	0	693633024	42	6040
2026-01-10 03:58:17.59	288.07	19.71	-33.9	-35.1	29.7	3.03e+01	91	27	0	695205888	42	6194
2026-01-10 03:58:18.60	288.36	19.68	-34.0	-35.2	29.5	3.03e+01	91	27	0	697303040	42	6244
2026-01-10 03:58:19.61	288.64	19.64	-33.7	-34.9	29.8	3.03e+01	92	27	0	699400192	42	6023
2026-01-10 03:58:20.62	288.92	19.61	-33.7	-34.9	29.8	3.03e+01	90	27	0	700973056	42	6035
2026-01-10 03:58:21.63	289.21	19.57	-33.9	-35.1	29.7	3.03e+01	92	27	0	703070208	42	6138
2026-01-10 03:58:22.64	289.49	19.53	-33.9	-35.1	29.5	3.03e+01	92	27	0	704643072	42	6184
2026-01-10 03:58:23.65	289.77	19.50	-33.7	-34.8	29.8	3.03e+01	92	27	0	706740224	42	5989
2026-01-10 03:58:24.66	290.05	19.46	-33.6	-34.8	29.8	3.03e+01	91	27	0	708837376	42	5976
2026-01-10 03:58:25.67	290.33	19.42	-33.7	-34.9	29.9	3.03e+01	60	27	0	710410240	42	6001
2026-01-10 03:58:26.68	290.61	19.38	-33.8	-35.0	29.7	3.03e+01	59	27	0	712507392	42	6090
2026-01-10 03:58:27.69	290.89	19.34	-33.9	-35.1	29.6	3.03e+01	58	27	0	714080256	42	6146
2026-01-10 03:58:28.70	291.16	19.30	-33.8	-34.9	29.7	3.03e+01	57	27	0	716177408	42	6064
2026-01-10 03:58:29.70	291.44	19.26	-33.8	-34.9	29.8	3.03e+01	59	27	0	718274560	42	6056
2026-01-10 03:58:30.72	291.72	19.22	-33.8	-35.0	29.7	3.03e+01	45	27	0	719847424	42	6067
2026-01-10 03:58:31.73	291.99	19.18	-33.7	-34.9	29.8	3.03e+01	56	27	0	721944576	42	5997
2026-01-10 03:58:32.73	292.26	19.14	-33.8	-35.0	29.8	3.03e+01	62	27	0	723517440	42	6115
2026-01-10 03:58:33.74	292.54	19.09	-33.6	-34.8	30.0	3.03e+01	57	27	0	725614592	42	5955
2026-01-10 03:58:34.75	292.81	19.05	-33.7	-34.9	29.8	3.03e+01	60	27	0	727711744	42	6020
2026-01-10 03:58:35.76	293.08	19.01	-33.7	-34.9	29.7	3.03e+01	58	27	0	729284608	42	6035
2026-01-10 03:58:36.77	293.35	18.96	-33.7	-34.9	29.8	3.03e+01	61	27	0	731381760	42	6009
2026-01-10 03:58:37.78	293.62	18.92	-33.8	-34.9	29.8	3.03e+01	56	27	0	732954624	42	6056
2026-01-10 03:58:38.79	293.89	18.87	-33.7	-34.9	29.8	3.03e+01	58	27	0	735051776	42	6024
2026-01-10 03:58:39.80	294.16	18.82	-33.7	-34.9	29.8	3.03e+01	59	27	0	737148928	42	6023
2026-01-10 03:58:40.81	294.43	18.78	-33.7	-34.8	29.8	3.03e+01	55	27	0	738721792	42	5994
2026-01-10 03:58:41.82	294.69	18.73	-33.8	-34.9	29.8	3.03e+01	61	27	0	740818944	42	6060
2026-01-10 03:58:42.83	294.96	18.68	-33.9	-35.1	29.7	3.03e+01	59	27	0	742916096	42	6143
2026-01-10 03:58:43.84	295.23	18.64	-33.8	-35.0	29.7	3.03e+01	45	27	0	744488960	42	6097
2026-01-10 03:58:44.85	295.49	18.59	-33.8	-35.0	29.7	3.03e+01	60	27	0	746586112	42	6115
2026-01-10 03:58:45.86	295.75	18.54	-33.7	-34.9	29.8	3.03e+01	59	27	0	748158976	42	6048
2026-01-10 03:58:46.87	296.02	18.49	-33.5	-34.7	29.9	3.03e+01	60	27	0	750256128	42	5912
2026-01-10 03:58:47.88	296.28	18.44	-33.5	-34.6	30.0	3.03e+01	61	27	0	752353280	42	5855
2026-01-10 03:58:48.89	296.54	18.39	-33.7	-34.9	29.8	3.03e+01	45	27	0	753926144	42	6006
2026-01-10 03:58:49.90	296.80	18.34	-33.6	-34.8	29.8	3.03e+01	57	27	0	756023296	42	5988
2026-01-10 03:58:50.90	297.05	18.29	-33.5	-34.7	29.9	3.03e+01	61	27	0	757596160	42	5894
2026-01-10 03:58:51.91	297.31	18.24	-33.4	-34.5	30.0	3.03e+01	50	27	0	759693312	42	5784
2026-01-10 03:58:52.92	297.57	18.18	-33.4	-34.6	30.0	3.03e+01	61	27	0	761790464	42	5846
2026-01-10 03:58:53.93	297.82	18.13	-33.6	-34.7	29.9	3.03e+01	61	27	0	763363328	42	5919
2026-01-10 03:58:54.94	298.08	18.08	-33.6	-34.8	29.9	3.03e+01	58	27	0	765460480	42	5952
2026-01-10 03:58:55.95	298.33	18.03	-33.7	-34.9	29.8	3.03e+01	57	27	0	767033344	42	6010
2026-01-10 03:58:56.96	298.59	17.97	-33.7	-34.9	29.8	3.03e+01	58	27	0	769130496	42	6008
2026-01-10 03:58:57.96	298.84	17.92	-33.5	-34.7	29.9	3.03e+01	62	27	0	771227648	42	5900
2026-01-10 03:58:58.97	299.09	17.86	-33.5	-34.7	29.9	3.03e+01	59	27	0	772800512	42	5909
2026-01-10 03:58:59.98	299.34	17.81	-33.5	-34.7	29.9	3.03e+01	49	27	0	774897664	42	5896
2026-01-10 03:59:00.99	299.59	17.75	-33.7	-34.9	29.8	3.03e+01	61	27	0	776470528	42	6043
2026-01-10 03:59:02.00	299.84	17.70	-33.7	-34.9	29.7	3.03e+01	59	27	0	778567680	42	6006
2026-01-10 03:59:03.01	300.08	17.64	-33.5	-34.7	30.0	3.03e+01	57	27	0	780664832	42	5882
2026-01-10 03:59:04.02	300.33	17.59	-33.5	-34.7	30.0	3.03e+01	59	27	0	782237696	42	5876
2026-01-10 03:59:05.03	300.58	17.53	-33.6	-34.8	29.9	3.03e+01	53	27	0	784334848	42	5932
2026-01-10 03:59:06.04	300.82	17.47	-33.6	-34.8	29.9	3.03e+01	61	27	0	786432000	42	5934
2026-01-10 03:59:07.05	301.07	17.42	-33.5	-34.7	29.9	3.03e+01	58	27	0	788004864	42	5919
2026-01-10 03:59:08.06	301.31	17.36	-33.4	-34.6	30.0	3.03e+01	40	27	0	790102016	42	5816
2026-01-10 03:59:09.06	301.55	17.30	-33.4	-34.6	30.0	3.03e+01	61	27	0	791674880	42	5852
2026-01-10 03:59:10.07	301.79	17.24	-33.5	-34.7	29.9	3.03e+01	57	27	0	793772032	42	5884
2026-01-10 03:59:11.08	302.03	17.19	-33.5	-34.7	29.9	3.03e+01	57	27	0	795869184	42	5860
2026-01-10 03:59:12.09	302.27	17.13	-33.4	-34.6	29.9	3.03e+01	58	27	0	797442048	42	5842
2026-01-10 03:59:13.10	302.51	17.07	-33.4	-34.6	29.9	3.03e+01	56	27	0	799539200	42	5857
2026-01-10 03:59:14.11	302.74	17.01	-33.4	-34.6	30.0	3.03e+01	60	27	0	801112064	42	5815
2026-01-10 03:59:15.12	302.98	16.95	-33.4	-34.6	30.0	3.03e+01	58	27	0	803209216	42	5841
2026-01-10 03:59:16.13	303.21	16.89	-33.5	-34.7	29.9	3.03e+01	61	27	0	805306368	42	5887
2026-01-10 03:59:17.14	303.45	16.83	-33.5	-34.7	29.9	3.03e+01	58	27	0	806879232	42	5912
2026-01-10 03:59:18.15	303.68	16.77	-33.5	-34.7	29.9	3.03e+01	60	27	0	808976384	42	5888
2026-01-10 03:59:19.16	303.91	16.71	-33.4	-34.6	30.0	3.03e+01	61	27	0	811073536	42	5811
2026-01-10 03:59:20.17	304.14	16.65	-33.5	-34.7	29.8	3.03e+01	60	27	0	812646400	42	5878
2026-01-10 03:59:21.18	304.37	16.59	-33.4	-34.5	30.0	3.03e+01	53	27	0	814743552	42	5788
2026-01-10 03:59:22.19	304.60	16.53	-33.4	-34.6	29.9	3.03e+01	60	27	0	816316416	42	5834
2026-01-10 03:59:23.19	304.83	16.46	-33.4	-34.6	30.0	3.03e+01	60	27	0	818413568	42	5807
2026-01-10 03:59:24.20	305.06	16.40	-33.4	-34.6	29.9	3.03e+01	61	27	0	819986432	42	5846
2026-01-10 03:59:25.22	305.29	16.34	-33.4	-34.6	29.9	3.03e+01	61	27	0	822083584	42	5844
2026-01-10 03:59:26.22	305.51	16.28	-33.5	-34.7	29.8	3.03e+01	45	27	0	824180736	42	5885
2026-01-10 03:59:27.23	305.73	16.22	-33.5	-34.7	29.9	3.03e+01	58	27	0	825753600	42	5894
2026-01-10 03:59:28.24	305.96	16.15	-33.5	-34.7	29.9	3.03e+01	58	27	0	827850752	42	5871
2026-01-10 03:59:29.25	306.18	16.09	-33.5	-34.7	29.9	3.03e+01	44	27	0	829423616	42	5876
2026-01-10 03:59:30.26	306.40	16.03	-33.4	-34.6	30.0	3.03e+01	55	27	0	831520768	42	5801
2026-01-10 03:59:31.27	306.62	15.96	-33.4	-34.6	30.0	3.03e+01	58	27	0	833617920	42	5831
2026-01-10 03:59:32.28	306.84	15.90	-33.5	-34.7	29.9	3.03e+01	57	27	0	835190784	42	5906
2026-01-10 03:59:33.29	307.06	15.84	-33.5	-34.7	29.9	3.03e+01	62	27	0	837287936	42	5912
2026-01-10 03:59:34.30	307.28	15.77	-33.5	-34.7	29.9	3.03e+01	63	27	0	839385088	42	5859
2026-01-10 03:59:35.31	307.49	15.71	-33.5	-34.6	29.9	3.03e+01	59	27	0	840957952	42	5849
2026-01-10 03:59:36.31	307.71	15.64	-33.4	-34.6	29.9	3.03e+01	60	27	0	843055104	42	5839
2026-01-10 03:59:37.32	307.92	15.58	-33.4	-34.5	30.0	3.03e+01	45	27	0	844627968	42	5785
2026-01-10 03:59:38.34	308.14	15.51	-33.5	-34.6	29.9	3.03e+01	62	27	0	846725120	42	5850
2026-01-10 03:59:39.35	308.35	15.45	-33.5	-34.7	29.9	3.03e+01	59	27	0	848822272	42	5907
2026-01-10 03:59:40.36	308.56	15.38	-33.7	-34.8	29.8	3.03e+01	60	27	0	850395136	42	5992
2026-01-10 03:59:41.37	308.77	15.32	-33.6	-34.8	29.8	3.03e+01	58	27	0	852492288	42	5930
2026-01-10 03:59:42.38	308.98	15.25	-33.7	-34.9	29.7	3.03e+01	49	27	0	854589440	42	6011
2026-01-10 03:59:43.39	309.19	15.19	-33.7	-34.8	29.7	3.03e+01	59	27	0	856162304	42	5986
2026-01-10 03:59:44.40	309.40	15.12	-33.5	-34.6	29.9	3.03e+01	59	27	0	858259456	42	5857
2026-01-10 03:59:45.40	309.60	15.06	-33.5	-34.7	29.9	3.03e+01	46	27	0	859832320	42	5886
2026-01-10 03:59:46.41	309.81	14.99	-33.5	-34.7	29.9	3.03e+01	58	27	0	861929472	42	5883
2026-01-10 03:59:47.42	310.02	14.93	-33.5	-34.7	29.9	3.03e+01	59	27	0	864026624	42	5904
2026-01-10 03:59:48.43	310.22	14.86	-33.5	-34.7	29.8	3.03e+01	58	27	0	865599488	42	5924
2026-01-10 03:59:49.44	310.42	14.79	-33.4	-34.6	30.0	3.03e+01	60	27	0	867696640	42	5827
2026-01-10 03:59:50.45	310.63	14.73	-33.5	-34.7	29.9	3.03e+01	52	27	0	869269504	42	5874
2026-01-10 03:59:51.46	310.83	14.66	-33.6	-34.8	29.8	3.03e+01	59	27	0	871366656	42	5966
2026-01-10 03:59:52.47	311.03	14.60	-33.4	-34.6	29.8	3.03e+01	53	27	0	873463808	42	5850
2026-01-10 03:59:53.48	311.23	14.53	-33.4	-34.6	29.9	3.03e+01	54	27	0	875036672	42	5825
2026-01-10 03:59:54.49	311.42	14.46	-33.4	-34.6	29.9	3.03e+01	60	27	0	877133824	42	5840
2026-01-10 03:59:55.50	311.62	14.40	-33.5	-34.7	29.9	3.03e+01	58	27	0	878706688	42	5875
2026-01-10 03:59:56.51	311.82	14.33	-33.6	-34.8	29.7	3.03e+01	59	27	0	880803840	42	5949
2026-01-10 03:59:57.51	312.01	14.26	-33.7	-34.9	29.7	3.03e+01	56	27	0	882900992	42	6035
2026-01-10 03:59:58.52	312.21	14.19	-34.0	-35.2	29.6	3.03e+01	45	27	0	884473856	42	6224
2026-01-10 03:59:59.53	312.40	14.13	-33.8	-35.0	29.5	3.03e+01	60	27	0	886571008	42	6124
2026-01-10 04:00:00.54	312.59	14.06	-33.7	-34.9	29.7	3.03e+01	61	27	0	888143872	42	6002
2026-01-10 04:00:01.55	312.79	13.99	-33.8	-35.0	29.5	3.03e+01	62	27	0	890241024	42	6132
2026-01-10 04:00:02.56	312.98	13.93	-33.6	-34.8	29.7	3.03e+01	59	27	0	892338176	42	5990
2026-01-10 04:00:03.56	313.17	13.86	-33.6	-34.8	29.7	3.03e+01	47	27	0	893911040	42	5976
2026-01-10 04:00:04.57	313.36	13.79	-33.6	-34.8	29.8	3.03e+01	58	27	0	896008192	42	5974
2026-01-10 04:00:05.58	313.54	13.72	-33.6	-34.7	29.8	3.03e+01	56	27	0	897581056	42	5924
2026-01-10 04:00:06.59	313.73	13.66	-33.6	-34.8	29.8	3.03e+01	48	27	0	899678208	42	5942
2026-01-10 04:00:07.60	313.92	13.59	-33.7	-34.9	29.6	3.03e+01	60	27	0	901775360	42	6045
2026-01-10 04:00:08.61	314.10	13.52	-33.6	-34.8	29.6	3.03e+01	57	27	0	903348224	42	5981
2026-01-10 04:00:09.62	314.29	13.45	-33.7	-34.9	29.6	3.03e+01	57	27	0	905445376	42	6039
2026-01-10 04:00:10.63	314.47	13.39	-33.8	-35.0	29.6	3.03e+01	58	27	0	907542528	42	6080
2026-01-10 04:00:11.64	314.66	13.32	-33.7	-34.9	29.7	3.03e+01	53	27	0	909115392	42	6011
2026-01-10 04:00:12.65	314.84	13.25	-33.6	-34.8	29.7	3.03e+01	57	27	0	911212544	42	5990
2026-01-10 04:00:13.66	315.02	13.18	-33.7	-34.9	29.7	3.03e+01	59	27	0	912785408	42	6002
2026-01-10 04:00:14.67	315.20	13.11	-33.7	-34.9	29.6	3.03e+01	43	27	0	914882560	42	6007
2026-01-10 04:00:15.68	315.38	13.05	-33.8	-35.0	29.6	3.03e+01	60	27	0	916979712	42	6091
2026-01-10 04:00:16.69	315.56	12.98	-33.8	-35.0	29.5	3.03e+01	60	27	0	918552576	42	6115
2026-01-10 04:00:17.69	315.73	12.91	-33.8	-35.0	29.5	3.03e+01	57	27	0	920649728	42	6108
2026-01-10 04:00:18.70	315.91	12.84	-33.8	-35.0	29.5	3.03e+01	59	27	0	922222592	42	6092
2026-01-10 04:00:19.71	316.09	12.77	-33.8	-35.0	29.5	3.03e+01	57	27	0	924319744	42	6122
2026-01-10 04:00:20.72	316.26	12.71	-33.8	-35.0	29.5	3.03e+01	56	27	0	926416896	42	6088
2026-01-10 04:00:21.73	316.44	12.64	-33.9	-35.1	29.4	3.03e+01	61	27	0	927989760	42	6142
2026-01-10 04:00:22.74	316.61	12.57	-33.8	-35.0	29.4	3.03e+01	46	27	0	930086912	42	6113
2026-01-10 04:00:23.75	316.78	12.50	-33.9	-35.2	29.4	3.03e+01	62	27	0	931659776	42	6208
2026-01-10 04:00:24.76	316.96	12.43	-33.9	-35.1	29.5	3.03e+01	55	27	0	933756928	42	6155
2026-01-10 04:00:25.77	317.13	12.36	-34.0	-35.2	29.4	3.03e+01	60	27	0	935854080	42	6232
2026-01-10 04:00:26.78	317.30	12.30	-34.1	-35.4	29.2	3.03e+01	58	27	0	937426944	42	6371
2026-01-10 04:00:27.79	317.47	12.23	-33.9	-35.1	29.4	3.03e+01	60	27	0	939524096	42	6205
2026-01-10 04:00:28.80	317.64	12.16	-33.9	-35.1	29.4	3.03e+01	60	27	0	941096960	42	6162
2026-01-10 04:00:29.80	317.80	12.09	-34.0	-35.2	29.3	3.03e+01	60	27	0	943194112	42	6228
2026-01-10 04:00:30.82	317.97	12.02	-34.1	-35.3	29.2	3.03e+01	58	27	0	945291264	42	6317
2026-01-10 04:00:31.82	318.14	11.96	-34.0	-35.2	29.3	3.03e+01	60	27	0	946864128	42	6264
2026-01-10 04:00:32.83	318.30	11.89	-33.9	-35.1	29.4	3.03e+01	44	27	0	948961280	42	6157
2026-01-10 04:00:33.84	318.47	11.82	-33.9	-35.1	29.3	3.03e+01	61	27	0	951058432	42	6202
2026-01-10 04:00:34.85	318.63	11.75	-33.9	-35.1	29.4	3.03e+01	60	27	0	952631296	42	6203
2026-01-10 04:00:35.86	318.79	11.68	-34.0	-35.2	29.3	3.03e+01	46	27	0	954728448	42	6236
2026-01-10 04:00:36.87	318.96	11.62	-33.9	-35.1	29.4	3.03e+01	60	27	0	956301312	42	6170
2026-01-10 04:00:37.88	319.12	11.55	-34.0	-35.2	29.3	3.03e+01	58	27	0	958398464	42	6274
2026-01-10 04:00:38.89	319.28	11.48	-34.1	-35.3	29.2	3.03e+01	59	26	0	960495616	42	6307
2026-01-10 04:00:39.90	319.44	11.41	-34.2	-35.4	29.2	3.03e+01	57	27	0	962068480	42	6396
2026-01-10 04:00:40.91	319.60	11.34	-34.1	-35.4	29.1	3.03e+01	49	26	0	964165632	42	6355
2026-01-10 04:00:41.91	319.75	11.28	-34.3	-35.5	29.0	3.03e+01	59	27	0	965738496	42	6463
2026-01-10 04:00:42.92	319.91	11.21	-34.2	-35.4	29.1	3.03e+01	59	27	0	967835648	42	6412
2026-01-10 04:00:43.93	320.07	11.14	-34.2	-35.4	29.1	3.03e+01	50	27	0	969932800	42	6367
2026-01-10 04:00:44.94	320.23	11.07	-34.1	-35.4	29.1	3.03e+01	58	27	0	971505664	42	6362
2026-01-10 04:00:45.95	320.38	11.00	-34.2	-35.5	29.0	3.03e+01	60	27	0	973602816	42	6438
2026-01-10 04:00:46.96	320.54	10.94	-34.2	-35.4	29.1	3.03e+01	59	27	0	975699968	42	6396
2026-01-10 04:00:47.97	320.69	10.87	-34.2	-35.5	29.0	3.03e+01	60	27	0	977272832	42	6446
2026-01-10 04:00:48.98	320.84	10.80	-34.3	-35.5	29.0	3.03e+01	56	27	0	979369984	42	6460
2026-01-10 04:00:49.99	320.99	10.73	-34.3	-35.5	29.0	3.03e+01	63	26	0	980942848	42	6464
2026-01-10 04:00:51.00	321.15	10.67	-34.4	-35.6	28.9	3.03e+01	57	27	0	983040000	42	6551
2026-01-10 04:00:52.01	321.30	10.60	-34.3	-35.5	29.0	3.03e+01	50	27	0	984612864	42	6476
2026-01-10 04:00:53.01	321.45	10.53	-34.2	-35.5	29.0	3.03e+01	58	27	0	986710016	42	6435
2026-01-10 04:00:54.02	321.60	10.46	-34.2	-35.5	29.0	3.03e+01	60	27	0	988807168	42	6442
2026-01-10 04:00:55.03	321.74	10.40	-34.4	-35.7	28.8	3.03e+01	61	27	0	990380032	42	6586
2026-01-10 04:00:56.04	321.89	10.33	-34.4	-35.6	28.9	3.03e+01	59	27	0	992477184	42	6556
2026-01-10 04:00:57.05	322.04	10.26	-34.2	-35.4	29.1	3.03e+01	46	27	0	994050048	42	6417
2026-01-10 04:00:58.06	322.19	10.19	-34.3	-35.5	29.0	3.03e+01	59	27	0	996147200	42	6478
2026-01-10 04:00:59.07	322.33	10.13	-34.5	-35.7	28.8	3.03e+01	57	27	0	998244352	42	6609
2026-01-10 04:01:00.08	322.48	10.06	-34.4	-35.6	28.9	3.03e+01	47	27	0	999817216	42	6565
2026-01-10 04:01:01.09	322.62	9.99	-34.4	-35.7	28.9	3.03e+01	61	27	0	1001914368	42	6594
2026-01-10 04:01:02.10	322.77	9.92	-34.4	-35.6	28.9	3.03e+01	60	26	0	1004011520	42	6560
2026-01-10 04:01:03.11	322.91	9.86	-34.4	-35.6	28.9	3.03e+01	61	27	0	1005584384	42	6563
2026-01-10 04:01:04.12	323.05	9.79	-34.4	-35.6	28.8	3.03e+01	59	26	0	1007681536	42	6572
2026-01-10 04:01:05.13	323.19	9.72	-34.5	-35.7	28.8	3.03e+01	59	26	0	1009254400	42	6620
2026-01-10 04:01:06.14	323.33	9.66	-34.5	-35.8	28.7	3.03e+01	58	27	0	1011351552	42	6676
2026-01-10 04:01:07.14	323.47	9.59	-34.5	-35.8	28.7	3.03e+01	60	26	0	1013448704	42	6656
2026-01-10 04:01:08.15	323.61	9.52	-34.6	-35.9	28.6	3.03e+01	61	26	0	1015021568	42	6728
2026-01-10 04:01:09.16	323.75	9.46	-34.7	-36.0	28.5	3.03e+01	59	26	0	1017118720	42	6816
2026-01-10 04:01:10.17	323.89	9.39	-34.7	-35.9	28.5	3.03e+01	47	27	0	1019215872	42	6785
2026-01-10 04:01:11.18	324.03	9.32	-34.5	-35.8	28.7	3.03e+01	60	27	0	1020788736	42	6668
2026-01-10 04:01:12.19	324.17	9.26	-34.6	-35.8	28.6	3.03e+01	59	27	0	1022885888	42	6680
2026-01-10 04:01:13.20	324.30	9.19	-34.5	-35.8	28.6	3.03e+01	47	26	0	1024458752	42	6673
2026-01-10 04:01:14.21	324.44	9.12	-34.6	-35.8	28.7	3.03e+01	57	26	0	1026555904	42	6688
2026-01-10 04:01:15.22	324.57	9.06	-34.6	-35.8	28.6	3.03e+01	57	26	0	1028653056	42	6705
2026-01-10 04:01:16.23	324.71	8.99	-34.6	-35.9	28.5	3.03e+01	59	26	0	1030225920	42	6749
2026-01-10 04:01:17.24	324.84	8.93	-34.7	-35.9	28.5	3.03e+01	58	26	0	1032323072	42	6793
2026-01-10 04:01:18.24	324.97	8.86	-34.7	-35.9	28.5	3.03e+01	47	26	0	1033895936	42	6801
2026-01-10 04:01:19.25	325.11	8.79	-34.7	-36.0	28.5	3.03e+01	59	27	0	1035993088	42	6807
2026-01-10 04:01:20.26	325.24	8.73	-34.9	-36.2	28.3	3.03e+01	58	26	0	1038090240	42	6980
2026-01-10 04:01:21.27	325.37	8.66	-34.8	-36.0	28.5	3.03e+01	44	26	0	1039663104	42	6863
2026-01-10 04:01:22.28	325.50	8.60	-34.9	-36.2	28.3	3.03e+01	59	26	0	1041760256	42	6984
2026-01-10 04:01:23.29	325.63	8.53	-34.8	-36.1	28.4	3.03e+01	60	26	0	1043333120	42	6928
2026-01-10 04:01:24.30	325.76	8.47	-34.9	-36.2	28.2	3.03e+01	55	27	0	1045430272	42	7024
2026-01-10 04:01:25.31	325.89	8.40	-35.0	-36.2	28.2	3.03e+01	58	26	0	1047527424	44	6268
2026-01-10 04:01:26.32	326.02	8.33	-35.0	-36.3	28.1	3.03e+01	52	27	0	1049100288	44	6316
2026-01-10 04:01:27.33	326.15	8.27	-35.0	-36.3	28.2	3.03e+01	56	26	0	1051197440	44	6291
2026-01-10 04:01:28.34	326.27	8.20	-34.8	-36.1	28.2	3.03e+01	57	27	0	1052770304	44	6151
2026-01-10 04:01:29.35	326.40	8.14	-35.0	-36.3	28.1	3.03e+01	48	26	0	1054867456	44	6323
2026-01-10 04:01:30.36	326.53	8.07	-34.9	-36.2	28.2	3.03e+01	61	27	0	1056964608	44	6226
2026-01-10 04:01:31.37	326.65	8.01	-35.0	-36.3	28.2	3.03e+01	55	26	0	1058537472	44	6308
2026-01-10 04:01:32.38	326.78	7.94	-35.0	-36.2	28.1	3.03e+01	59	26	0	1060634624	44	6269
2026-01-10 04:01:33.38	326.90	7.88	-35.0	-36.3	28.1	3.03e+01	59	26	0	1062207488	44	6328
2026-01-10 04:01:34.39	327.02	7.81	-35.1	-36.4	28.0	3.03e+01	52	27	0	1064304640	44	6379
2026-01-10 04:01:35.40	327.15	7.75	-35.1	-36.4	28.0	3.03e+01	59	26	0	1066401792	44	6357
2026-01-10 04:01:36.41	327.27	7.68	-35.1	-36.4	28.0	3.03e+01	58	26	0	1067974656	44	6404
2026-01-10 04:01:37.42	327.39	7.62	-35.1	-36.4	27.9	3.03e+01	47	26	0	1070071808	44	6416
2026-01-10 04:01:38.42	327.51	7.56	-35.1	-36.4	27.9	3.03e+01	55	26	0	1072168960	44	6382
2026-01-10 04:01:39.43	327.63	7.49	-35.2	-36.5	27.9	3.03e+01	57	26	0	1073741824	44	6444
2026-01-10 04:01:40.44	327.75	7.43	-35.0	-36.3	28.0	3.03e+01	61	26	0	1075838976	44	6334
2026-01-10 04:01:41.45	327.87	7.36	-35.1	-36.4	27.9	3.03e+01	58	26	0	1077411840	44	6388
2026-01-10 04:01:42.46	327.99	7.30	-35.1	-36.4	27.9	3.03e+01	51	26	0	1079508992	44	6407
2026-01-10 04:01:43.47	328.11	7.23	-35.0	-36.3	28.0	3.03e+01	63	26	0	1081606144	44	6333
2026-01-10 04:01:44.48	328.23	7.17	-35.1	-36.4	27.9	3.03e+01	60	26	0	1083179008	44	6380
2026-01-10 04:01:45.49	328.35	7.11	-35.1	-36.4	27.9	3.03e+01	55	26	0	1085276160	44	6394
2026-01-10 04:01:46.50	328.46	7.04	-35.2	-36.5	27.8	3.03e+01	59	26	0	1086849024	44	6458
2026-01-10 04:01:47.51	328.58	6.98	-35.2	-36.6	27.7	3.03e+01	45	26	0	1088946176	44	6525
2026-01-10 04:01:48.52	328.69	6.91	-35.2	-36.6	27.8	3.03e+01	58	26	0	1091043328	44	6516
2026-01-10 04:01:49.53	328.81	6.85	-35.1	-36.5	27.9	3.03e+01	62	26	0	1092616192	44	6426
2026-01-10 04:01:50.54	328.92	6.79	-35.3	-36.6	27.7	3.03e+01	53	27	0	1094713344	44	6547
2026-01-10 04:01:51.55	329.04	6.72	-35.3	-36.7	27.6	3.03e+01	60	27	0	1096286208	44	6585
2026-01-10 04:01:52.56	329.15	6.66	-35.5	-36.8	27.5	3.03e+01	58	26	0	1098383360	44	6677
2026-01-10 04:01:53.57	329.27	6.60	-35.3	-36.6	27.7	3.03e+01	52	26	0	1100480512	44	6559
2026-01-10 04:01:54.58	329.38	6.53	-35.4	-36.8	27.6	3.03e+01	58	26	0	1102053376	44	6662
2026-01-10 04:01:55.59	329.49	6.47	-35.4	-36.8	27.5	3.03e+01	48	26	0	1104150528	44	6650
2026-01-10 04:01:56.59	329.60	6.41	-35.5	-36.8	27.5	3.03e+01	60	26	0	1105723392	44	6689
2026-01-10 04:01:57.60	329.71	6.35	-35.6	-37.0	27.3	3.03e+01	56	26	0	1107820544	44	6821
2026-01-10 04:01:58.61	329.82	6.28	-35.6	-37.0	27.4	3.03e+01	52	26	0	1109917696	44	6818
2026-01-10 04:01:59.62	329.93	6.22	-35.6	-36.9	27.3	3.03e+01	57	26	0	1111490560	44	6774
2026-01-10 04:02:00.63	330.04	6.16	-35.7	-37.1	27.2	3.03e+01	58	27	0	1113587712	44	6888
2026-01-10 04:02:01.64	330.15	6.09	-36.3	-46.5	3.6	3.03e+01	0	26	104	1114636288	46	18294
2026-01-10 04:02:02.65	330.26	6.03	-36.3	-46.6	3.6	3.03e+01	0	26	104	1114636288	46	18391
2026-01-10 04:02:03.65	330.37	5.97	-36.6	-46.8	3.6	3.03e+01	0	26	104	1114636288	46	18952
2026-01-10 04:02:04.67	330.48	5.91	-36.3	-46.6	3.6	3.03e+01	0	27	104	1114636288	46	18361
2026-01-10 04:02:05.67	330.59	5.85	-38.0	-48.5	3.4	3.03e+01	0	26	104	1114636288	48	20485
2026-01-10 04:02:06.68	330.69	5.78	-42.6	-54.2	3.5	3.03e+01	0	27	104	1114636288	50	34924
2026-01-10 04:02:07.69	330.80	5.72	-45.1	-58.5	3.6	3.03e+01	0	27	104	1114636288	60	32402
2026-01-10 04:02:08.70	330.90	5.66	-37.2	-47.6	3.6	3.03e+01	0	27	104	1114636288	50	16338
2026-01-10 04:02:09.70	331.01	5.60	-38.4	-48.9	3.6	3.03e+01	0	26	104	1114636288	52	16898
2026-01-10 04:02:10.71	331.11	5.54	-37.8	-48.1	3.4	3.03e+01	0	26	104	1114636288	50	17436
2026-01-10 04:02:11.72	331.22	5.48	-37.3	-47.6	3.6	3.03e+01	0	26	104	1114636288	50	16503
2026-01-10 04:02:12.73	331.32	5.41	-37.3	-47.6	3.6	3.03e+01	0	26	104	1114636288	50	16335
2026-01-10 04:02:13.74	331.43	5.35	-36.4	-46.7	3.4	3.03e+01	0	26	104	1114636288	48	16549
2026-01-10 04:02:14.75	331.53	5.29	-38.3	-48.6	4.0	3.03e+01	0	26	104	1114636288	48	20690
2026-01-10 04:02:15.76	331.63	5.23	-43.0	-54.7	3.8	3.03e+01	0	27	104	1114636288	56	26393
2026-01-10 04:02:16.77	331.74	5.17	-46.1	-62.3	3.4	3.03e+01	0	26	104	1114636288	60	50064
2026-01-10 04:02:17.78	331.84	5.11	-38.5	-48.9	4.1	3.03e+01	0	26	104	1114636288	48	21351
2026-01-10 04:02:18.79	331.94	5.05	-39.1	-49.5	4.0	3.03e+01	0	26	104	1114636288	54	16285
2026-01-10 04:02:19.80	332.04	4.98	-39.2	-49.7	4.0	3.03e+01	0	26	104	1114636288	52	18603
2026-01-10 04:02:20.81	332.14	4.92	-39.7	-50.4	3.6	3.03e+01	0	26	104	1114636288	52	20236
2026-01-10 04:02:21.82	332.24	4.86	-40.0	-50.9	3.5	3.03e+01	0	26	104	1114636288	54	19065
2026-01-10 04:02:22.83	332.34	4.80	-39.0	-49.8	3.5	3.03e+01	0	26	104	1114636288	54	16818
2026-01-10 04:02:23.84	332.44	4.74	-41.9	-53.6	3.5	3.03e+01	0	26	104	1114636288	56	23218
2026-01-10 04:02:24.85	332.54	4.68	-44.0	-60.7	3.5	3.03e+01	0	26	104	1114636288	60	41715
2026-01-10 04:02:25.86	332.64	4.62	-42.3	-56.6	3.5	3.03e+01	0	27	104	1114636288	60	25930
2026-01-10 04:02:26.87	332.73	4.56	-41.3	-53.0	3.5	3.03e+01	0	27	104	1114636288	56	21707
2026-01-10 04:02:27.88	332.83	4.50	-41.4	-53.6	3.5	3.03e+01	0	26	104	1114636288	58	20700
2026-01-10 04:02:28.89	332.93	4.44	-41.7	-54.5	3.5	3.03e+01	0	26	104	1114636288	58	23038
2026-01-10 04:02:29.90	333.03	4.38	-42.0	-55.3	3.5	3.03e+01	0	26	104	1114636288	58	25252
2026-01-10 04:02:30.91	333.12	4.32	-42.5	-56.7	3.5	3.03e+01	0	27	104	1114636288	58	29692
2026-01-10 04:02:31.92	333.22	4.26	-42.7	-58.3	3.5	3.03e+01	0	27	104	1114636288	58	35487
2026-01-10 04:02:32.93	333.31	4.20	-43.1	-59.0	3.5	3.03e+01	0	26	104	1114636288	60	34280
2026-01-10 04:02:33.94	333.41	4.14	-43.1	-60.7	3.5	3.03e+01	0	27	104	1114636288	60	41844
2026-01-10 04:02:34.94	333.50	4.08	-43.2	-61.0	3.5	3.03e+01	0	27	104	1114636288	60	43380
2026-01-10 04:02:35.95	333.60	4.02	-43.2	-59.6	3.5	3.03e+01	0	26	104	1114636288	60	36944
2026-01-10 04:02:36.96	333.69	3.96	-43.2	-60.1	3.6	3.03e+01	0	27	104	1114636288	60	38846
2026-01-10 04:02:37.97	333.78	3.90	-43.2	-60.4	3.5	3.03e+01	0	27	104	1114636288	60	40168
2026-01-10 04:02:38.98	333.88	3.84	-43.2	-60.5	3.5	3.03e+01	0	27	104	1114636288	60	40992
2026-01-10 04:02:39.99	333.97	3.78	-43.2	-60.7	3.5	3.03e+01	0	26	104	1114636288	60	41681
2026-01-10 04:02:41.00	334.06	3.73	-43.2	-60.9	3.5	3.03e+01	0	27	104	1114636288	60	42848
2026-01-10 04:02:42.00	334.15	3.67	-43.1	-61.0	3.5	3.03e+01	0	27	104	1114636288	60	43080
2026-01-10 04:02:43.01	334.25	3.61	-43.1	-61.1	3.5	3.03e+01	0	27	104	1114636288	60	43641
2026-01-10 04:02:44.02	334.34	3.55	-43.2	-61.1	3.5	3.03e+01	0	27	104	1114636288	60	43528
