passes_logs/2026/01/10/R4.6S_Anadyr/R4.6S_Anadyr__20260110_024629_JILIN-1_GAOFEN_03D18_rec.log

#Pass ID: 20260110_024629_JILIN-1 GAOFEN 03D18
#Satellite: JILIN-1 GAOFEN 03D18
#Configuration: 03D_900M
#almurnet v.1.7.20251203
#Start time: 2026-01-10 02:48:22

#Version: 2.2.20231116
#Station: R4.6S_Anadyr
#Location: 177.4865 lon 64.73178 lat
#TLE: 1 51844U 22019W   26008.94646942  .00071153  00000+0  80959-3 0  9996
#TLE: 2 51844  97.3768  98.1789 0006212 335.8554  24.2411 15.62042813214980

#Time	Az	El	Level	Level2	SNR	BER	BlckErr	Temp	State	Recorded	gain1	gain2
2026-01-10 02:48:22.56	354.33	5.95	-47.9	-62.7	3.5	1.51e+00	0	25	0	0	60	49571
2026-01-10 02:48:23.57	354.11	6.00	-44.6	-47.0	6.1	0.00e+00	0	26	104	0	60	27431
2026-01-10 02:48:24.58	353.89	6.05	-44.5	-46.9	6.1	0.00e+00	0	26	104	0	60	27100
2026-01-10 02:48:25.59	353.67	6.10	-44.6	-47.0	6.1	0.00e+00	0	26	104	0	60	27307
2026-01-10 02:48:26.60	353.45	6.15	-44.7	-47.1	6.1	0.00e+00	0	26	104	0	60	27771
2026-01-10 02:48:27.61	353.23	6.20	-44.8	-47.2	6.1	0.00e+00	0	26	104	0	60	27969
2026-01-10 02:48:28.62	353.00	6.25	-44.8	-47.2	6.1	0.00e+00	0	26	104	0	60	28025
2026-01-10 02:48:29.63	352.78	6.30	-44.9	-47.3	6.1	0.00e+00	0	26	104	0	60	28426
2026-01-10 02:48:30.63	352.55	6.35	-44.7	-47.1	6.1	0.00e+00	0	26	104	0	60	27642
2026-01-10 02:48:31.64	352.33	6.40	-44.5	-46.9	6.1	0.00e+00	0	26	104	0	60	26956
2026-01-10 02:48:32.65	352.10	6.45	-44.3	-46.6	6.1	0.00e+00	0	26	104	0	60	26155
2026-01-10 02:48:33.66	351.87	6.50	-44.0	-46.4	6.1	0.00e+00	0	26	104	0	60	25569
2026-01-10 02:48:34.67	351.64	6.55	-43.9	-46.3	6.1	0.00e+00	0	26	104	0	60	25167
2026-01-10 02:48:35.68	351.41	6.60	-43.9	-46.3	6.1	0.00e+00	0	26	104	0	60	25177
2026-01-10 02:48:36.69	351.17	6.64	-43.8	-46.2	6.1	0.00e+00	0	26	104	0	60	25008
2026-01-10 02:48:37.70	350.94	6.69	-43.8	-46.2	6.1	0.00e+00	0	26	104	0	60	25032
2026-01-10 02:48:38.71	350.71	6.74	-43.8	-46.2	6.1	0.00e+00	0	26	104	0	60	25004
2026-01-10 02:48:39.72	350.47	6.79	-43.8	-46.2	6.1	0.00e+00	0	26	104	0	60	24963
2026-01-10 02:48:40.73	350.23	6.84	-43.8	-46.1	6.1	0.00e+00	0	26	104	0	60	24779
2026-01-10 02:48:41.74	349.99	6.88	-43.8	-46.1	6.1	0.00e+00	0	26	104	0	60	24735
2026-01-10 02:48:42.75	349.76	6.93	-43.8	-46.1	6.1	0.00e+00	0	26	104	0	60	24811
2026-01-10 02:48:43.76	349.51	6.98	-43.8	-46.1	6.0	0.00e+00	0	26	104	0	60	24845
2026-01-10 02:48:44.77	349.27	7.03	-43.7	-46.2	6.1	0.00e+00	0	26	104	0	60	24907
2026-01-10 02:48:45.78	349.03	7.07	-43.8	-46.2	6.1	0.00e+00	0	26	104	0	60	24934
2026-01-10 02:48:46.79	348.79	7.12	-43.8	-46.1	6.1	0.00e+00	0	26	104	0	60	24769
2026-01-10 02:48:47.80	348.54	7.17	-43.7	-46.1	6.1	0.00e+00	0	26	104	0	60	24843
2026-01-10 02:48:48.81	348.30	7.21	-43.7	-46.1	6.1	0.00e+00	0	26	104	0	60	24695
2026-01-10 02:48:49.82	348.05	7.26	-43.7	-46.1	6.1	0.00e+00	0	26	104	0	60	24778
2026-01-10 02:48:50.83	347.80	7.30	-43.7	-46.1	6.0	0.00e+00	0	26	104	0	60	24798
2026-01-10 02:48:51.84	347.55	7.35	-43.7	-46.1	6.1	0.00e+00	0	26	104	0	60	24811
2026-01-10 02:48:52.85	347.30	7.39	-43.7	-46.1	6.1	0.00e+00	0	26	104	0	60	24588
2026-01-10 02:48:53.86	347.05	7.44	-43.7	-46.1	6.1	0.00e+00	0	26	104	0	60	24619
2026-01-10 02:48:54.87	346.80	7.48	-43.7	-46.1	6.1	0.00e+00	0	26	104	0	60	24661
2026-01-10 02:48:55.88	346.54	7.53	-43.7	-46.1	6.1	0.00e+00	0	26	104	0	60	24717
2026-01-10 02:48:56.89	346.29	7.57	-43.7	-46.1	6.1	0.00e+00	0	26	104	0	60	24616
2026-01-10 02:48:57.90	346.03	7.61	-43.7	-46.1	6.1	0.00e+00	0	26	104	0	60	24728
2026-01-10 02:48:58.91	345.78	7.66	-43.7	-46.0	6.1	0.00e+00	0	26	104	0	60	24373
2026-01-10 02:48:59.92	345.52	7.70	-43.7	-46.0	6.1	0.00e+00	0	26	104	0	60	24423
2026-01-10 02:49:00.93	345.26	7.74	-43.7	-46.1	6.1	0.00e+00	0	26	104	0	60	24614
2026-01-10 02:49:01.94	345.00	7.78	-43.7	-46.1	6.1	0.00e+00	0	26	104	0	60	24602
2026-01-10 02:49:02.95	344.74	7.83	-43.7	-46.1	6.1	0.00e+00	0	26	104	0	60	24586
2026-01-10 02:49:03.96	344.48	7.87	-43.7	-46.0	6.1	0.00e+00	0	26	104	0	60	24512
2026-01-10 02:49:04.97	344.21	7.91	-43.7	-46.0	6.1	0.00e+00	0	26	104	0	60	24551
2026-01-10 02:49:05.98	343.95	7.95	-43.7	-46.0	6.1	0.00e+00	0	26	104	0	60	24543
2026-01-10 02:49:06.99	343.68	7.99	-43.7	-46.0	6.1	0.00e+00	0	26	104	0	60	24551
2026-01-10 02:49:08.00	343.42	8.03	-43.7	-46.0	6.1	0.00e+00	0	26	104	0	60	24577
2026-01-10 02:49:09.01	343.15	8.07	-43.7	-46.0	6.1	0.00e+00	0	26	104	0	60	24557
2026-01-10 02:49:10.02	342.88	8.11	-43.7	-46.0	6.1	0.00e+00	0	26	104	0	60	24491
2026-01-10 02:49:11.03	342.61	8.15	-43.7	-46.0	6.1	0.00e+00	0	26	104	0	60	24560
2026-01-10 02:49:12.04	342.34	8.19	-43.7	-46.0	6.1	0.00e+00	0	27	104	0	60	24532
2026-01-10 02:49:13.05	342.07	8.23	-43.7	-46.0	6.1	0.00e+00	0	27	104	0	60	24553
2026-01-10 02:49:14.06	341.80	8.27	-43.6	-46.0	6.1	0.00e+00	0	27	104	0	60	24517
2026-01-10 02:49:15.07	341.53	8.30	-43.6	-46.0	6.1	0.00e+00	0	27	104	0	60	24451
2026-01-10 02:49:16.08	341.25	8.34	-43.6	-46.0	6.1	0.00e+00	0	27	104	0	60	24508
2026-01-10 02:49:17.09	340.98	8.38	-43.6	-46.0	6.1	0.00e+00	0	27	104	0	60	24466
2026-01-10 02:49:18.10	340.70	8.41	-43.7	-46.2	6.1	0.00e+00	0	27	104	0	60	24990
2026-01-10 02:49:19.10	340.42	8.45	-44.0	-46.4	6.1	0.00e+00	0	27	104	0	60	25549
2026-01-10 02:49:20.12	340.14	8.49	-43.9	-46.3	6.0	0.00e+00	0	27	104	0	60	25156
2026-01-10 02:49:21.12	339.87	8.52	-43.9	-46.3	6.1	0.00e+00	0	27	104	0	60	25189
2026-01-10 02:49:22.13	339.59	8.56	-43.8	-46.2	6.1	0.00e+00	0	27	104	0	60	24992
2026-01-10 02:49:23.14	339.31	8.59	-43.9	-46.3	6.1	0.00e+00	0	27	104	0	60	25207
2026-01-10 02:49:24.15	339.02	8.63	-43.6	-46.1	6.0	0.00e+00	0	27	104	0	60	24683
2026-01-10 02:49:25.16	338.74	8.66	-43.9	-46.3	6.1	0.00e+00	0	27	104	0	60	25246
2026-01-10 02:49:26.17	338.46	8.69	-43.8	-46.1	6.1	0.00e+00	0	27	104	0	60	24826
2026-01-10 02:49:27.17	338.17	8.72	-43.9	-46.3	6.1	0.00e+00	0	27	104	0	60	25384
2026-01-10 02:49:28.18	337.89	8.76	-43.8	-46.2	6.1	0.00e+00	0	27	104	0	60	24981
2026-01-10 02:49:29.19	337.60	8.79	-43.8	-46.2	6.1	0.00e+00	0	27	104	0	60	25105
2026-01-10 02:49:30.21	337.31	8.82	-43.8	-46.2	6.1	0.00e+00	0	27	104	0	60	25035
2026-01-10 02:49:31.21	337.03	8.85	-43.9	-46.3	6.1	0.00e+00	0	27	104	0	60	25249
2026-01-10 02:49:32.22	336.74	8.88	-43.8	-46.2	6.0	0.00e+00	0	27	104	0	60	24993
2026-01-10 02:49:33.23	336.45	8.91	-43.8	-46.2	6.0	0.00e+00	0	27	104	0	60	24947
2026-01-10 02:49:34.24	336.16	8.94	-43.8	-46.2	6.1	0.00e+00	0	27	104	0	60	24936
2026-01-10 02:49:35.25	335.87	8.97	-43.8	-46.2	6.1	0.00e+00	0	27	104	0	60	25132
2026-01-10 02:49:36.26	335.57	9.00	-43.8	-46.1	6.1	0.00e+00	0	27	104	0	60	24810
2026-01-10 02:49:37.27	335.28	9.03	-43.8	-46.2	6.1	0.00e+00	0	27	104	0	60	25033
2026-01-10 02:49:38.28	334.99	9.05	-43.8	-46.2	6.1	0.00e+00	0	27	104	0	60	25066
2026-01-10 02:49:39.29	334.69	9.08	-43.9	-46.2	6.1	0.00e+00	0	27	104	0	60	25137
2026-01-10 02:49:40.30	334.40	9.11	-43.8	-46.1	6.1	0.00e+00	0	27	104	0	60	24850
2026-01-10 02:49:41.31	334.10	9.13	-43.8	-46.2	6.1	0.00e+00	0	27	104	0	60	24952
2026-01-10 02:49:42.31	333.81	9.16	-43.8	-46.2	6.1	0.00e+00	0	27	104	0	60	24930
2026-01-10 02:49:43.32	333.51	9.18	-43.9	-46.3	6.1	0.00e+00	0	27	104	0	60	25164
2026-01-10 02:49:44.33	333.21	9.21	-43.8	-46.1	6.1	0.00e+00	0	27	104	0	60	24758
2026-01-10 02:49:45.34	332.91	9.23	-43.9	-46.2	6.1	0.00e+00	0	27	104	0	60	25062
2026-01-10 02:49:46.35	332.61	9.26	-43.8	-46.2	6.1	0.00e+00	0	27	104	0	60	25143
2026-01-10 02:49:47.36	332.31	9.28	-43.8	-46.2	6.1	0.00e+00	0	27	104	0	60	25058
2026-01-10 02:49:48.37	332.01	9.30	-43.9	-46.3	6.1	0.00e+00	0	27	104	0	60	25262
2026-01-10 02:49:49.38	331.71	9.32	-43.9	-46.2	6.1	0.00e+00	0	27	104	0	60	25070
2026-01-10 02:49:50.39	331.40	9.34	-43.8	-46.2	6.1	0.00e+00	0	27	104	0	60	25028
2026-01-10 02:49:51.40	331.10	9.36	-43.8	-46.2	6.1	0.00e+00	0	27	104	0	60	24949
2026-01-10 02:49:52.41	330.80	9.38	-43.8	-46.2	6.1	0.00e+00	0	27	104	0	60	24936
2026-01-10 02:49:53.42	330.49	9.40	-43.8	-46.2	6.1	0.00e+00	0	27	104	0	60	24993
2026-01-10 02:49:54.43	330.19	9.42	-43.8	-46.2	6.1	0.00e+00	0	27	104	0	60	24983
2026-01-10 02:49:55.44	329.88	9.44	-43.7	-46.1	6.1	0.00e+00	0	27	104	0	60	24602
2026-01-10 02:49:56.45	329.58	9.46	-43.8	-46.1	6.1	0.00e+00	0	27	104	0	60	24840
2026-01-10 02:49:57.46	329.27	9.48	-43.7	-46.1	6.1	0.00e+00	0	27	104	0	60	24717
2026-01-10 02:49:58.47	328.97	9.49	-43.8	-46.1	6.1	0.00e+00	0	27	104	0	60	24771
2026-01-10 02:49:59.48	328.66	9.51	-43.7	-46.1	6.1	0.00e+00	0	27	104	0	60	24710
2026-01-10 02:50:00.48	328.35	9.52	-43.7	-46.1	6.1	0.00e+00	0	27	104	0	60	24717
2026-01-10 02:50:01.49	328.05	9.54	-43.7	-46.1	6.1	0.00e+00	0	27	104	0	60	24755
2026-01-10 02:50:02.50	327.74	9.55	-43.8	-46.2	6.1	0.00e+00	0	27	104	0	60	24928
2026-01-10 02:50:03.51	327.43	9.57	-43.7	-46.1	6.1	0.00e+00	0	27	104	0	60	24620
2026-01-10 02:50:04.52	327.12	9.58	-43.8	-46.2	6.1	0.00e+00	0	27	104	0	60	24958
2026-01-10 02:50:05.53	326.81	9.59	-43.7	-46.2	6.1	0.00e+00	0	27	104	0	60	24925
2026-01-10 02:50:06.54	326.50	9.60	-43.8	-46.2	6.1	0.00e+00	0	27	104	0	60	24891
2026-01-10 02:50:07.55	326.19	9.61	-43.6	-46.1	6.1	0.00e+00	0	27	104	0	60	24681
2026-01-10 02:50:08.56	325.88	9.63	-43.6	-46.1	6.1	0.00e+00	0	27	104	0	60	24727
2026-01-10 02:50:09.57	325.57	9.64	-43.4	-46.0	6.1	0.00e+00	0	27	104	0	60	24422
2026-01-10 02:50:10.58	325.26	9.64	-43.7	-46.1	6.1	0.00e+00	0	27	104	0	60	24654
2026-01-10 02:50:11.58	324.95	9.65	-43.6	-46.1	6.1	0.00e+00	0	27	104	0	60	24758
2026-01-10 02:50:12.59	324.64	9.66	-43.7	-46.1	6.1	0.00e+00	0	27	104	0	60	24829
2026-01-10 02:50:13.60	324.32	9.67	-43.4	-46.0	6.1	0.00e+00	0	27	104	0	60	24538
2026-01-10 02:50:14.61	324.01	9.68	-43.7	-46.1	6.1	0.00e+00	0	27	104	0	60	24818
2026-01-10 02:50:15.62	323.70	9.68	-43.7	-46.1	6.1	0.00e+00	0	27	104	0	60	24862
2026-01-10 02:50:16.63	323.39	9.69	-43.8	-46.2	6.1	0.00e+00	0	27	104	0	60	24985
2026-01-10 02:50:17.64	323.07	9.69	-43.7	-46.1	6.1	0.00e+00	0	27	104	0	60	24767
2026-01-10 02:50:18.65	322.76	9.70	-43.9	-46.2	6.1	0.00e+00	0	27	104	0	60	24982
2026-01-10 02:50:19.66	322.45	9.70	-43.8	-46.2	6.1	0.00e+00	0	27	104	0	60	24871
2026-01-10 02:50:20.67	322.13	9.70	-43.8	-46.1	6.1	0.00e+00	0	27	104	0	60	24839
2026-01-10 02:50:21.67	321.82	9.71	-43.7	-46.1	6.1	0.00e+00	0	27	104	0	60	24704
2026-01-10 02:50:22.68	321.51	9.71	-43.7	-46.1	6.1	0.00e+00	0	27	104	0	60	24838
2026-01-10 02:50:23.69	321.20	9.71	-43.7	-46.2	6.1	0.00e+00	0	27	104	0	60	24911
2026-01-10 02:50:24.70	320.88	9.71	-43.8	-46.2	6.1	0.00e+00	0	27	104	0	60	25058
2026-01-10 02:50:25.71	320.57	9.71	-43.8	-46.2	6.1	0.00e+00	0	27	104	0	60	24957
2026-01-10 02:50:26.72	320.26	9.71	-43.9	-46.3	6.1	0.00e+00	0	27	104	0	60	25176
2026-01-10 02:50:27.73	319.94	9.71	-43.8	-46.2	6.1	0.00e+00	0	27	104	0	60	24902
2026-01-10 02:50:28.74	319.63	9.71	-43.8	-46.2	6.1	0.00e+00	0	27	104	0	60	24876
2026-01-10 02:50:29.75	319.32	9.70	-43.7	-46.1	6.1	0.00e+00	0	27	104	0	60	24616
2026-01-10 02:50:30.76	319.00	9.70	-43.7	-46.1	6.1	0.00e+00	0	27	104	0	60	24726
2026-01-10 02:50:31.77	318.69	9.70	-43.6	-46.0	6.1	0.00e+00	0	27	104	0	60	24565
2026-01-10 02:50:32.78	318.38	9.69	-43.8	-46.1	6.1	0.00e+00	0	27	104	0	60	24840
2026-01-10 02:50:33.79	318.07	9.69	-43.7	-46.1	6.1	0.00e+00	0	27	104	0	60	24736
2026-01-10 02:50:34.80	317.75	9.68	-43.7	-46.1	6.1	0.00e+00	0	27	104	0	60	24750
2026-01-10 02:50:35.81	317.44	9.67	-43.8	-46.1	6.1	0.00e+00	0	27	104	0	60	24800
2026-01-10 02:50:36.82	317.13	9.67	-43.9	-46.2	6.0	0.00e+00	0	27	104	0	60	25067
2026-01-10 02:50:37.83	316.82	9.66	-43.8	-46.2	6.0	0.00e+00	0	27	104	0	60	24924
2026-01-10 02:50:38.84	316.50	9.65	-43.9	-46.2	6.1	0.00e+00	0	27	104	0	60	25137
2026-01-10 02:50:39.84	316.20	9.64	-43.8	-46.2	6.1	0.00e+00	0	27	104	0	60	24882
2026-01-10 02:50:40.85	315.88	9.63	-43.7	-46.2	6.0	0.00e+00	0	27	104	0	60	24907
2026-01-10 02:50:41.86	315.57	9.62	-43.8	-46.1	6.1	0.00e+00	0	27	104	0	60	24855
2026-01-10 02:50:42.87	315.26	9.61	-43.7	-46.1	6.1	0.00e+00	0	27	104	0	60	24627
2026-01-10 02:50:43.87	314.95	9.60	-43.6	-46.1	6.1	0.00e+00	0	27	104	0	60	24583
2026-01-10 02:50:44.88	314.64	9.59	-43.7	-46.1	6.1	0.00e+00	0	27	104	0	60	24763
2026-01-10 02:50:45.89	314.33	9.58	-43.6	-46.0	6.0	0.00e+00	0	27	104	0	60	24482
2026-01-10 02:50:46.90	314.03	9.56	-43.7	-46.1	6.1	0.00e+00	0	27	104	0	60	24818
2026-01-10 02:50:47.91	313.72	9.55	-43.7	-46.0	6.1	0.00e+00	0	27	104	0	60	24542
2026-01-10 02:50:48.92	313.41	9.54	-43.8	-46.2	6.1	0.00e+00	0	27	104	0	60	24932
2026-01-10 02:50:49.93	313.10	9.52	-43.7	-46.1	6.1	0.00e+00	0	27	104	0	60	24832
2026-01-10 02:50:50.94	312.79	9.50	-43.8	-46.2	6.1	0.00e+00	0	27	104	0	60	24932
2026-01-10 02:50:51.95	312.48	9.49	-43.7	-46.1	6.1	0.00e+00	0	27	104	0	60	24666
2026-01-10 02:50:52.95	312.18	9.47	-43.6	-46.1	6.1	0.00e+00	0	27	104	0	60	24608
2026-01-10 02:50:53.96	311.87	9.45	-43.8	-46.1	6.1	0.00e+00	0	27	104	0	60	24754
2026-01-10 02:50:54.97	311.57	9.44	-43.8	-46.2	6.1	0.00e+00	0	27	104	0	60	24990
2026-01-10 02:50:55.98	311.26	9.42	-43.6	-46.0	6.1	0.00e+00	0	27	104	0	60	24451
2026-01-10 02:50:56.98	310.96	9.40	-43.6	-45.9	6.1	0.00e+00	0	27	104	0	60	24273
2026-01-10 02:50:57.99	310.66	9.38	-43.8	-46.2	6.1	0.00e+00	0	27	104	0	60	24886
2026-01-10 02:50:59.00	310.35	9.36	-43.7	-46.1	6.1	0.00e+00	0	27	104	0	60	24825
2026-01-10 02:51:00.01	310.05	9.34	-43.4	-45.8	6.1	0.00e+00	0	27	104	0	60	23926
2026-01-10 02:51:01.02	309.75	9.32	-43.4	-45.8	6.1	0.00e+00	0	27	104	0	60	23916
2026-01-10 02:51:02.03	309.45	9.30	-43.6	-46.0	6.1	0.00e+00	0	27	104	0	60	24527
2026-01-10 02:51:03.04	309.14	9.27	-43.5	-46.0	6.1	0.00e+00	0	27	104	0	60	24298
2026-01-10 02:51:04.05	308.84	9.25	-43.2	-45.7	6.1	0.00e+00	0	27	104	0	60	23498
2026-01-10 02:51:05.06	308.54	9.23	-42.9	-45.5	6.1	0.00e+00	0	27	104	0	60	23061
2026-01-10 02:51:06.07	308.24	9.20	-43.2	-45.7	6.1	0.00e+00	0	27	104	0	60	23479
2026-01-10 02:51:07.08	307.95	9.18	-43.5	-45.9	6.1	0.00e+00	0	27	104	0	60	24273
2026-01-10 02:51:08.09	307.65	9.15	-43.4	-45.8	6.1	0.00e+00	0	27	104	0	60	23908
2026-01-10 02:51:09.10	307.35	9.13	-43.3	-45.9	6.1	0.00e+00	0	27	104	0	60	24038
2026-01-10 02:51:10.11	307.05	9.10	-43.1	-45.6	6.1	0.00e+00	0	27	104	0	60	23338
2026-01-10 02:51:11.12	306.76	9.08	-43.3	-45.8	6.1	0.00e+00	0	27	104	0	60	23812
2026-01-10 02:51:12.13	306.46	9.05	-43.1	-45.6	6.1	0.00e+00	0	27	104	0	60	23345
2026-01-10 02:51:13.14	306.17	9.02	-43.3	-45.8	6.1	0.00e+00	0	27	104	0	60	23937
2026-01-10 02:51:14.15	305.88	8.99	-43.4	-45.8	6.1	0.00e+00	0	27	104	0	60	23957
2026-01-10 02:51:15.16	305.58	8.96	-43.4	-45.9	6.0	0.00e+00	0	27	104	0	60	24113
2026-01-10 02:51:16.16	305.29	8.93	-43.5	-46.0	6.1	0.00e+00	0	27	104	0	60	24305
2026-01-10 02:51:17.18	305.00	8.90	-43.4	-45.9	6.1	0.00e+00	0	27	104	0	60	24060
2026-01-10 02:51:18.18	304.71	8.87	-43.3	-45.8	6.1	0.00e+00	0	27	104	0	60	23927
2026-01-10 02:51:19.19	304.42	8.84	-43.6	-46.0	6.1	0.00e+00	0	27	104	0	60	24437
2026-01-10 02:51:20.20	304.13	8.81	-43.5	-45.9	6.1	0.00e+00	0	27	104	0	60	24124
2026-01-10 02:51:21.21	303.85	8.78	-43.6	-46.0	6.1	0.00e+00	0	27	104	0	60	24449
2026-01-10 02:51:22.22	303.56	8.75	-43.5	-45.9	6.1	0.00e+00	0	27	104	0	60	24225
2026-01-10 02:51:23.23	303.27	8.72	-43.6	-46.1	6.1	0.00e+00	0	27	104	0	60	24622
2026-01-10 02:51:24.24	302.99	8.68	-43.6	-46.1	6.1	0.00e+00	0	27	104	0	60	24599
2026-01-10 02:51:25.25	302.70	8.65	-43.7	-46.1	6.1	0.00e+00	0	27	104	0	60	24657
2026-01-10 02:51:26.26	302.42	8.62	-43.6	-46.0	6.1	0.00e+00	0	27	104	0	60	24399
2026-01-10 02:51:27.26	302.14	8.58	-43.7	-46.1	6.1	0.00e+00	0	27	104	0	60	24614
2026-01-10 02:51:28.27	301.86	8.55	-43.7	-46.1	6.1	0.00e+00	0	27	104	0	60	24611
2026-01-10 02:51:29.29	301.58	8.51	-43.7	-46.1	6.1	0.00e+00	0	27	104	0	60	24595
2026-01-10 02:51:30.30	301.30	8.48	-43.7	-46.1	6.1	0.00e+00	0	27	104	0	60	24765
2026-01-10 02:51:31.30	301.02	8.44	-43.7	-46.1	6.1	0.00e+00	0	27	104	0	60	24739
2026-01-10 02:51:32.31	300.74	8.41	-43.7	-46.1	6.0	0.00e+00	0	27	104	0	60	24604
2026-01-10 02:51:33.32	300.47	8.37	-43.7	-46.1	6.1	0.00e+00	0	27	104	0	60	24725
2026-01-10 02:51:34.33	300.19	8.33	-43.7	-46.1	6.1	0.00e+00	0	27	104	0	60	24711
2026-01-10 02:51:35.34	299.92	8.29	-43.7	-46.1	6.1	0.00e+00	0	27	104	0	60	24695
2026-01-10 02:51:36.35	299.64	8.26	-43.7	-46.0	6.1	0.00e+00	0	27	104	0	60	24526
2026-01-10 02:51:37.36	299.37	8.22	-43.6	-46.1	6.1	0.00e+00	0	27	104	0	60	24609
2026-01-10 02:51:38.37	299.10	8.18	-43.7	-46.1	6.1	0.00e+00	0	27	104	0	60	24722
2026-01-10 02:51:39.38	298.83	8.14	-43.7	-46.1	6.1	0.00e+00	0	27	104	0	60	24655
2026-01-10 02:51:40.39	298.56	8.10	-43.7	-46.1	6.1	0.00e+00	0	27	104	0	60	24579
2026-01-10 02:51:41.40	298.29	8.06	-43.7	-46.0	6.1	0.00e+00	0	27	104	0	60	24531
2026-01-10 02:51:42.41	298.02	8.02	-43.7	-46.1	6.1	0.00e+00	0	27	104	0	60	24620
2026-01-10 02:51:43.42	297.75	7.98	-43.7	-46.1	6.1	0.00e+00	0	27	104	0	60	24695
2026-01-10 02:51:44.43	297.49	7.94	-43.6	-46.0	6.1	0.00e+00	0	27	104	0	60	24468
2026-01-10 02:51:45.43	297.22	7.90	-43.7	-46.1	6.1	0.00e+00	0	27	104	0	60	24581
2026-01-10 02:51:46.44	296.96	7.86	-43.7	-46.0	6.1	0.00e+00	0	27	104	0	60	24510
2026-01-10 02:51:47.45	296.70	7.82	-43.7	-46.0	6.1	0.00e+00	0	27	104	0	60	24547
2026-01-10 02:51:48.46	296.44	7.77	-43.6	-46.0	6.1	0.00e+00	0	27	104	0	60	24349
2026-01-10 02:51:49.47	296.18	7.73	-43.6	-46.0	6.1	0.00e+00	0	27	104	0	60	24396
2026-01-10 02:51:50.47	295.92	7.69	-43.7	-46.0	6.1	0.00e+00	0	27	104	0	60	24393
2026-01-10 02:51:51.48	295.66	7.65	-43.7	-46.0	6.1	0.00e+00	0	27	104	0	60	24447
2026-01-10 02:51:52.49	295.40	7.60	-43.6	-46.0	6.1	0.00e+00	0	27	104	0	60	24413
2026-01-10 02:51:53.50	295.15	7.56	-43.6	-46.0	6.1	0.00e+00	0	27	104	0	60	24412
2026-01-10 02:51:54.51	294.89	7.51	-43.6	-46.0	6.1	0.00e+00	0	27	104	0	60	24570
2026-01-10 02:51:55.52	294.64	7.47	-43.6	-46.0	6.1	0.00e+00	0	27	104	0	60	24441
2026-01-10 02:51:56.53	294.39	7.43	-43.5	-45.9	6.1	0.00e+00	0	27	104	0	60	24191
2026-01-10 02:51:57.54	294.13	7.38	-43.6	-45.9	6.1	0.00e+00	0	27	104	0	60	24248
2026-01-10 02:51:58.55	293.88	7.34	-43.6	-46.0	6.1	0.00e+00	0	27	104	0	60	24364
2026-01-10 02:51:59.55	293.64	7.29	-43.6	-45.9	6.1	0.00e+00	0	27	104	0	60	24273
2026-01-10 02:52:00.56	293.39	7.25	-43.5	-45.9	6.1	0.00e+00	0	27	104	0	60	24228
2026-01-10 02:52:01.57	293.14	7.20	-43.6	-45.9	6.1	0.00e+00	0	27	104	0	60	24231
2026-01-10 02:52:02.58	292.89	7.15	-43.6	-46.0	6.1	0.00e+00	0	27	104	0	60	24390
2026-01-10 02:52:03.59	292.65	7.11	-43.6	-45.9	6.1	0.00e+00	0	28	104	0	60	24274
2026-01-10 02:52:04.60	292.40	7.06	-43.5	-45.9	6.1	0.00e+00	0	27	104	0	60	24031
2026-01-10 02:52:05.61	292.16	7.01	-43.5	-45.9	6.1	0.00e+00	0	27	104	0	60	24204
2026-01-10 02:52:06.62	291.92	6.97	-43.6	-45.9	6.1	0.00e+00	0	27	104	0	60	24208
2026-01-10 02:52:07.63	291.68	6.92	-43.5	-45.9	6.1	0.00e+00	0	27	104	0	60	24182
2026-01-10 02:52:08.64	291.44	6.87	-43.5	-45.9	6.1	0.00e+00	0	27	104	0	60	24106
2026-01-10 02:52:09.65	291.20	6.82	-43.5	-45.9	6.1	0.00e+00	0	27	104	0	60	24132
2026-01-10 02:52:10.65	290.96	6.78	-43.5	-45.9	6.1	0.00e+00	0	27	104	0	60	24119
2026-01-10 02:52:11.66	290.73	6.73	-43.5	-45.9	6.1	0.00e+00	0	27	104	0	60	24157
2026-01-10 02:52:12.67	290.49	6.68	-43.5	-45.9	6.1	0.00e+00	0	27	104	0	60	24270
2026-01-10 02:52:13.68	290.26	6.63	-43.5	-45.9	6.1	0.00e+00	0	27	104	0	60	24083
2026-01-10 02:52:14.69	290.03	6.58	-43.5	-45.9	6.1	0.00e+00	0	28	104	0	60	24118
2026-01-10 02:52:15.70	289.79	6.53	-43.5	-45.9	6.1	0.00e+00	0	27	104	0	60	24166
2026-01-10 02:52:16.71	289.56	6.49	-43.5	-45.9	6.0	0.00e+00	0	28	104	0	60	24159
2026-01-10 02:52:17.72	289.33	6.44	-43.5	-45.9	6.1	0.00e+00	0	27	104	0	60	24067
2026-01-10 02:52:18.73	289.10	6.39	-43.5	-45.9	6.1	0.00e+00	0	27	104	0	60	24075
2026-01-10 02:52:19.74	288.88	6.34	-43.5	-45.9	6.1	0.00e+00	0	27	104	0	60	24028
2026-01-10 02:52:20.74	288.65	6.29	-43.5	-45.8	6.0	0.00e+00	0	28	104	0	60	24017
2026-01-10 02:52:21.75	288.43	6.24	-43.5	-45.9	6.1	0.00e+00	0	27	104	0	60	24164
2026-01-10 02:52:22.76	288.20	6.19	-43.6	-45.9	6.1	0.00e+00	0	27	104	0	60	24238
2026-01-10 02:52:23.77	287.98	6.14	-43.5	-45.9	6.1	0.00e+00	0	28	104	0	60	24163
2026-01-10 02:52:24.78	287.76	6.09	-43.5	-45.8	6.1	0.00e+00	0	27	104	0	60	23963
2026-01-10 02:52:25.78	287.54	6.04	-43.5	-45.9	6.1	0.00e+00	0	28	104	0	60	24066
2026-01-10 02:52:26.79	287.32	5.99	-43.5	-45.9	6.1	0.00e+00	0	28	104	0	60	24134
2026-01-10 02:52:27.80	287.10	5.93	-43.4	-45.8	6.1	0.00e+00	0	27	104	0	60	23838
2026-01-10 02:52:28.81	286.88	5.88	-43.4	-45.8	6.1	0.00e+00	0	28	104	0	60	23816
2026-01-10 02:52:29.82	286.67	5.83	-43.4	-45.8	6.1	0.00e+00	0	27	104	0	60	23787
2026-01-10 02:52:30.82	286.45	5.78	-43.5	-45.8	6.1	0.00e+00	0	28	104	0	60	23963
2026-01-10 02:52:31.83	286.24	5.73	-43.4	-45.7	6.1	0.00e+00	0	28	104	0	60	23698
2026-01-10 02:52:32.84	286.02	5.68	-43.4	-45.8	6.1	0.00e+00	0	28	104	0	60	23791
2026-01-10 02:52:33.85	285.81	5.63	-43.4	-45.7	6.1	0.00e+00	0	27	104	0	60	23632
2026-01-10 02:52:34.86	285.60	5.58	-43.4	-45.8	6.1	0.00e+00	0	28	104	0	60	23865
2026-01-10 02:52:35.87	285.39	5.52	-43.3	-45.6	6.1	0.00e+00	0	28	104	0	60	23469
2026-01-10 02:52:36.88	285.18	5.47	-43.4	-45.7	6.1	0.00e+00	0	28	104	0	60	23707
2026-01-10 02:52:37.89	284.97	5.42	-43.3	-45.8	6.1	0.00e+00	0	28	104	0	60	23764
2026-01-10 02:52:38.90	284.77	5.37	-43.4	-45.8	6.1	0.00e+00	0	27	104	0	60	23796
2026-01-10 02:52:39.91	284.56	5.32	-43.3	-45.6	6.1	0.00e+00	0	27	104	0	60	23386
2026-01-10 02:52:40.92	284.36	5.26	-43.3	-45.7	6.1	0.00e+00	0	28	104	0	60	23513
2026-01-10 02:52:41.92	284.15	5.21	-43.4	-45.7	6.1	0.00e+00	0	28	104	0	60	23622
2026-01-10 02:52:42.93	283.95	5.16	-43.4	-45.7	6.1	0.00e+00	0	28	104	0	60	23716
2026-01-10 02:52:43.94	283.75	5.11	-43.3	-45.6	6.1	0.00e+00	0	27	104	0	60	23398
2026-01-10 02:52:44.95	283.55	5.05	-43.3	-45.6	6.1	0.00e+00	0	28	104	0	60	23416
2026-01-10 02:52:45.96	283.35	5.00	-43.3	-45.7	6.1	0.00e+00	0	28	104	0	60	23510
2026-01-10 02:52:46.97	283.15	4.95	-43.4	-45.7	6.1	0.00e+00	0	28	104	0	60	23694
2026-01-10 02:52:47.98	282.95	4.89	-43.2	-45.6	6.1	0.00e+00	0	27	104	0	60	23284
2026-01-10 02:52:48.98	282.76	4.84	-43.2	-45.6	6.1	0.00e+00	0	27	104	0	60	23286
2026-01-10 02:52:49.99	282.56	4.79	-43.3	-45.7	6.1	0.00e+00	0	27	104	0	60	23577
2026-01-10 02:52:51.00	282.37	4.74	-43.4	-45.7	6.1	0.00e+00	0	27	104	0	60	23670
2026-01-10 02:52:52.01	282.18	4.68	-43.1	-45.5	6.1	0.00e+00	0	27	104	0	60	23102
2026-01-10 02:52:53.02	281.98	4.63	-43.2	-45.6	6.1	0.00e+00	0	28	104	0	60	23388
2026-01-10 02:52:54.03	281.79	4.58	-43.2	-45.6	6.1	0.00e+00	0	28	104	0	60	23330
2026-01-10 02:52:55.04	281.60	4.52	-43.3	-45.7	6.1	0.00e+00	0	27	104	0	60	23504
2026-01-10 02:52:56.04	281.41	4.47	-43.1	-45.5	6.1	0.00e+00	0	27	104	0	60	22975
2026-01-10 02:52:57.05	281.23	4.42	-43.2	-45.6	6.1	0.00e+00	0	27	104	0	60	23255
2026-01-10 02:52:58.06	281.04	4.36	-43.2	-45.6	6.1	0.00e+00	0	28	104	0	60	23261
2026-01-10 02:52:59.07	280.85	4.31	-43.3	-45.6	6.1	0.00e+00	0	27	104	0	60	23371
2026-01-10 02:53:00.08	280.67	4.25	-43.1	-45.4	6.1	0.00e+00	0	27	104	0	60	22918
2026-01-10 02:53:01.09	280.48	4.20	-43.1	-45.5	6.1	0.00e+00	0	28	104	0	60	23011
2026-01-10 02:53:02.10	280.30	4.15	-43.2	-45.5	6.1	0.00e+00	0	28	104	0	60	23087
2026-01-10 02:53:03.11	280.12	4.09	-43.2	-45.6	6.1	0.00e+00	0	28	104	0	60	23326
2026-01-10 02:53:04.12	279.93	4.04	-43.0	-45.4	6.1	0.00e+00	0	27	104	0	60	22746
2026-01-10 02:53:05.12	279.76	3.99	-43.0	-45.4	6.1	0.00e+00	0	28	104	0	60	22896
2026-01-10 02:53:06.14	279.57	3.93	-43.1	-45.5	6.1	0.00e+00	0	28	104	0	60	23044
2026-01-10 02:53:07.15	279.40	3.88	-43.2	-45.5	6.1	0.00e+00	0	28	104	0	60	23104
2026-01-10 02:53:08.16	279.22	3.82	-42.9	-45.3	6.1	0.00e+00	0	28	104	0	60	22465
2026-01-10 02:53:09.17	279.04	3.77	-43.0	-45.4	6.1	0.00e+00	0	28	104	0	60	22758
2026-01-10 02:53:10.17	278.87	3.72	-43.0	-45.4	6.1	0.00e+00	0	28	104	0	60	22700
2026-01-10 02:53:11.18	278.69	3.66	-43.1	-45.5	6.1	0.00e+00	0	28	104	0	60	22959
2026-01-10 02:53:12.19	278.52	3.61	-42.9	-45.3	6.1	0.00e+00	0	27	104	0	60	22475
2026-01-10 02:53:13.20	278.35	3.55	-42.9	-45.3	6.1	0.00e+00	0	28	104	0	60	22577
2026-01-10 02:53:14.21	278.17	3.50	-43.0	-45.4	6.1	0.00e+00	0	28	104	0	60	22809
2026-01-10 02:53:15.22	278.00	3.45	-43.0	-45.4	6.1	0.00e+00	0	28	104	0	60	22829
2026-01-10 02:53:16.23	277.83	3.39	-42.9	-45.3	6.1	0.00e+00	0	28	104	0	60	22448
2026-01-10 02:53:17.24	277.66	3.34	-43.0	-45.3	6.1	0.00e+00	0	28	104	0	60	22627
2026-01-10 02:53:18.25	277.50	3.28	-43.0	-45.4	6.1	0.00e+00	0	28	104	0	60	22697
2026-01-10 02:53:19.26	277.33	3.23	-43.0	-45.4	6.1	0.00e+00	0	28	104	0	60	22882
2026-01-10 02:53:20.27	277.16	3.18	-42.8	-45.1	6.1	0.00e+00	0	28	104	0	60	21985
2026-01-10 02:53:21.28	277.00	3.12	-42.9	-45.2	6.1	0.00e+00	0	28	104	0	60	22235
2026-01-10 02:53:22.29	276.83	3.07	-42.9	-45.3	6.1	0.00e+00	0	28	104	0	60	22574
2026-01-10 02:53:23.30	276.67	3.01	-43.0	-45.4	6.1	0.00e+00	0	28	104	0	60	22848
2026-01-10 02:53:24.31	276.51	2.96	-43.7	-46.1	6.1	0.00e+00	0	28	104	0	60	24646
2026-01-10 02:53:25.32	276.34	2.91	-44.1	-46.4	6.1	0.00e+00	0	28	104	0	60	25679
2026-01-10 02:53:26.33	276.18	2.85	-44.3	-46.7	6.1	0.00e+00	0	28	104	0	60	26382
2026-01-10 02:53:27.34	276.02	2.80	-44.5	-46.9	6.1	0.00e+00	0	28	104	0	60	26971
2026-01-10 02:53:28.35	275.86	2.74	-44.6	-46.9	6.1	0.00e+00	0	28	104	0	60	27178
2026-01-10 02:53:29.36	275.70	2.69	-44.6	-47.0	6.1	0.00e+00	0	27	104	0	60	27496
2026-01-10 02:53:30.37	275.55	2.64	-44.7	-47.0	6.1	0.00e+00	0	28	104	0	60	27494
2026-01-10 02:53:31.38	275.39	2.58	-44.7	-47.0	6.0	0.00e+00	0	27	104	0	60	27556
2026-01-10 02:53:32.39	275.23	2.53	-44.7	-47.0	6.1	0.00e+00	0	28	104	0	60	27493
2026-01-10 02:53:33.40	275.08	2.47	-44.7	-47.1	6.1	0.00e+00	0	27	104	0	60	27805
2026-01-10 02:53:34.41	274.92	2.42	-44.5	-46.9	6.1	0.00e+00	0	28	104	0	60	27173
2026-01-10 02:53:35.42	274.77	2.37	-44.8	-47.2	6.1	0.00e+00	0	28	104	0	60	27922
2026-01-10 02:53:36.43	274.62	2.31	-44.6	-46.9	6.1	0.00e+00	0	27	104	0	60	27117
2026-01-10 02:53:37.43	274.47	2.26	-44.2	-46.6	6.1	0.00e+00	0	27	104	0	60	26276
2026-01-10 02:53:38.44	274.32	2.20	-44.4	-46.7	6.1	0.00e+00	0	27	104	0	60	26520
2026-01-10 02:53:39.45	274.17	2.15	-44.3	-46.7	6.1	0.00e+00	0	28	104	0	60	26529
2026-01-10 02:53:40.46	274.02	2.10	-44.9	-47.2	6.1	0.00e+00	0	27	104	0	60	28120
2026-01-10 02:53:41.47	273.87	2.04	-44.6	-46.9	6.1	0.00e+00	0	27	104	0	60	27234
2026-01-10 02:53:42.48	273.72	1.99	-44.5	-46.9	6.1	0.00e+00	0	27	104	0	60	27024
2026-01-10 02:53:43.49	273.57	1.94	-44.5	-46.9	6.1	0.00e+00	0	27	104	0	60	26954
2026-01-10 02:53:44.50	273.43	1.88	-44.4	-46.8	6.1	0.00e+00	0	27	104	0	60	26658
2026-01-10 02:53:45.51	273.28	1.83	-44.5	-46.8	6.1	0.00e+00	0	28	104	0	60	26872
2026-01-10 02:53:46.52	273.14	1.77	-44.5	-46.8	6.1	0.00e+00	0	28	104	0	60	26760
2026-01-10 02:53:47.53	272.99	1.72	-44.4	-46.8	6.1	0.00e+00	0	27	104	0	60	26823
2026-01-10 02:53:48.54	272.85	1.67	-44.3	-46.7	6.1	0.00e+00	0	27	104	0	60	26447
2026-01-10 02:53:49.55	272.71	1.61	-44.4	-46.7	6.1	0.00e+00	0	27	104	0	60	26615
2026-01-10 02:53:50.55	272.57	1.56	-44.4	-46.7	6.1	0.00e+00	0	27	104	0	60	26631
2026-01-10 02:53:51.56	272.43	1.51	-44.4	-46.7	6.1	0.00e+00	0	27	104	0	60	26616
2026-01-10 02:53:52.57	272.29	1.45	-44.4	-46.8	6.1	0.00e+00	0	27	104	0	60	26746
2026-01-10 02:53:53.58	272.15	1.40	-44.6	-47.0	6.1	0.00e+00	0	27	104	0	60	27483
2026-01-10 02:53:54.59	272.01	1.35	-44.7	-47.0	6.1	0.00e+00	0	27	104	0	60	27574
2026-01-10 02:53:55.60	271.87	1.29	-44.5	-46.8	6.1	0.00e+00	0	27	104	0	60	26866
2026-01-10 02:53:56.61	271.74	1.24	-44.7	-47.1	6.1	0.00e+00	0	27	104	0	60	27742
2026-01-10 02:53:57.62	271.60	1.19	-44.5	-46.8	6.1	0.00e+00	0	27	104	0	60	26917
2026-01-10 02:53:58.63	271.46	1.13	-44.7	-47.0	6.1	0.00e+00	0	27	104	0	60	27469
2026-01-10 02:53:59.64	271.33	1.08	-44.5	-46.9	6.1	0.00e+00	0	27	104	0	60	27148
2026-01-10 02:54:00.65	271.19	1.03	-44.7	-47.1	6.1	0.00e+00	0	27	104	0	60	27598
2026-01-10 02:54:01.66	271.06	0.97	-44.6	-46.9	6.1	0.00e+00	0	28	104	0	60	27213
2026-01-10 02:54:02.67	270.93	0.92	-44.4	-46.8	6.1	0.00e+00	0	27	104	0	60	26795
2026-01-10 02:54:03.68	270.80	0.87	-44.7	-47.0	6.1	0.00e+00	0	27	104	0	60	27386
2026-01-10 02:54:04.69	270.66	0.81	-44.6	-46.9	6.1	0.00e+00	0	27	104	0	60	27125
2026-01-10 02:54:05.70	270.53	0.76	-44.4	-46.8	6.1	0.00e+00	0	27	104	0	60	26721
2026-01-10 02:54:06.70	270.41	0.71	-44.4	-46.8	6.1	0.00e+00	0	27	104	0	60	26730
2026-01-10 02:54:07.71	270.28	0.65	-44.5	-46.9	6.1	0.00e+00	0	27	104	0	60	27149
2026-01-10 02:54:08.72	270.15	0.60	-44.4	-46.7	6.1	0.00e+00	0	28	104	0	60	26531
2026-01-10 02:54:09.73	270.02	0.55	-44.4	-46.8	6.1	0.00e+00	0	28	104	0	60	26665
2026-01-10 02:54:10.75	269.89	0.50	-44.6	-47.0	6.1	0.00e+00	0	27	104	0	60	27301
2026-01-10 02:54:11.76	269.77	0.44	-44.7	-47.0	6.1	0.00e+00	0	27	104	0	60	27461
2026-01-10 02:54:12.77	269.64	0.39	-44.5	-46.9	6.1	0.00e+00	0	27	104	0	60	26961
2026-01-10 02:54:13.77	269.52	0.34	-44.6	-46.9	6.1	0.00e+00	0	28	104	0	60	27106
2026-01-10 02:54:14.78	269.39	0.29	-44.7	-47.1	6.1	0.00e+00	0	27	104	0	60	27675
2026-01-10 02:54:15.79	269.27	0.23	-44.5	-46.9	6.0	0.00e+00	0	28	104	0	60	26971
2026-01-10 02:54:16.80	269.14	0.18	-44.5	-46.9	6.1	0.00e+00	0	27	104	0	60	27048
2026-01-10 02:54:17.80	269.02	0.13	-44.4	-46.7	6.1	0.00e+00	0	28	104	0	60	26403
2026-01-10 02:54:18.81	268.90	0.08	-44.4	-46.7	6.1	0.00e+00	0	27	104	0	60	26556
2026-01-10 02:54:19.83	268.78	0.02	-44.5	-46.9	6.1	0.00e+00	0	28	104	0	60	27254
2026-01-10 02:54:20.84	268.66	-0.03	-44.6	-46.9	6.1	0.00e+00	0	28	104	0	60	27224

#Closed at: 2026-01-10 02:54:21
#Recorded file [0 MB]: D:/lorett/data/35029_260110_144822.dat