passes_logs/2026/01/10/R4.6S_Anadyr/R4.6S_Anadyr__20260110_153436_AQUA_rec.log

#Pass ID: 20260110_153436_AQUA
#Satellite: AQUA
#Configuration: AQUA
#almurnet v.1.7.20251203
#Start time: 2026-01-10 15:34:37

#Version: 2.2.20231116
#Station: R4.6S_Anadyr
#Location: 177.4865 lon 64.73178 lat
#TLE: 1 27424U 02022A   26009.89520876  .00001045  00000+0  21914-3 0  9996
#TLE: 2 27424  98.4076 336.2372 0002032  84.5955   1.0356 14.61811442260144

#Time	Az	El	Level	Level2	SNR	BER	BlckErr	Temp	State	Recorded	gain1	gain2
2026-01-10 15:34:37.68	19.59	0.10	-48.1	-63.0	3.5	1.51e+00	0	27	0	0	60	51120
2026-01-10 15:34:38.69	19.62	0.16	-48.6	-66.5	3.5	3.02e+01	0	28	104	0	60	81643
2026-01-10 15:34:39.70	19.65	0.22	-48.5	-66.4	3.5	3.02e+01	0	28	104	0	60	80585
2026-01-10 15:34:40.71	19.69	0.28	-48.7	-66.6	3.5	3.02e+01	0	28	104	0	60	81846
2026-01-10 15:34:41.72	19.72	0.34	-48.6	-66.5	3.5	3.02e+01	0	28	104	0	60	81492
2026-01-10 15:34:42.73	19.75	0.40	-48.6	-66.5	3.5	3.02e+01	0	28	104	0	60	81405
2026-01-10 15:34:43.74	19.79	0.46	-48.6	-66.5	3.5	3.02e+01	0	28	104	0	60	81230
2026-01-10 15:34:44.75	19.82	0.52	-48.7	-66.5	3.5	3.02e+01	0	28	104	0	60	81610
2026-01-10 15:34:45.76	19.86	0.59	-48.7	-66.5	3.5	3.02e+01	0	28	104	0	60	81635
2026-01-10 15:34:46.77	19.89	0.65	-48.7	-66.5	3.5	3.02e+01	0	28	104	0	60	81687
2026-01-10 15:34:47.78	19.92	0.71	-48.4	-66.5	3.5	3.02e+01	0	28	104	0	60	81663
2026-01-10 15:34:48.79	19.96	0.77	-48.4	-66.5	3.5	3.02e+01	0	28	104	0	60	80993
2026-01-10 15:34:49.80	19.99	0.83	-48.6	-66.4	3.5	3.02e+01	0	28	104	0	60	80500
2026-01-10 15:34:50.81	20.03	0.89	-48.5	-66.3	3.5	3.02e+01	0	28	104	0	60	79371
2026-01-10 15:34:51.82	20.06	0.96	-48.3	-66.2	3.5	3.02e+01	0	28	104	0	60	78205
2026-01-10 15:34:52.83	20.10	1.02	-48.2	-66.0	3.5	3.02e+01	0	28	104	0	60	76604
2026-01-10 15:34:53.84	20.13	1.08	-48.0	-65.8	3.5	3.02e+01	0	28	104	0	60	75419
2026-01-10 15:34:54.85	20.17	1.14	-47.8	-65.7	3.5	3.02e+01	0	28	104	0	60	73802
2026-01-10 15:34:55.86	20.20	1.21	-47.3	-65.4	3.5	3.02e+01	0	28	104	0	60	71380
2026-01-10 15:34:56.87	20.24	1.27	-47.2	-65.0	3.5	3.02e+01	0	28	104	0	60	68158
2026-01-10 15:34:57.88	20.28	1.33	-47.2	-65.0	3.5	3.02e+01	0	28	104	0	60	68095
2026-01-10 15:34:58.89	20.31	1.40	-47.2	-65.0	3.5	3.02e+01	0	28	104	0	60	68408
2026-01-10 15:34:59.90	20.35	1.46	-47.2	-65.0	3.5	3.02e+01	0	28	104	0	60	68138
2026-01-10 15:35:00.91	20.38	1.52	-47.2	-64.9	3.5	3.02e+01	0	28	104	0	60	67878
2026-01-10 15:35:01.92	20.42	1.59	-47.2	-64.9	3.5	3.02e+01	0	28	104	0	60	67434
2026-01-10 15:35:02.93	20.46	1.65	-47.2	-64.8	3.5	3.02e+01	0	28	104	0	60	66848
2026-01-10 15:35:03.94	20.49	1.71	-47.2	-64.7	3.5	3.02e+01	0	28	104	0	60	65829
2026-01-10 15:35:04.95	20.53	1.78	-47.2	-64.8	3.5	3.02e+01	0	28	104	0	60	66575
2026-01-10 15:35:05.96	20.57	1.84	-47.2	-64.8	3.5	3.02e+01	0	28	104	0	60	66968
2026-01-10 15:35:06.97	20.60	1.91	-47.1	-64.7	3.5	3.02e+01	0	28	104	0	60	66341
2026-01-10 15:35:07.98	20.64	1.97	-47.2	-64.8	3.5	3.02e+01	0	28	104	0	60	66619
2026-01-10 15:35:08.99	20.68	2.04	-47.1	-64.7	3.5	3.02e+01	0	28	104	0	60	65936
2026-01-10 15:35:10.00	20.72	2.10	-47.1	-64.6	3.5	3.02e+01	0	28	104	0	60	65090
2026-01-10 15:35:11.01	20.75	2.17	-47.1	-64.6	3.5	3.02e+01	0	28	104	0	60	65031
2026-01-10 15:35:12.02	20.79	2.23	-47.1	-64.8	3.5	3.02e+01	0	28	104	0	60	66619
2026-01-10 15:35:13.03	20.83	2.30	-47.2	-64.9	3.5	3.02e+01	0	28	104	0	60	67923
2026-01-10 15:35:14.04	20.87	2.36	-47.1	-64.8	3.5	3.02e+01	0	28	104	0	60	66942
2026-01-10 15:35:15.05	20.91	2.43	-47.1	-63.5	3.5	3.02e+01	0	28	104	0	60	57389
2026-01-10 15:35:16.06	20.95	2.49	-47.1	-62.1	3.9	3.02e+01	0	28	104	0	60	49052
2026-01-10 15:35:17.07	20.98	2.56	-47.0	-60.6	4.5	3.02e+01	0	28	104	0	60	41461
2026-01-10 15:35:18.08	21.02	2.63	-47.0	-60.5	3.7	3.02e+01	0	28	104	0	60	40780
2026-01-10 15:35:19.09	21.06	2.69	-47.0	-61.1	4.3	3.02e+01	0	28	104	0	60	43865
2026-01-10 15:35:20.10	21.10	2.76	-47.1	-62.7	3.8	3.02e+01	0	28	104	0	60	52519
2026-01-10 15:35:21.11	21.14	2.83	-47.0	-60.7	4.7	3.02e+01	0	28	104	0	60	41806
2026-01-10 15:35:22.12	21.18	2.89	-46.3	-54.1	10.0	3.02e+01	60	28	0	1048576	60	19419
2026-01-10 15:35:23.13	21.22	2.96	-45.3	-50.4	14.1	3.02e+01	60	28	0	3145728	60	12772
2026-01-10 15:35:24.14	21.26	3.03	-43.7	-47.1	17.5	3.02e+01	57	28	0	4718592	60	8700
2026-01-10 15:35:25.15	21.30	3.09	-41.7	-44.1	20.5	3.02e+01	60	28	0	6815744	58	6933
2026-01-10 15:35:26.16	21.34	3.16	-40.5	-42.5	22.3	3.02e+01	49	28	0	8912896	56	6441
2026-01-10 15:35:27.17	21.38	3.23	-39.3	-41.1	23.5	3.02e+01	60	28	0	10485760	54	6138
2026-01-10 15:35:28.18	21.42	3.30	-38.3	-39.9	24.7	3.02e+01	61	28	0	12582912	52	6000
2026-01-10 15:35:29.19	21.46	3.37	-37.7	-39.3	25.0	3.02e+01	47	28	0	14155776	50	6301
2026-01-10 15:35:30.20	21.50	3.43	-37.7	-39.3	25.0	3.02e+01	58	28	0	16252928	50	6304
2026-01-10 15:35:31.21	21.55	3.50	-38.1	-39.7	24.6	3.02e+01	62	28	0	18350080	50	6642
2026-01-10 15:35:32.22	21.59	3.57	-38.9	-40.6	23.7	3.02e+01	60	28	0	19922944	50	7360
2026-01-10 15:35:33.23	21.63	3.64	-40.0	-41.9	21.7	3.02e+01	58	28	0	22020096	52	7579
2026-01-10 15:35:34.24	21.67	3.71	-41.7	-52.4	3.4	3.02e+01	0	28	104	23592960	56	20214
2026-01-10 15:35:35.25	21.71	3.78	-42.1	-53.5	3.4	3.02e+01	0	28	104	23592960	60	18105
2026-01-10 15:35:36.26	21.75	3.85	-40.5	-51.3	3.6	3.02e+01	0	28	104	23592960	54	19929
2026-01-10 15:35:37.27	21.80	3.92	-46.1	-61.1	3.5	3.02e+01	0	28	104	23592960	60	43824
2026-01-10 15:35:38.57	21.85	4.01	-46.4	-61.4	3.5	3.02e+01	0	28	104	23592960	60	45137
2026-01-10 15:35:39.29	21.88	4.06	-43.5	-55.4	3.6	3.02e+01	0	28	104	23592960	60	22558
2026-01-10 15:35:40.59	21.94	4.15	-46.9	-63.8	3.5	3.02e+01	0	28	104	23592960	60	59556
2026-01-10 15:35:41.31	21.97	4.20	-44.2	-56.4	3.5	3.02e+01	0	28	104	23592960	60	25522
2026-01-10 15:35:42.61	22.02	4.29	-42.9	-54.3	3.6	3.02e+01	0	28	104	23592960	60	19992
2026-01-10 15:35:43.33	22.05	4.34	-41.9	-52.9	3.6	3.02e+01	0	28	104	23592960	60	17063
2026-01-10 15:35:44.63	22.11	4.43	-40.6	-51.4	3.5	3.02e+01	0	28	104	23592960	56	18070
2026-01-10 15:35:45.35	22.14	4.48	-42.4	-53.8	3.5	3.02e+01	0	28	104	23592960	58	21228
2026-01-10 15:35:46.65	22.20	4.57	-43.8	-55.8	3.5	3.02e+01	0	28	104	23592960	60	23766
2026-01-10 15:35:47.37	22.23	4.62	-46.6	-62.7	3.6	3.02e+01	0	28	104	23592960	60	52778
2026-01-10 15:35:48.67	22.29	4.71	-37.9	-48.3	3.5	3.02e+01	0	28	104	23592960	50	17846
2026-01-10 15:35:49.40	22.32	4.77	-47.0	-64.8	3.5	3.02e+01	0	28	104	23592960	60	66545
2026-01-10 15:35:50.69	22.38	4.86	-37.8	-48.1	4.1	3.02e+01	0	28	104	23592960	50	17429
2026-01-10 15:35:51.41	22.41	4.91	-37.8	-48.2	3.4	3.02e+01	0	28	104	23592960	50	17572
2026-01-10 15:35:52.71	22.47	5.00	-37.8	-48.1	4.1	3.02e+01	0	28	104	23592960	50	17473
2026-01-10 15:35:53.44	22.50	5.06	-37.7	-48.1	4.1	3.02e+01	0	28	104	23592960	50	17300
2026-01-10 15:35:54.73	22.56	5.15	-42.7	-54.2	3.5	3.02e+01	0	28	104	23592960	60	19738
2026-01-10 15:35:55.46	22.59	5.20	-38.2	-48.5	3.8	3.02e+01	0	28	104	23592960	52	16254
2026-01-10 15:35:56.75	22.65	5.30	-47.1	-64.3	3.5	3.02e+01	0	28	104	23592960	60	63109
2026-01-10 15:35:57.48	22.69	5.35	-41.6	-52.8	3.5	3.02e+01	0	28	104	23592960	60	16786
2026-01-10 15:35:58.77	22.75	5.44	-42.8	-54.4	3.5	3.02e+01	0	28	104	23592960	60	20293
2026-01-10 15:35:59.49	22.78	5.50	-37.5	-47.9	3.5	3.02e+01	0	28	104	23592960	50	17069
2026-01-10 15:36:00.79	22.84	5.59	-37.1	-47.5	3.5	3.02e+01	0	28	104	23592960	50	16267
2026-01-10 15:36:01.51	22.88	5.64	-37.3	-47.7	3.5	3.02e+01	0	28	104	23592960	50	16685
2026-01-10 15:36:02.81	22.94	5.74	-37.6	-47.9	3.4	3.02e+01	0	28	104	23592960	48	19173
2026-01-10 15:36:03.53	22.97	5.79	-42.2	-53.4	3.5	3.02e+01	0	28	104	23592960	60	17974
2026-01-10 15:36:04.83	23.03	5.89	-39.5	-50.1	3.5	3.02e+01	0	28	104	23592960	50	21863
2026-01-10 15:36:05.55	23.07	5.94	-47.3	-64.9	3.5	3.02e+01	0	28	104	23592960	60	67647
2026-01-10 15:36:06.85	23.13	6.04	-38.7	-49.2	3.5	3.02e+01	0	28	104	23592960	52	17646
2026-01-10 15:36:07.57	23.17	6.10	-46.1	-60.2	3.5	3.02e+01	0	28	104	23592960	60	39309
2026-01-10 15:36:08.87	23.23	6.19	-39.5	-50.1	3.5	3.02e+01	0	28	104	23592960	54	17409
2026-01-10 15:36:09.59	23.26	6.25	-38.7	-49.2	3.5	3.02e+01	0	28	104	23592960	52	17599
2026-01-10 15:36:10.89	23.33	6.35	-38.1	-48.5	3.5	3.02e+01	0	28	104	23592960	52	16315
2026-01-10 15:36:11.61	23.36	6.40	-37.8	-48.2	3.5	3.02e+01	0	28	104	23592960	52	15689
2026-01-10 15:36:12.91	23.43	6.50	-38.6	-49.0	3.5	3.02e+01	0	28	104	23592960	52	17280
2026-01-10 15:36:13.63	23.46	6.55	-37.3	-47.6	3.5	3.02e+01	0	28	104	23592960	50	16455
2026-01-10 15:36:14.93	23.53	6.65	-45.5	-58.8	3.5	3.02e+01	0	28	104	23592960	60	33692
2026-01-10 15:36:15.65	23.57	6.71	-40.0	-50.7	3.7	3.02e+01	0	28	104	23592960	58	14811
2026-01-10 15:36:16.95	23.63	6.81	-41.7	-52.7	3.5	3.02e+01	0	28	104	23592960	60	16670
2026-01-10 15:36:17.67	23.67	6.87	-39.4	-50.0	3.5	3.02e+01	0	28	104	23592960	54	17265
2026-01-10 15:36:18.97	23.74	6.97	-38.9	-49.5	3.5	3.02e+01	0	28	104	23592960	52	18155
2026-01-10 15:36:19.69	23.77	7.02	-38.2	-48.6	3.5	3.02e+01	0	28	104	23592960	52	16355
2026-01-10 15:36:20.99	23.84	7.12	-37.8	-48.2	3.5	3.02e+01	0	28	104	23592960	50	17611
2026-01-10 15:36:21.71	23.88	7.18	-36.7	-47.0	3.6	3.02e+01	0	28	104	23592960	50	15376
2026-01-10 15:36:23.01	23.95	7.28	-47.4	-64.5	3.5	3.02e+01	0	28	104	23592960	60	64855
2026-01-10 15:36:23.73	23.99	7.34	-47.5	-64.8	3.5	3.02e+01	0	28	104	23592960	60	67103
2026-01-10 15:36:25.02	24.05	7.44	-42.8	-54.2	3.6	3.02e+01	0	28	104	23592960	54	27811
2026-01-10 15:36:25.74	24.09	7.50	-43.1	-54.5	3.6	3.02e+01	0	28	104	23592960	60	20446
2026-01-10 15:36:27.04	24.16	7.60	-37.4	-47.8	3.5	3.02e+01	0	28	104	23592960	50	16768
2026-01-10 15:36:27.76	24.20	7.66	-37.2	-47.5	3.5	3.02e+01	0	28	104	23592960	50	16291
2026-01-10 15:36:29.06	24.27	7.76	-36.4	-46.7	3.5	3.02e+01	0	28	104	23592960	48	16624
2026-01-10 15:36:29.78	24.31	7.82	-37.3	-47.7	3.5	3.02e+01	0	28	104	23592960	48	18528
2026-01-10 15:36:31.08	24.38	7.93	-38.9	-49.4	3.5	3.02e+01	0	28	104	23592960	52	17965
2026-01-10 15:36:31.80	24.42	7.99	-38.7	-49.2	3.5	3.02e+01	0	28	104	23592960	48	22074
2026-01-10 15:36:33.10	24.49	8.09	-43.1	-54.7	3.5	3.02e+01	0	28	104	23592960	60	20941
2026-01-10 15:36:33.82	24.53	8.15	-37.1	-47.5	3.5	3.02e+01	0	28	104	23592960	50	16198
2026-01-10 15:36:35.12	24.61	8.26	-40.0	-50.7	3.5	3.02e+01	0	28	104	23592960	56	16526
2026-01-10 15:36:35.84	24.65	8.32	-38.8	-49.3	3.5	3.02e+01	0	28	104	23592960	52	17767
2026-01-10 15:36:37.14	24.72	8.42	-39.3	-49.8	3.5	3.02e+01	0	28	104	23592960	52	18835
2026-01-10 15:36:37.86	24.76	8.48	-38.3	-48.7	3.5	3.02e+01	0	28	104	23592960	52	16694
2026-01-10 15:36:39.15	24.84	8.59	-36.7	-47.1	3.5	3.02e+01	0	28	104	23592960	48	17306
2026-01-10 15:36:39.88	24.88	8.65	-36.4	-46.7	3.5	3.02e+01	0	28	104	23592960	48	16523
2026-01-10 15:36:41.17	24.95	8.76	-47.5	-64.4	3.5	3.02e+01	0	28	104	23592960	60	64198
2026-01-10 15:36:41.89	25.00	8.82	-44.9	-57.4	3.5	3.02e+01	0	28	104	23592960	60	28644
2026-01-10 15:36:43.19	25.07	8.93	-46.2	-60.0	3.5	3.02e+01	0	28	104	23592960	60	38625
2026-01-10 15:36:43.91	25.12	8.99	-41.5	-52.5	3.5	3.02e+01	0	28	104	23592960	60	16297
2026-01-10 15:36:45.21	25.19	9.10	-38.8	-49.4	3.5	3.02e+01	0	28	104	23592960	52	17925
2026-01-10 15:36:45.93	25.24	9.16	-37.8	-48.3	3.5	3.02e+01	0	28	104	23592960	52	15841
2026-01-10 15:36:47.23	25.31	9.27	-37.0	-47.3	3.5	3.02e+01	0	28	104	23592960	50	15938
2026-01-10 15:36:47.95	25.36	9.33	-37.2	-47.6	3.5	3.02e+01	0	28	104	23592960	48	18372
2026-01-10 15:36:49.25	25.44	9.45	-37.8	-48.3	3.5	3.02e+01	0	28	104	23592960	48	19907
2026-01-10 15:36:49.97	25.48	9.51	-45.0	-57.6	3.5	3.02e+01	0	28	104	23592960	56	36583
2026-01-10 15:36:51.27	25.56	9.62	-42.4	-53.8	3.5	3.02e+01	0	28	104	23592960	60	18824
2026-01-10 15:36:51.99	25.61	9.68	-42.4	-53.7	3.7	3.02e+01	0	28	104	23592960	54	26380
2026-01-10 15:36:53.29	25.69	9.80	-36.7	-47.0	3.5	3.02e+01	0	28	104	23592960	48	17241
2026-01-10 15:36:54.01	25.73	9.86	-36.6	-47.0	3.5	3.02e+01	0	28	104	23592960	48	17106
2026-01-10 15:36:55.30	25.81	9.97	-36.0	-46.3	3.5	3.02e+01	0	28	104	23592960	48	15871
2026-01-10 15:36:56.03	25.86	10.04	-35.9	-46.2	3.5	3.02e+01	0	28	104	23592960	46	17543
2026-01-10 15:36:57.32	25.94	10.15	-44.2	-56.4	3.5	3.02e+01	0	28	104	23592960	60	25355
2026-01-10 15:36:58.05	25.99	10.22	-39.0	-49.6	3.5	3.02e+01	0	28	104	23592960	54	16341
2026-01-10 15:36:59.35	26.07	10.33	-47.3	-63.9	3.5	3.02e+01	0	28	104	23592960	60	60465
2026-01-10 15:37:00.07	26.12	10.40	-45.8	-59.4	3.5	3.02e+01	0	28	104	23592960	60	35926
2026-01-10 15:37:01.37	26.21	10.51	-46.9	-63.7	3.5	3.02e+01	0	28	104	23592960	60	58948
2026-01-10 15:37:02.09	26.25	10.58	-41.0	-51.8	3.5	3.02e+01	0	28	104	23592960	60	15049
2026-01-10 15:37:03.39	26.34	10.70	-40.0	-50.6	3.5	3.02e+01	0	28	104	23592960	56	16447
2026-01-10 15:37:04.11	26.39	10.76	-39.4	-50.0	3.5	3.02e+01	0	28	104	23592960	54	17270
2026-01-10 15:37:05.41	26.47	10.88	-39.7	-50.5	3.5	3.02e+01	0	28	104	23592960	54	18135
2026-01-10 15:37:06.13	26.52	10.95	-38.0	-48.4	3.5	3.02e+01	0	28	104	23592960	50	18079
2026-01-10 15:37:07.43	26.61	11.07	-37.6	-48.0	3.5	3.02e+01	0	28	104	23592960	50	17234
2026-01-10 15:37:08.15	26.66	11.13	-47.5	-65.0	3.5	3.02e+01	0	28	104	23592960	60	68490
2026-01-10 15:37:09.45	26.75	11.25	-41.3	-52.7	3.6	3.02e+01	0	28	104	23592960	58	18687
2026-01-10 15:37:10.17	26.80	11.32	-44.6	-57.0	3.5	3.02e+01	0	28	104	23592960	58	30529
2026-01-10 15:37:11.46	26.89	11.44	-38.6	-49.1	3.5	3.02e+01	0	28	104	23592960	52	17316
2026-01-10 15:37:12.19	26.94	11.51	-38.5	-49.0	3.5	3.02e+01	0	28	104	23592960	52	17147
2026-01-10 15:37:13.49	27.03	11.63	-38.6	-49.0	3.5	3.02e+01	0	28	104	23592960	50	19342
2026-01-10 15:37:14.21	27.08	11.70	-38.7	-49.2	3.6	3.02e+01	0	28	104	23592960	50	19705
2026-01-10 15:37:15.50	27.18	11.82	-35.9	-46.1	3.5	3.02e+01	0	28	104	23592960	46	17454
2026-01-10 15:37:16.23	27.23	11.89	-37.4	-47.8	3.5	3.02e+01	0	28	104	23592960	48	18766
2026-01-10 15:37:17.53	27.32	12.02	-47.4	-64.2	3.5	3.02e+01	0	28	104	23592960	60	62556
2026-01-10 15:37:18.25	27.38	12.09	-41.7	-52.8	3.5	3.02e+01	0	28	104	23592960	58	18948
2026-01-10 15:37:19.55	27.47	12.21	-45.9	-59.0	3.5	3.02e+01	0	28	104	23592960	60	34139
2026-01-10 15:37:20.27	27.53	12.28	-36.3	-46.6	3.5	3.02e+01	0	28	104	23592960	48	16340
2026-01-10 15:37:21.57	27.62	12.41	-36.0	-46.3	3.5	3.02e+01	0	28	104	23592960	48	15941
2026-01-10 15:37:22.29	27.68	12.48	-35.7	-46.0	3.5	3.02e+01	0	28	104	23592960	46	17168
2026-01-10 15:37:23.59	27.77	12.61	-35.4	-45.6	3.5	3.02e+01	0	28	104	23592960	46	16326
2026-01-10 15:37:24.31	27.83	12.68	-39.2	-49.9	3.5	3.02e+01	0	28	104	23592960	52	19101
2026-01-10 15:37:25.60	27.93	12.80	-36.1	-46.3	3.5	3.02e+01	0	28	104	23592960	48	15924
2026-01-10 15:37:26.33	27.98	12.88	-47.4	-63.7	3.5	3.02e+01	0	28	104	23592960	60	59101
2026-01-10 15:37:27.62	28.09	13.01	-38.7	-49.2	3.5	3.02e+01	0	28	104	23592960	56	13954
2026-01-10 15:37:28.35	28.14	13.08	-47.1	-62.1	3.5	3.02e+01	0	28	104	23592960	60	49266
2026-01-10 15:37:29.65	28.24	13.21	-38.0	-48.4	3.5	3.02e+01	0	28	104	23592960	50	17938
2026-01-10 15:37:30.37	28.30	13.28	-37.9	-48.2	3.5	3.02e+01	0	28	104	23592960	50	17585
2026-01-10 15:37:31.67	28.41	13.41	-36.9	-47.2	3.4	3.02e+01	0	28	104	23592960	50	15752
2026-01-10 15:37:32.39	28.46	13.49	-36.2	-46.4	3.5	3.02e+01	0	28	104	23592960	48	16126
2026-01-10 15:37:33.69	28.57	13.62	-35.6	-45.9	3.5	3.02e+01	0	28	104	23592960	46	16904
2026-01-10 15:37:34.41	28.63	13.69	-37.1	-47.4	3.5	3.02e+01	0	28	104	23592960	48	18004
2026-01-10 15:37:35.71	28.73	13.83	-47.7	-64.5	3.5	3.02e+01	0	28	104	23592960	60	64552
2026-01-10 15:37:36.43	28.79	13.90	-41.2	-52.2	3.5	3.02e+01	0	28	104	23592960	58	17530
2026-01-10 15:37:37.72	28.90	14.04	-44.5	-56.7	3.5	3.02e+01	0	28	104	23592960	60	26247
2026-01-10 15:37:38.45	28.96	14.11	-38.0	-48.4	3.5	3.02e+01	0	28	104	23592960	52	16088
2026-01-10 15:37:39.75	29.07	14.25	-36.9	-47.2	3.5	3.02e+01	0	28	104	23592960	50	15635
2026-01-10 15:37:40.47	29.13	14.33	-36.2	-46.5	3.5	3.02e+01	0	28	104	23592960	48	16136
2026-01-10 15:37:41.77	29.25	14.46	-35.6	-45.8	3.6	3.02e+01	0	28	104	23592960	46	16719
2026-01-10 15:37:42.49	29.31	14.54	-36.9	-47.1	3.5	3.02e+01	0	28	104	23592960	48	17469
2026-01-10 15:37:43.79	29.42	14.68	-36.5	-46.8	3.5	3.02e+01	0	28	104	23592960	46	18788
2026-01-10 15:37:44.51	29.48	14.76	-47.7	-64.1	3.5	3.02e+01	0	28	104	23592960	60	62019
2026-01-10 15:37:45.81	29.60	14.90	-36.2	-46.4	3.5	3.02e+01	0	28	104	23592960	46	18073
2026-01-10 15:37:46.53	29.66	14.97	-46.0	-59.4	3.5	3.02e+01	0	28	104	23592960	60	36056
2026-01-10 15:37:47.83	29.78	15.12	-35.6	-45.7	3.5	3.02e+01	0	28	104	23592960	46	16660
2026-01-10 15:37:48.55	29.84	15.19	-35.3	-45.5	3.5	3.02e+01	0	28	104	23592960	46	16195
2026-01-10 15:37:49.85	29.96	15.34	-35.6	-45.8	3.6	3.02e+01	0	28	104	23592960	46	16810
2026-01-10 15:37:50.57	30.03	15.42	-35.4	-45.6	3.5	3.02e+01	0	28	104	23592960	46	16387
2026-01-10 15:37:51.86	30.15	15.56	-37.6	-48.0	3.5	3.02e+01	0	28	104	23592960	50	17104
2026-01-10 15:37:52.59	30.22	15.64	-35.6	-45.8	3.5	3.02e+01	0	28	104	23592960	46	16879
2026-01-10 15:37:53.89	30.34	15.79	-46.4	-60.9	3.5	3.02e+01	0	28	104	23592960	60	42858
2026-01-10 15:37:54.61	30.41	15.87	-41.9	-53.0	3.5	3.02e+01	0	28	104	23592960	60	17134
2026-01-10 15:37:55.91	30.53	16.01	-42.9	-54.2	3.5	3.02e+01	0	28	104	23592960	60	19773
2026-01-10 15:37:56.63	30.60	16.09	-39.8	-50.5	3.5	3.02e+01	0	28	104	23592960	54	18160
2026-01-10 15:37:57.93	30.72	16.24	-39.3	-49.9	3.5	3.02e+01	0	28	104	23592960	52	19009
2026-01-10 15:37:58.65	30.80	16.32	-37.8	-48.2	3.4	3.02e+01	0	28	104	23592960	52	15750
2026-01-10 15:37:59.94	30.92	16.47	-39.9	-50.6	3.6	3.02e+01	0	28	104	23592960	52	20620
2026-01-10 15:38:00.66	30.99	16.56	-40.7	-51.4	3.6	3.02e+01	0	28	104	23592960	56	18092
2026-01-10 15:38:01.96	31.12	16.71	-42.4	-53.6	3.5	3.02e+01	0	28	104	23592960	50	32685
2026-01-10 15:38:02.69	31.20	16.79	-47.0	-64.9	3.5	3.02e+01	0	28	104	23592960	60	67879
2026-01-10 15:38:03.98	31.33	16.94	-38.0	-48.4	3.6	3.02e+01	0	28	104	23592960	46	22592
2026-01-10 15:38:04.71	31.40	17.03	-44.8	-56.9	3.6	3.02e+01	0	28	104	23592960	60	26837
2026-01-10 15:38:06.00	31.53	17.18	-37.7	-48.1	3.5	3.02e+01	0	28	104	23592960	50	17369
2026-01-10 15:38:06.72	31.61	17.27	-37.9	-48.3	3.5	3.02e+01	0	28	104	23592960	50	17819
2026-01-10 15:38:08.02	31.75	17.42	-37.1	-47.4	3.5	3.02e+01	0	27	104	23592960	50	16055
2026-01-10 15:38:08.74	31.82	17.51	-37.5	-47.8	3.5	3.02e+01	0	27	104	23592960	48	18948
2026-01-10 15:38:10.04	31.96	17.66	-37.5	-47.9	3.6	3.02e+01	0	28	104	23592960	50	16937
2026-01-10 15:38:10.76	32.04	17.75	-36.2	-46.4	3.5	3.02e+01	0	27	104	23592960	46	17950
2026-01-10 15:38:12.06	32.18	17.91	-41.2	-52.1	3.5	3.02e+01	0	28	104	23592960	60	15413
2026-01-10 15:38:12.78	32.26	18.00	-35.1	-45.3	3.5	3.02e+01	0	27	104	23592960	48	14205
2026-01-10 15:38:14.08	32.40	18.16	-36.3	-46.5	3.5	3.02e+01	0	28	104	23592960	48	16224
2026-01-10 15:38:14.80	32.48	18.24	-35.5	-45.8	3.5	3.02e+01	0	28	104	23592960	46	16704
2026-01-10 15:38:16.10	32.63	18.40	-35.2	-45.5	3.5	3.02e+01	0	27	104	23592960	46	16159
2026-01-10 15:38:16.82	32.71	18.49	-35.0	-45.2	3.5	3.02e+01	0	28	104	23592960	46	15597
2026-01-10 15:38:18.12	32.85	18.66	-39.8	-50.4	3.5	3.02e+01	0	27	104	23592960	50	22624
2026-01-10 15:38:18.84	32.94	18.75	-35.3	-45.5	3.5	3.02e+01	0	28	104	23592960	46	16143
2026-01-10 15:38:20.14	33.09	18.91	-47.8	-64.2	3.5	3.02e+01	0	27	104	23592960	60	62304
2026-01-10 15:38:20.86	33.17	19.00	-46.6	-60.6	3.6	3.02e+01	0	27	104	23592960	60	41158
2026-01-10 15:38:22.16	33.32	19.17	-46.7	-61.2	3.5	3.02e+01	0	28	104	23592960	60	44210
2026-01-10 15:38:22.88	33.41	19.26	-43.4	-54.8	3.6	3.02e+01	0	27	104	23592960	60	21126
2026-01-10 15:38:24.18	33.57	19.43	-38.8	-49.2	3.5	3.02e+01	0	28	104	23592960	52	17671
2026-01-10 15:38:24.90	33.65	19.52	-37.9	-48.4	3.5	3.02e+01	0	27	104	23592960	52	15990
2026-01-10 15:38:26.20	33.81	19.69	-37.3	-47.6	3.5	3.02e+01	0	27	104	23592960	48	18496
2026-01-10 15:38:26.92	33.90	19.78	-37.9	-48.4	3.5	3.02e+01	0	27	104	23592960	48	20108
2026-01-10 15:38:28.22	34.06	19.95	-37.7	-48.1	3.6	3.02e+01	0	28	104	23592960	50	17361
2026-01-10 15:38:28.94	34.15	20.05	-42.3	-53.3	3.4	3.02e+01	0	27	104	23592960	50	31717
2026-01-10 15:38:30.24	34.31	20.22	-41.3	-52.2	3.5	3.02e+01	0	27	104	23592960	56	19674
2026-01-10 15:38:30.96	34.41	20.32	-38.0	-48.4	3.5	3.02e+01	0	28	104	23592960	46	22564
2026-01-10 15:38:32.26	34.57	20.49	-38.2	-48.6	3.6	3.02e+01	0	28	104	23592960	52	16388
2026-01-10 15:38:32.98	34.67	20.59	-37.1	-47.4	3.6	3.02e+01	0	28	104	23592960	50	15972
2026-01-10 15:38:34.28	34.84	20.76	-35.6	-45.9	3.5	3.02e+01	0	27	104	23592960	46	17015
2026-01-10 15:38:35.00	34.93	20.86	-35.3	-45.5	3.5	3.02e+01	0	27	104	23592960	46	16308
2026-01-10 15:38:36.30	35.10	21.04	-38.4	-48.8	3.5	3.02e+01	0	28	104	23592960	50	18906
2026-01-10 15:38:37.02	35.20	21.14	-36.1	-46.4	3.5	3.02e+01	0	27	104	23592960	46	17907
2026-01-10 15:38:38.32	35.38	21.32	-47.6	-63.2	3.5	3.02e+01	0	27	104	23592960	60	55767
2026-01-10 15:38:39.04	35.48	21.42	-41.2	-52.2	3.5	3.02e+01	0	28	104	23592960	60	15689
2026-01-10 15:38:40.34	35.66	21.60	-47.3	-62.5	3.5	3.02e+01	0	28	104	23592960	60	51258
2026-01-10 15:38:41.06	35.76	21.70	-36.8	-47.2	3.5	3.02e+01	0	28	104	23592960	50	15628
2026-01-10 15:38:42.35	35.94	21.88	-35.3	-45.6	3.5	3.02e+01	0	28	104	23592960	46	16455
2026-01-10 15:38:43.08	36.04	21.98	-35.2	-45.4	3.5	3.02e+01	0	27	104	23592960	46	16106
2026-01-10 15:38:44.38	36.23	22.17	-35.1	-45.3	3.5	3.02e+01	0	27	104	23592960	46	15874
2026-01-10 15:38:45.10	36.33	22.27	-40.1	-50.7	3.5	3.02e+01	0	27	104	23592960	52	20972
2026-01-10 15:38:46.39	36.52	22.46	-37.6	-47.9	3.5	3.02e+01	0	27	104	23592960	50	17006
2026-01-10 15:38:47.12	36.63	22.56	-47.5	-64.7	3.5	3.02e+01	0	28	104	23592960	60	66367
2026-01-10 15:38:48.41	36.82	22.75	-45.1	-58.1	3.5	3.02e+01	0	27	104	23592960	60	30876
2026-01-10 15:38:49.13	36.93	22.85	-45.4	-58.1	3.5	3.02e+01	0	27	104	23592960	58	34602
2026-01-10 15:38:50.43	37.13	23.04	-39.9	-50.5	3.5	3.02e+01	0	28	104	23592960	56	16218
2026-01-10 15:38:51.15	37.24	23.15	-38.8	-49.2	3.5	3.02e+01	0	27	104	23592960	52	17660
2026-01-10 15:38:52.45	37.44	23.34	-38.1	-48.6	3.5	3.02e+01	0	27	104	23592960	50	18447
2026-01-10 15:38:53.17	37.55	23.45	-38.3	-48.8	3.5	3.02e+01	0	27	104	23592960	50	18838
2026-01-10 15:38:54.47	37.75	23.64	-39.3	-49.9	3.5	3.02e+01	0	27	104	23592960	52	19063
2026-01-10 15:38:55.19	37.87	23.75	-38.1	-48.5	3.6	3.02e+01	0	27	104	23592960	50	18170
2026-01-10 15:38:56.49	38.08	23.95	-47.2	-64.0	3.5	3.02e+01	0	27	104	23592960	60	61249
2026-01-10 15:38:57.21	38.20	24.05	-41.6	-52.5	3.5	3.02e+01	0	27	104	23592960	58	18286
2026-01-10 15:38:58.51	38.41	24.25	-47.2	-61.9	3.5	3.02e+01	0	27	104	23592960	60	48084
2026-01-10 15:38:59.23	38.53	24.36	-38.7	-49.2	3.5	3.02e+01	0	27	104	23592960	54	15636
2026-01-10 15:39:00.53	38.75	24.56	-37.1	-47.4	3.5	3.02e+01	0	27	104	23592960	50	15991
2026-01-10 15:39:01.25	38.87	24.67	-36.3	-46.5	3.5	3.02e+01	0	27	104	23592960	48	16165
2026-01-10 15:39:02.55	39.09	24.88	-35.4	-45.5	3.5	3.02e+01	0	27	104	23592960	46	16314
2026-01-10 15:39:03.27	39.21	24.99	-37.7	-48.0	3.5	3.02e+01	0	27	104	23592960	48	19289
2026-01-10 15:39:04.57	39.44	25.19	-36.0	-46.4	3.5	3.02e+01	0	27	104	23592960	50	14325
2026-01-10 15:39:05.29	39.57	25.30	-47.6	-63.3	3.5	3.02e+01	0	27	104	23592960	60	56490
2026-01-10 15:39:06.59	39.80	25.51	-36.8	-47.1	3.4	3.02e+01	0	27	104	23592960	52	13744
2026-01-10 15:39:07.31	39.93	25.63	-47.4	-62.4	3.5	3.02e+01	0	27	104	23592960	60	50862
2026-01-10 15:39:08.60	40.16	25.83	-35.8	-46.0	3.5	3.02e+01	0	27	104	23592960	46	17265
2026-01-10 15:39:09.33	40.30	25.95	-35.9	-46.1	3.5	3.02e+01	0	27	104	23592960	46	17422
2026-01-10 15:39:10.62	40.54	26.16	-35.1	-45.3	3.5	3.02e+01	0	27	104	23592960	46	15904
2026-01-10 15:39:11.35	40.67	26.27	-35.0	-45.3	3.5	3.02e+01	0	27	104	23592960	46	15816
2026-01-10 15:39:12.64	40.92	26.48	-43.2	-54.6	3.5	3.02e+01	0	27	104	23592960	60	20733
2026-01-10 15:39:13.36	41.05	26.60	-37.6	-47.9	3.6	3.02e+01	0	27	104	23592960	52	15150
2026-01-10 15:39:14.66	41.31	26.82	-48.0	-65.4	3.5	3.02e+01	0	27	104	23592960	60	71790
2026-01-10 15:39:15.38	41.45	26.93	-45.2	-57.7	3.5	3.02e+01	0	27	104	23592960	60	29635
2026-01-10 15:39:16.68	41.70	27.15	-47.1	-61.3	3.6	3.02e+01	0	27	104	23592960	60	44793
2026-01-10 15:39:17.40	41.85	27.27	-39.7	-50.1	3.5	3.02e+01	0	27	104	23592960	54	17485
2026-01-10 15:39:18.70	42.11	27.49	-38.6	-49.0	3.5	3.02e+01	0	27	104	23592960	52	17256
2026-01-10 15:39:19.43	42.26	27.61	-38.5	-48.9	3.5	3.02e+01	0	27	104	23592960	52	16951
2026-01-10 15:39:20.73	42.53	27.83	-37.2	-47.6	3.5	3.02e+01	0	27	104	23592960	50	16441
2026-01-10 15:39:21.44	42.67	27.95	-40.5	-51.7	3.5	3.02e+01	0	27	104	23592960	54	20890
2026-01-10 15:39:22.74	42.95	28.17	-35.9	-46.3	3.4	3.02e+01	0	27	104	23592960	46	17697
2026-01-10 15:39:23.46	43.10	28.29	-47.2	-63.3	3.5	3.02e+01	0	27	104	23592960	60	56588
2026-01-10 15:39:24.76	43.38	28.52	-35.8	-46.1	3.5	3.02e+01	0	27	104	23592960	50	13876
2026-01-10 15:39:25.48	43.54	28.64	-47.2	-62.7	3.5	3.02e+01	0	27	104	23592960	60	52262
2026-01-10 15:39:26.78	43.82	28.87	-37.8	-48.1	3.5	3.02e+01	0	27	104	23592960	50	17436
2026-01-10 15:39:27.50	43.99	28.99	-36.4	-46.6	3.6	3.02e+01	0	27	104	23592960	48	16457
2026-01-10 15:39:28.80	44.28	29.22	-35.5	-45.7	3.5	3.02e+01	0	27	104	23592960	46	16696
2026-01-10 15:39:29.52	44.44	29.35	-35.3	-45.5	3.5	3.02e+01	0	27	104	23592960	46	16276
2026-01-10 15:39:30.82	44.74	29.58	-38.9	-49.4	3.5	3.02e+01	0	28	104	23592960	52	17971
2026-01-10 15:39:31.55	44.91	29.70	-36.1	-46.3	3.5	3.02e+01	0	27	104	23592960	50	14113
2026-01-10 15:39:32.85	45.22	29.93	-43.9	-56.0	3.5	3.02e+01	0	27	104	23592960	60	24285
2026-01-10 15:39:33.57	45.39	30.06	-39.2	-49.7	3.5	3.02e+01	0	27	104	23592960	56	14834
2026-01-10 15:39:34.86	45.70	30.29	-40.6	-51.3	3.6	3.02e+01	0	27	104	23592960	60	14185
2026-01-10 15:39:35.59	45.88	30.43	-35.8	-46.0	3.6	3.02e+01	0	27	104	23592960	46	17137
2026-01-10 15:39:36.89	46.20	30.66	-35.8	-46.0	3.5	3.02e+01	0	27	104	23592960	46	17160
2026-01-10 15:39:37.61	46.38	30.79	-36.2	-46.5	3.5	3.02e+01	0	27	104	23592960	46	18241
2026-01-10 15:39:38.91	46.70	31.03	-36.3	-46.7	3.5	3.02e+01	0	27	104	23592960	46	18545
2026-01-10 15:39:39.63	46.89	31.16	-38.7	-49.2	3.5	3.02e+01	0	27	104	23592960	54	15597
2026-01-10 15:39:40.93	47.22	31.39	-40.4	-51.0	3.5	3.02e+01	0	27	104	23592960	48	27177
2026-01-10 15:39:41.65	47.41	31.53	-48.2	-65.5	3.5	3.02e+01	0	27	104	23592960	60	72122
2026-01-10 15:39:42.94	47.75	31.76	-42.5	-53.8	3.5	3.02e+01	0	27	104	23592960	52	29929
2026-01-10 15:39:43.66	47.94	31.90	-47.1	-61.9	3.6	3.02e+01	0	27	104	23592960	60	48122
2026-01-10 15:39:44.96	48.30	32.14	-39.2	-49.6	3.5	3.02e+01	0	27	104	23592960	54	16406
2026-01-10 15:39:45.69	48.49	32.27	-38.5	-48.8	3.6	3.02e+01	0	27	104	23592960	52	16850
2026-01-10 15:39:46.98	48.85	32.51	-38.4	-48.8	3.5	3.02e+01	0	27	104	23592960	52	16876
2026-01-10 15:39:47.70	49.05	32.65	-37.4	-47.8	3.5	3.02e+01	0	27	104	23592960	50	16747
2026-01-10 15:39:49.00	49.42	32.89	-43.5	-55.0	3.5	3.02e+01	0	27	104	23592960	60	21531
2026-01-10 15:39:49.72	49.63	33.03	-39.4	-49.8	3.5	3.02e+01	0	27	104	23592960	60	11836
2026-01-10 15:39:51.02	50.00	33.27	-41.9	-53.7	3.5	3.02e+01	0	27	104	23592960	60	18668
2026-01-10 15:39:51.74	50.22	33.41	-38.5	-49.3	3.5	3.02e+01	0	27	104	23592960	50	19957
2026-01-10 15:39:53.04	50.60	33.66	-39.3	-50.1	3.5	3.02e+01	0	27	104	23592960	56	15447
2026-01-10 15:39:53.76	50.82	33.79	-38.5	-48.9	3.5	3.02e+01	0	27	104	23592960	52	16922
2026-01-10 15:39:55.06	51.21	34.04	-36.8	-47.1	3.5	3.02e+01	0	27	104	23592960	48	17468
2026-01-10 15:39:55.78	51.44	34.18	-36.3	-46.6	3.5	3.02e+01	0	27	104	23592960	48	16357
2026-01-10 15:39:57.08	51.84	34.42	-45.2	-57.5	3.5	3.02e+01	0	27	104	23592960	58	32323
2026-01-10 15:39:57.80	52.07	34.56	-41.0	-51.8	3.4	3.02e+01	0	27	104	23592960	60	14927
2026-01-10 15:39:59.10	52.48	34.81	-47.8	-65.5	3.5	3.02e+01	0	27	104	23592960	60	72445
2026-01-10 15:39:59.82	52.71	34.95	-43.9	-55.6	3.6	3.02e+01	0	27	104	23592960	60	23169
2026-01-10 15:40:01.12	53.14	35.20	-44.6	-57.1	3.5	3.02e+01	0	27	104	23592960	56	34544
2026-01-10 15:40:01.84	53.38	35.34	-43.6	-55.5	3.5	3.02e+01	0	27	104	23592960	60	22877
2026-01-10 15:40:03.14	53.81	35.59	-37.7	-48.2	3.5	3.02e+01	0	27	104	23592960	52	15689
2026-01-10 15:40:03.86	54.06	35.73	-36.9	-47.3	3.5	3.02e+01	0	27	104	23592960	50	15900
2026-01-10 15:40:05.16	54.50	35.98	-36.0	-46.2	3.5	3.02e+01	0	27	104	23592960	48	15598
2026-01-10 15:40:05.87	54.75	36.12	-37.0	-47.3	3.5	3.02e+01	0	27	104	23592960	48	17754
2026-01-10 15:40:07.17	55.21	36.37	-39.1	-49.7	3.5	3.02e+01	0	27	104	23592960	50	20834
2026-01-10 15:40:07.89	55.46	36.51	-41.1	-51.8	3.5	3.02e+01	0	27	104	23592960	50	26705
2026-01-10 15:40:09.19	55.93	36.76	-44.8	-56.9	3.5	3.02e+01	0	27	104	23592960	60	26933
2026-01-10 15:40:09.92	56.20	36.90	-39.7	-50.2	3.5	3.02e+01	0	27	104	23592960	50	22188
2026-01-10 15:40:11.21	56.67	37.15	-40.7	-51.4	3.5	3.02e+01	0	27	104	23592960	58	15984
2026-01-10 15:40:11.93	56.94	37.29	-40.2	-50.8	3.5	3.02e+01	0	27	104	23592960	56	16846
2026-01-10 15:40:13.23	57.43	37.54	-40.2	-50.7	3.5	3.02e+01	0	27	104	23592960	54	18600
2026-01-10 15:40:13.95	57.71	37.68	-40.1	-50.5	3.5	3.02e+01	0	27	104	23592960	54	18289
2026-01-10 15:40:15.25	58.21	37.93	-45.6	-58.1	3.5	3.02e+01	0	27	104	23592960	60	30919
2026-01-10 15:40:15.97	58.49	38.07	-47.5	-62.3	3.5	3.02e+01	0	27	104	23592960	60	50441
2026-01-10 15:40:17.27	59.01	38.32	-44.5	-56.2	3.5	3.02e+01	0	27	104	23592960	58	27958
2026-01-10 15:40:17.99	59.30	38.45	-38.5	-48.9	3.5	3.02e+01	0	27	104	23592960	50	19149
2026-01-10 15:40:19.29	59.82	38.70	-48.0	-63.9	3.5	3.02e+01	0	27	104	23592960	60	60637
2026-01-10 15:40:20.01	60.12	38.84	-38.7	-49.1	3.5	3.02e+01	0	27	104	23592960	56	13835
2026-01-10 15:40:21.31	60.66	39.09	-36.9	-47.2	3.5	3.02e+01	0	27	104	23592960	48	17674
2026-01-10 15:40:22.03	60.96	39.22	-36.2	-46.4	3.5	3.02e+01	0	27	104	23592960	48	16013
2026-01-10 15:40:23.33	61.52	39.47	-36.2	-46.6	3.5	3.02e+01	0	27	104	23592960	48	16370
2026-01-10 15:40:24.05	61.83	39.61	-44.7	-56.8	3.5	3.02e+01	0	27	104	23592960	58	29813
2026-01-10 15:40:25.35	62.39	39.85	-46.0	-58.8	3.5	3.02e+01	0	27	104	23592960	60	33456
2026-01-10 15:40:26.07	62.71	39.98	-45.1	-57.3	3.5	3.02e+01	0	27	104	23592960	58	31703
2026-01-10 15:40:27.37	63.29	40.23	-38.0	-48.4	3.6	3.02e+01	0	27	104	23592960	52	15988
2026-01-10 15:40:28.09	63.62	40.36	-47.3	-61.8	3.5	3.02e+01	0	27	104	23592960	60	47366
2026-01-10 15:40:29.39	64.21	40.60	-37.7	-48.2	3.5	3.02e+01	0	27	104	23592960	50	17549
2026-01-10 15:40:30.11	64.54	40.73	-37.1	-47.4	3.5	3.02e+01	0	27	104	23592960	50	16108
2026-01-10 15:40:31.41	65.15	40.97	-35.6	-45.8	3.5	3.02e+01	0	27	104	23592960	46	16745
2026-01-10 15:40:32.13	65.49	41.10	-35.5	-45.7	3.5	3.02e+01	0	27	104	23592960	46	16698
2026-01-10 15:40:33.43	66.12	41.33	-45.5	-57.9	3.5	3.02e+01	0	27	104	23592960	60	30352
2026-01-10 15:40:34.15	66.46	41.46	-39.8	-50.4	3.5	3.02e+01	0	27	104	23592960	56	15991
2026-01-10 15:40:35.45	67.10	41.69	-47.9	-63.8	3.5	3.02e+01	0	27	104	23592960	60	59430
2026-01-10 15:40:36.17	67.46	41.82	-43.8	-55.3	3.5	3.02e+01	0	27	104	23592960	60	22401
2026-01-10 15:40:37.47	68.11	42.05	-48.0	-64.0	3.5	3.02e+01	0	27	104	23592960	60	61093
2026-01-10 15:40:38.19	68.47	42.17	-39.7	-50.3	3.5	3.02e+01	0	27	104	23592960	54	17813
2026-01-10 15:40:39.49	69.14	42.39	-38.1	-48.4	3.5	3.02e+01	0	27	104	23592960	52	16061
2026-01-10 15:40:40.21	69.51	42.52	-37.1	-47.5	3.5	3.02e+01	0	27	104	23592960	50	16183
2026-01-10 15:40:41.51	70.19	42.74	-36.2	-46.4	3.5	3.02e+01	0	27	104	23592960	48	16038
2026-01-10 15:40:42.23	70.57	42.86	-41.1	-51.9	3.5	3.02e+01	0	27	104	23592960	54	21394
2026-01-10 15:40:43.52	71.26	43.07	-35.7	-46.0	3.5	3.02e+01	0	27	104	23592960	48	15234
2026-01-10 15:40:44.24	71.65	43.18	-48.3	-65.1	3.5	3.02e+01	0	27	104	23592960	60	69196
2026-01-10 15:40:45.54	72.35	43.39	-39.0	-49.4	3.5	3.02e+01	0	27	104	23592960	56	14293
2026-01-10 15:40:46.26	72.75	43.51	-47.2	-61.9	3.5	3.02e+01	0	27	104	23592960	60	47745
2026-01-10 15:40:47.56	73.47	43.71	-37.7	-47.9	3.5	3.02e+01	0	27	104	23592960	50	17020
2026-01-10 15:40:48.28	73.88	43.82	-37.2	-47.5	3.5	3.02e+01	0	27	104	23592960	50	16178
2026-01-10 15:40:49.58	74.61	44.02	-34.9	-45.1	3.5	3.02e+01	0	27	104	23592960	46	15566
2026-01-10 15:40:50.30	75.03	44.12	-34.2	-44.2	3.5	3.02e+01	0	27	104	23592960	44	15659
2026-01-10 15:40:51.60	75.78	44.31	-37.6	-48.1	3.4	3.02e+01	0	27	104	23592960	52	15501
2026-01-10 15:40:52.32	76.20	44.42	-37.9	-48.2	3.5	3.02e+01	0	27	104	23592960	50	17609
2026-01-10 15:40:53.62	76.96	44.60	-48.1	-65.3	3.5	3.02e+01	0	27	104	23592960	60	70594
2026-01-10 15:40:54.34	77.39	44.70	-42.1	-53.1	3.5	3.02e+01	0	27	104	23592960	58	19414
2026-01-10 15:40:55.64	78.17	44.88	-46.6	-60.2	3.5	3.02e+01	0	27	104	23592960	60	39179
2026-01-10 15:40:56.36	78.60	44.97	-37.2	-47.6	3.5	3.02e+01	0	27	104	23592960	50	16345
2026-01-10 15:40:57.65	79.39	45.14	-36.8	-47.0	3.5	3.02e+01	0	27	104	23592960	48	17096
2026-01-10 15:40:58.37	79.83	45.23	-37.1	-47.5	3.5	3.02e+01	0	27	104	23592960	48	18133
2026-01-10 15:40:59.67	80.64	45.39	-37.6	-48.0	3.5	3.02e+01	0	27	104	23592960	50	17125
2026-01-10 15:41:00.40	81.09	45.48	-43.8	-55.2	3.5	3.02e+01	0	27	104	23592960	60	22117
2026-01-10 15:41:01.69	81.91	45.63	-42.8	-53.9	3.5	3.02e+01	0	27	104	23592960	60	19089
2026-01-10 15:41:02.41	82.36	45.71	-45.0	-57.1	3.5	3.02e+01	0	27	104	23592960	60	27599
2026-01-10 15:41:03.71	83.19	45.85	-35.6	-45.8	3.5	3.02e+01	0	27	104	23592960	46	16717
2026-01-10 15:41:04.44	83.66	45.93	-47.7	-63.3	3.5	3.02e+01	0	27	104	23592960	60	56193
2026-01-10 15:41:05.73	84.50	46.06	-35.6	-45.8	3.5	3.02e+01	0	27	104	23592960	46	16871
2026-01-10 15:41:06.46	84.97	46.13	-36.1	-46.2	3.5	3.02e+01	0	27	104	23592960	46	17598
2026-01-10 15:41:07.75	85.82	46.26	-36.1	-46.4	3.5	3.02e+01	0	27	104	23592960	46	17924
2026-01-10 15:41:08.47	86.29	46.32	-35.8	-45.9	3.5	3.02e+01	0	27	104	23592960	46	16989
2026-01-10 15:41:09.77	87.15	46.44	-47.5	-62.8	3.6	3.02e+01	0	27	104	23592960	60	52954
2026-01-10 15:41:10.49	87.63	46.50	-36.0	-46.2	3.5	3.02e+01	0	27	104	23592960	48	15703
2026-01-10 15:41:11.79	88.50	46.60	-45.4	-58.0	3.6	3.02e+01	0	27	104	23592960	60	30626
2026-01-10 15:41:12.51	88.99	46.65	-41.9	-52.9	3.5	3.02e+01	0	27	104	23592960	60	16961
2026-01-10 15:41:13.81	89.87	46.74	-45.1	-57.1	3.5	3.02e+01	0	27	104	23592960	60	27660
2026-01-10 15:41:14.53	90.36	46.79	-39.3	-49.6	3.5	3.02e+01	0	27	104	23592960	52	18389
2026-01-10 15:41:15.83	91.25	46.87	-38.8	-49.2	3.5	3.02e+01	0	27	104	23592960	52	17641
2026-01-10 15:41:16.55	91.74	46.92	-39.0	-49.3	3.5	3.02e+01	0	27	104	23592960	52	17721
2026-01-10 15:41:17.85	92.64	46.99	-38.6	-49.1	3.5	3.02e+01	0	27	104	23592960	50	19538
2026-01-10 15:41:18.57	93.13	47.02	-42.0	-52.9	3.5	3.02e+01	0	27	104	23592960	60	16914
2026-01-10 15:41:19.87	94.03	47.08	-36.5	-46.8	3.5	3.02e+01	0	27	104	23592960	54	11854
2026-01-10 15:41:20.59	94.53	47.11	-43.7	-55.2	3.5	3.02e+01	0	27	104	23592960	60	22076
2026-01-10 15:41:21.89	95.44	47.16	-39.1	-49.4	3.4	3.02e+01	0	27	104	23592960	48	22748
2026-01-10 15:41:22.61	95.94	47.18	-48.1	-64.4	3.5	3.02e+01	0	27	104	23592960	60	64202
2026-01-10 15:41:23.91	96.85	47.22	-37.9	-48.4	3.5	3.02e+01	0	27	104	23592960	50	17907
2026-01-10 15:41:24.63	97.35	47.23	-37.2	-47.5	3.5	3.02e+01	0	27	104	23592960	50	16283
2026-01-10 15:41:25.93	98.27	47.26	-36.7	-47.1	3.5	3.02e+01	0	27	104	23592960	48	17485
2026-01-10 15:41:26.65	98.77	47.27	-37.7	-48.1	3.5	3.02e+01	0	27	104	23592960	48	19553
2026-01-10 15:41:27.95	99.69	47.28	-41.4	-52.1	3.5	3.02e+01	0	27	104	23592960	56	19596
2026-01-10 15:41:28.67	100.19	47.28	-38.6	-49.2	3.5	3.02e+01	0	27	104	23592960	56	14026
2026-01-10 15:41:29.97	101.11	47.28	-42.5	-53.3	3.5	3.02e+01	0	27	104	23592960	60	17842
2026-01-10 15:41:30.69	101.61	47.28	-37.8	-48.2	3.5	3.02e+01	0	27	104	23592960	50	17581
2026-01-10 15:41:31.99	102.53	47.27	-40.9	-51.5	3.5	3.02e+01	0	27	104	23592960	60	14411
2026-01-10 15:41:32.71	103.03	47.26	-38.7	-49.1	3.5	3.02e+01	0	27	104	23592960	52	17324
2026-01-10 15:41:34.01	103.94	47.23	-36.9	-47.2	3.5	3.02e+01	0	27	104	23592960	50	15742
2026-01-10 15:41:34.73	104.45	47.22	-36.2	-46.6	3.5	3.02e+01	0	27	104	23592960	48	16392
2026-01-10 15:41:36.03	105.36	47.18	-42.4	-53.7	3.5	3.02e+01	0	27	104	23592960	52	29378
2026-01-10 15:41:36.75	105.86	47.16	-42.6	-53.9	3.5	3.02e+01	0	27	104	23592960	60	19110
2026-01-10 15:41:38.05	106.77	47.11	-43.0	-54.4	3.5	3.02e+01	0	27	104	23592960	52	31932
2026-01-10 15:41:38.77	107.27	47.08	-45.8	-58.6	3.5	3.02e+01	0	27	104	23592960	60	32877
2026-01-10 15:41:40.07	108.17	47.02	-46.2	-59.2	3.4	3.02e+01	0	28	104	23592960	60	34990
2026-01-10 15:41:40.79	108.67	46.98	-45.6	-58.6	3.5	3.02e+01	0	27	104	23592960	60	32588
2026-01-10 15:41:42.09	109.56	46.91	-38.2	-48.5	3.5	3.02e+01	0	27	104	23592960	52	16292
2026-01-10 15:41:42.81	110.05	46.87	-38.2	-48.7	3.5	3.02e+01	0	27	104	23592960	50	18621
2026-01-10 15:41:44.11	110.94	46.79	-36.4	-46.6	3.5	3.02e+01	0	27	104	23592960	48	16477
2026-01-10 15:41:44.83	111.43	46.74	-35.9	-46.1	3.5	3.02e+01	0	27	104	23592960	44	19492
2026-01-10 15:41:46.12	112.31	46.65	-40.8	-51.6	3.5	3.02e+01	0	27	104	23592960	56	18354
2026-01-10 15:41:46.84	112.79	46.59	-37.6	-48.2	3.5	3.02e+01	0	27	104	23592960	46	22087
2026-01-10 15:41:48.14	113.66	46.49	-42.0	-52.8	3.5	3.02e+01	0	28	104	23592960	54	23799
2026-01-10 15:41:48.86	114.14	46.43	-35.8	-45.9	3.5	3.02e+01	0	28	104	23592960	44	19073
2026-01-10 15:41:50.16	115.01	46.31	-38.4	-48.8	3.5	3.02e+01	0	27	104	23592960	54	14899
2026-01-10 15:41:50.88	115.48	46.25	-36.7	-46.9	3.5	3.02e+01	0	27	104	23592960	50	15151
2026-01-10 15:41:52.18	116.34	46.12	-35.3	-45.5	3.5	3.02e+01	0	28	104	23592960	46	16152
2026-01-10 15:41:52.90	116.80	46.05	-34.9	-45.1	3.5	3.02e+01	0	27	104	23592960	46	15422
2026-01-10 15:41:54.20	117.65	45.92	-43.8	-54.9	3.5	3.02e+01	0	27	104	23592960	60	21464
2026-01-10 15:41:54.92	118.11	45.84	-39.8	-50.5	3.5	3.02e+01	0	28	104	23592960	56	16240
2026-01-10 15:41:56.22	118.94	45.70	-48.1	-64.8	3.5	3.02e+01	0	28	104	23592960	60	67052
2026-01-10 15:41:56.94	119.40	45.62	-42.0	-53.0	3.5	3.02e+01	0	27	104	23592960	60	17106
2026-01-10 15:41:58.24	120.22	45.47	-47.9	-63.8	3.5	3.02e+01	0	28	104	23592960	60	59946
2026-01-10 15:41:58.96	120.67	45.38	-40.5	-51.0	3.3	3.02e+01	0	27	104	23592960	60	13665
2026-01-10 15:42:00.26	121.47	45.22	-37.0	-47.5	3.5	3.02e+01	0	28	104	23592960	50	16141
2026-01-10 15:42:00.98	121.91	45.13	-37.0	-47.4	3.6	3.02e+01	0	28	104	23592960	50	16106
2026-01-10 15:42:02.28	122.71	44.96	-36.0	-46.1	3.6	3.02e+01	0	27	104	23592960	48	15572
2026-01-10 15:42:03.00	123.14	44.86	-37.4	-47.7	3.5	3.02e+01	0	28	104	23592960	46	20888
2026-01-10 15:42:04.30	123.92	44.69	-39.8	-50.4	3.5	3.02e+01	0	28	104	23592960	54	18053
2026-01-10 15:42:05.02	124.35	44.59	-43.2	-54.6	3.5	3.02e+01	0	28	104	23592960	52	32656
2026-01-10 15:42:06.32	125.12	44.40	-44.4	-56.1	3.5	3.02e+01	0	27	104	23592960	60	24670
2026-01-10 15:42:07.04	125.54	44.30	-42.5	-53.4	3.4	3.02e+01	0	28	104	23592960	52	28376
2026-01-10 15:42:08.34	126.29	44.11	-38.3	-48.5	3.6	3.02e+01	0	28	104	23592960	52	16158
2026-01-10 15:42:09.06	126.70	44.00	-37.4	-47.8	3.6	3.02e+01	0	28	104	23592960	50	16739
2026-01-10 15:42:10.36	127.44	43.80	-35.5	-37.1	24.3	3.02e+01	57	28	104	23592960	46	6166
2026-01-10 15:42:11.07	127.84	43.69	-35.2	-36.5	28.9	3.02e+01	57	28	0	24117248	46	5742
2026-01-10 15:42:12.37	128.56	43.49	-35.4	-36.6	28.5	3.02e+01	47	27	0	26738688	46	5832
2026-01-10 15:42:13.10	128.96	43.37	-35.0	-36.2	28.9	3.02e+01	60	27	0	28311552	46	5582
2026-01-10 15:42:14.39	129.67	43.16	-34.5	-35.7	29.5	3.02e+01	60	27	0	30408704	44	5861
2026-01-10 15:42:15.12	130.06	43.05	-34.6	-35.8	29.4	3.02e+01	55	27	0	31981568	44	5936
2026-01-10 15:42:16.41	130.75	42.83	-34.7	-36.0	29.2	3.02e+01	59	28	0	34078720	44	6066
2026-01-10 15:42:17.13	131.13	42.71	-34.6	-35.8	29.3	3.02e+01	54	28	0	35651584	44	5934
2026-01-10 15:42:18.43	131.81	42.49	-34.6	-35.9	29.3	3.02e+01	59	28	0	37748736	44	6000
2026-01-10 15:42:19.15	132.19	42.37	-34.6	-35.8	29.3	3.02e+01	58	27	0	39321600	44	5984
2026-01-10 15:42:20.45	132.85	42.15	-34.7	-35.9	29.3	3.02e+01	61	27	0	41943040	44	6052
2026-01-10 15:42:21.17	133.22	42.02	-34.9	-36.1	29.1	3.02e+01	59	28	0	42991616	44	6149
2026-01-10 15:42:22.47	133.87	41.79	-35.0	-36.2	29.0	3.02e+01	47	28	0	45613056	44	6236
2026-01-10 15:42:23.19	134.23	41.67	-34.8	-36.0	29.2	3.02e+01	57	28	0	47185920	44	6077
2026-01-10 15:42:24.49	134.86	41.43	-35.2	-36.4	28.8	3.02e+01	57	28	0	49283072	44	6411
2026-01-10 15:42:25.21	135.21	41.30	-35.2	-36.4	28.7	3.02e+01	58	28	0	50855936	44	6421
2026-01-10 15:42:26.51	135.83	41.07	-34.9	-36.1	29.1	3.02e+01	61	28	0	52953088	44	6154
2026-01-10 15:42:27.23	136.18	40.94	-34.8	-36.0	29.1	3.02e+01	60	28	0	54525952	44	6127
2026-01-10 15:42:28.53	136.78	40.70	-34.5	-35.7	29.4	3.02e+01	59	28	0	57147392	44	5898
2026-01-10 15:42:29.25	137.12	40.57	-34.8	-36.0	29.2	3.02e+01	60	28	0	58195968	44	6096
2026-01-10 15:42:30.55	137.71	40.33	-35.1	-36.3	28.9	3.02e+01	51	28	0	60817408	44	6326
2026-01-10 15:42:31.27	138.04	40.19	-35.0	-36.2	29.0	3.02e+01	60	28	0	61865984	44	6265
2026-01-10 15:42:32.57	138.62	39.95	-35.1	-36.3	28.9	3.02e+01	58	28	0	64487424	44	6318
2026-01-10 15:42:33.29	138.94	39.81	-34.9	-36.2	29.1	3.02e+01	55	28	0	66060288	44	6211
2026-01-10 15:42:34.59	139.51	39.57	-34.8	-36.0	29.2	3.02e+01	59	28	0	68157440	44	6096
2026-01-10 15:42:35.31	139.82	39.43	-34.7	-35.9	29.2	3.02e+01	60	28	0	69730304	44	6040
2026-01-10 15:42:36.61	140.37	39.18	-34.9	-36.2	29.0	3.02e+01	58	28	0	72351744	44	6225
2026-01-10 15:42:37.33	140.67	39.05	-35.0	-36.3	28.9	3.02e+01	61	28	0	73400320	44	6306
2026-01-10 15:42:38.63	141.22	38.80	-35.0	-36.2	29.0	3.02e+01	53	28	0	76021760	44	6251
2026-01-10 15:42:39.35	141.51	38.66	-34.8	-36.0	29.1	3.02e+01	60	28	0	77070336	44	6124
2026-01-10 15:42:40.65	142.04	38.41	-34.8	-36.0	29.2	3.02e+01	57	28	0	79691776	44	6087
2026-01-10 15:42:41.37	142.33	38.27	-35.0	-36.3	28.9	3.02e+01	39	27	0	81264640	44	6300
2026-01-10 15:42:42.67	142.85	38.02	-34.7	-35.9	29.1	3.02e+01	59	28	0	83361792	44	6029
2026-01-10 15:42:43.39	143.13	37.88	-34.8	-36.0	29.1	3.02e+01	57	28	0	84934656	44	6129
2026-01-10 15:42:44.69	143.63	37.63	-34.6	-35.8	29.3	3.02e+01	60	28	0	87556096	44	5946
2026-01-10 15:42:45.41	143.91	37.49	-34.7	-35.9	29.3	3.02e+01	59	28	0	88604672	44	6025
2026-01-10 15:42:46.71	144.40	37.24	-34.6	-35.8	29.1	3.02e+01	51	28	0	91226112	44	5976
2026-01-10 15:42:47.43	144.67	37.10	-34.5	-35.7	29.4	3.02e+01	56	28	0	92274688	44	5876
2026-01-10 15:42:48.73	145.15	36.85	-34.5	-35.7	29.4	3.02e+01	52	28	0	94896128	44	5900
2026-01-10 15:42:49.45	145.41	36.71	-34.3	-35.5	29.6	3.02e+01	47	28	0	96468992	44	5773
2026-01-10 15:42:50.75	145.88	36.45	-34.3	-35.5	29.6	3.02e+01	60	28	0	98566144	44	5764
2026-01-10 15:42:51.47	146.14	36.31	-34.2	-35.4	29.6	3.02e+01	64	28	0	100139008	44	5715
2026-01-10 15:42:52.77	146.59	36.06	-34.0	-35.2	29.9	3.02e+01	59	28	0	102236160	44	5538
2026-01-10 15:42:53.49	146.84	35.92	-33.9	-35.0	30.0	3.02e+01	59	28	0	103809024	42	6117
2026-01-10 15:42:54.79	147.29	35.67	-33.9	-35.1	30.1	3.02e+01	55	28	0	105906176	42	6144
2026-01-10 15:42:55.51	147.53	35.53	-33.8	-35.0	30.0	3.02e+01	58	28	0	107479040	42	6117
2026-01-10 15:42:56.81	147.97	35.28	-33.6	-34.7	30.3	3.02e+01	62	28	0	110100480	42	5896
2026-01-10 15:42:57.53	148.21	35.14	-33.6	-34.8	30.2	3.02e+01	47	28	0	111149056	42	5955
2026-01-10 15:42:58.83	148.63	34.89	-33.7	-34.8	30.2	3.02e+01	60	28	0	113770496	42	5984
2026-01-10 15:42:59.55	148.87	34.75	-33.8	-35.0	30.0	3.02e+01	62	28	0	115343360	42	6110
2026-01-10 15:43:00.85	149.28	34.50	-33.5	-34.7	30.2	3.02e+01	58	28	0	117440512	42	5872
2026-01-10 15:43:01.57	149.51	34.36	-33.4	-34.6	30.4	3.02e+01	58	28	0	119013376	42	5797
2026-01-10 15:43:02.87	149.91	34.11	-33.3	-34.5	30.5	3.02e+01	44	28	0	121110528	42	5744
2026-01-10 15:43:03.59	150.13	33.97	-33.2	-34.4	30.5	3.02e+01	60	28	0	122683392	42	5696
2026-01-10 15:43:04.89	150.53	33.72	-33.2	-34.3	30.6	3.02e+01	61	28	0	125304832	42	5653
2026-01-10 15:43:05.61	150.75	33.59	-33.1	-34.2	30.7	3.02e+01	46	28	0	126353408	42	5554
2026-01-10 15:43:06.91	151.13	33.34	-33.0	-34.2	30.7	3.02e+01	59	28	0	128974848	40	6224
2026-01-10 15:43:07.63	151.34	33.20	-33.0	-34.2	30.7	3.02e+01	58	28	0	130023424	40	6234
2026-01-10 15:43:08.93	151.72	32.96	-33.0	-34.2	30.7	3.02e+01	58	28	0	132644864	40	6227
2026-01-10 15:43:09.65	151.93	32.82	-33.1	-34.2	30.7	3.02e+01	62	28	0	134217728	40	6251
2026-01-10 15:43:10.94	152.29	32.58	-33.1	-34.2	30.7	3.02e+01	51	28	0	136314880	40	6264
2026-01-10 15:43:11.66	152.50	32.44	-33.1	-34.3	30.6	3.02e+01	62	28	0	137887744	40	6306
2026-01-10 15:43:12.96	152.86	32.20	-33.0	-34.2	30.7	3.02e+01	59	28	0	140509184	40	6226
2026-01-10 15:43:13.68	153.05	32.07	-33.1	-34.3	30.6	3.02e+01	47	28	0	141557760	40	6307
2026-01-10 15:43:14.98	153.40	31.82	-33.1	-34.2	30.6	3.02e+01	59	28	0	144179200	40	6249
2026-01-10 15:43:15.70	153.60	31.69	-32.9	-34.1	30.7	3.02e+01	60	28	0	145227776	40	6167
2026-01-10 15:43:17.00	153.94	31.45	-32.9	-34.1	30.6	3.02e+01	59	28	0	147849216	40	6147
2026-01-10 15:43:17.72	154.13	31.32	-32.9	-34.0	30.7	3.02e+01	59	28	0	149422080	40	6109
2026-01-10 15:43:19.02	154.46	31.08	-33.0	-34.1	30.6	3.02e+01	45	28	0	151519232	40	6182
2026-01-10 15:43:19.74	154.65	30.95	-32.9	-34.0	30.6	3.02e+01	56	28	0	153092096	40	6108
2026-01-10 15:43:21.04	154.98	30.71	-32.8	-33.9	30.7	3.02e+01	61	28	0	155713536	40	6036
2026-01-10 15:43:21.76	155.15	30.58	-32.7	-33.9	30.8	3.02e+01	50	28	0	156762112	40	6020
2026-01-10 15:43:23.06	155.48	30.34	-32.9	-34.0	30.7	3.02e+01	60	28	0	159383552	40	6097
2026-01-10 15:43:23.78	155.65	30.21	-32.9	-34.0	30.7	3.02e+01	44	28	0	160432128	40	6110
2026-01-10 15:43:25.08	155.96	29.98	-32.9	-34.0	30.7	3.02e+01	58	28	0	163053568	40	6109
2026-01-10 15:43:25.80	156.14	29.85	-32.9	-34.1	30.7	3.02e+01	60	28	0	164626432	40	6162
2026-01-10 15:43:27.10	156.44	29.62	-33.0	-34.2	30.6	3.02e+01	56	28	0	166723584	40	6222
2026-01-10 15:43:27.82	156.61	29.49	-33.1	-34.3	30.5	3.02e+01	61	28	0	168296448	40	6295
2026-01-10 15:43:29.11	156.91	29.26	-33.3	-34.4	30.4	3.02e+01	45	28	0	170393600	40	6414
2026-01-10 15:43:29.84	157.07	29.13	-33.3	-34.4	30.4	3.02e+01	59	28	0	171966464	40	6403
2026-01-10 15:43:31.13	157.36	28.91	-33.3	-34.4	30.3	3.02e+01	61	28	0	174063616	40	6416
2026-01-10 15:43:31.86	157.53	28.78	-33.3	-34.4	30.4	3.02e+01	48	28	0	175636480	40	6401
2026-01-10 15:43:33.15	157.81	28.55	-33.2	-34.4	30.3	3.02e+01	59	28	0	178257920	40	6379
2026-01-10 15:43:33.88	157.97	28.43	-33.3	-34.4	30.3	3.02e+01	58	28	0	179306496	40	6398
2026-01-10 15:43:35.17	158.25	28.20	-33.2	-34.4	30.4	3.02e+01	57	28	0	181927936	40	6369
2026-01-10 15:43:35.89	158.40	28.08	-33.2	-34.4	30.4	3.02e+01	58	28	0	183500800	40	6385
2026-01-10 15:43:37.19	158.67	27.86	-33.4	-34.5	30.3	3.02e+01	47	28	0	185597952	40	6488
2026-01-10 15:43:37.92	158.83	27.73	-33.3	-34.5	30.3	3.02e+01	57	28	0	187170816	40	6440
2026-01-10 15:43:39.21	159.09	27.52	-33.2	-34.4	30.4	3.02e+01	61	28	0	189267968	40	6367
2026-01-10 15:43:39.94	159.24	27.39	-33.3	-34.5	30.4	3.02e+01	56	28	0	190840832	40	6425
2026-01-10 15:43:41.23	159.50	27.18	-33.3	-34.5	30.3	3.02e+01	60	28	0	193462272	40	6462
2026-01-10 15:43:41.96	159.65	27.05	-33.4	-34.6	30.2	3.02e+01	51	28	0	194510848	40	6535
2026-01-10 15:43:43.25	159.90	26.84	-33.6	-34.8	30.1	3.02e+01	56	28	0	197132288	40	6689
2026-01-10 15:43:43.97	160.04	26.72	-33.7	-34.9	30.0	3.02e+01	60	28	0	198180864	40	6752
2026-01-10 15:43:45.27	160.29	26.50	-33.7	-34.9	30.0	3.02e+01	57	28	0	200802304	40	6760
2026-01-10 15:43:45.99	160.43	26.39	-33.8	-34.9	30.0	3.02e+01	59	28	0	202375168	40	6803
2026-01-10 15:43:47.29	160.68	26.17	-33.8	-35.0	29.9	3.02e+01	57	28	0	204472320	40	6855
2026-01-10 15:43:48.02	160.81	26.06	-33.8	-35.0	30.0	3.02e+01	55	28	0	206045184	40	6810
2026-01-10 15:43:49.32	161.06	25.84	-33.7	-34.9	29.9	3.02e+01	56	28	0	208666624	40	6783
2026-01-10 15:43:50.04	161.19	25.73	-33.8	-35.0	29.9	3.02e+01	61	28	0	209715200	40	6829
2026-01-10 15:43:51.33	161.42	25.52	-33.8	-35.0	29.9	3.02e+01	59	28	0	212336640	40	6816
2026-01-10 15:43:52.06	161.55	25.41	-33.8	-35.0	29.9	3.02e+01	61	28	0	213385216	40	6807
2026-01-10 15:43:53.35	161.78	25.20	-33.9	-35.1	29.8	3.02e+01	58	28	0	216006656	40	6892
2026-01-10 15:43:54.07	161.91	25.09	-33.9	-35.0	29.9	3.02e+01	59	28	0	217579520	40	6862
2026-01-10 15:43:55.37	162.14	24.88	-33.8	-35.0	29.9	3.02e+01	59	28	0	219676672	40	6855
2026-01-10 15:43:56.09	162.26	24.77	-33.9	-35.1	29.8	3.02e+01	49	28	0	221249536	40	6908
2026-01-10 15:43:57.39	162.48	24.57	-33.9	-35.1	29.9	3.02e+01	59	28	0	223870976	40	6888
2026-01-10 15:43:58.11	162.60	24.45	-34.0	-35.2	29.8	3.02e+01	62	28	0	224919552	42	6222
2026-01-10 15:43:59.41	162.82	24.25	-34.1	-35.3	29.7	3.02e+01	57	28	0	227540992	42	6299
2026-01-10 15:44:00.13	162.94	24.14	-34.2	-35.3	29.6	3.02e+01	60	28	0	228589568	42	6350
2026-01-10 15:44:01.43	163.15	23.94	-34.1	-35.3	29.7	3.02e+01	52	28	0	231211008	42	6308
2026-01-10 15:44:02.15	163.27	23.84	-34.2	-35.4	29.6	3.02e+01	60	28	0	232783872	42	6372
2026-01-10 15:44:03.44	163.48	23.64	-34.0	-35.2	29.7	3.02e+01	61	28	0	234881024	42	6261
2026-01-10 15:44:04.16	163.59	23.53	-34.1	-35.3	29.7	3.02e+01	47	28	0	236453888	42	6284
2026-01-10 15:44:05.46	163.80	23.34	-34.1	-35.3	29.6	3.02e+01	61	28	0	238551040	42	6343
2026-01-10 15:44:06.18	163.91	23.23	-34.2	-35.4	29.6	3.02e+01	60	28	0	240123904	42	6417
2026-01-10 15:44:07.48	164.11	23.04	-34.1	-35.3	29.7	3.02e+01	58	28	0	242221056	42	6304
2026-01-10 15:44:08.20	164.22	22.93	-34.0	-35.2	29.7	3.02e+01	60	28	0	243793920	42	6269
2026-01-10 15:44:09.50	164.42	22.74	-34.2	-35.3	29.7	3.02e+01	44	28	0	246415360	42	6349
2026-01-10 15:44:10.22	164.53	22.63	-34.1	-35.3	29.7	3.02e+01	61	28	0	247463936	42	6300
2026-01-10 15:44:11.52	164.72	22.44	-34.1	-35.3	29.6	3.02e+01	60	28	0	250085376	42	6313
2026-01-10 15:44:12.24	164.82	22.34	-34.0	-35.2	29.7	3.02e+01	47	28	0	251658240	42	6234
2026-01-10 15:44:13.53	165.01	22.15	-34.0	-35.2	29.7	3.02e+01	61	28	0	253755392	42	6236
2026-01-10 15:44:14.26	165.12	22.05	-33.9	-35.1	29.8	3.02e+01	57	28	0	255328256	42	6166
2026-01-10 15:44:15.56	165.30	21.86	-34.0	-35.2	29.8	3.02e+01	59	28	0	257425408	42	6220
2026-01-10 15:44:16.28	165.41	21.76	-33.9	-35.1	29.8	3.02e+01	57	28	0	258998272	42	6190
2026-01-10 15:44:17.57	165.59	21.58	-33.9	-35.1	29.8	3.02e+01	44	28	0	261619712	42	6183
2026-01-10 15:44:18.29	165.69	21.48	-34.0	-35.2	29.7	3.02e+01	59	28	0	262668288	42	6255
2026-01-10 15:44:19.59	165.87	21.30	-34.0	-35.2	29.7	3.02e+01	62	28	0	265289728	42	6265
2026-01-10 15:44:20.31	165.97	21.20	-34.1	-35.3	29.6	3.02e+01	52	28	0	266338304	42	6296
2026-01-10 15:44:21.61	166.14	21.02	-33.9	-35.1	29.7	3.02e+01	60	28	0	268959744	42	6174
2026-01-10 15:44:22.33	166.24	20.92	-33.9	-35.1	29.8	3.02e+01	61	28	0	270532608	42	6144
2026-01-10 15:44:23.63	166.41	20.74	-33.8	-35.0	29.9	3.02e+01	59	28	0	272629760	42	6100
2026-01-10 15:44:24.35	166.51	20.64	-33.8	-35.0	29.9	3.02e+01	59	28	0	274202624	42	6092
2026-01-10 15:44:25.65	166.68	20.47	-33.8	-34.9	30.0	3.02e+01	47	28	0	276824064	42	6062
2026-01-10 15:44:26.37	166.77	20.37	-33.8	-34.9	29.9	3.02e+01	61	28	0	277872640	42	6058
2026-01-10 15:44:27.67	166.94	20.19	-33.8	-35.0	29.9	3.02e+01	53	28	0	280494080	42	6116
2026-01-10 15:44:28.40	167.03	20.10	-33.9	-35.1	29.9	3.02e+01	44	28	0	281542656	42	6156
2026-01-10 15:44:29.70	167.19	19.92	-33.7	-34.9	29.9	3.02e+01	59	28	0	284164096	42	6050
2026-01-10 15:44:30.42	167.28	19.83	-33.8	-34.9	29.9	3.02e+01	51	28	0	285736960	42	6056
2026-01-10 15:44:31.72	167.44	19.66	-33.8	-35.0	29.9	3.02e+01	61	28	0	287834112	42	6075
2026-01-10 15:44:32.44	167.53	19.56	-33.9	-35.1	29.8	3.02e+01	58	28	0	289406976	42	6139
2026-01-10 15:44:33.74	167.69	19.39	-33.8	-35.0	29.8	3.02e+01	52	28	0	292028416	42	6121
2026-01-10 15:44:34.46	167.78	19.30	-33.9	-35.1	29.8	3.02e+01	60	28	0	293076992	42	6146
2026-01-10 15:44:35.76	167.93	19.13	-33.8	-35.0	29.8	3.02e+01	63	28	0	295698432	42	6116
2026-01-10 15:44:36.48	168.02	19.04	-33.9	-35.1	29.8	3.02e+01	60	28	0	296747008	42	6147
2026-01-10 15:44:37.78	168.17	18.87	-33.7	-34.9	29.9	3.02e+01	58	28	0	299368448	42	6030
2026-01-10 15:44:38.50	168.25	18.78	-33.8	-35.0	29.8	3.02e+01	46	28	0	300941312	42	6087
2026-01-10 15:44:39.80	168.40	18.62	-33.7	-34.8	29.9	3.02e+01	61	29	0	303038464	42	5980
2026-01-10 15:44:40.52	168.48	18.52	-33.8	-35.0	29.8	3.02e+01	55	28	0	304611328	42	6070
2026-01-10 15:44:41.82	168.63	18.36	-33.6	-34.8	30.0	3.02e+01	58	29	0	306708480	42	5948
2026-01-10 15:44:42.54	168.71	18.27	-33.6	-34.8	30.1	3.02e+01	57	29	0	308281344	42	5931
2026-01-10 15:44:43.84	168.86	18.11	-33.6	-34.8	30.1	3.02e+01	45	29	0	310378496	42	5947
2026-01-10 15:44:44.56	168.94	18.02	-33.6	-34.7	30.1	3.02e+01	56	29	0	311951360	42	5911
2026-01-10 15:44:45.85	169.08	17.86	-33.6	-34.8	30.1	3.02e+01	60	28	0	314572800	42	5951
2026-01-10 15:44:46.57	169.16	17.77	-33.6	-34.8	30.0	3.02e+01	50	28	0	315621376	42	5949
2026-01-10 15:44:47.87	169.30	17.62	-33.8	-35.0	29.9	3.02e+01	58	29	0	318242816	42	6081
2026-01-10 15:44:48.60	169.38	17.53	-33.7	-34.9	29.9	3.02e+01	60	29	0	319815680	42	6016
2026-01-10 15:44:49.89	169.51	17.37	-33.8	-35.0	29.9	3.02e+01	51	28	0	321912832	42	6096
2026-01-10 15:44:50.61	169.59	17.28	-33.9	-35.0	29.8	3.02e+01	61	28	0	323485696	42	6128
2026-01-10 15:44:51.91	169.72	17.13	-34.0	-35.2	29.7	3.02e+01	57	28	0	325582848	42	6210
2026-01-10 15:44:52.63	169.80	17.04	-33.8	-35.0	29.9	3.02e+01	58	28	0	327155712	42	6120
2026-01-10 15:44:53.93	169.93	16.89	-33.9	-35.1	29.8	3.02e+01	61	28	0	329777152	42	6141
2026-01-10 15:44:54.65	170.01	16.80	-34.0	-35.2	29.7	3.02e+01	50	28	0	330825728	42	6248
2026-01-10 15:44:55.95	170.14	16.65	-33.8	-35.0	29.8	3.02e+01	61	28	0	333447168	42	6127
2026-01-10 15:44:56.67	170.21	16.57	-33.9	-35.1	29.9	3.02e+01	59	28	0	334495744	42	6146
2026-01-10 15:44:57.97	170.34	16.42	-33.8	-35.0	29.9	3.02e+01	59	28	0	337117184	42	6075
2026-01-10 15:44:58.69	170.41	16.33	-33.8	-35.0	29.8	3.02e+01	53	29	0	338690048	42	6097
2026-01-10 15:44:59.99	170.54	16.18	-33.8	-35.0	29.8	3.02e+01	54	28	0	340787200	42	6093
2026-01-10 15:45:00.71	170.61	16.10	-33.8	-35.0	29.8	3.02e+01	61	29	0	342360064	42	6069
2026-01-10 15:45:02.01	170.73	15.95	-33.7	-34.9	29.8	3.02e+01	61	28	0	344981504	42	6048
2026-01-10 15:45:02.73	170.80	15.87	-33.8	-35.0	29.7	3.02e+01	51	28	0	346030080	42	6122
2026-01-10 15:45:04.03	170.92	15.72	-33.9	-35.1	29.7	3.02e+01	61	29	0	348651520	42	6153
2026-01-10 15:45:04.75	170.99	15.64	-33.8	-35.0	29.8	3.02e+01	60	29	0	349700096	42	6090
2026-01-10 15:45:06.05	171.11	15.50	-34.0	-35.2	29.6	3.02e+01	57	29	0	352321536	42	6220
2026-01-10 15:45:06.77	171.18	15.42	-33.8	-35.0	29.8	3.02e+01	58	29	0	353894400	42	6078
2026-01-10 15:45:08.07	171.30	15.27	-33.7	-34.9	29.9	3.02e+01	58	29	0	355991552	42	6036
2026-01-10 15:45:08.79	171.36	15.19	-33.8	-35.0	29.8	3.02e+01	59	28	0	357564416	42	6103
2026-01-10 15:45:10.09	171.48	15.05	-33.8	-35.0	29.8	3.02e+01	58	29	0	360185856	42	6073
2026-01-10 15:45:10.81	171.55	14.97	-33.9	-35.1	29.7	3.02e+01	45	28	0	361234432	42	6138
2026-01-10 15:45:12.11	171.66	14.83	-33.8	-35.0	29.8	3.02e+01	60	29	0	363855872	42	6093
2026-01-10 15:45:12.83	171.73	14.75	-33.9	-35.1	29.7	3.02e+01	62	29	0	364904448	42	6140
2026-01-10 15:45:14.13	171.84	14.61	-33.9	-35.1	29.7	3.02e+01	61	29	0	367525888	42	6181
2026-01-10 15:45:14.85	171.90	14.53	-34.0	-35.2	29.6	3.02e+01	61	28	0	369098752	42	6237
2026-01-10 15:45:16.15	172.02	14.39	-33.9	-35.1	29.7	3.02e+01	48	29	0	371195904	42	6138
2026-01-10 15:45:16.87	172.08	14.32	-33.9	-35.1	29.7	3.02e+01	60	29	0	372768768	42	6156
2026-01-10 15:45:18.17	172.19	14.18	-33.8	-35.0	29.7	3.02e+01	58	29	0	374865920	42	6087
2026-01-10 15:45:18.89	172.25	14.10	-33.8	-35.0	29.7	3.02e+01	51	28	0	376438784	42	6097
2026-01-10 15:45:20.19	172.36	13.96	-33.8	-35.0	29.7	3.02e+01	57	28	0	379060224	42	6094
2026-01-10 15:45:20.91	172.42	13.89	-33.8	-35.0	29.7	3.02e+01	53	29	0	380108800	42	6115
2026-01-10 15:45:22.21	172.53	13.75	-33.9	-35.1	29.7	3.02e+01	57	29	0	382730240	42	6159
2026-01-10 15:45:22.93	172.59	13.68	-33.9	-35.0	29.7	3.02e+01	57	29	0	383778816	42	6134
2026-01-10 15:45:24.23	172.69	13.54	-33.9	-35.1	29.7	3.02e+01	47	29	0	386400256	42	6143
2026-01-10 15:45:24.95	172.75	13.47	-33.9	-35.1	29.6	3.02e+01	56	29	0	387973120	42	6189
2026-01-10 15:45:26.25	172.86	13.34	-33.9	-35.1	29.7	3.02e+01	60	29	0	390070272	42	6175
2026-01-10 15:45:26.97	172.91	13.26	-33.9	-35.1	29.6	3.02e+01	44	28	0	391643136	42	6194
2026-01-10 15:45:28.27	173.02	13.13	-34.0	-35.2	29.6	3.02e+01	62	29	0	393740288	42	6236
2026-01-10 15:45:28.99	173.07	13.06	-33.9	-35.1	29.6	3.02e+01	59	29	0	395313152	42	6189
2026-01-10 15:45:30.29	173.17	12.93	-34.0	-35.2	29.5	3.02e+01	59	29	0	397934592	42	6223
2026-01-10 15:45:31.01	173.23	12.85	-34.1	-35.3	29.5	3.02e+01	60	29	0	398983168	42	6283
2026-01-10 15:45:32.30	173.33	12.72	-34.1	-35.3	29.5	3.02e+01	51	29	0	401604608	42	6281
2026-01-10 15:45:33.03	173.39	12.65	-34.0	-35.2	29.5	3.02e+01	60	29	0	402653184	42	6229
2026-01-10 15:45:34.32	173.48	12.52	-34.0	-35.2	29.5	3.02e+01	60	29	0	405274624	42	6264
2026-01-10 15:45:35.05	173.54	12.45	-34.1	-35.3	29.4	3.02e+01	52	29	0	406847488	42	6302
2026-01-10 15:45:36.34	173.64	12.32	-34.1	-35.3	29.5	3.02e+01	56	29	0	408944640	42	6312
2026-01-10 15:45:37.06	173.69	12.25	-34.1	-35.3	29.5	3.02e+01	60	29	0	410517504	42	6330
2026-01-10 15:45:38.36	173.79	12.13	-34.2	-35.4	29.4	3.02e+01	59	29	0	413138944	42	6398
2026-01-10 15:45:39.09	173.84	12.06	-34.2	-35.4	29.4	3.02e+01	58	29	0	414187520	42	6366
2026-01-10 15:45:40.39	173.93	11.93	-34.2	-35.4	29.2	3.02e+01	46	29	0	416808960	42	6416
2026-01-10 15:45:41.11	173.99	11.86	-34.2	-35.4	29.4	3.02e+01	58	29	0	417857536	42	6376
2026-01-10 15:45:42.41	174.08	11.74	-34.4	-35.6	29.2	3.02e+01	56	29	0	420478976	42	6531
2026-01-10 15:45:43.13	174.13	11.67	-34.3	-35.5	29.3	3.02e+01	59	29	0	422051840	42	6441
2026-01-10 15:45:44.43	174.22	11.54	-34.3	-35.5	29.2	3.02e+01	61	29	0	424148992	42	6455
2026-01-10 15:45:45.15	174.28	11.47	-34.2	-35.4	29.3	3.02e+01	45	29	0	425721856	42	6420
2026-01-10 15:45:46.45	174.37	11.35	-34.3	-35.5	29.2	3.02e+01	59	29	0	428343296	42	6465
2026-01-10 15:45:47.17	174.42	11.28	-34.3	-35.6	29.3	3.02e+01	57	29	0	429391872	42	6516
2026-01-10 15:45:48.47	174.51	11.16	-34.3	-35.5	29.2	3.02e+01	57	29	0	432013312	42	6471
2026-01-10 15:45:49.19	174.56	11.09	-34.4	-35.6	29.2	3.02e+01	56	29	0	433061888	42	6524
2026-01-10 15:45:50.49	174.65	10.97	-34.4	-35.7	29.1	3.02e+01	45	29	0	435683328	42	6582
2026-01-10 15:45:51.21	174.69	10.91	-34.4	-35.6	29.1	3.02e+01	59	29	0	437256192	42	6558
2026-01-10 15:45:52.51	174.78	10.79	-34.4	-35.6	29.1	3.02e+01	57	29	0	439353344	42	6554
2026-01-10 15:45:53.23	174.83	10.72	-34.5	-35.7	29.1	3.02e+01	58	29	0	440926208	42	6643
2026-01-10 15:45:54.53	174.92	10.60	-34.6	-35.8	29.0	3.02e+01	59	29	0	443023360	42	6686
2026-01-10 15:45:55.25	174.96	10.54	-34.5	-35.8	29.0	3.02e+01	59	29	0	444596224	42	6661
2026-01-10 15:45:56.55	175.05	10.42	-34.5	-35.7	29.0	3.02e+01	60	29	0	447217664	42	6586
2026-01-10 15:45:57.27	175.10	10.35	-34.6	-35.8	28.9	3.02e+01	62	29	0	448266240	42	6726
2026-01-10 15:45:58.57	175.18	10.24	-34.5	-35.8	29.0	3.02e+01	53	29	0	450887680	42	6671
2026-01-10 15:45:59.29	175.23	10.17	-34.5	-35.8	28.9	3.02e+01	56	29	0	451936256	42	6667
2026-01-10 15:46:00.59	175.31	10.05	-34.7	-35.9	28.7	3.02e+01	60	29	0	454557696	42	6799
2026-01-10 15:46:01.31	175.36	9.99	-34.8	-36.0	28.7	3.02e+01	46	29	0	456130560	42	6870
2026-01-10 15:46:02.61	175.44	9.87	-34.8	-36.0	28.8	3.02e+01	58	29	0	458227712	42	6841
2026-01-10 15:46:03.33	175.48	9.81	-34.8	-36.0	28.7	3.02e+01	56	29	0	459800576	42	6862
2026-01-10 15:46:04.63	175.57	9.70	-34.9	-36.1	28.6	3.02e+01	58	29	0	461897728	42	6937
2026-01-10 15:46:05.35	175.61	9.63	-34.9	-36.1	28.7	3.02e+01	58	29	0	463470592	42	6935
2026-01-10 15:46:06.65	175.69	9.52	-34.8	-36.0	28.7	3.02e+01	52	29	0	466092032	44	6132
2026-01-10 15:46:07.37	175.73	9.46	-34.8	-36.0	28.7	3.02e+01	59	29	0	467140608	44	6130
2026-01-10 15:46:08.67	175.81	9.34	-34.8	-36.1	28.7	3.02e+01	63	29	0	469762048	44	6142
2026-01-10 15:46:09.39	175.86	9.28	-34.8	-36.0	28.7	3.02e+01	51	29	0	471334912	44	6119
2026-01-10 15:46:10.69	175.94	9.17	-34.8	-36.1	28.6	3.02e+01	58	29	0	473432064	44	6154
