passes_logs/2026/01/27/R2.0S_Moscow/R2.0S_Moscow__20260127_001503_AQUA_rec.log

#Pass ID: 20260127_001503_AQUA
#Satellite: AQUA
#Configuration: AQUA
#almurnet v.1.7.20251203
#Start time: 2026-01-27 00:19:27

#Version: 2.2.20231116
#Station: R2.0S_Moscow
#Location: 37.707566 lon 55.798166 lat
#TLE: 1 27424U 02022A   26026.53345137  .00001758  00000+0  36150-3 0  9990
#TLE: 2 27424  98.4100 353.1559 0001880  64.8012  49.4917 14.61862630262575

#Time	Az	El	Level	Level2	SNR	BER	BlckErr	Temp	State	Recorded	gain1	gain2
2026-01-27 00:19:27.73	61.01	22.67	-44.8	-56.5	3.8	8.46e-01	0	62	0	0	61	13628
2026-01-27 00:19:28.74	61.29	22.76	-46.2	-64.7	3.8	7.45e-01	0	62	104	0	63	31440
2026-01-27 00:19:29.75	61.57	22.84	-46.4	-64.9	3.8	7.45e-01	0	62	104	0	63	31822
2026-01-27 00:19:30.76	61.85	22.93	-46.4	-65.0	3.8	7.43e-01	0	62	104	0	63	32350
2026-01-27 00:19:31.77	62.13	23.01	-46.5	-65.0	3.8	7.48e-01	0	62	104	0	63	32412
2026-01-27 00:19:32.78	62.42	23.09	-46.5	-65.0	3.8	7.45e-01	0	62	104	0	63	32298
2026-01-27 00:19:33.79	62.70	23.18	-46.4	-64.9	3.8	7.47e-01	0	62	104	0	63	32090
2026-01-27 00:19:34.80	62.99	23.26	-46.3	-64.7	3.8	7.47e-01	0	62	104	0	63	31360
2026-01-27 00:19:35.81	63.28	23.34	-46.2	-64.7	3.8	7.45e-01	0	62	104	0	63	31225
2026-01-27 00:19:36.82	63.57	23.43	-45.9	-64.3	3.8	7.43e-01	0	62	104	0	63	29732
2026-01-27 00:19:37.83	63.86	23.51	-45.8	-64.3	3.8	7.45e-01	0	62	104	0	63	29849
2026-01-27 00:19:38.84	64.16	23.59	-45.8	-64.1	3.8	7.46e-01	0	62	104	0	63	29250
2026-01-27 00:19:39.85	64.45	23.67	-45.8	-64.0	3.8	7.47e-01	0	62	104	0	63	28802
2026-01-27 00:19:40.87	64.75	23.75	-45.8	-64.0	3.8	7.49e-01	0	62	104	0	63	28912
2026-01-27 00:19:41.88	65.05	23.83	-45.8	-64.2	3.8	7.43e-01	0	62	104	0	63	29349
2026-01-27 00:19:42.89	65.35	23.91	-45.8	-64.2	3.8	7.45e-01	0	62	104	0	63	29586
2026-01-27 00:19:43.90	65.65	23.99	-45.7	-64.2	3.8	7.45e-01	0	62	104	0	63	29649
2026-01-27 00:19:44.91	65.96	24.07	-45.7	-64.3	3.8	7.44e-01	0	62	104	0	63	29729
2026-01-27 00:19:45.92	66.26	24.15	-45.7	-64.2	3.8	7.45e-01	0	62	104	0	63	29405
2026-01-27 00:19:46.92	66.57	24.22	-45.8	-64.0	3.8	7.46e-01	0	62	104	0	63	28852
2026-01-27 00:19:47.94	66.88	24.30	-45.7	-64.1	3.8	7.44e-01	0	62	104	0	63	29029
2026-01-27 00:19:48.94	67.18	24.38	-45.7	-64.0	3.8	7.45e-01	0	62	104	0	63	28983
2026-01-27 00:19:49.96	67.50	24.45	-45.7	-64.0	3.8	7.46e-01	0	62	104	0	63	28898
2026-01-27 00:19:50.96	67.81	24.53	-45.7	-63.8	3.8	7.43e-01	0	62	104	0	63	28344
2026-01-27 00:19:51.98	68.12	24.60	-45.7	-63.6	3.8	7.47e-01	0	62	104	0	63	27663
2026-01-27 00:19:52.99	68.44	24.68	-45.7	-63.4	3.8	7.49e-01	0	62	104	0	63	27058
2026-01-27 00:19:54.00	68.76	24.75	-45.7	-63.5	3.8	7.49e-01	0	62	104	0	63	27117
2026-01-27 00:19:55.01	69.08	24.82	-45.7	-63.4	3.8	7.42e-01	0	62	104	0	63	26979
2026-01-27 00:19:56.02	69.40	24.89	-45.7	-63.4	3.8	7.47e-01	0	62	104	0	63	26994
2026-01-27 00:19:57.03	69.72	24.96	-45.7	-63.6	3.8	7.44e-01	0	62	104	0	63	27580
2026-01-27 00:19:58.04	70.04	25.03	-45.7	-63.8	3.8	7.47e-01	0	62	104	0	63	28271
2026-01-27 00:19:59.05	70.37	25.10	-45.7	-63.7	3.8	7.46e-01	0	62	104	0	63	27865
2026-01-27 00:20:00.06	70.69	25.17	-45.7	-63.2	3.8	7.47e-01	0	62	104	0	63	26434
2026-01-27 00:20:01.07	71.02	25.24	-45.7	-62.7	3.8	7.47e-01	0	62	104	0	63	24847
2026-01-27 00:20:02.08	71.35	25.31	-45.7	-62.5	3.8	7.44e-01	0	62	104	0	63	24381
2026-01-27 00:20:03.09	71.68	25.38	-45.7	-62.6	3.8	7.43e-01	0	62	104	0	63	24479
2026-01-27 00:20:04.10	72.01	25.44	-45.6	-62.1	3.8	7.42e-01	0	62	104	0	63	23080
2026-01-27 00:20:05.11	72.35	25.51	-45.6	-60.1	4.3	7.29e-01	0	62	104	0	63	18449
2026-01-27 00:20:06.12	72.68	25.57	-45.6	-60.2	4.0	7.37e-01	0	62	104	0	63	18528
2026-01-27 00:20:07.13	73.02	25.63	-45.6	-59.8	4.4	7.27e-01	0	62	104	0	63	17871
2026-01-27 00:20:08.14	73.36	25.70	-45.6	-61.2	3.9	7.42e-01	0	62	104	0	63	20826
2026-01-27 00:20:09.15	73.69	25.76	-45.6	-61.4	3.9	7.41e-01	0	62	104	0	63	21469
2026-01-27 00:20:10.16	74.03	25.82	-45.6	-61.7	3.9	7.44e-01	0	62	104	0	63	22073
2026-01-27 00:20:11.17	74.38	25.88	-45.6	-61.2	4.0	7.41e-01	0	62	104	0	63	20936
2026-01-27 00:20:12.18	74.72	25.94	-45.6	-61.7	3.9	7.41e-01	0	62	104	0	63	22082
2026-01-27 00:20:13.19	75.06	26.00	-45.6	-60.0	4.4	7.27e-01	0	62	104	0	63	18173
2026-01-27 00:20:14.20	75.41	26.05	-45.2	-55.7	7.0	6.58e-01	91	62	0	524288	62	11774
2026-01-27 00:20:15.21	75.76	26.11	-44.7	-52.3	10.5	6.17e-01	0	62	0	2097152	61	8456
2026-01-27 00:20:16.22	76.11	26.16	-44.5	-51.4	11.6	6.10e-01	0	62	0	4194304	60	8014
2026-01-27 00:20:17.23	76.45	26.22	-44.8	-52.9	10.1	6.21e-01	0	62	0	6291456	60	9599
2026-01-27 00:20:18.24	76.81	26.27	-45.4	-57.8	5.6	6.94e-01	75	62	0	7864320	61	15776
2026-01-27 00:20:19.25	77.16	26.33	-44.8	-53.1	9.5	6.25e-01	0	62	0	9437184	61	9252
2026-01-27 00:20:20.26	77.51	26.38	-43.5	-48.1	15.3	6.04e-01	0	62	0	11534336	59	5805
2026-01-27 00:20:21.27	77.87	26.43	-42.2	-45.6	17.8	6.04e-01	0	62	0	13107200	56	5199
2026-01-27 00:20:22.28	78.22	26.48	-42.3	-45.7	17.9	6.04e-01	0	62	0	15204352	55	5574
2026-01-27 00:20:23.29	78.58	26.52	-45.4	-56.0	6.9	6.61e-01	92	62	0	15728640	62	12127
2026-01-27 00:20:24.30	78.94	26.57	-43.9	-49.2	13.9	6.06e-01	0	62	0	16777216	59	6597
2026-01-27 00:20:25.31	79.29	26.62	-45.6	-59.7	4.0	7.37e-01	0	62	104	17825792	62	18638
2026-01-27 00:20:26.32	79.65	26.66	-43.7	-48.5	14.4	6.04e-01	0	62	0	18874368	59	6089
2026-01-27 00:20:27.33	80.01	26.71	-44.4	-50.5	12.9	6.05e-01	0	62	0	20971520	59	7696
2026-01-27 00:20:28.34	80.38	26.75	-43.1	-47.1	16.5	6.00e-01	0	62	0	22544384	58	5519
2026-01-27 00:20:29.35	80.74	26.79	-42.6	-46.3	17.3	6.03e-01	0	62	0	24641536	57	5303
2026-01-27 00:20:30.36	81.10	26.83	-42.4	-45.8	17.8	6.04e-01	0	62	0	26738688	56	5329
2026-01-27 00:20:31.37	81.47	26.87	-42.1	-45.4	18.1	6.02e-01	0	62	0	28311552	56	5097
2026-01-27 00:20:32.37	81.83	26.91	-42.1	-45.3	18.4	6.05e-01	0	62	0	30408704	56	4994
2026-01-27 00:20:33.38	82.20	26.95	-41.8	-45.0	18.6	6.03e-01	0	62	0	31981568	55	5105
2026-01-27 00:20:34.39	82.57	26.98	-41.9	-45.0	18.5	5.99e-01	0	62	0	34078720	55	5151
2026-01-27 00:20:35.40	82.93	27.02	-41.8	-44.8	18.7	6.04e-01	0	62	0	36175872	55	5039
2026-01-27 00:20:36.41	83.30	27.05	-41.9	-45.1	18.4	6.03e-01	0	62	0	37748736	55	5203
2026-01-27 00:20:37.42	83.67	27.09	-41.9	-45.0	18.5	6.03e-01	0	62	0	39845888	55	5135
2026-01-27 00:20:38.43	84.04	27.12	-41.8	-44.8	18.7	6.03e-01	0	62	0	41418752	55	5029
2026-01-27 00:20:39.44	84.42	27.15	-41.7	-44.8	18.8	6.03e-01	0	62	0	43515904	55	5000
2026-01-27 00:20:40.45	84.79	27.18	-41.9	-45.0	18.5	6.03e-01	0	62	0	45613056	55	5132
2026-01-27 00:20:41.46	85.16	27.21	-41.8	-44.9	18.7	6.03e-01	0	62	0	47185920	55	5046
2026-01-27 00:20:42.47	85.53	27.23	-41.7	-44.7	18.8	6.01e-01	0	62	0	49283072	55	4980
2026-01-27 00:20:43.48	85.91	27.26	-41.7	-44.8	18.8	6.04e-01	0	62	0	50855936	55	5009
2026-01-27 00:20:44.49	86.28	27.28	-41.8	-44.9	18.6	6.01e-01	0	62	0	52953088	55	5097
2026-01-27 00:20:45.50	86.66	27.31	-41.8	-44.8	18.7	6.05e-01	0	62	0	55050240	55	5037
2026-01-27 00:20:46.51	87.04	27.33	-41.8	-44.9	18.7	6.04e-01	0	62	0	56623104	55	5066
2026-01-27 00:20:47.52	87.41	27.35	-41.9	-45.0	18.6	6.01e-01	0	62	0	58720256	55	5121
2026-01-27 00:20:48.53	87.79	27.37	-41.8	-44.8	18.8	6.04e-01	0	62	0	60817408	55	5022
2026-01-27 00:20:49.53	88.16	27.38	-41.7	-44.7	18.9	6.00e-01	0	62	0	62390272	55	4948
2026-01-27 00:20:50.54	88.54	27.40	-41.7	-44.8	18.8	6.00e-01	0	62	0	64487424	55	5002
2026-01-27 00:20:51.55	88.92	27.42	-42.0	-45.2	18.4	6.03e-01	0	62	0	66060288	55	5237
2026-01-27 00:20:52.56	89.30	27.43	-41.8	-44.9	18.7	6.03e-01	0	62	0	68157440	55	5072
2026-01-27 00:20:53.57	89.68	27.44	-41.7	-44.7	18.9	6.04e-01	0	62	0	70254592	55	4948
2026-01-27 00:20:54.58	90.06	27.46	-41.6	-44.7	18.9	6.04e-01	0	62	0	71827456	55	4927
2026-01-27 00:20:55.59	90.44	27.47	-41.8	-44.8	18.8	6.01e-01	0	62	0	73924608	55	5034
2026-01-27 00:20:56.60	90.82	27.47	-41.7	-44.8	18.8	6.04e-01	0	62	0	76021760	55	5008
2026-01-27 00:20:57.61	91.20	27.48	-41.8	-44.9	18.7	6.03e-01	0	62	0	77594624	55	5098
2026-01-27 00:20:58.62	91.58	27.49	-41.6	-44.5	19.0	6.01e-01	0	62	0	79691776	55	4852
2026-01-27 00:20:59.63	91.96	27.49	-41.6	-44.6	19.0	6.04e-01	0	62	0	81264640	55	4900
2026-01-27 00:21:00.64	92.34	27.50	-41.6	-44.6	19.0	6.03e-01	0	62	0	83361792	55	4921
2026-01-27 00:21:01.65	92.72	27.50	-41.7	-44.7	18.9	6.03e-01	0	62	0	85458944	55	4952
2026-01-27 00:21:02.66	93.10	27.50	-41.7	-44.7	18.9	6.01e-01	0	62	0	87031808	55	4945
2026-01-27 00:21:03.67	93.48	27.50	-41.7	-44.6	19.0	6.04e-01	0	62	0	89128960	55	4911
2026-01-27 00:21:04.67	93.86	27.50	-41.7	-44.7	18.9	6.02e-01	0	62	0	90701824	55	4936
2026-01-27 00:21:05.68	94.24	27.50	-41.6	-44.6	19.0	6.04e-01	0	62	0	92798976	55	4878
2026-01-27 00:21:06.69	94.62	27.49	-41.6	-44.7	18.9	6.02e-01	0	62	0	94896128	55	4928
2026-01-27 00:21:07.70	95.00	27.49	-41.6	-44.6	19.0	6.03e-01	0	62	0	96468992	55	4907
2026-01-27 00:21:08.71	95.38	27.48	-41.6	-44.6	19.0	6.03e-01	0	62	0	98566144	55	4890
2026-01-27 00:21:09.72	95.76	27.47	-41.6	-44.6	18.9	6.03e-01	0	62	0	100139008	55	4899
2026-01-27 00:21:10.73	96.14	27.46	-41.5	-44.5	19.1	6.03e-01	0	62	0	102236160	55	4815
2026-01-27 00:21:11.74	96.52	27.45	-41.6	-44.5	19.0	6.03e-01	0	62	0	104333312	55	4867
2026-01-27 00:21:12.75	96.90	27.44	-41.6	-44.6	19.0	6.04e-01	0	62	0	105906176	55	4891
2026-01-27 00:21:13.76	97.28	27.43	-41.5	-44.4	19.1	6.01e-01	0	62	0	108003328	55	4812
2026-01-27 00:21:14.77	97.66	27.41	-41.6	-44.5	19.1	6.03e-01	0	62	0	109576192	55	4843
2026-01-27 00:21:15.78	98.04	27.40	-41.6	-44.5	19.1	6.00e-01	0	62	0	111673344	55	4857
2026-01-27 00:21:16.79	98.42	27.38	-41.6	-44.6	19.0	6.01e-01	0	62	0	113770496	55	4891
2026-01-27 00:21:17.80	98.79	27.36	-41.6	-44.6	19.0	6.04e-01	0	62	0	115343360	55	4877
2026-01-27 00:21:18.81	99.17	27.34	-41.6	-44.5	19.1	6.01e-01	0	62	0	117440512	55	4846
2026-01-27 00:21:19.82	99.55	27.32	-41.6	-44.5	19.1	6.04e-01	0	62	0	119013376	55	4846
2026-01-27 00:21:20.83	99.92	27.30	-41.5	-44.5	19.1	6.03e-01	0	62	0	121110528	55	4823
2026-01-27 00:21:21.84	100.30	27.28	-41.6	-44.6	19.0	6.02e-01	0	62	0	123207680	55	4880
2026-01-27 00:21:22.85	100.68	27.25	-41.7	-44.7	18.9	6.03e-01	0	62	0	124780544	55	4949
2026-01-27 00:21:23.86	101.05	27.23	-41.6	-44.5	19.0	6.01e-01	0	62	0	126877696	55	4866
2026-01-27 00:21:24.87	101.42	27.20	-41.5	-44.4	19.2	6.02e-01	0	62	0	128974848	55	4774
2026-01-27 00:21:25.88	101.80	27.17	-41.6	-44.5	19.1	6.03e-01	0	62	0	130547712	55	4834
2026-01-27 00:21:26.89	102.17	27.14	-41.6	-44.5	19.1	6.04e-01	0	62	0	132644864	55	4829
2026-01-27 00:21:27.90	102.54	27.11	-41.6	-44.6	19.1	6.02e-01	0	62	0	134217728	55	4877
2026-01-27 00:21:28.91	102.91	27.08	-41.6	-44.6	19.1	6.02e-01	0	62	0	136314880	55	4891
2026-01-27 00:21:29.92	103.28	27.05	-41.6	-44.6	19.1	6.03e-01	0	62	0	138412032	55	4875
2026-01-27 00:21:30.93	103.65	27.01	-41.6	-44.6	19.0	6.02e-01	0	62	0	139984896	55	4893
2026-01-27 00:21:31.93	104.02	26.98	-41.6	-44.5	19.1	6.03e-01	0	62	0	142082048	55	4831
2026-01-27 00:21:32.94	104.39	26.94	-41.6	-44.5	19.1	6.02e-01	0	62	0	144179200	55	4844
2026-01-27 00:21:33.95	104.76	26.90	-41.6	-44.5	19.1	6.01e-01	0	62	0	145752064	55	4861
2026-01-27 00:21:34.96	105.12	26.87	-41.6	-44.5	19.1	6.02e-01	0	62	0	147849216	55	4835
2026-01-27 00:21:35.97	105.49	26.83	-41.6	-44.5	19.1	6.02e-01	0	62	0	149422080	55	4867
2026-01-27 00:21:36.98	105.85	26.78	-41.5	-44.5	19.2	6.03e-01	0	62	0	151519232	55	4825
2026-01-27 00:21:37.99	106.22	26.74	-41.5	-44.4	19.2	6.04e-01	0	62	0	153616384	55	4764
2026-01-27 00:21:39.00	106.58	26.70	-41.6	-44.6	19.0	6.04e-01	0	62	0	155189248	55	4890
2026-01-27 00:21:40.01	106.94	26.65	-41.6	-44.6	19.0	6.00e-01	0	62	0	157286400	55	4889
2026-01-27 00:21:41.02	107.30	26.61	-41.5	-44.4	19.2	6.05e-01	0	62	0	158859264	55	4800
2026-01-27 00:21:42.04	107.66	26.56	-41.7	-44.7	18.8	6.05e-01	0	62	0	160956416	55	4929
2026-01-27 00:21:43.05	108.02	26.51	-41.8	-44.8	18.8	6.01e-01	0	62	0	163053568	55	5032
2026-01-27 00:21:44.06	108.38	26.47	-41.7	-44.7	18.9	6.03e-01	0	62	0	164626432	55	4974
2026-01-27 00:21:45.07	108.74	26.42	-41.6	-44.6	19.1	6.05e-01	0	62	0	166723584	55	4881
2026-01-27 00:21:46.08	109.09	26.37	-41.6	-44.6	19.0	6.03e-01	0	62	0	168296448	55	4874
2026-01-27 00:21:47.09	109.44	26.31	-41.6	-44.5	19.1	6.03e-01	0	62	0	170393600	55	4869
2026-01-27 00:21:48.10	109.80	26.26	-41.6	-44.5	19.1	6.04e-01	0	62	0	172490752	55	4866
2026-01-27 00:21:49.10	110.14	26.21	-41.6	-44.6	19.0	6.03e-01	0	62	0	174063616	55	4892
2026-01-27 00:21:50.12	110.50	26.15	-41.7	-44.7	18.9	6.03e-01	0	62	0	176160768	55	4957
2026-01-27 00:21:51.13	110.85	26.10	-41.6	-44.6	19.0	6.03e-01	0	62	0	177733632	55	4905
2026-01-27 00:21:52.14	111.20	26.04	-41.5	-44.4	19.1	6.02e-01	0	62	0	179830784	55	4803
2026-01-27 00:21:53.15	111.54	25.98	-41.6	-44.5	19.1	6.01e-01	0	62	0	181927936	55	4834
2026-01-27 00:21:54.16	111.89	25.92	-41.6	-44.5	19.0	6.03e-01	0	62	0	183500800	55	4869
2026-01-27 00:21:55.17	112.23	25.86	-41.6	-44.6	19.0	5.99e-01	0	62	0	185597952	55	4921
2026-01-27 00:21:56.17	112.57	25.80	-41.6	-44.5	19.1	6.02e-01	0	62	0	187170816	55	4858
2026-01-27 00:21:57.18	112.91	25.74	-41.6	-44.6	19.0	6.01e-01	0	62	0	189267968	55	4886
2026-01-27 00:21:58.19	113.25	25.68	-41.6	-44.6	19.0	6.04e-01	0	62	0	191365120	55	4890
2026-01-27 00:21:59.20	113.59	25.62	-41.6	-44.6	19.0	6.04e-01	0	62	0	192937984	55	4911
2026-01-27 00:22:00.21	113.93	25.55	-41.6	-44.6	19.0	6.05e-01	0	62	0	195035136	55	4916
2026-01-27 00:22:01.22	114.26	25.49	-41.6	-44.6	19.0	6.02e-01	0	62	0	197132288	55	4892
2026-01-27 00:22:02.23	114.60	25.42	-41.7	-44.8	18.8	6.03e-01	0	62	0	198705152	55	4990
2026-01-27 00:22:03.24	114.93	25.36	-41.7	-44.7	18.9	6.03e-01	0	62	0	200802304	55	4952
2026-01-27 00:22:04.25	115.26	25.29	-41.8	-44.8	18.8	6.03e-01	0	62	0	202375168	55	5024
2026-01-27 00:22:05.26	115.59	25.22	-41.6	-44.7	18.9	6.03e-01	0	62	0	204472320	55	4927
2026-01-27 00:22:06.27	115.92	25.15	-41.7	-44.7	18.9	6.04e-01	0	62	0	206569472	55	4936
2026-01-27 00:22:07.28	116.25	25.08	-41.7	-44.8	18.8	6.03e-01	0	62	0	208142336	55	4986
2026-01-27 00:22:08.29	116.57	25.01	-41.6	-44.6	19.0	6.05e-01	0	62	0	210239488	55	4875
2026-01-27 00:22:09.30	116.90	24.94	-41.6	-44.6	19.0	6.02e-01	0	62	0	212336640	55	4915
2026-01-27 00:22:10.31	117.22	24.87	-41.7	-44.7	18.9	6.03e-01	0	62	0	213909504	55	4946
2026-01-27 00:22:11.32	117.54	24.80	-41.6	-44.5	19.0	6.04e-01	0	62	0	216006656	55	4865
2026-01-27 00:22:12.33	117.86	24.73	-41.6	-44.6	18.9	6.03e-01	0	62	0	217579520	55	4911
2026-01-27 00:22:13.33	118.18	24.65	-41.7	-44.7	18.8	6.04e-01	0	62	0	219676672	55	4961
2026-01-27 00:22:14.34	118.49	24.58	-41.6	-44.7	18.9	6.01e-01	0	62	0	221773824	55	4940
2026-01-27 00:22:15.35	118.81	24.50	-41.6	-44.6	18.9	6.02e-01	0	62	0	223346688	55	4916
2026-01-27 00:22:16.37	119.13	24.43	-41.7	-44.7	18.8	6.03e-01	0	62	0	225443840	55	4961
2026-01-27 00:22:17.38	119.44	24.35	-41.7	-44.7	18.8	6.04e-01	0	62	0	227016704	55	4956
2026-01-27 00:22:18.39	119.75	24.28	-41.7	-44.7	18.9	6.03e-01	0	62	0	229113856	55	4947
2026-01-27 00:22:19.40	120.06	24.20	-41.7	-44.7	18.8	6.02e-01	0	62	0	231211008	55	4975
2026-01-27 00:22:20.41	120.36	24.12	-41.7	-44.8	18.8	6.03e-01	0	62	0	232783872	55	5003
2026-01-27 00:22:21.42	120.67	24.04	-41.7	-44.8	18.7	6.03e-01	0	62	0	234881024	55	5002
2026-01-27 00:22:22.43	120.97	23.96	-41.5	-44.5	19.0	6.03e-01	0	62	0	236453888	55	4842
2026-01-27 00:22:23.44	121.28	23.88	-41.5	-44.5	19.1	6.05e-01	0	62	0	238551040	55	4833
2026-01-27 00:22:24.45	121.58	23.80	-41.6	-44.5	19.0	6.03e-01	0	62	0	240648192	55	4868
2026-01-27 00:22:25.46	121.88	23.72	-41.7	-44.7	18.9	6.03e-01	0	62	0	242221056	55	4953
2026-01-27 00:22:26.47	122.18	23.64	-41.7	-44.8	18.7	6.02e-01	0	62	0	244318208	55	5026
2026-01-27 00:22:27.48	122.47	23.56	-41.6	-44.6	18.9	6.04e-01	0	62	0	245891072	55	4892
2026-01-27 00:22:28.49	122.77	23.48	-41.6	-44.6	18.8	6.04e-01	0	62	0	247988224	55	4924
2026-01-27 00:22:29.50	123.06	23.39	-41.6	-44.6	18.8	6.00e-01	0	62	0	250085376	55	4916
2026-01-27 00:22:30.51	123.35	23.31	-41.5	-44.5	18.9	6.04e-01	0	62	0	251658240	55	4850
2026-01-27 00:22:31.52	123.64	23.23	-41.6	-44.6	18.9	6.03e-01	0	62	0	253755392	55	4877
2026-01-27 00:22:32.53	123.93	23.14	-41.5	-44.5	19.0	6.03e-01	0	62	0	255328256	55	4836
2026-01-27 00:22:33.54	124.22	23.06	-41.5	-44.5	18.9	6.04e-01	0	62	0	257425408	55	4839
2026-01-27 00:22:34.54	124.50	22.98	-41.6	-44.5	18.9	6.02e-01	0	62	0	259522560	55	4863
2026-01-27 00:22:35.55	124.78	22.89	-41.6	-44.6	18.8	6.02e-01	0	62	0	261095424	55	4920
2026-01-27 00:22:36.56	125.07	22.81	-41.7	-44.8	18.7	6.04e-01	0	62	0	263192576	55	5010
2026-01-27 00:22:37.57	125.35	22.72	-41.7	-44.8	18.6	6.02e-01	0	62	0	265289728	55	5036
2026-01-27 00:22:38.58	125.63	22.63	-41.7	-44.8	18.6	6.02e-01	0	62	0	266862592	55	5019
2026-01-27 00:22:39.59	125.90	22.55	-41.7	-44.7	18.8	6.02e-01	0	62	0	268959744	55	4959
2026-01-27 00:22:40.60	126.18	22.46	-41.6	-44.6	18.9	6.04e-01	0	62	0	270532608	55	4874
2026-01-27 00:22:41.61	126.45	22.37	-41.6	-44.5	19.0	6.02e-01	0	62	0	272629760	55	4849
2026-01-27 00:22:42.62	126.73	22.28	-41.6	-44.6	18.9	6.00e-01	0	62	0	274726912	55	4874
2026-01-27 00:22:43.63	127.00	22.20	-41.6	-44.6	18.9	6.03e-01	0	62	0	276299776	55	4917
2026-01-27 00:22:44.64	127.27	22.11	-41.6	-44.6	18.9	6.04e-01	0	62	0	278396928	55	4886
2026-01-27 00:22:45.65	127.53	22.02	-41.7	-44.7	18.8	6.02e-01	0	62	0	280494080	55	4961
2026-01-27 00:22:46.66	127.80	21.93	-41.6	-44.6	18.9	6.04e-01	0	62	0	282066944	55	4907
2026-01-27 00:22:47.67	128.07	21.84	-41.6	-44.6	18.9	6.04e-01	0	62	0	284164096	55	4886
2026-01-27 00:22:48.68	128.33	21.75	-41.7	-44.7	18.7	6.01e-01	0	62	0	285736960	55	4983
2026-01-27 00:22:49.69	128.59	21.66	-41.6	-44.6	18.9	6.04e-01	0	62	0	287834112	55	4917
2026-01-27 00:22:50.70	128.85	21.57	-41.6	-44.6	18.9	6.01e-01	0	62	0	289931264	55	4876
2026-01-27 00:22:51.71	129.11	21.48	-41.5	-44.5	18.9	6.03e-01	0	62	0	291504128	55	4827
2026-01-27 00:22:52.72	129.37	21.39	-41.5	-44.5	18.9	6.03e-01	0	62	0	293601280	55	4851
2026-01-27 00:22:53.73	129.62	21.30	-41.5	-44.5	19.0	6.01e-01	0	62	0	295174144	55	4829
2026-01-27 00:22:54.74	129.88	21.21	-41.6	-44.6	18.9	6.02e-01	0	62	0	297271296	55	4876
2026-01-27 00:22:55.75	130.13	21.12	-41.6	-44.6	18.9	6.02e-01	0	62	0	299368448	55	4884
2026-01-27 00:22:56.76	130.38	21.03	-41.6	-44.7	18.8	6.03e-01	0	62	0	300941312	55	4929
2026-01-27 00:22:57.77	130.63	20.94	-41.6	-44.6	18.9	6.02e-01	0	62	0	303038464	55	4892
2026-01-27 00:22:58.78	130.88	20.85	-41.5	-44.5	18.9	6.03e-01	0	62	0	304611328	54	5125
2026-01-27 00:22:59.79	131.12	20.76	-41.5	-44.5	19.0	6.00e-01	0	62	0	306708480	54	5120
2026-01-27 00:23:00.80	131.37	20.67	-41.4	-44.4	19.0	6.02e-01	0	62	0	308805632	54	5073
2026-01-27 00:23:01.81	131.61	20.58	-41.4	-44.4	18.4	6.03e-01	0	62	0	310378496	54	5062
2026-01-27 00:23:02.82	131.85	20.48	-41.5	-44.4	19.0	6.03e-01	0	62	0	312475648	54	5083
2026-01-27 00:23:03.83	132.09	20.39	-41.5	-44.6	18.9	6.04e-01	0	62	0	314048512	54	5162
2026-01-27 00:23:04.84	132.33	20.30	-41.5	-44.6	18.8	6.01e-01	0	62	0	316145664	54	5174
2026-01-27 00:23:05.85	132.57	20.21	-41.6	-44.6	18.8	6.00e-01	0	62	0	318242816	54	5211
2026-01-27 00:23:06.86	132.81	20.12	-41.5	-44.6	18.8	6.03e-01	0	62	0	319815680	54	5170
2026-01-27 00:23:07.87	133.04	20.02	-41.6	-44.7	18.8	6.01e-01	0	62	0	321912832	54	5228
2026-01-27 00:23:08.88	133.28	19.93	-41.5	-44.5	18.9	6.02e-01	0	62	0	323485696	54	5125
2026-01-27 00:23:09.89	133.51	19.84	-41.5	-44.5	18.9	6.02e-01	0	62	0	325582848	53	5417
2026-01-27 00:23:10.90	133.74	19.75	-41.4	-44.4	19.0	6.02e-01	0	62	0	327680000	53	5356
2026-01-27 00:23:11.91	133.97	19.65	-41.5	-44.6	18.9	6.04e-01	0	62	0	329252864	53	5476
2026-01-27 00:23:12.92	134.19	19.56	-41.5	-44.5	18.9	6.02e-01	0	62	0	331350016	53	5419
2026-01-27 00:23:13.93	134.42	19.47	-41.5	-44.5	18.9	6.02e-01	0	62	0	333447168	53	5403
2026-01-27 00:23:14.94	134.64	19.37	-41.4	-44.4	19.0	6.01e-01	0	62	0	335020032	53	5376
2026-01-27 00:23:15.95	134.87	19.28	-41.4	-44.4	18.9	6.03e-01	0	62	0	337117184	53	5390
2026-01-27 00:23:16.96	135.09	19.19	-41.4	-44.4	18.9	6.03e-01	0	62	0	338690048	53	5400
2026-01-27 00:23:17.97	135.31	19.10	-41.4	-44.4	19.0	6.00e-01	0	62	0	340787200	53	5354
2026-01-27 00:23:18.98	135.53	19.00	-41.4	-44.4	18.9	6.01e-01	0	62	0	342884352	53	5399
2026-01-27 00:23:19.99	135.75	18.91	-41.4	-44.3	19.0	6.01e-01	0	62	0	344457216	53	5317
2026-01-27 00:23:21.00	135.96	18.82	-41.3	-44.3	19.0	6.03e-01	0	62	0	346554368	53	5311
2026-01-27 00:23:22.01	136.18	18.73	-41.4	-44.3	19.0	6.03e-01	0	62	0	348127232	53	5334
2026-01-27 00:23:23.02	136.39	18.63	-41.3	-44.3	19.1	6.02e-01	0	62	0	350224384	53	5298
2026-01-27 00:23:24.03	136.60	18.54	-41.3	-44.3	19.1	6.05e-01	0	62	0	352321536	53	5308
2026-01-27 00:23:25.04	136.81	18.45	-41.3	-44.3	19.0	6.03e-01	0	62	0	353894400	53	5318
2026-01-27 00:23:26.06	137.03	18.35	-41.3	-44.3	19.0	6.02e-01	0	62	0	355991552	53	5317
2026-01-27 00:23:27.07	137.23	18.26	-41.4	-44.3	19.0	6.02e-01	0	62	0	358088704	53	5327
2026-01-27 00:23:28.08	137.44	18.17	-41.4	-44.4	19.0	6.03e-01	0	62	0	359661568	53	5363
2026-01-27 00:23:29.09	137.65	18.08	-41.4	-44.3	19.0	6.04e-01	0	62	0	361758720	53	5340
2026-01-27 00:23:30.10	137.85	17.98	-41.4	-44.4	19.0	6.00e-01	0	62	0	363331584	53	5367
2026-01-27 00:23:31.11	138.05	17.89	-41.4	-44.5	18.9	6.02e-01	0	62	0	365428736	53	5406
2026-01-27 00:23:32.12	138.26	17.80	-41.4	-44.4	18.9	6.04e-01	0	62	0	367525888	53	5377
2026-01-27 00:23:33.13	138.46	17.71	-41.3	-44.3	19.0	6.03e-01	0	62	0	369098752	53	5325
2026-01-27 00:23:34.14	138.66	17.61	-41.3	-44.3	19.0	6.03e-01	0	62	0	371195904	53	5324
2026-01-27 00:23:35.15	138.85	17.52	-41.4	-44.3	19.0	6.04e-01	0	62	0	373293056	53	5331
2026-01-27 00:23:36.16	139.05	17.43	-41.3	-44.3	19.0	6.04e-01	0	62	0	374865920	53	5300
2026-01-27 00:23:37.17	139.25	17.34	-41.4	-44.4	18.9	6.05e-01	0	62	0	376963072	53	5372
2026-01-27 00:23:38.18	139.44	17.24	-41.3	-44.3	19.0	6.02e-01	0	62	0	378535936	53	5289
2026-01-27 00:23:39.19	139.63	17.15	-41.3	-44.2	19.0	6.03e-01	0	62	0	380633088	53	5266
2026-01-27 00:23:40.20	139.83	17.06	-41.3	-44.3	18.9	6.02e-01	0	62	0	382730240	53	5298
2026-01-27 00:23:41.21	140.02	16.97	-41.3	-44.3	18.9	6.03e-01	0	62	0	384303104	53	5321
2026-01-27 00:23:42.22	140.21	16.88	-41.4	-44.4	18.8	6.01e-01	0	62	0	386400256	53	5367
2026-01-27 00:23:43.23	140.39	16.79	-41.4	-44.4	18.7	6.02e-01	0	62	0	387973120	53	5387
2026-01-27 00:23:44.24	140.58	16.69	-41.3	-44.3	18.9	6.03e-01	0	62	0	390070272	53	5319
2026-01-27 00:23:45.25	140.77	16.60	-41.4	-44.4	18.8	6.02e-01	0	62	0	392167424	53	5349
2026-01-27 00:23:46.27	140.95	16.51	-41.4	-44.5	18.8	6.04e-01	0	62	0	393740288	53	5409
2026-01-27 00:23:47.28	141.14	16.42	-41.4	-44.4	18.8	6.03e-01	0	62	0	395837440	53	5396
2026-01-27 00:23:48.29	141.32	16.33	-41.4	-44.5	18.7	6.03e-01	0	62	0	397934592	53	5434
2026-01-27 00:23:49.30	141.50	16.24	-41.4	-44.5	18.7	6.03e-01	0	62	0	399507456	53	5439
2026-01-27 00:23:50.31	141.68	16.15	-41.3	-44.5	18.7	6.04e-01	0	62	0	401604608	53	5409
2026-01-27 00:23:51.32	141.86	16.05	-41.4	-44.4	18.8	6.04e-01	0	62	0	403177472	53	5379
2026-01-27 00:23:52.33	142.04	15.96	-41.4	-44.5	18.7	6.02e-01	0	62	0	405274624	53	5433
2026-01-27 00:23:53.34	142.22	15.87	-41.3	-44.4	18.8	6.03e-01	0	62	0	407371776	53	5341
2026-01-27 00:23:54.35	142.39	15.78	-41.3	-44.2	18.9	6.00e-01	0	62	0	408944640	53	5272
2026-01-27 00:23:55.36	142.57	15.69	-41.2	-44.2	18.9	6.02e-01	0	62	0	411041792	53	5247
2026-01-27 00:23:56.37	142.74	15.60	-41.3	-44.3	18.9	6.01e-01	0	62	0	412614656	53	5301
2026-01-27 00:23:57.38	142.91	15.51	-41.3	-44.3	18.7	6.05e-01	0	62	0	414711808	53	5299
2026-01-27 00:23:58.39	143.08	15.42	-41.2	-44.3	18.8	6.02e-01	0	62	0	416808960	53	5292
2026-01-27 00:23:59.40	143.25	15.33	-41.3	-44.4	18.7	6.03e-01	0	62	0	418381824	53	5362
2026-01-27 00:24:00.41	143.42	15.24	-41.3	-44.4	18.7	6.02e-01	0	62	0	420478976	53	5392
2026-01-27 00:24:01.42	143.59	15.15	-41.4	-44.6	18.6	6.02e-01	0	62	0	422051840	53	5468
2026-01-27 00:24:02.43	143.76	15.07	-41.4	-44.5	18.6	6.01e-01	0	62	0	424148992	53	5428
2026-01-27 00:24:03.44	143.92	14.98	-41.4	-44.5	18.5	6.04e-01	0	62	0	426246144	53	5444
2026-01-27 00:24:04.45	144.09	14.89	-41.4	-44.5	18.6	6.02e-01	0	62	0	427819008	53	5432
2026-01-27 00:24:05.45	144.25	14.80	-41.3	-44.4	18.7	6.02e-01	0	62	0	429916160	53	5381
2026-01-27 00:24:06.46	144.41	14.71	-41.4	-44.5	18.7	6.03e-01	0	62	0	431489024	53	5420
2026-01-27 00:24:07.47	144.58	14.62	-41.3	-44.4	18.7	6.02e-01	0	62	0	433586176	53	5388
2026-01-27 00:24:08.48	144.74	14.53	-41.3	-44.3	18.7	6.01e-01	0	62	0	435683328	53	5332
2026-01-27 00:24:09.49	144.90	14.45	-41.3	-44.4	18.7	6.04e-01	0	62	0	437256192	53	5351
2026-01-27 00:24:10.50	145.06	14.36	-41.3	-44.4	18.7	6.04e-01	0	62	0	439353344	53	5359
2026-01-27 00:24:11.51	145.21	14.27	-41.3	-44.5	18.6	6.03e-01	0	62	0	441450496	53	5407
2026-01-27 00:24:12.52	145.37	14.18	-41.4	-44.5	18.6	6.04e-01	0	62	0	443023360	53	5462
2026-01-27 00:24:13.53	145.53	14.09	-41.4	-44.6	18.5	6.01e-01	0	62	0	445120512	53	5497
2026-01-27 00:24:14.54	145.68	14.01	-41.4	-44.6	18.5	6.02e-01	0	62	0	446693376	53	5473
2026-01-27 00:24:15.55	145.84	13.92	-41.4	-44.6	18.5	6.01e-01	0	62	0	448790528	53	5475
2026-01-27 00:24:16.56	145.99	13.83	-41.4	-44.5	18.5	6.06e-01	0	62	0	450887680	53	5462
2026-01-27 00:24:17.57	146.14	13.75	-41.4	-44.6	18.4	6.03e-01	0	62	0	452460544	53	5473
2026-01-27 00:24:18.57	146.29	13.66	-41.4	-44.6	18.0	6.01e-01	0	62	0	454557696	53	5479
2026-01-27 00:24:19.58	146.44	13.57	-41.4	-44.6	18.5	6.03e-01	0	62	0	456130560	53	5473
2026-01-27 00:24:20.60	146.59	13.49	-41.4	-44.5	18.5	6.01e-01	0	62	0	458227712	53	5463
2026-01-27 00:24:21.61	146.74	13.40	-41.4	-44.6	18.5	6.04e-01	0	62	0	460324864	53	5483
2026-01-27 00:24:22.62	146.89	13.31	-41.4	-44.6	18.5	6.06e-01	0	62	0	461897728	53	5483
2026-01-27 00:24:23.62	147.04	13.23	-41.5	-44.7	18.4	6.03e-01	0	62	0	463994880	53	5550
2026-01-27 00:24:24.63	147.18	13.14	-41.3	-44.5	18.5	6.03e-01	0	62	0	465567744	53	5434
2026-01-27 00:24:25.65	147.33	13.06	-41.4	-44.5	18.5	6.02e-01	0	62	0	467664896	53	5453
2026-01-27 00:24:26.66	147.47	12.97	-41.4	-44.6	18.5	6.02e-01	0	62	0	469762048	53	5485
2026-01-27 00:24:27.66	147.62	12.89	-41.3	-44.5	18.5	6.02e-01	0	62	0	471334912	53	5414
2026-01-27 00:24:28.67	147.76	12.80	-41.3	-44.5	18.5	6.02e-01	0	62	0	473432064	53	5429
2026-01-27 00:24:29.68	147.90	12.72	-41.3	-44.6	18.3	6.01e-01	0	62	0	475529216	53	5526
2026-01-27 00:24:30.70	148.04	12.63	-41.4	-44.7	18.4	6.02e-01	0	62	0	477102080	53	5542
2026-01-27 00:24:31.70	148.18	12.55	-41.4	-44.7	18.3	6.03e-01	0	62	0	479199232	53	5558
2026-01-27 00:24:32.71	148.32	12.46	-41.5	-44.8	18.2	6.04e-01	0	62	0	480772096	53	5596
2026-01-27 00:24:33.72	148.46	12.38	-41.5	-44.9	18.1	6.04e-01	0	62	0	482869248	53	5675
2026-01-27 00:24:34.73	148.60	12.30	-41.5	-44.8	18.1	6.04e-01	0	62	0	484442112	53	5651
2026-01-27 00:24:35.75	148.73	12.21	-41.5	-44.9	18.0	6.04e-01	0	62	0	486539264	53	5672
2026-01-27 00:24:36.76	148.87	12.13	-41.6	-45.0	17.9	6.06e-01	0	62	0	488636416	53	5748
2026-01-27 00:24:37.77	149.00	12.04	-41.6	-45.0	17.9	6.03e-01	0	62	0	490209280	53	5755
2026-01-27 00:24:38.78	149.14	11.96	-41.5	-44.9	18.0	6.01e-01	0	62	0	492306432	53	5685
2026-01-27 00:24:39.79	149.27	11.88	-41.5	-44.8	18.1	6.03e-01	0	62	0	494403584	53	5652
2026-01-27 00:24:40.80	149.41	11.79	-41.5	-44.9	18.0	6.05e-01	0	62	0	495976448	53	5675
2026-01-27 00:24:41.81	149.54	11.71	-41.5	-44.9	18.0	6.04e-01	0	62	0	498073600	53	5679
2026-01-27 00:24:42.82	149.67	11.63	-41.6	-45.0	17.8	6.02e-01	0	62	0	499646464	53	5772
2026-01-27 00:24:43.82	149.80	11.55	-41.5	-44.9	18.0	6.02e-01	0	62	0	501743616	53	5676
2026-01-27 00:24:44.83	149.93	11.47	-41.5	-44.8	18.1	6.01e-01	0	62	0	503840768	53	5637
2026-01-27 00:24:45.84	150.06	11.38	-41.6	-45.0	17.9	6.04e-01	0	62	0	505413632	53	5758
2026-01-27 00:24:46.85	150.18	11.30	-41.6	-45.0	17.8	6.00e-01	0	62	0	507510784	53	5760
2026-01-27 00:24:47.86	150.31	11.22	-41.6	-45.0	17.8	6.02e-01	0	62	0	509607936	53	5776
2026-01-27 00:24:48.87	150.44	11.14	-41.6	-45.0	17.9	6.03e-01	0	62	0	511180800	53	5746
2026-01-27 00:24:49.88	150.56	11.06	-41.5	-45.0	17.8	6.01e-01	0	62	0	513277952	53	5738
2026-01-27 00:24:50.89	150.69	10.98	-41.6	-45.0	17.8	6.01e-01	0	62	0	514850816	53	5753
2026-01-27 00:24:51.90	150.81	10.90	-41.6	-45.1	17.8	6.02e-01	0	62	0	516947968	53	5789
2026-01-27 00:24:52.91	150.94	10.82	-41.6	-45.1	17.7	6.05e-01	0	62	0	519045120	53	5811
2026-01-27 00:24:53.92	151.06	10.73	-41.6	-45.1	17.6	6.04e-01	0	62	0	520617984	53	5811
2026-01-27 00:24:54.93	151.18	10.65	-41.6	-45.1	17.7	6.03e-01	0	62	0	522715136	53	5843
2026-01-27 00:24:55.94	151.31	10.57	-41.6	-45.1	17.7	6.06e-01	0	62	0	524288000	53	5797
2026-01-27 00:24:56.96	151.43	10.49	-41.6	-45.2	17.6	6.03e-01	0	62	0	526385152	53	5883
2026-01-27 00:24:57.97	151.55	10.41	-41.6	-45.2	17.5	6.01e-01	0	62	0	528482304	53	5907
2026-01-27 00:24:58.97	151.67	10.34	-41.7	-45.3	17.4	6.04e-01	0	62	0	530055168	53	5934
2026-01-27 00:24:59.98	151.79	10.26	-41.7	-45.3	17.4	6.04e-01	0	62	0	532152320	53	5980
2026-01-27 00:25:00.99	151.90	10.18	-41.7	-45.4	17.4	6.03e-01	0	62	0	534249472	54	5665
2026-01-27 00:25:02.00	152.02	10.10	-41.7	-45.3	17.4	6.00e-01	0	62	0	535822336	54	5627
2026-01-27 00:25:03.01	152.14	10.02	-41.7	-45.4	17.3	6.02e-01	0	62	0	537919488	54	5697
2026-01-27 00:25:04.02	152.25	9.94	-41.8	-45.6	17.2	6.01e-01	0	62	0	539492352	54	5795
2026-01-27 00:25:05.03	152.37	9.86	-41.7	-45.4	17.2	6.04e-01	0	62	0	541589504	54	5718
2026-01-27 00:25:06.04	152.48	9.78	-41.8	-45.5	17.2	6.03e-01	0	62	0	543686656	54	5760
2026-01-27 00:25:07.05	152.60	9.71	-41.7	-45.5	17.2	6.06e-01	0	62	0	545259520	54	5750
2026-01-27 00:25:08.06	152.71	9.63	-41.7	-45.5	17.2	6.00e-01	0	62	0	547356672	54	5765
2026-01-27 00:25:09.07	152.83	9.55	-41.7	-45.4	17.2	6.03e-01	0	62	0	548929536	54	5699
2026-01-27 00:25:10.08	152.94	9.47	-41.7	-45.5	17.2	6.02e-01	0	62	0	551026688	54	5733
2026-01-27 00:25:11.09	153.05	9.40	-41.8	-45.6	17.0	6.05e-01	0	62	0	553123840	54	5829
2026-01-27 00:25:12.10	153.16	9.32	-41.8	-45.6	17.0	6.03e-01	0	62	0	554696704	54	5820
2026-01-27 00:25:13.11	153.27	9.24	-41.8	-45.6	17.0	6.00e-01	0	62	0	556793856	54	5814
2026-01-27 00:25:14.12	153.38	9.16	-41.7	-45.5	17.1	6.03e-01	0	62	0	558366720	54	5776
2026-01-27 00:25:15.13	153.49	9.09	-41.8	-45.7	16.8	6.03e-01	0	62	0	560463872	54	5916
2026-01-27 00:25:16.14	153.60	9.01	-41.8	-45.8	16.8	6.00e-01	0	62	0	562561024	54	5937
2026-01-27 00:25:17.15	153.71	8.93	-41.8	-45.7	16.8	6.04e-01	0	62	0	564133888	54	5915
2026-01-27 00:25:18.16	153.82	8.86	-41.8	-45.8	16.7	6.05e-01	0	62	0	566231040	54	5937
2026-01-27 00:25:19.17	153.92	8.78	-41.8	-45.8	16.8	6.03e-01	0	62	0	567803904	54	5938
2026-01-27 00:25:20.18	154.03	8.71	-41.8	-45.7	16.8	6.04e-01	0	62	0	569901056	54	5907
2026-01-27 00:25:21.19	154.14	8.63	-41.8	-45.8	16.7	6.03e-01	0	62	0	571998208	54	5956
2026-01-27 00:25:22.20	154.24	8.56	-41.8	-45.8	16.7	6.02e-01	0	62	0	573571072	54	5946
2026-01-27 00:25:23.21	154.35	8.48	-41.8	-45.8	16.7	6.04e-01	0	62	0	575668224	54	5927
2026-01-27 00:25:24.22	154.45	8.41	-41.7	-45.7	16.7	6.02e-01	0	62	0	577765376	54	5874
2026-01-27 00:25:25.23	154.55	8.33	-41.9	-46.0	16.5	6.04e-01	0	62	0	579338240	54	6065
2026-01-27 00:25:26.24	154.66	8.26	-41.9	-46.1	16.3	6.01e-01	0	62	0	581435392	54	6139
2026-01-27 00:25:27.25	154.76	8.18	-41.9	-46.1	16.3	6.06e-01	0	62	0	583008256	54	6164
2026-01-27 00:25:28.26	154.86	8.11	-42.0	-46.2	16.1	6.03e-01	0	62	0	585105408	54	6262
2026-01-27 00:25:29.27	154.96	8.03	-41.9	-46.2	16.0	6.04e-01	0	62	0	587202560	54	6257
2026-01-27 00:25:30.28	155.06	7.96	-45.1	-62.3	3.6	7.48e-01	0	62	104	588775424	60	28309
2026-01-27 00:25:31.29	155.16	7.88	-45.6	-64.1	3.8	7.45e-01	0	62	104	588775424	61	32698
2026-01-27 00:25:32.30	155.26	7.81	-45.9	-64.4	3.8	7.45e-01	0	62	104	588775424	62	31998
2026-01-27 00:25:33.31	155.36	7.74	-46.1	-64.6	3.8	7.47e-01	0	62	104	588775424	62	32626
2026-01-27 00:25:34.32	155.46	7.66	-46.2	-64.7	3.8	7.44e-01	0	62	104	588775424	62	33261
2026-01-27 00:25:35.33	155.56	7.59	-46.3	-64.8	3.8	7.46e-01	0	62	104	588775424	63	31527
2026-01-27 00:25:36.34	155.66	7.52	-46.3	-64.8	3.8	7.44e-01	0	62	104	588775424	63	31775
2026-01-27 00:25:37.35	155.75	7.45	-46.3	-64.8	3.8	7.50e-01	0	62	104	588775424	63	31806
2026-01-27 00:25:38.36	155.85	7.37	-46.3	-64.9	3.8	7.45e-01	0	62	104	588775424	63	31910
2026-01-27 00:25:39.37	155.95	7.30	-46.3	-64.8	3.8	7.46e-01	0	62	104	588775424	63	31656
2026-01-27 00:25:40.38	156.04	7.23	-46.1	-64.7	3.8	7.46e-01	0	62	104	588775424	63	31330
2026-01-27 00:25:41.39	156.14	7.16	-46.1	-64.6	3.8	7.47e-01	0	62	104	588775424	63	30961
2026-01-27 00:25:42.40	156.23	7.08	-46.0	-64.6	3.8	7.48e-01	0	62	104	588775424	63	30775
2026-01-27 00:25:43.41	156.33	7.01	-46.1	-64.6	3.8	7.47e-01	0	62	104	588775424	63	30925
2026-01-27 00:25:44.42	156.42	6.94	-46.1	-64.6	3.8	7.45e-01	0	62	104	588775424	63	30836
2026-01-27 00:25:45.43	156.51	6.87	-46.0	-64.5	3.8	7.46e-01	0	62	104	588775424	63	30637
2026-01-27 00:25:46.44	156.61	6.80	-46.0	-64.5	3.8	7.46e-01	0	62	104	588775424	63	30646
2026-01-27 00:25:47.45	156.70	6.73	-46.0	-64.5	3.8	7.47e-01	0	62	104	588775424	63	30614
2026-01-27 00:25:48.46	156.79	6.66	-46.0	-64.5	3.8	7.44e-01	0	62	104	588775424	63	30629
2026-01-27 00:25:49.47	156.88	6.58	-46.0	-64.5	3.8	7.46e-01	0	62	104	588775424	63	30601
2026-01-27 00:25:50.48	156.97	6.51	-46.0	-64.5	3.8	7.48e-01	0	62	104	588775424	63	30636
2026-01-27 00:25:51.49	157.06	6.44	-46.0	-64.5	3.8	7.45e-01	0	62	104	588775424	63	30617
2026-01-27 00:25:52.50	157.15	6.37	-46.0	-64.5	3.8	7.44e-01	0	62	104	588775424	63	30578
2026-01-27 00:25:53.51	157.24	6.30	-46.0	-64.5	3.8	7.41e-01	0	62	104	588775424	63	30581
2026-01-27 00:25:54.52	157.33	6.23	-46.0	-64.5	3.8	7.42e-01	0	62	104	588775424	63	30636
2026-01-27 00:25:55.53	157.42	6.16	-46.0	-64.5	3.8	7.45e-01	0	62	104	588775424	63	30554
2026-01-27 00:25:56.54	157.51	6.09	-46.0	-64.5	3.8	7.45e-01	0	62	104	588775424	63	30557
2026-01-27 00:25:57.55	157.60	6.02	-46.0	-64.5	3.8	7.47e-01	0	62	104	588775424	63	30516
2026-01-27 00:25:58.56	157.68	5.95	-46.0	-64.5	3.8	7.48e-01	0	62	104	588775424	63	30560
2026-01-27 00:25:59.57	157.77	5.88	-46.0	-64.5	3.8	7.43e-01	0	62	104	588775424	63	30530
2026-01-27 00:26:00.58	157.86	5.82	-46.0	-64.5	3.8	7.43e-01	0	62	104	588775424	63	30518
2026-01-27 00:26:01.59	157.94	5.75	-46.0	-64.5	3.8	7.43e-01	0	62	104	588775424	63	30553
2026-01-27 00:26:02.60	158.03	5.68	-46.0	-64.5	3.8	7.43e-01	0	62	104	588775424	63	30521
2026-01-27 00:26:03.61	158.11	5.61	-46.0	-64.5	3.8	7.46e-01	0	62	104	588775424	63	30512
2026-01-27 00:26:04.62	158.20	5.54	-46.0	-64.5	3.8	7.49e-01	0	62	104	588775424	63	30500
2026-01-27 00:26:05.63	158.28	5.47	-46.0	-64.5	3.8	7.51e-01	0	62	104	588775424	63	30523
2026-01-27 00:26:06.64	158.37	5.40	-46.0	-64.5	3.8	7.46e-01	0	62	104	588775424	63	30494
2026-01-27 00:26:07.65	158.45	5.34	-46.0	-64.5	3.8	7.46e-01	0	62	104	588775424	63	30446
2026-01-27 00:26:08.66	158.53	5.27	-46.0	-64.5	3.8	7.44e-01	0	62	104	588775424	63	30568
2026-01-27 00:26:09.67	158.62	5.20	-46.0	-64.5	3.8	7.47e-01	0	62	104	588775424	63	30443
2026-01-27 00:26:10.68	158.70	5.13	-46.0	-64.5	3.8	7.47e-01	0	63	104	588775424	63	30419
2026-01-27 00:26:11.69	158.78	5.06	-45.9	-64.4	3.8	7.43e-01	0	62	104	588775424	63	30359
2026-01-27 00:26:12.70	158.86	5.00	-45.9	-64.5	3.8	7.45e-01	0	63	104	588775424	63	30417
2026-01-27 00:26:13.72	158.94	4.93	-45.9	-64.4	3.8	7.43e-01	0	62	104	588775424	63	30286
2026-01-27 00:26:14.72	159.02	4.86	-45.9	-64.4	3.8	7.46e-01	0	62	104	588775424	63	30290
2026-01-27 00:26:15.74	159.10	4.80	-45.9	-64.4	3.8	7.45e-01	0	63	104	588775424	63	30258
2026-01-27 00:26:16.75	159.18	4.73	-45.9	-64.4	3.8	7.44e-01	0	62	104	588775424	63	30226
2026-01-27 00:26:17.76	159.26	4.66	-45.9	-64.4	3.8	7.48e-01	0	63	104	588775424	63	30240
2026-01-27 00:26:18.77	159.34	4.60	-45.9	-64.4	3.8	7.42e-01	0	63	104	588775424	63	30302
2026-01-27 00:26:19.78	159.42	4.53	-45.9	-64.4	3.8	7.45e-01	0	63	104	588775424	63	30205
2026-01-27 00:26:20.79	159.50	4.46	-45.9	-64.4	3.8	7.47e-01	0	62	104	588775424	63	30232
2026-01-27 00:26:21.80	159.58	4.40	-45.9	-64.4	3.8	7.45e-01	0	62	104	588775424	63	30120
2026-01-27 00:26:22.81	159.66	4.33	-45.9	-64.4	3.8	7.42e-01	0	63	104	588775424	63	30218
2026-01-27 00:26:23.82	159.73	4.27	-45.9	-64.4	3.8	7.43e-01	0	63	104	588775424	63	30210
2026-01-27 00:26:24.83	159.81	4.20	-45.9	-64.4	3.8	7.46e-01	0	62	104	588775424	63	30253
2026-01-27 00:26:25.84	159.89	4.13	-45.9	-64.4	3.8	7.45e-01	0	62	104	588775424	63	30276
2026-01-27 00:26:26.85	159.96	4.07	-45.9	-64.4	3.8	7.45e-01	0	63	104	588775424	63	30224
2026-01-27 00:26:27.86	160.04	4.00	-45.9	-64.4	3.8	7.47e-01	0	63	104	588775424	63	30320
2026-01-27 00:26:28.87	160.11	3.94	-45.9	-64.4	3.8	7.44e-01	0	62	104	588775424	63	30245
2026-01-27 00:26:29.88	160.19	3.87	-45.9	-64.4	3.8	7.43e-01	0	63	104	588775424	63	30249
2026-01-27 00:26:30.89	160.27	3.81	-45.9	-64.4	3.8	7.43e-01	0	62	104	588775424	63	30300
2026-01-27 00:26:31.91	160.34	3.74	-45.9	-64.4	3.8	7.46e-01	0	63	104	588775424	63	30236
2026-01-27 00:26:32.92	160.41	3.68	-45.9	-64.4	3.8	7.46e-01	0	62	104	588775424	63	30263
2026-01-27 00:26:33.93	160.49	3.61	-45.9	-64.4	3.8	7.45e-01	0	63	104	588775424	63	30317
2026-01-27 00:26:34.94	160.56	3.55	-45.9	-64.4	3.8	7.46e-01	0	63	104	588775424	63	30265
2026-01-27 00:26:35.95	160.63	3.49	-45.9	-64.4	3.8	7.47e-01	0	62	104	588775424	63	30330
2026-01-27 00:26:36.96	160.71	3.42	-45.9	-64.4	3.8	7.49e-01	0	63	104	588775424	63	30242
2026-01-27 00:26:37.97	160.78	3.36	-45.9	-64.4	3.8	7.48e-01	0	63	104	588775424	63	30238
2026-01-27 00:26:38.98	160.85	3.29	-45.9	-64.4	3.8	7.44e-01	0	62	104	588775424	63	30194
2026-01-27 00:26:39.99	160.92	3.23	-45.9	-64.4	3.8	7.47e-01	0	63	104	588775424	63	30165
2026-01-27 00:26:41.00	161.00	3.17	-45.9	-64.4	3.8	7.46e-01	0	63	104	588775424	63	30217
2026-01-27 00:26:42.01	161.07	3.10	-45.9	-64.4	3.8	7.46e-01	0	62	104	588775424	63	30234
2026-01-27 00:26:43.02	161.14	3.04	-45.9	-64.4	3.8	7.44e-01	0	63	104	588775424	63	30150
2026-01-27 00:26:44.03	161.21	2.98	-45.9	-64.4	3.8	7.45e-01	0	63	104	588775424	63	30230
2026-01-27 00:26:45.05	161.28	2.91	-45.9	-64.4	3.8	7.45e-01	0	63	104	588775424	63	30212
2026-01-27 00:26:46.06	161.35	2.85	-45.9	-64.4	3.8	7.45e-01	0	62	104	588775424	63	30219
2026-01-27 00:26:47.07	161.42	2.79	-45.9	-64.4	3.8	7.48e-01	0	63	104	588775424	63	30312
2026-01-27 00:26:48.08	161.49	2.73	-45.9	-64.4	3.8	7.43e-01	0	63	104	588775424	63	30234
2026-01-27 00:26:49.09	161.56	2.66	-45.9	-64.4	3.8	7.44e-01	0	62	104	588775424	63	30246
2026-01-27 00:26:50.10	161.63	2.60	-45.9	-64.4	3.8	7.43e-01	0	63	104	588775424	63	30321
2026-01-27 00:26:51.11	161.69	2.54	-45.9	-64.4	3.8	7.45e-01	0	63	104	588775424	63	30243
2026-01-27 00:26:52.12	161.76	2.48	-45.9	-64.4	3.8	7.45e-01	0	63	104	588775424	63	30220
2026-01-27 00:26:53.13	161.83	2.42	-45.9	-64.4	3.8	7.43e-01	0	63	104	588775424	63	30226
2026-01-27 00:26:54.14	161.90	2.35	-45.9	-64.4	3.8	7.46e-01	0	63	104	588775424	63	30155
2026-01-27 00:26:55.15	161.96	2.29	-45.9	-64.4	3.8	7.44e-01	0	62	104	588775424	63	30206
2026-01-27 00:26:56.16	162.03	2.23	-45.9	-64.4	3.8	7.49e-01	0	63	104	588775424	63	30141
2026-01-27 00:26:57.17	162.10	2.17	-45.9	-64.4	3.8	7.44e-01	0	63	104	588775424	63	30119
2026-01-27 00:26:58.18	162.16	2.11	-45.9	-64.4	3.8	7.44e-01	0	63	104	588775424	63	30109
2026-01-27 00:26:59.19	162.23	2.05	-45.9	-64.4	3.8	7.43e-01	0	63	104	588775424	63	30148
2026-01-27 00:27:00.21	162.30	1.98	-45.8	-64.4	3.8	7.46e-01	0	62	104	588775424	63	30086
2026-01-27 00:27:01.22	162.36	1.92	-45.9	-64.4	3.8	7.47e-01	0	63	104	588775424	63	30122
2026-01-27 00:27:02.23	162.43	1.86	-45.9	-64.4	3.8	7.44e-01	0	62	104	588775424	63	30084

#Closed at: 2026-01-27 00:27:02
#Recorded file [588 MB]: D:/lorett/data/31039_260127_031927.dat