passes_logs/2026/01/27/R2.0S_Moscow/R2.0S_Moscow__20260127_112606_AQUA_rec.log

#Pass ID: 20260127_112606_AQUA
#Satellite: AQUA
#Configuration: AQUA
#almurnet v.1.7.20251203
#Start time: 2026-01-27 11:26:08

#Version: 2.2.20231116
#Station: R2.0S_Moscow
#Location: 37.707566 lon 55.798166 lat
#TLE: 1 27424U 02022A   26026.85810808  .00001813  00000+0  37258-3 0  9999
#TLE: 2 27424  98.4101 353.4861 0001866  64.3332 317.5249 14.61864179262622

#Time	Az	El	Level	Level2	SNR	BER	BlckErr	Temp	State	Recorded	gain1	gain2
2026-01-27 11:26:08.48	153.31	2.14	-44.8	-63.3	3.8	7.47e-01	0	53	0	0	60	31775
2026-01-27 11:26:09.48	153.30	2.21	-44.8	-63.4	3.8	7.47e-01	0	53	104	0	60	31825
2026-01-27 11:26:10.49	153.29	2.28	-44.8	-63.4	3.8	7.47e-01	0	54	104	0	60	31844
2026-01-27 11:26:11.50	153.27	2.35	-44.8	-63.3	3.8	7.48e-01	0	54	104	0	60	31775
2026-01-27 11:26:12.51	153.26	2.41	-44.8	-63.3	3.8	7.48e-01	0	54	104	0	60	31782
2026-01-27 11:26:13.52	153.25	2.48	-44.7	-63.3	3.8	7.48e-01	0	54	104	0	60	31789
2026-01-27 11:26:14.53	153.24	2.55	-44.8	-63.4	3.8	7.45e-01	0	54	104	0	60	31822
2026-01-27 11:26:15.54	153.22	2.62	-44.8	-63.1	3.9	7.50e-01	0	54	104	0	60	30792
2026-01-27 11:26:16.56	153.21	2.69	-44.8	-63.3	3.8	7.43e-01	0	54	104	0	60	31742
2026-01-27 11:26:17.56	153.20	2.76	-44.8	-63.3	3.8	7.43e-01	0	54	104	0	60	31806
2026-01-27 11:26:18.57	153.19	2.83	-44.8	-63.3	3.8	7.42e-01	0	54	104	0	60	31755
2026-01-27 11:26:19.59	153.17	2.90	-44.8	-63.3	3.8	7.43e-01	0	54	104	0	60	31731
2026-01-27 11:26:20.60	153.16	2.97	-44.8	-63.4	3.8	7.42e-01	0	54	104	0	60	31910
2026-01-27 11:26:21.61	153.15	3.04	-44.8	-63.3	3.8	7.45e-01	0	54	104	0	60	31769
2026-01-27 11:26:22.62	153.13	3.11	-44.8	-63.4	3.8	7.49e-01	0	55	104	0	60	31864
2026-01-27 11:26:23.63	153.12	3.18	-44.8	-63.3	3.8	7.44e-01	0	55	104	0	60	31807
2026-01-27 11:26:24.64	153.11	3.25	-44.8	-63.3	3.8	7.42e-01	0	54	104	0	60	31797
2026-01-27 11:26:25.65	153.09	3.32	-44.8	-63.3	3.8	7.47e-01	0	55	104	0	60	31669
2026-01-27 11:26:26.66	153.08	3.39	-44.8	-63.3	3.8	7.41e-01	0	55	104	0	60	31517
2026-01-27 11:26:27.67	153.07	3.46	-44.7	-63.3	3.8	7.46e-01	0	55	104	0	60	31583
2026-01-27 11:26:28.68	153.05	3.53	-44.6	-63.2	3.8	7.45e-01	0	55	104	0	60	31236
2026-01-27 11:26:29.69	153.04	3.60	-44.8	-63.3	3.8	7.46e-01	0	55	104	0	60	31689
2026-01-27 11:26:30.70	153.03	3.67	-44.8	-63.3	3.8	7.43e-01	0	55	104	0	60	31798
2026-01-27 11:26:31.71	153.01	3.75	-44.8	-63.3	3.8	7.47e-01	0	55	104	0	60	31727
2026-01-27 11:26:32.72	153.00	3.82	-44.7	-63.3	3.8	7.42e-01	0	55	104	0	60	31731
2026-01-27 11:26:33.73	152.98	3.89	-44.7	-63.2	3.8	7.45e-01	0	55	104	0	60	31402
2026-01-27 11:26:34.74	152.97	3.96	-44.6	-62.8	3.8	7.45e-01	0	55	104	0	59	31766
2026-01-27 11:26:35.75	152.96	4.04	-44.5	-63.2	3.9	7.46e-01	0	55	104	0	60	31400
2026-01-27 11:26:36.76	152.94	4.11	-44.4	-63.2	3.8	7.47e-01	0	55	104	0	60	31187
2026-01-27 11:26:37.77	152.93	4.18	-44.8	-63.3	3.8	7.41e-01	0	55	104	0	60	31794
2026-01-27 11:26:38.78	152.91	4.26	-44.7	-63.3	3.8	7.45e-01	0	56	104	0	60	31656
2026-01-27 11:26:39.79	152.90	4.33	-44.8	-63.3	3.8	7.45e-01	0	55	104	0	60	31778
2026-01-27 11:26:40.81	152.88	4.40	-44.8	-63.3	3.8	7.48e-01	0	55	104	0	60	31737
2026-01-27 11:26:41.82	152.87	4.48	-44.8	-63.3	3.8	7.45e-01	0	55	104	0	60	31624
2026-01-27 11:26:42.83	152.85	4.55	-44.8	-63.3	3.8	7.42e-01	0	55	104	0	60	31647
2026-01-27 11:26:43.84	152.84	4.63	-44.8	-63.3	3.8	7.46e-01	0	56	104	0	60	31723
2026-01-27 11:26:44.85	152.82	4.70	-44.7	-63.3	3.8	7.47e-01	0	56	104	0	60	31638
2026-01-27 11:26:45.86	152.81	4.78	-44.5	-63.1	3.8	7.46e-01	0	56	104	0	60	30795
2026-01-27 11:26:46.87	152.79	4.85	-44.8	-63.2	3.8	7.46e-01	0	56	104	0	60	31391
2026-01-27 11:26:47.88	152.78	4.93	-44.7	-63.2	3.8	7.46e-01	0	56	104	0	60	31215
2026-01-27 11:26:48.89	152.76	5.00	-44.8	-63.1	3.8	7.48e-01	0	56	104	0	60	30966
2026-01-27 11:26:49.90	152.75	5.08	-44.7	-62.9	3.8	7.46e-01	0	56	104	0	60	30302
2026-01-27 11:26:50.91	152.73	5.15	-44.7	-62.8	3.8	7.46e-01	0	56	104	0	60	29963
2026-01-27 11:26:51.92	152.72	5.23	-44.6	-62.5	3.8	7.41e-01	0	56	104	0	60	28814
2026-01-27 11:26:52.93	152.70	5.31	-44.7	-62.6	3.8	7.48e-01	0	56	104	0	60	29314
2026-01-27 11:26:53.94	152.68	5.38	-44.7	-62.7	3.8	7.44e-01	0	56	104	0	60	29351
2026-01-27 11:26:54.95	152.67	5.46	-44.7	-62.7	3.8	7.44e-01	0	56	104	0	60	29548
2026-01-27 11:26:55.96	152.65	5.54	-44.7	-62.6	3.8	7.49e-01	0	56	104	0	60	29269
2026-01-27 11:26:56.97	152.64	5.62	-44.7	-62.2	3.8	7.47e-01	0	56	104	0	60	27919
2026-01-27 11:26:57.98	152.62	5.70	-44.7	-61.6	3.8	7.39e-01	0	56	104	0	60	26135
2026-01-27 11:26:58.99	152.60	5.77	-44.5	-60.9	3.9	7.40e-01	0	56	104	0	60	24077
2026-01-27 11:27:00.00	152.59	5.85	-44.7	-60.6	4.0	7.46e-01	0	56	104	0	60	23191
2026-01-27 11:27:01.01	152.57	5.93	-44.6	-59.3	4.4	7.29e-01	0	57	104	0	60	19879
2026-01-27 11:27:02.02	152.55	6.01	-44.6	-58.7	4.0	7.38e-01	0	57	104	0	60	18535
2026-01-27 11:27:03.03	152.54	6.09	-44.6	-58.0	4.9	7.12e-01	0	57	0	0	60	17118
2026-01-27 11:27:04.04	152.52	6.17	-44.5	-57.4	5.2	7.00e-01	1	57	0	0	60	15953
2026-01-27 11:27:05.05	152.50	6.25	-44.5	-56.8	5.5	6.92e-01	64	57	0	0	60	15049
2026-01-27 11:27:06.06	152.48	6.33	-44.4	-56.1	6.1	6.80e-01	92	57	0	1048576	60	13735
2026-01-27 11:27:07.07	152.47	6.41	-44.7	-56.0	6.5	6.72e-01	90	57	0	2621440	59	14387
2026-01-27 11:27:08.08	152.45	6.49	-44.6	-55.8	6.7	6.70e-01	92	57	0	4718592	59	14097
2026-01-27 11:27:09.09	152.43	6.57	-44.7	-56.1	6.5	6.72e-01	92	57	0	6815744	59	14556
2026-01-27 11:27:10.10	152.41	6.65	-44.6	-55.8	6.6	6.71e-01	92	57	0	8388608	59	14188
2026-01-27 11:27:11.12	152.39	6.73	-44.6	-55.6	6.9	6.66e-01	91	57	0	10485760	59	13786
2026-01-27 11:27:12.13	152.38	6.82	-44.7	-56.1	6.4	6.75e-01	92	57	0	12058624	59	14615
2026-01-27 11:27:13.14	152.36	6.90	-44.5	-55.9	6.5	6.73e-01	92	57	0	14155776	59	14373
2026-01-27 11:27:14.15	152.34	6.98	-44.5	-56.4	6.1	6.83e-01	48	57	0	15728640	59	15188
2026-01-27 11:27:15.16	152.32	7.06	-44.5	-56.3	6.0	6.84e-01	34	57	0	17301504	60	14106
2026-01-27 11:27:16.17	152.30	7.15	-44.7	-56.6	6.0	6.83e-01	45	57	0	19398656	59	15447
2026-01-27 11:27:17.18	152.28	7.23	-44.7	-56.0	6.3	6.73e-01	91	57	0	20971520	59	14515
2026-01-27 11:27:18.19	152.27	7.31	-44.6	-55.1	7.3	6.58e-01	91	57	0	22544384	59	12977
2026-01-27 11:27:19.20	152.25	7.40	-44.4	-53.6	8.8	6.37e-01	3	57	0	24641536	59	10976
2026-01-27 11:27:20.21	152.23	7.48	-44.2	-52.5	9.9	6.26e-01	0	57	0	26738688	59	9635
2026-01-27 11:27:21.22	152.21	7.56	-44.0	-51.8	10.5	6.20e-01	0	58	0	28311552	59	8931
2026-01-27 11:27:22.23	152.19	7.65	-43.3	-50.7	11.3	6.14e-01	0	58	0	30408704	58	8331
2026-01-27 11:27:23.24	152.17	7.73	-43.4	-49.7	12.7	6.11e-01	0	58	0	32505856	57	7826
2026-01-27 11:27:24.25	152.15	7.82	-43.3	-49.0	13.4	6.11e-01	0	57	0	34078720	57	7275
2026-01-27 11:27:25.26	152.13	7.91	-43.1	-48.5	13.8	6.06e-01	0	57	0	36175872	56	7261
2026-01-27 11:27:26.27	152.11	7.99	-43.0	-48.3	14.1	6.10e-01	0	58	0	37748736	56	7054
2026-01-27 11:27:27.28	152.09	8.08	-42.8	-47.8	15.0	6.07e-01	0	58	0	39845888	56	6664
2026-01-27 11:27:28.29	152.07	8.16	-43.7	-50.0	12.9	6.10e-01	0	58	0	41943040	57	8121
2026-01-27 11:27:29.30	152.05	8.25	-44.3	-55.4	5.2	6.87e-01	51	58	104	42467328	60	12757
2026-01-27 11:27:30.32	152.03	8.34	-42.2	-46.4	16.0	6.06e-01	0	58	0	44040192	55	6022
2026-01-27 11:27:31.33	152.01	8.43	-43.3	-48.8	13.3	6.09e-01	0	58	0	45613056	58	6670
2026-01-27 11:27:32.34	151.99	8.51	-43.9	-52.3	9.5	6.26e-01	0	58	0	47710208	58	10009
2026-01-27 11:27:33.34	151.97	8.60	-42.3	-46.8	15.5	6.07e-01	0	58	0	49807360	55	6345
2026-01-27 11:27:34.35	151.94	8.69	-42.2	-46.5	15.5	6.07e-01	0	58	0	51380224	55	6075
2026-01-27 11:27:35.36	151.92	8.78	-42.1	-46.2	16.3	6.05e-01	0	58	0	53477376	55	5917
2026-01-27 11:27:36.37	151.90	8.87	-42.0	-46.0	16.5	6.06e-01	0	58	0	55574528	55	5772
2026-01-27 11:27:37.38	151.88	8.96	-42.1	-46.3	16.4	6.05e-01	0	58	0	57147392	55	5926
2026-01-27 11:27:38.39	151.86	9.05	-42.0	-45.9	16.7	6.07e-01	0	58	0	59244544	55	5700
2026-01-27 11:27:39.40	151.84	9.14	-42.1	-46.2	16.5	6.07e-01	0	58	0	60817408	55	5861
2026-01-27 11:27:40.41	151.81	9.23	-42.0	-46.0	16.7	6.06e-01	0	58	0	62914560	55	5741
2026-01-27 11:27:41.42	151.79	9.32	-41.8	-45.5	17.2	6.06e-01	0	58	0	65011712	55	5449
2026-01-27 11:27:42.43	151.77	9.41	-41.8	-45.7	16.9	6.09e-01	0	58	0	66584576	55	5534
2026-01-27 11:27:43.44	151.75	9.51	-41.9	-45.7	17.1	6.05e-01	0	58	0	68681728	55	5569
2026-01-27 11:27:44.45	151.72	9.60	-41.8	-45.5	17.3	6.06e-01	0	58	0	70254592	55	5441
2026-01-27 11:27:45.46	151.70	9.69	-41.8	-45.5	17.4	6.05e-01	0	58	0	72351744	55	5415
2026-01-27 11:27:46.47	151.68	9.78	-41.8	-45.4	17.4	6.04e-01	0	58	0	74448896	55	5394
2026-01-27 11:27:47.48	151.65	9.88	-41.9	-45.6	17.3	6.05e-01	0	58	0	76021760	55	5484
2026-01-27 11:27:48.49	151.63	9.97	-41.9	-45.6	17.3	6.08e-01	0	58	0	78118912	55	5502
2026-01-27 11:27:49.50	151.61	10.07	-41.7	-45.3	17.5	6.06e-01	0	58	0	80216064	55	5319
2026-01-27 11:27:50.51	151.58	10.16	-41.9	-45.6	17.3	6.06e-01	0	58	0	81788928	55	5483
2026-01-27 11:27:51.52	151.56	10.25	-41.9	-45.6	17.3	6.06e-01	0	58	0	83886080	55	5492
2026-01-27 11:27:52.53	151.53	10.35	-41.9	-45.5	17.5	6.05e-01	0	59	0	85458944	55	5404
2026-01-27 11:27:53.54	151.51	10.45	-41.9	-45.5	17.5	6.07e-01	0	58	0	87556096	55	5404
2026-01-27 11:27:54.55	151.49	10.54	-41.8	-45.4	17.3	6.08e-01	0	59	0	89653248	55	5379
2026-01-27 11:27:55.56	151.46	10.64	-41.7	-45.2	17.8	6.05e-01	0	59	0	91226112	55	5245
2026-01-27 11:27:56.57	151.44	10.74	-41.8	-45.3	17.7	6.05e-01	0	59	0	93323264	55	5299
2026-01-27 11:27:57.58	151.41	10.83	-41.7	-45.1	17.9	6.06e-01	0	59	0	94896128	55	5171
2026-01-27 11:27:58.59	151.38	10.93	-41.6	-45.0	18.0	6.05e-01	0	59	0	96993280	55	5140
2026-01-27 11:27:59.60	151.36	11.03	-41.8	-45.2	17.8	6.05e-01	0	59	0	99090432	55	5252
2026-01-27 11:28:00.61	151.33	11.13	-41.7	-45.1	17.9	6.05e-01	0	59	0	100663296	55	5169
2026-01-27 11:28:01.62	151.31	11.23	-41.7	-45.1	17.9	6.07e-01	0	59	0	102760448	55	5207
2026-01-27 11:28:02.63	151.28	11.33	-41.8	-45.2	17.8	6.07e-01	0	59	0	104857600	55	5271
2026-01-27 11:28:03.64	151.25	11.43	-41.8	-45.2	17.8	6.06e-01	0	59	0	106430464	55	5261
2026-01-27 11:28:04.65	151.23	11.53	-41.7	-45.1	18.0	6.07e-01	0	59	0	108527616	55	5163
2026-01-27 11:28:05.66	151.20	11.63	-41.7	-45.1	17.9	6.09e-01	0	59	0	110100480	55	5189
2026-01-27 11:28:06.67	151.17	11.73	-41.7	-45.0	18.1	6.03e-01	0	59	0	112197632	55	5149
2026-01-27 11:28:07.68	151.15	11.83	-41.8	-45.2	17.9	6.03e-01	0	59	0	114294784	55	5235
2026-01-27 11:28:08.69	151.12	11.94	-41.8	-45.2	17.9	6.07e-01	0	59	0	115867648	55	5242
2026-01-27 11:28:09.70	151.09	12.04	-41.8	-45.2	17.9	6.06e-01	0	59	0	117964800	55	5239
2026-01-27 11:28:10.71	151.06	12.14	-41.7	-45.1	18.0	6.06e-01	0	59	0	119537664	55	5162
2026-01-27 11:28:11.72	151.03	12.25	-41.8	-45.2	18.1	6.06e-01	0	59	0	121634816	55	5219
2026-01-27 11:28:12.73	151.01	12.35	-41.8	-45.1	18.0	6.07e-01	0	59	0	123731968	55	5215
2026-01-27 11:28:13.74	150.98	12.46	-41.7	-45.0	18.1	6.09e-01	0	59	0	125304832	55	5148
2026-01-27 11:28:14.75	150.95	12.56	-41.8	-45.1	18.1	6.06e-01	0	59	0	127401984	55	5172
2026-01-27 11:28:15.76	150.92	12.67	-41.8	-45.2	18.1	6.06e-01	0	59	0	128974848	55	5228
2026-01-27 11:28:16.78	150.89	12.77	-41.8	-45.2	18.0	6.04e-01	0	59	0	131072000	55	5231
2026-01-27 11:28:17.79	150.86	12.88	-41.8	-45.1	18.1	6.07e-01	0	59	0	133169152	55	5195
2026-01-27 11:28:18.79	150.83	12.99	-41.7	-45.0	18.2	6.05e-01	0	59	0	134742016	55	5147
2026-01-27 11:28:19.81	150.80	13.10	-41.7	-45.0	18.2	6.07e-01	0	59	0	136839168	55	5153
2026-01-27 11:28:20.82	150.77	13.20	-41.9	-45.2	18.0	6.05e-01	0	59	0	138412032	55	5253
2026-01-27 11:28:21.83	150.74	13.31	-41.8	-45.0	18.3	6.07e-01	0	59	0	140509184	55	5147
2026-01-27 11:28:22.84	150.71	13.42	-41.8	-45.1	18.2	6.04e-01	0	59	0	142606336	55	5183
2026-01-27 11:28:23.84	150.68	13.53	-41.8	-45.0	18.2	6.06e-01	0	59	0	144179200	55	5152
2026-01-27 11:28:24.85	150.64	13.64	-41.8	-45.0	18.3	6.05e-01	0	60	0	146276352	55	5125
2026-01-27 11:28:25.86	150.61	13.75	-41.7	-44.9	18.2	6.08e-01	0	59	0	148373504	55	5046
2026-01-27 11:28:26.87	150.58	13.87	-41.6	-44.8	18.5	6.05e-01	0	60	0	149946368	55	4996
2026-01-27 11:28:27.88	150.55	13.98	-41.7	-44.8	18.5	6.06e-01	0	60	0	152043520	55	5038
2026-01-27 11:28:28.90	150.51	14.09	-41.7	-44.8	18.5	6.07e-01	0	60	0	153616384	55	5017
2026-01-27 11:28:29.91	150.48	14.21	-41.5	-44.6	18.7	6.07e-01	0	59	0	155713536	55	4912
2026-01-27 11:28:30.92	150.45	14.32	-41.6	-44.7	18.6	6.04e-01	0	59	0	157810688	54	5267
2026-01-27 11:28:31.93	150.41	14.43	-41.6	-44.8	18.4	6.05e-01	0	60	0	159383552	54	5287
2026-01-27 11:28:32.94	150.38	14.55	-41.7	-44.8	18.6	6.07e-01	0	60	0	161480704	54	5301
2026-01-27 11:28:33.95	150.35	14.67	-41.6	-44.7	18.6	6.08e-01	0	59	0	163053568	54	5278
2026-01-27 11:28:34.95	150.31	14.78	-41.6	-44.6	18.8	6.04e-01	0	60	0	165150720	54	5209
2026-01-27 11:28:35.96	150.28	14.90	-41.6	-44.7	18.7	6.04e-01	0	60	0	167247872	54	5233
2026-01-27 11:28:36.97	150.24	15.02	-41.6	-44.7	18.8	6.05e-01	0	60	0	168820736	54	5230
2026-01-27 11:28:37.98	150.21	15.13	-41.6	-44.6	18.8	6.08e-01	0	60	0	170917888	54	5208
2026-01-27 11:28:38.99	150.17	15.25	-41.5	-44.5	18.9	6.06e-01	0	60	0	173015040	54	5123
2026-01-27 11:28:40.00	150.13	15.37	-41.5	-44.5	18.9	6.07e-01	0	60	0	174587904	54	5149
2026-01-27 11:28:41.01	150.10	15.49	-41.5	-44.5	19.0	6.03e-01	0	60	0	176685056	54	5116
2026-01-27 11:28:42.03	150.06	15.61	-41.3	-44.5	18.6	6.09e-01	0	60	0	178257920	54	5118
2026-01-27 11:28:43.03	150.02	15.73	-41.4	-44.4	19.0	6.05e-01	0	60	0	180355072	54	5070
2026-01-27 11:28:44.05	149.99	15.86	-41.6	-44.7	18.5	6.05e-01	0	60	0	182452224	54	5260
2026-01-27 11:28:45.06	149.95	15.98	-41.6	-44.7	18.7	6.06e-01	0	60	0	184025088	54	5238
2026-01-27 11:28:46.07	149.91	16.10	-41.5	-44.5	18.8	6.06e-01	0	60	0	186122240	54	5144
2026-01-27 11:28:47.07	149.87	16.23	-41.5	-44.5	18.9	6.07e-01	0	60	0	187695104	54	5154
2026-01-27 11:28:48.08	149.83	16.35	-41.6	-44.5	18.5	6.06e-01	0	60	0	189792256	54	5156
2026-01-27 11:28:49.09	149.79	16.48	-41.6	-44.6	18.6	6.07e-01	0	60	0	191889408	53	5466
2026-01-27 11:28:50.10	149.75	16.60	-41.6	-44.7	18.9	6.05e-01	0	60	0	193462272	53	5532
2026-01-27 11:28:51.11	149.71	16.73	-41.5	-44.7	17.5	6.07e-01	0	60	0	195559424	53	5557
2026-01-27 11:28:52.12	149.67	16.86	-41.7	-44.8	18.7	6.06e-01	0	60	0	197132288	54	5318
2026-01-27 11:28:53.13	149.63	16.99	-41.8	-44.9	18.6	6.06e-01	0	60	0	199229440	54	5351
2026-01-27 11:28:54.14	149.59	17.12	-41.8	-44.8	18.7	6.04e-01	0	60	0	201326592	54	5336
2026-01-27 11:28:55.16	149.55	17.25	-41.8	-44.8	18.8	6.05e-01	0	60	0	202899456	54	5332
2026-01-27 11:28:56.17	149.51	17.38	-41.8	-44.9	18.7	6.04e-01	0	60	0	204996608	54	5368
2026-01-27 11:28:57.18	149.46	17.51	-41.8	-44.9	18.4	6.05e-01	0	60	0	206569472	54	5351
2026-01-27 11:28:58.18	149.42	17.64	-41.7	-44.9	18.5	6.10e-01	0	60	0	208666624	54	5352
2026-01-27 11:28:59.19	149.38	17.77	-41.8	-44.9	18.2	6.08e-01	0	60	0	210763776	54	5381
2026-01-27 11:29:00.21	149.33	17.91	-41.8	-44.8	18.8	6.08e-01	0	60	0	212336640	54	5314
2026-01-27 11:29:01.22	149.29	18.04	-41.7	-44.7	19.0	6.05e-01	0	60	0	214433792	54	5235
2026-01-27 11:29:02.23	149.25	18.18	-41.6	-44.6	19.0	6.07e-01	0	60	0	216530944	54	5189
2026-01-27 11:29:03.24	149.20	18.31	-41.6	-44.5	18.8	6.07e-01	0	60	0	218103808	53	5441
2026-01-27 11:29:04.25	149.16	18.45	-41.5	-44.5	19.1	6.06e-01	0	60	0	220200960	53	5408
2026-01-27 11:29:05.26	149.11	18.59	-41.4	-44.3	19.0	6.07e-01	0	60	0	221773824	53	5330
2026-01-27 11:29:06.27	149.06	18.73	-41.4	-44.3	19.3	6.07e-01	0	60	0	223870976	53	5307
2026-01-27 11:29:07.28	149.02	18.87	-41.4	-44.4	19.1	6.08e-01	0	60	0	225968128	53	5374
2026-01-27 11:29:08.29	148.97	19.01	-41.5	-44.4	19.0	6.06e-01	0	60	0	227540992	53	5382
2026-01-27 11:29:09.30	148.92	19.15	-41.5	-44.4	19.2	6.06e-01	0	60	0	229638144	53	5343
2026-01-27 11:29:10.31	148.87	19.29	-41.5	-44.4	19.3	6.06e-01	0	60	0	231735296	53	5364
2026-01-27 11:29:11.32	148.82	19.43	-41.6	-44.5	19.2	6.05e-01	0	60	0	233308160	53	5429
2026-01-27 11:29:12.33	148.77	19.58	-41.5	-44.6	18.1	6.06e-01	0	60	0	235405312	53	5474
2026-01-27 11:29:13.34	148.72	19.72	-41.7	-44.7	19.0	6.07e-01	0	60	0	236978176	53	5571
2026-01-27 11:29:14.35	148.67	19.87	-41.6	-44.8	17.9	6.08e-01	0	60	0	239075328	54	5303
2026-01-27 11:29:15.36	148.62	20.01	-41.8	-44.8	18.8	6.04e-01	0	60	0	241172480	54	5320
2026-01-27 11:29:16.37	148.57	20.16	-41.7	-44.8	16.4	6.10e-01	0	60	0	242745344	54	5338
2026-01-27 11:29:17.38	148.52	20.31	-41.8	-44.8	18.9	6.08e-01	0	60	0	244842496	54	5296
2026-01-27 11:29:18.40	148.47	20.46	-41.8	-44.8	18.6	6.06e-01	0	60	0	246415360	54	5297
2026-01-27 11:29:19.41	148.41	20.61	-41.8	-44.8	18.9	6.03e-01	0	60	0	248512512	54	5337
2026-01-27 11:29:20.41	148.36	20.76	-41.8	-44.9	18.6	6.06e-01	0	60	0	250609664	54	5362
2026-01-27 11:29:21.42	148.30	20.91	-41.9	-44.9	18.6	6.04e-01	0	60	0	252182528	54	5401
2026-01-27 11:29:22.43	148.25	21.06	-41.9	-44.9	18.8	6.07e-01	0	60	0	254279680	54	5398
2026-01-27 11:29:23.44	148.19	21.22	-41.8	-44.9	18.8	6.08e-01	0	61	0	256376832	54	5361
2026-01-27 11:29:24.45	148.14	21.37	-41.8	-44.9	18.9	6.05e-01	0	60	0	257949696	54	5361
2026-01-27 11:29:25.46	148.08	21.53	-41.7	-44.9	18.5	6.07e-01	0	60	0	260046848	54	5390
2026-01-27 11:29:26.47	148.02	21.69	-41.9	-45.0	17.3	6.07e-01	0	60	0	261619712	54	5414
2026-01-27 11:29:27.48	147.97	21.84	-41.9	-44.9	18.8	6.06e-01	0	61	0	263716864	54	5365
2026-01-27 11:29:28.49	147.91	22.00	-41.8	-44.9	18.8	6.08e-01	0	60	0	265814016	54	5349
2026-01-27 11:29:29.50	147.85	22.16	-41.9	-44.9	18.9	6.07e-01	0	60	0	267386880	54	5366
2026-01-27 11:29:30.50	147.79	22.32	-41.9	-44.9	18.9	6.07e-01	0	61	0	269484032	54	5378
2026-01-27 11:29:31.51	147.73	22.49	-41.9	-44.9	18.8	6.06e-01	0	60	0	271056896	54	5363
2026-01-27 11:29:32.52	147.67	22.65	-41.8	-44.9	18.8	6.08e-01	0	61	0	273154048	54	5349
2026-01-27 11:29:33.53	147.60	22.81	-41.9	-44.9	18.6	6.09e-01	0	60	0	275251200	54	5368
2026-01-27 11:29:34.54	147.54	22.98	-42.0	-45.0	18.5	6.05e-01	0	60	0	276824064	54	5463
2026-01-27 11:29:35.55	147.48	23.15	-42.0	-45.1	18.7	6.06e-01	0	60	0	278921216	54	5487
2026-01-27 11:29:36.56	147.41	23.31	-42.1	-45.2	17.6	6.06e-01	0	60	0	280494080	54	5584
2026-01-27 11:29:37.57	147.35	23.48	-42.2	-45.4	18.3	6.06e-01	0	60	0	282591232	54	5661
2026-01-27 11:29:38.59	147.28	23.66	-42.2	-45.4	18.3	6.05e-01	0	60	0	284688384	54	5679
2026-01-27 11:29:39.60	147.21	23.83	-42.1	-45.4	18.2	6.06e-01	0	60	0	286261248	54	5688
2026-01-27 11:29:40.61	147.15	24.00	-42.2	-45.4	18.3	6.06e-01	0	61	0	288358400	54	5698
2026-01-27 11:29:41.61	147.08	24.17	-42.1	-45.4	17.1	6.06e-01	0	60	0	289931264	55	5344
2026-01-27 11:29:42.62	147.01	24.35	-42.1	-45.2	18.3	6.09e-01	0	61	0	292028416	55	5273
2026-01-27 11:29:43.63	146.94	24.52	-42.1	-45.3	18.4	6.04e-01	0	61	0	294125568	55	5282
2026-01-27 11:29:44.64	146.87	24.70	-42.0	-45.0	18.6	6.05e-01	0	61	0	295698432	55	5159
2026-01-27 11:29:45.65	146.80	24.88	-41.9	-45.0	18.4	6.06e-01	0	61	0	297795584	55	5106
2026-01-27 11:29:46.66	146.72	25.06	-41.9	-44.9	18.8	6.05e-01	0	61	0	299892736	55	5088
2026-01-27 11:29:47.67	146.65	25.24	-41.9	-44.9	18.3	6.07e-01	0	61	0	301465600	55	5056
2026-01-27 11:29:48.68	146.58	25.42	-41.9	-44.9	18.9	6.06e-01	0	61	0	303562752	55	5076
2026-01-27 11:29:49.69	146.50	25.61	-41.9	-44.9	18.7	6.06e-01	0	61	0	305135616	55	5070
2026-01-27 11:29:50.70	146.42	25.79	-41.9	-45.0	18.8	6.06e-01	0	61	0	307232768	55	5127
2026-01-27 11:29:51.71	146.35	25.98	-42.0	-45.1	18.6	6.08e-01	0	61	0	309329920	55	5178
2026-01-27 11:29:52.72	146.27	26.17	-42.1	-45.2	18.5	6.07e-01	0	61	0	310902784	55	5257
2026-01-27 11:29:53.73	146.19	26.36	-42.0	-45.2	18.6	6.05e-01	0	61	0	312999936	55	5226
2026-01-27 11:29:54.74	146.11	26.55	-42.0	-45.1	18.6	6.05e-01	0	61	0	314572800	55	5204
2026-01-27 11:29:55.75	146.03	26.74	-42.0	-45.1	18.1	6.06e-01	0	61	0	316669952	55	5203
2026-01-27 11:29:56.76	145.94	26.93	-42.0	-45.2	18.5	6.06e-01	0	61	0	318767104	55	5252
2026-01-27 11:29:57.77	145.86	27.13	-41.9	-44.9	18.4	6.06e-01	0	61	0	320339968	55	5088
2026-01-27 11:29:58.78	145.78	27.33	-41.8	-44.8	19.0	6.07e-01	0	61	0	322437120	55	4988
2026-01-27 11:29:59.79	145.69	27.52	-41.8	-44.7	19.0	6.04e-01	0	61	0	324534272	55	4968
2026-01-27 11:30:00.80	145.60	27.72	-41.7	-44.6	19.3	6.08e-01	0	61	0	326107136	54	5170
2026-01-27 11:30:01.81	145.52	27.92	-41.5	-44.4	19.3	6.08e-01	0	61	0	328204288	54	5088
2026-01-27 11:30:02.82	145.43	28.13	-41.6	-44.5	19.4	6.04e-01	0	61	0	329777152	54	5112
2026-01-27 11:30:03.83	145.34	28.33	-41.6	-44.5	19.3	6.05e-01	0	61	0	331874304	54	5152
2026-01-27 11:30:04.84	145.24	28.54	-41.8	-44.8	19.0	6.08e-01	0	61	0	333971456	54	5294
2026-01-27 11:30:05.85	145.15	28.74	-41.8	-44.8	19.0	6.06e-01	0	61	0	335544320	54	5315
2026-01-27 11:30:06.86	145.06	28.95	-41.9	-44.9	19.0	6.08e-01	0	61	0	337641472	54	5363
2026-01-27 11:30:07.87	144.96	29.16	-41.9	-44.9	19.0	6.07e-01	0	61	0	339214336	54	5375
2026-01-27 11:30:08.88	144.86	29.37	-41.9	-44.9	19.0	6.04e-01	0	61	0	341311488	54	5364
2026-01-27 11:30:09.89	144.77	29.59	-41.7	-44.6	19.3	6.03e-01	0	61	0	343408640	54	5169
2026-01-27 11:30:10.90	144.67	29.80	-41.6	-44.4	19.5	6.07e-01	0	61	0	344981504	54	5050
2026-01-27 11:30:11.91	144.56	30.02	-41.6	-44.4	19.4	6.06e-01	0	61	0	347078656	54	5084
2026-01-27 11:30:12.92	144.46	30.24	-41.6	-44.4	19.4	6.02e-01	0	61	0	348651520	54	5096
2026-01-27 11:30:13.93	144.36	30.46	-41.7	-44.5	19.4	6.05e-01	0	61	0	350748672	54	5153
2026-01-27 11:30:14.94	144.25	30.68	-41.7	-44.5	19.4	6.08e-01	0	61	0	352845824	54	5146
2026-01-27 11:30:15.95	144.14	30.90	-41.7	-44.6	19.2	6.05e-01	0	61	0	354418688	54	5186
2026-01-27 11:30:16.96	144.04	31.13	-41.6	-44.4	19.4	6.08e-01	0	61	0	356515840	54	5078
2026-01-27 11:30:17.97	143.93	31.36	-41.4	-44.2	19.7	6.04e-01	0	61	0	358088704	54	4927
2026-01-27 11:30:18.98	143.81	31.58	-41.5	-44.2	19.8	6.06e-01	0	61	0	360185856	54	4939
2026-01-27 11:30:19.99	143.70	31.81	-41.6	-44.3	19.6	6.04e-01	0	61	0	362283008	54	5040
2026-01-27 11:30:21.00	143.58	32.05	-41.7	-44.5	19.5	6.08e-01	0	61	0	363855872	54	5113
2026-01-27 11:30:22.01	143.47	32.28	-41.7	-44.5	19.3	6.08e-01	0	61	0	365953024	54	5125
2026-01-27 11:30:23.02	143.35	32.52	-41.7	-44.6	19.3	6.04e-01	0	61	0	368050176	54	5174
2026-01-27 11:30:24.03	143.23	32.76	-41.7	-44.5	19.2	6.06e-01	0	61	0	369623040	54	5144
2026-01-27 11:30:25.04	143.10	33.00	-41.5	-44.3	19.4	6.07e-01	0	61	0	371720192	54	5026
2026-01-27 11:30:26.05	142.98	33.24	-41.5	-44.3	19.4	6.08e-01	0	61	0	373293056	54	5022
2026-01-27 11:30:27.06	142.85	33.48	-41.6	-44.4	19.3	6.06e-01	0	61	0	375390208	54	5097
2026-01-27 11:30:28.07	142.72	33.73	-41.8	-44.8	19.0	6.07e-01	0	61	0	377487360	54	5284
2026-01-27 11:30:29.08	142.59	33.97	-42.0	-45.1	18.8	6.05e-01	0	61	0	379060224	54	5472
2026-01-27 11:30:30.10	142.46	34.23	-42.1	-45.1	18.8	6.05e-01	0	61	0	381157376	54	5487
2026-01-27 11:30:31.11	142.33	34.48	-42.1	-45.3	18.4	6.06e-01	0	61	0	382730240	54	5594
2026-01-27 11:30:32.12	142.19	34.73	-42.1	-45.3	18.2	6.05e-01	0	61	0	384827392	54	5602
2026-01-27 11:30:33.13	142.05	34.99	-42.1	-45.2	18.3	6.08e-01	0	61	0	386924544	54	5579
2026-01-27 11:30:34.14	141.91	35.24	-42.1	-45.2	18.4	6.04e-01	0	61	0	388497408	54	5560
2026-01-27 11:30:35.15	141.76	35.50	-42.3	-45.4	18.5	6.05e-01	0	61	0	390594560	55	5377
2026-01-27 11:30:36.16	141.62	35.76	-42.7	-46.2	17.8	6.06e-01	0	61	0	392691712	55	5861
2026-01-27 11:30:37.17	141.47	36.03	-43.0	-46.5	17.4	6.08e-01	0	61	0	394264576	56	5781
2026-01-27 11:30:38.18	141.32	36.29	-42.8	-46.3	17.6	6.06e-01	0	61	0	396361728	56	5647
2026-01-27 11:30:39.19	141.16	36.56	-42.7	-46.1	17.9	6.04e-01	0	61	0	397934592	56	5519
2026-01-27 11:30:40.20	141.01	36.83	-42.8	-46.2	17.8	6.07e-01	0	61	0	400031744	56	5587
2026-01-27 11:30:41.21	140.85	37.10	-42.9	-46.4	17.6	6.04e-01	0	61	0	402128896	56	5709
2026-01-27 11:30:42.22	140.68	37.38	-43.0	-46.6	17.4	6.06e-01	0	61	0	403701760	56	5842
2026-01-27 11:30:43.23	140.52	37.65	-43.2	-46.9	17.2	6.06e-01	0	61	0	405798912	56	6005
2026-01-27 11:30:44.24	140.35	37.93	-43.2	-46.8	17.3	6.03e-01	0	61	0	407371776	56	5980
2026-01-27 11:30:45.25	140.18	38.21	-43.0	-46.6	17.5	6.03e-01	0	61	0	409468928	56	5799
2026-01-27 11:30:46.26	140.00	38.49	-43.0	-46.5	17.6	6.04e-01	0	61	0	411566080	56	5746
2026-01-27 11:30:47.27	139.83	38.78	-42.9	-46.4	17.7	6.04e-01	0	61	0	413138944	56	5704
2026-01-27 11:30:48.28	139.65	39.07	-43.0	-46.5	17.6	6.05e-01	0	61	0	415236096	56	5785
2026-01-27 11:30:49.29	139.46	39.36	-43.2	-46.9	17.1	6.03e-01	0	61	0	417333248	56	6059
2026-01-27 11:30:50.30	139.28	39.65	-43.2	-46.9	17.2	6.05e-01	0	61	0	418906112	57	5698
2026-01-27 11:30:51.31	139.08	39.94	-43.0	-46.5	17.6	6.07e-01	0	61	0	421003264	57	5457
2026-01-27 11:30:52.32	138.89	40.24	-42.9	-46.4	17.7	6.06e-01	0	61	0	422576128	57	5402
2026-01-27 11:30:53.33	138.69	40.53	-42.9	-46.3	17.9	6.06e-01	0	61	0	424673280	57	5305
2026-01-27 11:30:54.34	138.49	40.84	-42.8	-46.2	17.9	6.06e-01	0	61	0	426770432	57	5278
2026-01-27 11:30:55.34	138.29	41.13	-42.9	-46.3	17.9	6.05e-01	0	61	0	428343296	57	5308
2026-01-27 11:30:56.36	138.07	41.44	-42.9	-46.4	17.7	6.07e-01	0	61	0	430440448	57	5379
2026-01-27 11:30:57.37	137.86	41.75	-42.9	-46.3	17.9	6.06e-01	0	61	0	432013312	57	5309
2026-01-27 11:30:58.38	137.64	42.06	-42.9	-46.3	17.9	6.05e-01	0	61	0	434110464	57	5297
2026-01-27 11:30:59.39	137.42	42.37	-42.8	-46.2	17.9	6.06e-01	0	61	0	436207616	57	5261
2026-01-27 11:31:00.40	137.19	42.69	-42.7	-46.1	18.1	6.06e-01	0	61	0	437780480	57	5165
2026-01-27 11:31:01.41	136.96	43.00	-42.8	-46.1	18.1	6.07e-01	0	61	0	439877632	57	5201
2026-01-27 11:31:02.42	136.72	43.32	-42.9	-46.3	17.9	6.05e-01	0	61	0	441450496	57	5324
2026-01-27 11:31:03.43	136.48	43.64	-42.7	-46.0	18.1	6.09e-01	0	61	0	443547648	57	5149
2026-01-27 11:31:04.44	136.24	43.96	-42.2	-45.2	19.0	6.06e-01	0	61	0	445644800	56	4972
2026-01-27 11:31:05.45	135.98	44.29	-42.2	-45.2	19.0	6.04e-01	0	61	0	447217664	56	4938
2026-01-27 11:31:06.46	135.73	44.62	-42.6	-45.8	18.4	6.03e-01	0	61	0	449314816	56	5319
2026-01-27 11:31:07.47	135.46	44.95	-42.4	-45.5	18.7	6.07e-01	0	61	0	450887680	56	5117
2026-01-27 11:31:08.48	135.20	45.28	-42.2	-45.2	19.0	6.07e-01	0	62	0	452984832	56	4937
2026-01-27 11:31:09.49	134.92	45.61	-42.3	-45.3	18.9	6.04e-01	0	61	0	455081984	56	5027
2026-01-27 11:31:10.50	134.64	45.95	-42.5	-45.7	18.5	6.07e-01	0	61	0	456654848	56	5272
2026-01-27 11:31:11.51	134.36	46.29	-42.5	-45.7	18.5	6.05e-01	0	61	0	458752000	56	5232
2026-01-27 11:31:12.52	134.06	46.63	-42.5	-45.7	18.5	6.07e-01	0	61	0	460849152	56	5225
2026-01-27 11:31:13.53	133.76	46.97	-42.5	-45.6	18.6	6.06e-01	0	61	0	462422016	56	5197
2026-01-27 11:31:14.54	133.46	47.32	-42.4	-45.5	18.7	6.05e-01	0	61	0	464519168	56	5107
2026-01-27 11:31:15.55	133.14	47.66	-42.6	-45.8	18.4	6.08e-01	0	61	0	466092032	56	5329
2026-01-27 11:31:16.56	132.82	48.01	-42.3	-45.4	18.8	6.05e-01	0	61	0	468189184	56	5045
2026-01-27 11:31:17.57	132.50	48.36	-42.5	-45.7	18.5	6.06e-01	0	61	0	470286336	56	5252
2026-01-27 11:31:18.58	132.16	48.71	-42.5	-45.7	18.5	6.05e-01	0	61	0	471859200	56	5236
2026-01-27 11:31:19.59	131.82	49.07	-42.2	-45.2	19.0	6.05e-01	0	61	0	473956352	56	4957
2026-01-27 11:31:20.60	131.47	49.43	-42.4	-45.5	18.8	6.06e-01	0	61	0	475529216	56	5103
2026-01-27 11:31:21.61	131.11	49.78	-42.3	-45.4	18.8	6.08e-01	0	61	0	477626368	56	5055
2026-01-27 11:31:22.62	130.74	50.14	-42.2	-45.2	19.0	6.05e-01	0	61	0	479723520	56	4951
2026-01-27 11:31:23.62	130.36	50.50	-42.2	-45.2	19.0	6.03e-01	0	61	0	481296384	56	4931
2026-01-27 11:31:24.63	129.98	50.86	-42.0	-44.9	19.3	6.04e-01	0	62	0	483393536	56	4794
2026-01-27 11:31:25.65	129.58	51.23	-42.1	-45.0	19.2	6.05e-01	0	61	0	485490688	56	4843
2026-01-27 11:31:26.65	129.17	51.60	-42.0	-44.8	19.4	6.07e-01	0	61	0	487063552	56	4745
2026-01-27 11:31:27.67	128.75	51.97	-41.8	-44.5	19.6	6.07e-01	0	61	0	489160704	55	4867
2026-01-27 11:31:28.68	128.33	52.34	-41.8	-44.7	19.4	6.05e-01	0	62	0	490733568	55	4942
2026-01-27 11:31:29.69	127.89	52.71	-41.6	-44.4	19.7	6.09e-01	0	61	0	492830720	55	4777
2026-01-27 11:31:30.70	127.44	53.08	-41.9	-44.7	19.4	6.06e-01	0	62	0	494927872	55	4963
2026-01-27 11:31:31.71	126.98	53.45	-41.5	-44.2	19.9	6.07e-01	0	61	0	496500736	55	4677
2026-01-27 11:31:32.72	126.50	53.82	-41.7	-44.4	19.7	6.05e-01	0	62	0	498597888	55	4783
2026-01-27 11:31:33.73	126.02	54.20	-41.8	-44.6	19.5	6.08e-01	0	61	0	500170752	55	4874
2026-01-27 11:31:34.74	125.52	54.57	-41.7	-44.5	19.6	6.04e-01	0	61	0	502267904	55	4846
2026-01-27 11:31:35.75	125.00	54.95	-41.6	-44.3	19.8	6.06e-01	0	62	0	504365056	55	4745
2026-01-27 11:31:36.76	124.48	55.32	-41.9	-44.7	19.4	6.07e-01	0	61	0	505937920	55	4973
2026-01-27 11:31:37.77	123.94	55.70	-42.1	-45.0	19.1	6.05e-01	0	61	0	508035072	55	5141
2026-01-27 11:31:38.78	123.38	56.07	-41.9	-44.8	19.3	6.06e-01	0	61	0	510132224	55	4991
2026-01-27 11:31:39.79	122.81	56.45	-42.2	-45.2	18.9	6.06e-01	0	61	0	511705088	55	5255
2026-01-27 11:31:40.80	122.22	56.83	-42.2	-45.3	18.8	6.05e-01	0	61	0	513802240	55	5309
2026-01-27 11:31:41.81	121.62	57.20	-42.4	-45.6	18.5	6.05e-01	0	61	0	515375104	55	5465
2026-01-27 11:31:42.82	121.00	57.58	-42.1	-45.0	19.0	6.07e-01	0	61	0	517472256	55	5157
2026-01-27 11:31:43.83	120.36	57.95	-42.7	-46.0	18.1	6.07e-01	0	61	0	519569408	55	5758
2026-01-27 11:31:44.84	119.70	58.32	-42.8	-46.1	18.0	6.02e-01	0	61	0	521142272	56	5514
2026-01-27 11:31:45.85	119.03	58.69	-42.4	-45.5	18.6	6.07e-01	0	62	0	523239424	56	5141
2026-01-27 11:31:46.86	118.33	59.07	-42.7	-46.0	18.3	6.06e-01	0	61	0	524812288	56	5415
2026-01-27 11:31:47.87	117.62	59.43	-43.1	-46.7	17.5	6.05e-01	0	62	0	526909440	56	5857
2026-01-27 11:31:48.88	116.88	59.80	-42.6	-45.8	18.4	6.07e-01	0	62	0	529006592	56	5280
2026-01-27 11:31:49.90	116.12	60.17	-42.7	-46.1	18.1	6.06e-01	0	61	0	530579456	56	5482
2026-01-27 11:31:50.91	115.34	60.53	-43.0	-46.4	17.8	6.07e-01	0	62	0	532676608	56	5716
2026-01-27 11:31:51.91	114.55	60.89	-42.9	-46.3	17.9	6.05e-01	0	61	0	534249472	56	5595
2026-01-27 11:31:52.92	113.72	61.24	-43.0	-46.5	17.7	6.04e-01	0	62	0	536346624	56	5742
2026-01-27 11:31:53.94	112.87	61.60	-43.0	-46.5	17.7	6.04e-01	0	62	0	538443776	56	5725
2026-01-27 11:31:54.95	111.99	61.95	-43.3	-47.0	17.1	6.07e-01	0	62	0	540016640	57	5757
2026-01-27 11:31:55.96	111.10	62.30	-42.9	-46.4	17.8	6.07e-01	0	62	0	542113792	57	5375
2026-01-27 11:31:56.96	110.18	62.63	-43.1	-46.8	17.3	6.06e-01	0	62	0	543686656	57	5610
2026-01-27 11:31:57.97	109.23	62.97	-43.3	-47.1	17.1	6.06e-01	0	62	0	545783808	57	5805
2026-01-27 11:31:58.99	108.24	63.30	-43.5	-47.4	16.8	6.06e-01	0	62	0	547880960	57	6007
2026-01-27 11:31:59.99	107.25	63.63	-43.2	-46.8	17.4	6.07e-01	0	62	0	549453824	57	5640
2026-01-27 11:32:01.00	106.22	63.95	-43.7	-47.8	16.3	6.06e-01	0	61	0	551550976	58	5978
2026-01-27 11:32:02.01	105.15	64.26	-43.6	-47.7	16.4	6.05e-01	0	62	0	553648128	58	5900
2026-01-27 11:32:03.03	104.05	64.57	-43.6	-47.5	16.6	6.07e-01	0	61	0	555220992	58	5787
2026-01-27 11:32:04.03	102.94	64.87	-43.9	-48.2	16.0	6.08e-01	0	62	0	557318144	58	6225
2026-01-27 11:32:05.04	101.79	65.16	-43.7	-47.9	16.2	6.09e-01	0	62	0	558891008	58	6012
2026-01-27 11:32:06.05	100.61	65.44	-43.8	-48.2	15.9	6.06e-01	0	62	0	560988160	58	6203
2026-01-27 11:32:07.07	99.39	65.72	-44.0	-48.5	15.7	6.03e-01	0	62	0	563085312	58	6427
2026-01-27 11:32:08.08	98.14	65.99	-44.1	-48.8	15.3	6.06e-01	0	62	0	564658176	59	6296
2026-01-27 11:32:09.08	96.89	66.24	-44.2	-49.0	15.2	6.06e-01	0	62	0	566755328	59	6468
2026-01-27 11:32:10.09	95.58	66.48	-44.3	-49.2	14.8	6.04e-01	0	62	0	568852480	59	6608
2026-01-27 11:32:11.10	94.25	66.72	-44.2	-49.0	15.0	6.06e-01	0	62	0	570425344	59	6484
2026-01-27 11:32:12.11	92.89	66.94	-44.6	-49.9	14.2	6.06e-01	0	62	0	572522496	59	7183
2026-01-27 11:32:13.12	91.50	67.16	-44.1	-48.7	15.4	6.06e-01	0	61	0	574095360	59	6222
2026-01-27 11:32:14.13	90.08	67.36	-44.5	-49.7	14.4	6.09e-01	0	62	0	576192512	59	7004
2026-01-27 11:32:15.14	88.64	67.55	-44.0	-48.5	15.5	6.06e-01	0	62	0	578289664	59	6125
2026-01-27 11:32:16.15	87.17	67.72	-44.3	-49.2	14.9	6.06e-01	0	62	0	579862528	59	6617
2026-01-27 11:32:17.16	85.68	67.88	-44.3	-49.1	14.9	6.08e-01	0	61	0	581959680	59	6537
2026-01-27 11:32:18.17	84.16	68.03	-43.9	-48.3	15.8	6.08e-01	0	62	0	583532544	59	5987
2026-01-27 11:32:19.19	82.60	68.17	-44.4	-49.4	14.6	6.08e-01	0	62	0	585629696	59	6800
2026-01-27 11:32:20.19	81.06	68.29	-43.8	-48.1	15.9	6.05e-01	0	62	0	587726848	59	5843
2026-01-27 11:32:21.20	79.49	68.39	-44.3	-49.3	14.8	6.07e-01	0	62	0	589299712	59	6702
2026-01-27 11:32:22.21	77.89	68.48	-44.2	-49.1	14.9	6.05e-01	0	62	0	591396864	59	6514
2026-01-27 11:32:23.22	76.29	68.55	-44.0	-48.6	15.5	6.06e-01	0	62	0	592969728	59	6160
2026-01-27 11:32:24.23	74.67	68.61	-44.6	-50.0	14.0	6.06e-01	0	62	0	595066880	59	7212
2026-01-27 11:32:25.24	73.05	68.66	-44.3	-49.2	14.8	6.07e-01	0	62	0	597164032	59	6618
2026-01-27 11:32:26.26	71.41	68.68	-44.3	-49.3	14.8	6.07e-01	0	62	0	598736896	59	6648
2026-01-27 11:32:27.27	69.77	68.69	-44.7	-50.4	13.7	6.08e-01	0	62	0	600834048	59	7557
2026-01-27 11:32:28.28	68.14	68.69	-44.2	-48.9	15.2	6.07e-01	0	62	0	602406912	59	6361
2026-01-27 11:32:29.29	66.51	68.67	-44.4	-49.5	14.6	6.06e-01	0	62	0	604504064	59	6811
2026-01-27 11:32:30.30	64.89	68.63	-44.4	-49.5	14.6	6.09e-01	0	62	0	606601216	59	6859
2026-01-27 11:32:31.31	63.27	68.58	-44.2	-49.0	15.1	6.08e-01	0	62	0	608174080	59	6428
2026-01-27 11:32:32.32	61.66	68.51	-44.3	-49.1	15.0	6.06e-01	0	62	0	610271232	59	6570
2026-01-27 11:32:33.33	60.07	68.42	-44.5	-49.7	14.3	6.09e-01	0	62	0	611844096	59	7038
2026-01-27 11:32:34.34	58.49	68.32	-44.1	-48.8	15.3	6.05e-01	0	62	0	613941248	59	6328
2026-01-27 11:32:35.35	56.92	68.21	-44.6	-50.1	14.0	6.07e-01	0	62	0	616038400	59	7317
2026-01-27 11:32:36.36	55.38	68.08	-44.2	-49.4	14.2	6.09e-01	0	62	0	617611264	60	6416
2026-01-27 11:32:37.37	53.85	67.93	-44.0	-48.9	14.8	6.08e-01	0	62	0	619708416	60	6019
2026-01-27 11:32:38.38	52.35	67.78	-44.5	-50.1	13.6	6.07e-01	0	62	0	621805568	60	6939
2026-01-27 11:32:39.38	50.89	67.61	-44.5	-50.1	13.6	6.09e-01	0	62	0	623378432	60	6944
2026-01-27 11:32:40.39	49.44	67.42	-44.2	-49.3	14.4	6.06e-01	0	62	0	625475584	60	6343
2026-01-27 11:32:41.40	48.01	67.23	-44.5	-50.0	13.7	6.09e-01	0	62	0	627048448	60	6828
2026-01-27 11:32:42.41	46.62	67.02	-44.4	-49.8	13.9	6.08e-01	0	62	0	629145600	60	6707
2026-01-27 11:32:43.42	45.25	66.80	-44.5	-50.0	13.7	6.06e-01	0	62	0	631242752	60	6867
2026-01-27 11:32:44.43	43.91	66.57	-44.1	-49.0	14.8	6.07e-01	0	62	0	632815616	60	6096
2026-01-27 11:32:45.44	42.60	66.33	-44.2	-49.2	14.5	6.09e-01	0	62	0	634912768	60	6269
2026-01-27 11:32:46.45	41.31	66.07	-44.2	-49.4	14.4	6.08e-01	0	62	0	637009920	60	6350
2026-01-27 11:32:47.46	40.06	65.81	-44.2	-49.3	14.5	6.09e-01	0	62	0	638582784	60	6344
2026-01-27 11:32:48.47	38.84	65.54	-44.3	-49.1	15.0	6.09e-01	0	62	0	640679936	59	6545
2026-01-27 11:32:49.48	37.65	65.26	-44.5	-49.6	14.4	6.08e-01	0	62	0	642252800	59	6950
2026-01-27 11:32:50.49	36.50	64.97	-44.2	-48.8	15.3	6.09e-01	0	62	0	644349952	59	6321
2026-01-27 11:32:51.50	35.37	64.68	-44.6	-49.8	14.2	6.05e-01	0	62	0	646447104	59	7106
2026-01-27 11:32:52.51	34.27	64.37	-44.4	-49.4	14.8	6.07e-01	0	62	0	648019968	59	6767
2026-01-27 11:32:53.52	33.19	64.06	-44.1	-48.7	15.4	6.06e-01	0	62	0	650117120	59	6266
2026-01-27 11:32:54.53	32.15	63.74	-44.1	-48.7	15.4	6.07e-01	0	62	0	651689984	59	6270
2026-01-27 11:32:55.54	31.14	63.42	-43.9	-48.3	15.9	6.06e-01	0	62	0	653787136	59	5934
2026-01-27 11:32:56.55	30.15	63.09	-44.0	-48.5	15.7	6.06e-01	0	62	0	655884288	59	6101
2026-01-27 11:32:57.56	29.20	62.76	-43.7	-47.7	16.5	6.08e-01	0	62	0	657457152	59	5575
2026-01-27 11:32:58.57	28.26	62.42	-43.4	-47.3	16.9	6.04e-01	0	62	0	659554304	58	5630
2026-01-27 11:32:59.58	27.36	62.08	-43.7	-47.8	16.3	6.07e-01	0	62	0	661651456	58	5988
2026-01-27 11:33:00.59	26.48	61.73	-43.4	-47.2	17.0	6.05e-01	0	62	0	663224320	58	5583
2026-01-27 11:33:01.60	25.62	61.38	-43.2	-46.9	17.4	6.07e-01	0	62	0	665321472	58	5350
2026-01-27 11:33:02.61	24.79	61.02	-43.1	-46.7	17.6	6.06e-01	0	62	0	666894336	58	5229
2026-01-27 11:33:03.62	23.99	60.67	-43.5	-47.4	16.8	6.08e-01	0	62	0	668991488	58	5722
2026-01-27 11:33:04.63	23.20	60.31	-43.1	-46.7	17.6	6.06e-01	0	62	0	671088640	58	5225
2026-01-27 11:33:05.64	22.44	59.94	-42.7	-45.9	18.3	6.03e-01	0	62	0	672661504	57	5094
2026-01-27 11:33:06.65	21.70	59.58	-43.0	-46.5	17.6	6.06e-01	0	62	0	674758656	57	5464
2026-01-27 11:33:07.67	20.97	59.21	-42.9	-46.4	17.8	6.08e-01	0	62	0	676331520	57	5348
2026-01-27 11:33:08.67	20.28	58.84	-43.0	-46.5	17.7	6.08e-01	0	62	0	678428672	57	5431
2026-01-27 11:33:09.69	19.59	58.47	-42.6	-45.8	18.4	6.07e-01	0	62	0	680525824	57	5018
2026-01-27 11:33:10.69	18.93	58.10	-42.7	-45.9	18.3	6.04e-01	0	62	0	682098688	57	5067
2026-01-27 11:33:11.70	18.29	57.73	-42.9	-46.4	17.9	6.06e-01	0	62	0	684195840	57	5346
2026-01-27 11:33:12.71	17.67	57.35	-42.5	-45.6	18.5	6.06e-01	0	62	0	685768704	56	5182
2026-01-27 11:33:13.72	17.06	56.98	-42.4	-45.5	18.4	6.06e-01	0	62	0	687865856	56	5117
2026-01-27 11:33:14.74	16.46	56.60	-42.4	-45.5	18.6	6.05e-01	0	62	0	689963008	56	5153
2026-01-27 11:33:15.74	15.89	56.23	-41.7	-44.4	19.6	6.07e-01	0	62	0	691535872	55	4780
2026-01-27 11:33:16.76	15.32	55.85	-41.9	-44.8	19.3	6.04e-01	0	62	0	693633024	55	5016
2026-01-27 11:33:17.77	14.78	55.48	-41.6	-44.3	19.8	6.07e-01	0	62	0	695205888	55	4734
2026-01-27 11:33:18.78	14.25	55.10	-41.5	-44.2	19.8	6.06e-01	0	62	0	697303040	54	4966
2026-01-27 11:33:19.79	13.73	54.73	-41.5	-44.3	19.8	6.06e-01	0	62	0	699400192	54	4992
2026-01-27 11:33:20.80	13.23	54.36	-41.2	-43.9	20.0	6.06e-01	0	62	0	700973056	54	4761
2026-01-27 11:33:21.81	12.74	53.98	-40.7	-43.3	20.5	6.06e-01	0	62	0	703070208	53	4719
2026-01-27 11:33:22.82	12.26	53.61	-41.1	-43.6	20.3	6.07e-01	0	62	0	705167360	53	4910
2026-01-27 11:33:23.83	11.80	53.24	-41.2	-43.8	19.8	6.03e-01	0	62	0	706740224	53	5015
2026-01-27 11:33:24.84	11.34	52.87	-41.3	-43.9	19.9	6.06e-01	0	62	0	708837376	53	5098
2026-01-27 11:33:25.85	10.90	52.50	-41.2	-43.8	20.2	6.04e-01	0	62	0	710410240	53	5019
2026-01-27 11:33:26.86	10.47	52.13	-41.3	-43.9	20.1	6.04e-01	0	62	0	712507392	53	5062
2026-01-27 11:33:27.87	10.05	51.77	-41.3	-43.9	20.0	6.07e-01	0	62	0	714604544	53	5070
2026-01-27 11:33:28.88	9.64	51.40	-41.5	-44.2	19.7	6.06e-01	0	62	0	716177408	53	5262
2026-01-27 11:33:29.89	9.24	51.04	-41.4	-44.1	19.9	6.04e-01	0	62	0	718274560	53	5193
2026-01-27 11:33:30.90	8.85	50.68	-41.9	-45.0	19.0	6.04e-01	0	62	0	719847424	54	5419
2026-01-27 11:33:31.91	8.47	50.31	-42.0	-54.6	3.8	7.46e-01	0	62	104	720371712	54	16331
2026-01-27 11:33:32.92	8.10	49.96	-42.0	-54.4	3.8	7.43e-01	0	62	104	720371712	54	16097
2026-01-27 11:33:33.93	7.74	49.60	-44.6	-59.2	3.8	7.41e-01	0	62	104	720371712	60	19828
2026-01-27 11:33:34.93	7.39	49.25	-45.8	-62.9	3.8	7.47e-01	0	62	104	720371712	62	26766
2026-01-27 11:33:35.95	7.04	48.89	-44.5	-58.8	3.8	7.48e-01	0	62	104	720371712	59	19924
2026-01-27 11:33:36.95	6.71	48.54	-44.6	-59.4	3.8	7.47e-01	0	62	104	720371712	59	21381
2026-01-27 11:33:37.96	6.38	48.19	-45.2	-61.1	3.7	7.46e-01	0	62	104	720371712	61	23050
2026-01-27 11:33:38.97	6.06	47.84	-42.7	-55.5	3.8	7.43e-01	0	62	104	720371712	57	15307
2026-01-27 11:33:39.98	5.74	47.50	-42.4	-54.7	3.9	7.47e-01	0	62	104	720371712	56	14837
2026-01-27 11:33:41.00	5.43	47.15	-42.4	-55.0	3.8	7.44e-01	0	62	104	720371712	56	15310
2026-01-27 11:33:42.01	5.13	46.81	-43.5	-56.9	3.9	7.44e-01	0	62	104	720371712	57	18058
2026-01-27 11:33:43.02	4.84	46.47	-44.5	-58.8	3.8	7.46e-01	0	62	104	720371712	59	19950
2026-01-27 11:33:44.02	4.55	46.13	-45.7	-62.4	3.8	7.45e-01	0	62	104	720371712	61	26808
2026-01-27 11:33:45.04	4.27	45.79	-44.5	-59.3	3.9	7.40e-01	0	62	104	720371712	60	20035
2026-01-27 11:33:46.04	3.99	45.46	-46.0	-63.8	3.8	7.49e-01	0	62	104	720371712	62	29752
2026-01-27 11:33:47.05	3.72	45.13	-42.9	-55.7	3.7	7.47e-01	0	62	104	720371712	57	15685
2026-01-27 11:33:48.06	3.46	44.80	-42.9	-55.4	3.8	7.42e-01	0	62	104	720371712	57	15072
2026-01-27 11:33:49.07	3.20	44.47	-42.8	-55.3	3.8	7.45e-01	0	62	104	720371712	57	14953
2026-01-27 11:33:50.08	2.95	44.15	-43.4	-56.7	3.8	7.44e-01	0	62	104	720371712	57	17653
2026-01-27 11:33:51.09	2.70	43.83	-45.2	-61.7	3.8	7.41e-01	0	62	104	720371712	61	24718
2026-01-27 11:33:52.10	2.46	43.51	-44.4	-59.2	3.9	7.45e-01	0	62	104	720371712	60	19749
2026-01-27 11:33:53.11	2.22	43.19	-44.3	-58.9	3.8	7.41e-01	0	62	104	720371712	60	19127
2026-01-27 11:33:54.12	1.99	42.87	-45.6	-62.3	3.8	7.46e-01	0	62	104	720371712	62	25163
2026-01-27 11:33:55.13	1.76	42.56	-43.2	-56.1	3.8	7.41e-01	0	62	104	720371712	58	15542
2026-01-27 11:33:56.14	1.54	42.25	-42.9	-55.9	3.8	7.47e-01	0	62	104	720371712	57	15956
2026-01-27 11:33:57.15	1.32	41.94	-43.1	-55.9	3.8	7.43e-01	0	62	104	720371712	57	16102
2026-01-27 11:33:58.16	1.10	41.63	-44.0	-58.0	3.8	7.43e-01	0	62	104	720371712	58	19357
2026-01-27 11:33:59.17	0.89	41.33	-44.5	-59.3	3.8	7.43e-01	0	62	104	720371712	60	20007
2026-01-27 11:34:00.18	0.68	41.03	-45.6	-61.9	3.9	7.46e-01	0	62	104	720371712	62	24109
2026-01-27 11:34:01.19	0.48	40.73	-44.5	-59.6	3.8	7.46e-01	0	62	104	720371712	60	20598
2026-01-27 11:34:02.20	0.28	40.43	-46.0	-63.9	3.9	7.46e-01	0	62	104	720371712	62	30243
2026-01-27 11:34:03.21	0.09	40.13	-43.8	-57.6	3.8	7.45e-01	0	62	104	720371712	59	17376
2026-01-27 11:34:04.22	359.89	39.84	-43.6	-57.0	3.8	7.46e-01	0	62	104	720371712	59	16129
2026-01-27 11:34:05.23	359.71	39.55	-43.4	-56.3	3.8	7.45e-01	0	62	104	720371712	58	15838
2026-01-27 11:34:06.24	359.52	39.26	-43.7	-57.1	3.8	7.44e-01	0	62	104	720371712	58	17311
2026-01-27 11:34:07.25	359.34	38.97	-44.9	-60.1	3.9	7.47e-01	0	62	104	720371712	61	20747
2026-01-27 11:34:08.26	359.16	38.69	-44.7	-60.1	3.8	7.43e-01	0	62	104	720371712	60	21797
2026-01-27 11:34:09.27	358.99	38.41	-44.3	-59.0	3.8	7.42e-01	0	62	104	720371712	60	19326
2026-01-27 11:34:10.28	358.82	38.12	-45.6	-62.2	3.8	7.43e-01	0	62	104	720371712	62	24871
2026-01-27 11:34:11.29	358.65	37.85	-43.8	-57.3	3.8	7.47e-01	0	62	104	720371712	58	17786
2026-01-27 11:34:12.30	358.48	37.57	-43.4	-57.1	3.8	7.45e-01	0	62	104	720371712	58	17340
2026-01-27 11:34:13.31	358.32	37.30	-43.4	-56.9	3.8	7.43e-01	0	62	104	720371712	58	17024
2026-01-27 11:34:14.32	358.16	37.03	-44.1	-58.4	3.8	7.46e-01	0	62	104	720371712	59	19050
2026-01-27 11:34:15.33	358.00	36.76	-43.9	-57.8	3.9	7.41e-01	0	62	104	720371712	59	17728
2026-01-27 11:34:16.34	357.85	36.49	-44.7	-59.3	3.9	7.42e-01	0	62	104	720371712	61	18946
2026-01-27 11:34:17.35	357.70	36.22	-43.8	-57.4	3.8	7.41e-01	0	62	104	720371712	59	17068
2026-01-27 11:34:18.36	357.55	35.96	-45.3	-61.7	3.8	7.44e-01	0	62	104	720371712	62	23443
2026-01-27 11:34:19.37	357.40	35.70	-43.0	-56.0	3.8	7.44e-01	0	62	104	720371712	57	16128
2026-01-27 11:34:20.38	357.25	35.44	-42.8	-55.6	3.8	7.43e-01	0	62	104	720371712	57	15422
2026-01-27 11:34:21.39	357.11	35.18	-42.6	-55.3	3.8	7.44e-01	0	62	104	720371712	57	14952
2026-01-27 11:34:22.40	356.97	34.93	-43.6	-57.2	3.8	7.43e-01	0	62	104	720371712	58	17615
2026-01-27 11:34:23.41	356.84	34.67	-42.8	-55.7	3.9	7.43e-01	0	62	104	720371712	57	15753
2026-01-27 11:34:24.42	356.70	34.42	-44.1	-58.5	3.8	7.41e-01	0	62	104	720371712	59	19229
2026-01-27 11:34:25.43	356.57	34.17	-42.8	-56.0	3.8	7.43e-01	0	62	104	720371712	57	16278
2026-01-27 11:34:26.44	356.44	33.93	-44.5	-59.4	3.9	7.44e-01	0	62	104	720371712	61	19081
2026-01-27 11:34:27.45	356.31	33.68	-42.7	-55.7	3.8	7.43e-01	0	62	104	720371712	57	15737
2026-01-27 11:34:28.46	356.18	33.44	-42.4	-55.3	3.9	7.44e-01	0	62	104	720371712	56	15765
2026-01-27 11:34:29.47	356.06	33.20	-42.3	-55.1	3.8	7.46e-01	0	62	104	720371712	56	15575
2026-01-27 11:34:30.48	355.93	32.96	-43.3	-56.8	3.8	7.43e-01	0	62	104	720371712	57	17746
2026-01-27 11:34:31.49	355.81	32.72	-41.8	-54.1	3.8	7.44e-01	0	62	104	720371712	55	14618
2026-01-27 11:34:32.50	355.69	32.48	-43.6	-57.1	3.9	7.48e-01	0	62	104	720371712	59	16494
2026-01-27 11:34:33.51	355.58	32.25	-41.8	-54.2	3.9	7.45e-01	0	62	104	720371712	55	14723
2026-01-27 11:34:34.52	355.46	32.02	-43.9	-58.0	3.9	7.38e-01	0	62	104	720371712	60	17207
2026-01-27 11:34:35.53	355.35	31.79	-42.2	-54.7	3.8	7.45e-01	0	62	104	720371712	56	14732
2026-01-27 11:34:36.54	355.23	31.56	-41.9	-54.2	3.8	7.47e-01	0	62	104	720371712	55	14779
2026-01-27 11:34:37.55	355.12	31.33	-42.0	-54.7	3.8	7.44e-01	0	62	104	720371712	55	15621
2026-01-27 11:34:38.56	355.01	31.11	-43.2	-56.4	3.8	7.44e-01	0	62	104	720371712	56	17965
2026-01-27 11:34:39.57	354.91	30.88	-41.6	-54.0	3.8	7.44e-01	0	62	104	720371712	55	14481
2026-01-27 11:34:40.58	354.80	30.66	-43.6	-57.5	3.8	7.44e-01	0	62	104	720371712	59	17132
2026-01-27 11:34:41.59	354.70	30.44	-42.2	-55.0	3.8	7.47e-01	0	62	104	720371712	56	15277
2026-01-27 11:34:42.60	354.60	30.22	-43.4	-57.1	3.9	7.40e-01	0	62	104	720371712	59	16336
2026-01-27 11:34:43.61	354.49	30.01	-42.4	-55.2	3.8	7.42e-01	0	62	104	720371712	56	15676
2026-01-27 11:34:44.62	354.39	29.79	-42.1	-54.9	3.8	7.44e-01	0	62	104	720371712	56	15111
2026-01-27 11:34:45.63	354.30	29.58	-42.1	-55.0	3.8	7.47e-01	0	62	104	720371712	55	16130
2026-01-27 11:34:46.64	354.20	29.37	-43.5	-57.3	3.9	7.49e-01	0	62	104	720371712	57	18904
2026-01-27 11:34:47.65	354.10	29.16	-42.1	-54.6	3.8	7.48e-01	0	62	104	720371712	55	15488
2026-01-27 11:34:48.65	354.01	28.95	-43.7	-57.6	3.8	7.46e-01	0	62	104	720371712	58	18315
2026-01-27 11:34:49.67	353.92	28.74	-42.4	-55.0	3.8	7.45e-01	0	62	104	720371712	55	16306
2026-01-27 11:34:50.67	353.83	28.54	-43.2	-56.5	3.9	7.46e-01	0	62	104	720371712	58	16299
2026-01-27 11:34:51.69	353.73	28.33	-42.5	-55.4	3.8	7.44e-01	0	62	104	720371712	56	16104
2026-01-27 11:34:52.70	353.64	28.13	-42.3	-55.1	3.8	7.41e-01	0	62	104	720371712	56	15495
2026-01-27 11:34:53.71	353.56	27.93	-42.5	-55.5	3.8	7.44e-01	0	62	104	720371712	56	16130
2026-01-27 11:34:54.72	353.47	27.73	-43.8	-57.5	3.8	7.47e-01	0	62	104	720371712	58	18292
2026-01-27 11:34:55.73	353.38	27.53	-43.1	-56.0	3.8	7.47e-01	0	62	104	720371712	56	17265
2026-01-27 11:34:56.74	353.30	27.34	-44.0	-58.0	3.8	7.47e-01	0	62	104	720371712	59	18281
2026-01-27 11:34:57.75	353.22	27.14	-43.7	-57.0	3.8	7.47e-01	0	62	104	720371712	57	18105
2026-01-27 11:34:58.76	353.13	26.95	-43.0	-55.9	3.9	7.44e-01	0	62	104	720371712	58	15101
2026-01-27 11:34:59.77	353.05	26.76	-42.6	-55.3	3.8	7.46e-01	0	62	104	720371712	57	15006
2026-01-27 11:35:00.74	352.98	26.57	-42.5	-55.4	3.8	7.45e-01	0	62	104	720371712	56	15973
2026-01-27 11:35:01.76	352.90	26.38	-42.6	-55.7	3.8	7.43e-01	0	62	104	720371712	56	16661
2026-01-27 11:35:02.76	352.82	26.20	-43.9	-58.3	3.9	7.43e-01	0	62	104	720371712	58	19846
2026-01-27 11:35:03.77	352.74	26.01	-43.0	-56.1	3.8	7.44e-01	0	62	104	720371712	56	17370
2026-01-27 11:35:04.78	352.66	25.82	-44.1	-58.7	3.8	7.46e-01	0	62	104	720371712	59	19810
2026-01-27 11:35:05.79	352.59	25.64	-44.3	-58.7	3.8	7.46e-01	0	62	104	720371712	59	19818
2026-01-27 11:35:06.81	352.51	25.46	-42.9	-55.8	3.9	7.45e-01	0	62	104	720371712	57	15903
2026-01-27 11:35:07.81	352.44	25.28	-42.6	-55.4	3.8	7.44e-01	0	62	104	720371712	57	15189
2026-01-27 11:35:08.82	352.37	25.10	-42.4	-55.1	3.8	7.47e-01	0	62	104	720371712	56	15531
2026-01-27 11:35:09.83	352.30	24.92	-42.9	-56.2	3.8	7.48e-01	0	62	104	720371712	56	17603
2026-01-27 11:35:10.84	352.23	24.74	-44.3	-58.9	3.8	7.45e-01	0	62	104	720371712	59	20187
2026-01-27 11:35:11.85	352.16	24.56	-44.0	-58.5	3.7	7.44e-01	0	62	104	720371712	58	20427
2026-01-27 11:35:12.86	352.09	24.39	-44.0	-58.9	3.8	7.45e-01	0	62	104	720371712	59	20113
2026-01-27 11:35:13.87	352.02	24.21	-44.6	-59.5	3.8	7.46e-01	0	62	104	720371712	59	21703
2026-01-27 11:35:14.88	351.95	24.04	-42.9	-56.1	3.9	7.44e-01	0	62	104	720371712	57	16325
2026-01-27 11:35:15.89	351.89	23.87	-42.6	-55.7	3.8	7.44e-01	0	62	104	720371712	57	15716
2026-01-27 11:35:16.90	351.82	23.70	-42.5	-55.6	3.8	7.47e-01	0	62	104	720371712	57	15425
2026-01-27 11:35:17.91	351.76	23.53	-43.0	-56.9	3.8	7.45e-01	0	62	104	720371712	56	18975
2026-01-27 11:35:18.92	351.69	23.36	-44.1	-59.0	3.8	7.46e-01	0	62	104	720371712	58	21745
2026-01-27 11:35:19.93	351.63	23.20	-44.1	-58.5	3.8	7.41e-01	0	62	104	720371712	58	20383
2026-01-27 11:35:20.94	351.57	23.03	-43.3	-58.5	3.8	7.44e-01	0	62	104	720371712	57	21556
2026-01-27 11:35:21.95	351.50	22.87	-45.0	-61.5	3.8	7.52e-01	0	62	104	720371712	60	25703
2026-01-27 11:35:22.96	351.44	22.70	-42.7	-56.0	3.8	7.44e-01	0	62	104	720371712	57	16288
2026-01-27 11:35:23.97	351.38	22.54	-42.1	-55.2	3.8	7.45e-01	0	62	104	720371712	56	15747
2026-01-27 11:35:24.98	351.32	22.38	-41.5	-54.5	3.8	7.44e-01	0	62	104	720371712	55	15350
2026-01-27 11:35:25.99	351.26	22.22	-42.0	-56.3	3.8	7.41e-01	0	62	104	720371712	54	19942
2026-01-27 11:35:27.00	351.20	22.06	-43.6	-58.9	3.8	7.47e-01	0	62	104	720371712	57	22532
2026-01-27 11:35:28.01	351.15	21.90	-43.0	-58.3	3.8	7.44e-01	0	62	104	720371712	56	22380
2026-01-27 11:35:29.02	351.09	21.75	-41.9	-57.4	3.8	7.47e-01	0	62	104	720371712	55	21491
2026-01-27 11:35:30.03	351.03	21.59	-44.6	-61.7	3.8	7.47e-01	0	62	104	720371712	59	27853
2026-01-27 11:35:31.04	350.98	21.43	-42.3	-56.4	3.8	7.45e-01	0	62	104	720371712	56	17913
2026-01-27 11:35:32.05	350.92	21.28	-42.5	-57.0	3.8	7.45e-01	0	62	104	720371712	56	19277
2026-01-27 11:35:33.06	350.87	21.13	-42.7	-57.9	3.8	7.48e-01	0	62	104	720371712	56	21291
2026-01-27 11:35:34.07	350.81	20.98	-42.6	-59.4	3.8	7.44e-01	0	62	104	720371712	56	25379
2026-01-27 11:35:35.08	350.76	20.82	-44.0	-61.2	3.8	7.43e-01	0	62	104	720371712	58	27912
2026-01-27 11:35:36.09	350.71	20.67	-42.2	-61.0	3.8	7.44e-01	0	62	104	720371712	56	30680
2026-01-27 11:35:37.10	350.65	20.52	-43.2	-61.3	3.9	7.42e-01	0	62	104	720371712	57	29953
2026-01-27 11:35:38.11	350.60	20.38	-42.3	-61.1	3.8	7.46e-01	0	62	104	720371712	56	30906
2026-01-27 11:35:39.12	350.55	20.23	-42.4	-61.0	3.8	7.45e-01	0	62	104	720371712	56	30615
2026-01-27 11:35:40.13	350.50	20.08	-42.3	-61.1	3.8	7.43e-01	0	62	104	720371712	56	30850
2026-01-27 11:35:41.14	350.45	19.94	-42.3	-61.1	3.8	7.45e-01	0	62	104	720371712	56	30926
2026-01-27 11:35:42.15	350.40	19.79	-42.2	-61.2	3.8	7.47e-01	0	62	104	720371712	56	31199
2026-01-27 11:35:43.16	350.35	19.65	-42.6	-61.3	3.8	7.42e-01	0	62	104	720371712	56	31735
2026-01-27 11:35:44.17	350.30	19.51	-42.0	-60.9	3.8	7.48e-01	0	62	104	720371712	56	30216
2026-01-27 11:35:45.18	350.26	19.36	-42.1	-61.1	3.8	7.47e-01	0	62	104	720371712	56	31010
2026-01-27 11:35:46.19	350.21	19.22	-42.0	-61.0	3.8	7.49e-01	0	62	104	720371712	56	30380
2026-01-27 11:35:47.20	350.16	19.08	-41.9	-60.8	3.8	7.44e-01	0	62	104	720371712	55	31781
2026-01-27 11:35:48.21	350.12	18.94	-42.1	-61.0	3.8	7.46e-01	0	62	104	720371712	55	32396
2026-01-27 11:35:49.22	350.07	18.81	-42.0	-61.0	3.8	7.44e-01	0	62	104	720371712	55	32185
2026-01-27 11:35:50.23	350.02	18.67	-41.8	-60.8	3.8	7.45e-01	0	62	104	720371712	55	31518
2026-01-27 11:35:51.24	349.98	18.53	-42.0	-60.9	3.8	7.45e-01	0	62	104	720371712	55	31983
2026-01-27 11:35:52.25	349.93	18.40	-42.0	-61.0	3.8	7.45e-01	0	62	104	720371712	55	32312
2026-01-27 11:35:53.26	349.89	18.26	-41.9	-60.9	3.8	7.44e-01	0	62	104	720371712	55	31995
2026-01-27 11:35:54.27	349.85	18.13	-42.1	-61.0	3.8	7.44e-01	0	62	104	720371712	55	32289
2026-01-27 11:35:55.28	349.80	17.99	-42.1	-61.0	3.8	7.47e-01	0	62	104	720371712	55	32239
2026-01-27 11:35:56.29	349.76	17.86	-41.9	-60.9	3.8	7.47e-01	0	62	104	720371712	55	31841
2026-01-27 11:35:57.30	349.72	17.73	-42.0	-60.9	3.8	7.43e-01	0	62	104	720371712	55	32024
2026-01-27 11:35:58.31	349.68	17.60	-42.2	-61.1	3.8	7.42e-01	0	62	104	720371712	55	32699
2026-01-27 11:35:59.32	349.63	17.47	-42.2	-61.1	3.8	7.45e-01	0	62	104	720371712	55	32674
2026-01-27 11:36:00.33	349.59	17.34	-41.9	-60.8	3.8	7.44e-01	0	62	104	720371712	55	31740
2026-01-27 11:36:01.34	349.55	17.21	-42.2	-61.1	3.8	7.46e-01	0	62	104	720371712	55	32600
2026-01-27 11:36:02.36	349.51	17.08	-42.0	-60.9	3.8	7.45e-01	0	62	104	720371712	55	31914
2026-01-27 11:36:03.37	349.47	16.95	-42.3	-61.1	3.8	7.47e-01	0	62	104	720371712	55	32847
2026-01-27 11:36:04.38	349.43	16.82	-42.0	-60.9	3.8	7.47e-01	0	62	104	720371712	55	31961
2026-01-27 11:36:05.39	349.39	16.70	-42.4	-61.2	3.8	7.43e-01	0	62	104	720371712	55	33302
2026-01-27 11:36:06.40	349.36	16.57	-41.9	-60.8	3.8	7.46e-01	0	62	104	720371712	55	31544
2026-01-27 11:36:07.41	349.32	16.45	-41.9	-60.8	3.8	7.46e-01	0	62	104	720371712	55	31553
2026-01-27 11:36:08.42	349.28	16.32	-41.9	-60.8	3.8	7.45e-01	0	62	104	720371712	55	31708
2026-01-27 11:36:09.43	349.24	16.20	-41.9	-60.9	3.8	7.44e-01	0	62	104	720371712	55	31838
2026-01-27 11:36:10.44	349.20	16.08	-42.0	-60.9	3.8	7.46e-01	0	62	104	720371712	55	31917
2026-01-27 11:36:11.45	349.17	15.95	-42.2	-61.1	3.8	7.45e-01	0	62	104	720371712	55	32605
2026-01-27 11:36:12.46	349.13	15.83	-42.6	-61.5	3.8	7.45e-01	0	62	104	720371712	56	32426
2026-01-27 11:36:13.47	349.09	15.71	-42.3	-61.2	3.8	7.46e-01	0	62	104	720371712	56	31346
2026-01-27 11:36:14.48	349.06	15.59	-42.1	-61.0	3.8	7.46e-01	0	62	104	720371712	56	30526
2026-01-27 11:36:15.49	349.02	15.47	-42.3	-61.2	3.8	7.44e-01	0	62	104	720371712	56	31207
2026-01-27 11:36:16.50	348.99	15.35	-42.3	-61.2	3.8	7.45e-01	0	62	104	720371712	56	31225
2026-01-27 11:36:17.51	348.95	15.24	-42.4	-61.2	3.8	7.48e-01	0	62	104	720371712	56	31443
2026-01-27 11:36:18.52	348.92	15.12	-42.3	-61.2	3.8	7.45e-01	0	62	104	720371712	56	31217
2026-01-27 11:36:19.53	348.88	15.00	-42.6	-61.4	3.8	7.48e-01	0	62	104	720371712	56	32076
2026-01-27 11:36:20.54	348.85	14.88	-42.6	-61.4	3.8	7.47e-01	0	62	104	720371712	56	31989
2026-01-27 11:36:21.55	348.82	14.77	-42.6	-61.4	3.8	7.44e-01	0	62	104	720371712	56	31930
2026-01-27 11:36:22.56	348.78	14.65	-42.7	-61.3	3.8	7.45e-01	0	62	104	720371712	56	31738
2026-01-27 11:36:23.57	348.75	14.54	-42.5	-61.4	3.8	7.46e-01	0	62	104	720371712	56	31852
2026-01-27 11:36:24.58	348.72	14.43	-42.4	-61.3	3.8	7.46e-01	0	62	104	720371712	56	31563
2026-01-27 11:36:25.60	348.68	14.31	-42.5	-61.3	3.8	7.47e-01	0	62	104	720371712	56	31605
2026-01-27 11:36:26.61	348.65	14.20	-42.6	-61.3	3.8	7.45e-01	0	62	104	720371712	56	31615
2026-01-27 11:36:27.61	348.62	14.09	-42.4	-61.3	3.8	7.44e-01	0	62	104	720371712	56	31566
2026-01-27 11:36:28.63	348.59	13.97	-42.4	-61.3	3.8	7.45e-01	0	62	104	720371712	56	31684
2026-01-27 11:36:29.63	348.56	13.86	-42.5	-61.2	3.8	7.44e-01	0	62	104	720371712	56	31396
2026-01-27 11:36:30.64	348.53	13.75	-42.6	-61.3	3.8	7.48e-01	0	62	104	720371712	56	31676
2026-01-27 11:36:31.65	348.50	13.64	-42.4	-61.2	3.8	7.46e-01	0	62	104	720371712	56	31330
2026-01-27 11:36:32.67	348.47	13.53	-42.4	-61.2	3.8	7.42e-01	0	62	104	720371712	56	31418
2026-01-27 11:36:33.67	348.44	13.42	-42.4	-61.3	3.8	7.48e-01	0	62	104	720371712	56	31551
2026-01-27 11:36:34.68	348.41	13.32	-42.5	-61.3	3.8	7.47e-01	0	62	104	720371712	56	31694
2026-01-27 11:36:35.70	348.38	13.21	-42.4	-61.2	3.8	7.43e-01	0	62	104	720371712	56	31122
2026-01-27 11:36:36.70	348.35	13.10	-42.3	-61.1	3.8	7.45e-01	0	62	104	720371712	56	30967
2026-01-27 11:36:37.71	348.32	12.99	-42.4	-61.3	3.8	7.44e-01	0	62	104	720371712	56	31464
2026-01-27 11:36:38.73	348.29	12.89	-42.2	-61.2	3.8	7.47e-01	0	62	104	720371712	54	35153
2026-01-27 11:36:39.74	348.26	12.78	-41.4	-60.8	3.8	7.47e-01	0	62	104	720371712	54	33578
2026-01-27 11:36:40.74	348.23	12.68	-42.0	-61.0	3.8	7.44e-01	0	62	104	720371712	54	34180
2026-01-27 11:36:41.75	348.21	12.57	-42.2	-61.2	3.8	7.47e-01	0	62	104	720371712	54	35022
2026-01-27 11:36:42.76	348.18	12.47	-42.2	-61.2	3.8	7.45e-01	0	62	104	720371712	55	33073
2026-01-27 11:36:43.78	348.15	12.36	-42.0	-60.9	3.8	7.46e-01	0	62	104	720371712	55	32061
2026-01-27 11:36:44.79	348.12	12.26	-41.7	-61.0	3.8	7.49e-01	0	62	104	720371712	54	34164
2026-01-27 11:36:45.80	348.09	12.16	-41.4	-61.1	3.8	7.41e-01	0	62	104	720371712	54	34839
2026-01-27 11:36:46.81	348.07	12.05	-42.0	-61.1	3.8	7.41e-01	0	62	104	720371712	54	34663
2026-01-27 11:36:47.81	348.04	11.95	-41.5	-60.9	3.8	7.46e-01	0	62	104	720371712	54	33869
2026-01-27 11:36:48.83	348.02	11.85	-42.0	-61.0	3.8	7.44e-01	0	62	104	720371712	54	34148
2026-01-27 11:36:49.84	347.99	11.75	-42.0	-61.1	3.8	7.46e-01	0	62	104	720371712	54	34566
2026-01-27 11:36:50.85	347.96	11.65	-42.2	-61.0	3.8	7.44e-01	0	62	104	720371712	55	32491
2026-01-27 11:36:51.86	347.94	11.55	-42.1	-60.9	3.8	7.47e-01	0	62	104	720371712	55	31996
2026-01-27 11:36:52.86	347.91	11.45	-42.1	-60.9	3.8	7.45e-01	0	62	104	720371712	55	32162
2026-01-27 11:36:53.87	347.89	11.35	-42.1	-61.0	3.8	7.46e-01	0	62	104	720371712	55	32326
2026-01-27 11:36:54.88	347.86	11.25	-42.1	-61.0	3.8	7.41e-01	0	62	104	720371712	55	32424
2026-01-27 11:36:55.90	347.84	11.15	-41.5	-60.9	3.8	7.43e-01	0	62	104	720371712	55	32107
2026-01-27 11:36:56.91	347.81	11.06	-41.9	-61.0	3.8	7.44e-01	0	62	104	720371712	54	34232
2026-01-27 11:36:57.92	347.79	10.96	-41.9	-60.9	3.8	7.49e-01	0	62	104	720371712	54	34076
2026-01-27 11:36:58.92	347.76	10.86	-41.8	-61.0	3.8	7.46e-01	0	62	104	720371712	54	34378
2026-01-27 11:36:59.93	347.74	10.76	-41.8	-61.0	3.8	7.47e-01	0	62	104	720371712	54	34134
2026-01-27 11:37:00.94	347.72	10.67	-41.9	-61.0	3.8	7.43e-01	0	62	104	720371712	54	34388
2026-01-27 11:37:01.95	347.69	10.57	-39.3	-60.9	3.8	7.48e-01	0	62	104	720371712	49	45417
2026-01-27 11:37:02.96	347.67	10.48	-40.2	-60.9	3.8	7.45e-01	0	62	104	720371712	52	38205
2026-01-27 11:37:03.97	347.64	10.38	-39.6	-61.1	3.8	7.44e-01	0	62	104	720371712	50	43479
2026-01-27 11:37:04.98	347.62	10.29	-38.3	-61.0	3.8	7.45e-01	0	62	104	720371712	48	48320
2026-01-27 11:37:05.99	347.60	10.19	-40.5	-60.8	3.8	7.47e-01	0	62	104	720371712	52	37548
2026-01-27 11:37:07.00	347.58	10.10	-40.1	-60.9	3.8	7.44e-01	0	62	104	720371712	52	38082
2026-01-27 11:37:08.01	347.55	10.01	-42.1	-61.0	3.8	7.46e-01	0	62	104	720371712	54	34183
2026-01-27 11:37:09.02	347.53	9.91	-42.1	-61.0	3.8	7.42e-01	0	62	104	720371712	54	34309
2026-01-27 11:37:10.03	347.51	9.82	-42.1	-60.9	3.8	7.43e-01	0	62	104	720371712	54	33727
2026-01-27 11:37:11.04	347.49	9.73	-42.2	-60.9	3.8	7.47e-01	0	62	104	720371712	54	33937
2026-01-27 11:37:12.05	347.47	9.64	-42.1	-60.9	3.8	7.44e-01	0	62	104	720371712	54	33751
2026-01-27 11:37:13.06	347.44	9.55	-42.0	-60.8	3.8	7.47e-01	0	62	104	720371712	54	33410
2026-01-27 11:37:14.07	347.42	9.45	-42.2	-61.1	3.8	7.47e-01	0	62	104	720371712	54	34640
2026-01-27 11:37:15.08	347.40	9.36	-42.1	-60.8	3.8	7.48e-01	0	62	104	720371712	54	33668
2026-01-27 11:37:16.09	347.38	9.27	-42.1	-61.0	3.8	7.47e-01	0	62	104	720371712	54	34166
2026-01-27 11:37:17.10	347.36	9.18	-42.1	-60.8	3.8	7.42e-01	0	62	104	720371712	54	33610
2026-01-27 11:37:18.11	347.34	9.09	-42.2	-61.0	3.8	7.44e-01	0	62	104	720371712	54	34339
2026-01-27 11:37:19.12	347.32	9.00	-42.1	-60.8	3.8	7.46e-01	0	62	104	720371712	54	33485
2026-01-27 11:37:20.13	347.30	8.91	-42.1	-61.0	3.8	7.45e-01	0	62	104	720371712	54	34293
2026-01-27 11:37:21.14	347.28	8.83	-42.1	-60.8	3.8	7.43e-01	0	62	104	720371712	54	33560
2026-01-27 11:37:22.15	347.26	8.74	-42.1	-61.0	3.8	7.46e-01	0	62	104	720371712	54	34222
2026-01-27 11:37:23.16	347.24	8.65	-42.0	-60.8	3.8	7.46e-01	0	62	104	720371712	54	33342
2026-01-27 11:37:24.17	347.22	8.56	-42.1	-61.0	3.8	7.47e-01	0	62	104	720371712	54	34403
2026-01-27 11:37:25.18	347.20	8.47	-42.1	-60.7	3.8	7.47e-01	0	62	104	720371712	54	33146
2026-01-27 11:37:26.19	347.18	8.39	-42.1	-60.9	3.8	7.45e-01	0	62	104	720371712	54	33835
2026-01-27 11:37:27.20	347.16	8.30	-42.0	-60.7	3.8	7.45e-01	0	62	104	720371712	54	33270
2026-01-27 11:37:28.21	347.14	8.22	-42.2	-61.1	3.8	7.45e-01	0	62	104	720371712	54	34584
2026-01-27 11:37:29.22	347.12	8.13	-42.0	-60.7	3.8	7.47e-01	0	62	104	720371712	54	33004
2026-01-27 11:37:30.23	347.10	8.04	-42.0	-60.9	3.8	7.41e-01	0	62	104	720371712	54	33750
2026-01-27 11:37:31.24	347.08	7.96	-42.1	-61.0	3.8	7.46e-01	0	62	104	720371712	54	34147
2026-01-27 11:37:32.25	347.06	7.87	-42.6	-61.5	3.8	7.46e-01	0	62	104	720371712	55	34247
2026-01-27 11:37:33.26	347.05	7.79	-44.4	-63.1	3.8	7.42e-01	0	62	104	720371712	59	32776
2026-01-27 11:37:34.27	347.03	7.70	-45.8	-64.4	3.8	7.46e-01	0	62	104	720371712	62	31844
2026-01-27 11:37:35.28	347.01	7.62	-46.0	-64.5	3.8	7.45e-01	0	62	104	720371712	62	32387
2026-01-27 11:37:36.30	346.99	7.54	-46.1	-64.7	3.8	7.46e-01	0	62	104	720371712	62	33066
2026-01-27 11:37:37.31	346.97	7.45	-46.2	-64.8	3.8	7.50e-01	0	62	104	720371712	62	33340
2026-01-27 11:37:38.32	346.95	7.37	-46.2	-64.8	3.8	7.43e-01	0	62	104	720371712	63	31596
2026-01-27 11:37:39.33	346.94	7.29	-46.2	-64.8	3.8	7.43e-01	0	62	104	720371712	63	31712
2026-01-27 11:37:40.34	346.92	7.20	-46.2	-64.8	3.8	7.47e-01	0	62	104	720371712	63	31714
