passes_logs/2026/01/27/R2.0S_Moscow/R2.0S_Moscow__20260127_095920_FENGYUN_3D_rec.log

#Pass ID: 20260127_095920_FENGYUN 3D
#Satellite: FENGYUN 3D
#Configuration: FENGYUN 3D
#almurnet v.1.7.20251203
#Start time: 2026-01-27 10:01:06

#Version: 2.2.20231116
#Station: R2.0S_Moscow
#Location: 37.707566 lon 55.798166 lat
#TLE: 1 43010U 17072A   26026.91415486  .00000072  00000+0  55983-4 0  9991
#TLE: 2 43010  98.9962 358.9161 0002508  89.0320 271.1142 14.19700283424949

#Time	Az	El	Level	Level2	SNR	BER	BlckErr	Temp	State	Recorded	gain1	gain2
2026-01-27 10:01:06.90	91.25	7.90	-46.0	-64.6	3.8	7.46e-01	0	62	0	0	62	32575
2026-01-27 10:01:07.90	91.14	7.96	-45.5	-57.2	3.8	8.45e-01	0	63	104	0	62	14026
2026-01-27 10:01:08.91	91.02	8.02	-45.5	-57.3	3.8	8.46e-01	0	63	104	0	62	14153
2026-01-27 10:01:09.92	90.89	8.07	-45.5	-57.3	3.8	8.46e-01	0	63	104	0	62	14099
2026-01-27 10:01:10.93	90.77	8.13	-45.5	-57.3	3.8	8.46e-01	0	63	104	0	62	14096
2026-01-27 10:01:11.95	90.65	8.19	-45.4	-57.2	3.8	8.47e-01	0	63	104	0	62	13998
2026-01-27 10:01:12.96	90.53	8.25	-44.4	-57.1	3.8	8.46e-01	0	63	104	0	60	15469
2026-01-27 10:01:13.97	90.41	8.30	-45.2	-56.9	3.8	8.46e-01	0	63	104	0	60	15213
2026-01-27 10:01:14.98	90.28	8.36	-45.0	-56.8	3.8	8.46e-01	0	63	104	0	60	14927
2026-01-27 10:01:15.99	90.16	8.42	-44.0	-55.8	3.8	8.46e-01	0	63	104	0	60	13310
2026-01-27 10:01:17.00	90.04	8.48	-42.8	-54.4	3.8	8.47e-01	0	63	104	0	57	13476
2026-01-27 10:01:18.01	89.91	8.53	-40.5	-52.0	3.8	8.47e-01	0	63	104	0	52	13679
2026-01-27 10:01:19.02	89.79	8.59	-40.4	-51.9	3.8	8.47e-01	0	63	104	0	52	13563
2026-01-27 10:01:20.03	89.66	8.65	-40.2	-52.0	3.8	8.46e-01	0	63	104	0	52	13599
2026-01-27 10:01:21.05	89.54	8.71	-40.4	-52.0	3.8	8.46e-01	0	63	104	0	52	13600
2026-01-27 10:01:22.06	89.41	8.76	-40.4	-52.0	3.8	8.47e-01	0	63	104	0	52	13620
2026-01-27 10:01:23.07	89.28	8.82	-40.4	-52.0	3.8	8.45e-01	0	63	104	0	52	13618
2026-01-27 10:01:24.08	89.15	8.88	-40.4	-52.0	3.8	8.46e-01	0	63	104	0	51	14504
2026-01-27 10:01:25.09	89.03	8.94	-40.4	-52.1	3.8	8.46e-01	0	63	104	0	51	14550
2026-01-27 10:01:26.10	88.90	9.00	-40.4	-52.0	3.8	8.47e-01	0	63	104	0	51	14474
2026-01-27 10:01:27.11	88.77	9.05	-40.4	-52.0	3.8	8.47e-01	0	63	104	0	51	14498
2026-01-27 10:01:28.12	88.64	9.11	-39.9	-51.9	3.8	8.46e-01	0	63	104	0	51	14350
2026-01-27 10:01:29.13	88.51	9.17	-40.4	-52.0	3.8	8.47e-01	0	63	104	0	51	14466
2026-01-27 10:01:30.14	88.38	9.23	-40.3	-52.0	3.8	8.46e-01	0	63	104	0	51	14421
2026-01-27 10:01:31.15	88.25	9.28	-40.3	-52.0	3.8	8.45e-01	0	63	104	0	51	14451
2026-01-27 10:01:32.16	88.12	9.34	-40.4	-52.0	3.8	8.45e-01	0	63	104	0	51	14513
2026-01-27 10:01:33.17	87.99	9.40	-40.4	-52.0	3.8	8.46e-01	0	63	104	0	51	14449
2026-01-27 10:01:34.18	87.85	9.46	-40.4	-52.0	3.8	8.47e-01	0	63	104	0	51	14477
2026-01-27 10:01:35.19	87.72	9.51	-40.2	-52.0	3.8	8.46e-01	0	64	104	0	51	14475
2026-01-27 10:01:36.20	87.59	9.57	-40.4	-52.0	3.8	8.46e-01	0	63	104	0	51	14483
2026-01-27 10:01:37.21	87.45	9.63	-40.5	-52.0	3.8	8.45e-01	0	63	104	0	51	14497
2026-01-27 10:01:38.22	87.32	9.69	-40.4	-52.0	3.8	8.45e-01	0	63	104	0	51	14496
2026-01-27 10:01:39.23	87.18	9.74	-40.4	-52.0	3.8	8.47e-01	0	63	104	0	51	14439
2026-01-27 10:01:40.24	87.05	9.80	-40.4	-52.0	3.8	8.47e-01	0	63	104	0	51	14496
2026-01-27 10:01:41.25	86.91	9.86	-40.4	-52.0	3.8	8.46e-01	0	63	104	0	51	14533
2026-01-27 10:01:42.26	86.77	9.92	-40.4	-52.0	3.8	8.45e-01	0	63	104	0	51	14485
2026-01-27 10:01:43.27	86.63	9.97	-40.4	-52.0	3.8	8.47e-01	0	63	104	0	51	14499
2026-01-27 10:01:44.28	86.50	10.03	-40.4	-52.0	3.8	8.45e-01	0	63	104	0	51	14469
2026-01-27 10:01:45.29	86.36	10.09	-40.4	-52.0	3.8	8.47e-01	0	64	104	0	51	14501
2026-01-27 10:01:46.30	86.22	10.14	-40.4	-52.0	3.8	8.46e-01	0	63	104	0	51	14471
2026-01-27 10:01:47.31	86.08	10.20	-40.4	-52.0	3.8	8.46e-01	0	63	104	0	51	14491
2026-01-27 10:01:48.32	85.94	10.26	-40.4	-52.0	3.8	8.47e-01	0	63	104	0	51	14491
2026-01-27 10:01:49.33	85.80	10.32	-40.4	-52.0	3.8	8.46e-01	0	63	104	0	51	14499
2026-01-27 10:01:50.34	85.66	10.37	-40.4	-52.0	3.8	8.46e-01	0	63	104	0	51	14495
2026-01-27 10:01:51.35	85.52	10.43	-40.4	-52.0	3.8	8.47e-01	0	63	104	0	51	14490
2026-01-27 10:01:52.36	85.37	10.49	-40.4	-52.0	3.8	8.46e-01	0	63	104	0	51	14524
2026-01-27 10:01:53.36	85.23	10.54	-40.4	-52.0	3.8	8.46e-01	0	63	104	0	51	14473
2026-01-27 10:01:54.38	85.09	10.60	-40.4	-52.0	3.8	8.47e-01	0	63	104	0	51	14455
2026-01-27 10:01:55.39	84.94	10.66	-40.4	-52.0	3.8	8.48e-01	0	63	104	0	51	14481
2026-01-27 10:01:56.40	84.80	10.72	-40.2	-52.0	3.8	8.46e-01	0	63	104	0	51	14395
2026-01-27 10:01:57.41	84.65	10.77	-40.4	-52.0	3.8	8.47e-01	0	63	104	0	51	14443
2026-01-27 10:01:58.42	84.51	10.83	-40.4	-52.0	3.8	8.48e-01	0	63	104	0	51	14465
2026-01-27 10:01:59.43	84.36	10.89	-40.4	-52.0	3.8	8.46e-01	0	63	104	0	51	14466
2026-01-27 10:02:00.44	84.21	10.94	-40.4	-52.0	3.8	8.46e-01	0	63	104	0	51	14519
2026-01-27 10:02:01.45	84.07	11.00	-40.5	-52.1	3.8	8.46e-01	0	63	104	0	51	14629
2026-01-27 10:02:02.46	83.92	11.06	-41.1	-52.7	3.8	8.46e-01	0	63	104	0	54	13151
2026-01-27 10:02:03.47	83.77	11.11	-40.5	-52.0	3.8	8.46e-01	0	64	104	0	52	13725
2026-01-27 10:02:04.48	83.62	11.17	-40.4	-52.0	3.8	8.46e-01	0	63	104	0	52	13576
2026-01-27 10:02:05.49	83.47	11.23	-40.4	-52.0	3.8	8.46e-01	0	63	104	0	52	13641
2026-01-27 10:02:06.50	83.32	11.28	-40.4	-52.0	3.8	8.47e-01	0	63	104	0	52	13649
2026-01-27 10:02:07.51	83.17	11.34	-40.4	-52.0	3.8	8.46e-01	0	64	104	0	52	13698
2026-01-27 10:02:08.52	83.02	11.39	-40.4	-52.0	3.8	8.46e-01	0	63	104	0	51	14400
2026-01-27 10:02:09.53	82.86	11.45	-40.4	-52.1	3.8	8.46e-01	0	63	104	0	51	14549
2026-01-27 10:02:10.54	82.71	11.51	-40.5	-52.1	3.8	8.46e-01	0	63	104	0	51	14636
2026-01-27 10:02:11.55	82.56	11.56	-40.4	-52.0	3.8	8.46e-01	0	64	104	0	51	14514
2026-01-27 10:02:12.56	82.40	11.62	-40.4	-52.0	3.8	8.47e-01	0	63	104	0	51	14470
2026-01-27 10:02:13.57	82.25	11.67	-40.5	-52.0	3.8	8.46e-01	0	63	104	0	51	14510
2026-01-27 10:02:14.58	82.09	11.73	-40.5	-52.1	3.8	8.45e-01	0	63	104	0	51	14632
2026-01-27 10:02:15.59	81.94	11.79	-40.4	-52.0	3.8	8.46e-01	0	63	104	0	51	14513
2026-01-27 10:02:16.60	81.78	11.84	-40.5	-52.1	3.8	8.46e-01	0	63	104	0	51	14554
2026-01-27 10:02:17.61	81.62	11.90	-40.5	-52.1	3.8	8.45e-01	0	63	104	0	51	14654
2026-01-27 10:02:18.62	81.47	11.95	-40.6	-52.2	3.8	8.46e-01	0	63	104	0	51	14827
2026-01-27 10:02:19.63	81.31	12.01	-40.4	-52.1	3.8	8.47e-01	0	64	104	0	52	13730
2026-01-27 10:02:20.64	81.15	12.06	-40.4	-52.0	3.8	8.45e-01	0	63	104	0	52	13653
2026-01-27 10:02:21.65	80.99	12.12	-40.5	-52.1	3.8	8.46e-01	0	63	104	0	52	13735
2026-01-27 10:02:22.66	80.83	12.17	-40.6	-52.2	3.8	8.46e-01	0	64	104	0	52	13967
2026-01-27 10:02:23.67	80.67	12.23	-40.4	-52.0	3.8	8.47e-01	0	64	104	0	52	13614
2026-01-27 10:02:24.69	80.51	12.28	-40.5	-52.1	3.8	8.45e-01	0	64	104	0	52	13885
2026-01-27 10:02:25.70	80.34	12.34	-40.5	-52.0	3.8	8.46e-01	0	64	104	0	52	13716
2026-01-27 10:02:26.71	80.18	12.39	-40.6	-52.2	3.8	8.47e-01	0	63	104	0	52	14001
2026-01-27 10:02:27.72	80.02	12.45	-40.5	-52.1	3.8	8.47e-01	0	64	104	0	52	13794
2026-01-27 10:02:28.73	79.85	12.50	-40.6	-52.2	3.8	8.47e-01	0	63	104	0	52	13983
2026-01-27 10:02:29.74	79.69	12.56	-40.5	-52.1	3.8	8.46e-01	0	63	104	0	52	13825
2026-01-27 10:02:30.75	79.53	12.61	-40.8	-52.4	3.8	8.46e-01	0	63	104	0	52	14285
2026-01-27 10:02:31.75	79.36	12.67	-40.5	-52.1	3.8	8.46e-01	0	63	104	0	52	13789
2026-01-27 10:02:32.77	79.19	12.72	-40.6	-52.2	3.8	8.47e-01	0	63	104	0	52	14026
2026-01-27 10:02:33.78	79.03	12.77	-40.7	-52.3	3.8	8.46e-01	0	64	104	0	52	14052
2026-01-27 10:02:34.79	78.86	12.83	-41.1	-52.6	3.8	8.47e-01	0	63	104	0	52	14592
2026-01-27 10:02:35.79	78.69	12.88	-40.5	-52.1	3.8	8.46e-01	0	64	104	0	53	13101
2026-01-27 10:02:36.80	78.52	12.93	-40.7	-52.2	3.8	8.46e-01	0	63	104	0	53	13238
2026-01-27 10:02:37.81	78.36	12.99	-40.5	-52.1	3.8	8.48e-01	0	64	104	0	52	13729
2026-01-27 10:02:38.82	78.19	13.04	-40.6	-52.1	3.8	8.46e-01	0	64	104	0	52	13884
2026-01-27 10:02:39.83	78.01	13.09	-40.6	-52.2	3.8	8.46e-01	0	63	104	0	52	13950
2026-01-27 10:02:40.84	77.84	13.15	-40.7	-52.3	3.8	8.47e-01	0	63	104	0	52	14062
2026-01-27 10:02:41.85	77.67	13.20	-40.8	-52.3	3.8	8.46e-01	0	63	104	0	52	14196
2026-01-27 10:02:42.86	77.50	13.25	-40.7	-52.3	3.8	8.46e-01	0	63	104	0	52	14109
2026-01-27 10:02:43.87	77.33	13.31	-41.4	-52.4	3.8	8.46e-01	0	63	104	0	53	13527
2026-01-27 10:02:44.88	77.15	13.36	-41.0	-52.0	3.8	8.46e-01	0	63	104	0	53	12877
2026-01-27 10:02:45.89	76.98	13.41	-41.0	-52.5	3.8	8.45e-01	0	63	104	0	53	13671
2026-01-27 10:02:46.90	76.80	13.46	-41.4	-52.4	3.8	8.46e-01	0	63	104	0	53	13461
2026-01-27 10:02:47.91	76.63	13.52	-40.8	-52.4	3.8	8.46e-01	0	63	104	0	53	13451
2026-01-27 10:02:48.92	76.45	13.57	-41.0	-51.7	3.8	8.46e-01	0	63	104	0	53	12482
2026-01-27 10:02:49.93	76.28	13.62	-41.1	-52.5	3.8	8.47e-01	0	64	104	0	53	13683
2026-01-27 10:02:50.94	76.10	13.67	-40.9	-51.1	3.8	8.45e-01	0	64	104	0	53	11672
2026-01-27 10:02:51.95	75.92	13.72	-40.9	-51.1	3.8	8.46e-01	0	63	104	0	53	11582
2026-01-27 10:02:52.96	75.74	13.77	-40.9	-50.9	3.8	8.45e-01	0	63	104	0	53	11403
2026-01-27 10:02:53.97	75.56	13.82	-40.9	-50.9	3.8	8.46e-01	0	63	104	0	53	11357
2026-01-27 10:02:54.98	75.38	13.87	-41.0	-50.9	3.8	8.45e-01	0	64	104	0	53	11414
2026-01-27 10:02:55.99	75.20	13.93	-41.1	-52.5	3.8	8.46e-01	0	64	104	0	53	13652
2026-01-27 10:02:57.00	75.02	13.98	-41.1	-52.2	3.8	8.45e-01	0	63	104	0	53	13246
2026-01-27 10:02:58.01	74.84	14.03	-41.3	-52.1	3.8	8.44e-01	0	64	104	0	53	13097
2026-01-27 10:02:59.02	74.66	14.08	-40.6	-48.0	4.6	8.31e-01	0	63	0	0	53	8162
2026-01-27 10:03:00.03	74.47	14.13	-40.6	-47.7	4.8	7.92e-01	0	64	0	0	53	7818
2026-01-27 10:03:01.04	74.29	14.18	-40.4	-46.8	5.4	7.46e-01	0	63	0	0	52	7494
2026-01-27 10:03:02.05	74.11	14.23	-40.4	-46.5	5.6	6.27e-01	0	63	0	1048576	52	7271
2026-01-27 10:03:03.06	73.92	14.28	-40.4	-46.4	5.7	6.14e-01	0	64	0	5242880	52	7149
2026-01-27 10:03:04.07	73.74	14.32	-40.2	-45.8	6.2	3.27e-01	0	64	0	10485760	52	6647
2026-01-27 10:03:05.08	73.55	14.37	-40.2	-46.5	5.5	5.36e-01	0	63	0	14680064	52	7267
2026-01-27 10:03:06.09	73.36	14.42	-40.2	-46.5	5.5	3.45e-01	0	64	0	19922944	51	7706
2026-01-27 10:03:07.10	73.18	14.47	-41.2	-50.4	4.0	7.53e-01	0	63	0	24117248	52	11390
2026-01-27 10:03:08.11	72.99	14.52	-41.4	-52.1	3.8	8.33e-01	0	63	104	24117248	53	12964
2026-01-27 10:03:09.12	72.80	14.57	-40.5	-48.9	4.2	7.82e-01	0	64	0	24117248	51	10105
2026-01-27 10:03:10.13	72.61	14.62	-39.2	-43.9	7.6	1.74e-01	0	63	0	27262976	50	6022
2026-01-27 10:03:11.14	72.42	14.66	-39.2	-43.9	7.4	1.20e-01	0	64	0	32505856	50	6060
2026-01-27 10:03:12.15	72.23	14.71	-39.3	-44.1	7.2	1.54e-01	0	63	0	38797312	50	6198
2026-01-27 10:03:13.16	72.04	14.76	-39.0	-43.6	7.7	1.09e-01	0	64	0	44040192	50	5817
2026-01-27 10:03:14.17	71.85	14.81	-39.2	-43.9	7.5	1.34e-01	0	63	0	50331648	50	6020
2026-01-27 10:03:15.18	71.66	14.85	-39.2	-43.7	7.7	9.54e-02	0	64	0	55574528	50	5887
2026-01-27 10:03:16.19	71.46	14.90	-39.1	-43.4	8.1	7.55e-02	0	64	0	60817408	50	5690
2026-01-27 10:03:17.20	71.27	14.95	-39.0	-43.2	8.4	5.51e-02	0	64	0	67108864	49	5877
2026-01-27 10:03:18.21	71.08	14.99	-39.0	-43.1	8.6	4.50e-02	0	64	0	72351744	49	5813
2026-01-27 10:03:19.22	70.88	15.04	-39.0	-42.9	8.9	3.70e-02	0	64	0	78643200	49	5687
2026-01-27 10:03:20.23	70.69	15.08	-38.8	-42.6	9.3	2.40e-02	0	63	0	83886080	49	5469
2026-01-27 10:03:21.24	70.49	15.13	-38.9	-42.6	9.3	1.83e-02	0	64	0	90177536	49	5516
2026-01-27 10:03:22.25	70.29	15.17	-38.8	-42.4	9.7	1.57e-02	0	64	0	95420416	49	5370
2026-01-27 10:03:23.26	70.10	15.22	-38.6	-41.9	10.3	7.99e-03	0	63	0	101711872	49	5075
2026-01-27 10:03:24.27	69.90	15.26	-38.5	-41.6	10.8	3.67e-03	0	64	0	106954752	48	5184
2026-01-27 10:03:25.28	69.70	15.31	-38.5	-41.6	10.9	3.26e-03	0	63	0	112197632	48	5216
2026-01-27 10:03:26.29	69.50	15.35	-38.5	-41.6	11.0	2.87e-03	0	63	0	118489088	48	5164
2026-01-27 10:03:27.30	69.30	15.40	-38.4	-41.3	11.4	1.59e-03	0	64	0	123731968	48	4985
2026-01-27 10:03:28.31	69.10	15.44	-38.1	-40.8	12.1	6.03e-04	0	64	0	130023424	48	4727
2026-01-27 10:03:29.32	68.90	15.48	-38.1	-40.6	12.4	2.55e-04	0	63	0	135266304	48	4638
2026-01-27 10:03:30.33	68.70	15.53	-38.1	-40.5	12.6	1.29e-04	0	63	0	140509184	48	4596
2026-01-27 10:03:31.34	68.50	15.57	-37.9	-40.3	12.9	9.84e-05	0	63	0	146800640	47	4744
2026-01-27 10:03:32.35	68.30	15.61	-37.8	-40.1	13.2	4.46e-05	0	63	0	152043520	47	4644
2026-01-27 10:03:33.36	68.09	15.65	-37.5	-39.7	13.7	1.60e-05	0	63	0	158334976	47	4437
2026-01-27 10:03:34.37	67.89	15.69	-37.4	-39.6	14.0	3.40e-06	0	64	0	163577856	46	4618
2026-01-27 10:03:35.38	67.69	15.74	-37.3	-39.4	14.3	2.20e-06	0	63	0	168820736	46	4529
2026-01-27 10:03:36.39	67.48	15.78	-37.3	-39.4	14.4	1.10e-06	0	63	0	175112192	46	4495
2026-01-27 10:03:37.40	67.28	15.82	-37.3	-39.3	14.6	0.00e+00	0	63	0	180355072	46	4445
2026-01-27 10:03:38.41	67.07	15.86	-37.2	-39.2	14.7	2.20e-06	0	63	0	186646528	46	4422
2026-01-27 10:03:39.43	66.86	15.90	-37.2	-39.1	14.8	2.20e-06	0	63	0	191889408	46	4388
2026-01-27 10:03:40.44	66.66	15.94	-37.2	-39.1	14.9	0.00e+00	0	63	0	197132288	46	4390
2026-01-27 10:03:41.45	66.45	15.98	-37.2	-39.1	15.0	0.00e+00	0	64	0	203423744	46	4364
2026-01-27 10:03:42.46	66.24	16.02	-37.1	-39.0	15.2	0.00e+00	0	63	0	208666624	46	4318
2026-01-27 10:03:43.47	66.03	16.06	-37.2	-39.1	15.2	0.00e+00	0	63	0	214958080	46	4343
2026-01-27 10:03:44.48	65.82	16.10	-37.1	-39.0	15.3	0.00e+00	0	63	0	220200960	46	4296
2026-01-27 10:03:45.49	65.61	16.14	-37.1	-39.0	15.4	0.00e+00	0	64	0	226492416	46	4307
2026-01-27 10:03:46.50	65.40	16.17	-37.3	-39.1	15.3	0.00e+00	0	63	0	231735296	46	4372
2026-01-27 10:03:47.51	65.19	16.21	-37.2	-39.1	15.3	0.00e+00	0	63	0	238026752	46	4354
2026-01-27 10:03:48.52	64.98	16.25	-37.1	-38.9	15.5	0.00e+00	0	63	0	243269632	46	4267
2026-01-27 10:03:49.53	64.77	16.29	-37.0	-38.9	15.5	0.00e+00	0	63	0	248512512	46	4246
2026-01-27 10:03:50.54	64.56	16.32	-36.9	-38.7	15.7	0.00e+00	0	64	0	254803968	45	4411
2026-01-27 10:03:51.56	64.34	16.36	-36.9	-38.7	15.7	0.00e+00	0	63	0	260046848	45	4398
2026-01-27 10:03:52.57	64.13	16.40	-37.1	-38.9	15.5	0.00e+00	0	63	0	266338304	45	4518
2026-01-27 10:03:53.58	63.91	16.43	-37.0	-38.9	15.5	0.00e+00	0	63	0	271581184	45	4505
2026-01-27 10:03:54.59	63.70	16.47	-37.1	-38.9	15.5	0.00e+00	0	63	0	276824064	45	4545
2026-01-27 10:03:55.60	63.49	16.50	-37.1	-38.9	15.6	0.00e+00	0	63	0	283115520	45	4516
2026-01-27 10:03:56.61	63.27	16.54	-37.3	-39.1	15.3	0.00e+00	0	64	0	288358400	45	4643
2026-01-27 10:03:57.62	63.05	16.57	-37.2	-39.0	15.5	0.00e+00	0	64	0	294649856	45	4568
2026-01-27 10:03:58.63	62.84	16.60	-37.2	-39.0	15.5	0.00e+00	0	63	0	299892736	45	4582
2026-01-27 10:03:59.64	62.62	16.64	-37.2	-39.1	15.4	1.10e-06	0	63	0	305135616	45	4632
2026-01-27 10:04:00.65	62.40	16.67	-37.0	-38.9	15.7	0.00e+00	0	63	0	311427072	45	4494
2026-01-27 10:04:01.66	62.19	16.70	-37.0	-38.8	15.7	0.00e+00	0	63	0	316669952	45	4451
2026-01-27 10:04:02.67	61.97	16.74	-37.0	-38.8	15.7	0.00e+00	0	64	0	322961408	45	4481
2026-01-27 10:04:03.68	61.75	16.77	-37.1	-38.9	15.7	0.00e+00	0	63	0	328204288	45	4501
2026-01-27 10:04:04.69	61.53	16.80	-37.0	-38.8	15.8	0.00e+00	0	64	0	334495744	45	4468
2026-01-27 10:04:05.70	61.31	16.83	-37.1	-38.9	15.7	0.00e+00	0	63	0	339738624	45	4519
2026-01-27 10:04:06.71	61.09	16.86	-37.2	-39.0	15.5	0.00e+00	0	63	0	346030080	45	4586
2026-01-27 10:04:07.72	60.87	16.89	-37.2	-39.0	15.6	0.00e+00	0	63	0	351272960	45	4575
2026-01-27 10:04:08.73	60.65	16.92	-37.2	-39.0	15.6	0.00e+00	0	63	0	356515840	45	4567
2026-01-27 10:04:09.74	60.43	16.95	-37.1	-39.0	15.7	0.00e+00	0	63	0	362807296	45	4552
2026-01-27 10:04:10.75	60.21	16.98	-37.0	-38.8	15.8	0.00e+00	0	63	0	368050176	45	4460
2026-01-27 10:04:11.76	59.98	17.01	-37.1	-38.8	15.8	0.00e+00	0	63	0	374341632	45	4490
2026-01-27 10:04:12.77	59.76	17.04	-37.1	-38.8	15.8	0.00e+00	0	63	0	379584512	45	4492
2026-01-27 10:04:13.78	59.54	17.07	-37.0	-38.8	15.8	0.00e+00	0	63	0	384827392	45	4488
2026-01-27 10:04:14.79	59.31	17.10	-37.0	-38.8	15.8	0.00e+00	0	63	0	391118848	45	4461
2026-01-27 10:04:15.80	59.09	17.12	-37.0	-38.8	15.8	0.00e+00	0	63	0	396361728	45	4482
2026-01-27 10:04:16.81	58.87	17.15	-36.9	-38.7	16.0	0.00e+00	0	63	0	402653184	45	4415
2026-01-27 10:04:17.82	58.64	17.18	-36.9	-38.7	15.9	0.00e+00	0	63	0	407896064	45	4418
2026-01-27 10:04:18.83	58.42	17.20	-37.0	-38.6	16.2	0.00e+00	0	64	0	413138944	45	4388
2026-01-27 10:04:19.84	58.19	17.23	-37.0	-38.6	16.3	0.00e+00	0	63	0	419430400	45	4367
2026-01-27 10:04:20.85	57.96	17.25	-37.0	-38.6	16.3	0.00e+00	0	64	0	424673280	45	4365
2026-01-27 10:04:21.87	57.74	17.28	-36.9	-38.6	16.3	0.00e+00	0	63	0	430964736	45	4345
2026-01-27 10:04:22.88	57.51	17.30	-37.0	-38.6	16.3	0.00e+00	0	63	0	436207616	45	4352
2026-01-27 10:04:23.89	57.28	17.33	-36.9	-38.5	16.4	0.00e+00	0	63	0	442499072	45	4296
2026-01-27 10:04:24.90	57.06	17.35	-36.9	-38.5	16.4	0.00e+00	0	63	0	447741952	45	4299
2026-01-27 10:04:25.91	56.83	17.37	-36.9	-38.5	16.4	0.00e+00	0	63	0	454033408	45	4324
2026-01-27 10:04:26.92	56.60	17.40	-36.9	-38.5	16.4	0.00e+00	0	63	0	459276288	45	4327
2026-01-27 10:04:27.93	56.37	17.42	-36.8	-38.3	16.6	0.00e+00	0	64	0	464519168	45	4237
2026-01-27 10:04:28.94	56.14	17.44	-36.9	-38.5	16.4	0.00e+00	0	63	0	470810624	45	4326
2026-01-27 10:04:29.94	55.92	17.46	-37.0	-38.6	16.3	0.00e+00	0	63	0	476053504	45	4346
2026-01-27 10:04:30.95	55.69	17.48	-36.9	-38.5	16.4	0.00e+00	0	63	0	481296384	45	4306
2026-01-27 10:04:31.96	55.46	17.50	-36.7	-38.3	16.7	0.00e+00	0	63	0	487587840	45	4201
2026-01-27 10:04:32.97	55.23	17.52	-36.8	-38.3	16.6	0.00e+00	0	63	0	492830720	45	4230
2026-01-27 10:04:33.98	55.00	17.54	-36.8	-38.4	16.5	0.00e+00	0	63	0	499122176	45	4273
2026-01-27 10:04:34.99	54.77	17.56	-36.8	-38.3	16.6	0.00e+00	0	64	0	504365056	45	4231
2026-01-27 10:04:36.00	54.53	17.58	-36.8	-38.4	16.6	0.00e+00	0	63	0	509607936	45	4243
2026-01-27 10:04:37.01	54.30	17.60	-36.9	-38.4	16.5	0.00e+00	0	63	0	515899392	45	4276
2026-01-27 10:04:38.02	54.07	17.61	-36.8	-38.3	16.6	0.00e+00	0	63	0	521142272	45	4237
2026-01-27 10:04:39.03	53.84	17.63	-36.8	-38.4	16.5	0.00e+00	0	64	0	527433728	45	4256
2026-01-27 10:04:40.04	53.61	17.65	-36.8	-38.4	16.6	0.00e+00	0	63	0	532676608	45	4246
2026-01-27 10:04:41.06	53.37	17.66	-36.8	-38.4	16.6	0.00e+00	0	64	0	538968064	45	4266
2026-01-27 10:04:42.07	53.14	17.68	-36.9	-38.5	16.4	0.00e+00	0	63	0	544210944	45	4310
2026-01-27 10:04:43.08	52.91	17.69	-37.0	-38.6	16.4	0.00e+00	0	63	0	550502400	45	4357
2026-01-27 10:04:44.09	52.68	17.71	-36.9	-38.5	16.5	0.00e+00	0	63	0	555745280	45	4305
2026-01-27 10:04:45.10	52.44	17.72	-37.0	-38.6	16.4	0.00e+00	0	63	0	560988160	45	4352
2026-01-27 10:04:46.11	52.21	17.74	-36.9	-38.5	16.4	0.00e+00	0	64	0	567279616	45	4327
2026-01-27 10:04:47.12	51.98	17.75	-36.9	-38.5	16.4	0.00e+00	0	63	0	572522496	45	4322
2026-01-27 10:04:48.13	51.74	17.76	-36.8	-38.4	16.6	0.00e+00	0	63	0	578813952	45	4266
2026-01-27 10:04:49.14	51.51	17.77	-36.8	-38.3	16.6	0.00e+00	0	63	0	584056832	45	4241
2026-01-27 10:04:50.15	51.27	17.79	-36.7	-38.3	16.7	0.00e+00	0	63	0	589299712	45	4198
2026-01-27 10:04:51.16	51.04	17.80	-36.8	-38.4	16.6	0.00e+00	0	63	0	595591168	45	4252
2026-01-27 10:04:52.17	50.81	17.81	-36.8	-38.4	16.6	0.00e+00	0	63	0	600834048	45	4249
2026-01-27 10:04:53.18	50.57	17.82	-36.6	-38.2	16.8	0.00e+00	0	63	0	607125504	45	4146
2026-01-27 10:04:54.19	50.34	17.83	-36.6	-38.1	16.9	0.00e+00	0	63	0	612368384	45	4130
2026-01-27 10:04:55.20	50.10	17.84	-36.5	-38.1	16.9	0.00e+00	0	64	0	617611264	45	4105
2026-01-27 10:04:56.21	49.87	17.85	-36.5	-37.9	17.0	0.00e+00	0	63	0	623902720	44	4291
2026-01-27 10:04:57.22	49.63	17.86	-36.5	-37.9	17.0	0.00e+00	0	63	0	629145600	44	4289
2026-01-27 10:04:58.23	49.40	17.86	-36.5	-38.0	17.0	0.00e+00	0	63	0	635437056	44	4308
2026-01-27 10:04:59.24	49.16	17.87	-36.4	-37.9	17.1	0.00e+00	0	63	0	640679936	44	4261
2026-01-27 10:05:00.25	48.93	17.88	-36.5	-37.9	17.0	0.00e+00	0	64	0	646971392	44	4290
2026-01-27 10:05:01.27	48.69	17.88	-36.6	-38.1	16.9	0.00e+00	0	63	0	652214272	44	4349
2026-01-27 10:05:02.28	48.45	17.89	-36.7	-38.2	16.8	0.00e+00	0	63	0	658505728	44	4416
2026-01-27 10:05:03.29	48.22	17.90	-36.6	-38.1	16.9	0.00e+00	0	63	0	663748608	44	4383
2026-01-27 10:05:04.30	47.98	17.90	-36.7	-38.2	16.8	0.00e+00	0	63	0	668991488	44	4407
2026-01-27 10:05:05.31	47.74	17.90	-36.7	-38.2	16.7	0.00e+00	0	63	0	675282944	44	4433
2026-01-27 10:05:06.32	47.51	17.91	-36.7	-38.3	16.7	0.00e+00	0	63	0	680525824	44	4450
2026-01-27 10:05:07.33	47.27	17.91	-36.9	-38.4	16.6	0.00e+00	0	63	0	686817280	44	4534
2026-01-27 10:05:08.34	47.04	17.92	-36.9	-38.4	16.6	0.00e+00	0	63	0	692060160	44	4529
2026-01-27 10:05:09.35	46.80	17.92	-36.9	-38.5	16.5	0.00e+00	0	63	0	697303040	44	4584
2026-01-27 10:05:10.36	46.56	17.92	-36.9	-38.5	16.5	0.00e+00	0	63	0	703594496	44	4580
2026-01-27 10:05:11.37	46.33	17.92	-36.9	-38.5	16.5	0.00e+00	0	63	0	708837376	44	4586
2026-01-27 10:05:12.38	46.09	17.92	-37.0	-38.6	16.4	0.00e+00	0	63	0	715128832	44	4623
2026-01-27 10:05:13.39	45.85	17.92	-36.9	-38.5	16.5	0.00e+00	0	63	0	720371712	44	4594
2026-01-27 10:05:14.40	45.62	17.92	-36.8	-38.4	16.6	0.00e+00	0	63	0	725614592	44	4523
2026-01-27 10:05:15.41	45.38	17.92	-36.9	-38.5	16.5	0.00e+00	0	64	0	731906048	44	4580
2026-01-27 10:05:16.42	45.15	17.92	-36.9	-38.5	16.5	0.00e+00	0	63	0	737148928	44	4571
2026-01-27 10:05:17.43	44.91	17.92	-36.8	-38.4	16.6	0.00e+00	0	63	0	743440384	44	4519
2026-01-27 10:05:18.44	44.67	17.92	-36.8	-38.3	16.6	0.00e+00	0	64	0	748683264	44	4485
2026-01-27 10:05:19.45	44.44	17.91	-36.7	-38.3	16.7	0.00e+00	0	63	0	754974720	44	4456
2026-01-27 10:05:20.46	44.20	17.91	-36.6	-38.1	16.9	0.00e+00	0	64	0	760217600	44	4375
2026-01-27 10:05:21.47	43.97	17.91	-36.5	-38.0	17.0	0.00e+00	0	63	0	766509056	44	4334
2026-01-27 10:05:22.48	43.73	17.90	-36.5	-38.0	17.0	0.00e+00	0	63	0	771751936	44	4335
2026-01-27 10:05:23.49	43.49	17.90	-36.6	-38.2	16.8	0.00e+00	0	64	0	776994816	44	4393
2026-01-27 10:05:24.50	43.26	17.89	-36.7	-38.2	16.7	0.00e+00	0	63	0	783286272	44	4436
2026-01-27 10:05:25.51	43.02	17.89	-36.8	-38.3	16.7	0.00e+00	0	63	0	788529152	44	4482
2026-01-27 10:05:26.52	42.79	17.88	-36.7	-38.3	16.8	0.00e+00	0	63	0	794820608	44	4442
2026-01-27 10:05:27.53	42.55	17.88	-36.7	-38.2	16.8	0.00e+00	0	63	0	800063488	44	4436
2026-01-27 10:05:28.54	42.32	17.87	-36.5	-38.0	17.0	0.00e+00	0	63	0	805306368	44	4305
2026-01-27 10:05:29.55	42.08	17.86	-36.6	-38.1	16.9	0.00e+00	0	63	0	811597824	44	4349
2026-01-27 10:05:30.56	41.85	17.85	-36.6	-38.1	16.9	0.00e+00	0	63	0	816840704	44	4367
2026-01-27 10:05:31.57	41.61	17.84	-36.6	-38.1	16.9	0.00e+00	0	63	0	823132160	44	4390
2026-01-27 10:05:32.58	41.38	17.84	-36.7	-38.2	16.8	0.00e+00	0	63	0	828375040	44	4430
2026-01-27 10:05:33.59	41.14	17.83	-36.7	-38.3	16.7	0.00e+00	0	63	0	833617920	44	4446
2026-01-27 10:05:34.60	40.91	17.82	-36.9	-38.5	16.6	0.00e+00	0	63	0	839909376	44	4546
2026-01-27 10:05:35.61	40.67	17.80	-36.8	-38.4	16.6	0.00e+00	0	64	0	845152256	44	4516
2026-01-27 10:05:36.62	40.44	17.79	-37.0	-38.5	16.5	0.00e+00	0	63	0	851443712	44	4589
2026-01-27 10:05:37.63	40.20	17.78	-37.0	-38.6	16.4	0.00e+00	0	63	0	856686592	44	4617
2026-01-27 10:05:38.64	39.97	17.77	-36.9	-38.5	16.6	0.00e+00	0	63	0	862978048	44	4551
2026-01-27 10:05:39.65	39.74	17.76	-36.8	-38.4	16.6	0.00e+00	0	63	0	868220928	44	4518
2026-01-27 10:05:40.66	39.50	17.75	-36.9	-38.4	16.6	0.00e+00	0	63	0	874512384	44	4524
2026-01-27 10:05:41.67	39.27	17.73	-36.8	-38.3	16.7	0.00e+00	0	63	0	879755264	44	4475
2026-01-27 10:05:42.68	39.04	17.72	-36.8	-38.3	16.7	0.00e+00	0	63	0	884998144	44	4489
2026-01-27 10:05:43.69	38.80	17.70	-36.7	-38.3	16.8	0.00e+00	0	63	0	891289600	44	4448
2026-01-27 10:05:44.70	38.57	17.69	-36.7	-38.3	16.7	0.00e+00	0	63	0	896532480	44	4448
2026-01-27 10:05:45.71	38.34	17.67	-36.7	-38.3	16.7	0.00e+00	0	63	0	902823936	44	4452
2026-01-27 10:05:46.72	38.11	17.66	-36.8	-38.3	16.7	0.00e+00	0	63	0	908066816	44	4493
2026-01-27 10:05:47.73	37.88	17.64	-36.9	-38.4	16.6	0.00e+00	0	63	0	913309696	44	4534
2026-01-27 10:05:48.74	37.64	17.62	-36.8	-38.3	16.7	0.00e+00	0	63	0	919601152	44	4492
2026-01-27 10:05:49.76	37.41	17.61	-36.8	-38.4	16.6	0.00e+00	0	63	0	924844032	44	4515
2026-01-27 10:05:50.77	37.18	17.59	-36.9	-38.5	16.5	0.00e+00	0	63	0	931135488	44	4557
2026-01-27 10:05:51.78	36.95	17.57	-36.9	-38.5	16.5	0.00e+00	0	63	0	936378368	44	4559
2026-01-27 10:05:52.79	36.72	17.55	-36.9	-38.5	16.5	0.00e+00	0	63	0	941621248	44	4579
2026-01-27 10:05:53.80	36.49	17.53	-36.9	-38.4	16.6	0.00e+00	0	63	0	947912704	44	4543
2026-01-27 10:05:54.81	36.26	17.51	-36.9	-38.4	16.6	0.00e+00	0	63	0	953155584	44	4532
2026-01-27 10:05:55.82	36.03	17.49	-36.9	-38.4	16.6	0.00e+00	0	63	0	959447040	44	4533
2026-01-27 10:05:56.83	35.80	17.47	-36.9	-38.4	16.6	0.00e+00	0	64	0	964689920	44	4532
2026-01-27 10:05:57.84	35.57	17.45	-37.0	-38.6	16.4	0.00e+00	0	63	0	970981376	44	4602
2026-01-27 10:05:58.85	35.34	17.43	-37.0	-38.6	16.4	0.00e+00	0	64	0	976224256	44	4620
2026-01-27 10:05:59.86	35.11	17.41	-37.0	-38.7	16.3	0.00e+00	0	64	0	982515712	44	4654
2026-01-27 10:06:00.87	34.89	17.39	-37.1	-38.7	16.3	0.00e+00	0	63	0	987758592	44	4674
2026-01-27 10:06:01.88	34.66	17.36	-37.1	-38.7	16.2	0.00e+00	0	63	0	993001472	44	4701
2026-01-27 10:06:02.89	34.43	17.34	-37.1	-38.7	16.2	1.10e-06	0	63	0	999292928	44	4699
2026-01-27 10:06:03.90	34.20	17.32	-37.0	-38.6	16.3	0.00e+00	0	63	0	1004535808	44	4647
2026-01-27 10:06:04.91	33.98	17.29	-37.0	-38.5	16.4	0.00e+00	0	63	0	1010827264	44	4598
2026-01-27 10:06:05.92	33.75	17.27	-37.0	-38.6	16.4	0.00e+00	0	63	0	1016070144	44	4624
2026-01-27 10:06:06.93	33.53	17.24	-37.0	-38.6	16.4	0.00e+00	0	63	0	1021313024	44	4611
2026-01-27 10:06:07.94	33.30	17.22	-36.9	-38.5	16.4	0.00e+00	0	63	0	1027604480	44	4590
2026-01-27 10:06:08.95	33.08	17.19	-36.9	-38.5	16.4	0.00e+00	0	63	0	1032847360	44	4586
2026-01-27 10:06:09.96	32.85	17.17	-37.0	-38.6	16.4	0.00e+00	0	63	0	1039138816	44	4603
2026-01-27 10:06:10.97	32.63	17.14	-36.9	-38.4	16.5	0.00e+00	0	63	0	1044381696	44	4538
2026-01-27 10:06:11.98	32.40	17.11	-36.8	-38.4	16.6	0.00e+00	0	64	0	1049624576	44	4494
2026-01-27 10:06:13.00	32.18	17.09	-36.7	-38.3	16.7	0.00e+00	0	63	0	1055916032	44	4463
2026-01-27 10:06:14.01	31.95	17.06	-36.8	-38.4	16.6	0.00e+00	0	64	0	1061158912	44	4519
2026-01-27 10:06:15.02	31.73	17.03	-37.0	-38.6	16.4	0.00e+00	0	63	0	1067450368	44	4612
2026-01-27 10:06:16.03	31.51	17.00	-37.1	-38.8	16.2	0.00e+00	0	63	0	1072693248	44	4711
2026-01-27 10:06:17.03	31.29	16.97	-37.1	-38.7	16.2	0.00e+00	0	63	0	1078984704	44	4690
2026-01-27 10:06:18.04	31.07	16.94	-37.1	-38.8	16.2	0.00e+00	0	63	0	1084227584	44	4717
2026-01-27 10:06:19.05	30.85	16.91	-37.1	-38.7	16.3	0.00e+00	0	63	0	1089470464	44	4664
2026-01-27 10:06:20.06	30.63	16.88	-37.1	-38.7	16.3	0.00e+00	0	63	0	1095761920	44	4666
2026-01-27 10:06:21.07	30.41	16.85	-37.1	-38.7	16.2	0.00e+00	0	63	0	1101004800	44	4700
2026-01-27 10:06:22.08	30.19	16.82	-37.2	-38.8	16.1	0.00e+00	0	63	0	1107296256	44	4759
2026-01-27 10:06:23.09	29.97	16.79	-37.2	-38.9	16.1	0.00e+00	0	63	0	1112539136	45	4499
2026-01-27 10:06:24.10	29.75	16.76	-37.1	-38.8	16.2	0.00e+00	0	63	0	1117782016	45	4450
2026-01-27 10:06:25.11	29.53	16.73	-37.2	-38.8	16.1	0.00e+00	0	63	0	1124073472	45	4475
2026-01-27 10:06:26.12	29.32	16.69	-37.2	-38.8	16.1	0.00e+00	0	63	0	1129316352	45	4463
2026-01-27 10:06:27.13	29.10	16.66	-37.3	-38.9	16.0	0.00e+00	0	63	0	1135607808	45	4525
2026-01-27 10:06:28.14	28.88	16.63	-37.2	-38.9	16.0	0.00e+00	0	63	0	1140850688	45	4506
2026-01-27 10:06:29.15	28.67	16.59	-37.3	-39.0	15.9	0.00e+00	0	63	0	1146093568	45	4562
2026-01-27 10:06:30.16	28.45	16.56	-37.4	-39.2	15.7	0.00e+00	0	63	0	1152385024	45	4659
2026-01-27 10:06:31.17	28.24	16.53	-37.3	-39.0	15.9	0.00e+00	0	63	0	1157627904	45	4560
2026-01-27 10:06:32.19	28.02	16.49	-37.2	-38.8	16.1	0.00e+00	0	63	0	1163919360	45	4479
2026-01-27 10:06:33.20	27.81	16.46	-37.3	-39.0	15.9	0.00e+00	0	63	0	1169162240	45	4555
2026-01-27 10:06:34.21	27.59	16.42	-37.4	-39.1	15.8	0.00e+00	0	63	0	1175453696	45	4612
2026-01-27 10:06:35.22	27.38	16.38	-37.4	-39.1	15.8	0.00e+00	0	63	0	1180696576	45	4609
2026-01-27 10:06:36.23	27.17	16.35	-37.4	-39.1	15.8	0.00e+00	0	63	0	1186988032	45	4645
2026-01-27 10:06:37.24	26.95	16.31	-37.3	-39.0	15.9	0.00e+00	0	64	0	1192230912	45	4582
2026-01-27 10:06:38.25	26.74	16.28	-37.3	-39.0	15.9	0.00e+00	0	63	0	1197473792	45	4549
2026-01-27 10:06:39.26	26.53	16.24	-37.3	-39.0	15.9	0.00e+00	0	63	0	1203765248	45	4559
2026-01-27 10:06:40.27	26.32	16.20	-37.3	-39.0	15.9	0.00e+00	0	63	0	1209008128	45	4581
2026-01-27 10:06:41.28	26.11	16.16	-37.4	-39.1	15.8	0.00e+00	0	63	0	1215299584	45	4618
2026-01-27 10:06:42.29	25.90	16.12	-37.4	-39.2	15.7	0.00e+00	0	63	0	1220542464	45	4656
2026-01-27 10:06:43.30	25.69	16.09	-37.5	-39.2	15.7	0.00e+00	0	64	0	1225785344	45	4681
2026-01-27 10:06:44.31	25.49	16.05	-37.4	-39.1	15.8	0.00e+00	0	64	0	1232076800	45	4627
2026-01-27 10:06:45.32	25.28	16.01	-37.3	-39.0	15.9	0.00e+00	0	63	0	1237319680	45	4580
2026-01-27 10:06:46.33	25.07	15.97	-37.3	-39.0	15.9	0.00e+00	0	63	0	1243611136	45	4585
2026-01-27 10:06:47.34	24.86	15.93	-37.4	-39.1	15.8	0.00e+00	0	64	0	1248854016	45	4603
2026-01-27 10:06:48.35	24.66	15.89	-37.5	-39.2	15.7	0.00e+00	0	63	0	1254096896	45	4670
2026-01-27 10:06:49.36	24.45	15.85	-37.4	-39.1	15.8	0.00e+00	0	63	0	1260388352	45	4607
2026-01-27 10:06:50.37	24.25	15.81	-37.3	-39.0	15.8	0.00e+00	0	63	0	1265631232	45	4583
2026-01-27 10:06:51.38	24.04	15.77	-37.3	-39.0	15.8	0.00e+00	0	64	0	1271922688	45	4593
2026-01-27 10:06:52.38	23.84	15.73	-37.4	-39.1	15.8	0.00e+00	0	63	0	1277165568	45	4629
2026-01-27 10:06:53.40	23.64	15.68	-37.3	-39.0	15.9	0.00e+00	0	63	0	1283457024	45	4576
2026-01-27 10:06:54.41	23.43	15.64	-37.4	-39.1	15.8	0.00e+00	0	63	0	1288699904	45	4625
2026-01-27 10:06:55.42	23.23	15.60	-37.3	-39.0	15.8	0.00e+00	0	63	0	1294991360	45	4593
2026-01-27 10:06:56.43	23.03	15.56	-37.4	-39.1	15.8	0.00e+00	0	63	0	1300234240	45	4613
2026-01-27 10:06:57.44	22.83	15.51	-37.4	-39.1	15.8	0.00e+00	0	63	0	1305477120	45	4618
2026-01-27 10:06:58.45	22.63	15.47	-37.4	-39.1	15.7	0.00e+00	0	64	0	1311768576	45	4646
2026-01-27 10:06:59.46	22.43	15.43	-37.5	-39.3	15.6	0.00e+00	0	63	0	1317011456	45	4708
2026-01-27 10:07:00.47	22.23	15.38	-37.6	-39.3	15.5	0.00e+00	0	63	0	1323302912	45	4742
2026-01-27 10:07:01.48	22.03	15.34	-37.7	-39.4	15.4	0.00e+00	0	63	0	1328545792	45	4808
2026-01-27 10:07:02.49	21.83	15.30	-37.7	-39.4	15.4	0.00e+00	0	63	0	1333788672	45	4806
2026-01-27 10:07:03.50	21.64	15.25	-37.6	-39.4	15.5	0.00e+00	0	63	0	1340080128	45	4786
2026-01-27 10:07:04.51	21.44	15.21	-37.6	-39.4	15.4	0.00e+00	0	63	0	1345323008	45	4791
2026-01-27 10:07:05.52	21.24	15.16	-37.6	-39.3	15.5	0.00e+00	0	63	0	1351614464	45	4744
2026-01-27 10:07:06.53	21.05	15.12	-37.6	-39.3	15.5	0.00e+00	0	63	0	1356857344	45	4730
2026-01-27 10:07:07.54	20.85	15.07	-37.6	-39.4	15.5	0.00e+00	0	63	0	1362100224	45	4760
2026-01-27 10:07:08.55	20.66	15.03	-37.8	-39.6	15.3	0.00e+00	0	63	0	1368391680	46	4607
2026-01-27 10:07:09.56	20.47	14.98	-37.8	-39.6	15.2	0.00e+00	0	63	0	1373634560	46	4617
2026-01-27 10:07:10.57	20.27	14.93	-37.8	-39.7	15.2	0.00e+00	0	63	0	1379926016	46	4659
2026-01-27 10:07:11.58	20.08	14.89	-37.9	-39.7	15.1	1.10e-06	0	63	0	1385168896	46	4687
2026-01-27 10:07:12.59	19.89	14.84	-37.9	-39.8	15.1	0.00e+00	0	63	0	1391460352	46	4707
2026-01-27 10:07:13.60	19.70	14.80	-37.7	-39.5	15.3	1.10e-06	0	63	0	1396703232	46	4592
2026-01-27 10:07:14.61	19.51	14.75	-37.7	-39.5	15.3	0.00e+00	0	63	0	1402994688	46	4577
2026-01-27 10:07:15.62	19.32	14.70	-37.8	-39.6	15.2	0.00e+00	0	63	0	1408237568	46	4633
2026-01-27 10:07:16.63	19.13	14.65	-37.9	-39.7	15.1	0.00e+00	0	63	0	1413480448	46	4677
2026-01-27 10:07:17.64	18.94	14.61	-37.8	-39.6	15.1	0.00e+00	0	63	0	1419771904	46	4647
2026-01-27 10:07:18.65	18.75	14.56	-37.9	-39.7	15.1	0.00e+00	0	63	0	1425014784	46	4674
2026-01-27 10:07:19.67	18.56	14.51	-37.8	-39.6	15.1	0.00e+00	0	63	0	1431306240	46	4648
2026-01-27 10:07:20.68	18.37	14.46	-37.8	-39.6	15.1	0.00e+00	0	63	0	1436549120	46	4645
2026-01-27 10:07:21.69	18.19	14.41	-37.9	-39.7	15.1	0.00e+00	0	63	0	1441792000	46	4666
2026-01-27 10:07:22.70	18.00	14.36	-37.9	-39.7	15.0	0.00e+00	0	63	0	1448083456	46	4698
2026-01-27 10:07:23.71	17.82	14.31	-38.0	-39.9	14.9	0.00e+00	0	63	0	1453326336	46	4770
2026-01-27 10:07:24.72	17.63	14.27	-38.0	-39.9	14.9	0.00e+00	0	63	0	1459617792	46	4781
2026-01-27 10:07:25.73	17.45	14.22	-38.0	-39.9	14.9	1.10e-06	0	63	0	1464860672	46	4769
2026-01-27 10:07:26.74	17.27	14.17	-38.0	-39.9	14.9	0.00e+00	0	63	0	1470103552	46	4764
2026-01-27 10:07:27.75	17.08	14.12	-38.0	-39.9	14.8	1.10e-06	0	63	0	1476395008	46	4805
2026-01-27 10:07:28.76	16.90	14.07	-37.8	-39.7	15.1	0.00e+00	0	63	0	1481637888	46	4660
2026-01-27 10:07:29.77	16.72	14.02	-37.9	-39.8	14.9	0.00e+00	0	63	0	1487929344	46	4711
2026-01-27 10:07:30.78	16.54	13.97	-38.0	-39.8	14.9	0.00e+00	0	63	0	1493172224	46	4750
2026-01-27 10:07:31.79	16.36	13.92	-38.1	-40.0	14.8	3.40e-06	0	63	0	1499463680	46	4828
2026-01-27 10:07:32.80	16.18	13.87	-38.0	-39.9	14.8	0.00e+00	0	63	0	1504706560	46	4800
2026-01-27 10:07:33.81	16.00	13.81	-38.0	-39.9	14.9	1.10e-06	0	63	0	1510998016	46	4767
2026-01-27 10:07:34.82	15.82	13.76	-37.9	-39.8	14.9	0.00e+00	0	63	0	1516240896	46	4726
2026-01-27 10:07:35.83	15.64	13.71	-37.9	-39.8	14.8	0.00e+00	0	63	0	1521483776	46	4751
2026-01-27 10:07:36.84	15.47	13.66	-37.8	-39.6	15.1	0.00e+00	0	63	0	1527775232	46	4620
2026-01-27 10:07:37.85	15.29	13.61	-37.9	-39.8	14.8	1.10e-06	0	63	0	1533018112	46	4746
2026-01-27 10:07:38.87	15.11	13.56	-38.0	-39.9	14.7	0.00e+00	0	63	0	1539309568	46	4803
2026-01-27 10:07:39.88	14.94	13.51	-38.1	-40.0	14.7	0.00e+00	0	63	0	1544552448	46	4836
2026-01-27 10:07:40.89	14.76	13.45	-38.2	-40.1	14.5	1.10e-06	0	63	0	1549795328	46	4920
2026-01-27 10:07:41.90	14.59	13.40	-38.1	-40.1	14.5	1.10e-06	0	63	0	1556086784	46	4914
2026-01-27 10:07:42.91	14.42	13.35	-38.1	-40.0	14.6	0.00e+00	0	64	0	1561329664	46	4852
2026-01-27 10:07:43.92	14.25	13.30	-37.9	-39.9	14.8	0.00e+00	0	63	0	1567621120	46	4766
2026-01-27 10:07:44.93	14.07	13.24	-37.9	-39.7	14.9	0.00e+00	0	63	0	1572864000	46	4690
2026-01-27 10:07:45.94	13.90	13.19	-37.9	-39.7	14.8	0.00e+00	0	63	0	1578106880	46	4693
2026-01-27 10:07:46.95	13.73	13.14	-37.8	-39.7	14.9	1.10e-06	0	63	0	1584398336	46	4665
2026-01-27 10:07:47.96	13.56	13.09	-38.0	-39.9	14.6	1.10e-06	0	63	0	1589641216	46	4779
2026-01-27 10:07:48.97	13.39	13.03	-38.0	-40.0	14.6	0.00e+00	0	63	0	1595932672	46	4825
2026-01-27 10:07:49.98	13.22	12.98	-38.1	-40.1	14.5	0.00e+00	0	63	0	1601175552	46	4877
2026-01-27 10:07:50.99	13.05	12.93	-38.1	-40.1	14.4	1.10e-06	0	63	0	1607467008	46	4916
2026-01-27 10:07:52.00	12.89	12.87	-38.2	-40.2	14.2	4.50e-06	0	64	0	1612709888	46	4981
2026-01-27 10:07:53.01	12.72	12.82	-38.1	-40.2	14.2	2.20e-06	0	63	0	1619001344	46	4933
2026-01-27 10:07:54.02	12.55	12.77	-38.1	-40.1	14.3	1.10e-06	0	63	0	1624244224	46	4901
2026-01-27 10:07:55.04	12.39	12.71	-38.2	-40.3	14.1	3.40e-06	0	63	0	1629487104	47	4714
2026-01-27 10:07:56.04	12.22	12.66	-38.3	-40.4	13.9	6.80e-06	0	63	0	1635778560	47	4777
2026-01-27 10:07:57.06	12.06	12.60	-38.4	-40.5	13.7	6.80e-06	0	63	0	1641021440	47	4852
2026-01-27 10:07:58.06	11.89	12.55	-38.3	-40.5	13.7	9.10e-06	0	63	0	1647312896	47	4833
2026-01-27 10:07:59.07	11.73	12.49	-38.4	-40.7	13.5	1.48e-05	0	63	0	1652555776	47	4931
2026-01-27 10:08:00.08	11.57	12.44	-38.4	-40.6	13.4	2.28e-05	0	63	0	1657798656	47	4924
2026-01-27 10:08:01.10	11.41	12.39	-38.3	-40.5	13.4	1.48e-05	0	63	0	1664090112	47	4857
2026-01-27 10:08:02.11	11.24	12.33	-38.2	-40.4	13.5	1.37e-05	0	63	0	1669332992	47	4787
2026-01-27 10:08:03.12	11.08	12.28	-38.2	-40.4	13.2	2.74e-05	0	63	0	1675624448	47	4813
2026-01-27 10:08:04.13	10.92	12.22	-38.2	-40.4	13.2	4.23e-05	0	63	0	1680867328	47	4804
2026-01-27 10:08:05.14	10.76	12.17	-38.0	-40.3	13.2	5.26e-05	0	63	0	1686110208	47	4721
2026-01-27 10:08:06.14	10.61	12.11	-38.0	-40.3	13.2	4.69e-05	0	63	0	1692401664	47	4723
2026-01-27 10:08:07.16	10.45	12.06	-38.0	-40.3	13.1	4.57e-05	0	63	0	1697644544	47	4736
2026-01-27 10:08:08.17	10.29	12.00	-37.9	-40.2	13.2	3.77e-05	0	63	0	1703936000	47	4675
2026-01-27 10:08:09.18	10.13	11.95	-37.9	-40.2	13.1	3.54e-05	0	63	0	1709178880	47	4702
2026-01-27 10:08:10.19	9.97	11.89	-38.1	-40.5	12.7	6.06e-05	0	63	0	1715470336	47	4838
2026-01-27 10:08:11.20	9.82	11.84	-38.4	-40.9	12.1	2.54e-04	0	63	0	1720713216	47	5083
2026-01-27 10:08:12.21	9.66	11.78	-38.4	-41.0	11.9	4.46e-04	0	63	0	1727004672	47	5149
2026-01-27 10:08:13.22	9.51	11.72	-38.5	-41.3	11.5	1.35e-03	0	63	0	1732247552	47	5305
2026-01-27 10:08:14.23	9.35	11.67	-39.0	-42.0	10.8	1.96e-03	0	63	0	1737490432	48	5426
2026-01-27 10:08:15.24	9.20	11.61	-39.4	-42.9	9.7	1.12e-02	0	63	0	1743781888	49	5701
2026-01-27 10:08:16.25	9.05	11.56	-39.5	-43.1	9.3	2.00e-02	0	63	0	1749024768	49	5836
2026-01-27 10:08:17.26	8.90	11.50	-40.0	-44.4	8.0	6.40e-02	0	63	0	1755316224	50	6364
2026-01-27 10:08:18.27	8.74	11.44	-40.3	-45.2	7.1	1.49e-01	0	63	0	1760559104	51	6604
2026-01-27 10:08:19.28	8.59	11.39	-40.3	-45.5	6.7	2.10e-01	0	63	0	1765801984	51	6855
2026-01-27 10:08:20.29	8.44	11.33	-40.5	-46.3	6.0	3.16e-01	0	63	0	1772093440	51	7497
2026-01-27 10:08:21.30	8.29	11.28	-40.7	-47.3	5.2	7.24e-01	0	63	0	1775239168	51	8369
2026-01-27 10:08:22.31	8.14	11.22	-40.7	-47.9	4.8	7.80e-01	0	63	0	1776287744	52	8496
2026-01-27 10:08:23.32	7.99	11.16	-40.6	-48.3	4.5	8.12e-01	0	63	0	1776287744	52	8946
2026-01-27 10:08:24.33	7.85	11.11	-40.5	-50.1	3.8	8.45e-01	0	63	104	1776287744	52	10924
2026-01-27 10:08:25.34	7.70	11.05	-41.5	-52.0	3.8	8.46e-01	0	63	104	1776287744	53	12923
2026-01-27 10:08:26.35	7.55	10.99	-41.3	-49.8	4.1	8.33e-01	0	63	0	1776287744	54	9393
2026-01-27 10:08:27.36	7.40	10.94	-40.4	-51.8	3.8	8.46e-01	0	64	104	1776287744	52	13339
2026-01-27 10:08:28.37	7.26	10.88	-41.3	-51.2	3.8	8.47e-01	0	63	104	1776287744	53	11811
2026-01-27 10:08:29.38	7.11	10.83	-41.2	-51.7	3.8	8.46e-01	0	63	104	1776287744	53	12397
2026-01-27 10:08:30.39	6.97	10.77	-41.2	-52.2	3.8	8.48e-01	0	63	104	1776287744	53	13185
2026-01-27 10:08:31.40	6.82	10.71	-41.5	-52.7	3.8	8.47e-01	0	63	104	1776287744	53	13951
2026-01-27 10:08:32.41	6.68	10.66	-40.8	-52.1	3.8	8.45e-01	0	63	104	1776287744	53	13069
2026-01-27 10:08:33.41	6.54	10.60	-40.0	-51.6	3.8	8.46e-01	0	63	104	1776287744	52	13018
2026-01-27 10:08:34.42	6.40	10.54	-40.1	-51.6	3.8	8.48e-01	0	63	104	1776287744	51	13820
2026-01-27 10:08:35.43	6.26	10.49	-40.1	-51.7	3.8	8.46e-01	0	63	104	1776287744	51	13916
2026-01-27 10:08:36.44	6.11	10.43	-40.1	-51.6	3.8	8.47e-01	0	63	104	1776287744	51	13770
2026-01-27 10:08:37.45	5.97	10.37	-40.0	-51.6	3.8	8.46e-01	0	63	104	1776287744	51	13766
2026-01-27 10:08:38.46	5.83	10.31	-40.0	-51.6	3.8	8.47e-01	0	63	104	1776287744	51	13772
2026-01-27 10:08:39.47	5.69	10.26	-40.0	-51.6	3.8	8.47e-01	0	63	104	1776287744	51	13732
2026-01-27 10:08:40.48	5.55	10.20	-40.3	-51.9	3.8	8.47e-01	0	63	104	1776287744	51	14229
2026-01-27 10:08:41.49	5.42	10.14	-40.3	-51.8	3.8	8.48e-01	0	63	104	1776287744	52	13381
2026-01-27 10:08:42.50	5.28	10.09	-40.0	-51.6	3.8	8.45e-01	0	63	104	1776287744	51	13757
2026-01-27 10:08:43.51	5.14	10.03	-40.1	-51.6	3.8	8.46e-01	0	63	104	1776287744	51	13792
2026-01-27 10:08:44.52	5.00	9.97	-40.0	-51.6	3.8	8.47e-01	0	63	104	1776287744	51	13735
2026-01-27 10:08:45.53	4.87	9.91	-40.0	-51.5	3.8	8.46e-01	0	63	104	1776287744	51	13681
2026-01-27 10:08:46.54	4.73	9.86	-39.9	-51.5	3.8	8.46e-01	0	63	104	1776287744	51	13677
2026-01-27 10:08:47.56	4.59	9.80	-39.9	-51.5	3.8	8.46e-01	0	63	104	1776287744	51	13611
2026-01-27 10:08:48.57	4.46	9.74	-40.2	-51.7	3.8	8.47e-01	0	63	104	1776287744	51	13970
2026-01-27 10:08:49.58	4.33	9.68	-40.2	-51.8	3.8	8.46e-01	0	63	104	1776287744	51	14056
2026-01-27 10:08:50.59	4.19	9.63	-40.1	-51.7	3.8	8.46e-01	0	63	104	1776287744	51	13930
2026-01-27 10:08:51.60	4.06	9.57	-40.3	-51.8	3.8	8.45e-01	0	63	104	1776287744	51	14198
2026-01-27 10:08:52.61	3.93	9.51	-40.1	-51.6	3.8	8.46e-01	0	63	104	1776287744	51	13872
2026-01-27 10:08:53.62	3.79	9.46	-40.0	-51.6	3.8	8.46e-01	0	63	104	1776287744	51	13862
2026-01-27 10:08:54.63	3.66	9.40	-40.1	-51.7	3.8	8.46e-01	0	63	104	1776287744	51	13923
2026-01-27 10:08:55.64	3.53	9.34	-40.2	-51.8	3.8	8.47e-01	0	63	104	1776287744	51	14105
2026-01-27 10:08:56.65	3.40	9.28	-40.1	-51.6	3.8	8.46e-01	0	63	104	1776287744	51	13869
2026-01-27 10:08:57.66	3.27	9.23	-40.0	-51.6	3.8	8.47e-01	0	63	104	1776287744	51	13728
2026-01-27 10:08:58.67	3.14	9.17	-40.1	-51.6	3.8	8.46e-01	0	63	104	1776287744	51	13829
2026-01-27 10:08:59.68	3.01	9.11	-40.1	-51.7	3.8	8.48e-01	0	64	104	1776287744	51	13938
2026-01-27 10:09:00.69	2.89	9.05	-40.0	-51.6	3.8	8.46e-01	0	64	104	1776287744	51	13729
2026-01-27 10:09:01.70	2.76	9.00	-40.0	-51.6	3.8	8.45e-01	0	63	104	1776287744	51	13745
2026-01-27 10:09:02.71	2.63	8.94	-40.0	-51.6	3.8	8.46e-01	0	63	104	1776287744	51	13761
2026-01-27 10:09:03.72	2.50	8.88	-40.1	-51.7	3.8	8.46e-01	0	63	104	1776287744	51	13930
2026-01-27 10:09:04.73	2.38	8.82	-40.0	-51.5	3.8	8.47e-01	0	64	104	1776287744	51	13706
2026-01-27 10:09:05.74	2.25	8.77	-40.1	-51.6	3.8	8.46e-01	0	64	104	1776287744	51	13855
2026-01-27 10:09:06.75	2.13	8.71	-40.0	-51.6	3.8	8.46e-01	0	64	104	1776287744	51	13770
2026-01-27 10:09:07.76	2.00	8.65	-40.1	-51.7	3.8	8.46e-01	0	64	104	1776287744	51	13917
2026-01-27 10:09:08.77	1.88	8.59	-40.1	-51.6	3.8	8.44e-01	0	63	104	1776287744	51	13871
2026-01-27 10:09:09.78	1.75	8.54	-40.0	-51.6	3.8	8.46e-01	0	64	104	1776287744	51	13768
2026-01-27 10:09:10.79	1.63	8.48	-40.1	-51.6	3.8	8.45e-01	0	63	104	1776287744	51	13813
2026-01-27 10:09:11.80	1.51	8.42	-40.1	-51.6	3.8	8.46e-01	0	63	104	1776287744	51	13831
2026-01-27 10:09:12.80	1.39	8.37	-40.1	-51.7	3.8	8.46e-01	0	63	104	1776287744	51	13889
2026-01-27 10:09:13.81	1.26	8.31	-40.0	-51.5	3.8	8.46e-01	0	64	104	1776287744	51	13708
2026-01-27 10:09:14.82	1.14	8.25	-40.1	-51.6	3.8	8.47e-01	0	64	104	1776287744	51	13853
2026-01-27 10:09:15.83	1.02	8.19	-40.0	-51.6	3.8	8.46e-01	0	64	104	1776287744	51	13781
2026-01-27 10:09:16.84	0.90	8.14	-40.0	-51.6	3.8	8.46e-01	0	64	104	1776287744	51	13791
2026-01-27 10:09:17.86	0.78	8.08	-40.0	-51.5	3.8	8.45e-01	0	63	104	1776287744	51	13693
2026-01-27 10:09:18.87	0.66	8.02	-40.0	-51.6	3.8	8.46e-01	0	64	104	1776287744	51	13773
2026-01-27 10:09:19.88	0.54	7.96	-40.1	-51.7	3.8	8.46e-01	0	63	104	1776287744	51	13968
2026-01-27 10:09:20.89	0.43	7.91	-44.1	-55.7	3.8	8.47e-01	0	63	104	1776287744	58	14784
2026-01-27 10:09:21.90	0.31	7.85	-44.8	-56.6	3.8	8.45e-01	0	63	104	1776287744	60	14661
2026-01-27 10:09:22.91	0.19	7.79	-45.0	-56.8	3.8	8.46e-01	0	63	104	1776287744	60	14964
2026-01-27 10:09:23.92	0.07	7.73	-45.0	-56.9	3.8	8.46e-01	0	63	104	1776287744	60	15218
2026-01-27 10:09:24.93	359.96	7.68	-45.2	-57.0	3.8	8.47e-01	0	63	104	1776287744	60	15296
2026-01-27 10:09:25.94	359.84	7.62	-45.3	-57.1	3.8	8.46e-01	0	64	104	1776287744	61	14545
2026-01-27 10:09:26.95	359.73	7.56	-45.3	-57.1	3.8	8.46e-01	0	64	104	1776287744	61	14641
2026-01-27 10:09:27.96	359.61	7.50	-45.3	-57.1	3.8	8.46e-01	0	64	104	1776287744	61	14594
2026-01-27 10:09:28.97	359.50	7.45	-45.3	-57.1	3.8	8.47e-01	0	63	104	1776287744	61	14564
2026-01-27 10:09:29.98	359.38	7.39	-45.2	-57.0	3.8	8.46e-01	0	63	104	1776287744	61	14454
2026-01-27 10:09:30.99	359.27	7.33	-45.2	-56.9	3.8	8.46e-01	0	63	104	1776287744	60	15161
2026-01-27 10:09:32.00	359.16	7.28	-45.1	-56.9	3.8	8.45e-01	0	64	104	1776287744	60	15080
2026-01-27 10:09:33.01	359.04	7.22	-45.1	-56.8	3.8	8.47e-01	0	64	104	1776287744	60	14982
2026-01-27 10:09:34.02	358.93	7.16	-45.0	-56.8	3.8	8.46e-01	0	64	104	1776287744	60	14957
2026-01-27 10:09:35.03	358.82	7.10	-45.0	-56.8	3.8	8.47e-01	0	63	104	1776287744	60	14915
2026-01-27 10:09:36.04	358.71	7.05	-45.0	-56.7	3.8	8.46e-01	0	64	104	1776287744	60	14812
2026-01-27 10:09:37.06	358.60	6.99	-45.0	-56.7	3.8	8.47e-01	0	63	104	1776287744	60	14855
2026-01-27 10:09:38.07	358.48	6.93	-45.0	-56.7	3.8	8.46e-01	0	64	104	1776287744	60	14812
2026-01-27 10:09:39.08	358.37	6.88	-45.1	-56.7	3.8	8.46e-01	0	64	104	1776287744	60	14827
2026-01-27 10:09:40.09	358.27	6.82	-45.1	-56.8	3.8	8.45e-01	0	63	104	1776287744	60	14901
2026-01-27 10:09:41.10	358.16	6.76	-45.0	-56.7	3.8	8.46e-01	0	64	104	1776287744	60	14842
2026-01-27 10:09:42.11	358.05	6.70	-45.0	-56.7	3.8	8.47e-01	0	63	104	1776287744	60	14840
2026-01-27 10:09:43.12	357.94	6.65	-45.0	-56.7	3.8	8.45e-01	0	64	104	1776287744	60	14856
2026-01-27 10:09:44.13	357.83	6.59	-45.1	-56.7	3.8	8.46e-01	0	64	104	1776287744	60	14842
2026-01-27 10:09:45.14	357.72	6.53	-45.0	-56.7	3.8	8.46e-01	0	63	104	1776287744	60	14777
2026-01-27 10:09:46.15	357.62	6.48	-45.0	-56.7	3.8	8.46e-01	0	63	104	1776287744	60	14833
2026-01-27 10:09:47.16	357.51	6.42	-45.0	-56.7	3.8	8.46e-01	0	64	104	1776287744	60	14775
2026-01-27 10:09:48.17	357.40	6.36	-45.0	-56.7	3.8	8.47e-01	0	64	104	1776287744	60	14810
2026-01-27 10:09:49.18	357.30	6.31	-45.0	-56.7	3.8	8.46e-01	0	64	104	1776287744	60	14849
2026-01-27 10:09:50.19	357.19	6.25	-45.0	-56.7	3.8	8.46e-01	0	64	104	1776287744	60	14798
2026-01-27 10:09:51.20	357.09	6.19	-44.7	-56.7	3.8	8.47e-01	0	63	104	1776287744	60	14814
2026-01-27 10:09:52.21	356.98	6.14	-45.0	-56.7	3.8	8.45e-01	0	64	104	1776287744	60	14789
2026-01-27 10:09:53.22	356.88	6.08	-44.9	-56.7	3.8	8.46e-01	0	64	104	1776287744	60	14846
2026-01-27 10:09:54.23	356.78	6.02	-45.0	-56.7	3.8	8.46e-01	0	64	104	1776287744	60	14835
2026-01-27 10:09:55.24	356.67	5.97	-45.0	-56.7	3.8	8.47e-01	0	63	104	1776287744	60	14836
2026-01-27 10:09:56.25	356.57	5.91	-45.0	-56.7	3.8	8.46e-01	0	63	104	1776287744	60	14864
2026-01-27 10:09:57.26	356.47	5.85	-45.0	-56.7	3.8	8.46e-01	0	64	104	1776287744	60	14846
2026-01-27 10:09:58.27	356.37	5.80	-45.0	-56.7	3.8	8.47e-01	0	63	104	1776287744	60	14814
2026-01-27 10:09:59.29	356.26	5.74	-45.0	-56.7	3.8	8.47e-01	0	63	104	1776287744	60	14836
2026-01-27 10:10:00.29	356.16	5.69	-45.0	-56.7	3.8	8.46e-01	0	64	104	1776287744	60	14809
2026-01-27 10:10:01.30	356.06	5.63	-45.0	-56.7	3.8	8.46e-01	0	63	104	1776287744	60	14758
2026-01-27 10:10:02.31	355.96	5.57	-45.0	-56.7	3.8	8.47e-01	0	64	104	1776287744	60	14823
2026-01-27 10:10:03.32	355.86	5.52	-45.0	-56.7	3.8	8.46e-01	0	64	104	1776287744	60	14772
2026-01-27 10:10:04.33	355.76	5.46	-45.0	-56.7	3.8	8.46e-01	0	64	104	1776287744	60	14782
2026-01-27 10:10:05.35	355.66	5.40	-45.0	-56.7	3.8	8.46e-01	0	64	104	1776287744	60	14800
2026-01-27 10:10:06.36	355.57	5.35	-45.0	-56.7	3.8	8.44e-01	0	63	104	1776287744	60	14805
2026-01-27 10:10:07.37	355.47	5.29	-45.0	-56.7	3.8	8.46e-01	0	63	104	1776287744	60	14834
2026-01-27 10:10:08.37	355.37	5.24	-45.0	-56.7	3.8	8.47e-01	0	64	104	1776287744	60	14871
2026-01-27 10:10:09.39	355.27	5.18	-45.0	-56.7	3.8	8.47e-01	0	64	104	1776287744	60	14845
2026-01-27 10:10:10.40	355.18	5.12	-45.0	-56.7	3.8	8.45e-01	0	64	104	1776287744	60	14763
2026-01-27 10:10:11.41	355.08	5.07	-45.0	-56.7	3.8	8.45e-01	0	64	104	1776287744	60	14796
2026-01-27 10:10:12.42	354.98	5.01	-45.0	-56.7	3.8	8.46e-01	0	64	104	1776287744	60	14815
2026-01-27 10:10:13.43	354.89	4.96	-45.0	-56.7	3.8	8.45e-01	0	64	104	1776287744	60	14843
2026-01-27 10:10:14.43	354.79	4.90	-44.8	-56.7	3.8	8.45e-01	0	64	104	1776287744	60	14793
2026-01-27 10:10:15.44	354.70	4.85	-45.0	-56.7	3.8	8.46e-01	0	64	104	1776287744	60	14801
2026-01-27 10:10:16.45	354.60	4.79	-45.0	-56.7	3.8	8.47e-01	0	64	104	1776287744	60	14810
2026-01-27 10:10:17.46	354.51	4.73	-45.0	-56.7	3.8	8.46e-01	0	64	104	1776287744	60	14814
2026-01-27 10:10:18.47	354.41	4.68	-45.0	-56.7	3.8	8.47e-01	0	64	104	1776287744	60	14787
2026-01-27 10:10:19.49	354.32	4.62	-45.0	-56.7	3.8	8.45e-01	0	64	104	1776287744	60	14806
2026-01-27 10:10:20.50	354.23	4.57	-45.0	-56.7	3.8	8.45e-01	0	63	104	1776287744	60	14727
2026-01-27 10:10:21.51	354.13	4.51	-45.0	-56.7	3.8	8.45e-01	0	64	104	1776287744	60	14779
2026-01-27 10:10:22.52	354.04	4.46	-45.0	-56.7	3.8	8.46e-01	0	63	104	1776287744	60	14811
2026-01-27 10:10:23.53	353.95	4.40	-45.0	-56.7	3.8	8.45e-01	0	63	104	1776287744	60	14830
2026-01-27 10:10:24.54	353.86	4.35	-45.0	-56.7	3.8	8.47e-01	0	64	104	1776287744	60	14735
2026-01-27 10:10:25.55	353.76	4.29	-45.0	-56.7	3.8	8.46e-01	0	63	104	1776287744	60	14802
2026-01-27 10:10:26.56	353.67	4.23	-45.0	-56.7	3.8	8.45e-01	0	64	104	1776287744	60	14761
2026-01-27 10:10:27.57	353.58	4.18	-45.0	-56.7	3.8	8.46e-01	0	63	104	1776287744	60	14727
2026-01-27 10:10:28.58	353.49	4.12	-45.0	-56.7	3.8	8.46e-01	0	64	104	1776287744	60	14790
2026-01-27 10:10:29.59	353.40	4.07	-45.0	-56.7	3.8	8.46e-01	0	64	104	1776287744	60	14717
2026-01-27 10:10:30.60	353.31	4.01	-45.0	-56.7	3.8	8.46e-01	0	64	104	1776287744	60	14844
2026-01-27 10:10:31.61	353.22	3.96	-44.8	-56.6	3.8	8.47e-01	0	64	104	1776287744	60	14703
2026-01-27 10:10:32.62	353.13	3.90	-45.0	-56.7	3.8	8.46e-01	0	64	104	1776287744	60	14750
2026-01-27 10:10:33.63	353.05	3.85	-45.0	-56.7	3.8	8.46e-01	0	64	104	1776287744	60	14734
2026-01-27 10:10:34.64	352.96	3.79	-45.0	-56.7	3.8	8.47e-01	0	63	104	1776287744	60	14737
2026-01-27 10:10:35.65	352.87	3.74	-45.0	-56.7	3.8	8.46e-01	0	64	104	1776287744	60	14771
2026-01-27 10:10:36.66	352.78	3.68	-44.9	-56.6	3.8	8.45e-01	0	64	104	1776287744	60	14700
2026-01-27 10:10:37.67	352.69	3.63	-45.0	-56.6	3.8	8.46e-01	0	64	104	1776287744	60	14692
2026-01-27 10:10:38.68	352.61	3.57	-45.0	-56.7	3.8	8.47e-01	0	64	104	1776287744	60	14729
2026-01-27 10:10:39.69	352.52	3.52	-45.0	-56.6	3.8	8.46e-01	0	64	104	1776287744	60	14707
2026-01-27 10:10:40.70	352.43	3.47	-45.0	-56.7	3.8	8.45e-01	0	64	104	1776287744	60	14748
2026-01-27 10:10:41.71	352.35	3.41	-45.0	-56.7	3.8	8.46e-01	0	64	104	1776287744	60	14746
2026-01-27 10:10:42.72	352.26	3.36	-45.0	-56.7	3.8	8.46e-01	0	64	104	1776287744	60	14760
2026-01-27 10:10:43.73	352.18	3.30	-44.0	-56.6	3.8	8.47e-01	0	64	104	1776287744	60	14679
2026-01-27 10:10:44.74	352.09	3.25	-45.0	-56.7	3.8	8.46e-01	0	63	104	1776287744	60	14749
2026-01-27 10:10:45.75	352.01	3.19	-44.9	-56.7	3.8	8.47e-01	0	64	104	1776287744	60	14772
2026-01-27 10:10:46.76	351.92	3.14	-45.0	-56.7	3.8	8.47e-01	0	63	104	1776287744	60	14733
2026-01-27 10:10:47.77	351.84	3.08	-44.9	-56.7	3.8	8.46e-01	0	64	104	1776287744	60	14713
2026-01-27 10:10:48.78	351.76	3.03	-45.0	-56.6	3.8	8.46e-01	0	63	104	1776287744	60	14668
2026-01-27 10:10:49.79	351.67	2.98	-44.6	-56.7	3.8	8.47e-01	0	64	104	1776287744	60	14755
2026-01-27 10:10:50.80	351.59	2.92	-44.9	-56.4	3.8	8.47e-01	0	64	104	1776287744	59	15221
2026-01-27 10:10:51.81	351.51	2.87	-45.0	-56.7	3.8	8.47e-01	0	64	104	1776287744	60	14791
2026-01-27 10:10:52.82	351.43	2.81	-44.6	-56.5	3.8	8.46e-01	0	63	104	1776287744	59	15315
2026-01-27 10:10:53.83	351.34	2.76	-44.8	-56.6	3.8	8.45e-01	0	63	104	1776287744	60	14687
2026-01-27 10:10:54.84	351.26	2.71	-45.0	-56.6	3.8	8.46e-01	0	64	104	1776287744	60	14674
2026-01-27 10:10:55.85	351.18	2.65	-45.0	-56.7	3.8	8.47e-01	0	64	104	1776287744	60	14736
2026-01-27 10:10:56.86	351.10	2.60	-44.8	-56.7	3.8	8.46e-01	0	63	104	1776287744	60	14772
2026-01-27 10:10:57.88	351.02	2.54	-44.0	-56.5	3.8	8.46e-01	0	64	104	1776287744	59	15251
2026-01-27 10:10:58.89	350.94	2.49	-44.9	-56.7	3.8	8.46e-01	0	64	104	1776287744	60	14740
2026-01-27 10:10:59.90	350.86	2.44	-45.0	-56.7	3.8	8.46e-01	0	64	104	1776287744	60	14735
2026-01-27 10:11:00.91	350.78	2.38	-45.0	-56.6	3.8	8.47e-01	0	64	104	1776287744	60	14690
2026-01-27 10:11:01.92	350.70	2.33	-45.0	-56.7	3.8	8.47e-01	0	64	104	1776287744	60	14723
2026-01-27 10:11:02.93	350.62	2.28	-44.6	-56.6	3.8	8.46e-01	0	64	104	1776287744	60	14681
2026-01-27 10:11:03.94	350.54	2.22	-44.9	-56.7	3.8	8.46e-01	0	64	104	1776287744	60	14746
2026-01-27 10:11:04.95	350.46	2.17	-45.0	-56.7	3.8	8.46e-01	0	64	104	1776287744	60	14718
2026-01-27 10:11:05.96	350.38	2.12	-45.0	-56.6	3.8	8.45e-01	0	63	104	1776287744	60	14702
2026-01-27 10:11:06.97	350.30	2.06	-45.0	-56.6	3.8	8.45e-01	0	64	104	1776287744	60	14673
2026-01-27 10:11:07.98	350.23	2.01	-44.9	-56.6	3.8	8.46e-01	0	64	104	1776287744	60	14675
2026-01-27 10:11:08.99	350.15	1.96	-45.0	-56.7	3.8	8.45e-01	0	64	104	1776287744	60	14716

#Closed at: 2026-01-27 10:11:09
#Recorded file [1776 MB]: D:/lorett/data/31039_260127_130106.dat