passes_logs/2026/01/27/R2.0S_Moscow/R2.0S_Moscow__20260127_113725_FENGYUN_3D_rec.log

#Pass ID: 20260127_113725_FENGYUN 3D
#Satellite: FENGYUN 3D
#Configuration: FENGYUN 3D
#almurnet v.1.7.20251203
#Start time: 2026-01-27 11:38:59

#Version: 2.2.20231116
#Station: R2.0S_Moscow
#Location: 37.707566 lon 55.798166 lat
#TLE: 1 43010U 17072A   26026.91415486  .00000072  00000+0  55983-4 0  9991
#TLE: 2 43010  98.9962 358.9161 0002508  89.0320 271.1142 14.19700283424949

#Time	Az	El	Level	Level2	SNR	BER	BlckErr	Temp	State	Recorded	gain1	gain2
2026-01-27 11:38:59.97	148.14	8.88	-46.1	-64.6	3.8	7.46e-01	0	62	0	0	62	32740
2026-01-27 11:39:00.97	148.11	8.96	-45.5	-57.3	3.8	8.45e-01	0	62	104	0	62	14092
2026-01-27 11:39:01.99	148.09	9.04	-45.5	-57.2	3.8	8.45e-01	0	62	104	0	62	14041
2026-01-27 11:39:02.99	148.07	9.13	-45.4	-57.2	3.8	8.46e-01	0	62	104	0	62	14026
2026-01-27 11:39:04.00	148.04	9.21	-45.4	-57.1	3.8	8.46e-01	0	62	104	0	62	13858
2026-01-27 11:39:05.01	148.02	9.30	-45.2	-57.0	3.8	8.45e-01	0	62	104	0	62	13674
2026-01-27 11:39:06.03	148.00	9.38	-44.9	-56.7	3.8	8.46e-01	0	62	104	0	61	14021
2026-01-27 11:39:07.04	147.97	9.47	-44.8	-56.4	3.8	8.46e-01	0	62	104	0	60	14234
2026-01-27 11:39:08.05	147.95	9.55	-44.3	-55.8	3.8	8.46e-01	0	62	104	0	60	13371
2026-01-27 11:39:09.06	147.92	9.64	-44.6	-55.5	3.8	8.47e-01	0	62	104	0	59	13625
2026-01-27 11:39:10.07	147.90	9.73	-44.6	-55.5	3.8	8.46e-01	0	62	104	0	59	13668
2026-01-27 11:39:11.08	147.87	9.81	-44.6	-55.4	3.8	8.46e-01	0	62	104	0	59	13491
2026-01-27 11:39:12.09	147.85	9.90	-44.6	-55.4	3.8	8.46e-01	0	62	104	0	59	13468
2026-01-27 11:39:13.10	147.82	9.99	-44.6	-55.3	3.8	8.46e-01	0	62	104	0	59	13374
2026-01-27 11:39:14.11	147.80	10.08	-44.6	-55.4	3.8	8.45e-01	0	62	104	0	59	13450
2026-01-27 11:39:15.12	147.77	10.16	-44.5	-55.3	3.8	8.46e-01	0	62	104	0	59	13344
2026-01-27 11:39:16.13	147.75	10.25	-44.6	-55.2	3.8	8.46e-01	0	63	104	0	59	13175
2026-01-27 11:39:17.14	147.72	10.34	-44.4	-55.1	3.8	8.46e-01	0	62	104	0	59	12995
2026-01-27 11:39:18.15	147.70	10.43	-44.6	-55.3	3.8	8.46e-01	0	62	104	0	59	13295
2026-01-27 11:39:19.16	147.67	10.52	-44.6	-55.2	3.8	8.46e-01	0	62	104	0	59	13226
2026-01-27 11:39:20.17	147.64	10.61	-44.5	-55.1	3.8	8.46e-01	0	62	104	0	59	13004
2026-01-27 11:39:21.18	147.62	10.70	-44.5	-55.1	3.8	8.46e-01	0	62	104	0	59	12997
2026-01-27 11:39:22.19	147.59	10.79	-44.5	-55.0	3.8	8.46e-01	0	62	104	0	59	12901
2026-01-27 11:39:23.20	147.56	10.88	-44.5	-54.9	3.8	8.45e-01	0	62	104	0	59	12762
2026-01-27 11:39:24.21	147.54	10.97	-44.5	-54.9	3.8	8.46e-01	0	62	104	0	59	12710
2026-01-27 11:39:25.22	147.51	11.06	-44.5	-54.7	3.8	8.46e-01	0	62	104	0	59	12477
2026-01-27 11:39:26.24	147.48	11.15	-44.5	-54.5	3.8	8.46e-01	0	62	104	0	59	12199
2026-01-27 11:39:27.25	147.46	11.24	-44.4	-54.2	3.8	8.43e-01	0	62	104	0	59	11709
2026-01-27 11:39:28.26	147.43	11.34	-44.3	-53.6	3.9	8.44e-01	0	62	104	0	59	11002
2026-01-27 11:39:29.27	147.40	11.43	-44.3	-53.1	4.1	8.43e-01	0	62	104	0	59	10319
2026-01-27 11:39:30.28	147.37	11.52	-44.1	-52.3	4.3	8.36e-01	0	62	0	0	59	9410
2026-01-27 11:39:31.29	147.34	11.61	-44.0	-51.5	4.6	8.18e-01	0	62	0	0	58	9166
2026-01-27 11:39:32.30	147.32	11.71	-43.9	-50.9	4.9	7.89e-01	0	62	0	0	58	8479
2026-01-27 11:39:33.31	147.29	11.80	-43.6	-50.2	5.2	7.52e-01	0	62	0	0	57	8305
2026-01-27 11:39:34.32	147.26	11.90	-43.5	-49.7	5.6	6.91e-01	0	62	0	0	57	7884
2026-01-27 11:39:35.33	147.23	11.99	-43.4	-49.4	5.9	4.03e-01	0	62	0	5242880	57	7551
2026-01-27 11:39:36.34	147.20	12.09	-43.3	-48.9	6.2	3.48e-01	0	62	0	10485760	57	7150
2026-01-27 11:39:37.35	147.17	12.18	-43.2	-48.6	6.4	2.80e-01	0	62	0	15728640	57	6952
2026-01-27 11:39:38.36	147.14	12.28	-43.1	-48.6	6.5	2.14e-01	0	62	0	22020096	56	7327
2026-01-27 11:39:39.37	147.11	12.37	-42.5	-48.4	6.3	3.06e-01	0	62	0	27262976	56	7185
2026-01-27 11:39:40.38	147.08	12.47	-43.2	-48.8	6.2	3.05e-01	0	62	0	32505856	57	7109
2026-01-27 11:39:41.39	147.05	12.57	-43.3	-49.1	6.1	3.47e-01	0	62	0	37748736	57	7303
2026-01-27 11:39:42.40	147.02	12.66	-43.3	-49.3	5.8	4.46e-01	0	62	0	44040192	57	7488
2026-01-27 11:39:43.42	146.99	12.76	-43.3	-49.6	5.6	6.83e-01	0	62	0	46137344	57	7736
2026-01-27 11:39:44.43	146.96	12.86	-43.0	-49.3	5.8	5.94e-01	0	62	0	50331648	57	7514
2026-01-27 11:39:45.44	146.93	12.96	-43.1	-49.0	6.1	4.81e-01	0	62	0	54525952	57	7238
2026-01-27 11:39:46.45	146.89	13.06	-42.9	-48.2	6.8	2.58e-01	0	62	0	60817408	56	6985
2026-01-27 11:39:47.46	146.86	13.16	-41.6	-46.6	7.9	1.57e-01	0	62	0	66060288	55	6192
2026-01-27 11:39:48.47	146.83	13.26	-41.7	-45.5	9.2	3.74e-02	0	62	0	71303168	55	5461
2026-01-27 11:39:49.48	146.80	13.35	-41.2	-44.5	10.2	1.28e-02	0	62	0	77594624	53	5456
2026-01-27 11:39:50.49	146.77	13.46	-40.6	-43.6	11.2	2.42e-03	0	62	0	82837504	53	4880
2026-01-27 11:39:51.50	146.73	13.56	-40.1	-42.8	12.0	7.19e-04	0	62	0	89128960	52	4719
2026-01-27 11:39:52.51	146.70	13.66	-39.8	-42.3	12.6	1.65e-04	0	62	0	94371840	51	4736
2026-01-27 11:39:53.52	146.67	13.76	-39.7	-42.1	12.8	1.42e-03	0	62	0	100663296	50	4896
2026-01-27 11:39:54.53	146.63	13.86	-43.8	-51.8	4.0	2.66e-01	0	62	104	105906176	59	8952
2026-01-27 11:39:55.54	146.60	13.96	-43.9	-50.7	5.1	8.38e-01	0	62	0	105906176	59	7828
2026-01-27 11:39:56.55	146.57	14.07	-39.5	-41.8	8.0	8.09e-01	0	62	104	105906176	51	4469
2026-01-27 11:39:57.56	146.53	14.17	-39.0	-41.3	13.9	3.40e-06	0	62	0	109051904	48	5003
2026-01-27 11:39:58.58	146.50	14.27	-38.6	-40.7	14.2	2.66e-04	0	62	0	115343360	47	4970
2026-01-27 11:39:59.59	146.46	14.38	-40.5	-43.4	11.3	1.31e-01	0	62	0	120586240	53	4762
2026-01-27 11:40:00.59	146.43	14.48	-38.5	-40.6	14.3	2.74e-05	0	62	0	126877696	48	4628
2026-01-27 11:40:01.61	146.39	14.59	-38.0	-40.0	14.8	2.08e-04	0	62	0	132120576	47	4582
2026-01-27 11:40:02.61	146.36	14.69	-37.8	-39.8	15.0	0.00e+00	0	62	0	138412032	46	4715
2026-01-27 11:40:03.62	146.32	14.80	-37.9	-39.8	15.0	0.00e+00	0	62	0	143654912	46	4758
2026-01-27 11:40:04.63	146.29	14.90	-37.9	-39.8	15.0	1.02e-05	0	62	0	149946368	46	4728
2026-01-27 11:40:05.64	146.25	15.01	-37.7	-39.6	14.9	0.00e+00	0	62	0	155189248	46	4611
2026-01-27 11:40:06.65	146.21	15.12	-37.5	-39.5	15.3	1.25e-05	0	62	0	160432128	46	4550
2026-01-27 11:40:07.66	146.18	15.22	-37.4	-39.4	15.3	5.49e-05	0	62	0	166723584	46	4526
2026-01-27 11:40:08.67	146.14	15.33	-37.3	-39.3	15.3	9.15e-05	0	62	0	171966464	46	4489
2026-01-27 11:40:09.68	146.10	15.44	-37.3	-39.2	15.3	5.19e-04	0	62	0	178257920	46	4430
2026-01-27 11:40:10.69	146.06	15.55	-37.2	-39.2	15.5	9.10e-06	0	62	0	183500800	46	4395
2026-01-27 11:40:11.70	146.03	15.66	-37.3	-39.1	15.8	2.20e-06	0	62	0	188743680	46	4356
2026-01-27 11:40:12.71	145.99	15.77	-37.4	-39.2	15.7	2.20e-06	0	62	0	195035136	46	4394
2026-01-27 11:40:13.72	145.95	15.88	-37.4	-39.2	15.7	1.10e-06	0	62	0	200278016	46	4406
2026-01-27 11:40:14.73	145.91	15.99	-37.2	-39.0	15.9	1.10e-06	0	62	0	206569472	46	4307
2026-01-27 11:40:15.74	145.87	16.10	-37.3	-39.1	15.8	6.17e-05	0	62	0	211812352	45	4614
2026-01-27 11:40:16.75	145.83	16.22	-37.0	-38.8	16.0	1.10e-06	0	62	0	217055232	45	4480
2026-01-27 11:40:17.76	145.79	16.33	-37.1	-38.9	16.1	0.00e+00	0	62	0	223346688	45	4502
2026-01-27 11:40:18.77	145.75	16.44	-37.2	-39.0	15.9	2.20e-06	0	62	0	228589568	45	4568
2026-01-27 11:40:19.78	145.71	16.55	-37.1	-39.0	15.9	1.02e-05	0	62	0	234881024	45	4549
2026-01-27 11:40:20.80	145.67	16.67	-37.1	-38.9	16.0	1.10e-06	0	62	0	240123904	45	4510
2026-01-27 11:40:21.80	145.63	16.78	-37.1	-38.8	16.1	0.00e+00	0	63	0	246415360	45	4471
2026-01-27 11:40:22.81	145.59	16.90	-36.9	-38.8	16.0	1.10e-06	0	62	0	251658240	45	4485
2026-01-27 11:40:23.82	145.55	17.01	-37.2	-39.1	15.8	0.00e+00	0	62	0	256901120	45	4632
2026-01-27 11:40:24.83	145.50	17.13	-37.4	-39.2	15.7	2.20e-06	0	62	0	263192576	45	4679
2026-01-27 11:40:25.85	145.46	17.25	-37.4	-39.3	15.5	1.10e-06	0	62	0	268435456	45	4716
2026-01-27 11:40:26.86	145.42	17.36	-37.2	-39.0	16.0	0.00e+00	0	62	0	274726912	45	4549
2026-01-27 11:40:27.87	145.38	17.48	-37.2	-39.0	16.0	0.00e+00	0	62	0	279969792	45	4552
2026-01-27 11:40:28.88	145.33	17.60	-37.2	-39.0	15.9	0.00e+00	0	62	0	286261248	45	4548
2026-01-27 11:40:29.89	145.29	17.72	-37.2	-39.0	15.9	1.10e-06	0	62	0	291504128	45	4583
2026-01-27 11:40:30.90	145.24	17.84	-37.2	-39.0	15.9	0.00e+00	0	62	0	296747008	45	4575
2026-01-27 11:40:31.91	145.20	17.96	-37.2	-38.9	16.1	0.00e+00	0	62	0	303038464	45	4525
2026-01-27 11:40:32.92	145.15	18.08	-36.9	-38.6	16.3	0.00e+00	0	62	0	308281344	45	4378
2026-01-27 11:40:33.93	145.11	18.20	-36.7	-38.4	16.6	3.40e-06	0	62	0	314572800	45	4261
2026-01-27 11:40:34.94	145.06	18.32	-36.7	-38.3	16.6	0.00e+00	0	62	0	319815680	45	4230
2026-01-27 11:40:35.95	145.02	18.44	-36.8	-38.5	16.5	0.00e+00	0	62	0	325058560	45	4320
2026-01-27 11:40:36.96	144.97	18.57	-36.8	-38.5	16.5	0.00e+00	0	62	0	331350016	45	4327
2026-01-27 11:40:37.96	144.92	18.69	-36.9	-38.5	16.4	0.00e+00	0	63	0	336592896	45	4340
2026-01-27 11:40:38.97	144.88	18.81	-36.8	-38.5	16.5	0.00e+00	0	62	0	342884352	45	4327
2026-01-27 11:40:39.98	144.83	18.94	-36.9	-38.6	16.4	0.00e+00	0	62	0	348127232	45	4370
2026-01-27 11:40:40.99	144.78	19.06	-36.9	-38.6	16.4	0.00e+00	0	62	0	354418688	45	4359
2026-01-27 11:40:42.00	144.73	19.19	-36.7	-38.4	16.6	0.00e+00	0	62	0	359661568	45	4269
2026-01-27 11:40:43.01	144.68	19.32	-36.8	-38.4	16.6	0.00e+00	0	62	0	364904448	45	4284
2026-01-27 11:40:44.02	144.63	19.44	-36.8	-38.5	16.5	0.00e+00	0	62	0	371195904	45	4313
2026-01-27 11:40:45.03	144.58	19.57	-36.9	-38.6	16.5	1.10e-06	0	62	0	376438784	45	4341
2026-01-27 11:40:46.04	144.53	19.70	-36.7	-38.4	16.6	0.00e+00	0	62	0	382730240	45	4270
2026-01-27 11:40:47.05	144.48	19.83	-36.7	-38.4	16.6	0.00e+00	0	62	0	387973120	45	4262
2026-01-27 11:40:48.06	144.43	19.96	-36.8	-38.5	16.6	0.00e+00	0	62	0	393216000	45	4302
2026-01-27 11:40:49.07	144.38	20.09	-36.8	-38.5	16.5	0.00e+00	0	62	0	399507456	45	4326
2026-01-27 11:40:50.08	144.33	20.22	-36.7	-38.4	16.6	0.00e+00	0	62	0	404750336	45	4269
2026-01-27 11:40:51.10	144.27	20.35	-36.8	-38.4	16.6	0.00e+00	0	62	0	411041792	45	4284
2026-01-27 11:40:52.11	144.22	20.49	-36.8	-38.5	16.6	0.00e+00	0	62	0	416284672	45	4295
2026-01-27 11:40:53.12	144.17	20.62	-36.8	-38.4	16.6	0.00e+00	0	62	0	421527552	45	4274
2026-01-27 11:40:54.13	144.11	20.75	-36.7	-38.4	16.7	0.00e+00	0	62	0	427819008	45	4266
2026-01-27 11:40:55.14	144.06	20.89	-36.8	-38.5	16.6	0.00e+00	0	63	0	433061888	45	4295
2026-01-27 11:40:56.15	144.00	21.02	-36.7	-38.3	16.7	0.00e+00	0	62	0	439353344	45	4236
2026-01-27 11:40:57.16	143.95	21.16	-36.7	-38.3	16.7	0.00e+00	0	62	0	444596224	45	4230
2026-01-27 11:40:58.17	143.89	21.29	-36.7	-38.4	16.7	0.00e+00	0	62	0	450887680	45	4260
2026-01-27 11:40:59.18	143.84	21.43	-36.6	-38.3	16.8	0.00e+00	0	63	0	456130560	45	4219
2026-01-27 11:41:00.19	143.78	21.57	-36.6	-38.3	16.8	0.00e+00	0	62	0	462422016	45	4211
2026-01-27 11:41:01.20	143.72	21.71	-36.6	-38.2	16.8	0.00e+00	0	62	0	467664896	45	4190
2026-01-27 11:41:02.21	143.66	21.85	-36.4	-38.0	17.0	0.00e+00	0	62	0	472907776	44	4327
2026-01-27 11:41:03.22	143.60	21.99	-36.3	-37.8	17.2	0.00e+00	0	62	0	479199232	44	4240
2026-01-27 11:41:04.23	143.54	22.13	-36.2	-37.8	17.2	0.00e+00	0	62	0	484442112	44	4220
2026-01-27 11:41:05.24	143.48	22.27	-36.2	-37.8	17.3	0.00e+00	0	62	0	490733568	44	4204
2026-01-27 11:41:06.25	143.42	22.41	-36.2	-37.8	17.3	0.00e+00	0	62	0	495976448	44	4207
2026-01-27 11:41:07.26	143.36	22.56	-36.3	-37.8	17.3	0.00e+00	0	62	0	501219328	44	4239
2026-01-27 11:41:08.27	143.30	22.70	-36.2	-37.8	17.3	0.00e+00	0	62	0	507510784	44	4215
2026-01-27 11:41:09.28	143.24	22.84	-36.3	-37.9	17.2	0.00e+00	0	62	0	512753664	44	4280
2026-01-27 11:41:10.29	143.18	22.99	-36.3	-37.9	17.2	0.00e+00	0	62	0	519045120	44	4277
2026-01-27 11:41:11.30	143.11	23.14	-36.4	-37.9	17.1	0.00e+00	0	62	0	524288000	44	4287
2026-01-27 11:41:12.31	143.05	23.28	-36.3	-37.8	17.3	0.00e+00	0	62	0	529530880	44	4241
2026-01-27 11:41:13.32	142.98	23.43	-36.3	-37.9	17.2	0.00e+00	0	62	0	535822336	44	4244
2026-01-27 11:41:14.33	142.92	23.58	-36.1	-37.6	17.5	0.00e+00	0	62	0	541065216	44	4142
2026-01-27 11:41:15.34	142.85	23.73	-36.0	-37.6	17.5	0.00e+00	0	62	0	547356672	44	4111
2026-01-27 11:41:16.35	142.78	23.88	-36.0	-37.5	17.6	0.00e+00	0	62	0	552599552	44	4086
2026-01-27 11:41:17.36	142.72	24.03	-36.0	-37.6	17.6	0.00e+00	0	62	0	558891008	44	4105
2026-01-27 11:41:18.37	142.65	24.18	-36.0	-37.5	17.6	0.00e+00	0	62	0	564133888	44	4075
2026-01-27 11:41:19.38	142.58	24.34	-36.0	-37.5	17.6	0.00e+00	0	63	0	570425344	44	4091
2026-01-27 11:41:20.40	142.51	24.49	-35.8	-37.3	17.7	0.00e+00	0	62	0	575668224	43	4222
2026-01-27 11:41:21.41	142.44	24.65	-35.8	-37.3	17.6	0.00e+00	0	62	0	580911104	43	4236
2026-01-27 11:41:22.41	142.37	24.80	-35.8	-37.3	17.7	0.00e+00	0	62	0	587202560	43	4221
2026-01-27 11:41:23.43	142.30	24.96	-35.9	-37.4	17.6	0.00e+00	0	62	0	592445440	43	4251
2026-01-27 11:41:24.44	142.23	25.11	-35.8	-37.3	17.7	0.00e+00	0	62	0	598736896	43	4200
2026-01-27 11:41:25.45	142.15	25.27	-35.9	-37.4	17.6	0.00e+00	0	62	0	603979776	43	4258
2026-01-27 11:41:26.46	142.08	25.43	-35.7	-37.1	17.8	0.00e+00	0	62	0	609222656	43	4143
2026-01-27 11:41:27.47	142.00	25.59	-35.5	-37.0	18.0	0.00e+00	0	62	0	615514112	43	4057
2026-01-27 11:41:28.48	141.93	25.75	-35.5	-36.9	18.0	0.00e+00	0	62	0	620756992	42	4275
2026-01-27 11:41:29.49	141.85	25.91	-35.5	-37.0	18.0	0.00e+00	0	62	0	627048448	42	4302
2026-01-27 11:41:30.50	141.78	26.08	-35.6	-37.0	18.0	0.00e+00	0	62	0	632291328	42	4318
2026-01-27 11:41:31.51	141.70	26.24	-35.5	-37.0	18.0	0.00e+00	0	62	0	637534208	42	4309
2026-01-27 11:41:32.52	141.62	26.40	-35.6	-37.0	18.0	0.00e+00	0	62	0	643825664	42	4326
2026-01-27 11:41:33.53	141.54	26.57	-35.6	-37.1	18.0	0.00e+00	0	62	0	649068544	42	4346
2026-01-27 11:41:34.55	141.46	26.74	-35.6	-37.0	18.0	0.00e+00	0	62	0	655360000	42	4327
2026-01-27 11:41:35.56	141.38	26.90	-35.7	-37.1	17.8	0.00e+00	0	62	0	660602880	42	4386
2026-01-27 11:41:36.57	141.29	27.07	-35.7	-37.2	17.8	0.00e+00	0	62	0	666894336	42	4427
2026-01-27 11:41:37.58	141.21	27.24	-35.7	-37.2	17.8	0.00e+00	0	63	0	672137216	42	4424
2026-01-27 11:41:38.59	141.13	27.41	-35.7	-37.2	17.8	0.00e+00	0	62	0	678428672	42	4426
2026-01-27 11:41:39.60	141.04	27.58	-35.7	-37.2	17.8	0.00e+00	0	62	0	683671552	42	4418
2026-01-27 11:41:40.61	140.96	27.76	-35.7	-37.1	17.9	0.00e+00	0	62	0	688914432	42	4385
2026-01-27 11:41:41.62	140.87	27.93	-35.6	-37.1	17.9	0.00e+00	0	62	0	695205888	42	4361
2026-01-27 11:41:42.63	140.78	28.10	-35.4	-36.9	18.1	0.00e+00	0	62	0	700448768	42	4260
2026-01-27 11:41:43.64	140.69	28.28	-35.4	-36.9	18.1	0.00e+00	0	62	0	706740224	42	4246
2026-01-27 11:41:44.65	140.60	28.46	-35.4	-36.8	18.2	0.00e+00	0	62	0	711983104	42	4218
2026-01-27 11:41:45.67	140.51	28.63	-35.4	-36.8	18.2	0.00e+00	0	62	0	717225984	42	4223
2026-01-27 11:41:46.68	140.42	28.81	-35.5	-36.9	18.1	0.00e+00	0	63	0	723517440	42	4280
2026-01-27 11:41:47.69	140.33	28.99	-35.3	-36.8	18.2	0.00e+00	0	62	0	728760320	42	4212
2026-01-27 11:41:48.70	140.23	29.17	-35.3	-36.8	18.3	0.00e+00	0	62	0	735051776	42	4197
2026-01-27 11:41:49.71	140.14	29.36	-35.4	-36.8	18.2	0.00e+00	0	62	0	740294656	42	4215
2026-01-27 11:41:50.72	140.04	29.54	-35.3	-36.8	18.2	0.00e+00	0	62	0	745537536	42	4194
2026-01-27 11:41:51.73	139.94	29.72	-35.3	-36.7	18.3	0.00e+00	0	62	0	751828992	42	4185
2026-01-27 11:41:52.74	139.85	29.91	-35.3	-36.7	18.3	0.00e+00	0	62	0	757071872	42	4181
2026-01-27 11:41:53.75	139.75	30.09	-35.4	-36.8	18.2	0.00e+00	0	62	0	763363328	42	4208
2026-01-27 11:41:54.76	139.65	30.28	-35.2	-36.6	18.4	0.00e+00	0	62	0	768606208	42	4129
2026-01-27 11:41:55.77	139.54	30.47	-35.2	-36.6	18.4	0.00e+00	0	62	0	774897664	42	4122
2026-01-27 11:41:56.78	139.44	30.66	-35.2	-36.6	18.4	0.00e+00	0	62	0	780140544	42	4143
2026-01-27 11:41:57.79	139.34	30.85	-35.2	-36.6	18.4	0.00e+00	0	62	0	786432000	42	4114
2026-01-27 11:41:58.80	139.23	31.04	-35.1	-36.5	18.5	0.00e+00	0	62	0	791674880	42	4091
2026-01-27 11:41:59.82	139.12	31.23	-35.1	-36.5	18.5	0.00e+00	0	62	0	796917760	42	4093
2026-01-27 11:42:00.82	139.01	31.43	-35.1	-36.5	18.5	0.00e+00	0	62	0	803209216	42	4065
2026-01-27 11:42:01.83	138.90	31.62	-35.1	-36.5	18.5	0.00e+00	0	62	0	808452096	42	4059
2026-01-27 11:42:02.85	138.79	31.82	-35.2	-36.6	18.5	0.00e+00	0	62	0	814743552	42	4103
2026-01-27 11:42:03.86	138.68	32.02	-35.0	-36.4	18.6	0.00e+00	0	62	0	819986432	42	4048
2026-01-27 11:42:04.87	138.57	32.22	-35.0	-36.4	18.6	0.00e+00	0	62	0	825229312	42	4034
2026-01-27 11:42:05.88	138.45	32.42	-35.0	-36.4	18.6	0.00e+00	0	62	0	831520768	42	4029
2026-01-27 11:42:06.89	138.33	32.62	-34.9	-36.3	18.7	0.00e+00	0	62	0	836763648	41	4207
2026-01-27 11:42:07.90	138.22	32.82	-34.9	-36.3	18.6	0.00e+00	0	62	0	843055104	41	4228
2026-01-27 11:42:08.91	138.10	33.02	-34.9	-36.3	18.6	0.00e+00	0	62	0	848297984	41	4240
2026-01-27 11:42:09.92	137.97	33.23	-34.9	-36.3	18.7	0.00e+00	0	62	0	853540864	41	4207
2026-01-27 11:42:10.93	137.85	33.43	-35.0	-36.4	18.6	0.00e+00	0	62	0	859832320	41	4272
2026-01-27 11:42:11.94	137.73	33.64	-35.1	-36.5	18.5	0.00e+00	0	63	0	865075200	41	4335
2026-01-27 11:42:12.95	137.60	33.85	-35.2	-36.7	18.4	0.00e+00	0	62	0	871366656	41	4404
2026-01-27 11:42:13.96	137.47	34.06	-35.2	-36.6	18.4	0.00e+00	0	62	0	876609536	41	4372
2026-01-27 11:42:14.97	137.34	34.27	-35.2	-36.6	18.4	0.00e+00	0	62	0	882900992	41	4358
2026-01-27 11:42:15.98	137.21	34.48	-35.1	-36.5	18.5	0.00e+00	0	62	0	888143872	41	4316
2026-01-27 11:42:16.99	137.08	34.70	-35.0	-36.4	18.6	0.00e+00	0	62	0	894435328	41	4275
2026-01-27 11:42:18.00	136.94	34.91	-34.9	-36.3	18.7	0.00e+00	0	62	0	899678208	41	4216
2026-01-27 11:42:19.01	136.81	35.13	-34.9	-36.2	18.8	0.00e+00	0	62	0	904921088	41	4188
2026-01-27 11:42:20.02	136.67	35.35	-34.8	-36.1	18.9	0.00e+00	0	62	0	911212544	41	4126
2026-01-27 11:42:21.03	136.53	35.56	-34.7	-36.0	18.9	0.00e+00	0	62	0	916455424	41	4096
2026-01-27 11:42:22.04	136.39	35.78	-34.8	-36.1	18.9	0.00e+00	0	62	0	922746880	41	4129
2026-01-27 11:42:23.05	136.24	36.01	-34.8	-36.2	18.8	0.00e+00	0	62	0	927989760	41	4158
2026-01-27 11:42:24.06	136.09	36.23	-34.9	-36.3	18.8	0.00e+00	0	62	0	933232640	41	4202
2026-01-27 11:42:25.07	135.95	36.45	-35.0	-36.4	18.7	0.00e+00	0	62	0	939524096	41	4245
2026-01-27 11:42:26.08	135.80	36.68	-35.0	-36.4	18.7	0.00e+00	0	62	0	944766976	41	4254
2026-01-27 11:42:27.09	135.64	36.90	-35.2	-36.6	18.4	0.00e+00	0	62	0	951058432	41	4363
2026-01-27 11:42:28.10	135.49	37.13	-35.2	-36.6	18.4	0.00e+00	0	62	0	956301312	41	4375
2026-01-27 11:42:29.11	135.33	37.36	-35.2	-36.7	18.4	0.00e+00	0	62	0	961544192	41	4394
2026-01-27 11:42:30.12	135.17	37.59	-35.2	-36.7	18.4	0.00e+00	0	62	0	967835648	41	4397
2026-01-27 11:42:31.13	135.01	37.82	-35.2	-36.6	18.4	0.00e+00	0	62	0	973078528	41	4368
2026-01-27 11:42:32.14	134.85	38.06	-35.2	-36.6	18.5	0.00e+00	0	62	0	979369984	41	4356
2026-01-27 11:42:33.15	134.68	38.29	-35.2	-36.6	18.5	0.00e+00	0	62	0	984612864	41	4358
2026-01-27 11:42:34.16	134.51	38.53	-35.2	-36.6	18.5	0.00e+00	0	62	0	990904320	41	4352
2026-01-27 11:42:35.17	134.34	38.77	-35.2	-36.6	18.5	0.00e+00	0	62	0	996147200	41	4374
2026-01-27 11:42:36.18	134.17	39.01	-35.1	-36.5	18.6	0.00e+00	0	62	0	1002438656	41	4300
2026-01-27 11:42:37.20	133.99	39.25	-35.1	-36.4	18.6	0.00e+00	0	62	0	1007681536	41	4278
2026-01-27 11:42:38.21	133.81	39.49	-34.9	-36.3	18.8	0.00e+00	0	62	0	1012924416	41	4203
2026-01-27 11:42:39.22	133.63	39.73	-34.9	-36.3	18.8	0.00e+00	0	62	0	1019215872	41	4217
2026-01-27 11:42:40.23	133.44	39.98	-35.1	-36.5	18.6	0.00e+00	0	62	0	1024458752	41	4322
2026-01-27 11:42:41.24	133.25	40.22	-35.2	-36.7	18.4	0.00e+00	0	62	0	1030750208	41	4392
2026-01-27 11:42:42.25	133.06	40.47	-35.3	-36.8	18.3	0.00e+00	0	62	0	1035993088	41	4446
2026-01-27 11:42:43.26	132.87	40.72	-35.3	-36.8	18.3	0.00e+00	0	62	0	1041235968	41	4450
2026-01-27 11:42:44.27	132.67	40.97	-35.3	-36.7	18.4	0.00e+00	0	62	0	1047527424	41	4403
2026-01-27 11:42:45.28	132.47	41.22	-35.2	-36.6	18.5	0.00e+00	0	62	0	1052770304	41	4378
2026-01-27 11:42:46.29	132.27	41.47	-35.3	-36.7	18.3	0.00e+00	0	62	0	1059061760	41	4436
2026-01-27 11:42:47.30	132.06	41.72	-35.3	-36.8	18.3	0.00e+00	0	62	0	1064304640	41	4453
2026-01-27 11:42:48.31	131.86	41.98	-35.4	-36.8	18.2	0.00e+00	0	62	0	1069547520	41	4483
2026-01-27 11:42:49.32	131.64	42.24	-35.4	-36.8	18.2	0.00e+00	0	62	0	1075838976	41	4479
2026-01-27 11:42:50.33	131.43	42.49	-35.4	-36.8	18.2	0.00e+00	0	62	0	1081081856	41	4492
2026-01-27 11:42:51.34	131.21	42.75	-35.5	-36.9	18.1	0.00e+00	0	62	0	1087373312	41	4531
2026-01-27 11:42:52.35	130.98	43.01	-35.6	-37.0	18.1	0.00e+00	0	62	0	1092616192	41	4579
2026-01-27 11:42:53.36	130.76	43.27	-35.6	-37.1	18.0	0.00e+00	0	62	0	1098907648	41	4623
2026-01-27 11:42:54.37	130.53	43.54	-35.7	-37.1	18.0	0.00e+00	0	62	0	1104150528	41	4643
2026-01-27 11:42:55.38	130.29	43.80	-35.6	-37.1	18.0	0.00e+00	0	62	0	1110441984	41	4622
2026-01-27 11:42:56.39	130.05	44.07	-35.7	-37.2	17.9	0.00e+00	0	62	0	1115684864	41	4671
2026-01-27 11:42:57.41	129.81	44.34	-35.8	-37.2	17.9	0.00e+00	0	62	0	1120927744	42	4430
2026-01-27 11:42:58.42	129.56	44.60	-35.7	-37.1	18.1	0.00e+00	0	62	0	1127219200	42	4360
2026-01-27 11:42:59.43	129.31	44.87	-35.4	-36.8	18.4	0.00e+00	0	62	0	1132462080	42	4202
2026-01-27 11:43:00.44	129.05	45.14	-35.3	-36.7	18.5	0.00e+00	0	62	0	1138753536	42	4153
2026-01-27 11:43:01.45	128.79	45.41	-35.4	-36.8	18.4	0.00e+00	0	62	0	1143996416	42	4218
2026-01-27 11:43:02.46	128.53	45.69	-35.5	-36.9	18.2	0.00e+00	0	63	0	1149239296	42	4291
2026-01-27 11:43:03.47	128.26	45.96	-35.6	-37.1	18.1	0.00e+00	0	62	0	1155530752	42	4342
2026-01-27 11:43:04.48	127.99	46.24	-35.6	-37.1	18.1	0.00e+00	0	62	0	1160773632	42	4351
2026-01-27 11:43:05.49	127.71	46.51	-35.7	-37.2	18.0	0.00e+00	0	62	0	1167065088	42	4398
2026-01-27 11:43:06.50	127.42	46.79	-35.7	-37.1	18.0	0.00e+00	0	62	0	1172307968	42	4387
2026-01-27 11:43:07.51	127.14	47.07	-35.5	-36.9	18.2	0.00e+00	0	62	0	1177550848	42	4282
2026-01-27 11:43:08.52	126.84	47.35	-35.5	-36.9	18.2	0.00e+00	0	62	0	1183842304	42	4258
2026-01-27 11:43:09.53	126.54	47.63	-35.6	-37.0	18.1	0.00e+00	0	62	0	1189085184	42	4328
2026-01-27 11:43:10.54	126.24	47.91	-35.8	-37.3	17.9	0.00e+00	0	62	0	1195376640	42	4447
2026-01-27 11:43:11.56	125.92	48.19	-35.9	-37.4	17.8	0.00e+00	0	62	0	1200619520	42	4515
2026-01-27 11:43:12.57	125.61	48.48	-35.9	-37.4	17.8	0.00e+00	0	62	0	1206910976	42	4516
2026-01-27 11:43:13.58	125.28	48.76	-35.9	-37.4	17.8	0.00e+00	0	62	0	1212153856	42	4499
2026-01-27 11:43:14.59	124.96	49.04	-35.9	-37.3	17.9	0.00e+00	0	62	0	1218445312	42	4465
2026-01-27 11:43:15.60	124.62	49.33	-35.8	-37.3	17.9	0.00e+00	0	62	0	1223688192	42	4464
2026-01-27 11:43:16.61	124.28	49.62	-36.3	-37.9	17.3	0.00e+00	0	62	0	1228931072	43	4495
2026-01-27 11:43:17.62	123.93	49.90	-36.5	-38.1	17.1	0.00e+00	0	62	0	1235222528	43	4622
2026-01-27 11:43:18.63	123.58	50.19	-36.5	-38.1	17.1	0.00e+00	0	62	0	1240465408	43	4626
2026-01-27 11:43:19.64	123.22	50.48	-36.4	-38.0	17.2	0.00e+00	0	62	0	1246756864	43	4585
2026-01-27 11:43:20.65	122.85	50.77	-36.3	-37.8	17.3	0.00e+00	0	62	0	1251999744	43	4476
2026-01-27 11:43:21.66	122.47	51.06	-36.3	-37.9	17.3	0.00e+00	0	62	0	1257242624	43	4508
2026-01-27 11:43:22.67	122.09	51.35	-36.3	-37.8	17.4	0.00e+00	0	62	0	1263534080	43	4451
2026-01-27 11:43:23.68	121.70	51.64	-36.1	-37.6	17.6	0.00e+00	0	62	0	1268776960	43	4355
2026-01-27 11:43:24.69	121.30	51.93	-35.9	-37.4	17.8	0.00e+00	0	62	0	1275068416	43	4250
2026-01-27 11:43:25.70	120.90	52.22	-35.9	-37.3	17.8	0.00e+00	0	62	0	1280311296	43	4227
2026-01-27 11:43:26.71	120.49	52.51	-35.9	-37.3	17.9	0.00e+00	0	62	0	1285554176	43	4233
2026-01-27 11:43:27.72	120.06	52.80	-36.1	-37.5	17.7	0.00e+00	0	63	0	1291845632	43	4328
2026-01-27 11:43:28.73	119.63	53.09	-36.4	-38.0	17.3	0.00e+00	0	62	0	1297088512	43	4558
2026-01-27 11:43:29.75	119.19	53.38	-36.5	-38.1	17.1	0.00e+00	0	62	0	1303379968	43	4634
2026-01-27 11:43:30.76	118.74	53.68	-36.4	-38.0	17.2	0.00e+00	0	62	0	1308622848	43	4549
2026-01-27 11:43:31.77	118.28	53.97	-36.3	-37.8	17.4	0.00e+00	0	63	0	1314914304	43	4453
2026-01-27 11:43:32.78	117.82	54.26	-36.2	-37.7	17.5	0.00e+00	0	62	0	1320157184	43	4415
2026-01-27 11:43:33.79	117.34	54.55	-36.1	-37.6	17.6	0.00e+00	0	62	0	1326448640	43	4343
2026-01-27 11:43:34.80	116.85	54.84	-35.9	-37.3	17.9	0.00e+00	0	62	0	1331691520	43	4233
2026-01-27 11:43:35.81	116.36	55.13	-36.0	-37.4	17.8	0.00e+00	0	62	0	1336934400	43	4275
2026-01-27 11:43:36.82	115.85	55.42	-36.2	-37.7	17.6	0.00e+00	0	62	0	1343225856	43	4393
2026-01-27 11:43:37.83	115.33	55.70	-36.3	-37.9	17.3	0.00e+00	0	62	0	1348468736	43	4513
2026-01-27 11:43:38.84	114.81	55.99	-36.4	-37.9	17.3	0.00e+00	0	62	0	1354760192	43	4526
2026-01-27 11:43:39.86	114.26	56.28	-36.4	-37.9	17.4	0.00e+00	0	62	0	1360003072	43	4510
2026-01-27 11:43:40.87	113.71	56.56	-36.3	-37.8	17.4	0.00e+00	0	62	0	1365245952	43	4469
2026-01-27 11:43:41.88	113.15	56.85	-36.4	-38.0	17.2	0.00e+00	0	62	0	1371537408	43	4573
2026-01-27 11:43:42.89	112.58	57.13	-36.3	-37.9	17.3	0.00e+00	0	63	0	1376780288	43	4506
2026-01-27 11:43:43.90	111.99	57.41	-36.1	-37.6	17.6	0.00e+00	0	62	0	1383071744	43	4344
2026-01-27 11:43:44.91	111.40	57.69	-36.0	-37.5	17.7	0.00e+00	0	62	0	1388314624	43	4314
2026-01-27 11:43:45.92	110.79	57.97	-36.0	-37.5	17.6	0.00e+00	0	62	0	1393557504	43	4322
2026-01-27 11:43:46.93	110.16	58.25	-35.9	-37.3	17.8	0.00e+00	0	62	0	1399848960	43	4241
2026-01-27 11:43:47.94	109.53	58.52	-35.8	-37.3	17.9	0.00e+00	0	62	0	1405091840	43	4199
2026-01-27 11:43:48.95	108.88	58.79	-35.9	-37.4	17.8	0.00e+00	0	62	0	1411383296	43	4245
2026-01-27 11:43:49.96	108.21	59.06	-36.1	-37.5	17.6	0.00e+00	0	62	0	1416626176	43	4337
2026-01-27 11:43:50.97	107.54	59.33	-36.1	-37.7	17.5	0.00e+00	0	62	0	1422917632	43	4396
2026-01-27 11:43:51.98	106.85	59.59	-35.9	-37.3	17.9	0.00e+00	0	63	0	1428160512	43	4227
2026-01-27 11:43:52.99	106.14	59.86	-35.7	-37.0	18.2	0.00e+00	0	62	0	1434451968	43	4093
2026-01-27 11:43:54.00	105.42	60.12	-35.7	-37.1	18.1	0.00e+00	0	62	0	1439694848	43	4133
2026-01-27 11:43:55.01	104.69	60.37	-35.8	-37.3	17.9	0.00e+00	0	62	0	1444937728	43	4203
2026-01-27 11:43:56.02	103.94	60.63	-35.5	-36.9	18.2	0.00e+00	0	63	0	1451229184	43	4042
2026-01-27 11:43:57.03	103.18	60.87	-35.5	-36.9	18.2	0.00e+00	0	62	0	1456472064	42	4280
2026-01-27 11:43:58.04	102.40	61.12	-35.7	-37.1	18.1	0.00e+00	0	63	0	1462763520	42	4371
2026-01-27 11:43:59.05	101.61	61.36	-35.7	-37.1	18.0	0.00e+00	0	62	0	1468006400	42	4384
2026-01-27 11:44:00.06	100.80	61.60	-35.6	-37.0	18.1	0.00e+00	0	62	0	1473249280	42	4336
2026-01-27 11:44:01.07	99.97	61.83	-35.5	-36.9	18.3	0.00e+00	0	62	0	1479540736	42	4248
2026-01-27 11:44:02.08	99.13	62.06	-35.5	-36.9	18.3	0.00e+00	0	62	0	1484783616	42	4248
2026-01-27 11:44:03.09	98.28	62.29	-35.3	-36.7	18.4	0.00e+00	0	62	0	1491075072	42	4176
2026-01-27 11:44:04.10	97.40	62.51	-35.2	-36.6	18.6	0.00e+00	0	62	0	1496317952	42	4099
2026-01-27 11:44:05.11	96.52	62.72	-35.0	-36.3	18.8	0.00e+00	0	63	0	1501560832	42	3972
2026-01-27 11:44:06.12	95.61	62.93	-35.1	-36.5	18.7	0.00e+00	0	62	0	1507852288	41	4292
2026-01-27 11:44:07.14	94.68	63.14	-35.1	-36.5	18.6	0.00e+00	0	62	0	1513095168	41	4325
2026-01-27 11:44:08.15	93.75	63.33	-35.1	-36.5	18.7	0.00e+00	0	62	0	1519386624	41	4298
2026-01-27 11:44:09.16	92.80	63.53	-35.2	-36.6	18.6	0.00e+00	0	62	0	1524629504	41	4369
2026-01-27 11:44:10.17	91.83	63.71	-35.1	-36.5	18.7	0.00e+00	0	62	0	1530920960	41	4302
2026-01-27 11:44:11.18	90.85	63.89	-34.9	-36.2	18.9	0.00e+00	0	62	0	1536163840	41	4169
2026-01-27 11:44:12.19	89.85	64.07	-34.6	-35.9	19.2	0.00e+00	0	62	0	1542455296	41	4036
2026-01-27 11:44:13.20	88.84	64.23	-34.7	-36.0	19.1	0.00e+00	0	63	0	1547698176	41	4058
2026-01-27 11:44:14.21	87.81	64.39	-35.0	-36.3	18.7	0.00e+00	0	62	0	1552941056	41	4235
2026-01-27 11:44:15.22	86.77	64.54	-35.2	-36.6	18.5	0.00e+00	0	62	0	1559232512	41	4349
2026-01-27 11:44:16.23	85.72	64.69	-34.9	-36.2	18.8	0.00e+00	0	62	0	1564475392	41	4186
2026-01-27 11:44:17.24	84.65	64.83	-35.1	-36.4	18.6	0.00e+00	0	62	0	1570766848	41	4281
2026-01-27 11:44:18.25	83.57	64.96	-34.8	-36.1	18.9	0.00e+00	0	62	0	1576009728	41	4141
2026-01-27 11:44:19.26	82.48	65.08	-34.4	-35.6	19.3	0.00e+00	0	62	0	1581252608	40	4140
2026-01-27 11:44:20.27	81.38	65.19	-34.3	-35.6	19.4	0.00e+00	0	62	0	1587544064	40	4119
2026-01-27 11:44:21.28	80.26	65.30	-34.5	-35.8	19.3	0.00e+00	0	62	0	1592786944	40	4197
2026-01-27 11:44:22.29	79.14	65.39	-34.7	-36.0	19.0	0.00e+00	0	62	0	1599078400	40	4313
2026-01-27 11:44:23.30	78.01	65.48	-34.7	-36.0	19.0	0.00e+00	0	62	0	1604321280	40	4339
2026-01-27 11:44:24.31	76.86	65.56	-34.3	-35.6	19.5	0.00e+00	0	63	0	1609564160	40	4105
2026-01-27 11:44:25.32	75.71	65.63	-34.2	-35.4	19.6	0.00e+00	0	62	0	1615855616	40	4036
2026-01-27 11:44:26.34	74.55	65.70	-34.2	-35.5	19.5	0.00e+00	0	62	0	1621098496	40	4071
2026-01-27 11:44:27.35	73.38	65.75	-34.3	-35.5	19.4	0.00e+00	0	62	0	1627389952	40	4093
2026-01-27 11:44:28.36	72.21	65.79	-34.3	-35.6	19.4	0.00e+00	0	63	0	1632632832	40	4139
2026-01-27 11:44:29.37	71.04	65.83	-34.4	-35.6	19.3	0.00e+00	0	63	0	1638924288	40	4142
2026-01-27 11:44:30.38	69.86	65.85	-34.3	-35.6	19.4	0.00e+00	0	62	0	1644167168	40	4105
2026-01-27 11:44:31.39	68.69	65.87	-34.5	-35.8	19.2	0.00e+00	0	62	0	1650458624	40	4199
2026-01-27 11:44:32.40	67.51	65.88	-34.7	-36.0	19.0	0.00e+00	0	62	0	1655701504	40	4312
2026-01-27 11:44:33.41	66.33	65.88	-34.6	-35.9	19.1	0.00e+00	0	62	0	1660944384	40	4258
2026-01-27 11:44:34.42	65.15	65.86	-34.6	-35.9	19.1	0.00e+00	0	62	0	1667235840	40	4280
2026-01-27 11:44:35.43	63.97	65.84	-34.5	-35.8	19.2	0.00e+00	0	62	0	1672478720	40	4203
2026-01-27 11:44:36.44	62.80	65.81	-34.5	-35.8	19.2	0.00e+00	0	62	0	1678770176	40	4218
2026-01-27 11:44:37.45	61.63	65.77	-34.4	-35.7	19.3	0.00e+00	0	62	0	1684013056	40	4177
2026-01-27 11:44:38.46	60.46	65.73	-34.4	-35.7	19.3	0.00e+00	0	62	0	1689255936	40	4185
2026-01-27 11:44:39.47	59.30	65.67	-34.4	-35.7	19.3	0.00e+00	0	62	0	1695547392	40	4178
2026-01-27 11:44:40.48	58.15	65.60	-34.4	-35.7	19.4	0.00e+00	0	63	0	1700790272	40	4155
2026-01-27 11:44:41.49	57.00	65.53	-34.2	-35.4	19.6	0.00e+00	0	62	0	1707081728	40	4027
2026-01-27 11:44:42.51	55.85	65.44	-34.2	-35.4	19.6	0.00e+00	0	62	0	1712324608	40	4030
2026-01-27 11:44:43.52	54.72	65.35	-34.3	-35.6	19.4	0.00e+00	0	62	0	1717567488	40	4132
2026-01-27 11:44:44.53	53.60	65.25	-34.6	-35.9	19.1	0.00e+00	0	62	0	1723858944	40	4260
2026-01-27 11:44:45.54	52.50	65.14	-34.4	-35.7	19.3	0.00e+00	0	62	0	1729101824	40	4185
2026-01-27 11:44:46.55	51.40	65.02	-34.3	-35.6	19.4	0.00e+00	0	62	0	1735393280	40	4119
2026-01-27 11:44:47.56	50.31	64.89	-34.6	-35.9	19.1	0.00e+00	0	62	0	1740636160	40	4260
2026-01-27 11:44:48.57	49.24	64.76	-35.0	-36.4	18.6	0.00e+00	0	62	0	1746927616	40	4495
2026-01-27 11:44:49.58	48.18	64.62	-34.9	-36.3	18.7	0.00e+00	0	62	0	1752170496	40	4448
2026-01-27 11:44:50.59	47.14	64.47	-35.0	-36.4	18.6	0.00e+00	0	62	0	1758461952	40	4516
2026-01-27 11:44:51.60	46.10	64.32	-35.1	-36.4	18.6	0.00e+00	0	62	0	1763704832	40	4542
2026-01-27 11:44:52.61	45.09	64.15	-34.9	-36.3	18.8	0.00e+00	0	62	0	1768947712	40	4462
2026-01-27 11:44:53.62	44.08	63.98	-34.9	-36.2	18.8	0.00e+00	0	62	0	1775239168	40	4441
2026-01-27 11:44:54.64	43.08	63.81	-35.1	-36.4	18.6	0.00e+00	0	63	0	1780482048	40	4535
2026-01-27 11:44:55.65	42.11	63.62	-34.9	-36.3	18.8	0.00e+00	0	62	0	1786773504	40	4467
2026-01-27 11:44:56.66	41.15	63.43	-34.9	-36.2	18.8	0.00e+00	0	62	0	1792016384	40	4438
2026-01-27 11:44:57.67	40.21	63.24	-34.7	-36.0	19.0	0.00e+00	0	63	0	1797259264	40	4318
2026-01-27 11:44:58.68	39.28	63.04	-34.9	-36.2	18.8	0.00e+00	0	63	0	1803550720	40	4426
2026-01-27 11:44:59.69	38.37	62.83	-35.3	-36.7	18.4	0.00e+00	0	62	0	1808793600	41	4403
2026-01-27 11:45:00.70	37.48	62.62	-35.5	-37.0	18.1	0.00e+00	0	62	0	1815085056	41	4548
2026-01-27 11:45:01.71	36.60	62.40	-35.1	-36.4	18.6	0.00e+00	0	62	0	1820327936	41	4285
2026-01-27 11:45:02.72	35.74	62.18	-34.9	-36.2	18.9	0.00e+00	0	62	0	1825570816	41	4160
2026-01-27 11:45:03.73	34.89	61.96	-35.0	-36.4	18.7	0.00e+00	0	62	0	1831862272	41	4250
2026-01-27 11:45:04.74	34.06	61.73	-35.1	-36.5	18.6	0.00e+00	0	62	0	1837105152	41	4312
2026-01-27 11:45:05.75	33.24	61.49	-35.0	-36.4	18.7	0.00e+00	0	63	0	1843396608	41	4260
2026-01-27 11:45:06.76	32.44	61.25	-35.1	-36.4	18.6	0.00e+00	0	62	0	1848639488	41	4289
2026-01-27 11:45:07.77	31.65	61.01	-35.3	-36.7	18.4	0.00e+00	0	62	0	1854930944	41	4419
2026-01-27 11:45:08.79	30.88	60.76	-35.6	-37.1	17.9	0.00e+00	0	63	0	1860173824	41	4627
2026-01-27 11:45:09.79	30.13	60.51	-35.6	-37.1	17.9	0.00e+00	0	63	0	1866465280	41	4637
2026-01-27 11:45:10.80	29.39	60.26	-35.6	-37.1	18.0	0.00e+00	0	62	0	1871708160	41	4626
2026-01-27 11:45:11.81	28.66	60.00	-35.8	-37.2	17.9	0.00e+00	0	62	0	1876951040	42	4419
2026-01-27 11:45:12.83	27.95	59.74	-35.7	-37.2	17.9	0.00e+00	0	62	0	1883242496	42	4398
2026-01-27 11:45:13.84	27.25	59.47	-35.7	-37.2	17.9	0.00e+00	0	62	0	1888485376	42	4394
2026-01-27 11:45:14.85	26.57	59.21	-35.7	-37.2	17.9	0.00e+00	0	63	0	1894776832	42	4400
2026-01-27 11:45:15.86	25.90	58.94	-35.5	-36.9	18.2	0.00e+00	0	62	0	1900019712	42	4268
2026-01-27 11:45:16.87	25.25	58.67	-35.5	-36.9	18.3	0.00e+00	0	63	0	1905262592	42	4267
2026-01-27 11:45:17.88	24.60	58.40	-35.5	-36.9	18.2	0.00e+00	0	63	0	1911554048	42	4270
2026-01-27 11:45:18.89	23.98	58.12	-35.6	-37.0	18.2	0.00e+00	0	63	0	1916796928	42	4297
2026-01-27 11:45:19.90	23.36	57.85	-35.7	-37.2	18.0	0.00e+00	0	62	0	1923088384	42	4392
2026-01-27 11:45:20.91	22.76	57.57	-36.0	-37.5	17.6	0.00e+00	0	62	0	1928331264	42	4563
2026-01-27 11:45:21.92	22.17	57.29	-36.0	-37.5	17.6	0.00e+00	0	63	0	1933574144	42	4568
2026-01-27 11:45:22.93	21.59	57.01	-35.8	-37.3	17.8	0.00e+00	0	62	0	1939865600	42	4452
2026-01-27 11:45:23.94	21.02	56.73	-35.9	-37.3	17.8	0.00e+00	0	62	0	1945108480	42	4480
2026-01-27 11:45:24.95	20.47	56.44	-35.9	-37.4	17.7	0.00e+00	0	62	0	1951399936	42	4516
2026-01-27 11:45:25.96	19.92	56.16	-35.7	-37.1	18.0	0.00e+00	0	62	0	1956642816	42	4355
2026-01-27 11:45:26.97	19.39	55.87	-35.6	-37.0	18.1	0.00e+00	0	62	0	1962934272	42	4306
2026-01-27 11:45:27.99	18.86	55.58	-35.8	-37.2	17.9	0.00e+00	0	62	0	1968177152	42	4407
2026-01-27 11:45:29.00	18.35	55.29	-36.1	-37.6	17.6	0.00e+00	0	63	0	1974468608	42	4614
2026-01-27 11:45:30.01	17.85	55.01	-36.2	-37.8	17.4	0.00e+00	0	62	0	1979711488	43	4450
2026-01-27 11:45:31.02	17.36	54.72	-36.1	-37.5	17.6	0.00e+00	0	62	0	1984954368	43	4337
2026-01-27 11:45:32.03	16.88	54.43	-35.8	-37.2	18.0	0.00e+00	0	62	0	1991245824	43	4159
2026-01-27 11:45:33.04	16.41	54.14	-35.6	-37.0	18.1	0.00e+00	0	62	0	1996488704	43	4081
2026-01-27 11:45:34.04	15.95	53.85	-35.7	-37.1	18.0	0.00e+00	0	62	0	2002780160	43	4135
2026-01-27 11:45:35.06	15.50	53.56	-36.0	-37.5	17.7	0.00e+00	0	62	0	2008023040	43	4296
2026-01-27 11:45:36.07	15.06	53.27	-36.0	-37.5	17.7	0.00e+00	0	63	0	2013265920	43	4307
2026-01-27 11:45:37.07	14.63	52.98	-36.1	-37.6	17.6	0.00e+00	0	62	0	2019557376	43	4353
2026-01-27 11:45:38.08	14.20	52.69	-36.0	-37.4	17.7	0.00e+00	0	62	0	2024800256	43	4283
2026-01-27 11:45:39.09	13.78	52.40	-36.1	-37.6	17.5	0.00e+00	0	63	0	2031091712	43	4356
2026-01-27 11:45:40.11	13.37	52.11	-36.0	-37.4	17.7	0.00e+00	0	62	0	2036334592	43	4289
2026-01-27 11:45:41.12	12.97	51.82	-36.0	-37.4	17.7	0.00e+00	0	62	0	2041577472	43	4268
2026-01-27 11:45:42.13	12.58	51.53	-36.1	-37.5	17.6	0.00e+00	0	62	0	2047868928	43	4330
2026-01-27 11:45:43.14	12.19	51.24	-36.2	-37.7	17.4	0.00e+00	0	62	0	2053111808	43	4416
2026-01-27 11:45:44.15	11.81	50.95	-36.2	-37.8	17.3	0.00e+00	0	63	0	2059403264	43	4445
2026-01-27 11:45:45.16	11.44	50.66	-36.2	-37.7	17.4	0.00e+00	0	62	0	2064646144	43	4401
2026-01-27 11:45:46.17	11.08	50.38	-36.1	-37.6	17.5	0.00e+00	0	62	0	2070937600	43	4352
2026-01-27 11:45:47.18	10.72	50.09	-36.0	-37.4	17.6	0.00e+00	0	62	0	2076180480	43	4279
2026-01-27 11:45:48.19	10.37	49.80	-35.7	-37.1	17.9	0.00e+00	0	63	0	2082471936	43	4136
2026-01-27 11:45:49.20	10.03	49.52	-35.5	-36.9	18.1	0.00e+00	0	62	0	2087714816	43	4045
2026-01-27 11:45:50.21	9.69	49.23	-35.7	-37.2	17.9	0.00e+00	0	62	0	2092957696	43	4155
2026-01-27 11:45:51.23	9.35	48.95	-35.7	-37.2	17.9	0.00e+00	0	62	0	2099249152	43	4161
2026-01-27 11:45:52.24	9.03	48.66	-35.8	-37.2	17.9	0.00e+00	0	62	0	2104492032	43	4179
2026-01-27 11:45:53.25	8.71	48.38	-35.5	-37.0	18.1	0.00e+00	0	63	0	2110783488	43	4060
2026-01-27 11:45:54.26	8.40	48.10	-35.5	-36.9	18.2	0.00e+00	0	62	0	2116026368	42	4261
2026-01-27 11:45:55.27	8.09	47.82	-35.6	-36.9	18.3	0.00e+00	0	62	0	2121269248	42	4290
2026-01-27 11:45:56.28	7.79	47.54	-35.6	-36.9	18.5	0.00e+00	0	62	0	2127560704	42	4252
2026-01-27 11:45:57.29	7.49	47.26	-35.4	-36.7	18.6	0.00e+00	0	62	0	2132803584	42	4189
2026-01-27 11:45:58.30	7.20	46.98	-35.2	-36.5	18.8	0.00e+00	0	62	0	2139095040	42	4069
2026-01-27 11:45:59.31	6.92	46.71	-35.1	-36.3	18.9	0.00e+00	0	62	0	2144337920	42	3996
2026-01-27 11:46:00.32	6.64	46.43	-35.0	-36.3	19.0	0.00e+00	0	63	0	2149580800	42	3960
2026-01-27 11:46:01.33	6.36	46.16	-35.1	-36.3	19.0	0.00e+00	0	62	0	2155872256	42	3979
2026-01-27 11:46:02.34	6.09	45.88	-35.3	-36.6	18.7	0.00e+00	0	62	0	2161115136	42	4129
2026-01-27 11:46:03.35	5.82	45.61	-35.5	-36.8	18.5	0.00e+00	0	62	0	2167406592	42	4229
2026-01-27 11:46:04.36	5.56	45.34	-35.6	-36.9	18.4	0.00e+00	0	62	0	2172649472	42	4264
2026-01-27 11:46:05.37	5.30	45.07	-35.5	-36.7	18.5	0.00e+00	0	62	0	2178940928	42	4188
2026-01-27 11:46:06.38	5.05	44.80	-35.3	-36.5	18.7	0.00e+00	0	62	0	2184183808	42	4093
2026-01-27 11:46:07.39	4.80	44.53	-35.3	-36.6	18.7	0.00e+00	0	62	0	2190475264	42	4116
2026-01-27 11:46:08.40	4.56	44.27	-35.4	-36.8	18.5	0.00e+00	0	62	0	2195718144	42	4215
2026-01-27 11:46:09.41	4.32	44.00	-35.4	-36.7	18.6	0.00e+00	0	62	0	2200961024	42	4172
2026-01-27 11:46:10.43	4.08	43.73	-35.4	-36.7	18.5	0.00e+00	0	62	0	2207252480	42	4176
2026-01-27 11:46:11.44	3.85	43.47	-35.4	-36.7	18.6	0.00e+00	0	62	0	2212495360	42	4181
2026-01-27 11:46:12.45	3.62	43.21	-35.4	-36.7	18.6	0.00e+00	0	62	0	2218786816	42	4163
2026-01-27 11:46:13.46	3.39	42.95	-35.1	-36.3	18.9	0.00e+00	0	62	0	2224029696	42	3997
2026-01-27 11:46:14.47	3.17	42.69	-34.9	-36.2	19.1	0.00e+00	0	62	0	2229272576	41	4146
2026-01-27 11:46:15.48	2.96	42.43	-34.9	-36.1	19.1	0.00e+00	0	62	0	2235564032	41	4112
2026-01-27 11:46:16.49	2.74	42.18	-34.8	-36.0	19.2	0.00e+00	0	62	0	2240806912	41	4067
2026-01-27 11:46:17.50	2.53	41.92	-34.9	-36.1	19.1	0.00e+00	0	62	0	2247098368	41	4106
2026-01-27 11:46:18.51	2.32	41.67	-34.9	-36.1	19.1	0.00e+00	0	62	0	2252341248	41	4134
2026-01-27 11:46:19.52	2.12	41.42	-35.0	-36.2	19.0	0.00e+00	0	62	0	2257584128	41	4189
2026-01-27 11:46:20.53	1.92	41.17	-35.1	-36.3	18.9	0.00e+00	0	62	0	2263875584	41	4231
2026-01-27 11:46:21.54	1.72	40.92	-35.1	-36.4	18.8	0.00e+00	0	62	0	2269118464	41	4273
2026-01-27 11:46:22.55	1.53	40.67	-35.1	-36.4	18.9	0.00e+00	0	62	0	2275409920	41	4247
2026-01-27 11:46:23.56	1.34	40.42	-35.0	-36.3	19.0	0.00e+00	0	62	0	2280652800	41	4194
2026-01-27 11:46:24.57	1.15	40.18	-34.9	-36.2	19.0	0.00e+00	0	62	0	2286944256	41	4162
2026-01-27 11:46:25.58	0.96	39.93	-35.0	-36.2	19.0	0.00e+00	0	62	0	2292187136	41	4184
2026-01-27 11:46:26.59	0.78	39.69	-34.9	-36.1	19.1	0.00e+00	0	62	0	2298478592	41	4113
2026-01-27 11:46:27.60	0.60	39.45	-34.9	-36.1	19.1	0.00e+00	0	62	0	2303721472	41	4131
2026-01-27 11:46:28.62	0.42	39.21	-34.9	-36.1	19.1	0.00e+00	0	62	0	2308964352	41	4135
2026-01-27 11:46:29.62	0.25	38.97	-34.8	-36.0	19.2	0.00e+00	0	62	0	2315255808	41	4094
2026-01-27 11:46:30.64	0.07	38.73	-34.8	-36.0	19.2	0.00e+00	0	62	0	2320498688	41	4065
2026-01-27 11:46:31.65	359.90	38.50	-34.7	-35.9	19.3	0.00e+00	0	62	0	2326790144	41	4050
2026-01-27 11:46:32.66	359.74	38.26	-34.8	-36.0	19.2	0.00e+00	0	62	0	2332033024	41	4068
2026-01-27 11:46:33.67	359.57	38.03	-34.8	-36.0	19.2	0.00e+00	0	62	0	2337275904	41	4093
2026-01-27 11:46:34.68	359.41	37.80	-34.8	-36.0	19.2	0.00e+00	0	62	0	2343567360	41	4067
2026-01-27 11:46:35.69	359.25	37.57	-34.9	-36.1	19.1	0.00e+00	0	62	0	2348810240	41	4104
2026-01-27 11:46:36.70	359.09	37.34	-34.8	-36.0	19.2	0.00e+00	0	62	0	2355101696	41	4094
2026-01-27 11:46:37.71	358.94	37.11	-34.9	-36.2	19.1	0.00e+00	0	62	0	2360344576	41	4147
2026-01-27 11:46:38.72	358.78	36.88	-35.0	-36.2	19.0	0.00e+00	0	62	0	2365587456	41	4187
2026-01-27 11:46:39.74	358.63	36.65	-35.1	-36.4	18.8	0.00e+00	0	62	0	2371878912	41	4262
2026-01-27 11:46:40.75	358.48	36.43	-35.2	-36.4	18.8	0.00e+00	0	62	0	2377121792	41	4290
2026-01-27 11:46:41.75	358.34	36.21	-35.2	-36.5	18.7	0.00e+00	0	62	0	2383413248	41	4330
2026-01-27 11:46:42.77	358.19	35.99	-35.2	-36.5	18.7	0.00e+00	0	62	0	2388656128	41	4317
2026-01-27 11:46:43.78	358.05	35.77	-35.2	-36.5	18.7	0.00e+00	0	62	0	2394947584	41	4306
2026-01-27 11:46:44.79	357.91	35.55	-35.3	-36.5	18.7	0.00e+00	0	62	0	2400190464	41	4336
2026-01-27 11:46:45.80	357.77	35.33	-35.2	-36.5	18.7	0.00e+00	0	63	0	2406481920	41	4323
2026-01-27 11:46:46.81	357.63	35.11	-35.3	-36.6	18.6	0.00e+00	0	62	0	2411724800	41	4347
2026-01-27 11:46:47.82	357.49	34.90	-35.3	-36.6	18.6	0.00e+00	0	62	0	2416967680	41	4364
2026-01-27 11:46:48.83	357.36	34.69	-35.4	-36.7	18.5	0.00e+00	0	63	0	2423259136	41	4413
2026-01-27 11:46:49.83	357.23	34.48	-35.3	-36.7	18.5	0.00e+00	0	62	0	2428502016	41	4402
2026-01-27 11:46:50.84	357.10	34.26	-35.2	-36.5	18.6	0.00e+00	0	62	0	2434793472	41	4322
2026-01-27 11:46:51.86	356.97	34.05	-35.2	-36.4	18.7	0.00e+00	0	62	0	2440036352	41	4286
2026-01-27 11:46:52.86	356.85	33.85	-35.1	-36.4	18.8	0.00e+00	0	62	0	2445279232	41	4244
2026-01-27 11:46:53.87	356.72	33.64	-35.0	-36.3	18.9	0.00e+00	0	62	0	2451570688	41	4198
2026-01-27 11:46:54.88	356.60	33.43	-35.0	-36.2	18.9	0.00e+00	0	62	0	2456813568	41	4192
2026-01-27 11:46:55.89	356.48	33.23	-35.0	-36.3	18.9	0.00e+00	0	62	0	2463105024	41	4210
2026-01-27 11:46:56.90	356.36	33.03	-35.1	-36.4	18.8	0.00e+00	0	62	0	2468347904	41	4256
2026-01-27 11:46:57.91	356.24	32.82	-35.1	-36.4	18.8	0.00e+00	0	62	0	2473590784	41	4249
2026-01-27 11:46:58.92	356.12	32.62	-35.1	-36.4	18.7	0.00e+00	0	62	0	2479882240	41	4268
2026-01-27 11:46:59.93	356.01	32.42	-35.2	-36.4	18.7	0.00e+00	0	62	0	2485125120	41	4289
2026-01-27 11:47:00.94	355.89	32.22	-35.2	-36.4	18.7	0.00e+00	0	62	0	2491416576	41	4282
2026-01-27 11:47:01.95	355.78	32.03	-35.2	-36.5	18.7	0.00e+00	0	62	0	2496659456	41	4302
2026-01-27 11:47:02.96	355.67	31.83	-35.2	-36.5	18.6	0.00e+00	0	62	0	2502950912	41	4328
2026-01-27 11:47:03.97	355.56	31.63	-35.3	-36.5	18.6	0.00e+00	0	62	0	2508193792	41	4336
2026-01-27 11:47:04.98	355.45	31.44	-35.1	-36.4	18.7	0.00e+00	0	62	0	2514485248	41	4265
2026-01-27 11:47:05.99	355.34	31.25	-35.1	-36.4	18.7	0.00e+00	0	62	0	2519728128	41	4272
2026-01-27 11:47:07.00	355.24	31.06	-35.3	-36.5	18.6	0.00e+00	0	62	0	2524971008	41	4340
2026-01-27 11:47:08.01	355.13	30.87	-35.2	-36.5	18.6	0.00e+00	0	62	0	2531262464	41	4302
2026-01-27 11:47:09.02	355.03	30.68	-35.2	-36.5	18.6	0.00e+00	0	62	0	2536505344	41	4314
2026-01-27 11:47:10.03	354.93	30.49	-35.2	-36.5	18.6	0.00e+00	0	62	0	2542796800	41	4309
2026-01-27 11:47:11.04	354.82	30.30	-35.2	-36.5	18.6	0.00e+00	0	62	0	2548039680	41	4314
2026-01-27 11:47:12.05	354.72	30.11	-35.2	-36.5	18.6	0.00e+00	0	63	0	2553282560	41	4321
2026-01-27 11:47:13.06	354.63	29.93	-35.2	-36.5	18.6	0.00e+00	0	62	0	2559574016	41	4316
2026-01-27 11:47:14.07	354.53	29.75	-35.2	-36.5	18.6	0.00e+00	0	62	0	2564816896	41	4328
2026-01-27 11:47:15.08	354.43	29.56	-35.3	-36.6	18.5	0.00e+00	0	62	0	2571108352	41	4341
2026-01-27 11:47:16.09	354.34	29.38	-35.2	-36.5	18.5	0.00e+00	0	62	0	2576351232	41	4332
2026-01-27 11:47:17.10	354.24	29.20	-35.2	-36.5	18.6	0.00e+00	0	62	0	2581594112	41	4306
2026-01-27 11:47:18.11	354.15	29.02	-35.3	-36.5	18.5	0.00e+00	0	62	0	2587885568	41	4333
2026-01-27 11:47:19.12	354.06	28.84	-35.2	-36.5	18.6	0.00e+00	0	62	0	2593128448	41	4304
2026-01-27 11:47:20.13	353.97	28.67	-35.2	-36.5	18.6	0.00e+00	0	62	0	2599419904	41	4312
2026-01-27 11:47:21.14	353.88	28.49	-35.3	-36.6	18.5	0.00e+00	0	62	0	2604662784	41	4341
2026-01-27 11:47:22.15	353.79	28.31	-35.4	-36.7	18.3	0.00e+00	0	62	0	2610954240	41	4398
2026-01-27 11:47:23.16	353.70	28.14	-35.4	-36.7	18.3	0.00e+00	0	62	0	2616197120	41	4432
2026-01-27 11:47:24.17	353.61	27.97	-35.4	-36.7	18.3	0.00e+00	0	62	0	2621440000	41	4433
2026-01-27 11:47:25.18	353.53	27.79	-35.4	-36.7	18.3	0.00e+00	0	62	0	2627731456	41	4428
2026-01-27 11:47:26.19	353.44	27.62	-35.5	-36.8	18.2	0.00e+00	0	62	0	2632974336	41	4487
2026-01-27 11:47:27.20	353.36	27.45	-35.6	-36.9	18.1	0.00e+00	0	63	0	2639265792	41	4542
2026-01-27 11:47:28.21	353.28	27.28	-35.5	-36.9	18.1	0.00e+00	0	62	0	2644508672	41	4501
2026-01-27 11:47:29.23	353.19	27.11	-35.6	-36.9	18.1	0.00e+00	0	63	0	2650800128	41	4526
2026-01-27 11:47:30.24	353.11	26.95	-35.6	-37.0	18.0	0.00e+00	0	62	0	2656043008	41	4559
2026-01-27 11:47:31.24	353.03	26.78	-35.4	-36.7	18.2	0.00e+00	0	62	0	2661285888	41	4438
2026-01-27 11:47:32.25	352.95	26.62	-35.4	-36.7	18.2	0.00e+00	0	62	0	2667577344	41	4429
2026-01-27 11:47:33.26	352.88	26.45	-35.4	-36.8	18.2	0.00e+00	0	62	0	2672820224	41	4452
2026-01-27 11:47:34.28	352.80	26.29	-35.3	-36.6	18.3	0.00e+00	0	62	0	2679111680	41	4391
2026-01-27 11:47:35.29	352.72	26.12	-35.3	-36.6	18.3	0.00e+00	0	62	0	2684354560	41	4377
2026-01-27 11:47:36.29	352.65	25.96	-35.4	-36.7	18.2	0.00e+00	0	62	0	2689597440	41	4418
2026-01-27 11:47:37.31	352.57	25.80	-35.3	-36.7	18.2	0.00e+00	0	62	0	2695888896	41	4394
2026-01-27 11:47:38.31	352.50	25.64	-35.4	-36.7	18.2	0.00e+00	0	62	0	2701131776	41	4413
2026-01-27 11:47:39.32	352.42	25.48	-35.4	-36.8	18.1	0.00e+00	0	62	0	2707423232	41	4451
2026-01-27 11:47:40.33	352.35	25.33	-35.5	-36.8	18.0	0.00e+00	0	62	0	2712666112	41	4463
2026-01-27 11:47:41.34	352.28	25.17	-35.6	-37.0	17.9	0.00e+00	0	62	0	2718957568	41	4553
2026-01-27 11:47:42.35	352.21	25.01	-35.7	-37.0	17.8	0.00e+00	0	62	0	2724200448	41	4595
2026-01-27 11:47:43.36	352.13	24.86	-35.8	-37.2	17.6	0.00e+00	0	62	0	2729443328	42	4411
2026-01-27 11:47:44.37	352.06	24.70	-35.8	-37.3	17.5	0.00e+00	0	62	0	2735734784	42	4453
2026-01-27 11:47:45.38	352.00	24.55	-36.0	-37.4	17.3	0.00e+00	0	62	0	2740977664	42	4542
2026-01-27 11:47:46.39	351.93	24.40	-35.9	-37.3	17.4	0.00e+00	0	62	0	2747269120	42	4491
2026-01-27 11:47:47.40	351.86	24.24	-35.9	-37.3	17.4	0.00e+00	0	62	0	2752512000	42	4493
2026-01-27 11:47:48.41	351.79	24.09	-35.9	-37.3	17.4	0.00e+00	0	62	0	2757754880	42	4484
2026-01-27 11:47:49.42	351.73	23.94	-35.9	-37.4	17.3	0.00e+00	0	62	0	2764046336	42	4496
2026-01-27 11:47:50.43	351.66	23.79	-35.8	-37.3	17.4	0.00e+00	0	62	0	2769289216	42	4445
2026-01-27 11:47:51.44	351.59	23.64	-35.7	-37.1	17.5	0.00e+00	0	62	0	2775580672	42	4382
2026-01-27 11:47:52.45	351.53	23.50	-35.8	-37.3	17.3	0.00e+00	0	62	0	2780823552	42	4445
2026-01-27 11:47:53.46	351.47	23.35	-35.9	-37.4	17.1	0.00e+00	0	62	0	2786066432	42	4498
2026-01-27 11:47:54.47	351.40	23.20	-35.5	-36.9	17.5	0.00e+00	0	62	0	2792357888	42	4270
2026-01-27 11:47:55.48	351.34	23.06	-35.4	-36.9	17.5	0.00e+00	0	62	0	2797600768	42	4243
2026-01-27 11:47:56.49	351.28	22.91	-35.8	-37.3	17.0	0.00e+00	0	62	0	2803892224	42	4453
2026-01-27 11:47:57.50	351.22	22.77	-36.0	-37.5	16.6	0.00e+00	0	62	0	2809135104	42	4588
2026-01-27 11:47:58.51	351.16	22.63	-35.8	-37.3	16.6	0.00e+00	0	62	0	2815426560	42	4474
2026-01-27 11:47:59.52	351.10	22.48	-35.8	-37.3	16.4	0.00e+00	0	62	0	2820669440	42	4477
2026-01-27 11:48:00.53	351.04	22.34	-35.8	-37.3	16.3	0.00e+00	0	62	0	2826960896	42	4481
2026-01-27 11:48:01.54	350.98	22.20	-35.6	-37.2	16.4	0.00e+00	0	62	0	2832203776	42	4401
2026-01-27 11:48:02.56	350.92	22.06	-35.5	-37.1	16.4	0.00e+00	0	62	0	2837446656	42	4364
2026-01-27 11:48:03.57	350.86	21.92	-35.6	-37.1	16.3	0.00e+00	0	62	0	2843738112	42	4383
2026-01-27 11:48:04.58	350.80	21.78	-35.5	-37.1	16.2	0.00e+00	0	62	0	2848980992	42	4341
2026-01-27 11:48:05.59	350.75	21.64	-35.8	-37.4	15.8	0.00e+00	0	62	0	2855272448	42	4544
2026-01-27 11:48:06.60	350.69	21.51	-36.3	-38.1	15.0	0.00e+00	0	62	0	2860515328	43	4638
2026-01-27 11:48:07.61	350.63	21.37	-37.1	-39.2	13.9	1.10e-06	0	62	0	2865758208	44	4959
2026-01-27 11:48:08.62	350.58	21.23	-37.9	-40.4	12.5	8.46e-05	0	62	0	2872049664	46	5052
2026-01-27 11:48:09.63	350.52	21.10	-38.7	-41.7	10.9	1.05e-03	0	62	0	2877292544	47	5558
2026-01-27 11:48:10.64	350.47	20.96	-39.6	-43.3	9.1	1.68e-02	0	62	0	2883584000	49	5954
2026-01-27 11:48:11.65	350.42	20.83	-40.2	-44.9	7.3	8.35e-02	0	62	0	2888826880	50	6759
2026-01-27 11:48:12.66	350.36	20.70	-40.6	-46.5	5.8	3.57e-01	0	62	0	2894069760	51	7636
2026-01-27 11:48:13.67	350.31	20.57	-40.7	-47.8	4.7	7.61e-01	0	62	0	2896166912	52	8433
2026-01-27 11:48:14.68	350.26	20.43	-40.9	-49.5	4.2	8.36e-01	0	62	0	2896166912	52	10196
2026-01-27 11:48:15.69	350.21	20.30	-41.0	-50.6	3.9	8.44e-01	0	62	104	2896166912	52	11584
2026-01-27 11:48:16.70	350.16	20.17	-41.0	-51.3	3.8	8.44e-01	0	62	104	2896166912	52	12662
2026-01-27 11:48:17.71	350.11	20.04	-41.0	-51.9	3.8	8.47e-01	0	62	104	2896166912	52	13464
2026-01-27 11:48:18.72	350.05	19.91	-41.1	-52.5	3.8	8.46e-01	0	62	104	2896166912	52	14461
2026-01-27 11:48:19.73	350.01	19.79	-41.0	-52.5	3.8	8.46e-01	0	62	104	2896166912	52	14472
2026-01-27 11:48:20.74	349.96	19.66	-40.9	-52.4	3.8	8.46e-01	0	62	104	2896166912	52	14299
2026-01-27 11:48:21.75	349.91	19.53	-41.0	-52.3	3.8	8.46e-01	0	62	104	2896166912	52	14187
2026-01-27 11:48:22.76	349.86	19.40	-41.0	-52.6	3.8	8.45e-01	0	62	104	2896166912	53	13730
2026-01-27 11:48:23.77	349.81	19.28	-40.9	-52.4	3.8	8.45e-01	0	62	104	2896166912	53	13513
2026-01-27 11:48:24.78	349.76	19.15	-40.8	-52.4	3.8	8.46e-01	0	62	104	2896166912	53	13482
2026-01-27 11:48:25.79	349.71	19.03	-41.0	-52.5	3.8	8.45e-01	0	62	104	2896166912	53	13702
2026-01-27 11:48:26.80	349.67	18.90	-40.9	-52.5	3.8	8.46e-01	0	62	104	2896166912	53	13722
2026-01-27 11:48:27.81	349.62	18.78	-40.8	-52.3	3.8	8.46e-01	0	62	104	2896166912	53	13352
2026-01-27 11:48:28.82	349.58	18.66	-40.9	-52.5	3.8	8.46e-01	0	62	104	2896166912	53	13594
2026-01-27 11:48:29.83	349.53	18.54	-40.9	-52.5	3.8	8.47e-01	0	62	104	2896166912	53	13645
2026-01-27 11:48:30.84	349.48	18.41	-40.9	-52.5	3.8	8.45e-01	0	62	104	2896166912	53	13717
2026-01-27 11:48:31.85	349.44	18.29	-40.9	-52.4	3.8	8.45e-01	0	62	104	2896166912	53	13531
2026-01-27 11:48:32.86	349.40	18.17	-41.2	-52.7	3.8	8.45e-01	0	62	104	2896166912	53	13980
2026-01-27 11:48:33.87	349.35	18.05	-40.8	-52.4	3.8	8.45e-01	0	62	104	2896166912	53	13527
2026-01-27 11:48:34.88	349.31	17.93	-40.9	-52.5	3.8	8.46e-01	0	62	104	2896166912	53	13580
2026-01-27 11:48:35.89	349.26	17.81	-41.0	-52.5	3.8	8.45e-01	0	62	104	2896166912	53	13725
2026-01-27 11:48:36.90	349.22	17.70	-41.5	-53.0	3.8	8.46e-01	0	62	104	2896166912	53	14451
2026-01-27 11:48:37.91	349.18	17.58	-40.8	-52.4	3.8	8.46e-01	0	63	104	2896166912	53	13477
2026-01-27 11:48:38.92	349.14	17.46	-40.8	-52.3	3.8	8.46e-01	0	62	104	2896166912	53	13398
2026-01-27 11:48:39.93	349.09	17.34	-40.8	-52.3	3.8	8.46e-01	0	62	104	2896166912	53	13412
2026-01-27 11:48:40.94	349.05	17.23	-40.8	-52.4	3.8	8.47e-01	0	62	104	2896166912	53	13418
2026-01-27 11:48:41.95	349.01	17.11	-40.9	-52.4	3.8	8.46e-01	0	62	104	2896166912	53	13500
2026-01-27 11:48:42.96	348.97	17.00	-40.9	-52.4	3.8	8.45e-01	0	62	104	2896166912	53	13493
2026-01-27 11:48:43.97	348.93	16.88	-41.6	-53.1	3.8	8.46e-01	0	62	104	2896166912	53	14588
2026-01-27 11:48:44.98	348.89	16.77	-41.1	-52.6	3.8	8.46e-01	0	62	104	2896166912	53	13805
2026-01-27 11:48:45.99	348.85	16.65	-41.0	-52.6	3.8	8.45e-01	0	62	104	2896166912	53	13727
2026-01-27 11:48:47.00	348.81	16.54	-41.2	-52.7	3.8	8.47e-01	0	62	104	2896166912	53	14029
2026-01-27 11:48:48.01	348.77	16.43	-41.3	-52.8	3.8	8.47e-01	0	62	104	2896166912	53	14137
2026-01-27 11:48:49.02	348.73	16.32	-41.3	-52.8	3.8	8.47e-01	0	62	104	2896166912	53	14201
2026-01-27 11:48:50.03	348.69	16.21	-41.6	-53.1	3.8	8.46e-01	0	62	104	2896166912	53	14659
2026-01-27 11:48:51.04	348.66	16.09	-41.4	-52.9	3.8	8.46e-01	0	62	104	2896166912	53	14294
2026-01-27 11:48:52.05	348.62	15.98	-41.5	-53.0	3.8	8.46e-01	0	62	104	2896166912	53	14498
2026-01-27 11:48:53.06	348.58	15.87	-41.7	-53.1	3.8	8.46e-01	0	62	104	2896166912	53	14699
2026-01-27 11:48:54.07	348.54	15.76	-41.2	-52.8	3.8	8.44e-01	0	62	104	2896166912	53	14088
2026-01-27 11:48:55.08	348.51	15.66	-41.5	-53.0	3.8	8.47e-01	0	62	104	2896166912	53	14519
2026-01-27 11:48:56.09	348.47	15.55	-41.6	-53.1	3.8	8.47e-01	0	62	104	2896166912	53	14634
2026-01-27 11:48:57.11	348.43	15.44	-41.6	-53.1	3.8	8.46e-01	0	62	104	2896166912	53	14584
2026-01-27 11:48:58.12	348.40	15.33	-41.3	-52.9	3.8	8.47e-01	0	62	104	2896166912	53	14219
2026-01-27 11:48:59.13	348.36	15.22	-41.4	-53.0	3.8	8.47e-01	0	62	104	2896166912	53	14466
2026-01-27 11:49:00.14	348.33	15.12	-41.6	-53.1	3.8	8.47e-01	0	62	104	2896166912	53	14565
2026-01-27 11:49:01.15	348.29	15.01	-41.6	-53.1	3.8	8.46e-01	0	62	104	2896166912	53	14691
2026-01-27 11:49:02.16	348.25	14.90	-41.3	-52.9	3.8	8.47e-01	0	62	104	2896166912	53	14254
2026-01-27 11:49:03.17	348.22	14.80	-41.4	-52.9	3.8	8.46e-01	0	63	104	2896166912	53	14308
2026-01-27 11:49:04.18	348.19	14.69	-41.5	-53.0	3.8	8.44e-01	0	62	104	2896166912	53	14455
2026-01-27 11:49:05.19	348.15	14.59	-41.6	-53.2	3.8	8.47e-01	0	62	104	2896166912	53	14780
2026-01-27 11:49:06.20	348.12	14.49	-41.3	-52.9	3.8	8.46e-01	0	62	104	2896166912	53	14280
2026-01-27 11:49:07.20	348.08	14.38	-41.3	-52.8	3.8	8.47e-01	0	62	104	2896166912	53	14202
2026-01-27 11:49:08.20	348.05	14.28	-41.5	-53.0	3.8	8.45e-01	0	62	104	2896166912	53	14480
2026-01-27 11:49:09.21	348.02	14.18	-41.6	-53.2	3.8	8.46e-01	0	62	104	2896166912	53	14767
2026-01-27 11:49:10.22	347.99	14.08	-41.3	-52.9	3.8	8.46e-01	0	62	104	2896166912	53	14298
2026-01-27 11:49:11.23	347.95	13.97	-41.3	-52.8	3.8	8.46e-01	0	63	104	2896166912	53	14123
2026-01-27 11:49:12.25	347.92	13.87	-41.5	-53.1	3.8	8.46e-01	0	63	104	2896166912	53	14549
2026-01-27 11:49:13.26	347.89	13.77	-41.5	-53.0	3.8	8.46e-01	0	62	104	2896166912	53	14457
2026-01-27 11:49:14.26	347.86	13.67	-41.3	-52.8	3.8	8.46e-01	0	62	104	2896166912	53	14209
2026-01-27 11:49:15.27	347.82	13.57	-41.3	-52.8	3.8	8.46e-01	0	62	104	2896166912	53	14166
2026-01-27 11:49:16.28	347.79	13.47	-41.4	-53.0	3.8	8.45e-01	0	62	104	2896166912	53	14464
2026-01-27 11:49:17.29	347.76	13.37	-41.4	-52.9	3.8	8.46e-01	0	63	104	2896166912	53	14297
2026-01-27 11:49:18.30	347.73	13.27	-41.2	-52.8	3.8	8.46e-01	0	63	104	2896166912	53	14153
2026-01-27 11:49:19.31	347.70	13.17	-41.2	-52.8	3.8	8.46e-01	0	62	104	2896166912	53	14146
2026-01-27 11:49:20.32	347.67	13.07	-41.4	-52.9	3.8	8.46e-01	0	62	104	2896166912	53	14283
2026-01-27 11:49:21.33	347.64	12.98	-41.3	-52.9	3.8	8.46e-01	0	62	104	2896166912	53	14227
2026-01-27 11:49:22.34	347.61	12.88	-41.2	-52.7	3.8	8.46e-01	0	62	104	2896166912	53	14045
2026-01-27 11:49:23.35	347.58	12.78	-41.2	-52.8	3.8	8.45e-01	0	62	104	2896166912	53	14047
2026-01-27 11:49:24.36	347.55	12.69	-41.3	-52.8	3.8	8.46e-01	0	62	104	2896166912	53	14190
2026-01-27 11:49:25.37	347.52	12.59	-41.3	-52.9	3.8	8.46e-01	0	62	104	2896166912	53	14211
2026-01-27 11:49:26.38	347.49	12.49	-41.1	-52.7	3.8	8.47e-01	0	62	104	2896166912	53	13901
2026-01-27 11:49:27.39	347.46	12.40	-41.1	-52.7	3.8	8.45e-01	0	62	104	2896166912	53	13928
2026-01-27 11:49:28.40	347.43	12.30	-41.3	-52.9	3.8	8.44e-01	0	62	104	2896166912	53	14234
2026-01-27 11:49:29.41	347.41	12.21	-41.2	-52.8	3.8	8.46e-01	0	62	104	2896166912	53	14092
2026-01-27 11:49:30.42	347.38	12.11	-41.1	-52.6	3.8	8.46e-01	0	62	104	2896166912	53	13827
2026-01-27 11:49:31.43	347.35	12.02	-41.1	-52.6	3.8	8.46e-01	0	63	104	2896166912	53	13874
2026-01-27 11:49:32.43	347.32	11.93	-41.2	-52.8	3.8	8.46e-01	0	62	104	2896166912	53	14201
2026-01-27 11:49:33.44	347.29	11.83	-41.1	-52.7	3.8	8.47e-01	0	62	104	2896166912	53	13920
2026-01-27 11:49:34.45	347.27	11.74	-41.0	-52.6	3.8	8.47e-01	0	63	104	2896166912	53	13859
2026-01-27 11:49:35.46	347.24	11.65	-41.1	-52.7	3.8	8.47e-01	0	63	104	2896166912	53	13931
2026-01-27 11:49:36.47	347.21	11.55	-41.1	-52.7	3.8	8.45e-01	0	62	104	2896166912	53	13972
2026-01-27 11:49:37.48	347.19	11.46	-41.1	-52.7	3.8	8.46e-01	0	62	104	2896166912	53	13889
2026-01-27 11:49:38.49	347.16	11.37	-41.1	-52.6	3.8	8.45e-01	0	63	104	2896166912	53	13867
2026-01-27 11:49:39.50	347.13	11.28	-41.1	-52.7	3.8	8.46e-01	0	62	104	2896166912	53	13937
2026-01-27 11:49:40.51	347.11	11.19	-41.1	-52.6	3.8	8.46e-01	0	62	104	2896166912	53	13851
2026-01-27 11:49:41.51	347.08	11.10	-41.1	-52.7	3.8	8.46e-01	0	63	104	2896166912	53	13952
2026-01-27 11:49:42.53	347.05	11.01	-41.0	-52.6	3.8	8.47e-01	0	63	104	2896166912	53	13791
2026-01-27 11:49:43.54	347.03	10.92	-41.1	-52.7	3.8	8.45e-01	0	62	104	2896166912	53	13973
2026-01-27 11:49:44.55	347.00	10.83	-41.1	-52.6	3.8	8.45e-01	0	62	104	2896166912	53	13873
2026-01-27 11:49:45.56	346.98	10.74	-41.1	-52.6	3.8	8.45e-01	0	62	104	2896166912	53	13867
2026-01-27 11:49:46.56	346.95	10.65	-41.0	-52.6	3.8	8.46e-01	0	62	104	2896166912	53	13810
2026-01-27 11:49:47.58	346.93	10.56	-41.1	-52.7	3.8	8.46e-01	0	62	104	2896166912	53	13914
2026-01-27 11:49:48.58	346.90	10.47	-41.1	-52.6	3.8	8.46e-01	0	62	104	2896166912	53	13832
2026-01-27 11:49:49.59	346.88	10.38	-41.0	-52.6	3.8	8.45e-01	0	62	104	2896166912	53	13825
2026-01-27 11:49:50.60	346.85	10.29	-41.0	-52.6	3.8	8.46e-01	0	62	104	2896166912	53	13868
2026-01-27 11:49:51.61	346.83	10.21	-41.0	-52.6	3.8	8.47e-01	0	62	104	2896166912	53	13799
2026-01-27 11:49:52.62	346.80	10.12	-40.9	-52.5	3.8	8.46e-01	0	62	104	2896166912	53	13655
2026-01-27 11:49:53.63	346.78	10.03	-41.1	-52.6	3.8	8.46e-01	0	62	104	2896166912	53	13825
2026-01-27 11:49:54.64	346.76	9.95	-41.0	-52.7	3.8	8.46e-01	0	62	104	2896166912	53	13926
2026-01-27 11:49:55.65	346.73	9.86	-41.0	-52.6	3.8	8.46e-01	0	62	104	2896166912	53	13773
2026-01-27 11:49:56.66	346.71	9.77	-40.8	-52.4	3.8	8.46e-01	0	63	104	2896166912	53	13450
2026-01-27 11:49:57.67	346.69	9.69	-41.1	-52.7	3.8	8.46e-01	0	62	104	2896166912	53	13947
2026-01-27 11:49:58.68	346.66	9.60	-41.0	-52.6	3.8	8.47e-01	0	62	104	2896166912	53	13823
2026-01-27 11:49:59.69	346.64	9.52	-41.0	-52.6	3.8	8.46e-01	0	62	104	2896166912	53	13771
2026-01-27 11:50:00.70	346.62	9.43	-40.7	-52.3	3.8	8.46e-01	0	62	104	2896166912	53	13404
2026-01-27 11:50:01.72	346.59	9.35	-41.1	-52.7	3.8	8.48e-01	0	62	104	2896166912	53	13942
2026-01-27 11:50:02.73	346.57	9.26	-40.9	-52.5	3.8	8.47e-01	0	62	104	2896166912	53	13612
2026-01-27 11:50:03.74	346.55	9.18	-41.0	-52.7	3.8	8.46e-01	0	63	104	2896166912	53	13911
2026-01-27 11:50:04.74	346.53	9.10	-40.7	-52.3	3.8	8.45e-01	0	62	104	2896166912	53	13369
2026-01-27 11:50:05.76	346.51	9.01	-41.1	-52.7	3.8	8.45e-01	0	62	104	2896166912	53	13895
2026-01-27 11:50:06.77	346.48	8.93	-40.9	-52.4	3.8	8.46e-01	0	62	104	2896166912	53	13529
2026-01-27 11:50:07.78	346.46	8.84	-41.0	-52.6	3.8	8.45e-01	0	62	104	2896166912	53	13857
2026-01-27 11:50:08.78	346.44	8.76	-40.7	-52.3	3.8	8.45e-01	0	63	104	2896166912	53	13333
2026-01-27 11:50:09.79	346.42	8.68	-41.0	-52.6	3.8	8.46e-01	0	63	104	2896166912	53	13827
2026-01-27 11:50:10.80	346.40	8.60	-40.8	-52.4	3.8	8.46e-01	0	62	104	2896166912	53	13505
2026-01-27 11:50:11.81	346.38	8.52	-41.0	-52.6	3.8	8.46e-01	0	62	104	2896166912	53	13852
2026-01-27 11:50:12.82	346.36	8.43	-40.6	-52.2	3.8	8.45e-01	0	63	104	2896166912	53	13198
2026-01-27 11:50:13.83	346.33	8.35	-41.0	-52.6	3.8	8.45e-01	0	63	104	2896166912	53	13761
2026-01-27 11:50:14.84	346.31	8.27	-40.8	-52.3	3.8	8.48e-01	0	62	104	2896166912	53	13385
2026-01-27 11:50:15.85	346.29	8.19	-40.9	-52.6	3.8	8.46e-01	0	62	104	2896166912	53	13772
2026-01-27 11:50:16.86	346.27	8.11	-40.6	-52.1	3.8	8.47e-01	0	62	104	2896166912	53	13048
2026-01-27 11:50:17.87	346.25	8.03	-41.0	-52.5	3.8	8.47e-01	0	63	104	2896166912	53	13682
2026-01-27 11:50:18.88	346.23	7.95	-40.9	-52.6	3.8	8.46e-01	0	62	104	2896166912	53	13750
2026-01-27 11:50:19.89	346.21	7.87	-41.6	-53.1	3.8	8.45e-01	0	62	104	2896166912	53	14629
2026-01-27 11:50:20.90	346.19	7.79	-41.0	-52.6	3.8	8.45e-01	0	62	104	2896166912	53	13795
2026-01-27 11:50:21.91	346.17	7.71	-44.7	-56.4	3.8	8.46e-01	0	62	104	2896166912	60	14279
2026-01-27 11:50:22.92	346.15	7.63	-44.9	-56.7	3.8	8.46e-01	0	62	104	2896166912	60	14816
2026-01-27 11:50:23.93	346.13	7.55	-45.0	-56.8	3.8	8.46e-01	0	63	104	2896166912	60	15025
2026-01-27 11:50:24.94	346.11	7.47	-45.1	-56.9	3.8	8.46e-01	0	63	104	2896166912	60	15071
2026-01-27 11:50:25.95	346.09	7.40	-45.2	-56.9	3.8	8.45e-01	0	62	104	2896166912	60	15204
2026-01-27 11:50:26.96	346.07	7.32	-45.2	-56.9	3.8	8.46e-01	0	63	104	2896166912	60	15205
