passes_logs/2026/01/27/R2.0S_Moscow/R2.0S_Moscow__20260127_002008_NOAA_21_JPSS-2_rec.log

#Pass ID: 20260127_002008_NOAA 21 (JPSS-2)
#Satellite: NOAA 21 (JPSS-2)
#Configuration: NOAA-21
#almurnet v.1.7.20251203
#Start time: 2026-01-27 00:27:09

#Version: 2.2.20231116
#Station: R2.0S_Moscow
#Location: 37.707566 lon 55.798166 lat
#TLE: 1 54234U 22150A   26026.43130734  .00000179  00000+0  10559-3 0  9998
#TLE: 2 54234  98.7509 327.1934 0000805 209.8356 150.2774 14.19539635166435

#Time	Az	El	Level	Level2	SNR	BER	BlckErr	Temp	State	Recorded	gain1	gain2
2026-01-27 00:27:09.69	297.96	50.34	-45.9	-64.4	3.8	7.42e-01	0	62	0	0	63	30118
2026-01-27 00:27:10.69	297.32	50.35	-44.9	-57.3	3.8	1.49e+00	0	62	104	0	61	14887
2026-01-27 00:27:11.70	296.67	50.35	-45.0	-57.3	3.8	1.49e+00	0	62	104	0	61	14989
2026-01-27 00:27:12.72	296.01	50.35	-45.0	-57.3	3.8	1.49e+00	0	62	104	0	61	14959
2026-01-27 00:27:13.73	295.35	50.35	-45.0	-57.4	3.8	1.49e+00	0	62	104	0	61	15065
2026-01-27 00:27:14.74	294.70	50.34	-45.0	-57.4	3.8	1.49e+00	0	62	104	0	61	15127
2026-01-27 00:27:15.75	294.05	50.33	-45.0	-57.3	3.8	1.49e+00	0	63	104	0	61	15037
2026-01-27 00:27:16.76	293.40	50.32	-45.0	-57.3	3.8	1.49e+00	0	62	104	0	61	14981
2026-01-27 00:27:17.77	292.75	50.30	-45.0	-57.3	3.8	1.49e+00	0	62	104	0	61	14965
2026-01-27 00:27:18.78	292.10	50.28	-45.0	-57.3	3.8	1.49e+00	0	62	104	0	61	15022
2026-01-27 00:27:19.79	291.45	50.25	-45.0	-57.3	3.8	1.49e+00	0	63	104	0	61	14971
2026-01-27 00:27:20.80	290.80	50.22	-45.0	-57.3	3.8	1.49e+00	0	62	104	0	61	14960
2026-01-27 00:27:21.81	290.16	50.19	-45.0	-57.3	3.8	1.49e+00	0	62	104	0	61	14967
2026-01-27 00:27:22.82	289.51	50.15	-44.9	-57.3	3.8	1.49e+00	0	62	104	0	61	14933
2026-01-27 00:27:23.83	288.87	50.11	-44.9	-57.3	3.8	1.49e+00	0	62	104	0	61	14965
2026-01-27 00:27:24.84	288.23	50.06	-44.9	-57.3	3.8	1.49e+00	0	63	104	0	61	14946
2026-01-27 00:27:25.85	287.59	50.01	-44.9	-57.3	3.8	1.49e+00	0	63	104	0	61	14912
2026-01-27 00:27:26.86	286.95	49.96	-44.9	-57.3	3.8	1.49e+00	0	63	104	0	61	14882
2026-01-27 00:27:27.87	286.32	49.90	-44.9	-57.2	3.8	1.49e+00	0	62	104	0	61	14876
2026-01-27 00:27:28.88	285.69	49.84	-44.9	-57.3	3.8	1.49e+00	0	62	104	0	61	14912
2026-01-27 00:27:29.89	285.06	49.78	-44.9	-57.3	3.8	1.49e+00	0	63	104	0	61	14931
2026-01-27 00:27:30.90	284.43	49.71	-44.9	-57.3	3.8	1.49e+00	0	62	104	0	61	14913
2026-01-27 00:27:31.91	283.81	49.64	-44.9	-57.3	3.8	1.49e+00	0	62	104	0	61	14893
2026-01-27 00:27:32.92	283.19	49.57	-44.9	-57.3	3.8	1.49e+00	0	62	104	0	61	14938
2026-01-27 00:27:33.92	282.57	49.49	-44.9	-57.2	3.8	1.49e+00	0	63	104	0	61	14836
2026-01-27 00:27:34.93	281.96	49.41	-44.9	-57.3	3.8	1.49e+00	0	62	104	0	61	14920
2026-01-27 00:27:35.94	281.35	49.32	-44.9	-57.3	3.8	1.49e+00	0	63	104	0	61	14885
2026-01-27 00:27:36.95	280.74	49.23	-44.9	-57.3	3.8	1.49e+00	0	63	104	0	61	14982
2026-01-27 00:27:37.96	280.13	49.14	-44.9	-57.3	3.8	1.49e+00	0	62	104	0	61	14964
2026-01-27 00:27:38.97	279.53	49.05	-44.9	-57.3	3.8	1.49e+00	0	62	104	0	61	14952
2026-01-27 00:27:39.99	278.93	48.95	-44.9	-57.2	3.8	1.49e+00	0	62	104	0	61	14743
2026-01-27 00:27:40.99	278.34	48.85	-44.9	-57.1	3.8	1.49e+00	0	63	104	0	61	14669
2026-01-27 00:27:42.00	277.75	48.75	-44.9	-57.2	3.8	1.49e+00	0	62	104	0	61	14725
2026-01-27 00:27:43.01	277.17	48.64	-44.9	-57.3	3.8	1.49e+00	0	62	104	0	61	14907
2026-01-27 00:27:44.02	276.59	48.53	-44.9	-57.2	3.8	1.49e+00	0	62	104	0	61	14801
2026-01-27 00:27:45.03	276.01	48.42	-44.9	-57.1	3.8	1.49e+00	0	62	104	0	61	14557
2026-01-27 00:27:46.04	275.44	48.30	-44.9	-57.1	3.8	1.49e+00	0	62	104	0	61	14602
2026-01-27 00:27:47.05	274.87	48.18	-44.9	-57.2	3.8	1.49e+00	0	63	104	0	61	14762
2026-01-27 00:27:48.07	274.30	48.06	-44.9	-56.9	3.8	1.49e+00	0	62	104	0	61	14339
2026-01-27 00:27:49.08	273.74	47.94	-44.8	-56.3	3.8	1.49e+00	0	63	104	0	61	13274
2026-01-27 00:27:50.09	273.19	47.81	-44.8	-56.1	3.8	1.49e+00	0	63	104	0	61	13061
2026-01-27 00:27:51.10	272.63	47.68	-44.9	-56.9	3.8	1.49e+00	0	62	104	0	61	14328
2026-01-27 00:27:52.11	272.09	47.55	-44.9	-57.2	3.8	1.49e+00	0	63	104	0	61	14733
2026-01-27 00:27:53.12	271.55	47.42	-44.8	-56.5	3.8	1.49e+00	0	63	104	0	61	13646
2026-01-27 00:27:54.13	271.01	47.28	-44.7	-55.4	3.8	1.49e+00	0	63	104	0	61	12001
2026-01-27 00:27:55.14	270.48	47.14	-44.6	-54.5	4.0	1.48e+00	0	62	104	0	61	10794
2026-01-27 00:27:56.15	269.95	47.00	-44.7	-55.7	3.8	1.49e+00	0	63	104	0	61	12480
2026-01-27 00:27:57.16	269.43	46.86	-44.9	-57.2	3.8	1.49e+00	0	63	104	0	61	14799
2026-01-27 00:27:58.17	268.91	46.71	-44.4	-52.9	4.4	1.49e+00	0	63	104	0	60	9600
2026-01-27 00:27:59.18	268.40	46.57	-43.7	-49.3	6.6	2.85e-01	0	62	0	2097152	59	6682
2026-01-27 00:28:00.19	267.89	46.42	-43.8	-49.9	6.2	2.27e-01	0	63	0	5242880	59	7126
2026-01-27 00:28:01.20	267.39	46.27	-44.6	-53.3	4.3	1.47e+00	0	63	104	7340032	59	10643
2026-01-27 00:28:02.22	266.88	46.11	-44.1	-51.0	5.2	7.16e-01	0	63	0	7340032	59	8169
2026-01-27 00:28:03.23	266.39	45.96	-43.0	-47.6	8.1	1.50e-01	0	63	0	10485760	58	5801
2026-01-27 00:28:04.24	265.90	45.80	-42.0	-45.6	10.1	1.57e-02	0	63	0	13631488	56	5160
2026-01-27 00:28:05.25	265.42	45.64	-42.3	-46.1	9.5	1.81e-02	0	63	0	16777216	55	5809
2026-01-27 00:28:06.26	264.94	45.49	-43.7	-49.5	6.3	1.44e+00	0	63	104	17825792	59	6809
2026-01-27 00:28:07.27	264.46	45.32	-42.4	-46.2	9.4	2.07e-02	0	63	0	19922944	55	5910
2026-01-27 00:28:08.28	264.00	45.16	-42.8	-47.0	8.7	1.60e-01	0	63	0	23068672	57	5742
2026-01-27 00:28:09.29	263.53	45.00	-44.7	-54.8	4.0	1.48e+00	0	63	104	25165824	60	11892
2026-01-27 00:28:10.30	263.07	44.83	-42.9	-47.2	8.6	4.11e-02	0	63	0	26214400	57	5907
2026-01-27 00:28:11.31	262.62	44.67	-42.4	-46.3	9.4	2.99e-02	0	63	0	29360128	56	5600
2026-01-27 00:28:12.32	262.17	44.50	-41.3	-44.4	11.2	3.61e-03	0	63	0	32505856	54	5059
2026-01-27 00:28:13.33	261.72	44.33	-40.6	-43.2	12.5	2.04e-04	0	63	0	35651584	53	4654
2026-01-27 00:28:14.34	261.28	44.16	-40.3	-42.7	13.0	3.43e-05	0	63	0	38797312	52	4670
2026-01-27 00:28:15.35	260.84	43.99	-40.2	-42.6	13.1	1.98e-05	0	63	0	41943040	52	4640
2026-01-27 00:28:16.35	260.42	43.82	-40.7	-43.3	12.5	6.86e-05	0	63	0	45088768	52	5011
2026-01-27 00:28:17.36	259.99	43.64	-41.6	-44.9	10.9	6.09e-04	0	63	0	48234496	53	5686
2026-01-27 00:28:18.37	259.57	43.47	-42.5	-46.7	8.9	1.42e-02	0	63	0	51380224	55	6264
2026-01-27 00:28:19.38	259.15	43.29	-42.9	-47.4	8.3	5.68e-02	0	63	0	54525952	56	6369
2026-01-27 00:28:20.39	258.74	43.12	-42.2	-45.9	9.5	2.20e-02	0	63	0	57671680	56	5363
2026-01-27 00:28:21.40	258.33	42.94	-41.4	-44.5	11.0	3.20e-03	0	62	0	60817408	54	5124
2026-01-27 00:28:22.42	257.92	42.76	-40.9	-43.7	11.9	4.48e-04	0	63	0	63963136	53	4963
2026-01-27 00:28:23.43	257.52	42.58	-40.6	-43.1	12.6	1.55e-04	0	63	0	67108864	53	4618
2026-01-27 00:28:24.44	257.13	42.40	-40.4	-42.8	13.0	5.34e-05	0	63	0	70254592	52	4730
2026-01-27 00:28:25.45	256.74	42.22	-40.8	-43.4	12.4	9.99e-05	0	63	0	73400320	52	5063
2026-01-27 00:28:26.46	256.35	42.04	-41.4	-44.4	11.4	6.53e-04	0	63	0	76546048	53	5358
2026-01-27 00:28:27.47	255.97	41.86	-41.6	-44.8	10.8	3.00e-03	0	63	0	79691776	53	5654
2026-01-27 00:28:28.48	255.59	41.68	-41.6	-44.8	10.8	3.22e-03	0	63	0	82837504	53	5637
2026-01-27 00:28:29.49	255.22	41.49	-41.3	-44.4	11.2	1.70e-03	0	62	0	85983232	53	5350
2026-01-27 00:28:30.50	254.85	41.31	-41.1	-44.0	11.5	8.89e-04	0	63	0	89128960	53	5113
2026-01-27 00:28:31.51	254.49	41.13	-41.0	-43.8	11.8	5.73e-04	0	63	0	92274688	53	5026
2026-01-27 00:28:32.52	254.13	40.94	-41.1	-43.9	11.7	5.60e-04	0	63	0	95420416	53	5089
2026-01-27 00:28:33.53	253.77	40.76	-41.3	-44.3	11.4	8.18e-04	0	63	0	98566144	53	5301
2026-01-27 00:28:34.54	253.42	40.58	-41.6	-44.9	10.8	2.12e-03	0	63	0	101711872	53	5661
2026-01-27 00:28:35.55	253.07	40.39	-41.8	-45.2	10.4	3.94e-03	0	63	0	104857600	54	5565
2026-01-27 00:28:36.56	252.72	40.21	-41.6	-44.8	10.8	2.82e-03	0	63	0	108003328	54	5317
2026-01-27 00:28:37.57	252.38	40.02	-41.4	-44.4	11.2	1.90e-03	0	63	0	111149056	54	5076
2026-01-27 00:28:38.58	252.05	39.84	-41.1	-44.0	11.7	7.30e-04	0	62	0	114294784	54	4825
2026-01-27 00:28:39.59	251.71	39.65	-41.0	-43.9	11.9	4.42e-04	0	63	0	117440512	54	4778
2026-01-27 00:28:40.60	251.38	39.47	-41.0	-43.8	12.0	4.23e-04	0	63	0	120586240	54	4727
2026-01-27 00:28:41.61	251.06	39.28	-41.1	-44.0	11.8	4.39e-04	0	63	0	123731968	53	5102
2026-01-27 00:28:42.62	250.74	39.09	-41.0	-43.9	11.8	4.44e-04	0	63	0	126877696	53	5071
2026-01-27 00:28:43.63	250.42	38.91	-41.1	-44.0	11.7	5.20e-04	0	63	0	130023424	53	5134
2026-01-27 00:28:44.64	250.10	38.72	-41.4	-44.5	11.2	9.21e-04	0	62	0	133169152	53	5448
2026-01-27 00:28:45.65	249.79	38.54	-41.6	-44.9	10.8	1.95e-03	0	63	0	136314880	53	5718
2026-01-27 00:28:46.66	249.49	38.35	-41.7	-45.1	10.6	3.76e-03	0	63	0	139460608	54	5508
2026-01-27 00:28:47.67	249.18	38.17	-41.5	-44.7	10.9	3.01e-03	0	63	0	142606336	54	5272
2026-01-27 00:28:48.68	248.88	37.98	-41.1	-44.0	11.6	9.82e-04	0	63	0	145752064	54	4864
2026-01-27 00:28:49.69	248.58	37.80	-40.8	-43.4	12.2	2.61e-04	0	62	0	148897792	53	4800
2026-01-27 00:28:50.70	248.29	37.61	-40.6	-43.1	12.6	1.18e-04	0	63	0	153092096	53	4633
2026-01-27 00:28:51.71	248.00	37.43	-40.7	-43.4	12.4	1.14e-04	0	63	0	155189248	53	4782
2026-01-27 00:28:52.72	247.71	37.24	-41.0	-43.9	11.9	2.30e-04	0	63	0	158334976	53	5045
2026-01-27 00:28:53.73	247.43	37.06	-41.1	-44.1	11.7	5.95e-04	0	62	0	161480704	53	5173
2026-01-27 00:28:54.74	247.15	36.87	-41.2	-44.2	11.5	7.83e-04	0	63	0	164626432	53	5247
2026-01-27 00:28:55.75	246.87	36.69	-41.0	-43.8	11.9	4.58e-04	0	63	0	168820736	53	5028
2026-01-27 00:28:56.76	246.60	36.51	-40.8	-43.5	12.2	2.37e-04	0	63	0	171966464	53	4837
2026-01-27 00:28:57.77	246.33	36.32	-40.7	-43.4	12.4	2.02e-04	0	63	0	175112192	53	4762
2026-01-27 00:28:58.78	246.06	36.14	-40.4	-43.0	12.8	8.16e-05	0	63	0	178257920	52	4831
2026-01-27 00:28:59.79	245.79	35.96	-40.1	-42.5	13.2	3.50e-05	0	63	0	180355072	52	4560
2026-01-27 00:29:00.80	245.53	35.77	-40.0	-42.3	13.4	2.21e-05	0	62	0	184549376	52	4478
2026-01-27 00:29:01.81	245.27	35.59	-39.7	-41.9	13.9	4.50e-06	0	63	0	187695104	51	4519
2026-01-27 00:29:02.82	245.02	35.41	-39.6	-41.7	14.1	1.50e-06	0	63	0	190840832	51	4403
2026-01-27 00:29:03.83	244.76	35.23	-39.5	-41.6	14.2	1.50e-06	0	63	0	193986560	51	4363
2026-01-27 00:29:04.84	244.51	35.05	-39.7	-41.9	14.0	0.00e+00	0	63	0	197132288	51	4512
2026-01-27 00:29:05.85	244.27	34.87	-40.1	-42.4	13.4	8.30e-06	0	63	0	200278016	51	4803
2026-01-27 00:29:06.86	244.02	34.69	-40.3	-42.8	13.0	3.28e-05	0	63	0	203423744	51	4997
2026-01-27 00:29:07.87	243.78	34.51	-40.3	-42.7	13.0	4.11e-05	0	63	0	206569472	51	4969
2026-01-27 00:29:08.88	243.54	34.33	-40.3	-42.8	13.0	3.20e-05	0	63	0	209715200	51	4988
2026-01-27 00:29:09.89	243.30	34.15	-40.3	-42.8	13.0	4.34e-05	0	63	0	212860928	51	4989
2026-01-27 00:29:10.90	243.07	33.97	-40.6	-43.2	12.6	9.00e-05	0	63	0	216006656	51	5229
2026-01-27 00:29:11.92	242.83	33.79	-40.7	-43.5	12.3	1.94e-04	0	63	0	219152384	52	5102
2026-01-27 00:29:12.93	242.60	33.61	-40.6	-43.3	12.3	1.89e-04	0	63	0	222298112	52	5032
2026-01-27 00:29:13.94	242.38	33.44	-40.6	-43.2	12.5	1.40e-04	0	63	0	225443840	52	4963
2026-01-27 00:29:14.95	242.15	33.26	-40.3	-42.7	13.0	4.11e-05	0	63	0	228589568	52	4684
2026-01-27 00:29:15.96	241.93	33.09	-40.1	-42.4	13.3	1.60e-05	0	63	0	231735296	52	4543
2026-01-27 00:29:16.97	241.71	32.91	-40.0	-42.3	13.5	1.14e-05	0	63	0	234881024	51	4710
2026-01-27 00:29:17.98	241.49	32.74	-39.9	-42.2	13.5	7.60e-06	0	63	0	238026752	51	4679
2026-01-27 00:29:18.99	241.28	32.56	-39.8	-42.1	13.7	6.10e-06	0	63	0	241172480	51	4609
2026-01-27 00:29:20.00	241.07	32.39	-39.8	-42.0	13.8	5.30e-06	0	63	0	244318208	51	4561
2026-01-27 00:29:21.01	240.86	32.21	-39.9	-42.2	13.6	6.80e-06	0	63	0	247463936	51	4654
2026-01-27 00:29:22.02	240.65	32.04	-39.8	-42.0	13.8	4.50e-06	0	63	0	250609664	51	4554
2026-01-27 00:29:23.03	240.44	31.87	-39.8	-42.1	13.7	8.30e-06	0	63	0	253755392	51	4603
2026-01-27 00:29:24.04	240.24	31.70	-39.7	-41.9	13.9	1.50e-06	0	63	0	256901120	51	4520
2026-01-27 00:29:25.05	240.04	31.53	-39.7	-41.8	13.9	5.30e-06	0	63	0	260046848	51	4492
2026-01-27 00:29:26.06	239.84	31.36	-39.5	-41.7	14.1	1.50e-06	0	63	0	263192576	51	4406
2026-01-27 00:29:27.07	239.64	31.19	-39.5	-41.5	14.2	2.20e-06	0	62	0	266338304	50	4589
2026-01-27 00:29:28.09	239.44	31.02	-39.4	-41.4	14.3	0.00e+00	0	63	0	269484032	50	4539
2026-01-27 00:29:29.10	239.25	30.85	-39.4	-41.4	14.4	1.50e-06	0	63	0	272629760	50	4521
2026-01-27 00:29:30.11	239.06	30.68	-39.5	-41.6	14.2	4.50e-06	0	63	0	275775488	50	4612
2026-01-27 00:29:31.12	238.87	30.51	-39.6	-41.7	14.0	2.20e-06	0	63	0	278921216	50	4703
2026-01-27 00:29:32.13	238.68	30.35	-39.7	-41.9	13.9	3.80e-06	0	63	0	282066944	50	4786
2026-01-27 00:29:33.14	238.50	30.18	-39.6	-41.8	14.0	2.20e-06	0	63	0	285212672	50	4720
2026-01-27 00:29:34.15	238.32	30.02	-39.6	-41.7	14.0	1.50e-06	0	63	0	288358400	50	4679
2026-01-27 00:29:35.16	238.13	29.85	-39.5	-41.6	14.2	7.00e-07	0	62	0	291504128	50	4601
2026-01-27 00:29:36.17	237.95	29.69	-39.4	-41.5	14.2	7.00e-07	0	63	0	294649856	50	4559
2026-01-27 00:29:37.18	237.78	29.52	-39.4	-41.5	14.3	0.00e+00	0	63	0	297795584	50	4556
2026-01-27 00:29:38.19	237.60	29.36	-39.5	-41.6	14.2	0.00e+00	0	63	0	300941312	50	4611
2026-01-27 00:29:39.20	237.43	29.20	-39.7	-41.9	13.9	4.50e-06	0	63	0	304087040	50	4774
2026-01-27 00:29:40.21	237.25	29.04	-39.7	-41.9	13.8	1.50e-06	0	63	0	307232768	50	4814
2026-01-27 00:29:41.22	237.08	28.88	-39.8	-42.0	13.7	5.30e-06	0	63	0	310378496	50	4857
2026-01-27 00:29:42.23	236.92	28.72	-39.8	-42.1	13.6	3.80e-06	0	63	0	313524224	50	4902
2026-01-27 00:29:43.23	236.75	28.56	-39.9	-42.2	13.5	7.60e-06	0	63	0	316669952	50	4933
2026-01-27 00:29:44.24	236.58	28.40	-39.9	-42.2	13.5	1.29e-05	0	63	0	319815680	50	4945
2026-01-27 00:29:45.25	236.42	28.24	-39.9	-42.3	13.4	1.44e-05	0	63	0	322961408	50	4987
2026-01-27 00:29:46.26	236.26	28.08	-39.9	-42.2	13.5	1.06e-05	0	63	0	326107136	50	4944
2026-01-27 00:29:47.27	236.10	27.93	-39.9	-42.2	13.5	1.44e-05	0	63	0	329252864	50	4940
2026-01-27 00:29:48.28	235.94	27.77	-39.8	-42.0	13.6	6.80e-06	0	62	0	332398592	50	4864
2026-01-27 00:29:49.29	235.78	27.61	-39.7	-42.0	13.7	5.30e-06	0	63	0	335544320	50	4825
2026-01-27 00:29:50.30	235.63	27.46	-39.5	-41.6	14.1	7.00e-07	0	63	0	338690048	50	4631
2026-01-27 00:29:51.31	235.47	27.30	-39.3	-41.4	14.3	1.50e-06	0	63	0	341835776	50	4515
2026-01-27 00:29:52.32	235.32	27.15	-39.3	-41.4	14.3	7.00e-07	0	63	0	344981504	50	4518
2026-01-27 00:29:53.33	235.17	27.00	-39.3	-41.4	14.3	7.00e-07	0	63	0	348127232	50	4531
2026-01-27 00:29:54.34	235.02	26.84	-39.3	-41.4	14.3	7.00e-07	0	63	0	351272960	50	4530
2026-01-27 00:29:55.36	234.87	26.69	-39.2	-41.3	14.4	1.50e-06	0	63	0	354418688	50	4468
2026-01-27 00:29:56.37	234.72	26.54	-39.2	-41.3	14.4	1.50e-06	0	63	0	357564416	50	4449
2026-01-27 00:29:57.38	234.57	26.39	-39.3	-41.4	14.3	0.00e+00	0	62	0	360710144	50	4510
2026-01-27 00:29:58.39	234.43	26.24	-39.4	-41.5	14.2	0.00e+00	0	63	0	363855872	50	4575
2026-01-27 00:29:59.40	234.29	26.09	-39.4	-41.5	14.2	2.20e-06	0	63	0	367001600	50	4580
2026-01-27 00:30:00.41	234.15	25.94	-39.4	-41.5	14.2	0.00e+00	0	62	0	370147328	50	4582
2026-01-27 00:30:01.42	234.00	25.79	-39.4	-41.6	14.2	7.00e-07	0	63	0	373293056	50	4601
2026-01-27 00:30:02.43	233.87	25.65	-39.4	-41.5	14.2	7.00e-07	0	63	0	376438784	50	4562
2026-01-27 00:30:03.44	233.73	25.50	-39.5	-41.7	14.0	3.00e-06	0	63	0	379584512	50	4677
2026-01-27 00:30:04.45	233.59	25.35	-39.7	-41.9	13.8	7.00e-07	0	63	0	382730240	50	4789
2026-01-27 00:30:05.46	233.46	25.21	-39.8	-42.1	13.6	9.10e-06	0	63	0	385875968	50	4901
2026-01-27 00:30:06.47	233.32	25.06	-39.9	-42.2	13.6	1.52e-05	0	62	0	389021696	50	4948
2026-01-27 00:30:07.48	233.19	24.92	-39.9	-42.3	13.5	7.60e-06	0	63	0	392167424	50	5011
2026-01-27 00:30:08.50	233.06	24.77	-39.8	-42.1	13.6	1.06e-05	0	63	0	395313152	50	4920
2026-01-27 00:30:09.50	232.93	24.63	-39.7	-42.0	13.8	6.80e-06	0	63	0	398458880	50	4833
2026-01-27 00:30:10.51	232.80	24.49	-39.7	-41.9	13.9	1.50e-06	0	63	0	401604608	50	4771
2026-01-27 00:30:11.52	232.67	24.35	-39.6	-41.8	13.9	4.50e-06	0	63	0	404750336	50	4755
2026-01-27 00:30:12.53	232.55	24.20	-39.5	-41.6	14.2	7.00e-07	0	63	0	407896064	50	4613
2026-01-27 00:30:13.54	232.42	24.06	-39.4	-41.5	14.2	0.00e+00	0	63	0	411041792	50	4579
2026-01-27 00:30:14.55	232.30	23.92	-39.5	-41.6	14.2	2.20e-06	0	62	0	414187520	50	4626
2026-01-27 00:30:15.56	232.17	23.78	-39.5	-41.6	14.1	7.00e-07	0	62	0	417333248	50	4640
2026-01-27 00:30:16.57	232.05	23.64	-39.5	-41.6	14.1	7.00e-07	0	62	0	420478976	50	4627
2026-01-27 00:30:17.59	231.93	23.50	-39.5	-41.6	14.1	7.00e-07	0	63	0	423624704	50	4635
2026-01-27 00:30:18.60	231.81	23.37	-39.4	-41.5	14.2	7.00e-07	0	63	0	426770432	50	4590
2026-01-27 00:30:19.60	231.69	23.23	-39.3	-41.4	14.3	2.20e-06	0	63	0	429916160	50	4523
2026-01-27 00:30:20.62	231.57	23.09	-39.3	-41.4	14.2	1.50e-06	0	62	0	433061888	50	4541
2026-01-27 00:30:21.63	231.46	22.96	-39.3	-41.3	14.3	0.00e+00	0	62	0	436207616	50	4490
2026-01-27 00:30:22.64	231.34	22.82	-39.3	-41.4	14.3	0.00e+00	0	62	0	439353344	50	4503
2026-01-27 00:30:23.65	231.23	22.69	-39.3	-41.3	14.3	7.00e-07	0	63	0	443547648	50	4486
2026-01-27 00:30:24.66	231.11	22.55	-39.3	-41.4	14.3	7.00e-07	0	62	0	446693376	50	4494
2026-01-27 00:30:25.67	231.00	22.42	-39.3	-41.4	14.2	1.50e-06	0	63	0	448790528	50	4523
2026-01-27 00:30:26.68	230.89	22.29	-39.4	-41.5	14.1	2.20e-06	0	63	0	451936256	50	4580
2026-01-27 00:30:27.69	230.78	22.15	-39.4	-41.5	14.1	1.50e-06	0	63	0	455081984	50	4572
2026-01-27 00:30:28.71	230.67	22.02	-39.4	-41.5	14.2	4.50e-06	0	63	0	459276288	50	4560
2026-01-27 00:30:29.72	230.56	21.89	-39.3	-41.4	14.2	1.50e-06	0	63	0	462422016	50	4515
2026-01-27 00:30:30.73	230.45	21.76	-39.4	-41.5	14.2	1.50e-06	0	63	0	465567744	50	4551
2026-01-27 00:30:31.74	230.34	21.63	-39.4	-41.5	14.2	7.00e-07	0	62	0	468713472	50	4552
2026-01-27 00:30:32.75	230.24	21.50	-39.4	-41.6	14.1	1.50e-06	0	62	0	471859200	50	4603
2026-01-27 00:30:33.76	230.13	21.37	-39.4	-41.5	14.1	1.50e-06	0	63	0	475004928	50	4591
2026-01-27 00:30:34.77	230.03	21.24	-39.4	-41.6	14.1	1.50e-06	0	62	0	478150656	50	4602
2026-01-27 00:30:35.78	229.92	21.11	-39.5	-41.7	14.0	7.00e-07	0	62	0	481296384	50	4653
2026-01-27 00:30:36.79	229.82	20.98	-39.6	-41.8	13.8	1.50e-06	0	63	0	484442112	50	4741
2026-01-27 00:30:37.80	229.72	20.86	-39.6	-41.8	13.9	3.80e-06	0	63	0	487587840	50	4719
2026-01-27 00:30:38.81	229.62	20.73	-39.5	-41.8	13.9	4.50e-06	0	63	0	490733568	50	4713
2026-01-27 00:30:39.82	229.52	20.61	-39.5	-41.8	13.9	4.50e-06	0	63	0	493879296	50	4706
2026-01-27 00:30:40.83	229.42	20.48	-39.5	-41.7	14.0	6.80e-06	0	63	0	497025024	50	4652
2026-01-27 00:30:41.84	229.32	20.36	-39.4	-41.5	14.1	3.00e-06	0	62	0	500170752	50	4581
2026-01-27 00:30:42.85	229.23	20.23	-39.3	-41.3	14.2	7.00e-07	0	63	0	503316480	50	4486
2026-01-27 00:30:43.86	229.13	20.11	-39.2	-41.3	14.3	1.50e-06	0	63	0	506462208	50	4476
2026-01-27 00:30:44.87	229.03	19.98	-39.2	-41.3	14.3	7.00e-07	0	63	0	509607936	50	4461
2026-01-27 00:30:45.88	228.94	19.86	-39.2	-41.3	14.3	1.50e-06	0	63	0	512753664	50	4463
2026-01-27 00:30:46.89	228.84	19.74	-39.2	-41.3	14.3	0.00e+00	0	62	0	515899392	50	4459
2026-01-27 00:30:47.90	228.75	19.62	-39.3	-41.3	14.2	7.00e-07	0	62	0	519045120	50	4492
2026-01-27 00:30:48.91	228.66	19.50	-39.1	-41.2	14.3	7.00e-07	0	63	0	522190848	50	4417
2026-01-27 00:30:49.92	228.57	19.38	-39.1	-41.2	14.4	0.00e+00	0	63	0	525336576	50	4421
2026-01-27 00:30:50.93	228.47	19.26	-39.2	-41.3	14.3	1.50e-06	0	63	0	528482304	50	4460
2026-01-27 00:30:51.94	228.38	19.14	-39.2	-41.3	14.2	1.50e-06	0	62	0	531628032	50	4490
2026-01-27 00:30:52.95	228.29	19.02	-39.2	-41.3	14.3	2.20e-06	0	62	0	534773760	50	4468
2026-01-27 00:30:53.96	228.20	18.90	-39.3	-41.4	14.1	2.20e-06	0	63	0	537919488	50	4529
2026-01-27 00:30:54.97	228.12	18.78	-39.4	-41.5	14.1	2.20e-06	0	63	0	541065216	50	4575
2026-01-27 00:30:55.98	228.03	18.66	-39.3	-41.5	14.1	2.20e-06	0	62	0	544210944	50	4565
2026-01-27 00:30:56.99	227.94	18.55	-39.5	-41.7	13.9	5.30e-06	0	63	0	547356672	50	4656
2026-01-27 00:30:58.00	227.85	18.43	-39.5	-41.7	13.9	4.50e-06	0	63	0	550502400	50	4693
2026-01-27 00:30:59.01	227.77	18.31	-39.6	-41.9	13.7	6.80e-06	0	63	0	553648128	50	4768
2026-01-27 00:31:00.02	227.68	18.20	-39.6	-41.9	13.7	9.90e-06	0	63	0	556793856	50	4791
2026-01-27 00:31:01.03	227.60	18.08	-39.7	-42.0	13.6	7.60e-06	0	63	0	559939584	50	4845
2026-01-27 00:31:02.04	227.52	17.97	-39.8	-42.1	13.5	1.67e-05	0	63	0	563085312	50	4889
2026-01-27 00:31:03.05	227.43	17.85	-39.8	-42.2	13.4	9.90e-06	0	63	0	566231040	50	4947
2026-01-27 00:31:04.06	227.35	17.74	-39.9	-42.3	13.3	2.21e-05	0	63	0	569376768	50	4990
2026-01-27 00:31:05.07	227.27	17.63	-40.0	-42.4	13.2	1.90e-05	0	63	0	572522496	50	5058
2026-01-27 00:31:06.08	227.19	17.51	-40.0	-42.5	13.1	3.96e-05	0	63	0	575668224	50	5111
2026-01-27 00:31:07.09	227.11	17.40	-40.1	-42.5	13.0	4.27e-05	0	62	0	578813952	50	5150
2026-01-27 00:31:08.10	227.03	17.29	-40.0	-42.5	13.1	2.97e-05	0	63	0	581959680	50	5113
2026-01-27 00:31:09.11	226.95	17.18	-40.1	-42.6	13.0	3.50e-05	0	62	0	585105408	50	5164
2026-01-27 00:31:10.12	226.87	17.07	-40.1	-42.6	12.9	4.27e-05	0	62	0	588251136	50	5190
2026-01-27 00:31:11.13	226.79	16.95	-40.1	-42.6	12.9	5.26e-05	0	63	0	591396864	50	5204
2026-01-27 00:31:12.14	226.71	16.84	-40.1	-42.6	12.9	4.95e-05	0	63	0	594542592	50	5210
2026-01-27 00:31:13.15	226.64	16.73	-40.1	-42.7	12.8	5.18e-05	0	63	0	597688320	50	5237
2026-01-27 00:31:14.16	226.56	16.63	-40.1	-42.7	12.8	5.72e-05	0	63	0	600834048	50	5233
2026-01-27 00:31:15.17	226.48	16.52	-40.0	-42.5	13.0	4.42e-05	0	62	0	603979776	50	5148
2026-01-27 00:31:16.18	226.41	16.41	-40.1	-42.5	13.0	3.89e-05	0	63	0	607125504	50	5150
2026-01-27 00:31:17.19	226.33	16.30	-40.1	-42.6	12.9	4.27e-05	0	62	0	610271232	50	5170
2026-01-27 00:31:18.20	226.26	16.19	-40.0	-42.5	13.0	3.96e-05	0	62	0	613416960	50	5107
2026-01-27 00:31:19.21	226.19	16.09	-40.0	-42.5	13.0	2.97e-05	0	63	0	616562688	50	5111
2026-01-27 00:31:20.22	226.11	15.98	-40.0	-42.6	12.9	4.88e-05	0	62	0	619708416	50	5164
2026-01-27 00:31:21.23	226.04	15.87	-39.9	-42.3	13.1	3.35e-05	0	63	0	622854144	50	5035
2026-01-27 00:31:22.24	225.97	15.77	-39.9	-42.3	13.2	1.98e-05	0	63	0	625999872	50	5028
2026-01-27 00:31:23.25	225.90	15.66	-39.9	-42.3	13.2	2.59e-05	0	63	0	629145600	50	4999
2026-01-27 00:31:24.26	225.83	15.56	-39.9	-42.3	13.1	3.35e-05	0	62	0	632291328	50	5024
2026-01-27 00:31:25.27	225.76	15.45	-39.8	-42.2	13.3	2.97e-05	0	62	0	635437056	50	4953
2026-01-27 00:31:26.28	225.69	15.35	-39.7	-42.1	13.4	1.22e-05	0	63	0	638582784	50	4897
2026-01-27 00:31:27.29	225.62	15.24	-39.8	-42.2	13.3	2.36e-05	0	63	0	641728512	50	4953
2026-01-27 00:31:28.30	225.55	15.14	-39.9	-42.3	13.1	2.05e-05	0	62	0	644874240	50	5007
2026-01-27 00:31:29.31	225.48	15.04	-39.7	-42.1	13.3	1.29e-05	0	63	0	648019968	50	4902
2026-01-27 00:31:30.33	225.41	14.93	-39.7	-42.0	13.4	1.37e-05	0	62	0	651165696	50	4870
2026-01-27 00:31:31.33	225.35	14.83	-39.7	-42.1	13.3	1.67e-05	0	62	0	654311424	50	4897
2026-01-27 00:31:32.35	225.28	14.73	-39.8	-42.2	13.3	2.13e-05	0	62	0	657457152	50	4941
2026-01-27 00:31:33.36	225.21	14.63	-39.7	-42.1	13.3	1.29e-05	0	63	0	660602880	50	4905
2026-01-27 00:31:34.37	225.14	14.53	-39.8	-42.2	13.2	1.29e-05	0	63	0	663748608	50	4941
2026-01-27 00:31:35.37	225.08	14.43	-39.8	-42.2	13.2	2.21e-05	0	62	0	666894336	50	4951
2026-01-27 00:31:36.38	225.01	14.32	-39.8	-42.3	13.1	2.82e-05	0	62	0	670040064	50	4986
2026-01-27 00:31:37.39	224.95	14.22	-39.9	-42.3	13.1	2.28e-05	0	63	0	673185792	50	5023
2026-01-27 00:31:38.41	224.89	14.12	-39.9	-42.4	13.0	4.57e-05	0	63	0	676331520	50	5069
2026-01-27 00:31:39.42	224.82	14.02	-40.0	-42.5	12.9	4.95e-05	0	62	0	679477248	50	5114
2026-01-27 00:31:40.43	224.76	13.93	-40.0	-42.5	12.8	5.11e-05	0	62	0	682622976	50	5151
2026-01-27 00:31:41.44	224.70	13.83	-40.0	-42.6	12.8	5.34e-05	0	62	0	685768704	50	5164
2026-01-27 00:31:42.45	224.63	13.73	-40.1	-42.6	12.8	7.09e-05	0	62	0	688914432	50	5199
2026-01-27 00:31:43.46	224.57	13.63	-40.1	-42.6	12.8	7.62e-05	0	62	0	692060160	50	5199
2026-01-27 00:31:44.47	224.51	13.53	-40.1	-42.7	12.7	6.48e-05	0	62	0	695205888	50	5235
2026-01-27 00:31:45.48	224.45	13.44	-40.2	-42.8	12.6	9.38e-05	0	63	0	698351616	50	5287
2026-01-27 00:31:46.49	224.39	13.34	-40.2	-42.8	12.5	1.09e-04	0	62	0	701497344	50	5321
2026-01-27 00:31:47.49	224.33	13.24	-40.3	-43.0	12.3	1.82e-04	0	62	0	704643072	51	5133
2026-01-27 00:31:48.50	224.27	13.15	-40.3	-43.0	12.3	1.64e-04	0	63	0	707788800	51	5116
2026-01-27 00:31:49.52	224.21	13.05	-40.3	-43.1	12.3	1.85e-04	0	62	0	710934528	51	5164
2026-01-27 00:31:50.52	224.15	12.96	-40.3	-43.1	12.3	2.08e-04	0	62	0	714080256	51	5162
2026-01-27 00:31:51.54	224.09	12.86	-40.4	-43.1	12.2	2.17e-04	0	62	0	717225984	51	5199
2026-01-27 00:31:52.55	224.03	12.77	-40.4	-43.1	12.1	2.57e-04	0	63	0	720371712	51	5213
2026-01-27 00:31:53.56	223.97	12.67	-40.4	-43.1	12.1	2.72e-04	0	63	0	723517440	51	5217
2026-01-27 00:31:54.57	223.92	12.58	-40.4	-43.3	12.0	3.36e-04	0	63	0	726663168	51	5296
2026-01-27 00:31:55.58	223.86	12.48	-40.5	-43.3	11.9	3.79e-04	0	63	0	729808896	51	5329
2026-01-27 00:31:56.59	223.80	12.39	-40.5	-43.4	11.9	4.09e-04	0	62	0	732954624	51	5372
2026-01-27 00:31:57.60	223.75	12.30	-40.5	-43.3	11.9	3.81e-04	0	63	0	737148928	51	5309
2026-01-27 00:31:58.61	223.69	12.21	-40.5	-43.3	11.9	4.59e-04	0	63	0	739246080	51	5329
2026-01-27 00:31:59.62	223.63	12.11	-40.5	-43.3	11.9	4.39e-04	0	62	0	742391808	51	5314
2026-01-27 00:32:00.63	223.58	12.02	-40.4	-43.2	12.0	3.81e-04	0	63	0	745537536	51	5271
2026-01-27 00:32:01.64	223.52	11.93	-40.4	-43.3	11.9	4.12e-04	0	63	0	748683264	51	5306
2026-01-27 00:32:02.65	223.47	11.84	-40.4	-43.2	11.9	3.75e-04	0	63	0	752877568	51	5269
2026-01-27 00:32:03.66	223.41	11.75	-40.4	-43.3	11.9	4.42e-04	0	63	0	756023296	51	5304
2026-01-27 00:32:04.67	223.36	11.66	-40.4	-43.2	11.9	3.87e-04	0	62	0	759169024	51	5257
2026-01-27 00:32:05.68	223.31	11.57	-40.3	-43.1	12.0	3.46e-04	0	63	0	762314752	51	5199
2026-01-27 00:32:06.69	223.25	11.48	-40.4	-43.2	11.9	3.59e-04	0	62	0	764411904	51	5251
2026-01-27 00:32:07.70	223.20	11.39	-40.3	-43.1	12.0	3.30e-04	0	63	0	768606208	51	5202
2026-01-27 00:32:08.71	223.15	11.30	-40.4	-43.2	11.9	3.82e-04	0	63	0	771751936	51	5248
2026-01-27 00:32:09.72	223.10	11.21	-40.3	-43.1	11.9	3.73e-04	0	62	0	774897664	51	5211
2026-01-27 00:32:10.73	223.04	11.12	-40.3	-43.1	11.9	3.61e-04	0	62	0	778043392	51	5199
2026-01-27 00:32:11.74	222.99	11.03	-40.4	-43.2	11.8	4.36e-04	0	62	0	781189120	51	5264
2026-01-27 00:32:12.75	222.94	10.94	-40.3	-43.2	11.9	4.25e-04	0	62	0	784334848	51	5224
2026-01-27 00:32:13.76	222.89	10.85	-40.4	-43.3	11.7	5.20e-04	0	62	0	787480576	51	5291
2026-01-27 00:32:14.77	222.84	10.76	-40.4	-43.3	11.7	6.35e-04	0	62	0	790626304	51	5303
2026-01-27 00:32:15.78	222.79	10.68	-40.3	-43.1	11.9	3.95e-04	0	62	0	793772032	51	5186
2026-01-27 00:32:16.79	222.74	10.59	-40.3	-43.2	11.8	4.23e-04	0	62	0	796917760	51	5227
2026-01-27 00:32:17.80	222.69	10.50	-40.4	-43.2	11.8	4.68e-04	0	62	0	800063488	51	5266
2026-01-27 00:32:18.81	222.64	10.42	-40.4	-43.2	11.7	5.42e-04	0	62	0	803209216	51	5272
2026-01-27 00:32:19.82	222.59	10.33	-40.4	-43.3	11.7	5.81e-04	0	62	0	806354944	51	5287
2026-01-27 00:32:20.84	222.54	10.24	-40.4	-43.2	11.8	4.91e-04	0	62	0	809500672	51	5256
2026-01-27 00:32:21.85	222.49	10.16	-40.4	-43.3	11.7	6.98e-04	0	62	0	812646400	51	5297
2026-01-27 00:32:22.86	222.45	10.07	-40.4	-43.3	11.6	7.35e-04	0	62	0	815792128	51	5323
2026-01-27 00:32:23.87	222.40	9.99	-40.4	-43.3	11.7	5.32e-04	0	63	0	818937856	51	5304
2026-01-27 00:32:24.88	222.35	9.90	-40.4	-43.3	11.7	5.59e-04	0	62	0	822083584	51	5283
2026-01-27 00:32:25.89	222.30	9.82	-40.5	-43.4	11.5	6.96e-04	0	63	0	825229312	51	5374
2026-01-27 00:32:26.90	222.26	9.73	-40.4	-43.3	11.7	6.07e-04	0	63	0	828375040	51	5302
2026-01-27 00:32:27.91	222.21	9.65	-40.4	-43.4	11.6	6.42e-04	0	63	0	831520768	51	5359
2026-01-27 00:32:28.92	222.16	9.56	-40.5	-43.5	11.5	8.67e-04	0	62	0	834666496	51	5407
2026-01-27 00:32:29.93	222.12	9.48	-40.5	-43.4	11.6	7.48e-04	0	63	0	837812224	51	5383
2026-01-27 00:32:30.94	222.07	9.40	-40.5	-43.5	11.5	8.20e-04	0	62	0	840957952	51	5413
2026-01-27 00:32:31.95	222.03	9.31	-40.4	-43.4	11.5	8.04e-04	0	63	0	844103680	51	5369
2026-01-27 00:32:32.96	221.98	9.23	-40.5	-43.6	11.4	9.53e-04	0	62	0	847249408	51	5478
2026-01-27 00:32:33.97	221.93	9.15	-40.5	-43.5	11.4	9.56e-04	0	63	0	850395136	51	5452
2026-01-27 00:32:34.98	221.89	9.07	-40.6	-43.7	11.3	1.05e-03	0	62	0	853540864	51	5538
2026-01-27 00:32:35.99	221.85	8.98	-40.6	-43.7	11.3	1.25e-03	0	62	0	856686592	51	5541
2026-01-27 00:32:37.00	221.80	8.90	-40.6	-43.7	11.2	1.35e-03	0	62	0	859832320	51	5562
2026-01-27 00:32:38.02	221.76	8.82	-40.6	-43.8	11.1	1.68e-03	0	62	0	862978048	51	5623
2026-01-27 00:32:39.03	221.71	8.74	-40.6	-43.7	11.2	1.41e-03	0	62	0	866123776	51	5573
2026-01-27 00:32:40.04	221.67	8.66	-40.7	-43.8	11.1	1.52e-03	0	63	0	869269504	51	5626
2026-01-27 00:32:41.05	221.63	8.58	-40.6	-43.7	11.2	1.50e-03	0	62	0	872415232	51	5559
2026-01-27 00:32:42.05	221.58	8.50	-40.7	-43.9	11.0	1.67e-03	0	62	0	875560960	51	5669
2026-01-27 00:32:43.07	221.54	8.42	-40.6	-43.9	10.9	1.99e-03	0	63	0	878706688	52	5374
2026-01-27 00:32:44.08	221.50	8.34	-40.6	-43.8	10.9	1.98e-03	0	62	0	881852416	52	5323
2026-01-27 00:32:45.09	221.46	8.26	-40.6	-43.9	10.8	2.41e-03	0	62	0	884998144	52	5376
2026-01-27 00:32:46.10	221.41	8.18	-40.7	-43.9	10.8	2.24e-03	0	62	0	888143872	52	5385
2026-01-27 00:32:47.11	221.37	8.10	-40.6	-43.9	10.8	2.81e-03	0	62	0	891289600	52	5376
2026-01-27 00:32:48.12	221.33	8.02	-40.7	-44.0	10.7	2.69e-03	0	63	0	894435328	52	5421
2026-01-27 00:32:49.13	221.29	7.94	-44.3	-56.5	3.8	1.11e+00	0	63	104	896532480	59	15249
2026-01-27 00:32:50.14	221.25	7.86	-44.6	-56.8	3.8	1.49e+00	0	62	104	896532480	59	15816
2026-01-27 00:32:51.15	221.21	7.78	-44.7	-57.1	3.8	1.49e+00	0	63	104	896532480	60	15570
2026-01-27 00:32:52.16	221.17	7.70	-44.9	-57.2	3.8	1.49e+00	0	62	104	896532480	60	15727
2026-01-27 00:32:53.17	221.13	7.63	-44.9	-57.3	3.8	1.49e+00	0	63	104	896532480	60	15814
2026-01-27 00:32:54.18	221.09	7.55	-45.0	-57.4	3.8	1.49e+00	0	62	104	896532480	60	15944
2026-01-27 00:32:55.19	221.05	7.47	-45.1	-57.4	3.8	1.49e+00	0	62	104	896532480	60	16112
2026-01-27 00:32:56.20	221.01	7.39	-45.1	-57.4	3.8	1.49e+00	0	62	104	896532480	60	16121
2026-01-27 00:32:57.21	220.97	7.32	-45.1	-57.5	3.8	1.49e+00	0	62	104	896532480	60	16152
2026-01-27 00:32:58.23	220.93	7.24	-45.1	-57.4	3.8	1.49e+00	0	62	104	896532480	60	15972
2026-01-27 00:32:59.24	220.89	7.16	-45.0	-57.4	3.8	1.49e+00	0	62	104	896532480	60	16011
2026-01-27 00:33:00.25	220.85	7.08	-45.0	-57.3	3.8	1.49e+00	0	62	104	896532480	60	15920
2026-01-27 00:33:01.26	220.81	7.01	-45.0	-57.3	3.8	1.49e+00	0	63	104	896532480	60	15870
2026-01-27 00:33:02.27	220.77	6.93	-45.0	-57.3	3.8	1.49e+00	0	63	104	896532480	60	15798
2026-01-27 00:33:03.28	220.74	6.86	-45.0	-57.3	3.8	1.49e+00	0	63	104	896532480	60	15801
2026-01-27 00:33:04.29	220.70	6.78	-45.0	-57.3	3.8	1.49e+00	0	63	104	896532480	60	15874
2026-01-27 00:33:05.30	220.66	6.71	-44.9	-57.2	3.8	1.49e+00	0	62	104	896532480	60	15725
2026-01-27 00:33:06.31	220.62	6.63	-45.0	-57.3	3.8	1.49e+00	0	63	104	896532480	60	15793
2026-01-27 00:33:07.32	220.58	6.56	-44.9	-57.2	3.8	1.49e+00	0	63	104	896532480	60	15715
2026-01-27 00:33:08.33	220.55	6.48	-44.9	-57.2	3.8	1.49e+00	0	63	104	896532480	60	15732
2026-01-27 00:33:09.34	220.51	6.41	-44.9	-57.2	3.8	1.49e+00	0	63	104	896532480	60	15723
2026-01-27 00:33:10.35	220.47	6.33	-44.9	-57.2	3.8	1.49e+00	0	63	104	896532480	60	15683
2026-01-27 00:33:11.36	220.44	6.26	-44.9	-57.2	3.8	1.49e+00	0	63	104	896532480	60	15615
2026-01-27 00:33:12.37	220.40	6.18	-44.9	-57.2	3.8	1.49e+00	0	62	104	896532480	60	15664
2026-01-27 00:33:13.38	220.37	6.11	-44.9	-57.2	3.8	1.49e+00	0	63	104	896532480	60	15672
2026-01-27 00:33:14.39	220.33	6.04	-44.9	-57.2	3.8	1.49e+00	0	63	104	896532480	60	15621
2026-01-27 00:33:15.40	220.29	5.96	-44.9	-57.2	3.8	1.49e+00	0	63	104	896532480	60	15632
2026-01-27 00:33:16.41	220.26	5.89	-44.9	-57.1	3.8	1.49e+00	0	63	104	896532480	60	15573
2026-01-27 00:33:17.42	220.22	5.82	-44.9	-57.1	3.8	1.49e+00	0	63	104	896532480	60	15558
2026-01-27 00:33:18.43	220.19	5.74	-44.9	-57.2	3.8	1.49e+00	0	63	104	896532480	60	15616
2026-01-27 00:33:19.44	220.15	5.67	-44.9	-57.1	3.8	1.49e+00	0	63	104	896532480	60	15579
2026-01-27 00:33:20.46	220.12	5.60	-44.9	-57.1	3.8	1.49e+00	0	63	104	896532480	60	15537
2026-01-27 00:33:21.47	220.08	5.53	-44.9	-57.2	3.8	1.49e+00	0	63	104	896532480	60	15599
2026-01-27 00:33:22.48	220.05	5.45	-44.9	-57.2	3.8	1.49e+00	0	63	104	896532480	60	15625
2026-01-27 00:33:23.49	220.01	5.38	-44.9	-57.2	3.8	1.49e+00	0	63	104	896532480	60	15606
2026-01-27 00:33:24.50	219.98	5.31	-44.8	-57.1	3.8	1.49e+00	0	63	104	896532480	60	15575
2026-01-27 00:33:25.51	219.95	5.24	-44.8	-57.2	3.8	1.49e+00	0	62	104	896532480	60	15620
2026-01-27 00:33:26.52	219.91	5.17	-44.8	-57.2	3.8	1.49e+00	0	63	104	896532480	60	15609
2026-01-27 00:33:27.53	219.88	5.10	-44.8	-57.1	3.8	1.49e+00	0	63	104	896532480	60	15569
2026-01-27 00:33:28.54	219.85	5.02	-44.8	-57.2	3.8	1.49e+00	0	63	104	896532480	60	15609
2026-01-27 00:33:29.55	219.81	4.95	-44.8	-57.2	3.8	1.49e+00	0	63	104	896532480	60	15581
2026-01-27 00:33:30.56	219.78	4.88	-44.9	-57.1	3.8	1.49e+00	0	63	104	896532480	60	15564
2026-01-27 00:33:31.57	219.75	4.81	-44.8	-57.1	3.8	1.49e+00	0	63	104	896532480	60	15537
2026-01-27 00:33:32.58	219.71	4.74	-44.8	-57.2	3.8	1.49e+00	0	63	104	896532480	60	15582
2026-01-27 00:33:33.59	219.68	4.67	-44.8	-57.1	3.8	1.49e+00	0	62	104	896532480	60	15573
2026-01-27 00:33:34.60	219.65	4.60	-44.8	-57.2	3.8	1.49e+00	0	63	104	896532480	60	15619
2026-01-27 00:33:35.61	219.62	4.53	-44.8	-57.2	3.8	1.49e+00	0	63	104	896532480	60	15614
2026-01-27 00:33:36.62	219.59	4.46	-44.8	-57.1	3.8	1.49e+00	0	63	104	896532480	60	15558
2026-01-27 00:33:37.63	219.55	4.39	-44.8	-57.1	3.8	1.49e+00	0	63	104	896532480	60	15552
2026-01-27 00:33:38.64	219.52	4.33	-44.8	-57.1	3.8	1.49e+00	0	63	104	896532480	60	15517
2026-01-27 00:33:39.65	219.49	4.26	-44.8	-57.1	3.8	1.49e+00	0	63	104	896532480	60	15565
2026-01-27 00:33:40.66	219.46	4.19	-44.8	-57.1	3.8	1.49e+00	0	63	104	896532480	60	15541
2026-01-27 00:33:41.67	219.43	4.12	-44.8	-57.1	3.8	1.49e+00	0	63	104	896532480	60	15558
2026-01-27 00:33:42.68	219.40	4.05	-44.8	-57.1	3.8	1.49e+00	0	63	104	896532480	60	15547
2026-01-27 00:33:43.69	219.37	3.98	-44.8	-57.1	3.8	1.49e+00	0	63	104	896532480	60	15516
2026-01-27 00:33:44.71	219.33	3.91	-44.8	-57.1	3.8	1.49e+00	0	63	104	896532480	60	15541
2026-01-27 00:33:45.71	219.30	3.85	-44.8	-57.1	3.8	1.49e+00	0	63	104	896532480	60	15529
2026-01-27 00:33:46.73	219.27	3.78	-44.8	-57.1	3.8	1.49e+00	0	63	104	896532480	60	15554
2026-01-27 00:33:47.73	219.24	3.71	-44.8	-57.1	3.8	1.49e+00	0	63	104	896532480	60	15540
2026-01-27 00:33:48.75	219.21	3.64	-44.8	-57.1	3.8	1.49e+00	0	63	104	896532480	60	15537
2026-01-27 00:33:49.75	219.18	3.57	-44.8	-57.1	3.8	1.49e+00	0	63	104	896532480	60	15515
2026-01-27 00:33:50.77	219.15	3.51	-44.8	-57.1	3.8	1.49e+00	0	63	104	896532480	60	15544
2026-01-27 00:33:51.77	219.12	3.44	-44.8	-57.1	3.8	1.49e+00	0	63	104	896532480	60	15575
2026-01-27 00:33:52.78	219.09	3.37	-44.8	-57.1	3.8	1.49e+00	0	62	104	896532480	60	15533
2026-01-27 00:33:53.80	219.07	3.31	-44.8	-57.1	3.8	1.49e+00	0	63	104	896532480	60	15506
2026-01-27 00:33:54.81	219.04	3.24	-44.8	-57.2	3.8	1.49e+00	0	63	104	896532480	60	15601
2026-01-27 00:33:55.82	219.01	3.17	-44.8	-57.2	3.8	1.49e+00	0	63	104	896532480	60	15582
2026-01-27 00:33:56.83	218.98	3.11	-44.8	-57.1	3.8	1.49e+00	0	63	104	896532480	60	15580
2026-01-27 00:33:57.84	218.95	3.04	-44.8	-57.2	3.8	1.49e+00	0	63	104	896532480	60	15612
2026-01-27 00:33:58.85	218.92	2.97	-44.8	-57.1	3.8	1.49e+00	0	63	104	896532480	60	15516
2026-01-27 00:33:59.86	218.89	2.91	-44.8	-57.2	3.8	1.49e+00	0	63	104	896532480	60	15591
2026-01-27 00:34:00.84	218.86	2.84	-44.8	-57.1	3.8	1.49e+00	0	63	104	896532480	60	15490
2026-01-27 00:34:01.85	218.84	2.78	-44.8	-57.1	3.8	1.49e+00	0	63	104	896532480	60	15502
2026-01-27 00:34:02.86	218.81	2.71	-44.8	-57.1	3.8	1.49e+00	0	63	104	896532480	60	15491
2026-01-27 00:34:03.87	218.78	2.65	-44.8	-57.1	3.8	1.49e+00	0	63	104	896532480	60	15562
2026-01-27 00:34:04.88	218.75	2.58	-44.8	-57.1	3.8	1.49e+00	0	63	104	896532480	60	15525
2026-01-27 00:34:05.89	218.72	2.52	-44.8	-57.1	3.8	1.49e+00	0	63	104	896532480	60	15515
2026-01-27 00:34:06.90	218.70	2.45	-44.8	-57.1	3.8	1.49e+00	0	62	104	896532480	60	15572
2026-01-27 00:34:07.91	218.67	2.39	-44.9	-57.1	3.8	1.49e+00	0	63	104	896532480	60	15550
2026-01-27 00:34:08.93	218.64	2.32	-44.8	-57.1	3.8	1.49e+00	0	63	104	896532480	60	15556
2026-01-27 00:34:09.94	218.61	2.26	-44.8	-57.1	3.8	1.49e+00	0	63	104	896532480	60	15538
2026-01-27 00:34:10.95	218.59	2.20	-44.8	-57.1	3.8	1.49e+00	0	63	104	896532480	60	15546
2026-01-27 00:34:11.96	218.56	2.13	-44.8	-57.1	3.8	1.49e+00	0	63	104	896532480	60	15577
2026-01-27 00:34:12.97	218.53	2.07	-44.8	-57.2	3.8	1.49e+00	0	63	104	896532480	60	15581
2026-01-27 00:34:13.98	218.51	2.00	-44.8	-57.1	3.8	1.49e+00	0	63	104	896532480	60	15577
2026-01-27 00:34:14.99	218.48	1.94	-44.8	-57.1	3.8	1.49e+00	0	63	104	896532480	60	15557

#Closed at: 2026-01-27 00:34:15
#Recorded file [896 MB]: D:/lorett/data/31039_260127_032709.dat