passes_logs/2026/01/27/R2.0S_Moscow/R2.0S_Moscow__20260127_090042_SUOMI_NPP_rec.log

#Pass ID: 20260127_090042_SUOMI NPP
#Satellite: SUOMI NPP
#Configuration: NPP
#almurnet v.1.7.20251203
#Start time: 2026-01-27 09:00:42

#Version: 2.2.20231116
#Station: R2.0S_Moscow
#Location: 37.707566 lon 55.798166 lat
#TLE: 1 37849U 11061A   26026.87508736  .00000176  00000+0  10464-3 0  9991
#TLE: 2 37849  98.7822 328.8221 0002127  43.3055 316.8288 14.19530452738397

#Time	Az	El	Level	Level2	SNR	BER	BlckErr	Temp	State	Recorded	gain1	gain2
2026-01-27 09:00:42.34	131.83	2.00	-16.5	-31.1	3.9	1.50e+00	0	54	0	0	8	15489
2026-01-27 09:00:43.35	131.79	2.06	-17.9	-30.7	3.9	1.51e+00	0	54	104	0	7	15735
2026-01-27 09:00:44.36	131.75	2.12	-16.7	-32.2	3.8	1.50e+00	0	54	104	0	9	16517
2026-01-27 09:00:45.37	131.71	2.19	-18.8	-33.7	3.7	1.50e+00	0	54	104	0	10	18542
2026-01-27 09:00:46.38	131.67	2.25	-15.7	-29.0	3.6	1.51e+00	0	54	104	0	2	17181
2026-01-27 09:00:47.39	131.62	2.31	-16.4	-32.0	3.8	1.50e+00	0	54	104	0	7	18104
2026-01-27 09:00:48.40	131.58	2.37	-19.1	-33.2	3.6	1.50e+00	0	55	104	0	10	17629
2026-01-27 09:00:49.41	131.54	2.44	-17.1	-28.5	3.8	1.50e+00	0	55	104	0	2	16141
2026-01-27 09:00:50.42	131.50	2.50	-14.1	-27.9	3.8	1.50e+00	0	54	104	0	1	16070
2026-01-27 09:00:51.43	131.46	2.56	-20.6	-33.9	3.7	1.50e+00	0	55	104	0	5	25317
2026-01-27 09:00:52.45	131.41	2.63	-16.2	-32.3	3.8	1.50e+00	0	55	104	0	9	16723
2026-01-27 09:00:53.46	131.37	2.69	-17.8	-30.3	3.6	1.50e+00	0	55	104	0	4	17721
2026-01-27 09:00:54.47	131.33	2.75	-14.3	-28.0	3.8	1.51e+00	0	55	104	0	3	14407
2026-01-27 09:00:55.48	131.29	2.82	-17.0	-29.7	3.6	1.50e+00	0	55	104	0	6	14861
2026-01-27 09:00:56.49	131.24	2.88	-16.9	-28.0	3.9	1.50e+00	0	55	104	0	3	14426
2026-01-27 09:00:57.50	131.20	2.95	-16.5	-30.2	3.8	1.50e+00	0	55	0	0	3	18562
2026-01-27 09:00:58.51	131.16	3.01	-18.0	-33.5	3.5	1.51e+00	0	55	104	0	11	17212
2026-01-27 09:00:59.52	131.11	3.07	-18.6	-32.1	3.9	1.50e+00	0	56	104	0	6	19439
2026-01-27 09:01:00.53	131.07	3.14	-17.4	-34.1	3.7	1.51e+00	0	55	104	0	10	19422
2026-01-27 09:01:01.54	131.02	3.20	-20.9	-33.2	3.5	1.50e+00	0	55	104	0	6	22225
2026-01-27 09:01:02.55	130.98	3.27	-16.3	-30.4	3.8	1.50e+00	0	55	104	0	3	19004
2026-01-27 09:01:03.56	130.94	3.33	-17.4	-29.4	3.6	1.50e+00	0	56	104	0	5	15210
2026-01-27 09:01:04.57	130.89	3.40	-17.7	-30.9	3.5	1.50e+00	0	56	104	0	6	17054
2026-01-27 09:01:05.58	130.85	3.46	-18.3	-28.0	4.0	1.50e+00	0	56	104	0	0	17095
2026-01-27 09:01:06.59	130.80	3.53	-15.3	-29.2	3.9	1.50e+00	0	56	104	0	3	16677
2026-01-27 09:01:07.60	130.76	3.59	-17.4	-31.8	3.7	1.50e+00	0	56	104	0	8	16877
2026-01-27 09:01:08.62	130.71	3.66	-16.4	-31.4	3.9	1.50e+00	0	56	104	0	9	15160
2026-01-27 09:01:09.62	130.66	3.72	-18.3	-32.2	3.8	1.50e+00	0	56	104	0	8	17667
2026-01-27 09:01:10.63	130.62	3.79	-18.9	-33.3	3.5	1.50e+00	0	56	104	0	10	17828
2026-01-27 09:01:11.65	130.57	3.86	-20.3	-31.2	3.8	1.51e+00	0	56	104	0	6	17541
2026-01-27 09:01:12.66	130.52	3.92	-21.1	-33.8	3.8	1.50e+00	0	56	104	0	11	17838
2026-01-27 09:01:13.67	130.48	3.99	-19.6	-33.6	3.7	1.50e+00	0	56	104	0	11	17389
2026-01-27 09:01:14.68	130.43	4.05	-17.0	-30.1	3.9	1.50e+00	0	56	104	0	5	16480
2026-01-27 09:01:15.69	130.38	4.12	-17.2	-31.4	3.7	1.50e+00	0	56	104	0	5	18997
2026-01-27 09:01:16.70	130.34	4.19	-16.6	-30.8	3.6	1.50e+00	0	57	104	0	10	13276
2026-01-27 09:01:17.71	130.29	4.25	-16.3	-33.4	3.6	1.50e+00	0	56	104	0	9	19062
2026-01-27 09:01:18.72	130.24	4.32	-19.1	-32.3	3.7	1.51e+00	0	56	104	0	8	17700
2026-01-27 09:01:19.73	130.19	4.39	-17.7	-31.1	3.8	1.50e+00	0	57	104	0	2	21917
2026-01-27 09:01:20.74	130.14	4.46	-18.2	-33.9	3.6	1.50e+00	0	56	0	0	8	21354
2026-01-27 09:01:21.75	130.10	4.52	-17.1	-32.5	3.7	1.50e+00	0	57	104	0	6	20332
2026-01-27 09:01:22.76	130.05	4.59	-22.4	-33.0	3.9	1.50e+00	0	57	104	0	7	20389
2026-01-27 09:01:23.77	130.00	4.66	-21.3	-34.8	3.6	1.50e+00	0	57	104	0	11	19996
2026-01-27 09:01:24.78	129.95	4.73	-16.2	-29.6	3.7	1.50e+00	0	57	104	0	3	17415
2026-01-27 09:01:25.79	129.90	4.79	-16.2	-28.2	3.7	1.50e+00	0	57	104	0	2	15636
2026-01-27 09:01:26.81	129.85	4.86	-13.9	-29.6	3.5	1.50e+00	0	57	104	0	6	14662
2026-01-27 09:01:27.82	129.80	4.93	-16.5	-30.1	3.7	1.50e+00	0	57	104	0	4	17307
2026-01-27 09:01:28.83	129.75	5.00	-21.5	-35.8	3.6	1.50e+00	0	57	104	0	13	20064
2026-01-27 09:01:29.84	129.70	5.07	-16.6	-28.4	3.8	1.50e+00	0	57	104	0	2	15991
2026-01-27 09:01:30.85	129.65	5.14	-21.8	-35.0	3.5	1.50e+00	0	57	104	0	8	24225
2026-01-27 09:01:31.86	129.60	5.21	-17.9	-30.2	3.9	1.50e+00	0	57	104	0	4	17635
2026-01-27 09:01:32.87	129.55	5.27	-17.9	-29.7	3.7	1.50e+00	0	57	104	0	6	14856
2026-01-27 09:01:33.88	129.49	5.34	-17.2	-29.5	3.6	1.50e+00	0	57	104	0	4	16309
2026-01-27 09:01:34.89	129.44	5.41	-17.6	-31.9	3.7	1.50e+00	0	57	104	0	8	16972
2026-01-27 09:01:35.90	129.39	5.48	-15.5	-29.5	3.8	1.50e+00	0	58	104	0	2	18116
2026-01-27 09:01:36.91	129.34	5.55	-17.5	-29.2	3.7	1.51e+00	0	57	104	0	2	17576
2026-01-27 09:01:37.92	129.29	5.62	-15.8	-31.5	3.4	1.51e+00	0	58	104	0	4	20347
2026-01-27 09:01:38.93	129.23	5.69	-15.8	-29.0	3.8	1.50e+00	0	57	104	0	3	16207
2026-01-27 09:01:39.94	129.18	5.76	-16.2	-29.2	3.5	1.50e+00	0	58	104	0	4	15672
2026-01-27 09:01:40.95	129.13	5.83	-15.3	-27.9	3.8	1.51e+00	0	58	104	0	2	15113
2026-01-27 09:01:41.96	129.07	5.90	-14.6	-28.6	3.6	1.50e+00	0	58	104	0	1	17463
2026-01-27 09:01:42.98	129.02	5.97	-15.8	-29.6	3.8	1.51e+00	0	58	104	0	4	16319
2026-01-27 09:01:43.99	128.97	6.05	-15.6	-28.4	3.5	1.50e+00	0	58	104	0	2	15974
2026-01-27 09:01:45.00	128.91	6.12	-17.0	-27.8	3.6	1.50e+00	0	58	104	0	3	14197
2026-01-27 09:01:46.01	128.86	6.19	-15.6	-28.0	3.9	1.50e+00	0	58	104	0	2	15310
2026-01-27 09:01:47.02	128.80	6.26	-16.7	-29.3	3.9	1.50e+00	0	58	104	0	2	17865
2026-01-27 09:01:48.03	128.75	6.33	-15.4	-27.6	4.0	1.50e+00	0	58	104	0	1	15484
2026-01-27 09:01:49.04	128.69	6.40	-22.5	-32.7	3.8	1.50e+00	0	58	104	0	5	22149
2026-01-27 09:01:50.05	128.63	6.47	-17.5	-32.0	3.7	1.50e+00	0	58	104	0	6	19295
2026-01-27 09:01:51.06	128.58	6.55	-17.0	-31.4	3.6	1.50e+00	0	58	104	0	5	19108
2026-01-27 09:01:52.07	128.52	6.62	-17.5	-28.6	3.6	1.50e+00	0	58	0	0	2	16470
2026-01-27 09:01:53.08	128.47	6.69	-16.5	-29.5	3.8	1.50e+00	0	58	104	0	3	17180
2026-01-27 09:01:54.09	128.41	6.76	-16.6	-30.8	3.6	1.50e+00	0	58	104	0	3	19873
2026-01-27 09:01:55.10	128.35	6.84	-17.3	-32.3	3.6	1.50e+00	0	58	104	0	6	19872
2026-01-27 09:01:56.11	128.29	6.91	-16.4	-30.3	3.8	1.50e+00	0	58	104	0	5	16713
2026-01-27 09:01:57.12	128.24	6.98	-15.8	-29.0	3.8	1.50e+00	0	58	104	0	3	16183
2026-01-27 09:01:58.13	128.18	7.06	-16.0	-29.7	3.7	1.50e+00	0	58	104	0	1	19822
2026-01-27 09:01:59.14	128.12	7.13	-15.3	-28.2	4.0	1.50e+00	0	59	104	0	2	15597
2026-01-27 09:02:00.15	128.06	7.20	-15.6	-26.7	3.8	1.50e+00	0	59	104	0	1	14016
2026-01-27 09:02:01.17	128.00	7.28	-14.4	-28.9	3.6	1.50e+00	0	58	104	0	3	15982
2026-01-27 09:02:02.18	127.94	7.35	-15.1	-31.3	3.6	1.50e+00	0	59	104	0	3	21097
2026-01-27 09:02:03.19	127.88	7.43	-16.8	-32.3	3.6	1.50e+00	0	59	104	0	6	19975
2026-01-27 09:02:04.20	127.82	7.50	-16.5	-29.9	3.6	1.51e+00	0	59	104	0	5	16025
2026-01-27 09:02:05.21	127.76	7.58	-20.5	-32.3	3.7	1.50e+00	0	59	104	0	5	21145
2026-01-27 09:02:06.22	127.70	7.65	-16.4	-30.1	3.9	1.50e+00	0	59	104	0	2	19427
2026-01-27 09:02:07.23	127.64	7.72	-19.5	-33.9	3.8	1.50e+00	0	59	0	0	7	22602
2026-01-27 09:02:08.24	127.58	7.80	-16.6	-30.3	3.9	1.50e+00	0	59	104	0	4	17841
2026-01-27 09:02:09.25	127.52	7.88	-16.1	-27.7	3.8	1.50e+00	0	59	104	0	5	12396
2026-01-27 09:02:10.26	127.46	7.95	-21.6	-34.6	3.4	1.50e+00	0	59	104	0	10	20624
2026-01-27 09:02:11.27	127.39	8.03	-17.3	-32.2	3.6	1.50e+00	0	59	104	0	5	20872
2026-01-27 09:02:12.28	127.33	8.10	-21.0	-35.1	3.6	1.50e+00	0	59	104	0	10	21904
2026-01-27 09:02:13.29	127.27	8.18	-22.0	-33.1	3.7	1.50e+00	0	59	104	0	11	16401
2026-01-27 09:02:14.30	127.20	8.26	-16.6	-32.0	3.7	1.50e+00	0	59	104	0	6	19226
2026-01-27 09:02:15.31	127.14	8.33	-16.6	-31.1	3.5	1.50e+00	0	59	104	0	5	18313
2026-01-27 09:02:16.32	127.08	8.41	-17.7	-31.4	3.9	1.50e+00	0	59	104	0	7	16969
2026-01-27 09:02:17.33	127.01	8.49	-16.7	-31.7	3.6	1.50e+00	0	59	104	0	6	18648
2026-01-27 09:02:18.34	126.95	8.56	-17.6	-30.5	3.7	1.51e+00	0	59	104	0	4	18292
2026-01-27 09:02:19.35	126.88	8.64	-21.1	-34.4	3.7	1.50e+00	0	59	104	0	6	25505
2026-01-27 09:02:20.36	126.82	8.72	-18.1	-32.2	3.7	1.50e+00	0	59	104	0	9	16548
2026-01-27 09:02:21.37	126.75	8.80	-16.7	-29.2	3.9	1.50e+00	0	59	104	0	4	15656
2026-01-27 09:02:22.38	126.68	8.87	-21.4	-36.0	3.5	1.50e+00	0	59	104	0	13	20390
2026-01-27 09:02:23.39	126.62	8.95	-19.2	-31.9	3.7	1.50e+00	0	60	104	0	10	15211
2026-01-27 09:02:24.40	126.55	9.03	-17.6	-29.3	3.8	1.50e+00	0	60	104	0	4	15766
2026-01-27 09:02:25.41	126.48	9.11	-19.2	-34.3	3.8	1.50e+00	0	60	104	0	12	17728
2026-01-27 09:02:26.42	126.42	9.19	-21.0	-33.5	3.7	1.50e+00	0	60	104	0	10	18149
2026-01-27 09:02:27.43	126.35	9.27	-24.0	-40.2	3.8	1.50e+00	0	60	104	0	17	26250
2026-01-27 09:02:28.44	126.28	9.35	-23.0	-41.2	3.9	1.50e+00	0	60	104	0	19	26459
2026-01-27 09:02:29.45	126.21	9.42	-20.5	-35.6	3.7	1.50e+00	0	60	104	0	13	19419
2026-01-27 09:02:30.46	126.14	9.50	-16.2	-29.2	4.0	1.51e+00	0	60	104	0	7	13216
2026-01-27 09:02:31.47	126.07	9.58	-19.2	-33.6	3.9	1.51e+00	0	60	104	0	8	20754
2026-01-27 09:02:32.48	126.00	9.66	-21.8	-36.4	3.7	1.50e+00	0	60	104	0	11	23902
2026-01-27 09:02:33.49	125.93	9.74	-18.0	-31.5	3.9	1.50e+00	0	60	104	0	7	17160
2026-01-27 09:02:34.50	125.86	9.83	-22.0	-35.9	3.6	1.50e+00	0	60	104	0	12	21304
2026-01-27 09:02:35.51	125.79	9.91	-21.2	-32.2	3.8	1.50e+00	0	60	104	0	9	16649
2026-01-27 09:02:36.52	125.72	9.99	-16.2	-29.9	3.6	1.50e+00	0	60	104	0	6	15127
2026-01-27 09:02:37.53	125.65	10.07	-20.5	-32.6	3.6	1.51e+00	0	60	104	0	11	15441
2026-01-27 09:02:38.54	125.57	10.15	-22.9	-41.1	3.9	1.51e+00	0	60	104	0	19	25984
2026-01-27 09:02:39.55	125.50	10.23	-22.7	-39.2	3.9	1.50e+00	0	60	104	0	16	24704
2026-01-27 09:02:40.56	125.43	10.31	-22.6	-34.8	3.9	1.50e+00	0	60	104	0	9	22282
2026-01-27 09:02:41.57	125.35	10.39	-18.6	-32.5	3.9	1.50e+00	0	60	104	0	10	16146
2026-01-27 09:02:42.58	125.28	10.48	-21.0	-33.7	3.8	1.51e+00	0	60	104	0	14	14768
2026-01-27 09:02:43.59	125.21	10.56	-21.4	-35.2	3.6	1.51e+00	0	60	104	0	11	20878
2026-01-27 09:02:44.60	125.13	10.64	-27.6	-39.1	3.9	1.51e+00	0	60	104	0	18	21928
2026-01-27 09:02:45.61	125.05	10.73	-21.0	-34.9	3.8	1.51e+00	0	60	104	0	12	18987
2026-01-27 09:02:46.62	124.98	10.81	-24.1	-38.2	4.3	1.50e+00	0	60	104	0	20	17658
2026-01-27 09:02:47.63	124.90	10.89	-30.6	-42.2	4.1	1.48e+00	0	60	104	0	24	22017
2026-01-27 09:02:48.64	124.83	10.98	-22.5	-40.8	3.6	1.51e+00	0	60	0	0	22	21061
2026-01-27 09:02:49.65	124.75	11.06	-25.9	-41.1	3.8	1.51e+00	0	60	104	0	20	24498
2026-01-27 09:02:50.66	124.67	11.14	-20.3	-36.8	3.6	1.51e+00	0	60	104	0	13	22364
2026-01-27 09:02:51.67	124.59	11.23	-21.0	-36.5	3.6	1.50e+00	0	60	104	0	13	21723
2026-01-27 09:02:52.68	124.51	11.31	-27.1	-42.5	3.7	1.51e+00	0	60	0	0	22	25698
2026-01-27 09:02:53.69	124.43	11.40	-25.4	-40.7	4.5	1.50e+00	0	60	104	0	29	13960
2026-01-27 09:02:54.70	124.36	11.48	-31.7	-47.8	4.2	1.47e+00	0	60	104	0	43	14173
2026-01-27 09:02:55.71	124.28	11.57	-31.6	-43.0	4.9	1.50e+00	0	60	104	0	33	14482
2026-01-27 09:02:56.72	124.19	11.65	-32.4	-44.5	6.2	1.42e+00	0	60	104	0	36	14508
2026-01-27 09:02:57.73	124.11	11.74	-37.9	-46.6	6.8	9.48e-01	0	60	0	0	41	13853
2026-01-27 09:02:58.74	124.03	11.83	-31.7	-43.9	4.9	1.31e+00	0	60	104	1048576	43	9021
2026-01-27 09:02:59.75	123.95	11.91	-35.5	-45.7	4.7	1.37e+00	0	60	104	1048576	40	13239
2026-01-27 09:03:00.76	123.87	12.00	-38.3	-47.2	5.5	1.39e+00	0	60	104	1048576	42	13913
2026-01-27 09:03:01.77	123.79	12.09	-37.9	-48.7	5.7	7.16e-01	0	60	0	2097152	39	19829
2026-01-27 09:03:02.78	123.70	12.17	-41.0	-49.1	5.7	7.04e-01	0	60	0	3145728	46	13762
2026-01-27 09:03:03.79	123.62	12.26	-31.3	-46.3	6.2	7.73e-01	0	61	0	4194304	40	14165
2026-01-27 09:03:04.80	123.53	12.35	-36.7	-50.7	3.5	7.77e-01	0	61	104	5242880	42	20977
2026-01-27 09:03:05.81	123.45	12.44	-38.7	-47.3	6.0	1.21e+00	0	61	104	5242880	43	13379
2026-01-27 09:03:06.82	123.36	12.52	-35.2	-49.9	4.0	1.30e+00	0	61	104	5242880	50	12093
2026-01-27 09:03:07.83	123.28	12.61	-38.3	-45.2	7.1	1.46e+00	0	60	104	5242880	41	11697
2026-01-27 09:03:08.84	123.19	12.70	-31.8	-45.2	7.9	2.84e-01	0	61	0	6291456	43	10517
2026-01-27 09:03:09.85	123.10	12.79	-35.9	-47.1	8.2	7.92e-01	0	61	0	8388608	49	9225
2026-01-27 09:03:10.86	123.02	12.88	-39.3	-47.8	8.6	4.09e-01	0	61	0	10485760	53	7914
2026-01-27 09:03:11.87	122.93	12.97	-38.7	-47.9	7.3	2.44e-01	0	61	0	11534336	46	12049
2026-01-27 09:03:12.88	122.84	13.06	-32.5	-45.9	6.3	7.15e-01	0	61	0	13631488	43	11413
2026-01-27 09:03:13.89	122.75	13.15	-38.8	-47.6	7.9	6.30e-01	0	61	0	15728640	48	10310
2026-01-27 09:03:14.90	122.66	13.24	-26.0	-43.8	5.6	3.22e-01	0	61	0	16777216	26	23646
2026-01-27 09:03:15.91	122.57	13.33	-33.1	-45.4	7.4	5.14e-01	0	61	0	18874368	44	10093
2026-01-27 09:03:16.92	122.48	13.42	-39.7	-46.2	9.4	1.78e-01	0	61	0	20971520	50	7852
2026-01-27 09:03:17.93	122.39	13.51	-37.4	-45.8	8.9	9.13e-02	0	61	0	22020096	44	10617
2026-01-27 09:03:18.94	122.29	13.60	-38.3	-45.7	6.1	3.76e-01	0	61	0	24117248	38	14859
2026-01-27 09:03:19.95	122.20	13.69	-37.7	-47.2	6.9	4.17e-01	0	61	0	26214400	43	13110
2026-01-27 09:03:20.96	122.11	13.78	-29.1	-44.2	5.5	8.89e-01	0	61	0	27262976	40	11057
2026-01-27 09:03:21.97	122.01	13.88	-33.9	-47.0	6.4	5.65e-01	0	61	0	29360128	43	12884
2026-01-27 09:03:22.98	121.92	13.97	-36.5	-47.3	6.2	6.75e-01	0	61	0	30408704	43	13261
2026-01-27 09:03:23.99	121.82	14.06	-37.1	-46.9	8.2	3.54e-01	0	61	0	32505856	46	10768
2026-01-27 09:03:25.00	121.73	14.15	-37.6	-46.3	9.3	9.97e-02	0	61	0	34603008	49	8406
2026-01-27 09:03:26.01	121.63	14.25	-37.6	-46.0	8.4	8.19e-02	0	61	0	36700160	46	9609
2026-01-27 09:03:27.02	121.53	14.34	-38.4	-46.2	9.9	4.80e-02	0	61	0	38797312	50	7887
2026-01-27 09:03:28.03	121.44	14.43	-37.8	-46.7	8.1	4.34e-02	0	61	0	39845888	46	10468
2026-01-27 09:03:29.04	121.34	14.53	-37.8	-47.5	7.0	1.56e-01	0	61	0	41943040	46	11532
2026-01-27 09:03:30.05	121.24	14.62	-36.6	-47.7	6.2	2.50e-01	0	61	0	44040192	44	13167
2026-01-27 09:03:31.06	121.14	14.72	-39.1	-48.3	6.6	2.94e-01	0	61	0	46137344	45	13350
2026-01-27 09:03:32.07	121.04	14.81	-37.4	-48.4	6.4	3.65e-01	0	61	0	48234496	45	13431
2026-01-27 09:03:33.08	120.94	14.91	-32.2	-47.1	7.6	1.61e-01	0	61	0	49283072	42	13734
2026-01-27 09:03:34.09	120.84	15.00	-39.2	-46.6	8.4	2.59e-01	0	61	0	51380224	41	13750
2026-01-27 09:03:35.10	120.74	15.10	-39.8	-46.4	9.0	2.49e-01	0	61	0	53477376	35	19000
2026-01-27 09:03:36.11	120.63	15.19	-32.6	-46.5	8.5	1.60e-01	0	61	0	55574528	46	10220
2026-01-27 09:03:37.13	120.53	15.29	-35.3	-46.3	8.7	1.36e-01	0	61	0	57671680	44	11177
2026-01-27 09:03:38.14	120.42	15.39	-38.9	-47.3	8.5	2.14e-01	0	61	0	58720256	48	10016
2026-01-27 09:03:39.15	120.32	15.48	-41.2	-47.2	9.2	1.40e-01	0	61	0	60817408	52	7888
2026-01-27 09:03:40.16	120.21	15.58	-39.0	-46.9	9.4	6.59e-02	0	61	0	62914560	50	8519
2026-01-27 09:03:41.17	120.11	15.68	-40.4	-46.5	10.1	1.16e-01	0	62	0	65011712	52	7264
2026-01-27 09:03:42.18	120.00	15.78	-36.9	-46.3	9.3	1.15e-01	0	61	0	67108864	47	9393
2026-01-27 09:03:43.18	119.89	15.87	-34.4	-45.7	8.9	1.08e-01	0	61	0	68157440	44	10482
2026-01-27 09:03:44.19	119.79	15.97	-39.1	-45.2	9.2	3.18e-02	0	61	0	70254592	48	7847
2026-01-27 09:03:45.20	119.68	16.07	-38.0	-46.0	9.8	2.66e-02	0	62	0	72351744	47	9112
2026-01-27 09:03:46.21	119.57	16.17	-40.0	-46.5	9.7	5.55e-02	0	61	0	74448896	51	7691
2026-01-27 09:03:47.22	119.46	16.27	-40.8	-46.7	10.2	7.03e-02	0	61	0	76546048	52	7376
2026-01-27 09:03:48.23	119.34	16.37	-40.1	-46.6	10.9	8.10e-03	0	62	0	77594624	52	7322
2026-01-27 09:03:49.24	119.23	16.47	-41.4	-45.8	11.4	6.01e-03	0	62	0	79691776	53	6300
2026-01-27 09:03:50.25	119.12	16.57	-40.4	-45.0	11.6	3.71e-03	0	61	0	81788928	52	6111
2026-01-27 09:03:51.26	119.01	16.67	-40.3	-44.5	12.9	8.89e-04	0	61	0	83886080	52	5786
2026-01-27 09:03:52.27	118.89	16.77	-40.8	-44.4	13.1	5.45e-04	0	61	0	85983232	52	5714
2026-01-27 09:03:53.29	118.77	16.87	-40.5	-44.9	12.6	3.13e-03	0	62	0	87031808	52	6018
2026-01-27 09:03:54.30	118.66	16.97	-39.6	-45.4	11.9	5.18e-04	0	62	0	89128960	50	7149
2026-01-27 09:03:55.30	118.54	17.07	-40.9	-45.7	11.7	2.32e-03	0	62	0	91226112	53	6263
2026-01-27 09:03:56.31	118.43	17.17	-41.8	-46.0	11.7	3.40e-03	0	62	0	93323264	54	6066
2026-01-27 09:03:57.32	118.31	17.27	-41.6	-45.8	11.6	1.38e-03	0	62	0	95420416	53	6280
2026-01-27 09:03:58.33	118.19	17.38	-41.6	-45.5	11.9	3.62e-03	0	62	0	96468992	53	6114
2026-01-27 09:03:59.34	118.07	17.48	-41.2	-45.3	12.3	5.27e-04	0	62	0	98566144	53	5953
2026-01-27 09:04:00.35	117.95	17.58	-39.7	-45.1	12.1	2.82e-03	0	62	0	100663296	51	6503
2026-01-27 09:04:01.36	117.82	17.69	-41.7	-45.7	12.0	4.06e-04	0	62	0	102760448	54	5879
2026-01-27 09:04:02.37	117.70	17.79	-42.0	-46.3	11.5	6.62e-04	0	61	0	104857600	54	6280
2026-01-27 09:04:03.38	117.58	17.89	-41.7	-46.3	11.3	7.50e-04	0	62	0	106954752	54	6320
2026-01-27 09:04:04.39	117.45	18.00	-41.0	-45.8	11.8	5.76e-04	0	62	0	108003328	54	5928
2026-01-27 09:04:05.40	117.33	18.10	-41.4	-45.2	12.5	3.69e-04	0	62	0	110100480	54	5592
2026-01-27 09:04:06.42	117.20	18.21	-41.4	-45.1	12.7	1.63e-04	0	62	0	112197632	53	5805
2026-01-27 09:04:07.42	117.08	18.31	-41.4	-44.9	12.8	9.23e-05	0	62	0	114294784	53	5720
2026-01-27 09:04:08.43	116.95	18.42	-41.4	-44.9	12.9	7.24e-05	0	62	0	116391936	53	5698
2026-01-27 09:04:09.44	116.82	18.52	-41.5	-45.2	12.6	8.31e-05	0	62	0	117440512	53	5903
2026-01-27 09:04:10.45	116.69	18.63	-41.8	-45.8	11.9	2.95e-04	0	62	0	119537664	54	5971
2026-01-27 09:04:11.46	116.56	18.73	-41.6	-45.4	12.3	3.25e-04	0	62	0	121634816	53	6039
2026-01-27 09:04:12.47	116.43	18.84	-41.6	-45.5	12.2	1.88e-04	0	62	0	123731968	53	6084
2026-01-27 09:04:13.48	116.30	18.95	-41.6	-45.4	12.0	2.43e-04	0	62	0	125829120	53	5998
2026-01-27 09:04:14.49	116.16	19.06	-41.7	-45.6	12.2	2.81e-04	0	62	0	126877696	54	5794
2026-01-27 09:04:15.50	116.03	19.16	-41.8	-45.8	12.0	3.96e-04	0	62	0	128974848	54	5952
2026-01-27 09:04:16.51	115.89	19.27	-41.0	-46.3	11.3	9.79e-04	0	62	0	131072000	53	6707
2026-01-27 09:04:17.52	115.76	19.38	-41.9	-46.5	11.0	1.32e-03	0	62	0	133169152	54	6452
2026-01-27 09:04:18.53	115.62	19.49	-42.0	-46.8	10.8	1.92e-03	0	62	0	135266304	55	6344
2026-01-27 09:04:19.54	115.48	19.60	-41.6	-45.6	12.1	9.99e-04	0	62	0	136314880	53	6173
2026-01-27 09:04:20.55	115.34	19.70	-41.6	-45.3	12.4	2.58e-04	0	62	0	138412032	53	5974
2026-01-27 09:04:21.56	115.20	19.81	-41.6	-45.5	12.3	8.58e-04	0	62	0	140509184	53	6078
2026-01-27 09:04:22.57	115.06	19.92	-41.8	-45.9	11.9	4.05e-04	0	62	0	142606336	54	6004
2026-01-27 09:04:23.58	114.92	20.03	-42.1	-46.5	11.3	1.54e-03	0	62	0	144703488	54	6472
2026-01-27 09:04:24.59	114.77	20.14	-42.3	-47.1	10.7	2.39e-03	0	62	0	146800640	55	6524
2026-01-27 09:04:25.60	114.63	20.25	-42.2	-46.9	10.8	2.80e-03	0	62	0	147849216	55	6396
2026-01-27 09:04:26.61	114.48	20.36	-42.1	-46.3	11.4	2.50e-03	0	62	0	149946368	54	6324
2026-01-27 09:04:27.62	114.34	20.48	-41.8	-45.7	12.2	2.94e-04	0	62	0	152043520	54	5872
2026-01-27 09:04:28.63	114.19	20.59	-41.6	-45.4	12.5	2.75e-04	0	62	0	154140672	54	5676
2026-01-27 09:04:29.64	114.04	20.70	-41.8	-45.7	12.2	1.90e-04	0	62	0	156237824	54	5892
2026-01-27 09:04:30.65	113.89	20.81	-42.1	-46.2	11.6	3.78e-04	0	62	0	157286400	54	6264
2026-01-27 09:04:31.66	113.74	20.92	-42.5	-47.4	10.5	1.04e-03	0	62	0	159383552	55	6742
2026-01-27 09:04:32.67	113.59	21.04	-42.4	-47.0	10.9	2.18e-03	0	62	0	161480704	55	6455
2026-01-27 09:04:33.68	113.43	21.15	-42.2	-46.3	11.6	1.20e-03	0	62	0	163577856	55	5984
2026-01-27 09:04:34.70	113.28	21.26	-42.0	-45.9	11.9	9.44e-04	0	62	0	165675008	55	5717
2026-01-27 09:04:35.70	113.12	21.37	-41.8	-45.7	12.3	2.36e-04	0	62	0	166723584	55	5551
2026-01-27 09:04:36.71	112.97	21.49	-41.9	-45.8	12.1	2.63e-04	0	62	0	168820736	55	5648
2026-01-27 09:04:37.72	112.81	21.60	-41.9	-45.9	12.1	3.84e-04	0	62	0	170917888	54	6002
2026-01-27 09:04:38.73	112.65	21.72	-41.9	-45.9	11.9	2.73e-04	0	62	0	173015040	54	6007
2026-01-27 09:04:39.74	112.49	21.83	-42.3	-46.6	11.3	5.68e-04	0	62	0	175112192	55	6181
2026-01-27 09:04:40.75	112.33	21.95	-42.0	-45.9	12.0	3.14e-04	0	62	0	176160768	55	5685
2026-01-27 09:04:41.76	112.17	22.06	-41.8	-45.6	12.4	1.69e-04	0	62	0	178257920	54	5815
2026-01-27 09:04:42.77	112.00	22.18	-41.7	-45.4	12.6	2.60e-04	0	62	0	180355072	54	5696
2026-01-27 09:04:43.78	111.84	22.29	-41.6	-45.1	12.9	4.42e-05	0	62	0	182452224	54	5472
2026-01-27 09:04:44.79	111.67	22.41	-41.4	-44.8	13.3	2.21e-05	0	62	0	184549376	54	5289
2026-01-27 09:04:45.80	111.50	22.52	-41.4	-44.7	13.3	2.44e-05	0	62	0	185597952	54	5252
2026-01-27 09:04:46.81	111.34	22.64	-41.6	-45.1	13.0	3.05e-05	0	62	0	187695104	54	5467
2026-01-27 09:04:47.82	111.17	22.76	-41.9	-45.6	12.3	6.86e-05	0	62	0	189792256	54	5854
2026-01-27 09:04:48.83	110.99	22.87	-41.8	-45.5	12.5	9.84e-05	0	62	0	191889408	54	5761
2026-01-27 09:04:49.84	110.82	22.99	-41.7	-45.2	12.8	1.01e-04	0	62	0	193986560	54	5578
2026-01-27 09:04:50.85	110.65	23.11	-41.4	-44.8	13.3	7.62e-05	0	62	0	195035136	54	5290
2026-01-27 09:04:51.86	110.47	23.22	-41.3	-44.6	13.5	1.14e-05	0	62	0	197132288	54	5186
2026-01-27 09:04:52.87	110.30	23.34	-41.3	-44.5	13.5	8.30e-06	0	62	0	199229440	54	5159
2026-01-27 09:04:53.87	110.12	23.46	-41.6	-45.2	12.9	2.97e-05	0	62	0	201326592	54	5543
2026-01-27 09:04:54.88	109.94	23.58	-42.0	-46.0	12.1	1.85e-04	0	62	0	203423744	54	6100
2026-01-27 09:04:55.89	109.76	23.70	-42.0	-46.0	12.0	5.10e-04	0	62	0	204472320	54	6095
2026-01-27 09:04:56.90	109.58	23.82	-41.9	-45.7	12.4	2.99e-04	0	62	0	206569472	54	5862
2026-01-27 09:04:57.91	109.39	23.93	-41.8	-45.6	12.5	1.49e-04	0	62	0	208666624	54	5795
2026-01-27 09:04:58.92	109.21	24.05	-41.9	-45.7	12.3	1.59e-04	0	62	0	210763776	54	5916
2026-01-27 09:04:59.93	109.02	24.17	-42.2	-46.3	11.7	3.86e-04	0	62	0	212860928	54	6337
2026-01-27 09:05:00.94	108.83	24.29	-42.6	-47.3	10.8	1.30e-03	0	62	0	214958080	55	6702
2026-01-27 09:05:01.95	108.64	24.41	-42.7	-47.3	10.8	2.85e-03	0	62	0	216006656	56	6344
2026-01-27 09:05:02.97	108.45	24.53	-42.5	-46.8	11.4	1.30e-03	0	62	0	218103808	56	5967
2026-01-27 09:05:03.98	108.26	24.65	-42.4	-46.6	11.5	7.74e-04	0	62	0	220200960	56	5809
2026-01-27 09:05:04.99	108.07	24.77	-42.6	-47.0	11.2	9.54e-04	0	62	0	222298112	56	6104
2026-01-27 09:05:06.00	107.87	24.90	-42.8	-47.6	10.6	2.82e-03	0	62	0	224395264	56	6502
2026-01-27 09:05:07.01	107.67	25.02	-43.0	-48.0	10.1	5.07e-03	0	62	0	225443840	56	6859
2026-01-27 09:05:08.02	107.48	25.14	-42.9	-47.7	10.5	5.20e-03	0	62	0	227540992	56	6606
2026-01-27 09:05:09.03	107.28	25.26	-42.8	-47.5	10.7	3.18e-03	0	62	0	229638144	56	6452
2026-01-27 09:05:10.04	107.08	25.38	-42.7	-47.2	11.0	1.69e-03	0	62	0	231735296	56	6240
2026-01-27 09:05:11.05	106.87	25.50	-42.7	-47.1	11.1	1.20e-03	0	62	0	233832448	56	6155
2026-01-27 09:05:12.06	106.67	25.62	-42.9	-47.6	10.6	2.75e-03	0	62	0	234881024	56	6549
2026-01-27 09:05:13.07	106.46	25.74	-42.9	-47.7	10.4	3.98e-03	0	62	0	236978176	56	6646
2026-01-27 09:05:14.08	106.25	25.87	-42.8	-47.5	10.6	4.09e-03	0	62	0	239075328	56	6470
2026-01-27 09:05:15.09	106.04	25.99	-42.8	-47.5	10.7	2.83e-03	0	62	0	241172480	56	6461
2026-01-27 09:05:16.10	105.83	26.11	-42.9	-47.6	10.6	3.46e-03	0	62	0	243269632	56	6551
2026-01-27 09:05:17.11	105.62	26.23	-42.9	-47.7	10.7	5.40e-03	0	62	0	244318208	56	6583
2026-01-27 09:05:18.12	105.41	26.36	-42.9	-47.6	10.6	4.64e-03	0	62	0	246415360	56	6510
2026-01-27 09:05:19.13	105.19	26.48	-42.6	-46.9	11.3	1.62e-03	0	62	0	248512512	56	6049
2026-01-27 09:05:20.14	104.97	26.60	-42.4	-46.4	11.9	5.52e-04	0	62	0	250609664	56	5687
2026-01-27 09:05:21.15	104.75	26.72	-42.4	-46.6	11.7	4.36e-04	0	62	0	252706816	56	5801
2026-01-27 09:05:22.16	104.53	26.85	-42.6	-47.0	11.3	8.07e-04	0	62	0	253755392	56	6107
2026-01-27 09:05:23.17	104.31	26.97	-42.7	-47.0	11.2	1.18e-03	0	62	0	255852544	56	6118
2026-01-27 09:05:24.18	104.09	27.09	-42.7	-47.1	11.1	1.74e-03	0	62	0	257949696	56	6191
2026-01-27 09:05:25.19	103.86	27.22	-42.6	-46.8	11.6	1.14e-03	0	62	0	260046848	56	5933
2026-01-27 09:05:26.20	103.63	27.34	-42.7	-47.1	11.2	1.26e-03	0	62	0	262144000	56	6147
2026-01-27 09:05:27.21	103.40	27.46	-42.7	-47.2	11.0	1.67e-03	0	62	0	263192576	56	6238
2026-01-27 09:05:28.22	103.17	27.59	-42.9	-47.5	10.8	2.43e-03	0	62	0	265289728	56	6447
2026-01-27 09:05:29.23	102.94	27.71	-42.9	-47.6	10.6	2.95e-03	0	62	0	267386880	56	6560
2026-01-27 09:05:30.24	102.70	27.83	-42.7	-47.1	11.0	2.88e-03	0	62	0	269484032	56	6188
2026-01-27 09:05:31.25	102.47	27.96	-42.7	-47.0	11.3	1.41e-03	0	62	0	271581184	56	6069
2026-01-27 09:05:32.26	102.23	28.08	-42.7	-47.1	11.2	1.34e-03	0	62	0	272629760	56	6148
2026-01-27 09:05:33.27	101.99	28.20	-42.9	-47.6	10.7	1.66e-03	0	62	0	274726912	56	6500
2026-01-27 09:05:34.28	101.74	28.33	-42.8	-47.4	10.8	2.91e-03	0	62	0	276824064	56	6405
2026-01-27 09:05:35.29	101.50	28.45	-42.9	-47.4	10.8	2.65e-03	0	62	0	278921216	56	6414
2026-01-27 09:05:36.30	101.25	28.57	-42.8	-47.2	11.1	1.41e-03	0	62	0	281018368	56	6227
2026-01-27 09:05:37.31	101.00	28.69	-42.7	-47.0	11.3	1.17e-03	0	62	0	283115520	56	6078
2026-01-27 09:05:38.32	100.75	28.82	-42.8	-47.3	11.0	1.90e-03	0	62	0	284164096	56	6336
2026-01-27 09:05:39.33	100.50	28.94	-43.1	-48.0	10.2	5.11e-03	0	62	0	286261248	56	6855
2026-01-27 09:05:40.34	100.25	29.06	-43.1	-48.0	10.2	6.32e-03	0	62	0	288358400	56	6870
2026-01-27 09:05:41.35	99.99	29.19	-42.9	-47.4	10.8	3.69e-03	0	62	0	290455552	56	6397
2026-01-27 09:05:42.36	99.73	29.31	-42.7	-47.1	11.2	1.74e-03	0	62	0	292552704	56	6196
2026-01-27 09:05:43.37	99.47	29.43	-42.9	-47.4	10.9	1.66e-03	0	62	0	293601280	56	6384
2026-01-27 09:05:44.38	99.21	29.55	-43.0	-47.9	10.4	3.94e-03	0	62	0	295698432	56	6754
2026-01-27 09:05:45.39	98.95	29.68	-43.1	-48.0	10.2	4.31e-03	0	62	0	297795584	56	6813
2026-01-27 09:05:46.40	98.68	29.80	-43.0	-47.7	10.6	3.98e-03	0	62	0	299892736	56	6589
2026-01-27 09:05:47.41	98.41	29.92	-42.8	-47.3	10.9	1.74e-03	0	62	0	301989888	56	6339
2026-01-27 09:05:48.42	98.14	30.04	-42.8	-47.1	11.2	1.71e-03	0	62	0	303038464	56	6194
2026-01-27 09:05:49.44	97.87	30.16	-42.7	-47.1	11.2	1.44e-03	0	62	0	305135616	56	6188
2026-01-27 09:05:50.44	97.60	30.28	-42.9	-47.6	10.7	2.19e-03	0	62	0	307232768	56	6547
2026-01-27 09:05:51.45	97.32	30.41	-43.0	-47.7	10.5	3.47e-03	0	62	0	309329920	56	6638
2026-01-27 09:05:52.46	97.04	30.53	-43.0	-47.9	10.4	3.58e-03	0	62	0	311427072	56	6772
2026-01-27 09:05:53.47	96.76	30.65	-43.1	-48.1	10.3	6.48e-03	0	62	0	312475648	56	6900
2026-01-27 09:05:54.48	96.48	30.77	-43.1	-48.0	10.3	5.45e-03	0	62	0	314572800	56	6829
2026-01-27 09:05:55.49	96.20	30.89	-43.2	-48.1	10.2	8.05e-03	0	62	0	316669952	57	6564
2026-01-27 09:05:56.50	95.91	31.01	-43.3	-48.4	9.9	6.94e-03	0	62	0	318767104	57	6767
2026-01-27 09:05:57.51	95.62	31.13	-43.4	-48.8	9.5	1.19e-02	0	62	0	320864256	57	7082
2026-01-27 09:05:58.52	95.33	31.25	-43.4	-48.8	9.4	1.59e-02	0	62	0	321912832	57	7112
2026-01-27 09:05:59.53	95.04	31.36	-43.6	-49.3	9.2	1.90e-02	0	62	0	324009984	57	7468
2026-01-27 09:06:00.54	94.74	31.48	-43.6	-49.5	8.6	4.18e-02	0	62	0	326107136	57	7695
2026-01-27 09:06:01.55	94.44	31.60	-43.7	-49.5	8.7	5.04e-02	0	62	0	328204288	58	7264
2026-01-27 09:06:02.56	94.14	31.72	-43.7	-49.8	8.5	4.02e-02	0	62	0	330301440	58	7469
2026-01-27 09:06:03.57	93.84	31.84	-43.6	-49.2	9.1	1.93e-02	0	62	0	331350016	58	6973
2026-01-27 09:06:04.58	93.54	31.95	-43.4	-48.7	9.6	1.46e-02	0	62	0	333447168	58	6619
2026-01-27 09:06:05.59	93.23	32.07	-43.3	-48.4	9.9	8.81e-03	0	62	0	335544320	58	6402
2026-01-27 09:06:06.60	92.92	32.18	-43.4	-48.6	9.6	1.40e-02	0	62	0	337641472	58	6549
2026-01-27 09:06:07.61	92.61	32.30	-43.4	-48.6	9.6	1.36e-02	0	63	0	339738624	58	6550
2026-01-27 09:06:08.62	92.30	32.41	-43.6	-49.2	9.0	2.00e-02	0	63	0	340787200	58	7018
2026-01-27 09:06:09.63	91.98	32.53	-43.8	-49.9	8.3	2.72e-02	0	63	0	342884352	58	7559
2026-01-27 09:06:10.64	91.67	32.64	-44.0	-50.7	7.6	6.91e-02	0	62	0	344981504	58	8350
2026-01-27 09:06:11.65	91.35	32.75	-44.2	-51.4	6.9	1.48e-01	0	62	0	347078656	58	9026
2026-01-27 09:06:12.66	91.02	32.87	-44.1	-51.2	7.1	1.58e-01	0	63	0	349175808	58	8800
2026-01-27 09:06:13.67	90.70	32.98	-44.0	-50.8	7.5	1.56e-01	0	63	0	351272960	59	7980
2026-01-27 09:06:14.68	90.37	33.09	-43.8	-50.0	8.3	9.25e-02	0	62	0	352321536	59	7209
2026-01-27 09:06:15.69	90.05	33.20	-43.5	-49.9	8.2	4.45e-02	0	63	0	354418688	58	7619
2026-01-27 09:06:16.70	89.72	33.31	-43.1	-48.6	9.5	1.44e-02	0	62	0	356515840	58	6562
2026-01-27 09:06:17.71	89.38	33.42	-43.1	-48.4	9.8	1.07e-02	0	63	0	358612992	58	6396
2026-01-27 09:06:18.72	89.05	33.53	-43.2	-48.8	9.4	1.24e-02	0	62	0	360710144	58	6721
2026-01-27 09:06:19.73	88.71	33.63	-43.5	-49.9	8.2	2.69e-02	0	62	0	361758720	58	7602
2026-01-27 09:06:20.74	88.37	33.74	-43.5	-49.8	8.2	6.11e-02	0	63	0	363855872	58	7519
2026-01-27 09:06:21.75	88.03	33.85	-43.7	-50.9	7.3	7.10e-02	0	62	0	365953024	58	8512
2026-01-27 09:06:22.76	87.68	33.95	-43.7	-50.9	7.3	9.59e-02	0	62	0	368050176	58	8524
2026-01-27 09:06:23.77	87.34	34.06	-43.6	-50.2	7.9	1.00e-01	0	63	0	370147328	58	7889
2026-01-27 09:06:24.78	86.99	34.16	-43.6	-50.3	7.9	8.85e-02	0	63	0	371195904	58	7904
2026-01-27 09:06:25.79	86.64	34.26	-43.4	-49.9	8.3	4.85e-02	0	62	0	373293056	58	7558
2026-01-27 09:06:26.80	86.28	34.36	-43.5	-49.9	8.4	6.39e-02	0	63	0	375390208	58	7627
2026-01-27 09:06:27.81	85.93	34.47	-43.5	-50.0	8.2	7.33e-02	0	62	0	377487360	58	7660
2026-01-27 09:06:28.82	85.57	34.57	-43.6	-50.5	7.6	9.33e-02	0	63	0	379584512	58	8126
2026-01-27 09:06:29.83	85.21	34.66	-43.6	-50.3	7.9	8.04e-02	0	62	0	380633088	58	7938
2026-01-27 09:06:30.84	84.85	34.76	-43.5	-49.9	8.3	7.13e-02	0	62	0	382730240	58	7551
2026-01-27 09:06:31.85	84.49	34.86	-43.4	-49.5	8.6	3.95e-02	0	62	0	384827392	58	7263
2026-01-27 09:06:32.86	84.12	34.96	-43.2	-49.1	9.1	2.97e-02	0	62	0	386924544	58	6897
2026-01-27 09:06:33.87	83.75	35.05	-42.8	-47.8	10.4	8.65e-03	0	62	0	389021696	57	6285
2026-01-27 09:06:34.88	83.38	35.14	-42.7	-47.6	10.5	2.92e-03	0	63	0	390070272	57	6188
2026-01-27 09:06:35.89	83.01	35.24	-42.6	-47.5	10.8	2.29e-03	0	63	0	392167424	57	6065
2026-01-27 09:06:36.90	82.63	35.33	-42.7	-47.7	10.6	3.36e-03	0	62	0	394264576	57	6206
2026-01-27 09:06:37.91	82.26	35.42	-42.7	-47.8	10.4	4.18e-03	0	63	0	396361728	57	6294
2026-01-27 09:06:38.92	81.88	35.51	-42.5	-47.3	10.9	3.32e-03	0	63	0	398458880	57	5975
2026-01-27 09:06:39.93	81.50	35.60	-42.6	-47.4	10.9	1.59e-03	0	63	0	399507456	56	6411
2026-01-27 09:06:40.94	81.12	35.68	-42.4	-47.0	11.1	2.07e-03	0	63	0	401604608	56	6130
2026-01-27 09:06:41.95	80.73	35.77	-42.4	-46.9	11.4	1.11e-03	0	63	0	403701760	56	6000
2026-01-27 09:06:42.96	80.34	35.85	-42.3	-46.8	11.5	7.53e-04	0	63	0	405798912	56	5983
2026-01-27 09:06:43.97	79.95	35.94	-42.5	-47.1	11.1	1.17e-03	0	63	0	407896064	56	6200
2026-01-27 09:06:44.98	79.56	36.02	-42.5	-47.4	11.0	1.52e-03	0	63	0	408944640	56	6358
2026-01-27 09:06:45.99	79.17	36.10	-42.3	-46.7	11.6	1.07e-03	0	63	0	411041792	56	5919
2026-01-27 09:06:47.00	78.78	36.18	-42.1	-46.2	12.3	3.81e-04	0	63	0	413138944	56	5538
2026-01-27 09:06:48.01	78.38	36.26	-41.8	-45.8	12.3	2.17e-04	0	63	0	415236096	55	5641
2026-01-27 09:06:49.02	77.98	36.33	-41.6	-45.4	12.8	8.23e-05	0	63	0	417333248	55	5384
2026-01-27 09:06:50.03	77.58	36.41	-41.4	-44.9	13.2	5.34e-05	0	63	0	419430400	54	5396
2026-01-27 09:06:51.04	77.18	36.48	-41.4	-45.1	13.1	1.68e-04	0	63	0	420478976	54	5477
2026-01-27 09:06:52.05	76.77	36.55	-41.4	-45.0	13.2	1.09e-04	0	62	0	422576128	54	5411
2026-01-27 09:06:53.06	76.37	36.62	-41.4	-45.0	13.3	3.89e-05	0	63	0	424673280	54	5410
2026-01-27 09:06:54.07	75.96	36.69	-41.7	-45.6	12.6	3.81e-05	0	63	0	426770432	54	5850
2026-01-27 09:06:55.08	75.55	36.76	-41.5	-45.3	12.9	5.34e-05	0	63	0	428867584	54	5615
2026-01-27 09:06:56.09	75.14	36.83	-41.6	-45.3	12.9	5.72e-05	0	63	0	429916160	54	5648
2026-01-27 09:06:57.10	74.73	36.89	-41.5	-45.2	13.0	5.26e-05	0	63	0	432013312	54	5568
2026-01-27 09:06:58.11	74.31	36.95	-41.3	-44.7	13.5	2.28e-05	0	62	0	434110464	54	5223
2026-01-27 09:06:59.12	73.90	37.02	-40.6	-43.6	14.6	2.20e-06	0	63	0	436207616	53	4873
2026-01-27 09:07:00.13	73.48	37.08	-40.0	-43.0	14.9	7.00e-07	0	63	0	438304768	52	4844
2026-01-27 09:07:01.14	73.06	37.13	-40.5	-43.3	14.9	1.50e-06	0	63	0	439353344	52	4998
2026-01-27 09:07:02.15	72.64	37.19	-40.3	-43.0	15.2	6.10e-06	0	63	0	441450496	52	4867
2026-01-27 09:07:03.16	72.22	37.24	-40.6	-43.6	14.6	1.52e-05	0	63	0	443547648	52	5164
2026-01-27 09:07:04.17	71.79	37.30	-40.8	-43.8	14.4	4.95e-05	0	63	0	445644800	52	5292
2026-01-27 09:07:05.18	71.37	37.35	-40.9	-43.9	14.3	1.15e-04	0	63	0	447741952	52	5350
2026-01-27 09:07:06.19	70.94	37.40	-40.9	-43.9	14.2	5.03e-05	0	63	0	448790528	52	5356
2026-01-27 09:07:07.20	70.52	37.45	-41.6	-45.2	13.0	2.13e-05	0	63	0	450887680	53	5874
2026-01-27 09:07:08.21	70.09	37.49	-41.9	-45.8	12.4	7.47e-05	0	63	0	452984832	54	5939
2026-01-27 09:07:09.22	69.66	37.54	-41.8	-45.5	12.7	1.47e-04	0	63	0	455081984	54	5759
2026-01-27 09:07:10.23	69.23	37.58	-41.4	-44.7	13.7	1.37e-05	0	63	0	457179136	54	5239
2026-01-27 09:07:11.24	68.80	37.62	-41.4	-44.7	13.6	5.30e-06	0	62	0	459276288	54	5254
2026-01-27 09:07:12.25	68.36	37.66	-41.4	-44.8	13.5	4.50e-06	0	63	0	460324864	54	5298
2026-01-27 09:07:13.26	67.93	37.70	-41.1	-44.2	14.1	1.50e-06	0	63	0	462422016	54	4968
2026-01-27 09:07:14.27	67.49	37.73	-40.7	-43.6	14.6	0.00e+00	0	63	0	464519168	53	4897
2026-01-27 09:07:15.28	67.06	37.77	-40.8	-43.6	14.7	0.00e+00	0	63	0	466616320	53	4926
2026-01-27 09:07:16.29	66.62	37.80	-40.9	-43.8	14.4	7.00e-07	0	63	0	468713472	53	5038
2026-01-27 09:07:17.30	66.19	37.83	-40.9	-43.9	14.5	1.50e-06	0	63	0	469762048	53	5050
2026-01-27 09:07:18.31	65.75	37.86	-41.2	-44.4	13.9	3.80e-06	0	63	0	471859200	53	5363
2026-01-27 09:07:19.33	65.30	37.88	-41.5	-44.8	13.5	5.30e-06	0	63	0	473956352	53	5618
2026-01-27 09:07:20.34	64.86	37.91	-41.5	-44.8	13.4	1.22e-05	0	63	0	476053504	53	5634
2026-01-27 09:07:21.35	64.42	37.93	-41.4	-44.8	13.5	9.10e-06	0	63	0	478150656	53	5623
2026-01-27 09:07:22.36	63.98	37.95	-41.5	-44.8	13.5	9.90e-06	0	63	0	479199232	53	5630
2026-01-27 09:07:23.37	63.54	37.97	-41.7	-45.2	13.0	2.67e-05	0	63	0	481296384	54	5580
2026-01-27 09:07:24.38	63.10	37.98	-42.1	-46.0	12.2	6.71e-05	0	63	0	483393536	54	6130
2026-01-27 09:07:25.39	62.66	38.00	-42.5	-47.0	11.3	7.23e-04	0	63	0	485490688	55	6454
2026-01-27 09:07:26.40	62.22	38.01	-42.5	-47.1	11.1	1.40e-03	0	63	0	487587840	55	6533
2026-01-27 09:07:27.41	61.77	38.02	-42.4	-46.8	11.4	1.66e-03	0	63	0	488636416	55	6331
2026-01-27 09:07:28.42	61.33	38.03	-42.5	-46.9	11.4	1.28e-03	0	63	0	490733568	55	6389
2026-01-27 09:07:29.43	60.89	38.04	-42.4	-46.8	11.4	9.02e-04	0	63	0	492830720	55	6335
2026-01-27 09:07:30.44	60.44	38.04	-42.6	-47.1	11.1	1.02e-03	0	63	0	494927872	55	6569
2026-01-27 09:07:31.45	60.00	38.04	-42.5	-47.0	11.3	1.62e-03	0	63	0	497025024	55	6442
2026-01-27 09:07:32.46	59.56	38.04	-42.5	-46.8	11.4	1.05e-03	0	63	0	498073600	55	6332
2026-01-27 09:07:33.47	59.11	38.04	-42.3	-46.5	11.8	1.25e-03	0	63	0	500170752	55	6113
2026-01-27 09:07:34.48	58.67	38.04	-42.3	-46.5	11.8	8.56e-04	0	63	0	502267904	55	6065
2026-01-27 09:07:35.49	58.23	38.04	-42.2	-46.3	11.8	3.62e-04	0	63	0	504365056	55	5972
2026-01-27 09:07:36.50	57.78	38.03	-42.3	-46.6	11.7	5.23e-04	0	63	0	506462208	55	6145
2026-01-27 09:07:37.51	57.34	38.02	-42.3	-46.6	11.8	5.36e-04	0	63	0	507510784	55	6141
2026-01-27 09:07:38.52	56.90	38.01	-42.3	-46.4	11.8	5.71e-04	0	63	0	509607936	55	6031
2026-01-27 09:07:39.53	56.45	38.00	-42.3	-46.5	11.8	1.04e-03	0	63	0	511705088	55	6099
2026-01-27 09:07:40.54	56.01	37.98	-42.4	-46.9	11.4	1.38e-03	0	63	0	513802240	55	6364
2026-01-27 09:07:41.55	55.57	37.96	-43.1	-48.3	10.2	2.43e-03	0	63	0	515899392	56	7067
2026-01-27 09:07:42.56	55.13	37.95	-43.2	-48.8	9.5	8.48e-03	0	63	0	516947968	57	7046
2026-01-27 09:07:43.57	54.69	37.93	-43.5	-49.7	8.8	2.01e-02	0	63	0	519045120	57	7865
2026-01-27 09:07:44.58	54.25	37.90	-43.2	-48.9	9.4	2.20e-02	0	63	0	521142272	57	7179
2026-01-27 09:07:45.59	53.81	37.88	-43.0	-48.2	10.1	1.70e-02	0	63	0	523239424	57	6615
2026-01-27 09:07:46.60	53.37	37.85	-42.8	-47.9	10.5	8.48e-03	0	63	0	525336576	57	6350
2026-01-27 09:07:47.61	52.93	37.82	-43.1	-48.7	9.6	8.89e-03	0	63	0	527433728	57	6980
2026-01-27 09:07:48.62	52.50	37.79	-43.2	-48.8	9.5	1.32e-02	0	63	0	528482304	57	7075
2026-01-27 09:07:49.63	52.06	37.76	-43.2	-49.1	9.2	1.17e-02	0	63	0	530579456	57	7331
2026-01-27 09:07:50.64	51.63	37.73	-43.2	-48.9	9.4	1.73e-02	0	63	0	532676608	57	7129
2026-01-27 09:07:51.65	51.19	37.69	-43.3	-49.3	8.9	1.41e-02	0	63	0	534773760	57	7512
2026-01-27 09:07:52.66	50.76	37.66	-43.1	-48.6	9.7	1.62e-02	0	63	0	536870912	57	6908
2026-01-27 09:07:53.67	50.33	37.62	-43.2	-48.9	9.4	1.10e-02	0	63	0	537919488	57	7129
2026-01-27 09:07:54.68	49.90	37.58	-43.1	-48.5	9.7	1.08e-02	0	63	0	540016640	57	6853
2026-01-27 09:07:55.69	49.47	37.53	-43.0	-48.4	10.0	1.05e-02	0	63	0	542113792	57	6726
2026-01-27 09:07:56.70	49.04	37.49	-43.0	-48.3	10.1	7.77e-03	0	63	0	544210944	57	6648
2026-01-27 09:07:57.71	48.61	37.44	-42.9	-48.2	10.1	4.52e-03	0	63	0	546308096	57	6619
2026-01-27 09:07:58.72	48.18	37.39	-43.0	-48.6	9.8	5.50e-03	0	63	0	547356672	57	6910
2026-01-27 09:07:59.73	47.76	37.34	-43.5	-50.1	8.2	1.24e-02	0	63	0	549453824	57	8256
2026-01-27 09:08:00.74	47.33	37.29	-43.4	-49.9	8.3	3.84e-02	0	63	0	551550976	57	8022
2026-01-27 09:08:01.75	46.91	37.24	-43.7	-51.2	7.1	1.18e-01	0	63	0	553648128	57	9344
2026-01-27 09:08:02.76	46.49	37.18	-43.9	-52.2	6.2	2.41e-01	0	63	0	555745280	58	9871
2026-01-27 09:08:03.77	46.07	37.13	-43.7	-50.9	7.4	1.52e-01	0	63	0	556793856	58	8500
2026-01-27 09:08:04.78	45.65	37.07	-43.4	-49.5	8.7	4.90e-02	0	63	0	558891008	58	7282
2026-01-27 09:08:05.79	45.24	37.01	-43.0	-48.5	9.9	1.14e-02	0	63	0	560988160	57	6814
2026-01-27 09:08:06.80	44.82	36.95	-42.9	-48.0	10.4	4.58e-03	0	63	0	563085312	57	6494
2026-01-27 09:08:07.81	44.41	36.89	-42.8	-47.9	10.5	3.44e-03	0	63	0	565182464	57	6365
2026-01-27 09:08:08.82	44.00	36.82	-42.6	-47.1	11.2	2.93e-03	0	63	0	566231040	57	5846
2026-01-27 09:08:09.83	43.59	36.76	-42.8	-47.8	10.7	1.69e-03	0	63	0	568328192	57	6277
2026-01-27 09:08:10.84	43.18	36.69	-43.0	-48.3	10.0	5.52e-03	0	63	0	570425344	57	6702
2026-01-27 09:08:11.85	42.77	36.62	-42.9	-47.9	10.5	6.59e-03	0	63	0	572522496	57	6385
2026-01-27 09:08:12.86	42.37	36.55	-42.3	-46.4	12.0	1.75e-03	0	63	0	574619648	56	5693
2026-01-27 09:08:13.87	41.96	36.48	-41.7	-45.4	12.9	7.01e-05	0	63	0	575668224	55	5347
2026-01-27 09:08:14.88	41.56	36.40	-41.5	-44.9	13.4	2.28e-05	0	63	0	577765376	55	5078
2026-01-27 09:08:15.89	41.16	36.33	-41.4	-44.8	13.6	9.90e-06	0	63	0	579862528	54	5291
2026-01-27 09:08:16.90	40.76	36.25	-41.5	-44.9	13.4	1.52e-05	0	63	0	581959680	54	5388
2026-01-27 09:08:17.91	40.37	36.17	-41.7	-45.3	13.0	2.89e-05	0	63	0	584056832	54	5637
2026-01-27 09:08:18.92	39.98	36.09	-41.8	-45.6	12.6	6.40e-05	0	63	0	585105408	54	5847
2026-01-27 09:08:19.93	39.58	36.01	-41.8	-45.6	12.7	1.14e-04	0	63	0	587202560	54	5828
2026-01-27 09:08:20.94	39.19	35.93	-42.0	-46.0	12.2	7.85e-05	0	63	0	589299712	54	6106
2026-01-27 09:08:21.95	38.81	35.85	-42.1	-46.3	12.0	1.40e-04	0	63	0	591396864	54	6287
2026-01-27 09:08:22.96	38.42	35.76	-42.3	-46.6	11.6	4.39e-04	0	63	0	593494016	55	6187
2026-01-27 09:08:23.97	38.04	35.68	-42.1	-46.3	12.1	5.19e-04	0	63	0	595591168	55	5946
2026-01-27 09:08:24.98	37.65	35.59	-41.9	-45.8	12.5	1.64e-04	0	63	0	596639744	55	5614
2026-01-27 09:08:25.99	37.27	35.50	-42.1	-46.1	12.2	1.12e-04	0	63	0	598736896	55	5831
2026-01-27 09:08:27.00	36.90	35.42	-42.6	-47.3	10.9	1.41e-03	0	63	0	600834048	55	6696
2026-01-27 09:08:28.01	36.52	35.32	-42.7	-47.5	10.7	2.99e-03	0	63	0	602931200	55	6873
2026-01-27 09:08:29.02	36.15	35.23	-42.9	-47.8	10.6	4.18e-03	0	63	0	605028352	56	6682
2026-01-27 09:08:30.03	35.78	35.14	-42.8	-47.6	10.7	2.43e-03	0	63	0	606076928	56	6538
2026-01-27 09:08:31.04	35.41	35.05	-42.8	-47.6	10.8	2.82e-03	0	63	0	608174080	56	6555
2026-01-27 09:08:32.05	35.04	34.95	-42.9	-47.8	10.6	3.38e-03	0	63	0	610271232	56	6719
2026-01-27 09:08:33.07	34.67	34.86	-42.5	-46.9	11.4	1.28e-03	0	63	0	612368384	56	6048
2026-01-27 09:08:34.08	34.31	34.76	-42.2	-46.2	12.2	4.26e-04	0	63	0	614465536	56	5583
2026-01-27 09:08:35.09	33.95	34.66	-42.3	-46.4	12.1	4.08e-04	0	63	0	615514112	56	5698
2026-01-27 09:08:36.10	33.59	34.56	-42.2	-46.2	12.3	1.92e-04	0	63	0	617611264	56	5542
2026-01-27 09:08:37.11	33.23	34.46	-42.1	-46.1	12.4	2.11e-04	0	63	0	619708416	56	5467
2026-01-27 09:08:38.12	32.88	34.36	-41.9	-45.8	12.6	6.94e-05	0	63	0	621805568	55	5603
2026-01-27 09:08:39.13	32.53	34.26	-42.1	-46.1	12.2	9.07e-05	0	63	0	623902720	55	5839
2026-01-27 09:08:40.14	32.18	34.16	-42.4	-46.8	11.4	4.31e-04	0	63	0	624951296	55	6278
2026-01-27 09:08:41.15	31.83	34.06	-42.3	-46.6	11.7	9.82e-04	0	63	0	627048448	55	6139
2026-01-27 09:08:42.16	31.49	33.95	-41.7	-45.3	12.9	3.80e-04	0	63	0	629145600	55	5310
2026-01-27 09:08:43.17	31.15	33.85	-41.4	-44.8	13.5	2.67e-05	0	63	0	631242752	54	5283
2026-01-27 09:08:44.18	30.80	33.74	-41.6	-45.0	13.3	9.90e-06	0	63	0	633339904	54	5454
2026-01-27 09:08:45.19	30.47	33.63	-41.9	-45.8	12.6	3.81e-05	0	63	0	635437056	54	5943
2026-01-27 09:08:46.20	30.13	33.53	-42.4	-46.8	11.5	5.07e-04	0	63	0	636485632	55	6278
2026-01-27 09:08:47.21	29.80	33.42	-42.5	-47.0	11.2	1.57e-03	0	63	0	638582784	55	6494
2026-01-27 09:08:48.22	29.46	33.31	-42.3	-46.6	11.7	7.68e-04	0	63	0	640679936	55	6141
2026-01-27 09:08:49.23	29.14	33.20	-42.4	-46.7	11.5	8.67e-04	0	63	0	642777088	55	6239
2026-01-27 09:08:50.24	28.81	33.09	-42.3	-46.5	11.8	5.13e-04	0	63	0	644874240	55	6073
2026-01-27 09:08:51.25	28.48	32.98	-42.1	-46.1	12.1	6.28e-04	0	63	0	645922816	55	5835
2026-01-27 09:08:52.26	28.16	32.87	-42.0	-46.0	12.3	1.50e-04	0	63	0	648019968	55	5732
2026-01-27 09:08:53.27	27.84	32.76	-42.3	-46.6	11.7	5.12e-04	0	63	0	650117120	55	6145
2026-01-27 09:08:54.28	27.52	32.64	-42.7	-47.6	10.6	1.64e-03	0	63	0	652214272	55	6910
2026-01-27 09:08:55.29	27.21	32.53	-43.1	-48.2	10.0	7.50e-03	0	63	0	654311424	56	7037
2026-01-27 09:08:56.30	26.89	32.42	-42.9	-47.9	10.4	3.51e-03	0	63	0	655360000	56	6758
2026-01-27 09:08:57.31	26.58	32.30	-43.0	-47.9	10.4	4.14e-03	0	63	0	657457152	56	6780
2026-01-27 09:08:58.32	26.27	32.19	-43.2	-48.7	9.6	6.37e-03	0	63	0	659554304	57	6991
2026-01-27 09:08:59.33	25.96	32.07	-43.5	-49.4	8.9	2.43e-02	0	63	0	661651456	57	7593
2026-01-27 09:09:00.34	25.66	31.96	-43.5	-49.5	8.7	3.27e-02	0	63	0	663748608	57	7674
2026-01-27 09:09:01.35	25.36	31.84	-43.3	-48.8	9.4	3.04e-02	0	63	0	664797184	57	7104
2026-01-27 09:09:02.36	25.06	31.72	-43.1	-48.3	9.9	8.68e-03	0	63	0	666894336	57	6696
2026-01-27 09:09:03.36	24.76	31.61	-43.2	-48.4	9.8	7.61e-03	0	63	0	668991488	57	6779
2026-01-27 09:09:04.37	24.47	31.49	-43.1	-48.4	9.9	6.01e-03	0	63	0	671088640	57	6726
2026-01-27 09:09:05.38	24.17	31.37	-43.4	-49.0	9.3	1.76e-02	0	63	0	673185792	57	7235
2026-01-27 09:09:06.39	23.88	31.26	-43.3	-48.7	9.5	1.75e-02	0	64	0	674234368	57	6992
2026-01-27 09:09:07.40	23.59	31.14	-42.8	-47.5	10.8	6.21e-03	0	63	0	676331520	57	6114
2026-01-27 09:09:08.41	23.30	31.02	-42.4	-46.6	11.7	7.36e-04	0	63	0	678428672	56	5824
2026-01-27 09:09:09.42	23.02	30.90	-42.4	-46.4	12.0	2.35e-04	0	63	0	680525824	56	5695
2026-01-27 09:09:10.43	22.73	30.78	-42.1	-45.8	12.7	1.40e-04	0	63	0	682622976	56	5284
2026-01-27 09:09:11.44	22.45	30.66	-42.0	-45.6	12.8	1.07e-04	0	63	0	683671552	56	5177
2026-01-27 09:09:12.45	22.17	30.54	-41.6	-45.1	13.2	2.51e-05	0	63	0	685768704	55	5174
2026-01-27 09:09:13.46	21.90	30.42	-41.6	-45.0	13.2	1.98e-05	0	63	0	687865856	55	5121
2026-01-27 09:09:14.47	21.62	30.30	-41.6	-44.9	13.3	1.52e-05	0	63	0	689963008	54	5399
2026-01-27 09:09:15.48	21.35	30.18	-41.7	-45.2	13.1	1.67e-05	0	63	0	692060160	54	5534
2026-01-27 09:09:16.49	21.08	30.06	-42.0	-45.8	12.5	5.64e-05	0	63	0	693108736	54	5963
2026-01-27 09:09:17.50	20.81	29.94	-42.3	-46.5	11.7	2.17e-04	0	63	0	695205888	55	6108
2026-01-27 09:09:18.51	20.54	29.81	-42.6	-47.0	11.1	1.18e-03	0	63	0	697303040	55	6491
2026-01-27 09:09:19.52	20.28	29.69	-43.0	-48.1	10.3	2.91e-03	0	63	0	699400192	56	6914
2026-01-27 09:09:20.53	20.02	29.57	-43.2	-48.6	9.7	7.83e-03	0	63	0	701497344	57	6882
2026-01-27 09:09:21.54	19.75	29.45	-43.4	-49.2	9.1	2.09e-02	0	63	0	703594496	57	7422
2026-01-27 09:09:22.55	19.50	29.33	-43.4	-49.2	9.0	2.34e-02	0	63	0	704643072	57	7372
2026-01-27 09:09:23.56	19.24	29.21	-43.2	-48.4	9.8	1.54e-02	0	63	0	706740224	57	6774
2026-01-27 09:09:24.57	18.98	29.08	-43.0	-48.0	10.2	8.75e-03	0	63	0	708837376	57	6488
2026-01-27 09:09:25.58	18.73	28.96	-42.8	-47.5	10.9	2.55e-03	0	63	0	710934528	57	6081
2026-01-27 09:09:26.59	18.48	28.84	-42.8	-47.5	10.8	2.48e-03	0	63	0	713031680	57	6089
2026-01-27 09:09:27.60	18.23	28.72	-42.6	-47.0	11.3	1.66e-03	0	63	0	714080256	57	5745
2026-01-27 09:09:28.61	17.99	28.59	-42.5	-46.8	11.6	9.38e-04	0	63	0	716177408	57	5603
2026-01-27 09:09:29.62	17.74	28.47	-42.3	-46.3	12.0	4.55e-04	0	63	0	718274560	56	5648
2026-01-27 09:09:30.63	17.50	28.35	-42.4	-46.5	11.8	3.22e-04	0	63	0	720371712	56	5748
2026-01-27 09:09:31.64	17.26	28.23	-42.1	-46.0	12.4	1.77e-04	0	63	0	722468864	56	5410
2026-01-27 09:09:32.65	17.02	28.10	-42.1	-45.9	12.4	1.50e-04	0	63	0	723517440	56	5373
2026-01-27 09:09:33.66	16.78	27.98	-42.1	-45.9	12.5	1.30e-04	0	63	0	725614592	56	5372
2026-01-27 09:09:34.67	16.54	27.86	-42.1	-46.0	12.4	1.56e-04	0	63	0	727711744	56	5433
2026-01-27 09:09:35.68	16.31	27.73	-41.7	-45.2	13.0	8.23e-05	0	63	0	729808896	55	5248
2026-01-27 09:09:36.69	16.08	27.61	-41.5	-44.9	13.3	2.05e-05	0	63	0	731906048	54	5352
2026-01-27 09:09:37.70	15.85	27.49	-41.5	-45.0	13.3	1.67e-05	0	63	0	732954624	54	5423
2026-01-27 09:09:38.71	15.62	27.37	-41.8	-45.5	12.7	4.04e-05	0	63	0	735051776	54	5746
2026-01-27 09:09:39.72	15.39	27.24	-42.0	-45.9	12.3	1.15e-04	0	63	0	737148928	54	6027
2026-01-27 09:09:40.73	15.17	27.12	-42.3	-46.5	11.7	1.83e-04	0	63	0	739246080	55	6107
2026-01-27 09:09:41.74	14.94	27.00	-42.4	-46.7	11.4	8.95e-04	0	63	0	741343232	55	6257
2026-01-27 09:09:42.75	14.72	26.88	-42.6	-47.2	10.9	1.35e-03	0	63	0	742391808	55	6607
2026-01-27 09:09:43.76	14.50	26.75	-42.5	-47.1	11.1	2.53e-03	0	63	0	744488960	55	6542
2026-01-27 09:09:44.77	14.29	26.63	-42.5	-47.0	11.0	1.55e-03	0	63	0	746586112	55	6462
2026-01-27 09:09:45.78	14.07	26.51	-42.3	-46.7	11.5	1.43e-03	0	63	0	748683264	55	6211
2026-01-27 09:09:46.79	13.85	26.39	-42.1	-46.2	12.0	6.51e-04	0	63	0	750780416	55	5879
2026-01-27 09:09:47.80	13.64	26.27	-42.0	-46.0	12.1	2.68e-04	0	63	0	751828992	55	5770
2026-01-27 09:09:48.81	13.43	26.14	-41.8	-45.6	12.5	1.47e-04	0	63	0	753926144	55	5500
2026-01-27 09:09:49.82	13.22	26.02	-41.8	-45.5	12.7	1.15e-04	0	63	0	756023296	55	5403
2026-01-27 09:09:50.83	13.01	25.90	-41.6	-45.2	12.9	6.10e-05	0	63	0	758120448	55	5257
2026-01-27 09:09:51.84	12.81	25.78	-41.9	-45.7	12.4	7.17e-05	0	63	0	760217600	55	5582
2026-01-27 09:09:52.85	12.60	25.66	-41.9	-45.7	12.5	8.85e-05	0	63	0	761266176	55	5534
2026-01-27 09:09:53.86	12.40	25.54	-41.9	-45.8	12.4	1.23e-04	0	63	0	763363328	55	5597
2026-01-27 09:09:54.87	12.20	25.42	-42.0	-45.8	12.3	2.33e-04	0	63	0	765460480	55	5652
2026-01-27 09:09:55.88	12.00	25.30	-42.2	-46.3	11.9	4.11e-04	0	63	0	767557632	55	5940
2026-01-27 09:09:56.90	11.80	25.17	-42.1	-46.0	11.9	5.32e-04	0	63	0	769654784	55	5783
2026-01-27 09:09:57.90	11.60	25.06	-42.2	-46.4	11.7	5.86e-04	0	63	0	770703360	55	6011
2026-01-27 09:09:58.91	11.40	24.94	-42.3	-46.7	11.4	8.17e-04	0	63	0	772800512	55	6219
2026-01-27 09:09:59.92	11.21	24.82	-42.5	-47.2	10.9	1.21e-03	0	63	0	774897664	55	6599
2026-01-27 09:10:00.93	11.02	24.70	-42.3	-46.7	11.4	1.76e-03	0	63	0	776994816	55	6264
2026-01-27 09:10:01.94	10.83	24.58	-42.4	-46.8	11.3	1.05e-03	0	63	0	779091968	55	6296
2026-01-27 09:10:02.95	10.64	24.46	-42.7	-47.6	10.4	3.48e-03	0	63	0	781189120	55	6908
2026-01-27 09:10:03.96	10.45	24.34	-42.6	-47.3	10.7	2.86e-03	0	63	0	782237696	55	6695
2026-01-27 09:10:04.97	10.26	24.22	-42.6	-47.5	10.6	3.42e-03	0	63	0	784334848	55	6834
2026-01-27 09:10:05.98	10.08	24.10	-42.7	-47.6	10.4	3.51e-03	0	63	0	786432000	55	6895
2026-01-27 09:10:06.99	9.89	23.98	-42.9	-47.9	10.3	5.28e-03	0	64	0	788529152	56	6740
2026-01-27 09:10:08.00	9.71	23.86	-42.8	-47.5	10.7	3.76e-03	0	64	0	790626304	56	6483
2026-01-27 09:10:09.01	9.53	23.74	-42.9	-47.8	10.3	4.51e-03	0	63	0	791674880	56	6710
2026-01-27 09:10:10.02	9.35	23.63	-42.8	-47.8	10.5	5.17e-03	0	63	0	793772032	56	6649
2026-01-27 09:10:11.03	9.17	23.51	-42.8	-47.7	10.4	3.79e-03	0	63	0	795869184	56	6629
2026-01-27 09:10:12.04	9.00	23.39	-42.6	-47.2	11.0	2.87e-03	0	63	0	797966336	56	6221
2026-01-27 09:10:13.05	8.82	23.27	-42.6	-47.0	11.1	1.71e-03	0	63	0	800063488	56	6105
2026-01-27 09:10:14.06	8.65	23.16	-42.4	-46.7	11.5	9.67e-04	0	63	0	801112064	56	5875
2026-01-27 09:10:15.07	8.47	23.04	-42.3	-46.4	11.9	5.16e-04	0	63	0	803209216	56	5662
2026-01-27 09:10:16.08	8.30	22.92	-42.1	-45.9	12.3	2.91e-04	0	63	0	805306368	56	5390
2026-01-27 09:10:17.09	8.13	22.81	-41.9	-45.7	12.4	1.56e-04	0	63	0	807403520	55	5568
2026-01-27 09:10:18.10	7.96	22.69	-41.9	-45.8	12.3	1.40e-04	0	63	0	809500672	55	5632
2026-01-27 09:10:19.11	7.79	22.58	-41.9	-45.7	12.4	1.44e-04	0	63	0	810549248	55	5550
2026-01-27 09:10:20.12	7.63	22.46	-42.1	-46.3	11.8	3.49e-04	0	63	0	812646400	55	5935
2026-01-27 09:10:21.13	7.46	22.34	-42.1	-46.2	11.8	5.65e-04	0	63	0	814743552	55	5922
2026-01-27 09:10:22.14	7.30	22.23	-42.3	-46.6	11.4	4.94e-04	0	63	0	816840704	55	6190
2026-01-27 09:10:23.15	7.14	22.12	-42.1	-46.2	11.8	4.27e-04	0	63	0	818937856	55	5885
2026-01-27 09:10:24.16	6.97	22.00	-42.0	-46.0	12.0	3.54e-04	0	63	0	819986432	55	5741
2026-01-27 09:10:25.17	6.81	21.89	-41.8	-45.6	12.4	1.83e-04	0	63	0	822083584	55	5524
2026-01-27 09:10:26.18	6.66	21.77	-41.6	-45.3	12.7	1.25e-04	0	63	0	824180736	55	5302
2026-01-27 09:10:27.19	6.50	21.66	-41.6	-45.3	12.7	1.52e-04	0	63	0	826277888	55	5306
2026-01-27 09:10:28.20	6.34	21.55	-41.7	-45.4	12.7	6.17e-05	0	63	0	828375040	55	5348
2026-01-27 09:10:29.21	6.19	21.43	-42.0	-46.1	11.9	1.44e-04	0	63	0	829423616	55	5825
2026-01-27 09:10:30.22	6.03	21.32	-42.2	-46.5	11.4	7.13e-04	0	63	0	831520768	55	6122
2026-01-27 09:10:31.23	5.88	21.21	-42.6	-47.4	10.5	2.55e-03	0	63	0	833617920	55	6753
2026-01-27 09:10:32.24	5.73	21.10	-43.0	-48.2	9.9	6.30e-03	0	63	0	835715072	56	7006
2026-01-27 09:10:33.25	5.57	20.98	-43.2	-48.8	9.2	1.87e-02	0	63	0	837812224	56	7503
2026-01-27 09:10:34.26	5.43	20.87	-43.2	-48.7	9.3	2.51e-02	0	63	0	838860800	57	7024
2026-01-27 09:10:35.27	5.28	20.76	-43.2	-48.9	9.1	2.18e-02	0	63	0	840957952	57	7153
2026-01-27 09:10:36.28	5.13	20.65	-43.2	-48.8	9.1	2.20e-02	0	63	0	843055104	57	7092
2026-01-27 09:10:37.29	4.98	20.54	-43.0	-48.4	9.6	1.45e-02	0	63	0	845152256	57	6758
2026-01-27 09:10:38.30	4.84	20.43	-42.9	-48.0	9.9	1.33e-02	0	63	0	847249408	57	6485
2026-01-27 09:10:39.31	4.69	20.32	-42.8	-47.7	10.3	5.83e-03	0	63	0	849346560	57	6231
2026-01-27 09:10:40.32	4.55	20.21	-42.8	-47.7	10.3	5.97e-03	0	63	0	850395136	57	6263
2026-01-27 09:10:41.33	4.41	20.10	-42.6	-47.2	10.8	3.61e-03	0	63	0	852492288	57	5909
2026-01-27 09:10:42.34	4.27	19.99	-42.5	-47.0	11.0	1.88e-03	0	64	0	854589440	56	6092
2026-01-27 09:10:43.35	4.13	19.88	-42.4	-46.8	11.2	1.29e-03	0	64	0	856686592	56	5973
2026-01-27 09:10:44.36	3.99	19.77	-42.4	-46.8	11.2	1.09e-03	0	63	0	858783744	56	5959
2026-01-27 09:10:45.37	3.85	19.66	-42.4	-46.9	11.1	1.30e-03	0	63	0	859832320	56	6020
2026-01-27 09:10:46.38	3.71	19.56	-42.4	-46.9	11.1	1.59e-03	0	63	0	861929472	56	6030
2026-01-27 09:10:47.39	3.57	19.45	-42.5	-47.2	10.7	2.24e-03	0	63	0	864026624	56	6249
2026-01-27 09:10:48.40	3.44	19.34	-42.6	-47.3	10.6	2.78e-03	0	63	0	866123776	56	6322
2026-01-27 09:10:49.41	3.30	19.23	-42.6	-47.4	10.6	3.66e-03	0	63	0	868220928	56	6350
2026-01-27 09:10:50.42	3.17	19.13	-42.5	-47.2	10.7	3.53e-03	0	64	0	869269504	56	6254
2026-01-27 09:10:51.43	3.04	19.02	-42.4	-47.0	10.9	2.70e-03	0	63	0	871366656	56	6111
2026-01-27 09:10:52.44	2.91	18.91	-42.1	-46.4	11.6	9.98e-04	0	63	0	873463808	56	5670
2026-01-27 09:10:53.45	2.78	18.81	-42.1	-46.2	11.7	5.75e-04	0	63	0	875560960	56	5563
2026-01-27 09:10:54.46	2.65	18.70	-41.5	-45.3	12.5	1.98e-04	0	64	0	877658112	55	5322
2026-01-27 09:10:55.47	2.52	18.60	-41.5	-45.3	12.5	1.44e-04	0	64	0	878706688	55	5300
2026-01-27 09:10:56.48	2.39	18.49	-41.5	-45.3	12.5	1.09e-04	0	63	0	880803840	54	5629
2026-01-27 09:10:57.49	2.26	18.39	-41.5	-45.2	12.6	1.04e-04	0	63	0	882900992	54	5568
2026-01-27 09:10:58.50	2.14	18.28	-41.5	-45.3	12.4	1.72e-04	0	63	0	884998144	54	5652
2026-01-27 09:10:59.51	2.01	18.18	-41.7	-45.7	12.0	2.35e-04	0	63	0	887095296	54	5901
2026-01-27 09:11:00.52	1.89	18.07	-41.8	-46.0	11.7	4.78e-04	0	63	0	888143872	54	6074
2026-01-27 09:11:01.53	1.77	17.97	-41.9	-46.2	11.5	6.90e-04	0	64	0	890241024	54	6240
2026-01-27 09:11:02.55	1.64	17.86	-42.2	-46.8	10.9	1.66e-03	0	63	0	892338176	54	6659
2026-01-27 09:11:03.56	1.52	17.76	-42.2	-46.8	10.8	2.25e-03	0	64	0	894435328	55	6278
2026-01-27 09:11:04.57	1.40	17.66	-42.1	-46.8	10.9	1.76e-03	0	63	0	896532480	55	6276
2026-01-27 09:11:05.57	1.28	17.56	-42.1	-46.5	11.1	1.91e-03	0	63	0	897581056	55	6127
2026-01-27 09:11:06.58	1.16	17.46	-42.0	-46.5	11.1	1.94e-03	0	63	0	899678208	55	6086
2026-01-27 09:11:07.59	1.04	17.35	-42.0	-46.4	11.2	1.60e-03	0	63	0	901775360	55	6027
2026-01-27 09:11:08.60	0.93	17.25	-41.9	-46.3	11.3	1.02e-03	0	63	0	903872512	55	5933
2026-01-27 09:11:09.61	0.81	17.15	-41.9	-46.2	11.3	9.53e-04	0	63	0	905969664	55	5867
2026-01-27 09:11:10.62	0.69	17.05	-41.8	-46.1	11.4	1.11e-03	0	63	0	907018240	55	5800
2026-01-27 09:11:11.63	0.58	16.95	-41.9	-46.3	11.2	9.69e-04	0	63	0	909115392	55	5987
2026-01-27 09:11:12.64	0.47	16.85	-41.9	-46.4	11.0	1.85e-03	0	63	0	911212544	55	6020
2026-01-27 09:11:13.65	0.35	16.75	-42.0	-46.6	10.8	2.07e-03	0	63	0	913309696	55	6184
2026-01-27 09:11:14.66	0.24	16.65	-42.0	-46.7	10.6	2.79e-03	0	63	0	915406848	55	6245
2026-01-27 09:11:15.67	0.13	16.55	-42.0	-46.7	10.7	2.50e-03	0	64	0	917504000	55	6220
2026-01-27 09:11:16.68	0.02	16.45	-42.0	-46.6	10.7	3.13e-03	0	63	0	918552576	55	6157
2026-01-27 09:11:17.69	359.91	16.35	-41.9	-46.5	10.8	3.56e-03	0	64	0	920649728	55	6107
2026-01-27 09:11:18.70	359.80	16.25	-42.0	-46.9	10.3	3.62e-03	0	63	0	922746880	55	6383
2026-01-27 09:11:19.71	359.69	16.15	-42.1	-47.0	10.2	5.09e-03	0	63	0	924844032	55	6474
2026-01-27 09:11:20.72	359.58	16.06	-42.1	-47.2	10.0	7.46e-03	0	63	0	926941184	55	6616
2026-01-27 09:11:21.73	359.47	15.96	-42.1	-47.2	10.0	7.25e-03	0	64	0	927989760	55	6607
2026-01-27 09:11:22.74	359.36	15.86	-42.2	-47.5	9.6	1.04e-02	0	63	0	930086912	55	6864
2026-01-27 09:11:23.75	359.26	15.76	-42.3	-47.8	9.3	1.75e-02	0	64	0	932184064	55	7085
2026-01-27 09:11:24.75	359.15	15.67	-42.2	-47.7	9.3	1.76e-02	0	63	0	934281216	55	6966
2026-01-27 09:11:25.76	359.05	15.57	-42.3	-48.0	8.9	2.40e-02	0	64	0	936378368	55	7249
2026-01-27 09:11:26.77	358.95	15.47	-42.2	-48.2	8.6	3.52e-02	0	64	0	937426944	55	7377
2026-01-27 09:11:27.79	358.84	15.38	-42.0	-47.6	9.2	3.29e-02	0	64	0	939524096	55	6901
2026-01-27 09:11:28.80	358.74	15.28	-41.9	-47.3	9.4	1.75e-02	0	63	0	941621248	55	6718
2026-01-27 09:11:29.81	358.64	15.19	-42.0	-47.5	9.2	1.63e-02	0	63	0	943718400	55	6875
2026-01-27 09:11:30.82	358.54	15.09	-41.8	-47.2	9.4	2.14e-02	0	64	0	945815552	55	6620
2026-01-27 09:11:31.83	358.44	15.00	-41.6	-46.7	9.9	9.13e-03	0	63	0	946864128	55	6214
2026-01-27 09:11:32.84	358.34	14.90	-41.4	-46.3	10.3	8.25e-03	0	64	0	948961280	54	6326
2026-01-27 09:11:33.85	358.24	14.81	-41.2	-45.9	10.6	5.04e-03	0	64	0	951058432	54	5994
2026-01-27 09:11:34.86	358.14	14.71	-41.1	-45.6	10.8	2.19e-03	0	64	0	953155584	54	5828
2026-01-27 09:11:35.87	358.04	14.62	-41.0	-45.6	10.8	2.55e-03	0	63	0	955252736	54	5830
2026-01-27 09:11:36.88	357.94	14.53	-41.1	-45.8	10.5	2.84e-03	0	64	0	956301312	54	5933
2026-01-27 09:11:37.89	357.85	14.43	-41.1	-46.0	10.2	5.20e-03	0	64	0	958398464	54	6078
2026-01-27 09:11:38.90	357.75	14.34	-41.0	-45.8	10.4	7.31e-03	0	63	0	960495616	54	5936
2026-01-27 09:11:39.91	357.66	14.25	-40.8	-45.5	10.6	3.94e-03	0	64	0	962592768	53	6089
2026-01-27 09:11:40.92	357.56	14.15	-40.9	-45.8	10.1	4.87e-03	0	64	0	964689920	53	6333
2026-01-27 09:11:41.93	357.47	14.06	-40.8	-45.8	10.1	4.62e-03	0	63	0	965738496	53	6297
2026-01-27 09:11:42.94	357.37	13.97	-40.9	-46.2	9.5	1.01e-02	0	63	0	967835648	53	6585
2026-01-27 09:11:43.95	357.28	13.88	-40.9	-46.2	9.5	1.41e-02	0	63	0	969932800	53	6638
2026-01-27 09:11:44.95	357.19	13.79	-41.0	-46.8	8.8	2.57e-02	0	64	0	972029952	53	7054
2026-01-27 09:11:45.96	357.10	13.70	-41.0	-46.9	8.6	4.03e-02	0	63	0	974127104	53	7140
2026-01-27 09:11:46.98	357.01	13.60	-40.9	-46.5	8.8	3.21e-02	0	64	0	975175680	53	6873
2026-01-27 09:11:47.98	356.92	13.52	-40.7	-46.3	8.9	3.02e-02	0	63	0	977272832	53	6662
2026-01-27 09:11:48.99	356.83	13.42	-40.7	-46.2	8.9	3.22e-02	0	64	0	979369984	53	6604
2026-01-27 09:11:50.00	356.74	13.33	-40.6	-46.2	8.9	3.05e-02	0	64	0	981467136	53	6641
2026-01-27 09:11:51.01	356.65	13.25	-40.7	-46.6	8.3	4.02e-02	0	64	0	983564288	53	6882
2026-01-27 09:11:52.02	356.56	13.16	-40.8	-47.2	7.2	8.46e-02	0	64	0	985661440	53	7427
2026-01-27 09:11:53.03	356.47	13.07	-40.7	-47.4	6.2	1.79e-01	0	64	0	986710016	53	7561
2026-01-27 09:11:54.04	356.38	12.98	-40.6	-47.5	5.6	4.08e-01	0	63	0	988807168	53	7709
2026-01-27 09:11:55.05	356.30	12.89	-40.5	-47.6	5.9	3.54e-01	0	64	0	990904320	53	7765
2026-01-27 09:11:56.06	356.21	12.80	-40.7	-48.5	5.6	3.99e-01	0	63	0	993001472	53	8601
2026-01-27 09:11:57.07	356.13	12.71	-40.5	-48.9	4.9	6.52e-01	0	64	0	995098624	53	9038
2026-01-27 09:11:58.08	356.04	12.62	-40.3	-51.9	3.8	1.48e+00	0	64	104	995098624	52	13417
2026-01-27 09:11:59.09	355.96	12.54	-39.9	-48.7	3.8	1.49e+00	0	64	104	995098624	51	9870
2026-01-27 09:12:00.10	355.87	12.45	-41.6	-53.8	3.8	1.49e+00	0	63	104	995098624	53	15813
2026-01-27 09:12:01.11	355.79	12.36	-40.6	-52.0	3.8	1.49e+00	0	63	104	995098624	51	14378
2026-01-27 09:12:02.12	355.71	12.27	-40.0	-49.0	3.8	1.49e+00	0	63	104	995098624	51	10260
2026-01-27 09:12:03.13	355.62	12.19	-39.8	-48.9	3.8	1.49e+00	0	64	104	995098624	51	10174
2026-01-27 09:12:04.14	355.54	12.10	-40.2	-49.9	3.8	1.49e+00	0	64	104	995098624	51	11344
2026-01-27 09:12:05.15	355.46	12.01	-40.4	-50.6	3.8	1.49e+00	0	63	104	995098624	51	12323
2026-01-27 09:12:06.15	355.38	11.93	-40.8	-52.8	3.8	1.49e+00	0	64	104	995098624	52	15026
2026-01-27 09:12:07.17	355.30	11.84	-40.2	-54.0	3.8	1.49e+00	0	64	104	995098624	52	17153
2026-01-27 09:12:08.17	355.22	11.76	-40.8	-54.1	3.8	1.49e+00	0	64	104	995098624	52	17436
2026-01-27 09:12:09.18	355.14	11.67	-40.6	-54.6	3.8	1.49e+00	0	64	104	995098624	52	18421
2026-01-27 09:12:10.19	355.06	11.59	-40.8	-54.8	3.8	1.49e+00	0	64	104	995098624	52	18926
2026-01-27 09:12:11.20	354.98	11.50	-40.7	-54.8	3.8	1.49e+00	0	64	104	995098624	52	18886
2026-01-27 09:12:12.21	354.90	11.42	-40.7	-55.1	3.8	1.49e+00	0	64	104	995098624	52	19548
2026-01-27 09:12:13.22	354.83	11.33	-40.7	-54.9	3.8	1.49e+00	0	63	104	995098624	52	19149
2026-01-27 09:12:14.23	354.75	11.25	-40.5	-55.0	3.8	1.49e+00	0	64	104	995098624	52	19358
2026-01-27 09:12:15.24	354.67	11.17	-40.2	-54.7	3.8	1.49e+00	0	64	104	995098624	52	18721
2026-01-27 09:12:16.25	354.60	11.08	-40.2	-54.8	3.8	1.49e+00	0	64	104	995098624	52	18823
2026-01-27 09:12:17.26	354.52	11.00	-40.5	-55.0	3.8	1.49e+00	0	64	104	995098624	52	19351
2026-01-27 09:12:18.27	354.45	10.92	-40.4	-55.0	3.8	1.49e+00	0	63	104	995098624	52	19202
2026-01-27 09:12:19.28	354.37	10.83	-40.2	-54.7	3.8	1.49e+00	0	64	104	995098624	52	18724
2026-01-27 09:12:20.29	354.30	10.75	-40.2	-54.8	3.8	1.49e+00	0	64	104	995098624	52	18771
2026-01-27 09:12:21.30	354.22	10.67	-40.4	-54.9	3.8	1.49e+00	0	64	104	995098624	52	19167
2026-01-27 09:12:22.31	354.15	10.59	-40.3	-54.9	3.8	1.49e+00	0	64	104	995098624	52	18977
2026-01-27 09:12:23.32	354.08	10.50	-40.2	-54.7	3.8	1.49e+00	0	63	104	995098624	52	18628
2026-01-27 09:12:24.33	354.00	10.42	-40.2	-54.8	3.8	1.49e+00	0	63	104	995098624	52	18763
2026-01-27 09:12:25.34	353.93	10.34	-40.3	-54.8	3.8	1.49e+00	0	63	104	995098624	52	18945
2026-01-27 09:12:26.35	353.86	10.26	-40.3	-54.8	3.8	1.49e+00	0	64	104	995098624	52	18834
2026-01-27 09:12:27.36	353.79	10.18	-40.2	-54.7	3.8	1.49e+00	0	64	104	995098624	52	18612
2026-01-27 09:12:28.37	353.72	10.10	-40.2	-54.8	3.8	1.49e+00	0	63	104	995098624	52	18804
2026-01-27 09:12:29.38	353.65	10.02	-40.2	-54.8	3.8	1.49e+00	0	64	104	995098624	52	18856
2026-01-27 09:12:30.39	353.58	9.94	-40.2	-54.8	3.8	1.49e+00	0	63	104	995098624	52	18886
