passes_logs/2026/01/27/R2.0S_Moscow/R2.0S_Moscow__20260127_104037_SUOMI_NPP_rec.log

#Pass ID: 20260127_104037_SUOMI NPP
#Satellite: SUOMI NPP
#Configuration: NPP
#almurnet v.1.7.20251203
#Start time: 2026-01-27 10:40:38

#Version: 2.2.20231116
#Station: R2.0S_Moscow
#Location: 37.707566 lon 55.798166 lat
#TLE: 1 37849U 11061A   26026.87508736  .00000176  00000+0  10464-3 0  9991
#TLE: 2 37849  98.7822 328.8221 0002127  43.3055 316.8288 14.19530452738397

#Time	Az	El	Level	Level2	SNR	BER	BlckErr	Temp	State	Recorded	gain1	gain2
2026-01-27 10:40:38.78	180.61	2.10	-44.1	-58.5	3.8	1.49e+00	0	54	0	0	59	19361
2026-01-27 10:40:39.78	180.64	2.16	-44.0	-58.6	3.8	1.49e+00	0	54	104	0	60	18515
2026-01-27 10:40:40.79	180.68	2.22	-44.1	-58.5	3.8	1.49e+00	0	54	104	0	59	19365
2026-01-27 10:40:41.80	180.71	2.29	-44.1	-58.6	3.8	1.49e+00	0	54	104	0	59	19393
2026-01-27 10:40:42.81	180.75	2.35	-44.1	-58.5	3.8	1.49e+00	0	54	104	0	59	19363
2026-01-27 10:40:43.82	180.78	2.42	-44.1	-58.6	3.8	1.49e+00	0	54	104	0	59	19401
2026-01-27 10:40:44.83	180.81	2.48	-44.1	-58.5	3.8	1.49e+00	0	54	104	0	59	19328
2026-01-27 10:40:45.84	180.85	2.54	-44.1	-58.5	3.8	1.49e+00	0	54	104	0	59	19358
2026-01-27 10:40:46.85	180.88	2.61	-44.1	-58.5	3.8	1.49e+00	0	54	104	0	59	19355
2026-01-27 10:40:47.86	180.92	2.67	-44.1	-58.5	3.8	1.49e+00	0	55	104	0	59	19340
2026-01-27 10:40:48.87	180.95	2.74	-44.1	-58.6	3.8	1.49e+00	0	55	104	0	59	19421
2026-01-27 10:40:49.88	180.99	2.80	-44.1	-58.5	3.8	1.49e+00	0	55	104	0	59	19329
2026-01-27 10:40:50.89	181.02	2.87	-44.1	-58.5	3.8	1.49e+00	0	55	104	0	59	19282
2026-01-27 10:40:51.91	181.06	2.93	-44.1	-58.5	3.8	1.49e+00	0	55	104	0	59	19343
2026-01-27 10:40:52.92	181.10	3.00	-44.1	-58.6	3.8	1.49e+00	0	55	104	0	59	19421
2026-01-27 10:40:53.93	181.13	3.06	-44.1	-58.5	3.8	1.49e+00	0	55	104	0	59	19355
2026-01-27 10:40:54.94	181.17	3.13	-44.1	-58.5	3.8	1.49e+00	0	55	104	0	59	19275
2026-01-27 10:40:55.95	181.20	3.20	-44.1	-58.5	3.8	1.49e+00	0	55	104	0	59	19363
2026-01-27 10:40:56.96	181.24	3.26	-44.1	-58.5	3.8	1.49e+00	0	55	104	0	59	19337
2026-01-27 10:40:57.97	181.27	3.33	-44.1	-58.5	3.8	1.49e+00	0	55	104	0	59	19348
2026-01-27 10:40:58.98	181.31	3.39	-44.1	-58.5	3.8	1.49e+00	0	55	104	0	59	19314
2026-01-27 10:40:59.99	181.35	3.46	-44.1	-58.5	3.8	1.49e+00	0	55	104	0	59	19259
2026-01-27 10:41:01.00	181.38	3.53	-44.1	-58.5	3.8	1.49e+00	0	55	104	0	59	19305
2026-01-27 10:41:02.01	181.42	3.59	-44.1	-58.5	3.8	1.49e+00	0	55	104	0	59	19314
2026-01-27 10:41:03.02	181.46	3.66	-44.1	-58.5	3.8	1.49e+00	0	55	104	0	59	19368
2026-01-27 10:41:04.03	181.50	3.73	-44.1	-58.5	3.8	1.49e+00	0	56	104	0	59	19372
2026-01-27 10:41:05.04	181.53	3.79	-44.1	-58.5	3.8	1.49e+00	0	56	104	0	59	19316
2026-01-27 10:41:06.05	181.57	3.86	-44.1	-58.5	3.8	1.49e+00	0	56	104	0	59	19331
2026-01-27 10:41:07.06	181.61	3.93	-44.1	-58.5	3.8	1.49e+00	0	56	104	0	59	19343
2026-01-27 10:41:08.07	181.65	4.00	-44.1	-58.5	3.8	1.49e+00	0	56	104	0	59	19295
2026-01-27 10:41:09.08	181.68	4.06	-44.1	-58.5	3.8	1.49e+00	0	56	104	0	59	19242
2026-01-27 10:41:10.09	181.72	4.13	-44.1	-58.5	3.8	1.49e+00	0	56	104	0	59	19172
2026-01-27 10:41:11.10	181.76	4.20	-44.1	-58.4	3.8	1.49e+00	0	56	104	0	59	19134
2026-01-27 10:41:12.11	181.80	4.27	-44.1	-58.4	3.8	1.49e+00	0	56	104	0	59	19133
2026-01-27 10:41:13.12	181.84	4.34	-44.1	-58.4	3.8	1.49e+00	0	56	104	0	59	19132
2026-01-27 10:41:14.14	181.88	4.41	-44.0	-58.4	3.8	1.49e+00	0	56	104	0	59	19076
2026-01-27 10:41:15.15	181.92	4.47	-44.0	-58.2	3.8	1.49e+00	0	56	104	0	59	18708
2026-01-27 10:41:16.16	181.95	4.54	-44.0	-58.1	3.8	1.49e+00	0	57	104	0	59	18344
2026-01-27 10:41:17.17	181.99	4.61	-44.0	-58.0	3.8	1.49e+00	0	56	104	0	59	18242
2026-01-27 10:41:18.18	182.03	4.68	-44.0	-58.0	3.8	1.49e+00	0	57	104	0	59	18281
2026-01-27 10:41:19.19	182.07	4.75	-44.0	-57.8	3.8	1.49e+00	0	57	104	0	59	17815
2026-01-27 10:41:20.20	182.11	4.82	-44.0	-57.8	3.8	1.49e+00	0	57	104	0	59	17701
2026-01-27 10:41:21.21	182.15	4.89	-44.0	-57.6	3.8	1.49e+00	0	56	104	0	59	17429
2026-01-27 10:41:22.22	182.19	4.96	-44.0	-57.7	3.8	1.49e+00	0	57	104	0	59	17503
2026-01-27 10:41:23.23	182.23	5.03	-44.0	-57.5	3.8	1.49e+00	0	57	104	0	59	17210
2026-01-27 10:41:24.24	182.27	5.10	-44.0	-57.2	3.8	1.49e+00	0	57	104	0	59	16567
2026-01-27 10:41:25.25	182.31	5.17	-44.0	-56.8	3.8	1.49e+00	0	57	104	0	59	15864
2026-01-27 10:41:26.26	182.36	5.24	-43.9	-56.4	3.9	1.49e+00	0	57	104	0	59	15206
2026-01-27 10:41:27.27	182.40	5.31	-43.9	-56.2	3.9	1.49e+00	0	57	104	0	59	14807
2026-01-27 10:41:28.28	182.44	5.38	-43.9	-56.2	3.8	1.48e+00	0	57	104	0	59	14776
2026-01-27 10:41:29.29	182.48	5.45	-43.9	-55.7	4.0	1.48e+00	0	57	104	0	59	14036
2026-01-27 10:41:30.30	182.52	5.52	-43.9	-55.4	4.1	1.46e+00	0	57	0	0	59	13476
2026-01-27 10:41:31.31	182.56	5.60	-43.8	-54.9	4.2	1.42e+00	0	57	0	0	59	12739
2026-01-27 10:41:32.32	182.60	5.67	-43.8	-54.7	4.3	1.34e+00	0	57	0	0	59	12468
2026-01-27 10:41:33.33	182.65	5.74	-43.8	-54.6	4.3	1.34e+00	0	57	0	0	59	12365
2026-01-27 10:41:34.34	182.69	5.81	-43.8	-54.5	4.3	1.34e+00	0	57	0	1048576	59	12126
2026-01-27 10:41:35.35	182.73	5.88	-43.8	-54.2	4.4	1.22e+00	0	57	0	2097152	59	11771
2026-01-27 10:41:36.37	182.78	5.96	-43.8	-54.3	4.4	1.12e+00	0	57	0	4194304	59	11855
2026-01-27 10:41:37.38	182.82	6.03	-43.7	-53.9	4.5	1.09e+00	0	58	0	6291456	59	11382
2026-01-27 10:41:38.39	182.86	6.10	-43.7	-53.9	4.5	1.03e+00	0	57	0	8388608	59	11416
2026-01-27 10:41:39.40	182.90	6.18	-43.7	-53.5	4.7	1.00e+00	0	58	0	9437184	59	10861
2026-01-27 10:41:40.40	182.95	6.25	-43.7	-53.8	4.6	8.73e-01	0	58	0	11534336	59	11244
2026-01-27 10:41:41.42	182.99	6.32	-43.7	-53.6	4.7	8.94e-01	0	58	0	13631488	59	10963
2026-01-27 10:41:42.42	183.04	6.39	-43.7	-53.4	4.8	8.22e-01	0	58	0	15728640	59	10684
2026-01-27 10:41:43.44	183.08	6.47	-43.6	-52.9	5.0	8.06e-01	0	58	0	17825792	59	10121
2026-01-27 10:41:44.45	183.12	6.54	-43.6	-52.6	5.2	6.72e-01	0	58	0	18874368	59	9768
2026-01-27 10:41:45.46	183.17	6.62	-43.5	-52.4	5.3	5.50e-01	0	58	0	20971520	59	9541
2026-01-27 10:41:46.46	183.21	6.69	-43.4	-51.8	5.8	4.49e-01	0	58	0	23068672	58	9399
2026-01-27 10:41:47.47	183.26	6.77	-43.3	-50.9	6.4	3.26e-01	0	58	0	25165824	58	8543
2026-01-27 10:41:48.48	183.30	6.84	-43.2	-50.7	6.6	2.32e-01	0	58	0	27262976	58	8361
2026-01-27 10:41:49.49	183.35	6.91	-43.1	-50.0	7.2	1.85e-01	0	58	0	28311552	58	7678
2026-01-27 10:41:50.50	183.40	6.99	-43.0	-49.8	7.3	1.08e-01	0	58	0	30408704	58	7525
2026-01-27 10:41:51.52	183.44	7.07	-42.8	-48.9	8.3	6.47e-02	0	58	0	32505856	57	7182
2026-01-27 10:41:52.53	183.49	7.14	-42.7	-48.7	8.6	4.15e-02	0	58	0	34603008	57	6961
2026-01-27 10:41:53.54	183.53	7.22	-42.5	-48.1	9.1	3.49e-02	0	58	0	36700160	57	6558
2026-01-27 10:41:54.55	183.58	7.29	-42.5	-48.0	9.2	2.08e-02	0	58	0	37748736	56	6852
2026-01-27 10:41:55.56	183.63	7.37	-42.4	-47.9	9.3	1.66e-02	0	58	0	39845888	56	6739
2026-01-27 10:41:56.57	183.68	7.45	-42.3	-47.5	9.7	1.07e-02	0	58	0	41943040	56	6487
2026-01-27 10:41:57.58	183.72	7.52	-42.2	-47.3	9.9	1.10e-02	0	58	0	44040192	56	6346
2026-01-27 10:41:58.59	183.77	7.60	-42.3	-47.5	9.8	1.13e-02	0	58	0	46137344	56	6441
2026-01-27 10:41:59.60	183.82	7.68	-42.3	-47.5	9.8	1.15e-02	0	58	0	47185920	56	6429
2026-01-27 10:42:00.61	183.87	7.75	-42.3	-47.6	9.6	1.05e-02	0	58	0	49283072	56	6562
2026-01-27 10:42:01.62	183.91	7.83	-42.4	-47.7	9.5	1.35e-02	0	58	0	51380224	56	6635
2026-01-27 10:42:02.63	183.96	7.91	-42.5	-48.2	9.0	2.20e-02	0	58	0	53477376	56	7003
2026-01-27 10:42:03.64	184.01	7.99	-42.7	-48.8	8.4	2.88e-02	0	58	0	55574528	56	7474
2026-01-27 10:42:04.65	184.06	8.07	-43.3	-50.3	7.4	3.36e-02	0	58	0	57671680	57	8448
2026-01-27 10:42:05.66	184.11	8.14	-42.9	-49.2	8.6	2.98e-01	0	59	0	58720256	56	7879
2026-01-27 10:42:06.67	184.16	8.22	-42.8	-48.6	8.9	1.47e+00	0	59	0	59768832	57	6891
2026-01-27 10:42:07.68	184.21	8.30	-42.5	-47.8	9.6	6.97e-02	0	59	0	61865984	57	6328
2026-01-27 10:42:08.69	184.26	8.38	-43.6	-53.0	5.3	9.47e-03	0	59	0	62914560	57	11478
2026-01-27 10:42:09.70	184.31	8.46	-42.7	-48.4	8.7	1.49e+00	0	59	104	63963136	57	6747
2026-01-27 10:42:10.71	184.36	8.54	-42.4	-47.5	10.0	7.43e-03	0	59	0	65011712	56	6429
2026-01-27 10:42:11.72	184.41	8.62	-42.4	-47.4	10.0	9.44e-03	0	59	0	67108864	56	6406
2026-01-27 10:42:12.73	184.46	8.70	-42.3	-47.2	10.2	6.88e-03	0	59	0	69206016	56	6256
2026-01-27 10:42:13.74	184.51	8.78	-42.3	-47.2	10.2	6.45e-03	0	59	0	71303168	56	6261
2026-01-27 10:42:14.75	184.57	8.86	-42.3	-47.1	10.3	6.23e-03	0	59	0	72351744	56	6191
2026-01-27 10:42:15.76	184.62	8.94	-42.3	-47.2	10.3	6.10e-03	0	59	0	74448896	56	6203
2026-01-27 10:42:16.77	184.67	9.02	-42.4	-47.4	10.1	5.11e-03	0	59	0	76546048	56	6370
2026-01-27 10:42:17.78	184.72	9.10	-42.3	-47.2	10.3	6.55e-03	0	59	0	78643200	56	6215
2026-01-27 10:42:18.79	184.77	9.18	-42.3	-47.2	10.2	5.06e-03	0	59	0	80740352	56	6255
2026-01-27 10:42:19.80	184.83	9.27	-42.3	-47.1	10.3	5.95e-03	0	59	0	81788928	56	6167
2026-01-27 10:42:20.82	184.88	9.35	-42.3	-47.1	10.4	4.14e-03	0	59	0	83886080	56	6178
2026-01-27 10:42:21.82	184.93	9.43	-42.1	-46.7	10.8	4.32e-03	0	59	0	85983232	56	5915
2026-01-27 10:42:22.83	184.99	9.51	-42.1	-46.6	10.9	2.72e-03	0	59	0	88080384	56	5803
2026-01-27 10:42:23.84	185.04	9.60	-42.1	-46.5	11.0	2.45e-03	0	59	0	90177536	56	5786
2026-01-27 10:42:24.85	185.10	9.68	-42.0	-46.5	11.0	1.76e-03	0	59	0	91226112	56	5738
2026-01-27 10:42:25.86	185.15	9.76	-42.0	-46.4	11.1	2.02e-03	0	59	0	93323264	56	5681
2026-01-27 10:42:26.87	185.21	9.85	-41.9	-46.4	11.0	1.65e-03	0	59	0	95420416	55	5993
2026-01-27 10:42:27.88	185.26	9.93	-41.8	-46.2	11.1	1.43e-03	0	59	0	97517568	55	5864
2026-01-27 10:42:28.89	185.32	10.01	-41.7	-46.0	11.4	1.16e-03	0	60	0	99614720	55	5750
2026-01-27 10:42:29.90	185.37	10.10	-41.8	-46.2	11.2	1.55e-03	0	59	0	100663296	55	5892
2026-01-27 10:42:30.91	185.43	10.18	-41.8	-46.1	11.3	1.17e-03	0	60	0	102760448	55	5804
2026-01-27 10:42:31.92	185.49	10.27	-41.9	-46.2	11.2	1.16e-03	0	59	0	104857600	55	5897
2026-01-27 10:42:32.94	185.54	10.35	-41.8	-46.0	11.3	1.28e-03	0	59	0	106954752	55	5781
2026-01-27 10:42:33.94	185.60	10.44	-41.8	-46.2	11.2	1.28e-03	0	60	0	109051904	55	5871
2026-01-27 10:42:34.96	185.66	10.52	-41.7	-45.9	11.5	1.02e-03	0	60	0	110100480	55	5711
2026-01-27 10:42:35.97	185.72	10.61	-41.8	-46.0	11.4	7.65e-04	0	59	0	112197632	55	5769
2026-01-27 10:42:36.98	185.77	10.70	-41.7	-45.9	11.5	8.35e-04	0	60	0	114294784	55	5718
2026-01-27 10:42:37.98	185.83	10.78	-41.7	-45.8	11.6	6.11e-04	0	59	0	116391936	55	5649
2026-01-27 10:42:38.99	185.89	10.87	-41.8	-46.0	11.5	7.21e-04	0	60	0	118489088	55	5733
2026-01-27 10:42:40.00	185.95	10.96	-41.7	-45.7	11.7	7.17e-04	0	60	0	119537664	55	5585
2026-01-27 10:42:41.01	186.01	11.04	-41.7	-45.8	11.7	5.63e-04	0	60	0	121634816	55	5625
2026-01-27 10:42:42.02	186.07	11.13	-41.7	-45.7	11.7	4.72e-04	0	60	0	123731968	55	5579
2026-01-27 10:42:43.03	186.13	11.22	-41.5	-45.3	12.1	3.26e-04	0	60	0	125829120	55	5330
2026-01-27 10:42:44.04	186.19	11.31	-41.6	-45.5	12.0	2.82e-04	0	60	0	127926272	55	5406
2026-01-27 10:42:45.05	186.25	11.40	-41.5	-45.4	12.1	2.42e-04	0	60	0	130023424	54	5712
2026-01-27 10:42:46.07	186.31	11.49	-41.4	-45.2	12.3	1.72e-04	0	60	0	131072000	54	5569
2026-01-27 10:42:47.08	186.37	11.58	-41.4	-45.2	12.3	1.78e-04	0	60	0	133169152	54	5578
2026-01-27 10:42:48.09	186.43	11.66	-41.3	-44.9	12.7	1.51e-04	0	60	0	135266304	54	5346
2026-01-27 10:42:49.10	186.50	11.75	-41.4	-45.1	12.4	8.31e-05	0	60	0	137363456	54	5519
2026-01-27 10:42:50.11	186.56	11.84	-41.4	-45.2	12.3	1.63e-04	0	60	0	139460608	54	5533
2026-01-27 10:42:51.12	186.62	11.93	-41.3	-45.0	12.6	1.14e-04	0	60	0	140509184	54	5403
2026-01-27 10:42:52.13	186.69	12.03	-41.4	-45.1	12.4	1.17e-04	0	60	0	142606336	54	5513
2026-01-27 10:42:53.14	186.75	12.12	-41.3	-45.0	12.5	1.14e-04	0	60	0	144703488	54	5410
2026-01-27 10:42:54.15	186.81	12.21	-41.3	-45.0	12.5	1.17e-04	0	60	0	146800640	54	5446
2026-01-27 10:42:55.16	186.88	12.30	-41.3	-44.9	12.6	9.53e-05	0	60	0	148897792	54	5378
2026-01-27 10:42:56.17	186.94	12.39	-41.4	-45.0	12.4	1.53e-04	0	60	0	149946368	54	5464
2026-01-27 10:42:57.18	187.01	12.48	-41.4	-45.0	12.5	9.38e-05	0	60	0	152043520	54	5464
2026-01-27 10:42:58.19	187.07	12.58	-41.3	-45.0	12.6	1.25e-04	0	60	0	154140672	54	5407
2026-01-27 10:42:59.20	187.14	12.67	-41.4	-45.1	12.5	1.04e-04	0	60	0	156237824	54	5480
2026-01-27 10:43:00.21	187.21	12.76	-41.4	-45.0	12.5	9.23e-05	0	60	0	158334976	54	5462
2026-01-27 10:43:01.22	187.27	12.86	-41.4	-45.1	12.5	9.23e-05	0	60	0	159383552	54	5498
2026-01-27 10:43:02.23	187.34	12.95	-41.3	-44.9	12.7	1.13e-04	0	60	0	161480704	54	5388
2026-01-27 10:43:03.24	187.41	13.04	-41.4	-45.0	12.6	9.61e-05	0	60	0	163577856	54	5456
2026-01-27 10:43:04.25	187.48	13.14	-41.5	-45.2	12.3	1.27e-04	0	60	0	165675008	54	5589
2026-01-27 10:43:05.26	187.54	13.23	-41.3	-44.8	12.8	8.69e-05	0	60	0	167772160	54	5338
2026-01-27 10:43:06.27	187.61	13.33	-41.3	-44.9	12.7	7.24e-05	0	60	0	168820736	54	5381
2026-01-27 10:43:07.28	187.68	13.42	-41.3	-45.0	12.7	4.65e-05	0	60	0	170917888	54	5404
2026-01-27 10:43:08.29	187.75	13.52	-41.4	-45.1	12.5	7.40e-05	0	60	0	173015040	54	5485
2026-01-27 10:43:09.30	187.82	13.62	-41.3	-44.9	12.7	8.54e-05	0	60	0	175112192	54	5397
2026-01-27 10:43:10.31	187.89	13.71	-41.3	-44.8	12.8	5.18e-05	0	60	0	177209344	54	5339
2026-01-27 10:43:11.32	187.96	13.81	-41.3	-44.8	12.9	9.15e-05	0	60	0	178257920	54	5297
2026-01-27 10:43:12.33	188.03	13.91	-41.4	-45.1	12.5	9.15e-05	0	60	0	180355072	54	5526
2026-01-27 10:43:13.34	188.11	14.00	-41.4	-45.0	12.6	6.94e-05	0	60	0	182452224	54	5442
2026-01-27 10:43:14.35	188.18	14.10	-41.5	-45.2	12.5	9.91e-05	0	60	0	184549376	54	5565
2026-01-27 10:43:15.36	188.25	14.20	-41.5	-45.2	12.5	1.28e-04	0	60	0	186646528	54	5573
2026-01-27 10:43:16.37	188.32	14.30	-41.4	-45.0	12.7	1.01e-04	0	61	0	187695104	54	5432
2026-01-27 10:43:17.38	188.40	14.40	-41.4	-45.0	12.7	8.31e-05	0	60	0	189792256	54	5431
2026-01-27 10:43:18.39	188.47	14.50	-41.4	-45.1	12.7	7.93e-05	0	61	0	191889408	54	5467
2026-01-27 10:43:19.40	188.55	14.60	-41.5	-45.1	12.5	1.05e-04	0	61	0	193986560	54	5528
2026-01-27 10:43:20.41	188.62	14.70	-41.5	-45.2	12.5	6.40e-05	0	61	0	196083712	54	5554
2026-01-27 10:43:21.42	188.70	14.80	-41.6	-45.4	12.4	9.38e-05	0	61	0	198180864	54	5660
2026-01-27 10:43:22.43	188.77	14.90	-41.5	-45.2	12.5	1.27e-04	0	61	0	199229440	54	5576
2026-01-27 10:43:23.44	188.85	15.00	-41.6	-45.4	12.3	1.03e-04	0	61	0	201326592	54	5660
2026-01-27 10:43:24.45	188.93	15.10	-41.4	-45.1	12.6	1.36e-04	0	61	0	203423744	54	5486
2026-01-27 10:43:25.46	189.01	15.20	-41.3	-44.9	12.7	6.94e-05	0	61	0	205520896	54	5387
2026-01-27 10:43:26.47	189.08	15.30	-41.3	-44.9	12.7	1.07e-04	0	61	0	207618048	54	5382
2026-01-27 10:43:27.48	189.16	15.41	-41.3	-44.8	12.8	1.04e-04	0	61	0	208666624	54	5333
2026-01-27 10:43:28.49	189.24	15.51	-41.3	-44.9	12.7	8.08e-05	0	61	0	210763776	54	5346
2026-01-27 10:43:29.50	189.32	15.61	-41.3	-44.9	12.6	5.64e-05	0	61	0	212860928	54	5379
2026-01-27 10:43:30.51	189.40	15.72	-41.2	-44.7	12.8	7.17e-05	0	61	0	214958080	54	5261
2026-01-27 10:43:31.52	189.48	15.82	-41.1	-44.5	13.0	5.49e-05	0	61	0	217055232	54	5133
2026-01-27 10:43:32.53	189.56	15.93	-40.9	-44.2	13.3	2.36e-05	0	60	0	218103808	53	5248
2026-01-27 10:43:33.54	189.65	16.03	-40.9	-44.3	13.3	2.89e-05	0	61	0	220200960	53	5287
2026-01-27 10:43:34.55	189.73	16.14	-40.9	-44.2	13.3	1.67e-05	0	61	0	222298112	53	5263
2026-01-27 10:43:35.56	189.81	16.24	-40.8	-44.0	13.6	9.90e-06	0	61	0	224395264	53	5134
2026-01-27 10:43:36.57	189.89	16.35	-40.9	-44.1	13.5	6.10e-06	0	61	0	226492416	53	5214
2026-01-27 10:43:37.58	189.98	16.46	-40.8	-44.0	13.7	9.90e-06	0	61	0	227540992	53	5120
2026-01-27 10:43:38.59	190.06	16.56	-40.8	-43.9	13.8	1.22e-05	0	61	0	229638144	53	5098
2026-01-27 10:43:39.60	190.15	16.67	-40.8	-43.9	13.8	6.80e-06	0	61	0	231735296	53	5093
2026-01-27 10:43:40.61	190.23	16.78	-40.8	-43.9	13.9	4.50e-06	0	61	0	233832448	53	5044
2026-01-27 10:43:41.62	190.32	16.89	-40.8	-43.9	13.8	2.20e-06	0	61	0	235929600	53	5080
2026-01-27 10:43:42.63	190.41	17.00	-40.9	-44.0	13.7	2.20e-06	0	61	0	238026752	53	5139
2026-01-27 10:43:43.64	190.50	17.11	-40.9	-44.0	13.8	9.10e-06	0	61	0	239075328	53	5122
2026-01-27 10:43:44.65	190.58	17.22	-40.9	-44.1	13.6	8.30e-06	0	61	0	241172480	53	5204
2026-01-27 10:43:45.66	190.67	17.33	-40.9	-44.2	13.6	7.60e-06	0	61	0	243269632	53	5219
2026-01-27 10:43:46.67	190.76	17.44	-41.0	-44.3	13.5	8.30e-06	0	61	0	245366784	53	5297
2026-01-27 10:43:47.68	190.85	17.55	-41.0	-44.3	13.4	1.29e-05	0	61	0	247463936	53	5322
2026-01-27 10:43:48.69	190.94	17.66	-41.0	-44.3	13.4	9.10e-06	0	61	0	248512512	53	5339
2026-01-27 10:43:49.70	191.03	17.77	-40.9	-44.1	13.6	7.60e-06	0	61	0	250609664	53	5216
2026-01-27 10:43:50.71	191.13	17.88	-41.0	-44.3	13.4	1.29e-05	0	61	0	252706816	53	5321
2026-01-27 10:43:51.72	191.22	18.00	-41.0	-44.2	13.6	6.80e-06	0	61	0	254803968	53	5225
2026-01-27 10:43:52.73	191.31	18.11	-40.9	-44.1	13.8	2.20e-06	0	61	0	256901120	53	5181
2026-01-27 10:43:53.74	191.41	18.22	-40.9	-44.0	13.9	4.50e-06	0	61	0	257949696	53	5109
2026-01-27 10:43:54.76	191.50	18.34	-40.9	-43.9	13.9	1.50e-06	0	61	0	260046848	53	5087
2026-01-27 10:43:55.76	191.60	18.45	-40.8	-43.8	14.1	2.20e-06	0	61	0	262144000	53	5001
2026-01-27 10:43:56.77	191.69	18.57	-40.6	-43.5	14.3	1.50e-06	0	61	0	264241152	53	4869
2026-01-27 10:43:57.79	191.79	18.68	-40.6	-43.6	14.4	7.00e-07	0	61	0	266338304	53	4871
2026-01-27 10:43:58.79	191.89	18.80	-40.6	-43.5	14.4	7.00e-07	0	61	0	267386880	53	4846
2026-01-27 10:43:59.80	191.99	18.91	-40.5	-43.3	14.6	1.50e-06	0	61	0	269484032	53	4756
2026-01-27 10:44:00.81	192.08	19.03	-40.6	-43.5	14.4	2.20e-06	0	61	0	271581184	53	4849
2026-01-27 10:44:01.82	192.18	19.15	-40.6	-43.5	14.4	0.00e+00	0	61	0	273678336	53	4854
2026-01-27 10:44:02.83	192.28	19.27	-40.6	-43.5	14.5	7.00e-07	0	61	0	275775488	52	5103
2026-01-27 10:44:03.84	192.39	19.38	-40.6	-43.5	14.4	0.00e+00	0	61	0	276824064	52	5108
2026-01-27 10:44:04.85	192.49	19.50	-40.7	-43.6	14.3	0.00e+00	0	61	0	278921216	52	5197
2026-01-27 10:44:05.86	192.59	19.62	-40.6	-43.5	14.4	0.00e+00	0	61	0	281018368	52	5157
2026-01-27 10:44:06.87	192.69	19.74	-40.7	-43.7	14.2	7.00e-07	0	61	0	283115520	52	5250
2026-01-27 10:44:07.88	192.80	19.86	-40.8	-43.8	14.2	2.20e-06	0	61	0	285212672	52	5311
2026-01-27 10:44:08.89	192.90	19.98	-40.8	-43.7	14.2	7.00e-07	0	61	0	286261248	52	5270
2026-01-27 10:44:09.90	193.01	20.10	-40.8	-43.9	14.1	2.20e-06	0	61	0	288358400	52	5355
2026-01-27 10:44:10.91	193.12	20.23	-40.8	-43.8	14.2	0.00e+00	0	61	0	290455552	52	5309
2026-01-27 10:44:11.92	193.22	20.35	-40.9	-43.9	14.1	3.00e-06	0	62	0	292552704	52	5355
2026-01-27 10:44:12.93	193.33	20.47	-40.7	-43.6	14.4	1.50e-06	0	61	0	294649856	52	5177
2026-01-27 10:44:13.94	193.44	20.59	-40.8	-43.7	14.2	7.00e-07	0	61	0	295698432	52	5265
2026-01-27 10:44:14.95	193.55	20.72	-40.7	-43.6	14.4	3.00e-06	0	62	0	297795584	52	5196
2026-01-27 10:44:15.96	193.66	20.84	-40.6	-43.5	14.5	0.00e+00	0	61	0	299892736	52	5111
2026-01-27 10:44:16.97	193.77	20.97	-40.7	-43.5	14.4	1.50e-06	0	61	0	301989888	52	5150
2026-01-27 10:44:17.98	193.89	21.09	-40.7	-43.5	14.4	0.00e+00	0	61	0	304087040	52	5152
2026-01-27 10:44:18.99	194.00	21.22	-40.6	-43.4	14.6	0.00e+00	0	61	0	306184192	52	5081
2026-01-27 10:44:20.00	194.11	21.34	-40.6	-43.5	14.5	0.00e+00	0	61	0	307232768	52	5118
2026-01-27 10:44:21.01	194.23	21.47	-40.6	-43.4	14.6	0.00e+00	0	61	0	309329920	52	5068
2026-01-27 10:44:22.02	194.35	21.60	-40.5	-43.3	14.8	0.00e+00	0	61	0	311427072	52	4984
2026-01-27 10:44:23.03	194.46	21.73	-40.5	-43.3	14.7	0.00e+00	0	61	0	313524224	52	5008
2026-01-27 10:44:24.03	194.58	21.85	-40.5	-43.3	14.7	0.00e+00	0	61	0	315621376	52	5000
2026-01-27 10:44:25.04	194.70	21.98	-40.6	-43.4	14.7	0.00e+00	0	61	0	316669952	52	5044
2026-01-27 10:44:26.05	194.82	22.11	-40.6	-43.5	14.6	0.00e+00	0	61	0	318767104	52	5117
2026-01-27 10:44:27.06	194.94	22.24	-40.5	-43.2	14.8	0.00e+00	0	61	0	320864256	52	4956
2026-01-27 10:44:28.07	195.06	22.37	-40.4	-43.1	14.9	0.00e+00	0	62	0	322961408	52	4914
2026-01-27 10:44:29.08	195.19	22.50	-40.5	-43.3	14.7	0.00e+00	0	62	0	325058560	52	5016
2026-01-27 10:44:30.10	195.31	22.64	-40.5	-43.3	14.7	0.00e+00	0	61	0	326107136	52	5033
2026-01-27 10:44:31.10	195.43	22.77	-40.6	-43.4	14.7	0.00e+00	0	61	0	328204288	52	5051
2026-01-27 10:44:32.11	195.56	22.90	-40.7	-43.6	14.4	0.00e+00	0	62	0	330301440	52	5202
2026-01-27 10:44:33.12	195.69	23.03	-40.6	-43.4	14.6	1.50e-06	0	61	0	332398592	52	5081
2026-01-27 10:44:34.13	195.82	23.17	-40.6	-43.4	14.7	0.00e+00	0	61	0	334495744	52	5066
2026-01-27 10:44:35.14	195.95	23.30	-40.7	-43.5	14.5	7.00e-07	0	61	0	335544320	52	5149
2026-01-27 10:44:36.15	196.08	23.44	-40.8	-43.7	14.3	3.00e-06	0	62	0	337641472	52	5256
2026-01-27 10:44:37.16	196.21	23.57	-40.8	-43.7	14.3	1.50e-06	0	61	0	339738624	52	5269
2026-01-27 10:44:38.17	196.34	23.71	-40.7	-43.6	14.4	7.00e-07	0	62	0	341835776	52	5194
2026-01-27 10:44:39.18	196.47	23.85	-40.9	-43.9	14.1	7.00e-07	0	62	0	343932928	52	5377
2026-01-27 10:44:40.19	196.61	23.98	-40.8	-43.7	14.4	7.00e-07	0	62	0	344981504	52	5253
2026-01-27 10:44:41.20	196.74	24.12	-40.9	-43.9	14.1	7.00e-07	0	62	0	347078656	52	5394
2026-01-27 10:44:42.21	196.88	24.26	-40.9	-43.8	14.3	3.00e-06	0	62	0	349175808	52	5336
2026-01-27 10:44:43.22	197.02	24.40	-40.9	-43.9	14.2	7.00e-07	0	62	0	351272960	52	5359
2026-01-27 10:44:44.23	197.16	24.54	-41.0	-44.0	14.1	1.50e-06	0	62	0	353370112	52	5426
2026-01-27 10:44:45.24	197.30	24.68	-40.9	-43.8	14.3	1.50e-06	0	62	0	354418688	52	5334
2026-01-27 10:44:46.25	197.44	24.82	-41.0	-44.1	14.0	4.50e-06	0	61	0	356515840	52	5470
2026-01-27 10:44:47.26	197.58	24.96	-41.0	-44.0	14.1	4.50e-06	0	62	0	358612992	52	5436
2026-01-27 10:44:48.28	197.73	25.10	-41.2	-44.4	13.7	5.30e-06	0	62	0	360710144	52	5657
2026-01-27 10:44:49.29	197.88	25.24	-40.9	-43.9	14.1	1.50e-06	0	62	0	362807296	52	5379
2026-01-27 10:44:50.30	198.02	25.39	-41.1	-44.2	13.8	3.00e-06	0	62	0	363855872	52	5584
2026-01-27 10:44:51.31	198.17	25.53	-41.2	-44.3	13.8	4.50e-06	0	62	0	365953024	52	5646
2026-01-27 10:44:52.32	198.32	25.68	-41.1	-44.1	14.0	6.80e-06	0	62	0	368050176	53	5212
2026-01-27 10:44:53.33	198.47	25.82	-41.2	-44.3	13.8	3.00e-06	0	62	0	370147328	53	5307
2026-01-27 10:44:54.34	198.62	25.97	-41.2	-44.3	13.8	6.10e-06	0	62	0	372244480	53	5312
2026-01-27 10:44:55.35	198.78	26.11	-41.2	-44.4	13.7	2.20e-06	0	61	0	374341632	53	5344
2026-01-27 10:44:56.36	198.93	26.26	-41.3	-44.4	13.7	6.10e-06	0	62	0	375390208	53	5392
2026-01-27 10:44:57.37	199.09	26.40	-41.4	-44.7	13.4	9.10e-06	0	62	0	377487360	53	5556
2026-01-27 10:44:58.38	199.25	26.55	-41.4	-44.8	13.4	1.90e-05	0	62	0	379584512	53	5601
2026-01-27 10:44:59.39	199.41	26.70	-41.4	-44.7	13.4	9.90e-06	0	62	0	381681664	53	5556
2026-01-27 10:45:00.40	199.57	26.85	-41.5	-44.9	13.2	9.90e-06	0	62	0	383778816	53	5694
2026-01-27 10:45:01.41	199.73	27.00	-41.5	-44.9	13.2	1.14e-05	0	62	0	384827392	53	5688
2026-01-27 10:45:02.42	199.89	27.15	-41.6	-45.0	13.1	2.51e-05	0	62	0	386924544	53	5785
2026-01-27 10:45:03.43	200.06	27.30	-41.4	-44.7	13.5	7.60e-06	0	62	0	389021696	53	5548
2026-01-27 10:45:04.44	200.22	27.45	-41.6	-45.1	13.1	1.98e-05	0	62	0	391118848	53	5806
2026-01-27 10:45:05.45	200.39	27.60	-41.7	-45.1	13.1	2.82e-05	0	62	0	393216000	54	5495
2026-01-27 10:45:06.46	200.56	27.75	-41.6	-45.0	13.1	3.43e-05	0	62	0	394264576	54	5446
2026-01-27 10:45:07.47	200.73	27.91	-41.7	-45.2	12.9	4.95e-05	0	62	0	396361728	54	5557
2026-01-27 10:45:08.48	200.91	28.06	-41.9	-45.5	12.6	9.07e-05	0	62	0	398458880	54	5786
2026-01-27 10:45:09.49	201.08	28.21	-41.9	-45.5	12.7	9.15e-05	0	62	0	400556032	54	5743
2026-01-27 10:45:10.50	201.26	28.37	-42.0	-45.8	12.3	1.12e-04	0	62	0	402653184	54	5955
2026-01-27 10:45:11.51	201.44	28.52	-42.2	-46.2	12.1	1.57e-04	0	62	0	403701760	54	6227
2026-01-27 10:45:12.52	201.62	28.68	-42.2	-46.1	12.0	2.39e-04	0	62	0	405798912	55	5848
2026-01-27 10:45:13.53	201.80	28.84	-42.3	-46.3	11.7	5.90e-04	0	62	0	407896064	55	5935
2026-01-27 10:45:14.54	201.98	28.99	-42.5	-46.8	11.2	9.09e-04	0	62	0	409993216	55	6325
2026-01-27 10:45:15.55	202.17	29.15	-42.6	-47.1	11.0	1.65e-03	0	62	0	412090368	55	6527
2026-01-27 10:45:16.56	202.35	29.31	-42.9	-47.5	10.7	2.32e-03	0	62	0	413138944	56	6466
2026-01-27 10:45:17.57	202.54	29.47	-43.0	-47.7	10.6	3.08e-03	0	62	0	415236096	56	6583
2026-01-27 10:45:18.58	202.73	29.63	-43.1	-47.9	10.3	4.06e-03	0	62	0	417333248	56	6781
2026-01-27 10:45:19.59	202.92	29.79	-43.0	-47.7	10.6	4.38e-03	0	62	0	419430400	56	6586
2026-01-27 10:45:20.60	203.12	29.95	-42.9	-47.6	10.7	3.87e-03	0	62	0	421527552	56	6534
2026-01-27 10:45:21.61	203.31	30.11	-42.9	-47.5	10.7	2.63e-03	0	62	0	422576128	56	6476
2026-01-27 10:45:22.62	203.51	30.27	-42.9	-47.4	10.9	1.56e-03	0	62	0	424673280	56	6396
2026-01-27 10:45:23.63	203.71	30.43	-42.8	-47.2	11.2	1.94e-03	0	62	0	426770432	56	6217
2026-01-27 10:45:24.64	203.91	30.59	-42.7	-46.9	11.3	1.38e-03	0	62	0	428867584	56	6052
2026-01-27 10:45:25.65	204.12	30.75	-42.6	-46.8	11.5	1.31e-03	0	62	0	430964736	56	5961
2026-01-27 10:45:26.65	204.32	30.92	-42.6	-46.8	11.5	8.69e-04	0	62	0	432013312	56	5972
2026-01-27 10:45:27.66	204.53	31.08	-42.6	-46.7	11.7	8.32e-04	0	62	0	434110464	56	5901
2026-01-27 10:45:28.67	204.74	31.25	-42.3	-46.1	12.2	3.01e-04	0	62	0	436207616	56	5489
2026-01-27 10:45:29.68	204.95	31.41	-42.3	-46.1	12.2	1.91e-04	0	62	0	438304768	56	5524
2026-01-27 10:45:30.69	205.16	31.58	-42.3	-46.1	12.3	2.09e-04	0	62	0	440401920	56	5522
2026-01-27 10:45:31.71	205.38	31.74	-42.3	-46.2	12.2	2.68e-04	0	62	0	442499072	56	5540
2026-01-27 10:45:32.72	205.60	31.91	-42.4	-46.5	11.9	3.36e-04	0	62	0	443547648	56	5735
2026-01-27 10:45:33.73	205.82	32.08	-42.6	-46.8	11.6	4.07e-04	0	62	0	445644800	56	5957
2026-01-27 10:45:34.74	206.04	32.24	-42.6	-46.7	11.6	6.70e-04	0	62	0	447741952	56	5911
2026-01-27 10:45:35.75	206.27	32.41	-42.5	-46.6	11.7	5.07e-04	0	62	0	449839104	56	5821
2026-01-27 10:45:36.76	206.50	32.58	-42.4	-46.4	11.9	6.92e-04	0	62	0	451936256	56	5711
2026-01-27 10:45:37.77	206.73	32.75	-42.3	-46.2	12.2	2.87e-04	0	62	0	452984832	56	5562
2026-01-27 10:45:38.78	206.96	32.92	-42.0	-45.5	12.9	9.99e-05	0	62	0	455081984	56	5135
2026-01-27 10:45:39.79	207.19	33.09	-41.8	-45.2	13.0	3.96e-05	0	62	0	457179136	55	5271
2026-01-27 10:45:40.80	207.43	33.26	-41.8	-45.2	13.0	2.36e-05	0	62	0	459276288	55	5261
2026-01-27 10:45:41.81	207.67	33.43	-41.6	-44.9	13.4	2.51e-05	0	62	0	461373440	55	5092
2026-01-27 10:45:42.82	207.91	33.60	-41.8	-45.3	13.0	5.56e-05	0	62	0	462422016	55	5320
2026-01-27 10:45:43.83	208.16	33.77	-42.1	-45.8	12.4	7.93e-05	0	62	0	464519168	55	5625
2026-01-27 10:45:44.84	208.40	33.94	-42.2	-46.1	12.1	2.39e-04	0	62	0	466616320	55	5795
2026-01-27 10:45:45.85	208.65	34.12	-42.3	-46.2	12.0	2.65e-04	0	62	0	468713472	55	5894
2026-01-27 10:45:46.86	208.90	34.29	-42.4	-46.5	11.7	2.08e-04	0	62	0	470810624	55	6105
2026-01-27 10:45:47.87	209.16	34.46	-42.0	-45.6	12.6	1.85e-04	0	62	0	471859200	55	5507
2026-01-27 10:45:48.88	209.42	34.63	-42.0	-45.6	12.6	1.64e-04	0	62	0	473956352	55	5493
2026-01-27 10:45:49.89	209.68	34.81	-42.0	-45.6	12.6	1.16e-04	0	62	0	476053504	55	5525
2026-01-27 10:45:50.90	209.94	34.98	-41.8	-45.3	12.9	5.79e-05	0	62	0	478150656	55	5336
2026-01-27 10:45:51.91	210.20	35.16	-41.7	-45.2	13.0	5.26e-05	0	62	0	480247808	55	5240
2026-01-27 10:45:52.92	210.47	35.33	-41.8	-45.2	13.0	2.13e-05	0	62	0	481296384	55	5267
2026-01-27 10:45:53.93	210.74	35.50	-41.9	-45.4	12.8	2.67e-05	0	62	0	483393536	55	5365
2026-01-27 10:45:54.94	211.02	35.68	-41.9	-45.4	12.8	6.10e-05	0	62	0	485490688	55	5371
2026-01-27 10:45:55.95	211.29	35.85	-42.1	-45.9	12.4	7.85e-05	0	62	0	487587840	55	5681
2026-01-27 10:45:56.96	211.57	36.03	-42.2	-46.0	12.2	1.87e-04	0	62	0	489684992	55	5768
2026-01-27 10:45:57.97	211.86	36.21	-42.2	-45.9	12.3	3.09e-04	0	62	0	490733568	55	5722
2026-01-27 10:45:58.98	212.14	36.38	-42.1	-45.8	12.3	1.62e-04	0	62	0	492830720	55	5640
2026-01-27 10:45:59.99	212.43	36.56	-41.9	-45.4	12.8	1.11e-04	0	62	0	494927872	55	5372
2026-01-27 10:46:01.00	212.72	36.73	-41.9	-45.4	12.8	3.81e-05	0	62	0	497025024	55	5358
2026-01-27 10:46:02.00	213.02	36.91	-41.6	-44.9	13.3	3.20e-05	0	62	0	499122176	55	5100
2026-01-27 10:46:03.01	213.31	37.08	-41.6	-44.9	13.3	2.59e-05	0	62	0	500170752	55	5065
2026-01-27 10:46:04.02	213.62	37.26	-41.7	-45.0	13.2	2.21e-05	0	62	0	502267904	55	5154
2026-01-27 10:46:05.03	213.92	37.44	-41.7	-45.1	13.1	2.13e-05	0	62	0	504365056	55	5218
2026-01-27 10:46:06.04	214.23	37.61	-41.4	-44.6	13.7	1.06e-05	0	62	0	506462208	54	5183
2026-01-27 10:46:07.05	214.54	37.79	-41.4	-44.5	13.8	7.60e-06	0	62	0	508559360	54	5121
2026-01-27 10:46:08.06	214.85	37.97	-41.2	-44.3	14.0	3.80e-06	0	62	0	510656512	54	4985
2026-01-27 10:46:09.07	215.17	38.14	-41.1	-43.9	14.3	3.80e-06	0	62	0	511705088	54	4814
2026-01-27 10:46:10.08	215.49	38.32	-41.1	-44.0	14.3	1.50e-06	0	62	0	513802240	54	4835
2026-01-27 10:46:11.09	215.82	38.49	-41.0	-43.9	14.4	0.00e+00	0	62	0	515899392	53	5054
2026-01-27 10:46:12.10	216.15	38.67	-40.7	-43.4	14.8	7.00e-07	0	62	0	517996544	53	4812
2026-01-27 10:46:13.11	216.48	38.85	-40.7	-43.4	14.9	0.00e+00	0	62	0	520093696	53	4786
2026-01-27 10:46:14.12	216.81	39.02	-40.9	-43.7	14.6	0.00e+00	0	62	0	521142272	53	4967
2026-01-27 10:46:15.13	217.15	39.20	-40.9	-43.8	14.5	0.00e+00	0	62	0	523239424	53	4985
2026-01-27 10:46:16.14	217.50	39.37	-40.9	-43.8	14.5	3.00e-06	0	62	0	525336576	53	5010
2026-01-27 10:46:17.15	217.84	39.55	-41.2	-44.2	14.1	7.00e-07	0	62	0	527433728	53	5259
2026-01-27 10:46:18.16	218.19	39.72	-41.0	-43.8	14.4	0.00e+00	0	62	0	529530880	53	5030
2026-01-27 10:46:19.17	218.55	39.90	-41.4	-44.6	13.7	2.20e-06	0	62	0	530579456	53	5484
2026-01-27 10:46:20.18	218.90	40.07	-41.3	-44.4	13.8	7.00e-07	0	62	0	532676608	53	5375
2026-01-27 10:46:21.19	219.26	40.25	-41.4	-44.5	13.8	2.20e-06	0	62	0	534773760	53	5450
2026-01-27 10:46:22.21	219.63	40.42	-41.2	-44.3	14.0	3.80e-06	0	62	0	536870912	53	5299
2026-01-27 10:46:23.22	220.00	40.60	-41.5	-44.7	13.6	3.00e-06	0	62	0	538968064	53	5563
2026-01-27 10:46:24.23	220.37	40.77	-41.5	-44.7	13.5	9.90e-06	0	62	0	540016640	53	5562
2026-01-27 10:46:25.24	220.75	40.94	-41.7	-45.1	13.1	1.37e-05	0	62	0	542113792	54	5511
2026-01-27 10:46:26.25	221.13	41.11	-41.8	-45.2	13.1	3.43e-05	0	62	0	544210944	54	5564
2026-01-27 10:46:27.26	221.52	41.28	-41.9	-45.6	12.7	5.56e-05	0	62	0	546308096	54	5797
2026-01-27 10:46:28.27	221.90	41.45	-41.5	-44.7	13.6	3.28e-05	0	62	0	548405248	54	5250
2026-01-27 10:46:29.28	222.30	41.62	-41.1	-44.0	14.2	6.10e-06	0	62	0	550502400	54	4850
2026-01-27 10:46:30.29	222.69	41.79	-41.0	-43.9	14.3	0.00e+00	0	62	0	551550976	53	5092
2026-01-27 10:46:31.30	223.10	41.96	-40.9	-43.7	14.5	7.00e-07	0	62	0	553648128	53	4954
2026-01-27 10:46:32.31	223.50	42.13	-41.2	-44.3	14.0	2.20e-06	0	62	0	555745280	53	5292
2026-01-27 10:46:33.32	223.91	42.29	-41.5	-44.8	13.5	4.50e-06	0	62	0	557842432	53	5609
2026-01-27 10:46:34.33	224.32	42.46	-41.4	-44.6	13.7	1.67e-05	0	62	0	559939584	53	5471
2026-01-27 10:46:35.34	224.74	42.62	-40.9	-43.7	14.5	4.50e-06	0	62	0	560988160	53	4972
2026-01-27 10:46:36.35	225.16	42.79	-40.6	-43.3	15.0	0.00e+00	0	62	0	563085312	53	4715
2026-01-27 10:46:37.36	225.59	42.95	-40.4	-42.9	15.4	0.00e+00	0	62	0	565182464	52	4794
2026-01-27 10:46:38.37	226.02	43.11	-40.8	-43.6	14.7	0.00e+00	0	62	0	567279616	52	5180
2026-01-27 10:46:39.38	226.45	43.27	-41.1	-44.0	14.3	2.20e-06	0	62	0	569376768	52	5422
2026-01-27 10:46:40.39	226.89	43.43	-41.2	-44.2	14.0	1.50e-06	0	62	0	570425344	53	5256
2026-01-27 10:46:41.40	227.34	43.59	-41.4	-44.6	13.6	5.30e-06	0	62	0	572522496	53	5516
2026-01-27 10:46:42.41	227.78	43.75	-41.7	-45.1	13.2	9.10e-06	0	62	0	574619648	53	5805
2026-01-27 10:46:43.42	228.24	43.90	-41.6	-44.9	13.3	2.97e-05	0	62	0	576716800	54	5368
2026-01-27 10:46:44.42	228.69	44.05	-41.4	-44.5	13.7	1.75e-05	0	62	0	578813952	54	5142
2026-01-27 10:46:45.44	229.15	44.21	-41.3	-44.3	13.9	3.00e-06	0	62	0	579862528	54	5021
2026-01-27 10:46:46.45	229.62	44.36	-41.0	-43.9	14.4	7.00e-07	0	62	0	581959680	53	5048
2026-01-27 10:46:47.46	230.09	44.51	-41.3	-44.4	13.9	7.00e-07	0	62	0	584056832	53	5366
2026-01-27 10:46:48.47	230.56	44.66	-41.5	-44.6	13.6	4.50e-06	0	62	0	586153984	53	5521
2026-01-27 10:46:49.48	231.04	44.81	-41.5	-44.7	13.6	8.30e-06	0	62	0	588251136	53	5543
2026-01-27 10:46:50.49	231.52	44.95	-41.5	-44.8	13.5	1.06e-05	0	62	0	589299712	53	5604
2026-01-27 10:46:51.50	232.01	45.10	-41.6	-44.9	13.3	1.52e-05	0	62	0	591396864	53	5719
2026-01-27 10:46:52.51	232.50	45.24	-41.7	-45.0	13.2	4.19e-05	0	62	0	593494016	54	5435
2026-01-27 10:46:53.52	232.99	45.38	-41.8	-45.2	13.0	2.97e-05	0	62	0	595591168	54	5591
2026-01-27 10:46:54.53	233.49	45.52	-41.8	-45.2	13.1	9.90e-06	0	62	0	597688320	54	5535
2026-01-27 10:46:55.54	234.00	45.65	-42.1	-46.0	12.4	7.85e-05	0	62	0	598736896	54	6067
2026-01-27 10:46:56.55	234.51	45.79	-42.5	-46.5	11.6	3.75e-04	0	62	0	600834048	55	6123
2026-01-27 10:46:57.56	235.02	45.92	-42.4	-46.5	11.7	6.52e-04	0	62	0	602931200	55	6087
2026-01-27 10:46:58.57	235.54	46.05	-42.1	-45.9	12.4	3.33e-04	0	62	0	605028352	55	5658
2026-01-27 10:46:59.58	236.06	46.18	-42.0	-45.6	12.7	7.17e-05	0	62	0	607125504	55	5471
2026-01-27 10:47:00.59	236.58	46.30	-42.5	-46.7	11.7	1.51e-04	0	62	0	608174080	55	6204
2026-01-27 10:47:01.60	237.11	46.43	-42.9	-47.3	11.0	8.99e-04	0	62	0	610271232	56	6283
2026-01-27 10:47:02.61	237.65	46.55	-43.3	-48.2	10.1	5.85e-03	0	62	0	612368384	57	6632
2026-01-27 10:47:03.62	238.18	46.67	-43.4	-48.5	9.8	6.43e-03	0	62	0	614465536	57	6859
2026-01-27 10:47:04.63	238.73	46.78	-43.3	-48.3	10.1	7.07e-03	0	62	0	616562688	57	6713
2026-01-27 10:47:05.64	239.27	46.90	-43.4	-48.7	9.7	1.18e-02	0	62	0	618659840	57	6980
2026-01-27 10:47:06.65	239.82	47.01	-43.3	-48.3	10.0	7.21e-03	0	62	0	619708416	57	6658
2026-01-27 10:47:07.66	240.37	47.12	-43.1	-47.7	10.6	5.85e-03	0	62	0	621805568	57	6256
2026-01-27 10:47:08.67	240.93	47.22	-42.7	-46.8	11.5	1.18e-03	0	62	0	623902720	57	5614
2026-01-27 10:47:09.68	241.49	47.33	-42.6	-46.5	11.9	5.68e-04	0	62	0	625999872	57	5444
2026-01-27 10:47:10.69	242.06	47.43	-42.8	-47.1	11.2	6.72e-04	0	62	0	628097024	57	5823
2026-01-27 10:47:11.70	242.62	47.53	-43.2	-48.0	10.3	2.22e-03	0	62	0	629145600	57	6475
2026-01-27 10:47:12.71	243.20	47.62	-43.6	-49.2	9.0	1.39e-02	0	62	0	631242752	57	7390
2026-01-27 10:47:13.72	243.77	47.72	-43.6	-49.0	9.2	2.33e-02	0	62	0	633339904	57	7227
2026-01-27 10:47:14.73	244.35	47.81	-43.7	-49.5	8.9	1.92e-02	0	62	0	635437056	57	7656
2026-01-27 10:47:15.74	244.93	47.89	-43.7	-49.4	8.9	2.26e-02	0	62	0	637534208	57	7576
2026-01-27 10:47:16.75	245.51	47.98	-43.8	-49.8	8.6	2.28e-02	0	62	0	638582784	58	7471
2026-01-27 10:47:17.76	246.10	48.06	-43.3	-48.3	9.9	2.15e-02	0	62	0	640679936	58	6312
2026-01-27 10:47:18.77	246.69	48.14	-42.9	-47.3	11.0	2.75e-03	0	62	0	642777088	57	5947
2026-01-27 10:47:19.78	247.29	48.21	-42.7	-46.9	11.5	7.98e-04	0	62	0	644874240	57	5678
2026-01-27 10:47:20.79	247.88	48.28	-42.7	-46.8	11.5	9.71e-04	0	62	0	646971392	57	5655
2026-01-27 10:47:21.80	248.48	48.35	-43.1	-47.7	10.7	1.98e-03	0	62	0	648019968	57	6206
2026-01-27 10:47:22.81	249.08	48.42	-43.0	-47.6	10.7	3.01e-03	0	62	0	650117120	57	6182
2026-01-27 10:47:23.83	249.69	48.48	-42.8	-47.2	11.2	1.66e-03	0	62	0	652214272	57	5884
2026-01-27 10:47:24.84	250.30	48.54	-42.5	-46.5	11.7	4.08e-04	0	62	0	654311424	56	5748
2026-01-27 10:47:25.85	250.91	48.59	-42.5	-46.4	12.0	2.93e-04	0	62	0	656408576	56	5669
2026-01-27 10:47:26.86	251.52	48.64	-42.9	-47.4	10.8	6.68e-04	0	62	0	657457152	56	6350
2026-01-27 10:47:27.87	252.13	48.69	-42.8	-47.1	11.2	1.86e-03	0	62	0	659554304	56	6191
2026-01-27 10:47:28.88	252.75	48.74	-42.4	-46.2	12.2	6.49e-04	0	62	0	661651456	56	5583
2026-01-27 10:47:29.89	253.36	48.78	-42.1	-45.8	12.7	1.65e-04	0	62	0	663748608	56	5288
2026-01-27 10:47:30.90	253.98	48.82	-42.3	-46.1	12.2	2.67e-04	0	62	0	665845760	56	5491
2026-01-27 10:47:31.91	254.60	48.85	-42.5	-46.6	11.8	4.69e-04	0	62	0	666894336	56	5809
2026-01-27 10:47:32.92	255.22	48.88	-42.4	-46.2	12.1	3.87e-04	0	62	0	668991488	56	5548
2026-01-27 10:47:33.93	255.84	48.91	-42.2	-45.8	12.6	1.50e-04	0	62	0	671088640	56	5306
2026-01-27 10:47:34.94	256.47	48.94	-41.9	-45.3	12.9	6.33e-05	0	62	0	673185792	55	5326
2026-01-27 10:47:35.95	257.09	48.96	-41.9	-45.3	12.9	5.18e-05	0	62	0	675282944	55	5321
2026-01-27 10:47:36.96	257.71	48.97	-41.9	-45.4	12.9	7.24e-05	0	62	0	676331520	55	5346
2026-01-27 10:47:37.97	258.34	48.99	-41.6	-44.9	13.3	3.05e-05	0	62	0	678428672	55	5069
2026-01-27 10:47:38.98	258.96	49.00	-41.6	-45.0	13.3	1.98e-05	0	62	0	680525824	55	5106
2026-01-27 10:47:39.99	259.59	49.00	-41.9	-45.4	12.9	3.43e-05	0	62	0	682622976	55	5351
2026-01-27 10:47:41.00	260.22	49.01	-42.4	-46.5	11.7	3.42e-04	0	62	0	684720128	55	6065
2026-01-27 10:47:42.01	260.84	49.01	-42.5	-46.6	11.6	8.51e-04	0	62	0	686817280	55	6171
2026-01-27 10:47:43.02	261.47	49.00	-42.4	-46.5	11.7	5.61e-04	0	62	0	687865856	55	6069
2026-01-27 10:47:44.03	262.09	48.99	-42.4	-46.5	11.7	5.55e-04	0	62	0	689963008	55	6073
2026-01-27 10:47:45.04	262.72	48.98	-42.6	-46.9	11.2	1.00e-03	0	62	0	692060160	55	6406
2026-01-27 10:47:46.05	263.34	48.97	-42.4	-46.3	11.9	1.04e-03	0	62	0	694157312	55	5956
2026-01-27 10:47:47.06	263.97	48.95	-41.6	-44.9	13.3	6.63e-05	0	62	0	696254464	55	5079
2026-01-27 10:47:48.07	264.59	48.92	-41.4	-44.5	13.8	5.30e-06	0	62	0	697303040	54	5105
2026-01-27 10:47:49.08	265.21	48.90	-41.5	-44.6	13.7	4.50e-06	0	62	0	699400192	54	5198
2026-01-27 10:47:50.09	265.83	48.87	-41.9	-45.3	13.0	1.14e-05	0	62	0	701497344	54	5635
2026-01-27 10:47:51.10	266.45	48.84	-42.4	-46.4	11.9	1.50e-04	0	62	0	703594496	55	6002
2026-01-27 10:47:52.11	267.07	48.80	-42.7	-47.0	11.2	9.11e-04	0	62	0	705691648	55	6494
2026-01-27 10:47:53.12	267.69	48.76	-43.4	-48.8	9.6	4.98e-03	0	62	0	706740224	57	7071
2026-01-27 10:47:54.13	268.30	48.72	-43.3	-48.4	9.9	9.92e-03	0	62	0	708837376	57	6733
2026-01-27 10:47:55.14	268.91	48.67	-42.9	-47.2	11.1	2.94e-03	0	62	0	710934528	57	5896
2026-01-27 10:47:56.15	269.53	48.62	-43.1	-47.9	10.5	1.60e-03	0	62	0	713031680	57	6353
2026-01-27 10:47:57.15	270.13	48.57	-43.4	-48.6	9.7	1.04e-02	0	62	0	715128832	57	6929
2026-01-27 10:47:58.16	270.74	48.51	-43.9	-49.9	8.3	3.63e-02	0	62	0	716177408	58	7623
2026-01-27 10:47:59.17	271.34	48.45	-43.8	-49.8	8.5	4.05e-02	0	62	0	718274560	58	7510
2026-01-27 10:48:00.18	271.94	48.39	-43.2	-48.1	10.3	9.60e-03	0	62	0	720371712	58	6136
2026-01-27 10:48:01.19	272.54	48.32	-42.8	-47.1	11.2	1.49e-03	0	62	0	722468864	57	5814
2026-01-27 10:48:02.20	273.14	48.25	-42.9	-47.4	11.1	1.41e-03	0	62	0	724566016	57	6011
2026-01-27 10:48:03.21	273.73	48.18	-42.7	-46.9	11.3	2.04e-03	0	62	0	725614592	57	5719
2026-01-27 10:48:04.22	274.32	48.10	-42.3	-45.9	12.4	3.14e-04	0	62	0	727711744	56	5391
2026-01-27 10:48:05.23	274.91	48.02	-42.2	-45.8	12.6	8.23e-05	0	62	0	729808896	56	5316
2026-01-27 10:48:06.24	275.50	47.94	-42.7	-46.8	11.6	2.39e-04	0	62	0	731906048	56	5951
2026-01-27 10:48:07.25	276.08	47.85	-43.2	-47.9	10.3	2.76e-03	0	62	0	734003200	56	6792
2026-01-27 10:48:08.26	276.66	47.76	-43.3	-48.3	10.0	7.89e-03	0	62	0	735051776	57	6674
2026-01-27 10:48:09.27	277.24	47.67	-43.3	-48.1	10.1	7.95e-03	0	62	0	737148928	57	6518
2026-01-27 10:48:10.28	277.81	47.58	-43.1	-47.8	10.6	2.99e-03	0	62	0	739246080	57	6319
2026-01-27 10:48:11.29	278.38	47.48	-42.5	-46.4	12.0	6.62e-04	0	62	0	741343232	56	5687
2026-01-27 10:48:12.30	278.94	47.38	-42.2	-45.8	12.6	1.26e-04	0	62	0	743440384	56	5325
2026-01-27 10:48:13.31	279.50	47.28	-42.6	-46.6	11.8	1.17e-04	0	62	0	744488960	56	5834
2026-01-27 10:48:14.32	280.06	47.18	-43.6	-49.2	9.1	6.48e-03	0	62	0	746586112	57	7397
2026-01-27 10:48:15.33	280.62	47.07	-43.7	-49.4	8.9	2.05e-02	0	62	0	748683264	57	7560
2026-01-27 10:48:16.34	281.17	46.96	-43.2	-47.9	10.4	3.12e-02	0	62	0	750780416	58	6028
2026-01-27 10:48:17.35	281.71	46.85	-42.7	-46.9	11.5	1.02e-03	0	62	0	752877568	57	5662
2026-01-27 10:48:18.35	282.25	46.73	-42.6	-46.6	11.8	5.87e-04	0	62	0	754974720	57	5482
2026-01-27 10:48:19.36	282.79	46.61	-42.9	-47.3	11.0	1.21e-03	0	62	0	756023296	57	5975
2026-01-27 10:48:20.37	283.32	46.50	-42.8	-47.0	11.2	2.31e-03	0	62	0	758120448	57	5776
2026-01-27 10:48:21.38	283.85	46.37	-42.0	-45.5	12.9	3.58e-04	0	62	0	760217600	56	5101
2026-01-27 10:48:22.39	284.38	46.25	-41.7	-45.0	13.2	2.36e-05	0	62	0	762314752	55	5154
2026-01-27 10:48:23.40	284.90	46.12	-42.2	-45.9	12.3	1.34e-04	0	62	0	764411904	55	5685
2026-01-27 10:48:24.41	285.42	45.99	-43.4	-48.6	9.8	5.55e-03	0	62	0	765460480	57	6883
2026-01-27 10:48:25.42	285.93	45.86	-43.9	-50.2	8.0	4.64e-02	0	62	0	767557632	58	7874
2026-01-27 10:48:26.43	286.44	45.73	-43.2	-48.1	10.2	1.64e-02	0	62	0	769654784	58	6149
2026-01-27 10:48:27.44	286.95	45.60	-42.1	-45.6	12.8	3.71e-04	0	62	0	771751936	56	5168
2026-01-27 10:48:28.45	287.45	45.46	-42.1	-45.7	12.6	4.57e-05	0	62	0	773849088	56	5278
2026-01-27 10:48:29.46	287.95	45.32	-42.5	-46.4	12.0	1.16e-04	0	62	0	774897664	56	5720
2026-01-27 10:48:30.47	288.44	45.18	-42.6	-46.6	11.8	7.35e-04	0	62	0	776994816	56	5845
2026-01-27 10:48:31.48	288.93	45.04	-42.1	-45.7	12.6	3.74e-04	0	62	0	779091968	56	5262
2026-01-27 10:48:32.49	289.41	44.89	-41.2	-44.2	14.0	2.89e-05	0	62	0	781189120	54	4972
2026-01-27 10:48:33.50	289.89	44.75	-41.2	-44.2	14.1	0.00e+00	0	62	0	783286272	54	4937
2026-01-27 10:48:34.51	290.36	44.60	-41.3	-44.3	14.0	0.00e+00	0	62	0	784334848	54	5035
2026-01-27 10:48:35.52	290.83	44.45	-41.8	-45.2	13.0	1.75e-05	0	62	0	786432000	54	5574
2026-01-27 10:48:36.53	291.30	44.30	-41.5	-44.7	13.5	1.67e-05	0	62	0	788529152	54	5231
2026-01-27 10:48:37.54	291.76	44.15	-40.6	-43.2	14.9	1.50e-06	0	62	0	790626304	53	4703
2026-01-27 10:48:38.55	292.22	44.00	-40.2	-42.6	15.7	0.00e+00	0	62	0	792723456	52	4617
2026-01-27 10:48:39.56	292.67	43.84	-40.6	-43.2	15.1	0.00e+00	0	62	0	793772032	52	4945
2026-01-27 10:48:40.57	293.12	43.69	-41.2	-44.2	14.0	1.50e-06	0	62	0	795869184	53	5272
2026-01-27 10:48:41.58	293.57	43.53	-41.0	-43.9	14.3	2.20e-06	0	62	0	797966336	53	5070
2026-01-27 10:48:42.59	294.01	43.37	-40.3	-42.7	15.5	0.00e+00	0	62	0	800063488	52	4692
2026-01-27 10:48:43.60	294.44	43.21	-40.2	-42.5	15.8	0.00e+00	0	62	0	802160640	51	4862
2026-01-27 10:48:44.61	294.87	43.05	-40.5	-43.0	15.3	0.00e+00	0	62	0	803209216	51	5149
2026-01-27 10:48:45.62	295.30	42.89	-41.2	-44.2	14.0	0.00e+00	0	62	0	805306368	52	5550
2026-01-27 10:48:46.63	295.72	42.73	-41.4	-44.5	13.7	6.10e-06	0	62	0	807403520	53	5464
2026-01-27 10:48:47.63	296.14	42.57	-41.0	-43.8	14.4	3.00e-06	0	62	0	809500672	53	5026
2026-01-27 10:48:48.64	296.55	42.40	-40.3	-42.8	15.4	0.00e+00	0	62	0	811597824	52	4728
2026-01-27 10:48:49.65	296.96	42.24	-40.0	-42.4	15.9	0.00e+00	0	62	0	812646400	52	4504
2026-01-27 10:48:50.66	297.37	42.07	-40.3	-42.8	15.5	0.00e+00	0	62	0	814743552	52	4715
2026-01-27 10:48:51.68	297.78	41.91	-40.9	-43.7	14.5	0.00e+00	0	62	0	816840704	52	5246
2026-01-27 10:48:52.68	298.17	41.74	-40.9	-43.7	14.6	1.50e-06	0	62	0	818937856	52	5240
2026-01-27 10:48:53.69	298.56	41.57	-40.5	-43.1	15.2	0.00e+00	0	62	0	821035008	52	4893
2026-01-27 10:48:54.70	298.95	41.40	-40.0	-42.4	15.8	0.00e+00	0	62	0	823132160	52	4524
2026-01-27 10:48:55.71	299.34	41.23	-40.7	-43.4	14.9	0.00e+00	0	62	0	824180736	52	5066
2026-01-27 10:48:56.72	299.72	41.06	-41.3	-44.4	13.9	2.20e-06	0	62	0	826277888	53	5395
2026-01-27 10:48:57.73	300.10	40.89	-41.7	-45.0	13.1	4.34e-05	0	62	0	828375040	54	5463
2026-01-27 10:48:58.74	300.47	40.72	-40.9	-43.7	14.4	3.00e-06	0	62	0	830472192	53	4954
2026-01-27 10:48:59.76	300.85	40.55	-40.4	-42.9	15.3	0.00e+00	0	62	0	832569344	52	4786
2026-01-27 10:49:00.76	301.21	40.38	-40.9	-43.7	14.5	0.00e+00	0	62	0	833617920	52	5244
2026-01-27 10:49:01.77	301.57	40.20	-42.0	-45.6	12.6	8.30e-06	0	62	0	835715072	54	5839
2026-01-27 10:49:02.78	301.93	40.03	-43.1	-47.8	10.3	3.01e-03	0	62	0	837812224	56	6713
2026-01-27 10:49:03.79	302.28	39.86	-43.5	-48.9	9.4	1.52e-02	0	62	0	839909376	57	7142
2026-01-27 10:49:04.80	302.64	39.68	-43.1	-47.9	10.3	1.48e-02	0	62	0	842006528	57	6383
2026-01-27 10:49:05.81	302.98	39.51	-42.5	-46.4	12.0	5.83e-04	0	62	0	843055104	56	5665
2026-01-27 10:49:06.82	303.33	39.33	-42.4	-46.2	12.1	2.09e-04	0	62	0	845152256	56	5568
2026-01-27 10:49:07.82	303.66	39.16	-43.0	-47.5	10.8	5.65e-04	0	62	0	847249408	56	6434
2026-01-27 10:49:08.83	304.00	38.99	-43.6	-49.2	8.9	1.61e-02	0	62	0	849346560	57	7391
2026-01-27 10:49:09.84	304.33	38.81	-43.7	-49.6	8.6	3.37e-02	0	62	0	851443712	58	7312
2026-01-27 10:49:10.85	304.66	38.64	-44.2	-51.3	6.9	9.65e-02	0	63	0	852492288	58	8893
2026-01-27 10:49:11.86	304.99	38.46	-43.6	-49.1	9.0	1.17e-01	0	62	0	854589440	58	6909
2026-01-27 10:49:12.87	305.31	38.29	-42.6	-46.7	11.6	1.40e-03	0	62	0	856686592	57	5568
2026-01-27 10:49:13.88	305.63	38.11	-42.7	-46.9	11.5	4.05e-04	0	62	0	858783744	56	5995
2026-01-27 10:49:14.88	305.94	37.94	-43.3	-48.2	10.1	1.44e-03	0	62	0	860880896	57	6620
2026-01-27 10:49:15.89	306.25	37.76	-43.8	-49.9	8.4	2.81e-02	0	62	0	861929472	58	7565
2026-01-27 10:49:16.90	306.56	37.59	-44.3	-51.9	6.5	1.47e-01	0	62	0	864026624	59	9010
2026-01-27 10:49:17.91	306.87	37.41	-44.5	-52.8	5.7	3.91e-01	0	62	0	866123776	59	9986
2026-01-27 10:49:18.92	307.17	37.24	-43.7	-49.4	8.6	1.03e-01	0	62	0	868220928	59	6776
2026-01-27 10:49:19.93	307.47	37.06	-43.0	-47.5	10.7	9.32e-03	0	62	0	870318080	58	5758
2026-01-27 10:49:20.94	307.77	36.89	-42.5	-46.5	11.8	1.06e-03	0	62	0	871366656	57	5430
2026-01-27 10:49:21.95	308.06	36.71	-42.6	-46.6	11.7	4.62e-04	0	62	0	873463808	57	5496
2026-01-27 10:49:22.96	308.35	36.54	-42.9	-47.3	11.0	1.57e-03	0	62	0	875560960	57	5960
2026-01-27 10:49:23.97	308.64	36.36	-43.9	-50.0	8.2	1.14e-02	0	62	0	877658112	58	7671
2026-01-27 10:49:24.98	308.92	36.19	-44.4	-52.1	6.2	2.16e-01	0	62	0	879755264	59	9255
2026-01-27 10:49:25.99	309.20	36.01	-44.3	-51.8	6.5	2.48e-01	0	62	0	880803840	59	8904
2026-01-27 10:49:27.00	309.48	35.84	-43.9	-50.2	8.0	1.49e-01	0	62	0	882900992	59	7374
2026-01-27 10:49:28.01	309.76	35.66	-43.3	-48.2	10.0	3.60e-02	0	62	0	884998144	58	6238
2026-01-27 10:49:29.02	310.03	35.49	-42.7	-47.0	11.3	1.90e-03	0	62	0	887095296	57	5732
2026-01-27 10:49:30.03	310.30	35.32	-42.5	-46.5	11.9	8.54e-04	0	62	0	889192448	57	5432
2026-01-27 10:49:31.04	310.56	35.14	-42.7	-47.0	11.3	5.01e-04	0	62	0	891289600	56	6082
2026-01-27 10:49:32.06	310.83	34.97	-43.2	-48.0	10.2	2.96e-03	0	62	0	892338176	56	6845
2026-01-27 10:49:33.07	311.09	34.80	-43.3	-48.6	9.7	1.02e-02	0	62	0	894435328	57	6882
2026-01-27 10:49:34.07	311.35	34.63	-43.2	-48.2	10.0	1.53e-02	0	62	0	896532480	57	6632
2026-01-27 10:49:35.08	311.60	34.45	-42.6	-46.8	11.5	1.93e-03	0	63	0	898629632	57	5602
2026-01-27 10:49:36.09	311.86	34.28	-42.1	-45.7	12.6	3.17e-04	0	62	0	900726784	56	5241
2026-01-27 10:49:37.10	312.11	34.11	-41.3	-44.4	13.7	1.90e-05	0	62	0	901775360	54	5078
2026-01-27 10:49:38.11	312.35	33.94	-41.2	-44.2	14.0	3.00e-06	0	62	0	903872512	54	4966
2026-01-27 10:49:39.12	312.60	33.77	-41.5	-44.7	13.5	7.60e-06	0	62	0	905969664	54	5271
2026-01-27 10:49:40.14	312.85	33.60	-41.9	-45.5	12.6	3.28e-05	0	62	0	908066816	54	5748
2026-01-27 10:49:41.14	313.08	33.43	-42.4	-46.5	11.7	3.38e-04	0	62	0	910163968	55	6064
2026-01-27 10:49:42.16	313.32	33.26	-42.5	-46.7	11.4	8.73e-04	0	62	0	911212544	55	6239
2026-01-27 10:49:43.16	313.56	33.09	-42.1	-45.8	12.3	4.20e-04	0	63	0	913309696	55	5632
2026-01-27 10:49:44.18	313.79	32.92	-41.5	-44.8	13.4	4.50e-05	0	62	0	915406848	55	4986
2026-01-27 10:49:45.18	314.02	32.76	-41.0	-43.9	14.3	3.00e-06	0	62	0	917504000	53	5063
2026-01-27 10:49:46.19	314.25	32.59	-41.2	-44.3	13.9	7.00e-07	0	62	0	919601152	53	5296
2026-01-27 10:49:47.20	314.48	32.42	-41.6	-44.9	13.2	1.06e-05	0	62	0	920649728	53	5686
2026-01-27 10:49:48.21	314.70	32.25	-41.8	-45.3	12.8	3.35e-05	0	62	0	922746880	54	5600
2026-01-27 10:49:49.22	314.92	32.09	-42.3	-46.3	11.9	1.23e-04	0	63	0	924844032	55	5925
2026-01-27 10:49:50.23	315.14	31.92	-42.4	-46.6	11.5	5.35e-04	0	63	0	926941184	55	6160
2026-01-27 10:49:51.24	315.36	31.76	-42.6	-46.9	11.1	1.77e-03	0	62	0	929038336	55	6394
2026-01-27 10:49:52.25	315.57	31.59	-42.6	-46.9	11.3	1.69e-03	0	62	0	930086912	56	6000
2026-01-27 10:49:53.26	315.79	31.43	-42.4	-46.4	11.9	7.06e-04	0	62	0	932184064	56	5658
2026-01-27 10:49:54.27	316.00	31.26	-42.2	-45.9	12.3	1.80e-04	0	62	0	934281216	56	5393
2026-01-27 10:49:55.27	316.20	31.10	-42.2	-46.1	12.2	1.98e-04	0	62	0	936378368	56	5465
2026-01-27 10:49:56.28	316.41	30.94	-42.4	-46.4	12.0	2.83e-04	0	62	0	938475520	56	5664
2026-01-27 10:49:57.29	316.61	30.78	-42.6	-46.8	11.6	6.82e-04	0	62	0	939524096	56	5933
2026-01-27 10:49:58.30	316.82	30.62	-42.3	-46.1	12.1	7.29e-04	0	62	0	941621248	56	5498
2026-01-27 10:49:59.31	317.02	30.46	-42.3	-46.1	12.1	2.59e-04	0	62	0	943718400	56	5520
2026-01-27 10:50:00.32	317.22	30.29	-41.8	-45.3	12.8	1.75e-04	0	62	0	945815552	55	5314
2026-01-27 10:50:01.34	317.42	30.13	-41.8	-45.4	12.7	5.56e-05	0	62	0	947912704	55	5372
2026-01-27 10:50:02.35	317.61	29.97	-41.6	-45.0	13.1	7.32e-05	0	62	0	948961280	55	5110
2026-01-27 10:50:03.35	317.80	29.82	-41.2	-44.3	13.8	1.52e-05	0	62	0	951058432	54	5001
2026-01-27 10:50:04.36	317.99	29.66	-41.3	-44.4	13.7	4.50e-06	0	63	0	953155584	54	5097
2026-01-27 10:50:05.37	318.18	29.50	-41.2	-44.3	13.9	5.30e-06	0	62	0	955252736	54	4996
2026-01-27 10:50:06.38	318.37	29.34	-41.3	-44.5	13.6	3.80e-06	0	62	0	957349888	54	5122
2026-01-27 10:50:07.39	318.56	29.19	-41.8	-45.3	12.8	3.50e-05	0	62	0	958398464	54	5628
2026-01-27 10:50:08.40	318.74	29.03	-42.1	-45.9	12.2	1.41e-04	0	62	0	960495616	54	6002
2026-01-27 10:50:09.41	318.92	28.87	-42.5	-46.8	11.3	5.48e-04	0	62	0	962592768	55	6286
2026-01-27 10:50:10.42	319.10	28.72	-42.5	-46.9	11.1	1.46e-03	0	62	0	964689920	55	6356
2026-01-27 10:50:11.43	319.28	28.56	-43.0	-47.8	10.3	2.78e-03	0	62	0	966787072	56	6698
2026-01-27 10:50:12.44	319.46	28.41	-42.9	-47.6	10.6	2.64e-03	0	62	0	968884224	56	6518
2026-01-27 10:50:13.45	319.63	28.26	-42.7	-47.1	11.1	1.56e-03	0	62	0	969932800	56	6137
2026-01-27 10:50:14.46	319.81	28.10	-42.4	-46.4	11.8	8.70e-04	0	62	0	972029952	56	5688
2026-01-27 10:50:15.47	319.98	27.95	-42.2	-45.9	12.3	2.35e-04	0	62	0	974127104	56	5399
2026-01-27 10:50:16.48	320.15	27.80	-42.0	-45.7	12.3	1.25e-04	0	62	0	976224256	55	5582
2026-01-27 10:50:17.49	320.32	27.65	-41.9	-45.5	12.6	9.61e-05	0	62	0	978321408	55	5451
2026-01-27 10:50:18.50	320.49	27.50	-41.9	-45.5	12.5	9.07e-05	0	62	0	979369984	55	5439
2026-01-27 10:50:19.51	320.65	27.35	-42.1	-45.9	12.1	1.96e-04	0	62	0	981467136	55	5693
2026-01-27 10:50:20.52	320.82	27.20	-42.0	-45.8	12.3	1.98e-04	0	62	0	983564288	55	5614
2026-01-27 10:50:21.52	320.98	27.05	-42.0	-45.8	12.2	2.13e-04	0	62	0	985661440	55	5651
2026-01-27 10:50:22.53	321.14	26.90	-41.8	-45.4	12.6	1.43e-04	0	62	0	987758592	55	5380
2026-01-27 10:50:23.54	321.30	26.76	-41.7	-45.2	12.8	3.20e-05	0	62	0	988807168	55	5264
2026-01-27 10:50:24.55	321.46	26.61	-41.3	-44.4	13.6	1.52e-05	0	62	0	990904320	54	5079
2026-01-27 10:50:25.56	321.62	26.46	-41.1	-44.2	13.9	3.80e-06	0	62	0	993001472	54	4929
2026-01-27 10:50:26.57	321.77	26.32	-40.9	-43.8	14.2	2.20e-06	0	62	0	995098624	53	5037
2026-01-27 10:50:27.58	321.93	26.17	-40.9	-43.8	14.3	1.50e-06	0	62	0	997195776	53	4984
2026-01-27 10:50:28.59	322.08	26.03	-40.9	-43.9	14.1	1.50e-06	0	62	0	998244352	53	5074
2026-01-27 10:50:29.60	322.23	25.88	-41.2	-44.3	13.8	3.00e-06	0	62	0	1000341504	53	5291
2026-01-27 10:50:30.61	322.38	25.74	-41.3	-44.5	13.6	5.30e-06	0	62	0	1002438656	53	5416
2026-01-27 10:50:31.62	322.53	25.60	-41.4	-44.8	13.3	1.75e-05	0	62	0	1004535808	53	5603
2026-01-27 10:50:32.63	322.68	25.45	-41.7	-45.2	12.8	3.43e-05	0	62	0	1006632960	53	5876
2026-01-27 10:50:33.64	322.83	25.31	-42.1	-45.9	12.1	2.20e-04	0	62	0	1007681536	54	6055
2026-01-27 10:50:34.65	322.97	25.17	-42.1	-45.9	12.0	4.11e-04	0	62	0	1009778688	54	6045
2026-01-27 10:50:35.66	323.12	25.03	-42.2	-46.2	11.7	2.82e-04	0	62	0	1011875840	54	6274
2026-01-27 10:50:36.67	323.26	24.89	-42.2	-46.2	11.7	9.42e-04	0	62	0	1013972992	55	5922
2026-01-27 10:50:37.68	323.40	24.75	-42.2	-46.2	11.8	5.61e-04	0	62	0	1016070144	55	5871
2026-01-27 10:50:38.69	323.54	24.61	-42.4	-46.6	11.3	7.93e-04	0	62	0	1017118720	55	6161
2026-01-27 10:50:39.69	323.68	24.47	-42.4	-46.6	11.3	1.30e-03	0	62	0	1019215872	55	6184
2026-01-27 10:50:40.70	323.82	24.34	-42.4	-46.6	11.3	7.35e-04	0	62	0	1021313024	55	6183
2026-01-27 10:50:41.71	323.95	24.20	-42.6	-47.1	10.7	2.15e-03	0	62	0	1023410176	55	6562
2026-01-27 10:50:42.72	324.09	24.06	-42.8	-47.5	10.5	4.09e-03	0	63	0	1025507328	56	6448
2026-01-27 10:50:43.74	324.23	23.93	-43.0	-48.1	10.0	5.93e-03	0	63	0	1026555904	56	6897
2026-01-27 10:50:44.74	324.36	23.79	-43.1	-48.3	9.7	1.04e-02	0	63	0	1028653056	56	7098
2026-01-27 10:50:45.75	324.49	23.66	-42.9	-47.7	10.3	8.27e-03	0	62	0	1030750208	56	6635
2026-01-27 10:50:46.76	324.62	23.52	-42.9	-47.8	10.2	6.45e-03	0	62	0	1032847360	56	6711
2026-01-27 10:50:47.77	324.75	23.39	-42.7	-47.3	10.7	4.27e-03	0	62	0	1034944512	56	6326
2026-01-27 10:50:48.78	324.88	23.25	-42.6	-47.1	11.0	2.13e-03	0	63	0	1037041664	56	6190
2026-01-27 10:50:49.79	325.01	23.12	-42.7	-47.3	10.7	1.91e-03	0	62	0	1038090240	56	6326
2026-01-27 10:50:50.80	325.14	22.99	-42.6	-46.9	11.1	1.75e-03	0	62	0	1040187392	56	6035
2026-01-27 10:50:51.81	325.26	22.86	-42.6	-47.0	11.0	1.60e-03	0	62	0	1042284544	56	6103
2026-01-27 10:50:52.82	325.39	22.73	-42.6	-47.1	11.0	2.74e-03	0	62	0	1044381696	56	6171
2026-01-27 10:50:53.83	325.51	22.60	-42.8	-47.6	10.4	3.87e-03	0	63	0	1046478848	56	6535
2026-01-27 10:50:54.84	325.63	22.47	-43.0	-48.0	10.0	5.95e-03	0	62	0	1047527424	56	6856
2026-01-27 10:50:55.85	325.76	22.34	-43.2	-48.5	9.5	9.86e-03	0	63	0	1049624576	56	7222
2026-01-27 10:50:56.86	325.88	22.21	-43.1	-48.3	9.7	1.24e-02	0	63	0	1051721728	56	7082
2026-01-27 10:50:57.87	326.00	22.08	-43.0	-48.1	9.9	8.47e-03	0	62	0	1053818880	56	6881
2026-01-27 10:50:58.89	326.12	21.95	-43.0	-47.9	10.0	8.42e-03	0	63	0	1055916032	56	6800
2026-01-27 10:50:59.90	326.24	21.82	-42.7	-47.3	10.7	4.36e-03	0	62	0	1056964608	56	6296
2026-01-27 10:51:00.91	326.35	21.69	-42.4	-46.7	11.3	1.82e-03	0	63	0	1059061760	56	5893
2026-01-27 10:51:01.91	326.47	21.57	-42.3	-46.4	11.6	9.34e-04	0	62	0	1061158912	56	5722
2026-01-27 10:51:02.92	326.58	21.44	-41.6	-45.2	12.7	1.59e-04	0	62	0	1063256064	55	5222
2026-01-27 10:51:03.93	326.70	21.32	-41.4	-44.8	13.1	5.72e-05	0	62	0	1065353216	54	5290
2026-01-27 10:51:04.95	326.81	21.19	-41.0	-44.1	13.8	1.90e-05	0	62	0	1066401792	54	4878
2026-01-27 10:51:05.96	326.92	21.07	-40.8	-43.7	14.2	1.50e-06	0	62	0	1068498944	53	4963
2026-01-27 10:51:06.97	327.04	20.94	-40.8	-43.6	14.2	2.20e-06	0	62	0	1070596096	53	4926
2026-01-27 10:51:07.98	327.15	20.82	-40.6	-43.4	14.5	7.00e-07	0	63	0	1072693248	53	4799
2026-01-27 10:51:08.99	327.26	20.70	-40.7	-43.5	14.3	1.50e-06	0	62	0	1074790400	53	4851
2026-01-27 10:51:10.00	327.37	20.58	-40.9	-44.0	13.9	2.20e-06	0	62	0	1075838976	53	5122
2026-01-27 10:51:11.00	327.47	20.45	-41.0	-44.2	13.7	7.00e-07	0	62	0	1077936128	53	5234
2026-01-27 10:51:12.01	327.58	20.33	-41.4	-44.8	13.0	6.80e-06	0	62	0	1080033280	53	5653
2026-01-27 10:51:13.02	327.69	20.21	-41.6	-45.2	12.6	8.08e-05	0	62	0	1082130432	53	5908
2026-01-27 10:51:14.03	327.79	20.09	-41.9	-45.7	12.1	1.36e-04	0	62	0	1084227584	54	5917
2026-01-27 10:51:15.04	327.90	19.97	-42.2	-46.5	11.3	4.24e-04	0	62	0	1085276160	55	6090
2026-01-27 10:51:16.05	328.00	19.85	-42.3	-46.8	11.0	1.41e-03	0	62	0	1087373312	55	6276
2026-01-27 10:51:17.06	328.11	19.73	-42.5	-47.1	10.7	2.49e-03	0	63	0	1089470464	55	6515
2026-01-27 10:51:18.07	328.21	19.62	-42.9	-47.9	10.0	6.99e-03	0	62	0	1091567616	56	6757
2026-01-27 10:51:19.08	328.31	19.50	-42.8	-47.8	10.0	6.83e-03	0	63	0	1093664768	56	6666
2026-01-27 10:51:20.09	328.41	19.38	-43.0	-48.2	9.7	8.82e-03	0	62	0	1094713344	56	6973
2026-01-27 10:51:21.10	328.51	19.26	-43.0	-48.1	9.7	1.19e-02	0	63	0	1096810496	56	6949
2026-01-27 10:51:22.11	328.61	19.15	-42.8	-47.8	10.1	6.91e-03	0	62	0	1098907648	56	6678
2026-01-27 10:51:23.12	328.71	19.03	-42.9	-47.9	9.7	1.07e-02	0	62	0	1101004800	56	6757
2026-01-27 10:51:24.13	328.81	18.91	-42.7	-47.4	10.5	4.87e-03	0	62	0	1103101952	56	6410
2026-01-27 10:51:25.14	328.91	18.80	-42.5	-47.0	10.8	3.00e-03	0	62	0	1105199104	56	6111
2026-01-27 10:51:26.15	329.01	18.69	-42.3	-46.5	11.4	2.35e-03	0	62	0	1106247680	56	5787
2026-01-27 10:51:27.16	329.10	18.57	-42.1	-46.2	11.8	7.26e-04	0	62	0	1108344832	56	5537
2026-01-27 10:51:28.17	329.20	18.46	-42.2	-46.3	11.6	5.71e-04	0	62	0	1110441984	56	5618
2026-01-27 10:51:29.18	329.29	18.34	-42.1	-46.0	11.9	4.10e-04	0	63	0	1112539136	56	5448
2026-01-27 10:51:30.19	329.39	18.23	-41.9	-45.8	12.0	3.53e-04	0	62	0	1114636288	55	5623
2026-01-27 10:51:31.20	329.48	18.12	-41.9	-45.8	11.9	2.61e-04	0	63	0	1115684864	55	5635
2026-01-27 10:51:32.21	329.58	18.01	-41.8	-45.7	12.0	3.26e-04	0	63	0	1117782016	55	5562
2026-01-27 10:51:33.22	329.67	17.90	-41.8	-45.6	12.1	2.41e-04	0	62	0	1119879168	55	5515
2026-01-27 10:51:34.23	329.76	17.78	-41.9	-45.9	11.9	3.57e-04	0	62	0	1121976320	55	5690
2026-01-27 10:51:35.24	329.85	17.67	-42.0	-46.1	11.5	6.29e-04	0	62	0	1124073472	55	5850
2026-01-27 10:51:36.25	329.94	17.56	-42.3	-46.7	11.0	8.16e-04	0	63	0	1125122048	55	6212
2026-01-27 10:51:37.26	330.03	17.45	-42.2	-46.5	11.1	1.29e-03	0	62	0	1127219200	55	6126
2026-01-27 10:51:38.28	330.12	17.34	-42.2	-46.6	11.0	1.72e-03	0	63	0	1129316352	55	6163
2026-01-27 10:51:39.29	330.21	17.23	-42.3	-46.8	10.8	2.63e-03	0	62	0	1131413504	55	6303
2026-01-27 10:51:40.30	330.30	17.13	-42.3	-47.0	10.7	2.44e-03	0	62	0	1133510656	55	6432
2026-01-27 10:51:41.30	330.38	17.02	-42.4	-47.1	10.5	4.07e-03	0	62	0	1134559232	55	6570
2026-01-27 10:51:42.31	330.47	16.91	-42.4	-47.2	10.4	5.83e-03	0	63	0	1136656384	55	6594
2026-01-27 10:51:43.32	330.56	16.80	-42.6	-47.6	10.1	6.67e-03	0	62	0	1138753536	55	6901
2026-01-27 10:51:44.33	330.64	16.70	-42.6	-47.6	10.0	6.87e-03	0	62	0	1140850688	55	6909
2026-01-27 10:51:45.34	330.73	16.59	-42.6	-47.5	10.0	7.64e-03	0	62	0	1142947840	55	6857
2026-01-27 10:51:46.35	330.81	16.48	-42.6	-47.5	10.0	8.09e-03	0	63	0	1143996416	55	6866
2026-01-27 10:51:47.36	330.90	16.38	-42.5	-47.5	10.1	7.71e-03	0	62	0	1146093568	55	6809
2026-01-27 10:51:48.37	330.98	16.27	-42.6	-47.5	10.0	9.50e-03	0	62	0	1148190720	55	6864
2026-01-27 10:51:49.39	331.06	16.17	-42.5	-47.4	10.1	6.85e-03	0	62	0	1150287872	55	6800
2026-01-27 10:51:50.40	331.15	16.06	-42.5	-47.3	10.3	7.28e-03	0	62	0	1152385024	55	6654
2026-01-27 10:51:51.41	331.23	15.96	-42.5	-47.4	10.0	6.86e-03	0	62	0	1153433600	55	6774
2026-01-27 10:51:52.42	331.31	15.86	-42.4	-47.1	10.5	3.73e-03	0	62	0	1155530752	55	6499
2026-01-27 10:51:53.43	331.39	15.75	-42.3	-47.0	10.5	4.20e-03	0	62	0	1157627904	55	6443
2026-01-27 10:51:54.44	331.47	15.65	-42.1	-46.5	11.0	2.22e-03	0	62	0	1159725056	55	6098
2026-01-27 10:51:55.45	331.55	15.55	-42.1	-46.5	11.0	1.90e-03	0	62	0	1161822208	55	6078
2026-01-27 10:51:56.46	331.63	15.45	-42.0	-46.3	11.2	1.27e-03	0	62	0	1162870784	55	5959
2026-01-27 10:51:57.47	331.71	15.34	-41.9	-46.1	11.5	8.70e-04	0	62	0	1164967936	55	5792
2026-01-27 10:51:58.48	331.78	15.24	-42.0	-46.2	11.3	1.15e-03	0	62	0	1167065088	55	5894
2026-01-27 10:51:59.49	331.86	15.14	-42.0	-46.2	11.3	1.21e-03	0	62	0	1169162240	55	5907
2026-01-27 10:52:00.50	331.94	15.04	-42.0	-46.2	11.3	8.67e-04	0	62	0	1171259392	55	5912
2026-01-27 10:52:01.51	332.02	14.94	-41.9	-46.2	11.3	1.07e-03	0	62	0	1173356544	55	5875
2026-01-27 10:52:02.52	332.09	14.84	-41.8	-45.8	11.7	1.21e-03	0	62	0	1174405120	55	5649
2026-01-27 10:52:03.53	332.17	14.74	-41.9	-46.2	11.4	8.69e-04	0	62	0	1176502272	55	5865
2026-01-27 10:52:04.54	332.24	14.64	-41.8	-45.9	11.6	7.39e-04	0	62	0	1178599424	55	5714
2026-01-27 10:52:05.55	332.32	14.54	-41.8	-46.0	11.5	5.19e-04	0	62	0	1180696576	55	5751
2026-01-27 10:52:06.56	332.39	14.45	-41.9	-46.1	11.3	7.89e-04	0	62	0	1182793728	55	5849
2026-01-27 10:52:07.57	332.47	14.35	-41.7	-45.7	11.7	8.80e-04	0	62	0	1183842304	55	5588
2026-01-27 10:52:08.58	332.54	14.25	-41.8	-46.0	11.5	5.32e-04	0	62	0	1185939456	55	5766
2026-01-27 10:52:09.59	332.61	14.15	-41.8	-46.0	11.4	7.12e-04	0	63	0	1188036608	55	5755
2026-01-27 10:52:10.60	332.68	14.06	-41.7	-45.7	11.8	7.09e-04	0	62	0	1190133760	55	5562
2026-01-27 10:52:11.61	332.76	13.96	-41.9	-46.1	11.4	9.63e-04	0	62	0	1192230912	55	5806
2026-01-27 10:52:12.62	332.83	13.86	-41.9	-46.3	11.2	1.43e-03	0	62	0	1193279488	55	5941
2026-01-27 10:52:13.63	332.90	13.77	-41.8	-46.0	11.5	7.22e-04	0	62	0	1195376640	55	5736
