passes_logs/2026/01/27/R2.0S_Moscow/R2.0S_Moscow__20260127_092051_NOAA_20_JPSS-1_rec.log

#Pass ID: 20260127_092051_NOAA 20 (JPSS-1)
#Satellite: NOAA 20 (JPSS-1)
#Configuration: NOAA 20
#almurnet v.1.7.20251203
#Start time: 2026-01-27 09:20:53

#Version: 2.2.20231116
#Station: R2.0S_Moscow
#Location: 37.707566 lon 55.798166 lat
#TLE: 1 43013U 17073A   26026.81907703  .00000149  00000+0  91399-4 0  9998
#TLE: 2 43013  98.7647 327.6343 0000991  22.4130 337.7089 14.19540778424411

#Time	Az	El	Level	Level2	SNR	BER	BlckErr	Temp	State	Recorded	gain1	gain2
2026-01-27 09:20:53.26	143.79	2.10	-43.9	-58.4	3.8	1.49e+00	0	56	0	0	58	20273
2026-01-27 09:20:54.26	143.77	2.16	-43.9	-58.5	3.8	1.49e+00	0	56	104	0	58	20308
2026-01-27 09:20:55.27	143.74	2.23	-43.9	-58.4	3.8	1.49e+00	0	56	104	0	58	20264
2026-01-27 09:20:56.28	143.72	2.29	-43.6	-58.4	3.8	1.49e+00	0	56	104	0	58	20249
2026-01-27 09:20:57.29	143.70	2.36	-43.8	-58.4	3.8	1.49e+00	0	56	104	0	58	20254
2026-01-27 09:20:58.30	143.67	2.42	-43.9	-58.4	3.8	1.49e+00	0	56	104	0	58	20283
2026-01-27 09:20:59.31	143.65	2.49	-43.9	-58.4	3.8	1.49e+00	0	56	104	0	58	20303
2026-01-27 09:21:00.32	143.63	2.55	-43.9	-58.4	3.8	1.49e+00	0	57	104	0	58	20241
2026-01-27 09:21:01.33	143.60	2.62	-43.9	-58.4	3.8	1.49e+00	0	57	104	0	58	20258
2026-01-27 09:21:02.34	143.58	2.68	-43.9	-58.4	3.8	1.49e+00	0	57	104	0	58	20244
2026-01-27 09:21:03.35	143.55	2.75	-43.9	-58.4	3.8	1.49e+00	0	57	104	0	58	20228
2026-01-27 09:21:04.36	143.53	2.81	-43.8	-58.4	3.8	1.49e+00	0	57	104	0	58	20231
2026-01-27 09:21:05.37	143.50	2.88	-43.9	-58.4	3.8	1.49e+00	0	57	104	0	58	20234
2026-01-27 09:21:06.38	143.48	2.95	-43.9	-58.4	3.8	1.49e+00	0	57	104	0	58	20213
2026-01-27 09:21:07.39	143.45	3.01	-43.9	-58.4	3.8	1.49e+00	0	57	104	0	58	20277
2026-01-27 09:21:08.40	143.43	3.08	-43.9	-58.4	3.8	1.49e+00	0	57	104	0	58	20220
2026-01-27 09:21:09.41	143.40	3.15	-43.9	-58.5	3.8	1.49e+00	0	57	104	0	58	20354
2026-01-27 09:21:10.42	143.38	3.21	-43.9	-58.4	3.8	1.49e+00	0	57	104	0	58	20278
2026-01-27 09:21:11.43	143.35	3.28	-43.9	-58.4	3.8	1.49e+00	0	57	104	0	58	20289
2026-01-27 09:21:12.44	143.33	3.35	-43.9	-58.4	3.8	1.49e+00	0	57	104	0	58	20251
2026-01-27 09:21:13.45	143.30	3.41	-43.9	-58.4	3.8	1.49e+00	0	57	104	0	58	20285
2026-01-27 09:21:14.46	143.28	3.48	-43.9	-58.4	3.8	1.49e+00	0	57	104	0	58	20216
2026-01-27 09:21:15.47	143.25	3.55	-43.9	-58.4	3.8	1.49e+00	0	57	104	0	58	20289
2026-01-27 09:21:16.48	143.22	3.62	-43.9	-58.4	3.8	1.49e+00	0	57	104	0	58	20243
2026-01-27 09:21:17.50	143.20	3.68	-43.9	-58.4	3.8	1.49e+00	0	57	104	0	58	20169
2026-01-27 09:21:18.51	143.17	3.75	-43.9	-58.4	3.8	1.49e+00	0	58	104	0	58	20236
2026-01-27 09:21:19.51	143.15	3.82	-43.9	-58.4	3.8	1.49e+00	0	58	104	0	58	20196
2026-01-27 09:21:20.53	143.12	3.89	-43.9	-58.4	3.8	1.49e+00	0	58	104	0	58	20227
2026-01-27 09:21:21.53	143.09	3.96	-43.9	-58.4	3.8	1.49e+00	0	58	104	0	58	20177
2026-01-27 09:21:22.54	143.07	4.03	-43.9	-58.4	3.8	1.49e+00	0	58	104	0	58	20189
2026-01-27 09:21:23.56	143.04	4.09	-43.9	-58.4	3.8	1.49e+00	0	58	104	0	58	20129
2026-01-27 09:21:24.56	143.01	4.16	-43.9	-58.4	3.8	1.49e+00	0	58	104	0	58	20191
2026-01-27 09:21:25.58	142.98	4.23	-43.9	-58.4	3.8	1.49e+00	0	58	104	0	58	20161
2026-01-27 09:21:26.59	142.96	4.30	-43.9	-58.4	3.8	1.49e+00	0	58	104	0	58	20225
2026-01-27 09:21:27.60	142.93	4.37	-43.9	-58.4	3.8	1.49e+00	0	58	104	0	58	20205
2026-01-27 09:21:28.61	142.90	4.44	-43.9	-58.4	3.8	1.49e+00	0	58	104	0	58	20157
2026-01-27 09:21:29.62	142.87	4.51	-43.9	-58.4	3.8	1.49e+00	0	58	104	0	58	20113
2026-01-27 09:21:30.63	142.85	4.58	-43.9	-58.4	3.8	1.49e+00	0	58	104	0	58	20102
2026-01-27 09:21:31.64	142.82	4.65	-43.9	-58.3	3.8	1.49e+00	0	58	104	0	58	20053
2026-01-27 09:21:32.65	142.79	4.72	-43.9	-58.3	3.8	1.49e+00	0	58	104	0	58	19993
2026-01-27 09:21:33.66	142.76	4.79	-43.9	-58.3	3.8	1.49e+00	0	58	104	0	58	19947
2026-01-27 09:21:34.67	142.73	4.86	-43.9	-58.3	3.8	1.49e+00	0	58	104	0	58	19908
2026-01-27 09:21:35.68	142.70	4.93	-43.9	-58.2	3.8	1.49e+00	0	59	104	0	58	19749
2026-01-27 09:21:36.69	142.67	5.01	-43.9	-58.2	3.8	1.49e+00	0	59	104	0	58	19727
2026-01-27 09:21:37.70	142.65	5.08	-43.7	-58.0	3.8	1.49e+00	0	59	104	0	58	19388
2026-01-27 09:21:38.71	142.62	5.15	-43.9	-58.0	3.8	1.49e+00	0	59	104	0	58	19185
2026-01-27 09:21:39.72	142.59	5.22	-43.9	-57.8	3.8	1.49e+00	0	59	104	0	58	18822
2026-01-27 09:21:40.73	142.56	5.29	-43.9	-57.6	3.8	1.49e+00	0	59	104	0	58	18447
2026-01-27 09:21:41.74	142.53	5.36	-43.8	-57.4	3.8	1.49e+00	0	59	104	0	58	17983
2026-01-27 09:21:42.75	142.50	5.44	-43.8	-57.3	3.8	1.49e+00	0	59	104	0	58	17866
2026-01-27 09:21:43.76	142.47	5.51	-43.8	-57.3	3.8	1.49e+00	0	59	104	0	58	17849
2026-01-27 09:21:44.77	142.44	5.58	-43.9	-57.4	3.8	1.49e+00	0	59	104	0	58	18062
2026-01-27 09:21:45.78	142.41	5.65	-43.8	-57.3	3.8	1.49e+00	0	59	104	0	58	17745
2026-01-27 09:21:46.79	142.38	5.73	-43.8	-56.9	3.8	1.49e+00	0	59	104	0	58	17015
2026-01-27 09:21:47.80	142.35	5.80	-43.8	-56.5	3.8	1.49e+00	0	59	104	0	58	16301
2026-01-27 09:21:48.81	142.32	5.87	-43.8	-56.4	3.8	1.49e+00	0	59	104	0	58	16048
2026-01-27 09:21:49.82	142.29	5.95	-43.8	-56.0	4.0	1.48e+00	0	60	104	0	58	15235
2026-01-27 09:21:50.83	142.25	6.02	-43.7	-55.7	3.9	1.47e+00	0	59	104	0	58	14710
2026-01-27 09:21:51.84	142.22	6.10	-43.7	-55.0	4.1	1.45e+00	0	59	0	0	58	13651
2026-01-27 09:21:52.85	142.19	6.17	-43.7	-55.1	4.1	1.41e+00	0	59	0	0	58	13813
2026-01-27 09:21:53.86	142.16	6.24	-43.7	-54.6	4.3	1.40e+00	0	59	0	0	58	13072
2026-01-27 09:21:54.87	142.13	6.32	-43.6	-54.2	4.4	1.31e+00	88	60	0	1048576	58	12503
2026-01-27 09:21:55.89	142.10	6.39	-43.5	-54.2	4.4	1.28e+00	91	60	0	2097152	58	12517
2026-01-27 09:21:56.90	142.06	6.47	-43.5	-54.0	4.4	1.25e+00	41	60	0	4194304	58	12221
2026-01-27 09:21:57.91	142.03	6.55	-43.6	-53.9	4.5	1.02e+00	2	60	0	5242880	58	12047
2026-01-27 09:21:58.92	142.00	6.62	-43.5	-54.1	4.4	1.24e+00	70	60	0	7340032	58	12339
2026-01-27 09:21:59.93	141.97	6.70	-43.4	-54.1	4.4	1.14e+00	52	60	0	9437184	58	12248
2026-01-27 09:22:00.94	141.93	6.77	-43.6	-54.5	4.3	1.30e+00	0	60	0	10485760	57	13636
2026-01-27 09:22:01.95	141.90	6.85	-43.6	-54.7	4.2	1.35e+00	0	60	0	10485760	57	13915
2026-01-27 09:22:02.96	141.87	6.92	-43.7	-55.0	4.1	1.41e+00	0	60	0	10485760	57	14470
2026-01-27 09:22:03.97	141.83	7.00	-43.7	-55.3	4.1	1.42e+00	0	60	0	10485760	57	14891
2026-01-27 09:22:04.98	141.80	7.08	-43.7	-55.1	4.1	1.46e+00	0	60	0	10485760	57	14660
2026-01-27 09:22:05.99	141.77	7.16	-43.7	-54.9	4.2	1.41e+00	0	60	0	10485760	57	14368
2026-01-27 09:22:07.00	141.73	7.23	-43.6	-54.6	4.3	1.38e+00	0	60	0	10485760	57	13749
2026-01-27 09:22:08.01	141.70	7.31	-43.5	-53.6	4.6	1.18e+00	0	60	0	11534336	57	12295
2026-01-27 09:22:09.02	141.66	7.39	-43.4	-52.7	5.1	7.34e-01	0	60	0	13631488	57	11045
2026-01-27 09:22:10.03	141.63	7.47	-43.2	-51.6	5.8	5.09e-01	0	60	0	15728640	57	9785
2026-01-27 09:22:11.05	141.59	7.54	-43.1	-50.8	6.3	3.33e-01	0	60	0	16777216	57	8938
2026-01-27 09:22:12.05	141.56	7.62	-42.9	-49.9	7.1	1.61e-01	0	60	0	18874368	57	8065
2026-01-27 09:22:13.06	141.52	7.70	-42.7	-49.3	7.7	1.03e-01	0	60	0	20971520	57	7467
2026-01-27 09:22:14.07	141.49	7.78	-42.5	-48.5	8.5	5.52e-02	0	60	0	23068672	56	7276
2026-01-27 09:22:15.09	141.45	7.86	-42.4	-48.1	8.9	3.69e-02	0	60	0	25165824	56	6950
2026-01-27 09:22:16.09	141.42	7.94	-42.3	-47.9	9.2	2.30e-02	0	60	0	26214400	56	6724
2026-01-27 09:22:17.10	141.38	8.02	-42.1	-47.4	9.5	1.64e-02	0	60	0	28311552	55	6744
2026-01-27 09:22:18.12	141.34	8.10	-44.2	-57.3	3.8	1.17e+00	0	60	104	29360128	59	16861
2026-01-27 09:22:19.13	141.31	8.18	-44.0	-57.6	3.8	1.48e+00	0	61	104	29360128	58	18487
2026-01-27 09:22:20.14	141.27	8.26	-41.6	-46.3	10.4	1.15e-02	0	60	0	29360128	54	6340
2026-01-27 09:22:21.15	141.23	8.34	-42.7	-49.5	7.3	1.16e-02	0	61	0	31457280	56	8159
2026-01-27 09:22:22.16	141.20	8.42	-43.2	-53.4	4.6	5.48e-01	3	61	0	33554432	57	12073
2026-01-27 09:22:23.17	141.16	8.50	-41.4	-46.0	11.0	1.39e-02	0	60	0	35651584	54	6078
2026-01-27 09:22:24.18	141.12	8.58	-41.4	-45.8	11.1	1.75e-03	0	61	0	37748736	54	5954
2026-01-27 09:22:25.19	141.08	8.66	-41.4	-46.1	10.8	2.82e-03	0	61	0	38797312	53	6519
2026-01-27 09:22:26.20	141.05	8.74	-41.3	-46.0	10.9	2.71e-03	0	61	0	40894464	53	6427
2026-01-27 09:22:27.20	141.01	8.83	-41.2	-45.7	11.1	1.75e-03	0	61	0	42991616	53	6228
2026-01-27 09:22:28.21	140.97	8.91	-41.3	-45.8	11.1	1.50e-03	0	61	0	45088768	53	6291
2026-01-27 09:22:29.22	140.93	8.99	-41.3	-45.8	11.1	1.80e-03	0	61	0	47185920	53	6284
2026-01-27 09:22:30.24	140.89	9.07	-41.2	-45.6	11.3	1.51e-03	0	61	0	48234496	53	6155
2026-01-27 09:22:31.24	140.85	9.16	-41.2	-45.4	11.4	1.02e-03	0	61	0	50331648	53	6060
2026-01-27 09:22:32.26	140.81	9.24	-41.3	-45.8	11.1	1.34e-03	0	61	0	52428800	53	6306
2026-01-27 09:22:33.27	140.77	9.32	-41.4	-45.9	11.0	1.72e-03	0	61	0	54525952	53	6390
2026-01-27 09:22:34.28	140.73	9.41	-41.2	-45.7	11.2	2.00e-03	0	61	0	56623104	53	6257
2026-01-27 09:22:35.29	140.69	9.49	-41.2	-45.6	11.3	1.14e-03	0	61	0	57671680	53	6152
2026-01-27 09:22:36.30	140.65	9.58	-41.3	-45.6	11.3	1.22e-03	0	61	0	59768832	53	6151
2026-01-27 09:22:37.31	140.61	9.66	-41.3	-45.7	11.2	1.37e-03	0	61	0	61865984	53	6248
2026-01-27 09:22:38.31	140.57	9.75	-41.4	-45.8	11.1	1.77e-03	0	61	0	63963136	53	6323
2026-01-27 09:22:39.32	140.53	9.83	-41.3	-45.7	11.2	1.64e-03	0	61	0	66060288	53	6240
2026-01-27 09:22:40.33	140.49	9.92	-41.3	-45.5	11.4	9.76e-04	0	61	0	68157440	53	6130
2026-01-27 09:22:41.34	140.45	10.00	-41.2	-45.5	11.4	9.28e-04	0	61	0	69206016	53	6107
2026-01-27 09:22:42.35	140.41	10.09	-41.2	-45.6	11.4	1.35e-03	0	61	0	71303168	53	6145
2026-01-27 09:22:43.36	140.36	10.17	-41.2	-45.6	11.3	8.67e-04	0	61	0	73400320	53	6167
2026-01-27 09:22:44.37	140.32	10.26	-41.1	-45.3	11.6	8.35e-04	0	61	0	75497472	52	6304
2026-01-27 09:22:45.38	140.28	10.35	-41.2	-45.3	11.6	1.83e-03	0	61	0	77594624	52	6300
2026-01-27 09:22:46.39	140.24	10.44	-41.2	-45.3	11.1	1.86e-03	0	61	0	78643200	52	6338
2026-01-27 09:22:47.40	140.19	10.52	-41.0	-45.3	11.7	1.48e-03	0	61	0	80740352	52	6285
2026-01-27 09:22:48.41	140.15	10.61	-41.3	-45.4	11.6	1.08e-03	0	61	0	82837504	53	6056
2026-01-27 09:22:49.42	140.11	10.70	-41.2	-45.4	11.6	1.14e-03	0	61	0	84934656	53	6025
2026-01-27 09:22:50.43	140.06	10.79	-41.2	-45.3	11.8	2.20e-03	0	61	0	87031808	52	6284
2026-01-27 09:22:51.44	140.02	10.88	-41.2	-45.2	11.8	5.07e-04	0	61	0	88080384	52	6245
2026-01-27 09:22:52.44	139.97	10.96	-41.0	-45.3	11.7	7.29e-04	0	61	0	90177536	53	5953
2026-01-27 09:22:53.45	139.93	11.05	-41.2	-45.4	11.7	1.25e-03	0	61	0	92274688	53	5998
2026-01-27 09:22:54.46	139.88	11.14	-41.2	-45.3	11.7	9.29e-04	0	61	0	94371840	53	5984
2026-01-27 09:22:55.47	139.84	11.23	-41.3	-45.3	11.6	1.15e-03	0	61	0	96468992	53	5985
2026-01-27 09:22:56.48	139.79	11.32	-41.3	-45.4	11.8	1.96e-03	0	62	0	97517568	53	5997
2026-01-27 09:22:57.49	139.75	11.41	-41.3	-45.4	11.8	1.12e-03	0	62	0	99614720	53	6001
2026-01-27 09:22:58.50	139.70	11.50	-41.3	-45.4	11.3	1.40e-03	0	61	0	101711872	53	6018
2026-01-27 09:22:59.51	139.65	11.60	-41.4	-45.5	11.8	1.63e-03	0	61	0	103809024	53	6071
2026-01-27 09:23:00.52	139.61	11.69	-41.0	-45.4	11.6	3.01e-03	0	62	0	105906176	53	6055
2026-01-27 09:23:01.53	139.56	11.78	-41.2	-45.3	11.9	2.26e-03	0	62	0	106954752	53	5987
2026-01-27 09:23:02.54	139.51	11.87	-41.4	-45.5	11.7	1.23e-02	0	62	0	109051904	53	6092
2026-01-27 09:23:03.55	139.46	11.96	-41.3	-45.4	11.9	1.02e-02	0	62	0	111149056	53	6010
2026-01-27 09:23:04.56	139.41	12.06	-41.4	-45.5	11.6	2.65e-02	0	62	0	113246208	53	6067
2026-01-27 09:23:05.57	139.37	12.15	-41.2	-45.3	11.7	1.60e-02	0	61	0	115343360	53	5941
2026-01-27 09:23:06.58	139.32	12.24	-41.2	-45.4	11.7	7.07e-03	0	62	0	116391936	53	6022
2026-01-27 09:23:07.59	139.27	12.34	-40.8	-45.4	10.7	1.90e-02	0	62	0	118489088	50	7163
2026-01-27 09:23:08.60	139.22	12.43	-41.1	-45.3	12.0	2.69e-02	0	62	0	120586240	53	5968
2026-01-27 09:23:09.61	139.17	12.53	-41.2	-45.2	11.9	7.77e-03	0	62	0	122683392	53	5871
2026-01-27 09:23:10.62	139.12	12.62	-40.9	-45.1	12.0	2.29e-02	0	62	0	124780544	53	5847
2026-01-27 09:23:11.63	139.07	12.72	-39.2	-44.9	11.7	1.84e-02	0	62	0	125829120	52	6059
2026-01-27 09:23:12.64	139.02	12.81	-38.3	-44.9	9.8	2.19e-02	0	62	0	127926272	50	6772
2026-01-27 09:23:13.65	138.97	12.91	-41.2	-45.1	11.3	2.61e-02	0	62	0	130023424	51	6510
2026-01-27 09:23:14.66	138.91	13.00	-39.2	-44.9	10.2	5.56e-02	0	62	0	132120576	47	7992
2026-01-27 09:23:15.67	138.86	13.10	-39.1	-45.1	11.1	2.36e-02	0	62	0	134217728	51	6555
2026-01-27 09:23:16.68	138.81	13.20	-41.3	-45.2	11.9	1.16e-02	0	62	0	136314880	53	5873
2026-01-27 09:23:17.69	138.76	13.30	-41.3	-45.2	12.0	2.28e-02	0	62	0	137363456	53	5861
2026-01-27 09:23:18.70	138.70	13.39	-41.5	-45.3	12.2	1.75e-02	0	62	0	139460608	53	5932
2026-01-27 09:23:19.71	138.65	13.49	-41.4	-45.2	12.0	1.92e-02	0	62	0	141557760	51	6620
2026-01-27 09:23:20.72	138.60	13.59	-41.3	-45.1	11.8	1.73e-02	0	62	0	143654912	52	6151
2026-01-27 09:23:21.73	138.54	13.69	-41.0	-45.0	11.9	2.68e-02	0	62	0	145752064	53	5733
2026-01-27 09:23:22.74	138.49	13.79	-40.4	-44.8	11.5	4.74e-02	0	62	0	146800640	51	6337
2026-01-27 09:23:23.75	138.43	13.89	-40.2	-44.9	12.1	4.28e-02	0	62	0	148897792	52	5998
2026-01-27 09:23:24.77	138.38	13.99	-40.7	-44.7	12.3	5.34e-02	0	62	0	150994944	52	5917
2026-01-27 09:23:25.78	138.32	14.09	-40.5	-44.7	11.7	2.88e-02	0	62	0	153092096	51	6216
2026-01-27 09:23:26.79	138.27	14.19	-38.8	-44.6	10.2	1.23e-01	2	62	0	155189248	50	6540
2026-01-27 09:23:27.80	138.21	14.29	-39.8	-44.8	11.5	6.74e-02	0	62	0	156237824	51	6296
2026-01-27 09:23:28.81	138.15	14.39	-40.1	-44.7	10.3	4.07e-02	1	62	0	158334976	49	7019
2026-01-27 09:23:29.82	138.10	14.49	-41.0	-45.0	9.7	4.25e-02	1	62	0	160432128	48	7710
2026-01-27 09:23:30.83	138.04	14.60	-41.2	-45.0	11.7	2.85e-02	0	62	0	162529280	52	6126
2026-01-27 09:23:31.84	137.98	14.70	-40.4	-45.6	11.9	2.81e-02	0	62	0	164626432	51	6923
2026-01-27 09:23:32.85	137.92	14.80	-41.4	-45.7	8.8	3.11e-02	17	62	0	165675008	48	8278
2026-01-27 09:23:33.86	137.86	14.91	-38.8	-45.2	10.6	1.10e-01	0	62	0	167772160	51	6619
2026-01-27 09:23:34.87	137.80	15.01	-41.6	-45.1	11.5	8.43e-02	0	62	0	169869312	50	6959
2026-01-27 09:23:35.88	137.74	15.11	-39.1	-45.2	12.3	1.66e-02	0	62	0	171966464	50	7015
2026-01-27 09:23:36.89	137.68	15.22	-38.6	-44.6	12.6	2.10e-02	0	62	0	173015040	51	6145
2026-01-27 09:23:37.90	137.62	15.32	-38.1	-44.3	11.1	2.25e-02	0	62	0	175112192	50	6336
2026-01-27 09:23:38.91	137.56	15.43	-41.1	-44.5	12.8	1.00e-02	0	62	0	177209344	52	5788
2026-01-27 09:23:39.92	137.50	15.54	-40.2	-44.4	12.4	1.27e-02	0	62	0	179306496	52	5717
2026-01-27 09:23:40.93	137.44	15.64	-39.5	-44.0	12.8	8.28e-03	0	62	0	181403648	51	5767
2026-01-27 09:23:41.94	137.37	15.75	-41.1	-44.4	12.9	7.60e-03	0	62	0	183500800	52	5686
2026-01-27 09:23:42.95	137.31	15.86	-41.0	-44.5	12.8	1.26e-02	0	62	0	184549376	52	5727
2026-01-27 09:23:43.96	137.25	15.96	-40.6	-44.2	12.6	1.78e-02	0	62	0	186646528	51	5913
2026-01-27 09:23:44.97	137.18	16.07	-41.1	-44.8	12.9	2.25e-02	0	62	0	188743680	53	5645
2026-01-27 09:23:45.99	137.12	16.18	-40.7	-44.8	12.3	1.02e-02	0	62	0	190840832	53	5619
2026-01-27 09:23:47.00	137.05	16.29	-40.4	-44.7	12.3	1.56e-02	0	62	0	192937984	53	5562
2026-01-27 09:23:48.00	136.99	16.40	-41.2	-44.8	11.5	6.68e-03	0	62	0	193986560	52	5947
2026-01-27 09:23:49.01	136.92	16.51	-41.2	-44.8	12.2	2.30e-02	0	62	0	196083712	52	5962
2026-01-27 09:23:50.02	136.86	16.62	-41.7	-45.2	11.9	2.49e-02	0	62	0	198180864	51	6600
2026-01-27 09:23:51.03	136.79	16.73	-37.8	-44.1	8.7	2.43e-02	0	62	0	200278016	48	6949
2026-01-27 09:23:52.04	136.72	16.84	-41.1	-44.7	12.5	5.80e-02	0	62	0	202375168	52	5913
2026-01-27 09:23:53.05	136.65	16.95	-38.8	-44.5	8.6	1.24e-02	0	62	0	203423744	44	9077
2026-01-27 09:23:54.06	136.59	17.07	-40.9	-44.9	12.5	1.55e-02	0	62	0	205520896	52	5999
2026-01-27 09:23:55.07	136.52	17.18	-41.1	-44.9	12.8	1.18e-02	0	62	0	207618048	53	5680
2026-01-27 09:23:56.08	136.45	17.29	-40.7	-44.8	12.9	8.00e-03	0	62	0	209715200	53	5653
2026-01-27 09:23:57.09	136.38	17.41	-40.6	-44.7	13.0	8.29e-02	0	62	0	211812352	52	5923
2026-01-27 09:23:58.10	136.31	17.52	-40.4	-44.7	12.6	5.85e-03	0	62	0	212860928	51	6222
2026-01-27 09:23:59.11	136.24	17.64	-41.3	-44.6	13.1	3.23e-03	0	62	0	214958080	52	5803
2026-01-27 09:24:00.12	136.16	17.75	-41.2	-44.5	13.4	1.62e-03	0	62	0	217055232	52	5726
2026-01-27 09:24:01.13	136.09	17.87	-41.0	-44.5	12.9	3.49e-03	0	62	0	219152384	52	5739
2026-01-27 09:24:02.14	136.02	17.98	-41.1	-44.5	13.4	1.38e-03	0	62	0	221249536	52	5752
2026-01-27 09:24:03.15	135.94	18.10	-40.5	-44.4	12.7	1.66e-02	0	62	0	222298112	52	5667
2026-01-27 09:24:04.16	135.87	18.22	-40.3	-44.3	13.6	1.85e-03	0	62	0	224395264	52	5654
2026-01-27 09:24:05.17	135.80	18.34	-41.2	-44.4	13.5	1.26e-02	0	62	0	226492416	52	5683
2026-01-27 09:24:06.18	135.72	18.45	-41.2	-44.4	13.7	1.37e-03	0	62	0	228589568	53	5387
2026-01-27 09:24:07.19	135.64	18.57	-41.1	-44.5	13.2	2.49e-03	0	62	0	230686720	52	5723
2026-01-27 09:24:08.20	135.57	18.69	-41.0	-44.4	12.9	6.43e-03	0	62	0	231735296	52	5687
2026-01-27 09:24:09.21	135.49	18.81	-41.0	-44.5	13.1	4.37e-03	0	62	0	233832448	52	5749
2026-01-27 09:24:10.22	135.41	18.93	-40.3	-44.5	13.1	3.83e-03	0	62	0	235929600	52	5723
2026-01-27 09:24:11.23	135.33	19.05	-41.3	-44.6	13.4	1.69e-03	0	62	0	238026752	53	5514
2026-01-27 09:24:12.24	135.26	19.17	-41.2	-44.5	13.3	1.15e-03	0	62	0	240123904	53	5430
2026-01-27 09:24:13.25	135.18	19.30	-40.7	-44.6	12.6	9.66e-03	0	62	0	241172480	53	5480
2026-01-27 09:24:14.26	135.10	19.42	-39.8	-44.7	11.7	4.12e-03	0	62	0	243269632	51	6226
2026-01-27 09:24:15.27	135.01	19.54	-40.6	-44.7	13.1	2.16e-03	0	62	0	245366784	53	5577
2026-01-27 09:24:16.28	134.93	19.67	-41.4	-44.8	13.1	1.51e-03	0	62	0	247463936	53	5621
2026-01-27 09:24:17.29	134.85	19.79	-40.8	-44.8	13.1	1.05e-03	0	63	0	249561088	53	5648
2026-01-27 09:24:18.30	134.77	19.91	-41.5	-44.9	13.2	1.49e-03	0	63	0	251658240	53	5697
2026-01-27 09:24:19.31	134.68	20.04	-41.5	-44.9	13.1	1.59e-04	0	62	0	252706816	53	5721
2026-01-27 09:24:20.32	134.60	20.17	-41.5	-44.9	13.2	2.88e-04	0	63	0	254803968	53	5666
2026-01-27 09:24:21.33	134.51	20.29	-41.3	-44.9	13.1	4.22e-04	0	62	0	256901120	53	5703
2026-01-27 09:24:22.34	134.43	20.42	-41.6	-45.1	13.0	1.52e-04	0	63	0	258998272	53	5843
2026-01-27 09:24:23.35	134.34	20.55	-41.7	-45.3	12.8	8.84e-04	0	62	0	261095424	53	5942
2026-01-27 09:24:24.36	134.25	20.67	-41.7	-45.3	12.8	3.66e-03	0	62	0	262144000	53	5936
2026-01-27 09:24:25.37	134.17	20.80	-41.7	-45.5	12.6	3.84e-04	0	63	0	264241152	54	5745
2026-01-27 09:24:26.38	134.08	20.93	-41.8	-45.3	12.8	3.65e-04	0	62	0	266338304	54	5648
2026-01-27 09:24:27.39	133.99	21.06	-41.5	-45.2	12.9	2.12e-04	0	62	0	268435456	54	5558
2026-01-27 09:24:28.40	133.90	21.19	-41.7	-45.3	12.3	1.53e-03	0	63	0	270532608	53	5957
2026-01-27 09:24:29.41	133.81	21.32	-41.7	-45.4	12.7	4.57e-04	0	62	0	271581184	54	5670
2026-01-27 09:24:30.42	133.71	21.46	-41.8	-45.6	12.5	2.33e-04	0	63	0	273678336	54	5800
2026-01-27 09:24:31.43	133.62	21.59	-41.9	-45.7	12.3	7.66e-04	0	63	0	275775488	54	5918
2026-01-27 09:24:32.44	133.53	21.72	-41.1	-45.7	12.1	1.17e-03	0	63	0	277872640	54	5894
2026-01-27 09:24:33.45	133.43	21.86	-41.9	-45.7	12.4	5.04e-04	0	63	0	279969792	54	5892
2026-01-27 09:24:34.46	133.34	21.99	-41.8	-45.5	12.5	5.19e-04	0	63	0	281018368	54	5784
2026-01-27 09:24:35.47	133.24	22.12	-41.8	-45.4	12.8	9.23e-03	0	63	0	283115520	54	5703
2026-01-27 09:24:36.48	133.14	22.26	-41.7	-45.3	12.4	4.69e-04	0	63	0	285212672	53	5934
2026-01-27 09:24:37.49	133.05	22.40	-41.6	-45.4	12.7	3.40e-04	0	63	0	287309824	54	5675
2026-01-27 09:24:38.50	132.95	22.53	-41.6	-45.5	12.6	1.03e-03	0	63	0	289406976	54	5759
2026-01-27 09:24:39.51	132.85	22.67	-41.9	-45.7	12.5	1.36e-03	0	62	0	290455552	54	5873
2026-01-27 09:24:40.52	132.75	22.81	-41.9	-45.7	12.4	3.81e-04	0	63	0	292552704	54	5879
2026-01-27 09:24:41.52	132.65	22.94	-42.0	-45.8	12.4	1.88e-04	0	63	0	294649856	54	5952
2026-01-27 09:24:42.53	132.54	23.08	-41.9	-45.8	12.4	3.97e-04	0	63	0	296747008	54	5938
2026-01-27 09:24:43.54	132.44	23.22	-42.0	-45.7	12.5	2.08e-04	0	62	0	298844160	54	5906
2026-01-27 09:24:44.56	132.34	23.37	-42.0	-45.6	12.5	1.07e-04	0	63	0	299892736	54	5853
2026-01-27 09:24:45.56	132.23	23.51	-42.0	-45.7	12.5	1.48e-04	0	63	0	301989888	54	5898
2026-01-27 09:24:46.57	132.13	23.65	-42.1	-45.8	12.4	4.90e-04	0	63	0	304087040	54	5980
2026-01-27 09:24:47.58	132.02	23.79	-42.2	-46.1	12.0	2.05e-04	0	63	0	306184192	54	6185
2026-01-27 09:24:48.59	131.91	23.93	-42.2	-46.1	12.1	2.53e-04	0	63	0	308281344	55	5852
2026-01-27 09:24:49.60	131.80	24.08	-42.2	-46.2	11.9	3.37e-04	0	63	0	309329920	55	5919
2026-01-27 09:24:50.61	131.69	24.22	-42.2	-46.2	12.0	2.68e-04	0	63	0	311427072	55	5874
2026-01-27 09:24:51.62	131.58	24.37	-42.2	-46.2	12.1	2.39e-04	0	63	0	313524224	55	5861
2026-01-27 09:24:52.63	131.47	24.51	-42.2	-46.1	12.1	3.24e-04	0	63	0	315621376	55	5846
2026-01-27 09:24:53.64	131.35	24.66	-42.2	-46.2	12.0	2.18e-04	0	63	0	317718528	55	5891
2026-01-27 09:24:54.65	131.24	24.81	-42.2	-46.2	12.0	3.75e-04	0	63	0	319815680	55	5921
2026-01-27 09:24:55.66	131.12	24.96	-42.3	-46.4	11.8	4.55e-04	0	63	0	320864256	55	6043
2026-01-27 09:24:56.67	131.01	25.10	-42.4	-46.5	11.7	1.01e-03	0	63	0	322961408	55	6109
2026-01-27 09:24:57.68	130.89	25.25	-42.4	-46.5	11.7	1.03e-03	0	63	0	325058560	55	6121
2026-01-27 09:24:58.69	130.77	25.40	-42.1	-46.4	11.8	6.10e-04	0	63	0	327155712	55	6038
2026-01-27 09:24:59.70	130.65	25.56	-42.0	-46.4	11.6	9.54e-04	0	63	0	329252864	54	6368
2026-01-27 09:25:00.71	130.53	25.71	-42.3	-46.3	11.9	4.03e-04	0	63	0	330301440	55	5978
2026-01-27 09:25:01.72	130.40	25.86	-42.4	-46.4	11.9	5.39e-04	0	63	0	332398592	55	6037
2026-01-27 09:25:02.73	130.28	26.01	-42.5	-46.7	11.6	8.88e-04	0	63	0	334495744	55	6207
2026-01-27 09:25:03.74	130.16	26.17	-42.6	-46.8	11.4	9.84e-04	0	63	0	336592896	55	6339
2026-01-27 09:25:04.75	130.03	26.32	-42.6	-46.9	11.3	1.21e-03	0	63	0	338690048	55	6402
2026-01-27 09:25:05.76	129.90	26.48	-42.6	-47.0	11.2	1.32e-03	0	63	0	339738624	55	6471
2026-01-27 09:25:06.77	129.77	26.63	-42.6	-47.0	11.3	1.35e-03	0	63	0	341835776	55	6424
2026-01-27 09:25:07.78	129.64	26.79	-42.6	-46.8	11.4	8.70e-04	0	63	0	343932928	55	6345
2026-01-27 09:25:08.79	129.51	26.95	-42.5	-46.8	11.4	9.99e-04	0	63	0	346030080	55	6331
2026-01-27 09:25:09.80	129.38	27.10	-42.6	-47.0	11.2	1.13e-03	0	63	0	348127232	55	6455
2026-01-27 09:25:10.81	129.25	27.26	-42.8	-47.3	11.1	1.77e-03	0	63	0	349175808	56	6302
2026-01-27 09:25:11.82	129.11	27.42	-42.9	-47.3	11.1	1.58e-03	0	63	0	351272960	56	6335
2026-01-27 09:25:12.83	128.97	27.58	-42.8	-47.1	11.3	1.56e-03	0	63	0	353370112	56	6201
2026-01-27 09:25:13.84	128.83	27.74	-42.8	-47.1	11.3	9.64e-04	0	63	0	355467264	56	6164
2026-01-27 09:25:14.85	128.70	27.91	-42.8	-47.1	11.4	9.96e-04	0	63	0	357564416	56	6167
2026-01-27 09:25:15.86	128.55	28.07	-42.8	-47.3	11.1	1.19e-03	0	63	0	359661568	56	6280
2026-01-27 09:25:16.87	128.41	28.23	-42.9	-47.3	11.1	1.52e-03	0	63	0	360710144	56	6345
2026-01-27 09:25:17.88	128.27	28.40	-42.9	-47.4	11.0	1.78e-03	0	63	0	362807296	56	6395
2026-01-27 09:25:18.89	128.12	28.56	-42.7	-47.0	11.4	1.30e-03	0	63	0	364904448	56	6130
2026-01-27 09:25:19.90	127.97	28.73	-42.7	-46.9	11.6	8.19e-04	0	63	0	367001600	56	6003
2026-01-27 09:25:20.91	127.83	28.89	-42.7	-46.8	11.6	7.36e-04	0	63	0	369098752	56	5986
2026-01-27 09:25:21.92	127.68	29.06	-42.6	-46.6	11.8	4.92e-04	0	63	0	370147328	56	5845
2026-01-27 09:25:22.93	127.52	29.23	-42.6	-46.7	11.7	5.65e-04	0	63	0	372244480	56	5922
2026-01-27 09:25:23.94	127.37	29.40	-42.7	-47.0	11.5	8.10e-04	0	63	0	374341632	56	6078
2026-01-27 09:25:24.95	127.22	29.57	-42.7	-47.0	11.4	1.05e-03	0	63	0	376438784	56	6090
2026-01-27 09:25:25.96	127.06	29.74	-42.7	-47.0	11.5	9.55e-04	0	63	0	377487360	56	6089
2026-01-27 09:25:26.97	126.90	29.91	-42.7	-46.9	11.5	8.22e-04	0	63	0	379584512	56	6039
2026-01-27 09:25:27.98	126.74	30.08	-42.8	-47.0	11.5	9.21e-04	0	63	0	381681664	56	6118
2026-01-27 09:25:28.99	126.58	30.25	-42.8	-47.1	11.4	8.52e-04	0	63	0	383778816	56	6182
2026-01-27 09:25:30.00	126.41	30.43	-42.8	-47.2	11.2	1.25e-03	0	63	0	385875968	56	6249
2026-01-27 09:25:31.01	126.25	30.60	-42.8	-47.2	11.3	1.35e-03	0	63	0	387973120	56	6228
2026-01-27 09:25:32.02	126.08	30.78	-42.9	-47.4	11.1	1.23e-03	0	63	0	389021696	56	6352
2026-01-27 09:25:33.03	125.91	30.95	-43.0	-47.6	10.9	1.92e-03	0	63	0	391118848	56	6521
2026-01-27 09:25:34.04	125.74	31.13	-43.0	-47.5	11.0	1.88e-03	0	63	0	393216000	56	6437
2026-01-27 09:25:35.05	125.57	31.31	-43.0	-47.5	10.9	1.89e-03	0	63	0	395313152	56	6482
2026-01-27 09:25:36.06	125.39	31.49	-43.0	-47.7	10.8	2.03e-03	0	63	0	397410304	56	6575
2026-01-27 09:25:37.07	125.22	31.66	-43.0	-47.6	10.8	2.52e-03	0	63	0	398458880	56	6567
2026-01-27 09:25:38.08	125.04	31.84	-43.0	-47.8	10.7	2.83e-03	0	63	0	400556032	56	6673
2026-01-27 09:25:39.09	124.86	32.03	-43.1	-47.8	10.6	3.50e-03	0	63	0	402653184	56	6699
2026-01-27 09:25:40.10	124.67	32.21	-43.1	-47.9	10.5	3.89e-03	0	63	0	404750336	56	6784
2026-01-27 09:25:41.11	124.49	32.39	-43.2	-48.0	10.5	3.63e-03	0	63	0	406847488	56	6821
2026-01-27 09:25:42.12	124.30	32.57	-43.2	-48.0	10.5	4.26e-03	0	63	0	407896064	56	6842
2026-01-27 09:25:43.13	124.11	32.76	-43.2	-48.0	10.5	4.40e-03	0	63	0	409993216	57	6425
2026-01-27 09:25:44.14	123.92	32.94	-43.2	-48.0	10.5	4.00e-03	0	63	0	412090368	57	6423
2026-01-27 09:25:45.15	123.73	33.12	-43.1	-47.9	10.6	4.00e-03	0	63	0	414187520	57	6360
2026-01-27 09:25:46.15	123.53	33.31	-43.1	-47.9	10.6	3.25e-03	0	63	0	416284672	57	6351
2026-01-27 09:25:47.17	123.33	33.50	-43.2	-48.1	10.4	3.82e-03	0	63	0	417333248	57	6537
2026-01-27 09:25:48.17	123.14	33.68	-43.3	-48.3	10.1	4.73e-03	0	63	0	419430400	57	6676
2026-01-27 09:25:49.19	122.93	33.87	-43.4	-48.6	9.9	8.07e-03	0	63	0	421527552	57	6887
2026-01-27 09:25:50.19	122.73	34.06	-43.4	-48.5	9.9	9.73e-03	0	63	0	423624704	57	6850
2026-01-27 09:25:51.20	122.52	34.25	-43.3	-48.3	10.2	6.58e-03	0	63	0	425721856	57	6684
2026-01-27 09:25:52.21	122.31	34.44	-43.3	-48.2	10.3	5.35e-03	0	63	0	427819008	57	6606
2026-01-27 09:25:53.22	122.10	34.63	-43.2	-47.9	10.6	4.55e-03	0	63	0	428867584	57	6412
2026-01-27 09:25:54.23	121.88	34.82	-43.1	-47.9	10.6	3.36e-03	0	63	0	430964736	57	6373
2026-01-27 09:25:55.24	121.67	35.01	-43.2	-48.1	10.4	3.60e-03	0	63	0	433061888	57	6525
2026-01-27 09:25:56.25	121.45	35.21	-43.1	-47.8	10.7	3.30e-03	0	63	0	435159040	57	6310
2026-01-27 09:25:57.26	121.22	35.40	-43.0	-47.6	11.0	2.37e-03	0	63	0	437256192	57	6138
2026-01-27 09:25:58.27	121.00	35.60	-43.0	-47.4	11.1	2.33e-03	0	63	0	438304768	57	6053
2026-01-27 09:25:59.28	120.77	35.79	-42.9	-47.2	11.3	1.32e-03	0	63	0	440401920	57	5896
2026-01-27 09:26:00.29	120.54	35.99	-42.9	-47.2	11.3	1.10e-03	0	63	0	442499072	57	5899
2026-01-27 09:26:01.30	120.30	36.18	-42.8	-47.1	11.5	1.21e-03	0	63	0	444596224	57	5815
2026-01-27 09:26:02.31	120.07	36.38	-42.8	-47.0	11.5	8.75e-04	0	63	0	446693376	57	5771
2026-01-27 09:26:03.32	119.83	36.58	-42.8	-47.0	11.5	8.64e-04	0	63	0	447741952	57	5767
2026-01-27 09:26:04.33	119.58	36.78	-42.9	-47.1	11.4	7.68e-04	0	63	0	449839104	57	5842
2026-01-27 09:26:05.34	119.34	36.98	-42.9	-47.4	11.2	1.15e-03	0	63	0	451936256	57	5998
2026-01-27 09:26:06.35	119.09	37.18	-43.0	-47.5	11.0	1.64e-03	0	63	0	454033408	57	6096
2026-01-27 09:26:07.36	118.84	37.38	-43.1	-47.7	10.9	2.07e-03	0	63	0	456130560	57	6217
2026-01-27 09:26:08.37	118.58	37.58	-42.9	-47.4	11.2	2.31e-03	0	63	0	457179136	57	6001
2026-01-27 09:26:09.38	118.33	37.78	-42.9	-47.3	11.2	1.50e-03	0	63	0	459276288	57	5991
2026-01-27 09:26:10.39	118.06	37.98	-42.9	-47.3	11.3	1.44e-03	0	63	0	461373440	57	5952
2026-01-27 09:26:11.40	117.80	38.18	-42.9	-47.3	11.2	1.26e-03	0	63	0	463470592	57	5958
2026-01-27 09:26:12.41	117.53	38.38	-43.0	-47.4	11.1	1.62e-03	0	63	0	465567744	57	6047
2026-01-27 09:26:13.42	117.26	38.59	-43.0	-47.4	11.2	1.68e-03	0	63	0	466616320	57	5996
2026-01-27 09:26:14.43	116.99	38.79	-43.1	-47.7	10.9	1.75e-03	0	63	0	468713472	57	6226
2026-01-27 09:26:15.44	116.71	39.00	-43.1	-47.6	10.9	2.34e-03	0	63	0	470810624	57	6199
2026-01-27 09:26:16.45	116.43	39.20	-43.1	-47.7	10.8	2.12e-03	0	63	0	472907776	57	6230
2026-01-27 09:26:17.46	116.14	39.41	-43.2	-47.9	10.7	3.25e-03	0	63	0	475004928	57	6358
2026-01-27 09:26:18.47	115.85	39.61	-43.2	-47.9	10.6	3.50e-03	0	63	0	476053504	57	6399
2026-01-27 09:26:19.48	115.56	39.82	-43.2	-48.0	10.5	3.31e-03	0	63	0	478150656	57	6479
2026-01-27 09:26:20.49	115.26	40.02	-43.2	-47.8	10.7	3.59e-03	0	63	0	480247808	57	6324
2026-01-27 09:26:21.50	114.96	40.23	-43.0	-47.5	10.9	2.27e-03	0	63	0	482344960	57	6122
2026-01-27 09:26:22.51	114.66	40.44	-43.0	-47.6	11.0	1.85e-03	0	63	0	484442112	57	6146
2026-01-27 09:26:23.52	114.35	40.64	-43.1	-47.6	11.0	2.01e-03	0	63	0	485490688	57	6168
2026-01-27 09:26:24.53	114.04	40.85	-43.1	-47.6	10.9	2.01e-03	0	63	0	487587840	57	6149
2026-01-27 09:26:25.54	113.72	41.06	-43.0	-47.5	11.1	1.83e-03	0	63	0	489684992	57	6090
2026-01-27 09:26:26.55	113.40	41.27	-43.0	-47.4	11.2	1.52e-03	0	63	0	491782144	57	6016
2026-01-27 09:26:27.56	113.08	41.47	-42.9	-47.1	11.4	1.19e-03	0	63	0	493879296	57	5821
2026-01-27 09:26:28.57	112.75	41.68	-42.8	-46.9	11.7	7.15e-04	0	63	0	495976448	57	5710
2026-01-27 09:26:29.58	112.42	41.89	-42.9	-47.2	11.3	1.10e-03	0	63	0	497025024	57	5921
2026-01-27 09:26:30.59	112.08	42.10	-43.0	-47.5	11.1	1.43e-03	0	63	0	499122176	57	6076
2026-01-27 09:26:31.60	111.74	42.31	-43.1	-47.7	10.8	2.32e-03	0	63	0	501219328	57	6256
2026-01-27 09:26:32.61	111.39	42.51	-43.5	-48.6	9.9	4.97e-03	0	63	0	503316480	57	6938
2026-01-27 09:26:33.62	111.04	42.72	-43.5	-48.8	9.7	1.02e-02	0	63	0	505413632	57	7072
2026-01-27 09:26:34.63	110.69	42.93	-43.5	-48.6	9.9	9.53e-03	0	63	0	506462208	57	6955
2026-01-27 09:26:35.64	110.33	43.14	-43.5	-48.7	9.9	9.89e-03	0	63	0	508559360	57	6965
2026-01-27 09:26:36.65	109.96	43.35	-43.6	-49.0	9.5	1.06e-02	0	63	0	510656512	57	7220
2026-01-27 09:26:37.66	109.59	43.55	-43.5	-48.6	9.8	1.06e-02	0	63	0	512753664	57	6943
2026-01-27 09:26:38.67	109.22	43.76	-43.2	-47.9	10.6	4.31e-03	0	63	0	514850816	57	6355
2026-01-27 09:26:39.68	108.84	43.97	-43.1	-47.6	10.8	2.65e-03	0	63	0	515899392	57	6197
2026-01-27 09:26:40.69	108.45	44.17	-43.1	-47.7	10.9	2.09e-03	0	63	0	517996544	57	6205
2026-01-27 09:26:41.70	108.06	44.38	-43.2	-48.0	10.6	3.03e-03	0	63	0	520093696	57	6432
2026-01-27 09:26:42.71	107.67	44.59	-43.3	-48.2	10.4	4.51e-03	0	63	0	522190848	57	6572
2026-01-27 09:26:43.71	107.28	44.79	-43.2	-47.9	10.7	3.14e-03	0	63	0	524288000	57	6419
2026-01-27 09:26:44.72	106.87	44.99	-43.3	-48.1	10.5	4.20e-03	0	63	0	525336576	57	6545
2026-01-27 09:26:45.73	106.46	45.20	-43.4	-48.5	10.1	7.14e-03	0	63	0	527433728	57	6823
2026-01-27 09:26:46.74	106.05	45.40	-43.5	-48.6	9.9	8.17e-03	0	63	0	529530880	57	6922
2026-01-27 09:26:47.75	105.63	45.61	-43.6	-48.9	9.6	1.06e-02	0	63	0	531628032	57	7162
2026-01-27 09:26:48.76	105.20	45.81	-43.7	-49.1	9.4	1.54e-02	0	63	0	533725184	57	7342
2026-01-27 09:26:49.77	104.77	46.01	-43.6	-48.9	9.6	1.75e-02	0	63	0	534773760	58	6729
2026-01-27 09:26:50.78	104.33	46.21	-43.4	-48.2	10.3	6.05e-03	0	64	0	536870912	58	6232
2026-01-27 09:26:51.79	103.89	46.41	-43.3	-48.1	10.4	4.13e-03	0	63	0	538968064	58	6172
2026-01-27 09:26:52.80	103.44	46.61	-43.3	-48.0	10.7	3.69e-03	0	63	0	541065216	58	6062
2026-01-27 09:26:53.81	102.99	46.81	-43.1	-47.6	11.0	1.96e-03	0	63	0	543162368	58	5826
2026-01-27 09:26:54.82	102.53	47.00	-43.1	-47.7	10.9	1.78e-03	0	63	0	544210944	58	5877
2026-01-27 09:26:55.84	102.06	47.20	-43.1	-47.6	11.0	2.32e-03	0	63	0	546308096	58	5840
2026-01-27 09:26:56.85	101.58	47.40	-43.1	-47.5	11.2	1.76e-03	0	63	0	548405248	58	5728
2026-01-27 09:26:57.86	101.11	47.59	-42.9	-47.1	11.5	9.22e-04	0	63	0	550502400	57	5813
2026-01-27 09:26:58.87	100.62	47.78	-42.9	-47.0	11.6	6.41e-04	0	64	0	552599552	57	5778
2026-01-27 09:26:59.88	100.13	47.97	-43.0	-47.3	11.3	8.50e-04	0	63	0	553648128	57	5981
2026-01-27 09:27:00.89	99.64	48.16	-43.1	-47.6	10.9	1.79e-03	0	63	0	555745280	57	6192
2026-01-27 09:27:01.90	99.14	48.35	-43.0	-47.4	11.2	1.98e-03	0	63	0	557842432	57	6040
2026-01-27 09:27:02.91	98.63	48.53	-42.7	-46.7	11.9	7.59e-04	0	63	0	559939584	57	5576
2026-01-27 09:27:03.92	98.12	48.72	-42.7	-46.8	11.9	3.97e-04	0	63	0	562036736	57	5598
2026-01-27 09:27:04.93	97.60	48.90	-42.6	-46.5	12.2	2.28e-04	0	64	0	564133888	57	5436
2026-01-27 09:27:05.94	97.07	49.08	-42.7	-46.6	12.1	2.22e-04	0	63	0	565182464	57	5489
2026-01-27 09:27:06.95	96.54	49.26	-42.5	-46.3	12.4	2.04e-04	0	64	0	567279616	57	5286
2026-01-27 09:27:07.96	96.00	49.44	-42.5	-46.3	12.3	1.76e-04	0	63	0	569376768	57	5315
2026-01-27 09:27:08.97	95.45	49.61	-42.7	-46.7	12.0	2.13e-04	0	63	0	571473920	57	5531
2026-01-27 09:27:09.98	94.90	49.78	-42.9	-47.1	11.6	3.18e-04	0	63	0	573571072	57	5840
2026-01-27 09:27:10.99	94.35	49.95	-43.1	-47.5	11.2	1.12e-03	0	63	0	574619648	57	6098
2026-01-27 09:27:12.00	93.78	50.12	-43.1	-47.6	11.1	1.58e-03	0	63	0	576716800	57	6164
2026-01-27 09:27:13.01	93.21	50.29	-43.0	-47.4	11.3	1.32e-03	0	63	0	578813952	57	6016
2026-01-27 09:27:14.02	92.64	50.45	-42.9	-47.2	11.5	8.80e-04	0	63	0	580911104	57	5870
2026-01-27 09:27:15.03	92.05	50.61	-42.9	-47.1	11.6	6.16e-04	0	63	0	583008256	57	5812
2026-01-27 09:27:16.04	91.47	50.77	-43.0	-47.2	11.4	6.51e-04	0	64	0	584056832	57	5899
2026-01-27 09:27:17.05	90.87	50.92	-43.0	-47.4	11.3	1.06e-03	0	63	0	586153984	57	5994
2026-01-27 09:27:18.05	90.28	51.07	-43.1	-47.6	11.0	1.52e-03	0	64	0	588251136	57	6161
2026-01-27 09:27:19.06	89.67	51.22	-43.0	-47.3	11.4	1.37e-03	0	63	0	590348288	57	5944
2026-01-27 09:27:20.08	89.05	51.37	-42.9	-47.0	11.7	6.75e-04	0	63	0	592445440	57	5762
2026-01-27 09:27:21.09	88.43	51.52	-42.7	-46.7	12.0	3.96e-04	0	63	0	593494016	57	5546
2026-01-27 09:27:22.10	87.81	51.66	-42.7	-46.6	12.1	2.75e-04	0	63	0	595591168	57	5505
2026-01-27 09:27:23.11	87.18	51.79	-42.8	-46.7	12.0	2.87e-04	0	64	0	597688320	57	5588
2026-01-27 09:27:24.12	86.54	51.93	-42.7	-46.5	12.1	3.12e-04	0	63	0	599785472	57	5461
2026-01-27 09:27:25.12	85.91	52.06	-42.5	-46.3	12.5	1.94e-04	0	63	0	601882624	57	5297
2026-01-27 09:27:26.13	85.26	52.18	-42.4	-46.0	12.7	1.40e-04	0	63	0	602931200	56	5449
2026-01-27 09:27:27.14	84.61	52.31	-42.3	-45.9	12.8	4.73e-05	0	64	0	605028352	56	5365
2026-01-27 09:27:28.15	83.95	52.43	-42.2	-45.6	13.2	3.20e-05	0	64	0	607125504	56	5170
2026-01-27 09:27:29.16	83.28	52.54	-41.8	-45.0	13.6	7.60e-06	0	63	0	609222656	55	5159
2026-01-27 09:27:30.17	82.61	52.66	-41.9	-45.2	13.4	1.06e-05	0	64	0	611319808	55	5279
2026-01-27 09:27:31.18	81.94	52.77	-41.7	-44.8	13.8	9.10e-06	0	64	0	612368384	55	5010
2026-01-27 09:27:32.19	81.26	52.87	-41.4	-44.3	14.3	7.00e-07	0	63	0	614465536	54	5036
2026-01-27 09:27:33.20	80.58	52.97	-41.1	-43.9	14.8	0.00e+00	0	64	0	616562688	54	4767
2026-01-27 09:27:34.21	79.89	53.07	-40.9	-43.6	15.1	0.00e+00	0	64	0	618659840	53	4886
2026-01-27 09:27:35.22	79.20	53.16	-40.5	-43.0	15.6	0.00e+00	0	64	0	620756992	53	4558
2026-01-27 09:27:36.23	78.50	53.25	-40.1	-42.4	16.2	0.00e+00	0	63	0	621805568	52	4502
2026-01-27 09:27:37.24	77.80	53.34	-40.0	-42.2	16.5	0.00e+00	0	64	0	623902720	51	4677
2026-01-27 09:27:38.25	77.09	53.42	-39.9	-42.1	16.6	0.00e+00	0	63	0	625999872	51	4604
2026-01-27 09:27:39.26	76.38	53.49	-39.9	-42.1	16.5	0.00e+00	0	64	0	628097024	51	4642
2026-01-27 09:27:40.27	75.67	53.56	-39.7	-41.8	16.9	0.00e+00	0	63	0	630194176	51	4471
2026-01-27 09:27:41.28	74.95	53.63	-39.6	-41.7	17.0	0.00e+00	0	64	0	632291328	51	4402
2026-01-27 09:27:42.29	74.23	53.69	-39.6	-41.7	17.0	0.00e+00	0	64	0	633339904	51	4415
2026-01-27 09:27:43.30	73.51	53.75	-39.5	-41.5	17.1	0.00e+00	0	64	0	635437056	51	4336
2026-01-27 09:27:44.31	72.79	53.81	-39.4	-41.5	17.2	0.00e+00	0	63	0	637534208	50	4551
2026-01-27 09:27:45.32	72.06	53.85	-39.6	-41.7	17.0	0.00e+00	0	63	0	639631360	50	4678
2026-01-27 09:27:46.33	71.33	53.90	-39.7	-41.8	16.9	0.00e+00	0	63	0	641728512	50	4736
2026-01-27 09:27:47.34	70.60	53.94	-39.7	-41.8	17.0	0.00e+00	0	63	0	642777088	50	4713
2026-01-27 09:27:48.35	69.86	53.97	-39.7	-41.8	16.9	0.00e+00	0	64	0	644874240	50	4743
2026-01-27 09:27:49.36	69.13	54.00	-39.8	-42.0	16.7	0.00e+00	0	63	0	646971392	50	4839
2026-01-27 09:27:50.37	68.39	54.03	-39.9	-42.0	16.7	0.00e+00	0	64	0	649068544	50	4865
2026-01-27 09:27:51.38	67.65	54.05	-40.1	-42.4	16.4	0.00e+00	0	64	0	651165696	50	5065
2026-01-27 09:27:52.39	66.91	54.07	-40.3	-42.6	16.1	0.00e+00	0	64	0	652214272	51	4907
2026-01-27 09:27:53.40	66.17	54.08	-40.2	-42.5	16.2	0.00e+00	0	64	0	654311424	51	4868
2026-01-27 09:27:54.41	65.43	54.08	-40.3	-42.6	16.1	0.00e+00	0	63	0	656408576	51	4907
2026-01-27 09:27:55.42	64.69	54.08	-40.3	-42.7	16.0	0.00e+00	0	63	0	658505728	51	4944
2026-01-27 09:27:56.43	63.95	54.08	-40.3	-42.6	16.1	0.00e+00	0	64	0	660602880	51	4924
2026-01-27 09:27:57.44	63.21	54.07	-40.3	-42.6	16.0	0.00e+00	0	63	0	661651456	51	4918
2026-01-27 09:27:58.45	62.47	54.06	-40.3	-42.7	16.0	0.00e+00	0	63	0	663748608	51	4930
2026-01-27 09:27:59.46	61.73	54.04	-40.2	-42.5	16.2	0.00e+00	0	64	0	665845760	51	4862
2026-01-27 09:28:00.47	61.00	54.02	-40.1	-42.3	16.4	0.00e+00	0	63	0	667942912	51	4732
2026-01-27 09:28:01.48	60.26	53.99	-40.1	-42.4	16.3	0.00e+00	0	64	0	670040064	51	4771
2026-01-27 09:28:02.49	59.52	53.96	-40.1	-42.4	16.3	0.00e+00	0	64	0	671088640	51	4784
2026-01-27 09:28:03.50	58.79	53.92	-39.8	-42.0	16.7	0.00e+00	0	63	0	673185792	51	4568
2026-01-27 09:28:04.51	58.06	53.88	-39.8	-42.0	16.7	0.00e+00	0	63	0	675282944	51	4560
2026-01-27 09:28:05.52	57.33	53.83	-39.8	-41.9	16.7	0.00e+00	0	63	0	677380096	51	4529
2026-01-27 09:28:06.53	56.61	53.78	-39.6	-41.7	17.0	0.00e+00	0	63	0	679477248	51	4394
2026-01-27 09:28:07.54	55.88	53.73	-39.6	-41.7	17.0	0.00e+00	0	63	0	680525824	51	4424
2026-01-27 09:28:08.55	55.16	53.67	-39.7	-41.8	16.8	0.00e+00	0	63	0	682622976	51	4493
2026-01-27 09:28:09.55	54.45	53.60	-39.7	-41.8	16.9	0.00e+00	0	64	0	684720128	51	4475
2026-01-27 09:28:10.56	53.74	53.53	-39.6	-41.7	16.9	0.00e+00	0	63	0	686817280	51	4433
2026-01-27 09:28:11.57	53.03	53.46	-39.7	-41.8	16.9	0.00e+00	0	63	0	688914432	51	4446
2026-01-27 09:28:12.58	52.32	53.38	-39.6	-41.7	17.0	0.00e+00	0	64	0	689963008	51	4398
2026-01-27 09:28:13.59	51.62	53.30	-39.6	-41.7	17.0	0.00e+00	0	63	0	692060160	51	4416
2026-01-27 09:28:14.60	50.92	53.21	-39.8	-41.9	16.8	0.00e+00	0	63	0	694157312	51	4527
2026-01-27 09:28:15.61	50.22	53.12	-39.9	-42.1	16.5	0.00e+00	0	63	0	696254464	51	4647
2026-01-27 09:28:16.62	49.53	53.03	-40.1	-42.4	16.3	0.00e+00	0	64	0	698351616	51	4769
2026-01-27 09:28:17.64	48.84	52.93	-40.5	-42.9	15.7	0.00e+00	0	63	0	700448768	51	5086
2026-01-27 09:28:18.65	48.16	52.83	-40.6	-43.2	15.5	0.00e+00	0	63	0	701497344	51	5230
2026-01-27 09:28:19.66	47.48	52.72	-40.7	-43.2	15.5	0.00e+00	0	63	0	703594496	51	5241
2026-01-27 09:28:20.67	46.81	52.61	-40.7	-43.3	15.3	0.00e+00	0	64	0	705691648	52	5011
2026-01-27 09:28:21.68	46.15	52.50	-41.0	-43.8	14.8	7.00e-07	0	63	0	707788800	52	5299
2026-01-27 09:28:22.69	45.49	52.38	-41.4	-44.5	14.1	3.00e-06	0	64	0	709885952	53	5408
2026-01-27 09:28:23.70	44.83	52.26	-41.6	-44.8	13.8	2.20e-06	0	64	0	710934528	53	5595
2026-01-27 09:28:24.71	44.18	52.13	-41.8	-45.0	13.5	7.60e-06	0	63	0	713031680	54	5443
2026-01-27 09:28:25.72	43.54	52.00	-41.7	-44.9	13.7	8.30e-06	0	64	0	715128832	54	5358
2026-01-27 09:28:26.73	42.90	51.87	-41.7	-44.9	13.7	9.10e-06	0	64	0	717225984	54	5346
2026-01-27 09:28:27.74	42.27	51.74	-41.7	-44.9	13.7	3.00e-06	0	63	0	719323136	54	5389
2026-01-27 09:28:28.75	41.64	51.60	-41.8	-45.1	13.5	1.22e-05	0	63	0	720371712	54	5499
2026-01-27 09:28:29.76	41.02	51.46	-41.9	-45.3	13.2	1.83e-05	0	63	0	722468864	54	5596
2026-01-27 09:28:30.77	40.40	51.31	-42.0	-45.5	13.0	3.66e-05	0	64	0	724566016	54	5748
2026-01-27 09:28:31.78	39.80	51.16	-42.0	-45.5	13.0	2.74e-05	0	63	0	726663168	54	5744
2026-01-27 09:28:32.79	39.19	51.01	-42.0	-45.5	13.0	3.58e-05	0	64	0	728760320	54	5758
2026-01-27 09:28:33.80	38.60	50.86	-42.0	-45.4	13.1	3.96e-05	0	64	0	729808896	54	5670
2026-01-27 09:28:34.81	38.01	50.70	-42.0	-45.5	13.0	3.81e-05	0	64	0	731906048	54	5760
2026-01-27 09:28:35.82	37.42	50.55	-42.1	-45.5	13.0	3.66e-05	0	63	0	734003200	54	5786
2026-01-27 09:28:36.83	36.84	50.38	-42.2	-45.8	12.8	5.11e-05	0	63	0	736100352	54	5962
2026-01-27 09:28:37.84	36.27	50.22	-42.4	-46.2	12.2	1.48e-04	0	63	0	738197504	55	5911
2026-01-27 09:28:38.85	35.70	50.05	-42.5	-46.5	12.0	2.18e-04	0	64	0	739246080	55	6083
2026-01-27 09:28:39.86	35.15	49.89	-42.6	-46.6	11.9	3.62e-04	0	64	0	741343232	55	6154
2026-01-27 09:28:40.87	34.59	49.72	-42.6	-46.6	11.8	4.32e-04	0	63	0	743440384	55	6174
2026-01-27 09:28:41.88	34.04	49.54	-42.2	-45.9	12.5	1.42e-04	0	63	0	745537536	55	5687
2026-01-27 09:28:42.89	33.50	49.37	-42.3	-46.0	12.5	7.62e-05	0	64	0	747634688	55	5742
2026-01-27 09:28:43.90	32.97	49.19	-42.5	-46.4	12.1	1.84e-04	0	64	0	748683264	55	6005
2026-01-27 09:28:44.91	32.44	49.01	-42.9	-47.2	11.4	7.57e-04	0	63	0	750780416	56	6238
2026-01-27 09:28:45.92	31.92	48.83	-43.0	-47.4	11.2	1.43e-03	0	64	0	752877568	56	6387
2026-01-27 09:28:46.93	31.40	48.65	-43.3	-48.1	10.5	2.81e-03	0	64	0	754974720	57	6539
2026-01-27 09:28:47.94	30.89	48.46	-43.4	-48.3	10.3	5.34e-03	0	63	0	757071872	57	6657
2026-01-27 09:28:48.95	30.39	48.28	-43.5	-48.4	10.1	6.94e-03	0	63	0	758120448	57	6798
2026-01-27 09:28:49.96	29.89	48.09	-43.6	-48.7	9.8	7.35e-03	0	63	0	760217600	57	7020
2026-01-27 09:28:50.97	29.40	47.90	-43.8	-49.3	9.2	1.93e-02	0	63	0	762314752	58	7105
2026-01-27 09:28:51.98	28.92	47.71	-43.9	-49.7	8.8	2.41e-02	0	64	0	764411904	58	7376
2026-01-27 09:28:52.99	28.44	47.52	-44.1	-50.2	8.1	4.60e-02	0	64	0	766509056	58	7893
2026-01-27 09:28:54.00	27.96	47.33	-44.1	-50.5	8.0	6.61e-02	0	64	0	768606208	58	8125
2026-01-27 09:28:55.01	27.49	47.13	-43.9	-49.9	8.6	5.27e-02	0	63	0	769654784	58	7553
2026-01-27 09:28:56.02	27.03	46.94	-43.9	-49.6	8.8	3.08e-02	0	64	0	771751936	58	7369
2026-01-27 09:28:57.03	26.58	46.74	-43.9	-49.9	8.5	4.00e-02	0	64	0	773849088	58	7597
2026-01-27 09:28:58.04	26.13	46.54	-44.1	-50.3	8.1	6.35e-02	0	63	0	775946240	58	7984
2026-01-27 09:28:59.05	25.68	46.34	-43.9	-49.8	8.6	5.51e-02	0	63	0	778043392	58	7531
2026-01-27 09:29:00.06	25.24	46.14	-43.8	-49.4	9.1	2.72e-02	0	64	0	779091968	58	7161
2026-01-27 09:29:01.07	24.81	45.94	-43.8	-49.5	9.0	2.23e-02	0	63	0	781189120	58	7247
2026-01-27 09:29:02.08	24.38	45.74	-43.9	-49.8	8.7	2.77e-02	0	64	0	783286272	58	7472
2026-01-27 09:29:03.09	23.96	45.54	-43.7	-49.3	9.2	2.63e-02	0	63	0	785383424	58	7074
2026-01-27 09:29:04.10	23.54	45.34	-43.7	-49.3	9.2	1.95e-02	0	64	0	787480576	58	7072
2026-01-27 09:29:05.11	23.13	45.14	-43.6	-48.8	9.6	1.63e-02	0	64	0	788529152	58	6717
2026-01-27 09:29:06.12	22.72	44.93	-43.4	-48.3	10.2	9.27e-03	0	64	0	790626304	58	6293
2026-01-27 09:29:07.13	22.32	44.73	-43.2	-47.9	10.6	3.61e-03	0	63	0	792723456	58	6048
2026-01-27 09:29:08.14	21.93	44.52	-43.2	-47.9	10.7	3.59e-03	0	64	0	794820608	58	6022
2026-01-27 09:29:09.15	21.54	44.32	-43.3	-48.1	10.4	3.68e-03	0	64	0	796917760	58	6186
2026-01-27 09:29:10.16	21.15	44.11	-43.4	-48.3	10.2	4.79e-03	0	64	0	797966336	58	6293
2026-01-27 09:29:11.17	20.77	43.91	-43.3	-48.2	10.2	5.02e-03	0	64	0	800063488	58	6235
2026-01-27 09:29:12.19	20.39	43.70	-43.3	-48.2	10.3	5.29e-03	0	64	0	802160640	58	6247
2026-01-27 09:29:13.20	20.02	43.49	-43.2	-48.0	10.5	5.95e-03	0	64	0	804257792	58	6102
2026-01-27 09:29:14.21	19.65	43.28	-43.1	-47.7	10.7	2.82e-03	0	64	0	806354944	58	5901
2026-01-27 09:29:15.22	19.29	43.08	-43.1	-47.7	10.8	2.20e-03	0	63	0	808452096	58	5886
2026-01-27 09:29:16.23	18.93	42.87	-43.2	-47.8	10.7	2.84e-03	0	64	0	809500672	58	5968
2026-01-27 09:29:17.24	18.58	42.66	-43.3	-48.2	10.4	4.04e-03	0	63	0	811597824	58	6207
2026-01-27 09:29:18.25	18.23	42.46	-43.4	-48.4	10.1	5.16e-03	0	64	0	813694976	58	6396
2026-01-27 09:29:19.26	17.89	42.25	-43.4	-48.5	10.0	7.10e-03	0	64	0	815792128	58	6493
2026-01-27 09:29:20.27	17.55	42.04	-43.5	-48.7	9.8	8.82e-03	0	64	0	817889280	58	6613
2026-01-27 09:29:21.28	17.22	41.83	-43.5	-48.9	9.6	1.27e-02	0	63	0	818937856	58	6730
2026-01-27 09:29:22.29	16.89	41.63	-43.6	-49.0	9.5	1.24e-02	0	63	0	821035008	58	6804
2026-01-27 09:29:23.30	16.56	41.42	-43.7	-49.3	9.2	1.83e-02	0	63	0	823132160	58	7063
2026-01-27 09:29:24.31	16.24	41.21	-43.8	-49.5	8.9	2.24e-02	0	63	0	825229312	58	7246
2026-01-27 09:29:25.32	15.92	41.01	-43.7	-49.5	9.0	2.74e-02	0	63	0	827326464	58	7211
2026-01-27 09:29:26.33	15.61	40.80	-43.7	-49.4	9.0	2.25e-02	0	64	0	828375040	58	7172
2026-01-27 09:29:27.34	15.30	40.59	-43.4	-48.9	9.5	1.47e-02	0	64	0	830472192	58	6757
2026-01-27 09:29:28.35	15.00	40.39	-43.5	-49.0	9.5	1.34e-02	0	64	0	832569344	58	6808
2026-01-27 09:29:29.36	14.70	40.18	-43.7	-49.2	9.2	1.91e-02	0	64	0	834666496	58	7012
2026-01-27 09:29:30.37	14.40	39.98	-43.7	-49.3	9.2	1.95e-02	0	64	0	836763648	58	7057
2026-01-27 09:29:31.38	14.10	39.77	-43.6	-49.0	9.4	1.79e-02	0	64	0	837812224	58	6879
2026-01-27 09:29:32.39	13.81	39.57	-43.7	-49.3	9.2	1.77e-02	0	64	0	839909376	58	7050
2026-01-27 09:29:33.40	13.53	39.36	-43.7	-49.2	9.3	2.05e-02	0	64	0	842006528	58	6988
2026-01-27 09:29:34.41	13.24	39.16	-43.6	-48.9	9.5	1.37e-02	0	64	0	844103680	58	6762
2026-01-27 09:29:35.42	12.97	38.96	-43.5	-48.7	9.8	1.12e-02	0	64	0	846200832	58	6574
2026-01-27 09:29:36.43	12.69	38.75	-43.5	-48.7	9.7	1.05e-02	0	64	0	847249408	58	6585
2026-01-27 09:29:37.44	12.42	38.55	-43.6	-48.9	9.5	1.29e-02	0	64	0	849346560	58	6782
2026-01-27 09:29:38.45	12.15	38.35	-43.7	-49.2	9.2	1.49e-02	0	64	0	851443712	58	7000
2026-01-27 09:29:39.46	11.88	38.15	-43.6	-49.0	9.4	1.94e-02	0	64	0	853540864	58	6848
2026-01-27 09:29:40.47	11.62	37.94	-43.6	-49.1	9.3	1.99e-02	0	64	0	855638016	58	6892
2026-01-27 09:29:41.48	11.36	37.74	-43.5	-48.9	9.5	1.52e-02	0	64	0	856686592	58	6727
2026-01-27 09:29:42.49	11.11	37.54	-43.5	-48.9	9.6	1.12e-02	0	64	0	858783744	58	6733
2026-01-27 09:29:43.50	10.85	37.34	-43.5	-48.8	9.6	1.20e-02	0	64	0	860880896	58	6647
2026-01-27 09:29:44.51	10.60	37.15	-43.5	-48.7	9.6	1.27e-02	0	64	0	862978048	58	6639
2026-01-27 09:29:45.52	10.36	36.95	-43.4	-48.4	10.0	9.45e-03	0	64	0	865075200	58	6419
2026-01-27 09:29:46.52	10.12	36.75	-43.3	-48.4	10.0	7.54e-03	0	64	0	866123776	58	6351
2026-01-27 09:29:47.54	9.87	36.55	-43.3	-48.4	10.1	7.17e-03	0	64	0	868220928	58	6361
2026-01-27 09:29:48.55	9.64	36.36	-43.4	-48.4	10.0	7.65e-03	0	63	0	870318080	58	6373
2026-01-27 09:29:49.56	9.40	36.16	-43.3	-48.4	10.0	8.54e-03	0	64	0	872415232	58	6377
2026-01-27 09:29:50.57	9.17	35.96	-43.3	-48.2	10.3	6.60e-03	0	64	0	874512384	58	6224
2026-01-27 09:29:51.58	8.94	35.77	-43.2	-47.9	10.5	5.57e-03	0	64	0	876609536	58	6036
2026-01-27 09:29:52.58	8.72	35.58	-43.1	-47.7	10.7	3.24e-03	0	64	0	877658112	58	5922
2026-01-27 09:29:53.59	8.49	35.38	-43.0	-47.5	10.9	2.79e-03	0	64	0	879755264	58	5780
2026-01-27 09:29:54.60	8.27	35.19	-43.0	-47.6	10.8	2.28e-03	0	63	0	881852416	58	5817
2026-01-27 09:29:55.61	8.05	35.00	-43.1	-47.8	10.5	3.84e-03	0	64	0	883949568	57	6340
2026-01-27 09:29:56.62	7.84	34.81	-43.2	-48.0	10.4	4.68e-03	0	64	0	886046720	57	6484
2026-01-27 09:29:57.63	7.63	34.62	-43.2	-48.2	10.2	5.72e-03	0	64	0	887095296	57	6609
2026-01-27 09:29:58.64	7.41	34.43	-43.3	-48.4	9.9	7.72e-03	0	63	0	889192448	57	6798
2026-01-27 09:29:59.65	7.21	34.24	-43.5	-48.7	9.6	1.32e-02	0	64	0	891289600	57	7028
2026-01-27 09:30:00.66	7.00	34.05	-43.4	-48.6	9.7	1.24e-02	0	63	0	893386752	57	6947
2026-01-27 09:30:01.67	6.80	33.86	-43.3	-48.5	9.8	1.15e-02	0	64	0	895483904	57	6854
2026-01-27 09:30:02.68	6.60	33.68	-43.3	-48.4	9.9	8.95e-03	0	64	0	896532480	57	6779
2026-01-27 09:30:03.69	6.40	33.49	-43.3	-48.4	9.9	8.99e-03	0	64	0	898629632	57	6789
2026-01-27 09:30:04.70	6.20	33.30	-43.3	-48.4	9.8	8.63e-03	0	64	0	900726784	57	6797
2026-01-27 09:30:05.71	6.01	33.12	-43.3	-48.5	9.8	9.50e-03	0	64	0	902823936	57	6857
2026-01-27 09:30:06.72	5.82	32.94	-43.3	-48.4	9.9	9.82e-03	0	64	0	904921088	57	6756
2026-01-27 09:30:07.73	5.63	32.75	-43.3	-48.5	9.8	1.00e-02	0	64	0	905969664	57	6876
2026-01-27 09:30:08.74	5.44	32.57	-43.4	-48.5	9.8	9.37e-03	0	64	0	908066816	57	6846
2026-01-27 09:30:09.75	5.25	32.39	-43.4	-48.6	9.8	1.04e-02	0	64	0	910163968	57	6885
2026-01-27 09:30:10.76	5.07	32.21	-43.4	-48.6	9.7	1.10e-02	0	64	0	912261120	57	6908
2026-01-27 09:30:11.77	4.89	32.03	-43.4	-48.8	9.5	1.24e-02	0	64	0	914358272	57	7067
2026-01-27 09:30:12.78	4.71	31.85	-43.3	-48.5	9.8	1.07e-02	0	64	0	915406848	57	6863
2026-01-27 09:30:13.79	4.53	31.67	-43.4	-48.6	9.6	1.12e-02	0	63	0	917504000	57	6929
2026-01-27 09:30:14.80	4.36	31.49	-43.4	-48.8	9.4	1.44e-02	0	64	0	919601152	57	7099
2026-01-27 09:30:15.81	4.18	31.31	-43.5	-49.1	9.1	1.97e-02	0	64	0	921698304	57	7351
2026-01-27 09:30:16.82	4.01	31.14	-43.6	-49.4	8.8	2.66e-02	0	64	0	923795456	57	7608
2026-01-27 09:30:17.83	3.84	30.96	-43.7	-49.6	8.6	3.19e-02	0	64	0	924844032	57	7771
2026-01-27 09:30:18.84	3.68	30.79	-43.6	-49.5	8.6	3.69e-02	0	64	0	926941184	57	7708
2026-01-27 09:30:19.85	3.51	30.61	-43.6	-49.3	8.9	2.97e-02	0	63	0	929038336	57	7543
2026-01-27 09:30:20.86	3.35	30.44	-43.4	-48.7	9.6	2.06e-02	0	64	0	931135488	57	6963
2026-01-27 09:30:21.87	3.18	30.27	-43.2	-48.2	10.1	7.67e-03	0	64	0	933232640	57	6591
2026-01-27 09:30:22.88	3.02	30.10	-43.1	-48.1	10.2	6.38e-03	0	64	0	934281216	57	6529
2026-01-27 09:30:23.88	2.87	29.93	-43.2	-48.2	10.1	6.09e-03	0	64	0	936378368	57	6589
2026-01-27 09:30:24.89	2.71	29.76	-43.2	-48.4	9.9	7.93e-03	0	64	0	938475520	57	6736
2026-01-27 09:30:25.90	2.55	29.59	-43.2	-48.4	9.9	9.14e-03	0	64	0	940572672	57	6725
2026-01-27 09:30:26.92	2.40	29.42	-43.2	-48.3	10.0	8.54e-03	0	64	0	942669824	57	6675
2026-01-27 09:30:27.92	2.25	29.25	-43.2	-48.3	10.0	8.04e-03	0	64	0	944766976	57	6663
2026-01-27 09:30:28.93	2.10	29.08	-43.2	-48.2	10.1	7.52e-03	0	64	0	945815552	57	6611
2026-01-27 09:30:29.94	1.95	28.92	-43.1	-48.1	10.1	7.26e-03	0	64	0	947912704	57	6564
2026-01-27 09:30:30.95	1.80	28.75	-43.0	-47.8	10.4	5.89e-03	0	64	0	950009856	57	6347
2026-01-27 09:30:31.96	1.66	28.59	-42.9	-47.5	10.8	3.10e-03	0	64	0	952107008	57	6067
2026-01-27 09:30:32.97	1.51	28.42	-42.8	-47.3	11.0	2.19e-03	0	64	0	954204160	57	5941
2026-01-27 09:30:33.98	1.37	28.26	-42.8	-47.3	10.9	2.18e-03	0	63	0	955252736	57	5979
2026-01-27 09:30:34.99	1.23	28.10	-42.9	-47.5	10.8	2.36e-03	0	64	0	957349888	57	6063
2026-01-27 09:30:36.00	1.09	27.94	-42.9	-47.5	10.7	2.84e-03	0	64	0	959447040	57	6090
2026-01-27 09:30:37.01	0.95	27.78	-42.9	-47.7	10.6	3.26e-03	0	64	0	961544192	57	6212
2026-01-27 09:30:38.02	0.81	27.62	-42.9	-47.7	10.5	3.93e-03	0	64	0	963641344	57	6232
2026-01-27 09:30:39.03	0.68	27.46	-42.9	-47.6	10.6	3.45e-03	0	64	0	964689920	57	6191
2026-01-27 09:30:40.04	0.54	27.30	-42.9	-47.5	10.7	3.41e-03	0	64	0	966787072	57	6113
2026-01-27 09:30:41.05	0.41	27.14	-42.8	-47.4	10.8	2.40e-03	0	64	0	968884224	57	6014
2026-01-27 09:30:42.06	0.28	26.98	-42.8	-47.2	11.0	1.94e-03	0	64	0	970981376	57	5889
2026-01-27 09:30:43.07	0.15	26.83	-42.7	-47.2	11.0	1.77e-03	0	64	0	973078528	57	5886
2026-01-27 09:30:44.08	0.02	26.67	-42.7	-47.1	11.2	1.79e-03	0	64	0	974127104	57	5806
2026-01-27 09:30:45.09	359.89	26.51	-42.5	-46.7	11.5	7.74e-04	0	64	0	976224256	57	5551
2026-01-27 09:30:46.10	359.77	26.36	-42.4	-46.5	11.7	5.77e-04	0	64	0	978321408	56	5777
2026-01-27 09:30:47.11	359.64	26.21	-42.4	-46.5	11.8	5.18e-04	0	64	0	980418560	56	5729
2026-01-27 09:30:48.12	359.52	26.05	-42.4	-46.6	11.7	5.96e-04	0	64	0	982515712	56	5791
2026-01-27 09:30:49.13	359.40	25.90	-42.4	-46.6	11.6	6.65e-04	0	64	0	983564288	56	5813
2026-01-27 09:30:50.14	359.28	25.75	-42.5	-46.7	11.5	6.87e-04	0	64	0	985661440	56	5871
2026-01-27 09:30:51.15	359.16	25.60	-42.5	-46.7	11.5	7.74e-04	0	64	0	987758592	56	5882
2026-01-27 09:30:52.16	359.04	25.45	-42.4	-46.6	11.6	6.52e-04	0	64	0	989855744	56	5814
2026-01-27 09:30:53.17	358.92	25.30	-42.4	-46.6	11.6	6.42e-04	0	64	0	991952896	56	5816
2026-01-27 09:30:54.18	358.80	25.15	-42.3	-46.4	11.8	5.14e-04	0	64	0	993001472	56	5676
2026-01-27 09:30:55.19	358.69	25.00	-42.3	-46.4	11.8	4.55e-04	0	64	0	995098624	56	5660
2026-01-27 09:30:56.20	358.57	24.86	-42.3	-46.3	12.0	3.87e-04	0	64	0	997195776	56	5594
2026-01-27 09:30:57.21	358.46	24.71	-42.2	-46.1	12.1	3.17e-04	0	64	0	999292928	56	5488
2026-01-27 09:30:58.22	358.35	24.56	-42.1	-46.0	12.2	2.12e-04	0	64	0	1001390080	56	5435
2026-01-27 09:30:59.23	358.24	24.42	-42.1	-46.0	12.2	2.19e-04	0	64	0	1002438656	56	5411
2026-01-27 09:31:00.24	358.13	24.28	-42.2	-46.1	12.0	3.09e-04	0	64	0	1004535808	56	5518
2026-01-27 09:31:01.25	358.02	24.13	-42.3	-46.3	11.8	3.49e-04	0	63	0	1006632960	56	5633
2026-01-27 09:31:02.26	357.91	23.99	-42.3	-46.4	11.7	4.86e-04	0	64	0	1008730112	56	5686
2026-01-27 09:31:03.27	357.80	23.85	-42.4	-46.6	11.5	6.19e-04	0	64	0	1010827264	56	5798
2026-01-27 09:31:04.27	357.70	23.71	-42.5	-46.8	11.3	9.63e-04	0	64	0	1012924416	56	5937
2026-01-27 09:31:05.29	357.59	23.56	-42.5	-46.8	11.2	1.22e-03	0	64	0	1013972992	56	5978
2026-01-27 09:31:06.29	357.49	23.42	-42.5	-47.0	11.0	1.50e-03	0	64	0	1016070144	56	6099
2026-01-27 09:31:07.30	357.38	23.28	-42.5	-47.0	11.0	1.69e-03	0	64	0	1018167296	56	6072
2026-01-27 09:31:08.31	357.28	23.15	-42.5	-47.0	10.9	1.96e-03	0	64	0	1020264448	56	6131
2026-01-27 09:31:09.32	357.18	23.01	-42.6	-47.1	10.9	2.24e-03	0	64	0	1022361600	56	6153
2026-01-27 09:31:10.33	357.08	22.87	-42.5	-47.0	10.9	2.23e-03	0	64	0	1023410176	56	6102
2026-01-27 09:31:11.34	356.98	22.73	-42.5	-46.9	11.0	1.79e-03	0	64	0	1025507328	56	6015
2026-01-27 09:31:12.35	356.88	22.60	-42.4	-46.8	11.1	1.54e-03	0	64	0	1027604480	56	5979
2026-01-27 09:31:13.37	356.78	22.46	-42.4	-46.8	11.1	1.52e-03	0	64	0	1029701632	56	5944
2026-01-27 09:31:14.38	356.69	22.32	-42.3	-46.7	11.2	1.31e-03	0	64	0	1031798784	56	5873
2026-01-27 09:31:15.39	356.59	22.19	-42.3	-46.6	11.2	1.40e-03	0	64	0	1032847360	56	5846
2026-01-27 09:31:16.40	356.50	22.05	-42.2	-46.5	11.2	1.43e-03	0	64	0	1034944512	56	5786
2026-01-27 09:31:17.41	356.40	21.92	-42.3	-46.8	10.9	1.90e-03	0	64	0	1037041664	56	5941
2026-01-27 09:31:18.42	356.31	21.79	-42.3	-46.9	10.7	3.01e-03	0	64	0	1039138816	56	6050
2026-01-27 09:31:19.43	356.22	21.66	-42.1	-46.6	10.9	2.63e-03	0	64	0	1041235968	56	5820
2026-01-27 09:31:20.44	356.12	21.52	-42.1	-46.6	10.9	2.18e-03	0	64	0	1042284544	56	5818
2026-01-27 09:31:21.45	356.03	21.39	-42.1	-46.7	10.7	2.54e-03	0	64	0	1044381696	56	5869
2026-01-27 09:31:22.46	355.94	21.26	-42.0	-46.7	10.5	3.41e-03	0	64	0	1046478848	56	5909
2026-01-27 09:31:23.47	355.85	21.13	-41.8	-46.6	10.4	3.89e-03	0	64	0	1048576000	55	6155
2026-01-27 09:31:24.48	355.76	21.00	-41.6	-46.2	10.7	3.72e-03	0	64	0	1050673152	55	5920
2026-01-27 09:31:25.49	355.68	20.88	-41.6	-46.3	10.6	3.11e-03	0	64	0	1051721728	55	5941
2026-01-27 09:31:26.50	355.59	20.75	-41.6	-46.5	10.2	5.29e-03	0	64	0	1053818880	55	6096
2026-01-27 09:31:27.51	355.50	20.62	-41.8	-47.5	9.0	1.45e-02	0	64	0	1055916032	55	6813
2026-01-27 09:31:28.52	355.42	20.49	-42.0	-48.3	8.0	3.93e-02	0	64	0	1058013184	55	7506
2026-01-27 09:31:29.53	355.33	20.37	-42.1	-49.4	6.8	1.54e-01	0	64	0	1060110336	55	8508
2026-01-27 09:31:30.54	355.25	20.24	-42.1	-50.5	5.8	3.13e-01	0	64	0	1061158912	55	9653
2026-01-27 09:31:31.55	355.17	20.12	-42.0	-51.5	4.9	5.47e-01	0	64	0	1063256064	55	10900
2026-01-27 09:31:32.57	355.08	19.99	-41.9	-52.6	4.4	1.05e+00	88	64	0	1065353216	55	12315
2026-01-27 09:31:33.58	355.00	19.87	-41.8	-53.5	4.1	1.40e+00	0	64	0	1066401792	55	13667
2026-01-27 09:31:34.58	354.92	19.74	-42.0	-53.5	4.1	1.48e+00	0	64	104	1066401792	55	13722
2026-01-27 09:31:35.59	354.84	19.62	-41.7	-55.3	3.8	1.45e+00	0	64	104	1066401792	55	16845
2026-01-27 09:31:36.60	354.76	19.50	-41.3	-55.8	3.8	1.49e+00	0	64	104	1066401792	54	18910
2026-01-27 09:31:37.61	354.68	19.38	-41.8	-54.9	3.8	1.49e+00	0	64	104	1066401792	54	16904
2026-01-27 09:31:38.62	354.60	19.26	-42.5	-55.2	3.8	1.49e+00	0	64	104	1066401792	56	15656
2026-01-27 09:31:39.63	354.52	19.13	-42.2	-55.4	3.8	1.49e+00	0	64	104	1066401792	56	16076
2026-01-27 09:31:40.64	354.45	19.01	-42.0	-55.6	3.8	1.49e+00	0	64	104	1066401792	56	16349
2026-01-27 09:31:41.66	354.37	18.89	-41.5	-55.7	3.8	1.49e+00	0	64	104	1066401792	55	17536
2026-01-27 09:31:42.67	354.29	18.77	-41.5	-55.9	3.8	1.49e+00	0	64	104	1066401792	54	19113
2026-01-27 09:31:43.68	354.22	18.66	-40.9	-55.4	3.8	1.49e+00	0	64	104	1066401792	53	19105
2026-01-27 09:31:44.69	354.14	18.54	-40.7	-55.3	3.8	1.49e+00	0	64	104	1066401792	53	18787
2026-01-27 09:31:45.70	354.07	18.42	-40.8	-55.3	3.8	1.49e+00	0	64	104	1066401792	53	18811
2026-01-27 09:31:46.71	353.99	18.30	-40.7	-55.2	3.8	1.49e+00	0	64	104	1066401792	53	18670
2026-01-27 09:31:47.72	353.92	18.19	-40.7	-55.2	3.8	1.49e+00	0	64	104	1066401792	53	18566
2026-01-27 09:31:48.73	353.85	18.07	-40.6	-55.2	3.8	1.49e+00	0	64	104	1066401792	53	18577
2026-01-27 09:31:49.74	353.78	17.95	-40.8	-55.3	3.8	1.49e+00	0	64	104	1066401792	53	18830
2026-01-27 09:31:50.75	353.71	17.84	-40.7	-55.2	3.8	1.49e+00	0	64	104	1066401792	53	18657
2026-01-27 09:31:51.76	353.64	17.72	-40.8	-55.4	3.8	1.49e+00	0	64	104	1066401792	53	19046
2026-01-27 09:31:52.77	353.56	17.61	-40.7	-55.3	3.8	1.49e+00	0	64	104	1066401792	53	18796
2026-01-27 09:31:53.78	353.50	17.50	-40.7	-55.2	3.8	1.49e+00	0	64	104	1066401792	53	18729
2026-01-27 09:31:54.79	353.43	17.38	-40.7	-55.2	3.8	1.49e+00	0	64	104	1066401792	53	18618
2026-01-27 09:31:55.80	353.36	17.27	-40.8	-55.3	3.8	1.49e+00	0	64	104	1066401792	53	18823
2026-01-27 09:31:56.81	353.29	17.16	-40.8	-55.3	3.8	1.49e+00	0	64	104	1066401792	53	18891
2026-01-27 09:31:57.82	353.22	17.05	-40.6	-55.2	3.8	1.49e+00	0	64	104	1066401792	53	18532
2026-01-27 09:31:58.83	353.16	16.94	-40.8	-55.3	3.8	1.49e+00	0	64	104	1066401792	53	18762
2026-01-27 09:31:59.84	353.09	16.82	-40.7	-55.2	3.8	1.49e+00	0	64	104	1066401792	53	18656
2026-01-27 09:32:00.85	353.02	16.71	-40.9	-55.4	3.8	1.49e+00	0	64	104	1066401792	53	19135
2026-01-27 09:32:01.86	352.96	16.60	-40.6	-55.2	3.8	1.49e+00	0	64	104	1066401792	53	18555
2026-01-27 09:32:02.87	352.89	16.49	-40.9	-55.4	3.8	1.49e+00	0	64	104	1066401792	53	19011
2026-01-27 09:32:03.88	352.83	16.39	-40.7	-55.2	3.8	1.49e+00	0	64	104	1066401792	53	18597
2026-01-27 09:32:04.89	352.76	16.28	-40.9	-55.4	3.8	1.49e+00	0	64	104	1066401792	53	19002
2026-01-27 09:32:05.89	352.70	16.17	-40.7	-55.2	3.8	1.49e+00	0	64	104	1066401792	53	18625
2026-01-27 09:32:06.90	352.64	16.06	-40.9	-55.4	3.8	1.49e+00	0	64	104	1066401792	53	19021
2026-01-27 09:32:07.91	352.58	15.96	-40.7	-55.2	3.8	1.49e+00	0	64	104	1066401792	53	18562
2026-01-27 09:32:08.92	352.51	15.85	-40.8	-55.3	3.8	1.49e+00	0	64	104	1066401792	53	18763
2026-01-27 09:32:09.93	352.45	15.74	-40.7	-55.3	3.8	1.49e+00	0	64	104	1066401792	53	18740
2026-01-27 09:32:10.94	352.39	15.64	-40.8	-55.3	3.8	1.49e+00	0	64	104	1066401792	53	18794
2026-01-27 09:32:11.95	352.33	15.53	-40.7	-55.3	3.8	1.49e+00	0	64	104	1066401792	53	18778
2026-01-27 09:32:12.96	352.27	15.43	-40.7	-55.2	3.8	1.49e+00	0	64	104	1066401792	53	18674
2026-01-27 09:32:13.97	352.21	15.32	-40.7	-55.2	3.8	1.49e+00	0	64	104	1066401792	53	18642
2026-01-27 09:32:14.98	352.15	15.22	-40.7	-55.2	3.8	1.49e+00	0	64	104	1066401792	53	18675
2026-01-27 09:32:15.99	352.09	15.11	-40.8	-55.4	3.8	1.49e+00	0	64	104	1066401792	53	18991
2026-01-27 09:32:17.00	352.04	15.01	-40.8	-55.3	3.8	1.49e+00	0	64	104	1066401792	53	18796
2026-01-27 09:32:18.02	351.98	14.91	-40.7	-55.3	3.8	1.49e+00	0	64	104	1066401792	53	18745
2026-01-27 09:32:19.03	351.92	14.80	-40.7	-55.2	3.8	1.49e+00	0	64	104	1066401792	53	18602
2026-01-27 09:32:20.04	351.86	14.70	-40.9	-55.4	3.8	1.49e+00	0	64	104	1066401792	53	19017
2026-01-27 09:32:21.05	351.81	14.60	-40.9	-55.4	3.8	1.49e+00	0	64	104	1066401792	53	19032
2026-01-27 09:32:22.06	351.75	14.50	-40.8	-55.3	3.8	1.49e+00	0	64	104	1066401792	53	18905
2026-01-27 09:32:23.07	351.69	14.40	-40.8	-55.3	3.8	1.49e+00	0	64	104	1066401792	53	18799
2026-01-27 09:32:24.08	351.64	14.30	-40.8	-55.3	3.8	1.49e+00	0	64	104	1066401792	53	18880
2026-01-27 09:32:25.09	351.58	14.20	-40.9	-55.5	3.8	1.49e+00	0	64	104	1066401792	53	19197
2026-01-27 09:32:26.09	351.53	14.10	-40.8	-55.4	3.8	1.49e+00	0	64	104	1066401792	53	18983
2026-01-27 09:32:27.10	351.47	14.00	-40.9	-55.4	3.8	1.49e+00	0	64	104	1066401792	53	19139
2026-01-27 09:32:28.11	351.42	13.90	-40.7	-55.2	3.8	1.49e+00	0	64	104	1066401792	53	18624
2026-01-27 09:32:29.12	351.37	13.80	-40.9	-55.4	3.8	1.49e+00	0	64	104	1066401792	53	18997
2026-01-27 09:32:30.13	351.31	13.70	-40.8	-55.3	3.8	1.49e+00	0	64	104	1066401792	53	18779
2026-01-27 09:32:31.15	351.26	13.60	-40.9	-55.4	3.8	1.49e+00	0	64	104	1066401792	53	19137
