passes_logs/2026/01/27/R2.0S_Moscow/R2.0S_Moscow__20260127_115315_NOAA_21_JPSS-2_rec.log

#Pass ID: 20260127_115315_NOAA 21 (JPSS-2)
#Satellite: NOAA 21 (JPSS-2)
#Configuration: NOAA-21
#almurnet v.1.7.20251203
#Start time: 2026-01-27 11:53:16

#Version: 2.2.20231116
#Station: R2.0S_Moscow
#Location: 37.707566 lon 55.798166 lat
#TLE: 1 54234U 22150A   26026.78373243  .00000177  00000+0  10458-3 0  9996
#TLE: 2 54234  98.7509 327.5416 0000822 208.1870 151.9262 14.19539807166482

#Time	Az	El	Level	Level2	SNR	BER	BlckErr	Temp	State	Recorded	gain1	gain2
2026-01-27 11:53:16.97	221.88	2.08	-45.0	-57.3	3.8	1.49e+00	0	59	0	0	60	15913
2026-01-27 11:53:17.97	221.97	2.13	-45.0	-57.3	3.8	1.49e+00	0	59	104	0	61	15047
2026-01-27 11:53:18.98	222.06	2.18	-45.0	-57.3	3.8	1.49e+00	0	59	104	0	61	15019
2026-01-27 11:53:19.99	222.15	2.23	-44.9	-57.3	3.8	1.49e+00	0	59	104	0	61	15043
2026-01-27 11:53:21.00	222.24	2.28	-44.7	-57.4	3.8	1.49e+00	0	59	104	0	61	15115
2026-01-27 11:53:22.01	222.33	2.33	-45.0	-57.3	3.8	1.49e+00	0	59	104	0	61	15042
2026-01-27 11:53:23.02	222.43	2.38	-45.0	-57.4	3.8	1.49e+00	0	59	104	0	61	15062
2026-01-27 11:53:24.03	222.52	2.43	-45.0	-57.4	3.8	1.49e+00	0	59	104	0	61	15079
2026-01-27 11:53:25.05	222.61	2.48	-45.0	-57.4	3.8	1.49e+00	0	59	104	0	61	15115
2026-01-27 11:53:26.06	222.71	2.53	-45.0	-57.3	3.8	1.49e+00	0	59	104	0	61	15037
2026-01-27 11:53:27.07	222.80	2.58	-44.9	-57.3	3.8	1.49e+00	0	60	104	0	61	15039
2026-01-27 11:53:28.08	222.89	2.63	-45.0	-57.3	3.8	1.49e+00	0	59	104	0	60	15938
2026-01-27 11:53:29.09	222.99	2.68	-45.0	-57.3	3.8	1.49e+00	0	59	104	0	60	15924
2026-01-27 11:53:30.10	223.08	2.73	-45.0	-57.4	3.8	1.49e+00	0	60	104	0	60	15946
2026-01-27 11:53:31.11	223.18	2.78	-45.0	-57.3	3.8	1.49e+00	0	60	104	0	60	15876
2026-01-27 11:53:32.12	223.27	2.83	-45.0	-57.3	3.8	1.49e+00	0	60	104	0	60	15937
2026-01-27 11:53:33.13	223.37	2.88	-45.0	-57.3	3.8	1.49e+00	0	60	104	0	60	15928
2026-01-27 11:53:34.14	223.46	2.93	-45.0	-57.3	3.8	1.49e+00	0	60	104	0	60	15931
2026-01-27 11:53:35.15	223.56	2.98	-45.0	-57.4	3.8	1.49e+00	0	60	104	0	60	15960
2026-01-27 11:53:36.16	223.66	3.03	-45.0	-57.4	3.8	1.49e+00	0	60	104	0	60	15956
2026-01-27 11:53:37.17	223.75	3.08	-45.0	-57.4	3.8	1.49e+00	0	60	104	0	60	15962
2026-01-27 11:53:38.18	223.85	3.13	-44.9	-57.3	3.8	1.49e+00	0	60	104	0	60	15909
2026-01-27 11:53:39.19	223.95	3.18	-45.0	-57.3	3.8	1.49e+00	0	60	104	0	60	15925
2026-01-27 11:53:40.20	224.05	3.23	-45.0	-57.4	3.8	1.49e+00	0	60	104	0	60	15973
2026-01-27 11:53:41.21	224.14	3.28	-45.0	-57.3	3.8	1.49e+00	0	60	104	0	60	15898
2026-01-27 11:53:42.22	224.24	3.33	-45.0	-57.3	3.8	1.49e+00	0	60	104	0	60	15880
2026-01-27 11:53:43.23	224.34	3.38	-45.0	-57.4	3.8	1.49e+00	0	60	104	0	60	15969
2026-01-27 11:53:44.24	224.44	3.43	-45.0	-57.4	3.8	1.49e+00	0	60	104	0	60	15960
2026-01-27 11:53:45.25	224.54	3.48	-44.7	-57.3	3.8	1.49e+00	0	60	104	0	60	15919
2026-01-27 11:53:46.26	224.64	3.53	-45.0	-57.3	3.8	1.49e+00	0	60	104	0	60	15926
2026-01-27 11:53:47.28	224.74	3.58	-45.0	-57.3	3.8	1.49e+00	0	60	104	0	60	15928
2026-01-27 11:53:48.29	224.84	3.63	-45.0	-57.4	3.8	1.49e+00	0	60	104	0	60	15955
2026-01-27 11:53:49.30	224.94	3.68	-45.0	-57.4	3.8	1.49e+00	0	60	104	0	60	15957
2026-01-27 11:53:50.31	225.04	3.73	-45.0	-57.3	3.8	1.49e+00	0	60	104	0	60	15916
2026-01-27 11:53:51.32	225.14	3.78	-45.0	-57.4	3.8	1.49e+00	0	60	104	0	60	15946
2026-01-27 11:53:52.33	225.24	3.83	-45.0	-57.4	3.8	1.49e+00	0	60	104	0	60	15976
2026-01-27 11:53:53.34	225.35	3.88	-45.0	-57.3	3.8	1.49e+00	0	60	104	0	60	15901
2026-01-27 11:53:54.35	225.45	3.93	-45.0	-57.3	3.8	1.49e+00	0	60	104	0	60	15937
2026-01-27 11:53:55.36	225.55	3.98	-45.0	-57.4	3.8	1.49e+00	0	60	104	0	60	15971
2026-01-27 11:53:56.37	225.65	4.03	-44.9	-57.3	3.8	1.49e+00	0	60	104	0	60	15942
2026-01-27 11:53:57.38	225.76	4.08	-45.0	-57.4	3.8	1.49e+00	0	61	104	0	60	16006
2026-01-27 11:53:58.39	225.86	4.13	-45.0	-57.4	3.8	1.49e+00	0	61	104	0	60	15978
2026-01-27 11:53:59.40	225.97	4.18	-45.0	-57.4	3.8	1.49e+00	0	60	104	0	60	16000
2026-01-27 11:54:00.41	226.07	4.23	-45.0	-57.3	3.8	1.49e+00	0	61	104	0	60	15900
2026-01-27 11:54:01.42	226.18	4.28	-45.0	-57.3	3.8	1.49e+00	0	60	104	0	60	15916
2026-01-27 11:54:02.43	226.28	4.33	-45.0	-57.4	3.8	1.49e+00	0	61	104	0	60	15956
2026-01-27 11:54:03.44	226.39	4.38	-45.0	-57.4	3.8	1.49e+00	0	61	104	0	60	16021
2026-01-27 11:54:04.45	226.49	4.43	-45.0	-57.4	3.8	1.49e+00	0	61	104	0	60	16009
2026-01-27 11:54:05.46	226.60	4.48	-45.0	-57.3	3.8	1.49e+00	0	61	104	0	60	15916
2026-01-27 11:54:06.47	226.70	4.53	-45.0	-57.4	3.8	1.49e+00	0	61	104	0	60	15992
2026-01-27 11:54:07.48	226.81	4.58	-45.0	-57.4	3.8	1.49e+00	0	61	104	0	60	16005
2026-01-27 11:54:08.49	226.92	4.63	-45.0	-57.4	3.8	1.49e+00	0	61	104	0	60	15947
2026-01-27 11:54:09.50	227.03	4.68	-45.0	-57.3	3.8	1.49e+00	0	61	104	0	60	15898
2026-01-27 11:54:10.51	227.13	4.73	-45.0	-57.3	3.8	1.49e+00	0	61	104	0	60	15929
2026-01-27 11:54:11.52	227.24	4.78	-45.0	-57.4	3.8	1.49e+00	0	61	104	0	60	15969
2026-01-27 11:54:12.54	227.35	4.84	-45.0	-57.4	3.8	1.49e+00	0	61	104	0	60	15955
2026-01-27 11:54:13.55	227.46	4.89	-45.0	-57.3	3.8	1.49e+00	0	61	104	0	60	15896
2026-01-27 11:54:14.56	227.57	4.94	-44.8	-57.4	3.8	1.49e+00	0	61	104	0	60	15969
2026-01-27 11:54:15.57	227.68	4.99	-45.0	-57.3	3.8	1.49e+00	0	61	104	0	60	15943
2026-01-27 11:54:16.58	227.79	5.04	-45.0	-57.4	3.8	1.49e+00	0	61	104	0	60	15998
2026-01-27 11:54:17.59	227.90	5.09	-45.0	-57.3	3.8	1.49e+00	0	61	104	0	60	15904
2026-01-27 11:54:18.60	228.01	5.14	-45.0	-57.3	3.8	1.49e+00	0	61	104	0	60	15940
2026-01-27 11:54:19.61	228.12	5.19	-45.0	-57.4	3.8	1.49e+00	0	61	104	0	60	15944
2026-01-27 11:54:20.62	228.23	5.24	-45.0	-57.4	3.8	1.49e+00	0	61	104	0	60	15965
2026-01-27 11:54:21.63	228.35	5.29	-45.0	-57.3	3.8	1.49e+00	0	61	104	0	60	15907
2026-01-27 11:54:22.65	228.46	5.34	-45.0	-57.4	3.8	1.49e+00	0	61	104	0	60	16016
2026-01-27 11:54:23.66	228.57	5.39	-45.0	-57.3	3.8	1.49e+00	0	61	104	0	60	15935
2026-01-27 11:54:24.67	228.69	5.44	-45.0	-57.4	3.8	1.49e+00	0	61	104	0	60	15993
2026-01-27 11:54:25.68	228.80	5.49	-45.0	-57.4	3.8	1.49e+00	0	61	104	0	60	15995
2026-01-27 11:54:26.69	228.91	5.54	-45.0	-57.4	3.8	1.49e+00	0	61	104	0	60	15982
2026-01-27 11:54:27.70	229.03	5.59	-45.0	-57.4	3.8	1.49e+00	0	61	104	0	60	15982
2026-01-27 11:54:28.71	229.14	5.65	-45.0	-57.4	3.8	1.49e+00	0	61	104	0	60	15977
2026-01-27 11:54:29.72	229.26	5.70	-45.0	-57.4	3.8	1.49e+00	0	61	104	0	60	15975
2026-01-27 11:54:30.73	229.37	5.75	-45.0	-57.4	3.8	1.49e+00	0	61	104	0	60	16024
2026-01-27 11:54:31.74	229.49	5.80	-45.0	-57.4	3.8	1.49e+00	0	61	104	0	60	15970
2026-01-27 11:54:32.75	229.60	5.85	-45.0	-57.4	3.8	1.49e+00	0	61	104	0	60	16027
2026-01-27 11:54:33.76	229.72	5.90	-45.0	-57.4	3.8	1.49e+00	0	61	104	0	60	15990
2026-01-27 11:54:34.77	229.84	5.95	-45.0	-57.4	3.8	1.49e+00	0	61	104	0	60	16032
2026-01-27 11:54:35.78	229.95	6.00	-44.7	-57.3	3.8	1.49e+00	0	61	104	0	60	15943
2026-01-27 11:54:36.79	230.07	6.05	-44.9	-57.4	3.8	1.49e+00	0	61	104	0	60	15964
2026-01-27 11:54:37.80	230.19	6.10	-45.0	-57.4	3.8	1.49e+00	0	61	104	0	60	15983
2026-01-27 11:54:38.81	230.31	6.15	-45.0	-57.3	3.8	1.49e+00	0	61	104	0	60	15928
2026-01-27 11:54:39.82	230.43	6.20	-44.9	-57.4	3.8	1.49e+00	0	61	104	0	60	15978
2026-01-27 11:54:40.83	230.55	6.25	-45.1	-57.4	3.8	1.49e+00	0	62	104	0	60	15962
2026-01-27 11:54:41.84	230.67	6.30	-45.0	-57.4	3.8	1.49e+00	0	61	104	0	60	16006
2026-01-27 11:54:42.85	230.79	6.35	-45.0	-57.4	3.8	1.49e+00	0	61	104	0	60	16071
2026-01-27 11:54:43.86	230.91	6.40	-44.6	-57.4	3.8	1.49e+00	0	61	104	0	60	15960
2026-01-27 11:54:44.87	231.03	6.46	-45.0	-57.4	3.8	1.49e+00	0	62	104	0	60	15997
2026-01-27 11:54:45.88	231.15	6.51	-45.0	-57.4	3.8	1.49e+00	0	62	104	0	60	15998
2026-01-27 11:54:46.89	231.27	6.56	-45.0	-57.4	3.8	1.49e+00	0	61	104	0	60	16003
2026-01-27 11:54:47.90	231.39	6.61	-45.0	-57.4	3.8	1.49e+00	0	61	104	0	60	15995
2026-01-27 11:54:48.91	231.52	6.66	-45.0	-57.4	3.8	1.49e+00	0	62	104	0	60	16033
2026-01-27 11:54:49.92	231.64	6.71	-44.9	-57.4	3.8	1.49e+00	0	61	104	0	60	16014
2026-01-27 11:54:50.93	231.76	6.76	-45.0	-57.4	3.8	1.49e+00	0	61	104	0	60	16011
2026-01-27 11:54:51.94	231.89	6.81	-45.0	-57.4	3.8	1.49e+00	0	61	104	0	60	16046
2026-01-27 11:54:52.95	232.01	6.86	-45.0	-57.4	3.8	1.49e+00	0	61	104	0	60	16007
2026-01-27 11:54:53.96	232.14	6.91	-45.0	-57.4	3.8	1.49e+00	0	62	104	0	60	15972
2026-01-27 11:54:54.97	232.26	6.96	-45.0	-57.4	3.8	1.49e+00	0	62	104	0	60	16042
2026-01-27 11:54:55.98	232.39	7.01	-44.9	-57.4	3.8	1.49e+00	0	62	104	0	60	16056
2026-01-27 11:54:56.99	232.51	7.06	-45.0	-57.4	3.8	1.49e+00	0	62	104	0	60	16022
2026-01-27 11:54:58.00	232.64	7.11	-45.0	-57.4	3.8	1.49e+00	0	61	104	0	60	15990
2026-01-27 11:54:59.01	232.76	7.16	-45.0	-57.4	3.8	1.49e+00	0	62	104	0	60	16046
2026-01-27 11:55:00.02	232.89	7.21	-45.0	-57.4	3.8	1.49e+00	0	62	104	0	60	16058
2026-01-27 11:55:01.03	233.02	7.26	-45.0	-57.4	3.8	1.49e+00	0	62	104	0	60	15990
2026-01-27 11:55:02.04	233.15	7.31	-45.0	-57.4	3.8	1.49e+00	0	62	104	0	60	15998
2026-01-27 11:55:03.05	233.28	7.36	-45.0	-57.4	3.8	1.49e+00	0	62	104	0	60	16059
2026-01-27 11:55:04.06	233.40	7.41	-45.0	-57.4	3.8	1.49e+00	0	62	104	0	60	16075
2026-01-27 11:55:05.07	233.53	7.46	-45.1	-57.4	3.8	1.49e+00	0	62	104	0	60	16058
2026-01-27 11:55:06.08	233.66	7.51	-45.0	-57.4	3.8	1.49e+00	0	62	104	0	60	16054
2026-01-27 11:55:07.09	233.79	7.56	-45.0	-57.4	3.8	1.49e+00	0	62	104	0	60	16008
2026-01-27 11:55:08.10	233.92	7.61	-45.0	-57.4	3.8	1.49e+00	0	62	104	0	60	16027
2026-01-27 11:55:09.11	234.06	7.66	-45.0	-57.4	3.8	1.49e+00	0	62	104	0	60	16036
2026-01-27 11:55:10.12	234.19	7.71	-45.0	-57.4	3.8	1.49e+00	0	62	104	0	60	16046
2026-01-27 11:55:11.13	234.32	7.77	-45.0	-57.4	3.8	1.49e+00	0	62	104	0	60	16010
2026-01-27 11:55:12.14	234.45	7.82	-45.0	-57.4	3.8	1.49e+00	0	62	104	0	60	16058
2026-01-27 11:55:13.15	234.58	7.87	-44.9	-57.4	3.8	1.49e+00	0	62	104	0	60	16095
2026-01-27 11:55:14.16	234.72	7.92	-45.0	-57.4	3.8	1.49e+00	0	62	104	0	60	16057
2026-01-27 11:55:15.17	234.85	7.97	-45.0	-57.4	3.8	1.49e+00	0	62	104	0	60	16000
2026-01-27 11:55:16.18	234.98	8.02	-45.0	-57.4	3.8	1.49e+00	0	62	104	0	60	16070
2026-01-27 11:55:17.19	235.12	8.06	-45.0	-57.4	3.8	1.49e+00	0	62	104	0	60	16067
2026-01-27 11:55:18.20	235.25	8.11	-45.1	-57.4	3.8	1.49e+00	0	62	104	0	60	16016
2026-01-27 11:55:19.21	235.39	8.16	-45.0	-57.4	3.8	1.49e+00	0	62	104	0	60	16044
2026-01-27 11:55:20.21	235.52	8.21	-45.0	-57.4	3.8	1.49e+00	0	62	104	0	60	16050
2026-01-27 11:55:21.22	235.66	8.26	-45.0	-57.4	3.8	1.49e+00	0	62	104	0	60	16103
2026-01-27 11:55:22.24	235.80	8.31	-45.0	-57.4	3.8	1.49e+00	0	62	104	0	60	16018
2026-01-27 11:55:23.25	235.94	8.36	-45.0	-57.4	3.8	1.49e+00	0	62	104	0	60	16069
2026-01-27 11:55:24.25	236.07	8.41	-45.0	-57.4	3.8	1.49e+00	0	62	104	0	60	16084
2026-01-27 11:55:25.27	236.21	8.46	-45.0	-57.4	3.8	1.49e+00	0	62	104	0	60	16031
2026-01-27 11:55:26.28	236.35	8.51	-45.0	-57.4	3.8	1.49e+00	0	62	104	0	60	16038
2026-01-27 11:55:27.29	236.49	8.56	-44.8	-57.4	3.8	1.49e+00	0	62	104	0	60	16096
2026-01-27 11:55:28.30	236.63	8.61	-45.1	-57.4	3.8	1.49e+00	0	62	104	0	60	16076
2026-01-27 11:55:29.31	236.77	8.66	-45.0	-57.4	3.8	1.49e+00	0	62	104	0	60	16113
2026-01-27 11:55:30.32	236.91	8.71	-45.1	-57.4	3.8	1.49e+00	0	62	104	0	60	16127
2026-01-27 11:55:31.33	237.05	8.76	-45.0	-57.4	3.8	1.49e+00	0	62	104	0	60	16117
2026-01-27 11:55:32.34	237.19	8.81	-45.0	-57.5	3.8	1.49e+00	0	62	104	0	60	16152
2026-01-27 11:55:33.35	237.33	8.86	-45.0	-57.4	3.8	1.49e+00	0	62	104	0	60	16019
2026-01-27 11:55:34.36	237.47	8.91	-45.0	-57.4	3.8	1.49e+00	0	62	104	0	60	16038
2026-01-27 11:55:35.37	237.62	8.96	-45.1	-57.4	3.8	1.49e+00	0	62	104	0	60	16102
2026-01-27 11:55:36.38	237.76	9.00	-45.1	-57.4	3.8	1.49e+00	0	62	104	0	60	16106
2026-01-27 11:55:37.39	237.90	9.05	-45.1	-57.4	3.8	1.49e+00	0	62	104	0	60	16069
2026-01-27 11:55:38.40	238.05	9.10	-45.1	-57.5	3.8	1.49e+00	0	62	104	0	60	16134
2026-01-27 11:55:39.41	238.19	9.15	-45.1	-57.4	3.8	1.49e+00	0	62	104	0	60	16097
2026-01-27 11:55:40.42	238.34	9.20	-45.0	-57.4	3.8	1.49e+00	0	62	104	0	60	16121
2026-01-27 11:55:41.44	238.49	9.25	-45.1	-57.4	3.8	1.49e+00	0	62	104	0	60	16103
2026-01-27 11:55:42.45	238.63	9.30	-45.1	-57.4	3.8	1.49e+00	0	62	104	0	60	16077
2026-01-27 11:55:43.46	238.78	9.35	-45.1	-57.5	3.8	1.49e+00	0	62	104	0	60	16140
2026-01-27 11:55:44.47	238.92	9.39	-45.1	-57.4	3.8	1.49e+00	0	62	104	0	60	16100
2026-01-27 11:55:45.48	239.07	9.44	-45.1	-57.4	3.8	1.49e+00	0	62	104	0	60	16042
2026-01-27 11:55:46.49	239.22	9.49	-45.1	-57.4	3.8	1.49e+00	0	62	104	0	60	16127
2026-01-27 11:55:47.50	239.37	9.54	-45.0	-57.5	3.8	1.49e+00	0	62	104	0	60	16136
2026-01-27 11:55:48.51	239.52	9.59	-45.1	-57.4	3.8	1.49e+00	0	62	104	0	60	16088
2026-01-27 11:55:49.52	239.67	9.64	-45.1	-57.4	3.8	1.49e+00	0	62	104	0	60	16126
2026-01-27 11:55:50.53	239.82	9.68	-45.1	-57.4	3.8	1.49e+00	0	62	104	0	60	16093
2026-01-27 11:55:51.54	239.97	9.73	-45.1	-57.5	3.8	1.49e+00	0	62	104	0	60	16161
2026-01-27 11:55:52.55	240.12	9.78	-45.1	-57.5	3.8	1.49e+00	0	62	104	0	60	16129
2026-01-27 11:55:53.56	240.27	9.83	-45.1	-57.4	3.8	1.49e+00	0	62	104	0	60	16116
2026-01-27 11:55:54.57	240.42	9.88	-45.1	-57.4	3.8	1.49e+00	0	62	104	0	60	16083
2026-01-27 11:55:55.58	240.57	9.92	-45.1	-57.4	3.8	1.49e+00	0	62	104	0	60	16092
2026-01-27 11:55:56.60	240.73	9.97	-45.1	-57.4	3.8	1.49e+00	0	62	104	0	60	16085
2026-01-27 11:55:57.61	240.88	10.02	-45.1	-57.5	3.8	1.49e+00	0	62	104	0	60	16134
2026-01-27 11:55:58.62	241.03	10.07	-45.1	-57.4	3.8	1.49e+00	0	62	104	0	60	16103
2026-01-27 11:55:59.63	241.19	10.11	-45.0	-57.4	3.8	1.49e+00	0	62	104	0	60	16098
2026-01-27 11:56:00.64	241.34	10.16	-45.1	-57.5	3.8	1.49e+00	0	62	104	0	60	16149
2026-01-27 11:56:01.65	241.50	10.21	-45.1	-57.5	3.8	1.49e+00	0	62	104	0	60	16163
2026-01-27 11:56:02.66	241.65	10.25	-45.1	-57.4	3.8	1.49e+00	0	62	104	0	60	16123
2026-01-27 11:56:03.67	241.81	10.30	-44.6	-57.4	3.8	1.49e+00	0	62	104	0	60	16101
2026-01-27 11:56:04.68	241.96	10.35	-45.1	-57.4	3.8	1.49e+00	0	62	104	0	60	16061
2026-01-27 11:56:05.69	242.12	10.39	-45.1	-57.5	3.8	1.49e+00	0	62	104	0	60	16141
2026-01-27 11:56:06.70	242.28	10.44	-45.1	-57.4	3.8	1.49e+00	0	62	104	0	60	16082
2026-01-27 11:56:07.71	242.44	10.49	-45.1	-57.5	3.8	1.49e+00	0	62	104	0	60	16132
2026-01-27 11:56:08.72	242.60	10.53	-45.1	-57.5	3.8	1.49e+00	0	62	104	0	60	16158
2026-01-27 11:56:09.73	242.75	10.58	-45.1	-57.5	3.8	1.49e+00	0	62	104	0	60	16148
2026-01-27 11:56:10.74	242.91	10.63	-45.1	-57.5	3.8	1.49e+00	0	62	104	0	60	16153
2026-01-27 11:56:11.75	243.07	10.67	-45.1	-57.4	3.8	1.49e+00	0	62	104	0	60	16120
2026-01-27 11:56:12.76	243.23	10.72	-45.1	-57.4	3.8	1.49e+00	0	62	104	0	60	16120
2026-01-27 11:56:13.77	243.39	10.76	-45.1	-57.4	3.8	1.49e+00	0	62	104	0	60	16117
2026-01-27 11:56:14.78	243.56	10.81	-45.1	-57.4	3.8	1.49e+00	0	62	104	0	60	16097
2026-01-27 11:56:15.79	243.72	10.86	-45.1	-57.4	3.8	1.49e+00	0	62	104	0	60	16082
2026-01-27 11:56:16.80	243.88	10.90	-45.1	-57.5	3.8	1.49e+00	0	62	104	0	60	16151
2026-01-27 11:56:17.81	244.04	10.95	-45.1	-57.5	3.8	1.49e+00	0	62	104	0	60	16177
2026-01-27 11:56:18.83	244.21	10.99	-45.1	-57.5	3.8	1.49e+00	0	62	104	0	60	16180
2026-01-27 11:56:19.84	244.37	11.04	-45.1	-57.5	3.8	1.49e+00	0	62	104	0	60	16170
2026-01-27 11:56:20.85	244.54	11.08	-45.1	-57.5	3.8	1.49e+00	0	62	104	0	60	16176
2026-01-27 11:56:21.86	244.70	11.13	-45.1	-57.4	3.8	1.49e+00	0	62	104	0	60	16114
2026-01-27 11:56:22.87	244.87	11.17	-45.1	-57.5	3.8	1.49e+00	0	62	104	0	60	16132
2026-01-27 11:56:23.88	245.03	11.22	-45.1	-57.4	3.8	1.49e+00	0	62	104	0	60	16112
2026-01-27 11:56:24.89	245.20	11.26	-45.1	-57.4	3.8	1.49e+00	0	62	104	0	60	16100
2026-01-27 11:56:25.90	245.36	11.31	-45.1	-57.5	3.8	1.49e+00	0	62	104	0	60	16204
2026-01-27 11:56:26.91	245.53	11.35	-45.1	-57.4	3.8	1.49e+00	0	62	104	0	60	16121
2026-01-27 11:56:27.92	245.70	11.39	-45.1	-57.5	3.8	1.49e+00	0	62	104	0	60	16140
2026-01-27 11:56:28.93	245.87	11.44	-45.1	-57.5	3.8	1.49e+00	0	62	104	0	60	16148
2026-01-27 11:56:29.94	246.04	11.48	-45.1	-57.5	3.8	1.49e+00	0	62	104	0	60	16130
2026-01-27 11:56:30.96	246.21	11.53	-45.1	-57.4	3.8	1.49e+00	0	62	104	0	60	16080
2026-01-27 11:56:31.97	246.38	11.57	-45.1	-57.5	3.8	1.49e+00	0	62	104	0	60	16157
2026-01-27 11:56:32.98	246.55	11.61	-45.1	-57.4	3.8	1.49e+00	0	62	104	0	60	16088
2026-01-27 11:56:33.99	246.72	11.66	-44.9	-57.4	3.8	1.49e+00	0	62	104	0	60	16110
2026-01-27 11:56:35.00	246.89	11.70	-45.0	-57.5	3.8	1.49e+00	0	62	104	0	60	16166
2026-01-27 11:56:36.01	247.06	11.74	-45.1	-57.4	3.8	1.49e+00	0	62	104	0	60	16094
2026-01-27 11:56:37.02	247.23	11.78	-45.1	-57.4	3.8	1.49e+00	0	62	104	0	60	16089
2026-01-27 11:56:38.03	247.41	11.83	-45.1	-57.5	3.8	1.49e+00	0	62	104	0	60	16148
2026-01-27 11:56:39.04	247.58	11.87	-45.1	-57.5	3.8	1.49e+00	0	62	104	0	60	16130
2026-01-27 11:56:40.05	247.75	11.91	-45.1	-57.4	3.8	1.49e+00	0	62	104	0	60	16109
2026-01-27 11:56:41.06	247.93	11.95	-45.1	-57.5	3.8	1.49e+00	0	62	104	0	60	16234
2026-01-27 11:56:42.07	248.10	12.00	-45.1	-57.4	3.8	1.49e+00	0	62	104	0	60	16108
2026-01-27 11:56:43.08	248.27	12.04	-45.1	-57.4	3.8	1.49e+00	0	62	104	0	60	16088
2026-01-27 11:56:44.09	248.45	12.08	-45.1	-57.4	3.8	1.49e+00	0	62	104	0	60	16119
2026-01-27 11:56:45.10	248.63	12.12	-45.1	-57.5	3.8	1.49e+00	0	62	104	0	60	16153
2026-01-27 11:56:46.11	248.80	12.16	-45.1	-57.4	3.8	1.49e+00	0	62	104	0	60	16121
2026-01-27 11:56:47.12	248.98	12.20	-45.1	-57.4	3.8	1.49e+00	0	62	104	0	60	16107
2026-01-27 11:56:48.13	249.16	12.24	-45.1	-57.5	3.8	1.49e+00	0	62	104	0	60	16151
2026-01-27 11:56:49.15	249.34	12.28	-45.1	-57.4	3.8	1.49e+00	0	62	104	0	60	16090
2026-01-27 11:56:50.16	249.51	12.32	-45.1	-57.5	3.8	1.49e+00	0	62	104	0	60	16185
2026-01-27 11:56:51.17	249.69	12.36	-45.1	-57.4	3.8	1.49e+00	0	62	104	0	60	16073
2026-01-27 11:56:52.18	249.87	12.40	-45.1	-57.4	3.8	1.49e+00	0	62	104	0	60	16120
2026-01-27 11:56:53.19	250.05	12.44	-45.1	-57.4	3.8	1.49e+00	0	62	104	0	60	16123
2026-01-27 11:56:54.20	250.23	12.48	-45.1	-57.5	3.8	1.49e+00	0	62	104	0	60	16158
2026-01-27 11:56:55.21	250.41	12.52	-45.1	-57.4	3.8	1.49e+00	0	62	104	0	60	16104
2026-01-27 11:56:56.22	250.59	12.56	-45.1	-57.5	3.8	1.49e+00	0	62	104	0	60	16180
2026-01-27 11:56:57.23	250.78	12.60	-45.1	-57.5	3.8	1.49e+00	0	62	104	0	60	16139
2026-01-27 11:56:58.24	250.96	12.64	-45.1	-57.5	3.8	1.49e+00	0	62	104	0	60	16209
2026-01-27 11:56:59.25	251.14	12.68	-45.1	-57.5	3.8	1.49e+00	0	62	104	0	60	16191
2026-01-27 11:57:00.26	251.32	12.72	-45.1	-57.5	3.8	1.49e+00	0	62	104	0	60	16153
2026-01-27 11:57:01.27	251.51	12.76	-45.1	-57.5	3.8	1.49e+00	0	62	104	0	60	16145
2026-01-27 11:57:02.28	251.69	12.80	-45.0	-57.4	3.8	1.49e+00	0	62	104	0	60	16056
2026-01-27 11:57:03.29	251.88	12.83	-45.1	-57.5	3.8	1.49e+00	0	62	104	0	60	16152
2026-01-27 11:57:04.30	252.06	12.87	-44.9	-57.4	3.8	1.49e+00	0	62	104	0	60	16126
2026-01-27 11:57:05.31	252.25	12.91	-45.1	-57.5	3.8	1.49e+00	0	62	104	0	60	16186
2026-01-27 11:57:06.33	252.43	12.95	-45.1	-57.5	3.8	1.49e+00	0	62	104	0	60	16164
2026-01-27 11:57:07.33	252.62	12.98	-45.1	-57.5	3.8	1.49e+00	0	63	104	0	60	16158
2026-01-27 11:57:08.35	252.81	13.02	-45.1	-57.5	3.8	1.49e+00	0	62	104	0	60	16143
2026-01-27 11:57:09.36	252.99	13.06	-45.1	-57.4	3.8	1.49e+00	0	62	104	0	60	16113
2026-01-27 11:57:10.37	253.18	13.09	-45.1	-57.5	3.8	1.49e+00	0	62	104	0	60	16225
2026-01-27 11:57:11.38	253.37	13.13	-45.1	-57.4	3.8	1.49e+00	0	62	104	0	60	16106
2026-01-27 11:57:12.39	253.56	13.17	-45.1	-57.4	3.8	1.49e+00	0	62	104	0	60	16100
2026-01-27 11:57:13.40	253.75	13.20	-45.1	-57.5	3.8	1.49e+00	0	62	104	0	60	16164
2026-01-27 11:57:14.41	253.94	13.24	-45.1	-57.5	3.8	1.49e+00	0	62	104	0	60	16171
2026-01-27 11:57:15.42	254.12	13.27	-45.1	-57.4	3.8	1.49e+00	0	62	104	0	60	16125
2026-01-27 11:57:16.43	254.32	13.31	-45.1	-57.5	3.8	1.49e+00	0	62	104	0	60	16212
2026-01-27 11:57:17.44	254.51	13.34	-45.1	-57.5	3.8	1.49e+00	0	63	104	0	60	16204
2026-01-27 11:57:18.45	254.70	13.38	-45.1	-57.5	3.8	1.49e+00	0	62	104	0	60	16183
2026-01-27 11:57:19.46	254.89	13.41	-45.1	-57.5	3.8	1.49e+00	0	62	104	0	60	16131
2026-01-27 11:57:20.47	255.08	13.44	-45.1	-57.5	3.8	1.49e+00	0	62	104	0	60	16144
2026-01-27 11:57:21.48	255.27	13.48	-45.1	-57.5	3.8	1.49e+00	0	62	104	0	60	16161
2026-01-27 11:57:22.49	255.47	13.51	-45.1	-57.5	3.8	1.49e+00	0	62	104	0	60	16148
2026-01-27 11:57:23.51	255.66	13.55	-45.1	-57.5	3.8	1.49e+00	0	62	104	0	60	16151
2026-01-27 11:57:24.52	255.85	13.58	-45.1	-57.5	3.8	1.49e+00	0	62	104	0	60	16153
2026-01-27 11:57:25.53	256.05	13.61	-45.1	-57.5	3.8	1.49e+00	0	62	104	0	60	16134
2026-01-27 11:57:26.54	256.24	13.64	-45.0	-57.4	3.8	1.49e+00	0	62	104	0	60	16115
2026-01-27 11:57:27.55	256.44	13.68	-45.1	-57.5	3.8	1.49e+00	0	62	104	0	60	16129
2026-01-27 11:57:28.56	256.63	13.71	-45.1	-57.5	3.8	1.49e+00	0	62	104	0	60	16137
2026-01-27 11:57:29.57	256.83	13.74	-45.1	-57.5	3.8	1.49e+00	0	62	104	0	60	16142
2026-01-27 11:57:30.58	257.02	13.77	-45.1	-57.5	3.8	1.49e+00	0	62	104	0	60	16139
2026-01-27 11:57:31.59	257.22	13.80	-45.1	-57.4	3.8	1.49e+00	0	63	104	0	60	16089
2026-01-27 11:57:32.60	257.42	13.83	-45.1	-57.5	3.8	1.49e+00	0	62	104	0	60	16143
2026-01-27 11:57:33.61	257.61	13.86	-45.1	-57.4	3.8	1.49e+00	0	63	104	0	60	16120
2026-01-27 11:57:34.62	257.81	13.89	-45.1	-57.5	3.8	1.49e+00	0	63	104	0	60	16155
2026-01-27 11:57:35.63	258.01	13.92	-45.1	-57.4	3.8	1.49e+00	0	62	104	0	60	16115
2026-01-27 11:57:36.64	258.21	13.95	-45.1	-57.5	3.8	1.49e+00	0	63	104	0	60	16227
2026-01-27 11:57:37.65	258.41	13.98	-45.1	-57.4	3.8	1.49e+00	0	63	104	0	60	16074
2026-01-27 11:57:38.67	258.61	14.01	-45.1	-57.5	3.8	1.49e+00	0	62	104	0	60	16133
2026-01-27 11:57:39.68	258.81	14.04	-45.1	-57.5	3.8	1.49e+00	0	62	104	0	60	16155
2026-01-27 11:57:40.69	259.01	14.07	-45.1	-57.5	3.8	1.49e+00	0	63	104	0	60	16137
2026-01-27 11:57:41.70	259.21	14.10	-45.1	-57.4	3.8	1.49e+00	0	63	104	0	60	16111
2026-01-27 11:57:42.71	259.41	14.13	-45.1	-57.4	3.8	1.49e+00	0	63	104	0	60	16061
2026-01-27 11:57:43.72	259.61	14.15	-45.1	-57.5	3.8	1.49e+00	0	63	104	0	60	16154
2026-01-27 11:57:44.73	259.81	14.18	-45.1	-57.5	3.8	1.49e+00	0	63	104	0	60	16132
2026-01-27 11:57:45.74	260.01	14.21	-45.1	-57.4	3.8	1.49e+00	0	63	104	0	60	16114
2026-01-27 11:57:46.75	260.22	14.24	-45.1	-57.5	3.8	1.49e+00	0	62	104	0	60	16152
2026-01-27 11:57:47.76	260.42	14.26	-45.1	-57.5	3.8	1.49e+00	0	62	104	0	60	16150
2026-01-27 11:57:48.77	260.62	14.29	-45.1	-57.5	3.8	1.49e+00	0	62	104	0	60	16138
2026-01-27 11:57:49.78	260.82	14.32	-45.1	-57.5	3.8	1.49e+00	0	63	104	0	60	16160
2026-01-27 11:57:50.79	261.03	14.34	-45.0	-57.5	3.8	1.49e+00	0	63	104	0	60	16162
2026-01-27 11:57:51.80	261.23	14.37	-45.1	-57.4	3.8	1.49e+00	0	63	104	0	60	16114
2026-01-27 11:57:52.81	261.44	14.39	-45.1	-57.5	3.8	1.49e+00	0	63	104	0	60	16161
2026-01-27 11:57:53.82	261.64	14.42	-45.0	-57.5	3.8	1.49e+00	0	63	104	0	60	16159
2026-01-27 11:57:54.83	261.84	14.44	-45.1	-57.4	3.8	1.49e+00	0	63	104	0	60	16097
2026-01-27 11:57:55.84	262.05	14.46	-45.1	-57.4	3.8	1.49e+00	0	63	104	0	60	16077
2026-01-27 11:57:56.85	262.26	14.49	-45.0	-57.5	3.8	1.49e+00	0	63	104	0	60	16211
2026-01-27 11:57:57.86	262.46	14.51	-45.0	-57.4	3.8	1.49e+00	0	62	104	0	60	16117
2026-01-27 11:57:58.87	262.67	14.53	-45.1	-57.5	3.8	1.49e+00	0	63	104	0	60	16143
2026-01-27 11:57:59.88	262.87	14.56	-45.1	-57.4	3.8	1.49e+00	0	63	104	0	60	16104
2026-01-27 11:58:00.89	263.08	14.58	-45.1	-57.5	3.8	1.49e+00	0	62	104	0	60	16190
2026-01-27 11:58:01.90	263.29	14.60	-45.1	-57.5	3.8	1.49e+00	0	63	104	0	60	16166
2026-01-27 11:58:02.91	263.49	14.62	-45.0	-57.4	3.8	1.49e+00	0	63	104	0	60	16119
2026-01-27 11:58:03.92	263.70	14.65	-45.1	-57.4	3.8	1.49e+00	0	63	104	0	60	16082
2026-01-27 11:58:04.94	263.91	14.67	-45.1	-57.4	3.8	1.49e+00	0	62	104	0	60	16114
2026-01-27 11:58:05.95	264.12	14.69	-45.1	-57.4	3.8	1.49e+00	0	63	104	0	60	16054
2026-01-27 11:58:06.96	264.33	14.71	-45.0	-57.5	3.8	1.49e+00	0	63	104	0	60	16129
2026-01-27 11:58:07.97	264.54	14.73	-45.1	-57.4	3.8	1.49e+00	0	63	104	0	60	16077
2026-01-27 11:58:08.98	264.75	14.75	-45.1	-57.4	3.8	1.49e+00	0	63	104	0	60	16043
2026-01-27 11:58:09.99	264.96	14.77	-45.1	-57.5	3.8	1.49e+00	0	63	104	0	60	16153
2026-01-27 11:58:11.00	265.16	14.79	-45.1	-57.5	3.8	1.49e+00	0	63	104	0	60	16140
2026-01-27 11:58:12.01	265.37	14.81	-45.1	-57.5	3.8	1.49e+00	0	63	104	0	60	16163
2026-01-27 11:58:13.02	265.58	14.82	-45.1	-57.4	3.8	1.49e+00	0	63	104	0	60	16119
2026-01-27 11:58:14.03	265.79	14.84	-45.0	-57.5	3.8	1.49e+00	0	63	104	0	60	16165
2026-01-27 11:58:15.04	266.01	14.86	-45.1	-57.4	3.8	1.49e+00	0	63	104	0	60	16077
2026-01-27 11:58:16.05	266.22	14.88	-45.1	-57.5	3.8	1.49e+00	0	63	104	0	60	16152
2026-01-27 11:58:17.06	266.43	14.90	-45.1	-57.5	3.8	1.49e+00	0	63	104	0	60	16145
2026-01-27 11:58:18.07	266.64	14.91	-45.1	-57.4	3.8	1.49e+00	0	63	104	0	60	16089
2026-01-27 11:58:19.08	266.85	14.93	-45.0	-57.5	3.8	1.49e+00	0	63	104	0	60	16149
2026-01-27 11:58:20.09	267.06	14.94	-45.1	-57.4	3.8	1.49e+00	0	63	104	0	60	16122
2026-01-27 11:58:21.10	267.27	14.96	-45.0	-57.4	3.8	1.49e+00	0	63	104	0	60	16084
2026-01-27 11:58:22.11	267.48	14.98	-45.1	-57.5	3.8	1.49e+00	0	63	104	0	60	16154
2026-01-27 11:58:23.12	267.70	14.99	-45.1	-57.4	3.8	1.49e+00	0	62	104	0	60	16096
2026-01-27 11:58:24.14	267.91	15.00	-45.0	-57.4	3.8	1.49e+00	0	63	104	0	60	16069
2026-01-27 11:58:25.15	268.12	15.02	-45.1	-57.4	3.8	1.49e+00	0	63	104	0	60	16098
2026-01-27 11:58:26.16	268.34	15.03	-45.1	-57.4	3.8	1.49e+00	0	62	104	0	60	16103
2026-01-27 11:58:27.17	268.55	15.05	-45.1	-57.4	3.8	1.49e+00	0	63	104	0	60	16084
2026-01-27 11:58:28.18	268.76	15.06	-45.1	-57.5	3.8	1.49e+00	0	63	104	0	60	16164
2026-01-27 11:58:29.19	268.98	15.07	-45.1	-57.4	3.8	1.49e+00	0	63	104	0	60	16106
2026-01-27 11:58:30.20	269.19	15.08	-45.1	-57.5	3.8	1.49e+00	0	63	104	0	60	16130
2026-01-27 11:58:31.21	269.40	15.10	-45.0	-57.5	3.8	1.49e+00	0	63	104	0	60	16179
2026-01-27 11:58:32.22	269.62	15.11	-45.0	-57.4	3.8	1.49e+00	0	63	104	0	60	16071
2026-01-27 11:58:33.23	269.83	15.12	-45.1	-57.4	3.8	1.49e+00	0	63	104	0	60	16113
2026-01-27 11:58:34.24	270.05	15.13	-45.0	-57.5	3.8	1.49e+00	0	62	104	0	60	16163
2026-01-27 11:58:35.25	270.26	15.14	-45.1	-57.5	3.8	1.49e+00	0	63	104	0	60	16137
2026-01-27 11:58:36.26	270.48	15.15	-45.1	-57.4	3.8	1.49e+00	0	63	104	0	60	16115
2026-01-27 11:58:37.28	270.69	15.16	-45.1	-57.4	3.8	1.49e+00	0	63	104	0	60	16119
2026-01-27 11:58:38.29	270.91	15.17	-45.1	-57.4	3.8	1.49e+00	0	63	104	0	60	16110
2026-01-27 11:58:39.30	271.12	15.18	-45.0	-57.4	3.8	1.49e+00	0	63	104	0	60	16108
2026-01-27 11:58:40.31	271.34	15.19	-45.0	-57.5	3.8	1.49e+00	0	63	104	0	60	16171
2026-01-27 11:58:41.32	271.55	15.20	-45.0	-57.4	3.8	1.49e+00	0	62	104	0	60	16126
2026-01-27 11:58:42.33	271.77	15.21	-45.0	-57.4	3.8	1.49e+00	0	63	104	0	60	16035
2026-01-27 11:58:43.34	271.98	15.21	-45.1	-57.4	3.8	1.49e+00	0	63	104	0	60	16115
2026-01-27 11:58:44.35	272.20	15.22	-45.0	-57.4	3.8	1.49e+00	0	63	104	0	60	16069
2026-01-27 11:58:45.36	272.41	15.23	-45.0	-57.4	3.8	1.49e+00	0	63	104	0	60	16122
2026-01-27 11:58:46.37	272.63	15.23	-45.0	-57.5	3.8	1.49e+00	0	63	104	0	60	16138
2026-01-27 11:58:47.38	272.84	15.24	-45.0	-57.4	3.8	1.49e+00	0	63	104	0	60	16101
2026-01-27 11:58:48.39	273.06	15.25	-45.1	-57.4	3.8	1.49e+00	0	63	104	0	60	16060
2026-01-27 11:58:49.40	273.28	15.25	-45.0	-57.5	3.8	1.49e+00	0	63	104	0	60	16152
2026-01-27 11:58:50.41	273.49	15.26	-45.0	-57.4	3.8	1.49e+00	0	63	104	0	60	16026
2026-01-27 11:58:51.43	273.71	15.26	-45.0	-57.5	3.8	1.49e+00	0	63	104	0	60	16139
2026-01-27 11:58:52.44	273.93	15.26	-45.0	-57.4	3.8	1.49e+00	0	63	104	0	60	16072
2026-01-27 11:58:53.45	274.14	15.27	-45.0	-57.4	3.8	1.49e+00	0	63	104	0	60	16120
2026-01-27 11:58:54.46	274.36	15.27	-45.0	-57.5	3.8	1.49e+00	0	63	104	0	60	16133
2026-01-27 11:58:55.47	274.57	15.27	-45.0	-57.4	3.8	1.49e+00	0	63	104	0	60	16099
2026-01-27 11:58:56.48	274.79	15.28	-45.0	-57.4	3.8	1.49e+00	0	63	104	0	60	16110
2026-01-27 11:58:57.49	275.01	15.28	-45.0	-57.5	3.8	1.49e+00	0	63	104	0	60	16136
2026-01-27 11:58:58.49	275.22	15.28	-45.0	-57.5	3.8	1.49e+00	0	63	104	0	60	16151
2026-01-27 11:58:59.50	275.44	15.28	-45.0	-57.4	3.8	1.49e+00	0	63	104	0	60	16082
2026-01-27 11:59:00.51	275.65	15.28	-45.0	-57.4	3.8	1.49e+00	0	63	104	0	60	16117
2026-01-27 11:59:01.52	275.87	15.28	-45.0	-57.4	3.8	1.49e+00	0	63	104	0	60	16107
2026-01-27 11:59:02.53	276.09	15.28	-45.1	-57.4	3.8	1.49e+00	0	63	104	0	60	16096
2026-01-27 11:59:03.55	276.30	15.28	-45.0	-57.4	3.8	1.49e+00	0	63	104	0	60	16086
2026-01-27 11:59:04.55	276.52	15.28	-45.0	-57.4	3.8	1.49e+00	0	63	104	0	60	16114
2026-01-27 11:59:05.57	276.74	15.28	-45.0	-57.4	3.8	1.49e+00	0	63	104	0	60	16101
2026-01-27 11:59:06.57	276.95	15.28	-45.0	-57.4	3.8	1.49e+00	0	63	104	0	60	16061
2026-01-27 11:59:07.59	277.17	15.28	-45.0	-57.5	3.8	1.49e+00	0	63	104	0	60	16136
2026-01-27 11:59:08.60	277.39	15.28	-45.0	-57.4	3.8	1.49e+00	0	63	104	0	60	16076
2026-01-27 11:59:09.61	277.60	15.28	-45.0	-57.4	3.8	1.49e+00	0	63	104	0	60	15992
2026-01-27 11:59:10.62	277.82	15.27	-45.0	-57.4	3.8	1.49e+00	0	63	104	0	60	16083
2026-01-27 11:59:11.63	278.03	15.27	-45.0	-57.4	3.8	1.49e+00	0	63	104	0	60	16072
2026-01-27 11:59:12.64	278.25	15.27	-45.0	-57.4	3.8	1.49e+00	0	63	104	0	60	16076
2026-01-27 11:59:13.65	278.47	15.26	-45.0	-57.4	3.8	1.49e+00	0	63	104	0	60	16072
2026-01-27 11:59:14.66	278.68	15.26	-45.0	-57.4	3.8	1.49e+00	0	63	104	0	60	16044
2026-01-27 11:59:15.67	278.90	15.25	-45.0	-57.4	3.8	1.49e+00	0	63	104	0	60	16107
2026-01-27 11:59:16.68	279.11	15.25	-45.0	-57.4	3.8	1.49e+00	0	63	104	0	60	16081
2026-01-27 11:59:17.69	279.33	15.24	-45.0	-57.4	3.8	1.49e+00	0	63	104	0	60	16103
2026-01-27 11:59:18.69	279.54	15.24	-45.0	-57.4	3.8	1.49e+00	0	63	104	0	60	16096
2026-01-27 11:59:19.70	279.76	15.23	-45.0	-57.4	3.8	1.49e+00	0	63	104	0	60	16069
2026-01-27 11:59:20.71	279.97	15.23	-45.0	-57.4	3.8	1.49e+00	0	63	104	0	60	16081
2026-01-27 11:59:21.72	280.19	15.22	-45.0	-57.4	3.8	1.49e+00	0	63	104	0	60	16103
2026-01-27 11:59:22.74	280.41	15.21	-45.0	-57.4	3.8	1.49e+00	0	63	104	0	60	16031
2026-01-27 11:59:23.74	280.62	15.20	-45.0	-57.4	3.8	1.49e+00	0	63	104	0	60	16061
2026-01-27 11:59:24.75	280.83	15.20	-45.0	-57.4	3.8	1.49e+00	0	63	104	0	60	16086
2026-01-27 11:59:25.76	281.05	15.19	-45.0	-57.4	3.8	1.49e+00	0	63	104	0	60	16087
2026-01-27 11:59:26.77	281.26	15.18	-45.0	-57.4	3.8	1.49e+00	0	63	104	0	60	16121
2026-01-27 11:59:27.78	281.48	15.17	-45.0	-57.5	3.8	1.49e+00	0	63	104	0	60	16160
2026-01-27 11:59:28.79	281.69	15.16	-45.0	-57.4	3.8	1.49e+00	0	63	104	0	60	16079
2026-01-27 11:59:29.80	281.91	15.15	-45.0	-57.4	3.8	1.49e+00	0	63	104	0	60	16056
2026-01-27 11:59:30.82	282.12	15.14	-45.0	-57.4	3.8	1.49e+00	0	63	104	0	60	16059
2026-01-27 11:59:31.83	282.34	15.13	-45.0	-57.4	3.8	1.49e+00	0	63	104	0	60	16071
2026-01-27 11:59:32.84	282.55	15.12	-45.0	-57.4	3.8	1.49e+00	0	63	104	0	60	16078
2026-01-27 11:59:33.85	282.76	15.11	-45.0	-57.4	3.8	1.49e+00	0	63	104	0	60	16069
2026-01-27 11:59:34.86	282.98	15.10	-45.0	-57.4	3.8	1.49e+00	0	63	104	0	60	16087
2026-01-27 11:59:35.87	283.19	15.08	-45.0	-57.4	3.8	1.49e+00	0	63	104	0	60	16021
2026-01-27 11:59:36.88	283.41	15.07	-45.0	-57.4	3.8	1.49e+00	0	63	104	0	60	16109
2026-01-27 11:59:37.89	283.62	15.06	-45.0	-57.5	3.8	1.49e+00	0	63	104	0	60	16175
2026-01-27 11:59:38.90	283.83	15.05	-45.0	-57.5	3.8	1.49e+00	0	63	104	0	60	16140
2026-01-27 11:59:39.91	284.04	15.03	-45.0	-57.4	3.8	1.49e+00	0	63	104	0	60	16035
2026-01-27 11:59:40.92	284.26	15.02	-45.0	-57.4	3.8	1.49e+00	0	63	104	0	60	16112
2026-01-27 11:59:41.93	284.47	15.00	-45.0	-57.4	3.8	1.49e+00	0	63	104	0	60	16092
2026-01-27 11:59:42.94	284.68	14.99	-45.0	-57.4	3.8	1.49e+00	0	63	104	0	60	16088
2026-01-27 11:59:43.95	284.89	14.97	-45.0	-57.4	3.8	1.49e+00	0	63	104	0	60	16104
2026-01-27 11:59:44.96	285.10	14.96	-45.0	-57.4	3.8	1.49e+00	0	63	104	0	60	16091
2026-01-27 11:59:45.97	285.32	14.94	-45.0	-57.4	3.8	1.49e+00	0	63	104	0	60	16115
2026-01-27 11:59:46.98	285.53	14.93	-45.0	-57.4	3.8	1.49e+00	0	63	104	0	60	16073
2026-01-27 11:59:47.99	285.74	14.91	-45.0	-57.4	3.8	1.49e+00	0	63	104	0	60	16045
2026-01-27 11:59:49.00	285.95	14.89	-45.0	-57.4	3.8	1.49e+00	0	63	104	0	60	16124
2026-01-27 11:59:50.01	286.16	14.88	-45.0	-57.4	3.8	1.49e+00	0	63	104	0	60	16125
2026-01-27 11:59:51.02	286.37	14.86	-45.0	-57.5	3.8	1.49e+00	0	63	104	0	60	16166
2026-01-27 11:59:52.03	286.58	14.84	-45.0	-57.4	3.8	1.49e+00	0	63	104	0	60	16003
2026-01-27 11:59:53.04	286.79	14.82	-45.0	-57.4	3.8	1.49e+00	0	63	104	0	60	16091
2026-01-27 11:59:54.05	287.00	14.81	-45.0	-57.4	3.8	1.49e+00	0	63	104	0	60	16043
2026-01-27 11:59:55.06	287.21	14.79	-45.0	-57.4	3.8	1.49e+00	0	63	104	0	60	16016
2026-01-27 11:59:56.07	287.42	14.77	-45.0	-57.4	3.8	1.49e+00	0	63	104	0	60	16083
2026-01-27 11:59:57.08	287.62	14.75	-45.0	-57.4	3.8	1.49e+00	0	63	104	0	60	16093
2026-01-27 11:59:58.09	287.83	14.73	-45.0	-57.4	3.8	1.49e+00	0	63	104	0	60	16100
2026-01-27 11:59:59.10	288.04	14.71	-45.0	-57.4	3.8	1.49e+00	0	63	104	0	60	16056
2026-01-27 12:00:00.11	288.25	14.69	-45.0	-57.4	3.8	1.49e+00	0	63	104	0	60	16081
2026-01-27 12:00:01.12	288.46	14.67	-45.0	-57.4	3.8	1.49e+00	0	63	104	0	60	16121
2026-01-27 12:00:02.13	288.66	14.65	-45.0	-57.4	3.8	1.49e+00	0	63	104	0	60	16093
2026-01-27 12:00:03.14	288.87	14.62	-45.0	-57.4	3.8	1.49e+00	0	63	104	0	60	16064
2026-01-27 12:00:04.16	289.08	14.60	-45.0	-57.4	3.8	1.49e+00	0	63	104	0	60	16116
2026-01-27 12:00:05.17	289.29	14.58	-45.0	-57.4	3.8	1.49e+00	0	63	104	0	60	16069
2026-01-27 12:00:06.18	289.49	14.56	-45.0	-57.4	3.8	1.49e+00	0	63	104	0	60	16077
2026-01-27 12:00:07.19	289.70	14.54	-45.0	-57.4	3.8	1.49e+00	0	63	104	0	60	16044
2026-01-27 12:00:08.20	289.90	14.51	-45.0	-57.4	3.8	1.49e+00	0	63	104	0	60	16066
2026-01-27 12:00:09.21	290.11	14.49	-45.0	-57.4	3.8	1.49e+00	0	63	104	0	60	16031
2026-01-27 12:00:10.22	290.31	14.47	-45.0	-57.4	3.8	1.49e+00	0	63	104	0	60	16060
2026-01-27 12:00:11.23	290.52	14.44	-45.0	-57.4	3.8	1.49e+00	0	63	104	0	60	16102
2026-01-27 12:00:12.24	290.72	14.42	-45.0	-57.4	3.8	1.49e+00	0	63	104	0	60	16116
2026-01-27 12:00:13.25	290.93	14.39	-45.0	-57.4	3.8	1.49e+00	0	63	104	0	60	16021
2026-01-27 12:00:14.26	291.13	14.37	-45.0	-57.4	3.8	1.49e+00	0	63	104	0	60	16116
2026-01-27 12:00:15.27	291.33	14.34	-45.0	-57.4	3.8	1.49e+00	0	63	104	0	60	16076
2026-01-27 12:00:16.28	291.54	14.32	-45.0	-57.4	3.8	1.49e+00	0	63	104	0	60	16100
2026-01-27 12:00:17.29	291.74	14.29	-45.0	-57.4	3.8	1.49e+00	0	63	104	0	60	16099
2026-01-27 12:00:18.30	291.94	14.26	-45.0	-57.4	3.8	1.49e+00	0	63	104	0	60	16037
2026-01-27 12:00:19.31	292.14	14.24	-45.0	-57.5	3.8	1.49e+00	0	63	104	0	60	16141
2026-01-27 12:00:20.32	292.34	14.21	-45.0	-57.5	3.8	1.49e+00	0	63	104	0	60	16145
2026-01-27 12:00:21.33	292.54	14.18	-45.0	-57.4	3.8	1.49e+00	0	63	104	0	60	16088
2026-01-27 12:00:22.35	292.75	14.16	-45.0	-57.4	3.8	1.49e+00	0	63	104	0	60	16078
2026-01-27 12:00:23.36	292.95	14.13	-45.0	-57.4	3.8	1.49e+00	0	63	104	0	60	16075
2026-01-27 12:00:24.36	293.15	14.10	-45.0	-57.4	3.8	1.49e+00	0	63	104	0	60	16034
2026-01-27 12:00:25.37	293.34	14.07	-45.0	-57.4	3.8	1.49e+00	0	63	104	0	60	16065
2026-01-27 12:00:26.39	293.55	14.04	-45.0	-57.4	3.8	1.49e+00	0	63	104	0	60	16126
2026-01-27 12:00:27.40	293.74	14.02	-45.0	-57.4	3.8	1.49e+00	0	63	104	0	60	16112
2026-01-27 12:00:28.41	293.94	13.99	-45.0	-57.4	3.8	1.49e+00	0	63	104	0	60	16062
2026-01-27 12:00:29.42	294.14	13.96	-45.0	-57.4	3.8	1.49e+00	0	63	104	0	60	16043
2026-01-27 12:00:30.43	294.34	13.93	-45.0	-57.4	3.8	1.49e+00	0	63	104	0	60	16061
2026-01-27 12:00:31.44	294.54	13.90	-45.0	-57.4	3.8	1.49e+00	0	63	104	0	60	16090
2026-01-27 12:00:32.45	294.73	13.87	-45.0	-57.4	3.8	1.49e+00	0	63	104	0	60	16041
2026-01-27 12:00:33.46	294.93	13.84	-45.0	-57.4	3.8	1.49e+00	0	63	104	0	60	16043
2026-01-27 12:00:34.47	295.13	13.81	-45.0	-57.4	3.8	1.49e+00	0	63	104	0	60	16006
2026-01-27 12:00:35.48	295.32	13.78	-45.0	-57.4	3.8	1.49e+00	0	63	104	0	60	16120
2026-01-27 12:00:36.49	295.52	13.74	-45.0	-57.4	3.8	1.49e+00	0	63	104	0	60	16056
2026-01-27 12:00:37.50	295.71	13.71	-45.0	-57.4	3.8	1.49e+00	0	63	104	0	60	16061
2026-01-27 12:00:38.51	295.91	13.68	-45.0	-57.4	3.8	1.49e+00	0	63	104	0	60	16114
2026-01-27 12:00:39.52	296.10	13.65	-45.0	-57.4	3.8	1.49e+00	0	63	104	0	60	16084
2026-01-27 12:00:40.53	296.29	13.62	-45.0	-57.4	3.8	1.49e+00	0	63	104	0	60	16050
2026-01-27 12:00:41.54	296.49	13.58	-45.0	-57.4	3.8	1.49e+00	0	63	104	0	60	16066
2026-01-27 12:00:42.55	296.68	13.55	-45.0	-57.4	3.8	1.49e+00	0	63	104	0	60	16093
2026-01-27 12:00:43.56	296.87	13.52	-45.0	-57.4	3.8	1.49e+00	0	63	104	0	60	16072
2026-01-27 12:00:44.57	297.06	13.48	-45.0	-57.5	3.8	1.49e+00	0	63	104	0	60	16139
2026-01-27 12:00:45.58	297.26	13.45	-45.0	-57.4	3.8	1.49e+00	0	63	104	0	60	16053
2026-01-27 12:00:46.59	297.45	13.42	-45.0	-57.4	3.8	1.49e+00	0	63	104	0	60	16041
2026-01-27 12:00:47.60	297.64	13.38	-45.0	-57.4	3.8	1.49e+00	0	63	104	0	60	16028
2026-01-27 12:00:48.61	297.83	13.35	-45.0	-57.4	3.8	1.49e+00	0	63	104	0	60	16090
2026-01-27 12:00:49.62	298.02	13.31	-45.0	-57.4	3.8	1.49e+00	0	63	104	0	60	16058
2026-01-27 12:00:50.63	298.21	13.28	-45.0	-57.4	3.8	1.49e+00	0	63	104	0	60	16112
2026-01-27 12:00:51.64	298.40	13.24	-45.0	-57.4	3.8	1.49e+00	0	63	104	0	60	16094
2026-01-27 12:00:52.65	298.58	13.21	-45.0	-57.4	3.8	1.49e+00	0	63	104	0	60	16046
2026-01-27 12:00:53.66	298.77	13.17	-44.9	-57.4	3.8	1.49e+00	0	63	104	0	60	16023
2026-01-27 12:00:54.67	298.96	13.14	-45.0	-57.4	3.8	1.49e+00	0	63	104	0	60	16113
2026-01-27 12:00:55.68	299.15	13.10	-45.0	-57.4	3.8	1.49e+00	0	63	104	0	60	16073
2026-01-27 12:00:56.70	299.34	13.07	-45.0	-57.4	3.8	1.49e+00	0	63	104	0	60	16079
2026-01-27 12:00:57.71	299.52	13.03	-45.0	-57.4	3.8	1.49e+00	0	63	104	0	60	16055
2026-01-27 12:00:58.72	299.71	12.99	-45.0	-57.4	3.8	1.49e+00	0	63	104	0	60	16092
2026-01-27 12:00:59.73	299.89	12.96	-45.0	-57.4	3.8	1.49e+00	0	63	104	0	60	16063
2026-01-27 12:01:00.74	300.08	12.92	-45.0	-57.4	3.8	1.49e+00	0	63	104	0	60	16101
2026-01-27 12:01:01.74	300.26	12.88	-45.0	-57.4	3.8	1.49e+00	0	63	104	0	60	16064
2026-01-27 12:01:02.76	300.45	12.84	-45.0	-57.4	3.8	1.49e+00	0	63	104	0	60	16039
2026-01-27 12:01:03.76	300.63	12.81	-45.0	-57.4	3.8	1.49e+00	0	63	104	0	60	16076
2026-01-27 12:01:04.77	300.81	12.77	-45.0	-57.4	3.8	1.49e+00	0	63	104	0	60	16096
2026-01-27 12:01:05.79	301.00	12.73	-45.0	-57.4	3.8	1.49e+00	0	63	104	0	60	16110
2026-01-27 12:01:06.79	301.18	12.69	-45.0	-57.4	3.8	1.49e+00	0	63	104	0	60	16109
2026-01-27 12:01:07.81	301.36	12.65	-45.0	-57.4	3.8	1.49e+00	0	63	104	0	60	16091
2026-01-27 12:01:08.82	301.54	12.62	-45.0	-57.4	3.8	1.49e+00	0	63	104	0	60	16118
2026-01-27 12:01:09.83	301.72	12.58	-45.0	-57.4	3.8	1.49e+00	0	63	104	0	60	16038
2026-01-27 12:01:10.84	301.90	12.54	-45.0	-57.4	3.8	1.49e+00	0	63	104	0	60	16058
2026-01-27 12:01:11.85	302.08	12.50	-45.0	-57.4	3.8	1.49e+00	0	63	104	0	60	16043
2026-01-27 12:01:12.86	302.26	12.46	-45.0	-57.4	3.8	1.49e+00	0	63	104	0	60	16032
2026-01-27 12:01:13.87	302.44	12.42	-45.0	-57.4	3.8	1.49e+00	0	63	104	0	60	16036
2026-01-27 12:01:14.88	302.62	12.38	-45.0	-57.4	3.8	1.49e+00	0	63	104	0	60	16043
2026-01-27 12:01:15.89	302.80	12.34	-45.0	-57.4	3.8	1.49e+00	0	63	104	0	60	15993
2026-01-27 12:01:16.90	302.97	12.30	-45.0	-57.4	3.8	1.49e+00	0	63	104	0	60	16060
2026-01-27 12:01:17.91	303.15	12.26	-45.0	-57.4	3.8	1.49e+00	0	63	104	0	60	16065
2026-01-27 12:01:18.92	303.33	12.22	-45.0	-57.4	3.8	1.49e+00	0	63	104	0	60	16061
2026-01-27 12:01:19.93	303.50	12.18	-45.0	-57.4	3.8	1.49e+00	0	63	104	0	60	16111
2026-01-27 12:01:20.94	303.68	12.14	-45.0	-57.4	3.8	1.49e+00	0	63	104	0	60	16055
2026-01-27 12:01:21.95	303.85	12.10	-45.0	-57.4	3.8	1.49e+00	0	63	104	0	60	16068
2026-01-27 12:01:22.96	304.03	12.06	-45.0	-57.4	3.8	1.49e+00	0	63	104	0	60	16004
2026-01-27 12:01:23.97	304.20	12.01	-44.9	-57.4	3.8	1.49e+00	0	63	104	0	60	16067
2026-01-27 12:01:24.98	304.38	11.97	-45.0	-57.4	3.8	1.49e+00	0	63	104	0	60	16040
2026-01-27 12:01:25.99	304.55	11.93	-45.0	-57.4	3.8	1.49e+00	0	63	104	0	60	16004
2026-01-27 12:01:27.01	304.72	11.89	-45.0	-57.4	3.8	1.49e+00	0	63	104	0	60	16057
2026-01-27 12:01:28.02	304.90	11.85	-45.0	-57.4	3.8	1.49e+00	0	63	104	0	60	15993
2026-01-27 12:01:29.03	305.07	11.81	-45.0	-57.3	3.8	1.49e+00	0	63	104	0	60	15929
2026-01-27 12:01:30.04	305.24	11.76	-45.0	-57.4	3.8	1.49e+00	0	63	104	0	60	16029
2026-01-27 12:01:31.05	305.41	11.72	-45.0	-57.4	3.8	1.49e+00	0	63	104	0	60	16059
2026-01-27 12:01:32.06	305.58	11.68	-45.0	-57.4	3.8	1.49e+00	0	63	104	0	60	15953
2026-01-27 12:01:33.07	305.75	11.63	-45.0	-57.4	3.8	1.49e+00	0	63	104	0	60	16033
2026-01-27 12:01:34.08	305.92	11.59	-45.0	-57.4	3.8	1.49e+00	0	63	104	0	60	16006
2026-01-27 12:01:35.09	306.09	11.55	-45.0	-57.4	3.8	1.49e+00	0	63	104	0	60	15950
2026-01-27 12:01:36.10	306.26	11.51	-45.0	-57.4	3.8	1.49e+00	0	63	104	0	60	15960
2026-01-27 12:01:37.11	306.42	11.46	-45.0	-57.4	3.8	1.49e+00	0	63	104	0	60	15999
2026-01-27 12:01:38.12	306.59	11.42	-45.0	-57.4	3.8	1.49e+00	0	63	104	0	60	15975
2026-01-27 12:01:39.13	306.76	11.38	-45.0	-57.4	3.8	1.49e+00	0	63	104	0	60	16040
2026-01-27 12:01:40.14	306.93	11.33	-45.0	-57.4	3.8	1.49e+00	0	63	104	0	60	16024
2026-01-27 12:01:41.15	307.09	11.29	-45.0	-57.4	3.8	1.49e+00	0	63	104	0	60	15990
2026-01-27 12:01:42.16	307.26	11.24	-45.0	-57.4	3.8	1.49e+00	0	63	104	0	60	15997
2026-01-27 12:01:43.17	307.42	11.20	-45.0	-57.4	3.8	1.49e+00	0	63	104	0	60	15968
2026-01-27 12:01:44.18	307.59	11.16	-45.0	-57.4	3.8	1.49e+00	0	63	104	0	60	15965
2026-01-27 12:01:45.19	307.75	11.11	-45.0	-57.4	3.8	1.49e+00	0	63	104	0	60	15976
2026-01-27 12:01:46.20	307.91	11.07	-44.9	-57.4	3.8	1.49e+00	0	63	104	0	60	16045
2026-01-27 12:01:47.21	308.08	11.02	-45.0	-57.4	3.8	1.49e+00	0	63	104	0	60	15944
2026-01-27 12:01:48.22	308.24	10.98	-45.0	-57.4	3.8	1.49e+00	0	63	104	0	60	16061
2026-01-27 12:01:49.24	308.40	10.93	-44.9	-57.4	3.8	1.49e+00	0	63	104	0	60	16009
2026-01-27 12:01:50.25	308.56	10.89	-44.9	-57.4	3.8	1.49e+00	0	63	104	0	60	15948
2026-01-27 12:01:51.26	308.73	10.84	-44.9	-57.4	3.8	1.49e+00	0	63	104	0	60	16042
2026-01-27 12:01:52.27	308.89	10.80	-44.9	-57.4	3.8	1.49e+00	0	63	104	0	60	15980
2026-01-27 12:01:53.28	309.05	10.75	-44.9	-57.4	3.8	1.49e+00	0	63	104	0	60	15971
2026-01-27 12:01:54.29	309.21	10.71	-44.9	-57.4	3.8	1.49e+00	0	63	104	0	60	15969
2026-01-27 12:01:55.30	309.37	10.66	-44.9	-57.4	3.8	1.49e+00	0	63	104	0	60	16006
2026-01-27 12:01:56.31	309.52	10.61	-44.9	-57.4	3.8	1.49e+00	0	63	104	0	60	15951
2026-01-27 12:01:57.32	309.68	10.57	-44.9	-57.4	3.8	1.49e+00	0	63	104	0	60	15975
2026-01-27 12:01:58.33	309.84	10.52	-44.9	-57.4	3.8	1.49e+00	0	63	104	0	60	15958
2026-01-27 12:01:59.34	310.00	10.48	-44.9	-57.4	3.8	1.49e+00	0	63	104	0	60	15972
2026-01-27 12:02:00.35	310.15	10.43	-44.9	-57.3	3.8	1.49e+00	0	63	104	0	60	15915
2026-01-27 12:02:01.36	310.31	10.38	-44.9	-57.4	3.8	1.49e+00	0	63	104	0	60	15970
2026-01-27 12:02:02.37	310.47	10.34	-44.9	-57.3	3.8	1.49e+00	0	63	104	0	60	15919
2026-01-27 12:02:03.38	310.62	10.29	-44.9	-57.4	3.8	1.49e+00	0	63	104	0	60	15981
2026-01-27 12:02:04.39	310.78	10.24	-44.9	-57.3	3.8	1.49e+00	0	63	104	0	60	15868
2026-01-27 12:02:05.40	310.93	10.20	-44.9	-57.4	3.8	1.49e+00	0	63	104	0	60	15949
2026-01-27 12:02:06.41	311.08	10.15	-44.9	-57.3	3.8	1.49e+00	0	63	104	0	60	15918
2026-01-27 12:02:07.42	311.24	10.10	-44.9	-57.3	3.8	1.49e+00	0	63	104	0	60	15905
2026-01-27 12:02:08.43	311.39	10.06	-44.9	-57.4	3.8	1.49e+00	0	63	104	0	60	15961
2026-01-27 12:02:09.44	311.54	10.01	-44.9	-57.3	3.8	1.49e+00	0	63	104	0	60	15856
2026-01-27 12:02:10.45	311.70	9.96	-44.9	-57.4	3.8	1.49e+00	0	63	104	0	60	15953
2026-01-27 12:02:11.46	311.85	9.92	-44.9	-57.3	3.8	1.49e+00	0	63	104	0	60	15879
2026-01-27 12:02:12.47	312.00	9.87	-44.9	-57.3	3.8	1.49e+00	0	63	104	0	60	15919
2026-01-27 12:02:13.48	312.15	9.82	-44.9	-57.4	3.8	1.49e+00	0	63	104	0	60	15990
2026-01-27 12:02:14.49	312.30	9.78	-44.9	-57.4	3.8	1.49e+00	0	63	104	0	60	15964
2026-01-27 12:02:15.51	312.45	9.73	-44.9	-57.4	3.8	1.49e+00	0	63	104	0	60	15953
2026-01-27 12:02:16.52	312.60	9.68	-44.9	-57.4	3.8	1.49e+00	0	63	104	0	60	15960
2026-01-27 12:02:17.53	312.75	9.63	-44.9	-57.3	3.8	1.49e+00	0	63	104	0	60	15919
2026-01-27 12:02:18.54	312.90	9.58	-44.9	-57.3	3.8	1.49e+00	0	63	104	0	60	15938
2026-01-27 12:02:19.55	313.04	9.54	-44.9	-57.3	3.8	1.49e+00	0	63	104	0	60	15901
2026-01-27 12:02:20.56	313.19	9.49	-44.9	-57.4	3.8	1.49e+00	0	63	104	0	60	15955
2026-01-27 12:02:21.57	313.34	9.44	-44.9	-57.4	3.8	1.49e+00	0	63	104	0	60	15986
2026-01-27 12:02:22.58	313.48	9.39	-44.9	-57.3	3.8	1.49e+00	0	63	104	0	60	15915
2026-01-27 12:02:23.59	313.63	9.35	-44.9	-57.4	3.8	1.49e+00	0	63	104	0	60	15949
2026-01-27 12:02:24.60	313.78	9.30	-44.9	-57.3	3.8	1.49e+00	0	63	104	0	60	15898
2026-01-27 12:02:25.61	313.92	9.25	-44.9	-57.3	3.8	1.49e+00	0	63	104	0	60	15912
2026-01-27 12:02:26.62	314.06	9.20	-44.9	-57.4	3.8	1.49e+00	0	63	104	0	60	15954
2026-01-27 12:02:27.63	314.21	9.15	-44.9	-57.3	3.8	1.49e+00	0	63	104	0	60	15934
2026-01-27 12:02:28.64	314.35	9.10	-44.9	-57.3	3.8	1.49e+00	0	63	104	0	60	15852
2026-01-27 12:02:29.65	314.50	9.06	-44.9	-57.3	3.8	1.49e+00	0	63	104	0	60	15913
2026-01-27 12:02:30.66	314.64	9.01	-44.9	-57.4	3.8	1.49e+00	0	63	104	0	60	15975
2026-01-27 12:02:31.67	314.78	8.96	-44.9	-57.3	3.8	1.49e+00	0	63	104	0	60	15900
2026-01-27 12:02:32.68	314.92	8.91	-44.9	-57.3	3.8	1.49e+00	0	63	104	0	60	15886
2026-01-27 12:02:33.69	315.06	8.86	-44.9	-57.3	3.8	1.49e+00	0	63	104	0	60	15911
2026-01-27 12:02:34.70	315.20	8.81	-44.9	-57.4	3.8	1.49e+00	0	63	104	0	60	15960
2026-01-27 12:02:35.71	315.34	8.76	-44.9	-57.3	3.8	1.49e+00	0	63	104	0	60	15888
2026-01-27 12:02:36.72	315.48	8.72	-44.9	-57.4	3.8	1.49e+00	0	63	104	0	60	15969
2026-01-27 12:02:37.74	315.63	8.67	-44.9	-57.3	3.8	1.49e+00	0	63	104	0	60	15897
2026-01-27 12:02:38.75	315.76	8.62	-44.9	-57.3	3.8	1.49e+00	0	63	104	0	60	15848
2026-01-27 12:02:39.76	315.90	8.57	-44.9	-57.3	3.8	1.49e+00	0	63	104	0	60	15853
2026-01-27 12:02:40.77	316.04	8.52	-44.9	-57.3	3.8	1.49e+00	0	63	104	0	60	15826
2026-01-27 12:02:41.78	316.18	8.47	-44.9	-57.3	3.8	1.49e+00	0	63	104	0	60	15876
2026-01-27 12:02:42.79	316.32	8.42	-44.9	-57.3	3.8	1.49e+00	0	63	104	0	60	15833
2026-01-27 12:02:43.80	316.45	8.37	-44.9	-57.3	3.8	1.49e+00	0	63	104	0	60	15825
2026-01-27 12:02:44.81	316.59	8.32	-44.9	-57.3	3.8	1.49e+00	0	63	104	0	60	15813
2026-01-27 12:02:45.82	316.72	8.27	-44.9	-57.3	3.8	1.49e+00	0	63	104	0	60	15811
2026-01-27 12:02:46.83	316.86	8.22	-44.9	-57.3	3.8	1.49e+00	0	63	104	0	60	15884
2026-01-27 12:02:47.84	316.99	8.18	-44.9	-57.3	3.8	1.49e+00	0	63	104	0	60	15843
2026-01-27 12:02:48.85	317.13	8.13	-44.9	-57.3	3.8	1.49e+00	0	63	104	0	60	15909
2026-01-27 12:02:49.86	317.26	8.08	-44.9	-57.3	3.8	1.49e+00	0	63	104	0	60	15843
2026-01-27 12:02:50.87	317.40	8.03	-44.9	-57.3	3.8	1.49e+00	0	63	104	0	60	15837
2026-01-27 12:02:51.88	317.53	7.98	-44.9	-57.3	3.8	1.49e+00	0	63	104	0	60	15911
2026-01-27 12:02:52.89	317.66	7.93	-44.9	-57.3	3.8	1.49e+00	0	63	104	0	60	15811
2026-01-27 12:02:53.90	317.80	7.88	-44.9	-57.3	3.8	1.49e+00	0	63	104	0	60	15867
2026-01-27 12:02:54.91	317.93	7.83	-44.9	-57.3	3.8	1.49e+00	0	63	104	0	60	15842
2026-01-27 12:02:55.92	318.06	7.78	-44.9	-57.2	3.8	1.49e+00	0	63	104	0	60	15756
2026-01-27 12:02:56.93	318.19	7.73	-44.9	-57.3	3.8	1.49e+00	0	63	104	0	60	15815
2026-01-27 12:02:57.94	318.32	7.68	-44.9	-57.3	3.8	1.49e+00	0	63	104	0	60	15764
2026-01-27 12:02:58.95	318.45	7.63	-44.8	-57.3	3.8	1.49e+00	0	63	104	0	60	15830
2026-01-27 12:02:59.96	318.58	7.58	-44.8	-57.2	3.8	1.49e+00	0	63	104	0	60	15750
2026-01-27 12:03:00.98	318.71	7.53	-44.9	-57.3	3.8	1.49e+00	0	63	104	0	60	15865
2026-01-27 12:03:01.99	318.84	7.48	-44.8	-57.3	3.8	1.49e+00	0	63	104	0	60	15816
2026-01-27 12:03:03.00	318.97	7.43	-44.8	-57.3	3.8	1.49e+00	0	63	104	0	60	15816
2026-01-27 12:03:04.01	319.10	7.38	-44.8	-57.3	3.8	1.49e+00	0	63	104	0	60	15862
2026-01-27 12:03:05.02	319.22	7.33	-44.8	-57.3	3.8	1.49e+00	0	63	104	0	60	15775
2026-01-27 12:03:06.03	319.35	7.28	-44.8	-57.2	3.8	1.49e+00	0	63	104	0	60	15748
2026-01-27 12:03:07.04	319.48	7.23	-44.8	-57.3	3.8	1.49e+00	0	63	104	0	60	15809
2026-01-27 12:03:08.05	319.60	7.18	-44.8	-57.3	3.8	1.49e+00	0	63	104	0	60	15768
2026-01-27 12:03:09.06	319.73	7.13	-44.8	-57.3	3.8	1.49e+00	0	63	104	0	60	15789
2026-01-27 12:03:10.07	319.86	7.08	-44.8	-57.3	3.8	1.49e+00	0	63	104	0	60	15816
2026-01-27 12:03:11.08	319.98	7.03	-44.8	-57.3	3.8	1.49e+00	0	63	104	0	60	15774
2026-01-27 12:03:12.09	320.11	6.98	-44.8	-57.3	3.8	1.49e+00	0	63	104	0	60	15789
2026-01-27 12:03:13.10	320.23	6.93	-44.8	-57.2	3.8	1.49e+00	0	63	104	0	60	15753
2026-01-27 12:03:14.11	320.35	6.88	-44.8	-57.3	3.8	1.49e+00	0	63	104	0	60	15775
2026-01-27 12:03:15.12	320.48	6.83	-44.8	-57.2	3.8	1.49e+00	0	63	104	0	60	15736
2026-01-27 12:03:16.13	320.60	6.79	-44.8	-57.3	3.8	1.49e+00	0	63	104	0	60	15794
2026-01-27 12:03:17.14	320.72	6.74	-44.8	-57.2	3.8	1.49e+00	0	63	104	0	60	15735
2026-01-27 12:03:18.15	320.85	6.69	-44.8	-57.3	3.8	1.49e+00	0	63	104	0	60	15772
2026-01-27 12:03:19.16	320.97	6.64	-44.8	-57.2	3.8	1.49e+00	0	63	104	0	60	15726
2026-01-27 12:03:20.17	321.09	6.59	-44.8	-57.2	3.8	1.49e+00	0	63	104	0	60	15728
2026-01-27 12:03:21.19	321.21	6.53	-44.8	-57.2	3.8	1.49e+00	0	63	104	0	60	15729
2026-01-27 12:03:22.20	321.33	6.48	-44.8	-57.3	3.8	1.49e+00	0	63	104	0	60	15797
2026-01-27 12:03:23.21	321.45	6.43	-44.8	-57.2	3.8	1.49e+00	0	63	104	0	60	15741
2026-01-27 12:03:24.22	321.57	6.38	-44.8	-57.2	3.8	1.49e+00	0	63	104	0	60	15730
2026-01-27 12:03:25.23	321.69	6.33	-44.8	-57.3	3.8	1.49e+00	0	63	104	0	60	15763
2026-01-27 12:03:26.24	321.81	6.28	-44.8	-57.2	3.8	1.49e+00	0	63	104	0	60	15670
2026-01-27 12:03:27.25	321.93	6.23	-44.8	-57.2	3.8	1.49e+00	0	63	104	0	60	15735
2026-01-27 12:03:28.26	322.05	6.18	-44.8	-57.2	3.8	1.49e+00	0	63	104	0	60	15760
2026-01-27 12:03:29.27	322.17	6.13	-44.8	-57.2	3.8	1.49e+00	0	63	104	0	60	15707
2026-01-27 12:03:30.28	322.28	6.08	-44.8	-57.2	3.8	1.49e+00	0	63	104	0	60	15758
2026-01-27 12:03:31.29	322.40	6.03	-44.8	-57.2	3.8	1.49e+00	0	63	104	0	60	15750
2026-01-27 12:03:32.29	322.52	5.99	-44.8	-57.2	3.8	1.49e+00	0	63	104	0	60	15674
2026-01-27 12:03:33.31	322.63	5.93	-44.8	-57.2	3.8	1.49e+00	0	63	104	0	60	15741
2026-01-27 12:03:34.31	322.75	5.89	-44.8	-57.2	3.8	1.49e+00	0	63	104	0	60	15716
2026-01-27 12:03:35.33	322.87	5.83	-44.8	-57.2	3.8	1.49e+00	0	63	104	0	60	15682
2026-01-27 12:03:36.34	322.98	5.78	-44.8	-57.2	3.8	1.49e+00	0	63	104	0	60	15700
2026-01-27 12:03:37.35	323.10	5.73	-44.8	-57.2	3.8	1.49e+00	0	63	104	0	60	15728
2026-01-27 12:03:38.36	323.21	5.68	-44.8	-57.2	3.8	1.49e+00	0	63	104	0	60	15713
2026-01-27 12:03:39.37	323.33	5.63	-44.8	-57.2	3.8	1.49e+00	0	63	104	0	60	15667
2026-01-27 12:03:40.38	323.44	5.58	-44.8	-57.2	3.8	1.49e+00	0	63	104	0	60	15701
2026-01-27 12:03:41.39	323.55	5.53	-44.8	-57.2	3.8	1.49e+00	0	63	104	0	60	15618
2026-01-27 12:03:42.40	323.67	5.48	-44.8	-57.2	3.8	1.49e+00	0	63	104	0	60	15597
2026-01-27 12:03:43.41	323.78	5.43	-44.8	-57.2	3.8	1.49e+00	0	63	104	0	60	15722
2026-01-27 12:03:44.42	323.89	5.38	-44.8	-57.2	3.8	1.49e+00	0	63	104	0	60	15639
2026-01-27 12:03:45.43	324.00	5.33	-44.8	-57.2	3.8	1.49e+00	0	63	104	0	60	15684
2026-01-27 12:03:46.44	324.11	5.28	-44.8	-57.2	3.8	1.49e+00	0	63	104	0	60	15689
2026-01-27 12:03:47.45	324.22	5.23	-44.8	-57.2	3.8	1.49e+00	0	63	104	0	60	15645
2026-01-27 12:03:48.46	324.34	5.18	-44.8	-57.1	3.8	1.49e+00	0	63	104	0	60	15565
2026-01-27 12:03:49.47	324.45	5.14	-44.8	-57.2	3.8	1.49e+00	0	63	104	0	60	15626
2026-01-27 12:03:50.48	324.56	5.09	-44.8	-57.2	3.8	1.49e+00	0	63	104	0	60	15612
2026-01-27 12:03:51.49	324.67	5.04	-44.8	-57.2	3.8	1.49e+00	0	63	104	0	60	15638
2026-01-27 12:03:52.50	324.78	4.99	-44.7	-57.2	3.8	1.49e+00	0	63	104	0	60	15602
2026-01-27 12:03:53.51	324.88	4.94	-44.7	-57.2	3.8	1.49e+00	0	63	104	0	60	15588
2026-01-27 12:03:54.52	324.99	4.89	-44.7	-57.2	3.8	1.49e+00	0	63	104	0	60	15692
2026-01-27 12:03:55.53	325.10	4.84	-44.8	-57.2	3.8	1.49e+00	0	63	104	0	60	15664
2026-01-27 12:03:56.54	325.21	4.79	-44.7	-57.2	3.8	1.49e+00	0	63	104	0	60	15633
2026-01-27 12:03:57.55	325.32	4.74	-44.8	-57.2	3.8	1.49e+00	0	63	104	0	60	15589
2026-01-27 12:03:58.56	325.42	4.69	-44.7	-57.2	3.8	1.49e+00	0	63	104	0	60	15587
2026-01-27 12:03:59.57	325.53	4.64	-44.7	-57.2	3.8	1.49e+00	0	63	104	0	60	15588
2026-01-27 12:04:00.59	325.64	4.59	-44.7	-57.1	3.8	1.49e+00	0	63	104	0	60	15537
2026-01-27 12:04:01.60	325.74	4.54	-44.7	-57.2	3.8	1.49e+00	0	63	104	0	60	15596
2026-01-27 12:04:02.61	325.85	4.49	-44.7	-57.2	3.8	1.49e+00	0	63	104	0	60	15635
2026-01-27 12:04:03.62	325.96	4.44	-44.7	-57.2	3.8	1.49e+00	0	63	104	0	60	15596
2026-01-27 12:04:04.63	326.06	4.39	-44.7	-57.2	3.8	1.49e+00	0	63	104	0	60	15610
2026-01-27 12:04:05.64	326.17	4.34	-44.7	-57.1	3.8	1.49e+00	0	63	104	0	60	15568
2026-01-27 12:04:06.65	326.27	4.29	-44.7	-57.2	3.8	1.49e+00	0	63	104	0	60	15587
2026-01-27 12:04:07.66	326.37	4.24	-44.7	-57.1	3.8	1.49e+00	0	63	104	0	60	15543
2026-01-27 12:04:08.67	326.48	4.19	-44.7	-57.2	3.8	1.49e+00	0	63	104	0	60	15603
2026-01-27 12:04:09.68	326.58	4.14	-44.7	-57.1	3.8	1.49e+00	0	63	104	0	60	15558
2026-01-27 12:04:10.69	326.69	4.09	-44.7	-57.1	3.8	1.49e+00	0	63	104	0	60	15524
2026-01-27 12:04:11.70	326.79	4.04	-44.7	-57.1	3.8	1.49e+00	0	63	104	0	60	15574
2026-01-27 12:04:12.71	326.89	3.99	-44.7	-57.1	3.8	1.49e+00	0	63	104	0	60	15547
2026-01-27 12:04:13.72	326.99	3.94	-44.7	-57.1	3.8	1.49e+00	0	63	104	0	60	15544
2026-01-27 12:04:14.73	327.09	3.89	-44.7	-57.1	3.8	1.49e+00	0	63	104	0	60	15519
2026-01-27 12:04:15.74	327.20	3.84	-44.7	-57.1	3.8	1.49e+00	0	63	104	0	60	15542
2026-01-27 12:04:16.75	327.30	3.79	-44.7	-57.1	3.8	1.49e+00	0	63	104	0	60	15545
2026-01-27 12:04:17.76	327.40	3.74	-44.7	-57.1	3.8	1.49e+00	0	63	104	0	60	15548
2026-01-27 12:04:18.77	327.50	3.69	-44.6	-57.2	3.8	1.49e+00	0	63	104	0	60	15609
2026-01-27 12:04:19.78	327.60	3.64	-44.7	-57.1	3.8	1.49e+00	0	63	104	0	60	15543
2026-01-27 12:04:20.79	327.70	3.59	-44.7	-57.2	3.8	1.49e+00	0	63	104	0	60	15582
2026-01-27 12:04:21.80	327.80	3.54	-44.7	-57.1	3.8	1.49e+00	0	63	104	0	60	15566
2026-01-27 12:04:22.81	327.90	3.49	-44.7	-57.1	3.8	1.49e+00	0	63	104	0	60	15551
2026-01-27 12:04:23.82	328.00	3.44	-44.7	-57.1	3.8	1.49e+00	0	63	104	0	60	15455
2026-01-27 12:04:24.83	328.10	3.40	-44.7	-57.1	3.8	1.49e+00	0	63	104	0	60	15469
2026-01-27 12:04:25.84	328.19	3.35	-44.7	-57.1	3.8	1.49e+00	0	63	104	0	60	15447
2026-01-27 12:04:26.86	328.29	3.30	-44.7	-57.1	3.8	1.49e+00	0	63	104	0	60	15452
2026-01-27 12:04:27.87	328.39	3.25	-44.7	-57.1	3.8	1.49e+00	0	63	104	0	60	15427
2026-01-27 12:04:28.88	328.49	3.20	-44.7	-57.1	3.8	1.49e+00	0	63	104	0	60	15501
2026-01-27 12:04:29.89	328.58	3.15	-44.7	-57.1	3.8	1.49e+00	0	63	104	0	60	15474
2026-01-27 12:04:30.90	328.68	3.10	-44.6	-57.1	3.8	1.49e+00	0	63	104	0	60	15428
2026-01-27 12:04:31.91	328.78	3.05	-44.6	-57.1	3.8	1.49e+00	0	63	104	0	60	15493
2026-01-27 12:04:32.92	328.87	3.00	-44.6	-57.1	3.8	1.49e+00	0	63	104	0	60	15448
2026-01-27 12:04:33.93	328.97	2.95	-44.6	-57.1	3.8	1.49e+00	0	63	104	0	60	15405
2026-01-27 12:04:34.94	329.07	2.90	-44.6	-57.1	3.8	1.49e+00	0	63	104	0	60	15422
2026-01-27 12:04:35.95	329.16	2.85	-44.6	-57.0	3.8	1.49e+00	0	63	104	0	60	15389
2026-01-27 12:04:36.96	329.26	2.80	-44.6	-57.1	3.8	1.49e+00	0	63	104	0	60	15464
2026-01-27 12:04:37.97	329.35	2.76	-44.6	-57.1	3.8	1.49e+00	0	63	104	0	60	15407
2026-01-27 12:04:38.98	329.44	2.71	-44.6	-57.0	3.8	1.49e+00	0	63	104	0	60	15386
2026-01-27 12:04:39.99	329.54	2.66	-44.6	-57.0	3.8	1.49e+00	0	63	104	0	60	15392
2026-01-27 12:04:41.00	329.63	2.61	-44.6	-57.1	3.8	1.49e+00	0	63	104	0	60	15411
2026-01-27 12:04:42.01	329.73	2.56	-44.6	-57.0	3.8	1.49e+00	0	63	104	0	60	15354
2026-01-27 12:04:43.02	329.82	2.51	-44.6	-57.0	3.8	1.49e+00	0	63	104	0	60	15296
2026-01-27 12:04:44.03	329.91	2.46	-44.6	-57.0	3.8	1.49e+00	0	63	104	0	60	15329
2026-01-27 12:04:45.04	330.00	2.41	-44.6	-57.0	3.8	1.49e+00	0	63	104	0	60	15334
2026-01-27 12:04:46.05	330.10	2.36	-44.6	-57.0	3.8	1.49e+00	0	63	104	0	60	15352
2026-01-27 12:04:47.06	330.19	2.32	-44.6	-57.0	3.8	1.49e+00	0	63	104	0	60	15327
2026-01-27 12:04:48.08	330.28	2.27	-44.6	-57.0	3.8	1.49e+00	0	63	104	0	60	15352
2026-01-27 12:04:49.08	330.37	2.22	-44.6	-57.0	3.8	1.49e+00	0	63	104	0	60	15278
2026-01-27 12:04:50.10	330.46	2.17	-44.6	-57.0	3.8	1.49e+00	0	63	104	0	60	15308
2026-01-27 12:04:51.11	330.55	2.12	-44.6	-57.0	3.8	1.49e+00	0	63	104	0	60	15376
2026-01-27 12:04:52.12	330.65	2.07	-44.5	-57.0	3.8	1.49e+00	0	63	104	0	60	15338
2026-01-27 12:04:53.13	330.74	2.02	-44.6	-57.0	3.8	1.49e+00	0	63	104	0	60	15310
2026-01-27 12:04:54.14	330.83	1.97	-44.6	-57.0	3.8	1.49e+00	0	63	104	0	60	15276

#Closed at: 2026-01-27 12:04:54
#Recorded file [0 MB]: D:/lorett/data/31039_260127_145316.dat