passes_logs/2026/01/27/R2.0S_Moscow/R2.0S_Moscow__20260127_032720_FENGYUN_3D_rec.log

#Pass ID: 20260127_032720_FENGYUN 3D
#Satellite: FENGYUN 3D
#Configuration: FENGYUN 3D
#almurnet v.1.7.20251203
#Start time: 2026-01-27 03:27:20

#Version: 2.2.20231116
#Station: R2.0S_Moscow
#Location: 37.707566 lon 55.798166 lat
#TLE: 1 43010U 17072A   26026.49129444  .00000151  00000+0  93391-4 0  9993
#TLE: 2 43010  98.9962 358.4866 0002525  88.1664 271.9801 14.19700337424889

#Time	Az	El	Level	Level2	SNR	BER	BlckErr	Temp	State	Recorded	gain1	gain2
2026-01-27 03:27:20.98	10.67	2.05	-39.7	-51.3	3.8	8.46e-01	0	53	0	0	51	13297
2026-01-27 03:27:21.98	10.61	2.11	-39.7	-51.3	3.8	8.47e-01	0	53	104	0	51	13327
2026-01-27 03:27:22.99	10.54	2.17	-39.7	-51.3	3.8	8.46e-01	0	53	104	0	51	13366
2026-01-27 03:27:24.00	10.47	2.22	-39.7	-51.3	3.8	8.47e-01	0	53	104	0	51	13307
2026-01-27 03:27:25.01	10.41	2.28	-39.7	-51.3	3.8	8.45e-01	0	53	104	0	51	13325
2026-01-27 03:27:26.02	10.34	2.34	-39.7	-51.3	3.8	8.46e-01	0	53	104	0	51	13305
2026-01-27 03:27:27.03	10.27	2.39	-39.7	-51.3	3.8	8.47e-01	0	53	104	0	51	13286
2026-01-27 03:27:28.04	10.21	2.45	-39.7	-51.3	3.8	8.47e-01	0	54	104	0	51	13291
2026-01-27 03:27:29.05	10.14	2.51	-39.6	-51.2	3.8	8.47e-01	0	54	104	0	51	13252
2026-01-27 03:27:30.06	10.07	2.57	-39.7	-51.3	3.8	8.47e-01	0	54	104	0	51	13270
2026-01-27 03:27:31.07	10.01	2.62	-39.6	-51.3	3.8	8.47e-01	0	54	104	0	51	13263
2026-01-27 03:27:32.09	9.94	2.68	-39.6	-51.2	3.8	8.46e-01	0	54	104	0	51	13250
2026-01-27 03:27:33.10	9.87	2.74	-39.6	-51.3	3.8	8.45e-01	0	54	104	0	51	13276
2026-01-27 03:27:34.11	9.80	2.80	-39.6	-51.2	3.8	8.46e-01	0	54	104	0	51	13246
2026-01-27 03:27:35.12	9.73	2.86	-39.6	-51.2	3.8	8.47e-01	0	54	104	0	51	13256
2026-01-27 03:27:36.13	9.66	2.91	-39.6	-51.2	3.8	8.45e-01	0	54	104	0	51	13198
2026-01-27 03:27:37.14	9.59	2.97	-39.6	-51.2	3.8	8.45e-01	0	54	104	0	51	13227
2026-01-27 03:27:38.15	9.52	3.03	-39.6	-51.2	3.8	8.46e-01	0	54	104	0	51	13258
2026-01-27 03:27:39.16	9.45	3.09	-39.6	-51.2	3.8	8.47e-01	0	54	104	0	51	13245
2026-01-27 03:27:40.17	9.38	3.15	-39.6	-51.2	3.8	8.46e-01	0	54	104	0	51	13234
2026-01-27 03:27:41.18	9.31	3.21	-39.6	-51.2	3.8	8.47e-01	0	54	104	0	51	13240
2026-01-27 03:27:42.19	9.24	3.27	-39.6	-51.2	3.8	8.46e-01	0	54	104	0	51	13236
2026-01-27 03:27:43.20	9.17	3.32	-39.6	-51.2	3.8	8.46e-01	0	54	104	0	51	13230
2026-01-27 03:27:44.21	9.10	3.38	-39.6	-51.2	3.8	8.45e-01	0	55	104	0	51	13230
2026-01-27 03:27:45.22	9.03	3.44	-39.6	-51.2	3.8	8.47e-01	0	54	104	0	51	13242
2026-01-27 03:27:46.24	8.95	3.50	-39.6	-51.2	3.8	8.47e-01	0	55	104	0	51	13253
2026-01-27 03:27:47.25	8.88	3.56	-39.6	-51.2	3.8	8.47e-01	0	55	104	0	51	13257
2026-01-27 03:27:48.26	8.81	3.62	-39.6	-51.2	3.8	8.46e-01	0	55	104	0	51	13237
2026-01-27 03:27:49.27	8.73	3.68	-39.6	-51.2	3.8	8.45e-01	0	55	104	0	51	13236
2026-01-27 03:27:50.28	8.66	3.74	-39.6	-51.2	3.8	8.46e-01	0	55	104	0	51	13237
2026-01-27 03:27:51.29	8.59	3.80	-39.6	-51.2	3.8	8.47e-01	0	55	104	0	51	13197
2026-01-27 03:27:52.30	8.51	3.86	-39.6	-51.2	3.8	8.45e-01	0	55	104	0	51	13243
2026-01-27 03:27:53.31	8.44	3.92	-39.6	-51.2	3.8	8.47e-01	0	55	104	0	51	13207
2026-01-27 03:27:54.32	8.36	3.97	-39.6	-51.2	3.8	8.46e-01	0	55	104	0	51	13196
2026-01-27 03:27:55.33	8.29	4.03	-39.6	-51.2	3.8	8.46e-01	0	55	104	0	51	13215
2026-01-27 03:27:56.34	8.21	4.09	-39.6	-51.2	3.8	8.46e-01	0	56	104	0	51	13217
2026-01-27 03:27:57.35	8.14	4.15	-39.6	-51.2	3.8	8.46e-01	0	55	104	0	51	13229
2026-01-27 03:27:58.36	8.06	4.21	-39.6	-51.2	3.8	8.46e-01	0	55	104	0	51	13217
2026-01-27 03:27:59.37	7.99	4.27	-39.6	-51.3	3.8	8.45e-01	0	55	104	0	51	13275
2026-01-27 03:28:00.38	7.91	4.33	-39.6	-51.2	3.8	8.46e-01	0	55	104	0	51	13236
2026-01-27 03:28:01.39	7.83	4.39	-39.6	-51.3	3.8	8.47e-01	0	55	104	0	51	13275
2026-01-27 03:28:02.40	7.76	4.45	-39.6	-51.2	3.8	8.46e-01	0	56	104	0	51	13250
2026-01-27 03:28:03.41	7.68	4.51	-39.6	-51.2	3.8	8.46e-01	0	56	104	0	51	13230
2026-01-27 03:28:04.42	7.60	4.57	-39.6	-51.2	3.8	8.47e-01	0	56	104	0	51	13247
2026-01-27 03:28:05.43	7.52	4.64	-39.6	-51.2	3.8	8.45e-01	0	56	104	0	51	13246
2026-01-27 03:28:06.44	7.44	4.70	-39.6	-51.2	3.8	8.46e-01	0	56	104	0	51	13257
2026-01-27 03:28:07.45	7.36	4.76	-39.6	-51.3	3.8	8.46e-01	0	56	104	0	51	13267
2026-01-27 03:28:08.47	7.28	4.82	-39.6	-51.3	3.8	8.48e-01	0	56	104	0	51	13262
2026-01-27 03:28:09.48	7.20	4.88	-39.6	-51.2	3.8	8.47e-01	0	56	104	0	51	13248
2026-01-27 03:28:10.49	7.12	4.94	-39.6	-51.3	3.8	8.47e-01	0	56	104	0	51	13263
2026-01-27 03:28:11.50	7.04	5.00	-39.6	-51.2	3.8	8.46e-01	0	56	104	0	51	13238
2026-01-27 03:28:12.51	6.96	5.06	-39.7	-51.2	3.8	8.46e-01	0	56	104	0	51	13260
2026-01-27 03:28:13.52	6.88	5.12	-39.6	-51.2	3.8	8.46e-01	0	56	104	0	51	13252
2026-01-27 03:28:14.53	6.80	5.18	-39.6	-51.2	3.8	8.45e-01	0	56	104	0	51	13226
2026-01-27 03:28:15.54	6.72	5.25	-39.6	-51.3	3.8	8.47e-01	0	56	104	0	51	13281
2026-01-27 03:28:16.55	6.64	5.31	-39.6	-51.2	3.8	8.46e-01	0	56	104	0	51	13259
2026-01-27 03:28:17.56	6.55	5.37	-39.6	-51.2	3.8	8.46e-01	0	56	104	0	51	13247
2026-01-27 03:28:18.57	6.47	5.43	-39.6	-51.2	3.8	8.46e-01	0	57	104	0	51	13209
2026-01-27 03:28:19.58	6.39	5.49	-39.6	-51.2	3.8	8.46e-01	0	56	104	0	51	13239
2026-01-27 03:28:20.59	6.30	5.55	-39.6	-51.2	3.8	8.47e-01	0	57	104	0	51	13243
2026-01-27 03:28:21.60	6.22	5.62	-39.6	-51.2	3.8	8.46e-01	0	57	104	0	51	13244
2026-01-27 03:28:22.61	6.14	5.68	-39.6	-51.2	3.8	8.46e-01	0	57	104	0	51	13210
2026-01-27 03:28:23.62	6.05	5.74	-39.6	-51.2	3.8	8.46e-01	0	57	104	0	51	13258
2026-01-27 03:28:24.63	5.97	5.80	-39.6	-51.2	3.8	8.46e-01	0	57	104	0	51	13231
2026-01-27 03:28:25.64	5.88	5.86	-39.6	-51.2	3.8	8.46e-01	0	57	104	0	51	13235
2026-01-27 03:28:26.65	5.79	5.93	-39.6	-51.2	3.8	8.46e-01	0	57	104	0	51	13225
2026-01-27 03:28:27.66	5.71	5.99	-39.6	-51.2	3.8	8.45e-01	0	57	104	0	51	13224
2026-01-27 03:28:28.67	5.62	6.05	-39.6	-51.2	3.8	8.46e-01	0	57	104	0	51	13229
2026-01-27 03:28:29.68	5.53	6.11	-39.6	-51.2	3.8	8.47e-01	0	57	104	0	51	13260
2026-01-27 03:28:30.69	5.45	6.18	-39.6	-51.2	3.8	8.46e-01	0	57	104	0	51	13227
2026-01-27 03:28:31.71	5.36	6.24	-39.6	-51.2	3.8	8.47e-01	0	57	104	0	51	13255
2026-01-27 03:28:32.71	5.27	6.30	-39.6	-51.2	3.8	8.47e-01	0	57	104	0	51	13219
2026-01-27 03:28:33.72	5.18	6.36	-39.6	-51.2	3.8	8.46e-01	0	57	104	0	51	13210
2026-01-27 03:28:34.73	5.09	6.43	-39.6	-51.2	3.8	8.46e-01	0	57	104	0	51	13248
2026-01-27 03:28:35.75	5.00	6.49	-39.6	-51.2	3.8	8.46e-01	0	57	104	0	51	13222
2026-01-27 03:28:36.76	4.91	6.55	-39.6	-51.2	3.8	8.46e-01	0	57	104	0	51	13235
2026-01-27 03:28:37.77	4.82	6.62	-39.6	-51.2	3.8	8.45e-01	0	57	104	0	51	13259
2026-01-27 03:28:38.78	4.73	6.68	-39.6	-51.2	3.8	8.47e-01	0	57	104	0	51	13237
2026-01-27 03:28:39.79	4.64	6.74	-39.6	-51.2	3.8	8.46e-01	0	57	104	0	51	13193
2026-01-27 03:28:40.80	4.55	6.81	-39.6	-51.2	3.8	8.47e-01	0	57	104	0	51	13204
2026-01-27 03:28:41.81	4.46	6.87	-39.6	-51.2	3.8	8.46e-01	0	58	104	0	51	13218
2026-01-27 03:28:42.82	4.36	6.93	-39.6	-51.2	3.8	8.46e-01	0	58	104	0	51	13168
2026-01-27 03:28:43.83	4.27	7.00	-39.6	-51.2	3.8	8.47e-01	0	58	104	0	51	13210
2026-01-27 03:28:44.84	4.18	7.06	-39.6	-51.2	3.8	8.47e-01	0	57	104	0	51	13252
2026-01-27 03:28:45.85	4.08	7.13	-39.6	-51.2	3.8	8.46e-01	0	58	104	0	51	13208
2026-01-27 03:28:46.86	3.99	7.19	-39.6	-51.2	3.8	8.46e-01	0	58	104	0	51	13152
2026-01-27 03:28:47.87	3.90	7.25	-39.6	-51.2	3.8	8.46e-01	0	58	104	0	51	13210
2026-01-27 03:28:48.88	3.80	7.32	-39.6	-51.2	3.8	8.46e-01	0	58	104	0	51	13193
2026-01-27 03:28:49.89	3.71	7.38	-39.6	-51.2	3.8	8.47e-01	0	58	104	0	51	13198
2026-01-27 03:28:50.91	3.61	7.45	-39.6	-51.2	3.8	8.46e-01	0	58	104	0	51	13214
2026-01-27 03:28:51.92	3.51	7.51	-39.6	-51.2	3.8	8.46e-01	0	58	104	0	51	13220
2026-01-27 03:28:52.93	3.42	7.58	-39.6	-51.2	3.8	8.45e-01	0	58	104	0	51	13187
2026-01-27 03:28:53.94	3.32	7.64	-39.6	-51.2	3.8	8.46e-01	0	58	104	0	51	13223
2026-01-27 03:28:54.95	3.22	7.71	-39.6	-51.2	3.8	8.46e-01	0	58	104	0	51	13209
2026-01-27 03:28:55.96	3.12	7.77	-39.6	-51.2	3.8	8.47e-01	0	58	104	0	51	13214
2026-01-27 03:28:56.97	3.03	7.84	-39.6	-51.2	3.8	8.47e-01	0	58	104	0	51	13172
2026-01-27 03:28:57.98	2.93	7.90	-39.6	-51.2	3.8	8.47e-01	0	58	104	0	51	13166
2026-01-27 03:28:58.99	2.83	7.97	-39.6	-51.2	3.8	8.47e-01	0	58	104	0	51	13187
2026-01-27 03:29:00.00	2.73	8.03	-39.6	-51.2	3.8	8.45e-01	0	58	104	0	51	13184
2026-01-27 03:29:01.01	2.63	8.10	-39.7	-51.3	3.8	8.46e-01	0	58	104	0	51	13331
2026-01-27 03:29:02.02	2.53	8.16	-39.8	-51.3	3.8	8.46e-01	0	58	104	0	51	13404
2026-01-27 03:29:03.03	2.42	8.23	-39.8	-51.4	3.8	8.46e-01	0	58	104	0	51	13507
2026-01-27 03:29:04.04	2.32	8.29	-39.9	-51.5	3.8	8.45e-01	0	58	104	0	51	13621
2026-01-27 03:29:05.05	2.22	8.36	-39.8	-51.3	3.8	8.45e-01	0	58	104	0	51	13394
2026-01-27 03:29:06.06	2.12	8.42	-39.9	-51.5	3.8	8.47e-01	0	58	104	0	51	13631
2026-01-27 03:29:07.07	2.01	8.49	-39.9	-51.4	3.8	8.48e-01	0	58	104	0	51	13535
2026-01-27 03:29:08.08	1.91	8.55	-39.9	-51.5	3.8	8.46e-01	0	58	104	0	51	13629
2026-01-27 03:29:09.09	1.81	8.62	-39.8	-51.4	3.8	8.44e-01	0	59	104	0	51	13454
2026-01-27 03:29:10.10	1.70	8.69	-39.9	-51.5	3.8	8.46e-01	0	58	104	0	51	13612
2026-01-27 03:29:11.11	1.60	8.75	-39.8	-51.4	3.8	8.47e-01	0	58	104	0	51	13519
2026-01-27 03:29:12.12	1.49	8.82	-39.8	-51.4	3.8	8.46e-01	0	59	104	0	51	13531
2026-01-27 03:29:13.13	1.39	8.88	-39.8	-51.4	3.8	8.47e-01	0	59	104	0	51	13545
2026-01-27 03:29:14.14	1.28	8.95	-39.9	-51.5	3.8	8.47e-01	0	59	104	0	51	13613
2026-01-27 03:29:15.15	1.17	9.02	-39.8	-51.4	3.8	8.46e-01	0	58	104	0	51	13440
2026-01-27 03:29:16.16	1.06	9.08	-39.8	-51.4	3.8	8.46e-01	0	58	104	0	51	13559
2026-01-27 03:29:17.17	0.96	9.15	-39.9	-51.5	3.8	8.47e-01	0	59	104	0	51	13592
2026-01-27 03:29:18.18	0.85	9.22	-39.9	-51.5	3.8	8.45e-01	0	59	104	0	51	13608
2026-01-27 03:29:19.19	0.74	9.28	-39.8	-51.4	3.8	8.46e-01	0	59	104	0	51	13483
2026-01-27 03:29:20.20	0.63	9.35	-39.9	-51.5	3.8	8.45e-01	0	59	104	0	51	13589
2026-01-27 03:29:21.21	0.52	9.42	-39.8	-51.4	3.8	8.46e-01	0	59	104	0	51	13525
2026-01-27 03:29:22.22	0.41	9.48	-39.9	-51.5	3.8	8.47e-01	0	59	104	0	51	13678
2026-01-27 03:29:23.23	0.30	9.55	-39.8	-51.4	3.8	8.46e-01	0	59	104	0	51	13541
2026-01-27 03:29:24.24	0.18	9.62	-39.9	-51.5	3.8	8.46e-01	0	59	104	0	51	13594
2026-01-27 03:29:25.25	0.07	9.69	-39.8	-51.4	3.8	8.46e-01	0	59	104	0	51	13451
2026-01-27 03:29:26.26	359.96	9.75	-39.9	-51.5	3.8	8.45e-01	0	59	104	0	51	13691
2026-01-27 03:29:27.27	359.85	9.82	-39.8	-51.4	3.8	8.46e-01	0	59	104	0	51	13522
2026-01-27 03:29:28.28	359.73	9.89	-39.8	-51.4	3.8	8.46e-01	0	59	104	0	51	13557
2026-01-27 03:29:29.29	359.62	9.95	-39.8	-51.4	3.8	8.47e-01	0	59	104	0	51	13559
2026-01-27 03:29:30.30	359.50	10.02	-39.9	-51.5	3.8	8.47e-01	0	59	104	0	51	13713
2026-01-27 03:29:31.31	359.39	10.09	-39.8	-51.4	3.8	8.46e-01	0	59	104	0	51	13458
2026-01-27 03:29:32.32	359.27	10.16	-39.9	-51.5	3.8	8.47e-01	0	59	104	0	51	13623
2026-01-27 03:29:33.33	359.15	10.22	-39.8	-51.4	3.8	8.47e-01	0	59	104	0	51	13561
2026-01-27 03:29:34.34	359.04	10.29	-39.9	-51.5	3.8	8.46e-01	0	59	104	0	51	13725
2026-01-27 03:29:35.35	358.92	10.36	-39.8	-51.4	3.8	8.46e-01	0	59	104	0	51	13450
2026-01-27 03:29:36.35	358.80	10.43	-39.9	-51.5	3.8	8.46e-01	0	59	104	0	51	13721
2026-01-27 03:29:37.37	358.68	10.50	-39.9	-51.5	3.8	8.46e-01	0	59	104	0	51	13592
2026-01-27 03:29:38.38	358.56	10.56	-40.0	-51.6	3.8	8.47e-01	0	59	104	0	51	13832
2026-01-27 03:29:39.39	358.44	10.63	-39.8	-51.4	3.8	8.47e-01	0	59	104	0	51	13474
2026-01-27 03:29:40.40	358.32	10.70	-40.0	-51.6	3.8	8.47e-01	0	59	104	0	51	13875
2026-01-27 03:29:41.41	358.20	10.77	-39.9	-51.5	3.8	8.47e-01	0	59	104	0	51	13688
2026-01-27 03:29:42.42	358.08	10.84	-40.1	-51.7	3.8	8.46e-01	0	59	104	0	51	13958
2026-01-27 03:29:43.43	357.96	10.90	-39.9	-51.5	3.8	8.45e-01	0	59	104	0	51	13696
2026-01-27 03:29:44.44	357.83	10.97	-40.1	-51.7	3.8	8.45e-01	0	59	104	0	51	13980
2026-01-27 03:29:45.45	357.71	11.04	-40.1	-51.7	3.8	8.47e-01	0	59	104	0	51	13938
2026-01-27 03:29:46.46	357.59	11.11	-40.2	-51.8	3.8	8.46e-01	0	59	104	0	51	14124
2026-01-27 03:29:47.47	357.46	11.18	-39.9	-51.5	3.8	8.47e-01	0	60	104	0	51	13630
2026-01-27 03:29:48.48	357.34	11.25	-39.9	-51.5	3.8	8.46e-01	0	60	104	0	51	13643
2026-01-27 03:29:49.49	357.21	11.32	-39.9	-51.4	3.8	8.47e-01	0	59	104	0	51	13563
2026-01-27 03:29:50.50	357.08	11.38	-39.9	-51.5	3.8	8.46e-01	0	60	104	0	51	13641
2026-01-27 03:29:51.51	356.96	11.45	-39.9	-51.5	3.8	8.45e-01	0	60	104	0	51	13636
2026-01-27 03:29:52.52	356.83	11.52	-40.0	-51.6	3.8	8.47e-01	0	60	104	0	51	13769
2026-01-27 03:29:53.53	356.70	11.59	-40.0	-51.5	3.8	8.48e-01	0	60	104	0	51	13637
2026-01-27 03:29:54.54	356.57	11.66	-40.4	-50.6	3.8	8.45e-01	0	60	104	0	51	12256
2026-01-27 03:29:55.55	356.44	11.73	-41.4	-50.9	3.8	8.43e-01	0	60	104	0	53	11399
2026-01-27 03:29:56.56	356.31	11.80	-41.1	-49.9	3.9	8.47e-01	0	60	104	0	53	10062
2026-01-27 03:29:57.57	356.18	11.87	-41.0	-50.5	4.0	8.46e-01	0	60	104	0	53	10818
2026-01-27 03:29:58.57	356.05	11.94	-41.2	-50.7	3.9	8.45e-01	0	60	104	0	53	11094
2026-01-27 03:29:59.59	355.92	12.01	-41.2	-50.9	3.8	8.45e-01	0	60	104	0	53	11384
2026-01-27 03:30:00.60	355.78	12.08	-41.2	-51.3	3.8	8.45e-01	0	60	104	0	53	11916
2026-01-27 03:30:01.60	355.65	12.14	-41.2	-51.7	3.8	8.47e-01	0	60	104	0	53	12508
2026-01-27 03:30:02.61	355.52	12.21	-40.4	-51.3	3.8	8.46e-01	0	60	104	0	52	12625
2026-01-27 03:30:03.62	355.38	12.28	-40.4	-52.0	3.8	8.46e-01	0	60	104	0	52	13572
2026-01-27 03:30:04.64	355.25	12.35	-40.6	-51.1	3.8	8.46e-01	0	60	104	0	52	12363
2026-01-27 03:30:05.64	355.11	12.42	-40.6	-51.0	3.8	8.46e-01	0	60	104	0	52	12166
2026-01-27 03:30:06.65	354.97	12.49	-40.6	-51.5	3.8	8.46e-01	0	60	104	0	52	12835
2026-01-27 03:30:07.66	354.84	12.56	-40.5	-51.6	3.8	8.46e-01	0	60	104	0	52	13011
2026-01-27 03:30:08.67	354.70	12.63	-40.4	-51.6	3.8	8.46e-01	0	60	104	0	52	13103
2026-01-27 03:30:09.68	354.56	12.70	-40.4	-51.8	3.8	8.46e-01	0	60	104	0	52	13328
2026-01-27 03:30:10.69	354.42	12.77	-40.3	-51.8	3.8	8.45e-01	0	60	104	0	52	13414
2026-01-27 03:30:11.70	354.28	12.84	-40.5	-52.0	3.8	8.47e-01	0	60	104	0	52	13688
2026-01-27 03:30:12.71	354.14	12.91	-40.3	-51.9	3.8	8.46e-01	0	60	104	0	52	13418
2026-01-27 03:30:13.72	354.00	12.98	-40.3	-51.9	3.8	8.46e-01	0	60	104	0	52	13492
2026-01-27 03:30:14.73	353.86	13.05	-40.3	-52.0	3.8	8.46e-01	0	60	104	0	52	13579
2026-01-27 03:30:15.75	353.71	13.12	-40.5	-52.1	3.8	8.45e-01	0	60	104	0	52	13758
2026-01-27 03:30:16.76	353.57	13.19	-40.3	-51.8	3.8	8.46e-01	0	60	104	0	52	13360
2026-01-27 03:30:17.77	353.42	13.26	-40.6	-52.2	3.8	8.47e-01	0	60	104	0	52	13902
2026-01-27 03:30:18.78	353.28	13.33	-40.3	-51.9	3.8	8.45e-01	0	60	104	0	52	13476
2026-01-27 03:30:19.79	353.13	13.40	-40.4	-52.0	3.8	8.47e-01	0	60	104	0	52	13605
2026-01-27 03:30:20.79	352.99	13.47	-40.4	-52.0	3.8	8.46e-01	0	60	104	0	52	13667
2026-01-27 03:30:21.80	352.84	13.54	-40.6	-52.2	3.8	8.46e-01	0	60	104	0	52	13996
2026-01-27 03:30:22.81	352.69	13.61	-40.4	-52.0	3.8	8.46e-01	0	60	104	0	52	13654
2026-01-27 03:30:23.83	352.54	13.68	-40.5	-52.1	3.8	8.47e-01	0	60	104	0	52	13794
2026-01-27 03:30:24.84	352.39	13.75	-40.6	-52.1	3.8	8.47e-01	0	60	104	0	52	13815
2026-01-27 03:30:25.85	352.24	13.82	-40.5	-52.1	3.8	8.47e-01	0	60	104	0	52	13807
2026-01-27 03:30:26.86	352.09	13.89	-40.6	-52.2	3.8	8.45e-01	0	60	104	0	52	13965
2026-01-27 03:30:27.87	351.94	13.96	-40.6	-52.2	3.8	8.46e-01	0	60	104	0	52	13933
2026-01-27 03:30:28.88	351.79	14.03	-40.5	-52.1	3.8	8.47e-01	0	60	104	0	52	13779
2026-01-27 03:30:29.89	351.64	14.10	-40.7	-52.3	3.8	8.46e-01	0	60	104	0	52	14075
2026-01-27 03:30:30.90	351.48	14.17	-40.6	-52.2	3.8	8.47e-01	0	61	104	0	52	13934
2026-01-27 03:30:31.91	351.33	14.24	-40.6	-52.2	3.8	8.46e-01	0	60	104	0	52	13888
2026-01-27 03:30:32.92	351.17	14.31	-40.7	-52.3	3.8	8.46e-01	0	60	104	0	52	14117
2026-01-27 03:30:33.93	351.02	14.38	-40.8	-52.3	3.8	8.47e-01	0	60	104	0	52	14202
2026-01-27 03:30:34.94	350.86	14.45	-40.5	-52.1	3.8	8.47e-01	0	60	104	0	52	13818
2026-01-27 03:30:35.95	350.70	14.52	-40.8	-52.4	3.8	8.47e-01	0	61	104	0	52	14253
2026-01-27 03:30:36.96	350.55	14.58	-40.7	-52.3	3.8	8.46e-01	0	61	104	0	52	14125
2026-01-27 03:30:37.97	350.39	14.65	-40.9	-52.5	3.8	8.46e-01	0	60	104	0	52	14463
2026-01-27 03:30:38.98	350.23	14.72	-40.7	-52.3	3.8	8.45e-01	0	60	104	0	52	14142
2026-01-27 03:30:39.99	350.07	14.79	-40.7	-52.3	3.8	8.45e-01	0	61	104	0	52	14160
2026-01-27 03:30:40.99	349.91	14.86	-40.6	-52.2	3.8	8.46e-01	0	61	104	0	52	14046
2026-01-27 03:30:42.01	349.74	14.93	-41.2	-52.7	3.8	8.45e-01	0	61	104	0	52	14869
2026-01-27 03:30:43.02	349.58	15.00	-40.8	-52.4	3.8	8.46e-01	0	61	104	0	52	14330
2026-01-27 03:30:44.03	349.42	15.07	-40.7	-52.3	3.8	8.46e-01	0	60	104	0	52	14131
2026-01-27 03:30:45.04	349.25	15.14	-41.1	-52.6	3.8	8.46e-01	0	61	104	0	52	14668
2026-01-27 03:30:46.05	349.09	15.21	-41.3	-52.8	3.8	8.46e-01	0	61	104	0	53	14143
2026-01-27 03:30:47.06	348.92	15.28	-40.9	-52.5	3.8	8.47e-01	0	61	104	0	53	13700
2026-01-27 03:30:48.07	348.76	15.35	-41.2	-52.8	3.8	8.46e-01	0	61	104	0	53	14049
2026-01-27 03:30:49.08	348.59	15.42	-41.2	-52.8	3.8	8.46e-01	0	61	104	0	53	14146
2026-01-27 03:30:50.09	348.42	15.49	-41.4	-52.9	3.8	8.47e-01	0	61	104	0	53	14223
2026-01-27 03:30:51.10	348.25	15.56	-41.1	-52.7	3.8	8.46e-01	0	61	104	0	53	14003
2026-01-27 03:30:52.11	348.08	15.63	-41.4	-52.9	3.8	8.46e-01	0	61	104	0	53	14345
2026-01-27 03:30:53.12	347.91	15.70	-41.4	-53.0	3.8	8.45e-01	0	61	104	0	53	14420
2026-01-27 03:30:54.13	347.74	15.77	-41.4	-52.9	3.8	8.46e-01	0	61	104	0	53	14237
2026-01-27 03:30:55.14	347.57	15.84	-41.3	-52.8	3.8	8.48e-01	0	61	104	0	53	14116
2026-01-27 03:30:56.15	347.40	15.90	-41.5	-52.9	3.8	8.46e-01	0	61	104	0	53	14362
2026-01-27 03:30:57.16	347.22	15.97	-41.4	-53.0	3.8	8.46e-01	0	61	104	0	53	14445
2026-01-27 03:30:58.17	347.05	16.04	-41.1	-52.7	3.8	8.46e-01	0	61	104	0	53	13947
2026-01-27 03:30:59.18	346.87	16.11	-41.4	-52.9	3.8	8.46e-01	0	61	104	0	53	14219
2026-01-27 03:31:00.19	346.70	16.18	-41.4	-52.9	3.8	8.46e-01	0	61	104	0	53	14227
2026-01-27 03:31:01.20	346.52	16.25	-41.1	-52.6	3.8	8.46e-01	0	61	104	0	53	13836
2026-01-27 03:31:02.21	346.34	16.32	-40.8	-52.4	3.8	8.46e-01	0	61	104	0	53	13450
2026-01-27 03:31:03.22	346.16	16.39	-41.3	-52.8	3.8	8.46e-01	0	61	104	0	53	14143
2026-01-27 03:31:04.23	345.98	16.45	-41.0	-52.6	3.8	8.45e-01	0	61	104	0	53	13737
2026-01-27 03:31:05.24	345.80	16.52	-40.7	-52.3	3.8	8.45e-01	0	61	104	0	53	13312
2026-01-27 03:31:06.25	345.62	16.59	-40.8	-52.4	3.8	8.46e-01	0	61	104	0	53	13492
2026-01-27 03:31:07.26	345.44	16.66	-41.0	-52.6	3.8	8.45e-01	0	61	104	0	53	13760
2026-01-27 03:31:08.27	345.25	16.73	-40.8	-52.4	3.8	8.47e-01	0	61	104	0	53	13430
2026-01-27 03:31:09.28	345.07	16.79	-40.7	-52.3	3.8	8.46e-01	0	61	104	0	53	13274
2026-01-27 03:31:10.29	344.89	16.86	-40.8	-52.4	3.8	8.46e-01	0	61	104	0	53	13446
2026-01-27 03:31:11.30	344.70	16.93	-40.8	-52.4	3.8	8.46e-01	0	61	104	0	53	13516
2026-01-27 03:31:12.31	344.51	17.00	-40.8	-52.3	3.8	8.45e-01	0	61	104	0	53	13400
2026-01-27 03:31:13.32	344.33	17.06	-40.5	-52.1	3.8	8.45e-01	0	61	104	0	53	12997
2026-01-27 03:31:14.33	344.14	17.13	-40.6	-52.1	3.8	8.44e-01	0	61	104	0	53	13079
2026-01-27 03:31:15.34	343.95	17.20	-40.9	-52.5	3.8	8.46e-01	0	61	104	0	53	13577
2026-01-27 03:31:16.35	343.76	17.26	-40.5	-52.1	3.8	8.46e-01	0	61	104	0	53	13033
2026-01-27 03:31:17.36	343.57	17.33	-40.6	-52.1	3.8	8.46e-01	0	61	104	0	53	13040
2026-01-27 03:31:18.37	343.38	17.40	-40.7	-52.2	3.8	8.46e-01	0	61	104	0	53	13181
2026-01-27 03:31:19.38	343.19	17.46	-40.6	-52.1	3.8	8.47e-01	0	61	104	0	53	13095
2026-01-27 03:31:20.39	342.99	17.53	-40.6	-52.2	3.8	8.46e-01	0	61	104	0	53	13151
2026-01-27 03:31:21.40	342.80	17.60	-40.5	-52.1	3.8	8.45e-01	0	61	104	0	53	12975
2026-01-27 03:31:22.41	342.60	17.66	-40.6	-52.2	3.8	8.46e-01	0	61	104	0	53	13111
2026-01-27 03:31:23.42	342.41	17.73	-40.6	-52.2	3.8	8.46e-01	0	61	104	0	53	13125
2026-01-27 03:31:24.43	342.21	17.79	-40.5	-52.1	3.8	8.47e-01	0	61	104	0	53	13035
2026-01-27 03:31:25.44	342.01	17.86	-40.4	-52.0	3.8	8.46e-01	0	61	104	0	52	13606
2026-01-27 03:31:26.45	341.82	17.92	-40.6	-52.2	3.8	8.46e-01	0	61	104	0	52	13889
2026-01-27 03:31:27.46	341.62	17.99	-40.5	-52.1	3.8	8.45e-01	0	61	104	0	52	13822
2026-01-27 03:31:28.47	341.42	18.06	-40.6	-52.3	3.8	8.47e-01	0	61	104	0	52	14109
2026-01-27 03:31:29.48	341.21	18.12	-40.8	-52.3	3.8	8.46e-01	0	61	104	0	52	14207
2026-01-27 03:31:30.49	341.01	18.18	-40.7	-52.3	3.8	8.45e-01	0	61	104	0	52	14151
2026-01-27 03:31:31.50	340.81	18.25	-40.7	-52.2	3.8	8.46e-01	0	61	104	0	52	13966
2026-01-27 03:31:32.51	340.61	18.31	-40.8	-52.2	3.8	8.46e-01	0	61	104	0	52	13984
2026-01-27 03:31:33.52	340.40	18.38	-41.0	-52.1	3.8	8.46e-01	0	61	104	0	52	13766
2026-01-27 03:31:34.53	340.20	18.44	-41.0	-51.7	3.8	8.45e-01	0	61	104	0	52	13127
2026-01-27 03:31:35.54	339.99	18.50	-41.0	-50.5	3.8	8.45e-01	0	61	104	0	52	11459
2026-01-27 03:31:36.55	339.78	18.57	-40.9	-48.6	4.5	8.30e-01	0	61	0	0	52	9272
2026-01-27 03:31:37.56	339.58	18.63	-40.7	-46.5	5.9	7.22e-01	0	61	0	0	52	7270
2026-01-27 03:31:38.57	339.37	18.69	-40.1	-44.3	8.1	9.91e-02	0	61	0	6291456	52	5638
2026-01-27 03:31:39.58	339.16	18.76	-39.3	-42.4	10.5	1.31e-02	0	61	0	11534336	50	5079
2026-01-27 03:31:40.59	338.95	18.82	-38.5	-41.0	12.3	4.45e-04	0	61	0	17825792	48	4825
2026-01-27 03:31:41.60	338.73	18.88	-37.7	-39.9	13.5	4.57e-05	0	61	0	23068672	47	4511
2026-01-27 03:31:42.61	338.52	18.94	-37.5	-39.6	14.0	6.80e-06	0	61	0	28311552	47	4347
2026-01-27 03:31:43.62	338.31	19.00	-37.0	-38.8	14.8	0.00e+00	0	61	0	34603008	46	4241
2026-01-27 03:31:44.63	338.09	19.06	-36.7	-38.4	15.2	0.00e+00	0	61	0	39845888	45	4283
2026-01-27 03:31:45.64	337.88	19.13	-36.5	-38.2	15.5	0.00e+00	0	61	0	46137344	45	4175
2026-01-27 03:31:46.65	337.66	19.19	-36.6	-38.3	15.5	0.00e+00	0	61	0	51380224	45	4222
2026-01-27 03:31:47.66	337.45	19.25	-37.0	-38.7	15.2	0.00e+00	0	61	0	56623104	45	4429
2026-01-27 03:31:48.67	337.23	19.31	-36.6	-38.2	15.9	0.00e+00	0	61	0	62914560	45	4168
2026-01-27 03:31:49.68	337.01	19.37	-36.6	-38.2	16.1	0.00e+00	0	62	0	68157440	44	4441
2026-01-27 03:31:50.69	336.79	19.43	-37.1	-38.8	15.6	0.00e+00	0	61	0	74448896	44	4731
2026-01-27 03:31:51.70	336.57	19.49	-36.7	-38.4	16.0	0.00e+00	0	61	0	79691776	44	4500
2026-01-27 03:31:52.71	336.35	19.54	-36.8	-38.5	15.9	0.00e+00	0	61	0	84934656	44	4563
2026-01-27 03:31:53.72	336.13	19.60	-36.8	-38.5	15.9	0.00e+00	0	61	0	91226112	44	4567
2026-01-27 03:31:54.73	335.90	19.66	-36.6	-38.2	16.2	0.00e+00	0	61	0	96468992	44	4424
2026-01-27 03:31:55.74	335.68	19.72	-36.6	-38.2	16.3	0.00e+00	0	61	0	102760448	44	4412
2026-01-27 03:31:56.75	335.46	19.78	-36.6	-38.2	16.3	0.00e+00	0	61	0	108003328	44	4415
2026-01-27 03:31:57.76	335.23	19.84	-36.6	-38.2	16.4	0.00e+00	0	61	0	114294784	44	4426
2026-01-27 03:31:58.77	335.00	19.89	-36.5	-38.0	16.6	0.00e+00	0	62	0	119537664	44	4333
2026-01-27 03:31:59.78	334.78	19.95	-36.5	-38.1	16.5	0.00e+00	0	61	0	125829120	44	4349
2026-01-27 03:32:00.79	334.55	20.01	-36.6	-38.2	16.5	0.00e+00	0	61	0	131072000	44	4405
2026-01-27 03:32:01.81	334.32	20.06	-36.6	-38.1	16.5	0.00e+00	0	61	0	136314880	44	4385
2026-01-27 03:32:02.82	334.09	20.12	-36.5	-38.0	16.7	0.00e+00	0	61	0	142606336	44	4316
2026-01-27 03:32:03.83	333.86	20.17	-36.5	-38.0	16.6	0.00e+00	0	62	0	147849216	44	4335
2026-01-27 03:32:04.84	333.63	20.23	-36.5	-38.0	16.7	0.00e+00	0	61	0	154140672	44	4332
2026-01-27 03:32:05.85	333.39	20.28	-36.5	-38.1	16.6	0.00e+00	0	62	0	159383552	44	4364
2026-01-27 03:32:06.86	333.16	20.34	-36.5	-38.0	16.7	0.00e+00	0	62	0	164626432	44	4340
2026-01-27 03:32:07.87	332.93	20.39	-36.5	-38.0	16.7	0.00e+00	0	61	0	170917888	44	4326
2026-01-27 03:32:08.88	332.69	20.44	-36.5	-38.1	16.6	0.00e+00	0	61	0	176160768	44	4346
2026-01-27 03:32:09.89	332.46	20.50	-36.4	-37.9	16.8	0.00e+00	0	61	0	182452224	44	4270
2026-01-27 03:32:10.90	332.22	20.55	-36.4	-37.8	16.9	0.00e+00	0	62	0	187695104	44	4240
2026-01-27 03:32:11.91	331.98	20.60	-36.3	-37.8	17.0	0.00e+00	0	62	0	192937984	44	4214
2026-01-27 03:32:12.92	331.75	20.65	-36.3	-37.7	17.0	0.00e+00	0	62	0	199229440	44	4190
2026-01-27 03:32:13.93	331.51	20.71	-36.1	-37.6	17.2	0.00e+00	0	61	0	204472320	44	4130
2026-01-27 03:32:14.94	331.27	20.76	-36.1	-37.6	17.2	0.00e+00	0	61	0	210763776	44	4113
2026-01-27 03:32:15.95	331.03	20.81	-36.1	-37.5	17.2	0.00e+00	0	62	0	216006656	44	4086
2026-01-27 03:32:16.97	330.78	20.86	-36.1	-37.6	17.2	0.00e+00	0	61	0	222298112	44	4114
2026-01-27 03:32:17.97	330.54	20.91	-36.2	-37.6	17.1	0.00e+00	0	62	0	227540992	44	4139
2026-01-27 03:32:18.99	330.30	20.96	-36.2	-37.6	17.1	0.00e+00	0	61	0	233832448	44	4140
2026-01-27 03:32:20.00	330.05	21.00	-36.3	-37.7	17.1	0.00e+00	0	61	0	239075328	44	4186
2026-01-27 03:32:21.01	329.81	21.05	-36.2	-37.7	17.1	0.00e+00	0	61	0	244318208	44	4178
2026-01-27 03:32:22.02	329.56	21.10	-36.2	-37.6	17.2	0.00e+00	0	61	0	250609664	44	4136
2026-01-27 03:32:23.03	329.32	21.15	-36.1	-37.5	17.3	0.00e+00	0	62	0	255852544	44	4075
2026-01-27 03:32:24.04	329.07	21.20	-36.1	-37.5	17.3	0.00e+00	0	62	0	262144000	44	4097
2026-01-27 03:32:25.05	328.82	21.24	-36.1	-37.6	17.2	0.00e+00	0	61	0	267386880	44	4102
2026-01-27 03:32:26.06	328.58	21.29	-36.2	-37.6	17.2	0.00e+00	0	61	0	272629760	44	4136
2026-01-27 03:32:27.07	328.33	21.33	-36.3	-37.8	17.1	0.00e+00	0	61	0	278921216	44	4194
2026-01-27 03:32:28.08	328.08	21.38	-36.3	-37.8	17.0	0.00e+00	0	62	0	284164096	44	4203
2026-01-27 03:32:29.09	327.83	21.42	-36.2	-37.6	17.2	0.00e+00	0	61	0	290455552	44	4136
2026-01-27 03:32:30.10	327.58	21.47	-36.2	-37.6	17.2	0.00e+00	0	62	0	295698432	44	4135
2026-01-27 03:32:31.11	327.32	21.51	-36.1	-37.6	17.2	0.00e+00	0	62	0	300941312	44	4110
2026-01-27 03:32:32.12	327.07	21.55	-36.1	-37.5	17.3	0.00e+00	0	62	0	307232768	44	4086
2026-01-27 03:32:33.13	326.82	21.60	-36.0	-37.4	17.4	0.00e+00	0	62	0	312475648	44	4043
2026-01-27 03:32:34.14	326.56	21.64	-36.0	-37.5	17.4	0.00e+00	0	61	0	318767104	44	4056
2026-01-27 03:32:35.15	326.31	21.68	-35.8	-37.2	17.4	0.00e+00	0	62	0	324009984	43	4178
2026-01-27 03:32:36.16	326.05	21.72	-35.8	-37.2	17.4	0.00e+00	0	61	0	330301440	43	4185
2026-01-27 03:32:37.17	325.80	21.76	-35.9	-37.3	17.4	0.00e+00	0	62	0	335544320	43	4200
2026-01-27 03:32:38.18	325.54	21.80	-35.9	-37.3	17.4	0.00e+00	0	62	0	341835776	43	4210
2026-01-27 03:32:39.19	325.28	21.84	-35.8	-37.2	17.4	0.00e+00	0	62	0	347078656	43	4185
2026-01-27 03:32:40.20	325.03	21.88	-35.8	-37.3	17.4	0.00e+00	0	62	0	352321536	43	4200
2026-01-27 03:32:41.22	324.76	21.92	-35.7	-37.2	17.5	0.00e+00	0	62	0	358612992	43	4161
2026-01-27 03:32:42.23	324.50	21.95	-35.8	-37.2	17.4	0.00e+00	0	62	0	363855872	43	4187
2026-01-27 03:32:43.24	324.24	21.99	-35.8	-37.3	17.4	0.00e+00	0	62	0	370147328	43	4202
2026-01-27 03:32:44.25	323.98	22.03	-35.8	-37.2	17.5	0.00e+00	0	61	0	375390208	43	4155
2026-01-27 03:32:45.26	323.72	22.06	-35.7	-37.1	17.5	0.00e+00	0	62	0	380633088	43	4115
2026-01-27 03:32:46.27	323.46	22.10	-35.7	-37.1	17.5	0.00e+00	0	62	0	386924544	43	4130
2026-01-27 03:32:47.28	323.20	22.13	-35.7	-37.2	17.5	0.00e+00	0	62	0	392167424	43	4152
2026-01-27 03:32:48.29	322.93	22.17	-35.7	-37.1	17.5	0.00e+00	0	61	0	398458880	43	4120
2026-01-27 03:32:49.30	322.67	22.20	-35.7	-37.1	17.5	0.00e+00	0	62	0	403701760	43	4136
2026-01-27 03:32:50.31	322.41	22.23	-35.7	-37.1	17.5	0.00e+00	0	61	0	408944640	43	4140
2026-01-27 03:32:51.32	322.14	22.26	-35.7	-37.1	17.5	0.00e+00	0	62	0	415236096	43	4113
2026-01-27 03:32:52.33	321.88	22.30	-35.6	-37.0	17.6	0.00e+00	0	61	0	420478976	43	4082
2026-01-27 03:32:53.34	321.61	22.33	-35.6	-37.0	17.6	0.00e+00	0	62	0	426770432	43	4075
2026-01-27 03:32:54.35	321.34	22.36	-35.7	-37.1	17.5	0.00e+00	0	62	0	432013312	43	4110
2026-01-27 03:32:55.36	321.08	22.39	-35.8	-37.2	17.4	0.00e+00	0	61	0	438304768	43	4164
2026-01-27 03:32:56.37	320.81	22.42	-35.8	-37.2	17.4	0.00e+00	0	62	0	443547648	43	4160
2026-01-27 03:32:57.38	320.54	22.44	-35.8	-37.3	17.4	0.00e+00	0	62	0	449839104	43	4197
2026-01-27 03:32:58.39	320.27	22.47	-35.8	-37.3	17.4	0.00e+00	0	62	0	455081984	43	4200
2026-01-27 03:32:59.40	320.00	22.50	-35.8	-37.2	17.4	0.00e+00	0	62	0	460324864	43	4174
2026-01-27 03:33:00.41	319.74	22.53	-35.8	-37.2	17.4	0.00e+00	0	62	0	466616320	43	4190
2026-01-27 03:33:01.42	319.47	22.55	-35.8	-37.2	17.4	0.00e+00	0	62	0	471859200	43	4191
2026-01-27 03:33:02.43	319.20	22.58	-35.8	-37.2	17.4	0.00e+00	0	62	0	478150656	43	4185
2026-01-27 03:33:03.44	318.92	22.60	-35.7	-37.1	17.5	0.00e+00	0	61	0	483393536	43	4122
2026-01-27 03:33:04.45	318.65	22.62	-35.7	-37.1	17.5	0.00e+00	0	62	0	488636416	43	4143
2026-01-27 03:33:05.46	318.38	22.65	-35.8	-37.2	17.4	0.00e+00	0	61	0	494927872	43	4160
2026-01-27 03:33:06.47	318.11	22.67	-35.8	-37.2	17.4	0.00e+00	0	62	0	500170752	43	4161
2026-01-27 03:33:07.48	317.84	22.69	-35.7	-37.2	17.5	0.00e+00	0	62	0	506462208	43	4147
2026-01-27 03:33:08.49	317.56	22.71	-35.7	-37.1	17.5	0.00e+00	0	62	0	511705088	43	4143
2026-01-27 03:33:09.50	317.29	22.73	-35.7	-37.1	17.6	0.00e+00	0	62	0	516947968	43	4111
2026-01-27 03:33:10.51	317.02	22.75	-35.6	-37.0	17.7	0.00e+00	0	62	0	523239424	43	4062
2026-01-27 03:33:11.52	316.74	22.77	-35.5	-36.8	17.8	0.00e+00	0	62	0	528482304	42	4237
2026-01-27 03:33:12.53	316.47	22.79	-35.4	-36.7	17.9	0.00e+00	0	62	0	534773760	42	4179
2026-01-27 03:33:13.54	316.19	22.81	-35.3	-36.7	18.0	0.00e+00	0	62	0	540016640	42	4154
2026-01-27 03:33:14.55	315.92	22.83	-35.3	-36.7	18.0	0.00e+00	0	62	0	546308096	42	4146
2026-01-27 03:33:15.56	315.64	22.84	-35.3	-36.6	18.0	0.00e+00	0	62	0	551550976	42	4137
2026-01-27 03:33:16.57	315.37	22.86	-35.3	-36.7	18.0	0.00e+00	0	62	0	556793856	42	4166
2026-01-27 03:33:17.58	315.09	22.87	-35.4	-36.8	17.8	0.00e+00	0	62	0	563085312	42	4217
2026-01-27 03:33:18.59	314.82	22.89	-35.5	-36.9	17.8	0.00e+00	0	62	0	568328192	42	4252
2026-01-27 03:33:19.61	314.54	22.90	-35.5	-36.9	17.7	0.00e+00	0	62	0	574619648	42	4277
2026-01-27 03:33:20.61	314.26	22.91	-35.6	-37.0	17.7	0.00e+00	0	62	0	579862528	42	4301
2026-01-27 03:33:21.63	313.99	22.93	-35.6	-37.0	17.6	0.00e+00	0	62	0	585105408	42	4326
2026-01-27 03:33:22.64	313.71	22.94	-35.6	-37.0	17.7	0.00e+00	0	62	0	591396864	42	4297
2026-01-27 03:33:23.65	313.43	22.95	-35.5	-36.9	17.8	0.00e+00	0	62	0	596639744	42	4271
2026-01-27 03:33:24.66	313.15	22.96	-35.6	-36.9	17.7	0.00e+00	0	62	0	602931200	42	4286
2026-01-27 03:33:25.67	312.88	22.97	-35.4	-36.7	17.9	0.00e+00	0	62	0	608174080	42	4176
2026-01-27 03:33:26.68	312.60	22.98	-35.3	-36.7	18.0	0.00e+00	0	62	0	614465536	42	4146
2026-01-27 03:33:27.69	312.32	22.98	-35.4	-36.7	17.9	0.00e+00	0	62	0	619708416	42	4169
2026-01-27 03:33:28.70	312.04	22.99	-35.4	-36.8	17.9	0.00e+00	0	61	0	624951296	42	4199
2026-01-27 03:33:29.71	311.76	23.00	-35.4	-36.7	17.9	0.00e+00	0	62	0	631242752	42	4170
2026-01-27 03:33:30.72	311.49	23.00	-35.4	-36.7	17.9	0.00e+00	0	62	0	636485632	42	4183
2026-01-27 03:33:31.73	311.21	23.01	-35.5	-36.9	17.8	0.00e+00	0	62	0	642777088	42	4245
2026-01-27 03:33:32.74	310.93	23.01	-35.5	-36.9	17.8	0.00e+00	0	62	0	648019968	42	4248
2026-01-27 03:33:33.75	310.65	23.01	-35.4	-36.8	17.8	0.00e+00	0	62	0	654311424	42	4217
2026-01-27 03:33:34.76	310.37	23.02	-35.5	-36.9	17.8	0.00e+00	0	62	0	659554304	42	4254
2026-01-27 03:33:35.77	310.09	23.02	-35.6	-36.9	17.7	0.00e+00	0	62	0	664797184	42	4284
2026-01-27 03:33:36.78	309.82	23.02	-35.5	-36.9	17.8	0.00e+00	0	62	0	671088640	42	4257
2026-01-27 03:33:37.79	309.54	23.02	-35.4	-36.7	17.9	0.00e+00	0	62	0	676331520	42	4177
2026-01-27 03:33:38.80	309.26	23.02	-35.2	-36.6	18.1	0.00e+00	0	62	0	682622976	42	4116
2026-01-27 03:33:39.81	308.98	23.02	-35.2	-36.5	18.1	0.00e+00	0	62	0	687865856	42	4087
2026-01-27 03:33:40.82	308.70	23.02	-35.3	-36.6	18.0	0.00e+00	0	61	0	693108736	42	4123
2026-01-27 03:33:41.83	308.42	23.02	-35.2	-36.6	18.0	0.00e+00	0	62	0	699400192	42	4117
2026-01-27 03:33:42.84	308.14	23.01	-35.3	-36.7	18.0	0.00e+00	0	62	0	704643072	42	4151
2026-01-27 03:33:43.85	307.87	23.01	-35.4	-36.8	17.9	0.00e+00	0	62	0	710934528	42	4196
2026-01-27 03:33:44.86	307.59	23.01	-35.4	-36.8	17.9	0.00e+00	0	62	0	716177408	42	4197
2026-01-27 03:33:45.88	307.31	23.00	-35.4	-36.8	17.9	0.00e+00	0	62	0	721420288	42	4196
2026-01-27 03:33:46.88	307.03	22.99	-35.4	-36.8	17.8	0.00e+00	0	62	0	727711744	42	4225
2026-01-27 03:33:47.90	306.75	22.99	-35.4	-36.8	17.8	0.00e+00	0	62	0	732954624	42	4224
2026-01-27 03:33:48.91	306.47	22.98	-35.5	-36.9	17.8	0.00e+00	0	62	0	739246080	42	4245
2026-01-27 03:33:49.92	306.19	22.97	-35.6	-37.0	17.7	0.00e+00	0	62	0	744488960	42	4297
2026-01-27 03:33:50.93	305.92	22.96	-35.5	-37.0	17.7	0.00e+00	0	62	0	750780416	42	4294
2026-01-27 03:33:51.94	305.64	22.95	-35.6	-36.9	17.7	0.00e+00	0	62	0	756023296	42	4289
2026-01-27 03:33:52.95	305.36	22.94	-35.5	-36.9	17.7	0.00e+00	0	62	0	762314752	42	4273
2026-01-27 03:33:53.96	305.08	22.93	-35.5	-36.9	17.8	0.00e+00	0	62	0	767557632	42	4249
2026-01-27 03:33:54.97	304.81	22.92	-35.4	-36.8	17.8	0.00e+00	0	62	0	772800512	42	4219
2026-01-27 03:33:55.98	304.53	22.91	-35.5	-36.9	17.8	0.00e+00	0	62	0	779091968	42	4248
2026-01-27 03:33:56.99	304.25	22.89	-35.5	-36.9	17.7	0.00e+00	0	62	0	784334848	42	4279
2026-01-27 03:33:58.00	303.98	22.88	-35.5	-36.9	17.7	0.00e+00	0	62	0	790626304	42	4286
2026-01-27 03:33:59.01	303.70	22.87	-35.5	-36.9	17.7	0.00e+00	0	62	0	795869184	42	4273
2026-01-27 03:34:00.02	303.43	22.85	-35.4	-36.8	17.8	0.00e+00	0	62	0	801112064	42	4204
2026-01-27 03:34:01.02	303.15	22.83	-35.3	-36.7	18.0	0.00e+00	0	62	0	807403520	42	4164
2026-01-27 03:34:02.03	302.88	22.82	-35.3	-36.6	18.0	0.00e+00	0	62	0	812646400	42	4121
2026-01-27 03:34:03.04	302.60	22.80	-35.3	-36.7	18.0	0.00e+00	0	62	0	818937856	42	4161
2026-01-27 03:34:04.05	302.33	22.78	-35.4	-36.8	17.9	0.00e+00	0	62	0	824180736	42	4206
2026-01-27 03:34:05.06	302.05	22.76	-35.3	-36.7	18.0	0.00e+00	0	62	0	829423616	42	4166
2026-01-27 03:34:06.07	301.78	22.74	-35.4	-36.8	17.9	0.00e+00	0	62	0	835715072	42	4205
2026-01-27 03:34:07.08	301.51	22.72	-35.4	-36.8	17.9	0.00e+00	0	62	0	840957952	42	4212
2026-01-27 03:34:08.09	301.23	22.70	-35.5	-36.9	17.8	0.00e+00	0	62	0	847249408	42	4249
2026-01-27 03:34:09.10	300.96	22.68	-35.4	-36.8	17.8	0.00e+00	0	62	0	852492288	42	4221
2026-01-27 03:34:10.11	300.69	22.66	-35.4	-36.8	17.8	0.00e+00	0	62	0	858783744	42	4229
2026-01-27 03:34:11.12	300.41	22.64	-35.4	-36.7	17.9	0.00e+00	0	62	0	864026624	42	4177
2026-01-27 03:34:12.13	300.14	22.61	-35.4	-36.7	17.9	0.00e+00	0	62	0	870318080	42	4189
2026-01-27 03:34:13.14	299.87	22.59	-35.4	-36.8	17.9	0.00e+00	0	62	0	875560960	42	4221
2026-01-27 03:34:14.15	299.60	22.56	-35.5	-36.9	17.8	0.00e+00	0	62	0	880803840	42	4244
2026-01-27 03:34:15.16	299.33	22.54	-35.5	-36.9	17.7	0.00e+00	0	62	0	887095296	42	4277
2026-01-27 03:34:16.16	299.06	22.51	-35.5	-36.9	17.8	0.00e+00	0	62	0	892338176	42	4252
2026-01-27 03:34:17.17	298.79	22.49	-35.5	-36.9	17.7	0.00e+00	0	62	0	897581056	42	4271
2026-01-27 03:34:18.18	298.52	22.46	-35.5	-36.9	17.8	0.00e+00	0	62	0	903872512	42	4259
2026-01-27 03:34:19.19	298.25	22.43	-35.5	-36.9	17.7	0.00e+00	0	62	0	909115392	42	4274
2026-01-27 03:34:20.20	297.99	22.40	-35.4	-36.8	17.8	0.00e+00	0	62	0	915406848	42	4220
2026-01-27 03:34:21.21	297.72	22.37	-35.4	-36.8	17.8	0.00e+00	0	62	0	920649728	42	4237
2026-01-27 03:34:22.23	297.45	22.34	-35.6	-37.0	17.6	0.00e+00	0	62	0	925892608	42	4318
2026-01-27 03:34:23.24	297.18	22.31	-35.6	-37.0	17.6	0.00e+00	0	62	0	932184064	42	4340
2026-01-27 03:34:24.25	296.92	22.28	-35.5	-36.9	17.7	0.00e+00	0	62	0	937426944	42	4268
2026-01-27 03:34:25.26	296.65	22.25	-35.5	-36.9	17.7	0.00e+00	0	62	0	943718400	42	4288
2026-01-27 03:34:26.27	296.39	22.22	-35.5	-36.9	17.7	0.00e+00	0	62	0	948961280	42	4274
2026-01-27 03:34:27.28	296.12	22.18	-35.4	-36.8	17.9	0.00e+00	0	62	0	955252736	42	4209
2026-01-27 03:34:28.29	295.86	22.15	-35.4	-36.8	17.9	0.00e+00	0	62	0	960495616	42	4214
2026-01-27 03:34:29.30	295.59	22.12	-35.5	-36.9	17.8	0.00e+00	0	62	0	966787072	42	4258
2026-01-27 03:34:30.31	295.33	22.08	-35.5	-36.8	17.8	0.00e+00	0	62	0	972029952	42	4234
2026-01-27 03:34:31.32	295.07	22.04	-35.4	-36.8	17.9	0.00e+00	0	62	0	977272832	42	4204
2026-01-27 03:34:32.33	294.81	22.01	-35.4	-36.8	17.9	0.00e+00	0	62	0	983564288	42	4198
2026-01-27 03:34:33.34	294.55	21.97	-35.4	-36.7	17.9	0.00e+00	0	62	0	988807168	42	4190
2026-01-27 03:34:34.35	294.29	21.93	-35.5	-36.9	17.8	0.00e+00	0	62	0	995098624	42	4244
2026-01-27 03:34:35.36	294.03	21.90	-35.6	-37.0	17.7	0.00e+00	0	62	0	1000341504	42	4313
2026-01-27 03:34:36.37	293.77	21.86	-35.7	-37.1	17.6	0.00e+00	0	62	0	1005584384	42	4346
2026-01-27 03:34:37.39	293.51	21.82	-35.7	-37.2	17.5	0.00e+00	0	62	0	1011875840	42	4393
2026-01-27 03:34:38.40	293.25	21.78	-35.7	-37.1	17.6	0.00e+00	0	62	0	1017118720	42	4361
2026-01-27 03:34:39.41	292.99	21.74	-35.6	-37.0	17.6	0.00e+00	0	62	0	1023410176	42	4336
2026-01-27 03:34:40.42	292.74	21.70	-35.6	-37.0	17.6	0.00e+00	0	62	0	1028653056	42	4324
2026-01-27 03:34:41.43	292.48	21.66	-35.7	-37.0	17.6	0.00e+00	0	62	0	1034944512	42	4338
2026-01-27 03:34:42.44	292.22	21.62	-35.6	-37.0	17.6	0.00e+00	0	62	0	1040187392	42	4325
2026-01-27 03:34:43.45	291.97	21.57	-35.7	-37.1	17.6	0.00e+00	0	62	0	1045430272	42	4348
2026-01-27 03:34:44.46	291.72	21.53	-35.7	-37.1	17.5	0.00e+00	0	62	0	1051721728	42	4365
2026-01-27 03:34:45.47	291.46	21.49	-35.8	-37.2	17.4	0.00e+00	0	62	0	1056964608	42	4422
2026-01-27 03:34:46.48	291.21	21.44	-35.7	-37.2	17.5	0.00e+00	0	62	0	1063256064	42	4396
2026-01-27 03:34:47.50	290.96	21.40	-35.8	-37.2	17.4	0.00e+00	0	62	0	1068498944	42	4428
2026-01-27 03:34:48.51	290.71	21.35	-35.7	-37.1	17.6	0.00e+00	0	62	0	1074790400	42	4354
2026-01-27 03:34:49.52	290.46	21.31	-35.7	-37.2	17.5	0.00e+00	0	62	0	1080033280	42	4395
2026-01-27 03:34:50.53	290.21	21.26	-35.7	-37.1	17.5	0.00e+00	0	62	0	1085276160	42	4365
2026-01-27 03:34:51.54	289.96	21.22	-35.7	-37.1	17.5	0.00e+00	0	62	0	1091567616	42	4386
2026-01-27 03:34:52.55	289.71	21.17	-35.6	-37.0	17.6	0.00e+00	0	62	0	1096810496	42	4326
2026-01-27 03:34:53.56	289.46	21.12	-35.7	-37.1	17.6	0.00e+00	0	62	0	1103101952	42	4351
2026-01-27 03:34:54.57	289.22	21.08	-35.7	-37.1	17.5	0.00e+00	0	62	0	1108344832	42	4382
2026-01-27 03:34:55.58	288.97	21.03	-35.7	-37.2	17.5	0.00e+00	0	62	0	1113587712	42	4395
2026-01-27 03:34:56.59	288.73	20.98	-35.6	-37.0	17.6	0.00e+00	0	62	0	1119879168	42	4320
2026-01-27 03:34:57.60	288.48	20.93	-35.6	-37.0	17.6	0.00e+00	0	62	0	1125122048	42	4315
2026-01-27 03:34:58.61	288.24	20.88	-35.7	-37.1	17.5	0.00e+00	0	62	0	1131413504	42	4367
2026-01-27 03:34:59.62	288.00	20.83	-35.8	-37.2	17.4	0.00e+00	0	62	0	1136656384	42	4412
2026-01-27 03:35:00.63	287.76	20.78	-35.8	-37.2	17.4	0.00e+00	0	62	0	1142947840	42	4427
2026-01-27 03:35:01.64	287.52	20.73	-35.8	-37.2	17.4	0.00e+00	0	62	0	1148190720	42	4428
2026-01-27 03:35:02.65	287.28	20.68	-35.8	-37.2	17.4	0.00e+00	0	62	0	1153433600	42	4433
2026-01-27 03:35:03.66	287.04	20.63	-35.9	-37.3	17.3	0.00e+00	0	62	0	1159725056	42	4484
2026-01-27 03:35:04.67	286.80	20.57	-35.9	-37.4	17.3	0.00e+00	0	62	0	1164967936	42	4506
2026-01-27 03:35:05.68	286.56	20.52	-36.1	-37.5	17.1	0.00e+00	0	62	0	1171259392	42	4587
2026-01-27 03:35:06.68	286.33	20.47	-36.0	-37.5	17.1	0.00e+00	0	62	0	1176502272	42	4552
2026-01-27 03:35:07.69	286.09	20.41	-36.0	-37.5	17.2	0.00e+00	0	62	0	1182793728	42	4561
2026-01-27 03:35:08.70	285.85	20.36	-36.1	-37.5	17.1	0.00e+00	0	62	0	1188036608	42	4587
2026-01-27 03:35:09.71	285.62	20.31	-36.0	-37.4	17.2	0.00e+00	0	62	0	1193279488	42	4532
2026-01-27 03:35:10.72	285.39	20.25	-35.9	-37.3	17.3	0.00e+00	0	62	0	1199570944	42	4490
2026-01-27 03:35:11.74	285.15	20.20	-35.9	-37.3	17.3	0.00e+00	0	62	0	1204813824	42	4473
2026-01-27 03:35:12.75	284.92	20.14	-35.9	-37.4	17.2	0.00e+00	0	62	0	1211105280	42	4499
2026-01-27 03:35:13.76	284.69	20.09	-35.9	-37.4	17.2	0.00e+00	0	62	0	1216348160	42	4509
2026-01-27 03:35:14.77	284.46	20.03	-36.0	-37.4	17.2	0.00e+00	0	62	0	1221591040	42	4532
2026-01-27 03:35:15.78	284.23	19.97	-35.8	-37.3	17.3	0.00e+00	0	62	0	1227882496	42	4456
2026-01-27 03:35:16.79	284.00	19.92	-35.8	-37.3	17.3	0.00e+00	0	62	0	1233125376	42	4454
2026-01-27 03:35:17.80	283.77	19.86	-36.0	-37.4	17.2	0.00e+00	0	62	0	1239416832	42	4524
2026-01-27 03:35:18.81	283.55	19.80	-36.0	-37.5	17.1	0.00e+00	0	62	0	1244659712	42	4561
2026-01-27 03:35:19.82	283.32	19.74	-36.0	-37.4	17.2	0.00e+00	0	62	0	1249902592	42	4539
2026-01-27 03:35:20.83	283.10	19.69	-36.0	-37.5	17.1	0.00e+00	0	62	0	1256194048	42	4575
2026-01-27 03:35:21.84	282.87	19.63	-36.1	-37.5	17.0	0.00e+00	0	62	0	1261436928	42	4598
2026-01-27 03:35:22.85	282.65	19.57	-36.0	-37.5	17.1	0.00e+00	0	62	0	1267728384	42	4575
2026-01-27 03:35:23.86	282.43	19.51	-36.1	-37.6	17.0	0.00e+00	0	62	0	1272971264	42	4632
2026-01-27 03:35:24.87	282.20	19.45	-36.1	-37.6	16.9	0.00e+00	0	62	0	1279262720	42	4640
2026-01-27 03:35:25.88	281.98	19.39	-36.2	-37.7	16.9	0.00e+00	0	62	0	1284505600	42	4670
2026-01-27 03:35:26.89	281.76	19.33	-36.2	-37.7	16.8	0.00e+00	0	62	0	1290797056	43	4433
2026-01-27 03:35:27.90	281.54	19.27	-36.2	-37.7	16.9	0.00e+00	0	62	0	1296039936	43	4405
2026-01-27 03:35:28.91	281.33	19.21	-36.2	-37.7	16.8	0.00e+00	0	62	0	1301282816	43	4429
2026-01-27 03:35:29.92	281.11	19.15	-36.3	-37.8	16.8	0.00e+00	0	62	0	1307574272	43	4453
2026-01-27 03:35:30.94	280.89	19.09	-36.2	-37.7	16.9	0.00e+00	0	62	0	1312817152	43	4410
2026-01-27 03:35:31.95	280.68	19.03	-36.4	-37.9	16.6	0.00e+00	0	62	0	1319108608	43	4528
2026-01-27 03:35:32.96	280.46	18.97	-36.4	-37.9	16.6	0.00e+00	0	62	0	1324351488	43	4529
2026-01-27 03:35:33.97	280.25	18.90	-36.4	-38.0	16.6	0.00e+00	0	62	0	1329594368	43	4557
2026-01-27 03:35:34.98	280.03	18.84	-36.4	-37.9	16.6	0.00e+00	0	62	0	1335885824	43	4543
2026-01-27 03:35:35.99	279.82	18.78	-36.4	-37.9	16.6	0.00e+00	0	62	0	1341128704	43	4522
2026-01-27 03:35:37.00	279.61	18.72	-36.3	-37.8	16.8	0.00e+00	0	62	0	1347420160	43	4462
2026-01-27 03:35:38.01	279.40	18.65	-36.2	-37.7	16.8	0.00e+00	0	62	0	1352663040	43	4420
2026-01-27 03:35:39.02	279.19	18.59	-36.3	-37.8	16.7	0.00e+00	0	62	0	1357905920	43	4469
2026-01-27 03:35:40.03	278.98	18.53	-36.3	-37.9	16.7	0.00e+00	0	62	0	1364197376	43	4496
2026-01-27 03:35:41.03	278.78	18.46	-36.4	-37.9	16.6	0.00e+00	0	62	0	1369440256	43	4515
2026-01-27 03:35:42.05	278.57	18.40	-36.4	-38.0	16.6	0.00e+00	0	62	0	1375731712	43	4558
2026-01-27 03:35:43.06	278.36	18.34	-36.3	-37.9	16.6	0.00e+00	0	62	0	1380974592	43	4508
2026-01-27 03:35:44.07	278.16	18.27	-36.4	-37.9	16.6	0.00e+00	0	62	0	1387266048	43	4531
2026-01-27 03:35:45.08	277.95	18.21	-36.4	-37.9	16.5	0.00e+00	0	62	0	1392508928	43	4543
2026-01-27 03:35:46.09	277.75	18.14	-36.4	-37.9	16.6	0.00e+00	0	62	0	1398800384	43	4536
2026-01-27 03:35:47.10	277.55	18.08	-36.4	-38.0	16.5	0.00e+00	0	62	0	1404043264	43	4553
2026-01-27 03:35:48.11	277.35	18.01	-36.5	-38.1	16.4	0.00e+00	0	62	0	1409286144	43	4603
2026-01-27 03:35:49.12	277.15	17.95	-36.5	-38.1	16.4	0.00e+00	0	62	0	1415577600	43	4625
2026-01-27 03:35:50.13	276.95	17.88	-36.6	-38.2	16.3	0.00e+00	0	62	0	1420820480	43	4694
2026-01-27 03:35:51.14	276.75	17.82	-36.7	-38.3	16.2	0.00e+00	0	62	0	1427111936	43	4734
2026-01-27 03:35:52.15	276.55	17.75	-36.7	-38.3	16.2	0.00e+00	0	62	0	1432354816	43	4751
2026-01-27 03:35:53.16	276.35	17.68	-36.9	-38.6	16.1	0.00e+00	0	62	0	1437597696	44	4612
2026-01-27 03:35:54.17	276.16	17.62	-36.9	-38.6	16.1	0.00e+00	0	62	0	1443889152	44	4616
2026-01-27 03:35:55.18	275.96	17.55	-37.0	-38.6	16.0	0.00e+00	0	62	0	1449132032	44	4623
2026-01-27 03:35:56.19	275.77	17.49	-37.0	-38.6	16.1	0.00e+00	0	62	0	1455423488	44	4615
2026-01-27 03:35:57.20	275.57	17.42	-36.8	-38.3	16.3	0.00e+00	0	62	0	1460666368	44	4477
2026-01-27 03:35:58.21	275.38	17.35	-36.9	-38.5	16.1	0.00e+00	0	62	0	1465909248	44	4591
2026-01-27 03:35:59.22	275.19	17.29	-37.0	-38.6	16.0	0.00e+00	0	62	0	1472200704	44	4643
2026-01-27 03:36:00.24	274.99	17.22	-37.0	-38.6	16.0	0.00e+00	0	62	0	1477443584	44	4632
2026-01-27 03:36:01.24	274.81	17.15	-37.0	-38.7	16.0	0.00e+00	0	62	0	1483735040	44	4670
2026-01-27 03:36:02.25	274.62	17.08	-37.0	-38.7	16.0	0.00e+00	0	62	0	1488977920	44	4676
2026-01-27 03:36:03.26	274.43	17.02	-36.9	-38.6	16.1	0.00e+00	0	62	0	1495269376	44	4603
2026-01-27 03:36:04.28	274.24	16.95	-36.9	-38.5	16.1	0.00e+00	0	62	0	1500512256	44	4559
2026-01-27 03:36:05.29	274.05	16.88	-36.7	-38.3	16.4	0.00e+00	0	62	0	1506803712	44	4449
2026-01-27 03:36:06.30	273.86	16.81	-36.7	-38.3	16.3	0.00e+00	0	62	0	1512046592	44	4460
2026-01-27 03:36:07.31	273.68	16.74	-36.8	-38.4	16.2	0.00e+00	0	62	0	1517289472	44	4517
2026-01-27 03:36:08.32	273.50	16.68	-36.8	-38.5	16.2	0.00e+00	0	62	0	1523580928	44	4551
2026-01-27 03:36:09.33	273.31	16.61	-36.9	-38.5	16.1	0.00e+00	0	62	0	1528823808	44	4573
2026-01-27 03:36:10.34	273.13	16.54	-36.8	-38.4	16.2	0.00e+00	0	62	0	1535115264	44	4520
2026-01-27 03:36:11.35	272.95	16.47	-36.8	-38.4	16.2	0.00e+00	0	62	0	1540358144	44	4522
2026-01-27 03:36:12.36	272.77	16.40	-36.7	-38.3	16.3	0.00e+00	0	62	0	1545601024	44	4483
2026-01-27 03:36:13.37	272.59	16.33	-36.7	-38.3	16.3	0.00e+00	0	62	0	1551892480	44	4479
2026-01-27 03:36:14.38	272.41	16.27	-36.8	-38.4	16.2	0.00e+00	0	62	0	1557135360	44	4505
2026-01-27 03:36:15.39	272.23	16.20	-36.8	-38.4	16.2	0.00e+00	0	62	0	1563426816	44	4532
2026-01-27 03:36:16.40	272.05	16.13	-36.9	-38.5	16.1	0.00e+00	0	62	0	1568669696	44	4555
2026-01-27 03:36:17.41	271.87	16.06	-36.9	-38.6	16.1	0.00e+00	0	62	0	1573912576	44	4601
2026-01-27 03:36:18.42	271.70	15.99	-36.9	-38.6	16.0	0.00e+00	0	62	0	1580204032	44	4610
2026-01-27 03:36:19.42	271.52	15.92	-36.9	-38.5	16.1	0.00e+00	0	62	0	1585446912	44	4570
2026-01-27 03:36:20.44	271.35	15.85	-36.8	-38.4	16.2	0.00e+00	0	62	0	1591738368	44	4533
2026-01-27 03:36:21.45	271.17	15.78	-36.9	-38.5	16.1	0.00e+00	0	62	0	1596981248	44	4563
2026-01-27 03:36:22.46	271.00	15.71	-36.9	-38.6	16.0	0.00e+00	0	62	0	1603272704	44	4612
2026-01-27 03:36:23.47	270.83	15.64	-37.0	-38.7	15.9	0.00e+00	0	62	0	1608515584	44	4654
2026-01-27 03:36:24.48	270.66	15.57	-37.0	-38.6	16.0	0.00e+00	0	62	0	1614807040	44	4628
2026-01-27 03:36:25.49	270.49	15.50	-37.0	-38.7	15.9	0.00e+00	0	62	0	1620049920	44	4655
2026-01-27 03:36:26.50	270.32	15.44	-36.9	-38.6	16.0	0.00e+00	0	62	0	1625292800	44	4605
2026-01-27 03:36:27.51	270.15	15.37	-36.9	-38.5	16.0	0.00e+00	0	62	0	1631584256	44	4598
2026-01-27 03:36:28.52	269.98	15.30	-36.9	-38.5	16.1	0.00e+00	0	62	0	1636827136	44	4583
2026-01-27 03:36:29.53	269.81	15.23	-37.0	-38.7	15.9	0.00e+00	0	62	0	1643118592	44	4667
2026-01-27 03:36:30.54	269.65	15.16	-37.0	-38.6	15.9	0.00e+00	0	62	0	1648361472	44	4636
2026-01-27 03:36:31.55	269.48	15.09	-37.1	-38.8	15.8	0.00e+00	0	62	0	1653604352	44	4706
2026-01-27 03:36:32.56	269.32	15.02	-37.1	-38.8	15.8	0.00e+00	0	62	0	1659895808	44	4725
2026-01-27 03:36:33.57	269.15	14.95	-37.2	-38.9	15.7	0.00e+00	0	62	0	1665138688	44	4764
2026-01-27 03:36:34.58	268.99	14.88	-37.1	-38.8	15.8	0.00e+00	0	62	0	1671430144	44	4714
2026-01-27 03:36:35.59	268.83	14.81	-37.2	-38.9	15.7	0.00e+00	0	62	0	1676673024	44	4781
2026-01-27 03:36:36.60	268.67	14.74	-37.2	-38.9	15.7	0.00e+00	0	62	0	1681915904	44	4779
2026-01-27 03:36:37.61	268.50	14.67	-37.3	-39.0	15.6	0.00e+00	0	62	0	1688207360	45	4588
2026-01-27 03:36:38.62	268.34	14.60	-37.3	-39.0	15.5	0.00e+00	0	62	0	1693450240	45	4591
2026-01-27 03:36:39.63	268.19	14.53	-37.3	-39.1	15.5	0.00e+00	0	62	0	1699741696	45	4606
2026-01-27 03:36:40.64	268.03	14.46	-37.4	-39.2	15.3	0.00e+00	0	62	0	1704984576	45	4689
2026-01-27 03:36:41.65	267.87	14.39	-37.5	-39.2	15.3	0.00e+00	0	62	0	1711276032	45	4703
2026-01-27 03:36:42.66	267.71	14.32	-37.5	-39.3	15.2	0.00e+00	0	62	0	1716518912	45	4740
2026-01-27 03:36:43.67	267.56	14.25	-37.6	-39.4	15.2	1.10e-06	0	62	0	1721761792	45	4760
2026-01-27 03:36:44.68	267.40	14.18	-37.4	-39.2	15.3	0.00e+00	0	62	0	1728053248	45	4667
2026-01-27 03:36:45.69	267.24	14.11	-37.5	-39.3	15.3	0.00e+00	0	62	0	1733296128	45	4714
2026-01-27 03:36:46.70	267.09	14.04	-37.4	-39.2	15.3	0.00e+00	0	62	0	1739587584	45	4676
2026-01-27 03:36:47.71	266.94	13.97	-37.5	-39.2	15.3	0.00e+00	0	62	0	1744830464	45	4685
2026-01-27 03:36:48.72	266.78	13.90	-37.5	-39.3	15.2	0.00e+00	0	62	0	1750073344	45	4734
2026-01-27 03:36:49.73	266.63	13.83	-37.5	-39.3	15.2	0.00e+00	0	62	0	1756364800	45	4736
2026-01-27 03:36:50.74	266.48	13.76	-37.5	-39.3	15.2	0.00e+00	0	62	0	1761607680	45	4728
2026-01-27 03:36:51.75	266.33	13.69	-37.6	-39.4	15.1	0.00e+00	0	62	0	1767899136	45	4771
2026-01-27 03:36:52.77	266.18	13.61	-37.5	-39.2	15.3	0.00e+00	0	62	0	1773142016	45	4703
2026-01-27 03:36:53.78	266.03	13.54	-37.4	-39.2	15.3	0.00e+00	0	62	0	1778384896	45	4669
2026-01-27 03:36:54.79	265.88	13.47	-37.5	-39.3	15.2	0.00e+00	0	62	0	1784676352	45	4720
2026-01-27 03:36:55.80	265.73	13.40	-37.5	-39.2	15.3	1.10e-06	0	62	0	1789919232	45	4690
2026-01-27 03:36:56.80	265.59	13.34	-37.5	-39.3	15.2	0.00e+00	0	62	0	1796210688	45	4710
2026-01-27 03:36:57.82	265.44	13.26	-37.5	-39.3	15.2	0.00e+00	0	62	0	1801453568	45	4728
2026-01-27 03:36:58.83	265.29	13.19	-37.7	-39.5	14.9	0.00e+00	0	62	0	1807745024	45	4863
2026-01-27 03:36:59.84	265.15	13.12	-37.8	-39.7	14.8	0.00e+00	0	62	0	1812987904	46	4674
2026-01-27 03:37:00.85	265.01	13.05	-37.7	-39.6	14.9	1.10e-06	0	62	0	1819279360	46	4610
2026-01-27 03:37:01.86	264.86	12.98	-37.8	-39.7	14.8	0.00e+00	0	62	0	1824522240	46	4672
2026-01-27 03:37:02.87	264.72	12.91	-37.7	-39.5	15.0	0.00e+00	0	62	0	1829765120	46	4569
2026-01-27 03:37:03.88	264.58	12.84	-37.7	-39.6	14.9	0.00e+00	0	62	0	1836056576	46	4616
2026-01-27 03:37:04.89	264.44	12.77	-37.7	-39.6	14.9	0.00e+00	0	62	0	1841299456	46	4628
2026-01-27 03:37:05.90	264.30	12.70	-37.7	-39.6	14.9	0.00e+00	0	62	0	1847590912	46	4616
2026-01-27 03:37:06.91	264.16	12.63	-37.8	-39.7	14.7	0.00e+00	0	62	0	1852833792	46	4699
2026-01-27 03:37:07.92	264.02	12.57	-37.7	-39.6	14.9	0.00e+00	0	62	0	1858076672	46	4606
2026-01-27 03:37:08.93	263.88	12.50	-37.8	-39.6	14.8	0.00e+00	0	62	0	1864368128	46	4649
2026-01-27 03:37:09.94	263.74	12.43	-37.7	-39.6	14.8	1.10e-06	0	62	0	1869611008	46	4627
2026-01-27 03:37:10.95	263.60	12.36	-37.6	-39.4	15.0	0.00e+00	0	62	0	1875902464	46	4540
2026-01-27 03:37:11.96	263.46	12.29	-37.6	-39.4	15.1	0.00e+00	0	62	0	1881145344	46	4509
2026-01-27 03:37:12.97	263.33	12.22	-37.6	-39.5	14.9	0.00e+00	0	62	0	1886388224	46	4554
2026-01-27 03:37:13.98	263.19	12.15	-37.7	-39.5	14.9	0.00e+00	0	62	0	1892679680	46	4578
2026-01-27 03:37:14.99	263.06	12.08	-37.7	-39.6	14.8	0.00e+00	0	62	0	1897922560	46	4634
2026-01-27 03:37:16.00	262.92	12.01	-37.8	-39.7	14.7	1.10e-06	0	62	0	1904214016	46	4690
2026-01-27 03:37:17.01	262.79	11.94	-38.0	-39.9	14.5	1.10e-06	0	62	0	1909456896	46	4772
2026-01-27 03:37:18.03	262.66	11.87	-38.0	-40.0	14.4	0.00e+00	0	62	0	1915748352	46	4827
2026-01-27 03:37:19.04	262.52	11.80	-37.9	-39.8	14.6	0.00e+00	0	62	0	1920991232	46	4752
2026-01-27 03:37:20.05	262.39	11.73	-37.8	-39.7	14.7	1.10e-06	0	62	0	1927282688	46	4672
2026-01-27 03:37:21.06	262.26	11.66	-37.9	-39.8	14.5	0.00e+00	0	62	0	1932525568	46	4754
2026-01-27 03:37:22.07	262.13	11.59	-37.9	-39.8	14.6	0.00e+00	0	62	0	1937768448	46	4738
2026-01-27 03:37:23.08	262.00	11.52	-37.9	-39.8	14.5	0.00e+00	0	62	0	1944059904	46	4759
2026-01-27 03:37:24.09	261.87	11.45	-38.0	-39.9	14.5	1.10e-06	0	62	0	1949302784	46	4781
2026-01-27 03:37:25.10	261.74	11.38	-38.0	-40.0	14.4	1.10e-06	0	62	0	1955594240	46	4826
2026-01-27 03:37:26.11	261.62	11.32	-38.1	-40.0	14.3	3.40e-06	0	62	0	1960837120	46	4854
2026-01-27 03:37:27.13	261.49	11.25	-38.1	-40.2	14.2	2.20e-06	0	62	0	1966080000	46	4935
2026-01-27 03:37:28.13	261.36	11.18	-38.2	-40.2	14.2	2.20e-06	0	62	0	1972371456	46	4960
2026-01-27 03:37:29.14	261.24	11.11	-38.2	-40.2	14.1	0.00e+00	0	62	0	1977614336	47	4680
2026-01-27 03:37:30.15	261.11	11.04	-38.2	-40.3	14.0	1.10e-06	0	62	0	1983905792	47	4735
2026-01-27 03:37:31.16	260.99	10.97	-38.3	-40.3	14.0	3.40e-06	0	62	0	1989148672	47	4724
2026-01-27 03:37:32.17	260.86	10.90	-38.2	-40.2	14.1	2.20e-06	0	62	0	1994391552	47	4664
2026-01-27 03:37:33.18	260.74	10.83	-38.2	-40.2	14.1	2.20e-06	0	62	0	2000683008	47	4667
2026-01-27 03:37:34.19	260.62	10.77	-38.2	-40.2	14.1	3.40e-06	0	62	0	2005925888	47	4667
2026-01-27 03:37:35.20	260.49	10.70	-38.1	-40.1	14.2	3.40e-06	0	62	0	2012217344	47	4644
2026-01-27 03:37:36.21	260.37	10.63	-38.2	-40.2	14.1	0.00e+00	0	62	0	2017460224	47	4691
2026-01-27 03:37:37.22	260.25	10.56	-38.3	-40.4	14.0	4.50e-06	0	62	0	2023751680	47	4766
2026-01-27 03:37:38.23	260.13	10.49	-38.3	-40.4	13.9	1.10e-06	0	62	0	2028994560	47	4762
2026-01-27 03:37:39.25	260.01	10.42	-38.4	-40.4	13.9	3.40e-06	0	62	0	2035286016	47	4807
2026-01-27 03:37:40.26	259.89	10.35	-38.4	-40.5	13.8	9.10e-06	0	62	0	2040528896	47	4838
2026-01-27 03:37:41.27	259.77	10.29	-38.4	-40.5	13.8	1.14e-05	0	62	0	2045771776	47	4863
2026-01-27 03:37:42.28	259.65	10.22	-38.3	-40.4	13.9	1.25e-05	0	62	0	2052063232	47	4796
2026-01-27 03:37:43.29	259.53	10.15	-38.4	-40.5	13.8	9.10e-06	0	62	0	2057306112	47	4854
2026-01-27 03:37:44.30	259.41	10.08	-38.4	-40.5	13.7	1.25e-05	0	62	0	2063597568	47	4861
2026-01-27 03:37:45.31	259.30	10.02	-38.3	-40.4	13.9	6.80e-06	0	62	0	2068840448	47	4788
2026-01-27 03:37:46.32	259.18	9.95	-38.4	-40.5	13.8	6.80e-06	0	62	0	2074083328	47	4859
2026-01-27 03:37:47.33	259.07	9.88	-38.5	-40.6	13.7	9.10e-06	0	62	0	2080374784	47	4882
2026-01-27 03:37:48.34	258.95	9.81	-38.5	-40.7	13.6	1.37e-05	0	62	0	2085617664	47	4937
2026-01-27 03:37:49.35	258.84	9.74	-38.6	-40.7	13.5	1.25e-05	0	62	0	2091909120	47	4969
2026-01-27 03:37:50.36	258.72	9.68	-38.6	-40.8	13.5	2.51e-05	0	62	0	2097152000	47	5027
2026-01-27 03:37:51.37	258.61	9.61	-38.8	-41.0	13.3	1.37e-05	0	62	0	2102394880	48	4855
2026-01-27 03:37:52.39	258.49	9.54	-38.7	-40.9	13.4	1.71e-05	0	62	0	2108686336	48	4798
2026-01-27 03:37:53.40	258.38	9.47	-38.7	-40.8	13.5	1.14e-05	0	62	0	2113929216	48	4739
2026-01-27 03:37:54.41	258.27	9.41	-38.6	-40.8	13.6	1.60e-05	0	62	0	2120220672	48	4729
2026-01-27 03:37:55.42	258.16	9.34	-38.6	-40.7	13.7	1.14e-05	0	62	0	2125463552	48	4660
2026-01-27 03:37:56.43	258.05	9.27	-38.5	-40.6	13.7	5.70e-06	0	62	0	2131755008	48	4630
2026-01-27 03:37:57.44	257.94	9.21	-38.6	-40.7	13.7	1.25e-05	0	62	0	2136997888	48	4676
2026-01-27 03:37:58.45	257.83	9.14	-38.7	-40.9	13.4	1.25e-05	0	62	0	2143289344	48	4791
2026-01-27 03:37:59.46	257.72	9.07	-38.7	-40.9	13.5	1.37e-05	0	62	0	2148532224	48	4786
2026-01-27 03:38:00.47	257.61	9.01	-38.8	-41.0	13.3	2.51e-05	0	62	0	2153775104	48	4859
2026-01-27 03:38:01.48	257.50	8.94	-38.7	-40.9	13.5	3.89e-05	0	62	0	2160066560	48	4763
2026-01-27 03:38:02.49	257.39	8.87	-38.8	-41.0	13.3	2.74e-05	0	62	0	2165309440	48	4822
2026-01-27 03:38:03.50	257.29	8.81	-38.9	-41.2	13.1	3.08e-05	0	62	0	2171600896	48	4946
2026-01-27 03:38:04.51	257.18	8.74	-38.8	-41.0	13.4	2.97e-05	0	62	0	2176843776	48	4817
2026-01-27 03:38:05.52	257.07	8.67	-38.9	-41.2	13.1	5.37e-05	0	62	0	2182086656	48	4967
2026-01-27 03:38:06.53	256.97	8.61	-38.9	-41.2	13.1	4.92e-05	0	62	0	2188378112	48	4954
2026-01-27 03:38:07.54	256.86	8.54	-38.9	-41.2	13.0	3.54e-05	0	62	0	2193620992	48	4964
2026-01-27 03:38:08.55	256.76	8.48	-39.0	-41.3	12.9	7.32e-05	0	62	0	2199912448	48	5031
2026-01-27 03:38:09.56	256.65	8.41	-39.0	-41.3	12.9	6.29e-05	0	62	0	2205155328	48	5022
2026-01-27 03:38:10.57	256.55	8.34	-39.0	-41.2	13.0	6.98e-05	0	62	0	2210398208	48	4981
2026-01-27 03:38:11.58	256.44	8.28	-39.0	-41.3	13.0	6.40e-05	0	62	0	2216689664	48	5002
2026-01-27 03:38:12.59	256.34	8.21	-39.1	-41.5	12.7	1.04e-04	0	62	0	2221932544	48	5149
2026-01-27 03:38:13.60	256.24	8.15	-39.1	-41.4	12.9	6.98e-05	0	62	0	2228224000	48	5065
2026-01-27 03:38:14.61	256.14	8.08	-39.0	-41.3	12.9	1.20e-04	0	62	0	2233466880	48	5036
2026-01-27 03:38:15.62	256.03	8.02	-42.7	-48.6	5.9	2.63e-02	0	62	0	2239758336	55	7770
2026-01-27 03:38:16.63	255.93	7.95	-44.4	-55.8	3.8	8.46e-01	0	62	104	2239758336	59	14173
2026-01-27 03:38:17.64	255.83	7.89	-44.6	-56.0	3.8	8.46e-01	0	62	104	2239758336	59	14471
2026-01-27 03:38:18.65	255.73	7.82	-44.7	-56.4	3.8	8.47e-01	0	62	104	2239758336	60	14241
2026-01-27 03:38:19.67	255.63	7.75	-44.8	-56.5	3.8	8.47e-01	0	62	104	2239758336	60	14402
2026-01-27 03:38:20.68	255.53	7.69	-44.8	-56.5	3.8	8.46e-01	0	62	104	2239758336	60	14429
2026-01-27 03:38:21.69	255.43	7.62	-44.9	-56.5	3.8	8.46e-01	0	62	104	2239758336	60	14539
2026-01-27 03:38:22.70	255.34	7.56	-44.9	-56.6	3.8	8.47e-01	0	62	104	2239758336	60	14599
2026-01-27 03:38:23.71	255.24	7.50	-45.0	-56.6	3.8	8.45e-01	0	62	104	2239758336	60	14639
2026-01-27 03:38:24.72	255.14	7.43	-44.9	-56.6	3.8	8.46e-01	0	62	104	2239758336	60	14662
2026-01-27 03:38:25.73	255.04	7.37	-44.9	-56.6	3.8	8.46e-01	0	62	104	2239758336	60	14588
2026-01-27 03:38:26.74	254.95	7.30	-44.9	-56.5	3.8	8.45e-01	0	62	104	2239758336	60	14479
2026-01-27 03:38:27.75	254.85	7.24	-44.9	-56.5	3.8	8.46e-01	0	62	104	2239758336	60	14449
2026-01-27 03:38:28.76	254.75	7.17	-44.9	-56.5	3.8	8.46e-01	0	62	104	2239758336	60	14413
2026-01-27 03:38:29.77	254.66	7.11	-44.9	-56.5	3.8	8.46e-01	0	62	104	2239758336	60	14416
2026-01-27 03:38:30.78	254.56	7.04	-44.9	-56.4	3.8	8.46e-01	0	62	104	2239758336	60	14353
2026-01-27 03:38:31.79	254.47	6.98	-44.8	-56.4	3.8	8.45e-01	0	62	104	2239758336	60	14351
2026-01-27 03:38:32.80	254.38	6.92	-44.8	-56.4	3.8	8.46e-01	0	62	104	2239758336	60	14255
2026-01-27 03:38:33.81	254.28	6.85	-44.8	-56.4	3.8	8.47e-01	0	62	104	2239758336	60	14354
2026-01-27 03:38:34.82	254.19	6.79	-44.8	-56.4	3.8	8.47e-01	0	62	104	2239758336	60	14348
2026-01-27 03:38:35.83	254.10	6.72	-44.8	-56.4	3.8	8.45e-01	0	62	104	2239758336	60	14343
2026-01-27 03:38:36.84	254.00	6.66	-44.8	-56.4	3.8	8.46e-01	0	62	104	2239758336	60	14333
2026-01-27 03:38:37.85	253.91	6.60	-44.8	-56.4	3.8	8.47e-01	0	62	104	2239758336	60	14311
2026-01-27 03:38:38.86	253.82	6.53	-44.8	-56.4	3.8	8.47e-01	0	62	104	2239758336	60	14359
2026-01-27 03:38:39.87	253.73	6.47	-44.8	-56.4	3.8	8.46e-01	0	62	104	2239758336	60	14329
2026-01-27 03:38:40.88	253.64	6.41	-44.8	-56.4	3.8	8.46e-01	0	62	104	2239758336	60	14316
2026-01-27 03:38:41.89	253.55	6.34	-44.8	-56.4	3.8	8.45e-01	0	62	104	2239758336	60	14314
2026-01-27 03:38:42.91	253.46	6.28	-44.8	-56.4	3.8	8.47e-01	0	62	104	2239758336	60	14320
2026-01-27 03:38:43.91	253.37	6.22	-44.8	-56.5	3.8	8.45e-01	0	62	104	2239758336	60	14377
2026-01-27 03:38:44.93	253.28	6.15	-44.8	-56.4	3.8	8.47e-01	0	62	104	2239758336	60	14287
2026-01-27 03:38:45.94	253.19	6.09	-44.8	-56.4	3.8	8.46e-01	0	62	104	2239758336	60	14235
2026-01-27 03:38:46.95	253.10	6.03	-44.8	-56.4	3.8	8.47e-01	0	62	104	2239758336	60	14303
2026-01-27 03:38:47.96	253.01	5.97	-44.8	-56.4	3.8	8.45e-01	0	62	104	2239758336	60	14306
2026-01-27 03:38:48.97	252.93	5.90	-44.8	-56.4	3.8	8.46e-01	0	62	104	2239758336	60	14214
2026-01-27 03:38:49.98	252.84	5.84	-44.8	-56.4	3.8	8.46e-01	0	62	104	2239758336	60	14267
2026-01-27 03:38:50.99	252.75	5.78	-44.8	-56.4	3.8	8.45e-01	0	62	104	2239758336	60	14217
2026-01-27 03:38:52.00	252.67	5.72	-44.8	-56.4	3.8	8.46e-01	0	62	104	2239758336	60	14235
2026-01-27 03:38:53.01	252.58	5.65	-44.8	-56.4	3.8	8.45e-01	0	62	104	2239758336	60	14328
2026-01-27 03:38:54.02	252.50	5.59	-44.8	-56.4	3.8	8.46e-01	0	62	104	2239758336	60	14296
2026-01-27 03:38:55.03	252.41	5.53	-44.8	-56.4	3.8	8.47e-01	0	62	104	2239758336	60	14223
2026-01-27 03:38:56.04	252.33	5.47	-44.8	-56.4	3.8	8.46e-01	0	62	104	2239758336	60	14247
2026-01-27 03:38:57.05	252.24	5.41	-44.8	-56.4	3.8	8.46e-01	0	62	104	2239758336	60	14251
2026-01-27 03:38:58.06	252.16	5.34	-44.8	-56.4	3.8	8.46e-01	0	62	104	2239758336	60	14253
2026-01-27 03:38:59.07	252.07	5.28	-44.8	-56.4	3.8	8.45e-01	0	62	104	2239758336	60	14219
2026-01-27 03:39:00.08	251.99	5.22	-44.8	-56.4	3.8	8.45e-01	0	62	104	2239758336	60	14245
2026-01-27 03:39:01.09	251.91	5.16	-44.8	-56.4	3.8	8.47e-01	0	62	104	2239758336	60	14210
2026-01-27 03:39:02.10	251.82	5.10	-44.8	-56.4	3.8	8.47e-01	0	62	104	2239758336	60	14217
2026-01-27 03:39:03.11	251.74	5.04	-44.8	-56.4	3.8	8.46e-01	0	62	104	2239758336	60	14238
2026-01-27 03:39:04.12	251.66	4.98	-44.8	-56.4	3.8	8.46e-01	0	62	104	2239758336	60	14254
2026-01-27 03:39:05.13	251.58	4.91	-44.8	-56.4	3.8	8.46e-01	0	62	104	2239758336	60	14262
2026-01-27 03:39:06.14	251.50	4.85	-44.8	-56.4	3.8	8.47e-01	0	62	104	2239758336	60	14217
2026-01-27 03:39:07.16	251.41	4.79	-44.8	-56.4	3.8	8.46e-01	0	62	104	2239758336	60	14325
2026-01-27 03:39:08.17	251.33	4.73	-44.8	-56.4	3.8	8.46e-01	0	62	104	2239758336	60	14239
2026-01-27 03:39:09.18	251.25	4.67	-44.8	-56.3	3.8	8.47e-01	0	62	104	2239758336	60	14207
2026-01-27 03:39:10.19	251.17	4.61	-44.8	-56.4	3.8	8.46e-01	0	62	104	2239758336	60	14253
