passes_logs/2026/01/27/R2.0S_Moscow/R2.0S_Moscow__20260127_172845_FENGYUN_3G_rec.log

#Pass ID: 20260127_172845_FENGYUN 3G
#Satellite: FENGYUN 3G
#Configuration: FENGYUN 3G
#almurnet v.1.7.20251203
#Start time: 2026-01-27 17:28:46

#Version: 2.2.20231116
#Station: R2.0S_Moscow
#Location: 37.707566 lon 55.798166 lat
#TLE: 1 56232U 23055A   26026.81668957  .00042566  00000+0  63804-3 0  9995
#TLE: 2 56232  49.9949 354.9274 0004068  91.1881 268.9553 15.54453119158037

#Time	Az	El	Level	Level2	SNR	BER	BlckErr	Temp	State	Recorded	gain1	gain2
2026-01-27 17:28:46.60	239.86	2.06	-44.2	-62.4	3.8	8.45e-01	0	52	0	0	60	28558
2026-01-27 17:28:47.60	239.79	2.12	-44.2	-62.4	3.8	8.44e-01	0	53	104	0	60	28500
2026-01-27 17:28:48.61	239.72	2.19	-44.2	-62.4	3.8	8.47e-01	0	53	104	0	60	28537
2026-01-27 17:28:49.62	239.65	2.26	-44.2	-62.4	3.8	8.46e-01	0	53	104	0	60	28559
2026-01-27 17:28:50.63	239.58	2.32	-44.2	-62.4	3.8	8.46e-01	0	53	104	0	60	28509
2026-01-27 17:28:51.64	239.51	2.39	-44.2	-62.4	3.8	8.46e-01	0	53	104	0	60	28506
2026-01-27 17:28:52.66	239.44	2.46	-44.2	-62.4	3.8	8.46e-01	0	53	104	0	60	28515
2026-01-27 17:28:53.67	239.36	2.52	-44.2	-62.4	3.8	8.46e-01	0	53	104	0	60	28599
2026-01-27 17:28:54.68	239.29	2.59	-44.2	-62.4	3.8	8.47e-01	0	53	104	0	60	28503
2026-01-27 17:28:55.69	239.22	2.66	-44.2	-62.4	3.8	8.46e-01	0	53	104	0	60	28552
2026-01-27 17:28:56.70	239.15	2.73	-44.2	-62.4	3.8	8.46e-01	0	53	104	0	60	28526
2026-01-27 17:28:57.71	239.07	2.79	-44.2	-62.4	3.8	8.47e-01	0	53	104	0	60	28524
2026-01-27 17:28:58.72	239.00	2.86	-44.2	-62.4	3.8	8.45e-01	0	53	104	0	60	28570
2026-01-27 17:28:59.73	238.92	2.93	-44.2	-62.4	3.8	8.45e-01	0	53	104	0	60	28557
2026-01-27 17:29:00.74	238.85	3.00	-44.2	-62.4	3.8	8.47e-01	0	53	104	0	60	28475
2026-01-27 17:29:01.75	238.77	3.07	-44.2	-62.4	3.8	8.46e-01	0	53	104	0	60	28556
2026-01-27 17:29:02.76	238.70	3.14	-44.2	-62.4	3.8	8.48e-01	0	54	104	0	60	28524
2026-01-27 17:29:03.77	238.62	3.20	-44.2	-62.4	3.8	8.48e-01	0	54	104	0	60	28503
2026-01-27 17:29:04.78	238.54	3.27	-44.2	-62.4	3.8	8.46e-01	0	54	104	0	60	28477
2026-01-27 17:29:05.79	238.47	3.34	-44.2	-62.4	3.8	8.46e-01	0	54	104	0	60	28562
2026-01-27 17:29:06.80	238.39	3.41	-44.2	-62.4	3.8	8.46e-01	0	54	104	0	60	28517
2026-01-27 17:29:07.81	238.31	3.48	-44.2	-62.4	3.8	8.46e-01	0	54	104	0	60	28496
2026-01-27 17:29:08.83	238.23	3.55	-44.2	-62.4	3.8	8.46e-01	0	54	104	0	60	28532
2026-01-27 17:29:09.84	238.15	3.62	-44.2	-62.4	3.8	8.46e-01	0	54	104	0	60	28516
2026-01-27 17:29:10.85	238.07	3.70	-44.2	-62.4	3.8	8.47e-01	0	54	104	0	60	28518
2026-01-27 17:29:11.86	237.99	3.77	-44.2	-62.4	3.8	8.46e-01	0	54	104	0	60	28452
2026-01-27 17:29:12.87	237.90	3.84	-44.2	-62.4	3.8	8.47e-01	0	54	104	0	60	28525
2026-01-27 17:29:13.88	237.82	3.91	-44.2	-62.4	3.8	8.47e-01	0	54	104	0	60	28593
2026-01-27 17:29:14.89	237.74	3.98	-44.2	-62.4	3.8	8.47e-01	0	54	104	0	60	28394
2026-01-27 17:29:15.90	237.66	4.05	-44.2	-62.4	3.8	8.46e-01	0	54	104	0	60	28408
2026-01-27 17:29:16.91	237.57	4.12	-44.2	-62.4	3.8	8.46e-01	0	54	104	0	60	28464
2026-01-27 17:29:17.92	237.49	4.20	-44.2	-62.4	3.8	8.46e-01	0	54	104	0	60	28486
2026-01-27 17:29:18.93	237.40	4.27	-44.2	-62.4	3.8	8.46e-01	0	55	104	0	60	28483
2026-01-27 17:29:19.94	237.32	4.34	-44.2	-62.4	3.8	8.46e-01	0	55	104	0	60	28562
2026-01-27 17:29:20.95	237.23	4.42	-44.2	-62.4	3.8	8.48e-01	0	55	104	0	60	28519
2026-01-27 17:29:21.96	237.14	4.49	-44.2	-62.4	3.8	8.46e-01	0	55	104	0	60	28512
2026-01-27 17:29:22.97	237.05	4.56	-44.2	-62.4	3.8	8.46e-01	0	55	104	0	60	28470
2026-01-27 17:29:23.98	236.96	4.64	-44.2	-62.4	3.8	8.45e-01	0	55	104	0	60	28356
2026-01-27 17:29:24.99	236.88	4.71	-44.2	-62.4	3.8	8.46e-01	0	55	104	0	60	28485
2026-01-27 17:29:26.00	236.79	4.79	-44.2	-62.4	3.8	8.46e-01	0	55	104	0	60	28453
2026-01-27 17:29:27.01	236.70	4.86	-44.2	-62.4	3.8	8.45e-01	0	55	104	0	60	28404
2026-01-27 17:29:28.02	236.60	4.94	-44.2	-62.4	3.8	8.46e-01	0	55	104	0	60	28429
2026-01-27 17:29:29.03	236.51	5.01	-44.2	-62.4	3.8	8.46e-01	0	55	104	0	60	28509
2026-01-27 17:29:30.04	236.42	5.09	-44.2	-62.4	3.8	8.46e-01	0	55	104	0	60	28468
2026-01-27 17:29:31.05	236.33	5.16	-44.2	-62.4	3.8	8.47e-01	0	55	104	0	60	28431
2026-01-27 17:29:32.07	236.23	5.24	-44.2	-62.4	3.8	8.46e-01	0	55	104	0	60	28572
2026-01-27 17:29:33.08	236.14	5.32	-44.2	-62.4	3.8	8.46e-01	0	55	104	0	60	28463
2026-01-27 17:29:34.09	236.04	5.39	-44.2	-62.4	3.8	8.46e-01	0	55	104	0	60	28556
2026-01-27 17:29:35.10	235.94	5.47	-44.2	-62.4	3.8	8.46e-01	0	56	104	0	60	28453
2026-01-27 17:29:36.11	235.85	5.55	-44.2	-62.4	3.8	8.46e-01	0	56	104	0	60	28477
2026-01-27 17:29:37.12	235.75	5.62	-44.2	-62.4	3.8	8.46e-01	0	56	104	0	60	28524
2026-01-27 17:29:38.13	235.65	5.70	-44.2	-62.4	3.8	8.45e-01	0	56	104	0	60	28516
2026-01-27 17:29:39.14	235.55	5.78	-44.2	-62.4	3.8	8.45e-01	0	56	104	0	60	28466
2026-01-27 17:29:40.15	235.45	5.86	-44.2	-62.4	3.8	8.45e-01	0	56	104	0	60	28459
2026-01-27 17:29:41.16	235.35	5.94	-44.2	-62.3	3.8	8.48e-01	0	56	104	0	60	28292
2026-01-27 17:29:42.17	235.25	6.02	-44.2	-62.4	3.8	8.46e-01	0	56	104	0	60	28521
2026-01-27 17:29:43.19	235.15	6.10	-44.2	-62.4	3.8	8.46e-01	0	56	104	0	60	28393
2026-01-27 17:29:44.20	235.04	6.18	-44.2	-62.4	3.8	8.45e-01	0	56	104	0	60	28445
2026-01-27 17:29:45.21	234.94	6.26	-44.2	-62.4	3.8	8.46e-01	0	56	104	0	60	28517
2026-01-27 17:29:46.21	234.84	6.34	-44.2	-62.4	3.8	8.46e-01	0	56	104	0	60	28482
2026-01-27 17:29:47.23	234.73	6.42	-44.2	-62.4	3.8	8.47e-01	0	56	104	0	60	28558
2026-01-27 17:29:48.24	234.62	6.50	-44.2	-62.4	3.8	8.44e-01	0	56	104	0	60	28400
2026-01-27 17:29:49.25	234.52	6.58	-44.2	-62.4	3.8	8.44e-01	0	56	104	0	60	28488
2026-01-27 17:29:50.26	234.41	6.66	-44.2	-62.4	3.8	8.47e-01	0	56	104	0	60	28540
2026-01-27 17:29:51.27	234.30	6.74	-44.2	-62.4	3.8	8.45e-01	0	56	104	0	60	28444
2026-01-27 17:29:52.28	234.19	6.83	-44.2	-62.4	3.8	8.46e-01	0	56	104	0	60	28389
2026-01-27 17:29:53.29	234.08	6.91	-44.2	-62.4	3.8	8.46e-01	0	56	104	0	60	28492
2026-01-27 17:29:54.30	233.97	6.99	-44.2	-62.4	3.8	8.46e-01	0	56	104	0	60	28467
2026-01-27 17:29:55.31	233.85	7.07	-44.2	-62.4	3.8	8.46e-01	0	57	104	0	60	28481
2026-01-27 17:29:56.32	233.74	7.16	-44.2	-62.4	3.8	8.46e-01	0	56	104	0	60	28388
2026-01-27 17:29:57.33	233.63	7.24	-44.2	-62.4	3.8	8.47e-01	0	57	104	0	60	28486
2026-01-27 17:29:58.34	233.51	7.33	-44.2	-62.4	3.8	8.46e-01	0	57	104	0	60	28434
2026-01-27 17:29:59.35	233.39	7.41	-44.2	-62.4	3.8	8.46e-01	0	57	104	0	60	28416
2026-01-27 17:30:00.36	233.28	7.49	-44.2	-62.3	3.8	8.46e-01	0	57	104	0	60	28339
2026-01-27 17:30:01.37	233.16	7.58	-44.2	-62.4	3.8	8.45e-01	0	57	104	0	60	28471
2026-01-27 17:30:02.38	233.04	7.67	-44.2	-62.4	3.8	8.45e-01	0	57	104	0	60	28436
2026-01-27 17:30:03.39	232.92	7.75	-44.2	-62.4	3.8	8.46e-01	0	57	104	0	60	28466
2026-01-27 17:30:04.40	232.80	7.84	-44.2	-62.4	3.8	8.46e-01	0	57	104	0	60	28450
2026-01-27 17:30:05.41	232.68	7.92	-44.2	-62.4	3.8	8.45e-01	0	57	104	0	60	28441
2026-01-27 17:30:06.42	232.55	8.01	-44.2	-62.3	3.8	8.45e-01	0	57	104	0	60	28332
2026-01-27 17:30:07.44	232.43	8.10	-44.3	-62.4	3.8	8.46e-01	0	57	104	0	60	28628
2026-01-27 17:30:08.45	232.30	8.19	-44.3	-62.5	3.8	8.47e-01	0	57	104	0	60	28912
2026-01-27 17:30:09.46	232.17	8.28	-44.3	-62.4	3.8	8.47e-01	0	57	104	0	60	28598
2026-01-27 17:30:10.47	232.05	8.36	-44.2	-62.4	3.8	8.45e-01	0	57	104	0	60	28403
2026-01-27 17:30:11.48	231.92	8.45	-44.3	-62.4	3.8	8.47e-01	0	57	104	0	60	28585
2026-01-27 17:30:12.49	231.79	8.54	-44.3	-62.4	3.8	8.47e-01	0	57	104	0	60	28404
2026-01-27 17:30:13.50	231.66	8.63	-44.3	-62.4	3.8	8.46e-01	0	57	104	0	60	28554
2026-01-27 17:30:14.51	231.53	8.72	-44.2	-62.3	3.8	8.46e-01	0	57	104	0	60	28306
2026-01-27 17:30:15.52	231.39	8.81	-44.3	-62.3	3.8	8.46e-01	0	57	104	0	60	28327
2026-01-27 17:30:16.53	231.26	8.90	-44.3	-62.3	3.8	8.46e-01	0	57	104	0	60	28050
2026-01-27 17:30:17.54	231.12	8.99	-44.3	-62.4	3.8	8.46e-01	0	57	104	0	60	28457
2026-01-27 17:30:18.55	230.99	9.08	-44.3	-62.3	3.8	8.45e-01	0	57	104	0	60	28136
2026-01-27 17:30:19.56	230.85	9.18	-44.3	-62.4	3.8	8.45e-01	0	57	104	0	60	28636
2026-01-27 17:30:20.57	230.71	9.27	-44.3	-62.4	3.8	8.46e-01	0	57	104	0	60	28419
2026-01-27 17:30:21.57	230.57	9.36	-44.3	-62.4	3.8	8.47e-01	0	58	104	0	60	28670
2026-01-27 17:30:22.59	230.43	9.45	-44.3	-62.1	3.8	8.47e-01	0	58	104	0	60	27492
2026-01-27 17:30:23.60	230.29	9.55	-44.3	-62.4	3.8	8.46e-01	0	58	104	0	60	28505
2026-01-27 17:30:24.61	230.14	9.64	-44.3	-62.5	3.8	8.48e-01	0	57	104	0	60	28758
2026-01-27 17:30:25.61	230.00	9.73	-44.3	-62.4	3.8	8.48e-01	0	58	104	0	60	28398
2026-01-27 17:30:26.62	229.85	9.83	-44.3	-61.9	3.8	8.46e-01	0	58	104	0	60	26928
2026-01-27 17:30:27.63	229.70	9.92	-44.3	-62.4	3.8	8.47e-01	0	58	104	0	60	28384
2026-01-27 17:30:28.64	229.55	10.02	-44.4	-62.4	3.8	8.46e-01	0	58	104	0	60	28654
2026-01-27 17:30:29.65	229.40	10.12	-44.3	-62.2	3.8	8.46e-01	0	58	104	0	60	27771
2026-01-27 17:30:30.66	229.25	10.21	-44.3	-61.8	3.8	8.47e-01	0	58	104	0	60	26694
2026-01-27 17:30:31.67	229.10	10.31	-44.4	-62.2	3.8	8.46e-01	0	58	104	0	60	28018
2026-01-27 17:30:32.68	228.94	10.41	-44.4	-62.3	3.8	8.46e-01	0	58	104	0	60	28222
2026-01-27 17:30:33.69	228.79	10.50	-44.3	-61.8	3.8	8.45e-01	0	58	104	0	60	26666
2026-01-27 17:30:34.70	228.63	10.60	-44.4	-61.9	3.8	8.45e-01	0	58	104	0	60	26939
2026-01-27 17:30:35.71	228.47	10.70	-44.4	-62.1	3.8	8.45e-01	0	58	104	0	60	27420
2026-01-27 17:30:36.72	228.31	10.80	-44.4	-62.0	3.8	8.46e-01	0	58	104	0	60	27123
2026-01-27 17:30:37.73	228.15	10.90	-44.4	-61.7	3.8	8.47e-01	0	58	104	0	60	26393
2026-01-27 17:30:38.74	227.99	11.00	-44.4	-61.7	3.8	8.47e-01	0	58	104	0	60	26203
2026-01-27 17:30:39.75	227.82	11.10	-44.4	-61.7	3.8	8.47e-01	0	58	104	0	60	26338
2026-01-27 17:30:40.76	227.66	11.20	-44.4	-61.9	3.8	8.45e-01	0	58	104	0	60	26910
2026-01-27 17:30:41.77	227.49	11.30	-44.4	-62.3	3.8	8.46e-01	0	58	104	0	60	28232
2026-01-27 17:30:42.78	227.32	11.40	-44.5	-62.5	3.8	8.46e-01	0	58	104	0	60	28900
2026-01-27 17:30:43.79	227.15	11.50	-44.4	-62.0	3.8	8.48e-01	0	58	104	0	60	27315
2026-01-27 17:30:44.80	226.97	11.60	-44.4	-62.1	3.8	8.46e-01	0	58	104	0	60	27570
2026-01-27 17:30:45.81	226.80	11.71	-44.4	-62.1	3.8	8.46e-01	0	58	104	0	60	27693
2026-01-27 17:30:46.82	226.62	11.81	-44.4	-62.2	3.8	8.47e-01	0	58	104	0	60	27738
2026-01-27 17:30:47.83	226.45	11.91	-44.4	-62.3	3.8	8.46e-01	0	58	104	0	60	28239
2026-01-27 17:30:48.84	226.27	12.02	-44.4	-62.5	3.8	8.46e-01	0	58	104	0	60	28696
2026-01-27 17:30:49.85	226.09	12.12	-44.5	-62.6	3.8	8.47e-01	0	58	104	0	60	29276
2026-01-27 17:30:50.86	225.90	12.23	-44.5	-62.6	3.8	8.45e-01	0	58	104	0	60	29200
2026-01-27 17:30:51.87	225.72	12.33	-44.5	-62.1	3.8	8.45e-01	0	58	104	0	60	27490
2026-01-27 17:30:52.88	225.53	12.44	-44.5	-61.9	3.8	8.47e-01	0	59	104	0	60	27063
2026-01-27 17:30:53.89	225.35	12.54	-44.5	-62.1	3.8	8.47e-01	0	58	104	0	60	27467
2026-01-27 17:30:54.90	225.16	12.65	-44.5	-62.1	3.8	8.45e-01	0	58	104	0	60	27427
2026-01-27 17:30:55.91	224.96	12.76	-44.5	-62.3	3.8	8.45e-01	0	58	104	0	60	28237
2026-01-27 17:30:56.92	224.77	12.87	-44.5	-62.3	3.8	8.47e-01	0	59	104	0	60	28101
2026-01-27 17:30:57.93	224.58	12.97	-44.6	-62.5	3.8	8.46e-01	0	58	104	0	60	28768
2026-01-27 17:30:58.94	224.38	13.08	-44.6	-62.7	3.8	8.46e-01	0	58	104	0	60	29653
2026-01-27 17:30:59.95	224.18	13.19	-44.5	-62.6	3.8	8.47e-01	0	58	104	0	60	29287
2026-01-27 17:31:00.96	223.98	13.30	-44.6	-62.5	3.8	8.46e-01	0	59	104	0	60	28786
2026-01-27 17:31:01.97	223.77	13.41	-44.5	-62.6	3.8	8.46e-01	0	58	104	0	60	29146
2026-01-27 17:31:02.99	223.57	13.52	-44.6	-62.7	3.8	8.46e-01	0	59	104	0	60	29665
2026-01-27 17:31:03.99	223.36	13.63	-44.5	-62.6	3.8	8.46e-01	0	59	104	0	60	29159
2026-01-27 17:31:05.00	223.15	13.74	-44.6	-62.7	3.8	8.47e-01	0	58	104	0	60	29365
2026-01-27 17:31:06.02	222.94	13.86	-44.6	-62.7	3.8	8.47e-01	0	59	104	0	60	29447
2026-01-27 17:31:07.03	222.73	13.97	-44.7	-62.7	3.8	8.46e-01	0	59	104	0	60	29657
2026-01-27 17:31:08.04	222.51	14.08	-44.5	-62.6	3.8	8.45e-01	0	59	104	0	60	29135
2026-01-27 17:31:09.05	222.29	14.19	-44.6	-62.7	3.8	8.45e-01	0	59	104	0	60	29391
2026-01-27 17:31:10.06	222.07	14.31	-44.6	-62.6	3.8	8.46e-01	0	59	104	0	60	29204
2026-01-27 17:31:11.07	221.85	14.42	-44.7	-62.7	3.8	8.46e-01	0	59	104	0	60	29675
2026-01-27 17:31:12.08	221.63	14.53	-44.6	-62.6	3.8	8.46e-01	0	59	104	0	60	29118
2026-01-27 17:31:13.09	221.40	14.65	-44.7	-62.7	3.8	8.46e-01	0	59	104	0	60	29376
2026-01-27 17:31:14.10	221.17	14.76	-44.6	-62.6	3.8	8.46e-01	0	59	104	0	60	29062
2026-01-27 17:31:15.11	220.94	14.88	-44.7	-62.7	3.8	8.46e-01	0	59	104	0	60	29514
2026-01-27 17:31:16.12	220.71	15.00	-44.6	-62.7	3.8	8.47e-01	0	59	104	0	60	29423
2026-01-27 17:31:17.13	220.48	15.11	-44.7	-62.7	3.8	8.45e-01	0	59	104	0	60	29640
2026-01-27 17:31:18.14	220.24	15.23	-44.6	-62.6	3.8	8.45e-01	0	59	104	0	60	29148
2026-01-27 17:31:19.15	220.00	15.35	-44.7	-62.6	3.8	8.45e-01	0	59	104	0	60	29040
2026-01-27 17:31:20.16	219.75	15.46	-44.6	-62.8	3.8	8.47e-01	0	59	104	0	60	29701
2026-01-27 17:31:21.17	219.51	15.58	-44.7	-62.8	3.8	8.46e-01	0	59	104	0	60	29949
2026-01-27 17:31:22.18	219.26	15.70	-44.7	-62.7	3.8	8.46e-01	0	59	104	0	60	29561
2026-01-27 17:31:23.19	219.01	15.82	-44.7	-62.6	3.8	8.47e-01	0	59	104	0	60	29269
2026-01-27 17:31:24.20	218.76	15.94	-44.7	-62.8	3.8	8.46e-01	0	59	104	0	60	29993
2026-01-27 17:31:25.21	218.50	16.06	-44.7	-62.9	3.8	8.46e-01	0	59	104	0	60	30043
2026-01-27 17:31:26.22	218.25	16.18	-44.7	-62.7	3.8	8.46e-01	0	59	104	0	60	29436
2026-01-27 17:31:27.23	217.99	16.30	-44.7	-62.8	3.8	8.47e-01	0	59	104	0	60	29886
2026-01-27 17:31:28.24	217.72	16.42	-44.7	-62.8	3.8	8.47e-01	0	59	104	0	60	30026
2026-01-27 17:31:29.25	217.46	16.54	-44.8	-62.9	3.8	8.46e-01	0	59	104	0	60	30138
2026-01-27 17:31:30.26	217.19	16.66	-44.7	-62.8	3.8	8.47e-01	0	59	104	0	60	29753
2026-01-27 17:31:31.27	216.92	16.78	-44.8	-62.9	3.8	8.46e-01	0	59	104	0	60	30170
2026-01-27 17:31:32.28	216.64	16.90	-44.7	-62.9	3.8	8.46e-01	0	59	104	0	60	30108
2026-01-27 17:31:33.29	216.37	17.03	-44.8	-62.8	3.8	8.46e-01	0	59	104	0	60	30013
2026-01-27 17:31:34.30	216.09	17.15	-44.8	-62.8	3.8	8.46e-01	0	59	104	0	60	30001
2026-01-27 17:31:35.31	215.80	17.27	-44.8	-62.9	3.8	8.46e-01	0	59	104	0	60	30282
2026-01-27 17:31:36.32	215.52	17.39	-44.7	-62.8	3.8	8.46e-01	0	59	104	0	60	29729
2026-01-27 17:31:37.33	215.23	17.52	-44.8	-62.9	3.8	8.45e-01	0	59	104	0	60	30110
2026-01-27 17:31:38.34	214.94	17.64	-44.8	-62.9	3.8	8.45e-01	0	59	104	0	60	30247
2026-01-27 17:31:39.35	214.64	17.76	-44.8	-63.0	3.8	8.47e-01	0	59	104	0	60	30539
2026-01-27 17:31:40.36	214.35	17.89	-44.8	-62.8	3.8	8.46e-01	0	59	104	0	60	29831
2026-01-27 17:31:41.37	214.05	18.01	-44.8	-63.0	3.8	8.46e-01	0	59	104	0	60	30560
2026-01-27 17:31:42.38	213.74	18.14	-44.8	-62.9	3.8	8.47e-01	0	59	104	0	60	30220
2026-01-27 17:31:43.39	213.44	18.26	-44.8	-63.0	3.8	8.45e-01	0	59	104	0	60	30585
2026-01-27 17:31:44.40	213.13	18.39	-44.8	-62.9	3.8	8.46e-01	0	59	104	0	60	30260
2026-01-27 17:31:45.41	212.81	18.51	-44.8	-63.0	3.8	8.46e-01	0	59	104	0	60	30475
2026-01-27 17:31:46.42	212.50	18.64	-44.8	-63.0	3.8	8.46e-01	0	59	104	0	60	30513
2026-01-27 17:31:47.43	212.18	18.76	-44.8	-63.0	3.8	8.46e-01	0	60	104	0	60	30471
2026-01-27 17:31:48.44	211.86	18.89	-44.8	-62.9	3.8	8.46e-01	0	60	104	0	60	30349
2026-01-27 17:31:49.45	211.53	19.01	-44.8	-63.0	3.8	8.46e-01	0	59	104	0	60	30449
2026-01-27 17:31:50.46	211.20	19.14	-44.8	-63.0	3.8	8.48e-01	0	59	104	0	60	30508
2026-01-27 17:31:51.47	210.87	19.26	-44.8	-63.0	3.8	8.48e-01	0	59	104	0	60	30418
2026-01-27 17:31:52.48	210.53	19.39	-44.8	-62.9	3.8	8.45e-01	0	59	104	0	60	30281
2026-01-27 17:31:53.49	210.20	19.52	-44.9	-63.0	3.8	8.47e-01	0	60	104	0	60	30475
2026-01-27 17:31:54.50	209.85	19.64	-44.9	-62.9	3.8	8.47e-01	0	59	104	0	60	30363
2026-01-27 17:31:55.51	209.51	19.77	-44.9	-63.0	3.8	8.45e-01	0	59	104	0	60	30583
2026-01-27 17:31:56.52	209.16	19.89	-44.9	-63.0	3.8	8.46e-01	0	60	104	0	60	30674
2026-01-27 17:31:57.52	208.81	20.02	-44.9	-63.0	3.8	8.46e-01	0	60	104	0	60	30642
2026-01-27 17:31:58.54	208.45	20.14	-44.9	-63.1	3.8	8.46e-01	0	60	104	0	60	30805
2026-01-27 17:31:59.54	208.09	20.27	-44.9	-63.0	3.8	8.45e-01	0	60	104	0	60	30730
2026-01-27 17:32:00.55	207.73	20.39	-44.9	-63.0	3.8	8.46e-01	0	59	104	0	60	30691
2026-01-27 17:32:01.57	207.36	20.52	-44.9	-63.1	3.8	8.46e-01	0	60	104	0	60	30790
2026-01-27 17:32:02.58	206.99	20.64	-44.9	-63.1	3.8	8.45e-01	0	60	104	0	60	30764
2026-01-27 17:32:03.59	206.61	20.77	-44.9	-63.0	3.8	8.46e-01	0	60	104	0	60	30649
2026-01-27 17:32:04.60	206.23	20.89	-44.9	-63.0	3.8	8.46e-01	0	60	104	0	60	30711
2026-01-27 17:32:05.61	205.85	21.02	-44.9	-63.0	3.8	8.45e-01	0	60	104	0	60	30648
2026-01-27 17:32:06.62	205.47	21.14	-44.9	-63.1	3.8	8.46e-01	0	60	104	0	60	30793
2026-01-27 17:32:07.62	205.08	21.26	-44.8	-63.0	3.8	8.46e-01	0	60	104	0	60	30654
2026-01-27 17:32:08.63	204.69	21.38	-44.9	-63.1	3.8	8.46e-01	0	60	104	0	60	30745
2026-01-27 17:32:09.64	204.29	21.51	-44.9	-63.0	3.8	8.46e-01	0	60	104	0	60	30699
2026-01-27 17:32:10.65	203.89	21.63	-44.9	-63.1	3.8	8.46e-01	0	60	104	0	60	30774
2026-01-27 17:32:11.66	203.49	21.75	-44.9	-63.0	3.8	8.46e-01	0	60	104	0	60	30713
2026-01-27 17:32:12.67	203.08	21.87	-44.9	-63.1	3.8	8.46e-01	0	60	104	0	60	30844
2026-01-27 17:32:13.68	202.67	21.99	-44.9	-63.0	3.8	8.46e-01	0	60	104	0	60	30653
2026-01-27 17:32:14.69	202.25	22.11	-44.9	-63.0	3.8	8.46e-01	0	60	104	0	60	30605
2026-01-27 17:32:15.70	201.83	22.23	-44.9	-63.1	3.8	8.46e-01	0	60	104	0	60	30778
2026-01-27 17:32:16.71	201.41	22.35	-44.9	-63.0	3.8	8.46e-01	0	60	104	0	60	30494
2026-01-27 17:32:17.72	200.98	22.47	-44.9	-63.0	3.8	8.46e-01	0	60	104	0	60	30709
2026-01-27 17:32:18.73	200.55	22.58	-44.9	-62.9	3.8	8.46e-01	0	60	104	0	60	30262
2026-01-27 17:32:19.75	200.11	22.70	-44.9	-63.0	3.8	8.47e-01	0	60	104	0	60	30653
2026-01-27 17:32:20.76	199.68	22.82	-44.9	-62.9	3.8	8.46e-01	0	60	104	0	60	30088
2026-01-27 17:32:21.77	199.23	22.93	-44.9	-63.0	3.8	8.46e-01	0	60	104	0	60	30486
2026-01-27 17:32:22.78	198.79	23.04	-44.9	-62.9	3.8	8.46e-01	0	60	104	0	60	30045
2026-01-27 17:32:23.79	198.34	23.16	-44.9	-62.9	3.8	8.47e-01	0	60	104	0	60	30215
2026-01-27 17:32:24.80	197.88	23.27	-44.9	-63.0	3.8	8.47e-01	0	60	104	0	60	30713
2026-01-27 17:32:25.81	197.42	23.38	-44.9	-62.8	3.8	8.46e-01	0	60	104	0	60	29947
2026-01-27 17:32:26.82	196.96	23.49	-44.9	-63.0	3.8	8.46e-01	0	60	104	0	60	30613
2026-01-27 17:32:27.83	196.50	23.60	-44.9	-63.1	3.8	8.46e-01	0	60	104	0	60	30744
2026-01-27 17:32:28.84	196.03	23.70	-44.9	-63.1	3.8	8.48e-01	0	60	104	0	60	30926
2026-01-27 17:32:29.85	195.56	23.81	-44.9	-63.0	3.8	8.47e-01	0	60	104	0	60	30582
2026-01-27 17:32:30.86	195.08	23.91	-44.9	-63.1	3.8	8.47e-01	0	60	104	0	60	30863
2026-01-27 17:32:31.87	194.60	24.02	-44.9	-63.1	3.8	8.47e-01	0	60	104	0	60	30908
2026-01-27 17:32:32.88	194.12	24.12	-44.9	-63.1	3.8	8.46e-01	0	60	104	0	60	30799
2026-01-27 17:32:33.89	193.63	24.22	-44.9	-63.0	3.8	8.45e-01	0	60	104	0	60	30697
2026-01-27 17:32:34.90	193.14	24.32	-44.9	-63.1	3.8	8.45e-01	0	60	104	0	60	30854
2026-01-27 17:32:35.91	192.64	24.42	-44.9	-63.0	3.8	8.45e-01	0	60	104	0	60	30701
2026-01-27 17:32:36.92	192.14	24.51	-44.9	-63.1	3.8	8.46e-01	0	60	104	0	60	30763
2026-01-27 17:32:37.93	191.64	24.61	-44.9	-63.0	3.8	8.46e-01	0	60	104	0	60	30725
2026-01-27 17:32:38.94	191.14	24.70	-44.9	-63.1	3.8	8.47e-01	0	60	104	0	60	30904
2026-01-27 17:32:39.95	190.63	24.79	-44.9	-63.1	3.8	8.47e-01	0	60	104	0	60	30824
2026-01-27 17:32:40.96	190.12	24.88	-44.9	-63.1	3.8	8.47e-01	0	60	104	0	60	30762
2026-01-27 17:32:41.97	189.60	24.97	-44.9	-63.1	3.8	8.47e-01	0	60	104	0	60	30788
2026-01-27 17:32:42.98	189.08	25.05	-44.9	-63.1	3.8	8.46e-01	0	60	104	0	60	30916
2026-01-27 17:32:43.99	188.56	25.14	-44.9	-63.0	3.8	8.46e-01	0	60	104	0	60	30645
2026-01-27 17:32:45.00	188.03	25.22	-44.9	-63.1	3.8	8.47e-01	0	60	104	0	60	30851
2026-01-27 17:32:46.01	187.51	25.30	-44.9	-63.1	3.8	8.46e-01	0	60	104	0	60	30877
2026-01-27 17:32:47.02	186.97	25.38	-44.9	-63.1	3.8	8.46e-01	0	60	104	0	60	30894
2026-01-27 17:32:48.03	186.44	25.45	-44.9	-63.1	3.8	8.46e-01	0	60	104	0	60	30747
2026-01-27 17:32:49.04	185.90	25.52	-44.9	-63.1	3.8	8.46e-01	0	60	104	0	60	30925
2026-01-27 17:32:50.05	185.36	25.60	-44.9	-63.1	3.8	8.46e-01	0	60	104	0	60	30886
2026-01-27 17:32:51.06	184.82	25.66	-44.9	-63.1	3.8	8.46e-01	0	60	104	0	60	30910
2026-01-27 17:32:52.08	184.27	25.73	-44.9	-63.1	3.8	8.46e-01	0	61	104	0	60	30813
2026-01-27 17:32:53.09	183.72	25.80	-44.9	-63.1	3.8	8.46e-01	0	60	104	0	60	30848
2026-01-27 17:32:54.10	183.17	25.86	-44.9	-63.1	3.8	8.46e-01	0	60	104	0	60	30750
2026-01-27 17:32:55.11	182.62	25.92	-44.9	-63.1	3.8	8.46e-01	0	60	104	0	60	31008
2026-01-27 17:32:56.12	182.06	25.98	-44.9	-63.1	3.8	8.46e-01	0	61	104	0	60	30898
2026-01-27 17:32:57.13	181.50	26.03	-45.0	-63.2	3.8	8.46e-01	0	60	104	0	60	31109
2026-01-27 17:32:58.14	180.94	26.08	-44.9	-63.1	3.8	8.46e-01	0	60	104	0	60	31004
2026-01-27 17:32:59.15	180.38	26.13	-45.0	-63.2	3.8	8.45e-01	0	61	104	0	60	31088
2026-01-27 17:33:00.16	179.82	26.18	-45.0	-63.1	3.8	8.47e-01	0	61	104	0	60	30979
2026-01-27 17:33:01.17	179.25	26.23	-45.0	-63.2	3.8	8.47e-01	0	61	104	0	60	31178
2026-01-27 17:33:02.18	178.68	26.27	-45.0	-63.1	3.8	8.46e-01	0	60	104	0	60	31077
2026-01-27 17:33:03.19	178.11	26.31	-45.0	-63.1	3.8	8.46e-01	0	61	104	0	60	31068
2026-01-27 17:33:04.20	177.54	26.34	-45.0	-63.2	3.8	8.46e-01	0	61	104	0	60	31093
2026-01-27 17:33:05.21	176.97	26.38	-45.0	-63.2	3.8	8.47e-01	0	60	104	0	60	31262
2026-01-27 17:33:06.22	176.40	26.41	-45.0	-63.2	3.8	8.46e-01	0	60	104	0	60	31109
2026-01-27 17:33:07.23	175.82	26.44	-45.0	-63.2	3.8	8.46e-01	0	61	104	0	60	31127
2026-01-27 17:33:08.24	175.25	26.46	-45.0	-63.2	3.8	8.46e-01	0	61	104	0	60	31088
2026-01-27 17:33:09.25	174.67	26.49	-45.2	-63.3	3.8	8.46e-01	0	60	104	0	61	30009
2026-01-27 17:33:10.26	174.09	26.51	-45.1	-63.3	3.8	8.46e-01	0	61	104	0	61	29864
2026-01-27 17:33:11.27	173.51	26.52	-45.1	-63.3	3.8	8.46e-01	0	60	104	0	61	29706
2026-01-27 17:33:12.28	172.93	26.54	-45.1	-63.2	3.8	8.46e-01	0	61	104	0	61	29635
2026-01-27 17:33:13.29	172.35	26.55	-45.1	-63.3	3.8	8.48e-01	0	61	104	0	61	29786
2026-01-27 17:33:14.30	171.77	26.56	-45.1	-63.2	3.8	8.48e-01	0	61	104	0	61	29545
2026-01-27 17:33:15.31	171.19	26.56	-45.1	-63.2	3.8	8.46e-01	0	61	104	0	61	29644
2026-01-27 17:33:16.32	170.61	26.57	-45.1	-63.2	3.8	8.46e-01	0	60	104	0	61	29620
2026-01-27 17:33:17.33	170.03	26.57	-45.1	-63.2	3.8	8.46e-01	0	61	104	0	61	29680
2026-01-27 17:33:18.34	169.45	26.56	-45.1	-63.3	3.8	8.46e-01	0	61	104	0	61	29705
2026-01-27 17:33:19.35	168.87	26.56	-45.1	-63.3	3.8	8.45e-01	0	61	104	0	61	29753
2026-01-27 17:33:20.36	168.29	26.55	-45.1	-63.3	3.8	8.45e-01	0	61	104	0	61	29930
2026-01-27 17:33:21.37	167.71	26.54	-45.2	-63.3	3.8	8.47e-01	0	60	104	0	61	30017
2026-01-27 17:33:22.38	167.13	26.53	-45.1	-63.3	3.8	8.46e-01	0	61	104	0	61	29954
2026-01-27 17:33:23.39	166.55	26.51	-45.2	-63.4	3.8	8.46e-01	0	61	104	0	61	30075
2026-01-27 17:33:24.40	165.97	26.49	-45.2	-63.3	3.8	8.47e-01	0	61	104	0	61	30013
2026-01-27 17:33:25.41	165.40	26.47	-45.2	-63.3	3.8	8.46e-01	0	61	104	0	61	29991
2026-01-27 17:33:26.42	164.82	26.44	-45.2	-63.4	3.8	8.46e-01	0	61	104	0	61	30073
2026-01-27 17:33:27.43	164.24	26.41	-45.2	-63.3	3.8	8.46e-01	0	61	104	0	61	29981
2026-01-27 17:33:28.44	163.67	26.38	-45.2	-63.4	3.8	8.47e-01	0	61	104	0	61	30033
2026-01-27 17:33:29.45	163.10	26.35	-45.2	-63.3	3.8	8.47e-01	0	61	104	0	61	29937
2026-01-27 17:33:30.47	162.52	26.31	-45.2	-63.3	3.8	8.47e-01	0	61	104	0	61	29789
2026-01-27 17:33:31.48	161.95	26.27	-45.2	-63.3	3.8	8.45e-01	0	61	104	0	61	29857
2026-01-27 17:33:32.49	161.38	26.23	-45.2	-63.3	3.8	8.46e-01	0	61	104	0	61	29849
2026-01-27 17:33:33.50	160.82	26.19	-45.2	-63.1	3.8	8.46e-01	0	61	104	0	61	29340
2026-01-27 17:33:34.51	160.25	26.14	-45.2	-63.1	3.8	8.47e-01	0	61	104	0	61	29258
2026-01-27 17:33:35.52	159.69	26.09	-45.2	-63.1	3.8	8.47e-01	0	61	104	0	61	29217
2026-01-27 17:33:36.53	159.13	26.04	-45.2	-63.3	3.8	8.46e-01	0	61	104	0	61	29727
2026-01-27 17:33:37.54	158.57	25.98	-45.2	-63.3	3.8	8.46e-01	0	61	104	0	61	29884
2026-01-27 17:33:38.55	158.02	25.93	-45.2	-63.4	3.8	8.46e-01	0	61	104	0	61	30055
2026-01-27 17:33:39.56	157.47	25.87	-45.2	-63.4	3.8	8.46e-01	0	61	104	0	61	30156
2026-01-27 17:33:40.57	156.91	25.81	-45.2	-63.4	3.8	8.46e-01	0	61	104	0	61	30182
2026-01-27 17:33:41.58	156.37	25.74	-45.2	-63.4	3.8	8.46e-01	0	61	104	0	61	30037
2026-01-27 17:33:42.59	155.82	25.67	-45.2	-63.3	3.8	8.47e-01	0	61	104	0	61	29725
2026-01-27 17:33:43.60	155.28	25.61	-45.2	-63.3	3.8	8.47e-01	0	61	104	0	61	29836
2026-01-27 17:33:44.61	154.74	25.54	-45.2	-63.4	3.8	8.46e-01	0	61	104	0	61	30222
2026-01-27 17:33:45.62	154.20	25.46	-45.2	-63.3	3.8	8.46e-01	0	61	104	0	61	30001
2026-01-27 17:33:46.63	153.67	25.39	-45.2	-63.3	3.8	8.46e-01	0	61	104	0	61	29947
2026-01-27 17:33:47.64	153.13	25.31	-45.2	-63.4	3.8	8.46e-01	0	61	104	0	61	30050
2026-01-27 17:33:48.65	152.61	25.23	-45.2	-63.4	3.8	8.45e-01	0	61	104	0	61	30313
2026-01-27 17:33:49.66	152.08	25.15	-45.2	-63.4	3.8	8.45e-01	0	61	104	0	61	30261
2026-01-27 17:33:50.67	151.56	25.07	-45.2	-63.4	3.8	8.45e-01	0	61	104	0	61	30178
2026-01-27 17:33:51.68	151.04	24.98	-45.2	-63.4	3.8	8.46e-01	0	61	104	0	61	30212
2026-01-27 17:33:52.69	150.52	24.89	-45.2	-63.4	3.8	8.44e-01	0	61	104	0	61	30287
2026-01-27 17:33:53.70	150.01	24.80	-45.2	-63.4	3.8	8.44e-01	0	61	104	0	61	30273
2026-01-27 17:33:54.71	149.50	24.71	-45.2	-63.4	3.8	8.47e-01	0	61	104	0	61	30254
2026-01-27 17:33:55.72	149.00	24.62	-45.2	-63.4	3.8	8.46e-01	0	61	104	0	61	30295
2026-01-27 17:33:56.73	148.49	24.53	-45.2	-63.4	3.8	8.46e-01	0	61	104	0	61	30194
2026-01-27 17:33:57.74	148.00	24.43	-45.2	-63.3	3.8	8.47e-01	0	61	104	0	61	29973
2026-01-27 17:33:58.76	147.50	24.33	-45.2	-63.4	3.8	8.47e-01	0	61	104	0	61	30263
2026-01-27 17:33:59.76	147.01	24.24	-45.2	-63.4	3.8	8.47e-01	0	61	104	0	61	30267
2026-01-27 17:34:00.77	146.52	24.14	-45.2	-63.4	3.8	8.45e-01	0	61	104	0	61	30141
2026-01-27 17:34:01.78	146.04	24.03	-45.2	-63.4	3.8	8.47e-01	0	61	104	0	61	30190
2026-01-27 17:34:02.79	145.56	23.93	-45.2	-63.3	3.8	8.47e-01	0	61	104	0	61	29767
2026-01-27 17:34:03.80	145.08	23.83	-45.2	-63.3	3.8	8.47e-01	0	61	104	0	61	29768
2026-01-27 17:34:04.81	144.61	23.72	-45.2	-63.1	3.8	8.46e-01	0	61	104	0	61	29209
2026-01-27 17:34:05.82	144.14	23.61	-45.2	-63.3	3.8	8.46e-01	0	61	104	0	61	29751
2026-01-27 17:34:06.83	143.67	23.51	-45.2	-63.0	3.8	8.46e-01	0	61	104	0	61	28840
2026-01-27 17:34:07.84	143.21	23.40	-45.1	-63.0	3.8	8.46e-01	0	61	104	0	61	28725
2026-01-27 17:34:08.85	142.75	23.29	-45.1	-63.2	3.8	8.46e-01	0	61	104	0	61	29477
2026-01-27 17:34:09.86	142.30	23.18	-45.1	-63.2	3.8	8.46e-01	0	61	104	0	61	29555
2026-01-27 17:34:10.87	141.85	23.06	-45.1	-63.1	3.8	8.46e-01	0	61	104	0	61	29107
2026-01-27 17:34:11.88	141.40	22.95	-45.1	-63.0	3.8	8.46e-01	0	61	104	0	61	28996
2026-01-27 17:34:12.89	140.96	22.84	-45.1	-63.2	3.8	8.46e-01	0	61	104	0	61	29487
2026-01-27 17:34:13.90	140.52	22.72	-45.1	-63.3	3.8	8.46e-01	0	61	104	0	61	29929
2026-01-27 17:34:14.91	140.08	22.60	-45.1	-63.2	3.8	8.46e-01	0	61	104	0	61	29604
2026-01-27 17:34:15.92	139.65	22.49	-45.1	-63.1	3.8	8.47e-01	0	61	104	0	61	29317
2026-01-27 17:34:16.93	139.23	22.37	-45.1	-63.3	3.8	8.47e-01	0	61	104	0	61	29715
2026-01-27 17:34:17.94	138.80	22.25	-45.1	-63.3	3.8	8.45e-01	0	61	104	0	61	29848
2026-01-27 17:34:18.95	138.38	22.13	-45.1	-63.3	3.8	8.47e-01	0	61	104	0	61	29872
2026-01-27 17:34:19.96	137.97	22.01	-45.1	-63.2	3.8	8.47e-01	0	61	104	0	61	29676
2026-01-27 17:34:20.97	137.56	21.89	-45.1	-63.3	3.8	8.45e-01	0	61	104	0	61	29731
2026-01-27 17:34:21.98	137.15	21.77	-45.1	-63.3	3.8	8.46e-01	0	61	104	0	61	29738
2026-01-27 17:34:22.99	136.74	21.65	-45.1	-63.3	3.8	8.46e-01	0	61	104	0	61	30010
2026-01-27 17:34:24.00	136.34	21.53	-45.0	-63.2	3.8	8.46e-01	0	61	104	0	60	31404
2026-01-27 17:34:25.01	135.95	21.41	-45.0	-63.3	3.8	8.45e-01	0	61	104	0	60	31553
2026-01-27 17:34:26.02	135.55	21.28	-45.0	-63.2	3.8	8.45e-01	0	61	104	0	60	31170
2026-01-27 17:34:27.03	135.16	21.16	-45.0	-63.3	3.8	8.45e-01	0	61	104	0	60	31632
2026-01-27 17:34:28.04	134.78	21.04	-45.0	-63.2	3.8	8.47e-01	0	61	104	0	60	31350
2026-01-27 17:34:29.05	134.40	20.91	-45.0	-63.3	3.8	8.46e-01	0	61	104	0	60	31628
2026-01-27 17:34:30.06	134.02	20.79	-45.0	-63.1	3.8	8.46e-01	0	61	104	0	60	31042
2026-01-27 17:34:31.07	133.64	20.67	-45.0	-63.2	3.8	8.44e-01	0	61	104	0	60	31323
2026-01-27 17:34:32.08	133.27	20.54	-44.9	-63.2	3.8	8.46e-01	0	61	104	0	60	31257
2026-01-27 17:34:33.09	132.90	20.42	-44.7	-63.2	3.8	8.46e-01	0	61	104	0	60	31208
2026-01-27 17:34:34.10	132.54	20.29	-44.9	-63.3	3.8	8.47e-01	0	61	104	0	60	31512
2026-01-27 17:34:35.11	132.18	20.17	-45.0	-63.2	3.8	8.45e-01	0	61	104	0	60	31170
2026-01-27 17:34:36.12	131.82	20.04	-44.9	-63.0	3.8	8.45e-01	0	61	104	0	60	30729
2026-01-27 17:34:37.13	131.47	19.92	-44.9	-63.1	3.8	8.45e-01	0	61	104	0	60	31067
2026-01-27 17:34:38.14	131.12	19.79	-44.9	-63.2	3.8	8.47e-01	0	61	104	0	60	31302
2026-01-27 17:34:39.15	130.77	19.66	-44.9	-63.2	3.8	8.47e-01	0	61	104	0	60	31411
2026-01-27 17:34:40.16	130.43	19.54	-44.8	-63.2	3.8	8.47e-01	0	61	104	0	60	31226
2026-01-27 17:34:41.17	130.09	19.41	-44.9	-63.1	3.8	8.47e-01	0	61	104	0	60	30962
2026-01-27 17:34:42.18	129.76	19.29	-44.9	-63.0	3.8	8.46e-01	0	61	104	0	60	30683
2026-01-27 17:34:43.19	129.42	19.16	-44.9	-63.2	3.8	8.46e-01	0	61	104	0	60	31221
2026-01-27 17:34:44.20	129.10	19.04	-44.8	-63.1	3.8	8.45e-01	0	61	104	0	60	31050
2026-01-27 17:34:45.21	128.77	18.91	-44.9	-63.2	3.8	8.46e-01	0	61	104	0	60	31099
2026-01-27 17:34:46.22	128.45	18.79	-44.9	-63.1	3.8	8.46e-01	0	61	104	0	60	31000
2026-01-27 17:34:47.23	128.13	18.66	-44.9	-63.1	3.8	8.47e-01	0	61	104	0	60	30870
2026-01-27 17:34:48.24	127.81	18.54	-44.8	-62.9	3.8	8.47e-01	0	61	104	0	60	30102
2026-01-27 17:34:49.25	127.50	18.41	-44.8	-63.1	3.8	8.47e-01	0	61	104	0	60	30746
2026-01-27 17:34:50.26	127.19	18.29	-44.8	-63.1	3.8	8.46e-01	0	61	104	0	60	30798
2026-01-27 17:34:51.27	126.88	18.16	-44.9	-63.2	3.8	8.46e-01	0	61	104	0	60	31132
2026-01-27 17:34:52.28	126.58	18.04	-44.8	-62.9	3.8	8.46e-01	0	61	104	0	60	30350
2026-01-27 17:34:53.29	126.28	17.91	-44.5	-63.0	3.8	8.46e-01	0	61	104	0	60	30498
2026-01-27 17:34:54.30	125.98	17.79	-44.8	-63.0	3.8	8.46e-01	0	61	104	0	60	30518
2026-01-27 17:34:55.31	125.69	17.67	-44.8	-63.1	3.8	8.46e-01	0	61	104	0	60	30794
2026-01-27 17:34:56.32	125.39	17.54	-44.7	-62.6	3.9	8.46e-01	0	61	104	0	59	31054
2026-01-27 17:34:57.33	125.11	17.42	-44.6	-63.0	3.9	8.47e-01	0	61	104	0	60	30399
2026-01-27 17:34:58.34	124.82	17.30	-44.6	-62.8	3.8	8.47e-01	0	61	104	0	59	31655
2026-01-27 17:34:59.35	124.54	17.17	-44.5	-62.8	3.8	8.47e-01	0	61	104	0	59	31567
2026-01-27 17:35:00.36	124.26	17.05	-44.3	-62.7	3.8	8.47e-01	0	61	104	0	59	31138
2026-01-27 17:35:01.37	123.98	16.93	-44.2	-63.0	3.8	8.45e-01	0	61	104	0	60	30726
2026-01-27 17:35:02.38	123.71	16.81	-44.4	-63.0	3.8	8.45e-01	0	61	104	0	60	30414
2026-01-27 17:35:03.39	123.44	16.69	-44.6	-62.9	3.8	8.47e-01	0	61	104	0	60	30155
2026-01-27 17:35:04.40	123.17	16.56	-44.7	-62.9	3.8	8.47e-01	0	61	104	0	60	30134
2026-01-27 17:35:05.41	122.90	16.44	-44.7	-62.9	3.8	8.46e-01	0	61	104	0	60	30351
2026-01-27 17:35:06.42	122.64	16.32	-43.7	-63.0	3.9	8.46e-01	0	61	104	0	58	34269
2026-01-27 17:35:07.44	122.37	16.20	-43.4	-63.0	3.8	8.45e-01	0	61	104	0	58	34202
2026-01-27 17:35:08.45	122.12	16.08	-44.4	-62.6	3.7	8.45e-01	0	61	104	0	59	31069
2026-01-27 17:35:09.45	121.86	15.96	-44.2	-62.7	3.7	8.45e-01	0	61	104	0	58	32991
2026-01-27 17:35:10.46	121.61	15.84	-43.1	-62.7	4.0	8.46e-01	0	61	104	0	58	33119
2026-01-27 17:35:11.47	121.36	15.73	-42.3	-61.9	3.9	8.46e-01	0	61	104	0	56	33958
2026-01-27 17:35:12.48	121.11	15.61	-41.9	-61.1	4.2	8.46e-01	0	61	104	0	51	41239
2026-01-27 17:35:13.49	120.87	15.49	-41.4	-62.2	4.0	8.44e-01	0	61	104	0	55	37190
2026-01-27 17:35:14.50	120.63	15.37	-43.5	-62.3	3.9	8.45e-01	0	61	104	0	57	33670
2026-01-27 17:35:15.51	120.38	15.26	-42.7	-61.4	3.9	8.45e-01	0	61	104	0	51	42528
2026-01-27 17:35:16.52	120.15	15.14	-41.7	-60.5	4.1	8.44e-01	0	61	104	0	51	38596
2026-01-27 17:35:17.53	119.91	15.02	-41.5	-61.2	3.8	8.44e-01	0	61	104	0	54	34983
2026-01-27 17:35:18.54	119.68	14.91	-42.2	-61.3	4.1	8.43e-01	0	61	104	0	52	39942
2026-01-27 17:35:19.55	119.45	14.79	-39.9	-59.5	4.0	8.43e-01	0	61	104	0	51	34465
2026-01-27 17:35:20.56	119.22	14.68	-42.5	-61.9	3.7	8.45e-01	0	61	104	0	56	33770
2026-01-27 17:35:21.57	118.99	14.56	-42.7	-62.4	3.5	8.46e-01	0	61	104	0	57	33844
2026-01-27 17:35:22.58	118.77	14.45	-41.6	-62.7	3.8	8.46e-01	0	61	104	0	59	31337
2026-01-27 17:35:23.59	118.55	14.33	-43.9	-62.6	3.8	8.46e-01	0	61	104	0	58	32785
2026-01-27 17:35:24.60	118.33	14.22	-42.7	-61.1	3.7	8.46e-01	0	61	104	0	56	30950
2026-01-27 17:35:25.61	118.11	14.11	-39.5	-58.3	3.9	8.46e-01	0	61	104	0	52	28163
2026-01-27 17:35:26.62	117.89	14.00	-43.5	-62.0	3.8	8.44e-01	0	61	104	0	58	30692
2026-01-27 17:35:27.63	117.68	13.88	-43.8	-62.0	3.8	8.45e-01	0	61	104	0	58	30693
2026-01-27 17:35:28.64	117.47	13.77	-44.5	-62.4	3.8	8.45e-01	0	61	104	0	59	30329
2026-01-27 17:35:29.65	117.26	13.66	-41.6	-60.5	4.0	8.46e-01	0	61	104	0	50	40682
2026-01-27 17:35:30.65	117.06	13.55	-29.9	-56.0	3.9	8.43e-01	0	61	104	0	33	64931
2026-01-27 17:35:31.67	116.85	13.44	-34.5	-59.5	3.8	8.31e-01	0	61	104	0	43	54426
2026-01-27 17:35:32.68	116.64	13.33	-35.1	-54.9	3.9	8.31e-01	0	61	104	0	32	60591
2026-01-27 17:35:33.69	116.44	13.22	-23.8	-46.1	4.1	8.35e-01	0	61	104	0	13	65535
2026-01-27 17:35:34.69	116.25	13.11	-31.6	-49.5	3.9	8.10e-01	0	61	104	0	27	42918
2026-01-27 17:35:35.70	116.05	13.00	-36.2	-57.1	4.3	8.10e-01	0	61	104	0	40	48728
2026-01-27 17:35:36.71	115.85	12.90	-39.3	-60.9	4.3	8.34e-01	0	61	104	0	46	53661
2026-01-27 17:35:37.72	115.66	12.79	-35.4	-59.8	3.9	8.34e-01	0	61	104	0	44	53083
2026-01-27 17:35:38.73	115.47	12.68	-40.3	-61.2	4.0	8.34e-01	0	61	104	0	51	41591
2026-01-27 17:35:39.74	115.28	12.57	-34.3	-57.3	4.2	8.40e-01	0	61	104	0	40	50387
2026-01-27 17:35:40.75	115.09	12.47	-28.4	-51.4	3.9	8.38e-01	0	61	104	0	31	42765
2026-01-27 17:35:41.76	114.90	12.36	-29.7	-52.5	4.0	8.19e-01	0	61	104	0	33	43053
2026-01-27 17:35:42.77	114.72	12.26	-31.2	-56.3	4.1	8.19e-01	0	61	104	0	39	47523
2026-01-27 17:35:43.78	114.54	12.15	-29.4	-52.4	3.8	8.26e-01	0	61	104	0	31	48026
2026-01-27 17:35:44.79	114.36	12.05	-29.5	-52.8	3.9	8.22e-01	0	61	104	0	32	47166
2026-01-27 17:35:45.80	114.18	11.94	-38.2	-59.3	4.1	8.22e-01	0	61	104	0	44	50164
2026-01-27 17:35:46.81	114.00	11.84	-35.0	-58.7	4.2	8.31e-01	0	61	104	0	42	52606
2026-01-27 17:35:47.82	113.82	11.74	-34.5	-57.1	4.0	8.32e-01	0	61	104	0	39	51888
2026-01-27 17:35:48.83	113.65	11.63	-31.1	-54.9	4.5	8.32e-01	0	61	104	0	36	48083
2026-01-27 17:35:49.84	113.48	11.53	-33.5	-57.4	4.2	8.28e-01	0	61	104	0	40	50974
2026-01-27 17:35:50.85	113.31	11.43	-33.6	-56.7	4.2	8.27e-01	0	61	104	0	37	55727
2026-01-27 17:35:51.86	113.14	11.33	-29.3	-55.9	4.2	8.27e-01	0	62	0	0	37	51000
2026-01-27 17:35:52.87	112.97	11.23	-30.2	-56.9	4.3	8.24e-01	0	61	104	0	40	48030
2026-01-27 17:35:53.88	112.80	11.13	-27.1	-50.5	4.3	8.28e-01	0	61	104	0	33	34405
2026-01-27 17:35:54.89	112.64	11.03	-36.1	-59.2	4.2	8.28e-01	0	61	104	0	44	49563
2026-01-27 17:35:55.90	112.47	10.93	-30.7	-54.0	4.2	8.32e-01	0	61	104	0	34	48298
2026-01-27 17:35:56.91	112.31	10.83	-29.7	-53.2	3.9	8.30e-01	0	61	104	0	31	52573
2026-01-27 17:35:57.92	112.15	10.73	-29.1	-50.3	3.7	8.20e-01	0	61	104	0	25	52887
2026-01-27 17:35:58.93	111.99	10.63	-28.5	-50.3	3.7	8.20e-01	0	61	104	0	25	52893
2026-01-27 17:35:59.94	111.83	10.53	-19.5	-41.5	3.1	8.23e-01	0	62	104	0	10	45679
2026-01-27 17:36:00.93	111.68	10.44	-30.4	-54.3	4.1	8.08e-01	0	61	104	0	32	56373
2026-01-27 17:36:01.94	111.53	10.34	-39.3	-60.8	3.8	8.08e-01	0	61	104	0	48	47490
2026-01-27 17:36:02.95	111.37	10.24	-35.1	-57.1	4.1	8.31e-01	0	61	104	0	40	49040
2026-01-27 17:36:03.96	111.22	10.15	-30.5	-55.1	4.2	8.32e-01	0	62	0	0	36	48772
2026-01-27 17:36:04.97	111.07	10.05	-32.0	-54.4	4.1	8.32e-01	0	61	104	0	36	45067
2026-01-27 17:36:05.98	110.92	9.96	-33.4	-56.3	3.8	8.24e-01	0	61	104	0	37	53026
2026-01-27 17:36:06.99	110.77	9.86	-32.5	-56.8	4.2	8.29e-01	0	61	104	0	40	47569
2026-01-27 17:36:08.00	110.63	9.77	-38.5	-60.2	4.1	8.29e-01	0	61	104	0	45	52575
2026-01-27 17:36:09.02	110.48	9.67	-35.4	-56.7	4.1	8.29e-01	0	61	104	0	40	46652
2026-01-27 17:36:10.03	110.34	9.58	-40.1	-61.1	3.6	8.33e-01	0	61	104	0	51	41336
2026-01-27 17:36:11.04	110.19	9.48	-38.7	-60.5	3.9	8.41e-01	0	61	104	0	50	40853
2026-01-27 17:36:12.05	110.05	9.39	-24.5	-51.1	3.4	8.41e-01	0	61	104	0	24	61830
2026-01-27 17:36:13.06	109.91	9.30	-37.0	-58.8	4.1	8.37e-01	0	62	104	0	44	47163
2026-01-27 17:36:14.07	109.77	9.21	-35.8	-57.5	3.9	8.37e-01	0	61	104	0	43	43307
2026-01-27 17:36:15.08	109.64	9.11	-36.6	-59.5	4.1	8.37e-01	0	61	104	0	46	45896
2026-01-27 17:36:16.09	109.50	9.02	-37.6	-58.8	4.2	8.39e-01	0	61	104	0	46	42081
2026-01-27 17:36:17.10	109.36	8.93	-36.7	-60.0	4.0	8.39e-01	0	61	104	0	46	48269
2026-01-27 17:36:18.11	109.23	8.84	-41.3	-60.7	4.1	8.39e-01	0	61	104	0	53	35272
2026-01-27 17:36:19.12	109.10	8.75	-40.4	-61.3	3.7	8.42e-01	0	61	104	0	53	37617
2026-01-27 17:36:20.13	108.96	8.66	-35.0	-58.7	3.6	8.44e-01	0	61	104	0	47	39328
2026-01-27 17:36:21.14	108.83	8.57	-41.1	-59.2	4.0	8.41e-01	0	61	104	0	48	39264
2026-01-27 17:36:22.15	108.70	8.48	-40.5	-60.7	4.1	8.41e-01	0	62	104	0	52	37046
2026-01-27 17:36:23.16	108.58	8.39	-39.9	-59.7	3.8	8.44e-01	0	62	104	0	51	35150
2026-01-27 17:36:24.17	108.45	8.31	-39.2	-59.8	3.8	8.45e-01	0	61	104	0	50	37526
2026-01-27 17:36:25.18	108.32	8.22	-35.4	-57.9	3.9	8.45e-01	0	61	104	0	45	40239
2026-01-27 17:36:26.20	108.20	8.13	-38.7	-58.3	3.8	8.42e-01	0	61	104	0	49	33642
2026-01-27 17:36:27.21	108.07	8.04	-41.9	-60.7	3.9	8.45e-01	0	61	104	0	54	32959
2026-01-27 17:36:28.22	107.95	7.95	-41.8	-57.3	4.1	8.45e-01	0	61	104	0	52	24982
2026-01-27 17:36:29.23	107.83	7.87	-44.8	-63.0	3.8	8.41e-01	0	61	104	0	60	30529
2026-01-27 17:36:30.24	107.70	7.78	-45.0	-63.2	3.8	8.44e-01	0	62	104	0	60	31184
2026-01-27 17:36:31.25	107.58	7.70	-45.2	-63.4	3.8	8.44e-01	0	62	104	0	60	31963
2026-01-27 17:36:32.26	107.46	7.61	-45.4	-63.6	3.8	8.47e-01	0	61	104	0	61	31035
2026-01-27 17:36:33.27	107.35	7.52	-45.5	-63.8	3.8	8.46e-01	0	61	104	0	61	31633
2026-01-27 17:36:34.28	107.23	7.44	-45.7	-63.9	3.8	8.45e-01	0	61	104	0	61	32011
2026-01-27 17:36:35.29	107.11	7.36	-45.7	-64.0	3.9	8.45e-01	0	61	104	0	62	30615
2026-01-27 17:36:36.30	107.00	7.27	-45.7	-64.0	3.8	8.48e-01	0	62	104	0	62	30462
2026-01-27 17:36:37.31	106.88	7.19	-45.7	-63.9	3.8	8.45e-01	0	61	104	0	62	30359
2026-01-27 17:36:38.32	106.77	7.10	-45.7	-63.8	3.8	8.45e-01	0	61	104	0	62	29803
2026-01-27 17:36:39.33	106.66	7.02	-45.5	-63.7	3.8	8.46e-01	0	61	104	0	62	29554
2026-01-27 17:36:40.34	106.55	6.94	-45.5	-63.7	3.8	8.46e-01	0	62	104	0	62	29412
2026-01-27 17:36:41.35	106.43	6.86	-45.5	-63.6	3.8	8.46e-01	0	62	104	0	62	29221
2026-01-27 17:36:42.37	106.32	6.77	-45.4	-63.5	3.8	8.47e-01	0	61	104	0	62	28908
2026-01-27 17:36:43.38	106.21	6.69	-45.4	-63.5	3.8	8.47e-01	0	61	104	0	62	28980
2026-01-27 17:36:44.39	106.11	6.61	-45.3	-63.4	3.8	8.47e-01	0	61	104	0	62	28475
2026-01-27 17:36:45.40	106.00	6.53	-45.3	-63.4	3.8	8.47e-01	0	61	104	0	62	28525
2026-01-27 17:36:46.41	105.89	6.45	-45.3	-63.4	3.8	8.47e-01	0	61	104	0	62	28500
2026-01-27 17:36:47.42	105.79	6.37	-45.3	-63.4	3.8	8.46e-01	0	62	104	0	62	28618
2026-01-27 17:36:48.43	105.68	6.29	-45.3	-63.4	3.8	8.46e-01	0	62	104	0	62	28461
2026-01-27 17:36:49.44	105.58	6.21	-45.3	-63.4	3.8	8.47e-01	0	62	104	0	62	28534
2026-01-27 17:36:50.45	105.48	6.13	-45.3	-63.4	3.8	8.47e-01	0	61	104	0	62	28513
2026-01-27 17:36:51.46	105.37	6.05	-45.3	-63.4	3.8	8.47e-01	0	62	104	0	62	28491
2026-01-27 17:36:52.47	105.27	5.97	-45.3	-63.4	3.8	8.46e-01	0	62	104	0	62	28468
2026-01-27 17:36:53.48	105.17	5.89	-45.3	-63.4	3.8	8.46e-01	0	61	104	0	62	28557
2026-01-27 17:36:54.49	105.07	5.81	-45.3	-63.4	3.8	8.46e-01	0	62	104	0	62	28483
2026-01-27 17:36:55.50	104.97	5.73	-45.3	-63.4	3.8	8.46e-01	0	62	104	0	62	28520
2026-01-27 17:36:56.51	104.87	5.65	-45.3	-63.4	3.8	8.45e-01	0	61	104	0	62	28556
2026-01-27 17:36:57.52	104.78	5.58	-45.3	-63.4	3.8	8.45e-01	0	61	104	0	62	28599
2026-01-27 17:36:58.53	104.68	5.50	-45.3	-63.4	3.7	8.45e-01	0	61	104	0	61	30145
2026-01-27 17:36:59.54	104.58	5.42	-45.3	-63.4	3.8	8.46e-01	0	61	104	0	61	30151
2026-01-27 17:37:00.55	104.49	5.35	-45.3	-63.4	3.8	8.46e-01	0	62	104	0	61	30107
2026-01-27 17:37:01.56	104.39	5.27	-45.1	-63.4	3.8	8.46e-01	0	62	104	0	61	30182
2026-01-27 17:37:02.57	104.30	5.19	-45.3	-63.4	3.8	8.46e-01	0	62	104	0	61	30164
2026-01-27 17:37:03.58	104.21	5.12	-45.3	-63.4	3.8	8.45e-01	0	62	104	0	61	30195
2026-01-27 17:37:04.59	104.11	5.04	-45.3	-63.4	3.8	8.45e-01	0	61	104	0	61	30104
2026-01-27 17:37:05.60	104.02	4.97	-45.3	-63.4	3.8	8.45e-01	0	62	104	0	61	30043
2026-01-27 17:37:06.61	103.93	4.89	-45.3	-63.4	3.8	8.47e-01	0	62	104	0	61	30103
2026-01-27 17:37:07.62	103.84	4.82	-45.3	-63.3	3.8	8.47e-01	0	62	104	0	61	30031
2026-01-27 17:37:08.63	103.75	4.74	-45.3	-63.4	3.8	8.46e-01	0	62	104	0	61	30110
2026-01-27 17:37:09.64	103.66	4.67	-45.2	-63.4	3.8	8.46e-01	0	62	104	0	61	30088
2026-01-27 17:37:10.65	103.57	4.59	-45.3	-63.4	3.8	8.46e-01	0	62	104	0	61	30143
2026-01-27 17:37:11.66	103.48	4.52	-45.3	-63.4	3.8	8.46e-01	0	62	104	0	61	30099
2026-01-27 17:37:12.67	103.40	4.45	-45.3	-63.4	3.8	8.46e-01	0	62	104	0	61	30066
2026-01-27 17:37:13.68	103.31	4.37	-45.2	-63.4	3.8	8.46e-01	0	62	104	0	61	30047
2026-01-27 17:37:14.69	103.22	4.30	-45.3	-63.4	3.8	8.46e-01	0	62	104	0	61	30094
2026-01-27 17:37:15.70	103.14	4.23	-45.3	-63.4	3.8	8.45e-01	0	62	104	0	61	30095
2026-01-27 17:37:16.71	103.05	4.16	-45.3	-63.3	3.8	8.47e-01	0	62	104	0	61	30030
2026-01-27 17:37:17.73	102.97	4.08	-45.3	-63.4	3.8	8.47e-01	0	62	104	0	61	30130
2026-01-27 17:37:18.73	102.89	4.01	-45.3	-63.4	3.8	8.46e-01	0	62	104	0	61	30116
2026-01-27 17:37:19.75	102.80	3.94	-45.3	-63.4	3.8	8.47e-01	0	62	104	0	61	30122
2026-01-27 17:37:20.76	102.72	3.87	-45.2	-63.3	3.8	8.47e-01	0	62	104	0	61	30003
2026-01-27 17:37:21.77	102.64	3.80	-45.2	-63.3	3.8	8.47e-01	0	62	104	0	61	29974
2026-01-27 17:37:22.78	102.56	3.73	-45.2	-63.4	3.8	8.45e-01	0	62	104	0	61	30092
2026-01-27 17:37:23.79	102.48	3.65	-45.2	-63.3	3.8	8.46e-01	0	62	104	0	61	30023
2026-01-27 17:37:24.80	102.40	3.58	-45.2	-63.4	3.8	8.46e-01	0	61	104	0	61	30123
2026-01-27 17:37:25.81	102.32	3.51	-45.3	-63.3	3.8	8.46e-01	0	62	104	0	61	30014
2026-01-27 17:37:26.82	102.24	3.44	-45.2	-63.4	3.8	8.47e-01	0	61	104	0	61	30072
2026-01-27 17:37:27.83	102.16	3.37	-45.2	-63.4	3.8	8.47e-01	0	61	104	0	61	30068
2026-01-27 17:37:28.84	102.08	3.30	-45.2	-63.3	3.8	8.47e-01	0	62	104	0	61	29986
2026-01-27 17:37:29.85	102.01	3.24	-45.2	-63.3	3.8	8.46e-01	0	62	104	0	61	30028
2026-01-27 17:37:30.86	101.93	3.17	-45.2	-63.4	3.8	8.46e-01	0	62	104	0	61	30049
2026-01-27 17:37:31.87	101.85	3.10	-45.2	-63.3	3.8	8.46e-01	0	61	104	0	61	30026
2026-01-27 17:37:32.88	101.78	3.03	-45.2	-63.3	3.8	8.46e-01	0	61	104	0	61	29993
2026-01-27 17:37:33.89	101.70	2.96	-45.2	-63.4	3.8	8.46e-01	0	61	104	0	61	30078
2026-01-27 17:37:34.90	101.63	2.89	-45.2	-63.3	3.8	8.47e-01	0	62	104	0	61	30002
2026-01-27 17:37:35.91	101.55	2.82	-45.2	-63.3	3.8	8.46e-01	0	61	104	0	61	30026
2026-01-27 17:37:36.92	101.48	2.76	-45.3	-63.3	3.8	8.47e-01	0	62	104	0	61	29997
2026-01-27 17:37:37.93	101.41	2.69	-45.2	-63.4	3.8	8.47e-01	0	62	104	0	61	30034
2026-01-27 17:37:38.94	101.34	2.62	-45.2	-63.3	3.8	8.45e-01	0	61	104	0	61	30012
2026-01-27 17:37:39.96	101.26	2.55	-45.2	-63.3	3.8	8.46e-01	0	62	104	0	61	29989
2026-01-27 17:37:40.97	101.19	2.49	-45.2	-63.3	3.8	8.46e-01	0	62	104	0	61	29940
2026-01-27 17:37:41.97	101.12	2.42	-45.2	-63.3	3.8	8.45e-01	0	62	104	0	61	30015
2026-01-27 17:37:42.99	101.05	2.35	-45.2	-63.4	3.8	8.46e-01	0	62	104	0	61	30158
2026-01-27 17:37:44.00	100.98	2.29	-45.2	-63.3	3.8	8.46e-01	0	62	104	0	61	30006
2026-01-27 17:37:45.01	100.91	2.22	-45.2	-63.3	3.8	8.46e-01	0	62	104	0	61	29960
2026-01-27 17:37:46.02	100.84	2.15	-45.2	-63.3	3.8	8.47e-01	0	61	104	0	61	30019
2026-01-27 17:37:47.03	100.77	2.09	-45.2	-63.3	3.8	8.47e-01	0	62	104	0	61	30030
2026-01-27 17:37:48.04	100.70	2.02	-45.2	-63.4	3.8	8.46e-01	0	62	104	0	61	30067
2026-01-27 17:37:49.05	100.64	1.96	-45.2	-63.3	3.8	8.47e-01	0	62	104	0	61	30020
2026-01-27 17:37:50.06	100.57	1.89	-45.2	-63.3	3.8	8.47e-01	0	62	104	0	61	29963
2026-01-27 17:37:51.07	100.50	1.83	-45.2	-63.3	3.8	8.47e-01	0	62	104	0	61	29951

#Closed at: 2026-01-27 17:37:51
#Recorded file [0 MB]: D:/lorett/data/31039_260127_202846.dat