passes_logs/2026/01/27/R2.0S_Moscow/R2.0S_Moscow__20260127_004957_SUOMI_NPP_rec.log

#Pass ID: 20260127_004957_SUOMI NPP
#Satellite: SUOMI NPP
#Configuration: NPP
#almurnet v.1.7.20251203
#Start time: 2026-01-27 00:49:57

#Version: 2.2.20231116
#Station: R2.0S_Moscow
#Location: 37.707566 lon 55.798166 lat
#TLE: 1 37849U 11061A   26026.52266023  .00000173  00000+0  10323-3 0  9994
#TLE: 2 37849  98.7822 328.4727 0002140  43.9411 316.1934 14.19530258738341

#Time	Az	El	Level	Level2	SNR	BER	BlckErr	Temp	State	Recorded	gain1	gain2
2026-01-27 00:49:57.41	12.08	2.02	-39.9	-54.5	3.8	1.49e+00	0	53	0	0	51	19244
2026-01-27 00:49:58.41	12.03	2.08	-39.9	-54.5	3.8	1.49e+00	0	53	104	0	51	19255
2026-01-27 00:49:59.42	11.99	2.14	-39.9	-54.5	3.8	1.49e+00	0	53	104	0	51	19204
2026-01-27 00:50:00.43	11.95	2.20	-39.9	-54.5	3.8	1.49e+00	0	53	104	0	51	19267
2026-01-27 00:50:01.44	11.91	2.26	-39.9	-54.5	3.8	1.49e+00	0	53	104	0	51	19297
2026-01-27 00:50:02.45	11.86	2.32	-39.9	-54.5	3.8	1.49e+00	0	53	104	0	51	19230
2026-01-27 00:50:03.46	11.82	2.39	-39.9	-54.5	3.8	1.49e+00	0	53	104	0	51	19273
2026-01-27 00:50:04.47	11.78	2.45	-39.9	-54.5	3.8	1.49e+00	0	53	104	0	51	19202
2026-01-27 00:50:05.48	11.73	2.51	-39.9	-54.5	3.8	1.49e+00	0	53	104	0	51	19268
2026-01-27 00:50:06.49	11.69	2.57	-39.9	-54.5	3.8	1.49e+00	0	53	104	0	51	19263
2026-01-27 00:50:07.50	11.64	2.64	-39.9	-54.5	3.8	1.49e+00	0	54	104	0	51	19259
2026-01-27 00:50:08.51	11.60	2.70	-39.9	-54.5	3.8	1.49e+00	0	54	104	0	51	19273
2026-01-27 00:50:09.52	11.56	2.76	-39.9	-54.5	3.8	1.49e+00	0	54	104	0	51	19247
2026-01-27 00:50:10.53	11.51	2.82	-39.9	-54.5	3.8	1.49e+00	0	54	104	0	51	19232
2026-01-27 00:50:11.55	11.47	2.89	-39.9	-54.5	3.8	1.49e+00	0	54	104	0	51	19241
2026-01-27 00:50:12.56	11.42	2.95	-39.9	-54.5	3.8	1.49e+00	0	54	104	0	51	19255
2026-01-27 00:50:13.57	11.38	3.01	-39.9	-54.5	3.8	1.49e+00	0	54	104	0	51	19242
2026-01-27 00:50:14.58	11.33	3.08	-39.9	-54.5	3.8	1.49e+00	0	54	104	0	51	19240
2026-01-27 00:50:15.59	11.28	3.14	-39.9	-54.5	3.8	1.49e+00	0	54	104	0	51	19247
2026-01-27 00:50:16.60	11.24	3.20	-39.9	-54.5	3.8	1.49e+00	0	54	104	0	51	19239
2026-01-27 00:50:17.61	11.19	3.27	-39.9	-54.5	3.8	1.49e+00	0	54	104	0	51	19250
2026-01-27 00:50:18.62	11.15	3.33	-39.9	-54.5	3.8	1.49e+00	0	54	104	0	51	19205
2026-01-27 00:50:19.63	11.10	3.40	-39.9	-54.5	3.8	1.49e+00	0	55	104	0	51	19207
2026-01-27 00:50:20.64	11.05	3.46	-39.9	-54.5	3.8	1.49e+00	0	54	104	0	51	19227
2026-01-27 00:50:21.65	11.01	3.52	-39.9	-54.5	3.8	1.49e+00	0	55	104	0	51	19187
2026-01-27 00:50:22.66	10.96	3.59	-39.9	-54.5	3.8	1.49e+00	0	54	104	0	51	19182
2026-01-27 00:50:23.67	10.91	3.65	-39.9	-54.5	3.8	1.49e+00	0	54	104	0	51	19185
2026-01-27 00:50:24.68	10.86	3.72	-39.9	-54.5	3.8	1.49e+00	0	55	104	0	51	19236
2026-01-27 00:50:25.69	10.82	3.78	-39.9	-54.5	3.8	1.49e+00	0	55	104	0	51	19223
2026-01-27 00:50:26.70	10.77	3.85	-39.9	-54.4	3.8	1.49e+00	0	55	104	0	51	19126
2026-01-27 00:50:27.71	10.72	3.91	-39.9	-54.5	3.8	1.49e+00	0	55	104	0	51	19203
2026-01-27 00:50:28.72	10.67	3.98	-39.9	-54.5	3.8	1.49e+00	0	55	104	0	51	19171
2026-01-27 00:50:29.73	10.62	4.04	-39.9	-54.5	3.8	1.49e+00	0	55	104	0	51	19195
2026-01-27 00:50:30.74	10.57	4.11	-39.9	-54.5	3.8	1.49e+00	0	55	104	0	51	19198
2026-01-27 00:50:31.75	10.52	4.17	-39.9	-54.5	3.8	1.49e+00	0	55	104	0	51	19197
2026-01-27 00:50:32.77	10.47	4.24	-39.9	-54.5	3.8	1.49e+00	0	55	104	0	51	19220
2026-01-27 00:50:33.77	10.42	4.31	-39.9	-54.5	3.8	1.49e+00	0	55	104	0	51	19198
2026-01-27 00:50:34.78	10.37	4.37	-39.9	-54.5	3.8	1.49e+00	0	55	104	0	51	19196
2026-01-27 00:50:35.80	10.32	4.44	-39.9	-54.5	3.8	1.49e+00	0	55	104	0	51	19191
2026-01-27 00:50:36.81	10.27	4.50	-39.9	-54.5	3.8	1.49e+00	0	55	104	0	51	19178
2026-01-27 00:50:37.82	10.22	4.57	-39.9	-54.5	3.8	1.49e+00	0	55	104	0	51	19192
2026-01-27 00:50:38.83	10.17	4.64	-39.9	-54.5	3.8	1.49e+00	0	55	104	0	51	19191
2026-01-27 00:50:39.84	10.12	4.70	-39.9	-54.4	3.8	1.49e+00	0	56	104	0	51	19165
2026-01-27 00:50:40.85	10.07	4.77	-39.9	-54.5	3.8	1.49e+00	0	56	104	0	51	19203
2026-01-27 00:50:41.86	10.02	4.84	-39.9	-54.5	3.8	1.49e+00	0	56	104	0	51	19209
2026-01-27 00:50:42.87	9.96	4.91	-39.9	-54.5	3.8	1.49e+00	0	56	104	0	51	19203
2026-01-27 00:50:43.88	9.91	4.97	-39.9	-54.5	3.8	1.49e+00	0	56	104	0	51	19185
2026-01-27 00:50:44.89	9.86	5.04	-39.9	-54.5	3.8	1.49e+00	0	56	104	0	51	19200
2026-01-27 00:50:45.90	9.81	5.11	-39.9	-54.4	3.8	1.49e+00	0	56	104	0	51	19120
2026-01-27 00:50:46.91	9.75	5.18	-39.9	-54.4	3.8	1.49e+00	0	56	104	0	51	19151
2026-01-27 00:50:47.92	9.70	5.24	-39.9	-54.4	3.8	1.49e+00	0	56	104	0	51	19163
2026-01-27 00:50:48.93	9.64	5.31	-39.9	-54.5	3.8	1.49e+00	0	56	104	0	51	19223
2026-01-27 00:50:49.94	9.59	5.38	-39.9	-54.4	3.8	1.49e+00	0	56	104	0	51	19159
2026-01-27 00:50:50.95	9.54	5.45	-39.9	-54.5	3.8	1.49e+00	0	56	104	0	51	19177
2026-01-27 00:50:51.96	9.48	5.52	-39.9	-54.5	3.8	1.49e+00	0	56	104	0	51	19198
2026-01-27 00:50:52.97	9.43	5.58	-39.9	-54.5	3.8	1.49e+00	0	56	104	0	51	19187
2026-01-27 00:50:53.98	9.37	5.65	-39.9	-54.5	3.8	1.49e+00	0	56	104	0	51	19174
2026-01-27 00:50:54.99	9.32	5.72	-39.9	-54.5	3.8	1.49e+00	0	56	104	0	51	19219
2026-01-27 00:50:56.00	9.26	5.79	-39.9	-54.5	3.8	1.49e+00	0	56	104	0	51	19204
2026-01-27 00:50:57.01	9.21	5.86	-39.9	-54.5	3.8	1.49e+00	0	56	104	0	51	19238
2026-01-27 00:50:58.03	9.15	5.93	-39.9	-54.5	3.8	1.49e+00	0	56	104	0	51	19201
2026-01-27 00:50:59.04	9.09	6.00	-39.9	-54.4	3.8	1.49e+00	0	56	104	0	51	19133
2026-01-27 00:51:00.05	9.04	6.07	-39.9	-54.5	3.8	1.49e+00	0	57	104	0	51	19235
2026-01-27 00:51:01.06	8.98	6.14	-39.9	-54.5	3.8	1.49e+00	0	57	104	0	51	19236
2026-01-27 00:51:02.07	8.92	6.21	-39.9	-54.5	3.8	1.49e+00	0	57	104	0	51	19172
2026-01-27 00:51:03.08	8.86	6.28	-39.9	-54.5	3.8	1.49e+00	0	57	104	0	51	19184
2026-01-27 00:51:04.09	8.81	6.35	-39.9	-54.5	3.8	1.49e+00	0	57	104	0	51	19215
2026-01-27 00:51:05.10	8.75	6.42	-39.9	-54.4	3.8	1.49e+00	0	57	104	0	51	19164
2026-01-27 00:51:06.11	8.69	6.49	-39.9	-54.5	3.8	1.49e+00	0	57	104	0	51	19187
2026-01-27 00:51:07.13	8.63	6.56	-39.9	-54.4	3.8	1.49e+00	0	57	104	0	51	19145
2026-01-27 00:51:08.14	8.57	6.63	-39.9	-54.4	3.8	1.49e+00	0	57	104	0	51	19120
2026-01-27 00:51:09.15	8.51	6.71	-39.9	-54.4	3.8	1.49e+00	0	57	104	0	51	19082
2026-01-27 00:51:10.16	8.45	6.78	-39.9	-54.4	3.8	1.49e+00	0	57	104	0	51	19135
2026-01-27 00:51:11.17	8.39	6.85	-39.9	-54.4	3.8	1.49e+00	0	57	104	0	51	19107
2026-01-27 00:51:12.18	8.33	6.92	-39.9	-54.5	3.8	1.49e+00	0	57	104	0	51	19185
2026-01-27 00:51:13.19	8.27	6.99	-39.9	-54.4	3.8	1.49e+00	0	57	104	0	51	19162
2026-01-27 00:51:14.20	8.21	7.06	-39.8	-54.4	3.8	1.49e+00	0	57	104	0	51	19126
2026-01-27 00:51:15.21	8.15	7.14	-39.8	-54.4	3.8	1.49e+00	0	57	104	0	51	19100
2026-01-27 00:51:16.22	8.09	7.21	-39.9	-54.5	3.8	1.49e+00	0	57	104	0	51	19175
2026-01-27 00:51:17.23	8.02	7.28	-39.9	-54.4	3.8	1.49e+00	0	57	104	0	51	19095
2026-01-27 00:51:18.24	7.96	7.35	-39.8	-54.4	3.8	1.49e+00	0	57	104	0	51	19130
2026-01-27 00:51:19.25	7.90	7.43	-39.8	-54.4	3.8	1.49e+00	0	57	104	0	51	19082
2026-01-27 00:51:20.26	7.84	7.50	-39.8	-54.4	3.8	1.49e+00	0	57	104	0	51	19136
2026-01-27 00:51:21.27	7.77	7.57	-39.8	-54.4	3.8	1.49e+00	0	58	104	0	51	18997
2026-01-27 00:51:22.28	7.71	7.65	-39.8	-54.4	3.8	1.49e+00	0	57	104	0	51	19083
2026-01-27 00:51:23.29	7.65	7.72	-39.8	-54.4	3.8	1.49e+00	0	57	104	0	51	19021
2026-01-27 00:51:24.30	7.58	7.79	-39.8	-54.4	3.8	1.49e+00	0	58	104	0	51	19088
2026-01-27 00:51:25.31	7.52	7.87	-39.8	-54.4	3.8	1.49e+00	0	58	104	0	51	19076
2026-01-27 00:51:26.32	7.45	7.94	-39.8	-54.4	3.8	1.49e+00	0	58	104	0	51	19069
2026-01-27 00:51:27.33	7.39	8.02	-39.8	-54.4	3.8	1.49e+00	0	58	104	0	51	19096
2026-01-27 00:51:28.34	7.32	8.09	-39.8	-54.4	3.8	1.49e+00	0	58	104	0	51	19077
2026-01-27 00:51:29.35	7.25	8.17	-39.9	-54.4	3.8	1.49e+00	0	58	104	0	51	19166
2026-01-27 00:51:30.36	7.19	8.24	-39.9	-54.5	3.8	1.49e+00	0	58	104	0	51	19280
2026-01-27 00:51:31.37	7.12	8.32	-39.9	-54.5	3.8	1.49e+00	0	58	104	0	51	19190
2026-01-27 00:51:32.38	7.05	8.39	-40.0	-54.5	3.8	1.49e+00	0	58	104	0	51	19351
2026-01-27 00:51:33.39	6.99	8.47	-40.0	-54.5	3.8	1.49e+00	0	58	104	0	51	19382
2026-01-27 00:51:34.40	6.92	8.54	-40.0	-54.6	3.8	1.49e+00	0	58	104	0	51	19419
2026-01-27 00:51:35.41	6.85	8.62	-39.9	-54.5	3.8	1.49e+00	0	58	104	0	51	19205
2026-01-27 00:51:36.42	6.78	8.69	-39.9	-54.5	3.8	1.49e+00	0	58	104	0	51	19336
2026-01-27 00:51:37.43	6.71	8.77	-40.0	-54.5	3.8	1.49e+00	0	58	104	0	51	19365
2026-01-27 00:51:38.44	6.64	8.85	-40.0	-54.5	3.8	1.49e+00	0	58	104	0	51	19375
2026-01-27 00:51:39.46	6.57	8.92	-39.9	-54.5	3.8	1.49e+00	0	58	104	0	51	19254
2026-01-27 00:51:40.47	6.50	9.00	-40.0	-54.5	3.8	1.49e+00	0	58	104	0	51	19373
2026-01-27 00:51:41.48	6.43	9.08	-40.0	-54.6	3.8	1.49e+00	0	58	104	0	51	19437
2026-01-27 00:51:42.49	6.36	9.15	-40.0	-54.6	3.8	1.49e+00	0	58	104	0	51	19394
2026-01-27 00:51:43.50	6.29	9.23	-39.9	-54.5	3.8	1.49e+00	0	58	104	0	51	19257
2026-01-27 00:51:44.51	6.22	9.31	-40.0	-54.6	3.8	1.49e+00	0	58	104	0	51	19504
2026-01-27 00:51:45.52	6.14	9.39	-40.0	-54.6	3.8	1.49e+00	0	58	104	0	51	19566
2026-01-27 00:51:46.53	6.07	9.46	-40.0	-54.6	3.8	1.49e+00	0	58	104	0	51	19488
2026-01-27 00:51:47.54	6.00	9.54	-39.9	-54.5	3.8	1.49e+00	0	58	104	0	51	19261
2026-01-27 00:51:48.54	5.93	9.62	-39.9	-54.5	3.8	1.49e+00	0	58	104	0	51	19250
2026-01-27 00:51:49.55	5.85	9.70	-39.9	-54.5	3.8	1.49e+00	0	58	104	0	51	19210
2026-01-27 00:51:50.56	5.78	9.78	-39.9	-54.5	3.8	1.49e+00	0	58	104	0	51	19181
2026-01-27 00:51:51.58	5.70	9.86	-39.9	-54.4	3.8	1.49e+00	0	58	104	0	51	19158
2026-01-27 00:51:52.58	5.63	9.93	-40.0	-54.5	3.8	1.49e+00	0	59	104	0	51	19385
2026-01-27 00:51:53.59	5.55	10.01	-39.9	-54.5	3.8	1.49e+00	0	58	104	0	51	19325
2026-01-27 00:51:54.61	5.48	10.09	-40.3	-54.9	3.8	1.49e+00	0	59	104	0	51	20183
2026-01-27 00:51:55.61	5.40	10.17	-40.3	-54.8	3.8	1.49e+00	0	59	104	0	52	18946
2026-01-27 00:51:56.62	5.32	10.25	-40.0	-54.6	3.8	1.49e+00	0	59	104	0	51	19434
2026-01-27 00:51:57.63	5.25	10.33	-40.0	-54.6	3.8	1.49e+00	0	59	104	0	51	19480
2026-01-27 00:51:58.64	5.17	10.41	-40.1	-54.6	3.8	1.49e+00	0	59	104	0	51	19567
2026-01-27 00:51:59.65	5.09	10.49	-40.0	-54.6	3.8	1.49e+00	0	59	104	0	51	19480
2026-01-27 00:52:00.66	5.01	10.58	-40.2	-54.7	3.8	1.49e+00	0	59	104	0	51	19752
2026-01-27 00:52:01.67	4.93	10.66	-40.1	-54.6	3.8	1.49e+00	0	59	104	0	51	19543
2026-01-27 00:52:02.68	4.85	10.74	-40.6	-55.2	3.8	1.49e+00	0	59	104	0	51	21008
2026-01-27 00:52:03.69	4.77	10.82	-40.4	-55.0	3.8	1.49e+00	0	59	104	0	52	19273
2026-01-27 00:52:04.70	4.69	10.90	-40.0	-54.6	3.8	1.49e+00	0	59	104	0	52	18465
2026-01-27 00:52:05.71	4.61	10.98	-40.2	-54.7	3.8	1.49e+00	0	59	104	0	51	19813
2026-01-27 00:52:06.72	4.53	11.06	-40.2	-54.8	3.8	1.49e+00	0	59	104	0	51	19872
2026-01-27 00:52:07.73	4.45	11.15	-40.2	-54.8	3.8	1.49e+00	0	59	104	0	51	20005
2026-01-27 00:52:08.74	4.36	11.23	-40.4	-55.0	3.8	1.49e+00	0	59	104	0	51	20502
2026-01-27 00:52:09.76	4.28	11.31	-40.3	-54.9	3.8	1.49e+00	0	59	104	0	51	20137
2026-01-27 00:52:10.77	4.20	11.40	-41.1	-55.5	3.8	1.49e+00	0	59	104	0	52	20469
2026-01-27 00:52:11.77	4.11	11.48	-40.6	-55.2	3.8	1.49e+00	0	59	104	0	53	18583
2026-01-27 00:52:12.78	4.03	11.56	-40.2	-54.8	3.8	1.49e+00	0	59	104	0	52	18773
2026-01-27 00:52:13.79	3.95	11.64	-40.3	-54.9	3.8	1.49e+00	0	59	104	0	52	19051
2026-01-27 00:52:14.81	3.86	11.73	-40.3	-54.9	3.8	1.49e+00	0	59	104	0	52	19037
2026-01-27 00:52:15.81	3.77	11.81	-40.3	-55.0	3.8	1.49e+00	0	59	104	0	52	19178
2026-01-27 00:52:16.83	3.69	11.90	-40.5	-55.1	3.8	1.49e+00	0	59	104	0	52	19553
2026-01-27 00:52:17.84	3.60	11.98	-40.3	-54.9	3.8	1.49e+00	0	59	104	0	52	19079
2026-01-27 00:52:18.85	3.51	12.07	-41.3	-55.5	3.9	1.49e+00	0	59	104	0	53	19304
2026-01-27 00:52:19.86	3.42	12.15	-40.7	-55.3	3.8	1.49e+00	0	59	104	0	53	18827
2026-01-27 00:52:20.87	3.34	12.24	-40.4	-54.9	3.8	1.49e+00	0	59	104	0	52	18999
2026-01-27 00:52:21.87	3.25	12.32	-40.5	-55.2	3.8	1.49e+00	0	59	104	0	52	19658
2026-01-27 00:52:22.88	3.16	12.41	-40.5	-55.1	3.8	1.49e+00	0	59	104	0	52	19446
2026-01-27 00:52:23.89	3.07	12.49	-40.5	-54.9	3.8	1.49e+00	0	59	104	0	52	19086
2026-01-27 00:52:24.90	2.98	12.58	-40.8	-55.4	3.8	1.49e+00	0	59	104	0	52	20088
2026-01-27 00:52:25.91	2.89	12.66	-40.5	-55.1	3.8	1.49e+00	0	60	104	0	52	19571
2026-01-27 00:52:26.92	2.79	12.75	-42.1	-55.3	3.8	1.49e+00	0	59	104	0	54	17690
2026-01-27 00:52:27.93	2.70	12.84	-42.6	-55.3	3.8	1.49e+00	0	59	104	0	55	16875
2026-01-27 00:52:28.94	2.61	12.92	-41.6	-55.9	3.8	1.48e+00	0	59	104	0	55	18013
2026-01-27 00:52:29.95	2.51	13.01	-42.4	-53.6	4.1	1.49e+00	0	59	104	0	55	13789
2026-01-27 00:52:30.96	2.42	13.10	-42.3	-52.9	4.4	1.33e+00	0	59	0	0	55	12810
2026-01-27 00:52:31.97	2.33	13.19	-42.2	-51.6	4.9	9.02e-01	0	60	0	2097152	55	11016
2026-01-27 00:52:32.98	2.23	13.27	-41.9	-50.2	5.7	5.86e-01	0	59	0	3145728	55	9383
2026-01-27 00:52:33.99	2.14	13.36	-41.7	-49.2	6.5	2.51e-01	0	60	0	5242880	55	8359
2026-01-27 00:52:35.00	2.04	13.45	-41.5	-48.3	7.3	1.33e-01	0	60	0	7340032	55	7509
2026-01-27 00:52:36.01	1.94	13.54	-42.7	-54.1	4.1	2.55e-01	0	60	0	9437184	55	14678
2026-01-27 00:52:37.02	1.84	13.63	-42.6	-52.6	4.6	6.38e-01	0	60	0	10485760	55	12329
2026-01-27 00:52:38.03	1.75	13.72	-40.8	-51.6	4.4	3.84e-01	0	60	0	12582912	53	12254
2026-01-27 00:52:39.04	1.65	13.81	-41.9	-48.8	7.2	1.34e-01	0	60	0	14680064	54	8405
2026-01-27 00:52:40.05	1.55	13.90	-41.8	-54.0	3.9	2.50e-02	0	60	104	15728640	54	15310
2026-01-27 00:52:41.06	1.45	13.99	-41.0	-46.2	9.6	7.85e-02	0	60	0	15728640	54	6248
2026-01-27 00:52:42.07	1.35	14.08	-40.9	-46.1	9.7	1.07e-02	0	60	0	17825792	53	6513
2026-01-27 00:52:43.08	1.25	14.17	-41.0	-46.3	9.5	9.65e-03	0	60	0	19922944	53	6662
2026-01-27 00:52:44.09	1.14	14.26	-41.1	-46.5	9.4	1.48e-02	0	60	0	22020096	53	6813
2026-01-27 00:52:45.10	1.04	14.35	-41.1	-46.3	9.6	1.82e-02	0	60	0	24117248	53	6678
2026-01-27 00:52:46.11	0.94	14.44	-41.1	-46.4	9.6	1.75e-02	0	60	0	25165824	53	6744
2026-01-27 00:52:47.12	0.83	14.53	-41.2	-46.4	9.6	1.09e-02	0	60	0	27262976	53	6731
2026-01-27 00:52:48.13	0.73	14.62	-41.2	-46.2	9.8	8.45e-03	0	60	0	29360128	53	6646
2026-01-27 00:52:49.14	0.62	14.71	-41.1	-46.0	10.1	7.90e-03	0	60	0	31457280	53	6468
2026-01-27 00:52:50.15	0.52	14.81	-41.0	-45.7	10.5	4.89e-03	0	60	0	33554432	53	6217
2026-01-27 00:52:51.16	0.41	14.90	-41.3	-46.2	10.2	5.35e-03	0	60	0	34603008	53	6645
2026-01-27 00:52:52.17	0.30	14.99	-41.6	-46.9	9.5	1.09e-02	0	60	0	36700160	53	7184
2026-01-27 00:52:53.18	0.19	15.08	-41.6	-46.8	9.8	1.34e-02	0	60	0	38797312	53	7065
2026-01-27 00:52:54.19	0.09	15.18	-41.8	-47.0	9.6	1.52e-02	0	60	0	40894464	54	6803
2026-01-27 00:52:55.20	359.98	15.27	-41.7	-46.7	9.9	1.06e-02	0	60	0	42991616	54	6637
2026-01-27 00:52:56.21	359.87	15.36	-41.7	-46.7	10.0	5.03e-03	0	60	0	44040192	54	6588
2026-01-27 00:52:57.22	359.76	15.46	-41.9	-47.3	9.4	1.31e-02	0	60	0	46137344	54	7069
2026-01-27 00:52:58.23	359.64	15.55	-41.9	-47.2	9.6	1.58e-02	0	60	0	48234496	54	6994
2026-01-27 00:52:59.24	359.53	15.65	-41.8	-46.9	9.8	1.07e-02	0	60	0	50331648	54	6764
2026-01-27 00:53:00.25	359.42	15.74	-41.9	-47.2	9.5	1.19e-02	0	60	0	52428800	54	7016
2026-01-27 00:53:01.26	359.30	15.83	-41.9	-47.3	9.4	1.56e-02	0	60	0	53477376	54	7079
2026-01-27 00:53:02.27	359.19	15.93	-41.9	-47.1	9.6	1.41e-02	0	60	0	55574528	54	6890
2026-01-27 00:53:03.28	359.08	16.03	-41.8	-47.1	9.7	1.30e-02	0	60	0	57671680	54	6896
2026-01-27 00:53:04.29	358.96	16.12	-41.9	-47.0	9.7	1.14e-02	0	60	0	59768832	54	6876
2026-01-27 00:53:05.30	358.84	16.22	-41.8	-46.9	9.8	1.37e-02	0	60	0	61865984	54	6784
2026-01-27 00:53:06.31	358.72	16.31	-41.6	-46.5	10.3	8.96e-03	0	60	0	62914560	54	6436
2026-01-27 00:53:07.32	358.61	16.41	-41.7	-46.7	10.0	6.72e-03	0	60	0	65011712	54	6624
2026-01-27 00:53:08.33	358.49	16.51	-41.6	-46.4	10.3	5.98e-03	0	60	0	67108864	54	6404
2026-01-27 00:53:09.34	358.37	16.60	-41.5	-46.1	10.6	4.67e-03	0	60	0	69206016	54	6184
2026-01-27 00:53:10.35	358.25	16.70	-41.4	-46.0	10.7	3.45e-03	0	60	0	71303168	54	6075
2026-01-27 00:53:11.36	358.12	16.80	-41.4	-45.9	10.8	3.03e-03	0	61	0	73400320	54	6014
2026-01-27 00:53:12.37	358.00	16.89	-41.4	-46.1	10.6	2.44e-03	0	60	0	74448896	54	6163
2026-01-27 00:53:13.38	357.88	16.99	-41.4	-46.0	10.6	3.90e-03	0	60	0	76546048	54	6094
2026-01-27 00:53:14.39	357.76	17.09	-41.2	-45.7	10.9	2.57e-03	0	60	0	78643200	54	5857
2026-01-27 00:53:15.40	357.63	17.19	-41.2	-45.6	10.9	2.05e-03	0	60	0	80740352	54	5818
2026-01-27 00:53:16.41	357.50	17.29	-41.0	-45.4	11.1	1.47e-03	0	60	0	82837504	54	5665
2026-01-27 00:53:17.42	357.38	17.39	-41.0	-45.4	11.0	1.43e-03	0	60	0	83886080	53	6011
2026-01-27 00:53:18.43	357.25	17.48	-41.0	-45.4	10.9	1.90e-03	0	60	0	85983232	53	6058
2026-01-27 00:53:19.44	357.12	17.58	-41.1	-45.7	10.6	3.00e-03	0	60	0	88080384	53	6239
2026-01-27 00:53:20.45	356.99	17.68	-41.0	-45.8	10.5	3.35e-03	0	60	0	90177536	53	6282
2026-01-27 00:53:21.46	356.86	17.78	-40.9	-45.6	10.6	2.99e-03	0	60	0	92274688	53	6146
2026-01-27 00:53:22.47	356.73	17.88	-41.0	-46.0	10.1	5.11e-03	0	60	0	93323264	53	6436
2026-01-27 00:53:23.48	356.60	17.98	-41.1	-46.3	9.7	8.72e-03	0	60	0	95420416	53	6684
2026-01-27 00:53:24.49	356.47	18.08	-41.2	-46.8	9.1	1.53e-02	0	60	0	97517568	53	7072
2026-01-27 00:53:25.50	356.33	18.19	-41.4	-47.5	8.4	3.07e-02	0	60	0	99614720	53	7669
2026-01-27 00:53:26.51	356.20	18.29	-41.5	-48.4	7.2	9.68e-02	0	61	0	101711872	53	8555
2026-01-27 00:53:27.52	356.06	18.39	-41.6	-49.7	6.1	2.20e-01	0	60	0	102760448	53	9840
2026-01-27 00:53:28.53	355.93	18.49	-41.7	-50.9	5.1	4.73e-01	0	61	0	104857600	53	11369
2026-01-27 00:53:29.54	355.79	18.59	-41.6	-51.9	4.6	8.71e-01	0	61	0	106954752	53	12715
2026-01-27 00:53:30.55	355.65	18.69	-41.6	-52.8	4.2	1.24e+00	0	61	0	108003328	53	14146
2026-01-27 00:53:31.56	355.51	18.80	-41.4	-54.9	3.8	1.40e+00	0	61	104	108003328	53	17977
2026-01-27 00:53:32.57	355.37	18.90	-41.7	-54.6	3.8	1.49e+00	0	61	104	108003328	53	17441
2026-01-27 00:53:33.58	355.23	19.00	-42.3	-55.2	3.8	1.49e+00	0	61	104	108003328	55	16622
2026-01-27 00:53:34.59	355.09	19.10	-41.5	-56.0	3.8	1.49e+00	0	60	104	108003328	55	18236
2026-01-27 00:53:35.60	354.95	19.21	-41.0	-55.0	3.8	1.49e+00	0	61	104	108003328	54	17253
2026-01-27 00:53:36.61	354.80	19.31	-40.9	-55.2	3.8	1.49e+00	0	61	104	108003328	53	18579
2026-01-27 00:53:37.62	354.66	19.41	-40.9	-55.5	3.8	1.49e+00	0	61	104	108003328	53	19180
2026-01-27 00:53:38.63	354.51	19.52	-40.9	-55.4	3.8	1.49e+00	0	61	104	108003328	53	19109
2026-01-27 00:53:39.64	354.36	19.62	-40.9	-55.4	3.8	1.49e+00	0	61	104	108003328	53	19049
2026-01-27 00:53:40.65	354.22	19.73	-41.5	-55.7	3.8	1.49e+00	0	61	104	108003328	53	19652
2026-01-27 00:53:41.65	354.07	19.83	-41.8	-55.9	3.8	1.49e+00	0	61	104	108003328	55	18068
2026-01-27 00:53:42.67	353.92	19.94	-41.5	-55.9	3.8	1.49e+00	0	61	104	108003328	55	18058
2026-01-27 00:53:43.68	353.77	20.04	-42.1	-55.6	3.8	1.49e+00	0	61	104	108003328	55	17384
2026-01-27 00:53:44.68	353.61	20.15	-41.2	-55.9	3.8	1.49e+00	0	61	104	108003328	54	18963
2026-01-27 00:53:45.70	353.46	20.25	-41.6	-55.5	3.8	1.49e+00	0	61	104	108003328	54	18186
2026-01-27 00:53:46.70	353.31	20.36	-41.8	-54.4	3.8	1.49e+00	0	61	104	108003328	55	15180
2026-01-27 00:53:47.71	353.15	20.46	-41.8	-53.7	3.9	1.49e+00	0	61	104	108003328	55	13981
2026-01-27 00:53:48.73	352.99	20.57	-41.9	-53.3	4.1	1.41e+00	0	61	0	108003328	55	13345
2026-01-27 00:53:49.74	352.84	20.68	-42.0	-53.2	4.2	1.45e+00	0	61	0	108003328	55	13241
2026-01-27 00:53:50.75	352.68	20.79	-42.2	-52.7	4.4	1.34e+00	0	61	0	108003328	55	12506
2026-01-27 00:53:51.76	352.52	20.89	-42.4	-52.7	4.5	1.12e+00	0	61	0	110100480	55	12515
2026-01-27 00:53:52.77	352.36	21.00	-42.3	-51.7	4.9	8.28e-01	0	61	0	112197632	55	11052
2026-01-27 00:53:53.78	352.19	21.11	-42.4	-51.4	5.2	5.51e-01	0	61	0	114294784	55	10739
2026-01-27 00:53:54.79	352.03	21.21	-42.9	-53.2	4.6	5.49e-01	0	61	0	115343360	56	12407
2026-01-27 00:53:55.80	351.86	21.32	-41.5	-53.0	4.2	4.34e-01	0	61	0	117440512	54	13719
2026-01-27 00:53:56.81	351.70	21.43	-42.2	-50.6	5.7	1.47e+00	0	61	104	117440512	54	10305
2026-01-27 00:53:57.82	351.53	21.54	-42.0	-51.6	5.0	3.87e-01	0	61	0	118489088	55	10912
2026-01-27 00:53:58.83	351.36	21.65	-41.3	-47.1	8.9	3.35e-01	0	61	0	120586240	54	6880
2026-01-27 00:53:59.84	351.19	21.76	-41.3	-46.7	9.2	1.93e-02	0	61	0	122683392	54	6634
2026-01-27 00:54:00.85	351.02	21.86	-41.0	-46.0	10.0	8.86e-03	0	61	0	123731968	54	6084
2026-01-27 00:54:01.86	350.85	21.97	-40.9	-45.7	10.3	5.64e-03	0	61	0	125829120	53	6245
2026-01-27 00:54:02.87	350.68	22.08	-40.9	-45.7	10.3	7.27e-03	0	61	0	127926272	53	6250
2026-01-27 00:54:03.88	350.50	22.19	-41.1	-45.9	10.1	5.08e-03	0	61	0	130023424	53	6413
2026-01-27 00:54:04.89	350.33	22.30	-41.2	-46.2	9.9	7.75e-03	0	61	0	132120576	53	6611
2026-01-27 00:54:05.90	350.15	22.41	-41.1	-46.0	10.2	5.30e-03	0	61	0	133169152	53	6445
2026-01-27 00:54:06.91	349.97	22.52	-41.1	-45.8	10.5	6.54e-03	0	61	0	135266304	53	6328
2026-01-27 00:54:07.92	349.79	22.63	-41.2	-45.9	10.3	6.66e-03	0	61	0	137363456	53	6416
2026-01-27 00:54:08.93	349.61	22.74	-41.2	-45.8	10.7	3.41e-03	0	61	0	139460608	53	6302
2026-01-27 00:54:09.94	349.43	22.85	-41.4	-46.0	10.5	3.20e-03	0	61	0	141557760	53	6482
2026-01-27 00:54:10.95	349.25	22.96	-41.4	-46.0	10.6	4.45e-03	0	61	0	142606336	53	6479
2026-01-27 00:54:11.96	349.06	23.07	-41.3	-45.7	11.0	2.44e-03	0	61	0	144703488	53	6246
2026-01-27 00:54:12.97	348.88	23.18	-41.4	-45.7	11.1	1.22e-03	0	61	0	146800640	53	6233
2026-01-27 00:54:13.98	348.69	23.30	-41.0	-44.9	12.0	5.32e-04	0	61	0	148897792	53	5693
2026-01-27 00:54:14.99	348.50	23.41	-41.1	-45.1	11.9	3.61e-04	0	61	0	150994944	53	5802
2026-01-27 00:54:16.00	348.31	23.52	-41.3	-45.4	11.6	9.25e-04	0	61	0	152043520	53	6032
2026-01-27 00:54:17.01	348.12	23.63	-41.4	-45.5	11.5	9.22e-04	0	61	0	154140672	53	6127
2026-01-27 00:54:18.02	347.93	23.74	-41.5	-45.6	11.5	8.93e-04	0	61	0	156237824	53	6179
2026-01-27 00:54:19.03	347.73	23.85	-41.7	-46.1	11.0	1.38e-03	0	61	0	158334976	54	6189
2026-01-27 00:54:20.04	347.54	23.96	-41.8	-46.2	11.0	1.68e-03	0	61	0	160432128	54	6263
2026-01-27 00:54:21.05	347.34	24.08	-42.0	-46.6	10.6	2.52e-03	0	61	0	161480704	54	6503
2026-01-27 00:54:22.06	347.14	24.19	-42.1	-46.9	10.3	3.75e-03	0	61	0	163577856	54	6772
2026-01-27 00:54:23.07	346.94	24.30	-42.0	-46.7	10.6	4.36e-03	0	61	0	165675008	54	6601
2026-01-27 00:54:24.08	346.74	24.41	-42.0	-46.5	10.8	3.49e-03	0	61	0	167772160	54	6476
2026-01-27 00:54:25.09	346.54	24.53	-42.1	-46.7	10.6	3.02e-03	0	61	0	169869312	54	6574
2026-01-27 00:54:26.10	346.33	24.64	-42.1	-46.7	10.6	3.64e-03	0	61	0	170917888	54	6622
2026-01-27 00:54:27.11	346.12	24.75	-42.2	-47.0	10.3	5.67e-03	0	61	0	173015040	55	6481
2026-01-27 00:54:28.12	345.92	24.86	-42.4	-47.4	9.9	6.32e-03	0	61	0	175112192	55	6769
2026-01-27 00:54:29.13	345.71	24.98	-42.5	-47.7	9.6	8.90e-03	0	61	0	177209344	55	7002
2026-01-27 00:54:30.14	345.50	25.09	-42.6	-48.0	9.4	1.20e-02	0	61	0	179306496	55	7221
2026-01-27 00:54:31.15	345.29	25.20	-42.7	-48.2	9.2	1.61e-02	0	61	0	180355072	55	7416
2026-01-27 00:54:32.16	345.07	25.31	-42.7	-48.3	9.1	2.05e-02	0	61	0	182452224	55	7492
2026-01-27 00:54:33.17	344.86	25.43	-42.9	-48.3	9.2	2.32e-02	0	61	0	184549376	56	7108
2026-01-27 00:54:34.18	344.64	25.54	-42.8	-48.1	9.3	1.80e-02	0	61	0	186646528	56	6908
2026-01-27 00:54:35.19	344.42	25.65	-42.7	-47.7	9.8	1.41e-02	0	61	0	188743680	56	6629
2026-01-27 00:54:36.21	344.20	25.77	-42.8	-48.0	9.7	1.09e-02	0	61	0	190840832	56	6803
2026-01-27 00:54:37.22	343.98	25.88	-42.7	-47.8	9.9	8.12e-03	0	61	0	191889408	56	6674
2026-01-27 00:54:38.23	343.76	25.99	-42.7	-47.8	9.9	6.38e-03	0	61	0	193986560	56	6668
2026-01-27 00:54:39.24	343.53	26.11	-42.6	-47.6	10.1	6.59e-03	0	61	0	196083712	56	6511
2026-01-27 00:54:40.25	343.31	26.22	-42.6	-47.4	10.3	5.97e-03	0	61	0	198180864	56	6413
2026-01-27 00:54:41.26	343.08	26.33	-42.6	-47.4	10.3	6.46e-03	0	61	0	200278016	56	6399
2026-01-27 00:54:42.27	342.85	26.44	-42.7	-47.5	10.2	5.24e-03	0	61	0	201326592	56	6493
2026-01-27 00:54:43.28	342.62	26.56	-42.5	-47.1	10.7	5.31e-03	0	61	0	203423744	56	6177
2026-01-27 00:54:44.29	342.38	26.67	-42.5	-47.1	10.7	3.70e-03	0	61	0	205520896	56	6193
2026-01-27 00:54:45.30	342.15	26.78	-42.6	-47.4	10.4	4.28e-03	0	61	0	207618048	56	6403
2026-01-27 00:54:46.31	341.91	26.90	-42.6	-47.3	10.5	3.37e-03	0	61	0	209715200	56	6309
2026-01-27 00:54:47.32	341.67	27.01	-42.5	-47.1	10.7	3.59e-03	0	61	0	210763776	56	6188
2026-01-27 00:54:48.33	341.44	27.12	-42.4	-46.9	10.9	2.23e-03	0	61	0	212860928	56	6014
2026-01-27 00:54:49.34	341.19	27.23	-42.4	-46.8	11.0	2.01e-03	0	61	0	214958080	56	5970
2026-01-27 00:54:50.35	340.95	27.35	-42.4	-46.8	11.1	2.25e-03	0	61	0	217055232	56	5936
2026-01-27 00:54:51.36	340.71	27.46	-42.5	-47.0	10.9	2.52e-03	0	61	0	219152384	56	6088
2026-01-27 00:54:52.37	340.46	27.57	-42.6	-47.3	10.6	3.10e-03	0	61	0	220200960	56	6337
2026-01-27 00:54:53.38	340.21	27.68	-42.8	-47.7	10.2	3.34e-03	0	61	0	222298112	56	6592
2026-01-27 00:54:54.39	339.96	27.79	-42.7	-47.4	10.5	4.29e-03	0	61	0	224395264	56	6377
2026-01-27 00:54:55.39	339.71	27.90	-42.7	-47.5	10.4	4.21e-03	0	61	0	226492416	56	6473
2026-01-27 00:54:56.41	339.45	28.02	-42.8	-47.7	10.1	4.22e-03	0	61	0	228589568	56	6604
2026-01-27 00:54:57.42	339.20	28.13	-42.7	-47.5	10.4	4.80e-03	0	61	0	230686720	56	6474
2026-01-27 00:54:58.43	338.94	28.24	-42.5	-47.0	11.0	2.63e-03	0	61	0	231735296	56	6066
2026-01-27 00:54:59.44	338.68	28.35	-42.5	-46.9	11.0	2.93e-03	0	61	0	233832448	56	6059
2026-01-27 00:55:00.45	338.42	28.46	-42.5	-46.8	11.1	1.70e-03	0	61	0	235929600	56	5988
2026-01-27 00:55:01.46	338.16	28.57	-42.7	-47.3	10.6	2.15e-03	0	62	0	238026752	56	6314
2026-01-27 00:55:02.47	337.89	28.68	-42.7	-47.4	10.5	3.23e-03	0	61	0	240123904	56	6406
2026-01-27 00:55:03.47	337.63	28.79	-42.8	-47.5	10.5	4.02e-03	0	61	0	241172480	56	6478
2026-01-27 00:55:04.48	337.36	28.90	-42.9	-48.0	9.9	6.73e-03	0	61	0	243269632	56	6832
2026-01-27 00:55:05.49	337.09	29.01	-43.0	-48.2	9.7	9.07e-03	0	61	0	245366784	56	7025
2026-01-27 00:55:06.50	336.82	29.12	-43.1	-48.5	9.3	1.10e-02	0	61	0	247463936	56	7275
2026-01-27 00:55:07.51	336.55	29.23	-43.0	-48.0	9.9	9.03e-03	0	61	0	249561088	56	6862
2026-01-27 00:55:08.52	336.27	29.34	-42.8	-47.6	10.3	7.51e-03	0	61	0	250609664	56	6550
2026-01-27 00:55:09.53	335.99	29.44	-42.5	-46.9	11.1	1.85e-03	0	61	0	252706816	56	6033
2026-01-27 00:55:10.54	335.71	29.55	-42.5	-46.9	11.2	1.65e-03	0	61	0	254803968	56	6005
2026-01-27 00:55:11.55	335.43	29.66	-42.3	-46.4	11.4	1.39e-03	0	61	0	256901120	56	5715
2026-01-27 00:55:12.56	335.15	29.77	-42.7	-47.3	10.7	1.65e-03	0	61	0	258998272	56	6310
2026-01-27 00:55:13.57	334.86	29.87	-42.7	-47.4	10.6	2.95e-03	0	61	0	260046848	56	6381
2026-01-27 00:55:14.58	334.58	29.98	-42.7	-47.3	10.6	4.68e-03	0	61	0	262144000	56	6329
2026-01-27 00:55:15.59	334.29	30.08	-43.0	-48.1	9.9	6.52e-03	0	61	0	264241152	56	6886
2026-01-27 00:55:16.60	334.00	30.19	-43.1	-48.3	9.7	1.16e-02	0	62	0	266338304	56	7102
2026-01-27 00:55:17.61	333.70	30.30	-43.1	-48.2	9.7	9.27e-03	0	62	0	268435456	56	7021
2026-01-27 00:55:18.62	333.41	30.40	-43.0	-48.1	9.9	1.10e-02	0	61	0	269484032	56	6892
2026-01-27 00:55:19.63	333.11	30.50	-43.0	-48.1	9.9	9.21e-03	0	61	0	271581184	56	6919
2026-01-27 00:55:20.64	332.81	30.61	-43.1	-48.4	9.6	1.40e-02	0	62	0	273678336	56	7159
2026-01-27 00:55:21.65	332.51	30.71	-43.3	-48.9	9.1	1.70e-02	0	61	0	275775488	57	7174
2026-01-27 00:55:22.66	332.21	30.81	-43.4	-49.3	8.6	3.71e-02	0	61	0	277872640	57	7475
2026-01-27 00:55:23.67	331.91	30.91	-43.5	-49.6	8.4	4.34e-02	0	62	0	278921216	57	7752
2026-01-27 00:55:24.68	331.60	31.02	-43.6	-49.8	8.2	5.88e-02	0	62	0	281018368	57	7933
2026-01-27 00:55:25.68	331.29	31.12	-43.6	-49.8	8.1	5.51e-02	0	61	0	283115520	57	7948
2026-01-27 00:55:26.70	330.98	31.22	-43.4	-49.1	8.8	4.00e-02	0	61	0	285212672	57	7355
2026-01-27 00:55:27.70	330.67	31.32	-43.2	-48.6	9.3	2.33e-02	0	62	0	287309824	57	6946
2026-01-27 00:55:28.72	330.35	31.42	-43.3	-48.8	9.1	2.03e-02	0	61	0	288358400	57	7102
2026-01-27 00:55:29.73	330.04	31.51	-43.3	-48.9	9.2	2.25e-02	0	61	0	290455552	57	7131
2026-01-27 00:55:30.74	329.72	31.61	-43.3	-48.8	9.1	2.21e-02	0	62	0	292552704	57	7061
2026-01-27 00:55:31.74	329.40	31.71	-43.5	-49.3	8.6	3.24e-02	0	62	0	294649856	57	7514
2026-01-27 00:55:32.76	329.08	31.80	-43.7	-50.0	7.9	6.17e-02	0	61	0	296747008	57	8175
2026-01-27 00:55:33.77	328.75	31.90	-43.9	-50.7	7.4	7.75e-02	0	62	0	298844160	58	8303
2026-01-27 00:55:34.78	328.43	31.99	-43.9	-50.9	7.1	1.21e-01	0	61	0	299892736	58	8554
2026-01-27 00:55:35.79	328.10	32.09	-44.1	-51.7	6.4	1.97e-01	0	62	0	301989888	58	9382
2026-01-27 00:55:36.80	327.77	32.18	-43.8	-50.4	7.5	1.45e-01	0	61	0	304087040	58	8034
2026-01-27 00:55:37.81	327.44	32.27	-43.8	-50.3	7.7	1.11e-01	0	62	0	306184192	58	7956
2026-01-27 00:55:38.82	327.11	32.37	-43.8	-50.4	7.5	1.01e-01	0	61	0	308281344	58	8037
2026-01-27 00:55:39.83	326.77	32.46	-43.6	-49.9	8.0	5.64e-02	0	61	0	309329920	58	7597
2026-01-27 00:55:40.84	326.43	32.55	-43.8	-50.4	7.6	6.38e-02	0	61	0	311427072	58	8046
2026-01-27 00:55:41.85	326.09	32.64	-43.8	-50.5	7.4	1.03e-01	0	62	0	313524224	58	8175
2026-01-27 00:55:42.86	325.75	32.72	-44.0	-51.2	6.8	1.65e-01	0	62	0	315621376	58	8860
2026-01-27 00:55:43.87	325.41	32.81	-43.9	-51.1	7.0	2.57e-01	0	62	0	317718528	58	8693
2026-01-27 00:55:44.88	325.07	32.90	-44.1	-51.6	6.4	2.67e-01	0	62	0	318767104	58	9218
2026-01-27 00:55:45.89	324.72	32.98	-44.0	-51.5	6.6	2.24e-01	0	62	0	320864256	58	9085
2026-01-27 00:55:46.90	324.37	33.07	-44.7	-55.5	4.4	1.88e-01	0	62	0	322961408	59	13571
2026-01-27 00:55:47.91	324.02	33.15	-44.3	-52.7	5.8	4.60e-01	0	62	0	324009984	59	9845
2026-01-27 00:55:48.92	323.67	33.23	-44.7	-55.6	4.3	4.45e-01	0	62	0	326107136	59	13782
2026-01-27 00:55:49.93	323.31	33.32	-44.7	-56.9	3.8	1.37e-01	0	62	104	327155712	60	15076
2026-01-27 00:55:50.94	322.96	33.40	-43.6	-49.6	8.3	1.07e+00	0	62	0	327155712	59	6892
2026-01-27 00:55:51.95	322.60	33.48	-43.8	-50.5	7.5	8.04e-02	0	62	0	329252864	59	7706
2026-01-27 00:55:52.96	322.24	33.55	-43.7	-50.1	7.8	6.27e-02	0	62	0	331350016	59	7369
2026-01-27 00:55:53.97	321.88	33.63	-43.7	-50.0	7.9	8.01e-02	0	62	0	333447168	59	7271
2026-01-27 00:55:54.98	321.52	33.71	-43.5	-49.4	8.5	4.74e-02	0	62	0	335544320	59	6797
2026-01-27 00:55:55.99	321.15	33.78	-43.5	-49.3	8.7	3.42e-02	0	62	0	336592896	58	7056
2026-01-27 00:55:56.99	320.79	33.86	-43.3	-48.7	9.2	2.87e-02	0	62	0	338690048	58	6639
2026-01-27 00:55:58.00	320.42	33.93	-43.4	-49.1	8.7	2.89e-02	0	62	0	340787200	58	6892
2026-01-27 00:55:59.01	320.06	34.00	-43.6	-49.6	8.4	3.28e-02	0	62	0	342884352	58	7294
2026-01-27 00:56:00.03	319.68	34.07	-43.5	-49.4	8.6	4.08e-02	0	62	0	344981504	58	7155
2026-01-27 00:56:01.04	319.31	34.14	-43.5	-49.4	8.6	3.75e-02	0	62	0	346030080	58	7165
2026-01-27 00:56:02.05	318.93	34.21	-43.5	-49.4	8.6	3.57e-02	0	62	0	348127232	58	7129
2026-01-27 00:56:03.06	318.56	34.28	-43.7	-50.0	8.0	4.68e-02	0	62	0	350224384	58	7671
2026-01-27 00:56:04.07	318.18	34.34	-43.8	-50.5	7.5	8.21e-02	0	62	0	352321536	58	8110
2026-01-27 00:56:05.08	317.80	34.41	-43.7	-50.0	8.0	7.89e-02	0	62	0	354418688	58	7664
2026-01-27 00:56:06.09	317.42	34.47	-43.4	-49.2	8.7	4.45e-02	0	62	0	355467264	58	6968
2026-01-27 00:56:07.10	317.04	34.53	-43.1	-48.3	9.8	1.97e-02	0	62	0	357564416	58	6301
2026-01-27 00:56:08.11	316.66	34.59	-42.8	-47.5	10.5	5.49e-03	0	62	0	359661568	57	6105
2026-01-27 00:56:09.12	316.27	34.65	-42.4	-46.6	11.4	1.93e-03	0	62	0	361758720	56	5828
2026-01-27 00:56:10.13	315.89	34.71	-42.0	-45.6	12.4	4.38e-04	0	62	0	363855872	56	5195
2026-01-27 00:56:11.14	315.50	34.76	-41.6	-44.9	13.0	6.40e-05	0	62	0	364904448	55	5095
2026-01-27 00:56:12.15	315.11	34.82	-41.6	-45.0	12.9	2.51e-05	0	62	0	367001600	54	5415
2026-01-27 00:56:13.16	314.72	34.87	-41.6	-45.0	12.9	5.26e-05	0	62	0	369098752	54	5457
2026-01-27 00:56:14.17	314.33	34.92	-41.4	-44.8	13.2	2.59e-05	0	62	0	371195904	54	5286
2026-01-27 00:56:15.18	313.94	34.97	-41.3	-44.5	13.4	1.67e-05	0	62	0	373293056	54	5143
2026-01-27 00:56:16.19	313.54	35.02	-41.2	-44.3	13.7	6.80e-06	0	62	0	374341632	54	4999
2026-01-27 00:56:17.20	313.15	35.07	-41.1	-44.2	13.7	4.50e-06	0	62	0	376438784	54	4955
2026-01-27 00:56:18.21	312.75	35.12	-41.4	-44.8	13.1	1.29e-05	0	62	0	378535936	54	5299
2026-01-27 00:56:19.22	312.35	35.16	-42.0	-45.8	12.2	1.13e-04	0	62	0	380633088	54	5963
2026-01-27 00:56:20.23	311.96	35.20	-42.3	-46.5	11.3	5.39e-04	0	62	0	382730240	55	6120
2026-01-27 00:56:21.24	311.56	35.25	-42.2	-46.3	11.6	1.16e-03	0	62	0	383778816	55	5972
2026-01-27 00:56:22.25	311.16	35.29	-42.1	-46.1	11.8	4.20e-04	0	62	0	385875968	55	5816
2026-01-27 00:56:23.27	310.75	35.32	-41.8	-45.5	12.4	2.82e-04	0	62	0	387973120	55	5446
2026-01-27 00:56:24.28	310.35	35.36	-41.8	-45.5	12.5	1.17e-04	0	62	0	390070272	55	5431
2026-01-27 00:56:25.29	309.95	35.40	-41.7	-45.3	12.6	8.92e-05	0	62	0	392167424	55	5297
2026-01-27 00:56:26.29	309.55	35.43	-41.8	-45.4	12.5	1.14e-04	0	62	0	394264576	55	5401
2026-01-27 00:56:27.30	309.14	35.46	-41.9	-45.6	12.3	1.88e-04	0	62	0	395313152	55	5495
2026-01-27 00:56:28.31	308.73	35.49	-41.9	-45.6	12.3	1.61e-04	0	62	0	397410304	55	5470
2026-01-27 00:56:29.32	308.33	35.52	-41.9	-45.7	12.2	1.60e-04	0	62	0	399507456	55	5551
2026-01-27 00:56:30.33	307.92	35.55	-42.2	-46.4	11.6	4.26e-04	0	62	0	401604608	55	5996
2026-01-27 00:56:31.34	307.51	35.57	-42.5	-46.9	11.0	1.72e-03	0	62	0	403701760	55	6383
2026-01-27 00:56:32.35	307.10	35.60	-42.2	-46.2	11.6	1.69e-03	0	62	0	404750336	55	5878
2026-01-27 00:56:33.36	306.70	35.62	-41.7	-45.3	12.7	3.26e-04	0	62	0	406847488	55	5282
2026-01-27 00:56:34.37	306.29	35.64	-41.4	-44.7	13.2	1.67e-05	0	62	0	408944640	54	5263
2026-01-27 00:56:35.38	305.88	35.66	-41.0	-44.0	14.0	3.00e-06	0	62	0	411041792	53	5124
2026-01-27 00:56:36.39	305.47	35.68	-41.2	-44.3	13.6	5.30e-06	0	62	0	413138944	53	5310
2026-01-27 00:56:37.40	305.05	35.69	-41.6	-45.0	12.9	2.59e-05	0	62	0	414187520	53	5769
2026-01-27 00:56:38.41	304.64	35.71	-42.1	-46.0	12.0	1.97e-04	0	62	0	416284672	54	6075
2026-01-27 00:56:39.42	304.23	35.72	-42.3	-46.5	11.4	6.71e-04	0	62	0	418381824	55	6113
2026-01-27 00:56:40.43	303.82	35.73	-42.3	-46.6	11.3	7.96e-04	0	62	0	420478976	55	6156
2026-01-27 00:56:41.44	303.41	35.74	-42.4	-46.8	11.1	1.05e-03	0	62	0	422576128	55	6296
2026-01-27 00:56:42.45	302.99	35.75	-42.4	-46.8	11.1	1.37e-03	0	62	0	423624704	55	6282
2026-01-27 00:56:43.45	302.59	35.75	-42.3	-46.6	11.3	1.03e-03	0	62	0	425721856	55	6165
2026-01-27 00:56:44.46	302.17	35.76	-42.1	-46.0	11.9	6.72e-04	0	62	0	427819008	55	5768
2026-01-27 00:56:45.47	301.76	35.76	-42.2	-46.2	11.7	3.97e-04	0	62	0	429916160	55	5888
2026-01-27 00:56:46.48	301.35	35.76	-42.3	-46.5	11.4	5.39e-04	0	62	0	432013312	55	6067
2026-01-27 00:56:47.49	300.93	35.76	-42.3	-46.5	11.2	1.30e-03	0	62	0	433061888	55	6124
2026-01-27 00:56:48.50	300.52	35.76	-42.5	-46.8	11.0	1.65e-03	0	62	0	435159040	55	6346
2026-01-27 00:56:49.51	300.11	35.75	-42.4	-46.7	11.1	1.70e-03	0	62	0	437256192	55	6269
2026-01-27 00:56:50.52	299.70	35.75	-42.4	-46.6	11.2	2.54e-03	0	62	0	439353344	55	6178
2026-01-27 00:56:51.53	299.28	35.74	-42.1	-46.1	11.8	1.43e-03	0	62	0	441450496	55	5830
2026-01-27 00:56:52.54	298.87	35.73	-42.0	-45.9	12.0	4.26e-04	0	62	0	442499072	55	5700
2026-01-27 00:56:53.55	298.46	35.72	-42.0	-45.8	12.1	1.90e-04	0	62	0	444596224	55	5642
2026-01-27 00:56:54.56	298.05	35.70	-42.2	-46.3	11.6	3.55e-04	0	62	0	446693376	55	5950
2026-01-27 00:56:55.57	297.63	35.69	-42.3	-46.6	11.5	6.64e-04	0	62	0	448790528	55	6149
2026-01-27 00:56:56.58	297.22	35.67	-42.1	-46.1	11.8	7.15e-04	0	62	0	450887680	55	5809
2026-01-27 00:56:57.59	296.81	35.65	-42.1	-46.1	11.8	7.48e-04	0	62	0	451936256	55	5807
2026-01-27 00:56:58.60	296.40	35.64	-42.4	-46.6	11.3	1.23e-03	0	62	0	454033408	55	6188
2026-01-27 00:56:59.61	295.99	35.61	-42.7	-47.4	10.5	3.79e-03	0	62	0	456130560	55	6756
2026-01-27 00:57:00.62	295.58	35.59	-42.9	-47.7	10.2	6.05e-03	0	62	0	458227712	56	6638
2026-01-27 00:57:01.64	295.17	35.57	-42.9	-47.7	10.2	5.36e-03	0	62	0	460324864	56	6632
2026-01-27 00:57:02.65	294.76	35.54	-42.7	-47.1	11.0	3.02e-03	0	62	0	461373440	56	6161
2026-01-27 00:57:03.65	294.36	35.51	-42.6	-46.9	11.0	1.47e-03	0	62	0	463470592	56	6045
2026-01-27 00:57:04.66	293.95	35.48	-42.5	-46.6	11.4	8.64e-04	0	62	0	465567744	56	5852
2026-01-27 00:57:05.68	293.54	35.45	-42.6	-47.0	11.0	1.28e-03	0	62	0	467664896	56	6093
2026-01-27 00:57:06.68	293.14	35.42	-43.0	-47.8	10.2	4.05e-03	0	62	0	469762048	56	6685
2026-01-27 00:57:07.70	292.73	35.38	-43.3	-48.8	9.3	1.54e-02	0	62	0	471859200	57	7059
2026-01-27 00:57:08.71	292.33	35.35	-43.2	-48.6	9.3	2.14e-02	0	62	0	472907776	57	6906
2026-01-27 00:57:09.72	291.93	35.31	-43.2	-48.4	9.5	1.74e-02	0	62	0	475004928	57	6792
2026-01-27 00:57:10.73	291.53	35.27	-43.0	-47.9	10.1	8.11e-03	0	62	0	477102080	57	6356
2026-01-27 00:57:11.74	291.13	35.23	-42.8	-47.4	10.6	3.64e-03	0	62	0	479199232	57	6041
2026-01-27 00:57:12.75	290.73	35.19	-42.5	-46.6	11.4	1.18e-03	0	62	0	481296384	57	5519
2026-01-27 00:57:13.76	290.33	35.15	-42.4	-46.6	11.4	9.52e-04	0	62	0	482344960	56	5807
2026-01-27 00:57:14.76	289.94	35.10	-42.6	-47.0	11.1	9.35e-04	0	62	0	484442112	56	6084
2026-01-27 00:57:15.77	289.54	35.06	-42.8	-47.5	10.5	3.10e-03	0	62	0	486539264	56	6467
2026-01-27 00:57:16.79	289.14	35.01	-42.9	-47.8	10.4	4.82e-03	0	62	0	488636416	56	6652
2026-01-27 00:57:17.79	288.75	34.96	-43.1	-48.1	10.0	6.56e-03	0	62	0	490733568	56	6888
2026-01-27 00:57:18.80	288.36	34.91	-43.1	-48.3	9.8	1.20e-02	0	62	0	491782144	56	7073
2026-01-27 00:57:19.81	287.97	34.85	-43.3	-48.7	9.2	1.27e-02	0	62	0	493879296	57	6966
2026-01-27 00:57:20.82	287.58	34.80	-42.9	-47.6	10.4	8.50e-03	0	62	0	495976448	57	6177
2026-01-27 00:57:21.83	287.19	34.75	-42.8	-47.6	10.4	4.34e-03	0	62	0	498073600	57	6132
2026-01-27 00:57:22.84	286.80	34.69	-42.7	-47.1	11.0	1.54e-03	0	62	0	500170752	57	5821
2026-01-27 00:57:23.85	286.41	34.63	-42.6	-47.0	11.1	1.73e-03	0	62	0	501219328	56	6092
2026-01-27 00:57:24.86	286.03	34.57	-42.3	-46.2	11.7	1.06e-03	0	62	0	503316480	56	5583
2026-01-27 00:57:25.87	285.64	34.51	-42.5	-46.8	11.2	7.91e-04	0	62	0	505413632	56	5955
2026-01-27 00:57:26.89	285.26	34.45	-42.8	-47.4	10.6	2.36e-03	0	62	0	507510784	56	6394
2026-01-27 00:57:27.89	284.88	34.39	-43.0	-48.1	9.8	5.44e-03	0	62	0	509607936	56	6926
2026-01-27 00:57:28.90	284.50	34.32	-43.0	-47.8	10.2	6.35e-03	0	62	0	510656512	56	6722
2026-01-27 00:57:29.91	284.13	34.25	-42.8	-47.4	10.6	4.11e-03	0	62	0	512753664	56	6350
2026-01-27 00:57:30.92	283.75	34.19	-42.7	-47.2	10.8	3.87e-03	0	62	0	514850816	56	6265
2026-01-27 00:57:31.93	283.37	34.12	-42.5	-46.8	11.2	2.22e-03	0	62	0	516947968	56	5949
2026-01-27 00:57:32.94	283.00	34.05	-42.1	-45.8	12.2	7.51e-04	0	62	0	519045120	56	5313
2026-01-27 00:57:33.95	282.63	33.98	-41.7	-45.3	12.6	1.12e-04	0	62	0	520093696	55	5281
2026-01-27 00:57:34.96	282.26	33.91	-41.9	-45.6	12.3	1.07e-04	0	62	0	522190848	55	5466
2026-01-27 00:57:35.97	281.89	33.83	-42.3	-46.5	11.4	6.80e-04	0	62	0	524288000	55	6068
2026-01-27 00:57:36.97	281.53	33.76	-42.7	-47.5	10.5	2.69e-03	0	62	0	526385152	55	6833
2026-01-27 00:57:37.98	281.17	33.68	-43.2	-48.6	9.3	9.10e-03	0	62	0	528482304	57	6937
2026-01-27 00:57:38.99	280.80	33.61	-43.3	-48.9	9.0	2.33e-02	0	62	0	529530880	57	7152
2026-01-27 00:57:40.01	280.44	33.53	-43.1	-48.3	9.6	1.81e-02	0	62	0	531628032	57	6705
2026-01-27 00:57:41.02	280.08	33.45	-42.8	-47.4	10.6	8.31e-03	0	62	0	533725184	57	6052
2026-01-27 00:57:42.03	279.72	33.37	-42.4	-46.6	11.4	1.56e-03	0	62	0	535822336	56	5795
2026-01-27 00:57:43.04	279.37	33.29	-42.5	-46.7	11.3	1.01e-03	0	62	0	537919488	56	5923
2026-01-27 00:57:44.05	279.01	33.21	-42.6	-46.9	11.1	1.16e-03	0	62	0	540016640	56	6043
2026-01-27 00:57:45.06	278.66	33.12	-42.7	-47.2	10.8	1.38e-03	0	62	0	541065216	56	6223
2026-01-27 00:57:46.07	278.31	33.04	-42.8	-47.4	10.6	2.62e-03	0	62	0	543162368	56	6370
2026-01-27 00:57:47.08	277.96	32.95	-43.0	-47.9	10.0	6.18e-03	0	62	0	545259520	56	6773
2026-01-27 00:57:48.09	277.61	32.87	-43.3	-48.8	9.1	1.07e-02	0	62	0	547356672	57	7085
2026-01-27 00:57:49.10	277.27	32.78	-43.6	-50.0	7.9	6.04e-02	0	62	0	549453824	57	8160
2026-01-27 00:57:50.11	276.92	32.69	-43.6	-50.0	7.9	5.83e-02	0	62	0	550502400	57	8153
2026-01-27 00:57:51.12	276.58	32.60	-43.6	-49.8	8.0	4.75e-02	0	62	0	552599552	57	7938
2026-01-27 00:57:52.13	276.24	32.51	-43.5	-49.5	8.4	4.00e-02	0	62	0	554696704	57	7664
2026-01-27 00:57:53.14	275.91	32.42	-43.5	-49.5	8.4	5.11e-02	0	62	0	556793856	57	7715
2026-01-27 00:57:54.14	275.57	32.33	-43.5	-49.5	8.5	4.30e-02	0	62	0	558891008	57	7670
2026-01-27 00:57:55.15	275.24	32.24	-43.3	-49.1	8.8	3.80e-02	0	62	0	559939584	57	7309
2026-01-27 00:57:56.16	274.91	32.15	-43.5	-49.7	8.2	3.50e-02	0	62	0	562036736	57	7850
2026-01-27 00:57:57.17	274.58	32.05	-43.7	-50.5	7.4	4.50e-02	0	62	0	564133888	58	8094
2026-01-27 00:57:58.18	274.25	31.96	-43.4	-49.2	8.8	4.13e-02	0	62	0	566231040	58	6987
2026-01-27 00:57:59.20	273.92	31.86	-43.1	-48.3	9.6	2.35e-02	0	62	0	568328192	58	6280
2026-01-27 00:58:00.20	273.60	31.77	-42.8	-47.4	10.6	6.35e-03	0	62	0	569376768	57	6019
2026-01-27 00:58:01.21	273.28	31.67	-42.8	-47.4	10.5	3.91e-03	0	62	0	571473920	57	6058
2026-01-27 00:58:02.22	272.96	31.57	-42.8	-47.6	10.4	4.49e-03	0	62	0	573571072	57	6152
2026-01-27 00:58:03.23	272.64	31.48	-42.7	-47.3	10.6	3.17e-03	0	62	0	575668224	57	5961
2026-01-27 00:58:04.24	272.32	31.38	-42.4	-46.6	11.4	1.66e-03	0	62	0	577765376	56	5827
2026-01-27 00:58:05.25	272.01	31.28	-42.3	-46.4	11.5	8.28e-04	0	62	0	578813952	56	5681
2026-01-27 00:58:06.26	271.69	31.18	-42.2	-46.2	11.8	4.97e-04	0	62	0	580911104	56	5586
2026-01-27 00:58:07.27	271.38	31.08	-42.6	-47.0	11.0	7.47e-04	0	62	0	583008256	56	6063
2026-01-27 00:58:08.28	271.07	30.98	-42.9	-47.9	10.1	4.28e-03	0	62	0	585105408	56	6724
2026-01-27 00:58:09.29	270.77	30.87	-43.3	-48.9	9.0	1.36e-02	0	62	0	587202560	57	7202
2026-01-27 00:58:10.30	270.46	30.77	-43.3	-49.0	8.8	3.02e-02	0	62	0	588251136	57	7215
2026-01-27 00:58:11.31	270.16	30.67	-43.3	-48.8	9.0	2.96e-02	0	62	0	590348288	57	7112
2026-01-27 00:58:12.32	269.86	30.57	-43.1	-48.2	9.7	1.78e-02	0	62	0	592445440	57	6597
2026-01-27 00:58:13.32	269.56	30.46	-42.7	-47.3	10.8	5.30e-03	0	62	0	594542592	57	5933
2026-01-27 00:58:14.33	269.27	30.36	-42.4	-46.6	11.4	1.03e-03	0	62	0	596639744	56	5809
2026-01-27 00:58:15.35	268.97	30.25	-42.4	-46.6	11.3	8.53e-04	0	62	0	597688320	56	5847
2026-01-27 00:58:16.36	268.67	30.15	-42.7	-47.2	10.7	1.58e-03	0	62	0	599785472	56	6274
2026-01-27 00:58:17.36	268.39	30.04	-43.1	-48.3	9.6	9.58e-03	0	62	0	601882624	56	7105
2026-01-27 00:58:18.37	268.10	29.94	-43.3	-49.1	8.9	3.35e-02	0	62	0	603979776	57	7308
2026-01-27 00:58:19.38	267.81	29.83	-43.7	-50.2	7.7	5.86e-02	0	62	0	606076928	57	8296
2026-01-27 00:58:20.39	267.52	29.72	-43.7	-50.2	7.7	9.12e-02	0	62	0	608174080	57	8276
2026-01-27 00:58:21.40	267.24	29.61	-43.3	-48.9	9.0	3.63e-02	0	62	0	609222656	57	7197
2026-01-27 00:58:22.41	266.96	29.51	-43.2	-48.5	9.3	1.70e-02	0	62	0	611319808	57	6868
2026-01-27 00:58:23.42	266.68	29.40	-43.1	-48.3	9.7	1.31e-02	0	62	0	613416960	57	6695
2026-01-27 00:58:24.43	266.40	29.29	-43.1	-48.3	9.6	1.50e-02	0	62	0	615514112	57	6655
2026-01-27 00:58:25.44	266.12	29.18	-43.1	-48.4	9.5	1.34e-02	0	62	0	617611264	57	6768
2026-01-27 00:58:26.45	265.85	29.07	-43.1	-48.3	9.6	1.43e-02	0	62	0	618659840	57	6707
2026-01-27 00:58:27.46	265.58	28.96	-43.3	-49.1	8.8	2.38e-02	0	62	0	620756992	57	7323
2026-01-27 00:58:28.47	265.31	28.85	-43.6	-50.0	7.9	4.97e-02	0	62	0	622854144	57	8138
2026-01-27 00:58:29.48	265.04	28.74	-43.5	-49.8	8.0	6.13e-02	0	62	0	624951296	57	7951
2026-01-27 00:58:30.49	264.77	28.63	-43.5	-49.6	8.2	7.29e-02	0	62	0	627048448	57	7764
2026-01-27 00:58:31.50	264.51	28.52	-43.2	-48.8	9.0	3.39e-02	0	62	0	628097024	57	7057
2026-01-27 00:58:32.51	264.24	28.41	-43.0	-48.1	9.8	1.74e-02	0	62	0	630194176	57	6527
2026-01-27 00:58:33.52	263.98	28.30	-42.7	-47.3	10.6	5.65e-03	0	62	0	632291328	57	5990
2026-01-27 00:58:34.52	263.72	28.19	-42.6	-47.1	10.8	2.19e-03	0	62	0	634388480	57	5822
2026-01-27 00:58:35.54	263.46	28.07	-42.5	-46.9	11.1	1.45e-03	0	62	0	636485632	56	6018
2026-01-27 00:58:36.55	263.21	27.96	-42.5	-46.9	11.0	1.42e-03	0	62	0	637534208	56	6057
2026-01-27 00:58:37.56	262.95	27.85	-42.5	-46.9	11.0	1.54e-03	0	62	0	639631360	56	6036
2026-01-27 00:58:38.57	262.70	27.74	-42.7	-47.5	10.5	2.66e-03	0	62	0	641728512	56	6436
2026-01-27 00:58:39.58	262.45	27.63	-42.7	-47.3	10.6	4.13e-03	0	62	0	643825664	56	6320
2026-01-27 00:58:40.59	262.20	27.51	-42.8	-47.6	10.3	5.18e-03	0	62	0	645922816	56	6527
2026-01-27 00:58:41.60	261.95	27.40	-42.6	-47.2	10.8	4.09e-03	0	62	0	646971392	56	6249
2026-01-27 00:58:42.61	261.71	27.29	-42.4	-46.8	11.2	1.79e-03	0	62	0	649068544	56	5942
2026-01-27 00:58:43.62	261.47	27.18	-42.0	-45.8	12.2	3.37e-04	0	62	0	651165696	56	5287
2026-01-27 00:58:44.63	261.22	27.06	-41.7	-45.3	12.5	1.79e-04	0	62	0	653262848	55	5315
2026-01-27 00:58:45.64	260.98	26.95	-41.6	-45.2	12.6	1.11e-04	0	62	0	655360000	55	5277
2026-01-27 00:58:46.65	260.74	26.84	-41.7	-45.3	12.5	8.92e-05	0	62	0	656408576	55	5330
2026-01-27 00:58:47.66	260.51	26.72	-41.8	-45.6	12.3	1.63e-04	0	62	0	658505728	55	5487
2026-01-27 00:58:48.67	260.27	26.61	-41.8	-45.7	12.1	1.89e-04	0	62	0	660602880	55	5534
2026-01-27 00:58:49.68	260.04	26.50	-41.8	-45.7	12.1	2.31e-04	0	62	0	662700032	55	5540
2026-01-27 00:58:50.69	259.81	26.38	-41.8	-45.6	12.1	1.91e-04	0	62	0	664797184	55	5517
2026-01-27 00:58:51.70	259.58	26.27	-41.7	-45.3	12.5	1.74e-04	0	62	0	665845760	55	5339
2026-01-27 00:58:52.71	259.35	26.16	-41.5	-45.0	12.8	1.07e-04	0	62	0	667942912	55	5149
2026-01-27 00:58:53.72	259.12	26.04	-41.3	-44.6	13.3	3.50e-05	0	62	0	670040064	54	5162
2026-01-27 00:58:54.73	258.90	25.93	-41.1	-44.2	13.6	9.10e-06	0	62	0	672137216	54	4963
2026-01-27 00:58:55.74	258.67	25.82	-40.9	-43.9	13.9	6.80e-06	0	62	0	674234368	53	5083
2026-01-27 00:58:56.75	258.45	25.70	-40.9	-44.0	13.9	3.80e-06	0	62	0	676331520	53	5105
2026-01-27 00:58:57.76	258.23	25.59	-41.0	-44.2	13.6	3.80e-06	0	62	0	677380096	53	5263
2026-01-27 00:58:58.77	258.01	25.48	-41.2	-44.5	13.4	1.90e-05	0	62	0	679477248	53	5415
2026-01-27 00:58:59.78	257.80	25.36	-41.4	-44.9	12.9	3.58e-05	0	62	0	681574400	53	5691
2026-01-27 00:59:00.79	257.58	25.25	-41.6	-45.3	12.5	1.01e-04	0	62	0	683671552	53	5955
2026-01-27 00:59:01.80	257.37	25.14	-41.6	-45.3	12.5	1.14e-04	0	62	0	685768704	53	5948
2026-01-27 00:59:02.81	257.15	25.02	-41.6	-45.2	12.7	1.01e-04	0	62	0	686817280	53	5909
2026-01-27 00:59:03.82	256.94	24.91	-41.4	-44.8	13.0	4.11e-05	0	62	0	688914432	53	5611
2026-01-27 00:59:04.83	256.73	24.80	-41.2	-44.4	13.4	1.44e-05	0	62	0	691011584	53	5380
2026-01-27 00:59:05.84	256.53	24.68	-41.1	-44.3	13.5	1.37e-05	0	62	0	693108736	53	5304
2026-01-27 00:59:06.85	256.32	24.57	-41.0	-44.2	13.6	8.30e-06	0	62	0	695205888	53	5250
2026-01-27 00:59:07.86	256.11	24.46	-41.1	-44.2	13.6	8.30e-06	0	62	0	696254464	53	5277
2026-01-27 00:59:08.87	255.91	24.35	-41.2	-44.4	13.4	7.60e-06	0	62	0	698351616	53	5401
2026-01-27 00:59:09.88	255.71	24.23	-41.1	-44.3	13.5	5.30e-06	0	62	0	700448768	53	5333
2026-01-27 00:59:10.88	255.51	24.12	-41.0	-44.2	13.6	6.10e-06	0	62	0	702545920	53	5242
2026-01-27 00:59:11.89	255.31	24.01	-41.0	-44.1	13.6	6.80e-06	0	62	0	704643072	53	5209
2026-01-27 00:59:12.90	255.11	23.90	-41.0	-44.2	13.6	6.80e-06	0	62	0	705691648	53	5241
2026-01-27 00:59:13.91	254.92	23.78	-41.1	-44.3	13.5	1.14e-05	0	62	0	707788800	53	5321
2026-01-27 00:59:14.92	254.72	23.67	-41.0	-44.1	13.7	5.30e-06	0	62	0	709885952	53	5210
2026-01-27 00:59:15.93	254.53	23.56	-41.0	-44.1	13.7	9.10e-06	0	62	0	711983104	53	5191
2026-01-27 00:59:16.94	254.34	23.45	-40.9	-44.0	13.8	6.10e-06	0	62	0	714080256	53	5120
2026-01-27 00:59:17.95	254.14	23.34	-40.8	-43.8	14.0	7.60e-06	0	62	0	715128832	53	5033
2026-01-27 00:59:18.96	253.96	23.23	-40.7	-43.7	14.1	2.20e-06	0	62	0	717225984	53	4929
2026-01-27 00:59:19.97	253.77	23.11	-40.9	-44.0	13.8	2.20e-06	0	62	0	719323136	53	5154
2026-01-27 00:59:20.98	253.58	23.00	-40.9	-43.9	13.8	7.60e-06	0	62	0	721420288	53	5087
2026-01-27 00:59:21.99	253.40	22.89	-41.0	-44.1	13.6	3.00e-06	0	62	0	723517440	53	5212
2026-01-27 00:59:23.00	253.21	22.78	-41.1	-44.3	13.5	1.29e-05	0	62	0	724566016	53	5306
2026-01-27 00:59:24.01	253.03	22.67	-41.1	-44.4	13.3	1.29e-05	0	62	0	726663168	53	5385
2026-01-27 00:59:25.02	252.85	22.56	-41.2	-44.5	13.3	1.44e-05	0	62	0	728760320	53	5449
2026-01-27 00:59:26.03	252.67	22.45	-41.3	-44.6	13.1	1.98e-05	0	62	0	730857472	53	5520
2026-01-27 00:59:27.04	252.49	22.34	-41.2	-44.5	13.2	1.83e-05	0	62	0	732954624	53	5456
2026-01-27 00:59:28.05	252.31	22.23	-41.2	-44.5	13.3	1.29e-05	0	62	0	734003200	53	5409
2026-01-27 00:59:29.06	252.14	22.12	-41.4	-44.9	12.8	4.50e-05	0	62	0	736100352	53	5700
2026-01-27 00:59:30.07	251.96	22.01	-41.4	-45.0	12.7	5.72e-05	0	62	0	738197504	53	5728
2026-01-27 00:59:31.08	251.79	21.90	-41.7	-45.4	12.3	1.22e-04	0	62	0	740294656	53	6051
2026-01-27 00:59:32.09	251.61	21.79	-41.7	-45.5	12.2	1.62e-04	0	62	0	742391808	53	6086
2026-01-27 00:59:33.10	251.44	21.68	-41.8	-45.6	12.1	2.45e-04	0	62	0	744488960	54	5842
2026-01-27 00:59:34.11	251.27	21.57	-41.7	-45.4	12.3	3.13e-04	0	62	0	745537536	54	5713
2026-01-27 00:59:35.12	251.10	21.46	-41.7	-45.5	12.3	1.96e-04	0	62	0	747634688	54	5731
2026-01-27 00:59:36.13	250.94	21.35	-41.7	-45.5	12.2	2.15e-04	0	62	0	749731840	54	5749
2026-01-27 00:59:37.14	250.77	21.24	-41.7	-45.5	12.3	1.80e-04	0	62	0	751828992	54	5741
2026-01-27 00:59:38.15	250.60	21.14	-41.7	-45.5	12.2	2.25e-04	0	62	0	753926144	54	5773
2026-01-27 00:59:39.16	250.44	21.03	-41.7	-45.6	12.1	1.50e-04	0	62	0	754974720	54	5820
2026-01-27 00:59:40.17	250.28	20.92	-42.0	-46.2	11.5	5.60e-04	0	62	0	757071872	54	6257
2026-01-27 00:59:41.18	250.12	20.81	-42.0	-46.2	11.5	1.09e-03	0	62	0	759169024	54	6218
2026-01-27 00:59:42.19	249.95	20.71	-42.1	-46.3	11.4	1.09e-03	0	62	0	761266176	54	6320
2026-01-27 00:59:43.21	249.79	20.60	-42.0	-46.2	11.5	9.96e-04	0	62	0	763363328	54	6264
2026-01-27 00:59:44.21	249.64	20.49	-42.0	-46.1	11.5	7.93e-04	0	62	0	764411904	54	6197
2026-01-27 00:59:45.23	249.48	20.38	-41.8	-45.8	11.9	4.78e-04	0	62	0	766509056	54	5951
2026-01-27 00:59:46.24	249.32	20.28	-41.9	-46.0	11.8	3.21e-04	0	62	0	768606208	54	6065
2026-01-27 00:59:47.25	249.17	20.17	-41.9	-45.8	11.8	5.02e-04	0	62	0	770703360	54	5972
2026-01-27 00:59:48.26	249.01	20.07	-41.7	-45.4	12.3	2.37e-04	0	62	0	772800512	54	5714
2026-01-27 00:59:49.27	248.86	19.96	-41.8	-45.7	12.0	3.00e-04	0	62	0	773849088	54	5872
2026-01-27 00:59:50.28	248.71	19.85	-41.9	-45.9	11.8	3.91e-04	0	62	0	775946240	54	6003
2026-01-27 00:59:51.29	248.56	19.75	-42.0	-46.2	11.5	5.80e-04	0	62	0	778043392	54	6213
2026-01-27 00:59:52.30	248.41	19.64	-42.1	-46.3	11.3	9.80e-04	0	62	0	780140544	54	6315
2026-01-27 00:59:53.31	248.26	19.54	-42.1	-46.4	11.3	1.17e-03	0	62	0	782237696	54	6376
2026-01-27 00:59:54.32	248.11	19.43	-41.8	-45.7	12.0	9.98e-04	0	62	0	784334848	54	5921
2026-01-27 00:59:55.33	247.96	19.33	-41.8	-45.8	11.9	3.44e-04	0	62	0	785383424	54	5944
2026-01-27 00:59:56.34	247.82	19.23	-41.7	-45.5	12.2	2.21e-04	0	62	0	787480576	54	5736
2026-01-27 00:59:57.35	247.67	19.12	-41.4	-44.9	12.7	1.23e-04	0	62	0	789577728	54	5398
2026-01-27 00:59:58.36	247.53	19.02	-41.3	-44.8	12.9	5.41e-05	0	62	0	791674880	54	5316
2026-01-27 00:59:59.37	247.39	18.91	-41.2	-44.6	13.1	2.74e-05	0	62	0	793772032	54	5214
2026-01-27 01:00:00.38	247.24	18.81	-41.3	-44.7	12.9	4.42e-05	0	62	0	794820608	54	5250
2026-01-27 01:00:01.38	247.11	18.71	-41.3	-44.7	12.9	3.66e-05	0	62	0	796917760	54	5256
2026-01-27 01:00:02.39	246.97	18.61	-41.4	-44.9	12.8	3.96e-05	0	62	0	799014912	54	5356
2026-01-27 01:00:03.40	246.83	18.50	-41.4	-44.9	12.8	7.55e-05	0	62	0	801112064	54	5358
2026-01-27 01:00:04.41	246.69	18.40	-41.3	-44.9	12.8	6.48e-05	0	62	0	803209216	54	5342
2026-01-27 01:00:05.42	246.55	18.30	-41.3	-44.7	12.9	5.11e-05	0	62	0	804257792	54	5265
2026-01-27 01:00:06.43	246.42	18.20	-41.4	-44.9	12.7	6.40e-05	0	62	0	806354944	54	5383
2026-01-27 01:00:07.44	246.28	18.10	-41.4	-44.9	12.7	8.92e-05	0	62	0	808452096	54	5398
2026-01-27 01:00:08.45	246.15	18.00	-41.3	-44.8	12.8	5.03e-05	0	62	0	810549248	54	5297
2026-01-27 01:00:09.46	246.01	17.90	-41.3	-44.8	12.8	5.34e-05	0	62	0	812646400	54	5305
2026-01-27 01:00:10.47	245.88	17.80	-41.3	-44.7	12.9	6.40e-05	0	62	0	813694976	54	5258
2026-01-27 01:00:11.48	245.75	17.69	-41.2	-44.7	13.0	3.35e-05	0	62	0	815792128	54	5224
2026-01-27 01:00:12.49	245.62	17.59	-41.2	-44.6	13.0	3.05e-05	0	62	0	817889280	54	5218
2026-01-27 01:00:13.50	245.49	17.49	-41.2	-44.7	13.0	2.74e-05	0	62	0	819986432	54	5234
2026-01-27 01:00:14.51	245.36	17.39	-41.1	-44.5	13.1	2.89e-05	0	62	0	822083584	54	5115
2026-01-27 01:00:15.52	245.23	17.30	-41.2	-44.7	13.0	2.67e-05	0	62	0	823132160	54	5230
2026-01-27 01:00:16.53	245.10	17.20	-41.2	-44.7	12.9	3.73e-05	0	62	0	825229312	54	5240
2026-01-27 01:00:17.54	244.98	17.10	-41.3	-44.9	12.7	8.31e-05	0	62	0	827326464	54	5358
2026-01-27 01:00:18.55	244.85	17.00	-41.6	-45.4	12.2	1.57e-04	0	62	0	829423616	54	5662
2026-01-27 01:00:19.56	244.73	16.90	-41.7	-45.5	12.1	2.58e-04	0	62	0	831520768	54	5788
2026-01-27 01:00:20.57	244.60	16.80	-42.0	-46.1	11.4	4.32e-04	0	62	0	832569344	54	6185
2026-01-27 01:00:21.58	244.48	16.70	-42.2	-46.7	10.9	1.86e-03	0	62	0	834666496	54	6591
2026-01-27 01:00:22.59	244.36	16.61	-42.4	-47.3	10.3	3.80e-03	0	62	0	836763648	55	6658
2026-01-27 01:00:23.60	244.24	16.51	-42.4	-47.3	10.2	6.75e-03	0	62	0	838860800	55	6692
2026-01-27 01:00:24.61	244.12	16.41	-42.5	-47.6	9.9	7.31e-03	0	62	0	840957952	55	6917
2026-01-27 01:00:25.62	244.00	16.32	-42.6	-47.6	9.9	9.57e-03	0	62	0	842006528	55	6891
2026-01-27 01:00:26.63	243.88	16.22	-42.2	-46.8	10.7	6.56e-03	0	62	0	844103680	55	6319
2026-01-27 01:00:27.64	243.76	16.12	-42.0	-46.3	11.2	2.04e-03	0	62	0	846200832	55	5976
2026-01-27 01:00:28.65	243.64	16.03	-41.8	-45.9	11.6	1.01e-03	0	62	0	848297984	55	5706
2026-01-27 01:00:29.66	243.52	15.93	-41.8	-45.8	11.7	6.62e-04	0	62	0	850395136	55	5626
2026-01-27 01:00:30.66	243.41	15.84	-41.4	-45.0	12.5	1.17e-04	0	62	0	852492288	54	5447
2026-01-27 01:00:31.67	243.29	15.74	-41.2	-44.7	12.9	6.71e-05	0	62	0	853540864	54	5240
2026-01-27 01:00:32.68	243.18	15.65	-41.2	-44.7	12.9	6.17e-05	0	62	0	855638016	54	5220
2026-01-27 01:00:33.70	243.07	15.55	-41.3	-44.8	12.7	3.43e-05	0	62	0	857735168	54	5306
2026-01-27 01:00:34.70	242.95	15.46	-41.4	-45.1	12.4	7.47e-05	0	62	0	859832320	54	5520
2026-01-27 01:00:35.72	242.84	15.36	-41.6	-45.4	12.0	1.86e-04	0	62	0	861929472	54	5704
2026-01-27 01:00:36.73	242.73	15.27	-41.8	-45.9	11.6	3.68e-04	0	62	0	862978048	54	6041
2026-01-27 01:00:37.73	242.62	15.17	-41.9	-46.2	11.4	1.18e-03	0	62	0	865075200	54	6206
2026-01-27 01:00:38.74	242.51	15.08	-42.1	-46.5	10.9	1.62e-03	0	62	0	867172352	54	6486
2026-01-27 01:00:39.76	242.40	14.99	-42.3	-47.0	10.4	3.21e-03	0	62	0	869269504	55	6470
2026-01-27 01:00:40.76	242.29	14.89	-42.3	-47.1	10.3	4.54e-03	0	62	0	871366656	55	6560
2026-01-27 01:00:41.78	242.18	14.80	-42.3	-47.2	10.2	6.42e-03	0	62	0	872415232	55	6602
2026-01-27 01:00:42.79	242.07	14.71	-42.2	-47.0	10.4	6.83e-03	0	62	0	874512384	55	6437
2026-01-27 01:00:43.80	241.97	14.62	-42.2	-47.0	10.5	5.03e-03	0	62	0	876609536	55	6429
2026-01-27 01:00:44.81	241.86	14.52	-42.2	-46.8	10.5	3.79e-03	0	62	0	878706688	55	6342
2026-01-27 01:00:45.82	241.76	14.43	-42.2	-46.8	10.6	2.99e-03	0	62	0	880803840	55	6325
2026-01-27 01:00:46.83	241.65	14.34	-42.2	-46.8	10.6	4.23e-03	0	62	0	881852416	55	6308
2026-01-27 01:00:47.84	241.55	14.25	-42.2	-46.9	10.5	3.40e-03	0	62	0	883949568	55	6384
2026-01-27 01:00:48.85	241.44	14.16	-42.2	-46.8	10.5	4.66e-03	0	62	0	886046720	55	6328
2026-01-27 01:00:49.86	241.34	14.07	-42.1	-46.7	10.7	2.89e-03	0	62	0	888143872	55	6224
2026-01-27 01:00:50.87	241.24	13.98	-42.1	-46.8	10.6	2.81e-03	0	62	0	890241024	55	6293
2026-01-27 01:00:51.88	241.14	13.89	-42.0	-46.6	10.8	2.78e-03	0	62	0	891289600	55	6167
2026-01-27 01:00:52.89	241.04	13.80	-42.1	-46.7	10.7	2.84e-03	0	62	0	893386752	55	6211
2026-01-27 01:00:53.90	240.94	13.71	-42.1	-46.8	10.6	3.62e-03	0	62	0	895483904	55	6328
2026-01-27 01:00:54.91	240.84	13.62	-42.1	-46.8	10.6	3.77e-03	0	62	0	897581056	55	6310
2026-01-27 01:00:55.92	240.74	13.53	-42.2	-47.0	10.4	3.65e-03	0	62	0	899678208	55	6427
2026-01-27 01:00:56.93	240.64	13.44	-42.2	-46.9	10.4	4.60e-03	0	62	0	900726784	55	6405
2026-01-27 01:00:57.94	240.54	13.35	-42.3	-47.1	10.3	5.46e-03	0	62	0	902823936	55	6518
2026-01-27 01:00:58.95	240.44	13.26	-42.2	-47.0	10.4	5.92e-03	0	62	0	904921088	55	6431
2026-01-27 01:00:59.96	240.35	13.17	-42.3	-47.1	10.2	5.76e-03	0	62	0	907018240	55	6563
2026-01-27 01:01:00.97	240.25	13.09	-42.2	-47.0	10.3	6.07e-03	0	62	0	909115392	55	6439
2026-01-27 01:01:01.98	240.16	13.00	-42.3	-47.1	10.2	5.96e-03	0	62	0	910163968	55	6549
2026-01-27 01:01:02.99	240.06	12.91	-42.2	-47.1	10.2	6.18e-03	0	62	0	912261120	55	6529
2026-01-27 01:01:04.00	239.97	12.82	-42.3	-47.2	10.1	6.43e-03	0	62	0	914358272	55	6601
2026-01-27 01:01:05.01	239.87	12.74	-42.3	-47.1	10.2	6.83e-03	0	62	0	916455424	55	6568
2026-01-27 01:01:06.02	239.78	12.65	-42.2	-47.0	10.3	5.56e-03	0	62	0	918552576	55	6439
2026-01-27 01:01:07.03	239.69	12.56	-42.2	-46.9	10.3	4.70e-03	0	62	0	920649728	55	6417
2026-01-27 01:01:08.04	239.59	12.48	-42.1	-46.7	10.6	3.67e-03	0	62	0	921698304	55	6241
2026-01-27 01:01:09.04	239.50	12.39	-42.1	-46.7	10.6	2.75e-03	0	62	0	923795456	55	6207
2026-01-27 01:01:10.05	239.41	12.30	-41.9	-46.3	11.0	2.10e-03	0	62	0	925892608	55	5983
2026-01-27 01:01:11.07	239.32	12.22	-41.9	-46.2	11.1	1.58e-03	0	62	0	927989760	55	5900
2026-01-27 01:01:12.08	239.23	12.13	-41.8	-46.1	11.2	1.38e-03	0	62	0	930086912	55	5821
2026-01-27 01:01:13.09	239.14	12.05	-41.7	-45.9	11.4	1.04e-03	0	62	0	931135488	55	5707
2026-01-27 01:01:14.10	239.05	11.96	-41.8	-46.0	11.3	9.76e-04	0	62	0	933232640	55	5748
2026-01-27 01:01:15.11	238.97	11.88	-41.8	-46.0	11.3	1.16e-03	0	62	0	935329792	55	5766
2026-01-27 01:01:16.12	238.88	11.79	-41.8	-46.1	11.2	1.39e-03	0	62	0	937426944	55	5805
2026-01-27 01:01:17.12	238.79	11.71	-41.8	-46.3	11.0	1.68e-03	0	62	0	939524096	55	5928
2026-01-27 01:01:18.13	238.70	11.62	-41.9	-46.5	10.7	1.98e-03	0	62	0	940572672	55	6101
2026-01-27 01:01:19.14	238.62	11.54	-42.1	-46.8	10.4	3.31e-03	0	62	0	942669824	55	6331
2026-01-27 01:01:20.15	238.53	11.46	-42.1	-47.0	10.2	6.19e-03	0	62	0	944766976	55	6447
2026-01-27 01:01:21.16	238.45	11.37	-42.3	-47.4	9.8	8.40e-03	0	62	0	946864128	55	6772
2026-01-27 01:01:22.17	238.36	11.29	-42.4	-47.6	9.5	1.23e-02	0	62	0	948961280	55	6928
2026-01-27 01:01:23.19	238.28	11.21	-42.5	-48.1	9.1	1.78e-02	0	62	0	950009856	55	7315
2026-01-27 01:01:24.20	238.19	11.12	-42.6	-48.3	8.8	2.55e-02	0	62	0	952107008	55	7517
2026-01-27 01:01:25.21	238.11	11.04	-42.7	-48.6	8.5	2.94e-02	0	62	0	954204160	55	7780
2026-01-27 01:01:26.22	238.03	10.96	-42.8	-48.9	8.4	4.94e-02	0	62	0	956301312	56	7602
2026-01-27 01:01:27.23	237.95	10.88	-42.9	-49.1	8.2	5.28e-02	0	62	0	958398464	56	7769
2026-01-27 01:01:28.24	237.86	10.79	-43.0	-49.4	7.9	6.56e-02	0	62	0	959447040	56	8078
2026-01-27 01:01:29.24	237.78	10.71	-42.9	-49.2	8.1	6.17e-02	0	62	0	961544192	56	7867
2026-01-27 01:01:30.25	237.70	10.63	-42.9	-49.2	8.1	7.12e-02	0	62	0	963641344	56	7817
2026-01-27 01:01:31.27	237.62	10.55	-42.9	-49.0	8.3	5.95e-02	0	62	0	965738496	56	7676
2026-01-27 01:01:32.28	237.54	10.47	-42.8	-48.8	8.4	5.09e-02	0	62	0	967835648	56	7534
2026-01-27 01:01:33.28	237.46	10.39	-42.8	-48.7	8.5	4.69e-02	0	62	0	968884224	56	7443
2026-01-27 01:01:34.30	237.38	10.31	-42.7	-48.6	8.6	4.52e-02	0	62	0	970981376	56	7354
2026-01-27 01:01:35.31	237.30	10.23	-42.7	-48.5	8.7	3.82e-02	0	62	0	973078528	56	7264
2026-01-27 01:01:36.32	237.23	10.15	-42.7	-48.4	8.9	3.25e-02	0	62	0	975175680	56	7144
2026-01-27 01:01:37.33	237.15	10.07	-42.6	-48.3	9.0	3.15e-02	0	62	0	977272832	56	7060
2026-01-27 01:01:38.34	237.07	9.99	-42.6	-48.2	9.1	2.60e-02	0	62	0	978321408	56	7013
2026-01-27 01:01:39.35	236.99	9.91	-42.6	-48.2	9.0	2.61e-02	0	62	0	980418560	56	7031
2026-01-27 01:01:40.36	236.92	9.83	-42.6	-48.3	9.0	2.48e-02	0	62	0	982515712	56	7044
2026-01-27 01:01:41.37	236.84	9.75	-42.6	-48.3	8.9	2.58e-02	0	62	0	984612864	56	7085
2026-01-27 01:01:42.38	236.77	9.67	-42.6	-48.1	9.1	2.55e-02	0	62	0	986710016	56	6917
2026-01-27 01:01:43.39	236.69	9.59	-42.4	-47.8	9.4	2.22e-02	0	62	0	988807168	56	6697
2026-01-27 01:01:44.40	236.62	9.51	-42.4	-47.7	9.6	1.47e-02	0	62	0	989855744	56	6586
2026-01-27 01:01:45.41	236.54	9.43	-42.5	-47.9	9.3	1.56e-02	0	62	0	991952896	56	6758
