passes_logs/2026/01/27/R2.0S_Moscow/R2.0S_Moscow__20260127_014648_FENGYUN_3D_rec.log

#Pass ID: 20260127_014648_FENGYUN 3D
#Satellite: FENGYUN 3D
#Configuration: FENGYUN 3D
#almurnet v.1.7.20251203
#Start time: 2026-01-27 01:46:50

#Version: 2.2.20231116
#Station: R2.0S_Moscow
#Location: 37.707566 lon 55.798166 lat
#TLE: 1 43010U 17072A   26026.49129444  .00000151  00000+0  93391-4 0  9993
#TLE: 2 43010  98.9962 358.4866 0002525  88.1664 271.9801 14.19700337424889

#Time	Az	El	Level	Level2	SNR	BER	BlckErr	Temp	State	Recorded	gain1	gain2
2026-01-27 01:46:50.46	16.59	2.13	-42.4	-54.1	3.8	8.46e-01	0	53	0	0	56	13757
2026-01-27 01:46:51.47	16.59	2.19	-42.4	-54.1	3.8	8.46e-01	0	53	104	0	56	13743
2026-01-27 01:46:52.48	16.59	2.26	-42.5	-54.1	3.8	8.46e-01	0	53	104	0	56	13756
2026-01-27 01:46:53.49	16.60	2.32	-42.4	-54.1	3.8	8.47e-01	0	53	104	0	56	13749
2026-01-27 01:46:54.50	16.60	2.39	-42.4	-54.0	3.8	8.45e-01	0	53	104	0	56	13709
2026-01-27 01:46:55.51	16.61	2.46	-42.4	-54.1	3.8	8.46e-01	0	53	104	0	56	13767
2026-01-27 01:46:56.52	16.61	2.52	-42.4	-54.1	3.8	8.45e-01	0	53	104	0	56	13741
2026-01-27 01:46:57.53	16.61	2.59	-42.4	-54.1	3.8	8.45e-01	0	54	104	0	56	13743
2026-01-27 01:46:58.54	16.62	2.65	-42.4	-54.1	3.8	8.46e-01	0	54	104	0	56	13731
2026-01-27 01:46:59.55	16.62	2.72	-42.4	-54.0	3.8	8.46e-01	0	54	104	0	56	13713
2026-01-27 01:47:00.56	16.63	2.78	-42.4	-54.1	3.8	8.46e-01	0	54	104	0	56	13732
2026-01-27 01:47:01.57	16.63	2.85	-42.4	-54.0	3.8	8.45e-01	0	54	104	0	56	13709
2026-01-27 01:47:02.58	16.63	2.92	-42.4	-54.0	3.8	8.47e-01	0	54	104	0	56	13704
2026-01-27 01:47:03.59	16.64	2.98	-42.4	-54.0	3.8	8.45e-01	0	54	104	0	56	13706
2026-01-27 01:47:04.60	16.64	3.05	-42.4	-54.0	3.8	8.46e-01	0	54	104	0	56	13691
2026-01-27 01:47:05.61	16.64	3.12	-42.4	-54.1	3.8	8.46e-01	0	54	104	0	56	13734
2026-01-27 01:47:06.62	16.65	3.18	-42.4	-54.0	3.8	8.47e-01	0	54	104	0	56	13726
2026-01-27 01:47:07.63	16.65	3.25	-42.4	-54.1	3.8	8.46e-01	0	54	104	0	56	13732
2026-01-27 01:47:08.64	16.66	3.32	-42.4	-54.0	3.8	8.45e-01	0	54	104	0	56	13676
2026-01-27 01:47:09.65	16.66	3.39	-42.4	-54.0	3.8	8.47e-01	0	54	104	0	56	13659
2026-01-27 01:47:10.66	16.66	3.45	-42.4	-54.0	3.8	8.47e-01	0	54	104	0	56	13668
2026-01-27 01:47:11.67	16.67	3.52	-42.4	-54.0	3.8	8.47e-01	0	54	104	0	56	13672
2026-01-27 01:47:12.68	16.67	3.59	-42.4	-54.0	3.8	8.46e-01	0	54	104	0	56	13694
2026-01-27 01:47:13.69	16.68	3.66	-42.4	-54.0	3.8	8.47e-01	0	55	104	0	56	13697
2026-01-27 01:47:14.70	16.68	3.73	-42.4	-54.0	3.8	8.46e-01	0	55	104	0	56	13689
2026-01-27 01:47:15.71	16.68	3.80	-42.4	-54.0	3.8	8.46e-01	0	55	104	0	56	13714
2026-01-27 01:47:16.73	16.69	3.87	-42.4	-54.0	3.8	8.45e-01	0	55	104	0	56	13653
2026-01-27 01:47:17.74	16.69	3.93	-42.4	-54.0	3.8	8.45e-01	0	55	104	0	56	13637
2026-01-27 01:47:18.75	16.69	4.00	-42.4	-54.0	3.8	8.46e-01	0	55	104	0	56	13686
2026-01-27 01:47:19.76	16.70	4.07	-42.4	-54.0	3.8	8.47e-01	0	55	104	0	56	13648
2026-01-27 01:47:20.77	16.70	4.14	-42.4	-54.0	3.8	8.46e-01	0	55	104	0	56	13676
2026-01-27 01:47:21.78	16.71	4.21	-42.4	-54.0	3.8	8.47e-01	0	55	104	0	56	13694
2026-01-27 01:47:22.79	16.71	4.28	-42.4	-54.0	3.8	8.46e-01	0	55	104	0	56	13680
2026-01-27 01:47:23.80	16.71	4.35	-42.4	-54.0	3.8	8.47e-01	0	55	104	0	56	13694
2026-01-27 01:47:24.81	16.72	4.42	-42.4	-54.0	3.8	8.48e-01	0	55	104	0	56	13680
2026-01-27 01:47:25.82	16.72	4.49	-42.4	-54.0	3.8	8.45e-01	0	56	104	0	56	13660
2026-01-27 01:47:26.83	16.72	4.56	-42.4	-54.0	3.8	8.48e-01	0	55	104	0	56	13721
2026-01-27 01:47:27.84	16.73	4.63	-42.4	-54.0	3.8	8.45e-01	0	55	104	0	56	13704
2026-01-27 01:47:28.85	16.73	4.70	-42.4	-54.0	3.8	8.46e-01	0	55	104	0	56	13711
2026-01-27 01:47:29.86	16.74	4.78	-42.4	-54.0	3.8	8.45e-01	0	56	104	0	56	13639
2026-01-27 01:47:30.87	16.74	4.85	-42.4	-54.0	3.8	8.46e-01	0	56	104	0	56	13677
2026-01-27 01:47:31.88	16.74	4.92	-42.4	-54.0	3.8	8.47e-01	0	56	104	0	56	13695
2026-01-27 01:47:32.89	16.75	4.99	-42.4	-54.0	3.8	8.47e-01	0	56	104	0	56	13687
2026-01-27 01:47:33.90	16.75	5.06	-42.4	-54.0	3.8	8.46e-01	0	56	104	0	56	13668
2026-01-27 01:47:34.92	16.75	5.14	-42.4	-54.0	3.8	8.47e-01	0	56	104	0	56	13722
2026-01-27 01:47:35.93	16.76	5.21	-42.4	-54.0	3.8	8.47e-01	0	56	104	0	56	13661
2026-01-27 01:47:36.94	16.76	5.28	-42.4	-54.0	3.8	8.46e-01	0	56	104	0	56	13654
2026-01-27 01:47:37.95	16.77	5.35	-42.4	-54.0	3.8	8.46e-01	0	56	104	0	56	13625
2026-01-27 01:47:38.96	16.77	5.43	-42.4	-54.0	3.8	8.47e-01	0	56	104	0	56	13597
2026-01-27 01:47:39.97	16.77	5.50	-42.4	-53.9	3.8	8.47e-01	0	56	104	0	56	13549
2026-01-27 01:47:40.98	16.78	5.57	-42.4	-54.0	3.8	8.45e-01	0	56	104	0	56	13637
2026-01-27 01:47:41.99	16.78	5.65	-42.4	-54.0	3.8	8.47e-01	0	56	104	0	56	13639
2026-01-27 01:47:43.00	16.78	5.72	-42.4	-54.0	3.8	8.46e-01	0	56	104	0	56	13610
2026-01-27 01:47:44.01	16.79	5.79	-42.4	-53.9	3.8	8.46e-01	0	56	104	0	56	13565
2026-01-27 01:47:45.02	16.79	5.87	-42.4	-53.9	3.8	8.47e-01	0	56	104	0	56	13538
2026-01-27 01:47:46.03	16.79	5.94	-42.4	-53.9	3.8	8.48e-01	0	56	104	0	56	13517
2026-01-27 01:47:47.04	16.80	6.02	-42.4	-54.0	3.8	8.46e-01	0	56	104	0	56	13630
2026-01-27 01:47:48.06	16.80	6.09	-42.4	-54.0	3.8	8.46e-01	0	57	104	0	56	13601
2026-01-27 01:47:49.07	16.81	6.17	-42.4	-54.0	3.8	8.46e-01	0	57	104	0	56	13638
2026-01-27 01:47:50.08	16.81	6.24	-42.4	-54.0	3.8	8.47e-01	0	57	104	0	56	13658
2026-01-27 01:47:51.09	16.81	6.32	-42.4	-54.0	3.8	8.47e-01	0	57	104	0	56	13619
2026-01-27 01:47:52.10	16.82	6.39	-42.4	-54.0	3.8	8.48e-01	0	57	104	0	56	13605
2026-01-27 01:47:53.11	16.82	6.47	-42.4	-53.9	3.8	8.46e-01	0	57	104	0	56	13538
2026-01-27 01:47:54.12	16.82	6.55	-42.4	-53.9	3.8	8.45e-01	0	57	104	0	56	13482
2026-01-27 01:47:55.13	16.83	6.62	-42.4	-53.9	3.8	8.46e-01	0	57	104	0	56	13523
2026-01-27 01:47:56.14	16.83	6.70	-42.4	-53.9	3.8	8.46e-01	0	57	104	0	56	13420
2026-01-27 01:47:57.15	16.84	6.78	-42.4	-53.8	3.8	8.44e-01	0	57	104	0	56	13271
2026-01-27 01:47:58.16	16.84	6.85	-42.3	-53.5	3.8	8.47e-01	0	57	104	0	56	12903
2026-01-27 01:47:59.18	16.84	6.93	-42.3	-53.2	3.8	8.45e-01	0	57	104	0	56	12442
2026-01-27 01:48:00.18	16.85	7.01	-42.3	-52.8	3.8	8.47e-01	0	57	104	0	56	11929
2026-01-27 01:48:01.20	16.85	7.09	-42.2	-52.3	3.8	8.46e-01	0	57	104	0	56	11243
2026-01-27 01:48:02.21	16.85	7.16	-42.1	-51.7	4.0	8.45e-01	0	57	104	0	56	10528
2026-01-27 01:48:03.22	16.86	7.24	-42.0	-50.8	4.1	8.42e-01	0	57	0	0	56	9421
2026-01-27 01:48:04.23	16.86	7.32	-41.7	-49.6	4.4	8.31e-01	0	57	0	0	55	8755
2026-01-27 01:48:05.24	16.86	7.40	-41.5	-48.7	4.8	8.13e-01	0	57	0	0	55	7853
2026-01-27 01:48:06.25	16.87	7.48	-41.2	-47.6	5.4	7.36e-01	0	57	0	0	54	7369
2026-01-27 01:48:07.26	16.87	7.56	-40.9	-46.5	6.2	3.71e-01	0	57	0	3145728	53	6803
2026-01-27 01:48:08.27	16.88	7.64	-40.4	-45.2	7.4	1.55e-01	0	57	0	9437184	52	6220
2026-01-27 01:48:09.28	16.88	7.72	-40.0	-44.0	8.6	6.30e-02	0	58	0	14680064	51	5743
2026-01-27 01:48:10.29	16.88	7.80	-39.4	-42.9	9.8	2.39e-02	0	57	0	20971520	50	5355
2026-01-27 01:48:11.30	16.89	7.88	-38.9	-42.0	10.7	5.29e-03	0	57	0	26214400	49	5138
2026-01-27 01:48:12.31	16.89	7.96	-38.5	-41.3	11.4	2.01e-03	0	58	0	31457280	49	4755
2026-01-27 01:48:13.32	16.89	8.04	-38.5	-41.2	11.7	1.14e-03	0	58	0	37748736	48	4957
2026-01-27 01:48:14.33	16.90	8.12	-40.5	-44.4	8.8	3.98e-02	0	58	0	42991616	52	5687
2026-01-27 01:48:15.35	16.90	8.20	-40.7	-45.8	6.7	7.99e-01	0	58	0	46137344	53	6297
2026-01-27 01:48:16.36	16.90	8.28	-39.7	-42.9	10.3	1.30e-02	0	58	0	51380224	50	5383
2026-01-27 01:48:17.36	16.91	8.36	-39.4	-42.3	11.3	3.23e-02	0	58	0	57671680	50	4989
2026-01-27 01:48:18.37	16.91	8.45	-41.1	-47.4	5.3	8.44e-01	0	58	104	59768832	53	7590
2026-01-27 01:48:19.38	16.91	8.53	-39.0	-41.6	11.9	5.21e-04	0	58	0	63963136	49	4919
2026-01-27 01:48:20.39	16.92	8.61	-38.8	-41.3	12.3	3.68e-04	0	58	0	70254592	49	4748
2026-01-27 01:48:21.40	16.92	8.69	-38.8	-41.2	12.4	2.05e-04	0	58	0	75497472	49	4692
2026-01-27 01:48:22.41	16.92	8.78	-38.8	-41.3	12.4	2.10e-04	0	58	0	80740352	49	4747
2026-01-27 01:48:23.42	16.93	8.86	-39.0	-41.6	12.1	3.80e-04	0	58	0	87031808	49	4883
2026-01-27 01:48:24.43	16.93	8.94	-38.6	-41.0	12.8	1.37e-04	0	58	0	92274688	49	4565
2026-01-27 01:48:25.44	16.94	9.03	-38.7	-41.1	12.7	9.04e-05	0	58	0	98566144	49	4613
2026-01-27 01:48:26.45	16.94	9.11	-39.1	-41.7	12.1	3.46e-04	0	58	0	103809024	49	4945
2026-01-27 01:48:27.47	16.94	9.20	-38.7	-41.1	12.7	2.13e-04	0	58	0	109051904	49	4648
2026-01-27 01:48:28.47	16.95	9.28	-39.0	-41.5	12.4	1.51e-04	0	58	0	115343360	49	4843
2026-01-27 01:48:29.49	16.95	9.37	-39.2	-41.7	12.2	5.12e-04	0	58	0	120586240	49	4960
2026-01-27 01:48:30.49	16.95	9.45	-38.9	-41.3	12.7	8.58e-05	0	58	0	126877696	49	4729
2026-01-27 01:48:31.50	16.96	9.54	-39.5	-42.2	11.8	5.31e-04	0	58	0	132120576	49	5231
2026-01-27 01:48:32.51	16.96	9.62	-38.8	-41.1	12.9	9.95e-05	0	58	0	138412032	49	4650
2026-01-27 01:48:33.52	16.96	9.71	-39.2	-41.7	12.3	1.86e-04	0	58	0	143654912	49	4975
2026-01-27 01:48:34.53	16.97	9.80	-39.0	-41.4	12.8	1.14e-04	0	58	0	149946368	49	4762
2026-01-27 01:48:35.54	16.97	9.88	-39.1	-41.6	12.5	1.54e-04	0	58	0	155189248	49	4887
2026-01-27 01:48:36.55	16.97	9.97	-38.9	-41.2	12.9	4.92e-05	0	59	0	160432128	49	4675
2026-01-27 01:48:37.56	16.98	10.06	-39.0	-41.4	12.7	1.06e-04	0	58	0	166723584	49	4806
2026-01-27 01:48:38.57	16.98	10.15	-39.0	-41.4	12.8	1.23e-04	0	58	0	171966464	49	4803
2026-01-27 01:48:39.58	16.98	10.23	-38.9	-41.3	12.8	6.98e-05	0	59	0	178257920	49	4743
2026-01-27 01:48:40.59	16.99	10.32	-39.0	-41.3	12.8	1.01e-04	0	59	0	183500800	49	4754
2026-01-27 01:48:41.60	16.99	10.41	-39.0	-41.3	12.9	1.04e-04	0	59	0	188743680	49	4741
2026-01-27 01:48:42.61	16.99	10.50	-38.9	-41.2	13.0	3.43e-05	0	58	0	195035136	49	4678
2026-01-27 01:48:43.62	17.00	10.59	-38.8	-41.1	13.2	5.03e-05	0	58	0	200278016	49	4625
2026-01-27 01:48:44.63	17.00	10.68	-38.8	-41.1	13.2	4.23e-05	0	59	0	206569472	49	4626
2026-01-27 01:48:45.64	17.00	10.77	-38.9	-41.3	13.0	5.60e-05	0	59	0	211812352	49	4711
2026-01-27 01:48:46.65	17.01	10.86	-38.8	-41.1	13.2	2.51e-05	0	59	0	217055232	49	4619
2026-01-27 01:48:47.66	17.01	10.95	-38.7	-40.8	13.5	1.94e-05	0	59	0	223346688	49	4493
2026-01-27 01:48:48.67	17.02	11.04	-38.7	-40.9	13.4	3.89e-05	0	59	0	228589568	49	4531
2026-01-27 01:48:49.68	17.02	11.13	-38.8	-41.0	13.3	2.74e-05	0	59	0	234881024	49	4597
2026-01-27 01:48:50.69	17.02	11.22	-38.8	-41.0	13.4	2.17e-05	0	59	0	240123904	49	4568
2026-01-27 01:48:51.70	17.03	11.32	-38.8	-41.1	13.4	3.54e-05	0	59	0	246415360	49	4600
2026-01-27 01:48:52.71	17.03	11.41	-38.9	-41.1	13.3	3.31e-05	0	59	0	251658240	49	4620
2026-01-27 01:48:53.72	17.03	11.50	-38.8	-41.0	13.5	3.08e-05	0	59	0	257949696	49	4563
2026-01-27 01:48:54.73	17.04	11.59	-38.8	-40.9	13.5	1.71e-05	0	59	0	263192576	49	4543
2026-01-27 01:48:55.74	17.04	11.69	-38.8	-41.0	13.5	1.25e-05	0	59	0	268435456	49	4550
2026-01-27 01:48:56.75	17.04	11.78	-38.8	-40.9	13.5	2.05e-05	0	59	0	274726912	49	4536
2026-01-27 01:48:57.76	17.05	11.88	-38.7	-40.8	13.7	1.02e-05	0	59	0	279969792	49	4471
2026-01-27 01:48:58.77	17.05	11.97	-38.6	-40.8	13.8	9.10e-06	0	59	0	286261248	49	4442
2026-01-27 01:48:59.78	17.05	12.07	-38.6	-40.7	13.8	1.02e-05	0	59	0	291504128	49	4434
2026-01-27 01:49:00.79	17.06	12.16	-38.6	-40.7	13.8	1.02e-05	0	59	0	296747008	49	4417
2026-01-27 01:49:01.80	17.06	12.26	-38.6	-40.7	13.8	5.70e-06	0	59	0	303038464	49	4441
2026-01-27 01:49:02.82	17.06	12.35	-38.6	-40.7	13.8	1.37e-05	0	59	0	308281344	49	4431
2026-01-27 01:49:03.82	17.07	12.45	-38.6	-40.8	13.8	8.00e-06	0	59	0	314572800	49	4447
2026-01-27 01:49:04.83	17.07	12.55	-38.6	-40.7	13.9	6.80e-06	0	59	0	319815680	49	4396
2026-01-27 01:49:05.85	17.07	12.65	-38.6	-40.7	13.9	9.10e-06	0	59	0	325058560	49	4423
2026-01-27 01:49:06.86	17.08	12.74	-38.5	-40.6	14.0	3.40e-06	0	59	0	331350016	49	4387
2026-01-27 01:49:07.86	17.08	12.84	-38.5	-40.6	14.0	9.10e-06	0	59	0	336592896	49	4379
2026-01-27 01:49:08.87	17.08	12.94	-38.5	-40.6	14.0	2.20e-06	0	59	0	342884352	49	4370
2026-01-27 01:49:09.88	17.09	13.04	-38.5	-40.6	13.9	2.20e-06	0	59	0	348127232	49	4377
2026-01-27 01:49:10.89	17.09	13.14	-38.6	-40.6	13.9	5.70e-06	0	59	0	354418688	49	4389
2026-01-27 01:49:11.90	17.09	13.24	-38.6	-40.7	13.9	4.50e-06	0	59	0	359661568	49	4409
2026-01-27 01:49:12.91	17.10	13.34	-38.5	-40.6	14.0	4.50e-06	0	59	0	365953024	49	4362
2026-01-27 01:49:13.92	17.10	13.44	-38.5	-40.6	14.0	4.50e-06	0	59	0	371195904	48	4609
2026-01-27 01:49:14.93	17.10	13.54	-38.4	-40.5	14.1	3.40e-06	0	59	0	376438784	48	4560
2026-01-27 01:49:15.94	17.11	13.64	-38.4	-40.4	14.3	2.20e-06	0	59	0	382730240	48	4501
2026-01-27 01:49:16.95	17.11	13.74	-38.5	-40.5	14.1	3.40e-06	0	60	0	387973120	48	4571
2026-01-27 01:49:17.97	17.11	13.84	-38.5	-40.5	14.1	4.50e-06	0	59	0	394264576	48	4592
2026-01-27 01:49:18.98	17.11	13.95	-38.5	-40.5	14.2	3.40e-06	0	59	0	399507456	48	4571
2026-01-27 01:49:19.99	17.12	14.05	-38.3	-40.3	14.4	2.20e-06	0	59	0	404750336	48	4458
2026-01-27 01:49:21.00	17.12	14.15	-38.3	-40.3	14.4	0.00e+00	0	59	0	411041792	48	4471
2026-01-27 01:49:22.01	17.12	14.26	-38.3	-40.2	14.5	0.00e+00	0	60	0	416284672	48	4426
2026-01-27 01:49:23.02	17.13	14.36	-38.3	-40.2	14.5	0.00e+00	0	59	0	422576128	48	4432
2026-01-27 01:49:24.03	17.13	14.47	-38.2	-40.1	14.6	0.00e+00	0	60	0	427819008	48	4387
2026-01-27 01:49:25.04	17.13	14.57	-38.2	-40.1	14.7	0.00e+00	0	60	0	433061888	48	4370
2026-01-27 01:49:26.05	17.14	14.68	-38.2	-40.1	14.7	0.00e+00	0	59	0	439353344	48	4347
2026-01-27 01:49:27.06	17.14	14.78	-38.2	-40.1	14.7	2.20e-06	0	60	0	444596224	48	4365
2026-01-27 01:49:28.07	17.14	14.89	-38.2	-40.1	14.7	0.00e+00	0	60	0	450887680	48	4370
2026-01-27 01:49:29.08	17.15	15.00	-38.0	-39.9	14.9	1.10e-06	0	60	0	456130560	48	4277
2026-01-27 01:49:30.09	17.15	15.11	-38.1	-39.9	14.9	1.10e-06	0	60	0	462422016	48	4285
2026-01-27 01:49:31.10	17.15	15.21	-38.1	-40.0	14.9	0.00e+00	0	60	0	467664896	48	4296
2026-01-27 01:49:32.11	17.16	15.32	-38.0	-39.9	14.9	2.20e-06	0	60	0	473956352	48	4260
2026-01-27 01:49:33.12	17.16	15.43	-38.0	-39.9	14.9	0.00e+00	0	60	0	479199232	48	4268
2026-01-27 01:49:34.13	17.16	15.54	-38.0	-39.9	14.9	0.00e+00	0	60	0	484442112	48	4265
2026-01-27 01:49:35.14	17.17	15.65	-38.0	-39.9	14.9	0.00e+00	0	59	0	490733568	48	4261
2026-01-27 01:49:36.16	17.17	15.76	-38.0	-39.9	15.0	1.10e-06	0	60	0	495976448	48	4252
2026-01-27 01:49:37.17	17.17	15.87	-37.8	-39.6	15.1	0.00e+00	0	60	0	502267904	47	4350
2026-01-27 01:49:38.18	17.18	15.99	-37.8	-39.6	15.1	0.00e+00	0	60	0	507510784	47	4368
2026-01-27 01:49:39.19	17.18	16.10	-37.8	-39.7	15.1	0.00e+00	0	60	0	512753664	47	4392
2026-01-27 01:49:40.20	17.18	16.21	-37.7	-39.5	15.3	1.10e-06	0	60	0	519045120	47	4321
2026-01-27 01:49:41.21	17.18	16.32	-37.7	-39.5	15.2	0.00e+00	0	60	0	524288000	47	4329
2026-01-27 01:49:42.22	17.19	16.44	-37.7	-39.5	15.3	0.00e+00	0	60	0	530579456	47	4313
2026-01-27 01:49:43.23	17.19	16.55	-37.7	-39.5	15.2	0.00e+00	0	60	0	535822336	47	4314
2026-01-27 01:49:44.24	17.19	16.67	-37.7	-39.5	15.3	1.10e-06	0	60	0	541065216	47	4318
2026-01-27 01:49:45.25	17.20	16.78	-37.6	-39.4	15.3	0.00e+00	0	60	0	547356672	47	4278
2026-01-27 01:49:46.26	17.20	16.90	-37.6	-39.4	15.4	0.00e+00	0	60	0	552599552	47	4265
2026-01-27 01:49:47.28	17.20	17.02	-37.6	-39.4	15.4	0.00e+00	0	60	0	558891008	47	4251
2026-01-27 01:49:48.29	17.21	17.13	-37.6	-39.3	15.5	0.00e+00	0	60	0	564133888	47	4230
2026-01-27 01:49:49.30	17.21	17.25	-37.5	-39.3	15.5	0.00e+00	0	60	0	570425344	47	4223
2026-01-27 01:49:50.31	17.21	17.37	-37.5	-39.3	15.6	0.00e+00	0	60	0	575668224	47	4203
2026-01-27 01:49:51.32	17.21	17.49	-37.6	-39.3	15.6	0.00e+00	0	60	0	581959680	47	4220
2026-01-27 01:49:52.33	17.22	17.61	-37.5	-39.2	15.7	0.00e+00	0	60	0	587202560	47	4173
2026-01-27 01:49:53.34	17.22	17.73	-37.5	-39.2	15.7	0.00e+00	0	60	0	592445440	46	4420
2026-01-27 01:49:54.35	17.22	17.85	-37.4	-39.2	15.7	0.00e+00	0	60	0	598736896	46	4407
2026-01-27 01:49:55.36	17.23	17.97	-37.4	-39.1	15.8	0.00e+00	0	60	0	603979776	46	4342
2026-01-27 01:49:56.38	17.23	18.09	-37.3	-39.0	15.9	0.00e+00	0	60	0	610271232	46	4329
2026-01-27 01:49:57.39	17.23	18.21	-37.3	-39.0	15.9	0.00e+00	0	60	0	615514112	46	4335
2026-01-27 01:49:58.40	17.24	18.34	-37.3	-39.0	16.0	0.00e+00	0	60	0	620756992	46	4294
2026-01-27 01:49:59.41	17.24	18.46	-37.2	-38.9	16.0	0.00e+00	0	60	0	627048448	46	4273
2026-01-27 01:50:00.42	17.24	18.58	-37.2	-38.8	16.1	0.00e+00	0	60	0	632291328	46	4216
2026-01-27 01:50:01.43	17.24	18.71	-37.0	-38.6	16.3	0.00e+00	0	60	0	638582784	46	4139
2026-01-27 01:50:02.44	17.25	18.83	-37.0	-38.6	16.4	0.00e+00	0	60	0	643825664	45	4341
2026-01-27 01:50:03.44	17.25	18.96	-37.0	-38.6	16.3	0.00e+00	0	60	0	649068544	45	4365
2026-01-27 01:50:04.46	17.25	19.09	-36.9	-38.5	16.5	0.00e+00	0	60	0	655360000	45	4316
2026-01-27 01:50:05.47	17.26	19.21	-36.9	-38.5	16.5	0.00e+00	0	60	0	660602880	45	4307
2026-01-27 01:50:06.48	17.26	19.34	-36.8	-38.4	16.6	0.00e+00	0	60	0	666894336	45	4267
2026-01-27 01:50:07.49	17.26	19.47	-36.9	-38.4	16.6	0.00e+00	0	60	0	672137216	45	4273
2026-01-27 01:50:08.50	17.26	19.60	-36.9	-38.4	16.6	0.00e+00	0	60	0	678428672	45	4286
2026-01-27 01:50:09.51	17.27	19.73	-36.8	-38.3	16.7	0.00e+00	0	60	0	683671552	45	4222
2026-01-27 01:50:10.52	17.27	19.86	-36.7	-38.2	16.8	0.00e+00	0	60	0	689963008	45	4169
2026-01-27 01:50:11.53	17.27	19.99	-36.7	-38.2	16.8	0.00e+00	0	60	0	695205888	45	4183
2026-01-27 01:50:12.54	17.28	20.12	-36.7	-38.3	16.7	0.00e+00	0	61	0	700448768	45	4209
2026-01-27 01:50:13.55	17.28	20.26	-36.8	-38.3	16.7	0.00e+00	0	60	0	706740224	45	4236
2026-01-27 01:50:14.56	17.28	20.39	-36.7	-38.3	16.7	0.00e+00	0	60	0	711983104	45	4198
2026-01-27 01:50:15.57	17.28	20.53	-36.6	-38.1	16.9	0.00e+00	0	60	0	718274560	45	4144
2026-01-27 01:50:16.58	17.29	20.66	-36.6	-38.1	16.9	0.00e+00	0	60	0	723517440	45	4118
2026-01-27 01:50:17.59	17.29	20.80	-36.6	-38.2	16.8	0.00e+00	0	60	0	728760320	45	4156
2026-01-27 01:50:18.60	17.29	20.93	-36.6	-38.1	16.9	0.00e+00	0	61	0	735051776	45	4106
2026-01-27 01:50:19.61	17.30	21.07	-36.5	-38.0	17.0	0.00e+00	0	60	0	740294656	45	4097
2026-01-27 01:50:20.62	17.30	21.21	-36.5	-38.0	17.0	0.00e+00	0	60	0	746586112	45	4073
2026-01-27 01:50:21.63	17.30	21.35	-36.5	-38.0	17.0	0.00e+00	0	60	0	751828992	45	4092
2026-01-27 01:50:22.64	17.30	21.49	-36.5	-38.0	17.0	0.00e+00	0	61	0	757071872	45	4084
2026-01-27 01:50:23.65	17.31	21.63	-36.6	-38.1	16.9	0.00e+00	0	60	0	763363328	45	4112
2026-01-27 01:50:24.67	17.31	21.77	-36.6	-38.1	16.9	0.00e+00	0	60	0	768606208	45	4106
2026-01-27 01:50:25.68	17.31	21.91	-36.6	-38.1	16.9	0.00e+00	0	60	0	774897664	45	4127
2026-01-27 01:50:26.69	17.31	22.05	-36.6	-38.2	16.9	0.00e+00	0	60	0	780140544	45	4146
2026-01-27 01:50:27.70	17.32	22.20	-36.5	-38.1	17.0	0.00e+00	0	61	0	786432000	45	4100
2026-01-27 01:50:28.71	17.32	22.34	-36.5	-38.0	17.0	0.00e+00	0	61	0	791674880	45	4091
2026-01-27 01:50:29.72	17.32	22.49	-36.5	-38.0	17.0	0.00e+00	0	61	0	797966336	45	4090
2026-01-27 01:50:30.73	17.32	22.63	-36.5	-38.0	17.1	0.00e+00	0	61	0	803209216	44	4299
2026-01-27 01:50:31.74	17.33	22.78	-36.5	-38.0	17.1	0.00e+00	0	61	0	808452096	44	4308
2026-01-27 01:50:32.75	17.33	22.93	-36.4	-37.9	17.2	0.00e+00	0	61	0	814743552	44	4266
2026-01-27 01:50:33.76	17.33	23.08	-36.4	-37.9	17.1	0.00e+00	0	60	0	819986432	44	4285
2026-01-27 01:50:34.77	17.33	23.23	-36.3	-37.8	17.3	0.00e+00	0	61	0	826277888	44	4205
2026-01-27 01:50:35.78	17.34	23.38	-36.3	-37.7	17.3	0.00e+00	0	61	0	831520768	44	4180
2026-01-27 01:50:36.79	17.34	23.53	-36.2	-37.7	17.4	0.00e+00	0	61	0	836763648	44	4151
2026-01-27 01:50:37.79	17.34	23.68	-36.1	-37.6	17.5	0.00e+00	0	61	0	843055104	44	4108
2026-01-27 01:50:38.80	17.34	23.83	-36.2	-37.6	17.5	0.00e+00	0	61	0	848297984	44	4121
2026-01-27 01:50:39.81	17.35	23.98	-36.2	-37.6	17.4	0.00e+00	0	61	0	854589440	44	4139
2026-01-27 01:50:40.82	17.35	24.14	-36.1	-37.5	17.6	0.00e+00	0	60	0	859832320	44	4091
2026-01-27 01:50:41.83	17.35	24.29	-36.2	-37.6	17.5	0.00e+00	0	61	0	865075200	44	4117
2026-01-27 01:50:42.84	17.35	24.45	-36.2	-37.6	17.5	0.00e+00	0	61	0	871366656	44	4122
2026-01-27 01:50:43.85	17.36	24.61	-36.1	-37.6	17.5	0.00e+00	0	61	0	876609536	44	4109
2026-01-27 01:50:44.86	17.36	24.77	-36.1	-37.5	17.6	0.00e+00	0	61	0	882900992	44	4067
2026-01-27 01:50:45.87	17.36	24.93	-36.1	-37.5	17.6	0.00e+00	0	61	0	888143872	44	4076
2026-01-27 01:50:46.89	17.36	25.09	-36.1	-37.5	17.6	0.00e+00	0	61	0	894435328	44	4093
2026-01-27 01:50:47.90	17.37	25.25	-36.1	-37.6	17.5	0.00e+00	0	61	0	899678208	44	4109
2026-01-27 01:50:48.91	17.37	25.41	-36.0	-37.4	17.7	0.00e+00	0	61	0	905969664	44	4026
2026-01-27 01:50:49.92	17.37	25.58	-36.0	-37.4	17.7	0.00e+00	0	61	0	911212544	44	4047
2026-01-27 01:50:50.93	17.37	25.74	-36.0	-37.5	17.6	0.00e+00	0	61	0	916455424	44	4058
2026-01-27 01:50:51.94	17.38	25.91	-36.0	-37.5	17.7	0.00e+00	0	61	0	922746880	44	4057
2026-01-27 01:50:52.95	17.38	26.07	-36.1	-37.5	17.6	0.00e+00	0	61	0	927989760	44	4083
2026-01-27 01:50:53.96	17.38	26.24	-36.2	-37.7	17.5	0.00e+00	0	61	0	934281216	44	4152
2026-01-27 01:50:54.97	17.38	26.41	-36.1	-37.5	17.6	0.00e+00	0	61	0	939524096	44	4081
2026-01-27 01:50:55.99	17.38	26.58	-36.1	-37.5	17.6	0.00e+00	0	61	0	944766976	44	4069
2026-01-27 01:50:56.99	17.39	26.75	-36.2	-37.6	17.5	0.00e+00	0	61	0	951058432	44	4124
2026-01-27 01:50:58.00	17.39	26.92	-36.1	-37.5	17.6	0.00e+00	0	61	0	956301312	44	4091
2026-01-27 01:50:59.01	17.39	27.09	-36.0	-37.5	17.7	0.00e+00	0	61	0	962592768	44	4063
2026-01-27 01:51:00.03	17.39	27.27	-36.1	-37.5	17.6	0.00e+00	0	61	0	967835648	44	4095
2026-01-27 01:51:01.04	17.40	27.45	-36.0	-37.5	17.7	0.00e+00	0	61	0	973078528	44	4053
2026-01-27 01:51:02.05	17.40	27.62	-35.8	-37.2	17.8	0.00e+00	0	61	0	979369984	43	4151
2026-01-27 01:51:03.06	17.40	27.80	-35.5	-36.9	18.1	0.00e+00	0	61	0	984612864	43	4025
2026-01-27 01:51:04.07	17.40	27.98	-35.4	-36.8	18.2	0.00e+00	0	61	0	990904320	42	4222
2026-01-27 01:51:05.08	17.40	28.16	-35.5	-36.9	18.1	0.00e+00	0	61	0	996147200	42	4244
2026-01-27 01:51:06.09	17.41	28.34	-35.6	-36.9	18.0	0.00e+00	0	61	0	1002438656	42	4284
2026-01-27 01:51:07.10	17.41	28.52	-35.6	-36.9	18.1	0.00e+00	0	61	0	1007681536	42	4276
2026-01-27 01:51:08.11	17.41	28.70	-35.6	-37.0	18.0	0.00e+00	0	61	0	1013972992	42	4325
2026-01-27 01:51:09.12	17.41	28.89	-35.8	-37.2	17.8	0.00e+00	0	61	0	1019215872	42	4395
2026-01-27 01:51:10.13	17.41	29.07	-35.9	-37.3	17.7	0.00e+00	0	61	0	1024458752	42	4460
2026-01-27 01:51:11.14	17.42	29.26	-35.9	-37.4	17.6	0.00e+00	0	61	0	1030750208	42	4495
2026-01-27 01:51:12.15	17.42	29.45	-35.9	-37.3	17.7	0.00e+00	0	61	0	1035993088	42	4488
2026-01-27 01:51:13.17	17.42	29.64	-35.9	-37.4	17.7	0.00e+00	0	61	0	1042284544	42	4497
2026-01-27 01:51:14.18	17.42	29.83	-35.8	-37.2	17.8	0.00e+00	0	61	0	1047527424	42	4426
2026-01-27 01:51:15.19	17.42	30.02	-35.9	-37.3	17.7	0.00e+00	0	61	0	1052770304	42	4466
2026-01-27 01:51:16.20	17.42	30.22	-35.8	-37.3	17.8	0.00e+00	0	61	0	1059061760	42	4450
2026-01-27 01:51:17.21	17.43	30.41	-36.0	-37.4	17.6	0.00e+00	0	61	0	1064304640	42	4521
2026-01-27 01:51:18.22	17.43	30.61	-36.0	-37.4	17.7	0.00e+00	0	61	0	1070596096	42	4511
2026-01-27 01:51:19.23	17.43	30.81	-36.0	-37.4	17.6	0.00e+00	0	61	0	1075838976	42	4522
2026-01-27 01:51:20.24	17.43	31.01	-36.1	-37.5	17.6	0.00e+00	0	61	0	1081081856	42	4573
2026-01-27 01:51:21.25	17.43	31.21	-36.1	-37.5	17.6	0.00e+00	0	61	0	1087373312	42	4571
2026-01-27 01:51:22.26	17.43	31.41	-36.1	-37.5	17.5	0.00e+00	0	61	0	1092616192	42	4587
2026-01-27 01:51:23.27	17.44	31.61	-36.0	-37.5	17.6	0.00e+00	0	61	0	1098907648	42	4563
2026-01-27 01:51:24.28	17.44	31.82	-35.9	-37.3	17.7	0.00e+00	0	61	0	1104150528	42	4481
2026-01-27 01:51:25.29	17.44	32.02	-35.8	-37.2	17.8	0.00e+00	0	61	0	1110441984	42	4440
2026-01-27 01:51:26.31	17.44	32.23	-35.7	-37.0	18.0	0.00e+00	0	61	0	1115684864	42	4330
2026-01-27 01:51:27.32	17.44	32.44	-35.5	-36.9	18.2	0.00e+00	0	61	0	1121976320	42	4252
2026-01-27 01:51:28.33	17.44	32.65	-35.4	-36.7	18.3	0.00e+00	0	61	0	1127219200	42	4175
2026-01-27 01:51:29.34	17.44	32.86	-35.4	-36.7	18.4	0.00e+00	0	61	0	1132462080	42	4177
2026-01-27 01:51:30.35	17.45	33.07	-35.4	-36.7	18.3	0.00e+00	0	61	0	1138753536	42	4167
2026-01-27 01:51:31.36	17.45	33.29	-35.5	-36.8	18.3	0.00e+00	0	61	0	1143996416	42	4214
2026-01-27 01:51:32.37	17.45	33.51	-35.6	-37.0	18.1	0.00e+00	0	61	0	1150287872	42	4295
2026-01-27 01:51:33.38	17.45	33.72	-35.6	-37.0	18.1	0.00e+00	0	61	0	1155530752	42	4301
2026-01-27 01:51:34.39	17.45	33.94	-35.6	-37.0	18.0	0.00e+00	0	61	0	1160773632	42	4328
2026-01-27 01:51:35.40	17.45	34.16	-35.6	-37.0	18.1	0.00e+00	0	61	0	1167065088	42	4317
2026-01-27 01:51:36.41	17.45	34.39	-35.6	-37.0	18.1	0.00e+00	0	61	0	1172307968	42	4310
2026-01-27 01:51:37.42	17.45	34.61	-35.7	-37.0	18.0	0.00e+00	0	61	0	1178599424	42	4336
2026-01-27 01:51:38.43	17.46	34.84	-35.5	-36.9	18.2	0.00e+00	0	61	0	1183842304	42	4266
2026-01-27 01:51:39.44	17.46	35.06	-35.5	-36.9	18.2	0.00e+00	0	61	0	1189085184	42	4253
2026-01-27 01:51:40.45	17.46	35.29	-35.6	-37.0	18.1	0.00e+00	0	61	0	1195376640	42	4296
2026-01-27 01:51:41.46	17.46	35.52	-35.4	-36.8	18.3	0.00e+00	0	61	0	1200619520	42	4195
2026-01-27 01:51:42.47	17.46	35.76	-35.5	-36.9	18.2	0.00e+00	0	61	0	1206910976	42	4250
2026-01-27 01:51:43.48	17.46	35.99	-35.4	-36.8	18.3	0.00e+00	0	61	0	1212153856	42	4200
2026-01-27 01:51:44.49	17.46	36.23	-35.3	-36.7	18.4	0.00e+00	0	61	0	1218445312	42	4146
2026-01-27 01:51:45.50	17.46	36.47	-35.4	-36.7	18.4	0.00e+00	0	61	0	1223688192	42	4174
2026-01-27 01:51:46.51	17.46	36.71	-35.3	-36.6	18.5	0.00e+00	0	61	0	1229979648	42	4109
2026-01-27 01:51:47.52	17.46	36.95	-35.1	-36.4	18.7	0.00e+00	0	61	0	1235222528	42	4039
2026-01-27 01:51:48.53	17.46	37.19	-34.9	-36.2	18.9	0.00e+00	0	61	0	1240465408	41	4184
2026-01-27 01:51:49.54	17.47	37.43	-35.0	-36.3	18.8	0.00e+00	0	61	0	1246756864	41	4202
2026-01-27 01:51:50.55	17.47	37.68	-35.1	-36.4	18.7	0.00e+00	0	61	0	1251999744	41	4246
2026-01-27 01:51:51.56	17.47	37.93	-35.2	-36.5	18.6	0.00e+00	0	61	0	1258291200	41	4304
2026-01-27 01:51:52.57	17.47	38.18	-35.2	-36.5	18.5	0.00e+00	0	61	0	1263534080	41	4334
2026-01-27 01:51:53.58	17.47	38.43	-35.2	-36.5	18.5	0.00e+00	0	61	0	1268776960	41	4330
2026-01-27 01:51:54.59	17.47	38.69	-35.2	-36.5	18.6	0.00e+00	0	61	0	1275068416	41	4320
2026-01-27 01:51:55.60	17.47	38.94	-35.2	-36.5	18.6	0.00e+00	0	61	0	1280311296	41	4323
2026-01-27 01:51:56.61	17.47	39.20	-35.2	-36.5	18.6	0.00e+00	0	61	0	1286602752	41	4295
2026-01-27 01:51:57.62	17.47	39.46	-35.2	-36.5	18.6	0.00e+00	0	61	0	1291845632	41	4311
2026-01-27 01:51:58.63	17.47	39.72	-35.3	-36.6	18.4	0.00e+00	0	61	0	1297088512	41	4391
2026-01-27 01:51:59.64	17.47	39.99	-35.4	-36.7	18.4	0.00e+00	0	62	0	1303379968	41	4440
2026-01-27 01:52:00.65	17.47	40.25	-35.5	-36.8	18.3	0.00e+00	0	61	0	1308622848	41	4478
2026-01-27 01:52:01.66	17.47	40.52	-35.5	-36.9	18.2	0.00e+00	0	61	0	1314914304	41	4504
2026-01-27 01:52:02.67	17.47	40.79	-35.4	-36.8	18.3	0.00e+00	0	61	0	1320157184	41	4464
2026-01-27 01:52:03.68	17.47	41.06	-35.5	-36.8	18.2	0.00e+00	0	61	0	1326448640	41	4484
2026-01-27 01:52:04.69	17.47	41.34	-35.5	-36.8	18.3	0.00e+00	0	61	0	1331691520	41	4454
2026-01-27 01:52:05.70	17.47	41.61	-35.5	-36.9	18.2	0.00e+00	0	61	0	1336934400	41	4507
2026-01-27 01:52:06.71	17.47	41.89	-35.7	-37.0	18.1	0.00e+00	0	61	0	1343225856	41	4587
2026-01-27 01:52:07.72	17.47	42.17	-35.7	-37.1	18.1	0.00e+00	0	61	0	1348468736	42	4350
2026-01-27 01:52:08.73	17.47	42.46	-35.7	-37.1	18.0	0.00e+00	0	61	0	1354760192	42	4376
2026-01-27 01:52:09.74	17.47	42.74	-35.8	-37.2	17.9	0.00e+00	0	61	0	1360003072	42	4432
2026-01-27 01:52:10.75	17.47	43.03	-35.9	-37.3	17.8	0.00e+00	0	61	0	1365245952	42	4484
2026-01-27 01:52:11.76	17.46	43.32	-35.9	-37.2	17.9	0.00e+00	0	61	0	1371537408	42	4433
2026-01-27 01:52:12.77	17.46	43.61	-35.9	-37.2	17.9	0.00e+00	0	61	0	1376780288	42	4423
2026-01-27 01:52:13.78	17.46	43.90	-35.8	-37.2	18.0	0.00e+00	0	61	0	1383071744	42	4418
2026-01-27 01:52:14.79	17.46	44.20	-35.9	-37.3	17.9	0.00e+00	0	61	0	1388314624	42	4443
2026-01-27 01:52:15.80	17.46	44.50	-35.8	-37.2	18.0	0.00e+00	0	61	0	1393557504	42	4397
2026-01-27 01:52:16.81	17.46	44.80	-35.9	-37.3	17.9	0.00e+00	0	61	0	1399848960	42	4464
2026-01-27 01:52:17.82	17.46	45.10	-36.0	-37.4	17.8	0.00e+00	0	61	0	1405091840	42	4521
2026-01-27 01:52:18.83	17.46	45.40	-36.2	-37.7	17.5	0.00e+00	0	61	0	1411383296	43	4407
2026-01-27 01:52:19.84	17.46	45.71	-36.1	-37.6	17.6	0.00e+00	0	61	0	1416626176	43	4346
2026-01-27 01:52:20.85	17.45	46.02	-36.1	-37.5	17.7	0.00e+00	0	61	0	1422917632	43	4303
2026-01-27 01:52:21.87	17.45	46.34	-36.2	-37.6	17.5	0.00e+00	0	61	0	1428160512	43	4363
2026-01-27 01:52:22.88	17.45	46.65	-36.2	-37.6	17.5	0.00e+00	0	61	0	1434451968	43	4390
2026-01-27 01:52:23.89	17.45	46.97	-36.1	-37.5	17.7	0.00e+00	0	61	0	1439694848	43	4312
2026-01-27 01:52:24.90	17.45	47.29	-35.8	-37.3	17.6	0.00e+00	0	61	0	1444937728	43	4215
2026-01-27 01:52:25.91	17.44	47.61	-35.8	-37.3	17.6	0.00e+00	0	62	0	1451229184	43	4233
2026-01-27 01:52:26.92	17.44	47.94	-35.7	-37.3	17.7	0.00e+00	0	62	0	1456472064	43	4195
2026-01-27 01:52:27.93	17.44	48.26	-35.7	-37.2	17.7	0.00e+00	0	61	0	1462763520	43	4166
2026-01-27 01:52:28.94	17.44	48.59	-35.8	-37.2	17.7	0.00e+00	0	61	0	1468006400	43	4186
2026-01-27 01:52:29.95	17.44	48.92	-35.6	-37.1	17.9	0.00e+00	0	62	0	1473249280	43	4102
2026-01-27 01:52:30.96	17.43	49.26	-35.5	-36.9	18.0	0.00e+00	0	61	0	1479540736	42	4274
2026-01-27 01:52:31.97	17.43	49.59	-35.5	-36.9	18.0	0.00e+00	0	62	0	1484783616	42	4273
2026-01-27 01:52:32.98	17.43	49.93	-35.8	-37.3	17.7	0.00e+00	0	61	0	1491075072	42	4451
2026-01-27 01:52:33.99	17.42	50.28	-36.2	-37.8	17.2	0.00e+00	0	62	0	1496317952	42	4728
2026-01-27 01:52:35.00	17.42	50.62	-36.5	-38.2	16.7	0.00e+00	0	61	0	1501560832	43	4678
2026-01-27 01:52:36.01	17.42	50.97	-36.6	-38.2	16.7	0.00e+00	0	62	0	1507852288	43	4679
2026-01-27 01:52:37.02	17.41	51.32	-36.5	-38.1	16.8	0.00e+00	0	61	0	1513095168	43	4651
2026-01-27 01:52:38.04	17.41	51.67	-36.6	-38.2	16.7	0.00e+00	0	62	0	1519386624	43	4682
2026-01-27 01:52:39.05	17.40	52.03	-37.0	-38.7	16.4	0.00e+00	0	61	0	1524629504	44	4685
2026-01-27 01:52:40.06	17.40	52.39	-37.4	-39.1	16.0	0.00e+00	0	61	0	1530920960	45	4639
2026-01-27 01:52:41.07	17.40	52.75	-37.2	-38.9	16.2	0.00e+00	0	61	0	1536163840	45	4539
2026-01-27 01:52:42.08	17.39	53.11	-36.7	-38.3	16.8	0.00e+00	0	61	0	1542455296	45	4210
2026-01-27 01:52:43.09	17.39	53.48	-36.5	-38.0	17.0	0.00e+00	0	61	0	1547698176	44	4332
2026-01-27 01:52:44.10	17.38	53.85	-36.6	-38.2	16.9	0.00e+00	0	62	0	1552941056	44	4400
2026-01-27 01:52:45.11	17.38	54.22	-36.8	-38.5	16.6	0.00e+00	0	62	0	1559232512	44	4550
2026-01-27 01:52:46.12	17.37	54.59	-37.1	-38.8	16.4	0.00e+00	0	61	0	1564475392	44	4725
2026-01-27 01:52:47.13	17.36	54.97	-37.0	-38.7	16.4	0.00e+00	0	62	0	1570766848	44	4684
2026-01-27 01:52:48.14	17.36	55.35	-36.7	-38.3	16.7	0.00e+00	0	62	0	1576009728	44	4491
2026-01-27 01:52:49.16	17.35	55.73	-36.7	-38.3	16.8	0.00e+00	0	62	0	1581252608	44	4457
2026-01-27 01:52:50.17	17.35	56.12	-36.9	-38.6	16.5	0.00e+00	0	61	0	1587544064	44	4613
2026-01-27 01:52:51.18	17.34	56.50	-37.0	-38.8	16.4	0.00e+00	0	61	0	1592786944	44	4711
2026-01-27 01:52:52.19	17.33	56.89	-36.7	-38.3	16.8	0.00e+00	0	62	0	1599078400	44	4487
2026-01-27 01:52:53.20	17.32	57.29	-36.5	-38.1	16.9	0.00e+00	0	61	0	1604321280	44	4388
2026-01-27 01:52:54.21	17.32	57.68	-36.7	-38.3	16.7	0.00e+00	0	62	0	1610612736	44	4482
2026-01-27 01:52:55.22	17.31	58.08	-36.8	-38.4	16.6	0.00e+00	0	62	0	1615855616	44	4541
2026-01-27 01:52:56.23	17.30	58.48	-36.5	-38.1	17.0	0.00e+00	0	62	0	1621098496	44	4357
2026-01-27 01:52:57.24	17.29	58.89	-36.4	-37.9	17.1	0.00e+00	0	62	0	1627389952	44	4283
2026-01-27 01:52:58.25	17.28	59.29	-36.4	-37.9	17.1	0.00e+00	0	61	0	1632632832	44	4290
2026-01-27 01:52:59.26	17.27	59.70	-35.8	-37.3	17.6	0.00e+00	0	62	0	1638924288	43	4209
2026-01-27 01:53:00.27	17.26	60.11	-35.2	-36.6	18.3	0.00e+00	0	62	0	1644167168	42	4102
2026-01-27 01:53:01.28	17.25	60.53	-35.2	-36.6	18.3	0.00e+00	0	62	0	1650458624	42	4110
2026-01-27 01:53:02.30	17.24	60.95	-35.7	-37.2	17.7	0.00e+00	0	62	0	1655701504	42	4405
2026-01-27 01:53:03.31	17.23	61.37	-35.8	-37.3	17.6	0.00e+00	0	62	0	1661992960	42	4473
2026-01-27 01:53:04.32	17.22	61.79	-35.5	-36.9	18.0	0.00e+00	0	62	0	1667235840	42	4278
2026-01-27 01:53:05.33	17.20	62.22	-35.5	-36.9	18.0	0.00e+00	0	62	0	1672478720	42	4280
2026-01-27 01:53:06.34	17.19	62.65	-35.5	-37.0	17.9	0.00e+00	0	62	0	1678770176	42	4301
2026-01-27 01:53:07.35	17.18	63.08	-35.5	-36.9	17.9	0.00e+00	0	62	0	1684013056	42	4289
2026-01-27 01:53:08.36	17.16	63.51	-35.1	-36.5	18.3	0.00e+00	0	62	0	1690304512	42	4071
2026-01-27 01:53:09.37	17.15	63.95	-35.0	-36.4	18.4	0.00e+00	0	62	0	1695547392	41	4252
2026-01-27 01:53:10.38	17.13	64.39	-35.1	-36.5	18.2	0.00e+00	0	62	0	1700790272	41	4335
2026-01-27 01:53:11.39	17.11	64.83	-35.1	-36.5	18.3	0.00e+00	0	62	0	1707081728	41	4321
2026-01-27 01:53:12.40	17.10	65.27	-35.1	-36.5	18.3	0.00e+00	0	62	0	1712324608	41	4317
2026-01-27 01:53:13.41	17.08	65.72	-35.0	-36.4	18.3	0.00e+00	0	62	0	1718616064	41	4291
2026-01-27 01:53:14.42	17.06	66.17	-35.0	-36.4	18.4	0.00e+00	0	62	0	1723858944	41	4255
2026-01-27 01:53:15.44	17.04	66.63	-35.2	-36.6	18.2	0.00e+00	0	62	0	1729101824	41	4365
2026-01-27 01:53:16.44	17.02	67.08	-35.0	-36.4	18.3	0.00e+00	0	61	0	1735393280	41	4284
2026-01-27 01:53:17.46	17.00	67.54	-34.7	-36.1	18.6	0.00e+00	0	62	0	1740636160	41	4124
2026-01-27 01:53:18.47	16.97	68.00	-34.8	-36.2	18.5	0.00e+00	0	62	0	1746927616	41	4186
2026-01-27 01:53:19.48	16.95	68.46	-34.5	-35.8	18.8	0.00e+00	0	62	0	1752170496	41	3992
2026-01-27 01:53:20.49	16.92	68.92	-34.4	-35.7	19.0	0.00e+00	0	62	0	1758461952	40	4163
2026-01-27 01:53:21.50	16.89	69.39	-34.7	-36.1	18.6	0.00e+00	0	62	0	1763704832	40	4349
2026-01-27 01:53:22.51	16.87	69.86	-34.7	-36.1	18.6	0.00e+00	0	62	0	1769996288	40	4364
2026-01-27 01:53:23.52	16.83	70.33	-34.5	-35.8	18.8	0.00e+00	0	62	0	1775239168	40	4235
2026-01-27 01:53:24.53	16.80	70.80	-35.0	-36.4	18.3	0.00e+00	0	61	0	1780482048	40	4542
2026-01-27 01:53:25.54	16.77	71.28	-34.8	-36.2	18.5	0.00e+00	0	62	0	1786773504	40	4425
2026-01-27 01:53:26.55	16.73	71.76	-34.4	-35.8	18.8	0.00e+00	0	62	0	1792016384	40	4218
2026-01-27 01:53:27.55	16.69	72.23	-34.3	-35.7	18.9	0.00e+00	0	62	0	1797259264	40	4156
2026-01-27 01:53:28.56	16.65	72.71	-34.2	-35.5	19.1	0.00e+00	0	62	0	1803550720	40	4091
2026-01-27 01:53:29.58	16.61	73.20	-34.1	-35.5	19.1	0.00e+00	0	62	0	1808793600	40	4064
2026-01-27 01:53:30.58	16.56	73.69	-34.0	-35.2	19.4	0.00e+00	0	61	0	1815085056	39	4191
2026-01-27 01:53:31.59	16.51	74.17	-34.1	-35.4	19.2	0.00e+00	0	62	0	1820327936	39	4264
2026-01-27 01:53:32.60	16.46	74.66	-34.3	-35.6	19.0	0.00e+00	0	62	0	1825570816	39	4381
2026-01-27 01:53:33.61	16.40	75.16	-34.3	-35.7	18.9	0.00e+00	0	61	0	1831862272	39	4392
2026-01-27 01:53:34.62	16.34	75.65	-34.2	-35.5	19.0	0.00e+00	0	62	0	1837105152	39	4327
2026-01-27 01:53:35.63	16.27	76.15	-34.3	-35.7	18.9	0.00e+00	0	62	0	1843396608	39	4394
2026-01-27 01:53:36.64	16.20	76.64	-33.9	-35.2	19.4	0.00e+00	0	62	0	1848639488	39	4158
2026-01-27 01:53:37.65	16.12	77.14	-33.7	-35.0	19.5	0.00e+00	0	62	0	1854930944	39	4073
2026-01-27 01:53:38.66	16.03	77.64	-33.8	-35.2	19.3	0.00e+00	0	62	0	1860173824	39	4153
2026-01-27 01:53:39.67	15.94	78.15	-33.5	-34.8	19.7	0.00e+00	0	62	0	1866465280	39	3971
2026-01-27 01:53:40.68	15.84	78.65	-33.5	-34.8	19.7	0.00e+00	0	62	0	1871708160	38	4196
2026-01-27 01:53:41.69	15.72	79.16	-33.5	-34.8	19.7	0.00e+00	0	62	0	1876951040	38	4209
2026-01-27 01:53:42.71	15.60	79.67	-33.5	-34.8	19.6	0.00e+00	0	61	0	1883242496	38	4221
2026-01-27 01:53:43.72	15.46	80.18	-33.3	-34.6	19.8	0.00e+00	0	62	0	1888485376	38	4102
2026-01-27 01:53:44.73	15.31	80.69	-32.9	-34.1	20.3	0.00e+00	0	62	0	1894776832	37	4129
2026-01-27 01:53:45.74	15.14	81.20	-33.0	-34.3	20.1	0.00e+00	0	62	0	1900019712	37	4207
2026-01-27 01:53:46.75	14.94	81.71	-33.2	-34.5	19.9	0.00e+00	0	62	0	1905262592	37	4306
2026-01-27 01:53:47.76	14.72	82.22	-32.8	-34.0	20.3	0.00e+00	0	62	0	1911554048	37	4089
2026-01-27 01:53:48.77	14.47	82.73	-32.7	-33.9	20.5	0.00e+00	0	62	0	1916796928	37	4022
2026-01-27 01:53:49.78	14.18	83.25	-32.7	-33.9	20.5	0.00e+00	0	62	0	1923088384	37	4018
2026-01-27 01:53:50.79	13.84	83.76	-32.5	-33.7	20.6	0.00e+00	0	62	0	1928331264	37	3932
2026-01-27 01:53:51.80	13.44	84.28	-32.7	-33.9	20.4	0.00e+00	0	62	0	1933574144	37	4050
2026-01-27 01:53:52.81	12.96	84.80	-33.0	-34.3	20.1	0.00e+00	0	62	0	1939865600	37	4224
2026-01-27 01:53:53.82	12.37	85.31	-33.2	-34.4	19.9	0.00e+00	0	62	0	1945108480	37	4285
2026-01-27 01:53:54.83	11.63	85.83	-33.1	-34.4	20.0	0.00e+00	0	62	0	1951399936	37	4252
2026-01-27 01:53:55.84	10.68	86.35	-33.3	-34.5	19.9	0.00e+00	0	62	0	1956642816	37	4333
2026-01-27 01:53:56.86	9.40	86.87	-33.4	-34.6	19.7	0.00e+00	0	61	0	1962934272	37	4384
2026-01-27 01:53:57.86	7.66	87.37	-33.3	-34.6	19.7	0.00e+00	0	62	0	1968177152	37	4382
2026-01-27 01:53:58.88	5.01	87.89	-33.6	-34.9	19.5	0.00e+00	0	62	0	1974468608	37	4504
2026-01-27 01:53:59.89	0.72	88.39	-33.5	-34.8	19.6	0.00e+00	0	62	0	1979711488	37	4442
2026-01-27 01:54:00.90	352.62	88.88	-33.6	-34.9	19.4	0.00e+00	0	62	0	1984954368	37	4544
2026-01-27 01:54:01.91	333.41	89.31	-34.0	-35.3	19.0	0.00e+00	0	62	0	1991245824	38	4491
2026-01-27 01:54:02.92	284.25	89.51	-34.0	-35.4	19.0	0.00e+00	0	62	0	1996488704	38	4496
2026-01-27 01:54:03.93	239.46	89.26	-34.1	-35.5	18.9	0.00e+00	0	62	0	2002780160	38	4590
2026-01-27 01:54:04.94	222.60	88.82	-34.0	-35.4	19.0	0.00e+00	0	62	0	2008023040	39	4254
2026-01-27 01:54:05.95	215.24	88.33	-33.8	-35.1	19.2	0.00e+00	0	62	0	2013265920	39	4143
2026-01-27 01:54:06.96	211.25	87.82	-33.7	-35.1	19.3	0.00e+00	0	62	0	2019557376	39	4100
2026-01-27 01:54:07.97	208.77	87.31	-33.7	-35.0	19.4	0.00e+00	0	62	0	2024800256	39	4053
2026-01-27 01:54:08.98	207.08	86.80	-33.6	-34.9	19.5	0.00e+00	0	62	0	2031091712	39	4012
2026-01-27 01:54:10.00	205.86	86.28	-33.3	-34.6	19.7	0.00e+00	0	62	0	2036334592	38	4132
2026-01-27 01:54:11.01	204.94	85.76	-32.8	-34.0	20.3	0.00e+00	0	62	0	2042626048	37	4083
2026-01-27 01:54:12.02	204.23	85.24	-32.8	-34.0	20.3	0.00e+00	0	62	0	2047868928	37	4082
2026-01-27 01:54:13.03	203.65	84.73	-32.8	-34.0	20.3	0.00e+00	0	62	0	2053111808	37	4098
2026-01-27 01:54:14.04	203.18	84.21	-32.8	-34.1	20.2	0.00e+00	0	62	0	2059403264	37	4102
2026-01-27 01:54:15.05	202.79	83.69	-32.8	-34.1	20.3	0.00e+00	0	62	0	2064646144	37	4113
2026-01-27 01:54:16.06	202.46	83.18	-32.9	-34.1	20.2	0.00e+00	0	62	0	2070937600	37	4131
2026-01-27 01:54:17.07	202.17	82.66	-33.1	-34.4	20.0	0.00e+00	0	62	0	2076180480	37	4254
2026-01-27 01:54:18.08	201.93	82.15	-32.8	-34.0	20.3	0.00e+00	0	62	0	2082471936	37	4090
2026-01-27 01:54:19.09	201.71	81.64	-32.7	-34.0	20.4	0.00e+00	0	62	0	2087714816	37	4053
2026-01-27 01:54:20.10	201.52	81.12	-32.6	-33.8	20.5	0.00e+00	0	62	0	2092957696	37	3997
2026-01-27 01:54:21.11	201.35	80.61	-32.6	-33.8	20.5	0.00e+00	0	62	0	2099249152	37	4001
2026-01-27 01:54:22.12	201.20	80.10	-32.8	-34.0	20.3	0.00e+00	0	62	0	2104492032	37	4079
2026-01-27 01:54:23.13	201.06	79.59	-32.8	-34.0	20.3	0.00e+00	0	62	0	2110783488	37	4092
2026-01-27 01:54:24.14	200.94	79.09	-32.9	-34.1	20.3	0.00e+00	0	62	0	2116026368	37	4123
2026-01-27 01:54:25.15	200.83	78.58	-33.2	-34.4	20.0	0.00e+00	0	62	0	2121269248	37	4265
2026-01-27 01:54:26.16	200.73	78.08	-33.1	-34.4	20.0	0.00e+00	0	62	0	2127560704	37	4250
2026-01-27 01:54:27.17	200.64	77.57	-33.2	-34.4	20.0	0.00e+00	0	62	0	2132803584	37	4286
2026-01-27 01:54:28.18	200.55	77.07	-33.2	-34.4	20.0	0.00e+00	0	62	0	2139095040	37	4266
2026-01-27 01:54:29.19	200.47	76.57	-33.5	-34.8	19.7	0.00e+00	0	62	0	2144337920	37	4464
2026-01-27 01:54:30.20	200.40	76.07	-33.8	-35.2	19.3	0.00e+00	0	62	0	2149580800	38	4400
2026-01-27 01:54:31.21	200.34	75.58	-33.7	-35.0	19.4	0.00e+00	0	62	0	2155872256	38	4332
2026-01-27 01:54:32.22	200.27	75.08	-33.8	-35.1	19.4	0.00e+00	0	62	0	2161115136	38	4347
2026-01-27 01:54:33.24	200.22	74.59	-33.7	-35.0	19.4	0.00e+00	0	62	0	2167406592	38	4332
2026-01-27 01:54:34.25	200.16	74.10	-33.6	-34.8	19.6	0.00e+00	0	62	0	2172649472	38	4226
2026-01-27 01:54:35.26	200.11	73.61	-33.9	-35.2	19.3	0.00e+00	0	62	0	2178940928	38	4423
2026-01-27 01:54:36.27	200.07	73.12	-33.9	-35.3	19.2	0.00e+00	0	62	0	2184183808	38	4444
2026-01-27 01:54:37.28	200.02	72.63	-33.5	-34.7	19.8	0.00e+00	0	62	0	2190475264	38	4186
2026-01-27 01:54:38.29	199.98	72.15	-33.8	-35.0	19.5	0.00e+00	0	62	0	2195718144	38	4324
2026-01-27 01:54:39.30	199.94	71.67	-34.4	-35.8	18.7	0.00e+00	0	62	0	2200961024	39	4486
2026-01-27 01:54:40.31	199.91	71.19	-34.3	-35.6	18.9	0.00e+00	0	62	0	2207252480	39	4383
2026-01-27 01:54:41.32	199.87	70.72	-34.0	-35.3	19.3	0.00e+00	0	62	0	2212495360	39	4197
2026-01-27 01:54:42.33	199.84	70.24	-34.4	-35.7	18.9	0.00e+00	0	62	0	2218786816	39	4411
2026-01-27 01:54:43.34	199.81	69.77	-34.6	-36.0	18.6	0.00e+00	0	62	0	2224029696	39	4593
2026-01-27 01:54:44.35	199.78	69.30	-34.4	-35.8	18.8	0.00e+00	0	62	0	2229272576	39	4442
2026-01-27 01:54:45.36	199.75	68.83	-34.3	-35.6	19.0	0.00e+00	0	62	0	2235564032	39	4368
2026-01-27 01:54:46.38	199.72	68.36	-34.4	-35.7	18.9	0.00e+00	0	62	0	2240806912	39	4423
2026-01-27 01:54:47.39	199.70	67.90	-34.6	-35.9	18.7	0.00e+00	0	62	0	2247098368	39	4544
2026-01-27 01:54:48.40	199.68	67.44	-34.6	-36.0	18.7	0.00e+00	0	62	0	2252341248	39	4550
2026-01-27 01:54:49.41	199.65	66.98	-34.5	-35.8	18.7	0.00e+00	0	62	0	2258632704	39	4485
2026-01-27 01:54:50.42	199.63	66.53	-34.5	-35.9	18.7	0.00e+00	0	62	0	2263875584	39	4515
2026-01-27 01:54:51.43	199.61	66.08	-34.5	-35.9	18.7	0.00e+00	0	62	0	2269118464	39	4494
2026-01-27 01:54:52.44	199.59	65.63	-34.5	-35.9	18.7	0.00e+00	0	62	0	2275409920	39	4516
2026-01-27 01:54:53.45	199.58	65.18	-34.5	-35.9	18.7	0.00e+00	0	61	0	2280652800	39	4506
2026-01-27 01:54:54.46	199.56	64.73	-34.8	-36.2	18.4	0.00e+00	0	62	0	2286944256	40	4408
2026-01-27 01:54:55.47	199.54	64.29	-34.7	-36.0	18.6	0.00e+00	0	62	0	2292187136	40	4340
2026-01-27 01:54:56.48	199.53	63.85	-34.6	-35.9	18.8	0.00e+00	0	62	0	2298478592	40	4264
2026-01-27 01:54:57.49	199.51	63.41	-34.7	-36.0	18.7	0.00e+00	0	62	0	2303721472	40	4311
2026-01-27 01:54:58.50	199.50	62.98	-34.7	-36.1	18.6	0.00e+00	0	62	0	2308964352	40	4361
2026-01-27 01:54:59.51	199.48	62.55	-34.8	-36.1	18.6	0.00e+00	0	62	0	2315255808	40	4381
2026-01-27 01:55:00.52	199.47	62.12	-34.9	-36.3	18.4	0.00e+00	0	62	0	2320498688	40	4442
2026-01-27 01:55:01.54	199.46	61.69	-34.8	-36.2	18.5	0.00e+00	0	62	0	2326790144	40	4402
2026-01-27 01:55:02.55	199.44	61.27	-34.6	-36.0	18.7	0.00e+00	0	62	0	2332033024	40	4313
2026-01-27 01:55:03.56	199.43	60.84	-34.7	-36.1	18.6	0.00e+00	0	62	0	2338324480	40	4342
2026-01-27 01:55:04.57	199.42	60.43	-34.8	-36.1	18.5	0.00e+00	0	62	0	2343567360	40	4386
2026-01-27 01:55:05.58	199.41	60.01	-35.0	-36.4	18.3	0.00e+00	0	62	0	2348810240	40	4522
2026-01-27 01:55:06.59	199.40	59.60	-35.1	-36.5	18.2	0.00e+00	0	62	0	2355101696	40	4555
2026-01-27 01:55:07.60	199.39	59.19	-35.1	-36.5	18.2	0.00e+00	0	62	0	2360344576	40	4559
2026-01-27 01:55:08.61	199.38	58.78	-35.2	-36.6	18.1	0.00e+00	0	62	0	2366636032	40	4649
2026-01-27 01:55:09.62	199.37	58.38	-35.3	-36.8	18.0	0.00e+00	0	62	0	2371878912	41	4444
2026-01-27 01:55:10.63	199.36	57.97	-35.5	-37.0	17.8	0.00e+00	0	62	0	2377121792	41	4546
2026-01-27 01:55:11.65	199.35	57.57	-35.6	-37.1	17.6	0.00e+00	0	62	0	2383413248	41	4633
2026-01-27 01:55:12.66	199.35	57.17	-35.8	-37.2	17.5	0.00e+00	0	62	0	2388656128	42	4441
2026-01-27 01:55:13.67	199.34	56.78	-35.9	-37.4	17.4	0.00e+00	0	62	0	2394947584	42	4496
2026-01-27 01:55:14.67	199.33	56.39	-35.9	-37.4	17.3	0.00e+00	0	62	0	2400190464	42	4545
2026-01-27 01:55:15.69	199.32	56.00	-36.1	-37.7	17.1	0.00e+00	0	62	0	2406481920	42	4660
2026-01-27 01:55:16.69	199.32	55.62	-36.2	-37.8	16.9	0.00e+00	0	62	0	2411724800	43	4463
2026-01-27 01:55:17.70	199.31	55.24	-36.2	-37.8	16.9	0.00e+00	0	62	0	2416967680	43	4468
2026-01-27 01:55:18.72	199.31	54.85	-36.2	-37.7	17.0	0.00e+00	0	62	0	2423259136	43	4441
2026-01-27 01:55:19.73	199.30	54.48	-36.2	-37.8	16.9	0.00e+00	0	62	0	2428502016	43	4476
2026-01-27 01:55:20.74	199.29	54.10	-36.3	-37.9	16.9	0.00e+00	0	62	0	2434793472	43	4508
2026-01-27 01:55:21.75	199.29	53.73	-36.3	-37.9	16.8	0.00e+00	0	62	0	2440036352	43	4531
2026-01-27 01:55:22.76	199.28	53.36	-36.2	-37.8	17.0	0.00e+00	0	62	0	2446327808	43	4443
2026-01-27 01:55:23.77	199.28	52.99	-36.1	-37.6	17.1	0.00e+00	0	62	0	2451570688	43	4380
2026-01-27 01:55:24.78	199.27	52.63	-36.3	-38.0	16.8	0.00e+00	0	62	0	2456813568	43	4548
2026-01-27 01:55:25.79	199.27	52.27	-36.2	-37.9	16.9	0.00e+00	0	62	0	2463105024	43	4502
2026-01-27 01:55:26.80	199.26	51.91	-36.1	-37.7	17.1	0.00e+00	0	62	0	2468347904	43	4397
2026-01-27 01:55:27.81	199.26	51.55	-35.9	-37.4	17.3	0.00e+00	0	62	0	2474639360	43	4282
2026-01-27 01:55:28.82	199.26	51.20	-35.9	-37.4	17.3	0.00e+00	0	62	0	2479882240	43	4280
2026-01-27 01:55:29.83	199.25	50.85	-35.9	-37.4	17.4	0.00e+00	0	62	0	2485125120	43	4269
2026-01-27 01:55:30.84	199.25	50.50	-35.7	-37.2	17.6	0.00e+00	0	62	0	2491416576	43	4154
2026-01-27 01:55:31.85	199.24	50.16	-35.4	-36.8	17.9	0.00e+00	0	62	0	2496659456	42	4209
2026-01-27 01:55:32.86	199.24	49.81	-35.1	-36.5	18.2	0.00e+00	0	62	0	2502950912	42	4072
2026-01-27 01:55:33.87	199.24	49.47	-35.2	-36.6	18.2	0.00e+00	0	62	0	2508193792	42	4102
2026-01-27 01:55:34.88	199.23	49.14	-35.3	-36.8	18.0	0.00e+00	0	62	0	2514485248	42	4208
2026-01-27 01:55:35.89	199.23	48.80	-35.4	-36.9	17.9	0.00e+00	0	62	0	2519728128	42	4256
2026-01-27 01:55:36.90	199.23	48.47	-35.4	-36.8	17.9	0.00e+00	0	62	0	2524971008	42	4240
2026-01-27 01:55:37.91	199.23	48.14	-35.2	-36.7	18.0	0.00e+00	0	62	0	2531262464	42	4153
2026-01-27 01:55:38.93	199.22	47.81	-35.1	-36.5	18.2	0.00e+00	0	62	0	2536505344	42	4074
2026-01-27 01:55:39.94	199.22	47.48	-35.2	-36.6	18.1	0.00e+00	0	62	0	2542796800	42	4104
2026-01-27 01:55:40.95	199.22	47.16	-35.2	-36.5	18.2	0.00e+00	0	62	0	2548039680	42	4081
2026-01-27 01:55:41.96	199.22	46.84	-35.2	-36.6	18.2	0.00e+00	0	62	0	2554331136	42	4115
2026-01-27 01:55:42.97	199.21	46.52	-35.2	-36.6	18.1	0.00e+00	0	62	0	2559574016	42	4139
2026-01-27 01:55:43.98	199.21	46.21	-35.3	-36.8	18.0	0.00e+00	0	62	0	2564816896	42	4200
2026-01-27 01:55:44.99	199.21	45.89	-35.4	-36.9	17.9	0.00e+00	0	62	0	2571108352	42	4260
2026-01-27 01:55:46.00	199.21	45.58	-35.4	-36.9	17.8	0.00e+00	0	62	0	2576351232	42	4274
2026-01-27 01:55:47.01	199.21	45.27	-35.3	-36.8	17.9	0.00e+00	0	62	0	2582642688	42	4199
2026-01-27 01:55:48.02	199.20	44.97	-35.1	-36.5	18.1	0.00e+00	0	62	0	2587885568	42	4094
2026-01-27 01:55:49.03	199.20	44.66	-35.0	-36.4	18.3	0.00e+00	0	62	0	2593128448	42	4038
2026-01-27 01:55:50.04	199.20	44.36	-35.0	-36.4	18.2	0.00e+00	0	62	0	2599419904	42	4035
2026-01-27 01:55:51.05	199.20	44.06	-35.0	-36.4	18.2	0.00e+00	0	62	0	2604662784	42	4049
2026-01-27 01:55:52.07	199.20	43.76	-35.0	-36.4	18.2	0.00e+00	0	62	0	2610954240	42	4039
2026-01-27 01:55:53.08	199.20	43.47	-35.2	-36.6	18.0	0.00e+00	0	62	0	2616197120	42	4143
2026-01-27 01:55:54.09	199.20	43.18	-35.3	-36.8	17.8	0.00e+00	0	62	0	2622488576	42	4220
2026-01-27 01:55:55.10	199.19	42.89	-35.4	-36.9	17.7	0.00e+00	0	62	0	2627731456	42	4270
2026-01-27 01:55:56.11	199.19	42.60	-35.4	-36.9	17.7	0.00e+00	0	62	0	2634022912	42	4266
2026-01-27 01:55:57.12	199.19	42.32	-35.4	-37.0	17.7	0.00e+00	0	62	0	2639265792	42	4295
2026-01-27 01:55:58.13	199.19	42.03	-35.4	-36.9	17.7	0.00e+00	0	62	0	2644508672	42	4265
2026-01-27 01:55:59.14	199.19	41.75	-35.4	-36.9	17.8	0.00e+00	0	62	0	2650800128	42	4263
2026-01-27 01:56:00.15	199.19	41.47	-35.3	-36.8	17.9	0.00e+00	0	62	0	2656043008	42	4194
2026-01-27 01:56:01.16	199.19	41.19	-35.2	-36.6	18.0	0.00e+00	0	62	0	2662334464	42	4133
2026-01-27 01:56:02.17	199.19	40.92	-35.2	-36.6	18.0	0.00e+00	0	62	0	2667577344	42	4145
2026-01-27 01:56:03.18	199.19	40.65	-35.0	-36.4	18.2	0.00e+00	0	62	0	2672820224	42	4043
2026-01-27 01:56:04.19	199.19	40.38	-34.8	-36.2	18.4	0.00e+00	0	62	0	2679111680	41	4159
2026-01-27 01:56:05.20	199.19	40.11	-34.7	-36.1	18.4	0.00e+00	0	62	0	2684354560	41	4133
2026-01-27 01:56:06.21	199.19	39.84	-34.7	-36.0	18.5	0.00e+00	0	62	0	2690646016	41	4096
2026-01-27 01:56:07.22	199.19	39.58	-34.6	-36.0	18.6	0.00e+00	0	62	0	2695888896	41	4069
2026-01-27 01:56:08.23	199.19	39.31	-34.6	-36.0	18.5	0.00e+00	0	62	0	2701131776	41	4092
2026-01-27 01:56:09.24	199.19	39.05	-34.6	-36.0	18.6	0.00e+00	0	62	0	2707423232	41	4059
2026-01-27 01:56:10.25	199.19	38.80	-34.5	-35.9	18.7	0.00e+00	0	62	0	2712666112	41	4017
2026-01-27 01:56:11.26	199.19	38.54	-34.5	-35.9	18.6	0.00e+00	0	62	0	2718957568	41	4049
2026-01-27 01:56:12.27	199.19	38.28	-34.4	-35.8	18.8	0.00e+00	0	62	0	2724200448	40	4203
2026-01-27 01:56:13.28	199.19	38.03	-34.2	-35.5	18.9	0.00e+00	0	62	0	2730491904	40	4098
2026-01-27 01:56:14.29	199.19	37.78	-34.2	-35.5	19.0	0.00e+00	0	62	0	2735734784	40	4087
2026-01-27 01:56:15.31	199.19	37.53	-34.3	-35.6	18.9	0.00e+00	0	62	0	2740977664	40	4130
2026-01-27 01:56:16.32	199.19	37.28	-34.3	-35.7	18.8	0.00e+00	0	62	0	2747269120	40	4158
2026-01-27 01:56:17.33	199.19	37.04	-34.5	-35.8	18.7	0.00e+00	0	62	0	2752512000	40	4225
2026-01-27 01:56:18.34	199.19	36.79	-34.6	-35.9	18.6	0.00e+00	0	62	0	2758803456	40	4291
2026-01-27 01:56:19.35	199.19	36.55	-34.7	-36.2	18.4	0.00e+00	0	62	0	2764046336	40	4396
2026-01-27 01:56:20.36	199.19	36.31	-34.8	-36.3	18.3	0.00e+00	0	62	0	2770337792	40	4460
2026-01-27 01:56:21.37	199.19	36.07	-34.9	-36.3	18.2	0.00e+00	0	62	0	2775580672	40	4493
2026-01-27 01:56:22.38	199.19	35.84	-34.8	-36.3	18.2	0.00e+00	0	62	0	2780823552	40	4467
2026-01-27 01:56:23.39	199.19	35.60	-34.9	-36.4	18.2	0.00e+00	0	62	0	2787115008	40	4501
2026-01-27 01:56:24.40	199.19	35.37	-34.8	-36.2	18.3	0.00e+00	0	62	0	2792357888	40	4435
2026-01-27 01:56:25.41	199.19	35.14	-34.6	-36.0	18.5	0.00e+00	0	62	0	2798649344	40	4331
2026-01-27 01:56:26.42	199.19	34.91	-34.6	-36.1	18.5	0.00e+00	0	62	0	2803892224	40	4341
2026-01-27 01:56:27.43	199.19	34.68	-34.5	-35.9	18.6	0.00e+00	0	62	0	2809135104	40	4274
2026-01-27 01:56:28.44	199.19	34.45	-34.5	-35.9	18.6	0.00e+00	0	62	0	2815426560	40	4253
2026-01-27 01:56:29.45	199.19	34.23	-34.5	-35.9	18.6	0.00e+00	0	62	0	2820669440	40	4269
2026-01-27 01:56:30.46	199.19	34.00	-34.5	-35.9	18.6	0.00e+00	0	62	0	2826960896	40	4272
2026-01-27 01:56:31.47	199.19	33.78	-34.6	-36.0	18.5	0.00e+00	0	62	0	2832203776	40	4326
2026-01-27 01:56:32.48	199.20	33.56	-34.8	-36.2	18.3	0.00e+00	0	62	0	2838495232	40	4419
2026-01-27 01:56:33.49	199.20	33.34	-34.8	-36.2	18.3	0.00e+00	0	62	0	2843738112	40	4435
2026-01-27 01:56:34.50	199.20	33.13	-35.0	-36.4	18.1	0.00e+00	0	62	0	2848980992	40	4531
2026-01-27 01:56:35.51	199.20	32.91	-35.0	-36.4	18.1	0.00e+00	0	62	0	2855272448	40	4537
2026-01-27 01:56:36.52	199.20	32.70	-35.1	-36.5	18.0	0.00e+00	0	62	0	2860515328	40	4588
2026-01-27 01:56:37.54	199.20	32.48	-35.2	-36.7	17.9	0.00e+00	0	62	0	2866806784	40	4665
2026-01-27 01:56:38.55	199.20	32.27	-35.3	-36.8	17.8	0.00e+00	0	62	0	2872049664	41	4461
2026-01-27 01:56:39.56	199.20	32.06	-35.4	-36.9	17.7	0.00e+00	0	62	0	2878341120	41	4512
2026-01-27 01:56:40.57	199.20	31.86	-35.5	-37.0	17.5	0.00e+00	0	62	0	2883584000	41	4586
2026-01-27 01:56:41.58	199.20	31.65	-35.6	-37.1	17.4	0.00e+00	0	62	0	2888826880	41	4642
2026-01-27 01:56:42.59	199.20	31.45	-35.6	-37.2	17.4	0.00e+00	0	62	0	2895118336	41	4658
2026-01-27 01:56:43.60	199.21	31.24	-35.7	-37.3	17.3	0.00e+00	0	62	0	2900361216	41	4708
2026-01-27 01:56:44.61	199.21	31.04	-35.7	-37.3	17.3	0.00e+00	0	62	0	2906652672	41	4728
2026-01-27 01:56:45.62	199.21	30.84	-35.8	-37.4	17.1	0.00e+00	0	62	0	2911895552	42	4541
2026-01-27 01:56:46.63	199.21	30.64	-35.8	-37.4	17.2	0.00e+00	0	62	0	2917138432	42	4523
2026-01-27 01:56:47.64	199.21	30.44	-35.9	-37.5	17.1	0.00e+00	0	62	0	2923429888	42	4565
2026-01-27 01:56:48.65	199.21	30.25	-35.7	-37.3	17.2	0.00e+00	0	62	0	2928672768	42	4486
2026-01-27 01:56:49.66	199.21	30.05	-35.6	-37.2	17.3	0.00e+00	0	62	0	2934964224	42	4429
2026-01-27 01:56:50.67	199.21	29.86	-35.6	-37.2	17.3	0.00e+00	0	62	0	2940207104	42	4417
2026-01-27 01:56:51.68	199.22	29.66	-35.7	-37.2	17.3	0.00e+00	0	62	0	2945449984	42	4429
2026-01-27 01:56:52.69	199.22	29.47	-35.6	-37.2	17.4	0.00e+00	0	62	0	2951741440	42	4416
2026-01-27 01:56:53.70	199.22	29.28	-35.6	-37.2	17.4	0.00e+00	0	62	0	2956984320	42	4413
2026-01-27 01:56:54.72	199.22	29.09	-35.5	-37.1	17.5	0.00e+00	0	62	0	2963275776	42	4363
2026-01-27 01:56:55.73	199.22	28.90	-35.5	-37.1	17.5	0.00e+00	0	62	0	2968518656	42	4356
2026-01-27 01:56:56.74	199.22	28.72	-35.4	-36.8	17.7	0.00e+00	0	62	0	2974810112	42	4241
2026-01-27 01:56:57.75	199.22	28.53	-35.3	-36.9	17.7	0.00e+00	0	62	0	2980052992	42	4245
2026-01-27 01:56:58.76	199.23	28.35	-35.2	-36.6	17.9	0.00e+00	0	62	0	2986344448	42	4133
2026-01-27 01:56:59.77	199.23	28.17	-35.2	-36.6	17.9	0.00e+00	0	62	0	2991587328	42	4127
2026-01-27 01:57:00.78	199.23	27.99	-35.3	-36.8	17.8	0.00e+00	0	62	0	2996830208	42	4197
2026-01-27 01:57:01.79	199.23	27.81	-35.2	-36.6	17.9	0.00e+00	0	62	0	3003121664	42	4128
2026-01-27 01:57:02.80	199.23	27.63	-35.1	-36.6	18.0	0.00e+00	0	62	0	3008364544	42	4118
2026-01-27 01:57:03.81	199.23	27.45	-35.1	-36.5	18.0	0.00e+00	0	62	0	3014656000	42	4079
2026-01-27 01:57:04.82	199.23	27.27	-35.0	-36.4	18.1	0.00e+00	0	62	0	3019898880	42	4046
2026-01-27 01:57:05.83	199.24	27.10	-34.9	-36.4	18.1	0.00e+00	0	62	0	3025141760	41	4255
2026-01-27 01:57:06.85	199.24	26.92	-35.1	-36.6	18.0	0.00e+00	0	62	0	3031433216	41	4350
2026-01-27 01:57:07.86	199.24	26.75	-35.2	-36.6	17.9	0.00e+00	0	62	0	3036676096	41	4364
2026-01-27 01:57:08.87	199.24	26.57	-35.1	-36.6	17.9	0.00e+00	0	62	0	3042967552	41	4366
2026-01-27 01:57:09.88	199.24	26.40	-35.1	-36.6	17.9	0.00e+00	0	62	0	3048210432	41	4346
2026-01-27 01:57:10.89	199.24	26.23	-35.0	-36.4	18.1	0.00e+00	0	62	0	3053453312	41	4272
2026-01-27 01:57:11.90	199.25	26.06	-35.0	-36.4	18.1	0.00e+00	0	62	0	3059744768	41	4279
2026-01-27 01:57:12.91	199.25	25.90	-35.0	-36.5	18.0	0.00e+00	0	62	0	3064987648	41	4326
2026-01-27 01:57:13.92	199.25	25.73	-35.1	-36.6	17.9	0.00e+00	0	62	0	3071279104	41	4347
2026-01-27 01:57:14.93	199.25	25.56	-35.1	-36.6	17.9	0.00e+00	0	62	0	3076521984	41	4363
2026-01-27 01:57:15.94	199.25	25.40	-35.2	-36.7	17.8	0.00e+00	0	62	0	3082813440	41	4403
2026-01-27 01:57:16.95	199.25	25.24	-35.2	-36.7	17.7	0.00e+00	0	62	0	3088056320	41	4428
2026-01-27 01:57:17.96	199.26	25.07	-35.3	-36.8	17.6	0.00e+00	0	62	0	3094347776	41	4490
2026-01-27 01:57:18.97	199.26	24.91	-35.4	-36.9	17.6	0.00e+00	0	62	0	3099590656	41	4512
2026-01-27 01:57:19.98	199.26	24.75	-35.3	-36.8	17.6	0.00e+00	0	62	0	3104833536	41	4475
2026-01-27 01:57:20.99	199.26	24.59	-35.4	-36.9	17.6	0.00e+00	0	62	0	3111124992	41	4514
2026-01-27 01:57:22.00	199.26	24.43	-35.4	-36.9	17.6	0.00e+00	0	62	0	3116367872	41	4525
2026-01-27 01:57:23.01	199.26	24.27	-35.4	-37.0	17.5	0.00e+00	0	62	0	3122659328	41	4562
2026-01-27 01:57:24.02	199.27	24.12	-35.4	-36.9	17.5	0.00e+00	0	62	0	3127902208	41	4531
2026-01-27 01:57:25.04	199.27	23.96	-35.4	-37.0	17.5	0.00e+00	0	62	0	3133145088	41	4554
2026-01-27 01:57:26.05	199.27	23.80	-35.5	-37.1	17.4	0.00e+00	0	62	0	3139436544	41	4601
2026-01-27 01:57:27.06	199.27	23.65	-35.5	-37.0	17.4	0.00e+00	0	62	0	3144679424	41	4584
2026-01-27 01:57:28.07	199.27	23.50	-35.5	-37.0	17.4	0.00e+00	0	62	0	3150970880	41	4590
2026-01-27 01:57:29.08	199.27	23.34	-35.5	-37.1	17.4	0.00e+00	0	62	0	3156213760	41	4599
2026-01-27 01:57:30.09	199.28	23.19	-35.5	-37.1	17.4	0.00e+00	0	62	0	3161456640	41	4620
2026-01-27 01:57:31.10	199.28	23.04	-35.6	-37.2	17.3	0.00e+00	0	62	0	3167748096	41	4652
2026-01-27 01:57:32.11	199.28	22.89	-35.7	-37.2	17.2	0.00e+00	0	62	0	3172990976	41	4700
2026-01-27 01:57:33.12	199.28	22.74	-35.7	-37.2	17.2	0.00e+00	0	62	0	3179282432	41	4688
2026-01-27 01:57:34.13	199.28	22.60	-35.7	-37.3	17.2	0.00e+00	0	62	0	3184525312	41	4711
2026-01-27 01:57:35.14	199.29	22.45	-35.8	-37.4	17.1	0.00e+00	0	62	0	3190816768	42	4504
2026-01-27 01:57:36.15	199.29	22.30	-35.9	-37.5	17.0	0.00e+00	0	62	0	3196059648	42	4555
2026-01-27 01:57:37.16	199.29	22.16	-35.9	-37.5	17.0	0.00e+00	0	62	0	3202351104	42	4561
2026-01-27 01:57:38.17	199.29	22.01	-35.9	-37.5	17.0	0.00e+00	0	62	0	3207593984	42	4578
2026-01-27 01:57:39.18	199.29	21.87	-35.9	-37.5	17.0	0.00e+00	0	62	0	3212836864	42	4583
2026-01-27 01:57:40.20	199.30	21.72	-36.0	-37.6	16.9	0.00e+00	0	62	0	3219128320	42	4616
2026-01-27 01:57:41.21	199.30	21.58	-36.1	-37.7	16.8	0.00e+00	0	62	0	3224371200	42	4691
2026-01-27 01:57:42.22	199.30	21.44	-36.1	-37.8	16.7	0.00e+00	0	62	0	3230662656	42	4706
2026-01-27 01:57:43.23	199.30	21.30	-36.1	-37.7	16.7	0.00e+00	0	62	0	3235905536	42	4696
2026-01-27 01:57:44.24	199.30	21.16	-36.2	-37.8	16.7	0.00e+00	0	62	0	3241148416	42	4751
2026-01-27 01:57:45.25	199.31	21.02	-36.2	-37.8	16.7	0.00e+00	0	62	0	3247439872	42	4747
2026-01-27 01:57:46.26	199.31	20.88	-36.3	-37.9	16.5	0.00e+00	0	62	0	3252682752	43	4540
2026-01-27 01:57:47.27	199.31	20.75	-36.2	-37.9	16.6	0.00e+00	0	62	0	3258974208	43	4515
2026-01-27 01:57:48.28	199.31	20.61	-36.3	-37.9	16.5	0.00e+00	0	62	0	3264217088	43	4536
2026-01-27 01:57:49.29	199.31	20.47	-36.3	-38.0	16.5	0.00e+00	0	62	0	3269459968	43	4551
2026-01-27 01:57:50.31	199.32	20.34	-36.4	-38.1	16.4	0.00e+00	0	62	0	3275751424	43	4618
2026-01-27 01:57:51.32	199.32	20.20	-36.4	-38.1	16.4	0.00e+00	0	62	0	3280994304	43	4604
2026-01-27 01:57:52.33	199.32	20.07	-36.5	-38.2	16.3	0.00e+00	0	62	0	3287285760	43	4672
2026-01-27 01:57:53.33	199.32	19.94	-36.5	-38.2	16.3	0.00e+00	0	62	0	3292528640	43	4683
2026-01-27 01:57:54.34	199.32	19.80	-36.5	-38.2	16.3	0.00e+00	0	62	0	3298820096	43	4689
2026-01-27 01:57:55.35	199.33	19.67	-36.4	-38.1	16.3	0.00e+00	0	62	0	3304062976	43	4641
2026-01-27 01:57:56.36	199.33	19.54	-36.5	-38.2	16.3	0.00e+00	0	62	0	3310354432	43	4675
2026-01-27 01:57:57.37	199.33	19.41	-36.5	-38.3	16.2	0.00e+00	0	62	0	3315597312	43	4714
2026-01-27 01:57:58.38	199.33	19.28	-36.5	-38.2	16.2	0.00e+00	0	62	0	3320840192	43	4698
2026-01-27 01:57:59.39	199.33	19.15	-36.5	-38.2	16.2	0.00e+00	0	62	0	3327131648	43	4696
2026-01-27 01:58:00.40	199.34	19.03	-36.5	-38.3	16.2	0.00e+00	0	62	0	3332374528	43	4710
2026-01-27 01:58:01.41	199.34	18.90	-36.6	-38.4	16.1	0.00e+00	0	62	0	3338665984	43	4769
2026-01-27 01:58:02.42	199.34	18.77	-36.6	-38.4	16.1	0.00e+00	0	62	0	3343908864	43	4766
2026-01-27 01:58:03.43	199.34	18.64	-36.7	-38.4	16.1	0.00e+00	0	62	0	3349151744	43	4803
2026-01-27 01:58:04.44	199.35	18.52	-36.9	-38.7	16.0	0.00e+00	0	62	0	3355443200	44	4662
2026-01-27 01:58:05.46	199.35	18.39	-37.0	-38.8	15.9	0.00e+00	0	62	0	3360686080	44	4710
2026-01-27 01:58:06.47	199.35	18.27	-36.9	-38.7	15.9	0.00e+00	0	62	0	3366977536	44	4687
2026-01-27 01:58:07.48	199.35	18.14	-36.9	-38.7	15.9	0.00e+00	0	62	0	3372220416	44	4688
2026-01-27 01:58:08.49	199.35	18.02	-37.0	-38.8	15.9	0.00e+00	0	62	0	3377463296	44	4723
2026-01-27 01:58:09.50	199.36	17.90	-37.0	-38.8	15.8	0.00e+00	0	62	0	3383754752	44	4755
2026-01-27 01:58:10.51	199.36	17.78	-37.0	-38.8	15.8	0.00e+00	0	62	0	3388997632	44	4755
2026-01-27 01:58:11.52	199.36	17.66	-37.1	-38.9	15.7	0.00e+00	0	62	0	3395289088	44	4789
2026-01-27 01:58:12.53	199.36	17.53	-37.2	-39.0	15.6	0.00e+00	0	62	0	3400531968	44	4846
2026-01-27 01:58:13.54	199.37	17.41	-37.2	-39.0	15.6	0.00e+00	0	62	0	3406823424	45	4580
2026-01-27 01:58:14.55	199.37	17.30	-37.1	-39.0	15.7	0.00e+00	0	62	0	3412066304	45	4549
2026-01-27 01:58:15.56	199.37	17.18	-37.1	-39.0	15.7	0.00e+00	0	62	0	3418357760	45	4553
2026-01-27 01:58:16.57	199.37	17.06	-37.2	-39.1	15.6	0.00e+00	0	62	0	3423600640	45	4614
2026-01-27 01:58:17.58	199.37	16.94	-37.3	-39.2	15.5	0.00e+00	0	62	0	3428843520	45	4654
2026-01-27 01:58:18.59	199.38	16.82	-37.3	-39.1	15.5	0.00e+00	0	62	0	3435134976	45	4640
2026-01-27 01:58:19.60	199.38	16.71	-37.2	-39.1	15.5	0.00e+00	0	62	0	3440377856	45	4622
2026-01-27 01:58:20.61	199.38	16.59	-37.3	-39.2	15.4	0.00e+00	0	62	0	3446669312	45	4673
2026-01-27 01:58:21.63	199.38	16.47	-37.3	-39.1	15.5	0.00e+00	0	62	0	3451912192	45	4646
2026-01-27 01:58:22.63	199.39	16.36	-37.3	-39.2	15.5	0.00e+00	0	62	0	3457155072	45	4666
2026-01-27 01:58:23.65	199.39	16.24	-37.4	-39.3	15.3	0.00e+00	0	62	0	3463446528	45	4744
2026-01-27 01:58:24.66	199.39	16.13	-37.4	-39.3	15.3	0.00e+00	0	62	0	3468689408	45	4732
2026-01-27 01:58:25.67	199.39	16.02	-37.4	-39.3	15.3	0.00e+00	0	62	0	3474980864	45	4748
2026-01-27 01:58:26.68	199.39	15.90	-37.4	-39.3	15.3	0.00e+00	0	62	0	3480223744	45	4743
2026-01-27 01:58:27.69	199.40	15.79	-37.5	-39.4	15.2	0.00e+00	0	62	0	3485466624	45	4784
