passes_logs/2026/01/27/R2.0S_Moscow/R2.0S_Moscow__20260127_050955_FENGYUN_3E_rec.log

#Pass ID: 20260127_050955_FENGYUN 3E
#Satellite: FENGYUN 3E
#Configuration: FENGYUN 3E
#almurnet v.1.7.20251203
#Start time: 2026-01-27 05:09:56

#Version: 2.2.20231116
#Station: R2.0S_Moscow
#Location: 37.707566 lon 55.798166 lat
#TLE: 1 49008U 21062A   26026.84429991  .00000247  00000+0  13693-3 0  9991
#TLE: 2 49008  98.7501  31.8345 0002501 116.3456 243.7977 14.19887781236522

#Time	Az	El	Level	Level2	SNR	BER	BlckErr	Temp	State	Recorded	gain1	gain2
2026-01-27 05:09:56.86	11.52	2.06	-40.1	-50.9	3.8	8.46e-01	0	53	0	0	51	11995
2026-01-27 05:09:57.86	11.47	2.12	-40.1	-50.9	3.8	8.46e-01	0	53	104	0	51	12019
2026-01-27 05:09:58.87	11.42	2.18	-40.1	-50.9	3.8	8.46e-01	0	53	104	0	51	11997
2026-01-27 05:09:59.88	11.38	2.24	-40.1	-50.9	3.8	8.47e-01	0	53	104	0	51	12001
2026-01-27 05:10:00.89	11.33	2.30	-40.1	-50.9	3.8	8.47e-01	0	53	104	0	51	12022
2026-01-27 05:10:01.90	11.28	2.36	-40.1	-50.9	3.8	8.46e-01	0	53	104	0	51	11990
2026-01-27 05:10:02.91	11.23	2.42	-40.1	-50.9	3.8	8.45e-01	0	53	104	0	51	12005
2026-01-27 05:10:03.92	11.18	2.48	-40.1	-50.8	3.8	8.46e-01	0	53	104	0	51	11951
2026-01-27 05:10:04.93	11.13	2.55	-40.1	-50.9	3.8	8.47e-01	0	54	104	0	51	11977
2026-01-27 05:10:05.94	11.08	2.61	-40.1	-50.9	3.8	8.46e-01	0	54	104	0	51	11976
2026-01-27 05:10:06.95	11.03	2.67	-40.1	-50.9	3.8	8.46e-01	0	54	104	0	51	11965
2026-01-27 05:10:07.96	10.98	2.73	-40.1	-50.9	3.8	8.45e-01	0	54	104	0	51	11960
2026-01-27 05:10:08.97	10.93	2.79	-40.1	-50.8	3.8	8.47e-01	0	54	104	0	51	11955
2026-01-27 05:10:09.98	10.88	2.85	-40.1	-50.9	3.8	8.46e-01	0	54	104	0	51	11967
2026-01-27 05:10:10.99	10.83	2.92	-40.1	-50.9	3.8	8.46e-01	0	54	104	0	51	11977
2026-01-27 05:10:12.00	10.78	2.98	-40.1	-50.8	3.8	8.46e-01	0	54	104	0	51	11934
2026-01-27 05:10:13.01	10.73	3.04	-40.1	-50.9	3.8	8.46e-01	0	54	104	0	51	11964
2026-01-27 05:10:14.02	10.68	3.10	-40.1	-50.9	3.8	8.46e-01	0	54	104	0	51	11957
2026-01-27 05:10:15.03	10.63	3.17	-40.1	-50.8	3.8	8.45e-01	0	54	104	0	51	11910
2026-01-27 05:10:16.04	10.57	3.23	-40.1	-50.8	3.8	8.46e-01	0	54	104	0	51	11950
2026-01-27 05:10:17.05	10.52	3.29	-40.1	-50.9	3.8	8.46e-01	0	54	104	0	51	11998
2026-01-27 05:10:18.06	10.47	3.35	-40.1	-50.9	3.8	8.45e-01	0	54	104	0	51	12000
2026-01-27 05:10:19.07	10.42	3.42	-40.1	-50.9	3.8	8.46e-01	0	55	104	0	51	11962
2026-01-27 05:10:20.08	10.36	3.48	-40.1	-50.8	3.8	8.47e-01	0	55	104	0	51	11949
2026-01-27 05:10:21.09	10.31	3.54	-40.1	-50.9	3.8	8.47e-01	0	55	104	0	51	12013
2026-01-27 05:10:22.10	10.26	3.61	-40.1	-50.9	3.8	8.44e-01	0	55	104	0	51	11960
2026-01-27 05:10:23.11	10.20	3.67	-40.1	-50.8	3.8	8.46e-01	0	55	104	0	51	11913
2026-01-27 05:10:24.12	10.15	3.73	-40.1	-50.9	3.8	8.46e-01	0	55	104	0	51	11962
2026-01-27 05:10:25.13	10.09	3.80	-40.1	-50.8	3.8	8.46e-01	0	55	104	0	51	11898
2026-01-27 05:10:26.14	10.04	3.86	-40.1	-50.8	3.8	8.45e-01	0	55	104	0	51	11922
2026-01-27 05:10:27.15	9.99	3.93	-40.1	-50.8	3.8	8.46e-01	0	55	104	0	51	11941
2026-01-27 05:10:28.16	9.93	3.99	-40.1	-50.9	3.8	8.47e-01	0	55	104	0	51	11967
2026-01-27 05:10:29.17	9.88	4.05	-40.1	-50.8	3.8	8.47e-01	0	55	104	0	51	11951
2026-01-27 05:10:30.19	9.82	4.12	-40.1	-50.8	3.8	8.47e-01	0	55	104	0	51	11947
2026-01-27 05:10:31.20	9.76	4.18	-40.1	-50.8	3.8	8.46e-01	0	55	104	0	51	11952
2026-01-27 05:10:32.21	9.71	4.25	-40.1	-50.9	3.8	8.47e-01	0	55	104	0	51	11993
2026-01-27 05:10:33.22	9.65	4.31	-40.1	-50.8	3.8	8.47e-01	0	56	104	0	51	11934
2026-01-27 05:10:34.23	9.60	4.38	-40.1	-50.9	3.8	8.46e-01	0	55	104	0	51	12016
2026-01-27 05:10:35.24	9.54	4.44	-40.1	-50.9	3.8	8.46e-01	0	56	104	0	51	11976
2026-01-27 05:10:36.25	9.48	4.51	-40.1	-50.8	3.8	8.46e-01	0	56	104	0	51	11931
2026-01-27 05:10:37.26	9.42	4.57	-40.1	-50.9	3.8	8.47e-01	0	56	104	0	51	11974
2026-01-27 05:10:38.27	9.37	4.64	-40.1	-50.9	3.8	8.46e-01	0	56	104	0	51	11956
2026-01-27 05:10:39.28	9.31	4.70	-40.1	-50.8	3.8	8.45e-01	0	56	104	0	51	11954
2026-01-27 05:10:40.29	9.25	4.77	-40.1	-50.9	3.8	8.46e-01	0	56	104	0	51	11985
2026-01-27 05:10:41.30	9.19	4.84	-40.1	-50.9	3.8	8.46e-01	0	56	104	0	51	12024
2026-01-27 05:10:42.31	9.13	4.90	-40.1	-50.9	3.8	8.46e-01	0	56	104	0	51	12006
2026-01-27 05:10:43.32	9.07	4.97	-40.1	-50.9	3.8	8.47e-01	0	56	104	0	51	11996
2026-01-27 05:10:44.33	9.02	5.03	-40.1	-50.9	3.8	8.46e-01	0	56	104	0	51	11973
2026-01-27 05:10:45.34	8.96	5.10	-40.1	-50.9	3.8	8.45e-01	0	56	104	0	51	11969
2026-01-27 05:10:46.36	8.90	5.17	-40.1	-50.9	3.8	8.46e-01	0	56	104	0	51	11958
2026-01-27 05:10:47.37	8.83	5.23	-40.1	-50.9	3.8	8.48e-01	0	56	104	0	51	11962
2026-01-27 05:10:48.38	8.77	5.30	-40.1	-50.9	3.8	8.46e-01	0	56	104	0	51	11959
2026-01-27 05:10:49.38	8.71	5.37	-40.1	-50.9	3.8	8.47e-01	0	56	104	0	51	11986
2026-01-27 05:10:50.39	8.65	5.43	-40.1	-50.9	3.8	8.46e-01	0	57	104	0	51	11985
2026-01-27 05:10:51.41	8.59	5.50	-40.1	-50.8	3.8	8.46e-01	0	56	104	0	51	11943
2026-01-27 05:10:52.42	8.53	5.57	-40.1	-50.9	3.8	8.46e-01	0	57	104	0	51	12017
2026-01-27 05:10:53.43	8.47	5.64	-40.1	-50.8	3.8	8.46e-01	0	57	104	0	51	11932
2026-01-27 05:10:54.44	8.41	5.70	-40.1	-50.9	3.8	8.47e-01	0	57	104	0	51	11983
2026-01-27 05:10:55.45	8.34	5.77	-40.1	-50.9	3.8	8.46e-01	0	57	104	0	51	12017
2026-01-27 05:10:56.46	8.28	5.84	-40.1	-50.8	3.8	8.46e-01	0	57	104	0	51	11878
2026-01-27 05:10:57.47	8.22	5.91	-40.1	-50.9	3.8	8.46e-01	0	57	104	0	51	11974
2026-01-27 05:10:58.48	8.15	5.98	-40.1	-50.9	3.8	8.46e-01	0	57	104	0	51	11973
2026-01-27 05:10:59.49	8.09	6.04	-40.1	-50.9	3.8	8.46e-01	0	57	104	0	51	11969
2026-01-27 05:11:00.50	8.03	6.11	-40.1	-50.9	3.8	8.46e-01	0	57	104	0	51	11958
2026-01-27 05:11:01.51	7.96	6.18	-40.1	-50.8	3.8	8.47e-01	0	57	104	0	51	11941
2026-01-27 05:11:02.52	7.90	6.25	-40.1	-50.9	3.8	8.45e-01	0	57	104	0	51	11966
2026-01-27 05:11:03.53	7.83	6.32	-40.1	-50.8	3.8	8.46e-01	0	57	104	0	51	11942
2026-01-27 05:11:04.54	7.77	6.39	-40.0	-50.8	3.8	8.47e-01	0	57	104	0	51	11913
2026-01-27 05:11:05.56	7.70	6.46	-40.1	-50.9	3.8	8.48e-01	0	57	104	0	51	11996
2026-01-27 05:11:06.57	7.63	6.53	-40.1	-50.8	3.8	8.45e-01	0	57	104	0	51	11940
2026-01-27 05:11:07.58	7.57	6.60	-40.1	-50.8	3.8	8.47e-01	0	57	104	0	51	11938
2026-01-27 05:11:08.59	7.50	6.67	-40.1	-50.8	3.8	8.46e-01	0	57	104	0	51	11917
2026-01-27 05:11:09.60	7.43	6.74	-40.1	-50.8	3.8	8.46e-01	0	58	104	0	51	11909
2026-01-27 05:11:10.61	7.36	6.81	-40.1	-50.9	3.8	8.46e-01	0	57	104	0	51	11964
2026-01-27 05:11:11.62	7.30	6.88	-40.1	-50.8	3.8	8.46e-01	0	57	104	0	51	11920
2026-01-27 05:11:12.63	7.23	6.95	-40.1	-50.8	3.8	8.46e-01	0	58	104	0	51	11945
2026-01-27 05:11:13.64	7.16	7.02	-40.1	-50.9	3.8	8.48e-01	0	57	104	0	51	11962
2026-01-27 05:11:14.65	7.09	7.09	-40.1	-50.9	3.8	8.46e-01	0	58	104	0	51	11969
2026-01-27 05:11:15.66	7.02	7.16	-40.0	-50.8	3.8	8.46e-01	0	57	104	0	51	11942
2026-01-27 05:11:16.67	6.95	7.23	-40.1	-50.9	3.8	8.47e-01	0	57	104	0	51	11967
2026-01-27 05:11:17.68	6.88	7.30	-40.1	-50.9	3.8	8.46e-01	0	58	104	0	51	11967
2026-01-27 05:11:18.69	6.81	7.37	-40.1	-50.8	3.8	8.46e-01	0	58	104	0	51	11922
2026-01-27 05:11:19.70	6.74	7.44	-40.1	-50.8	3.8	8.46e-01	0	58	104	0	51	11914
2026-01-27 05:11:20.71	6.67	7.51	-40.1	-50.9	3.8	8.45e-01	0	58	104	0	51	11983
2026-01-27 05:11:21.72	6.60	7.58	-40.1	-50.8	3.8	8.47e-01	0	58	104	0	51	11909
2026-01-27 05:11:22.73	6.53	7.66	-40.1	-50.9	3.8	8.46e-01	0	58	104	0	51	11958
2026-01-27 05:11:23.74	6.46	7.73	-40.1	-50.9	3.8	8.46e-01	0	58	104	0	51	11964
2026-01-27 05:11:24.75	6.38	7.80	-40.1	-50.8	3.8	8.46e-01	0	58	104	0	51	11940
2026-01-27 05:11:25.77	6.31	7.87	-40.1	-50.8	3.8	8.45e-01	0	58	104	0	51	11923
2026-01-27 05:11:26.78	6.24	7.95	-40.1	-50.9	3.8	8.47e-01	0	58	104	0	51	11971
2026-01-27 05:11:27.79	6.16	8.02	-40.1	-50.8	3.8	8.46e-01	0	58	104	0	51	11934
2026-01-27 05:11:28.80	6.09	8.09	-40.1	-50.9	3.8	8.46e-01	0	58	104	0	51	12000
2026-01-27 05:11:29.81	6.01	8.16	-40.2	-51.0	3.8	8.45e-01	0	58	104	0	51	12136
2026-01-27 05:11:30.82	5.94	8.24	-40.2	-51.0	3.8	8.47e-01	0	58	104	0	51	12130
2026-01-27 05:11:31.83	5.86	8.31	-40.3	-51.1	3.8	8.46e-01	0	58	104	0	51	12258
2026-01-27 05:11:32.84	5.79	8.38	-40.2	-51.0	3.8	8.46e-01	0	58	104	0	51	12132
2026-01-27 05:11:33.85	5.71	8.46	-40.2	-51.1	3.8	8.45e-01	0	58	104	0	51	12239
2026-01-27 05:11:34.86	5.64	8.53	-40.2	-50.9	3.8	8.47e-01	0	58	104	0	51	12082
2026-01-27 05:11:35.87	5.56	8.60	-40.3	-51.1	3.8	8.47e-01	0	58	104	0	51	12317
2026-01-27 05:11:36.88	5.48	8.68	-40.2	-51.0	3.8	8.47e-01	0	59	104	0	51	12131
2026-01-27 05:11:37.89	5.40	8.75	-40.3	-51.1	3.8	8.45e-01	0	58	104	0	51	12250
2026-01-27 05:11:38.91	5.32	8.83	-40.2	-51.0	3.8	8.45e-01	0	59	104	0	51	12105
2026-01-27 05:11:39.92	5.25	8.90	-40.4	-51.2	3.8	8.46e-01	0	59	104	0	51	12453
2026-01-27 05:11:40.93	5.17	8.98	-40.2	-51.0	3.8	8.46e-01	0	59	104	0	51	12106
2026-01-27 05:11:41.94	5.09	9.05	-40.3	-51.1	3.8	8.46e-01	0	59	104	0	51	12245
2026-01-27 05:11:42.95	5.01	9.13	-40.2	-51.0	3.8	8.46e-01	0	59	104	0	51	12121
2026-01-27 05:11:43.96	4.93	9.20	-40.5	-51.3	3.8	8.45e-01	0	59	104	0	51	12602
2026-01-27 05:11:44.97	4.85	9.28	-40.2	-50.9	3.8	8.46e-01	0	59	104	0	51	12045
2026-01-27 05:11:45.98	4.77	9.35	-40.4	-51.2	3.8	8.45e-01	0	59	104	0	51	12397
2026-01-27 05:11:46.99	4.68	9.43	-40.2	-51.0	3.8	8.46e-01	0	59	104	0	51	12117
2026-01-27 05:11:48.00	4.60	9.51	-40.6	-51.4	3.8	8.46e-01	0	59	104	0	51	12680
2026-01-27 05:11:49.01	4.52	9.58	-40.2	-50.9	3.8	8.46e-01	0	59	104	0	51	12083
2026-01-27 05:11:50.02	4.44	9.66	-40.4	-51.2	3.8	8.46e-01	0	59	104	0	51	12506
2026-01-27 05:11:51.02	4.35	9.73	-40.2	-51.0	3.8	8.46e-01	0	59	104	0	51	12108
2026-01-27 05:11:52.04	4.27	9.81	-40.6	-51.4	3.8	8.45e-01	0	59	104	0	51	12725
2026-01-27 05:11:53.05	4.19	9.89	-40.2	-51.0	3.8	8.46e-01	0	59	104	0	51	12183
2026-01-27 05:11:54.06	4.10	9.96	-40.5	-51.2	3.8	8.46e-01	0	59	104	0	51	12509
2026-01-27 05:11:55.07	4.02	10.04	-40.3	-51.1	3.8	8.45e-01	0	59	104	0	51	12242
2026-01-27 05:11:56.08	3.93	10.12	-40.7	-51.4	3.8	8.46e-01	0	59	104	0	51	12800
2026-01-27 05:11:57.09	3.84	10.20	-40.2	-51.0	3.8	8.46e-01	0	59	104	0	51	12213
2026-01-27 05:11:58.10	3.76	10.27	-40.5	-51.3	3.8	8.46e-01	0	59	104	0	51	12594
2026-01-27 05:11:59.11	3.67	10.35	-40.3	-51.1	3.8	8.47e-01	0	59	104	0	51	12326
2026-01-27 05:12:00.12	3.58	10.43	-40.8	-51.5	3.8	8.46e-01	0	59	104	0	51	12888
2026-01-27 05:12:01.13	3.49	10.51	-40.3	-51.0	3.8	8.45e-01	0	59	104	0	51	12232
2026-01-27 05:12:02.14	3.41	10.59	-40.6	-51.4	3.8	8.46e-01	0	59	104	0	51	12666
2026-01-27 05:12:03.15	3.32	10.67	-40.4	-51.2	3.8	8.46e-01	0	59	104	0	51	12441
2026-01-27 05:12:04.16	3.23	10.74	-40.9	-51.7	3.8	8.45e-01	0	59	104	0	51	13121
2026-01-27 05:12:05.17	3.14	10.82	-40.3	-51.0	3.8	8.46e-01	0	59	104	0	51	12210
2026-01-27 05:12:06.18	3.05	10.90	-40.3	-51.0	3.8	8.48e-01	0	59	104	0	51	12232
2026-01-27 05:12:07.19	2.96	10.98	-40.2	-51.0	3.8	8.46e-01	0	59	104	0	51	12139
2026-01-27 05:12:08.20	2.86	11.06	-40.2	-51.0	3.8	8.47e-01	0	59	104	0	51	12153
2026-01-27 05:12:09.21	2.77	11.14	-40.2	-51.0	3.8	8.46e-01	0	59	104	0	51	12171
2026-01-27 05:12:10.22	2.68	11.22	-40.3	-51.1	3.8	8.46e-01	0	60	104	0	51	12236
2026-01-27 05:12:11.23	2.59	11.30	-41.0	-51.8	3.8	8.47e-01	0	60	104	0	51	13332
2026-01-27 05:12:12.24	2.49	11.38	-40.4	-51.2	3.8	8.46e-01	0	60	104	0	51	12443
2026-01-27 05:12:13.25	2.40	11.46	-40.3	-51.1	3.8	8.48e-01	0	60	104	0	51	12278
2026-01-27 05:12:14.26	2.30	11.54	-40.3	-51.1	3.8	8.47e-01	0	60	104	0	51	12326
2026-01-27 05:12:15.27	2.21	11.62	-40.3	-51.1	3.8	8.46e-01	0	60	104	0	51	12291
2026-01-27 05:12:16.28	2.11	11.70	-40.3	-51.1	3.8	8.46e-01	0	60	104	0	51	12277
2026-01-27 05:12:17.29	2.01	11.79	-40.4	-51.1	3.8	8.46e-01	0	60	104	0	51	12361
2026-01-27 05:12:18.30	1.92	11.87	-40.5	-51.2	3.8	8.47e-01	0	60	104	0	51	12471
2026-01-27 05:12:19.31	1.82	11.95	-41.3	-51.8	3.8	8.47e-01	0	60	104	0	52	12632
2026-01-27 05:12:20.32	1.72	12.03	-40.6	-51.4	3.8	8.46e-01	0	60	104	0	52	11990
2026-01-27 05:12:21.33	1.62	12.11	-40.5	-51.3	3.8	8.46e-01	0	60	104	0	51	12526
2026-01-27 05:12:22.34	1.52	12.19	-40.6	-51.3	3.8	8.44e-01	0	60	104	0	51	12640
2026-01-27 05:12:23.35	1.42	12.28	-40.6	-51.3	3.8	8.45e-01	0	60	104	0	51	12561
2026-01-27 05:12:24.36	1.32	12.36	-40.6	-51.3	3.8	8.47e-01	0	60	104	0	51	12637
2026-01-27 05:12:25.37	1.22	12.44	-40.7	-51.4	3.8	8.46e-01	0	60	104	0	51	12766
2026-01-27 05:12:26.38	1.12	12.52	-40.8	-51.5	3.8	8.45e-01	0	60	104	0	51	12858
2026-01-27 05:12:27.39	1.02	12.61	-42.0	-51.8	3.8	8.47e-01	0	60	104	0	54	11259
2026-01-27 05:12:28.40	0.92	12.69	-40.9	-51.0	3.8	8.46e-01	0	60	104	0	52	11516
2026-01-27 05:12:29.40	0.81	12.77	-40.6	-51.3	3.8	8.46e-01	0	60	104	0	52	11950
2026-01-27 05:12:30.41	0.71	12.86	-40.7	-50.5	3.8	8.46e-01	0	60	104	0	52	10805
2026-01-27 05:12:31.42	0.61	12.94	-40.7	-50.0	3.8	8.46e-01	0	60	104	0	52	10273
2026-01-27 05:12:32.44	0.50	13.03	-40.6	-49.4	3.9	8.45e-01	0	60	104	0	52	9564
2026-01-27 05:12:33.45	0.39	13.11	-40.5	-48.9	3.9	8.42e-01	0	60	104	0	52	9048
2026-01-27 05:12:34.46	0.29	13.20	-40.3	-45.8	5.4	8.26e-01	0	60	0	0	51	6699
2026-01-27 05:12:35.47	0.18	13.28	-41.7	-46.8	6.1	8.00e-01	0	60	0	3145728	54	6321
2026-01-27 05:12:36.48	0.07	13.36	-40.2	-43.6	8.9	3.93e-02	0	60	0	10485760	51	5198
2026-01-27 05:12:37.49	359.96	13.45	-41.1	-46.8	5.3	8.35e-01	0	60	0	12582912	52	7041
2026-01-27 05:12:38.50	359.85	13.53	-39.2	-42.0	10.7	3.38e-03	0	60	0	19922944	49	4822
2026-01-27 05:12:39.51	359.74	13.62	-39.0	-41.6	11.0	1.90e-03	0	60	0	27262976	49	4646
2026-01-27 05:12:40.52	359.63	13.71	-38.9	-41.3	11.5	1.04e-03	0	60	0	34603008	48	4755
2026-01-27 05:12:41.53	359.52	13.79	-38.3	-40.5	12.2	2.67e-04	0	60	0	41943040	47	4591
2026-01-27 05:12:42.54	359.41	13.88	-38.2	-40.3	12.5	1.35e-04	0	60	0	49283072	47	4476
2026-01-27 05:12:43.55	359.30	13.96	-38.4	-40.6	12.3	1.68e-04	0	60	0	55574528	47	4639
2026-01-27 05:12:44.56	359.19	14.05	-37.8	-39.8	13.1	2.74e-05	0	60	0	63963136	46	4489
2026-01-27 05:12:45.57	359.07	14.14	-37.4	-39.3	13.7	1.02e-05	0	60	0	71303168	45	4461
2026-01-27 05:12:46.58	358.96	14.22	-37.3	-39.2	13.8	2.20e-06	0	60	0	77594624	45	4397
2026-01-27 05:12:47.60	358.84	14.31	-37.6	-39.6	13.4	9.10e-06	0	60	0	84934656	45	4604
2026-01-27 05:12:48.61	358.73	14.40	-37.6	-39.4	13.7	2.20e-06	0	60	0	92274688	45	4533
2026-01-27 05:12:49.62	358.61	14.49	-37.4	-39.2	13.9	0.00e+00	0	60	0	99614720	45	4438
2026-01-27 05:12:50.63	358.49	14.57	-37.5	-39.3	13.9	5.70e-06	0	60	0	106954752	45	4472
2026-01-27 05:12:51.64	358.37	14.66	-37.2	-38.9	14.4	0.00e+00	0	60	0	114294784	45	4262
2026-01-27 05:12:52.65	358.25	14.75	-36.9	-38.6	14.7	0.00e+00	0	60	0	121634816	44	4358
2026-01-27 05:12:53.66	358.14	14.84	-37.0	-38.7	14.7	0.00e+00	0	60	0	128974848	44	4417
2026-01-27 05:12:54.67	358.02	14.93	-37.2	-38.9	14.4	0.00e+00	0	60	0	136314880	44	4541
2026-01-27 05:12:55.68	357.89	15.01	-37.3	-39.0	14.4	0.00e+00	0	61	0	143654912	44	4569
2026-01-27 05:12:56.70	357.77	15.10	-37.1	-38.8	14.7	1.10e-06	0	60	0	150994944	44	4461
2026-01-27 05:12:57.71	357.65	15.19	-36.8	-38.5	14.4	2.36e-03	0	60	0	158334976	44	4329
2026-01-27 05:12:58.72	357.53	15.28	-36.4	-38.1	14.7	8.89e-04	0	60	0	165675008	43	4369
2026-01-27 05:12:59.73	357.40	15.37	-36.5	-38.2	14.4	2.13e-03	0	60	0	173015040	43	4434
2026-01-27 05:13:00.74	357.28	15.46	-36.6	-38.4	14.1	3.09e-03	0	61	0	180355072	43	4523
2026-01-27 05:13:01.75	357.15	15.55	-36.4	-38.1	14.3	4.27e-03	0	60	0	187695104	43	4383
2026-01-27 05:13:02.76	357.03	15.64	-36.3	-38.0	14.3	3.14e-03	0	61	0	195035136	43	4329
2026-01-27 05:13:03.77	356.90	15.73	-35.8	-37.5	14.9	3.84e-03	0	61	0	202375168	42	4300
2026-01-27 05:13:04.78	356.77	15.82	-35.9	-37.6	14.7	1.73e-03	0	60	0	209715200	42	4360
2026-01-27 05:13:05.79	356.64	15.91	-36.0	-37.7	14.5	1.87e-03	0	60	0	217055232	42	4421
2026-01-27 05:13:06.80	356.51	16.00	-36.5	-38.5	13.6	1.62e-03	0	61	0	223346688	42	4835
2026-01-27 05:13:07.81	356.38	16.09	-37.0	-39.2	12.7	5.43e-03	0	61	0	231735296	43	4937
2026-01-27 05:13:08.82	356.25	16.18	-37.7	-40.1	11.6	1.31e-02	0	61	0	239075328	45	4899
2026-01-27 05:13:09.83	356.12	16.27	-38.5	-41.6	9.9	1.90e-02	0	61	0	245366784	46	5500
2026-01-27 05:13:10.84	355.99	16.37	-39.1	-43.0	8.3	4.42e-02	0	61	0	252706816	47	6086
2026-01-27 05:13:11.85	355.85	16.46	-39.9	-44.6	6.8	1.65e-01	0	61	0	260046848	49	6496
2026-01-27 05:13:12.86	355.72	16.55	-40.6	-46.5	5.3	6.69e-01	0	61	0	266338304	50	7719
2026-01-27 05:13:13.87	355.58	16.64	-40.8	-47.9	4.4	8.18e-01	0	61	0	266338304	51	8560
2026-01-27 05:13:14.88	355.45	16.73	-41.0	-49.3	4.0	8.38e-01	0	61	0	266338304	51	9990
2026-01-27 05:13:15.89	355.31	16.83	-41.1	-50.6	3.8	8.46e-01	0	61	104	266338304	51	11676
2026-01-27 05:13:16.90	355.17	16.92	-41.1	-51.3	3.8	8.47e-01	0	61	104	266338304	51	12654
2026-01-27 05:13:17.91	355.03	17.01	-41.2	-51.9	3.8	8.45e-01	0	61	104	266338304	51	13521
2026-01-27 05:13:18.93	354.89	17.10	-41.5	-50.7	3.8	8.47e-01	0	61	104	266338304	52	11059
2026-01-27 05:13:19.94	354.75	17.20	-42.1	-51.2	3.9	8.44e-01	0	61	104	266338304	53	11124
2026-01-27 05:13:20.95	354.61	17.29	-41.1	-51.8	3.8	8.46e-01	0	61	104	266338304	53	11937
2026-01-27 05:13:21.95	354.47	17.38	-41.4	-51.3	3.8	8.47e-01	0	61	104	266338304	53	11262
2026-01-27 05:13:22.96	354.33	17.48	-41.4	-51.6	3.8	8.47e-01	0	61	104	266338304	53	11660
2026-01-27 05:13:23.97	354.18	17.57	-41.3	-51.7	3.8	8.46e-01	0	61	104	266338304	53	11743
2026-01-27 05:13:24.98	354.04	17.66	-41.4	-52.0	3.8	8.46e-01	0	61	104	266338304	53	12141
2026-01-27 05:13:25.99	353.89	17.76	-41.1	-51.9	3.8	8.46e-01	0	61	104	266338304	53	12038
2026-01-27 05:13:27.00	353.75	17.85	-40.9	-51.7	3.8	8.46e-01	0	61	104	266338304	52	12462
2026-01-27 05:13:28.01	353.60	17.95	-41.3	-51.9	3.8	8.46e-01	0	61	104	266338304	52	12782
2026-01-27 05:13:29.02	353.45	18.04	-40.9	-51.7	3.8	8.46e-01	0	61	104	266338304	52	12513
2026-01-27 05:13:30.03	353.30	18.14	-41.0	-51.7	3.8	8.46e-01	0	61	104	266338304	52	12480
2026-01-27 05:13:31.04	353.15	18.23	-41.0	-51.8	3.8	8.47e-01	0	61	104	266338304	52	12575
2026-01-27 05:13:32.05	353.00	18.33	-41.2	-51.8	3.8	8.46e-01	0	61	104	266338304	52	12641
2026-01-27 05:13:33.06	352.85	18.42	-41.1	-51.9	3.8	8.45e-01	0	61	104	266338304	52	12706
2026-01-27 05:13:34.07	352.69	18.52	-41.1	-51.9	3.8	8.46e-01	0	61	104	266338304	52	12700
2026-01-27 05:13:35.08	352.54	18.61	-41.0	-51.8	3.8	8.46e-01	0	61	104	266338304	52	12540
2026-01-27 05:13:36.09	352.38	18.71	-41.3	-52.0	3.8	8.46e-01	0	61	104	266338304	52	12924
2026-01-27 05:13:37.10	352.23	18.80	-40.9	-51.7	3.8	8.46e-01	0	61	104	266338304	52	12441
2026-01-27 05:13:38.11	352.07	18.90	-41.2	-51.9	3.8	8.47e-01	0	61	104	266338304	52	12756
2026-01-27 05:13:39.12	351.91	18.99	-41.0	-51.7	3.8	8.47e-01	0	61	104	266338304	52	12460
2026-01-27 05:13:40.13	351.75	19.09	-41.3	-51.9	3.8	8.46e-01	0	61	104	266338304	52	12741
2026-01-27 05:13:41.14	351.59	19.19	-40.9	-51.7	3.8	8.46e-01	0	61	104	266338304	52	12398
2026-01-27 05:13:42.15	351.43	19.28	-41.2	-52.0	3.8	8.46e-01	0	61	104	266338304	52	12821
2026-01-27 05:13:43.16	351.27	19.38	-41.1	-51.8	3.8	8.45e-01	0	61	104	266338304	52	12660
2026-01-27 05:13:44.17	351.10	19.48	-41.5	-51.9	3.8	8.45e-01	0	61	104	266338304	52	12732
2026-01-27 05:13:45.18	350.94	19.57	-41.0	-51.7	3.8	8.45e-01	0	61	104	266338304	52	12489
2026-01-27 05:13:46.19	350.77	19.67	-41.3	-51.6	3.8	8.46e-01	0	61	104	266338304	52	12308
2026-01-27 05:13:47.20	350.60	19.77	-41.2	-51.8	3.8	8.47e-01	0	61	104	266338304	52	12633
2026-01-27 05:13:48.21	350.44	19.87	-41.5	-50.1	4.0	8.43e-01	0	61	104	266338304	53	9819
2026-01-27 05:13:49.22	350.27	19.96	-41.1	-51.8	3.8	8.46e-01	0	61	104	266338304	53	11850
2026-01-27 05:13:50.24	350.10	20.06	-41.8	-49.8	4.1	8.41e-01	0	61	104	266338304	53	9463
2026-01-27 05:13:51.25	349.92	20.16	-42.0	-49.9	4.1	8.39e-01	0	61	0	266338304	53	9500
2026-01-27 05:13:52.26	349.75	20.26	-42.0	-49.7	4.2	8.39e-01	0	61	0	266338304	53	9344
2026-01-27 05:13:53.27	349.58	20.35	-42.0	-49.4	4.3	8.34e-01	0	61	0	266338304	53	9048
2026-01-27 05:13:54.28	349.40	20.45	-41.8	-48.4	4.7	8.08e-01	0	61	0	266338304	53	8017
2026-01-27 05:13:55.29	349.23	20.55	-41.6	-47.3	5.4	7.48e-01	0	61	0	266338304	53	7091
2026-01-27 05:13:56.29	349.05	20.65	-43.5	-53.3	3.8	8.46e-01	0	61	104	266338304	56	11890
2026-01-27 05:13:57.30	348.87	20.75	-41.5	-46.8	5.9	7.19e-01	0	61	0	266338304	54	6291
2026-01-27 05:13:58.31	348.70	20.84	-41.1	-50.6	3.8	8.47e-01	0	61	104	267386880	52	10906
2026-01-27 05:13:59.33	348.51	20.94	-40.9	-45.1	7.4	3.99e-01	0	61	0	270532608	53	5478
2026-01-27 05:14:00.34	348.33	21.04	-41.2	-46.7	5.6	7.95e-01	0	61	0	274726912	52	7002
2026-01-27 05:14:01.35	348.15	21.14	-39.9	-43.0	9.6	1.56e-02	0	61	0	282066944	50	5158
2026-01-27 05:14:02.36	347.96	21.24	-39.4	-42.2	10.6	5.75e-03	0	61	0	289406976	49	4951
2026-01-27 05:14:03.37	347.78	21.34	-38.8	-41.3	11.5	1.18e-03	0	61	0	296747008	48	4714
2026-01-27 05:14:04.38	347.59	21.44	-38.3	-40.6	12.0	3.74e-04	0	61	0	304087040	47	4608
2026-01-27 05:14:05.39	347.41	21.53	-38.0	-40.2	12.4	1.98e-04	0	61	0	310378496	46	4656
2026-01-27 05:14:06.40	347.22	21.63	-37.5	-39.5	13.1	3.08e-05	0	61	0	317718528	46	4302
2026-01-27 05:14:07.41	347.03	21.73	-37.4	-39.2	13.6	8.00e-06	0	62	0	325058560	45	4433
2026-01-27 05:14:08.41	346.84	21.83	-37.0	-38.8	14.2	1.10e-06	0	62	0	332398592	45	4194
2026-01-27 05:14:09.42	346.64	21.93	-36.6	-38.2	14.9	0.00e+00	0	61	0	339738624	44	4159
2026-01-27 05:14:10.43	346.45	22.03	-35.9	-37.4	15.5	0.00e+00	0	61	0	347078656	42	4245
2026-01-27 05:14:11.44	346.26	22.13	-35.6	-37.1	15.9	0.00e+00	0	62	0	354418688	42	4112
2026-01-27 05:14:12.45	346.06	22.23	-35.3	-36.7	16.4	0.00e+00	0	62	0	361758720	41	4158
2026-01-27 05:14:13.46	345.86	22.33	-35.1	-36.4	16.7	0.00e+00	0	61	0	369098752	41	4020
2026-01-27 05:14:14.47	345.66	22.42	-35.1	-36.5	16.7	0.00e+00	0	61	0	376438784	41	4058
2026-01-27 05:14:15.48	345.46	22.52	-35.3	-36.7	16.5	0.00e+00	0	61	0	383778816	41	4150
2026-01-27 05:14:16.49	345.26	22.62	-35.5	-36.8	16.4	0.00e+00	0	61	0	391118848	41	4238
2026-01-27 05:14:17.50	345.06	22.72	-35.7	-37.1	16.3	0.00e+00	0	62	0	398458880	41	4381
2026-01-27 05:14:18.51	344.85	22.82	-35.9	-37.3	16.3	0.00e+00	0	61	0	405798912	41	4460
2026-01-27 05:14:19.52	344.65	22.92	-36.1	-37.5	16.2	0.00e+00	0	62	0	413138944	41	4552
2026-01-27 05:14:20.53	344.44	23.02	-35.8	-37.2	16.7	0.00e+00	0	62	0	420478976	41	4407
2026-01-27 05:14:21.55	344.23	23.12	-35.6	-36.9	17.1	0.00e+00	0	62	0	427819008	41	4273
2026-01-27 05:14:22.56	344.02	23.22	-35.7	-37.0	17.0	0.00e+00	0	62	0	434110464	41	4340
2026-01-27 05:14:23.57	343.81	23.32	-36.0	-37.3	16.8	0.00e+00	0	62	0	442499072	41	4464
2026-01-27 05:14:24.58	343.60	23.42	-35.9	-37.2	17.0	0.00e+00	0	61	0	449839104	41	4399
2026-01-27 05:14:25.59	343.39	23.52	-35.5	-36.8	17.4	0.00e+00	0	62	0	456130560	41	4215
2026-01-27 05:14:26.60	343.17	23.61	-35.4	-36.6	17.6	0.00e+00	0	61	0	463470592	41	4124
2026-01-27 05:14:27.61	342.95	23.71	-35.3	-36.6	17.7	0.00e+00	0	62	0	471859200	41	4099
2026-01-27 05:14:28.62	342.74	23.81	-35.3	-36.5	17.8	0.00e+00	0	62	0	478150656	41	4085
2026-01-27 05:14:29.63	342.52	23.91	-35.2	-36.4	17.9	0.00e+00	0	61	0	485490688	41	4033
2026-01-27 05:14:30.64	342.30	24.01	-35.2	-36.3	18.0	0.00e+00	0	61	0	492830720	41	4002
2026-01-27 05:14:31.65	342.07	24.11	-35.2	-36.4	18.0	0.00e+00	0	62	0	500170752	41	4012
2026-01-27 05:14:32.66	341.85	24.21	-35.1	-36.3	18.1	0.00e+00	0	62	0	507510784	41	3983
2026-01-27 05:14:33.67	341.63	24.30	-35.2	-36.3	18.1	0.00e+00	0	61	0	514850816	41	4004
2026-01-27 05:14:34.68	341.40	24.40	-35.2	-36.3	18.1	0.00e+00	0	61	0	522190848	41	3992
2026-01-27 05:14:35.69	341.17	24.50	-35.1	-36.3	18.1	0.00e+00	0	62	0	529530880	41	3978
2026-01-27 05:14:36.70	340.94	24.60	-35.2	-36.4	18.1	0.00e+00	0	62	0	536870912	41	4028
2026-01-27 05:14:37.71	340.71	24.70	-35.2	-36.4	18.1	0.00e+00	0	62	0	544210944	41	4030
2026-01-27 05:14:38.72	340.48	24.79	-35.2	-36.3	18.2	0.00e+00	0	62	0	551550976	41	3999
2026-01-27 05:14:39.73	340.25	24.89	-35.0	-36.2	18.3	0.00e+00	0	62	0	558891008	41	3928
2026-01-27 05:14:40.74	340.01	24.99	-35.0	-36.1	18.4	0.00e+00	0	62	0	566231040	40	4143
2026-01-27 05:14:41.75	339.78	25.09	-34.9	-36.1	18.5	0.00e+00	0	62	0	573571072	40	4117
2026-01-27 05:14:42.76	339.54	25.18	-34.8	-36.0	18.6	0.00e+00	0	62	0	580911104	40	4052
2026-01-27 05:14:43.77	339.30	25.28	-34.8	-35.9	18.7	0.00e+00	0	62	0	588251136	40	4038
2026-01-27 05:14:44.78	339.06	25.38	-34.7	-35.8	18.8	0.00e+00	0	62	0	595591168	40	3973
2026-01-27 05:14:45.79	338.82	25.47	-34.7	-35.8	18.8	0.00e+00	0	62	0	602931200	40	3985
2026-01-27 05:14:46.80	338.57	25.57	-34.8	-35.9	18.7	0.00e+00	0	62	0	609222656	40	4037
2026-01-27 05:14:47.81	338.33	25.66	-34.8	-35.9	18.7	0.00e+00	0	62	0	617611264	40	4034
2026-01-27 05:14:48.83	338.08	25.76	-34.8	-35.9	18.7	0.00e+00	0	62	0	624951296	40	4043
2026-01-27 05:14:49.84	337.83	25.86	-34.8	-35.9	18.7	0.00e+00	0	62	0	631242752	40	4036
2026-01-27 05:14:50.85	337.58	25.95	-34.8	-36.0	18.7	0.00e+00	0	62	0	638582784	40	4053
2026-01-27 05:14:51.86	337.33	26.05	-34.8	-36.0	18.7	0.00e+00	0	62	0	646971392	40	4054
2026-01-27 05:14:52.87	337.07	26.14	-35.0	-36.1	18.5	0.00e+00	0	62	0	653262848	40	4131
2026-01-27 05:14:53.88	336.82	26.24	-35.0	-36.1	18.5	0.00e+00	0	62	0	660602880	40	4140
2026-01-27 05:14:54.89	336.56	26.33	-35.1	-36.2	18.4	0.00e+00	0	62	0	667942912	40	4191
2026-01-27 05:14:55.90	336.31	26.42	-35.0	-36.2	18.5	0.00e+00	0	62	0	675282944	40	4158
2026-01-27 05:14:56.91	336.05	26.52	-35.1	-36.2	18.4	0.00e+00	0	62	0	682622976	40	4188
2026-01-27 05:14:57.93	335.78	26.61	-35.1	-36.2	18.4	0.00e+00	0	62	0	689963008	40	4191
2026-01-27 05:14:58.94	335.52	26.70	-35.1	-36.3	18.4	0.00e+00	0	62	0	697303040	40	4212
2026-01-27 05:14:59.94	335.26	26.80	-35.1	-36.3	18.4	0.00e+00	0	62	0	704643072	40	4198
2026-01-27 05:15:00.95	334.99	26.89	-35.1	-36.2	18.4	0.00e+00	0	62	0	711983104	40	4180
2026-01-27 05:15:01.96	334.73	26.98	-35.2	-36.3	18.3	0.00e+00	0	62	0	719323136	40	4222
2026-01-27 05:15:02.97	334.46	27.07	-35.2	-36.3	18.4	0.00e+00	0	62	0	726663168	40	4220
2026-01-27 05:15:03.98	334.19	27.16	-35.2	-36.4	18.3	0.00e+00	0	62	0	734003200	40	4271
2026-01-27 05:15:04.99	333.92	27.25	-35.1	-36.3	18.4	0.00e+00	0	62	0	741343232	40	4198
2026-01-27 05:15:06.00	333.64	27.34	-35.1	-36.2	18.4	0.00e+00	0	62	0	748683264	40	4191
2026-01-27 05:15:07.01	333.37	27.43	-35.2	-36.3	18.4	0.00e+00	0	62	0	756023296	40	4223
2026-01-27 05:15:08.02	333.09	27.52	-35.2	-36.3	18.4	0.00e+00	0	62	0	763363328	40	4219
2026-01-27 05:15:09.03	332.82	27.61	-35.1	-36.3	18.4	0.00e+00	0	62	0	770703360	40	4196
2026-01-27 05:15:10.04	332.54	27.70	-35.2	-36.4	18.4	0.00e+00	0	62	0	776994816	40	4244
2026-01-27 05:15:11.05	332.26	27.79	-35.2	-36.4	18.3	0.00e+00	0	62	0	784334848	40	4267
2026-01-27 05:15:12.06	331.97	27.87	-35.2	-36.4	18.3	0.00e+00	0	62	0	792723456	40	4261
2026-01-27 05:15:13.08	331.69	27.96	-35.2	-36.4	18.3	0.00e+00	0	62	0	799014912	40	4252
2026-01-27 05:15:14.09	331.40	28.05	-35.2	-36.4	18.3	0.00e+00	0	62	0	806354944	40	4256
2026-01-27 05:15:15.10	331.11	28.13	-35.1	-36.2	18.5	0.00e+00	0	62	0	813694976	40	4186
2026-01-27 05:15:16.10	330.83	28.22	-35.0	-36.1	18.6	0.00e+00	0	62	0	821035008	40	4119
2026-01-27 05:15:17.11	330.54	28.30	-34.8	-35.9	18.8	0.00e+00	0	62	0	828375040	40	4015
2026-01-27 05:15:18.13	330.24	28.39	-34.7	-35.8	18.8	0.00e+00	0	62	0	835715072	40	3997
2026-01-27 05:15:19.14	329.95	28.47	-34.7	-35.8	18.8	0.00e+00	0	62	0	843055104	40	3982
2026-01-27 05:15:20.15	329.65	28.55	-34.7	-35.7	18.9	0.00e+00	0	62	0	850395136	40	3957
2026-01-27 05:15:21.16	329.36	28.64	-34.7	-35.8	18.9	0.00e+00	0	62	0	857735168	40	3960
2026-01-27 05:15:22.17	329.06	28.72	-34.8	-35.9	18.8	0.00e+00	0	62	0	865075200	40	4013
2026-01-27 05:15:23.18	328.76	28.80	-34.8	-35.9	18.8	0.00e+00	0	62	0	872415232	40	4040
2026-01-27 05:15:24.19	328.46	28.88	-35.0	-36.1	18.6	0.00e+00	0	62	0	879755264	40	4129
2026-01-27 05:15:25.20	328.16	28.96	-35.0	-36.2	18.6	0.00e+00	0	62	0	887095296	40	4169
2026-01-27 05:15:26.21	327.85	29.04	-35.0	-36.1	18.6	0.00e+00	0	62	0	894435328	40	4141
2026-01-27 05:15:27.22	327.55	29.12	-35.1	-36.2	18.5	0.00e+00	0	62	0	901775360	40	4179
2026-01-27 05:15:28.23	327.24	29.20	-35.0	-36.2	18.6	0.00e+00	0	62	0	909115392	40	4160
2026-01-27 05:15:29.24	326.93	29.27	-34.9	-36.0	18.7	0.00e+00	0	62	0	916455424	40	4076
2026-01-27 05:15:30.25	326.62	29.35	-34.9	-36.0	18.7	0.00e+00	0	62	0	923795456	40	4095
2026-01-27 05:15:31.27	326.30	29.42	-35.0	-36.2	18.6	0.00e+00	0	62	0	931135488	40	4164
2026-01-27 05:15:32.28	325.99	29.50	-35.0	-36.1	18.6	0.00e+00	0	62	0	938475520	40	4138
2026-01-27 05:15:33.28	325.68	29.57	-35.1	-36.2	18.5	0.00e+00	0	62	0	945815552	40	4170
2026-01-27 05:15:34.29	325.36	29.65	-35.0	-36.1	18.7	0.00e+00	0	62	0	952107008	40	4120
2026-01-27 05:15:35.30	325.05	29.72	-35.0	-36.1	18.7	0.00e+00	0	62	0	959447040	40	4113
2026-01-27 05:15:36.31	324.73	29.79	-34.8	-35.9	18.8	0.00e+00	0	62	0	967835648	40	4046
2026-01-27 05:15:37.32	324.41	29.86	-34.9	-36.0	18.8	0.00e+00	0	62	0	974127104	40	4077
2026-01-27 05:15:38.33	324.08	29.93	-34.7	-35.8	18.9	0.00e+00	0	62	0	981467136	40	3990
2026-01-27 05:15:39.35	323.76	30.00	-34.7	-35.7	19.0	0.00e+00	0	62	0	988807168	40	3953
2026-01-27 05:15:40.36	323.43	30.07	-34.8	-35.9	18.8	0.00e+00	0	62	0	996147200	40	4026
2026-01-27 05:15:41.37	323.11	30.14	-34.8	-35.9	18.9	0.00e+00	0	62	0	1003487232	40	4016
2026-01-27 05:15:42.38	322.78	30.20	-34.8	-35.9	18.9	0.00e+00	0	62	0	1010827264	40	4029
2026-01-27 05:15:43.39	322.45	30.27	-34.8	-36.0	18.8	0.00e+00	0	62	0	1018167296	40	4060
2026-01-27 05:15:44.40	322.12	30.33	-34.8	-35.9	18.9	0.00e+00	0	62	0	1025507328	40	4038
2026-01-27 05:15:45.41	321.79	30.40	-34.8	-35.9	18.9	0.00e+00	0	62	0	1032847360	40	4013
2026-01-27 05:15:46.42	321.46	30.46	-34.6	-35.8	19.0	0.00e+00	0	62	0	1040187392	40	3965
2026-01-27 05:15:47.43	321.12	30.52	-34.7	-35.8	18.9	0.00e+00	0	62	0	1047527424	40	3986
2026-01-27 05:15:48.43	320.79	30.58	-34.6	-35.7	19.1	0.00e+00	0	62	0	1054867456	40	3942
2026-01-27 05:15:49.44	320.45	30.64	-34.7	-35.8	19.0	0.00e+00	0	62	0	1062207488	40	3962
2026-01-27 05:15:50.45	320.12	30.70	-34.5	-35.6	19.1	0.00e+00	0	62	0	1069547520	40	3906
2026-01-27 05:15:51.47	319.77	30.76	-34.6	-35.7	19.1	0.00e+00	0	62	0	1076887552	39	4151
2026-01-27 05:15:52.48	319.43	30.82	-34.5	-35.6	19.2	0.00e+00	0	62	0	1084227584	39	4119
2026-01-27 05:15:53.49	319.09	30.87	-34.5	-35.6	19.2	0.00e+00	0	62	0	1091567616	39	4128
2026-01-27 05:15:54.50	318.75	30.93	-34.6	-35.7	19.2	0.00e+00	0	62	0	1097859072	39	4153
2026-01-27 05:15:55.51	318.40	30.98	-34.6	-35.7	19.1	0.00e+00	0	62	0	1105199104	39	4171
2026-01-27 05:15:56.52	318.06	31.03	-34.7	-35.8	19.1	0.00e+00	0	62	0	1113587712	39	4197
2026-01-27 05:15:57.52	317.72	31.09	-34.6	-35.7	19.1	0.00e+00	0	62	0	1119879168	39	4179
2026-01-27 05:15:58.54	317.37	31.14	-34.7	-35.8	19.1	0.00e+00	0	62	0	1127219200	39	4199
2026-01-27 05:15:59.55	317.02	31.19	-34.7	-35.8	19.0	0.00e+00	0	62	0	1134559232	39	4223
2026-01-27 05:16:00.56	316.67	31.23	-34.8	-35.9	18.9	0.00e+00	0	62	0	1141899264	39	4291
2026-01-27 05:16:01.57	316.32	31.28	-34.8	-35.9	19.0	0.00e+00	0	62	0	1149239296	39	4260
2026-01-27 05:16:02.58	315.97	31.33	-34.7	-35.8	19.0	0.00e+00	0	62	0	1156579328	39	4237
2026-01-27 05:16:03.59	315.61	31.37	-34.7	-35.8	19.0	0.00e+00	0	62	0	1163919360	39	4205
2026-01-27 05:16:04.60	315.26	31.42	-34.7	-35.7	19.1	0.00e+00	0	62	0	1171259392	39	4192
2026-01-27 05:16:05.61	314.91	31.46	-34.7	-35.8	19.0	0.00e+00	0	62	0	1178599424	39	4199
2026-01-27 05:16:06.62	314.55	31.50	-34.7	-35.8	19.0	0.00e+00	0	62	0	1185939456	39	4228
2026-01-27 05:16:07.63	314.19	31.54	-34.7	-35.8	19.1	0.00e+00	0	62	0	1193279488	39	4212
2026-01-27 05:16:08.64	313.84	31.58	-34.6	-35.7	19.1	0.00e+00	0	62	0	1200619520	39	4165
2026-01-27 05:16:09.65	313.48	31.62	-34.6	-35.7	19.2	0.00e+00	0	62	0	1207959552	39	4159
2026-01-27 05:16:10.67	313.12	31.65	-34.5	-35.5	19.3	0.00e+00	0	62	0	1215299584	39	4092
2026-01-27 05:16:11.68	312.76	31.69	-34.3	-35.3	19.5	0.00e+00	0	62	0	1222639616	39	3991
2026-01-27 05:16:12.69	312.40	31.72	-34.4	-35.4	19.4	0.00e+00	0	62	0	1229979648	39	4035
2026-01-27 05:16:13.70	312.03	31.76	-34.3	-35.4	19.4	0.00e+00	0	62	0	1237319680	39	4024
2026-01-27 05:16:14.71	311.67	31.79	-34.4	-35.5	19.3	0.00e+00	0	62	0	1244659712	39	4064
2026-01-27 05:16:15.72	311.31	31.82	-34.5	-35.5	19.3	0.00e+00	0	62	0	1251999744	39	4091
2026-01-27 05:16:16.73	310.95	31.85	-34.5	-35.5	19.3	0.00e+00	0	62	0	1259339776	39	4094
2026-01-27 05:16:17.74	310.58	31.88	-34.6	-35.6	19.2	0.00e+00	0	62	0	1266679808	39	4136
2026-01-27 05:16:18.75	310.22	31.90	-34.6	-35.6	19.2	0.00e+00	0	62	0	1272971264	39	4137
2026-01-27 05:16:19.76	309.85	31.93	-34.5	-35.5	19.3	0.00e+00	0	62	0	1281359872	39	4088
2026-01-27 05:16:20.78	309.48	31.95	-34.5	-35.6	19.2	0.00e+00	0	62	0	1288699904	39	4117
2026-01-27 05:16:21.79	309.12	31.97	-34.5	-35.6	19.2	0.00e+00	0	62	0	1294991360	39	4125
2026-01-27 05:16:22.80	308.75	32.00	-34.5	-35.6	19.2	0.00e+00	0	62	0	1302331392	39	4104
2026-01-27 05:16:23.81	308.38	32.02	-34.4	-35.4	19.3	0.00e+00	0	62	0	1310720000	39	4051
2026-01-27 05:16:24.82	308.01	32.03	-34.5	-35.5	19.2	0.00e+00	0	62	0	1317011456	39	4080
2026-01-27 05:16:25.83	307.65	32.05	-34.4	-35.5	19.3	0.00e+00	0	62	0	1324351488	39	4059
2026-01-27 05:16:26.84	307.28	32.07	-34.5	-35.6	19.2	0.00e+00	0	62	0	1331691520	39	4124
2026-01-27 05:16:27.85	306.91	32.08	-34.5	-35.6	19.2	0.00e+00	0	62	0	1339031552	39	4099
2026-01-27 05:16:28.86	306.54	32.10	-34.5	-35.6	19.2	0.00e+00	0	62	0	1346371584	39	4099
2026-01-27 05:16:29.87	306.17	32.11	-34.4	-35.5	19.3	0.00e+00	0	62	0	1353711616	39	4082
2026-01-27 05:16:30.89	305.79	32.12	-34.3	-35.3	19.5	0.00e+00	0	62	0	1361051648	39	4000
2026-01-27 05:16:31.89	305.43	32.13	-34.3	-35.4	19.4	0.00e+00	0	62	0	1368391680	39	4007
2026-01-27 05:16:32.90	305.06	32.14	-34.3	-35.3	19.5	0.00e+00	0	62	0	1375731712	39	3997
2026-01-27 05:16:33.91	304.69	32.14	-34.4	-35.5	19.3	0.00e+00	0	62	0	1383071744	39	4055
2026-01-27 05:16:34.92	304.32	32.15	-34.3	-35.4	19.4	0.00e+00	0	62	0	1390411776	39	4013
2026-01-27 05:16:35.93	303.95	32.15	-34.4	-35.4	19.3	0.00e+00	0	62	0	1397751808	39	4046
2026-01-27 05:16:36.94	303.57	32.15	-34.3	-35.4	19.4	0.00e+00	0	62	0	1405091840	39	4027
2026-01-27 05:16:37.95	303.20	32.16	-34.3	-35.3	19.4	0.00e+00	0	62	0	1412431872	39	3993
2026-01-27 05:16:38.96	302.83	32.16	-34.2	-35.3	19.5	0.00e+00	0	62	0	1419771904	39	3978
2026-01-27 05:16:39.97	302.46	32.15	-34.3	-35.4	19.4	0.00e+00	0	62	0	1427111936	39	4013
2026-01-27 05:16:40.98	302.09	32.15	-34.3	-35.3	19.5	0.00e+00	0	62	0	1434451968	39	3977
2026-01-27 05:16:41.99	301.72	32.15	-34.2	-35.3	19.5	0.00e+00	0	62	0	1440743424	39	3981
2026-01-27 05:16:43.00	301.35	32.14	-34.2	-35.3	19.5	0.00e+00	0	62	0	1448083456	39	3971
2026-01-27 05:16:44.01	300.98	32.13	-34.2	-35.3	19.5	0.00e+00	0	62	0	1456472064	39	3969
2026-01-27 05:16:45.02	300.61	32.13	-34.4	-35.4	19.3	0.00e+00	0	62	0	1463812096	39	4044
2026-01-27 05:16:46.04	300.23	32.12	-34.3	-35.4	19.4	0.00e+00	0	62	0	1470103552	39	4026
2026-01-27 05:16:47.05	299.86	32.11	-34.3	-35.3	19.4	0.00e+00	0	62	0	1477443584	39	4000
2026-01-27 05:16:48.06	299.49	32.09	-34.3	-35.4	19.4	0.00e+00	0	62	0	1484783616	39	4014
2026-01-27 05:16:49.07	299.12	32.08	-34.3	-35.4	19.4	0.00e+00	0	62	0	1492123648	39	4009
2026-01-27 05:16:50.08	298.76	32.07	-34.2	-35.3	19.5	0.00e+00	0	62	0	1499463680	39	3982
2026-01-27 05:16:51.09	298.39	32.05	-34.3	-35.3	19.5	0.00e+00	0	62	0	1506803712	39	3984
2026-01-27 05:16:52.10	298.02	32.03	-34.2	-35.3	19.5	0.00e+00	0	62	0	1514143744	39	3973
2026-01-27 05:16:53.11	297.65	32.01	-34.3	-35.4	19.4	0.00e+00	0	62	0	1521483776	39	4026
2026-01-27 05:16:54.12	297.28	31.99	-34.4	-35.4	19.4	0.00e+00	0	62	0	1528823808	39	4047
2026-01-27 05:16:55.13	296.92	31.97	-34.3	-35.4	19.4	0.00e+00	0	62	0	1536163840	39	4025
2026-01-27 05:16:56.14	296.55	31.95	-34.3	-35.3	19.5	0.00e+00	0	62	0	1543503872	39	3974
2026-01-27 05:16:57.16	296.18	31.92	-34.2	-35.3	19.5	0.00e+00	0	62	0	1550843904	39	3964
2026-01-27 05:16:58.16	295.82	31.90	-34.5	-35.5	19.3	0.00e+00	0	62	0	1558183936	39	4093
2026-01-27 05:16:59.17	295.45	31.87	-34.4	-35.4	19.4	0.00e+00	0	62	0	1565523968	39	4041
2026-01-27 05:17:00.18	295.09	31.84	-34.4	-35.5	19.3	0.00e+00	0	62	0	1572864000	39	4063
2026-01-27 05:17:01.19	294.72	31.81	-34.5	-35.6	19.2	0.00e+00	0	62	0	1580204032	39	4113
2026-01-27 05:17:02.20	294.36	31.78	-34.5	-35.6	19.2	0.00e+00	0	62	0	1587544064	39	4123
2026-01-27 05:17:03.21	294.00	31.75	-34.6	-35.6	19.2	0.00e+00	0	62	0	1594884096	39	4137
2026-01-27 05:17:04.23	293.63	31.72	-34.5	-35.6	19.3	0.00e+00	0	62	0	1602224128	39	4111
2026-01-27 05:17:05.24	293.27	31.68	-34.6	-35.7	19.2	0.00e+00	0	62	0	1609564160	39	4146
2026-01-27 05:17:06.25	292.91	31.65	-34.4	-35.5	19.3	0.00e+00	0	62	0	1615855616	39	4065
2026-01-27 05:17:07.25	292.56	31.61	-34.4	-35.4	19.4	0.00e+00	0	62	0	1623195648	39	4042
2026-01-27 05:17:08.26	292.20	31.57	-34.4	-35.4	19.4	0.00e+00	0	62	0	1631584256	39	4038
2026-01-27 05:17:09.27	291.84	31.53	-34.3	-35.4	19.4	0.00e+00	0	62	0	1637875712	39	4023
2026-01-27 05:17:10.28	291.48	31.49	-34.3	-35.4	19.4	0.00e+00	0	62	0	1645215744	39	4016
2026-01-27 05:17:11.29	291.13	31.45	-34.3	-35.4	19.4	0.00e+00	0	62	0	1652555776	39	4029
2026-01-27 05:17:12.30	290.77	31.41	-34.4	-35.4	19.4	0.00e+00	0	62	0	1659895808	39	4037
2026-01-27 05:17:13.31	290.42	31.36	-34.4	-35.5	19.4	0.00e+00	0	62	0	1667235840	39	4055
2026-01-27 05:17:14.32	290.07	31.32	-34.5	-35.6	19.2	0.00e+00	0	62	0	1674575872	39	4118
2026-01-27 05:17:15.34	289.71	31.27	-34.5	-35.6	19.2	0.00e+00	0	62	0	1681915904	39	4111
2026-01-27 05:17:16.34	289.36	31.22	-34.5	-35.5	19.3	0.00e+00	0	62	0	1689255936	39	4087
2026-01-27 05:17:17.36	289.01	31.18	-34.4	-35.5	19.3	0.00e+00	0	62	0	1696595968	39	4076
2026-01-27 05:17:18.37	288.66	31.13	-34.4	-35.5	19.3	0.00e+00	0	62	0	1703936000	39	4061
2026-01-27 05:17:19.38	288.31	31.08	-34.5	-35.5	19.3	0.00e+00	0	62	0	1711276032	39	4091
2026-01-27 05:17:20.39	287.97	31.02	-34.4	-35.5	19.3	0.00e+00	0	62	0	1718616064	39	4067
2026-01-27 05:17:21.40	287.62	30.97	-34.4	-35.5	19.3	0.00e+00	0	62	0	1725956096	39	4075
2026-01-27 05:17:22.41	287.28	30.92	-34.4	-35.5	19.3	0.00e+00	0	62	0	1733296128	39	4063
2026-01-27 05:17:23.42	286.93	30.86	-34.6	-35.6	19.2	0.00e+00	0	62	0	1740636160	39	4137
2026-01-27 05:17:24.43	286.59	30.80	-34.6	-35.7	19.1	0.00e+00	0	62	0	1747976192	39	4153
2026-01-27 05:17:25.44	286.25	30.75	-34.6	-35.7	19.2	0.00e+00	0	62	0	1755316224	39	4147
2026-01-27 05:17:26.45	285.91	30.69	-34.5	-35.6	19.2	0.00e+00	0	62	0	1762656256	39	4119
2026-01-27 05:17:27.46	285.57	30.63	-34.5	-35.6	19.2	0.00e+00	0	62	0	1769996288	39	4138
2026-01-27 05:17:28.48	285.23	30.57	-34.5	-35.6	19.2	0.00e+00	0	62	0	1777336320	39	4116
2026-01-27 05:17:29.48	284.90	30.51	-34.6	-35.7	19.1	0.00e+00	0	62	0	1784676352	39	4151
2026-01-27 05:17:30.49	284.56	30.45	-34.4	-35.5	19.3	0.00e+00	0	62	0	1790967808	39	4060
2026-01-27 05:17:31.50	284.23	30.38	-34.5	-35.6	19.3	0.00e+00	0	62	0	1798307840	39	4110
2026-01-27 05:17:32.51	283.90	30.32	-34.5	-35.6	19.3	0.00e+00	0	62	0	1805647872	39	4103
2026-01-27 05:17:33.52	283.57	30.25	-34.6	-35.6	19.2	0.00e+00	0	62	0	1812987904	39	4143
2026-01-27 05:17:34.53	283.24	30.19	-34.6	-35.7	19.2	0.00e+00	0	62	0	1820327936	39	4151
2026-01-27 05:17:35.54	282.91	30.12	-34.6	-35.7	19.1	0.00e+00	0	62	0	1827667968	39	4177
2026-01-27 05:17:36.55	282.58	30.05	-34.6	-35.7	19.1	0.00e+00	0	62	0	1835008000	39	4186
2026-01-27 05:17:37.56	282.26	29.98	-34.6	-35.7	19.1	0.00e+00	0	62	0	1842348032	39	4155
2026-01-27 05:17:38.57	281.93	29.91	-34.6	-35.7	19.2	0.00e+00	0	62	0	1849688064	39	4149
2026-01-27 05:17:39.58	281.61	29.84	-34.5	-35.6	19.2	0.00e+00	0	62	0	1857028096	39	4117
2026-01-27 05:17:40.59	281.29	29.77	-34.6	-35.7	19.1	0.00e+00	0	62	0	1864368128	39	4155
2026-01-27 05:17:41.60	280.97	29.70	-34.6	-35.7	19.1	0.00e+00	0	62	0	1871708160	39	4169
2026-01-27 05:17:42.61	280.65	29.63	-34.6	-35.7	19.1	0.00e+00	0	62	0	1879048192	39	4185
2026-01-27 05:17:43.62	280.34	29.55	-34.8	-36.0	18.9	0.00e+00	0	62	0	1886388224	39	4292
2026-01-27 05:17:44.63	280.02	29.48	-34.8	-35.9	18.8	0.00e+00	0	62	0	1893728256	39	4283
2026-01-27 05:17:45.64	279.71	29.40	-34.9	-36.0	18.8	0.00e+00	0	62	0	1901068288	39	4337
2026-01-27 05:17:46.64	279.40	29.33	-35.0	-36.1	18.7	0.00e+00	0	62	0	1908408320	39	4378
2026-01-27 05:17:47.66	279.08	29.25	-34.9	-36.0	18.8	0.00e+00	0	62	0	1914699776	39	4308
2026-01-27 05:17:48.67	278.77	29.17	-34.7	-35.8	19.0	0.00e+00	0	62	0	1923088384	39	4222
2026-01-27 05:17:49.68	278.47	29.10	-34.5	-35.6	19.2	0.00e+00	0	62	0	1930428416	39	4117
2026-01-27 05:17:50.69	278.16	29.02	-34.5	-35.6	19.2	0.00e+00	0	62	0	1936719872	39	4102
2026-01-27 05:17:51.70	277.86	28.94	-34.4	-35.4	19.4	0.00e+00	0	62	0	1944059904	39	4038
2026-01-27 05:17:52.71	277.55	28.86	-34.4	-35.5	19.3	0.00e+00	0	62	0	1952448512	39	4079
2026-01-27 05:17:53.72	277.25	28.78	-34.5	-35.6	19.1	0.00e+00	0	62	0	1958739968	39	4136
2026-01-27 05:17:54.73	276.95	28.70	-34.6	-35.7	19.1	0.00e+00	0	62	0	1966080000	39	4151
2026-01-27 05:17:55.74	276.65	28.61	-34.6	-35.7	19.0	0.00e+00	0	62	0	1973420032	39	4157
2026-01-27 05:17:56.75	276.35	28.53	-34.8	-35.9	18.8	0.00e+00	0	62	0	1980760064	39	4267
2026-01-27 05:17:57.76	276.06	28.45	-34.9	-36.1	18.7	0.00e+00	0	62	0	1988100096	39	4348
2026-01-27 05:17:58.77	275.76	28.36	-34.9	-36.1	18.7	0.00e+00	0	62	0	1995440128	39	4342
2026-01-27 05:17:59.78	275.47	28.28	-34.9	-36.0	18.7	0.00e+00	0	62	0	2002780160	39	4321
2026-01-27 05:18:00.79	275.18	28.19	-34.9	-36.0	18.7	0.00e+00	0	62	0	2010120192	39	4328
2026-01-27 05:18:01.80	274.89	28.11	-34.7	-35.8	18.8	0.00e+00	0	62	0	2017460224	39	4239
2026-01-27 05:18:02.81	274.60	28.02	-34.7	-35.8	18.9	0.00e+00	0	62	0	2024800256	39	4227
2026-01-27 05:18:03.82	274.32	27.94	-34.8	-35.9	18.8	0.00e+00	0	62	0	2032140288	39	4261
2026-01-27 05:18:04.83	274.03	27.85	-34.8	-35.9	18.8	0.00e+00	0	62	0	2039480320	39	4266
2026-01-27 05:18:05.84	273.75	27.76	-34.8	-35.9	18.8	0.00e+00	0	62	0	2046820352	39	4262
2026-01-27 05:18:06.85	273.47	27.67	-34.7	-35.8	18.9	0.00e+00	0	62	0	2054160384	39	4224
2026-01-27 05:18:07.86	273.19	27.58	-34.9	-36.0	18.7	0.00e+00	0	62	0	2061500416	39	4332
2026-01-27 05:18:08.87	272.91	27.49	-34.9	-36.1	18.6	0.00e+00	0	62	0	2068840448	39	4356
2026-01-27 05:18:09.88	272.63	27.40	-34.9	-36.1	18.6	0.00e+00	0	62	0	2076180480	39	4347
2026-01-27 05:18:10.89	272.35	27.31	-35.0	-36.1	18.6	0.00e+00	0	62	0	2083520512	39	4366
2026-01-27 05:18:11.90	272.08	27.22	-34.9	-36.0	18.6	0.00e+00	0	62	0	2089811968	39	4335
2026-01-27 05:18:12.91	271.81	27.13	-34.9	-36.0	18.7	0.00e+00	0	62	0	2098200576	39	4304
2026-01-27 05:18:13.92	271.54	27.04	-34.9	-36.0	18.7	0.00e+00	0	62	0	2105540608	39	4313
2026-01-27 05:18:14.93	271.27	26.95	-34.8	-35.9	18.7	0.00e+00	0	62	0	2111832064	39	4291
2026-01-27 05:18:15.94	271.00	26.86	-34.8	-35.9	18.8	0.00e+00	0	62	0	2119172096	39	4271
2026-01-27 05:18:16.95	270.73	26.76	-34.8	-36.0	18.7	0.00e+00	0	62	0	2126512128	39	4296
2026-01-27 05:18:17.96	270.47	26.67	-34.9	-36.0	18.6	0.00e+00	0	62	0	2133852160	39	4336
2026-01-27 05:18:18.97	270.21	26.58	-34.9	-36.0	18.6	0.00e+00	0	62	0	2141192192	39	4335
2026-01-27 05:18:19.98	269.94	26.49	-34.9	-36.0	18.6	0.00e+00	0	62	0	2148532224	39	4334
2026-01-27 05:18:20.99	269.68	26.39	-34.9	-36.1	18.6	0.00e+00	0	62	0	2155872256	39	4348
2026-01-27 05:18:22.00	269.43	26.30	-34.9	-36.1	18.6	0.00e+00	0	62	0	2163212288	39	4345
2026-01-27 05:18:23.01	269.17	26.20	-34.9	-36.1	18.6	0.00e+00	0	62	0	2170552320	39	4355
2026-01-27 05:18:24.02	268.91	26.11	-35.0	-36.1	18.5	0.00e+00	0	62	0	2177892352	39	4379
2026-01-27 05:18:25.03	268.66	26.01	-34.9	-36.1	18.6	0.00e+00	0	62	0	2185232384	39	4353
2026-01-27 05:18:26.04	268.41	25.92	-34.9	-36.1	18.6	0.00e+00	0	62	0	2192572416	39	4357
2026-01-27 05:18:27.05	268.16	25.82	-34.9	-36.1	18.6	0.00e+00	0	62	0	2199912448	39	4341
2026-01-27 05:18:28.06	267.91	25.73	-34.9	-36.0	18.6	0.00e+00	0	62	0	2207252480	39	4335
2026-01-27 05:18:29.07	267.66	25.63	-34.8	-35.9	18.7	0.00e+00	0	62	0	2214592512	39	4265
2026-01-27 05:18:30.08	267.41	25.53	-34.8	-35.9	18.7	0.00e+00	0	62	0	2221932544	39	4259
2026-01-27 05:18:31.09	267.17	25.44	-34.8	-35.9	18.7	0.00e+00	0	62	0	2229272576	39	4281
2026-01-27 05:18:32.10	266.93	25.34	-34.8	-36.0	18.7	0.00e+00	0	62	0	2235564032	39	4295
2026-01-27 05:18:33.12	266.68	25.24	-34.9	-36.0	18.7	0.00e+00	0	62	0	2243952640	39	4310
2026-01-27 05:18:34.13	266.44	25.14	-35.0	-36.1	18.6	0.00e+00	0	62	0	2251292672	39	4354
2026-01-27 05:18:35.14	266.20	25.05	-34.9	-36.0	18.6	0.00e+00	0	62	0	2257584128	39	4337
2026-01-27 05:18:36.15	265.97	24.95	-34.8	-36.0	18.7	0.00e+00	0	62	0	2264924160	39	4306
2026-01-27 05:18:37.16	265.73	24.85	-34.9	-36.0	18.7	0.00e+00	0	62	0	2272264192	39	4314
2026-01-27 05:18:38.17	265.50	24.75	-34.8	-35.9	18.7	0.00e+00	0	62	0	2279604224	39	4278
2026-01-27 05:18:39.18	265.26	24.66	-34.8	-35.9	18.7	0.00e+00	0	62	0	2286944256	39	4288
2026-01-27 05:18:40.19	265.03	24.56	-34.8	-35.9	18.8	0.00e+00	0	62	0	2294284288	39	4248
2026-01-27 05:18:41.20	264.80	24.46	-34.9	-36.0	18.6	0.00e+00	0	62	0	2301624320	39	4327
2026-01-27 05:18:42.21	264.57	24.36	-34.9	-36.1	18.6	0.00e+00	0	62	0	2308964352	39	4353
2026-01-27 05:18:43.22	264.35	24.26	-35.0	-36.2	18.5	0.00e+00	0	62	0	2316304384	39	4408
2026-01-27 05:18:44.23	264.12	24.16	-35.1	-36.2	18.4	0.00e+00	0	62	0	2323644416	39	4439
2026-01-27 05:18:45.24	263.90	24.06	-35.2	-36.3	18.3	0.00e+00	0	62	0	2330984448	39	4491
2026-01-27 05:18:46.25	263.67	23.97	-35.1	-36.3	18.3	0.00e+00	0	62	0	2338324480	40	4216
2026-01-27 05:18:47.26	263.45	23.87	-35.2	-36.3	18.2	0.00e+00	0	62	0	2345664512	40	4241
2026-01-27 05:18:48.27	263.23	23.77	-35.1	-36.3	18.2	0.00e+00	0	62	0	2353004544	40	4225
2026-01-27 05:18:49.28	263.01	23.67	-35.2	-36.3	18.2	0.00e+00	0	62	0	2360344576	40	4235
2026-01-27 05:18:50.29	262.80	23.57	-35.0	-36.2	18.3	0.00e+00	0	62	0	2367684608	40	4158
2026-01-27 05:18:51.30	262.58	23.47	-35.0	-36.1	18.4	0.00e+00	0	62	0	2375024640	40	4117
2026-01-27 05:18:52.31	262.37	23.37	-35.0	-36.1	18.4	0.00e+00	0	62	0	2382364672	40	4127
2026-01-27 05:18:53.32	262.15	23.27	-35.1	-36.2	18.3	0.00e+00	0	62	0	2389704704	40	4175
2026-01-27 05:18:54.33	261.94	23.17	-35.2	-36.4	18.1	0.00e+00	0	62	0	2397044736	40	4279
2026-01-27 05:18:55.34	261.73	23.07	-35.3	-36.5	18.0	0.00e+00	0	62	0	2404384768	40	4324
2026-01-27 05:18:56.36	261.52	22.97	-35.4	-36.6	17.9	0.00e+00	0	62	0	2410676224	40	4391
2026-01-27 05:18:57.37	261.31	22.87	-35.4	-36.6	17.9	0.00e+00	0	62	0	2419064832	40	4359
2026-01-27 05:18:58.38	261.11	22.77	-35.4	-36.7	17.8	0.00e+00	0	62	0	2426404864	40	4397
2026-01-27 05:18:59.39	260.90	22.67	-35.3	-36.5	18.0	0.00e+00	0	62	0	2432696320	40	4323
2026-01-27 05:19:00.40	260.70	22.57	-35.1	-36.3	18.2	0.00e+00	0	62	0	2440036352	40	4218
2026-01-27 05:19:01.41	260.49	22.47	-35.1	-36.3	18.2	0.00e+00	0	62	0	2448424960	40	4217
2026-01-27 05:19:02.42	260.29	22.37	-35.1	-36.3	18.2	0.00e+00	0	62	0	2454716416	40	4206
2026-01-27 05:19:03.43	260.09	22.27	-35.2	-36.3	18.1	0.00e+00	0	62	0	2462056448	40	4241
2026-01-27 05:19:04.44	259.89	22.17	-35.2	-36.4	18.1	0.00e+00	0	62	0	2469396480	40	4254
2026-01-27 05:19:05.45	259.70	22.07	-35.1	-36.3	18.1	0.00e+00	0	62	0	2476736512	40	4227
2026-01-27 05:19:06.46	259.50	21.97	-35.3	-36.5	18.0	0.00e+00	0	62	0	2484076544	40	4292
2026-01-27 05:19:07.46	259.31	21.88	-35.2	-36.4	18.1	0.00e+00	0	62	0	2491416576	40	4260
2026-01-27 05:19:08.47	259.12	21.78	-35.2	-36.4	18.1	0.00e+00	0	62	0	2498756608	40	4257
2026-01-27 05:19:09.48	258.92	21.68	-35.3	-36.5	18.0	0.00e+00	0	62	0	2506096640	40	4294
2026-01-27 05:19:10.49	258.73	21.58	-35.3	-36.4	18.0	0.00e+00	0	62	0	2513436672	40	4284
2026-01-27 05:19:11.50	258.54	21.48	-35.3	-36.4	18.0	0.00e+00	0	62	0	2520776704	40	4290
2026-01-27 05:19:12.51	258.35	21.38	-35.3	-36.5	17.9	0.00e+00	0	62	0	2528116736	40	4325
2026-01-27 05:19:13.52	258.17	21.28	-35.3	-36.5	17.9	0.00e+00	0	62	0	2535456768	40	4339
2026-01-27 05:19:14.53	257.98	21.18	-35.5	-36.7	17.7	0.00e+00	0	62	0	2542796800	40	4428
2026-01-27 05:19:15.54	257.80	21.08	-35.5	-36.7	17.7	0.00e+00	0	62	0	2550136832	40	4420
2026-01-27 05:19:16.56	257.61	20.98	-35.6	-36.8	17.6	0.00e+00	0	62	0	2557476864	40	4473
2026-01-27 05:19:17.57	257.43	20.88	-35.5	-36.8	17.7	0.00e+00	0	62	0	2564816896	40	4447
2026-01-27 05:19:18.57	257.25	20.79	-35.4	-36.6	17.8	0.00e+00	0	62	0	2572156928	40	4381
2026-01-27 05:19:19.59	257.07	20.69	-35.3	-36.5	17.9	0.00e+00	0	62	0	2578448384	40	4331
2026-01-27 05:19:20.60	256.89	20.59	-35.3	-36.5	17.8	0.00e+00	0	62	0	2585788416	40	4329
2026-01-27 05:19:21.60	256.71	20.49	-35.4	-36.6	17.8	0.00e+00	0	62	0	2594177024	40	4346
2026-01-27 05:19:22.61	256.53	20.39	-35.4	-36.6	17.8	0.00e+00	0	62	0	2600468480	40	4360
2026-01-27 05:19:23.62	256.36	20.29	-35.4	-36.6	17.8	0.00e+00	0	62	0	2607808512	40	4359
2026-01-27 05:19:24.63	256.18	20.19	-35.4	-36.6	17.8	0.00e+00	0	62	0	2615148544	40	4369
2026-01-27 05:19:25.64	256.01	20.10	-35.5	-36.8	17.6	0.00e+00	0	62	0	2622488576	40	4461
2026-01-27 05:19:26.65	255.84	20.00	-35.5	-36.8	17.6	0.00e+00	0	62	0	2629828608	40	4447
2026-01-27 05:19:27.66	255.67	19.90	-35.6	-36.9	17.6	0.00e+00	0	62	0	2637168640	40	4497
2026-01-27 05:19:28.67	255.50	19.80	-35.5	-36.8	17.6	0.00e+00	0	62	0	2644508672	40	4452
2026-01-27 05:19:29.68	255.33	19.71	-35.5	-36.8	17.6	0.00e+00	0	62	0	2651848704	40	4451
2026-01-27 05:19:30.69	255.16	19.61	-35.5	-36.7	17.6	0.00e+00	0	62	0	2659188736	40	4422
2026-01-27 05:19:31.70	255.00	19.51	-35.3	-36.5	17.9	0.00e+00	0	62	0	2666528768	40	4318
2026-01-27 05:19:32.71	254.83	19.41	-35.3	-36.5	17.8	0.00e+00	0	62	0	2673868800	40	4325
2026-01-27 05:19:33.72	254.66	19.32	-35.3	-36.5	17.9	0.00e+00	0	62	0	2681208832	40	4327
2026-01-27 05:19:34.73	254.50	19.22	-35.3	-36.5	17.8	0.00e+00	0	62	0	2688548864	40	4325
2026-01-27 05:19:35.74	254.34	19.12	-35.4	-36.6	17.8	0.00e+00	0	62	0	2695888896	40	4365
2026-01-27 05:19:36.76	254.18	19.02	-35.5	-36.7	17.7	0.00e+00	0	62	0	2703228928	40	4418
2026-01-27 05:19:37.77	254.02	18.93	-35.6	-36.8	17.6	0.00e+00	0	62	0	2710568960	40	4463
2026-01-27 05:19:38.78	253.86	18.83	-35.6	-36.9	17.5	0.00e+00	0	62	0	2717908992	40	4501
2026-01-27 05:19:39.79	253.70	18.73	-35.8	-37.0	17.3	0.00e+00	0	62	0	2725249024	41	4340
2026-01-27 05:19:40.80	253.54	18.64	-35.8	-37.1	17.3	0.00e+00	0	62	0	2732589056	41	4353
2026-01-27 05:19:41.81	253.38	18.54	-35.9	-37.2	17.1	0.00e+00	0	62	0	2739929088	41	4422
2026-01-27 05:19:42.82	253.23	18.45	-35.9	-37.2	17.1	0.00e+00	0	62	0	2747269120	41	4433
2026-01-27 05:19:43.83	253.07	18.35	-35.9	-37.2	17.1	0.00e+00	0	62	0	2753560576	41	4419
2026-01-27 05:19:44.84	252.92	18.26	-36.0	-37.3	17.1	0.00e+00	0	62	0	2760900608	41	4442
2026-01-27 05:19:45.85	252.77	18.16	-35.8	-37.1	17.2	0.00e+00	0	62	0	2769289216	41	4350
2026-01-27 05:19:46.86	252.62	18.06	-35.9	-37.2	17.1	0.00e+00	0	62	0	2775580672	41	4418
2026-01-27 05:19:47.87	252.47	17.97	-36.0	-37.3	17.1	0.00e+00	0	62	0	2782920704	41	4452
2026-01-27 05:19:48.88	252.32	17.87	-36.0	-37.3	17.0	0.00e+00	0	62	0	2790260736	41	4472
2026-01-27 05:19:49.89	252.17	17.78	-36.0	-37.3	17.0	0.00e+00	0	62	0	2797600768	41	4492
2026-01-27 05:19:50.90	252.02	17.69	-36.2	-37.5	16.8	0.00e+00	0	62	0	2804940800	41	4569
2026-01-27 05:19:51.91	251.87	17.59	-36.3	-37.6	16.7	0.00e+00	0	62	0	2812280832	42	4389
2026-01-27 05:19:52.93	251.73	17.50	-36.3	-37.7	16.6	0.00e+00	0	62	0	2819620864	42	4430
2026-01-27 05:19:53.94	251.58	17.40	-36.3	-37.7	16.6	0.00e+00	0	62	0	2826960896	42	4423
2026-01-27 05:19:54.95	251.44	17.31	-36.3	-37.7	16.6	0.00e+00	0	62	0	2834300928	42	4394
2026-01-27 05:19:55.96	251.30	17.21	-36.3	-37.6	16.6	0.00e+00	0	62	0	2841640960	42	4377
2026-01-27 05:19:56.97	251.15	17.12	-36.3	-37.7	16.6	0.00e+00	0	62	0	2848980992	42	4402
2026-01-27 05:19:57.98	251.01	17.03	-36.2	-37.6	16.7	0.00e+00	0	62	0	2856321024	42	4361
2026-01-27 05:19:58.99	250.87	16.93	-36.2	-37.6	16.7	0.00e+00	0	62	0	2863661056	42	4358
2026-01-27 05:20:00.00	250.73	16.84	-36.3	-37.7	16.6	0.00e+00	0	62	0	2871001088	42	4396
2026-01-27 05:20:01.01	250.59	16.75	-36.3	-37.7	16.6	0.00e+00	0	62	0	2878341120	42	4424
2026-01-27 05:20:02.02	250.46	16.66	-36.4	-37.8	16.5	0.00e+00	0	62	0	2885681152	42	4470
2026-01-27 05:20:03.04	250.32	16.56	-36.5	-37.9	16.4	0.00e+00	0	62	0	2893021184	42	4517
2026-01-27 05:20:04.05	250.18	16.47	-36.6	-38.1	16.2	0.00e+00	0	62	0	2900361216	42	4601
2026-01-27 05:20:05.06	250.05	16.38	-36.7	-38.1	16.2	0.00e+00	0	62	0	2907701248	42	4620
2026-01-27 05:20:06.07	249.91	16.29	-36.7	-38.2	16.1	0.00e+00	0	62	0	2915041280	43	4393
2026-01-27 05:20:07.08	249.78	16.19	-36.7	-38.2	16.1	0.00e+00	0	62	0	2921332736	43	4392
2026-01-27 05:20:08.09	249.65	16.10	-36.7	-38.2	16.1	0.00e+00	0	62	0	2928672768	43	4407
2026-01-27 05:20:09.10	249.51	16.01	-36.8	-38.3	16.0	0.00e+00	0	62	0	2937061376	43	4442
2026-01-27 05:20:10.11	249.38	15.92	-36.7	-38.2	16.1	0.00e+00	0	62	0	2943352832	43	4402
2026-01-27 05:20:11.12	249.25	15.83	-36.7	-38.1	16.2	0.00e+00	0	62	0	2950692864	43	4366
2026-01-27 05:20:12.13	249.12	15.74	-36.5	-37.9	16.3	0.00e+00	0	62	0	2958032896	43	4286
2026-01-27 05:20:13.14	248.99	15.65	-36.6	-38.0	16.2	0.00e+00	0	62	0	2965372928	43	4313
2026-01-27 05:20:14.15	248.87	15.56	-36.7	-38.1	16.1	0.00e+00	0	62	0	2972712960	43	4368
2026-01-27 05:20:15.16	248.74	15.47	-36.4	-37.8	16.4	0.00e+00	0	62	0	2980052992	43	4222
2026-01-27 05:20:16.17	248.61	15.38	-36.5	-37.9	16.3	0.00e+00	0	62	0	2987393024	43	4244
2026-01-27 05:20:17.18	248.49	15.29	-36.4	-37.8	16.4	0.00e+00	0	62	0	2994733056	43	4198
2026-01-27 05:20:18.19	248.36	15.20	-36.4	-37.8	16.5	0.00e+00	0	62	0	3002073088	43	4197
2026-01-27 05:20:19.20	248.24	15.11	-36.4	-37.8	16.4	0.00e+00	0	62	0	3009413120	43	4223
2026-01-27 05:20:20.21	248.12	15.02	-36.5	-37.9	16.3	0.00e+00	0	62	0	3016753152	43	4270
2026-01-27 05:20:21.22	247.99	14.93	-36.5	-37.9	16.3	0.00e+00	0	62	0	3024093184	43	4285
2026-01-27 05:20:22.23	247.87	14.84	-36.6	-38.0	16.2	0.00e+00	0	62	0	3031433216	43	4306
2026-01-27 05:20:23.24	247.75	14.75	-36.7	-38.1	16.1	0.00e+00	0	62	0	3038773248	43	4370
2026-01-27 05:20:24.25	247.63	14.66	-36.8	-38.3	15.9	0.00e+00	0	62	0	3046113280	43	4446
2026-01-27 05:20:25.26	247.51	14.58	-36.9	-38.4	15.8	0.00e+00	0	62	0	3053453312	43	4498
2026-01-27 05:20:26.27	247.39	14.49	-37.0	-38.5	15.7	0.00e+00	0	62	0	3060793344	43	4550
2026-01-27 05:20:27.28	247.27	14.40	-37.0	-38.6	15.6	0.00e+00	0	62	0	3068133376	43	4602
2026-01-27 05:20:28.29	247.16	14.31	-37.1	-38.6	15.6	0.00e+00	0	62	0	3074424832	43	4611
2026-01-27 05:20:29.30	247.04	14.22	-37.2	-38.7	15.5	0.00e+00	0	62	0	3082813440	43	4685
2026-01-27 05:20:30.31	246.92	14.14	-37.1	-38.7	15.5	0.00e+00	0	62	0	3090153472	43	4656
2026-01-27 05:20:31.32	246.81	14.05	-37.1	-38.6	15.5	0.00e+00	0	62	0	3096444928	43	4650
2026-01-27 05:20:32.34	246.69	13.96	-37.1	-38.7	15.5	0.00e+00	0	62	0	3103784960	43	4671
2026-01-27 05:20:33.35	246.58	13.88	-36.9	-38.5	15.7	0.00e+00	0	63	0	3111124992	43	4550
2026-01-27 05:20:34.36	246.47	13.79	-37.0	-38.5	15.7	0.00e+00	0	62	0	3118465024	43	4565
2026-01-27 05:20:35.36	246.35	13.70	-36.9	-38.4	15.7	0.00e+00	0	62	0	3125805056	43	4542
2026-01-27 05:20:36.38	246.24	13.62	-36.8	-38.3	15.9	0.00e+00	0	62	0	3133145088	43	4463
2026-01-27 05:20:37.39	246.13	13.53	-36.8	-38.2	15.9	0.00e+00	0	62	0	3140485120	43	4432
2026-01-27 05:20:38.40	246.02	13.45	-36.8	-38.3	15.8	0.00e+00	0	62	0	3147825152	43	4473
2026-01-27 05:20:39.41	245.91	13.36	-36.8	-38.3	15.8	0.00e+00	0	62	0	3155165184	43	4461
2026-01-27 05:20:40.42	245.80	13.27	-36.9	-38.4	15.7	0.00e+00	0	62	0	3162505216	43	4541
2026-01-27 05:20:41.43	245.69	13.19	-37.0	-38.5	15.6	0.00e+00	0	62	0	3169845248	43	4562
2026-01-27 05:20:42.43	245.58	13.10	-36.9	-38.4	15.7	0.00e+00	0	62	0	3177185280	43	4512
2026-01-27 05:20:43.44	245.48	13.02	-37.0	-38.6	15.5	0.00e+00	0	62	0	3184525312	43	4601
2026-01-27 05:20:44.45	245.37	12.94	-37.5	-39.1	15.2	0.00e+00	0	62	0	3191865344	44	4614
2026-01-27 05:20:45.46	245.26	12.85	-37.5	-39.2	15.1	0.00e+00	0	62	0	3199205376	44	4653
2026-01-27 05:20:46.47	245.16	12.77	-37.5	-39.1	15.1	0.00e+00	0	62	0	3206545408	44	4641
2026-01-27 05:20:47.48	245.05	12.68	-37.6	-39.3	15.0	0.00e+00	0	62	0	3213885440	44	4719
2026-01-27 05:20:48.50	244.95	12.60	-37.6	-39.2	15.0	0.00e+00	0	62	0	3220176896	44	4683
2026-01-27 05:20:49.51	244.84	12.51	-37.7	-39.4	14.8	0.00e+00	0	62	0	3228565504	44	4786
2026-01-27 05:20:50.52	244.74	12.43	-37.6	-39.3	14.9	0.00e+00	0	63	0	3235905536	45	4456
2026-01-27 05:20:51.53	244.64	12.35	-37.5	-39.1	15.1	0.00e+00	0	62	0	3242196992	45	4357
2026-01-27 05:20:52.54	244.54	12.27	-37.6	-39.2	15.0	0.00e+00	0	62	0	3249537024	45	4437
2026-01-27 05:20:53.55	244.43	12.18	-37.4	-39.0	15.1	0.00e+00	0	62	0	3257925632	45	4340
2026-01-27 05:20:54.56	244.33	12.10	-37.5	-39.1	15.1	0.00e+00	0	62	0	3264217088	45	4381
2026-01-27 05:20:55.57	244.23	12.02	-37.4	-39.0	15.2	0.00e+00	0	62	0	3271557120	45	4296
2026-01-27 05:20:56.58	244.13	11.94	-37.5	-39.2	15.0	0.00e+00	0	63	0	3278897152	45	4396
2026-01-27 05:20:57.59	244.04	11.85	-37.6	-39.2	15.0	0.00e+00	0	62	0	3286237184	45	4409
2026-01-27 05:20:58.60	243.94	11.77	-37.5	-39.1	15.1	0.00e+00	0	62	0	3293577216	45	4350
2026-01-27 05:20:59.61	243.84	11.69	-37.7	-39.4	14.8	0.00e+00	0	62	0	3300917248	45	4516
2026-01-27 05:21:00.62	243.74	11.61	-37.8	-39.5	14.6	1.10e-06	0	62	0	3308257280	45	4587
2026-01-27 05:21:01.63	243.64	11.53	-37.9	-39.6	14.5	0.00e+00	0	62	0	3315597312	45	4620
2026-01-27 05:21:02.64	243.55	11.45	-37.9	-39.6	14.5	1.10e-06	0	62	0	3322937344	45	4641
2026-01-27 05:21:03.65	243.45	11.36	-37.9	-39.7	14.5	0.00e+00	0	62	0	3330277376	45	4665
2026-01-27 05:21:04.66	243.36	11.28	-38.2	-40.0	14.2	2.20e-06	0	62	0	3337617408	45	4835
2026-01-27 05:21:05.67	243.26	11.20	-38.3	-40.1	14.1	1.10e-06	0	62	0	3344957440	46	4617
2026-01-27 05:21:06.68	243.17	11.12	-38.2	-40.0	14.1	1.10e-06	0	62	0	3352297472	46	4594
2026-01-27 05:21:07.69	243.08	11.04	-38.3	-40.1	14.1	1.10e-06	0	62	0	3359637504	46	4614
2026-01-27 05:21:08.70	242.98	10.96	-38.2	-40.0	14.1	4.50e-06	0	62	0	3366977536	46	4564
2026-01-27 05:21:09.71	242.89	10.88	-38.2	-40.1	14.0	3.40e-06	0	62	0	3374317568	46	4612
2026-01-27 05:21:10.72	242.80	10.80	-38.1	-39.9	14.2	0.00e+00	0	62	0	3381657600	46	4520
2026-01-27 05:21:11.73	242.71	10.72	-38.2	-40.0	14.2	2.20e-06	0	62	0	3387949056	46	4547
2026-01-27 05:21:12.74	242.61	10.65	-38.2	-39.9	14.2	2.20e-06	0	62	0	3395289088	46	4545
2026-01-27 05:21:13.75	242.52	10.57	-38.0	-39.8	14.3	4.50e-06	0	62	0	3403677696	46	4474
2026-01-27 05:21:14.76	242.43	10.49	-38.1	-39.9	14.2	0.00e+00	0	62	0	3411017728	46	4513
2026-01-27 05:21:15.77	242.34	10.41	-38.1	-39.8	14.3	0.00e+00	0	62	0	3417309184	46	4484
2026-01-27 05:21:16.78	242.26	10.33	-38.0	-39.7	14.4	1.10e-06	0	62	0	3424649216	46	4426
2026-01-27 05:21:17.79	242.17	10.25	-38.0	-39.7	14.4	1.10e-06	0	62	0	3431989248	46	4422
2026-01-27 05:21:18.80	242.08	10.17	-38.0	-39.8	14.3	1.10e-06	0	62	0	3439329280	46	4451
2026-01-27 05:21:19.81	241.99	10.10	-38.0	-39.7	14.3	0.00e+00	0	62	0	3446669312	46	4423
2026-01-27 05:21:20.82	241.90	10.02	-37.9	-39.7	14.4	1.10e-06	0	62	0	3454009344	46	4404
2026-01-27 05:21:21.83	241.82	9.94	-38.0	-39.7	14.4	2.20e-06	0	62	0	3461349376	46	4416
2026-01-27 05:21:22.84	241.73	9.86	-38.0	-39.7	14.3	0.00e+00	0	62	0	3468689408	46	4428
2026-01-27 05:21:23.85	241.65	9.79	-38.0	-39.8	14.3	0.00e+00	0	62	0	3476029440	46	4461
2026-01-27 05:21:24.87	241.56	9.71	-38.0	-39.8	14.3	0.00e+00	0	62	0	3483369472	46	4458
2026-01-27 05:21:25.88	241.47	9.63	-38.0	-39.8	14.3	0.00e+00	0	62	0	3490709504	46	4447
2026-01-27 05:21:26.88	241.39	9.56	-38.0	-39.8	14.2	0.00e+00	0	63	0	3498049536	46	4481
2026-01-27 05:21:27.89	241.31	9.48	-38.0	-39.8	14.2	2.20e-06	0	62	0	3505389568	46	4469
2026-01-27 05:21:28.90	241.22	9.40	-38.1	-39.8	14.2	0.00e+00	0	62	0	3512729600	46	4489
2026-01-27 05:21:29.92	241.14	9.33	-38.1	-39.9	14.1	1.10e-06	0	62	0	3520069632	46	4528
2026-01-27 05:21:30.93	241.06	9.25	-38.2	-40.0	14.0	6.80e-06	0	63	0	3527409664	46	4595
2026-01-27 05:21:31.93	240.98	9.17	-38.2	-40.0	13.9	8.00e-06	0	62	0	3534749696	46	4596
2026-01-27 05:21:32.94	240.89	9.10	-38.3	-40.1	13.9	3.40e-06	0	62	0	3541041152	46	4632
2026-01-27 05:21:33.95	240.81	9.02	-38.3	-40.1	13.9	4.50e-06	0	62	0	3549429760	46	4629
2026-01-27 05:21:34.96	240.73	8.95	-38.4	-40.2	13.8	1.14e-05	0	62	0	3556769792	46	4700
2026-01-27 05:21:35.97	240.65	8.87	-38.4	-40.3	13.7	8.00e-06	0	62	0	3563061248	46	4726
2026-01-27 05:21:36.99	240.57	8.80	-38.2	-40.1	13.9	6.80e-06	0	62	0	3570401280	46	4627
2026-01-27 05:21:38.00	240.49	8.72	-38.5	-40.4	13.6	5.70e-06	0	62	0	3577741312	46	4804
