passes_logs/2026/01/27/R2.0S_Moscow/R2.0S_Moscow__20260127_095039_AQUA_rec.log

#Pass ID: 20260127_095039_AQUA
#Satellite: AQUA
#Configuration: AQUA
#almurnet v.1.7.20251203
#Start time: 2026-01-27 09:50:41

#Version: 2.2.20231116
#Station: R2.0S_Moscow
#Location: 37.707566 lon 55.798166 lat
#TLE: 1 27424U 02022A   26026.85810808  .00001813  00000+0  37258-3 0  9999
#TLE: 2 27424  98.4101 353.4861 0001866  64.3332 317.5249 14.61864179262622

#Time	Az	El	Level	Level2	SNR	BER	BlckErr	Temp	State	Recorded	gain1	gain2
2026-01-27 09:50:41.11	102.78	2.09	-41.0	-59.9	3.8	7.46e-01	0	55	0	0	52	33982
2026-01-27 09:50:42.11	102.69	2.15	-41.0	-59.9	3.8	7.46e-01	0	55	104	0	52	34073
2026-01-27 09:50:43.13	102.59	2.20	-40.9	-60.0	3.8	7.45e-01	0	54	104	0	52	34100
2026-01-27 09:50:44.14	102.50	2.26	-41.0	-59.9	3.8	7.45e-01	0	55	104	0	52	33916
2026-01-27 09:50:45.15	102.41	2.31	-41.0	-60.0	3.8	7.48e-01	0	55	104	0	52	34150
2026-01-27 09:50:46.16	102.31	2.37	-41.0	-59.9	3.8	7.44e-01	0	55	104	0	52	33884
2026-01-27 09:50:47.17	102.22	2.42	-40.8	-59.9	3.8	7.43e-01	0	55	104	0	52	34072
2026-01-27 09:50:48.18	102.12	2.47	-40.8	-59.7	3.8	7.45e-01	0	55	104	0	52	33187
2026-01-27 09:50:49.19	102.03	2.53	-41.0	-59.9	3.8	7.45e-01	0	55	104	0	52	34051
2026-01-27 09:50:50.20	101.93	2.58	-41.1	-60.0	3.8	7.43e-01	0	55	104	0	52	34214
2026-01-27 09:50:51.21	101.84	2.64	-40.9	-60.0	3.8	7.45e-01	0	55	104	0	52	34226
2026-01-27 09:50:52.22	101.74	2.69	-41.0	-60.0	3.8	7.45e-01	0	55	104	0	52	34104
2026-01-27 09:50:53.24	101.64	2.75	-41.0	-60.0	3.8	7.46e-01	0	55	104	0	52	34237
2026-01-27 09:50:54.25	101.55	2.80	-40.8	-59.9	3.8	7.46e-01	0	56	104	0	52	33745
2026-01-27 09:50:55.26	101.45	2.86	-41.0	-60.0	3.8	7.46e-01	0	55	104	0	52	34255
2026-01-27 09:50:56.27	101.35	2.91	-41.0	-60.0	3.8	7.46e-01	0	56	104	0	52	34148
2026-01-27 09:50:57.28	101.25	2.97	-41.0	-60.0	3.8	7.46e-01	0	55	104	0	52	34088
2026-01-27 09:50:58.29	101.15	3.03	-40.9	-59.8	3.8	7.45e-01	0	56	104	0	52	33427
2026-01-27 09:50:59.30	101.05	3.08	-41.0	-60.0	3.8	7.46e-01	0	56	104	0	52	34168
2026-01-27 09:51:00.31	100.95	3.14	-41.0	-60.0	3.8	7.47e-01	0	56	104	0	52	34149
2026-01-27 09:51:01.32	100.85	3.19	-41.0	-60.0	3.8	7.44e-01	0	56	104	0	52	34118
2026-01-27 09:51:02.33	100.75	3.25	-40.9	-59.8	3.9	7.48e-01	0	56	104	0	52	33673
2026-01-27 09:51:03.34	100.65	3.30	-40.6	-59.7	3.8	7.45e-01	0	56	104	0	52	33231
2026-01-27 09:51:04.35	100.55	3.36	-40.9	-59.8	3.9	7.45e-01	0	56	104	0	52	33507
2026-01-27 09:51:05.36	100.45	3.41	-41.0	-60.0	3.8	7.45e-01	0	56	104	0	52	34125
2026-01-27 09:51:06.37	100.35	3.47	-40.8	-59.7	3.7	7.43e-01	0	56	104	0	52	33070
2026-01-27 09:51:07.38	100.24	3.52	-41.0	-59.9	3.8	7.48e-01	0	56	104	0	52	33859
2026-01-27 09:51:08.39	100.14	3.58	-41.0	-59.9	3.8	7.47e-01	0	56	104	0	52	33890
2026-01-27 09:51:09.40	100.04	3.64	-41.0	-59.9	3.8	7.47e-01	0	56	104	0	52	34077
2026-01-27 09:51:10.41	99.93	3.69	-40.9	-59.9	3.8	7.45e-01	0	56	104	0	52	33754
2026-01-27 09:51:11.42	99.83	3.75	-40.2	-59.8	3.8	7.45e-01	0	57	104	0	52	33464
2026-01-27 09:51:12.43	99.72	3.80	-41.0	-60.0	3.8	7.43e-01	0	57	104	0	52	34136
2026-01-27 09:51:13.44	99.62	3.86	-40.9	-60.0	3.8	7.45e-01	0	57	104	0	52	34151
2026-01-27 09:51:14.45	99.51	3.92	-41.0	-59.9	3.8	7.47e-01	0	57	104	0	52	34075
2026-01-27 09:51:15.46	99.41	3.97	-40.9	-59.9	3.8	7.47e-01	0	57	104	0	52	34025
2026-01-27 09:51:16.47	99.30	4.03	-41.0	-59.9	3.8	7.46e-01	0	57	104	0	52	33973
2026-01-27 09:51:17.48	99.19	4.08	-40.2	-59.6	3.9	7.43e-01	0	57	104	0	52	32919
2026-01-27 09:51:18.49	99.09	4.14	-41.0	-59.9	3.8	7.50e-01	0	57	104	0	52	33715
2026-01-27 09:51:19.50	98.98	4.20	-40.9	-59.7	3.8	7.43e-01	0	57	104	0	52	33014
2026-01-27 09:51:20.52	98.87	4.25	-41.0	-60.0	3.8	7.44e-01	0	57	104	0	52	34149
2026-01-27 09:51:21.53	98.76	4.31	-41.0	-60.0	3.8	7.46e-01	0	57	104	0	52	34119
2026-01-27 09:51:22.54	98.65	4.37	-41.0	-59.9	3.8	7.44e-01	0	57	104	0	52	33941
2026-01-27 09:51:23.54	98.54	4.42	-40.9	-59.9	3.8	7.46e-01	0	57	104	0	52	33926
2026-01-27 09:51:24.56	98.43	4.48	-41.0	-59.9	3.8	7.42e-01	0	57	104	0	52	33791
2026-01-27 09:51:25.57	98.32	4.53	-40.1	-59.4	3.8	7.47e-01	0	57	104	0	51	33915
2026-01-27 09:51:26.58	98.21	4.59	-41.0	-59.9	3.8	7.46e-01	0	58	104	0	52	34076
2026-01-27 09:51:27.59	98.10	4.65	-41.0	-59.9	3.8	7.46e-01	0	58	104	0	52	34029
2026-01-27 09:51:28.60	97.98	4.70	-41.0	-60.0	3.9	7.44e-01	0	57	104	0	52	34139
2026-01-27 09:51:29.61	97.87	4.76	-41.0	-59.8	3.8	7.47e-01	0	58	104	0	52	33694
2026-01-27 09:51:30.62	97.76	4.82	-41.0	-59.9	3.8	7.47e-01	0	58	104	0	52	33996
2026-01-27 09:51:31.63	97.64	4.87	-40.8	-59.8	3.9	7.46e-01	0	58	104	0	52	33634
2026-01-27 09:51:32.64	97.53	4.93	-41.0	-60.0	3.8	7.48e-01	0	58	104	0	52	34198
2026-01-27 09:51:33.65	97.42	4.99	-41.0	-59.9	3.8	7.43e-01	0	58	104	0	52	34056
2026-01-27 09:51:34.66	97.30	5.04	-40.9	-59.9	3.8	7.45e-01	0	58	104	0	52	33772
2026-01-27 09:51:35.67	97.18	5.10	-40.9	-59.6	3.8	7.43e-01	0	58	104	0	52	32685
2026-01-27 09:51:36.68	97.07	5.16	-41.0	-59.9	3.8	7.46e-01	0	58	104	0	52	33881
2026-01-27 09:51:37.69	96.95	5.22	-41.0	-60.0	3.8	7.43e-01	0	58	104	0	52	34097
2026-01-27 09:51:38.70	96.83	5.27	-41.0	-59.9	3.8	7.46e-01	0	58	104	0	52	33978
2026-01-27 09:51:39.71	96.72	5.33	-40.4	-59.6	3.9	7.47e-01	0	58	104	0	52	32832
2026-01-27 09:51:40.72	96.60	5.39	-41.0	-59.9	3.8	7.45e-01	0	58	104	0	52	33805
2026-01-27 09:51:41.73	96.48	5.44	-41.0	-59.9	3.8	7.47e-01	0	58	104	0	52	33967
2026-01-27 09:51:42.74	96.36	5.50	-40.9	-59.9	3.8	7.45e-01	0	58	104	0	52	33849
2026-01-27 09:51:43.75	96.24	5.56	-40.4	-59.9	3.8	7.43e-01	0	58	104	0	52	33862
2026-01-27 09:51:44.76	96.12	5.61	-41.0	-59.9	3.8	7.45e-01	0	58	104	0	52	33833
2026-01-27 09:51:45.77	96.00	5.67	-41.0	-60.0	3.8	7.47e-01	0	58	104	0	52	34099
2026-01-27 09:51:46.78	95.88	5.73	-41.0	-59.9	3.8	7.48e-01	0	58	104	0	52	34061
2026-01-27 09:51:47.79	95.76	5.79	-41.0	-60.0	3.8	7.47e-01	0	58	104	0	52	34192
2026-01-27 09:51:48.80	95.63	5.84	-41.0	-59.9	3.8	7.43e-01	0	58	104	0	52	33898
2026-01-27 09:51:49.81	95.51	5.90	-41.0	-59.9	3.8	7.46e-01	0	58	104	0	52	34011
2026-01-27 09:51:50.82	95.39	5.96	-41.0	-59.9	3.8	7.42e-01	0	58	104	0	52	34079
2026-01-27 09:51:51.83	95.26	6.02	-40.6	-59.9	3.8	7.49e-01	0	59	104	0	52	33876
2026-01-27 09:51:52.84	95.14	6.07	-41.0	-59.8	3.8	7.45e-01	0	59	104	0	52	33577
2026-01-27 09:51:53.85	95.01	6.13	-40.5	-59.8	3.8	7.44e-01	0	59	104	0	52	33477
2026-01-27 09:51:54.86	94.89	6.19	-41.0	-59.9	3.9	7.44e-01	0	59	104	0	52	33740
2026-01-27 09:51:55.87	94.76	6.24	-41.0	-60.0	3.8	7.47e-01	0	59	104	0	52	34098
2026-01-27 09:51:56.88	94.63	6.30	-40.8	-59.8	3.8	7.48e-01	0	59	104	0	52	33542
2026-01-27 09:51:57.90	94.51	6.36	-40.8	-59.9	3.8	7.47e-01	0	59	104	0	52	33831
2026-01-27 09:51:58.91	94.38	6.42	-41.0	-59.9	3.9	7.43e-01	0	59	104	0	52	33748
2026-01-27 09:51:59.92	94.25	6.47	-41.0	-59.9	3.8	7.47e-01	0	59	104	0	52	33941
2026-01-27 09:52:00.93	94.12	6.53	-41.0	-59.8	3.8	7.47e-01	0	59	104	0	52	33644
2026-01-27 09:52:01.94	93.99	6.59	-41.0	-60.0	3.8	7.46e-01	0	59	104	0	52	34128
2026-01-27 09:52:02.95	93.86	6.65	-41.0	-59.9	3.8	7.45e-01	0	59	104	0	52	33785
2026-01-27 09:52:03.96	93.73	6.70	-40.6	-59.7	3.8	7.48e-01	0	59	104	0	52	33097
2026-01-27 09:52:04.97	93.60	6.76	-40.8	-59.9	3.8	7.44e-01	0	59	104	0	52	33878
2026-01-27 09:52:05.98	93.47	6.82	-41.0	-59.9	3.8	7.43e-01	0	59	104	0	52	34016
2026-01-27 09:52:06.99	93.33	6.88	-41.0	-60.0	3.8	7.49e-01	0	59	104	0	52	34090
2026-01-27 09:52:08.00	93.20	6.93	-40.9	-59.9	3.8	7.47e-01	0	59	104	0	52	34027
2026-01-27 09:52:09.01	93.07	6.99	-40.8	-59.8	3.8	7.43e-01	0	60	104	0	52	33517
2026-01-27 09:52:10.02	92.93	7.05	-39.2	-59.5	3.9	7.45e-01	0	59	104	0	51	34362
2026-01-27 09:52:11.03	92.80	7.11	-39.2	-59.3	3.7	7.45e-01	0	59	104	0	51	33596
2026-01-27 09:52:12.04	92.66	7.17	-40.5	-59.2	3.8	7.42e-01	0	60	104	0	51	33131
2026-01-27 09:52:13.05	92.53	7.22	-40.7	-59.7	3.9	7.42e-01	0	60	104	0	52	33107
2026-01-27 09:52:14.06	92.39	7.28	-41.0	-59.9	3.8	7.47e-01	0	59	104	0	52	33868
2026-01-27 09:52:15.08	92.25	7.34	-41.0	-59.8	3.9	7.46e-01	0	60	104	0	52	33546
2026-01-27 09:52:16.08	92.12	7.40	-40.6	-59.7	3.8	7.43e-01	0	60	104	0	52	33169
2026-01-27 09:52:17.10	91.98	7.45	-41.0	-59.9	3.8	7.46e-01	0	59	104	0	52	33875
2026-01-27 09:52:18.11	91.84	7.51	-41.0	-59.9	3.8	7.43e-01	0	60	104	0	52	33806
2026-01-27 09:52:19.12	91.70	7.57	-41.0	-59.8	3.8	7.45e-01	0	60	104	0	52	33432
2026-01-27 09:52:20.13	91.56	7.63	-40.8	-59.8	3.8	7.46e-01	0	60	104	0	52	33674
2026-01-27 09:52:21.14	91.42	7.68	-40.7	-59.8	3.8	7.47e-01	0	60	104	0	52	33662
2026-01-27 09:52:22.15	91.27	7.74	-41.0	-59.9	3.8	7.49e-01	0	60	104	0	52	33887
2026-01-27 09:52:23.16	91.13	7.80	-40.8	-59.8	3.8	7.43e-01	0	60	104	0	52	33390
2026-01-27 09:52:24.17	90.99	7.86	-40.9	-59.4	3.8	7.44e-01	0	60	104	0	52	31852
2026-01-27 09:52:25.18	90.85	7.91	-40.9	-58.9	3.8	7.47e-01	0	60	104	0	52	30343
2026-01-27 09:52:26.19	90.70	7.97	-40.9	-58.5	3.8	7.44e-01	0	60	104	0	52	28684
2026-01-27 09:52:27.20	90.56	8.03	-41.0	-58.0	3.9	7.45e-01	0	60	104	0	52	27303
2026-01-27 09:52:28.21	90.41	8.09	-43.7	-62.5	3.8	7.43e-01	0	60	104	0	58	32370
2026-01-27 09:52:29.22	90.27	8.14	-41.3	-58.6	3.8	7.43e-01	0	60	104	0	54	26126
2026-01-27 09:52:30.24	90.12	8.20	-40.9	-59.3	3.8	7.45e-01	0	60	104	0	52	31749
2026-01-27 09:52:31.25	89.97	8.26	-41.4	-60.0	3.8	7.44e-01	0	60	104	0	53	32524
2026-01-27 09:52:32.26	89.82	8.32	-41.1	-59.9	3.8	7.49e-01	0	60	104	0	53	31923
2026-01-27 09:52:33.27	89.68	8.37	-41.3	-59.8	3.8	7.47e-01	0	60	104	0	53	31586
2026-01-27 09:52:34.28	89.53	8.43	-41.3	-59.9	3.8	7.47e-01	0	60	104	0	53	32131
2026-01-27 09:52:35.29	89.38	8.49	-41.4	-60.1	3.8	7.46e-01	0	60	104	0	53	32713
2026-01-27 09:52:36.30	89.23	8.55	-41.6	-60.4	3.8	7.44e-01	0	60	104	0	53	34058
2026-01-27 09:52:37.31	89.08	8.60	-41.5	-60.4	3.8	7.46e-01	0	60	104	0	53	33715
2026-01-27 09:52:38.32	88.92	8.66	-41.4	-60.2	3.8	7.43e-01	0	60	104	0	53	33274
2026-01-27 09:52:39.33	88.77	8.72	-41.6	-60.4	3.8	7.44e-01	0	60	104	0	53	34083
2026-01-27 09:52:40.34	88.62	8.78	-41.2	-60.1	3.9	7.48e-01	0	60	104	0	53	32666
2026-01-27 09:52:41.35	88.47	8.83	-41.3	-60.1	3.8	7.43e-01	0	60	104	0	53	32729
2026-01-27 09:52:42.36	88.31	8.89	-40.6	-60.0	3.8	7.45e-01	0	60	104	0	52	34229
2026-01-27 09:52:43.37	88.16	8.95	-41.0	-59.7	3.8	7.47e-01	0	60	104	0	52	32989
2026-01-27 09:52:44.38	88.00	9.00	-41.1	-59.8	3.9	7.47e-01	0	60	104	0	52	33492
2026-01-27 09:52:45.39	87.84	9.06	-41.2	-60.0	3.8	7.45e-01	0	61	104	0	53	32521
2026-01-27 09:52:46.40	87.69	9.12	-41.8	-60.6	3.7	7.47e-01	0	60	104	0	53	34695
2026-01-27 09:52:47.41	87.53	9.17	-39.9	-59.7	3.9	7.47e-01	0	60	104	0	52	33046
2026-01-27 09:52:48.42	87.37	9.23	-41.0	-60.2	3.8	7.44e-01	0	61	104	0	53	33068
2026-01-27 09:52:49.42	87.21	9.29	-41.2	-60.2	3.8	7.47e-01	0	60	104	0	53	33011
2026-01-27 09:52:50.43	87.06	9.34	-41.4	-60.2	3.8	7.46e-01	0	61	104	0	53	33306
2026-01-27 09:52:51.45	86.89	9.40	-40.5	-60.1	3.9	7.48e-01	0	61	104	0	52	34719
2026-01-27 09:52:52.45	86.73	9.46	-40.9	-60.3	3.8	7.49e-01	0	61	104	0	53	33318
2026-01-27 09:52:53.47	86.57	9.51	-41.3	-60.3	3.7	7.41e-01	0	61	104	0	53	33424
2026-01-27 09:52:54.48	86.41	9.57	-41.1	-60.6	3.7	7.50e-01	0	61	104	0	52	36650
2026-01-27 09:52:55.49	86.25	9.63	-40.7	-59.9	3.9	7.44e-01	0	61	104	0	52	34076
2026-01-27 09:52:56.50	86.08	9.68	-40.5	-58.9	3.7	7.49e-01	0	61	104	0	48	38230
2026-01-27 09:52:57.50	85.92	9.74	-40.5	-60.0	3.7	7.44e-01	0	61	104	0	52	34163
2026-01-27 09:52:58.51	85.75	9.80	-41.4	-60.3	3.8	7.47e-01	0	61	104	0	53	33316
2026-01-27 09:52:59.52	85.59	9.85	-39.0	-59.5	3.9	7.46e-01	0	61	104	0	50	36283
2026-01-27 09:53:00.53	85.42	9.91	-41.3	-60.2	3.8	7.46e-01	0	61	104	0	53	33140
2026-01-27 09:53:01.54	85.25	9.96	-40.8	-59.6	3.8	7.42e-01	0	61	104	0	52	32911
2026-01-27 09:53:02.55	85.09	10.02	-41.3	-60.2	3.8	7.49e-01	0	61	104	0	53	33162
2026-01-27 09:53:03.56	84.92	10.08	-39.9	-59.7	3.7	7.47e-01	0	61	104	0	52	33121
2026-01-27 09:53:04.57	84.75	10.13	-41.0	-58.9	3.9	7.53e-01	0	61	104	0	49	36058
2026-01-27 09:53:05.58	84.58	10.19	-41.3	-60.4	3.8	7.43e-01	0	61	104	0	53	33804
2026-01-27 09:53:06.59	84.41	10.24	-39.9	-59.5	3.8	7.40e-01	0	61	104	0	51	34328
2026-01-27 09:53:07.60	84.24	10.30	-40.3	-59.5	3.7	7.47e-01	0	61	104	0	51	34359
2026-01-27 09:53:08.60	84.07	10.35	-40.4	-60.1	3.8	7.44e-01	0	61	104	0	52	34580
2026-01-27 09:53:09.61	83.89	10.41	-41.0	-60.0	3.8	7.46e-01	0	61	104	0	52	34349
2026-01-27 09:53:10.62	83.72	10.46	-41.2	-60.2	3.8	7.48e-01	0	61	104	0	53	32966
2026-01-27 09:53:11.63	83.55	10.52	-41.0	-60.0	3.8	7.48e-01	0	61	104	0	52	34219
2026-01-27 09:53:12.64	83.37	10.57	-40.6	-59.9	3.8	7.50e-01	0	61	104	0	52	33742
2026-01-27 09:53:13.65	83.19	10.63	-41.1	-60.0	3.8	7.43e-01	0	61	104	0	52	34177
2026-01-27 09:53:14.66	83.02	10.68	-41.1	-60.0	3.8	7.49e-01	0	61	104	0	52	34140
2026-01-27 09:53:15.67	82.84	10.74	-41.2	-60.2	3.8	7.46e-01	0	61	104	0	53	32976
2026-01-27 09:53:16.68	82.66	10.79	-41.3	-60.0	3.8	7.46e-01	0	61	104	0	53	32183
2026-01-27 09:53:17.69	82.49	10.85	-41.0	-60.1	3.8	7.46e-01	0	62	104	0	53	32564
2026-01-27 09:53:18.70	82.31	10.90	-41.3	-60.2	3.8	7.45e-01	0	61	104	0	53	33062
2026-01-27 09:53:19.71	82.13	10.95	-41.1	-60.0	3.8	7.47e-01	0	61	104	0	53	32306
2026-01-27 09:53:20.71	81.95	11.01	-41.2	-60.1	3.8	7.46e-01	0	61	104	0	53	32705
2026-01-27 09:53:21.73	81.76	11.06	-41.2	-60.0	3.8	7.43e-01	0	61	104	0	53	32442
2026-01-27 09:53:22.74	81.58	11.12	-41.3	-60.2	3.8	7.44e-01	0	61	104	0	53	33017
2026-01-27 09:53:23.75	81.40	11.17	-41.1	-60.0	3.8	7.46e-01	0	62	104	0	53	32418
2026-01-27 09:53:24.76	81.21	11.22	-40.9	-60.1	3.8	7.48e-01	0	61	104	0	52	34505
2026-01-27 09:53:25.77	81.03	11.28	-41.0	-60.1	3.8	7.46e-01	0	61	104	0	53	32571
2026-01-27 09:53:26.78	80.85	11.33	-41.2	-60.1	3.8	7.48e-01	0	61	104	0	53	32782
2026-01-27 09:53:27.79	80.66	11.38	-41.4	-60.2	3.8	7.45e-01	0	61	104	0	53	33121
2026-01-27 09:53:28.79	80.48	11.44	-41.3	-60.2	3.8	7.45e-01	0	62	104	0	53	32960
2026-01-27 09:53:29.80	80.29	11.49	-41.4	-60.3	3.8	7.48e-01	0	62	104	0	53	33553
2026-01-27 09:53:30.81	80.10	11.54	-41.5	-60.4	3.8	7.45e-01	0	62	104	0	53	33867
2026-01-27 09:53:31.82	79.91	11.59	-41.2	-60.2	3.8	7.44e-01	0	62	104	0	53	32986
2026-01-27 09:53:32.83	79.72	11.65	-41.4	-60.3	3.8	7.45e-01	0	61	104	0	53	33556
2026-01-27 09:53:33.84	79.53	11.70	-41.2	-60.1	3.8	7.45e-01	0	62	104	0	53	32791
2026-01-27 09:53:34.85	79.34	11.75	-41.6	-60.5	3.8	7.45e-01	0	62	104	0	53	34296
2026-01-27 09:53:35.86	79.15	11.80	-41.3	-60.2	3.8	7.44e-01	0	62	104	0	53	33099
2026-01-27 09:53:36.87	78.96	11.85	-41.5	-60.4	3.8	7.47e-01	0	62	104	0	53	33759
2026-01-27 09:53:37.88	78.76	11.90	-41.4	-60.3	3.8	7.43e-01	0	61	104	0	53	33533
2026-01-27 09:53:38.89	78.57	11.96	-41.7	-60.5	3.8	7.43e-01	0	62	104	0	53	34471
2026-01-27 09:53:39.90	78.37	12.01	-41.4	-60.3	3.8	7.44e-01	0	62	104	0	53	33636
2026-01-27 09:53:40.91	78.18	12.06	-41.6	-60.5	3.8	7.48e-01	0	62	104	0	53	34364
2026-01-27 09:53:41.92	77.98	12.11	-41.4	-60.3	3.8	7.46e-01	0	62	104	0	53	33568
2026-01-27 09:53:42.93	77.79	12.16	-41.9	-60.7	3.8	7.47e-01	0	62	104	0	54	33185
2026-01-27 09:53:43.94	77.59	12.21	-41.7	-60.6	3.8	7.45e-01	0	62	104	0	54	32778
2026-01-27 09:53:44.95	77.39	12.26	-41.8	-60.6	3.8	7.47e-01	0	62	104	0	54	32868
2026-01-27 09:53:45.96	77.19	12.31	-41.6	-60.5	3.8	7.47e-01	0	62	104	0	54	32313
2026-01-27 09:53:46.97	76.99	12.36	-42.0	-60.8	3.8	7.45e-01	0	62	104	0	54	33530
2026-01-27 09:53:47.98	76.79	12.41	-42.0	-60.8	3.8	7.42e-01	0	62	104	0	54	33408
2026-01-27 09:53:48.99	76.59	12.46	-42.0	-60.8	3.8	7.42e-01	0	62	104	0	54	33633
2026-01-27 09:53:50.00	76.39	12.51	-41.7	-60.6	3.8	7.44e-01	0	62	104	0	54	32622
2026-01-27 09:53:51.01	76.19	12.56	-42.0	-60.8	3.8	7.47e-01	0	62	104	0	54	33445
2026-01-27 09:53:52.02	75.98	12.60	-42.1	-60.9	3.8	7.44e-01	0	62	104	0	54	34003
2026-01-27 09:53:53.03	75.78	12.65	-42.3	-61.1	3.8	7.46e-01	0	62	104	0	55	32584
2026-01-27 09:53:54.04	75.57	12.70	-41.8	-60.6	3.8	7.46e-01	0	62	104	0	55	30968
2026-01-27 09:53:55.05	75.37	12.75	-42.2	-60.9	3.8	7.48e-01	0	62	104	0	55	31825
2026-01-27 09:53:56.06	75.16	12.80	-42.1	-61.0	3.8	7.43e-01	0	62	104	0	55	32388
2026-01-27 09:53:57.07	74.96	12.84	-42.3	-61.1	3.8	7.45e-01	0	62	104	0	55	32697
2026-01-27 09:53:58.08	74.75	12.89	-42.1	-60.9	3.8	7.44e-01	0	62	104	0	55	32049
2026-01-27 09:53:59.09	74.54	12.94	-42.3	-60.8	3.8	7.45e-01	0	62	104	0	55	31486
2026-01-27 09:54:00.10	74.33	12.98	-42.3	-61.1	3.8	7.46e-01	0	62	104	0	55	32877
2026-01-27 09:54:01.11	74.12	13.03	-42.1	-60.6	3.8	7.45e-01	0	62	104	0	55	31057
2026-01-27 09:54:02.12	73.91	13.08	-42.4	-61.0	3.8	7.48e-01	0	62	104	0	55	32496
2026-01-27 09:54:03.14	73.70	13.12	-42.4	-61.0	3.8	7.45e-01	0	62	104	0	55	32463
2026-01-27 09:54:04.15	73.49	13.17	-41.9	-60.8	3.8	7.45e-01	0	62	104	0	55	31710
2026-01-27 09:54:05.16	73.27	13.21	-41.8	-60.6	3.8	7.45e-01	0	62	104	0	55	30933
2026-01-27 09:54:06.17	73.06	13.26	-42.2	-61.0	3.8	7.46e-01	0	62	104	0	55	32286
2026-01-27 09:54:07.18	72.85	13.30	-42.3	-61.1	3.8	7.47e-01	0	62	104	0	55	32583
2026-01-27 09:54:08.19	72.63	13.35	-41.8	-60.7	3.8	7.44e-01	0	62	104	0	55	31323
2026-01-27 09:54:09.20	72.42	13.39	-41.9	-60.3	3.8	7.47e-01	0	62	104	0	55	29761
2026-01-27 09:54:10.21	72.20	13.44	-41.9	-60.5	3.8	7.45e-01	0	62	104	0	55	30457
2026-01-27 09:54:11.22	71.98	13.48	-41.9	-60.4	3.8	7.45e-01	0	62	104	0	55	30139
2026-01-27 09:54:12.23	71.76	13.52	-42.0	-60.9	3.8	7.46e-01	0	62	104	0	55	32026
2026-01-27 09:54:13.24	71.55	13.57	-42.0	-60.5	3.8	7.50e-01	0	62	104	0	55	30504
2026-01-27 09:54:14.25	71.33	13.61	-42.1	-60.6	3.8	7.48e-01	0	62	104	0	55	30765
2026-01-27 09:54:15.26	71.11	13.65	-42.2	-60.7	3.8	7.47e-01	0	62	104	0	55	31369
2026-01-27 09:54:16.27	70.89	13.69	-42.2	-60.8	3.8	7.47e-01	0	62	104	0	55	31713
2026-01-27 09:54:17.28	70.67	13.74	-42.5	-60.6	3.8	7.45e-01	0	62	104	0	55	30966
2026-01-27 09:54:18.29	70.45	13.78	-42.2	-61.0	3.8	7.43e-01	0	62	104	0	55	32406
2026-01-27 09:54:19.30	70.22	13.82	-42.5	-57.0	4.4	7.28e-01	0	62	104	0	55	20481
2026-01-27 09:54:20.31	70.00	13.86	-42.3	-60.5	3.8	7.43e-01	0	62	104	0	55	30600
2026-01-27 09:54:21.32	69.78	13.90	-42.5	-54.8	5.8	6.87e-01	16	62	0	524288	55	15830
2026-01-27 09:54:22.33	69.55	13.94	-42.5	-54.6	5.9	6.87e-01	69	62	0	1572864	55	15555
2026-01-27 09:54:23.34	69.33	13.98	-42.5	-53.5	6.9	6.65e-01	92	62	0	3145728	55	13689
2026-01-27 09:54:24.35	69.10	14.02	-42.5	-52.7	7.8	6.50e-01	92	62	0	5242880	55	12394
2026-01-27 09:54:25.36	68.88	14.06	-42.3	-51.7	8.7	6.38e-01	3	62	0	6815744	55	11053
2026-01-27 09:54:26.37	68.65	14.10	-42.2	-51.0	9.4	6.27e-01	0	62	0	8912896	55	10224
2026-01-27 09:54:27.38	68.42	14.14	-41.9	-49.7	10.7	6.20e-01	0	62	0	10485760	55	8848
2026-01-27 09:54:28.39	68.19	14.17	-41.6	-48.7	11.6	6.14e-01	0	62	0	12582912	55	7892
2026-01-27 09:54:29.40	67.97	14.21	-41.4	-48.0	12.5	6.10e-01	0	62	0	14680064	54	7646
2026-01-27 09:54:30.41	67.74	14.25	-41.4	-47.6	12.9	6.10e-01	0	62	0	16252928	54	7370
2026-01-27 09:54:31.42	67.51	14.29	-41.3	-47.2	13.5	6.07e-01	0	62	0	18350080	54	7018
2026-01-27 09:54:32.43	67.28	14.32	-41.4	-47.0	13.9	6.08e-01	0	62	0	19922944	54	6827
2026-01-27 09:54:33.44	67.05	14.36	-41.4	-46.7	14.4	6.06e-01	0	62	0	22020096	54	6590
2026-01-27 09:54:34.45	66.81	14.40	-41.4	-46.2	15.1	6.07e-01	0	62	0	24117248	54	6246
2026-01-27 09:54:35.46	66.58	14.43	-41.3	-45.8	15.7	6.06e-01	0	62	0	25690112	54	5946
2026-01-27 09:54:36.47	66.35	14.47	-41.0	-45.0	16.5	6.06e-01	0	62	0	27787264	53	5779
2026-01-27 09:54:37.48	66.11	14.50	-40.7	-44.6	17.1	6.05e-01	0	62	0	29884416	53	5470
2026-01-27 09:54:38.49	65.88	14.53	-40.7	-44.4	17.3	6.05e-01	0	62	0	31457280	53	5362
2026-01-27 09:54:39.50	65.65	14.57	-40.8	-44.5	17.2	6.05e-01	0	62	0	33554432	53	5436
2026-01-27 09:54:40.51	65.41	14.60	-41.0	-44.8	17.2	6.07e-01	0	62	0	35127296	53	5606
2026-01-27 09:54:41.52	65.18	14.63	-41.3	-45.2	16.7	6.06e-01	0	62	0	37224448	53	5897
2026-01-27 09:54:42.53	64.94	14.67	-41.3	-45.2	16.9	6.08e-01	0	62	0	39321600	53	5882
2026-01-27 09:54:43.54	64.70	14.70	-41.4	-45.2	17.0	6.06e-01	0	62	0	40894464	53	5908
2026-01-27 09:54:44.55	64.46	14.73	-41.5	-45.4	16.9	6.06e-01	0	62	0	42991616	53	6049
2026-01-27 09:54:45.56	64.23	14.76	-41.7	-45.7	16.7	6.06e-01	0	62	0	44564480	54	5902
2026-01-27 09:54:46.57	63.99	14.79	-41.6	-45.4	17.1	6.06e-01	0	62	0	46661632	54	5682
2026-01-27 09:54:47.58	63.75	14.82	-41.6	-45.3	17.2	6.08e-01	0	62	0	48758784	54	5650
2026-01-27 09:54:48.59	63.51	14.85	-41.6	-45.2	17.4	6.07e-01	0	62	0	50331648	54	5587
2026-01-27 09:54:49.60	63.27	14.88	-41.7	-45.4	17.3	6.09e-01	0	62	0	52428800	54	5719
2026-01-27 09:54:50.61	63.03	14.91	-41.6	-45.2	17.5	6.06e-01	0	62	0	54001664	54	5570
2026-01-27 09:54:51.62	62.79	14.94	-41.5	-45.0	17.7	6.06e-01	0	62	0	56098816	54	5454
2026-01-27 09:54:52.63	62.55	14.97	-41.6	-45.2	17.6	6.06e-01	0	62	0	58195968	54	5557
2026-01-27 09:54:53.64	62.30	15.00	-41.8	-45.4	17.4	6.07e-01	0	62	0	59768832	54	5682
2026-01-27 09:54:54.65	62.06	15.03	-41.8	-45.4	17.5	6.06e-01	0	62	0	61865984	54	5660
2026-01-27 09:54:55.66	61.82	15.05	-41.8	-45.4	17.5	6.08e-01	0	62	0	63963136	54	5675
2026-01-27 09:54:56.67	61.58	15.08	-41.8	-45.3	17.6	6.06e-01	0	62	0	65536000	54	5622
2026-01-27 09:54:57.69	61.33	15.11	-41.8	-45.3	17.6	6.08e-01	0	62	0	67633152	54	5629
2026-01-27 09:54:58.70	61.09	15.13	-41.8	-45.3	17.6	6.08e-01	0	62	0	69206016	54	5653
2026-01-27 09:54:59.71	60.84	15.16	-42.0	-45.7	17.2	6.04e-01	0	62	0	71303168	54	5884
2026-01-27 09:55:00.72	60.60	15.18	-41.9	-45.6	17.4	6.05e-01	0	62	0	73400320	54	5792
2026-01-27 09:55:01.73	60.35	15.21	-41.8	-45.3	17.6	6.06e-01	0	62	0	74973184	54	5633
2026-01-27 09:55:02.74	60.10	15.23	-41.7	-45.2	17.7	6.05e-01	0	62	0	77070336	54	5563
2026-01-27 09:55:03.75	59.86	15.25	-41.8	-45.3	17.6	6.05e-01	0	62	0	78643200	54	5650
2026-01-27 09:55:04.76	59.61	15.28	-41.8	-45.3	17.6	6.07e-01	0	62	0	80740352	54	5629
2026-01-27 09:55:05.77	59.36	15.30	-41.8	-45.3	17.6	6.06e-01	0	62	0	82837504	54	5656
2026-01-27 09:55:06.78	59.12	15.32	-41.8	-45.3	17.6	6.06e-01	0	62	0	84410368	54	5647
2026-01-27 09:55:07.79	58.87	15.34	-41.8	-45.2	17.7	6.07e-01	0	62	0	86507520	54	5575
2026-01-27 09:55:08.80	58.62	15.36	-41.7	-45.1	17.8	6.06e-01	0	62	0	88080384	54	5517
2026-01-27 09:55:09.81	58.37	15.38	-41.8	-45.3	17.7	6.05e-01	0	62	0	90177536	54	5595
2026-01-27 09:55:10.82	58.12	15.40	-41.9	-45.4	17.7	6.06e-01	0	62	0	92274688	54	5659
2026-01-27 09:55:11.83	57.87	15.42	-41.9	-45.5	17.5	6.06e-01	0	62	0	93847552	54	5738
2026-01-27 09:55:12.84	57.62	15.44	-41.8	-45.2	17.8	6.07e-01	0	62	0	95944704	54	5545
2026-01-27 09:55:13.85	57.37	15.46	-41.7	-45.1	18.0	6.08e-01	0	62	0	98041856	54	5468
2026-01-27 09:55:14.86	57.12	15.48	-41.7	-45.1	18.0	6.05e-01	0	62	0	99614720	54	5472
2026-01-27 09:55:15.87	56.87	15.49	-41.8	-45.2	17.9	6.06e-01	0	62	0	101711872	54	5556
2026-01-27 09:55:16.88	56.62	15.51	-41.9	-45.4	17.7	6.04e-01	0	62	0	103284736	54	5670
2026-01-27 09:55:17.89	56.37	15.53	-41.9	-45.4	17.7	6.06e-01	0	62	0	105381888	54	5693
2026-01-27 09:55:18.90	56.12	15.54	-41.9	-45.4	17.6	6.04e-01	0	62	0	107479040	54	5705
2026-01-27 09:55:19.91	55.86	15.56	-41.8	-45.1	17.9	6.07e-01	0	62	0	109051904	54	5524
2026-01-27 09:55:20.92	55.61	15.57	-41.7	-45.0	18.1	6.07e-01	0	62	0	111149056	54	5434
2026-01-27 09:55:21.93	55.36	15.59	-41.8	-45.2	17.9	6.06e-01	0	62	0	113246208	54	5574
2026-01-27 09:55:22.94	55.11	15.60	-41.9	-45.4	17.7	6.07e-01	0	62	0	114819072	54	5697
2026-01-27 09:55:23.95	54.85	15.61	-41.9	-45.3	17.8	6.06e-01	0	62	0	116916224	54	5640
2026-01-27 09:55:24.96	54.60	15.63	-41.9	-45.3	17.8	6.06e-01	0	62	0	118489088	54	5644
2026-01-27 09:55:25.97	54.35	15.64	-41.8	-45.2	17.9	6.08e-01	0	62	0	120586240	54	5572
2026-01-27 09:55:26.98	54.09	15.65	-41.8	-45.3	17.8	6.07e-01	0	62	0	122683392	54	5603
2026-01-27 09:55:27.99	53.84	15.66	-41.9	-45.4	17.7	6.06e-01	0	62	0	124256256	54	5666
2026-01-27 09:55:29.00	53.59	15.67	-41.8	-45.3	17.9	6.06e-01	0	62	0	126353408	54	5595
2026-01-27 09:55:30.01	53.33	15.68	-41.8	-45.3	17.8	6.08e-01	0	62	0	127926272	54	5605
2026-01-27 09:55:31.02	53.08	15.69	-41.9	-45.4	17.7	6.08e-01	0	62	0	130023424	54	5687
2026-01-27 09:55:32.03	52.82	15.70	-41.9	-45.3	17.8	6.07e-01	0	62	0	132120576	54	5627
2026-01-27 09:55:33.04	52.57	15.71	-41.9	-45.4	17.7	6.07e-01	0	62	0	133693440	54	5682
2026-01-27 09:55:34.06	52.31	15.72	-41.9	-45.4	17.7	6.08e-01	0	62	0	135790592	54	5665
2026-01-27 09:55:35.07	52.06	15.72	-41.8	-45.2	17.9	6.05e-01	0	62	0	137887744	54	5579
2026-01-27 09:55:36.08	51.80	15.73	-41.8	-45.2	17.9	6.05e-01	0	62	0	139460608	54	5555
2026-01-27 09:55:37.09	51.55	15.74	-41.8	-45.2	17.9	6.04e-01	0	62	0	141557760	54	5549
2026-01-27 09:55:38.10	51.29	15.74	-41.9	-45.3	17.8	6.05e-01	0	62	0	143130624	54	5628
2026-01-27 09:55:39.11	51.04	15.75	-42.0	-45.4	17.7	6.05e-01	0	62	0	145227776	54	5722
2026-01-27 09:55:40.12	50.78	15.75	-41.9	-45.4	17.7	6.09e-01	0	62	0	147324928	54	5712
2026-01-27 09:55:41.13	50.53	15.76	-41.8	-45.2	17.9	6.05e-01	0	62	0	148897792	54	5577
2026-01-27 09:55:42.14	50.27	15.76	-41.8	-45.2	18.0	6.06e-01	0	62	0	150994944	54	5548
2026-01-27 09:55:43.15	50.01	15.76	-41.8	-45.2	18.0	6.06e-01	0	62	0	152567808	54	5569
2026-01-27 09:55:44.16	49.76	15.76	-41.8	-45.2	18.0	6.05e-01	0	63	0	154664960	54	5582
2026-01-27 09:55:45.16	49.51	15.77	-42.0	-45.5	17.7	6.06e-01	0	62	0	156762112	54	5745
2026-01-27 09:55:46.17	49.25	15.77	-42.0	-45.6	17.6	6.07e-01	0	62	0	158334976	54	5805
2026-01-27 09:55:47.19	48.99	15.77	-41.8	-45.3	17.9	6.06e-01	0	62	0	160432128	54	5596
2026-01-27 09:55:48.20	48.74	15.77	-41.8	-45.2	18.0	6.08e-01	0	62	0	162004992	54	5556
2026-01-27 09:55:49.21	48.48	15.77	-41.9	-45.3	17.9	6.05e-01	0	62	0	164102144	54	5610
2026-01-27 09:55:50.22	48.22	15.77	-41.9	-45.3	17.9	6.06e-01	0	62	0	166199296	54	5608
2026-01-27 09:55:51.23	47.97	15.77	-41.9	-45.4	17.8	6.07e-01	0	62	0	167772160	54	5677
2026-01-27 09:55:52.24	47.71	15.76	-42.0	-45.5	17.7	6.07e-01	0	62	0	169869312	54	5736
2026-01-27 09:55:53.25	47.46	15.76	-41.9	-45.3	17.8	6.05e-01	0	62	0	171442176	54	5653
2026-01-27 09:55:54.26	47.20	15.76	-41.8	-45.1	18.0	6.06e-01	0	62	0	173539328	54	5521
2026-01-27 09:55:55.27	46.95	15.75	-41.9	-45.3	17.9	6.06e-01	0	62	0	175636480	54	5603
2026-01-27 09:55:56.28	46.69	15.75	-41.9	-45.3	17.9	6.06e-01	0	62	0	177209344	54	5615
2026-01-27 09:55:57.29	46.44	15.75	-41.9	-45.3	18.0	6.06e-01	0	62	0	179306496	54	5598
2026-01-27 09:55:58.30	46.18	15.74	-42.0	-54.9	3.8	7.46e-01	0	62	104	180879360	54	17065
2026-01-27 09:55:59.31	45.93	15.73	-42.0	-54.8	3.8	7.44e-01	0	62	104	180879360	54	16779
2026-01-27 09:56:00.32	45.67	15.73	-42.1	-55.0	3.9	7.42e-01	0	62	104	180879360	54	17089
2026-01-27 09:56:01.33	45.42	15.72	-43.0	-56.5	3.8	7.40e-01	0	62	104	180879360	57	17239
2026-01-27 09:56:02.34	45.16	15.71	-42.3	-55.2	3.8	7.42e-01	0	62	104	180879360	56	15603
2026-01-27 09:56:03.35	44.91	15.71	-44.5	-60.3	3.9	7.41e-01	0	62	104	180879360	60	22315
2026-01-27 09:56:04.36	44.65	15.70	-43.4	-57.2	3.8	7.43e-01	0	62	104	180879360	59	16588
2026-01-27 09:56:05.37	44.40	15.69	-44.1	-59.3	3.8	7.45e-01	0	63	104	180879360	60	20042
2026-01-27 09:56:06.38	44.14	15.68	-42.3	-55.3	3.8	7.46e-01	0	63	104	180879360	56	15860
2026-01-27 09:56:07.39	43.89	15.67	-42.4	-55.3	3.8	7.41e-01	0	63	104	180879360	56	15940
2026-01-27 09:56:08.40	43.64	15.66	-42.3	-55.2	3.8	7.46e-01	0	62	104	180879360	56	15637
2026-01-27 09:56:09.41	43.38	15.65	-43.2	-56.9	3.8	7.44e-01	0	62	104	180879360	58	16990
2026-01-27 09:56:10.42	43.13	15.64	-42.2	-55.1	3.8	7.46e-01	0	63	104	180879360	56	15474
2026-01-27 09:56:11.43	42.88	15.62	-44.0	-58.8	3.9	7.44e-01	0	62	104	180879360	60	18756
2026-01-27 09:56:12.44	42.62	15.61	-42.5	-55.6	3.8	7.43e-01	0	62	104	180879360	57	15448
2026-01-27 09:56:13.45	42.37	15.60	-44.2	-58.6	3.9	7.43e-01	0	63	104	180879360	59	19573
2026-01-27 09:56:14.46	42.12	15.58	-42.3	-55.2	3.7	7.48e-01	0	62	104	180879360	56	15622
2026-01-27 09:56:15.47	41.87	15.57	-42.2	-55.0	3.8	7.43e-01	0	63	104	180879360	56	15393
2026-01-27 09:56:16.48	41.61	15.55	-42.5	-55.4	3.7	7.51e-01	0	62	104	180879360	56	16083
2026-01-27 09:56:17.49	41.36	15.54	-43.1	-56.7	3.8	7.46e-01	0	62	104	180879360	58	16528
2026-01-27 09:56:18.50	41.11	15.52	-42.2	-54.9	3.7	7.49e-01	0	63	104	180879360	56	15152
2026-01-27 09:56:19.51	40.86	15.51	-44.1	-58.6	3.9	7.46e-01	0	62	104	180879360	59	19435
2026-01-27 09:56:20.52	40.61	15.49	-42.3	-55.1	3.8	7.43e-01	0	63	104	180879360	56	15545
2026-01-27 09:56:21.53	40.36	15.47	-43.7	-58.0	3.9	7.41e-01	0	63	104	180879360	59	18172
2026-01-27 09:56:22.54	40.11	15.46	-42.3	-55.2	3.8	7.44e-01	0	63	104	180879360	56	15714
2026-01-27 09:56:23.55	39.86	15.44	-42.3	-55.3	3.8	7.45e-01	0	62	104	180879360	56	15888
2026-01-27 09:56:24.55	39.61	15.42	-42.4	-55.2	3.8	7.45e-01	0	62	104	180879360	56	15720
2026-01-27 09:56:25.56	39.36	15.40	-42.7	-56.0	3.8	7.44e-01	0	63	104	180879360	57	16184
2026-01-27 09:56:26.57	39.12	15.38	-42.7	-55.7	3.8	7.46e-01	0	63	104	180879360	56	16574
2026-01-27 09:56:27.58	38.87	15.36	-43.9	-58.2	3.9	7.46e-01	0	63	104	180879360	59	18533
2026-01-27 09:56:28.59	38.62	15.34	-42.7	-55.8	3.8	7.46e-01	0	63	104	180879360	56	16838
2026-01-27 09:56:29.60	38.37	15.32	-42.9	-57.1	3.9	7.45e-01	0	63	104	180879360	58	17317
2026-01-27 09:56:30.61	38.13	15.29	-42.3	-55.2	3.8	7.41e-01	0	63	104	180879360	56	15646
2026-01-27 09:56:31.62	37.88	15.27	-42.2	-55.1	3.8	7.42e-01	0	63	104	180879360	56	15429
2026-01-27 09:56:32.63	37.63	15.25	-43.7	-58.0	3.8	7.48e-01	0	62	104	180879360	57	20377
2026-01-27 09:56:33.64	37.39	15.23	-43.1	-56.7	3.9	7.43e-01	0	63	104	180879360	58	16597
2026-01-27 09:56:34.65	37.14	15.20	-43.1	-56.4	3.8	7.46e-01	0	63	104	180879360	56	17916
2026-01-27 09:56:35.66	36.90	15.18	-43.9	-58.1	3.9	7.45e-01	0	63	104	180879360	59	18330
2026-01-27 09:56:36.67	36.65	15.15	-43.7	-57.8	3.8	7.46e-01	0	63	104	180879360	57	19866
2026-01-27 09:56:37.68	36.41	15.13	-43.0	-56.5	3.9	7.43e-01	0	63	104	180879360	58	16244
2026-01-27 09:56:38.68	36.17	15.10	-42.4	-55.3	3.8	7.45e-01	0	63	104	180879360	56	15878
2026-01-27 09:56:39.69	35.92	15.08	-42.3	-55.2	3.8	7.43e-01	0	63	104	180879360	56	15698
2026-01-27 09:56:40.70	35.68	15.05	-43.5	-57.1	3.8	7.47e-01	0	63	104	180879360	57	18499
2026-01-27 09:56:41.71	35.44	15.02	-44.6	-60.2	3.8	7.43e-01	0	63	104	180879360	60	22184
2026-01-27 09:56:42.72	35.20	15.00	-44.1	-58.8	3.8	7.47e-01	0	63	104	180879360	58	21068
2026-01-27 09:56:43.73	34.95	14.97	-43.0	-56.5	3.9	7.44e-01	0	63	104	180879360	58	16242
2026-01-27 09:56:44.75	34.71	14.94	-43.7	-57.7	3.8	7.46e-01	0	63	104	180879360	57	19668
2026-01-27 09:56:45.76	34.47	14.91	-42.6	-55.9	3.8	7.43e-01	0	63	104	180879360	57	15990
2026-01-27 09:56:46.77	34.23	14.88	-42.2	-55.0	3.8	7.45e-01	0	63	104	180879360	56	15378
2026-01-27 09:56:47.78	33.99	14.85	-42.1	-54.9	3.8	7.43e-01	0	62	104	180879360	56	15125
2026-01-27 09:56:48.79	33.75	14.82	-43.0	-56.4	3.8	7.43e-01	0	63	104	180879360	56	18051
2026-01-27 09:56:49.80	33.52	14.79	-44.2	-58.8	3.8	7.47e-01	0	62	104	180879360	58	21199
2026-01-27 09:56:50.81	33.28	14.76	-44.4	-59.8	3.8	7.43e-01	0	62	104	180879360	59	22287
2026-01-27 09:56:51.82	33.04	14.73	-42.9	-56.6	3.8	7.46e-01	0	63	104	180879360	57	17293
2026-01-27 09:56:52.83	32.80	14.70	-44.5	-59.5	3.8	7.45e-01	0	63	104	180879360	59	21508
2026-01-27 09:56:53.84	32.57	14.66	-42.4	-55.3	3.9	7.43e-01	0	63	104	180879360	56	15912
2026-01-27 09:56:54.85	32.33	14.63	-42.2	-55.1	3.8	7.46e-01	0	63	104	180879360	56	15550
2026-01-27 09:56:55.86	32.10	14.60	-42.2	-55.0	3.8	7.45e-01	0	63	104	180879360	56	15386
2026-01-27 09:56:56.87	31.86	14.56	-42.7	-56.0	3.8	7.46e-01	0	62	104	180879360	56	17162
2026-01-27 09:56:57.88	31.63	14.53	-44.6	-59.8	3.8	7.45e-01	0	63	104	180879360	59	22391
2026-01-27 09:56:58.89	31.40	14.50	-44.6	-60.4	3.8	7.44e-01	0	63	104	180879360	59	24044
2026-01-27 09:56:59.90	31.16	14.46	-43.0	-56.5	3.8	7.45e-01	0	63	104	180879360	57	17160
2026-01-27 09:57:00.91	30.93	14.43	-44.7	-60.1	3.8	7.48e-01	0	63	104	180879360	59	23087
2026-01-27 09:57:01.92	30.70	14.39	-42.2	-55.1	3.8	7.46e-01	0	63	104	180879360	56	15409
2026-01-27 09:57:02.93	30.47	14.36	-42.2	-55.1	3.8	7.46e-01	0	63	104	180879360	56	15418
2026-01-27 09:57:03.94	30.24	14.32	-42.2	-55.0	3.8	7.46e-01	0	63	104	180879360	56	15267
2026-01-27 09:57:04.95	30.01	14.28	-42.9	-56.5	3.8	7.45e-01	0	63	104	180879360	56	18185
2026-01-27 09:57:05.96	29.78	14.25	-44.6	-59.9	3.8	7.44e-01	0	63	104	180879360	59	22596
2026-01-27 09:57:06.97	29.55	14.21	-44.7	-60.6	3.8	7.47e-01	0	63	104	180879360	59	24557
2026-01-27 09:57:07.98	29.32	14.17	-42.9	-56.6	3.8	7.42e-01	0	63	104	180879360	57	17316
2026-01-27 09:57:08.99	29.10	14.13	-44.8	-61.1	3.9	7.48e-01	0	63	104	180879360	60	24615
2026-01-27 09:57:10.00	28.87	14.09	-42.3	-55.3	3.8	7.42e-01	0	63	104	180879360	56	15834
2026-01-27 09:57:11.01	28.65	14.06	-42.2	-55.0	3.8	7.42e-01	0	63	104	180879360	56	15397
2026-01-27 09:57:12.02	28.42	14.02	-42.2	-55.1	3.8	7.44e-01	0	63	104	180879360	56	15484
2026-01-27 09:57:13.03	28.20	13.98	-43.2	-57.0	3.8	7.45e-01	0	63	104	180879360	56	19306
2026-01-27 09:57:14.04	27.97	13.94	-43.0	-56.6	3.8	7.46e-01	0	63	104	180879360	56	18341
2026-01-27 09:57:15.04	27.75	13.90	-44.8	-61.0	3.8	7.44e-01	0	63	104	180879360	60	24206
2026-01-27 09:57:16.05	27.53	13.86	-44.7	-60.2	3.8	7.45e-01	0	62	104	180879360	59	23376
2026-01-27 09:57:17.07	27.30	13.82	-44.7	-60.9	3.8	7.49e-01	0	63	104	180879360	59	25356
2026-01-27 09:57:18.07	27.09	13.78	-42.4	-55.4	3.8	7.46e-01	0	63	104	180879360	56	16057
2026-01-27 09:57:19.08	26.86	13.73	-42.3	-55.3	3.8	7.45e-01	0	63	104	180879360	56	15773
2026-01-27 09:57:20.09	26.64	13.69	-42.3	-55.3	3.8	7.43e-01	0	63	104	180879360	56	15841
2026-01-27 09:57:21.10	26.43	13.65	-43.6	-57.5	3.9	7.48e-01	0	63	104	180879360	57	19334
2026-01-27 09:57:22.11	26.21	13.61	-44.6	-60.0	3.8	7.43e-01	0	63	104	180879360	59	22797
2026-01-27 09:57:23.12	25.99	13.57	-44.7	-60.8	3.8	7.45e-01	0	63	104	180879360	59	25153
2026-01-27 09:57:24.13	25.77	13.52	-42.8	-56.3	3.8	7.43e-01	0	63	104	180879360	57	16740
2026-01-27 09:57:25.14	25.56	13.48	-44.7	-61.2	3.8	7.44e-01	0	63	104	180879360	60	24698
2026-01-27 09:57:26.15	25.34	13.44	-42.3	-55.3	3.8	7.45e-01	0	63	104	180879360	56	15765
2026-01-27 09:57:27.16	25.12	13.39	-42.3	-55.2	3.8	7.43e-01	0	63	104	180879360	56	15674
2026-01-27 09:57:28.17	24.91	13.35	-42.2	-55.3	3.8	7.43e-01	0	63	104	180879360	56	15770
2026-01-27 09:57:29.18	24.70	13.30	-42.5	-55.8	3.8	7.42e-01	0	63	104	180879360	56	16797
2026-01-27 09:57:30.19	24.48	13.26	-44.0	-58.5	3.9	7.44e-01	0	63	104	180879360	59	19230
2026-01-27 09:57:31.20	24.27	13.21	-44.6	-60.8	3.8	7.44e-01	0	63	104	180879360	59	25016
2026-01-27 09:57:32.21	24.06	13.17	-42.6	-56.0	3.8	7.42e-01	0	63	104	180879360	57	16171
2026-01-27 09:57:33.22	23.85	13.12	-44.6	-60.8	3.8	7.44e-01	0	63	104	180879360	60	23687
2026-01-27 09:57:34.23	23.64	13.08	-42.4	-55.4	3.8	7.44e-01	0	63	104	180879360	56	15960
2026-01-27 09:57:35.24	23.43	13.03	-42.4	-55.5	3.8	7.42e-01	0	63	104	180879360	56	16258
2026-01-27 09:57:36.25	23.22	12.99	-42.3	-55.4	3.8	7.42e-01	0	63	104	180879360	56	16016
2026-01-27 09:57:37.26	23.01	12.94	-42.8	-56.4	3.8	7.46e-01	0	63	104	180879360	56	17949
2026-01-27 09:57:38.27	22.81	12.89	-43.1	-56.7	3.9	7.44e-01	0	63	104	180879360	58	16593
2026-01-27 09:57:39.28	22.60	12.84	-44.6	-60.8	3.8	7.48e-01	0	63	104	180879360	59	25060
2026-01-27 09:57:40.29	22.39	12.80	-42.6	-55.9	3.9	7.44e-01	0	63	104	180879360	57	16124
2026-01-27 09:57:41.30	22.19	12.75	-44.4	-60.4	3.8	7.41e-01	0	63	104	180879360	60	22550
2026-01-27 09:57:42.31	21.98	12.70	-42.4	-55.4	3.8	7.45e-01	0	63	104	180879360	56	15990
2026-01-27 09:57:43.32	21.78	12.65	-42.4	-55.5	3.8	7.43e-01	0	63	104	180879360	56	16210
2026-01-27 09:57:44.33	21.58	12.61	-42.2	-55.2	3.8	7.43e-01	0	63	104	180879360	56	15592
2026-01-27 09:57:45.34	21.37	12.56	-42.4	-55.7	3.9	7.46e-01	0	63	104	180879360	56	16600
2026-01-27 09:57:46.35	21.17	12.51	-42.8	-56.1	3.9	7.43e-01	0	63	104	180879360	57	16453
2026-01-27 09:57:47.36	20.97	12.46	-44.4	-60.2	3.8	7.46e-01	0	63	104	180879360	59	23449
2026-01-27 09:57:48.37	20.77	12.41	-42.3	-55.3	3.8	7.46e-01	0	63	104	180879360	56	15805
2026-01-27 09:57:49.38	20.57	12.36	-44.0	-59.1	3.8	7.41e-01	0	63	104	180879360	60	19594
2026-01-27 09:57:50.39	20.37	12.31	-42.5	-55.6	3.8	7.46e-01	0	63	104	180879360	56	16420
2026-01-27 09:57:51.40	20.18	12.26	-42.4	-55.5	3.8	7.45e-01	0	63	104	180879360	56	16170
2026-01-27 09:57:52.41	19.98	12.21	-42.2	-55.3	3.8	7.45e-01	0	63	104	180879360	56	15822
2026-01-27 09:57:53.43	19.78	12.16	-43.0	-56.8	3.8	7.44e-01	0	63	104	180879360	56	18859
2026-01-27 09:57:54.43	19.59	12.11	-42.4	-55.7	3.8	7.44e-01	0	63	104	180879360	56	16539
2026-01-27 09:57:55.44	19.39	12.06	-44.1	-58.8	3.9	7.43e-01	0	63	104	180879360	59	20040
2026-01-27 09:57:56.45	19.20	12.01	-42.4	-55.5	3.9	7.46e-01	0	63	104	180879360	56	16193
2026-01-27 09:57:57.46	19.01	11.96	-44.3	-60.2	3.8	7.44e-01	0	63	104	180879360	59	23567
2026-01-27 09:57:58.47	18.81	11.91	-42.4	-55.5	3.8	7.46e-01	0	63	104	180879360	56	16250
2026-01-27 09:57:59.48	18.62	11.86	-42.3	-55.4	3.8	7.42e-01	0	63	104	180879360	56	16110
2026-01-27 09:58:00.49	18.43	11.81	-43.2	-57.1	3.8	7.46e-01	0	63	104	180879360	56	19423
2026-01-27 09:58:01.50	18.24	11.75	-43.6	-58.2	3.9	7.44e-01	0	63	104	180879360	59	18587
2026-01-27 09:58:02.51	18.05	11.70	-42.6	-55.9	3.8	7.45e-01	0	63	104	180879360	57	16121
2026-01-27 09:58:03.52	17.86	11.65	-43.7	-58.0	3.9	7.43e-01	0	63	104	180879360	59	18117
2026-01-27 09:58:04.53	17.67	11.60	-42.7	-56.2	3.8	7.47e-01	0	63	104	180879360	56	17581
2026-01-27 09:58:05.54	17.48	11.55	-43.9	-59.2	3.9	7.43e-01	0	63	104	180879360	59	20954
2026-01-27 09:58:06.55	17.30	11.49	-42.6	-56.0	3.8	7.48e-01	0	63	104	180879360	57	16241
2026-01-27 09:58:07.56	17.11	11.44	-42.5	-55.8	3.8	7.43e-01	0	63	104	180879360	56	16698
2026-01-27 09:58:08.57	16.93	11.39	-42.4	-55.6	3.8	7.43e-01	0	63	104	180879360	56	16364
2026-01-27 09:58:09.58	16.74	11.34	-43.9	-58.4	3.9	7.49e-01	0	63	104	180879360	58	20169
2026-01-27 09:58:10.59	16.56	11.28	-43.2	-57.1	3.8	7.48e-01	0	63	104	180879360	57	18390
2026-01-27 09:58:11.60	16.37	11.23	-43.6	-58.4	3.9	7.44e-01	0	63	104	180879360	59	18980
2026-01-27 09:58:12.61	16.19	11.18	-42.9	-56.4	3.8	7.43e-01	0	63	104	180879360	56	18093
2026-01-27 09:58:13.62	16.01	11.12	-42.7	-56.4	3.9	7.39e-01	0	63	104	180879360	57	16927
2026-01-27 09:58:14.63	15.83	11.07	-42.5	-55.9	3.8	7.44e-01	0	63	104	180879360	56	17037
2026-01-27 09:58:15.64	15.65	11.02	-42.4	-55.9	3.9	7.43e-01	0	63	104	180879360	56	16892
2026-01-27 09:58:16.65	15.47	10.96	-43.2	-57.4	3.8	7.46e-01	0	63	104	180879360	56	20220
2026-01-27 09:58:17.66	15.29	10.91	-43.2	-57.7	3.8	7.44e-01	0	63	104	180879360	57	19735
2026-01-27 09:58:18.67	15.11	10.85	-43.5	-57.9	3.8	7.43e-01	0	63	104	180879360	57	20171
2026-01-27 09:58:19.68	14.94	10.80	-43.4	-57.5	3.8	7.43e-01	0	63	104	180879360	58	18169
2026-01-27 09:58:20.69	14.76	10.74	-44.0	-59.4	3.8	7.45e-01	0	63	104	180879360	58	22547
2026-01-27 09:58:21.70	14.58	10.69	-42.7	-56.3	3.9	7.44e-01	0	63	104	180879360	57	16729
2026-01-27 09:58:22.71	14.41	10.64	-42.3	-55.5	3.8	7.46e-01	0	63	104	180879360	56	16146
2026-01-27 09:58:23.72	14.23	10.58	-42.2	-55.4	3.8	7.44e-01	0	63	104	180879360	56	16019
2026-01-27 09:58:24.73	14.06	10.53	-43.1	-60.6	3.7	7.51e-01	0	63	104	180879360	56	29214
2026-01-27 09:58:25.74	13.89	10.47	-42.7	-59.5	3.8	7.42e-01	0	63	104	180879360	57	24327
2026-01-27 09:58:26.75	13.71	10.42	-42.5	-59.8	3.7	7.42e-01	0	63	104	180879360	55	28338
2026-01-27 09:58:27.76	13.54	10.36	-41.7	-56.7	3.9	7.46e-01	0	63	104	180879360	55	19830
2026-01-27 09:58:28.77	13.37	10.31	-42.4	-58.7	3.7	7.50e-01	0	63	104	180879360	55	24733
2026-01-27 09:58:29.78	13.20	10.25	-42.4	-55.8	3.9	7.49e-01	0	63	104	180879360	56	16859
2026-01-27 09:58:30.79	13.03	10.20	-42.3	-55.8	3.8	7.41e-01	0	63	104	180879360	56	16723
2026-01-27 09:58:31.80	12.86	10.14	-42.1	-55.4	3.8	7.39e-01	0	63	104	180879360	56	16058
2026-01-27 09:58:32.81	12.70	10.08	-42.0	-55.9	3.8	7.43e-01	0	63	104	180879360	55	18066
2026-01-27 09:58:33.82	12.53	10.03	-43.4	-58.3	3.8	7.46e-01	0	63	104	180879360	57	21126
2026-01-27 09:58:34.83	12.36	9.97	-43.7	-60.1	3.8	7.45e-01	0	63	104	180879360	57	25932
2026-01-27 09:58:35.84	12.20	9.92	-41.9	-56.1	3.8	7.44e-01	0	63	104	180879360	55	18330
2026-01-27 09:58:36.85	12.03	9.86	-43.7	-58.9	3.8	7.49e-01	0	63	104	180879360	57	22647
2026-01-27 09:58:37.86	11.87	9.81	-41.8	-55.6	3.9	7.48e-01	0	63	104	180879360	55	17350
2026-01-27 09:58:38.87	11.70	9.75	-41.7	-55.5	3.8	7.44e-01	0	63	104	180879360	55	17120
2026-01-27 09:58:39.88	11.54	9.69	-41.5	-55.3	3.8	7.45e-01	0	63	104	180879360	55	16817
2026-01-27 09:58:40.89	11.38	9.64	-41.5	-57.1	3.8	7.42e-01	0	63	104	180879360	54	21915
2026-01-27 09:58:41.90	11.21	9.58	-43.1	-59.3	3.8	7.47e-01	0	63	104	180879360	56	25029
2026-01-27 09:58:42.91	11.05	9.53	-43.0	-60.7	3.8	7.45e-01	0	63	104	180879360	56	29416
2026-01-27 09:58:43.92	10.89	9.47	-41.8	-59.6	3.8	7.46e-01	0	63	104	180879360	55	27542
2026-01-27 09:58:44.93	10.73	9.41	-43.4	-60.7	3.8	7.46e-01	0	63	104	180879360	57	27855
2026-01-27 09:58:45.94	10.57	9.36	-42.7	-60.4	3.8	7.43e-01	0	63	104	180879360	57	26927
2026-01-27 09:58:46.95	10.42	9.30	-42.5	-60.6	3.8	7.43e-01	0	63	104	180879360	57	27656
2026-01-27 09:58:47.96	10.26	9.24	-42.3	-60.8	3.8	7.44e-01	0	63	104	180879360	56	29740
2026-01-27 09:58:48.97	10.10	9.19	-41.6	-60.3	3.8	7.45e-01	0	63	104	180879360	55	29933
2026-01-27 09:58:49.98	9.94	9.13	-41.8	-60.7	3.8	7.46e-01	0	63	104	180879360	55	31303
2026-01-27 09:58:50.99	9.79	9.07	-41.5	-60.4	3.8	7.45e-01	0	63	104	180879360	55	30093
2026-01-27 09:58:52.00	9.63	9.02	-41.2	-59.9	3.8	7.42e-01	0	63	104	180879360	54	30095
2026-01-27 09:58:53.01	9.48	8.96	-41.9	-60.7	3.8	7.46e-01	0	63	104	180879360	54	33053
2026-01-27 09:58:54.02	9.33	8.90	-41.1	-59.7	3.8	7.42e-01	0	63	104	180879360	54	29616
2026-01-27 09:58:55.03	9.17	8.85	-41.0	-59.6	3.8	7.45e-01	0	63	104	180879360	54	29177
2026-01-27 09:58:56.04	9.02	8.79	-41.0	-59.6	3.8	7.45e-01	0	63	104	180879360	54	29135
2026-01-27 09:58:57.05	8.87	8.73	-40.8	-59.7	3.8	7.44e-01	0	63	104	180879360	53	31230
2026-01-27 09:58:58.06	8.72	8.68	-41.0	-59.5	3.8	7.45e-01	0	63	104	180879360	53	30567
2026-01-27 09:58:59.07	8.57	8.62	-41.2	-60.1	3.8	7.46e-01	0	63	104	180879360	53	32828
2026-01-27 09:59:00.08	8.42	8.56	-41.0	-59.9	3.8	7.45e-01	0	63	104	180879360	53	32093
2026-01-27 09:59:01.09	8.27	8.50	-40.9	-59.8	3.8	7.45e-01	0	63	104	180879360	53	31459
2026-01-27 09:59:02.10	8.12	8.45	-40.9	-59.5	3.8	7.44e-01	0	63	104	180879360	53	30674
2026-01-27 09:59:03.11	7.97	8.39	-40.9	-59.5	3.8	7.48e-01	0	63	104	180879360	53	30426
2026-01-27 09:59:04.12	7.83	8.33	-40.9	-59.5	3.8	7.49e-01	0	63	104	180879360	53	30565
2026-01-27 09:59:05.13	7.68	8.28	-40.8	-59.5	3.9	7.51e-01	0	63	104	180879360	52	32362
2026-01-27 09:59:06.14	7.53	8.22	-40.8	-59.4	3.8	7.44e-01	0	63	104	180879360	52	32141
2026-01-27 09:59:07.15	7.39	8.16	-41.0	-59.9	3.8	7.45e-01	0	63	104	180879360	52	33858
2026-01-27 09:59:08.16	7.24	8.10	-40.9	-59.8	3.8	7.47e-01	0	63	104	180879360	52	33583
2026-01-27 09:59:09.17	7.10	8.05	-40.8	-59.7	3.8	7.47e-01	0	63	104	180879360	52	32974
2026-01-27 09:59:10.18	6.96	7.99	-42.2	-60.9	3.9	7.45e-01	0	63	104	180879360	54	33862
2026-01-27 09:59:11.20	6.81	7.93	-45.3	-62.9	3.8	7.49e-01	0	63	104	180879360	61	28621
2026-01-27 09:59:12.21	6.67	7.87	-45.8	-64.2	3.8	7.45e-01	0	63	104	180879360	62	31160
2026-01-27 09:59:13.22	6.53	7.82	-46.1	-64.5	3.8	7.45e-01	0	63	104	180879360	62	32443
2026-01-27 09:59:14.23	6.39	7.76	-46.2	-64.7	3.8	7.45e-01	0	63	104	180879360	63	31417
2026-01-27 09:59:15.24	6.25	7.70	-46.2	-64.8	3.8	7.44e-01	0	63	104	180879360	63	31656
2026-01-27 09:59:16.24	6.11	7.65	-46.4	-64.9	3.8	7.49e-01	0	63	104	180879360	63	32009
2026-01-27 09:59:17.26	5.97	7.59	-46.4	-65.0	3.8	7.44e-01	0	63	104	180879360	63	32200
2026-01-27 09:59:18.27	5.83	7.53	-46.5	-65.0	3.8	7.47e-01	0	63	104	180879360	63	32401
2026-01-27 09:59:19.28	5.69	7.47	-46.4	-64.9	3.8	7.45e-01	0	63	104	180879360	63	32115
2026-01-27 09:59:20.29	5.56	7.42	-46.4	-64.9	3.8	7.44e-01	0	63	104	180879360	63	31861
2026-01-27 09:59:21.30	5.42	7.36	-46.3	-64.8	3.8	7.44e-01	0	63	104	180879360	63	31643
2026-01-27 09:59:22.31	5.28	7.30	-46.1	-64.7	3.8	7.47e-01	0	63	104	180879360	63	31170
2026-01-27 09:59:23.32	5.15	7.24	-46.1	-64.7	3.8	7.48e-01	0	63	104	180879360	63	31138
2026-01-27 09:59:24.33	5.01	7.19	-46.1	-64.7	3.8	7.46e-01	0	63	104	180879360	63	31121
2026-01-27 09:59:25.34	4.88	7.13	-46.1	-64.6	3.8	7.50e-01	0	63	104	180879360	62	32843
2026-01-27 09:59:26.35	4.75	7.07	-46.1	-64.6	3.8	7.44e-01	0	63	104	180879360	62	32706
2026-01-27 09:59:27.36	4.61	7.01	-46.1	-64.6	3.8	7.46e-01	0	63	104	180879360	62	32720
2026-01-27 09:59:28.37	4.48	6.96	-46.1	-64.6	3.8	7.45e-01	0	64	104	180879360	62	32869
2026-01-27 09:59:29.38	4.35	6.90	-45.5	-64.5	3.9	7.51e-01	0	63	104	180879360	61	34368
2026-01-27 09:59:30.39	4.22	6.84	-46.1	-64.5	3.8	7.45e-01	0	63	104	180879360	62	32504
2026-01-27 09:59:31.40	4.09	6.79	-46.1	-64.6	3.8	7.46e-01	0	63	104	180879360	62	32626
2026-01-27 09:59:32.41	3.96	6.73	-46.1	-64.6	3.8	7.47e-01	0	63	104	180879360	62	32831
2026-01-27 09:59:33.42	3.83	6.67	-46.0	-64.5	3.8	7.42e-01	0	63	104	180879360	62	32464
2026-01-27 09:59:34.43	3.70	6.61	-46.1	-64.5	3.8	7.43e-01	0	63	104	180879360	62	32530
2026-01-27 09:59:35.44	3.57	6.56	-46.0	-64.5	3.8	7.44e-01	0	63	104	180879360	62	32436
2026-01-27 09:59:36.45	3.44	6.50	-46.0	-64.6	3.8	7.44e-01	0	63	104	180879360	62	32681
2026-01-27 09:59:37.46	3.31	6.44	-46.1	-64.6	3.8	7.48e-01	0	63	104	180879360	62	32700
2026-01-27 09:59:38.47	3.19	6.38	-46.0	-64.5	3.8	7.46e-01	0	63	104	180879360	62	32375
2026-01-27 09:59:39.48	3.06	6.33	-46.0	-64.5	3.8	7.47e-01	0	63	104	180879360	62	32180
2026-01-27 09:59:40.49	2.94	6.27	-46.0	-64.6	3.8	7.44e-01	0	63	104	180879360	62	32579
2026-01-27 09:59:41.51	2.81	6.21	-46.0	-64.6	3.8	7.47e-01	0	63	104	180879360	62	32663
2026-01-27 09:59:42.52	2.69	6.16	-45.9	-64.5	3.8	7.43e-01	0	63	104	180879360	62	32529
2026-01-27 09:59:43.53	2.56	6.10	-46.0	-64.5	3.8	7.44e-01	0	63	104	180879360	62	32543
2026-01-27 09:59:44.54	2.44	6.04	-45.6	-64.5	3.8	7.45e-01	0	63	104	180879360	62	32455
2026-01-27 09:59:45.55	2.32	5.98	-46.0	-64.6	3.8	7.46e-01	0	63	104	180879360	62	32666
2026-01-27 09:59:46.56	2.19	5.93	-46.0	-64.6	3.8	7.45e-01	0	63	104	180879360	62	32620
2026-01-27 09:59:47.57	2.07	5.87	-46.0	-64.5	3.8	7.44e-01	0	63	104	180879360	62	32488
2026-01-27 09:59:48.58	1.95	5.81	-46.0	-64.5	3.8	7.45e-01	0	63	104	180879360	62	32449
2026-01-27 09:59:49.59	1.83	5.76	-46.0	-64.6	3.8	7.43e-01	0	63	104	180879360	62	32571
2026-01-27 09:59:50.60	1.71	5.70	-46.0	-64.6	3.8	7.44e-01	0	63	104	180879360	62	32650
2026-01-27 09:59:51.61	1.59	5.64	-46.0	-64.5	3.8	7.46e-01	0	63	104	180879360	62	32517
2026-01-27 09:59:52.62	1.47	5.58	-46.0	-64.5	3.8	7.44e-01	0	63	104	180879360	62	32420
2026-01-27 09:59:53.63	1.35	5.53	-46.0	-64.5	3.8	7.46e-01	0	63	104	180879360	62	32485
2026-01-27 09:59:54.64	1.23	5.47	-46.0	-64.6	3.8	7.46e-01	0	63	104	180879360	62	32559
2026-01-27 09:59:55.65	1.12	5.41	-46.1	-64.6	3.8	7.46e-01	0	63	104	180879360	62	32591
2026-01-27 09:59:56.66	1.00	5.36	-45.5	-64.6	3.8	7.43e-01	0	63	104	180879360	62	32553
2026-01-27 09:59:57.67	0.88	5.30	-46.0	-64.5	3.8	7.44e-01	0	63	104	180879360	62	32487
2026-01-27 09:59:58.68	0.77	5.24	-46.0	-64.6	3.8	7.45e-01	0	63	104	180879360	62	32670
2026-01-27 09:59:59.69	0.65	5.19	-46.0	-64.6	3.8	7.48e-01	0	63	104	180879360	62	32705
2026-01-27 10:00:00.70	0.54	5.13	-46.0	-64.6	3.8	7.46e-01	0	63	104	180879360	62	32579
2026-01-27 10:00:01.71	0.42	5.07	-46.0	-64.5	3.8	7.42e-01	0	63	104	180879360	62	32506
2026-01-27 10:00:02.72	0.31	5.02	-46.0	-64.6	3.8	7.46e-01	0	63	104	180879360	62	32600
2026-01-27 10:00:03.74	0.19	4.96	-45.4	-64.1	3.9	7.52e-01	0	63	104	180879360	60	34580
2026-01-27 10:00:04.74	0.08	4.90	-46.0	-64.6	3.8	7.43e-01	0	63	104	180879360	62	32577
2026-01-27 10:00:05.76	359.97	4.85	-46.0	-64.5	3.8	7.42e-01	0	63	104	180879360	62	32544
2026-01-27 10:00:06.77	359.86	4.79	-45.6	-64.6	3.8	7.50e-01	0	63	104	180879360	62	32592
2026-01-27 10:00:07.78	359.74	4.73	-46.0	-64.5	3.8	7.46e-01	0	63	104	180879360	62	32546
2026-01-27 10:00:08.79	359.63	4.68	-46.0	-64.6	3.8	7.45e-01	0	63	104	180879360	62	32588
2026-01-27 10:00:09.80	359.52	4.62	-46.0	-64.5	3.8	7.45e-01	0	63	104	180879360	62	32504
2026-01-27 10:00:10.81	359.41	4.57	-46.0	-64.6	3.8	7.44e-01	0	63	104	180879360	62	32592
2026-01-27 10:00:11.82	359.30	4.51	-46.0	-64.6	3.8	7.44e-01	0	63	104	180879360	62	32588
2026-01-27 10:00:12.83	359.19	4.45	-46.0	-64.6	3.8	7.46e-01	0	63	104	180879360	62	32632
2026-01-27 10:00:13.84	359.08	4.40	-46.0	-64.5	3.8	7.46e-01	0	63	104	180879360	62	32511
2026-01-27 10:00:14.85	358.98	4.34	-46.0	-64.5	3.8	7.48e-01	0	63	104	180879360	62	32476
2026-01-27 10:00:15.86	358.87	4.28	-45.9	-64.5	3.8	7.43e-01	0	63	104	180879360	62	32517
2026-01-27 10:00:16.87	358.76	4.23	-46.0	-64.6	3.8	7.42e-01	0	63	104	180879360	62	32560
2026-01-27 10:00:17.88	358.66	4.17	-46.0	-64.6	3.8	7.45e-01	0	63	104	180879360	62	32559
2026-01-27 10:00:18.89	358.55	4.12	-46.0	-64.5	3.8	7.45e-01	0	63	104	180879360	62	32528
2026-01-27 10:00:19.90	358.44	4.06	-46.0	-64.5	3.8	7.49e-01	0	63	104	180879360	62	32480
2026-01-27 10:00:20.91	358.34	4.00	-46.0	-64.5	3.8	7.46e-01	0	63	104	180879360	62	32520
2026-01-27 10:00:21.92	358.23	3.95	-46.0	-64.6	3.8	7.48e-01	0	63	104	180879360	62	32582
2026-01-27 10:00:22.93	358.13	3.89	-46.0	-64.6	3.8	7.43e-01	0	63	104	180879360	62	32621
2026-01-27 10:00:23.94	358.02	3.84	-46.0	-64.5	3.8	7.42e-01	0	63	104	180879360	62	32488
2026-01-27 10:00:24.95	357.92	3.78	-46.0	-64.5	3.8	7.45e-01	0	63	104	180879360	62	32530
2026-01-27 10:00:25.96	357.82	3.73	-46.0	-64.6	3.8	7.43e-01	0	63	104	180879360	62	32604
2026-01-27 10:00:26.97	357.71	3.67	-46.0	-64.6	3.8	7.47e-01	0	63	104	180879360	62	32609
2026-01-27 10:00:27.98	357.61	3.62	-46.0	-64.6	3.8	7.47e-01	0	63	104	180879360	62	32591
2026-01-27 10:00:28.99	357.51	3.56	-46.0	-64.6	3.8	7.43e-01	0	63	104	180879360	62	32606
2026-01-27 10:00:30.01	357.41	3.50	-46.0	-64.6	3.8	7.46e-01	0	63	104	180879360	62	32583
2026-01-27 10:00:31.01	357.31	3.45	-46.0	-64.6	3.8	7.47e-01	0	63	104	180879360	62	32607
2026-01-27 10:00:32.03	357.21	3.39	-46.0	-64.6	3.8	7.46e-01	0	63	104	180879360	62	32559
2026-01-27 10:00:33.04	357.11	3.34	-46.0	-64.6	3.8	7.48e-01	0	63	104	180879360	62	32560
2026-01-27 10:00:34.05	357.01	3.28	-46.0	-64.6	3.8	7.47e-01	0	63	104	180879360	62	32605
2026-01-27 10:00:35.06	356.91	3.23	-46.0	-64.6	3.8	7.47e-01	0	63	104	180879360	62	32654
2026-01-27 10:00:36.07	356.81	3.17	-46.0	-64.6	3.8	7.45e-01	0	63	104	180879360	62	32606
2026-01-27 10:00:37.08	356.71	3.12	-46.0	-64.6	3.8	7.44e-01	0	63	104	180879360	62	32559
2026-01-27 10:00:38.09	356.61	3.06	-46.0	-64.6	3.8	7.44e-01	0	63	104	180879360	62	32596
2026-01-27 10:00:39.10	356.51	3.01	-46.0	-64.6	3.8	7.46e-01	0	63	104	180879360	62	32589
2026-01-27 10:00:40.11	356.42	2.95	-46.0	-64.5	3.8	7.43e-01	0	63	104	180879360	62	32540
2026-01-27 10:00:41.12	356.32	2.90	-46.0	-64.7	3.7	7.43e-01	0	63	104	180879360	62	32977
2026-01-27 10:00:42.13	356.22	2.84	-46.0	-64.6	3.8	7.47e-01	0	63	104	180879360	62	32581
2026-01-27 10:00:43.14	356.13	2.79	-46.0	-64.6	3.8	7.47e-01	0	63	104	180879360	62	32555
2026-01-27 10:00:44.15	356.03	2.73	-44.3	-64.2	3.9	7.51e-01	0	63	104	180879360	60	35059
2026-01-27 10:00:45.16	355.94	2.68	-44.5	-64.5	4.0	7.54e-01	0	63	104	180879360	60	36506
2026-01-27 10:00:46.17	355.84	2.62	-46.0	-64.6	3.8	7.44e-01	0	63	104	180879360	62	32587
2026-01-27 10:00:47.18	355.75	2.57	-46.0	-64.5	3.8	7.46e-01	0	63	104	180879360	62	32540
2026-01-27 10:00:48.19	355.66	2.51	-46.0	-64.6	3.8	7.44e-01	0	63	104	180879360	62	32569
2026-01-27 10:00:49.20	355.56	2.46	-46.0	-64.5	3.8	7.45e-01	0	63	104	180879360	62	32511
2026-01-27 10:00:50.21	355.47	2.40	-46.0	-64.6	3.8	7.41e-01	0	63	104	180879360	62	32558
2026-01-27 10:00:51.22	355.38	2.35	-46.0	-64.6	3.8	7.45e-01	0	63	104	180879360	62	32557
2026-01-27 10:00:52.23	355.28	2.29	-46.0	-64.5	3.8	7.45e-01	0	63	104	180879360	62	32547
2026-01-27 10:00:53.25	355.19	2.24	-46.0	-64.6	3.8	7.46e-01	0	63	104	180879360	62	32557
2026-01-27 10:00:54.26	355.10	2.19	-46.0	-64.6	3.8	7.48e-01	0	63	104	180879360	62	32587
2026-01-27 10:00:55.27	355.01	2.13	-43.5	-64.0	3.7	7.47e-01	0	63	104	180879360	59	36491
2026-01-27 10:00:56.28	354.92	2.08	-45.0	-65.0	3.7	7.39e-01	0	63	104	180879360	61	36106
2026-01-27 10:00:57.29	354.83	2.02	-45.8	-64.6	3.8	7.43e-01	0	63	104	180879360	62	32558
2026-01-27 10:00:58.30	354.74	1.97	-46.0	-64.6	3.8	7.44e-01	0	63	104	180879360	62	32793
2026-01-27 10:00:59.31	354.65	1.91	-46.0	-64.5	3.8	7.47e-01	0	63	104	180879360	62	32517

#Closed at: 2026-01-27 10:00:59
#Recorded file [180 MB]: D:/lorett/data/31039_260127_125040.dat