passes_logs/2026/01/27/R2.0S_Moscow/R2.0S_Moscow__20260127_083130_NOAA_21_JPSS-2_rec.log

#Pass ID: 20260127_083130_NOAA 21 (JPSS-2)
#Satellite: NOAA 21 (JPSS-2)
#Configuration: NOAA-21
#almurnet v.1.7.20251203
#Start time: 2026-01-27 08:31:30

#Version: 2.2.20231116
#Station: R2.0S_Moscow
#Location: 37.707566 lon 55.798166 lat
#TLE: 1 54234U 22150A   26026.78373243  .00000177  00000+0  10458-3 0  9996
#TLE: 2 54234  98.7509 327.5416 0000822 208.1870 151.9262 14.19539807166482

#Time	Az	El	Level	Level2	SNR	BER	BlckErr	Temp	State	Recorded	gain1	gain2
2026-01-27 08:31:30.95	119.75	2.05	-14.8	-32.4	3.7	1.51e+00	0	54	0	0	1	27073
2026-01-27 08:31:31.96	119.69	2.11	-16.4	-34.7	3.7	1.51e+00	0	54	104	0	6	26365
2026-01-27 08:31:32.97	119.63	2.17	-19.8	-34.5	3.7	1.51e+00	0	54	104	0	11	19343
2026-01-27 08:31:33.98	119.58	2.23	-15.2	-30.7	3.8	1.51e+00	0	54	104	0	0	23345
2026-01-27 08:31:34.99	119.52	2.29	-15.4	-32.3	3.7	1.51e+00	0	55	104	0	1	26609
2026-01-27 08:31:36.00	119.46	2.35	-14.9	-31.6	3.7	1.51e+00	0	55	104	0	3	21929
2026-01-27 08:31:37.02	119.40	2.41	-14.7	-32.9	3.8	1.51e+00	0	55	104	0	2	27015
2026-01-27 08:31:38.03	119.34	2.47	-19.2	-34.8	3.5	1.51e+00	0	55	104	0	3	31743
2026-01-27 08:31:39.04	119.28	2.53	-20.5	-35.4	4.0	1.51e+00	0	55	104	0	10	22731
2026-01-27 08:31:40.05	119.22	2.59	-16.8	-31.6	3.7	1.51e+00	0	55	104	0	1	24494
2026-01-27 08:31:41.06	119.16	2.65	-15.6	-33.0	3.4	1.50e+00	0	55	104	0	1	28892
2026-01-27 08:31:42.07	119.10	2.71	-13.8	-30.5	3.7	1.50e+00	0	55	104	0	0	22904
2026-01-27 08:31:43.07	119.05	2.77	-13.2	-30.2	3.8	1.51e+00	0	55	104	0	0	22112
2026-01-27 08:31:44.08	118.99	2.83	-13.5	-30.7	3.8	1.51e+00	0	55	104	0	0	23526
2026-01-27 08:31:45.09	118.92	2.89	-12.8	-30.7	3.6	1.50e+00	0	55	104	0	0	23535
2026-01-27 08:31:46.10	118.86	2.95	-13.4	-30.8	3.7	1.51e+00	0	55	104	0	0	23787
2026-01-27 08:31:47.11	118.80	3.01	-13.2	-31.4	3.8	1.50e+00	0	55	104	0	1	23995
2026-01-27 08:31:48.12	118.74	3.07	-13.1	-30.0	3.8	1.51e+00	0	55	104	0	0	21683
2026-01-27 08:31:49.13	118.68	3.13	-14.1	-30.5	3.7	1.50e+00	0	56	104	0	2	20321
2026-01-27 08:31:50.14	118.62	3.19	-13.2	-30.6	3.8	1.50e+00	0	56	104	0	0	23178
2026-01-27 08:31:51.16	118.56	3.25	-15.3	-30.9	3.7	1.50e+00	0	56	104	0	0	24031
2026-01-27 08:31:52.17	118.49	3.31	-13.8	-31.1	3.7	1.50e+00	0	56	104	0	0	24511
2026-01-27 08:31:53.18	118.43	3.38	-12.8	-30.0	3.7	1.51e+00	0	56	104	0	0	21649
2026-01-27 08:31:54.19	118.37	3.44	-15.0	-29.9	3.8	1.50e+00	0	56	104	0	0	21436
2026-01-27 08:31:55.20	118.30	3.50	-11.4	-30.7	3.7	1.50e+00	0	56	104	0	0	23544
2026-01-27 08:31:56.21	118.24	3.56	-15.9	-31.5	3.6	1.51e+00	0	56	104	0	3	21747
2026-01-27 08:31:57.22	118.18	3.62	-13.3	-31.3	3.8	1.51e+00	0	56	104	0	0	25130
2026-01-27 08:31:58.23	118.11	3.68	-13.4	-30.6	3.8	1.51e+00	0	56	104	0	0	23062
2026-01-27 08:31:59.24	118.05	3.75	-15.4	-31.1	3.7	1.51e+00	0	56	104	0	1	23209
2026-01-27 08:32:00.25	117.98	3.81	-15.1	-30.8	3.8	1.51e+00	0	56	104	0	0	23600
2026-01-27 08:32:01.26	117.92	3.87	-11.3	-29.4	3.8	1.51e+00	0	56	104	0	0	20089
2026-01-27 08:32:02.27	117.85	3.93	-12.5	-29.9	3.9	1.51e+00	0	56	104	0	0	21468
2026-01-27 08:32:03.28	117.79	4.00	-13.6	-30.1	3.8	1.51e+00	0	56	104	0	0	21765
2026-01-27 08:32:04.29	117.72	4.06	-13.2	-30.5	3.5	1.51e+00	0	56	104	0	0	22786
2026-01-27 08:32:05.30	117.66	4.12	-13.4	-30.8	3.6	1.51e+00	0	57	104	0	0	23804
2026-01-27 08:32:06.31	117.59	4.18	-13.1	-31.1	3.7	1.51e+00	0	57	104	0	0	24462
2026-01-27 08:32:07.32	117.52	4.25	-12.2	-29.9	3.8	1.51e+00	0	57	104	0	0	21368
2026-01-27 08:32:08.33	117.46	4.31	-14.2	-31.1	3.8	1.51e+00	0	57	104	0	0	24634
2026-01-27 08:32:09.34	117.39	4.37	-12.4	-30.6	3.8	1.51e+00	0	57	104	0	0	23114
2026-01-27 08:32:10.36	117.32	4.44	-16.9	-30.2	3.7	1.50e+00	0	57	104	0	0	22112
2026-01-27 08:32:11.36	117.25	4.50	-16.4	-30.9	3.7	1.50e+00	0	57	104	0	0	24120
2026-01-27 08:32:12.38	117.19	4.56	-16.3	-32.4	3.7	1.51e+00	0	57	104	0	1	27056
2026-01-27 08:32:13.39	117.12	4.63	-15.9	-32.1	3.6	1.51e+00	0	57	104	0	0	27660
2026-01-27 08:32:14.40	117.05	4.69	-12.6	-31.2	3.5	1.51e+00	0	57	104	0	0	24726
2026-01-27 08:32:15.40	116.98	4.75	-13.1	-30.0	3.7	1.51e+00	0	57	104	0	0	21549
2026-01-27 08:32:16.41	116.91	4.82	-13.5	-30.6	3.8	1.51e+00	0	57	104	0	0	23208
2026-01-27 08:32:17.43	116.84	4.88	-13.4	-30.7	3.6	1.51e+00	0	57	104	0	0	23503
2026-01-27 08:32:18.44	116.77	4.95	-15.5	-32.7	3.5	1.51e+00	0	57	104	0	1	27805
2026-01-27 08:32:19.45	116.70	5.01	-12.4	-30.5	3.4	1.51e+00	0	57	104	0	0	22889
2026-01-27 08:32:20.46	116.63	5.08	-19.7	-35.1	4.0	1.51e+00	0	57	104	0	11	20680
2026-01-27 08:32:21.47	116.56	5.14	-13.4	-32.4	3.9	1.51e+00	0	57	104	0	6	20113
2026-01-27 08:32:22.48	116.49	5.21	-20.5	-37.9	3.8	1.50e+00	0	57	104	0	6	38019
2026-01-27 08:32:23.49	116.42	5.27	-12.7	-30.3	3.6	1.51e+00	0	57	104	0	0	22336
2026-01-27 08:32:24.50	116.34	5.33	-16.2	-32.0	3.9	1.50e+00	0	58	104	0	1	25585
2026-01-27 08:32:25.51	116.27	5.40	-15.8	-33.1	3.8	1.50e+00	0	58	104	0	1	29172
2026-01-27 08:32:26.52	116.20	5.46	-12.7	-30.7	3.7	1.50e+00	0	58	104	0	0	23379
2026-01-27 08:32:27.53	116.13	5.53	-16.0	-31.9	4.0	1.51e+00	0	58	104	0	1	25389
2026-01-27 08:32:28.54	116.05	5.60	-13.8	-32.3	3.7	1.51e+00	0	58	104	0	0	28158
2026-01-27 08:32:29.55	115.98	5.66	-19.7	-33.4	3.8	1.50e+00	0	58	104	0	2	28567
2026-01-27 08:32:30.56	115.90	5.73	-18.1	-31.1	3.9	1.50e+00	0	58	104	0	1	23201
2026-01-27 08:32:31.57	115.83	5.79	-17.8	-32.4	3.8	1.51e+00	0	58	104	0	1	26850
2026-01-27 08:32:32.58	115.76	5.86	-12.8	-30.8	3.8	1.51e+00	0	58	104	0	0	23696
2026-01-27 08:32:33.60	115.68	5.92	-12.9	-30.2	3.8	1.51e+00	0	58	104	0	0	22178
2026-01-27 08:32:34.61	115.60	5.99	-15.1	-32.1	3.8	1.51e+00	0	58	104	0	0	27656
2026-01-27 08:32:35.62	115.53	6.06	-22.6	-35.1	3.9	1.51e+00	0	58	104	0	1	36550
2026-01-27 08:32:36.63	115.45	6.12	-15.6	-30.9	3.9	1.50e+00	0	58	104	0	1	22747
2026-01-27 08:32:37.64	115.38	6.19	-12.7	-31.5	3.8	1.51e+00	0	58	104	0	0	25623
2026-01-27 08:32:38.65	115.30	6.26	-15.3	-33.2	3.5	1.51e+00	0	59	104	0	2	27719
2026-01-27 08:32:39.66	115.22	6.32	-12.8	-31.1	3.7	1.51e+00	0	58	104	0	0	24484
2026-01-27 08:32:40.67	115.14	6.39	-14.1	-31.1	3.6	1.50e+00	0	58	104	0	0	24485
2026-01-27 08:32:41.68	115.07	6.46	-13.9	-31.5	3.7	1.51e+00	0	59	104	0	0	25645
2026-01-27 08:32:42.69	114.99	6.52	-14.6	-32.2	3.7	1.51e+00	0	58	104	0	1	26382
2026-01-27 08:32:43.70	114.91	6.59	-14.9	-32.0	3.6	1.51e+00	0	59	104	0	0	27205
2026-01-27 08:32:44.71	114.83	6.66	-13.4	-31.8	3.7	1.51e+00	0	59	104	0	2	23647
2026-01-27 08:32:45.72	114.75	6.72	-14.5	-33.6	3.6	1.51e+00	0	59	104	0	2	29281
2026-01-27 08:32:46.73	114.67	6.79	-14.4	-31.3	3.7	1.50e+00	0	59	104	0	0	25253
2026-01-27 08:32:47.74	114.59	6.86	-13.8	-31.4	3.6	1.51e+00	0	58	104	0	2	22692
2026-01-27 08:32:48.75	114.51	6.93	-15.5	-31.4	3.7	1.51e+00	0	59	104	0	0	25522
2026-01-27 08:32:49.76	114.43	7.00	-14.4	-31.1	3.7	1.51e+00	0	59	104	0	7	16346
2026-01-27 08:32:50.77	114.35	7.06	-20.7	-34.4	3.7	1.51e+00	0	59	104	0	6	25499
2026-01-27 08:32:51.78	114.27	7.13	-17.7	-31.8	3.7	1.50e+00	0	59	104	0	0	26524
2026-01-27 08:32:52.79	114.19	7.20	-16.6	-32.3	3.8	1.50e+00	0	59	104	0	1	26564
2026-01-27 08:32:53.80	114.10	7.27	-13.2	-31.4	3.6	1.50e+00	0	59	104	0	0	25270
2026-01-27 08:32:54.81	114.02	7.34	-13.0	-30.9	3.8	1.51e+00	0	59	104	0	0	23997
2026-01-27 08:32:55.82	113.94	7.41	-10.9	-29.4	3.8	1.51e+00	0	59	104	0	0	20116
2026-01-27 08:32:56.83	113.85	7.47	-12.8	-30.5	3.8	1.51e+00	0	59	104	0	0	23032
2026-01-27 08:32:57.84	113.77	7.54	-11.5	-30.3	3.7	1.51e+00	0	59	104	0	0	22447
2026-01-27 08:32:58.86	113.68	7.61	-13.0	-30.3	3.7	1.51e+00	0	59	104	0	0	22351
2026-01-27 08:32:59.87	113.60	7.68	-17.1	-33.8	3.9	1.51e+00	0	59	104	0	6	23601
2026-01-27 08:33:00.88	113.51	7.75	-12.7	-30.7	3.9	1.51e+00	0	59	104	0	0	23533
2026-01-27 08:33:01.89	113.43	7.82	-21.1	-32.2	3.7	1.50e+00	0	59	104	0	0	27958
2026-01-27 08:33:02.90	113.34	7.89	-13.4	-31.0	3.5	1.50e+00	0	59	104	0	0	24287
2026-01-27 08:33:03.91	113.26	7.96	-15.3	-34.1	3.5	1.50e+00	0	59	104	0	5	26146
2026-01-27 08:33:04.92	113.17	8.03	-20.2	-34.3	3.9	1.50e+00	0	59	104	0	2	31567
2026-01-27 08:33:05.93	113.08	8.10	-20.5	-41.2	3.8	1.50e+00	0	59	104	0	19	26217
2026-01-27 08:33:06.94	112.99	8.17	-20.5	-36.6	3.6	1.50e+00	0	60	104	0	4	36602
2026-01-27 08:33:07.95	112.90	8.24	-17.9	-33.0	3.9	1.51e+00	0	60	104	0	8	19389
2026-01-27 08:33:08.96	112.82	8.31	-24.2	-37.5	3.8	1.50e+00	0	59	104	0	3	43387
2026-01-27 08:33:09.97	112.73	8.38	-20.3	-32.7	3.6	1.50e+00	0	59	104	0	1	27984
2026-01-27 08:33:10.98	112.64	8.45	-17.1	-31.8	3.8	1.50e+00	0	60	104	0	0	26733
2026-01-27 08:33:11.99	112.55	8.52	-17.8	-32.0	3.9	1.50e+00	0	60	104	0	2	24189
2026-01-27 08:33:13.00	112.46	8.59	-13.3	-31.8	3.7	1.51e+00	0	60	104	0	0	26604
2026-01-27 08:33:14.01	112.37	8.66	-14.2	-32.2	3.8	1.51e+00	0	60	104	0	0	27830
2026-01-27 08:33:15.03	112.27	8.74	-14.8	-30.9	3.7	1.51e+00	0	60	104	0	0	23859
2026-01-27 08:33:16.03	112.18	8.81	-17.0	-37.4	3.7	1.50e+00	0	60	104	0	6	35890
2026-01-27 08:33:17.04	112.09	8.88	-16.0	-35.9	3.7	1.50e+00	0	60	104	0	4	34073
2026-01-27 08:33:18.06	112.00	8.95	-14.0	-33.4	3.8	1.51e+00	0	60	104	0	0	32116
2026-01-27 08:33:19.06	111.90	9.02	-13.4	-34.6	3.8	1.50e+00	0	60	104	0	4	29274
2026-01-27 08:33:20.07	111.81	9.09	-13.8	-33.0	3.6	1.50e+00	0	60	104	0	4	24194
2026-01-27 08:33:21.08	111.72	9.16	-15.3	-33.1	3.8	1.50e+00	0	60	104	0	0	30769
2026-01-27 08:33:22.09	111.62	9.24	-14.7	-34.4	3.6	1.50e+00	0	60	104	0	2	31916
2026-01-27 08:33:23.10	111.53	9.31	-17.6	-36.4	3.9	1.51e+00	0	60	104	0	8	28423
2026-01-27 08:33:24.11	111.43	9.38	-31.7	-46.0	4.4	1.49e+00	0	60	104	0	22	38507
2026-01-27 08:33:25.12	111.33	9.45	-20.4	-40.4	3.9	1.51e+00	0	60	104	0	12	36061
2026-01-27 08:33:26.13	111.24	9.53	-16.5	-37.1	3.9	1.50e+00	0	60	104	0	3	41004
2026-01-27 08:33:27.14	111.14	9.60	-26.2	-43.6	3.5	1.50e+00	0	60	104	0	8	65055
2026-01-27 08:33:28.16	111.04	9.67	-19.1	-39.8	3.6	1.50e+00	0	60	104	0	9	39594
2026-01-27 08:33:29.17	110.94	9.75	-19.8	-39.2	4.0	1.50e+00	0	60	104	0	7	41669
2026-01-27 08:33:30.18	110.85	9.82	-20.7	-39.3	3.8	1.49e+00	0	60	104	0	6	44524
2026-01-27 08:33:31.19	110.75	9.89	-22.3	-42.1	4.0	1.48e+00	0	60	104	0	14	38841
2026-01-27 08:33:32.20	110.65	9.96	-30.1	-50.0	3.9	1.52e+00	0	60	104	0	21	64704
2026-01-27 08:33:33.21	110.55	10.04	-25.1	-43.5	5.6	1.17e+00	14	60	0	0	18	36113
2026-01-27 08:33:34.22	110.45	10.11	-16.0	-40.6	3.6	1.50e+00	0	60	104	0	4	58158
2026-01-27 08:33:35.23	110.34	10.19	-21.3	-41.9	4.4	1.49e+00	0	61	104	0	14	37931
2026-01-27 08:33:36.24	110.24	10.26	-20.8	-41.6	4.3	1.48e+00	0	61	104	0	16	32618
2026-01-27 08:33:37.25	110.14	10.33	-31.3	-44.7	4.6	1.48e+00	0	60	104	0	22	33305
2026-01-27 08:33:38.26	110.04	10.41	-28.6	-44.4	4.4	1.46e+00	0	61	104	0	24	28446
2026-01-27 08:33:39.27	109.93	10.48	-31.7	-47.1	3.9	1.49e+00	0	61	104	0	34	21784
2026-01-27 08:33:40.28	109.83	10.56	-39.9	-47.3	7.1	4.77e-01	5	61	0	0	47	10549
2026-01-27 08:33:41.29	109.73	10.63	-39.9	-52.8	3.7	1.50e+00	0	60	104	1048576	45	22499
2026-01-27 08:33:42.30	109.62	10.71	-33.0	-43.6	6.0	6.24e-01	15	60	0	1048576	35	13840
2026-01-27 08:33:43.31	109.52	10.78	-27.8	-43.2	8.8	3.21e-01	2	60	0	2097152	44	7847
2026-01-27 08:33:44.32	109.41	10.86	-37.5	-43.1	10.3	2.22e-01	0	61	0	5242880	46	6896
2026-01-27 08:33:45.33	109.30	10.93	-28.3	-42.7	8.5	2.69e-01	0	61	0	8388608	38	10432
2026-01-27 08:33:46.34	109.20	11.01	-37.4	-42.4	9.4	1.53e-01	1	61	0	11534336	40	9015
2026-01-27 08:33:47.35	109.09	11.08	-35.9	-41.8	6.8	2.34e-01	8	61	0	14680064	29	15938
2026-01-27 08:33:48.36	108.98	11.16	-37.2	-42.5	11.0	7.19e-02	0	61	0	17825792	46	6466
2026-01-27 08:33:49.37	108.87	11.23	-37.2	-42.2	9.6	6.83e-02	0	61	0	20971520	42	7829
2026-01-27 08:33:50.38	108.76	11.31	-38.9	-42.2	11.5	5.28e-02	0	61	0	23068672	47	5889
2026-01-27 08:33:51.39	108.65	11.38	-37.5	-42.0	9.6	7.10e-02	0	61	0	26214400	42	7644
2026-01-27 08:33:52.41	108.54	11.46	-39.2	-42.1	11.9	6.19e-02	0	61	0	30408704	48	5504
2026-01-27 08:33:53.41	108.43	11.54	-34.5	-42.0	11.0	2.67e-02	0	61	0	33554432	46	6066
2026-01-27 08:33:54.42	108.32	11.61	-38.5	-42.4	10.4	1.62e-02	0	61	0	36700160	46	6357
2026-01-27 08:33:55.43	108.21	11.69	-38.2	-42.1	10.9	5.28e-02	0	61	0	39845888	43	7327
2026-01-27 08:33:56.44	108.09	11.77	-38.0	-42.1	11.0	2.33e-02	0	61	0	42991616	45	6496
2026-01-27 08:33:57.45	107.98	11.84	-39.3	-42.2	11.9	7.69e-02	0	61	0	46137344	48	5544
2026-01-27 08:33:58.46	107.87	11.92	-39.2	-42.2	12.0	3.47e-02	0	61	0	49283072	47	5862
2026-01-27 08:33:59.47	107.75	12.00	-37.1	-42.3	11.5	2.21e-02	0	61	0	52428800	48	5612
2026-01-27 08:34:00.46	107.64	12.07	-39.6	-42.3	12.2	1.41e-02	0	61	0	55574528	49	5286
2026-01-27 08:34:01.47	107.52	12.15	-38.1	-42.4	11.0	1.99e-02	0	61	0	58720256	44	7134
2026-01-27 08:34:02.48	107.41	12.23	-39.6	-42.2	12.7	2.98e-02	0	61	0	61865984	49	5268
2026-01-27 08:34:03.49	107.29	12.30	-35.6	-41.9	9.4	7.17e-02	0	61	0	65011712	42	7550
2026-01-27 08:34:04.50	107.17	12.38	-37.3	-41.9	10.8	1.80e-02	0	61	0	68157440	47	5660
2026-01-27 08:34:05.51	107.05	12.46	-37.7	-41.8	11.0	5.07e-02	0	61	0	71303168	47	5594
2026-01-27 08:34:06.52	106.93	12.54	-39.1	-42.2	11.0	1.90e-02	0	61	0	74448896	44	7037
2026-01-27 08:34:07.54	106.81	12.61	-37.5	-41.9	10.5	4.38e-02	0	61	0	77594624	45	6412
2026-01-27 08:34:08.55	106.69	12.69	-36.1	-41.3	10.8	2.49e-02	0	61	0	80740352	42	7106
2026-01-27 08:34:09.56	106.57	12.77	-35.8	-42.0	11.3	5.28e-02	0	61	0	83886080	46	6115
2026-01-27 08:34:10.56	106.45	12.85	-38.6	-41.9	11.9	6.25e-02	0	61	0	87031808	47	5686
2026-01-27 08:34:11.57	106.33	12.93	-36.3	-41.7	9.4	5.18e-02	0	61	0	90177536	43	7007
2026-01-27 08:34:12.59	106.20	13.01	-35.9	-41.3	11.0	3.54e-02	0	62	0	93323264	45	5984
2026-01-27 08:34:13.59	106.08	13.08	-37.6	-41.8	11.0	3.94e-02	0	61	0	96468992	42	7538
2026-01-27 08:34:14.60	105.96	13.16	-34.6	-41.6	10.7	1.00e-01	0	61	0	99614720	40	8241
2026-01-27 08:34:15.61	105.83	13.24	-32.9	-41.4	11.1	5.75e-02	0	61	0	102760448	41	7552
2026-01-27 08:34:16.62	105.71	13.32	-33.9	-41.7	11.0	5.79e-02	0	61	0	105906176	42	7454
2026-01-27 08:34:17.63	105.58	13.40	-37.0	-41.8	11.1	5.50e-02	0	61	0	109051904	42	7540
2026-01-27 08:34:18.64	105.45	13.48	-32.5	-40.9	8.2	6.67e-02	0	61	0	112197632	35	10129
2026-01-27 08:34:19.65	105.32	13.56	-33.7	-41.2	9.0	4.76e-02	0	61	0	115343360	40	7871
2026-01-27 08:34:20.66	105.20	13.64	-38.5	-41.7	11.6	3.00e-02	0	61	0	118489088	46	5888
2026-01-27 08:34:21.67	105.07	13.72	-35.2	-41.6	11.8	5.82e-02	0	61	0	121634816	45	6197
2026-01-27 08:34:22.68	104.94	13.80	-36.2	-41.7	10.3	3.64e-02	0	61	0	124780544	42	7374
2026-01-27 08:34:23.69	104.81	13.88	-36.1	-41.6	10.2	4.25e-02	0	61	0	127926272	43	6919
2026-01-27 08:34:24.70	104.68	13.96	-39.1	-41.8	12.8	1.73e-02	0	62	0	131072000	49	4985
2026-01-27 08:34:25.71	104.54	14.04	-35.5	-41.4	11.0	3.13e-02	0	62	0	134217728	44	6411
2026-01-27 08:34:26.72	104.41	14.12	-36.5	-41.7	11.9	1.68e-02	0	62	0	137363456	47	5567
2026-01-27 08:34:27.73	104.28	14.20	-38.0	-41.8	11.6	6.19e-02	0	61	0	140509184	45	6294
2026-01-27 08:34:28.74	104.14	14.28	-36.3	-42.0	11.6	3.15e-02	0	61	0	143654912	46	6117
2026-01-27 08:34:29.75	104.01	14.36	-33.9	-41.6	9.3	2.42e-02	0	61	0	146800640	40	8192
2026-01-27 08:34:30.76	103.87	14.44	-37.8	-42.0	11.7	2.23e-03	0	62	0	149946368	47	5744
2026-01-27 08:34:31.77	103.74	14.52	-39.6	-42.1	13.1	9.38e-03	0	62	0	153092096	49	5214
2026-01-27 08:34:32.78	103.60	14.60	-37.6	-42.0	11.5	1.63e-02	0	61	0	156237824	46	6105
2026-01-27 08:34:33.79	103.46	14.68	-39.3	-41.9	12.5	5.53e-03	0	62	0	159383552	49	5093
2026-01-27 08:34:34.80	103.32	14.76	-39.2	-41.8	13.1	5.48e-03	0	62	0	162529280	49	5019
2026-01-27 08:34:35.81	103.18	14.84	-39.4	-41.9	12.9	8.28e-04	0	61	0	165675008	48	5395
2026-01-27 08:34:36.82	103.04	14.93	-39.4	-42.1	12.6	1.46e-03	0	61	0	168820736	49	5183
2026-01-27 08:34:37.83	102.90	15.01	-39.3	-42.0	12.2	8.86e-03	0	62	0	171966464	47	5751
2026-01-27 08:34:38.84	102.76	15.09	-39.4	-42.0	12.7	4.05e-03	0	62	0	175112192	49	5135
2026-01-27 08:34:39.85	102.62	15.17	-38.1	-41.8	11.5	1.13e-03	0	62	0	178257920	46	5991
2026-01-27 08:34:40.86	102.47	15.25	-38.1	-41.7	12.5	4.07e-03	0	62	0	181403648	48	5252
2026-01-27 08:34:41.87	102.33	15.33	-38.4	-41.6	13.1	4.23e-04	0	62	0	184549376	47	5478
2026-01-27 08:34:42.89	102.18	15.42	-39.3	-41.7	13.5	1.37e-03	0	62	0	187695104	49	4957
2026-01-27 08:34:43.89	102.04	15.50	-39.4	-41.8	13.4	9.15e-05	0	62	0	190840832	49	5013
2026-01-27 08:34:44.90	101.89	15.58	-39.3	-41.8	13.4	5.66e-04	0	62	0	193986560	49	4985
2026-01-27 08:34:45.92	101.74	15.66	-39.3	-42.0	13.1	1.17e-04	0	62	0	197132288	49	5129
2026-01-27 08:34:46.93	101.59	15.74	-39.3	-41.9	13.0	3.85e-04	0	62	0	200278016	48	5364
2026-01-27 08:34:47.94	101.45	15.83	-39.6	-42.2	13.1	1.49e-04	0	62	0	203423744	49	5231
2026-01-27 08:34:48.95	101.30	15.91	-39.5	-42.0	13.1	2.63e-04	0	61	0	206569472	49	5150
2026-01-27 08:34:49.96	101.14	15.99	-39.5	-41.9	13.5	4.13e-04	0	62	0	209715200	49	5077
2026-01-27 08:34:50.97	100.99	16.07	-39.6	-42.0	13.3	3.05e-05	0	61	0	212860928	50	4860
2026-01-27 08:34:51.98	100.84	16.16	-39.6	-42.1	13.1	4.43e-04	0	62	0	216006656	49	5177
2026-01-27 08:34:52.99	100.69	16.24	-39.4	-42.1	13.2	2.21e-05	0	62	0	219152384	50	4925
2026-01-27 08:34:54.00	100.53	16.32	-39.4	-42.1	13.2	7.24e-05	0	62	0	222298112	49	5180
2026-01-27 08:34:55.01	100.38	16.40	-39.5	-42.2	13.1	2.74e-05	0	62	0	225443840	50	4973
2026-01-27 08:34:56.02	100.22	16.49	-39.8	-42.2	13.2	5.11e-05	0	62	0	228589568	50	4953
2026-01-27 08:34:57.03	100.07	16.57	-39.8	-42.3	13.1	4.80e-05	0	62	0	231735296	50	5013
2026-01-27 08:34:58.04	99.91	16.65	-39.8	-42.3	13.1	6.48e-05	0	62	0	234881024	50	5004
2026-01-27 08:34:59.05	99.75	16.73	-39.9	-42.4	13.0	9.30e-05	0	62	0	238026752	50	5092
2026-01-27 08:35:00.06	99.59	16.82	-39.7	-42.2	13.3	3.20e-05	0	62	0	241172480	50	4935
2026-01-27 08:35:01.07	99.43	16.90	-39.8	-42.2	13.3	1.83e-05	0	62	0	244318208	50	4958
2026-01-27 08:35:02.08	99.27	16.98	-39.7	-42.1	13.3	2.51e-05	0	62	0	247463936	50	4919
2026-01-27 08:35:03.09	99.11	17.07	-39.7	-42.1	13.3	2.74e-05	0	62	0	250609664	50	4911
2026-01-27 08:35:04.11	98.94	17.15	-39.8	-42.2	13.3	1.90e-05	0	62	0	253755392	50	4945
2026-01-27 08:35:05.12	98.78	17.23	-39.8	-42.2	13.2	1.52e-05	0	62	0	256901120	50	4963
2026-01-27 08:35:06.13	98.61	17.32	-39.7	-42.1	13.3	2.59e-05	0	62	0	260046848	50	4919
2026-01-27 08:35:07.14	98.45	17.40	-39.8	-42.2	13.3	1.90e-05	0	62	0	263192576	50	4957
2026-01-27 08:35:08.15	98.28	17.48	-39.7	-42.0	13.5	1.14e-05	0	62	0	266338304	50	4848
2026-01-27 08:35:09.15	98.12	17.57	-39.6	-41.9	13.6	5.30e-06	0	62	0	269484032	50	4806
2026-01-27 08:35:10.16	97.95	17.65	-39.6	-42.0	13.5	9.10e-06	0	62	0	272629760	50	4823
2026-01-27 08:35:11.17	97.78	17.73	-39.6	-41.9	13.6	4.50e-06	0	62	0	275775488	50	4785
2026-01-27 08:35:12.18	97.61	17.82	-39.5	-41.8	13.7	6.80e-06	0	62	0	278921216	50	4741
2026-01-27 08:35:13.20	97.43	17.90	-39.5	-41.8	13.7	4.50e-06	0	62	0	282066944	50	4717
2026-01-27 08:35:14.20	97.26	17.98	-39.6	-41.9	13.6	1.14e-05	0	62	0	285212672	50	4784
2026-01-27 08:35:15.21	97.09	18.07	-39.5	-41.8	13.7	6.10e-06	0	62	0	288358400	50	4746
2026-01-27 08:35:16.22	96.92	18.15	-39.5	-41.7	13.8	4.50e-06	0	62	0	291504128	50	4693
2026-01-27 08:35:17.23	96.74	18.23	-39.5	-41.7	13.8	4.50e-06	0	62	0	294649856	50	4688
2026-01-27 08:35:18.24	96.56	18.32	-39.5	-41.7	13.8	2.20e-06	0	62	0	297795584	50	4679
2026-01-27 08:35:19.25	96.39	18.40	-39.5	-41.7	13.8	6.80e-06	0	62	0	300941312	50	4683
2026-01-27 08:35:20.26	96.21	18.49	-39.5	-41.8	13.8	3.80e-06	0	62	0	304087040	50	4709
2026-01-27 08:35:21.28	96.03	18.57	-39.4	-41.7	13.9	2.20e-06	0	62	0	307232768	50	4662
2026-01-27 08:35:22.29	95.85	18.65	-39.5	-41.8	13.8	5.30e-06	0	62	0	310378496	50	4729
2026-01-27 08:35:23.30	95.67	18.74	-39.3	-41.4	14.2	1.50e-06	0	62	0	314572800	50	4535
2026-01-27 08:35:24.31	95.48	18.82	-39.2	-41.3	14.3	2.20e-06	0	62	0	316669952	50	4486
2026-01-27 08:35:25.32	95.30	18.90	-39.3	-41.4	14.2	7.00e-07	0	62	0	319815680	50	4525
2026-01-27 08:35:26.33	95.12	18.99	-39.2	-41.3	14.3	7.00e-07	0	62	0	322961408	50	4457
2026-01-27 08:35:27.34	94.93	19.07	-39.1	-41.1	14.4	1.50e-06	0	62	0	326107136	50	4388
2026-01-27 08:35:28.35	94.75	19.15	-39.1	-41.1	14.4	7.00e-07	0	62	0	330301440	50	4390
2026-01-27 08:35:29.36	94.56	19.24	-39.1	-41.2	14.4	0.00e+00	0	62	0	333447168	50	4409
2026-01-27 08:35:30.37	94.37	19.32	-39.1	-41.2	14.4	7.00e-07	0	62	0	336592896	50	4422
2026-01-27 08:35:31.39	94.18	19.40	-39.1	-41.2	14.4	0.00e+00	0	62	0	338690048	50	4427
2026-01-27 08:35:32.40	93.99	19.49	-39.0	-41.0	14.5	0.00e+00	0	62	0	342884352	49	4592
2026-01-27 08:35:33.41	93.80	19.57	-38.9	-40.9	14.6	0.00e+00	0	62	0	346030080	49	4536
2026-01-27 08:35:34.42	93.60	19.65	-38.8	-40.9	14.7	0.00e+00	0	62	0	349175808	49	4496
2026-01-27 08:35:35.43	93.41	19.74	-38.8	-40.8	14.7	0.00e+00	0	62	0	352321536	49	4486
2026-01-27 08:35:36.44	93.22	19.82	-38.9	-40.9	14.6	0.00e+00	0	62	0	355467264	49	4526
2026-01-27 08:35:37.45	93.02	19.90	-38.9	-40.9	14.5	0.00e+00	0	62	0	358612992	49	4541
2026-01-27 08:35:38.46	92.82	19.99	-39.0	-41.1	14.3	7.00e-07	0	62	0	361758720	49	4642
2026-01-27 08:35:39.47	92.63	20.07	-39.1	-41.3	14.2	7.00e-07	0	62	0	364904448	49	4723
2026-01-27 08:35:40.48	92.43	20.15	-39.2	-41.4	14.1	7.00e-07	0	62	0	368050176	49	4767
2026-01-27 08:35:41.49	92.23	20.23	-39.2	-41.4	14.1	3.00e-06	0	62	0	371195904	49	4760
2026-01-27 08:35:42.50	92.03	20.32	-39.1	-41.3	14.2	7.00e-07	0	62	0	374341632	49	4716
2026-01-27 08:35:43.51	91.82	20.40	-39.1	-41.3	14.1	0.00e+00	0	62	0	377487360	49	4711
2026-01-27 08:35:44.52	91.62	20.48	-39.0	-41.2	14.2	7.00e-07	0	62	0	380633088	49	4659
2026-01-27 08:35:45.53	91.42	20.56	-39.1	-41.3	14.1	1.50e-06	0	62	0	383778816	49	4706
2026-01-27 08:35:46.54	91.21	20.65	-39.0	-41.2	14.2	7.00e-07	0	62	0	386924544	49	4652
2026-01-27 08:35:47.55	91.01	20.73	-39.1	-41.3	14.0	1.50e-06	0	62	0	390070272	49	4754
2026-01-27 08:35:48.56	90.80	20.81	-39.2	-41.4	13.9	7.00e-07	0	62	0	393216000	49	4789
2026-01-27 08:35:49.57	90.59	20.89	-39.2	-41.5	13.8	6.80e-06	0	62	0	396361728	49	4841
2026-01-27 08:35:50.58	90.38	20.97	-39.3	-41.6	13.7	9.10e-06	0	62	0	399507456	49	4874
2026-01-27 08:35:51.59	90.17	21.05	-39.1	-41.3	13.9	2.20e-06	0	62	0	402653184	49	4747
2026-01-27 08:35:52.60	89.96	21.13	-39.0	-41.1	14.1	5.30e-06	0	62	0	405798912	49	4648
2026-01-27 08:35:53.61	89.74	21.22	-39.0	-41.2	14.0	1.50e-06	0	62	0	408944640	49	4668
2026-01-27 08:35:54.62	89.53	21.30	-38.9	-41.1	14.0	7.00e-07	0	62	0	412090368	49	4615
2026-01-27 08:35:55.63	89.31	21.38	-38.8	-41.0	14.1	7.00e-07	0	62	0	415236096	49	4554
2026-01-27 08:35:56.64	89.10	21.46	-38.8	-41.0	14.1	4.50e-06	0	62	0	418381824	49	4560
2026-01-27 08:35:57.65	88.88	21.54	-38.9	-41.0	14.2	0.00e+00	0	62	0	421527552	49	4593
2026-01-27 08:35:58.66	88.66	21.62	-38.9	-41.1	14.1	7.00e-07	0	62	0	424673280	49	4623
2026-01-27 08:35:59.67	88.44	21.70	-39.0	-41.1	14.1	3.80e-06	0	62	0	427819008	49	4642
2026-01-27 08:36:00.68	88.22	21.78	-38.8	-40.9	14.3	7.00e-07	0	62	0	430964736	49	4543
2026-01-27 08:36:01.69	88.00	21.86	-39.0	-41.2	14.0	1.50e-06	0	62	0	434110464	49	4682
2026-01-27 08:36:02.70	87.77	21.94	-39.1	-41.3	13.9	3.80e-06	0	62	0	437256192	49	4723
2026-01-27 08:36:03.71	87.55	22.02	-39.0	-41.3	13.9	4.50e-06	0	62	0	440401920	49	4710
2026-01-27 08:36:04.72	87.32	22.09	-39.1	-41.3	13.9	3.00e-06	0	62	0	443547648	49	4751
2026-01-27 08:36:05.73	87.10	22.17	-39.1	-41.3	13.9	4.50e-06	0	62	0	446693376	49	4745
2026-01-27 08:36:06.74	86.87	22.25	-39.1	-41.4	13.8	3.80e-06	0	62	0	449839104	49	4788
2026-01-27 08:36:07.75	86.64	22.33	-39.2	-41.4	13.9	1.50e-06	0	62	0	452984832	49	4788
2026-01-27 08:36:08.76	86.41	22.41	-39.2	-41.4	13.9	5.30e-06	0	62	0	456130560	49	4796
2026-01-27 08:36:09.77	86.18	22.49	-39.2	-41.4	13.9	3.00e-06	0	62	0	459276288	49	4804
2026-01-27 08:36:10.78	85.94	22.56	-39.2	-41.4	13.9	2.20e-06	0	62	0	462422016	49	4811
2026-01-27 08:36:11.79	85.71	22.64	-39.3	-41.5	13.9	1.50e-06	0	62	0	465567744	49	4850
2026-01-27 08:36:12.80	85.48	22.72	-39.3	-41.5	13.9	2.20e-06	0	62	0	468713472	49	4845
2026-01-27 08:36:13.81	85.24	22.79	-39.2	-41.4	14.0	7.00e-07	0	62	0	471859200	49	4765
2026-01-27 08:36:14.82	85.00	22.87	-39.2	-41.3	14.1	3.00e-06	0	62	0	475004928	49	4758
2026-01-27 08:36:15.83	84.76	22.94	-39.2	-41.4	14.1	1.50e-06	0	62	0	478150656	49	4773
2026-01-27 08:36:16.84	84.52	23.02	-39.0	-41.2	14.3	7.00e-07	0	62	0	481296384	49	4664
2026-01-27 08:36:17.85	84.28	23.10	-39.0	-41.0	14.4	0.00e+00	0	62	0	484442112	49	4591
2026-01-27 08:36:18.86	84.04	23.17	-39.0	-41.1	14.4	7.00e-07	0	62	0	487587840	49	4641
2026-01-27 08:36:19.87	83.80	23.25	-39.1	-41.2	14.3	7.00e-07	0	62	0	490733568	49	4660
2026-01-27 08:36:20.88	83.55	23.32	-39.1	-41.2	14.3	7.00e-07	0	62	0	493879296	49	4701
2026-01-27 08:36:21.89	83.31	23.39	-39.2	-41.3	14.2	3.00e-06	0	62	0	497025024	49	4721
2026-01-27 08:36:22.90	83.06	23.47	-39.1	-41.2	14.4	0.00e+00	0	62	0	500170752	49	4662
2026-01-27 08:36:23.91	82.81	23.54	-39.0	-41.1	14.5	7.00e-07	0	62	0	503316480	49	4643
2026-01-27 08:36:24.92	82.56	23.61	-39.0	-41.1	14.5	7.00e-07	0	62	0	506462208	49	4614
2026-01-27 08:36:25.93	82.31	23.69	-39.0	-41.1	14.5	0.00e+00	0	62	0	509607936	49	4626
2026-01-27 08:36:26.94	82.06	23.76	-39.1	-41.2	14.4	0.00e+00	0	62	0	512753664	49	4674
2026-01-27 08:36:27.95	81.81	23.83	-39.1	-41.2	14.4	7.00e-07	0	62	0	515899392	49	4686
2026-01-27 08:36:28.96	81.56	23.90	-39.2	-41.3	14.3	7.00e-07	0	62	0	519045120	49	4742
2026-01-27 08:36:29.97	81.30	23.97	-39.3	-41.4	14.2	3.00e-06	0	62	0	522190848	49	4809
2026-01-27 08:36:30.98	81.05	24.04	-39.3	-41.4	14.3	7.00e-07	0	62	0	525336576	49	4804
2026-01-27 08:36:32.00	80.79	24.11	-39.4	-41.5	14.2	1.50e-06	0	62	0	528482304	49	4856
2026-01-27 08:36:33.01	80.53	24.18	-39.4	-41.6	14.1	3.00e-06	0	62	0	531628032	49	4900
2026-01-27 08:36:34.02	80.27	24.25	-39.3	-41.4	14.3	7.00e-07	0	62	0	534773760	49	4762
2026-01-27 08:36:35.03	80.01	24.32	-39.2	-41.3	14.5	7.00e-07	0	62	0	537919488	49	4707
2026-01-27 08:36:36.04	79.75	24.39	-39.2	-41.3	14.5	7.00e-07	0	62	0	541065216	49	4712
2026-01-27 08:36:37.05	79.48	24.45	-39.2	-41.3	14.4	0.00e+00	0	62	0	544210944	49	4747
2026-01-27 08:36:38.06	79.22	24.52	-39.2	-41.3	14.4	1.50e-06	0	62	0	547356672	49	4711
2026-01-27 08:36:39.07	78.96	24.59	-39.1	-41.2	14.5	0.00e+00	0	62	0	550502400	49	4686
2026-01-27 08:36:40.08	78.69	24.65	-39.2	-41.2	14.5	7.00e-07	0	62	0	553648128	49	4694
2026-01-27 08:36:41.09	78.42	24.72	-39.1	-41.1	14.6	0.00e+00	0	62	0	556793856	49	4634
2026-01-27 08:36:42.10	78.15	24.79	-39.1	-41.1	14.6	7.00e-07	0	62	0	559939584	49	4631
2026-01-27 08:36:43.11	77.88	24.85	-39.1	-41.1	14.6	1.50e-06	0	62	0	563085312	49	4610
2026-01-27 08:36:44.12	77.61	24.91	-39.1	-41.1	14.7	0.00e+00	0	62	0	566231040	49	4604
2026-01-27 08:36:45.13	77.34	24.98	-39.1	-41.1	14.6	7.00e-07	0	62	0	569376768	49	4611
2026-01-27 08:36:46.13	77.07	25.04	-39.2	-41.3	14.4	0.00e+00	0	62	0	572522496	49	4729
2026-01-27 08:36:47.14	76.80	25.10	-39.3	-41.5	14.2	2.20e-06	0	62	0	575668224	49	4825
2026-01-27 08:36:48.16	76.52	25.16	-39.4	-41.6	14.1	4.50e-06	0	62	0	578813952	49	4910
2026-01-27 08:36:49.17	76.24	25.23	-39.4	-41.5	14.2	1.50e-06	0	62	0	581959680	49	4839
2026-01-27 08:36:50.18	75.97	25.29	-39.3	-41.4	14.4	7.00e-07	0	62	0	585105408	49	4760
2026-01-27 08:36:51.19	75.69	25.35	-39.3	-41.4	14.3	2.20e-06	0	62	0	588251136	49	4793
2026-01-27 08:36:52.20	75.41	25.41	-39.3	-41.5	14.3	7.00e-07	0	63	0	591396864	49	4828
2026-01-27 08:36:53.21	75.13	25.46	-39.3	-41.4	14.4	0.00e+00	0	62	0	594542592	49	4788
2026-01-27 08:36:54.22	74.85	25.52	-39.2	-41.3	14.4	1.50e-06	0	62	0	597688320	49	4745
2026-01-27 08:36:55.23	74.57	25.58	-39.1	-41.1	14.6	0.00e+00	0	62	0	600834048	49	4650
2026-01-27 08:36:56.24	74.28	25.64	-39.1	-41.2	14.7	0.00e+00	0	62	0	603979776	49	4652
2026-01-27 08:36:57.25	74.00	25.69	-39.1	-41.1	14.7	0.00e+00	0	63	0	607125504	49	4623
2026-01-27 08:36:58.26	73.71	25.75	-39.1	-41.1	14.7	0.00e+00	0	62	0	610271232	49	4629
2026-01-27 08:36:59.27	73.43	25.80	-39.0	-41.0	14.8	0.00e+00	0	62	0	613416960	49	4576
2026-01-27 08:37:00.28	73.14	25.86	-39.0	-41.0	14.8	7.00e-07	0	62	0	616562688	49	4556
2026-01-27 08:37:01.29	72.85	25.91	-38.9	-40.9	14.9	0.00e+00	0	62	0	619708416	49	4513
2026-01-27 08:37:02.30	72.56	25.96	-38.9	-40.9	14.9	0.00e+00	0	62	0	623902720	49	4517
2026-01-27 08:37:03.31	72.27	26.02	-38.9	-40.8	14.9	7.00e-07	0	62	0	627048448	49	4492
2026-01-27 08:37:04.31	71.98	26.07	-39.0	-41.0	14.8	7.00e-07	0	62	0	630194176	49	4581
2026-01-27 08:37:05.32	71.69	26.12	-38.9	-40.9	14.9	0.00e+00	0	62	0	632291328	49	4512
2026-01-27 08:37:06.33	71.40	26.17	-38.9	-40.8	15.0	0.00e+00	0	62	0	635437056	49	4477
2026-01-27 08:37:07.34	71.10	26.22	-38.9	-40.8	15.0	0.00e+00	0	62	0	638582784	49	4466
2026-01-27 08:37:08.35	70.81	26.27	-38.8	-40.7	15.1	0.00e+00	0	63	0	642777088	49	4405
2026-01-27 08:37:09.36	70.51	26.31	-38.9	-40.8	15.0	0.00e+00	0	62	0	645922816	49	4486
2026-01-27 08:37:10.37	70.22	26.36	-38.9	-40.8	15.0	0.00e+00	0	62	0	649068544	49	4479
2026-01-27 08:37:11.39	69.92	26.41	-38.9	-40.8	15.0	0.00e+00	0	62	0	652214272	49	4468
2026-01-27 08:37:12.40	69.62	26.45	-38.9	-40.8	15.0	0.00e+00	0	62	0	655360000	49	4483
2026-01-27 08:37:13.41	69.32	26.50	-38.8	-40.7	15.1	0.00e+00	0	62	0	658505728	49	4421
2026-01-27 08:37:14.42	69.02	26.54	-38.8	-40.7	15.2	7.00e-07	0	62	0	661651456	49	4411
2026-01-27 08:37:15.43	68.72	26.59	-38.8	-40.7	15.1	0.00e+00	0	62	0	664797184	49	4428
2026-01-27 08:37:16.44	68.42	26.63	-38.9	-40.8	15.0	0.00e+00	0	63	0	667942912	49	4478
2026-01-27 08:37:17.44	68.12	26.67	-38.9	-40.8	15.0	7.00e-07	0	63	0	671088640	49	4489
2026-01-27 08:37:18.45	67.81	26.71	-38.8	-40.8	15.1	0.00e+00	0	63	0	674234368	49	4453
2026-01-27 08:37:19.46	67.51	26.75	-38.9	-40.8	15.1	0.00e+00	0	62	0	677380096	49	4483
2026-01-27 08:37:20.47	67.21	26.79	-38.9	-40.8	15.1	7.00e-07	0	63	0	680525824	49	4475
2026-01-27 08:37:21.48	66.90	26.83	-38.9	-40.9	15.0	0.00e+00	0	62	0	683671552	49	4515
2026-01-27 08:37:22.49	66.59	26.86	-39.0	-41.0	14.9	0.00e+00	0	63	0	686817280	49	4566
2026-01-27 08:37:23.50	66.29	26.90	-39.1	-41.1	14.8	0.00e+00	0	63	0	689963008	49	4611
2026-01-27 08:37:24.51	65.98	26.94	-39.1	-41.2	14.7	0.00e+00	0	62	0	693108736	49	4655
2026-01-27 08:37:25.52	65.67	26.97	-39.1	-41.1	14.8	1.50e-06	0	62	0	696254464	49	4614
2026-01-27 08:37:26.53	65.36	27.00	-39.1	-41.1	14.9	0.00e+00	0	62	0	699400192	49	4604
2026-01-27 08:37:27.54	65.05	27.04	-39.1	-41.0	14.9	0.00e+00	0	63	0	702545920	49	4592
2026-01-27 08:37:28.55	64.74	27.07	-39.0	-41.0	14.9	0.00e+00	0	62	0	705691648	49	4576
2026-01-27 08:37:29.56	64.43	27.10	-39.1	-41.0	14.9	0.00e+00	0	62	0	708837376	49	4586
2026-01-27 08:37:30.57	64.12	27.13	-39.1	-41.1	14.8	0.00e+00	0	63	0	711983104	49	4640
2026-01-27 08:37:31.58	63.81	27.16	-39.3	-41.3	14.6	7.00e-07	0	62	0	715128832	49	4744
2026-01-27 08:37:32.59	63.49	27.19	-39.2	-41.2	14.7	0.00e+00	0	62	0	718274560	49	4658
2026-01-27 08:37:33.60	63.18	27.22	-39.1	-41.0	14.9	0.00e+00	0	62	0	721420288	49	4578
2026-01-27 08:37:34.61	62.87	27.24	-39.0	-40.9	15.0	0.00e+00	0	62	0	724566016	49	4512
2026-01-27 08:37:35.62	62.55	27.27	-38.9	-40.8	15.1	0.00e+00	0	62	0	727711744	49	4493
2026-01-27 08:37:36.63	62.24	27.29	-39.1	-41.1	14.9	0.00e+00	0	63	0	730857472	49	4605
2026-01-27 08:37:37.64	61.92	27.32	-39.2	-41.2	14.8	0.00e+00	0	63	0	734003200	49	4660
2026-01-27 08:37:38.65	61.61	27.34	-39.3	-41.4	14.6	1.50e-06	0	63	0	737148928	49	4766
2026-01-27 08:37:39.66	61.29	27.36	-39.5	-41.6	14.3	7.00e-07	0	63	0	740294656	49	4897
2026-01-27 08:37:40.67	60.98	27.38	-39.4	-41.5	14.4	7.00e-07	0	62	0	743440384	49	4836
2026-01-27 08:37:41.69	60.66	27.40	-39.3	-41.4	14.6	1.50e-06	0	63	0	746586112	49	4764
2026-01-27 08:37:42.70	60.34	27.42	-39.2	-41.2	14.7	0.00e+00	0	63	0	749731840	49	4692
2026-01-27 08:37:43.71	60.02	27.44	-39.2	-41.1	14.8	0.00e+00	0	62	0	752877568	49	4646
2026-01-27 08:37:44.72	59.70	27.46	-39.1	-41.1	14.8	0.00e+00	0	62	0	756023296	49	4632
2026-01-27 08:37:45.73	59.38	27.48	-39.0	-40.9	15.0	0.00e+00	0	63	0	759169024	49	4541
2026-01-27 08:37:46.74	59.07	27.49	-39.0	-40.9	15.0	0.00e+00	0	63	0	762314752	49	4538
2026-01-27 08:37:47.75	58.75	27.50	-39.0	-41.0	14.9	0.00e+00	0	62	0	765460480	49	4565
2026-01-27 08:37:48.76	58.43	27.52	-39.0	-41.0	14.9	0.00e+00	0	63	0	768606208	49	4552
2026-01-27 08:37:49.77	58.11	27.53	-39.0	-41.0	14.9	0.00e+00	0	63	0	771751936	49	4563
2026-01-27 08:37:50.78	57.79	27.54	-39.1	-41.1	14.8	0.00e+00	0	63	0	774897664	49	4621
2026-01-27 08:37:51.79	57.47	27.55	-39.1	-41.1	14.8	0.00e+00	0	63	0	778043392	49	4637
2026-01-27 08:37:52.80	57.15	27.56	-39.1	-41.1	14.8	0.00e+00	0	63	0	781189120	49	4608
2026-01-27 08:37:53.81	56.83	27.57	-39.1	-41.0	14.9	0.00e+00	0	63	0	784334848	49	4598
2026-01-27 08:37:54.82	56.51	27.58	-39.1	-41.0	14.9	0.00e+00	0	62	0	787480576	49	4589
2026-01-27 08:37:55.83	56.19	27.58	-39.1	-41.1	14.9	0.00e+00	0	63	0	790626304	49	4608
2026-01-27 08:37:56.84	55.87	27.59	-39.1	-41.0	14.9	0.00e+00	0	63	0	793772032	49	4574
2026-01-27 08:37:57.85	55.55	27.59	-39.2	-41.1	14.8	0.00e+00	0	63	0	796917760	49	4639
2026-01-27 08:37:58.86	55.22	27.60	-39.2	-41.2	14.7	0.00e+00	0	63	0	800063488	49	4681
2026-01-27 08:37:59.88	54.90	27.60	-39.3	-41.3	14.6	7.00e-07	0	63	0	803209216	49	4735
2026-01-27 08:38:00.89	54.58	27.60	-39.2	-41.2	14.7	0.00e+00	0	63	0	806354944	49	4695
2026-01-27 08:38:01.90	54.26	27.60	-39.1	-41.0	14.9	0.00e+00	0	63	0	809500672	49	4588
2026-01-27 08:38:02.91	53.94	27.60	-39.0	-41.0	15.0	0.00e+00	0	63	0	812646400	49	4557
2026-01-27 08:38:03.92	53.62	27.60	-38.8	-40.7	15.3	0.00e+00	0	63	0	815792128	49	4419
2026-01-27 08:38:04.93	53.30	27.60	-38.8	-40.7	15.2	0.00e+00	0	63	0	818937856	49	4415
2026-01-27 08:38:05.94	52.98	27.59	-38.9	-40.8	15.2	0.00e+00	0	63	0	822083584	49	4469
2026-01-27 08:38:06.95	52.65	27.59	-38.9	-40.8	15.2	0.00e+00	0	63	0	825229312	49	4465
2026-01-27 08:38:07.96	52.33	27.58	-38.8	-40.7	15.3	0.00e+00	0	63	0	828375040	49	4418
2026-01-27 08:38:08.97	52.01	27.58	-38.9	-40.7	15.2	0.00e+00	0	63	0	831520768	49	4441
2026-01-27 08:38:09.98	51.69	27.57	-38.9	-40.9	15.1	0.00e+00	0	63	0	834666496	49	4494
2026-01-27 08:38:10.99	51.37	27.56	-39.0	-40.9	15.1	0.00e+00	0	63	0	837812224	49	4521
2026-01-27 08:38:12.00	51.05	27.55	-39.0	-40.9	15.1	0.00e+00	0	63	0	840957952	49	4507
2026-01-27 08:38:13.02	50.73	27.54	-39.0	-40.9	15.1	0.00e+00	0	62	0	844103680	49	4536
2026-01-27 08:38:14.03	50.41	27.53	-39.1	-41.0	14.9	0.00e+00	0	63	0	847249408	49	4597
2026-01-27 08:38:15.04	50.09	27.52	-39.2	-41.1	14.9	0.00e+00	0	63	0	850395136	49	4624
2026-01-27 08:38:16.05	49.77	27.50	-39.1	-41.1	14.9	0.00e+00	0	63	0	853540864	49	4624
2026-01-27 08:38:17.06	49.45	27.49	-39.2	-41.2	14.8	0.00e+00	0	63	0	856686592	49	4670
2026-01-27 08:38:18.07	49.14	27.47	-39.3	-41.3	14.8	0.00e+00	0	63	0	859832320	49	4709
2026-01-27 08:38:19.08	48.82	27.46	-39.3	-41.3	14.7	0.00e+00	0	63	0	862978048	49	4719
2026-01-27 08:38:20.09	48.50	27.44	-39.2	-41.2	14.8	1.50e-06	0	63	0	866123776	49	4682
2026-01-27 08:38:21.10	48.18	27.42	-39.2	-41.1	14.9	0.00e+00	0	63	0	869269504	49	4638
2026-01-27 08:38:22.11	47.87	27.40	-39.1	-41.1	14.9	0.00e+00	0	63	0	872415232	49	4615
2026-01-27 08:38:23.12	47.55	27.38	-39.1	-41.1	15.0	0.00e+00	0	63	0	875560960	49	4621
2026-01-27 08:38:24.12	47.24	27.36	-39.1	-41.1	15.0	0.00e+00	0	63	0	878706688	49	4617
2026-01-27 08:38:25.13	46.92	27.34	-39.1	-41.1	15.0	0.00e+00	0	62	0	881852416	49	4601
2026-01-27 08:38:26.14	46.61	27.32	-39.0	-40.9	15.1	0.00e+00	0	63	0	884998144	49	4522
2026-01-27 08:38:27.15	46.29	27.29	-39.1	-41.0	15.0	0.00e+00	0	63	0	888143872	49	4565
2026-01-27 08:38:28.16	45.98	27.27	-39.1	-41.1	15.0	0.00e+00	0	63	0	891289600	49	4622
2026-01-27 08:38:29.17	45.66	27.24	-39.1	-41.1	14.9	0.00e+00	0	63	0	894435328	49	4622
2026-01-27 08:38:30.18	45.35	27.22	-39.1	-41.0	15.0	0.00e+00	0	62	0	897581056	49	4587
2026-01-27 08:38:31.19	45.04	27.19	-39.1	-41.0	15.0	0.00e+00	0	63	0	900726784	49	4586
2026-01-27 08:38:32.21	44.72	27.16	-39.1	-41.0	15.0	7.00e-07	0	63	0	903872512	49	4589
2026-01-27 08:38:33.22	44.41	27.13	-39.2	-41.2	14.9	0.00e+00	0	63	0	907018240	49	4655
2026-01-27 08:38:34.23	44.10	27.10	-39.3	-41.3	14.8	0.00e+00	0	63	0	910163968	49	4723
2026-01-27 08:38:35.24	43.79	27.07	-39.2	-41.2	14.8	0.00e+00	0	63	0	913309696	49	4690
2026-01-27 08:38:36.25	43.48	27.04	-39.2	-41.2	14.9	0.00e+00	0	62	0	917504000	49	4665
2026-01-27 08:38:37.26	43.17	27.00	-39.3	-41.3	14.8	0.00e+00	0	63	0	920649728	49	4721
2026-01-27 08:38:38.27	42.86	26.97	-39.2	-41.2	14.8	0.00e+00	0	62	0	923795456	49	4678
2026-01-27 08:38:39.28	42.55	26.93	-39.3	-41.2	14.8	0.00e+00	0	63	0	925892608	49	4705
2026-01-27 08:38:40.29	42.25	26.90	-39.1	-41.1	15.0	0.00e+00	0	63	0	929038336	49	4611
2026-01-27 08:38:41.30	41.94	26.86	-39.2	-41.1	15.0	0.00e+00	0	63	0	933232640	49	4618
2026-01-27 08:38:42.31	41.63	26.82	-39.3	-41.3	14.8	0.00e+00	0	63	0	936378368	49	4726
2026-01-27 08:38:43.32	41.33	26.79	-39.4	-41.4	14.6	0.00e+00	0	63	0	939524096	49	4809
2026-01-27 08:38:44.33	41.03	26.75	-39.5	-41.6	14.5	7.00e-07	0	63	0	942669824	49	4908
2026-01-27 08:38:45.34	40.72	26.71	-39.6	-41.6	14.4	0.00e+00	0	63	0	945815552	49	4926
2026-01-27 08:38:46.35	40.42	26.67	-39.4	-41.5	14.6	7.00e-07	0	63	0	948961280	49	4836
2026-01-27 08:38:47.36	40.12	26.63	-39.4	-41.5	14.6	7.00e-07	0	63	0	952107008	49	4844
2026-01-27 08:38:48.37	39.82	26.58	-39.4	-41.5	14.6	7.00e-07	0	63	0	955252736	49	4829
2026-01-27 08:38:49.38	39.52	26.54	-39.5	-41.6	14.5	7.00e-07	0	63	0	958398464	49	4871
2026-01-27 08:38:50.39	39.22	26.50	-39.5	-41.6	14.5	0.00e+00	0	63	0	961544192	49	4885
2026-01-27 08:38:51.40	38.92	26.45	-39.5	-41.6	14.5	0.00e+00	0	63	0	964689920	49	4881
2026-01-27 08:38:52.41	38.62	26.41	-39.4	-41.4	14.7	0.00e+00	0	63	0	967835648	49	4796
2026-01-27 08:38:53.42	38.32	26.36	-39.3	-41.3	14.7	0.00e+00	0	63	0	970981376	49	4742
2026-01-27 08:38:54.43	38.03	26.31	-39.3	-41.3	14.7	0.00e+00	0	63	0	974127104	49	4756
2026-01-27 08:38:55.44	37.73	26.26	-39.3	-41.3	14.8	7.00e-07	0	63	0	977272832	49	4734
2026-01-27 08:38:56.45	37.44	26.22	-39.4	-41.4	14.7	0.00e+00	0	63	0	980418560	49	4785
2026-01-27 08:38:57.46	37.15	26.17	-39.4	-41.5	14.6	0.00e+00	0	63	0	983564288	49	4846
2026-01-27 08:38:58.47	36.85	26.12	-39.5	-41.6	14.5	7.00e-07	0	63	0	986710016	49	4874
2026-01-27 08:38:59.48	36.56	26.07	-39.6	-41.7	14.4	0.00e+00	0	63	0	989855744	49	4970
2026-01-27 08:39:00.49	36.27	26.01	-39.5	-41.6	14.5	1.50e-06	0	63	0	993001472	49	4909
2026-01-27 08:39:01.50	35.98	25.96	-39.5	-41.5	14.6	7.00e-07	0	63	0	996147200	49	4851
2026-01-27 08:39:02.51	35.69	25.91	-39.4	-41.4	14.7	7.00e-07	0	63	0	999292928	49	4785
2026-01-27 08:39:03.52	35.41	25.86	-39.3	-41.3	14.7	7.00e-07	0	63	0	1002438656	49	4744
2026-01-27 08:39:04.54	35.12	25.80	-39.3	-41.3	14.8	7.00e-07	0	63	0	1005584384	49	4717
2026-01-27 08:39:05.55	34.83	25.75	-39.1	-41.1	15.0	0.00e+00	0	63	0	1008730112	49	4601
2026-01-27 08:39:06.55	34.55	25.69	-39.2	-41.1	14.9	0.00e+00	0	63	0	1011875840	49	4631
2026-01-27 08:39:07.56	34.27	25.64	-39.2	-41.1	14.9	0.00e+00	0	63	0	1015021568	49	4641
2026-01-27 08:39:08.57	33.98	25.58	-39.2	-41.2	14.8	7.00e-07	0	63	0	1018167296	49	4664
2026-01-27 08:39:09.58	33.70	25.52	-39.2	-41.1	14.9	0.00e+00	0	63	0	1021313024	49	4643
2026-01-27 08:39:10.59	33.42	25.46	-39.1	-41.1	15.0	0.00e+00	0	63	0	1024458752	49	4602
2026-01-27 08:39:11.60	33.14	25.40	-39.0	-40.9	15.2	0.00e+00	0	63	0	1027604480	49	4505
2026-01-27 08:39:12.61	32.86	25.34	-39.0	-40.9	15.1	0.00e+00	0	63	0	1030750208	49	4541
2026-01-27 08:39:13.62	32.59	25.29	-39.0	-40.9	15.1	0.00e+00	0	63	0	1033895936	49	4540
2026-01-27 08:39:14.63	32.31	25.22	-39.2	-41.2	14.9	0.00e+00	0	63	0	1037041664	49	4674
2026-01-27 08:39:15.65	32.03	25.16	-39.2	-41.2	14.9	7.00e-07	0	63	0	1040187392	49	4659
2026-01-27 08:39:16.66	31.76	25.10	-39.2	-41.2	14.8	0.00e+00	0	63	0	1043333120	49	4695
2026-01-27 08:39:17.67	31.49	25.04	-39.3	-41.3	14.7	0.00e+00	0	63	0	1046478848	49	4716
2026-01-27 08:39:18.67	31.22	24.98	-39.1	-41.1	14.9	7.00e-07	0	63	0	1049624576	49	4618
2026-01-27 08:39:19.68	30.95	24.91	-39.1	-41.1	14.9	0.00e+00	0	63	0	1052770304	49	4608
2026-01-27 08:39:20.69	30.68	24.85	-39.1	-41.0	14.9	0.00e+00	0	63	0	1055916032	49	4579
2026-01-27 08:39:21.70	30.41	24.79	-39.0	-41.0	15.0	0.00e+00	0	63	0	1059061760	49	4555
2026-01-27 08:39:22.71	30.14	24.72	-39.0	-40.9	15.0	0.00e+00	0	63	0	1062207488	49	4545
2026-01-27 08:39:23.72	29.88	24.65	-38.9	-40.8	15.3	0.00e+00	0	63	0	1065353216	49	4445
2026-01-27 08:39:24.73	29.61	24.59	-39.0	-41.0	15.1	0.00e+00	0	63	0	1068498944	49	4550
2026-01-27 08:39:25.74	29.35	24.52	-39.1	-41.0	15.0	0.00e+00	0	63	0	1071644672	49	4588
2026-01-27 08:39:26.75	29.08	24.46	-39.1	-41.0	15.0	7.00e-07	0	63	0	1074790400	49	4567
2026-01-27 08:39:27.76	28.82	24.39	-39.0	-40.9	15.1	0.00e+00	0	63	0	1077936128	49	4504
2026-01-27 08:39:28.77	28.56	24.32	-39.0	-40.9	15.2	0.00e+00	0	63	0	1081081856	49	4503
2026-01-27 08:39:29.78	28.30	24.25	-38.9	-40.8	15.3	0.00e+00	0	63	0	1084227584	49	4449
2026-01-27 08:39:30.79	28.04	24.18	-38.9	-40.8	15.2	0.00e+00	0	63	0	1087373312	49	4490
2026-01-27 08:39:31.80	27.79	24.11	-39.1	-41.0	15.0	0.00e+00	0	63	0	1090519040	49	4589
2026-01-27 08:39:32.81	27.53	24.04	-39.1	-41.1	14.9	0.00e+00	0	63	0	1093664768	49	4616
2026-01-27 08:39:33.82	27.28	23.97	-39.3	-41.3	14.7	0.00e+00	0	63	0	1096810496	49	4742
2026-01-27 08:39:34.83	27.02	23.90	-39.3	-41.3	14.7	0.00e+00	0	63	0	1099956224	49	4744
2026-01-27 08:39:35.84	26.77	23.83	-39.4	-41.5	14.5	0.00e+00	0	63	0	1103101952	49	4839
2026-01-27 08:39:36.85	26.52	23.76	-39.5	-41.6	14.5	1.50e-06	0	63	0	1106247680	49	4878
2026-01-27 08:39:37.87	26.27	23.69	-39.3	-41.3	14.6	0.00e+00	0	63	0	1109393408	49	4757
2026-01-27 08:39:38.88	26.02	23.62	-39.1	-41.1	14.9	0.00e+00	0	63	0	1112539136	49	4635
2026-01-27 08:39:39.89	25.77	23.54	-39.0	-40.9	15.0	0.00e+00	0	63	0	1115684864	49	4533
2026-01-27 08:39:40.90	25.52	23.47	-38.9	-40.8	15.2	0.00e+00	0	63	0	1118830592	49	4464
2026-01-27 08:39:41.91	25.28	23.40	-38.8	-40.7	15.3	0.00e+00	0	63	0	1121976320	49	4411
2026-01-27 08:39:42.92	25.03	23.32	-38.9	-40.8	15.2	0.00e+00	0	63	0	1125122048	49	4447
2026-01-27 08:39:43.93	24.79	23.25	-39.0	-40.9	15.1	0.00e+00	0	63	0	1128267776	49	4517
2026-01-27 08:39:44.94	24.55	23.18	-39.1	-41.1	14.9	0.00e+00	0	63	0	1131413504	49	4601
2026-01-27 08:39:45.95	24.31	23.10	-39.2	-41.3	14.8	0.00e+00	0	63	0	1134559232	49	4709
2026-01-27 08:39:46.97	24.06	23.02	-39.4	-41.4	14.6	0.00e+00	0	63	0	1137704960	49	4807
2026-01-27 08:39:47.98	23.82	22.95	-39.5	-41.6	14.4	0.00e+00	0	63	0	1140850688	49	4887
2026-01-27 08:39:48.99	23.59	22.87	-39.4	-41.4	14.5	0.00e+00	0	63	0	1143996416	49	4802
2026-01-27 08:39:50.00	23.35	22.80	-39.4	-41.4	14.5	7.00e-07	0	63	0	1147142144	49	4814
2026-01-27 08:39:51.01	23.12	22.72	-39.2	-41.2	14.7	0.00e+00	0	63	0	1150287872	49	4696
2026-01-27 08:39:52.02	22.88	22.65	-39.2	-41.2	14.7	0.00e+00	0	63	0	1153433600	49	4686
2026-01-27 08:39:53.03	22.65	22.57	-39.3	-41.3	14.6	0.00e+00	0	63	0	1156579328	49	4751
2026-01-27 08:39:54.04	22.42	22.49	-39.3	-41.4	14.6	0.00e+00	0	63	0	1159725056	49	4766
2026-01-27 08:39:55.05	22.19	22.41	-39.4	-41.5	14.4	0.00e+00	0	63	0	1162870784	49	4843
2026-01-27 08:39:56.06	21.96	22.34	-39.4	-41.5	14.4	7.00e-07	0	63	0	1166016512	49	4869
2026-01-27 08:39:57.07	21.73	22.26	-39.5	-41.6	14.4	0.00e+00	0	63	0	1169162240	49	4883
2026-01-27 08:39:58.08	21.50	22.18	-39.4	-41.5	14.5	0.00e+00	0	63	0	1172307968	49	4831
2026-01-27 08:39:59.09	21.28	22.10	-39.4	-41.5	14.5	0.00e+00	0	63	0	1175453696	49	4831
2026-01-27 08:40:00.10	21.05	22.02	-39.4	-41.5	14.4	0.00e+00	0	63	0	1178599424	49	4858
2026-01-27 08:40:01.11	20.83	21.94	-39.2	-41.2	14.7	0.00e+00	0	63	0	1181745152	49	4698
2026-01-27 08:40:02.12	20.61	21.87	-39.1	-41.1	14.9	0.00e+00	0	63	0	1184890880	49	4604
2026-01-27 08:40:03.13	20.39	21.79	-39.2	-41.2	14.7	0.00e+00	0	63	0	1188036608	49	4671
2026-01-27 08:40:04.14	20.17	21.71	-39.2	-41.2	14.8	7.00e-07	0	63	0	1191182336	49	4681
2026-01-27 08:40:05.15	19.95	21.63	-39.2	-41.2	14.7	0.00e+00	0	63	0	1194328064	49	4700
2026-01-27 08:40:06.16	19.73	21.55	-39.3	-41.3	14.6	0.00e+00	0	63	0	1197473792	49	4736
2026-01-27 08:40:07.17	19.51	21.47	-39.3	-41.4	14.5	1.50e-06	0	63	0	1200619520	49	4794
2026-01-27 08:40:08.18	19.30	21.39	-39.3	-41.3	14.5	0.00e+00	0	63	0	1203765248	49	4746
2026-01-27 08:40:09.19	19.08	21.31	-39.2	-41.2	14.7	7.00e-07	0	63	0	1206910976	49	4663
2026-01-27 08:40:10.20	18.87	21.23	-39.1	-41.1	14.7	7.00e-07	0	63	0	1211105280	49	4649
2026-01-27 08:40:11.21	18.66	21.15	-39.1	-41.1	14.8	0.00e+00	0	63	0	1214251008	49	4629
2026-01-27 08:40:12.22	18.45	21.06	-39.2	-41.2	14.7	0.00e+00	0	63	0	1216348160	49	4657
2026-01-27 08:40:13.23	18.24	20.98	-39.1	-41.1	14.8	7.00e-07	0	63	0	1219493888	49	4642
2026-01-27 08:40:14.25	18.03	20.90	-39.3	-41.4	14.5	0.00e+00	0	63	0	1223688192	49	4789
2026-01-27 08:40:15.26	17.82	20.82	-39.3	-41.4	14.5	0.00e+00	0	63	0	1226833920	49	4782
2026-01-27 08:40:16.27	17.61	20.74	-39.4	-41.5	14.4	1.50e-06	0	63	0	1229979648	49	4848
2026-01-27 08:40:17.28	17.41	20.66	-39.5	-41.7	14.3	0.00e+00	0	63	0	1233125376	49	4932
2026-01-27 08:40:18.29	17.20	20.58	-39.5	-41.7	14.2	0.00e+00	0	63	0	1236271104	49	4927
2026-01-27 08:40:19.30	17.00	20.49	-39.5	-41.7	14.3	7.00e-07	0	63	0	1239416832	49	4933
2026-01-27 08:40:20.31	16.80	20.41	-39.6	-41.8	14.2	1.50e-06	0	63	0	1242562560	49	4993
2026-01-27 08:40:21.32	16.60	20.33	-39.5	-41.6	14.3	1.50e-06	0	63	0	1245708288	49	4910
2026-01-27 08:40:22.33	16.40	20.25	-39.4	-41.5	14.4	2.20e-06	0	63	0	1248854016	49	4825
2026-01-27 08:40:23.34	16.20	20.17	-39.2	-41.2	14.6	1.50e-06	0	63	0	1251999744	49	4703
2026-01-27 08:40:24.35	16.00	20.08	-39.2	-41.2	14.6	7.00e-07	0	63	0	1255145472	49	4694
2026-01-27 08:40:25.36	15.80	20.00	-39.2	-41.2	14.7	0.00e+00	0	63	0	1258291200	49	4674
2026-01-27 08:40:26.37	15.61	19.92	-39.2	-41.2	14.7	0.00e+00	0	63	0	1261436928	49	4681
2026-01-27 08:40:27.38	15.41	19.84	-39.2	-41.3	14.6	0.00e+00	0	63	0	1264582656	49	4725
2026-01-27 08:40:28.39	15.22	19.75	-39.1	-41.2	14.7	0.00e+00	0	63	0	1267728384	49	4653
2026-01-27 08:40:29.40	15.03	19.67	-39.1	-41.1	14.7	0.00e+00	0	63	0	1270874112	49	4637
2026-01-27 08:40:30.41	14.84	19.59	-39.1	-41.1	14.8	0.00e+00	0	63	0	1274019840	49	4600
2026-01-27 08:40:31.42	14.65	19.51	-39.1	-41.1	14.8	0.00e+00	0	63	0	1277165568	49	4601
2026-01-27 08:40:32.43	14.46	19.42	-39.1	-41.1	14.7	0.00e+00	0	63	0	1280311296	49	4637
2026-01-27 08:40:33.44	14.27	19.34	-39.1	-41.1	14.7	7.00e-07	0	63	0	1283457024	49	4620
2026-01-27 08:40:34.45	14.08	19.26	-39.2	-41.2	14.7	0.00e+00	0	63	0	1286602752	49	4670
2026-01-27 08:40:35.47	13.89	19.17	-39.1	-41.1	14.8	0.00e+00	0	63	0	1289748480	49	4599
2026-01-27 08:40:36.47	13.71	19.09	-39.1	-41.2	14.7	0.00e+00	0	63	0	1292894208	49	4655
2026-01-27 08:40:37.48	13.53	19.01	-39.2	-41.2	14.6	1.50e-06	0	63	0	1296039936	49	4675
2026-01-27 08:40:38.50	13.34	18.92	-39.2	-41.2	14.7	0.00e+00	0	63	0	1299185664	49	4663
2026-01-27 08:40:39.51	13.16	18.84	-39.1	-41.2	14.7	0.00e+00	0	63	0	1302331392	49	4658
2026-01-27 08:40:40.52	12.98	18.76	-39.2	-41.2	14.6	0.00e+00	0	63	0	1305477120	49	4694
2026-01-27 08:40:41.53	12.80	18.67	-39.2	-41.3	14.5	1.50e-06	0	63	0	1308622848	49	4741
2026-01-27 08:40:42.54	12.62	18.59	-39.2	-41.3	14.6	0.00e+00	0	63	0	1311768576	49	4729
2026-01-27 08:40:43.55	12.44	18.51	-39.2	-41.3	14.6	0.00e+00	0	63	0	1314914304	49	4709
2026-01-27 08:40:44.56	12.27	18.42	-39.3	-41.4	14.4	0.00e+00	0	63	0	1318060032	49	4807
2026-01-27 08:40:45.57	12.09	18.34	-39.4	-41.6	14.3	2.20e-06	0	63	0	1321205760	49	4887
2026-01-27 08:40:46.58	11.91	18.26	-39.5	-41.7	14.1	7.00e-07	0	63	0	1324351488	49	4943
2026-01-27 08:40:47.59	11.74	18.18	-39.5	-41.7	14.1	3.00e-06	0	63	0	1327497216	49	4969
2026-01-27 08:40:48.60	11.57	18.09	-39.6	-41.8	14.0	1.50e-06	0	63	0	1330642944	49	4998
2026-01-27 08:40:49.61	11.39	18.01	-39.5	-41.7	14.0	1.50e-06	0	63	0	1333788672	49	4970
2026-01-27 08:40:50.62	11.22	17.93	-39.5	-41.7	14.1	2.20e-06	0	63	0	1336934400	49	4957
2026-01-27 08:40:51.63	11.05	17.84	-39.4	-41.5	14.3	3.00e-06	0	63	0	1340080128	49	4845
2026-01-27 08:40:52.65	10.88	17.76	-39.4	-41.5	14.2	7.00e-07	0	63	0	1343225856	49	4837
2026-01-27 08:40:53.66	10.71	17.68	-39.4	-41.5	14.2	2.20e-06	0	63	0	1346371584	49	4855
2026-01-27 08:40:54.67	10.55	17.59	-39.4	-41.5	14.2	7.00e-07	0	63	0	1349517312	49	4856
2026-01-27 08:40:55.68	10.38	17.51	-39.5	-41.7	14.1	3.80e-06	0	63	0	1352663040	49	4927
2026-01-27 08:40:56.69	10.21	17.43	-39.5	-41.7	14.1	7.00e-07	0	63	0	1355808768	49	4936
2026-01-27 08:40:57.70	10.05	17.34	-39.6	-41.8	13.9	2.20e-06	0	63	0	1358954496	49	5027
2026-01-27 08:40:58.71	9.89	17.26	-39.6	-41.9	13.9	4.50e-06	0	63	0	1362100224	49	5057
2026-01-27 08:40:59.72	9.72	17.18	-39.7	-42.0	13.7	8.30e-06	0	63	0	1365245952	50	4847
2026-01-27 08:41:00.73	9.56	17.09	-39.8	-42.1	13.6	1.06e-05	0	63	0	1368391680	50	4926
2026-01-27 08:41:01.74	9.40	17.01	-39.8	-42.2	13.5	1.67e-05	0	63	0	1371537408	50	4964
2026-01-27 08:41:02.75	9.24	16.93	-39.8	-42.2	13.5	8.30e-06	0	63	0	1374683136	50	4936
2026-01-27 08:41:03.76	9.08	16.85	-39.9	-42.2	13.4	1.29e-05	0	63	0	1377828864	50	4973
2026-01-27 08:41:04.78	8.92	16.76	-39.8	-42.1	13.5	9.10e-06	0	63	0	1380974592	50	4889
2026-01-27 08:41:05.79	8.76	16.68	-39.6	-41.8	13.8	5.30e-06	0	63	0	1384120320	50	4734
2026-01-27 08:41:06.80	8.61	16.60	-39.4	-41.5	14.1	7.00e-07	0	63	0	1387266048	50	4585
2026-01-27 08:41:07.81	8.45	16.52	-39.3	-41.5	14.1	7.00e-07	0	63	0	1390411776	50	4561
2026-01-27 08:41:08.82	8.30	16.43	-39.4	-41.5	14.1	0.00e+00	0	63	0	1393557504	50	4598
2026-01-27 08:41:09.83	8.14	16.35	-39.4	-41.5	14.1	7.00e-07	0	63	0	1396703232	50	4587
2026-01-27 08:41:10.84	7.99	16.27	-39.5	-41.7	13.9	3.00e-06	0	63	0	1399848960	50	4697
2026-01-27 08:41:11.85	7.84	16.19	-39.6	-41.9	13.7	5.30e-06	0	63	0	1402994688	50	4806
2026-01-27 08:41:12.86	7.69	16.10	-39.8	-42.1	13.5	9.90e-06	0	63	0	1406140416	50	4905
2026-01-27 08:41:13.87	7.54	16.02	-39.9	-42.3	13.3	1.37e-05	0	63	0	1409286144	50	5017
2026-01-27 08:41:14.88	7.39	15.94	-40.0	-42.5	13.0	3.50e-05	0	63	0	1412431872	50	5128
2026-01-27 08:41:15.89	7.24	15.86	-40.0	-42.6	13.0	4.50e-05	0	63	0	1415577600	50	5164
2026-01-27 08:41:16.90	7.09	15.78	-40.0	-42.5	13.0	3.43e-05	0	63	0	1418723328	50	5111
2026-01-27 08:41:17.91	6.94	15.69	-39.9	-42.4	13.0	2.74e-05	0	63	0	1421869056	50	5078
2026-01-27 08:41:18.92	6.80	15.61	-39.8	-42.2	13.1	3.96e-05	0	63	0	1425014784	50	4972
2026-01-27 08:41:19.93	6.65	15.53	-39.7	-42.1	13.2	2.51e-05	0	63	0	1428160512	50	4902
2026-01-27 08:41:20.94	6.51	15.45	-39.6	-42.0	13.3	1.98e-05	0	63	0	1431306240	50	4852
2026-01-27 08:41:21.95	6.36	15.37	-39.4	-41.7	13.7	6.10e-06	0	63	0	1434451968	50	4660
2026-01-27 08:41:22.96	6.22	15.29	-39.3	-41.5	13.8	2.20e-06	0	63	0	1437597696	50	4578
2026-01-27 08:41:23.97	6.08	15.21	-39.4	-41.6	13.6	5.30e-06	0	63	0	1440743424	50	4645
2026-01-27 08:41:24.98	5.94	15.12	-39.3	-41.5	13.7	7.60e-06	0	63	0	1443889152	50	4585
2026-01-27 08:41:25.99	5.80	15.04	-39.4	-41.7	13.5	8.30e-06	0	63	0	1447034880	50	4686
2026-01-27 08:41:27.01	5.65	14.96	-39.4	-41.7	13.5	7.60e-06	0	63	0	1450180608	50	4705
2026-01-27 08:41:28.02	5.52	14.88	-39.5	-41.9	13.3	2.13e-05	0	63	0	1453326336	50	4799
2026-01-27 08:41:29.03	5.38	14.80	-39.5	-42.0	13.1	3.12e-05	0	63	0	1456472064	50	4836
2026-01-27 08:41:30.04	5.24	14.72	-39.7	-42.3	12.8	3.96e-05	0	63	0	1459617792	50	4984
2026-01-27 08:41:31.05	5.10	14.64	-39.9	-42.6	12.4	1.16e-04	0	63	0	1462763520	50	5196
2026-01-27 08:41:32.06	4.97	14.56	-39.8	-42.4	12.5	1.28e-04	0	63	0	1465909248	50	5073
2026-01-27 08:41:33.07	4.83	14.48	-39.6	-42.1	12.7	8.39e-05	0	63	0	1469054976	50	4922
2026-01-27 08:41:34.08	4.70	14.40	-39.6	-42.3	12.5	1.06e-04	0	63	0	1472200704	50	5012
2026-01-27 08:41:35.09	4.56	14.32	-39.7	-42.4	12.2	1.98e-04	0	63	0	1475346432	50	5081
2026-01-27 08:41:36.10	4.43	14.24	-39.6	-42.4	12.2	2.37e-04	0	63	0	1479540736	50	5042
2026-01-27 08:41:37.11	4.30	14.16	-39.6	-42.4	12.0	2.71e-04	0	63	0	1482686464	50	5047
2026-01-27 08:41:38.12	4.17	14.08	-39.3	-42.1	12.3	2.37e-04	0	63	0	1484783616	50	4879
2026-01-27 08:41:39.13	4.03	14.00	-39.3	-42.0	12.2	2.27e-04	0	63	0	1487929344	50	4834
2026-01-27 08:41:40.14	3.90	13.92	-38.8	-41.4	12.6	1.45e-04	0	63	0	1491075072	49	4770
2026-01-27 08:41:41.15	3.77	13.84	-38.6	-41.2	12.6	7.93e-05	0	63	0	1495269376	49	4681
2026-01-27 08:41:42.16	3.65	13.76	-38.5	-41.2	12.3	1.76e-04	0	63	0	1498415104	48	4968
2026-01-27 08:41:43.17	3.52	13.68	-38.6	-41.6	11.8	3.13e-04	0	63	0	1501560832	48	5166
2026-01-27 08:41:44.18	3.39	13.60	-39.0	-42.4	10.7	1.59e-03	0	63	0	1504706560	48	5671
2026-01-27 08:41:45.19	3.26	13.52	-39.3	-43.0	10.0	5.23e-03	0	63	0	1507852288	49	5752
2026-01-27 08:41:46.20	3.14	13.44	-39.7	-44.1	8.6	2.17e-02	0	63	0	1510998016	49	6553
2026-01-27 08:41:47.21	3.01	13.36	-40.2	-45.6	7.1	9.83e-02	0	63	0	1514143744	50	7326
2026-01-27 08:41:48.22	2.89	13.29	-40.4	-46.8	5.9	2.73e-01	0	63	0	1517289472	51	7938
2026-01-27 08:41:49.23	2.76	13.21	-40.6	-47.9	5.1	5.91e-01	0	63	0	1520435200	51	9025
2026-01-27 08:41:50.24	2.64	13.13	-40.7	-50.0	3.9	1.30e+00	0	63	104	1520435200	52	10782
2026-01-27 08:41:51.24	2.52	13.05	-40.8	-50.2	4.1	1.47e+00	0	63	104	1520435200	52	11138
2026-01-27 08:41:52.25	2.40	12.97	-40.7	-51.3	3.8	1.48e+00	0	63	104	1520435200	52	12600
2026-01-27 08:41:53.26	2.28	12.89	-40.6	-51.9	3.8	1.49e+00	0	63	104	1520435200	52	13435
2026-01-27 08:41:54.27	2.16	12.82	-42.1	-53.4	3.8	1.49e+00	0	63	104	1520435200	54	14232
2026-01-27 08:41:55.28	2.04	12.74	-41.9	-51.6	4.1	1.48e+00	0	63	104	1520435200	55	10921
2026-01-27 08:41:56.29	1.92	12.66	-40.7	-52.9	3.8	1.49e+00	0	64	104	1520435200	53	14299
2026-01-27 08:41:57.30	1.80	12.58	-41.8	-52.9	3.8	1.49e+00	0	63	104	1520435200	54	13532
2026-01-27 08:41:58.31	1.68	12.51	-41.6	-52.8	3.8	1.49e+00	0	63	104	1520435200	54	13408
2026-01-27 08:41:59.32	1.56	12.43	-41.4	-53.0	3.8	1.49e+00	0	64	104	1520435200	54	13656
2026-01-27 08:42:00.33	1.45	12.35	-40.7	-53.0	3.8	1.49e+00	0	63	104	1520435200	53	14505
2026-01-27 08:42:01.34	1.33	12.27	-41.2	-53.0	3.8	1.49e+00	0	63	104	1520435200	53	14510
2026-01-27 08:42:02.35	1.21	12.20	-40.2	-52.5	3.8	1.49e+00	0	63	104	1520435200	52	14485
2026-01-27 08:42:03.36	1.10	12.12	-40.1	-52.4	3.8	1.49e+00	0	63	104	1520435200	52	14366
2026-01-27 08:42:04.37	0.99	12.04	-40.3	-52.7	3.8	1.49e+00	0	64	104	1520435200	52	14765
2026-01-27 08:42:05.38	0.87	11.97	-40.1	-52.5	3.8	1.49e+00	0	63	104	1520435200	52	14404
2026-01-27 08:42:06.39	0.76	11.89	-40.1	-52.4	3.8	1.49e+00	0	63	104	1520435200	52	14244
2026-01-27 08:42:07.40	0.65	11.81	-40.0	-52.4	3.8	1.49e+00	0	63	104	1520435200	52	14225
2026-01-27 08:42:08.41	0.53	11.74	-40.0	-52.4	3.8	1.49e+00	0	63	104	1520435200	52	14213
2026-01-27 08:42:09.42	0.42	11.66	-40.2	-52.6	3.8	1.49e+00	0	63	104	1520435200	52	14541
2026-01-27 08:42:10.43	0.31	11.59	-40.4	-52.8	3.8	1.49e+00	0	63	104	1520435200	52	14949
2026-01-27 08:42:11.44	0.20	11.51	-40.1	-52.4	3.8	1.49e+00	0	63	104	1520435200	52	14349
2026-01-27 08:42:12.45	0.09	11.43	-40.1	-52.5	3.8	1.49e+00	0	63	104	1520435200	52	14481
2026-01-27 08:42:13.46	359.98	11.36	-40.1	-52.4	3.8	1.49e+00	0	63	104	1520435200	52	14288
2026-01-27 08:42:14.47	359.88	11.28	-40.1	-52.4	3.8	1.49e+00	0	63	104	1520435200	52	14280
2026-01-27 08:42:15.48	359.77	11.21	-40.0	-52.3	3.8	1.49e+00	0	63	104	1520435200	52	14199
2026-01-27 08:42:16.49	359.66	11.13	-40.0	-52.3	3.8	1.49e+00	0	64	104	1520435200	52	14187
2026-01-27 08:42:17.50	359.55	11.06	-40.2	-52.5	3.8	1.49e+00	0	63	104	1520435200	52	14456
2026-01-27 08:42:18.51	359.45	10.98	-40.2	-52.5	3.8	1.49e+00	0	64	104	1520435200	52	14494
2026-01-27 08:42:19.52	359.34	10.91	-40.1	-52.4	3.8	1.49e+00	0	63	104	1520435200	52	14322
2026-01-27 08:42:20.53	359.24	10.83	-40.2	-52.6	3.8	1.49e+00	0	63	104	1520435200	52	14600
2026-01-27 08:42:21.54	359.13	10.76	-40.1	-52.4	3.8	1.49e+00	0	64	104	1520435200	52	14336
2026-01-27 08:42:22.55	359.03	10.68	-40.0	-52.3	3.8	1.49e+00	0	64	104	1520435200	51	15034
2026-01-27 08:42:23.56	358.93	10.61	-40.1	-52.4	3.8	1.49e+00	0	63	104	1520435200	51	15187
2026-01-27 08:42:24.57	358.82	10.54	-40.2	-52.6	3.8	1.49e+00	0	64	104	1520435200	51	15494
2026-01-27 08:42:25.58	358.72	10.46	-40.1	-52.4	3.8	1.49e+00	0	64	104	1520435200	51	15158
2026-01-27 08:42:26.59	358.62	10.39	-40.0	-52.3	3.8	1.49e+00	0	63	104	1520435200	51	14992
2026-01-27 08:42:27.60	358.52	10.31	-40.0	-52.4	3.8	1.49e+00	0	64	104	1520435200	51	15138
2026-01-27 08:42:28.61	358.42	10.24	-40.2	-52.6	3.8	1.49e+00	0	64	104	1520435200	51	15416
2026-01-27 08:42:29.62	358.32	10.17	-40.0	-52.4	3.8	1.49e+00	0	64	104	1520435200	51	15074
2026-01-27 08:42:30.63	358.22	10.09	-40.0	-52.3	3.8	1.49e+00	0	64	104	1520435200	51	14958
2026-01-27 08:42:31.65	358.12	10.02	-40.0	-52.3	3.8	1.49e+00	0	63	104	1520435200	51	15037
2026-01-27 08:42:32.66	358.02	9.95	-40.2	-52.5	3.8	1.49e+00	0	64	104	1520435200	51	15351
2026-01-27 08:42:33.67	357.92	9.87	-40.0	-52.3	3.8	1.49e+00	0	63	104	1520435200	51	14999
2026-01-27 08:42:34.68	357.82	9.80	-40.0	-52.3	3.8	1.49e+00	0	63	104	1520435200	51	14927
2026-01-27 08:42:35.69	357.73	9.73	-40.0	-52.3	3.8	1.49e+00	0	63	104	1520435200	51	15042
2026-01-27 08:42:36.70	357.63	9.66	-40.1	-52.5	3.8	1.49e+00	0	64	104	1520435200	51	15259
2026-01-27 08:42:37.71	357.54	9.58	-40.0	-52.3	3.8	1.49e+00	0	63	104	1520435200	51	14987
2026-01-27 08:42:38.72	357.44	9.51	-40.0	-52.3	3.8	1.49e+00	0	64	104	1520435200	51	14901
2026-01-27 08:42:39.73	357.34	9.44	-40.0	-52.3	3.8	1.49e+00	0	63	104	1520435200	51	14970
2026-01-27 08:42:40.74	357.25	9.37	-40.1	-52.4	3.8	1.49e+00	0	64	104	1520435200	51	15091
2026-01-27 08:42:41.74	357.16	9.30	-40.0	-52.3	3.8	1.49e+00	0	63	104	1520435200	51	15043
2026-01-27 08:42:42.76	357.06	9.22	-39.9	-52.2	3.8	1.49e+00	0	64	104	1520435200	51	14875
2026-01-27 08:42:43.77	356.97	9.15	-40.0	-52.3	3.8	1.49e+00	0	63	104	1520435200	51	14938
2026-01-27 08:42:44.78	356.88	9.08	-40.0	-52.3	3.8	1.49e+00	0	64	104	1520435200	51	14975
2026-01-27 08:42:45.79	356.78	9.01	-40.0	-52.3	3.8	1.49e+00	0	64	104	1520435200	51	15019
2026-01-27 08:42:46.80	356.69	8.94	-40.0	-52.3	3.8	1.49e+00	0	64	104	1520435200	51	14904
2026-01-27 08:42:47.81	356.60	8.87	-39.9	-52.3	3.8	1.49e+00	0	63	104	1520435200	51	14918
2026-01-27 08:42:48.82	356.51	8.79	-40.0	-52.3	3.8	1.49e+00	0	64	104	1520435200	51	14974
2026-01-27 08:42:49.83	356.42	8.72	-40.0	-52.3	3.8	1.49e+00	0	64	104	1520435200	51	14912
2026-01-27 08:42:50.84	356.33	8.65	-40.0	-52.3	3.8	1.49e+00	0	64	104	1520435200	51	15017
2026-01-27 08:42:51.85	356.24	8.58	-39.9	-52.3	3.8	1.49e+00	0	63	104	1520435200	51	14903
2026-01-27 08:42:52.86	356.15	8.51	-40.0	-52.3	3.8	1.49e+00	0	64	104	1520435200	51	14953
2026-01-27 08:42:53.87	356.06	8.44	-39.9	-52.3	3.8	1.49e+00	0	64	104	1520435200	51	14936
2026-01-27 08:42:54.88	355.98	8.37	-40.1	-52.4	3.8	1.49e+00	0	63	104	1520435200	51	15148
2026-01-27 08:42:55.89	355.89	8.30	-39.9	-52.2	3.8	1.49e+00	0	64	104	1520435200	51	14861
2026-01-27 08:42:56.90	355.80	8.23	-40.0	-52.3	3.8	1.49e+00	0	63	104	1520435200	51	15047
2026-01-27 08:42:57.91	355.71	8.16	-40.0	-52.3	3.8	1.49e+00	0	63	104	1520435200	51	14983
2026-01-27 08:42:58.92	355.63	8.09	-40.1	-52.4	3.8	1.49e+00	0	64	104	1520435200	51	15119
2026-01-27 08:42:59.93	355.54	8.02	-40.0	-52.3	3.8	1.49e+00	0	63	104	1520435200	51	15019
2026-01-27 08:43:00.94	355.46	7.95	-40.2	-52.5	3.8	1.49e+00	0	63	104	1520435200	51	15322
2026-01-27 08:43:01.95	355.37	7.88	-44.2	-56.4	3.8	1.49e+00	0	64	104	1520435200	58	16062
2026-01-27 08:43:02.96	355.29	7.81	-44.8	-57.2	3.8	1.49e+00	0	64	104	1520435200	60	15691
2026-01-27 08:43:03.97	355.20	7.75	-45.0	-57.4	3.8	1.49e+00	0	64	104	1520435200	60	16085
2026-01-27 08:43:04.98	355.12	7.68	-45.1	-57.6	3.8	1.49e+00	0	64	104	1520435200	60	16347
2026-01-27 08:43:05.99	355.04	7.61	-45.2	-57.7	3.8	1.49e+00	0	64	104	1520435200	61	15636
2026-01-27 08:43:07.00	354.95	7.54	-45.2	-57.7	3.8	1.49e+00	0	64	104	1520435200	61	15592
2026-01-27 08:43:08.02	354.87	7.47	-45.0	-57.7	3.8	1.49e+00	0	64	104	1520435200	61	15591
2026-01-27 08:43:09.03	354.79	7.40	-45.2	-57.6	3.8	1.49e+00	0	64	104	1520435200	61	15576
2026-01-27 08:43:10.04	354.71	7.33	-45.2	-57.6	3.8	1.49e+00	0	64	104	1520435200	61	15522
2026-01-27 08:43:11.05	354.62	7.27	-45.1	-57.6	3.8	1.49e+00	0	63	104	1520435200	60	16375
2026-01-27 08:43:12.06	354.54	7.20	-45.0	-57.5	3.8	1.49e+00	0	64	104	1520435200	60	16265
2026-01-27 08:43:13.07	354.46	7.13	-45.1	-57.5	3.8	1.49e+00	0	64	104	1520435200	60	16177
2026-01-27 08:43:14.08	354.38	7.06	-45.0	-57.4	3.8	1.49e+00	0	64	104	1520435200	60	16085
