passes_logs/2026/01/27/R2.0S_Moscow/R2.0S_Moscow__20260127_110134_NOAA_20_JPSS-1_rec.log

#Pass ID: 20260127_110134_NOAA 20 (JPSS-1)
#Satellite: NOAA 20 (JPSS-1)
#Configuration: NOAA 20
#almurnet v.1.7.20251203
#Start time: 2026-01-27 11:01:36

#Version: 2.2.20231116
#Station: R2.0S_Moscow
#Location: 37.707566 lon 55.798166 lat
#TLE: 1 43013U 17073A   26026.81907703  .00000149  00000+0  91399-4 0  9998
#TLE: 2 43013  98.7647 327.6343 0000991  22.4130 337.7089 14.19540778424411

#Time	Az	El	Level	Level2	SNR	BER	BlckErr	Temp	State	Recorded	gain1	gain2
2026-01-27 11:01:36.01	193.50	2.06	-44.0	-58.4	3.8	1.49e+00	0	55	0	0	59	18992
2026-01-27 11:01:37.01	193.55	2.12	-43.9	-58.4	3.8	1.49e+00	0	55	104	0	59	18987
2026-01-27 11:01:38.02	193.60	2.19	-44.0	-58.4	3.8	1.49e+00	0	55	104	0	59	18982
2026-01-27 11:01:39.03	193.66	2.25	-43.9	-58.4	3.8	1.49e+00	0	55	104	0	59	19011
2026-01-27 11:01:40.04	193.71	2.31	-43.9	-58.4	3.8	1.49e+00	0	55	104	0	59	18984
2026-01-27 11:01:41.05	193.76	2.37	-43.9	-58.3	3.8	1.49e+00	0	55	104	0	59	18923
2026-01-27 11:01:42.07	193.82	2.43	-43.9	-58.4	3.8	1.49e+00	0	55	104	0	59	19055
2026-01-27 11:01:43.08	193.87	2.49	-43.9	-58.4	3.8	1.49e+00	0	55	104	0	59	19028
2026-01-27 11:01:44.09	193.93	2.55	-43.9	-58.4	3.8	1.49e+00	0	55	104	0	59	19005
2026-01-27 11:01:45.10	193.98	2.61	-43.9	-58.4	3.8	1.49e+00	0	56	104	0	59	18993
2026-01-27 11:01:46.11	194.04	2.67	-44.0	-58.4	3.8	1.49e+00	0	56	104	0	59	19054
2026-01-27 11:01:47.11	194.09	2.73	-43.9	-58.4	3.8	1.49e+00	0	56	104	0	59	18977
2026-01-27 11:01:48.13	194.15	2.80	-43.9	-58.4	3.8	1.49e+00	0	56	104	0	59	18968
2026-01-27 11:01:49.14	194.20	2.86	-43.9	-58.4	3.8	1.49e+00	0	56	104	0	59	18990
2026-01-27 11:01:50.15	194.26	2.92	-43.9	-58.4	3.8	1.49e+00	0	56	104	0	59	18994
2026-01-27 11:01:51.16	194.31	2.98	-43.9	-58.4	3.8	1.49e+00	0	56	104	0	59	18960
2026-01-27 11:01:52.17	194.37	3.04	-43.9	-58.3	3.8	1.49e+00	0	56	104	0	59	18935
2026-01-27 11:01:53.18	194.43	3.11	-44.0	-58.3	3.8	1.49e+00	0	56	104	0	59	18945
2026-01-27 11:01:54.19	194.48	3.17	-44.0	-58.4	3.8	1.49e+00	0	56	104	0	59	18954
2026-01-27 11:01:55.20	194.54	3.23	-44.0	-58.3	3.8	1.49e+00	0	56	104	0	59	18915
2026-01-27 11:01:56.21	194.60	3.29	-43.9	-58.4	3.8	1.49e+00	0	56	104	0	59	18997
2026-01-27 11:01:57.22	194.65	3.36	-43.9	-58.4	3.8	1.49e+00	0	56	104	0	59	18980
2026-01-27 11:01:58.23	194.71	3.42	-43.9	-58.4	3.8	1.49e+00	0	56	104	0	59	18965
2026-01-27 11:01:59.24	194.77	3.48	-43.9	-58.4	3.8	1.49e+00	0	56	104	0	59	18958
2026-01-27 11:02:00.25	194.83	3.55	-43.9	-58.4	3.8	1.49e+00	0	56	104	0	59	18961
2026-01-27 11:02:01.26	194.89	3.61	-43.9	-58.4	3.8	1.49e+00	0	57	104	0	59	19004
2026-01-27 11:02:02.27	194.94	3.67	-43.9	-58.3	3.8	1.49e+00	0	57	104	0	59	18925
2026-01-27 11:02:03.28	195.00	3.74	-43.9	-58.4	3.8	1.49e+00	0	57	104	0	59	18960
2026-01-27 11:02:04.29	195.06	3.80	-43.9	-58.3	3.8	1.49e+00	0	57	104	0	59	18902
2026-01-27 11:02:05.30	195.12	3.86	-43.9	-58.3	3.8	1.49e+00	0	57	104	0	59	18916
2026-01-27 11:02:06.31	195.18	3.93	-43.9	-58.3	3.8	1.49e+00	0	57	104	0	59	18922
2026-01-27 11:02:07.32	195.24	3.99	-43.9	-58.4	3.8	1.49e+00	0	57	104	0	59	18971
2026-01-27 11:02:08.33	195.30	4.05	-43.9	-58.3	3.8	1.49e+00	0	57	104	0	59	18937
2026-01-27 11:02:09.35	195.36	4.12	-43.9	-58.4	3.8	1.49e+00	0	57	104	0	59	19024
2026-01-27 11:02:10.36	195.42	4.18	-43.9	-58.3	3.8	1.49e+00	0	57	104	0	59	18924
2026-01-27 11:02:11.36	195.48	4.25	-43.9	-58.4	3.8	1.49e+00	0	57	104	0	59	18957
2026-01-27 11:02:12.37	195.54	4.31	-43.9	-58.4	3.8	1.49e+00	0	57	104	0	59	18953
2026-01-27 11:02:13.39	195.60	4.38	-43.9	-58.3	3.8	1.49e+00	0	57	104	0	59	18907
2026-01-27 11:02:14.39	195.66	4.44	-43.9	-58.4	3.8	1.49e+00	0	57	104	0	59	18953
2026-01-27 11:02:15.40	195.73	4.51	-43.9	-58.3	3.8	1.49e+00	0	57	104	0	59	18925
2026-01-27 11:02:16.42	195.79	4.57	-43.9	-58.3	3.8	1.49e+00	0	57	104	0	59	18857
2026-01-27 11:02:17.43	195.85	4.64	-43.9	-58.3	3.8	1.49e+00	0	58	104	0	59	18837
2026-01-27 11:02:18.44	195.91	4.70	-43.9	-58.3	3.8	1.49e+00	0	58	104	0	59	18810
2026-01-27 11:02:19.45	195.98	4.77	-43.9	-58.3	3.8	1.49e+00	0	58	104	0	59	18856
2026-01-27 11:02:20.46	196.04	4.83	-43.9	-58.2	3.8	1.49e+00	0	58	104	0	59	18726
2026-01-27 11:02:21.47	196.10	4.90	-43.9	-58.3	3.8	1.49e+00	0	58	104	0	59	18788
2026-01-27 11:02:22.48	196.17	4.96	-43.9	-58.2	3.8	1.49e+00	0	58	104	0	59	18544
2026-01-27 11:02:23.49	196.23	5.03	-43.9	-58.2	3.8	1.49e+00	0	58	104	0	59	18589
2026-01-27 11:02:24.50	196.29	5.10	-43.9	-58.1	3.8	1.49e+00	0	58	104	0	59	18476
2026-01-27 11:02:25.51	196.36	5.16	-43.9	-58.1	3.8	1.49e+00	0	58	104	0	59	18451
2026-01-27 11:02:26.52	196.42	5.23	-43.9	-58.2	3.8	1.49e+00	0	58	104	0	59	18576
2026-01-27 11:02:27.53	196.49	5.30	-43.9	-58.0	3.8	1.49e+00	0	58	104	0	59	18270
2026-01-27 11:02:28.55	196.56	5.36	-43.9	-58.0	3.8	1.49e+00	0	58	104	0	59	18282
2026-01-27 11:02:29.56	196.62	5.43	-43.9	-58.0	3.8	1.49e+00	0	58	104	0	59	18173
2026-01-27 11:02:30.56	196.69	5.50	-43.9	-57.8	3.8	1.49e+00	0	58	104	0	59	17777
2026-01-27 11:02:31.57	196.75	5.56	-43.9	-57.7	3.8	1.49e+00	0	58	104	0	59	17498
2026-01-27 11:02:32.58	196.82	5.63	-43.9	-57.5	3.8	1.49e+00	0	58	104	0	59	17175
2026-01-27 11:02:33.59	196.89	5.70	-43.9	-57.3	3.8	1.49e+00	0	58	104	0	59	16774
2026-01-27 11:02:34.60	196.95	5.77	-43.9	-57.0	3.8	1.49e+00	0	58	104	0	59	16161
2026-01-27 11:02:35.61	197.02	5.83	-43.8	-56.7	3.8	1.49e+00	0	58	104	0	59	15709
2026-01-27 11:02:36.62	197.09	5.90	-43.8	-56.6	3.8	1.49e+00	0	58	104	0	59	15557
2026-01-27 11:02:37.63	197.16	5.97	-43.8	-56.5	3.8	1.49e+00	0	58	104	0	59	15271
2026-01-27 11:02:38.64	197.22	6.04	-43.8	-56.0	3.8	1.49e+00	0	58	104	0	59	14458
2026-01-27 11:02:39.65	197.29	6.11	-43.8	-55.9	3.8	1.48e+00	0	58	104	0	59	14360
2026-01-27 11:02:40.66	197.36	6.17	-43.8	-55.5	4.0	1.48e+00	0	58	104	0	59	13698
2026-01-27 11:02:41.67	197.43	6.24	-43.8	-55.6	4.0	1.47e+00	0	58	104	0	59	13761
2026-01-27 11:02:42.69	197.50	6.31	-43.7	-55.2	4.1	1.43e+00	0	59	0	0	59	13125
2026-01-27 11:02:43.70	197.57	6.38	-43.7	-55.2	4.1	1.47e+00	0	59	0	0	59	13180
2026-01-27 11:02:44.71	197.64	6.45	-43.7	-54.8	4.2	1.42e+00	0	59	0	0	59	12568
2026-01-27 11:02:45.72	197.71	6.52	-43.7	-54.8	4.2	1.40e+00	0	59	0	0	59	12610
2026-01-27 11:02:46.73	197.78	6.59	-43.7	-54.8	4.2	1.40e+00	0	59	0	0	59	12554
2026-01-27 11:02:47.74	197.85	6.66	-43.7	-54.4	4.3	1.37e+00	0	59	0	0	59	12088
2026-01-27 11:02:48.75	197.92	6.73	-43.6	-54.1	4.4	1.20e+00	56	59	0	1048576	59	11570
2026-01-27 11:02:49.76	198.00	6.80	-43.6	-53.8	4.5	1.07e+00	1	59	0	2097152	59	11217
2026-01-27 11:02:50.77	198.07	6.87	-43.5	-53.2	4.8	9.50e-01	0	59	0	4194304	59	10522
2026-01-27 11:02:51.78	198.14	6.94	-43.5	-52.6	5.1	7.04e-01	0	59	0	6291456	58	10345
2026-01-27 11:02:52.79	198.21	7.01	-43.4	-52.3	5.3	5.79e-01	0	59	0	8388608	58	9955
2026-01-27 11:02:53.80	198.29	7.08	-43.3	-51.4	6.0	4.47e-01	0	59	0	10485760	58	8971
2026-01-27 11:02:54.82	198.36	7.15	-43.2	-50.9	6.2	3.02e-01	0	59	0	12582912	58	8555
2026-01-27 11:02:55.83	198.43	7.22	-43.0	-50.3	6.8	2.22e-01	0	59	0	13631488	58	7963
2026-01-27 11:02:56.84	198.51	7.29	-42.9	-49.7	7.3	1.51e-01	0	59	0	15728640	57	7854
2026-01-27 11:02:57.85	198.58	7.36	-42.8	-49.3	7.7	1.08e-01	0	59	0	17825792	57	7517
2026-01-27 11:02:58.86	198.66	7.43	-42.6	-48.8	8.2	7.13e-02	0	59	0	19922944	57	7072
2026-01-27 11:02:59.87	198.73	7.50	-42.5	-48.4	8.6	4.96e-02	0	59	0	22020096	57	6792
2026-01-27 11:03:00.88	198.81	7.58	-42.5	-48.4	8.7	3.42e-02	0	59	0	23068672	57	6733
2026-01-27 11:03:01.89	198.88	7.65	-42.5	-48.2	8.8	3.40e-02	0	59	0	25165824	57	6623
2026-01-27 11:03:02.90	198.96	7.72	-42.4	-48.1	8.9	3.35e-02	0	59	0	27262976	56	6945
2026-01-27 11:03:03.91	199.04	7.79	-42.5	-48.4	8.7	2.89e-02	0	59	0	29360128	56	7140
2026-01-27 11:03:04.92	199.11	7.86	-42.7	-48.8	8.2	4.60e-02	0	59	0	31457280	56	7530
2026-01-27 11:03:05.93	199.19	7.94	-42.7	-49.0	8.0	5.84e-02	0	59	0	32505856	56	7715
2026-01-27 11:03:06.95	199.27	8.01	-42.9	-49.6	7.5	9.81e-02	0	60	0	34603008	56	8201
2026-01-27 11:03:07.96	199.35	8.08	-42.9	-49.3	8.0	2.95e-02	0	59	0	36700160	56	7945
2026-01-27 11:03:08.97	199.42	8.15	-42.6	-48.3	8.9	3.24e-02	0	60	0	38797312	56	7053
2026-01-27 11:03:09.98	199.50	8.23	-43.8	-56.8	3.8	9.07e-02	0	60	104	39845888	58	16869
2026-01-27 11:03:10.99	199.58	8.30	-43.7	-55.4	4.0	1.48e+00	0	60	104	39845888	58	14244
2026-01-27 11:03:12.00	199.66	8.37	-43.4	-50.9	6.7	3.99e-02	0	59	0	40894464	57	9033
2026-01-27 11:03:13.01	199.74	8.45	-42.3	-47.4	9.9	6.05e-02	0	60	0	42991616	56	6406
2026-01-27 11:03:14.02	199.82	8.52	-42.3	-47.4	9.9	9.06e-03	0	60	0	45088768	56	6407
2026-01-27 11:03:15.03	199.90	8.60	-42.3	-47.2	10.1	7.82e-03	0	59	0	46137344	56	6258
2026-01-27 11:03:16.04	199.98	8.67	-42.3	-47.3	10.0	6.07e-03	0	60	0	48234496	56	6296
2026-01-27 11:03:17.05	200.07	8.74	-42.2	-47.0	10.3	6.61e-03	0	60	0	50331648	56	6108
2026-01-27 11:03:18.06	200.15	8.82	-42.2	-47.1	10.3	5.72e-03	0	60	0	52428800	56	6174
2026-01-27 11:03:19.07	200.23	8.89	-42.2	-47.0	10.3	5.84e-03	0	60	0	54525952	56	6127
2026-01-27 11:03:20.08	200.31	8.97	-42.2	-47.0	10.4	4.93e-03	0	60	0	55574528	56	6087
2026-01-27 11:03:21.10	200.40	9.04	-42.2	-46.9	10.5	4.65e-03	0	60	0	57671680	56	6027
2026-01-27 11:03:22.11	200.48	9.12	-42.2	-46.9	10.5	3.93e-03	0	60	0	59768832	56	6039
2026-01-27 11:03:23.12	200.56	9.19	-42.2	-46.9	10.5	4.50e-03	0	60	0	61865984	56	6056
2026-01-27 11:03:24.13	200.65	9.27	-42.3	-47.0	10.4	3.98e-03	0	60	0	63963136	56	6123
2026-01-27 11:03:25.14	200.73	9.34	-42.2	-46.9	10.5	3.80e-03	0	60	0	65011712	56	6054
2026-01-27 11:03:26.15	200.82	9.42	-42.2	-46.9	10.6	2.93e-03	0	60	0	67108864	56	6054
2026-01-27 11:03:27.16	200.90	9.50	-42.2	-46.9	10.5	3.80e-03	0	60	0	69206016	56	6060
2026-01-27 11:03:28.17	200.99	9.57	-42.2	-46.9	10.6	3.91e-03	0	60	0	71303168	56	6023
2026-01-27 11:03:29.18	201.08	9.65	-42.2	-46.7	10.8	2.94e-03	0	60	0	73400320	56	5899
2026-01-27 11:03:30.19	201.16	9.72	-42.1	-46.7	10.8	2.87e-03	0	60	0	74448896	56	5907
2026-01-27 11:03:31.20	201.25	9.80	-42.2	-46.8	10.8	2.37e-03	0	60	0	76546048	56	5942
2026-01-27 11:03:32.21	201.34	9.88	-42.2	-46.8	10.8	2.40e-03	0	60	0	78643200	56	5930
2026-01-27 11:03:33.22	201.43	9.95	-42.2	-46.7	10.8	2.46e-03	0	60	0	80740352	56	5879
2026-01-27 11:03:34.23	201.52	10.03	-42.1	-46.4	11.1	1.44e-03	0	60	0	82837504	56	5716
2026-01-27 11:03:35.24	201.60	10.11	-42.1	-46.5	11.1	1.57e-03	0	60	0	83886080	56	5748
2026-01-27 11:03:36.25	201.69	10.19	-42.0	-46.4	11.2	1.86e-03	0	60	0	85983232	56	5682
2026-01-27 11:03:37.26	201.78	10.26	-42.0	-46.3	11.2	1.62e-03	0	60	0	88080384	56	5642
2026-01-27 11:03:38.27	201.87	10.34	-42.1	-46.5	11.0	1.49e-03	0	60	0	90177536	56	5745
2026-01-27 11:03:39.28	201.97	10.42	-42.1	-46.5	10.9	1.56e-03	0	60	0	92274688	56	5772
2026-01-27 11:03:40.29	202.06	10.50	-42.1	-46.7	10.7	2.49e-03	0	60	0	93323264	56	5891
2026-01-27 11:03:41.30	202.15	10.58	-42.1	-46.7	10.7	2.69e-03	0	61	0	95420416	56	5904
2026-01-27 11:03:42.31	202.24	10.66	-42.1	-46.7	10.6	3.03e-03	0	61	0	97517568	56	5888
2026-01-27 11:03:43.32	202.33	10.73	-41.8	-46.4	10.7	2.86e-03	0	61	0	99614720	55	6024
2026-01-27 11:03:44.33	202.43	10.81	-41.8	-46.5	10.6	3.65e-03	0	61	0	101711872	55	6062
2026-01-27 11:03:45.34	202.52	10.89	-41.7	-46.2	10.8	2.94e-03	0	61	0	102760448	55	5872
2026-01-27 11:03:46.35	202.62	10.97	-41.7	-46.2	10.7	2.52e-03	0	61	0	104857600	55	5919
2026-01-27 11:03:47.36	202.71	11.05	-41.6	-46.1	10.7	2.76e-03	0	61	0	106954752	55	5854
2026-01-27 11:03:48.37	202.81	11.13	-41.6	-46.2	10.8	2.84e-03	0	60	0	109051904	55	5856
2026-01-27 11:03:49.38	202.90	11.21	-41.7	-46.2	10.8	2.70e-03	0	61	0	111149056	55	5862
2026-01-27 11:03:50.39	203.00	11.29	-41.7	-46.1	10.9	2.27e-03	0	61	0	113246208	55	5844
2026-01-27 11:03:51.40	203.09	11.37	-41.6	-45.9	11.1	1.98e-03	0	61	0	114294784	55	5701
2026-01-27 11:03:52.41	203.19	11.45	-41.7	-45.9	11.2	1.52e-03	0	61	0	116391936	55	5682
2026-01-27 11:03:53.42	203.29	11.53	-41.6	-45.8	11.4	8.77e-04	0	61	0	118489088	55	5618
2026-01-27 11:03:54.43	203.39	11.61	-41.6	-45.7	11.5	9.14e-04	0	61	0	120586240	55	5536
2026-01-27 11:03:55.44	203.49	11.69	-41.6	-45.6	11.6	6.41e-04	0	61	0	122683392	55	5505
2026-01-27 11:03:56.45	203.59	11.78	-41.6	-45.7	11.6	6.60e-04	0	61	0	123731968	55	5532
2026-01-27 11:03:57.46	203.69	11.86	-41.6	-45.5	11.9	4.32e-04	0	61	0	125829120	55	5414
2026-01-27 11:03:58.47	203.79	11.94	-41.5	-45.4	12.0	4.23e-04	0	61	0	127926272	55	5365
2026-01-27 11:03:59.48	203.89	12.02	-41.5	-45.4	11.9	3.01e-04	0	61	0	130023424	54	5706
2026-01-27 11:04:00.49	203.99	12.10	-41.4	-45.2	12.2	2.27e-04	0	61	0	132120576	54	5556
2026-01-27 11:04:01.50	204.09	12.19	-41.4	-45.2	12.2	2.88e-04	0	61	0	133169152	54	5568
2026-01-27 11:04:02.51	204.19	12.27	-41.4	-45.2	12.2	2.44e-04	0	61	0	135266304	54	5553
2026-01-27 11:04:03.52	204.30	12.35	-41.4	-45.3	12.1	2.23e-04	0	61	0	137363456	54	5617
2026-01-27 11:04:04.53	204.40	12.43	-41.3	-45.0	12.4	1.32e-04	0	61	0	139460608	54	5442
2026-01-27 11:04:05.54	204.51	12.52	-41.3	-45.1	12.4	1.14e-04	0	61	0	141557760	54	5477
2026-01-27 11:04:06.54	204.61	12.60	-41.3	-45.1	12.4	1.04e-04	0	61	0	142606336	54	5508
2026-01-27 11:04:07.55	204.71	12.68	-41.2	-45.0	12.5	1.32e-04	0	61	0	144703488	54	5451
2026-01-27 11:04:08.56	204.82	12.77	-41.3	-45.1	12.5	1.04e-04	0	61	0	146800640	54	5497
2026-01-27 11:04:09.57	204.93	12.85	-41.3	-45.0	12.6	1.20e-04	0	61	0	148897792	54	5416
2026-01-27 11:04:10.58	205.03	12.93	-41.4	-45.1	12.6	7.62e-05	0	61	0	150994944	54	5469
2026-01-27 11:04:11.59	205.14	13.02	-41.3	-44.9	12.7	7.62e-05	0	61	0	152043520	54	5396
2026-01-27 11:04:12.60	205.25	13.10	-41.3	-45.0	12.6	9.00e-05	0	61	0	154140672	54	5437
2026-01-27 11:04:13.61	205.36	13.19	-41.4	-45.1	12.6	7.62e-05	0	61	0	156237824	54	5481
2026-01-27 11:04:14.62	205.47	13.27	-41.3	-45.0	12.7	7.47e-05	0	61	0	158334976	54	5426
2026-01-27 11:04:15.63	205.58	13.36	-41.4	-45.0	12.7	6.94e-05	0	61	0	160432128	54	5419
2026-01-27 11:04:16.64	205.69	13.44	-41.3	-44.9	12.8	9.99e-05	0	61	0	161480704	54	5371
2026-01-27 11:04:17.65	205.80	13.53	-41.4	-45.0	12.7	6.94e-05	0	61	0	163577856	54	5447
2026-01-27 11:04:18.66	205.91	13.61	-41.4	-45.1	12.7	7.32e-05	0	61	0	165675008	54	5478
2026-01-27 11:04:19.67	206.03	13.70	-41.4	-45.0	12.7	6.63e-05	0	61	0	167772160	54	5444
2026-01-27 11:04:20.68	206.14	13.79	-41.5	-45.3	12.5	1.01e-04	0	61	0	169869312	54	5602
2026-01-27 11:04:21.70	206.26	13.87	-41.5	-45.2	12.5	1.41e-04	0	62	0	170917888	54	5571
2026-01-27 11:04:22.71	206.37	13.96	-41.4	-45.1	12.6	1.34e-04	0	61	0	173015040	54	5501
2026-01-27 11:04:23.72	206.49	14.05	-41.4	-45.1	12.6	9.61e-05	0	61	0	175112192	54	5521
2026-01-27 11:04:24.73	206.60	14.13	-41.4	-45.0	12.7	1.17e-04	0	61	0	177209344	54	5452
2026-01-27 11:04:25.73	206.72	14.22	-41.5	-45.1	12.6	1.14e-04	0	62	0	179306496	54	5513
2026-01-27 11:04:26.74	206.83	14.31	-41.5	-45.1	12.5	1.17e-04	0	61	0	181403648	54	5525
2026-01-27 11:04:27.75	206.95	14.40	-41.5	-45.2	12.5	1.11e-04	0	61	0	182452224	54	5551
2026-01-27 11:04:28.76	207.07	14.48	-41.4	-45.1	12.6	9.00e-05	0	61	0	184549376	54	5468
2026-01-27 11:04:29.77	207.19	14.57	-41.5	-45.0	12.7	6.63e-05	0	62	0	186646528	54	5458
2026-01-27 11:04:30.78	207.31	14.66	-41.4	-45.0	12.7	7.24e-05	0	61	0	188743680	54	5440
2026-01-27 11:04:31.79	207.43	14.75	-41.5	-45.0	12.7	7.09e-05	0	62	0	190840832	54	5438
2026-01-27 11:04:32.80	207.55	14.84	-41.4	-45.0	12.8	5.87e-05	0	61	0	191889408	54	5423
2026-01-27 11:04:33.81	207.67	14.92	-41.4	-44.9	12.9	4.80e-05	0	62	0	193986560	54	5360
2026-01-27 11:04:34.82	207.80	15.01	-41.4	-44.9	12.9	5.34e-05	0	61	0	196083712	54	5359
2026-01-27 11:04:35.83	207.92	15.10	-41.3	-44.7	13.1	3.43e-05	0	62	0	198180864	54	5278
2026-01-27 11:04:36.84	208.04	15.19	-41.3	-44.7	13.1	2.51e-05	0	61	0	200278016	54	5274
2026-01-27 11:04:37.85	208.17	15.28	-41.3	-44.7	13.1	1.90e-05	0	62	0	201326592	54	5264
2026-01-27 11:04:38.85	208.29	15.37	-41.4	-44.9	13.0	2.59e-05	0	62	0	203423744	54	5346
2026-01-27 11:04:39.86	208.42	15.46	-41.4	-44.9	13.0	2.51e-05	0	62	0	205520896	54	5367
2026-01-27 11:04:40.87	208.55	15.55	-41.4	-44.9	13.0	4.80e-05	0	62	0	207618048	54	5363
2026-01-27 11:04:41.88	208.68	15.64	-41.4	-45.0	12.9	5.03e-05	0	62	0	209715200	54	5405
2026-01-27 11:04:42.89	208.80	15.73	-41.6	-45.1	12.8	7.40e-05	0	62	0	210763776	54	5523
2026-01-27 11:04:43.90	208.93	15.82	-41.6	-45.2	12.7	8.31e-05	0	62	0	212860928	54	5565
2026-01-27 11:04:44.91	209.06	15.91	-41.6	-45.2	12.7	8.23e-05	0	62	0	214958080	54	5554
2026-01-27 11:04:45.92	209.19	16.01	-41.6	-45.2	12.7	7.62e-05	0	62	0	217055232	54	5553
2026-01-27 11:04:46.93	209.33	16.10	-41.6	-45.2	12.7	1.03e-04	0	62	0	219152384	54	5592
2026-01-27 11:04:47.94	209.46	16.19	-41.7	-45.5	12.4	1.03e-04	0	62	0	220200960	54	5731
2026-01-27 11:04:48.95	209.59	16.28	-41.7	-45.4	12.4	1.21e-04	0	62	0	222298112	54	5722
2026-01-27 11:04:49.96	209.73	16.37	-41.8	-45.5	12.4	1.39e-04	0	62	0	224395264	54	5776
2026-01-27 11:04:50.97	209.86	16.46	-41.9	-45.8	12.1	1.95e-04	0	62	0	226492416	54	5940
2026-01-27 11:04:51.97	210.00	16.56	-41.9	-45.7	12.2	2.27e-04	0	62	0	228589568	54	5915
2026-01-27 11:04:52.98	210.13	16.65	-42.0	-45.9	12.0	3.30e-04	0	62	0	229638144	54	6033
2026-01-27 11:04:53.99	210.27	16.74	-42.0	-46.0	11.9	3.20e-04	0	62	0	231735296	54	6092
2026-01-27 11:04:55.01	210.41	16.84	-42.0	-46.1	11.9	3.23e-04	0	62	0	233832448	54	6144
2026-01-27 11:04:56.02	210.55	16.93	-42.1	-46.2	11.7	6.06e-04	0	62	0	235929600	54	6237
2026-01-27 11:04:57.03	210.69	17.02	-42.1	-46.2	11.8	5.30e-04	0	62	0	238026752	54	6232
2026-01-27 11:04:58.04	210.83	17.12	-42.2	-46.3	11.6	6.01e-04	0	62	0	239075328	54	6332
2026-01-27 11:04:59.05	210.97	17.21	-42.2	-46.4	11.5	7.16e-04	0	62	0	241172480	54	6395
2026-01-27 11:05:00.06	211.11	17.30	-42.1	-46.3	11.7	6.83e-04	0	62	0	243269632	54	6284
2026-01-27 11:05:01.07	211.25	17.40	-42.1	-46.2	11.7	5.77e-04	0	62	0	245366784	54	6262
2026-01-27 11:05:02.08	211.40	17.49	-42.1	-46.1	11.8	5.13e-04	0	62	0	247463936	54	6199
2026-01-27 11:05:03.09	211.54	17.59	-42.0	-46.0	11.9	3.75e-04	0	62	0	249561088	54	6113
2026-01-27 11:05:04.10	211.69	17.68	-42.0	-46.0	12.0	3.42e-04	0	62	0	250609664	54	6088
2026-01-27 11:05:05.11	211.84	17.78	-42.0	-46.0	12.0	3.57e-04	0	62	0	252706816	54	6089
2026-01-27 11:05:06.12	211.98	17.87	-42.1	-46.0	12.0	3.23e-04	0	62	0	254803968	54	6124
2026-01-27 11:05:07.13	212.13	17.97	-42.0	-45.9	12.1	3.55e-04	0	62	0	256901120	54	6007
2026-01-27 11:05:08.14	212.28	18.06	-42.1	-46.1	11.9	3.38e-04	0	62	0	258998272	54	6187
2026-01-27 11:05:09.15	212.43	18.16	-42.1	-46.1	11.8	3.89e-04	0	62	0	260046848	54	6195
2026-01-27 11:05:10.16	212.58	18.25	-42.1	-46.2	11.8	4.09e-04	0	62	0	262144000	54	6224
2026-01-27 11:05:11.17	212.74	18.35	-42.1	-46.2	11.8	4.78e-04	0	62	0	264241152	54	6227
2026-01-27 11:05:12.18	212.89	18.45	-42.2	-46.3	11.7	6.42e-04	0	62	0	266338304	54	6299
2026-01-27 11:05:13.19	213.04	18.54	-42.2	-46.3	11.7	6.83e-04	0	62	0	268435456	55	5941
2026-01-27 11:05:14.20	213.20	18.64	-42.1	-46.1	11.8	4.36e-04	0	62	0	269484032	55	5836
2026-01-27 11:05:15.21	213.35	18.74	-42.2	-46.3	11.7	5.05e-04	0	62	0	271581184	55	5927
2026-01-27 11:05:16.22	213.51	18.83	-42.2	-46.2	11.7	5.86e-04	0	62	0	273678336	55	5906
2026-01-27 11:05:17.23	213.67	18.93	-42.2	-46.3	11.7	5.48e-04	0	62	0	275775488	55	5933
2026-01-27 11:05:18.24	213.83	19.03	-42.2	-46.3	11.7	6.67e-04	0	62	0	277872640	55	5933
2026-01-27 11:05:19.25	213.99	19.13	-42.3	-46.4	11.6	6.42e-04	0	62	0	278921216	55	6049
2026-01-27 11:05:20.26	214.15	19.22	-42.3	-46.5	11.5	7.85e-04	0	62	0	281018368	55	6079
2026-01-27 11:05:21.27	214.31	19.32	-42.3	-46.4	11.6	6.51e-04	0	62	0	283115520	55	6041
2026-01-27 11:05:22.28	214.47	19.42	-42.3	-46.5	11.5	7.85e-04	0	62	0	285212672	55	6116
2026-01-27 11:05:23.29	214.64	19.52	-42.2	-46.4	11.6	8.64e-04	0	62	0	287309824	55	6001
2026-01-27 11:05:24.30	214.80	19.62	-42.2	-46.2	11.9	5.74e-04	0	62	0	288358400	55	5862
2026-01-27 11:05:25.31	214.97	19.71	-42.1	-46.0	12.0	3.33e-04	0	62	0	290455552	55	5754
2026-01-27 11:05:26.32	215.14	19.81	-42.1	-46.0	12.1	2.72e-04	0	62	0	292552704	55	5744
2026-01-27 11:05:27.33	215.30	19.91	-42.0	-46.0	12.1	2.88e-04	0	62	0	294649856	55	5739
2026-01-27 11:05:28.34	215.47	20.01	-42.0	-45.8	12.2	2.05e-04	0	62	0	296747008	55	5643
2026-01-27 11:05:29.34	215.64	20.11	-41.9	-45.7	12.4	1.98e-04	0	62	0	297795584	55	5531
2026-01-27 11:05:30.35	215.81	20.21	-42.0	-45.8	12.3	1.46e-04	0	62	0	299892736	55	5602
2026-01-27 11:05:31.36	215.98	20.31	-41.9	-45.7	12.3	2.01e-04	0	62	0	301989888	55	5556
2026-01-27 11:05:32.37	216.16	20.41	-41.9	-45.7	12.4	1.64e-04	0	62	0	304087040	55	5529
2026-01-27 11:05:33.38	216.33	20.51	-41.9	-45.6	12.4	1.39e-04	0	62	0	306184192	55	5519
2026-01-27 11:05:34.39	216.51	20.61	-41.9	-45.6	12.4	1.27e-04	0	62	0	307232768	55	5493
2026-01-27 11:05:35.40	216.69	20.71	-41.9	-45.6	12.5	1.37e-04	0	62	0	309329920	55	5474
2026-01-27 11:05:36.41	216.86	20.81	-41.8	-45.5	12.6	1.27e-04	0	62	0	311427072	55	5430
2026-01-27 11:05:37.42	217.04	20.91	-41.8	-45.4	12.7	9.15e-05	0	62	0	313524224	55	5389
2026-01-27 11:05:38.43	217.22	21.01	-41.7	-45.3	12.8	6.63e-05	0	62	0	315621376	55	5284
2026-01-27 11:05:39.44	217.40	21.11	-41.6	-45.1	13.0	5.03e-05	0	62	0	317718528	55	5201
2026-01-27 11:05:40.45	217.59	21.21	-41.6	-45.1	13.0	4.50e-05	0	62	0	318767104	55	5180
2026-01-27 11:05:41.46	217.77	21.31	-41.6	-45.1	13.0	3.89e-05	0	62	0	320864256	55	5212
2026-01-27 11:05:42.47	217.95	21.41	-41.6	-45.0	13.1	4.11e-05	0	62	0	322961408	55	5157
2026-01-27 11:05:43.48	218.14	21.51	-41.5	-44.9	13.2	2.05e-05	0	62	0	325058560	55	5055
2026-01-27 11:05:44.49	218.33	21.61	-41.5	-44.9	13.2	1.67e-05	0	62	0	327155712	54	5367
2026-01-27 11:05:45.50	218.52	21.71	-41.6	-45.0	13.2	2.82e-05	0	62	0	328204288	54	5417
2026-01-27 11:05:46.51	218.71	21.81	-41.5	-44.8	13.4	2.44e-05	0	62	0	330301440	54	5299
2026-01-27 11:05:47.52	218.90	21.91	-41.3	-44.6	13.6	1.22e-05	0	62	0	332398592	54	5162
2026-01-27 11:05:48.52	219.09	22.01	-41.3	-44.5	13.6	7.60e-06	0	62	0	334495744	54	5151
2026-01-27 11:05:49.54	219.28	22.11	-41.2	-44.4	13.8	5.30e-06	0	62	0	336592896	54	5049
2026-01-27 11:05:50.55	219.48	22.22	-41.2	-44.4	13.8	3.80e-06	0	62	0	337641472	54	5058
2026-01-27 11:05:51.56	219.67	22.32	-41.2	-44.3	13.8	1.50e-06	0	62	0	339738624	54	5016
2026-01-27 11:05:52.57	219.87	22.42	-41.2	-44.3	13.9	3.80e-06	0	62	0	341835776	54	4988
2026-01-27 11:05:53.58	220.07	22.52	-41.3	-44.4	13.8	3.80e-06	0	62	0	343932928	54	5090
2026-01-27 11:05:54.59	220.27	22.62	-41.3	-44.5	13.7	1.06e-05	0	62	0	346030080	54	5130
2026-01-27 11:05:55.60	220.47	22.72	-41.2	-44.3	13.9	4.50e-06	0	62	0	347078656	54	4998
2026-01-27 11:05:56.61	220.67	22.83	-41.2	-44.3	13.9	5.30e-06	0	62	0	349175808	54	4993
2026-01-27 11:05:57.62	220.87	22.93	-41.0	-44.0	14.2	3.00e-06	0	62	0	351272960	54	4838
2026-01-27 11:05:58.63	221.08	23.03	-41.1	-44.1	14.1	1.50e-06	0	62	0	353370112	53	5166
2026-01-27 11:05:59.64	221.28	23.13	-41.0	-43.9	14.3	0.00e+00	0	62	0	355467264	53	5072
2026-01-27 11:06:00.65	221.49	23.23	-40.9	-43.8	14.4	7.00e-07	0	62	0	356515840	53	5012
2026-01-27 11:06:01.66	221.70	23.34	-40.9	-43.7	14.4	1.50e-06	0	62	0	358612992	53	4982
2026-01-27 11:06:02.67	221.91	23.44	-40.8	-43.7	14.5	0.00e+00	0	62	0	360710144	53	4958
2026-01-27 11:06:03.68	222.12	23.54	-40.7	-43.7	14.5	3.00e-06	0	62	0	362807296	53	4953
2026-01-27 11:06:04.69	222.33	23.64	-40.8	-43.7	14.5	0.00e+00	0	62	0	364904448	53	4936
2026-01-27 11:06:05.69	222.54	23.74	-40.8	-43.7	14.5	0.00e+00	0	62	0	365953024	53	4946
2026-01-27 11:06:06.71	222.76	23.84	-40.6	-43.4	14.8	0.00e+00	0	62	0	368050176	53	4785
2026-01-27 11:06:07.72	222.98	23.95	-40.6	-43.4	14.8	0.00e+00	0	62	0	370147328	53	4761
2026-01-27 11:06:08.73	223.20	24.05	-40.5	-43.2	15.0	0.00e+00	0	62	0	372244480	53	4692
2026-01-27 11:06:09.73	223.41	24.15	-40.5	-43.2	15.0	0.00e+00	0	62	0	374341632	53	4682
2026-01-27 11:06:10.74	223.63	24.25	-40.5	-43.1	15.1	0.00e+00	0	62	0	375390208	53	4646
2026-01-27 11:06:11.76	223.86	24.35	-40.5	-43.2	15.0	7.00e-07	0	62	0	377487360	53	4681
2026-01-27 11:06:12.77	224.08	24.46	-40.6	-43.4	14.8	7.00e-07	0	62	0	379584512	53	4761
2026-01-27 11:06:13.78	224.31	24.56	-40.7	-43.4	14.8	0.00e+00	0	62	0	381681664	53	4798
2026-01-27 11:06:14.79	224.53	24.66	-40.8	-43.7	14.5	0.00e+00	0	62	0	383778816	53	4949
2026-01-27 11:06:15.80	224.76	24.76	-41.0	-43.9	14.3	0.00e+00	0	62	0	385875968	53	5067
2026-01-27 11:06:16.81	224.99	24.86	-41.0	-43.9	14.3	0.00e+00	0	62	0	386924544	53	5092
2026-01-27 11:06:17.82	225.22	24.96	-40.9	-43.8	14.4	7.00e-07	0	62	0	389021696	53	5038
2026-01-27 11:06:18.83	225.45	25.06	-40.9	-43.8	14.4	1.50e-06	0	62	0	391118848	53	5020
2026-01-27 11:06:19.83	225.68	25.16	-40.9	-43.7	14.5	0.00e+00	0	62	0	393216000	53	4975
2026-01-27 11:06:20.84	225.92	25.27	-40.9	-43.7	14.5	7.00e-07	0	62	0	395313152	53	4965
2026-01-27 11:06:21.86	226.16	25.37	-40.9	-43.7	14.5	1.50e-06	0	62	0	396361728	53	4977
2026-01-27 11:06:22.87	226.40	25.47	-41.0	-44.0	14.2	7.00e-07	0	62	0	398458880	53	5138
2026-01-27 11:06:23.88	226.64	25.57	-41.1	-44.1	14.1	1.50e-06	0	62	0	400556032	53	5177
2026-01-27 11:06:24.89	226.88	25.67	-41.2	-44.3	14.0	3.00e-06	0	62	0	402653184	53	5280
2026-01-27 11:06:25.90	227.12	25.77	-41.2	-44.4	13.8	3.80e-06	0	62	0	404750336	53	5344
2026-01-27 11:06:26.90	227.36	25.87	-41.3	-44.4	13.7	6.10e-06	0	62	0	405798912	53	5400
2026-01-27 11:06:27.91	227.61	25.97	-41.3	-44.5	13.7	3.80e-06	0	62	0	407896064	53	5411
2026-01-27 11:06:28.92	227.85	26.07	-41.3	-44.5	13.7	3.00e-06	0	62	0	409993216	53	5411
2026-01-27 11:06:29.93	228.10	26.17	-41.4	-44.6	13.6	5.30e-06	0	62	0	412090368	53	5480
2026-01-27 11:06:30.94	228.35	26.27	-41.4	-44.6	13.6	9.10e-06	0	62	0	414187520	53	5527
2026-01-27 11:06:31.95	228.60	26.37	-41.6	-44.9	13.2	1.44e-05	0	62	0	415236096	53	5721
2026-01-27 11:06:32.96	228.86	26.47	-41.7	-45.1	13.0	3.28e-05	0	62	0	417333248	53	5843
2026-01-27 11:06:33.97	229.11	26.56	-41.8	-45.4	12.9	4.73e-05	0	62	0	419430400	54	5657
2026-01-27 11:06:34.98	229.37	26.66	-41.9	-45.5	12.7	7.17e-05	0	62	0	421527552	54	5754
2026-01-27 11:06:35.99	229.63	26.76	-41.9	-45.5	12.7	8.46e-05	0	62	0	423624704	54	5765
2026-01-27 11:06:37.00	229.89	26.86	-41.9	-45.5	12.7	8.23e-05	0	62	0	424673280	54	5736
2026-01-27 11:06:38.01	230.15	26.96	-41.9	-45.5	12.6	8.69e-05	0	62	0	426770432	54	5785
2026-01-27 11:06:39.02	230.41	27.06	-42.0	-45.7	12.5	1.06e-04	0	62	0	428867584	54	5858
2026-01-27 11:06:40.03	230.67	27.15	-42.1	-45.9	12.3	1.37e-04	0	62	0	430964736	54	6002
2026-01-27 11:06:41.04	230.94	27.25	-42.2	-46.1	12.1	2.27e-04	0	62	0	433061888	54	6140
2026-01-27 11:06:42.05	231.21	27.35	-42.3	-46.3	11.8	4.16e-04	0	62	0	434110464	55	5980
2026-01-27 11:06:43.06	231.47	27.44	-42.5	-46.7	11.5	5.70e-04	0	62	0	436207616	55	6232
2026-01-27 11:06:44.07	231.74	27.54	-42.4	-46.6	11.5	9.28e-04	0	62	0	438304768	55	6183
2026-01-27 11:06:45.08	232.02	27.63	-42.4	-46.5	11.7	6.71e-04	0	62	0	440401920	55	6094
2026-01-27 11:06:46.09	232.29	27.73	-42.3	-46.3	11.8	5.24e-04	0	62	0	442499072	55	5948
2026-01-27 11:06:47.10	232.57	27.82	-42.2	-46.1	12.0	3.84e-04	0	62	0	443547648	55	5849
2026-01-27 11:06:48.11	232.84	27.92	-42.1	-45.9	12.2	2.43e-04	0	62	0	445644800	55	5708
2026-01-27 11:06:49.13	233.12	28.01	-42.1	-46.0	12.2	2.20e-04	0	62	0	447741952	55	5737
2026-01-27 11:06:50.14	233.40	28.11	-42.3	-46.2	12.0	2.65e-04	0	62	0	449839104	55	5899
2026-01-27 11:06:51.15	233.69	28.20	-42.3	-46.4	11.7	3.92e-04	0	62	0	451936256	55	6019
2026-01-27 11:06:52.16	233.97	28.29	-42.5	-46.7	11.5	6.70e-04	0	62	0	454033408	55	6211
2026-01-27 11:06:53.17	234.25	28.39	-42.6	-47.0	11.1	1.08e-03	0	62	0	455081984	55	6441
2026-01-27 11:06:54.18	234.54	28.48	-42.9	-47.4	10.8	1.93e-03	0	62	0	457179136	56	6408
2026-01-27 11:06:55.19	234.83	28.57	-43.1	-47.9	10.3	3.83e-03	0	62	0	459276288	56	6789
2026-01-27 11:06:56.20	235.12	28.66	-43.2	-48.2	10.0	7.16e-03	0	62	0	461373440	56	6996
2026-01-27 11:06:57.21	235.41	28.75	-43.2	-48.3	9.9	9.05e-03	0	62	0	463470592	57	6695
2026-01-27 11:06:58.22	235.70	28.84	-43.2	-48.3	9.9	9.25e-03	0	62	0	464519168	57	6684
2026-01-27 11:06:59.23	236.00	28.93	-43.2	-48.3	9.9	8.84e-03	0	62	0	466616320	57	6676
2026-01-27 11:07:00.24	236.29	29.02	-43.2	-48.3	9.9	8.51e-03	0	62	0	468713472	57	6704
2026-01-27 11:07:01.25	236.59	29.11	-43.3	-48.6	9.6	1.15e-02	0	62	0	470810624	57	6901
2026-01-27 11:07:02.26	236.89	29.20	-43.4	-48.9	9.3	1.59e-02	0	62	0	472907776	57	7158
2026-01-27 11:07:03.27	237.19	29.28	-43.5	-49.2	8.9	2.16e-02	0	62	0	473956352	57	7421
2026-01-27 11:07:04.28	237.49	29.37	-43.7	-49.7	8.5	3.75e-02	0	62	0	476053504	57	7851
2026-01-27 11:07:05.29	237.80	29.46	-43.8	-49.9	8.2	5.21e-02	0	62	0	478150656	58	7599
2026-01-27 11:07:06.30	238.10	29.54	-43.8	-50.0	8.2	5.84e-02	0	62	0	480247808	58	7719
2026-01-27 11:07:07.31	238.41	29.63	-43.8	-49.9	8.2	5.66e-02	0	62	0	482344960	58	7610
2026-01-27 11:07:08.33	238.72	29.71	-43.7	-49.8	8.4	5.37e-02	0	62	0	483393536	58	7460
2026-01-27 11:07:09.34	239.03	29.80	-43.6	-49.5	8.6	4.14e-02	0	62	0	485490688	58	7281
2026-01-27 11:07:10.35	239.34	29.88	-43.7	-49.5	8.7	3.52e-02	0	62	0	487587840	58	7241
2026-01-27 11:07:11.36	239.66	29.96	-43.6	-49.4	8.8	3.41e-02	0	62	0	489684992	58	7140
2026-01-27 11:07:12.36	239.97	30.04	-43.7	-49.6	8.5	3.48e-02	0	62	0	491782144	58	7308
2026-01-27 11:07:13.37	240.29	30.12	-43.8	-49.8	8.3	4.21e-02	0	62	0	493879296	58	7539
2026-01-27 11:07:14.39	240.61	30.20	-43.8	-50.0	8.1	5.87e-02	0	62	0	494927872	58	7685
2026-01-27 11:07:15.40	240.93	30.28	-43.8	-50.1	8.1	6.70e-02	0	62	0	497025024	58	7762
2026-01-27 11:07:16.41	241.25	30.36	-43.7	-49.8	8.4	5.51e-02	0	62	0	499122176	58	7458
2026-01-27 11:07:17.41	241.57	30.44	-43.6	-49.3	8.9	3.02e-02	0	62	0	501219328	58	7068
2026-01-27 11:07:18.42	241.89	30.52	-43.5	-48.9	9.3	2.16e-02	0	62	0	503316480	58	6751
2026-01-27 11:07:19.43	242.22	30.59	-43.3	-48.4	9.8	1.27e-02	0	62	0	504365056	58	6398
2026-01-27 11:07:20.44	242.55	30.67	-43.2	-48.1	10.1	7.43e-03	0	62	0	506462208	58	6175
2026-01-27 11:07:21.45	242.88	30.74	-43.1	-47.9	10.4	5.54e-03	0	62	0	508559360	58	6026
2026-01-27 11:07:22.46	243.21	30.82	-43.0	-47.7	10.6	4.04e-03	0	62	0	510656512	58	5867
2026-01-27 11:07:23.47	243.54	30.89	-42.9	-47.5	10.6	3.33e-03	0	62	0	512753664	57	6128
2026-01-27 11:07:24.48	243.87	30.96	-43.0	-47.6	10.6	3.21e-03	0	62	0	513802240	57	6179
2026-01-27 11:07:25.49	244.21	31.03	-43.0	-47.8	10.5	3.12e-03	0	62	0	515899392	57	6277
2026-01-27 11:07:26.50	244.54	31.10	-43.1	-47.8	10.4	3.93e-03	0	62	0	517996544	57	6338
2026-01-27 11:07:27.51	244.88	31.17	-43.0	-47.8	10.5	4.77e-03	0	63	0	520093696	57	6275
2026-01-27 11:07:28.52	245.22	31.24	-43.0	-47.7	10.6	4.13e-03	0	62	0	522190848	57	6210
2026-01-27 11:07:29.53	245.56	31.31	-43.0	-47.6	10.6	3.85e-03	0	62	0	523239424	57	6142
2026-01-27 11:07:30.54	245.90	31.38	-42.9	-47.4	10.9	2.59e-03	0	62	0	525336576	57	6041
2026-01-27 11:07:31.55	246.24	31.44	-42.8	-47.2	11.0	1.82e-03	0	62	0	527433728	57	5901
2026-01-27 11:07:32.57	246.59	31.51	-42.8	-47.2	11.1	1.51e-03	0	62	0	529530880	57	5864
2026-01-27 11:07:33.58	246.94	31.57	-42.8	-47.3	11.0	1.79e-03	0	62	0	531628032	57	5926
2026-01-27 11:07:34.59	247.29	31.63	-43.0	-47.8	10.5	3.16e-03	0	62	0	532676608	57	6284
2026-01-27 11:07:35.60	247.63	31.69	-43.2	-48.3	10.0	6.09e-03	0	62	0	534773760	57	6659
2026-01-27 11:07:36.61	247.98	31.76	-43.4	-48.7	9.5	1.29e-02	0	62	0	536870912	57	6996
2026-01-27 11:07:37.62	248.34	31.81	-43.4	-48.6	9.5	1.39e-02	0	62	0	538968064	57	6938
2026-01-27 11:07:38.63	248.69	31.87	-43.2	-48.3	10.0	9.98e-03	0	62	0	541065216	57	6653
2026-01-27 11:07:39.64	249.04	31.93	-43.1	-47.8	10.4	7.22e-03	0	62	0	542113792	57	6321
2026-01-27 11:07:40.65	249.40	31.99	-43.0	-47.7	10.6	3.66e-03	0	62	0	544210944	57	6226
2026-01-27 11:07:41.66	249.75	32.04	-42.9	-47.4	10.9	2.89e-03	0	62	0	546308096	57	5997
2026-01-27 11:07:42.67	250.11	32.10	-42.9	-47.4	10.8	2.44e-03	0	62	0	548405248	57	6028
2026-01-27 11:07:43.68	250.47	32.15	-43.0	-47.6	10.7	2.82e-03	0	62	0	550502400	57	6146
2026-01-27 11:07:44.69	250.83	32.20	-43.0	-47.8	10.5	3.43e-03	0	62	0	551550976	57	6292
2026-01-27 11:07:45.70	251.19	32.25	-42.9	-47.5	10.8	3.51e-03	0	62	0	553648128	57	6095
2026-01-27 11:07:46.71	251.55	32.30	-42.9	-47.5	10.7	2.64e-03	0	62	0	555745280	57	6115
2026-01-27 11:07:47.72	251.91	32.35	-42.9	-47.5	10.8	2.82e-03	0	62	0	557842432	57	6084
2026-01-27 11:07:48.73	252.28	32.40	-43.0	-47.7	10.6	2.81e-03	0	62	0	559939584	57	6214
2026-01-27 11:07:49.74	252.64	32.45	-43.1	-48.0	10.2	4.75e-03	0	62	0	562036736	57	6468
2026-01-27 11:07:50.75	253.01	32.49	-43.1	-48.0	10.2	6.22e-03	0	62	0	563085312	57	6470
2026-01-27 11:07:51.76	253.37	32.53	-43.2	-48.2	10.0	7.04e-03	0	62	0	565182464	57	6584
2026-01-27 11:07:52.77	253.74	32.58	-43.2	-48.2	10.0	7.53e-03	0	62	0	567279616	57	6598
2026-01-27 11:07:53.77	254.11	32.62	-43.2	-48.1	10.2	6.88e-03	0	62	0	569376768	57	6499
2026-01-27 11:07:54.78	254.48	32.66	-43.1	-48.0	10.2	6.18e-03	0	62	0	571473920	57	6470
2026-01-27 11:07:55.79	254.85	32.70	-43.1	-48.0	10.2	6.52e-03	0	62	0	572522496	57	6463
2026-01-27 11:07:56.81	255.22	32.73	-43.1	-48.0	10.3	5.77e-03	0	63	0	574619648	57	6494
2026-01-27 11:07:57.82	255.59	32.77	-43.2	-48.1	10.1	6.66e-03	0	62	0	576716800	57	6544
2026-01-27 11:07:58.83	255.97	32.81	-43.2	-48.1	10.0	6.77e-03	0	62	0	578813952	57	6568
2026-01-27 11:07:59.83	256.34	32.84	-43.3	-48.4	9.9	8.80e-03	0	62	0	580911104	57	6753
2026-01-27 11:08:00.84	256.71	32.87	-43.3	-48.5	9.8	1.03e-02	0	62	0	581959680	57	6812
2026-01-27 11:08:01.85	257.09	32.90	-43.2	-48.1	10.1	9.94e-03	0	62	0	584056832	57	6525
2026-01-27 11:08:02.86	257.46	32.93	-43.1	-48.0	10.3	5.35e-03	0	62	0	586153984	57	6456
2026-01-27 11:08:03.87	257.84	32.96	-42.9	-47.4	10.8	3.62e-03	0	62	0	588251136	57	6041
2026-01-27 11:08:04.88	258.22	32.99	-42.8	-47.2	11.1	1.95e-03	0	62	0	590348288	57	5884
2026-01-27 11:08:05.89	258.59	33.01	-42.9	-47.3	10.9	1.89e-03	0	62	0	591396864	57	5988
2026-01-27 11:08:06.90	258.97	33.04	-43.0	-47.6	10.7	2.52e-03	0	62	0	593494016	57	6159
2026-01-27 11:08:07.91	259.35	33.06	-43.2	-48.1	10.1	4.95e-03	0	62	0	595591168	57	6530
2026-01-27 11:08:08.92	259.73	33.08	-43.4	-48.6	9.6	1.12e-02	0	62	0	597688320	57	6928
2026-01-27 11:08:09.93	260.11	33.10	-43.3	-48.4	9.8	1.12e-02	0	62	0	599785472	57	6764
2026-01-27 11:08:10.94	260.49	33.12	-43.2	-48.3	9.9	9.67e-03	0	62	0	600834048	57	6668
2026-01-27 11:08:11.95	260.87	33.14	-43.2	-48.1	10.1	7.51e-03	0	62	0	602931200	57	6539
2026-01-27 11:08:12.96	261.25	33.16	-43.1	-47.9	10.3	5.38e-03	0	62	0	605028352	57	6410
2026-01-27 11:08:13.97	261.63	33.17	-43.2	-48.1	10.2	5.68e-03	0	63	0	607125504	57	6505
2026-01-27 11:08:14.98	262.01	33.19	-43.3	-48.4	9.8	7.87e-03	0	62	0	609222656	57	6789
2026-01-27 11:08:15.99	262.40	33.20	-43.3	-48.5	9.8	1.10e-02	0	62	0	610271232	57	6819
2026-01-27 11:08:17.00	262.78	33.21	-43.3	-48.5	9.7	1.11e-02	0	62	0	612368384	57	6878
2026-01-27 11:08:18.01	263.16	33.22	-43.3	-48.5	9.7	1.10e-02	0	62	0	614465536	57	6855
2026-01-27 11:08:19.02	263.54	33.23	-43.2	-48.3	10.0	8.36e-03	0	62	0	616562688	57	6649
2026-01-27 11:08:20.03	263.93	33.23	-43.2	-48.2	10.1	6.71e-03	0	62	0	618659840	57	6576
2026-01-27 11:08:21.04	264.31	33.24	-43.0	-47.7	10.5	5.30e-03	0	62	0	619708416	57	6239
2026-01-27 11:08:22.05	264.69	33.24	-42.8	-47.3	11.0	2.16e-03	0	62	0	621805568	57	5948
2026-01-27 11:08:23.06	265.08	33.25	-42.8	-47.2	11.1	1.87e-03	0	62	0	623902720	57	5911
2026-01-27 11:08:24.07	265.46	33.25	-42.9	-47.4	10.8	1.91e-03	0	62	0	625999872	57	6059
2026-01-27 11:08:25.08	265.84	33.25	-42.9	-47.4	10.8	2.52e-03	0	62	0	628097024	57	6056
2026-01-27 11:08:26.08	266.22	33.24	-43.0	-47.6	10.6	3.01e-03	0	62	0	630194176	57	6181
2026-01-27 11:08:27.10	266.61	33.24	-42.9	-47.5	10.7	3.14e-03	0	62	0	631242752	57	6116
2026-01-27 11:08:28.11	266.99	33.24	-43.0	-47.7	10.6	3.18e-03	0	62	0	633339904	57	6224
2026-01-27 11:08:29.12	267.37	33.23	-43.0	-47.7	10.6	3.64e-03	0	62	0	635437056	57	6208
2026-01-27 11:08:30.13	267.76	33.22	-43.0	-47.6	10.7	3.17e-03	0	63	0	637534208	57	6146
2026-01-27 11:08:31.14	268.14	33.21	-43.0	-47.6	10.7	3.00e-03	0	62	0	639631360	57	6170
2026-01-27 11:08:32.15	268.52	33.20	-43.1	-47.8	10.5	3.71e-03	0	62	0	640679936	57	6281
2026-01-27 11:08:33.16	268.90	33.19	-43.2	-48.1	10.1	5.53e-03	0	62	0	642777088	57	6561
2026-01-27 11:08:34.17	269.29	33.18	-43.3	-48.4	9.9	7.79e-03	0	62	0	644874240	57	6736
2026-01-27 11:08:35.18	269.67	33.17	-43.2	-48.1	10.1	7.81e-03	0	62	0	646971392	57	6546
2026-01-27 11:08:36.18	270.04	33.15	-43.0	-47.7	10.6	5.30e-03	0	63	0	649068544	57	6213
2026-01-27 11:08:37.20	270.43	33.13	-42.9	-47.4	10.9	2.59e-03	0	63	0	650117120	57	6005
2026-01-27 11:08:38.20	270.80	33.12	-42.8	-47.1	11.2	1.27e-03	0	62	0	652214272	57	5800
2026-01-27 11:08:39.22	271.19	33.10	-42.8	-47.1	11.2	1.30e-03	0	62	0	654311424	57	5833
2026-01-27 11:08:40.23	271.57	33.07	-42.6	-46.8	11.5	9.84e-04	0	63	0	656408576	57	5628
2026-01-27 11:08:41.24	271.95	33.05	-42.5	-46.6	11.8	6.71e-04	0	62	0	658505728	57	5477
2026-01-27 11:08:42.24	272.32	33.03	-42.6	-46.7	11.6	5.67e-04	0	62	0	659554304	57	5576
2026-01-27 11:08:43.25	272.70	33.00	-42.9	-47.4	10.9	1.27e-03	0	62	0	661651456	57	6009
2026-01-27 11:08:44.26	273.08	32.98	-43.1	-47.8	10.5	3.38e-03	0	62	0	663748608	57	6333
2026-01-27 11:08:45.27	273.45	32.95	-43.2	-48.2	9.9	7.27e-03	0	62	0	665845760	57	6639
2026-01-27 11:08:46.28	273.83	32.92	-43.2	-48.2	10.0	8.05e-03	0	62	0	667942912	57	6634
2026-01-27 11:08:47.29	274.20	32.89	-43.2	-48.3	9.9	6.95e-03	0	62	0	668991488	57	6682
2026-01-27 11:08:48.30	274.58	32.86	-43.3	-48.3	9.9	8.51e-03	0	62	0	671088640	57	6681
2026-01-27 11:08:49.31	274.95	32.82	-43.3	-48.5	9.7	1.07e-02	0	62	0	673185792	57	6845
2026-01-27 11:08:50.32	275.32	32.79	-43.4	-48.7	9.5	1.29e-02	0	63	0	675282944	57	6965
2026-01-27 11:08:51.33	275.69	32.76	-43.3	-48.6	9.7	1.28e-02	0	63	0	677380096	57	6882
2026-01-27 11:08:52.34	276.07	32.72	-43.3	-48.6	9.7	1.23e-02	0	62	0	678428672	57	6888
2026-01-27 11:08:53.35	276.44	32.68	-43.4	-48.8	9.4	1.24e-02	0	63	0	680525824	57	7074
2026-01-27 11:08:54.36	276.81	32.64	-43.5	-48.9	9.3	1.61e-02	0	62	0	682622976	57	7167
2026-01-27 11:08:55.37	277.17	32.60	-43.5	-48.8	9.4	1.67e-02	0	63	0	684720128	57	7110
2026-01-27 11:08:56.38	277.54	32.56	-43.4	-48.8	9.3	1.84e-02	0	63	0	686817280	57	7108
2026-01-27 11:08:57.39	277.91	32.52	-43.5	-49.0	9.2	1.83e-02	0	62	0	687865856	57	7259
2026-01-27 11:08:58.40	278.27	32.47	-43.5	-49.0	9.2	1.94e-02	0	62	0	689963008	57	7261
2026-01-27 11:08:59.41	278.64	32.43	-43.5	-49.1	9.1	2.17e-02	0	63	0	692060160	57	7293
2026-01-27 11:09:00.42	279.00	32.38	-43.6	-49.2	9.0	1.87e-02	0	62	0	694157312	57	7387
2026-01-27 11:09:01.43	279.37	32.33	-43.6	-49.2	9.0	2.45e-02	0	62	0	696254464	57	7419
2026-01-27 11:09:02.44	279.73	32.28	-43.6	-49.4	8.8	2.75e-02	0	62	0	698351616	57	7563
2026-01-27 11:09:03.45	280.09	32.23	-43.6	-49.3	8.8	2.68e-02	0	62	0	699400192	57	7534
2026-01-27 11:09:04.46	280.45	32.18	-43.6	-49.4	8.8	3.05e-02	0	62	0	701497344	57	7583
2026-01-27 11:09:05.46	280.80	32.13	-43.7	-49.5	8.7	3.08e-02	0	63	0	703594496	57	7644
2026-01-27 11:09:06.47	281.16	32.08	-43.6	-49.4	8.8	3.12e-02	0	62	0	705691648	57	7578
2026-01-27 11:09:07.48	281.51	32.02	-43.6	-49.3	8.9	3.01e-02	0	62	0	707788800	57	7493
2026-01-27 11:09:08.49	281.87	31.97	-43.5	-49.1	9.1	2.48e-02	0	63	0	708837376	57	7334
2026-01-27 11:09:09.50	282.22	31.91	-43.5	-49.0	9.3	2.18e-02	0	62	0	710934528	57	7209
2026-01-27 11:09:10.51	282.57	31.85	-43.3	-48.5	9.8	1.62e-02	0	63	0	713031680	57	6819
2026-01-27 11:09:11.52	282.92	31.79	-43.2	-48.2	10.1	8.23e-03	0	63	0	715128832	57	6585
2026-01-27 11:09:12.53	283.27	31.73	-43.0	-47.6	10.6	4.69e-03	0	62	0	717225984	57	6187
2026-01-27 11:09:13.54	283.62	31.67	-43.0	-47.6	10.7	2.70e-03	0	62	0	718274560	57	6134
2026-01-27 11:09:14.55	283.97	31.61	-42.9	-47.5	10.8	2.71e-03	0	62	0	720371712	57	6089
2026-01-27 11:09:15.56	284.32	31.55	-43.0	-47.6	10.6	3.04e-03	0	63	0	722468864	57	6199
2026-01-27 11:09:16.56	284.66	31.48	-43.1	-47.9	10.4	4.31e-03	0	62	0	724566016	57	6355
2026-01-27 11:09:17.58	285.00	31.42	-43.2	-48.0	10.2	4.98e-03	0	63	0	726663168	57	6493
2026-01-27 11:09:18.59	285.34	31.35	-43.2	-48.2	10.1	6.15e-03	0	63	0	727711744	57	6582
2026-01-27 11:09:19.60	285.68	31.29	-43.2	-48.1	10.1	7.50e-03	0	62	0	729808896	57	6561
2026-01-27 11:09:20.61	286.02	31.22	-43.2	-48.1	10.1	7.45e-03	0	63	0	731906048	57	6567
2026-01-27 11:09:21.61	286.36	31.15	-43.1	-48.0	10.2	6.44e-03	0	63	0	734003200	57	6484
2026-01-27 11:09:22.62	286.69	31.08	-43.2	-48.1	10.1	6.94e-03	0	63	0	736100352	57	6517
2026-01-27 11:09:23.63	287.03	31.01	-43.1	-48.1	10.2	6.28e-03	0	63	0	737148928	57	6496
2026-01-27 11:09:24.64	287.36	30.94	-43.1	-48.0	10.3	5.69e-03	0	63	0	739246080	57	6423
2026-01-27 11:09:25.65	287.69	30.87	-43.1	-48.0	10.2	5.38e-03	0	62	0	741343232	57	6479
2026-01-27 11:09:26.66	288.02	30.79	-43.1	-48.0	10.2	6.44e-03	0	62	0	743440384	57	6476
2026-01-27 11:09:27.67	288.35	30.72	-43.0	-47.7	10.5	4.55e-03	0	63	0	745537536	57	6264
2026-01-27 11:09:28.68	288.68	30.64	-42.9	-47.5	10.8	3.39e-03	0	63	0	746586112	57	6085
2026-01-27 11:09:29.69	289.01	30.57	-42.9	-47.5	10.8	2.56e-03	0	63	0	748683264	57	6066
2026-01-27 11:09:30.70	289.33	30.49	-42.9	-47.5	10.8	2.53e-03	0	63	0	750780416	57	6080
2026-01-27 11:09:31.71	289.65	30.42	-43.1	-47.9	10.4	3.48e-03	0	62	0	752877568	57	6353
2026-01-27 11:09:32.73	289.98	30.34	-43.2	-48.1	10.2	4.44e-03	0	63	0	754974720	57	6498
2026-01-27 11:09:33.74	290.30	30.26	-43.3	-48.5	9.7	9.72e-03	0	63	0	756023296	57	6853
2026-01-27 11:09:34.75	290.61	30.18	-43.4	-48.8	9.5	1.43e-02	0	62	0	758120448	57	7052
2026-01-27 11:09:35.76	290.93	30.10	-43.5	-49.0	9.2	1.93e-02	0	62	0	760217600	57	7230
2026-01-27 11:09:36.77	291.25	30.02	-43.4	-48.7	9.4	1.70e-02	0	63	0	762314752	57	7038
2026-01-27 11:09:37.78	291.56	29.94	-43.2	-48.3	9.8	1.14e-02	0	62	0	764411904	57	6675
2026-01-27 11:09:38.79	291.87	29.86	-43.2	-48.1	10.1	8.20e-03	0	63	0	766509056	57	6515
2026-01-27 11:09:39.80	292.18	29.77	-43.0	-47.8	10.5	5.14e-03	0	62	0	767557632	57	6279
2026-01-27 11:09:40.81	292.49	29.69	-43.0	-47.6	10.7	3.55e-03	0	62	0	769654784	57	6143
2026-01-27 11:09:41.82	292.80	29.61	-43.0	-47.6	10.6	3.29e-03	0	63	0	771751936	57	6193
2026-01-27 11:09:42.83	293.10	29.52	-42.9	-47.6	10.7	3.71e-03	0	62	0	773849088	57	6143
2026-01-27 11:09:43.83	293.40	29.44	-43.0	-47.7	10.5	3.40e-03	0	63	0	775946240	57	6256
2026-01-27 11:09:44.85	293.71	29.35	-43.1	-48.1	10.1	5.23e-03	0	62	0	776994816	57	6502
2026-01-27 11:09:45.86	294.01	29.26	-43.2	-48.3	9.9	7.50e-03	0	62	0	779091968	57	6681
2026-01-27 11:09:46.87	294.31	29.18	-43.3	-48.4	9.8	9.80e-03	0	63	0	781189120	57	6744
2026-01-27 11:09:47.88	294.61	29.09	-43.3	-48.4	9.8	9.32e-03	0	63	0	783286272	57	6761
2026-01-27 11:09:48.88	294.90	29.00	-43.3	-48.5	9.6	1.05e-02	0	63	0	785383424	57	6861
2026-01-27 11:09:49.90	295.20	28.91	-43.4	-48.8	9.4	1.53e-02	0	62	0	786432000	57	7068
2026-01-27 11:09:50.91	295.49	28.82	-43.4	-48.9	9.3	1.84e-02	0	63	0	788529152	57	7192
2026-01-27 11:09:51.92	295.78	28.73	-43.5	-49.1	9.1	2.18e-02	0	63	0	790626304	57	7306
2026-01-27 11:09:52.93	296.07	28.64	-43.4	-48.8	9.3	1.91e-02	0	62	0	792723456	57	7118
2026-01-27 11:09:53.94	296.36	28.55	-43.4	-48.7	9.4	1.76e-02	0	63	0	794820608	57	7032
2026-01-27 11:09:54.95	296.64	28.46	-43.3	-48.5	9.7	1.47e-02	0	63	0	795869184	57	6853
2026-01-27 11:09:55.96	296.93	28.37	-43.2	-48.3	9.9	1.06e-02	0	63	0	797966336	57	6671
2026-01-27 11:09:56.97	297.21	28.28	-43.0	-47.8	10.4	6.17e-03	0	62	0	800063488	57	6320
2026-01-27 11:09:57.98	297.49	28.19	-42.9	-47.5	10.6	3.96e-03	0	63	0	802160640	57	6131
2026-01-27 11:09:58.99	297.77	28.09	-42.7	-47.1	11.1	2.51e-03	0	63	0	804257792	57	5847
2026-01-27 11:09:59.99	298.05	28.00	-42.6	-46.8	11.5	1.13e-03	0	62	0	805306368	57	5617
2026-01-27 11:10:01.00	298.33	27.91	-42.5	-46.6	11.7	8.54e-04	0	63	0	807403520	57	5488
2026-01-27 11:10:02.01	298.60	27.81	-42.4	-46.4	11.9	4.51e-04	0	63	0	809500672	56	5665
2026-01-27 11:10:03.02	298.87	27.72	-42.3	-46.3	12.0	3.46e-04	0	63	0	811597824	56	5610
2026-01-27 11:10:04.03	299.15	27.62	-42.3	-46.3	12.0	3.27e-04	0	62	0	813694976	56	5600
2026-01-27 11:10:05.04	299.42	27.53	-42.4	-46.5	11.8	4.03e-04	0	63	0	814743552	56	5749
2026-01-27 11:10:06.05	299.69	27.43	-42.5	-46.7	11.6	6.37e-04	0	62	0	816840704	56	5866
2026-01-27 11:10:07.06	299.95	27.34	-42.7	-47.0	11.3	1.09e-03	0	63	0	818937856	56	6078
2026-01-27 11:10:08.07	300.22	27.24	-42.8	-47.2	11.0	1.67e-03	0	63	0	821035008	56	6258
2026-01-27 11:10:09.08	300.48	27.14	-42.8	-47.4	10.8	2.47e-03	0	63	0	823132160	56	6387
2026-01-27 11:10:10.09	300.74	27.05	-42.9	-47.6	10.6	3.34e-03	0	62	0	824180736	56	6533
2026-01-27 11:10:11.10	301.01	26.95	-43.0	-47.8	10.4	4.35e-03	0	63	0	826277888	56	6655
2026-01-27 11:10:12.11	301.27	26.85	-43.0	-47.8	10.3	4.78e-03	0	63	0	828375040	56	6716
2026-01-27 11:10:13.12	301.52	26.76	-42.8	-47.3	10.9	3.19e-03	0	62	0	830472192	56	6321
2026-01-27 11:10:14.13	301.78	26.66	-42.6	-46.8	11.3	1.43e-03	0	62	0	832569344	56	5992
2026-01-27 11:10:15.14	302.03	26.56	-42.4	-46.5	11.8	8.18e-04	0	63	0	834666496	56	5727
2026-01-27 11:10:16.15	302.29	26.46	-42.2	-46.0	12.2	2.33e-04	0	63	0	835715072	56	5438
2026-01-27 11:10:17.16	302.54	26.36	-42.2	-46.1	12.2	1.91e-04	0	63	0	837812224	56	5482
2026-01-27 11:10:18.17	302.79	26.27	-42.3	-46.1	12.1	1.98e-04	0	63	0	839909376	56	5505
2026-01-27 11:10:19.18	303.04	26.17	-42.4	-46.5	11.8	4.52e-04	0	63	0	842006528	56	5737
2026-01-27 11:10:20.19	303.28	26.07	-42.4	-46.5	11.7	6.56e-04	0	63	0	844103680	56	5727
2026-01-27 11:10:21.19	303.53	25.97	-42.2	-46.0	12.2	3.75e-04	0	62	0	845152256	56	5449
2026-01-27 11:10:22.20	303.77	25.87	-42.0	-45.6	12.6	1.09e-04	0	63	0	847249408	56	5192
2026-01-27 11:10:23.22	304.02	25.77	-41.9	-45.5	12.6	9.07e-05	0	63	0	849346560	55	5436
2026-01-27 11:10:24.23	304.26	25.67	-41.9	-45.6	12.5	9.76e-05	0	62	0	851443712	55	5476
2026-01-27 11:10:25.24	304.50	25.57	-42.0	-45.9	12.2	1.67e-04	0	63	0	853540864	55	5669
2026-01-27 11:10:26.25	304.74	25.47	-42.5	-46.8	11.2	6.84e-04	0	63	0	854589440	55	6280
2026-01-27 11:10:27.26	304.97	25.37	-43.0	-47.7	10.3	3.01e-03	0	63	0	856686592	56	6644
2026-01-27 11:10:28.27	305.21	25.27	-43.2	-48.4	9.7	7.20e-03	0	63	0	858783744	56	7171
2026-01-27 11:10:29.28	305.44	25.17	-43.1	-48.1	10.0	1.05e-02	0	63	0	860880896	56	6944
2026-01-27 11:10:30.29	305.67	25.07	-42.8	-47.3	10.8	4.22e-03	0	63	0	862978048	56	6297
2026-01-27 11:10:31.30	305.90	24.97	-42.5	-46.6	11.6	1.38e-03	0	63	0	864026624	56	5808
2026-01-27 11:10:32.31	306.13	24.87	-42.3	-46.3	11.9	4.81e-04	0	63	0	866123776	56	5604
2026-01-27 11:10:33.32	306.36	24.77	-42.3	-46.2	12.0	3.26e-04	0	63	0	868220928	56	5556
2026-01-27 11:10:34.33	306.59	24.67	-42.5	-46.7	11.5	4.87e-04	0	63	0	870318080	56	5858
2026-01-27 11:10:35.34	306.81	24.57	-42.8	-47.3	10.9	1.60e-03	0	63	0	872415232	56	6295
2026-01-27 11:10:36.35	307.04	24.47	-42.8	-47.4	10.8	3.09e-03	0	62	0	873463808	56	6359
2026-01-27 11:10:37.36	307.26	24.37	-42.5	-46.7	11.5	1.60e-03	0	63	0	875560960	56	5861
2026-01-27 11:10:38.37	307.48	24.26	-42.1	-46.0	12.2	3.20e-04	0	62	0	877658112	56	5429
2026-01-27 11:10:39.38	307.70	24.16	-41.7	-45.2	12.8	6.94e-05	0	63	0	879755264	55	5251
2026-01-27 11:10:40.39	307.92	24.06	-41.7	-45.2	12.9	5.11e-05	0	62	0	881852416	55	5231
2026-01-27 11:10:41.40	308.13	23.96	-41.6	-45.0	13.0	3.43e-05	0	63	0	882900992	55	5149
2026-01-27 11:10:42.41	308.35	23.86	-41.8	-45.4	12.6	6.17e-05	0	63	0	884998144	55	5363
2026-01-27 11:10:43.42	308.56	23.76	-42.1	-46.1	11.9	1.88e-04	0	63	0	887095296	55	5844
2026-01-27 11:10:44.43	308.78	23.66	-42.2	-46.3	11.7	5.16e-04	0	62	0	889192448	55	5939
2026-01-27 11:10:45.44	308.99	23.56	-42.2	-46.2	11.8	6.36e-04	0	63	0	891289600	55	5884
2026-01-27 11:10:46.45	309.20	23.46	-42.0	-45.8	12.2	3.70e-04	0	62	0	892338176	55	5612
2026-01-27 11:10:47.46	309.40	23.36	-41.7	-45.3	12.7	1.36e-04	0	63	0	894435328	55	5335
2026-01-27 11:10:48.47	309.61	23.25	-41.7	-45.2	12.8	4.95e-05	0	63	0	896532480	55	5242
2026-01-27 11:10:49.48	309.82	23.15	-41.7	-45.2	12.8	6.10e-05	0	62	0	898629632	55	5279
2026-01-27 11:10:50.49	310.02	23.05	-41.9	-45.6	12.4	7.85e-05	0	62	0	900726784	55	5481
2026-01-27 11:10:51.50	310.23	22.95	-42.1	-46.0	11.9	3.06e-04	0	62	0	902823936	55	5766
2026-01-27 11:10:52.51	310.43	22.85	-42.3	-46.5	11.4	7.04e-04	0	63	0	903872512	55	6102
2026-01-27 11:10:53.52	310.63	22.75	-42.4	-46.9	11.1	1.35e-03	0	62	0	905969664	55	6348
2026-01-27 11:10:54.53	310.83	22.65	-42.3	-46.6	11.4	1.14e-03	0	63	0	908066816	55	6136
2026-01-27 11:10:55.54	311.03	22.55	-42.2	-46.3	11.6	7.67e-04	0	63	0	910163968	55	5974
2026-01-27 11:10:56.55	311.22	22.45	-41.9	-45.8	12.2	4.85e-04	0	62	0	912261120	55	5598
2026-01-27 11:10:57.56	311.42	22.35	-41.7	-45.3	12.7	1.72e-04	0	63	0	913309696	55	5285
2026-01-27 11:10:58.57	311.61	22.25	-41.6	-45.2	12.7	9.15e-05	0	63	0	915406848	55	5247
2026-01-27 11:10:59.58	311.81	22.15	-41.5	-45.0	13.0	5.26e-05	0	62	0	917504000	55	5101
2026-01-27 11:11:00.59	312.00	22.05	-41.5	-45.0	13.0	3.96e-05	0	62	0	919601152	55	5112
2026-01-27 11:11:01.60	312.19	21.94	-41.6	-45.1	12.9	5.56e-05	0	63	0	921698304	55	5162
2026-01-27 11:11:02.61	312.38	21.84	-41.6	-45.2	12.7	5.72e-05	0	63	0	922746880	55	5236
2026-01-27 11:11:03.62	312.57	21.74	-41.5	-45.0	12.9	4.11e-05	0	63	0	924844032	55	5153
2026-01-27 11:11:04.63	312.76	21.64	-41.4	-44.9	13.1	3.66e-05	0	62	0	926941184	54	5349
2026-01-27 11:11:05.64	312.94	21.54	-41.4	-44.7	13.2	2.28e-05	0	63	0	929038336	54	5264
2026-01-27 11:11:06.65	313.13	21.44	-41.3	-44.5	13.4	1.83e-05	0	63	0	931135488	54	5148
2026-01-27 11:11:07.66	313.31	21.34	-41.2	-44.5	13.5	1.75e-05	0	62	0	932184064	54	5125
2026-01-27 11:11:08.67	313.49	21.25	-41.4	-44.7	13.2	2.05e-05	0	62	0	934281216	54	5271
2026-01-27 11:11:09.68	313.68	21.15	-41.5	-45.0	13.0	2.44e-05	0	63	0	936378368	54	5427
2026-01-27 11:11:10.69	313.86	21.05	-41.7	-45.3	12.6	8.85e-05	0	63	0	938475520	54	5603
2026-01-27 11:11:11.70	314.04	20.95	-41.6	-45.2	12.7	8.77e-05	0	63	0	940572672	54	5536
2026-01-27 11:11:12.71	314.21	20.85	-41.6	-45.2	12.7	8.01e-05	0	63	0	941621248	54	5573
2026-01-27 11:11:13.72	314.39	20.75	-41.4	-44.9	13.0	5.87e-05	0	63	0	943718400	54	5379
2026-01-27 11:11:14.73	314.57	20.65	-41.3	-44.6	13.3	1.90e-05	0	62	0	945815552	54	5180
2026-01-27 11:11:15.74	314.74	20.55	-41.2	-44.5	13.4	2.13e-05	0	62	0	947912704	54	5119
2026-01-27 11:11:16.75	314.92	20.45	-41.2	-44.4	13.5	1.22e-05	0	62	0	950009856	54	5089
2026-01-27 11:11:17.76	315.09	20.35	-41.1	-44.4	13.5	7.60e-06	0	62	0	951058432	54	5054
2026-01-27 11:11:18.77	315.26	20.25	-41.1	-44.2	13.7	3.00e-06	0	62	0	953155584	54	4981
2026-01-27 11:11:19.78	315.43	20.16	-41.1	-44.2	13.7	8.30e-06	0	62	0	955252736	54	4959
2026-01-27 11:11:20.79	315.60	20.06	-41.1	-44.3	13.6	1.22e-05	0	62	0	957349888	54	5032
2026-01-27 11:11:21.80	315.77	19.96	-41.1	-44.3	13.6	3.00e-06	0	63	0	959447040	54	4984
2026-01-27 11:11:22.81	315.94	19.86	-41.1	-44.3	13.6	9.10e-06	0	62	0	960495616	54	4986
2026-01-27 11:11:23.82	316.10	19.76	-40.9	-44.0	13.8	5.30e-06	0	63	0	962592768	53	5149
2026-01-27 11:11:24.83	316.27	19.67	-40.9	-44.0	13.8	4.50e-06	0	63	0	964689920	53	5146
2026-01-27 11:11:25.84	316.43	19.57	-40.9	-43.9	13.9	3.00e-06	0	63	0	966787072	53	5088
2026-01-27 11:11:26.85	316.59	19.47	-40.8	-43.8	14.0	3.00e-06	0	62	0	968884224	53	5019
2026-01-27 11:11:27.86	316.76	19.38	-40.8	-43.9	14.0	3.00e-06	0	63	0	970981376	53	5052
2026-01-27 11:11:28.87	316.92	19.28	-40.9	-44.1	13.8	4.50e-06	0	63	0	972029952	53	5172
2026-01-27 11:11:29.88	317.08	19.18	-40.9	-44.0	13.9	3.00e-06	0	62	0	974127104	53	5122
2026-01-27 11:11:30.89	317.24	19.09	-41.0	-44.2	13.6	4.50e-06	0	62	0	976224256	53	5242
2026-01-27 11:11:31.90	317.40	18.99	-41.0	-44.1	13.7	3.80e-06	0	62	0	978321408	53	5193
2026-01-27 11:11:32.91	317.55	18.89	-41.1	-44.3	13.6	8.30e-06	0	62	0	980418560	53	5289
2026-01-27 11:11:33.92	317.71	18.80	-41.1	-44.3	13.5	9.10e-06	0	63	0	981467136	53	5318
2026-01-27 11:11:34.93	317.86	18.70	-41.2	-44.5	13.3	8.30e-06	0	63	0	983564288	53	5423
2026-01-27 11:11:35.93	318.02	18.61	-41.2	-44.5	13.3	2.36e-05	0	63	0	985661440	53	5456
2026-01-27 11:11:36.94	318.17	18.51	-41.1	-44.4	13.4	1.44e-05	0	62	0	987758592	53	5396
2026-01-27 11:11:37.96	318.33	18.41	-41.2	-44.6	13.2	2.36e-05	0	63	0	989855744	53	5469
2026-01-27 11:11:38.97	318.48	18.32	-41.2	-44.5	13.3	2.05e-05	0	63	0	990904320	53	5414
2026-01-27 11:11:39.98	318.63	18.22	-41.2	-44.5	13.3	2.36e-05	0	63	0	993001472	53	5415
2026-01-27 11:11:40.99	318.78	18.13	-41.2	-44.5	13.3	1.37e-05	0	62	0	995098624	53	5443
2026-01-27 11:11:42.00	318.93	18.03	-41.1	-44.4	13.4	2.44e-05	0	63	0	997195776	53	5358
2026-01-27 11:11:43.01	319.07	17.94	-41.1	-44.3	13.5	9.90e-06	0	62	0	999292928	53	5301
2026-01-27 11:11:44.02	319.22	17.85	-41.0	-44.3	13.5	1.52e-05	0	62	0	1000341504	53	5291
2026-01-27 11:11:45.03	319.37	17.75	-41.0	-44.2	13.6	8.30e-06	0	63	0	1002438656	53	5264
2026-01-27 11:11:46.04	319.51	17.66	-41.0	-44.3	13.5	1.14e-05	0	63	0	1004535808	53	5303
2026-01-27 11:11:47.05	319.66	17.56	-41.1	-44.4	13.3	1.14e-05	0	62	0	1006632960	53	5393
2026-01-27 11:11:48.06	319.80	17.47	-41.2	-44.6	13.2	1.67e-05	0	62	0	1008730112	53	5502
2026-01-27 11:11:49.07	319.94	17.38	-41.3	-44.7	13.1	2.36e-05	0	63	0	1010827264	53	5553
2026-01-27 11:11:50.08	320.09	17.28	-41.4	-44.9	12.9	5.56e-05	0	63	0	1011875840	53	5667
2026-01-27 11:11:51.09	320.23	17.19	-41.4	-44.9	12.8	4.04e-05	0	62	0	1013972992	53	5704
2026-01-27 11:11:52.10	320.37	17.10	-41.4	-44.9	12.8	4.80e-05	0	62	0	1016070144	53	5709
2026-01-27 11:11:53.11	320.51	17.01	-41.4	-45.0	12.8	6.56e-05	0	62	0	1018167296	53	5735
2026-01-27 11:11:54.12	320.65	16.91	-41.3	-44.8	12.9	5.18e-05	0	62	0	1020264448	53	5624
2026-01-27 11:11:55.12	320.78	16.82	-41.4	-44.9	12.8	4.42e-05	0	62	0	1021313024	53	5700
2026-01-27 11:11:56.13	320.92	16.73	-41.4	-44.9	12.8	5.95e-05	0	62	0	1023410176	53	5697
2026-01-27 11:11:57.14	321.05	16.64	-41.4	-44.9	12.8	4.73e-05	0	62	0	1025507328	53	5693
2026-01-27 11:11:58.15	321.19	16.55	-41.4	-45.0	12.7	7.62e-05	0	62	0	1027604480	53	5741
2026-01-27 11:11:59.16	321.32	16.46	-41.5	-45.1	12.7	8.39e-05	0	63	0	1029701632	53	5795
2026-01-27 11:12:00.18	321.46	16.36	-41.5	-45.1	12.6	1.09e-04	0	62	0	1030750208	53	5847
2026-01-27 11:12:01.18	321.59	16.27	-41.6	-45.3	12.3	1.52e-04	0	62	0	1032847360	53	5990
2026-01-27 11:12:02.20	321.73	16.18	-41.6	-45.4	12.3	1.94e-04	0	63	0	1034944512	53	6003
2026-01-27 11:12:03.21	321.86	16.09	-41.7	-45.5	12.1	1.91e-04	0	62	0	1037041664	53	6120
2026-01-27 11:12:04.22	321.99	16.00	-41.7	-45.5	12.1	2.56e-04	0	62	0	1039138816	53	6119
2026-01-27 11:12:05.23	322.12	15.91	-41.6	-45.3	12.4	2.19e-04	0	62	0	1040187392	53	5956
2026-01-27 11:12:06.24	322.25	15.82	-41.6	-45.4	12.2	1.88e-04	0	63	0	1042284544	53	6052
2026-01-27 11:12:07.25	322.37	15.73	-41.6	-45.4	12.3	2.10e-04	0	62	0	1044381696	53	6030
2026-01-27 11:12:08.26	322.50	15.64	-41.6	-45.4	12.3	1.91e-04	0	63	0	1046478848	53	6044
2026-01-27 11:12:09.27	322.63	15.55	-41.7	-45.6	12.1	2.92e-04	0	62	0	1048576000	53	6176
2026-01-27 11:12:10.28	322.76	15.46	-41.7	-45.6	12.1	2.84e-04	0	63	0	1049624576	54	5812
2026-01-27 11:12:11.29	322.88	15.37	-41.7	-45.6	12.1	2.55e-04	0	62	0	1051721728	54	5814
2026-01-27 11:12:12.30	323.01	15.28	-41.8	-45.8	11.9	3.92e-04	0	63	0	1053818880	54	5932
2026-01-27 11:12:13.31	323.13	15.20	-41.8	-45.7	11.9	4.28e-04	0	63	0	1055916032	54	5909
2026-01-27 11:12:14.32	323.25	15.11	-41.9	-46.1	11.6	5.31e-04	0	63	0	1058013184	54	6142
2026-01-27 11:12:15.33	323.38	15.02	-41.9	-46.0	11.6	7.18e-04	0	63	0	1059061760	54	6128
2026-01-27 11:12:16.34	323.50	14.93	-41.9	-46.1	11.5	7.74e-04	0	63	0	1061158912	54	6180
2026-01-27 11:12:17.35	323.62	14.84	-42.0	-46.3	11.3	1.11e-03	0	63	0	1063256064	54	6291
2026-01-27 11:12:18.36	323.74	14.76	-42.0	-46.2	11.4	9.77e-04	0	62	0	1065353216	54	6274
2026-01-27 11:12:19.37	323.86	14.67	-42.1	-46.4	11.2	1.30e-03	0	63	0	1067450368	54	6394
2026-01-27 11:12:20.38	323.98	14.58	-42.1	-46.4	11.2	1.51e-03	0	62	0	1068498944	54	6386
2026-01-27 11:12:21.39	324.10	14.49	-42.1	-46.5	11.1	1.58e-03	0	63	0	1070596096	54	6474
2026-01-27 11:12:22.40	324.21	14.41	-42.1	-46.6	11.0	1.99e-03	0	63	0	1072693248	54	6498
2026-01-27 11:12:23.41	324.33	14.32	-42.1	-46.6	11.0	1.61e-03	0	63	0	1074790400	54	6505
2026-01-27 11:12:24.42	324.45	14.23	-42.1	-46.5	11.1	1.55e-03	0	62	0	1076887552	54	6471
2026-01-27 11:12:25.43	324.56	14.15	-42.1	-46.5	11.1	1.70e-03	0	62	0	1078984704	54	6432
2026-01-27 11:12:26.44	324.68	14.06	-42.0	-46.4	11.2	1.39e-03	0	63	0	1080033280	54	6354
2026-01-27 11:12:27.45	324.79	13.98	-42.1	-46.4	11.1	1.43e-03	0	63	0	1082130432	54	6415
2026-01-27 11:12:28.46	324.91	13.89	-41.9	-46.1	11.5	9.57e-04	0	63	0	1084227584	54	6175
2026-01-27 11:12:29.47	325.02	13.81	-41.8	-45.9	11.7	5.84e-04	0	62	0	1086324736	54	6015
2026-01-27 11:12:30.48	325.13	13.72	-41.8	-45.9	11.7	6.57e-04	0	63	0	1088421888	54	6005
2026-01-27 11:12:31.49	325.25	13.64	-41.8	-45.9	11.7	4.84e-04	0	62	0	1089470464	54	6030
2026-01-27 11:12:32.51	325.36	13.55	-41.7	-45.8	11.8	4.61e-04	0	62	0	1091567616	54	5928
2026-01-27 11:12:33.52	325.47	13.47	-41.8	-45.9	11.7	5.13e-04	0	62	0	1093664768	54	5996
2026-01-27 11:12:34.53	325.58	13.38	-41.8	-45.8	11.7	5.64e-04	0	63	0	1095761920	54	5980
2026-01-27 11:12:35.54	325.69	13.30	-41.9	-46.0	11.5	5.75e-04	0	62	0	1097859072	54	6109
2026-01-27 11:12:36.55	325.80	13.21	-41.9	-46.0	11.5	7.36e-04	0	63	0	1098907648	54	6129
2026-01-27 11:12:37.56	325.91	13.13	-41.9	-46.1	11.4	8.42e-04	0	63	0	1101004800	54	6181
2026-01-27 11:12:38.57	326.02	13.05	-42.0	-46.4	11.1	1.41e-03	0	62	0	1103101952	54	6396
2026-01-27 11:12:39.58	326.12	12.96	-42.1	-46.5	11.0	1.84e-03	0	63	0	1105199104	54	6481
2026-01-27 11:12:40.59	326.23	12.88	-42.1	-46.6	10.8	2.11e-03	0	63	0	1107296256	54	6551
2026-01-27 11:12:41.60	326.34	12.80	-42.1	-46.6	10.8	2.67e-03	0	63	0	1108344832	54	6554
2026-01-27 11:12:42.61	326.44	12.71	-42.1	-46.7	10.8	2.56e-03	0	63	0	1110441984	54	6616
2026-01-27 11:12:43.62	326.55	12.63	-42.2	-46.9	10.6	2.80e-03	0	63	0	1112539136	54	6727
2026-01-27 11:12:44.63	326.65	12.55	-42.1	-46.6	10.9	2.45e-03	0	63	0	1114636288	54	6515
2026-01-27 11:12:45.64	326.75	12.47	-42.0	-46.3	11.1	1.82e-03	0	63	0	1116733440	54	6342
2026-01-27 11:12:46.65	326.86	12.39	-41.9	-46.2	11.3	1.42e-03	0	63	0	1117782016	54	6214
2026-01-27 11:12:47.66	326.96	12.30	-41.8	-46.0	11.4	1.05e-03	0	63	0	1119879168	54	6116
2026-01-27 11:12:48.67	327.06	12.22	-41.8	-46.0	11.5	7.91e-04	0	63	0	1121976320	54	6081
2026-01-27 11:12:49.68	327.17	12.14	-41.7	-45.7	11.7	7.38e-04	0	63	0	1124073472	54	5915
2026-01-27 11:12:50.69	327.27	12.06	-41.6	-45.6	11.9	5.03e-04	0	63	0	1126170624	54	5813
2026-01-27 11:12:51.70	327.37	11.98	-41.6	-45.6	11.9	3.84e-04	0	63	0	1127219200	54	5802
2026-01-27 11:12:52.71	327.47	11.90	-41.6	-45.5	11.9	3.49e-04	0	63	0	1129316352	54	5781
2026-01-27 11:12:53.72	327.57	11.82	-41.6	-45.5	12.0	3.78e-04	0	63	0	1131413504	54	5753
2026-01-27 11:12:54.73	327.67	11.74	-41.6	-45.6	11.8	3.75e-04	0	62	0	1133510656	54	5832
2026-01-27 11:12:55.74	327.76	11.66	-41.6	-45.6	11.8	5.26e-04	0	63	0	1135607808	54	5817
2026-01-27 11:12:56.75	327.86	11.58	-41.7	-45.8	11.6	4.55e-04	0	63	0	1136656384	54	5966
2026-01-27 11:12:57.77	327.96	11.50	-41.7	-45.7	11.7	6.20e-04	0	62	0	1138753536	54	5909
2026-01-27 11:12:58.78	328.06	11.42	-41.8	-46.0	11.5	7.15e-04	0	62	0	1140850688	54	6087
2026-01-27 11:12:59.79	328.15	11.34	-41.8	-46.0	11.4	8.73e-04	0	63	0	1142947840	54	6119
2026-01-27 11:13:00.80	328.25	11.26	-41.8	-46.1	11.2	1.32e-03	0	63	0	1145044992	54	6189
2026-01-27 11:13:01.81	328.35	11.18	-41.8	-46.1	11.3	1.08e-03	0	62	0	1147142144	54	6151
2026-01-27 11:13:02.82	328.44	11.10	-41.8	-46.1	11.3	1.44e-03	0	62	0	1148190720	54	6197
2026-01-27 11:13:03.83	328.54	11.02	-41.8	-46.1	11.2	1.31e-03	0	63	0	1150287872	54	6180
2026-01-27 11:13:04.84	328.63	10.94	-41.8	-46.2	11.1	1.32e-03	0	62	0	1152385024	54	6241
2026-01-27 11:13:05.85	328.72	10.86	-41.8	-46.2	11.2	1.17e-03	0	62	0	1154482176	54	6215
2026-01-27 11:13:06.86	328.82	10.79	-41.7	-46.0	11.4	1.46e-03	0	62	0	1156579328	54	6065
2026-01-27 11:13:07.87	328.91	10.71	-41.7	-45.9	11.4	1.08e-03	0	63	0	1157627904	54	6061
2026-01-27 11:13:08.88	329.00	10.63	-41.8	-46.2	11.1	1.38e-03	0	62	0	1159725056	54	6233
2026-01-27 11:13:09.89	329.09	10.55	-41.8	-46.1	11.3	1.17e-03	0	63	0	1161822208	54	6132
2026-01-27 11:13:10.90	329.18	10.48	-41.7	-46.0	11.4	1.20e-03	0	62	0	1163919360	54	6063
2026-01-27 11:13:11.91	329.28	10.40	-41.7	-46.0	11.3	9.16e-04	0	63	0	1166016512	54	6085
2026-01-27 11:13:12.92	329.37	10.32	-41.7	-46.0	11.3	9.76e-04	0	63	0	1167065088	54	6091
