passes_logs/2026/01/27/R2.0S_Moscow/R2.0S_Moscow__20260127_131833_FENGYUN_3D_rec.log

#Pass ID: 20260127_131833_FENGYUN 3D
#Satellite: FENGYUN 3D
#Configuration: FENGYUN 3D
#almurnet v.1.7.20251203
#Start time: 2026-01-27 13:18:35

#Version: 2.2.20231116
#Station: R2.0S_Moscow
#Location: 37.707566 lon 55.798166 lat
#TLE: 1 43010U 17072A   26026.91415486  .00000072  00000+0  55983-4 0  9991
#TLE: 2 43010  98.9962 358.9161 0002508  89.0320 271.1142 14.19700283424949

#Time	Az	El	Level	Level2	SNR	BER	BlckErr	Temp	State	Recorded	gain1	gain2
2026-01-27 13:18:35.37	200.22	2.13	-44.0	-55.6	3.8	8.45e-01	0	57	0	0	59	13739
2026-01-27 13:18:36.38	200.28	2.19	-44.0	-55.5	3.8	8.46e-01	0	57	104	0	59	13655
2026-01-27 13:18:37.39	200.35	2.24	-44.0	-55.5	3.8	8.47e-01	0	57	104	0	59	13699
2026-01-27 13:18:38.40	200.41	2.30	-44.0	-55.5	3.8	8.46e-01	0	57	104	0	59	13680
2026-01-27 13:18:39.41	200.48	2.36	-44.0	-55.5	3.8	8.46e-01	0	57	104	0	59	13679
2026-01-27 13:18:40.42	200.54	2.42	-44.0	-55.5	3.8	8.46e-01	0	57	104	0	59	13680
2026-01-27 13:18:41.44	200.61	2.48	-44.0	-55.5	3.8	8.45e-01	0	57	104	0	59	13681
2026-01-27 13:18:42.45	200.67	2.54	-44.0	-55.5	3.8	8.47e-01	0	57	104	0	59	13620
2026-01-27 13:18:43.46	200.74	2.60	-44.0	-55.5	3.8	8.45e-01	0	57	104	0	59	13683
2026-01-27 13:18:44.47	200.80	2.66	-44.0	-55.6	3.8	8.48e-01	0	57	104	0	59	13729
2026-01-27 13:18:45.48	200.87	2.72	-44.0	-55.5	3.8	8.45e-01	0	57	104	0	59	13656
2026-01-27 13:18:46.49	200.93	2.77	-44.0	-55.5	3.8	8.46e-01	0	58	104	0	59	13665
2026-01-27 13:18:47.50	201.00	2.83	-44.0	-55.5	3.8	8.46e-01	0	58	104	0	59	13633
2026-01-27 13:18:48.51	201.06	2.89	-44.0	-55.5	3.8	8.46e-01	0	58	104	0	59	13702
2026-01-27 13:18:49.52	201.13	2.95	-44.0	-55.5	3.8	8.47e-01	0	58	104	0	59	13703
2026-01-27 13:18:50.53	201.20	3.01	-44.0	-55.5	3.8	8.45e-01	0	57	104	0	59	13695
2026-01-27 13:18:51.54	201.27	3.07	-44.0	-55.5	3.8	8.46e-01	0	58	104	0	59	13673
2026-01-27 13:18:52.55	201.33	3.13	-44.0	-55.5	3.8	8.47e-01	0	58	104	0	59	13695
2026-01-27 13:18:53.56	201.40	3.19	-44.0	-55.5	3.8	8.46e-01	0	58	104	0	59	13717
2026-01-27 13:18:54.57	201.47	3.25	-44.0	-55.5	3.8	8.47e-01	0	58	104	0	59	13684
2026-01-27 13:18:55.58	201.54	3.31	-44.0	-55.5	3.8	8.46e-01	0	58	104	0	59	13692
2026-01-27 13:18:56.59	201.61	3.37	-44.0	-55.5	3.8	8.45e-01	0	58	104	0	59	13684
2026-01-27 13:18:57.60	201.67	3.43	-44.0	-55.5	3.8	8.45e-01	0	58	104	0	59	13664
2026-01-27 13:18:58.61	201.74	3.49	-44.0	-55.5	3.8	8.47e-01	0	58	104	0	59	13659
2026-01-27 13:18:59.62	201.81	3.55	-44.0	-55.5	3.8	8.46e-01	0	58	104	0	59	13693
2026-01-27 13:19:00.63	201.88	3.61	-44.0	-55.5	3.8	8.45e-01	0	58	104	0	59	13684
2026-01-27 13:19:01.64	201.95	3.68	-44.0	-55.5	3.8	8.45e-01	0	58	104	0	59	13710
2026-01-27 13:19:02.65	202.02	3.74	-44.0	-55.5	3.8	8.47e-01	0	58	104	0	59	13685
2026-01-27 13:19:03.66	202.09	3.80	-44.0	-55.5	3.8	8.46e-01	0	58	104	0	59	13656
2026-01-27 13:19:04.67	202.16	3.86	-44.0	-55.5	3.8	8.46e-01	0	58	104	0	59	13687
2026-01-27 13:19:05.68	202.24	3.92	-44.0	-55.5	3.8	8.46e-01	0	58	104	0	59	13698
2026-01-27 13:19:06.69	202.31	3.98	-44.0	-55.5	3.8	8.47e-01	0	58	104	0	59	13591
2026-01-27 13:19:07.69	202.38	4.04	-44.0	-55.5	3.8	8.46e-01	0	59	104	0	59	13640
2026-01-27 13:19:08.70	202.45	4.10	-44.0	-55.5	3.8	8.46e-01	0	58	104	0	59	13673
2026-01-27 13:19:09.71	202.52	4.16	-43.9	-55.5	3.8	8.47e-01	0	59	104	0	59	13702
2026-01-27 13:19:10.72	202.59	4.23	-44.0	-55.5	3.8	8.47e-01	0	58	104	0	59	13674
2026-01-27 13:19:11.73	202.67	4.29	-44.0	-55.5	3.8	8.46e-01	0	59	104	0	59	13681
2026-01-27 13:19:12.74	202.74	4.35	-44.0	-55.5	3.8	8.47e-01	0	59	104	0	59	13627
2026-01-27 13:19:13.75	202.81	4.41	-44.0	-55.5	3.8	8.45e-01	0	59	104	0	59	13679
2026-01-27 13:19:14.76	202.89	4.47	-44.0	-55.5	3.8	8.46e-01	0	59	104	0	59	13637
2026-01-27 13:19:15.77	202.96	4.54	-44.0	-55.5	3.8	8.45e-01	0	59	104	0	59	13647
2026-01-27 13:19:16.79	203.04	4.60	-44.0	-55.5	3.8	8.46e-01	0	59	104	0	59	13645
2026-01-27 13:19:17.79	203.11	4.66	-44.0	-55.5	3.8	8.46e-01	0	59	104	0	59	13614
2026-01-27 13:19:18.80	203.18	4.72	-44.0	-55.5	3.8	8.46e-01	0	59	104	0	59	13672
2026-01-27 13:19:19.82	203.26	4.79	-44.0	-55.5	3.8	8.47e-01	0	59	104	0	59	13687
2026-01-27 13:19:20.83	203.34	4.85	-44.0	-55.5	3.8	8.46e-01	0	59	104	0	59	13598
2026-01-27 13:19:21.84	203.41	4.91	-44.0	-55.5	3.8	8.48e-01	0	59	104	0	59	13653
2026-01-27 13:19:22.85	203.49	4.97	-44.0	-55.5	3.8	8.46e-01	0	59	104	0	59	13619
2026-01-27 13:19:23.86	203.56	5.04	-44.0	-55.5	3.8	8.46e-01	0	59	104	0	59	13666
2026-01-27 13:19:24.86	203.64	5.10	-44.0	-55.4	3.8	8.46e-01	0	59	104	0	59	13562
2026-01-27 13:19:25.87	203.72	5.16	-44.0	-55.4	3.8	8.45e-01	0	59	104	0	59	13539
2026-01-27 13:19:26.88	203.79	5.23	-44.0	-55.5	3.8	8.47e-01	0	59	104	0	59	13583
2026-01-27 13:19:27.90	203.87	5.29	-44.0	-55.4	3.8	8.47e-01	0	59	104	0	59	13552
2026-01-27 13:19:28.91	203.95	5.35	-44.0	-55.4	3.8	8.47e-01	0	59	104	0	59	13507
2026-01-27 13:19:29.92	204.03	5.42	-44.0	-55.4	3.8	8.47e-01	0	59	104	0	59	13435
2026-01-27 13:19:30.93	204.11	5.48	-43.9	-55.3	3.8	8.47e-01	0	60	104	0	59	13328
2026-01-27 13:19:31.94	204.19	5.55	-43.9	-55.1	3.8	8.46e-01	0	59	104	0	59	13037
2026-01-27 13:19:32.95	204.27	5.61	-43.9	-54.8	3.8	8.45e-01	0	59	104	0	59	12653
2026-01-27 13:19:33.96	204.35	5.67	-43.9	-54.5	3.8	8.45e-01	0	59	104	0	59	12185
2026-01-27 13:19:34.97	204.43	5.74	-43.8	-54.3	3.8	8.46e-01	0	59	104	0	59	11823
2026-01-27 13:19:35.98	204.51	5.80	-43.8	-54.2	3.8	8.46e-01	0	59	104	0	59	11746
2026-01-27 13:19:36.99	204.59	5.87	-43.8	-53.7	3.8	8.46e-01	0	60	104	0	59	11093
2026-01-27 13:19:38.00	204.67	5.93	-43.7	-52.9	3.8	8.44e-01	0	59	104	0	59	10123
2026-01-27 13:19:39.01	204.75	6.00	-43.6	-52.8	4.0	8.44e-01	0	60	104	0	59	9970
2026-01-27 13:19:40.03	204.83	6.06	-43.5	-51.8	4.2	8.40e-01	0	60	0	0	59	8920
2026-01-27 13:19:41.04	204.91	6.13	-43.5	-51.8	4.2	8.36e-01	0	60	0	0	59	8889
2026-01-27 13:19:42.05	205.00	6.19	-43.4	-51.3	4.4	8.31e-01	0	60	0	0	58	8950
2026-01-27 13:19:43.06	205.08	6.26	-43.4	-51.4	4.4	8.30e-01	0	60	0	0	58	8971
2026-01-27 13:19:44.07	205.16	6.32	-43.3	-50.6	4.7	8.18e-01	0	60	0	0	58	8228
2026-01-27 13:19:45.08	205.25	6.39	-43.1	-50.1	4.9	7.85e-01	0	60	0	0	58	7804
2026-01-27 13:19:46.09	205.33	6.45	-43.1	-50.0	5.0	7.75e-01	0	60	0	0	58	7645
2026-01-27 13:19:47.10	205.41	6.52	-43.0	-49.6	5.2	7.47e-01	0	60	0	0	58	7367
2026-01-27 13:19:48.11	205.50	6.58	-43.1	-49.8	5.1	7.67e-01	0	60	0	0	58	7536
2026-01-27 13:19:49.12	205.58	6.65	-42.9	-49.4	5.3	7.28e-01	0	60	0	0	57	7578
2026-01-27 13:19:50.13	205.67	6.72	-42.9	-49.3	5.4	7.26e-01	0	60	0	0	57	7516
2026-01-27 13:19:51.14	205.75	6.78	-42.9	-49.3	5.4	7.12e-01	0	60	0	0	57	7473
2026-01-27 13:19:52.15	205.84	6.85	-42.8	-48.9	5.7	6.21e-01	0	60	0	1048576	57	7170
2026-01-27 13:19:53.16	205.93	6.91	-42.7	-48.7	5.8	5.50e-01	0	60	0	5242880	57	7032
2026-01-27 13:19:54.17	206.01	6.98	-42.5	-47.9	6.4	3.11e-01	0	60	0	11534336	56	6793
2026-01-27 13:19:55.18	206.10	7.05	-42.3	-47.5	6.8	2.63e-01	0	60	0	16777216	56	6443
2026-01-27 13:19:56.19	206.19	7.11	-42.0	-46.8	7.4	1.42e-01	0	60	0	22020096	56	5932
2026-01-27 13:19:57.20	206.28	7.18	-41.5	-45.9	8.1	8.98e-02	0	60	0	28311552	55	5671
2026-01-27 13:19:58.21	206.37	7.25	-41.1	-44.9	9.2	2.79e-02	0	60	0	33554432	54	5344
2026-01-27 13:19:59.22	206.45	7.32	-40.8	-44.4	9.7	1.76e-02	0	60	0	39845888	53	5345
2026-01-27 13:20:00.23	206.54	7.38	-40.2	-43.3	10.7	4.77e-03	0	60	0	45088768	52	5040
2026-01-27 13:20:01.24	206.63	7.45	-40.1	-43.1	10.9	2.93e-03	0	60	0	51380224	52	4919
2026-01-27 13:20:02.25	206.72	7.52	-39.6	-42.3	11.9	6.19e-04	0	60	0	56623104	51	4712
2026-01-27 13:20:03.27	206.81	7.59	-39.5	-42.1	12.1	5.24e-04	0	60	0	62914560	50	4917
2026-01-27 13:20:04.28	206.90	7.65	-39.2	-41.7	12.4	2.41e-04	0	60	0	68157440	50	4697
2026-01-27 13:20:05.29	207.00	7.72	-38.9	-41.3	12.9	6.98e-05	0	60	0	73400320	49	4719
2026-01-27 13:20:06.30	207.09	7.79	-38.8	-41.1	13.1	5.83e-05	0	60	0	79691776	49	4650
2026-01-27 13:20:07.31	207.18	7.86	-39.1	-41.5	12.7	7.09e-05	0	60	0	84934656	49	4851
2026-01-27 13:20:08.32	207.27	7.92	-39.5	-42.1	12.1	2.53e-04	0	60	0	91226112	49	5183
2026-01-27 13:20:09.33	207.36	7.99	-40.0	-42.8	11.3	1.29e-03	0	60	0	96468992	50	5340
2026-01-27 13:20:10.34	207.46	8.06	-39.9	-42.7	11.5	2.31e-03	0	60	0	101711872	51	4947
2026-01-27 13:20:11.36	207.55	8.13	-39.3	-41.9	12.5	1.99e-04	0	60	0	108003328	50	4763
2026-01-27 13:20:12.37	207.65	8.20	-39.1	-41.5	12.9	1.40e-04	0	60	0	113246208	49	4822
2026-01-27 13:20:13.38	207.74	8.27	-43.6	-52.8	3.9	8.38e-01	0	60	104	115343360	57	11200
2026-01-27 13:20:14.39	207.84	8.34	-41.2	-45.0	8.7	8.19e-01	0	60	0	115343360	54	5447
2026-01-27 13:20:15.40	207.93	8.41	-39.9	-42.5	12.0	4.33e-03	0	60	0	120586240	51	4864
2026-01-27 13:20:16.41	208.03	8.47	-38.7	-40.9	13.5	1.37e-05	0	60	0	126877696	49	4513
2026-01-27 13:20:17.42	208.12	8.54	-38.8	-41.0	13.4	1.71e-05	0	60	0	132120576	49	4589
2026-01-27 13:20:18.43	208.22	8.61	-38.5	-40.7	13.7	1.14e-05	0	60	0	138412032	49	4418
2026-01-27 13:20:19.44	208.32	8.68	-38.6	-40.9	13.6	1.71e-05	0	60	0	143654912	49	4494
2026-01-27 13:20:20.45	208.42	8.75	-38.7	-41.0	13.5	1.83e-05	0	61	0	149946368	49	4553
2026-01-27 13:20:21.46	208.51	8.82	-38.7	-41.0	13.4	2.86e-05	0	61	0	155189248	49	4573
2026-01-27 13:20:22.47	208.61	8.89	-38.8	-41.0	13.5	1.02e-05	0	61	0	161480704	49	4572
2026-01-27 13:20:23.48	208.71	8.96	-38.8	-41.0	13.5	2.74e-05	0	60	0	166723584	49	4569
2026-01-27 13:20:24.49	208.81	9.03	-38.7	-41.0	13.5	1.94e-05	0	61	0	171966464	49	4561
2026-01-27 13:20:25.50	208.91	9.10	-38.8	-41.0	13.5	1.48e-05	0	61	0	178257920	49	4585
2026-01-27 13:20:26.51	209.01	9.17	-38.8	-41.0	13.5	2.05e-05	0	61	0	183500800	49	4577
2026-01-27 13:20:27.52	209.11	9.24	-38.8	-41.1	13.5	2.74e-05	0	61	0	189792256	49	4603
2026-01-27 13:20:28.53	209.21	9.31	-38.7	-41.0	13.5	1.83e-05	0	61	0	195035136	49	4547
2026-01-27 13:20:29.54	209.31	9.38	-38.7	-40.9	13.6	2.28e-05	0	61	0	200278016	49	4543
2026-01-27 13:20:30.55	209.42	9.45	-38.7	-40.8	13.7	1.48e-05	0	61	0	206569472	49	4492
2026-01-27 13:20:31.56	209.52	9.53	-38.7	-40.9	13.7	8.00e-06	0	61	0	211812352	49	4500
2026-01-27 13:20:32.57	209.62	9.60	-38.5	-40.6	13.9	5.70e-06	0	61	0	218103808	49	4387
2026-01-27 13:20:33.59	209.73	9.67	-38.4	-40.5	14.0	4.50e-06	0	61	0	223346688	48	4595
2026-01-27 13:20:34.60	209.83	9.74	-38.6	-40.8	13.8	1.25e-05	0	61	0	228589568	48	4706
2026-01-27 13:20:35.61	209.94	9.81	-38.5	-40.6	14.0	2.20e-06	0	61	0	234881024	48	4605
2026-01-27 13:20:36.62	210.04	9.88	-38.6	-40.8	13.9	8.00e-06	0	61	0	240123904	48	4720
2026-01-27 13:20:37.63	210.15	9.95	-38.5	-40.6	14.0	4.50e-06	0	61	0	246415360	48	4613
2026-01-27 13:20:38.64	210.25	10.03	-38.6	-40.7	13.9	4.50e-06	0	61	0	251658240	48	4682
2026-01-27 13:20:39.65	210.36	10.10	-38.5	-40.6	14.1	4.50e-06	0	61	0	257949696	48	4607
2026-01-27 13:20:40.66	210.47	10.17	-38.5	-40.6	14.0	2.20e-06	0	61	0	263192576	48	4615
2026-01-27 13:20:41.67	210.57	10.24	-38.5	-40.6	14.0	2.20e-06	0	61	0	269484032	48	4648
2026-01-27 13:20:42.68	210.68	10.32	-38.5	-40.6	14.0	4.50e-06	0	61	0	274726912	48	4644
2026-01-27 13:20:43.69	210.79	10.39	-38.5	-40.6	14.0	4.50e-06	0	61	0	279969792	48	4636
2026-01-27 13:20:44.70	210.90	10.46	-38.3	-40.4	14.3	2.20e-06	0	61	0	286261248	48	4506
2026-01-27 13:20:45.71	211.01	10.53	-38.3	-40.4	14.3	2.20e-06	0	61	0	291504128	48	4512
2026-01-27 13:20:46.72	211.12	10.61	-38.4	-40.5	14.2	1.10e-06	0	61	0	297795584	48	4569
2026-01-27 13:20:47.73	211.23	10.68	-38.3	-40.4	14.3	4.50e-06	0	61	0	303038464	48	4520
2026-01-27 13:20:48.74	211.34	10.75	-38.4	-40.4	14.3	1.10e-06	0	61	0	308281344	48	4540
2026-01-27 13:20:49.74	211.45	10.82	-38.2	-40.2	14.5	1.10e-06	0	61	0	314572800	48	4412
2026-01-27 13:20:50.75	211.57	10.90	-38.2	-40.2	14.5	0.00e+00	0	61	0	319815680	48	4394
2026-01-27 13:20:51.76	211.68	10.97	-38.1	-40.0	14.7	0.00e+00	0	61	0	326107136	48	4328
2026-01-27 13:20:52.77	211.79	11.04	-38.2	-40.2	14.6	2.20e-06	0	61	0	331350016	48	4392
2026-01-27 13:20:53.78	211.91	11.12	-38.1	-40.1	14.6	1.10e-06	0	61	0	336592896	48	4367
2026-01-27 13:20:54.79	212.02	11.19	-38.1	-40.1	14.6	1.10e-06	0	61	0	342884352	48	4379
2026-01-27 13:20:55.80	212.14	11.27	-38.2	-40.1	14.6	2.20e-06	0	61	0	348127232	48	4389
2026-01-27 13:20:56.81	212.25	11.34	-38.1	-40.0	14.7	1.10e-06	0	61	0	354418688	48	4339
2026-01-27 13:20:57.83	212.37	11.41	-38.1	-40.1	14.6	1.10e-06	0	61	0	359661568	48	4368
2026-01-27 13:20:58.84	212.49	11.49	-38.2	-40.1	14.6	1.10e-06	0	61	0	365953024	48	4384
2026-01-27 13:20:59.85	212.60	11.56	-38.1	-40.0	14.8	0.00e+00	0	61	0	371195904	48	4324
2026-01-27 13:21:00.86	212.72	11.64	-38.1	-40.0	14.8	1.10e-06	0	61	0	376438784	48	4317
2026-01-27 13:21:01.87	212.84	11.71	-38.1	-40.0	14.7	1.10e-06	0	61	0	382730240	48	4334
2026-01-27 13:21:02.88	212.96	11.79	-37.8	-39.7	14.9	0.00e+00	0	61	0	387973120	47	4415
2026-01-27 13:21:03.89	213.08	11.86	-37.8	-39.7	14.9	0.00e+00	0	61	0	394264576	47	4423
2026-01-27 13:21:04.90	213.20	11.94	-37.8	-39.8	14.9	0.00e+00	0	61	0	399507456	47	4449
2026-01-27 13:21:05.91	213.32	12.01	-37.9	-39.8	14.8	0.00e+00	0	61	0	405798912	47	4478
2026-01-27 13:21:06.92	213.44	12.09	-37.9	-39.8	14.8	0.00e+00	0	61	0	411041792	47	4471
2026-01-27 13:21:07.93	213.57	12.16	-37.9	-39.9	14.8	0.00e+00	0	61	0	416284672	47	4495
2026-01-27 13:21:08.94	213.69	12.24	-37.9	-39.9	14.8	1.10e-06	0	61	0	422576128	47	4501
2026-01-27 13:21:09.95	213.81	12.31	-37.9	-39.9	14.8	1.10e-06	0	61	0	427819008	47	4527
2026-01-27 13:21:10.96	213.94	12.39	-38.0	-39.9	14.7	0.00e+00	0	61	0	434110464	47	4535
2026-01-27 13:21:11.97	214.06	12.47	-37.9	-39.9	14.8	0.00e+00	0	61	0	439353344	47	4520
2026-01-27 13:21:12.99	214.19	12.54	-37.9	-39.9	14.8	0.00e+00	0	61	0	444596224	47	4506
2026-01-27 13:21:14.00	214.31	12.62	-38.0	-39.9	14.8	0.00e+00	0	61	0	450887680	47	4543
2026-01-27 13:21:15.01	214.44	12.69	-37.9	-39.9	14.8	1.10e-06	0	61	0	456130560	47	4523
2026-01-27 13:21:16.02	214.57	12.77	-37.9	-39.9	14.8	0.00e+00	0	61	0	462422016	47	4510
2026-01-27 13:21:17.03	214.70	12.85	-37.8	-39.7	15.0	0.00e+00	0	61	0	467664896	47	4430
2026-01-27 13:21:18.04	214.82	12.92	-37.7	-39.8	14.9	0.00e+00	0	61	0	473956352	47	4443
2026-01-27 13:21:19.05	214.95	13.00	-37.8	-39.8	14.9	0.00e+00	0	61	0	479199232	47	4447
2026-01-27 13:21:20.06	215.08	13.08	-37.8	-39.7	15.0	1.10e-06	0	61	0	485490688	47	4422
2026-01-27 13:21:21.07	215.21	13.15	-37.9	-39.8	14.9	0.00e+00	0	61	0	490733568	47	4477
2026-01-27 13:21:22.08	215.34	13.23	-37.9	-39.9	14.8	0.00e+00	0	61	0	495976448	47	4507
2026-01-27 13:21:23.09	215.48	13.31	-37.9	-39.9	14.8	0.00e+00	0	61	0	502267904	47	4517
2026-01-27 13:21:24.10	215.61	13.38	-37.8	-39.7	15.0	0.00e+00	0	61	0	507510784	47	4412
2026-01-27 13:21:25.11	215.74	13.46	-37.7	-39.5	15.2	1.10e-06	0	61	0	513802240	47	4338
2026-01-27 13:21:26.12	215.88	13.54	-37.6	-39.5	15.3	0.00e+00	0	61	0	519045120	47	4295
2026-01-27 13:21:27.13	216.01	13.62	-37.5	-39.4	15.3	0.00e+00	0	61	0	524288000	47	4246
2026-01-27 13:21:28.14	216.15	13.69	-37.6	-39.4	15.3	0.00e+00	0	62	0	530579456	46	4535
2026-01-27 13:21:29.15	216.28	13.77	-37.5	-39.3	15.4	0.00e+00	0	61	0	535822336	46	4482
2026-01-27 13:21:30.16	216.42	13.85	-37.3	-39.1	15.6	0.00e+00	0	61	0	542113792	46	4370
2026-01-27 13:21:31.17	216.55	13.93	-37.3	-39.1	15.6	0.00e+00	0	61	0	547356672	46	4370
2026-01-27 13:21:32.18	216.69	14.01	-37.4	-39.2	15.6	0.00e+00	0	61	0	552599552	46	4410
2026-01-27 13:21:33.19	216.83	14.08	-37.5	-39.3	15.5	0.00e+00	0	61	0	558891008	46	4455
2026-01-27 13:21:34.20	216.97	14.16	-37.5	-39.3	15.4	0.00e+00	0	61	0	564133888	46	4484
2026-01-27 13:21:35.21	217.11	14.24	-37.5	-39.4	15.4	1.10e-06	0	61	0	570425344	46	4504
2026-01-27 13:21:36.22	217.25	14.32	-37.5	-39.3	15.5	0.00e+00	0	61	0	575668224	46	4467
2026-01-27 13:21:37.23	217.39	14.40	-37.5	-39.4	15.4	1.10e-06	0	61	0	581959680	46	4501
2026-01-27 13:21:38.24	217.54	14.48	-37.4	-39.3	15.5	0.00e+00	0	62	0	587202560	46	4448
2026-01-27 13:21:39.25	217.68	14.55	-37.6	-39.4	15.4	0.00e+00	0	62	0	592445440	46	4517
2026-01-27 13:21:40.26	217.82	14.63	-37.5	-39.3	15.4	0.00e+00	0	62	0	598736896	46	4482
2026-01-27 13:21:41.27	217.97	14.71	-37.5	-39.3	15.4	0.00e+00	0	61	0	603979776	46	4488
2026-01-27 13:21:42.28	218.11	14.79	-37.5	-39.3	15.4	0.00e+00	0	62	0	610271232	46	4489
2026-01-27 13:21:43.29	218.26	14.87	-37.6	-39.4	15.3	0.00e+00	0	61	0	615514112	46	4539
2026-01-27 13:21:44.30	218.40	14.95	-37.4	-39.2	15.5	0.00e+00	0	62	0	620756992	46	4432
2026-01-27 13:21:45.31	218.55	15.03	-37.4	-39.2	15.6	0.00e+00	0	62	0	627048448	46	4399
2026-01-27 13:21:46.32	218.70	15.11	-37.3	-39.1	15.7	0.00e+00	0	62	0	632291328	46	4363
2026-01-27 13:21:47.33	218.85	15.19	-37.2	-38.9	15.9	0.00e+00	0	62	0	638582784	46	4278
2026-01-27 13:21:48.34	219.00	15.27	-37.2	-39.0	15.8	0.00e+00	0	62	0	643825664	46	4308
2026-01-27 13:21:49.35	219.15	15.35	-37.2	-39.0	15.8	0.00e+00	0	62	0	649068544	46	4327
2026-01-27 13:21:50.36	219.30	15.43	-37.2	-38.9	15.9	0.00e+00	0	62	0	655360000	46	4278
2026-01-27 13:21:51.37	219.45	15.50	-37.1	-38.9	15.9	0.00e+00	0	62	0	660602880	46	4253
2026-01-27 13:21:52.38	219.61	15.58	-37.0	-38.8	16.0	0.00e+00	0	61	0	666894336	45	4442
2026-01-27 13:21:53.39	219.76	15.66	-37.0	-38.8	16.0	0.00e+00	0	61	0	672137216	45	4448
2026-01-27 13:21:54.40	219.91	15.74	-37.1	-38.8	16.0	0.00e+00	0	62	0	678428672	45	4479
2026-01-27 13:21:55.41	220.07	15.82	-37.1	-38.9	15.9	0.00e+00	0	62	0	683671552	45	4516
2026-01-27 13:21:56.42	220.22	15.90	-37.1	-38.8	15.9	0.00e+00	0	61	0	689963008	45	4493
2026-01-27 13:21:57.43	220.38	15.98	-37.1	-38.8	15.9	0.00e+00	0	62	0	695205888	45	4491
2026-01-27 13:21:58.44	220.54	16.06	-37.1	-38.8	16.0	0.00e+00	0	62	0	700448768	45	4472
2026-01-27 13:21:59.45	220.70	16.14	-37.0	-38.7	16.0	0.00e+00	0	62	0	706740224	45	4437
2026-01-27 13:22:00.46	220.86	16.22	-36.9	-38.6	16.2	0.00e+00	0	62	0	711983104	45	4365
2026-01-27 13:22:01.47	221.02	16.30	-36.8	-38.5	16.3	0.00e+00	0	62	0	718274560	45	4308
2026-01-27 13:22:02.48	221.18	16.39	-36.9	-38.5	16.3	0.00e+00	0	62	0	723517440	45	4333
2026-01-27 13:22:03.49	221.34	16.47	-36.8	-38.5	16.3	0.00e+00	0	61	0	728760320	45	4329
2026-01-27 13:22:04.50	221.50	16.55	-36.8	-38.5	16.3	0.00e+00	0	61	0	735051776	45	4307
2026-01-27 13:22:05.51	221.67	16.63	-36.8	-38.5	16.3	0.00e+00	0	62	0	740294656	45	4304
2026-01-27 13:22:06.52	221.83	16.71	-36.8	-38.5	16.3	0.00e+00	0	62	0	746586112	45	4295
2026-01-27 13:22:07.53	222.00	16.79	-36.7	-38.3	16.5	0.00e+00	0	62	0	751828992	45	4242
2026-01-27 13:22:08.54	222.16	16.87	-36.8	-38.4	16.4	0.00e+00	0	62	0	757071872	45	4288
2026-01-27 13:22:09.55	222.33	16.95	-36.7	-38.4	16.5	0.00e+00	0	62	0	763363328	45	4249
2026-01-27 13:22:10.56	222.50	17.03	-36.8	-38.5	16.4	0.00e+00	0	62	0	768606208	45	4293
2026-01-27 13:22:11.57	222.67	17.11	-36.8	-38.5	16.4	0.00e+00	0	62	0	774897664	45	4294
2026-01-27 13:22:12.58	222.84	17.19	-36.8	-38.5	16.3	0.00e+00	0	62	0	780140544	45	4306
2026-01-27 13:22:13.59	223.01	17.27	-36.9	-38.5	16.3	0.00e+00	0	62	0	786432000	45	4327
2026-01-27 13:22:14.60	223.18	17.35	-36.8	-38.5	16.3	0.00e+00	0	62	0	791674880	45	4294
2026-01-27 13:22:15.61	223.35	17.43	-36.7	-38.4	16.4	0.00e+00	0	62	0	797966336	45	4264
2026-01-27 13:22:16.62	223.52	17.51	-36.8	-38.5	16.4	0.00e+00	0	62	0	803209216	45	4310
2026-01-27 13:22:17.63	223.70	17.59	-36.8	-38.4	16.4	0.00e+00	0	62	0	808452096	45	4281
2026-01-27 13:22:18.64	223.87	17.68	-36.7	-38.3	16.5	0.00e+00	0	62	0	814743552	45	4241
2026-01-27 13:22:19.65	224.05	17.76	-36.7	-38.3	16.5	0.00e+00	0	62	0	819986432	45	4235
2026-01-27 13:22:20.66	224.23	17.84	-36.7	-38.3	16.5	0.00e+00	0	62	0	826277888	45	4242
2026-01-27 13:22:21.67	224.40	17.92	-36.6	-38.2	16.7	0.00e+00	0	62	0	831520768	45	4156
2026-01-27 13:22:22.68	224.58	18.00	-36.6	-38.2	16.7	0.00e+00	0	62	0	836763648	45	4162
2026-01-27 13:22:23.69	224.76	18.08	-36.6	-38.2	16.6	0.00e+00	0	62	0	843055104	45	4173
2026-01-27 13:22:24.70	224.94	18.16	-36.6	-38.2	16.6	0.00e+00	0	62	0	848297984	45	4184
2026-01-27 13:22:25.71	225.12	18.24	-36.6	-38.2	16.6	0.00e+00	0	62	0	854589440	45	4190
2026-01-27 13:22:26.72	225.31	18.32	-36.6	-38.3	16.6	0.00e+00	0	62	0	859832320	45	4205
2026-01-27 13:22:27.73	225.49	18.40	-36.6	-38.2	16.7	0.00e+00	0	62	0	865075200	45	4157
2026-01-27 13:22:28.74	225.67	18.48	-36.5	-38.1	16.7	0.00e+00	0	62	0	871366656	45	4141
2026-01-27 13:22:29.75	225.86	18.56	-36.5	-38.1	16.7	0.00e+00	0	62	0	876609536	44	4388
2026-01-27 13:22:30.76	226.05	18.65	-36.5	-38.1	16.7	0.00e+00	0	62	0	882900992	44	4383
2026-01-27 13:22:31.77	226.23	18.73	-36.5	-38.1	16.7	0.00e+00	0	62	0	888143872	44	4385
2026-01-27 13:22:32.78	226.42	18.81	-36.4	-38.0	16.8	0.00e+00	0	62	0	894435328	44	4314
2026-01-27 13:22:33.79	226.61	18.89	-36.4	-38.0	16.9	0.00e+00	0	62	0	899678208	44	4318
2026-01-27 13:22:34.80	226.80	18.97	-36.4	-38.1	16.8	0.00e+00	0	62	0	904921088	44	4341
2026-01-27 13:22:35.81	226.99	19.05	-36.5	-38.1	16.8	0.00e+00	0	62	0	911212544	44	4381
2026-01-27 13:22:36.82	227.18	19.13	-36.5	-38.1	16.8	0.00e+00	0	62	0	916455424	44	4371
2026-01-27 13:22:37.83	227.38	19.21	-36.4	-38.1	16.8	0.00e+00	0	62	0	922746880	44	4342
2026-01-27 13:22:38.84	227.57	19.29	-36.4	-38.0	16.9	0.00e+00	0	62	0	927989760	44	4293
2026-01-27 13:22:39.85	227.77	19.37	-36.4	-38.0	16.8	0.00e+00	0	62	0	933232640	44	4331
2026-01-27 13:22:40.86	227.96	19.45	-36.3	-37.9	17.0	0.00e+00	0	62	0	939524096	44	4248
2026-01-27 13:22:41.87	228.16	19.53	-36.2	-37.8	17.1	0.00e+00	0	62	0	944766976	44	4214
2026-01-27 13:22:42.88	228.36	19.61	-36.2	-37.8	17.1	0.00e+00	0	62	0	951058432	44	4205
2026-01-27 13:22:43.89	228.56	19.69	-36.2	-37.7	17.1	0.00e+00	0	62	0	956301312	44	4183
2026-01-27 13:22:44.90	228.76	19.77	-36.2	-37.7	17.2	0.00e+00	0	62	0	961544192	44	4175
2026-01-27 13:22:45.91	228.96	19.85	-36.2	-37.7	17.1	0.00e+00	0	62	0	967835648	44	4190
2026-01-27 13:22:46.92	229.16	19.93	-36.2	-37.7	17.2	0.00e+00	0	62	0	973078528	44	4183
2026-01-27 13:22:47.93	229.36	20.01	-36.2	-37.7	17.2	0.00e+00	0	62	0	979369984	44	4170
2026-01-27 13:22:48.94	229.57	20.09	-36.2	-37.7	17.1	0.00e+00	0	62	0	984612864	44	4180
2026-01-27 13:22:49.95	229.77	20.17	-36.2	-37.7	17.1	0.00e+00	0	62	0	990904320	44	4179
2026-01-27 13:22:50.96	229.98	20.25	-36.2	-37.7	17.1	0.00e+00	0	62	0	996147200	44	4185
2026-01-27 13:22:51.97	230.19	20.33	-36.2	-37.8	17.1	0.00e+00	0	62	0	1002438656	44	4208
2026-01-27 13:22:52.99	230.40	20.41	-36.3	-37.8	17.0	0.00e+00	0	62	0	1007681536	44	4242
2026-01-27 13:22:54.00	230.61	20.49	-36.2	-37.8	17.1	0.00e+00	0	62	0	1012924416	44	4221
2026-01-27 13:22:55.01	230.82	20.56	-36.2	-37.8	17.1	0.00e+00	0	62	0	1019215872	44	4218
2026-01-27 13:22:56.02	231.03	20.64	-36.1	-37.7	17.2	0.00e+00	0	62	0	1024458752	44	4167
2026-01-27 13:22:57.03	231.24	20.72	-36.1	-37.6	17.2	0.00e+00	0	62	0	1030750208	44	4143
2026-01-27 13:22:58.04	231.45	20.80	-36.0	-37.5	17.4	0.00e+00	0	62	0	1035993088	44	4079
2026-01-27 13:22:59.05	231.67	20.88	-36.0	-37.5	17.4	0.00e+00	0	62	0	1041235968	44	4093
2026-01-27 13:23:00.06	231.88	20.96	-36.1	-37.6	17.3	0.00e+00	0	62	0	1047527424	44	4135
2026-01-27 13:23:01.07	232.10	21.03	-36.1	-37.7	17.2	0.00e+00	0	62	0	1052770304	44	4146
2026-01-27 13:23:02.08	232.32	21.11	-36.2	-37.7	17.2	0.00e+00	0	62	0	1059061760	44	4172
2026-01-27 13:23:03.09	232.54	21.19	-36.2	-37.8	17.1	0.00e+00	0	62	0	1064304640	44	4219
2026-01-27 13:23:04.10	232.76	21.27	-36.2	-37.7	17.1	0.00e+00	0	62	0	1069547520	44	4184
2026-01-27 13:23:05.11	232.98	21.34	-36.2	-37.8	17.1	0.00e+00	0	62	0	1075838976	44	4198
2026-01-27 13:23:06.11	233.20	21.42	-36.2	-37.8	17.1	0.00e+00	0	62	0	1081081856	44	4227
2026-01-27 13:23:07.12	233.42	21.50	-36.2	-37.8	17.1	0.00e+00	0	62	0	1087373312	44	4221
2026-01-27 13:23:08.13	233.65	21.57	-36.2	-37.8	17.1	0.00e+00	0	62	0	1092616192	44	4200
2026-01-27 13:23:09.14	233.87	21.65	-35.7	-37.2	17.4	0.00e+00	0	62	0	1098907648	43	4181
2026-01-27 13:23:10.15	234.10	21.73	-35.6	-37.1	17.6	0.00e+00	0	62	0	1104150528	43	4103
2026-01-27 13:23:11.16	234.33	21.80	-35.4	-36.9	17.8	0.00e+00	0	62	0	1110441984	42	4259
2026-01-27 13:23:12.18	234.56	21.88	-35.5	-37.0	17.7	0.00e+00	0	62	0	1115684864	42	4292
2026-01-27 13:23:13.19	234.79	21.96	-35.5	-37.0	17.7	0.00e+00	0	62	0	1120927744	42	4309
2026-01-27 13:23:14.20	235.02	22.03	-35.6	-37.1	17.6	0.00e+00	0	62	0	1127219200	42	4375
2026-01-27 13:23:15.21	235.25	22.11	-35.7	-37.2	17.5	0.00e+00	0	62	0	1132462080	42	4419
2026-01-27 13:23:16.22	235.48	22.18	-35.6	-37.2	17.5	0.00e+00	0	62	0	1138753536	42	4392
2026-01-27 13:23:17.23	235.72	22.25	-35.6	-37.1	17.6	0.00e+00	0	62	0	1143996416	42	4376
2026-01-27 13:23:18.24	235.95	22.33	-35.6	-37.1	17.6	0.00e+00	0	62	0	1149239296	42	4373
2026-01-27 13:23:19.25	236.19	22.40	-35.6	-37.1	17.6	0.00e+00	0	62	0	1155530752	42	4383
2026-01-27 13:23:20.26	236.43	22.48	-35.7	-37.2	17.5	0.00e+00	0	62	0	1160773632	42	4402
2026-01-27 13:23:21.27	236.67	22.55	-35.7	-37.3	17.4	0.00e+00	0	62	0	1167065088	42	4444
2026-01-27 13:23:22.28	236.91	22.62	-35.8	-37.3	17.4	0.00e+00	0	62	0	1172307968	42	4476
2026-01-27 13:23:23.29	237.15	22.70	-35.8	-37.4	17.3	0.00e+00	0	62	0	1177550848	42	4517
2026-01-27 13:23:24.30	237.39	22.77	-35.9	-37.5	17.2	0.00e+00	0	62	0	1183842304	42	4552
2026-01-27 13:23:25.31	237.63	22.84	-35.9	-37.4	17.3	0.00e+00	0	62	0	1189085184	42	4520
2026-01-27 13:23:26.32	237.88	22.91	-35.8	-37.3	17.4	0.00e+00	0	62	0	1195376640	42	4459
2026-01-27 13:23:27.33	238.12	22.98	-35.7	-37.2	17.5	0.00e+00	0	62	0	1200619520	42	4407
2026-01-27 13:23:28.34	238.37	23.05	-35.5	-37.0	17.7	0.00e+00	0	62	0	1206910976	42	4304
2026-01-27 13:23:29.35	238.62	23.13	-35.5	-37.0	17.8	0.00e+00	0	62	0	1212153856	42	4294
2026-01-27 13:23:30.36	238.86	23.20	-35.4	-36.8	17.9	0.00e+00	0	62	0	1218445312	42	4233
2026-01-27 13:23:31.37	239.11	23.27	-35.4	-36.8	17.9	0.00e+00	0	62	0	1223688192	42	4217
2026-01-27 13:23:32.38	239.36	23.34	-35.5	-37.0	17.7	0.00e+00	0	62	0	1228931072	42	4294
2026-01-27 13:23:33.38	239.61	23.40	-35.7	-37.2	17.5	0.00e+00	0	62	0	1235222528	42	4417
2026-01-27 13:23:34.39	239.87	23.47	-35.6	-37.1	17.6	0.00e+00	0	62	0	1240465408	42	4383
2026-01-27 13:23:35.41	240.12	23.54	-35.5	-36.9	17.8	0.00e+00	0	62	0	1245708288	42	4277
2026-01-27 13:23:36.42	240.38	23.61	-35.4	-36.9	17.8	0.00e+00	0	62	0	1251999744	42	4257
2026-01-27 13:23:37.43	240.63	23.68	-35.4	-36.8	17.9	0.00e+00	0	62	0	1257242624	42	4213
2026-01-27 13:23:38.44	240.89	23.75	-35.4	-36.8	17.9	0.00e+00	0	62	0	1263534080	42	4240
2026-01-27 13:23:39.45	241.15	23.81	-35.4	-36.8	17.9	0.00e+00	0	62	0	1268776960	42	4221
2026-01-27 13:23:40.46	241.41	23.88	-35.4	-36.9	17.8	0.00e+00	0	62	0	1275068416	42	4264
2026-01-27 13:23:41.47	241.67	23.95	-35.5	-36.9	17.8	0.00e+00	0	62	0	1280311296	42	4274
2026-01-27 13:23:42.48	241.93	24.01	-35.4	-36.8	17.9	0.00e+00	0	62	0	1285554176	42	4218
2026-01-27 13:23:43.49	242.19	24.08	-35.2	-36.6	18.0	0.00e+00	0	62	0	1291845632	42	4139
2026-01-27 13:23:44.50	242.46	24.14	-35.1	-36.5	18.2	0.00e+00	0	62	0	1297088512	42	4070
2026-01-27 13:23:45.51	242.72	24.21	-35.1	-36.6	18.2	0.00e+00	0	62	0	1303379968	42	4099
2026-01-27 13:23:46.52	242.99	24.27	-35.1	-36.5	18.2	0.00e+00	0	62	0	1308622848	42	4069
2026-01-27 13:23:47.53	243.25	24.33	-35.0	-36.4	18.3	0.00e+00	0	62	0	1314914304	42	4024
2026-01-27 13:23:48.54	243.52	24.39	-35.2	-36.5	18.5	0.00e+00	0	62	0	1320157184	42	4068
2026-01-27 13:23:49.55	243.79	24.46	-35.3	-36.6	18.4	0.00e+00	0	62	0	1325400064	42	4119
2026-01-27 13:23:50.56	244.06	24.52	-35.4	-36.7	18.3	0.00e+00	0	62	0	1331691520	42	4173
2026-01-27 13:23:51.57	244.33	24.58	-35.3	-36.6	18.4	0.00e+00	0	62	0	1336934400	42	4143
2026-01-27 13:23:52.58	244.60	24.64	-35.3	-36.6	18.4	0.00e+00	0	62	0	1343225856	42	4130
2026-01-27 13:23:53.59	244.88	24.70	-35.2	-36.5	18.5	0.00e+00	0	62	0	1348468736	42	4081
2026-01-27 13:23:54.60	245.15	24.76	-35.2	-36.5	18.5	0.00e+00	0	62	0	1353711616	42	4075
2026-01-27 13:23:55.61	245.43	24.82	-35.3	-36.6	18.5	0.00e+00	0	62	0	1360003072	42	4099
2026-01-27 13:23:56.62	245.70	24.88	-35.2	-36.5	18.5	0.00e+00	0	62	0	1365245952	42	4083
2026-01-27 13:23:57.63	245.98	24.94	-35.2	-36.5	18.5	0.00e+00	0	62	0	1371537408	42	4066
2026-01-27 13:23:58.64	246.26	24.99	-35.1	-36.4	18.6	0.00e+00	0	62	0	1376780288	42	4037
2026-01-27 13:23:59.65	246.54	25.05	-35.2	-36.4	18.6	0.00e+00	0	62	0	1382023168	42	4047
2026-01-27 13:24:00.66	246.82	25.11	-35.2	-36.5	18.6	0.00e+00	0	62	0	1388314624	42	4062
2026-01-27 13:24:01.67	247.10	25.16	-35.3	-36.6	18.4	0.00e+00	0	62	0	1393557504	42	4117
2026-01-27 13:24:02.69	247.38	25.22	-35.3	-36.6	18.5	0.00e+00	0	62	0	1399848960	42	4123
2026-01-27 13:24:03.70	247.66	25.27	-35.3	-36.6	18.4	0.00e+00	0	62	0	1405091840	42	4144
2026-01-27 13:24:04.71	247.95	25.33	-35.3	-36.6	18.4	0.00e+00	0	62	0	1411383296	42	4133
2026-01-27 13:24:05.72	248.23	25.38	-35.3	-36.6	18.4	0.00e+00	0	62	0	1416626176	42	4119
2026-01-27 13:24:06.73	248.52	25.43	-35.4	-36.7	18.3	0.00e+00	0	62	0	1422917632	42	4159
2026-01-27 13:24:07.74	248.81	25.48	-35.3	-36.6	18.4	0.00e+00	0	62	0	1428160512	42	4130
2026-01-27 13:24:08.75	249.09	25.54	-35.2	-36.5	18.5	0.00e+00	0	62	0	1433403392	42	4093
2026-01-27 13:24:09.76	249.38	25.59	-35.2	-36.5	18.5	0.00e+00	0	62	0	1439694848	42	4078
2026-01-27 13:24:10.77	249.67	25.64	-35.3	-36.6	18.5	0.00e+00	0	62	0	1444937728	42	4102
2026-01-27 13:24:11.78	249.96	25.69	-35.1	-36.3	18.7	0.00e+00	0	62	0	1451229184	42	3992
2026-01-27 13:24:12.79	250.25	25.73	-35.0	-36.2	18.8	0.00e+00	0	62	0	1456472064	41	4169
2026-01-27 13:24:13.80	250.54	25.78	-35.0	-36.3	18.8	0.00e+00	0	62	0	1461714944	41	4195
2026-01-27 13:24:14.81	250.84	25.83	-35.1	-36.3	18.7	0.00e+00	0	62	0	1468006400	41	4231
2026-01-27 13:24:15.82	251.13	25.88	-35.1	-36.4	18.6	0.00e+00	0	62	0	1473249280	41	4257
2026-01-27 13:24:16.83	251.43	25.92	-35.1	-36.4	18.7	0.00e+00	0	62	0	1479540736	41	4246
2026-01-27 13:24:17.84	251.72	25.97	-35.0	-36.3	18.7	0.00e+00	0	62	0	1484783616	41	4203
2026-01-27 13:24:18.85	252.02	26.01	-35.1	-36.4	18.6	0.00e+00	0	62	0	1490026496	41	4260
2026-01-27 13:24:19.86	252.31	26.06	-35.1	-36.4	18.7	0.00e+00	0	62	0	1496317952	41	4244
2026-01-27 13:24:20.87	252.61	26.10	-35.1	-36.4	18.6	0.00e+00	0	62	0	1501560832	41	4256
2026-01-27 13:24:21.88	252.91	26.14	-35.2	-36.5	18.6	0.00e+00	0	62	0	1507852288	41	4293
2026-01-27 13:24:22.89	253.21	26.18	-35.2	-36.5	18.5	0.00e+00	0	62	0	1513095168	41	4297
2026-01-27 13:24:23.90	253.51	26.22	-35.1	-36.4	18.6	0.00e+00	0	62	0	1519386624	41	4252
2026-01-27 13:24:24.92	253.81	26.26	-35.1	-36.4	18.6	0.00e+00	0	62	0	1524629504	41	4271
2026-01-27 13:24:25.93	254.11	26.30	-35.1	-36.4	18.6	0.00e+00	0	62	0	1530920960	41	4269
2026-01-27 13:24:26.94	254.42	26.34	-35.1	-36.4	18.7	0.00e+00	0	62	0	1536163840	41	4244
2026-01-27 13:24:27.95	254.72	26.38	-35.1	-36.4	18.6	0.00e+00	0	62	0	1541406720	41	4271
2026-01-27 13:24:28.96	255.02	26.41	-35.1	-36.4	18.6	0.00e+00	0	62	0	1547698176	41	4262
2026-01-27 13:24:29.97	255.33	26.45	-35.0	-36.3	18.7	0.00e+00	0	62	0	1552941056	41	4235
2026-01-27 13:24:30.98	255.63	26.49	-35.0	-36.3	18.7	0.00e+00	0	62	0	1559232512	41	4204
2026-01-27 13:24:31.99	255.94	26.52	-35.1	-36.4	18.6	0.00e+00	0	62	0	1564475392	41	4263
2026-01-27 13:24:33.00	256.24	26.55	-35.1	-36.4	18.6	0.00e+00	0	62	0	1569718272	41	4276
2026-01-27 13:24:34.02	256.55	26.59	-35.2	-36.5	18.5	0.00e+00	0	62	0	1576009728	41	4321
2026-01-27 13:24:35.03	256.86	26.62	-35.3	-36.6	18.4	0.00e+00	0	62	0	1581252608	41	4389
2026-01-27 13:24:36.04	257.17	26.65	-35.3	-36.6	18.4	0.00e+00	0	62	0	1587544064	41	4358
2026-01-27 13:24:37.05	257.48	26.68	-35.1	-36.4	18.6	0.00e+00	0	62	0	1592786944	41	4285
2026-01-27 13:24:38.06	257.79	26.71	-35.1	-36.3	18.7	0.00e+00	0	62	0	1599078400	41	4230
2026-01-27 13:24:39.07	258.10	26.74	-35.1	-36.3	18.7	0.00e+00	0	62	0	1604321280	41	4232
2026-01-27 13:24:40.08	258.41	26.77	-35.1	-36.3	18.7	0.00e+00	0	62	0	1609564160	41	4236
2026-01-27 13:24:41.09	258.72	26.79	-35.0	-36.3	18.7	0.00e+00	0	62	0	1615855616	41	4212
2026-01-27 13:24:42.10	259.03	26.82	-34.9	-36.1	18.9	0.00e+00	0	62	0	1621098496	41	4120
2026-01-27 13:24:43.11	259.34	26.84	-34.7	-35.9	19.1	0.00e+00	0	62	0	1627389952	41	4042
2026-01-27 13:24:44.12	259.65	26.87	-34.7	-36.0	19.1	0.00e+00	0	62	0	1632632832	41	4059
2026-01-27 13:24:45.13	259.97	26.89	-34.8	-36.1	18.9	0.00e+00	0	62	0	1638924288	41	4099
2026-01-27 13:24:46.14	260.28	26.91	-34.8	-36.0	19.0	0.00e+00	0	62	0	1644167168	41	4075
2026-01-27 13:24:47.15	260.59	26.94	-34.7	-36.0	19.1	0.00e+00	0	62	0	1649410048	41	4052
2026-01-27 13:24:48.16	260.91	26.96	-34.6	-35.8	19.2	0.00e+00	0	62	0	1655701504	41	3999
2026-01-27 13:24:49.17	261.22	26.98	-34.7	-35.9	19.1	0.00e+00	0	62	0	1660944384	41	4039
2026-01-27 13:24:50.18	261.54	26.99	-34.8	-36.1	18.9	0.00e+00	0	62	0	1667235840	41	4109
2026-01-27 13:24:51.19	261.85	27.01	-35.0	-36.3	18.8	0.00e+00	0	62	0	1672478720	41	4207
2026-01-27 13:24:52.20	262.17	27.03	-35.0	-36.3	18.7	0.00e+00	0	62	0	1677721600	41	4225
2026-01-27 13:24:53.21	262.48	27.05	-35.0	-36.3	18.8	0.00e+00	0	62	0	1684013056	41	4197
2026-01-27 13:24:54.22	262.80	27.06	-35.0	-36.2	18.8	0.00e+00	0	62	0	1689255936	41	4178
2026-01-27 13:24:55.23	263.12	27.08	-35.0	-36.2	18.8	0.00e+00	0	62	0	1695547392	41	4183
2026-01-27 13:24:56.25	263.44	27.09	-35.0	-36.2	18.8	0.00e+00	0	62	0	1700790272	41	4178
2026-01-27 13:24:57.26	263.75	27.10	-35.1	-36.3	18.7	0.00e+00	0	62	0	1706033152	41	4234
2026-01-27 13:24:58.27	264.07	27.11	-35.1	-36.3	18.7	0.00e+00	0	62	0	1712324608	41	4228
2026-01-27 13:24:59.28	264.39	27.12	-35.1	-36.4	18.7	0.00e+00	0	62	0	1717567488	41	4249
2026-01-27 13:25:00.29	264.70	27.13	-35.2	-36.5	18.6	0.00e+00	0	62	0	1723858944	41	4302
2026-01-27 13:25:01.30	265.02	27.14	-35.2	-36.4	18.6	0.00e+00	0	62	0	1729101824	41	4286
2026-01-27 13:25:02.31	265.34	27.15	-35.2	-36.4	18.6	0.00e+00	0	62	0	1735393280	41	4275
2026-01-27 13:25:03.32	265.66	27.16	-35.1	-36.4	18.7	0.00e+00	0	62	0	1740636160	41	4245
2026-01-27 13:25:04.33	265.97	27.16	-35.0	-36.3	18.8	0.00e+00	0	62	0	1746927616	41	4202
2026-01-27 13:25:05.34	266.29	27.17	-35.0	-36.3	18.8	0.00e+00	0	62	0	1752170496	41	4203
2026-01-27 13:25:06.35	266.61	27.17	-35.1	-36.4	18.7	0.00e+00	0	62	0	1757413376	41	4245
2026-01-27 13:25:07.36	266.93	27.18	-34.9	-36.2	18.9	0.00e+00	0	62	0	1763704832	41	4164
2026-01-27 13:25:08.37	267.25	27.18	-34.9	-36.2	18.9	0.00e+00	0	62	0	1768947712	41	4160
2026-01-27 13:25:09.38	267.57	27.18	-35.0	-36.2	18.8	0.00e+00	0	62	0	1775239168	41	4179
2026-01-27 13:25:10.39	267.88	27.18	-35.0	-36.3	18.8	0.00e+00	0	62	0	1780482048	41	4207
2026-01-27 13:25:11.40	268.20	27.18	-35.1	-36.3	18.7	0.00e+00	0	62	0	1785724928	41	4239
2026-01-27 13:25:12.42	268.52	27.18	-34.9	-36.2	18.9	0.00e+00	0	62	0	1792016384	41	4147
2026-01-27 13:25:13.43	268.84	27.18	-34.8	-36.0	19.0	0.00e+00	0	62	0	1797259264	41	4068
2026-01-27 13:25:14.44	269.16	27.17	-34.8	-36.0	19.0	0.00e+00	0	62	0	1803550720	41	4077
2026-01-27 13:25:15.45	269.48	27.17	-34.9	-36.2	18.9	0.00e+00	0	62	0	1808793600	41	4153
2026-01-27 13:25:16.46	269.80	27.16	-35.0	-36.2	18.8	0.00e+00	0	62	0	1814036480	41	4182
2026-01-27 13:25:17.47	270.11	27.16	-35.0	-36.3	18.8	0.00e+00	0	62	0	1820327936	41	4206
2026-01-27 13:25:18.48	270.43	27.15	-35.1	-36.3	18.7	0.00e+00	0	62	0	1825570816	41	4236
2026-01-27 13:25:19.49	270.75	27.14	-35.1	-36.3	18.7	0.00e+00	0	62	0	1831862272	41	4237
2026-01-27 13:25:20.50	271.07	27.13	-35.0	-36.3	18.7	0.00e+00	0	62	0	1837105152	41	4218
2026-01-27 13:25:21.51	271.39	27.12	-34.9	-36.2	18.9	0.00e+00	0	62	0	1843396608	41	4160
2026-01-27 13:25:22.52	271.70	27.11	-34.9	-36.1	18.9	0.00e+00	0	62	0	1848639488	41	4126
2026-01-27 13:25:23.53	272.02	27.10	-34.9	-36.1	18.9	0.00e+00	0	62	0	1854930944	41	4141
2026-01-27 13:25:24.54	272.34	27.09	-35.0	-36.2	18.8	0.00e+00	0	62	0	1860173824	41	4178
2026-01-27 13:25:25.55	272.65	27.08	-34.9	-36.2	18.8	0.00e+00	0	62	0	1865416704	41	4170
2026-01-27 13:25:26.57	272.97	27.06	-35.0	-36.3	18.7	0.00e+00	0	62	0	1871708160	41	4211
2026-01-27 13:25:27.57	273.28	27.05	-34.9	-36.1	18.9	0.00e+00	0	62	0	1876951040	41	4129
2026-01-27 13:25:28.58	273.60	27.03	-34.8	-36.0	19.0	0.00e+00	0	62	0	1883242496	41	4085
2026-01-27 13:25:29.59	273.91	27.01	-34.9	-36.1	18.9	0.00e+00	0	62	0	1888485376	41	4129
2026-01-27 13:25:30.61	274.23	26.99	-34.9	-36.1	18.9	0.00e+00	0	62	0	1893728256	41	4136
2026-01-27 13:25:31.61	274.54	26.98	-34.8	-36.1	18.9	0.00e+00	0	62	0	1900019712	41	4111
2026-01-27 13:25:32.63	274.86	26.96	-34.9	-36.2	18.9	0.00e+00	0	62	0	1905262592	41	4151
2026-01-27 13:25:33.64	275.17	26.93	-34.9	-36.2	18.9	0.00e+00	0	62	0	1911554048	41	4163
2026-01-27 13:25:34.65	275.49	26.91	-35.1	-36.4	18.6	0.00e+00	0	62	0	1916796928	41	4258
2026-01-27 13:25:35.65	275.80	26.89	-35.2	-36.5	18.5	0.00e+00	0	62	0	1922039808	41	4298
2026-01-27 13:25:36.67	276.11	26.87	-35.1	-36.4	18.6	0.00e+00	0	62	0	1928331264	41	4262
2026-01-27 13:25:37.68	276.42	26.84	-35.2	-36.4	18.6	0.00e+00	0	62	0	1933574144	41	4289
2026-01-27 13:25:38.69	276.74	26.82	-35.2	-36.4	18.6	0.00e+00	0	62	0	1939865600	41	4291
2026-01-27 13:25:39.70	277.05	26.79	-35.1	-36.4	18.7	0.00e+00	0	62	0	1945108480	41	4245
2026-01-27 13:25:40.71	277.36	26.77	-35.2	-36.5	18.6	0.00e+00	0	62	0	1951399936	41	4292
2026-01-27 13:25:41.72	277.67	26.74	-35.1	-36.4	18.7	0.00e+00	0	62	0	1956642816	41	4250
2026-01-27 13:25:42.73	277.98	26.71	-35.0	-36.3	18.7	0.00e+00	0	62	0	1962934272	41	4218
2026-01-27 13:25:43.74	278.28	26.68	-35.0	-36.3	18.8	0.00e+00	0	62	0	1968177152	41	4202
2026-01-27 13:25:44.75	278.59	26.65	-35.0	-36.2	18.8	0.00e+00	0	62	0	1973420032	41	4188
2026-01-27 13:25:45.76	278.90	26.62	-34.9	-36.2	18.9	0.00e+00	0	62	0	1979711488	41	4147
2026-01-27 13:25:46.77	279.21	26.59	-34.9	-36.2	18.8	0.00e+00	0	62	0	1984954368	41	4152
2026-01-27 13:25:47.78	279.51	26.55	-34.9	-36.1	18.9	0.00e+00	0	62	0	1991245824	41	4127
2026-01-27 13:25:48.79	279.82	26.52	-34.9	-36.2	18.8	0.00e+00	0	62	0	1996488704	41	4167
2026-01-27 13:25:49.80	280.12	26.49	-35.0	-36.3	18.7	0.00e+00	0	62	0	2001731584	41	4218
2026-01-27 13:25:50.81	280.43	26.45	-35.1	-36.4	18.6	0.00e+00	0	62	0	2008023040	41	4245
2026-01-27 13:25:51.82	280.73	26.42	-35.1	-36.4	18.7	0.00e+00	0	62	0	2013265920	41	4247
2026-01-27 13:25:52.83	281.03	26.38	-35.1	-36.4	18.6	0.00e+00	0	62	0	2019557376	41	4272
2026-01-27 13:25:53.84	281.34	26.34	-35.2	-36.5	18.5	0.00e+00	0	62	0	2024800256	41	4318
2026-01-27 13:25:54.85	281.64	26.30	-35.2	-36.5	18.5	0.00e+00	0	62	0	2030043136	41	4328
2026-01-27 13:25:55.86	281.94	26.26	-35.2	-36.5	18.5	0.00e+00	0	62	0	2036334592	41	4334
2026-01-27 13:25:56.88	282.24	26.22	-35.2	-36.5	18.5	0.00e+00	0	62	0	2041577472	41	4334
2026-01-27 13:25:57.89	282.54	26.18	-35.1	-36.4	18.6	0.00e+00	0	62	0	2047868928	41	4287
2026-01-27 13:25:58.90	282.84	26.14	-35.1	-36.4	18.6	0.00e+00	0	62	0	2053111808	41	4281
2026-01-27 13:25:59.91	283.14	26.10	-35.1	-36.4	18.6	0.00e+00	0	62	0	2059403264	41	4245
2026-01-27 13:26:00.92	283.44	26.06	-35.1	-36.3	18.7	0.00e+00	0	62	0	2064646144	41	4225
2026-01-27 13:26:01.93	283.73	26.01	-35.1	-36.3	18.7	0.00e+00	0	62	0	2070937600	41	4233
2026-01-27 13:26:02.94	284.03	25.97	-35.1	-36.4	18.6	0.00e+00	0	62	0	2076180480	41	4245
2026-01-27 13:26:03.95	284.32	25.93	-35.3	-36.6	18.4	0.00e+00	0	62	0	2081423360	41	4345
2026-01-27 13:26:04.96	284.62	25.88	-35.4	-36.7	18.3	0.00e+00	0	62	0	2087714816	41	4402
2026-01-27 13:26:05.97	284.91	25.83	-35.4	-36.7	18.3	0.00e+00	0	62	0	2092957696	41	4420
2026-01-27 13:26:06.98	285.20	25.79	-35.4	-36.8	18.3	0.00e+00	0	62	0	2099249152	41	4446
2026-01-27 13:26:07.99	285.49	25.74	-35.4	-36.8	18.3	0.00e+00	0	62	0	2104492032	41	4445
2026-01-27 13:26:09.00	285.78	25.69	-35.3	-36.6	18.4	0.00e+00	0	62	0	2109734912	41	4356
2026-01-27 13:26:10.01	286.07	25.64	-35.3	-36.6	18.5	0.00e+00	0	62	0	2116026368	41	4342
2026-01-27 13:26:11.02	286.36	25.59	-35.2	-36.5	18.5	0.00e+00	0	62	0	2121269248	41	4334
2026-01-27 13:26:12.03	286.65	25.54	-35.2	-36.5	18.5	0.00e+00	0	62	0	2127560704	41	4297
2026-01-27 13:26:13.04	286.93	25.49	-35.2	-36.5	18.4	0.00e+00	0	62	0	2132803584	41	4331
2026-01-27 13:26:14.05	287.22	25.44	-35.2	-36.5	18.5	0.00e+00	0	62	0	2138046464	41	4299
2026-01-27 13:26:15.06	287.50	25.39	-35.2	-36.4	18.6	0.00e+00	0	62	0	2144337920	41	4283
2026-01-27 13:26:16.07	287.79	25.33	-35.1	-36.3	18.6	0.00e+00	0	62	0	2149580800	41	4231
2026-01-27 13:26:17.08	288.07	25.28	-35.1	-36.3	18.6	0.00e+00	0	62	0	2155872256	41	4238
2026-01-27 13:26:18.09	288.35	25.23	-35.1	-36.3	18.6	0.00e+00	0	62	0	2161115136	41	4242
2026-01-27 13:26:19.10	288.63	25.17	-35.2	-36.5	18.6	0.00e+00	0	62	0	2167406592	41	4294
2026-01-27 13:26:20.11	288.92	25.11	-35.3	-36.6	18.4	0.00e+00	0	62	0	2172649472	41	4365
2026-01-27 13:26:21.12	289.19	25.06	-35.4	-36.7	18.3	0.00e+00	0	62	0	2178940928	41	4410
2026-01-27 13:26:22.13	289.47	25.00	-35.5	-36.8	18.2	0.00e+00	0	62	0	2184183808	41	4463
2026-01-27 13:26:23.14	289.75	24.95	-35.5	-36.8	18.2	0.00e+00	0	62	0	2189426688	41	4480
2026-01-27 13:26:24.15	290.03	24.89	-35.4	-36.7	18.3	0.00e+00	0	62	0	2195718144	41	4425
2026-01-27 13:26:25.16	290.30	24.83	-35.4	-36.7	18.3	0.00e+00	0	62	0	2200961024	41	4434
2026-01-27 13:26:26.17	290.57	24.77	-35.5	-36.8	18.2	0.00e+00	0	62	0	2207252480	41	4463
2026-01-27 13:26:27.18	290.85	24.71	-35.5	-36.9	18.1	0.00e+00	0	62	0	2212495360	41	4499
2026-01-27 13:26:28.19	291.12	24.65	-35.5	-36.8	18.2	0.00e+00	0	62	0	2217738240	41	4477
2026-01-27 13:26:29.21	291.39	24.59	-35.5	-36.8	18.2	0.00e+00	0	62	0	2224029696	41	4479
2026-01-27 13:26:30.21	291.66	24.53	-35.5	-36.8	18.2	0.00e+00	0	62	0	2229272576	41	4490
2026-01-27 13:26:31.23	291.93	24.47	-35.6	-37.0	18.0	0.00e+00	0	62	0	2235564032	41	4549
2026-01-27 13:26:32.24	292.20	24.41	-35.5	-36.9	18.1	0.00e+00	0	62	0	2240806912	41	4499
2026-01-27 13:26:33.25	292.47	24.34	-35.5	-36.9	18.1	0.00e+00	0	62	0	2246049792	41	4503
2026-01-27 13:26:34.26	292.73	24.28	-35.5	-36.8	18.1	0.00e+00	0	62	0	2252341248	41	4482
2026-01-27 13:26:35.27	293.00	24.22	-35.4	-36.7	18.3	0.00e+00	0	62	0	2257584128	41	4433
2026-01-27 13:26:36.28	293.26	24.15	-35.5	-36.8	18.2	0.00e+00	0	62	0	2263875584	41	4472
2026-01-27 13:26:37.29	293.53	24.09	-35.6	-37.0	18.0	0.00e+00	0	62	0	2269118464	41	4554
2026-01-27 13:26:38.30	293.79	24.02	-35.5	-36.9	18.1	0.00e+00	0	62	0	2275409920	41	4514
2026-01-27 13:26:39.31	294.05	23.96	-35.5	-36.9	18.1	0.00e+00	0	62	0	2280652800	41	4514
2026-01-27 13:26:40.32	294.31	23.89	-35.6	-36.9	18.1	0.00e+00	0	62	0	2285895680	41	4516
2026-01-27 13:26:41.33	294.57	23.83	-35.6	-36.9	18.0	0.00e+00	0	62	0	2292187136	41	4523
2026-01-27 13:26:42.34	294.82	23.76	-35.5	-36.8	18.1	0.00e+00	0	62	0	2297430016	41	4492
2026-01-27 13:26:43.35	295.08	23.69	-35.5	-36.8	18.2	0.00e+00	0	62	0	2303721472	41	4466
2026-01-27 13:26:44.36	295.33	23.63	-35.6	-36.9	18.0	0.00e+00	0	62	0	2308964352	41	4536
2026-01-27 13:26:45.37	295.59	23.56	-35.8	-37.1	17.8	0.00e+00	0	62	0	2315255808	42	4381
2026-01-27 13:26:46.38	295.84	23.49	-35.8	-37.2	17.8	0.00e+00	0	62	0	2320498688	42	4426
2026-01-27 13:26:47.39	296.09	23.42	-35.9	-37.3	17.7	0.00e+00	0	62	0	2325741568	42	4471
2026-01-27 13:26:48.40	296.34	23.35	-35.9	-37.3	17.7	0.00e+00	0	62	0	2332033024	42	4470
2026-01-27 13:26:49.41	296.59	23.28	-35.8	-37.2	17.7	0.00e+00	0	62	0	2337275904	42	4426
2026-01-27 13:26:50.42	296.84	23.21	-35.7	-37.1	17.9	0.00e+00	0	62	0	2343567360	42	4350
2026-01-27 13:26:51.43	297.09	23.14	-35.6	-36.9	18.1	0.00e+00	0	62	0	2348810240	42	4266
2026-01-27 13:26:52.44	297.34	23.07	-35.6	-36.9	18.1	0.00e+00	0	62	0	2354053120	42	4267
2026-01-27 13:26:53.45	297.58	23.00	-35.6	-37.0	18.0	0.00e+00	0	62	0	2360344576	42	4309
2026-01-27 13:26:54.46	297.83	22.93	-35.5	-36.9	18.1	0.00e+00	0	62	0	2365587456	42	4249
2026-01-27 13:26:55.47	298.07	22.86	-35.6	-36.9	18.0	0.00e+00	0	62	0	2371878912	42	4265
2026-01-27 13:26:56.48	298.31	22.79	-35.7	-37.1	17.9	0.00e+00	0	62	0	2377121792	42	4356
2026-01-27 13:26:57.49	298.55	22.72	-35.8	-37.2	17.8	0.00e+00	0	62	0	2382364672	42	4406
2026-01-27 13:26:58.50	298.79	22.65	-35.9	-37.3	17.6	0.00e+00	0	62	0	2388656128	42	4472
2026-01-27 13:26:59.51	299.03	22.57	-35.9	-37.3	17.6	0.00e+00	0	62	0	2393899008	42	4488
2026-01-27 13:27:00.52	299.27	22.50	-36.1	-37.5	17.5	0.00e+00	0	62	0	2400190464	42	4558
2026-01-27 13:27:01.53	299.51	22.43	-36.1	-37.5	17.4	0.00e+00	0	62	0	2405433344	42	4592
2026-01-27 13:27:02.54	299.74	22.35	-36.1	-37.5	17.4	0.00e+00	0	62	0	2411724800	42	4585
2026-01-27 13:27:03.55	299.98	22.28	-36.1	-37.5	17.4	0.00e+00	0	62	0	2416967680	42	4577
2026-01-27 13:27:04.56	300.21	22.21	-36.0	-37.5	17.5	0.00e+00	0	62	0	2423259136	42	4552
2026-01-27 13:27:05.57	300.44	22.13	-36.0	-37.4	17.5	0.00e+00	0	62	0	2428502016	42	4527
2026-01-27 13:27:06.58	300.67	22.06	-35.9	-37.3	17.6	0.00e+00	0	62	0	2433744896	42	4491
2026-01-27 13:27:07.58	300.90	21.98	-35.9	-37.3	17.6	0.00e+00	0	62	0	2440036352	42	4482
2026-01-27 13:27:08.60	301.13	21.91	-35.9	-37.3	17.6	0.00e+00	0	62	0	2445279232	42	4490
2026-01-27 13:27:09.61	301.36	21.83	-36.0	-37.4	17.5	0.00e+00	0	62	0	2450522112	42	4512
2026-01-27 13:27:10.62	301.59	21.76	-36.1	-37.5	17.4	0.00e+00	0	62	0	2456813568	42	4597
2026-01-27 13:27:11.63	301.81	21.68	-36.0	-37.4	17.5	0.00e+00	0	62	0	2462056448	42	4541
2026-01-27 13:27:12.64	302.04	21.61	-36.0	-37.4	17.5	0.00e+00	0	62	0	2468347904	42	4533
2026-01-27 13:27:13.65	302.26	21.53	-36.0	-37.5	17.4	0.00e+00	0	62	0	2473590784	42	4558
2026-01-27 13:27:14.66	302.48	21.45	-35.9	-37.3	17.6	0.00e+00	0	62	0	2479882240	42	4487
2026-01-27 13:27:15.67	302.70	21.38	-35.9	-37.3	17.6	0.00e+00	0	62	0	2485125120	42	4459
2026-01-27 13:27:16.68	302.93	21.30	-35.9	-37.2	17.7	0.00e+00	0	62	0	2490368000	42	4434
2026-01-27 13:27:17.69	303.14	21.22	-35.9	-37.3	17.6	0.00e+00	0	62	0	2496659456	42	4448
2026-01-27 13:27:18.70	303.36	21.15	-35.9	-37.2	17.7	0.00e+00	0	62	0	2501902336	42	4430
2026-01-27 13:27:19.71	303.58	21.07	-35.9	-37.3	17.6	0.00e+00	0	62	0	2508193792	42	4493
2026-01-27 13:27:20.72	303.80	20.99	-36.1	-37.5	17.3	0.00e+00	0	62	0	2513436672	42	4598
2026-01-27 13:27:21.73	304.01	20.92	-36.2	-37.7	17.2	0.00e+00	0	62	0	2519728128	42	4666
2026-01-27 13:27:22.74	304.23	20.84	-36.3	-37.7	17.2	0.00e+00	0	62	0	2524971008	43	4437
2026-01-27 13:27:23.75	304.44	20.76	-36.2	-37.7	17.2	0.00e+00	0	62	0	2530213888	43	4417
2026-01-27 13:27:24.76	304.65	20.68	-36.2	-37.7	17.2	0.00e+00	0	62	0	2536505344	43	4411
2026-01-27 13:27:25.77	304.86	20.60	-36.3	-37.7	17.2	0.00e+00	0	62	0	2541748224	43	4433
2026-01-27 13:27:26.78	305.07	20.53	-36.3	-37.8	17.1	0.00e+00	0	62	0	2548039680	43	4475
2026-01-27 13:27:27.79	305.28	20.45	-36.4	-37.9	17.0	0.00e+00	0	62	0	2553282560	43	4524
2026-01-27 13:27:28.80	305.49	20.37	-36.4	-37.9	16.9	0.00e+00	0	62	0	2558525440	43	4529
2026-01-27 13:27:29.81	305.69	20.29	-36.6	-38.1	16.8	0.00e+00	0	62	0	2564816896	43	4622
2026-01-27 13:27:30.82	305.90	20.21	-36.6	-38.2	16.7	0.00e+00	0	62	0	2570059776	43	4654
2026-01-27 13:27:31.83	306.10	20.13	-36.6	-38.1	16.8	0.00e+00	0	62	0	2576351232	43	4610
2026-01-27 13:27:32.84	306.31	20.05	-36.6	-38.1	16.8	0.00e+00	0	62	0	2581594112	43	4640
2026-01-27 13:27:33.85	306.51	19.97	-36.7	-38.2	16.7	0.00e+00	0	62	0	2586836992	43	4694
2026-01-27 13:27:34.86	306.71	19.90	-36.6	-38.2	16.7	0.00e+00	0	62	0	2593128448	43	4672
2026-01-27 13:27:35.87	306.91	19.82	-36.7	-38.2	16.6	0.00e+00	0	62	0	2598371328	43	4694
2026-01-27 13:27:36.88	307.11	19.74	-36.7	-38.3	16.6	0.00e+00	0	62	0	2604662784	43	4714
2026-01-27 13:27:37.89	307.31	19.66	-36.8	-38.4	16.6	0.00e+00	0	62	0	2609905664	44	4521
2026-01-27 13:27:38.90	307.51	19.58	-36.8	-38.4	16.7	0.00e+00	0	62	0	2616197120	44	4494
2026-01-27 13:27:39.91	307.70	19.50	-36.7	-38.2	16.8	0.00e+00	0	62	0	2621440000	44	4438
2026-01-27 13:27:40.92	307.90	19.42	-36.6	-38.1	16.9	0.00e+00	0	62	0	2627731456	44	4388
2026-01-27 13:27:41.93	308.09	19.34	-36.6	-38.1	16.9	0.00e+00	0	62	0	2632974336	44	4374
2026-01-27 13:27:42.94	308.29	19.26	-36.6	-38.1	16.9	0.00e+00	0	62	0	2638217216	44	4364
2026-01-27 13:27:43.95	308.48	19.18	-36.5	-38.0	17.0	0.00e+00	0	62	0	2644508672	44	4324
2026-01-27 13:27:44.96	308.67	19.10	-36.6	-38.0	17.0	0.00e+00	0	62	0	2649751552	44	4332
2026-01-27 13:27:45.97	308.86	19.02	-36.6	-38.1	16.9	0.00e+00	0	62	0	2656043008	44	4354
2026-01-27 13:27:46.98	309.05	18.94	-36.6	-38.1	16.9	0.00e+00	0	62	0	2661285888	44	4363
2026-01-27 13:27:48.00	309.24	18.86	-36.8	-38.3	16.7	0.00e+00	0	62	0	2666528768	44	4480
2026-01-27 13:27:49.01	309.43	18.78	-36.9	-38.5	16.5	0.00e+00	0	62	0	2672820224	44	4560
2026-01-27 13:27:50.02	309.62	18.70	-37.0	-38.6	16.4	0.00e+00	0	62	0	2678063104	44	4606
2026-01-27 13:27:51.03	309.80	18.62	-37.0	-38.6	16.4	0.00e+00	0	62	0	2684354560	44	4642
2026-01-27 13:27:52.04	309.99	18.54	-37.1	-38.8	16.2	0.00e+00	0	62	0	2689597440	44	4709
2026-01-27 13:27:53.05	310.17	18.46	-36.9	-38.5	16.5	0.00e+00	0	62	0	2694840320	44	4587
2026-01-27 13:27:54.06	310.35	18.38	-37.0	-38.6	16.4	0.00e+00	0	62	0	2701131776	44	4611
2026-01-27 13:27:55.07	310.54	18.30	-37.0	-38.6	16.4	0.00e+00	0	62	0	2706374656	44	4626
2026-01-27 13:27:56.08	310.72	18.22	-37.0	-38.6	16.4	0.00e+00	0	62	0	2712666112	44	4630
2026-01-27 13:27:57.09	310.90	18.14	-37.1	-38.7	16.3	0.00e+00	0	62	0	2717908992	44	4673
2026-01-27 13:27:58.10	311.08	18.06	-37.1	-38.8	16.2	0.00e+00	0	62	0	2724200448	44	4707
2026-01-27 13:27:59.11	311.25	17.98	-37.2	-38.8	16.1	0.00e+00	0	62	0	2729443328	45	4490
2026-01-27 13:28:00.12	311.43	17.90	-37.2	-38.8	16.2	0.00e+00	0	62	0	2735734784	45	4464
2026-01-27 13:28:01.13	311.61	17.82	-37.2	-38.8	16.2	0.00e+00	0	62	0	2740977664	45	4458
2026-01-27 13:28:02.14	311.78	17.74	-37.2	-38.8	16.1	0.00e+00	0	62	0	2746220544	45	4488
2026-01-27 13:28:03.15	311.96	17.66	-37.2	-38.8	16.1	0.00e+00	0	62	0	2752512000	45	4477
2026-01-27 13:28:04.17	312.13	17.58	-37.2	-38.8	16.1	0.00e+00	0	62	0	2757754880	45	4476
2026-01-27 13:28:05.17	312.30	17.50	-37.2	-38.8	16.1	0.00e+00	0	62	0	2764046336	45	4476
2026-01-27 13:28:06.18	312.48	17.42	-37.3	-38.9	16.0	0.00e+00	0	62	0	2769289216	45	4525
2026-01-27 13:28:07.19	312.65	17.34	-37.2	-38.9	16.1	0.00e+00	0	62	0	2774532096	45	4500
2026-01-27 13:28:08.20	312.82	17.26	-37.2	-38.9	16.1	0.00e+00	0	62	0	2780823552	45	4496
2026-01-27 13:28:09.21	312.99	17.18	-37.2	-38.9	16.1	0.00e+00	0	62	0	2786066432	45	4498
2026-01-27 13:28:10.22	313.15	17.10	-37.2	-38.8	16.1	0.00e+00	0	62	0	2792357888	45	4469
2026-01-27 13:28:11.23	313.32	17.02	-37.2	-38.9	16.0	0.00e+00	0	62	0	2797600768	45	4502
2026-01-27 13:28:12.24	313.49	16.94	-37.3	-39.0	15.9	0.00e+00	0	62	0	2802843648	45	4562
2026-01-27 13:28:13.26	313.66	16.86	-37.3	-38.9	16.0	0.00e+00	0	62	0	2809135104	45	4518
2026-01-27 13:28:14.27	313.82	16.78	-37.3	-38.9	16.0	0.00e+00	0	62	0	2814377984	45	4523
2026-01-27 13:28:15.28	313.98	16.70	-37.3	-38.9	16.0	0.00e+00	0	62	0	2820669440	45	4542
2026-01-27 13:28:16.29	314.15	16.62	-37.3	-39.0	15.9	0.00e+00	0	62	0	2825912320	45	4569
2026-01-27 13:28:17.30	314.31	16.54	-37.3	-39.0	15.9	0.00e+00	0	62	0	2832203776	45	4582
2026-01-27 13:28:18.31	314.47	16.46	-37.4	-39.0	15.9	0.00e+00	0	62	0	2837446656	45	4583
2026-01-27 13:28:19.32	314.63	16.38	-37.3	-39.0	15.9	0.00e+00	0	62	0	2843738112	45	4561
2026-01-27 13:28:20.34	314.79	16.30	-37.3	-39.0	15.9	0.00e+00	0	62	0	2848980992	45	4573
2026-01-27 13:28:21.35	314.95	16.22	-37.3	-38.9	16.0	0.00e+00	0	62	0	2854223872	45	4515
2026-01-27 13:28:22.36	315.11	16.14	-37.3	-38.9	16.0	0.00e+00	0	62	0	2860515328	45	4524
2026-01-27 13:28:23.37	315.27	16.06	-37.2	-38.9	16.0	0.00e+00	0	62	0	2865758208	45	4504
2026-01-27 13:28:24.38	315.43	15.98	-37.1	-38.7	16.1	0.00e+00	0	62	0	2872049664	45	4430
2026-01-27 13:28:25.39	315.58	15.90	-37.1	-38.7	16.1	0.00e+00	0	62	0	2877292544	45	4437
2026-01-27 13:28:26.40	315.74	15.82	-37.2	-38.9	16.0	0.00e+00	0	62	0	2882535424	45	4513
2026-01-27 13:28:27.41	315.89	15.74	-37.3	-39.0	15.9	0.00e+00	0	62	0	2888826880	45	4555
2026-01-27 13:28:28.42	316.04	15.66	-37.4	-39.1	15.8	0.00e+00	0	62	0	2894069760	45	4610
2026-01-27 13:28:29.43	316.20	15.59	-37.5	-39.2	15.7	0.00e+00	0	62	0	2900361216	45	4671
2026-01-27 13:28:30.44	316.35	15.51	-37.5	-39.2	15.6	0.00e+00	0	62	0	2905604096	45	4699
2026-01-27 13:28:31.45	316.50	15.43	-37.5	-39.3	15.6	0.00e+00	0	62	0	2910846976	45	4717
2026-01-27 13:28:32.46	316.65	15.35	-37.6	-39.4	15.5	0.00e+00	0	62	0	2917138432	45	4764
2026-01-27 13:28:33.47	316.80	15.27	-37.6	-39.4	15.5	0.00e+00	0	62	0	2922381312	45	4777
2026-01-27 13:28:34.48	316.95	15.19	-37.5	-39.2	15.6	0.00e+00	0	62	0	2928672768	45	4701
2026-01-27 13:28:35.49	317.10	15.11	-37.5	-39.2	15.6	0.00e+00	0	62	0	2933915648	45	4669
2026-01-27 13:28:36.50	317.24	15.03	-37.5	-39.2	15.7	0.00e+00	0	62	0	2940207104	45	4655
2026-01-27 13:28:37.52	317.39	14.96	-37.4	-39.1	15.7	0.00e+00	0	62	0	2945449984	45	4620
2026-01-27 13:28:38.53	317.54	14.88	-37.5	-39.2	15.6	0.00e+00	0	62	0	2951741440	45	4689
2026-01-27 13:28:39.54	317.68	14.80	-37.5	-39.2	15.6	0.00e+00	0	62	0	2956984320	45	4687
2026-01-27 13:28:40.55	317.83	14.72	-37.6	-39.4	15.5	0.00e+00	0	62	0	2962227200	45	4762
2026-01-27 13:28:41.56	317.97	14.64	-37.6	-39.4	15.5	0.00e+00	0	62	0	2968518656	45	4771
2026-01-27 13:28:42.57	318.11	14.57	-37.7	-39.4	15.4	0.00e+00	0	62	0	2973761536	45	4800
2026-01-27 13:28:43.58	318.25	14.49	-37.7	-39.5	15.3	0.00e+00	0	62	0	2980052992	45	4820
2026-01-27 13:28:44.59	318.40	14.41	-37.8	-39.5	15.3	0.00e+00	0	62	0	2985295872	46	4592
2026-01-27 13:28:45.60	318.54	14.33	-37.8	-39.6	15.2	0.00e+00	0	62	0	2990538752	46	4610
2026-01-27 13:28:46.61	318.68	14.25	-37.8	-39.5	15.3	0.00e+00	0	62	0	2996830208	46	4596
2026-01-27 13:28:47.62	318.82	14.18	-37.7	-39.5	15.3	0.00e+00	0	62	0	3002073088	46	4567
2026-01-27 13:28:48.63	318.95	14.10	-37.7	-39.5	15.3	0.00e+00	0	62	0	3008364544	46	4562
2026-01-27 13:28:49.64	319.09	14.02	-37.8	-39.5	15.3	0.00e+00	0	62	0	3013607424	46	4587
2026-01-27 13:28:50.66	319.23	13.94	-37.8	-39.5	15.3	0.00e+00	0	62	0	3018850304	46	4591
2026-01-27 13:28:51.67	319.37	13.87	-37.8	-39.6	15.2	0.00e+00	0	62	0	3025141760	46	4612
2026-01-27 13:28:52.68	319.50	13.79	-37.9	-39.7	15.1	0.00e+00	0	62	0	3030384640	46	4656
2026-01-27 13:28:53.69	319.64	13.71	-37.8	-39.6	15.1	0.00e+00	0	62	0	3036676096	46	4646
2026-01-27 13:28:54.70	319.77	13.64	-37.9	-39.7	15.1	0.00e+00	0	62	0	3041918976	46	4674
2026-01-27 13:28:55.71	319.91	13.56	-37.8	-39.6	15.1	0.00e+00	0	62	0	3048210432	46	4648
2026-01-27 13:28:56.72	320.04	13.48	-37.8	-39.7	15.1	0.00e+00	0	62	0	3053453312	46	4654
2026-01-27 13:28:57.73	320.17	13.41	-37.8	-39.6	15.1	0.00e+00	0	62	0	3059744768	46	4648
2026-01-27 13:28:58.74	320.30	13.33	-37.9	-39.7	15.0	0.00e+00	0	62	0	3064987648	46	4702
2026-01-27 13:28:59.75	320.43	13.25	-37.9	-39.8	15.0	0.00e+00	0	62	0	3070230528	46	4709
2026-01-27 13:29:00.76	320.56	13.18	-38.0	-39.8	14.9	0.00e+00	0	62	0	3076521984	46	4726
2026-01-27 13:29:01.77	320.69	13.10	-37.9	-39.7	15.0	0.00e+00	0	62	0	3081764864	46	4661
2026-01-27 13:29:02.78	320.82	13.03	-38.0	-39.8	14.9	0.00e+00	0	62	0	3088056320	46	4753
2026-01-27 13:29:03.79	320.95	12.95	-38.0	-39.9	14.8	0.00e+00	0	63	0	3093299200	46	4786
2026-01-27 13:29:04.80	321.08	12.87	-38.0	-39.9	14.8	0.00e+00	0	62	0	3098542080	46	4770
2026-01-27 13:29:05.81	321.21	12.80	-38.2	-40.1	14.6	1.10e-06	0	62	0	3104833536	46	4880
2026-01-27 13:29:06.82	321.33	12.72	-38.1	-40.0	14.7	0.00e+00	0	62	0	3110076416	46	4822
2026-01-27 13:29:07.83	321.46	12.65	-38.2	-40.1	14.6	0.00e+00	0	62	0	3116367872	46	4906
2026-01-27 13:29:08.84	321.59	12.57	-38.2	-40.1	14.6	0.00e+00	0	63	0	3121610752	47	4625
2026-01-27 13:29:09.86	321.71	12.50	-38.1	-40.0	14.7	1.10e-06	0	62	0	3126853632	47	4581
2026-01-27 13:29:10.86	321.83	12.42	-38.1	-40.0	14.7	1.10e-06	0	62	0	3133145088	47	4580
2026-01-27 13:29:11.88	321.96	12.35	-38.1	-40.0	14.6	1.10e-06	0	62	0	3138387968	47	4586
2026-01-27 13:29:12.89	322.08	12.27	-38.2	-40.1	14.6	0.00e+00	0	62	0	3144679424	47	4611
2026-01-27 13:29:13.89	322.20	12.20	-38.1	-39.9	14.7	1.10e-06	0	62	0	3149922304	47	4541
2026-01-27 13:29:14.90	322.33	12.12	-38.1	-40.0	14.7	0.00e+00	0	62	0	3156213760	47	4568
2026-01-27 13:29:15.91	322.45	12.05	-38.1	-40.1	14.6	0.00e+00	0	62	0	3161456640	47	4607
2026-01-27 13:29:16.93	322.57	11.97	-38.0	-39.9	14.7	0.00e+00	0	62	0	3167748096	47	4531
2026-01-27 13:29:17.93	322.69	11.90	-38.1	-40.0	14.6	1.10e-06	0	62	0	3172990976	47	4596
2026-01-27 13:29:18.94	322.81	11.83	-38.1	-40.1	14.6	0.00e+00	0	62	0	3178233856	47	4602
2026-01-27 13:29:19.95	322.93	11.75	-38.1	-40.0	14.6	1.10e-06	0	62	0	3184525312	47	4591
2026-01-27 13:29:20.96	323.04	11.68	-38.1	-40.0	14.6	1.10e-06	0	62	0	3189768192	47	4575
2026-01-27 13:29:21.97	323.16	11.60	-38.2	-40.1	14.5	1.10e-06	0	62	0	3196059648	47	4643
2026-01-27 13:29:22.98	323.28	11.53	-38.0	-39.9	14.7	0.00e+00	0	62	0	3201302528	47	4542
2026-01-27 13:29:23.99	323.39	11.46	-38.0	-39.9	14.7	2.20e-06	0	62	0	3206545408	47	4529
2026-01-27 13:29:25.00	323.51	11.38	-38.1	-40.0	14.6	0.00e+00	0	62	0	3212836864	47	4573
2026-01-27 13:29:26.01	323.63	11.31	-38.1	-40.0	14.6	2.20e-06	0	62	0	3218079744	47	4585
2026-01-27 13:29:27.02	323.74	11.24	-38.1	-40.0	14.6	0.00e+00	0	62	0	3224371200	47	4582
2026-01-27 13:29:28.03	323.86	11.16	-38.1	-40.1	14.5	2.20e-06	0	62	0	3229614080	47	4603
2026-01-27 13:29:29.04	323.97	11.09	-38.2	-40.2	14.4	1.10e-06	0	62	0	3234856960	47	4671
2026-01-27 13:29:30.05	324.08	11.02	-38.3	-40.3	14.3	1.10e-06	0	62	0	3241148416	47	4709
2026-01-27 13:29:31.06	324.19	10.95	-38.3	-40.4	14.2	2.20e-06	0	62	0	3246391296	47	4760
2026-01-27 13:29:32.07	324.31	10.87	-38.2	-40.2	14.3	2.20e-06	0	62	0	3252682752	47	4698
2026-01-27 13:29:33.08	324.42	10.80	-38.4	-40.5	14.1	1.10e-06	0	63	0	3257925632	47	4820
2026-01-27 13:29:34.09	324.53	10.73	-38.4	-40.5	14.1	8.00e-06	0	62	0	3264217088	47	4820
2026-01-27 13:29:35.10	324.64	10.66	-38.5	-40.5	14.0	1.10e-06	0	62	0	3269459968	47	4853
2026-01-27 13:29:36.10	324.75	10.59	-38.6	-40.7	13.8	1.14e-05	0	62	0	3274702848	47	4971
2026-01-27 13:29:37.12	324.86	10.51	-38.6	-40.7	13.8	6.80e-06	0	62	0	3280994304	47	4969
2026-01-27 13:29:38.13	324.97	10.44	-38.8	-41.0	13.7	1.14e-05	0	62	0	3286237184	48	4831
2026-01-27 13:29:39.14	325.08	10.37	-38.8	-40.9	13.7	1.48e-05	0	62	0	3292528640	48	4812
2026-01-27 13:29:40.15	325.19	10.30	-38.7	-40.8	13.8	8.00e-06	0	62	0	3297771520	48	4752
2026-01-27 13:29:41.16	325.29	10.23	-38.7	-40.8	13.8	3.40e-06	0	62	0	3304062976	48	4747
2026-01-27 13:29:42.17	325.40	10.16	-38.8	-40.9	13.7	1.02e-05	0	62	0	3309305856	48	4805
2026-01-27 13:29:43.18	325.51	10.08	-38.6	-40.7	13.9	6.80e-06	0	62	0	3314548736	48	4675
2026-01-27 13:29:44.19	325.61	10.01	-38.7	-40.8	13.8	2.20e-06	0	62	0	3320840192	48	4722
2026-01-27 13:29:45.20	325.72	9.94	-38.7	-40.8	13.8	1.25e-05	0	62	0	3326083072	48	4723
2026-01-27 13:29:46.21	325.82	9.87	-38.8	-41.0	13.6	1.71e-05	0	62	0	3332374528	48	4823
2026-01-27 13:29:47.22	325.93	9.80	-38.8	-41.0	13.6	1.14e-05	0	62	0	3337617408	48	4833
2026-01-27 13:29:48.23	326.03	9.73	-38.8	-41.0	13.6	8.00e-06	0	62	0	3342860288	48	4826
2026-01-27 13:29:49.24	326.14	9.66	-38.8	-40.9	13.6	1.37e-05	0	62	0	3349151744	48	4807
2026-01-27 13:29:50.25	326.24	9.59	-38.8	-40.9	13.7	1.71e-05	0	62	0	3354394624	48	4776
2026-01-27 13:29:51.26	326.34	9.52	-38.9	-41.0	13.5	1.71e-05	0	62	0	3360686080	48	4860
2026-01-27 13:29:52.27	326.44	9.45	-39.0	-41.3	13.2	1.37e-05	0	62	0	3365928960	48	5001
2026-01-27 13:29:53.28	326.55	9.38	-38.9	-41.1	13.4	2.28e-05	0	62	0	3372220416	48	4907
2026-01-27 13:29:54.29	326.65	9.31	-39.0	-41.2	13.3	2.28e-05	0	62	0	3377463296	48	4960
2026-01-27 13:29:55.30	326.75	9.24	-39.2	-41.5	13.0	5.60e-05	0	62	0	3382706176	48	5128
2026-01-27 13:29:56.31	326.85	9.17	-39.1	-41.4	13.1	5.14e-05	0	62	0	3388997632	48	5087
2026-01-27 13:29:57.32	326.95	9.10	-39.0	-41.2	13.3	4.80e-05	0	63	0	3394240512	48	4967
2026-01-27 13:29:58.33	327.05	9.03	-39.0	-41.3	13.2	2.86e-05	0	62	0	3400531968	48	4992
2026-01-27 13:29:59.34	327.15	8.96	-39.0	-41.3	13.2	4.23e-05	0	62	0	3405774848	48	5000
2026-01-27 13:30:00.35	327.24	8.89	-39.1	-41.3	13.1	4.92e-05	0	62	0	3411017728	48	5028
2026-01-27 13:30:01.36	327.34	8.82	-39.0	-41.2	13.2	4.23e-05	0	62	0	3417309184	48	4963
2026-01-27 13:30:02.37	327.44	8.75	-39.0	-41.2	13.3	2.40e-05	0	62	0	3422552064	48	4954
2026-01-27 13:30:03.38	327.54	8.69	-39.0	-41.3	13.1	3.54e-05	0	62	0	3428843520	48	5001
2026-01-27 13:30:04.39	327.63	8.62	-39.0	-41.3	13.2	2.63e-05	0	62	0	3434086400	48	4988
2026-01-27 13:30:05.40	327.73	8.55	-39.0	-41.3	13.2	4.80e-05	0	62	0	3439329280	48	4991
2026-01-27 13:30:06.41	327.83	8.48	-39.2	-41.6	12.8	8.81e-05	0	62	0	3445620736	49	4888
2026-01-27 13:30:07.42	327.92	8.41	-39.2	-41.6	12.8	8.58e-05	0	62	0	3450863616	49	4891
2026-01-27 13:30:08.43	328.02	8.34	-39.1	-41.5	12.9	9.26e-05	0	62	0	3457155072	49	4821
