passes_logs/2026/01/27/R2.0S_Moscow/R2.0S_Moscow__20260127_222107_NOAA_21_JPSS-2_rec.log

#Pass ID: 20260127_222107_NOAA 21 (JPSS-2)
#Satellite: NOAA 21 (JPSS-2)
#Configuration: NOAA-21
#almurnet v.1.7.20251203
#Start time: 2026-01-27 22:21:08

#Version: 2.2.20231116
#Station: R2.0S_Moscow
#Location: 37.707566 lon 55.798166 lat
#TLE: 1 54234U 22150A   26027.41809747  .00000179  00000+0  10565-3 0  9991
#TLE: 2 54234  98.7510 328.1683 0000854 205.0798 155.0336 14.19540145166571

#Time	Az	El	Level	Level2	SNR	BER	BlckErr	Temp	State	Recorded	gain1	gain2
2026-01-27 22:21:08.60	23.79	2.05	-43.0	-55.3	3.8	1.49e+00	0	53	0	0	58	14098
2026-01-27 22:21:09.60	23.85	2.11	-43.0	-55.2	3.8	1.49e+00	0	53	104	0	57	14879
2026-01-27 22:21:10.61	23.92	2.17	-43.0	-55.3	3.8	1.49e+00	0	53	104	0	57	14934
2026-01-27 22:21:11.62	23.98	2.22	-43.0	-55.3	3.8	1.49e+00	0	53	104	0	57	14892
2026-01-27 22:21:12.63	24.05	2.28	-43.0	-55.3	3.8	1.49e+00	0	53	104	0	57	14906
2026-01-27 22:21:13.65	24.11	2.34	-43.0	-55.3	3.8	1.49e+00	0	53	104	0	57	14912
2026-01-27 22:21:14.66	24.18	2.40	-43.0	-55.3	3.8	1.49e+00	0	53	104	0	57	14941
2026-01-27 22:21:15.67	24.24	2.45	-43.0	-55.2	3.8	1.49e+00	0	53	104	0	57	14872
2026-01-27 22:21:16.68	24.31	2.51	-43.0	-55.3	3.8	1.49e+00	0	53	104	0	57	14889
2026-01-27 22:21:17.69	24.37	2.57	-43.0	-55.2	3.8	1.49e+00	0	53	104	0	57	14870
2026-01-27 22:21:18.70	24.44	2.63	-43.0	-55.2	3.8	1.49e+00	0	53	104	0	57	14872
2026-01-27 22:21:19.71	24.50	2.69	-43.0	-55.2	3.8	1.49e+00	0	54	104	0	57	14862
2026-01-27 22:21:20.72	24.57	2.74	-43.0	-55.3	3.8	1.49e+00	0	54	104	0	57	14894
2026-01-27 22:21:21.73	24.64	2.80	-43.0	-55.3	3.8	1.49e+00	0	53	104	0	57	14887
2026-01-27 22:21:22.74	24.70	2.86	-43.0	-55.2	3.8	1.49e+00	0	54	104	0	57	14821
2026-01-27 22:21:23.75	24.77	2.92	-43.0	-55.3	3.8	1.49e+00	0	54	104	0	57	14889
2026-01-27 22:21:24.76	24.84	2.98	-43.0	-55.3	3.8	1.49e+00	0	54	104	0	57	14943
2026-01-27 22:21:25.77	24.91	3.04	-43.0	-55.3	3.8	1.49e+00	0	54	104	0	57	14920
2026-01-27 22:21:26.78	24.97	3.10	-43.0	-55.2	3.8	1.49e+00	0	54	104	0	57	14862
2026-01-27 22:21:27.79	25.04	3.15	-42.9	-55.2	3.8	1.49e+00	0	54	104	0	57	14849
2026-01-27 22:21:28.80	25.11	3.21	-43.0	-55.3	3.8	1.49e+00	0	54	104	0	57	14919
2026-01-27 22:21:29.81	25.18	3.27	-43.0	-55.2	3.8	1.49e+00	0	54	104	0	57	14864
2026-01-27 22:21:30.82	25.25	3.33	-43.0	-55.2	3.8	1.49e+00	0	54	104	0	57	14848
2026-01-27 22:21:31.83	25.32	3.39	-42.9	-55.2	3.8	1.49e+00	0	54	104	0	57	14864
2026-01-27 22:21:32.84	25.39	3.45	-43.0	-55.2	3.8	1.49e+00	0	55	104	0	57	14865
2026-01-27 22:21:33.85	25.46	3.51	-42.9	-55.2	3.8	1.49e+00	0	55	104	0	57	14860
2026-01-27 22:21:34.86	25.53	3.57	-42.9	-55.2	3.8	1.49e+00	0	54	104	0	57	14876
2026-01-27 22:21:35.87	25.60	3.63	-43.0	-55.2	3.8	1.49e+00	0	55	104	0	57	14847
2026-01-27 22:21:36.89	25.67	3.69	-43.0	-55.2	3.8	1.49e+00	0	55	104	0	57	14858
2026-01-27 22:21:37.89	25.74	3.75	-43.0	-55.2	3.8	1.49e+00	0	55	104	0	57	14857
2026-01-27 22:21:38.90	25.81	3.81	-42.9	-55.2	3.8	1.49e+00	0	55	104	0	57	14845
2026-01-27 22:21:39.91	25.88	3.87	-42.9	-55.2	3.8	1.49e+00	0	55	104	0	57	14809
2026-01-27 22:21:40.92	25.95	3.93	-42.9	-55.3	3.8	1.49e+00	0	55	104	0	57	14881
2026-01-27 22:21:41.93	26.02	3.99	-43.0	-55.2	3.8	1.49e+00	0	55	104	0	57	14858
2026-01-27 22:21:42.94	26.10	4.05	-42.9	-55.2	3.8	1.49e+00	0	55	104	0	57	14860
2026-01-27 22:21:43.95	26.17	4.11	-42.9	-55.3	3.8	1.49e+00	0	55	104	0	57	14905
2026-01-27 22:21:44.96	26.24	4.17	-42.9	-55.2	3.8	1.49e+00	0	55	104	0	57	14858
2026-01-27 22:21:45.97	26.31	4.23	-43.0	-55.2	3.8	1.49e+00	0	55	104	0	57	14860
2026-01-27 22:21:46.98	26.39	4.29	-42.9	-55.2	3.8	1.49e+00	0	55	104	0	57	14861
2026-01-27 22:21:47.99	26.46	4.35	-43.0	-55.2	3.8	1.49e+00	0	55	104	0	57	14852
2026-01-27 22:21:49.00	26.53	4.41	-42.9	-55.3	3.8	1.49e+00	0	55	104	0	57	14897
2026-01-27 22:21:50.01	26.61	4.47	-42.9	-55.2	3.8	1.49e+00	0	56	104	0	57	14859
2026-01-27 22:21:51.02	26.68	4.53	-42.9	-55.2	3.8	1.49e+00	0	55	104	0	57	14835
2026-01-27 22:21:52.04	26.76	4.60	-42.9	-55.2	3.8	1.49e+00	0	56	104	0	57	14847
2026-01-27 22:21:53.05	26.83	4.66	-42.9	-55.3	3.8	1.49e+00	0	55	104	0	57	14884
2026-01-27 22:21:54.06	26.91	4.72	-42.9	-55.2	3.8	1.49e+00	0	56	104	0	57	14811
2026-01-27 22:21:55.07	26.98	4.78	-42.9	-55.3	3.8	1.49e+00	0	56	104	0	57	14895
2026-01-27 22:21:56.08	27.06	4.84	-42.9	-55.2	3.8	1.49e+00	0	56	104	0	57	14843
2026-01-27 22:21:57.09	27.13	4.90	-42.9	-55.2	3.8	1.49e+00	0	56	104	0	57	14824
2026-01-27 22:21:58.10	27.21	4.97	-43.0	-55.2	3.8	1.49e+00	0	56	104	0	57	14844
2026-01-27 22:21:59.11	27.29	5.03	-42.9	-55.2	3.8	1.49e+00	0	56	104	0	57	14836
2026-01-27 22:22:00.12	27.36	5.09	-43.0	-55.3	3.8	1.49e+00	0	56	104	0	57	14891
2026-01-27 22:22:01.13	27.44	5.15	-43.0	-55.2	3.8	1.49e+00	0	56	104	0	57	14879
2026-01-27 22:22:02.14	27.52	5.21	-43.0	-55.2	3.8	1.49e+00	0	56	104	0	57	14864
2026-01-27 22:22:03.15	27.60	5.28	-43.0	-55.3	3.8	1.49e+00	0	56	104	0	57	14898
2026-01-27 22:22:04.16	27.68	5.34	-43.0	-55.2	3.8	1.49e+00	0	56	104	0	57	14857
2026-01-27 22:22:05.17	27.75	5.40	-43.0	-55.3	3.8	1.49e+00	0	56	104	0	57	14903
2026-01-27 22:22:06.18	27.83	5.46	-43.0	-55.2	3.8	1.49e+00	0	56	104	0	57	14849
2026-01-27 22:22:07.19	27.91	5.53	-43.0	-55.2	3.8	1.49e+00	0	56	104	0	57	14849
2026-01-27 22:22:08.20	27.99	5.59	-42.9	-55.2	3.8	1.49e+00	0	56	104	0	57	14852
2026-01-27 22:22:09.21	28.07	5.65	-43.0	-55.2	3.8	1.49e+00	0	56	104	0	57	14847
2026-01-27 22:22:10.22	28.15	5.72	-42.9	-55.2	3.8	1.49e+00	0	56	104	0	57	14877
2026-01-27 22:22:11.24	28.23	5.78	-43.0	-55.2	3.8	1.49e+00	0	57	104	0	57	14878
2026-01-27 22:22:12.25	28.31	5.84	-42.9	-55.2	3.8	1.49e+00	0	57	104	0	57	14845
2026-01-27 22:22:13.26	28.40	5.91	-43.0	-55.2	3.8	1.49e+00	0	57	104	0	57	14846
2026-01-27 22:22:14.27	28.48	5.97	-42.9	-55.2	3.8	1.49e+00	0	57	104	0	57	14848
2026-01-27 22:22:15.28	28.56	6.03	-43.0	-55.2	3.8	1.49e+00	0	57	104	0	57	14868
2026-01-27 22:22:16.29	28.64	6.10	-42.9	-55.2	3.8	1.49e+00	0	57	104	0	57	14802
2026-01-27 22:22:17.30	28.72	6.16	-42.9	-55.2	3.8	1.49e+00	0	57	104	0	57	14821
2026-01-27 22:22:18.31	28.81	6.23	-42.9	-55.2	3.8	1.49e+00	0	57	104	0	57	14870
2026-01-27 22:22:19.32	28.89	6.29	-42.9	-55.2	3.8	1.49e+00	0	57	104	0	57	14769
2026-01-27 22:22:20.33	28.97	6.35	-42.9	-55.2	3.8	1.49e+00	0	57	104	0	57	14712
2026-01-27 22:22:21.34	29.06	6.42	-42.9	-55.1	3.8	1.49e+00	0	57	104	0	57	14591
2026-01-27 22:22:22.35	29.14	6.48	-42.9	-55.0	3.8	1.49e+00	0	57	104	0	57	14533
2026-01-27 22:22:23.36	29.23	6.55	-42.9	-55.0	3.8	1.49e+00	0	57	104	0	57	14434
2026-01-27 22:22:24.37	29.31	6.61	-42.9	-54.9	3.8	1.49e+00	0	57	104	0	57	14219
2026-01-27 22:22:25.38	29.40	6.68	-42.9	-54.7	3.8	1.49e+00	0	57	104	0	57	13986
2026-01-27 22:22:26.39	29.48	6.74	-42.9	-54.5	3.8	1.49e+00	0	57	104	0	57	13683
2026-01-27 22:22:27.40	29.57	6.81	-42.9	-54.4	3.8	1.49e+00	0	57	104	0	57	13447
2026-01-27 22:22:28.41	29.65	6.87	-42.8	-53.6	3.8	1.49e+00	0	57	104	0	57	12253
2026-01-27 22:22:29.42	29.74	6.94	-42.7	-53.1	3.8	1.49e+00	0	57	104	0	57	11653
2026-01-27 22:22:30.43	29.83	7.00	-42.5	-51.2	4.3	1.47e+00	0	57	104	0	57	9313
2026-01-27 22:22:31.44	29.92	7.07	-42.5	-51.1	4.0	1.44e+00	0	57	104	0	57	9273
2026-01-27 22:22:32.45	30.00	7.13	-42.3	-49.8	4.9	1.18e+00	0	57	104	0	56	8442
2026-01-27 22:22:33.46	30.09	7.20	-42.5	-51.3	4.0	1.30e+00	0	58	104	1048576	56	10020
2026-01-27 22:22:34.47	30.18	7.27	-42.7	-52.5	4.0	1.48e+00	0	58	104	1048576	56	11532
2026-01-27 22:22:35.48	30.27	7.33	-42.8	-54.0	3.8	1.49e+00	0	58	104	1048576	56	13711
2026-01-27 22:22:36.49	30.36	7.40	-42.9	-54.6	3.8	1.49e+00	0	58	104	1048576	56	14622
2026-01-27 22:22:37.50	30.45	7.46	-42.5	-51.3	4.3	1.46e+00	0	58	104	1048576	56	10049
2026-01-27 22:22:38.51	30.54	7.53	-42.2	-49.4	5.2	6.85e-01	0	58	0	2097152	56	8027
2026-01-27 22:22:39.52	30.63	7.60	-42.1	-48.9	5.5	5.37e-01	0	58	0	5242880	56	7601
2026-01-27 22:22:40.53	30.72	7.66	-41.7	-47.8	6.1	3.28e-01	0	58	0	8388608	55	7106
2026-01-27 22:22:41.54	30.81	7.73	-41.3	-46.6	7.2	1.46e-01	0	58	0	11534336	54	6501
2026-01-27 22:22:42.55	30.90	7.80	-40.7	-45.0	8.7	4.36e-02	0	58	0	14680064	53	5782
2026-01-27 22:22:43.56	31.00	7.86	-40.3	-44.2	9.6	1.37e-02	0	58	0	17825792	52	5566
2026-01-27 22:22:44.57	31.09	7.93	-40.0	-43.6	10.1	7.52e-03	0	58	0	20971520	52	5214
2026-01-27 22:22:45.59	31.18	8.00	-40.1	-43.6	10.2	5.52e-03	0	58	0	24117248	51	5519
2026-01-27 22:22:46.59	31.27	8.06	-40.3	-44.0	10.0	7.43e-03	0	58	0	27262976	51	5755
2026-01-27 22:22:47.60	31.37	8.13	-41.6	-46.7	7.6	1.63e-02	0	58	0	30408704	53	6973
2026-01-27 22:22:48.62	31.46	8.20	-40.2	-44.0	9.9	2.92e-02	0	58	0	33554432	52	5406
2026-01-27 22:22:49.62	31.56	8.27	-41.5	-50.2	4.0	4.20e-01	1	58	104	36700160	53	10418
2026-01-27 22:22:50.64	31.65	8.33	-39.5	-42.3	11.9	1.32e+00	0	58	0	36700160	51	4732
2026-01-27 22:22:51.65	31.75	8.40	-40.1	-43.1	11.4	6.74e-03	0	58	0	39845888	52	4925
2026-01-27 22:22:52.66	31.84	8.47	-39.7	-42.6	12.0	3.52e-04	0	58	0	42991616	51	4901
2026-01-27 22:22:53.67	31.94	8.54	-39.7	-42.6	12.0	2.51e-04	0	58	0	46137344	51	4882
2026-01-27 22:22:54.68	32.04	8.61	-39.7	-42.6	12.1	2.66e-04	0	58	0	49283072	51	4877
2026-01-27 22:22:55.69	32.13	8.67	-39.9	-42.8	11.9	3.45e-04	0	58	0	52428800	51	5022
2026-01-27 22:22:56.70	32.23	8.74	-39.8	-42.6	12.1	2.81e-04	0	58	0	55574528	51	4913
2026-01-27 22:22:57.71	32.33	8.81	-39.7	-42.5	12.2	2.12e-04	0	58	0	58720256	51	4850
2026-01-27 22:22:58.72	32.43	8.88	-39.9	-42.7	12.0	2.35e-04	0	58	0	61865984	51	4966
2026-01-27 22:22:59.73	32.53	8.95	-39.9	-42.7	12.0	2.82e-04	0	58	0	65011712	51	4977
2026-01-27 22:23:00.74	32.63	9.02	-39.7	-42.4	12.3	2.18e-04	0	58	0	68157440	51	4807
2026-01-27 22:23:01.75	32.73	9.09	-39.8	-42.5	12.3	1.76e-04	0	58	0	71303168	51	4869
2026-01-27 22:23:02.76	32.83	9.16	-39.6	-42.3	12.5	1.43e-04	0	58	0	74448896	51	4731
2026-01-27 22:23:03.77	32.93	9.23	-39.7	-42.4	12.5	1.49e-04	0	58	0	77594624	51	4798
2026-01-27 22:23:04.78	33.03	9.29	-39.6	-42.2	12.7	6.94e-05	0	58	0	80740352	50	4935
2026-01-27 22:23:05.79	33.13	9.36	-39.7	-42.4	12.4	8.01e-05	0	58	0	83886080	50	5076
2026-01-27 22:23:06.80	33.23	9.43	-39.5	-42.1	12.9	5.87e-05	0	59	0	87031808	50	4887
2026-01-27 22:23:07.82	33.34	9.50	-39.6	-42.2	12.7	7.17e-05	0	58	0	90177536	50	4972
2026-01-27 22:23:08.83	33.44	9.57	-39.5	-42.1	13.0	3.96e-05	0	58	0	93323264	50	4874
2026-01-27 22:23:09.84	33.54	9.64	-39.6	-42.1	13.0	3.66e-05	0	59	0	96468992	50	4913
2026-01-27 22:23:10.85	33.65	9.71	-39.6	-42.1	12.9	3.50e-05	0	58	0	99614720	50	4917
2026-01-27 22:23:11.86	33.75	9.78	-39.7	-42.4	12.7	6.02e-05	0	59	0	102760448	50	5058
2026-01-27 22:23:12.87	33.86	9.85	-39.6	-42.2	12.9	5.18e-05	0	59	0	105906176	50	4942
2026-01-27 22:23:13.88	33.96	9.92	-39.7	-42.3	12.8	6.86e-05	0	59	0	109051904	50	5033
2026-01-27 22:23:14.89	34.07	10.00	-39.7	-42.2	12.9	4.95e-05	0	59	0	112197632	50	4973
2026-01-27 22:23:15.90	34.17	10.07	-39.5	-41.9	13.3	2.28e-05	0	59	0	115343360	50	4799
2026-01-27 22:23:16.91	34.28	10.14	-39.4	-41.8	13.3	1.90e-05	0	59	0	118489088	50	4747
2026-01-27 22:23:17.93	34.39	10.21	-39.5	-42.0	13.2	3.81e-05	0	59	0	121634816	50	4830
2026-01-27 22:23:18.94	34.50	10.28	-39.5	-41.9	13.2	2.36e-05	0	59	0	124780544	50	4804
2026-01-27 22:23:19.95	34.61	10.35	-39.5	-42.0	13.3	1.60e-05	0	59	0	127926272	50	4828
2026-01-27 22:23:20.96	34.71	10.42	-39.6	-42.0	13.2	1.75e-05	0	59	0	131072000	50	4856
2026-01-27 22:23:21.97	34.82	10.49	-39.5	-42.0	13.2	2.67e-05	0	59	0	134217728	50	4831
2026-01-27 22:23:22.98	34.93	10.56	-39.4	-41.8	13.5	1.60e-05	0	59	0	137363456	50	4708
2026-01-27 22:23:23.99	35.04	10.64	-39.5	-41.9	13.4	1.22e-05	0	59	0	140509184	50	4773
2026-01-27 22:23:25.00	35.16	10.71	-39.4	-41.8	13.5	9.10e-06	0	59	0	143654912	50	4733
2026-01-27 22:23:26.01	35.27	10.78	-39.5	-41.8	13.5	1.52e-05	0	59	0	146800640	50	4756
2026-01-27 22:23:27.02	35.38	10.85	-39.5	-41.9	13.5	9.90e-06	0	59	0	149946368	50	4763
2026-01-27 22:23:28.03	35.49	10.92	-39.3	-41.6	13.7	7.60e-06	0	59	0	153092096	50	4643
2026-01-27 22:23:29.04	35.60	11.00	-39.4	-41.7	13.6	1.06e-05	0	59	0	156237824	50	4705
2026-01-27 22:23:30.05	35.72	11.07	-39.5	-41.9	13.5	1.22e-05	0	59	0	159383552	50	4809
2026-01-27 22:23:31.06	35.83	11.14	-39.4	-41.8	13.6	3.80e-06	0	59	0	162529280	50	4716
2026-01-27 22:23:32.07	35.95	11.21	-39.3	-41.6	13.8	6.10e-06	0	59	0	165675008	50	4650
2026-01-27 22:23:33.08	36.06	11.29	-39.3	-41.5	13.8	3.80e-06	0	59	0	168820736	50	4598
2026-01-27 22:23:34.10	36.18	11.36	-39.2	-41.5	14.0	3.80e-06	0	59	0	171966464	50	4558
2026-01-27 22:23:35.10	36.29	11.43	-39.3	-41.6	13.8	3.00e-06	0	59	0	175112192	50	4631
2026-01-27 22:23:36.11	36.41	11.50	-39.3	-41.6	13.8	6.10e-06	0	59	0	178257920	50	4634
2026-01-27 22:23:37.12	36.53	11.58	-39.5	-41.9	13.6	3.80e-06	0	59	0	181403648	50	4761
2026-01-27 22:23:38.14	36.65	11.65	-39.3	-41.6	13.8	2.20e-06	0	59	0	184549376	50	4639
2026-01-27 22:23:39.14	36.77	11.72	-39.3	-41.5	13.9	7.00e-07	0	59	0	187695104	50	4590
2026-01-27 22:23:40.15	36.88	11.80	-39.3	-41.6	13.8	8.30e-06	0	59	0	190840832	50	4625
2026-01-27 22:23:41.16	37.00	11.87	-39.3	-41.5	13.9	3.00e-06	0	59	0	193986560	50	4598
2026-01-27 22:23:42.17	37.12	11.94	-39.2	-41.4	14.1	1.50e-06	0	59	0	197132288	50	4520
2026-01-27 22:23:43.18	37.25	12.02	-39.2	-41.5	14.0	2.20e-06	0	59	0	200278016	50	4552
2026-01-27 22:23:44.19	37.37	12.09	-39.2	-41.4	14.1	1.50e-06	0	59	0	203423744	50	4513
2026-01-27 22:23:45.20	37.49	12.17	-39.2	-41.5	14.0	3.00e-06	0	59	0	206569472	50	4552
2026-01-27 22:23:46.21	37.61	12.24	-39.1	-41.2	14.3	1.50e-06	0	59	0	209715200	50	4419
2026-01-27 22:23:47.22	37.74	12.31	-39.1	-41.3	14.2	0.00e+00	0	59	0	212860928	50	4458
2026-01-27 22:23:48.24	37.86	12.39	-39.2	-41.4	14.1	7.00e-07	0	59	0	216006656	50	4525
2026-01-27 22:23:49.25	37.98	12.46	-39.0	-41.2	14.4	0.00e+00	0	59	0	219152384	50	4402
2026-01-27 22:23:50.26	38.11	12.54	-39.1	-41.3	14.3	2.20e-06	0	59	0	222298112	50	4446
2026-01-27 22:23:51.27	38.24	12.61	-39.1	-41.2	14.3	3.00e-06	0	59	0	225443840	50	4413
2026-01-27 22:23:52.28	38.36	12.69	-39.2	-41.4	14.2	0.00e+00	0	60	0	228589568	50	4517
2026-01-27 22:23:53.29	38.49	12.76	-39.2	-41.4	14.2	7.00e-07	0	59	0	231735296	50	4523
2026-01-27 22:23:54.30	38.62	12.84	-39.3	-41.5	14.1	7.00e-07	0	60	0	234881024	50	4572
2026-01-27 22:23:55.31	38.74	12.91	-39.3	-41.5	14.1	1.50e-06	0	60	0	238026752	50	4571
2026-01-27 22:23:56.32	38.87	12.99	-39.3	-41.5	14.0	2.20e-06	0	59	0	241172480	50	4577
2026-01-27 22:23:57.33	39.00	13.06	-39.3	-41.5	14.1	1.50e-06	0	60	0	244318208	50	4574
2026-01-27 22:23:58.34	39.13	13.14	-39.1	-41.3	14.3	1.50e-06	0	60	0	247463936	50	4461
2026-01-27 22:23:59.35	39.26	13.21	-39.3	-41.4	14.2	1.50e-06	0	60	0	250609664	50	4538
2026-01-27 22:24:00.36	39.40	13.29	-39.1	-41.3	14.3	7.00e-07	0	60	0	253755392	50	4455
2026-01-27 22:24:01.37	39.53	13.37	-39.2	-41.3	14.3	7.00e-07	0	60	0	256901120	50	4480
2026-01-27 22:24:02.38	39.66	13.44	-39.1	-41.3	14.3	0.00e+00	0	60	0	260046848	50	4451
2026-01-27 22:24:03.39	39.79	13.52	-39.0	-41.1	14.5	0.00e+00	0	59	0	263192576	50	4367
2026-01-27 22:24:04.40	39.93	13.59	-39.0	-41.1	14.5	0.00e+00	0	60	0	266338304	50	4368
2026-01-27 22:24:05.41	40.06	13.67	-39.0	-41.1	14.5	0.00e+00	0	60	0	270532608	50	4385
2026-01-27 22:24:06.42	40.20	13.75	-39.2	-41.3	14.4	1.50e-06	0	60	0	273678336	50	4458
2026-01-27 22:24:07.43	40.33	13.82	-39.2	-41.3	14.3	7.00e-07	0	60	0	276824064	50	4475
2026-01-27 22:24:08.44	40.47	13.90	-39.1	-41.3	14.4	0.00e+00	0	60	0	278921216	50	4457
2026-01-27 22:24:09.45	40.61	13.98	-39.2	-41.4	14.2	1.50e-06	0	60	0	283115520	50	4516
2026-01-27 22:24:10.46	40.75	14.05	-39.2	-41.3	14.3	0.00e+00	0	60	0	286261248	50	4492
2026-01-27 22:24:11.47	40.88	14.13	-39.2	-41.3	14.3	0.00e+00	0	60	0	289406976	50	4488
2026-01-27 22:24:12.48	41.02	14.21	-39.2	-41.4	14.3	1.50e-06	0	60	0	292552704	50	4500
2026-01-27 22:24:13.49	41.16	14.28	-39.2	-41.4	14.3	7.00e-07	0	60	0	295698432	50	4519
2026-01-27 22:24:14.50	41.30	14.36	-39.3	-41.4	14.3	1.50e-06	0	60	0	298844160	50	4521
2026-01-27 22:24:15.51	41.45	14.44	-39.3	-41.4	14.3	0.00e+00	0	60	0	301989888	50	4525
2026-01-27 22:24:16.52	41.59	14.51	-39.3	-41.5	14.2	3.80e-06	0	60	0	305135616	50	4576
2026-01-27 22:24:17.53	41.73	14.59	-39.2	-41.4	14.3	1.50e-06	0	60	0	308281344	50	4505
2026-01-27 22:24:18.55	41.88	14.67	-39.2	-41.4	14.3	2.20e-06	0	60	0	311427072	50	4501
2026-01-27 22:24:19.56	42.02	14.75	-39.2	-41.4	14.3	7.00e-07	0	60	0	314572800	50	4496
2026-01-27 22:24:20.57	42.17	14.82	-39.3	-41.4	14.3	1.50e-06	0	60	0	317718528	50	4534
2026-01-27 22:24:21.58	42.31	14.90	-39.2	-41.4	14.3	1.50e-06	0	60	0	320864256	50	4504
2026-01-27 22:24:22.59	42.46	14.98	-39.3	-41.4	14.3	0.00e+00	0	60	0	324009984	50	4544
2026-01-27 22:24:23.60	42.61	15.06	-39.4	-41.6	14.2	1.50e-06	0	60	0	327155712	50	4609
2026-01-27 22:24:24.61	42.75	15.13	-39.4	-41.6	14.1	7.00e-07	0	60	0	330301440	50	4609
2026-01-27 22:24:25.62	42.90	15.21	-39.4	-41.6	14.1	7.00e-07	0	60	0	333447168	50	4650
2026-01-27 22:24:26.63	43.05	15.29	-39.4	-41.7	14.1	3.00e-06	0	60	0	336592896	50	4662
2026-01-27 22:24:27.64	43.20	15.37	-39.4	-41.6	14.2	2.20e-06	0	60	0	339738624	50	4627
2026-01-27 22:24:28.65	43.35	15.45	-39.4	-41.6	14.1	1.50e-06	0	60	0	342884352	50	4626
2026-01-27 22:24:29.66	43.51	15.52	-39.4	-41.5	14.2	1.50e-06	0	60	0	346030080	50	4589
2026-01-27 22:24:30.67	43.66	15.60	-39.3	-41.5	14.2	7.00e-07	0	60	0	349175808	50	4572
2026-01-27 22:24:31.67	43.81	15.68	-39.4	-41.5	14.2	0.00e+00	0	60	0	352321536	50	4580
2026-01-27 22:24:32.68	43.97	15.76	-39.4	-41.5	14.3	1.50e-06	0	60	0	355467264	50	4587
2026-01-27 22:24:33.69	44.12	15.84	-39.4	-41.6	14.2	4.50e-06	0	60	0	358612992	50	4601
2026-01-27 22:24:34.71	44.28	15.92	-39.4	-41.5	14.2	3.00e-06	0	60	0	361758720	50	4587
2026-01-27 22:24:35.71	44.43	15.99	-39.5	-41.6	14.1	7.00e-07	0	60	0	364904448	50	4645
2026-01-27 22:24:36.72	44.59	16.07	-39.5	-41.7	14.1	2.20e-06	0	60	0	368050176	50	4653
2026-01-27 22:24:37.73	44.75	16.15	-39.5	-41.8	14.0	2.20e-06	0	60	0	371195904	50	4719
2026-01-27 22:24:38.74	44.91	16.23	-39.5	-41.7	14.1	1.50e-06	0	60	0	374341632	50	4659
2026-01-27 22:24:39.75	45.07	16.31	-39.5	-41.6	14.2	1.50e-06	0	60	0	377487360	50	4647
2026-01-27 22:24:40.76	45.23	16.39	-39.5	-41.7	14.0	1.50e-06	0	60	0	380633088	50	4690
2026-01-27 22:24:41.77	45.39	16.47	-39.5	-41.7	14.1	1.50e-06	0	60	0	383778816	50	4692
2026-01-27 22:24:42.78	45.55	16.55	-39.6	-41.8	14.0	3.80e-06	0	60	0	386924544	50	4745
2026-01-27 22:24:43.79	45.72	16.62	-39.6	-41.8	14.0	2.20e-06	0	60	0	390070272	50	4711
2026-01-27 22:24:44.80	45.88	16.70	-39.5	-41.7	14.0	2.20e-06	0	60	0	393216000	50	4701
2026-01-27 22:24:45.81	46.04	16.78	-39.6	-41.8	13.9	3.00e-06	0	60	0	396361728	50	4751
2026-01-27 22:24:46.82	46.21	16.86	-39.5	-41.7	14.1	3.00e-06	0	60	0	399507456	50	4694
2026-01-27 22:24:47.83	46.38	16.94	-39.5	-41.7	14.1	1.50e-06	0	60	0	402653184	50	4656
2026-01-27 22:24:48.84	46.54	17.02	-39.6	-41.8	14.0	7.00e-07	0	60	0	405798912	50	4720
2026-01-27 22:24:49.85	46.71	17.10	-39.5	-41.7	14.1	7.00e-07	0	60	0	408944640	50	4698
2026-01-27 22:24:50.86	46.88	17.18	-39.6	-41.8	14.0	1.50e-06	0	60	0	412090368	50	4718
2026-01-27 22:24:51.87	47.05	17.26	-39.6	-41.8	14.0	7.00e-07	0	60	0	415236096	50	4737
2026-01-27 22:24:52.88	47.22	17.34	-39.7	-42.0	13.8	2.20e-06	0	60	0	418381824	50	4826
2026-01-27 22:24:53.89	47.39	17.41	-39.9	-42.2	13.6	9.90e-06	0	60	0	421527552	50	4962
2026-01-27 22:24:54.90	47.57	17.49	-39.7	-41.9	13.9	3.00e-06	0	60	0	424673280	50	4814
2026-01-27 22:24:55.91	47.74	17.57	-39.7	-42.0	13.8	1.37e-05	0	60	0	427819008	50	4855
2026-01-27 22:24:56.92	47.91	17.65	-39.7	-41.9	13.9	0.00e+00	0	60	0	430964736	50	4789
2026-01-27 22:24:57.93	48.09	17.73	-39.6	-41.8	14.0	3.00e-06	0	60	0	434110464	50	4752
2026-01-27 22:24:58.94	48.27	17.81	-39.6	-41.8	14.0	3.00e-06	0	60	0	437256192	50	4733
2026-01-27 22:24:59.95	48.44	17.89	-39.5	-41.6	14.2	2.20e-06	0	60	0	440401920	50	4648
2026-01-27 22:25:00.96	48.62	17.97	-39.4	-41.6	14.3	7.00e-07	0	60	0	443547648	50	4601
2026-01-27 22:25:01.97	48.80	18.05	-39.4	-41.6	14.2	7.00e-07	0	60	0	446693376	50	4604
2026-01-27 22:25:02.98	48.98	18.13	-39.4	-41.5	14.3	0.00e+00	0	60	0	449839104	50	4578
2026-01-27 22:25:04.00	49.16	18.21	-39.4	-41.5	14.3	2.20e-06	0	60	0	452984832	50	4595
2026-01-27 22:25:05.01	49.34	18.29	-39.4	-41.5	14.3	0.00e+00	0	60	0	456130560	50	4581
2026-01-27 22:25:06.02	49.53	18.37	-39.4	-41.5	14.3	0.00e+00	0	61	0	459276288	50	4583
2026-01-27 22:25:07.03	49.71	18.44	-39.4	-41.6	14.3	0.00e+00	0	60	0	462422016	50	4603
2026-01-27 22:25:08.04	49.90	18.52	-39.4	-41.6	14.3	1.50e-06	0	61	0	465567744	50	4623
2026-01-27 22:25:09.05	50.08	18.60	-39.6	-41.8	14.1	1.50e-06	0	60	0	468713472	50	4709
2026-01-27 22:25:10.06	50.27	18.68	-39.5	-41.6	14.2	7.00e-07	0	61	0	471859200	50	4639
2026-01-27 22:25:11.07	50.45	18.76	-39.6	-41.9	14.0	3.00e-06	0	61	0	475004928	50	4767
2026-01-27 22:25:12.08	50.64	18.84	-39.5	-41.7	14.2	1.50e-06	0	60	0	478150656	50	4689
2026-01-27 22:25:13.09	50.83	18.92	-39.4	-41.5	14.3	1.50e-06	0	60	0	481296384	50	4590
2026-01-27 22:25:14.10	51.02	19.00	-39.3	-41.4	14.5	7.00e-07	0	60	0	484442112	50	4527
2026-01-27 22:25:15.11	51.21	19.08	-39.3	-41.3	14.6	7.00e-07	0	61	0	487587840	50	4481
2026-01-27 22:25:16.12	51.40	19.16	-39.2	-41.3	14.6	7.00e-07	0	61	0	490733568	50	4445
2026-01-27 22:25:17.13	51.60	19.23	-39.2	-41.3	14.6	7.00e-07	0	61	0	493879296	50	4442
2026-01-27 22:25:18.14	51.79	19.31	-39.1	-41.1	14.8	0.00e+00	0	60	0	497025024	50	4369
2026-01-27 22:25:19.15	51.99	19.39	-39.1	-41.1	14.7	0.00e+00	0	61	0	500170752	50	4382
2026-01-27 22:25:20.16	52.18	19.47	-38.9	-40.9	14.9	0.00e+00	0	60	0	503316480	49	4515
2026-01-27 22:25:21.17	52.38	19.55	-38.9	-40.8	15.1	0.00e+00	0	60	0	506462208	49	4458
2026-01-27 22:25:22.18	52.58	19.63	-38.9	-40.8	15.1	0.00e+00	0	60	0	509607936	49	4470
2026-01-27 22:25:23.19	52.78	19.70	-38.9	-40.9	15.1	0.00e+00	0	61	0	512753664	49	4500
2026-01-27 22:25:24.20	52.98	19.78	-38.8	-40.7	15.2	0.00e+00	0	61	0	515899392	49	4426
2026-01-27 22:25:25.21	53.18	19.86	-38.8	-40.8	15.1	0.00e+00	0	60	0	519045120	49	4447
2026-01-27 22:25:26.22	53.38	19.94	-38.8	-40.8	15.1	0.00e+00	0	61	0	522190848	49	4454
2026-01-27 22:25:27.24	53.59	20.02	-38.8	-40.7	15.2	0.00e+00	0	61	0	525336576	49	4418
2026-01-27 22:25:28.25	53.79	20.09	-38.9	-40.8	15.1	0.00e+00	0	61	0	528482304	49	4475
2026-01-27 22:25:29.26	53.99	20.17	-38.9	-40.9	15.0	0.00e+00	0	61	0	531628032	49	4524
2026-01-27 22:25:30.27	54.20	20.25	-38.9	-40.9	15.0	0.00e+00	0	61	0	534773760	49	4505
2026-01-27 22:25:31.28	54.41	20.33	-38.8	-40.7	15.2	0.00e+00	0	60	0	537919488	49	4437
2026-01-27 22:25:32.29	54.62	20.40	-38.9	-40.8	15.1	0.00e+00	0	61	0	541065216	49	4451
2026-01-27 22:25:33.30	54.82	20.48	-38.9	-40.9	15.0	0.00e+00	0	61	0	544210944	49	4520
2026-01-27 22:25:34.31	55.03	20.56	-38.9	-40.8	15.1	0.00e+00	0	61	0	547356672	49	4467
2026-01-27 22:25:35.32	55.25	20.64	-38.9	-40.8	15.1	0.00e+00	0	61	0	550502400	49	4468
2026-01-27 22:25:36.33	55.46	20.71	-38.9	-40.9	15.0	0.00e+00	0	61	0	553648128	49	4506
2026-01-27 22:25:37.34	55.67	20.79	-38.9	-40.8	15.1	7.00e-07	0	61	0	556793856	49	4462
2026-01-27 22:25:38.35	55.89	20.86	-38.9	-40.8	15.0	0.00e+00	0	61	0	559939584	49	4491
2026-01-27 22:25:39.36	56.10	20.94	-38.9	-40.9	15.0	0.00e+00	0	61	0	564133888	49	4516
2026-01-27 22:25:40.36	56.31	21.02	-38.9	-40.9	15.0	0.00e+00	0	61	0	567279616	49	4509
2026-01-27 22:25:41.37	56.53	21.09	-38.9	-40.9	15.0	0.00e+00	0	61	0	570425344	49	4533
2026-01-27 22:25:42.38	56.75	21.17	-38.9	-40.9	15.0	0.00e+00	0	61	0	572522496	49	4526
2026-01-27 22:25:43.39	56.97	21.24	-38.9	-40.9	15.0	0.00e+00	0	61	0	575668224	49	4513
2026-01-27 22:25:44.40	57.19	21.32	-38.9	-40.9	15.0	0.00e+00	0	61	0	579862528	49	4505
2026-01-27 22:25:45.41	57.41	21.39	-38.8	-40.8	15.2	0.00e+00	0	61	0	583008256	49	4455
2026-01-27 22:25:46.42	57.64	21.47	-38.7	-40.6	15.3	0.00e+00	0	61	0	586153984	49	4366
2026-01-27 22:25:47.43	57.86	21.54	-38.7	-40.6	15.3	0.00e+00	0	61	0	589299712	49	4341
2026-01-27 22:25:48.44	58.08	21.62	-38.6	-40.5	15.4	0.00e+00	0	61	0	592445440	49	4302
2026-01-27 22:25:49.45	58.31	21.69	-38.6	-40.5	15.4	0.00e+00	0	61	0	594542592	49	4309
2026-01-27 22:25:50.46	58.54	21.77	-38.6	-40.5	15.4	0.00e+00	0	61	0	598736896	49	4313
2026-01-27 22:25:51.47	58.76	21.84	-38.7	-40.5	15.3	0.00e+00	0	61	0	601882624	49	4336
2026-01-27 22:25:52.48	58.99	21.91	-38.6	-40.5	15.3	0.00e+00	0	61	0	605028352	49	4330
2026-01-27 22:25:53.49	59.22	21.99	-38.7	-40.5	15.3	0.00e+00	0	61	0	608174080	49	4334
2026-01-27 22:25:54.50	59.45	22.06	-38.6	-40.5	15.3	0.00e+00	0	61	0	611319808	49	4324
2026-01-27 22:25:55.51	59.69	22.13	-38.7	-40.6	15.3	0.00e+00	0	61	0	614465536	49	4358
2026-01-27 22:25:56.52	59.92	22.20	-38.7	-40.6	15.3	0.00e+00	0	61	0	617611264	49	4357
2026-01-27 22:25:57.53	60.15	22.28	-38.7	-40.7	15.2	0.00e+00	0	61	0	620756992	49	4395
2026-01-27 22:25:58.54	60.39	22.35	-38.6	-40.5	15.3	0.00e+00	0	61	0	623902720	49	4317
2026-01-27 22:25:59.55	60.63	22.42	-38.5	-40.4	15.5	0.00e+00	0	61	0	627048448	49	4256
2026-01-27 22:26:00.56	60.86	22.49	-38.4	-40.2	15.6	0.00e+00	0	61	0	630194176	48	4435
2026-01-27 22:26:01.57	61.10	22.56	-38.4	-40.2	15.7	0.00e+00	0	61	0	633339904	48	4395
2026-01-27 22:26:02.58	61.34	22.63	-38.4	-40.2	15.6	0.00e+00	0	61	0	636485632	48	4408
2026-01-27 22:26:03.59	61.58	22.70	-38.4	-40.1	15.7	0.00e+00	0	61	0	639631360	48	4388
2026-01-27 22:26:04.60	61.83	22.77	-38.4	-40.2	15.7	0.00e+00	0	61	0	642777088	48	4407
2026-01-27 22:26:05.61	62.07	22.84	-38.4	-40.2	15.6	0.00e+00	0	61	0	645922816	48	4435
2026-01-27 22:26:06.62	62.31	22.91	-38.4	-40.3	15.6	0.00e+00	0	61	0	649068544	48	4450
2026-01-27 22:26:07.63	62.56	22.98	-38.5	-40.3	15.5	0.00e+00	0	61	0	652214272	48	4489
2026-01-27 22:26:08.64	62.80	23.05	-38.6	-40.5	15.4	0.00e+00	0	61	0	655360000	48	4568
2026-01-27 22:26:09.65	63.05	23.12	-38.7	-40.5	15.3	0.00e+00	0	61	0	658505728	48	4589
2026-01-27 22:26:10.66	63.30	23.19	-38.6	-40.5	15.4	0.00e+00	0	61	0	661651456	48	4562
2026-01-27 22:26:11.67	63.55	23.25	-38.6	-40.5	15.4	0.00e+00	0	61	0	664797184	48	4552
2026-01-27 22:26:12.68	63.80	23.32	-38.6	-40.4	15.4	0.00e+00	0	61	0	667942912	48	4536
2026-01-27 22:26:13.69	64.05	23.39	-38.6	-40.5	15.4	0.00e+00	0	61	0	671088640	48	4549
2026-01-27 22:26:14.70	64.30	23.46	-38.6	-40.5	15.4	0.00e+00	0	61	0	674234368	48	4561
2026-01-27 22:26:15.71	64.56	23.52	-38.7	-40.6	15.3	0.00e+00	0	61	0	677380096	48	4615
2026-01-27 22:26:16.72	64.81	23.59	-38.8	-40.7	15.2	0.00e+00	0	61	0	680525824	48	4667
2026-01-27 22:26:17.73	65.07	23.65	-38.9	-40.8	15.1	0.00e+00	0	61	0	683671552	48	4729
2026-01-27 22:26:18.74	65.32	23.72	-39.0	-40.9	15.0	0.00e+00	0	61	0	686817280	48	4809
2026-01-27 22:26:19.75	65.58	23.78	-38.9	-40.9	15.0	0.00e+00	0	61	0	689963008	48	4770
2026-01-27 22:26:20.76	65.84	23.85	-38.9	-40.9	15.1	0.00e+00	0	61	0	693108736	48	4768
2026-01-27 22:26:21.77	66.10	23.91	-38.9	-40.8	15.1	0.00e+00	0	61	0	696254464	48	4741
2026-01-27 22:26:22.78	66.36	23.97	-38.9	-40.9	15.1	0.00e+00	0	61	0	699400192	48	4765
2026-01-27 22:26:23.79	66.62	24.04	-38.9	-40.8	15.1	0.00e+00	0	61	0	702545920	48	4738
2026-01-27 22:26:24.80	66.89	24.10	-38.9	-40.8	15.1	7.00e-07	0	61	0	705691648	48	4738
2026-01-27 22:26:25.81	67.15	24.16	-38.9	-40.9	15.1	7.00e-07	0	61	0	708837376	48	4772
2026-01-27 22:26:26.82	67.42	24.22	-39.0	-40.9	15.0	0.00e+00	0	61	0	711983104	48	4801
2026-01-27 22:26:27.83	67.68	24.28	-39.0	-40.9	15.0	0.00e+00	0	61	0	715128832	48	4805
2026-01-27 22:26:28.84	67.95	24.34	-38.9	-40.9	15.1	7.00e-07	0	61	0	718274560	48	4775
2026-01-27 22:26:29.85	68.22	24.40	-39.0	-41.0	15.0	0.00e+00	0	61	0	721420288	48	4818
2026-01-27 22:26:30.86	68.49	24.46	-39.0	-40.9	15.1	0.00e+00	0	61	0	724566016	48	4784
2026-01-27 22:26:31.87	68.76	24.52	-38.9	-40.9	15.1	0.00e+00	0	61	0	727711744	48	4767
2026-01-27 22:26:32.88	69.03	24.58	-38.9	-40.9	15.1	0.00e+00	0	61	0	730857472	48	4767
2026-01-27 22:26:33.89	69.30	24.64	-38.9	-40.9	15.1	0.00e+00	0	61	0	734003200	48	4763
2026-01-27 22:26:34.90	69.57	24.69	-38.9	-40.8	15.2	0.00e+00	0	61	0	737148928	48	4735
2026-01-27 22:26:35.91	69.85	24.75	-38.9	-40.9	15.1	0.00e+00	0	61	0	740294656	48	4763
2026-01-27 22:26:36.92	70.12	24.81	-39.0	-40.9	15.0	0.00e+00	0	61	0	743440384	48	4786
2026-01-27 22:26:37.93	70.40	24.86	-39.0	-40.9	15.1	0.00e+00	0	61	0	746586112	48	4799
2026-01-27 22:26:38.94	70.68	24.92	-38.9	-40.8	15.1	0.00e+00	0	61	0	749731840	48	4758
2026-01-27 22:26:39.95	70.95	24.97	-38.8	-40.8	15.2	0.00e+00	0	61	0	752877568	48	4709
2026-01-27 22:26:40.96	71.23	25.02	-38.8	-40.7	15.2	0.00e+00	0	61	0	756023296	48	4700
2026-01-27 22:26:41.97	71.51	25.08	-38.9	-40.8	15.1	0.00e+00	0	61	0	759169024	48	4742
2026-01-27 22:26:42.98	71.79	25.13	-39.0	-40.9	15.1	0.00e+00	0	61	0	762314752	48	4796
2026-01-27 22:26:43.99	72.07	25.18	-39.0	-41.0	15.0	0.00e+00	0	61	0	765460480	48	4835
2026-01-27 22:26:45.00	72.36	25.23	-39.1	-41.1	14.9	0.00e+00	0	61	0	768606208	48	4871
2026-01-27 22:26:46.01	72.64	25.28	-39.0	-41.0	15.0	0.00e+00	0	61	0	771751936	48	4821
2026-01-27 22:26:47.02	72.92	25.33	-38.9	-40.8	15.1	0.00e+00	0	61	0	774897664	48	4755
2026-01-27 22:26:48.03	73.21	25.38	-38.8	-40.7	15.2	0.00e+00	0	61	0	778043392	48	4701
2026-01-27 22:26:49.04	73.50	25.43	-38.7	-40.6	15.3	0.00e+00	0	61	0	781189120	48	4642
2026-01-27 22:26:50.05	73.78	25.48	-38.7	-40.6	15.4	0.00e+00	0	61	0	784334848	48	4630
2026-01-27 22:26:51.06	74.07	25.53	-38.7	-40.6	15.4	0.00e+00	0	61	0	787480576	48	4600
2026-01-27 22:26:52.07	74.36	25.57	-38.7	-40.6	15.3	0.00e+00	0	61	0	790626304	48	4641
2026-01-27 22:26:53.08	74.65	25.62	-38.7	-40.6	15.3	0.00e+00	0	61	0	793772032	48	4640
2026-01-27 22:26:54.09	74.94	25.67	-38.7	-40.6	15.3	0.00e+00	0	61	0	796917760	48	4634
2026-01-27 22:26:55.10	75.23	25.71	-38.8	-40.7	15.2	0.00e+00	0	61	0	800063488	48	4692
2026-01-27 22:26:56.11	75.52	25.75	-38.8	-40.7	15.2	0.00e+00	0	61	0	803209216	48	4697
2026-01-27 22:26:57.12	75.82	25.80	-38.8	-40.7	15.2	0.00e+00	0	61	0	806354944	48	4674
2026-01-27 22:26:58.13	76.11	25.84	-38.7	-40.6	15.3	0.00e+00	0	61	0	809500672	48	4610
2026-01-27 22:26:59.14	76.40	25.88	-38.7	-40.6	15.3	0.00e+00	0	61	0	812646400	48	4637
2026-01-27 22:27:00.15	76.70	25.92	-38.7	-40.5	15.4	0.00e+00	0	61	0	815792128	48	4587
2026-01-27 22:27:01.16	77.00	25.96	-38.7	-40.6	15.3	0.00e+00	0	61	0	818937856	48	4625
2026-01-27 22:27:02.17	77.29	26.00	-38.8	-40.7	15.3	0.00e+00	0	61	0	822083584	48	4657
2026-01-27 22:27:03.18	77.59	26.04	-38.7	-40.5	15.4	0.00e+00	0	61	0	825229312	48	4595
2026-01-27 22:27:04.19	77.89	26.08	-38.6	-40.4	15.5	0.00e+00	0	61	0	828375040	48	4526
2026-01-27 22:27:05.20	78.19	26.12	-38.6	-40.5	15.5	0.00e+00	0	61	0	831520768	48	4564
2026-01-27 22:27:06.21	78.49	26.16	-38.7	-40.5	15.4	0.00e+00	0	61	0	834666496	48	4590
2026-01-27 22:27:07.22	78.79	26.19	-38.7	-40.6	15.3	0.00e+00	0	62	0	837812224	48	4634
2026-01-27 22:27:08.23	79.09	26.23	-38.7	-40.5	15.4	0.00e+00	0	61	0	840957952	48	4588
2026-01-27 22:27:09.24	79.39	26.26	-38.6	-40.4	15.5	0.00e+00	0	61	0	844103680	48	4533
2026-01-27 22:27:10.25	79.69	26.29	-38.5	-40.3	15.6	0.00e+00	0	61	0	847249408	48	4475
2026-01-27 22:27:11.26	79.99	26.33	-38.5	-40.3	15.5	0.00e+00	0	61	0	850395136	48	4491
2026-01-27 22:27:12.27	80.30	26.36	-38.5	-40.4	15.6	0.00e+00	0	61	0	853540864	48	4495
2026-01-27 22:27:13.28	80.60	26.39	-38.6	-40.5	15.4	0.00e+00	0	61	0	856686592	48	4575
2026-01-27 22:27:14.29	80.91	26.42	-38.6	-40.5	15.4	0.00e+00	0	61	0	859832320	48	4570
2026-01-27 22:27:15.31	81.21	26.45	-38.6	-40.5	15.5	0.00e+00	0	61	0	864026624	48	4563
2026-01-27 22:27:16.32	81.52	26.48	-38.6	-40.5	15.5	0.00e+00	0	61	0	866123776	48	4574
2026-01-27 22:27:17.33	81.83	26.51	-38.7	-40.6	15.4	0.00e+00	0	61	0	869269504	48	4605
2026-01-27 22:27:18.34	82.13	26.53	-38.6	-40.5	15.5	0.00e+00	0	61	0	872415232	48	4560
2026-01-27 22:27:19.35	82.44	26.56	-38.7	-40.5	15.4	0.00e+00	0	61	0	875560960	48	4585
2026-01-27 22:27:20.36	82.75	26.59	-38.7	-40.5	15.5	0.00e+00	0	62	0	879755264	48	4589
2026-01-27 22:27:21.37	83.06	26.61	-38.7	-40.6	15.5	0.00e+00	0	61	0	882900992	48	4611
2026-01-27 22:27:22.38	83.36	26.63	-38.6	-40.5	15.5	0.00e+00	0	61	0	886046720	48	4566
2026-01-27 22:27:23.39	83.67	26.66	-38.7	-40.5	15.5	0.00e+00	0	61	0	888143872	48	4572
2026-01-27 22:27:24.40	83.98	26.68	-38.6	-40.4	15.6	0.00e+00	0	62	0	892338176	48	4544
2026-01-27 22:27:25.41	84.29	26.70	-38.5	-40.3	15.7	0.00e+00	0	61	0	895483904	48	4478
2026-01-27 22:27:26.42	84.60	26.72	-38.6	-40.4	15.6	0.00e+00	0	61	0	898629632	48	4502
2026-01-27 22:27:27.43	84.91	26.74	-38.6	-40.5	15.5	0.00e+00	0	61	0	901775360	48	4553
2026-01-27 22:27:28.44	85.23	26.76	-38.7	-40.5	15.5	0.00e+00	0	62	0	904921088	48	4584
2026-01-27 22:27:29.46	85.54	26.78	-38.7	-40.5	15.5	0.00e+00	0	61	0	908066816	48	4567
2026-01-27 22:27:30.47	85.85	26.79	-38.6	-40.4	15.6	0.00e+00	0	61	0	911212544	48	4537
2026-01-27 22:27:31.48	86.17	26.81	-38.6	-40.4	15.5	0.00e+00	0	61	0	914358272	48	4531
2026-01-27 22:27:32.49	86.48	26.82	-38.6	-40.5	15.6	0.00e+00	0	61	0	917504000	48	4561
2026-01-27 22:27:33.50	86.79	26.84	-38.6	-40.5	15.6	0.00e+00	0	62	0	920649728	48	4561
2026-01-27 22:27:34.51	87.10	26.85	-38.7	-40.5	15.5	0.00e+00	0	61	0	923795456	48	4581
2026-01-27 22:27:35.52	87.42	26.86	-38.7	-40.5	15.5	0.00e+00	0	61	0	926941184	48	4596
2026-01-27 22:27:36.53	87.73	26.87	-38.6	-40.4	15.6	0.00e+00	0	62	0	930086912	48	4534
2026-01-27 22:27:37.54	88.04	26.88	-38.5	-40.3	15.7	0.00e+00	0	62	0	933232640	48	4479
2026-01-27 22:27:38.55	88.36	26.89	-38.5	-40.3	15.8	0.00e+00	0	61	0	936378368	48	4455
2026-01-27 22:27:39.56	88.67	26.90	-38.6	-40.4	15.7	0.00e+00	0	61	0	939524096	48	4505
2026-01-27 22:27:40.57	88.99	26.91	-38.5	-40.3	15.7	0.00e+00	0	61	0	942669824	48	4468
2026-01-27 22:27:41.58	89.30	26.92	-38.5	-40.3	15.7	0.00e+00	0	61	0	945815552	48	4478
2026-01-27 22:27:42.59	89.62	26.92	-38.6	-40.4	15.7	0.00e+00	0	61	0	948961280	48	4526
2026-01-27 22:27:43.60	89.93	26.93	-38.6	-40.4	15.6	0.00e+00	0	61	0	952107008	48	4536
2026-01-27 22:27:44.61	90.25	26.93	-38.5	-40.3	15.7	0.00e+00	0	62	0	955252736	48	4467
2026-01-27 22:27:45.62	90.56	26.94	-38.5	-40.3	15.7	0.00e+00	0	61	0	958398464	48	4486
2026-01-27 22:27:46.63	90.88	26.94	-38.5	-40.3	15.7	0.00e+00	0	62	0	961544192	48	4488
2026-01-27 22:27:47.65	91.19	26.94	-38.5	-40.2	15.8	0.00e+00	0	61	0	964689920	48	4441
2026-01-27 22:27:48.66	91.51	26.94	-38.3	-40.1	16.0	0.00e+00	0	61	0	967835648	48	4349
2026-01-27 22:27:49.67	91.83	26.94	-38.4	-40.1	15.9	0.00e+00	0	61	0	970981376	48	4375
2026-01-27 22:27:50.68	92.14	26.94	-38.4	-40.1	15.9	0.00e+00	0	62	0	974127104	48	4370
2026-01-27 22:27:51.69	92.46	26.94	-38.4	-40.2	15.8	0.00e+00	0	61	0	977272832	48	4416
2026-01-27 22:27:52.70	92.77	26.93	-38.5	-40.3	15.8	0.00e+00	0	61	0	980418560	48	4455
2026-01-27 22:27:53.71	93.09	26.93	-38.6	-40.4	15.7	0.00e+00	0	61	0	983564288	48	4503
2026-01-27 22:27:54.72	93.40	26.92	-38.6	-40.4	15.6	0.00e+00	0	61	0	986710016	48	4524
2026-01-27 22:27:55.73	93.72	26.92	-38.5	-40.3	15.7	0.00e+00	0	61	0	989855744	48	4489
2026-01-27 22:27:56.74	94.03	26.91	-38.4	-40.2	15.8	0.00e+00	0	61	0	993001472	48	4421
2026-01-27 22:27:57.75	94.34	26.90	-38.4	-40.1	15.9	0.00e+00	0	62	0	996147200	48	4362
2026-01-27 22:27:58.76	94.66	26.89	-38.3	-40.1	16.0	0.00e+00	0	62	0	999292928	48	4347
2026-01-27 22:27:59.77	94.97	26.88	-38.5	-40.3	15.7	0.00e+00	0	62	0	1002438656	48	4474
2026-01-27 22:28:00.78	95.29	26.87	-38.5	-40.3	15.7	0.00e+00	0	62	0	1005584384	48	4479
2026-01-27 22:28:01.79	95.60	26.86	-38.7	-40.5	15.6	0.00e+00	0	62	0	1008730112	48	4563
2026-01-27 22:28:02.80	95.92	26.85	-38.6	-40.4	15.6	0.00e+00	0	62	0	1011875840	48	4534
2026-01-27 22:28:03.81	96.23	26.84	-38.6	-40.4	15.7	0.00e+00	0	61	0	1015021568	48	4501
2026-01-27 22:28:04.82	96.54	26.82	-38.5	-40.3	15.8	0.00e+00	0	62	0	1018167296	48	4448
2026-01-27 22:28:05.83	96.85	26.81	-38.5	-40.3	15.7	0.00e+00	0	62	0	1021313024	48	4460
2026-01-27 22:28:06.84	97.17	26.79	-38.5	-40.3	15.7	0.00e+00	0	62	0	1024458752	48	4442
2026-01-27 22:28:07.85	97.48	26.78	-38.5	-40.2	15.8	0.00e+00	0	62	0	1027604480	48	4425
2026-01-27 22:28:08.86	97.79	26.76	-38.4	-40.2	15.8	0.00e+00	0	61	0	1030750208	48	4413
2026-01-27 22:28:09.87	98.10	26.74	-38.5	-40.2	15.8	0.00e+00	0	62	0	1033895936	48	4419
2026-01-27 22:28:10.88	98.41	26.72	-38.5	-40.3	15.7	0.00e+00	0	62	0	1037041664	48	4477
2026-01-27 22:28:11.89	98.73	26.70	-38.6	-40.4	15.6	0.00e+00	0	62	0	1040187392	48	4528
2026-01-27 22:28:12.90	99.04	26.68	-38.6	-40.4	15.6	0.00e+00	0	62	0	1043333120	48	4522
2026-01-27 22:28:13.91	99.35	26.66	-38.6	-40.4	15.6	0.00e+00	0	61	0	1046478848	48	4527
2026-01-27 22:28:14.92	99.66	26.63	-38.6	-40.4	15.6	0.00e+00	0	62	0	1049624576	48	4519
2026-01-27 22:28:15.93	99.97	26.61	-38.6	-40.4	15.6	0.00e+00	0	61	0	1052770304	48	4545
2026-01-27 22:28:16.94	100.27	26.59	-38.5	-40.3	15.8	0.00e+00	0	62	0	1055916032	48	4447
2026-01-27 22:28:17.95	100.58	26.56	-38.4	-40.1	15.9	0.00e+00	0	62	0	1059061760	48	4378
2026-01-27 22:28:18.96	100.89	26.53	-38.4	-40.1	15.9	0.00e+00	0	62	0	1062207488	48	4385
2026-01-27 22:28:19.97	101.20	26.51	-38.4	-40.1	15.9	0.00e+00	0	62	0	1065353216	48	4390
2026-01-27 22:28:20.98	101.50	26.48	-38.5	-40.2	15.8	0.00e+00	0	62	0	1068498944	48	4436
2026-01-27 22:28:21.99	101.81	26.45	-38.5	-40.3	15.8	0.00e+00	0	61	0	1071644672	48	4447
2026-01-27 22:28:23.00	102.12	26.42	-38.6	-40.4	15.7	0.00e+00	0	62	0	1074790400	48	4517
2026-01-27 22:28:24.01	102.42	26.39	-38.6	-40.3	15.7	0.00e+00	0	62	0	1077936128	48	4493
2026-01-27 22:28:25.02	102.73	26.36	-38.5	-40.2	15.8	0.00e+00	0	62	0	1081081856	48	4430
2026-01-27 22:28:26.03	103.03	26.33	-38.5	-40.3	15.8	0.00e+00	0	62	0	1084227584	48	4450
2026-01-27 22:28:27.04	103.33	26.29	-38.6	-40.4	15.7	0.00e+00	0	62	0	1087373312	48	4520
2026-01-27 22:28:28.05	103.64	26.26	-38.5	-40.3	15.7	0.00e+00	0	61	0	1090519040	48	4484
2026-01-27 22:28:29.07	103.94	26.23	-38.6	-40.4	15.7	0.00e+00	0	61	0	1093664768	48	4495
2026-01-27 22:28:30.08	104.24	26.19	-38.6	-40.4	15.7	0.00e+00	0	62	0	1096810496	48	4512
2026-01-27 22:28:31.09	104.54	26.15	-38.6	-40.4	15.6	0.00e+00	0	62	0	1099956224	48	4541
2026-01-27 22:28:32.10	104.85	26.12	-38.6	-40.4	15.6	0.00e+00	0	62	0	1103101952	48	4537
2026-01-27 22:28:33.11	105.14	26.08	-38.8	-40.6	15.5	0.00e+00	0	61	0	1106247680	48	4633
2026-01-27 22:28:34.12	105.44	26.04	-38.7	-40.6	15.5	0.00e+00	0	62	0	1109393408	48	4612
2026-01-27 22:28:35.13	105.74	26.00	-38.8	-40.6	15.4	0.00e+00	0	62	0	1112539136	48	4641
2026-01-27 22:28:36.14	106.04	25.96	-38.7	-40.5	15.5	0.00e+00	0	62	0	1115684864	48	4593
2026-01-27 22:28:37.15	106.34	25.92	-38.8	-40.6	15.4	0.00e+00	0	61	0	1118830592	48	4638
2026-01-27 22:28:38.16	106.63	25.88	-38.9	-40.8	15.3	0.00e+00	0	61	0	1121976320	48	4711
2026-01-27 22:28:39.17	106.93	25.84	-38.8	-40.7	15.4	0.00e+00	0	62	0	1125122048	48	4686
2026-01-27 22:28:40.18	107.22	25.80	-38.9	-40.8	15.3	0.00e+00	0	62	0	1128267776	48	4748
2026-01-27 22:28:41.19	107.52	25.75	-39.0	-40.9	15.2	0.00e+00	0	61	0	1131413504	48	4790
2026-01-27 22:28:42.20	107.81	25.71	-38.9	-40.9	15.2	0.00e+00	0	62	0	1134559232	48	4771
2026-01-27 22:28:43.21	108.10	25.66	-38.9	-40.8	15.3	0.00e+00	0	62	0	1137704960	48	4732
2026-01-27 22:28:44.22	108.39	25.62	-38.8	-40.7	15.4	0.00e+00	0	62	0	1140850688	48	4676
2026-01-27 22:28:45.23	108.68	25.57	-38.7	-40.5	15.6	0.00e+00	0	62	0	1143996416	48	4569
2026-01-27 22:28:46.24	108.97	25.52	-38.7	-40.5	15.5	0.00e+00	0	62	0	1147142144	48	4568
2026-01-27 22:28:47.25	109.26	25.48	-38.7	-40.5	15.6	0.00e+00	0	62	0	1150287872	48	4565
2026-01-27 22:28:48.26	109.55	25.43	-38.6	-40.5	15.6	0.00e+00	0	62	0	1154482176	48	4549
2026-01-27 22:28:49.27	109.84	25.38	-38.6	-40.4	15.7	0.00e+00	0	62	0	1156579328	48	4504
2026-01-27 22:28:50.28	110.12	25.33	-38.5	-40.3	15.7	0.00e+00	0	62	0	1159725056	48	4469
2026-01-27 22:28:51.29	110.41	25.28	-38.5	-40.3	15.7	0.00e+00	0	62	0	1162870784	48	4473
2026-01-27 22:28:52.30	110.69	25.23	-38.6	-40.4	15.6	0.00e+00	0	62	0	1166016512	48	4508
2026-01-27 22:28:53.31	110.98	25.18	-38.6	-40.4	15.7	0.00e+00	0	62	0	1170210816	48	4507
2026-01-27 22:28:54.32	111.26	25.12	-38.4	-40.2	15.8	0.00e+00	0	62	0	1173356544	48	4412
2026-01-27 22:28:55.33	111.54	25.07	-38.5	-40.3	15.8	0.00e+00	0	62	0	1176502272	48	4446
2026-01-27 22:28:56.34	111.82	25.02	-38.5	-40.2	15.8	0.00e+00	0	62	0	1179648000	48	4441
2026-01-27 22:28:57.35	112.10	24.96	-38.5	-40.2	15.8	0.00e+00	0	62	0	1181745152	48	4417
2026-01-27 22:28:58.36	112.38	24.91	-38.5	-40.3	15.7	0.00e+00	0	62	0	1185939456	48	4462
2026-01-27 22:28:59.37	112.66	24.85	-38.6	-40.3	15.7	0.00e+00	0	62	0	1189085184	48	4491
2026-01-27 22:29:00.39	112.94	24.80	-38.5	-40.2	15.8	0.00e+00	0	62	0	1192230912	48	4423
2026-01-27 22:29:01.40	113.21	24.74	-38.4	-40.1	15.9	0.00e+00	0	62	0	1195376640	48	4379
2026-01-27 22:29:02.41	113.49	24.69	-38.4	-40.1	15.9	0.00e+00	0	61	0	1198522368	48	4358
2026-01-27 22:29:03.42	113.76	24.63	-38.4	-40.1	15.9	0.00e+00	0	62	0	1201668096	48	4367
2026-01-27 22:29:04.43	114.04	24.57	-38.4	-40.2	15.9	0.00e+00	0	62	0	1204813824	48	4395
2026-01-27 22:29:05.44	114.31	24.51	-38.3	-40.0	16.0	0.00e+00	0	62	0	1207959552	48	4327
2026-01-27 22:29:06.45	114.58	24.45	-38.3	-40.0	16.0	0.00e+00	0	62	0	1211105280	48	4311
2026-01-27 22:29:07.46	114.85	24.39	-38.4	-40.2	15.8	0.00e+00	0	62	0	1214251008	48	4395
2026-01-27 22:29:08.46	115.12	24.33	-38.3	-40.1	16.0	0.00e+00	0	62	0	1217396736	48	4341
2026-01-27 22:29:09.47	115.38	24.27	-38.3	-40.0	16.0	0.00e+00	0	62	0	1220542464	48	4327
2026-01-27 22:29:10.48	115.65	24.21	-38.4	-40.2	15.9	0.00e+00	0	61	0	1223688192	48	4398
2026-01-27 22:29:11.49	115.92	24.15	-38.5	-40.3	15.8	0.00e+00	0	62	0	1226833920	48	4452
2026-01-27 22:29:12.50	116.18	24.09	-38.7	-40.5	15.6	0.00e+00	0	62	0	1229979648	48	4560
2026-01-27 22:29:13.51	116.45	24.02	-38.7	-40.6	15.5	0.00e+00	0	61	0	1233125376	48	4602
2026-01-27 22:29:14.52	116.71	23.96	-38.8	-40.7	15.4	0.00e+00	0	62	0	1236271104	48	4672
2026-01-27 22:29:15.53	116.97	23.90	-38.9	-40.8	15.3	7.00e-07	0	62	0	1239416832	48	4708
2026-01-27 22:29:16.55	117.23	23.83	-38.8	-40.7	15.4	0.00e+00	0	62	0	1242562560	48	4657
2026-01-27 22:29:17.56	117.49	23.77	-38.6	-40.4	15.6	0.00e+00	0	62	0	1245708288	48	4527
2026-01-27 22:29:18.57	117.75	23.70	-38.6	-40.4	15.6	0.00e+00	0	62	0	1248854016	48	4525
2026-01-27 22:29:19.58	118.01	23.64	-38.6	-40.4	15.6	0.00e+00	0	62	0	1251999744	48	4542
2026-01-27 22:29:20.59	118.27	23.57	-38.6	-40.4	15.6	0.00e+00	0	62	0	1255145472	48	4544
2026-01-27 22:29:21.60	118.52	23.51	-38.6	-40.5	15.6	0.00e+00	0	62	0	1258291200	48	4557
2026-01-27 22:29:22.61	118.78	23.44	-38.8	-40.7	15.4	0.00e+00	0	62	0	1261436928	48	4660
2026-01-27 22:29:23.62	119.03	23.37	-38.9	-40.8	15.2	0.00e+00	0	62	0	1264582656	48	4712
2026-01-27 22:29:24.63	119.28	23.31	-38.9	-40.9	15.2	0.00e+00	0	62	0	1267728384	48	4762
2026-01-27 22:29:25.64	119.54	23.24	-38.9	-40.9	15.2	0.00e+00	0	62	0	1270874112	48	4760
2026-01-27 22:29:26.65	119.79	23.17	-38.9	-40.9	15.1	7.00e-07	0	62	0	1274019840	48	4778
2026-01-27 22:29:27.66	120.04	23.10	-38.9	-40.9	15.2	0.00e+00	0	62	0	1277165568	48	4765
2026-01-27 22:29:28.67	120.28	23.03	-38.9	-40.8	15.2	7.00e-07	0	62	0	1280311296	48	4732
2026-01-27 22:29:29.68	120.53	22.96	-38.8	-40.7	15.4	0.00e+00	0	62	0	1283457024	48	4653
2026-01-27 22:29:30.69	120.78	22.89	-38.6	-40.4	15.6	0.00e+00	0	62	0	1286602752	48	4529
2026-01-27 22:29:31.70	121.02	22.82	-38.6	-40.4	15.7	0.00e+00	0	62	0	1289748480	48	4498
2026-01-27 22:29:32.71	121.27	22.75	-38.6	-40.4	15.6	0.00e+00	0	62	0	1292894208	48	4517
2026-01-27 22:29:33.72	121.51	22.68	-38.6	-40.4	15.6	0.00e+00	0	62	0	1296039936	48	4542
2026-01-27 22:29:34.73	121.75	22.61	-38.6	-40.5	15.5	0.00e+00	0	62	0	1299185664	48	4557
2026-01-27 22:29:35.74	121.99	22.54	-38.7	-40.6	15.4	0.00e+00	0	62	0	1302331392	48	4623
2026-01-27 22:29:36.76	122.23	22.47	-38.7	-40.5	15.5	0.00e+00	0	62	0	1305477120	48	4574
2026-01-27 22:29:37.77	122.47	22.39	-38.6	-40.4	15.5	0.00e+00	0	62	0	1308622848	48	4543
2026-01-27 22:29:38.78	122.71	22.32	-38.6	-40.4	15.6	0.00e+00	0	62	0	1311768576	48	4524
2026-01-27 22:29:39.79	122.95	22.25	-38.6	-40.4	15.6	0.00e+00	0	62	0	1314914304	48	4515
2026-01-27 22:29:40.80	123.18	22.18	-38.6	-40.5	15.5	0.00e+00	0	62	0	1318060032	48	4559
2026-01-27 22:29:41.81	123.42	22.10	-38.7	-40.6	15.4	0.00e+00	0	62	0	1321205760	48	4603
2026-01-27 22:29:42.82	123.65	22.03	-38.6	-40.5	15.5	0.00e+00	0	62	0	1324351488	48	4554
2026-01-27 22:29:43.83	123.88	21.96	-38.7	-40.6	15.4	0.00e+00	0	62	0	1327497216	48	4630
2026-01-27 22:29:44.84	124.11	21.88	-38.7	-40.7	15.3	7.00e-07	0	62	0	1330642944	48	4662
2026-01-27 22:29:45.85	124.34	21.81	-38.7	-40.6	15.4	0.00e+00	0	62	0	1333788672	48	4632
2026-01-27 22:29:46.86	124.57	21.73	-38.8	-40.7	15.3	0.00e+00	0	62	0	1336934400	48	4654
2026-01-27 22:29:47.87	124.80	21.66	-38.8	-40.7	15.3	0.00e+00	0	62	0	1340080128	48	4675
2026-01-27 22:29:48.88	125.03	21.59	-38.8	-40.7	15.3	0.00e+00	0	62	0	1343225856	48	4663
2026-01-27 22:29:49.89	125.25	21.51	-38.8	-40.7	15.3	0.00e+00	0	62	0	1346371584	48	4666
2026-01-27 22:29:50.90	125.48	21.44	-38.8	-40.7	15.3	1.50e-06	0	62	0	1349517312	48	4693
2026-01-27 22:29:51.91	125.70	21.36	-38.8	-40.7	15.3	0.00e+00	0	62	0	1352663040	48	4698
2026-01-27 22:29:52.93	125.93	21.28	-38.8	-40.7	15.3	0.00e+00	0	62	0	1355808768	48	4695
2026-01-27 22:29:53.94	126.15	21.21	-38.8	-40.6	15.3	0.00e+00	0	62	0	1358954496	48	4647
2026-01-27 22:29:54.95	126.37	21.13	-38.6	-40.5	15.5	7.70e-05	0	62	0	1362100224	48	4553
2026-01-27 22:29:55.96	126.59	21.05	-38.4	-40.2	15.7	7.00e-07	0	62	0	1365245952	47	4674
2026-01-27 22:29:56.97	126.81	20.98	-38.3	-40.2	15.4	0.00e+00	0	62	0	1368391680	46	4950
2026-01-27 22:29:57.98	127.02	20.90	-38.3	-40.1	15.8	0.00e+00	0	62	0	1371537408	47	4636
2026-01-27 22:29:58.99	127.24	20.82	-38.0	-40.2	15.1	6.13e-04	0	62	0	1374683136	46	4931
2026-01-27 22:30:00.00	127.45	20.75	-38.3	-40.1	15.7	6.80e-06	0	62	0	1377828864	47	4647
2026-01-27 22:30:01.01	127.67	20.67	-38.4	-40.2	15.6	0.00e+00	0	62	0	1380974592	47	4702
2026-01-27 22:30:02.02	127.88	20.59	-38.5	-40.4	15.5	0.00e+00	0	62	0	1384120320	47	4775
2026-01-27 22:30:03.03	128.09	20.52	-38.5	-40.3	15.5	0.00e+00	0	62	0	1387266048	47	4741
2026-01-27 22:30:04.04	128.31	20.44	-38.5	-40.3	15.5	0.00e+00	0	62	0	1390411776	47	4745
2026-01-27 22:30:05.05	128.52	20.36	-38.5	-40.4	15.5	0.00e+00	0	62	0	1393557504	47	4773
2026-01-27 22:30:06.06	128.72	20.28	-38.3	-40.2	15.7	0.00e+00	0	62	0	1396703232	47	4658
2026-01-27 22:30:07.07	128.93	20.20	-38.3	-40.1	15.7	0.00e+00	0	62	0	1399848960	47	4636
2026-01-27 22:30:08.08	129.14	20.13	-38.4	-40.3	15.5	0.00e+00	0	62	0	1402994688	47	4706
2026-01-27 22:30:09.09	129.34	20.05	-38.5	-40.3	15.5	0.00e+00	0	62	0	1406140416	47	4748
2026-01-27 22:30:10.10	129.55	19.97	-38.6	-40.5	15.3	0.00e+00	0	62	0	1409286144	47	4833
2026-01-27 22:30:11.11	129.75	19.89	-38.5	-40.4	15.4	0.00e+00	0	62	0	1412431872	47	4804
2026-01-27 22:30:12.12	129.96	19.81	-38.6	-40.6	15.2	0.00e+00	0	62	0	1415577600	47	4871
2026-01-27 22:30:13.13	130.16	19.73	-38.8	-40.7	15.2	0.00e+00	0	62	0	1418723328	48	4690
2026-01-27 22:30:14.14	130.36	19.65	-38.8	-40.7	15.2	0.00e+00	0	62	0	1421869056	48	4686
2026-01-27 22:30:15.15	130.56	19.58	-38.8	-40.7	15.1	0.00e+00	0	62	0	1425014784	48	4703
2026-01-27 22:30:16.16	130.76	19.50	-38.9	-40.8	15.1	0.00e+00	0	62	0	1428160512	48	4741
2026-01-27 22:30:17.17	130.95	19.42	-38.8	-40.8	15.1	0.00e+00	0	62	0	1431306240	48	4710
2026-01-27 22:30:18.18	131.15	19.34	-38.8	-40.7	15.2	0.00e+00	0	62	0	1434451968	48	4696
2026-01-27 22:30:19.19	131.35	19.26	-38.7	-40.6	15.2	0.00e+00	0	62	0	1437597696	48	4646
2026-01-27 22:30:20.20	131.54	19.18	-38.8	-40.8	15.1	0.00e+00	0	62	0	1441792000	48	4721
2026-01-27 22:30:21.21	131.74	19.10	-38.9	-40.8	15.1	0.00e+00	0	62	0	1444937728	48	4740
2026-01-27 22:30:22.23	131.93	19.02	-38.9	-40.9	15.0	0.00e+00	0	62	0	1448083456	48	4785
2026-01-27 22:30:23.24	132.12	18.94	-38.9	-40.9	15.0	0.00e+00	0	62	0	1450180608	48	4762
2026-01-27 22:30:24.25	132.31	18.86	-38.9	-40.9	15.0	0.00e+00	0	62	0	1453326336	48	4785
2026-01-27 22:30:25.26	132.50	18.78	-39.0	-40.9	15.0	7.00e-07	0	62	0	1457520640	48	4814
2026-01-27 22:30:26.27	132.69	18.70	-38.9	-40.9	14.4	3.43e-05	0	62	0	1460666368	47	5076
2026-01-27 22:30:27.28	132.88	18.62	-39.0	-41.0	14.9	3.80e-06	0	62	0	1463812096	48	4837
2026-01-27 22:30:28.29	133.07	18.54	-39.0	-41.0	14.8	3.43e-05	0	62	0	1466957824	48	4842
2026-01-27 22:30:29.30	133.25	18.46	-38.9	-40.9	15.0	9.10e-06	0	62	0	1470103552	48	4768
2026-01-27 22:30:30.31	133.44	18.38	-38.9	-40.9	15.0	2.20e-06	0	62	0	1473249280	48	4783
2026-01-27 22:30:31.32	133.62	18.30	-39.0	-41.0	14.9	7.00e-07	0	61	0	1476395008	48	4826
2026-01-27 22:30:32.32	133.80	18.22	-39.0	-41.1	14.7	7.00e-07	0	62	0	1479540736	48	4885
2026-01-27 22:30:33.33	133.99	18.14	-39.1	-41.1	14.7	1.43e-04	0	62	0	1482686464	48	4891
2026-01-27 22:30:34.34	134.17	18.06	-39.0	-41.1	14.7	6.10e-06	0	62	0	1485832192	48	4886
2026-01-27 22:30:35.35	134.35	17.98	-39.0	-41.1	14.6	3.73e-04	0	62	0	1488977920	48	4874
2026-01-27 22:30:36.36	134.53	17.90	-39.0	-41.0	14.7	2.21e-05	0	62	0	1492123648	48	4867
2026-01-27 22:30:37.37	134.71	17.82	-39.0	-41.1	14.7	2.21e-05	0	62	0	1495269376	48	4914
2026-01-27 22:30:38.38	134.88	17.74	-39.1	-41.2	14.6	1.14e-05	0	62	0	1498415104	48	4945
2026-01-27 22:30:39.40	135.06	17.66	-39.0	-41.2	14.5	3.81e-04	0	62	0	1501560832	48	4938
2026-01-27 22:30:40.41	135.24	17.58	-37.7	-41.4	14.4	4.04e-05	0	62	0	1504706560	49	4764
2026-01-27 22:30:41.42	135.41	17.50	-38.6	-41.2	14.4	5.03e-05	0	62	0	1507852288	47	5252
2026-01-27 22:30:42.43	135.59	17.42	-39.1	-41.2	14.5	6.48e-05	0	62	0	1510998016	48	4982
2026-01-27 22:30:43.44	135.76	17.34	-39.0	-41.2	14.6	1.15e-04	0	62	0	1514143744	48	4968
2026-01-27 22:30:44.44	135.93	17.26	-39.1	-41.3	14.5	2.06e-04	0	62	0	1517289472	48	4995
2026-01-27 22:30:45.45	136.10	17.18	-39.0	-41.3	14.5	1.21e-02	0	62	0	1520435200	48	5002
2026-01-27 22:30:46.46	136.27	17.10	-39.2	-41.3	14.5	4.06e-04	0	62	0	1523580928	48	5012
2026-01-27 22:30:47.47	136.44	17.02	-39.1	-41.3	14.3	4.52e-03	0	62	0	1526726656	48	5039
2026-01-27 22:30:48.48	136.61	16.94	-39.2	-41.4	14.3	7.85e-05	0	62	0	1529872384	48	5069
2026-01-27 22:30:49.49	136.78	16.86	-39.2	-41.5	14.3	7.82e-04	0	62	0	1533018112	49	4824
2026-01-27 22:30:50.51	136.95	16.78	-39.2	-41.4	14.3	4.63e-04	0	62	0	1536163840	49	4798
2026-01-27 22:30:51.51	137.11	16.71	-38.8	-41.5	14.2	1.70e-04	0	62	0	1539309568	49	4829
2026-01-27 22:30:52.53	137.28	16.62	-39.4	-41.6	14.2	2.35e-03	0	62	0	1542455296	49	4885
2026-01-27 22:30:53.54	137.44	16.55	-39.3	-41.5	14.2	3.61e-04	0	62	0	1545601024	49	4841
2026-01-27 22:30:54.55	137.61	16.47	-39.2	-41.4	14.4	2.44e-05	0	62	0	1548746752	49	4775
2026-01-27 22:30:55.56	137.77	16.39	-39.2	-41.3	14.4	4.29e-04	0	62	0	1551892480	48	5024
2026-01-27 22:30:56.57	137.93	16.31	-39.2	-41.3	14.4	8.30e-06	0	62	0	1555038208	49	4717
2026-01-27 22:30:57.58	138.09	16.23	-39.1	-41.2	14.5	1.50e-06	0	62	0	1558183936	48	4982
2026-01-27 22:30:58.59	138.25	16.15	-39.1	-41.2	14.6	4.50e-06	0	62	0	1561329664	48	4937
2026-01-27 22:30:59.60	138.41	16.07	-39.1	-41.2	14.6	3.05e-05	0	62	0	1564475392	48	4939
2026-01-27 22:31:00.61	138.57	15.99	-38.9	-41.2	14.1	3.28e-05	0	62	0	1567621120	47	5274
2026-01-27 22:31:01.62	138.73	15.91	-39.1	-41.2	14.5	8.54e-05	0	62	0	1570766848	48	4971
2026-01-27 22:31:02.63	138.89	15.83	-39.1	-41.2	14.5	4.80e-05	0	62	0	1573912576	48	4968
2026-01-27 22:31:03.63	139.04	15.75	-39.1	-41.2	14.6	5.11e-05	0	62	0	1577058304	48	4930
2026-01-27 22:31:04.65	139.20	15.67	-39.1	-41.2	14.5	0.00e+00	0	62	0	1580204032	48	4935
2026-01-27 22:31:05.66	139.35	15.59	-39.1	-41.2	14.5	0.00e+00	0	62	0	1583349760	48	4939
2026-01-27 22:31:06.67	139.51	15.51	-39.2	-41.3	14.4	7.00e-07	0	62	0	1586495488	48	4989
2026-01-27 22:31:07.68	139.66	15.43	-39.2	-41.3	14.4	7.00e-07	0	62	0	1589641216	49	4726
2026-01-27 22:31:08.69	139.81	15.36	-39.3	-41.5	14.2	7.00e-07	0	62	0	1592786944	49	4840
2026-01-27 22:31:09.70	139.96	15.28	-39.4	-41.6	14.1	2.20e-06	0	62	0	1595932672	49	4881
2026-01-27 22:31:10.71	140.12	15.20	-39.3	-41.6	14.1	1.50e-06	0	62	0	1599078400	49	4873
2026-01-27 22:31:11.72	140.27	15.12	-39.4	-41.6	14.0	2.20e-06	0	62	0	1602224128	49	4917
2026-01-27 22:31:12.73	140.41	15.04	-39.4	-41.6	14.0	0.00e+00	0	62	0	1605369856	49	4904
2026-01-27 22:31:13.74	140.56	14.96	-39.5	-41.7	13.9	1.50e-06	0	62	0	1608515584	49	4965
2026-01-27 22:31:14.75	140.71	14.88	-39.4	-41.6	14.0	7.00e-07	0	62	0	1611661312	49	4918
2026-01-27 22:31:15.77	140.86	14.80	-39.3	-41.5	14.1	2.20e-06	0	62	0	1614807040	49	4858
2026-01-27 22:31:16.78	141.01	14.73	-39.3	-41.5	14.1	7.00e-07	0	62	0	1617952768	49	4866
2026-01-27 22:31:17.79	141.15	14.65	-39.3	-41.5	14.1	3.00e-06	0	62	0	1621098496	49	4843
2026-01-27 22:31:18.80	141.30	14.57	-39.4	-41.6	14.0	7.00e-07	0	62	0	1624244224	49	4889
2026-01-27 22:31:19.81	141.44	14.49	-39.3	-41.5	14.2	7.00e-07	0	62	0	1627389952	49	4815
2026-01-27 22:31:20.81	141.58	14.41	-39.3	-41.5	14.1	3.00e-06	0	62	0	1630535680	49	4865
2026-01-27 22:31:21.82	141.72	14.34	-39.4	-41.6	14.0	1.50e-06	0	62	0	1633681408	49	4902
2026-01-27 22:31:22.83	141.87	14.26	-39.4	-41.7	13.9	3.00e-06	0	62	0	1636827136	49	4934
2026-01-27 22:31:23.85	142.01	14.18	-39.4	-41.7	13.9	2.20e-06	0	62	0	1639972864	49	4953
2026-01-27 22:31:24.86	142.15	14.10	-39.4	-41.6	14.0	3.80e-06	0	62	0	1643118592	49	4903
2026-01-27 22:31:25.87	142.29	14.02	-39.5	-41.8	13.8	3.80e-06	0	62	0	1646264320	49	5002
2026-01-27 22:31:26.88	142.43	13.95	-39.6	-41.9	13.7	4.50e-06	0	62	0	1649410048	49	5080
2026-01-27 22:31:27.89	142.56	13.87	-39.5	-41.8	13.8	4.50e-06	0	62	0	1652555776	49	4991
2026-01-27 22:31:28.90	142.70	13.79	-39.4	-41.7	13.8	3.00e-06	0	62	0	1655701504	49	4968
2026-01-27 22:31:29.91	142.84	13.72	-39.4	-41.7	13.9	5.30e-06	0	62	0	1658847232	49	4942
2026-01-27 22:31:30.92	142.98	13.64	-39.5	-41.8	13.8	3.80e-06	0	62	0	1661992960	49	4993
2026-01-27 22:31:31.93	143.11	13.56	-39.6	-41.9	13.7	1.50e-06	0	62	0	1665138688	49	5071
2026-01-27 22:31:32.94	143.25	13.48	-39.5	-41.8	13.7	8.30e-06	0	62	0	1668284416	49	5041
2026-01-27 22:31:33.95	143.38	13.41	-39.5	-41.9	13.7	6.80e-06	0	62	0	1671430144	49	5045
2026-01-27 22:31:34.96	143.51	13.33	-39.6	-42.0	13.6	6.80e-06	0	62	0	1674575872	49	5117
2026-01-27 22:31:35.97	143.65	13.25	-39.6	-42.0	13.5	9.90e-06	0	62	0	1677721600	49	5124
2026-01-27 22:31:36.98	143.78	13.18	-39.7	-42.1	13.4	1.29e-05	0	62	0	1680867328	49	5189
2026-01-27 22:31:37.99	143.91	13.10	-39.8	-42.2	13.3	1.44e-05	0	62	0	1684013056	50	4956
2026-01-27 22:31:39.00	144.04	13.03	-39.6	-42.0	13.5	1.22e-05	0	62	0	1687158784	50	4856
2026-01-27 22:31:40.01	144.17	12.95	-39.8	-42.2	13.2	1.29e-05	0	62	0	1690304512	50	4978
2026-01-27 22:31:41.02	144.30	12.87	-39.6	-42.0	13.5	1.67e-05	0	62	0	1693450240	50	4845
2026-01-27 22:31:42.04	144.43	12.80	-39.7	-42.1	13.4	1.60e-05	0	62	0	1696595968	50	4903
2026-01-27 22:31:43.05	144.56	12.72	-39.6	-42.0	13.5	1.98e-05	0	62	0	1699741696	50	4850
2026-01-27 22:31:44.06	144.69	12.64	-39.6	-42.0	13.5	1.29e-05	0	62	0	1702887424	50	4835
2026-01-27 22:31:45.07	144.81	12.57	-39.6	-41.9	13.5	1.44e-05	0	62	0	1706033152	50	4812
2026-01-27 22:31:46.08	144.94	12.49	-39.7	-42.1	13.4	1.14e-05	0	62	0	1709178880	50	4879
2026-01-27 22:31:47.09	145.06	12.42	-39.7	-42.1	13.4	1.37e-05	0	62	0	1712324608	50	4879
2026-01-27 22:31:48.10	145.19	12.34	-39.7	-42.1	13.3	1.83e-05	0	62	0	1715470336	50	4926
2026-01-27 22:31:49.11	145.31	12.27	-39.7	-42.1	13.4	1.75e-05	0	62	0	1718616064	50	4894
2026-01-27 22:31:50.11	145.44	12.19	-39.8	-42.3	13.1	1.90e-05	0	62	0	1721761792	50	5015
2026-01-27 22:31:51.12	145.56	12.12	-39.7	-42.2	13.2	3.12e-05	0	62	0	1724907520	50	4938
2026-01-27 22:31:52.13	145.68	12.04	-39.8	-42.3	13.1	3.66e-05	0	62	0	1728053248	50	5012
2026-01-27 22:31:53.14	145.80	11.97	-39.9	-42.4	13.0	3.89e-05	0	62	0	1731198976	50	5078
2026-01-27 22:31:54.15	145.93	11.89	-39.8	-42.4	13.0	4.27e-05	0	62	0	1735393280	50	5082
2026-01-27 22:31:55.17	146.05	11.82	-39.9	-42.5	12.9	3.43e-05	0	62	0	1738539008	50	5137
2026-01-27 22:31:56.18	146.17	11.74	-39.9	-42.5	12.8	5.49e-05	0	62	0	1740636160	50	5132
2026-01-27 22:31:57.19	146.29	11.67	-39.7	-42.2	13.2	3.28e-05	0	62	0	1743781888	50	4946
2026-01-27 22:31:58.20	146.41	11.60	-39.7	-42.2	13.1	2.05e-05	0	62	0	1746927616	50	4954
2026-01-27 22:31:59.21	146.53	11.52	-39.8	-42.2	13.1	3.20e-05	0	62	0	1751121920	50	4982
2026-01-27 22:32:00.22	146.64	11.45	-39.7	-42.2	13.2	1.90e-05	0	62	0	1754267648	50	4940
2026-01-27 22:32:01.23	146.76	11.37	-39.7	-42.2	13.1	3.20e-05	0	62	0	1757413376	50	4953
2026-01-27 22:32:02.24	146.88	11.30	-39.7	-42.2	13.1	2.82e-05	0	62	0	1760559104	50	4945
2026-01-27 22:32:03.25	146.99	11.23	-39.8	-42.3	13.1	2.89e-05	0	62	0	1763704832	50	4987
2026-01-27 22:32:04.26	147.11	11.15	-39.8	-42.3	13.0	4.95e-05	0	62	0	1766850560	50	4998
2026-01-27 22:32:05.27	147.22	11.08	-39.7	-42.2	13.1	3.43e-05	0	62	0	1769996288	50	4937
2026-01-27 22:32:06.28	147.34	11.01	-39.8	-42.4	13.0	4.80e-05	0	62	0	1773142016	50	5051
2026-01-27 22:32:07.29	147.45	10.93	-39.8	-42.4	12.9	5.41e-05	0	62	0	1776287744	50	5080
2026-01-27 22:32:08.30	147.57	10.86	-40.0	-42.6	12.7	5.72e-05	0	62	0	1779433472	50	5184
2026-01-27 22:32:09.31	147.68	10.79	-39.8	-42.4	12.9	6.71e-05	0	62	0	1782579200	50	5083
2026-01-27 22:32:10.32	147.79	10.72	-39.9	-42.6	12.7	7.55e-05	0	62	0	1785724928	50	5185
2026-01-27 22:32:11.33	147.90	10.64	-39.9	-42.5	12.7	6.71e-05	0	62	0	1788870656	50	5126
2026-01-27 22:32:12.35	148.02	10.57	-39.8	-42.4	12.8	7.40e-05	0	62	0	1792016384	50	5090
2026-01-27 22:32:13.36	148.13	10.50	-39.9	-42.5	12.8	5.56e-05	0	62	0	1795162112	50	5119
2026-01-27 22:32:14.37	148.24	10.42	-39.8	-42.4	12.8	5.34e-05	0	62	0	1798307840	50	5063
2026-01-27 22:32:15.38	148.35	10.35	-39.8	-42.5	12.8	6.17e-05	0	62	0	1801453568	50	5103
2026-01-27 22:32:16.38	148.45	10.28	-39.9	-42.5	12.7	6.56e-05	0	62	0	1804599296	50	5141
2026-01-27 22:32:17.39	148.56	10.21	-39.9	-42.5	12.7	7.93e-05	0	62	0	1807745024	50	5128
2026-01-27 22:32:18.40	148.67	10.14	-39.9	-42.5	12.7	6.86e-05	0	62	0	1810890752	50	5149
2026-01-27 22:32:19.41	148.78	10.07	-39.8	-42.4	12.8	6.33e-05	0	62	0	1814036480	50	5095
2026-01-27 22:32:20.42	148.89	9.99	-39.8	-42.3	12.8	8.46e-05	0	62	0	1817182208	50	5040
2026-01-27 22:32:21.43	148.99	9.92	-39.8	-42.4	12.7	9.15e-05	0	62	0	1820327936	50	5083
2026-01-27 22:32:22.44	149.10	9.85	-39.8	-42.4	12.7	7.01e-05	0	62	0	1823473664	50	5097
2026-01-27 22:32:23.45	149.20	9.78	-39.9	-42.5	12.6	1.26e-04	0	62	0	1826619392	50	5144
2026-01-27 22:32:24.46	149.31	9.71	-39.9	-42.5	12.6	9.23e-05	0	62	0	1829765120	50	5150
2026-01-27 22:32:25.47	149.41	9.64	-40.1	-42.8	12.3	1.69e-04	0	62	0	1832910848	50	5337
2026-01-27 22:32:26.48	149.52	9.57	-39.9	-42.6	12.5	2.21e-04	0	62	0	1836056576	50	5163
2026-01-27 22:32:27.49	149.62	9.50	-39.9	-42.6	12.5	1.06e-04	0	62	0	1839202304	50	5189
2026-01-27 22:32:28.50	149.73	9.43	-39.9	-42.7	12.4	2.10e-04	0	62	0	1842348032	50	5232
2026-01-27 22:32:29.51	149.83	9.36	-40.0	-42.7	12.3	1.44e-04	0	62	0	1845493760	50	5258
2026-01-27 22:32:30.53	149.93	9.28	-40.0	-42.8	12.3	1.71e-04	0	62	0	1848639488	50	5288
2026-01-27 22:32:31.54	150.03	9.21	-40.1	-42.9	12.1	2.17e-04	0	62	0	1851785216	50	5371
2026-01-27 22:32:32.55	150.13	9.14	-40.1	-43.0	12.1	2.66e-04	0	62	0	1854930944	50	5413
2026-01-27 22:32:33.56	150.24	9.07	-40.1	-43.0	12.0	2.38e-04	0	62	0	1858076672	50	5445
2026-01-27 22:32:34.57	150.34	9.00	-40.1	-43.0	12.0	3.23e-04	0	62	0	1861222400	50	5430
2026-01-27 22:32:35.58	150.44	8.93	-40.2	-43.1	11.9	3.92e-04	0	62	0	1864368128	50	5491
2026-01-27 22:32:36.59	150.54	8.86	-40.2	-43.1	11.8	5.42e-04	0	62	0	1867513856	51	5216
2026-01-27 22:32:37.60	150.63	8.80	-40.1	-43.1	11.9	3.82e-04	0	62	0	1870659584	51	5166
2026-01-27 22:32:38.61	150.73	8.73	-40.2	-43.2	11.8	4.96e-04	0	62	0	1873805312	51	5241
2026-01-27 22:32:39.62	150.83	8.66	-40.1	-43.0	11.9	3.57e-04	0	62	0	1876951040	51	5139
2026-01-27 22:32:40.63	150.93	8.59	-40.2	-43.1	11.8	4.26e-04	0	62	0	1880096768	51	5217
2026-01-27 22:32:41.64	151.03	8.52	-40.1	-43.1	11.8	3.63e-04	0	62	0	1883242496	51	5192
2026-01-27 22:32:42.65	151.12	8.45	-40.1	-43.1	11.8	4.98e-04	0	62	0	1886388224	51	5167
2026-01-27 22:32:43.66	151.22	8.38	-40.2	-43.1	11.8	4.36e-04	0	62	0	1889533952	51	5200
2026-01-27 22:32:44.67	151.31	8.31	-40.2	-43.3	11.6	5.81e-04	0	62	0	1892679680	51	5288
2026-01-27 22:32:45.68	151.41	8.24	-40.2	-43.2	11.7	7.84e-04	0	62	0	1895825408	51	5246
2026-01-27 22:32:46.70	151.51	8.17	-40.3	-43.4	11.5	8.80e-04	0	62	0	1898971136	51	5348
2026-01-27 22:32:47.71	151.60	8.11	-40.3	-43.4	11.4	8.96e-04	0	62	0	1902116864	51	5350
