passes_logs/2026/01/27/R2.0S_Moscow/R2.0S_Moscow__20260127_150031_FENGYUN_3E_rec.log

#Pass ID: 20260127_150031_FENGYUN 3E
#Satellite: FENGYUN 3E
#Configuration: FENGYUN 3E
#almurnet v.1.7.20251203
#Start time: 2026-01-27 15:00:33

#Version: 2.2.20231116
#Station: R2.0S_Moscow
#Location: 37.707566 lon 55.798166 lat
#TLE: 1 49008U 21062A   26026.84429991  .00000247  00000+0  13693-3 0  9991
#TLE: 2 49008  98.7501  31.8345 0002501 116.3456 243.7977 14.19887781236522

#Time	Az	El	Level	Level2	SNR	BER	BlckErr	Temp	State	Recorded	gain1	gain2
2026-01-27 15:00:33.35	184.48	2.14	-44.5	-55.5	3.8	8.46e-01	0	53	0	0	59	12866
2026-01-27 15:00:34.36	184.52	2.21	-44.5	-55.5	3.8	8.44e-01	0	53	104	0	59	12844
2026-01-27 15:00:35.37	184.56	2.27	-44.5	-55.5	3.8	8.45e-01	0	53	104	0	59	12850
2026-01-27 15:00:36.38	184.60	2.33	-44.5	-55.5	3.8	8.46e-01	0	53	104	0	59	12880
2026-01-27 15:00:37.40	184.64	2.40	-44.5	-55.5	3.8	8.46e-01	0	53	104	0	59	12873
2026-01-27 15:00:38.41	184.68	2.46	-44.5	-55.5	3.8	8.46e-01	0	53	104	0	59	12857
2026-01-27 15:00:39.42	184.72	2.52	-44.5	-55.4	3.8	8.46e-01	0	54	104	0	59	12793
2026-01-27 15:00:40.43	184.76	2.59	-44.4	-55.5	3.8	8.47e-01	0	54	104	0	59	12877
2026-01-27 15:00:41.44	184.80	2.65	-44.5	-55.5	3.8	8.47e-01	0	54	104	0	59	12854
2026-01-27 15:00:42.45	184.84	2.71	-44.5	-55.5	3.8	8.46e-01	0	54	104	0	59	12862
2026-01-27 15:00:43.46	184.88	2.78	-44.5	-55.5	3.8	8.48e-01	0	54	104	0	59	12874
2026-01-27 15:00:44.47	184.93	2.84	-44.4	-55.5	3.8	8.45e-01	0	54	104	0	59	12839
2026-01-27 15:00:45.48	184.97	2.91	-44.5	-55.5	3.8	8.47e-01	0	54	104	0	59	12829
2026-01-27 15:00:46.49	185.01	2.97	-44.5	-55.5	3.8	8.47e-01	0	54	104	0	59	12899
2026-01-27 15:00:47.50	185.05	3.04	-44.5	-55.5	3.8	8.46e-01	0	54	104	0	59	12853
2026-01-27 15:00:48.51	185.09	3.10	-44.5	-55.5	3.8	8.46e-01	0	54	104	0	59	12871
2026-01-27 15:00:49.52	185.13	3.16	-44.5	-55.5	3.8	8.47e-01	0	54	104	0	59	12854
2026-01-27 15:00:50.53	185.18	3.23	-44.5	-55.5	3.8	8.47e-01	0	54	104	0	59	12840
2026-01-27 15:00:51.54	185.22	3.29	-44.5	-55.5	3.8	8.47e-01	0	54	104	0	59	12840
2026-01-27 15:00:52.55	185.26	3.36	-44.5	-55.5	3.8	8.47e-01	0	55	104	0	59	12855
2026-01-27 15:00:53.56	185.30	3.42	-44.5	-55.5	3.8	8.46e-01	0	55	104	0	59	12819
2026-01-27 15:00:54.57	185.35	3.49	-44.5	-55.5	3.8	8.46e-01	0	55	104	0	59	12828
2026-01-27 15:00:55.58	185.39	3.56	-44.5	-55.5	3.8	8.44e-01	0	55	104	0	59	12831
2026-01-27 15:00:56.60	185.43	3.62	-44.5	-55.5	3.8	8.45e-01	0	55	104	0	59	12816
2026-01-27 15:00:57.61	185.48	3.69	-44.5	-55.5	3.8	8.46e-01	0	55	104	0	59	12825
2026-01-27 15:00:58.62	185.52	3.75	-44.5	-55.5	3.8	8.47e-01	0	55	104	0	59	12817
2026-01-27 15:00:59.63	185.57	3.82	-44.5	-55.4	3.8	8.47e-01	0	55	104	0	59	12807
2026-01-27 15:01:00.63	185.61	3.89	-44.5	-55.5	3.8	8.47e-01	0	55	104	0	59	12875
2026-01-27 15:01:01.65	185.65	3.95	-44.5	-55.5	3.8	8.47e-01	0	55	104	0	59	12812
2026-01-27 15:01:02.66	185.70	4.02	-44.5	-55.4	3.8	8.46e-01	0	55	104	0	59	12794
2026-01-27 15:01:03.67	185.74	4.09	-44.5	-55.5	3.8	8.46e-01	0	55	104	0	59	12827
2026-01-27 15:01:04.68	185.79	4.15	-44.4	-55.4	3.8	8.46e-01	0	55	104	0	59	12793
2026-01-27 15:01:05.69	185.83	4.22	-44.5	-55.4	3.8	8.46e-01	0	56	104	0	59	12697
2026-01-27 15:01:06.70	185.88	4.29	-44.4	-55.2	3.8	8.46e-01	0	55	104	0	59	12460
2026-01-27 15:01:07.71	185.92	4.36	-44.4	-55.3	3.8	8.46e-01	0	56	104	0	59	12570
2026-01-27 15:01:08.72	185.97	4.42	-44.4	-55.2	3.8	8.47e-01	0	55	104	0	59	12396
2026-01-27 15:01:09.73	186.01	4.49	-44.4	-55.0	3.8	8.46e-01	0	56	104	0	59	12183
2026-01-27 15:01:10.74	186.06	4.56	-44.4	-54.9	3.8	8.46e-01	0	56	104	0	59	11960
2026-01-27 15:01:11.75	186.11	4.63	-44.3	-54.7	3.8	8.47e-01	0	56	104	0	59	11741
2026-01-27 15:01:12.76	186.15	4.70	-44.3	-54.5	3.8	8.46e-01	0	56	104	0	59	11513
2026-01-27 15:01:13.77	186.20	4.76	-44.3	-54.6	3.8	8.46e-01	0	56	104	0	59	11586
2026-01-27 15:01:14.78	186.25	4.83	-44.3	-54.4	3.8	8.47e-01	0	56	104	0	59	11343
2026-01-27 15:01:15.79	186.29	4.90	-44.3	-54.4	3.8	8.46e-01	0	56	104	0	59	11377
2026-01-27 15:01:16.80	186.34	4.97	-44.3	-54.3	3.8	8.45e-01	0	56	104	0	59	11194
2026-01-27 15:01:17.82	186.39	5.04	-44.3	-54.2	3.8	8.45e-01	0	56	104	0	59	11145
2026-01-27 15:01:18.83	186.44	5.11	-44.3	-54.0	3.8	8.45e-01	0	56	104	0	59	10850
2026-01-27 15:01:19.84	186.48	5.18	-44.2	-53.5	3.9	8.45e-01	0	56	104	0	59	10207
2026-01-27 15:01:20.85	186.53	5.25	-44.2	-53.4	3.8	8.45e-01	0	56	104	0	59	10100
2026-01-27 15:01:21.86	186.58	5.32	-44.1	-53.2	3.8	8.45e-01	0	56	104	0	59	9871
2026-01-27 15:01:22.87	186.63	5.39	-44.0	-52.6	4.0	8.42e-01	0	56	0	0	59	9195
2026-01-27 15:01:23.88	186.68	5.46	-43.9	-52.1	4.1	8.40e-01	0	56	0	0	58	9215
2026-01-27 15:01:24.89	186.73	5.53	-43.9	-51.7	4.3	8.35e-01	0	56	0	0	58	8781
2026-01-27 15:01:25.90	186.78	5.60	-43.7	-51.2	4.4	8.29e-01	0	56	0	0	58	8279
2026-01-27 15:01:26.91	186.82	5.67	-43.8	-51.4	4.4	8.27e-01	0	57	0	0	58	8466
2026-01-27 15:01:27.92	186.87	5.74	-43.6	-50.7	4.6	8.21e-01	0	57	0	0	58	7880
2026-01-27 15:01:28.93	186.92	5.81	-43.6	-50.4	4.7	8.00e-01	0	57	0	0	58	7580
2026-01-27 15:01:29.95	186.97	5.88	-43.4	-49.9	5.0	7.82e-01	0	57	0	0	57	7602
2026-01-27 15:01:30.96	187.02	5.95	-43.3	-49.6	5.1	7.59e-01	0	57	0	0	57	7366
2026-01-27 15:01:31.97	187.08	6.02	-43.2	-49.3	5.4	7.32e-01	0	57	0	0	57	7079
2026-01-27 15:01:32.98	187.13	6.10	-43.2	-49.2	5.4	7.01e-01	0	57	0	0	57	6994
2026-01-27 15:01:33.99	187.18	6.17	-43.0	-48.7	5.7	5.74e-01	0	57	0	3145728	57	6639
2026-01-27 15:01:35.00	187.23	6.24	-43.0	-48.6	5.9	3.75e-01	0	57	0	10485760	56	6917
2026-01-27 15:01:36.01	187.28	6.31	-42.9	-48.3	6.1	3.18e-01	0	57	0	17825792	56	6660
2026-01-27 15:01:37.02	187.33	6.38	-42.7	-47.8	6.4	2.75e-01	0	57	0	24117248	56	6344
2026-01-27 15:01:38.03	187.38	6.46	-42.6	-47.6	6.6	2.23e-01	0	57	0	31457280	56	6186
2026-01-27 15:01:39.04	187.44	6.53	-42.3	-47.1	7.0	1.69e-01	0	57	0	38797312	55	6153
2026-01-27 15:01:40.05	187.49	6.60	-42.0	-46.4	7.6	1.03e-01	0	57	0	46137344	55	5702
2026-01-27 15:01:41.06	187.54	6.68	-41.7	-45.7	8.3	7.36e-02	0	57	0	53477376	54	5575
2026-01-27 15:01:42.07	187.59	6.75	-41.4	-45.3	8.7	4.17e-02	0	57	0	60817408	53	5603
2026-01-27 15:01:43.08	187.65	6.82	-41.2	-44.8	9.2	2.20e-02	0	57	0	68157440	53	5322
2026-01-27 15:01:44.09	187.70	6.90	-40.7	-44.0	10.0	1.27e-02	0	57	0	75497472	52	5131
2026-01-27 15:01:45.10	187.75	6.97	-40.3	-43.3	10.8	3.28e-03	0	57	0	82837504	51	5025
2026-01-27 15:01:46.12	187.81	7.05	-40.2	-43.1	11.1	1.91e-03	0	58	0	90177536	51	4875
2026-01-27 15:01:47.13	187.86	7.12	-39.7	-42.4	11.7	7.51e-04	0	58	0	97517568	50	4788
2026-01-27 15:01:48.14	187.92	7.19	-39.4	-42.0	12.2	2.38e-04	0	57	0	104857600	49	4832
2026-01-27 15:01:49.15	187.97	7.27	-38.9	-41.3	12.8	8.01e-05	0	58	0	112197632	48	4753
2026-01-27 15:01:50.16	188.03	7.34	-38.9	-41.3	12.9	3.89e-05	0	58	0	119537664	48	4706
2026-01-27 15:01:51.17	188.08	7.42	-38.5	-40.8	13.4	1.71e-05	0	58	0	126877696	48	4442
2026-01-27 15:01:52.18	188.14	7.49	-38.1	-40.3	13.6	1.02e-05	0	58	0	134217728	47	4482
2026-01-27 15:01:53.19	188.19	7.57	-38.2	-40.5	13.5	1.83e-05	0	58	0	141557760	47	4568
2026-01-27 15:01:54.20	188.25	7.64	-38.2	-40.5	13.5	1.02e-05	0	58	0	148897792	47	4557
2026-01-27 15:01:55.21	188.31	7.72	-38.2	-40.5	13.5	1.60e-05	0	58	0	156237824	47	4571
2026-01-27 15:01:56.23	188.36	7.80	-38.5	-40.8	13.2	3.08e-05	0	58	0	163577856	47	4732
2026-01-27 15:01:57.24	188.42	7.87	-38.6	-41.0	13.0	4.80e-05	0	58	0	170917888	47	4856
2026-01-27 15:01:58.25	188.48	7.95	-39.0	-41.6	12.5	1.17e-04	0	58	0	178257920	47	5169
2026-01-27 15:01:59.26	188.54	8.03	-39.7	-42.4	11.8	6.79e-04	0	58	0	185597952	49	5044
2026-01-27 15:02:00.27	188.59	8.10	-38.9	-41.3	13.0	3.20e-05	0	58	0	192937984	48	4746
2026-01-27 15:02:01.28	188.65	8.18	-43.4	-50.0	4.2	8.45e-01	0	58	104	196083712	57	7636
2026-01-27 15:02:02.29	188.71	8.26	-40.7	-43.8	10.4	5.49e-03	0	58	0	200278016	52	5002
2026-01-27 15:02:03.30	188.77	8.34	-38.9	-41.3	13.1	1.58e-04	0	58	0	207618048	48	4709
2026-01-27 15:02:04.31	188.83	8.41	-43.7	-50.6	4.1	8.44e-01	0	58	104	211812352	58	7790
2026-01-27 15:02:05.32	188.89	8.49	-38.7	-41.0	13.4	1.37e-05	0	58	0	214958080	48	4555
2026-01-27 15:02:06.33	188.95	8.57	-38.7	-41.0	13.3	1.71e-05	0	58	0	221249536	48	4593
2026-01-27 15:02:07.34	189.01	8.65	-38.5	-40.8	13.6	1.02e-05	0	58	0	228589568	48	4451
2026-01-27 15:02:08.35	189.07	8.73	-38.3	-40.5	13.7	9.10e-06	0	59	0	236978176	47	4563
2026-01-27 15:02:09.36	189.13	8.81	-38.3	-40.6	13.6	1.25e-05	0	58	0	243269632	47	4607
2026-01-27 15:02:10.37	189.19	8.88	-38.3	-40.6	13.6	1.02e-05	0	59	0	250609664	47	4611
2026-01-27 15:02:11.38	189.25	8.96	-38.0	-40.2	14.0	4.50e-06	0	59	0	257949696	46	4665
2026-01-27 15:02:12.39	189.31	9.04	-37.9	-40.1	14.1	3.40e-06	0	59	0	265289728	46	4629
2026-01-27 15:02:13.40	189.37	9.12	-37.9	-40.0	14.2	1.10e-06	0	59	0	272629760	46	4582
2026-01-27 15:02:14.41	189.43	9.20	-37.7	-39.8	14.4	1.10e-06	0	59	0	279969792	46	4463
2026-01-27 15:02:15.42	189.50	9.28	-37.8	-39.9	14.3	3.40e-06	0	58	0	287309824	46	4510
2026-01-27 15:02:16.43	189.56	9.36	-37.7	-39.8	14.4	1.10e-06	0	59	0	294649856	46	4448
2026-01-27 15:02:17.44	189.62	9.44	-37.6	-39.7	14.5	0.00e+00	0	59	0	301989888	46	4413
2026-01-27 15:02:18.44	189.69	9.52	-37.8	-39.9	14.4	1.10e-06	0	59	0	309329920	46	4496
2026-01-27 15:02:19.45	189.75	9.61	-37.6	-39.7	14.5	0.00e+00	0	59	0	316669952	46	4405
2026-01-27 15:02:20.46	189.81	9.69	-37.6	-39.7	14.5	0.00e+00	0	59	0	324009984	46	4405
2026-01-27 15:02:21.47	189.88	9.77	-37.6	-39.7	14.6	0.00e+00	0	59	0	331350016	46	4408
2026-01-27 15:02:22.48	189.94	9.85	-37.4	-39.5	14.7	0.00e+00	0	59	0	338690048	45	4565
2026-01-27 15:02:23.49	190.01	9.93	-37.6	-39.6	14.6	0.00e+00	0	59	0	344981504	45	4651
2026-01-27 15:02:24.50	190.07	10.02	-37.5	-39.6	14.7	0.00e+00	0	59	0	353370112	45	4614
2026-01-27 15:02:25.51	190.14	10.10	-37.6	-39.8	14.5	0.00e+00	0	59	0	360710144	45	4709
2026-01-27 15:02:26.52	190.20	10.18	-37.6	-39.7	14.6	1.10e-06	0	59	0	367001600	45	4670
2026-01-27 15:02:27.53	190.27	10.26	-37.5	-39.7	14.6	1.10e-06	0	59	0	374341632	45	4653
2026-01-27 15:02:28.54	190.34	10.35	-37.6	-39.6	14.6	2.20e-06	0	59	0	381681664	45	4650
2026-01-27 15:02:29.55	190.41	10.43	-37.4	-39.4	14.8	0.00e+00	0	59	0	389021696	45	4526
2026-01-27 15:02:30.56	190.47	10.51	-37.2	-39.2	15.1	0.00e+00	0	59	0	396361728	45	4396
2026-01-27 15:02:31.57	190.54	10.60	-37.6	-39.7	14.6	0.00e+00	0	59	0	403701760	45	4652
2026-01-27 15:02:32.58	190.61	10.68	-37.4	-39.5	14.8	0.00e+00	0	59	0	411041792	45	4572
2026-01-27 15:02:33.59	190.68	10.77	-37.5	-39.5	14.8	0.00e+00	0	59	0	418381824	45	4583
2026-01-27 15:02:34.60	190.75	10.85	-37.3	-39.4	14.9	0.00e+00	0	59	0	425721856	45	4502
2026-01-27 15:02:35.61	190.82	10.94	-37.4	-39.5	14.8	0.00e+00	0	59	0	433061888	45	4561
2026-01-27 15:02:36.62	190.89	11.02	-37.4	-39.4	14.9	0.00e+00	0	59	0	440401920	45	4531
2026-01-27 15:02:37.63	190.96	11.11	-37.2	-39.3	15.0	0.00e+00	0	59	0	447741952	45	4460
2026-01-27 15:02:38.64	191.03	11.19	-37.2	-39.3	15.0	0.00e+00	0	59	0	455081984	45	4470
2026-01-27 15:02:39.65	191.10	11.28	-37.2	-39.3	15.0	0.00e+00	0	59	0	462422016	45	4445
2026-01-27 15:02:40.66	191.17	11.37	-37.2	-39.2	15.1	0.00e+00	0	59	0	469762048	45	4435
2026-01-27 15:02:41.67	191.24	11.45	-37.2	-39.3	15.1	0.00e+00	0	59	0	477102080	45	4452
2026-01-27 15:02:42.68	191.31	11.54	-37.2	-39.3	15.0	0.00e+00	0	59	0	484442112	45	4459
2026-01-27 15:02:43.69	191.39	11.63	-37.2	-39.2	15.1	0.00e+00	0	59	0	491782144	45	4436
2026-01-27 15:02:44.70	191.46	11.72	-37.2	-39.3	15.0	0.00e+00	0	59	0	498073600	45	4452
2026-01-27 15:02:45.71	191.53	11.80	-37.2	-39.2	15.1	0.00e+00	0	60	0	506462208	45	4435
2026-01-27 15:02:46.72	191.61	11.89	-37.1	-39.2	15.2	0.00e+00	0	59	0	513802240	44	4675
2026-01-27 15:02:47.72	191.68	11.98	-37.1	-39.1	15.2	0.00e+00	0	60	0	520093696	44	4645
2026-01-27 15:02:48.73	191.76	12.07	-37.1	-39.2	15.2	0.00e+00	0	59	0	527433728	44	4661
2026-01-27 15:02:49.74	191.83	12.16	-37.1	-39.1	15.2	0.00e+00	0	60	0	534773760	44	4633
2026-01-27 15:02:50.75	191.91	12.25	-37.0	-39.0	15.3	0.00e+00	0	59	0	542113792	44	4574
2026-01-27 15:02:51.76	191.98	12.34	-36.9	-38.8	15.6	0.00e+00	0	60	0	549453824	44	4492
2026-01-27 15:02:52.77	192.06	12.43	-37.0	-39.0	15.3	0.00e+00	0	59	0	556793856	44	4580
2026-01-27 15:02:53.78	192.14	12.52	-37.1	-39.1	15.3	0.00e+00	0	59	0	564133888	44	4632
2026-01-27 15:02:54.79	192.21	12.61	-37.1	-39.1	15.3	0.00e+00	0	60	0	571473920	44	4637
2026-01-27 15:02:55.80	192.29	12.70	-37.0	-39.0	15.4	0.00e+00	0	60	0	578813952	44	4574
2026-01-27 15:02:56.81	192.37	12.79	-37.3	-39.4	15.0	0.00e+00	0	60	0	586153984	44	4811
2026-01-27 15:02:57.82	192.45	12.88	-37.0	-39.0	15.4	0.00e+00	0	60	0	593494016	44	4586
2026-01-27 15:02:58.84	192.53	12.97	-37.0	-39.0	15.4	0.00e+00	0	60	0	600834048	44	4596
2026-01-27 15:02:59.85	192.61	13.06	-36.9	-39.0	15.4	0.00e+00	0	60	0	608174080	44	4561
2026-01-27 15:03:00.86	192.69	13.15	-36.8	-38.7	15.6	0.00e+00	0	60	0	615514112	44	4427
2026-01-27 15:03:01.87	192.77	13.25	-36.9	-38.9	15.5	0.00e+00	0	60	0	622854144	44	4496
2026-01-27 15:03:02.88	192.85	13.34	-36.5	-38.4	15.8	0.00e+00	0	60	0	630194176	43	4515
2026-01-27 15:03:03.89	192.93	13.43	-36.5	-38.5	15.8	0.00e+00	0	60	0	637534208	43	4573
2026-01-27 15:03:04.90	193.02	13.53	-36.5	-38.4	15.8	0.00e+00	0	60	0	644874240	43	4525
2026-01-27 15:03:05.91	193.10	13.62	-36.5	-38.5	15.8	0.00e+00	0	60	0	652214272	43	4571
2026-01-27 15:03:06.92	193.18	13.71	-36.4	-38.3	16.0	0.00e+00	0	60	0	659554304	43	4445
2026-01-27 15:03:07.93	193.27	13.81	-36.4	-38.3	15.9	0.00e+00	0	60	0	665845760	43	4486
2026-01-27 15:03:08.94	193.35	13.90	-36.4	-38.4	15.9	0.00e+00	0	60	0	673185792	43	4494
2026-01-27 15:03:09.95	193.43	14.00	-36.4	-38.3	16.0	0.00e+00	0	60	0	681574400	43	4487
2026-01-27 15:03:10.97	193.52	14.09	-36.4	-38.3	16.0	0.00e+00	0	60	0	688914432	43	4452
2026-01-27 15:03:11.98	193.61	14.19	-36.4	-38.3	16.0	0.00e+00	0	60	0	695205888	43	4474
2026-01-27 15:03:12.99	193.69	14.29	-36.4	-38.2	16.1	0.00e+00	0	60	0	702545920	43	4436
2026-01-27 15:03:14.00	193.78	14.38	-36.3	-38.1	16.2	0.00e+00	0	60	0	709885952	43	4376
2026-01-27 15:03:15.01	193.87	14.48	-36.3	-38.2	16.1	0.00e+00	0	60	0	717225984	43	4411
2026-01-27 15:03:16.02	193.96	14.57	-36.4	-38.2	16.1	0.00e+00	0	60	0	724566016	43	4431
2026-01-27 15:03:17.03	194.04	14.67	-36.4	-38.3	16.0	0.00e+00	0	60	0	731906048	43	4452
2026-01-27 15:03:18.04	194.13	14.77	-36.4	-38.3	15.9	0.00e+00	0	60	0	739246080	43	4487
2026-01-27 15:03:19.05	194.22	14.87	-36.5	-38.4	15.9	0.00e+00	0	60	0	746586112	43	4517
2026-01-27 15:03:20.06	194.31	14.97	-36.3	-38.2	16.1	0.00e+00	0	60	0	753926144	43	4423
2026-01-27 15:03:21.07	194.40	15.06	-36.3	-38.2	16.2	0.00e+00	0	60	0	761266176	43	4398
2026-01-27 15:03:22.08	194.49	15.16	-36.2	-38.1	16.2	0.00e+00	0	60	0	768606208	43	4373
2026-01-27 15:03:23.09	194.59	15.26	-36.5	-38.5	15.8	0.00e+00	0	60	0	775946240	43	4554
2026-01-27 15:03:24.10	194.68	15.36	-36.2	-38.0	16.3	0.00e+00	0	60	0	783286272	42	4585
2026-01-27 15:03:25.11	194.77	15.46	-36.3	-38.1	16.3	0.00e+00	0	60	0	790626304	42	4624
2026-01-27 15:03:26.12	194.87	15.56	-36.2	-38.1	16.3	0.00e+00	0	60	0	797966336	42	4612
2026-01-27 15:03:27.13	194.96	15.66	-36.3	-38.1	16.2	0.00e+00	0	60	0	805306368	42	4643
2026-01-27 15:03:28.14	195.06	15.76	-36.4	-38.3	16.2	0.00e+00	0	60	0	812646400	42	4715
2026-01-27 15:03:29.15	195.15	15.86	-36.2	-38.1	16.3	0.00e+00	0	60	0	819986432	42	4612
2026-01-27 15:03:30.16	195.25	15.97	-36.2	-38.0	16.3	0.00e+00	0	60	0	827326464	42	4598
2026-01-27 15:03:31.17	195.34	16.07	-36.2	-38.1	16.3	0.00e+00	0	60	0	834666496	42	4611
2026-01-27 15:03:32.18	195.44	16.17	-36.1	-38.0	16.4	0.00e+00	0	60	0	840957952	42	4563
2026-01-27 15:03:33.19	195.54	16.27	-36.2	-38.0	16.4	0.00e+00	0	60	0	848297984	42	4569
2026-01-27 15:03:34.20	195.64	16.38	-36.1	-37.9	16.5	0.00e+00	0	60	0	856686592	42	4538
2026-01-27 15:03:35.21	195.74	16.48	-36.1	-37.9	16.5	0.00e+00	0	60	0	862978048	42	4524
2026-01-27 15:03:36.22	195.84	16.58	-36.2	-38.0	16.4	0.00e+00	0	60	0	870318080	42	4575
2026-01-27 15:03:37.23	195.94	16.69	-36.1	-37.9	16.5	0.00e+00	0	60	0	877658112	42	4523
2026-01-27 15:03:38.24	196.04	16.79	-36.1	-38.0	16.5	0.00e+00	0	60	0	884998144	42	4549
2026-01-27 15:03:39.25	196.14	16.90	-36.1	-37.9	16.5	0.00e+00	0	61	0	892338176	42	4516
2026-01-27 15:03:40.26	196.25	17.00	-36.0	-37.8	16.6	0.00e+00	0	61	0	899678208	42	4478
2026-01-27 15:03:41.27	196.35	17.11	-35.9	-37.6	16.8	0.00e+00	0	61	0	907018240	42	4375
2026-01-27 15:03:42.28	196.45	17.21	-35.7	-37.5	16.9	0.00e+00	0	61	0	914358272	42	4323
2026-01-27 15:03:43.29	196.56	17.32	-35.7	-37.4	17.0	0.00e+00	0	61	0	921698304	42	4270
2026-01-27 15:03:44.30	196.66	17.42	-35.7	-37.5	16.8	0.00e+00	0	61	0	929038336	41	4580
2026-01-27 15:03:45.31	196.77	17.53	-35.5	-37.3	17.1	0.00e+00	0	61	0	936378368	41	4448
2026-01-27 15:03:46.32	196.88	17.64	-35.5	-37.2	17.1	0.00e+00	0	61	0	943718400	41	4422
2026-01-27 15:03:47.33	196.98	17.75	-35.4	-37.1	17.2	0.00e+00	0	61	0	951058432	41	4380
2026-01-27 15:03:48.34	197.09	17.86	-35.3	-37.0	17.3	0.00e+00	0	61	0	958398464	41	4334
2026-01-27 15:03:49.35	197.20	17.96	-35.6	-37.3	17.0	0.00e+00	0	61	0	965738496	41	4493
2026-01-27 15:03:50.36	197.31	18.07	-35.4	-37.1	17.3	0.00e+00	0	61	0	973078528	41	4343
2026-01-27 15:03:51.38	197.42	18.18	-35.4	-37.1	17.3	0.00e+00	0	61	0	980418560	41	4347
2026-01-27 15:03:52.39	197.54	18.29	-35.3	-37.0	17.3	0.00e+00	0	61	0	987758592	41	4313
2026-01-27 15:03:53.40	197.65	18.40	-35.3	-37.0	17.3	0.00e+00	0	61	0	995098624	41	4317
2026-01-27 15:03:54.41	197.76	18.51	-35.2	-36.9	17.4	0.00e+00	0	61	0	1002438656	41	4274
2026-01-27 15:03:55.42	197.88	18.62	-35.2	-36.9	17.4	0.00e+00	0	61	0	1009778688	40	4512
2026-01-27 15:03:56.43	197.99	18.74	-35.3	-37.0	17.3	0.00e+00	0	61	0	1016070144	40	4554
2026-01-27 15:03:57.44	198.11	18.85	-35.2	-36.9	17.4	0.00e+00	0	61	0	1023410176	40	4519
2026-01-27 15:03:58.45	198.22	18.96	-35.3	-36.9	17.4	0.00e+00	0	61	0	1030750208	40	4534
2026-01-27 15:03:59.46	198.34	19.07	-35.4	-37.1	17.2	0.00e+00	0	61	0	1038090240	40	4640
2026-01-27 15:04:00.47	198.46	19.18	-35.3	-37.0	17.4	0.00e+00	0	61	0	1045430272	40	4558
2026-01-27 15:04:01.48	198.58	19.30	-35.3	-37.0	17.3	0.00e+00	0	61	0	1052770304	40	4569
2026-01-27 15:04:02.49	198.70	19.41	-35.3	-37.0	17.3	0.00e+00	0	61	0	1060110336	40	4581
2026-01-27 15:04:03.50	198.82	19.53	-35.4	-37.1	17.3	0.00e+00	0	61	0	1067450368	40	4610
2026-01-27 15:04:04.51	198.94	19.64	-35.4	-37.2	17.2	0.00e+00	0	61	0	1074790400	40	4675
2026-01-27 15:04:05.52	199.06	19.75	-35.4	-37.1	17.2	0.00e+00	0	61	0	1082130432	41	4385
2026-01-27 15:04:06.54	199.19	19.87	-35.4	-37.2	17.2	0.00e+00	0	61	0	1089470464	41	4419
2026-01-27 15:04:07.55	199.31	19.99	-35.5	-37.2	17.1	0.00e+00	0	61	0	1096810496	41	4441
2026-01-27 15:04:08.56	199.44	20.10	-35.3	-37.1	17.3	0.00e+00	0	61	0	1104150528	41	4348
2026-01-27 15:04:09.57	199.56	20.22	-35.4	-37.1	17.3	0.00e+00	0	61	0	1111490560	41	4362
2026-01-27 15:04:10.58	199.69	20.34	-35.2	-37.0	17.4	0.00e+00	0	61	0	1118830592	41	4297
2026-01-27 15:04:11.58	199.82	20.45	-35.3	-37.0	17.4	0.00e+00	0	61	0	1126170624	41	4321
2026-01-27 15:04:12.60	199.95	20.57	-35.3	-37.0	17.4	0.00e+00	0	61	0	1133510656	41	4308
2026-01-27 15:04:13.61	200.08	20.69	-35.2	-36.9	17.4	0.00e+00	0	61	0	1140850688	41	4284
2026-01-27 15:04:14.62	200.21	20.81	-35.2	-36.9	17.5	0.00e+00	0	61	0	1148190720	41	4272
2026-01-27 15:04:15.63	200.34	20.93	-35.5	-37.3	17.1	0.00e+00	0	61	0	1155530752	41	4472
2026-01-27 15:04:16.64	200.47	21.05	-35.2	-36.9	17.5	0.00e+00	0	61	0	1161822208	41	4252
2026-01-27 15:04:17.65	200.61	21.17	-35.2	-36.9	17.6	0.00e+00	0	61	0	1169162240	41	4244
2026-01-27 15:04:18.66	200.74	21.29	-35.1	-36.8	17.6	0.00e+00	0	61	0	1177550848	41	4203
2026-01-27 15:04:19.66	200.88	21.41	-35.0	-36.6	17.8	0.00e+00	0	61	0	1183842304	41	4140
2026-01-27 15:04:20.68	201.01	21.53	-35.0	-36.6	17.8	0.00e+00	0	61	0	1191182336	41	4143
2026-01-27 15:04:21.69	201.15	21.65	-35.0	-36.7	17.7	0.00e+00	0	61	0	1198522368	40	4415
2026-01-27 15:04:22.70	201.29	21.77	-35.1	-36.7	17.7	0.00e+00	0	61	0	1205862400	40	4432
2026-01-27 15:04:23.71	201.43	21.89	-35.1	-36.8	17.6	0.00e+00	0	61	0	1213202432	40	4477
2026-01-27 15:04:24.72	201.57	22.02	-35.2	-36.9	17.6	0.00e+00	0	61	0	1220542464	40	4507
2026-01-27 15:04:25.73	201.71	22.14	-35.2	-36.9	17.5	0.00e+00	0	61	0	1227882496	40	4527
2026-01-27 15:04:26.74	201.86	22.26	-35.2	-36.9	17.5	0.00e+00	0	61	0	1235222528	40	4513
2026-01-27 15:04:27.75	202.00	22.39	-35.2	-36.9	17.5	0.00e+00	0	61	0	1242562560	40	4539
2026-01-27 15:04:28.76	202.15	22.51	-35.2	-36.9	17.6	0.00e+00	0	61	0	1249902592	40	4494
2026-01-27 15:04:29.77	202.29	22.64	-35.2	-36.9	17.5	0.00e+00	0	61	0	1257242624	40	4534
2026-01-27 15:04:30.78	202.44	22.76	-35.1	-36.8	17.7	0.00e+00	0	61	0	1264582656	40	4455
2026-01-27 15:04:31.79	202.59	22.89	-35.2	-36.8	17.6	0.00e+00	0	61	0	1271922688	40	4477
2026-01-27 15:04:32.80	202.74	23.01	-35.1	-36.7	17.7	0.00e+00	0	61	0	1279262720	40	4417
2026-01-27 15:04:33.81	202.89	23.14	-35.1	-36.8	17.7	0.00e+00	0	61	0	1286602752	40	4446
2026-01-27 15:04:34.82	203.05	23.27	-35.1	-36.7	17.8	0.00e+00	0	61	0	1293942784	40	4417
2026-01-27 15:04:35.83	203.20	23.39	-35.0	-36.6	17.8	0.00e+00	0	61	0	1301282816	40	4374
2026-01-27 15:04:36.84	203.35	23.52	-35.2	-36.9	17.6	0.00e+00	0	61	0	1308622848	40	4528
2026-01-27 15:04:37.85	203.51	23.65	-35.1	-36.8	17.7	0.00e+00	0	61	0	1315962880	40	4455
2026-01-27 15:04:38.86	203.67	23.78	-35.0	-36.6	17.8	0.00e+00	0	61	0	1323302912	40	4371
2026-01-27 15:04:39.87	203.83	23.91	-35.0	-36.7	17.8	0.00e+00	0	61	0	1330642944	40	4400
2026-01-27 15:04:40.88	203.99	24.04	-34.9	-36.6	17.9	0.00e+00	0	61	0	1336934400	40	4344
2026-01-27 15:04:41.89	204.15	24.17	-35.0	-36.6	17.8	0.00e+00	0	61	0	1344274432	40	4368
2026-01-27 15:04:42.90	204.31	24.30	-35.0	-36.7	17.8	0.00e+00	0	61	0	1352663040	40	4401
2026-01-27 15:04:43.91	204.47	24.43	-35.0	-36.6	17.8	0.00e+00	0	61	0	1358954496	40	4386
2026-01-27 15:04:44.92	204.64	24.56	-34.9	-36.6	17.8	0.00e+00	0	62	0	1366294528	40	4366
2026-01-27 15:04:45.93	204.81	24.69	-34.9	-36.6	17.8	0.00e+00	0	61	0	1373634560	40	4370
2026-01-27 15:04:46.94	204.98	24.82	-35.0	-36.7	17.8	0.00e+00	0	61	0	1380974592	40	4402
2026-01-27 15:04:47.95	205.14	24.95	-34.9	-36.6	17.8	0.00e+00	0	61	0	1388314624	40	4382
2026-01-27 15:04:48.96	205.32	25.09	-34.9	-36.5	17.9	0.00e+00	0	61	0	1395654656	40	4339
2026-01-27 15:04:49.97	205.49	25.22	-34.8	-36.5	17.9	0.00e+00	0	62	0	1402994688	40	4323
2026-01-27 15:04:50.98	205.66	25.35	-34.7	-36.4	18.0	0.00e+00	0	61	0	1410334720	40	4250
2026-01-27 15:04:52.00	205.84	25.49	-34.8	-36.4	18.0	0.00e+00	0	61	0	1417674752	40	4291
2026-01-27 15:04:53.01	206.01	25.62	-34.8	-36.5	17.9	0.00e+00	0	61	0	1425014784	40	4319
2026-01-27 15:04:54.02	206.19	25.76	-34.8	-36.5	17.9	0.00e+00	0	62	0	1432354816	40	4306
2026-01-27 15:04:55.03	206.37	25.89	-34.7	-36.4	18.0	0.00e+00	0	61	0	1439694848	40	4277
2026-01-27 15:04:56.04	206.55	26.03	-34.8	-36.4	18.0	0.00e+00	0	61	0	1447034880	40	4287
2026-01-27 15:04:57.05	206.74	26.16	-34.7	-36.4	18.1	0.00e+00	0	61	0	1454374912	40	4248
2026-01-27 15:04:58.06	206.92	26.30	-34.7	-36.4	18.1	0.00e+00	0	61	0	1461714944	40	4248
2026-01-27 15:04:59.07	207.11	26.44	-34.7	-36.3	18.1	0.00e+00	0	61	0	1469054976	40	4242
2026-01-27 15:05:00.08	207.29	26.58	-34.7	-36.3	18.1	0.00e+00	0	61	0	1476395008	40	4239
2026-01-27 15:05:01.09	207.48	26.71	-34.6	-36.2	18.3	0.00e+00	0	61	0	1482686464	40	4167
2026-01-27 15:05:02.10	207.67	26.85	-34.6	-36.2	18.4	0.00e+00	0	61	0	1491075072	39	4414
2026-01-27 15:05:03.11	207.86	26.99	-34.5	-36.1	18.4	0.00e+00	0	62	0	1498415104	39	4386
2026-01-27 15:05:04.13	208.06	27.13	-34.3	-35.8	18.7	0.00e+00	0	61	0	1504706560	39	4240
2026-01-27 15:05:05.14	208.25	27.27	-34.2	-35.8	18.8	0.00e+00	0	61	0	1512046592	39	4194
2026-01-27 15:05:06.14	208.45	27.41	-34.2	-35.7	18.8	0.00e+00	0	61	0	1519386624	39	4193
2026-01-27 15:05:07.16	208.65	27.55	-34.2	-35.8	18.8	0.00e+00	0	61	0	1526726656	39	4208
2026-01-27 15:05:08.17	208.85	27.69	-34.1	-35.6	18.9	0.00e+00	0	62	0	1534066688	39	4138
2026-01-27 15:05:09.18	209.05	27.83	-34.2	-35.8	18.8	0.00e+00	0	62	0	1541406720	39	4208
2026-01-27 15:05:10.19	209.26	27.97	-34.3	-35.9	18.7	0.00e+00	0	62	0	1548746752	39	4267
2026-01-27 15:05:11.20	209.46	28.11	-34.2	-35.8	18.8	0.00e+00	0	61	0	1556086784	39	4204
2026-01-27 15:05:12.21	209.67	28.25	-34.2	-35.8	18.7	0.00e+00	0	61	0	1563426816	39	4221
2026-01-27 15:05:13.22	209.88	28.39	-34.3	-35.8	18.7	0.00e+00	0	61	0	1570766848	39	4234
2026-01-27 15:05:14.23	210.09	28.53	-34.4	-36.0	18.6	0.00e+00	0	61	0	1578106880	39	4307
2026-01-27 15:05:15.24	210.30	28.68	-34.4	-36.1	18.5	0.00e+00	0	62	0	1585446912	39	4346
2026-01-27 15:05:16.25	210.52	28.82	-34.5	-36.2	18.3	0.00e+00	0	62	0	1592786944	39	4398
2026-01-27 15:05:17.26	210.73	28.96	-34.6	-36.2	18.3	0.00e+00	0	62	0	1600126976	39	4425
2026-01-27 15:05:18.27	210.95	29.10	-34.5	-36.2	18.3	0.00e+00	0	62	0	1607467008	39	4408
2026-01-27 15:05:19.28	211.17	29.25	-34.5	-36.1	18.3	0.00e+00	0	62	0	1614807040	39	4389
2026-01-27 15:05:20.29	211.40	29.39	-34.7	-36.3	18.2	0.00e+00	0	62	0	1622147072	39	4487
2026-01-27 15:05:21.30	211.62	29.54	-34.6	-36.3	18.2	0.00e+00	0	61	0	1629487104	39	4454
2026-01-27 15:05:22.31	211.85	29.68	-34.6	-36.3	18.2	0.00e+00	0	62	0	1636827136	39	4478
2026-01-27 15:05:23.33	212.08	29.83	-34.6	-36.3	18.2	0.00e+00	0	62	0	1644167168	39	4462
2026-01-27 15:05:24.34	212.31	29.97	-34.7	-36.3	18.2	0.00e+00	0	62	0	1651507200	39	4479
2026-01-27 15:05:25.35	212.54	30.12	-34.6	-36.3	18.2	0.00e+00	0	62	0	1657798656	39	4456
2026-01-27 15:05:26.36	212.77	30.26	-34.7	-36.3	18.2	0.00e+00	0	62	0	1666187264	39	4475
2026-01-27 15:05:27.37	213.01	30.41	-34.7	-36.3	18.3	0.00e+00	0	61	0	1673527296	39	4458
2026-01-27 15:05:28.38	213.25	30.55	-34.6	-36.2	18.4	0.00e+00	0	62	0	1679818752	39	4392
2026-01-27 15:05:29.39	213.49	30.70	-34.6	-36.2	18.3	0.00e+00	0	62	0	1687158784	39	4408
2026-01-27 15:05:30.40	213.73	30.84	-34.5	-36.1	18.5	0.00e+00	0	61	0	1694498816	39	4359
2026-01-27 15:05:31.41	213.98	30.99	-34.6	-36.1	18.4	0.00e+00	0	62	0	1701838848	39	4385
2026-01-27 15:05:32.42	214.22	31.14	-34.6	-36.1	18.5	0.00e+00	0	61	0	1709178880	39	4376
2026-01-27 15:05:33.43	214.47	31.28	-34.6	-36.2	18.4	0.00e+00	0	62	0	1716518912	39	4395
2026-01-27 15:05:34.44	214.72	31.43	-34.6	-36.1	18.5	0.00e+00	0	62	0	1723858944	39	4387
2026-01-27 15:05:35.45	214.98	31.58	-34.6	-36.1	18.5	0.00e+00	0	62	0	1731198976	39	4371
2026-01-27 15:05:36.46	215.23	31.72	-34.5	-36.0	18.6	0.00e+00	0	62	0	1738539008	39	4334
2026-01-27 15:05:37.47	215.49	31.87	-34.5	-36.0	18.6	0.00e+00	0	62	0	1745879040	39	4340
2026-01-27 15:05:38.48	215.75	32.02	-34.4	-35.9	18.6	0.00e+00	0	62	0	1753219072	39	4282
2026-01-27 15:05:39.49	216.02	32.17	-34.2	-35.7	18.9	0.00e+00	0	62	0	1760559104	39	4160
2026-01-27 15:05:40.50	216.28	32.31	-34.3	-35.8	18.7	0.00e+00	0	62	0	1767899136	39	4239
2026-01-27 15:05:41.51	216.55	32.46	-34.2	-35.8	18.8	0.00e+00	0	62	0	1775239168	39	4209
2026-01-27 15:05:42.52	216.82	32.61	-34.2	-35.8	18.8	0.00e+00	0	62	0	1782579200	39	4215
2026-01-27 15:05:43.54	217.10	32.76	-34.3	-35.9	18.7	0.00e+00	0	62	0	1789919232	39	4256
2026-01-27 15:05:44.55	217.37	32.90	-34.4	-36.0	18.6	0.00e+00	0	62	0	1797259264	39	4311
2026-01-27 15:05:45.56	217.65	33.05	-34.5	-36.1	18.5	0.00e+00	0	62	0	1804599296	39	4364
2026-01-27 15:05:46.57	217.93	33.20	-34.4	-35.9	18.7	0.00e+00	0	62	0	1811939328	39	4289
2026-01-27 15:05:47.58	218.21	33.35	-34.4	-36.0	18.6	0.00e+00	0	62	0	1819279360	39	4295
2026-01-27 15:05:48.59	218.50	33.49	-34.4	-36.0	18.5	0.00e+00	0	62	0	1825570816	39	4325
2026-01-27 15:05:49.60	218.78	33.64	-34.4	-36.0	18.6	0.00e+00	0	62	0	1832910848	39	4309
2026-01-27 15:05:50.61	219.07	33.79	-34.5	-36.1	18.5	0.00e+00	0	62	0	1841299456	39	4368
2026-01-27 15:05:51.62	219.37	33.94	-34.5	-36.1	18.5	0.00e+00	0	62	0	1847590912	39	4368
2026-01-27 15:05:52.63	219.66	34.08	-34.5	-36.2	18.4	0.00e+00	0	62	0	1854930944	39	4395
2026-01-27 15:05:53.64	219.96	34.23	-34.5	-36.1	18.4	0.00e+00	0	62	0	1862270976	39	4375
2026-01-27 15:05:54.65	220.26	34.38	-34.3	-35.9	18.5	0.00e+00	0	62	0	1869611008	39	4290
2026-01-27 15:05:55.66	220.56	34.52	-34.2	-35.8	18.6	0.00e+00	0	62	0	1876951040	39	4240
2026-01-27 15:05:56.68	220.87	34.67	-34.2	-35.8	18.7	0.00e+00	0	62	0	1884291072	39	4199
2026-01-27 15:05:57.69	221.18	34.82	-34.3	-35.9	18.6	0.00e+00	0	62	0	1891631104	39	4249
2026-01-27 15:05:58.70	221.49	34.96	-34.3	-35.9	18.6	0.00e+00	0	62	0	1898971136	39	4266
2026-01-27 15:05:59.71	221.81	35.11	-34.2	-35.8	18.7	0.00e+00	0	62	0	1906311168	39	4224
2026-01-27 15:06:00.72	222.12	35.25	-34.4	-35.9	18.5	0.00e+00	0	62	0	1913651200	39	4291
2026-01-27 15:06:01.73	222.44	35.40	-34.3	-35.9	18.7	0.00e+00	0	62	0	1920991232	39	4256
2026-01-27 15:06:02.74	222.77	35.54	-34.3	-35.9	18.7	0.00e+00	0	62	0	1928331264	39	4252
2026-01-27 15:06:03.75	223.09	35.69	-34.5	-36.0	18.6	0.00e+00	0	62	0	1935671296	39	4324
2026-01-27 15:06:04.76	223.42	35.83	-34.4	-35.9	18.7	0.00e+00	0	62	0	1943011328	39	4255
2026-01-27 15:06:05.78	223.75	35.98	-34.4	-35.9	18.8	0.00e+00	0	62	0	1950351360	39	4249
2026-01-27 15:06:06.79	224.09	36.12	-34.3	-35.8	18.9	0.00e+00	0	62	0	1957691392	39	4206
2026-01-27 15:06:07.80	224.42	36.26	-34.3	-35.8	18.9	0.00e+00	0	62	0	1965031424	39	4201
2026-01-27 15:06:08.81	224.76	36.40	-34.3	-35.8	18.8	0.00e+00	0	62	0	1972371456	39	4232
2026-01-27 15:06:09.82	225.11	36.55	-34.3	-35.8	18.8	0.00e+00	0	62	0	1979711488	39	4225
2026-01-27 15:06:10.83	225.45	36.69	-34.3	-35.8	18.8	0.00e+00	0	62	0	1987051520	39	4223
2026-01-27 15:06:11.84	225.80	36.83	-34.3	-35.9	18.7	0.00e+00	0	62	0	1994391552	39	4264
2026-01-27 15:06:12.85	226.15	36.97	-34.3	-35.8	18.7	0.00e+00	0	62	0	2001731584	39	4238
2026-01-27 15:06:13.86	226.51	37.11	-34.4	-35.9	18.6	0.00e+00	0	62	0	2009071616	39	4273
2026-01-27 15:06:14.87	226.86	37.25	-34.3	-35.8	18.7	0.00e+00	0	62	0	2016411648	39	4219
2026-01-27 15:06:15.88	227.22	37.38	-34.4	-36.0	18.6	0.00e+00	0	62	0	2022703104	39	4302
2026-01-27 15:06:16.89	227.59	37.52	-34.5	-36.1	18.5	0.00e+00	0	62	0	2030043136	39	4350
2026-01-27 15:06:17.91	227.96	37.66	-34.6	-36.2	18.4	0.00e+00	0	62	0	2038431744	39	4413
2026-01-27 15:06:18.91	228.32	37.79	-34.8	-36.4	18.1	0.00e+00	0	62	0	2044723200	39	4531
2026-01-27 15:06:19.92	228.70	37.93	-34.8	-36.5	18.1	0.00e+00	0	62	0	2052063232	39	4554
2026-01-27 15:06:20.93	229.07	38.06	-34.8	-36.4	18.2	0.00e+00	0	62	0	2059403264	39	4535
2026-01-27 15:06:21.95	229.46	38.20	-34.6	-36.2	18.3	0.00e+00	0	62	0	2066743296	39	4425
2026-01-27 15:06:22.95	229.83	38.33	-34.6	-36.3	18.3	0.00e+00	0	62	0	2074083328	39	4446
2026-01-27 15:06:23.96	230.22	38.46	-34.6	-36.2	18.4	0.00e+00	0	62	0	2081423360	39	4415
2026-01-27 15:06:24.97	230.61	38.59	-34.6	-36.2	18.4	0.00e+00	0	62	0	2088763392	39	4413
2026-01-27 15:06:25.99	231.00	38.72	-34.6	-36.1	18.5	0.00e+00	0	62	0	2096103424	39	4391
2026-01-27 15:06:27.00	231.40	38.85	-34.5	-36.0	18.6	0.00e+00	0	62	0	2103443456	39	4313
2026-01-27 15:06:28.01	231.79	38.98	-34.3	-35.7	18.9	0.00e+00	0	62	0	2110783488	39	4192
2026-01-27 15:06:29.02	232.19	39.11	-34.3	-35.7	18.9	0.00e+00	0	62	0	2118123520	39	4176
2026-01-27 15:06:30.03	232.60	39.23	-34.3	-35.8	18.9	0.00e+00	0	62	0	2125463552	39	4209
2026-01-27 15:06:31.04	233.00	39.36	-34.4	-36.0	18.6	0.00e+00	0	62	0	2132803584	39	4315
2026-01-27 15:06:32.05	233.41	39.48	-34.7	-36.3	18.4	0.00e+00	0	62	0	2140143616	39	4471
2026-01-27 15:06:33.06	233.82	39.60	-34.7	-36.3	18.3	0.00e+00	0	62	0	2147483648	39	4476
2026-01-27 15:06:34.07	234.24	39.73	-34.7	-36.3	18.3	0.00e+00	0	62	0	2154823680	39	4475
2026-01-27 15:06:35.08	234.66	39.85	-34.7	-36.3	18.3	0.00e+00	0	62	0	2162163712	39	4485
2026-01-27 15:06:36.09	235.08	39.96	-34.6	-36.3	18.3	0.00e+00	0	62	0	2168455168	39	4463
2026-01-27 15:06:37.10	235.51	40.08	-34.5	-36.2	18.4	0.00e+00	0	62	0	2176843776	39	4401
2026-01-27 15:06:38.11	235.93	40.20	-34.6	-36.2	18.4	0.00e+00	0	62	0	2184183808	39	4406
2026-01-27 15:06:39.12	236.36	40.31	-34.7	-36.3	18.3	0.00e+00	0	62	0	2190475264	39	4465
2026-01-27 15:06:40.13	236.80	40.43	-34.9	-36.5	18.2	0.00e+00	0	62	0	2197815296	39	4568
2026-01-27 15:06:41.14	237.23	40.54	-34.9	-36.5	18.1	0.00e+00	0	62	0	2205155328	39	4585
2026-01-27 15:06:42.15	237.67	40.65	-35.0	-36.6	18.0	0.00e+00	0	62	0	2212495360	39	4644
2026-01-27 15:06:43.16	238.12	40.76	-34.9	-36.4	18.2	0.00e+00	0	62	0	2219835392	39	4533
2026-01-27 15:06:44.17	238.56	40.86	-34.8	-36.4	18.3	0.00e+00	0	62	0	2227175424	39	4496
2026-01-27 15:06:45.18	239.01	40.97	-34.5	-36.1	18.6	0.00e+00	0	62	0	2234515456	39	4352
2026-01-27 15:06:46.19	239.46	41.07	-34.4	-36.0	18.7	0.00e+00	0	62	0	2241855488	39	4308
2026-01-27 15:06:47.20	239.92	41.17	-34.4	-35.9	18.8	0.00e+00	0	62	0	2249195520	39	4263
2026-01-27 15:06:48.21	240.37	41.27	-34.2	-35.7	19.0	0.00e+00	0	62	0	2256535552	39	4186
2026-01-27 15:06:49.22	240.83	41.37	-34.3	-35.8	18.9	0.00e+00	0	62	0	2263875584	39	4213
2026-01-27 15:06:50.23	241.29	41.47	-34.6	-35.6	19.5	0.00e+00	0	62	0	2271215616	39	4135
2026-01-27 15:06:51.24	241.76	41.56	-34.7	-35.8	19.3	0.00e+00	0	62	0	2278555648	39	4218
2026-01-27 15:06:52.25	242.23	41.66	-34.8	-35.9	19.3	0.00e+00	0	62	0	2285895680	39	4254
2026-01-27 15:06:53.26	242.70	41.75	-34.8	-35.8	19.3	0.00e+00	0	62	0	2293235712	39	4242
2026-01-27 15:06:54.27	243.17	41.84	-34.8	-35.8	19.3	0.00e+00	0	62	0	2300575744	39	4231
2026-01-27 15:06:55.28	243.65	41.93	-34.9	-35.9	19.2	0.00e+00	0	62	0	2307915776	39	4285
2026-01-27 15:06:56.29	244.13	42.01	-35.1	-36.2	18.9	0.00e+00	0	62	0	2315255808	39	4423
2026-01-27 15:06:57.31	244.61	42.10	-35.1	-36.2	19.0	0.00e+00	0	62	0	2322595840	39	4393
2026-01-27 15:06:58.32	245.09	42.18	-35.1	-36.2	19.0	0.00e+00	0	62	0	2329935872	39	4409
2026-01-27 15:06:59.33	245.58	42.26	-35.1	-36.2	18.9	0.00e+00	0	62	0	2337275904	40	4152
2026-01-27 15:07:00.34	246.07	42.33	-35.1	-36.2	18.9	0.00e+00	0	62	0	2343567360	40	4161
2026-01-27 15:07:01.35	246.56	42.41	-35.0	-36.1	19.0	0.00e+00	0	62	0	2351955968	40	4133
2026-01-27 15:07:02.36	247.05	42.48	-35.0	-36.1	19.0	0.00e+00	0	62	0	2359296000	40	4110
2026-01-27 15:07:03.37	247.54	42.55	-35.0	-36.1	19.0	0.00e+00	0	62	0	2365587456	40	4128
2026-01-27 15:07:04.38	248.04	42.62	-35.0	-36.0	19.1	0.00e+00	0	62	0	2372927488	40	4095
2026-01-27 15:07:05.39	248.54	42.69	-34.9	-36.0	19.1	0.00e+00	0	62	0	2380267520	40	4088
2026-01-27 15:07:06.40	249.04	42.75	-34.8	-35.9	19.2	0.00e+00	0	62	0	2387607552	40	4019
2026-01-27 15:07:07.41	249.54	42.81	-34.8	-35.9	19.2	0.00e+00	0	62	0	2394947584	40	4040
2026-01-27 15:07:08.43	250.05	42.87	-35.0	-36.2	18.9	0.00e+00	0	62	0	2402287616	40	4147
2026-01-27 15:07:09.44	250.56	42.93	-35.2	-36.4	18.7	0.00e+00	0	62	0	2409627648	40	4245
2026-01-27 15:07:10.45	251.07	42.98	-35.4	-36.6	18.5	0.00e+00	0	62	0	2416967680	40	4341
2026-01-27 15:07:11.46	251.58	43.04	-35.5	-36.6	18.5	0.00e+00	0	62	0	2424307712	40	4370
2026-01-27 15:07:12.47	252.09	43.09	-35.5	-36.6	18.5	0.00e+00	0	62	0	2431647744	40	4376
2026-01-27 15:07:13.48	252.60	43.13	-35.4	-36.6	18.5	0.00e+00	0	62	0	2438987776	40	4362
2026-01-27 15:07:14.49	253.11	43.18	-35.4	-36.6	18.5	0.00e+00	0	62	0	2446327808	40	4354
2026-01-27 15:07:15.50	253.63	43.22	-35.5	-36.7	18.4	0.00e+00	0	62	0	2453667840	40	4393
2026-01-27 15:07:16.51	254.15	43.26	-35.6	-36.7	18.4	0.00e+00	0	62	0	2461007872	40	4434
2026-01-27 15:07:17.52	254.67	43.30	-35.6	-36.8	18.3	0.00e+00	0	62	0	2468347904	40	4468
2026-01-27 15:07:18.53	255.18	43.33	-35.6	-36.7	18.4	0.00e+00	0	62	0	2475687936	40	4438
2026-01-27 15:07:19.54	255.70	43.37	-35.5	-36.7	18.4	0.00e+00	0	62	0	2483027968	40	4415
2026-01-27 15:07:20.55	256.23	43.40	-35.4	-36.5	18.6	0.00e+00	0	62	0	2490368000	40	4310
2026-01-27 15:07:21.56	256.75	43.42	-35.3	-36.5	18.7	0.00e+00	0	62	0	2497708032	40	4296
2026-01-27 15:07:22.57	257.27	43.45	-35.4	-36.5	18.6	0.00e+00	0	62	0	2505048064	40	4326
2026-01-27 15:07:23.58	257.80	43.47	-35.4	-36.5	18.6	0.00e+00	0	62	0	2511339520	40	4328
2026-01-27 15:07:24.60	258.32	43.49	-35.5	-36.6	18.5	0.00e+00	0	62	0	2518679552	40	4369
2026-01-27 15:07:25.61	258.85	43.51	-35.2	-36.3	18.8	0.00e+00	0	62	0	2527068160	40	4237
2026-01-27 15:07:26.62	259.38	43.52	-35.2	-36.3	18.8	0.00e+00	0	62	0	2533359616	40	4230
2026-01-27 15:07:27.63	259.90	43.53	-35.2	-36.3	18.8	0.00e+00	0	62	0	2540699648	40	4205
2026-01-27 15:07:28.64	260.43	43.54	-35.1	-36.2	18.9	0.00e+00	0	62	0	2548039680	40	4180
2026-01-27 15:07:29.65	260.95	43.55	-35.0	-36.1	18.9	0.00e+00	0	62	0	2555379712	40	4132
2026-01-27 15:07:30.66	261.48	43.55	-35.1	-36.3	18.8	0.00e+00	0	62	0	2562719744	40	4203
2026-01-27 15:07:31.67	262.01	43.55	-35.1	-36.3	18.8	0.00e+00	0	62	0	2570059776	40	4196
2026-01-27 15:07:32.69	262.54	43.55	-35.2	-36.4	18.7	0.00e+00	0	62	0	2577399808	40	4258
2026-01-27 15:07:33.70	263.07	43.55	-35.4	-36.5	18.6	0.00e+00	0	62	0	2584739840	40	4329
2026-01-27 15:07:34.71	263.59	43.54	-35.5	-36.6	18.5	0.00e+00	0	62	0	2592079872	40	4372
2026-01-27 15:07:35.72	264.12	43.53	-35.5	-36.6	18.4	0.00e+00	0	62	0	2599419904	40	4388
2026-01-27 15:07:36.73	264.64	43.52	-35.4	-36.5	18.5	0.00e+00	0	62	0	2606759936	40	4338
2026-01-27 15:07:37.74	265.17	43.50	-35.4	-36.6	18.5	0.00e+00	0	62	0	2614099968	40	4366
2026-01-27 15:07:38.75	265.69	43.49	-35.3	-36.5	18.6	0.00e+00	0	62	0	2621440000	40	4300
2026-01-27 15:07:39.76	266.22	43.47	-35.4	-36.5	18.6	0.00e+00	0	62	0	2628780032	40	4339
2026-01-27 15:07:40.77	266.74	43.44	-35.4	-36.5	18.6	0.00e+00	0	62	0	2636120064	40	4328
2026-01-27 15:07:41.78	267.26	43.42	-35.4	-36.6	18.6	0.00e+00	0	62	0	2643460096	40	4343
2026-01-27 15:07:42.79	267.79	43.39	-35.3	-36.4	18.7	0.00e+00	0	62	0	2650800128	40	4284
2026-01-27 15:07:43.80	268.31	43.36	-35.1	-36.2	18.9	0.00e+00	0	62	0	2658140160	40	4182
2026-01-27 15:07:44.82	268.83	43.33	-35.0	-36.1	19.0	0.00e+00	0	62	0	2665480192	40	4102
2026-01-27 15:07:45.83	269.35	43.29	-35.0	-36.1	18.9	0.00e+00	0	62	0	2672820224	40	4114
2026-01-27 15:07:46.83	269.86	43.25	-35.0	-36.1	19.0	0.00e+00	0	62	0	2680160256	40	4116
2026-01-27 15:07:47.84	270.38	43.21	-35.2	-36.3	18.8	0.00e+00	0	62	0	2686451712	40	4211
2026-01-27 15:07:48.85	270.89	43.17	-35.3	-36.4	18.7	0.00e+00	0	62	0	2694840320	40	4274
2026-01-27 15:07:49.87	271.41	43.12	-35.4	-36.6	18.5	0.00e+00	0	62	0	2702180352	40	4346
2026-01-27 15:07:50.88	271.92	43.08	-35.5	-36.7	18.4	0.00e+00	0	62	0	2708471808	40	4403
2026-01-27 15:07:51.89	272.43	43.03	-35.4	-36.6	18.5	0.00e+00	0	62	0	2715811840	40	4365
2026-01-27 15:07:52.90	272.94	42.97	-35.4	-36.5	18.6	0.00e+00	0	62	0	2724200448	40	4320
2026-01-27 15:07:53.91	273.45	42.92	-35.4	-36.5	18.5	0.00e+00	0	62	0	2730491904	40	4335
2026-01-27 15:07:54.92	273.96	42.86	-35.3	-36.5	18.6	0.00e+00	0	62	0	2737831936	40	4309
2026-01-27 15:07:55.93	274.46	42.80	-35.2	-36.3	18.8	0.00e+00	0	62	0	2745171968	40	4221
2026-01-27 15:07:56.94	274.96	42.74	-35.2	-36.3	18.8	0.00e+00	0	62	0	2752512000	40	4229
2026-01-27 15:07:57.95	275.46	42.67	-35.3	-36.4	18.7	0.00e+00	0	62	0	2759852032	40	4277
2026-01-27 15:07:58.96	275.96	42.61	-35.4	-36.6	18.5	0.00e+00	0	62	0	2767192064	40	4368
2026-01-27 15:07:59.97	276.45	42.54	-35.5	-36.6	18.5	0.00e+00	0	62	0	2774532096	40	4382
2026-01-27 15:08:00.98	276.95	42.47	-35.4	-36.6	18.6	0.00e+00	0	62	0	2781872128	40	4344
2026-01-27 15:08:01.99	277.44	42.39	-35.2	-36.4	18.7	0.00e+00	0	62	0	2789212160	40	4258
2026-01-27 15:08:03.00	277.93	42.32	-35.3	-36.4	18.7	0.00e+00	0	62	0	2796552192	40	4276
2026-01-27 15:08:04.02	278.42	42.24	-35.3	-36.4	18.7	0.00e+00	0	62	0	2803892224	40	4260
2026-01-27 15:08:05.02	278.90	42.16	-35.2	-36.4	18.7	0.00e+00	0	62	0	2811232256	40	4244
2026-01-27 15:08:06.03	279.38	42.08	-35.3	-36.4	18.7	0.00e+00	0	62	0	2818572288	40	4283
2026-01-27 15:08:07.05	279.86	41.99	-35.3	-36.4	18.7	0.00e+00	0	62	0	2825912320	40	4272
2026-01-27 15:08:08.05	280.33	41.91	-35.1	-36.3	18.8	0.00e+00	0	62	0	2833252352	40	4194
2026-01-27 15:08:09.07	280.81	41.82	-35.0	-36.1	19.0	0.00e+00	0	62	0	2840592384	40	4118
2026-01-27 15:08:10.08	281.29	41.73	-35.0	-36.1	19.0	0.00e+00	0	62	0	2847932416	40	4104
2026-01-27 15:08:11.09	281.75	41.64	-34.9	-36.0	19.0	0.00e+00	0	62	0	2854223872	40	4090
2026-01-27 15:08:12.09	282.22	41.55	-35.0	-36.1	19.0	0.00e+00	0	62	0	2861563904	40	4130
2026-01-27 15:08:13.10	282.68	41.45	-35.3	-36.4	18.7	0.00e+00	0	62	0	2869952512	40	4272
2026-01-27 15:08:14.11	283.14	41.36	-35.5	-36.6	18.5	0.00e+00	0	62	0	2876243968	40	4377
2026-01-27 15:08:15.12	283.60	41.26	-35.4	-36.5	18.6	0.00e+00	0	62	0	2883584000	40	4328
2026-01-27 15:08:16.13	284.05	41.16	-35.1	-36.2	18.9	0.00e+00	0	62	0	2890924032	40	4185
2026-01-27 15:08:17.14	284.51	41.05	-34.7	-35.8	19.2	0.00e+00	0	62	0	2898264064	40	3968
2026-01-27 15:08:18.15	284.96	40.95	-34.7	-35.7	19.3	0.00e+00	0	62	0	2905604096	40	3952
2026-01-27 15:08:19.16	285.40	40.85	-34.7	-35.7	19.3	0.00e+00	0	62	0	2912944128	40	3954
2026-01-27 15:08:20.17	285.85	40.74	-34.7	-35.8	19.2	0.00e+00	0	62	0	2920284160	40	3987
2026-01-27 15:08:21.18	286.29	40.63	-34.7	-35.8	19.2	0.00e+00	0	62	0	2927624192	40	3978
2026-01-27 15:08:22.19	286.73	40.52	-34.8	-35.9	19.1	0.00e+00	0	62	0	2934964224	40	4024
2026-01-27 15:08:23.21	287.17	40.41	-34.8	-35.9	19.2	0.00e+00	0	62	0	2942304256	40	4005
2026-01-27 15:08:24.21	287.59	40.30	-34.8	-35.9	19.2	0.00e+00	0	62	0	2949644288	40	4041
2026-01-27 15:08:25.22	288.02	40.18	-34.9	-36.0	19.1	0.00e+00	0	62	0	2956984320	40	4066
2026-01-27 15:08:26.23	288.45	40.07	-34.8	-35.9	19.2	0.00e+00	0	62	0	2964324352	40	4030
2026-01-27 15:08:27.24	288.87	39.95	-34.9	-36.0	19.0	0.00e+00	0	62	0	2971664384	40	4082
2026-01-27 15:08:28.25	289.29	39.83	-34.9	-36.0	19.0	0.00e+00	0	62	0	2979004416	40	4086
2026-01-27 15:08:29.26	289.71	39.71	-35.1	-36.2	18.8	0.00e+00	0	62	0	2986344448	40	4172
2026-01-27 15:08:30.27	290.12	39.59	-35.1	-36.3	18.8	0.00e+00	0	62	0	2993684480	40	4201
2026-01-27 15:08:31.28	290.53	39.47	-35.3	-36.4	18.7	0.00e+00	0	62	0	3001024512	40	4263
2026-01-27 15:08:32.29	290.94	39.34	-35.2	-36.3	18.8	0.00e+00	0	62	0	3007315968	40	4205
2026-01-27 15:08:33.30	291.35	39.22	-35.1	-36.3	18.8	0.00e+00	0	62	0	3015704576	40	4200
2026-01-27 15:08:34.31	291.75	39.09	-35.1	-36.2	18.9	0.00e+00	0	62	0	3023044608	40	4181
2026-01-27 15:08:35.32	292.15	38.97	-35.2	-36.3	18.8	0.00e+00	0	62	0	3029336064	40	4217
2026-01-27 15:08:36.33	292.54	38.84	-35.1	-36.3	18.7	0.00e+00	0	62	0	3036676096	40	4203
2026-01-27 15:08:37.34	292.94	38.71	-35.1	-36.2	18.8	0.00e+00	0	62	0	3044016128	40	4186
2026-01-27 15:08:38.35	293.32	38.58	-35.1	-36.2	18.8	0.00e+00	0	62	0	3051356160	40	4164
2026-01-27 15:08:39.37	293.71	38.45	-34.8	-35.9	19.1	0.00e+00	0	62	0	3058696192	40	4027
2026-01-27 15:08:40.38	294.10	38.32	-34.8	-35.9	19.1	0.00e+00	0	62	0	3066036224	40	4024
2026-01-27 15:08:41.39	294.48	38.19	-34.7	-35.8	19.3	0.00e+00	0	62	0	3073376256	40	3963
2026-01-27 15:08:42.40	294.86	38.05	-34.7	-35.8	19.3	0.00e+00	0	62	0	3080716288	40	3963
2026-01-27 15:08:43.41	295.23	37.92	-34.7	-35.7	19.3	0.00e+00	0	62	0	3088056320	40	3952
2026-01-27 15:08:44.41	295.60	37.79	-34.8	-35.8	19.2	0.00e+00	0	62	0	3095396352	40	3993
2026-01-27 15:08:45.42	295.97	37.65	-34.8	-35.9	19.2	0.00e+00	0	62	0	3102736384	40	4019
2026-01-27 15:08:46.43	296.33	37.51	-34.8	-35.9	19.2	0.00e+00	0	62	0	3110076416	40	4005
2026-01-27 15:08:47.44	296.69	37.38	-34.8	-35.8	19.2	0.00e+00	0	62	0	3117416448	40	3998
2026-01-27 15:08:48.45	297.05	37.24	-34.8	-35.8	19.2	0.00e+00	0	62	0	3124756480	40	4000
2026-01-27 15:08:49.46	297.41	37.10	-34.7	-35.7	19.3	0.00e+00	0	62	0	3132096512	40	3949
2026-01-27 15:08:50.47	297.76	36.96	-34.7	-35.7	19.3	0.00e+00	0	62	0	3139436544	40	3958
2026-01-27 15:08:51.48	298.11	36.82	-34.7	-35.8	19.3	0.00e+00	0	62	0	3146776576	40	3979
2026-01-27 15:08:52.49	298.46	36.68	-34.8	-35.9	19.2	0.00e+00	0	62	0	3153068032	40	4016
2026-01-27 15:08:53.50	298.80	36.54	-34.8	-35.9	19.2	0.00e+00	0	62	0	3161456640	40	4021
2026-01-27 15:08:54.52	299.15	36.40	-34.7	-35.7	19.3	0.00e+00	0	62	0	3168796672	40	3957
2026-01-27 15:08:55.52	299.48	36.26	-34.6	-35.6	19.4	0.00e+00	0	62	0	3175088128	40	3904
2026-01-27 15:08:56.54	299.82	36.12	-34.6	-35.6	19.5	0.00e+00	0	62	0	3182428160	39	4118
2026-01-27 15:08:57.55	300.15	35.97	-34.6	-35.7	19.4	0.00e+00	0	62	0	3189768192	39	4156
2026-01-27 15:08:58.56	300.48	35.83	-34.7	-35.8	19.3	0.00e+00	0	62	0	3197108224	39	4195
2026-01-27 15:08:59.57	300.81	35.69	-34.8	-35.8	19.3	0.00e+00	0	62	0	3204448256	39	4239
2026-01-27 15:09:00.58	301.13	35.54	-34.9	-36.0	19.1	0.00e+00	0	62	0	3211788288	39	4299
2026-01-27 15:09:01.59	301.45	35.40	-35.0	-36.1	19.0	0.00e+00	0	62	0	3219128320	39	4355
2026-01-27 15:09:02.60	301.77	35.26	-35.0	-36.1	19.0	0.00e+00	0	62	0	3226468352	39	4349
2026-01-27 15:09:03.61	302.09	35.11	-35.0	-36.1	19.0	0.00e+00	0	62	0	3233808384	39	4369
2026-01-27 15:09:04.62	302.40	34.97	-35.1	-36.2	18.6	0.00e+00	0	62	0	3241148416	39	4435
2026-01-27 15:09:05.63	302.71	34.82	-35.0	-36.1	19.1	0.00e+00	0	62	0	3248488448	39	4344
2026-01-27 15:09:06.64	303.02	34.68	-34.9	-36.0	19.1	0.00e+00	0	62	0	3255828480	39	4323
2026-01-27 15:09:07.65	303.32	34.53	-34.9	-36.0	19.1	0.00e+00	0	62	0	3263168512	39	4314
2026-01-27 15:09:08.66	303.63	34.39	-34.7	-35.8	19.3	0.00e+00	0	62	0	3270508544	39	4200
2026-01-27 15:09:09.67	303.92	34.24	-34.7	-35.8	19.3	0.00e+00	0	62	0	3277848576	39	4195
2026-01-27 15:09:10.68	304.22	34.09	-34.6	-35.7	19.4	0.00e+00	0	62	0	3285188608	39	4146
2026-01-27 15:09:11.69	304.52	33.95	-34.6	-35.7	19.4	0.00e+00	0	62	0	3292528640	39	4153
2026-01-27 15:09:12.70	304.81	33.80	-34.7	-35.8	19.3	0.00e+00	0	62	0	3299868672	39	4203
2026-01-27 15:09:13.71	305.10	33.66	-34.8	-35.8	19.2	0.00e+00	0	62	0	3307208704	39	4237
2026-01-27 15:09:14.72	305.38	33.51	-34.9	-35.9	19.1	0.00e+00	0	62	0	3314548736	39	4288
2026-01-27 15:09:15.73	305.67	33.36	-35.1	-36.2	18.9	0.00e+00	0	62	0	3321888768	39	4412
2026-01-27 15:09:16.74	305.95	33.22	-35.2	-36.3	18.8	0.00e+00	0	62	0	3328180224	39	4459
2026-01-27 15:09:17.75	306.23	33.07	-35.3	-36.4	18.6	0.00e+00	0	62	0	3336568832	40	4269
2026-01-27 15:09:18.76	306.50	32.92	-35.3	-36.4	18.6	0.00e+00	0	62	0	3343908864	40	4266
2026-01-27 15:09:19.77	306.78	32.78	-35.3	-36.4	18.6	0.00e+00	0	62	0	3350200320	40	4269
2026-01-27 15:09:20.78	307.05	32.63	-35.3	-36.4	18.6	0.00e+00	0	62	0	3357540352	40	4270
2026-01-27 15:09:21.79	307.32	32.48	-35.2	-36.3	18.7	0.00e+00	0	62	0	3364880384	40	4212
2026-01-27 15:09:22.80	307.58	32.34	-35.2	-36.3	18.7	0.00e+00	0	62	0	3372220416	40	4239
2026-01-27 15:09:23.81	307.85	32.19	-35.1	-36.2	18.8	0.00e+00	0	62	0	3379560448	40	4171
2026-01-27 15:09:24.82	308.11	32.04	-34.9	-36.0	19.0	0.00e+00	0	62	0	3386900480	40	4066
2026-01-27 15:09:25.83	308.37	31.90	-34.7	-35.8	19.1	0.00e+00	0	62	0	3394240512	40	3977
2026-01-27 15:09:26.84	308.63	31.75	-34.7	-35.8	19.2	0.00e+00	0	62	0	3401580544	40	3996
2026-01-27 15:09:27.85	308.88	31.60	-34.8	-35.9	19.1	0.00e+00	0	62	0	3408920576	40	4007
2026-01-27 15:09:28.86	309.14	31.46	-34.9	-36.0	19.0	0.00e+00	0	62	0	3416260608	40	4074
2026-01-27 15:09:29.87	309.39	31.31	-34.9	-36.0	18.9	0.00e+00	0	62	0	3423600640	40	4090
2026-01-27 15:09:30.88	309.64	31.17	-35.1	-36.2	18.7	0.00e+00	0	62	0	3430940672	40	4179
2026-01-27 15:09:31.89	309.88	31.02	-35.1	-36.2	18.8	0.00e+00	0	62	0	3438280704	40	4163
2026-01-27 15:09:32.90	310.13	30.88	-35.1	-36.2	18.8	0.00e+00	0	62	0	3445620736	40	4178
2026-01-27 15:09:33.92	310.37	30.73	-35.1	-36.2	18.7	0.00e+00	0	62	0	3452960768	40	4187
2026-01-27 15:09:34.93	310.61	30.58	-35.1	-36.2	18.7	0.00e+00	0	62	0	3460300800	40	4177
2026-01-27 15:09:35.94	310.85	30.44	-35.0	-36.1	18.8	0.00e+00	0	62	0	3467640832	40	4108
2026-01-27 15:09:36.95	311.08	30.30	-34.9	-36.0	18.9	0.00e+00	0	62	0	3473932288	40	4088
2026-01-27 15:09:37.96	311.32	30.15	-35.0	-36.1	18.8	0.00e+00	0	62	0	3482320896	40	4141
2026-01-27 15:09:38.97	311.55	30.01	-35.0	-36.2	18.8	0.00e+00	0	62	0	3489660928	40	4147
2026-01-27 15:09:39.98	311.78	29.86	-35.1	-36.2	18.8	0.00e+00	0	62	0	3495952384	40	4161
2026-01-27 15:09:40.99	312.01	29.72	-35.0	-36.2	18.8	0.00e+00	0	62	0	3503292416	40	4149
2026-01-27 15:09:42.00	312.23	29.58	-35.1	-36.2	18.8	0.00e+00	0	62	0	3511681024	40	4174
2026-01-27 15:09:43.01	312.45	29.43	-35.1	-36.2	18.8	0.00e+00	0	62	0	3517972480	40	4161
2026-01-27 15:09:44.02	312.68	29.29	-35.0	-36.2	18.8	0.00e+00	0	62	0	3525312512	40	4147
2026-01-27 15:09:45.03	312.90	29.15	-35.0	-36.1	18.8	0.00e+00	0	62	0	3532652544	40	4138
2026-01-27 15:09:46.05	313.12	29.00	-35.0	-36.1	18.8	0.00e+00	0	62	0	3539992576	40	4144
2026-01-27 15:09:47.06	313.33	28.86	-35.1	-36.2	18.7	0.00e+00	0	62	0	3547332608	40	4180
2026-01-27 15:09:48.07	313.55	28.72	-35.1	-36.2	18.7	0.00e+00	0	62	0	3554672640	40	4172
2026-01-27 15:09:49.08	313.76	28.58	-35.1	-36.2	18.7	0.00e+00	0	62	0	3562012672	40	4180
2026-01-27 15:09:50.09	313.97	28.44	-35.1	-36.2	18.7	0.00e+00	0	62	0	3569352704	40	4172
2026-01-27 15:09:51.10	314.18	28.30	-35.1	-36.2	18.7	0.00e+00	0	62	0	3576692736	40	4172
2026-01-27 15:09:52.11	314.38	28.16	-35.1	-36.2	18.7	0.00e+00	0	62	0	3584032768	40	4164
2026-01-27 15:09:53.12	314.59	28.02	-35.1	-36.3	18.7	0.00e+00	0	62	0	3591372800	40	4197
2026-01-27 15:09:54.13	314.79	27.88	-35.2	-36.3	18.6	0.00e+00	0	62	0	3598712832	40	4234
2026-01-27 15:09:55.13	314.99	27.74	-35.2	-36.4	18.5	0.00e+00	0	62	0	3606052864	40	4260
2026-01-27 15:09:56.14	315.19	27.60	-35.3	-36.4	18.5	0.00e+00	0	62	0	3613392896	40	4271
2026-01-27 15:09:57.15	315.39	27.46	-35.3	-36.5	18.5	0.00e+00	0	62	0	3620732928	40	4299
2026-01-27 15:09:58.16	315.59	27.32	-35.3	-36.5	18.5	0.00e+00	0	62	0	3628072960	40	4308
2026-01-27 15:09:59.17	315.78	27.18	-35.4	-36.5	18.4	0.00e+00	0	62	0	3635412992	40	4338
2026-01-27 15:10:00.19	315.98	27.05	-35.3	-36.5	18.4	0.00e+00	0	62	0	3642753024	40	4305
2026-01-27 15:10:01.19	316.17	26.91	-35.3	-36.4	18.5	0.00e+00	0	62	0	3649044480	40	4276
2026-01-27 15:10:02.21	316.36	26.77	-35.2	-36.4	18.5	0.00e+00	0	62	0	3657433088	40	4257
2026-01-27 15:10:03.22	316.55	26.63	-35.3	-36.4	18.5	0.00e+00	0	62	0	3664773120	40	4270
2026-01-27 15:10:04.23	316.73	26.50	-35.3	-36.5	18.4	0.00e+00	0	62	0	3671064576	40	4308
2026-01-27 15:10:05.24	316.92	26.36	-35.0	-36.2	18.7	0.00e+00	0	62	0	3678404608	40	4152
2026-01-27 15:10:06.25	317.10	26.23	-34.9	-36.0	18.9	0.00e+00	0	62	0	3685744640	40	4095
2026-01-27 15:10:07.26	317.28	26.09	-34.9	-36.0	18.9	0.00e+00	0	62	0	3693084672	40	4074
2026-01-27 15:10:08.27	317.47	25.96	-34.8	-35.9	18.8	0.00e+00	0	62	0	3700424704	40	4023
2026-01-27 15:10:09.28	317.64	25.82	-34.9	-36.0	18.9	0.00e+00	0	62	0	3707764736	40	4076
2026-01-27 15:10:10.29	317.82	25.69	-34.8	-35.9	19.0	0.00e+00	0	62	0	3715104768	40	4036
2026-01-27 15:10:11.30	318.00	25.56	-34.9	-36.0	18.9	0.00e+00	0	62	0	3722444800	40	4082
2026-01-27 15:10:12.31	318.17	25.42	-35.0	-36.1	18.8	0.00e+00	0	62	0	3729784832	40	4141
2026-01-27 15:10:13.32	318.35	25.29	-35.1	-36.2	18.6	0.00e+00	0	62	0	3737124864	40	4168
2026-01-27 15:10:14.32	318.52	25.16	-35.2	-36.4	18.5	0.00e+00	0	62	0	3744464896	40	4256
2026-01-27 15:10:15.33	318.69	25.03	-35.3	-36.4	18.4	0.00e+00	0	62	0	3751804928	40	4268
2026-01-27 15:10:16.35	318.86	24.89	-35.3	-36.5	18.4	0.00e+00	0	62	0	3759144960	40	4314
2026-01-27 15:10:17.36	319.03	24.76	-35.5	-36.6	18.2	0.00e+00	0	62	0	3766484992	40	4387
2026-01-27 15:10:18.37	319.19	24.63	-35.4	-36.6	18.3	0.00e+00	0	62	0	3773825024	40	4349
2026-01-27 15:10:19.38	319.36	24.50	-35.4	-36.6	18.3	0.00e+00	0	62	0	3781165056	40	4361
2026-01-27 15:10:20.39	319.52	24.37	-35.5	-36.7	18.2	0.00e+00	0	62	0	3788505088	40	4412
2026-01-27 15:10:21.40	319.68	24.24	-35.4	-36.6	18.3	0.00e+00	0	62	0	3794796544	40	4358
2026-01-27 15:10:22.41	319.85	24.11	-35.4	-36.5	18.3	0.00e+00	0	62	0	3803185152	40	4328
2026-01-27 15:10:23.42	320.01	23.99	-35.3	-36.4	18.4	0.00e+00	0	62	0	3810525184	40	4280
2026-01-27 15:10:24.43	320.16	23.86	-35.2	-36.3	18.5	0.00e+00	0	62	0	3816816640	40	4241
2026-01-27 15:10:25.44	320.32	23.73	-35.2	-36.3	18.6	0.00e+00	0	62	0	3824156672	40	4212
2026-01-27 15:10:26.45	320.48	23.60	-35.2	-36.4	18.5	0.00e+00	0	62	0	3832545280	40	4244
2026-01-27 15:10:27.46	320.63	23.48	-35.1	-36.3	18.6	0.00e+00	0	62	0	3838836736	40	4205
2026-01-27 15:10:28.47	320.79	23.35	-35.1	-36.3	18.6	0.00e+00	0	62	0	3846176768	40	4213
2026-01-27 15:10:29.48	320.94	23.22	-35.3	-36.4	18.3	0.00e+00	0	62	0	3853516800	40	4280
2026-01-27 15:10:30.49	321.09	23.10	-35.3	-36.5	18.4	0.00e+00	0	62	0	3860856832	40	4313
2026-01-27 15:10:31.50	321.24	22.97	-35.3	-36.4	18.4	0.00e+00	0	62	0	3868196864	40	4291
2026-01-27 15:10:32.50	321.39	22.85	-35.4	-36.5	18.3	0.00e+00	0	62	0	3875536896	40	4340
2026-01-27 15:10:33.52	321.54	22.72	-35.4	-36.6	18.2	0.00e+00	0	62	0	3882876928	40	4360
2026-01-27 15:10:34.53	321.68	22.60	-35.5	-36.7	18.1	0.00e+00	0	62	0	3890216960	40	4433
2026-01-27 15:10:35.54	321.83	22.48	-35.6	-36.8	18.0	0.00e+00	0	62	0	3897556992	40	4451
2026-01-27 15:10:36.54	321.97	22.35	-35.6	-36.8	18.0	0.00e+00	0	62	0	3904897024	40	4449
2026-01-27 15:10:37.55	322.12	22.23	-35.6	-36.8	18.0	0.00e+00	0	62	0	3912237056	40	4483
2026-01-27 15:10:38.56	322.26	22.11	-35.7	-36.9	17.8	0.00e+00	0	62	0	3919577088	40	4535
2026-01-27 15:10:39.57	322.40	21.99	-35.8	-37.0	17.8	0.00e+00	0	62	0	3926917120	41	4323
2026-01-27 15:10:40.58	322.54	21.86	-35.7	-36.9	17.9	0.00e+00	0	62	0	3934257152	41	4269
2026-01-27 15:10:41.59	322.68	21.74	-35.6	-36.8	17.9	0.00e+00	0	62	0	3941597184	41	4242
2026-01-27 15:10:42.60	322.82	21.62	-35.6	-36.8	17.9	0.00e+00	0	62	0	3948937216	41	4241
2026-01-27 15:10:43.62	322.95	21.50	-35.5	-36.7	18.0	0.00e+00	0	62	0	3956277248	41	4189
2026-01-27 15:10:44.63	323.09	21.38	-35.5	-36.7	18.1	0.00e+00	0	62	0	3963617280	41	4147
2026-01-27 15:10:45.64	323.23	21.26	-35.4	-36.6	18.1	0.00e+00	0	62	0	3969908736	41	4125
2026-01-27 15:10:46.64	323.36	21.14	-35.5	-36.6	18.1	0.00e+00	0	62	0	3977248768	41	4134
2026-01-27 15:10:47.65	323.49	21.03	-35.5	-36.7	18.1	0.00e+00	0	62	0	3985637376	41	4150
2026-01-27 15:10:48.66	323.62	20.91	-35.6	-36.8	18.0	0.00e+00	0	62	0	3991928832	41	4204
2026-01-27 15:10:49.67	323.75	20.79	-35.6	-36.8	17.9	0.00e+00	0	62	0	3999268864	41	4229
2026-01-27 15:10:50.68	323.88	20.67	-35.7	-37.0	17.8	0.00e+00	0	62	0	4006608896	41	4296
2026-01-27 15:10:51.69	324.01	20.56	-35.7	-36.9	17.8	0.00e+00	0	62	0	4013948928	41	4290
2026-01-27 15:10:52.70	324.14	20.44	-35.8	-37.0	17.7	0.00e+00	0	62	0	4021288960	41	4339
2026-01-27 15:10:53.72	324.27	20.32	-35.9	-37.2	17.6	0.00e+00	0	62	0	4028628992	41	4401
2026-01-27 15:10:54.73	324.40	20.21	-36.0	-37.3	17.5	0.00e+00	0	62	0	4035969024	41	4442
2026-01-27 15:10:55.74	324.52	20.09	-36.0	-37.2	17.5	0.00e+00	0	62	0	4043309056	41	4426
2026-01-27 15:10:56.75	324.65	19.98	-36.1	-37.3	17.4	0.00e+00	0	62	0	4050649088	41	4486
2026-01-27 15:10:57.76	324.77	19.86	-36.1	-37.4	17.4	0.00e+00	0	62	0	4057989120	41	4509
2026-01-27 15:10:58.77	324.89	19.75	-36.0	-37.3	17.3	0.00e+00	0	62	0	4065329152	41	4467
2026-01-27 15:10:59.78	325.01	19.63	-36.1	-37.4	17.4	0.00e+00	0	62	0	4072669184	41	4499
2026-01-27 15:11:00.78	325.13	19.52	-36.2	-37.4	17.3	0.00e+00	0	62	0	4080009216	41	4544
2026-01-27 15:11:01.79	325.25	19.41	-36.1	-37.4	17.3	0.00e+00	0	62	0	4087349248	41	4513
2026-01-27 15:11:02.80	325.37	19.30	-36.0	-37.3	17.4	0.00e+00	0	62	0	4094689280	41	4477
2026-01-27 15:11:03.81	325.49	19.18	-36.1	-37.3	17.4	0.00e+00	0	62	0	4102029312	41	4491
2026-01-27 15:11:04.82	325.61	19.07	-36.1	-37.4	17.3	0.00e+00	0	62	0	4109369344	41	4501
2026-01-27 15:11:05.83	325.73	18.96	-36.1	-37.4	17.4	0.00e+00	0	62	0	4115660800	41	4504
2026-01-27 15:11:06.84	325.84	18.85	-36.1	-37.4	17.3	0.00e+00	0	62	0	4123000832	41	4515
2026-01-27 15:11:07.85	325.96	18.74	-36.1	-37.4	17.3	0.00e+00	0	62	0	4131389440	41	4504
2026-01-27 15:11:08.86	326.07	18.63	-36.2	-37.5	17.2	0.00e+00	0	62	0	4137680896	41	4587
2026-01-27 15:11:09.87	326.18	18.52	-36.2	-37.4	17.3	0.00e+00	0	62	0	4145020928	42	4287
2026-01-27 15:11:10.88	326.30	18.41	-36.2	-37.5	17.2	0.00e+00	0	62	0	4152360960	42	4302
2026-01-27 15:11:11.89	326.41	18.30	-36.2	-37.5	17.2	0.00e+00	0	62	0	4159700992	42	4334
2026-01-27 15:11:12.90	326.52	18.19	-36.3	-37.6	17.1	0.00e+00	0	62	0	4167041024	42	4349
2026-01-27 15:11:13.91	326.63	18.08	-36.2	-37.5	17.1	0.00e+00	0	62	0	4174381056	42	4340
2026-01-27 15:11:14.93	326.74	17.97	-36.3	-37.6	17.1	0.00e+00	0	62	0	4181721088	42	4357
2026-01-27 15:11:15.93	326.85	17.87	-36.4	-37.7	17.0	0.00e+00	0	62	0	4189061120	42	4418
2026-01-27 15:11:16.95	326.96	17.76	-36.4	-37.7	16.9	0.00e+00	0	62	0	4196401152	42	4434
2026-01-27 15:11:17.96	327.07	17.65	-36.4	-37.7	17.0	0.00e+00	0	62	0	4203741184	42	4416
2026-01-27 15:11:18.97	327.17	17.55	-36.4	-37.7	17.0	0.00e+00	0	62	0	4211081216	42	4407
2026-01-27 15:11:19.98	327.28	17.44	-36.4	-37.8	16.8	0.00e+00	0	62	0	4218421248	42	4458
2026-01-27 15:11:20.99	327.38	17.34	-36.5	-37.9	16.8	0.00e+00	0	62	0	4225761280	42	4494
2026-01-27 15:11:22.00	327.49	17.23	-36.5	-37.8	16.7	0.00e+00	0	62	0	4233101312	42	4482
2026-01-27 15:11:23.01	327.59	17.13	-36.4	-37.8	16.8	0.00e+00	0	62	0	4240441344	42	4457
2026-01-27 15:11:24.02	327.70	17.02	-36.5	-37.9	16.7	0.00e+00	0	62	0	4247781376	42	4516
2026-01-27 15:11:25.03	327.80	16.92	-36.6	-37.9	16.7	0.00e+00	0	62	0	4255121408	42	4525
2026-01-27 15:11:26.04	327.90	16.81	-36.5	-37.8	16.7	0.00e+00	0	62	0	4262461440	42	4492
2026-01-27 15:11:27.05	328.00	16.71	-36.6	-38.0	16.6	0.00e+00	0	62	0	4269801472	42	4559
2026-01-27 15:11:28.06	328.10	16.61	-36.7	-38.1	16.5	0.00e+00	0	62	0	4277141504	43	4361
2026-01-27 15:11:29.07	328.20	16.50	-36.6	-38.0	16.6	0.00e+00	0	62	0	4284481536	43	4300
2026-01-27 15:11:30.08	328.30	16.40	-36.6	-38.0	16.6	0.00e+00	0	62	0	4290772992	43	4308
2026-01-27 15:11:31.09	328.40	16.30	-36.7	-38.1	16.4	0.00e+00	0	62	0	4298113024	43	4390
2026-01-27 15:11:32.10	328.50	16.20	-36.7	-38.1	16.4	0.00e+00	0	62	0	4306501632	43	4388
2026-01-27 15:11:33.11	328.59	16.10	-36.7	-38.1	16.5	0.00e+00	0	62	0	4312793088	43	4359
2026-01-27 15:11:34.12	328.69	16.00	-36.6	-38.0	16.5	0.00e+00	0	62	0	4320133120	43	4325
2026-01-27 15:11:35.13	328.79	15.89	-36.7	-38.1	16.5	0.00e+00	0	62	0	4327473152	43	4344
2026-01-27 15:11:36.14	328.88	15.79	-36.7	-38.0	16.5	0.00e+00	0	62	0	4334813184	43	4335
2026-01-27 15:11:37.15	328.98	15.69	-36.7	-38.1	16.4	0.00e+00	0	62	0	4342153216	43	4365
2026-01-27 15:11:38.16	329.07	15.59	-36.7	-38.1	16.4	0.00e+00	0	62	0	4349493248	43	4375
2026-01-27 15:11:39.17	329.17	15.50	-36.8	-38.2	16.3	0.00e+00	0	62	0	4356833280	43	4422
2026-01-27 15:11:40.18	329.26	15.40	-36.8	-38.2	16.3	0.00e+00	0	62	0	4364173312	43	4411
2026-01-27 15:11:41.19	329.35	15.30	-36.8	-38.3	16.3	0.00e+00	0	62	0	4371513344	43	4445
2026-01-27 15:11:42.20	329.44	15.20	-36.8	-38.2	16.3	0.00e+00	0	62	0	4378853376	43	4437
2026-01-27 15:11:43.22	329.54	15.10	-36.9	-38.3	16.2	0.00e+00	0	62	0	4386193408	43	4479
2026-01-27 15:11:44.22	329.63	15.00	-36.9	-38.3	16.2	0.00e+00	0	62	0	4393533440	43	4478
2026-01-27 15:11:45.24	329.72	14.91	-36.9	-38.3	16.2	0.00e+00	0	62	0	4400873472	43	4492
2026-01-27 15:11:46.24	329.80	14.81	-36.9	-38.3	16.2	0.00e+00	0	62	0	4408213504	43	4488
2026-01-27 15:11:47.25	329.89	14.71	-37.1	-38.5	15.9	0.00e+00	0	62	0	4415553536	43	4584
2026-01-27 15:11:48.26	329.98	14.62	-37.0	-38.5	16.0	0.00e+00	0	62	0	4422893568	43	4569
2026-01-27 15:11:49.28	330.07	14.52	-37.1	-38.6	15.8	0.00e+00	0	62	0	4430233600	43	4639
2026-01-27 15:11:50.28	330.16	14.43	-37.1	-38.6	15.8	0.00e+00	0	62	0	4436525056	43	4650
2026-01-27 15:11:51.29	330.24	14.33	-37.3	-38.8	15.8	0.00e+00	0	62	0	4443865088	44	4490
2026-01-27 15:11:52.30	330.33	14.24	-37.5	-39.0	15.6	0.00e+00	0	62	0	4452253696	44	4572
2026-01-27 15:11:53.31	330.42	14.14	-37.5	-39.0	15.6	0.00e+00	0	62	0	4458545152	44	4562
2026-01-27 15:11:54.33	330.50	14.05	-37.5	-39.0	15.6	0.00e+00	0	62	0	4465885184	44	4576
2026-01-27 15:11:55.34	330.59	13.95	-37.6	-39.2	15.4	0.00e+00	0	62	0	4473225216	44	4661
2026-01-27 15:11:56.35	330.67	13.86	-37.6	-39.1	15.5	0.00e+00	0	62	0	4480565248	44	4634
2026-01-27 15:11:57.36	330.76	13.76	-37.7	-39.3	15.3	0.00e+00	0	62	0	4487905280	44	4714
2026-01-27 15:11:58.37	330.84	13.67	-37.6	-39.1	15.4	0.00e+00	0	62	0	4495245312	44	4646
2026-01-27 15:11:59.38	330.92	13.58	-37.6	-39.2	15.4	0.00e+00	0	62	0	4502585344	44	4671
2026-01-27 15:12:00.39	331.00	13.49	-37.7	-39.3	15.3	0.00e+00	0	62	0	4509925376	45	4451
2026-01-27 15:12:01.40	331.09	13.39	-37.7	-39.3	15.3	0.00e+00	0	62	0	4517265408	45	4461
2026-01-27 15:12:02.41	331.17	13.30	-37.6	-39.2	15.3	0.00e+00	0	62	0	4524605440	45	4406
2026-01-27 15:12:03.42	331.25	13.21	-37.6	-39.2	15.3	0.00e+00	0	62	0	4531945472	45	4425
