passes_logs/2026/01/27/R2.0S_Moscow/R2.0S_Moscow__20260127_231115_NOAA_20_JPSS-1_rec.log

#Pass ID: 20260127_231115_NOAA 20 (JPSS-1)
#Satellite: NOAA 20 (JPSS-1)
#Configuration: NOAA 20
#almurnet v.1.7.20251203
#Start time: 2026-01-27 23:11:16

#Version: 2.2.20231116
#Station: R2.0S_Moscow
#Location: 37.707566 lon 55.798166 lat
#TLE: 1 43013U 17073A   26027.45344144  .00000161  00000+0  97205-4 0  9999
#TLE: 2 43013  98.7647 328.2621 0000962  21.7793 338.3424 14.19541101424503

#Time	Az	El	Level	Level2	SNR	BER	BlckErr	Temp	State	Recorded	gain1	gain2
2026-01-27 23:11:16.24	18.54	2.05	-42.4	-56.8	3.8	1.49e+00	0	53	0	0	56	18873
2026-01-27 23:11:17.24	18.57	2.11	-42.2	-56.6	3.8	1.49e+00	0	54	104	0	55	19579
2026-01-27 23:11:18.25	18.59	2.17	-42.2	-56.6	3.8	1.49e+00	0	54	104	0	55	19614
2026-01-27 23:11:19.26	18.62	2.24	-42.2	-56.6	3.8	1.49e+00	0	54	104	0	55	19604
2026-01-27 23:11:20.27	18.65	2.30	-42.2	-56.7	3.8	1.49e+00	0	54	104	0	55	19618
2026-01-27 23:11:21.28	18.67	2.37	-42.2	-56.7	3.8	1.49e+00	0	54	104	0	55	19631
2026-01-27 23:11:22.29	18.70	2.43	-42.2	-56.6	3.8	1.49e+00	0	54	104	0	55	19575
2026-01-27 23:11:23.30	18.73	2.49	-42.2	-56.7	3.8	1.49e+00	0	54	104	0	55	19671
2026-01-27 23:11:24.31	18.75	2.56	-42.2	-56.6	3.8	1.49e+00	0	54	104	0	55	19611
2026-01-27 23:11:25.33	18.78	2.62	-42.2	-56.6	3.8	1.49e+00	0	54	104	0	55	19595
2026-01-27 23:11:26.34	18.81	2.69	-42.2	-56.6	3.8	1.49e+00	0	54	104	0	55	19555
2026-01-27 23:11:27.35	18.83	2.75	-42.2	-56.6	3.8	1.49e+00	0	54	104	0	55	19572
2026-01-27 23:11:28.36	18.86	2.82	-42.2	-56.6	3.8	1.49e+00	0	55	104	0	55	19561
2026-01-27 23:11:29.37	18.89	2.88	-42.2	-56.6	3.8	1.49e+00	0	54	104	0	55	19587
2026-01-27 23:11:30.38	18.91	2.95	-42.2	-56.6	3.8	1.49e+00	0	54	104	0	55	19543
2026-01-27 23:11:31.39	18.94	3.01	-42.2	-56.6	3.8	1.49e+00	0	54	104	0	55	19589
2026-01-27 23:11:32.40	18.97	3.08	-42.2	-56.6	3.8	1.49e+00	0	55	104	0	55	19577
2026-01-27 23:11:33.41	19.00	3.14	-42.2	-56.6	3.8	1.49e+00	0	55	104	0	55	19564
2026-01-27 23:11:34.42	19.02	3.21	-42.2	-56.7	3.8	1.49e+00	0	55	104	0	55	19619
2026-01-27 23:11:35.43	19.05	3.28	-42.2	-56.6	3.8	1.49e+00	0	55	104	0	55	19562
2026-01-27 23:11:36.44	19.08	3.34	-42.2	-56.7	3.8	1.49e+00	0	55	104	0	55	19616
2026-01-27 23:11:37.45	19.11	3.41	-42.2	-56.6	3.8	1.49e+00	0	55	104	0	55	19566
2026-01-27 23:11:38.46	19.14	3.48	-42.2	-56.6	3.8	1.49e+00	0	55	104	0	55	19575
2026-01-27 23:11:39.47	19.16	3.54	-42.2	-56.6	3.8	1.49e+00	0	55	104	0	55	19598
2026-01-27 23:11:40.48	19.19	3.61	-42.2	-56.7	3.8	1.49e+00	0	55	104	0	55	19627
2026-01-27 23:11:41.50	19.22	3.68	-42.2	-56.6	3.8	1.49e+00	0	55	104	0	55	19582
2026-01-27 23:11:42.51	19.25	3.74	-42.2	-56.6	3.8	1.49e+00	0	55	104	0	55	19594
2026-01-27 23:11:43.52	19.28	3.81	-42.2	-56.6	3.8	1.49e+00	0	55	104	0	55	19573
2026-01-27 23:11:44.53	19.31	3.88	-42.2	-56.6	3.8	1.49e+00	0	55	104	0	55	19582
2026-01-27 23:11:45.54	19.34	3.95	-42.2	-56.6	3.8	1.49e+00	0	56	104	0	55	19553
2026-01-27 23:11:46.55	19.36	4.01	-42.2	-56.7	3.8	1.49e+00	0	56	104	0	55	19621
2026-01-27 23:11:47.56	19.39	4.08	-42.2	-56.6	3.8	1.49e+00	0	56	104	0	55	19564
2026-01-27 23:11:48.57	19.42	4.15	-42.2	-56.6	3.8	1.49e+00	0	56	104	0	55	19559
2026-01-27 23:11:49.58	19.45	4.22	-42.2	-56.6	3.8	1.49e+00	0	56	104	0	55	19548
2026-01-27 23:11:50.59	19.48	4.29	-42.2	-56.6	3.8	1.49e+00	0	56	104	0	55	19525
2026-01-27 23:11:51.60	19.51	4.35	-42.2	-56.6	3.8	1.49e+00	0	56	104	0	55	19567
2026-01-27 23:11:52.61	19.54	4.42	-42.2	-56.6	3.8	1.49e+00	0	56	104	0	55	19584
2026-01-27 23:11:53.62	19.57	4.49	-42.2	-56.6	3.8	1.49e+00	0	56	104	0	55	19563
2026-01-27 23:11:54.63	19.60	4.56	-42.2	-56.6	3.8	1.49e+00	0	56	104	0	55	19516
2026-01-27 23:11:55.64	19.63	4.63	-42.2	-56.6	3.8	1.49e+00	0	56	104	0	55	19577
2026-01-27 23:11:56.65	19.66	4.70	-42.2	-56.6	3.8	1.49e+00	0	56	104	0	55	19518
2026-01-27 23:11:57.66	19.69	4.77	-42.2	-56.6	3.8	1.49e+00	0	56	104	0	55	19610
2026-01-27 23:11:58.67	19.72	4.84	-42.2	-56.6	3.8	1.49e+00	0	56	104	0	55	19559
2026-01-27 23:11:59.68	19.75	4.91	-42.2	-56.6	3.8	1.49e+00	0	56	104	0	55	19535
2026-01-27 23:12:00.69	19.78	4.98	-42.2	-56.6	3.8	1.49e+00	0	56	104	0	55	19531
2026-01-27 23:12:01.70	19.81	5.05	-42.2	-56.6	3.8	1.49e+00	0	56	104	0	55	19581
2026-01-27 23:12:02.71	19.84	5.12	-42.2	-56.6	3.8	1.49e+00	0	56	104	0	55	19545
2026-01-27 23:12:03.72	19.87	5.19	-42.2	-56.6	3.8	1.49e+00	0	56	104	0	55	19569
2026-01-27 23:12:04.73	19.90	5.26	-42.2	-56.6	3.8	1.49e+00	0	57	104	0	55	19572
2026-01-27 23:12:05.74	19.94	5.33	-42.2	-56.6	3.8	1.49e+00	0	57	104	0	55	19588
2026-01-27 23:12:06.75	19.97	5.41	-42.2	-56.6	3.8	1.49e+00	0	56	104	0	55	19538
2026-01-27 23:12:07.76	20.00	5.48	-42.2	-56.6	3.8	1.49e+00	0	57	104	0	55	19579
2026-01-27 23:12:08.77	20.03	5.55	-42.2	-56.6	3.8	1.49e+00	0	57	104	0	55	19573
2026-01-27 23:12:09.78	20.06	5.62	-42.2	-56.6	3.8	1.49e+00	0	57	104	0	55	19517
2026-01-27 23:12:10.79	20.09	5.69	-42.2	-56.6	3.8	1.49e+00	0	57	104	0	55	19570
2026-01-27 23:12:11.81	20.13	5.77	-42.2	-56.6	3.8	1.49e+00	0	57	104	0	55	19567
2026-01-27 23:12:12.81	20.16	5.84	-42.1	-56.6	3.8	1.49e+00	0	57	104	0	55	19505
2026-01-27 23:12:13.82	20.19	5.91	-42.2	-56.6	3.8	1.49e+00	0	57	104	0	55	19555
2026-01-27 23:12:14.83	20.22	5.98	-42.1	-56.6	3.8	1.49e+00	0	57	104	0	55	19573
2026-01-27 23:12:15.85	20.26	6.06	-42.2	-56.6	3.8	1.49e+00	0	57	104	0	55	19564
2026-01-27 23:12:16.86	20.29	6.13	-42.2	-56.6	3.8	1.49e+00	0	57	104	0	55	19501
2026-01-27 23:12:17.87	20.32	6.20	-42.2	-56.6	3.8	1.49e+00	0	57	104	0	55	19526
2026-01-27 23:12:18.88	20.35	6.28	-42.2	-56.6	3.8	1.49e+00	0	57	104	0	55	19485
2026-01-27 23:12:19.89	20.39	6.35	-42.2	-56.6	3.8	1.49e+00	0	57	104	0	55	19528
2026-01-27 23:12:20.90	20.42	6.42	-42.2	-56.6	3.8	1.49e+00	0	57	104	0	55	19536
2026-01-27 23:12:21.91	20.45	6.50	-42.2	-56.6	3.8	1.49e+00	0	57	104	0	55	19482
2026-01-27 23:12:22.92	20.49	6.57	-42.1	-56.6	3.8	1.49e+00	0	57	104	0	55	19494
2026-01-27 23:12:23.93	20.52	6.65	-42.2	-56.6	3.8	1.49e+00	0	57	104	0	55	19523
2026-01-27 23:12:24.94	20.55	6.72	-42.1	-56.6	3.8	1.49e+00	0	57	104	0	55	19488
2026-01-27 23:12:25.95	20.59	6.80	-42.1	-56.6	3.8	1.49e+00	0	58	104	0	55	19489
2026-01-27 23:12:26.96	20.62	6.87	-42.2	-56.6	3.8	1.49e+00	0	58	104	0	55	19469
2026-01-27 23:12:27.97	20.66	6.95	-42.1	-56.5	3.8	1.49e+00	0	58	104	0	55	19384
2026-01-27 23:12:28.98	20.69	7.02	-42.1	-56.5	3.8	1.49e+00	0	58	104	0	55	19373
2026-01-27 23:12:29.99	20.73	7.10	-42.1	-56.5	3.8	1.49e+00	0	58	104	0	55	19310
2026-01-27 23:12:31.00	20.76	7.18	-42.1	-56.5	3.8	1.49e+00	0	58	104	0	55	19237
2026-01-27 23:12:32.01	20.80	7.25	-42.1	-56.4	3.8	1.49e+00	0	58	104	0	55	19047
2026-01-27 23:12:33.02	20.83	7.33	-42.1	-56.3	3.8	1.49e+00	0	58	104	0	55	18913
2026-01-27 23:12:34.03	20.87	7.41	-42.1	-56.1	3.8	1.49e+00	0	58	104	0	55	18362
2026-01-27 23:12:35.04	20.90	7.48	-42.1	-55.7	3.8	1.49e+00	0	58	104	0	55	17484
2026-01-27 23:12:36.05	20.94	7.56	-42.1	-54.9	3.8	1.49e+00	0	58	104	0	55	16022
2026-01-27 23:12:37.06	20.97	7.64	-42.0	-53.9	3.9	1.48e+00	0	58	104	0	55	14268
2026-01-27 23:12:38.07	21.01	7.72	-41.9	-52.6	4.3	1.37e+00	0	58	0	0	55	12350
2026-01-27 23:12:39.08	21.04	7.79	-41.7	-51.3	4.9	9.32e-01	0	58	0	1048576	55	10550
2026-01-27 23:12:40.09	21.08	7.87	-41.5	-49.9	5.7	5.47e-01	0	58	0	3145728	55	8995
2026-01-27 23:12:41.10	21.12	7.95	-41.3	-48.7	6.7	3.28e-01	0	58	0	5242880	54	8340
2026-01-27 23:12:42.11	21.15	8.03	-41.1	-47.7	7.6	1.31e-01	0	58	0	7340032	54	7418
2026-01-27 23:12:43.12	21.19	8.11	-41.8	-49.0	6.9	1.18e-01	0	58	0	8388608	54	8661
2026-01-27 23:12:44.13	21.23	8.19	-42.6	-51.3	5.2	2.51e-01	0	58	0	10485760	55	10651
2026-01-27 23:12:45.14	21.26	8.27	-41.0	-50.1	5.2	3.05e-01	0	58	0	12582912	53	10409
2026-01-27 23:12:46.15	21.30	8.35	-41.4	-53.0	3.9	1.30e+00	0	58	104	13631488	53	14409
2026-01-27 23:12:47.16	21.34	8.43	-41.4	-47.0	9.1	2.52e-01	0	58	0	13631488	53	7280
2026-01-27 23:12:48.18	21.38	8.51	-41.4	-47.2	9.0	2.46e-02	0	58	0	15728640	53	7383
2026-01-27 23:12:49.19	21.42	8.59	-41.4	-46.8	9.4	2.21e-02	0	58	0	17825792	53	7093
2026-01-27 23:12:50.20	21.45	8.67	-41.4	-46.6	9.8	1.30e-02	0	58	0	19922944	53	6904
2026-01-27 23:12:51.21	21.49	8.75	-41.4	-46.6	9.8	1.01e-02	0	59	0	22020096	53	6903
2026-01-27 23:12:52.22	21.53	8.83	-41.4	-46.6	9.8	8.71e-03	0	59	0	23068672	53	6913
2026-01-27 23:12:53.23	21.57	8.91	-41.4	-46.4	10.1	8.39e-03	0	58	0	25165824	53	6755
2026-01-27 23:12:54.24	21.61	8.99	-41.3	-46.3	10.2	7.14e-03	0	59	0	27262976	53	6674
2026-01-27 23:12:55.25	21.65	9.07	-41.4	-46.4	10.1	7.09e-03	0	59	0	29360128	53	6787
2026-01-27 23:12:56.26	21.69	9.16	-41.4	-46.3	10.3	5.81e-03	0	59	0	31457280	53	6674
2026-01-27 23:12:57.27	21.72	9.24	-41.4	-46.1	10.6	4.42e-03	0	59	0	32505856	53	6541
2026-01-27 23:12:58.28	21.76	9.32	-41.6	-46.5	10.3	4.82e-03	0	59	0	34603008	53	6826
2026-01-27 23:12:59.29	21.80	9.40	-41.3	-45.8	11.0	3.44e-03	0	58	0	36700160	53	6312
2026-01-27 23:13:00.30	21.84	9.49	-41.4	-46.0	10.9	1.96e-03	0	58	0	38797312	53	6459
2026-01-27 23:13:01.31	21.88	9.57	-41.4	-46.0	10.9	2.51e-03	0	59	0	40894464	53	6481
2026-01-27 23:13:02.32	21.92	9.66	-41.5	-46.0	10.9	1.81e-03	0	59	0	41943040	53	6483
2026-01-27 23:13:03.33	21.97	9.74	-41.4	-45.9	11.1	2.01e-03	0	59	0	44040192	53	6386
2026-01-27 23:13:04.34	22.01	9.82	-41.5	-46.0	11.1	1.33e-03	0	59	0	46137344	53	6441
2026-01-27 23:13:05.35	22.05	9.91	-41.4	-45.8	11.2	2.00e-03	0	59	0	48234496	53	6336
2026-01-27 23:13:06.36	22.09	9.99	-41.4	-45.7	11.3	9.65e-04	0	59	0	50331648	53	6239
2026-01-27 23:13:07.37	22.13	10.08	-41.4	-45.9	11.2	1.61e-03	0	59	0	52428800	53	6351
2026-01-27 23:13:08.38	22.17	10.16	-41.4	-45.7	11.4	1.03e-03	0	59	0	53477376	53	6269
2026-01-27 23:13:09.39	22.21	10.25	-41.5	-45.9	11.2	1.22e-03	0	59	0	55574528	53	6420
2026-01-27 23:13:10.40	22.26	10.34	-41.5	-45.9	11.3	1.15e-03	0	59	0	57671680	53	6375
2026-01-27 23:13:11.41	22.30	10.42	-41.5	-45.8	11.5	9.99e-04	0	59	0	59768832	53	6305
2026-01-27 23:13:12.42	22.34	10.51	-41.5	-45.7	11.5	1.06e-03	0	59	0	61865984	53	6265
2026-01-27 23:13:13.43	22.38	10.60	-41.5	-45.8	11.5	8.17e-04	0	59	0	62914560	53	6293
2026-01-27 23:13:14.44	22.43	10.68	-41.5	-45.8	11.5	6.23e-04	0	59	0	65011712	53	6285
2026-01-27 23:13:15.45	22.47	10.77	-41.4	-45.6	11.7	6.49e-04	0	59	0	67108864	53	6188
2026-01-27 23:13:16.46	22.51	10.86	-41.5	-45.7	11.6	6.89e-04	0	59	0	69206016	53	6233
2026-01-27 23:13:17.47	22.56	10.95	-41.5	-45.7	11.6	6.05e-04	0	59	0	71303168	53	6227
2026-01-27 23:13:18.48	22.60	11.03	-41.5	-45.6	11.8	4.59e-04	0	59	0	72351744	53	6162
2026-01-27 23:13:19.48	22.64	11.12	-41.4	-45.5	11.8	5.19e-04	0	59	0	74448896	53	6116
2026-01-27 23:13:20.49	22.69	11.21	-41.4	-45.5	11.9	4.61e-04	0	59	0	76546048	53	6114
2026-01-27 23:13:21.50	22.73	11.30	-41.4	-45.5	12.0	3.14e-04	0	59	0	78643200	53	6064
2026-01-27 23:13:22.51	22.78	11.39	-41.4	-45.4	12.1	3.41e-04	0	59	0	80740352	53	6026
2026-01-27 23:13:23.52	22.82	11.48	-41.4	-45.5	12.0	3.42e-04	0	59	0	81788928	53	6078
2026-01-27 23:13:24.53	22.87	11.57	-41.4	-45.3	12.1	2.57e-04	0	59	0	83886080	53	5981
2026-01-27 23:13:25.54	22.91	11.66	-41.4	-45.4	12.2	2.67e-04	0	59	0	85983232	53	5995
2026-01-27 23:13:26.55	22.96	11.75	-41.4	-45.3	12.2	2.53e-04	0	59	0	88080384	53	5966
2026-01-27 23:13:27.56	23.01	11.84	-41.4	-45.3	12.2	2.58e-04	0	59	0	90177536	53	5986
2026-01-27 23:13:28.57	23.05	11.93	-41.3	-45.2	12.3	1.98e-04	0	59	0	91226112	53	5917
2026-01-27 23:13:29.58	23.10	12.03	-41.3	-45.2	12.3	2.01e-04	0	59	0	93323264	53	5915
2026-01-27 23:13:30.59	23.15	12.12	-41.4	-45.2	12.3	2.10e-04	0	59	0	95420416	53	5916
2026-01-27 23:13:31.59	23.19	12.21	-41.4	-45.2	12.3	1.75e-04	0	59	0	97517568	53	5907
2026-01-27 23:13:32.60	23.24	12.30	-41.4	-45.3	12.3	1.62e-04	0	60	0	99614720	53	5958
2026-01-27 23:13:33.62	23.29	12.40	-41.3	-45.1	12.5	1.35e-04	0	60	0	100663296	53	5810
2026-01-27 23:13:34.63	23.34	12.49	-41.3	-45.0	12.6	1.08e-04	0	60	0	102760448	53	5777
2026-01-27 23:13:35.64	23.38	12.59	-41.3	-45.1	12.6	1.04e-04	0	60	0	104857600	53	5804
2026-01-27 23:13:36.65	23.43	12.68	-41.2	-45.0	12.7	1.13e-04	0	60	0	106954752	53	5727
2026-01-27 23:13:37.66	23.48	12.77	-41.3	-45.0	12.6	8.69e-05	0	60	0	109051904	53	5761
2026-01-27 23:13:38.67	23.53	12.87	-41.3	-45.0	12.7	1.04e-04	0	60	0	110100480	53	5729
2026-01-27 23:13:39.68	23.58	12.96	-41.2	-44.9	12.8	6.94e-05	0	60	0	112197632	53	5687
2026-01-27 23:13:40.69	23.63	13.06	-41.3	-45.0	12.7	7.93e-05	0	59	0	114294784	53	5742
2026-01-27 23:13:41.70	23.68	13.16	-41.3	-44.9	12.7	6.71e-05	0	60	0	116391936	53	5713
2026-01-27 23:13:42.71	23.73	13.25	-41.2	-44.9	12.8	6.25e-05	0	60	0	118489088	53	5658
2026-01-27 23:13:43.72	23.78	13.35	-41.2	-44.9	12.9	4.57e-05	0	60	0	120586240	53	5658
2026-01-27 23:13:44.73	23.83	13.45	-41.3	-44.9	12.8	6.63e-05	0	60	0	121634816	53	5700
2026-01-27 23:13:45.74	23.88	13.54	-41.3	-44.8	12.9	5.64e-05	0	60	0	123731968	53	5654
2026-01-27 23:13:46.75	23.94	13.64	-41.3	-44.9	12.9	5.11e-05	0	60	0	125829120	53	5661
2026-01-27 23:13:47.76	23.99	13.74	-41.3	-44.9	12.9	6.17e-05	0	60	0	127926272	53	5686
2026-01-27 23:13:48.77	24.04	13.84	-41.2	-44.8	13.0	5.18e-05	0	60	0	130023424	53	5640
2026-01-27 23:13:49.78	24.09	13.94	-41.2	-44.8	13.0	3.89e-05	0	60	0	131072000	53	5626
2026-01-27 23:13:50.79	24.14	14.04	-41.2	-44.8	13.0	3.73e-05	0	60	0	133169152	53	5606
2026-01-27 23:13:51.81	24.20	14.14	-41.2	-44.7	13.1	3.12e-05	0	60	0	135266304	53	5560
2026-01-27 23:13:52.82	24.25	14.24	-41.1	-44.6	13.2	2.44e-05	0	60	0	137363456	53	5492
2026-01-27 23:13:53.83	24.31	14.34	-41.1	-44.6	13.3	2.05e-05	0	60	0	139460608	53	5477
2026-01-27 23:13:54.84	24.36	14.44	-41.1	-44.6	13.2	2.82e-05	0	60	0	140509184	53	5480
2026-01-27 23:13:55.85	24.41	14.54	-41.1	-44.6	13.2	2.21e-05	0	60	0	142606336	53	5477
2026-01-27 23:13:56.86	24.47	14.64	-41.1	-44.5	13.3	2.28e-05	0	60	0	144703488	53	5463
2026-01-27 23:13:57.87	24.52	14.75	-41.1	-44.5	13.4	1.98e-05	0	60	0	146800640	53	5411
2026-01-27 23:13:58.87	24.58	14.85	-41.1	-44.4	13.4	1.75e-05	0	60	0	148897792	53	5396
2026-01-27 23:13:59.88	24.63	14.95	-41.1	-44.4	13.4	1.37e-05	0	60	0	149946368	53	5395
2026-01-27 23:14:00.89	24.69	15.05	-41.1	-44.4	13.4	8.30e-06	0	60	0	152043520	53	5396
2026-01-27 23:14:01.90	24.75	15.16	-41.1	-44.4	13.4	1.22e-05	0	60	0	154140672	53	5377
2026-01-27 23:14:02.91	24.80	15.26	-41.1	-44.4	13.4	1.44e-05	0	60	0	156237824	53	5398
2026-01-27 23:14:03.92	24.86	15.37	-41.1	-44.4	13.4	1.29e-05	0	60	0	158334976	53	5379
2026-01-27 23:14:04.93	24.92	15.47	-41.0	-44.3	13.5	1.90e-05	0	60	0	159383552	53	5335
2026-01-27 23:14:05.94	24.98	15.58	-41.0	-44.3	13.5	7.60e-06	0	60	0	161480704	53	5317
2026-01-27 23:14:06.95	25.04	15.68	-41.0	-44.3	13.5	8.30e-06	0	60	0	163577856	53	5334
2026-01-27 23:14:07.96	25.10	15.79	-41.0	-44.3	13.5	1.22e-05	0	60	0	165675008	53	5331
2026-01-27 23:14:08.97	25.15	15.90	-41.0	-44.2	13.6	6.80e-06	0	60	0	167772160	53	5277
2026-01-27 23:14:09.98	25.21	16.00	-41.0	-44.3	13.6	6.10e-06	0	60	0	168820736	53	5315
2026-01-27 23:14:10.99	25.27	16.11	-41.0	-44.2	13.6	1.37e-05	0	60	0	170917888	53	5265
2026-01-27 23:14:12.00	25.33	16.22	-41.0	-44.2	13.7	3.80e-06	0	60	0	173015040	53	5265
2026-01-27 23:14:13.00	25.39	16.33	-40.9	-44.1	13.9	6.80e-06	0	60	0	175112192	53	5171
2026-01-27 23:14:14.01	25.46	16.44	-41.0	-44.2	13.8	6.10e-06	0	60	0	177209344	53	5235
2026-01-27 23:14:15.02	25.52	16.55	-40.9	-44.1	13.8	8.30e-06	0	60	0	178257920	53	5201
2026-01-27 23:14:16.04	25.58	16.66	-40.9	-44.0	13.9	3.80e-06	0	60	0	180355072	53	5158
2026-01-27 23:14:17.05	25.64	16.77	-40.9	-44.1	13.9	2.20e-06	0	60	0	182452224	53	5188
2026-01-27 23:14:18.06	25.71	16.88	-40.9	-44.0	14.0	6.10e-06	0	60	0	184549376	53	5145
2026-01-27 23:14:19.07	25.77	16.99	-40.9	-44.0	14.0	5.30e-06	0	60	0	186646528	53	5131
2026-01-27 23:14:20.08	25.83	17.10	-40.9	-44.1	13.9	3.80e-06	0	60	0	188743680	53	5182
2026-01-27 23:14:21.09	25.90	17.22	-40.9	-43.9	14.1	2.20e-06	0	60	0	189792256	53	5091
2026-01-27 23:14:22.10	25.96	17.33	-40.9	-44.0	14.0	1.50e-06	0	60	0	191889408	53	5134
2026-01-27 23:14:23.11	26.03	17.44	-40.9	-43.9	14.1	1.50e-06	0	60	0	193986560	53	5082
2026-01-27 23:14:24.12	26.09	17.56	-40.9	-43.9	14.1	7.00e-07	0	60	0	196083712	53	5083
2026-01-27 23:14:25.13	26.16	17.67	-40.9	-43.9	14.1	4.50e-06	0	60	0	198180864	53	5092
2026-01-27 23:14:26.14	26.23	17.79	-40.8	-43.9	14.2	3.00e-06	0	60	0	199229440	53	5054
2026-01-27 23:14:27.14	26.29	17.90	-40.8	-43.8	14.3	7.00e-07	0	60	0	201326592	53	5006
2026-01-27 23:14:28.15	26.36	18.02	-40.8	-43.8	14.3	7.00e-07	0	60	0	203423744	53	4990
2026-01-27 23:14:29.16	26.43	18.13	-40.8	-43.7	14.3	1.50e-06	0	60	0	205520896	53	4980
2026-01-27 23:14:30.17	26.50	18.25	-40.8	-43.8	14.3	7.00e-07	0	60	0	207618048	53	4986
2026-01-27 23:14:31.18	26.57	18.37	-40.8	-43.8	14.2	7.00e-07	0	60	0	208666624	53	5039
2026-01-27 23:14:32.19	26.63	18.49	-40.8	-43.8	14.3	7.00e-07	0	61	0	210763776	53	5010
2026-01-27 23:14:33.20	26.70	18.61	-40.8	-43.8	14.4	7.00e-07	0	60	0	212860928	53	4987
2026-01-27 23:14:34.21	26.78	18.72	-40.6	-43.5	14.6	7.00e-07	0	60	0	214958080	53	4859
2026-01-27 23:14:35.22	26.85	18.84	-40.7	-43.6	14.5	1.50e-06	0	60	0	217055232	53	4912
2026-01-27 23:14:36.23	26.92	18.96	-40.6	-43.5	14.6	7.00e-07	0	61	0	218103808	53	4825
2026-01-27 23:14:37.24	26.99	19.09	-40.6	-43.5	14.6	0.00e+00	0	61	0	220200960	53	4834
2026-01-27 23:14:38.25	27.06	19.21	-40.7	-43.5	14.5	0.00e+00	0	61	0	222298112	53	4869
2026-01-27 23:14:39.27	27.14	19.33	-40.6	-43.5	14.6	0.00e+00	0	61	0	224395264	53	4831
2026-01-27 23:14:40.28	27.21	19.45	-40.6	-43.5	14.6	0.00e+00	0	60	0	226492416	53	4815
2026-01-27 23:14:41.28	27.28	19.57	-40.6	-43.5	14.6	0.00e+00	0	61	0	227540992	53	4819
2026-01-27 23:14:42.29	27.36	19.70	-40.6	-43.4	14.7	0.00e+00	0	61	0	229638144	53	4799
2026-01-27 23:14:43.31	27.43	19.82	-40.6	-43.4	14.7	0.00e+00	0	61	0	231735296	53	4814
2026-01-27 23:14:44.32	27.51	19.95	-40.7	-43.6	14.6	7.00e-07	0	61	0	233832448	53	4882
2026-01-27 23:14:45.33	27.59	20.07	-40.6	-43.5	14.7	0.00e+00	0	61	0	235929600	53	4843
2026-01-27 23:14:46.34	27.66	20.20	-40.7	-43.6	14.6	0.00e+00	0	61	0	236978176	53	4877
2026-01-27 23:14:47.35	27.74	20.33	-40.7	-43.6	14.5	0.00e+00	0	61	0	239075328	53	4901
2026-01-27 23:14:48.36	27.82	20.45	-40.6	-43.4	14.7	0.00e+00	0	61	0	241172480	53	4791
2026-01-27 23:14:49.37	27.90	20.58	-40.5	-43.3	14.9	0.00e+00	0	61	0	243269632	53	4706
2026-01-27 23:14:50.38	27.98	20.71	-40.5	-43.3	14.9	0.00e+00	0	61	0	245366784	52	4986
2026-01-27 23:14:51.39	28.06	20.84	-40.6	-43.4	14.8	7.00e-07	0	61	0	246415360	52	5043
2026-01-27 23:14:52.40	28.14	20.97	-40.5	-43.2	15.0	0.00e+00	0	61	0	248512512	52	4949
2026-01-27 23:14:53.41	28.22	21.10	-40.5	-43.2	15.0	0.00e+00	0	61	0	250609664	52	4954
2026-01-27 23:14:54.42	28.31	21.23	-40.5	-43.2	15.0	0.00e+00	0	61	0	252706816	52	4968
2026-01-27 23:14:55.43	28.39	21.36	-40.5	-43.2	15.0	0.00e+00	0	61	0	254803968	52	4961
2026-01-27 23:14:56.44	28.47	21.49	-40.3	-43.0	15.3	0.00e+00	0	61	0	256901120	52	4823
2026-01-27 23:14:57.45	28.56	21.63	-40.3	-42.9	15.3	0.00e+00	0	61	0	257949696	52	4799
2026-01-27 23:14:58.46	28.64	21.76	-40.3	-42.9	15.3	0.00e+00	0	61	0	260046848	52	4807
2026-01-27 23:14:59.47	28.73	21.89	-40.2	-42.8	15.4	0.00e+00	0	61	0	262144000	52	4751
2026-01-27 23:15:00.48	28.81	22.03	-40.3	-42.9	15.3	0.00e+00	0	61	0	264241152	52	4774
2026-01-27 23:15:01.49	28.90	22.16	-40.3	-43.0	15.3	0.00e+00	0	61	0	266338304	52	4819
2026-01-27 23:15:02.50	28.99	22.30	-40.3	-42.9	15.3	0.00e+00	0	61	0	267386880	52	4802
2026-01-27 23:15:03.51	29.08	22.44	-40.3	-42.9	15.3	0.00e+00	0	61	0	269484032	52	4802
2026-01-27 23:15:04.52	29.17	22.57	-40.2	-42.7	15.5	0.00e+00	0	61	0	271581184	52	4696
2026-01-27 23:15:05.53	29.26	22.71	-40.1	-42.6	15.6	0.00e+00	0	61	0	273678336	52	4646
2026-01-27 23:15:06.54	29.35	22.85	-40.1	-42.6	15.6	0.00e+00	0	61	0	275775488	52	4631
2026-01-27 23:15:07.55	29.44	22.99	-40.1	-42.6	15.7	0.00e+00	0	61	0	276824064	52	4606
2026-01-27 23:15:08.56	29.53	23.13	-40.1	-42.6	15.7	0.00e+00	0	61	0	278921216	52	4615
2026-01-27 23:15:09.57	29.62	23.27	-40.1	-42.5	15.7	0.00e+00	0	61	0	281018368	52	4593
2026-01-27 23:15:10.58	29.72	23.41	-40.1	-42.5	15.7	0.00e+00	0	61	0	283115520	52	4597
2026-01-27 23:15:11.59	29.81	23.55	-40.1	-42.6	15.7	0.00e+00	0	61	0	285212672	52	4612
2026-01-27 23:15:12.60	29.91	23.70	-40.1	-42.6	15.7	0.00e+00	0	61	0	286261248	52	4605
2026-01-27 23:15:13.61	30.00	23.84	-40.0	-42.5	15.8	0.00e+00	0	61	0	288358400	52	4578
2026-01-27 23:15:14.62	30.10	23.98	-40.1	-42.6	15.7	0.00e+00	0	61	0	290455552	52	4604
2026-01-27 23:15:15.63	30.20	24.13	-40.2	-42.7	15.6	0.00e+00	0	61	0	292552704	52	4654
2026-01-27 23:15:16.64	30.30	24.28	-40.2	-42.8	15.5	0.00e+00	0	61	0	294649856	52	4709
2026-01-27 23:15:17.65	30.40	24.42	-40.2	-42.8	15.6	0.00e+00	0	61	0	296747008	52	4706
2026-01-27 23:15:18.66	30.50	24.57	-40.3	-42.9	15.4	0.00e+00	0	61	0	297795584	52	4773
2026-01-27 23:15:19.67	30.60	24.72	-40.3	-42.9	15.4	0.00e+00	0	61	0	299892736	52	4806
2026-01-27 23:15:20.68	30.70	24.87	-40.3	-42.9	15.4	0.00e+00	0	61	0	301989888	52	4791
2026-01-27 23:15:21.70	30.81	25.02	-40.3	-42.9	15.4	0.00e+00	0	61	0	304087040	52	4810
2026-01-27 23:15:22.71	30.91	25.17	-40.4	-43.0	15.3	0.00e+00	0	61	0	306184192	52	4867
2026-01-27 23:15:23.72	31.02	25.32	-40.3	-42.9	15.4	0.00e+00	0	61	0	307232768	52	4795
2026-01-27 23:15:24.73	31.13	25.47	-40.4	-43.1	15.2	0.00e+00	0	61	0	309329920	52	4889
2026-01-27 23:15:25.74	31.23	25.62	-40.4	-43.1	15.2	0.00e+00	0	61	0	311427072	52	4886
2026-01-27 23:15:26.75	31.34	25.78	-40.5	-43.1	15.2	0.00e+00	0	61	0	313524224	52	4917
2026-01-27 23:15:27.76	31.45	25.93	-40.6	-43.3	15.1	0.00e+00	0	61	0	315621376	52	4990
2026-01-27 23:15:28.77	31.56	26.09	-40.6	-43.4	15.0	0.00e+00	0	61	0	316669952	52	5042
2026-01-27 23:15:29.78	31.67	26.24	-40.6	-43.4	15.0	0.00e+00	0	61	0	318767104	52	5055
2026-01-27 23:15:30.79	31.79	26.40	-40.7	-43.5	14.8	0.00e+00	0	61	0	320864256	52	5146
2026-01-27 23:15:31.80	31.90	26.56	-40.8	-43.6	14.7	0.00e+00	0	61	0	322961408	52	5199
2026-01-27 23:15:32.81	32.01	26.71	-40.8	-43.7	14.7	0.00e+00	0	61	0	325058560	52	5234
2026-01-27 23:15:33.82	32.13	26.87	-40.9	-43.8	14.5	1.50e-06	0	61	0	326107136	52	5302
2026-01-27 23:15:34.83	32.25	27.03	-41.0	-43.9	14.4	0.00e+00	0	61	0	328204288	52	5372
2026-01-27 23:15:35.84	32.37	27.19	-41.1	-44.1	14.3	0.00e+00	0	61	0	330301440	52	5482
2026-01-27 23:15:36.85	32.48	27.36	-41.2	-44.3	14.1	2.20e-06	0	61	0	332398592	52	5619
2026-01-27 23:15:37.86	32.61	27.52	-41.3	-44.4	13.9	3.80e-06	0	61	0	334495744	53	5390
2026-01-27 23:15:38.87	32.73	27.68	-41.3	-44.5	13.8	7.60e-06	0	61	0	335544320	53	5445
2026-01-27 23:15:39.88	32.85	27.84	-41.4	-44.7	13.6	9.90e-06	0	61	0	337641472	53	5536
2026-01-27 23:15:40.89	32.97	28.01	-41.5	-44.8	13.5	8.30e-06	0	61	0	339738624	53	5634
2026-01-27 23:15:41.90	33.10	28.18	-41.6	-44.9	13.4	1.75e-05	0	61	0	341835776	53	5704
2026-01-27 23:15:42.91	33.23	28.34	-41.6	-45.1	13.3	1.98e-05	0	61	0	343932928	53	5793
2026-01-27 23:15:43.92	33.35	28.51	-41.7	-45.2	13.1	2.13e-05	0	61	0	344981504	54	5573
2026-01-27 23:15:44.93	33.48	28.68	-41.8	-45.3	13.0	3.66e-05	0	61	0	347078656	54	5653
2026-01-27 23:15:45.94	33.61	28.85	-41.9	-45.5	12.8	4.42e-05	0	61	0	349175808	54	5764
2026-01-27 23:15:46.95	33.75	29.02	-41.9	-45.6	12.7	6.25e-05	0	61	0	351272960	54	5836
2026-01-27 23:15:47.96	33.88	29.19	-42.0	-45.7	12.6	8.08e-05	0	61	0	353370112	54	5900
2026-01-27 23:15:48.97	34.01	29.36	-42.0	-45.8	12.5	9.84e-05	0	61	0	354418688	54	5974
2026-01-27 23:15:49.98	34.15	29.53	-42.1	-45.8	12.5	1.55e-04	0	61	0	356515840	54	5986
2026-01-27 23:15:50.99	34.29	29.71	-42.1	-45.9	12.4	1.34e-04	0	61	0	358612992	54	6045
2026-01-27 23:15:52.00	34.43	29.88	-42.2	-46.0	12.3	1.66e-04	0	61	0	360710144	54	6112
2026-01-27 23:15:53.01	34.57	30.06	-42.2	-46.1	12.2	2.34e-04	0	61	0	362807296	55	5847
2026-01-27 23:15:54.02	34.71	30.23	-42.3	-46.4	11.9	2.97e-04	0	61	0	364904448	55	6036
2026-01-27 23:15:55.03	34.85	30.41	-42.4	-46.5	11.8	4.32e-04	0	61	0	365953024	55	6126
2026-01-27 23:15:56.04	35.00	30.59	-42.5	-46.7	11.6	6.52e-04	0	61	0	368050176	55	6232
2026-01-27 23:15:57.05	35.14	30.77	-42.6	-47.0	11.3	7.45e-04	0	61	0	370147328	55	6466
2026-01-27 23:15:58.06	35.29	30.95	-42.7	-47.1	11.2	1.26e-03	0	61	0	372244480	55	6550
2026-01-27 23:15:59.07	35.44	31.13	-42.9	-47.4	11.0	1.69e-03	0	61	0	374341632	56	6375
2026-01-27 23:16:00.08	35.59	31.31	-42.9	-47.5	11.0	1.94e-03	0	61	0	375390208	56	6438
2026-01-27 23:16:01.09	35.75	31.49	-42.9	-47.6	10.8	1.91e-03	0	61	0	377487360	56	6504
2026-01-27 23:16:02.10	35.90	31.68	-42.9	-47.4	11.0	1.84e-03	0	61	0	379584512	56	6414
2026-01-27 23:16:03.11	36.06	31.86	-42.9	-47.4	11.1	1.49e-03	0	61	0	381681664	56	6364
2026-01-27 23:16:04.12	36.22	32.05	-42.7	-47.0	11.4	1.29e-03	0	61	0	383778816	56	6109
2026-01-27 23:16:05.13	36.37	32.23	-42.7	-47.0	11.5	8.99e-04	0	61	0	384827392	56	6094
2026-01-27 23:16:06.14	36.54	32.42	-42.7	-46.9	11.6	7.14e-04	0	61	0	386924544	56	5997
2026-01-27 23:16:07.15	36.70	32.61	-42.6	-46.7	11.8	5.42e-04	0	61	0	389021696	56	5887
2026-01-27 23:16:08.16	36.87	32.80	-42.6	-46.8	11.8	4.62e-04	0	61	0	391118848	56	5951
2026-01-27 23:16:09.17	37.03	32.99	-42.6	-46.7	11.8	4.72e-04	0	61	0	393216000	56	5903
2026-01-27 23:16:10.18	37.20	33.18	-42.6	-46.8	11.7	6.03e-04	0	61	0	394264576	56	5978
2026-01-27 23:16:11.19	37.37	33.37	-42.6	-46.6	11.9	5.67e-04	0	61	0	396361728	56	5848
2026-01-27 23:16:12.20	37.55	33.57	-42.6	-46.7	11.8	3.81e-04	0	61	0	398458880	56	5889
2026-01-27 23:16:13.21	37.72	33.76	-42.6	-46.7	11.8	4.48e-04	0	61	0	400556032	56	5886
2026-01-27 23:16:14.22	37.90	33.95	-42.5	-46.6	11.9	4.06e-04	0	61	0	402653184	56	5829
2026-01-27 23:16:15.23	38.08	34.15	-42.5	-46.5	12.0	3.63e-04	0	61	0	403701760	56	5732
2026-01-27 23:16:16.24	38.26	34.35	-42.4	-46.4	12.2	2.59e-04	0	62	0	405798912	56	5663
2026-01-27 23:16:17.25	38.44	34.54	-42.4	-46.4	12.2	2.60e-04	0	61	0	407896064	56	5658
2026-01-27 23:16:18.26	38.63	34.74	-42.3	-46.1	12.5	1.63e-04	0	61	0	409993216	56	5501
2026-01-27 23:16:19.27	38.82	34.94	-42.4	-46.2	12.3	1.61e-04	0	61	0	412090368	56	5584
2026-01-27 23:16:20.28	39.01	35.14	-42.2	-46.0	12.5	1.27e-04	0	61	0	413138944	56	5432
2026-01-27 23:16:21.29	39.20	35.35	-42.3	-46.0	12.6	1.13e-04	0	61	0	415236096	56	5421
2026-01-27 23:16:22.30	39.40	35.55	-42.2	-45.8	12.8	8.39e-05	0	61	0	417333248	56	5312
2026-01-27 23:16:23.31	39.59	35.75	-42.1	-45.7	12.8	6.79e-05	0	61	0	419430400	56	5276
2026-01-27 23:16:24.32	39.79	35.96	-42.0	-45.6	13.0	4.73e-05	0	62	0	421527552	56	5161
2026-01-27 23:16:25.33	40.00	36.16	-42.1	-45.6	13.0	3.96e-05	0	61	0	422576128	56	5207
2026-01-27 23:16:26.34	40.20	36.37	-42.1	-45.6	13.0	5.18e-05	0	61	0	424673280	56	5179
2026-01-27 23:16:27.35	40.41	36.58	-41.7	-45.1	13.3	2.36e-05	0	61	0	426770432	55	5173
2026-01-27 23:16:28.36	40.62	36.78	-41.6	-44.9	13.6	1.22e-05	0	61	0	428867584	55	5084
2026-01-27 23:16:29.37	40.83	36.99	-41.6	-44.8	13.6	6.80e-06	0	62	0	430964736	55	5033
2026-01-27 23:16:30.37	41.04	37.20	-41.8	-45.2	13.2	1.29e-05	0	61	0	433061888	55	5240
2026-01-27 23:16:31.38	41.26	37.41	-41.8	-45.3	13.1	2.74e-05	0	61	0	434110464	55	5288
2026-01-27 23:16:32.39	41.48	37.62	-41.8	-45.3	13.2	2.67e-05	0	61	0	436207616	55	5316
2026-01-27 23:16:33.40	41.71	37.84	-41.8	-45.1	13.3	2.59e-05	0	62	0	438304768	55	5218
2026-01-27 23:16:34.41	41.93	38.05	-41.7	-45.0	13.5	1.67e-05	0	61	0	440401920	55	5115
2026-01-27 23:16:35.42	42.16	38.26	-41.6	-44.9	13.6	9.10e-06	0	61	0	442499072	55	5043
2026-01-27 23:16:36.43	42.40	38.48	-41.5	-44.7	13.8	7.60e-06	0	61	0	443547648	55	4938
2026-01-27 23:16:37.44	42.63	38.70	-41.5	-44.7	13.8	3.80e-06	0	61	0	445644800	54	5236
2026-01-27 23:16:38.45	42.87	38.91	-41.6	-44.9	13.6	1.29e-05	0	62	0	447741952	54	5358
2026-01-27 23:16:39.46	43.11	39.13	-41.7	-45.0	13.5	1.14e-05	0	61	0	449839104	54	5420
2026-01-27 23:16:40.47	43.36	39.35	-41.8	-45.2	13.2	1.60e-05	0	61	0	451936256	54	5584
2026-01-27 23:16:41.48	43.61	39.57	-41.8	-45.1	13.4	2.28e-05	0	61	0	452984832	54	5516
2026-01-27 23:16:42.50	43.86	39.79	-41.7	-45.0	13.5	2.05e-05	0	62	0	455081984	54	5448
2026-01-27 23:16:43.50	44.11	40.01	-41.4	-44.5	14.0	7.60e-06	0	62	0	457179136	54	5157
2026-01-27 23:16:44.51	44.37	40.23	-41.3	-44.3	14.2	2.20e-06	0	62	0	459276288	54	5011
2026-01-27 23:16:45.52	44.63	40.45	-41.2	-44.1	14.4	0.00e+00	0	62	0	461373440	54	4918
2026-01-27 23:16:46.53	44.90	40.68	-41.2	-44.2	14.4	7.00e-07	0	62	0	462422016	54	4935
2026-01-27 23:16:47.54	45.17	40.90	-41.3	-44.3	14.3	0.00e+00	0	61	0	464519168	54	5000
2026-01-27 23:16:48.55	45.44	41.13	-41.3	-44.4	14.1	1.50e-06	0	62	0	466616320	54	5056
2026-01-27 23:16:49.56	45.72	41.35	-41.4	-44.5	14.0	1.50e-06	0	62	0	468713472	54	5117
2026-01-27 23:16:50.57	46.00	41.58	-41.4	-44.5	14.0	2.20e-06	0	61	0	470810624	54	5109
2026-01-27 23:16:51.58	46.28	41.81	-41.4	-44.4	14.1	1.50e-06	0	61	0	471859200	54	5092
2026-01-27 23:16:52.59	46.57	42.03	-41.4	-44.5	14.0	3.80e-06	0	61	0	473956352	54	5120
2026-01-27 23:16:53.60	46.86	42.26	-41.5	-44.7	13.9	3.00e-06	0	61	0	476053504	54	5224
2026-01-27 23:16:54.61	47.16	42.49	-41.8	-45.1	13.4	4.50e-06	0	62	0	478150656	54	5495
2026-01-27 23:16:55.62	47.46	42.72	-41.8	-45.1	13.4	9.90e-06	0	62	0	480247808	54	5519
2026-01-27 23:16:56.63	47.77	42.95	-41.9	-45.3	13.2	1.37e-05	0	61	0	481296384	54	5626
2026-01-27 23:16:57.64	48.08	43.18	-41.9	-45.3	13.2	1.90e-05	0	62	0	483393536	54	5615
2026-01-27 23:16:58.65	48.39	43.41	-41.9	-45.3	13.3	2.51e-05	0	61	0	485490688	54	5608
2026-01-27 23:16:59.66	48.71	43.64	-41.9	-45.3	13.2	3.73e-05	0	62	0	487587840	54	5644
2026-01-27 23:17:00.67	49.03	43.87	-42.0	-45.6	12.9	3.73e-05	0	62	0	489684992	54	5823
2026-01-27 23:17:01.68	49.36	44.10	-42.2	-46.0	12.6	7.85e-05	0	61	0	490733568	55	5730
2026-01-27 23:17:02.69	49.69	44.34	-42.4	-46.4	12.2	1.66e-04	0	62	0	492830720	55	5994
2026-01-27 23:17:03.70	50.03	44.57	-42.5	-46.5	12.0	3.55e-04	0	62	0	494927872	55	6104
2026-01-27 23:17:04.71	50.37	44.80	-42.4	-46.4	12.0	3.26e-04	0	62	0	497025024	55	6026
2026-01-27 23:17:05.72	50.72	45.04	-42.3	-46.2	12.3	2.30e-04	0	62	0	499122176	55	5885
2026-01-27 23:17:06.73	51.07	45.27	-42.2	-45.9	12.5	1.38e-04	0	62	0	501219328	55	5718
2026-01-27 23:17:07.74	51.43	45.50	-42.4	-46.3	12.3	2.01e-04	0	62	0	502267904	55	5930
2026-01-27 23:17:08.75	51.79	45.74	-42.7	-46.9	11.6	3.77e-04	0	62	0	504365056	55	6380
2026-01-27 23:17:09.76	52.16	45.97	-43.2	-47.9	10.7	1.14e-03	0	62	0	506462208	56	6770
2026-01-27 23:17:10.77	52.53	46.21	-43.4	-48.4	10.2	4.80e-03	0	62	0	508559360	57	6779
2026-01-27 23:17:11.78	52.91	46.44	-43.4	-48.5	10.1	8.34e-03	0	62	0	510656512	57	6827
2026-01-27 23:17:12.79	53.29	46.67	-43.4	-48.3	10.3	6.12e-03	0	62	0	511705088	57	6718
2026-01-27 23:17:13.80	53.68	46.91	-43.3	-48.0	10.6	3.83e-03	0	62	0	513802240	57	6468
2026-01-27 23:17:14.81	54.08	47.14	-43.3	-48.2	10.4	4.23e-03	0	61	0	515899392	57	6607
2026-01-27 23:17:15.82	54.48	47.38	-43.5	-48.7	9.8	6.81e-03	0	62	0	517996544	57	7020
2026-01-27 23:17:16.83	54.89	47.61	-43.8	-49.4	9.2	1.60e-02	0	62	0	520093696	58	7166
2026-01-27 23:17:17.84	55.31	47.84	-44.1	-50.5	8.1	4.34e-02	0	61	0	521142272	58	8119
2026-01-27 23:17:18.86	55.73	48.08	-44.2	-50.9	7.6	8.80e-02	0	62	0	523239424	59	8047
2026-01-27 23:17:19.87	56.16	48.31	-44.1	-50.4	8.2	6.24e-02	0	62	0	525336576	59	7605
2026-01-27 23:17:20.88	56.59	48.54	-43.8	-49.3	9.2	3.00e-02	0	62	0	527433728	59	6719
2026-01-27 23:17:21.89	57.03	48.77	-43.5	-48.7	9.8	1.27e-02	0	62	0	529530880	59	6246
2026-01-27 23:17:22.90	57.48	49.01	-43.5	-48.6	10.0	6.69e-03	0	62	0	530579456	58	6522
2026-01-27 23:17:23.91	57.93	49.24	-43.4	-48.4	10.2	6.24e-03	0	62	0	532676608	58	6395
2026-01-27 23:17:24.92	58.39	49.47	-43.6	-48.8	9.8	8.00e-03	0	62	0	534773760	58	6662
2026-01-27 23:17:25.93	58.86	49.69	-43.7	-49.1	9.5	1.24e-02	0	61	0	536870912	58	6935
2026-01-27 23:17:26.94	59.33	49.92	-43.7	-49.0	9.7	1.44e-02	0	62	0	538968064	58	6854
2026-01-27 23:17:27.95	59.81	50.15	-43.5	-48.5	10.1	9.64e-03	0	62	0	541065216	58	6443
2026-01-27 23:17:28.96	60.30	50.38	-43.1	-47.6	11.0	3.80e-03	0	62	0	542113792	58	5848
2026-01-27 23:17:29.97	60.79	50.60	-42.8	-47.0	11.7	7.76e-04	0	62	0	544210944	57	5753
2026-01-27 23:17:30.98	61.30	50.82	-42.6	-46.5	12.2	3.39e-04	0	62	0	546308096	57	5435
2026-01-27 23:17:31.99	61.81	51.05	-42.3	-45.9	12.8	1.32e-04	0	62	0	548405248	56	5388
2026-01-27 23:17:33.00	62.32	51.27	-42.3	-45.8	13.0	5.03e-05	0	62	0	550502400	56	5318
2026-01-27 23:17:34.01	62.85	51.49	-42.2	-45.6	13.2	2.89e-05	0	62	0	551550976	56	5190
2026-01-27 23:17:35.02	63.38	51.71	-42.0	-45.4	13.4	3.28e-05	0	62	0	553648128	56	5043
2026-01-27 23:17:36.03	63.92	51.92	-41.7	-44.8	13.8	1.29e-05	0	62	0	555745280	55	5032
2026-01-27 23:17:37.04	64.47	52.14	-41.4	-44.4	14.1	3.80e-06	0	62	0	557842432	54	5092
2026-01-27 23:17:38.05	65.03	52.35	-41.3	-44.2	14.5	7.00e-07	0	62	0	559939584	54	4936
2026-01-27 23:17:39.06	65.59	52.56	-41.4	-44.4	14.2	7.00e-07	0	62	0	560988160	54	5089
2026-01-27 23:17:40.07	66.17	52.77	-41.6	-44.7	14.0	2.20e-06	0	62	0	563085312	54	5221
2026-01-27 23:17:41.08	66.75	52.98	-41.6	-44.7	14.0	3.00e-06	0	61	0	565182464	54	5238
2026-01-27 23:17:42.09	67.34	53.19	-41.3	-44.2	14.3	3.80e-06	0	62	0	567279616	54	4982
2026-01-27 23:17:43.10	67.93	53.39	-41.1	-43.9	14.9	7.00e-07	0	62	0	569376768	54	4764
2026-01-27 23:17:44.11	68.54	53.59	-41.0	-43.7	14.9	0.00e+00	0	62	0	570425344	53	4974
2026-01-27 23:17:45.12	69.15	53.79	-41.1	-43.9	14.8	0.00e+00	0	62	0	572522496	53	5059
2026-01-27 23:17:46.13	69.78	53.99	-41.5	-44.5	14.2	7.00e-07	0	62	0	574619648	53	5432
2026-01-27 23:17:47.14	70.41	54.18	-41.7	-45.0	13.7	6.10e-06	0	62	0	576716800	53	5723
2026-01-27 23:17:48.15	71.05	54.37	-41.7	-44.9	13.8	5.30e-06	0	62	0	578813952	54	5374
2026-01-27 23:17:49.16	71.70	54.56	-41.6	-44.7	13.9	9.10e-06	0	62	0	579862528	54	5254
2026-01-27 23:17:50.17	72.35	54.74	-41.3	-44.3	14.4	7.00e-07	0	62	0	581959680	54	4988
2026-01-27 23:17:51.18	73.02	54.93	-41.0	-43.8	14.9	0.00e+00	0	62	0	584056832	54	4710
2026-01-27 23:17:52.19	73.69	55.10	-41.1	-43.9	14.8	0.00e+00	0	62	0	586153984	53	5079
2026-01-27 23:17:53.20	74.37	55.28	-41.5	-44.5	14.2	7.00e-07	0	62	0	588251136	53	5427
2026-01-27 23:17:54.21	75.06	55.45	-41.7	-44.9	13.8	6.10e-06	0	62	0	589299712	53	5686
2026-01-27 23:17:55.22	75.76	55.62	-41.6	-44.7	14.0	5.30e-06	0	62	0	591396864	54	5246
2026-01-27 23:17:56.23	76.47	55.78	-41.3	-44.2	14.5	0.00e+00	0	62	0	593494016	54	4949
2026-01-27 23:17:57.24	77.18	55.94	-41.3	-44.2	14.5	1.50e-06	0	62	0	595591168	54	4936
2026-01-27 23:17:58.25	77.90	56.10	-41.3	-44.2	14.5	1.50e-06	0	62	0	597688320	54	4968
2026-01-27 23:17:59.26	78.64	56.25	-41.3	-44.2	14.4	0.00e+00	0	62	0	598736896	54	4966
2026-01-27 23:18:00.27	79.38	56.40	-41.4	-44.4	14.2	0.00e+00	0	62	0	600834048	54	5078
2026-01-27 23:18:01.28	80.12	56.55	-41.7	-44.9	13.8	1.50e-06	0	62	0	602931200	54	5341
2026-01-27 23:18:02.29	80.88	56.69	-41.6	-44.8	13.9	7.60e-06	0	62	0	605028352	54	5294
2026-01-27 23:18:03.30	81.64	56.83	-41.7	-44.8	13.9	2.20e-06	0	62	0	607125504	54	5297
2026-01-27 23:18:04.31	82.41	56.96	-41.8	-45.0	13.6	3.00e-06	0	62	0	609222656	54	5460
2026-01-27 23:18:05.32	83.19	57.08	-41.9	-45.1	13.5	6.80e-06	0	62	0	610271232	54	5514
2026-01-27 23:18:06.33	83.97	57.21	-41.8	-45.0	13.6	5.30e-06	0	62	0	612368384	54	5452
2026-01-27 23:18:07.34	84.76	57.32	-42.0	-45.3	13.3	9.10e-06	0	62	0	614465536	54	5653
2026-01-27 23:18:08.35	85.56	57.44	-42.4	-46.3	12.4	1.12e-04	0	62	0	616562688	55	5938
2026-01-27 23:18:09.36	86.36	57.54	-42.6	-46.6	12.0	3.49e-04	0	62	0	618659840	55	6198
2026-01-27 23:18:10.37	87.17	57.64	-42.6	-46.5	12.2	2.81e-04	0	62	0	619708416	55	6091
2026-01-27 23:18:11.38	87.99	57.74	-43.0	-47.3	11.4	3.04e-04	0	62	0	621805568	56	6323
2026-01-27 23:18:12.39	88.81	57.83	-43.6	-48.9	9.8	6.42e-03	0	62	0	623902720	57	7133
2026-01-27 23:18:13.40	89.64	57.92	-43.9	-49.5	9.1	1.91e-02	0	62	0	625999872	58	7268
2026-01-27 23:18:14.41	90.47	58.00	-43.6	-48.8	9.9	1.74e-02	0	62	0	628097024	58	6666
2026-01-27 23:18:15.42	91.31	58.08	-43.5	-48.5	10.2	6.95e-03	0	62	0	629145600	58	6444
2026-01-27 23:18:16.43	92.15	58.15	-43.4	-48.2	10.6	4.71e-03	0	62	0	631242752	58	6204
2026-01-27 23:18:17.44	93.00	58.21	-43.4	-48.1	10.6	3.72e-03	0	62	0	633339904	58	6178
2026-01-27 23:18:18.45	93.85	58.27	-43.4	-48.3	10.5	4.04e-03	0	62	0	635437056	58	6276
2026-01-27 23:18:19.46	94.70	58.32	-43.5	-48.4	10.3	6.06e-03	0	62	0	637534208	58	6380
2026-01-27 23:18:20.47	95.56	58.37	-43.5	-48.6	10.1	4.75e-03	0	62	0	638582784	58	6504
2026-01-27 23:18:21.48	96.42	58.41	-43.6	-48.7	10.0	7.77e-03	0	62	0	640679936	58	6589
2026-01-27 23:18:22.49	97.28	58.44	-43.6	-48.7	9.9	1.02e-02	0	62	0	642777088	58	6634
2026-01-27 23:18:23.50	98.15	58.47	-43.5	-48.4	10.3	9.09e-03	0	62	0	644874240	58	6392
2026-01-27 23:18:24.51	99.01	58.50	-43.2	-47.6	11.1	3.77e-03	0	62	0	646971392	58	5832
2026-01-27 23:18:25.52	99.88	58.51	-43.1	-47.4	11.3	1.37e-03	0	62	0	648019968	58	5669
2026-01-27 23:18:26.53	100.75	58.52	-43.1	-47.6	11.1	1.26e-03	0	62	0	650117120	58	5821
2026-01-27 23:18:27.54	101.62	58.53	-42.5	-46.2	12.5	9.52e-04	0	62	0	652214272	57	5268
2026-01-27 23:18:28.55	102.49	58.53	-41.7	-44.8	13.8	1.14e-05	0	62	0	654311424	55	5030
2026-01-27 23:18:29.56	103.35	58.52	-41.3	-44.2	14.4	0.00e+00	0	62	0	656408576	54	4977
2026-01-27 23:18:30.57	104.22	58.51	-41.4	-44.4	14.2	7.00e-07	0	62	0	657457152	54	5070
2026-01-27 23:18:31.58	105.09	58.49	-41.7	-44.8	13.8	3.00e-06	0	62	0	659554304	54	5331
2026-01-27 23:18:32.59	105.96	58.46	-42.3	-46.0	12.7	2.67e-05	0	62	0	661651456	55	5729
2026-01-27 23:18:33.60	106.82	58.43	-42.5	-46.4	12.2	1.43e-04	0	62	0	663748608	55	6023
2026-01-27 23:18:34.61	107.68	58.39	-42.6	-46.6	12.0	2.57e-04	0	62	0	665845760	55	6191
2026-01-27 23:18:35.62	108.54	58.35	-43.3	-47.9	10.8	1.23e-03	0	62	0	666894336	57	6401
2026-01-27 23:18:36.63	109.40	58.30	-43.6	-48.7	9.9	5.87e-03	0	62	0	668991488	57	7025
2026-01-27 23:18:37.64	110.25	58.25	-43.3	-48.1	10.5	6.35e-03	0	62	0	671088640	57	6506
2026-01-27 23:18:38.65	111.10	58.19	-43.1	-47.6	11.0	2.28e-03	0	62	0	673185792	57	6171
2026-01-27 23:18:39.66	111.94	58.12	-43.3	-48.0	10.8	2.23e-03	0	62	0	675282944	57	6462
2026-01-27 23:18:40.67	112.78	58.05	-43.7	-49.0	9.7	5.20e-03	0	62	0	677380096	57	7264
2026-01-27 23:18:41.68	113.62	57.97	-44.0	-49.8	8.8	2.58e-02	0	62	0	678428672	58	7509
2026-01-27 23:18:42.69	114.45	57.89	-43.8	-49.2	9.5	2.45e-02	0	62	0	680525824	58	7007
2026-01-27 23:18:43.70	115.28	57.80	-43.5	-48.6	10.2	1.10e-02	0	62	0	682622976	58	6498
2026-01-27 23:18:44.72	116.11	57.71	-43.8	-49.2	9.4	9.48e-03	0	62	0	684720128	58	6972
2026-01-27 23:18:45.73	116.92	57.61	-44.2	-50.6	8.1	3.94e-02	0	62	0	686817280	58	8214
2026-01-27 23:18:46.74	117.73	57.50	-44.0	-50.1	8.4	8.13e-02	0	62	0	687865856	59	7326
2026-01-27 23:18:47.75	118.53	57.39	-43.6	-48.8	9.9	1.48e-02	0	62	0	689963008	59	6294
2026-01-27 23:18:48.76	119.33	57.28	-43.4	-48.3	10.4	6.94e-03	0	62	0	692060160	58	6281
2026-01-27 23:18:49.77	120.12	57.16	-43.6	-48.7	9.9	5.34e-03	0	62	0	694157312	58	6579
2026-01-27 23:18:50.78	120.90	57.03	-43.6	-48.8	9.8	9.67e-03	0	62	0	696254464	58	6723
2026-01-27 23:18:51.79	121.68	56.91	-43.1	-47.5	11.2	2.65e-03	0	62	0	697303040	58	5771
2026-01-27 23:18:52.80	122.45	56.77	-42.5	-46.3	12.3	4.80e-04	0	62	0	699400192	57	5329
2026-01-27 23:18:53.81	123.21	56.63	-42.5	-46.3	12.5	1.13e-04	0	62	0	701497344	56	5611
2026-01-27 23:18:54.82	123.96	56.49	-42.5	-46.3	12.5	1.69e-04	0	62	0	703594496	56	5644
2026-01-27 23:18:55.82	124.70	56.35	-42.0	-45.3	13.4	5.49e-05	0	62	0	705691648	56	5025
2026-01-27 23:18:56.84	125.44	56.19	-41.5	-44.5	14.1	5.30e-06	0	62	0	706740224	54	5132
2026-01-27 23:18:57.85	126.17	56.04	-41.4	-44.4	14.2	2.20e-06	0	62	0	708837376	54	5076
2026-01-27 23:18:58.86	126.89	55.88	-41.1	-43.9	14.8	7.00e-07	0	62	0	710934528	54	4776
2026-01-27 23:18:59.87	127.60	55.72	-40.6	-43.1	15.6	0.00e+00	0	62	0	713031680	53	4610
2026-01-27 23:19:00.87	128.30	55.55	-40.1	-42.4	16.4	0.00e+00	0	62	0	715128832	51	4761
2026-01-27 23:19:01.88	129.00	55.38	-40.0	-42.3	16.5	0.00e+00	0	62	0	716177408	51	4717
2026-01-27 23:19:02.90	129.69	55.21	-39.9	-42.1	16.7	0.00e+00	0	62	0	718274560	51	4604
2026-01-27 23:19:03.91	130.37	55.03	-40.0	-42.2	16.5	0.00e+00	0	62	0	720371712	51	4668
2026-01-27 23:19:04.92	131.04	54.85	-39.9	-42.1	16.6	0.00e+00	0	62	0	722468864	51	4647
2026-01-27 23:19:05.93	131.71	54.67	-39.8	-42.0	16.7	0.00e+00	0	62	0	724566016	51	4548
2026-01-27 23:19:06.94	132.36	54.48	-39.9	-42.1	16.6	0.00e+00	0	62	0	725614592	51	4616
2026-01-27 23:19:07.95	133.01	54.29	-40.3	-42.6	16.1	0.00e+00	0	62	0	727711744	51	4916
2026-01-27 23:19:08.96	133.64	54.10	-40.4	-42.8	15.9	0.00e+00	0	62	0	729808896	51	5017
2026-01-27 23:19:09.97	134.27	53.90	-40.1	-42.4	16.3	0.00e+00	0	62	0	731906048	51	4805
2026-01-27 23:19:10.98	134.89	53.71	-40.0	-42.3	16.5	0.00e+00	0	62	0	734003200	51	4720
2026-01-27 23:19:11.99	135.51	53.50	-40.4	-42.9	15.9	0.00e+00	0	62	0	735051776	51	5044
2026-01-27 23:19:12.99	136.10	53.30	-40.9	-43.7	14.9	0.00e+00	0	62	0	737148928	52	5251
2026-01-27 23:19:13.99	136.69	53.10	-41.3	-44.2	14.4	7.00e-07	0	62	0	739246080	53	5241
2026-01-27 23:19:15.00	137.28	52.89	-40.8	-43.5	15.1	0.00e+00	0	62	0	741343232	53	4821
2026-01-27 23:19:16.01	137.86	52.69	-40.3	-42.7	15.9	0.00e+00	0	62	0	743440384	52	4657
2026-01-27 23:19:17.02	138.43	52.47	-40.0	-42.2	16.5	0.00e+00	0	62	0	745537536	51	4687
2026-01-27 23:19:18.03	138.99	52.26	-40.4	-42.9	15.9	0.00e+00	0	62	0	746586112	51	5048
2026-01-27 23:19:19.04	139.55	52.05	-41.0	-43.9	14.8	0.00e+00	0	62	0	748683264	52	5344
2026-01-27 23:19:20.05	140.10	51.83	-41.2	-44.2	14.4	0.00e+00	0	62	0	750780416	53	5252
2026-01-27 23:19:21.06	140.63	51.61	-40.9	-43.6	15.0	7.00e-07	0	62	0	752877568	53	4894
2026-01-27 23:19:22.07	141.17	51.39	-40.8	-43.5	15.1	0.00e+00	0	62	0	754974720	53	4865
2026-01-27 23:19:23.08	141.69	51.17	-41.5	-44.6	14.1	2.20e-06	0	62	0	756023296	53	5486
2026-01-27 23:19:24.09	142.20	50.95	-42.0	-45.5	13.1	1.37e-05	0	62	0	758120448	54	5766
2026-01-27 23:19:25.10	142.71	50.72	-42.0	-45.6	13.0	5.18e-05	0	62	0	760217600	54	5797
2026-01-27 23:19:26.11	143.21	50.50	-41.9	-45.2	13.4	2.44e-05	0	62	0	762314752	54	5583
2026-01-27 23:19:27.13	143.71	50.27	-41.6	-44.8	13.9	1.14e-05	0	62	0	764411904	54	5293
2026-01-27 23:19:28.14	144.20	50.04	-41.6	-44.7	13.9	2.20e-06	0	62	0	765460480	54	5238
2026-01-27 23:19:29.15	144.68	49.81	-42.1	-45.6	13.0	7.60e-06	0	62	0	767557632	54	5805
2026-01-27 23:19:30.16	145.15	49.58	-43.1	-47.7	11.0	7.18e-04	0	62	0	769654784	56	6621
2026-01-27 23:19:31.17	145.61	49.35	-43.3	-48.1	10.5	4.70e-03	0	62	0	771751936	57	6549
2026-01-27 23:19:32.18	146.07	49.12	-42.9	-47.1	11.5	1.69e-03	0	62	0	773849088	57	5827
2026-01-27 23:19:33.19	146.52	48.89	-42.5	-46.2	12.4	1.56e-04	0	62	0	774897664	56	5547
2026-01-27 23:19:34.20	146.97	48.66	-42.6	-46.5	12.2	1.15e-04	0	62	0	776994816	56	5739
2026-01-27 23:19:35.21	147.41	48.43	-43.0	-47.3	11.3	4.88e-04	0	62	0	779091968	56	6325
2026-01-27 23:19:36.22	147.84	48.19	-43.1	-47.7	11.0	1.93e-03	0	62	0	781189120	56	6633
2026-01-27 23:19:37.23	148.26	47.96	-43.4	-48.5	10.1	4.33e-03	0	62	0	783286272	57	6823
2026-01-27 23:19:38.24	148.68	47.72	-43.4	-48.5	10.1	6.00e-03	0	62	0	784334848	57	6868
2026-01-27 23:19:39.25	149.09	47.49	-43.3	-48.1	10.5	4.97e-03	0	62	0	786432000	57	6495
2026-01-27 23:19:40.26	149.50	47.26	-43.0	-47.4	11.2	1.82e-03	0	62	0	788529152	57	6023
2026-01-27 23:19:41.27	149.90	47.02	-43.1	-47.5	11.1	1.45e-03	0	62	0	790626304	57	6121
2026-01-27 23:19:42.28	150.30	46.79	-43.3	-48.2	10.4	2.22e-03	0	62	0	792723456	57	6599
2026-01-27 23:19:43.29	150.69	46.55	-43.7	-49.2	9.3	1.43e-02	0	62	0	794820608	57	7441
2026-01-27 23:19:44.30	151.07	46.31	-43.3	-48.2	10.4	1.23e-02	0	62	0	795869184	57	6594
2026-01-27 23:19:45.31	151.45	46.08	-42.7	-46.7	11.9	1.44e-03	0	62	0	797966336	57	5568
2026-01-27 23:19:46.32	151.82	45.84	-42.5	-46.2	12.5	1.09e-04	0	62	0	800063488	56	5579
2026-01-27 23:19:47.33	152.19	45.61	-42.9	-47.1	11.6	2.37e-04	0	62	0	802160640	56	6175
2026-01-27 23:19:48.34	152.55	45.37	-43.1	-47.7	11.0	1.43e-03	0	62	0	804257792	56	6590
2026-01-27 23:19:49.34	152.90	45.14	-43.0	-47.5	11.2	1.86e-03	0	62	0	805306368	56	6447
2026-01-27 23:19:50.35	153.25	44.91	-42.8	-46.9	11.7	8.14e-04	0	62	0	807403520	56	6029
2026-01-27 23:19:51.36	153.60	44.67	-42.9	-47.3	11.3	5.84e-04	0	62	0	809500672	56	6293
2026-01-27 23:19:52.37	153.94	44.44	-43.1	-47.6	11.0	2.01e-03	0	62	0	811597824	56	6544
2026-01-27 23:19:53.38	154.27	44.20	-42.8	-46.9	11.7	1.28e-03	0	62	0	813694976	56	6049
2026-01-27 23:19:54.40	154.61	43.97	-42.4	-46.2	12.4	2.88e-04	0	62	0	814743552	56	5571
2026-01-27 23:19:55.41	154.93	43.74	-42.3	-46.0	12.7	6.79e-05	0	62	0	816840704	56	5458
2026-01-27 23:19:56.42	155.25	43.50	-42.6	-46.5	12.2	1.81e-04	0	62	0	818937856	56	5735
2026-01-27 23:19:57.42	155.57	43.27	-42.7	-46.8	11.8	3.75e-04	0	62	0	821035008	56	5991
2026-01-27 23:19:58.43	155.88	43.04	-42.4	-46.1	12.5	2.15e-04	0	62	0	823132160	56	5504
2026-01-27 23:19:59.44	156.19	42.81	-41.4	-44.5	14.0	1.44e-05	0	62	0	824180736	54	5130
2026-01-27 23:20:00.45	156.49	42.58	-41.1	-44.0	14.5	0.00e+00	0	62	0	826277888	54	4850
2026-01-27 23:20:01.46	156.79	42.35	-41.3	-44.3	14.2	7.00e-07	0	62	0	828375040	54	5024
2026-01-27 23:20:02.47	157.09	42.12	-41.7	-44.9	13.6	5.30e-06	0	62	0	830472192	54	5383
2026-01-27 23:20:03.48	157.38	41.89	-41.9	-45.3	13.2	2.05e-05	0	62	0	832569344	54	5630
2026-01-27 23:20:04.49	157.67	41.66	-41.7	-45.0	13.5	1.75e-05	0	62	0	833617920	54	5446
2026-01-27 23:20:05.50	157.95	41.43	-41.8	-45.1	13.4	8.30e-06	0	62	0	835715072	54	5509
2026-01-27 23:20:06.51	158.23	41.21	-41.9	-45.4	13.1	2.28e-05	0	62	0	837812224	54	5674
2026-01-27 23:20:07.51	158.50	40.98	-42.2	-46.0	12.5	5.87e-05	0	62	0	839909376	54	6113
2026-01-27 23:20:08.52	158.78	40.76	-41.9	-45.5	13.0	7.01e-05	0	62	0	842006528	55	5432
2026-01-27 23:20:09.54	159.05	40.53	-41.4	-44.5	14.0	1.22e-05	0	62	0	843055104	54	5135
2026-01-27 23:20:10.55	159.31	40.31	-41.0	-43.9	14.6	0.00e+00	0	62	0	845152256	54	4783
2026-01-27 23:20:11.56	159.57	40.08	-41.2	-44.1	14.4	7.00e-07	0	62	0	847249408	54	4895
2026-01-27 23:20:12.57	159.83	39.86	-41.3	-44.3	14.2	0.00e+00	0	62	0	849346560	54	5039
2026-01-27 23:20:13.58	160.08	39.64	-41.9	-45.4	13.1	5.30e-06	0	62	0	851443712	54	5701
2026-01-27 23:20:14.59	160.33	39.42	-42.3	-46.2	12.2	1.11e-04	0	62	0	852492288	55	5915
2026-01-27 23:20:15.60	160.58	39.20	-42.3	-46.1	12.3	2.23e-04	0	62	0	854589440	55	5853
2026-01-27 23:20:16.61	160.83	38.98	-42.1	-45.8	12.7	1.11e-04	0	62	0	856686592	55	5607
2026-01-27 23:20:17.62	161.07	38.76	-41.8	-45.2	13.2	5.26e-05	0	62	0	858783744	55	5254
2026-01-27 23:20:18.63	161.30	38.54	-41.5	-44.7	13.8	4.50e-06	0	62	0	860880896	55	4933
2026-01-27 23:20:19.64	161.54	38.32	-41.4	-44.5	14.0	1.50e-06	0	62	0	862978048	54	5155
2026-01-27 23:20:20.65	161.77	38.11	-41.5	-44.7	13.8	3.00e-06	0	62	0	864026624	54	5235
2026-01-27 23:20:21.66	162.00	37.89	-41.6	-44.8	13.7	6.80e-06	0	62	0	866123776	54	5317
2026-01-27 23:20:22.67	162.22	37.68	-42.0	-45.7	12.8	1.75e-05	0	62	0	868220928	54	5866
2026-01-27 23:20:23.68	162.45	37.47	-42.5	-46.7	11.8	1.74e-04	0	62	0	870318080	55	6208
2026-01-27 23:20:24.69	162.67	37.25	-42.5	-46.6	11.8	5.44e-04	0	62	0	872415232	55	6172
2026-01-27 23:20:25.70	162.88	37.04	-42.1	-45.7	12.6	1.94e-04	0	62	0	873463808	55	5587
2026-01-27 23:20:26.71	163.10	36.83	-41.5	-44.7	13.7	2.67e-05	0	62	0	875560960	55	4937
2026-01-27 23:20:27.72	163.31	36.62	-40.9	-43.6	14.8	4.50e-06	0	62	0	877658112	53	4923
2026-01-27 23:20:28.73	163.52	36.41	-40.6	-43.3	15.2	0.00e+00	0	62	0	879755264	53	4721
2026-01-27 23:20:29.74	163.73	36.20	-40.7	-43.4	15.1	0.00e+00	0	62	0	881852416	53	4784
2026-01-27 23:20:30.75	163.93	36.00	-41.1	-44.0	14.5	7.00e-07	0	62	0	882900992	53	5125
2026-01-27 23:20:31.76	164.13	35.79	-41.4	-44.6	13.8	3.80e-06	0	62	0	884998144	53	5519
2026-01-27 23:20:32.77	164.33	35.59	-42.0	-45.7	12.7	2.13e-05	0	62	0	887095296	54	5903
2026-01-27 23:20:33.78	164.53	35.38	-42.2	-46.1	12.3	1.50e-04	0	62	0	889192448	55	5836
2026-01-27 23:20:34.79	164.72	35.18	-42.2	-46.0	12.4	1.62e-04	0	62	0	891289600	55	5757
2026-01-27 23:20:35.80	164.91	34.98	-41.9	-45.5	12.9	9.53e-05	0	62	0	892338176	55	5462
2026-01-27 23:20:36.81	165.10	34.77	-41.5	-44.7	13.7	2.51e-05	0	62	0	894435328	54	5233
2026-01-27 23:20:37.82	165.29	34.57	-41.3	-44.4	14.0	7.00e-07	0	62	0	896532480	54	5097
2026-01-27 23:20:38.83	165.47	34.37	-41.2	-44.2	14.2	3.00e-06	0	62	0	898629632	54	4982
2026-01-27 23:20:39.84	165.66	34.18	-41.3	-44.3	14.1	1.50e-06	0	62	0	900726784	54	5028
2026-01-27 23:20:40.85	165.84	33.98	-41.5	-44.7	13.8	7.60e-06	0	62	0	901775360	54	5246
2026-01-27 23:20:41.86	166.02	33.78	-41.7	-45.2	13.3	1.60e-05	0	62	0	903872512	54	5551
2026-01-27 23:20:42.87	166.19	33.59	-42.0	-45.7	12.7	4.27e-05	0	62	0	905969664	54	5877
2026-01-27 23:20:43.88	166.37	33.39	-42.1	-45.9	12.5	7.24e-05	0	62	0	908066816	54	6026
2026-01-27 23:20:44.89	166.54	33.20	-42.2	-46.1	12.3	1.89e-04	0	62	0	910163968	55	5791
2026-01-27 23:20:45.90	166.71	33.00	-42.1	-45.8	12.6	1.59e-04	0	62	0	911212544	55	5622
2026-01-27 23:20:46.91	166.88	32.81	-42.1	-45.9	12.5	8.92e-05	0	62	0	913309696	55	5677
2026-01-27 23:20:47.92	167.04	32.62	-42.1	-46.0	12.4	1.40e-04	0	62	0	915406848	55	5728
2026-01-27 23:20:48.93	167.21	32.43	-42.1	-45.8	12.6	1.08e-04	0	62	0	917504000	55	5638
2026-01-27 23:20:49.94	167.37	32.24	-42.2	-46.0	12.4	1.46e-04	0	62	0	919601152	55	5769
2026-01-27 23:20:50.95	167.53	32.06	-42.3	-46.3	12.1	2.23e-04	0	62	0	920649728	55	5974
2026-01-27 23:20:51.96	167.69	31.87	-42.3	-46.2	12.2	2.30e-04	0	62	0	922746880	55	5888
2026-01-27 23:20:52.97	167.85	31.68	-42.4	-46.4	12.0	2.96e-04	0	62	0	924844032	55	6019
2026-01-27 23:20:53.98	168.01	31.50	-42.4	-46.5	11.9	4.08e-04	0	62	0	926941184	55	6071
2026-01-27 23:20:54.99	168.16	31.31	-42.3	-46.3	12.0	3.61e-04	0	62	0	929038336	55	5972
2026-01-27 23:20:56.00	168.31	31.13	-42.3	-46.3	12.1	2.28e-04	0	62	0	931135488	55	5930
2026-01-27 23:20:57.01	168.46	30.95	-42.1	-46.0	12.4	1.94e-04	0	62	0	932184064	55	5742
2026-01-27 23:20:58.03	168.61	30.76	-42.0	-45.7	12.6	9.30e-05	0	62	0	934281216	55	5569
2026-01-27 23:20:59.03	168.76	30.58	-42.0	-45.7	12.7	7.09e-05	0	62	0	936378368	55	5562
2026-01-27 23:21:00.04	168.90	30.41	-42.0	-45.7	12.7	9.23e-05	0	62	0	938475520	55	5535
2026-01-27 23:21:01.06	169.05	30.22	-42.1	-45.9	12.5	9.38e-05	0	62	0	940572672	55	5667
2026-01-27 23:21:02.07	169.19	30.05	-42.2	-46.1	12.2	1.39e-04	0	62	0	941621248	55	5822
2026-01-27 23:21:03.07	169.33	29.87	-42.3	-46.3	12.1	2.45e-04	0	62	0	943718400	55	5939
2026-01-27 23:21:04.08	169.47	29.70	-42.4	-46.6	11.7	4.61e-04	0	62	0	945815552	55	6140
2026-01-27 23:21:05.09	169.61	29.52	-42.5	-46.9	11.4	7.67e-04	0	62	0	947912704	55	6357
2026-01-27 23:21:06.10	169.75	29.35	-42.5	-46.8	11.5	1.06e-03	0	62	0	950009856	55	6311
2026-01-27 23:21:07.11	169.88	29.17	-42.4	-46.7	11.6	7.24e-04	0	62	0	951058432	55	6227
2026-01-27 23:21:08.12	170.01	29.00	-42.3	-46.4	11.8	6.00e-04	0	62	0	953155584	55	6043
2026-01-27 23:21:09.13	170.15	28.83	-42.2	-46.3	12.0	4.32e-04	0	62	0	955252736	55	5931
2026-01-27 23:21:10.14	170.28	28.66	-42.2	-46.1	12.2	2.14e-04	0	62	0	957349888	55	5830
2026-01-27 23:21:11.15	170.41	28.49	-42.1	-46.0	12.3	1.87e-04	0	62	0	959447040	55	5766
2026-01-27 23:21:12.16	170.54	28.32	-42.1	-45.9	12.3	2.00e-04	0	62	0	960495616	55	5719
2026-01-27 23:21:13.17	170.66	28.15	-42.0	-45.7	12.6	1.08e-04	0	62	0	962592768	55	5574
2026-01-27 23:21:14.18	170.79	27.99	-42.0	-45.7	12.5	9.84e-05	0	62	0	964689920	55	5583
2026-01-27 23:21:15.19	170.91	27.82	-41.9	-45.6	12.7	1.11e-04	0	62	0	966787072	55	5472
2026-01-27 23:21:16.20	171.04	27.65	-41.9	-45.6	12.6	8.69e-05	0	62	0	968884224	55	5514
2026-01-27 23:21:17.21	171.16	27.49	-41.9	-45.6	12.7	7.55e-05	0	62	0	969932800	55	5472
2026-01-27 23:21:18.22	171.28	27.33	-41.9	-45.6	12.7	9.61e-05	0	62	0	972029952	55	5503
2026-01-27 23:21:19.23	171.40	27.16	-41.8	-45.5	12.8	4.57e-05	0	62	0	974127104	55	5420
2026-01-27 23:21:20.24	171.52	27.00	-41.9	-45.6	12.7	7.40e-05	0	62	0	976224256	55	5477
2026-01-27 23:21:21.25	171.64	26.84	-41.8	-45.4	12.9	5.18e-05	0	62	0	978321408	55	5371
2026-01-27 23:21:22.26	171.75	26.68	-41.8	-45.3	12.9	4.42e-05	0	62	0	979369984	55	5337
2026-01-27 23:21:23.27	171.87	26.52	-41.7	-45.3	12.9	4.50e-05	0	62	0	981467136	55	5308
2026-01-27 23:21:24.28	171.98	26.36	-41.7	-45.2	13.1	3.35e-05	0	62	0	983564288	55	5226
2026-01-27 23:21:25.29	172.09	26.20	-41.7	-45.2	13.1	2.67e-05	0	62	0	985661440	55	5238
2026-01-27 23:21:26.30	172.21	26.05	-41.5	-45.0	13.3	1.98e-05	0	62	0	987758592	55	5102
2026-01-27 23:21:27.31	172.32	25.89	-41.4	-44.8	13.5	1.37e-05	0	62	0	988807168	54	5283
2026-01-27 23:21:28.32	172.43	25.74	-41.4	-44.8	13.5	1.22e-05	0	62	0	990904320	54	5286
2026-01-27 23:21:29.33	172.54	25.58	-41.4	-44.7	13.6	3.80e-06	0	62	0	993001472	54	5232
2026-01-27 23:21:30.34	172.64	25.43	-41.2	-44.4	13.9	4.50e-06	0	62	0	995098624	54	5064
2026-01-27 23:21:31.35	172.75	25.27	-41.2	-44.3	14.0	3.80e-06	0	62	0	997195776	54	5007
2026-01-27 23:21:32.36	172.86	25.12	-41.0	-44.1	14.2	1.50e-06	0	62	0	999292928	54	4887
2026-01-27 23:21:33.38	172.96	24.97	-41.0	-44.0	14.2	2.20e-06	0	62	0	1000341504	54	4865
2026-01-27 23:21:34.38	173.06	24.82	-41.0	-44.1	14.1	3.00e-06	0	62	0	1002438656	54	4886
2026-01-27 23:21:35.39	173.17	24.67	-41.1	-44.2	14.1	7.00e-07	0	62	0	1004535808	54	4937
2026-01-27 23:21:36.40	173.27	24.52	-41.2	-44.4	13.8	5.30e-06	0	62	0	1006632960	54	5082
2026-01-27 23:21:37.41	173.37	24.37	-41.3	-44.5	13.7	3.80e-06	0	62	0	1008730112	54	5148
2026-01-27 23:21:38.42	173.47	24.22	-41.4	-44.7	13.5	9.10e-06	0	62	0	1009778688	54	5276
2026-01-27 23:21:39.43	173.57	24.08	-41.4	-44.9	13.3	2.21e-05	0	62	0	1011875840	54	5349
2026-01-27 23:21:40.44	173.67	23.93	-41.5	-45.1	13.1	1.83e-05	0	62	0	1013972992	54	5472
2026-01-27 23:21:41.45	173.76	23.79	-41.5	-44.9	13.2	2.82e-05	0	62	0	1016070144	54	5400
2026-01-27 23:21:42.46	173.86	23.64	-41.5	-45.0	13.2	2.67e-05	0	62	0	1018167296	54	5406
2026-01-27 23:21:43.47	173.96	23.50	-41.4	-44.9	13.3	1.75e-05	0	62	0	1019215872	54	5343
2026-01-27 23:21:44.49	174.05	23.35	-41.4	-44.8	13.4	1.37e-05	0	62	0	1021313024	54	5312
2026-01-27 23:21:45.50	174.15	23.21	-41.2	-44.5	13.7	1.22e-05	0	62	0	1023410176	54	5113
2026-01-27 23:21:46.51	174.24	23.07	-41.0	-44.2	14.0	5.30e-06	0	62	0	1025507328	54	4939
2026-01-27 23:21:47.52	174.33	22.93	-40.9	-43.9	14.2	7.00e-07	0	62	0	1027604480	53	5083
2026-01-27 23:21:48.53	174.42	22.79	-40.7	-43.7	14.5	1.50e-06	0	62	0	1028653056	53	4928
2026-01-27 23:21:49.54	174.51	22.65	-40.6	-43.4	14.8	0.00e+00	0	62	0	1030750208	53	4784
2026-01-27 23:21:50.55	174.60	22.51	-40.4	-43.2	14.9	0.00e+00	0	62	0	1032847360	52	4959
2026-01-27 23:21:51.56	174.69	22.37	-40.5	-43.2	14.9	0.00e+00	0	62	0	1034944512	52	4968
2026-01-27 23:21:52.57	174.78	22.23	-40.5	-43.3	14.9	0.00e+00	0	62	0	1037041664	52	4984
2026-01-27 23:21:53.57	174.87	22.10	-40.3	-43.1	15.1	0.00e+00	0	62	0	1038090240	52	4871
2026-01-27 23:21:54.59	174.96	21.96	-40.4	-43.2	14.9	0.00e+00	0	62	0	1040187392	52	4951
2026-01-27 23:21:55.60	175.04	21.82	-40.4	-43.1	15.0	0.00e+00	0	62	0	1042284544	52	4898
2026-01-27 23:21:56.61	175.13	21.69	-40.4	-43.2	15.0	0.00e+00	0	62	0	1044381696	52	4932
2026-01-27 23:21:57.61	175.21	21.55	-40.4	-43.2	14.9	0.00e+00	0	62	0	1046478848	52	4969
2026-01-27 23:21:58.62	175.30	21.42	-40.5	-43.3	14.8	0.00e+00	0	62	0	1047527424	52	5000
2026-01-27 23:21:59.63	175.38	21.29	-40.6	-43.4	14.7	0.00e+00	0	62	0	1049624576	52	5087
2026-01-27 23:22:00.64	175.46	21.15	-40.7	-43.6	14.5	0.00e+00	0	62	0	1051721728	52	5181
2026-01-27 23:22:01.65	175.55	21.02	-40.7	-43.7	14.4	7.00e-07	0	62	0	1053818880	52	5244
2026-01-27 23:22:02.66	175.63	20.89	-40.8	-43.9	14.2	2.20e-06	0	62	0	1055916032	52	5362
2026-01-27 23:22:03.67	175.71	20.76	-40.9	-44.0	14.1	1.50e-06	0	62	0	1056964608	52	5414
2026-01-27 23:22:04.68	175.79	20.63	-40.9	-44.0	14.0	2.20e-06	0	62	0	1059061760	52	5453
2026-01-27 23:22:05.69	175.87	20.50	-40.9	-44.0	14.1	2.20e-06	0	62	0	1061158912	52	5413
2026-01-27 23:22:06.70	175.95	20.37	-40.8	-43.8	14.2	7.00e-07	0	62	0	1063256064	52	5337
2026-01-27 23:22:07.71	176.02	20.24	-40.9	-44.0	14.1	0.00e+00	0	62	0	1065353216	52	5420
2026-01-27 23:22:08.72	176.10	20.12	-40.9	-44.0	14.1	2.20e-06	0	62	0	1067450368	52	5425
2026-01-27 23:22:09.73	176.18	19.99	-40.8	-43.8	14.3	0.00e+00	0	62	0	1068498944	52	5301
2026-01-27 23:22:10.74	176.26	19.86	-40.7	-43.7	14.3	3.00e-06	0	62	0	1070596096	52	5252
2026-01-27 23:22:11.75	176.33	19.74	-40.6	-43.6	14.4	7.00e-07	0	62	0	1072693248	52	5181
2026-01-27 23:22:12.76	176.41	19.61	-40.6	-43.5	14.5	7.00e-07	0	62	0	1074790400	52	5111
2026-01-27 23:22:13.77	176.48	19.49	-40.6	-43.5	14.6	7.00e-07	0	62	0	1076887552	52	5114
2026-01-27 23:22:14.78	176.55	19.36	-40.6	-43.5	14.5	0.00e+00	0	62	0	1077936128	52	5142
2026-01-27 23:22:15.80	176.63	19.24	-40.5	-43.4	14.6	7.00e-07	0	62	0	1080033280	52	5080
2026-01-27 23:22:16.81	176.70	19.12	-40.6	-43.5	14.6	0.00e+00	0	62	0	1082130432	52	5113
2026-01-27 23:22:17.82	176.77	18.99	-40.5	-43.3	14.7	0.00e+00	0	62	0	1084227584	52	5035
2026-01-27 23:22:18.83	176.85	18.87	-40.5	-43.3	14.7	0.00e+00	0	62	0	1086324736	52	5025
2026-01-27 23:22:19.84	176.92	18.75	-40.4	-43.2	14.8	0.00e+00	0	62	0	1087373312	52	4959
2026-01-27 23:22:20.85	176.99	18.63	-40.4	-43.2	14.8	0.00e+00	0	62	0	1089470464	52	4979
2026-01-27 23:22:21.86	177.06	18.51	-40.5	-43.4	14.6	7.00e-07	0	62	0	1091567616	52	5049
2026-01-27 23:22:22.87	177.13	18.39	-40.5	-43.4	14.6	0.00e+00	0	62	0	1093664768	52	5048
2026-01-27 23:22:23.88	177.20	18.27	-40.5	-43.3	14.7	0.00e+00	0	62	0	1095761920	52	5034
2026-01-27 23:22:24.89	177.27	18.15	-40.4	-43.3	14.7	0.00e+00	0	62	0	1096810496	52	5013
2026-01-27 23:22:25.90	177.33	18.04	-40.5	-43.4	14.6	0.00e+00	0	62	0	1098907648	52	5082
2026-01-27 23:22:26.91	177.40	17.92	-40.6	-43.5	14.5	0.00e+00	0	62	0	1101004800	52	5134
2026-01-27 23:22:27.92	177.47	17.80	-40.6	-43.6	14.4	0.00e+00	0	62	0	1103101952	52	5167
2026-01-27 23:22:28.92	177.53	17.69	-40.6	-43.5	14.4	0.00e+00	0	62	0	1105199104	52	5158
2026-01-27 23:22:29.93	177.60	17.57	-40.7	-43.7	14.3	7.00e-07	0	62	0	1107296256	52	5233
2026-01-27 23:22:30.94	177.67	17.46	-40.7	-43.7	14.3	1.50e-06	0	62	0	1108344832	52	5249
2026-01-27 23:22:31.95	177.73	17.34	-40.7	-43.8	14.2	1.50e-06	0	62	0	1110441984	52	5300
2026-01-27 23:22:32.96	177.80	17.23	-40.7	-43.8	14.2	2.20e-06	0	62	0	1112539136	52	5281
2026-01-27 23:22:33.97	177.86	17.11	-40.8	-43.8	14.1	2.20e-06	0	62	0	1114636288	52	5338
2026-01-27 23:22:34.98	177.92	17.00	-40.8	-43.9	14.0	7.00e-07	0	62	0	1116733440	52	5397
2026-01-27 23:22:35.99	177.99	16.89	-40.9	-44.0	13.9	2.20e-06	0	62	0	1117782016	52	5438
2026-01-27 23:22:37.00	178.05	16.77	-40.9	-44.0	13.9	3.00e-06	0	62	0	1119879168	52	5454
2026-01-27 23:22:38.01	178.11	16.66	-40.8	-44.0	14.0	1.50e-06	0	62	0	1121976320	52	5416
2026-01-27 23:22:39.02	178.18	16.55	-40.8	-43.9	14.0	6.80e-06	0	62	0	1124073472	52	5386
2026-01-27 23:22:40.03	178.24	16.44	-40.8	-43.9	14.0	3.00e-06	0	62	0	1126170624	52	5400
2026-01-27 23:22:41.04	178.30	16.33	-40.8	-44.0	14.0	7.00e-07	0	62	0	1127219200	52	5408
2026-01-27 23:22:42.05	178.36	16.22	-40.8	-43.9	14.0	4.50e-06	0	62	0	1129316352	52	5402
2026-01-27 23:22:43.06	178.42	16.11	-40.9	-44.1	13.8	2.20e-06	0	62	0	1131413504	52	5474
2026-01-27 23:22:44.07	178.48	16.00	-40.9	-44.2	13.8	3.00e-06	0	62	0	1133510656	52	5536
2026-01-27 23:22:45.08	178.54	15.89	-40.9	-44.0	13.9	5.30e-06	0	62	0	1135607808	52	5449
2026-01-27 23:22:46.09	178.60	15.78	-40.9	-44.0	13.9	5.30e-06	0	62	0	1136656384	52	5461
2026-01-27 23:22:47.10	178.66	15.68	-40.8	-44.0	13.9	1.50e-06	0	62	0	1138753536	52	5414
2026-01-27 23:22:48.11	178.71	15.57	-40.9	-44.1	13.9	6.10e-06	0	62	0	1140850688	52	5479
2026-01-27 23:22:49.12	178.77	15.46	-40.9	-44.1	13.8	6.10e-06	0	62	0	1142947840	52	5491
2026-01-27 23:22:50.13	178.83	15.36	-40.9	-44.1	13.8	3.00e-06	0	62	0	1145044992	52	5514
2026-01-27 23:22:51.14	178.89	15.25	-41.0	-44.3	13.6	6.80e-06	0	62	0	1146093568	52	5603
2026-01-27 23:22:52.15	178.94	15.15	-41.0	-44.3	13.6	9.90e-06	0	62	0	1148190720	52	5653
2026-01-27 23:22:53.16	179.00	15.04	-41.0	-44.2	13.7	8.30e-06	0	62	0	1150287872	52	5580
2026-01-27 23:22:54.18	179.06	14.93	-41.1	-44.5	13.4	1.44e-05	0	62	0	1152385024	52	5778
2026-01-27 23:22:55.19	179.11	14.83	-41.1	-44.4	13.4	7.60e-06	0	62	0	1154482176	52	5706
2026-01-27 23:22:56.20	179.17	14.73	-41.1	-44.5	13.4	6.80e-06	0	62	0	1155530752	52	5762
2026-01-27 23:22:57.21	179.22	14.62	-41.2	-44.7	13.2	2.13e-05	0	62	0	1157627904	52	5890
2026-01-27 23:22:58.22	179.28	14.52	-41.1	-44.6	13.3	1.52e-05	0	62	0	1159725056	53	5474
