passes_logs/2026/01/27/R2.0S_Moscow/R2.0S_Moscow__20260127_130438_AQUA_rec.log

#Pass ID: 20260127_130438_AQUA
#Satellite: AQUA
#Configuration: AQUA
#almurnet v.1.7.20251203
#Start time: 2026-01-27 13:04:40

#Version: 2.2.20231116
#Station: R2.0S_Moscow
#Location: 37.707566 lon 55.798166 lat
#TLE: 1 27424U 02022A   26026.85810808  .00001813  00000+0  37258-3 0  9999
#TLE: 2 27424  98.4101 353.4861 0001866  64.3332 317.5249 14.61864179262622

#Time	Az	El	Level	Level2	SNR	BER	BlckErr	Temp	State	Recorded	gain1	gain2
2026-01-27 13:04:40.56	206.08	2.11	-44.9	-63.4	3.8	7.46e-01	0	52	0	0	61	30201
2026-01-27 13:04:41.56	206.16	2.17	-44.8	-63.4	3.8	7.48e-01	0	53	104	0	60	32009
2026-01-27 13:04:42.57	206.24	2.23	-44.8	-63.4	3.8	7.43e-01	0	53	104	0	60	31902
2026-01-27 13:04:43.58	206.32	2.29	-44.9	-63.4	3.8	7.43e-01	0	53	104	0	60	32011
2026-01-27 13:04:44.59	206.40	2.34	-44.8	-63.4	3.8	7.42e-01	0	53	104	0	60	32004
2026-01-27 13:04:45.60	206.49	2.40	-44.8	-63.4	3.8	7.41e-01	0	53	104	0	60	31960
2026-01-27 13:04:46.61	206.57	2.46	-44.8	-63.4	3.8	7.46e-01	0	53	104	0	60	32039
2026-01-27 13:04:47.62	206.65	2.52	-44.8	-63.4	3.8	7.49e-01	0	53	104	0	60	32010
2026-01-27 13:04:48.63	206.73	2.58	-44.8	-63.4	3.8	7.44e-01	0	53	104	0	60	31953
2026-01-27 13:04:49.64	206.81	2.64	-44.8	-63.4	3.8	7.46e-01	0	54	104	0	60	31967
2026-01-27 13:04:50.65	206.90	2.70	-44.8	-63.4	3.8	7.44e-01	0	54	104	0	60	31978
2026-01-27 13:04:51.66	206.98	2.76	-44.8	-63.4	3.8	7.46e-01	0	54	104	0	60	31969
2026-01-27 13:04:52.67	207.06	2.82	-44.8	-63.4	3.8	7.45e-01	0	54	104	0	60	32016
2026-01-27 13:04:53.68	207.15	2.88	-44.8	-63.4	3.8	7.46e-01	0	54	104	0	60	31889
2026-01-27 13:04:54.69	207.23	2.94	-44.7	-63.4	3.8	7.46e-01	0	54	104	0	60	31985
2026-01-27 13:04:55.70	207.31	3.00	-44.8	-63.4	3.8	7.46e-01	0	54	104	0	60	31968
2026-01-27 13:04:56.71	207.40	3.05	-44.8	-63.4	3.8	7.44e-01	0	54	104	0	60	31887
2026-01-27 13:04:57.72	207.49	3.11	-44.8	-63.4	3.8	7.47e-01	0	54	104	0	60	31963
2026-01-27 13:04:58.73	207.57	3.17	-44.8	-63.4	3.8	7.44e-01	0	54	104	0	60	31958
2026-01-27 13:04:59.74	207.66	3.23	-44.8	-63.4	3.8	7.46e-01	0	54	104	0	60	31886
2026-01-27 13:05:00.75	207.74	3.29	-44.8	-63.4	3.8	7.45e-01	0	54	104	0	60	31927
2026-01-27 13:05:01.76	207.83	3.36	-44.8	-63.4	3.8	7.46e-01	0	54	104	0	60	31943
2026-01-27 13:05:02.77	207.92	3.42	-44.8	-63.4	3.8	7.47e-01	0	54	104	0	60	31871
2026-01-27 13:05:03.78	208.00	3.48	-44.8	-63.4	3.8	7.45e-01	0	55	104	0	60	31913
2026-01-27 13:05:04.79	208.09	3.54	-44.8	-63.4	3.8	7.45e-01	0	55	104	0	60	31888
2026-01-27 13:05:05.80	208.18	3.60	-44.8	-63.4	3.8	7.42e-01	0	54	104	0	60	31928
2026-01-27 13:05:06.81	208.27	3.66	-44.8	-63.4	3.8	7.43e-01	0	55	104	0	60	31893
2026-01-27 13:05:07.82	208.36	3.72	-44.8	-63.4	3.8	7.42e-01	0	55	104	0	60	31982
2026-01-27 13:05:08.83	208.45	3.78	-44.8	-63.4	3.8	7.44e-01	0	55	104	0	60	31971
2026-01-27 13:05:09.84	208.54	3.84	-44.8	-63.4	3.8	7.49e-01	0	55	104	0	60	31973
2026-01-27 13:05:10.85	208.63	3.90	-44.8	-63.4	3.8	7.44e-01	0	55	104	0	60	31954
2026-01-27 13:05:11.86	208.72	3.96	-44.8	-63.4	3.8	7.45e-01	0	55	104	0	60	31899
2026-01-27 13:05:12.88	208.81	4.02	-44.8	-63.4	3.8	7.45e-01	0	55	104	0	60	31900
2026-01-27 13:05:13.89	208.90	4.09	-44.8	-63.4	3.8	7.44e-01	0	55	104	0	60	31826
2026-01-27 13:05:14.90	208.99	4.15	-44.8	-63.4	3.8	7.41e-01	0	55	104	0	60	31839
2026-01-27 13:05:15.91	209.09	4.21	-44.8	-63.4	3.8	7.44e-01	0	55	104	0	60	31834
2026-01-27 13:05:16.92	209.18	4.27	-44.8	-63.4	3.8	7.43e-01	0	55	104	0	60	31859
2026-01-27 13:05:17.93	209.27	4.33	-44.8	-63.3	3.8	7.44e-01	0	56	104	0	60	31778
2026-01-27 13:05:18.94	209.36	4.39	-44.8	-63.4	3.8	7.48e-01	0	56	104	0	60	31824
2026-01-27 13:05:19.95	209.46	4.46	-44.8	-63.3	3.8	7.44e-01	0	56	104	0	60	31692
2026-01-27 13:05:20.96	209.55	4.52	-44.8	-63.3	3.8	7.46e-01	0	55	104	0	60	31732
2026-01-27 13:05:21.97	209.65	4.58	-44.8	-63.3	3.8	7.43e-01	0	56	104	0	60	31683
2026-01-27 13:05:22.98	209.74	4.64	-44.8	-63.3	3.8	7.44e-01	0	56	104	0	60	31607
2026-01-27 13:05:23.99	209.84	4.71	-44.8	-63.3	3.8	7.46e-01	0	56	104	0	60	31699
2026-01-27 13:05:25.00	209.93	4.77	-44.8	-63.3	3.8	7.46e-01	0	56	104	0	60	31810
2026-01-27 13:05:26.01	210.03	4.83	-44.8	-63.3	3.8	7.46e-01	0	56	104	0	60	31810
2026-01-27 13:05:27.02	210.13	4.89	-44.8	-63.3	3.8	7.46e-01	0	56	104	0	60	31809
2026-01-27 13:05:28.03	210.22	4.96	-44.8	-63.3	3.8	7.44e-01	0	56	104	0	60	31653
2026-01-27 13:05:29.04	210.32	5.02	-44.8	-63.3	3.8	7.42e-01	0	56	104	0	60	31567
2026-01-27 13:05:30.05	210.42	5.08	-44.8	-63.3	3.8	7.47e-01	0	56	104	0	60	31712
2026-01-27 13:05:31.07	210.52	5.15	-44.8	-63.3	3.8	7.47e-01	0	56	104	0	60	31600
2026-01-27 13:05:32.08	210.62	5.21	-44.8	-63.3	3.8	7.46e-01	0	56	104	0	60	31753
2026-01-27 13:05:33.09	210.72	5.27	-44.8	-63.3	3.8	7.49e-01	0	56	104	0	60	31694
2026-01-27 13:05:34.10	210.82	5.34	-44.8	-63.3	3.8	7.45e-01	0	56	104	0	60	31591
2026-01-27 13:05:35.11	210.92	5.40	-44.8	-63.3	3.8	7.45e-01	0	56	104	0	60	31640
2026-01-27 13:05:36.12	211.02	5.46	-44.8	-63.2	3.8	7.47e-01	0	56	104	0	60	31263
2026-01-27 13:05:37.13	211.12	5.53	-44.8	-63.2	3.8	7.45e-01	0	56	104	0	60	31089
2026-01-27 13:05:38.14	211.22	5.59	-44.8	-63.1	3.8	7.47e-01	0	56	104	0	60	30810
2026-01-27 13:05:39.15	211.33	5.66	-44.8	-63.0	3.8	7.45e-01	0	57	104	0	60	30439
2026-01-27 13:05:40.16	211.43	5.72	-44.8	-62.5	3.8	7.48e-01	0	57	104	0	60	28950
2026-01-27 13:05:41.17	211.53	5.78	-44.8	-62.1	3.8	7.44e-01	0	57	104	0	60	27599
2026-01-27 13:05:42.18	211.64	5.85	-44.8	-61.8	3.8	7.41e-01	0	57	104	0	60	26622
2026-01-27 13:05:43.19	211.74	5.91	-44.8	-61.0	4.0	7.41e-01	0	57	104	0	60	24396
2026-01-27 13:05:44.20	211.85	5.98	-44.7	-61.0	3.9	7.44e-01	0	57	104	0	60	24204
2026-01-27 13:05:45.21	211.95	6.04	-44.7	-60.2	4.1	7.37e-01	0	57	104	0	60	22175
2026-01-27 13:05:46.22	212.06	6.11	-44.7	-59.8	4.0	7.35e-01	0	57	104	0	60	21061
2026-01-27 13:05:47.23	212.16	6.17	-44.7	-58.8	4.5	7.24e-01	0	57	104	0	60	18905
2026-01-27 13:05:48.24	212.27	6.24	-44.7	-58.6	4.1	7.27e-01	0	57	104	0	60	18454
2026-01-27 13:05:49.25	212.38	6.30	-44.6	-57.7	5.0	7.08e-01	3	57	104	0	60	16687
2026-01-27 13:05:50.26	212.48	6.37	-44.6	-57.0	5.4	6.96e-01	0	57	0	0	60	15284
2026-01-27 13:05:51.27	212.59	6.43	-44.5	-56.0	6.2	6.78e-01	92	57	0	1048576	60	13603
2026-01-27 13:05:52.28	212.70	6.50	-44.4	-55.2	6.8	6.65e-01	92	57	0	3145728	60	12492
2026-01-27 13:05:53.29	212.81	6.56	-44.4	-54.8	7.2	6.56e-01	90	57	0	5242880	60	11835
2026-01-27 13:05:54.30	212.92	6.63	-44.4	-54.7	7.3	6.57e-01	92	57	0	6815744	60	11733
2026-01-27 13:05:55.31	213.03	6.69	-44.3	-53.9	8.1	6.45e-01	70	57	0	8912896	60	10732
2026-01-27 13:05:56.32	213.14	6.76	-44.2	-53.5	8.5	6.39e-01	7	57	0	10485760	60	10207
2026-01-27 13:05:57.33	213.25	6.82	-44.1	-52.9	9.1	6.33e-01	0	57	0	12582912	60	9505
2026-01-27 13:05:58.34	213.36	6.89	-44.1	-52.8	9.2	6.30e-01	0	57	0	14680064	60	9496
2026-01-27 13:05:59.35	213.48	6.96	-44.1	-52.8	9.2	6.28e-01	0	57	0	16252928	60	9474
2026-01-27 13:06:00.36	213.59	7.02	-44.0	-52.4	9.6	6.26e-01	0	57	0	18350080	60	9063
2026-01-27 13:06:01.37	213.70	7.09	-44.0	-52.4	9.7	6.29e-01	0	58	0	20447232	60	9038
2026-01-27 13:06:02.38	213.82	7.16	-44.0	-52.2	9.8	6.26e-01	0	58	0	22020096	60	8801
2026-01-27 13:06:03.39	213.93	7.22	-44.3	-52.7	9.8	6.27e-01	0	57	0	24117248	59	9913
2026-01-27 13:06:04.40	214.05	7.29	-44.2	-52.5	10.0	6.26e-01	0	58	0	25690112	59	9623
2026-01-27 13:06:05.41	214.16	7.35	-44.1	-51.7	10.8	6.18e-01	0	58	0	27787264	59	8785
2026-01-27 13:06:06.42	214.28	7.42	-43.8	-50.6	12.0	6.12e-01	0	58	0	29884416	59	7730
2026-01-27 13:06:07.44	214.40	7.49	-43.7	-50.1	12.5	6.12e-01	0	58	0	31457280	59	7337
2026-01-27 13:06:08.45	214.51	7.56	-43.3	-49.1	13.5	6.10e-01	0	58	0	33554432	58	6922
2026-01-27 13:06:09.46	214.63	7.62	-43.1	-48.4	14.3	6.07e-01	0	58	0	35127296	58	6364
2026-01-27 13:06:10.47	214.75	7.69	-42.8	-47.7	15.0	6.06e-01	0	58	0	37224448	57	6222
2026-01-27 13:06:11.48	214.87	7.76	-42.7	-47.5	15.2	6.07e-01	0	58	0	39321600	57	6078
2026-01-27 13:06:12.49	214.99	7.82	-42.6	-47.2	15.4	6.07e-01	0	58	0	40894464	57	5919
2026-01-27 13:06:13.50	215.11	7.89	-42.6	-47.3	15.4	6.06e-01	0	58	0	42991616	57	5932
2026-01-27 13:06:14.51	215.23	7.96	-42.7	-47.5	15.2	6.08e-01	0	58	0	45088768	57	6093
2026-01-27 13:06:15.52	215.35	8.03	-43.0	-48.1	14.7	6.07e-01	0	58	0	46661632	57	6502
2026-01-27 13:06:16.53	215.47	8.10	-44.6	-53.6	10.9	6.26e-01	0	58	0	48758784	60	10407
2026-01-27 13:06:17.54	215.60	8.16	-43.5	-49.1	11.1	6.08e-01	0	58	0	49807360	59	6498
2026-01-27 13:06:18.55	215.72	8.23	-42.9	-48.8	11.5	6.11e-01	0	58	0	50331648	58	6710
2026-01-27 13:06:19.56	215.84	8.30	-42.9	-47.5	15.3	6.05e-01	0	58	0	51904512	57	6083
2026-01-27 13:06:20.57	215.97	8.37	-43.0	-47.8	15.5	6.08e-01	0	58	0	54001664	56	6683
2026-01-27 13:06:21.59	216.10	8.44	-43.0	-47.8	14.3	6.05e-01	0	58	104	54525952	58	5966
2026-01-27 13:06:22.59	216.22	8.50	-42.3	-46.2	16.7	6.05e-01	0	58	0	56098816	56	5575
2026-01-27 13:06:23.61	216.35	8.57	-42.3	-46.2	16.7	6.09e-01	0	58	0	58195968	56	5556
2026-01-27 13:06:24.62	216.47	8.64	-42.3	-46.2	16.8	6.06e-01	0	58	0	59768832	56	5529
2026-01-27 13:06:25.63	216.60	8.71	-42.3	-46.3	16.7	6.07e-01	0	58	0	61865984	56	5627
2026-01-27 13:06:26.63	216.73	8.78	-42.2	-46.1	16.9	6.07e-01	0	58	0	63963136	56	5504
2026-01-27 13:06:27.64	216.86	8.85	-42.4	-46.4	16.6	6.06e-01	0	58	0	65536000	56	5708
2026-01-27 13:06:28.65	216.99	8.92	-42.2	-46.0	17.0	6.07e-01	0	58	0	67633152	56	5436
2026-01-27 13:06:29.66	217.12	8.98	-42.2	-46.0	17.0	6.07e-01	0	59	0	69206016	56	5457
2026-01-27 13:06:30.67	217.25	9.05	-42.0	-45.7	17.3	6.06e-01	0	58	0	71303168	56	5261
2026-01-27 13:06:31.68	217.38	9.12	-42.1	-45.8	17.2	6.06e-01	0	58	0	73400320	56	5330
2026-01-27 13:06:32.69	217.51	9.19	-42.1	-45.8	17.2	6.09e-01	0	58	0	74973184	56	5306
2026-01-27 13:06:33.70	217.64	9.26	-42.1	-45.8	17.2	6.07e-01	0	58	0	77070336	56	5325
2026-01-27 13:06:34.71	217.78	9.33	-42.2	-45.9	17.1	6.07e-01	0	59	0	78643200	56	5392
2026-01-27 13:06:35.72	217.91	9.40	-42.1	-45.9	17.2	6.07e-01	0	59	0	80740352	56	5345
2026-01-27 13:06:36.73	218.05	9.47	-42.1	-45.9	17.2	6.08e-01	0	58	0	82837504	56	5345
2026-01-27 13:06:37.74	218.18	9.54	-42.0	-45.7	17.4	6.03e-01	0	59	0	84410368	56	5223
2026-01-27 13:06:38.75	218.32	9.61	-42.0	-45.7	17.4	6.05e-01	0	59	0	86507520	56	5219
2026-01-27 13:06:39.76	218.46	9.68	-42.0	-45.7	17.4	6.07e-01	0	59	0	88604672	56	5222
2026-01-27 13:06:40.77	218.59	9.75	-41.9	-45.6	17.4	6.04e-01	0	58	0	90177536	55	5466
2026-01-27 13:06:41.78	218.73	9.82	-42.0	-45.6	17.4	6.06e-01	0	59	0	92274688	55	5493
2026-01-27 13:06:42.79	218.87	9.89	-42.0	-45.7	17.3	6.06e-01	0	59	0	93847552	55	5592
2026-01-27 13:06:43.80	219.01	9.96	-42.0	-45.7	17.3	6.07e-01	0	59	0	95944704	55	5569
2026-01-27 13:06:44.81	219.15	10.03	-42.0	-45.7	17.3	6.06e-01	0	59	0	98041856	55	5573
2026-01-27 13:06:45.82	219.29	10.10	-42.0	-45.6	17.2	6.06e-01	0	59	0	99614720	55	5491
2026-01-27 13:06:46.83	219.43	10.17	-41.9	-45.4	17.6	6.05e-01	0	59	0	101711872	55	5387
2026-01-27 13:06:47.84	219.57	10.24	-41.9	-45.5	17.5	6.06e-01	0	59	0	103284736	55	5436
2026-01-27 13:06:48.85	219.72	10.31	-42.0	-45.6	17.4	6.06e-01	0	59	0	105381888	55	5523
2026-01-27 13:06:49.86	219.86	10.38	-42.0	-45.6	17.4	6.07e-01	0	59	0	107479040	55	5528
2026-01-27 13:06:50.87	220.01	10.45	-42.0	-45.6	17.4	6.07e-01	0	59	0	109051904	55	5506
2026-01-27 13:06:51.88	220.15	10.52	-42.0	-45.7	17.2	6.08e-01	0	59	0	111149056	55	5556
2026-01-27 13:06:52.89	220.30	10.60	-42.0	-45.6	17.4	6.08e-01	0	59	0	112721920	55	5488
2026-01-27 13:06:53.90	220.44	10.67	-41.9	-45.4	17.6	6.06e-01	0	59	0	114819072	55	5371
2026-01-27 13:06:54.91	220.59	10.74	-41.9	-45.5	17.6	6.06e-01	0	59	0	116916224	55	5417
2026-01-27 13:06:55.92	220.74	10.81	-42.0	-45.6	17.5	6.05e-01	0	59	0	118489088	55	5473
2026-01-27 13:06:56.93	220.89	10.88	-41.9	-45.4	17.7	6.05e-01	0	59	0	120586240	55	5351
2026-01-27 13:06:57.94	221.04	10.95	-41.9	-45.4	17.7	6.06e-01	0	59	0	122159104	55	5373
2026-01-27 13:06:58.95	221.19	11.02	-41.9	-45.3	17.9	6.08e-01	0	59	0	124256256	55	5297
2026-01-27 13:06:59.96	221.34	11.09	-41.8	-45.2	17.9	6.08e-01	0	59	0	126353408	55	5266
2026-01-27 13:07:00.97	221.49	11.16	-41.9	-45.4	17.7	6.04e-01	0	59	0	127926272	55	5378
2026-01-27 13:07:01.98	221.65	11.24	-41.9	-45.3	17.9	6.08e-01	0	59	0	130023424	55	5300
2026-01-27 13:07:02.99	221.80	11.31	-41.9	-45.3	17.8	6.06e-01	0	60	0	132120576	55	5335
2026-01-27 13:07:04.00	221.96	11.38	-41.9	-45.3	17.9	6.06e-01	0	59	0	133693440	55	5302
2026-01-27 13:07:05.01	222.11	11.45	-41.9	-45.4	17.8	6.06e-01	0	59	0	135790592	55	5348
2026-01-27 13:07:06.03	222.27	11.52	-41.9	-45.3	17.9	6.06e-01	0	59	0	137363456	55	5291
2026-01-27 13:07:07.04	222.42	11.60	-41.8	-45.1	18.1	6.07e-01	0	59	0	139460608	55	5184
2026-01-27 13:07:08.05	222.58	11.67	-41.8	-45.2	18.0	6.08e-01	0	59	0	141557760	55	5220
2026-01-27 13:07:09.05	222.74	11.74	-41.8	-45.1	18.1	6.05e-01	0	59	0	143130624	55	5208
2026-01-27 13:07:10.06	222.90	11.81	-41.9	-45.3	17.9	6.06e-01	0	59	0	145227776	55	5285
2026-01-27 13:07:11.07	223.06	11.88	-41.8	-45.1	18.1	6.06e-01	0	59	0	146800640	55	5217
2026-01-27 13:07:12.08	223.22	11.95	-41.8	-45.2	18.0	6.06e-01	0	60	0	148897792	55	5223
2026-01-27 13:07:13.09	223.38	12.03	-41.7	-45.0	18.2	6.06e-01	0	60	0	150994944	55	5138
2026-01-27 13:07:14.10	223.54	12.10	-41.7	-45.0	18.2	6.08e-01	0	60	0	152567808	55	5145
2026-01-27 13:07:15.11	223.71	12.17	-41.7	-45.0	18.2	6.05e-01	0	60	0	154664960	55	5154
2026-01-27 13:07:16.12	223.87	12.24	-41.8	-45.1	18.1	6.04e-01	0	59	0	156762112	55	5185
2026-01-27 13:07:17.13	224.04	12.32	-41.8	-45.0	18.2	6.08e-01	0	60	0	158334976	55	5159
2026-01-27 13:07:18.14	224.20	12.39	-41.7	-45.0	18.2	6.05e-01	0	60	0	160432128	55	5120
2026-01-27 13:07:19.15	224.37	12.46	-41.7	-45.0	18.2	6.06e-01	0	59	0	162004992	55	5152
2026-01-27 13:07:20.16	224.54	12.53	-41.7	-44.9	18.3	6.05e-01	0	59	0	164102144	55	5077
2026-01-27 13:07:21.17	224.71	12.60	-41.6	-44.9	18.3	6.09e-01	0	59	0	166199296	55	5060
2026-01-27 13:07:22.18	224.88	12.68	-41.7	-44.9	18.3	6.04e-01	0	60	0	167772160	55	5074
2026-01-27 13:07:23.19	225.05	12.75	-41.6	-44.9	18.4	6.07e-01	0	60	0	169869312	55	5043
2026-01-27 13:07:24.20	225.22	12.82	-41.6	-44.8	18.4	6.07e-01	0	60	0	171442176	55	5030
2026-01-27 13:07:25.21	225.39	12.89	-41.6	-44.8	18.4	6.05e-01	0	60	0	173539328	55	5021
2026-01-27 13:07:26.22	225.56	12.97	-41.6	-44.8	18.4	6.06e-01	0	60	0	175636480	55	5021
2026-01-27 13:07:27.23	225.74	13.04	-41.6	-44.7	18.5	6.09e-01	0	60	0	177209344	55	4959
2026-01-27 13:07:28.24	225.91	13.11	-41.6	-44.8	18.5	6.07e-01	0	60	0	179306496	55	4991
2026-01-27 13:07:29.25	226.09	13.18	-41.6	-44.8	18.4	6.05e-01	0	60	0	180879360	55	5039
2026-01-27 13:07:30.26	226.26	13.26	-41.6	-44.8	18.4	6.09e-01	0	60	0	182976512	55	5033
2026-01-27 13:07:31.27	226.44	13.33	-41.6	-44.8	18.4	6.07e-01	0	60	0	185073664	55	5027
2026-01-27 13:07:32.28	226.62	13.40	-41.6	-44.7	18.6	6.08e-01	0	60	0	186646528	55	4953
2026-01-27 13:07:33.29	226.80	13.47	-41.5	-44.6	18.6	6.05e-01	0	60	0	188743680	54	5192
2026-01-27 13:07:34.30	226.98	13.55	-41.5	-44.7	18.5	6.07e-01	0	60	0	190316544	54	5267
2026-01-27 13:07:35.31	227.16	13.62	-41.6	-44.7	18.5	6.07e-01	0	60	0	192413696	54	5268
2026-01-27 13:07:36.32	227.34	13.69	-41.6	-44.7	18.6	6.05e-01	0	60	0	194510848	54	5276
2026-01-27 13:07:37.33	227.52	13.76	-41.5	-44.7	18.6	6.05e-01	0	60	0	196083712	54	5227
2026-01-27 13:07:38.34	227.71	13.84	-41.6	-44.7	18.6	6.06e-01	0	60	0	198180864	54	5258
2026-01-27 13:07:39.35	227.89	13.91	-41.5	-44.5	18.8	6.06e-01	0	60	0	200278016	54	5156
2026-01-27 13:07:40.36	228.08	13.98	-41.5	-44.6	18.6	6.07e-01	0	60	0	201850880	54	5218
2026-01-27 13:07:41.37	228.27	14.05	-41.5	-44.6	18.7	6.08e-01	0	60	0	203948032	54	5211
2026-01-27 13:07:42.38	228.45	14.13	-41.6	-44.7	18.6	6.07e-01	0	60	0	205520896	54	5257
2026-01-27 13:07:43.39	228.64	14.20	-41.7	-44.8	18.5	6.08e-01	0	60	0	207618048	54	5327
2026-01-27 13:07:44.40	228.83	14.27	-41.7	-44.9	18.4	6.06e-01	0	60	0	209715200	54	5365
2026-01-27 13:07:45.41	229.02	14.34	-41.6	-44.7	18.6	6.07e-01	0	60	0	211288064	54	5254
2026-01-27 13:07:46.42	229.21	14.41	-41.5	-44.6	18.7	6.05e-01	0	60	0	213385216	54	5210
2026-01-27 13:07:47.43	229.41	14.49	-41.6	-44.7	18.6	6.05e-01	0	60	0	214958080	54	5260
2026-01-27 13:07:48.44	229.60	14.56	-41.6	-44.8	18.5	6.07e-01	0	60	0	217055232	54	5325
2026-01-27 13:07:49.45	229.79	14.63	-41.6	-44.8	18.6	6.07e-01	0	60	0	219152384	54	5281
2026-01-27 13:07:50.46	229.99	14.70	-41.6	-44.8	18.5	6.08e-01	0	60	0	220725248	54	5316
2026-01-27 13:07:51.47	230.19	14.77	-41.6	-44.7	18.7	6.06e-01	0	60	0	222822400	54	5224
2026-01-27 13:07:52.48	230.38	14.85	-41.5	-44.5	18.8	6.08e-01	0	60	0	224919552	54	5157
2026-01-27 13:07:53.49	230.58	14.92	-41.6	-44.7	18.7	6.05e-01	0	60	0	226492416	54	5229
2026-01-27 13:07:54.50	230.78	14.99	-41.5	-44.6	18.8	6.05e-01	0	60	0	228589568	54	5176
2026-01-27 13:07:55.51	230.98	15.06	-41.6	-44.6	18.7	6.06e-01	0	60	0	230162432	54	5217
2026-01-27 13:07:56.52	231.18	15.13	-41.5	-44.6	18.8	6.06e-01	0	60	0	232259584	54	5176
2026-01-27 13:07:57.53	231.38	15.20	-41.5	-44.5	18.8	6.07e-01	0	60	0	234356736	54	5148
2026-01-27 13:07:58.54	231.59	15.27	-41.5	-44.5	18.9	6.07e-01	0	60	0	235929600	54	5114
2026-01-27 13:07:59.55	231.79	15.35	-41.5	-44.6	18.8	6.08e-01	0	60	0	238026752	54	5163
2026-01-27 13:08:00.56	232.00	15.42	-41.5	-44.6	18.8	6.06e-01	0	60	0	240123904	54	5170
2026-01-27 13:08:01.57	232.20	15.49	-41.5	-44.6	18.8	6.05e-01	0	60	0	241696768	54	5170
2026-01-27 13:08:02.58	232.41	15.56	-41.4	-44.4	19.0	6.08e-01	0	60	0	243793920	54	5067
2026-01-27 13:08:03.59	232.62	15.63	-41.4	-44.4	19.0	6.08e-01	0	60	0	245366784	54	5069
2026-01-27 13:08:04.61	232.83	15.70	-41.4	-44.4	19.0	6.05e-01	0	60	0	247463936	54	5061
2026-01-27 13:08:05.62	233.04	15.77	-41.5	-44.5	18.9	6.06e-01	0	60	0	249561088	54	5131
2026-01-27 13:08:06.63	233.25	15.84	-41.5	-44.5	18.9	6.08e-01	0	60	0	251133952	54	5158
2026-01-27 13:08:07.64	233.47	15.91	-41.4	-44.4	19.0	6.04e-01	0	60	0	253231104	54	5078
2026-01-27 13:08:08.65	233.68	15.98	-41.4	-44.4	19.0	6.07e-01	0	60	0	254803968	54	5067
2026-01-27 13:08:09.66	233.90	16.05	-41.4	-44.4	19.0	6.05e-01	0	60	0	256901120	54	5068
2026-01-27 13:08:10.67	234.11	16.12	-41.5	-44.5	18.9	6.08e-01	0	60	0	258998272	54	5114
2026-01-27 13:08:11.68	234.33	16.19	-41.4	-44.5	19.0	6.06e-01	0	60	0	260571136	54	5107
2026-01-27 13:08:12.69	234.55	16.26	-41.5	-44.5	18.9	6.05e-01	0	60	0	262668288	54	5123
2026-01-27 13:08:13.70	234.76	16.33	-41.5	-44.5	19.0	6.06e-01	0	60	0	264241152	54	5105
2026-01-27 13:08:14.71	234.98	16.40	-41.3	-44.3	19.2	6.08e-01	0	60	0	266338304	54	4994
2026-01-27 13:08:15.72	235.21	16.47	-41.4	-44.4	19.0	6.07e-01	0	60	0	268435456	54	5079
2026-01-27 13:08:16.73	235.43	16.54	-41.5	-44.5	18.9	6.06e-01	0	60	0	270008320	54	5153
2026-01-27 13:08:17.74	235.65	16.61	-41.5	-44.6	18.8	6.07e-01	0	60	0	272105472	54	5181
2026-01-27 13:08:18.75	235.87	16.68	-41.5	-44.5	18.9	6.04e-01	0	60	0	273678336	54	5157
2026-01-27 13:08:19.76	236.10	16.74	-41.5	-44.5	18.9	6.07e-01	0	60	0	275775488	54	5141
2026-01-27 13:08:20.77	236.33	16.81	-41.4	-44.4	19.1	6.07e-01	0	60	0	277872640	54	5064
2026-01-27 13:08:21.78	236.55	16.88	-41.5	-44.4	19.1	6.06e-01	0	60	0	279445504	54	5084
2026-01-27 13:08:22.79	236.78	16.95	-41.5	-44.5	19.0	6.05e-01	0	60	0	281542656	54	5131
2026-01-27 13:08:23.80	237.01	17.02	-41.5	-44.4	19.0	6.07e-01	0	60	0	283115520	54	5100
2026-01-27 13:08:24.81	237.24	17.08	-41.4	-44.3	19.2	6.07e-01	0	60	0	285212672	54	5018
2026-01-27 13:08:25.82	237.47	17.15	-41.4	-44.3	19.1	6.07e-01	0	61	0	287309824	54	5031
2026-01-27 13:08:26.83	237.71	17.22	-41.4	-44.4	19.1	6.04e-01	0	60	0	288882688	54	5042
2026-01-27 13:08:27.84	237.94	17.28	-41.5	-44.5	18.9	6.04e-01	0	60	0	290979840	54	5155
2026-01-27 13:08:28.85	238.17	17.35	-41.5	-44.5	19.0	6.04e-01	0	61	0	293076992	54	5123
2026-01-27 13:08:29.86	238.41	17.42	-41.4	-44.4	19.1	6.06e-01	0	61	0	294649856	54	5049
2026-01-27 13:08:30.87	238.65	17.48	-41.4	-44.4	19.1	6.05e-01	0	61	0	296747008	54	5070
2026-01-27 13:08:31.88	238.89	17.55	-41.5	-44.5	19.0	6.07e-01	0	60	0	298319872	54	5131
2026-01-27 13:08:32.89	239.12	17.61	-41.4	-44.4	19.1	6.05e-01	0	60	0	300417024	54	5063
2026-01-27 13:08:33.90	239.36	17.68	-41.4	-44.3	19.2	6.03e-01	0	60	0	302514176	54	5017
2026-01-27 13:08:34.91	239.61	17.74	-41.4	-44.4	19.1	6.07e-01	0	61	0	304087040	54	5049
2026-01-27 13:08:35.92	239.85	17.81	-41.5	-44.4	19.0	6.05e-01	0	61	0	306184192	54	5099
2026-01-27 13:08:36.93	240.09	17.87	-41.4	-44.4	19.1	6.08e-01	0	61	0	308281344	54	5062
2026-01-27 13:08:37.94	240.34	17.94	-41.5	-44.5	19.0	6.09e-01	0	61	0	309854208	54	5111
2026-01-27 13:08:38.95	240.58	18.00	-41.4	-44.4	19.1	6.08e-01	0	60	0	311951360	54	5061
2026-01-27 13:08:39.96	240.83	18.06	-41.5	-44.5	19.0	6.07e-01	0	60	0	313524224	54	5106
2026-01-27 13:08:40.97	241.08	18.13	-41.6	-44.6	18.9	6.08e-01	0	60	0	315621376	54	5184
2026-01-27 13:08:41.98	241.32	18.19	-41.5	-44.4	19.1	6.07e-01	0	60	0	317718528	54	5074
2026-01-27 13:08:42.99	241.57	18.25	-41.4	-44.4	19.1	6.06e-01	0	61	0	319291392	54	5043
2026-01-27 13:08:44.00	241.82	18.31	-41.5	-44.4	19.0	6.06e-01	0	60	0	321388544	54	5097
2026-01-27 13:08:45.01	242.08	18.38	-41.6	-44.6	18.9	6.05e-01	0	60	0	322961408	54	5177
2026-01-27 13:08:46.02	242.33	18.44	-41.6	-44.6	19.0	6.08e-01	0	60	0	325058560	54	5167
2026-01-27 13:08:47.03	242.58	18.50	-41.6	-44.6	18.9	6.07e-01	0	61	0	327155712	54	5193
2026-01-27 13:08:48.04	242.84	18.56	-41.6	-44.7	18.8	6.07e-01	0	61	0	328728576	54	5249
2026-01-27 13:08:49.05	243.09	18.62	-41.7	-44.8	18.7	6.06e-01	0	61	0	330825728	54	5325
2026-01-27 13:08:50.06	243.35	18.68	-41.6	-44.6	18.8	6.06e-01	0	61	0	332398592	54	5211
2026-01-27 13:08:51.06	243.61	18.74	-41.6	-44.6	18.9	6.07e-01	0	61	0	334495744	54	5173
2026-01-27 13:08:52.07	243.87	18.80	-41.5	-44.5	19.0	6.04e-01	0	61	0	336592896	54	5131
2026-01-27 13:08:53.08	244.13	18.86	-41.6	-44.6	19.0	6.06e-01	0	60	0	338165760	54	5165
2026-01-27 13:08:54.09	244.39	18.91	-41.6	-44.6	18.9	6.07e-01	0	61	0	340262912	54	5182
2026-01-27 13:08:55.10	244.65	18.97	-41.6	-44.6	19.0	6.06e-01	0	61	0	341835776	54	5161
2026-01-27 13:08:56.11	244.91	19.03	-41.5	-44.5	19.0	6.04e-01	0	61	0	343932928	54	5127
2026-01-27 13:08:57.12	245.18	19.09	-41.6	-44.6	18.9	6.09e-01	0	61	0	346030080	54	5185
2026-01-27 13:08:58.13	245.44	19.14	-41.6	-44.6	18.9	6.08e-01	0	61	0	347602944	54	5171
2026-01-27 13:08:59.14	245.71	19.20	-41.5	-44.5	19.0	6.08e-01	0	61	0	349700096	54	5141
2026-01-27 13:09:00.15	245.98	19.25	-41.5	-44.5	19.0	6.06e-01	0	61	0	351272960	54	5125
2026-01-27 13:09:01.16	246.24	19.31	-41.5	-44.5	19.0	6.05e-01	0	61	0	353370112	54	5136
2026-01-27 13:09:02.17	246.51	19.36	-41.5	-44.5	18.9	6.04e-01	0	61	0	355467264	54	5146
2026-01-27 13:09:03.18	246.78	19.42	-41.6	-44.6	18.9	6.06e-01	0	61	0	357040128	54	5204
2026-01-27 13:09:04.19	247.06	19.47	-41.6	-44.7	18.8	6.06e-01	0	61	0	359137280	54	5231
2026-01-27 13:09:05.20	247.33	19.53	-41.6	-44.7	18.8	6.05e-01	0	61	0	361234432	54	5230
2026-01-27 13:09:06.21	247.60	19.58	-41.6	-44.7	18.8	6.08e-01	0	61	0	362807296	54	5244
2026-01-27 13:09:07.22	247.88	19.63	-41.7	-44.8	18.7	6.08e-01	0	61	0	364904448	54	5304
2026-01-27 13:09:08.23	248.15	19.68	-41.7	-44.8	18.7	6.07e-01	0	61	0	366477312	54	5283
2026-01-27 13:09:09.24	248.43	19.74	-41.7	-44.7	18.8	6.06e-01	0	61	0	368574464	54	5268
2026-01-27 13:09:10.25	248.70	19.79	-41.8	-44.9	18.6	6.05e-01	0	61	0	370671616	54	5350
2026-01-27 13:09:11.26	248.98	19.84	-41.8	-44.9	18.6	6.05e-01	0	61	0	372244480	54	5388
2026-01-27 13:09:12.27	249.26	19.89	-41.6	-44.6	18.9	6.04e-01	0	61	0	374341632	54	5216
2026-01-27 13:09:13.28	249.54	19.94	-41.7	-44.7	18.8	6.05e-01	0	61	0	376438784	54	5273
2026-01-27 13:09:14.29	249.82	19.98	-41.7	-44.8	18.7	6.05e-01	0	61	0	378011648	54	5299
2026-01-27 13:09:15.30	250.10	20.03	-41.6	-44.6	18.9	6.08e-01	0	61	0	380108800	54	5203
2026-01-27 13:09:16.31	250.39	20.08	-41.6	-44.6	18.9	6.06e-01	0	61	0	381681664	54	5198
2026-01-27 13:09:17.31	250.67	20.13	-41.7	-44.7	18.8	6.05e-01	0	61	0	383778816	54	5260
2026-01-27 13:09:18.32	250.95	20.17	-41.8	-44.9	18.7	6.05e-01	0	61	0	385875968	54	5355
2026-01-27 13:09:19.33	251.24	20.22	-41.8	-44.9	18.6	6.05e-01	0	61	0	387448832	54	5393
2026-01-27 13:09:20.34	251.52	20.26	-41.7	-44.8	18.6	6.05e-01	0	61	0	389545984	54	5330
2026-01-27 13:09:21.35	251.81	20.31	-41.6	-44.6	18.9	6.07e-01	0	61	0	391118848	54	5173
2026-01-27 13:09:22.36	252.10	20.35	-41.7	-44.7	18.8	6.10e-01	0	61	0	393216000	54	5251
2026-01-27 13:09:23.38	252.39	20.40	-41.6	-44.6	18.9	6.05e-01	0	61	0	395313152	54	5213
2026-01-27 13:09:24.39	252.68	20.44	-41.8	-44.8	18.7	6.04e-01	0	61	0	396886016	54	5323
2026-01-27 13:09:25.40	252.97	20.48	-41.8	-44.9	18.6	6.05e-01	0	61	0	398983168	54	5371
2026-01-27 13:09:26.40	253.26	20.52	-41.8	-44.9	18.6	6.04e-01	0	61	0	400556032	54	5389
2026-01-27 13:09:27.41	253.55	20.56	-41.9	-45.1	18.4	6.07e-01	0	61	0	402653184	54	5481
2026-01-27 13:09:28.42	253.84	20.60	-41.8	-45.0	18.5	6.05e-01	0	61	0	404750336	54	5422
2026-01-27 13:09:29.43	254.14	20.64	-41.7	-44.8	18.7	6.06e-01	0	61	0	406323200	54	5331
2026-01-27 13:09:30.44	254.43	20.68	-41.7	-44.8	18.7	6.06e-01	0	61	0	408420352	54	5314
2026-01-27 13:09:31.46	254.73	20.72	-41.8	-44.9	18.7	6.07e-01	0	61	0	409993216	54	5342
2026-01-27 13:09:32.46	255.02	20.76	-41.7	-44.8	18.7	6.05e-01	0	61	0	412090368	54	5298
2026-01-27 13:09:33.47	255.32	20.80	-41.7	-44.7	18.8	6.05e-01	0	61	0	414187520	54	5273
2026-01-27 13:09:34.48	255.61	20.83	-41.7	-44.8	18.7	6.05e-01	0	61	0	415760384	54	5301
2026-01-27 13:09:35.50	255.92	20.87	-41.7	-44.8	18.7	6.05e-01	0	61	0	417857536	54	5326
2026-01-27 13:09:36.50	256.21	20.90	-41.6	-44.6	18.9	6.05e-01	0	61	0	419430400	54	5185
2026-01-27 13:09:37.51	256.51	20.94	-41.7	-44.8	18.7	6.05e-01	0	61	0	421527552	54	5312
2026-01-27 13:09:38.52	256.81	20.97	-41.8	-44.9	18.6	6.06e-01	0	61	0	423624704	54	5391
2026-01-27 13:09:39.53	257.11	21.00	-41.7	-44.8	18.7	6.05e-01	0	61	0	425197568	54	5319
2026-01-27 13:09:40.54	257.41	21.03	-41.7	-44.7	18.8	6.05e-01	0	61	0	427294720	54	5257
2026-01-27 13:09:41.55	257.71	21.07	-41.7	-44.8	18.7	6.07e-01	0	61	0	429391872	54	5303
2026-01-27 13:09:42.56	258.02	21.10	-41.7	-44.8	18.8	6.06e-01	0	61	0	430964736	54	5297
2026-01-27 13:09:43.57	258.32	21.13	-41.7	-44.7	18.8	6.07e-01	0	61	0	433061888	54	5266
2026-01-27 13:09:44.58	258.62	21.16	-41.8	-44.9	18.6	6.08e-01	0	61	0	434634752	54	5399
2026-01-27 13:09:45.60	258.93	21.18	-41.9	-45.1	18.4	6.06e-01	0	61	0	436731904	54	5488
2026-01-27 13:09:46.60	259.23	21.21	-41.9	-45.2	18.4	6.06e-01	0	61	0	438829056	54	5529
2026-01-27 13:09:47.61	259.54	21.24	-41.9	-45.1	18.5	6.04e-01	0	61	0	440401920	54	5499
2026-01-27 13:09:48.62	259.85	21.26	-41.7	-44.8	18.7	6.07e-01	0	61	0	442499072	54	5325
2026-01-27 13:09:49.63	260.15	21.29	-41.7	-44.7	18.8	6.07e-01	0	61	0	444596224	54	5262
2026-01-27 13:09:50.64	260.46	21.31	-41.8	-44.9	18.6	6.04e-01	0	61	0	446169088	54	5390
2026-01-27 13:09:51.65	260.77	21.34	-41.9	-45.0	18.5	6.08e-01	0	61	0	448266240	54	5440
2026-01-27 13:09:52.67	261.08	21.36	-41.8	-45.0	18.6	6.06e-01	0	61	0	449839104	54	5438
2026-01-27 13:09:53.67	261.38	21.38	-41.7	-44.8	18.7	6.07e-01	0	61	0	451936256	54	5314
2026-01-27 13:09:54.69	261.69	21.41	-41.7	-44.7	18.8	6.07e-01	0	61	0	454033408	54	5268
2026-01-27 13:09:55.70	262.00	21.43	-41.7	-44.7	18.8	6.07e-01	0	61	0	455606272	54	5279
2026-01-27 13:09:56.71	262.31	21.45	-41.7	-44.8	18.8	6.05e-01	0	61	0	457703424	54	5287
2026-01-27 13:09:57.72	262.62	21.46	-41.8	-44.9	18.7	6.06e-01	0	61	0	459276288	54	5347
2026-01-27 13:09:58.73	262.93	21.48	-41.8	-44.9	18.6	6.05e-01	0	61	0	461373440	54	5394
2026-01-27 13:09:59.74	263.24	21.50	-41.8	-44.9	18.6	6.06e-01	0	61	0	463470592	54	5393
2026-01-27 13:10:00.74	263.55	21.52	-41.8	-45.0	18.6	6.06e-01	0	61	0	465043456	54	5416
2026-01-27 13:10:01.75	263.86	21.53	-41.7	-44.8	18.7	6.06e-01	0	61	0	467140608	54	5330
2026-01-27 13:10:02.76	264.18	21.55	-41.7	-44.8	18.7	6.06e-01	0	61	0	469237760	54	5327
2026-01-27 13:10:03.77	264.49	21.56	-41.8	-45.0	18.6	6.05e-01	0	61	0	470810624	54	5423
2026-01-27 13:10:04.79	264.80	21.58	-41.8	-44.9	18.7	6.08e-01	0	61	0	472907776	54	5364
2026-01-27 13:10:05.80	265.12	21.59	-41.8	-45.0	18.6	6.06e-01	0	61	0	474480640	54	5438
2026-01-27 13:10:06.81	265.43	21.60	-41.8	-44.9	18.7	6.08e-01	0	61	0	476577792	54	5343
2026-01-27 13:10:07.82	265.74	21.61	-41.7	-44.8	18.7	6.06e-01	0	61	0	478674944	54	5317
2026-01-27 13:10:08.83	266.06	21.62	-41.8	-44.9	18.7	6.04e-01	0	61	0	480247808	54	5355
2026-01-27 13:10:09.84	266.37	21.63	-41.8	-44.9	18.7	6.08e-01	0	61	0	482344960	54	5371
2026-01-27 13:10:10.85	266.68	21.64	-41.8	-45.0	18.6	6.05e-01	0	61	0	483917824	54	5423
2026-01-27 13:10:11.85	266.99	21.65	-41.8	-45.0	18.6	6.06e-01	0	61	0	486014976	54	5419
2026-01-27 13:10:12.86	267.31	21.65	-41.8	-45.0	18.6	6.05e-01	0	61	0	488112128	54	5410
2026-01-27 13:10:13.87	267.62	21.66	-41.8	-45.0	18.6	6.06e-01	0	62	0	489684992	54	5413
2026-01-27 13:10:14.88	267.94	21.66	-41.8	-44.9	18.6	6.06e-01	0	61	0	491782144	54	5374
2026-01-27 13:10:15.89	268.25	21.67	-41.7	-44.7	18.8	6.05e-01	0	61	0	493355008	54	5264
2026-01-27 13:10:16.91	268.57	21.67	-41.7	-44.8	18.8	6.06e-01	0	61	0	495452160	54	5294
2026-01-27 13:10:17.92	268.88	21.67	-41.8	-44.9	18.7	6.08e-01	0	61	0	497549312	54	5344
2026-01-27 13:10:18.93	269.20	21.68	-41.9	-45.1	18.5	6.07e-01	0	61	0	499122176	54	5465
2026-01-27 13:10:19.94	269.51	21.68	-41.7	-44.8	18.7	6.06e-01	0	61	0	501219328	54	5313
2026-01-27 13:10:20.95	269.83	21.68	-41.8	-44.9	18.6	6.04e-01	0	61	0	502792192	54	5392
2026-01-27 13:10:21.96	270.14	21.68	-41.8	-45.0	18.5	6.05e-01	0	61	0	504889344	54	5434
2026-01-27 13:10:22.97	270.45	21.68	-41.8	-44.9	18.6	6.04e-01	0	61	0	506986496	54	5353
2026-01-27 13:10:23.98	270.77	21.67	-41.8	-45.0	18.5	6.04e-01	0	61	0	508559360	54	5404
2026-01-27 13:10:24.99	271.08	21.67	-41.8	-44.9	18.6	6.04e-01	0	61	0	510656512	54	5350
2026-01-27 13:10:26.00	271.40	21.67	-41.7	-44.8	18.7	6.05e-01	0	61	0	512753664	54	5314
2026-01-27 13:10:27.01	271.71	21.66	-41.7	-44.8	18.7	6.05e-01	0	61	0	514326528	54	5294
2026-01-27 13:10:28.02	272.03	21.65	-41.8	-44.9	18.7	6.06e-01	0	61	0	516423680	54	5341
2026-01-27 13:10:29.03	272.34	21.65	-41.8	-44.9	18.6	6.07e-01	0	61	0	517996544	54	5394
2026-01-27 13:10:30.04	272.65	21.64	-41.8	-44.9	18.5	6.05e-01	0	62	0	520093696	54	5388
2026-01-27 13:10:31.05	272.97	21.63	-41.7	-44.8	18.7	6.05e-01	0	61	0	522190848	54	5311
2026-01-27 13:10:32.06	273.28	21.62	-41.8	-44.9	18.7	6.06e-01	0	61	0	523763712	54	5359
2026-01-27 13:10:33.07	273.59	21.61	-41.7	-44.8	18.8	6.06e-01	0	61	0	525860864	54	5296
2026-01-27 13:10:34.08	273.91	21.60	-41.8	-45.0	18.6	6.05e-01	0	61	0	527433728	54	5415
2026-01-27 13:10:35.08	274.22	21.59	-41.8	-44.9	18.7	6.06e-01	0	61	0	529530880	54	5345
2026-01-27 13:10:36.10	274.53	21.58	-41.8	-44.8	18.7	6.06e-01	0	61	0	531628032	54	5334
2026-01-27 13:10:37.11	274.84	21.57	-41.8	-45.0	18.6	6.05e-01	0	61	0	533200896	54	5424
2026-01-27 13:10:38.12	275.16	21.55	-41.8	-44.9	18.7	6.06e-01	0	61	0	535298048	54	5345
2026-01-27 13:10:39.13	275.47	21.54	-41.6	-44.7	18.9	6.06e-01	0	61	0	537395200	54	5229
2026-01-27 13:10:40.14	275.78	21.52	-41.7	-44.8	18.7	6.04e-01	0	61	0	538968064	54	5322
2026-01-27 13:10:41.15	276.09	21.50	-41.8	-44.9	18.7	6.08e-01	0	61	0	541065216	54	5357
2026-01-27 13:10:42.16	276.40	21.49	-41.8	-44.9	18.6	6.07e-01	0	61	0	542638080	54	5371
2026-01-27 13:10:43.17	276.71	21.47	-41.7	-44.8	18.7	6.04e-01	0	61	0	544735232	54	5310
2026-01-27 13:10:44.18	277.02	21.45	-41.7	-44.8	18.7	6.06e-01	0	62	0	546832384	54	5302
2026-01-27 13:10:45.19	277.33	21.43	-41.7	-44.7	18.8	6.09e-01	0	61	0	548405248	54	5265
2026-01-27 13:10:46.20	277.64	21.41	-41.7	-44.8	18.7	6.04e-01	0	61	0	550502400	54	5294
2026-01-27 13:10:47.20	277.94	21.39	-41.8	-44.9	18.6	6.05e-01	0	62	0	552075264	54	5350
2026-01-27 13:10:48.21	278.25	21.37	-41.7	-44.7	18.7	6.04e-01	0	61	0	554172416	54	5270
2026-01-27 13:10:49.22	278.56	21.34	-41.7	-44.7	18.7	6.05e-01	0	61	0	556269568	54	5274
2026-01-27 13:10:50.23	278.87	21.32	-41.8	-44.9	18.5	6.05e-01	0	62	0	557842432	54	5360
2026-01-27 13:10:51.24	279.17	21.30	-41.7	-44.8	18.6	6.06e-01	0	61	0	559939584	54	5294
2026-01-27 13:10:52.25	279.48	21.27	-41.8	-44.9	18.5	6.06e-01	0	62	0	561512448	54	5357
2026-01-27 13:10:53.26	279.78	21.25	-41.8	-44.9	18.5	6.07e-01	0	62	0	563609600	54	5366
2026-01-27 13:10:54.27	280.09	21.22	-41.8	-44.9	18.5	6.05e-01	0	61	0	565706752	54	5360
2026-01-27 13:10:55.28	280.39	21.19	-41.8	-44.9	18.5	6.09e-01	0	62	0	567279616	54	5380
2026-01-27 13:10:56.29	280.70	21.16	-41.8	-44.9	18.6	6.08e-01	0	61	0	569376768	54	5343
2026-01-27 13:10:57.30	281.00	21.13	-41.7	-44.7	18.7	6.04e-01	0	61	0	570949632	54	5255
2026-01-27 13:10:58.31	281.30	21.10	-41.6	-44.7	18.8	6.05e-01	0	61	0	573046784	54	5246
2026-01-27 13:10:59.32	281.60	21.07	-41.7	-44.8	18.7	6.07e-01	0	61	0	575143936	54	5305
2026-01-27 13:11:00.33	281.91	21.04	-41.7	-44.8	18.6	6.05e-01	0	62	0	576716800	54	5333
2026-01-27 13:11:01.34	282.21	21.01	-41.7	-44.8	18.7	6.04e-01	0	62	0	578813952	54	5289
2026-01-27 13:11:02.35	282.51	20.98	-41.6	-44.7	18.8	6.05e-01	0	61	0	580911104	54	5222
2026-01-27 13:11:03.36	282.81	20.95	-41.6	-44.7	18.9	6.06e-01	0	61	0	582483968	54	5224
2026-01-27 13:11:04.37	283.10	20.91	-41.7	-44.9	18.6	6.06e-01	0	61	0	584581120	54	5341
2026-01-27 13:11:05.38	283.40	20.88	-41.7	-44.7	18.7	6.06e-01	0	62	0	586153984	54	5278
2026-01-27 13:11:06.39	283.70	20.84	-41.6	-44.6	18.9	6.06e-01	0	61	0	588251136	54	5195
2026-01-27 13:11:07.40	284.00	20.81	-41.7	-44.7	18.8	6.06e-01	0	61	0	590348288	54	5262
2026-01-27 13:11:08.41	284.29	20.77	-41.8	-44.9	18.6	6.06e-01	0	61	0	591921152	54	5370
2026-01-27 13:11:09.42	284.59	20.73	-41.8	-44.9	18.6	6.07e-01	0	61	0	594018304	54	5381
2026-01-27 13:11:10.43	284.88	20.69	-41.6	-44.7	18.9	6.07e-01	0	61	0	595591168	54	5228
2026-01-27 13:11:11.44	285.18	20.66	-41.6	-44.6	19.0	6.05e-01	0	62	0	597688320	54	5163
2026-01-27 13:11:12.45	285.47	20.62	-41.7	-44.7	18.8	6.05e-01	0	61	0	599785472	54	5275
2026-01-27 13:11:13.46	285.76	20.58	-41.7	-44.8	18.7	6.03e-01	0	61	0	601358336	54	5312
2026-01-27 13:11:14.47	286.05	20.54	-41.6	-44.7	18.8	6.04e-01	0	61	0	603455488	54	5256
2026-01-27 13:11:15.48	286.34	20.49	-41.6	-44.6	18.9	6.06e-01	0	61	0	605552640	54	5175
2026-01-27 13:11:16.49	286.63	20.45	-41.6	-44.6	18.9	6.05e-01	0	62	0	607125504	54	5173
2026-01-27 13:11:17.50	286.92	20.41	-41.7	-44.7	18.8	6.07e-01	0	62	0	609222656	54	5272
2026-01-27 13:11:18.51	287.21	20.37	-41.7	-44.8	18.7	6.07e-01	0	62	0	610795520	54	5334
2026-01-27 13:11:19.52	287.49	20.32	-41.8	-44.9	18.7	6.05e-01	0	62	0	612892672	54	5353
2026-01-27 13:11:20.53	287.78	20.28	-41.7	-44.8	18.8	6.07e-01	0	61	0	614989824	54	5285
2026-01-27 13:11:21.54	288.07	20.23	-41.6	-44.6	18.9	6.03e-01	0	62	0	616562688	54	5191
2026-01-27 13:11:22.55	288.35	20.19	-41.6	-44.7	18.8	6.07e-01	0	62	0	618659840	54	5232
2026-01-27 13:11:23.56	288.63	20.14	-41.6	-44.7	18.8	6.06e-01	0	62	0	620756992	54	5222
2026-01-27 13:11:24.57	288.92	20.10	-41.6	-44.6	18.9	6.04e-01	0	62	0	622329856	54	5178
2026-01-27 13:11:25.58	289.20	20.05	-41.7	-44.8	18.7	6.08e-01	0	61	0	624427008	54	5281
2026-01-27 13:11:26.59	289.48	20.00	-41.6	-44.7	18.8	6.07e-01	0	62	0	625999872	54	5234
2026-01-27 13:11:27.60	289.76	19.95	-41.6	-44.6	18.9	6.06e-01	0	62	0	628097024	54	5170
2026-01-27 13:11:28.61	290.04	19.90	-41.6	-44.7	18.8	6.06e-01	0	61	0	630194176	54	5222
2026-01-27 13:11:29.62	290.32	19.86	-41.7	-44.7	18.7	6.06e-01	0	61	0	631767040	54	5271
2026-01-27 13:11:30.63	290.59	19.81	-41.6	-44.7	18.7	6.06e-01	0	61	0	633864192	54	5255
2026-01-27 13:11:31.64	290.87	19.75	-41.7	-44.8	18.7	6.06e-01	0	61	0	635437056	54	5295
2026-01-27 13:11:32.65	291.15	19.70	-41.6	-44.7	18.8	6.08e-01	0	61	0	637534208	54	5238
2026-01-27 13:11:33.66	291.42	19.65	-41.6	-44.7	18.8	6.06e-01	0	61	0	639631360	54	5237
2026-01-27 13:11:34.67	291.69	19.60	-41.6	-44.6	18.1	6.05e-01	0	62	0	641204224	54	5186
2026-01-27 13:11:35.68	291.97	19.55	-41.6	-44.6	18.8	6.09e-01	0	61	0	643301376	54	5211
2026-01-27 13:11:36.69	292.24	19.50	-41.6	-44.6	18.8	6.08e-01	0	61	0	644874240	54	5188
2026-01-27 13:11:37.70	292.51	19.44	-41.5	-44.5	18.9	6.05e-01	0	61	0	646971392	54	5119
2026-01-27 13:11:38.71	292.78	19.39	-41.5	-44.5	18.8	6.07e-01	0	62	0	649068544	54	5155
2026-01-27 13:11:39.72	293.05	19.33	-41.5	-44.6	18.8	6.05e-01	0	61	0	650641408	54	5169
2026-01-27 13:11:40.73	293.31	19.28	-41.6	-44.7	18.7	6.08e-01	0	61	0	652738560	54	5220
2026-01-27 13:11:41.74	293.58	19.22	-41.5	-44.5	18.8	6.06e-01	0	62	0	654311424	54	5159
2026-01-27 13:11:42.75	293.84	19.17	-41.5	-44.5	18.8	6.08e-01	0	62	0	656408576	54	5138
2026-01-27 13:11:43.76	294.11	19.11	-41.5	-44.5	18.8	6.05e-01	0	62	0	658505728	54	5156
2026-01-27 13:11:44.77	294.37	19.06	-41.6	-44.6	18.7	6.07e-01	0	62	0	660078592	54	5191
2026-01-27 13:11:45.78	294.63	19.00	-41.6	-44.6	18.7	6.06e-01	0	62	0	662175744	54	5196
2026-01-27 13:11:46.79	294.90	18.94	-41.5	-44.5	18.8	6.06e-01	0	62	0	663748608	54	5152
2026-01-27 13:11:47.80	295.16	18.88	-41.5	-44.5	18.8	6.06e-01	0	61	0	665845760	54	5149
2026-01-27 13:11:48.81	295.42	18.83	-41.5	-44.4	18.9	6.07e-01	0	62	0	667942912	54	5098
2026-01-27 13:11:49.82	295.67	18.77	-41.4	-44.4	18.9	6.05e-01	0	61	0	669515776	54	5078
2026-01-27 13:11:50.83	295.93	18.71	-41.5	-44.5	18.8	6.05e-01	0	62	0	671612928	54	5108
2026-01-27 13:11:51.84	296.19	18.65	-41.5	-44.5	18.7	6.09e-01	0	62	0	673710080	54	5150
2026-01-27 13:11:52.85	296.44	18.59	-41.4	-44.4	18.9	6.07e-01	0	61	0	675282944	54	5098
2026-01-27 13:11:53.86	296.70	18.53	-41.5	-44.6	18.7	6.05e-01	0	62	0	677380096	54	5171
2026-01-27 13:11:54.87	296.95	18.47	-41.6	-44.7	18.6	6.05e-01	0	62	0	678952960	54	5231
2026-01-27 13:11:55.88	297.20	18.41	-41.5	-44.5	18.8	6.07e-01	0	62	0	681050112	54	5135
2026-01-27 13:11:56.89	297.45	18.35	-41.5	-44.5	18.8	6.07e-01	0	61	0	683147264	54	5146
2026-01-27 13:11:57.90	297.70	18.28	-41.4	-44.4	18.9	6.07e-01	0	61	0	684720128	54	5090
2026-01-27 13:11:58.91	297.95	18.22	-41.4	-44.4	19.0	6.07e-01	0	62	0	686817280	54	5062
2026-01-27 13:11:59.92	298.20	18.16	-41.4	-44.4	19.0	6.05e-01	0	61	0	688914432	54	5043
2026-01-27 13:12:00.93	298.45	18.10	-41.5	-44.5	18.9	6.06e-01	0	62	0	690487296	54	5119
2026-01-27 13:12:01.94	298.69	18.04	-41.5	-44.5	18.8	6.06e-01	0	62	0	692584448	54	5156
2026-01-27 13:12:02.95	298.94	17.97	-41.4	-44.5	18.9	6.06e-01	0	62	0	694157312	54	5116
2026-01-27 13:12:03.96	299.18	17.91	-41.4	-44.4	18.9	6.06e-01	0	61	0	696254464	54	5095
2026-01-27 13:12:04.97	299.42	17.85	-41.4	-44.5	18.9	6.04e-01	0	62	0	698351616	54	5104
2026-01-27 13:12:05.98	299.66	17.78	-41.4	-44.4	19.0	6.06e-01	0	61	0	699924480	54	5074
2026-01-27 13:12:06.99	299.90	17.72	-41.4	-44.4	19.0	6.06e-01	0	62	0	702021632	54	5067
2026-01-27 13:12:08.00	300.14	17.65	-41.4	-44.5	19.0	6.06e-01	0	62	0	703594496	54	5102
2026-01-27 13:12:09.01	300.38	17.59	-41.4	-44.4	19.0	6.09e-01	0	62	0	705691648	54	5092
2026-01-27 13:12:10.01	300.62	17.52	-41.4	-44.4	19.0	6.05e-01	0	62	0	707788800	54	5051
2026-01-27 13:12:11.03	300.85	17.46	-41.4	-44.3	19.1	6.06e-01	0	62	0	709361664	54	5035
2026-01-27 13:12:12.03	301.09	17.39	-41.4	-44.3	19.1	6.04e-01	0	62	0	711458816	54	5027
2026-01-27 13:12:13.05	301.32	17.33	-41.4	-44.4	19.0	6.07e-01	0	62	0	713031680	54	5090
2026-01-27 13:12:14.05	301.55	17.26	-41.5	-44.5	18.9	6.07e-01	0	62	0	715128832	54	5149
2026-01-27 13:12:15.06	301.79	17.19	-41.5	-44.5	18.9	6.07e-01	0	62	0	717225984	54	5149
2026-01-27 13:12:16.07	302.02	17.13	-41.4	-44.4	18.9	6.07e-01	0	62	0	718798848	54	5091
2026-01-27 13:12:17.08	302.25	17.06	-41.6	-54.1	3.9	7.44e-01	0	62	104	718798848	54	15432
2026-01-27 13:12:18.09	302.47	16.99	-41.6	-54.2	3.8	7.47e-01	0	62	104	718798848	54	15658
2026-01-27 13:12:19.10	302.70	16.93	-42.8	-56.1	3.8	7.45e-01	0	62	104	718798848	56	17292
2026-01-27 13:12:20.11	302.93	16.86	-43.1	-56.7	3.8	7.43e-01	0	62	104	718798848	57	17519
2026-01-27 13:12:21.12	303.15	16.79	-45.2	-62.2	3.8	7.41e-01	0	62	104	718798848	61	26279
2026-01-27 13:12:22.13	303.38	16.72	-45.4	-63.5	3.8	7.46e-01	0	62	104	718798848	61	30692
2026-01-27 13:12:23.14	303.60	16.66	-43.9	-58.2	3.9	7.44e-01	0	62	104	718798848	58	19764
2026-01-27 13:12:24.15	303.82	16.59	-42.2	-55.0	3.8	7.47e-01	0	62	104	718798848	56	15362
2026-01-27 13:12:25.16	304.04	16.52	-42.2	-54.8	3.9	7.41e-01	0	62	104	718798848	56	15049
2026-01-27 13:12:26.18	304.27	16.45	-42.1	-54.9	3.8	7.43e-01	0	62	104	718798848	56	15078
2026-01-27 13:12:27.18	304.48	16.38	-41.6	-54.2	3.8	7.45e-01	0	62	104	718798848	55	14710
2026-01-27 13:12:28.19	304.70	16.31	-43.6	-57.6	3.8	7.43e-01	0	62	104	718798848	58	18455
2026-01-27 13:12:29.20	304.92	16.25	-45.4	-63.5	3.8	7.46e-01	0	62	104	718798848	61	30534
2026-01-27 13:12:30.21	305.14	16.18	-42.5	-55.7	4.0	7.33e-01	0	62	104	718798848	57	15613
2026-01-27 13:12:31.22	305.35	16.11	-45.0	-61.5	3.8	7.44e-01	0	62	104	718798848	61	24336
2026-01-27 13:12:32.23	305.56	16.04	-42.1	-54.7	3.8	7.42e-01	0	62	104	718798848	56	14757
2026-01-27 13:12:33.24	305.78	15.97	-42.0	-54.5	3.9	7.48e-01	0	62	104	718798848	56	14508
2026-01-27 13:12:34.25	305.99	15.90	-42.0	-54.5	4.0	7.39e-01	0	62	104	718798848	56	14441
2026-01-27 13:12:35.26	306.20	15.83	-43.1	-56.7	3.8	7.49e-01	0	62	104	718798848	56	18668
2026-01-27 13:12:36.27	306.41	15.76	-42.6	-55.9	3.9	7.41e-01	0	62	104	718798848	57	15950
2026-01-27 13:12:37.28	306.62	15.69	-44.9	-61.2	3.9	7.45e-01	0	62	104	718798848	60	24936
2026-01-27 13:12:38.30	306.83	15.62	-45.1	-62.6	3.8	7.41e-01	0	62	104	718798848	61	27574
2026-01-27 13:12:39.31	307.03	15.55	-43.7	-57.9	3.8	7.42e-01	0	62	104	718798848	58	19067
2026-01-27 13:12:40.32	307.24	15.48	-42.2	-55.1	3.8	7.45e-01	0	62	104	718798848	56	15450
2026-01-27 13:12:41.33	307.44	15.41	-42.1	-54.7	3.8	7.46e-01	0	62	104	718798848	56	14829
2026-01-27 13:12:42.34	307.65	15.34	-42.3	-55.1	3.8	7.45e-01	0	62	104	718798848	56	15415
2026-01-27 13:12:43.35	307.85	15.27	-43.4	-57.1	3.8	7.46e-01	0	62	104	718798848	57	18382
2026-01-27 13:12:44.36	308.05	15.20	-42.3	-55.2	3.8	7.48e-01	0	62	104	718798848	56	15629
2026-01-27 13:12:45.37	308.25	15.12	-45.0	-62.1	3.9	7.43e-01	0	62	104	718798848	61	25908
2026-01-27 13:12:46.38	308.45	15.05	-42.0	-54.9	3.9	7.47e-01	0	62	104	718798848	56	15059
2026-01-27 13:12:47.39	308.65	14.98	-44.2	-59.4	3.9	7.45e-01	0	62	104	718798848	60	20188
2026-01-27 13:12:48.40	308.85	14.91	-42.0	-54.7	3.8	7.46e-01	0	62	104	718798848	56	14760
2026-01-27 13:12:49.41	309.05	14.84	-42.0	-54.7	3.8	7.45e-01	0	62	104	718798848	56	14727
2026-01-27 13:12:50.42	309.24	14.77	-41.8	-54.6	3.8	7.44e-01	0	62	104	718798848	55	15403
2026-01-27 13:12:51.43	309.44	14.70	-43.0	-56.6	3.8	7.45e-01	0	62	104	718798848	56	18464
2026-01-27 13:12:52.44	309.63	14.63	-42.1	-55.0	3.8	7.42e-01	0	62	104	718798848	56	15348
2026-01-27 13:12:53.44	309.82	14.56	-44.6	-60.1	3.9	7.43e-01	0	62	104	718798848	60	21953
2026-01-27 13:12:54.45	310.01	14.48	-43.7	-58.0	3.9	7.46e-01	0	62	104	718798848	59	18162
2026-01-27 13:12:55.46	310.20	14.41	-42.8	-56.0	3.9	7.44e-01	0	62	104	718798848	57	16186
2026-01-27 13:12:56.47	310.39	14.34	-41.8	-54.4	3.8	7.47e-01	0	62	104	718798848	55	15068
2026-01-27 13:12:57.48	310.58	14.27	-41.8	-54.4	3.8	7.48e-01	0	62	104	718798848	55	15203
2026-01-27 13:12:58.49	310.77	14.20	-42.0	-54.8	3.8	7.47e-01	0	62	104	718798848	55	15787
2026-01-27 13:12:59.50	310.96	14.13	-41.7	-54.4	3.8	7.44e-01	0	62	104	718798848	55	15107
2026-01-27 13:13:00.51	311.14	14.06	-42.5	-55.3	3.8	7.48e-01	0	62	104	718798848	56	15820
2026-01-27 13:13:01.52	311.33	13.98	-44.0	-59.2	3.9	7.41e-01	0	62	104	718798848	60	19675
2026-01-27 13:13:02.53	311.51	13.91	-42.1	-54.8	3.8	7.46e-01	0	62	104	718798848	56	15021
2026-01-27 13:13:03.54	311.70	13.84	-43.5	-57.4	3.9	7.44e-01	0	62	104	718798848	59	16969
2026-01-27 13:13:04.55	311.88	13.77	-42.1	-54.9	3.8	7.45e-01	0	62	104	718798848	56	15175
2026-01-27 13:13:05.56	312.06	13.70	-42.0	-54.8	3.8	7.43e-01	0	62	104	718798848	56	14940
2026-01-27 13:13:06.57	312.24	13.63	-42.7	-56.1	3.8	7.45e-01	0	62	104	718798848	56	17386
2026-01-27 13:13:07.58	312.42	13.55	-43.4	-57.6	3.8	7.48e-01	0	62	104	718798848	57	19402
2026-01-27 13:13:08.59	312.60	13.48	-42.5	-55.4	3.8	7.44e-01	0	62	104	718798848	56	16104
2026-01-27 13:13:09.60	312.78	13.41	-44.8	-61.2	3.8	7.50e-01	0	62	104	718798848	60	24899
2026-01-27 13:13:10.61	312.95	13.34	-42.0	-54.7	3.8	7.42e-01	0	62	104	718798848	56	14809
2026-01-27 13:13:11.62	313.13	13.27	-42.3	-55.2	3.9	7.44e-01	0	62	104	718798848	56	15746
2026-01-27 13:13:12.63	313.31	13.20	-41.9	-54.5	3.8	7.47e-01	0	62	104	718798848	55	15317
2026-01-27 13:13:13.64	313.48	13.12	-41.7	-54.4	3.8	7.43e-01	0	62	104	718798848	55	15073
2026-01-27 13:13:14.65	313.65	13.05	-42.3	-55.4	3.8	7.47e-01	0	62	104	718798848	55	17005
2026-01-27 13:13:15.65	313.82	12.98	-42.2	-55.0	3.8	7.45e-01	0	62	104	718798848	55	16272
2026-01-27 13:13:16.66	314.00	12.91	-44.3	-59.4	3.8	7.47e-01	0	62	104	718798848	59	21328
2026-01-27 13:13:17.67	314.17	12.84	-43.5	-57.8	3.9	7.43e-01	0	62	104	718798848	59	17765
2026-01-27 13:13:18.68	314.34	12.77	-43.3	-57.1	3.8	7.49e-01	0	62	104	718798848	57	18364
2026-01-27 13:13:19.70	314.51	12.69	-42.6	-55.6	3.8	7.43e-01	0	62	104	718798848	57	15555
2026-01-27 13:13:20.71	314.68	12.62	-42.1	-54.9	3.8	7.45e-01	0	62	104	718798848	56	15055
2026-01-27 13:13:21.72	314.84	12.55	-42.1	-54.9	3.8	7.43e-01	0	62	104	718798848	56	15102
2026-01-27 13:13:22.73	315.01	12.48	-42.8	-56.3	3.8	7.41e-01	0	62	104	718798848	56	17827
2026-01-27 13:13:23.74	315.18	12.41	-43.3	-57.3	3.8	7.45e-01	0	62	104	718798848	57	18902
2026-01-27 13:13:24.75	315.34	12.34	-43.7	-57.5	3.8	7.43e-01	0	62	104	718798848	57	19346
2026-01-27 13:13:25.76	315.50	12.26	-45.1	-62.8	3.7	7.46e-01	0	62	104	718798848	60	29811
2026-01-27 13:13:26.77	315.67	12.19	-42.6	-55.9	3.8	7.46e-01	0	62	104	718798848	55	17979
2026-01-27 13:13:27.77	315.83	12.12	-42.0	-54.9	3.8	7.46e-01	0	62	104	718798848	56	15074
2026-01-27 13:13:28.78	315.99	12.05	-42.1	-54.9	3.8	7.42e-01	0	62	104	718798848	56	15160
2026-01-27 13:13:29.79	316.15	11.98	-41.8	-54.6	3.8	7.44e-01	0	62	104	718798848	55	15533
2026-01-27 13:13:30.80	316.31	11.91	-42.0	-55.3	3.8	7.48e-01	0	62	104	718798848	55	16867
2026-01-27 13:13:31.81	316.47	11.84	-43.1	-57.0	3.8	7.43e-01	0	62	104	718798848	56	19188
2026-01-27 13:13:32.82	316.63	11.77	-44.7	-61.5	3.7	7.48e-01	0	62	104	718798848	60	25782
2026-01-27 13:13:33.83	316.78	11.69	-43.1	-57.2	3.8	7.43e-01	0	62	104	718798848	58	17593
2026-01-27 13:13:34.84	316.94	11.62	-43.3	-57.9	3.8	7.45e-01	0	62	104	718798848	57	20150
2026-01-27 13:13:35.85	317.10	11.55	-42.1	-55.0	3.8	7.45e-01	0	62	104	718798848	56	15261
2026-01-27 13:13:36.86	317.25	11.48	-42.0	-54.9	3.8	7.45e-01	0	62	104	718798848	56	15142
2026-01-27 13:13:37.87	317.41	11.41	-42.0	-54.8	3.8	7.46e-01	0	62	104	718798848	56	15028
2026-01-27 13:13:38.88	317.56	11.34	-43.6	-57.9	3.8	7.47e-01	0	62	104	718798848	57	20192
2026-01-27 13:13:39.89	317.71	11.27	-43.4	-57.6	3.8	7.44e-01	0	62	104	718798848	57	19405
2026-01-27 13:13:40.90	317.86	11.20	-44.4	-59.6	3.8	7.46e-01	0	62	104	718798848	59	21864
2026-01-27 13:13:41.91	318.02	11.13	-45.1	-63.3	3.8	7.42e-01	0	62	104	718798848	60	31796
2026-01-27 13:13:42.92	318.17	11.06	-43.7	-57.9	3.8	7.46e-01	0	62	104	718798848	57	20218
2026-01-27 13:13:43.93	318.32	10.99	-42.1	-54.9	3.8	7.44e-01	0	62	104	718798848	56	15070
2026-01-27 13:13:44.94	318.46	10.92	-42.1	-55.0	3.8	7.45e-01	0	62	104	718798848	56	15334
2026-01-27 13:13:45.95	318.61	10.85	-42.1	-55.0	3.8	7.43e-01	0	62	104	718798848	56	15372
2026-01-27 13:13:46.96	318.76	10.77	-43.7	-58.1	3.8	7.46e-01	0	62	104	718798848	57	20673
2026-01-27 13:13:47.97	318.91	10.70	-44.1	-59.0	3.8	7.47e-01	0	62	104	718798848	58	21601
2026-01-27 13:13:48.98	319.05	10.63	-45.1	-63.5	3.8	7.45e-01	0	62	104	718798848	60	32429
2026-01-27 13:13:49.99	319.20	10.56	-43.3	-57.5	3.8	7.47e-01	0	62	104	718798848	58	18172
2026-01-27 13:13:51.00	319.34	10.49	-44.8	-61.5	3.9	7.48e-01	0	62	104	718798848	60	25720
2026-01-27 13:13:52.01	319.49	10.42	-42.3	-55.3	3.8	7.46e-01	0	62	104	718798848	56	15779
2026-01-27 13:13:53.02	319.63	10.35	-42.4	-55.4	3.8	7.40e-01	0	62	104	718798848	56	16062
2026-01-27 13:13:54.03	319.77	10.28	-42.2	-55.2	3.8	7.42e-01	0	62	104	718798848	56	15719
2026-01-27 13:13:55.04	319.91	10.21	-42.8	-56.5	3.8	7.44e-01	0	62	104	718798848	56	18282
2026-01-27 13:13:56.05	320.05	10.15	-43.4	-57.8	3.8	7.47e-01	0	62	104	718798848	57	20033
2026-01-27 13:13:57.06	320.19	10.08	-44.8	-61.8	3.8	7.41e-01	0	62	104	718798848	60	26677
2026-01-27 13:13:58.07	320.33	10.01	-45.0	-63.4	3.8	7.48e-01	0	62	104	718798848	60	31901
2026-01-27 13:13:59.08	320.47	9.94	-44.1	-59.1	3.8	7.45e-01	0	62	104	718798848	58	21808
2026-01-27 13:14:00.09	320.61	9.87	-42.3	-55.3	3.8	7.43e-01	0	62	104	718798848	56	15931
2026-01-27 13:14:01.10	320.75	9.80	-42.3	-55.3	3.8	7.43e-01	0	62	104	718798848	56	15786
2026-01-27 13:14:02.11	320.89	9.73	-42.1	-55.0	3.8	7.44e-01	0	62	104	718798848	56	15304
2026-01-27 13:14:03.12	321.02	9.66	-43.1	-56.9	3.8	7.41e-01	0	62	104	718798848	57	17916
2026-01-27 13:14:04.13	321.16	9.59	-43.9	-58.7	3.8	7.40e-01	0	62	104	718798848	58	20963
2026-01-27 13:14:05.14	321.29	9.52	-45.0	-63.4	3.8	7.39e-01	0	62	104	718798848	60	32066
2026-01-27 13:14:06.15	321.43	9.45	-43.2	-57.2	3.8	7.40e-01	0	62	104	718798848	58	17659
2026-01-27 13:14:07.16	321.56	9.38	-44.7	-61.4	3.9	7.45e-01	0	62	104	718798848	60	25459
2026-01-27 13:14:08.17	321.69	9.32	-42.5	-55.8	3.8	7.44e-01	0	62	104	718798848	57	15825
2026-01-27 13:14:09.18	321.82	9.25	-42.3	-55.5	3.8	7.44e-01	0	62	104	718798848	56	16191
2026-01-27 13:14:10.19	321.96	9.18	-42.4	-55.6	3.8	7.45e-01	0	62	104	718798848	56	16464
2026-01-27 13:14:11.20	322.09	9.11	-43.7	-58.5	3.8	7.45e-01	0	62	104	718798848	57	21719
2026-01-27 13:14:12.21	322.22	9.04	-43.1	-57.3	3.9	7.42e-01	0	62	104	718798848	57	18774
2026-01-27 13:14:13.22	322.35	8.97	-44.5	-60.9	3.8	7.44e-01	0	62	104	718798848	60	24033
2026-01-27 13:14:14.23	322.47	8.90	-44.8	-62.8	3.8	7.43e-01	0	62	104	718798848	60	29952
2026-01-27 13:14:15.24	322.60	8.84	-44.0	-59.0	3.8	7.47e-01	0	62	104	718798848	58	21546
2026-01-27 13:14:16.25	322.73	8.77	-42.4	-55.6	3.8	7.46e-01	0	62	104	718798848	56	16479
2026-01-27 13:14:17.26	322.86	8.70	-42.3	-55.4	3.8	7.45e-01	0	62	104	718798848	56	16031
2026-01-27 13:14:18.27	322.98	8.63	-42.4	-55.5	3.8	7.44e-01	0	62	104	718798848	56	16314
2026-01-27 13:14:19.28	323.11	8.57	-42.7	-56.3	3.8	7.47e-01	0	62	104	718798848	56	17815
2026-01-27 13:14:20.29	323.24	8.50	-43.4	-57.7	3.9	7.46e-01	0	62	104	718798848	58	18637
2026-01-27 13:14:21.30	323.36	8.43	-44.7	-62.8	3.8	7.44e-01	0	62	104	718798848	60	29891
2026-01-27 13:14:22.31	323.48	8.36	-42.7	-56.4	3.8	7.44e-01	0	62	104	718798848	57	17017
2026-01-27 13:14:23.32	323.61	8.30	-44.2	-60.0	3.9	7.43e-01	0	62	104	718798848	60	21596
2026-01-27 13:14:24.33	323.73	8.23	-42.7	-56.1	3.8	7.45e-01	0	62	104	718798848	57	16503
2026-01-27 13:14:25.34	323.85	8.16	-42.7	-56.1	3.8	7.39e-01	0	62	104	718798848	57	16453
2026-01-27 13:14:26.35	323.97	8.09	-42.5	-55.9	3.8	7.46e-01	0	62	104	718798848	57	16078
2026-01-27 13:14:27.36	324.09	8.03	-42.9	-56.9	3.9	7.44e-01	0	62	104	718798848	57	18081
2026-01-27 13:14:28.37	324.22	7.96	-45.2	-63.5	3.8	7.45e-01	0	62	104	718798848	61	30655
2026-01-27 13:14:29.38	324.34	7.89	-45.6	-64.1	3.8	7.47e-01	0	62	104	718798848	61	32764
2026-01-27 13:14:30.39	324.45	7.83	-45.8	-64.4	3.8	7.44e-01	0	62	104	718798848	62	31991
2026-01-27 13:14:31.40	324.57	7.76	-46.0	-64.6	3.8	7.45e-01	0	62	104	718798848	62	32579
2026-01-27 13:14:32.41	324.69	7.69	-46.1	-64.7	3.8	7.48e-01	0	62	104	718798848	62	33084
2026-01-27 13:14:33.42	324.81	7.63	-46.2	-64.8	3.8	7.43e-01	0	62	104	718798848	62	33391
2026-01-27 13:14:34.43	324.93	7.56	-46.3	-64.8	3.8	7.45e-01	0	62	104	718798848	63	31730
2026-01-27 13:14:35.44	325.04	7.50	-46.3	-64.8	3.8	7.45e-01	0	62	104	718798848	63	31750
2026-01-27 13:14:36.46	325.16	7.43	-46.3	-64.8	3.8	7.48e-01	0	62	104	718798848	63	31764
2026-01-27 13:14:37.47	325.28	7.36	-46.2	-64.7	3.8	7.41e-01	0	62	104	718798848	63	31278
2026-01-27 13:14:38.48	325.39	7.30	-46.1	-64.7	3.8	7.47e-01	0	62	104	718798848	63	31282
2026-01-27 13:14:39.49	325.50	7.23	-45.2	-64.3	3.8	7.45e-01	0	62	104	718798848	62	31635
2026-01-27 13:14:40.50	325.62	7.17	-46.2	-64.7	3.8	7.42e-01	0	62	104	718798848	62	32999
2026-01-27 13:14:41.51	325.73	7.10	-46.2	-64.7	3.8	7.45e-01	0	62	104	718798848	62	33259
2026-01-27 13:14:42.52	325.84	7.04	-46.2	-64.7	3.8	7.47e-01	0	62	104	718798848	63	31097
2026-01-27 13:14:43.53	325.96	6.97	-46.1	-64.6	3.8	7.44e-01	0	62	104	718798848	63	31083
2026-01-27 13:14:44.54	326.07	6.90	-46.2	-64.6	3.8	7.44e-01	0	62	104	718798848	63	31057
2026-01-27 13:14:45.55	326.18	6.84	-46.2	-64.6	3.8	7.47e-01	0	62	104	718798848	63	31053
2026-01-27 13:14:46.56	326.29	6.77	-46.2	-64.7	3.8	7.42e-01	0	62	104	718798848	63	31110
2026-01-27 13:14:47.57	326.40	6.71	-46.2	-64.6	3.8	7.47e-01	0	62	104	718798848	63	30994
2026-01-27 13:14:48.58	326.51	6.64	-46.2	-64.6	3.8	7.45e-01	0	62	104	718798848	63	31066
2026-01-27 13:14:49.59	326.62	6.58	-46.2	-64.6	3.8	7.49e-01	0	62	104	718798848	63	31014
2026-01-27 13:14:50.60	326.73	6.52	-46.2	-64.7	3.8	7.48e-01	0	62	104	718798848	63	31105
2026-01-27 13:14:51.62	326.84	6.45	-46.2	-64.6	3.8	7.45e-01	0	62	104	718798848	63	31080
2026-01-27 13:14:52.63	326.94	6.39	-46.2	-64.6	3.8	7.45e-01	0	62	104	718798848	63	31048
2026-01-27 13:14:53.64	327.05	6.32	-46.2	-64.6	3.8	7.43e-01	0	62	104	718798848	63	31010
2026-01-27 13:14:54.65	327.16	6.26	-46.2	-64.6	3.8	7.47e-01	0	62	104	718798848	63	30993
2026-01-27 13:14:55.66	327.26	6.19	-46.2	-64.7	3.8	7.46e-01	0	62	104	718798848	63	31098
2026-01-27 13:14:56.67	327.37	6.13	-46.2	-64.6	3.8	7.47e-01	0	62	104	718798848	63	31019
2026-01-27 13:14:57.68	327.47	6.07	-46.1	-64.6	3.8	7.44e-01	0	62	104	718798848	63	30993
2026-01-27 13:14:58.69	327.58	6.00	-46.2	-64.6	3.8	7.45e-01	0	62	104	718798848	63	31047
2026-01-27 13:14:59.70	327.68	5.94	-46.1	-64.6	3.8	7.46e-01	0	62	104	718798848	63	31021
2026-01-27 13:15:00.71	327.79	5.87	-46.1	-64.6	3.8	7.44e-01	0	62	104	718798848	63	31019
2026-01-27 13:15:01.72	327.89	5.81	-46.1	-64.6	3.8	7.46e-01	0	62	104	718798848	63	30975
2026-01-27 13:15:02.73	327.99	5.75	-46.1	-64.6	3.8	7.47e-01	0	62	104	718798848	63	31017
2026-01-27 13:15:03.74	328.10	5.68	-46.1	-64.6	3.8	7.43e-01	0	62	104	718798848	63	31031
2026-01-27 13:15:04.75	328.20	5.62	-46.1	-64.6	3.8	7.47e-01	0	62	104	718798848	63	30973
2026-01-27 13:15:05.76	328.30	5.56	-46.1	-64.6	3.8	7.43e-01	0	62	104	718798848	63	30994
2026-01-27 13:15:06.77	328.40	5.49	-46.1	-64.6	3.8	7.44e-01	0	62	104	718798848	63	30994
2026-01-27 13:15:07.78	328.50	5.43	-46.1	-64.6	3.8	7.42e-01	0	62	104	718798848	63	31010
2026-01-27 13:15:08.79	328.60	5.37	-46.1	-64.6	3.8	7.47e-01	0	62	104	718798848	63	30956
2026-01-27 13:15:09.80	328.70	5.31	-46.1	-64.6	3.8	7.45e-01	0	62	104	718798848	63	30954
2026-01-27 13:15:10.81	328.80	5.24	-46.1	-64.6	3.8	7.45e-01	0	62	104	718798848	63	30946
2026-01-27 13:15:11.82	328.90	5.18	-46.1	-64.6	3.8	7.47e-01	0	62	104	718798848	63	30971
2026-01-27 13:15:12.83	329.00	5.12	-46.1	-64.6	3.8	7.44e-01	0	62	104	718798848	63	30991
2026-01-27 13:15:13.85	329.09	5.06	-46.1	-64.6	3.8	7.45e-01	0	62	104	718798848	63	30995
2026-01-27 13:15:14.86	329.19	4.99	-46.1	-64.6	3.8	7.47e-01	0	62	104	718798848	63	30927
2026-01-27 13:15:15.87	329.29	4.93	-46.1	-64.6	3.8	7.46e-01	0	62	104	718798848	62	32681
2026-01-27 13:15:16.88	329.39	4.87	-46.1	-64.6	3.8	7.43e-01	0	62	104	718798848	62	32738
2026-01-27 13:15:17.89	329.48	4.81	-46.0	-64.5	3.8	7.47e-01	0	62	104	718798848	62	32468
2026-01-27 13:15:18.90	329.58	4.75	-45.9	-64.5	3.8	7.46e-01	0	62	104	718798848	62	32454
2026-01-27 13:15:19.91	329.67	4.68	-46.1	-64.6	3.8	7.44e-01	0	62	104	718798848	62	32789
2026-01-27 13:15:20.92	329.77	4.62	-46.1	-64.6	3.8	7.45e-01	0	62	104	718798848	62	32729
2026-01-27 13:15:21.93	329.86	4.56	-46.0	-64.6	3.8	7.44e-01	0	62	104	718798848	62	32717
2026-01-27 13:15:22.94	329.96	4.50	-46.1	-64.6	3.8	7.46e-01	0	62	104	718798848	62	32746
2026-01-27 13:15:23.95	330.05	4.44	-46.1	-64.6	3.8	7.46e-01	0	62	104	718798848	62	32783
2026-01-27 13:15:24.96	330.14	4.38	-46.1	-64.6	3.8	7.45e-01	0	62	104	718798848	62	32789
2026-01-27 13:15:25.97	330.23	4.32	-46.1	-64.6	3.8	7.47e-01	0	62	104	718798848	62	32795
2026-01-27 13:15:26.98	330.33	4.26	-46.1	-64.6	3.8	7.43e-01	0	62	104	718798848	62	32732
2026-01-27 13:15:27.99	330.42	4.20	-46.1	-64.6	3.8	7.46e-01	0	62	104	718798848	62	32794
2026-01-27 13:15:29.00	330.51	4.13	-46.1	-64.6	3.8	7.44e-01	0	62	104	718798848	62	32816
2026-01-27 13:15:30.01	330.60	4.07	-46.1	-64.6	3.8	7.43e-01	0	62	104	718798848	62	32752
2026-01-27 13:15:31.02	330.69	4.01	-46.0	-64.6	3.8	7.49e-01	0	62	104	718798848	62	32679
2026-01-27 13:15:32.04	330.78	3.95	-46.1	-64.6	3.8	7.45e-01	0	62	104	718798848	62	32705
2026-01-27 13:15:33.05	330.87	3.89	-46.1	-64.6	3.8	7.45e-01	0	62	104	718798848	62	32743
2026-01-27 13:15:34.06	330.96	3.83	-45.8	-64.6	3.8	7.47e-01	0	62	104	718798848	62	32624
2026-01-27 13:15:35.07	331.05	3.77	-46.1	-64.6	3.8	7.45e-01	0	62	104	718798848	62	32790
2026-01-27 13:15:36.08	331.14	3.71	-46.1	-64.6	3.8	7.45e-01	0	62	104	718798848	62	32714
2026-01-27 13:15:37.09	331.23	3.65	-46.1	-64.6	3.8	7.46e-01	0	62	104	718798848	62	32773
2026-01-27 13:15:38.10	331.32	3.59	-46.1	-64.6	3.8	7.42e-01	0	62	104	718798848	62	32728
2026-01-27 13:15:39.11	331.41	3.53	-46.1	-64.6	3.8	7.42e-01	0	62	104	718798848	62	32724
2026-01-27 13:15:40.12	331.49	3.47	-46.0	-64.5	3.8	7.45e-01	0	62	104	718798848	62	32541
2026-01-27 13:15:41.13	331.58	3.41	-46.1	-64.6	3.8	7.45e-01	0	62	104	718798848	62	32743
2026-01-27 13:15:42.14	331.67	3.35	-46.1	-64.6	3.8	7.45e-01	0	62	104	718798848	62	32726
2026-01-27 13:15:43.15	331.75	3.29	-46.1	-64.6	3.8	7.45e-01	0	62	104	718798848	62	32735
2026-01-27 13:15:44.16	331.84	3.23	-46.1	-64.6	3.8	7.46e-01	0	62	104	718798848	62	32723
2026-01-27 13:15:45.18	331.93	3.17	-46.1	-64.6	3.8	7.43e-01	0	62	104	718798848	62	32732
2026-01-27 13:15:46.19	332.01	3.11	-46.1	-64.6	3.8	7.47e-01	0	62	104	718798848	62	32770
2026-01-27 13:15:47.20	332.10	3.06	-46.1	-64.6	3.8	7.44e-01	0	62	104	718798848	62	32700
2026-01-27 13:15:48.21	332.18	3.00	-46.1	-64.6	3.8	7.45e-01	0	62	104	718798848	62	32736
2026-01-27 13:15:49.22	332.27	2.94	-46.1	-64.6	3.8	7.45e-01	0	62	104	718798848	62	32745
2026-01-27 13:15:50.23	332.35	2.88	-46.1	-64.6	3.8	7.45e-01	0	62	104	718798848	62	32707
2026-01-27 13:15:51.24	332.43	2.82	-46.1	-64.6	3.8	7.49e-01	0	62	104	718798848	62	32650
2026-01-27 13:15:52.25	332.52	2.76	-46.1	-64.6	3.8	7.44e-01	0	62	104	718798848	62	32700
2026-01-27 13:15:53.26	332.60	2.70	-46.1	-64.6	3.8	7.51e-01	0	62	104	718798848	62	32672
2026-01-27 13:15:54.27	332.68	2.65	-46.1	-64.6	3.8	7.45e-01	0	62	104	718798848	62	32566
2026-01-27 13:15:55.28	332.76	2.59	-46.1	-64.6	3.8	7.43e-01	0	62	104	718798848	62	32633
2026-01-27 13:15:56.29	332.84	2.53	-46.1	-64.6	3.8	7.45e-01	0	62	104	718798848	62	32688
2026-01-27 13:15:57.30	332.93	2.47	-46.0	-64.6	3.8	7.48e-01	0	62	104	718798848	62	32632
2026-01-27 13:15:58.31	333.01	2.41	-46.1	-64.6	3.8	7.45e-01	0	62	104	718798848	62	32761
2026-01-27 13:15:59.32	333.09	2.35	-46.1	-64.6	3.8	7.47e-01	0	62	104	718798848	62	32689
2026-01-27 13:16:00.33	333.17	2.30	-46.0	-64.6	3.8	7.46e-01	0	62	104	718798848	62	32719
2026-01-27 13:16:01.34	333.25	2.24	-46.1	-64.6	3.8	7.42e-01	0	62	104	718798848	62	32753
2026-01-27 13:16:02.35	333.33	2.18	-45.9	-64.6	3.8	7.43e-01	0	62	104	718798848	62	32711
2026-01-27 13:16:03.37	333.41	2.12	-46.1	-64.6	3.8	7.47e-01	0	62	104	718798848	62	32710
2026-01-27 13:16:04.38	333.49	2.07	-46.1	-64.6	3.8	7.45e-01	0	62	104	718798848	62	32625
2026-01-27 13:16:05.38	333.57	2.01	-46.1	-64.6	3.8	7.46e-01	0	62	104	718798848	62	32747
2026-01-27 13:16:06.40	333.65	1.95	-46.1	-64.6	3.8	7.46e-01	0	62	104	718798848	62	32703

#Closed at: 2026-01-27 13:16:06
#Recorded file [718 MB]: D:/lorett/data/31039_260127_160440.dat