passes_logs/2026/01/27/R2.0S_Moscow/R2.0S_Moscow__20260127_074306_NOAA_20_JPSS-1_rec.log

#Pass ID: 20260127_074306_NOAA 20 (JPSS-1)
#Satellite: NOAA 20 (JPSS-1)
#Configuration: NOAA 20
#almurnet v.1.7.20251203
#Start time: 2026-01-27 07:43:08

#Version: 2.2.20231116
#Station: R2.0S_Moscow
#Location: 37.707566 lon 55.798166 lat
#TLE: 1 43013U 17073A   26026.81907703  .00000149  00000+0  91399-4 0  9998
#TLE: 2 43013  98.7647 327.6343 0000991  22.4130 337.7089 14.19540778424411

#Time	Az	El	Level	Level2	SNR	BER	BlckErr	Temp	State	Recorded	gain1	gain2
2026-01-27 07:43:08.00	95.18	2.06	-40.1	-54.7	3.8	1.49e+00	0	53	0	0	50	20877
2026-01-27 07:43:09.00	95.10	2.11	-40.1	-54.7	3.8	1.49e+00	0	54	104	0	50	20828
2026-01-27 07:43:10.01	95.01	2.16	-39.7	-54.6	3.8	1.49e+00	0	54	104	0	50	20582
2026-01-27 07:43:11.02	94.92	2.21	-39.4	-54.5	3.8	1.49e+00	0	54	104	0	50	20456
2026-01-27 07:43:12.03	94.84	2.26	-40.0	-54.7	3.8	1.49e+00	0	54	104	0	50	20810
2026-01-27 07:43:13.04	94.75	2.31	-40.2	-54.7	3.8	1.49e+00	0	54	104	0	50	20884
2026-01-27 07:43:14.05	94.66	2.36	-40.1	-54.7	3.8	1.49e+00	0	54	104	0	50	20895
2026-01-27 07:43:15.06	94.57	2.42	-40.2	-54.7	3.8	1.49e+00	0	54	104	0	50	20912
2026-01-27 07:43:16.07	94.48	2.47	-40.0	-54.7	3.8	1.49e+00	0	54	104	0	50	20865
2026-01-27 07:43:17.08	94.39	2.52	-40.2	-54.7	3.8	1.49e+00	0	54	104	0	50	20798
2026-01-27 07:43:18.09	94.30	2.57	-40.1	-54.7	3.8	1.49e+00	0	54	104	0	50	20840
2026-01-27 07:43:19.10	94.21	2.62	-40.1	-54.7	3.8	1.49e+00	0	54	104	0	50	20826
2026-01-27 07:43:20.11	94.12	2.67	-40.2	-54.7	3.8	1.49e+00	0	54	104	0	50	20913
2026-01-27 07:43:21.12	94.03	2.72	-39.6	-54.6	3.8	1.49e+00	0	54	104	0	50	20601
2026-01-27 07:43:22.14	93.94	2.77	-39.8	-54.6	3.8	1.49e+00	0	55	104	0	50	20609
2026-01-27 07:43:23.15	93.85	2.82	-40.1	-54.7	3.8	1.49e+00	0	54	104	0	50	20831
2026-01-27 07:43:24.16	93.76	2.88	-40.1	-54.7	3.8	1.49e+00	0	54	104	0	50	20866
2026-01-27 07:43:25.17	93.67	2.93	-39.7	-54.5	3.8	1.49e+00	0	55	104	0	50	20406
2026-01-27 07:43:26.18	93.57	2.98	-40.0	-54.6	3.8	1.49e+00	0	55	104	0	50	20739
2026-01-27 07:43:27.19	93.48	3.03	-39.9	-54.6	3.8	1.49e+00	0	55	104	0	50	20774
2026-01-27 07:43:28.20	93.39	3.08	-40.0	-54.7	3.8	1.49e+00	0	55	104	0	50	20777
2026-01-27 07:43:29.21	93.30	3.13	-40.0	-54.6	3.8	1.49e+00	0	55	104	0	50	20745
2026-01-27 07:43:30.22	93.20	3.18	-39.6	-54.6	3.8	1.49e+00	0	55	104	0	50	20558
2026-01-27 07:43:31.23	93.11	3.24	-40.0	-54.7	3.8	1.49e+00	0	55	104	0	50	20869
2026-01-27 07:43:32.24	93.01	3.29	-40.0	-54.7	3.8	1.49e+00	0	55	104	0	50	20834
2026-01-27 07:43:33.25	92.92	3.34	-40.1	-54.7	3.8	1.49e+00	0	55	104	0	50	20906
2026-01-27 07:43:34.26	92.82	3.39	-40.2	-54.7	3.8	1.49e+00	0	55	104	0	50	20868
2026-01-27 07:43:35.27	92.73	3.44	-40.1	-54.7	3.8	1.49e+00	0	55	104	0	50	20849
2026-01-27 07:43:36.28	92.63	3.49	-40.1	-54.7	3.8	1.49e+00	0	55	104	0	50	20819
2026-01-27 07:43:37.29	92.54	3.54	-39.8	-54.6	3.8	1.49e+00	0	55	104	0	50	20725
2026-01-27 07:43:38.30	92.44	3.60	-39.9	-54.6	3.8	1.49e+00	0	56	104	0	50	20732
2026-01-27 07:43:39.31	92.35	3.65	-40.2	-54.7	3.8	1.49e+00	0	55	104	0	50	20831
2026-01-27 07:43:40.32	92.25	3.70	-39.8	-54.6	3.8	1.49e+00	0	56	104	0	50	20615
2026-01-27 07:43:41.33	92.15	3.75	-39.7	-54.6	3.8	1.49e+00	0	55	104	0	50	20692
2026-01-27 07:43:42.34	92.05	3.80	-39.8	-54.6	3.8	1.49e+00	0	56	104	0	50	20696
2026-01-27 07:43:43.35	91.96	3.85	-40.1	-54.7	3.8	1.49e+00	0	56	104	0	50	20848
2026-01-27 07:43:44.37	91.86	3.91	-40.0	-54.7	3.8	1.49e+00	0	56	104	0	50	20801
2026-01-27 07:43:45.38	91.76	3.96	-40.1	-54.7	3.8	1.49e+00	0	56	104	0	50	20834
2026-01-27 07:43:46.39	91.66	4.01	-40.0	-54.6	3.8	1.49e+00	0	56	104	0	50	20754
2026-01-27 07:43:47.40	91.56	4.06	-40.1	-54.7	3.8	1.49e+00	0	56	104	0	50	20897
2026-01-27 07:43:48.41	91.46	4.11	-40.1	-54.7	3.8	1.49e+00	0	56	104	0	50	20877
2026-01-27 07:43:49.42	91.36	4.17	-40.0	-54.7	3.8	1.49e+00	0	56	104	0	50	20786
2026-01-27 07:43:50.43	91.26	4.22	-40.1	-54.7	3.8	1.49e+00	0	56	104	0	50	20867
2026-01-27 07:43:51.44	91.16	4.27	-40.1	-54.7	3.8	1.49e+00	0	56	104	0	50	20829
2026-01-27 07:43:52.45	91.06	4.32	-39.9	-54.6	3.8	1.49e+00	0	56	104	0	50	20744
2026-01-27 07:43:53.46	90.96	4.37	-40.1	-54.6	3.8	1.49e+00	0	56	104	0	50	20773
2026-01-27 07:43:54.47	90.85	4.42	-40.0	-54.6	3.8	1.49e+00	0	56	104	0	50	20735
2026-01-27 07:43:55.48	90.75	4.48	-39.8	-54.7	3.8	1.49e+00	0	56	104	0	50	20783
2026-01-27 07:43:56.49	90.65	4.53	-39.7	-54.5	3.8	1.49e+00	0	57	104	0	50	20519
2026-01-27 07:43:57.51	90.54	4.58	-40.1	-54.7	3.8	1.49e+00	0	57	104	0	50	20830
2026-01-27 07:43:58.52	90.44	4.63	-40.0	-54.6	3.8	1.49e+00	0	56	104	0	50	20739
2026-01-27 07:43:59.53	90.34	4.69	-39.5	-54.6	3.8	1.49e+00	0	57	104	0	50	20554
2026-01-27 07:44:00.54	90.23	4.74	-39.8	-54.6	3.8	1.49e+00	0	57	104	0	50	20577
2026-01-27 07:44:01.55	90.13	4.79	-39.9	-54.6	3.8	1.49e+00	0	57	104	0	50	20643
2026-01-27 07:44:02.56	90.02	4.84	-40.1	-54.6	3.8	1.49e+00	0	57	104	0	50	20768
2026-01-27 07:44:03.57	89.92	4.89	-40.1	-54.7	3.8	1.49e+00	0	57	104	0	50	20853
2026-01-27 07:44:04.58	89.81	4.95	-40.1	-54.7	3.8	1.49e+00	0	57	104	0	50	20820
2026-01-27 07:44:05.59	89.71	5.00	-39.7	-54.6	3.8	1.49e+00	0	57	104	0	50	20572
2026-01-27 07:44:06.59	89.60	5.05	-39.6	-54.5	3.8	1.49e+00	0	57	104	0	50	20517
2026-01-27 07:44:07.61	89.49	5.10	-40.0	-54.6	3.8	1.49e+00	0	57	104	0	50	20730
2026-01-27 07:44:08.62	89.39	5.15	-39.9	-54.6	3.8	1.49e+00	0	57	104	0	50	20699
2026-01-27 07:44:09.63	89.28	5.21	-39.8	-54.6	3.8	1.49e+00	0	57	104	0	50	20620
2026-01-27 07:44:10.64	89.17	5.26	-39.9	-54.6	3.8	1.49e+00	0	57	104	0	50	20706
2026-01-27 07:44:11.65	89.06	5.31	-39.7	-54.6	3.8	1.49e+00	0	57	104	0	50	20552
2026-01-27 07:44:12.66	88.95	5.36	-39.8	-54.6	3.8	1.49e+00	0	57	104	0	50	20650
2026-01-27 07:44:13.67	88.84	5.41	-39.9	-54.6	3.8	1.49e+00	0	57	104	0	50	20673
2026-01-27 07:44:14.68	88.73	5.47	-40.0	-54.6	3.8	1.49e+00	0	57	104	0	50	20694
2026-01-27 07:44:15.69	88.62	5.52	-39.6	-54.5	3.8	1.49e+00	0	58	104	0	50	20480
2026-01-27 07:44:16.70	88.51	5.57	-40.1	-54.7	3.8	1.49e+00	0	58	104	0	50	20786
2026-01-27 07:44:17.71	88.40	5.62	-39.8	-54.6	3.8	1.49e+00	0	57	104	0	50	20668
2026-01-27 07:44:18.72	88.29	5.67	-39.8	-54.6	3.8	1.49e+00	0	57	104	0	50	20677
2026-01-27 07:44:19.73	88.18	5.73	-40.0	-54.6	3.8	1.49e+00	0	57	104	0	50	20648
2026-01-27 07:44:20.74	88.07	5.78	-39.8	-54.6	3.8	1.49e+00	0	58	104	0	50	20575
2026-01-27 07:44:21.75	87.96	5.83	-39.4	-54.4	3.8	1.49e+00	0	58	104	0	49	21335
2026-01-27 07:44:22.76	87.84	5.88	-40.1	-54.6	3.8	1.49e+00	0	58	104	0	50	20714
2026-01-27 07:44:23.77	87.73	5.94	-40.1	-54.6	3.8	1.49e+00	0	58	104	0	50	20695
2026-01-27 07:44:24.78	87.62	5.99	-40.1	-54.7	3.8	1.49e+00	0	58	104	0	50	20835
2026-01-27 07:44:25.79	87.50	6.04	-40.1	-54.7	3.8	1.49e+00	0	58	104	0	50	20783
2026-01-27 07:44:26.80	87.39	6.09	-40.1	-54.6	3.8	1.49e+00	0	58	104	0	50	20765
2026-01-27 07:44:27.82	87.27	6.14	-39.7	-54.6	3.8	1.49e+00	0	58	104	0	50	20695
2026-01-27 07:44:28.83	87.16	6.20	-40.0	-54.6	3.8	1.49e+00	0	58	104	0	50	20740
2026-01-27 07:44:29.84	87.04	6.25	-40.1	-54.7	3.8	1.49e+00	0	58	104	0	50	20808
2026-01-27 07:44:30.85	86.92	6.30	-40.1	-54.7	3.8	1.49e+00	0	58	104	0	50	20802
2026-01-27 07:44:31.86	86.81	6.35	-39.9	-54.6	3.8	1.49e+00	0	58	104	0	50	20612
2026-01-27 07:44:32.87	86.69	6.41	-40.1	-54.7	3.8	1.49e+00	0	58	104	0	50	20819
2026-01-27 07:44:33.88	86.57	6.46	-40.0	-54.6	3.8	1.49e+00	0	58	104	0	50	20759
2026-01-27 07:44:34.89	86.45	6.51	-40.1	-54.7	3.8	1.49e+00	0	58	104	0	50	20815
2026-01-27 07:44:35.90	86.34	6.56	-40.0	-54.6	3.8	1.49e+00	0	58	104	0	50	20771
2026-01-27 07:44:36.91	86.22	6.61	-40.1	-54.7	3.8	1.49e+00	0	58	104	0	50	20838
2026-01-27 07:44:37.92	86.10	6.67	-40.0	-54.6	3.8	1.49e+00	0	58	104	0	50	20680
2026-01-27 07:44:38.94	85.98	6.72	-40.0	-54.6	3.8	1.49e+00	0	58	104	0	50	20644
2026-01-27 07:44:39.95	85.86	6.77	-40.0	-54.6	3.8	1.49e+00	0	58	104	0	50	20764
2026-01-27 07:44:40.96	85.74	6.82	-40.1	-54.7	3.8	1.49e+00	0	58	104	0	50	20803
2026-01-27 07:44:41.97	85.62	6.87	-40.1	-54.7	3.8	1.49e+00	0	58	104	0	50	20831
2026-01-27 07:44:42.98	85.49	6.93	-40.1	-54.6	3.8	1.49e+00	0	58	104	0	50	20774
2026-01-27 07:44:43.99	85.37	6.98	-40.1	-54.7	3.8	1.49e+00	0	58	104	0	50	20806
2026-01-27 07:44:45.00	85.25	7.03	-40.1	-54.7	3.8	1.49e+00	0	59	104	0	50	20777
2026-01-27 07:44:46.01	85.13	7.08	-40.0	-54.6	3.8	1.49e+00	0	58	104	0	50	20647
2026-01-27 07:44:47.02	85.00	7.13	-40.0	-54.7	3.8	1.49e+00	0	59	104	0	50	20823
2026-01-27 07:44:48.03	84.88	7.19	-39.9	-54.6	3.8	1.49e+00	0	59	104	0	50	20732
2026-01-27 07:44:49.04	84.76	7.24	-40.1	-54.7	3.8	1.49e+00	0	59	104	0	50	20804
2026-01-27 07:44:50.05	84.63	7.29	-40.0	-54.7	3.8	1.49e+00	0	59	104	0	50	20797
2026-01-27 07:44:51.06	84.51	7.34	-39.9	-54.6	3.8	1.49e+00	0	59	104	0	50	20718
2026-01-27 07:44:52.07	84.38	7.39	-40.1	-54.6	3.8	1.49e+00	0	59	104	0	50	20734
2026-01-27 07:44:53.08	84.25	7.45	-40.1	-54.7	3.8	1.49e+00	0	59	104	0	50	20788
2026-01-27 07:44:54.10	84.13	7.50	-39.8	-54.6	3.8	1.49e+00	0	59	104	0	50	20562
2026-01-27 07:44:55.11	84.00	7.55	-40.1	-54.7	3.8	1.49e+00	0	59	104	0	50	20822
2026-01-27 07:44:56.12	83.87	7.60	-39.4	-54.5	3.8	1.49e+00	0	59	104	0	50	20483
2026-01-27 07:44:57.13	83.75	7.65	-39.6	-54.6	3.8	1.49e+00	0	59	104	0	50	20643
2026-01-27 07:44:58.14	83.62	7.71	-40.0	-54.6	3.8	1.49e+00	0	59	104	0	50	20750
2026-01-27 07:44:59.15	83.49	7.76	-40.1	-54.7	3.8	1.49e+00	0	59	104	0	50	20790
2026-01-27 07:45:00.16	83.36	7.81	-39.7	-54.5	3.8	1.49e+00	0	59	104	0	50	20479
2026-01-27 07:45:01.17	83.23	7.86	-40.1	-54.6	3.8	1.49e+00	0	59	104	0	50	20763
2026-01-27 07:45:02.18	83.10	7.91	-40.0	-54.6	3.8	1.49e+00	0	59	104	0	50	20721
2026-01-27 07:45:03.19	82.97	7.96	-39.9	-54.7	3.8	1.49e+00	0	59	104	0	50	20805
2026-01-27 07:45:04.20	82.84	8.01	-40.2	-54.7	3.8	1.49e+00	0	59	104	0	50	20919
2026-01-27 07:45:05.21	82.71	8.07	-40.2	-54.8	3.8	1.49e+00	0	59	104	0	51	19858
2026-01-27 07:45:06.22	82.57	8.12	-40.0	-54.7	3.8	1.49e+00	0	59	104	0	51	19617
2026-01-27 07:45:07.23	82.44	8.17	-39.9	-54.6	3.8	1.49e+00	0	59	104	0	51	19589
2026-01-27 07:45:08.24	82.31	8.22	-40.2	-54.7	3.8	1.49e+00	0	59	104	0	51	19806
2026-01-27 07:45:09.25	82.18	8.27	-40.1	-54.6	3.8	1.49e+00	0	59	104	0	51	19501
2026-01-27 07:45:10.26	82.04	8.32	-39.8	-54.6	3.8	1.49e+00	0	59	104	0	51	19472
2026-01-27 07:45:11.28	81.91	8.37	-40.0	-54.6	3.8	1.49e+00	0	59	104	0	50	20746
2026-01-27 07:45:12.28	81.77	8.43	-40.0	-54.7	3.8	1.49e+00	0	59	104	0	50	20885
2026-01-27 07:45:13.29	81.64	8.48	-40.0	-54.7	3.8	1.49e+00	0	60	104	0	50	20777
2026-01-27 07:45:14.30	81.50	8.53	-40.0	-54.7	3.8	1.49e+00	0	60	104	0	50	20838
2026-01-27 07:45:15.31	81.37	8.58	-40.1	-54.6	3.8	1.49e+00	0	59	104	0	50	20762
2026-01-27 07:45:16.32	81.23	8.63	-40.0	-54.7	3.8	1.49e+00	0	60	104	0	50	20939
2026-01-27 07:45:17.33	81.09	8.68	-40.1	-54.7	3.8	1.49e+00	0	59	104	0	50	20931
2026-01-27 07:45:18.35	80.95	8.73	-40.2	-54.8	3.8	1.49e+00	0	60	104	0	51	19858
2026-01-27 07:45:19.36	80.81	8.78	-40.0	-54.6	3.8	1.49e+00	0	60	104	0	50	20773
2026-01-27 07:45:20.37	80.68	8.83	-40.2	-54.8	3.8	1.49e+00	0	60	104	0	51	19906
2026-01-27 07:45:21.38	80.54	8.88	-40.1	-54.7	3.8	1.49e+00	0	59	104	0	51	19835
2026-01-27 07:45:22.39	80.40	8.93	-40.3	-54.8	3.8	1.49e+00	0	60	104	0	51	20001
2026-01-27 07:45:23.40	80.26	8.99	-40.1	-54.7	3.8	1.49e+00	0	60	104	0	51	19738
2026-01-27 07:45:24.41	80.12	9.04	-40.3	-54.8	3.8	1.49e+00	0	60	104	0	51	19989
2026-01-27 07:45:25.42	79.98	9.09	-40.3	-54.9	3.8	1.49e+00	0	60	104	0	51	20076
2026-01-27 07:45:26.43	79.83	9.14	-40.3	-54.9	3.8	1.49e+00	0	60	104	0	51	20163
2026-01-27 07:45:27.44	79.69	9.19	-40.2	-54.8	3.8	1.49e+00	0	60	104	0	51	19943
2026-01-27 07:45:28.45	79.55	9.24	-40.3	-54.9	3.8	1.49e+00	0	60	104	0	51	20213
2026-01-27 07:45:29.46	79.41	9.29	-40.4	-55.0	3.8	1.49e+00	0	60	104	0	51	20433
2026-01-27 07:45:30.47	79.26	9.34	-40.4	-55.0	3.8	1.49e+00	0	60	104	0	51	20343
2026-01-27 07:45:31.48	79.12	9.39	-40.3	-54.9	3.8	1.49e+00	0	60	104	0	51	20112
2026-01-27 07:45:32.49	78.97	9.44	-40.4	-55.0	3.8	1.49e+00	0	60	104	0	51	20379
2026-01-27 07:45:33.50	78.83	9.49	-40.7	-55.2	3.8	1.49e+00	0	60	104	0	51	20962
2026-01-27 07:45:34.51	78.68	9.54	-40.4	-55.0	3.8	1.49e+00	0	60	104	0	52	19299
2026-01-27 07:45:35.52	78.54	9.59	-40.3	-54.9	3.8	1.49e+00	0	60	104	0	52	19025
2026-01-27 07:45:36.53	78.39	9.64	-40.5	-55.1	3.8	1.49e+00	0	60	104	0	52	19470
2026-01-27 07:45:37.54	78.24	9.69	-40.9	-55.4	3.8	1.49e+00	0	60	104	0	52	20285
2026-01-27 07:45:38.55	78.10	9.74	-40.7	-55.2	3.8	1.49e+00	0	60	104	0	52	19795
2026-01-27 07:45:39.56	77.95	9.78	-40.5	-55.1	3.8	1.49e+00	0	60	104	0	52	19415
2026-01-27 07:45:40.57	77.80	9.83	-40.8	-55.4	3.8	1.49e+00	0	60	104	0	52	20117
2026-01-27 07:45:41.58	77.65	9.88	-41.0	-55.5	3.8	1.49e+00	0	60	104	0	52	20521
2026-01-27 07:45:42.59	77.50	9.93	-40.9	-55.4	3.8	1.49e+00	0	60	104	0	52	20210
2026-01-27 07:45:43.60	77.35	9.98	-40.7	-55.3	3.8	1.49e+00	0	60	104	0	52	19871
2026-01-27 07:45:44.61	77.20	10.03	-41.0	-55.5	3.8	1.49e+00	0	60	104	0	52	20478
2026-01-27 07:45:45.62	77.05	10.08	-41.1	-55.7	3.8	1.49e+00	0	60	104	0	52	20853
2026-01-27 07:45:46.63	76.90	10.13	-40.9	-55.5	3.8	1.49e+00	0	60	104	0	52	20491
2026-01-27 07:45:47.64	76.74	10.18	-40.9	-55.5	3.8	1.49e+00	0	60	104	0	52	20347
2026-01-27 07:45:48.64	76.59	10.23	-41.1	-55.7	3.8	1.49e+00	0	60	104	0	52	20845
2026-01-27 07:45:49.65	76.44	10.27	-41.3	-55.8	3.8	1.49e+00	0	60	104	0	53	19976
2026-01-27 07:45:50.66	76.29	10.32	-41.1	-55.7	3.8	1.49e+00	0	60	104	0	53	19615
2026-01-27 07:45:51.67	76.13	10.37	-41.1	-55.6	3.8	1.49e+00	0	60	104	0	53	19566
2026-01-27 07:45:52.68	75.98	10.42	-41.3	-55.8	3.8	1.49e+00	0	60	104	0	53	19947
2026-01-27 07:45:53.69	75.82	10.47	-41.2	-55.7	3.8	1.49e+00	0	60	104	0	53	19804
2026-01-27 07:45:54.70	75.67	10.51	-41.2	-55.7	3.8	1.49e+00	0	60	104	0	53	19719
2026-01-27 07:45:55.71	75.51	10.56	-41.1	-55.6	3.8	1.49e+00	0	60	104	0	53	19467
2026-01-27 07:45:56.72	75.35	10.61	-41.3	-55.8	3.8	1.49e+00	0	60	104	0	53	19997
2026-01-27 07:45:57.73	75.19	10.66	-41.1	-55.7	3.8	1.49e+00	0	60	104	0	53	19655
2026-01-27 07:45:58.74	75.04	10.71	-41.1	-55.6	3.8	1.49e+00	0	60	104	0	53	19583
2026-01-27 07:45:59.75	74.88	10.75	-41.1	-55.6	3.8	1.49e+00	0	60	104	0	53	19518
2026-01-27 07:46:00.76	74.72	10.80	-41.1	-55.7	3.8	1.49e+00	0	60	104	0	53	19624
2026-01-27 07:46:01.77	74.56	10.85	-41.0	-55.6	3.8	1.49e+00	0	60	104	0	53	19433
2026-01-27 07:46:02.78	74.40	10.89	-41.1	-55.6	3.8	1.49e+00	0	60	104	0	53	19572
2026-01-27 07:46:03.78	74.24	10.94	-41.3	-55.8	3.8	1.49e+00	0	60	104	0	53	19982
2026-01-27 07:46:04.79	74.08	10.99	-40.9	-55.4	3.8	1.49e+00	0	60	104	0	53	19130
2026-01-27 07:46:05.80	73.92	11.03	-40.7	-55.3	3.8	1.49e+00	0	60	104	0	53	18777
2026-01-27 07:46:06.81	73.76	11.08	-40.6	-55.2	3.8	1.49e+00	0	61	104	0	53	18583
2026-01-27 07:46:07.83	73.59	11.13	-40.6	-55.1	3.8	1.49e+00	0	60	104	0	53	18511
2026-01-27 07:46:08.84	73.43	11.17	-40.6	-55.2	3.8	1.49e+00	0	60	104	0	53	18597
2026-01-27 07:46:09.85	73.27	11.22	-40.6	-55.2	3.8	1.49e+00	0	61	104	0	53	18661
2026-01-27 07:46:10.86	73.10	11.27	-40.9	-55.4	3.8	1.49e+00	0	60	104	0	53	19105
2026-01-27 07:46:11.87	72.94	11.31	-41.1	-55.6	3.8	1.49e+00	0	60	104	0	53	19606
2026-01-27 07:46:12.88	72.77	11.36	-40.8	-55.4	3.8	1.49e+00	0	61	104	0	53	19085
2026-01-27 07:46:13.89	72.61	11.40	-40.7	-55.3	3.8	1.49e+00	0	61	104	0	53	18929
2026-01-27 07:46:14.90	72.44	11.45	-41.0	-55.5	3.8	1.49e+00	0	61	104	0	53	19373
2026-01-27 07:46:15.91	72.27	11.49	-41.3	-55.8	3.8	1.49e+00	0	61	104	0	53	20026
2026-01-27 07:46:16.92	72.11	11.54	-40.8	-55.4	3.8	1.49e+00	0	61	104	0	53	19078
2026-01-27 07:46:17.93	71.94	11.58	-40.9	-55.5	3.8	1.49e+00	0	61	104	0	53	19310
2026-01-27 07:46:18.94	71.77	11.63	-41.1	-55.7	3.8	1.49e+00	0	61	104	0	53	19648
2026-01-27 07:46:19.95	71.60	11.67	-41.2	-55.7	3.8	1.49e+00	0	61	104	0	53	19741
2026-01-27 07:46:20.97	71.43	11.72	-41.1	-55.7	3.8	1.49e+00	0	61	104	0	53	19620
2026-01-27 07:46:21.98	71.26	11.76	-41.1	-55.7	3.8	1.49e+00	0	61	104	0	53	19721
2026-01-27 07:46:22.98	71.09	11.80	-41.0	-55.5	3.8	1.49e+00	0	61	104	0	53	19358
2026-01-27 07:46:24.00	70.92	11.85	-41.0	-55.6	3.8	1.49e+00	0	61	104	0	53	19424
2026-01-27 07:46:25.01	70.75	11.89	-41.3	-55.8	3.8	1.49e+00	0	61	104	0	53	20001
2026-01-27 07:46:26.02	70.58	11.94	-41.2	-55.7	3.8	1.49e+00	0	61	104	0	53	19839
2026-01-27 07:46:27.03	70.40	11.98	-41.0	-55.5	3.8	1.49e+00	0	61	104	0	53	19269
2026-01-27 07:46:28.04	70.23	12.02	-40.9	-55.5	3.8	1.49e+00	0	61	104	0	53	19198
2026-01-27 07:46:29.05	70.06	12.07	-41.1	-55.7	3.8	1.49e+00	0	61	104	0	53	19684
2026-01-27 07:46:30.06	69.88	12.11	-41.3	-55.9	3.8	1.49e+00	0	61	104	0	53	20158
2026-01-27 07:46:31.06	69.71	12.15	-41.1	-55.6	3.8	1.49e+00	0	61	104	0	53	19613
2026-01-27 07:46:32.07	69.54	12.19	-41.0	-55.6	3.8	1.49e+00	0	61	104	0	53	19399
2026-01-27 07:46:33.09	69.36	12.24	-40.9	-55.5	3.8	1.49e+00	0	61	104	0	53	19327
2026-01-27 07:46:34.10	69.18	12.28	-41.4	-55.9	3.8	1.49e+00	0	61	104	0	53	20282
2026-01-27 07:46:35.11	69.01	12.32	-41.3	-55.9	3.8	1.49e+00	0	61	104	0	53	20083
2026-01-27 07:46:36.12	68.83	12.36	-41.2	-55.7	3.8	1.49e+00	0	61	104	0	53	19823
2026-01-27 07:46:37.13	68.65	12.40	-40.9	-55.4	3.8	1.49e+00	0	61	104	0	53	19140
2026-01-27 07:46:38.14	68.47	12.44	-41.3	-55.9	3.8	1.49e+00	0	61	104	0	53	20151
2026-01-27 07:46:39.14	68.30	12.49	-41.3	-55.9	3.8	1.49e+00	0	61	104	0	53	20114
2026-01-27 07:46:40.15	68.12	12.53	-41.3	-55.8	3.8	1.49e+00	0	61	104	0	53	20042
2026-01-27 07:46:41.16	67.94	12.57	-41.0	-55.6	3.8	1.49e+00	0	61	104	0	53	19449
2026-01-27 07:46:42.17	67.76	12.61	-41.3	-55.8	3.8	1.49e+00	0	61	104	0	53	19901
2026-01-27 07:46:43.18	67.58	12.65	-41.2	-55.7	3.8	1.49e+00	0	61	104	0	53	19826
2026-01-27 07:46:44.20	67.40	12.69	-41.4	-56.0	3.8	1.49e+00	0	61	104	0	53	20321
2026-01-27 07:46:45.20	67.22	12.73	-41.2	-55.8	3.8	1.49e+00	0	61	104	0	53	19866
2026-01-27 07:46:46.22	67.03	12.77	-41.5	-55.9	3.8	1.49e+00	0	61	104	0	53	20238
2026-01-27 07:46:47.23	66.85	12.81	-41.2	-55.8	3.8	1.49e+00	0	61	104	0	53	19902
2026-01-27 07:46:48.24	66.67	12.85	-41.5	-56.0	3.8	1.49e+00	0	61	104	0	53	20438
2026-01-27 07:46:49.25	66.48	12.89	-41.3	-55.8	3.8	1.49e+00	0	61	104	0	53	19924
2026-01-27 07:46:50.26	66.30	12.92	-41.8	-56.2	3.8	1.49e+00	0	61	104	0	54	19714
2026-01-27 07:46:51.27	66.12	12.96	-41.4	-56.0	3.8	1.49e+00	0	61	104	0	54	19233
2026-01-27 07:46:52.28	65.93	13.00	-41.8	-56.3	3.8	1.49e+00	0	61	104	0	54	19901
2026-01-27 07:46:53.29	65.74	13.04	-41.5	-56.1	3.8	1.49e+00	0	61	104	0	54	19407
2026-01-27 07:46:54.29	65.56	13.08	-42.3	-56.7	3.8	1.49e+00	0	61	104	0	55	19675
2026-01-27 07:46:55.31	65.37	13.11	-41.5	-56.1	3.8	1.49e+00	0	61	104	0	55	18370
2026-01-27 07:46:56.32	65.19	13.15	-41.6	-56.2	3.8	1.49e+00	0	61	104	0	55	18575
2026-01-27 07:46:57.33	65.00	13.19	-41.4	-55.8	3.8	1.49e+00	0	61	104	0	54	18738
2026-01-27 07:46:58.34	64.81	13.23	-41.6	-56.0	3.8	1.49e+00	0	61	104	0	54	19375
2026-01-27 07:46:59.35	64.62	13.26	-41.6	-56.1	3.8	1.49e+00	0	61	104	0	54	19597
2026-01-27 07:47:00.36	64.43	13.30	-41.7	-56.3	3.8	1.49e+00	0	61	104	0	54	19936
2026-01-27 07:47:01.37	64.25	13.33	-41.9	-56.3	3.8	1.49e+00	0	62	104	0	54	19951
2026-01-27 07:47:02.38	64.06	13.37	-41.9	-55.9	3.8	1.49e+00	0	61	104	0	54	19009
2026-01-27 07:47:03.39	63.87	13.41	-43.5	-55.2	3.9	1.47e+00	0	61	104	0	57	14770
2026-01-27 07:47:04.40	63.67	13.44	-43.2	-53.6	4.5	1.47e+00	19	62	0	0	57	12339
2026-01-27 07:47:05.41	63.48	13.48	-43.1	-56.0	3.8	1.49e+00	0	61	104	0	57	16146
2026-01-27 07:47:06.42	63.29	13.51	-43.1	-52.1	5.3	6.39e-01	0	61	0	0	57	10351
2026-01-27 07:47:07.43	63.10	13.55	-43.0	-51.4	5.8	4.74e-01	0	62	0	2097152	57	9566
2026-01-27 07:47:08.44	62.91	13.58	-42.9	-50.4	6.6	3.18e-01	0	61	0	4194304	57	8544
2026-01-27 07:47:09.45	62.72	13.61	-42.7	-49.0	8.1	9.14e-02	0	61	0	5242880	57	7206
2026-01-27 07:47:10.46	62.52	13.65	-42.5	-48.2	9.0	3.77e-02	0	61	0	7340032	57	6594
2026-01-27 07:47:11.47	62.33	13.68	-42.5	-48.1	9.2	2.54e-02	0	61	0	9437184	56	6883
2026-01-27 07:47:12.48	62.13	13.71	-42.3	-47.4	9.9	1.13e-02	0	61	0	11534336	56	6369
2026-01-27 07:47:13.49	61.94	13.75	-41.6	-46.2	11.0	4.29e-03	0	61	0	13631488	55	5915
2026-01-27 07:47:14.50	61.75	13.78	-41.5	-45.8	11.4	1.12e-03	0	61	0	15728640	55	5603
2026-01-27 07:47:15.51	61.55	13.81	-41.5	-45.6	11.7	6.47e-04	0	61	0	16777216	54	5800
2026-01-27 07:47:16.52	61.35	13.84	-41.6	-45.8	11.5	6.61e-04	0	61	0	18874368	54	5965
2026-01-27 07:47:17.52	61.16	13.88	-41.4	-45.3	12.0	6.48e-04	0	62	0	20971520	54	5651
2026-01-27 07:47:18.53	60.96	13.91	-41.5	-45.5	11.8	4.44e-04	0	61	0	23068672	54	5774
2026-01-27 07:47:19.54	60.77	13.94	-41.4	-45.4	12.1	2.93e-04	0	62	0	25165824	54	5669
2026-01-27 07:47:20.55	60.57	13.97	-41.3	-45.1	12.4	2.67e-04	0	62	0	26214400	54	5478
2026-01-27 07:47:21.57	60.37	14.00	-41.2	-45.0	12.5	1.72e-04	0	61	0	28311552	54	5439
2026-01-27 07:47:22.57	60.17	14.03	-41.3	-45.0	12.5	1.53e-04	0	61	0	30408704	54	5426
2026-01-27 07:47:23.58	59.97	14.06	-41.2	-44.9	12.5	1.20e-04	0	62	0	32505856	54	5399
2026-01-27 07:47:24.59	59.77	14.09	-41.3	-45.0	12.5	1.32e-04	0	62	0	34603008	54	5442
2026-01-27 07:47:25.60	59.57	14.12	-41.3	-45.0	12.6	1.20e-04	0	61	0	35651584	54	5407
2026-01-27 07:47:26.61	59.38	14.15	-41.3	-45.0	12.6	8.23e-05	0	62	0	37748736	54	5416
2026-01-27 07:47:27.62	59.17	14.18	-41.3	-45.1	12.5	1.01e-04	0	62	0	39845888	54	5479
2026-01-27 07:47:28.63	58.97	14.20	-41.4	-45.2	12.3	1.70e-04	0	62	0	41943040	54	5582
2026-01-27 07:47:29.65	58.77	14.23	-41.4	-45.2	12.4	1.89e-04	0	62	0	44040192	54	5550
2026-01-27 07:47:30.66	58.57	14.26	-41.5	-45.3	12.2	1.81e-04	0	62	0	45088768	54	5631
2026-01-27 07:47:31.67	58.37	14.29	-41.4	-45.2	12.4	1.33e-04	0	62	0	47185920	54	5560
2026-01-27 07:47:32.68	58.17	14.32	-41.4	-45.2	12.4	1.62e-04	0	62	0	49283072	54	5541
2026-01-27 07:47:33.69	57.96	14.34	-41.4	-45.3	12.3	1.51e-04	0	62	0	51380224	54	5602
2026-01-27 07:47:34.70	57.76	14.37	-41.5	-45.5	12.1	2.50e-04	0	62	0	53477376	54	5727
2026-01-27 07:47:35.71	57.56	14.39	-41.5	-45.4	12.1	2.57e-04	0	62	0	55574528	54	5721
2026-01-27 07:47:36.72	57.35	14.42	-41.5	-45.3	12.3	1.88e-04	0	62	0	56623104	54	5603
2026-01-27 07:47:37.73	57.15	14.45	-41.5	-45.3	12.3	1.89e-04	0	62	0	58720256	54	5636
2026-01-27 07:47:38.74	56.94	14.47	-41.5	-45.4	12.2	2.27e-04	0	62	0	60817408	54	5663
2026-01-27 07:47:39.75	56.74	14.50	-41.6	-45.6	12.0	2.39e-04	0	62	0	62914560	54	5842
2026-01-27 07:47:40.76	56.54	14.52	-41.7	-45.8	11.8	4.78e-04	0	62	0	65011712	54	5978
2026-01-27 07:47:41.77	56.33	14.54	-41.7	-45.7	11.9	4.61e-04	0	62	0	66060288	54	5911
2026-01-27 07:47:42.77	56.13	14.57	-41.6	-45.6	12.0	3.82e-04	0	62	0	68157440	54	5823
2026-01-27 07:47:43.78	55.92	14.59	-41.7	-45.7	11.9	2.81e-04	0	62	0	70254592	54	5901
2026-01-27 07:47:44.79	55.71	14.61	-41.7	-45.7	11.9	3.37e-04	0	62	0	72351744	54	5896
2026-01-27 07:47:45.80	55.51	14.64	-41.7	-45.8	11.8	4.47e-04	0	62	0	74448896	54	5957
2026-01-27 07:47:46.81	55.30	14.66	-41.7	-45.8	11.8	4.61e-04	0	62	0	75497472	54	5949
2026-01-27 07:47:47.82	55.09	14.68	-41.7	-45.8	11.8	4.20e-04	0	62	0	77594624	54	5936
2026-01-27 07:47:48.83	54.89	14.70	-41.6	-45.6	12.1	3.52e-04	0	62	0	79691776	54	5797
2026-01-27 07:47:49.84	54.68	14.72	-41.6	-45.5	12.1	2.99e-04	0	62	0	81788928	54	5772
2026-01-27 07:47:50.85	54.47	14.74	-41.6	-45.6	12.1	2.47e-04	0	62	0	83886080	54	5790
2026-01-27 07:47:51.86	54.26	14.77	-41.6	-45.5	12.1	2.57e-04	0	62	0	84934656	54	5763
2026-01-27 07:47:52.87	54.05	14.79	-41.6	-45.4	12.2	2.37e-04	0	62	0	87031808	54	5701
2026-01-27 07:47:53.87	53.85	14.81	-41.5	-45.2	12.4	1.81e-04	0	62	0	89128960	54	5589
2026-01-27 07:47:54.89	53.63	14.82	-41.5	-45.2	12.5	1.24e-04	0	62	0	91226112	54	5584
2026-01-27 07:47:55.90	53.42	14.84	-41.5	-45.2	12.5	1.26e-04	0	62	0	93323264	54	5574
2026-01-27 07:47:56.91	53.21	14.86	-41.5	-45.2	12.5	1.36e-04	0	62	0	94371840	54	5581
2026-01-27 07:47:57.91	53.01	14.88	-41.4	-45.1	12.6	8.77e-05	0	62	0	96468992	54	5505
2026-01-27 07:47:58.92	52.80	14.90	-41.5	-45.2	12.5	8.39e-05	0	62	0	98566144	54	5552
2026-01-27 07:47:59.93	52.59	14.92	-41.5	-45.2	12.5	1.16e-04	0	62	0	100663296	54	5574
2026-01-27 07:48:00.94	52.38	14.93	-41.5	-45.2	12.5	1.16e-04	0	62	0	102760448	54	5590
2026-01-27 07:48:01.95	52.16	14.95	-41.5	-45.3	12.4	1.65e-04	0	62	0	103809024	54	5645
2026-01-27 07:48:02.96	51.95	14.97	-41.5	-45.3	12.4	1.50e-04	0	62	0	105906176	54	5631
2026-01-27 07:48:03.97	51.74	14.98	-41.5	-45.3	12.4	1.33e-04	0	62	0	108003328	54	5654
2026-01-27 07:48:04.98	51.53	15.00	-41.5	-45.4	12.4	1.56e-04	0	62	0	110100480	54	5662
2026-01-27 07:48:05.99	51.32	15.01	-41.5	-45.3	12.4	1.46e-04	0	62	0	112197632	54	5616
2026-01-27 07:48:07.00	51.11	15.03	-41.6	-45.4	12.3	1.53e-04	0	62	0	113246208	54	5689
2026-01-27 07:48:08.01	50.89	15.04	-41.6	-45.4	12.3	2.08e-04	0	62	0	115343360	54	5712
2026-01-27 07:48:09.02	50.68	15.06	-41.6	-45.5	12.1	2.04e-04	0	62	0	117440512	54	5773
2026-01-27 07:48:10.03	50.47	15.07	-41.7	-45.6	12.1	2.54e-04	0	62	0	119537664	54	5824
2026-01-27 07:48:11.04	50.25	15.09	-41.6	-45.6	12.1	2.95e-04	0	62	0	121634816	54	5789
2026-01-27 07:48:12.06	50.04	15.10	-41.6	-45.4	12.3	2.27e-04	0	62	0	123731968	54	5708
2026-01-27 07:48:13.06	49.83	15.11	-41.6	-45.4	12.3	1.72e-04	0	62	0	124780544	54	5679
2026-01-27 07:48:14.07	49.61	15.12	-41.5	-45.3	12.4	1.90e-04	0	62	0	126877696	54	5640
2026-01-27 07:48:15.08	49.40	15.13	-41.6	-45.5	12.3	1.73e-04	0	62	0	128974848	54	5733
2026-01-27 07:48:16.09	49.19	15.15	-41.7	-45.6	12.1	2.12e-04	0	62	0	131072000	54	5820
2026-01-27 07:48:17.10	48.97	15.16	-41.6	-45.5	12.2	2.32e-04	0	62	0	133169152	54	5753
2026-01-27 07:48:18.11	48.76	15.17	-41.6	-45.4	12.3	1.88e-04	0	62	0	134217728	54	5700
2026-01-27 07:48:19.12	48.54	15.18	-41.6	-45.4	12.4	1.91e-04	0	62	0	136314880	54	5682
2026-01-27 07:48:20.14	48.33	15.19	-41.6	-45.4	12.3	1.34e-04	0	62	0	138412032	54	5687
2026-01-27 07:48:21.14	48.12	15.20	-41.5	-45.3	12.4	1.28e-04	0	62	0	140509184	54	5628
2026-01-27 07:48:22.15	47.90	15.21	-41.6	-45.4	12.3	1.50e-04	0	62	0	142606336	54	5707
2026-01-27 07:48:23.16	47.69	15.22	-41.6	-45.4	12.3	1.78e-04	0	62	0	143654912	54	5690
2026-01-27 07:48:24.17	47.47	15.22	-41.6	-45.4	12.4	1.57e-04	0	62	0	145752064	54	5673
2026-01-27 07:48:25.18	47.26	15.23	-41.5	-45.3	12.5	1.23e-04	0	62	0	147849216	54	5600
2026-01-27 07:48:26.19	47.04	15.24	-41.5	-45.2	12.5	1.30e-04	0	62	0	149946368	54	5570
2026-01-27 07:48:27.20	46.83	15.25	-41.6	-45.4	12.4	1.33e-04	0	62	0	152043520	54	5663
2026-01-27 07:48:28.21	46.61	15.25	-41.6	-45.4	12.4	1.52e-04	0	62	0	153092096	54	5687
2026-01-27 07:48:29.22	46.39	15.26	-41.6	-45.4	12.4	1.50e-04	0	62	0	155189248	54	5693
2026-01-27 07:48:30.23	46.18	15.26	-41.6	-45.4	12.3	1.64e-04	0	62	0	157286400	54	5693
2026-01-27 07:48:31.24	45.96	15.27	-41.6	-45.3	12.4	1.81e-04	0	62	0	159383552	54	5652
2026-01-27 07:48:32.25	45.75	15.28	-41.6	-45.4	12.3	1.67e-04	0	62	0	161480704	54	5716
2026-01-27 07:48:33.26	45.53	15.28	-41.6	-45.4	12.3	1.62e-04	0	62	0	162529280	54	5686
2026-01-27 07:48:34.27	45.32	15.28	-41.6	-45.4	12.4	1.59e-04	0	62	0	164626432	54	5677
2026-01-27 07:48:35.28	45.10	15.29	-41.6	-45.5	12.3	1.79e-04	0	62	0	166723584	54	5729
2026-01-27 07:48:36.29	44.88	15.29	-41.7	-45.6	12.2	2.23e-04	0	62	0	168820736	54	5804
2026-01-27 07:48:37.30	44.67	15.29	-41.7	-45.7	12.1	2.89e-04	0	62	0	170917888	54	5875
2026-01-27 07:48:38.31	44.45	15.30	-41.6	-45.5	12.3	2.55e-04	0	62	0	171966464	54	5736
2026-01-27 07:48:39.32	44.24	15.30	-41.6	-45.4	12.4	1.58e-04	0	62	0	174063616	54	5659
2026-01-27 07:48:40.33	44.02	15.30	-41.5	-45.2	12.5	1.32e-04	0	62	0	176160768	54	5586
2026-01-27 07:48:41.34	43.80	15.30	-41.5	-45.3	12.5	1.17e-04	0	62	0	178257920	54	5606
2026-01-27 07:48:42.35	43.59	15.30	-41.5	-45.3	12.5	1.40e-04	0	62	0	180355072	54	5620
2026-01-27 07:48:43.35	43.37	15.30	-41.6	-45.4	12.3	1.45e-04	0	62	0	181403648	54	5695
2026-01-27 07:48:44.36	43.16	15.30	-41.6	-45.4	12.3	1.23e-04	0	62	0	183500800	54	5701
2026-01-27 07:48:45.38	42.94	15.30	-41.6	-45.4	12.4	1.36e-04	0	62	0	185597952	54	5662
2026-01-27 07:48:46.39	42.72	15.30	-41.6	-45.4	12.4	1.62e-04	0	62	0	187695104	54	5671
2026-01-27 07:48:47.40	42.51	15.30	-41.5	-45.3	12.4	1.40e-04	0	62	0	189792256	54	5638
2026-01-27 07:48:48.41	42.29	15.30	-41.6	-45.5	12.3	1.41e-04	0	62	0	191889408	54	5734
2026-01-27 07:48:49.42	42.08	15.30	-41.6	-45.5	12.3	2.03e-04	0	62	0	192937984	54	5760
2026-01-27 07:48:50.43	41.86	15.30	-41.7	-45.6	12.1	2.26e-04	0	62	0	195035136	54	5846
2026-01-27 07:48:51.44	41.64	15.29	-41.7	-45.6	12.1	2.82e-04	0	62	0	197132288	54	5837
2026-01-27 07:48:52.45	41.43	15.29	-41.7	-45.6	12.1	2.63e-04	0	62	0	199229440	54	5854
2026-01-27 07:48:53.46	41.21	15.29	-41.7	-45.6	12.2	2.70e-04	0	62	0	201326592	54	5812
2026-01-27 07:48:54.47	41.00	15.28	-41.7	-45.5	12.2	2.43e-04	0	62	0	202375168	54	5786
2026-01-27 07:48:55.48	40.78	15.28	-41.7	-45.5	12.2	2.14e-04	0	62	0	204472320	54	5780
2026-01-27 07:48:56.49	40.56	15.27	-41.7	-45.6	12.1	2.22e-04	0	62	0	206569472	54	5827
2026-01-27 07:48:57.50	40.35	15.27	-41.7	-45.7	12.1	2.62e-04	0	62	0	208666624	54	5868
2026-01-27 07:48:58.51	40.13	15.26	-41.8	-45.8	12.0	2.88e-04	0	62	0	210763776	54	5933
2026-01-27 07:48:59.52	39.92	15.26	-41.7	-45.7	12.0	2.93e-04	0	62	0	211812352	54	5885
2026-01-27 07:49:00.53	39.70	15.25	-41.7	-45.6	12.1	2.76e-04	0	62	0	213909504	54	5831
2026-01-27 07:49:01.54	39.49	15.24	-41.7	-45.6	12.1	2.46e-04	0	62	0	216006656	54	5842
2026-01-27 07:49:02.55	39.27	15.24	-41.7	-45.6	12.2	2.50e-04	0	62	0	218103808	54	5832
2026-01-27 07:49:03.56	39.06	15.23	-41.6	-45.5	12.3	1.96e-04	0	62	0	220200960	54	5743
2026-01-27 07:49:04.57	38.84	15.22	-41.7	-45.6	12.1	2.18e-04	0	62	0	221249536	54	5836
2026-01-27 07:49:05.58	38.63	15.21	-41.7	-45.7	12.1	3.23e-04	0	62	0	223346688	54	5879
2026-01-27 07:49:06.59	38.41	15.20	-41.8	-45.7	12.0	3.20e-04	0	62	0	225443840	54	5921
2026-01-27 07:49:07.59	38.20	15.19	-41.8	-45.8	12.0	3.07e-04	0	62	0	227540992	54	5934
2026-01-27 07:49:08.60	37.99	15.18	-41.7	-45.8	12.0	3.51e-04	0	62	0	229638144	54	5928
2026-01-27 07:49:09.62	37.77	15.17	-41.7	-45.6	12.2	2.83e-04	0	62	0	230686720	54	5802
2026-01-27 07:49:10.63	37.56	15.16	-41.6	-45.4	12.3	2.00e-04	0	62	0	232783872	54	5712
2026-01-27 07:49:11.64	37.34	15.15	-41.5	-45.3	12.5	1.39e-04	0	62	0	234881024	54	5617
2026-01-27 07:49:12.65	37.13	15.14	-41.5	-45.2	12.5	1.31e-04	0	62	0	236978176	54	5584
2026-01-27 07:49:13.66	36.91	15.13	-41.4	-45.1	12.7	9.46e-05	0	62	0	239075328	54	5494
2026-01-27 07:49:14.67	36.70	15.12	-41.5	-45.2	12.6	9.46e-05	0	62	0	240123904	54	5542
2026-01-27 07:49:15.68	36.49	15.11	-41.6	-45.3	12.5	1.21e-04	0	62	0	242221056	54	5634
2026-01-27 07:49:16.68	36.28	15.09	-41.6	-45.4	12.4	1.43e-04	0	62	0	244318208	54	5666
2026-01-27 07:49:17.69	36.06	15.08	-41.5	-45.3	12.5	1.40e-04	0	62	0	246415360	54	5619
2026-01-27 07:49:18.70	35.85	15.07	-41.5	-45.3	12.4	1.38e-04	0	62	0	248512512	54	5635
2026-01-27 07:49:19.71	35.64	15.05	-41.5	-45.3	12.5	1.37e-04	0	62	0	249561088	54	5615
2026-01-27 07:49:20.72	35.43	15.04	-41.4	-45.1	12.7	1.07e-04	0	62	0	251658240	54	5477
2026-01-27 07:49:21.73	35.21	15.02	-41.4	-45.0	12.7	6.86e-05	0	62	0	253755392	54	5453
2026-01-27 07:49:22.74	35.00	15.01	-41.4	-45.1	12.7	6.86e-05	0	62	0	255852544	54	5474
2026-01-27 07:49:23.75	34.79	14.99	-41.4	-44.9	12.9	4.95e-05	0	62	0	257949696	54	5379
2026-01-27 07:49:24.76	34.58	14.98	-41.4	-44.9	12.8	6.86e-05	0	62	0	260046848	54	5402
2026-01-27 07:49:25.77	34.37	14.96	-41.4	-45.1	12.7	7.09e-05	0	62	0	261095424	54	5475
2026-01-27 07:49:26.78	34.16	14.94	-41.5	-45.2	12.6	8.69e-05	0	62	0	263192576	54	5545
2026-01-27 07:49:27.79	33.95	14.93	-41.5	-45.2	12.5	1.04e-04	0	62	0	265289728	54	5586
2026-01-27 07:49:28.80	33.74	14.91	-41.5	-45.3	12.5	1.17e-04	0	62	0	267386880	54	5599
2026-01-27 07:49:29.80	33.53	14.89	-41.5	-45.2	12.5	1.27e-04	0	62	0	269484032	54	5557
2026-01-27 07:49:30.81	33.32	14.87	-41.5	-45.2	12.6	1.12e-04	0	62	0	270532608	54	5556
2026-01-27 07:49:31.83	33.11	14.86	-41.5	-45.2	12.6	9.38e-05	0	62	0	272629760	54	5532
2026-01-27 07:49:32.84	32.90	14.84	-41.5	-45.2	12.6	9.91e-05	0	62	0	274726912	54	5548
2026-01-27 07:49:33.84	32.69	14.82	-41.5	-45.1	12.6	9.84e-05	0	62	0	276824064	54	5528
2026-01-27 07:49:34.85	32.48	14.80	-41.6	-45.3	12.4	1.23e-04	0	62	0	278921216	54	5652
2026-01-27 07:49:35.87	32.27	14.78	-41.6	-45.4	12.4	1.28e-04	0	62	0	279969792	54	5678
2026-01-27 07:49:36.88	32.06	14.76	-41.6	-45.4	12.4	1.03e-04	0	62	0	282066944	54	5664
2026-01-27 07:49:37.89	31.86	14.74	-41.6	-45.4	12.4	1.45e-04	0	62	0	284164096	54	5657
2026-01-27 07:49:38.90	31.65	14.72	-41.6	-45.4	12.3	1.56e-04	0	62	0	286261248	54	5685
2026-01-27 07:49:39.91	31.44	14.69	-41.6	-45.4	12.4	1.69e-04	0	62	0	288358400	54	5661
2026-01-27 07:49:40.92	31.23	14.67	-41.6	-45.4	12.3	1.65e-04	0	62	0	289406976	54	5707
2026-01-27 07:49:41.93	31.03	14.65	-41.6	-45.4	12.4	1.69e-04	0	62	0	291504128	54	5688
2026-01-27 07:49:42.94	30.82	14.63	-41.6	-45.4	12.4	1.55e-04	0	62	0	293601280	54	5688
2026-01-27 07:49:43.95	30.61	14.61	-41.6	-45.4	12.4	1.48e-04	0	62	0	295698432	54	5658
2026-01-27 07:49:44.96	30.41	14.58	-41.6	-45.4	12.3	1.56e-04	0	62	0	297795584	54	5715
2026-01-27 07:49:45.97	30.20	14.56	-41.6	-45.5	12.2	1.68e-04	0	62	0	298844160	54	5757
2026-01-27 07:49:46.98	30.00	14.54	-41.7	-45.5	12.2	2.40e-04	0	62	0	300941312	54	5775
2026-01-27 07:49:47.99	29.79	14.51	-41.7	-45.7	12.1	2.72e-04	0	62	0	303038464	54	5871
2026-01-27 07:49:49.00	29.59	14.49	-41.8	-45.8	11.9	3.21e-04	0	62	0	305135616	54	5950
2026-01-27 07:49:50.01	29.38	14.46	-41.8	-45.8	11.9	3.47e-04	0	62	0	307232768	54	5959
2026-01-27 07:49:51.02	29.18	14.44	-41.8	-45.8	12.0	3.55e-04	0	62	0	308281344	54	5928
2026-01-27 07:49:52.03	28.98	14.41	-41.8	-45.8	11.9	3.90e-04	0	62	0	310378496	54	5978
2026-01-27 07:49:53.04	28.77	14.39	-41.7	-45.7	12.0	3.85e-04	0	62	0	312475648	54	5890
2026-01-27 07:49:54.05	28.57	14.36	-41.7	-45.7	12.1	2.73e-04	0	62	0	314572800	54	5867
2026-01-27 07:49:55.07	28.37	14.33	-41.7	-45.6	12.1	2.42e-04	0	62	0	316669952	54	5826
2026-01-27 07:49:56.07	28.17	14.31	-41.7	-45.7	12.1	2.91e-04	0	62	0	317718528	54	5862
2026-01-27 07:49:57.09	27.96	14.28	-41.7	-45.7	12.1	3.14e-04	0	62	0	319815680	54	5889
2026-01-27 07:49:58.10	27.76	14.25	-41.7	-45.6	12.1	2.56e-04	0	62	0	321912832	54	5806
2026-01-27 07:49:59.11	27.56	14.22	-41.7	-45.7	12.0	2.43e-04	0	62	0	324009984	54	5876
2026-01-27 07:50:00.11	27.36	14.20	-41.7	-45.6	12.1	2.61e-04	0	62	0	326107136	54	5829
2026-01-27 07:50:01.12	27.16	14.17	-41.7	-45.7	12.0	2.59e-04	0	62	0	328204288	54	5856
2026-01-27 07:50:02.13	26.96	14.14	-41.6	-45.5	12.2	2.27e-04	0	62	0	329252864	54	5732
2026-01-27 07:50:03.14	26.77	14.11	-41.5	-45.2	12.5	1.77e-04	0	62	0	331350016	54	5583
2026-01-27 07:50:04.15	26.57	14.08	-41.6	-45.4	12.3	1.19e-04	0	62	0	333447168	54	5670
2026-01-27 07:50:05.16	26.37	14.05	-41.5	-45.2	12.5	1.62e-04	0	62	0	335544320	54	5583
2026-01-27 07:50:06.17	26.17	14.02	-41.5	-45.2	12.5	1.12e-04	0	62	0	337641472	54	5547
2026-01-27 07:50:07.18	25.97	13.99	-41.5	-45.3	12.4	1.36e-04	0	62	0	338690048	54	5632
2026-01-27 07:50:08.20	25.77	13.96	-41.5	-45.3	12.4	1.43e-04	0	62	0	340787200	54	5625
2026-01-27 07:50:09.21	25.58	13.93	-41.5	-45.3	12.4	1.48e-04	0	62	0	342884352	54	5619
2026-01-27 07:50:10.22	25.38	13.90	-41.5	-45.3	12.4	1.30e-04	0	62	0	344981504	54	5622
2026-01-27 07:50:11.23	25.18	13.87	-41.5	-45.3	12.4	1.33e-04	0	62	0	347078656	54	5604
2026-01-27 07:50:12.24	24.99	13.83	-41.5	-45.3	12.5	1.24e-04	0	62	0	348127232	54	5596
2026-01-27 07:50:13.25	24.79	13.80	-41.5	-45.3	12.4	1.28e-04	0	62	0	350224384	54	5614
2026-01-27 07:50:14.25	24.60	13.77	-41.5	-45.2	12.5	1.30e-04	0	62	0	352321536	54	5579
2026-01-27 07:50:15.27	24.41	13.74	-41.5	-45.3	12.4	9.68e-05	0	62	0	354418688	54	5627
2026-01-27 07:50:16.28	24.21	13.70	-41.5	-45.4	12.3	1.36e-04	0	62	0	356515840	54	5665
2026-01-27 07:50:17.29	24.02	13.67	-41.5	-45.3	12.4	1.27e-04	0	62	0	357564416	54	5641
2026-01-27 07:50:18.30	23.83	13.64	-41.6	-45.4	12.3	1.64e-04	0	62	0	359661568	54	5670
2026-01-27 07:50:19.31	23.63	13.60	-41.6	-45.4	12.2	1.95e-04	0	62	0	361758720	54	5719
2026-01-27 07:50:20.32	23.44	13.57	-41.6	-45.4	12.3	2.32e-04	0	62	0	363855872	54	5709
2026-01-27 07:50:21.33	23.25	13.53	-41.5	-45.4	12.3	1.67e-04	0	62	0	365953024	54	5659
2026-01-27 07:50:22.34	23.06	13.50	-41.5	-45.3	12.4	1.69e-04	0	62	0	367001600	54	5616
2026-01-27 07:50:23.35	22.87	13.47	-41.5	-45.3	12.4	1.61e-04	0	62	0	369098752	54	5608
2026-01-27 07:50:24.36	22.68	13.43	-41.5	-45.3	12.3	1.67e-04	0	62	0	371195904	54	5638
2026-01-27 07:50:25.37	22.49	13.40	-41.4	-45.2	12.5	1.28e-04	0	62	0	373293056	54	5561
2026-01-27 07:50:26.38	22.30	13.36	-41.4	-45.2	12.5	1.23e-04	0	62	0	375390208	54	5543
2026-01-27 07:50:27.39	22.11	13.32	-41.5	-45.2	12.4	1.20e-04	0	62	0	376438784	54	5584
2026-01-27 07:50:28.40	21.92	13.29	-41.4	-45.2	12.4	1.30e-04	0	62	0	378535936	54	5553
2026-01-27 07:50:29.41	21.73	13.25	-41.5	-45.3	12.4	1.80e-04	0	62	0	380633088	54	5608
2026-01-27 07:50:30.42	21.55	13.21	-41.5	-45.4	12.2	1.56e-04	0	62	0	382730240	54	5672
2026-01-27 07:50:31.43	21.36	13.18	-41.5	-45.4	12.3	2.27e-04	0	62	0	384827392	54	5676
2026-01-27 07:50:32.44	21.17	13.14	-41.5	-45.3	12.3	2.04e-04	0	62	0	385875968	54	5637
2026-01-27 07:50:33.44	20.99	13.10	-41.6	-45.4	12.2	2.19e-04	0	62	0	387973120	54	5700
2026-01-27 07:50:34.46	20.80	13.07	-41.6	-45.5	12.2	2.04e-04	0	62	0	390070272	54	5732
2026-01-27 07:50:35.46	20.62	13.03	-41.6	-45.4	12.2	2.19e-04	0	62	0	392167424	54	5710
2026-01-27 07:50:36.47	20.44	12.99	-41.5	-45.4	12.3	1.95e-04	0	62	0	394264576	54	5689
2026-01-27 07:50:37.49	20.25	12.95	-41.5	-45.3	12.3	1.66e-04	0	62	0	396361728	54	5654
2026-01-27 07:50:38.50	20.07	12.91	-41.5	-45.4	12.2	1.80e-04	0	62	0	397410304	54	5674
2026-01-27 07:50:39.51	19.88	12.87	-41.5	-45.4	12.2	2.17e-04	0	62	0	399507456	54	5702
2026-01-27 07:50:40.52	19.70	12.84	-41.6	-45.6	12.1	2.55e-04	0	62	0	401604608	54	5791
2026-01-27 07:50:41.53	19.52	12.80	-41.7	-45.7	11.9	3.39e-04	0	62	0	403701760	54	5896
2026-01-27 07:50:42.54	19.34	12.76	-41.7	-45.8	11.8	4.87e-04	0	62	0	405798912	54	5947
2026-01-27 07:50:43.54	19.16	12.72	-41.8	-45.9	11.7	5.12e-04	0	62	0	406847488	54	6022
2026-01-27 07:50:44.55	18.98	12.68	-41.8	-46.0	11.6	6.84e-04	0	62	0	408944640	54	6072
2026-01-27 07:50:45.56	18.80	12.64	-41.9	-46.1	11.5	7.70e-04	0	62	0	411041792	54	6167
2026-01-27 07:50:46.58	18.62	12.60	-41.8	-46.1	11.5	8.91e-04	0	62	0	413138944	54	6159
2026-01-27 07:50:47.59	18.44	12.56	-41.9	-46.1	11.4	9.04e-04	0	62	0	415236096	54	6186
2026-01-27 07:50:48.60	18.26	12.52	-41.9	-46.2	11.4	1.02e-03	0	62	0	416284672	54	6230
2026-01-27 07:50:49.61	18.08	12.47	-41.9	-46.4	11.2	1.26e-03	0	62	0	418381824	54	6353
2026-01-27 07:50:50.61	17.90	12.43	-42.0	-46.4	11.1	1.41e-03	0	62	0	420478976	54	6417
2026-01-27 07:50:51.62	17.73	12.39	-42.0	-46.4	11.1	1.64e-03	0	62	0	422576128	54	6410
2026-01-27 07:50:52.64	17.55	12.35	-42.0	-46.4	11.1	1.55e-03	0	62	0	424673280	54	6378
2026-01-27 07:50:53.64	17.38	12.31	-42.0	-46.5	11.0	1.66e-03	0	62	0	425721856	54	6464
2026-01-27 07:50:54.65	17.20	12.27	-42.0	-46.6	11.0	1.95e-03	0	62	0	427819008	54	6499
2026-01-27 07:50:55.66	17.02	12.23	-42.1	-46.7	10.8	2.42e-03	0	62	0	429916160	54	6573
2026-01-27 07:50:56.67	16.85	12.18	-42.1	-46.7	10.7	2.71e-03	0	62	0	432013312	54	6641
2026-01-27 07:50:57.68	16.68	12.14	-42.1	-46.9	10.5	3.10e-03	0	62	0	434110464	54	6778
2026-01-27 07:50:58.69	16.50	12.10	-42.2	-47.1	10.4	4.33e-03	0	62	0	435159040	54	6889
2026-01-27 07:50:59.70	16.33	12.06	-42.2	-47.1	10.3	4.83e-03	0	62	0	437256192	55	6515
2026-01-27 07:51:00.71	16.16	12.01	-42.3	-47.3	10.1	5.67e-03	0	62	0	439353344	55	6666
2026-01-27 07:51:01.72	15.99	11.97	-42.3	-47.3	10.1	7.20e-03	0	62	0	441450496	55	6700
2026-01-27 07:51:02.73	15.81	11.93	-42.3	-47.4	9.9	7.96e-03	0	62	0	443547648	55	6789
2026-01-27 07:51:03.74	15.64	11.88	-42.4	-47.5	9.8	9.14e-03	0	62	0	444596224	55	6854
2026-01-27 07:51:04.75	15.47	11.84	-42.4	-47.6	9.7	1.02e-02	0	62	0	446693376	55	6938
2026-01-27 07:51:05.76	15.30	11.80	-42.4	-47.6	9.7	1.04e-02	0	62	0	448790528	55	6900
2026-01-27 07:51:06.77	15.13	11.75	-42.4	-47.6	9.7	1.10e-02	0	62	0	450887680	55	6924
2026-01-27 07:51:07.78	14.97	11.71	-42.3	-47.6	9.6	1.20e-02	0	62	0	452984832	55	6935
2026-01-27 07:51:08.79	14.80	11.66	-42.4	-47.7	9.6	1.26e-02	0	62	0	454033408	55	6966
2026-01-27 07:51:09.80	14.63	11.62	-42.3	-47.5	9.7	1.09e-02	0	62	0	456130560	55	6866
2026-01-27 07:51:10.81	14.46	11.57	-42.3	-47.5	9.7	1.16e-02	0	62	0	458227712	55	6876
2026-01-27 07:51:11.82	14.30	11.53	-42.3	-47.7	9.6	1.24e-02	0	62	0	460324864	55	6977
2026-01-27 07:51:12.83	14.13	11.48	-42.4	-47.8	9.4	1.60e-02	0	62	0	462422016	55	7073
2026-01-27 07:51:13.84	13.96	11.44	-42.4	-48.0	9.2	1.78e-02	0	62	0	464519168	55	7231
2026-01-27 07:51:14.85	13.80	11.39	-42.4	-48.1	9.1	2.54e-02	0	62	0	465567744	55	7343
2026-01-27 07:51:15.86	13.63	11.35	-42.5	-48.3	8.8	2.87e-02	0	62	0	467664896	55	7478
2026-01-27 07:51:16.87	13.47	11.30	-42.5	-48.3	8.8	3.36e-02	0	62	0	469762048	55	7526
2026-01-27 07:51:17.88	13.31	11.26	-42.5	-48.3	8.8	3.19e-02	0	62	0	471859200	55	7502
2026-01-27 07:51:18.89	13.14	11.21	-42.5	-48.4	8.6	3.68e-02	0	62	0	473956352	55	7600
2026-01-27 07:51:19.90	12.98	11.16	-42.4	-48.4	8.6	3.92e-02	0	62	0	475004928	55	7550
2026-01-27 07:51:20.91	12.82	11.12	-42.4	-48.2	8.8	3.46e-02	0	62	0	477102080	55	7421
2026-01-27 07:51:21.93	12.66	11.07	-42.4	-48.4	8.5	4.02e-02	0	62	0	479199232	55	7581
2026-01-27 07:51:22.94	12.49	11.03	-42.3	-48.5	8.3	4.94e-02	0	62	0	481296384	55	7632
2026-01-27 07:51:23.95	12.33	10.98	-42.2	-48.2	8.4	4.90e-02	0	62	0	483393536	55	7399
2026-01-27 07:51:24.96	12.17	10.93	-42.1	-48.2	8.3	4.66e-02	0	62	0	484442112	55	7391
2026-01-27 07:51:25.97	12.01	10.89	-42.1	-48.5	7.9	5.99e-02	0	62	0	486539264	55	7647
2026-01-27 07:51:26.98	11.86	10.84	-41.9	-48.4	7.9	8.08e-02	0	62	0	488636416	55	7547
2026-01-27 07:51:27.99	11.70	10.79	-41.8	-48.0	8.1	6.40e-02	0	62	0	490733568	55	7266
2026-01-27 07:51:29.00	11.54	10.74	-41.6	-48.0	7.9	6.05e-02	0	62	0	492830720	55	7238
2026-01-27 07:51:30.01	11.38	10.70	-41.6	-48.4	7.4	8.16e-02	0	62	0	493879296	55	7576
2026-01-27 07:51:31.02	11.23	10.65	-41.6	-49.2	6.5	1.94e-01	0	62	0	495976448	55	8326
2026-01-27 07:51:32.03	11.07	10.60	-41.7	-50.2	5.6	3.61e-01	0	62	0	498073600	55	9371
2026-01-27 07:51:33.04	10.91	10.55	-41.6	-51.3	4.8	6.31e-01	0	62	0	500170752	55	10650
2026-01-27 07:51:34.05	10.76	10.51	-41.5	-52.5	4.2	1.02e+00	0	62	0	501219328	55	12209
2026-01-27 07:51:35.06	10.60	10.46	-41.4	-53.4	3.9	1.46e+00	0	62	104	501219328	54	14284
2026-01-27 07:51:36.07	10.45	10.41	-40.7	-54.8	3.8	1.49e+00	0	62	104	501219328	53	17741
2026-01-27 07:51:37.08	10.30	10.36	-42.5	-55.5	3.8	1.49e+00	0	62	104	501219328	55	17119
2026-01-27 07:51:38.09	10.14	10.32	-42.1	-55.4	3.8	1.49e+00	0	63	104	501219328	55	17020
2026-01-27 07:51:39.10	9.99	10.27	-41.1	-55.4	3.8	1.49e+00	0	62	104	501219328	54	17933
2026-01-27 07:51:40.11	9.84	10.22	-41.1	-55.0	3.8	1.49e+00	0	62	104	501219328	54	17157
2026-01-27 07:51:41.12	9.69	10.17	-40.9	-55.1	3.8	1.49e+00	0	62	104	501219328	53	18351
2026-01-27 07:51:42.13	9.53	10.12	-40.8	-55.1	3.8	1.49e+00	0	62	104	501219328	53	18506
2026-01-27 07:51:43.14	9.38	10.07	-41.0	-55.5	3.8	1.49e+00	0	62	104	501219328	53	19373
2026-01-27 07:51:44.15	9.23	10.02	-40.9	-55.2	3.8	1.49e+00	0	62	104	501219328	53	18703
2026-01-27 07:51:45.16	9.08	9.98	-40.2	-54.9	3.8	1.49e+00	0	62	104	501219328	52	18970
2026-01-27 07:51:46.17	8.94	9.93	-40.9	-55.2	3.8	1.49e+00	0	62	104	501219328	52	19829
2026-01-27 07:51:47.18	8.79	9.88	-40.1	-54.7	3.8	1.49e+00	0	62	104	501219328	52	18715
2026-01-27 07:51:48.19	8.64	9.83	-40.1	-54.7	3.8	1.49e+00	0	62	104	501219328	52	18597
2026-01-27 07:51:49.20	8.49	9.78	-40.5	-55.1	3.8	1.49e+00	0	62	104	501219328	52	19433
2026-01-27 07:51:50.21	8.34	9.73	-40.5	-55.1	3.8	1.49e+00	0	62	104	501219328	52	19523
2026-01-27 07:51:51.22	8.20	9.68	-40.0	-54.6	3.8	1.49e+00	0	62	104	501219328	52	18367
2026-01-27 07:51:52.24	8.05	9.63	-40.0	-54.6	3.8	1.49e+00	0	62	104	501219328	51	19468
2026-01-27 07:51:53.25	7.90	9.58	-40.0	-54.6	3.8	1.49e+00	0	63	104	501219328	51	19420
2026-01-27 07:51:54.26	7.76	9.53	-40.0	-54.6	3.8	1.49e+00	0	62	104	501219328	51	19429
2026-01-27 07:51:55.27	7.62	9.48	-40.0	-54.5	3.8	1.49e+00	0	62	104	501219328	51	19345
2026-01-27 07:51:56.28	7.47	9.43	-40.0	-54.5	3.8	1.49e+00	0	63	104	501219328	51	19334
2026-01-27 07:51:57.29	7.33	9.38	-40.3	-54.9	3.8	1.49e+00	0	62	104	501219328	51	20239
2026-01-27 07:51:58.30	7.18	9.33	-40.0	-54.5	3.8	1.49e+00	0	62	104	501219328	51	19389
2026-01-27 07:51:59.30	7.04	9.28	-40.2	-54.7	3.8	1.49e+00	0	62	104	501219328	51	19782
2026-01-27 07:52:00.31	6.90	9.23	-40.2	-54.7	3.8	1.49e+00	0	63	104	501219328	51	19812
2026-01-27 07:52:01.33	6.76	9.18	-39.9	-54.4	3.8	1.49e+00	0	62	104	501219328	51	19046
2026-01-27 07:52:02.33	6.62	9.13	-39.9	-54.4	3.8	1.49e+00	0	62	104	501219328	51	19118
2026-01-27 07:52:03.34	6.48	9.08	-40.1	-54.6	3.8	1.49e+00	0	62	104	501219328	51	19595
2026-01-27 07:52:04.36	6.34	9.03	-40.0	-54.6	3.8	1.49e+00	0	62	104	501219328	51	19432
2026-01-27 07:52:05.37	6.20	8.98	-39.9	-54.3	3.8	1.49e+00	0	63	104	501219328	51	18813
2026-01-27 07:52:06.38	6.06	8.93	-39.9	-54.4	3.8	1.49e+00	0	63	104	501219328	51	19024
2026-01-27 07:52:07.39	5.92	8.88	-40.0	-54.5	3.8	1.49e+00	0	62	104	501219328	51	19321
2026-01-27 07:52:08.40	5.78	8.83	-40.0	-54.5	3.8	1.49e+00	0	63	104	501219328	51	19199
2026-01-27 07:52:09.41	5.64	8.78	-39.9	-54.4	3.8	1.49e+00	0	63	104	501219328	51	18989
2026-01-27 07:52:10.42	5.51	8.73	-39.9	-54.4	3.8	1.49e+00	0	63	104	501219328	51	19043
2026-01-27 07:52:11.43	5.37	8.68	-40.0	-54.4	3.8	1.49e+00	0	63	104	501219328	51	19123
2026-01-27 07:52:12.44	5.24	8.63	-39.9	-54.5	3.8	1.49e+00	0	63	104	501219328	51	19218
2026-01-27 07:52:13.45	5.10	8.58	-39.9	-54.4	3.8	1.49e+00	0	63	104	501219328	51	19099
2026-01-27 07:52:14.46	4.96	8.52	-39.9	-54.4	3.8	1.49e+00	0	63	104	501219328	51	19115
2026-01-27 07:52:15.47	4.83	8.47	-39.9	-54.5	3.8	1.49e+00	0	62	104	501219328	51	19179
2026-01-27 07:52:16.48	4.70	8.42	-39.9	-54.4	3.8	1.49e+00	0	62	104	501219328	51	19154
2026-01-27 07:52:17.49	4.56	8.37	-39.9	-54.4	3.8	1.49e+00	0	63	104	501219328	51	19141
2026-01-27 07:52:18.50	4.43	8.32	-39.9	-54.4	3.8	1.49e+00	0	62	104	501219328	51	19164
2026-01-27 07:52:19.51	4.30	8.27	-39.9	-54.5	3.8	1.49e+00	0	62	104	501219328	51	19222
2026-01-27 07:52:20.52	4.16	8.22	-39.9	-54.5	3.8	1.49e+00	0	62	104	501219328	51	19203
2026-01-27 07:52:21.53	4.03	8.17	-40.0	-54.5	3.8	1.49e+00	0	63	104	501219328	51	19278
2026-01-27 07:52:22.54	3.90	8.12	-39.9	-54.5	3.8	1.49e+00	0	62	104	501219328	51	19226
2026-01-27 07:52:23.55	3.77	8.06	-40.0	-54.5	3.8	1.49e+00	0	63	104	501219328	51	19218
2026-01-27 07:52:24.56	3.64	8.01	-40.1	-54.6	3.8	1.49e+00	0	63	104	501219328	51	19558
2026-01-27 07:52:25.57	3.51	7.96	-44.0	-58.4	3.9	1.49e+00	0	63	104	501219328	58	20179
2026-01-27 07:52:26.58	3.38	7.91	-44.8	-59.6	3.8	1.49e+00	0	63	104	501219328	60	20560
2026-01-27 07:52:27.59	3.25	7.86	-45.0	-59.7	3.8	1.49e+00	0	63	104	501219328	60	20814
2026-01-27 07:52:28.60	3.12	7.81	-45.2	-59.9	3.8	1.49e+00	0	63	104	501219328	60	21284
2026-01-27 07:52:29.61	3.00	7.76	-45.2	-59.9	3.8	1.49e+00	0	63	104	501219328	61	20240
2026-01-27 07:52:30.62	2.87	7.70	-45.3	-60.0	3.8	1.49e+00	0	62	104	501219328	61	20348
2026-01-27 07:52:31.63	2.74	7.65	-45.3	-60.0	3.8	1.49e+00	0	63	104	501219328	61	20459
2026-01-27 07:52:32.64	2.61	7.60	-45.3	-60.0	3.8	1.49e+00	0	62	104	501219328	61	20318
2026-01-27 07:52:33.65	2.49	7.55	-45.0	-59.9	3.8	1.49e+00	0	63	104	501219328	61	20223
2026-01-27 07:52:34.66	2.36	7.50	-45.2	-59.8	3.8	1.49e+00	0	63	104	501219328	61	20001
2026-01-27 07:52:35.68	2.24	7.45	-45.1	-59.7	3.8	1.49e+00	0	62	104	501219328	61	19783
2026-01-27 07:52:36.69	2.11	7.39	-45.1	-59.7	3.8	1.49e+00	0	63	104	501219328	61	19625
2026-01-27 07:52:37.70	1.99	7.34	-45.0	-59.6	3.8	1.49e+00	0	63	104	501219328	61	19589
2026-01-27 07:52:38.71	1.86	7.29	-45.0	-59.6	3.8	1.49e+00	0	63	104	501219328	61	19507
2026-01-27 07:52:39.72	1.74	7.24	-45.0	-59.5	3.8	1.49e+00	0	63	104	501219328	61	19361
2026-01-27 07:52:40.73	1.62	7.19	-45.0	-59.5	3.8	1.49e+00	0	63	104	501219328	61	19331
2026-01-27 07:52:41.74	1.49	7.14	-45.0	-59.5	3.8	1.49e+00	0	63	104	501219328	61	19385
2026-01-27 07:52:42.75	1.37	7.08	-44.9	-59.6	3.8	1.49e+00	0	63	104	501219328	61	19403
2026-01-27 07:52:43.76	1.25	7.03	-45.0	-59.5	3.8	1.49e+00	0	63	104	501219328	61	19335
2026-01-27 07:52:44.77	1.13	6.98	-45.0	-59.5	3.8	1.49e+00	0	63	104	501219328	61	19361
2026-01-27 07:52:45.78	1.01	6.93	-45.0	-59.6	3.8	1.49e+00	0	63	104	501219328	61	19394
2026-01-27 07:52:46.79	0.89	6.88	-45.0	-59.6	3.8	1.49e+00	0	63	104	501219328	61	19402
2026-01-27 07:52:47.80	0.77	6.82	-45.0	-59.5	3.8	1.49e+00	0	63	104	501219328	61	19365
2026-01-27 07:52:48.82	0.65	6.77	-45.0	-59.5	3.8	1.49e+00	0	63	104	501219328	61	19322
2026-01-27 07:52:49.83	0.53	6.72	-44.9	-59.5	3.8	1.49e+00	0	63	104	501219328	61	19316
2026-01-27 07:52:50.84	0.41	6.67	-45.0	-59.6	3.8	1.49e+00	0	63	104	501219328	60	20552
2026-01-27 07:52:51.85	0.29	6.62	-45.0	-59.5	3.8	1.49e+00	0	63	104	501219328	60	20512
2026-01-27 07:52:52.86	0.17	6.56	-45.0	-59.5	3.8	1.49e+00	0	63	104	501219328	60	20447
2026-01-27 07:52:53.87	0.06	6.51	-45.0	-59.5	3.8	1.49e+00	0	63	104	501219328	60	20474
2026-01-27 07:52:54.88	359.94	6.46	-45.0	-59.5	3.8	1.49e+00	0	63	104	501219328	60	20440
2026-01-27 07:52:55.89	359.82	6.41	-45.0	-59.5	3.8	1.49e+00	0	62	104	501219328	60	20476
2026-01-27 07:52:56.90	359.71	6.36	-45.0	-59.5	3.8	1.49e+00	0	63	104	501219328	60	20480
2026-01-27 07:52:57.91	359.59	6.30	-45.0	-59.5	3.8	1.49e+00	0	63	104	501219328	60	20465
2026-01-27 07:52:58.92	359.48	6.25	-45.0	-59.5	3.8	1.49e+00	0	63	104	501219328	60	20521
2026-01-27 07:52:59.93	359.36	6.20	-45.0	-59.5	3.8	1.49e+00	0	63	104	501219328	60	20467
2026-01-27 07:53:00.94	359.25	6.15	-45.0	-59.5	3.8	1.49e+00	0	63	104	501219328	60	20492
2026-01-27 07:53:01.95	359.14	6.10	-45.0	-59.6	3.8	1.49e+00	0	63	104	501219328	60	20556
2026-01-27 07:53:02.96	359.02	6.04	-45.0	-59.5	3.8	1.49e+00	0	63	104	501219328	60	20503
2026-01-27 07:53:03.97	358.91	5.99	-45.0	-59.5	3.8	1.49e+00	0	63	104	501219328	60	20481
2026-01-27 07:53:04.98	358.80	5.94	-45.0	-59.5	3.8	1.49e+00	0	63	104	501219328	60	20495
2026-01-27 07:53:06.00	358.68	5.89	-45.0	-59.5	3.8	1.49e+00	0	63	104	501219328	60	20406
2026-01-27 07:53:07.00	358.57	5.84	-45.0	-59.5	3.8	1.49e+00	0	63	104	501219328	60	20485
2026-01-27 07:53:08.01	358.46	5.78	-45.0	-59.6	3.8	1.49e+00	0	63	104	501219328	60	20585
2026-01-27 07:53:09.02	358.35	5.73	-45.0	-59.5	3.8	1.49e+00	0	63	104	501219328	60	20517
2026-01-27 07:53:10.03	358.24	5.68	-45.0	-59.5	3.8	1.49e+00	0	63	104	501219328	60	20502
2026-01-27 07:53:11.05	358.13	5.63	-45.0	-59.5	3.8	1.49e+00	0	63	104	501219328	60	20512
2026-01-27 07:53:12.06	358.02	5.58	-45.0	-59.5	3.8	1.49e+00	0	63	104	501219328	60	20493
2026-01-27 07:53:13.07	357.91	5.52	-45.0	-59.5	3.8	1.49e+00	0	63	104	501219328	60	20501
2026-01-27 07:53:14.08	357.80	5.47	-45.0	-59.5	3.8	1.49e+00	0	63	104	501219328	60	20505
2026-01-27 07:53:15.09	357.69	5.42	-45.0	-59.5	3.8	1.49e+00	0	63	104	501219328	60	20449
2026-01-27 07:53:16.10	357.58	5.37	-45.0	-59.5	3.8	1.49e+00	0	63	104	501219328	60	20494
2026-01-27 07:53:17.11	357.48	5.32	-45.0	-59.5	3.8	1.49e+00	0	63	104	501219328	60	20489
2026-01-27 07:53:18.12	357.37	5.26	-45.0	-59.5	3.8	1.49e+00	0	63	104	501219328	60	20506
2026-01-27 07:53:19.13	357.26	5.21	-45.0	-59.5	3.8	1.49e+00	0	63	104	501219328	60	20515
2026-01-27 07:53:20.14	357.16	5.16	-45.0	-59.5	3.8	1.49e+00	0	62	104	501219328	60	20450
2026-01-27 07:53:21.15	357.05	5.11	-45.0	-59.5	3.8	1.49e+00	0	62	104	501219328	60	20444
2026-01-27 07:53:22.16	356.94	5.06	-45.0	-59.6	3.8	1.49e+00	0	63	104	501219328	60	20572
2026-01-27 07:53:23.17	356.84	5.00	-45.0	-59.5	3.8	1.49e+00	0	63	104	501219328	60	20470
2026-01-27 07:53:24.18	356.73	4.95	-45.0	-59.5	3.8	1.49e+00	0	63	104	501219328	60	20513
2026-01-27 07:53:25.19	356.63	4.90	-45.0	-59.5	3.8	1.49e+00	0	63	104	501219328	60	20429
2026-01-27 07:53:26.20	356.53	4.85	-45.0	-59.5	3.8	1.49e+00	0	63	104	501219328	60	20456
2026-01-27 07:53:27.21	356.42	4.80	-45.0	-59.6	3.8	1.49e+00	0	63	104	501219328	60	20576
2026-01-27 07:53:28.22	356.32	4.74	-45.0	-59.5	3.8	1.49e+00	0	63	104	501219328	60	20476
2026-01-27 07:53:29.23	356.22	4.69	-45.0	-59.5	3.8	1.49e+00	0	63	104	501219328	60	20475
2026-01-27 07:53:30.24	356.11	4.64	-45.0	-59.5	3.8	1.49e+00	0	63	104	501219328	60	20441
2026-01-27 07:53:31.25	356.01	4.59	-45.0	-59.5	3.8	1.49e+00	0	63	104	501219328	60	20515
2026-01-27 07:53:32.26	355.91	4.54	-45.0	-59.5	3.8	1.49e+00	0	63	104	501219328	60	20494
2026-01-27 07:53:33.28	355.81	4.49	-45.0	-59.6	3.8	1.49e+00	0	63	104	501219328	60	20543
2026-01-27 07:53:34.29	355.70	4.43	-45.0	-59.5	3.8	1.49e+00	0	63	104	501219328	60	20430
2026-01-27 07:53:35.30	355.60	4.38	-45.0	-59.5	3.8	1.49e+00	0	63	104	501219328	60	20447
2026-01-27 07:53:36.31	355.50	4.33	-44.9	-59.5	3.8	1.49e+00	0	63	104	501219328	60	20421
2026-01-27 07:53:37.32	355.40	4.28	-45.0	-59.6	3.8	1.49e+00	0	63	104	501219328	60	20669
2026-01-27 07:53:38.33	355.30	4.23	-45.0	-59.5	3.8	1.49e+00	0	63	104	501219328	60	20459
2026-01-27 07:53:39.34	355.20	4.17	-45.0	-59.5	3.8	1.49e+00	0	63	104	501219328	60	20388
2026-01-27 07:53:40.35	355.11	4.12	-45.0	-59.5	3.8	1.49e+00	0	63	104	501219328	60	20518
2026-01-27 07:53:41.36	355.01	4.07	-44.8	-59.5	3.8	1.49e+00	0	63	104	501219328	60	20426
2026-01-27 07:53:42.37	354.91	4.02	-45.0	-59.5	3.8	1.49e+00	0	63	104	501219328	60	20443
2026-01-27 07:53:43.38	354.81	3.97	-45.0	-59.5	3.8	1.49e+00	0	63	104	501219328	60	20442
2026-01-27 07:53:44.39	354.71	3.92	-44.9	-59.5	3.8	1.49e+00	0	63	104	501219328	60	20424
2026-01-27 07:53:45.41	354.62	3.86	-45.0	-59.5	3.8	1.49e+00	0	63	104	501219328	60	20474
2026-01-27 07:53:46.42	354.52	3.81	-45.0	-59.5	3.8	1.49e+00	0	63	104	501219328	60	20369
2026-01-27 07:53:47.43	354.42	3.76	-44.9	-59.5	3.8	1.49e+00	0	63	104	501219328	60	20447
2026-01-27 07:53:48.44	354.33	3.71	-45.0	-59.5	3.8	1.49e+00	0	63	104	501219328	60	20477
2026-01-27 07:53:49.45	354.23	3.66	-44.9	-59.5	3.8	1.49e+00	0	63	104	501219328	60	20380
2026-01-27 07:53:50.46	354.13	3.61	-45.0	-59.5	3.8	1.49e+00	0	63	104	501219328	60	20457
2026-01-27 07:53:51.47	354.04	3.56	-44.9	-59.5	3.8	1.49e+00	0	63	104	501219328	60	20397
2026-01-27 07:53:52.48	353.95	3.50	-44.9	-59.5	3.8	1.49e+00	0	63	104	501219328	60	20344
2026-01-27 07:53:53.49	353.85	3.45	-44.9	-59.5	3.8	1.49e+00	0	63	104	501219328	60	20384
2026-01-27 07:53:54.50	353.76	3.40	-44.9	-59.5	3.8	1.49e+00	0	63	104	501219328	60	20436
2026-01-27 07:53:55.51	353.66	3.35	-44.9	-59.5	3.8	1.49e+00	0	62	104	501219328	60	20453
2026-01-27 07:53:56.52	353.57	3.30	-44.9	-59.5	3.8	1.49e+00	0	63	104	501219328	60	20432
2026-01-27 07:53:57.53	353.48	3.25	-44.9	-59.5	3.8	1.49e+00	0	63	104	501219328	60	20368
2026-01-27 07:53:58.54	353.38	3.20	-44.9	-59.5	3.8	1.49e+00	0	63	104	501219328	60	20396
2026-01-27 07:53:59.55	353.29	3.14	-44.9	-59.5	3.8	1.49e+00	0	63	104	501219328	60	20391
2026-01-27 07:54:00.56	353.20	3.09	-44.9	-59.5	3.8	1.49e+00	0	63	104	501219328	60	20333
2026-01-27 07:54:01.57	353.11	3.04	-44.9	-59.5	3.8	1.49e+00	0	63	104	501219328	60	20385
2026-01-27 07:54:02.58	353.02	2.99	-44.9	-59.5	3.8	1.49e+00	0	63	104	501219328	60	20380
2026-01-27 07:54:03.59	352.93	2.94	-44.7	-59.5	3.8	1.49e+00	0	63	104	501219328	60	20448
2026-01-27 07:54:04.60	352.84	2.89	-44.9	-59.5	3.8	1.49e+00	0	63	104	501219328	60	20379
2026-01-27 07:54:05.61	352.75	2.84	-44.9	-59.5	3.8	1.49e+00	0	63	104	501219328	60	20338
2026-01-27 07:54:06.62	352.66	2.79	-44.9	-59.5	3.8	1.49e+00	0	63	104	501219328	60	20332
2026-01-27 07:54:07.64	352.56	2.74	-44.9	-59.5	3.8	1.49e+00	0	63	104	501219328	60	20373
2026-01-27 07:54:08.65	352.48	2.68	-44.9	-59.5	3.8	1.49e+00	0	63	104	501219328	60	20419
2026-01-27 07:54:09.66	352.39	2.63	-44.9	-59.5	3.8	1.49e+00	0	63	104	501219328	60	20339
2026-01-27 07:54:10.67	352.30	2.58	-44.9	-59.5	3.8	1.49e+00	0	63	104	501219328	60	20427
2026-01-27 07:54:11.68	352.21	2.53	-44.9	-59.5	3.8	1.49e+00	0	63	104	501219328	60	20318
2026-01-27 07:54:12.69	352.12	2.48	-44.9	-59.5	3.8	1.49e+00	0	63	104	501219328	60	20396
2026-01-27 07:54:13.70	352.03	2.43	-44.9	-59.5	3.8	1.49e+00	0	63	104	501219328	60	20392
2026-01-27 07:54:14.71	351.95	2.38	-44.9	-59.5	3.8	1.49e+00	0	63	104	501219328	60	20406
2026-01-27 07:54:15.72	351.86	2.33	-44.9	-59.5	3.8	1.49e+00	0	63	104	501219328	60	20359
2026-01-27 07:54:16.73	351.77	2.28	-44.9	-59.5	3.8	1.49e+00	0	63	104	501219328	60	20327
2026-01-27 07:54:17.74	351.69	2.23	-44.9	-59.5	3.8	1.49e+00	0	63	104	501219328	60	20413
2026-01-27 07:54:18.75	351.60	2.18	-44.9	-59.4	3.8	1.49e+00	0	63	104	501219328	60	20290
2026-01-27 07:54:19.76	351.51	2.12	-44.9	-59.5	3.8	1.49e+00	0	63	104	501219328	60	20371
2026-01-27 07:54:20.77	351.43	2.07	-44.9	-59.5	3.8	1.49e+00	0	63	104	501219328	60	20352
2026-01-27 07:54:21.78	351.34	2.02	-44.9	-59.5	3.8	1.49e+00	0	63	104	501219328	60	20364
2026-01-27 07:54:22.79	351.26	1.97	-44.9	-59.5	3.8	1.49e+00	0	63	104	501219328	60	20392
2026-01-27 07:54:23.80	351.17	1.92	-44.9	-59.5	3.8	1.49e+00	0	63	104	501219328	60	20328
2026-01-27 07:54:24.81	351.09	1.87	-44.9	-59.5	3.8	1.49e+00	0	63	104	501219328	60	20374

#Closed at: 2026-01-27 07:54:24
#Recorded file [501 MB]: D:/lorett/data/31039_260127_104307.dat