passes_logs/2026/01/27/R2.0S_Moscow/R2.0S_Moscow__20260127_190450_FENGYUN_3G_rec.log

#Pass ID: 20260127_190450_FENGYUN 3G
#Satellite: FENGYUN 3G
#Configuration: FENGYUN 3G
#almurnet v.1.7.20251203
#Start time: 2026-01-27 19:04:51

#Version: 2.2.20231116
#Station: R2.0S_Moscow
#Location: 37.707566 lon 55.798166 lat
#TLE: 1 56232U 23055A   26026.81668957  .00042566  00000+0  63804-3 0  9995
#TLE: 2 56232  49.9949 354.9274 0004068  91.1881 268.9553 15.54453119158037

#Time	Az	El	Level	Level2	SNR	BER	BlckErr	Temp	State	Recorded	gain1	gain2
2026-01-27 19:04:51.67	259.28	2.09	-44.2	-62.5	3.8	8.46e-01	0	52	0	0	60	28729
2026-01-27 19:04:52.67	259.21	2.16	-44.2	-62.5	3.8	8.43e-01	0	52	104	0	60	28703
2026-01-27 19:04:53.68	259.14	2.22	-44.2	-62.4	3.8	8.45e-01	0	53	104	0	60	28618
2026-01-27 19:04:54.70	259.07	2.29	-44.2	-62.5	3.8	8.46e-01	0	53	104	0	60	28693
2026-01-27 19:04:55.71	259.00	2.35	-44.2	-62.4	3.8	8.46e-01	0	53	104	0	60	28662
2026-01-27 19:04:56.72	258.93	2.42	-44.2	-62.4	3.8	8.46e-01	0	53	104	0	60	28656
2026-01-27 19:04:57.73	258.86	2.49	-44.2	-62.5	3.8	8.47e-01	0	53	104	0	60	28697
2026-01-27 19:04:58.74	258.79	2.56	-44.2	-62.4	3.8	8.47e-01	0	53	104	0	60	28536
2026-01-27 19:04:59.75	258.72	2.62	-44.2	-62.4	3.8	8.46e-01	0	53	104	0	60	28602
2026-01-27 19:05:00.76	258.64	2.69	-44.2	-62.4	3.8	8.46e-01	0	53	104	0	60	28678
2026-01-27 19:05:01.77	258.57	2.76	-44.2	-62.4	3.8	8.46e-01	0	53	104	0	60	28643
2026-01-27 19:05:02.78	258.50	2.82	-44.2	-62.4	3.8	8.47e-01	0	53	104	0	60	28578
2026-01-27 19:05:03.79	258.42	2.89	-44.2	-62.5	3.8	8.45e-01	0	53	104	0	60	28695
2026-01-27 19:05:04.80	258.35	2.96	-44.2	-62.4	3.8	8.45e-01	0	53	104	0	60	28577
2026-01-27 19:05:05.81	258.27	3.03	-44.2	-62.4	3.8	8.47e-01	0	53	104	0	60	28608
2026-01-27 19:05:06.82	258.20	3.10	-44.2	-62.4	3.8	8.46e-01	0	54	104	0	60	28638
2026-01-27 19:05:07.83	258.12	3.17	-44.2	-62.4	3.8	8.45e-01	0	53	104	0	60	28569
2026-01-27 19:05:08.84	258.04	3.24	-44.2	-62.4	3.8	8.45e-01	0	53	104	0	60	28625
2026-01-27 19:05:09.85	257.97	3.31	-44.2	-62.4	3.8	8.47e-01	0	54	104	0	60	28582
2026-01-27 19:05:10.86	257.89	3.37	-44.2	-62.4	3.8	8.46e-01	0	54	104	0	60	28668
2026-01-27 19:05:11.87	257.81	3.44	-44.2	-62.4	3.8	8.46e-01	0	54	104	0	60	28620
2026-01-27 19:05:12.88	257.73	3.51	-44.2	-62.4	3.8	8.46e-01	0	54	104	0	60	28641
2026-01-27 19:05:13.89	257.65	3.58	-44.2	-62.4	3.8	8.46e-01	0	54	104	0	60	28655
2026-01-27 19:05:14.90	257.57	3.66	-44.2	-62.4	3.8	8.46e-01	0	54	104	0	60	28655
2026-01-27 19:05:15.91	257.49	3.73	-44.2	-62.4	3.8	8.46e-01	0	54	104	0	60	28567
2026-01-27 19:05:16.92	257.41	3.80	-44.2	-62.4	3.8	8.46e-01	0	54	104	0	60	28596
2026-01-27 19:05:17.93	257.33	3.87	-44.2	-62.4	3.8	8.45e-01	0	54	104	0	60	28618
2026-01-27 19:05:18.95	257.25	3.94	-44.2	-62.5	3.8	8.45e-01	0	54	104	0	60	28700
2026-01-27 19:05:19.96	257.16	4.01	-44.2	-62.4	3.8	8.46e-01	0	54	104	0	60	28671
2026-01-27 19:05:20.97	257.08	4.08	-44.2	-62.4	3.8	8.47e-01	0	54	104	0	60	28656
2026-01-27 19:05:21.98	257.00	4.16	-44.2	-62.5	3.8	8.47e-01	0	54	104	0	60	28691
2026-01-27 19:05:22.99	256.91	4.23	-44.2	-62.5	3.8	8.45e-01	0	55	104	0	60	28686
2026-01-27 19:05:24.00	256.82	4.30	-44.2	-62.4	3.8	8.46e-01	0	55	104	0	60	28652
2026-01-27 19:05:25.01	256.74	4.37	-44.2	-62.4	3.8	8.46e-01	0	55	104	0	60	28635
2026-01-27 19:05:26.02	256.65	4.45	-44.2	-62.4	3.8	8.46e-01	0	55	104	0	60	28621
2026-01-27 19:05:27.03	256.56	4.52	-44.2	-62.4	3.8	8.47e-01	0	55	104	0	60	28605
2026-01-27 19:05:28.04	256.48	4.59	-44.2	-62.4	3.8	8.47e-01	0	55	104	0	60	28648
2026-01-27 19:05:29.05	256.39	4.67	-44.2	-62.4	3.8	8.46e-01	0	55	104	0	60	28634
2026-01-27 19:05:30.06	256.30	4.74	-44.2	-62.4	3.8	8.45e-01	0	55	104	0	60	28676
2026-01-27 19:05:31.07	256.21	4.82	-44.2	-62.4	3.8	8.46e-01	0	55	104	0	60	28612
2026-01-27 19:05:32.08	256.12	4.89	-44.2	-62.4	3.8	8.46e-01	0	55	104	0	60	28645
2026-01-27 19:05:33.09	256.03	4.97	-44.2	-62.4	3.8	8.46e-01	0	55	104	0	60	28635
2026-01-27 19:05:34.10	255.93	5.04	-44.2	-62.4	3.8	8.46e-01	0	55	104	0	60	28621
2026-01-27 19:05:35.11	255.84	5.12	-44.2	-62.4	3.8	8.46e-01	0	55	104	0	60	28665
2026-01-27 19:05:36.12	255.75	5.19	-44.2	-62.4	3.8	8.45e-01	0	55	104	0	60	28638
2026-01-27 19:05:37.14	255.65	5.27	-44.2	-62.4	3.8	8.46e-01	0	55	104	0	60	28553
2026-01-27 19:05:38.15	255.56	5.35	-44.2	-62.4	3.8	8.46e-01	0	55	104	0	60	28596
2026-01-27 19:05:39.16	255.46	5.42	-44.2	-62.4	3.8	8.47e-01	0	55	104	0	60	28575
2026-01-27 19:05:40.17	255.37	5.50	-44.2	-62.4	3.8	8.45e-01	0	55	104	0	60	28567
2026-01-27 19:05:41.18	255.27	5.58	-44.2	-62.4	3.8	8.45e-01	0	55	104	0	60	28607
2026-01-27 19:05:42.19	255.17	5.65	-44.2	-62.5	3.8	8.46e-01	0	55	104	0	60	28680
2026-01-27 19:05:43.20	255.07	5.73	-44.2	-62.4	3.8	8.46e-01	0	56	104	0	60	28596
2026-01-27 19:05:44.21	254.97	5.81	-44.2	-62.5	3.8	8.46e-01	0	56	104	0	60	28681
2026-01-27 19:05:45.22	254.87	5.89	-44.2	-62.4	3.8	8.46e-01	0	56	104	0	60	28616
2026-01-27 19:05:46.23	254.77	5.97	-44.2	-62.4	3.8	8.46e-01	0	56	104	0	60	28578
2026-01-27 19:05:47.24	254.67	6.05	-44.2	-62.4	3.8	8.45e-01	0	56	104	0	60	28665
2026-01-27 19:05:48.25	254.57	6.13	-44.2	-62.4	3.8	8.45e-01	0	56	104	0	60	28632
2026-01-27 19:05:49.26	254.47	6.21	-44.2	-62.4	3.8	8.46e-01	0	56	104	0	60	28595
2026-01-27 19:05:50.28	254.36	6.29	-44.2	-62.4	3.8	8.46e-01	0	56	104	0	60	28583
2026-01-27 19:05:51.29	254.26	6.37	-44.2	-62.4	3.8	8.46e-01	0	56	104	0	60	28410
2026-01-27 19:05:52.30	254.15	6.45	-44.2	-62.4	3.8	8.46e-01	0	56	104	0	60	28451
2026-01-27 19:05:53.31	254.04	6.53	-44.2	-62.3	3.8	8.47e-01	0	56	104	0	60	28084
2026-01-27 19:05:54.32	253.94	6.61	-44.2	-62.3	3.8	8.47e-01	0	56	104	0	60	28083
2026-01-27 19:05:55.33	253.83	6.69	-44.2	-62.3	3.8	8.46e-01	0	56	104	0	60	28074
2026-01-27 19:05:56.34	253.72	6.77	-44.2	-62.2	3.8	8.46e-01	0	56	104	0	60	27942
2026-01-27 19:05:57.35	253.61	6.85	-44.2	-62.1	3.8	8.46e-01	0	56	104	0	60	27504
2026-01-27 19:05:58.36	253.50	6.94	-44.2	-62.1	3.8	8.46e-01	0	56	104	0	60	27504
2026-01-27 19:05:59.37	253.39	7.02	-44.2	-62.1	3.8	8.47e-01	0	56	104	0	60	27436
2026-01-27 19:06:00.38	253.27	7.10	-44.2	-62.1	3.8	8.46e-01	0	56	104	0	60	27442
2026-01-27 19:06:01.39	253.16	7.19	-44.2	-61.9	3.8	8.46e-01	0	56	104	0	60	27042
2026-01-27 19:06:02.40	253.05	7.27	-44.2	-61.9	3.8	8.46e-01	0	56	104	0	60	26829
2026-01-27 19:06:03.41	252.93	7.35	-44.2	-62.0	3.8	8.46e-01	0	56	104	0	60	27093
2026-01-27 19:06:04.42	252.81	7.44	-44.2	-62.1	3.8	8.46e-01	0	56	104	0	60	27684
2026-01-27 19:06:05.43	252.70	7.52	-44.2	-62.2	3.8	8.45e-01	0	57	104	0	60	27983
2026-01-27 19:06:06.44	252.58	7.61	-44.2	-62.3	3.8	8.47e-01	0	57	104	0	60	28029
2026-01-27 19:06:07.45	252.46	7.69	-44.2	-62.3	3.8	8.47e-01	0	57	104	0	60	28082
2026-01-27 19:06:08.47	252.34	7.78	-44.2	-62.3	3.8	8.47e-01	0	57	104	0	60	28153
2026-01-27 19:06:09.48	252.22	7.87	-44.2	-62.4	3.8	8.46e-01	0	57	104	0	60	28427
2026-01-27 19:06:10.49	252.09	7.95	-44.2	-62.3	3.8	8.46e-01	0	57	104	0	60	28336
2026-01-27 19:06:11.50	251.97	8.04	-44.2	-62.4	3.8	8.46e-01	0	57	104	0	60	28419
2026-01-27 19:06:12.51	251.84	8.13	-44.3	-62.4	3.8	8.45e-01	0	57	104	0	60	28477
2026-01-27 19:06:13.52	251.72	8.22	-44.3	-62.4	3.8	8.45e-01	0	57	104	0	60	28401
2026-01-27 19:06:14.53	251.59	8.30	-44.3	-62.4	3.8	8.45e-01	0	57	104	0	60	28554
2026-01-27 19:06:15.54	251.47	8.39	-44.2	-62.1	3.8	8.45e-01	0	57	104	0	60	27650
2026-01-27 19:06:16.55	251.34	8.48	-44.3	-62.3	3.8	8.47e-01	0	57	104	0	60	28341
2026-01-27 19:06:17.56	251.21	8.57	-44.3	-62.4	3.8	8.47e-01	0	57	104	0	60	28679
2026-01-27 19:06:18.57	251.08	8.66	-44.3	-62.3	3.8	8.47e-01	0	57	104	0	60	28300
2026-01-27 19:06:19.58	250.94	8.75	-44.3	-62.0	3.8	8.47e-01	0	57	104	0	60	27214
2026-01-27 19:06:20.59	250.81	8.84	-44.3	-62.2	3.8	8.46e-01	0	57	104	0	60	27905
2026-01-27 19:06:21.60	250.68	8.93	-44.3	-62.2	3.8	8.46e-01	0	57	104	0	60	28021
2026-01-27 19:06:22.61	250.54	9.02	-44.3	-62.0	3.8	8.47e-01	0	57	104	0	60	27101
2026-01-27 19:06:23.62	250.40	9.11	-44.3	-62.0	3.8	8.46e-01	0	57	104	0	60	27222
2026-01-27 19:06:24.63	250.27	9.20	-44.3	-62.4	3.8	8.46e-01	0	57	104	0	60	28596
2026-01-27 19:06:25.64	250.13	9.30	-44.3	-62.4	3.8	8.45e-01	0	57	104	0	60	28652
2026-01-27 19:06:26.65	249.99	9.39	-44.3	-62.1	3.8	8.45e-01	0	57	104	0	60	27393
2026-01-27 19:06:27.66	249.84	9.48	-44.4	-62.1	3.8	8.45e-01	0	57	104	0	60	27670
2026-01-27 19:06:28.67	249.70	9.58	-44.3	-62.0	3.8	8.46e-01	0	57	104	0	60	27097
2026-01-27 19:06:29.68	249.56	9.67	-44.3	-62.3	3.8	8.45e-01	0	58	104	0	60	28309
2026-01-27 19:06:30.69	249.41	9.76	-44.3	-62.0	3.8	8.45e-01	0	57	104	0	60	27228
2026-01-27 19:06:31.70	249.26	9.86	-44.4	-62.2	3.8	8.47e-01	0	57	104	0	60	27873
2026-01-27 19:06:32.71	249.12	9.95	-44.3	-62.2	3.8	8.45e-01	0	57	104	0	60	28008
2026-01-27 19:06:33.72	248.97	10.05	-44.4	-62.5	3.8	8.46e-01	0	58	104	0	60	28899
2026-01-27 19:06:34.73	248.82	10.14	-44.4	-62.0	3.8	8.46e-01	0	57	104	0	60	27250
2026-01-27 19:06:35.74	248.66	10.24	-44.4	-62.1	3.8	8.46e-01	0	57	104	0	60	27569
2026-01-27 19:06:36.75	248.51	10.34	-44.3	-62.0	3.8	8.46e-01	0	58	104	0	60	27131
2026-01-27 19:06:37.76	248.36	10.43	-44.3	-62.0	3.8	8.46e-01	0	58	104	0	60	27136
2026-01-27 19:06:38.77	248.20	10.53	-44.3	-61.8	3.8	8.46e-01	0	58	104	0	60	26528
2026-01-27 19:06:39.78	248.04	10.63	-44.3	-61.8	3.8	8.47e-01	0	58	104	0	60	26537
2026-01-27 19:06:40.79	247.88	10.73	-44.4	-61.9	3.8	8.47e-01	0	58	104	0	60	27069
2026-01-27 19:06:41.80	247.72	10.83	-44.3	-61.9	3.8	8.45e-01	0	58	104	0	60	27023
2026-01-27 19:06:42.81	247.56	10.93	-44.5	-62.6	3.8	8.46e-01	0	58	104	0	60	29239
2026-01-27 19:06:43.82	247.40	11.02	-44.5	-62.6	3.8	8.46e-01	0	58	104	0	60	29050
2026-01-27 19:06:44.83	247.23	11.12	-44.3	-62.4	3.8	8.46e-01	0	58	104	0	60	28602
2026-01-27 19:06:45.84	247.07	11.23	-44.4	-62.3	3.8	8.45e-01	0	58	104	0	60	28203
2026-01-27 19:06:46.85	246.90	11.33	-44.4	-62.3	3.8	8.47e-01	0	58	104	0	60	28298
2026-01-27 19:06:47.86	246.73	11.43	-44.4	-62.4	3.8	8.47e-01	0	58	104	0	60	28463
2026-01-27 19:06:48.87	246.56	11.53	-44.5	-62.6	3.8	8.45e-01	0	58	104	0	60	29264
2026-01-27 19:06:49.88	246.38	11.63	-44.4	-62.6	3.8	8.47e-01	0	58	104	0	60	29119
2026-01-27 19:06:50.89	246.21	11.73	-44.5	-62.6	3.8	8.47e-01	0	58	104	0	60	29165
2026-01-27 19:06:51.90	246.03	11.84	-44.5	-62.7	3.8	8.46e-01	0	58	104	0	60	29348
2026-01-27 19:06:52.91	245.85	11.94	-44.4	-62.6	3.8	8.47e-01	0	58	104	0	60	29339
2026-01-27 19:06:53.92	245.68	12.04	-44.5	-62.6	3.8	8.47e-01	0	58	104	0	60	29164
2026-01-27 19:06:54.93	245.49	12.15	-44.5	-62.7	3.8	8.46e-01	0	58	104	0	60	29483
2026-01-27 19:06:55.94	245.31	12.25	-44.6	-62.7	3.8	8.46e-01	0	58	104	0	60	29356
2026-01-27 19:06:56.95	245.13	12.36	-44.5	-62.6	3.8	8.46e-01	0	58	104	0	60	29292
2026-01-27 19:06:57.96	244.94	12.46	-44.5	-62.6	3.8	8.46e-01	0	58	104	0	60	29203
2026-01-27 19:06:58.97	244.75	12.57	-44.5	-62.7	3.8	8.46e-01	0	58	104	0	60	29437
2026-01-27 19:06:59.98	244.56	12.68	-44.6	-62.6	3.8	8.47e-01	0	58	104	0	60	29202
2026-01-27 19:07:00.99	244.37	12.78	-44.5	-62.7	3.8	8.47e-01	0	58	104	0	60	29361
2026-01-27 19:07:02.00	244.18	12.89	-44.6	-62.7	3.8	8.46e-01	0	58	104	0	60	29467
2026-01-27 19:07:03.02	243.98	13.00	-44.6	-62.7	3.8	8.46e-01	0	59	104	0	60	29473
2026-01-27 19:07:04.03	243.78	13.11	-44.6	-62.7	3.8	8.46e-01	0	58	104	0	60	29390
2026-01-27 19:07:05.04	243.58	13.22	-44.5	-62.7	3.8	8.46e-01	0	58	104	0	60	29629
2026-01-27 19:07:06.05	243.38	13.33	-44.6	-62.8	3.8	8.46e-01	0	59	104	0	60	29774
2026-01-27 19:07:07.06	243.18	13.44	-44.6	-62.7	3.8	8.46e-01	0	58	104	0	60	29412
2026-01-27 19:07:08.07	242.97	13.55	-44.6	-62.7	3.8	8.46e-01	0	58	104	0	60	29424
2026-01-27 19:07:09.08	242.76	13.66	-44.6	-62.8	3.8	8.46e-01	0	58	104	0	60	29709
2026-01-27 19:07:10.09	242.55	13.77	-44.6	-62.8	3.8	8.46e-01	0	58	104	0	60	29970
2026-01-27 19:07:11.10	242.34	13.88	-44.6	-62.7	3.8	8.46e-01	0	59	104	0	60	29601
2026-01-27 19:07:12.11	242.13	13.99	-44.7	-62.8	3.8	8.46e-01	0	59	104	0	60	29720
2026-01-27 19:07:13.12	241.91	14.10	-44.6	-62.7	3.8	8.46e-01	0	59	104	0	60	29548
2026-01-27 19:07:14.13	241.70	14.22	-44.6	-62.8	3.8	8.46e-01	0	58	104	0	60	29892
2026-01-27 19:07:15.14	241.48	14.33	-44.6	-62.7	3.8	8.45e-01	0	59	104	0	60	29657
2026-01-27 19:07:16.15	241.25	14.44	-44.7	-62.9	3.8	8.46e-01	0	59	104	0	60	30212
2026-01-27 19:07:17.16	241.03	14.56	-44.6	-62.7	3.8	8.46e-01	0	59	104	0	60	29463
2026-01-27 19:07:18.17	240.80	14.67	-44.7	-62.8	3.8	8.46e-01	0	59	104	0	60	29927
2026-01-27 19:07:19.18	240.57	14.79	-44.7	-62.8	3.8	8.46e-01	0	59	104	0	60	29932
2026-01-27 19:07:20.19	240.34	14.90	-44.7	-62.9	3.8	8.46e-01	0	59	104	0	60	30194
2026-01-27 19:07:21.20	240.11	15.02	-44.6	-62.7	3.8	8.47e-01	0	59	104	0	60	29623
2026-01-27 19:07:22.21	239.87	15.13	-44.7	-62.8	3.8	8.46e-01	0	59	104	0	60	29958
2026-01-27 19:07:23.22	239.64	15.25	-44.7	-62.9	3.8	8.45e-01	0	59	104	0	60	30107
2026-01-27 19:07:24.23	239.39	15.37	-44.7	-62.9	3.8	8.45e-01	0	59	104	0	60	30199
2026-01-27 19:07:25.24	239.15	15.48	-44.6	-62.8	3.8	8.48e-01	0	59	104	0	60	30028
2026-01-27 19:07:26.25	238.91	15.60	-44.7	-62.8	3.8	8.45e-01	0	59	104	0	60	29782
2026-01-27 19:07:27.26	238.66	15.72	-44.7	-62.8	3.8	8.45e-01	0	59	104	0	60	29958
2026-01-27 19:07:28.27	238.41	15.84	-44.8	-62.8	3.8	8.46e-01	0	59	104	0	60	29996
2026-01-27 19:07:29.28	238.15	15.96	-44.7	-62.8	3.8	8.46e-01	0	59	104	0	60	30020
2026-01-27 19:07:30.29	237.90	16.08	-44.7	-62.8	3.8	8.46e-01	0	59	104	0	60	29960
2026-01-27 19:07:31.30	237.64	16.20	-44.7	-62.9	3.8	8.46e-01	0	59	104	0	60	30098
2026-01-27 19:07:32.31	237.38	16.32	-44.8	-62.9	3.8	8.46e-01	0	59	104	0	60	30144
2026-01-27 19:07:33.32	237.12	16.44	-44.7	-62.9	3.8	8.46e-01	0	59	104	0	60	30137
2026-01-27 19:07:34.33	236.85	16.56	-44.8	-62.9	3.8	8.47e-01	0	59	104	0	60	30227
2026-01-27 19:07:35.34	236.58	16.68	-44.8	-62.8	3.8	8.46e-01	0	59	104	0	60	29781
2026-01-27 19:07:36.35	236.31	16.80	-44.8	-62.9	3.8	8.47e-01	0	59	104	0	60	30233
2026-01-27 19:07:37.36	236.04	16.92	-44.7	-62.9	3.8	8.47e-01	0	59	104	0	60	30169
2026-01-27 19:07:38.37	235.76	17.04	-44.8	-62.9	3.8	8.47e-01	0	59	104	0	60	30249
2026-01-27 19:07:39.38	235.48	17.16	-44.8	-62.8	3.8	8.45e-01	0	59	104	0	60	30019
2026-01-27 19:07:40.39	235.20	17.29	-44.8	-62.9	3.8	8.45e-01	0	59	104	0	60	30367
2026-01-27 19:07:41.40	234.91	17.41	-44.7	-62.9	3.8	8.46e-01	0	59	104	0	60	30214
2026-01-27 19:07:42.41	234.62	17.53	-44.8	-62.9	3.8	8.46e-01	0	59	104	0	60	30190
2026-01-27 19:07:43.42	234.33	17.66	-44.8	-62.9	3.8	8.46e-01	0	59	104	0	60	30276
2026-01-27 19:07:44.43	234.03	17.78	-44.8	-63.0	3.8	8.45e-01	0	59	104	0	60	30436
2026-01-27 19:07:45.44	233.74	17.90	-44.8	-62.9	3.8	8.46e-01	0	59	104	0	60	30253
2026-01-27 19:07:46.45	233.44	18.03	-44.8	-62.9	3.8	8.46e-01	0	59	104	0	60	30054
2026-01-27 19:07:47.46	233.13	18.15	-44.8	-63.0	3.8	8.47e-01	0	59	104	0	60	30432
2026-01-27 19:07:48.47	232.83	18.28	-44.8	-62.9	3.8	8.45e-01	0	59	104	0	60	30180
2026-01-27 19:07:49.48	232.52	18.40	-44.8	-62.9	3.8	8.47e-01	0	59	104	0	60	30152
2026-01-27 19:07:50.49	232.20	18.52	-44.8	-62.9	3.8	8.47e-01	0	59	104	0	60	30078
2026-01-27 19:07:51.50	231.89	18.65	-44.8	-62.8	3.8	8.46e-01	0	59	104	0	60	29934
2026-01-27 19:07:52.51	231.57	18.77	-44.8	-62.9	3.8	8.47e-01	0	59	104	0	60	30100
2026-01-27 19:07:53.52	231.24	18.90	-44.8	-62.9	3.8	8.47e-01	0	59	104	0	60	30242
2026-01-27 19:07:54.53	230.92	19.02	-44.9	-63.0	3.8	8.46e-01	0	59	104	0	60	30447
2026-01-27 19:07:55.54	230.59	19.15	-44.8	-62.9	3.8	8.47e-01	0	60	104	0	60	30337
2026-01-27 19:07:56.55	230.26	19.27	-44.9	-63.0	3.8	8.47e-01	0	59	104	0	60	30384
2026-01-27 19:07:57.56	229.92	19.40	-44.8	-62.9	3.8	8.47e-01	0	59	104	0	60	30157
2026-01-27 19:07:58.57	229.58	19.53	-44.9	-62.9	3.8	8.45e-01	0	59	104	0	60	30251
2026-01-27 19:07:59.59	229.23	19.65	-44.9	-62.9	3.8	8.45e-01	0	59	104	0	60	30189
2026-01-27 19:08:00.59	228.89	19.78	-44.9	-62.9	3.8	8.47e-01	0	59	104	0	60	30248
2026-01-27 19:08:01.61	228.54	19.90	-44.9	-62.9	3.8	8.46e-01	0	59	104	0	60	30102
2026-01-27 19:08:02.61	228.19	20.03	-44.9	-62.8	3.8	8.46e-01	0	59	104	0	60	29984
2026-01-27 19:08:03.62	227.83	20.15	-44.9	-62.9	3.8	8.46e-01	0	59	104	0	60	30062
2026-01-27 19:08:04.63	227.47	20.28	-44.9	-62.9	3.8	8.46e-01	0	59	104	0	60	30047
2026-01-27 19:08:05.64	227.11	20.40	-44.9	-63.0	3.8	8.47e-01	0	59	104	0	60	30527
2026-01-27 19:08:06.65	226.74	20.52	-44.9	-62.9	3.8	8.47e-01	0	60	104	0	60	30199
2026-01-27 19:08:07.66	226.37	20.65	-44.9	-62.8	3.8	8.46e-01	0	60	104	0	60	30023
2026-01-27 19:08:08.67	225.99	20.77	-44.9	-63.0	3.8	8.47e-01	0	59	104	0	60	30479
2026-01-27 19:08:09.68	225.61	20.90	-44.9	-62.9	3.8	8.47e-01	0	59	104	0	60	30123
2026-01-27 19:08:10.69	225.23	21.02	-44.9	-62.9	3.8	8.46e-01	0	60	104	0	60	30098
2026-01-27 19:08:11.70	224.85	21.14	-44.9	-62.9	3.8	8.45e-01	0	60	104	0	60	30284
2026-01-27 19:08:12.71	224.46	21.27	-44.9	-62.9	3.8	8.45e-01	0	60	104	0	60	30301
2026-01-27 19:08:13.72	224.06	21.39	-44.9	-62.9	3.8	8.46e-01	0	59	104	0	60	30191
2026-01-27 19:08:14.73	223.67	21.51	-44.9	-62.9	3.8	8.45e-01	0	60	104	0	60	30133
2026-01-27 19:08:15.74	223.27	21.63	-45.0	-63.1	3.8	8.45e-01	0	60	104	0	60	30762
2026-01-27 19:08:16.75	222.86	21.75	-44.9	-63.0	3.8	8.45e-01	0	60	104	0	60	30453
2026-01-27 19:08:17.76	222.45	21.87	-44.9	-63.0	3.8	8.47e-01	0	59	104	0	60	30532
2026-01-27 19:08:18.77	222.04	21.99	-44.9	-63.0	3.8	8.45e-01	0	60	104	0	60	30380
2026-01-27 19:08:19.78	221.63	22.11	-45.0	-63.2	3.8	8.45e-01	0	60	104	0	60	31109
2026-01-27 19:08:20.79	221.21	22.23	-44.9	-63.0	3.8	8.46e-01	0	60	104	0	60	30491
2026-01-27 19:08:21.80	220.78	22.35	-45.0	-63.0	3.8	8.46e-01	0	60	104	0	60	30599
2026-01-27 19:08:22.81	220.35	22.46	-45.0	-63.0	3.8	8.46e-01	0	60	104	0	60	30649
2026-01-27 19:08:23.82	219.92	22.58	-45.0	-63.1	3.8	8.45e-01	0	60	104	0	60	31025
2026-01-27 19:08:24.83	219.49	22.70	-44.9	-63.0	3.8	8.47e-01	0	60	104	0	60	30578
2026-01-27 19:08:25.84	219.05	22.81	-45.0	-63.1	3.8	8.46e-01	0	60	104	0	60	30806
2026-01-27 19:08:26.85	218.61	22.92	-44.9	-63.0	3.8	8.46e-01	0	60	104	0	60	30697
2026-01-27 19:08:27.86	218.16	23.04	-45.1	-63.2	3.8	8.46e-01	0	60	104	0	60	31375
2026-01-27 19:08:28.87	217.71	23.15	-45.0	-63.1	3.8	8.46e-01	0	60	104	0	60	30838
2026-01-27 19:08:29.88	217.26	23.26	-45.0	-63.1	3.8	8.46e-01	0	60	104	0	60	30923
2026-01-27 19:08:30.89	216.80	23.37	-45.0	-63.1	3.8	8.46e-01	0	60	104	0	60	30965
2026-01-27 19:08:31.90	216.34	23.48	-45.1	-63.2	3.8	8.46e-01	0	60	104	0	60	31441
2026-01-27 19:08:32.91	215.87	23.59	-45.0	-63.0	3.8	8.46e-01	0	60	104	0	60	30427
2026-01-27 19:08:33.92	215.40	23.69	-45.0	-63.1	3.8	8.46e-01	0	60	104	0	60	30989
2026-01-27 19:08:34.93	214.93	23.80	-45.0	-63.0	3.8	8.47e-01	0	60	104	0	60	30694
2026-01-27 19:08:35.93	214.46	23.90	-45.0	-63.2	3.8	8.47e-01	0	60	104	0	60	31166
2026-01-27 19:08:36.94	213.98	24.00	-45.0	-63.0	3.8	8.45e-01	0	60	104	0	60	30700
2026-01-27 19:08:37.95	213.49	24.10	-45.0	-63.2	3.8	8.46e-01	0	60	104	0	60	31135
2026-01-27 19:08:38.96	213.01	24.20	-45.0	-63.1	3.8	8.46e-01	0	60	104	0	60	30896
2026-01-27 19:08:39.97	212.51	24.30	-45.0	-63.1	3.8	8.46e-01	0	60	104	0	60	30914
2026-01-27 19:08:40.98	212.02	24.40	-45.0	-63.1	3.8	8.46e-01	0	60	104	0	60	30850
2026-01-27 19:08:41.99	211.52	24.49	-45.0	-63.2	3.8	8.46e-01	0	60	104	0	60	31115
2026-01-27 19:08:43.00	211.02	24.59	-45.0	-63.2	3.8	8.46e-01	0	60	104	0	60	31109
2026-01-27 19:08:44.01	210.51	24.68	-45.0	-63.2	3.8	8.47e-01	0	60	104	0	60	31241
2026-01-27 19:08:45.02	210.01	24.77	-45.0	-63.1	3.8	8.46e-01	0	60	104	0	60	30840
2026-01-27 19:08:46.04	209.49	24.86	-45.0	-63.1	3.8	8.46e-01	0	60	104	0	60	30893
2026-01-27 19:08:47.05	208.97	24.95	-45.0	-63.2	3.8	8.46e-01	0	60	104	0	60	31145
2026-01-27 19:08:48.06	208.45	25.03	-45.0	-63.2	3.8	8.46e-01	0	60	104	0	60	31346
2026-01-27 19:08:49.07	207.93	25.11	-45.0	-63.1	3.8	8.46e-01	0	60	104	0	60	30980
2026-01-27 19:08:50.08	207.41	25.19	-45.0	-63.2	3.8	8.46e-01	0	60	104	0	60	31241
2026-01-27 19:08:51.09	206.88	25.27	-45.0	-63.2	3.8	8.46e-01	0	60	104	0	60	31118
2026-01-27 19:08:52.10	206.35	25.35	-45.0	-63.2	3.8	8.47e-01	0	60	104	0	60	31388
2026-01-27 19:08:53.11	205.81	25.43	-45.0	-63.0	3.8	8.47e-01	0	60	104	0	60	30670
2026-01-27 19:08:54.12	205.28	25.50	-45.0	-63.1	3.8	8.46e-01	0	60	104	0	60	30994
2026-01-27 19:08:55.14	204.73	25.57	-45.0	-63.2	3.8	8.46e-01	0	60	104	0	60	31172
2026-01-27 19:08:56.15	204.19	25.64	-45.0	-63.2	3.8	8.46e-01	0	60	104	0	60	31323
2026-01-27 19:08:57.16	203.64	25.70	-45.0	-63.2	3.8	8.45e-01	0	60	104	0	60	31168
2026-01-27 19:08:58.17	203.10	25.77	-45.0	-63.2	3.8	8.45e-01	0	60	104	0	60	31325
2026-01-27 19:08:59.18	202.55	25.83	-45.0	-63.2	3.8	8.45e-01	0	60	104	0	60	31093
2026-01-27 19:09:00.18	202.00	25.89	-45.0	-63.2	3.8	8.46e-01	0	60	104	0	60	31397
2026-01-27 19:09:01.20	201.44	25.94	-45.0	-63.2	3.8	8.46e-01	0	60	104	0	60	31087
2026-01-27 19:09:02.21	200.88	26.00	-45.0	-63.2	3.8	8.46e-01	0	60	104	0	60	31285
2026-01-27 19:09:03.22	200.32	26.05	-45.0	-63.2	3.8	8.46e-01	0	60	104	0	60	31114
2026-01-27 19:09:04.23	199.76	26.10	-45.0	-63.2	3.8	8.46e-01	0	60	104	0	60	31283
2026-01-27 19:09:05.24	199.20	26.14	-45.0	-63.2	3.8	8.46e-01	0	60	104	0	60	31279
2026-01-27 19:09:06.25	198.63	26.19	-45.0	-63.2	3.8	8.46e-01	0	60	104	0	60	31444
2026-01-27 19:09:07.26	198.06	26.23	-45.0	-63.2	3.8	8.46e-01	0	60	104	0	60	31339
2026-01-27 19:09:08.27	197.50	26.27	-45.0	-63.1	3.8	8.46e-01	0	60	104	0	60	31041
2026-01-27 19:09:09.28	196.93	26.30	-45.0	-63.2	3.8	8.46e-01	0	60	104	0	60	31277
2026-01-27 19:09:10.29	196.35	26.34	-45.0	-63.2	3.8	8.47e-01	0	60	104	0	60	31282
2026-01-27 19:09:11.30	195.78	26.37	-45.0	-63.2	3.8	8.46e-01	0	60	104	0	60	31186
2026-01-27 19:09:12.31	195.21	26.40	-45.0	-63.2	3.8	8.46e-01	0	60	104	0	60	31312
2026-01-27 19:09:13.32	194.63	26.42	-45.0	-63.2	3.8	8.46e-01	0	60	104	0	60	31241
2026-01-27 19:09:14.33	194.06	26.44	-45.0	-63.2	3.8	8.45e-01	0	60	104	0	60	31121
2026-01-27 19:09:15.34	193.48	26.46	-45.0	-63.2	3.8	8.47e-01	0	60	104	0	60	31250
2026-01-27 19:09:16.35	192.90	26.48	-45.0	-63.2	3.8	8.47e-01	0	60	104	0	60	31385
2026-01-27 19:09:17.36	192.32	26.49	-45.0	-63.1	3.8	8.46e-01	0	60	104	0	60	30925
2026-01-27 19:09:18.37	191.74	26.50	-45.0	-63.2	3.8	8.47e-01	0	60	104	0	60	31244
2026-01-27 19:09:19.38	191.16	26.51	-45.0	-63.2	3.8	8.47e-01	0	60	104	0	60	31271
2026-01-27 19:09:20.39	190.58	26.52	-45.0	-63.2	3.8	8.45e-01	0	60	104	0	60	31167
2026-01-27 19:09:21.40	190.00	26.52	-45.0	-63.2	3.8	8.46e-01	0	60	104	0	60	31235
2026-01-27 19:09:22.41	189.42	26.52	-45.0	-63.2	3.8	8.46e-01	0	60	104	0	60	31198
2026-01-27 19:09:23.42	188.84	26.52	-45.0	-63.1	3.8	8.46e-01	0	60	104	0	60	31062
2026-01-27 19:09:24.43	188.26	26.51	-45.0	-63.2	3.8	8.46e-01	0	60	104	0	60	31332
2026-01-27 19:09:25.44	187.68	26.50	-45.0	-63.2	3.8	8.46e-01	0	60	104	0	60	31242
2026-01-27 19:09:26.45	187.10	26.49	-45.0	-63.2	3.8	8.46e-01	0	60	104	0	60	31262
2026-01-27 19:09:27.46	186.53	26.47	-45.0	-63.2	3.8	8.47e-01	0	61	104	0	60	31248
2026-01-27 19:09:28.47	185.95	26.46	-45.0	-63.2	3.8	8.46e-01	0	60	104	0	60	31256
2026-01-27 19:09:29.48	185.37	26.44	-45.0	-63.2	3.8	8.46e-01	0	61	104	0	60	31166
2026-01-27 19:09:30.49	184.80	26.41	-45.0	-63.2	3.8	8.45e-01	0	60	104	0	60	31277
2026-01-27 19:09:31.50	184.22	26.39	-45.0	-63.2	3.8	8.45e-01	0	60	104	0	60	31180
2026-01-27 19:09:32.51	183.65	26.36	-45.0	-63.2	3.8	8.45e-01	0	60	104	0	60	31345
2026-01-27 19:09:33.52	183.07	26.33	-45.0	-63.2	3.8	8.45e-01	0	61	104	0	60	31365
2026-01-27 19:09:34.53	182.50	26.29	-45.0	-63.2	3.8	8.46e-01	0	60	104	0	60	31375
2026-01-27 19:09:35.54	181.93	26.26	-45.0	-63.2	3.8	8.46e-01	0	60	104	0	60	31392
2026-01-27 19:09:36.55	181.36	26.22	-45.0	-63.2	3.8	8.46e-01	0	61	104	0	60	31233
2026-01-27 19:09:37.56	180.80	26.17	-45.0	-63.2	3.8	8.46e-01	0	60	104	0	60	31349
2026-01-27 19:09:38.57	180.23	26.13	-45.0	-63.2	3.8	8.46e-01	0	61	104	0	60	31274
2026-01-27 19:09:39.58	179.67	26.08	-45.0	-63.2	3.8	8.47e-01	0	60	104	0	60	31269
2026-01-27 19:09:40.59	179.11	26.03	-45.0	-63.2	3.8	8.47e-01	0	60	104	0	60	31404
2026-01-27 19:09:41.60	178.55	25.98	-45.0	-63.3	3.8	8.47e-01	0	60	104	0	60	31492
2026-01-27 19:09:42.61	177.99	25.92	-45.0	-63.3	3.8	8.47e-01	0	60	104	0	60	31456
2026-01-27 19:09:43.62	177.44	25.87	-45.1	-63.2	3.8	8.46e-01	0	61	104	0	60	31315
2026-01-27 19:09:44.63	176.89	25.81	-45.0	-63.2	3.8	8.46e-01	0	60	104	0	60	31398
2026-01-27 19:09:45.63	176.34	25.75	-45.1	-63.3	3.8	8.46e-01	0	61	104	0	60	31580
2026-01-27 19:09:46.65	175.79	25.68	-45.2	-63.4	3.8	8.46e-01	0	61	104	0	61	30207
2026-01-27 19:09:47.65	175.25	25.61	-45.2	-63.4	3.8	8.46e-01	0	61	104	0	61	30193
2026-01-27 19:09:48.66	174.71	25.55	-45.1	-63.3	3.8	8.46e-01	0	61	104	0	61	30016
2026-01-27 19:09:49.67	174.17	25.47	-45.1	-63.4	3.8	8.47e-01	0	60	104	0	61	30118
2026-01-27 19:09:50.68	173.63	25.40	-45.1	-63.3	3.8	8.45e-01	0	61	104	0	61	29796
2026-01-27 19:09:51.69	173.10	25.33	-45.1	-63.4	3.8	8.45e-01	0	61	104	0	61	30045
2026-01-27 19:09:52.70	172.57	25.25	-45.1	-63.3	3.8	8.46e-01	0	60	104	0	61	29900
2026-01-27 19:09:53.71	172.04	25.17	-45.1	-63.3	3.8	8.45e-01	0	61	104	0	61	29991
2026-01-27 19:09:54.72	171.52	25.09	-45.1	-63.3	3.8	8.46e-01	0	61	104	0	61	29934
2026-01-27 19:09:55.73	171.00	25.00	-45.1	-63.3	3.8	8.46e-01	0	61	104	0	61	29863
2026-01-27 19:09:56.74	170.48	24.92	-45.1	-63.3	3.8	8.46e-01	0	61	104	0	61	29887
2026-01-27 19:09:57.75	169.96	24.83	-45.1	-63.3	3.8	8.46e-01	0	61	104	0	61	30031
2026-01-27 19:09:58.76	169.45	24.74	-45.1	-63.3	3.8	8.46e-01	0	61	104	0	61	29884
2026-01-27 19:09:59.77	168.94	24.65	-45.1	-63.4	3.8	8.47e-01	0	61	104	0	61	30065
2026-01-27 19:10:00.78	168.44	24.56	-45.1	-63.3	3.8	8.47e-01	0	61	104	0	61	29985
2026-01-27 19:10:01.79	167.94	24.46	-45.2	-63.4	3.8	8.47e-01	0	61	104	0	61	30362
2026-01-27 19:10:02.80	167.44	24.37	-45.2	-63.4	3.8	8.46e-01	0	61	104	0	61	30268
2026-01-27 19:10:03.81	166.95	24.27	-45.2	-63.5	3.8	8.46e-01	0	61	104	0	61	30465
2026-01-27 19:10:04.82	166.46	24.17	-45.2	-63.4	3.8	8.46e-01	0	61	104	0	61	30288
2026-01-27 19:10:05.83	165.97	24.07	-45.2	-63.4	3.8	8.46e-01	0	61	104	0	61	30308
2026-01-27 19:10:06.84	165.49	23.97	-45.2	-63.4	3.8	8.46e-01	0	61	104	0	61	30295
2026-01-27 19:10:07.85	165.01	23.87	-45.2	-63.4	3.8	8.46e-01	0	61	104	0	61	30317
2026-01-27 19:10:08.86	164.53	23.76	-45.2	-63.4	3.8	8.46e-01	0	61	104	0	61	30141
2026-01-27 19:10:09.87	164.06	23.66	-45.2	-63.4	3.8	8.46e-01	0	61	104	0	61	30249
2026-01-27 19:10:10.88	163.59	23.55	-45.2	-63.4	3.8	8.46e-01	0	61	104	0	61	30140
2026-01-27 19:10:11.89	163.13	23.44	-45.2	-63.4	3.8	8.46e-01	0	61	104	0	61	30106
2026-01-27 19:10:12.90	162.67	23.33	-45.2	-63.4	3.8	8.45e-01	0	61	104	0	61	30169
2026-01-27 19:10:13.91	162.21	23.22	-45.2	-63.4	3.8	8.47e-01	0	61	104	0	61	30115
2026-01-27 19:10:14.92	161.76	23.11	-45.2	-63.4	3.8	8.47e-01	0	61	104	0	61	30068
2026-01-27 19:10:15.93	161.31	23.00	-45.2	-63.4	3.8	8.46e-01	0	61	104	0	61	30036
2026-01-27 19:10:16.94	160.86	22.88	-45.2	-63.4	3.8	8.46e-01	0	61	104	0	61	30196
2026-01-27 19:10:17.95	160.42	22.77	-45.2	-63.4	3.8	8.46e-01	0	61	104	0	61	30263
2026-01-27 19:10:18.96	159.98	22.66	-45.2	-63.3	3.8	8.45e-01	0	61	104	0	61	29792
2026-01-27 19:10:19.97	159.55	22.54	-45.2	-63.3	3.8	8.46e-01	0	61	104	0	61	29778
2026-01-27 19:10:20.98	159.12	22.42	-45.2	-63.3	3.8	8.46e-01	0	61	104	0	61	29870
2026-01-27 19:10:21.99	158.69	22.31	-45.2	-63.3	3.8	8.46e-01	0	61	104	0	61	29984
2026-01-27 19:10:23.00	158.27	22.19	-45.2	-63.3	3.8	8.46e-01	0	61	104	0	61	29897
2026-01-27 19:10:24.01	157.85	22.07	-45.2	-63.3	3.8	8.45e-01	0	61	104	0	61	29742
2026-01-27 19:10:25.02	157.43	21.95	-45.2	-63.3	3.8	8.45e-01	0	61	104	0	61	29837
2026-01-27 19:10:26.03	157.02	21.83	-45.2	-63.5	3.8	8.47e-01	0	61	104	0	61	30385
2026-01-27 19:10:27.04	156.61	21.71	-45.2	-63.2	3.8	8.47e-01	0	61	104	0	61	29686
2026-01-27 19:10:28.05	156.21	21.59	-45.2	-63.3	3.8	8.47e-01	0	61	104	0	61	30027
2026-01-27 19:10:29.06	155.81	21.47	-45.1	-63.4	3.8	8.46e-01	0	61	104	0	61	30057
2026-01-27 19:10:30.07	155.41	21.34	-45.2	-63.4	3.8	8.47e-01	0	61	104	0	61	30263
2026-01-27 19:10:31.08	155.02	21.22	-45.2	-63.4	3.8	8.45e-01	0	61	104	0	61	30212
2026-01-27 19:10:32.09	154.63	21.10	-45.2	-63.4	3.8	8.45e-01	0	61	104	0	61	30220
2026-01-27 19:10:33.10	154.25	20.97	-45.2	-63.4	3.8	8.46e-01	0	61	104	0	61	30133
2026-01-27 19:10:34.11	153.87	20.85	-45.2	-63.4	3.8	8.46e-01	0	61	104	0	61	30140
2026-01-27 19:10:35.12	153.49	20.73	-45.2	-63.4	3.8	8.46e-01	0	61	104	0	61	30290
2026-01-27 19:10:36.13	153.12	20.60	-45.2	-63.4	3.8	8.46e-01	0	61	104	0	61	30298
2026-01-27 19:10:37.14	152.75	20.48	-45.1	-63.4	3.8	8.46e-01	0	61	104	0	61	30157
2026-01-27 19:10:38.15	152.38	20.35	-45.2	-63.4	3.8	8.46e-01	0	61	104	0	61	30162
2026-01-27 19:10:39.16	152.02	20.23	-45.1	-63.4	3.8	8.45e-01	0	61	104	0	61	30178
2026-01-27 19:10:40.17	151.66	20.10	-45.2	-63.4	3.8	8.46e-01	0	61	104	0	61	30183
2026-01-27 19:10:41.18	151.30	19.98	-45.1	-63.4	3.8	8.46e-01	0	61	104	0	61	30042
2026-01-27 19:10:42.19	150.95	19.85	-45.1	-63.3	3.8	8.47e-01	0	61	104	0	61	29929
2026-01-27 19:10:43.20	150.60	19.73	-45.1	-63.4	3.8	8.47e-01	0	61	104	0	61	30147
2026-01-27 19:10:44.21	150.25	19.60	-45.1	-63.4	3.8	8.46e-01	0	61	104	0	61	30207
2026-01-27 19:10:45.22	149.91	19.48	-45.1	-63.3	3.8	8.46e-01	0	61	104	0	61	30009
2026-01-27 19:10:46.23	149.57	19.35	-45.1	-63.3	3.8	8.46e-01	0	61	104	0	61	29991
2026-01-27 19:10:47.24	149.24	19.23	-45.1	-63.4	3.8	8.46e-01	0	61	104	0	61	30059
2026-01-27 19:10:48.24	148.91	19.10	-45.1	-63.4	3.8	8.46e-01	0	61	104	0	61	30043
2026-01-27 19:10:49.26	148.58	18.98	-45.0	-63.3	3.8	8.46e-01	0	61	104	0	61	29734
2026-01-27 19:10:50.27	148.25	18.85	-45.0	-63.3	3.8	8.46e-01	0	61	104	0	61	29840
2026-01-27 19:10:51.28	147.93	18.73	-45.0	-63.3	3.8	8.46e-01	0	61	104	0	61	29870
2026-01-27 19:10:52.29	147.61	18.60	-45.0	-63.3	3.8	8.46e-01	0	61	104	0	61	29774
2026-01-27 19:10:53.30	147.29	18.48	-45.0	-63.2	3.8	8.47e-01	0	61	104	0	61	29585
2026-01-27 19:10:54.31	146.98	18.35	-45.0	-63.3	3.8	8.47e-01	0	61	104	0	61	29802
2026-01-27 19:10:55.32	146.67	18.23	-45.0	-63.3	3.8	8.47e-01	0	61	104	0	61	29833
2026-01-27 19:10:56.33	146.36	18.10	-45.0	-63.2	3.8	8.45e-01	0	61	104	0	61	29680
2026-01-27 19:10:57.34	146.06	17.98	-44.9	-63.3	3.8	8.45e-01	0	61	104	0	61	29690
2026-01-27 19:10:58.35	145.76	17.85	-45.0	-63.2	3.8	8.45e-01	0	61	104	0	61	29475
2026-01-27 19:10:59.36	145.46	17.73	-45.0	-63.1	3.8	8.47e-01	0	61	104	0	61	29232
2026-01-27 19:11:00.37	145.17	17.61	-45.0	-63.2	3.8	8.45e-01	0	61	104	0	61	29360
2026-01-27 19:11:01.38	144.88	17.48	-44.9	-63.1	3.8	8.45e-01	0	61	104	0	61	29219
2026-01-27 19:11:02.39	144.59	17.36	-44.9	-63.1	3.8	8.47e-01	0	61	104	0	61	29140
2026-01-27 19:11:03.40	144.31	17.24	-44.9	-63.1	3.8	8.46e-01	0	61	104	0	61	29147
2026-01-27 19:11:04.41	144.02	17.11	-44.9	-63.1	3.8	8.46e-01	0	61	104	0	61	29112
2026-01-27 19:11:05.42	143.74	16.99	-44.8	-63.1	3.8	8.46e-01	0	61	104	0	61	29066
2026-01-27 19:11:06.43	143.47	16.87	-44.9	-63.1	3.8	8.46e-01	0	61	104	0	61	29169
2026-01-27 19:11:07.44	143.19	16.75	-44.6	-63.1	3.8	8.46e-01	0	61	104	0	61	29139
2026-01-27 19:11:08.45	142.92	16.63	-44.9	-63.2	3.8	8.46e-01	0	61	104	0	61	29448
2026-01-27 19:11:09.46	142.65	16.51	-44.8	-63.0	3.8	8.45e-01	0	61	104	0	60	30629
2026-01-27 19:11:10.47	142.39	16.39	-44.9	-63.2	3.8	8.46e-01	0	61	104	0	60	31175
2026-01-27 19:11:11.48	142.13	16.27	-44.9	-63.1	3.8	8.46e-01	0	61	104	0	60	30987
2026-01-27 19:11:12.49	141.87	16.15	-44.9	-63.2	3.8	8.46e-01	0	61	104	0	60	31154
2026-01-27 19:11:13.50	141.61	16.03	-45.4	-63.2	3.8	8.48e-01	0	61	104	0	60	31114
2026-01-27 19:11:14.51	141.35	15.91	-43.0	-62.0	3.8	8.48e-01	0	61	104	0	58	30657
2026-01-27 19:11:15.52	141.10	15.79	-44.7	-62.9	3.8	8.46e-01	0	61	104	0	60	30364
2026-01-27 19:11:16.53	140.85	15.67	-44.7	-63.0	3.8	8.47e-01	0	61	104	0	60	30663
2026-01-27 19:11:17.54	140.60	15.55	-44.7	-63.0	3.8	8.47e-01	0	61	104	0	60	30616
2026-01-27 19:11:18.54	140.36	15.43	-44.8	-63.1	3.8	8.46e-01	0	61	104	0	60	30961
2026-01-27 19:11:19.56	140.12	15.32	-44.8	-63.0	3.8	8.46e-01	0	61	104	0	60	30649
2026-01-27 19:11:20.56	139.88	15.20	-44.8	-63.1	3.8	8.46e-01	0	61	104	0	60	30736
2026-01-27 19:11:21.57	139.64	15.08	-44.7	-63.0	3.9	8.46e-01	0	61	104	0	60	30647
2026-01-27 19:11:22.58	139.40	14.97	-43.3	-63.2	3.9	8.45e-01	0	61	104	0	60	31412
2026-01-27 19:11:23.59	139.17	14.85	-44.7	-63.0	3.8	8.45e-01	0	61	104	0	60	30642
2026-01-27 19:11:24.61	138.94	14.74	-44.7	-63.0	3.8	8.45e-01	0	61	104	0	60	30499
2026-01-27 19:11:25.62	138.71	14.62	-44.7	-62.9	3.8	8.47e-01	0	61	104	0	60	30336
2026-01-27 19:11:26.63	138.48	14.51	-44.6	-63.0	3.8	8.46e-01	0	61	104	0	60	30466
2026-01-27 19:11:27.64	138.26	14.39	-44.7	-63.0	3.8	8.46e-01	0	61	104	0	60	30406
2026-01-27 19:11:28.65	138.04	14.28	-44.7	-62.8	3.7	8.45e-01	0	61	104	0	59	31714
2026-01-27 19:11:29.66	137.82	14.17	-44.6	-62.7	3.9	8.46e-01	0	61	104	0	59	31319
2026-01-27 19:11:30.67	137.60	14.05	-42.5	-62.0	3.9	8.46e-01	0	61	104	0	56	34283
2026-01-27 19:11:31.68	137.39	13.94	-34.4	-58.8	3.9	8.44e-01	0	61	104	0	48	37428
2026-01-27 19:11:32.69	137.17	13.83	-43.9	-62.5	4.3	8.44e-01	0	61	104	0	53	42983
2026-01-27 19:11:33.70	136.96	13.72	-41.0	-61.4	3.7	8.44e-01	0	61	104	0	48	50502
2026-01-27 19:11:34.71	136.75	13.61	-36.7	-58.0	3.7	8.39e-01	0	61	104	0	49	32503
2026-01-27 19:11:35.72	136.55	13.50	-32.9	-56.0	4.2	8.38e-01	0	61	104	0	51	22936
2026-01-27 19:11:36.73	136.34	13.39	-39.8	-59.9	3.5	8.37e-01	0	61	104	0	51	35999
2026-01-27 19:11:37.74	136.14	13.28	-44.4	-62.1	3.9	8.37e-01	0	61	104	0	58	30798
2026-01-27 19:11:38.75	135.94	13.17	-43.4	-62.5	3.8	8.43e-01	0	61	104	0	58	32346
2026-01-27 19:11:39.76	135.74	13.06	-43.4	-62.1	3.5	8.43e-01	0	61	104	0	56	34816
2026-01-27 19:11:40.77	135.54	12.95	-33.6	-58.6	4.0	8.43e-01	0	61	104	0	45	43840
2026-01-27 19:11:41.78	135.34	12.84	-37.8	-63.6	4.2	8.40e-01	0	61	104	0	50	57988
2026-01-27 19:11:42.79	135.15	12.73	-41.7	-64.2	3.4	8.45e-01	0	61	104	0	52	55618
2026-01-27 19:11:43.80	134.96	12.63	-41.1	-62.1	3.8	8.45e-01	0	61	104	0	58	30783
2026-01-27 19:11:44.81	134.77	12.52	-35.9	-61.8	4.3	8.45e-01	0	61	104	0	57	31719
2026-01-27 19:11:45.82	134.58	12.41	-33.7	-60.1	3.5	8.39e-01	0	61	104	0	48	43608
2026-01-27 19:11:46.83	134.40	12.31	-40.6	-58.6	4.3	8.39e-01	0	61	104	0	49	34497
2026-01-27 19:11:47.84	134.21	12.20	-39.5	-59.3	4.3	8.39e-01	0	61	104	0	51	33403
2026-01-27 19:11:48.85	134.03	12.10	-37.0	-55.8	4.3	8.34e-01	0	61	0	0	40	42313
2026-01-27 19:11:49.86	133.85	11.99	-33.7	-53.4	4.0	8.16e-01	0	61	104	0	35	42697
2026-01-27 19:11:50.87	133.67	11.89	-25.9	-47.1	3.9	8.16e-01	0	61	104	0	25	36524
2026-01-27 19:11:51.88	133.49	11.79	-23.7	-45.0	3.7	8.12e-01	0	61	104	0	20	38563
2026-01-27 19:11:52.89	133.32	11.68	-29.9	-48.5	3.6	8.04e-01	0	61	104	0	24	45753
2026-01-27 19:11:53.90	133.14	11.58	-30.1	-44.6	3.8	8.04e-01	0	61	104	0	19	38759
2026-01-27 19:11:54.91	132.97	11.48	-37.2	-57.6	3.9	8.05e-01	0	61	104	0	44	41299
2026-01-27 19:11:55.92	132.80	11.38	-24.9	-52.0	4.4	8.15e-01	0	61	104	0	38	30533
2026-01-27 19:11:56.93	132.63	11.28	-29.6	-49.6	3.8	8.15e-01	0	61	104	0	28	41244
2026-01-27 19:11:57.94	132.46	11.18	-26.2	-47.4	3.8	8.05e-01	0	61	104	0	24	40493
2026-01-27 19:11:58.95	132.29	11.07	-27.6	-46.2	3.7	7.98e-01	0	61	104	0	22	39214
2026-01-27 19:11:59.96	132.13	10.98	-25.3	-48.4	3.6	7.99e-01	0	61	104	0	25	42422
2026-01-27 19:12:00.97	131.97	10.88	-23.3	-44.4	3.5	7.99e-01	0	61	104	0	19	38047
2026-01-27 19:12:01.98	131.80	10.78	-18.6	-40.0	3.6	7.95e-01	0	61	0	0	16	27206
2026-01-27 19:12:02.99	131.64	10.68	-22.9	-47.1	3.9	8.01e-01	0	61	104	0	26	34558
2026-01-27 19:12:04.00	131.48	10.58	-20.0	-41.1	3.7	8.01e-01	0	61	104	0	15	32872
2026-01-27 19:12:05.01	131.33	10.48	-23.1	-47.1	3.6	7.96e-01	0	61	104	0	22	43418
2026-01-27 19:12:06.03	131.17	10.38	-23.2	-43.5	3.5	8.10e-01	0	61	104	0	16	40587
2026-01-27 19:12:07.04	131.01	10.29	-22.8	-43.9	3.7	8.10e-01	0	61	104	0	17	40080
2026-01-27 19:12:08.05	130.86	10.19	-24.0	-41.2	3.8	8.15e-01	0	61	0	0	11	41795
2026-01-27 19:12:09.05	130.71	10.09	-19.6	-41.3	3.3	8.15e-01	0	61	104	0	16	31741
2026-01-27 19:12:10.06	130.56	10.00	-25.4	-42.7	3.5	8.15e-01	0	61	104	0	16	37157
2026-01-27 19:12:11.07	130.41	9.90	-25.5	-45.1	3.4	8.06e-01	0	61	104	0	20	39058
2026-01-27 19:12:12.08	130.26	9.81	-22.0	-41.3	3.6	7.95e-01	0	61	104	0	15	33511
2026-01-27 19:12:13.09	130.12	9.71	-19.7	-42.4	3.4	8.15e-01	0	62	104	0	17	33809
2026-01-27 19:12:14.10	129.97	9.62	-16.5	-38.9	3.4	8.15e-01	0	61	104	0	9	36019
2026-01-27 19:12:15.11	129.83	9.53	-19.4	-40.5	3.3	8.12e-01	0	61	104	0	17	27158
2026-01-27 19:12:16.12	129.68	9.43	-23.7	-43.2	3.4	8.04e-01	0	61	104	0	18	35259
2026-01-27 19:12:17.13	129.54	9.34	-23.2	-39.8	3.6	8.04e-01	0	61	104	0	9	39633
2026-01-27 19:12:18.14	129.40	9.25	-17.9	-36.9	3.6	8.11e-01	0	61	104	0	9	28379
2026-01-27 19:12:19.15	129.26	9.16	-23.8	-41.4	3.6	8.12e-01	0	61	104	0	14	35995
2026-01-27 19:12:20.16	129.13	9.06	-24.4	-38.8	3.6	8.12e-01	0	61	104	0	10	33602
2026-01-27 19:12:21.17	128.99	8.97	-17.2	-38.7	3.5	8.17e-01	0	62	104	0	12	29448
2026-01-27 19:12:22.18	128.85	8.88	-19.0	-36.5	3.7	8.17e-01	0	61	104	0	7	30510
2026-01-27 19:12:23.19	128.72	8.79	-21.9	-40.1	3.5	8.17e-01	0	61	104	0	15	29224
2026-01-27 19:12:24.20	128.59	8.70	-17.3	-38.0	3.3	8.08e-01	0	61	104	0	11	28839
2026-01-27 19:12:25.21	128.45	8.61	-23.0	-40.9	3.5	8.04e-01	0	61	104	0	15	31924
2026-01-27 19:12:26.22	128.32	8.52	-24.1	-39.6	3.4	8.01e-01	0	61	104	0	13	31052
2026-01-27 19:12:27.23	128.19	8.43	-21.5	-40.8	3.4	8.01e-01	0	61	104	0	14	33522
2026-01-27 19:12:28.24	128.07	8.34	-21.6	-40.7	3.4	7.99e-01	0	61	104	0	15	31163
2026-01-27 19:12:29.25	127.94	8.25	-15.4	-37.1	3.5	8.00e-01	0	61	104	0	10	27621
2026-01-27 19:12:30.26	127.81	8.17	-23.1	-40.8	3.4	8.00e-01	0	61	104	0	15	31631
2026-01-27 19:12:31.27	127.69	8.08	-19.4	-39.8	3.3	8.04e-01	0	61	104	0	13	31721
2026-01-27 19:12:32.28	127.56	7.99	-16.5	-36.3	3.9	8.02e-01	0	61	104	0	5	33333
2026-01-27 19:12:33.29	127.44	7.91	-25.6	-54.7	4.0	8.02e-01	0	61	104	0	34	52675
2026-01-27 19:12:34.30	127.32	7.82	-43.9	-63.2	3.8	8.12e-01	0	61	104	0	58	34994
2026-01-27 19:12:35.31	127.19	7.73	-45.1	-63.4	3.8	8.42e-01	0	61	104	0	60	31835
2026-01-27 19:12:36.32	127.07	7.65	-45.3	-63.6	3.8	8.42e-01	0	61	104	0	61	30920
2026-01-27 19:12:37.33	126.96	7.56	-45.4	-63.7	3.8	8.46e-01	0	61	104	0	61	31308
2026-01-27 19:12:38.34	126.84	7.48	-45.6	-63.8	3.8	8.45e-01	0	61	104	0	61	31576
2026-01-27 19:12:39.35	126.72	7.39	-45.7	-63.9	3.8	8.45e-01	0	61	104	0	61	32099
2026-01-27 19:12:40.36	126.60	7.31	-45.8	-64.0	3.8	8.45e-01	0	61	104	0	62	30702
2026-01-27 19:12:41.37	126.49	7.22	-45.8	-64.1	3.8	8.46e-01	0	61	104	0	62	30845
2026-01-27 19:12:42.38	126.37	7.14	-45.7	-64.0	3.8	8.46e-01	0	61	104	0	62	30562
2026-01-27 19:12:43.39	126.26	7.06	-45.7	-63.9	3.8	8.46e-01	0	61	104	0	62	30256
2026-01-27 19:12:44.40	126.15	6.97	-45.6	-63.8	3.8	8.46e-01	0	61	104	0	62	29891
2026-01-27 19:12:45.41	126.04	6.89	-45.5	-63.7	3.8	8.46e-01	0	61	104	0	62	29647
2026-01-27 19:12:46.42	125.92	6.81	-45.5	-63.6	3.8	8.46e-01	0	61	104	0	62	29302
2026-01-27 19:12:47.43	125.81	6.73	-45.5	-63.6	3.8	8.45e-01	0	61	104	0	62	29178
2026-01-27 19:12:48.44	125.71	6.64	-45.4	-63.5	3.8	8.46e-01	0	61	104	0	62	28907
2026-01-27 19:12:49.45	125.60	6.56	-45.3	-63.5	3.8	8.46e-01	0	61	104	0	62	28736
2026-01-27 19:12:50.46	125.49	6.48	-45.3	-63.4	3.8	8.47e-01	0	61	104	0	61	30300
2026-01-27 19:12:51.47	125.38	6.40	-45.3	-63.4	3.8	8.46e-01	0	61	104	0	61	30348
2026-01-27 19:12:52.48	125.28	6.32	-45.3	-63.4	3.8	8.47e-01	0	61	104	0	61	30364
2026-01-27 19:12:53.50	125.17	6.24	-45.3	-63.5	3.8	8.47e-01	0	61	104	0	61	30383
2026-01-27 19:12:54.51	125.07	6.16	-45.3	-63.4	3.8	8.46e-01	0	61	104	0	61	30301
2026-01-27 19:12:55.52	124.96	6.08	-45.3	-63.4	3.8	8.47e-01	0	61	104	0	61	30353
2026-01-27 19:12:56.53	124.86	6.00	-45.3	-63.4	3.8	8.47e-01	0	61	104	0	61	30214
2026-01-27 19:12:57.54	124.76	5.92	-45.3	-63.4	3.8	8.47e-01	0	61	104	0	61	30263
2026-01-27 19:12:58.55	124.66	5.84	-45.3	-63.4	3.8	8.46e-01	0	61	104	0	61	30267
2026-01-27 19:12:59.56	124.56	5.76	-45.3	-63.4	3.8	8.46e-01	0	61	104	0	61	30259
2026-01-27 19:13:00.57	124.46	5.69	-45.3	-63.4	3.8	8.46e-01	0	61	104	0	61	30273
2026-01-27 19:13:01.58	124.36	5.61	-45.3	-63.4	3.8	8.47e-01	0	61	104	0	61	30254
2026-01-27 19:13:02.59	124.26	5.53	-45.3	-63.4	3.8	8.46e-01	0	61	104	0	61	30252
2026-01-27 19:13:03.60	124.17	5.45	-45.3	-63.4	3.8	8.46e-01	0	61	104	0	61	30344
2026-01-27 19:13:04.61	124.07	5.38	-45.3	-63.4	3.8	8.46e-01	0	61	104	0	61	30207
2026-01-27 19:13:05.62	123.98	5.30	-45.3	-63.4	3.8	8.46e-01	0	61	104	0	61	30313
2026-01-27 19:13:06.63	123.88	5.22	-45.3	-63.4	3.8	8.46e-01	0	61	104	0	61	30259
2026-01-27 19:13:07.64	123.79	5.15	-45.3	-63.4	3.8	8.46e-01	0	61	104	0	61	30263
2026-01-27 19:13:08.65	123.69	5.07	-45.3	-63.4	3.8	8.45e-01	0	61	104	0	61	30269
2026-01-27 19:13:09.66	123.60	5.00	-45.2	-63.4	3.8	8.45e-01	0	61	104	0	61	30261
2026-01-27 19:13:10.67	123.51	4.92	-45.3	-63.4	3.8	8.46e-01	0	61	104	0	61	30233
2026-01-27 19:13:11.68	123.42	4.85	-45.3	-63.4	3.8	8.46e-01	0	61	104	0	61	30307
2026-01-27 19:13:12.69	123.33	4.77	-45.3	-63.4	3.8	8.46e-01	0	61	104	0	61	30198
2026-01-27 19:13:13.70	123.24	4.70	-45.3	-63.4	3.8	8.46e-01	0	61	104	0	61	30306
2026-01-27 19:13:14.71	123.15	4.62	-45.3	-63.4	3.8	8.47e-01	0	61	104	0	61	30207
2026-01-27 19:13:15.72	123.06	4.55	-45.3	-63.4	3.8	8.47e-01	0	61	104	0	61	30334
2026-01-27 19:13:16.73	122.97	4.47	-45.3	-63.4	3.8	8.47e-01	0	62	104	0	61	30185
2026-01-27 19:13:17.74	122.88	4.40	-45.3	-63.4	3.8	8.46e-01	0	61	104	0	61	30166
2026-01-27 19:13:18.75	122.80	4.33	-45.3	-63.4	3.8	8.46e-01	0	61	104	0	61	30174
2026-01-27 19:13:19.76	122.71	4.25	-45.3	-63.4	3.8	8.46e-01	0	61	104	0	61	30188
2026-01-27 19:13:20.78	122.62	4.18	-45.3	-63.4	3.8	8.44e-01	0	61	104	0	61	30191
2026-01-27 19:13:21.79	122.54	4.11	-45.3	-63.4	3.8	8.46e-01	0	61	104	0	61	30255
2026-01-27 19:13:22.80	122.45	4.04	-45.3	-63.4	3.8	8.46e-01	0	61	104	0	61	30172
2026-01-27 19:13:23.81	122.37	3.97	-45.3	-63.4	3.8	8.46e-01	0	61	104	0	61	30182
2026-01-27 19:13:24.82	122.29	3.89	-45.2	-63.4	3.8	8.47e-01	0	61	104	0	61	30183
2026-01-27 19:13:25.83	122.21	3.82	-45.3	-63.4	3.8	8.47e-01	0	62	104	0	61	30215
2026-01-27 19:13:26.84	122.12	3.75	-45.3	-63.4	3.8	8.46e-01	0	61	104	0	61	30245
2026-01-27 19:13:27.85	122.04	3.68	-45.3	-63.4	3.8	8.46e-01	0	61	104	0	61	30219
2026-01-27 19:13:28.86	121.96	3.61	-45.3	-63.4	3.8	8.46e-01	0	61	104	0	61	30239
2026-01-27 19:13:29.87	121.88	3.54	-45.3	-63.4	3.8	8.46e-01	0	62	104	0	61	30225
2026-01-27 19:13:30.88	121.80	3.47	-45.3	-63.4	3.8	8.46e-01	0	62	104	0	61	30197
2026-01-27 19:13:31.89	121.72	3.40	-45.2	-63.4	3.8	8.47e-01	0	61	104	0	61	30172
2026-01-27 19:13:32.90	121.64	3.33	-45.2	-63.4	3.8	8.47e-01	0	61	104	0	61	30170
2026-01-27 19:13:33.91	121.57	3.26	-45.3	-63.4	3.8	8.45e-01	0	61	104	0	61	30118
2026-01-27 19:13:34.92	121.49	3.19	-45.3	-63.4	3.8	8.47e-01	0	61	104	0	61	30243
2026-01-27 19:13:35.93	121.41	3.12	-45.3	-63.4	3.8	8.47e-01	0	62	104	0	61	30270
2026-01-27 19:13:36.94	121.34	3.05	-45.3	-63.4	3.8	8.47e-01	0	62	104	0	61	30073
2026-01-27 19:13:37.95	121.26	2.98	-45.3	-63.4	3.8	8.47e-01	0	62	104	0	61	30170
2026-01-27 19:13:38.96	121.19	2.92	-45.3	-63.4	3.8	8.47e-01	0	62	104	0	61	30083
2026-01-27 19:13:39.97	121.11	2.85	-45.3	-63.4	3.8	8.45e-01	0	62	104	0	61	30159
2026-01-27 19:13:40.98	121.04	2.78	-45.2	-63.4	3.8	8.47e-01	0	61	104	0	61	30069
2026-01-27 19:13:41.99	120.96	2.71	-45.1	-63.4	3.8	8.46e-01	0	62	104	0	61	30148
2026-01-27 19:13:43.01	120.89	2.64	-45.2	-63.4	3.8	8.46e-01	0	62	104	0	61	30105
2026-01-27 19:13:44.02	120.82	2.58	-45.2	-63.3	3.8	8.45e-01	0	62	104	0	61	30026
2026-01-27 19:13:45.03	120.74	2.51	-45.2	-63.4	3.8	8.45e-01	0	61	104	0	61	30058
2026-01-27 19:13:46.04	120.67	2.44	-45.2	-63.4	3.8	8.45e-01	0	62	104	0	61	30112
2026-01-27 19:13:47.05	120.60	2.37	-44.4	-62.6	3.7	8.46e-01	0	61	104	0	59	30806
2026-01-27 19:13:48.06	120.53	2.31	-45.2	-63.4	3.8	8.47e-01	0	62	104	0	61	30058
2026-01-27 19:13:49.07	120.46	2.24	-45.2	-63.4	3.8	8.47e-01	0	62	104	0	61	30066
2026-01-27 19:13:50.08	120.39	2.18	-45.2	-63.3	3.8	8.45e-01	0	61	104	0	61	30015
2026-01-27 19:13:51.09	120.32	2.11	-45.2	-63.4	3.8	8.45e-01	0	61	104	0	61	30082
2026-01-27 19:13:52.10	120.25	2.04	-45.2	-63.4	3.8	8.46e-01	0	61	104	0	61	30064
2026-01-27 19:13:53.11	120.18	1.98	-45.2	-63.4	3.8	8.46e-01	0	62	104	0	61	30138

#Closed at: 2026-01-27 19:13:53
#Recorded file [0 MB]: D:/lorett/data/31039_260127_220451.dat