passes_logs/2026/01/27/R2.0S_Moscow/R2.0S_Moscow__20260127_225046_SUOMI_NPP_rec.log

#Pass ID: 20260127_225046_SUOMI NPP
#Satellite: SUOMI NPP
#Configuration: NPP
#almurnet v.1.7.20251203
#Start time: 2026-01-27 22:50:47

#Version: 2.2.20231116
#Station: R2.0S_Moscow
#Location: 37.707566 lon 55.798166 lat
#TLE: 1 37849U 11061A   26027.50945616  .00000185  00000+0  10897-3 0  9994
#TLE: 2 37849  98.7823 329.4511 0002105  42.1421 317.9917 14.19530771738482

#Time	Az	El	Level	Level2	SNR	BER	BlckErr	Temp	State	Recorded	gain1	gain2
2026-01-27 22:50:47.04	20.99	2.04	-42.8	-57.3	3.8	1.49e+00	0	53	0	0	57	18761
2026-01-27 22:50:48.05	21.04	2.10	-42.8	-57.2	3.8	1.49e+00	0	53	104	0	57	18696
2026-01-27 22:50:49.06	21.08	2.17	-42.8	-57.3	3.8	1.49e+00	0	53	104	0	57	18749
2026-01-27 22:50:50.07	21.13	2.23	-42.8	-57.2	3.8	1.49e+00	0	53	104	0	57	18714
2026-01-27 22:50:51.08	21.18	2.29	-42.8	-57.2	3.8	1.49e+00	0	53	104	0	57	18715
2026-01-27 22:50:52.09	21.22	2.35	-42.8	-57.3	3.8	1.49e+00	0	53	104	0	57	18735
2026-01-27 22:50:53.10	21.27	2.41	-42.8	-57.2	3.8	1.49e+00	0	53	104	0	57	18712
2026-01-27 22:50:54.11	21.31	2.47	-42.8	-57.3	3.8	1.49e+00	0	53	104	0	57	18786
2026-01-27 22:50:55.12	21.36	2.53	-42.8	-57.2	3.8	1.49e+00	0	53	104	0	57	18730
2026-01-27 22:50:56.13	21.41	2.60	-42.8	-57.2	3.8	1.49e+00	0	53	104	0	57	18726
2026-01-27 22:50:57.14	21.45	2.66	-42.8	-57.2	3.8	1.49e+00	0	53	104	0	57	18697
2026-01-27 22:50:58.16	21.50	2.72	-42.8	-57.2	3.8	1.49e+00	0	53	104	0	57	18687
2026-01-27 22:50:59.17	21.55	2.78	-42.8	-57.2	3.8	1.49e+00	0	54	104	0	57	18710
2026-01-27 22:51:00.18	21.59	2.85	-42.8	-57.2	3.8	1.49e+00	0	54	104	0	57	18643
2026-01-27 22:51:01.19	21.64	2.91	-42.7	-57.2	3.8	1.49e+00	0	54	104	0	57	18686
2026-01-27 22:51:02.20	21.69	2.97	-42.8	-57.2	3.8	1.49e+00	0	54	104	0	57	18713
2026-01-27 22:51:03.21	21.74	3.03	-42.8	-57.2	3.8	1.49e+00	0	54	104	0	57	18717
2026-01-27 22:51:04.22	21.78	3.10	-42.8	-57.2	3.8	1.49e+00	0	54	104	0	57	18687
2026-01-27 22:51:05.23	21.83	3.16	-42.8	-57.2	3.8	1.49e+00	0	54	104	0	57	18649
2026-01-27 22:51:06.24	21.88	3.22	-42.8	-57.2	3.8	1.49e+00	0	54	104	0	57	18677
2026-01-27 22:51:07.25	21.93	3.29	-42.8	-57.2	3.8	1.49e+00	0	54	104	0	57	18694
2026-01-27 22:51:08.25	21.98	3.35	-42.8	-57.2	3.8	1.49e+00	0	54	104	0	57	18701
2026-01-27 22:51:09.26	22.03	3.41	-42.8	-57.2	3.8	1.49e+00	0	54	104	0	57	18671
2026-01-27 22:51:10.27	22.07	3.48	-42.7	-57.2	3.8	1.49e+00	0	54	104	0	57	18659
2026-01-27 22:51:11.28	22.12	3.54	-42.8	-57.3	3.8	1.49e+00	0	54	104	0	57	18771
2026-01-27 22:51:12.29	22.17	3.61	-42.7	-57.2	3.8	1.49e+00	0	54	104	0	57	18689
2026-01-27 22:51:13.30	22.22	3.67	-42.7	-57.2	3.8	1.49e+00	0	54	104	0	57	18655
2026-01-27 22:51:14.31	22.27	3.73	-42.7	-57.2	3.8	1.49e+00	0	55	104	0	57	18634
2026-01-27 22:51:15.32	22.32	3.80	-42.8	-57.2	3.8	1.49e+00	0	54	104	0	57	18674
2026-01-27 22:51:16.33	22.37	3.86	-42.7	-57.2	3.8	1.49e+00	0	55	104	0	57	18667
2026-01-27 22:51:17.34	22.42	3.93	-42.7	-57.2	3.8	1.49e+00	0	55	104	0	57	18666
2026-01-27 22:51:18.35	22.47	3.99	-42.7	-57.2	3.8	1.49e+00	0	55	104	0	57	18698
2026-01-27 22:51:19.36	22.52	4.06	-42.7	-57.2	3.8	1.49e+00	0	55	104	0	57	18723
2026-01-27 22:51:20.37	22.58	4.12	-42.7	-57.2	3.8	1.49e+00	0	55	104	0	57	18667
2026-01-27 22:51:21.38	22.63	4.19	-42.7	-57.2	3.8	1.49e+00	0	55	104	0	57	18622
2026-01-27 22:51:22.39	22.68	4.25	-42.7	-57.2	3.8	1.49e+00	0	55	104	0	57	18614
2026-01-27 22:51:23.40	22.73	4.32	-42.7	-57.2	3.8	1.49e+00	0	55	104	0	57	18725
2026-01-27 22:51:24.41	22.78	4.38	-42.7	-57.2	3.8	1.49e+00	0	55	104	0	57	18691
2026-01-27 22:51:25.42	22.83	4.45	-42.7	-57.2	3.8	1.49e+00	0	55	104	0	57	18620
2026-01-27 22:51:26.43	22.89	4.52	-42.7	-57.2	3.8	1.49e+00	0	55	104	0	57	18673
2026-01-27 22:51:27.44	22.94	4.58	-42.7	-57.2	3.8	1.49e+00	0	55	104	0	57	18701
2026-01-27 22:51:28.45	22.99	4.65	-42.7	-57.2	3.8	1.49e+00	0	55	104	0	57	18647
2026-01-27 22:51:29.46	23.04	4.72	-42.7	-57.2	3.8	1.49e+00	0	55	104	0	57	18646
2026-01-27 22:51:30.47	23.10	4.78	-42.7	-57.2	3.8	1.49e+00	0	56	104	0	57	18673
2026-01-27 22:51:31.48	23.15	4.85	-42.7	-57.2	3.8	1.49e+00	0	56	104	0	57	18661
2026-01-27 22:51:32.49	23.20	4.92	-42.7	-57.2	3.8	1.49e+00	0	56	104	0	57	18634
2026-01-27 22:51:33.51	23.26	4.98	-42.7	-57.2	3.8	1.49e+00	0	56	104	0	57	18633
2026-01-27 22:51:34.52	23.31	5.05	-42.7	-57.2	3.8	1.49e+00	0	56	104	0	57	18620
2026-01-27 22:51:35.53	23.37	5.12	-42.7	-57.2	3.8	1.49e+00	0	56	104	0	57	18682
2026-01-27 22:51:36.54	23.42	5.19	-42.7	-57.2	3.8	1.49e+00	0	56	104	0	57	18691
2026-01-27 22:51:37.55	23.48	5.25	-42.7	-57.2	3.8	1.49e+00	0	56	104	0	57	18636
2026-01-27 22:51:38.56	23.53	5.32	-42.7	-57.2	3.8	1.49e+00	0	56	104	0	57	18589
2026-01-27 22:51:39.57	23.59	5.39	-42.7	-57.2	3.8	1.49e+00	0	56	104	0	57	18656
2026-01-27 22:51:40.58	23.64	5.46	-42.7	-57.2	3.8	1.49e+00	0	56	104	0	57	18707
2026-01-27 22:51:41.59	23.70	5.53	-42.7	-57.2	3.8	1.49e+00	0	56	104	0	57	18693
2026-01-27 22:51:42.60	23.75	5.59	-42.8	-57.2	3.8	1.49e+00	0	56	104	0	57	18678
2026-01-27 22:51:43.61	23.81	5.66	-42.7	-57.2	3.8	1.49e+00	0	56	104	0	57	18704
2026-01-27 22:51:44.62	23.87	5.73	-42.7	-57.2	3.8	1.49e+00	0	56	104	0	57	18659
2026-01-27 22:51:45.63	23.92	5.80	-42.7	-57.2	3.8	1.49e+00	0	56	104	0	57	18621
2026-01-27 22:51:46.64	23.98	5.87	-42.7	-57.2	3.8	1.49e+00	0	56	104	0	57	18679
2026-01-27 22:51:47.65	24.04	5.94	-42.7	-57.2	3.8	1.49e+00	0	56	104	0	57	18607
2026-01-27 22:51:48.66	24.09	6.01	-42.7	-57.2	3.8	1.49e+00	0	56	104	0	57	18673
2026-01-27 22:51:49.67	24.15	6.08	-42.7	-57.2	3.8	1.49e+00	0	56	104	0	57	18679
2026-01-27 22:51:50.68	24.21	6.15	-42.8	-57.2	3.8	1.49e+00	0	56	104	0	57	18692
2026-01-27 22:51:51.69	24.27	6.22	-42.7	-57.2	3.8	1.49e+00	0	57	104	0	57	18651
2026-01-27 22:51:52.70	24.33	6.29	-42.7	-57.2	3.8	1.49e+00	0	57	104	0	57	18619
2026-01-27 22:51:53.72	24.39	6.36	-42.7	-57.2	3.8	1.49e+00	0	56	104	0	57	18606
2026-01-27 22:51:54.73	24.44	6.43	-42.7	-57.2	3.8	1.49e+00	0	57	104	0	57	18649
2026-01-27 22:51:55.74	24.50	6.50	-42.7	-57.2	3.8	1.49e+00	0	57	104	0	57	18620
2026-01-27 22:51:56.75	24.56	6.57	-42.7	-57.2	3.8	1.49e+00	0	57	104	0	57	18614
2026-01-27 22:51:57.76	24.62	6.64	-42.7	-57.2	3.8	1.49e+00	0	57	104	0	57	18661
2026-01-27 22:51:58.77	24.68	6.71	-42.7	-57.2	3.8	1.49e+00	0	57	104	0	57	18662
2026-01-27 22:51:59.78	24.74	6.78	-42.7	-57.2	3.8	1.49e+00	0	57	104	0	57	18663
2026-01-27 22:52:00.79	24.80	6.85	-42.7	-57.2	3.8	1.49e+00	0	57	104	0	57	18591
2026-01-27 22:52:01.80	24.86	6.93	-42.7	-57.1	3.8	1.49e+00	0	57	104	0	57	18515
2026-01-27 22:52:02.81	24.93	7.00	-42.7	-57.1	3.8	1.49e+00	0	57	104	0	57	18458
2026-01-27 22:52:03.82	24.99	7.07	-42.7	-57.1	3.8	1.49e+00	0	57	104	0	57	18467
2026-01-27 22:52:04.83	25.05	7.14	-42.7	-57.1	3.8	1.49e+00	0	57	104	0	57	18436
2026-01-27 22:52:05.84	25.11	7.21	-42.7	-57.0	3.8	1.49e+00	0	57	104	0	57	18180
2026-01-27 22:52:06.85	25.17	7.29	-42.7	-56.7	3.8	1.49e+00	0	57	104	0	57	17583
2026-01-27 22:52:07.86	25.24	7.36	-42.7	-56.2	3.8	1.49e+00	0	57	104	0	57	16621
2026-01-27 22:52:08.87	25.30	7.43	-42.7	-55.7	3.8	1.49e+00	0	57	104	0	57	15675
2026-01-27 22:52:09.88	25.36	7.50	-42.6	-55.2	3.8	1.48e+00	0	57	104	0	57	14781
2026-01-27 22:52:10.89	25.42	7.58	-42.5	-54.2	4.1	1.49e+00	0	57	104	0	57	13158
2026-01-27 22:52:11.90	25.49	7.65	-42.5	-53.1	4.3	1.40e+00	0	57	0	0	56	12361
2026-01-27 22:52:12.92	25.55	7.73	-42.3	-51.5	5.1	7.97e-01	0	57	0	1048576	56	10238
2026-01-27 22:52:13.93	25.62	7.80	-42.1	-50.4	5.8	5.34e-01	0	58	0	3145728	56	8988
2026-01-27 22:52:14.94	25.68	7.87	-41.7	-48.9	6.9	2.76e-01	0	57	0	5242880	55	8019
2026-01-27 22:52:15.95	25.75	7.95	-41.3	-47.6	8.1	8.31e-02	0	57	0	7340032	54	7324
2026-01-27 22:52:16.96	25.81	8.02	-41.1	-46.8	9.0	3.44e-02	0	57	0	9437184	54	6669
2026-01-27 22:52:17.97	25.88	8.10	-41.4	-46.7	9.6	1.58e-02	0	58	0	10485760	54	6592
2026-01-27 22:52:18.98	25.94	8.17	-41.8	-53.1	4.2	9.23e-01	0	58	0	12582912	54	13859
2026-01-27 22:52:19.98	26.01	8.25	-42.2	-48.5	8.3	5.23e-02	0	58	0	13631488	54	8128
2026-01-27 22:52:21.00	26.08	8.32	-43.4	-53.5	4.6	1.87e-01	0	58	0	15728640	57	12152
2026-01-27 22:52:22.01	26.14	8.40	-42.0	-49.8	6.3	1.04e-01	0	58	0	17825792	55	8879
2026-01-27 22:52:23.02	26.21	8.47	-41.7	-47.1	9.4	3.20e-02	0	58	0	19922944	55	6524
2026-01-27 22:52:24.02	26.28	8.55	-41.5	-46.6	9.9	1.15e-02	0	58	0	22020096	55	6176
2026-01-27 22:52:25.03	26.34	8.62	-41.6	-46.8	9.7	8.84e-03	0	58	0	23068672	55	6340
2026-01-27 22:52:26.04	26.41	8.70	-41.7	-46.9	9.8	1.17e-02	0	58	0	25165824	55	6352
2026-01-27 22:52:27.05	26.48	8.78	-41.6	-46.7	10.0	1.05e-02	0	58	0	27262976	55	6235
2026-01-27 22:52:28.07	26.55	8.85	-41.7	-46.8	9.9	5.32e-03	0	58	0	29360128	54	6696
2026-01-27 22:52:29.08	26.62	8.93	-41.7	-46.9	9.8	7.57e-03	0	58	0	31457280	54	6793
2026-01-27 22:52:30.08	26.69	9.01	-41.7	-46.7	10.1	7.77e-03	0	58	0	32505856	54	6571
2026-01-27 22:52:31.09	26.76	9.08	-41.5	-46.2	10.6	4.97e-03	0	58	0	34603008	54	6263
2026-01-27 22:52:32.11	26.83	9.16	-41.7	-46.7	10.2	5.90e-03	0	58	0	36700160	54	6582
2026-01-27 22:52:33.12	26.90	9.24	-41.7	-46.5	10.4	5.61e-03	0	58	0	38797312	54	6441
2026-01-27 22:52:34.13	26.97	9.32	-41.6	-46.3	10.7	3.76e-03	0	58	0	40894464	54	6310
2026-01-27 22:52:35.14	27.04	9.39	-41.6	-46.4	10.6	4.02e-03	0	58	0	42991616	54	6351
2026-01-27 22:52:36.15	27.11	9.47	-41.6	-46.3	10.7	2.69e-03	0	58	0	44040192	54	6339
2026-01-27 22:52:37.16	27.18	9.55	-41.7	-46.5	10.6	3.08e-03	0	58	0	46137344	54	6461
2026-01-27 22:52:38.17	27.26	9.63	-41.7	-46.4	10.7	2.91e-03	0	58	0	48234496	54	6370
2026-01-27 22:52:39.18	27.33	9.71	-41.8	-46.6	10.5	3.48e-03	0	58	0	50331648	54	6567
2026-01-27 22:52:40.19	27.40	9.79	-41.6	-46.1	11.0	2.38e-03	0	58	0	52428800	54	6199
2026-01-27 22:52:41.20	27.47	9.87	-41.8	-46.4	10.8	1.75e-03	0	58	0	53477376	54	6368
2026-01-27 22:52:42.21	27.55	9.95	-41.6	-45.9	11.3	1.40e-03	0	58	0	55574528	54	6030
2026-01-27 22:52:43.22	27.62	10.03	-41.7	-46.2	11.1	1.54e-03	0	58	0	57671680	54	6210
2026-01-27 22:52:44.23	27.70	10.10	-41.6	-45.9	11.3	1.30e-03	0	58	0	59768832	54	6049
2026-01-27 22:52:45.24	27.77	10.19	-41.5	-45.7	11.5	9.54e-04	0	58	0	61865984	54	5908
2026-01-27 22:52:46.25	27.85	10.27	-41.6	-46.0	11.3	1.42e-03	0	58	0	62914560	54	6096
2026-01-27 22:52:47.26	27.92	10.35	-41.6	-45.8	11.4	1.32e-03	0	59	0	65011712	54	5987
2026-01-27 22:52:48.27	28.00	10.43	-41.6	-45.9	11.4	1.01e-03	0	58	0	67108864	54	6033
2026-01-27 22:52:49.28	28.08	10.51	-41.6	-45.9	11.4	8.07e-04	0	59	0	69206016	54	6003
2026-01-27 22:52:50.29	28.15	10.59	-41.5	-45.8	11.6	8.28e-04	0	59	0	71303168	54	5933
2026-01-27 22:52:51.30	28.23	10.67	-41.5	-45.7	11.7	6.91e-04	0	59	0	72351744	54	5902
2026-01-27 22:52:52.32	28.31	10.75	-41.4	-45.5	11.9	5.08e-04	0	59	0	74448896	54	5765
2026-01-27 22:52:53.33	28.39	10.83	-41.6	-45.8	11.6	4.04e-04	0	59	0	76546048	54	5966
2026-01-27 22:52:54.34	28.46	10.92	-41.4	-45.4	12.0	4.68e-04	0	59	0	78643200	54	5716
2026-01-27 22:52:55.35	28.54	11.00	-41.4	-45.4	12.0	2.77e-04	0	59	0	80740352	54	5697
2026-01-27 22:52:56.35	28.62	11.08	-41.5	-45.5	11.9	3.23e-04	0	59	0	82837504	54	5769
2026-01-27 22:52:57.37	28.70	11.16	-41.5	-45.5	12.0	2.59e-04	0	59	0	83886080	54	5736
2026-01-27 22:52:58.38	28.78	11.25	-41.3	-45.2	12.3	3.70e-04	0	59	0	85983232	54	5547
2026-01-27 22:52:59.39	28.86	11.33	-41.4	-45.4	12.1	3.22e-04	0	59	0	88080384	54	5669
2026-01-27 22:53:00.40	28.94	11.41	-41.5	-45.6	11.9	2.92e-04	0	59	0	90177536	54	5807
2026-01-27 22:53:01.41	29.03	11.50	-41.5	-45.6	11.9	3.98e-04	0	59	0	92274688	54	5817
2026-01-27 22:53:02.42	29.11	11.58	-41.4	-45.4	12.2	2.35e-04	0	59	0	93323264	54	5672
2026-01-27 22:53:03.43	29.19	11.67	-41.6	-45.8	11.8	3.13e-04	0	59	0	95420416	54	5932
2026-01-27 22:53:04.44	29.27	11.75	-41.5	-45.6	12.0	4.39e-04	0	59	0	97517568	54	5805
2026-01-27 22:53:05.45	29.36	11.84	-41.6	-45.7	11.8	2.24e-04	0	59	0	99614720	54	5913
2026-01-27 22:53:06.46	29.44	11.92	-41.6	-45.7	11.8	3.33e-04	0	59	0	101711872	54	5892
2026-01-27 22:53:07.47	29.52	12.01	-41.6	-45.7	11.8	4.49e-04	0	59	0	102760448	54	5904
2026-01-27 22:53:08.48	29.61	12.09	-41.5	-45.5	11.9	3.94e-04	0	59	0	104857600	54	5788
2026-01-27 22:53:09.49	29.69	12.18	-41.5	-45.5	12.1	3.81e-04	0	59	0	106954752	54	5753
2026-01-27 22:53:10.50	29.78	12.26	-41.5	-45.5	12.1	2.23e-04	0	59	0	109051904	54	5771
2026-01-27 22:53:11.51	29.86	12.35	-41.4	-45.3	12.3	2.49e-04	0	59	0	111149056	54	5618
2026-01-27 22:53:12.52	29.95	12.44	-41.4	-45.2	12.4	2.08e-04	0	59	0	112197632	54	5589
2026-01-27 22:53:13.53	30.04	12.52	-41.5	-45.4	12.3	1.43e-04	0	59	0	114294784	54	5661
2026-01-27 22:53:14.54	30.13	12.61	-41.4	-45.1	12.5	1.69e-04	0	59	0	116391936	54	5522
2026-01-27 22:53:15.55	30.21	12.70	-41.4	-45.2	12.5	7.78e-05	0	59	0	118489088	54	5546
2026-01-27 22:53:16.56	30.30	12.78	-41.3	-45.1	12.6	9.99e-05	0	59	0	120586240	54	5488
2026-01-27 22:53:17.57	30.39	12.87	-41.3	-45.1	12.5	9.46e-05	0	59	0	121634816	54	5498
2026-01-27 22:53:18.58	30.48	12.96	-41.3	-44.9	12.8	6.71e-05	0	59	0	123731968	54	5368
2026-01-27 22:53:19.59	30.57	13.05	-41.3	-45.0	12.7	7.55e-05	0	59	0	125829120	54	5428
2026-01-27 22:53:20.60	30.66	13.14	-41.2	-44.8	12.9	9.15e-05	0	59	0	127926272	54	5307
2026-01-27 22:53:21.61	30.75	13.23	-41.3	-45.0	12.7	6.56e-05	0	59	0	130023424	54	5414
2026-01-27 22:53:22.62	30.84	13.31	-41.3	-44.9	12.8	5.87e-05	0	59	0	131072000	54	5345
2026-01-27 22:53:23.63	30.93	13.40	-41.3	-44.9	12.8	6.71e-05	0	59	0	133169152	54	5388
2026-01-27 22:53:24.64	31.03	13.49	-41.4	-45.1	12.6	3.81e-05	0	59	0	135266304	54	5491
2026-01-27 22:53:25.65	31.12	13.58	-41.5	-45.3	12.4	6.10e-05	0	59	0	137363456	54	5596
2026-01-27 22:53:26.66	31.21	13.67	-41.4	-45.0	12.6	9.23e-05	0	59	0	139460608	54	5460
2026-01-27 22:53:27.67	31.31	13.76	-41.2	-44.8	12.9	4.95e-05	0	59	0	140509184	54	5299
2026-01-27 22:53:28.68	31.40	13.85	-41.4	-45.0	12.7	6.63e-05	0	60	0	142606336	54	5433
2026-01-27 22:53:29.69	31.50	13.95	-41.2	-44.8	13.0	3.96e-05	0	59	0	144703488	54	5286
2026-01-27 22:53:30.70	31.59	14.04	-41.3	-44.8	12.9	4.73e-05	0	59	0	146800640	54	5328
2026-01-27 22:53:31.71	31.69	14.13	-41.2	-44.7	13.0	3.58e-05	0	60	0	148897792	54	5235
2026-01-27 22:53:32.72	31.79	14.22	-41.1	-44.5	13.2	2.13e-05	0	59	0	150994944	54	5128
2026-01-27 22:53:33.73	31.89	14.31	-41.1	-44.6	13.2	2.21e-05	0	59	0	152043520	54	5177
2026-01-27 22:53:34.73	31.98	14.40	-41.0	-44.4	13.3	2.05e-05	0	59	0	154140672	54	5068
2026-01-27 22:53:35.74	32.08	14.50	-41.2	-44.6	13.2	1.52e-05	0	60	0	156237824	54	5185
2026-01-27 22:53:36.75	32.18	14.59	-41.1	-44.6	13.1	9.10e-06	0	60	0	158334976	54	5169
2026-01-27 22:53:37.76	32.28	14.68	-41.1	-44.5	13.3	2.13e-05	0	59	0	160432128	54	5123
2026-01-27 22:53:38.77	32.38	14.77	-41.2	-44.7	13.1	3.73e-05	0	60	0	161480704	54	5226
2026-01-27 22:53:39.78	32.48	14.87	-41.2	-44.7	13.2	2.13e-05	0	59	0	163577856	54	5221
2026-01-27 22:53:40.80	32.58	14.96	-41.3	-44.7	13.1	2.36e-05	0	60	0	165675008	54	5279
2026-01-27 22:53:41.81	32.69	15.06	-41.2	-44.6	13.2	1.98e-05	0	60	0	167772160	54	5218
2026-01-27 22:53:42.82	32.79	15.15	-41.4	-45.1	12.8	2.51e-05	0	60	0	169869312	54	5491
2026-01-27 22:53:43.83	32.89	15.25	-41.3	-44.8	13.0	4.27e-05	0	60	0	170917888	54	5332
2026-01-27 22:53:44.84	33.00	15.34	-41.4	-45.1	12.8	4.73e-05	0	60	0	173015040	54	5469
2026-01-27 22:53:45.85	33.10	15.44	-41.4	-45.0	12.9	6.17e-05	0	60	0	175112192	54	5448
2026-01-27 22:53:46.86	33.21	15.53	-41.5	-45.1	12.8	5.95e-05	0	60	0	177209344	54	5517
2026-01-27 22:53:47.87	33.31	15.63	-41.4	-45.1	12.8	5.56e-05	0	60	0	179306496	54	5490
2026-01-27 22:53:48.88	33.42	15.73	-41.3	-44.9	13.0	6.63e-05	0	60	0	180355072	54	5381
2026-01-27 22:53:49.89	33.53	15.82	-41.5	-45.1	12.7	6.79e-05	0	60	0	182452224	54	5517
2026-01-27 22:53:50.90	33.64	15.92	-41.4	-44.9	13.0	3.73e-05	0	60	0	184549376	54	5370
2026-01-27 22:53:51.90	33.74	16.02	-41.3	-44.8	13.0	2.51e-05	0	60	0	186646528	54	5319
2026-01-27 22:53:52.91	33.85	16.11	-41.3	-44.7	13.2	3.96e-05	0	60	0	188743680	54	5253
2026-01-27 22:53:53.92	33.96	16.21	-41.2	-44.6	13.3	2.13e-05	0	60	0	189792256	54	5184
2026-01-27 22:53:54.93	34.07	16.31	-41.2	-44.6	13.3	1.75e-05	0	60	0	191889408	54	5202
2026-01-27 22:53:55.94	34.19	16.41	-41.3	-44.7	13.3	1.75e-05	0	60	0	193986560	54	5235
2026-01-27 22:53:56.95	34.30	16.51	-41.2	-44.5	13.4	1.22e-05	0	60	0	196083712	54	5150
2026-01-27 22:53:57.96	34.41	16.60	-41.2	-44.5	13.4	1.75e-05	0	60	0	198180864	54	5153
2026-01-27 22:53:58.97	34.53	16.70	-41.1	-44.4	13.5	1.75e-05	0	60	0	199229440	54	5093
2026-01-27 22:53:59.98	34.64	16.80	-41.3	-44.7	13.2	2.89e-05	0	60	0	201326592	54	5272
2026-01-27 22:54:00.99	34.75	16.90	-41.3	-44.6	13.3	2.21e-05	0	60	0	203423744	54	5210
2026-01-27 22:54:02.00	34.87	17.00	-41.3	-44.8	13.2	2.21e-05	0	60	0	205520896	54	5299
2026-01-27 22:54:03.01	34.99	17.10	-41.2	-44.6	13.3	2.67e-05	0	60	0	207618048	54	5203
2026-01-27 22:54:04.02	35.10	17.20	-41.4	-44.9	13.1	3.50e-05	0	60	0	208666624	54	5358
2026-01-27 22:54:05.03	35.22	17.31	-41.5	-45.0	12.9	2.21e-05	0	60	0	210763776	54	5444
2026-01-27 22:54:06.04	35.34	17.41	-41.3	-44.8	13.2	1.90e-05	0	60	0	212860928	54	5313
2026-01-27 22:54:07.05	35.46	17.51	-41.6	-45.2	12.8	3.89e-05	0	60	0	214958080	54	5568
2026-01-27 22:54:08.06	35.58	17.61	-41.5	-45.1	12.9	5.72e-05	0	60	0	217055232	54	5503
2026-01-27 22:54:09.08	35.70	17.71	-41.5	-45.1	12.9	4.95e-05	0	60	0	219152384	54	5488
2026-01-27 22:54:10.09	35.83	17.82	-41.6	-45.3	12.7	8.62e-05	0	60	0	220200960	54	5614
2026-01-27 22:54:11.10	35.95	17.92	-41.8	-45.7	12.3	1.08e-04	0	60	0	222298112	54	5875
2026-01-27 22:54:12.11	36.07	18.02	-41.8	-45.6	12.3	1.50e-04	0	60	0	224395264	54	5840
2026-01-27 22:54:13.12	36.20	18.13	-41.7	-45.5	12.4	1.30e-04	0	60	0	226492416	54	5787
2026-01-27 22:54:14.13	36.32	18.23	-41.8	-45.7	12.2	2.34e-04	0	60	0	228589568	54	5883
2026-01-27 22:54:15.14	36.45	18.34	-41.8	-45.7	12.3	1.79e-04	0	60	0	229638144	54	5891
2026-01-27 22:54:16.15	36.58	18.44	-41.9	-45.8	12.2	2.01e-04	0	60	0	231735296	54	5957
2026-01-27 22:54:17.16	36.70	18.54	-41.8	-45.7	12.2	2.19e-04	0	60	0	233832448	54	5911
2026-01-27 22:54:18.17	36.83	18.65	-41.8	-45.6	12.3	2.53e-04	0	60	0	235929600	54	5838
2026-01-27 22:54:19.18	36.96	18.76	-41.9	-45.9	12.1	2.17e-04	0	60	0	238026752	54	5994
2026-01-27 22:54:20.19	37.09	18.86	-41.7	-45.5	12.5	1.33e-04	0	60	0	239075328	54	5754
2026-01-27 22:54:21.20	37.22	18.97	-41.8	-45.6	12.4	1.68e-04	0	60	0	241172480	54	5805
2026-01-27 22:54:22.21	37.36	19.07	-41.8	-45.6	12.4	1.31e-04	0	60	0	243269632	54	5798
2026-01-27 22:54:23.22	37.49	19.18	-41.7	-45.4	12.7	9.99e-05	0	60	0	245366784	54	5693
2026-01-27 22:54:24.23	37.62	19.29	-41.7	-45.3	12.6	1.38e-04	0	60	0	247463936	54	5645
2026-01-27 22:54:25.24	37.76	19.39	-41.7	-45.4	12.6	7.78e-05	0	60	0	248512512	54	5660
2026-01-27 22:54:26.25	37.89	19.50	-41.7	-45.4	12.6	1.23e-04	0	61	0	250609664	54	5668
2026-01-27 22:54:27.26	38.03	19.61	-41.8	-45.5	12.5	6.86e-05	0	60	0	252706816	54	5772
2026-01-27 22:54:28.27	38.17	19.72	-41.7	-45.4	12.6	9.61e-05	0	60	0	254803968	54	5704
2026-01-27 22:54:29.28	38.31	19.83	-41.8	-45.5	12.5	1.33e-04	0	61	0	256901120	54	5780
2026-01-27 22:54:30.29	38.45	19.94	-41.8	-45.6	12.5	1.44e-04	0	60	0	257949696	54	5834
2026-01-27 22:54:31.30	38.59	20.05	-41.8	-45.5	12.5	1.05e-04	0	60	0	260046848	54	5772
2026-01-27 22:54:32.31	38.73	20.15	-41.9	-45.9	12.2	1.20e-04	0	60	0	262144000	54	5999
2026-01-27 22:54:33.33	38.87	20.27	-42.0	-45.9	12.2	1.47e-04	0	60	0	264241152	54	6026
2026-01-27 22:54:34.34	39.01	20.38	-41.7	-45.4	12.6	1.43e-04	0	60	0	266338304	54	5712
2026-01-27 22:54:35.35	39.16	20.49	-41.8	-45.6	12.5	1.33e-04	0	60	0	268435456	54	5799
2026-01-27 22:54:36.36	39.30	20.60	-42.0	-46.0	12.1	1.68e-04	0	60	0	269484032	54	6071
2026-01-27 22:54:37.37	39.45	20.71	-41.9	-45.7	12.4	1.36e-04	0	61	0	271581184	54	5880
2026-01-27 22:54:38.38	39.60	20.82	-42.0	-45.9	12.2	2.14e-04	0	60	0	273678336	54	6008
2026-01-27 22:54:39.39	39.75	20.93	-42.0	-45.8	12.3	1.50e-04	0	61	0	275775488	54	5989
2026-01-27 22:54:40.40	39.90	21.04	-41.8	-45.5	12.7	1.72e-04	0	61	0	276824064	54	5728
2026-01-27 22:54:41.40	40.05	21.15	-41.8	-45.6	12.5	1.17e-04	0	60	0	278921216	54	5815
2026-01-27 22:54:42.41	40.20	21.27	-42.0	-45.8	12.2	1.25e-04	0	60	0	281018368	54	5984
2026-01-27 22:54:43.42	40.35	21.38	-41.8	-45.5	12.6	1.30e-04	0	61	0	283115520	54	5727
2026-01-27 22:54:44.43	40.50	21.49	-41.7	-45.3	12.9	9.15e-05	0	61	0	285212672	54	5648
2026-01-27 22:54:45.44	40.66	21.61	-41.6	-45.1	13.0	7.24e-05	0	61	0	287309824	54	5525
2026-01-27 22:54:46.45	40.82	21.72	-41.6	-45.1	13.0	4.19e-05	0	61	0	288358400	54	5527
2026-01-27 22:54:47.46	40.97	21.84	-41.7	-45.2	12.9	4.04e-05	0	61	0	290455552	54	5590
2026-01-27 22:54:48.47	41.13	21.95	-41.6	-45.1	13.0	4.19e-05	0	61	0	292552704	54	5509
2026-01-27 22:54:49.48	41.29	22.06	-41.6	-45.1	12.9	3.89e-05	0	60	0	294649856	54	5526
2026-01-27 22:54:50.49	41.45	22.18	-41.6	-45.0	13.1	2.82e-05	0	61	0	296747008	54	5452
2026-01-27 22:54:51.50	41.61	22.30	-41.6	-45.2	13.0	2.36e-05	0	61	0	297795584	54	5529
2026-01-27 22:54:52.51	41.78	22.41	-41.6	-45.2	13.0	3.81e-05	0	60	0	299892736	54	5544
2026-01-27 22:54:53.52	41.94	22.53	-41.7	-45.4	12.7	2.74e-05	0	61	0	301989888	54	5681
2026-01-27 22:54:54.53	42.11	22.64	-41.7	-45.2	12.9	5.41e-05	0	61	0	304087040	54	5584
2026-01-27 22:54:55.54	42.27	22.76	-41.5	-45.0	13.1	6.63e-05	0	61	0	306184192	54	5424
2026-01-27 22:54:56.56	42.44	22.88	-41.7	-45.2	13.0	3.50e-05	0	61	0	307232768	54	5571
2026-01-27 22:54:57.57	42.61	23.00	-41.6	-45.2	12.9	3.28e-05	0	61	0	309329920	54	5551
2026-01-27 22:54:58.58	42.78	23.11	-41.6	-45.0	13.1	2.44e-05	0	61	0	311427072	54	5463
2026-01-27 22:54:59.59	42.95	23.23	-41.4	-44.8	13.4	1.06e-05	0	61	0	313524224	54	5292
2026-01-27 22:55:00.60	43.13	23.35	-41.3	-44.6	13.6	6.10e-06	0	60	0	315621376	54	5167
2026-01-27 22:55:01.61	43.30	23.47	-41.2	-44.4	13.8	1.37e-05	0	61	0	316669952	54	5068
2026-01-27 22:55:02.62	43.48	23.59	-41.3	-44.5	13.7	4.50e-06	0	61	0	318767104	54	5129
2026-01-27 22:55:03.63	43.65	23.70	-41.2	-44.4	13.8	5.30e-06	0	61	0	320864256	54	5043
2026-01-27 22:55:04.64	43.83	23.82	-41.2	-44.4	13.8	9.10e-06	0	61	0	322961408	54	5071
2026-01-27 22:55:05.65	44.01	23.94	-41.4	-44.7	13.5	6.80e-06	0	61	0	325058560	54	5230
2026-01-27 22:55:06.66	44.19	24.06	-41.4	-44.8	13.4	1.14e-05	0	61	0	327155712	54	5312
2026-01-27 22:55:07.67	44.37	24.18	-41.6	-45.1	13.1	2.74e-05	0	61	0	328204288	54	5497
2026-01-27 22:55:08.68	44.56	24.30	-41.8	-45.4	12.9	3.66e-05	0	61	0	330301440	54	5672
2026-01-27 22:55:09.69	44.74	24.42	-42.0	-45.8	12.4	7.17e-05	0	61	0	332398592	54	5944
2026-01-27 22:55:10.70	44.93	24.54	-41.8	-45.5	12.7	9.23e-05	0	61	0	334495744	54	5780
2026-01-27 22:55:11.70	45.11	24.66	-41.9	-45.6	12.6	6.10e-05	0	61	0	336592896	54	5826
2026-01-27 22:55:12.71	45.30	24.79	-41.8	-45.3	12.9	7.17e-05	0	61	0	337641472	54	5639
2026-01-27 22:55:13.72	45.49	24.91	-41.7	-45.3	12.9	3.89e-05	0	61	0	339738624	54	5609
2026-01-27 22:55:14.73	45.68	25.03	-41.5	-44.9	13.3	2.82e-05	0	61	0	341835776	54	5390
2026-01-27 22:55:15.74	45.88	25.15	-41.4	-44.7	13.5	9.90e-06	0	61	0	343932928	54	5257
2026-01-27 22:55:16.75	46.07	25.27	-41.3	-44.5	13.7	8.30e-06	0	61	0	346030080	54	5141
2026-01-27 22:55:17.77	46.27	25.40	-41.2	-44.3	13.9	1.50e-06	0	61	0	347078656	54	5031
2026-01-27 22:55:18.78	46.47	25.52	-41.3	-44.4	13.9	4.50e-06	0	61	0	349175808	54	5072
2026-01-27 22:55:19.79	46.67	25.64	-41.3	-44.5	13.8	3.80e-06	0	61	0	351272960	54	5124
2026-01-27 22:55:20.80	46.87	25.76	-41.4	-44.7	13.5	1.06e-05	0	61	0	353370112	54	5266
2026-01-27 22:55:21.81	47.07	25.89	-41.4	-44.6	13.6	1.06e-05	0	61	0	355467264	54	5216
2026-01-27 22:55:22.82	47.27	26.01	-41.5	-44.9	13.3	8.30e-06	0	61	0	356515840	54	5375
2026-01-27 22:55:23.83	47.48	26.14	-41.5	-44.8	13.4	1.29e-05	0	61	0	358612992	54	5339
2026-01-27 22:55:24.84	47.69	26.26	-41.5	-44.8	13.5	1.75e-05	0	61	0	360710144	54	5304
2026-01-27 22:55:25.85	47.89	26.38	-41.4	-44.7	13.6	1.44e-05	0	61	0	362807296	54	5242
2026-01-27 22:55:26.86	48.10	26.51	-41.5	-44.8	13.5	9.90e-06	0	61	0	364904448	54	5335
2026-01-27 22:55:27.87	48.32	26.63	-41.4	-44.7	13.6	1.22e-05	0	61	0	365953024	54	5251
2026-01-27 22:55:28.88	48.53	26.76	-41.4	-44.7	13.6	7.60e-06	0	61	0	368050176	54	5249
2026-01-27 22:55:29.89	48.74	26.88	-41.5	-44.9	13.4	1.29e-05	0	61	0	370147328	54	5344
2026-01-27 22:55:30.90	48.96	27.01	-41.4	-44.6	13.6	8.30e-06	0	61	0	372244480	54	5213
2026-01-27 22:55:31.91	49.18	27.13	-41.4	-44.7	13.6	1.29e-05	0	61	0	374341632	54	5261
2026-01-27 22:55:32.92	49.40	27.26	-41.5	-44.8	13.5	6.80e-06	0	61	0	375390208	54	5323
2026-01-27 22:55:33.93	49.62	27.38	-41.4	-44.7	13.6	6.80e-06	0	61	0	377487360	54	5250
2026-01-27 22:55:34.94	49.85	27.51	-41.3	-44.4	13.9	4.50e-06	0	61	0	379584512	54	5096
2026-01-27 22:55:35.95	50.07	27.63	-41.3	-44.3	14.0	6.80e-06	0	61	0	381681664	54	5037
2026-01-27 22:55:36.96	50.30	27.76	-41.2	-44.2	14.1	2.20e-06	0	61	0	383778816	54	4956
2026-01-27 22:55:37.97	50.53	27.88	-41.2	-44.2	14.1	7.00e-07	0	61	0	384827392	54	4951
2026-01-27 22:55:38.98	50.76	28.01	-41.1	-44.1	14.2	2.20e-06	0	61	0	386924544	54	4879
2026-01-27 22:55:39.99	50.99	28.14	-41.2	-44.2	14.1	7.00e-07	0	61	0	389021696	53	5263
2026-01-27 22:55:41.00	51.22	28.26	-41.2	-44.3	14.0	2.20e-06	0	61	0	391118848	53	5281
2026-01-27 22:55:42.01	51.46	28.39	-41.2	-44.3	14.0	2.20e-06	0	61	0	393216000	53	5292
2026-01-27 22:55:43.03	51.70	28.51	-41.3	-44.5	13.8	3.00e-06	0	61	0	395313152	53	5437
2026-01-27 22:55:44.04	51.94	28.64	-41.4	-44.6	13.7	9.90e-06	0	61	0	396361728	53	5478
2026-01-27 22:55:45.05	52.18	28.77	-41.4	-44.6	13.6	4.50e-06	0	61	0	398458880	53	5520
2026-01-27 22:55:46.06	52.42	28.89	-41.6	-44.9	13.4	7.60e-06	0	61	0	400556032	53	5720
2026-01-27 22:55:47.07	52.67	29.02	-41.6	-45.0	13.3	1.52e-05	0	61	0	402653184	53	5788
2026-01-27 22:55:48.08	52.92	29.15	-41.6	-45.0	13.3	1.44e-05	0	61	0	404750336	53	5757
2026-01-27 22:55:49.09	53.16	29.27	-41.8	-45.3	13.0	5.72e-05	0	61	0	405798912	54	5653
2026-01-27 22:55:50.10	53.42	29.40	-41.9	-45.5	12.8	8.54e-05	0	61	0	407896064	54	5754
2026-01-27 22:55:51.11	53.67	29.53	-41.9	-45.5	12.8	5.87e-05	0	61	0	409993216	54	5768
2026-01-27 22:55:52.12	53.92	29.65	-42.1	-45.8	12.5	8.85e-05	0	61	0	412090368	54	5961
2026-01-27 22:55:53.13	54.18	29.78	-42.0	-45.8	12.6	6.94e-05	0	61	0	414187520	54	5929
2026-01-27 22:55:54.14	54.44	29.90	-42.1	-45.9	12.4	9.99e-05	0	61	0	415236096	54	6029
2026-01-27 22:55:55.15	54.70	30.03	-42.1	-45.8	12.5	1.46e-04	0	61	0	417333248	54	5962
2026-01-27 22:55:56.16	54.96	30.16	-42.2	-46.0	12.3	1.79e-04	0	61	0	419430400	55	5783
2026-01-27 22:55:57.17	55.23	30.28	-42.4	-46.5	11.8	2.41e-04	0	61	0	421527552	55	6064
2026-01-27 22:55:58.18	55.49	30.41	-42.4	-46.4	11.9	3.02e-04	0	61	0	423624704	55	6060
2026-01-27 22:55:59.20	55.77	30.53	-42.2	-46.1	12.2	2.33e-04	0	61	0	424673280	55	5809
2026-01-27 22:56:00.21	56.04	30.66	-42.4	-46.6	11.7	3.33e-04	0	61	0	426770432	55	6151
2026-01-27 22:56:01.22	56.31	30.79	-42.5	-46.6	11.7	5.18e-04	0	61	0	428867584	55	6191
2026-01-27 22:56:02.23	56.58	30.91	-42.7	-47.1	11.3	1.11e-03	0	61	0	430964736	55	6517
2026-01-27 22:56:03.23	56.86	31.03	-43.2	-48.1	10.3	3.89e-03	0	61	0	433061888	56	6892
2026-01-27 22:56:04.24	57.14	31.16	-43.4	-48.7	9.7	5.61e-03	0	61	0	434110464	57	6989
2026-01-27 22:56:05.25	57.42	31.28	-43.4	-48.7	9.6	1.37e-02	0	61	0	436207616	57	7040
2026-01-27 22:56:06.26	57.70	31.41	-43.3	-48.6	9.9	1.61e-02	0	61	0	438304768	57	6890
2026-01-27 22:56:07.27	57.99	31.53	-43.4	-48.8	9.6	1.36e-02	0	61	0	440401920	57	7095
2026-01-27 22:56:08.28	58.28	31.66	-43.4	-48.9	9.5	1.32e-02	0	61	0	442499072	57	7125
2026-01-27 22:56:09.29	58.57	31.78	-43.2	-48.3	10.1	1.19e-02	0	61	0	443547648	57	6679
2026-01-27 22:56:10.30	58.86	31.90	-43.3	-48.4	10.0	6.52e-03	0	61	0	445644800	57	6773
2026-01-27 22:56:11.31	59.15	32.03	-43.3	-48.3	10.1	5.79e-03	0	61	0	447741952	57	6699
2026-01-27 22:56:12.32	59.45	32.15	-43.3	-48.3	10.1	9.14e-03	0	61	0	449839104	57	6700
2026-01-27 22:56:13.33	59.75	32.27	-43.4	-48.7	9.7	1.10e-02	0	61	0	451936256	57	7023
2026-01-27 22:56:14.34	60.05	32.39	-43.6	-49.4	8.9	1.38e-02	0	61	0	452984832	57	7601
2026-01-27 22:56:15.35	60.36	32.52	-43.7	-49.6	8.7	2.73e-02	0	61	0	455081984	57	7721
2026-01-27 22:56:16.36	60.66	32.64	-43.8	-50.0	8.3	4.21e-02	0	61	0	457179136	58	7692
2026-01-27 22:56:17.38	60.97	32.76	-43.7	-49.6	8.8	2.45e-02	0	61	0	459276288	58	7356
2026-01-27 22:56:18.39	61.28	32.88	-43.5	-48.9	9.6	1.74e-02	0	61	0	461373440	58	6745
2026-01-27 22:56:19.40	61.59	33.00	-43.3	-48.3	10.0	1.44e-02	0	61	0	463470592	58	6323
2026-01-27 22:56:20.41	61.91	33.12	-43.5	-48.8	9.6	1.04e-02	0	61	0	464519168	58	6651
2026-01-27 22:56:21.42	62.23	33.24	-43.6	-49.2	9.3	1.18e-02	0	61	0	466616320	58	6961
2026-01-27 22:56:22.43	62.55	33.36	-43.8	-49.7	8.5	4.08e-02	0	61	0	468713472	58	7431
2026-01-27 22:56:23.44	62.87	33.48	-43.9	-50.0	8.3	4.18e-02	0	61	0	470810624	58	7717
2026-01-27 22:56:24.45	63.19	33.59	-43.9	-50.3	8.0	6.55e-02	0	61	0	472907776	58	7952
2026-01-27 22:56:25.46	63.52	33.71	-44.0	-50.7	7.6	9.57e-02	0	61	0	473956352	58	8307
2026-01-27 22:56:26.47	63.85	33.83	-44.0	-50.7	7.7	9.90e-02	0	61	0	476053504	58	8295
2026-01-27 22:56:27.48	64.18	33.94	-43.8	-49.8	8.6	6.54e-02	0	61	0	478150656	58	7481
2026-01-27 22:56:28.49	64.51	34.06	-43.8	-49.8	8.5	3.91e-02	0	61	0	480247808	58	7511
2026-01-27 22:56:29.50	64.85	34.17	-43.8	-49.7	8.7	3.23e-02	0	61	0	482344960	58	7440
2026-01-27 22:56:30.51	65.18	34.29	-43.7	-49.3	8.9	2.82e-02	0	61	0	483393536	58	7108
2026-01-27 22:56:31.52	65.52	34.40	-43.5	-48.8	9.4	1.39e-02	0	61	0	485490688	58	6681
2026-01-27 22:56:32.53	65.87	34.51	-43.6	-49.0	9.4	1.73e-02	0	61	0	487587840	58	6852
2026-01-27 22:56:33.54	66.21	34.63	-43.8	-49.8	8.7	2.70e-02	0	61	0	489684992	58	7474
2026-01-27 22:56:34.55	66.56	34.74	-44.0	-50.3	8.1	5.89e-02	0	62	0	491782144	58	7947
2026-01-27 22:56:35.56	66.91	34.85	-44.0	-50.5	7.9	6.74e-02	0	61	0	492830720	58	8150
2026-01-27 22:56:36.58	67.27	34.96	-44.2	-51.5	7.0	1.14e-01	0	61	0	494927872	59	8611
2026-01-27 22:56:37.58	67.62	35.07	-44.0	-50.7	7.7	1.09e-01	0	61	0	497025024	59	7827
2026-01-27 22:56:38.59	67.97	35.18	-43.6	-49.1	9.2	3.12e-02	0	61	0	499122176	59	6570
2026-01-27 22:56:39.60	68.33	35.28	-43.1	-47.7	10.7	6.49e-03	0	61	0	501219328	58	5910
2026-01-27 22:56:40.61	68.69	35.39	-42.7	-46.8	11.8	1.16e-03	0	61	0	503316480	57	5623
2026-01-27 22:56:41.62	69.06	35.49	-42.6	-46.7	11.8	4.03e-04	0	61	0	504365056	57	5544
2026-01-27 22:56:42.63	69.42	35.60	-42.9	-47.4	11.2	8.33e-04	0	61	0	506462208	57	6015
2026-01-27 22:56:43.64	69.79	35.70	-43.2	-48.1	10.4	1.90e-03	0	62	0	508559360	57	6541
2026-01-27 22:56:44.65	70.16	35.80	-43.3	-48.2	10.2	5.27e-03	0	61	0	510656512	57	6614
2026-01-27 22:56:45.66	70.54	35.91	-43.0	-47.5	10.9	3.50e-03	0	61	0	512753664	57	6102
2026-01-27 22:56:46.67	70.91	36.01	-42.5	-46.5	12.1	8.12e-04	0	61	0	513802240	57	5411
2026-01-27 22:56:47.68	71.29	36.11	-42.2	-45.8	12.6	7.17e-05	0	61	0	515899392	56	5339
2026-01-27 22:56:48.69	71.67	36.21	-41.8	-45.2	13.2	7.17e-05	0	62	0	517996544	55	5230
2026-01-27 22:56:49.70	72.05	36.30	-41.9	-45.4	13.1	2.89e-05	0	61	0	520093696	55	5367
2026-01-27 22:56:50.71	72.43	36.40	-42.0	-45.6	12.9	3.05e-05	0	61	0	522190848	55	5476
2026-01-27 22:56:51.72	72.82	36.49	-42.0	-45.6	12.8	5.87e-05	0	62	0	523239424	55	5491
2026-01-27 22:56:52.73	73.21	36.59	-42.0	-45.5	12.8	6.10e-05	0	62	0	525336576	55	5464
2026-01-27 22:56:53.74	73.60	36.68	-42.1	-45.7	12.7	5.95e-05	0	61	0	527433728	55	5562
2026-01-27 22:56:54.75	73.99	36.77	-41.9	-45.5	13.0	6.10e-05	0	61	0	529530880	55	5409
2026-01-27 22:56:55.76	74.39	36.86	-41.8	-45.3	13.1	5.18e-05	0	62	0	531628032	55	5295
2026-01-27 22:56:56.77	74.79	36.95	-41.6	-44.9	13.6	3.12e-05	0	62	0	532676608	55	5071
2026-01-27 22:56:57.78	75.19	37.04	-41.5	-44.6	13.8	3.80e-06	0	61	0	534773760	54	5190
2026-01-27 22:56:58.79	75.59	37.13	-41.4	-44.5	14.0	2.20e-06	0	61	0	536870912	54	5108
2026-01-27 22:56:59.80	75.99	37.21	-41.4	-44.5	13.9	2.20e-06	0	61	0	538968064	54	5145
2026-01-27 22:57:00.81	76.40	37.29	-41.8	-45.2	13.3	1.60e-05	0	62	0	541065216	54	5550
2026-01-27 22:57:01.81	76.80	37.38	-42.0	-45.6	12.8	3.81e-05	0	61	0	542113792	54	5804
2026-01-27 22:57:02.82	77.21	37.46	-42.2	-46.0	12.4	1.14e-04	0	62	0	544210944	55	5752
2026-01-27 22:57:03.83	77.63	37.54	-42.2	-45.9	12.5	2.02e-04	0	62	0	546308096	55	5685
2026-01-27 22:57:04.84	78.04	37.62	-42.0	-45.5	12.9	1.19e-04	0	62	0	548405248	55	5437
2026-01-27 22:57:05.85	78.46	37.69	-42.2	-46.1	12.4	1.14e-04	0	61	0	550502400	55	5810
2026-01-27 22:57:06.86	78.87	37.77	-42.6	-46.8	11.6	6.78e-04	0	62	0	551550976	55	6321
2026-01-27 22:57:07.87	79.29	37.84	-42.8	-47.3	11.2	1.22e-03	0	62	0	553648128	56	6283
2026-01-27 22:57:08.89	79.72	37.91	-42.5	-46.6	12.0	7.57e-04	0	62	0	555745280	56	5821
2026-01-27 22:57:09.90	80.14	37.98	-42.0	-45.5	13.0	1.53e-04	0	62	0	557842432	56	5140
2026-01-27 22:57:10.91	80.57	38.05	-41.7	-45.1	13.4	1.67e-05	0	61	0	559939584	55	5167
2026-01-27 22:57:11.92	81.00	38.12	-41.5	-44.8	13.6	1.29e-05	0	62	0	560988160	55	4993
2026-01-27 22:57:12.93	81.43	38.19	-41.7	-45.1	13.3	1.44e-05	0	62	0	563085312	55	5180
2026-01-27 22:57:13.94	81.86	38.25	-42.0	-45.6	12.8	3.73e-05	0	62	0	565182464	55	5500
2026-01-27 22:57:14.95	82.29	38.31	-42.4	-46.4	11.9	1.65e-04	0	61	0	567279616	55	6039
2026-01-27 22:57:15.96	82.72	38.37	-42.4	-46.6	11.8	3.36e-04	0	61	0	569376768	55	6135
2026-01-27 22:57:16.97	83.16	38.43	-42.4	-46.5	11.9	4.39e-04	0	61	0	570425344	55	6088
2026-01-27 22:57:17.98	83.60	38.49	-42.5	-46.6	11.8	5.50e-04	0	62	0	572522496	55	6143
2026-01-27 22:57:18.99	84.04	38.54	-42.9	-47.5	11.1	1.07e-03	0	61	0	574619648	56	6442
2026-01-27 22:57:20.00	84.48	38.60	-42.9	-47.3	11.1	2.05e-03	0	62	0	576716800	56	6343
2026-01-27 22:57:21.01	84.92	38.65	-42.5	-46.5	12.0	6.26e-04	0	62	0	578813952	56	5762
2026-01-27 22:57:22.02	85.36	38.70	-42.1	-45.7	12.8	1.36e-04	0	62	0	580911104	56	5269
2026-01-27 22:57:23.03	85.80	38.75	-41.8	-45.2	13.2	3.73e-05	0	62	0	581959680	55	5265
2026-01-27 22:57:24.04	86.25	38.80	-41.8	-45.3	13.2	2.21e-05	0	62	0	584056832	55	5289
2026-01-27 22:57:25.05	86.70	38.84	-41.8	-45.2	13.3	2.59e-05	0	62	0	586153984	55	5245
2026-01-27 22:57:26.06	87.14	38.88	-41.9	-45.4	13.1	2.13e-05	0	61	0	588251136	55	5349
2026-01-27 22:57:27.07	87.59	38.92	-41.9	-45.4	13.0	4.57e-05	0	62	0	590348288	55	5394
2026-01-27 22:57:28.08	88.04	38.96	-42.2	-46.0	12.4	9.23e-05	0	62	0	591396864	55	5763
2026-01-27 22:57:29.09	88.50	39.00	-42.5	-46.7	11.7	1.92e-04	0	62	0	593494016	55	6235
2026-01-27 22:57:30.10	88.95	39.03	-43.1	-47.8	10.7	2.04e-03	0	62	0	595591168	56	6714
2026-01-27 22:57:31.11	89.40	39.07	-43.0	-47.4	11.0	1.63e-03	0	62	0	597688320	56	6414
2026-01-27 22:57:32.12	89.86	39.10	-42.8	-47.0	11.5	9.96e-04	0	62	0	599785472	56	6098
2026-01-27 22:57:33.13	90.31	39.13	-42.6	-46.6	11.9	4.03e-04	0	62	0	600834048	56	5849
2026-01-27 22:57:34.14	90.77	39.16	-42.5	-46.4	12.2	3.81e-04	0	62	0	602931200	56	5668
2026-01-27 22:57:35.15	91.22	39.18	-42.4	-46.3	12.3	2.58e-04	0	61	0	605028352	56	5604
2026-01-27 22:57:36.16	91.68	39.20	-42.2	-45.7	12.8	5.79e-05	0	62	0	607125504	56	5262
2026-01-27 22:57:37.17	92.14	39.23	-42.0	-45.5	12.9	4.42e-05	0	62	0	609222656	55	5437
2026-01-27 22:57:38.18	92.60	39.25	-42.6	-46.8	11.7	1.50e-04	0	62	0	610271232	55	6317
2026-01-27 22:57:39.19	93.06	39.26	-43.3	-48.3	10.0	1.72e-03	0	62	0	612368384	57	6716
2026-01-27 22:57:40.20	93.52	39.28	-43.7	-49.6	8.9	2.00e-02	0	62	0	614465536	58	7323
2026-01-27 22:57:41.21	93.97	39.29	-43.5	-48.7	9.7	2.35e-02	0	62	0	616562688	58	6646
2026-01-27 22:57:42.22	94.44	39.30	-42.9	-47.3	11.1	4.82e-03	0	62	0	618659840	57	5967
2026-01-27 22:57:43.23	94.90	39.31	-42.4	-46.3	12.2	2.63e-04	0	62	0	619708416	56	5623
2026-01-27 22:57:44.24	95.36	39.32	-42.3	-45.9	12.7	1.01e-04	0	61	0	621805568	56	5395
2026-01-27 22:57:45.25	95.82	39.32	-41.8	-45.2	13.3	3.66e-05	0	61	0	623902720	55	5255
2026-01-27 22:57:46.26	96.28	39.33	-41.4	-44.5	13.9	7.60e-06	0	62	0	625999872	54	5140
2026-01-27 22:57:47.27	96.74	39.33	-41.0	-43.9	14.5	7.00e-07	0	62	0	628097024	54	4762
2026-01-27 22:57:48.28	97.20	39.33	-41.0	-43.8	14.7	0.00e+00	0	62	0	629145600	53	5003
2026-01-27 22:57:49.29	97.66	39.32	-41.3	-44.3	14.1	0.00e+00	0	62	0	631242752	53	5316
2026-01-27 22:57:50.30	98.12	39.32	-41.6	-44.8	13.6	8.30e-06	0	62	0	633339904	53	5648
2026-01-27 22:57:51.31	98.58	39.31	-41.5	-44.7	13.7	7.60e-06	0	62	0	635437056	53	5578
2026-01-27 22:57:52.32	99.04	39.30	-41.2	-44.2	14.2	2.20e-06	0	62	0	637534208	53	5253
2026-01-27 22:57:53.33	99.51	39.29	-41.2	-44.2	14.2	0.00e+00	0	62	0	638582784	53	5262
2026-01-27 22:57:54.34	99.97	39.28	-41.8	-45.3	13.2	5.30e-06	0	62	0	640679936	54	5595
2026-01-27 22:57:55.35	100.43	39.26	-42.1	-45.7	12.7	1.36e-04	0	61	0	642777088	55	5577
2026-01-27 22:57:56.36	100.88	39.25	-42.2	-46.1	12.4	2.29e-04	0	61	0	644874240	55	5801
2026-01-27 22:57:57.37	101.34	39.23	-41.9	-45.4	13.0	9.46e-05	0	62	0	646971392	55	5373
2026-01-27 22:57:58.38	101.80	39.20	-41.7	-45.1	13.3	2.97e-05	0	62	0	649068544	55	5172
2026-01-27 22:57:59.39	102.26	39.18	-41.6	-44.8	13.6	5.30e-06	0	62	0	650117120	54	5340
2026-01-27 22:58:00.40	102.72	39.16	-41.7	-45.1	13.3	1.22e-05	0	62	0	652214272	54	5515
2026-01-27 22:58:01.41	103.17	39.13	-41.9	-45.4	13.0	1.06e-05	0	62	0	654311424	54	5709
2026-01-27 22:58:02.42	103.63	39.10	-42.0	-45.6	12.8	8.39e-05	0	62	0	656408576	54	5814
2026-01-27 22:58:03.43	104.08	39.07	-42.3	-46.1	12.3	1.31e-04	0	62	0	658505728	55	5827
2026-01-27 22:58:04.44	104.54	39.03	-42.3	-46.1	12.1	3.23e-04	0	62	0	659554304	55	5835
2026-01-27 22:58:05.45	104.99	39.00	-42.1	-45.8	12.6	1.22e-04	0	62	0	661651456	55	5651
2026-01-27 22:58:06.46	105.44	38.96	-41.8	-45.3	13.1	6.40e-05	0	62	0	663748608	55	5311
2026-01-27 22:58:07.47	105.89	38.92	-41.7	-45.0	13.4	2.74e-05	0	62	0	665845760	55	5104
2026-01-27 22:58:08.48	106.34	38.88	-41.5	-44.7	13.7	2.20e-06	0	62	0	667942912	54	5242
2026-01-27 22:58:09.49	106.79	38.84	-41.3	-44.3	14.2	1.50e-06	0	62	0	668991488	54	5010
2026-01-27 22:58:10.50	107.24	38.79	-41.4	-44.6	13.9	3.80e-06	0	62	0	671088640	54	5185
2026-01-27 22:58:11.51	107.68	38.75	-41.4	-44.6	13.9	2.20e-06	0	62	0	673185792	54	5186
2026-01-27 22:58:12.52	108.13	38.70	-41.7	-45.1	13.3	9.90e-06	0	62	0	675282944	54	5476
2026-01-27 22:58:13.53	108.57	38.65	-41.9	-45.5	13.0	2.05e-05	0	62	0	677380096	54	5732
2026-01-27 22:58:14.54	109.01	38.60	-42.0	-45.6	12.8	1.83e-05	0	62	0	678428672	54	5818
2026-01-27 22:58:15.55	109.45	38.54	-41.6	-44.9	13.5	2.44e-05	0	62	0	680525824	54	5385
2026-01-27 22:58:16.56	109.89	38.49	-41.1	-44.1	14.3	2.20e-06	0	62	0	682622976	54	4885
2026-01-27 22:58:17.57	110.33	38.43	-41.1	-44.0	14.4	7.00e-07	0	62	0	684720128	53	5118
2026-01-27 22:58:18.58	110.77	38.37	-41.1	-44.1	14.3	7.00e-07	0	62	0	686817280	53	5192
2026-01-27 22:58:19.59	111.20	38.31	-41.2	-44.2	14.2	7.00e-07	0	62	0	687865856	53	5265
2026-01-27 22:58:20.61	111.64	38.25	-41.2	-44.1	14.3	7.00e-07	0	62	0	689963008	53	5205
2026-01-27 22:58:21.61	112.07	38.18	-40.7	-43.4	15.0	0.00e+00	0	62	0	692060160	53	4769
2026-01-27 22:58:22.63	112.50	38.12	-40.7	-43.4	15.1	0.00e+00	0	62	0	694157312	53	4772
2026-01-27 22:58:23.64	112.93	38.05	-41.2	-44.1	14.3	0.00e+00	0	62	0	696254464	53	5201
2026-01-27 22:58:24.65	113.36	37.98	-41.5	-44.7	13.7	6.10e-06	0	62	0	698351616	53	5565
2026-01-27 22:58:25.66	113.78	37.91	-41.9	-45.3	13.0	3.28e-05	0	62	0	699400192	54	5655
2026-01-27 22:58:26.67	114.20	37.84	-42.0	-45.6	12.8	4.88e-05	0	62	0	701497344	54	5851
2026-01-27 22:58:27.68	114.62	37.76	-41.5	-44.8	13.7	2.21e-05	0	62	0	703594496	54	5304
2026-01-27 22:58:28.69	115.04	37.69	-41.5	-44.7	13.7	7.60e-06	0	62	0	705691648	54	5266
2026-01-27 22:58:29.70	115.46	37.61	-41.5	-44.7	13.7	4.50e-06	0	62	0	707788800	54	5259
2026-01-27 22:58:30.71	115.87	37.53	-41.2	-44.2	14.2	4.50e-06	0	62	0	708837376	54	4969
2026-01-27 22:58:31.72	116.29	37.45	-40.6	-43.3	15.1	0.00e+00	0	62	0	710934528	53	4743
2026-01-27 22:58:32.73	116.70	37.37	-40.3	-42.8	15.6	0.00e+00	0	62	0	713031680	52	4721
2026-01-27 22:58:33.74	117.11	37.29	-40.0	-42.4	16.0	0.00e+00	0	62	0	715128832	52	4516
2026-01-27 22:58:34.75	117.51	37.21	-40.6	-43.3	15.1	0.00e+00	0	62	0	717225984	52	5007
2026-01-27 22:58:35.76	117.92	37.12	-41.5	-44.8	13.7	0.00e+00	0	62	0	718274560	53	5594
2026-01-27 22:58:36.77	118.32	37.03	-41.9	-45.5	13.0	1.67e-05	0	62	0	720371712	54	5740
2026-01-27 22:58:37.78	118.72	36.95	-41.6	-44.9	13.5	1.44e-05	0	62	0	722468864	54	5355
2026-01-27 22:58:38.79	119.12	36.86	-41.1	-44.0	14.4	1.50e-06	0	62	0	724566016	54	4835
2026-01-27 22:58:39.80	119.52	36.76	-40.8	-43.6	14.8	7.00e-07	0	62	0	726663168	53	4872
2026-01-27 22:58:40.81	119.91	36.67	-40.5	-43.1	15.3	0.00e+00	0	62	0	727711744	53	4622
2026-01-27 22:58:41.81	120.30	36.58	-40.0	-42.2	16.2	0.00e+00	0	62	0	729808896	51	4703
2026-01-27 22:58:42.83	120.69	36.49	-39.3	-41.4	17.0	0.00e+00	0	62	0	731906048	50	4513
2026-01-27 22:58:43.84	121.08	36.39	-39.0	-40.9	17.5	0.00e+00	0	62	0	734003200	49	4513
2026-01-27 22:58:44.85	121.47	36.29	-39.0	-40.9	17.5	0.00e+00	0	62	0	736100352	49	4539
2026-01-27 22:58:45.86	121.85	36.20	-39.6	-41.7	16.7	0.00e+00	0	62	0	737148928	49	4982
2026-01-27 22:58:46.87	122.23	36.10	-40.4	-42.8	15.7	0.00e+00	0	62	0	739246080	51	5035
2026-01-27 22:58:47.88	122.61	36.00	-40.7	-43.4	15.2	0.00e+00	0	62	0	741343232	51	5348
2026-01-27 22:58:48.89	122.99	35.90	-40.6	-43.3	15.2	0.00e+00	0	62	0	743440384	52	5009
2026-01-27 22:58:49.90	123.36	35.79	-40.5	-43.1	15.3	0.00e+00	0	62	0	745537536	52	4916
2026-01-27 22:58:50.91	123.73	35.69	-40.9	-43.6	14.8	0.00e+00	0	62	0	746586112	52	5214
2026-01-27 22:58:51.92	124.10	35.59	-41.4	-44.5	13.9	2.20e-06	0	62	0	748683264	53	5457
2026-01-27 22:58:52.92	124.46	35.48	-42.0	-45.5	12.8	9.90e-06	0	62	0	750780416	54	5753
2026-01-27 22:58:53.93	124.83	35.38	-41.8	-45.1	13.2	5.26e-05	0	62	0	752877568	54	5525
2026-01-27 22:58:54.94	125.19	35.27	-41.0	-43.9	14.5	3.00e-06	0	62	0	754974720	54	4766
2026-01-27 22:58:55.96	125.55	35.16	-40.6	-43.1	15.3	7.00e-07	0	62	0	757071872	53	4648
2026-01-27 22:58:56.96	125.91	35.05	-40.7	-43.4	15.1	0.00e+00	0	62	0	758120448	53	4777
2026-01-27 22:58:57.97	126.26	34.94	-41.6	-44.9	13.6	2.20e-06	0	62	0	760217600	53	5663
2026-01-27 22:58:58.98	126.62	34.83	-42.4	-46.5	11.9	1.40e-04	0	62	0	762314752	55	6066
2026-01-27 22:58:59.99	126.97	34.72	-42.5	-46.6	11.8	3.07e-04	0	62	0	764411904	55	6133
2026-01-27 22:59:01.00	127.32	34.61	-42.1	-45.8	12.6	1.83e-04	0	62	0	766509056	55	5603
2026-01-27 22:59:02.01	127.66	34.50	-42.1	-45.8	12.6	9.99e-05	0	62	0	767557632	55	5611
2026-01-27 22:59:03.02	128.01	34.38	-42.9	-47.3	11.3	3.17e-04	0	62	0	769654784	56	6346
2026-01-27 22:59:04.03	128.35	34.27	-43.4	-48.6	9.9	4.85e-03	0	62	0	771751936	57	6888
2026-01-27 22:59:05.04	128.69	34.16	-43.7	-49.5	8.9	1.95e-02	0	62	0	773849088	58	7242
2026-01-27 22:59:06.04	129.02	34.04	-43.6	-49.2	9.3	2.56e-02	0	62	0	774897664	58	6970
2026-01-27 22:59:07.05	129.35	33.93	-43.0	-47.4	11.0	4.75e-03	0	62	0	776994816	58	5709
2026-01-27 22:59:08.06	129.69	33.81	-42.5	-46.4	12.1	1.16e-03	0	62	0	779091968	57	5351
2026-01-27 22:59:09.07	130.02	33.69	-42.5	-46.4	12.2	2.34e-04	0	62	0	781189120	56	5690
2026-01-27 22:59:10.08	130.34	33.57	-42.8	-47.1	11.5	4.49e-04	0	62	0	783286272	56	6154
2026-01-27 22:59:11.09	130.67	33.46	-43.0	-47.5	11.1	1.25e-03	0	62	0	785383424	56	6468
2026-01-27 22:59:12.10	130.99	33.34	-43.5	-48.9	9.6	6.40e-03	0	62	0	786432000	57	7145
2026-01-27 22:59:13.11	131.31	33.22	-43.4	-48.7	9.8	1.68e-02	0	62	0	788529152	57	6966
2026-01-27 22:59:14.12	131.63	33.10	-42.9	-47.4	11.0	3.71e-03	0	62	0	790626304	57	6004
2026-01-27 22:59:15.13	131.94	32.98	-43.2	-48.1	10.4	3.24e-03	0	62	0	792723456	57	6510
2026-01-27 22:59:16.14	132.26	32.86	-43.9	-50.1	8.4	1.28e-02	0	62	0	794820608	58	7773
2026-01-27 22:59:17.15	132.57	32.73	-44.5	-52.8	6.0	2.82e-01	0	62	0	795869184	59	10028
2026-01-27 22:59:18.16	132.88	32.61	-44.4	-52.4	6.2	4.43e-01	0	62	0	797966336	59	9528
2026-01-27 22:59:19.17	133.18	32.49	-44.1	-51.0	7.4	2.34e-01	0	62	0	800063488	59	8132
2026-01-27 22:59:20.18	133.49	32.37	-43.2	-48.0	10.2	1.34e-02	0	62	0	802160640	58	6107
2026-01-27 22:59:21.19	133.79	32.25	-42.7	-46.9	11.6	1.69e-03	0	62	0	804257792	57	5708
2026-01-27 22:59:22.20	134.09	32.12	-42.9	-47.3	11.3	1.12e-03	0	62	0	805306368	57	5946
2026-01-27 22:59:23.21	134.39	32.00	-43.4	-48.5	9.9	7.42e-03	0	62	0	807403520	57	6823
2026-01-27 22:59:24.22	134.68	31.87	-43.8	-49.6	8.8	3.56e-02	0	62	0	809500672	58	7363
2026-01-27 22:59:25.23	134.98	31.75	-43.8	-49.6	8.8	4.09e-02	0	62	0	811597824	58	7346
2026-01-27 22:59:26.24	135.27	31.63	-43.4	-48.4	10.0	2.09e-02	0	62	0	813694976	58	6403
2026-01-27 22:59:27.25	135.56	31.50	-42.7	-46.9	11.6	1.30e-03	0	62	0	814743552	57	5684
2026-01-27 22:59:28.26	135.84	31.38	-42.8	-47.2	11.3	8.09e-04	0	62	0	816840704	57	5861
2026-01-27 22:59:29.27	136.13	31.25	-43.2	-48.1	10.4	2.55e-03	0	62	0	818937856	57	6512
2026-01-27 22:59:30.27	136.41	31.13	-43.6	-49.1	9.3	1.17e-02	0	62	0	821035008	57	7291
2026-01-27 22:59:31.28	136.69	31.00	-44.0	-50.4	8.0	5.13e-02	0	62	0	823132160	58	8033
2026-01-27 22:59:32.29	136.96	30.88	-43.7	-49.5	8.9	5.49e-02	0	62	0	824180736	58	7275
2026-01-27 22:59:33.31	137.24	30.75	-42.8	-47.3	11.1	3.68e-03	0	62	0	826277888	57	5936
2026-01-27 22:59:34.32	137.52	30.62	-41.5	-44.7	13.7	9.99e-05	0	62	0	828375040	55	4933
2026-01-27 22:59:35.33	137.79	30.50	-40.9	-43.7	14.7	0.00e+00	0	62	0	830472192	53	4945
2026-01-27 22:59:36.34	138.06	30.37	-41.1	-44.0	14.4	0.00e+00	0	62	0	832569344	53	5108
2026-01-27 22:59:37.35	138.33	30.24	-42.0	-45.6	12.8	1.29e-05	0	62	0	834666496	54	5803
2026-01-27 22:59:38.36	138.59	30.12	-43.0	-47.6	10.9	4.60e-04	0	62	0	835715072	56	6556
2026-01-27 22:59:39.37	138.86	29.99	-43.3	-48.3	10.1	5.88e-03	0	62	0	837812224	57	6704
2026-01-27 22:59:40.38	139.12	29.86	-43.0	-47.6	10.9	2.92e-03	0	62	0	839909376	57	6177
2026-01-27 22:59:41.39	139.38	29.73	-42.5	-46.5	12.0	6.33e-04	0	62	0	842006528	56	5744
2026-01-27 22:59:42.40	139.63	29.61	-41.7	-45.0	13.4	1.67e-05	0	62	0	844103680	55	5135
2026-01-27 22:59:43.41	139.89	29.48	-41.8	-45.3	13.2	2.13e-05	0	62	0	845152256	55	5314
2026-01-27 22:59:44.42	140.14	29.35	-42.1	-45.9	12.5	4.88e-05	0	62	0	847249408	55	5688
2026-01-27 22:59:45.43	140.39	29.23	-42.5	-46.7	11.7	2.23e-04	0	62	0	849346560	55	6208
2026-01-27 22:59:46.44	140.64	29.10	-42.6	-47.0	11.3	1.09e-03	0	62	0	851443712	55	6447
2026-01-27 22:59:47.45	140.89	28.97	-42.1	-45.9	12.4	6.54e-04	0	62	0	853540864	55	5671
2026-01-27 22:59:48.46	141.14	28.85	-41.5	-44.8	13.5	5.64e-05	0	62	0	854589440	54	5325
2026-01-27 22:59:49.47	141.38	28.72	-40.9	-43.7	14.5	3.00e-06	0	62	0	856686592	53	4981
2026-01-27 22:59:50.48	141.62	28.59	-40.5	-43.1	15.2	0.00e+00	0	62	0	858783744	53	4630
2026-01-27 22:59:51.49	141.86	28.46	-40.3	-42.9	15.5	0.00e+00	0	62	0	860880896	52	4765
2026-01-27 22:59:52.50	142.10	28.34	-40.8	-43.5	14.9	0.00e+00	0	62	0	862978048	52	5124
2026-01-27 22:59:53.51	142.34	28.21	-41.7	-44.7	14.1	7.00e-07	0	62	0	864026624	53	5532
2026-01-27 22:59:54.52	142.57	28.08	-41.7	-45.1	13.2	9.90e-06	0	62	0	866123776	53	5852
2026-01-27 22:59:55.53	142.81	27.96	-42.1	-45.8	12.5	5.64e-05	0	62	0	868220928	54	5976
2026-01-27 22:59:56.54	143.04	27.83	-41.8	-45.3	13.0	5.49e-05	0	62	0	870318080	54	5627
2026-01-27 22:59:57.55	143.27	27.70	-41.0	-44.0	14.4	4.50e-06	0	62	0	872415232	54	4818
2026-01-27 22:59:58.56	143.49	27.58	-40.4	-42.9	15.4	1.50e-06	0	62	0	873463808	52	4806
2026-01-27 22:59:59.57	143.72	27.45	-40.0	-42.3	16.0	0.00e+00	0	62	0	875560960	51	4746
2026-01-27 23:00:00.58	143.94	27.32	-39.9	-42.2	16.3	0.00e+00	0	62	0	877658112	51	4665
2026-01-27 23:00:01.59	144.17	27.20	-40.3	-42.8	15.6	0.00e+00	0	62	0	879755264	51	5013
2026-01-27 23:00:02.60	144.39	27.07	-40.7	-43.4	14.9	0.00e+00	0	62	0	881852416	52	5089
2026-01-27 23:00:03.61	144.60	26.95	-41.1	-44.2	14.2	2.20e-06	0	62	0	882900992	52	5561
2026-01-27 23:00:04.62	144.82	26.82	-41.3	-44.6	13.8	3.80e-06	0	62	0	884998144	53	5475
2026-01-27 23:00:05.63	145.04	26.70	-41.0	-43.9	14.4	1.50e-06	0	62	0	887095296	53	5084
2026-01-27 23:00:06.64	145.25	26.57	-40.5	-43.2	15.1	0.00e+00	0	62	0	889192448	53	4662
2026-01-27 23:00:07.65	145.46	26.44	-40.2	-42.7	15.7	0.00e+00	0	62	0	891289600	52	4670
2026-01-27 23:00:08.66	145.67	26.32	-40.0	-42.4	16.0	0.00e+00	0	62	0	893386752	51	4768
2026-01-27 23:00:09.67	145.88	26.19	-40.1	-42.4	15.9	0.00e+00	0	62	0	894435328	51	4808
2026-01-27 23:00:10.68	146.09	26.07	-40.3	-42.8	15.6	0.00e+00	0	62	0	896532480	51	5002
2026-01-27 23:00:11.69	146.30	25.95	-40.7	-43.4	15.0	0.00e+00	0	62	0	898629632	51	5349
2026-01-27 23:00:12.70	146.50	25.82	-40.9	-43.9	14.5	0.00e+00	0	62	0	900726784	52	5351
2026-01-27 23:00:13.71	146.70	25.70	-41.2	-44.3	14.0	0.00e+00	0	62	0	902823936	52	5628
2026-01-27 23:00:14.72	146.90	25.57	-40.9	-43.8	14.4	3.00e-06	0	62	0	903872512	53	5038
2026-01-27 23:00:15.72	147.10	25.45	-40.7	-43.5	14.9	2.20e-06	0	62	0	905969664	53	4819
2026-01-27 23:00:16.73	147.30	25.33	-40.1	-42.6	15.7	0.00e+00	0	62	0	908066816	52	4633
2026-01-27 23:00:17.74	147.50	25.20	-39.8	-42.2	16.2	0.00e+00	0	62	0	910163968	51	4653
2026-01-27 23:00:18.75	147.69	25.08	-39.7	-41.9	16.4	0.00e+00	0	62	0	912261120	51	4541
2026-01-27 23:00:19.76	147.88	24.96	-39.6	-41.9	16.5	0.00e+00	0	62	0	913309696	51	4500
2026-01-27 23:00:20.77	148.08	24.84	-39.9	-42.2	16.2	0.00e+00	0	62	0	915406848	51	4671
2026-01-27 23:00:21.78	148.27	24.71	-40.1	-42.5	15.9	0.00e+00	0	62	0	917504000	51	4832
2026-01-27 23:00:22.79	148.46	24.59	-40.0	-42.4	16.0	0.00e+00	0	62	0	919601152	51	4788
2026-01-27 23:00:23.80	148.64	24.47	-40.2	-42.6	15.8	0.00e+00	0	62	0	921698304	51	4897
2026-01-27 23:00:24.81	148.83	24.35	-40.3	-42.8	15.6	0.00e+00	0	62	0	922746880	51	5006
2026-01-27 23:00:25.82	149.02	24.23	-40.2	-42.7	15.6	0.00e+00	0	62	0	924844032	51	4971
2026-01-27 23:00:26.83	149.20	24.11	-40.1	-42.6	15.8	0.00e+00	0	62	0	926941184	51	4877
2026-01-27 23:00:27.84	149.38	23.98	-40.1	-42.6	15.8	0.00e+00	0	62	0	929038336	51	4896
2026-01-27 23:00:28.85	149.56	23.86	-40.3	-42.8	15.6	0.00e+00	0	62	0	931135488	51	5023
2026-01-27 23:00:29.86	149.74	23.74	-40.5	-43.1	15.3	0.00e+00	0	62	0	932184064	51	5179
2026-01-27 23:00:30.87	149.92	23.62	-40.6	-43.3	15.0	7.00e-07	0	62	0	934281216	51	5309
2026-01-27 23:00:31.88	150.10	23.50	-40.6	-43.4	14.9	0.00e+00	0	62	0	936378368	52	5058
2026-01-27 23:00:32.89	150.27	23.39	-40.6	-43.4	14.9	0.00e+00	0	62	0	938475520	52	5046
2026-01-27 23:00:33.90	150.45	23.27	-40.6	-43.4	14.9	0.00e+00	0	62	0	940572672	52	5065
2026-01-27 23:00:34.91	150.62	23.15	-40.7	-43.5	14.8	0.00e+00	0	62	0	941621248	52	5110
2026-01-27 23:00:35.92	150.79	23.03	-40.7	-43.5	14.8	0.00e+00	0	62	0	943718400	52	5133
2026-01-27 23:00:36.93	150.96	22.91	-40.6	-43.3	14.9	7.00e-07	0	62	0	945815552	52	5041
2026-01-27 23:00:37.94	151.13	22.79	-40.5	-43.2	15.1	0.00e+00	0	62	0	947912704	52	4927
2026-01-27 23:00:38.95	151.30	22.67	-40.6	-43.3	15.0	0.00e+00	0	62	0	950009856	52	5021
2026-01-27 23:00:39.96	151.47	22.56	-40.5	-43.3	15.0	7.00e-07	0	62	0	951058432	52	4984
2026-01-27 23:00:40.97	151.63	22.44	-40.6	-43.4	14.8	0.00e+00	0	62	0	953155584	52	5074
2026-01-27 23:00:41.98	151.80	22.32	-40.6	-43.3	14.9	0.00e+00	0	62	0	955252736	52	5032
2026-01-27 23:00:42.99	151.96	22.21	-40.5	-43.2	15.0	0.00e+00	0	62	0	957349888	52	4954
2026-01-27 23:00:44.00	152.12	22.09	-40.6	-43.4	14.9	0.00e+00	0	62	0	959447040	52	5045
2026-01-27 23:00:45.01	152.28	21.97	-40.7	-43.4	14.7	1.50e-06	0	62	0	961544192	52	5100
2026-01-27 23:00:46.02	152.44	21.86	-40.4	-43.1	15.2	0.00e+00	0	62	0	962592768	52	4883
2026-01-27 23:00:47.03	152.60	21.74	-40.7	-43.4	14.8	7.00e-07	0	62	0	964689920	52	5100
2026-01-27 23:00:48.04	152.76	21.63	-40.6	-43.4	14.8	0.00e+00	0	62	0	966787072	52	5071
2026-01-27 23:00:49.05	152.91	21.51	-40.8	-43.6	14.6	1.50e-06	0	62	0	968884224	52	5203
2026-01-27 23:00:50.06	153.07	21.40	-41.1	-44.1	14.1	7.00e-07	0	62	0	970981376	52	5513
2026-01-27 23:00:51.07	153.22	21.29	-41.1	-44.2	14.0	1.50e-06	0	62	0	972029952	52	5534
2026-01-27 23:00:52.08	153.38	21.17	-41.4	-44.7	13.5	7.60e-06	0	62	0	974127104	53	5589
2026-01-27 23:00:53.09	153.53	21.06	-41.6	-45.1	13.0	1.90e-05	0	62	0	976224256	53	5839
2026-01-27 23:00:54.10	153.68	20.95	-41.5	-44.9	13.2	2.05e-05	0	62	0	978321408	53	5701
2026-01-27 23:00:55.11	153.83	20.83	-41.8	-45.4	12.8	3.66e-05	0	62	0	980418560	54	5714
2026-01-27 23:00:56.12	153.98	20.72	-41.5	-44.9	13.2	3.89e-05	0	62	0	981467136	54	5401
2026-01-27 23:00:57.13	154.12	20.61	-41.6	-45.1	13.1	3.05e-05	0	62	0	983564288	54	5497
2026-01-27 23:00:58.14	154.27	20.50	-41.6	-45.1	13.0	4.57e-05	0	62	0	985661440	54	5494
2026-01-27 23:00:59.15	154.41	20.38	-41.4	-44.6	13.5	4.04e-05	0	62	0	987758592	54	5209
2026-01-27 23:01:00.16	154.56	20.27	-41.5	-44.9	13.2	1.83e-05	0	62	0	989855744	54	5384
2026-01-27 23:01:01.17	154.70	20.16	-41.6	-45.1	13.1	2.89e-05	0	62	0	990904320	54	5470
2026-01-27 23:01:02.19	154.85	20.05	-41.5	-44.8	13.3	1.90e-05	0	62	0	993001472	54	5322
2026-01-27 23:01:03.19	154.99	19.94	-41.6	-45.1	13.1	2.05e-05	0	62	0	995098624	54	5515
2026-01-27 23:01:04.20	155.13	19.83	-41.6	-45.0	13.1	3.96e-05	0	62	0	997195776	54	5457
2026-01-27 23:01:05.21	155.27	19.72	-41.8	-45.4	12.8	3.89e-05	0	62	0	999292928	54	5700
2026-01-27 23:01:06.22	155.40	19.61	-41.7	-45.3	12.8	7.70e-05	0	62	0	1000341504	54	5601
2026-01-27 23:01:07.23	155.54	19.50	-41.5	-45.0	13.1	3.96e-05	0	62	0	1002438656	54	5422
2026-01-27 23:01:08.25	155.68	19.39	-41.7	-45.4	12.7	6.48e-05	0	62	0	1004535808	54	5664
2026-01-27 23:01:09.26	155.82	19.29	-41.6	-45.0	13.1	4.04e-05	0	62	0	1006632960	54	5463
2026-01-27 23:01:10.27	155.95	19.18	-41.5	-44.9	13.2	2.13e-05	0	62	0	1008730112	54	5381
2026-01-27 23:01:11.28	156.08	19.07	-41.2	-44.5	13.6	1.29e-05	0	62	0	1009778688	54	5120
2026-01-27 23:01:12.29	156.22	18.96	-41.1	-44.3	13.8	8.30e-06	0	62	0	1011875840	54	5011
2026-01-27 23:01:13.29	156.35	18.86	-41.1	-44.2	13.9	6.10e-06	0	62	0	1013972992	54	4960
2026-01-27 23:01:14.31	156.48	18.75	-41.1	-44.2	13.9	2.20e-06	0	62	0	1016070144	54	4965
2026-01-27 23:01:15.31	156.61	18.64	-40.9	-44.0	14.1	2.20e-06	0	62	0	1018167296	53	5121
2026-01-27 23:01:16.32	156.74	18.54	-41.1	-44.3	13.8	4.50e-06	0	62	0	1019215872	53	5297
2026-01-27 23:01:17.33	156.87	18.43	-41.2	-44.5	13.6	8.30e-06	0	62	0	1021313024	53	5408
2026-01-27 23:01:18.34	156.99	18.33	-41.2	-44.4	13.6	3.00e-06	0	62	0	1023410176	53	5368
2026-01-27 23:01:19.36	157.12	18.22	-41.3	-44.6	13.5	9.10e-06	0	62	0	1025507328	53	5470
2026-01-27 23:01:20.37	157.25	18.11	-41.3	-44.6	13.5	1.60e-05	0	62	0	1027604480	53	5468
2026-01-27 23:01:21.38	157.37	18.01	-41.5	-45.0	13.0	2.97e-05	0	62	0	1029701632	53	5758
2026-01-27 23:01:22.39	157.50	17.91	-41.7	-45.5	12.5	6.71e-05	0	62	0	1030750208	54	5746
2026-01-27 23:01:23.40	157.62	17.80	-41.7	-45.3	12.7	7.01e-05	0	62	0	1032847360	54	5648
2026-01-27 23:01:24.41	157.74	17.70	-41.5	-45.1	12.9	5.34e-05	0	62	0	1034944512	54	5508
2026-01-27 23:01:25.41	157.86	17.60	-41.4	-44.9	13.1	3.50e-05	0	62	0	1037041664	54	5364
2026-01-27 23:01:26.42	157.98	17.49	-41.3	-44.7	13.3	1.90e-05	0	62	0	1039138816	54	5272
2026-01-27 23:01:27.43	158.11	17.39	-41.2	-44.5	13.5	1.22e-05	0	62	0	1040187392	54	5131
2026-01-27 23:01:28.44	158.22	17.29	-41.0	-44.2	13.9	5.30e-06	0	62	0	1042284544	54	4945
2026-01-27 23:01:29.45	158.34	17.19	-40.9	-44.0	14.0	3.00e-06	0	62	0	1044381696	53	5130
2026-01-27 23:01:30.46	158.46	17.08	-41.0	-44.1	13.8	2.20e-06	0	62	0	1046478848	53	5218
2026-01-27 23:01:31.47	158.58	16.98	-41.0	-44.2	13.8	3.00e-06	0	62	0	1048576000	53	5242
2026-01-27 23:01:32.48	158.69	16.88	-40.9	-43.9	14.0	3.80e-06	0	62	0	1049624576	53	5090
2026-01-27 23:01:33.49	158.81	16.78	-41.0	-44.1	13.8	7.60e-06	0	62	0	1051721728	53	5214
2026-01-27 23:01:34.50	158.92	16.68	-41.1	-44.3	13.7	4.50e-06	0	62	0	1053818880	53	5309
2026-01-27 23:01:35.51	159.04	16.58	-41.2	-44.6	13.4	9.90e-06	0	62	0	1055916032	53	5498
2026-01-27 23:01:36.52	159.15	16.48	-41.4	-44.8	13.1	3.05e-05	0	62	0	1058013184	53	5651
2026-01-27 23:01:37.53	159.26	16.38	-41.5	-45.1	12.8	3.12e-05	0	62	0	1059061760	53	5849
2026-01-27 23:01:38.54	159.38	16.28	-41.8	-45.7	12.2	9.23e-05	0	62	0	1061158912	54	5910
2026-01-27 23:01:39.55	159.49	16.18	-41.8	-45.8	12.2	2.23e-04	0	62	0	1063256064	54	5932
2026-01-27 23:01:40.56	159.60	16.08	-41.9	-46.0	11.9	2.84e-04	0	62	0	1065353216	54	6072
2026-01-27 23:01:41.57	159.71	15.98	-42.0	-46.0	11.9	5.16e-04	0	62	0	1067450368	54	6088
2026-01-27 23:01:42.58	159.82	15.89	-42.0	-46.0	11.9	4.46e-04	0	62	0	1068498944	54	6110
2026-01-27 23:01:43.59	159.93	15.79	-41.9	-45.9	12.0	2.66e-04	0	62	0	1070596096	54	6022
2026-01-27 23:01:44.60	160.03	15.69	-41.9	-45.8	12.0	3.78e-04	0	62	0	1072693248	54	5992
2026-01-27 23:01:45.61	160.14	15.59	-41.9	-45.9	12.0	3.28e-04	0	62	0	1074790400	54	6020
2026-01-27 23:01:46.62	160.25	15.50	-41.9	-46.0	11.8	3.05e-04	0	62	0	1076887552	54	6100
2026-01-27 23:01:47.63	160.35	15.40	-41.8	-45.8	12.1	2.53e-04	0	62	0	1077936128	54	5938
2026-01-27 23:01:48.64	160.46	15.30	-41.9	-45.8	12.0	3.17e-04	0	62	0	1080033280	54	5992
2026-01-27 23:01:49.65	160.56	15.21	-41.9	-46.0	11.9	3.82e-04	0	62	0	1082130432	54	6068
2026-01-27 23:01:50.66	160.67	15.11	-41.9	-46.0	11.8	4.83e-04	0	62	0	1084227584	54	6091
2026-01-27 23:01:51.67	160.77	15.02	-42.0	-46.2	11.6	4.71e-04	0	62	0	1086324736	54	6248
2026-01-27 23:01:52.68	160.87	14.92	-42.0	-46.1	11.7	5.84e-04	0	62	0	1087373312	54	6165
2026-01-27 23:01:53.69	160.97	14.83	-42.1	-46.3	11.5	7.06e-04	0	62	0	1089470464	54	6321
2026-01-27 23:01:54.70	161.07	14.73	-42.1	-46.5	11.3	1.00e-03	0	62	0	1091567616	55	6118
2026-01-27 23:01:55.72	161.18	14.64	-42.1	-46.4	11.4	1.08e-03	0	62	0	1093664768	55	5997
2026-01-27 23:01:56.73	161.28	14.54	-42.1	-46.4	11.4	9.96e-04	0	62	0	1095761920	55	6013
2026-01-27 23:01:57.74	161.38	14.45	-42.2	-46.6	11.2	1.58e-03	0	62	0	1097859072	55	6165
2026-01-27 23:01:58.75	161.47	14.36	-42.0	-46.2	11.5	9.86e-04	0	62	0	1098907648	55	5915
2026-01-27 23:01:59.76	161.57	14.26	-42.0	-46.3	11.5	8.36e-04	0	62	0	1101004800	55	5974
2026-01-27 23:02:00.77	161.67	14.17	-41.9	-46.1	11.7	9.62e-04	0	62	0	1103101952	55	5840
2026-01-27 23:02:01.78	161.77	14.08	-41.9	-46.0	11.7	6.29e-04	0	62	0	1105199104	55	5785
2026-01-27 23:02:02.79	161.86	13.98	-41.9	-46.0	11.8	5.52e-04	0	62	0	1107296256	55	5744
2026-01-27 23:02:03.80	161.96	13.89	-41.7	-45.6	12.2	3.51e-04	0	62	0	1108344832	55	5514
2026-01-27 23:02:04.81	162.05	13.80	-41.6	-45.4	12.4	2.34e-04	0	62	0	1110441984	55	5366
2026-01-27 23:02:05.82	162.15	13.71	-41.5	-45.3	12.5	1.13e-04	0	62	0	1112539136	55	5299
2026-01-27 23:02:06.83	162.24	13.62	-41.5	-45.3	12.6	8.23e-05	0	62	0	1114636288	54	5605
2026-01-27 23:02:07.84	162.34	13.53	-41.4	-45.1	12.7	6.10e-05	0	62	0	1116733440	54	5482
2026-01-27 23:02:08.85	162.43	13.44	-41.3	-44.7	13.1	4.42e-05	0	62	0	1117782016	54	5267
2026-01-27 23:02:09.86	162.52	13.35	-41.2	-44.6	13.2	2.36e-05	0	62	0	1119879168	54	5199
2026-01-27 23:02:10.87	162.61	13.26	-41.2	-44.6	13.2	2.82e-05	0	62	0	1121976320	54	5186
2026-01-27 23:02:11.88	162.71	13.17	-41.0	-44.4	13.4	1.67e-05	0	62	0	1124073472	54	5045
2026-01-27 23:02:12.89	162.80	13.08	-41.0	-44.3	13.6	1.06e-05	0	62	0	1126170624	53	5280
2026-01-27 23:02:13.90	162.89	12.99	-40.9	-44.2	13.6	2.51e-05	0	62	0	1127219200	53	5224
2026-01-27 23:02:14.91	162.98	12.90	-40.9	-44.1	13.6	2.20e-06	0	62	0	1129316352	53	5211
2026-01-27 23:02:15.92	163.07	12.81	-41.1	-44.5	13.2	1.14e-05	0	62	0	1131413504	53	5462
2026-01-27 23:02:16.93	163.16	12.72	-41.0	-44.3	13.5	1.22e-05	0	62	0	1133510656	53	5307
2026-01-27 23:02:17.94	163.24	12.63	-41.1	-44.4	13.4	1.44e-05	0	62	0	1135607808	53	5376
2026-01-27 23:02:18.95	163.33	12.54	-41.2	-44.6	13.2	3.20e-05	0	62	0	1137704960	53	5513
2026-01-27 23:02:19.96	163.42	12.46	-41.2	-44.7	13.0	3.50e-05	0	62	0	1138753536	53	5574
2026-01-27 23:02:20.97	163.51	12.37	-41.3	-44.8	12.9	3.96e-05	0	62	0	1140850688	53	5634
2026-01-27 23:02:21.98	163.59	12.28	-41.3	-44.9	12.8	6.25e-05	0	62	0	1142947840	53	5714
2026-01-27 23:02:22.99	163.68	12.20	-41.5	-45.2	12.5	1.20e-04	0	62	0	1145044992	53	5898
2026-01-27 23:02:24.00	163.76	12.11	-41.6	-45.6	12.1	1.38e-04	0	62	0	1147142144	53	6169
2026-01-27 23:02:25.01	163.85	12.02	-41.6	-45.5	12.2	1.91e-04	0	62	0	1148190720	53	6070
2026-01-27 23:02:26.02	163.93	11.94	-41.7	-45.8	11.9	3.75e-04	0	62	0	1150287872	54	5969
2026-01-27 23:02:27.03	164.02	11.85	-41.9	-46.1	11.6	6.33e-04	0	62	0	1152385024	54	6153
2026-01-27 23:02:28.04	164.10	11.76	-41.9	-46.2	11.5	8.40e-04	0	62	0	1154482176	54	6245
2026-01-27 23:02:29.05	164.18	11.68	-42.1	-46.7	11.0	1.02e-03	0	62	0	1156579328	54	6583
