passes_logs/2026/01/27/R2.0S_Moscow/R2.0S_Moscow__20260127_011035_NOAA_20_JPSS-1_rec.log

#Pass ID: 20260127_011035_NOAA 20 (JPSS-1)
#Satellite: NOAA 20 (JPSS-1)
#Configuration: NOAA 20
#almurnet v.1.7.20251203
#Start time: 2026-01-27 01:10:35

#Version: 2.2.20231116
#Station: R2.0S_Moscow
#Location: 37.707566 lon 55.798166 lat
#TLE: 1 43013U 17073A   26026.46665230  .00000148  00000+0  91302-4 0  9998
#TLE: 2 43013  98.7646 327.2856 0001008  22.9532 337.1688 14.19540616424360

#Time	Az	El	Level	Level2	SNR	BER	BlckErr	Temp	State	Recorded	gain1	gain2
2026-01-27 01:10:35.15	10.75	2.00	-39.9	-54.5	3.8	1.49e+00	0	54	0	0	51	19197
2026-01-27 01:10:36.15	10.69	2.06	-39.9	-54.5	3.8	1.49e+00	0	54	104	0	51	19205
2026-01-27 01:10:37.16	10.63	2.11	-39.9	-54.5	3.8	1.49e+00	0	54	104	0	51	19190
2026-01-27 01:10:38.17	10.57	2.17	-39.9	-54.5	3.8	1.49e+00	0	54	104	0	51	19181
2026-01-27 01:10:39.18	10.52	2.23	-39.9	-54.5	3.8	1.49e+00	0	54	104	0	51	19179
2026-01-27 01:10:40.19	10.46	2.29	-39.9	-54.5	3.8	1.49e+00	0	54	104	0	51	19214
2026-01-27 01:10:41.20	10.40	2.35	-39.9	-54.5	3.8	1.49e+00	0	54	104	0	51	19211
2026-01-27 01:10:42.21	10.34	2.41	-39.9	-54.5	3.8	1.49e+00	0	54	104	0	51	19230
2026-01-27 01:10:43.22	10.28	2.47	-39.9	-54.4	3.8	1.49e+00	0	54	104	0	51	19159
2026-01-27 01:10:44.22	10.22	2.53	-39.9	-54.4	3.8	1.49e+00	0	54	104	0	51	19103
2026-01-27 01:10:45.23	10.15	2.58	-39.9	-54.4	3.8	1.49e+00	0	54	104	0	51	19150
2026-01-27 01:10:46.24	10.09	2.64	-39.9	-54.5	3.8	1.49e+00	0	54	104	0	51	19181
2026-01-27 01:10:47.26	10.03	2.70	-39.9	-54.4	3.8	1.49e+00	0	54	104	0	51	19163
2026-01-27 01:10:48.26	9.97	2.76	-39.9	-54.4	3.8	1.49e+00	0	54	104	0	51	19099
2026-01-27 01:10:49.28	9.91	2.82	-39.9	-54.5	3.8	1.49e+00	0	55	104	0	51	19170
2026-01-27 01:10:50.29	9.85	2.88	-39.9	-54.5	3.8	1.49e+00	0	54	104	0	51	19178
2026-01-27 01:10:51.30	9.78	2.94	-39.9	-54.4	3.8	1.49e+00	0	55	104	0	51	19067
2026-01-27 01:10:52.31	9.72	3.00	-39.9	-54.4	3.8	1.49e+00	0	55	104	0	51	19131
2026-01-27 01:10:53.32	9.66	3.06	-39.9	-54.4	3.8	1.49e+00	0	55	104	0	51	19099
2026-01-27 01:10:54.33	9.59	3.12	-39.9	-54.4	3.8	1.49e+00	0	55	104	0	51	19112
2026-01-27 01:10:55.34	9.53	3.18	-39.9	-54.5	3.8	1.49e+00	0	55	104	0	51	19180
2026-01-27 01:10:56.35	9.47	3.24	-39.9	-54.5	3.8	1.49e+00	0	55	104	0	51	19176
2026-01-27 01:10:57.36	9.40	3.30	-39.9	-54.4	3.8	1.49e+00	0	55	104	0	51	19128
2026-01-27 01:10:58.37	9.34	3.36	-39.9	-54.4	3.8	1.49e+00	0	55	104	0	51	19124
2026-01-27 01:10:59.38	9.27	3.42	-39.9	-54.4	3.8	1.49e+00	0	55	104	0	51	19126
2026-01-27 01:11:00.39	9.21	3.48	-39.9	-54.5	3.8	1.49e+00	0	55	104	0	51	19171
2026-01-27 01:11:01.40	9.14	3.54	-39.9	-54.4	3.8	1.49e+00	0	55	104	0	51	19107
2026-01-27 01:11:02.41	9.08	3.60	-39.9	-54.4	3.8	1.49e+00	0	55	104	0	51	19096
2026-01-27 01:11:03.42	9.01	3.67	-39.9	-54.4	3.8	1.49e+00	0	55	104	0	51	19134
2026-01-27 01:11:04.43	8.95	3.73	-39.9	-54.4	3.8	1.49e+00	0	55	104	0	51	19138
2026-01-27 01:11:05.44	8.88	3.79	-39.9	-54.5	3.8	1.49e+00	0	56	104	0	51	19179
2026-01-27 01:11:06.46	8.81	3.85	-39.9	-54.5	3.8	1.49e+00	0	56	104	0	51	19209
2026-01-27 01:11:07.47	8.75	3.91	-39.9	-54.4	3.8	1.49e+00	0	56	104	0	51	19159
2026-01-27 01:11:08.47	8.68	3.97	-39.9	-54.4	3.8	1.49e+00	0	56	104	0	51	19118
2026-01-27 01:11:09.49	8.61	4.03	-39.9	-54.4	3.8	1.49e+00	0	56	104	0	51	19145
2026-01-27 01:11:10.50	8.54	4.10	-39.9	-54.4	3.8	1.49e+00	0	56	104	0	51	19114
2026-01-27 01:11:11.51	8.47	4.16	-39.9	-54.4	3.8	1.49e+00	0	56	104	0	51	19127
2026-01-27 01:11:12.52	8.41	4.22	-39.9	-54.4	3.8	1.49e+00	0	56	104	0	51	19137
2026-01-27 01:11:13.53	8.34	4.28	-39.9	-54.4	3.8	1.49e+00	0	56	104	0	51	19120
2026-01-27 01:11:14.54	8.27	4.34	-39.9	-54.4	3.8	1.49e+00	0	56	104	0	51	19160
2026-01-27 01:11:15.55	8.20	4.40	-39.9	-54.4	3.8	1.49e+00	0	56	104	0	51	19157
2026-01-27 01:11:16.56	8.13	4.47	-39.9	-54.4	3.8	1.49e+00	0	56	104	0	51	19111
2026-01-27 01:11:17.57	8.06	4.53	-39.9	-54.4	3.8	1.49e+00	0	56	104	0	51	19159
2026-01-27 01:11:18.58	7.99	4.59	-39.9	-54.5	3.8	1.49e+00	0	56	104	0	51	19173
2026-01-27 01:11:19.59	7.92	4.65	-39.9	-54.4	3.8	1.49e+00	0	56	104	0	51	19139
2026-01-27 01:11:20.60	7.85	4.72	-39.9	-54.4	3.8	1.49e+00	0	56	104	0	51	19119
2026-01-27 01:11:21.61	7.78	4.78	-39.9	-54.4	3.8	1.49e+00	0	56	104	0	51	19118
2026-01-27 01:11:22.62	7.70	4.84	-39.9	-54.4	3.8	1.49e+00	0	57	104	0	51	19069
2026-01-27 01:11:23.63	7.63	4.90	-39.9	-54.4	3.8	1.49e+00	0	56	104	0	51	19127
2026-01-27 01:11:24.64	7.56	4.97	-39.9	-54.4	3.8	1.49e+00	0	57	104	0	51	19140
2026-01-27 01:11:25.65	7.49	5.03	-39.9	-54.4	3.8	1.49e+00	0	57	104	0	51	19132
2026-01-27 01:11:26.66	7.41	5.09	-39.9	-54.4	3.8	1.49e+00	0	57	104	0	51	19165
2026-01-27 01:11:27.67	7.34	5.16	-39.9	-54.4	3.8	1.49e+00	0	57	104	0	51	19105
2026-01-27 01:11:28.68	7.27	5.22	-39.9	-54.4	3.8	1.49e+00	0	57	104	0	51	19143
2026-01-27 01:11:29.69	7.19	5.28	-39.9	-54.5	3.8	1.49e+00	0	57	104	0	51	19198
2026-01-27 01:11:30.70	7.12	5.35	-39.9	-54.4	3.8	1.49e+00	0	57	104	0	51	19123
2026-01-27 01:11:31.71	7.04	5.41	-39.9	-54.4	3.8	1.49e+00	0	57	104	0	51	19154
2026-01-27 01:11:32.72	6.97	5.48	-39.9	-54.5	3.8	1.49e+00	0	57	104	0	51	19194
2026-01-27 01:11:33.73	6.89	5.54	-39.9	-54.4	3.8	1.49e+00	0	57	104	0	51	19101
2026-01-27 01:11:34.74	6.82	5.60	-39.9	-54.4	3.8	1.49e+00	0	57	104	0	51	19140
2026-01-27 01:11:35.75	6.74	5.67	-39.9	-54.4	3.8	1.49e+00	0	57	104	0	51	19149
2026-01-27 01:11:36.76	6.67	5.73	-39.9	-54.5	3.8	1.49e+00	0	57	104	0	51	19186
2026-01-27 01:11:37.77	6.59	5.80	-39.9	-54.4	3.8	1.49e+00	0	57	104	0	51	19163
2026-01-27 01:11:38.78	6.51	5.86	-39.9	-54.4	3.8	1.49e+00	0	57	104	0	51	19108
2026-01-27 01:11:39.79	6.43	5.93	-39.9	-54.4	3.8	1.49e+00	0	57	104	0	51	19119
2026-01-27 01:11:40.80	6.36	5.99	-39.9	-54.4	3.8	1.49e+00	0	57	104	0	51	19141
2026-01-27 01:11:41.81	6.28	6.05	-39.9	-54.4	3.8	1.49e+00	0	57	104	0	51	19132
2026-01-27 01:11:42.82	6.20	6.12	-39.9	-54.4	3.8	1.49e+00	0	57	104	0	51	19138
2026-01-27 01:11:43.83	6.12	6.18	-39.9	-54.4	3.8	1.49e+00	0	58	104	0	51	19118
2026-01-27 01:11:44.85	6.04	6.25	-39.9	-54.4	3.8	1.49e+00	0	58	104	0	51	19164
2026-01-27 01:11:45.86	5.96	6.32	-39.9	-54.4	3.8	1.49e+00	0	57	104	0	51	19161
2026-01-27 01:11:46.87	5.88	6.38	-39.9	-54.4	3.8	1.49e+00	0	58	104	0	51	19144
2026-01-27 01:11:47.88	5.80	6.45	-39.9	-54.4	3.8	1.49e+00	0	58	104	0	51	19155
2026-01-27 01:11:48.89	5.72	6.51	-39.9	-54.4	3.8	1.49e+00	0	58	104	0	51	19123
2026-01-27 01:11:49.90	5.64	6.58	-39.9	-54.5	3.8	1.49e+00	0	57	104	0	51	19172
2026-01-27 01:11:50.91	5.56	6.64	-39.9	-54.4	3.8	1.49e+00	0	58	104	0	51	19148
2026-01-27 01:11:51.92	5.48	6.71	-39.9	-54.4	3.8	1.49e+00	0	58	104	0	51	19142
2026-01-27 01:11:52.93	5.39	6.78	-39.9	-54.4	3.8	1.49e+00	0	58	104	0	51	19147
2026-01-27 01:11:53.94	5.31	6.84	-39.9	-54.4	3.8	1.49e+00	0	58	104	0	51	19125
2026-01-27 01:11:54.95	5.23	6.91	-39.9	-54.4	3.8	1.49e+00	0	58	104	0	51	19127
2026-01-27 01:11:55.96	5.14	6.97	-39.9	-54.4	3.8	1.49e+00	0	58	104	0	51	19103
2026-01-27 01:11:56.97	5.06	7.04	-39.9	-54.4	3.8	1.49e+00	0	58	104	0	51	19120
2026-01-27 01:11:57.98	4.98	7.11	-39.9	-54.4	3.8	1.49e+00	0	58	104	0	51	19155
2026-01-27 01:11:58.99	4.89	7.17	-39.9	-54.4	3.8	1.49e+00	0	58	104	0	51	19119
2026-01-27 01:12:00.00	4.81	7.24	-39.9	-54.4	3.8	1.49e+00	0	58	104	0	51	19109
2026-01-27 01:12:01.01	4.72	7.31	-39.9	-54.4	3.8	1.49e+00	0	58	104	0	51	19152
2026-01-27 01:12:02.02	4.63	7.38	-39.9	-54.4	3.8	1.49e+00	0	58	104	0	51	19126
2026-01-27 01:12:03.03	4.55	7.44	-39.9	-54.4	3.8	1.49e+00	0	58	104	0	51	19119
2026-01-27 01:12:04.04	4.46	7.51	-39.9	-54.4	3.8	1.49e+00	0	58	104	0	51	19147
2026-01-27 01:12:05.05	4.37	7.58	-39.9	-54.5	3.8	1.49e+00	0	58	104	0	51	19205
2026-01-27 01:12:06.06	4.29	7.64	-39.9	-54.4	3.8	1.49e+00	0	58	104	0	51	19128
2026-01-27 01:12:07.07	4.20	7.71	-39.9	-54.4	3.8	1.49e+00	0	58	104	0	51	19103
2026-01-27 01:12:08.08	4.11	7.78	-39.9	-54.4	3.8	1.49e+00	0	58	104	0	51	19131
2026-01-27 01:12:09.09	4.02	7.85	-39.9	-54.4	3.8	1.49e+00	0	58	104	0	51	19106
2026-01-27 01:12:10.10	3.93	7.92	-39.9	-54.4	3.8	1.49e+00	0	59	104	0	51	19147
2026-01-27 01:12:11.11	3.84	7.98	-39.9	-54.5	3.8	1.49e+00	0	59	104	0	51	19183
2026-01-27 01:12:12.12	3.75	8.05	-39.9	-54.4	3.8	1.49e+00	0	59	104	0	51	19156
2026-01-27 01:12:13.13	3.66	8.12	-39.9	-54.4	3.8	1.49e+00	0	59	104	0	51	19155
2026-01-27 01:12:14.15	3.57	8.19	-40.0	-54.6	3.8	1.49e+00	0	58	104	0	51	19564
2026-01-27 01:12:15.16	3.48	8.26	-39.9	-54.5	3.8	1.49e+00	0	59	104	0	51	19285
2026-01-27 01:12:16.17	3.39	8.33	-40.0	-54.6	3.8	1.49e+00	0	59	104	0	51	19433
2026-01-27 01:12:17.18	3.29	8.40	-40.0	-54.5	3.8	1.49e+00	0	59	104	0	51	19337
2026-01-27 01:12:18.19	3.20	8.46	-40.1	-54.7	3.8	1.49e+00	0	59	104	0	51	19639
2026-01-27 01:12:19.20	3.11	8.53	-39.9	-54.5	3.8	1.49e+00	0	59	104	0	51	19255
2026-01-27 01:12:20.21	3.01	8.60	-40.0	-54.6	3.8	1.49e+00	0	59	104	0	51	19484
2026-01-27 01:12:21.22	2.92	8.67	-40.0	-54.5	3.8	1.49e+00	0	59	104	0	51	19320
2026-01-27 01:12:22.23	2.82	8.74	-40.0	-54.6	3.8	1.49e+00	0	59	104	0	51	19572
2026-01-27 01:12:23.24	2.73	8.81	-39.9	-54.5	3.8	1.49e+00	0	59	104	0	51	19317
2026-01-27 01:12:24.25	2.63	8.88	-40.1	-54.6	3.8	1.49e+00	0	59	104	0	51	19563
2026-01-27 01:12:25.26	2.54	8.95	-39.9	-54.5	3.8	1.49e+00	0	59	104	0	51	19301
2026-01-27 01:12:26.27	2.44	9.02	-40.1	-54.6	3.8	1.49e+00	0	59	104	0	51	19583
2026-01-27 01:12:27.28	2.34	9.09	-40.0	-54.6	3.8	1.49e+00	0	59	104	0	51	19434
2026-01-27 01:12:28.28	2.25	9.16	-40.1	-54.7	3.8	1.49e+00	0	59	104	0	51	19642
2026-01-27 01:12:29.29	2.15	9.23	-39.9	-54.5	3.8	1.49e+00	0	59	104	0	51	19260
2026-01-27 01:12:30.30	2.05	9.30	-40.1	-54.6	3.8	1.49e+00	0	59	104	0	51	19607
2026-01-27 01:12:31.31	1.95	9.37	-40.0	-54.6	3.8	1.49e+00	0	59	104	0	51	19456
2026-01-27 01:12:32.32	1.85	9.44	-40.1	-54.6	3.8	1.49e+00	0	59	104	0	51	19541
2026-01-27 01:12:33.33	1.75	9.51	-40.0	-54.6	3.8	1.49e+00	0	59	104	0	51	19451
2026-01-27 01:12:34.34	1.65	9.58	-40.1	-54.7	3.8	1.49e+00	0	59	104	0	51	19639
2026-01-27 01:12:35.35	1.55	9.65	-40.0	-54.5	3.8	1.49e+00	0	59	104	0	51	19332
2026-01-27 01:12:36.37	1.45	9.72	-40.0	-54.6	3.8	1.49e+00	0	59	104	0	51	19545
2026-01-27 01:12:37.38	1.34	9.79	-40.1	-54.6	3.8	1.49e+00	0	59	104	0	51	19601
2026-01-27 01:12:38.39	1.24	9.87	-40.1	-54.6	3.8	1.49e+00	0	59	104	0	51	19609
2026-01-27 01:12:39.40	1.14	9.94	-39.9	-54.5	3.8	1.49e+00	0	59	104	0	51	19384
2026-01-27 01:12:40.40	1.04	10.01	-40.1	-54.6	3.8	1.49e+00	0	59	104	0	51	19576
2026-01-27 01:12:41.42	0.93	10.08	-40.0	-54.6	3.8	1.49e+00	0	59	104	0	51	19534
2026-01-27 01:12:42.43	0.83	10.15	-40.1	-54.7	3.8	1.49e+00	0	59	104	0	51	19677
2026-01-27 01:12:43.43	0.72	10.22	-40.0	-54.6	3.8	1.49e+00	0	59	104	0	51	19398
2026-01-27 01:12:44.44	0.62	10.29	-40.1	-54.7	3.8	1.49e+00	0	59	104	0	51	19754
2026-01-27 01:12:45.46	0.51	10.37	-40.1	-54.7	3.8	1.49e+00	0	59	104	0	51	19640
2026-01-27 01:12:46.47	0.40	10.44	-40.1	-54.7	3.8	1.49e+00	0	59	104	0	51	19727
2026-01-27 01:12:47.48	0.29	10.51	-40.0	-54.6	3.8	1.49e+00	0	60	104	0	51	19509
2026-01-27 01:12:48.48	0.19	10.58	-40.1	-54.8	3.8	1.49e+00	0	59	104	0	51	19857
2026-01-27 01:12:49.49	0.08	10.65	-40.1	-54.7	3.8	1.49e+00	0	59	104	0	51	19801
2026-01-27 01:12:50.50	359.97	10.73	-40.2	-54.7	3.8	1.49e+00	0	60	104	0	51	19828
2026-01-27 01:12:51.51	359.86	10.80	-40.1	-54.6	3.8	1.49e+00	0	60	104	0	51	19613
2026-01-27 01:12:52.52	359.75	10.87	-40.2	-54.8	3.8	1.49e+00	0	59	104	0	51	19989
2026-01-27 01:12:53.53	359.64	10.95	-40.3	-54.9	3.8	1.49e+00	0	60	104	0	51	20088
2026-01-27 01:12:54.54	359.53	11.02	-40.2	-54.8	3.8	1.49e+00	0	60	104	0	51	19957
2026-01-27 01:12:55.55	359.42	11.09	-40.0	-54.6	3.8	1.49e+00	0	60	104	0	51	19525
2026-01-27 01:12:56.56	359.30	11.16	-40.0	-54.6	3.8	1.49e+00	0	60	104	0	51	19466
2026-01-27 01:12:57.57	359.19	11.24	-40.0	-54.6	3.8	1.49e+00	0	60	104	0	51	19436
2026-01-27 01:12:58.58	359.08	11.31	-40.0	-54.6	3.8	1.49e+00	0	60	104	0	51	19399
2026-01-27 01:12:59.59	358.96	11.39	-40.0	-54.6	3.8	1.49e+00	0	60	104	0	51	19510
2026-01-27 01:13:00.60	358.85	11.46	-40.1	-54.7	3.8	1.49e+00	0	60	104	0	51	19822
2026-01-27 01:13:01.60	358.73	11.53	-40.1	-54.7	3.8	1.49e+00	0	60	104	0	51	19769
2026-01-27 01:13:02.61	358.62	11.61	-40.5	-55.1	3.8	1.49e+00	0	60	104	0	51	20653
2026-01-27 01:13:03.62	358.50	11.68	-40.5	-55.1	3.8	1.49e+00	0	60	104	0	52	19506
2026-01-27 01:13:04.63	358.38	11.75	-40.1	-54.7	3.8	1.49e+00	0	60	104	0	52	18701
2026-01-27 01:13:05.64	358.27	11.83	-40.1	-54.7	3.8	1.49e+00	0	60	104	0	52	18687
2026-01-27 01:13:06.65	358.15	11.90	-40.2	-54.8	3.8	1.49e+00	0	60	104	0	52	18888
2026-01-27 01:13:07.66	358.03	11.98	-40.3	-54.9	3.8	1.49e+00	0	60	104	0	52	19013
2026-01-27 01:13:08.67	357.91	12.05	-40.5	-55.0	3.8	1.49e+00	0	60	104	0	52	19236
2026-01-27 01:13:09.68	357.79	12.12	-40.3	-54.8	3.8	1.49e+00	0	60	104	0	52	18838
2026-01-27 01:13:10.69	357.67	12.20	-41.0	-54.6	3.8	1.49e+00	0	60	104	0	52	18479
2026-01-27 01:13:11.70	357.55	12.27	-41.7	-53.2	4.1	1.48e+00	0	60	104	0	54	13997
2026-01-27 01:13:12.71	357.42	12.35	-40.9	-54.5	3.8	1.33e+00	0	60	104	0	53	17268
2026-01-27 01:13:13.72	357.30	12.42	-41.1	-50.7	4.1	1.49e+00	0	60	104	0	53	11133
2026-01-27 01:13:14.73	357.18	12.50	-41.0	-49.0	6.0	4.72e-01	0	60	0	1048576	53	9164
2026-01-27 01:13:15.74	357.05	12.57	-40.9	-48.1	6.8	2.13e-01	0	60	0	3145728	53	8224
2026-01-27 01:13:16.75	356.93	12.65	-40.8	-47.5	7.3	1.45e-01	0	60	0	4194304	53	7711
2026-01-27 01:13:17.76	356.80	12.72	-40.6	-47.0	7.9	1.09e-01	0	60	0	6291456	53	7249
2026-01-27 01:13:18.77	356.68	12.80	-40.7	-47.1	7.8	7.78e-02	0	60	0	8388608	53	7355
2026-01-27 01:13:19.78	356.55	12.88	-40.9	-47.8	7.2	1.06e-01	0	60	0	10485760	53	7919
2026-01-27 01:13:20.79	356.42	12.95	-41.0	-48.5	6.6	1.53e-01	0	60	0	12582912	53	8579
2026-01-27 01:13:21.80	356.29	13.03	-41.1	-49.3	5.9	3.15e-01	0	60	0	14680064	53	9406
2026-01-27 01:13:22.81	356.16	13.10	-41.2	-49.9	5.4	4.58e-01	0	60	0	15728640	53	10088
2026-01-27 01:13:23.82	356.04	13.18	-41.2	-50.8	4.9	6.20e-01	0	60	0	17825792	53	11273
2026-01-27 01:13:24.83	355.90	13.25	-41.9	-53.7	4.0	1.25e+00	0	60	0	19922944	54	14737
2026-01-27 01:13:25.84	355.77	13.33	-40.9	-54.8	3.8	1.41e+00	0	60	104	19922944	53	17800
2026-01-27 01:13:26.85	355.64	13.41	-40.8	-55.1	3.8	1.49e+00	0	60	104	19922944	53	18514
2026-01-27 01:13:27.86	355.51	13.48	-41.7	-54.7	3.8	1.49e+00	0	60	104	19922944	53	17559
2026-01-27 01:13:28.87	355.38	13.56	-41.4	-54.6	3.8	1.49e+00	0	60	104	19922944	54	16364
2026-01-27 01:13:29.88	355.24	13.64	-41.3	-55.0	3.8	1.49e+00	0	60	104	19922944	54	17206
2026-01-27 01:13:30.89	355.11	13.71	-41.1	-55.0	3.8	1.49e+00	0	61	104	19922944	54	17218
2026-01-27 01:13:31.90	354.97	13.79	-40.9	-55.3	3.8	1.49e+00	0	60	104	19922944	53	18747
2026-01-27 01:13:32.91	354.84	13.87	-41.1	-55.3	3.8	1.49e+00	0	61	104	19922944	53	18914
2026-01-27 01:13:33.93	354.70	13.94	-40.6	-55.2	3.8	1.49e+00	0	60	104	19922944	53	18569
2026-01-27 01:13:34.93	354.56	14.02	-40.7	-55.3	3.8	1.49e+00	0	60	104	19922944	53	18885
2026-01-27 01:13:35.94	354.43	14.10	-40.5	-55.1	3.8	1.49e+00	0	61	104	19922944	53	18309
2026-01-27 01:13:36.95	354.29	14.17	-40.5	-55.1	3.8	1.49e+00	0	61	104	19922944	52	19496
2026-01-27 01:13:37.96	354.15	14.25	-40.8	-55.4	3.8	1.49e+00	0	61	104	19922944	52	20228
2026-01-27 01:13:38.98	354.01	14.33	-40.7	-55.3	3.8	1.49e+00	0	61	104	19922944	52	19843
2026-01-27 01:13:39.99	353.87	14.40	-40.5	-55.0	3.8	1.49e+00	0	61	104	19922944	52	19335
2026-01-27 01:13:41.00	353.72	14.48	-40.6	-55.1	3.8	1.49e+00	0	60	104	19922944	52	19604
2026-01-27 01:13:42.01	353.58	14.56	-40.7	-55.3	3.8	1.49e+00	0	61	104	19922944	52	19988
2026-01-27 01:13:43.02	353.44	14.64	-40.6	-55.2	3.8	1.49e+00	0	61	104	19922944	52	19641
2026-01-27 01:13:44.03	353.29	14.71	-40.6	-55.2	3.8	1.49e+00	0	61	104	19922944	52	19619
2026-01-27 01:13:45.04	353.15	14.79	-40.8	-55.3	3.8	1.49e+00	0	61	104	19922944	52	20057
2026-01-27 01:13:46.05	353.00	14.87	-40.5	-55.1	3.8	1.49e+00	0	61	104	19922944	52	19524
2026-01-27 01:13:47.06	352.86	14.95	-40.6	-55.2	3.8	1.49e+00	0	61	104	19922944	52	19684
2026-01-27 01:13:48.07	352.71	15.02	-40.7	-55.3	3.8	1.49e+00	0	61	104	19922944	52	19901
2026-01-27 01:13:49.08	352.56	15.10	-40.8	-55.3	3.8	1.49e+00	0	61	104	19922944	52	20063
2026-01-27 01:13:50.09	352.41	15.18	-40.6	-55.1	3.8	1.49e+00	0	61	104	19922944	52	19560
2026-01-27 01:13:51.10	352.26	15.26	-40.8	-55.3	3.8	1.49e+00	0	61	104	19922944	52	19999
2026-01-27 01:13:52.10	352.12	15.33	-40.6	-55.2	3.8	1.49e+00	0	61	104	19922944	52	19704
2026-01-27 01:13:53.12	351.96	15.41	-40.8	-55.3	3.8	1.49e+00	0	61	104	19922944	52	20007
2026-01-27 01:13:54.12	351.81	15.49	-40.8	-55.3	3.8	1.49e+00	0	61	104	19922944	52	19991
2026-01-27 01:13:55.13	351.66	15.57	-40.7	-55.3	3.8	1.49e+00	0	61	104	19922944	52	19857
2026-01-27 01:13:56.14	351.51	15.65	-40.7	-55.3	3.8	1.49e+00	0	61	104	19922944	52	20026
2026-01-27 01:13:57.15	351.35	15.72	-40.9	-55.4	3.8	1.49e+00	0	61	104	19922944	52	20280
2026-01-27 01:13:58.16	351.20	15.80	-40.8	-55.3	3.8	1.49e+00	0	61	104	19922944	52	20010
2026-01-27 01:13:59.17	351.04	15.88	-40.7	-55.3	3.8	1.49e+00	0	61	104	19922944	52	19886
2026-01-27 01:14:00.18	350.88	15.96	-41.0	-55.6	3.8	1.49e+00	0	61	104	19922944	52	20587
2026-01-27 01:14:01.19	350.73	16.04	-40.8	-55.3	3.8	1.49e+00	0	61	104	19922944	52	20013
2026-01-27 01:14:02.20	350.57	16.12	-40.7	-55.3	3.8	1.49e+00	0	61	104	19922944	52	19927
2026-01-27 01:14:03.21	350.41	16.19	-41.0	-55.5	3.8	1.49e+00	0	61	104	19922944	52	20435
2026-01-27 01:14:04.22	350.25	16.27	-41.0	-55.5	3.8	1.49e+00	0	61	104	19922944	52	20526
2026-01-27 01:14:05.23	350.09	16.35	-40.9	-55.4	3.8	1.49e+00	0	61	104	19922944	52	20296
2026-01-27 01:14:06.24	349.93	16.43	-40.8	-55.4	3.8	1.49e+00	0	61	104	19922944	52	20192
2026-01-27 01:14:07.25	349.76	16.51	-40.9	-55.5	3.8	1.49e+00	0	61	104	19922944	52	20392
2026-01-27 01:14:08.26	349.60	16.59	-41.1	-55.6	3.8	1.49e+00	0	61	104	19922944	52	20730
2026-01-27 01:14:09.27	349.43	16.66	-41.3	-55.8	3.8	1.49e+00	0	61	104	19922944	53	19947
2026-01-27 01:14:10.28	349.27	16.74	-40.8	-55.3	3.8	1.49e+00	0	61	104	19922944	53	18915
2026-01-27 01:14:11.29	349.10	16.82	-40.9	-55.5	3.8	1.49e+00	0	61	104	19922944	53	19194
2026-01-27 01:14:12.30	348.94	16.90	-41.4	-55.9	3.8	1.49e+00	0	61	104	19922944	53	20105
2026-01-27 01:14:13.31	348.77	16.98	-41.4	-55.9	3.8	1.49e+00	0	61	104	19922944	53	20122
2026-01-27 01:14:14.31	348.60	17.06	-41.1	-55.6	3.8	1.49e+00	0	61	104	19922944	53	19456
2026-01-27 01:14:15.32	348.43	17.13	-41.1	-55.6	3.8	1.49e+00	0	61	104	19922944	53	19493
2026-01-27 01:14:16.34	348.26	17.21	-41.5	-55.9	3.8	1.49e+00	0	61	104	19922944	53	20181
2026-01-27 01:14:17.35	348.09	17.29	-41.3	-55.8	3.8	1.49e+00	0	61	104	19922944	53	19952
2026-01-27 01:14:18.36	347.91	17.37	-41.3	-55.8	3.8	1.49e+00	0	61	104	19922944	53	19922
2026-01-27 01:14:19.36	347.74	17.45	-41.0	-55.5	3.8	1.49e+00	0	61	104	19922944	53	19363
2026-01-27 01:14:20.37	347.57	17.53	-41.5	-55.9	3.8	1.49e+00	0	61	104	19922944	53	20250
2026-01-27 01:14:21.38	347.39	17.60	-41.1	-55.6	3.8	1.49e+00	0	61	104	19922944	53	19614
2026-01-27 01:14:22.39	347.22	17.68	-41.2	-55.7	3.8	1.49e+00	0	61	104	19922944	53	19782
2026-01-27 01:14:23.40	347.04	17.76	-41.0	-55.5	3.8	1.49e+00	0	61	104	19922944	53	19247
2026-01-27 01:14:24.41	346.86	17.84	-41.3	-55.8	3.8	1.49e+00	0	61	104	19922944	53	19931
2026-01-27 01:14:25.42	346.68	17.92	-40.9	-55.5	3.8	1.49e+00	0	61	104	19922944	53	19278
2026-01-27 01:14:26.43	346.50	17.99	-41.0	-55.6	3.8	1.49e+00	0	61	104	19922944	53	19410
2026-01-27 01:14:27.44	346.32	18.07	-40.8	-55.4	3.8	1.49e+00	0	61	104	19922944	53	19024
2026-01-27 01:14:28.45	346.14	18.15	-41.0	-55.5	3.8	1.49e+00	0	62	104	19922944	53	19351
2026-01-27 01:14:29.46	345.96	18.23	-40.8	-55.4	3.8	1.49e+00	0	61	104	19922944	53	18992
2026-01-27 01:14:30.47	345.77	18.31	-40.8	-55.4	3.8	1.49e+00	0	61	104	19922944	53	18995
2026-01-27 01:14:31.48	345.59	18.38	-40.8	-55.3	3.8	1.49e+00	0	61	104	19922944	53	18891
2026-01-27 01:14:32.49	345.40	18.46	-40.8	-55.4	3.8	1.49e+00	0	61	104	19922944	53	19067
2026-01-27 01:14:33.50	345.21	18.54	-40.8	-55.4	3.8	1.49e+00	0	61	104	19922944	53	19022
2026-01-27 01:14:34.51	345.03	18.62	-40.8	-55.4	3.8	1.49e+00	0	61	104	19922944	53	19086
2026-01-27 01:14:35.52	344.84	18.69	-40.8	-55.4	3.8	1.49e+00	0	61	104	19922944	53	18998
2026-01-27 01:14:36.53	344.65	18.77	-40.7	-55.3	3.8	1.49e+00	0	61	104	19922944	53	18761
2026-01-27 01:14:37.54	344.46	18.85	-40.8	-55.4	3.8	1.49e+00	0	61	104	19922944	53	18999
2026-01-27 01:14:38.55	344.27	18.93	-40.9	-55.5	3.8	1.49e+00	0	61	104	19922944	53	19241
2026-01-27 01:14:39.56	344.07	19.00	-40.8	-55.4	3.8	1.49e+00	0	61	104	19922944	53	19006
2026-01-27 01:14:40.56	343.88	19.08	-40.8	-55.3	3.8	1.49e+00	0	61	104	19922944	53	18927
2026-01-27 01:14:41.57	343.69	19.16	-40.9	-55.5	3.8	1.49e+00	0	62	104	19922944	53	19312
2026-01-27 01:14:42.58	343.49	19.23	-41.1	-55.7	3.8	1.49e+00	0	61	104	19922944	53	19644
2026-01-27 01:14:43.59	343.30	19.31	-40.9	-55.6	3.8	1.49e+00	0	62	104	19922944	53	19438
2026-01-27 01:14:44.60	343.10	19.39	-41.0	-55.6	3.8	1.49e+00	0	61	104	19922944	53	19470
2026-01-27 01:14:45.61	342.90	19.46	-41.1	-55.7	3.8	1.49e+00	0	61	104	19922944	53	19641
2026-01-27 01:14:46.62	342.70	19.54	-41.2	-55.8	3.8	1.49e+00	0	61	104	19922944	53	19842
2026-01-27 01:14:47.63	342.50	19.62	-41.1	-55.6	3.8	1.49e+00	0	61	104	19922944	53	19487
2026-01-27 01:14:48.64	342.30	19.69	-40.8	-55.3	3.8	1.49e+00	0	62	104	19922944	53	18798
2026-01-27 01:14:49.65	342.09	19.77	-40.9	-55.4	3.8	1.49e+00	0	62	104	19922944	53	19055
2026-01-27 01:14:50.66	341.89	19.84	-41.0	-55.5	3.8	1.49e+00	0	61	104	19922944	53	19288
2026-01-27 01:14:51.67	341.69	19.92	-41.0	-55.7	3.8	1.49e+00	0	61	104	19922944	53	19628
2026-01-27 01:14:52.68	341.48	20.00	-41.1	-55.7	3.8	1.49e+00	0	61	104	19922944	53	19812
2026-01-27 01:14:53.69	341.27	20.07	-41.8	-55.0	3.8	1.49e+00	0	61	104	19922944	54	17205
2026-01-27 01:14:54.70	341.07	20.15	-42.9	-55.2	3.8	1.49e+00	0	62	104	19922944	56	15611
2026-01-27 01:14:55.70	340.86	20.22	-42.1	-54.3	3.8	1.37e+00	0	62	104	19922944	56	14167
2026-01-27 01:14:56.71	340.65	20.30	-42.1	-51.3	5.0	1.42e+00	0	62	0	19922944	55	10608
2026-01-27 01:14:57.73	340.44	20.37	-42.2	-50.2	6.0	4.36e-01	0	61	0	20971520	55	9307
2026-01-27 01:14:58.74	340.22	20.45	-42.2	-49.6	6.6	2.76e-01	0	62	0	23068672	55	8732
2026-01-27 01:14:59.75	340.01	20.52	-42.2	-49.3	7.0	1.69e-01	0	62	0	25165824	55	8389
2026-01-27 01:15:00.76	339.80	20.59	-42.2	-48.7	7.6	1.33e-01	0	61	0	27262976	55	7863
2026-01-27 01:15:01.76	339.58	20.67	-42.1	-48.1	8.3	7.01e-02	0	61	0	29360128	55	7336
2026-01-27 01:15:02.78	339.37	20.74	-41.9	-47.3	9.2	2.74e-02	0	62	0	30408704	55	6697
2026-01-27 01:15:03.78	339.15	20.81	-41.6	-46.4	10.2	9.59e-03	0	62	0	32505856	55	6049
2026-01-27 01:15:04.79	338.93	20.89	-41.5	-46.1	10.7	4.05e-03	0	61	0	34603008	55	5795
2026-01-27 01:15:05.80	338.71	20.96	-41.4	-45.8	11.0	2.17e-03	0	61	0	36700160	54	5972
2026-01-27 01:15:06.81	338.49	21.03	-41.3	-45.5	11.5	1.19e-03	0	62	0	38797312	54	5753
2026-01-27 01:15:07.82	338.27	21.10	-41.4	-45.5	11.5	9.17e-04	0	62	0	39845888	54	5760
2026-01-27 01:15:08.83	338.05	21.18	-41.4	-45.5	11.6	7.19e-04	0	61	0	41943040	54	5775
2026-01-27 01:15:09.84	337.83	21.25	-41.4	-45.4	11.8	5.43e-04	0	62	0	44040192	54	5673
2026-01-27 01:15:10.85	337.60	21.32	-41.2	-45.0	12.3	2.78e-04	0	61	0	46137344	54	5418
2026-01-27 01:15:11.86	337.38	21.39	-41.2	-44.9	12.4	1.33e-04	0	61	0	48234496	54	5386
2026-01-27 01:15:12.87	337.15	21.46	-41.2	-44.9	12.5	1.44e-04	0	62	0	49283072	54	5377
2026-01-27 01:15:13.88	336.92	21.53	-41.2	-44.8	12.7	1.06e-04	0	62	0	51380224	54	5280
2026-01-27 01:15:14.89	336.69	21.60	-41.3	-44.9	12.6	7.62e-05	0	62	0	53477376	54	5348
2026-01-27 01:15:15.90	336.46	21.68	-41.3	-44.9	12.7	8.31e-05	0	62	0	55574528	54	5352
2026-01-27 01:15:16.91	336.23	21.75	-41.3	-44.9	12.7	8.08e-05	0	62	0	57671680	54	5343
2026-01-27 01:15:17.92	336.00	21.81	-41.3	-44.9	12.7	7.24e-05	0	62	0	58720256	54	5350
2026-01-27 01:15:18.94	335.76	21.88	-41.4	-45.0	12.6	7.01e-05	0	62	0	60817408	54	5418
2026-01-27 01:15:19.95	335.53	21.95	-41.4	-45.0	12.6	8.01e-05	0	62	0	62914560	54	5439
2026-01-27 01:15:20.96	335.29	22.02	-41.4	-44.9	12.8	8.54e-05	0	61	0	65011712	54	5397
2026-01-27 01:15:21.97	335.06	22.09	-41.4	-44.9	12.8	5.72e-05	0	62	0	67108864	54	5374
2026-01-27 01:15:22.98	334.82	22.16	-41.4	-44.8	12.9	4.65e-05	0	62	0	69206016	54	5337
2026-01-27 01:15:23.99	334.58	22.23	-41.3	-44.8	12.9	4.80e-05	0	62	0	70254592	54	5303
2026-01-27 01:15:25.00	334.34	22.29	-41.3	-44.7	13.0	4.57e-05	0	62	0	72351744	54	5257
2026-01-27 01:15:26.01	334.10	22.36	-41.3	-44.7	13.1	2.82e-05	0	62	0	74448896	54	5248
2026-01-27 01:15:27.02	333.86	22.43	-41.4	-44.8	12.9	3.73e-05	0	62	0	76546048	54	5340
2026-01-27 01:15:28.03	333.62	22.49	-41.3	-44.8	13.1	3.35e-05	0	62	0	78643200	54	5282
2026-01-27 01:15:29.04	333.38	22.56	-41.3	-44.7	13.1	2.51e-05	0	62	0	79691776	54	5245
2026-01-27 01:15:30.05	333.13	22.63	-41.3	-44.7	13.1	2.89e-05	0	62	0	81788928	54	5247
2026-01-27 01:15:31.06	332.89	22.69	-41.3	-44.7	13.1	4.42e-05	0	62	0	83886080	54	5239
2026-01-27 01:15:32.07	332.64	22.76	-41.3	-44.7	13.1	3.05e-05	0	62	0	85983232	54	5242
2026-01-27 01:15:33.08	332.39	22.82	-41.3	-44.6	13.2	2.59e-05	0	62	0	88080384	54	5200
2026-01-27 01:15:34.09	332.14	22.88	-41.3	-44.6	13.2	3.12e-05	0	62	0	89128960	54	5202
2026-01-27 01:15:35.10	331.89	22.95	-41.3	-44.6	13.3	2.05e-05	0	62	0	91226112	54	5191
2026-01-27 01:15:36.11	331.64	23.01	-41.3	-44.7	13.2	2.13e-05	0	62	0	93323264	54	5220
2026-01-27 01:15:37.12	331.39	23.07	-41.4	-44.8	13.1	1.22e-05	0	62	0	95420416	54	5295
2026-01-27 01:15:38.13	331.14	23.13	-41.5	-44.9	13.0	3.43e-05	0	62	0	97517568	54	5389
2026-01-27 01:15:39.14	330.88	23.20	-41.5	-45.0	12.8	4.42e-05	0	62	0	98566144	54	5439
2026-01-27 01:15:40.14	330.63	23.26	-41.6	-45.1	12.8	5.34e-05	0	61	0	100663296	54	5494
2026-01-27 01:15:41.15	330.37	23.32	-41.6	-45.1	12.8	5.34e-05	0	62	0	102760448	54	5500
2026-01-27 01:15:42.16	330.12	23.38	-41.5	-45.0	12.9	4.57e-05	0	62	0	104857600	54	5413
2026-01-27 01:15:43.17	329.86	23.44	-41.5	-44.9	12.9	4.57e-05	0	61	0	106954752	54	5392
2026-01-27 01:15:44.18	329.60	23.50	-41.5	-45.1	12.8	4.50e-05	0	61	0	108003328	54	5468
2026-01-27 01:15:45.19	329.34	23.56	-41.5	-44.9	13.0	4.65e-05	0	62	0	110100480	54	5390
2026-01-27 01:15:46.20	329.08	23.61	-41.5	-45.1	12.8	4.95e-05	0	62	0	112197632	54	5473
2026-01-27 01:15:47.21	328.82	23.67	-41.6	-45.1	12.8	6.17e-05	0	62	0	114294784	54	5513
2026-01-27 01:15:48.22	328.56	23.73	-41.5	-45.0	12.9	6.33e-05	0	62	0	116391936	54	5463
2026-01-27 01:15:49.23	328.29	23.79	-41.5	-45.0	12.9	6.17e-05	0	62	0	117440512	54	5405
2026-01-27 01:15:50.24	328.03	23.84	-41.4	-44.8	13.1	3.73e-05	0	62	0	119537664	54	5305
2026-01-27 01:15:51.25	327.76	23.90	-41.4	-44.7	13.2	2.21e-05	0	62	0	121634816	54	5241
2026-01-27 01:15:52.26	327.49	23.95	-41.3	-44.7	13.2	1.98e-05	0	62	0	123731968	54	5242
2026-01-27 01:15:53.27	327.23	24.01	-41.4	-44.7	13.2	1.75e-05	0	62	0	125829120	54	5243
2026-01-27 01:15:54.28	326.96	24.06	-41.3	-44.7	13.2	1.98e-05	0	62	0	126877696	54	5236
2026-01-27 01:15:55.28	326.69	24.11	-41.3	-44.6	13.3	1.44e-05	0	62	0	128974848	54	5200
2026-01-27 01:15:56.30	326.42	24.17	-41.3	-44.6	13.3	2.05e-05	0	62	0	131072000	54	5206
2026-01-27 01:15:57.31	326.15	24.22	-41.3	-44.6	13.3	1.75e-05	0	62	0	133169152	54	5213
2026-01-27 01:15:58.32	325.87	24.27	-41.2	-44.5	13.4	1.22e-05	0	62	0	135266304	54	5121
2026-01-27 01:15:59.33	325.60	24.32	-41.2	-44.5	13.4	1.14e-05	0	62	0	137363456	54	5123
2026-01-27 01:16:00.33	325.33	24.37	-41.3	-44.6	13.4	1.29e-05	0	62	0	138412032	54	5162
2026-01-27 01:16:01.34	325.06	24.42	-41.2	-44.4	13.5	7.60e-06	0	62	0	140509184	54	5078
2026-01-27 01:16:02.36	324.78	24.47	-41.2	-44.5	13.5	6.80e-06	0	62	0	142606336	54	5102
2026-01-27 01:16:03.37	324.50	24.52	-41.1	-44.3	13.6	6.80e-06	0	62	0	144703488	54	5021
2026-01-27 01:16:04.37	324.22	24.57	-41.1	-44.2	13.7	6.10e-06	0	62	0	146800640	54	4948
2026-01-27 01:16:05.38	323.95	24.61	-41.1	-44.2	13.7	2.20e-06	0	62	0	147849216	54	4959
2026-01-27 01:16:06.39	323.67	24.66	-41.0	-44.2	13.8	5.30e-06	0	62	0	149946368	54	4928
2026-01-27 01:16:07.40	323.39	24.71	-41.1	-44.2	13.8	6.80e-06	0	62	0	152043520	54	4954
2026-01-27 01:16:08.41	323.11	24.75	-40.9	-44.0	14.0	1.50e-06	0	62	0	154140672	53	5103
2026-01-27 01:16:09.42	322.82	24.80	-40.9	-44.0	13.9	2.20e-06	0	62	0	156237824	53	5114
2026-01-27 01:16:10.43	322.54	24.84	-41.1	-44.2	13.7	3.00e-06	0	62	0	157286400	53	5245
2026-01-27 01:16:11.44	322.26	24.88	-41.1	-44.2	13.7	6.10e-06	0	62	0	159383552	53	5266
2026-01-27 01:16:12.45	321.97	24.93	-41.2	-44.5	13.4	9.90e-06	0	62	0	161480704	53	5447
2026-01-27 01:16:13.46	321.69	24.97	-41.3	-44.5	13.3	1.44e-05	0	62	0	163577856	53	5461
2026-01-27 01:16:14.47	321.40	25.01	-41.3	-44.7	13.2	2.36e-05	0	62	0	165675008	53	5544
2026-01-27 01:16:15.48	321.12	25.05	-41.3	-44.7	13.2	1.90e-05	0	62	0	166723584	53	5533
2026-01-27 01:16:16.49	320.83	25.09	-41.3	-44.7	13.2	2.13e-05	0	62	0	168820736	53	5562
2026-01-27 01:16:17.50	320.54	25.13	-41.3	-44.6	13.3	2.74e-05	0	62	0	170917888	53	5517
2026-01-27 01:16:18.51	320.25	25.17	-41.3	-44.7	13.2	9.10e-06	0	62	0	173015040	53	5558
2026-01-27 01:16:19.52	319.96	25.20	-41.4	-44.9	13.0	1.37e-05	0	62	0	175112192	53	5664
2026-01-27 01:16:20.53	319.67	25.24	-41.5	-44.9	13.0	3.66e-05	0	62	0	176160768	53	5706
2026-01-27 01:16:21.54	319.38	25.28	-41.6	-45.1	12.8	5.18e-05	0	62	0	178257920	53	5797
2026-01-27 01:16:22.55	319.09	25.31	-41.7	-45.3	12.6	9.07e-05	0	62	0	180355072	53	5957
2026-01-27 01:16:23.56	318.80	25.35	-41.7	-45.4	12.5	1.20e-04	0	62	0	182452224	53	6015
2026-01-27 01:16:24.57	318.51	25.38	-41.8	-45.4	12.4	1.17e-04	0	62	0	184549376	54	5718
2026-01-27 01:16:25.58	318.22	25.41	-41.8	-45.4	12.4	1.30e-04	0	62	0	185597952	54	5703
2026-01-27 01:16:26.59	317.92	25.44	-41.7	-45.4	12.5	1.25e-04	0	62	0	187695104	54	5690
2026-01-27 01:16:27.60	317.63	25.48	-41.8	-45.5	12.4	1.83e-04	0	62	0	189792256	54	5734
2026-01-27 01:16:28.61	317.33	25.51	-41.9	-45.8	12.1	1.63e-04	0	62	0	191889408	54	5934
2026-01-27 01:16:29.62	317.04	25.54	-42.0	-45.9	11.9	3.39e-04	0	62	0	193986560	54	6046
2026-01-27 01:16:30.63	316.74	25.57	-42.0	-46.0	11.8	3.75e-04	0	62	0	195035136	54	6109
2026-01-27 01:16:31.64	316.44	25.59	-42.1	-46.0	11.8	4.68e-04	0	62	0	197132288	54	6129
2026-01-27 01:16:32.65	316.15	25.62	-42.1	-46.2	11.7	5.49e-04	0	62	0	199229440	54	6205
2026-01-27 01:16:33.66	315.85	25.65	-42.1	-46.1	11.7	5.03e-04	0	62	0	201326592	54	6189
2026-01-27 01:16:34.67	315.55	25.67	-42.1	-46.1	11.7	5.52e-04	0	62	0	203423744	54	6182
2026-01-27 01:16:35.68	315.25	25.70	-42.1	-46.1	11.7	5.47e-04	0	62	0	205520896	54	6184
2026-01-27 01:16:36.69	314.95	25.72	-42.1	-46.1	11.8	5.07e-04	0	62	0	206569472	54	6135
2026-01-27 01:16:37.70	314.65	25.74	-42.1	-46.1	11.7	4.95e-04	0	62	0	208666624	54	6183
2026-01-27 01:16:38.71	314.35	25.77	-42.1	-46.1	11.8	5.25e-04	0	62	0	210763776	54	6150
2026-01-27 01:16:39.72	314.05	25.79	-42.1	-46.1	11.7	5.16e-04	0	62	0	212860928	54	6163
2026-01-27 01:16:40.73	313.75	25.81	-42.1	-46.2	11.7	5.32e-04	0	62	0	214958080	54	6232
2026-01-27 01:16:41.74	313.45	25.83	-42.0	-46.0	11.8	5.32e-04	0	62	0	216006656	54	6127
2026-01-27 01:16:42.75	313.15	25.85	-42.0	-45.9	11.9	4.08e-04	0	62	0	218103808	54	6037
2026-01-27 01:16:43.76	312.85	25.87	-42.0	-45.9	11.9	3.09e-04	0	62	0	220200960	54	6036
2026-01-27 01:16:44.77	312.54	25.88	-42.0	-45.9	12.0	3.11e-04	0	62	0	222298112	54	6004
2026-01-27 01:16:45.78	312.24	25.90	-42.1	-46.1	11.7	3.89e-04	0	62	0	224395264	54	6182
2026-01-27 01:16:46.79	311.94	25.92	-42.1	-46.2	11.7	6.42e-04	0	62	0	225443840	54	6232
2026-01-27 01:16:47.80	311.63	25.93	-42.2	-46.4	11.5	7.26e-04	0	62	0	227540992	54	6371
2026-01-27 01:16:48.81	311.33	25.94	-42.3	-46.5	11.3	1.00e-03	0	62	0	229638144	55	6113
2026-01-27 01:16:49.82	311.03	25.96	-42.3	-46.6	11.2	1.26e-03	0	62	0	231735296	55	6183
2026-01-27 01:16:50.83	310.72	25.97	-42.3	-46.6	11.2	1.40e-03	0	62	0	233832448	55	6194
2026-01-27 01:16:51.84	310.42	25.98	-42.4	-46.7	11.1	1.62e-03	0	62	0	234881024	55	6258
2026-01-27 01:16:52.85	310.11	25.99	-42.4	-46.8	11.1	1.61e-03	0	62	0	236978176	55	6284
2026-01-27 01:16:53.86	309.81	26.00	-42.4	-46.7	11.0	1.69e-03	0	62	0	239075328	55	6269
2026-01-27 01:16:54.87	309.50	26.01	-42.3	-46.7	11.1	1.74e-03	0	62	0	241172480	55	6220
2026-01-27 01:16:55.88	309.20	26.01	-42.3	-46.5	11.3	1.25e-03	0	62	0	243269632	55	6121
2026-01-27 01:16:56.89	308.89	26.02	-42.2	-46.4	11.4	1.08e-03	0	62	0	244318208	55	6059
2026-01-27 01:16:57.90	308.59	26.03	-42.3	-46.6	11.2	1.22e-03	0	62	0	246415360	55	6194
2026-01-27 01:16:58.91	308.28	26.03	-42.4	-46.8	11.1	1.65e-03	0	62	0	248512512	55	6280
2026-01-27 01:16:59.92	307.98	26.04	-42.4	-46.7	11.1	1.91e-03	0	62	0	250609664	55	6265
2026-01-27 01:17:00.93	307.67	26.04	-42.3	-46.7	11.1	1.76e-03	0	62	0	252706816	55	6224
2026-01-27 01:17:01.94	307.37	26.04	-42.3	-46.6	11.2	1.48e-03	0	62	0	253755392	55	6158
2026-01-27 01:17:02.95	307.06	26.04	-42.2	-46.4	11.4	9.70e-04	0	62	0	255852544	55	6031
2026-01-27 01:17:03.95	306.76	26.04	-42.2	-46.3	11.5	8.23e-04	0	62	0	257949696	55	5976
2026-01-27 01:17:04.96	306.45	26.04	-42.1	-46.1	11.7	7.80e-04	0	62	0	260046848	55	5820
2026-01-27 01:17:05.97	306.15	26.04	-42.0	-45.9	11.9	3.61e-04	0	62	0	262144000	55	5700
2026-01-27 01:17:06.98	305.84	26.04	-41.9	-45.8	12.1	3.29e-04	0	62	0	263192576	55	5627
2026-01-27 01:17:08.00	305.53	26.04	-41.9	-45.7	12.2	2.30e-04	0	62	0	265289728	55	5568
2026-01-27 01:17:09.01	305.23	26.03	-41.9	-45.8	12.1	2.30e-04	0	62	0	267386880	55	5619
2026-01-27 01:17:10.02	304.92	26.03	-42.0	-45.9	12.0	2.71e-04	0	62	0	269484032	55	5669
2026-01-27 01:17:11.03	304.61	26.02	-42.0	-46.0	11.9	3.97e-04	0	62	0	271581184	55	5737
2026-01-27 01:17:12.04	304.31	26.01	-42.0	-45.9	11.9	4.16e-04	0	62	0	273678336	55	5697
2026-01-27 01:17:13.05	304.00	26.01	-41.9	-45.8	12.1	3.53e-04	0	62	0	274726912	55	5593
2026-01-27 01:17:14.06	303.70	26.00	-41.8	-45.5	12.4	1.99e-04	0	62	0	276824064	55	5459
2026-01-27 01:17:15.07	303.39	25.99	-41.8	-45.6	12.3	1.62e-04	0	62	0	278921216	55	5478
2026-01-27 01:17:16.08	303.09	25.98	-41.7	-45.3	12.6	1.36e-04	0	62	0	281018368	55	5280
2026-01-27 01:17:17.09	302.79	25.97	-41.6	-45.1	12.8	7.32e-05	0	62	0	283115520	55	5199
2026-01-27 01:17:18.09	302.48	25.96	-41.5	-45.0	12.9	4.50e-05	0	62	0	284164096	55	5147
2026-01-27 01:17:19.10	302.18	25.94	-41.5	-45.0	12.9	4.65e-05	0	62	0	286261248	55	5122
2026-01-27 01:17:20.11	301.88	25.93	-41.5	-45.0	12.9	6.02e-05	0	62	0	288358400	55	5122
2026-01-27 01:17:21.12	301.57	25.91	-41.5	-44.9	13.0	4.73e-05	0	62	0	290455552	55	5079
2026-01-27 01:17:22.13	301.27	25.90	-41.4	-44.8	13.1	3.12e-05	0	62	0	292552704	54	5310
2026-01-27 01:17:23.14	300.97	25.88	-41.4	-44.8	13.2	1.67e-05	0	62	0	293601280	54	5288
2026-01-27 01:17:24.16	300.66	25.86	-41.4	-44.8	13.1	2.51e-05	0	62	0	295698432	54	5307
2026-01-27 01:17:25.17	300.36	25.85	-41.4	-44.8	13.1	2.67e-05	0	62	0	297795584	54	5305
2026-01-27 01:17:26.18	300.06	25.83	-41.4	-44.7	13.2	1.98e-05	0	62	0	299892736	54	5238
2026-01-27 01:17:27.19	299.75	25.81	-41.3	-44.7	13.3	1.60e-05	0	62	0	301989888	54	5240
2026-01-27 01:17:28.20	299.45	25.79	-41.2	-44.5	13.5	1.14e-05	0	62	0	303038464	54	5110
2026-01-27 01:17:29.21	299.15	25.76	-41.0	-44.1	13.8	3.80e-06	0	62	0	305135616	54	4902
2026-01-27 01:17:30.22	298.85	25.74	-40.9	-43.9	14.0	1.50e-06	0	62	0	307232768	53	5054
2026-01-27 01:17:31.23	298.55	25.72	-41.0	-44.0	13.9	1.50e-06	0	62	0	309329920	53	5143
2026-01-27 01:17:32.24	298.25	25.69	-40.9	-43.9	14.1	2.20e-06	0	62	0	311427072	53	5070
2026-01-27 01:17:33.25	297.95	25.67	-40.9	-44.0	14.0	1.50e-06	0	62	0	312475648	53	5102
2026-01-27 01:17:34.26	297.66	25.64	-41.0	-44.0	13.9	6.80e-06	0	62	0	314572800	53	5140
2026-01-27 01:17:35.27	297.36	25.62	-41.0	-44.1	13.8	2.20e-06	0	62	0	316669952	53	5165
2026-01-27 01:17:36.28	297.06	25.59	-40.9	-44.0	13.9	3.80e-06	0	62	0	318767104	53	5119
2026-01-27 01:17:37.29	296.76	25.56	-40.9	-44.0	13.9	1.50e-06	0	62	0	320864256	53	5111
2026-01-27 01:17:38.30	296.47	25.53	-41.0	-44.0	13.9	3.00e-06	0	62	0	322961408	53	5149
2026-01-27 01:17:39.31	296.17	25.50	-41.0	-44.0	13.9	3.80e-06	0	62	0	324009984	53	5138
2026-01-27 01:17:40.32	295.87	25.47	-40.9	-43.9	13.9	4.50e-06	0	62	0	326107136	53	5098
2026-01-27 01:17:41.33	295.58	25.44	-40.8	-43.8	14.1	1.50e-06	0	62	0	328204288	53	5025
2026-01-27 01:17:42.34	295.29	25.41	-40.9	-43.8	14.1	2.20e-06	0	62	0	330301440	53	5040
2026-01-27 01:17:43.35	294.99	25.38	-40.8	-43.8	14.0	2.20e-06	0	62	0	332398592	53	5041
2026-01-27 01:17:44.36	294.70	25.34	-40.9	-43.9	14.0	3.00e-06	0	62	0	333447168	53	5067
2026-01-27 01:17:45.37	294.41	25.31	-41.0	-44.1	13.8	6.80e-06	0	62	0	335544320	53	5185
2026-01-27 01:17:46.38	294.11	25.27	-41.0	-44.2	13.7	8.30e-06	0	62	0	337641472	53	5243
2026-01-27 01:17:47.39	293.82	25.24	-41.1	-44.3	13.6	1.14e-05	0	62	0	339738624	53	5310
2026-01-27 01:17:48.40	293.53	25.20	-41.2	-44.5	13.4	1.14e-05	0	62	0	341835776	53	5435
2026-01-27 01:17:49.41	293.24	25.16	-41.2	-44.5	13.4	1.37e-05	0	62	0	342884352	53	5412
2026-01-27 01:17:50.42	292.95	25.12	-41.2	-44.5	13.4	1.29e-05	0	62	0	344981504	53	5425
2026-01-27 01:17:51.43	292.67	25.08	-41.2	-44.5	13.4	1.44e-05	0	62	0	347078656	53	5428
2026-01-27 01:17:52.44	292.38	25.04	-41.2	-44.4	13.4	1.67e-05	0	62	0	349175808	53	5402
2026-01-27 01:17:53.45	292.09	25.00	-41.1	-44.4	13.5	7.60e-06	0	62	0	351272960	53	5357
2026-01-27 01:17:54.46	291.81	24.96	-41.2	-44.4	13.5	2.20e-06	0	62	0	352321536	53	5371
2026-01-27 01:17:55.47	291.52	24.92	-41.2	-44.4	13.4	8.30e-06	0	62	0	354418688	53	5393
2026-01-27 01:17:56.48	291.24	24.88	-41.2	-44.4	13.5	7.60e-06	0	62	0	356515840	53	5373
2026-01-27 01:17:57.49	290.95	24.83	-41.2	-44.5	13.4	1.29e-05	0	62	0	358612992	53	5404
2026-01-27 01:17:58.50	290.67	24.79	-41.2	-44.5	13.4	9.10e-06	0	62	0	360710144	53	5430
2026-01-27 01:17:59.51	290.39	24.75	-41.4	-44.8	13.1	1.52e-05	0	62	0	361758720	53	5598
2026-01-27 01:18:00.52	290.10	24.70	-41.4	-44.8	13.0	2.82e-05	0	62	0	363855872	53	5634
2026-01-27 01:18:01.53	289.82	24.65	-41.5	-44.9	13.0	3.12e-05	0	62	0	365953024	53	5694
2026-01-27 01:18:02.54	289.54	24.61	-41.5	-45.0	12.8	4.50e-05	0	62	0	368050176	53	5758
2026-01-27 01:18:03.55	289.27	24.56	-41.5	-45.1	12.8	6.63e-05	0	62	0	370147328	53	5801
2026-01-27 01:18:04.56	288.99	24.51	-41.6	-45.1	12.7	6.02e-05	0	62	0	371195904	53	5836
2026-01-27 01:18:05.57	288.71	24.46	-41.6	-45.2	12.6	8.01e-05	0	62	0	373293056	53	5891
2026-01-27 01:18:06.58	288.43	24.41	-41.6	-45.2	12.6	9.07e-05	0	62	0	375390208	53	5919
2026-01-27 01:18:07.59	288.16	24.36	-41.6	-45.2	12.7	1.14e-04	0	62	0	377487360	53	5908
2026-01-27 01:18:08.60	287.88	24.31	-41.7	-45.4	12.5	1.20e-04	0	62	0	379584512	53	6006
2026-01-27 01:18:09.61	287.61	24.26	-41.6	-45.3	12.5	1.19e-04	0	62	0	381681664	53	5952
2026-01-27 01:18:10.62	287.34	24.21	-41.7	-45.4	12.4	1.17e-04	0	62	0	382730240	53	6008
2026-01-27 01:18:11.63	287.06	24.16	-41.7	-45.4	12.4	1.53e-04	0	62	0	384827392	54	5711
2026-01-27 01:18:12.64	286.79	24.10	-41.8	-45.6	12.2	1.47e-04	0	62	0	386924544	54	5836
2026-01-27 01:18:13.65	286.52	24.05	-41.8	-45.6	12.2	2.05e-04	0	62	0	389021696	54	5839
2026-01-27 01:18:14.66	286.25	24.00	-41.9	-45.9	12.0	2.83e-04	0	62	0	391118848	54	5996
2026-01-27 01:18:15.67	285.99	23.94	-42.0	-46.0	11.8	4.21e-04	0	62	0	392167424	54	6087
2026-01-27 01:18:16.68	285.72	23.89	-42.0	-45.9	11.9	4.62e-04	0	62	0	394264576	54	6052
2026-01-27 01:18:17.69	285.45	23.83	-42.0	-46.0	11.8	4.54e-04	0	62	0	396361728	54	6122
2026-01-27 01:18:18.70	285.19	23.77	-42.0	-46.0	11.8	5.07e-04	0	62	0	398458880	54	6123
2026-01-27 01:18:19.71	284.92	23.72	-42.0	-46.0	11.9	4.25e-04	0	62	0	400556032	54	6063
2026-01-27 01:18:20.72	284.66	23.66	-42.0	-46.0	11.8	4.56e-04	0	62	0	401604608	54	6122
2026-01-27 01:18:21.73	284.40	23.60	-42.1	-46.2	11.6	5.89e-04	0	62	0	403701760	54	6212
2026-01-27 01:18:22.74	284.13	23.54	-42.1	-46.3	11.6	6.97e-04	0	62	0	405798912	54	6276
2026-01-27 01:18:23.75	283.87	23.48	-42.1	-46.2	11.6	7.14e-04	0	62	0	407896064	54	6224
2026-01-27 01:18:24.76	283.61	23.43	-42.2	-46.4	11.4	7.11e-04	0	62	0	409993216	54	6356
2026-01-27 01:18:25.77	283.36	23.37	-42.1	-46.1	11.7	7.59e-04	0	62	0	411041792	54	6190
2026-01-27 01:18:26.78	283.10	23.30	-42.1	-46.2	11.6	5.61e-04	0	62	0	413138944	54	6213
2026-01-27 01:18:27.79	282.84	23.24	-42.1	-46.1	11.6	7.53e-04	0	62	0	415236096	54	6197
2026-01-27 01:18:28.80	282.59	23.18	-42.0	-46.1	11.7	6.53e-04	0	62	0	417333248	54	6138
2026-01-27 01:18:29.81	282.33	23.12	-42.1	-46.2	11.5	7.47e-04	0	62	0	419430400	54	6256
2026-01-27 01:18:30.82	282.08	23.06	-42.0	-46.1	11.6	6.58e-04	0	62	0	420478976	54	6195
2026-01-27 01:18:31.83	281.82	23.00	-42.1	-46.2	11.6	6.13e-04	0	62	0	422576128	54	6209
2026-01-27 01:18:32.84	281.57	22.93	-42.1	-46.3	11.4	7.54e-04	0	62	0	424673280	54	6304
2026-01-27 01:18:33.85	281.32	22.87	-42.1	-46.4	11.4	1.05e-03	0	62	0	426770432	54	6362
2026-01-27 01:18:34.86	281.07	22.80	-42.1	-46.3	11.4	1.06e-03	0	62	0	428867584	54	6335
2026-01-27 01:18:35.87	280.82	22.74	-42.1	-46.4	11.4	9.49e-04	0	62	0	429916160	54	6357
2026-01-27 01:18:36.88	280.58	22.67	-42.1	-46.2	11.6	7.51e-04	0	62	0	432013312	54	6224
2026-01-27 01:18:37.89	280.33	22.61	-42.0	-46.0	11.7	5.76e-04	0	62	0	434110464	54	6080
2026-01-27 01:18:38.90	280.09	22.54	-41.9	-45.9	11.8	5.45e-04	0	62	0	436207616	54	6060
2026-01-27 01:18:39.91	279.84	22.48	-42.0	-46.0	11.8	4.94e-04	0	62	0	438304768	54	6087
2026-01-27 01:18:40.92	279.60	22.41	-42.0	-46.1	11.6	6.42e-04	0	62	0	439353344	54	6164
2026-01-27 01:18:41.93	279.36	22.34	-42.1	-46.3	11.5	7.45e-04	0	62	0	441450496	54	6278
2026-01-27 01:18:42.94	279.11	22.28	-42.1	-46.2	11.6	7.22e-04	0	62	0	443547648	54	6249
2026-01-27 01:18:43.96	278.87	22.21	-42.1	-46.3	11.4	8.44e-04	0	62	0	445644800	54	6291
2026-01-27 01:18:44.96	278.64	22.14	-42.0	-46.2	11.6	8.58e-04	0	62	0	447741952	54	6220
2026-01-27 01:18:45.97	278.40	22.07	-41.9	-45.9	11.8	5.26e-04	0	62	0	449839104	54	6039
2026-01-27 01:18:46.98	278.16	22.00	-41.9	-45.8	12.0	4.09e-04	0	62	0	450887680	54	5965
2026-01-27 01:18:47.99	277.92	21.94	-41.8	-45.7	12.1	2.93e-04	0	62	0	452984832	54	5859
2026-01-27 01:18:49.00	277.69	21.87	-41.8	-45.6	12.2	2.19e-04	0	62	0	455081984	54	5795
2026-01-27 01:18:50.01	277.46	21.80	-41.8	-45.6	12.2	1.91e-04	0	62	0	457179136	54	5834
2026-01-27 01:18:51.02	277.22	21.73	-41.8	-45.7	12.1	2.74e-04	0	62	0	459276288	54	5874
2026-01-27 01:18:52.03	276.99	21.66	-41.8	-45.6	12.1	2.41e-04	0	62	0	460324864	54	5824
2026-01-27 01:18:53.04	276.76	21.59	-41.7	-45.6	12.2	2.43e-04	0	62	0	462422016	54	5800
2026-01-27 01:18:54.06	276.53	21.51	-41.6	-45.3	12.4	1.70e-04	0	62	0	464519168	54	5648
2026-01-27 01:18:55.07	276.30	21.44	-41.6	-45.3	12.5	1.49e-04	0	62	0	466616320	54	5597
2026-01-27 01:18:56.08	276.07	21.37	-41.5	-45.1	12.6	1.03e-04	0	62	0	468713472	54	5521
2026-01-27 01:18:57.09	275.85	21.30	-41.5	-45.0	12.7	8.85e-05	0	62	0	469762048	54	5453
2026-01-27 01:18:58.10	275.62	21.23	-41.4	-45.0	12.7	6.71e-05	0	62	0	471859200	54	5410
2026-01-27 01:18:59.11	275.40	21.15	-41.5	-45.1	12.7	9.53e-05	0	62	0	473956352	54	5495
2026-01-27 01:19:00.12	275.17	21.08	-41.5	-45.1	12.7	9.07e-05	0	62	0	476053504	54	5469
2026-01-27 01:19:01.13	274.95	21.01	-41.5	-45.1	12.6	7.70e-05	0	62	0	478150656	54	5512
2026-01-27 01:19:02.14	274.73	20.94	-41.6	-45.3	12.5	1.24e-04	0	62	0	479199232	54	5604
2026-01-27 01:19:03.15	274.51	20.86	-41.6	-45.3	12.5	1.14e-04	0	62	0	481296384	54	5599
2026-01-27 01:19:04.16	274.29	20.79	-41.6	-45.3	12.4	1.01e-04	0	62	0	483393536	54	5613
2026-01-27 01:19:05.17	274.07	20.72	-41.6	-45.2	12.5	1.07e-04	0	62	0	485490688	54	5568
2026-01-27 01:19:06.18	273.86	20.64	-41.6	-45.2	12.5	1.20e-04	0	62	0	487587840	54	5583
2026-01-27 01:19:07.19	273.64	20.57	-41.5	-45.2	12.6	1.10e-04	0	62	0	488636416	54	5541
2026-01-27 01:19:08.19	273.43	20.49	-41.5	-45.1	12.7	8.69e-05	0	62	0	490733568	54	5483
2026-01-27 01:19:09.20	273.21	20.42	-41.5	-45.0	12.7	6.56e-05	0	62	0	492830720	54	5453
2026-01-27 01:19:10.21	273.00	20.35	-41.5	-45.1	12.7	1.07e-04	0	62	0	494927872	54	5481
2026-01-27 01:19:11.22	272.79	20.27	-41.5	-45.1	12.7	8.46e-05	0	62	0	497025024	54	5492
2026-01-27 01:19:12.23	272.58	20.20	-41.5	-45.2	12.5	1.06e-04	0	62	0	498073600	54	5560
2026-01-27 01:19:13.24	272.37	20.12	-41.6	-45.3	12.5	1.24e-04	0	62	0	500170752	54	5611
2026-01-27 01:19:14.24	272.16	20.05	-41.6	-45.4	12.3	1.28e-04	0	62	0	502267904	54	5704
2026-01-27 01:19:15.25	271.95	19.97	-41.6	-45.3	12.4	1.65e-04	0	62	0	504365056	54	5643
2026-01-27 01:19:16.26	271.75	19.89	-41.6	-45.3	12.4	1.50e-04	0	62	0	506462208	54	5627
2026-01-27 01:19:17.28	271.54	19.82	-41.6	-45.3	12.4	1.50e-04	0	62	0	507510784	54	5598
2026-01-27 01:19:18.28	271.34	19.74	-41.6	-45.4	12.3	1.54e-04	0	62	0	509607936	54	5691
2026-01-27 01:19:19.29	271.13	19.67	-41.6	-45.4	12.3	2.04e-04	0	62	0	511705088	54	5679
2026-01-27 01:19:20.31	270.93	19.59	-41.6	-45.3	12.4	1.46e-04	0	62	0	513802240	54	5626
2026-01-27 01:19:21.31	270.73	19.51	-41.5	-45.1	12.6	1.22e-04	0	62	0	515899392	54	5518
2026-01-27 01:19:22.32	270.53	19.44	-41.5	-45.1	12.6	1.03e-04	0	62	0	517996544	54	5514
2026-01-27 01:19:23.33	270.33	19.36	-41.5	-45.2	12.5	1.06e-04	0	62	0	519045120	54	5532
2026-01-27 01:19:24.34	270.13	19.28	-41.4	-45.1	12.6	8.54e-05	0	62	0	521142272	54	5472
2026-01-27 01:19:25.35	269.93	19.20	-41.4	-45.1	12.6	1.01e-04	0	62	0	523239424	54	5472
2026-01-27 01:19:26.36	269.74	19.13	-41.4	-45.0	12.7	7.24e-05	0	62	0	525336576	54	5418
2026-01-27 01:19:27.37	269.54	19.05	-41.4	-45.0	12.7	8.77e-05	0	62	0	527433728	54	5444
2026-01-27 01:19:28.38	269.35	18.97	-41.4	-45.1	12.6	7.09e-05	0	62	0	528482304	54	5466
2026-01-27 01:19:29.39	269.15	18.90	-41.4	-44.9	12.8	6.56e-05	0	62	0	530579456	54	5396
2026-01-27 01:19:30.40	268.96	18.82	-41.3	-44.9	12.9	6.17e-05	0	62	0	532676608	54	5344
2026-01-27 01:19:31.41	268.77	18.74	-41.3	-44.9	12.8	5.79e-05	0	62	0	534773760	54	5350
2026-01-27 01:19:32.42	268.58	18.66	-41.4	-44.9	12.8	6.48e-05	0	62	0	536870912	54	5379
2026-01-27 01:19:33.43	268.39	18.58	-41.3	-44.8	12.9	6.56e-05	0	62	0	537919488	54	5295
2026-01-27 01:19:34.44	268.20	18.51	-41.2	-44.7	13.0	3.89e-05	0	62	0	540016640	54	5221
2026-01-27 01:19:35.45	268.01	18.43	-41.2	-44.6	13.1	2.36e-05	0	62	0	542113792	54	5163
2026-01-27 01:19:36.46	267.83	18.35	-41.2	-44.6	13.1	3.58e-05	0	62	0	544210944	54	5163
2026-01-27 01:19:37.47	267.64	18.27	-41.1	-44.5	13.1	2.67e-05	0	62	0	546308096	54	5145
2026-01-27 01:19:38.48	267.46	18.19	-41.1	-44.5	13.1	2.89e-05	0	62	0	547356672	54	5141
2026-01-27 01:19:39.49	267.27	18.12	-41.1	-44.5	13.1	3.12e-05	0	62	0	549453824	54	5156
2026-01-27 01:19:40.50	267.09	18.04	-41.0	-44.4	13.3	1.90e-05	0	62	0	551550976	54	5057
2026-01-27 01:19:41.51	266.91	17.96	-41.1	-44.4	13.3	1.98e-05	0	62	0	553648128	54	5064
2026-01-27 01:19:42.52	266.73	17.88	-41.0	-44.3	13.4	1.29e-05	0	62	0	555745280	54	4994
2026-01-27 01:19:43.53	266.55	17.80	-40.9	-44.2	13.4	8.30e-06	0	62	0	556793856	53	5272
2026-01-27 01:19:44.54	266.37	17.72	-41.0	-44.4	13.3	1.52e-05	0	62	0	558891008	53	5346
2026-01-27 01:19:45.55	266.19	17.65	-41.0	-44.3	13.3	2.21e-05	0	62	0	560988160	53	5310
2026-01-27 01:19:46.55	266.02	17.57	-41.0	-44.3	13.4	1.06e-05	0	62	0	563085312	53	5293
2026-01-27 01:19:47.56	265.84	17.49	-41.0	-44.3	13.4	9.90e-06	0	62	0	565182464	53	5306
2026-01-27 01:19:48.57	265.66	17.41	-41.0	-44.4	13.3	1.60e-05	0	62	0	566231040	53	5364
2026-01-27 01:19:49.58	265.49	17.33	-41.1	-44.4	13.2	2.21e-05	0	62	0	568328192	53	5382
2026-01-27 01:19:50.59	265.32	17.25	-41.0	-44.3	13.3	1.29e-05	0	62	0	570425344	53	5333
2026-01-27 01:19:51.60	265.14	17.17	-41.0	-44.4	13.3	1.83e-05	0	62	0	572522496	53	5355
2026-01-27 01:19:52.61	264.97	17.10	-41.0	-44.4	13.3	2.21e-05	0	62	0	574619648	53	5371
2026-01-27 01:19:53.62	264.80	17.02	-41.0	-44.3	13.4	1.90e-05	0	62	0	575668224	53	5285
2026-01-27 01:19:54.63	264.63	16.94	-40.9	-44.2	13.5	1.14e-05	0	62	0	577765376	53	5226
2026-01-27 01:19:55.64	264.46	16.86	-41.0	-44.3	13.4	7.60e-06	0	62	0	579862528	53	5280
2026-01-27 01:19:56.65	264.29	16.78	-40.9	-44.1	13.6	1.14e-05	0	62	0	581959680	53	5181
2026-01-27 01:19:57.67	264.13	16.70	-40.9	-44.2	13.5	1.22e-05	0	62	0	584056832	53	5232
2026-01-27 01:19:58.68	263.96	16.62	-41.0	-44.3	13.3	9.10e-06	0	62	0	586153984	53	5330
2026-01-27 01:19:59.69	263.79	16.54	-41.1	-44.4	13.2	1.83e-05	0	62	0	587202560	53	5394
2026-01-27 01:20:00.70	263.63	16.47	-41.1	-44.4	13.2	1.67e-05	0	62	0	589299712	53	5378
2026-01-27 01:20:01.71	263.47	16.39	-41.1	-44.5	13.1	2.05e-05	0	62	0	591396864	53	5450
2026-01-27 01:20:02.72	263.30	16.31	-41.1	-44.6	13.1	3.73e-05	0	62	0	593494016	53	5479
2026-01-27 01:20:03.73	263.14	16.23	-41.2	-44.6	13.0	3.43e-05	0	62	0	595591168	53	5496
2026-01-27 01:20:04.74	262.98	16.15	-41.1	-44.5	13.1	3.35e-05	0	62	0	596639744	53	5436
2026-01-27 01:20:05.75	262.82	16.07	-41.0	-44.4	13.2	2.74e-05	0	62	0	598736896	53	5360
2026-01-27 01:20:06.76	262.66	15.99	-41.0	-44.3	13.3	1.98e-05	0	62	0	600834048	53	5297
2026-01-27 01:20:07.77	262.50	15.92	-41.0	-44.3	13.3	1.67e-05	0	62	0	602931200	53	5292
2026-01-27 01:20:08.78	262.34	15.84	-41.0	-44.4	13.2	1.14e-05	0	62	0	605028352	53	5346
2026-01-27 01:20:09.79	262.19	15.76	-41.0	-44.3	13.3	2.28e-05	0	62	0	606076928	53	5332
2026-01-27 01:20:10.80	262.03	15.68	-41.0	-44.4	13.2	2.36e-05	0	62	0	608174080	53	5351
2026-01-27 01:20:11.81	261.88	15.60	-41.0	-44.3	13.3	1.83e-05	0	62	0	610271232	53	5313
2026-01-27 01:20:12.82	261.72	15.52	-41.0	-44.3	13.2	1.67e-05	0	62	0	612368384	53	5336
2026-01-27 01:20:13.83	261.57	15.44	-41.0	-44.5	13.1	2.13e-05	0	62	0	614465536	53	5419
2026-01-27 01:20:14.84	261.41	15.37	-41.1	-44.6	13.0	3.43e-05	0	62	0	615514112	53	5468
2026-01-27 01:20:15.85	261.26	15.29	-41.1	-44.6	13.0	3.66e-05	0	62	0	617611264	53	5479
2026-01-27 01:20:16.86	261.11	15.21	-41.1	-44.6	13.0	5.56e-05	0	62	0	619708416	53	5483
2026-01-27 01:20:17.87	260.96	15.13	-41.2	-44.8	12.8	4.73e-05	0	62	0	621805568	53	5602
2026-01-27 01:20:18.87	260.81	15.05	-41.2	-44.7	12.8	6.56e-05	0	62	0	623902720	53	5558
2026-01-27 01:20:19.88	260.66	14.98	-41.3	-44.9	12.7	8.62e-05	0	62	0	624951296	53	5679
2026-01-27 01:20:20.89	260.52	14.90	-41.2	-44.8	12.7	6.94e-05	0	62	0	627048448	53	5645
2026-01-27 01:20:21.90	260.37	14.82	-41.3	-45.0	12.5	9.68e-05	0	62	0	629145600	53	5765
2026-01-27 01:20:22.91	260.22	14.74	-41.4	-45.1	12.4	1.33e-04	0	62	0	631242752	53	5813
2026-01-27 01:20:23.92	260.08	14.67	-41.4	-45.2	12.2	1.78e-04	0	62	0	633339904	53	5921
2026-01-27 01:20:24.93	259.93	14.59	-41.5	-45.4	12.0	2.94e-04	0	62	0	634388480	53	6040
2026-01-27 01:20:25.94	259.79	14.51	-41.6	-45.6	11.9	3.35e-04	0	62	0	636485632	53	6162
2026-01-27 01:20:26.95	259.64	14.43	-41.6	-45.6	11.8	3.56e-04	0	62	0	638582784	53	6191
2026-01-27 01:20:27.96	259.50	14.35	-41.6	-45.7	11.8	4.35e-04	0	62	0	640679936	53	6218
2026-01-27 01:20:28.97	259.36	14.28	-41.7	-45.7	11.8	5.12e-04	0	62	0	642777088	53	6229
2026-01-27 01:20:29.98	259.22	14.20	-41.7	-45.7	11.7	5.60e-04	0	62	0	643825664	53	6245
2026-01-27 01:20:30.99	259.08	14.12	-41.6	-45.7	11.8	5.91e-04	0	62	0	645922816	53	6213
2026-01-27 01:20:32.00	258.94	14.05	-41.6	-45.5	12.0	4.82e-04	0	62	0	648019968	54	5771
2026-01-27 01:20:33.01	258.80	13.97	-41.5	-45.5	12.0	3.70e-04	0	62	0	650117120	54	5733
2026-01-27 01:20:34.02	258.66	13.89	-41.5	-45.3	12.1	3.20e-04	0	62	0	652214272	54	5604
2026-01-27 01:20:35.03	258.52	13.81	-41.4	-45.2	12.2	2.27e-04	0	62	0	654311424	54	5586
2026-01-27 01:20:36.04	258.39	13.74	-41.5	-45.3	12.1	2.77e-04	0	62	0	655360000	54	5648
2026-01-27 01:20:37.05	258.25	13.66	-41.5	-45.5	12.0	2.93e-04	0	62	0	657457152	54	5727
2026-01-27 01:20:38.06	258.12	13.58	-41.6	-45.5	11.9	4.02e-04	0	62	0	659554304	54	5781
2026-01-27 01:20:39.07	257.98	13.51	-41.6	-45.6	11.8	4.28e-04	0	62	0	661651456	54	5844
2026-01-27 01:20:40.08	257.85	13.43	-41.7	-45.7	11.7	5.90e-04	0	62	0	663748608	54	5917
2026-01-27 01:20:41.09	257.71	13.35	-41.7	-45.9	11.5	8.66e-04	0	62	0	664797184	54	6021
2026-01-27 01:20:42.10	257.58	13.28	-41.7	-45.9	11.5	8.91e-04	0	62	0	666894336	54	6039
2026-01-27 01:20:43.11	257.45	13.20	-41.7	-46.0	11.4	8.73e-04	0	62	0	668991488	54	6094
2026-01-27 01:20:44.12	257.32	13.12	-41.8	-46.0	11.4	9.70e-04	0	62	0	671088640	54	6086
2026-01-27 01:20:45.12	257.19	13.05	-41.7	-45.9	11.5	8.38e-04	0	62	0	673185792	54	6030
2026-01-27 01:20:46.14	257.06	12.97	-41.7	-45.9	11.5	7.12e-04	0	62	0	674234368	54	6025
2026-01-27 01:20:47.15	256.93	12.90	-41.7	-45.9	11.5	7.47e-04	0	62	0	676331520	54	6015
2026-01-27 01:20:48.16	256.80	12.82	-41.7	-45.8	11.6	7.54e-04	0	62	0	678428672	54	5968
2026-01-27 01:20:49.17	256.67	12.75	-41.7	-45.8	11.6	6.93e-04	0	62	0	680525824	54	5959
2026-01-27 01:20:50.18	256.55	12.67	-41.7	-45.9	11.4	9.96e-04	0	62	0	682622976	54	6024
2026-01-27 01:20:51.19	256.42	12.59	-41.6	-45.8	11.6	1.05e-03	0	62	0	683671552	54	5956
2026-01-27 01:20:52.20	256.29	12.52	-41.7	-46.0	11.3	1.14e-03	0	62	0	685768704	54	6085
2026-01-27 01:20:53.21	256.17	12.44	-41.7	-46.0	11.3	1.16e-03	0	62	0	687865856	54	6092
2026-01-27 01:20:54.22	256.04	12.37	-41.7	-46.0	11.2	1.78e-03	0	62	0	689963008	54	6102
2026-01-27 01:20:55.23	255.92	12.29	-41.8	-46.1	11.1	2.43e-03	0	62	0	692060160	54	6140
2026-01-27 01:20:56.23	255.80	12.22	-41.9	-46.3	11.0	4.02e-03	0	62	0	693108736	54	6298
2026-01-27 01:20:57.24	255.68	12.14	-41.8	-46.2	11.0	2.65e-03	0	62	0	695205888	54	6245
2026-01-27 01:20:58.25	255.55	12.07	-41.9	-46.3	11.0	2.19e-03	0	62	0	697303040	54	6308
2026-01-27 01:20:59.26	255.43	11.99	-41.9	-46.4	10.9	2.15e-03	0	62	0	699400192	54	6364
2026-01-27 01:21:00.27	255.31	11.92	-41.9	-46.5	10.8	2.41e-03	0	62	0	701497344	54	6442
2026-01-27 01:21:01.28	255.19	11.84	-41.9	-46.4	10.9	2.48e-03	0	62	0	702545920	54	6392
2026-01-27 01:21:02.29	255.07	11.77	-41.9	-46.3	11.0	2.04e-03	0	62	0	704643072	54	6312
2026-01-27 01:21:03.30	254.95	11.70	-41.9	-46.3	10.9	2.11e-03	0	62	0	706740224	54	6343
2026-01-27 01:21:04.31	254.84	11.62	-41.9	-46.3	11.0	2.17e-03	0	62	0	708837376	54	6306
2026-01-27 01:21:05.32	254.72	11.55	-41.9	-46.3	11.0	1.98e-03	0	62	0	710934528	54	6319
2026-01-27 01:21:06.33	254.60	11.47	-41.8	-46.3	11.0	1.92e-03	0	62	0	711983104	54	6279
2026-01-27 01:21:07.34	254.49	11.40	-41.8	-46.2	11.1	1.87e-03	0	62	0	714080256	54	6238
2026-01-27 01:21:08.35	254.37	11.32	-41.9	-46.3	10.9	2.00e-03	0	62	0	716177408	54	6339
2026-01-27 01:21:09.36	254.25	11.25	-41.9	-46.3	10.9	1.93e-03	0	62	0	718274560	54	6329
2026-01-27 01:21:10.37	254.14	11.18	-41.8	-46.3	10.9	2.03e-03	0	62	0	720371712	54	6319
2026-01-27 01:21:11.38	254.03	11.10	-41.9	-46.5	10.7	2.68e-03	0	62	0	722468864	54	6438
2026-01-27 01:21:12.39	253.91	11.03	-41.9	-46.4	10.8	2.49e-03	0	62	0	723517440	54	6383
2026-01-27 01:21:13.40	253.80	10.96	-41.9	-46.5	10.7	3.00e-03	0	62	0	725614592	54	6489
2026-01-27 01:21:14.41	253.69	10.88	-41.9	-46.5	10.7	3.02e-03	0	62	0	727711744	54	6422
2026-01-27 01:21:15.42	253.58	10.81	-42.0	-46.6	10.6	3.34e-03	0	62	0	729808896	54	6547
2026-01-27 01:21:16.43	253.46	10.74	-41.9	-46.5	10.7	3.22e-03	0	62	0	731906048	54	6464
2026-01-27 01:21:17.44	253.35	10.67	-41.9	-46.5	10.6	3.12e-03	0	62	0	732954624	54	6476
2026-01-27 01:21:18.45	253.24	10.59	-41.9	-46.4	10.8	2.64e-03	0	62	0	735051776	54	6388
2026-01-27 01:21:19.46	253.13	10.52	-41.8	-46.3	10.8	2.55e-03	0	62	0	737148928	54	6346
2026-01-27 01:21:20.47	253.03	10.45	-41.9	-46.5	10.7	2.52e-03	0	62	0	739246080	54	6442
2026-01-27 01:21:21.48	252.92	10.37	-41.9	-46.5	10.6	3.33e-03	0	62	0	741343232	54	6488
2026-01-27 01:21:22.49	252.81	10.30	-41.9	-46.6	10.5	3.56e-03	0	62	0	742391808	54	6543
2026-01-27 01:21:23.50	252.70	10.23	-41.9	-46.6	10.5	3.77e-03	0	62	0	744488960	54	6544
2026-01-27 01:21:24.52	252.59	10.16	-42.0	-46.9	10.2	4.55e-03	0	62	0	746586112	54	6756
2026-01-27 01:21:25.53	252.49	10.09	-42.1	-47.1	10.0	6.41e-03	0	62	0	748683264	54	6936
2026-01-27 01:21:26.54	252.38	10.01	-42.1	-47.1	10.0	7.21e-03	0	62	0	750780416	54	6933
2026-01-27 01:21:27.55	252.28	9.94	-42.1	-47.2	9.9	8.31e-03	0	62	0	751828992	54	7000
2026-01-27 01:21:28.56	252.17	9.87	-42.2	-47.3	9.8	1.03e-02	0	62	0	753926144	54	7057
2026-01-27 01:21:29.57	252.07	9.80	-42.2	-47.4	9.7	1.05e-02	0	62	0	756023296	54	7123
2026-01-27 01:21:30.58	251.96	9.73	-42.2	-47.3	9.8	1.09e-02	0	62	0	758120448	54	7103
2026-01-27 01:21:31.59	251.86	9.66	-42.2	-47.5	9.6	1.17e-02	0	62	0	760217600	55	6810
2026-01-27 01:21:32.60	251.76	9.59	-42.2	-47.4	9.6	1.19e-02	0	62	0	762314752	55	6767
2026-01-27 01:21:33.61	251.66	9.51	-42.2	-47.5	9.5	1.29e-02	0	62	0	763363328	55	6856
2026-01-27 01:21:34.62	251.56	9.44	-42.2	-47.4	9.6	1.25e-02	0	62	0	765460480	55	6752
2026-01-27 01:21:35.63	251.45	9.37	-42.2	-47.5	9.5	1.36e-02	0	62	0	767557632	55	6804
2026-01-27 01:21:36.64	251.35	9.30	-42.2	-47.5	9.5	1.31e-02	0	62	0	769654784	55	6836
2026-01-27 01:21:37.65	251.25	9.23	-42.2	-47.6	9.4	1.60e-02	0	62	0	771751936	55	6905
2026-01-27 01:21:38.65	251.16	9.16	-42.2	-47.6	9.3	1.79e-02	0	62	0	772800512	55	6939
2026-01-27 01:21:39.66	251.06	9.09	-42.2	-47.6	9.4	1.77e-02	0	62	0	774897664	55	6903
2026-01-27 01:21:40.68	250.96	9.02	-42.2	-47.6	9.4	1.94e-02	0	62	0	776994816	55	6895
2026-01-27 01:21:41.68	250.86	8.95	-42.3	-47.7	9.3	1.99e-02	0	62	0	779091968	55	7018
2026-01-27 01:21:42.69	250.76	8.88	-42.3	-47.8	9.2	2.21e-02	0	62	0	781189120	55	7057
2026-01-27 01:21:43.70	250.66	8.81	-42.3	-47.9	9.1	2.09e-02	0	62	0	782237696	55	7130
2026-01-27 01:21:44.72	250.57	8.74	-42.3	-47.9	9.0	2.50e-02	0	62	0	784334848	55	7156
2026-01-27 01:21:45.72	250.47	8.67	-42.3	-48.0	9.0	2.47e-02	0	62	0	786432000	55	7234
2026-01-27 01:21:46.74	250.38	8.60	-42.3	-48.0	8.9	2.64e-02	0	62	0	788529152	55	7257
2026-01-27 01:21:47.75	250.28	8.53	-42.4	-48.1	8.9	2.76e-02	0	62	0	790626304	55	7288
2026-01-27 01:21:48.76	250.19	8.46	-42.3	-48.0	9.0	2.68e-02	0	62	0	791674880	55	7224
2026-01-27 01:21:49.77	250.09	8.39	-42.3	-48.0	8.9	3.01e-02	0	62	0	793772032	55	7256
2026-01-27 01:21:50.78	250.00	8.32	-42.3	-48.0	9.0	2.88e-02	0	62	0	795869184	55	7214
2026-01-27 01:21:51.79	249.90	8.26	-42.3	-48.0	8.9	3.05e-02	0	62	0	797966336	55	7255
2026-01-27 01:21:52.80	249.81	8.19	-42.3	-47.8	9.0	3.08e-02	0	62	0	800063488	55	7085
2026-01-27 01:21:53.81	249.72	8.12	-42.2	-47.8	9.1	2.35e-02	0	62	0	801112064	55	7049
2026-01-27 01:21:54.82	249.63	8.05	-42.3	-47.9	9.0	2.43e-02	0	62	0	803209216	55	7142
2026-01-27 01:21:55.83	249.53	7.98	-44.1	-57.2	3.9	1.95e-01	0	62	0	805306368	58	17567
2026-01-27 01:21:56.84	249.44	7.91	-44.5	-58.9	3.8	1.49e+00	0	62	104	805306368	59	20158
2026-01-27 01:21:57.85	249.35	7.84	-44.7	-59.3	3.8	1.49e+00	0	62	104	805306368	60	19953
2026-01-27 01:21:58.86	249.26	7.78	-44.8	-59.4	3.8	1.49e+00	0	62	104	805306368	60	20076
2026-01-27 01:21:59.87	249.17	7.71	-44.9	-59.5	3.8	1.49e+00	0	62	104	805306368	60	20333
2026-01-27 01:22:00.88	249.08	7.64	-44.9	-59.5	3.8	1.49e+00	0	62	104	805306368	60	20450
2026-01-27 01:22:01.89	248.99	7.57	-45.0	-59.6	3.8	1.49e+00	0	62	104	805306368	60	20549
2026-01-27 01:22:02.90	248.90	7.50	-45.0	-59.6	3.8	1.49e+00	0	62	104	805306368	60	20678
2026-01-27 01:22:03.91	248.82	7.44	-45.1	-59.6	3.8	1.49e+00	0	62	104	805306368	60	20654
2026-01-27 01:22:04.92	248.73	7.37	-45.0	-59.6	3.8	1.49e+00	0	62	104	805306368	60	20615
2026-01-27 01:22:05.93	248.64	7.30	-45.0	-59.6	3.8	1.49e+00	0	62	104	805306368	60	20665
2026-01-27 01:22:06.94	248.55	7.23	-45.0	-59.5	3.8	1.49e+00	0	62	104	805306368	60	20393
2026-01-27 01:22:07.95	248.47	7.17	-45.0	-59.5	3.8	1.49e+00	0	62	104	805306368	60	20413
2026-01-27 01:22:08.96	248.38	7.10	-45.0	-59.5	3.8	1.49e+00	0	62	104	805306368	60	20415
2026-01-27 01:22:09.97	248.30	7.03	-45.0	-59.5	3.8	1.49e+00	0	62	104	805306368	60	20376
2026-01-27 01:22:10.98	248.21	6.97	-45.0	-59.5	3.8	1.49e+00	0	62	104	805306368	60	20382
2026-01-27 01:22:11.99	248.13	6.90	-44.9	-59.5	3.8	1.49e+00	0	62	104	805306368	60	20305
2026-01-27 01:22:13.00	248.04	6.83	-44.9	-59.4	3.8	1.49e+00	0	62	104	805306368	60	20254
2026-01-27 01:22:14.01	247.96	6.77	-44.9	-59.4	3.8	1.49e+00	0	62	104	805306368	60	20280
2026-01-27 01:22:15.02	247.87	6.70	-44.9	-59.4	3.8	1.49e+00	0	62	104	805306368	60	20245
2026-01-27 01:22:16.04	247.79	6.63	-44.9	-59.4	3.8	1.49e+00	0	62	104	805306368	60	20277
2026-01-27 01:22:17.04	247.71	6.57	-44.9	-59.4	3.8	1.49e+00	0	62	104	805306368	60	20246
2026-01-27 01:22:18.06	247.62	6.50	-44.9	-59.4	3.8	1.49e+00	0	62	104	805306368	60	20254
2026-01-27 01:22:19.07	247.54	6.44	-44.9	-59.4	3.8	1.49e+00	0	62	104	805306368	60	20238
2026-01-27 01:22:20.08	247.46	6.37	-44.9	-59.4	3.8	1.49e+00	0	62	104	805306368	60	20206
