passes_logs/2026/01/27/R2.0S_Moscow/R2.0S_Moscow__20260127_000652_FENGYUN_3D_rec.log

#Pass ID: 20260127_000652_FENGYUN 3D
#Satellite: FENGYUN 3D
#Configuration: FENGYUN 3D
#almurnet v.1.7.20251203
#Start time: 2026-01-27 00:06:54

#Version: 2.2.20231116
#Station: R2.0S_Moscow
#Location: 37.707566 lon 55.798166 lat
#TLE: 1 43010U 17072A   26026.49129444  .00000151  00000+0  93391-4 0  9993
#TLE: 2 43010  98.9962 358.4866 0002525  88.1664 271.9801 14.19700337424889

#Time	Az	El	Level	Level2	SNR	BER	BlckErr	Temp	State	Recorded	gain1	gain2
2026-01-27 00:06:54.75	27.33	2.12	-42.7	-54.2	3.8	8.45e-01	0	53	0	0	57	13207
2026-01-27 00:06:55.76	27.41	2.18	-42.6	-54.2	3.8	8.46e-01	0	53	104	0	57	13235
2026-01-27 00:06:56.77	27.49	2.23	-42.6	-54.2	3.8	8.46e-01	0	53	104	0	57	13243
2026-01-27 00:06:57.78	27.57	2.28	-42.6	-54.2	3.8	8.46e-01	0	53	104	0	57	13178
2026-01-27 00:06:58.79	27.65	2.33	-42.6	-54.2	3.8	8.46e-01	0	53	104	0	57	13176
2026-01-27 00:06:59.80	27.73	2.39	-42.7	-54.2	3.8	8.45e-01	0	53	104	0	57	13260
2026-01-27 00:07:00.81	27.81	2.44	-42.7	-54.2	3.8	8.46e-01	0	54	104	0	57	13203
2026-01-27 00:07:01.82	27.89	2.49	-42.7	-54.2	3.8	8.47e-01	0	54	104	0	57	13238
2026-01-27 00:07:02.83	27.98	2.55	-42.7	-54.2	3.8	8.46e-01	0	54	104	0	57	13232
2026-01-27 00:07:03.84	28.06	2.60	-42.7	-54.2	3.8	8.46e-01	0	54	104	0	57	13211
2026-01-27 00:07:04.85	28.14	2.65	-42.7	-54.2	3.8	8.47e-01	0	53	104	0	57	13245
2026-01-27 00:07:05.86	28.22	2.71	-42.6	-54.2	3.8	8.47e-01	0	54	104	0	57	13195
2026-01-27 00:07:06.87	28.31	2.76	-42.6	-54.2	3.8	8.45e-01	0	54	104	0	57	13208
2026-01-27 00:07:07.88	28.39	2.81	-42.6	-54.2	3.8	8.45e-01	0	54	104	0	57	13194
2026-01-27 00:07:08.89	28.47	2.87	-42.6	-54.2	3.8	8.45e-01	0	54	104	0	57	13156
2026-01-27 00:07:09.90	28.56	2.92	-42.6	-54.2	3.8	8.45e-01	0	54	104	0	57	13226
2026-01-27 00:07:10.91	28.64	2.98	-42.6	-54.2	3.8	8.45e-01	0	54	104	0	57	13199
2026-01-27 00:07:11.92	28.73	3.03	-42.6	-54.2	3.8	8.45e-01	0	54	104	0	57	13147
2026-01-27 00:07:12.93	28.81	3.08	-42.6	-54.2	3.8	8.46e-01	0	54	104	0	57	13165
2026-01-27 00:07:13.94	28.90	3.14	-42.6	-54.2	3.8	8.46e-01	0	54	104	0	57	13198
2026-01-27 00:07:14.95	28.98	3.19	-42.6	-54.2	3.8	8.47e-01	0	54	104	0	57	13136
2026-01-27 00:07:15.96	29.07	3.25	-42.6	-54.2	3.8	8.46e-01	0	54	104	0	57	13152
2026-01-27 00:07:16.97	29.15	3.30	-42.6	-54.2	3.8	8.46e-01	0	54	104	0	57	13206
2026-01-27 00:07:17.98	29.24	3.35	-42.6	-54.2	3.8	8.47e-01	0	55	104	0	57	13167
2026-01-27 00:07:18.99	29.32	3.41	-42.6	-54.2	3.8	8.45e-01	0	55	104	0	57	13169
2026-01-27 00:07:20.00	29.41	3.46	-42.6	-54.2	3.8	8.45e-01	0	55	104	0	57	13178
2026-01-27 00:07:21.01	29.50	3.52	-42.6	-54.2	3.8	8.45e-01	0	55	104	0	57	13185
2026-01-27 00:07:22.02	29.59	3.57	-42.6	-54.2	3.8	8.45e-01	0	55	104	0	57	13153
2026-01-27 00:07:23.03	29.67	3.62	-42.6	-54.2	3.8	8.45e-01	0	55	104	0	57	13150
2026-01-27 00:07:24.04	29.76	3.68	-42.6	-54.2	3.8	8.47e-01	0	55	104	0	57	13140
2026-01-27 00:07:25.06	29.85	3.73	-42.7	-54.2	3.8	8.45e-01	0	55	104	0	57	13207
2026-01-27 00:07:26.07	29.94	3.79	-42.6	-54.2	3.8	8.47e-01	0	55	104	0	57	13197
2026-01-27 00:07:27.08	30.03	3.84	-42.6	-54.2	3.8	8.46e-01	0	55	104	0	57	13142
2026-01-27 00:07:28.09	30.12	3.90	-42.6	-54.2	3.8	8.46e-01	0	55	104	0	57	13136
2026-01-27 00:07:29.10	30.21	3.95	-42.6	-54.2	3.8	8.46e-01	0	55	104	0	57	13166
2026-01-27 00:07:30.11	30.30	4.01	-42.6	-54.1	3.8	8.47e-01	0	55	104	0	57	13086
2026-01-27 00:07:31.12	30.39	4.06	-42.6	-54.1	3.8	8.47e-01	0	55	104	0	57	13100
2026-01-27 00:07:32.13	30.48	4.12	-42.6	-54.1	3.8	8.45e-01	0	55	104	0	57	13103
2026-01-27 00:07:33.14	30.57	4.17	-42.6	-54.1	3.8	8.46e-01	0	56	104	0	57	13086
2026-01-27 00:07:34.15	30.66	4.23	-42.6	-54.2	3.8	8.46e-01	0	56	104	0	57	13162
2026-01-27 00:07:35.16	30.75	4.28	-42.6	-54.1	3.8	8.48e-01	0	56	104	0	57	13087
2026-01-27 00:07:36.17	30.84	4.34	-42.6	-54.1	3.8	8.46e-01	0	56	104	0	57	13076
2026-01-27 00:07:37.18	30.93	4.39	-42.6	-54.2	3.8	8.46e-01	0	56	104	0	57	13115
2026-01-27 00:07:38.19	31.03	4.45	-42.6	-54.1	3.8	8.46e-01	0	56	104	0	57	13085
2026-01-27 00:07:39.20	31.12	4.50	-42.6	-54.2	3.8	8.46e-01	0	56	104	0	57	13205
2026-01-27 00:07:40.21	31.21	4.56	-42.6	-54.2	3.8	8.47e-01	0	56	104	0	57	13143
2026-01-27 00:07:41.23	31.31	4.62	-42.6	-54.2	3.8	8.47e-01	0	56	104	0	57	13125
2026-01-27 00:07:42.24	31.40	4.67	-42.6	-54.2	3.8	8.47e-01	0	56	104	0	57	13119
2026-01-27 00:07:43.25	31.49	4.73	-42.6	-54.2	3.8	8.46e-01	0	56	104	0	57	13125
2026-01-27 00:07:44.26	31.59	4.78	-42.6	-54.2	3.8	8.46e-01	0	56	104	0	57	13110
2026-01-27 00:07:45.27	31.68	4.84	-42.6	-54.2	3.8	8.47e-01	0	56	104	0	57	13123
2026-01-27 00:07:46.28	31.78	4.89	-42.6	-54.2	3.8	8.45e-01	0	56	104	0	57	13122
2026-01-27 00:07:47.29	31.87	4.95	-42.6	-54.2	3.8	8.46e-01	0	56	104	0	57	13171
2026-01-27 00:07:48.30	31.97	5.00	-42.6	-54.2	3.8	8.46e-01	0	56	104	0	57	13112
2026-01-27 00:07:49.31	32.07	5.06	-42.6	-54.2	3.8	8.46e-01	0	56	104	0	57	13127
2026-01-27 00:07:50.32	32.16	5.12	-42.6	-54.2	3.8	8.46e-01	0	57	104	0	57	13149
2026-01-27 00:07:51.33	32.26	5.17	-42.6	-54.1	3.8	8.46e-01	0	57	104	0	57	13099
2026-01-27 00:07:52.34	32.36	5.23	-42.6	-54.2	3.8	8.46e-01	0	57	104	0	57	13151
2026-01-27 00:07:53.35	32.45	5.28	-42.6	-54.2	3.8	8.46e-01	0	56	104	0	57	13113
2026-01-27 00:07:54.36	32.55	5.34	-42.6	-54.1	3.8	8.46e-01	0	57	104	0	57	13093
2026-01-27 00:07:55.37	32.65	5.40	-42.6	-54.2	3.8	8.46e-01	0	57	104	0	57	13112
2026-01-27 00:07:56.39	32.75	5.45	-42.6	-54.2	3.8	8.46e-01	0	57	104	0	57	13140
2026-01-27 00:07:57.40	32.85	5.51	-42.6	-54.2	3.8	8.46e-01	0	57	104	0	57	13116
2026-01-27 00:07:58.41	32.95	5.57	-42.6	-54.2	3.8	8.47e-01	0	57	104	0	57	13111
2026-01-27 00:07:59.42	33.05	5.62	-42.6	-54.2	3.8	8.46e-01	0	57	104	0	57	13130
2026-01-27 00:08:00.43	33.15	5.68	-42.6	-54.2	3.8	8.45e-01	0	57	104	0	57	13159
2026-01-27 00:08:01.44	33.25	5.74	-42.6	-54.2	3.8	8.47e-01	0	57	104	0	57	13128
2026-01-27 00:08:02.45	33.35	5.79	-42.6	-54.1	3.8	8.45e-01	0	57	104	0	57	13064
2026-01-27 00:08:03.46	33.45	5.85	-42.6	-54.1	3.8	8.44e-01	0	57	104	0	57	13083
2026-01-27 00:08:04.47	33.55	5.91	-42.6	-54.2	3.8	8.45e-01	0	57	104	0	57	13112
2026-01-27 00:08:05.48	33.66	5.96	-42.6	-54.1	3.8	8.45e-01	0	57	104	0	57	13105
2026-01-27 00:08:06.49	33.76	6.02	-42.6	-54.2	3.8	8.46e-01	0	57	104	0	57	13116
2026-01-27 00:08:07.50	33.86	6.08	-42.6	-54.1	3.8	8.46e-01	0	57	104	0	57	13076
2026-01-27 00:08:08.51	33.96	6.13	-42.6	-54.2	3.8	8.46e-01	0	57	104	0	57	13110
2026-01-27 00:08:09.52	34.07	6.19	-42.6	-54.1	3.8	8.46e-01	0	57	104	0	57	13102
2026-01-27 00:08:10.53	34.17	6.25	-42.6	-54.2	3.8	8.46e-01	0	58	104	0	57	13128
2026-01-27 00:08:11.55	34.28	6.30	-42.6	-54.1	3.8	8.46e-01	0	57	104	0	57	13091
2026-01-27 00:08:12.56	34.38	6.36	-42.6	-54.2	3.8	8.46e-01	0	58	104	0	57	13119
2026-01-27 00:08:13.57	34.49	6.42	-42.6	-54.1	3.8	8.46e-01	0	58	104	0	57	13103
2026-01-27 00:08:14.58	34.59	6.48	-42.6	-54.1	3.8	8.45e-01	0	58	104	0	57	13058
2026-01-27 00:08:15.59	34.70	6.53	-42.6	-54.0	3.8	8.45e-01	0	58	104	0	57	12942
2026-01-27 00:08:16.60	34.80	6.59	-42.6	-54.1	3.8	8.46e-01	0	58	104	0	57	13072
2026-01-27 00:08:17.61	34.91	6.65	-42.6	-54.2	3.8	8.47e-01	0	58	104	0	57	13126
2026-01-27 00:08:18.62	35.02	6.70	-42.6	-54.1	3.8	8.45e-01	0	58	104	0	57	13012
2026-01-27 00:08:19.63	35.13	6.76	-42.6	-54.1	3.8	8.46e-01	0	58	104	0	57	12974
2026-01-27 00:08:20.64	35.23	6.82	-42.6	-54.1	3.8	8.46e-01	0	58	104	0	57	12978
2026-01-27 00:08:21.65	35.34	6.88	-42.6	-54.1	3.8	8.46e-01	0	58	104	0	57	13056
2026-01-27 00:08:22.66	35.45	6.93	-42.6	-54.1	3.8	8.46e-01	0	58	104	0	57	13028
2026-01-27 00:08:23.67	35.56	6.99	-42.6	-54.1	3.8	8.46e-01	0	58	104	0	57	13108
2026-01-27 00:08:24.69	35.67	7.05	-42.6	-54.1	3.8	8.46e-01	0	58	104	0	57	13093
2026-01-27 00:08:25.70	35.78	7.11	-42.6	-54.1	3.8	8.46e-01	0	58	104	0	57	13056
2026-01-27 00:08:26.71	35.89	7.17	-42.6	-54.0	3.8	8.46e-01	0	58	104	0	57	12921
2026-01-27 00:08:27.72	36.00	7.22	-42.5	-53.7	3.8	8.48e-01	0	58	104	0	57	12447
2026-01-27 00:08:28.73	36.11	7.28	-42.5	-53.6	3.8	8.46e-01	0	58	104	0	57	12307
2026-01-27 00:08:29.74	36.22	7.34	-42.6	-54.0	3.8	8.46e-01	0	58	104	0	57	12913
2026-01-27 00:08:30.75	36.34	7.40	-42.6	-54.1	3.8	8.45e-01	0	58	104	0	57	13075
2026-01-27 00:08:31.76	36.45	7.45	-42.6	-54.2	3.8	8.46e-01	0	58	104	0	57	13126
2026-01-27 00:08:32.77	36.56	7.51	-42.6	-54.0	3.8	8.45e-01	0	58	104	0	57	12912
2026-01-27 00:08:33.78	36.68	7.57	-42.6	-53.8	3.8	8.47e-01	0	58	104	0	57	12579
2026-01-27 00:08:34.79	36.79	7.63	-42.5	-53.0	3.8	8.46e-01	0	58	104	0	56	12234
2026-01-27 00:08:35.80	36.90	7.69	-42.3	-51.7	3.9	8.45e-01	0	58	104	0	56	10495
2026-01-27 00:08:36.81	37.02	7.75	-42.0	-49.6	4.5	8.31e-01	0	58	0	0	56	8226
2026-01-27 00:08:37.82	37.13	7.80	-41.1	-46.6	6.2	6.46e-01	0	58	0	1048576	54	6539
2026-01-27 00:08:38.83	37.25	7.86	-40.2	-44.5	8.2	1.01e-01	0	59	0	6291456	52	5728
2026-01-27 00:08:39.84	37.36	7.92	-39.4	-42.7	10.1	1.37e-02	0	58	0	12582912	50	5233
2026-01-27 00:08:40.85	37.48	7.98	-38.6	-41.4	11.5	1.77e-03	0	58	0	17825792	49	4786
2026-01-27 00:08:41.86	37.60	8.04	-38.2	-40.8	12.1	5.37e-04	0	59	0	24117248	48	4754
2026-01-27 00:08:42.87	37.72	8.09	-38.9	-41.6	11.9	4.10e-04	0	58	0	29360128	48	5186
2026-01-27 00:08:43.88	37.83	8.15	-41.3	-49.3	4.4	1.79e-01	0	58	0	34603008	53	9393
2026-01-27 00:08:44.89	37.95	8.21	-40.6	-44.3	9.4	3.39e-03	0	58	0	37748736	51	5938
2026-01-27 00:08:45.90	38.07	8.27	-41.5	-46.4	7.1	4.54e-02	0	59	0	42991616	53	6774
2026-01-27 00:08:46.92	38.19	8.33	-40.4	-44.2	9.2	3.49e-03	0	58	0	49283072	51	5861
2026-01-27 00:08:47.93	38.31	8.39	-39.2	-42.0	11.6	2.23e-03	0	59	0	54525952	50	4834
2026-01-27 00:08:48.94	38.43	8.45	-39.2	-41.9	11.7	1.15e-03	0	59	0	59768832	50	4775
2026-01-27 00:08:49.95	38.55	8.50	-39.1	-41.8	11.8	7.69e-04	0	59	0	66060288	50	4748
2026-01-27 00:08:50.96	38.67	8.56	-38.9	-41.5	12.1	4.40e-04	0	59	0	71303168	49	4840
2026-01-27 00:08:51.97	38.79	8.62	-38.8	-41.4	12.3	3.03e-04	0	59	0	77594624	49	4763
2026-01-27 00:08:52.98	38.92	8.68	-38.8	-41.3	12.3	3.39e-04	0	59	0	82837504	49	4754
2026-01-27 00:08:53.99	39.04	8.74	-38.8	-41.3	12.3	2.41e-04	0	59	0	88080384	49	4749
2026-01-27 00:08:54.99	39.16	8.80	-39.0	-41.6	12.2	3.59e-04	0	59	0	94371840	49	4872
2026-01-27 00:08:56.00	39.28	8.86	-38.9	-41.4	12.4	3.19e-04	0	59	0	99614720	49	4786
2026-01-27 00:08:57.01	39.41	8.92	-39.1	-41.7	12.2	2.85e-04	0	59	0	105906176	49	4938
2026-01-27 00:08:58.02	39.53	8.97	-39.0	-41.4	12.5	2.79e-04	0	59	0	111149056	49	4811
2026-01-27 00:08:59.03	39.66	9.03	-39.1	-41.6	12.4	1.89e-04	0	59	0	116391936	49	4887
2026-01-27 00:09:00.04	39.78	9.09	-38.9	-41.3	12.7	2.22e-04	0	59	0	122683392	49	4739
2026-01-27 00:09:01.05	39.91	9.15	-38.9	-41.4	12.7	1.38e-04	0	59	0	127926272	49	4766
2026-01-27 00:09:02.06	40.03	9.21	-38.8	-41.1	13.0	7.32e-05	0	59	0	134217728	49	4620
2026-01-27 00:09:03.07	40.16	9.27	-38.7	-41.0	13.0	7.32e-05	0	59	0	139460608	49	4584
2026-01-27 00:09:04.08	40.29	9.33	-38.8	-41.1	12.9	9.38e-05	0	59	0	145752064	49	4643
2026-01-27 00:09:05.09	40.42	9.39	-38.8	-41.1	13.0	5.83e-05	0	59	0	150994944	49	4646
2026-01-27 00:09:06.10	40.54	9.45	-38.9	-41.3	12.8	7.78e-05	0	59	0	157286400	49	4724
2026-01-27 00:09:07.11	40.67	9.50	-39.0	-41.3	12.9	5.72e-05	0	59	0	162529280	49	4753
2026-01-27 00:09:08.12	40.80	9.56	-39.0	-41.4	12.8	8.58e-05	0	59	0	167772160	49	4762
2026-01-27 00:09:09.14	40.93	9.62	-39.0	-41.4	12.7	1.15e-04	0	59	0	174063616	49	4806
2026-01-27 00:09:10.15	41.06	9.68	-39.1	-41.6	12.5	1.45e-04	0	59	0	179306496	49	4898
2026-01-27 00:09:11.16	41.19	9.74	-38.9	-41.3	12.8	1.12e-04	0	59	0	185597952	49	4733
2026-01-27 00:09:12.17	41.33	9.80	-38.9	-41.2	13.0	6.40e-05	0	59	0	190840832	49	4694
2026-01-27 00:09:13.18	41.46	9.86	-38.9	-41.3	12.9	9.84e-05	0	59	0	196083712	49	4713
2026-01-27 00:09:14.19	41.59	9.92	-38.8	-41.1	13.1	4.34e-05	0	59	0	202375168	49	4612
2026-01-27 00:09:15.20	41.72	9.98	-38.7	-41.0	13.3	2.63e-05	0	59	0	207618048	49	4546
2026-01-27 00:09:16.21	41.86	10.04	-38.7	-40.9	13.3	3.77e-05	0	59	0	213909504	49	4521
2026-01-27 00:09:17.22	41.99	10.10	-38.8	-41.0	13.2	3.54e-05	0	60	0	219152384	49	4595
2026-01-27 00:09:18.23	42.12	10.15	-38.6	-40.7	13.6	2.05e-05	0	59	0	224395264	49	4430
2026-01-27 00:09:19.24	42.26	10.21	-38.6	-40.7	13.6	8.00e-06	0	60	0	230686720	49	4422
2026-01-27 00:09:20.25	42.40	10.27	-38.6	-40.8	13.6	1.25e-05	0	60	0	235929600	49	4457
2026-01-27 00:09:21.26	42.53	10.33	-38.7	-40.9	13.5	1.48e-05	0	60	0	242221056	49	4509
2026-01-27 00:09:22.27	42.67	10.39	-38.6	-40.7	13.7	8.00e-06	0	60	0	247463936	49	4416
2026-01-27 00:09:23.28	42.80	10.45	-38.5	-40.6	13.8	9.10e-06	0	59	0	253755392	49	4371
2026-01-27 00:09:24.29	42.94	10.51	-38.5	-40.7	13.7	1.14e-05	0	60	0	258998272	49	4402
2026-01-27 00:09:25.31	43.08	10.57	-38.7	-40.8	13.6	8.00e-06	0	60	0	265289728	49	4479
2026-01-27 00:09:26.32	43.22	10.63	-38.7	-40.9	13.6	1.71e-05	0	60	0	270532608	49	4501
2026-01-27 00:09:27.33	43.36	10.69	-38.5	-40.7	13.8	9.10e-06	0	59	0	275775488	49	4403
2026-01-27 00:09:28.34	43.50	10.75	-38.6	-40.7	13.7	4.50e-06	0	60	0	282066944	49	4435
2026-01-27 00:09:29.35	43.64	10.81	-38.5	-40.6	13.9	6.80e-06	0	59	0	287309824	48	4611
2026-01-27 00:09:30.36	43.78	10.87	-38.5	-40.5	13.9	5.70e-06	0	60	0	293601280	48	4598
2026-01-27 00:09:31.37	43.92	10.92	-38.3	-40.4	14.1	2.20e-06	0	60	0	298844160	48	4515
2026-01-27 00:09:32.37	44.06	10.98	-38.4	-40.5	14.0	2.20e-06	0	60	0	304087040	48	4564
2026-01-27 00:09:33.38	44.21	11.04	-38.5	-40.6	13.9	5.70e-06	0	60	0	310378496	48	4609
2026-01-27 00:09:34.39	44.35	11.10	-38.5	-40.7	13.9	1.02e-05	0	60	0	315621376	48	4663
2026-01-27 00:09:35.41	44.49	11.16	-38.6	-40.8	13.8	9.10e-06	0	60	0	321912832	48	4707
2026-01-27 00:09:36.41	44.64	11.22	-38.6	-40.8	13.8	6.80e-06	0	60	0	327155712	48	4708
2026-01-27 00:09:37.42	44.78	11.28	-38.5	-40.6	13.9	5.70e-06	0	60	0	332398592	48	4616
2026-01-27 00:09:38.43	44.93	11.34	-38.5	-40.6	14.0	4.50e-06	0	60	0	338690048	48	4611
2026-01-27 00:09:39.44	45.07	11.40	-38.6	-40.7	13.9	1.02e-05	0	60	0	343932928	48	4662
2026-01-27 00:09:40.45	45.22	11.46	-38.6	-40.7	13.8	5.70e-06	0	60	0	350224384	48	4696
2026-01-27 00:09:41.46	45.37	11.51	-38.6	-40.7	13.9	2.20e-06	0	60	0	355467264	48	4656
2026-01-27 00:09:42.47	45.51	11.57	-38.5	-40.5	14.1	3.40e-06	0	60	0	361758720	48	4584
2026-01-27 00:09:43.48	45.66	11.63	-38.5	-40.6	14.0	3.40e-06	0	60	0	367001600	48	4623
2026-01-27 00:09:44.49	45.81	11.69	-38.6	-40.7	13.9	1.14e-05	0	60	0	372244480	48	4679
2026-01-27 00:09:45.50	45.96	11.75	-38.6	-40.7	13.9	4.50e-06	0	60	0	378535936	48	4660
2026-01-27 00:09:46.51	46.11	11.81	-38.5	-40.6	14.0	2.20e-06	0	60	0	383778816	48	4618
2026-01-27 00:09:47.52	46.26	11.87	-38.5	-40.5	14.1	2.20e-06	0	60	0	390070272	48	4595
2026-01-27 00:09:48.53	46.41	11.93	-38.3	-40.4	14.3	2.20e-06	0	60	0	395313152	48	4498
2026-01-27 00:09:49.54	46.57	11.98	-38.2	-40.2	14.4	0.00e+00	0	60	0	400556032	48	4406
2026-01-27 00:09:50.55	46.72	12.04	-38.2	-40.2	14.5	1.10e-06	0	60	0	406847488	48	4398
2026-01-27 00:09:51.56	46.87	12.10	-38.2	-40.1	14.5	3.40e-06	0	60	0	412090368	48	4384
2026-01-27 00:09:52.57	47.02	12.16	-38.1	-40.1	14.6	0.00e+00	0	60	0	418381824	48	4341
2026-01-27 00:09:53.58	47.18	12.22	-38.1	-40.1	14.6	1.10e-06	0	60	0	423624704	48	4356
2026-01-27 00:09:54.59	47.33	12.28	-38.2	-40.1	14.6	0.00e+00	0	60	0	428867584	48	4366
2026-01-27 00:09:55.60	47.49	12.34	-38.2	-40.2	14.5	0.00e+00	0	60	0	435159040	48	4403
2026-01-27 00:09:56.61	47.64	12.39	-38.2	-40.2	14.5	0.00e+00	0	60	0	440401920	48	4394
2026-01-27 00:09:57.62	47.80	12.45	-38.1	-40.0	14.7	2.20e-06	0	60	0	446693376	48	4325
2026-01-27 00:09:58.63	47.96	12.51	-38.2	-40.1	14.5	0.00e+00	0	60	0	451936256	48	4387
2026-01-27 00:09:59.64	48.12	12.57	-38.1	-40.0	14.6	0.00e+00	0	60	0	458227712	48	4339
2026-01-27 00:10:00.65	48.27	12.63	-38.2	-40.1	14.6	1.10e-06	0	60	0	463470592	48	4372
2026-01-27 00:10:01.66	48.43	12.69	-38.2	-40.1	14.6	1.10e-06	0	60	0	469762048	48	4357
2026-01-27 00:10:02.67	48.59	12.74	-38.2	-40.2	14.5	1.10e-06	0	60	0	475004928	48	4392
2026-01-27 00:10:03.68	48.75	12.80	-38.3	-40.2	14.5	1.10e-06	0	60	0	480247808	48	4420
2026-01-27 00:10:04.69	48.91	12.86	-38.2	-40.1	14.6	0.00e+00	0	60	0	486539264	48	4388
2026-01-27 00:10:05.71	49.08	12.92	-38.2	-40.2	14.6	0.00e+00	0	60	0	491782144	48	4399
2026-01-27 00:10:06.72	49.24	12.98	-38.2	-40.1	14.6	0.00e+00	0	60	0	498073600	48	4367
2026-01-27 00:10:07.73	49.40	13.03	-38.1	-40.1	14.6	0.00e+00	0	60	0	503316480	48	4354
2026-01-27 00:10:08.74	49.56	13.09	-38.2	-40.1	14.6	3.40e-06	0	60	0	508559360	48	4390
2026-01-27 00:10:09.75	49.73	13.15	-38.2	-40.1	14.6	0.00e+00	0	60	0	514850816	48	4375
2026-01-27 00:10:10.76	49.89	13.21	-38.2	-40.1	14.7	1.10e-06	0	60	0	520093696	48	4365
2026-01-27 00:10:11.77	50.06	13.27	-38.1	-40.0	14.7	1.10e-06	0	60	0	526385152	48	4327
2026-01-27 00:10:12.78	50.22	13.32	-38.1	-39.9	14.8	1.10e-06	0	60	0	531628032	48	4277
2026-01-27 00:10:13.79	50.39	13.38	-37.9	-39.8	14.9	1.10e-06	0	61	0	536870912	47	4443
2026-01-27 00:10:14.80	50.56	13.44	-37.9	-39.8	14.8	0.00e+00	0	61	0	543162368	47	4486
2026-01-27 00:10:15.81	50.73	13.49	-37.9	-39.8	14.9	0.00e+00	0	60	0	548405248	47	4461
2026-01-27 00:10:16.82	50.89	13.55	-37.9	-39.8	14.9	0.00e+00	0	60	0	554696704	47	4457
2026-01-27 00:10:17.83	51.06	13.61	-37.9	-39.7	15.0	0.00e+00	0	61	0	559939584	47	4424
2026-01-27 00:10:18.84	51.23	13.67	-37.9	-39.7	14.9	0.00e+00	0	60	0	566231040	47	4425
2026-01-27 00:10:19.85	51.40	13.72	-37.9	-39.8	14.9	1.10e-06	0	60	0	571473920	47	4454
2026-01-27 00:10:20.86	51.57	13.78	-37.9	-39.8	14.9	0.00e+00	0	60	0	577765376	47	4460
2026-01-27 00:10:21.87	51.74	13.84	-37.9	-39.8	14.9	0.00e+00	0	60	0	583008256	47	4474
2026-01-27 00:10:22.88	51.92	13.89	-37.9	-39.8	14.9	0.00e+00	0	60	0	588251136	47	4459
2026-01-27 00:10:23.89	52.09	13.95	-38.0	-39.8	14.9	0.00e+00	0	60	0	594542592	47	4492
2026-01-27 00:10:24.90	52.26	14.00	-37.8	-39.6	15.0	0.00e+00	0	61	0	599785472	47	4389
2026-01-27 00:10:25.91	52.44	14.06	-37.8	-39.6	15.1	0.00e+00	0	60	0	606076928	47	4377
2026-01-27 00:10:26.92	52.61	14.12	-37.7	-39.6	15.1	0.00e+00	0	61	0	611319808	47	4361
2026-01-27 00:10:27.93	52.79	14.17	-37.8	-39.7	15.0	0.00e+00	0	60	0	616562688	47	4413
2026-01-27 00:10:28.94	52.96	14.23	-37.9	-39.7	15.0	0.00e+00	0	60	0	622854144	47	4438
2026-01-27 00:10:29.95	53.14	14.28	-37.7	-39.6	15.1	0.00e+00	0	60	0	628097024	47	4353
2026-01-27 00:10:30.96	53.32	14.34	-37.7	-39.5	15.1	0.00e+00	0	60	0	634388480	47	4331
2026-01-27 00:10:31.97	53.50	14.40	-37.8	-39.6	15.1	0.00e+00	0	60	0	639631360	47	4382
2026-01-27 00:10:32.98	53.67	14.45	-37.7	-39.6	15.2	0.00e+00	0	60	0	644874240	47	4342
2026-01-27 00:10:33.99	53.85	14.51	-37.7	-39.5	15.2	0.00e+00	0	61	0	651165696	47	4339
2026-01-27 00:10:35.00	54.03	14.56	-37.7	-39.5	15.2	0.00e+00	0	61	0	656408576	47	4309
2026-01-27 00:10:36.01	54.21	14.62	-37.7	-39.5	15.2	0.00e+00	0	61	0	662700032	47	4339
2026-01-27 00:10:37.02	54.39	14.67	-37.7	-39.5	15.2	0.00e+00	0	61	0	667942912	47	4334
2026-01-27 00:10:38.03	54.58	14.73	-37.8	-39.6	15.1	0.00e+00	0	61	0	674234368	47	4359
2026-01-27 00:10:39.04	54.76	14.78	-37.8	-39.7	15.0	0.00e+00	0	61	0	679477248	47	4399
2026-01-27 00:10:40.05	54.94	14.83	-37.7	-39.6	15.1	2.20e-06	0	61	0	685768704	47	4355
2026-01-27 00:10:41.06	55.13	14.89	-37.7	-39.6	15.1	0.00e+00	0	61	0	691011584	47	4358
2026-01-27 00:10:42.07	55.31	14.94	-37.8	-39.7	15.0	0.00e+00	0	61	0	696254464	47	4411
2026-01-27 00:10:43.08	55.50	15.00	-37.8	-39.7	15.0	0.00e+00	0	61	0	702545920	47	4421
2026-01-27 00:10:44.10	55.68	15.05	-37.8	-39.6	15.0	0.00e+00	0	61	0	707788800	47	4390
2026-01-27 00:10:45.11	55.87	15.10	-37.6	-39.4	15.3	0.00e+00	0	61	0	714080256	47	4266
2026-01-27 00:10:46.12	56.06	15.16	-37.6	-39.4	15.3	0.00e+00	0	61	0	719323136	47	4285
2026-01-27 00:10:47.13	56.24	15.21	-37.6	-39.5	15.2	0.00e+00	0	61	0	724566016	47	4294
2026-01-27 00:10:48.14	56.43	15.26	-37.6	-39.3	15.3	0.00e+00	0	61	0	730857472	47	4238
2026-01-27 00:10:49.14	56.62	15.32	-37.6	-39.3	15.3	0.00e+00	0	61	0	736100352	47	4228
2026-01-27 00:10:50.15	56.81	15.37	-37.5	-39.3	15.4	0.00e+00	0	61	0	742391808	47	4209
2026-01-27 00:10:51.16	57.00	15.42	-37.5	-39.3	15.4	0.00e+00	0	61	0	747634688	47	4208
2026-01-27 00:10:52.17	57.19	15.48	-37.5	-39.3	15.4	0.00e+00	0	61	0	752877568	47	4196
2026-01-27 00:10:53.18	57.38	15.53	-37.5	-39.3	15.5	0.00e+00	0	61	0	759169024	47	4201
2026-01-27 00:10:54.20	57.58	15.58	-37.5	-39.3	15.4	0.00e+00	0	61	0	764411904	47	4212
2026-01-27 00:10:55.21	57.77	15.63	-37.5	-39.3	15.4	0.00e+00	0	61	0	770703360	47	4215
2026-01-27 00:10:56.22	57.96	15.68	-37.5	-39.3	15.4	0.00e+00	0	61	0	775946240	47	4233
2026-01-27 00:10:57.23	58.16	15.73	-37.5	-39.3	15.4	0.00e+00	0	61	0	782237696	47	4235
2026-01-27 00:10:58.24	58.35	15.79	-37.5	-39.3	15.4	0.00e+00	0	61	0	787480576	47	4207
2026-01-27 00:10:59.25	58.55	15.84	-37.4	-39.2	15.5	0.00e+00	0	61	0	793772032	46	4419
2026-01-27 00:11:00.26	58.75	15.89	-37.5	-39.3	15.4	0.00e+00	0	61	0	799014912	46	4453
2026-01-27 00:11:01.27	58.94	15.94	-37.4	-39.1	15.6	0.00e+00	0	61	0	804257792	46	4362
2026-01-27 00:11:02.28	59.14	15.99	-37.4	-39.1	15.6	0.00e+00	0	61	0	810549248	46	4357
2026-01-27 00:11:03.29	59.34	16.04	-37.4	-39.1	15.6	0.00e+00	0	61	0	815792128	46	4375
2026-01-27 00:11:04.30	59.54	16.09	-37.4	-39.1	15.6	0.00e+00	0	61	0	822083584	46	4386
2026-01-27 00:11:05.31	59.74	16.14	-37.4	-39.2	15.6	0.00e+00	0	61	0	827326464	46	4403
2026-01-27 00:11:06.32	59.94	16.19	-37.5	-39.2	15.5	0.00e+00	0	61	0	832569344	46	4429
2026-01-27 00:11:07.33	60.14	16.24	-37.4	-39.1	15.6	0.00e+00	0	61	0	838860800	46	4383
2026-01-27 00:11:08.34	60.34	16.29	-37.5	-39.3	15.4	0.00e+00	0	61	0	844103680	46	4442
2026-01-27 00:11:09.35	60.54	16.34	-37.5	-39.3	15.3	0.00e+00	0	61	0	850395136	46	4491
2026-01-27 00:11:10.36	60.74	16.38	-37.5	-39.3	15.4	0.00e+00	0	61	0	855638016	46	4468
2026-01-27 00:11:11.37	60.95	16.43	-37.5	-39.3	15.4	0.00e+00	0	61	0	860880896	46	4461
2026-01-27 00:11:12.38	61.15	16.48	-37.5	-39.3	15.4	0.00e+00	0	61	0	867172352	46	4452
2026-01-27 00:11:13.39	61.36	16.53	-37.4	-39.1	15.5	0.00e+00	0	61	0	872415232	46	4390
2026-01-27 00:11:14.40	61.56	16.58	-37.3	-39.0	15.7	0.00e+00	0	61	0	878706688	46	4308
2026-01-27 00:11:15.41	61.77	16.62	-37.2	-38.9	15.7	0.00e+00	0	61	0	883949568	46	4267
2026-01-27 00:11:16.43	61.98	16.67	-37.2	-38.9	15.7	0.00e+00	0	61	0	890241024	46	4261
2026-01-27 00:11:17.44	62.18	16.72	-37.2	-38.9	15.7	1.10e-06	0	61	0	895483904	46	4291
2026-01-27 00:11:18.45	62.39	16.77	-37.3	-39.0	15.6	0.00e+00	0	61	0	901775360	46	4319
2026-01-27 00:11:19.46	62.60	16.81	-37.4	-39.2	15.5	0.00e+00	0	61	0	907018240	46	4409
2026-01-27 00:11:20.47	62.81	16.86	-37.5	-39.3	15.4	0.00e+00	0	61	0	912261120	46	4449
2026-01-27 00:11:21.48	63.02	16.90	-37.4	-39.2	15.4	0.00e+00	0	61	0	918552576	46	4418
2026-01-27 00:11:22.48	63.23	16.95	-37.3	-39.1	15.5	0.00e+00	0	61	0	923795456	46	4376
2026-01-27 00:11:23.49	63.44	16.99	-37.3	-39.1	15.5	0.00e+00	0	61	0	930086912	46	4360
2026-01-27 00:11:24.50	63.65	17.04	-37.2	-38.9	15.7	0.00e+00	0	61	0	935329792	46	4279
2026-01-27 00:11:25.51	63.86	17.08	-37.2	-39.0	15.6	0.00e+00	0	61	0	940572672	46	4304
2026-01-27 00:11:26.52	64.08	17.13	-37.2	-38.9	15.6	0.00e+00	0	61	0	946864128	46	4291
2026-01-27 00:11:27.54	64.29	17.17	-37.1	-38.8	15.7	0.00e+00	0	61	0	952107008	46	4238
2026-01-27 00:11:28.55	64.51	17.22	-37.1	-38.9	15.7	0.00e+00	0	61	0	958398464	46	4244
2026-01-27 00:11:29.55	64.72	17.26	-37.0	-38.9	15.4	0.00e+00	0	61	0	963641344	46	4261
2026-01-27 00:11:30.57	64.94	17.30	-37.1	-38.9	15.4	0.00e+00	0	61	0	968884224	46	4275
2026-01-27 00:11:31.58	65.15	17.35	-37.0	-38.9	15.5	0.00e+00	0	61	0	975175680	46	4267
2026-01-27 00:11:32.59	65.37	17.39	-37.0	-38.9	15.5	0.00e+00	0	61	0	980418560	46	4259
2026-01-27 00:11:33.59	65.58	17.43	-36.9	-38.7	15.6	0.00e+00	0	61	0	986710016	45	4423
2026-01-27 00:11:34.60	65.80	17.47	-36.9	-38.8	15.5	0.00e+00	0	61	0	991952896	45	4446
2026-01-27 00:11:35.61	66.02	17.51	-36.9	-38.8	15.5	0.00e+00	0	61	0	998244352	45	4466
2026-01-27 00:11:36.62	66.24	17.55	-37.0	-38.8	15.4	0.00e+00	0	62	0	1003487232	45	4490
2026-01-27 00:11:37.63	66.46	17.59	-37.1	-39.0	15.3	0.00e+00	0	61	0	1008730112	45	4552
2026-01-27 00:11:38.64	66.68	17.64	-37.0	-38.9	15.2	0.00e+00	0	61	0	1015021568	45	4533
2026-01-27 00:11:39.65	66.90	17.68	-36.9	-38.8	15.3	0.00e+00	0	61	0	1020264448	45	4468
2026-01-27 00:11:40.66	67.12	17.72	-37.0	-38.8	15.2	0.00e+00	0	61	0	1026555904	45	4489
2026-01-27 00:11:41.67	67.34	17.76	-37.0	-38.9	15.1	0.00e+00	0	61	0	1031798784	45	4530
2026-01-27 00:11:42.68	67.56	17.79	-37.0	-38.9	15.2	0.00e+00	0	61	0	1037041664	45	4512
2026-01-27 00:11:43.69	67.79	17.83	-37.0	-39.0	15.0	0.00e+00	0	62	0	1043333120	45	4561
2026-01-27 00:11:44.70	68.01	17.87	-37.0	-39.0	14.9	0.00e+00	0	61	0	1048576000	45	4575
2026-01-27 00:11:45.71	68.23	17.91	-37.1	-39.1	14.8	0.00e+00	0	61	0	1054867456	45	4600
2026-01-27 00:11:46.72	68.46	17.95	-37.1	-39.1	14.7	0.00e+00	0	61	0	1060110336	45	4606
2026-01-27 00:11:47.73	68.68	17.98	-37.2	-39.2	14.4	1.10e-06	0	61	0	1065353216	45	4699
2026-01-27 00:11:48.74	68.91	18.02	-37.2	-39.4	14.2	1.10e-06	0	61	0	1071644672	45	4766
2026-01-27 00:11:49.75	69.14	18.06	-37.4	-39.6	13.9	5.70e-06	0	61	0	1076887552	45	4893
2026-01-27 00:11:50.76	69.36	18.09	-37.4	-39.7	13.6	4.50e-06	0	61	0	1083179008	45	4953
2026-01-27 00:11:51.77	69.59	18.13	-37.5	-39.8	13.4	1.60e-05	0	62	0	1088421888	45	5034
2026-01-27 00:11:52.78	69.82	18.17	-37.6	-40.0	13.2	3.89e-05	0	61	0	1094713344	45	5106
2026-01-27 00:11:53.79	70.05	18.20	-37.7	-40.1	12.9	5.03e-05	0	62	0	1099956224	45	5207
2026-01-27 00:11:54.80	70.28	18.24	-37.8	-40.3	12.6	1.53e-04	0	61	0	1106247680	46	5041
2026-01-27 00:11:55.81	70.51	18.27	-37.9	-40.5	12.5	1.59e-04	0	62	0	1111490560	46	5109
2026-01-27 00:11:56.82	70.74	18.30	-37.9	-40.5	12.3	2.56e-04	0	62	0	1116733440	46	5145
2026-01-27 00:11:57.83	70.97	18.34	-38.0	-40.6	12.1	3.47e-04	0	61	0	1123024896	46	5216
2026-01-27 00:11:58.83	71.19	18.37	-38.0	-40.8	11.8	5.56e-04	0	61	0	1128267776	46	5331
2026-01-27 00:11:59.84	71.43	18.40	-38.0	-40.9	11.8	6.95e-04	0	61	0	1134559232	46	5350
2026-01-27 00:12:00.86	71.66	18.44	-38.1	-40.8	11.9	6.19e-04	0	61	0	1139802112	46	5330
2026-01-27 00:12:01.87	71.89	18.47	-38.1	-40.8	12.0	4.50e-04	0	62	0	1145044992	46	5312
2026-01-27 00:12:02.88	72.13	18.50	-38.0	-40.7	12.1	4.45e-04	0	61	0	1151336448	46	5270
2026-01-27 00:12:03.89	72.36	18.53	-38.0	-40.7	12.2	3.70e-04	0	62	0	1156579328	46	5239
2026-01-27 00:12:04.90	72.59	18.56	-38.1	-40.8	12.2	3.13e-04	0	62	0	1162870784	46	5304
2026-01-27 00:12:05.91	72.83	18.59	-38.1	-40.8	12.1	3.57e-04	0	62	0	1168113664	46	5286
2026-01-27 00:12:06.92	73.06	18.62	-38.0	-40.7	12.1	3.73e-04	0	62	0	1173356544	46	5278
2026-01-27 00:12:07.93	73.30	18.65	-38.0	-40.7	12.1	4.32e-04	0	61	0	1179648000	46	5226
2026-01-27 00:12:08.94	73.53	18.68	-37.9	-40.6	12.1	3.62e-04	0	62	0	1184890880	46	5188
2026-01-27 00:12:09.95	73.77	18.71	-37.9	-40.5	12.2	3.50e-04	0	61	0	1191182336	46	5153
2026-01-27 00:12:10.96	74.01	18.74	-37.9	-40.6	12.2	2.95e-04	0	62	0	1196425216	46	5160
2026-01-27 00:12:11.97	74.24	18.76	-37.9	-40.6	12.1	3.72e-04	0	62	0	1202716672	46	5218
2026-01-27 00:12:12.98	74.48	18.79	-37.9	-40.6	12.0	4.18e-04	0	62	0	1207959552	46	5212
2026-01-27 00:12:13.99	74.72	18.82	-37.9	-40.6	12.0	4.97e-04	0	62	0	1213202432	46	5202
2026-01-27 00:12:15.00	74.96	18.84	-37.9	-40.7	11.9	5.52e-04	0	62	0	1219493888	46	5242
2026-01-27 00:12:16.01	75.19	18.87	-37.9	-40.6	12.1	5.02e-04	0	62	0	1224736768	46	5217
2026-01-27 00:12:17.02	75.43	18.89	-37.9	-40.5	12.2	4.18e-04	0	61	0	1231028224	46	5148
2026-01-27 00:12:18.03	75.67	18.92	-37.9	-40.6	12.1	3.17e-04	0	61	0	1236271104	46	5182
2026-01-27 00:12:19.04	75.91	18.94	-37.9	-40.6	12.2	3.49e-04	0	62	0	1242562560	46	5164
2026-01-27 00:12:20.05	76.15	18.97	-37.9	-40.5	12.3	2.91e-04	0	62	0	1247805440	46	5147
2026-01-27 00:12:21.07	76.40	18.99	-37.9	-40.5	12.4	2.30e-04	0	62	0	1253048320	46	5158
2026-01-27 00:12:22.08	76.64	19.01	-37.8	-40.3	12.7	1.19e-04	0	62	0	1259339776	46	4987
2026-01-27 00:12:23.09	76.88	19.04	-37.6	-40.1	13.0	6.98e-05	0	62	0	1264582656	46	4875
2026-01-27 00:12:24.10	77.12	19.06	-37.5	-39.9	13.2	5.60e-05	0	62	0	1270874112	46	4784
2026-01-27 00:12:25.11	77.36	19.08	-37.5	-39.9	13.2	2.74e-05	0	62	0	1276116992	46	4767
2026-01-27 00:12:26.12	77.60	19.10	-37.7	-40.1	13.1	4.69e-05	0	62	0	1281359872	46	4876
2026-01-27 00:12:27.13	77.85	19.12	-37.6	-40.0	13.1	5.60e-05	0	62	0	1287651328	46	4854
2026-01-27 00:12:28.14	78.09	19.14	-37.4	-39.7	13.4	2.51e-05	0	62	0	1292894208	46	4694
2026-01-27 00:12:29.15	78.33	19.16	-37.4	-39.7	13.4	1.94e-05	0	62	0	1299185664	46	4663
2026-01-27 00:12:30.16	78.58	19.18	-37.5	-39.8	13.2	2.40e-05	0	62	0	1304428544	46	4751
2026-01-27 00:12:31.17	78.82	19.20	-37.5	-39.9	13.1	4.11e-05	0	62	0	1310720000	46	4810
2026-01-27 00:12:32.18	79.06	19.22	-37.7	-40.1	12.9	7.55e-05	0	62	0	1315962880	46	4912
2026-01-27 00:12:33.19	79.31	19.24	-37.7	-40.3	12.7	1.01e-04	0	61	0	1321205760	46	4985
2026-01-27 00:12:34.20	79.55	19.25	-37.8	-40.4	12.5	1.49e-04	0	62	0	1327497216	46	5082
2026-01-27 00:12:35.21	79.80	19.27	-37.8	-40.3	12.6	1.52e-04	0	62	0	1332740096	46	5032
2026-01-27 00:12:36.22	80.04	19.29	-37.8	-40.4	12.7	1.27e-04	0	62	0	1339031552	46	5043
2026-01-27 00:12:37.23	80.29	19.30	-37.8	-40.2	12.9	1.01e-04	0	62	0	1344274432	46	4981
2026-01-27 00:12:38.24	80.54	19.32	-37.7	-40.0	13.4	2.51e-05	0	62	0	1349517312	46	4846
2026-01-27 00:12:39.25	80.78	19.33	-37.3	-39.5	14.0	1.10e-06	0	62	0	1355808768	46	4557
2026-01-27 00:12:40.26	81.03	19.34	-37.2	-39.3	14.3	3.40e-06	0	62	0	1361051648	46	4465
2026-01-27 00:12:41.27	81.27	19.36	-37.0	-39.1	14.5	0.00e+00	0	62	0	1367343104	46	4358
2026-01-27 00:12:42.28	81.52	19.37	-36.9	-38.9	14.7	3.40e-06	0	62	0	1372585984	45	4544
2026-01-27 00:12:43.29	81.77	19.38	-37.0	-39.0	14.6	1.10e-06	0	62	0	1377828864	45	4584
2026-01-27 00:12:44.30	82.02	19.40	-37.1	-39.1	14.6	0.00e+00	0	62	0	1384120320	45	4610
2026-01-27 00:12:45.31	82.26	19.41	-37.1	-39.1	14.5	0.00e+00	0	62	0	1389363200	45	4649
2026-01-27 00:12:46.32	82.51	19.42	-37.1	-39.1	14.6	1.10e-06	0	62	0	1395654656	45	4618
2026-01-27 00:12:47.33	82.76	19.43	-36.9	-38.8	14.9	0.00e+00	0	62	0	1400897536	45	4472
2026-01-27 00:12:48.34	83.01	19.44	-36.7	-38.6	15.1	0.00e+00	0	62	0	1407188992	45	4378
2026-01-27 00:12:49.35	83.25	19.45	-36.7	-38.6	15.1	0.00e+00	0	62	0	1412431872	45	4362
2026-01-27 00:12:50.36	83.50	19.46	-36.7	-38.7	15.1	0.00e+00	0	62	0	1417674752	45	4399
2026-01-27 00:12:51.37	83.75	19.47	-36.8	-38.7	15.0	0.00e+00	0	62	0	1423966208	45	4423
2026-01-27 00:12:52.38	84.00	19.47	-36.8	-38.7	14.9	0.00e+00	0	62	0	1429209088	45	4420
2026-01-27 00:12:53.39	84.25	19.48	-36.8	-38.8	14.7	1.10e-06	0	62	0	1435500544	45	4461
2026-01-27 00:12:54.40	84.50	19.49	-36.8	-38.9	14.5	1.10e-06	0	62	0	1440743424	45	4499
2026-01-27 00:12:55.41	84.74	19.49	-36.9	-39.0	14.4	1.10e-06	0	62	0	1447034880	45	4548
2026-01-27 00:12:56.42	84.99	19.50	-36.9	-39.0	14.3	2.20e-06	0	62	0	1452277760	45	4589
2026-01-27 00:12:57.43	85.24	19.51	-37.0	-39.2	14.2	2.20e-06	0	62	0	1457520640	45	4660
2026-01-27 00:12:58.44	85.49	19.51	-37.2	-39.4	14.0	1.10e-06	0	62	0	1463812096	45	4762
2026-01-27 00:12:59.46	85.74	19.51	-37.4	-39.6	13.7	6.80e-06	0	62	0	1469054976	45	4911
2026-01-27 00:13:00.47	85.99	19.52	-37.5	-39.9	13.4	1.48e-05	0	62	0	1475346432	45	5056
2026-01-27 00:13:01.48	86.24	19.52	-37.6	-40.0	13.2	2.97e-05	0	62	0	1480589312	45	5116
2026-01-27 00:13:02.48	86.49	19.52	-37.6	-40.1	13.0	4.57e-05	0	62	0	1485832192	45	5180
2026-01-27 00:13:03.50	86.74	19.53	-37.6	-40.2	12.8	8.58e-05	0	62	0	1492123648	45	5221
2026-01-27 00:13:04.51	86.99	19.53	-37.7	-40.2	12.7	1.12e-04	0	62	0	1497366528	45	5276
2026-01-27 00:13:05.52	87.24	19.53	-37.8	-40.3	12.7	1.12e-04	0	62	0	1503657984	46	5028
2026-01-27 00:13:06.53	87.49	19.53	-37.7	-40.2	12.8	1.02e-04	0	62	0	1508900864	46	4978
2026-01-27 00:13:07.54	87.74	19.53	-37.6	-40.1	13.0	8.69e-05	0	62	0	1514143744	46	4887
2026-01-27 00:13:08.55	87.99	19.53	-37.5	-39.9	13.3	3.77e-05	0	62	0	1520435200	46	4785
2026-01-27 00:13:09.56	88.24	19.53	-37.5	-39.8	13.5	1.94e-05	0	62	0	1525678080	46	4741
2026-01-27 00:13:10.57	88.49	19.53	-37.5	-39.8	13.6	1.83e-05	0	62	0	1531969536	46	4712
2026-01-27 00:13:11.58	88.74	19.52	-37.4	-39.7	13.9	8.00e-06	0	62	0	1537212416	46	4654
2026-01-27 00:13:12.59	88.99	19.52	-37.3	-39.5	14.0	0.00e+00	0	62	0	1543503872	46	4592
2026-01-27 00:13:13.60	89.23	19.52	-37.1	-39.3	14.4	4.50e-06	0	62	0	1548746752	46	4446
2026-01-27 00:13:14.61	89.48	19.51	-37.1	-39.1	14.6	1.10e-06	0	62	0	1555038208	46	4377
2026-01-27 00:13:15.63	89.74	19.51	-37.0	-39.0	14.8	0.00e+00	0	62	0	1560281088	46	4327
2026-01-27 00:13:16.64	89.99	19.50	-36.9	-38.8	15.1	0.00e+00	0	62	0	1565523968	45	4453
2026-01-27 00:13:17.65	90.23	19.50	-36.7	-38.5	15.5	0.00e+00	0	62	0	1571815424	45	4334
2026-01-27 00:13:18.66	90.48	19.49	-36.6	-38.4	15.8	0.00e+00	0	62	0	1577058304	45	4254
2026-01-27 00:13:19.67	90.73	19.49	-36.4	-38.2	16.0	0.00e+00	0	62	0	1583349760	44	4413
2026-01-27 00:13:20.68	90.98	19.48	-36.4	-38.1	16.1	0.00e+00	0	62	0	1588592640	44	4377
2026-01-27 00:13:21.69	91.23	19.47	-36.2	-37.9	16.3	0.00e+00	0	62	0	1593835520	44	4260
2026-01-27 00:13:22.70	91.48	19.46	-36.3	-38.0	16.3	0.00e+00	0	62	0	1600126976	44	4330
2026-01-27 00:13:23.71	91.73	19.45	-36.5	-38.2	16.2	0.00e+00	0	62	0	1605369856	44	4418
2026-01-27 00:13:24.72	91.98	19.45	-36.5	-38.3	16.1	0.00e+00	0	62	0	1611661312	44	4448
2026-01-27 00:13:25.73	92.22	19.44	-36.6	-38.4	16.0	0.00e+00	0	62	0	1616904192	44	4502
2026-01-27 00:13:26.74	92.47	19.43	-36.7	-38.5	16.0	0.00e+00	0	62	0	1622147072	44	4551
2026-01-27 00:13:27.75	92.72	19.42	-36.6	-38.4	16.1	0.00e+00	0	62	0	1628438528	44	4532
2026-01-27 00:13:28.76	92.97	19.40	-36.6	-38.4	16.1	0.00e+00	0	62	0	1633681408	44	4520
2026-01-27 00:13:29.77	93.21	19.39	-36.7	-38.5	16.1	0.00e+00	0	62	0	1639972864	44	4552
2026-01-27 00:13:30.78	93.46	19.38	-36.7	-38.5	16.1	0.00e+00	0	62	0	1645215744	44	4548
2026-01-27 00:13:31.79	93.71	19.37	-36.8	-38.6	16.0	0.00e+00	0	62	0	1651507200	44	4603
2026-01-27 00:13:32.80	93.96	19.35	-36.8	-38.6	15.9	0.00e+00	0	62	0	1656750080	44	4640
2026-01-27 00:13:33.81	94.20	19.34	-36.8	-38.6	16.0	0.00e+00	0	62	0	1663041536	44	4629
2026-01-27 00:13:34.82	94.45	19.33	-36.9	-38.7	15.9	0.00e+00	0	62	0	1668284416	44	4692
2026-01-27 00:13:35.83	94.70	19.31	-37.0	-38.8	15.8	0.00e+00	0	62	0	1673527296	44	4736
2026-01-27 00:13:36.84	94.94	19.30	-36.9	-38.8	15.8	0.00e+00	0	62	0	1679818752	44	4717
2026-01-27 00:13:37.85	95.19	19.28	-36.8	-38.6	16.0	0.00e+00	0	62	0	1685061632	44	4621
2026-01-27 00:13:38.86	95.43	19.26	-36.7	-38.5	16.1	0.00e+00	0	62	0	1691353088	44	4574
2026-01-27 00:13:39.87	95.68	19.25	-36.8	-38.5	16.1	0.00e+00	0	62	0	1696595968	44	4593
2026-01-27 00:13:40.88	95.92	19.23	-36.7	-38.4	16.2	0.00e+00	0	62	0	1701838848	44	4531
2026-01-27 00:13:41.89	96.17	19.21	-36.6	-38.3	16.3	0.00e+00	0	62	0	1708130304	44	4486
2026-01-27 00:13:42.90	96.41	19.19	-36.7	-38.4	16.2	0.00e+00	0	62	0	1713373184	44	4534
2026-01-27 00:13:43.91	96.66	19.17	-36.8	-38.5	16.1	0.00e+00	0	62	0	1719664640	44	4588
2026-01-27 00:13:44.92	96.90	19.16	-36.8	-38.5	16.1	0.00e+00	0	62	0	1724907520	44	4596
2026-01-27 00:13:45.93	97.14	19.14	-36.8	-38.6	16.0	0.00e+00	0	62	0	1730150400	44	4613
2026-01-27 00:13:46.94	97.39	19.12	-36.9	-38.7	16.0	0.00e+00	0	62	0	1736441856	44	4660
2026-01-27 00:13:47.95	97.63	19.09	-36.7	-38.5	16.1	0.00e+00	0	62	0	1741684736	44	4549
2026-01-27 00:13:48.96	97.87	19.07	-36.7	-38.5	16.2	0.00e+00	0	62	0	1747976192	44	4553
2026-01-27 00:13:49.97	98.12	19.05	-36.7	-38.5	16.2	0.00e+00	0	62	0	1753219072	44	4554
2026-01-27 00:13:50.98	98.36	19.03	-36.6	-38.4	16.2	0.00e+00	0	62	0	1759510528	44	4507
2026-01-27 00:13:52.00	98.60	19.01	-36.7	-38.4	16.3	0.00e+00	0	62	0	1764753408	44	4509
2026-01-27 00:13:53.01	98.84	18.98	-36.7	-38.4	16.2	0.00e+00	0	62	0	1771044864	44	4542
2026-01-27 00:13:54.02	99.08	18.96	-36.7	-38.5	16.1	0.00e+00	0	62	0	1776287744	44	4566
2026-01-27 00:13:55.03	99.32	18.93	-36.8	-38.5	16.1	0.00e+00	0	62	0	1781530624	44	4593
2026-01-27 00:13:56.04	99.57	18.91	-36.8	-38.5	16.1	0.00e+00	0	62	0	1787822080	44	4575
2026-01-27 00:13:57.05	99.81	18.89	-36.6	-38.4	16.2	0.00e+00	0	62	0	1793064960	44	4504
2026-01-27 00:13:58.06	100.04	18.86	-36.6	-38.3	16.3	0.00e+00	0	62	0	1799356416	44	4485
2026-01-27 00:13:59.07	100.28	18.83	-36.7	-38.4	16.2	0.00e+00	0	62	0	1804599296	44	4522
2026-01-27 00:14:00.08	100.52	18.81	-36.6	-38.3	16.3	0.00e+00	0	62	0	1809842176	44	4452
2026-01-27 00:14:01.09	100.76	18.78	-36.5	-38.2	16.4	0.00e+00	0	62	0	1816133632	44	4426
2026-01-27 00:14:02.11	101.00	18.75	-36.6	-38.4	16.2	0.00e+00	0	62	0	1821376512	44	4494
2026-01-27 00:14:03.12	101.24	18.72	-36.6	-38.4	16.2	0.00e+00	0	62	0	1827667968	44	4510
2026-01-27 00:14:04.13	101.48	18.70	-36.7	-38.5	16.1	0.00e+00	0	62	0	1832910848	44	4571
2026-01-27 00:14:05.14	101.71	18.67	-36.8	-38.5	16.0	0.00e+00	0	62	0	1838153728	44	4590
2026-01-27 00:14:06.15	101.95	18.64	-36.8	-38.5	16.1	0.00e+00	0	62	0	1844445184	44	4595
2026-01-27 00:14:07.16	102.18	18.61	-36.8	-38.6	16.0	0.00e+00	0	62	0	1849688064	44	4600
2026-01-27 00:14:08.17	102.42	18.58	-36.8	-38.6	16.0	0.00e+00	0	62	0	1855979520	44	4617
2026-01-27 00:14:09.18	102.65	18.55	-36.9	-38.7	15.9	0.00e+00	0	62	0	1861222400	44	4672
2026-01-27 00:14:10.19	102.89	18.52	-36.9	-38.7	15.9	0.00e+00	0	62	0	1867513856	44	4695
2026-01-27 00:14:11.20	103.12	18.49	-36.9	-38.7	15.9	0.00e+00	0	62	0	1872756736	44	4681
2026-01-27 00:14:12.21	103.36	18.45	-36.9	-38.6	15.9	0.00e+00	0	62	0	1879048192	44	4641
2026-01-27 00:14:13.22	103.59	18.42	-36.9	-38.7	15.9	0.00e+00	0	62	0	1884291072	44	4662
2026-01-27 00:14:14.23	103.82	18.39	-36.9	-38.7	15.9	0.00e+00	0	62	0	1889533952	44	4662
2026-01-27 00:14:15.24	104.05	18.36	-36.9	-38.7	16.0	0.00e+00	0	62	0	1895825408	44	4664
2026-01-27 00:14:16.25	104.28	18.32	-37.0	-38.8	15.8	0.00e+00	0	62	0	1901068288	44	4729
2026-01-27 00:14:17.26	104.52	18.29	-37.0	-38.9	15.7	0.00e+00	0	62	0	1907359744	44	4782
2026-01-27 00:14:18.27	104.75	18.26	-37.1	-39.0	15.7	0.00e+00	0	62	0	1912602624	44	4829
2026-01-27 00:14:19.28	104.98	18.22	-37.0	-38.9	15.7	0.00e+00	0	62	0	1917845504	44	4773
2026-01-27 00:14:20.29	105.21	18.19	-37.1	-38.9	15.7	0.00e+00	0	62	0	1924136960	44	4786
2026-01-27 00:14:21.30	105.43	18.15	-37.1	-38.9	15.7	0.00e+00	0	62	0	1929379840	44	4789
2026-01-27 00:14:22.31	105.66	18.11	-37.1	-39.0	15.6	0.00e+00	0	62	0	1935671296	44	4823
2026-01-27 00:14:23.32	105.89	18.08	-37.0	-38.9	15.7	0.00e+00	0	62	0	1940914176	44	4772
2026-01-27 00:14:24.34	106.12	18.04	-37.1	-38.9	15.7	0.00e+00	0	62	0	1946157056	44	4811
2026-01-27 00:14:25.35	106.35	18.00	-37.1	-39.0	15.6	0.00e+00	0	62	0	1952448512	44	4822
2026-01-27 00:14:26.36	106.57	17.97	-37.2	-39.1	15.6	0.00e+00	0	62	0	1957691392	44	4877
2026-01-27 00:14:27.36	106.80	17.93	-37.2	-39.0	15.6	0.00e+00	0	62	0	1963982848	44	4868
2026-01-27 00:14:28.38	107.02	17.89	-37.1	-39.0	15.6	0.00e+00	0	62	0	1969225728	44	4853
2026-01-27 00:14:29.39	107.25	17.85	-37.2	-39.0	15.5	0.00e+00	0	62	0	1975517184	44	4870
2026-01-27 00:14:30.40	107.47	17.81	-37.1	-38.9	15.6	0.00e+00	0	62	0	1980760064	44	4813
2026-01-27 00:14:31.41	107.70	17.77	-37.1	-38.9	15.7	0.00e+00	0	62	0	1987051520	44	4809
2026-01-27 00:14:32.42	107.92	17.73	-37.1	-38.9	15.6	0.00e+00	0	62	0	1992294400	44	4805
2026-01-27 00:14:33.43	108.14	17.70	-37.1	-38.9	15.7	0.00e+00	0	62	0	1997537280	44	4808
2026-01-27 00:14:34.44	108.36	17.65	-37.1	-39.0	15.6	0.00e+00	0	62	0	2003828736	44	4816
2026-01-27 00:14:35.45	108.59	17.61	-37.2	-39.1	15.5	0.00e+00	0	62	0	2009071616	44	4876
2026-01-27 00:14:36.46	108.81	17.57	-37.1	-39.0	15.6	0.00e+00	0	62	0	2015363072	44	4828
2026-01-27 00:14:37.47	109.03	17.53	-37.2	-39.1	15.5	0.00e+00	0	62	0	2020605952	44	4888
2026-01-27 00:14:38.48	109.25	17.49	-37.2	-39.0	15.6	0.00e+00	0	62	0	2025848832	44	4852
2026-01-27 00:14:39.49	109.46	17.45	-37.1	-39.0	15.7	0.00e+00	0	62	0	2032140288	44	4816
2026-01-27 00:14:40.50	109.68	17.41	-37.1	-39.0	15.7	0.00e+00	0	62	0	2037383168	44	4831
2026-01-27 00:14:41.51	109.90	17.36	-37.1	-38.9	15.6	0.00e+00	0	62	0	2043674624	44	4814
2026-01-27 00:14:42.52	110.12	17.32	-37.1	-39.0	15.6	0.00e+00	0	62	0	2048917504	44	4841
2026-01-27 00:14:43.54	110.34	17.28	-37.2	-39.0	15.6	0.00e+00	0	62	0	2054160384	44	4855
2026-01-27 00:14:44.55	110.55	17.23	-37.2	-39.1	15.6	0.00e+00	0	62	0	2060451840	45	4636
2026-01-27 00:14:45.56	110.77	17.19	-37.2	-39.1	15.5	0.00e+00	0	62	0	2065694720	45	4644
2026-01-27 00:14:46.57	110.98	17.15	-37.3	-39.1	15.5	0.00e+00	0	62	0	2071986176	45	4648
2026-01-27 00:14:47.58	111.20	17.10	-37.1	-39.0	15.6	0.00e+00	0	62	0	2077229056	45	4562
2026-01-27 00:14:48.59	111.41	17.06	-37.2	-39.0	15.6	0.00e+00	0	62	0	2083520512	45	4597
2026-01-27 00:14:49.60	111.62	17.01	-37.2	-39.0	15.5	0.00e+00	0	62	0	2088763392	45	4598
2026-01-27 00:14:50.61	111.84	16.97	-37.3	-39.2	15.4	0.00e+00	0	62	0	2095054848	45	4652
2026-01-27 00:14:51.63	112.05	16.92	-37.2	-39.1	15.5	0.00e+00	0	62	0	2100297728	45	4637
2026-01-27 00:14:52.64	112.26	16.87	-37.1	-39.0	15.6	0.00e+00	0	62	0	2105540608	45	4566
2026-01-27 00:14:53.65	112.47	16.83	-37.0	-38.8	15.8	0.00e+00	0	62	0	2111832064	45	4478
2026-01-27 00:14:54.65	112.68	16.78	-37.0	-38.9	15.7	0.00e+00	0	62	0	2117074944	45	4496
2026-01-27 00:14:55.67	112.89	16.73	-37.2	-39.0	15.5	0.00e+00	0	62	0	2123366400	45	4590
2026-01-27 00:14:56.68	113.10	16.69	-37.2	-39.1	15.5	0.00e+00	0	62	0	2128609280	45	4621
2026-01-27 00:14:57.69	113.31	16.64	-37.4	-39.3	15.3	0.00e+00	0	62	0	2133852160	45	4721
2026-01-27 00:14:58.70	113.51	16.59	-37.5	-39.5	15.1	0.00e+00	0	62	0	2140143616	45	4824
2026-01-27 00:14:59.71	113.72	16.54	-37.5	-39.5	15.1	0.00e+00	0	62	0	2145386496	45	4853
2026-01-27 00:15:00.72	113.93	16.50	-37.5	-39.5	15.1	1.10e-06	0	62	0	2151677952	45	4830
2026-01-27 00:15:01.73	114.13	16.45	-37.6	-39.6	15.0	1.10e-06	0	62	0	2156920832	45	4887
2026-01-27 00:15:02.74	114.34	16.40	-37.5	-39.5	15.0	0.00e+00	0	62	0	2162163712	45	4846
2026-01-27 00:15:03.75	114.54	16.35	-37.5	-39.5	15.0	1.10e-06	0	62	0	2168455168	45	4850
2026-01-27 00:15:04.76	114.74	16.30	-37.4	-39.4	15.1	0.00e+00	0	62	0	2173698048	45	4778
2026-01-27 00:15:05.77	114.95	16.25	-37.4	-39.3	15.2	1.10e-06	0	62	0	2179989504	45	4735
2026-01-27 00:15:06.78	115.15	16.20	-37.4	-39.3	15.2	1.10e-06	0	62	0	2185232384	45	4727
2026-01-27 00:15:07.79	115.35	16.15	-37.3	-39.3	15.2	3.40e-06	0	62	0	2191523840	45	4716
2026-01-27 00:15:08.80	115.55	16.10	-37.4	-39.3	15.1	1.14e-05	0	62	0	2196766720	45	4740
2026-01-27 00:15:09.81	115.75	16.05	-37.3	-39.2	15.3	5.14e-05	0	62	0	2203058176	45	4696
2026-01-27 00:15:10.82	115.95	16.00	-37.3	-39.2	15.3	2.20e-06	0	62	0	2208301056	45	4688
2026-01-27 00:15:11.83	116.15	15.95	-37.3	-39.2	15.3	2.20e-06	0	62	0	2213543936	45	4684
2026-01-27 00:15:12.84	116.35	15.90	-37.3	-39.2	15.2	4.50e-06	0	62	0	2219835392	45	4699
2026-01-27 00:15:13.85	116.54	15.85	-37.3	-39.2	15.3	8.00e-06	0	62	0	2225078272	45	4661
2026-01-27 00:15:14.86	116.74	15.80	-37.2	-39.1	15.3	5.70e-06	0	62	0	2231369728	45	4633
2026-01-27 00:15:15.87	116.94	15.75	-37.2	-39.1	15.0	4.31e-04	0	62	0	2236612608	45	4636
2026-01-27 00:15:16.88	117.13	15.69	-37.4	-39.3	15.1	5.70e-06	0	62	0	2241855488	45	4749
2026-01-27 00:15:17.89	117.33	15.64	-37.4	-39.3	15.1	1.71e-05	0	62	0	2248146944	45	4736
2026-01-27 00:15:18.90	117.52	15.59	-37.3	-39.3	14.9	2.63e-05	0	62	0	2253389824	45	4746
2026-01-27 00:15:19.92	117.72	15.54	-37.4	-39.4	15.0	9.10e-06	0	62	0	2259681280	45	4810
2026-01-27 00:15:20.93	117.91	15.48	-37.5	-39.6	14.6	2.86e-05	0	62	0	2264924160	45	4880
2026-01-27 00:15:21.94	118.10	15.43	-37.6	-39.6	14.7	1.66e-03	0	62	0	2270167040	45	4925
2026-01-27 00:15:22.95	118.29	15.38	-37.6	-39.7	14.7	4.23e-05	0	62	0	2276458496	45	4929
2026-01-27 00:15:23.96	118.48	15.33	-37.7	-39.7	14.6	1.81e-04	0	62	0	2281701376	45	4974
2026-01-27 00:15:24.96	118.67	15.27	-37.7	-39.8	14.6	7.32e-05	0	62	0	2287992832	46	4736
2026-01-27 00:15:25.98	118.86	15.22	-37.8	-39.9	14.5	1.83e-04	0	62	0	2293235712	46	4798
2026-01-27 00:15:26.99	119.05	15.17	-37.9	-40.1	14.4	1.10e-04	0	62	0	2299527168	46	4886
2026-01-27 00:15:28.00	119.24	15.11	-37.9	-40.2	13.9	2.03e-03	0	62	0	2304770048	46	4952
2026-01-27 00:15:29.01	119.43	15.06	-38.0	-40.2	14.1	1.42e-04	0	62	0	2311061504	46	4964
2026-01-27 00:15:30.02	119.62	15.00	-38.0	-40.3	14.0	2.66e-04	0	62	0	2316304384	46	4986
2026-01-27 00:15:31.03	119.80	14.95	-38.0	-40.2	14.1	4.78e-04	0	62	0	2321547264	46	4982
2026-01-27 00:15:32.04	119.99	14.89	-37.8	-39.9	14.3	2.06e-03	0	62	0	2327838720	46	4812
2026-01-27 00:15:33.05	120.17	14.84	-37.7	-39.8	14.5	1.83e-04	0	62	0	2333081600	46	4721
2026-01-27 00:15:34.06	120.36	14.79	-37.1	-39.7	13.6	4.81e-03	0	62	0	2339373056	45	4983
2026-01-27 00:15:35.07	120.54	14.73	-37.6	-39.7	14.6	2.01e-04	0	62	0	2344615936	46	4678
2026-01-27 00:15:36.08	120.72	14.68	-37.5	-39.6	14.7	1.72e-04	0	62	0	2349858816	45	4898
2026-01-27 00:15:37.09	120.91	14.62	-37.6	-39.7	14.6	1.76e-04	0	62	0	2356150272	45	4956
2026-01-27 00:15:38.10	121.09	14.56	-37.7	-39.8	14.5	1.59e-04	0	62	0	2361393152	46	4717
2026-01-27 00:15:39.11	121.27	14.51	-37.5	-39.6	14.7	1.48e-04	0	62	0	2367684608	46	4632
2026-01-27 00:15:40.13	121.45	14.45	-37.0	-39.7	14.1	4.67e-03	0	62	0	2372927488	45	4936
2026-01-27 00:15:41.14	121.63	14.40	-37.7	-39.8	14.4	2.55e-04	0	62	0	2378170368	45	4995
2026-01-27 00:15:42.15	121.81	14.34	-37.5	-39.7	14.4	4.83e-04	0	62	0	2384461824	45	4941
2026-01-27 00:15:43.16	121.99	14.29	-37.5	-39.6	14.5	2.06e-04	0	62	0	2389704704	45	4886
2026-01-27 00:15:44.17	122.17	14.23	-37.3	-39.6	14.5	2.16e-04	0	62	0	2395996160	45	4882
2026-01-27 00:15:45.18	122.34	14.17	-37.5	-39.5	14.7	2.88e-04	0	62	0	2401239040	45	4849
2026-01-27 00:15:46.19	122.52	14.12	-37.4	-39.7	14.2	1.41e-03	0	62	0	2407530496	45	4954
2026-01-27 00:15:47.20	122.70	14.06	-37.7	-39.8	14.3	6.89e-04	0	62	0	2412773376	46	4748
2026-01-27 00:15:48.21	122.87	14.00	-37.6	-39.8	14.3	8.99e-04	0	62	0	2419064832	45	5008
2026-01-27 00:15:49.22	123.05	13.95	-37.8	-39.9	14.3	8.95e-04	0	62	0	2424307712	46	4776
2026-01-27 00:15:50.23	123.22	13.89	-37.7	-39.8	14.3	8.10e-04	0	62	0	2429550592	46	4757
2026-01-27 00:15:51.25	123.39	13.83	-37.8	-40.0	14.1	1.76e-03	0	62	0	2435842048	46	4867
2026-01-27 00:15:52.26	123.57	13.77	-37.8	-40.0	14.1	2.69e-03	0	62	0	2441084928	46	4866
2026-01-27 00:15:53.27	123.74	13.72	-37.8	-40.0	13.7	2.88e-03	0	62	0	2447376384	45	5143
2026-01-27 00:15:54.28	123.91	13.66	-37.4	-40.1	13.4	5.07e-03	0	62	0	2452619264	45	5164
2026-01-27 00:15:55.29	124.08	13.60	-38.0	-40.1	14.0	2.96e-03	0	62	0	2457862144	46	4924
2026-01-27 00:15:56.30	124.25	13.55	-36.7	-40.1	13.0	4.86e-03	0	62	0	2464153600	46	4875
2026-01-27 00:15:57.31	124.42	13.49	-37.7	-40.0	13.8	1.15e-02	0	62	0	2469396480	46	4861
2026-01-27 00:15:58.32	124.59	13.43	-37.8	-40.2	13.1	9.18e-03	0	62	0	2475687936	46	4981
2026-01-27 00:15:59.33	124.76	13.37	-36.0	-40.1	12.9	1.08e-02	0	62	0	2480930816	45	5170
2026-01-27 00:16:00.34	124.92	13.31	-37.7	-40.2	13.0	2.42e-02	0	62	0	2486173696	44	5570
2026-01-27 00:16:01.35	125.09	13.26	-37.3	-40.2	12.1	3.57e-02	0	62	0	2492465152	44	5560
2026-01-27 00:16:02.36	125.26	13.20	-34.9	-39.7	10.3	5.72e-02	0	62	0	2497708032	41	6246
2026-01-27 00:16:03.37	125.42	13.14	-36.4	-40.1	12.5	7.47e-02	0	62	0	2502950912	45	5180
2026-01-27 00:16:04.38	125.59	13.08	-36.5	-40.0	10.5	1.42e-01	0	62	0	2508193792	43	5786
2026-01-27 00:16:05.39	125.75	13.02	-35.7	-39.9	9.4	1.71e-01	0	62	0	2513436672	39	7159
2026-01-27 00:16:06.40	125.92	12.97	-35.4	-40.3	10.8	1.75e-01	0	62	0	2518679552	43	5956
2026-01-27 00:16:07.41	126.08	12.91	-32.3	-39.3	10.2	2.06e-01	0	62	0	2523922432	43	5298
2026-01-27 00:16:08.42	126.24	12.85	-34.9	-38.9	9.1	1.87e-01	0	62	0	2528116736	38	6772
2026-01-27 00:16:09.43	126.40	12.79	-35.4	-39.7	9.7	2.65e-01	0	62	0	2533359616	38	7425
2026-01-27 00:16:10.44	126.56	12.73	-34.7	-39.6	10.2	2.61e-01	0	62	0	2537553920	37	7780
2026-01-27 00:16:11.45	126.72	12.67	-32.8	-38.8	7.8	3.55e-01	0	62	0	2541748224	30	10600
2026-01-27 00:16:12.46	126.88	12.61	-30.1	-38.6	8.0	3.56e-01	0	62	0	2544893952	32	9210
2026-01-27 00:16:13.47	127.04	12.56	-30.4	-38.1	8.3	3.79e-01	0	62	0	2549088256	33	8177
2026-01-27 00:16:14.48	127.20	12.50	-24.8	-36.4	5.4	5.79e-01	0	62	0	2551185408	20	14260
2026-01-27 00:16:15.49	127.36	12.44	-30.9	-38.1	7.4	4.73e-01	0	62	0	2553282560	26	12339
2026-01-27 00:16:16.50	127.52	12.38	-27.8	-37.6	7.8	5.18e-01	0	62	0	2556428288	29	9762
2026-01-27 00:16:17.51	127.67	12.32	-23.5	-36.4	4.6	5.46e-01	0	62	104	2557476864	18	16056
2026-01-27 00:16:18.52	127.83	12.26	-23.9	-35.0	4.5	7.92e-01	0	62	104	2557476864	22	10869
2026-01-27 00:16:19.53	127.99	12.20	-23.5	-37.6	5.3	7.98e-01	0	62	104	2557476864	25	12365
2026-01-27 00:16:20.54	128.14	12.14	-21.7	-35.0	4.2	8.16e-01	0	62	104	2557476864	14	17115
2026-01-27 00:16:21.55	128.30	12.08	-25.4	-38.7	5.3	8.02e-01	0	62	104	2557476864	26	13245
2026-01-27 00:16:22.56	128.45	12.02	-28.1	-42.0	4.9	8.21e-01	0	62	104	2557476864	25	20478
2026-01-27 00:16:23.57	128.60	11.96	-22.9	-35.8	5.0	8.22e-01	0	62	104	2557476864	22	11949
2026-01-27 00:16:24.58	128.76	11.91	-24.7	-34.7	4.9	8.02e-01	0	62	104	2557476864	22	10523
2026-01-27 00:16:25.59	128.91	11.85	-26.3	-38.1	5.1	8.10e-01	0	62	104	2557476864	20	17403
2026-01-27 00:16:26.60	129.06	11.79	-25.1	-36.6	4.2	8.22e-01	0	62	104	2557476864	19	15434
2026-01-27 00:16:27.61	129.21	11.73	-27.1	-37.1	4.5	8.16e-01	0	62	104	2557476864	17	18496
2026-01-27 00:16:28.62	129.36	11.67	-23.0	-37.5	4.6	8.18e-01	0	62	104	2557476864	19	17281
2026-01-27 00:16:29.63	129.51	11.61	-22.1	-34.8	4.4	8.20e-01	0	62	104	2557476864	16	14922
2026-01-27 00:16:30.64	129.66	11.55	-27.7	-37.5	5.1	8.06e-01	0	62	104	2557476864	21	15390
2026-01-27 00:16:31.65	129.81	11.49	-29.6	-42.9	4.7	8.05e-01	0	62	104	2557476864	25	22702
2026-01-27 00:16:32.66	129.95	11.43	-23.1	-34.5	4.0	8.35e-01	0	62	0	2557476864	15	15236
2026-01-27 00:16:33.67	130.10	11.37	-23.1	-35.5	4.5	8.18e-01	0	62	104	2557476864	16	16272
2026-01-27 00:16:34.68	130.25	11.31	-25.1	-36.2	4.8	8.10e-01	0	62	104	2557476864	17	16542
2026-01-27 00:16:35.69	130.39	11.25	-23.3	-34.7	4.2	8.31e-01	0	62	104	2557476864	16	14797
2026-01-27 00:16:36.70	130.54	11.19	-25.7	-37.0	4.9	8.13e-01	0	62	104	2557476864	20	15375
2026-01-27 00:16:37.71	130.69	11.13	-26.6	-37.8	4.9	8.13e-01	0	62	104	2557476864	22	14924
2026-01-27 00:16:38.71	130.83	11.07	-22.3	-34.6	4.1	8.29e-01	0	62	104	2557476864	18	13098
2026-01-27 00:16:39.72	130.97	11.01	-26.8	-40.6	4.3	8.09e-01	0	62	104	2557476864	22	20598
2026-01-27 00:16:40.73	131.12	10.95	-21.9	-34.8	4.9	8.12e-01	0	62	104	2557476864	21	11178
2026-01-27 00:16:41.74	131.26	10.89	-21.9	-33.6	4.9	8.28e-01	0	62	104	2557476864	18	11635
2026-01-27 00:16:42.75	131.40	10.83	-25.1	-35.5	4.8	8.16e-01	0	62	104	2557476864	18	14455
2026-01-27 00:16:43.76	131.54	10.77	-23.0	-35.1	5.1	8.11e-01	0	62	104	2557476864	22	10950
2026-01-27 00:16:44.77	131.68	10.71	-21.8	-32.8	4.3	8.37e-01	0	62	104	2557476864	15	12528
2026-01-27 00:16:45.78	131.82	10.65	-22.8	-33.1	3.8	8.17e-01	0	62	104	2557476864	14	13881
2026-01-27 00:16:46.79	131.96	10.59	-25.2	-36.6	3.4	8.26e-01	0	62	104	2557476864	17	17407
2026-01-27 00:16:47.80	132.10	10.53	-23.7	-35.4	3.6	8.23e-01	0	62	104	2557476864	12	20301
2026-01-27 00:16:48.81	132.24	10.48	-25.9	-39.8	4.5	8.10e-01	0	62	104	2557476864	18	23634
2026-01-27 00:16:49.82	132.38	10.42	-25.6	-39.0	4.1	7.98e-01	0	62	104	2557476864	22	17124
2026-01-27 00:16:50.83	132.52	10.36	-24.6	-37.8	3.6	8.16e-01	0	62	0	2557476864	18	18760
2026-01-27 00:16:51.84	132.65	10.30	-23.2	-35.8	3.6	7.82e-01	0	62	104	2557476864	14	18938
2026-01-27 00:16:52.85	132.79	10.24	-27.7	-40.2	3.4	8.22e-01	0	62	104	2557476864	16	27846
2026-01-27 00:16:53.86	132.93	10.18	-27.6	-41.6	3.8	8.06e-01	0	62	104	2557476864	22	23061
2026-01-27 00:16:54.87	133.06	10.12	-26.8	-42.2	3.9	8.00e-01	0	62	104	2557476864	26	19690
2026-01-27 00:16:55.88	133.20	10.06	-27.2	-39.7	3.7	8.01e-01	0	62	104	2557476864	23	17493
2026-01-27 00:16:56.88	133.33	10.00	-27.3	-41.7	3.9	8.12e-01	0	62	104	2557476864	27	17551
2026-01-27 00:16:57.90	133.47	9.94	-28.9	-42.0	4.2	8.00e-01	0	62	104	2557476864	23	23037
2026-01-27 00:16:58.90	133.60	9.88	-21.1	-36.7	3.9	8.13e-01	0	62	104	2557476864	12	23567
2026-01-27 00:16:59.91	133.73	9.82	-24.4	-37.9	4.2	8.34e-01	0	62	104	2557476864	19	18033
2026-01-27 00:17:00.92	133.86	9.76	-29.1	-41.2	4.1	7.99e-01	0	62	104	2557476864	21	23459
2026-01-27 00:17:01.93	134.00	9.70	-29.7	-44.0	4.4	8.13e-01	0	62	104	2557476864	25	25839
2026-01-27 00:17:02.94	134.13	9.64	-38.0	-51.1	4.4	8.23e-01	0	62	104	2557476864	39	26148
2026-01-27 00:17:03.95	134.26	9.58	-38.3	-51.1	4.1	8.38e-01	0	62	104	2557476864	43	20688
2026-01-27 00:17:04.96	134.39	9.52	-22.7	-38.8	3.7	8.23e-01	0	62	104	2557476864	16	23791
2026-01-27 00:17:05.97	134.52	9.46	-24.9	-39.5	3.8	8.34e-01	0	62	104	2557476864	18	23018
2026-01-27 00:17:06.98	134.65	9.40	-31.6	-45.7	4.5	8.19e-01	0	62	104	2557476864	34	18625
2026-01-27 00:17:07.99	134.78	9.34	-33.1	-48.3	4.4	8.28e-01	0	62	104	2557476864	39	18772
2026-01-27 00:17:09.00	134.90	9.28	-38.2	-51.0	4.1	8.36e-01	0	62	104	2557476864	45	18138
2026-01-27 00:17:10.00	135.03	9.22	-35.0	-50.8	4.1	8.41e-01	0	62	104	2557476864	46	16722
2026-01-27 00:17:11.01	135.16	9.16	-41.0	-52.0	4.0	8.45e-01	0	62	104	2557476864	50	15383
2026-01-27 00:17:12.02	135.29	9.10	-39.6	-52.8	3.8	8.47e-01	0	62	104	2557476864	54	13317
2026-01-27 00:17:13.03	135.41	9.04	-37.0	-49.8	4.3	8.42e-01	0	62	104	2557476864	42	18794
2026-01-27 00:17:14.04	135.54	8.98	-38.6	-52.1	4.1	8.42e-01	0	62	104	2557476864	47	18360
2026-01-27 00:17:15.06	135.66	8.92	-38.2	-51.7	4.0	8.42e-01	0	62	104	2557476864	50	14813
2026-01-27 00:17:16.07	135.79	8.86	-40.3	-53.0	3.9	8.46e-01	0	62	104	2557476864	52	15374
2026-01-27 00:17:17.07	135.91	8.81	-38.1	-52.5	3.9	8.45e-01	0	62	104	2557476864	48	18150
2026-01-27 00:17:18.09	136.04	8.75	-36.4	-50.9	3.9	8.46e-01	0	62	104	2557476864	43	20255
2026-01-27 00:17:19.10	136.16	8.69	-38.8	-53.2	3.8	8.46e-01	0	62	104	2557476864	53	14812
2026-01-27 00:17:20.11	136.28	8.63	-41.5	-52.4	4.1	8.46e-01	0	62	104	2557476864	44	22540
2026-01-27 00:17:21.12	136.41	8.57	-42.3	-54.0	3.8	8.46e-01	0	62	104	2557476864	55	14419
2026-01-27 00:17:22.13	136.53	8.51	-41.9	-53.6	3.9	8.45e-01	0	62	104	2557476864	53	15416
2026-01-27 00:17:23.14	136.65	8.45	-41.6	-53.5	3.7	8.46e-01	0	62	104	2557476864	49	19276
2026-01-27 00:17:24.15	136.77	8.39	-41.8	-53.6	3.8	8.46e-01	0	62	104	2557476864	54	14643
2026-01-27 00:17:25.16	136.89	8.33	-41.8	-53.5	3.8	8.46e-01	0	62	104	2557476864	54	14388
2026-01-27 00:17:26.17	137.01	8.27	-41.8	-53.0	3.7	8.45e-01	0	62	104	2557476864	53	14434
2026-01-27 00:17:27.18	137.13	8.21	-42.1	-53.7	3.8	8.46e-01	0	62	104	2557476864	54	14747
2026-01-27 00:17:28.19	137.25	8.15	-39.6	-52.2	3.7	8.46e-01	0	62	104	2557476864	52	13917
2026-01-27 00:17:29.20	137.37	8.09	-40.4	-53.2	3.9	8.44e-01	0	62	104	2557476864	46	22095
2026-01-27 00:17:30.21	137.48	8.04	-41.3	-53.1	3.9	8.46e-01	0	62	104	2557476864	53	14686
2026-01-27 00:17:31.22	137.60	7.98	-34.2	-46.2	4.2	8.44e-01	0	62	104	2557476864	33	20838
2026-01-27 00:17:32.23	137.72	7.92	-44.2	-56.0	3.8	8.40e-01	0	62	104	2557476864	59	14391
2026-01-27 00:17:33.24	137.84	7.86	-44.7	-56.6	3.8	8.47e-01	0	62	104	2557476864	60	14698
2026-01-27 00:17:34.25	137.95	7.80	-44.9	-56.8	3.8	8.46e-01	0	62	104	2557476864	60	15004
2026-01-27 00:17:35.26	138.07	7.74	-45.0	-56.9	3.8	8.46e-01	0	62	104	2557476864	60	15160
2026-01-27 00:17:36.27	138.18	7.68	-45.1	-57.0	3.8	8.46e-01	0	62	104	2557476864	60	15239
2026-01-27 00:17:37.28	138.30	7.62	-45.2	-57.1	3.8	8.46e-01	0	62	104	2557476864	60	15483
2026-01-27 00:17:38.29	138.41	7.56	-45.3	-57.2	3.8	8.46e-01	0	62	104	2557476864	61	14717
2026-01-27 00:17:39.31	138.53	7.51	-45.3	-57.1	3.8	8.45e-01	0	62	104	2557476864	61	14696
2026-01-27 00:17:40.32	138.64	7.45	-45.3	-57.1	3.8	8.46e-01	0	62	104	2557476864	61	14572
2026-01-27 00:17:41.33	138.75	7.39	-45.2	-57.0	3.8	8.46e-01	0	62	104	2557476864	61	14395
2026-01-27 00:17:42.34	138.87	7.33	-45.1	-56.9	3.8	8.46e-01	0	62	104	2557476864	61	14301
2026-01-27 00:17:43.35	138.98	7.27	-45.0	-56.8	3.8	8.46e-01	0	62	104	2557476864	61	14048
2026-01-27 00:17:44.36	139.09	7.21	-45.0	-56.7	3.8	8.46e-01	0	62	104	2557476864	61	13985
2026-01-27 00:17:45.37	139.20	7.15	-45.0	-56.7	3.8	8.45e-01	0	62	104	2557476864	61	13939
2026-01-27 00:17:46.38	139.31	7.10	-44.9	-56.6	3.8	8.46e-01	0	62	104	2557476864	61	13826
2026-01-27 00:17:47.39	139.42	7.04	-44.9	-56.6	3.8	8.46e-01	0	62	104	2557476864	61	13755
2026-01-27 00:17:48.40	139.53	6.98	-44.9	-56.6	3.8	8.46e-01	0	62	104	2557476864	61	13795
2026-01-27 00:17:49.41	139.64	6.92	-44.9	-56.6	3.8	8.46e-01	0	62	104	2557476864	61	13757
2026-01-27 00:17:50.42	139.75	6.86	-44.9	-56.6	3.8	8.46e-01	0	62	104	2557476864	61	13771
2026-01-27 00:17:51.43	139.86	6.80	-44.9	-56.6	3.8	8.46e-01	0	62	104	2557476864	61	13759
2026-01-27 00:17:52.44	139.97	6.75	-44.9	-56.6	3.8	8.45e-01	0	62	104	2557476864	61	13827
2026-01-27 00:17:53.45	140.08	6.69	-44.9	-56.6	3.8	8.46e-01	0	62	104	2557476864	61	13729
2026-01-27 00:17:54.46	140.19	6.63	-44.9	-56.5	3.8	8.46e-01	0	62	104	2557476864	61	13712
2026-01-27 00:17:55.47	140.29	6.57	-44.9	-56.6	3.8	8.47e-01	0	62	104	2557476864	61	13803
2026-01-27 00:17:56.48	140.40	6.51	-44.9	-56.6	3.8	8.46e-01	0	62	104	2557476864	61	13741
2026-01-27 00:17:57.49	140.51	6.46	-44.9	-56.5	3.8	8.46e-01	0	62	104	2557476864	61	13680
2026-01-27 00:17:58.50	140.61	6.40	-44.9	-56.6	3.8	8.45e-01	0	62	104	2557476864	61	13745
2026-01-27 00:17:59.51	140.72	6.34	-44.9	-56.5	3.8	8.47e-01	0	62	104	2557476864	61	13660
2026-01-27 00:18:00.52	140.82	6.28	-44.9	-56.5	3.8	8.46e-01	0	62	104	2557476864	61	13692
2026-01-27 00:18:01.54	140.93	6.22	-44.9	-56.6	3.8	8.46e-01	0	62	104	2557476864	61	13781
2026-01-27 00:18:02.55	141.03	6.17	-44.9	-56.6	3.8	8.46e-01	0	62	104	2557476864	61	13737
2026-01-27 00:18:03.56	141.14	6.11	-44.9	-56.5	3.8	8.45e-01	0	62	104	2557476864	61	13675
2026-01-27 00:18:04.57	141.24	6.05	-44.8	-56.5	3.8	8.47e-01	0	62	104	2557476864	61	13674
2026-01-27 00:18:05.58	141.34	5.99	-44.8	-56.5	3.8	8.47e-01	0	62	104	2557476864	61	13604
2026-01-27 00:18:06.59	141.45	5.94	-44.8	-56.5	3.8	8.47e-01	0	62	104	2557476864	61	13614
2026-01-27 00:18:07.60	141.55	5.88	-44.8	-56.5	3.8	8.47e-01	0	62	104	2557476864	61	13694
2026-01-27 00:18:08.61	141.65	5.82	-44.8	-56.5	3.8	8.46e-01	0	62	104	2557476864	61	13688
2026-01-27 00:18:09.62	141.75	5.76	-44.8	-56.5	3.8	8.46e-01	0	62	104	2557476864	61	13680
2026-01-27 00:18:10.63	141.85	5.71	-44.9	-56.5	3.8	8.46e-01	0	62	104	2557476864	61	13708
2026-01-27 00:18:11.64	141.95	5.65	-44.8	-56.5	3.8	8.47e-01	0	62	104	2557476864	61	13670
2026-01-27 00:18:12.65	142.06	5.59	-44.8	-56.5	3.8	8.46e-01	0	62	104	2557476864	61	13680
2026-01-27 00:18:13.66	142.16	5.54	-44.8	-56.5	3.8	8.46e-01	0	62	104	2557476864	61	13654
2026-01-27 00:18:14.67	142.25	5.48	-44.8	-56.5	3.8	8.47e-01	0	62	104	2557476864	61	13664
2026-01-27 00:18:15.68	142.35	5.42	-44.8	-56.5	3.8	8.46e-01	0	62	104	2557476864	61	13651
2026-01-27 00:18:16.69	142.45	5.37	-44.8	-56.5	3.8	8.45e-01	0	62	104	2557476864	61	13672
2026-01-27 00:18:17.70	142.55	5.31	-44.8	-56.5	3.8	8.46e-01	0	62	104	2557476864	61	13638
2026-01-27 00:18:18.71	142.65	5.25	-44.9	-56.5	3.8	8.46e-01	0	62	104	2557476864	61	13687
2026-01-27 00:18:19.72	142.75	5.19	-44.8	-56.5	3.8	8.46e-01	0	62	104	2557476864	61	13626
2026-01-27 00:18:20.73	142.85	5.14	-44.8	-56.5	3.8	8.46e-01	0	62	104	2557476864	61	13616
2026-01-27 00:18:21.74	142.94	5.08	-44.8	-56.5	3.8	8.47e-01	0	62	104	2557476864	61	13669
2026-01-27 00:18:22.75	143.04	5.02	-44.8	-56.5	3.8	8.46e-01	0	62	104	2557476864	61	13696
2026-01-27 00:18:23.76	143.14	4.97	-44.8	-56.5	3.8	8.45e-01	0	62	104	2557476864	61	13635
2026-01-27 00:18:24.77	143.23	4.91	-44.8	-56.5	3.8	8.46e-01	0	62	104	2557476864	61	13675
2026-01-27 00:18:25.78	143.33	4.86	-44.8	-56.5	3.8	8.45e-01	0	62	104	2557476864	61	13657
2026-01-27 00:18:26.79	143.42	4.80	-44.8	-56.5	3.8	8.46e-01	0	62	104	2557476864	61	13668
2026-01-27 00:18:27.81	143.52	4.74	-44.8	-56.5	3.8	8.47e-01	0	62	104	2557476864	61	13657
2026-01-27 00:18:28.82	143.61	4.69	-44.8	-56.5	3.8	8.47e-01	0	62	104	2557476864	61	13693
2026-01-27 00:18:29.83	143.71	4.63	-44.8	-56.5	3.8	8.47e-01	0	62	104	2557476864	61	13691
2026-01-27 00:18:30.84	143.80	4.57	-44.8	-56.5	3.8	8.46e-01	0	62	104	2557476864	61	13654
2026-01-27 00:18:31.85	143.89	4.52	-44.8	-56.5	3.8	8.47e-01	0	62	104	2557476864	61	13609
