passes_logs/2025/01/01/PPK-1/PPK-1__20250101_114034_TY-41_rec.log

#Pass ID: 20250101_114034_TY-41
#Satellite: TY-41
#Configuration: TY-39
#almurnet v.1.7.20230919.trace
#Start time: 2025-01-01 11:40:36

#Version: 2.2.20231116
#Station: PPK-1
#Location: 158.6 lon 53.06666 lat
#TLE: 1 61231U 24173E   24366.09639849  .00003749  00000+0  18154-3 0  9993
#TLE: 2 61231  97.4116  77.2659 0001647  89.6556 270.4868 15.19166915 14820

#Time	Az	El	Level	Level2	SNR	BER	BlckErr	Temp	State
2025-01-01 11:40:36.09	186.62	8.12	-66.0	-71.9	3.5	0.00e+00	0	45	0
2025-01-01 11:40:36.99	186.68	8.20	-66.5	-72.2	3.7	0.00e+00	0	46	104
2025-01-01 11:40:37.98	186.76	8.29	-66.7	-72.3	3.5	0.00e+00	0	46	104
2025-01-01 11:40:38.89	186.82	8.37	-66.8	-72.5	3.7	0.00e+00	0	46	104
2025-01-01 11:40:39.88	186.89	8.47	-66.9	-72.3	3.5	0.00e+00	0	46	104
2025-01-01 11:40:40.79	186.96	8.55	-66.9	-72.4	3.7	0.00e+00	0	47	104
2025-01-01 11:40:41.78	187.03	8.64	-67.0	-72.6	3.7	0.00e+00	0	47	104
2025-01-01 11:40:42.69	187.10	8.73	-67.0	-72.8	3.6	0.00e+00	0	47	104
2025-01-01 11:40:43.68	187.18	8.82	-67.1	-73.0	3.7	0.00e+00	0	47	104
2025-01-01 11:40:44.59	187.24	8.91	-67.1	-73.1	3.6	0.00e+00	0	47	104
2025-01-01 11:40:45.58	187.32	9.00	-67.2	-73.3	3.6	0.00e+00	0	47	104
2025-01-01 11:40:46.48	187.39	9.09	-67.3	-73.5	3.6	0.00e+00	0	47	104
2025-01-01 11:40:47.48	187.47	9.18	-67.3	-73.1	3.6	0.00e+00	0	48	104
2025-01-01 11:40:48.38	187.54	9.27	-67.4	-73.3	3.7	0.00e+00	0	48	104
2025-01-01 11:40:49.37	187.61	9.36	-67.4	-73.3	3.6	0.00e+00	0	48	104
2025-01-01 11:40:50.27	187.69	9.45	-67.4	-73.4	3.7	0.00e+00	0	48	104
2025-01-01 11:40:51.27	187.76	9.55	-67.4	-73.3	3.6	0.00e+00	0	48	104
2025-01-01 11:40:52.17	187.84	9.64	-67.4	-73.3	3.7	0.00e+00	0	48	104
2025-01-01 11:40:53.17	187.92	9.74	-67.4	-73.3	3.7	0.00e+00	0	49	104
2025-01-01 11:40:54.07	187.99	9.82	-67.3	-73.1	3.6	0.00e+00	0	49	104
2025-01-01 11:40:55.07	188.07	9.92	-67.3	-73.0	3.7	0.00e+00	0	49	104
2025-01-01 11:40:55.97	188.15	10.01	-67.2	-72.8	3.6	0.00e+00	0	49	104
2025-01-01 11:40:56.97	188.23	10.11	-67.1	-72.6	3.7	0.00e+00	0	49	104
2025-01-01 11:40:57.87	188.31	10.20	-67.2	-72.7	3.6	0.00e+00	0	49	104
2025-01-01 11:40:58.87	188.39	10.30	-67.2	-72.8	3.6	0.00e+00	0	49	104
2025-01-01 11:40:59.77	188.47	10.40	-67.3	-72.8	3.7	0.00e+00	0	49	104
2025-01-01 11:41:00.77	188.55	10.50	-67.3	-72.8	3.6	0.00e+00	0	50	104
2025-01-01 11:41:01.67	188.63	10.59	-67.3	-72.9	3.7	0.00e+00	0	50	104
2025-01-01 11:41:02.67	188.72	10.69	-67.3	-72.9	3.6	0.00e+00	0	50	104
2025-01-01 11:41:03.57	188.80	10.79	-67.3	-73.0	3.7	0.00e+00	0	50	104
2025-01-01 11:41:04.57	188.89	10.89	-67.3	-73.0	3.7	0.00e+00	0	50	104
2025-01-01 11:41:05.47	188.97	10.98	-67.3	-73.1	3.6	0.00e+00	0	50	104
2025-01-01 11:41:06.47	189.06	11.09	-67.3	-73.1	3.7	0.00e+00	0	51	104
2025-01-01 11:41:07.37	189.14	11.18	-67.3	-73.1	3.6	0.00e+00	0	50	104
2025-01-01 11:41:08.37	189.23	11.29	-67.4	-73.3	3.7	0.00e+00	0	51	104
2025-01-01 11:41:09.27	189.31	11.39	-67.4	-73.3	3.6	0.00e+00	0	51	104
2025-01-01 11:41:10.26	189.41	11.49	-67.4	-73.3	3.6	0.00e+00	0	51	104
2025-01-01 11:41:11.16	189.49	11.59	-67.5	-73.4	3.7	0.00e+00	0	51	104
2025-01-01 11:41:12.16	189.58	11.70	-67.5	-73.4	3.6	0.00e+00	0	51	104
2025-01-01 11:41:13.06	189.67	11.80	-67.5	-73.4	3.7	0.00e+00	0	52	104
2025-01-01 11:41:14.06	189.77	11.91	-67.5	-73.4	3.6	0.00e+00	0	52	104
2025-01-01 11:41:14.96	189.85	12.00	-67.5	-73.3	3.6	0.00e+00	0	52	104
2025-01-01 11:41:15.96	189.95	12.11	-67.5	-73.3	3.7	0.00e+00	0	52	104
2025-01-01 11:41:16.86	190.04	12.21	-67.4	-73.1	3.6	0.00e+00	0	52	104
2025-01-01 11:41:17.86	190.14	12.33	-56.0	-58.9	10.6	0.00e+00	332	52	104
2025-01-01 11:41:18.76	190.23	12.43	-55.9	-58.6	12.2	3.67e-04	0	53	0
2025-01-01 11:41:19.76	190.33	12.54	-56.0	-58.8	12.2	1.80e-04	0	53	0
2025-01-01 11:41:20.66	190.42	12.64	-55.9	-58.6	12.2	1.60e-04	0	53	0
2025-01-01 11:41:21.66	190.53	12.76	-55.7	-58.1	12.5	7.62e-05	0	53	0
2025-01-01 11:41:22.56	190.62	12.86	-55.5	-58.2	12.6	6.24e-05	0	53	0
2025-01-01 11:41:23.55	190.72	12.97	-55.2	-57.6	12.8	2.77e-05	0	53	0
2025-01-01 11:41:24.46	190.82	13.08	-54.7	-57.2	12.8	2.08e-05	0	54	0
2025-01-01 11:41:25.45	190.92	13.19	-54.6	-57.0	12.9	0.00e+00	0	54	0
2025-01-01 11:41:26.36	191.02	13.30	-54.5	-57.2	13.0	6.90e-06	0	54	0
2025-01-01 11:41:27.35	191.13	13.42	-54.5	-57.2	12.9	6.90e-06	0	54	0
2025-01-01 11:41:28.26	191.23	13.52	-54.4	-57.0	13.0	2.77e-05	0	54	0
2025-01-01 11:41:29.25	191.34	13.64	-54.4	-57.0	12.9	1.38e-05	0	54	0
2025-01-01 11:41:30.16	191.44	13.75	-54.1	-56.5	13.1	0.00e+00	0	55	0
2025-01-01 11:41:31.15	191.55	13.87	-54.2	-56.6	13.0	0.00e+00	0	55	0
2025-01-01 11:41:32.05	191.65	13.98	-54.3	-56.9	12.8	1.38e-05	0	55	0
2025-01-01 11:41:33.04	191.76	14.10	-54.4	-57.1	12.6	2.08e-05	0	55	0
2025-01-01 11:41:33.95	191.87	14.21	-54.6	-57.4	12.5	8.32e-05	0	55	0
2025-01-01 11:41:34.94	191.98	14.33	-54.5	-57.3	12.6	6.93e-05	0	55	0
2025-01-01 11:41:35.85	192.09	14.44	-54.5	-57.2	12.7	2.77e-05	0	55	0
2025-01-01 11:41:36.84	192.21	14.56	-54.6	-57.4	12.8	4.16e-05	0	55	0
2025-01-01 11:41:37.75	192.32	14.68	-54.7	-57.6	12.8	4.85e-05	0	55	0
2025-01-01 11:41:38.74	192.43	14.80	-54.6	-57.5	12.9	6.90e-06	0	56	0
2025-01-01 11:41:39.65	192.55	14.92	-54.6	-57.4	12.9	3.46e-05	0	56	0
2025-01-01 11:41:40.63	192.67	15.04	-54.6	-57.5	12.8	4.85e-05	0	56	0
2025-01-01 11:41:41.54	192.78	15.16	-54.4	-57.0	12.9	1.38e-05	0	56	0
2025-01-01 11:41:42.53	192.90	15.29	-54.1	-56.4	13.1	6.90e-06	0	56	0
2025-01-01 11:41:43.44	193.02	15.40	-53.9	-56.5	13.2	0.00e+00	0	56	0
2025-01-01 11:41:44.43	193.14	15.53	-53.8	-56.3	13.3	6.90e-06	0	56	0
2025-01-01 11:41:45.34	193.26	15.65	-53.5	-56.1	13.4	6.90e-06	0	56	0
2025-01-01 11:41:46.33	193.39	15.78	-53.3	-55.8	13.5	6.90e-06	0	57	0
2025-01-01 11:41:47.24	193.51	15.90	-53.4	-56.1	13.4	0.00e+00	0	57	0
2025-01-01 11:41:48.23	193.64	16.03	-53.3	-55.8	13.5	0.00e+00	0	57	0
2025-01-01 11:41:49.14	193.76	16.15	-53.3	-55.8	13.6	0.00e+00	0	57	0
2025-01-01 11:41:50.13	193.89	16.29	-53.2	-55.7	13.7	0.00e+00	0	57	0
2025-01-01 11:41:51.04	194.02	16.41	-53.4	-56.0	13.6	0.00e+00	0	57	0
2025-01-01 11:41:52.03	194.15	16.54	-53.6	-56.3	13.5	6.90e-06	0	57	0
2025-01-01 11:41:52.94	194.28	16.67	-53.5	-56.3	13.6	0.00e+00	0	57	0
2025-01-01 11:41:53.93	194.42	16.80	-53.5	-56.2	13.6	0.00e+00	0	57	0
2025-01-01 11:41:54.83	194.55	16.93	-53.6	-56.4	13.6	0.00e+00	0	58	0
2025-01-01 11:41:55.82	194.69	17.07	-53.8	-56.7	13.6	0.00e+00	0	58	0
2025-01-01 11:41:56.73	194.82	17.19	-53.7	-56.6	13.7	6.90e-06	0	58	0
2025-01-01 11:41:57.72	194.96	17.33	-53.8	-56.8	13.6	6.90e-06	0	58	0
2025-01-01 11:41:58.62	195.10	17.46	-53.7	-56.6	13.6	0.00e+00	0	58	0
2025-01-01 11:41:59.62	195.25	17.60	-53.6	-56.3	13.6	0.00e+00	0	58	0
2025-01-01 11:42:00.52	195.38	17.73	-53.4	-55.9	13.7	0.00e+00	0	58	0
2025-01-01 11:42:01.52	195.53	17.88	-53.1	-55.4	13.8	6.90e-06	0	58	0
2025-01-01 11:42:02.42	195.67	18.01	-52.8	-55.2	14.1	0.00e+00	0	58	0
2025-01-01 11:42:03.42	195.83	18.15	-52.5	-55.2	14.2	0.00e+00	0	58	0
2025-01-01 11:42:04.32	195.97	18.29	-52.6	-55.4	14.1	0.00e+00	0	58	0
2025-01-01 11:42:05.32	196.13	18.43	-52.3	-54.8	14.2	0.00e+00	0	59	0
2025-01-01 11:42:06.22	196.27	18.57	-52.2	-54.6	14.3	0.00e+00	0	59	0
2025-01-01 11:42:07.22	196.43	18.72	-52.2	-54.5	14.2	0.00e+00	0	59	0
2025-01-01 11:42:08.12	196.58	18.85	-52.2	-54.6	14.2	0.00e+00	0	59	0
2025-01-01 11:42:09.12	196.74	19.00	-52.4	-54.9	14.1	0.00e+00	0	59	0
2025-01-01 11:42:10.02	196.89	19.14	-52.5	-55.2	14.0	0.00e+00	0	59	0
2025-01-01 11:42:11.02	197.06	19.29	-52.7	-55.5	14.0	0.00e+00	0	59	0
2025-01-01 11:42:11.92	197.21	19.43	-52.7	-55.6	14.0	0.00e+00	0	59	0
2025-01-01 11:42:12.92	197.39	19.59	-52.8	-55.7	14.0	0.00e+00	0	59	0
2025-01-01 11:42:13.82	197.54	19.73	-52.9	-55.9	14.1	0.00e+00	0	60	0
2025-01-01 11:42:14.81	197.72	19.88	-52.7	-55.5	14.2	0.00e+00	0	60	0
2025-01-01 11:42:15.71	197.88	20.02	-52.6	-55.3	14.2	0.00e+00	0	60	0
2025-01-01 11:42:16.71	198.06	20.18	-52.5	-55.1	14.0	0.00e+00	0	60	0
2025-01-01 11:42:17.61	198.22	20.33	-52.3	-54.8	14.0	0.00e+00	0	60	0
2025-01-01 11:42:18.61	198.41	20.49	-52.0	-54.7	14.1	0.00e+00	0	60	0
2025-01-01 11:42:19.51	198.57	20.63	-51.9	-54.4	14.3	0.00e+00	0	60	0
2025-01-01 11:42:20.51	198.76	20.79	-51.7	-54.2	14.6	0.00e+00	0	60	0
2025-01-01 11:42:21.41	198.93	20.94	-51.6	-53.8	14.8	0.00e+00	0	60	0
2025-01-01 11:42:22.40	199.12	21.11	-51.5	-54.2	14.9	0.00e+00	0	60	0
2025-01-01 11:42:23.30	199.30	21.25	-51.5	-54.2	14.9	0.00e+00	0	61	0
2025-01-01 11:42:24.30	199.49	21.42	-51.7	-54.5	14.9	0.00e+00	0	60	0
2025-01-01 11:42:25.20	199.67	21.57	-51.8	-54.7	14.8	0.00e+00	0	60	0
2025-01-01 11:42:26.20	199.87	21.74	-51.8	-54.8	14.7	0.00e+00	0	61	0
2025-01-01 11:42:27.10	200.06	21.89	-51.8	-54.8	14.7	0.00e+00	0	61	0
2025-01-01 11:42:28.10	200.26	22.06	-52.0	-55.1	14.6	0.00e+00	0	61	0
2025-01-01 11:42:29.00	200.45	22.22	-52.1	-55.3	14.5	0.00e+00	0	61	0
2025-01-01 11:42:30.00	200.66	22.39	-52.1	-55.3	14.5	0.00e+00	0	61	0
2025-01-01 11:42:30.90	200.85	22.55	-51.8	-54.8	14.7	0.00e+00	0	61	0
2025-01-01 11:42:31.90	201.07	22.72	-51.8	-54.7	14.7	0.00e+00	0	61	0
2025-01-01 11:42:32.80	201.27	22.88	-51.5	-54.1	14.9	0.00e+00	0	61	0
2025-01-01 11:42:33.80	201.49	23.06	-51.1	-53.3	15.0	0.00e+00	0	61	0
2025-01-01 11:42:34.70	201.69	23.22	-51.0	-53.7	15.1	0.00e+00	0	61	0
2025-01-01 11:42:35.70	201.91	23.40	-51.0	-53.7	15.1	0.00e+00	0	62	0
2025-01-01 11:42:36.60	202.12	23.56	-51.0	-53.6	15.1	0.00e+00	0	62	0
2025-01-01 11:42:37.60	202.35	23.74	-50.9	-53.4	15.1	0.00e+00	0	62	0
2025-01-01 11:42:38.50	202.56	23.90	-51.1	-53.9	15.0	0.00e+00	0	62	0
2025-01-01 11:42:39.50	202.80	24.09	-51.4	-54.5	14.9	0.00e+00	0	62	0
2025-01-01 11:42:40.40	203.02	24.25	-51.4	-54.5	15.0	0.00e+00	0	62	0
2025-01-01 11:42:41.40	203.26	24.44	-51.4	-54.4	15.0	0.00e+00	0	62	0
2025-01-01 11:42:42.30	203.48	24.61	-51.5	-54.6	15.0	0.00e+00	0	62	0
2025-01-01 11:42:43.29	203.73	24.79	-51.5	-54.7	14.9	0.00e+00	0	62	0
2025-01-01 11:42:44.19	203.95	24.96	-51.3	-54.2	15.0	0.00e+00	0	62	0
2025-01-01 11:42:45.19	204.21	25.15	-51.2	-54.1	15.1	0.00e+00	0	62	0
2025-01-01 11:42:46.09	204.44	25.32	-51.0	-53.6	15.2	0.00e+00	0	62	0
2025-01-01 11:42:47.09	204.70	25.51	-50.7	-53.1	15.3	0.00e+00	0	62	0
2025-01-01 11:42:47.99	204.94	25.69	-50.5	-53.1	15.4	0.00e+00	0	62	0
2025-01-01 11:42:48.99	205.21	25.88	-50.5	-53.2	15.5	0.00e+00	0	62	0
2025-01-01 11:42:49.89	205.45	26.06	-50.4	-53.0	15.5	0.00e+00	0	62	0
2025-01-01 11:42:50.88	205.73	26.25	-50.5	-53.1	15.6	0.00e+00	0	62	0
2025-01-01 11:42:51.79	205.98	26.43	-50.6	-53.3	15.5	0.00e+00	0	62	0
2025-01-01 11:42:52.78	206.26	26.62	-50.8	-53.7	15.5	0.00e+00	0	62	0
2025-01-01 11:42:53.69	206.52	26.81	-50.8	-53.7	15.5	0.00e+00	0	63	0
2025-01-01 11:42:54.68	206.81	27.00	-50.9	-53.9	15.4	0.00e+00	0	62	0
2025-01-01 11:42:55.59	207.07	27.19	-51.0	-54.2	15.3	0.00e+00	0	63	0
2025-01-01 11:42:56.58	207.37	27.39	-51.0	-54.2	15.3	0.00e+00	0	63	0
2025-01-01 11:42:57.49	207.64	27.57	-50.8	-53.8	15.3	0.00e+00	0	63	0
2025-01-01 11:42:58.48	207.94	27.77	-50.7	-53.5	15.4	0.00e+00	0	63	0
2025-01-01 11:42:59.39	208.23	27.96	-50.5	-53.1	15.6	0.00e+00	0	63	0
2025-01-01 11:43:00.38	208.54	28.16	-50.1	-52.4	15.7	0.00e+00	0	63	0
2025-01-01 11:43:01.29	208.82	28.35	-50.1	-52.8	15.7	0.00e+00	0	63	0
2025-01-01 11:43:02.28	209.14	28.56	-50.0	-52.6	15.8	0.00e+00	0	63	0
2025-01-01 11:43:03.19	209.44	28.74	-50.1	-52.8	15.7	0.00e+00	0	63	0
2025-01-01 11:43:04.18	209.77	28.95	-50.2	-53.1	15.6	0.00e+00	0	63	0
2025-01-01 11:43:05.08	210.07	29.14	-50.4	-53.4	15.6	0.00e+00	0	63	0
2025-01-01 11:43:06.07	210.40	29.35	-50.5	-53.6	15.6	0.00e+00	0	64	0
2025-01-01 11:43:06.98	210.72	29.54	-50.7	-54.0	15.5	0.00e+00	0	64	0
2025-01-01 11:43:07.97	211.06	29.75	-50.6	-53.8	15.5	0.00e+00	0	64	0
2025-01-01 11:43:08.87	211.38	29.94	-50.5	-53.7	15.4	0.00e+00	0	64	0
2025-01-01 11:43:09.86	211.73	30.16	-50.4	-53.4	15.5	0.00e+00	0	63	0
2025-01-01 11:43:10.77	212.06	30.35	-50.2	-53.0	15.7	0.00e+00	0	64	0
2025-01-01 11:43:11.76	212.42	30.56	-49.9	-52.5	15.8	0.00e+00	0	64	0
2025-01-01 11:43:12.67	212.76	30.76	-49.8	-52.3	15.8	0.00e+00	0	64	0
2025-01-01 11:43:13.66	213.14	30.98	-49.7	-52.1	15.8	0.00e+00	0	64	0
2025-01-01 11:43:14.57	213.49	31.17	-49.7	-52.0	15.8	0.00e+00	0	64	0
2025-01-01 11:43:15.56	213.87	31.39	-49.8	-52.3	15.8	0.00e+00	0	64	0
2025-01-01 11:43:16.47	214.23	31.59	-49.9	-52.4	15.7	0.00e+00	0	64	0
2025-01-01 11:43:17.46	214.62	31.80	-50.0	-52.7	15.7	0.00e+00	0	64	0
2025-01-01 11:43:18.37	214.99	32.00	-50.1	-52.9	15.7	0.00e+00	0	64	0
2025-01-01 11:43:19.36	215.39	32.22	-50.2	-53.1	15.6	0.00e+00	0	64	0
2025-01-01 11:43:20.27	215.77	32.42	-50.1	-52.8	15.7	0.00e+00	0	64	0
2025-01-01 11:43:21.26	216.19	32.64	-49.9	-52.5	15.8	0.00e+00	0	64	0
2025-01-01 11:43:22.17	216.58	32.84	-49.9	-52.4	15.7	0.00e+00	0	64	0
2025-01-01 11:43:23.16	217.00	33.06	-49.4	-52.0	15.8	0.00e+00	0	64	0
2025-01-01 11:43:24.07	217.40	33.26	-49.1	-51.4	16.0	0.00e+00	0	64	0
2025-01-01 11:43:25.06	217.84	33.48	-49.2	-51.5	16.0	0.00e+00	0	64	0
2025-01-01 11:43:25.96	218.25	33.67	-47.9	-50.5	15.9	0.00e+00	0	64	0
2025-01-01 11:43:26.96	218.70	33.90	-48.2	-51.0	15.8	0.00e+00	0	64	0
2025-01-01 11:43:27.86	219.12	34.09	-48.4	-51.4	15.7	0.00e+00	0	64	0
2025-01-01 11:43:28.86	219.59	34.31	-48.5	-51.7	15.7	0.00e+00	0	64	0
2025-01-01 11:43:29.76	220.02	34.51	-48.7	-51.9	15.6	0.00e+00	0	65	0
2025-01-01 11:43:30.75	220.49	34.73	-48.6	-51.8	15.6	0.00e+00	0	65	0
2025-01-01 11:43:31.65	220.93	34.93	-48.5	-51.7	15.5	0.00e+00	0	65	0
2025-01-01 11:43:32.65	221.43	35.15	-48.5	-51.5	15.6	0.00e+00	0	65	0
2025-01-01 11:43:33.55	221.88	35.34	-48.3	-51.2	15.7	0.00e+00	0	65	0
2025-01-01 11:43:34.55	222.39	35.56	-48.1	-50.7	15.8	0.00e+00	0	65	0
2025-01-01 11:43:35.45	222.85	35.76	-47.9	-50.4	15.9	0.00e+00	0	65	0
2025-01-01 11:43:36.45	223.37	35.98	-47.9	-50.4	15.9	0.00e+00	0	65	0
2025-01-01 11:43:37.35	223.85	36.17	-47.9	-50.5	15.9	0.00e+00	0	65	0
2025-01-01 11:43:38.35	224.38	36.38	-48.1	-50.8	15.9	0.00e+00	0	65	0
2025-01-01 11:43:39.25	224.87	36.58	-48.3	-51.2	15.8	0.00e+00	0	65	0
2025-01-01 11:43:40.25	225.42	36.79	-48.6	-51.8	15.6	0.00e+00	0	65	0
2025-01-01 11:43:41.15	225.92	36.98	-48.6	-51.9	15.6	0.00e+00	0	65	0
2025-01-01 11:43:42.15	226.49	37.19	-48.7	-52.0	15.6	0.00e+00	0	65	0
2025-01-01 11:43:43.05	227.00	37.38	-48.7	-52.0	15.6	0.00e+00	0	65	0
2025-01-01 11:43:44.05	227.58	37.59	-48.6	-51.9	15.6	0.00e+00	0	65	0
2025-01-01 11:43:44.95	228.11	37.77	-48.5	-51.6	15.7	0.00e+00	0	65	0
2025-01-01 11:43:45.95	228.70	37.98	-48.3	-51.3	15.8	0.00e+00	0	66	0
2025-01-01 11:43:46.85	229.24	38.16	-48.1	-50.9	15.9	0.00e+00	0	65	0
2025-01-01 11:43:47.85	229.85	38.36	-48.1	-50.8	15.8	0.00e+00	0	66	0
2025-01-01 11:43:48.75	230.40	38.54	-48.2	-51.1	15.7	0.00e+00	0	66	0
2025-01-01 11:43:49.75	231.03	38.73	-48.3	-51.2	15.7	0.00e+00	0	66	0
2025-01-01 11:43:50.65	231.59	38.91	-48.4	-51.4	15.6	0.00e+00	0	66	0
2025-01-01 11:43:51.64	232.22	39.10	-48.7	-52.0	15.4	0.00e+00	0	66	0
2025-01-01 11:43:52.54	232.80	39.27	-49.1	-52.3	15.2	0.00e+00	0	66	0
2025-01-01 11:43:53.54	233.46	39.46	-49.0	-52.1	15.2	0.00e+00	0	66	0
2025-01-01 11:43:54.44	234.05	39.62	-49.1	-52.3	15.2	0.00e+00	0	66	0
2025-01-01 11:43:55.44	234.72	39.80	-49.2	-52.5	15.3	0.00e+00	0	66	0
2025-01-01 11:43:56.34	235.32	39.96	-49.2	-52.5	15.2	0.00e+00	0	66	0
2025-01-01 11:43:57.34	236.01	40.14	-49.0	-52.2	15.2	0.00e+00	0	66	0
2025-01-01 11:43:58.24	236.63	40.29	-49.0	-52.2	15.3	0.00e+00	0	66	0
2025-01-01 11:43:59.24	237.32	40.46	-49.0	-52.1	15.4	0.00e+00	0	66	0
2025-01-01 11:44:00.14	237.96	40.61	-49.1	-52.3	15.3	0.00e+00	0	66	0
2025-01-01 11:44:01.14	238.67	40.77	-48.9	-51.9	15.3	0.00e+00	0	66	0
2025-01-01 11:44:02.04	239.31	40.91	-48.8	-51.8	15.3	0.00e+00	0	66	0
2025-01-01 11:44:03.04	240.03	41.07	-49.0	-52.1	15.2	0.00e+00	0	66	0
2025-01-01 11:44:03.94	240.69	41.20	-49.2	-52.5	15.2	0.00e+00	0	66	0
2025-01-01 11:44:04.94	241.43	41.35	-49.1	-52.4	15.2	0.00e+00	0	66	0
2025-01-01 11:44:05.84	242.10	41.47	-49.4	-52.5	15.1	0.00e+00	0	67	0
2025-01-01 11:44:06.84	242.85	41.61	-49.6	-52.9	15.1	0.00e+00	0	67	0
2025-01-01 11:44:07.74	243.53	41.73	-51.1	-54.4	15.0	0.00e+00	0	67	0
2025-01-01 11:44:08.74	244.29	41.86	-51.2	-54.5	15.1	0.00e+00	0	67	0
2025-01-01 11:44:09.64	244.98	41.97	-51.3	-54.2	15.0	0.00e+00	0	67	0
2025-01-01 11:44:10.64	245.75	42.09	-51.5	-54.6	15.0	0.00e+00	0	67	0
2025-01-01 11:44:11.54	246.45	42.19	-51.2	-54.2	15.1	0.00e+00	0	67	0
2025-01-01 11:44:12.54	247.24	42.30	-51.5	-54.7	14.9	0.00e+00	0	67	0
2025-01-01 11:44:13.44	247.95	42.39	-51.6	-54.9	14.9	0.00e+00	0	67	0
2025-01-01 11:44:14.43	248.73	42.49	-51.6	-54.4	14.9	0.00e+00	0	67	0
2025-01-01 11:44:15.33	249.45	42.57	-51.7	-54.5	14.9	0.00e+00	0	67	0
2025-01-01 11:44:16.33	250.26	42.66	-51.5	-54.2	14.9	0.00e+00	0	67	0
2025-01-01 11:44:17.23	250.98	42.73	-51.7	-54.7	14.8	0.00e+00	0	67	0
2025-01-01 11:44:18.22	251.78	42.80	-51.5	-54.2	15.1	0.00e+00	0	67	0
2025-01-01 11:44:19.13	252.52	42.87	-51.5	-54.1	15.1	0.00e+00	0	67	0
2025-01-01 11:44:20.12	253.33	42.93	-51.8	-54.8	14.9	0.00e+00	0	67	0
2025-01-01 11:44:21.03	254.08	42.99	-51.4	-54.0	15.1	0.00e+00	0	67	0
2025-01-01 11:44:22.02	254.90	43.04	-51.8	-54.7	15.0	0.00e+00	0	67	0
2025-01-01 11:44:22.93	255.65	43.08	-51.8	-54.7	14.9	0.00e+00	0	67	0
2025-01-01 11:44:23.92	256.47	43.12	-51.5	-54.3	15.0	0.00e+00	0	67	0
2025-01-01 11:44:24.83	257.22	43.15	-51.5	-54.3	15.1	0.00e+00	0	67	0
2025-01-01 11:44:25.82	258.05	43.18	-51.7	-54.6	14.9	0.00e+00	0	67	0
2025-01-01 11:44:26.73	258.80	43.20	-51.6	-54.5	14.9	0.00e+00	0	67	0
2025-01-01 11:44:27.72	259.63	43.22	-51.7	-54.5	14.9	0.00e+00	0	67	0
2025-01-01 11:44:28.63	260.39	43.23	-51.6	-54.4	14.9	0.00e+00	0	67	0
2025-01-01 11:44:29.62	261.21	43.23	-51.7	-54.6	14.8	0.00e+00	0	67	0
2025-01-01 11:44:30.53	261.97	43.23	-51.9	-55.0	14.8	0.00e+00	0	68	0
2025-01-01 11:44:31.52	262.80	43.22	-52.0	-55.1	14.7	0.00e+00	0	68	0
2025-01-01 11:44:32.43	263.56	43.21	-52.1	-55.4	14.6	0.00e+00	0	67	0
2025-01-01 11:44:33.42	264.38	43.19	-51.6	-54.4	15.0	0.00e+00	0	68	0
2025-01-01 11:44:34.33	265.14	43.17	-51.9	-54.9	14.8	0.00e+00	0	68	0
2025-01-01 11:44:35.31	265.95	43.14	-52.2	-55.6	14.6	0.00e+00	0	68	0
2025-01-01 11:44:36.22	266.71	43.10	-51.8	-54.7	14.8	0.00e+00	0	68	0
2025-01-01 11:44:37.21	267.53	43.06	-52.1	-55.3	14.7	0.00e+00	0	68	0
2025-01-01 11:44:38.12	268.27	43.01	-52.2	-55.6	14.6	6.90e-06	0	68	0
2025-01-01 11:44:39.11	269.09	42.95	-52.4	-55.4	14.5	0.00e+00	0	68	0
2025-01-01 11:44:40.01	269.82	42.90	-52.3	-55.4	14.5	0.00e+00	0	68	0
2025-01-01 11:44:41.00	270.63	42.83	-52.5	-55.6	14.5	0.00e+00	0	68	0
2025-01-01 11:44:41.91	271.37	42.77	-52.7	-56.1	14.3	0.00e+00	0	68	0
2025-01-01 11:44:42.90	272.17	42.69	-52.7	-56.2	14.2	0.00e+00	0	68	0
2025-01-01 11:44:43.81	272.90	42.61	-52.7	-55.6	14.3	0.00e+00	0	68	0
2025-01-01 11:44:44.80	273.69	42.52	-52.9	-56.1	14.2	0.00e+00	0	68	0
2025-01-01 11:44:45.71	274.41	42.43	-52.9	-55.9	14.2	0.00e+00	0	68	0
2025-01-01 11:44:46.70	275.20	42.33	-53.0	-56.2	14.0	0.00e+00	0	68	0
2025-01-01 11:44:47.61	275.91	42.24	-53.4	-56.5	14.0	6.90e-06	0	68	0
2025-01-01 11:44:48.60	276.68	42.13	-53.0	-55.8	14.1	0.00e+00	0	68	0
2025-01-01 11:44:49.51	277.39	42.02	-53.5	-56.8	13.7	0.00e+00	0	68	0
2025-01-01 11:44:50.50	278.15	41.90	-53.4	-56.5	13.8	0.00e+00	0	68	0
2025-01-01 11:44:51.41	278.84	41.79	-53.5	-56.6	13.9	0.00e+00	0	68	0
2025-01-01 11:44:52.40	279.59	41.66	-53.5	-56.6	13.9	0.00e+00	0	68	0
2025-01-01 11:44:53.30	280.27	41.54	-53.4	-56.4	14.1	0.00e+00	0	68	0
2025-01-01 11:44:54.30	281.01	41.40	-53.4	-56.5	14.0	0.00e+00	0	68	0
2025-01-01 11:44:55.20	281.67	41.27	-52.7	-55.1	14.4	0.00e+00	0	68	0
2025-01-01 11:44:56.20	282.41	41.12	-52.8	-55.2	14.2	0.00e+00	0	68	0
2025-01-01 11:44:57.10	283.06	40.99	-52.1	-54.4	14.6	0.00e+00	0	68	0
2025-01-01 11:44:58.10	283.78	40.83	-52.6	-55.4	14.4	0.00e+00	0	69	0
2025-01-01 11:44:59.00	284.42	40.69	-52.1	-54.8	14.7	0.00e+00	0	69	0
2025-01-01 11:45:00.00	285.12	40.53	-52.1	-54.8	14.8	0.00e+00	0	68	0
2025-01-01 11:45:00.90	285.75	40.38	-52.3	-55.3	14.5	0.00e+00	0	68	0
2025-01-01 11:45:01.89	286.43	40.21	-51.9	-54.6	14.6	0.00e+00	0	69	0
2025-01-01 11:45:02.79	287.05	40.05	-52.2	-55.1	14.5	0.00e+00	0	69	0
2025-01-01 11:45:03.79	287.72	39.88	-52.1	-54.8	14.6	0.00e+00	0	69	0
2025-01-01 11:45:04.69	288.32	39.72	-52.4	-55.6	14.2	0.00e+00	0	69	0
2025-01-01 11:45:05.69	288.98	39.54	-52.4	-55.4	14.3	0.00e+00	0	69	0
2025-01-01 11:45:06.59	289.57	39.37	-52.8	-56.2	14.1	0.00e+00	0	69	0
2025-01-01 11:45:07.59	290.22	39.18	-52.5	-55.2	14.4	0.00e+00	0	69	0
2025-01-01 11:45:08.49	290.79	39.01	-52.9	-55.9	14.2	0.00e+00	0	69	0
2025-01-01 11:45:09.49	291.43	38.82	-52.3	-54.8	14.6	0.00e+00	0	69	0
2025-01-01 11:45:10.39	291.99	38.64	-52.1	-54.3	14.8	0.00e+00	0	69	0
2025-01-01 11:45:11.39	292.60	38.45	-51.6	-53.9	15.0	0.00e+00	0	69	0
2025-01-01 11:45:12.29	293.15	38.27	-51.7	-54.5	15.0	0.00e+00	0	69	0
2025-01-01 11:45:13.29	293.75	38.07	-51.3	-53.7	15.2	0.00e+00	0	69	0
2025-01-01 11:45:14.19	294.29	37.89	-51.2	-53.6	15.2	0.00e+00	0	69	0
2025-01-01 11:45:15.19	294.88	37.68	-51.3	-53.7	15.1	0.00e+00	0	69	0
2025-01-01 11:45:16.09	295.40	37.50	-51.2	-54.0	15.2	0.00e+00	0	69	0
2025-01-01 11:45:17.09	295.97	37.29	-51.6	-54.8	14.9	0.00e+00	0	69	0
2025-01-01 11:45:17.99	296.48	37.10	-51.3	-54.3	14.9	0.00e+00	0	69	0
2025-01-01 11:45:18.99	297.04	36.89	-51.5	-54.7	14.8	0.00e+00	0	69	0
2025-01-01 11:45:19.89	297.54	36.70	-67.6	-73.4	3.6	0.00e+00	0	69	104
2025-01-01 11:45:20.89	298.08	36.49	-67.8	-73.8	3.6	0.00e+00	0	69	104
2025-01-01 11:45:21.79	298.56	36.30	-67.9	-73.6	3.7	0.00e+00	0	69	104
2025-01-01 11:45:22.78	299.09	36.08	-67.9	-73.7	3.6	0.00e+00	0	69	104
2025-01-01 11:45:23.68	299.56	35.89	-67.9	-73.5	3.7	0.00e+00	0	69	104
2025-01-01 11:45:24.68	300.07	35.68	-67.7	-73.2	3.6	0.00e+00	0	69	104
2025-01-01 11:45:25.58	300.53	35.48	-67.7	-73.3	3.7	0.00e+00	0	69	104
2025-01-01 11:45:26.58	301.04	35.26	-67.8	-73.5	3.7	0.00e+00	0	69	104
2025-01-01 11:45:27.48	301.48	35.07	-67.8	-73.4	3.6	0.00e+00	0	69	104
2025-01-01 11:45:28.47	301.97	34.85	-67.5	-72.8	3.7	0.00e+00	0	69	104
2025-01-01 11:45:29.38	302.41	34.65	-67.3	-72.5	3.6	0.00e+00	0	69	104
2025-01-01 11:45:30.37	302.88	34.44	-67.3	-72.8	3.7	0.00e+00	0	69	104
2025-01-01 11:45:31.28	303.30	34.24	-67.2	-73.1	3.6	0.00e+00	0	69	104
2025-01-01 11:45:32.27	303.76	34.02	-67.1	-72.9	3.6	0.00e+00	0	69	104
2025-01-01 11:45:33.18	304.18	33.82	-67.2	-73.6	3.7	0.00e+00	0	69	104
2025-01-01 11:45:34.17	304.63	33.60	-67.4	-73.9	3.6	0.00e+00	0	69	104
2025-01-01 11:45:35.08	305.03	33.40	-67.5	-73.8	3.7	0.00e+00	0	69	104
2025-01-01 11:45:36.07	305.47	33.19	-67.7	-73.9	3.6	0.00e+00	0	69	104
2025-01-01 11:45:36.98	305.86	32.99	-67.7	-73.9	3.7	0.00e+00	0	69	104
2025-01-01 11:45:37.97	306.28	32.77	-67.7	-73.9	3.7	0.00e+00	0	69	104
2025-01-01 11:45:38.88	306.67	32.57	-67.7	-73.9	3.6	0.00e+00	0	69	104
2025-01-01 11:45:39.87	307.08	32.35	-67.6	-73.8	3.7	0.00e+00	0	69	104
2025-01-01 11:45:40.78	307.45	32.16	-67.8	-74.1	3.6	0.00e+00	0	69	104
2025-01-01 11:45:41.77	307.85	31.94	-67.7	-73.9	3.7	0.00e+00	0	69	104
2025-01-01 11:45:42.68	308.22	31.74	-67.6	-73.8	3.6	0.00e+00	0	69	104
2025-01-01 11:45:43.67	308.61	31.53	-67.6	-73.9	3.6	0.00e+00	0	69	104
2025-01-01 11:45:44.58	308.96	31.33	-67.6	-73.9	3.7	0.00e+00	0	69	104
2025-01-01 11:45:45.56	309.34	31.12	-67.6	-74.0	3.6	0.00e+00	0	69	104
2025-01-01 11:45:46.47	309.68	30.92	-67.8	-74.2	3.7	0.00e+00	0	69	104
2025-01-01 11:45:47.46	310.05	30.71	-67.8	-73.8	3.6	0.00e+00	0	69	104
2025-01-01 11:45:48.36	310.38	30.52	-67.8	-73.6	3.6	0.00e+00	0	69	104
2025-01-01 11:45:49.35	310.74	30.31	-67.8	-73.5	3.7	0.00e+00	0	69	104
2025-01-01 11:45:50.26	311.07	30.11	-67.9	-73.4	3.6	0.00e+00	0	69	104
2025-01-01 11:45:51.25	311.42	29.90	-67.9	-73.5	3.7	0.00e+00	0	69	104
2025-01-01 11:45:52.16	311.74	29.71	-67.9	-73.5	3.6	0.00e+00	0	69	104
2025-01-01 11:45:53.15	312.08	29.50	-67.9	-73.6	3.7	0.00e+00	0	69	104
2025-01-01 11:45:54.06	312.39	29.31	-67.9	-73.7	3.6	0.00e+00	0	69	104
2025-01-01 11:45:55.05	312.72	29.10	-67.9	-73.7	3.6	0.00e+00	0	69	104
2025-01-01 11:45:55.96	313.02	28.91	-68.0	-73.8	3.7	0.00e+00	0	69	104
2025-01-01 11:45:56.95	313.34	28.71	-68.0	-73.9	3.6	0.00e+00	0	69	104
2025-01-01 11:45:57.86	313.64	28.52	-68.0	-73.8	3.7	0.00e+00	0	69	104
2025-01-01 11:45:58.85	313.95	28.32	-67.8	-73.5	3.6	0.00e+00	0	69	104
2025-01-01 11:45:59.76	314.24	28.13	-67.6	-73.3	3.6	0.00e+00	0	69	104
2025-01-01 11:46:00.75	314.55	27.93	-67.6	-73.2	3.7	0.00e+00	0	69	104
2025-01-01 11:46:01.66	314.82	27.75	-67.5	-73.0	3.6	0.00e+00	0	69	104
2025-01-01 11:46:02.64	315.12	27.55	-67.3	-72.9	3.7	0.00e+00	0	69	104
2025-01-01 11:46:03.55	315.39	27.36	-67.4	-73.0	3.6	0.00e+00	0	69	104
2025-01-01 11:46:04.54	315.68	27.17	-67.6	-73.2	3.7	0.00e+00	0	69	104
2025-01-01 11:46:05.45	315.95	26.99	-67.7	-73.3	3.6	0.00e+00	0	69	104
2025-01-01 11:46:06.44	316.23	26.79	-67.8	-73.3	3.6	0.00e+00	0	69	104
2025-01-01 11:46:07.35	316.49	26.61	-67.8	-73.3	3.7	0.00e+00	0	69	104
2025-01-01 11:46:08.34	316.77	26.42	-67.7	-73.1	3.6	0.00e+00	0	69	104
2025-01-01 11:46:09.25	317.02	26.24	-67.6	-72.9	3.7	0.00e+00	0	69	104
2025-01-01 11:46:10.24	317.29	26.05	-67.6	-72.8	3.6	0.00e+00	0	69	104
2025-01-01 11:46:11.14	317.53	25.87	-67.6	-72.8	3.7	0.00e+00	0	69	104
2025-01-01 11:46:12.13	317.79	25.68	-67.6	-72.8	3.6	0.00e+00	0	69	104
2025-01-01 11:46:13.04	318.03	25.51	-67.6	-72.7	3.6	0.00e+00	0	69	104
2025-01-01 11:46:14.03	318.29	25.32	-67.5	-72.6	3.7	0.00e+00	0	69	104
2025-01-01 11:46:14.94	318.52	25.15	-67.5	-72.5	3.6	0.00e+00	0	69	104
2025-01-01 11:46:15.93	318.77	24.96	-67.5	-72.5	3.6	0.00e+00	0	69	104
2025-01-01 11:46:16.84	319.00	24.79	-67.5	-72.5	3.6	0.00e+00	0	69	104
2025-01-01 11:46:17.83	319.25	24.61	-67.5	-72.5	3.6	0.00e+00	0	69	104
2025-01-01 11:46:18.74	319.47	24.44	-67.5	-72.5	3.7	0.00e+00	0	69	104
2025-01-01 11:46:19.73	319.71	24.26	-67.5	-72.6	3.6	0.00e+00	0	69	104
2025-01-01 11:46:20.63	319.92	24.10	-67.6	-72.7	3.7	0.00e+00	0	69	104
2025-01-01 11:46:21.63	320.16	23.92	-67.7	-73.0	3.6	0.00e+00	0	69	104
2025-01-01 11:46:22.53	320.36	23.75	-67.7	-73.2	3.7	0.00e+00	0	69	104
2025-01-01 11:46:23.53	320.59	23.57	-67.8	-73.2	3.7	0.00e+00	0	69	104
2025-01-01 11:46:24.43	320.80	23.41	-67.7	-73.2	3.6	0.00e+00	0	70	104
2025-01-01 11:46:25.43	321.02	23.24	-67.7	-73.1	3.7	0.00e+00	0	69	104
2025-01-01 11:46:26.33	321.22	23.08	-67.6	-72.8	3.6	0.00e+00	0	70	104
2025-01-01 11:46:27.33	321.44	22.90	-67.4	-72.6	3.6	0.00e+00	0	69	104
2025-01-01 11:46:28.23	321.64	22.75	-67.3	-72.5	3.6	0.00e+00	0	70	104
2025-01-01 11:46:29.23	321.85	22.57	-67.2	-72.5	3.6	0.00e+00	0	69	104
2025-01-01 11:46:30.13	322.04	22.42	-67.3	-72.5	3.7	0.00e+00	0	70	104
2025-01-01 11:46:31.13	322.25	22.25	-67.3	-72.6	3.6	0.00e+00	0	69	104
2025-01-01 11:46:32.03	322.44	22.09	-67.3	-72.6	3.7	0.00e+00	0	69	104
2025-01-01 11:46:33.02	322.64	21.93	-67.4	-72.8	3.6	0.00e+00	0	70	104
2025-01-01 11:46:33.92	322.82	21.77	-67.5	-72.9	3.7	0.00e+00	0	70	104
2025-01-01 11:46:34.92	323.02	21.61	-67.6	-73.2	3.7	0.00e+00	0	70	104
2025-01-01 11:46:35.82	323.20	21.46	-67.8	-73.4	3.6	0.00e+00	0	70	104
2025-01-01 11:46:36.82	323.39	21.29	-67.9	-73.6	3.7	0.00e+00	0	70	104
2025-01-01 11:46:37.72	323.57	21.14	-67.9	-73.6	3.6	0.00e+00	0	70	104
2025-01-01 11:46:38.72	323.76	20.98	-67.9	-73.6	3.7	0.00e+00	0	70	104
2025-01-01 11:46:39.62	323.93	20.84	-67.9	-73.6	3.6	0.00e+00	0	70	104
2025-01-01 11:46:40.62	324.11	20.67	-67.9	-73.7	3.6	0.00e+00	0	70	104
2025-01-01 11:46:41.52	324.28	20.53	-67.9	-73.7	3.7	0.00e+00	0	70	104
2025-01-01 11:46:42.52	324.46	20.37	-67.9	-73.7	3.6	0.00e+00	0	70	104
2025-01-01 11:46:43.42	324.63	20.23	-67.9	-73.8	3.7	0.00e+00	0	70	104
2025-01-01 11:46:44.42	324.80	20.07	-67.9	-73.7	3.6	0.00e+00	0	70	104
2025-01-01 11:46:45.32	324.96	19.93	-67.9	-73.6	3.6	0.00e+00	0	70	104
2025-01-01 11:46:46.32	325.14	19.78	-67.8	-73.5	3.7	0.00e+00	0	70	104
2025-01-01 11:46:47.22	325.29	19.64	-67.7	-73.4	3.6	0.00e+00	0	70	104
2025-01-01 11:46:48.22	325.47	19.48	-67.6	-73.3	3.7	0.00e+00	0	70	104
2025-01-01 11:46:49.12	325.62	19.35	-67.6	-73.3	3.6	0.00e+00	0	70	104
2025-01-01 11:46:50.12	325.79	19.19	-67.6	-73.3	3.6	0.00e+00	0	70	104
2025-01-01 11:46:51.02	325.94	19.06	-67.6	-73.3	3.6	0.00e+00	0	70	104
2025-01-01 11:46:52.02	326.10	18.91	-67.6	-73.3	3.7	0.00e+00	0	70	104
2025-01-01 11:46:52.92	326.25	18.77	-67.6	-73.3	3.7	0.00e+00	0	70	104
2025-01-01 11:46:53.91	326.40	18.63	-67.7	-73.3	3.6	0.00e+00	0	70	104
2025-01-01 11:46:54.82	326.55	18.49	-67.7	-73.4	3.7	0.00e+00	0	70	104
2025-01-01 11:46:55.81	326.71	18.35	-67.7	-73.4	3.6	0.00e+00	0	70	104
2025-01-01 11:46:56.71	326.85	18.22	-67.7	-73.4	3.7	0.00e+00	0	70	104
2025-01-01 11:46:57.70	327.00	18.07	-67.7	-73.4	3.7	0.00e+00	0	70	104
2025-01-01 11:46:58.61	327.14	17.94	-67.7	-73.3	3.6	0.00e+00	0	70	104
2025-01-01 11:46:59.60	327.29	17.80	-67.7	-73.3	3.7	0.00e+00	0	70	104
2025-01-01 11:47:00.51	327.42	17.67	-67.7	-73.2	3.6	0.00e+00	0	70	104
2025-01-01 11:47:01.50	327.57	17.53	-67.7	-73.1	3.7	0.00e+00	0	70	104
2025-01-01 11:47:02.41	327.70	17.41	-67.7	-73.0	3.6	0.00e+00	0	70	104
2025-01-01 11:47:03.40	327.85	17.27	-67.6	-72.9	3.6	0.00e+00	0	70	104
2025-01-01 11:47:04.31	327.98	17.14	-67.6	-72.9	3.7	0.00e+00	0	70	104
2025-01-01 11:47:05.30	328.12	17.00	-67.6	-72.9	3.6	0.00e+00	0	70	104
2025-01-01 11:47:06.21	328.25	16.88	-67.7	-73.1	3.7	0.00e+00	0	70	104
2025-01-01 11:47:07.20	328.39	16.75	-67.7	-73.3	3.6	0.00e+00	0	70	104
2025-01-01 11:47:08.11	328.51	16.62	-67.8	-73.4	3.7	0.00e+00	0	70	104
2025-01-01 11:47:09.10	328.65	16.49	-67.8	-73.4	3.7	0.00e+00	0	69	104
2025-01-01 11:47:10.01	328.77	16.37	-67.8	-73.4	3.6	0.00e+00	0	70	104
2025-01-01 11:47:11.00	328.90	16.23	-67.7	-73.4	3.7	0.00e+00	0	70	104
2025-01-01 11:47:11.91	329.02	16.11	-67.7	-73.5	3.6	0.00e+00	0	70	104
2025-01-01 11:47:12.89	329.15	15.98	-67.8	-73.5	3.7	0.00e+00	0	70	104
2025-01-01 11:47:13.80	329.27	15.87	-67.8	-73.5	3.6	0.00e+00	0	70	104
2025-01-01 11:47:14.79	329.40	15.74	-67.8	-73.5	3.7	0.00e+00	0	70	104
2025-01-01 11:47:15.70	329.52	15.62	-67.8	-73.4	3.7	0.00e+00	0	70	104
2025-01-01 11:47:16.69	329.64	15.49	-67.7	-73.4	3.6	0.00e+00	0	70	104
2025-01-01 11:47:17.60	329.76	15.38	-67.7	-73.4	3.7	0.00e+00	0	70	104
2025-01-01 11:47:18.59	329.88	15.25	-67.7	-73.4	3.7	0.00e+00	0	70	104
2025-01-01 11:47:19.49	329.99	15.14	-67.7	-73.4	3.7	0.00e+00	0	70	104
2025-01-01 11:47:20.48	330.11	15.01	-67.8	-73.4	3.6	0.00e+00	0	70	104
2025-01-01 11:47:21.39	330.22	14.90	-67.8	-73.4	3.6	0.00e+00	0	70	104
2025-01-01 11:47:22.38	330.34	14.77	-67.8	-73.3	3.7	0.00e+00	0	70	104
2025-01-01 11:47:23.29	330.45	14.66	-67.7	-73.3	3.6	0.00e+00	0	70	104
2025-01-01 11:47:24.28	330.57	14.54	-67.7	-73.2	3.7	0.00e+00	0	70	104
2025-01-01 11:47:25.19	330.67	14.43	-67.7	-73.2	3.6	0.00e+00	0	70	104
2025-01-01 11:47:26.18	330.79	14.31	-67.7	-73.3	3.7	0.00e+00	0	70	104
2025-01-01 11:47:27.09	330.89	14.20	-67.7	-73.4	3.7	0.00e+00	0	70	104
2025-01-01 11:47:28.08	331.01	14.08	-67.7	-73.4	3.6	0.00e+00	0	70	104
2025-01-01 11:47:28.99	331.11	13.97	-67.7	-73.4	3.7	0.00e+00	0	70	104
2025-01-01 11:47:29.98	331.22	13.85	-67.7	-73.3	3.6	0.00e+00	0	70	104
2025-01-01 11:47:30.88	331.32	13.74	-67.7	-73.3	3.7	0.00e+00	0	70	104
2025-01-01 11:47:31.88	331.43	13.63	-67.7	-73.2	3.6	0.00e+00	0	70	104
2025-01-01 11:47:32.78	331.53	13.52	-67.7	-73.1	3.6	0.00e+00	0	70	104
2025-01-01 11:47:33.78	331.64	13.40	-67.6	-73.0	3.7	0.00e+00	0	70	104
2025-01-01 11:47:34.68	331.73	13.30	-67.6	-72.8	3.6	0.00e+00	0	70	104
2025-01-01 11:47:35.68	331.84	13.18	-67.5	-72.7	3.7	0.00e+00	0	70	104
2025-01-01 11:47:36.58	331.93	13.08	-67.5	-72.7	3.6	0.00e+00	0	70	104
2025-01-01 11:47:37.58	332.04	12.97	-67.5	-72.7	3.7	0.00e+00	0	70	104
2025-01-01 11:47:38.48	332.13	12.86	-67.5	-72.8	3.6	0.00e+00	0	70	104
2025-01-01 11:47:39.48	332.23	12.75	-67.5	-72.8	3.6	0.00e+00	0	70	104
2025-01-01 11:47:40.38	332.33	12.65	-67.5	-72.8	3.7	0.00e+00	0	70	104
2025-01-01 11:47:41.37	332.43	12.54	-67.5	-72.8	3.6	0.00e+00	0	70	104
2025-01-01 11:47:42.27	332.52	12.44	-67.5	-72.9	3.7	0.00e+00	0	70	104
2025-01-01 11:47:43.27	332.62	12.33	-67.6	-73.0	3.6	0.00e+00	0	70	104
2025-01-01 11:47:44.17	332.70	12.23	-67.6	-73.1	3.6	0.00e+00	0	70	104
2025-01-01 11:47:45.17	332.80	12.12	-67.7	-73.2	3.7	0.00e+00	0	70	104
2025-01-01 11:47:46.07	332.89	12.02	-67.7	-73.2	3.6	0.00e+00	0	70	104
2025-01-01 11:47:47.07	332.99	11.91	-67.7	-73.1	3.7	0.00e+00	0	70	104
2025-01-01 11:47:47.97	333.07	11.82	-67.6	-73.0	3.6	0.00e+00	0	70	104
2025-01-01 11:47:48.97	333.17	11.71	-67.6	-72.9	3.7	0.00e+00	0	70	104
2025-01-01 11:47:49.87	333.25	11.61	-67.5	-72.7	3.6	0.00e+00	0	70	104
2025-01-01 11:47:50.87	333.34	11.51	-67.4	-72.5	3.6	0.00e+00	0	70	104
2025-01-01 11:47:51.77	333.43	11.41	-67.4	-72.4	3.7	0.00e+00	0	70	104
2025-01-01 11:47:52.77	333.52	11.31	-67.3	-72.2	3.6	0.00e+00	0	70	104
2025-01-01 11:47:53.67	333.60	11.21	-67.3	-72.1	3.7	0.00e+00	0	70	104
2025-01-01 11:47:54.67	333.69	11.11	-67.2	-72.0	3.5	0.00e+00	0	70	104
2025-01-01 11:47:55.57	333.77	11.01	-67.2	-71.9	3.6	0.00e+00	0	70	104
2025-01-01 11:47:56.57	333.86	10.91	-67.2	-71.9	3.7	0.00e+00	0	70	104
2025-01-01 11:47:57.47	333.94	10.82	-67.2	-71.9	3.6	0.00e+00	0	70	104
2025-01-01 11:47:58.47	334.03	10.72	-67.2	-72.0	3.7	0.00e+00	0	70	104
2025-01-01 11:47:59.37	334.10	10.62	-67.3	-72.2	3.6	0.00e+00	0	70	104
2025-01-01 11:48:00.37	334.19	10.52	-67.3	-72.4	3.7	0.00e+00	0	70	104
2025-01-01 11:48:01.27	334.27	10.43	-67.4	-72.6	3.6	0.00e+00	0	70	104
2025-01-01 11:48:02.26	334.35	10.33	-67.5	-72.8	3.6	0.00e+00	0	70	104
2025-01-01 11:48:03.16	334.43	10.24	-67.5	-73.0	3.7	0.00e+00	0	70	104
2025-01-01 11:48:04.16	334.51	10.14	-67.5	-73.1	3.6	0.00e+00	0	70	104
2025-01-01 11:48:05.06	334.59	10.05	-67.5	-73.1	3.7	0.00e+00	0	70	104
2025-01-01 11:48:06.06	334.67	9.96	-67.5	-73.1	3.6	0.00e+00	0	70	104
2025-01-01 11:48:06.96	334.74	9.87	-67.5	-73.1	3.7	0.00e+00	0	70	104
2025-01-01 11:48:07.96	334.82	9.77	-67.5	-72.9	3.7	0.00e+00	0	70	104
2025-01-01 11:48:08.86	334.90	9.68	-67.4	-72.9	3.6	0.00e+00	0	70	104
2025-01-01 11:48:09.86	334.98	9.59	-67.4	-72.9	3.7	0.00e+00	0	70	104
2025-01-01 11:48:10.76	335.05	9.50	-67.4	-72.8	3.6	0.00e+00	0	70	104
2025-01-01 11:48:11.76	335.13	9.40	-67.4	-72.8	3.7	0.00e+00	0	70	104
2025-01-01 11:48:12.66	335.20	9.32	-67.4	-72.7	3.6	0.00e+00	0	70	104
2025-01-01 11:48:13.66	335.27	9.22	-67.4	-72.7	3.6	0.00e+00	0	70	104
2025-01-01 11:48:14.56	335.34	9.14	-67.5	-72.7	3.7	0.00e+00	0	70	104
2025-01-01 11:48:15.56	335.42	9.04	-67.5	-72.7	3.6	0.00e+00	0	70	104
2025-01-01 11:48:16.46	335.49	8.96	-67.5	-72.8	3.7	0.00e+00	0	70	104
2025-01-01 11:48:17.46	335.56	8.87	-67.5	-72.8	3.6	0.00e+00	0	70	104
2025-01-01 11:48:18.36	335.63	8.78	-67.5	-72.8	3.7	0.00e+00	0	70	104
2025-01-01 11:48:19.36	335.71	8.69	-67.5	-72.9	3.7	0.00e+00	0	70	104
2025-01-01 11:48:20.26	335.77	8.61	-67.5	-72.8	3.6	0.00e+00	0	70	104
2025-01-01 11:48:21.26	335.85	8.51	-67.5	-72.9	3.7	0.00e+00	0	70	104
2025-01-01 11:48:22.16	335.91	8.43	-67.5	-72.9	3.6	0.00e+00	0	70	104
2025-01-01 11:48:23.15	335.98	8.34	-67.6	-72.9	3.6	0.00e+00	0	70	104
2025-01-01 11:48:24.06	336.05	8.26	-67.6	-72.9	3.6	0.00e+00	0	70	104
2025-01-01 11:48:25.05	336.12	8.17	-67.5	-72.9	3.6	0.00e+00	0	70	104
2025-01-01 11:48:25.95	336.18	8.09	-67.4	-72.7	3.7	0.00e+00	0	70	104
2025-01-01 11:48:26.94	336.25	8.00	-67.1	-72.0	3.6	0.00e+00	0	70	104

#Closed at: 2025-01-01 11:48:27
#Recorded file [18077 MB]: D:/data/31015_250101_234519.dat