passes_logs/2025/01/11/X_MFTI_02/X_MFTI_02__20250111_100246_NOAA_20_rec.log

#Pass ID: 20250111_100246_NOAA 20
#Satellite: NOAA 20
#Configuration: NOAA 20
#Start time: 2025-01-11 10:02:40

#Version: 1.5.20200625
#Station: X_MFTI_02
#Location: 37.5186 lon 55.9291 lat
#TLE: 1 43013U 17073A   23362.44808611  .00000160  00000+0  96626-4 0  9996
#TLE: 2 43013  98.7331 297.9536 0000783  57.5916 302.5335 14.19555620316533

#Time	Az	El	Level	Level2	SNR	BER	Gain	Gain2
2025-01-11 10:02:40.32	161.69	67.59	-62.0	-87.2	3.2	15530525	83	65535
2025-01-11 10:02:40.52	161.69	67.68	-61.9	-87.1	3.0	15678482	84	65535
2025-01-11 10:02:40.73	161.69	67.77	-61.9	-87.1	3.0	15678482	84	65535
2025-01-11 10:02:40.93	161.69	67.86	-61.8	-87.0	3.0	15681770	84	65535
2025-01-11 10:02:41.14	161.69	67.96	-62.1	-87.3	2.9	15681770	84	65535
2025-01-11 10:02:41.35	161.69	68.06	-62.0	-87.2	3.0	15685005	84	65535
2025-01-11 10:02:41.55	161.69	68.15	-62.2	-87.4	3.0	15685005	84	65535
2025-01-11 10:02:41.76	161.68	68.24	-62.0	-87.2	3.0	15685005	84	65535
2025-01-11 10:02:41.97	161.68	68.34	-62.0	-87.2	3.0	15690353	84	65535
2025-01-11 10:02:42.18	161.68	68.44	-62.0	-87.2	3.3	15690353	84	65535
2025-01-11 10:02:42.39	161.68	68.53	-62.0	-87.2	3.2	15682334	84	65535
2025-01-11 10:02:42.60	161.68	68.63	-62.1	-87.3	3.2	15682334	84	65535
2025-01-11 10:02:42.80	161.68	68.72	-62.0	-87.2	2.8	15683341	84	65534
2025-01-11 10:02:43.01	161.68	68.82	-67.1	-92.3	3.1	15683341	84	65535
2025-01-11 10:02:43.22	161.68	68.92	-61.9	-87.1	3.0	15694427	84	65535
2025-01-11 10:02:43.42	161.68	69.01	-62.3	-87.5	3.0	15694427	84	65535
2025-01-11 10:02:43.63	161.68	69.10	-62.0	-87.2	3.0	15668899	84	65535
2025-01-11 10:02:43.84	161.68	69.20	-62.3	-87.5	3.0	15668899	84	65535
2025-01-11 10:02:44.05	161.68	69.30	-62.0	-87.2	3.0	15690887	84	65535
2025-01-11 10:02:44.25	161.67	69.39	-62.0	-87.2	3.0	15690887	84	65535
2025-01-11 10:02:44.46	161.67	69.49	-62.0	-87.2	2.9	15690643	84	65535
2025-01-11 10:02:44.67	161.67	69.59	-61.9	-87.1	3.0	15690643	84	65535
2025-01-11 10:02:44.88	161.67	69.68	-62.0	-87.2	3.0	15687507	84	65535
2025-01-11 10:02:45.09	161.67	69.78	-61.9	-87.1	3.0	15687507	84	65535
2025-01-11 10:02:45.30	161.67	69.88	-62.1	-87.3	3.3	15691513	84	65535
2025-01-11 10:02:45.51	161.67	69.98	-61.9	-87.1	3.3	15691513	84	65535
2025-01-11 10:02:45.71	161.67	70.07	-61.8	-87.0	3.2	15691513	84	65535
2025-01-11 10:02:45.92	161.67	70.17	-61.8	-87.0	3.0	15685058	84	65535
2025-01-11 10:02:46.13	161.66	70.27	-61.6	-86.8	2.9	15685058	83	65535
2025-01-11 10:02:46.34	161.66	70.37	-62.1	-87.3	2.8	15679977	84	65535
2025-01-11 10:02:46.55	161.66	70.46	-61.8	-87.0	3.0	15679977	84	65535
2025-01-11 10:02:46.76	161.66	70.56	-61.8	-87.0	3.0	15693321	84	65535
2025-01-11 10:02:46.96	161.66	70.66	-61.8	-87.0	3.1	15693321	84	65535
2025-01-11 10:02:47.17	161.66	70.75	-61.9	-87.2	3.0	15686569	84	65535
2025-01-11 10:02:47.38	161.66	70.85	-61.8	-87.0	3.0	15686569	84	65535
2025-01-11 10:02:47.59	161.66	70.95	-61.8	-87.0	3.0	15680381	84	65535
2025-01-11 10:02:47.80	161.65	71.05	-61.9	-87.1	2.2	15680381	83	65535
2025-01-11 10:02:48.01	161.65	71.15	-61.8	-87.0	2.9	15691955	83	65535
2025-01-11 10:02:48.22	161.65	71.25	-61.6	-86.8	2.9	15691955	83	65535
2025-01-11 10:02:48.43	161.65	71.35	-61.8	-87.0	3.0	15707725	83	65535
2025-01-11 10:02:48.63	161.65	71.44	-61.8	-87.0	2.9	15707725	83	65535
2025-01-11 10:02:48.84	161.65	71.54	-62.2	-87.4	2.9	15698875	84	65535
2025-01-11 10:02:49.05	161.65	71.64	-62.0	-87.2	3.0	15698875	84	65535
2025-01-11 10:02:49.26	161.65	71.74	-62.0	-87.2	3.0	15695739	84	65535
2025-01-11 10:02:49.46	161.64	71.84	-61.8	-87.0	2.7	15695739	81	65535
2025-01-11 10:02:49.67	161.64	71.94	-61.6	-86.8	2.9	15707824	83	65535
2025-01-11 10:02:49.88	161.64	72.04	-61.7	-86.9	2.9	15707824	83	65535
2025-01-11 10:02:50.08	161.64	72.13	-61.8	-87.0	2.9	15696914	83	65535
2025-01-11 10:02:50.29	161.64	72.23	-61.9	-87.1	3.0	15696914	84	65535
2025-01-11 10:02:50.50	161.64	72.33	-61.7	-86.9	3.0	15696914	84	65535
2025-01-11 10:02:50.71	161.63	72.43	-61.9	-87.1	3.0	15684738	84	65535
2025-01-11 10:02:50.91	161.63	72.53	-61.7	-86.9	3.0	15684738	84	65535
2025-01-11 10:02:51.12	161.63	72.63	-61.8	-87.0	1.7	15682380	83	65535
2025-01-11 10:02:51.33	161.63	72.73	-61.7	-86.9	2.9	15682380	83	65535
2025-01-11 10:02:51.54	161.63	72.83	-62.2	-87.4	3.1	15695838	84	65535
2025-01-11 10:02:51.75	161.63	72.93	-61.8	-87.0	3.0	15695838	84	65535
2025-01-11 10:02:51.95	161.62	73.03	-61.8	-87.0	3.0	15693840	84	65535
2025-01-11 10:02:52.16	161.62	73.13	-62.0	-87.2	3.0	15693840	84	65535
2025-01-11 10:02:52.37	161.62	73.23	-62.4	-87.6	3.1	15685272	84	65535
2025-01-11 10:02:52.58	161.62	73.33	-61.9	-87.1	3.0	15685272	84	65535
2025-01-11 10:02:52.79	161.62	73.43	-60.3	-85.5	3.4	15694786	81	65535
2025-01-11 10:02:52.99	161.61	73.53	-61.9	-87.1	2.9	15694786	83	65535
2025-01-11 10:02:53.20	161.61	73.63	-61.8	-87.0	3.2	15698204	84	65535
2025-01-11 10:02:53.41	161.61	73.73	-62.2	-87.4	3.3	15698204	84	65535
2025-01-11 10:02:53.62	161.61	73.83	-62.1	-87.3	3.3	15673072	84	65535
2025-01-11 10:02:53.82	161.61	73.93	-61.9	-87.1	3.0	15673072	84	65535
2025-01-11 10:02:54.03	161.60	74.03	-62.0	-87.2	3.0	15684280	84	65535
2025-01-11 10:02:54.24	161.60	74.13	-62.0	-87.2	3.0	15684280	84	65535
2025-01-11 10:02:54.45	161.60	74.23	-61.0	-86.2	3.0	15684280	83	65535
2025-01-11 10:02:54.65	161.60	74.33	-61.7	-86.9	2.9	15696769	83	65535
2025-01-11 10:02:54.86	161.60	74.43	-61.7	-86.9	2.9	15696769	83	65535
2025-01-11 10:02:55.07	161.59	74.53	-62.0	-87.2	3.2	15697891	84	65535
2025-01-11 10:02:55.28	161.59	74.64	-62.1	-87.3	3.1	15697891	84	65535
2025-01-11 10:02:55.49	161.59	74.74	-61.8	-87.0	3.0	15691001	84	65535
2025-01-11 10:02:55.70	161.59	74.84	-62.0	-87.2	2.9	15691001	84	65535
2025-01-11 10:02:55.90	161.58	74.94	-61.9	-87.1	2.9	15696212	84	65535
2025-01-11 10:02:56.11	161.58	75.04	-61.9	-87.1	3.0	15696212	84	65535
2025-01-11 10:02:56.32	161.58	75.14	-62.0	-87.2	3.0	15698196	84	65535
2025-01-11 10:02:56.53	161.57	75.25	-62.0	-87.2	3.0	15698196	84	65535
2025-01-11 10:02:56.74	161.57	75.35	-61.9	-87.1	3.0	15692810	84	65535
2025-01-11 10:02:56.94	161.57	75.45	-62.0	-87.2	3.0	15692810	84	65535
2025-01-11 10:02:57.15	161.57	75.55	-62.1	-87.3	3.0	15690734	84	65535
2025-01-11 10:02:57.36	161.56	75.65	-62.1	-87.3	2.9	15690734	84	65535
2025-01-11 10:02:57.57	161.56	75.76	-61.9	-87.1	3.0	15691482	84	65535
2025-01-11 10:02:57.78	161.56	75.86	-62.0	-87.2	3.0	15691482	84	65535
2025-01-11 10:02:57.99	161.55	75.96	-61.9	-87.1	3.0	15692100	83	65535
2025-01-11 10:02:58.20	161.55	76.07	-61.8	-87.0	3.3	15692100	84	65535
2025-01-11 10:02:58.40	161.55	76.16	-62.1	-87.3	3.2	15699554	84	65535
2025-01-11 10:02:58.61	161.55	76.27	-62.0	-87.2	3.1	15699554	84	65535
2025-01-11 10:02:58.82	161.54	76.37	-61.8	-87.0	3.0	15683052	84	65535
2025-01-11 10:02:59.03	161.54	76.47	-61.8	-87.0	3.0	15683052	84	65535
2025-01-11 10:02:59.24	161.54	76.58	-61.8	-87.1	3.0	15683052	84	65535
2025-01-11 10:02:59.44	161.53	76.68	-61.8	-87.0	3.0	15687690	84	65535
2025-01-11 10:02:59.65	161.53	76.78	-61.8	-87.0	2.9	15687690	83	65535
2025-01-11 10:02:59.86	161.52	76.88	-62.3	-87.5	3.0	15699684	84	65535
2025-01-11 10:03:00.07	161.52	76.99	-62.3	-87.5	3.1	15699684	84	65535
2025-01-11 10:03:00.27	161.52	77.09	-62.0	-87.2	3.2	15666915	84	65535
2025-01-11 10:03:00.48	161.51	77.19	-61.9	-87.1	3.0	15666915	84	65535
2025-01-11 10:03:00.69	161.51	77.30	-61.8	-87.0	3.0	15685386	84	65535
2025-01-11 10:03:00.90	161.51	77.40	-61.8	-87.0	3.0	15685386	84	65535
2025-01-11 10:03:01.11	161.50	77.50	-61.8	-87.0	3.2	15691078	84	65535
2025-01-11 10:03:01.31	161.50	77.60	-61.7	-86.9	3.2	15691078	83	65535
2025-01-11 10:03:01.52	161.49	77.71	-61.8	-87.0	2.9	15689102	83	65535
2025-01-11 10:03:01.73	161.49	77.81	-61.7	-86.9	2.9	15689102	83	65535
2025-01-11 10:03:01.94	161.48	77.92	-61.7	-86.9	2.9	15682479	83	65535
2025-01-11 10:03:02.15	161.48	78.02	-61.8	-87.0	3.0	15682479	84	65535
2025-01-11 10:03:02.36	161.48	78.13	-61.9	-87.1	3.0	15685874	84	65535
2025-01-11 10:03:02.56	161.47	78.23	-62.0	-87.2	3.0	15685874	84	65535
2025-01-11 10:03:02.77	161.47	78.33	-62.0	-87.2	3.0	15682434	84	65535
2025-01-11 10:03:02.98	161.46	78.44	-61.8	-87.0	2.9	15682434	84	65535
2025-01-11 10:03:03.19	161.46	78.54	-61.9	-87.1	3.0	15692893	84	65535
2025-01-11 10:03:03.40	161.45	78.65	-61.8	-87.0	3.0	15692893	84	65535
2025-01-11 10:03:03.60	161.45	78.75	-62.0	-87.3	3.0	15692893	84	65535
2025-01-11 10:03:03.81	161.44	78.85	-61.9	-87.1	3.0	15678176	84	65535
2025-01-11 10:03:04.02	161.44	78.96	-61.8	-87.0	3.0	15678176	84	65535
2025-01-11 10:03:04.23	161.43	79.06	-61.9	-87.1	3.4	15680419	84	65535
2025-01-11 10:03:04.44	161.42	79.17	-61.9	-87.1	3.2	15680419	84	65535
2025-01-11 10:03:04.64	161.42	79.27	-61.7	-86.9	3.2	15686447	83	65535
2025-01-11 10:03:04.85	161.41	79.37	-61.7	-86.9	2.9	15686447	83	65535
2025-01-11 10:03:05.06	161.41	79.48	-62.0	-87.2	3.1	15691970	84	65535
2025-01-11 10:03:05.27	161.40	79.58	-62.2	-87.4	3.0	15691970	84	65535
2025-01-11 10:03:05.47	161.39	79.68	-61.9	-87.1	3.0	15689338	84	65535
2025-01-11 10:03:05.68	161.39	79.79	-62.3	-87.5	3.0	15689338	84	65535
2025-01-11 10:03:05.89	161.38	79.89	-62.0	-87.2	3.0	15688507	84	65535
2025-01-11 10:03:06.10	161.37	80.00	-62.0	-87.2	3.0	15688507	84	65535
2025-01-11 10:03:06.31	161.37	80.11	-61.9	-87.1	1.7	15688247	83	65535
2025-01-11 10:03:06.52	161.36	80.21	-61.9	-87.1	2.9	15688247	84	65535
2025-01-11 10:03:06.73	161.35	80.32	-62.0	-87.2	3.1	15697479	84	65535
2025-01-11 10:03:06.93	161.35	80.42	-62.0	-87.2	3.1	15697479	84	65535
2025-01-11 10:03:07.14	161.34	80.52	-62.0	-87.2	2.9	15687858	84	65535
2025-01-11 10:03:07.35	161.33	80.63	-62.0	-87.2	3.0	15687858	84	65535
2025-01-11 10:03:07.55	161.32	80.73	-61.9	-87.1	3.0	15687858	84	65535
2025-01-11 10:03:07.76	161.31	80.84	-62.0	-87.2	2.9	15700027	84	65535
2025-01-11 10:03:07.97	161.31	80.94	-61.9	-87.1	2.8	15692344	83	65535
2025-01-11 10:03:08.18	161.30	81.05	-61.8	-87.0	2.9	15692344	83	65535
2025-01-11 10:03:08.38	161.29	81.15	-62.0	-87.2	3.0	15692344	84	65535
2025-01-11 10:03:08.59	161.28	81.26	-61.9	-87.1	3.0	15678321	84	65535
2025-01-11 10:03:08.80	161.27	81.36	-61.8	-87.0	3.0	15678321	84	65535
2025-01-11 10:03:09.01	161.26	81.47	-61.9	-87.1	3.3	15689941	84	65535
2025-01-11 10:03:09.22	161.25	81.58	-62.0	-87.2	3.3	15689941	84	65535
2025-01-11 10:03:09.42	161.24	81.68	-62.0	-87.2	3.0	15681373	84	65535
2025-01-11 10:03:09.63	161.23	81.79	-61.7	-86.9	2.5	15681373	82	65535
2025-01-11 10:03:09.84	161.22	81.89	-61.9	-87.1	2.9	15694427	83	65535
2025-01-11 10:03:10.05	161.21	82.00	-61.8	-87.0	3.1	15694427	84	65535
2025-01-11 10:03:10.26	161.20	82.11	-62.0	-87.2	3.0	15680290	84	65535
2025-01-11 10:03:10.47	161.19	82.21	-62.0	-87.2	3.0	15680290	84	65535
2025-01-11 10:03:10.67	161.17	82.31	-62.1	-87.3	3.3	15677177	84	65535
2025-01-11 10:03:10.88	161.16	82.42	-61.9	-87.1	3.3	15677177	84	65535
2025-01-11 10:03:11.09	161.15	82.53	-62.3	-87.5	3.3	15671295	84	65535
2025-01-11 10:03:11.30	161.14	82.64	-59.6	-84.9	3.3	15671295	81	65535
2025-01-11 10:03:11.51	161.12	82.74	-61.8	-87.0	3.1	15684623	84	65535
2025-01-11 10:03:11.72	161.11	82.85	-61.7	-86.9	3.0	15684623	84	65535
2025-01-11 10:03:11.92	161.09	82.95	-61.9	-87.1	3.0	15690460	84	65535
2025-01-11 10:03:12.13	161.08	83.06	-61.9	-87.1	3.0	15690460	84	65535
2025-01-11 10:03:12.34	161.06	83.17	-61.9	-87.1	3.0	15690460	84	65535
2025-01-11 10:03:12.54	161.05	83.27	-62.0	-87.2	3.0	15677177	84	65535
2025-01-11 10:03:12.75	161.03	83.38	-62.0	-87.2	3.0	15677177	84	65535
2025-01-11 10:03:12.96	161.01	83.48	-61.8	-87.0	3.0	15682815	84	65535
2025-01-11 10:03:13.17	161.00	83.59	-61.8	-87.0	3.0	15682815	84	65535
2025-01-11 10:03:13.38	160.98	83.70	-61.9	-87.1	3.0	15686828	84	65535
2025-01-11 10:03:13.58	160.96	83.80	-62.0	-87.2	3.0	15686828	84	65535
2025-01-11 10:03:13.79	160.94	83.91	-62.0	-87.2	3.3	15701293	84	65535
2025-01-11 10:03:14.00	160.92	84.01	-62.1	-87.3	3.3	15701293	84	65535
2025-01-11 10:03:14.21	160.90	84.12	-62.0	-87.2	3.3	15689598	84	65535
2025-01-11 10:03:14.42	160.88	84.23	-62.2	-87.4	3.0	15689598	84	65535
2025-01-11 10:03:14.63	160.85	84.34	-61.1	-86.3	3.1	15687370	83	65535
2025-01-11 10:03:14.83	160.83	84.44	-62.1	-87.3	3.0	15687370	84	65535
2025-01-11 10:03:15.04	160.81	84.55	-61.9	-87.1	3.0	15684928	84	65535
2025-01-11 10:03:15.25	160.78	84.65	-61.9	-87.1	3.0	15684928	84	65535
2025-01-11 10:03:15.46	160.75	84.76	-61.8	-87.0	3.0	15680526	84	65535
2025-01-11 10:03:15.67	160.73	84.87	-62.0	-87.2	3.3	15680526	84	65535
2025-01-11 10:03:15.88	160.70	84.98	-62.0	-87.2	3.2	15684440	84	65535
2025-01-11 10:03:16.08	160.67	85.08	-62.0	-87.2	3.2	15684440	84	65535
2025-01-11 10:03:16.29	160.64	85.19	-64.3	-89.5	3.0	15691268	84	65535
2025-01-11 10:03:16.50	160.60	85.30	-61.8	-87.0	2.8	15691268	83	65535
2025-01-11 10:03:16.71	160.57	85.40	-61.8	-87.1	2.8	15691268	83	65535
2025-01-11 10:03:16.91	160.53	85.51	-61.8	-87.0	2.9	15702255	83	65535
2025-01-11 10:03:17.12	160.50	85.61	-62.0	-87.2	2.7	15702255	84	65535
2025-01-11 10:03:17.33	160.45	85.72	-61.9	-87.1	3.0	15708816	84	65535
2025-01-11 10:03:17.54	160.41	85.83	-61.9	-87.1	3.0	15708816	84	65535
2025-01-11 10:03:17.74	160.37	85.93	-62.0	-87.2	3.0	15685447	84	65535
2025-01-11 10:03:17.95	160.32	86.04	-62.0	-87.2	3.0	15685447	84	65535
2025-01-11 10:03:18.16	160.27	86.15	-61.8	-87.0	2.9	15683700	83	65535
2025-01-11 10:03:18.37	160.22	86.26	-61.8	-87.0	2.9	15683700	83	65535
2025-01-11 10:03:18.58	160.16	86.36	-61.9	-87.2	2.9	15702568	84	65535
2025-01-11 10:03:18.79	160.10	86.47	-62.0	-87.2	3.0	15702568	84	65535
2025-01-11 10:03:18.99	160.04	86.58	-62.0	-87.2	3.0	15686996	84	65535
2025-01-11 10:03:19.20	159.98	86.68	-62.0	-87.2	3.0	15686996	84	65535
2025-01-11 10:03:19.41	159.90	86.79	-62.0	-87.2	3.0	15680526	84	65535
2025-01-11 10:03:19.61	159.83	86.90	-62.0	-87.2	3.0	15680526	84	65535
2025-01-11 10:03:19.82	159.75	87.00	-62.1	-87.3	2.9	15681846	83	65535
2025-01-11 10:03:20.03	159.66	87.11	-62.0	-87.2	3.0	15681846	84	65535
2025-01-11 10:03:20.23	159.57	87.21	-62.0	-87.2	3.2	15696258	84	65535
2025-01-11 10:03:20.44	159.47	87.32	-61.9	-87.1	3.2	15696258	84	65535
2025-01-11 10:03:20.65	159.35	87.43	-62.0	-87.2	3.2	15696258	84	65535
2025-01-11 10:03:20.86	159.23	87.54	-62.0	-87.2	3.1	15691810	84	65535
2025-01-11 10:03:21.07	159.10	87.65	-62.0	-87.2	3.1	15691810	84	65535
2025-01-11 10:03:21.28	158.95	87.76	-62.0	-87.2	3.1	15687805	84	65535
2025-01-11 10:03:21.48	158.80	87.86	-62.0	-87.2	3.0	15687805	84	65535
2025-01-11 10:03:21.69	158.63	87.97	-61.9	-87.1	2.9	15702880	84	65535
2025-01-11 10:03:21.90	158.43	88.07	-62.0	-87.2	3.0	15702880	84	65535
2025-01-11 10:03:22.11	158.21	88.18	-62.1	-87.3	3.0	15694435	84	65535
2025-01-11 10:03:22.31	157.97	88.29	-62.0	-87.2	2.9	15694435	84	65535
2025-01-11 10:03:22.52	157.69	88.39	-62.0	-87.2	3.0	15689407	84	65535
2025-01-11 10:03:22.73	157.37	88.50	-62.0	-87.2	3.0	15689407	84	65535
2025-01-11 10:03:22.94	157.00	88.61	-62.0	-87.2	3.0	15695617	84	65535
2025-01-11 10:03:23.15	156.57	88.72	-62.1	-87.3	2.4	15695617	84	65535
2025-01-11 10:03:23.35	156.08	88.82	-62.0	-87.2	3.1	15691238	84	65535
2025-01-11 10:03:23.56	155.47	88.93	-62.1	-87.3	3.2	15691238	84	65535
2025-01-11 10:03:23.77	154.72	89.04	-62.1	-87.3	2.9	15686386	84	65535
2025-01-11 10:03:23.98	153.79	89.14	-62.0	-87.2	2.9	15686386	84	65535
2025-01-11 10:03:24.19	152.58	89.25	-62.1	-87.3	2.9	15686904	84	65535
2025-01-11 10:03:24.40	150.98	89.36	-62.1	-87.3	3.0	15686904	84	65535
2025-01-11 10:03:24.60	148.87	89.46	-62.0	-87.2	2.9	15699760	84	65535
2025-01-11 10:03:24.81	145.60	89.56	-61.9	-87.1	2.3	15699760	82	65535
2025-01-11 10:03:25.02	140.31	89.67	-62.4	-87.6	3.1	15700225	84	65535
2025-01-11 10:03:25.23	130.55	89.76	-62.4	-87.6	3.2	15700225	84	65535
2025-01-11 10:03:25.44	109.20	89.84	-62.3	-87.5	3.2	15700225	84	65535
2025-01-11 10:03:25.65	65.55	89.87	-62.3	-87.5	3.1	15684722	84	65535
2025-01-11 10:03:25.86	27.55	89.83	-62.3	-87.5	3.1	15684722	84	65535
2025-01-11 10:03:26.06	11.00	89.74	-62.3	-87.5	3.0	15693321	84	65535
2025-01-11 10:03:26.27	2.57	89.64	-61.8	-87.1	3.0	15693321	84	65535
2025-01-11 10:03:26.48	357.86	89.54	-62.0	-87.2	1.7	15691299	84	65535
2025-01-11 10:03:26.68	355.00	89.44	-61.9	-87.1	3.0	15691299	84	65535
2025-01-11 10:03:26.89	352.93	89.33	-61.9	-87.1	3.0	15685951	84	65535
2025-01-11 10:03:27.10	351.42	89.23	-62.0	-87.2	3.0	15685951	84	65535
2025-01-11 10:03:27.31	350.29	89.12	-61.9	-87.1	3.0	15682533	84	65535
2025-01-11 10:03:27.51	349.44	89.02	-62.1	-87.3	3.2	15682533	84	65535
2025-01-11 10:03:27.72	348.72	88.91	-61.9	-87.1	3.0	15679244	84	65535
2025-01-11 10:03:27.93	348.12	88.80	-61.8	-87.0	3.0	15679244	84	65535
2025-01-11 10:03:28.13	347.65	88.70	-60.4	-85.6	3.5	15686073	81	65535
2025-01-11 10:03:28.34	347.23	88.59	-61.8	-87.0	3.2	15686073	84	65535
2025-01-11 10:03:28.55	346.87	88.48	-61.9	-87.1	3.3	15689300	84	65535
2025-01-11 10:03:28.76	346.56	88.38	-61.9	-87.1	3.2	15689300	84	65535
2025-01-11 10:03:28.96	346.29	88.27	-62.0	-87.2	3.1	15689300	84	65535
2025-01-11 10:03:29.17	346.05	88.16	-61.9	-87.1	3.0	15689292	84	65535
2025-01-11 10:03:29.38	345.84	88.06	-61.9	-87.1	3.0	15689292	84	65535
2025-01-11 10:03:29.59	345.64	87.95	-61.9	-87.2	3.0	15689842	84	65535
2025-01-11 10:03:29.80	345.47	87.84	-60.8	-86.0	3.1	15689842	83	65535
2025-01-11 10:03:30.01	345.31	87.73	-61.9	-87.1	3.0	15680648	84	65535
2025-01-11 10:03:30.21	345.18	87.63	-62.0	-87.2	3.0	15680648	84	65535
2025-01-11 10:03:30.42	345.04	87.52	-62.2	-87.4	3.2	15689598	84	65535
2025-01-11 10:03:30.63	344.92	87.41	-62.7	-87.9	3.1	15689598	84	65535
2025-01-11 10:03:30.84	344.81	87.30	-61.8	-87.0	3.0	15684112	84	65535
2025-01-11 10:03:31.05	344.71	87.20	-61.7	-86.9	3.0	15684112	84	65535
2025-01-11 10:03:31.26	344.62	87.09	-62.2	-87.4	3.0	15691810	84	65535
2025-01-11 10:03:31.47	344.53	86.98	-62.3	-87.5	3.3	15691810	84	65535
2025-01-11 10:03:31.67	344.45	86.88	-61.8	-87.0	3.0	15689674	84	65535
2025-01-11 10:03:31.88	344.38	86.77	-62.1	-87.3	3.0	15689674	84	65535
2025-01-11 10:03:32.09	344.31	86.66	-61.9	-87.1	3.0	15693473	84	65535
2025-01-11 10:03:32.30	344.24	86.55	-61.9	-87.1	3.0	15693473	84	65535
2025-01-11 10:03:32.51	344.18	86.45	-61.9	-87.1	3.0	15687896	84	65535
2025-01-11 10:03:32.71	344.12	86.34	-62.1	-87.3	3.0	15687896	84	65535
2025-01-11 10:03:32.92	344.07	86.23	-62.0	-87.2	3.1	15688407	84	65535
2025-01-11 10:03:33.13	344.02	86.13	-61.5	-86.7	3.3	15688407	84	65535
2025-01-11 10:03:33.34	343.97	86.02	-62.1	-87.3	3.0	15681030	83	65535
2025-01-11 10:03:33.55	343.92	85.91	-62.1	-87.3	3.2	15681030	84	65535
2025-01-11 10:03:33.76	343.88	85.80	-61.9	-87.1	3.1	15681030	84	65535
2025-01-11 10:03:33.96	343.84	85.70	-61.8	-87.0	3.0	15679954	84	65535
2025-01-11 10:03:34.17	343.80	85.59	-61.8	-87.0	3.0	15679954	84	65535
2025-01-11 10:03:34.38	343.76	85.48	-62.0	-87.2	3.0	15688186	84	65535
2025-01-11 10:03:34.59	343.72	85.38	-62.0	-87.2	2.9	15688186	84	65535
2025-01-11 10:03:34.79	343.69	85.27	-61.9	-87.1	2.9	15685134	84	65535
2025-01-11 10:03:35.00	343.66	85.17	-61.7	-86.9	2.9	15685134	83	65535
2025-01-11 10:03:35.21	343.62	85.06	-61.9	-87.2	2.9	15703178	84	65535
2025-01-11 10:03:35.42	343.59	84.95	-61.7	-86.9	3.1	15703178	84	65535
2025-01-11 10:03:35.63	343.56	84.84	-61.8	-87.0	3.0	15693222	84	65535
2025-01-11 10:03:35.84	343.54	84.74	-61.9	-87.1	3.0	15693222	84	65535
2025-01-11 10:03:36.04	343.51	84.63	-62.0	-87.2	3.0	15670333	84	65535
2025-01-11 10:03:36.25	343.49	84.53	-61.7	-86.9	3.4	15670333	84	65535
2025-01-11 10:03:36.46	343.46	84.42	-61.9	-87.1	3.4	15681838	84	65535
2025-01-11 10:03:36.66	343.44	84.32	-61.9	-87.1	3.2	15681838	84	65535
2025-01-11 10:03:36.87	343.42	84.21	-61.8	-87.0	3.0	15677955	84	65535
2025-01-11 10:03:37.08	343.40	84.10	-61.9	-87.1	3.0	15677955	84	65535
2025-01-11 10:03:37.29	343.37	83.99	-61.8	-87.0	3.0	15675430	84	65535
2025-01-11 10:03:37.50	343.35	83.89	-61.9	-87.1	3.0	15675430	84	65535
2025-01-11 10:03:37.71	343.33	83.78	-61.8	-87.0	3.0	15675430	84	65535
2025-01-11 10:03:37.92	343.32	83.67	-61.9	-87.1	3.0	15692047	84	65535
2025-01-11 10:03:38.13	343.30	83.56	-61.9	-87.1	3.3	15691886	84	65535
2025-01-11 10:03:38.33	343.28	83.46	-62.0	-87.2	3.0	15691886	84	65535
2025-01-11 10:03:38.54	343.26	83.35	-62.0	-87.2	3.1	15691886	84	65535
2025-01-11 10:03:38.75	343.25	83.25	-62.0	-87.2	3.0	15677711	84	65535
2025-01-11 10:03:38.96	343.23	83.14	-61.9	-87.1	3.0	15677711	84	65535
2025-01-11 10:03:39.17	343.22	83.03	-61.9	-87.1	3.0	15675178	84	65535
2025-01-11 10:03:39.38	343.20	82.93	-61.8	-87.0	3.0	15675178	84	65535
2025-01-11 10:03:39.59	343.19	82.82	-61.8	-87.0	3.0	15682151	84	65535
2025-01-11 10:03:39.79	343.17	82.72	-61.8	-87.0	3.1	15682151	84	65535
2025-01-11 10:03:40.00	343.16	82.61	-61.9	-87.1	2.9	15676055	83	65535
2025-01-11 10:03:40.21	343.15	82.50	-61.9	-87.1	2.9	15676055	83	65535
2025-01-11 10:03:40.42	343.13	82.40	-61.9	-87.1	3.0	15694435	84	65535
2025-01-11 10:03:40.62	343.12	82.29	-62.3	-87.5	3.0	15694435	84	65535
2025-01-11 10:03:40.83	343.11	82.19	-62.3	-87.5	3.0	15687828	84	65535
2025-01-11 10:03:41.04	343.10	82.08	-62.0	-87.2	3.4	15687828	84	65535
2025-01-11 10:03:41.25	343.09	81.97	-61.9	-87.1	3.3	15666206	84	65535
2025-01-11 10:03:41.45	343.08	81.87	-61.9	-87.1	3.3	15666206	84	65535
2025-01-11 10:03:41.66	343.07	81.77	-62.3	-87.5	2.0	15682098	84	65535
2025-01-11 10:03:41.87	343.06	81.66	-61.8	-87.0	3.3	15682098	84	65535
2025-01-11 10:03:42.08	343.05	81.55	-62.0	-87.2	3.0	15679771	84	65535
2025-01-11 10:03:42.29	343.04	81.45	-61.9	-87.1	3.0	15679771	84	65535
2025-01-11 10:03:42.49	343.03	81.35	-62.0	-87.2	3.0	15679771	84	65535
2025-01-11 10:03:42.70	343.02	81.24	-61.9	-87.1	3.0	15687232	84	65535
2025-01-11 10:03:42.91	343.01	81.13	-62.0	-87.2	3.0	15687232	84	65535
2025-01-11 10:03:43.12	343.00	81.03	-61.9	-87.1	3.0	15685165	84	65535
2025-01-11 10:03:43.32	342.99	80.93	-61.9	-87.1	2.8	15685165	83	65535
2025-01-11 10:03:43.53	342.98	80.82	-61.7	-86.9	3.0	15688087	84	65535
2025-01-11 10:03:43.74	342.98	80.71	-61.9	-87.1	3.0	15688087	84	65535
2025-01-11 10:03:43.95	342.97	80.61	-61.9	-87.1	3.0	15692146	84	65535
2025-01-11 10:03:44.16	342.96	80.50	-61.9	-87.1	3.4	15692146	84	65535
2025-01-11 10:03:44.36	342.95	80.40	-61.9	-87.1	3.3	15672256	84	65535
2025-01-11 10:03:44.57	342.94	80.30	-61.8	-87.0	3.0	15672256	84	65535
2025-01-11 10:03:44.78	342.94	80.19	-61.9	-87.1	3.0	15680145	84	65535
2025-01-11 10:03:44.99	342.93	80.08	-61.9	-87.1	1.9	15680145	83	65535
2025-01-11 10:03:45.20	342.92	79.98	-61.8	-87.0	3.0	15688201	84	65535
2025-01-11 10:03:45.40	342.92	79.88	-61.9	-87.1	3.0	15688201	84	65535
2025-01-11 10:03:45.61	342.91	79.77	-61.8	-87.0	3.0	15693641	84	65535
2025-01-11 10:03:45.82	342.90	79.67	-61.9	-87.1	3.1	15693641	84	65535
2025-01-11 10:03:46.03	342.90	79.56	-61.9	-87.1	3.4	15674491	84	65535
2025-01-11 10:03:46.24	342.89	79.46	-61.9	-87.1	3.2	15674491	84	65535
2025-01-11 10:03:46.44	342.89	79.36	-62.0	-87.2	3.2	15676483	84	65535
2025-01-11 10:03:46.65	342.88	79.25	-67.9	-93.1	3.2	15676483	83	65535
2025-01-11 10:03:46.86	342.87	79.15	-61.6	-86.8	2.9	15676483	83	65535
2025-01-11 10:03:47.07	342.87	79.04	-62.0	-87.2	2.9	15696632	83	65535
2025-01-11 10:03:47.27	342.86	78.94	-61.8	-87.0	3.0	15696632	84	65535
2025-01-11 10:03:47.48	342.86	78.83	-61.8	-87.0	3.0	15686172	84	65535
2025-01-11 10:03:47.69	342.85	78.73	-61.9	-87.1	3.0	15686172	84	65535
2025-01-11 10:03:47.90	342.85	78.63	-62.0	-87.2	3.0	15688758	84	65535
2025-01-11 10:03:48.11	342.84	78.52	-61.9	-87.1	3.0	15688758	84	65535
2025-01-11 10:03:48.31	342.84	78.42	-60.8	-86.0	3.0	15676307	83	65535
2025-01-11 10:03:48.52	342.83	78.32	-61.9	-87.1	2.9	15676307	83	65535
2025-01-11 10:03:48.73	342.83	78.21	-62.1	-87.3	3.0	15675643	84	65535
2025-01-11 10:03:48.94	342.82	78.11	-61.8	-87.0	3.2	15675643	84	65535
2025-01-11 10:03:49.14	342.82	78.01	-61.8	-87.0	3.3	15676429	84	65535
2025-01-11 10:03:49.35	342.81	77.90	-61.9	-87.1	3.3	15676429	84	65535
2025-01-11 10:03:49.56	342.81	77.80	-62.1	-87.3	3.1	15672492	84	65535
2025-01-11 10:03:49.77	342.81	77.69	-61.8	-87.0	3.1	15672492	84	65535
2025-01-11 10:03:49.97	342.80	77.59	-60.7	-85.9	3.4	15684112	83	65535
2025-01-11 10:03:50.18	342.80	77.49	-61.6	-86.8	2.9	15684112	83	65535
2025-01-11 10:03:50.39	342.79	77.39	-61.7	-86.9	2.9	15702857	83	65535
2025-01-11 10:03:50.60	342.79	77.28	-61.8	-87.0	3.1	15702857	84	65535
2025-01-11 10:03:50.81	342.79	77.18	-62.0	-87.2	3.2	15702857	84	65535
2025-01-11 10:03:51.01	342.78	77.08	-61.8	-87.0	3.1	15689537	84	65535
2025-01-11 10:03:51.22	342.78	76.98	-62.3	-87.5	3.0	15689537	84	65535
2025-01-11 10:03:51.43	342.77	76.87	-62.0	-87.2	3.0	15689506	84	65535
2025-01-11 10:03:51.64	342.77	76.77	-61.9	-87.1	3.0	15689506	84	65535
2025-01-11 10:03:51.85	342.77	76.66	-61.8	-87.0	2.9	15683074	83	65535
2025-01-11 10:03:52.05	342.76	76.57	-61.9	-87.1	3.0	15683074	83	65535
2025-01-11 10:03:52.26	342.76	76.46	-62.3	-87.5	3.1	15692115	84	65535
2025-01-11 10:03:52.47	342.76	76.36	-62.0	-87.2	3.0	15692115	84	65535
2025-01-11 10:03:52.68	342.75	76.26	-61.9	-87.1	3.0	15684738	84	65535
2025-01-11 10:03:52.88	342.75	76.16	-61.9	-87.1	2.9	15684738	84	65535
2025-01-11 10:03:53.09	342.75	76.05	-61.9	-87.1	3.0	15696968	84	65535
2025-01-11 10:03:53.30	342.74	75.95	-61.9	-87.1	3.0	15696968	84	65535
2025-01-11 10:03:53.51	342.74	75.85	-61.7	-86.9	2.9	15690773	83	65535
2025-01-11 10:03:53.72	342.74	75.75	-62.0	-87.2	3.1	15690773	84	65535
2025-01-11 10:03:53.93	342.74	75.64	-62.0	-87.2	2.9	15703285	84	65535
2025-01-11 10:03:54.13	342.73	75.55	-61.9	-87.1	3.1	15703285	84	65535
2025-01-11 10:03:54.34	342.73	75.44	-62.0	-87.2	3.0	15683815	84	65535
2025-01-11 10:03:54.55	342.73	75.34	-62.0	-87.2	3.0	15683815	84	65535
2025-01-11 10:03:54.76	342.72	75.24	-62.0	-87.2	3.0	15695739	84	65535
2025-01-11 10:03:54.97	342.72	75.13	-62.1	-87.3	3.0	15695739	84	65535
2025-01-11 10:03:55.18	342.72	75.03	-61.9	-87.1	3.1	15690849	83	65535
2025-01-11 10:03:55.38	342.72	74.94	-61.9	-87.1	3.1	15690849	83	65535
2025-01-11 10:03:55.59	342.71	74.83	-61.9	-87.1	3.1	15690849	83	65535
2025-01-11 10:03:55.80	342.71	74.73	-61.8	-87.0	3.0	15702835	83	65535
2025-01-11 10:03:56.01	342.71	74.63	-61.9	-87.1	3.0	15702835	84	65535
2025-01-11 10:03:56.21	342.71	74.53	-61.9	-87.1	3.1	15696571	84	65535
2025-01-11 10:03:56.42	342.71	74.43	-61.9	-87.1	3.0	15696571	84	65535
2025-01-11 10:03:56.63	342.70	74.33	-62.1	-87.3	3.0	15693313	84	65535
2025-01-11 10:03:56.84	342.70	74.23	-62.1	-87.3	2.7	15693313	84	65535
2025-01-11 10:03:57.05	342.70	74.12	-62.0	-87.2	2.9	15690246	84	65535
2025-01-11 10:03:57.25	342.70	74.03	-61.8	-87.0	3.0	15690246	84	65535
2025-01-11 10:03:57.46	342.69	73.93	-62.0	-87.2	2.9	15693634	84	65535
2025-01-11 10:03:57.67	342.69	73.83	-62.5	-87.7	3.0	15693634	84	65535
2025-01-11 10:03:57.88	342.69	73.72	-62.0	-87.2	3.0	15689575	84	65535
2025-01-11 10:03:58.08	342.69	73.63	-61.9	-87.1	3.0	15689575	84	65535
2025-01-11 10:03:58.29	342.69	73.53	-61.9	-87.1	2.9	15705993	84	65535
2025-01-11 10:03:58.50	342.68	73.43	-61.8	-87.0	3.1	15705993	83	65535
2025-01-11 10:03:58.71	342.68	73.32	-62.3	-87.5	3.2	15691467	84	65535
2025-01-11 10:03:58.92	342.68	73.22	-62.0	-87.2	3.3	15691467	84	65535
2025-01-11 10:03:59.13	342.68	73.12	-62.1	-87.3	3.0	15687408	84	65535
2025-01-11 10:03:59.33	342.68	73.03	-61.9	-87.1	3.2	15687408	84	65535
2025-01-11 10:03:59.54	342.67	72.93	-62.0	-87.2	3.0	15687408	84	65535
2025-01-11 10:03:59.75	342.67	72.83	-62.1	-87.3	3.0	15690391	84	65535
2025-01-11 10:03:59.96	342.67	72.73	-62.0	-87.2	3.1	15690391	84	65535
2025-01-11 10:04:00.17	342.67	72.62	-61.9	-87.1	3.2	15686828	83	65535
2025-01-11 10:04:00.37	342.67	72.53	-62.0	-87.2	2.9	15686828	84	65535
2025-01-11 10:04:00.58	342.67	72.43	-62.2	-87.4	2.9	15674263	84	65535
2025-01-11 10:04:00.79	342.66	72.33	-61.9	-87.1	3.0	15674263	84	65535
2025-01-11 10:04:01.00	342.66	72.23	-62.1	-87.3	3.0	15680046	84	65535
2025-01-11 10:04:01.20	342.66	72.13	-61.9	-87.1	3.0	15680046	84	65535
2025-01-11 10:04:01.41	342.66	72.03	-62.0	-87.2	3.0	15681198	84	65535
2025-01-11 10:04:01.62	342.66	71.93	-61.8	-87.0	3.3	15681198	84	65535
2025-01-11 10:04:01.83	342.66	71.84	-61.7	-86.9	2.4	15692420	83	65535
2025-01-11 10:04:02.04	342.66	71.74	-61.9	-87.1	3.0	15692420	83	65535
2025-01-11 10:04:02.24	342.65	71.64	-61.8	-87.0	3.0	15697570	83	65535
2025-01-11 10:04:02.45	342.65	71.54	-63.5	-88.7	2.9	15697570	83	65535
2025-01-11 10:04:02.66	342.65	71.44	-61.9	-87.1	2.9	15700439	84	65535
2025-01-11 10:04:02.87	342.65	71.34	-62.1	-87.3	2.9	15700439	84	65535
2025-01-11 10:04:03.08	342.65	71.24	-62.0	-87.2	2.9	15690216	84	65535
2025-01-11 10:04:03.28	342.65	71.15	-62.2	-87.4	2.9	15690216	84	65535
2025-01-11 10:04:03.49	342.65	71.05	-60.6	-85.8	3.2	15690872	82	65535
2025-01-11 10:04:03.70	342.64	70.95	-61.9	-87.1	2.9	15690872	84	65535
2025-01-11 10:04:03.90	342.64	70.86	-62.2	-87.4	2.9	15690872	84	65535
2025-01-11 10:04:04.11	342.64	70.76	-62.0	-87.2	2.9	15687866	84	65535
2025-01-11 10:04:04.31	342.64	70.67	-62.1	-87.3	2.9	15687866	84	65535
2025-01-11 10:04:04.52	342.64	70.57	-62.0	-87.2	2.9	15698539	84	65535
2025-01-11 10:04:04.73	342.64	70.47	-62.1	-87.3	3.0	15698539	84	65535
2025-01-11 10:04:04.94	342.64	70.37	-62.2	-87.4	3.2	15697441	84	65535
2025-01-11 10:04:05.14	342.64	70.28	-60.6	-85.8	3.1	15697441	82	65535
2025-01-11 10:04:05.35	342.64	70.18	-62.3	-87.5	3.0	15696548	84	65535

#Closed at: 2025-01-11 10:04:05