passes_logs/2026/01/09/XPeterburg/XPeterburg__20260109_122541_FENGYUN_3D_rec.log

#Pass ID: 20260109_122541_FENGYUN 3D
#Satellite: FENGYUN 3D
#Configuration: FENGYUN 3D
#Start time: 2026-01-09 12:25:37

#Version: 1.5.20200625
#Station: XPeterburg
#Location: 30.318091 lon 59.932769 lat
#TLE: 1 43010U 17072A   25359.21279514  .00000061  00000+0  50555-4 0  9990
#TLE: 2 43010  98.9914 325.7104 0001525 146.5453 213.5819 14.19687267420302

#Time	Az	El	Level	Level2	SNR	BER	Gain	Gain2
2026-01-09 12:25:37.49	165.43	68.44	-31.2	-30.1	5.4	7862926	80	2160
2026-01-09 12:25:37.69	165.45	68.53	-29.7	-29.9	5.7	4286350	76	2525
2026-01-09 12:25:37.89	165.48	68.62	-29.6	-29.5	12.3	5423664	76	2453
2026-01-09 12:25:38.09	165.50	68.71	-29.5	-29.4	12.4	5423664	76	2425
2026-01-09 12:25:38.29	165.53	68.81	-29.4	-29.2	12.5	1110	76	2394
2026-01-09 12:25:38.49	165.56	68.90	-29.4	-29.1	12.5	743	76	2382
2026-01-09 12:25:38.70	165.58	68.99	-29.4	-29.2	12.5	743	76	2403
2026-01-09 12:25:38.90	165.61	69.09	-29.5	-29.3	12.4	663	76	2418
2026-01-09 12:25:39.10	165.63	69.18	-29.6	-29.6	12.3	835	76	2449
2026-01-09 12:25:39.30	165.66	69.27	-29.7	-29.8	12.1	835	76	2488
2026-01-09 12:25:39.50	165.69	69.36	-29.9	-30.2	11.9	1739	76	2546
2026-01-09 12:25:39.70	165.72	69.45	-30.0	-29.9	11.7	2769	77	2435
2026-01-09 12:25:39.90	165.74	69.55	-30.2	-30.3	11.4	2769	77	2496
2026-01-09 12:25:40.10	165.77	69.64	-30.5	-30.8	11.2	5538	77	2575
2026-01-09 12:25:40.30	165.80	69.73	-30.7	-30.9	10.8	9841	78	2505
2026-01-09 12:25:40.50	165.83	69.82	-31.0	-31.4	10.5	20725	78	2591
2026-01-09 12:25:40.71	165.86	69.92	-31.2	-31.4	10.2	20725	79	2510
2026-01-09 12:25:40.91	165.88	70.01	-31.4	-31.9	9.8	44151	79	2592
2026-01-09 12:25:41.11	165.91	70.11	-31.9	-32.4	9.5	83518	80	2606
2026-01-09 12:25:41.31	165.94	70.20	-32.1	-32.3	9.1	83518	81	2511
2026-01-09 12:25:41.51	165.97	70.29	-32.5	-33.0	8.7	158660	81	2625
2026-01-09 12:25:41.71	166.00	70.39	-32.8	-33.3	8.2	296241	82	2595
2026-01-09 12:25:41.91	166.03	70.48	-33.1	-33.3	7.8	296241	83	2531
2026-01-09 12:25:42.11	166.06	70.57	-33.2	-33.5	7.6	569675	83	2557
2026-01-09 12:25:42.31	166.09	70.67	-33.3	-33.8	7.4	797721	83	2589
2026-01-09 12:25:42.52	166.12	70.76	-33.3	-33.8	7.4	797721	83	2583
2026-01-09 12:25:42.72	166.16	70.86	-33.5	-34.0	7.2	914600	83	2628
2026-01-09 12:25:42.92	166.19	70.95	-33.3	-33.7	7.4	1017242	83	2570
2026-01-09 12:25:43.12	166.22	71.04	-33.5	-34.1	7.2	1017242	83	2636
2026-01-09 12:25:43.32	166.25	71.14	-33.5	-33.5	7.2	976432	84	2478
2026-01-09 12:25:43.52	166.28	71.23	-33.4	-33.4	7.3	1120868	84	2452
2026-01-09 12:25:43.72	166.32	71.33	-33.4	-33.4	7.3	1026237	84	2453
2026-01-09 12:25:43.92	166.35	71.42	-33.2	-32.9	7.6	1026237	84	2389
2026-01-09 12:25:44.12	166.38	71.51	-33.2	-32.8	7.6	877315	84	2372
2026-01-09 12:25:44.33	166.42	71.61	-33.0	-32.6	7.8	717555	84	2338
2026-01-09 12:25:44.53	166.45	71.71	-33.0	-32.4	8.0	717555	84	2322
2026-01-09 12:25:44.73	166.49	71.80	-32.9	-32.3	8.1	584941	84	2301
2026-01-09 12:25:44.93	166.52	71.90	-32.8	-32.1	8.2	504993	84	2266
2026-01-09 12:25:45.13	166.56	71.99	-32.8	-32.5	8.3	504993	83	2399
2026-01-09 12:25:45.33	166.60	72.08	-32.7	-32.5	8.4	408554	83	2386
2026-01-09 12:25:45.53	166.63	72.18	-32.8	-32.5	8.4	377746	83	2397
2026-01-09 12:25:45.73	166.67	72.27	-32.9	-32.8	8.3	377746	83	2447
2026-01-09 12:25:45.94	166.71	72.37	-32.9	-32.8	8.3	408233	83	2441
2026-01-09 12:25:46.14	166.74	72.47	-33.0	-33.0	8.2	422996	83	2479
2026-01-09 12:25:46.34	166.78	72.56	-33.0	-33.1	8.2	422996	83	2488
2026-01-09 12:25:46.54	166.82	72.66	-33.1	-33.3	8.2	448127	83	2517
2026-01-09 12:25:46.74	166.86	72.75	-33.1	-33.4	8.0	469516	83	2549
2026-01-09 12:25:46.94	166.90	72.85	-33.2	-33.5	8.1	469516	83	2559
2026-01-09 12:25:47.14	166.94	72.94	-33.3	-33.7	8.0	509262	83	2582
2026-01-09 12:25:47.34	166.98	73.04	-33.3	-33.8	8.0	532470	83	2601
2026-01-09 12:25:47.54	167.02	73.13	-33.3	-33.7	8.0	544681	83	2592
2026-01-09 12:25:47.74	167.06	73.23	-33.3	-33.7	8.1	544681	83	2586
2026-01-09 12:25:47.94	167.10	73.32	-33.2	-33.5	8.2	514652	83	2559
2026-01-09 12:25:48.15	167.15	73.43	-33.1	-33.5	8.3	465030	83	2570
2026-01-09 12:25:48.35	167.19	73.52	-33.1	-33.4	8.4	465030	83	2546
2026-01-09 12:25:48.55	167.23	73.62	-33.0	-33.2	8.5	398094	83	2519
2026-01-09 12:25:48.75	167.28	73.71	-32.9	-32.9	8.8	334705	83	2470
2026-01-09 12:25:48.95	167.32	73.81	-32.8	-32.8	8.9	251964	83	2454
2026-01-09 12:25:49.15	167.36	73.90	-32.8	-32.8	9.0	251964	83	2460
2026-01-09 12:25:49.35	167.41	74.00	-32.8	-32.8	8.9	217094	83	2466
2026-01-09 12:25:49.55	167.46	74.10	-32.8	-32.8	9.0	209197	83	2452
2026-01-09 12:25:49.75	167.50	74.19	-32.8	-32.7	9.0	209197	83	2450
2026-01-09 12:25:49.96	167.55	74.29	-32.8	-32.8	9.0	200202	83	2456
2026-01-09 12:25:50.16	167.60	74.39	-32.8	-32.8	9.0	204013	83	2458
2026-01-09 12:25:50.36	167.65	74.49	-32.8	-32.7	9.1	204013	83	2441
2026-01-09 12:25:50.56	167.70	74.58	-32.8	-32.8	9.0	193988	83	2459
2026-01-09 12:25:50.76	167.75	74.68	-32.7	-32.5	9.1	198520	83	2409
2026-01-09 12:25:50.96	167.80	74.77	-32.7	-32.4	9.1	198520	83	2401
2026-01-09 12:25:51.16	167.85	74.87	-32.5	-32.1	9.3	177429	83	2353
2026-01-09 12:25:51.36	167.90	74.97	-32.4	-32.0	9.4	149688	83	2329
2026-01-09 12:25:51.56	167.95	75.06	-32.3	-31.8	9.5	149688	83	2304
2026-01-09 12:25:51.77	168.01	75.17	-32.3	-32.2	9.6	121856	82	2424
2026-01-09 12:25:51.97	168.06	75.26	-32.3	-32.1	9.6	104358	82	2413
2026-01-09 12:25:52.17	168.11	75.36	-32.2	-31.9	9.7	92296	82	2376
2026-01-09 12:25:52.37	168.17	75.46	-32.3	-32.1	9.6	92296	82	2403
2026-01-09 12:25:52.57	168.22	75.55	-32.2	-32.0	9.6	93486	82	2402
2026-01-09 12:25:52.77	168.28	75.65	-32.3	-32.2	9.5	104324	82	2429
2026-01-09 12:25:52.97	168.34	75.75	-32.3	-32.2	9.4	104324	82	2422
2026-01-09 12:25:53.17	168.40	75.84	-32.4	-32.4	9.3	119098	82	2449
2026-01-09 12:25:53.37	168.45	75.94	-32.4	-32.4	9.3	144195	82	2457
2026-01-09 12:25:53.58	168.52	76.04	-32.5	-32.5	9.2	144195	82	2461
2026-01-09 12:25:53.78	168.58	76.14	-32.5	-32.4	9.2	155067	82	2454
2026-01-09 12:25:53.98	168.64	76.24	-32.4	-32.3	9.3	153717	82	2441
2026-01-09 12:25:54.18	168.70	76.34	-32.3	-32.2	9.4	153717	82	2415
2026-01-09 12:25:54.38	168.77	76.43	-32.1	-31.7	9.7	137226	82	2345
2026-01-09 12:25:54.58	168.83	76.53	-32.0	-31.5	9.8	99952	82	2313
2026-01-09 12:25:54.78	168.90	76.63	-31.7	-31.4	10.1	99952	81	2365
2026-01-09 12:25:54.98	168.96	76.73	-31.6	-31.1	10.3	67737	81	2324
2026-01-09 12:25:55.18	169.03	76.82	-31.4	-30.7	10.6	41244	81	2265
2026-01-09 12:25:55.39	169.10	76.93	-31.3	-30.4	10.8	41244	81	2236
2026-01-09 12:25:55.59	169.17	77.02	-31.2	-30.8	10.9	24570	80	2344
2026-01-09 12:25:55.79	169.24	77.12	-31.2	-30.9	10.9	15964	80	2363
2026-01-09 12:25:55.99	169.31	77.22	-31.1	-30.6	11.1	13309	80	2328
2026-01-09 12:25:56.19	169.38	77.32	-31.1	-30.6	11.2	13309	80	2315
2026-01-09 12:25:56.39	169.46	77.42	-31.1	-30.6	11.2	11501	80	2319
2026-01-09 12:25:56.59	169.53	77.51	-31.2	-30.8	11.1	10757	80	2356
2026-01-09 12:25:56.79	169.61	77.61	-31.3	-31.0	11.1	10757	80	2379
2026-01-09 12:25:56.99	169.69	77.71	-31.2	-30.9	11.1	11398	80	2375
2026-01-09 12:25:57.19	169.77	77.81	-31.2	-30.9	11.1	12336	80	2366
2026-01-09 12:25:57.39	169.85	77.91	-31.3	-31.0	11.1	11787	80	2387
2026-01-09 12:25:57.60	169.93	78.01	-31.2	-30.8	11.2	11787	80	2362
2026-01-09 12:25:57.80	170.01	78.11	-31.2	-30.9	11.2	10059	80	2374
2026-01-09 12:25:58.00	170.10	78.20	-31.2	-31.0	11.3	9613	80	2383
2026-01-09 12:25:58.20	170.18	78.30	-31.3	-31.1	11.2	9613	80	2403
2026-01-09 12:25:58.40	170.27	78.40	-31.3	-31.1	11.2	9910	80	2410
2026-01-09 12:25:58.60	170.36	78.50	-31.3	-31.1	11.2	8708	80	2409
2026-01-09 12:25:58.80	170.45	78.60	-31.3	-31.2	11.2	8708	80	2425
2026-01-09 12:25:59.00	170.54	78.70	-31.4	-31.3	11.2	8972	80	2438
2026-01-09 12:25:59.20	170.63	78.79	-31.4	-31.4	11.2	9830	80	2459
2026-01-09 12:25:59.40	170.73	78.89	-31.5	-31.5	11.2	9830	80	2466
2026-01-09 12:25:59.61	170.83	79.00	-31.5	-31.6	11.2	8811	80	2493
2026-01-09 12:25:59.81	170.93	79.09	-31.5	-31.7	11.2	9475	80	2500
2026-01-09 12:26:00.01	171.03	79.19	-31.6	-31.7	11.1	9475	80	2502
2026-01-09 12:26:00.21	171.13	79.29	-31.7	-32.0	11.0	9841	80	2552
2026-01-09 12:26:00.41	171.24	79.39	-31.7	-32.0	11.0	12096	80	2545
2026-01-09 12:26:00.61	171.34	79.49	-31.7	-32.1	10.9	15644	80	2568
2026-01-09 12:26:00.81	171.45	79.59	-31.8	-32.2	10.9	15644	80	2582
2026-01-09 12:26:01.01	171.56	79.69	-31.7	-32.1	10.9	16445	80	2565
2026-01-09 12:26:01.21	171.67	79.78	-31.8	-32.3	10.9	16479	80	2605
2026-01-09 12:26:01.41	171.79	79.88	-31.7	-31.9	11.1	16479	80	2544
2026-01-09 12:26:01.61	171.90	79.98	-31.6	-31.8	11.1	14499	80	2527
2026-01-09 12:26:01.82	172.03	80.09	-31.5	-31.7	11.2	11272	80	2505
2026-01-09 12:26:02.02	172.15	80.18	-31.3	-31.2	11.5	11272	80	2425
2026-01-09 12:26:02.22	172.28	80.28	-31.2	-31.0	11.6	7472	80	2397
2026-01-09 12:26:02.42	172.40	80.38	-31.0	-30.5	11.9	4898	80	2321
2026-01-09 12:26:02.62	172.53	80.48	-30.8	-30.2	12.0	4898	80	2278
2026-01-09 12:26:02.82	172.66	80.58	-30.5	-29.9	12.2	2826	79	2312
2026-01-09 12:26:03.02	172.80	80.68	-30.3	-29.5	12.4	1373	79	2250
2026-01-09 12:26:03.22	172.94	80.78	-30.3	-30.1	12.5	1373	78	2393
2026-01-09 12:26:03.42	173.08	80.87	-30.2	-29.8	12.6	926	78	2351
2026-01-09 12:26:03.63	173.23	80.98	-30.1	-29.7	12.7	698	78	2339
2026-01-09 12:26:03.83	173.38	81.08	-30.2	-29.8	12.6	595	78	2356
2026-01-09 12:26:04.03	173.53	81.17	-30.2	-29.7	12.7	595	78	2342
2026-01-09 12:26:04.23	173.68	81.27	-30.2	-29.7	12.6	503	78	2347
2026-01-09 12:26:04.43	173.84	81.37	-30.2	-29.9	12.6	572	78	2374
2026-01-09 12:26:04.63	174.00	81.47	-30.3	-30.0	12.5	572	78	2380
2026-01-09 12:26:04.83	174.17	81.57	-30.2	-29.8	12.6	652	78	2358
2026-01-09 12:26:05.03	174.34	81.67	-30.2	-29.8	12.6	663	78	2358
2026-01-09 12:26:05.23	174.51	81.77	-30.2	-29.9	12.5	663	78	2374
2026-01-09 12:26:05.44	174.70	81.87	-30.1	-29.7	12.7	720	78	2334
2026-01-09 12:26:05.64	174.88	81.97	-30.1	-29.7	12.7	617	78	2333
2026-01-09 12:26:05.84	175.06	82.07	-30.2	-29.8	12.7	617	78	2348
2026-01-09 12:26:06.04	175.26	82.16	-30.0	-29.4	12.9	503	78	2295
2026-01-09 12:26:06.24	175.45	82.26	-30.1	-29.5	12.8	457	78	2318
2026-01-09 12:26:06.44	175.65	82.36	-30.1	-29.6	12.8	457	78	2318
2026-01-09 12:26:06.64	175.86	82.46	-30.1	-29.6	12.9	308	78	2330
2026-01-09 12:26:06.84	176.07	82.56	-30.0	-29.5	12.9	354	78	2315
2026-01-09 12:26:07.04	176.29	82.65	-30.0	-29.4	12.8	377	78	2301
2026-01-09 12:26:07.24	176.51	82.75	-30.0	-29.4	12.8	377	78	2297
2026-01-09 12:26:07.44	176.74	82.85	-29.9	-29.3	12.8	354	78	2284
2026-01-09 12:26:07.64	176.98	82.95	-29.9	-29.2	12.8	354	78	2276
2026-01-09 12:26:07.85	177.23	83.05	-29.9	-29.3	12.8	354	78	2286
2026-01-09 12:26:08.05	177.49	83.15	-29.8	-29.4	12.9	217	77	2364
2026-01-09 12:26:08.25	177.74	83.24	-29.8	-29.4	12.9	377	77	2361
2026-01-09 12:26:08.45	178.01	83.34	-29.8	-29.6	12.7	377	77	2391
2026-01-09 12:26:08.65	178.28	83.44	-29.9	-29.7	12.7	240	77	2406
2026-01-09 12:26:08.85	178.56	83.54	-30.0	-29.8	12.6	480	77	2425
2026-01-09 12:26:09.05	178.85	83.63	-30.2	-30.2	12.4	732	77	2483
2026-01-09 12:26:09.25	179.15	83.73	-30.1	-30.2	12.5	732	77	2469
2026-01-09 12:26:09.45	179.46	83.83	-30.3	-30.5	12.3	709	77	2515
2026-01-09 12:26:09.66	179.79	83.93	-30.4	-30.7	12.2	1407	77	2560
2026-01-09 12:26:09.86	180.12	84.02	-30.4	-30.7	12.2	1407	77	2547
2026-01-09 12:26:10.06	180.46	84.12	-30.4	-30.8	12.1	1670	77	2567
2026-01-09 12:26:10.26	180.81	84.22	-30.5	-30.9	12.1	1911	77	2586
2026-01-09 12:26:10.46	181.18	84.31	-30.6	-30.6	12.1	1911	78	2477
2026-01-09 12:26:10.66	181.55	84.41	-30.6	-30.6	12.1	1750	78	2478
2026-01-09 12:26:10.86	181.94	84.50	-30.6	-30.7	12.0	2265	78	2490
2026-01-09 12:26:11.06	182.34	84.60	-30.5	-30.6	12.1	2265	78	2472
2026-01-09 12:26:11.26	182.76	84.69	-30.5	-30.4	12.1	2059	78	2443
2026-01-09 12:26:11.46	183.19	84.79	-30.5	-30.5	12.0	2288	78	2465
2026-01-09 12:26:11.66	183.64	84.88	-30.5	-30.5	12.0	2288	78	2455
2026-01-09 12:26:11.87	184.13	84.98	-30.3	-30.1	12.1	2220	78	2397
2026-01-09 12:26:12.07	184.61	85.08	-30.4	-30.2	12.1	1991	78	2404
2026-01-09 12:26:12.27	185.11	85.17	-30.3	-30.2	12.1	1796	78	2411
2026-01-09 12:26:12.47	185.63	85.26	-30.2	-29.9	12.3	1796	78	2368
2026-01-09 12:26:12.67	186.18	85.35	-30.3	-30.1	12.2	1522	78	2398
2026-01-09 12:26:12.87	186.74	85.45	-30.5	-30.3	12.1	1579	78	2432
2026-01-09 12:26:13.07	187.33	85.54	-30.5	-30.4	12.1	1579	78	2439
2026-01-09 12:26:13.27	187.94	85.63	-30.6	-30.6	12.0	1659	78	2473
2026-01-09 12:26:13.47	188.58	85.72	-30.6	-30.7	11.9	2723	78	2488
2026-01-09 12:26:13.67	189.25	85.81	-30.7	-30.8	11.7	2723	78	2503
2026-01-09 12:26:13.88	189.98	85.90	-30.7	-30.9	11.7	3547	78	2516
2026-01-09 12:26:14.08	190.71	85.99	-30.8	-31.2	11.6	4211	78	2557
2026-01-09 12:26:14.28	191.47	86.08	-30.9	-31.3	11.4	4211	78	2577
2026-01-09 12:26:14.48	192.27	86.17	-30.9	-31.2	11.4	5813	78	2560
2026-01-09 12:26:14.68	193.10	86.26	-30.8	-31.2	11.4	7106	78	2568
2026-01-09 12:26:14.88	193.97	86.34	-30.8	-31.2	11.5	7106	78	2568
2026-01-09 12:26:15.08	194.89	86.43	-30.6	-30.8	11.7	6294	78	2512
2026-01-09 12:26:15.28	195.85	86.51	-30.6	-30.8	11.7	5161	78	2501
2026-01-09 12:26:15.48	196.86	86.60	-30.6	-30.7	11.8	3559	78	2498
2026-01-09 12:26:15.68	197.91	86.68	-30.4	-30.4	12.0	3559	78	2447
2026-01-09 12:26:15.89	199.08	86.76	-30.4	-30.3	12.1	2391	78	2441
2026-01-09 12:26:16.09	200.25	86.84	-30.3	-30.0	12.2	1842	78	2394
2026-01-09 12:26:16.29	201.48	86.92	-30.3	-30.0	12.2	1842	78	2393
2026-01-09 12:26:16.49	202.78	87.00	-30.2	-30.0	12.2	1796	78	2387
2026-01-09 12:26:16.69	204.14	87.07	-30.2	-29.9	12.3	1430	78	2377
2026-01-09 12:26:16.89	205.57	87.15	-30.1	-29.7	12.3	1430	78	2347
2026-01-09 12:26:17.09	207.08	87.22	-30.1	-29.7	12.4	1270	78	2345
2026-01-09 12:26:17.29	208.66	87.29	-30.1	-29.6	12.5	938	78	2334
2026-01-09 12:26:17.49	210.33	87.36	-30.1	-29.7	12.5	823	78	2337
2026-01-09 12:26:17.69	212.09	87.42	-30.1	-29.7	12.6	823	78	2338
2026-01-09 12:26:17.90	214.02	87.49	-30.1	-29.5	12.6	938	78	2320
2026-01-09 12:26:18.10	215.96	87.55	-30.1	-29.5	12.6	663	78	2318
2026-01-09 12:26:18.30	218.00	87.60	-30.0	-29.5	12.7	663	78	2308
2026-01-09 12:26:18.50	220.13	87.66	-30.0	-29.5	12.8	469	78	2310
2026-01-09 12:26:18.70	222.35	87.71	-30.0	-29.4	12.8	331	78	2308
2026-01-09 12:26:18.90	224.68	87.75	-30.0	-29.4	12.9	331	78	2293
2026-01-09 12:26:19.10	227.09	87.80	-30.1	-29.6	12.8	331	78	2321
2026-01-09 12:26:19.30	229.60	87.83	-30.1	-29.6	12.9	297	78	2324
2026-01-09 12:26:19.50	232.20	87.87	-30.0	-29.4	12.8	297	78	2298
2026-01-09 12:26:19.71	235.00	87.90	-30.0	-29.5	12.8	308	78	2305
2026-01-09 12:26:19.91	237.75	87.93	-29.9	-29.2	12.9	503	78	2276
2026-01-09 12:26:20.11	240.56	87.95	-30.1	-29.5	12.8	503	78	2312
2026-01-09 12:26:20.31	243.42	87.96	-30.1	-29.6	12.8	286	78	2322
2026-01-09 12:26:20.51	246.31	87.97	-30.0	-29.4	12.9	263	78	2303
2026-01-09 12:26:20.71	249.22	87.97	-30.2	-29.9	12.7	389	78	2369
2026-01-09 12:26:20.91	252.14	87.97	-30.2	-29.8	12.7	389	78	2363
2026-01-09 12:26:21.12	255.20	87.97	-30.1	-29.7	12.7	583	78	2349
2026-01-09 12:26:21.32	258.08	87.96	-30.4	-30.3	12.4	549	78	2427
2026-01-09 12:26:21.52	260.93	87.94	-30.4	-30.4	12.4	549	78	2451
2026-01-09 12:26:21.72	263.72	87.92	-30.5	-30.6	12.4	755	78	2475
2026-01-09 12:26:21.92	266.46	87.89	-30.5	-30.5	12.4	1224	78	2466
2026-01-09 12:26:22.12	269.11	87.86	-30.5	-30.6	12.4	1224	78	2476
2026-01-09 12:26:22.32	271.69	87.83	-30.4	-30.3	12.5	1018	78	2433
2026-01-09 12:26:22.52	274.18	87.79	-30.3	-30.0	12.6	835	78	2397
2026-01-09 12:26:22.72	276.58	87.74	-30.3	-30.0	12.6	835	78	2392
2026-01-09 12:26:22.92	278.89	87.70	-30.1	-29.8	12.8	709	78	2361
2026-01-09 12:26:23.13	281.20	87.64	-30.2	-29.8	12.8	377	78	2367
2026-01-09 12:26:23.33	283.31	87.59	-30.1	-29.8	12.8	377	78	2363
2026-01-09 12:26:23.53	285.32	87.53	-30.1	-29.8	12.8	492	78	2359
2026-01-09 12:26:23.73	287.24	87.47	-30.1	-29.7	12.9	274	78	2346
2026-01-09 12:26:23.93	289.07	87.41	-30.1	-29.6	13.0	251	78	2344
2026-01-09 12:26:24.13	290.80	87.34	-30.0	-29.5	13.0	251	78	2319
2026-01-09 12:26:24.33	292.46	87.28	-30.0	-29.6	12.9	274	78	2347
2026-01-09 12:26:24.53	294.03	87.21	-30.1	-29.7	12.9	320	78	2350
2026-01-09 12:26:24.73	295.52	87.13	-29.9	-29.4	13.0	320	78	2305
2026-01-09 12:26:24.93	296.94	87.06	-29.9	-29.2	13.1	194	78	2284
2026-01-09 12:26:25.14	298.35	86.98	-29.9	-29.2	13.1	205	78	2288
2026-01-09 12:26:25.34	299.63	86.90	-29.8	-29.0	13.2	205	78	2252
2026-01-09 12:26:25.54	300.85	86.82	-29.7	-29.3	13.3	125	77	2357
2026-01-09 12:26:25.74	302.01	86.74	-29.6	-29.2	13.4	91	77	2337
2026-01-09 12:26:25.94	303.11	86.66	-29.5	-29.0	13.5	34	77	2307
2026-01-09 12:26:26.14	304.15	86.58	-29.4	-28.7	13.6	34	77	2274
2026-01-09 12:26:26.34	305.15	86.50	-29.4	-28.7	13.6	68	77	2281
2026-01-09 12:26:26.54	306.10	86.41	-29.2	-28.4	13.8	57	77	2237
2026-01-09 12:26:26.74	307.01	86.33	-29.3	-28.9	13.9	57	76	2369
2026-01-09 12:26:26.95	307.92	86.24	-29.2	-28.9	13.9	11	76	2371
2026-01-09 12:26:27.15	308.74	86.15	-29.1	-28.5	14.0	11	76	2316
2026-01-09 12:26:27.35	309.53	86.06	-29.0	-28.4	14.1	11	76	2295
2026-01-09 12:26:27.55	310.29	85.97	-28.9	-28.3	14.2	0	76	2292
2026-01-09 12:26:27.75	311.01	85.88	-28.9	-28.2	14.2	0	76	2278
2026-01-09 12:26:27.95	311.70	85.79	-28.9	-28.3	14.1	0	76	2282
2026-01-09 12:26:28.15	312.36	85.70	-28.9	-28.3	14.1	11	76	2293
2026-01-09 12:26:28.35	312.99	85.61	-29.0	-28.4	14.2	11	76	2304
2026-01-09 12:26:28.56	313.63	85.52	-28.9	-28.3	14.2	11	76	2295
2026-01-09 12:26:28.76	314.21	85.43	-28.9	-28.3	14.2	22	76	2293
2026-01-09 12:26:28.96	314.77	85.33	-29.0	-28.4	14.2	0	76	2305
2026-01-09 12:26:29.16	315.31	85.24	-28.9	-28.1	14.3	11	76	2269
2026-01-09 12:26:29.36	315.83	85.15	-28.6	-28.0	14.4	11	75	2318
2026-01-09 12:26:29.56	316.33	85.05	-28.4	-27.8	14.6	11	75	2282
2026-01-09 12:26:29.76	316.80	84.96	-28.3	-27.4	14.8	0	75	2227
2026-01-09 12:26:29.96	317.27	84.87	-28.2	-27.7	15.0	0	74	2338
2026-01-09 12:26:30.16	317.71	84.77	-28.1	-27.6	15.1	0	74	2320
2026-01-09 12:26:30.37	318.16	84.67	-28.0	-27.4	15.2	0	74	2283
2026-01-09 12:26:30.57	318.57	84.58	-27.9	-27.2	15.3	0	74	2259
2026-01-09 12:26:30.77	318.97	84.48	-27.9	-27.2	15.2	0	74	2268
2026-01-09 12:26:30.97	319.36	84.39	-28.0	-27.3	15.3	0	74	2282
2026-01-09 12:26:31.17	319.73	84.29	-28.0	-27.5	15.1	0	74	2302
2026-01-09 12:26:31.37	320.09	84.20	-28.2	-27.8	15.0	0	74	2343
2026-01-09 12:26:31.57	320.44	84.10	-28.3	-28.0	14.9	0	74	2376
2026-01-09 12:26:31.77	320.77	84.00	-28.5	-28.4	14.6	0	74	2427
2026-01-09 12:26:31.97	321.10	83.91	-28.4	-28.3	14.6	0	74	2416
2026-01-09 12:26:32.18	321.43	83.81	-28.5	-28.4	14.5	0	74	2436
2026-01-09 12:26:32.38	321.74	83.71	-28.5	-28.4	14.5	0	74	2435
2026-01-09 12:26:32.58	322.04	83.61	-28.4	-28.2	14.6	0	74	2401
2026-01-09 12:26:32.78	322.32	83.52	-28.3	-28.0	14.7	0	74	2379
2026-01-09 12:26:32.98	322.60	83.42	-28.1	-27.7	14.9	0	74	2329
2026-01-09 12:26:33.18	322.87	83.32	-27.9	-27.1	15.1	0	74	2251
2026-01-09 12:26:33.38	323.14	83.22	-27.8	-26.9	15.2	0	74	2229
2026-01-09 12:26:33.58	323.39	83.13	-27.6	-27.1	15.4	0	73	2311
2026-01-09 12:26:33.78	323.64	83.03	-27.5	-26.9	15.4	0	73	2288
2026-01-09 12:26:33.98	323.88	82.93	-27.5	-26.7	15.5	0	73	2265
2026-01-09 12:26:34.19	324.13	82.83	-27.5	-26.8	15.5	0	73	2270
2026-01-09 12:26:34.39	324.36	82.73	-27.6	-26.9	15.4	0	73	2295
2026-01-09 12:26:34.59	324.58	82.63	-27.6	-27.1	15.3	0	73	2318
2026-01-09 12:26:34.79	324.80	82.54	-27.7	-27.3	15.2	0	73	2341
2026-01-09 12:26:34.99	325.01	82.44	-27.8	-27.5	15.1	0	73	2370
2026-01-09 12:26:35.19	325.21	82.34	-27.8	-27.5	15.1	0	73	2365
2026-01-09 12:26:35.39	325.41	82.24	-27.8	-27.5	15.1	0	73	2375
2026-01-09 12:26:35.59	325.61	82.14	-27.8	-27.5	15.1	0	73	2366
2026-01-09 12:26:35.80	325.81	82.04	-27.8	-27.4	15.1	0	73	2353
2026-01-09 12:26:36.00	325.99	81.94	-27.7	-27.2	15.2	0	73	2332
2026-01-09 12:26:36.20	326.17	81.84	-27.7	-27.2	15.2	0	73	2325
2026-01-09 12:26:36.40	326.35	81.75	-27.6	-27.0	15.3	0	73	2308
2026-01-09 12:26:36.60	326.52	81.65	-27.6	-27.1	15.3	0	73	2318
2026-01-09 12:26:36.80	326.69	81.55	-27.6	-27.0	15.3	0	73	2304
2026-01-09 12:26:37.00	326.85	81.45	-27.5	-26.8	15.3	0	73	2273
2026-01-09 12:26:37.20	327.02	81.35	-27.5	-26.9	15.4	0	73	2281
2026-01-09 12:26:37.40	327.17	81.25	-27.4	-26.6	15.4	0	73	2250
2026-01-09 12:26:37.60	327.33	81.16	-27.3	-26.5	15.5	0	73	2228
2026-01-09 12:26:37.81	327.48	81.05	-27.3	-26.5	15.5	0	73	2226
2026-01-09 12:26:38.01	327.63	80.95	-27.3	-26.4	15.5	0	73	2221
2026-01-09 12:26:38.21	327.77	80.85	-27.4	-26.5	15.5	0	73	2237
2026-01-09 12:26:38.41	327.91	80.76	-27.5	-26.9	15.4	0	73	2285
2026-01-09 12:26:38.61	328.05	80.66	-27.5	-26.9	15.4	0	73	2283
2026-01-09 12:26:38.81	328.19	80.56	-27.5	-26.8	15.3	0	73	2272
2026-01-09 12:26:39.01	328.32	80.46	-27.6	-27.0	15.2	0	73	2298
2026-01-09 12:26:39.21	328.45	80.36	-27.6	-27.1	15.2	0	73	2310
2026-01-09 12:26:39.41	328.57	80.26	-27.6	-27.1	15.1	0	73	2312
2026-01-09 12:26:39.61	328.70	80.17	-27.6	-27.1	15.0	0	73	2314
2026-01-09 12:26:39.82	328.82	80.06	-27.7	-27.2	14.9	0	73	2321
2026-01-09 12:26:40.02	328.94	79.96	-27.7	-27.1	14.9	0	73	2317
2026-01-09 12:26:40.22	329.06	79.86	-27.6	-27.0	14.9	0	73	2297
2026-01-09 12:26:40.42	329.17	79.77	-27.6	-27.1	14.9	0	73	2312
2026-01-09 12:26:40.62	329.28	79.67	-27.6	-27.0	15.0	0	73	2300
2026-01-09 12:26:40.82	329.39	79.57	-27.4	-26.6	15.0	0	73	2244
2026-01-09 12:26:41.02	329.50	79.47	-27.4	-26.5	15.1	0	73	2230
2026-01-09 12:26:41.22	329.61	79.37	-27.4	-26.6	15.1	0	73	2242
2026-01-09 12:26:41.43	329.72	79.27	-27.3	-26.4	15.2	0	73	2222
2026-01-09 12:26:41.63	329.82	79.17	-27.3	-27.0	15.2	0	72	2369
2026-01-09 12:26:41.83	329.92	79.07	-27.5	-27.2	15.2	0	72	2396
2026-01-09 12:26:42.03	330.02	78.97	-27.5	-27.3	15.1	0	72	2403
2026-01-09 12:26:42.23	330.11	78.88	-27.5	-27.4	15.1	0	72	2426
2026-01-09 12:26:42.43	330.21	78.78	-27.7	-27.8	15.0	11	72	2479
2026-01-09 12:26:42.63	330.30	78.68	-27.8	-28.0	14.9	0	72	2511
2026-01-09 12:26:42.83	330.39	78.58	-27.8	-27.9	15.0	0	72	2503
2026-01-09 12:26:43.03	330.48	78.48	-27.9	-28.2	14.9	11	72	2556
2026-01-09 12:26:43.24	330.57	78.38	-27.9	-28.2	14.9	0	72	2553
2026-01-09 12:26:43.44	330.66	78.28	-27.9	-28.2	14.9	0	72	2554
2026-01-09 12:26:43.64	330.74	78.18	-28.0	-28.4	14.9	0	72	2584
2026-01-09 12:26:43.84	330.83	78.09	-28.0	-28.4	14.9	0	72	2584
2026-01-09 12:26:44.04	330.91	77.99	-28.0	-28.4	14.9	0	72	2574
2026-01-09 12:26:44.24	330.99	77.89	-28.0	-27.9	14.9	0	73	2434
2026-01-09 12:26:44.44	331.07	77.79	-28.0	-27.9	14.9	0	73	2434
2026-01-09 12:26:44.64	331.15	77.69	-28.0	-27.9	14.9	0	73	2437
2026-01-09 12:26:44.84	331.23	77.60	-28.1	-28.0	14.8	0	73	2456
2026-01-09 12:26:45.04	331.30	77.50	-28.1	-28.1	14.8	0	73	2450
2026-01-09 12:26:45.25	331.38	77.40	-28.1	-28.0	14.8	0	73	2451
2026-01-09 12:26:45.45	331.45	77.30	-28.1	-28.1	14.8	0	73	2456
2026-01-09 12:26:45.65	331.53	77.20	-28.0	-28.0	14.8	0	73	2440
2026-01-09 12:26:45.85	331.60	77.10	-28.0	-27.9	14.9	0	73	2426
2026-01-09 12:26:46.05	331.67	77.00	-28.0	-27.8	14.9	11	73	2419
2026-01-09 12:26:46.25	331.74	76.91	-27.9	-27.7	14.9	11	73	2399
2026-01-09 12:26:46.45	331.81	76.81	-27.9	-27.7	15.0	0	73	2394
2026-01-09 12:26:46.65	331.87	76.71	-27.9	-27.6	15.0	0	73	2380
2026-01-09 12:26:46.85	331.94	76.61	-27.9	-27.6	14.9	0	73	2387
2026-01-09 12:26:47.06	332.01	76.51	-27.9	-27.7	14.8	0	73	2403
2026-01-09 12:26:47.26	332.07	76.41	-28.0	-27.9	14.7	0	73	2430
2026-01-09 12:26:47.46	332.13	76.32	-28.1	-28.1	14.6	0	73	2450
2026-01-09 12:26:47.66	332.20	76.22	-28.2	-28.2	14.5	0	73	2478
2026-01-09 12:26:47.86	332.26	76.12	-28.3	-28.4	14.4	0	73	2496
2026-01-09 12:26:48.06	332.32	76.03	-28.4	-28.7	14.2	0	73	2547
2026-01-09 12:26:48.26	332.38	75.93	-28.4	-28.7	14.2	0	73	2551
2026-01-09 12:26:48.46	332.44	75.83	-28.4	-28.7	14.2	34	73	2549
2026-01-09 12:26:48.66	332.49	75.74	-28.4	-28.7	14.1	34	73	2544
2026-01-09 12:26:48.87	332.55	75.63	-28.3	-28.5	14.2	0	73	2517
2026-01-09 12:26:49.07	332.61	75.54	-28.4	-28.6	14.2	22	73	2521
2026-01-09 12:26:49.27	332.67	75.44	-28.2	-28.3	14.3	0	73	2483
2026-01-09 12:26:49.47	332.72	75.34	-28.2	-28.3	14.3	0	73	2483
2026-01-09 12:26:49.67	332.78	75.25	-28.2	-28.1	14.4	11	73	2454
2026-01-09 12:26:49.87	332.83	75.15	-28.2	-28.3	14.3	11	73	2472
2026-01-09 12:26:50.07	332.88	75.05	-28.2	-28.3	14.3	11	73	2479
2026-01-09 12:26:50.27	332.93	74.96	-28.4	-28.5	14.1	0	73	2513
2026-01-09 12:26:50.48	332.99	74.86	-28.4	-28.6	14.1	0	73	2526
2026-01-09 12:26:50.68	333.04	74.76	-28.6	-28.6	13.9	0	74	2447
2026-01-09 12:26:50.88	333.09	74.66	-28.7	-28.8	13.8	22	74	2483
2026-01-09 12:26:51.08	333.14	74.57	-28.9	-29.1	13.6	68	74	2524
2026-01-09 12:26:51.28	333.19	74.47	-28.9	-29.2	13.6	68	74	2550
2026-01-09 12:26:51.48	333.23	74.37	-29.0	-28.9	13.4	68	75	2437
2026-01-09 12:26:51.68	333.28	74.28	-29.1	-29.2	13.3	217	75	2471
2026-01-09 12:26:51.88	333.33	74.18	-29.1	-29.1	13.4	217	75	2459
2026-01-09 12:26:52.08	333.37	74.09	-28.9	-28.7	13.4	102	75	2399
2026-01-09 12:26:52.28	333.42	73.99	-29.1	-29.2	13.4	80	75	2472
2026-01-09 12:26:52.48	333.46	73.89	-29.1	-29.1	13.4	34	75	2456
2026-01-09 12:26:52.69	333.51	73.79	-29.0	-28.9	13.4	34	75	2436
2026-01-09 12:26:52.89	333.56	73.70	-29.1	-29.2	13.4	91	75	2481
2026-01-09 12:26:53.09	333.60	73.60	-29.2	-29.3	13.4	102	75	2489
2026-01-09 12:26:53.29	333.64	73.51	-29.2	-29.4	13.3	102	75	2511
2026-01-09 12:26:53.49	333.68	73.41	-29.2	-29.4	13.2	183	75	2508
2026-01-09 12:26:53.69	333.73	73.32	-29.4	-29.7	13.1	125	75	2561
2026-01-09 12:26:53.89	333.77	73.22	-29.4	-29.8	13.1	183	75	2581
2026-01-09 12:26:54.09	333.81	73.13	-29.5	-30.0	12.9	183	75	2607
2026-01-09 12:26:54.29	333.85	73.03	-29.9	-30.2	12.7	423	76	2562
2026-01-09 12:26:54.49	333.89	72.94	-29.9	-30.3	12.7	366	76	2578
2026-01-09 12:26:54.70	333.93	72.84	-30.0	-30.4	12.6	366	76	2603
2026-01-09 12:26:54.90	333.97	72.74	-29.9	-30.3	12.6	629	76	2578
2026-01-09 12:26:55.10	334.01	72.65	-30.0	-30.5	12.6	709	76	2617
2026-01-09 12:26:55.30	334.05	72.55	-30.0	-30.1	12.4	709	77	2484
2026-01-09 12:26:55.50	334.08	72.46	-30.2	-30.5	12.2	846	77	2534
2026-01-09 12:26:55.70	334.12	72.36	-29.9	-29.9	12.5	1235	77	2443
2026-01-09 12:26:55.90	334.16	72.27	-30.0	-30.1	12.3	1235	77	2473
2026-01-09 12:26:56.10	334.20	72.17	-30.1	-30.2	12.4	915	77	2485
2026-01-09 12:26:56.30	334.23	72.08	-30.0	-30.0	12.4	995	77	2459
2026-01-09 12:26:56.50	334.27	71.98	-30.2	-30.4	12.2	995	77	2526
2026-01-09 12:26:56.71	334.31	71.89	-30.2	-30.4	12.1	1167	77	2521
2026-01-09 12:26:56.91	334.34	71.79	-30.1	-30.1	12.1	1590	77	2476
2026-01-09 12:26:57.11	334.37	71.70	-30.3	-30.6	12.0	1590	77	2552
2026-01-09 12:26:57.31	334.41	71.60	-30.3	-30.7	11.9	2002	77	2558
2026-01-09 12:26:57.51	334.44	71.51	-30.3	-30.7	11.7	2460	77	2551
2026-01-09 12:26:57.71	334.48	71.41	-30.6	-30.7	11.6	4451	78	2487
2026-01-09 12:26:57.91	334.51	71.32	-30.6	-30.6	11.6	4451	78	2488
2026-01-09 12:26:58.11	334.54	71.23	-30.5	-30.5	11.5	4932	78	2465
2026-01-09 12:26:58.31	334.57	71.13	-30.6	-30.8	11.4	6168	78	2507
2026-01-09 12:26:58.52	334.61	71.04	-30.8	-31.2	11.2	6168	78	2569
2026-01-09 12:26:58.72	334.64	70.94	-30.6	-30.7	11.5	8789	78	2482
2026-01-09 12:26:58.92	334.67	70.85	-30.7	-30.8	11.2	7186	78	2500
2026-01-09 12:26:59.12	334.70	70.76	-34.1	-36.2	8.8	7186	82	3127
2026-01-09 12:26:59.32	334.73	70.66	-37.2	-40.8	3.7	1006313	91	3698
2026-01-09 12:26:59.52	334.76	70.57	-38.2	-42.7	3.5	8404529	93	4133
2026-01-09 12:26:59.72	334.80	70.48	-38.4	-42.6	3.3	8404529	93	3994
2026-01-09 12:26:59.92	334.83	70.38	-38.4	-42.7	3.3	8410915	93	4031
2026-01-09 12:27:00.12	334.85	70.29	-38.4	-44.1	3.6	8386150	93	4769
2026-01-09 12:27:00.32	334.88	70.20	-38.5	-43.6	3.6	8386150	94	4446
2026-01-09 12:27:00.53	334.91	70.10	-38.4	-42.5	3.4	8410732	94	3918

#Closed at: 2026-01-09 12:27:00