passes_logs/2026/01/29/R3.2S_Murmansk/R3.2S_Murmansk__20260129_132109_JL1KF02B03_rec.log

#Pass ID: 20260129_132109_JL1KF02B03
#Satellite: JL1KF02B03
#Configuration: 01B_900M
#almurnet v.1.7.20251203
#Start time: 2026-01-29 13:21:08

#Version: 2.2.20231116
#Station: R3.2S_Murmansk
#Location: 33.079688 lon 68.888172 lat
#TLE: 1 61190U 24169B   26027.95040823  .00006616  00000+0  41473-3 0  9997
#TLE: 2 61190  97.5613 118.8989 0014990 139.1340 221.1016 15.09577516 74671

#Time	Az	El	Level	Level2	SNR	BER	BlckErr	Temp	State	Recorded	gain1	gain2
2026-01-29 13:21:08.41	30.60	1.97	-54.4	-56.4	6.2	0.00e+00	0	42	0	0	79	19252
2026-01-29 13:21:09.41	30.51	2.03	-54.3	-56.4	6.2	0.00e+00	0	42	104	0	80	18177
2026-01-29 13:21:10.42	30.41	2.08	-54.3	-56.4	6.2	0.00e+00	0	42	104	0	80	18128
2026-01-29 13:21:11.43	30.32	2.14	-54.3	-56.4	6.2	0.00e+00	0	42	104	0	80	18089
2026-01-29 13:21:12.44	30.22	2.20	-54.3	-56.4	6.2	0.00e+00	0	42	104	0	80	18042
2026-01-29 13:21:13.45	30.12	2.26	-54.3	-56.4	6.2	0.00e+00	0	42	104	0	80	18005
2026-01-29 13:21:14.45	30.03	2.32	-54.3	-56.4	6.2	0.00e+00	0	42	104	0	80	18068
2026-01-29 13:21:15.46	29.93	2.38	-54.3	-56.4	6.2	0.00e+00	0	42	104	0	80	18030
2026-01-29 13:21:16.47	29.83	2.44	-54.3	-56.4	6.2	0.00e+00	0	42	104	0	80	17975
2026-01-29 13:21:17.48	29.73	2.50	-54.3	-56.3	6.2	0.00e+00	0	42	104	0	80	17842
2026-01-29 13:21:18.49	29.63	2.56	-54.3	-56.4	6.2	0.00e+00	0	42	104	0	80	18060
2026-01-29 13:21:19.49	29.53	2.62	-54.4	-56.5	6.2	0.00e+00	0	42	104	0	80	18180
2026-01-29 13:21:20.50	29.43	2.68	-54.4	-56.5	6.2	0.00e+00	0	42	104	0	80	18341
2026-01-29 13:21:21.51	29.33	2.74	-54.5	-56.6	6.2	0.00e+00	0	42	104	0	80	18416
2026-01-29 13:21:22.52	29.23	2.80	-54.5	-56.6	6.2	0.00e+00	0	42	104	0	80	18488
2026-01-29 13:21:23.53	29.13	2.86	-54.5	-56.6	6.2	0.00e+00	0	42	104	0	80	18522
2026-01-29 13:21:24.53	29.02	2.92	-54.5	-56.6	6.2	0.00e+00	0	42	104	0	80	18492
2026-01-29 13:21:25.54	28.92	2.98	-54.5	-56.6	6.2	0.00e+00	0	42	104	0	80	18544
2026-01-29 13:21:26.55	28.82	3.04	-54.6	-56.6	6.2	0.00e+00	0	43	104	0	80	18557
2026-01-29 13:21:27.56	28.71	3.10	-54.5	-56.6	6.2	0.00e+00	0	42	104	0	80	18552
2026-01-29 13:21:28.57	28.61	3.16	-54.6	-56.6	6.2	0.00e+00	0	43	104	0	80	18523
2026-01-29 13:21:29.57	28.50	3.22	-54.4	-56.5	6.2	0.00e+00	0	43	104	0	80	18204
2026-01-29 13:21:30.58	28.40	3.28	-54.4	-56.5	6.2	0.00e+00	0	43	104	0	80	18319
2026-01-29 13:21:31.58	28.29	3.34	-54.5	-56.6	6.2	0.00e+00	0	43	104	0	80	18401
2026-01-29 13:21:32.59	28.18	3.40	-54.5	-56.5	6.2	0.00e+00	0	43	104	0	80	18363
2026-01-29 13:21:33.60	28.08	3.47	-54.5	-56.5	6.2	0.00e+00	0	43	104	0	80	18338
2026-01-29 13:21:34.61	27.97	3.53	-54.5	-56.5	6.2	0.00e+00	0	43	104	0	80	18337
2026-01-29 13:21:35.62	27.86	3.59	-54.4	-56.5	6.2	0.00e+00	0	43	104	0	80	18197
2026-01-29 13:21:36.63	27.75	3.65	-54.3	-56.4	6.2	0.00e+00	0	43	104	0	80	18130
2026-01-29 13:21:37.63	27.64	3.71	-54.2	-56.3	6.2	0.00e+00	0	43	104	0	80	17928
2026-01-29 13:21:38.64	27.53	3.77	-54.1	-56.1	6.2	0.00e+00	0	43	104	0	80	17557
2026-01-29 13:21:39.65	27.42	3.83	-53.9	-56.0	6.2	0.00e+00	0	43	104	0	79	18207
2026-01-29 13:21:40.65	27.31	3.89	-53.6	-55.6	6.2	0.00e+00	0	43	104	0	79	17547
2026-01-29 13:21:41.66	27.20	3.96	-53.2	-55.3	6.2	0.00e+00	0	43	104	0	78	17877
2026-01-29 13:21:42.67	27.08	4.02	-53.2	-55.3	6.2	0.00e+00	0	43	104	0	78	17830
2026-01-29 13:21:43.68	26.97	4.08	-53.2	-55.3	6.2	0.00e+00	0	43	104	0	78	17811
2026-01-29 13:21:44.69	26.85	4.14	-53.2	-55.2	6.2	0.00e+00	0	43	104	0	78	17760
2026-01-29 13:21:45.70	26.74	4.21	-53.2	-55.3	6.2	0.00e+00	0	43	104	0	78	17809
2026-01-29 13:21:46.71	26.62	4.27	-53.2	-55.3	6.2	0.00e+00	0	43	104	0	78	17784
2026-01-29 13:21:47.72	26.51	4.33	-53.2	-55.3	6.2	0.00e+00	0	43	104	0	78	17834
2026-01-29 13:21:48.73	26.39	4.39	-53.2	-55.3	6.2	0.00e+00	0	43	104	0	78	17791
2026-01-29 13:21:49.74	26.27	4.46	-53.2	-55.2	6.2	0.00e+00	0	43	104	0	78	17753
2026-01-29 13:21:50.75	26.16	4.52	-53.2	-55.3	6.2	0.00e+00	0	43	104	0	78	17802
2026-01-29 13:21:51.76	26.04	4.58	-53.2	-55.2	6.2	0.00e+00	0	43	104	0	78	17761
2026-01-29 13:21:52.77	25.92	4.64	-53.2	-55.2	6.2	0.00e+00	0	43	104	0	78	17714
2026-01-29 13:21:53.78	25.80	4.71	-53.2	-55.2	6.2	0.00e+00	0	43	104	0	78	17765
2026-01-29 13:21:54.78	25.68	4.77	-53.1	-55.2	6.2	0.00e+00	0	43	104	0	78	17672
2026-01-29 13:21:55.79	25.56	4.83	-53.1	-55.2	6.2	0.00e+00	0	43	104	0	78	17722
2026-01-29 13:21:56.80	25.43	4.90	-53.2	-55.2	6.2	0.00e+00	0	43	104	0	78	17752
2026-01-29 13:21:57.81	25.31	4.96	-53.1	-55.2	6.2	0.00e+00	0	43	104	0	78	17749
2026-01-29 13:21:58.82	25.19	5.02	-53.1	-55.2	6.2	0.00e+00	0	43	104	0	78	17745
2026-01-29 13:21:59.83	25.06	5.09	-53.2	-55.3	6.2	0.00e+00	0	43	104	0	78	17794
2026-01-29 13:22:00.83	24.94	5.15	-53.2	-55.3	6.2	0.00e+00	0	43	104	0	78	17863
2026-01-29 13:22:01.84	24.81	5.21	-53.1	-55.2	6.2	0.00e+00	0	44	104	0	78	17685
2026-01-29 13:22:02.84	24.69	5.28	-53.3	-55.4	6.2	0.00e+00	0	43	104	0	78	18033
2026-01-29 13:22:03.85	24.56	5.34	-53.1	-55.2	6.2	0.00e+00	0	43	104	0	78	17711
2026-01-29 13:22:04.86	24.43	5.40	-53.2	-55.3	6.2	0.00e+00	0	43	104	0	78	17895
2026-01-29 13:22:05.86	24.31	5.47	-53.1	-55.2	6.2	0.00e+00	0	43	104	0	78	17609
2026-01-29 13:22:06.87	24.18	5.53	-53.2	-55.3	6.2	0.00e+00	0	44	104	0	78	17926
2026-01-29 13:22:07.88	24.05	5.60	-53.1	-55.2	6.2	0.00e+00	0	43	104	0	78	17592
2026-01-29 13:22:08.89	23.92	5.66	-53.1	-55.2	6.2	0.00e+00	0	44	104	0	78	17711
2026-01-29 13:22:09.90	23.79	5.72	-53.1	-55.2	6.2	0.00e+00	0	44	104	0	78	17600
2026-01-29 13:22:10.90	23.66	5.79	-53.2	-55.3	6.2	0.00e+00	0	44	104	0	78	17851
2026-01-29 13:22:11.91	23.52	5.85	-53.1	-55.1	6.2	0.00e+00	0	43	104	0	78	17550
2026-01-29 13:22:12.92	23.39	5.92	-53.1	-55.2	6.2	0.00e+00	0	44	104	0	78	17668
2026-01-29 13:22:13.92	23.26	5.98	-53.0	-55.1	6.2	0.00e+00	0	44	104	0	78	17502
2026-01-29 13:22:14.93	23.12	6.05	-53.2	-55.3	6.2	0.00e+00	0	44	104	0	78	17847
2026-01-29 13:22:15.94	22.99	6.11	-53.0	-55.1	6.2	0.00e+00	0	44	104	0	78	17493
2026-01-29 13:22:16.95	22.85	6.18	-53.1	-55.2	6.2	0.00e+00	0	44	104	0	78	17686
2026-01-29 13:22:17.96	22.71	6.24	-53.0	-55.1	6.2	0.00e+00	0	44	104	0	78	17508
2026-01-29 13:22:18.97	22.57	6.31	-53.2	-55.3	6.2	0.00e+00	0	44	104	0	78	17828
2026-01-29 13:22:19.97	22.44	6.37	-53.0	-55.1	6.2	0.00e+00	0	44	104	0	78	17494
2026-01-29 13:22:20.98	22.30	6.44	-53.1	-55.2	6.2	0.00e+00	0	44	104	0	78	17659
2026-01-29 13:22:21.99	22.16	6.50	-53.0	-55.1	6.2	0.00e+00	0	44	104	0	78	17507
2026-01-29 13:22:23.00	22.02	6.57	-53.2	-55.3	6.2	0.00e+00	0	44	104	0	78	17900
2026-01-29 13:22:24.00	21.88	6.63	-53.0	-55.2	6.2	0.00e+00	0	44	104	0	78	17570
2026-01-29 13:22:25.01	21.73	6.70	-53.1	-55.2	6.2	0.00e+00	0	44	104	0	78	17688
2026-01-29 13:22:26.02	21.59	6.76	-53.1	-55.1	6.2	0.00e+00	0	44	104	0	78	17512
2026-01-29 13:22:27.03	21.44	6.83	-53.2	-55.3	6.2	0.00e+00	0	44	104	0	78	17878
2026-01-29 13:22:28.04	21.30	6.90	-53.1	-55.2	6.2	0.00e+00	0	44	104	0	78	17604
2026-01-29 13:22:29.04	21.16	6.96	-53.1	-55.2	6.2	0.00e+00	0	44	104	0	78	17710
2026-01-29 13:22:30.05	21.01	7.03	-53.1	-55.2	6.2	0.00e+00	0	44	104	0	78	17617
2026-01-29 13:22:31.06	20.86	7.09	-53.2	-55.3	6.2	0.00e+00	0	44	104	0	78	17915
2026-01-29 13:22:32.06	20.71	7.16	-53.1	-55.2	6.2	0.00e+00	0	44	104	0	78	17608
2026-01-29 13:22:33.07	20.56	7.22	-53.1	-55.2	6.2	0.00e+00	0	44	104	0	78	17717
2026-01-29 13:22:34.08	20.41	7.29	-53.1	-55.2	6.2	0.00e+00	0	44	104	0	78	17599
2026-01-29 13:22:35.09	20.26	7.36	-53.3	-55.4	6.2	0.00e+00	0	44	104	0	78	17983
2026-01-29 13:22:36.09	20.11	7.42	-53.1	-55.2	6.2	0.00e+00	0	44	104	0	78	17625
2026-01-29 13:22:37.09	19.96	7.49	-53.2	-55.2	6.2	0.00e+00	0	44	104	0	78	17692
2026-01-29 13:22:38.10	19.81	7.55	-53.1	-55.2	6.2	0.00e+00	0	44	104	0	78	17587
2026-01-29 13:22:39.11	19.65	7.62	-53.3	-55.4	6.2	0.00e+00	0	44	104	0	78	17972
2026-01-29 13:22:40.12	19.50	7.69	-53.1	-55.2	6.2	0.00e+00	0	44	104	0	78	17653
2026-01-29 13:22:41.12	19.34	7.75	-53.1	-55.2	6.2	0.00e+00	0	44	104	0	78	17738
2026-01-29 13:22:42.13	19.19	7.82	-53.1	-55.2	6.2	0.00e+00	0	44	104	0	78	17664
2026-01-29 13:22:43.14	19.03	7.89	-53.3	-55.4	6.2	0.00e+00	0	44	104	0	78	18001
2026-01-29 13:22:44.15	18.87	7.95	-53.1	-55.2	6.2	0.00e+00	0	44	104	0	78	17719
2026-01-29 13:22:45.15	18.71	8.02	-53.2	-55.2	6.2	0.00e+00	0	44	104	0	78	17705
2026-01-29 13:22:46.16	18.55	8.09	-53.1	-55.2	6.2	0.00e+00	0	44	104	0	78	17649
2026-01-29 13:22:47.17	18.39	8.15	-53.3	-55.3	6.2	0.00e+00	0	44	104	0	78	17945
2026-01-29 13:22:48.17	18.23	8.22	-53.1	-55.2	6.2	0.00e+00	0	44	104	0	78	17699
2026-01-29 13:22:49.18	18.06	8.29	-53.2	-55.3	6.2	0.00e+00	0	44	104	0	78	17822
2026-01-29 13:22:50.19	17.90	8.35	-53.1	-55.2	6.2	0.00e+00	0	44	104	0	78	17728
2026-01-29 13:22:51.20	17.73	8.42	-53.3	-55.4	6.2	0.00e+00	0	44	104	0	78	17980
2026-01-29 13:22:52.21	17.57	8.49	-53.2	-55.3	6.2	0.00e+00	0	44	104	0	78	17784
2026-01-29 13:22:53.22	17.40	8.55	-53.2	-55.3	6.2	0.00e+00	0	44	104	0	78	17805
2026-01-29 13:22:54.23	17.23	8.62	-53.1	-55.2	6.2	0.00e+00	0	44	104	0	78	17627
2026-01-29 13:22:55.24	17.06	8.69	-53.3	-55.4	6.2	0.00e+00	0	44	104	0	78	18004
2026-01-29 13:22:56.25	16.89	8.76	-53.2	-55.2	6.2	0.00e+00	0	44	104	0	78	17759
2026-01-29 13:22:57.26	16.72	8.82	-53.2	-55.3	6.2	0.00e+00	0	44	104	0	78	17826
2026-01-29 13:22:58.26	16.55	8.89	-53.1	-55.2	6.2	0.00e+00	0	44	104	0	78	17703
2026-01-29 13:22:59.28	16.37	8.96	-53.3	-55.4	6.2	0.00e+00	0	44	104	0	78	18034
2026-01-29 13:23:00.28	16.20	9.02	-53.2	-55.3	6.2	0.00e+00	0	44	104	0	78	17787
2026-01-29 13:23:01.29	16.03	9.09	-53.2	-55.3	6.2	0.00e+00	0	44	104	0	78	17806
2026-01-29 13:23:02.29	15.85	9.16	-53.2	-55.3	6.2	0.00e+00	0	44	104	0	78	17783
2026-01-29 13:23:03.30	15.68	9.22	-53.3	-55.4	6.2	0.00e+00	0	44	104	0	78	18114
2026-01-29 13:23:04.31	15.50	9.29	-53.2	-55.3	6.2	0.00e+00	0	44	104	0	78	17785
2026-01-29 13:23:05.32	15.32	9.36	-53.2	-55.3	6.2	0.00e+00	0	44	104	0	78	17857
2026-01-29 13:23:06.33	15.14	9.43	-53.2	-55.3	6.2	0.00e+00	0	44	104	0	78	17797
2026-01-29 13:23:07.33	14.96	9.49	-53.3	-55.4	6.2	0.00e+00	0	44	104	0	78	18034
2026-01-29 13:23:08.34	14.78	9.56	-53.2	-55.3	6.2	0.00e+00	0	44	104	0	78	17838
2026-01-29 13:23:09.35	14.59	9.63	-53.2	-55.3	6.2	0.00e+00	0	44	104	0	78	17892
2026-01-29 13:23:10.35	14.41	9.69	-53.2	-55.3	6.2	0.00e+00	0	44	104	0	78	17819
2026-01-29 13:23:11.36	14.22	9.76	-53.3	-55.4	6.2	0.00e+00	0	44	104	0	78	18094
2026-01-29 13:23:12.37	14.04	9.83	-53.2	-55.3	6.2	0.00e+00	0	44	104	0	78	17875
2026-01-29 13:23:13.37	13.85	9.90	-53.2	-55.3	6.2	0.00e+00	0	44	104	0	78	17928
2026-01-29 13:23:14.38	13.66	9.96	-53.2	-55.3	6.2	0.00e+00	0	44	104	0	78	17788
2026-01-29 13:23:15.39	13.47	10.03	-53.3	-55.4	6.2	0.00e+00	0	44	104	0	78	18051
2026-01-29 13:23:16.40	13.28	10.10	-53.2	-55.3	6.2	0.00e+00	0	44	104	0	78	17805
2026-01-29 13:23:17.41	13.09	10.16	-53.2	-55.3	6.2	0.00e+00	0	44	104	0	78	17888
2026-01-29 13:23:18.41	12.90	10.23	-53.2	-55.3	6.2	0.00e+00	0	44	104	0	78	17787
2026-01-29 13:23:19.42	12.71	10.30	-53.3	-55.4	6.2	0.00e+00	0	44	104	0	78	17980
2026-01-29 13:23:20.43	12.51	10.36	-53.2	-55.3	6.2	0.00e+00	0	44	104	0	78	17910
2026-01-29 13:23:21.44	12.32	10.43	-53.3	-55.3	6.2	0.00e+00	0	44	104	0	78	17966
2026-01-29 13:23:22.44	12.12	10.50	-53.2	-55.3	6.2	0.00e+00	0	44	104	0	78	17967
2026-01-29 13:23:23.45	11.92	10.56	-53.3	-55.4	6.2	0.00e+00	0	44	104	0	78	18049
2026-01-29 13:23:24.46	11.72	10.63	-53.3	-55.3	6.2	0.00e+00	0	44	104	0	78	17940
2026-01-29 13:23:25.46	11.53	10.70	-53.3	-55.3	6.2	0.00e+00	0	44	104	0	78	17969
2026-01-29 13:23:26.47	11.32	10.76	-53.2	-55.4	6.2	0.00e+00	0	44	104	0	78	17984
2026-01-29 13:23:27.48	11.12	10.83	-53.3	-55.4	6.2	0.00e+00	0	44	104	0	78	18125
2026-01-29 13:23:28.49	10.92	10.90	-53.3	-55.4	6.2	0.00e+00	0	44	104	0	78	18036
2026-01-29 13:23:29.50	10.71	10.96	-53.3	-55.4	6.2	0.00e+00	0	44	104	0	78	18067
2026-01-29 13:23:30.51	10.51	11.03	-53.3	-55.4	6.2	0.00e+00	0	44	104	0	78	18066
2026-01-29 13:23:31.51	10.30	11.10	-53.3	-55.4	6.2	0.00e+00	0	44	104	0	78	18151
2026-01-29 13:23:32.52	10.09	11.16	-53.3	-55.4	6.2	0.00e+00	0	44	104	0	78	18121
2026-01-29 13:23:33.52	9.89	11.23	-53.3	-55.4	6.2	0.00e+00	0	44	104	0	78	18115
2026-01-29 13:23:34.52	9.68	11.29	-53.4	-55.4	6.2	0.00e+00	0	44	104	0	78	18128
2026-01-29 13:23:35.53	9.47	11.36	-53.4	-55.4	6.2	0.00e+00	0	44	104	0	78	18170
2026-01-29 13:23:36.53	9.25	11.42	-53.3	-55.5	6.2	0.00e+00	0	44	104	0	78	18192
2026-01-29 13:23:37.54	9.04	11.49	-53.3	-55.4	6.2	0.00e+00	0	44	104	0	78	18137
2026-01-29 13:23:38.55	8.82	11.56	-53.4	-55.5	6.2	0.00e+00	0	44	104	0	78	18197
2026-01-29 13:23:39.56	8.61	11.62	-53.4	-55.4	6.2	0.00e+00	0	44	104	0	78	18171
2026-01-29 13:23:40.56	8.39	11.69	-53.4	-55.4	6.2	0.00e+00	0	44	104	0	78	18172
2026-01-29 13:23:41.57	8.17	11.75	-53.3	-55.4	6.2	0.00e+00	0	44	104	0	78	18119
2026-01-29 13:23:42.58	7.95	11.82	-53.4	-55.5	6.2	0.00e+00	0	44	104	0	78	18224
2026-01-29 13:23:43.59	7.73	11.88	-53.4	-55.5	6.2	0.00e+00	0	44	104	0	78	18278
2026-01-29 13:23:44.60	7.51	11.95	-53.4	-55.5	6.2	0.00e+00	0	44	104	0	78	18181
2026-01-29 13:23:45.61	7.29	12.01	-53.4	-55.5	6.2	0.00e+00	0	44	104	0	78	18225
2026-01-29 13:23:46.61	7.07	12.07	-53.4	-55.5	6.2	0.00e+00	0	44	104	0	78	18242
2026-01-29 13:23:47.62	6.84	12.14	-53.4	-55.5	6.2	0.00e+00	0	44	104	0	78	18219
2026-01-29 13:23:48.63	6.61	12.20	-53.4	-55.5	6.2	0.00e+00	0	44	104	0	78	18253
2026-01-29 13:23:49.64	6.38	12.27	-53.3	-55.4	6.2	0.00e+00	0	44	104	0	78	18132
2026-01-29 13:23:50.64	6.16	12.33	-53.4	-55.5	6.2	0.00e+00	0	44	104	0	78	18252
2026-01-29 13:23:51.65	5.93	12.39	-53.4	-55.5	6.2	0.00e+00	0	44	104	0	78	18299
2026-01-29 13:23:52.66	5.69	12.46	-53.4	-55.5	6.2	0.00e+00	0	45	104	0	78	18221
2026-01-29 13:23:53.67	5.46	12.52	-53.4	-55.5	6.2	0.00e+00	0	44	104	0	78	18209
2026-01-29 13:23:54.68	5.23	12.58	-53.4	-55.5	6.2	0.00e+00	0	44	104	0	78	18311
2026-01-29 13:23:55.69	4.99	12.65	-53.4	-55.5	6.2	0.00e+00	0	44	104	0	78	18279
2026-01-29 13:23:56.69	4.76	12.71	-53.4	-55.5	6.2	0.00e+00	0	44	104	0	78	18191
2026-01-29 13:23:57.70	4.52	12.77	-53.4	-55.4	6.2	0.00e+00	0	44	104	0	78	18179
2026-01-29 13:23:58.70	4.28	12.83	-53.4	-55.5	6.2	0.00e+00	0	44	104	0	78	18331
2026-01-29 13:23:59.71	4.04	12.89	-53.4	-55.5	6.2	0.00e+00	0	44	104	0	78	18253
2026-01-29 13:24:00.72	3.80	12.96	-53.4	-55.5	6.2	0.00e+00	0	44	104	0	78	18214
2026-01-29 13:24:01.73	3.56	13.02	-53.4	-55.5	6.2	0.00e+00	0	44	104	0	78	18206
2026-01-29 13:24:02.73	3.32	13.08	-53.5	-55.5	6.2	0.00e+00	0	45	104	0	78	18344
2026-01-29 13:24:03.74	3.07	13.14	-53.4	-55.5	6.2	0.00e+00	0	44	104	0	78	18380
2026-01-29 13:24:04.75	2.83	13.20	-53.4	-55.5	6.2	0.00e+00	0	44	104	0	78	18282
2026-01-29 13:24:05.76	2.58	13.26	-53.4	-55.5	6.2	0.00e+00	0	44	104	0	78	18222
2026-01-29 13:24:06.76	2.33	13.32	-53.5	-55.5	6.2	0.00e+00	0	44	104	0	78	18330
2026-01-29 13:24:07.77	2.08	13.38	-53.4	-55.5	6.2	0.00e+00	0	44	104	0	78	18322
2026-01-29 13:24:08.78	1.83	13.44	-53.4	-55.5	6.2	0.00e+00	0	44	104	0	78	18276
2026-01-29 13:24:09.80	1.58	13.50	-53.4	-55.5	6.2	0.00e+00	0	44	104	0	78	18286
2026-01-29 13:24:10.80	1.33	13.56	-53.4	-55.5	6.2	0.00e+00	0	45	104	0	78	18330
2026-01-29 13:24:11.81	1.07	13.62	-53.4	-55.5	6.2	0.00e+00	0	44	104	0	78	18307
2026-01-29 13:24:12.82	0.82	13.67	-53.4	-55.5	6.2	0.00e+00	0	45	104	0	78	18307
2026-01-29 13:24:13.83	0.56	13.73	-53.4	-55.5	6.2	0.00e+00	0	44	104	0	78	18229
2026-01-29 13:24:14.83	0.30	13.79	-53.5	-55.5	6.2	0.00e+00	0	44	104	0	78	18349
2026-01-29 13:24:15.84	0.04	13.85	-53.4	-55.5	6.2	0.00e+00	0	45	104	0	78	18299
2026-01-29 13:24:16.85	359.78	13.90	-53.4	-55.5	6.2	0.00e+00	0	45	104	0	78	18272
2026-01-29 13:24:17.86	359.52	13.96	-53.4	-55.5	6.2	0.00e+00	0	44	104	0	78	18228
2026-01-29 13:24:18.86	359.26	14.02	-53.5	-55.6	6.2	0.00e+00	0	45	104	0	78	18414
2026-01-29 13:24:19.87	359.00	14.07	-53.5	-55.5	6.2	0.00e+00	0	44	104	0	78	18357
2026-01-29 13:24:20.88	358.73	14.13	-53.4	-55.5	6.2	0.00e+00	0	45	104	0	78	18333
2026-01-29 13:24:21.89	358.46	14.18	-53.4	-55.5	6.2	0.00e+00	0	45	104	0	78	18282
2026-01-29 13:24:22.90	358.20	14.24	-53.5	-55.6	6.2	0.00e+00	0	45	104	0	78	18521
2026-01-29 13:24:23.91	357.93	14.29	-53.5	-55.6	6.2	0.00e+00	0	44	104	0	78	18495
2026-01-29 13:24:24.92	357.66	14.35	-53.5	-55.6	6.2	0.00e+00	0	44	104	0	78	18406
2026-01-29 13:24:25.93	357.38	14.40	-53.4	-55.5	6.2	0.00e+00	0	45	104	0	78	18295
2026-01-29 13:24:26.93	357.12	14.45	-53.5	-55.6	6.2	0.00e+00	0	45	104	0	78	18541
2026-01-29 13:24:27.95	356.84	14.51	-53.5	-55.6	6.2	0.00e+00	0	44	104	0	78	18515
2026-01-29 13:24:28.96	356.56	14.56	-53.5	-55.6	6.2	0.00e+00	0	45	104	0	78	18407
2026-01-29 13:24:29.96	356.29	14.61	-53.4	-55.5	6.2	0.00e+00	0	45	104	0	78	18337
2026-01-29 13:24:30.97	356.01	14.66	-53.6	-55.6	6.2	0.00e+00	0	44	104	0	78	18581
2026-01-29 13:24:31.98	355.74	14.71	-53.5	-55.6	6.2	0.00e+00	0	44	104	0	78	18447
2026-01-29 13:24:32.99	355.46	14.76	-53.5	-55.6	6.2	0.00e+00	0	45	104	0	78	18422
2026-01-29 13:24:34.00	355.18	14.81	-53.4	-55.5	6.2	0.00e+00	0	45	104	0	78	18359
2026-01-29 13:24:35.00	354.90	14.86	-53.6	-55.7	6.2	0.00e+00	0	45	104	0	78	18614
2026-01-29 13:24:36.01	354.61	14.91	-53.5	-55.6	6.2	0.00e+00	0	45	104	0	78	18474
2026-01-29 13:24:37.02	354.33	14.96	-53.5	-55.6	6.2	0.00e+00	0	45	104	0	78	18448
2026-01-29 13:24:38.02	354.05	15.01	-53.4	-55.5	6.2	0.00e+00	0	44	104	0	78	18293
2026-01-29 13:24:39.03	353.76	15.06	-53.6	-55.7	6.2	0.00e+00	0	45	104	0	78	18653
2026-01-29 13:24:40.03	353.48	15.10	-53.5	-55.6	6.2	0.00e+00	0	45	104	0	78	18545
2026-01-29 13:24:41.04	353.19	15.15	-53.5	-55.6	6.2	0.00e+00	0	44	104	0	78	18496
2026-01-29 13:24:42.05	352.90	15.20	-53.5	-55.6	6.2	0.00e+00	0	44	104	0	78	18403
2026-01-29 13:24:43.06	352.61	15.24	-53.6	-55.7	6.2	0.00e+00	0	44	104	0	78	18655
2026-01-29 13:24:44.07	352.32	15.29	-53.5	-55.6	6.2	0.00e+00	0	45	104	0	78	18516
2026-01-29 13:24:45.08	352.03	15.33	-53.6	-55.6	6.2	0.00e+00	0	44	104	0	78	18530
2026-01-29 13:24:46.08	351.74	15.37	-53.5	-55.6	6.2	0.00e+00	0	45	104	0	78	18469
2026-01-29 13:24:47.09	351.44	15.42	-53.6	-55.7	6.2	0.00e+00	0	44	104	0	78	18667
2026-01-29 13:24:48.10	351.15	15.46	-53.6	-55.6	6.2	0.00e+00	0	45	104	0	78	18528
2026-01-29 13:24:49.11	350.85	15.50	-53.6	-55.6	6.2	0.00e+00	0	44	104	0	78	18595
2026-01-29 13:24:50.11	350.56	15.54	-53.5	-55.6	6.2	0.00e+00	0	45	104	0	78	18523
2026-01-29 13:24:51.12	350.26	15.58	-53.6	-55.6	6.2	0.00e+00	0	44	104	0	78	18602
2026-01-29 13:24:52.13	349.96	15.62	-53.6	-55.6	6.2	0.00e+00	0	45	104	0	78	18527
2026-01-29 13:24:53.13	349.66	15.66	-53.6	-55.7	6.2	0.00e+00	0	45	104	0	78	18621
2026-01-29 13:24:54.14	349.36	15.70	-53.5	-55.6	6.2	0.00e+00	0	45	104	0	78	18546
2026-01-29 13:24:55.15	349.06	15.74	-53.6	-55.7	6.2	0.00e+00	0	45	104	0	78	18712
2026-01-29 13:24:56.16	348.76	15.78	-53.6	-55.6	6.2	0.00e+00	0	45	104	0	78	18588
2026-01-29 13:24:57.17	348.45	15.82	-53.6	-55.7	6.2	0.00e+00	0	45	104	0	78	18726
2026-01-29 13:24:58.17	348.15	15.85	-53.5	-55.6	6.2	0.00e+00	0	45	104	0	78	18557
2026-01-29 13:24:59.18	347.85	15.89	-53.6	-55.7	6.2	0.00e+00	0	45	104	0	78	18787
2026-01-29 13:25:00.19	347.54	15.92	-53.6	-55.7	6.2	0.00e+00	0	45	104	0	78	18670
2026-01-29 13:25:01.19	347.24	15.96	-53.6	-55.7	6.2	0.00e+00	0	45	104	0	78	18740
2026-01-29 13:25:02.20	346.93	15.99	-53.6	-55.6	6.2	0.00e+00	0	45	104	0	78	18547
2026-01-29 13:25:03.21	346.62	16.02	-53.7	-55.7	6.2	0.00e+00	0	45	104	0	78	18724
2026-01-29 13:25:04.22	346.31	16.06	-53.6	-55.7	6.2	0.00e+00	0	45	104	0	78	18644
2026-01-29 13:25:05.23	346.00	16.09	-53.6	-55.7	6.2	0.00e+00	0	45	104	0	78	18701
2026-01-29 13:25:06.24	345.69	16.12	-53.5	-55.6	6.2	0.00e+00	0	45	104	0	78	18544
2026-01-29 13:25:07.24	345.38	16.15	-53.7	-55.7	6.2	0.00e+00	0	45	104	0	78	18816
2026-01-29 13:25:08.25	345.07	16.18	-53.6	-55.7	6.2	0.00e+00	0	45	104	0	78	18689
2026-01-29 13:25:09.26	344.75	16.21	-53.6	-55.7	6.2	0.00e+00	0	45	104	0	78	18757
2026-01-29 13:25:10.26	344.44	16.24	-53.6	-55.7	6.2	0.00e+00	0	45	104	0	78	18606
2026-01-29 13:25:11.27	344.13	16.26	-53.7	-55.7	6.2	0.00e+00	0	45	104	0	78	18812
2026-01-29 13:25:12.28	343.81	16.29	-53.6	-55.7	6.2	0.00e+00	0	45	104	0	78	18689
2026-01-29 13:25:13.29	343.49	16.32	-53.6	-55.7	6.2	0.00e+00	0	45	104	0	78	18800
2026-01-29 13:25:14.29	343.18	16.34	-53.6	-55.7	6.2	0.00e+00	0	45	104	0	78	18670
2026-01-29 13:25:15.30	342.86	16.37	-53.7	-55.7	6.2	0.00e+00	0	45	104	0	78	18818
2026-01-29 13:25:16.31	342.55	16.39	-53.6	-55.7	6.2	0.00e+00	0	45	104	0	78	18768
2026-01-29 13:25:17.32	342.23	16.41	-53.7	-55.7	6.2	0.00e+00	0	45	104	0	78	18792
2026-01-29 13:25:18.33	341.91	16.43	-53.6	-55.7	6.2	0.00e+00	0	44	104	0	78	18678
2026-01-29 13:25:19.34	341.59	16.46	-53.7	-55.8	6.2	0.00e+00	0	44	104	0	78	18846
2026-01-29 13:25:20.34	341.27	16.48	-53.6	-55.7	6.2	0.00e+00	0	45	104	0	78	18806
2026-01-29 13:25:21.35	340.95	16.50	-53.6	-55.7	6.2	0.00e+00	0	45	104	0	78	18768
2026-01-29 13:25:22.36	340.63	16.52	-53.6	-55.7	6.2	0.00e+00	0	45	104	0	78	18690
2026-01-29 13:25:23.37	340.31	16.53	-53.7	-55.8	6.2	0.00e+00	0	45	104	0	78	18934
2026-01-29 13:25:24.37	339.99	16.55	-53.7	-55.7	6.2	0.00e+00	0	44	104	0	78	18767
2026-01-29 13:25:25.38	339.67	16.57	-53.7	-55.7	6.2	0.00e+00	0	45	104	0	78	18779
2026-01-29 13:25:26.39	339.34	16.58	-53.6	-55.7	6.2	0.00e+00	0	45	104	0	78	18763
2026-01-29 13:25:27.40	339.02	16.60	-53.7	-55.8	6.2	0.00e+00	0	45	104	0	78	18925
2026-01-29 13:25:28.41	338.70	16.61	-53.7	-55.8	6.2	0.00e+00	0	44	104	0	78	18832
2026-01-29 13:25:29.41	338.37	16.63	-53.7	-55.8	6.2	0.00e+00	0	45	104	0	78	18846
2026-01-29 13:25:30.42	338.05	16.64	-53.7	-55.8	6.2	0.00e+00	0	45	104	0	78	18909
2026-01-29 13:25:31.43	337.73	16.65	-53.7	-55.8	6.2	0.00e+00	0	44	104	0	78	19008
2026-01-29 13:25:32.44	337.40	16.66	-53.7	-55.8	6.2	0.00e+00	0	45	104	0	78	18862
2026-01-29 13:25:33.45	337.08	16.67	-53.7	-55.8	6.2	0.00e+00	0	45	104	0	78	18911
2026-01-29 13:25:34.46	336.75	16.68	-53.7	-55.8	6.2	0.00e+00	0	45	104	0	78	18886
2026-01-29 13:25:35.47	336.42	16.69	-53.7	-55.8	6.2	0.00e+00	0	45	104	0	78	18961
2026-01-29 13:25:36.48	336.10	16.70	-53.7	-55.8	6.2	0.00e+00	0	45	104	0	78	18867
2026-01-29 13:25:37.49	335.77	16.70	-53.7	-55.8	6.2	0.00e+00	0	45	104	0	78	18910
2026-01-29 13:25:38.50	335.45	16.71	-53.7	-55.8	6.2	0.00e+00	0	45	104	0	78	18898
2026-01-29 13:25:39.51	335.12	16.71	-53.8	-55.8	6.2	0.00e+00	0	45	104	0	78	18967
2026-01-29 13:25:40.51	334.80	16.72	-53.7	-55.8	6.2	0.00e+00	0	45	104	0	78	18936
2026-01-29 13:25:41.52	334.47	16.72	-53.7	-55.8	6.2	0.00e+00	0	45	104	0	78	18891
2026-01-29 13:25:42.53	334.14	16.72	-53.7	-55.8	6.2	0.00e+00	0	44	104	0	78	18980
2026-01-29 13:25:43.54	333.81	16.73	-53.8	-55.8	6.2	0.00e+00	0	45	104	0	78	18998
2026-01-29 13:25:44.55	333.49	16.73	-53.7	-55.8	6.2	0.00e+00	0	45	104	0	78	18925
2026-01-29 13:25:45.56	333.16	16.73	-53.7	-55.8	6.2	0.00e+00	0	45	104	0	78	18868
2026-01-29 13:25:46.56	332.84	16.73	-53.8	-55.8	6.2	0.00e+00	0	45	104	0	78	19034
2026-01-29 13:25:47.57	332.51	16.72	-53.8	-55.8	6.2	0.00e+00	0	45	104	0	78	19035
2026-01-29 13:25:48.58	332.18	16.72	-53.7	-55.8	6.2	0.00e+00	0	45	104	0	78	18930
2026-01-29 13:25:49.58	331.86	16.72	-53.7	-55.8	6.2	0.00e+00	0	45	104	0	78	18958
2026-01-29 13:25:50.59	331.53	16.71	-53.8	-55.9	6.2	0.00e+00	0	45	104	0	78	19066
2026-01-29 13:25:51.60	331.21	16.71	-53.8	-55.9	6.2	0.00e+00	0	45	104	0	78	19042
2026-01-29 13:25:52.61	330.88	16.70	-53.8	-55.9	6.2	0.00e+00	0	45	104	0	78	19063
2026-01-29 13:25:53.61	330.56	16.70	-53.7	-55.8	6.2	0.00e+00	0	45	104	0	78	18919
2026-01-29 13:25:54.62	330.23	16.69	-53.8	-55.9	6.2	0.00e+00	0	44	104	0	78	19132
2026-01-29 13:25:55.63	329.90	16.68	-53.8	-55.9	6.2	0.00e+00	0	45	104	0	78	19094
2026-01-29 13:25:56.64	329.58	16.67	-53.8	-55.9	6.2	0.00e+00	0	45	104	0	78	19050
2026-01-29 13:25:57.65	329.25	16.66	-53.7	-55.8	6.2	0.00e+00	0	45	104	0	78	18992
2026-01-29 13:25:58.66	328.93	16.65	-53.8	-55.9	6.2	0.00e+00	0	45	104	0	78	19192
2026-01-29 13:25:59.67	328.60	16.64	-53.8	-55.9	6.2	0.00e+00	0	45	104	0	78	19104
2026-01-29 13:26:00.67	328.28	16.63	-53.8	-55.9	6.2	0.00e+00	0	45	104	0	78	19083
2026-01-29 13:26:01.68	327.96	16.61	-53.7	-55.8	6.2	0.00e+00	0	45	104	0	78	18928
2026-01-29 13:26:02.69	327.63	16.60	-53.8	-55.9	6.2	0.00e+00	0	45	104	0	78	19241
2026-01-29 13:26:03.70	327.31	16.58	-53.8	-55.9	6.2	0.00e+00	0	44	104	0	78	19139
2026-01-29 13:26:04.71	326.98	16.57	-53.8	-55.9	6.2	0.00e+00	0	45	104	0	78	19049
2026-01-29 13:26:05.72	326.66	16.55	-53.7	-55.8	6.2	0.00e+00	0	45	104	0	78	19035
2026-01-29 13:26:06.73	326.34	16.53	-53.8	-56.0	6.2	0.00e+00	0	45	104	0	78	19284
2026-01-29 13:26:07.73	326.02	16.52	-53.8	-55.9	6.2	0.00e+00	0	45	104	0	78	19074
2026-01-29 13:26:08.74	325.70	16.50	-53.8	-55.9	6.2	0.00e+00	0	45	104	0	78	19164
2026-01-29 13:26:09.75	325.38	16.48	-53.7	-55.8	6.2	0.00e+00	0	45	104	0	78	18957
2026-01-29 13:26:10.76	325.06	16.46	-53.9	-55.9	6.2	0.00e+00	0	45	104	0	78	19244
2026-01-29 13:26:11.76	324.74	16.44	-53.8	-55.9	6.2	0.00e+00	0	44	104	0	78	19166
2026-01-29 13:26:12.77	324.42	16.41	-53.8	-55.9	6.2	0.00e+00	0	45	104	0	78	19119
2026-01-29 13:26:13.78	324.10	16.39	-53.8	-55.8	6.2	0.00e+00	0	45	104	0	78	18979
2026-01-29 13:26:14.79	323.78	16.37	-53.9	-55.9	6.2	0.00e+00	0	45	104	0	78	19237
2026-01-29 13:26:15.79	323.47	16.34	-53.8	-55.9	6.2	0.00e+00	0	45	104	0	78	19092
2026-01-29 13:26:16.80	323.15	16.32	-53.8	-55.9	6.2	0.00e+00	0	45	104	0	78	19111
2026-01-29 13:26:17.81	322.83	16.29	-53.8	-55.9	6.2	0.00e+00	0	45	104	0	78	19080
2026-01-29 13:26:18.82	322.52	16.26	-53.9	-56.0	6.2	0.00e+00	0	45	104	0	78	19332
2026-01-29 13:26:19.82	322.20	16.24	-53.8	-55.9	6.2	0.00e+00	0	44	104	0	78	19232
2026-01-29 13:26:20.83	321.89	16.21	-53.8	-55.9	6.2	0.00e+00	0	45	104	0	78	19163
2026-01-29 13:26:21.84	321.57	16.18	-53.8	-55.9	6.2	0.00e+00	0	45	104	0	78	19052
2026-01-29 13:26:22.85	321.26	16.15	-53.9	-56.0	6.2	0.00e+00	0	45	104	0	78	19305
2026-01-29 13:26:23.85	320.95	16.12	-53.8	-55.9	6.2	0.00e+00	0	45	104	0	78	19231
2026-01-29 13:26:24.86	320.64	16.09	-53.8	-55.9	6.2	0.00e+00	0	45	104	0	78	19216
2026-01-29 13:26:25.87	320.33	16.06	-53.8	-55.9	6.2	0.00e+00	0	45	104	0	78	19118
2026-01-29 13:26:26.87	320.02	16.03	-53.9	-56.0	6.2	0.00e+00	0	45	104	0	78	19299
2026-01-29 13:26:27.88	319.71	15.99	-53.8	-55.9	6.2	0.00e+00	0	45	104	0	78	19220
2026-01-29 13:26:28.89	319.40	15.96	-53.8	-56.0	6.2	0.00e+00	0	45	104	0	78	19261
2026-01-29 13:26:29.89	319.10	15.92	-53.8	-55.9	6.2	0.00e+00	0	45	104	0	78	19098
2026-01-29 13:26:30.90	318.79	15.89	-53.9	-56.0	6.2	0.00e+00	0	45	104	0	78	19304
2026-01-29 13:26:31.91	318.48	15.85	-53.9	-56.0	6.2	0.00e+00	0	45	104	0	78	19260
2026-01-29 13:26:32.92	318.18	15.82	-53.8	-55.9	6.2	0.00e+00	0	45	104	0	78	19231
2026-01-29 13:26:33.93	317.87	15.78	-53.8	-55.9	6.2	0.00e+00	0	45	104	0	78	19140
2026-01-29 13:26:34.94	317.57	15.74	-53.9	-56.0	6.2	0.00e+00	0	45	104	0	78	19300
2026-01-29 13:26:35.94	317.27	15.70	-53.9	-55.9	6.2	0.00e+00	0	45	104	0	78	19225
2026-01-29 13:26:36.95	316.97	15.66	-53.8	-55.9	6.2	0.00e+00	0	45	104	0	78	19237
2026-01-29 13:26:37.96	316.67	15.62	-53.8	-55.9	6.2	0.00e+00	0	44	104	0	78	19099
2026-01-29 13:26:38.96	316.37	15.58	-53.9	-55.9	6.2	0.00e+00	0	45	104	0	78	19247
2026-01-29 13:26:39.97	316.07	15.54	-53.8	-55.9	6.2	0.00e+00	0	45	104	0	78	19247
2026-01-29 13:26:40.98	315.77	15.50	-53.8	-55.9	6.2	0.00e+00	0	45	104	0	78	19161
2026-01-29 13:26:41.99	315.47	15.46	-53.8	-55.9	6.2	0.00e+00	0	45	104	0	78	19073
2026-01-29 13:26:43.00	315.18	15.42	-53.9	-55.9	6.2	0.00e+00	0	44	104	0	78	19252
2026-01-29 13:26:44.00	314.88	15.37	-53.8	-55.9	6.2	0.00e+00	0	45	104	0	78	19245
2026-01-29 13:26:45.01	314.59	15.33	-53.8	-55.9	6.2	0.00e+00	0	45	104	0	78	19206
2026-01-29 13:26:46.01	314.30	15.28	-53.8	-55.9	6.2	0.00e+00	0	45	104	0	78	19117
2026-01-29 13:26:47.02	314.01	15.24	-53.9	-55.9	6.2	0.00e+00	0	45	104	0	78	19243
2026-01-29 13:26:48.03	313.72	15.19	-53.8	-55.9	6.2	0.00e+00	0	45	104	0	78	19183
2026-01-29 13:26:49.04	313.42	15.15	-53.8	-55.9	6.2	0.00e+00	0	45	104	0	78	19200
2026-01-29 13:26:50.05	313.14	15.10	-53.8	-55.9	6.2	0.00e+00	0	45	104	0	78	19125
2026-01-29 13:26:51.05	312.85	15.05	-53.9	-55.9	6.2	0.00e+00	0	44	104	0	78	19250
2026-01-29 13:26:52.06	312.56	15.01	-53.8	-55.9	6.2	0.00e+00	0	45	104	0	78	19231
2026-01-29 13:26:53.07	312.28	14.96	-53.8	-55.9	6.2	0.00e+00	0	45	104	0	78	19233
2026-01-29 13:26:54.07	311.99	14.91	-53.8	-55.9	6.2	0.00e+00	0	45	104	0	78	19089
2026-01-29 13:26:55.08	311.71	14.86	-53.9	-56.0	6.2	0.00e+00	0	45	104	0	78	19291
2026-01-29 13:26:56.09	311.43	14.81	-53.8	-55.9	6.2	0.00e+00	0	45	104	0	78	19174
2026-01-29 13:26:57.10	311.15	14.76	-53.8	-55.9	6.2	0.00e+00	0	45	104	0	78	19215
2026-01-29 13:26:58.11	310.87	14.71	-53.8	-55.9	6.2	0.00e+00	0	45	104	0	78	19083
2026-01-29 13:26:59.11	310.59	14.66	-53.9	-56.0	6.2	0.00e+00	0	45	104	0	78	19285
2026-01-29 13:27:00.12	310.31	14.61	-53.8	-55.9	6.2	0.00e+00	0	45	104	0	78	19212
2026-01-29 13:27:01.13	310.03	14.56	-53.8	-55.9	6.2	0.00e+00	0	45	104	0	78	19146
2026-01-29 13:27:02.13	309.76	14.50	-53.8	-55.9	6.2	0.00e+00	0	45	104	0	78	19061
2026-01-29 13:27:03.14	309.49	14.45	-53.9	-56.0	6.2	0.00e+00	0	45	104	0	78	19270
2026-01-29 13:27:04.15	309.21	14.40	-53.8	-55.9	6.2	0.00e+00	0	45	104	0	78	19231
2026-01-29 13:27:05.15	308.94	14.34	-53.8	-55.9	6.2	0.00e+00	0	45	104	0	78	19251
2026-01-29 13:27:06.15	308.67	14.29	-53.8	-55.9	6.2	0.00e+00	0	45	104	0	78	19076
2026-01-29 13:27:07.16	308.40	14.23	-53.9	-55.9	6.2	0.00e+00	0	45	104	0	78	19221
2026-01-29 13:27:08.17	308.13	14.18	-53.8	-55.9	6.2	0.00e+00	0	45	104	0	78	19190
2026-01-29 13:27:09.17	307.87	14.12	-53.8	-55.9	6.2	0.00e+00	0	44	104	0	78	19203
2026-01-29 13:27:10.18	307.60	14.07	-53.8	-55.8	6.2	0.00e+00	0	45	104	0	78	19032
2026-01-29 13:27:11.19	307.33	14.01	-53.9	-55.9	6.2	0.00e+00	0	45	104	0	78	19223
2026-01-29 13:27:12.20	307.07	13.96	-53.8	-55.9	6.2	0.00e+00	0	45	104	0	78	19173
2026-01-29 13:27:13.21	306.81	13.90	-53.8	-55.9	6.2	0.00e+00	0	45	104	0	78	19192
2026-01-29 13:27:14.21	306.55	13.84	-53.8	-55.9	6.2	0.00e+00	0	44	104	0	78	19050
2026-01-29 13:27:15.22	306.29	13.78	-53.8	-55.9	6.2	0.00e+00	0	45	104	0	78	19253
2026-01-29 13:27:16.23	306.03	13.73	-53.8	-55.9	6.2	0.00e+00	0	45	104	0	78	19121
2026-01-29 13:27:17.24	305.77	13.67	-53.8	-55.9	6.2	0.00e+00	0	45	104	0	78	19139
2026-01-29 13:27:18.25	305.51	13.61	-53.8	-55.8	6.2	0.00e+00	0	45	104	0	78	19028
2026-01-29 13:27:19.25	305.26	13.55	-53.8	-55.9	6.2	0.00e+00	0	45	104	0	78	19212
2026-01-29 13:27:20.26	305.00	13.49	-53.8	-55.9	6.2	0.00e+00	0	45	104	0	78	19069
2026-01-29 13:27:21.27	304.75	13.43	-53.8	-55.9	6.2	0.00e+00	0	45	104	0	78	19173
2026-01-29 13:27:22.28	304.50	13.37	-53.7	-55.8	6.2	0.00e+00	0	45	104	0	78	18979
2026-01-29 13:27:23.28	304.25	13.31	-53.8	-55.9	6.2	0.00e+00	0	45	104	0	78	19120
2026-01-29 13:27:24.29	304.00	13.25	-53.8	-55.9	6.2	0.00e+00	0	45	104	0	78	19103
2026-01-29 13:27:25.30	303.75	13.19	-53.8	-55.9	6.2	0.00e+00	0	45	104	0	78	19071
2026-01-29 13:27:26.31	303.50	13.13	-53.7	-55.8	6.2	0.00e+00	0	45	104	0	78	18988
2026-01-29 13:27:27.32	303.25	13.07	-53.8	-55.9	6.2	0.00e+00	0	45	104	0	78	19091
2026-01-29 13:27:28.33	303.01	13.01	-53.8	-55.8	6.2	0.00e+00	0	45	104	0	78	18970
2026-01-29 13:27:29.33	302.77	12.95	-53.8	-55.9	6.2	0.00e+00	0	45	104	0	78	19121
2026-01-29 13:27:30.34	302.52	12.88	-53.7	-55.8	6.2	0.00e+00	0	45	104	0	78	19003
2026-01-29 13:27:31.34	302.28	12.82	-53.8	-55.9	6.2	0.00e+00	0	45	104	0	78	19169
2026-01-29 13:27:32.35	302.04	12.76	-53.8	-55.9	6.2	0.00e+00	0	45	104	0	78	19040
2026-01-29 13:27:33.36	301.81	12.70	-53.8	-55.9	6.2	0.00e+00	0	45	104	0	78	19103
2026-01-29 13:27:34.37	301.57	12.63	-53.7	-55.8	6.2	0.00e+00	0	45	104	0	78	18961
2026-01-29 13:27:35.38	301.33	12.57	-53.8	-55.9	6.2	0.00e+00	0	45	104	0	78	19094
2026-01-29 13:27:36.38	301.10	12.51	-53.8	-55.8	6.2	0.00e+00	0	45	104	0	78	19018
2026-01-29 13:27:37.39	300.86	12.44	-53.8	-55.8	6.2	0.00e+00	0	45	104	0	78	19015
2026-01-29 13:27:38.40	300.63	12.38	-53.7	-55.8	6.2	0.00e+00	0	45	104	0	78	18980
2026-01-29 13:27:39.41	300.40	12.32	-53.8	-55.9	6.2	0.00e+00	0	45	104	0	78	19078
2026-01-29 13:27:40.41	300.17	12.25	-53.7	-55.8	6.2	0.00e+00	0	45	104	0	78	19007
2026-01-29 13:27:41.42	299.94	12.19	-53.8	-55.9	6.2	0.00e+00	0	45	104	0	78	19083
2026-01-29 13:27:42.43	299.71	12.12	-53.7	-55.8	6.2	0.00e+00	0	45	104	0	78	19005
2026-01-29 13:27:43.44	299.48	12.06	-53.8	-55.9	6.2	0.00e+00	0	45	104	0	78	19089
2026-01-29 13:27:44.44	299.26	11.99	-53.7	-55.8	6.2	0.00e+00	0	45	104	0	78	19004
2026-01-29 13:27:45.45	299.03	11.93	-53.8	-55.8	6.2	0.00e+00	0	45	104	0	78	19011
2026-01-29 13:27:46.45	298.81	11.87	-53.7	-55.8	6.2	0.00e+00	0	44	104	0	78	18985
2026-01-29 13:27:47.46	298.59	11.80	-53.8	-55.8	6.2	0.00e+00	0	45	104	0	78	19025
2026-01-29 13:27:48.47	298.37	11.73	-53.7	-55.8	6.2	0.00e+00	0	45	104	0	78	18951
2026-01-29 13:27:49.48	298.15	11.67	-53.7	-55.8	6.2	0.00e+00	0	45	104	0	78	18964
2026-01-29 13:27:50.49	297.93	11.60	-53.7	-55.8	6.2	0.00e+00	0	45	104	0	78	18900
2026-01-29 13:27:51.49	297.71	11.54	-53.7	-55.8	6.2	0.00e+00	0	45	104	0	78	18962
2026-01-29 13:27:52.50	297.50	11.47	-53.7	-55.8	6.2	0.00e+00	0	45	104	0	78	18928
2026-01-29 13:27:53.51	297.28	11.41	-53.7	-55.8	6.2	0.00e+00	0	44	104	0	78	18989
2026-01-29 13:27:54.52	297.07	11.34	-53.8	-55.8	6.2	0.00e+00	0	45	104	0	78	19012
2026-01-29 13:27:55.53	296.85	11.27	-53.7	-55.8	6.2	0.00e+00	0	45	104	0	78	18903
2026-01-29 13:27:56.53	296.64	11.21	-53.7	-55.8	6.2	0.00e+00	0	45	104	0	78	18933
2026-01-29 13:27:57.54	296.43	11.14	-53.7	-55.8	6.2	0.00e+00	0	45	104	0	78	18867
2026-01-29 13:27:58.54	296.23	11.08	-53.7	-55.8	6.2	0.00e+00	0	45	104	0	78	18968
2026-01-29 13:27:59.55	296.02	11.01	-53.7	-55.8	6.2	0.00e+00	0	45	104	0	78	18952
2026-01-29 13:28:00.57	295.81	10.94	-53.7	-55.8	6.2	0.00e+00	0	45	104	0	78	19016
2026-01-29 13:28:01.58	295.60	10.87	-53.7	-55.8	6.2	0.00e+00	0	45	104	0	78	18929
2026-01-29 13:28:02.58	295.40	10.81	-53.7	-55.9	6.2	0.00e+00	0	45	104	0	78	19048
2026-01-29 13:28:03.59	295.19	10.74	-53.7	-55.8	6.2	0.00e+00	0	45	104	0	78	18905
2026-01-29 13:28:04.60	294.99	10.67	-53.7	-55.8	6.2	0.00e+00	0	45	104	0	78	18937
2026-01-29 13:28:05.61	294.79	10.61	-53.7	-55.8	6.2	0.00e+00	0	45	104	0	78	18857
2026-01-29 13:28:06.61	294.59	10.54	-53.7	-55.8	6.2	0.00e+00	0	45	104	0	78	18942
2026-01-29 13:28:07.62	294.39	10.47	-53.7	-55.8	6.2	0.00e+00	0	45	104	0	78	18872
2026-01-29 13:28:08.63	294.19	10.41	-53.7	-55.8	6.2	0.00e+00	0	45	104	0	78	18957
2026-01-29 13:28:09.64	293.99	10.34	-53.7	-55.8	6.2	0.00e+00	0	45	104	0	78	18868
2026-01-29 13:28:10.65	293.80	10.27	-53.7	-55.8	6.2	0.00e+00	0	45	104	0	78	18845
2026-01-29 13:28:11.65	293.61	10.20	-53.6	-55.7	6.2	0.00e+00	0	45	104	0	78	18789
2026-01-29 13:28:12.66	293.41	10.14	-53.7	-55.8	6.2	0.00e+00	0	45	104	0	78	18832
2026-01-29 13:28:13.67	293.22	10.07	-53.7	-55.7	6.2	0.00e+00	0	45	104	0	78	18803
2026-01-29 13:28:14.68	293.03	10.00	-53.7	-55.8	6.2	0.00e+00	0	45	104	0	78	18930
2026-01-29 13:28:15.68	292.84	9.93	-53.6	-55.7	6.2	0.00e+00	0	45	104	0	78	18759
2026-01-29 13:28:16.69	292.65	9.87	-53.7	-55.7	6.2	0.00e+00	0	44	104	0	78	18805
2026-01-29 13:28:17.70	292.46	9.80	-53.7	-55.7	6.2	0.00e+00	0	45	104	0	78	18807
2026-01-29 13:28:18.71	292.27	9.73	-53.7	-55.8	6.2	0.00e+00	0	45	104	0	78	18922
2026-01-29 13:28:19.72	292.08	9.66	-53.6	-55.7	6.2	0.00e+00	0	45	104	0	78	18687
2026-01-29 13:28:20.73	291.90	9.60	-53.6	-55.7	6.2	0.00e+00	0	45	104	0	78	18747
2026-01-29 13:28:21.73	291.72	9.53	-53.7	-55.8	6.2	0.00e+00	0	45	104	0	78	18835
2026-01-29 13:28:22.74	291.53	9.46	-53.7	-55.8	6.2	0.00e+00	0	45	104	0	78	18917
2026-01-29 13:28:23.75	291.35	9.39	-53.6	-55.7	6.2	0.00e+00	0	45	104	0	78	18609
2026-01-29 13:28:24.77	291.17	9.33	-53.6	-55.7	6.2	0.00e+00	0	45	104	0	78	18646
2026-01-29 13:28:25.78	290.99	9.26	-53.7	-55.8	6.2	0.00e+00	0	44	104	0	78	18838
2026-01-29 13:28:26.78	290.81	9.19	-53.7	-55.7	6.2	0.00e+00	0	45	104	0	78	18799
2026-01-29 13:28:27.79	290.63	9.12	-53.5	-55.6	6.2	0.00e+00	0	45	104	0	78	18516
2026-01-29 13:28:28.80	290.45	9.06	-53.6	-55.7	6.2	0.00e+00	0	45	104	0	78	18614
2026-01-29 13:28:29.81	290.28	8.99	-53.6	-55.7	6.2	0.00e+00	0	45	104	0	78	18778
2026-01-29 13:28:30.81	290.10	8.92	-53.7	-55.8	6.2	0.00e+00	0	45	104	0	78	18819
2026-01-29 13:28:31.82	289.93	8.85	-53.5	-55.6	6.2	0.00e+00	0	45	104	0	78	18472
2026-01-29 13:28:32.83	289.75	8.79	-53.5	-55.5	6.2	0.00e+00	0	45	104	0	78	18348
2026-01-29 13:28:33.84	289.58	8.72	-53.6	-55.7	6.2	0.00e+00	0	45	104	0	78	18651
2026-01-29 13:28:34.84	289.41	8.65	-53.6	-55.7	6.2	0.00e+00	0	45	104	0	78	18674
2026-01-29 13:28:35.85	289.24	8.58	-53.4	-55.5	6.2	0.00e+00	0	45	104	0	78	18326
2026-01-29 13:28:36.86	289.07	8.52	-53.4	-55.4	6.2	0.00e+00	0	45	104	0	78	18178
2026-01-29 13:28:37.87	288.90	8.45	-53.5	-55.6	6.2	0.00e+00	0	45	104	0	78	18495
2026-01-29 13:28:38.87	288.74	8.38	-53.5	-55.6	6.2	0.00e+00	0	45	104	0	78	18423
2026-01-29 13:28:39.88	288.57	8.31	-53.3	-55.4	6.2	0.00e+00	0	45	104	0	78	18118
2026-01-29 13:28:40.89	288.41	8.25	-53.3	-55.4	6.2	0.00e+00	0	45	104	0	78	17978
2026-01-29 13:28:41.90	288.24	8.18	-53.4	-55.5	6.2	0.00e+00	0	45	104	0	78	18337
2026-01-29 13:28:42.90	288.08	8.11	-53.4	-55.5	6.2	0.00e+00	0	45	104	0	78	18195
2026-01-29 13:28:43.91	287.92	8.04	-53.2	-55.3	6.2	0.00e+00	0	44	104	0	78	17882
2026-01-29 13:28:44.92	287.75	7.98	-53.2	-55.3	6.2	0.00e+00	0	45	104	0	78	17781
2026-01-29 13:28:45.93	287.59	7.91	-53.3	-55.4	6.2	0.00e+00	0	45	104	0	78	18109
2026-01-29 13:28:46.93	287.43	7.84	-53.3	-55.4	6.2	0.00e+00	0	45	104	0	78	18072
2026-01-29 13:28:47.94	287.27	7.78	-53.1	-55.2	6.2	0.00e+00	0	45	104	0	78	17654
2026-01-29 13:28:48.95	287.12	7.71	-53.1	-55.2	6.2	0.00e+00	0	45	104	0	78	17649
2026-01-29 13:28:49.96	286.96	7.64	-53.2	-55.3	6.2	0.00e+00	0	45	104	0	78	17936
2026-01-29 13:28:50.97	286.80	7.58	-53.2	-55.3	6.2	0.00e+00	0	45	104	0	78	17867
2026-01-29 13:28:51.97	286.65	7.51	-53.1	-55.1	6.2	0.00e+00	0	45	104	0	78	17554
2026-01-29 13:28:52.99	286.49	7.44	-53.0	-55.1	6.2	0.00e+00	0	45	104	0	78	17528
2026-01-29 13:28:53.99	286.34	7.38	-53.2	-55.3	6.2	0.00e+00	0	45	104	0	78	17826
2026-01-29 13:28:55.00	286.19	7.31	-53.1	-55.2	6.2	0.00e+00	0	45	104	0	78	17681
2026-01-29 13:28:56.00	286.04	7.24	-53.0	-55.1	6.2	0.00e+00	0	45	104	0	78	17429
2026-01-29 13:28:57.01	285.88	7.18	-53.0	-55.1	6.2	0.00e+00	0	45	104	0	78	17403
2026-01-29 13:28:58.02	285.73	7.11	-53.1	-55.2	6.2	0.00e+00	0	45	104	0	78	17641
2026-01-29 13:28:59.03	285.58	7.04	-53.0	-55.1	6.2	0.00e+00	0	45	104	0	78	17501
2026-01-29 13:29:00.04	285.43	6.98	-52.9	-55.0	6.2	0.00e+00	0	45	104	0	77	18305
2026-01-29 13:29:01.04	285.29	6.91	-52.9	-55.0	6.2	0.00e+00	0	45	104	0	77	18278
2026-01-29 13:29:02.05	285.14	6.85	-53.0	-55.1	6.2	0.00e+00	0	45	104	0	77	18487
2026-01-29 13:29:03.06	284.99	6.78	-52.9	-55.0	6.2	0.00e+00	0	45	104	0	77	18316
2026-01-29 13:29:04.07	284.85	6.71	-52.8	-54.9	6.2	0.00e+00	0	45	104	0	77	18127
2026-01-29 13:29:05.08	284.70	6.65	-52.8	-54.9	6.2	0.00e+00	0	45	104	0	77	18140
2026-01-29 13:29:06.09	284.56	6.58	-52.9	-55.0	6.2	0.00e+00	0	45	104	0	77	18336
2026-01-29 13:29:07.09	284.42	6.52	-52.9	-55.0	6.2	0.00e+00	0	45	104	0	77	18240
2026-01-29 13:29:08.10	284.28	6.45	-52.8	-54.9	6.2	0.00e+00	0	45	104	0	77	18039
2026-01-29 13:29:09.11	284.14	6.38	-52.8	-54.8	6.2	0.00e+00	0	45	104	0	77	17933
2026-01-29 13:29:10.12	283.99	6.32	-52.9	-54.9	6.2	0.00e+00	0	44	104	0	77	18096
2026-01-29 13:29:11.12	283.86	6.25	-52.8	-54.9	6.2	0.00e+00	0	45	104	0	77	18107
2026-01-29 13:29:12.13	283.72	6.19	-52.7	-54.8	6.2	0.00e+00	0	45	104	0	77	17868
2026-01-29 13:29:13.14	283.58	6.12	-52.7	-54.8	6.2	0.00e+00	0	45	104	0	77	17827
2026-01-29 13:29:14.15	283.44	6.06	-52.8	-54.8	6.2	0.00e+00	0	45	104	0	77	17942
2026-01-29 13:29:15.16	283.30	5.99	-52.7	-54.8	6.2	0.00e+00	0	45	104	0	77	17971
2026-01-29 13:29:16.16	283.17	5.93	-52.6	-54.7	6.2	0.00e+00	0	45	104	0	77	17611
2026-01-29 13:29:17.17	283.03	5.86	-52.6	-54.7	6.2	0.00e+00	0	44	104	0	77	17715
2026-01-29 13:29:18.18	282.90	5.80	-52.7	-54.8	6.2	0.00e+00	0	45	104	0	77	17782
2026-01-29 13:29:19.19	282.77	5.73	-52.7	-54.8	6.2	0.00e+00	0	45	104	0	77	17817
2026-01-29 13:29:20.20	282.63	5.67	-52.5	-54.6	6.2	0.00e+00	0	45	104	0	77	17483
2026-01-29 13:29:21.21	282.50	5.60	-52.5	-54.6	6.2	0.00e+00	0	45	104	0	77	17499
2026-01-29 13:29:22.22	282.37	5.54	-52.6	-54.7	6.2	0.00e+00	0	45	104	0	77	17695
2026-01-29 13:29:23.23	282.24	5.47	-52.6	-54.7	6.2	0.00e+00	0	45	104	0	77	17698
2026-01-29 13:29:24.24	282.11	5.41	-52.5	-54.6	6.2	0.00e+00	0	45	104	0	76	18413
2026-01-29 13:29:25.25	281.98	5.34	-52.5	-54.6	6.2	0.00e+00	0	45	104	0	76	18504
2026-01-29 13:29:26.26	281.85	5.28	-52.6	-54.7	6.2	0.00e+00	0	45	104	0	76	18680
2026-01-29 13:29:27.27	281.72	5.22	-52.5	-54.6	6.2	0.00e+00	0	45	104	0	76	18528
2026-01-29 13:29:28.27	281.60	5.15	-52.4	-54.5	6.2	0.00e+00	0	45	104	0	76	18238
2026-01-29 13:29:29.28	281.47	5.09	-52.4	-54.5	6.2	0.00e+00	0	45	104	0	76	18342
2026-01-29 13:29:30.29	281.35	5.02	-52.5	-54.6	6.2	0.00e+00	0	45	104	0	76	18489
2026-01-29 13:29:31.30	281.22	4.96	-52.6	-54.7	6.2	0.00e+00	0	45	104	0	76	18696
2026-01-29 13:29:32.30	281.10	4.90	-52.8	-54.9	6.2	0.00e+00	0	45	104	0	76	19077
2026-01-29 13:29:33.31	280.97	4.83	-52.9	-54.9	6.2	0.00e+00	0	45	104	0	76	19202
2026-01-29 13:29:34.32	280.85	4.77	-53.0	-55.1	6.2	0.00e+00	0	45	104	0	76	19491
2026-01-29 13:29:35.33	280.73	4.71	-53.0	-55.1	6.2	0.00e+00	0	45	104	0	76	19567
2026-01-29 13:29:36.33	280.61	4.64	-53.1	-55.2	6.2	0.00e+00	0	45	104	0	76	19741
2026-01-29 13:29:37.34	280.49	4.58	-53.2	-55.3	6.2	0.00e+00	0	45	104	0	76	19947
2026-01-29 13:29:38.35	280.37	4.52	-53.2	-55.3	6.2	0.00e+00	0	45	104	0	76	20122
2026-01-29 13:29:39.36	280.25	4.45	-53.3	-55.4	6.2	0.00e+00	0	45	104	0	77	19037
2026-01-29 13:29:40.37	280.13	4.39	-53.3	-55.4	6.2	0.00e+00	0	45	104	0	77	19213
2026-01-29 13:29:41.38	280.01	4.33	-53.4	-55.5	6.2	0.00e+00	0	45	104	0	77	19281
2026-01-29 13:29:42.38	279.89	4.26	-53.4	-55.5	6.2	0.00e+00	0	45	104	0	77	19378
2026-01-29 13:29:43.39	279.77	4.20	-53.5	-55.5	6.2	0.00e+00	0	45	104	0	77	19462
2026-01-29 13:29:44.40	279.66	4.14	-53.5	-55.6	6.2	0.00e+00	0	45	104	0	77	19530
2026-01-29 13:29:45.41	279.54	4.08	-53.6	-55.6	6.2	0.00e+00	0	45	104	0	77	19674
2026-01-29 13:29:46.41	279.43	4.01	-53.5	-55.6	6.2	0.00e+00	0	45	104	0	77	19635
2026-01-29 13:29:47.42	279.31	3.95	-53.5	-55.6	6.2	0.00e+00	0	45	104	0	77	19552
2026-01-29 13:29:48.43	279.20	3.89	-53.5	-55.6	6.2	0.00e+00	0	45	104	0	77	19561
2026-01-29 13:29:49.44	279.09	3.83	-53.5	-55.5	6.2	0.00e+00	0	45	104	0	77	19456
2026-01-29 13:29:50.44	278.97	3.77	-53.5	-55.5	6.2	0.00e+00	0	45	104	0	77	19478
2026-01-29 13:29:51.45	278.86	3.70	-53.5	-55.6	6.2	0.00e+00	0	45	104	0	77	19495
2026-01-29 13:29:52.46	278.75	3.64	-53.5	-55.5	6.2	0.00e+00	0	45	104	0	77	19456
2026-01-29 13:29:53.47	278.64	3.58	-53.4	-55.5	6.2	0.00e+00	0	45	104	0	77	19374
2026-01-29 13:29:54.48	278.53	3.52	-53.4	-55.5	6.2	0.00e+00	0	45	104	0	77	19370
2026-01-29 13:29:55.49	278.42	3.46	-53.4	-55.5	6.2	0.00e+00	0	45	104	0	77	19325
2026-01-29 13:29:56.49	278.31	3.40	-53.4	-55.5	6.2	0.00e+00	0	45	104	0	77	19284
2026-01-29 13:29:57.50	278.20	3.33	-53.4	-55.5	6.2	0.00e+00	0	45	104	0	77	19270
2026-01-29 13:29:58.51	278.09	3.27	-53.4	-55.5	6.2	0.00e+00	0	45	104	0	77	19292
2026-01-29 13:29:59.51	277.99	3.21	-53.4	-55.4	6.2	0.00e+00	0	45	104	0	77	19239
2026-01-29 13:30:00.52	277.88	3.15	-53.4	-55.5	6.2	0.00e+00	0	45	104	0	77	19362
2026-01-29 13:30:01.53	277.77	3.09	-53.4	-55.5	6.2	0.00e+00	0	45	104	0	77	19275
2026-01-29 13:30:02.54	277.67	3.03	-53.4	-55.4	6.2	0.00e+00	0	45	104	0	77	19233
2026-01-29 13:30:03.55	277.56	2.97	-53.4	-55.4	6.2	0.00e+00	0	45	104	0	77	19187
2026-01-29 13:30:04.56	277.46	2.91	-53.4	-55.5	6.2	0.00e+00	0	45	104	0	77	19278
2026-01-29 13:30:05.57	277.35	2.85	-53.3	-55.4	6.2	0.00e+00	0	44	104	0	77	19194
2026-01-29 13:30:06.57	277.25	2.79	-53.3	-55.4	6.2	0.00e+00	0	45	104	0	77	19183
2026-01-29 13:30:07.58	277.15	2.73	-53.3	-55.4	6.2	0.00e+00	0	45	104	0	77	19256
2026-01-29 13:30:08.59	277.05	2.67	-53.3	-55.4	6.2	0.00e+00	0	45	104	0	77	19193
2026-01-29 13:30:09.60	276.94	2.60	-53.3	-55.4	6.2	0.00e+00	0	45	104	0	77	19158
2026-01-29 13:30:10.61	276.84	2.54	-53.3	-55.4	6.2	0.00e+00	0	45	104	0	77	19116
2026-01-29 13:30:11.62	276.74	2.48	-53.3	-55.4	6.2	0.00e+00	0	45	104	0	77	19204
2026-01-29 13:30:12.63	276.64	2.42	-53.3	-55.4	6.2	0.00e+00	0	45	104	0	77	19068
2026-01-29 13:30:13.64	276.54	2.36	-53.3	-55.4	6.2	0.00e+00	0	45	104	0	77	19080
2026-01-29 13:30:14.64	276.44	2.30	-53.3	-55.4	6.2	0.00e+00	0	45	104	0	77	19061
2026-01-29 13:30:15.65	276.35	2.25	-53.3	-55.4	6.2	0.00e+00	0	45	104	0	77	19081
2026-01-29 13:30:16.66	276.25	2.19	-53.3	-55.3	6.2	0.00e+00	0	45	104	0	77	18988
2026-01-29 13:30:17.67	276.15	2.13	-53.3	-55.3	6.2	0.00e+00	0	45	104	0	77	19005
2026-01-29 13:30:18.68	276.05	2.07	-53.3	-55.4	6.2	0.00e+00	0	45	104	0	77	19064
2026-01-29 13:30:19.68	275.96	2.01	-53.3	-55.3	6.2	0.00e+00	0	45	104	0	77	18961
2026-01-29 13:30:20.69	275.86	1.95	-53.2	-55.3	6.2	0.00e+00	0	45	104	0	77	18976
2026-01-29 13:30:21.70	275.76	1.89	-53.2	-55.3	6.2	0.00e+00	0	45	104	0	77	18958

#Closed at: 2026-01-29 13:30:21
#Recorded file [0 MB]: D:/lorett/data/31041_260129_162108.dat