passes_logs/2026/01/29/R3.2S_Murmansk/R3.2S_Murmansk__20260129_084751_KANOPUS-V_5_rec.log

#Pass ID: 20260129_084751_KANOPUS-V 5
#Satellite: KANOPUS-V 5
#Configuration: KANOPUS-V_8320
#almurnet v.1.7.20251203
#Start time: 2026-01-29 08:47:51

#Version: 2.2.20231116
#Station: R3.2S_Murmansk
#Location: 33.079688 lon 68.888172 lat
#TLE: 1 43876U 18111A   26028.96352095  .00005379  00000+0  22781-3 0  9993
#TLE: 2 43876  97.3678 297.2251 0001862  88.5725 271.5725 15.23575473393590

#Time	Az	El	Level	Level2	SNR	BER	BlckErr	Temp	State	Recorded	gain1	gain2
2026-01-29 08:47:51.33	188.69	2.02	-54.6	-63.5	3.8	7.46e-01	0	40	0	0	80	10196
2026-01-29 08:47:52.34	188.75	2.08	-54.6	-63.5	3.8	7.45e-01	0	40	104	0	80	10208
2026-01-29 08:47:53.34	188.81	2.15	-54.6	-63.4	3.8	7.44e-01	0	40	104	0	80	10172
2026-01-29 08:47:54.34	188.87	2.22	-54.6	-63.4	3.8	7.44e-01	0	40	104	0	80	10141
2026-01-29 08:47:55.35	188.93	2.29	-54.6	-63.4	3.8	7.45e-01	0	40	104	0	80	10123
2026-01-29 08:47:56.36	188.99	2.35	-54.8	-63.6	3.8	7.45e-01	0	40	104	0	80	10368
2026-01-29 08:47:57.37	189.06	2.42	-54.8	-63.6	3.8	7.46e-01	0	41	104	0	80	10412
2026-01-29 08:47:58.37	189.12	2.49	-54.8	-63.6	3.8	7.46e-01	0	41	104	0	80	10378
2026-01-29 08:47:59.38	189.18	2.56	-54.8	-63.6	3.8	7.45e-01	0	40	104	0	80	10324
2026-01-29 08:48:00.39	189.24	2.63	-54.8	-63.6	3.8	7.47e-01	0	41	104	0	80	10352
2026-01-29 08:48:01.40	189.30	2.70	-54.8	-63.6	3.8	7.44e-01	0	41	104	0	80	10321
2026-01-29 08:48:02.41	189.37	2.77	-54.8	-63.6	3.8	7.46e-01	0	41	104	0	80	10324
2026-01-29 08:48:03.41	189.43	2.84	-54.7	-63.6	3.8	7.44e-01	0	41	104	0	80	10317
2026-01-29 08:48:04.42	189.49	2.91	-54.7	-63.5	3.8	7.46e-01	0	41	104	0	80	10290
2026-01-29 08:48:05.43	189.56	2.98	-54.7	-63.5	3.8	7.44e-01	0	41	104	0	80	10276
2026-01-29 08:48:06.44	189.62	3.05	-54.7	-63.5	3.8	7.45e-01	0	41	104	0	80	10227
2026-01-29 08:48:07.45	189.69	3.12	-54.6	-63.5	3.8	7.45e-01	0	41	104	0	80	10184
2026-01-29 08:48:08.46	189.75	3.19	-54.6	-63.5	3.8	7.45e-01	0	41	104	0	80	10177
2026-01-29 08:48:09.46	189.82	3.26	-54.6	-63.4	3.8	7.46e-01	0	41	104	0	80	10082
2026-01-29 08:48:10.47	189.88	3.33	-54.5	-63.4	3.8	7.46e-01	0	41	104	0	80	10062
2026-01-29 08:48:11.48	189.95	3.40	-54.4	-63.2	3.8	7.46e-01	0	41	104	0	80	9935
2026-01-29 08:48:12.48	190.01	3.47	-54.4	-63.2	3.8	7.45e-01	0	41	104	0	80	9857
2026-01-29 08:48:13.49	190.08	3.55	-54.3	-63.1	3.8	7.45e-01	0	41	104	0	80	9745
2026-01-29 08:48:14.50	190.15	3.62	-54.2	-62.9	3.8	7.45e-01	0	41	104	0	80	9592
2026-01-29 08:48:15.51	190.22	3.69	-54.0	-62.8	3.8	7.45e-01	0	41	104	0	80	9491
2026-01-29 08:48:16.52	190.29	3.76	-54.0	-62.7	3.8	7.45e-01	0	41	104	0	79	9933
2026-01-29 08:48:17.53	190.35	3.84	-53.6	-62.5	3.8	7.46e-01	0	41	104	0	79	9641
2026-01-29 08:48:18.53	190.42	3.91	-53.2	-62.1	3.8	7.44e-01	0	41	104	0	78	9739
2026-01-29 08:48:19.54	190.49	3.98	-53.2	-62.1	3.8	7.45e-01	0	41	104	0	78	9721
2026-01-29 08:48:20.55	190.56	4.06	-53.2	-62.0	3.8	7.45e-01	0	41	104	0	78	9648
2026-01-29 08:48:21.56	190.63	4.13	-53.2	-61.9	3.8	7.45e-01	0	41	104	0	78	9584
2026-01-29 08:48:22.57	190.70	4.20	-53.1	-61.8	3.8	7.45e-01	0	41	104	0	78	9433
2026-01-29 08:48:23.58	190.77	4.28	-53.1	-61.7	3.8	7.45e-01	0	41	104	0	78	9339
2026-01-29 08:48:24.59	190.85	4.35	-53.1	-61.6	3.8	7.46e-01	0	41	104	0	78	9274
2026-01-29 08:48:25.60	190.92	4.43	-53.1	-61.6	3.8	7.47e-01	0	41	104	0	78	9233
2026-01-29 08:48:26.60	190.99	4.50	-53.0	-61.3	3.8	7.45e-01	0	41	104	0	78	8921
2026-01-29 08:48:27.61	191.06	4.58	-52.8	-60.4	3.8	7.45e-01	0	41	104	0	77	8528
2026-01-29 08:48:28.62	191.14	4.65	-52.2	-58.6	3.9	7.41e-01	0	41	104	0	76	7360
2026-01-29 08:48:29.63	191.21	4.73	-51.3	-56.5	5.0	6.98e-01	0	41	104	0	74	6432
2026-01-29 08:48:30.63	191.29	4.80	-50.2	-54.3	6.7	6.46e-01	0	41	0	16777216	72	5649
2026-01-29 08:48:31.64	191.36	4.88	-49.4	-53.0	7.9	6.01e-01	0	41	0	31457280	70	5415
2026-01-29 08:48:32.65	191.44	4.96	-48.3	-51.4	9.4	6.07e-01	0	41	0	48234496	68	5061
2026-01-29 08:48:33.66	191.51	5.03	-47.8	-50.9	10.1	6.02e-01	0	42	0	62914560	67	5054
2026-01-29 08:48:34.67	191.59	5.11	-49.8	-53.7	7.4	6.12e-01	0	41	0	77594624	70	5912
2026-01-29 08:48:35.68	191.66	5.19	-50.9	-55.9	5.6	6.73e-01	0	41	0	92274688	72	6743
2026-01-29 08:48:36.68	191.74	5.26	-46.9	-49.7	5.6	7.07e-01	0	41	104	96468992	65	4978
2026-01-29 08:48:37.69	191.82	5.34	-50.8	-55.4	5.9	6.61e-01	0	41	0	106954752	72	6417
2026-01-29 08:48:38.70	191.90	5.42	-46.0	-48.7	12.1	5.90e-01	0	41	0	121634816	64	4665
2026-01-29 08:48:39.71	191.98	5.50	-46.1	-48.7	12.0	5.91e-01	0	42	0	138412032	64	4699
2026-01-29 08:48:40.72	192.06	5.58	-46.0	-48.7	12.1	5.91e-01	0	42	0	153092096	63	4953
2026-01-29 08:48:41.73	192.14	5.66	-45.9	-48.5	12.3	5.90e-01	0	42	0	167772160	63	4868
2026-01-29 08:48:42.74	192.22	5.74	-45.9	-48.6	12.3	5.89e-01	0	42	0	184549376	63	4886
2026-01-29 08:48:43.74	192.30	5.82	-45.8	-48.4	12.5	5.91e-01	0	42	0	201326592	63	4791
2026-01-29 08:48:44.75	192.38	5.90	-45.9	-48.5	12.4	5.90e-01	0	42	0	216006656	63	4831
2026-01-29 08:48:45.76	192.46	5.98	-45.8	-48.4	12.5	5.89e-01	0	41	0	230686720	63	4813
2026-01-29 08:48:46.76	192.54	6.06	-45.7	-48.4	12.6	5.89e-01	0	42	0	247463936	63	4760
2026-01-29 08:48:47.77	192.62	6.14	-45.7	-48.3	12.6	5.89e-01	0	41	0	262144000	63	4710
2026-01-29 08:48:48.78	192.71	6.22	-45.5	-48.1	12.8	5.89e-01	0	42	0	276824064	63	4623
2026-01-29 08:48:49.78	192.79	6.30	-45.4	-48.0	12.9	5.88e-01	0	42	0	293601280	62	4818
2026-01-29 08:48:50.79	192.88	6.38	-45.4	-48.0	12.9	5.88e-01	0	41	0	308281344	62	4836
2026-01-29 08:48:51.80	192.96	6.46	-45.5	-48.0	12.9	5.89e-01	0	42	0	322961408	62	4833
2026-01-29 08:48:52.81	193.05	6.54	-45.3	-47.8	13.1	5.87e-01	0	42	0	339738624	62	4731
2026-01-29 08:48:53.82	193.13	6.63	-45.3	-47.8	13.1	5.87e-01	0	42	0	354418688	62	4741
2026-01-29 08:48:54.83	193.22	6.71	-45.4	-47.9	13.0	5.87e-01	0	42	0	371195904	62	4809
2026-01-29 08:48:55.84	193.31	6.79	-45.1	-47.6	13.4	5.87e-01	0	42	0	385875968	62	4602
2026-01-29 08:48:56.85	193.40	6.88	-45.2	-47.6	13.3	5.87e-01	0	41	0	402653184	62	4644
2026-01-29 08:48:57.86	193.49	6.96	-45.3	-47.7	13.3	5.86e-01	0	42	0	417333248	62	4675
2026-01-29 08:48:58.86	193.57	7.04	-45.2	-47.6	13.3	5.88e-01	0	42	0	432013312	62	4648
2026-01-29 08:48:59.87	193.66	7.13	-45.2	-47.6	13.3	5.87e-01	0	42	0	448790528	62	4642
2026-01-29 08:49:00.87	193.75	7.21	-44.9	-47.2	13.8	5.86e-01	0	42	0	463470592	61	4655
2026-01-29 08:49:01.88	193.85	7.30	-44.8	-47.1	13.9	5.86e-01	0	42	0	478150656	61	4616
2026-01-29 08:49:02.89	193.94	7.38	-44.9	-47.2	13.8	5.86e-01	0	42	0	494927872	61	4653
2026-01-29 08:49:03.90	194.03	7.47	-44.8	-47.1	13.8	5.87e-01	0	42	0	509607936	61	4604
2026-01-29 08:49:04.90	194.12	7.55	-44.7	-47.0	13.9	5.87e-01	0	42	0	524288000	61	4557
2026-01-29 08:49:05.91	194.22	7.64	-44.7	-46.9	14.0	5.85e-01	0	42	0	538968064	61	4526
2026-01-29 08:49:06.92	194.31	7.73	-44.6	-46.8	14.1	5.87e-01	0	42	0	555745280	61	4463
2026-01-29 08:49:07.93	194.41	7.81	-44.5	-46.7	14.2	5.85e-01	0	42	0	570425344	61	4412
2026-01-29 08:49:08.93	194.50	7.90	-44.4	-46.6	14.3	5.85e-01	0	42	0	587202560	60	4616
2026-01-29 08:49:09.94	194.60	7.99	-44.5	-46.7	14.2	5.85e-01	0	42	0	603979776	60	4676
2026-01-29 08:49:10.95	194.70	8.08	-44.3	-46.5	14.4	5.87e-01	0	42	0	618659840	60	4563
2026-01-29 08:49:11.95	194.79	8.17	-44.5	-46.6	14.3	5.86e-01	0	42	0	633339904	60	4639
2026-01-29 08:49:12.95	194.89	8.25	-44.4	-46.6	14.3	5.86e-01	0	42	0	648019968	60	4627
2026-01-29 08:49:13.96	194.99	8.34	-44.5	-46.7	14.3	5.85e-01	0	42	0	664797184	60	4656
2026-01-29 08:49:14.97	195.09	8.43	-44.4	-46.5	14.4	5.87e-01	0	42	0	679477248	60	4592
2026-01-29 08:49:15.98	195.19	8.52	-44.3	-46.5	14.4	5.86e-01	0	42	0	694157312	60	4563
2026-01-29 08:49:16.99	195.30	8.61	-44.3	-46.5	14.5	5.86e-01	0	42	0	710934528	60	4574
2026-01-29 08:49:17.99	195.40	8.70	-44.3	-46.5	14.5	5.87e-01	0	42	0	725614592	60	4559
2026-01-29 08:49:19.00	195.50	8.79	-44.3	-46.5	14.5	5.86e-01	0	42	0	740294656	60	4584
2026-01-29 08:49:20.01	195.60	8.89	-44.2	-46.4	14.6	5.86e-01	0	42	0	757071872	60	4496
2026-01-29 08:49:21.01	195.71	8.98	-44.2	-46.4	14.5	5.85e-01	0	42	0	771751936	60	4539
2026-01-29 08:49:22.02	195.81	9.07	-44.4	-46.6	14.4	5.86e-01	0	42	0	786432000	60	4623
2026-01-29 08:49:23.02	195.92	9.16	-44.3	-46.6	14.4	5.87e-01	0	42	0	803209216	60	4613
2026-01-29 08:49:24.03	196.03	9.25	-44.2	-46.5	14.5	5.87e-01	0	42	0	819986432	60	4573
2026-01-29 08:49:25.04	196.14	9.35	-44.1	-46.4	14.5	5.86e-01	0	42	0	834666496	60	4529
2026-01-29 08:49:26.04	196.24	9.44	-44.2	-46.5	14.5	5.87e-01	0	42	0	849346560	60	4577
2026-01-29 08:49:27.04	196.35	9.53	-44.2	-46.5	14.5	5.86e-01	0	42	0	866123776	60	4574
2026-01-29 08:49:28.05	196.46	9.63	-44.1	-46.4	14.6	5.86e-01	0	42	0	880803840	60	4518
2026-01-29 08:49:29.07	196.58	9.73	-44.2	-46.5	14.5	5.86e-01	0	42	0	895483904	60	4559
2026-01-29 08:49:30.07	196.69	9.82	-44.2	-46.5	14.5	5.86e-01	0	42	0	912261120	60	4570
2026-01-29 08:49:31.08	196.80	9.92	-44.1	-46.4	14.6	5.86e-01	0	42	0	926941184	60	4536
2026-01-29 08:49:32.09	196.91	10.01	-44.0	-46.3	14.7	5.86e-01	0	42	0	941621248	59	4721
2026-01-29 08:49:33.10	197.03	10.11	-43.9	-46.1	14.8	5.86e-01	0	42	0	958398464	59	4642
2026-01-29 08:49:34.11	197.15	10.21	-43.8	-46.0	14.9	5.86e-01	0	42	0	973078528	59	4595
2026-01-29 08:49:35.12	197.26	10.30	-43.8	-46.0	15.0	5.86e-01	0	42	0	987758592	59	4580
2026-01-29 08:49:36.12	197.38	10.40	-43.7	-45.9	15.0	5.86e-01	0	42	0	1004535808	59	4538
2026-01-29 08:49:37.13	197.50	10.50	-43.6	-45.8	15.1	5.86e-01	0	42	0	1021313024	59	4480
2026-01-29 08:49:38.13	197.62	10.60	-43.6	-45.9	15.1	5.86e-01	0	42	0	1035993088	59	4500
2026-01-29 08:49:39.14	197.74	10.70	-43.6	-45.9	15.1	5.85e-01	0	42	0	1050673152	59	4504
2026-01-29 08:49:40.15	197.86	10.80	-43.6	-45.8	15.2	5.85e-01	0	42	0	1067450368	59	4466
2026-01-29 08:49:41.16	197.98	10.90	-43.6	-45.8	15.1	5.86e-01	0	42	0	1082130432	59	4477
2026-01-29 08:49:42.16	198.10	11.00	-43.5	-45.7	15.2	5.86e-01	0	42	0	1096810496	59	4431
2026-01-29 08:49:43.17	198.23	11.10	-43.4	-45.6	15.3	5.85e-01	0	42	0	1113587712	58	4600
2026-01-29 08:49:44.18	198.35	11.20	-43.5	-45.7	15.3	5.85e-01	0	42	0	1128267776	58	4659
2026-01-29 08:49:45.19	198.48	11.30	-43.3	-45.5	15.5	5.86e-01	0	42	0	1142947840	58	4547
2026-01-29 08:49:46.20	198.61	11.41	-43.1	-45.3	15.6	5.86e-01	0	42	0	1159725056	58	4443
2026-01-29 08:49:47.20	198.74	11.51	-43.1	-45.3	15.6	5.86e-01	0	42	0	1174405120	58	4452
2026-01-29 08:49:48.21	198.87	11.61	-43.0	-45.2	15.7	5.85e-01	0	42	0	1189085184	58	4404
2026-01-29 08:49:49.22	199.00	11.72	-43.2	-45.4	15.5	5.86e-01	0	42	0	1205862400	58	4502
2026-01-29 08:49:50.23	199.13	11.82	-42.9	-45.1	15.7	5.86e-01	0	42	0	1222639616	57	4624
2026-01-29 08:49:51.23	199.26	11.92	-43.0	-45.1	15.7	5.86e-01	0	42	0	1237319680	57	4636
2026-01-29 08:49:52.24	199.39	12.03	-42.9	-45.1	15.8	5.85e-01	0	42	0	1251999744	57	4624
2026-01-29 08:49:53.25	199.53	12.13	-42.9	-45.0	15.8	5.86e-01	0	42	0	1268776960	57	4592
2026-01-29 08:49:54.26	199.67	12.24	-42.8	-44.9	15.9	5.86e-01	0	42	0	1283457024	57	4531
2026-01-29 08:49:55.26	199.80	12.35	-42.8	-45.0	15.9	5.86e-01	0	42	0	1298137088	57	4551
2026-01-29 08:49:56.27	199.94	12.45	-42.8	-45.0	15.8	5.85e-01	0	42	0	1314914304	57	4581
2026-01-29 08:49:57.28	200.08	12.56	-42.7	-44.9	15.9	5.85e-01	0	42	0	1329594368	57	4511
2026-01-29 08:49:58.29	200.22	12.67	-42.8	-45.0	15.8	5.86e-01	0	42	0	1344274432	57	4573
2026-01-29 08:49:59.30	200.37	12.78	-42.7	-45.0	15.9	5.85e-01	0	42	0	1361051648	57	4546
2026-01-29 08:50:00.30	200.51	12.89	-42.9	-45.3	15.8	5.86e-01	0	42	0	1375731712	57	4706
2026-01-29 08:50:01.31	200.65	13.00	-42.7	-45.0	15.9	5.86e-01	0	42	0	1390411776	57	4570
2026-01-29 08:50:02.32	200.80	13.11	-42.6	-44.9	15.9	5.85e-01	0	42	0	1407188992	57	4538
2026-01-29 08:50:03.33	200.95	13.22	-42.4	-44.7	16.1	5.85e-01	0	42	0	1423966208	56	4702
2026-01-29 08:50:04.34	201.10	13.33	-42.4	-44.7	16.0	5.86e-01	0	42	0	1438646272	56	4688
2026-01-29 08:50:05.34	201.24	13.44	-42.4	-44.7	16.1	5.86e-01	0	42	0	1453326336	56	4665
2026-01-29 08:50:06.35	201.40	13.55	-42.4	-44.7	16.1	5.86e-01	0	42	0	1470103552	56	4704
2026-01-29 08:50:07.36	201.55	13.67	-42.4	-44.7	16.1	5.84e-01	0	42	0	1484783616	56	4693
2026-01-29 08:50:08.37	201.70	13.78	-42.2	-44.4	16.3	5.86e-01	0	42	0	1499463680	56	4544
2026-01-29 08:50:09.37	201.86	13.89	-42.1	-44.3	16.4	5.86e-01	0	42	0	1516240896	56	4474
2026-01-29 08:50:10.38	202.01	14.01	-42.0	-44.2	16.5	5.86e-01	0	43	0	1530920960	56	4426
2026-01-29 08:50:11.39	202.17	14.12	-42.0	-44.3	16.6	5.85e-01	0	42	0	1545601024	55	4720
2026-01-29 08:50:12.40	202.33	14.24	-42.1	-44.3	16.6	5.86e-01	0	42	0	1562378240	55	4750
2026-01-29 08:50:13.41	202.49	14.36	-42.1	-44.3	16.6	5.86e-01	0	42	0	1577058304	55	4731
2026-01-29 08:50:14.41	202.65	14.47	-41.9	-44.0	16.8	5.85e-01	0	42	0	1591738368	55	4589
2026-01-29 08:50:15.42	202.82	14.59	-41.8	-43.9	16.9	5.85e-01	0	42	0	1608515584	55	4542
2026-01-29 08:50:16.43	202.98	14.71	-41.7	-43.9	17.0	5.86e-01	0	42	0	1623195648	55	4518
2026-01-29 08:50:17.43	203.15	14.82	-41.8	-43.9	16.9	5.86e-01	0	42	0	1639972864	55	4535
2026-01-29 08:50:18.44	203.32	14.94	-41.7	-43.9	16.9	5.85e-01	0	42	0	1654652928	55	4513
2026-01-29 08:50:19.45	203.49	15.06	-41.8	-44.0	16.9	5.98e-01	0	42	0	1671430144	55	4551
2026-01-29 08:50:20.46	203.66	15.18	-41.8	-44.0	16.8	5.99e-01	0	42	0	1686110208	55	4569
2026-01-29 08:50:21.47	203.83	15.30	-41.7	-43.9	16.9	5.98e-01	0	43	0	1700790272	55	4525
2026-01-29 08:50:22.48	204.01	15.43	-41.6	-43.8	16.9	5.97e-01	0	42	0	1717567488	55	4469
2026-01-29 08:50:23.48	204.19	15.55	-41.5	-43.7	17.0	5.97e-01	0	42	0	1732247552	55	4438
2026-01-29 08:50:24.49	204.36	15.67	-41.5	-43.7	17.0	5.96e-01	0	42	0	1746927616	55	4410
2026-01-29 08:50:25.49	204.54	15.79	-41.6	-43.8	17.0	5.94e-01	0	43	0	1761607680	55	4448
2026-01-29 08:50:26.50	204.72	15.91	-41.7	-43.8	17.0	5.96e-01	0	42	0	1778384896	55	4484
2026-01-29 08:50:27.50	204.91	16.04	-41.5	-43.7	17.1	5.97e-01	0	43	0	1793064960	55	4415
2026-01-29 08:50:28.51	205.09	16.16	-41.4	-43.6	17.1	5.97e-01	0	42	0	1807745024	54	4622
2026-01-29 08:50:29.52	205.28	16.29	-41.3	-43.4	17.3	5.98e-01	0	42	0	1824522240	54	4501
2026-01-29 08:50:30.53	205.47	16.41	-41.3	-43.3	17.3	5.97e-01	0	43	0	1841299456	54	4489
2026-01-29 08:50:31.53	205.66	16.54	-41.3	-43.3	17.3	5.97e-01	0	43	0	1855979520	54	4489
2026-01-29 08:50:32.54	205.85	16.67	-41.4	-43.4	17.3	5.98e-01	0	42	0	1870659584	54	4537
2026-01-29 08:50:33.55	206.04	16.79	-41.3	-43.4	17.3	5.99e-01	0	43	0	1887436800	54	4508
2026-01-29 08:50:34.56	206.24	16.92	-41.2	-43.3	17.4	5.94e-01	0	42	0	1902116864	54	4460
2026-01-29 08:50:35.57	206.44	17.05	-41.3	-43.4	17.3	5.96e-01	0	42	0	1916796928	54	4507
2026-01-29 08:50:36.57	206.64	17.18	-41.2	-43.3	17.4	5.93e-01	0	42	0	1933574144	54	4476
2026-01-29 08:50:37.58	206.84	17.31	-41.1	-43.3	17.4	5.96e-01	0	43	0	1948254208	54	4455
2026-01-29 08:50:38.59	207.04	17.44	-41.2	-43.4	17.3	5.97e-01	0	42	0	1962934272	54	4503
2026-01-29 08:50:39.60	207.25	17.57	-40.9	-43.0	17.6	5.98e-01	0	43	0	1979711488	53	4588
2026-01-29 08:50:40.61	207.46	17.70	-40.9	-43.0	17.6	5.96e-01	0	42	0	1994391552	53	4577
2026-01-29 08:50:41.61	207.67	17.83	-40.8	-42.8	17.7	5.99e-01	0	42	0	2009071616	53	4491
2026-01-29 08:50:42.62	207.88	17.97	-40.6	-42.6	17.9	5.97e-01	0	42	0	2025848832	53	4385
2026-01-29 08:50:43.63	208.09	18.10	-40.6	-42.6	17.9	5.97e-01	0	42	0	2040528896	53	4381
2026-01-29 08:50:44.63	208.31	18.23	-40.5	-42.5	17.9	5.99e-01	0	42	0	2057306112	53	4303
2026-01-29 08:50:45.64	208.53	18.37	-40.5	-42.4	18.0	5.99e-01	0	42	0	2071986176	52	4544
2026-01-29 08:50:46.65	208.75	18.50	-40.3	-42.3	18.1	5.97e-01	0	43	0	2088763392	52	4467
2026-01-29 08:50:47.66	208.97	18.64	-40.3	-42.3	18.1	6.00e-01	0	42	0	2103443456	52	4471
2026-01-29 08:50:48.67	209.20	18.78	-40.2	-42.2	18.2	5.94e-01	0	43	0	2118123520	52	4397
2026-01-29 08:50:49.67	209.42	18.91	-40.2	-42.2	18.1	5.99e-01	0	42	0	2134900736	52	4427
2026-01-29 08:50:50.67	209.65	19.05	-40.3	-42.2	18.1	5.99e-01	0	42	0	2149580800	52	4440
2026-01-29 08:50:51.69	209.89	19.19	-40.3	-42.3	18.1	5.96e-01	0	42	0	2164260864	52	4473
2026-01-29 08:50:52.69	210.12	19.32	-40.1	-42.2	18.2	5.98e-01	0	42	0	2181038080	52	4415
2026-01-29 08:50:53.70	210.36	19.46	-40.1	-42.2	18.1	5.94e-01	0	43	0	2195718144	52	4426
2026-01-29 08:50:54.71	210.60	19.60	-40.0	-42.2	18.1	5.97e-01	0	42	0	2210398208	52	4425
2026-01-29 08:50:55.72	210.84	19.74	-40.1	-42.3	18.1	5.97e-01	0	42	0	2227175424	52	4471
2026-01-29 08:50:56.73	211.08	19.89	-40.0	-42.3	18.1	5.99e-01	0	43	0	2243952640	52	4444
2026-01-29 08:50:57.74	211.33	20.03	-40.1	-42.3	18.1	5.96e-01	0	43	0	2258632704	52	4480
2026-01-29 08:50:58.75	211.58	20.17	-40.1	-42.3	18.1	5.97e-01	0	42	0	2273312768	52	4446
2026-01-29 08:50:59.76	211.83	20.31	-40.1	-42.2	18.2	5.96e-01	0	43	0	2290089984	51	4669
2026-01-29 08:51:00.77	212.09	20.45	-40.2	-42.3	18.1	5.97e-01	0	42	0	2304770048	51	4756
2026-01-29 08:51:01.77	212.34	20.60	-40.1	-42.2	18.2	5.98e-01	0	42	0	2319450112	51	4699
2026-01-29 08:51:02.78	212.60	20.74	-39.8	-41.9	18.4	5.98e-01	0	43	0	2336227328	51	4527
2026-01-29 08:51:03.79	212.87	20.89	-39.6	-41.6	18.6	5.98e-01	0	42	0	2350907392	51	4389
2026-01-29 08:51:04.79	213.13	21.03	-39.5	-41.6	18.6	5.99e-01	0	43	0	2365587456	51	4344
2026-01-29 08:51:05.80	213.40	21.18	-39.6	-41.5	18.7	6.02e-01	0	42	0	2382364672	51	4335
2026-01-29 08:51:06.81	213.67	21.32	-39.4	-41.4	18.8	6.00e-01	0	42	0	2397044736	50	4516
2026-01-29 08:51:07.81	213.94	21.47	-39.4	-41.4	18.8	6.00e-01	0	42	0	2411724800	50	4500
2026-01-29 08:51:08.82	214.22	21.61	-39.2	-41.2	18.9	6.00e-01	0	43	0	2428502016	50	4424
2026-01-29 08:51:09.83	214.50	21.76	-39.2	-41.1	18.9	5.98e-01	0	43	0	2443182080	50	4356
2026-01-29 08:51:10.83	214.78	21.91	-39.3	-41.1	18.9	5.98e-01	0	42	0	2459959296	50	4389
2026-01-29 08:51:11.84	215.07	22.06	-39.2	-41.1	18.9	5.98e-01	0	43	0	2474639360	50	4386
2026-01-29 08:51:12.85	215.36	22.20	-39.0	-40.9	19.1	5.95e-01	0	43	0	2491416576	50	4290
2026-01-29 08:51:13.85	215.65	22.35	-39.1	-41.1	19.0	5.97e-01	0	43	0	2506096640	49	4615
2026-01-29 08:51:14.87	215.95	22.50	-39.1	-41.1	18.9	5.98e-01	0	43	0	2520776704	49	4641
2026-01-29 08:51:15.87	216.24	22.65	-39.1	-41.2	18.9	5.99e-01	0	43	0	2537553920	49	4652
2026-01-29 08:51:16.88	216.54	22.80	-38.8	-40.9	19.0	5.98e-01	0	42	0	2552233984	49	4535
2026-01-29 08:51:17.89	216.85	22.95	-38.8	-41.0	19.0	5.98e-01	0	42	0	2566914048	49	4546
2026-01-29 08:51:18.89	217.16	23.10	-38.9	-41.0	19.1	6.00e-01	0	42	0	2583691264	49	4572
2026-01-29 08:51:19.90	217.47	23.25	-39.0	-41.1	18.9	5.99e-01	0	42	0	2598371328	49	4646
2026-01-29 08:51:20.90	217.78	23.40	-38.9	-41.1	18.8	5.99e-01	0	43	0	2613051392	49	4639
2026-01-29 08:51:21.91	218.10	23.56	-39.0	-41.2	18.8	5.99e-01	0	43	0	2629828608	49	4696
2026-01-29 08:51:22.92	218.42	23.71	-39.0	-41.2	18.9	5.98e-01	0	42	0	2644508672	49	4676
2026-01-29 08:51:23.93	218.75	23.86	-39.0	-41.2	18.9	5.97e-01	0	43	0	2659188736	49	4681
2026-01-29 08:51:24.93	219.07	24.01	-39.0	-41.1	18.9	5.98e-01	0	42	0	2675965952	49	4638
2026-01-29 08:51:25.94	219.40	24.16	-38.7	-40.9	19.0	5.96e-01	0	43	0	2692743168	49	4519
2026-01-29 08:51:26.95	219.74	24.32	-38.8	-41.0	19.0	5.95e-01	0	43	0	2707423232	49	4562
2026-01-29 08:51:27.95	220.08	24.47	-38.7	-40.9	19.0	5.98e-01	0	43	0	2722103296	49	4517
2026-01-29 08:51:28.96	220.42	24.62	-38.6	-40.8	19.1	5.97e-01	0	42	0	2738880512	49	4487
2026-01-29 08:51:29.96	220.76	24.77	-38.6	-40.8	19.1	5.97e-01	0	43	0	2753560576	49	4448
2026-01-29 08:51:30.97	221.11	24.93	-38.4	-40.5	19.3	5.99e-01	0	43	0	2768240640	48	4550
2026-01-29 08:51:31.98	221.47	25.08	-38.4	-40.6	19.3	5.97e-01	0	42	0	2785017856	48	4615
2026-01-29 08:51:32.99	221.83	25.24	-38.4	-40.6	19.2	5.96e-01	0	42	0	2799697920	48	4608
2026-01-29 08:51:34.00	222.19	25.39	-38.4	-40.5	19.3	6.00e-01	0	43	0	2814377984	48	4548
2026-01-29 08:51:35.00	222.55	25.54	-38.0	-40.1	19.6	5.97e-01	0	43	0	2831155200	48	4347
2026-01-29 08:51:36.01	222.92	25.69	-37.0	-38.9	19.2	6.00e-01	0	43	0	2845835264	46	4282
2026-01-29 08:51:37.01	223.29	25.85	-37.0	-38.9	19.2	5.97e-01	0	43	0	2860515328	46	4271
2026-01-29 08:51:38.02	223.67	26.00	-36.8	-38.8	19.3	5.95e-01	0	43	0	2877292544	45	4448
2026-01-29 08:51:39.03	224.05	26.15	-36.9	-38.9	19.3	5.98e-01	0	43	0	2891972608	45	4498
2026-01-29 08:51:40.03	224.43	26.30	-36.9	-38.9	19.3	5.96e-01	0	43	0	2908749824	45	4521
2026-01-29 08:51:41.04	224.82	26.46	-36.9	-38.9	19.3	5.95e-01	0	43	0	2923429888	45	4531
2026-01-29 08:51:42.05	225.22	26.61	-37.0	-39.0	19.2	5.95e-01	0	43	0	2940207104	45	4598
2026-01-29 08:51:43.06	225.61	26.76	-37.1	-39.2	19.0	5.94e-01	0	42	0	2954887168	45	4663
2026-01-29 08:51:44.06	226.01	26.91	-37.2	-39.4	18.9	5.96e-01	0	43	0	2969567232	45	4770
2026-01-29 08:51:45.07	226.42	27.06	-37.0	-39.3	19.1	5.98e-01	0	43	0	2986344448	45	4708
2026-01-29 08:51:46.08	226.83	27.22	-37.1	-39.4	19.0	5.98e-01	0	42	0	3001024512	45	4767
2026-01-29 08:51:47.09	227.24	27.37	-37.1	-39.4	18.9	5.97e-01	0	42	0	3015704576	45	4794
2026-01-29 08:51:48.10	227.66	27.52	-37.0	-39.2	19.0	5.97e-01	0	42	0	3030384640	45	4700
2026-01-29 08:51:49.11	228.08	27.67	-36.9	-39.1	19.1	5.99e-01	0	43	0	3047161856	45	4603
2026-01-29 08:51:50.12	228.51	27.81	-36.8	-38.9	19.2	5.99e-01	0	42	0	3061841920	45	4523
2026-01-29 08:51:51.13	228.94	27.96	-36.7	-38.7	19.3	6.00e-01	0	42	0	3076521984	45	4420
2026-01-29 08:51:52.13	229.37	28.11	-36.8	-38.8	19.3	5.97e-01	0	42	0	3095396352	45	4489
2026-01-29 08:51:53.14	229.81	28.26	-36.9	-39.1	19.2	5.99e-01	0	43	0	3110076416	45	4615
2026-01-29 08:51:54.15	230.26	28.40	-36.9	-39.2	19.1	5.96e-01	0	42	0	3124756480	45	4696
2026-01-29 08:51:55.15	230.70	28.55	-36.9	-39.2	19.1	5.95e-01	0	43	0	3139436544	45	4669
2026-01-29 08:51:56.16	231.16	28.69	-36.9	-39.2	19.1	5.93e-01	0	43	0	3156213760	45	4683
2026-01-29 08:51:57.16	231.61	28.83	-37.1	-39.2	19.0	5.95e-01	0	43	0	3170893824	45	4704
2026-01-29 08:51:58.17	232.07	28.98	-36.7	-38.7	19.4	5.96e-01	0	43	0	3185573888	45	4405
2026-01-29 08:51:59.18	232.54	29.12	-36.5	-38.5	19.5	5.95e-01	0	43	0	3202351104	45	4312
2026-01-29 08:52:00.19	233.01	29.26	-36.4	-38.4	19.5	5.96e-01	0	43	0	3217031168	44	4538
2026-01-29 08:52:01.19	233.48	29.40	-36.5	-38.5	19.5	5.96e-01	0	42	0	3231711232	44	4577
2026-01-29 08:52:02.20	233.96	29.54	-36.6	-38.7	19.3	5.96e-01	0	42	0	3248488448	44	4667
2026-01-29 08:52:03.21	234.44	29.67	-36.6	-38.8	19.3	5.96e-01	0	43	0	3263168512	44	4730
2026-01-29 08:52:04.22	234.93	29.81	-36.7	-38.8	19.3	5.97e-01	0	42	0	3277848576	44	4743
2026-01-29 08:52:05.22	235.42	29.94	-36.6	-38.8	19.3	6.00e-01	0	42	0	3294625792	44	4736
2026-01-29 08:52:06.23	235.92	30.07	-36.9	-39.2	19.0	5.99e-01	0	43	0	3309305856	44	4932
2026-01-29 08:52:07.23	236.42	30.20	-37.1	-39.4	18.9	5.97e-01	0	43	0	3326083072	44	5081
2026-01-29 08:52:08.24	236.92	30.33	-37.0	-39.3	19.0	5.98e-01	0	43	0	3340763136	44	5039
2026-01-29 08:52:09.25	237.43	30.46	-36.8	-39.1	19.1	5.98e-01	0	42	0	3357540352	44	4921
2026-01-29 08:52:10.25	237.94	30.59	-36.8	-39.0	19.2	5.97e-01	0	43	0	3372220416	44	4854
2026-01-29 08:52:11.26	238.46	30.71	-36.8	-39.0	19.1	5.99e-01	0	42	0	3386900480	44	4856
2026-01-29 08:52:12.27	238.98	30.84	-36.6	-38.9	19.2	5.98e-01	0	43	0	3403677696	44	4773
2026-01-29 08:52:13.28	239.51	30.96	-36.5	-38.6	19.4	5.95e-01	0	43	0	3418357760	44	4638
2026-01-29 08:52:14.29	240.04	31.08	-36.4	-38.6	19.4	5.97e-01	0	43	0	3433037824	44	4599
2026-01-29 08:52:15.29	240.57	31.19	-36.6	-38.7	19.4	5.97e-01	0	43	0	3449815040	44	4681
2026-01-29 08:52:16.30	241.11	31.31	-36.7	-38.9	19.2	5.95e-01	0	43	0	3464495104	44	4771
2026-01-29 08:52:17.31	241.66	31.42	-36.8	-38.9	19.2	5.97e-01	0	43	0	3479175168	44	4807
2026-01-29 08:52:18.32	242.20	31.53	-36.8	-38.9	19.3	5.95e-01	0	43	0	3495952384	44	4808
2026-01-29 08:52:19.33	242.76	31.64	-36.6	-38.7	19.3	5.96e-01	0	43	0	3510632448	44	4694
2026-01-29 08:52:20.33	243.31	31.75	-36.6	-38.7	19.4	5.97e-01	0	43	0	3527409664	44	4674
2026-01-29 08:52:21.34	243.87	31.85	-36.6	-38.8	19.4	5.95e-01	0	43	0	3542089728	44	4722
2026-01-29 08:52:22.35	244.43	31.96	-36.8	-38.9	19.2	5.95e-01	0	42	0	3558866944	44	4814
2026-01-29 08:52:23.36	245.00	32.06	-36.8	-38.8	19.3	5.97e-01	0	42	0	3573547008	44	4741
2026-01-29 08:52:24.37	245.57	32.15	-36.8	-38.7	19.4	5.96e-01	0	43	0	3588227072	44	4680
2026-01-29 08:52:25.37	246.14	32.25	-36.5	-38.5	19.5	5.94e-01	0	43	0	3605004288	44	4582
2026-01-29 08:52:26.38	246.71	32.34	-36.5	-38.4	19.5	5.94e-01	0	43	0	3619684352	44	4535
2026-01-29 08:52:27.39	247.30	32.43	-36.4	-38.3	19.5	5.96e-01	0	43	0	3634364416	44	4475
2026-01-29 08:52:28.40	247.88	32.51	-36.3	-38.3	19.6	5.99e-01	0	43	0	3651141632	44	4456
2026-01-29 08:52:29.41	248.47	32.60	-36.3	-38.4	19.6	5.94e-01	0	43	0	3665821696	44	4514
2026-01-29 08:52:30.41	249.05	32.68	-36.4	-38.5	19.5	5.99e-01	0	43	0	3680501760	44	4552
2026-01-29 08:52:31.42	249.65	32.75	-36.4	-38.5	19.5	5.94e-01	0	43	0	3697278976	44	4554
2026-01-29 08:52:32.43	250.24	32.83	-36.4	-38.5	19.5	5.96e-01	0	43	0	3714056192	44	4552
2026-01-29 08:52:33.43	250.84	32.90	-36.8	-38.8	19.3	5.95e-01	0	43	0	3728736256	44	4745
2026-01-29 08:52:34.44	251.44	32.97	-36.9	-39.0	19.2	5.95e-01	0	43	0	3743416320	44	4859
2026-01-29 08:52:35.45	252.05	33.03	-36.7	-38.9	19.2	5.97e-01	0	43	0	3760193536	44	4793
2026-01-29 08:52:36.46	252.65	33.10	-36.8	-38.9	19.3	6.02e-01	0	43	0	3774873600	44	4805
2026-01-29 08:52:37.47	253.26	33.16	-36.9	-39.1	19.1	5.95e-01	0	43	0	3789553664	44	4909
2026-01-29 08:52:38.47	253.87	33.21	-36.8	-39.1	19.2	5.99e-01	0	43	0	3806330880	44	4898
2026-01-29 08:52:39.48	254.48	33.26	-37.0	-39.2	19.1	5.97e-01	0	43	0	3821010944	44	4983
2026-01-29 08:52:40.49	255.10	33.31	-36.8	-39.0	19.2	6.03e-01	0	43	0	3835691008	44	4831
2026-01-29 08:52:41.50	255.72	33.36	-36.8	-39.0	19.2	6.03e-01	0	43	0	3852468224	44	4829
2026-01-29 08:52:42.50	256.33	33.40	-36.7	-38.8	19.4	6.02e-01	0	43	0	3867148288	44	4709
2026-01-29 08:52:43.51	256.96	33.44	-36.5	-38.7	19.4	6.02e-01	0	42	0	3881828352	44	4652
2026-01-29 08:52:44.52	257.58	33.48	-36.6	-38.7	19.5	6.03e-01	0	43	0	3898605568	44	4658
2026-01-29 08:52:45.53	258.20	33.51	-36.6	-38.7	19.3	6.01e-01	0	43	0	3915382784	44	4689
2026-01-29 08:52:46.54	258.83	33.54	-36.6	-38.7	19.4	6.02e-01	0	43	0	3930062848	44	4684
2026-01-29 08:52:47.54	259.45	33.56	-36.7	-38.8	19.3	6.02e-01	0	43	0	3944742912	44	4757
2026-01-29 08:52:48.55	260.08	33.58	-36.7	-38.9	19.3	6.06e-01	0	43	0	3961520128	44	4796
2026-01-29 08:52:49.56	260.71	33.60	-36.6	-38.8	19.3	6.05e-01	0	43	0	3976200192	44	4758
2026-01-29 08:52:50.57	261.34	33.62	-36.6	-38.8	19.3	6.04e-01	0	42	0	3990880256	44	4740
2026-01-29 08:52:51.57	261.96	33.63	-36.7	-38.9	19.3	6.04e-01	0	43	0	4007657472	44	4786
2026-01-29 08:52:52.58	262.59	33.64	-36.7	-38.9	19.3	6.05e-01	0	43	0	4022337536	44	4791
2026-01-29 08:52:53.58	263.21	33.64	-36.8	-39.0	19.3	6.03e-01	0	43	0	4037017600	44	4832
2026-01-29 08:52:54.59	263.84	33.64	-36.6	-38.8	19.3	6.02e-01	0	43	0	4053794816	44	4731
2026-01-29 08:52:55.60	264.47	33.64	-36.5	-38.7	19.5	6.02e-01	0	43	0	4068474880	44	4654
2026-01-29 08:52:56.60	265.10	33.63	-36.5	-38.6	19.5	6.01e-01	0	43	0	4083154944	44	4599
2026-01-29 08:52:57.61	265.73	33.62	-36.5	-38.4	19.5	6.02e-01	0	43	0	4099932160	44	4543
2026-01-29 08:52:58.61	266.35	33.60	-36.5	-38.4	19.5	5.98e-01	0	43	0	4114612224	44	4523
2026-01-29 08:52:59.62	266.98	33.59	-36.5	-38.5	19.5	6.01e-01	0	42	0	4129292288	44	4572
2026-01-29 08:53:00.62	267.60	33.57	-36.5	-38.5	19.5	6.02e-01	0	43	0	4143972352	44	4585
2026-01-29 08:53:01.62	268.22	33.54	-36.5	-38.5	19.5	6.01e-01	0	43	0	4160749568	44	4596
2026-01-29 08:53:02.63	268.85	33.51	-36.4	-38.5	19.6	6.01e-01	0	42	0	4177526784	44	4554
2026-01-29 08:53:03.64	269.47	33.48	-36.5	-38.6	19.5	6.02e-01	0	42	0	4192206848	44	4616
2026-01-29 08:53:04.65	270.09	33.45	-36.6	-38.6	19.5	6.03e-01	0	43	0	4208984064	44	4637
2026-01-29 08:53:05.65	270.71	33.41	-36.6	-38.6	19.6	6.02e-01	0	43	0	4223664128	44	4601
2026-01-29 08:53:06.66	271.33	33.36	-36.7	-38.7	19.4	6.00e-01	0	42	0	4238344192	44	4689
2026-01-29 08:53:07.67	271.95	33.32	-36.8	-38.9	19.3	6.02e-01	0	42	0	4253024256	44	4801
2026-01-29 08:53:08.67	272.56	33.27	-36.7	-38.9	19.3	5.86e-01	0	43	0	4269801472	44	4771
2026-01-29 08:53:09.68	273.17	33.22	-36.8	-38.9	19.3	5.84e-01	0	43	0	4284481536	44	4791
2026-01-29 08:53:10.69	273.78	33.16	-36.6	-38.7	19.5	5.85e-01	0	43	0	4299161600	44	4663
2026-01-29 08:53:11.70	274.39	33.10	-36.5	-38.7	19.4	5.86e-01	0	43	0	4315938816	44	4657
2026-01-29 08:53:12.71	275.00	33.04	-36.6	-38.7	19.4	5.85e-01	0	43	0	4330618880	44	4686
2026-01-29 08:53:13.72	275.60	32.98	-36.7	-38.8	19.4	5.85e-01	0	42	0	4345298944	44	4754
2026-01-29 08:53:14.73	276.21	32.91	-36.7	-38.7	19.5	5.85e-01	0	43	0	4362076160	44	4680
2026-01-29 08:53:15.74	276.81	32.84	-36.5	-38.6	19.5	5.86e-01	0	43	0	4378853376	44	4600
2026-01-29 08:53:16.74	277.40	32.76	-36.3	-38.4	19.7	5.86e-01	0	43	0	4393533440	44	4494
2026-01-29 08:53:17.75	277.99	32.69	-36.2	-38.1	19.8	5.85e-01	0	43	0	4408213504	44	4381
2026-01-29 08:53:18.75	278.57	32.61	-36.2	-38.2	19.8	5.85e-01	0	43	0	4424990720	44	4396
2026-01-29 08:53:19.76	279.16	32.52	-36.3	-38.2	19.7	5.86e-01	0	43	0	4439670784	44	4397
2026-01-29 08:53:20.77	279.74	32.44	-36.2	-38.2	19.8	5.86e-01	0	43	0	4454350848	44	4405
2026-01-29 08:53:21.78	280.33	32.35	-36.3	-38.2	19.7	5.85e-01	0	42	0	4471128064	44	4432
2026-01-29 08:53:22.78	280.90	32.26	-36.2	-38.2	19.8	5.86e-01	0	43	0	4485808128	44	4436
2026-01-29 08:53:23.79	281.47	32.17	-36.2	-38.2	19.8	5.86e-01	0	42	0	4500488192	44	4439
2026-01-29 08:53:24.80	282.04	32.07	-36.0	-38.0	19.9	5.86e-01	0	43	0	4517265408	44	4317
2026-01-29 08:53:25.81	282.61	31.97	-36.0	-38.0	19.9	5.84e-01	0	43	0	4531945472	44	4313
2026-01-29 08:53:26.82	283.17	31.87	-36.2	-38.2	19.8	5.85e-01	0	42	0	4546625536	44	4402
2026-01-29 08:53:27.83	283.73	31.77	-36.2	-38.2	19.8	5.86e-01	0	43	0	4563402752	44	4400
2026-01-29 08:53:28.83	284.28	31.66	-36.3	-38.2	19.7	6.07e-01	0	43	0	4580179968	44	4440
2026-01-29 08:53:29.84	284.83	31.55	-36.2	-38.2	19.8	6.04e-01	0	42	0	4594860032	44	4404
2026-01-29 08:53:30.85	285.38	31.44	-36.3	-38.3	19.7	6.01e-01	0	43	0	4609540096	44	4462
2026-01-29 08:53:31.86	285.92	31.33	-36.4	-38.4	19.7	6.01e-01	0	42	0	4626317312	44	4514
2026-01-29 08:53:32.87	286.46	31.21	-36.4	-38.4	19.6	6.01e-01	0	43	0	4640997376	44	4543
2026-01-29 08:53:33.88	286.99	31.10	-36.4	-38.4	19.6	6.06e-01	0	42	0	4655677440	44	4541
2026-01-29 08:53:34.89	287.52	30.98	-36.5	-38.5	19.6	6.02e-01	0	43	0	4672454656	44	4554
2026-01-29 08:53:35.90	288.05	30.86	-36.3	-38.3	19.7	6.05e-01	0	43	0	4687134720	44	4453
2026-01-29 08:53:36.90	288.57	30.74	-36.4	-38.4	19.6	6.02e-01	0	43	0	4701814784	44	4506
2026-01-29 08:53:37.91	289.09	30.61	-36.5	-38.4	19.6	6.02e-01	0	42	0	4718592000	44	4524
2026-01-29 08:53:38.92	289.60	30.48	-36.5	-38.5	19.6	6.02e-01	0	43	0	4733272064	44	4582
2026-01-29 08:53:39.93	290.11	30.36	-36.4	-38.5	19.6	6.03e-01	0	42	0	4747952128	44	4551
2026-01-29 08:53:40.93	290.61	30.23	-36.4	-38.5	19.6	6.03e-01	0	43	0	4764729344	44	4593
2026-01-29 08:53:41.94	291.11	30.10	-36.5	-38.6	19.5	6.03e-01	0	42	0	4781506560	44	4620
2026-01-29 08:53:42.95	291.61	29.97	-36.5	-38.6	19.6	6.02e-01	0	43	0	4796186624	44	4611
2026-01-29 08:53:43.96	292.10	29.83	-36.6	-38.6	19.5	6.03e-01	0	43	0	4810866688	44	4620
2026-01-29 08:53:44.97	292.59	29.70	-36.6	-38.6	19.5	6.03e-01	0	42	0	4827643904	44	4627
2026-01-29 08:53:45.98	293.07	29.56	-36.8	-38.7	19.6	6.01e-01	0	43	0	4842323968	44	4682
2026-01-29 08:53:46.98	293.54	29.42	-36.6	-38.5	19.7	6.01e-01	0	43	0	4857004032	44	4565
2026-01-29 08:53:47.99	294.02	29.29	-36.4	-38.2	19.8	6.01e-01	0	43	0	4873781248	44	4436
2026-01-29 08:53:48.99	294.48	29.15	-36.3	-38.1	19.8	6.06e-01	0	43	0	4888461312	44	4365
2026-01-29 08:53:50.00	294.95	29.01	-36.2	-38.0	19.9	6.02e-01	0	43	0	4903141376	44	4304
2026-01-29 08:53:51.01	295.41	28.86	-36.3	-38.1	19.9	6.02e-01	0	43	0	4919918592	44	4343
2026-01-29 08:53:52.02	295.87	28.72	-36.4	-38.2	19.8	6.01e-01	0	43	0	4934598656	44	4411
2026-01-29 08:53:53.03	296.32	28.58	-36.5	-38.3	19.7	6.02e-01	0	43	0	4949278720	44	4445
2026-01-29 08:53:54.03	296.76	28.43	-36.4	-38.2	19.9	6.01e-01	0	43	0	4966055936	44	4424
2026-01-29 08:53:55.04	297.21	28.29	-36.5	-38.4	19.6	6.02e-01	0	42	0	4982833152	44	4505
2026-01-29 08:53:56.04	297.64	28.14	-36.5	-38.4	19.6	5.97e-01	0	43	0	4997513216	44	4531
2026-01-29 08:53:57.05	298.08	28.00	-36.7	-38.6	19.6	6.02e-01	0	43	0	5012193280	44	4619
2026-01-29 08:53:58.06	298.51	27.85	-36.7	-38.7	19.5	5.98e-01	0	43	0	5028970496	44	4663
2026-01-29 08:53:59.07	298.93	27.70	-36.7	-38.7	19.5	6.01e-01	0	43	0	5043650560	44	4686
2026-01-29 08:54:00.07	299.35	27.55	-36.8	-38.7	19.5	5.99e-01	0	42	0	5058330624	44	4678
2026-01-29 08:54:01.08	299.77	27.40	-36.8	-38.7	19.5	6.02e-01	0	43	0	5075107840	44	4690
2026-01-29 08:54:02.09	300.18	27.26	-36.8	-38.7	19.5	6.01e-01	0	43	0	5089787904	44	4669
2026-01-29 08:54:03.09	300.59	27.11	-36.7	-38.5	19.6	5.98e-01	0	43	0	5104467968	44	4598
2026-01-29 08:54:04.10	300.99	26.96	-36.7	-38.6	19.6	6.02e-01	0	42	0	5121245184	44	4626
2026-01-29 08:54:05.11	301.39	26.80	-36.8	-38.8	19.4	6.01e-01	0	43	0	5135925248	44	4724
2026-01-29 08:54:06.12	301.79	26.65	-36.9	-38.8	19.4	6.03e-01	0	43	0	5150605312	44	4743
2026-01-29 08:54:07.12	302.18	26.50	-36.9	-38.8	19.5	5.98e-01	0	43	0	5167382528	44	4715
2026-01-29 08:54:08.13	302.57	26.35	-36.9	-38.8	19.4	6.02e-01	0	43	0	5182062592	44	4733
2026-01-29 08:54:09.13	302.95	26.20	-37.0	-38.9	19.3	6.00e-01	0	43	0	5198839808	44	4785
2026-01-29 08:54:10.14	303.33	26.05	-37.1	-39.0	19.2	6.01e-01	0	43	0	5213519872	44	4823
2026-01-29 08:54:11.15	303.71	25.90	-37.3	-39.1	19.2	6.02e-01	0	43	0	5230297088	45	4644
2026-01-29 08:54:12.16	304.08	25.74	-37.2	-39.1	19.3	6.01e-01	0	43	0	5244977152	45	4622
2026-01-29 08:54:13.16	304.45	25.59	-37.2	-39.2	19.2	6.01e-01	0	43	0	5259657216	45	4653
2026-01-29 08:54:14.17	304.81	25.44	-37.2	-39.2	19.2	6.00e-01	0	43	0	5276434432	45	4675
2026-01-29 08:54:15.18	305.17	25.29	-37.3	-39.2	19.2	5.98e-01	0	42	0	5291114496	45	4694
2026-01-29 08:54:16.18	305.53	25.14	-37.1	-39.1	19.2	6.00e-01	0	43	0	5305794560	45	4615
2026-01-29 08:54:17.19	305.88	24.98	-37.2	-39.2	19.2	6.02e-01	0	43	0	5322571776	45	4671
2026-01-29 08:54:18.20	306.23	24.83	-37.2	-39.1	19.2	5.99e-01	0	43	0	5337251840	45	4633
2026-01-29 08:54:19.21	306.58	24.68	-37.4	-39.3	19.0	6.05e-01	0	43	0	5351931904	45	4749
2026-01-29 08:54:20.21	306.92	24.53	-37.4	-39.3	19.1	6.03e-01	0	42	0	5366611968	45	4726
2026-01-29 08:54:21.22	307.25	24.37	-37.2	-39.2	19.1	6.04e-01	0	43	0	5383389184	45	4681
2026-01-29 08:54:22.22	307.59	24.22	-37.4	-39.4	19.1	6.02e-01	0	43	0	5398069248	45	4779
2026-01-29 08:54:23.23	307.92	24.07	-37.5	-39.5	19.0	6.03e-01	0	43	0	5414846464	45	4841
2026-01-29 08:54:24.24	308.25	23.92	-37.6	-39.5	18.9	6.03e-01	0	43	0	5431623680	45	4854
2026-01-29 08:54:25.25	308.57	23.77	-37.5	-39.5	19.0	6.01e-01	0	43	0	5446303744	45	4867
2026-01-29 08:54:26.26	308.89	23.62	-37.6	-39.6	18.9	6.04e-01	0	42	0	5460983808	45	4894
2026-01-29 08:54:27.27	309.21	23.47	-37.7	-39.6	18.9	6.02e-01	0	42	0	5475663872	46	4645
2026-01-29 08:54:28.28	309.53	23.31	-37.8	-39.7	18.8	6.03e-01	0	43	0	5492441088	46	4678
2026-01-29 08:54:29.29	309.84	23.16	-37.7	-39.7	18.8	6.02e-01	0	43	0	5507121152	46	4655
2026-01-29 08:54:30.30	310.14	23.01	-37.6	-39.5	19.0	6.01e-01	0	43	0	5521801216	46	4552
2026-01-29 08:54:31.31	310.45	22.86	-37.7	-39.6	18.9	6.02e-01	0	43	0	5538578432	46	4601
2026-01-29 08:54:32.32	310.75	22.71	-37.8	-39.6	18.8	5.98e-01	0	43	0	5553258496	46	4651
2026-01-29 08:54:33.33	311.05	22.57	-37.7	-39.5	18.9	6.00e-01	0	43	0	5570035712	46	4568
2026-01-29 08:54:34.33	311.34	22.42	-37.8	-39.6	18.9	6.01e-01	0	43	0	5584715776	46	4600
2026-01-29 08:54:35.34	311.63	22.27	-37.7	-39.5	18.9	6.02e-01	0	42	0	5601492992	46	4581
2026-01-29 08:54:36.35	311.92	22.12	-37.9	-39.7	18.9	6.04e-01	0	43	0	5616173056	46	4680
2026-01-29 08:54:37.36	312.21	21.97	-37.9	-39.8	18.8	6.01e-01	0	42	0	5630853120	46	4726
2026-01-29 08:54:38.36	312.49	21.83	-38.0	-39.9	18.8	5.89e-01	0	42	0	5647630336	46	4774
2026-01-29 08:54:39.37	312.77	21.68	-38.1	-40.0	18.7	5.88e-01	0	42	0	5662310400	46	4865
2026-01-29 08:54:40.38	313.05	21.54	-38.1	-40.0	18.6	6.02e-01	0	43	0	5676990464	46	4846
2026-01-29 08:54:41.38	313.32	21.39	-38.1	-40.1	18.5	6.00e-01	0	43	0	5693767680	46	4874
2026-01-29 08:54:42.39	313.59	21.25	-38.2	-40.2	18.4	6.02e-01	0	43	0	5708447744	47	4664
2026-01-29 08:54:43.40	313.86	21.10	-38.3	-40.3	18.5	6.01e-01	0	43	0	5723127808	47	4727
2026-01-29 08:54:44.40	314.12	20.96	-38.4	-40.4	18.4	6.02e-01	0	43	0	5739905024	47	4774
2026-01-29 08:54:45.41	314.38	20.81	-38.4	-40.3	18.4	5.96e-01	0	43	0	5754585088	47	4759
2026-01-29 08:54:46.42	314.64	20.67	-38.3	-40.2	18.5	6.02e-01	0	43	0	5769265152	47	4681
2026-01-29 08:54:47.43	314.90	20.53	-38.4	-40.2	18.4	6.00e-01	0	42	0	5786042368	47	4697
2026-01-29 08:54:48.44	315.16	20.39	-38.4	-40.3	18.4	6.00e-01	0	42	0	5802819584	47	4723
2026-01-29 08:54:49.45	315.41	20.24	-38.5	-40.4	18.3	6.03e-01	0	43	0	5817499648	47	4799
2026-01-29 08:54:50.46	315.66	20.10	-38.6	-40.4	18.3	6.00e-01	0	43	0	5832179712	47	4811
2026-01-29 08:54:51.47	315.90	19.96	-38.6	-40.4	18.3	5.99e-01	0	42	0	5848956928	47	4781
2026-01-29 08:54:52.47	316.15	19.82	-38.7	-40.5	18.3	5.87e-01	0	43	0	5863636992	47	4837
2026-01-29 08:54:53.48	316.39	19.68	-38.6	-40.4	18.3	5.98e-01	0	43	0	5878317056	47	4788
2026-01-29 08:54:54.49	316.63	19.54	-38.7	-40.6	18.2	6.02e-01	0	42	0	5895094272	47	4873
2026-01-29 08:54:55.50	316.86	19.41	-38.7	-40.6	18.2	6.01e-01	0	43	0	5909774336	47	4900
2026-01-29 08:54:56.50	317.10	19.27	-39.8	-41.8	18.5	6.01e-01	0	42	0	5924454400	50	4738
2026-01-29 08:54:57.51	317.33	19.13	-39.8	-41.8	18.5	6.00e-01	0	43	0	5941231616	50	4755
2026-01-29 08:54:58.52	317.56	18.99	-39.8	-41.9	18.4	6.01e-01	0	43	0	5955911680	50	4793
2026-01-29 08:54:59.53	317.79	18.86	-39.9	-42.0	18.3	6.01e-01	0	43	0	5970591744	50	4853
2026-01-29 08:55:00.54	318.01	18.72	-40.0	-42.1	18.3	6.03e-01	0	42	0	5987368960	50	4923
2026-01-29 08:55:01.54	318.23	18.59	-40.1	-42.3	18.1	6.01e-01	0	43	0	6004146176	50	5003
2026-01-29 08:55:02.55	318.45	18.45	-40.2	-42.4	18.1	6.01e-01	0	43	0	6018826240	50	5069
2026-01-29 08:55:03.56	318.67	18.32	-40.2	-42.4	18.1	6.00e-01	0	42	0	6033506304	51	4771
2026-01-29 08:55:04.56	318.89	18.19	-40.3	-42.5	18.0	6.02e-01	0	43	0	6050283520	51	4828
2026-01-29 08:55:05.57	319.10	18.05	-40.3	-42.5	18.0	6.02e-01	0	42	0	6064963584	51	4828
2026-01-29 08:55:06.58	319.31	17.92	-40.4	-42.6	17.9	5.96e-01	0	43	0	6079643648	51	4904
2026-01-29 08:55:07.59	319.52	17.79	-40.5	-42.7	17.9	6.01e-01	0	43	0	6096420864	51	4933
2026-01-29 08:55:08.59	319.73	17.66	-40.5	-42.7	17.9	6.01e-01	0	43	0	6111100928	51	4942
2026-01-29 08:55:09.60	319.94	17.53	-40.6	-42.7	17.9	5.88e-01	0	43	0	6125780992	51	4959
2026-01-29 08:55:10.61	320.14	17.40	-40.7	-42.8	17.8	5.95e-01	0	43	0	6142558208	51	4997
2026-01-29 08:55:11.61	320.34	17.27	-40.6	-42.7	17.8	6.01e-01	0	43	0	6157238272	51	4945
2026-01-29 08:55:12.62	320.54	17.14	-40.7	-42.8	17.7	5.98e-01	0	42	0	6171918336	52	4712
2026-01-29 08:55:13.63	320.74	17.01	-40.6	-42.6	17.8	5.99e-01	0	42	0	6188695552	52	4630
2026-01-29 08:55:14.63	320.93	16.89	-40.6	-42.7	17.8	5.99e-01	0	42	0	6205472768	52	4654
2026-01-29 08:55:15.63	321.12	16.76	-40.7	-42.7	17.8	6.01e-01	0	42	0	6220152832	52	4653
2026-01-29 08:55:16.64	321.32	16.64	-40.8	-42.8	17.7	6.00e-01	0	42	0	6234832896	52	4725
2026-01-29 08:55:17.65	321.51	16.51	-40.8	-42.7	17.8	5.95e-01	0	43	0	6251610112	52	4693
2026-01-29 08:55:18.66	321.70	16.38	-40.8	-42.8	17.7	6.01e-01	0	42	0	6266290176	52	4726
2026-01-29 08:55:19.66	321.88	16.26	-40.9	-42.9	17.6	5.97e-01	0	43	0	6280970240	52	4765
2026-01-29 08:55:20.67	322.07	16.14	-40.8	-42.8	17.7	6.03e-01	0	42	0	6297747456	52	4723
2026-01-29 08:55:21.68	322.25	16.01	-41.0	-42.9	17.6	5.96e-01	0	43	0	6312427520	52	4808
2026-01-29 08:55:22.68	322.43	15.89	-40.9	-42.9	17.7	5.97e-01	0	43	0	6327107584	52	4792
2026-01-29 08:55:23.69	322.61	15.77	-41.0	-43.0	17.6	5.86e-01	0	43	0	6343884800	52	4817
2026-01-29 08:55:24.70	322.79	15.65	-41.1	-43.1	17.5	5.86e-01	0	43	0	6358564864	52	4907
2026-01-29 08:55:25.71	322.97	15.53	-41.1	-43.1	17.4	5.86e-01	0	42	0	6373244928	52	4918
2026-01-29 08:55:26.71	323.14	15.41	-41.2	-43.2	17.4	5.85e-01	0	43	0	6390022144	52	4979
2026-01-29 08:55:27.72	323.31	15.29	-41.2	-43.3	17.3	5.86e-01	0	42	0	6404702208	52	4997
2026-01-29 08:55:28.73	323.48	15.17	-41.3	-43.5	17.2	5.86e-01	0	43	0	6419382272	53	4818
2026-01-29 08:55:29.73	323.65	15.05	-41.4	-43.6	17.2	5.85e-01	0	42	0	6436159488	53	4882
2026-01-29 08:55:30.74	323.82	14.93	-41.5	-43.7	17.0	5.86e-01	0	42	0	6452936704	53	4955
2026-01-29 08:55:31.75	323.99	14.81	-41.6	-43.8	17.0	5.86e-01	0	42	0	6467616768	53	5018
2026-01-29 08:55:32.76	324.16	14.69	-41.8	-44.0	16.8	5.86e-01	0	42	0	6482296832	54	4820
2026-01-29 08:55:33.76	324.32	14.58	-42.9	-43.8	16.9	5.86e-01	0	43	0	6499074048	56	4201
2026-01-29 08:55:34.76	324.48	14.46	-43.0	-43.9	16.8	5.85e-01	0	43	0	6513754112	56	4253
2026-01-29 08:55:35.77	324.64	14.35	-53.8	-62.7	3.8	7.47e-01	0	43	104	6515851264	78	10476
2026-01-29 08:55:36.78	324.80	14.23	-53.8	-62.7	3.8	7.46e-01	0	43	104	6515851264	78	10436
2026-01-29 08:55:37.79	324.96	14.12	-53.8	-62.7	3.8	7.45e-01	0	43	104	6515851264	78	10426
2026-01-29 08:55:38.79	325.11	14.00	-53.8	-62.6	3.8	7.45e-01	0	43	104	6515851264	78	10384
2026-01-29 08:55:39.80	325.27	13.89	-53.8	-62.6	3.8	7.47e-01	0	43	104	6515851264	78	10394
2026-01-29 08:55:40.81	325.42	13.78	-53.8	-62.7	3.8	7.46e-01	0	43	104	6515851264	78	10445
2026-01-29 08:55:41.82	325.58	13.67	-53.8	-62.6	3.8	7.46e-01	0	42	104	6515851264	78	10375
2026-01-29 08:55:42.82	325.73	13.55	-53.8	-62.7	3.8	7.46e-01	0	42	104	6515851264	78	10415
2026-01-29 08:55:43.83	325.88	13.44	-53.8	-62.6	3.8	7.45e-01	0	43	104	6515851264	78	10335
2026-01-29 08:55:44.84	326.03	13.33	-53.8	-62.6	3.8	7.45e-01	0	43	104	6515851264	78	10353
2026-01-29 08:55:45.85	326.17	13.22	-53.7	-62.6	3.8	7.46e-01	0	43	104	6515851264	78	10304
2026-01-29 08:55:46.84	326.32	13.11	-53.8	-62.6	3.8	7.45e-01	0	43	104	6515851264	78	10356
2026-01-29 08:55:47.85	326.46	13.00	-53.7	-62.6	3.8	7.45e-01	0	43	104	6515851264	78	10296
2026-01-29 08:55:48.86	326.61	12.90	-53.7	-62.6	3.8	7.45e-01	0	43	104	6515851264	78	10314
2026-01-29 08:55:49.87	326.75	12.79	-53.7	-62.5	3.8	7.44e-01	0	43	104	6515851264	78	10259
2026-01-29 08:55:50.88	326.89	12.68	-53.7	-62.5	3.8	7.44e-01	0	43	104	6515851264	78	10264
2026-01-29 08:55:51.88	327.03	12.57	-53.7	-62.5	3.8	7.46e-01	0	43	104	6515851264	78	10207
2026-01-29 08:55:52.89	327.17	12.47	-53.7	-62.5	3.8	7.46e-01	0	42	104	6515851264	78	10229
2026-01-29 08:55:53.90	327.31	12.36	-53.6	-62.5	3.8	7.45e-01	0	42	104	6515851264	78	10202
2026-01-29 08:55:54.91	327.44	12.25	-53.7	-62.5	3.8	7.45e-01	0	42	104	6515851264	78	10236
2026-01-29 08:55:55.92	327.58	12.15	-53.6	-62.5	3.8	7.45e-01	0	42	104	6515851264	78	10180
2026-01-29 08:55:56.92	327.71	12.04	-53.6	-62.5	3.8	7.44e-01	0	42	104	6515851264	78	10178
2026-01-29 08:55:57.93	327.84	11.94	-53.6	-62.4	3.8	7.47e-01	0	43	104	6515851264	78	10164
2026-01-29 08:55:58.94	327.98	11.84	-53.6	-62.5	3.8	7.46e-01	0	43	104	6515851264	78	10218
2026-01-29 08:55:59.95	328.11	11.73	-53.6	-62.4	3.8	7.47e-01	0	43	104	6515851264	78	10102
2026-01-29 08:56:00.96	328.24	11.63	-53.6	-62.4	3.8	7.46e-01	0	43	104	6515851264	78	10139
2026-01-29 08:56:01.96	328.37	11.53	-53.5	-62.4	3.8	7.46e-01	0	43	104	6515851264	78	10082
2026-01-29 08:56:02.96	328.49	11.43	-53.6	-62.4	3.8	7.46e-01	0	43	104	6515851264	78	10115
2026-01-29 08:56:03.97	328.62	11.32	-53.5	-62.4	3.8	7.47e-01	0	42	104	6515851264	78	10112
2026-01-29 08:56:04.98	328.74	11.22	-53.5	-62.4	3.8	7.46e-01	0	43	104	6515851264	78	10081
2026-01-29 08:56:05.99	328.87	11.12	-53.5	-62.3	3.8	7.46e-01	0	42	104	6515851264	78	10018
2026-01-29 08:56:07.00	328.99	11.02	-53.5	-62.4	3.8	7.45e-01	0	42	104	6515851264	78	10106
2026-01-29 08:56:08.00	329.11	10.92	-53.5	-62.3	3.8	7.44e-01	0	42	104	6515851264	78	10050
2026-01-29 08:56:09.00	329.24	10.82	-53.5	-62.3	3.8	7.47e-01	0	42	104	6515851264	78	10019
2026-01-29 08:56:10.01	329.36	10.72	-53.4	-62.2	3.8	7.45e-01	0	43	104	6515851264	78	9941
2026-01-29 08:56:11.02	329.48	10.63	-53.5	-62.3	3.8	7.47e-01	0	43	104	6515851264	78	10013
2026-01-29 08:56:12.03	329.60	10.53	-53.4	-62.2	3.8	7.46e-01	0	42	104	6515851264	78	9932
2026-01-29 08:56:13.03	329.71	10.43	-53.4	-62.3	3.8	7.47e-01	0	42	104	6515851264	78	9965
2026-01-29 08:56:14.04	329.83	10.33	-53.4	-62.2	3.8	7.45e-01	0	43	104	6515851264	78	9918
2026-01-29 08:56:15.05	329.95	10.24	-53.4	-62.3	3.8	7.45e-01	0	43	104	6515851264	78	9945
2026-01-29 08:56:16.06	330.06	10.14	-53.4	-62.2	3.8	7.46e-01	0	43	104	6515851264	78	9894
2026-01-29 08:56:17.07	330.18	10.04	-53.4	-62.3	3.8	7.44e-01	0	42	104	6515851264	78	9950
2026-01-29 08:56:18.08	330.29	9.95	-53.4	-62.2	3.8	7.45e-01	0	43	104	6515851264	78	9906
2026-01-29 08:56:19.08	330.40	9.85	-53.4	-62.3	3.8	7.46e-01	0	43	104	6515851264	78	9949
2026-01-29 08:56:20.09	330.51	9.76	-53.3	-62.2	3.8	7.43e-01	0	43	104	6515851264	78	9859
2026-01-29 08:56:21.09	330.62	9.67	-53.4	-62.2	3.8	7.46e-01	0	43	104	6515851264	78	9844
2026-01-29 08:56:22.10	330.73	9.57	-53.3	-62.1	3.8	7.46e-01	0	43	104	6515851264	78	9796
2026-01-29 08:56:23.11	330.84	9.48	-53.4	-62.2	3.8	7.47e-01	0	43	104	6515851264	78	9938
2026-01-29 08:56:24.12	330.95	9.39	-53.3	-62.2	3.8	7.45e-01	0	43	104	6515851264	78	9833
2026-01-29 08:56:25.13	331.06	9.29	-53.3	-62.2	3.8	7.45e-01	0	42	104	6515851264	78	9837
2026-01-29 08:56:26.13	331.16	9.20	-53.3	-62.1	3.8	7.44e-01	0	43	104	6515851264	78	9799
2026-01-29 08:56:27.14	331.27	9.11	-53.3	-62.2	3.8	7.48e-01	0	42	104	6515851264	78	9845
2026-01-29 08:56:28.15	331.37	9.02	-53.3	-62.1	3.8	7.44e-01	0	43	104	6515851264	78	9747
2026-01-29 08:56:29.16	331.48	8.93	-53.3	-62.1	3.8	7.46e-01	0	42	104	6515851264	78	9788
2026-01-29 08:56:30.17	331.58	8.84	-53.2	-62.1	3.8	7.45e-01	0	43	104	6515851264	78	9742
2026-01-29 08:56:31.17	331.68	8.75	-53.3	-62.1	3.8	7.46e-01	0	43	104	6515851264	78	9803
2026-01-29 08:56:32.18	331.79	8.66	-53.2	-62.0	3.8	7.44e-01	0	42	104	6515851264	78	9679
2026-01-29 08:56:33.19	331.89	8.57	-53.2	-62.1	3.8	7.44e-01	0	43	104	6515851264	78	9722
2026-01-29 08:56:34.20	331.99	8.48	-53.2	-62.0	3.8	7.47e-01	0	43	104	6515851264	78	9703
2026-01-29 08:56:35.20	332.09	8.39	-53.3	-62.1	3.8	7.46e-01	0	42	104	6515851264	78	9742
2026-01-29 08:56:36.21	332.19	8.30	-53.2	-62.0	3.8	7.46e-01	0	42	104	6515851264	78	9656
2026-01-29 08:56:37.21	332.29	8.21	-53.2	-62.0	3.8	7.44e-01	0	43	104	6515851264	78	9689
2026-01-29 08:56:38.22	332.38	8.12	-53.2	-62.0	3.8	7.44e-01	0	43	104	6515851264	78	9658
2026-01-29 08:56:39.23	332.48	8.04	-53.2	-62.1	3.8	7.45e-01	0	42	104	6515851264	78	9730
2026-01-29 08:56:40.24	332.58	7.95	-53.2	-62.0	3.8	7.46e-01	0	42	104	6515851264	78	9656
2026-01-29 08:56:41.24	332.67	7.86	-53.2	-62.0	3.8	7.46e-01	0	43	104	6515851264	78	9666
2026-01-29 08:56:42.25	332.77	7.78	-53.1	-61.9	3.8	7.45e-01	0	43	104	6515851264	78	9595
2026-01-29 08:56:43.26	332.86	7.69	-53.2	-62.0	3.8	7.44e-01	0	42	104	6515851264	78	9643
2026-01-29 08:56:44.26	332.95	7.61	-53.1	-61.9	3.8	7.45e-01	0	42	104	6515851264	78	9559
2026-01-29 08:56:45.26	333.05	7.52	-53.1	-61.9	3.8	7.44e-01	0	42	104	6515851264	78	9606
2026-01-29 08:56:46.27	333.14	7.44	-53.1	-61.9	3.8	7.45e-01	0	42	104	6515851264	78	9578
2026-01-29 08:56:47.28	333.23	7.35	-53.1	-62.0	3.8	7.44e-01	0	42	104	6515851264	78	9616
2026-01-29 08:56:48.29	333.32	7.27	-53.1	-61.9	3.8	7.44e-01	0	42	104	6515851264	78	9564
2026-01-29 08:56:49.30	333.41	7.18	-53.1	-61.9	3.8	7.46e-01	0	42	104	6515851264	78	9569
2026-01-29 08:56:50.31	333.50	7.10	-53.0	-61.9	3.8	7.46e-01	0	43	104	6515851264	78	9513
2026-01-29 08:56:51.32	333.59	7.01	-53.1	-61.9	3.8	7.47e-01	0	42	104	6515851264	78	9586
2026-01-29 08:56:52.33	333.68	6.93	-53.0	-61.8	3.8	7.44e-01	0	43	104	6515851264	78	9493
2026-01-29 08:56:53.33	333.77	6.85	-53.0	-61.8	3.8	7.46e-01	0	43	104	6515851264	78	9487
2026-01-29 08:56:54.34	333.85	6.77	-53.0	-61.8	3.8	7.44e-01	0	42	104	6515851264	77	9979
2026-01-29 08:56:55.35	333.94	6.68	-53.0	-61.8	3.8	7.45e-01	0	43	104	6515851264	77	10052
2026-01-29 08:56:56.36	334.03	6.60	-53.0	-61.8	3.8	7.44e-01	0	43	104	6515851264	77	9982
2026-01-29 08:56:57.36	334.11	6.52	-52.9	-61.8	3.8	7.45e-01	0	42	104	6515851264	77	9946
2026-01-29 08:56:58.37	334.20	6.44	-52.9	-61.7	3.8	7.46e-01	0	43	104	6515851264	77	9932
2026-01-29 08:56:59.38	334.28	6.36	-53.0	-61.8	3.8	7.45e-01	0	43	104	6515851264	77	10021
2026-01-29 08:57:00.38	334.37	6.28	-52.9	-61.7	3.8	7.45e-01	0	43	104	6515851264	77	9921
2026-01-29 08:57:01.39	334.45	6.20	-52.9	-61.7	3.8	7.47e-01	0	43	104	6515851264	77	9882
2026-01-29 08:57:02.40	334.53	6.12	-52.9	-61.7	3.8	7.45e-01	0	43	104	6515851264	77	9894
2026-01-29 08:57:03.41	334.62	6.04	-52.9	-61.7	3.8	7.44e-01	0	43	104	6515851264	77	9940
2026-01-29 08:57:04.41	334.70	5.96	-52.8	-61.6	3.8	7.46e-01	0	43	104	6515851264	77	9808
2026-01-29 08:57:05.42	334.78	5.88	-52.8	-61.6	3.8	7.45e-01	0	42	104	6515851264	77	9820
2026-01-29 08:57:06.43	334.86	5.80	-52.7	-61.6	3.8	7.45e-01	0	43	104	6515851264	76	10314
2026-01-29 08:57:07.44	334.94	5.72	-52.4	-61.2	3.8	7.47e-01	0	43	104	6515851264	76	9896
2026-01-29 08:57:08.45	335.02	5.64	-51.7	-60.5	3.8	7.46e-01	0	43	104	6515851264	74	10177
2026-01-29 08:57:09.46	335.10	5.56	-51.6	-60.4	3.8	7.44e-01	0	42	104	6515851264	75	9603
2026-01-29 08:57:10.47	335.18	5.49	-51.2	-60.0	3.8	7.46e-01	0	43	104	6515851264	74	9646
2026-01-29 08:57:11.47	335.25	5.41	-51.2	-60.0	3.8	7.46e-01	0	43	104	6515851264	74	9653
2026-01-29 08:57:12.48	335.33	5.33	-51.6	-60.4	3.8	7.48e-01	0	43	104	6515851264	74	10094
2026-01-29 08:57:13.49	335.41	5.26	-51.7	-60.5	3.8	7.45e-01	0	43	104	6515851264	74	10214
2026-01-29 08:57:14.50	335.49	5.18	-52.4	-61.2	3.8	7.44e-01	0	42	104	6515851264	75	10452
2026-01-29 08:57:15.51	335.56	5.10	-52.5	-61.4	3.8	7.45e-01	0	42	104	6515851264	76	10060
2026-01-29 08:57:16.51	335.64	5.03	-51.9	-60.7	3.8	7.46e-01	0	43	104	6515851264	75	9885
2026-01-29 08:57:17.52	335.71	4.95	-53.0	-61.8	3.8	7.46e-01	0	43	104	6515851264	76	10635
2026-01-29 08:57:18.53	335.79	4.87	-53.4	-62.2	3.8	7.45e-01	0	42	104	6515851264	77	10513
2026-01-29 08:57:19.53	335.86	4.80	-53.7	-62.5	3.8	7.46e-01	0	42	104	6515851264	77	10868
2026-01-29 08:57:20.54	335.94	4.72	-53.9	-62.7	3.8	7.45e-01	0	42	104	6515851264	78	10480
2026-01-29 08:57:21.54	336.01	4.65	-54.0	-62.9	3.8	7.44e-01	0	43	104	6515851264	78	10710
2026-01-29 08:57:22.55	336.08	4.57	-54.1	-62.9	3.8	7.48e-01	0	43	104	6515851264	78	10764
2026-01-29 08:57:23.56	336.15	4.50	-54.2	-63.0	3.8	7.46e-01	0	43	104	6515851264	78	10867
2026-01-29 08:57:24.56	336.23	4.43	-54.2	-63.1	3.8	7.44e-01	0	43	104	6515851264	79	10341
2026-01-29 08:57:25.57	336.30	4.35	-54.2	-63.1	3.8	7.45e-01	0	43	104	6515851264	79	10303
2026-01-29 08:57:26.58	336.37	4.28	-54.2	-63.0	3.8	7.46e-01	0	43	104	6515851264	79	10244
2026-01-29 08:57:27.59	336.44	4.21	-54.1	-63.0	3.8	7.47e-01	0	42	104	6515851264	79	10219
2026-01-29 08:57:28.59	336.51	4.13	-54.0	-62.9	3.8	7.45e-01	0	43	104	6515851264	79	10068
2026-01-29 08:57:29.60	336.58	4.06	-53.9	-62.7	3.8	7.45e-01	0	42	104	6515851264	79	9913
2026-01-29 08:57:30.61	336.65	3.99	-54.0	-62.8	3.8	7.45e-01	0	43	104	6515851264	79	9953
2026-01-29 08:57:31.62	336.72	3.91	-54.0	-62.9	3.8	7.46e-01	0	42	104	6515851264	79	10091
2026-01-29 08:57:32.62	336.79	3.84	-54.1	-62.9	3.8	7.45e-01	0	43	104	6515851264	79	10118
2026-01-29 08:57:33.63	336.86	3.77	-54.1	-63.0	3.8	7.46e-01	0	42	104	6515851264	79	10176
2026-01-29 08:57:34.64	336.92	3.70	-54.2	-63.0	3.8	7.45e-01	0	42	104	6515851264	79	10230
2026-01-29 08:57:35.65	336.99	3.63	-54.2	-63.0	3.8	7.43e-01	0	43	104	6515851264	79	10250
2026-01-29 08:57:36.66	337.06	3.55	-54.2	-63.0	3.8	7.46e-01	0	43	104	6515851264	79	10274
2026-01-29 08:57:37.66	337.13	3.48	-54.2	-63.0	3.8	7.45e-01	0	43	104	6515851264	79	10251
2026-01-29 08:57:38.67	337.19	3.41	-54.2	-63.0	3.8	7.44e-01	0	43	104	6515851264	79	10252
2026-01-29 08:57:39.68	337.26	3.34	-54.1	-62.9	3.8	7.46e-01	0	43	104	6515851264	79	10165
2026-01-29 08:57:40.68	337.32	3.27	-54.1	-62.9	3.8	7.46e-01	0	43	104	6515851264	79	10149
2026-01-29 08:57:41.70	337.39	3.20	-54.1	-62.9	3.8	7.46e-01	0	43	104	6515851264	79	10154
2026-01-29 08:57:42.70	337.45	3.13	-54.1	-62.9	3.8	7.44e-01	0	43	104	6515851264	79	10128
2026-01-29 08:57:43.71	337.52	3.06	-54.0	-62.9	3.8	7.45e-01	0	42	104	6515851264	79	10098
2026-01-29 08:57:44.71	337.58	2.99	-54.0	-62.9	3.8	7.45e-01	0	43	104	6515851264	79	10075
2026-01-29 08:57:45.72	337.65	2.92	-54.0	-62.9	3.8	7.45e-01	0	43	104	6515851264	79	10071
2026-01-29 08:57:46.73	337.71	2.85	-54.0	-62.8	3.8	7.45e-01	0	42	104	6515851264	79	10053
2026-01-29 08:57:47.74	337.77	2.78	-54.0	-62.8	3.8	7.44e-01	0	43	104	6515851264	79	10056
2026-01-29 08:57:48.74	337.83	2.72	-54.0	-62.8	3.8	7.46e-01	0	43	104	6515851264	79	10028
2026-01-29 08:57:49.75	337.90	2.65	-54.0	-62.8	3.8	7.44e-01	0	43	104	6515851264	79	10021
2026-01-29 08:57:50.75	337.96	2.58	-54.0	-62.8	3.8	7.46e-01	0	43	104	6515851264	79	10025
2026-01-29 08:57:51.76	338.02	2.51	-54.0	-62.8	3.8	7.46e-01	0	42	104	6515851264	79	10040
2026-01-29 08:57:52.77	338.08	2.44	-54.0	-62.8	3.8	7.45e-01	0	42	104	6515851264	79	9995
2026-01-29 08:57:53.78	338.14	2.38	-54.0	-62.8	3.8	7.46e-01	0	43	104	6515851264	79	10004
2026-01-29 08:57:54.79	338.20	2.31	-54.0	-62.8	3.8	7.45e-01	0	42	104	6515851264	79	9978
2026-01-29 08:57:55.79	338.26	2.24	-54.0	-62.8	3.8	7.44e-01	0	43	104	6515851264	79	9985
2026-01-29 08:57:56.80	338.32	2.17	-54.0	-62.8	3.8	7.45e-01	0	43	104	6515851264	79	10040
2026-01-29 08:57:57.81	338.38	2.11	-54.0	-62.8	3.8	7.46e-01	0	43	104	6515851264	79	9986
2026-01-29 08:57:58.82	338.44	2.04	-53.9	-62.8	3.8	7.45e-01	0	43	104	6515851264	79	9975
2026-01-29 08:57:59.83	338.50	1.97	-53.9	-62.8	3.8	7.44e-01	0	43	104	6515851264	79	9947
2026-01-29 08:58:00.83	338.56	1.91	-53.9	-62.8	3.8	7.46e-01	0	42	104	6515851264	79	9987
2026-01-29 08:58:01.84	338.62	1.84	-53.9	-62.8	3.8	7.46e-01	0	43	104	6515851264	79	9994

#Closed at: 2026-01-29 08:58:01
#Recorded file [6515 MB]: D:/lorett/data/31041_260129_114751.dat