passes_logs/2026/01/29/R3.2S_Murmansk/R3.2S_Murmansk__20260129_042614_FENGYUN_3D_rec.log

#Pass ID: 20260129_042614_FENGYUN 3D
#Satellite: FENGYUN 3D
#Configuration: FENGYUN 3D
#almurnet v.1.7.20251203
#Start time: 2026-01-29 04:26:14

#Version: 2.2.20231116
#Station: R3.2S_Murmansk
#Location: 33.079688 lon 68.888172 lat
#TLE: 1 43010U 17072A   26027.97130493  .00000326  00000+0  17586-3 0  9998
#TLE: 2 43010  98.9960 359.9900 0002514  87.8428 272.3036 14.19701925425097

#Time	Az	El	Level	Level2	SNR	BER	BlckErr	Temp	State	Recorded	gain1	gain2
2026-01-29 04:26:14.62	33.42	2.03	-54.0	-65.9	3.8	8.45e-01	0	40	0	0	79	14312
2026-01-29 04:26:15.62	33.38	2.10	-53.9	-65.9	3.8	8.45e-01	0	40	104	0	78	15135
2026-01-29 04:26:16.63	33.35	2.16	-53.9	-65.9	3.8	8.46e-01	0	40	104	0	78	15165
2026-01-29 04:26:17.64	33.32	2.22	-53.9	-65.9	3.8	8.47e-01	0	40	104	0	78	15137
2026-01-29 04:26:18.65	33.28	2.29	-54.0	-66.0	3.8	8.46e-01	0	40	104	0	78	15311
2026-01-29 04:26:19.66	33.24	2.35	-54.1	-66.1	3.8	8.46e-01	0	40	104	0	78	15465
2026-01-29 04:26:20.66	33.21	2.41	-54.2	-66.2	3.8	8.45e-01	0	40	104	0	78	15611
2026-01-29 04:26:21.67	33.17	2.47	-54.2	-66.2	3.8	8.46e-01	0	40	104	0	79	14784
2026-01-29 04:26:22.68	33.14	2.54	-54.2	-66.2	3.8	8.47e-01	0	40	104	0	79	14754
2026-01-29 04:26:23.69	33.10	2.60	-54.2	-66.2	3.8	8.46e-01	0	40	104	0	79	14766
2026-01-29 04:26:24.69	33.07	2.66	-54.2	-66.2	3.8	8.45e-01	0	40	104	0	79	14754
2026-01-29 04:26:25.70	33.03	2.73	-54.2	-66.1	3.8	8.46e-01	0	40	104	0	79	14699
2026-01-29 04:26:26.71	32.99	2.79	-54.2	-66.1	3.8	8.47e-01	0	40	104	0	79	14653
2026-01-29 04:26:27.72	32.96	2.86	-54.1	-66.1	3.8	8.45e-01	0	40	104	0	79	14628
2026-01-29 04:26:28.73	32.92	2.92	-54.1	-66.1	3.8	8.45e-01	0	40	104	0	79	14639
2026-01-29 04:26:29.74	32.88	2.99	-54.1	-66.1	3.8	8.46e-01	0	40	104	0	79	14647
2026-01-29 04:26:30.75	32.85	3.05	-54.1	-66.1	3.8	8.46e-01	0	40	104	0	79	14624
2026-01-29 04:26:31.75	32.81	3.11	-54.1	-66.0	3.8	8.45e-01	0	40	104	0	79	14451
2026-01-29 04:26:32.76	32.77	3.18	-54.0	-65.9	3.8	8.46e-01	0	40	104	0	79	14327
2026-01-29 04:26:33.77	32.74	3.24	-53.9	-65.9	3.8	8.46e-01	0	40	104	0	79	14234
2026-01-29 04:26:34.77	32.70	3.31	-53.8	-65.7	3.8	8.47e-01	0	40	104	0	79	13979
2026-01-29 04:26:35.78	32.66	3.37	-53.6	-65.6	3.8	8.46e-01	0	40	104	0	79	13793
2026-01-29 04:26:36.79	32.62	3.44	-53.5	-65.5	3.8	8.46e-01	0	40	104	0	79	13604
2026-01-29 04:26:37.79	32.58	3.50	-53.3	-65.3	3.8	8.44e-01	0	41	104	0	78	14084
2026-01-29 04:26:38.80	32.54	3.57	-53.1	-65.0	3.8	8.46e-01	0	40	104	0	78	13718
2026-01-29 04:26:39.81	32.51	3.64	-52.8	-64.6	3.8	8.46e-01	0	41	104	0	77	13778
2026-01-29 04:26:40.82	32.47	3.70	-52.2	-63.4	3.8	8.46e-01	0	41	104	0	76	12775
2026-01-29 04:26:41.83	32.43	3.77	-51.9	-63.6	3.8	8.46e-01	0	41	104	0	75	13777
2026-01-29 04:26:42.83	32.39	3.83	-51.7	-62.6	3.8	8.46e-01	0	41	104	0	75	12285
2026-01-29 04:26:43.84	32.35	3.90	-51.6	-61.4	4.0	8.44e-01	0	41	104	0	75	10662
2026-01-29 04:26:44.85	32.31	3.97	-51.4	-60.0	4.3	8.39e-01	0	41	0	0	74	9660
2026-01-29 04:26:45.86	32.27	4.03	-51.2	-58.5	4.8	8.20e-01	0	41	0	0	74	8108
2026-01-29 04:26:46.87	32.23	4.10	-51.0	-57.6	5.3	7.41e-01	0	41	0	0	74	7325
2026-01-29 04:26:47.87	32.19	4.17	-50.8	-56.8	5.9	5.75e-01	0	41	0	2097152	73	7084
2026-01-29 04:26:48.88	32.15	4.23	-50.5	-55.9	6.6	2.72e-01	0	41	0	7340032	73	6350
2026-01-29 04:26:49.88	32.11	4.30	-50.4	-55.7	6.8	2.07e-01	0	41	0	12582912	72	6628
2026-01-29 04:26:50.89	32.07	4.37	-50.4	-55.6	6.8	2.14e-01	0	41	0	18874368	72	6556
2026-01-29 04:26:51.90	32.03	4.44	-50.4	-55.6	6.9	1.95e-01	0	41	0	24117248	72	6522
2026-01-29 04:26:52.91	31.99	4.50	-50.4	-55.5	6.9	1.90e-01	0	41	0	29360128	72	6483
2026-01-29 04:26:53.92	31.94	4.57	-50.6	-56.5	6.1	2.73e-01	0	41	0	35651584	72	7215
2026-01-29 04:26:54.92	31.90	4.64	-50.8	-57.0	5.7	4.27e-01	0	41	0	41943040	72	7719
2026-01-29 04:26:55.93	31.86	4.71	-50.9	-57.5	5.4	6.71e-01	0	41	0	44040192	72	8116
2026-01-29 04:26:56.93	31.82	4.77	-50.9	-57.6	5.3	7.23e-01	0	41	0	46137344	72	8244
2026-01-29 04:26:57.95	31.78	4.84	-51.0	-57.8	5.1	7.42e-01	0	41	0	47185920	72	8441
2026-01-29 04:26:58.95	31.73	4.91	-51.0	-57.7	5.2	7.49e-01	0	41	0	47185920	72	8341
2026-01-29 04:26:59.96	31.69	4.98	-50.9	-57.5	5.3	7.32e-01	0	41	0	48234496	72	8097
2026-01-29 04:27:00.94	31.65	5.05	-50.8	-57.1	5.6	6.57e-01	0	41	0	51380224	72	7775
2026-01-29 04:27:01.95	31.60	5.12	-50.3	-55.1	7.3	1.23e-01	0	41	0	56623104	72	6170
2026-01-29 04:27:02.96	31.56	5.19	-50.6	-56.1	6.5	2.10e-01	0	41	0	61865984	72	6916
2026-01-29 04:27:03.96	31.52	5.26	-51.5	-61.8	3.8	8.27e-01	0	41	104	63963136	73	12542
2026-01-29 04:27:04.97	31.47	5.33	-49.8	-53.7	9.0	7.19e-04	0	41	0	66060288	70	5900
2026-01-29 04:27:05.98	31.43	5.40	-51.2	-58.7	4.8	2.91e-01	0	41	0	70254592	72	9281
2026-01-29 04:27:06.99	31.39	5.47	-50.0	-54.2	8.4	1.61e-01	0	41	0	73400320	71	5893
2026-01-29 04:27:08.00	31.34	5.54	-50.0	-54.1	8.4	5.14e-02	0	41	0	79691776	71	5852
2026-01-29 04:27:09.01	31.30	5.61	-50.1	-54.4	8.1	7.46e-02	0	41	0	84934656	71	6048
2026-01-29 04:27:10.01	31.25	5.68	-49.7	-53.5	9.0	4.44e-02	0	41	0	90177536	71	5415
2026-01-29 04:27:11.02	31.21	5.75	-48.9	-51.9	10.7	6.02e-03	0	41	0	96468992	69	5080
2026-01-29 04:27:12.03	31.16	5.82	-48.1	-50.6	12.1	1.32e-03	0	41	0	102760448	68	4624
2026-01-29 04:27:13.03	31.11	5.89	-47.4	-49.6	13.1	9.61e-05	0	41	0	108003328	66	4602
2026-01-29 04:27:14.04	31.07	5.96	-46.7	-48.6	14.2	1.71e-05	0	41	0	113246208	65	4352
2026-01-29 04:27:15.05	31.02	6.03	-46.1	-47.8	14.9	0.00e+00	0	41	0	119537664	64	4238
2026-01-29 04:27:16.06	30.97	6.10	-45.7	-47.3	15.6	0.00e+00	0	41	0	124780544	63	4235
2026-01-29 04:27:17.07	30.93	6.17	-45.6	-47.1	15.7	0.00e+00	0	41	0	130023424	63	4120
2026-01-29 04:27:18.08	30.88	6.25	-45.1	-46.5	16.3	0.00e+00	0	41	0	136314880	62	4066
2026-01-29 04:27:19.09	30.83	6.32	-44.2	-45.5	17.7	0.00e+00	0	41	0	141557760	59	4295
2026-01-29 04:27:20.09	30.79	6.39	-44.3	-45.6	17.6	0.00e+00	0	41	0	146800640	59	4348
2026-01-29 04:27:21.10	30.74	6.46	-43.6	-44.8	18.4	0.00e+00	0	41	0	153092096	59	3977
2026-01-29 04:27:22.11	30.69	6.53	-43.2	-44.3	19.0	0.00e+00	0	41	0	158334976	58	3983
2026-01-29 04:27:23.11	30.64	6.61	-43.2	-44.2	19.1	0.00e+00	0	42	0	164626432	58	3951
2026-01-29 04:27:24.12	30.59	6.68	-42.9	-44.0	19.4	0.00e+00	0	41	0	169869312	57	4052
2026-01-29 04:27:25.13	30.54	6.75	-42.8	-43.9	19.5	0.00e+00	0	42	0	176160768	57	4019
2026-01-29 04:27:26.14	30.50	6.83	-42.8	-43.9	19.4	0.00e+00	0	41	0	181403648	57	4019
2026-01-29 04:27:27.15	30.45	6.90	-42.9	-43.9	19.3	0.00e+00	0	42	0	187695104	57	4049
2026-01-29 04:27:28.15	30.40	6.97	-42.9	-43.9	19.3	0.00e+00	0	41	0	192937984	57	4039
2026-01-29 04:27:29.16	30.35	7.05	-42.5	-43.6	19.7	0.00e+00	0	41	0	198180864	57	3869
2026-01-29 04:27:30.16	30.30	7.12	-43.0	-44.0	19.2	0.00e+00	0	42	0	204472320	56	4319
2026-01-29 04:27:31.17	30.25	7.19	-42.7	-43.8	19.4	0.00e+00	0	41	0	209715200	56	4200
2026-01-29 04:27:32.18	30.20	7.27	-42.8	-43.8	19.3	0.00e+00	0	42	0	214958080	56	4212
2026-01-29 04:27:33.19	30.14	7.34	-42.6	-43.6	19.7	0.00e+00	0	42	0	221249536	56	4101
2026-01-29 04:27:34.20	30.09	7.42	-42.7	-43.8	19.6	0.00e+00	0	42	0	226492416	56	4196
2026-01-29 04:27:35.21	30.04	7.49	-42.7	-43.7	19.7	0.00e+00	0	42	0	231735296	56	4185
2026-01-29 04:27:36.21	29.99	7.57	-42.6	-43.6	19.7	0.00e+00	0	42	0	238026752	56	4145
2026-01-29 04:27:37.22	29.94	7.64	-42.8	-43.9	19.5	0.00e+00	0	42	0	244318208	56	4249
2026-01-29 04:27:38.23	29.88	7.72	-42.7	-43.7	19.6	0.00e+00	0	42	0	249561088	56	4154
2026-01-29 04:27:39.24	29.83	7.80	-42.5	-43.5	19.8	0.00e+00	0	42	0	254803968	56	4090
2026-01-29 04:27:40.25	29.78	7.87	-42.7	-43.7	19.6	0.00e+00	0	42	0	261095424	56	4175
2026-01-29 04:27:41.25	29.73	7.95	-42.6	-43.6	19.8	0.00e+00	0	41	0	266338304	56	4105
2026-01-29 04:27:42.26	29.67	8.02	-42.7	-43.7	19.6	0.00e+00	0	42	0	272629760	56	4187
2026-01-29 04:27:43.26	29.62	8.10	-42.7	-43.7	19.7	0.00e+00	0	42	0	277872640	56	4157
2026-01-29 04:27:44.27	29.56	8.18	-42.7	-43.7	19.8	0.00e+00	0	42	0	283115520	56	4173
2026-01-29 04:27:45.28	29.51	8.25	-42.5	-43.5	20.0	0.00e+00	0	42	0	289406976	56	4077
2026-01-29 04:27:46.29	29.45	8.33	-42.5	-43.4	20.1	0.00e+00	0	42	0	294649856	56	4050
2026-01-29 04:27:47.29	29.40	8.41	-42.3	-43.3	20.3	0.00e+00	0	42	0	299892736	56	3960
2026-01-29 04:27:48.30	29.34	8.49	-42.4	-43.3	20.3	0.00e+00	0	42	0	306184192	56	3992
2026-01-29 04:27:49.31	29.29	8.56	-42.3	-43.3	20.3	0.00e+00	0	42	0	311427072	56	3978
2026-01-29 04:27:50.32	29.23	8.64	-42.5	-43.4	20.2	0.00e+00	0	42	0	317718528	56	4046
2026-01-29 04:27:51.33	29.17	8.72	-42.4	-43.4	20.3	0.00e+00	0	42	0	322961408	56	4019
2026-01-29 04:27:52.34	29.12	8.80	-42.6	-43.6	20.1	0.00e+00	0	42	0	329252864	56	4125
2026-01-29 04:27:53.34	29.06	8.88	-42.6	-43.5	20.1	0.00e+00	0	42	0	334495744	56	4098
2026-01-29 04:27:54.35	29.00	8.96	-42.5	-43.5	20.2	0.00e+00	0	41	0	339738624	56	4060
2026-01-29 04:27:55.36	28.95	9.04	-42.4	-43.4	20.3	0.00e+00	0	42	0	346030080	56	4025
2026-01-29 04:27:56.37	28.89	9.12	-42.3	-43.2	20.5	0.00e+00	0	42	0	351272960	56	3942
2026-01-29 04:27:57.38	28.83	9.20	-42.3	-43.2	20.5	0.00e+00	0	42	0	357564416	56	3952
2026-01-29 04:27:58.39	28.77	9.28	-42.1	-43.1	20.6	0.00e+00	0	42	0	362807296	56	3884
2026-01-29 04:27:59.40	28.71	9.36	-42.1	-43.1	20.6	0.00e+00	0	42	0	368050176	56	3885
2026-01-29 04:28:00.40	28.65	9.44	-42.2	-43.2	20.5	0.00e+00	0	42	0	374341632	56	3930
2026-01-29 04:28:01.42	28.59	9.52	-42.2	-43.2	20.5	0.00e+00	0	42	0	379584512	56	3938
2026-01-29 04:28:02.42	28.53	9.60	-42.2	-43.2	20.5	0.00e+00	0	42	0	385875968	56	3930
2026-01-29 04:28:03.42	28.47	9.68	-42.2	-43.2	20.5	0.00e+00	0	42	0	391118848	56	3922
2026-01-29 04:28:04.43	28.41	9.76	-42.2	-43.1	20.6	0.00e+00	0	42	0	397410304	56	3894
2026-01-29 04:28:05.44	28.35	9.84	-42.0	-42.9	20.8	0.00e+00	0	42	0	402653184	56	3819
2026-01-29 04:28:06.45	28.29	9.92	-41.9	-42.8	20.8	0.00e+00	0	42	0	407896064	55	4001
2026-01-29 04:28:07.45	28.22	10.00	-41.8	-42.7	21.0	0.00e+00	0	42	0	414187520	55	3929
2026-01-29 04:28:08.46	28.16	10.09	-41.7	-42.7	21.0	0.00e+00	0	42	0	419430400	55	3918
2026-01-29 04:28:09.47	28.10	10.17	-41.9	-42.8	20.8	0.00e+00	0	42	0	424673280	55	3993
2026-01-29 04:28:10.48	28.04	10.25	-41.8	-42.7	21.0	0.00e+00	0	42	0	430964736	55	3948
2026-01-29 04:28:11.49	27.97	10.33	-41.9	-42.8	20.8	0.00e+00	0	42	0	436207616	55	4000
2026-01-29 04:28:12.50	27.91	10.42	-41.9	-42.9	20.8	0.00e+00	0	42	0	442499072	55	4018
2026-01-29 04:28:13.50	27.84	10.50	-42.0	-42.9	20.8	0.00e+00	0	42	0	447741952	55	4036
2026-01-29 04:28:14.51	27.78	10.58	-41.7	-42.6	21.0	0.00e+00	0	42	0	452984832	55	3913
2026-01-29 04:28:15.51	27.72	10.67	-41.7	-42.6	21.0	0.00e+00	0	42	0	459276288	55	3877
2026-01-29 04:28:16.52	27.65	10.75	-41.8	-42.7	21.0	0.00e+00	0	42	0	464519168	55	3934
2026-01-29 04:28:17.52	27.58	10.83	-41.8	-42.7	21.0	0.00e+00	0	42	0	469762048	55	3939
2026-01-29 04:28:18.53	27.52	10.92	-41.9	-42.8	20.9	0.00e+00	0	42	0	476053504	55	3990
2026-01-29 04:28:19.53	27.45	11.00	-41.9	-42.8	20.9	0.00e+00	0	42	0	482344960	55	3981
2026-01-29 04:28:20.54	27.38	11.09	-41.8	-42.7	21.0	0.00e+00	0	42	0	487587840	55	3944
2026-01-29 04:28:21.55	27.32	11.17	-41.8	-42.7	21.0	0.00e+00	0	42	0	492830720	55	3954
2026-01-29 04:28:22.56	27.25	11.26	-41.8	-42.7	21.0	0.00e+00	0	42	0	499122176	55	3937
2026-01-29 04:28:23.57	27.18	11.35	-41.7	-42.6	21.1	0.00e+00	0	42	0	504365056	55	3887
2026-01-29 04:28:24.58	27.11	11.43	-41.7	-42.6	21.1	0.00e+00	0	42	0	509607936	55	3883
2026-01-29 04:28:25.59	27.04	11.52	-41.9	-42.8	21.0	0.00e+00	0	42	0	515899392	55	3962
2026-01-29 04:28:26.60	26.97	11.61	-41.7	-42.6	21.2	0.00e+00	0	42	0	521142272	55	3885
2026-01-29 04:28:27.61	26.90	11.69	-41.8	-42.7	21.1	0.00e+00	0	42	0	527433728	55	3931
2026-01-29 04:28:28.62	26.83	11.78	-41.7	-42.6	21.2	0.00e+00	0	42	0	532676608	55	3874
2026-01-29 04:28:29.63	26.76	11.87	-41.8	-42.7	21.1	0.00e+00	0	41	0	538968064	55	3924
2026-01-29 04:28:30.63	26.69	11.96	-41.6	-42.5	21.2	0.00e+00	0	42	0	544210944	55	3856
2026-01-29 04:28:31.64	26.62	12.04	-41.6	-42.4	21.3	0.00e+00	0	42	0	550502400	55	3823
2026-01-29 04:28:32.65	26.54	12.13	-41.5	-42.4	21.4	0.00e+00	0	42	0	555745280	55	3813
2026-01-29 04:28:33.66	26.47	12.22	-41.5	-42.3	21.4	0.00e+00	0	42	0	560988160	54	4000
2026-01-29 04:28:34.66	26.40	12.31	-41.3	-42.2	21.5	0.00e+00	0	42	0	567279616	54	3934
2026-01-29 04:28:35.67	26.32	12.40	-41.3	-42.2	21.6	0.00e+00	0	42	0	572522496	54	3939
2026-01-29 04:28:36.68	26.25	12.49	-41.4	-42.2	21.5	0.00e+00	0	42	0	577765376	54	3957
2026-01-29 04:28:37.69	26.18	12.58	-41.4	-42.2	21.6	0.00e+00	0	42	0	584056832	54	3954
2026-01-29 04:28:38.70	26.10	12.67	-41.1	-42.0	21.8	0.00e+00	0	42	0	589299712	54	3849
2026-01-29 04:28:39.71	26.02	12.76	-41.1	-42.0	21.8	0.00e+00	0	42	0	594542592	54	3825
2026-01-29 04:28:40.72	25.95	12.85	-41.0	-41.8	22.0	0.00e+00	0	42	0	600834048	54	3759
2026-01-29 04:28:41.73	25.87	12.94	-41.0	-41.9	21.9	0.00e+00	0	42	0	607125504	53	4015
2026-01-29 04:28:42.73	25.80	13.03	-40.9	-41.7	22.1	0.00e+00	0	42	0	612368384	53	3944
2026-01-29 04:28:43.75	25.72	13.12	-40.9	-41.8	22.0	0.00e+00	0	42	0	617611264	53	3983
2026-01-29 04:28:44.75	25.64	13.21	-40.9	-41.8	22.0	0.00e+00	0	42	0	623902720	53	3962
2026-01-29 04:28:45.76	25.56	13.30	-40.8	-41.6	22.2	0.00e+00	0	42	0	629145600	53	3895
2026-01-29 04:28:46.76	25.48	13.40	-40.9	-41.7	22.1	0.00e+00	0	42	0	635437056	53	3951
2026-01-29 04:28:47.77	25.40	13.49	-40.8	-41.7	22.1	0.00e+00	0	42	0	640679936	53	3928
2026-01-29 04:28:48.78	25.32	13.58	-40.9	-41.8	22.0	0.00e+00	0	42	0	645922816	53	3971
2026-01-29 04:28:49.79	25.24	13.68	-40.8	-41.6	22.2	0.00e+00	0	42	0	652214272	53	3912
2026-01-29 04:28:50.80	25.16	13.77	-40.9	-41.7	22.1	0.00e+00	0	42	0	657457152	53	3928
2026-01-29 04:28:51.81	25.08	13.86	-40.9	-41.7	22.1	0.00e+00	0	42	0	662700032	53	3947
2026-01-29 04:28:52.81	25.00	13.96	-40.9	-41.7	22.2	0.00e+00	0	42	0	668991488	53	3939
2026-01-29 04:28:53.82	24.91	14.05	-40.8	-41.7	22.1	0.00e+00	0	42	0	674234368	53	3926
2026-01-29 04:28:54.82	24.83	14.14	-40.9	-41.7	22.1	0.00e+00	0	42	0	680525824	53	3946
2026-01-29 04:28:55.83	24.75	14.24	-41.0	-41.8	22.0	0.00e+00	0	42	0	685768704	53	3997
2026-01-29 04:28:56.84	24.66	14.33	-40.8	-41.6	22.2	0.00e+00	0	42	0	692060160	53	3911
2026-01-29 04:28:57.85	24.58	14.43	-40.7	-41.5	22.3	0.00e+00	0	42	0	697303040	53	3852
2026-01-29 04:28:58.85	24.49	14.53	-40.7	-41.6	22.2	0.00e+00	0	42	0	703594496	53	3879
2026-01-29 04:28:59.86	24.40	14.62	-40.7	-41.5	22.3	0.00e+00	0	42	0	708837376	53	3847
2026-01-29 04:29:00.86	24.32	14.72	-40.6	-41.4	22.5	0.00e+00	0	42	0	714080256	53	3800
2026-01-29 04:29:01.86	24.23	14.81	-40.7	-41.5	22.3	0.00e+00	0	42	0	720371712	53	3846
2026-01-29 04:29:02.87	24.14	14.91	-40.6	-41.5	22.4	0.00e+00	0	42	0	725614592	53	3825
2026-01-29 04:29:03.88	24.05	15.01	-40.6	-41.4	22.5	0.00e+00	0	42	0	730857472	53	3799
2026-01-29 04:29:04.89	23.96	15.11	-40.7	-41.5	22.4	0.00e+00	0	42	0	737148928	53	3857
2026-01-29 04:29:05.89	23.88	15.20	-40.5	-41.3	22.5	0.00e+00	0	42	0	742391808	53	3765
2026-01-29 04:29:06.89	23.79	15.30	-40.4	-41.3	22.6	0.00e+00	0	42	0	747634688	52	3960
2026-01-29 04:29:07.90	23.69	15.40	-40.4	-41.2	22.6	0.00e+00	0	42	0	753926144	52	3950
2026-01-29 04:29:08.91	23.60	15.50	-40.4	-41.2	22.7	0.00e+00	0	42	0	759169024	52	3950
2026-01-29 04:29:09.92	23.51	15.60	-40.4	-41.3	22.6	0.00e+00	0	42	0	765460480	52	3963
2026-01-29 04:29:10.93	23.42	15.70	-40.4	-41.2	22.7	0.00e+00	0	42	0	770703360	52	3952
2026-01-29 04:29:11.93	23.32	15.80	-40.5	-41.3	22.6	0.00e+00	0	42	0	776994816	52	3966
2026-01-29 04:29:12.94	23.23	15.90	-40.3	-41.1	22.8	0.00e+00	0	42	0	782237696	52	3875
2026-01-29 04:29:13.95	23.13	16.00	-40.3	-41.1	22.8	0.00e+00	0	42	0	788529152	52	3883
2026-01-29 04:29:14.96	23.04	16.10	-40.4	-41.2	22.7	0.00e+00	0	42	0	793772032	52	3919
2026-01-29 04:29:15.97	22.94	16.20	-40.1	-40.9	22.9	0.00e+00	0	42	0	799014912	52	3823
2026-01-29 04:29:16.98	22.85	16.30	-40.1	-40.8	23.0	0.00e+00	0	42	0	805306368	52	3778
2026-01-29 04:29:17.99	22.75	16.41	-40.0	-40.8	23.1	0.00e+00	0	42	0	810549248	52	3763
2026-01-29 04:29:19.00	22.65	16.51	-40.0	-40.8	23.2	0.00e+00	0	42	0	815792128	51	3984
2026-01-29 04:29:20.01	22.55	16.61	-40.1	-40.9	23.1	0.00e+00	0	42	0	822083584	51	4034
2026-01-29 04:29:21.02	22.45	16.71	-39.9	-40.7	23.3	0.00e+00	0	42	0	827326464	51	3920
2026-01-29 04:29:22.03	22.35	16.82	-40.0	-40.7	23.2	0.00e+00	0	42	0	833617920	51	3957
2026-01-29 04:29:23.03	22.25	16.92	-39.9	-40.7	23.2	0.00e+00	0	42	0	838860800	51	3946
2026-01-29 04:29:24.04	22.15	17.02	-40.0	-40.7	23.2	0.00e+00	0	42	0	845152256	51	3953
2026-01-29 04:29:25.05	22.04	17.13	-40.0	-40.8	23.2	0.00e+00	0	42	0	850395136	51	3981
2026-01-29 04:29:26.06	21.94	17.23	-40.0	-40.8	23.2	0.00e+00	0	42	0	855638016	51	3968
2026-01-29 04:29:27.06	21.84	17.34	-40.0	-40.8	23.1	0.00e+00	0	42	0	861929472	51	3997
2026-01-29 04:29:28.07	21.73	17.44	-40.1	-40.9	23.1	0.00e+00	0	42	0	867172352	51	4018
2026-01-29 04:29:29.08	21.63	17.55	-40.1	-40.9	23.1	0.00e+00	0	42	0	873463808	51	4036
2026-01-29 04:29:30.09	21.52	17.66	-40.1	-40.8	23.2	0.00e+00	0	42	0	878706688	51	4004
2026-01-29 04:29:31.09	21.41	17.76	-40.0	-40.8	23.2	0.00e+00	0	42	0	883949568	51	3991
2026-01-29 04:29:32.10	21.30	17.87	-40.1	-40.9	23.1	0.00e+00	0	42	0	890241024	51	4029
2026-01-29 04:29:33.11	21.20	17.98	-39.9	-40.7	23.3	0.00e+00	0	42	0	895483904	51	3941
2026-01-29 04:29:34.12	21.09	18.08	-39.9	-40.7	23.3	0.00e+00	0	42	0	900726784	51	3921
2026-01-29 04:29:35.12	20.98	18.19	-39.9	-40.7	23.3	0.00e+00	0	42	0	907018240	51	3937
2026-01-29 04:29:36.13	20.87	18.30	-39.8	-40.6	23.4	0.00e+00	0	42	0	913309696	51	3884
2026-01-29 04:29:37.14	20.75	18.41	-39.7	-40.5	23.5	0.00e+00	0	42	0	918552576	51	3831
2026-01-29 04:29:38.15	20.64	18.52	-39.6	-40.3	23.7	0.00e+00	0	42	0	923795456	51	3778
2026-01-29 04:29:39.16	20.53	18.63	-39.5	-40.3	23.7	0.00e+00	0	42	0	930086912	51	3746
2026-01-29 04:29:40.17	20.41	18.74	-39.6	-40.4	23.6	0.00e+00	0	42	0	935329792	51	3793
2026-01-29 04:29:41.18	20.30	18.85	-39.4	-40.2	23.8	0.00e+00	0	42	0	940572672	50	3917
2026-01-29 04:29:42.19	20.18	18.96	-39.5	-40.3	23.7	0.00e+00	0	42	0	946864128	50	3959
2026-01-29 04:29:43.20	20.06	19.07	-39.4	-40.1	23.9	0.00e+00	0	42	0	952107008	50	3902
2026-01-29 04:29:44.21	19.94	19.18	-39.5	-40.3	23.8	0.00e+00	0	42	0	958398464	50	3960
2026-01-29 04:29:45.21	19.83	19.29	-39.5	-40.3	23.7	0.00e+00	0	42	0	963641344	50	3967
2026-01-29 04:29:46.22	19.71	19.40	-39.6	-40.4	23.7	0.00e+00	0	42	0	968884224	50	4017
2026-01-29 04:29:47.23	19.58	19.52	-39.6	-40.4	23.7	0.00e+00	0	42	0	975175680	50	4014
2026-01-29 04:29:48.23	19.46	19.63	-39.6	-40.4	23.6	0.00e+00	0	42	0	981467136	50	4020
2026-01-29 04:29:49.25	19.34	19.74	-39.6	-40.4	23.7	0.00e+00	0	42	0	986710016	50	4018
2026-01-29 04:29:50.26	19.22	19.86	-39.5	-40.3	23.7	0.00e+00	0	42	0	991952896	50	3979
2026-01-29 04:29:51.26	19.09	19.97	-39.4	-40.2	23.8	0.00e+00	0	42	0	998244352	50	3932
2026-01-29 04:29:52.27	18.97	20.08	-39.5	-40.2	23.8	0.00e+00	0	42	0	1003487232	50	3951
2026-01-29 04:29:53.28	18.84	20.20	-39.3	-40.1	24.0	0.00e+00	0	42	0	1008730112	50	3879
2026-01-29 04:29:54.29	18.71	20.31	-39.3	-40.0	24.0	0.00e+00	0	42	0	1015021568	50	3848
2026-01-29 04:29:55.29	18.59	20.43	-39.2	-40.0	24.1	0.00e+00	0	42	0	1020264448	50	3837
2026-01-29 04:29:56.29	18.46	20.54	-39.1	-39.9	24.1	0.00e+00	0	42	0	1025507328	50	3795
2026-01-29 04:29:57.30	18.33	20.66	-39.1	-39.9	24.1	0.00e+00	0	42	0	1031798784	50	3792
2026-01-29 04:29:58.31	18.20	20.78	-39.0	-39.7	24.3	0.00e+00	0	42	0	1037041664	50	3722
2026-01-29 04:29:59.32	18.06	20.89	-39.1	-39.8	24.2	0.00e+00	0	42	0	1043333120	49	3987
2026-01-29 04:30:00.33	17.93	21.01	-39.0	-39.7	24.3	0.00e+00	0	42	0	1048576000	49	3950
2026-01-29 04:30:01.33	17.80	21.13	-39.0	-39.7	24.3	0.00e+00	0	42	0	1054867456	49	3951
2026-01-29 04:30:02.34	17.66	21.24	-39.0	-39.7	24.3	0.00e+00	0	42	0	1060110336	49	3954
2026-01-29 04:30:03.34	17.52	21.36	-39.1	-39.8	24.2	0.00e+00	0	42	0	1066401792	49	3987
2026-01-29 04:30:04.35	17.39	21.48	-39.1	-39.8	24.2	0.00e+00	0	42	0	1071644672	49	3995
2026-01-29 04:30:05.36	17.25	21.60	-39.0	-39.8	24.2	0.00e+00	0	42	0	1076887552	49	3966
2026-01-29 04:30:06.37	17.11	21.72	-38.9	-39.7	24.3	0.00e+00	0	42	0	1083179008	49	3928
2026-01-29 04:30:07.38	16.97	21.84	-39.0	-39.8	24.3	0.00e+00	0	42	0	1088421888	49	3962
2026-01-29 04:30:08.39	16.82	21.96	-39.0	-39.7	24.3	0.00e+00	0	42	0	1093664768	49	3935
2026-01-29 04:30:09.40	16.68	22.08	-39.1	-39.8	24.2	0.00e+00	0	42	0	1099956224	49	3980
2026-01-29 04:30:10.41	16.54	22.20	-39.0	-39.8	24.3	0.00e+00	0	42	0	1105199104	49	3971
2026-01-29 04:30:11.42	16.39	22.32	-39.1	-39.8	24.2	0.00e+00	0	42	0	1110441984	49	3989
2026-01-29 04:30:12.43	16.24	22.45	-39.0	-39.8	24.2	0.00e+00	0	42	0	1116733440	49	3976
2026-01-29 04:30:13.44	16.10	22.57	-38.9	-39.7	24.4	0.00e+00	0	42	0	1123024896	49	3924
2026-01-29 04:30:14.45	15.95	22.69	-39.0	-39.7	24.3	0.00e+00	0	42	0	1128267776	49	3939
2026-01-29 04:30:15.45	15.80	22.81	-38.8	-39.6	24.5	0.00e+00	0	42	0	1133510656	49	3874
2026-01-29 04:30:16.46	15.65	22.94	-38.6	-39.3	24.7	0.00e+00	0	42	0	1139802112	49	3771
2026-01-29 04:30:17.47	15.49	23.06	-38.6	-39.3	24.7	0.00e+00	0	42	0	1145044992	49	3766
2026-01-29 04:30:18.48	15.34	23.18	-38.6	-39.4	24.7	0.00e+00	0	42	0	1151336448	49	3785
2026-01-29 04:30:19.49	15.18	23.31	-38.6	-39.3	24.8	0.00e+00	0	42	0	1156579328	49	3747
2026-01-29 04:30:20.49	15.03	23.43	-38.7	-39.4	24.6	0.00e+00	0	42	0	1161822208	49	3815
2026-01-29 04:30:21.50	14.87	23.56	-38.6	-39.3	24.8	0.00e+00	0	42	0	1168113664	49	3754
2026-01-29 04:30:22.51	14.71	23.68	-38.6	-39.3	24.7	0.00e+00	0	42	0	1173356544	49	3762
2026-01-29 04:30:23.52	14.55	23.81	-38.6	-39.3	24.7	0.00e+00	0	42	0	1178599424	49	3775
2026-01-29 04:30:24.53	14.39	23.94	-38.6	-39.4	24.7	0.00e+00	0	42	0	1184890880	49	3784
2026-01-29 04:30:25.54	14.22	24.06	-38.7	-39.5	24.6	0.00e+00	0	42	0	1191182336	49	3832
2026-01-29 04:30:26.55	14.06	24.19	-38.7	-39.4	24.6	0.00e+00	0	42	0	1196425216	49	3814
2026-01-29 04:30:27.55	13.89	24.32	-38.8	-39.5	24.6	0.00e+00	0	42	0	1201668096	49	3836
2026-01-29 04:30:28.56	13.73	24.44	-38.7	-39.4	24.7	0.00e+00	0	42	0	1207959552	49	3799
2026-01-29 04:30:29.57	13.56	24.57	-38.7	-39.5	24.6	0.00e+00	0	42	0	1213202432	49	3828
2026-01-29 04:30:30.58	13.39	24.70	-38.6	-39.3	24.8	0.00e+00	0	42	0	1218445312	49	3756
2026-01-29 04:30:31.59	13.22	24.83	-38.5	-39.3	24.8	0.00e+00	0	42	0	1224736768	49	3745
2026-01-29 04:30:32.60	13.04	24.96	-38.5	-39.2	24.8	0.00e+00	0	42	0	1229979648	49	3726
2026-01-29 04:30:33.61	12.87	25.09	-38.5	-39.2	24.8	0.00e+00	0	42	0	1236271104	48	3958
2026-01-29 04:30:34.62	12.69	25.22	-38.5	-39.2	24.9	0.00e+00	0	42	0	1241513984	48	3931
2026-01-29 04:30:35.63	12.52	25.35	-38.5	-39.2	24.8	0.00e+00	0	42	0	1247805440	48	3945
2026-01-29 04:30:36.64	12.34	25.48	-38.5	-39.2	24.8	0.00e+00	0	42	0	1253048320	48	3958
2026-01-29 04:30:37.64	12.16	25.61	-38.5	-39.2	24.9	0.00e+00	0	42	0	1259339776	48	3934
2026-01-29 04:30:38.65	11.98	25.74	-38.5	-39.2	24.8	0.00e+00	0	42	0	1264582656	48	3953
2026-01-29 04:30:39.66	11.79	25.87	-38.5	-39.2	24.9	0.00e+00	0	42	0	1269825536	48	3936
2026-01-29 04:30:40.67	11.61	26.00	-38.4	-39.1	25.0	0.00e+00	0	42	0	1276116992	48	3899
2026-01-29 04:30:41.68	11.42	26.14	-38.5	-39.2	24.9	0.00e+00	0	42	0	1281359872	48	3925
2026-01-29 04:30:42.69	11.23	26.27	-38.4	-39.1	25.0	0.00e+00	0	42	0	1286602752	48	3870
2026-01-29 04:30:43.69	11.04	26.40	-38.4	-39.1	25.0	0.00e+00	0	42	0	1292894208	48	3888
2026-01-29 04:30:44.70	10.85	26.53	-38.3	-39.0	25.0	0.00e+00	0	42	0	1298137088	48	3863
2026-01-29 04:30:45.71	10.66	26.67	-38.3	-39.0	25.1	0.00e+00	0	42	0	1303379968	48	3838
2026-01-29 04:30:46.72	10.47	26.80	-38.4	-39.1	25.0	0.00e+00	0	42	0	1309671424	48	3877
2026-01-29 04:30:47.72	10.27	26.93	-38.5	-39.2	24.9	0.00e+00	0	42	0	1315962880	48	3925
2026-01-29 04:30:48.73	10.07	27.07	-38.5	-39.2	24.9	0.00e+00	0	42	0	1321205760	48	3953
2026-01-29 04:30:49.74	9.87	27.20	-38.6	-39.3	24.8	0.00e+00	0	42	0	1326448640	48	3984
2026-01-29 04:30:50.75	9.67	27.34	-38.5	-39.3	24.9	0.00e+00	0	42	0	1332740096	48	3964
2026-01-29 04:30:51.75	9.47	27.47	-38.5	-39.2	24.9	0.00e+00	0	42	0	1337982976	48	3941
2026-01-29 04:30:52.76	9.26	27.61	-38.5	-39.2	24.9	0.00e+00	0	42	0	1344274432	48	3958
2026-01-29 04:30:53.77	9.06	27.74	-38.3	-39.0	25.1	0.00e+00	0	42	0	1349517312	48	3860
2026-01-29 04:30:54.78	8.85	27.88	-38.2	-38.9	25.2	0.00e+00	0	42	0	1354760192	48	3807
2026-01-29 04:30:55.78	8.64	28.01	-38.2	-38.9	25.2	0.00e+00	0	42	0	1361051648	48	3791
2026-01-29 04:30:56.79	8.43	28.15	-38.2	-38.9	25.2	0.00e+00	0	42	0	1366294528	48	3807
2026-01-29 04:30:57.80	8.21	28.28	-38.2	-38.9	25.3	0.00e+00	0	42	0	1371537408	48	3788
2026-01-29 04:30:58.81	8.00	28.42	-38.1	-38.8	25.3	0.00e+00	0	42	0	1377828864	48	3771
2026-01-29 04:30:59.81	7.78	28.56	-38.1	-38.8	25.3	0.00e+00	0	42	0	1383071744	48	3779
2026-01-29 04:31:00.82	7.56	28.69	-38.2	-38.9	25.2	0.00e+00	0	42	0	1389363200	48	3802
2026-01-29 04:31:01.83	7.34	28.83	-38.2	-38.9	25.2	0.00e+00	0	42	0	1394606080	48	3802
2026-01-29 04:31:02.84	7.12	28.97	-38.2	-38.9	25.2	0.00e+00	0	42	0	1400897536	48	3803
2026-01-29 04:31:03.85	6.89	29.11	-38.1	-38.8	25.3	0.00e+00	0	42	0	1406140416	48	3743
2026-01-29 04:31:04.86	6.67	29.24	-38.1	-38.8	25.3	0.00e+00	0	42	0	1411383296	48	3746
2026-01-29 04:31:05.87	6.44	29.38	-38.1	-38.8	25.3	0.00e+00	0	42	0	1417674752	48	3749
2026-01-29 04:31:06.88	6.20	29.52	-38.1	-38.9	25.2	0.00e+00	0	42	0	1422917632	48	3781
2026-01-29 04:31:07.89	5.97	29.66	-38.3	-39.0	25.2	0.00e+00	0	42	0	1429209088	48	3835
2026-01-29 04:31:08.90	5.74	29.80	-38.3	-39.0	25.2	0.00e+00	0	42	0	1434451968	48	3831
2026-01-29 04:31:09.91	5.50	29.94	-38.2	-38.9	25.2	0.00e+00	0	42	0	1439694848	48	3820
2026-01-29 04:31:10.92	5.26	30.08	-38.0	-38.7	25.4	0.00e+00	0	42	0	1445986304	48	3732
2026-01-29 04:31:11.93	5.02	30.21	-38.0	-38.7	25.4	0.00e+00	0	42	0	1452277760	48	3715
2026-01-29 04:31:12.93	4.78	30.35	-38.0	-38.7	25.4	0.00e+00	0	42	0	1457520640	48	3715
2026-01-29 04:31:13.94	4.53	30.49	-38.1	-38.8	25.4	0.00e+00	0	42	0	1462763520	48	3741
2026-01-29 04:31:14.95	4.28	30.63	-38.1	-38.8	25.4	0.00e+00	0	42	0	1469054976	48	3753
2026-01-29 04:31:15.95	4.03	30.77	-38.1	-38.8	25.3	0.00e+00	0	42	0	1474297856	48	3775
2026-01-29 04:31:16.96	3.78	30.91	-38.1	-38.8	25.3	0.00e+00	0	42	0	1479540736	48	3770
2026-01-29 04:31:17.97	3.53	31.05	-38.2	-38.9	25.3	0.00e+00	0	42	0	1485832192	48	3787
2026-01-29 04:31:18.98	3.27	31.18	-38.1	-38.8	25.4	0.00e+00	0	42	0	1491075072	48	3741
2026-01-29 04:31:19.99	3.01	31.32	-38.1	-38.8	25.3	0.00e+00	0	42	0	1496317952	48	3775
2026-01-29 04:31:21.00	2.75	31.46	-37.7	-38.4	25.3	0.00e+00	0	42	0	1502609408	47	3789
2026-01-29 04:31:22.01	2.49	31.60	-37.8	-38.5	25.2	0.00e+00	0	42	0	1507852288	47	3833
2026-01-29 04:31:23.01	2.22	31.74	-37.8	-38.5	25.1	0.00e+00	0	42	0	1514143744	47	3864
2026-01-29 04:31:24.02	1.95	31.88	-37.7	-38.4	25.3	0.00e+00	0	42	0	1519386624	47	3804
2026-01-29 04:31:25.03	1.68	32.02	-37.7	-38.4	25.2	0.00e+00	0	42	0	1525678080	47	3819
2026-01-29 04:31:26.03	1.41	32.16	-37.9	-38.6	25.1	0.00e+00	0	42	0	1530920960	47	3912
2026-01-29 04:31:27.04	1.14	32.29	-37.8	-38.6	25.1	0.00e+00	0	42	0	1537212416	47	3869
2026-01-29 04:31:28.05	0.86	32.43	-37.8	-38.6	25.1	0.00e+00	0	42	0	1542455296	47	3873
2026-01-29 04:31:29.06	0.58	32.57	-37.7	-38.4	25.2	0.00e+00	0	42	0	1547698176	47	3818
2026-01-29 04:31:30.07	0.30	32.71	-37.7	-38.4	25.3	0.00e+00	0	42	0	1553989632	47	3814
2026-01-29 04:31:31.08	0.01	32.85	-37.8	-38.5	25.2	0.00e+00	0	42	0	1559232512	47	3838
2026-01-29 04:31:32.09	359.72	32.99	-37.8	-38.5	25.2	0.00e+00	0	42	0	1564475392	47	3862
2026-01-29 04:31:33.09	359.44	33.12	-37.9	-38.6	25.1	0.00e+00	0	42	0	1570766848	47	3883
2026-01-29 04:31:34.10	359.15	33.26	-37.9	-38.6	25.1	0.00e+00	0	42	0	1576009728	47	3907
2026-01-29 04:31:35.11	358.85	33.40	-37.8	-38.5	25.2	0.00e+00	0	42	0	1581252608	47	3852
2026-01-29 04:31:36.12	358.55	33.54	-37.9	-38.6	25.1	0.00e+00	0	42	0	1587544064	47	3900
2026-01-29 04:31:37.13	358.25	33.67	-37.8	-38.5	25.2	0.00e+00	0	42	0	1593835520	47	3860
2026-01-29 04:31:38.14	357.95	33.81	-37.6	-38.4	25.3	0.00e+00	0	42	0	1599078400	47	3788
2026-01-29 04:31:39.15	357.65	33.95	-37.5	-38.2	25.4	0.00e+00	0	42	0	1604321280	47	3726
2026-01-29 04:31:40.16	357.34	34.08	-37.5	-38.2	25.4	0.00e+00	0	42	0	1610612736	47	3731
2026-01-29 04:31:41.17	357.03	34.22	-37.4	-38.2	25.5	0.00e+00	0	42	0	1615855616	46	3916
2026-01-29 04:31:42.17	356.72	34.35	-37.5	-38.3	25.4	0.00e+00	0	42	0	1622147072	46	3962
2026-01-29 04:31:43.18	356.40	34.49	-37.5	-38.2	25.5	0.00e+00	0	42	0	1627389952	46	3934
2026-01-29 04:31:44.19	356.08	34.62	-37.6	-38.3	25.4	0.00e+00	0	42	0	1632632832	46	3972
2026-01-29 04:31:45.20	355.76	34.75	-37.5	-38.2	25.5	0.00e+00	0	42	0	1638924288	46	3949
2026-01-29 04:31:46.20	355.44	34.89	-37.5	-38.2	25.5	0.00e+00	0	42	0	1644167168	46	3930
2026-01-29 04:31:47.21	355.12	35.02	-37.6	-38.3	25.4	0.00e+00	0	42	0	1649410048	46	3960
2026-01-29 04:31:48.22	354.79	35.15	-37.5	-38.2	25.5	0.00e+00	0	42	0	1655701504	46	3937
2026-01-29 04:31:49.23	354.46	35.28	-37.5	-38.2	25.5	0.00e+00	0	42	0	1661992960	46	3918
2026-01-29 04:31:50.24	354.12	35.41	-37.5	-38.2	25.5	0.00e+00	0	42	0	1667235840	46	3932
2026-01-29 04:31:51.25	353.78	35.55	-37.6	-38.3	25.4	0.00e+00	0	42	0	1672478720	46	3980
2026-01-29 04:31:52.26	353.45	35.68	-37.6	-38.3	25.4	0.00e+00	0	42	0	1678770176	46	3980
2026-01-29 04:31:53.27	353.10	35.81	-37.7	-38.4	25.4	0.00e+00	0	42	0	1684013056	46	4014
2026-01-29 04:31:54.27	352.76	35.93	-37.7	-38.4	25.3	0.00e+00	0	42	0	1689255936	46	4036
2026-01-29 04:31:55.28	352.41	36.06	-37.8	-38.6	25.2	0.00e+00	0	42	0	1695547392	46	4100
2026-01-29 04:31:56.29	352.06	36.19	-37.9	-38.6	25.2	0.00e+00	0	42	0	1700790272	46	4120
2026-01-29 04:31:57.29	351.71	36.31	-37.9	-38.6	25.2	0.00e+00	0	42	0	1707081728	46	4136
2026-01-29 04:31:58.30	351.36	36.44	-37.8	-38.5	25.3	0.00e+00	0	42	0	1712324608	46	4096
2026-01-29 04:31:59.31	351.00	36.57	-37.8	-38.5	25.3	0.00e+00	0	42	0	1717567488	46	4073
2026-01-29 04:32:00.32	350.63	36.69	-38.0	-38.7	25.1	0.00e+00	0	42	0	1723858944	46	4167
2026-01-29 04:32:01.32	350.27	36.81	-38.0	-38.8	25.0	0.00e+00	0	42	0	1730150400	46	4195
2026-01-29 04:32:02.33	349.91	36.94	-38.0	-38.7	25.1	0.00e+00	0	42	0	1735393280	46	4178
2026-01-29 04:32:03.34	349.54	37.06	-38.0	-38.7	25.1	0.00e+00	0	42	0	1740636160	46	4160
2026-01-29 04:32:04.35	349.16	37.18	-38.0	-38.7	25.1	0.00e+00	0	42	0	1746927616	46	4188
2026-01-29 04:32:05.35	348.79	37.30	-37.8	-38.5	25.3	0.00e+00	0	42	0	1752170496	46	4064
2026-01-29 04:32:06.36	348.41	37.42	-37.5	-38.3	25.5	0.00e+00	0	42	0	1757413376	46	3960
2026-01-29 04:32:07.36	348.04	37.53	-37.7	-38.4	25.4	0.00e+00	0	42	0	1763704832	46	4013
2026-01-29 04:32:08.37	347.65	37.65	-37.8	-38.5	25.3	0.00e+00	0	42	0	1768947712	46	4060
2026-01-29 04:32:09.38	347.26	37.76	-37.8	-38.5	25.3	0.00e+00	0	42	0	1774190592	46	4063
2026-01-29 04:32:10.39	346.88	37.88	-37.9	-38.6	25.2	0.00e+00	0	42	0	1780482048	46	4115
2026-01-29 04:32:11.39	346.49	37.99	-37.8	-38.5	25.3	0.00e+00	0	42	0	1785724928	46	4066
2026-01-29 04:32:12.40	346.09	38.10	-37.8	-38.5	25.3	0.00e+00	0	42	0	1792016384	46	4075
2026-01-29 04:32:13.41	345.69	38.22	-38.0	-38.7	25.1	0.00e+00	0	42	0	1797259264	46	4173
2026-01-29 04:32:14.41	345.30	38.32	-38.0	-38.7	25.1	0.00e+00	0	42	0	1802502144	46	4181
2026-01-29 04:32:15.42	344.89	38.43	-37.8	-38.5	25.3	0.00e+00	0	42	0	1808793600	46	4069
2026-01-29 04:32:16.43	344.49	38.54	-37.7	-38.4	25.4	0.00e+00	0	42	0	1815085056	46	4012
2026-01-29 04:32:17.43	344.08	38.65	-37.7	-38.4	25.4	0.00e+00	0	42	0	1820327936	46	4024
2026-01-29 04:32:18.44	343.67	38.75	-37.8	-38.5	25.3	0.00e+00	0	42	0	1825570816	46	4068
2026-01-29 04:32:19.45	343.26	38.85	-37.8	-38.5	25.4	0.00e+00	0	42	0	1831862272	46	4065
2026-01-29 04:32:20.46	342.84	38.96	-37.9	-38.6	25.2	0.00e+00	0	42	0	1837105152	46	4118
2026-01-29 04:32:21.47	342.42	39.06	-37.8	-38.6	25.3	0.00e+00	0	42	0	1842348032	46	4102
2026-01-29 04:32:22.48	342.00	39.16	-37.6	-38.3	25.5	0.00e+00	0	42	0	1848639488	46	3994
2026-01-29 04:32:23.49	341.58	39.25	-37.7	-38.4	25.4	0.00e+00	0	42	0	1853882368	46	4019
2026-01-29 04:32:24.50	341.15	39.35	-37.8	-38.5	25.4	0.00e+00	0	42	0	1859125248	46	4059
2026-01-29 04:32:25.51	340.72	39.44	-38.0	-38.7	25.2	0.00e+00	0	42	0	1865416704	46	4170
2026-01-29 04:32:26.51	340.29	39.54	-37.9	-38.6	25.3	0.00e+00	0	42	0	1870659584	46	4115
2026-01-29 04:32:27.52	339.86	39.63	-37.9	-38.7	25.2	0.00e+00	0	42	0	1876951040	46	4147
2026-01-29 04:32:28.53	339.42	39.72	-37.6	-38.3	25.5	0.00e+00	0	42	0	1882193920	46	3974
2026-01-29 04:32:29.54	338.98	39.81	-37.4	-38.1	25.7	0.00e+00	0	42	0	1888485376	46	3904
2026-01-29 04:32:30.54	338.54	39.89	-37.6	-38.3	25.5	0.00e+00	0	42	0	1893728256	46	3997
2026-01-29 04:32:31.55	338.10	39.98	-37.5	-38.2	25.6	0.00e+00	0	42	0	1900019712	46	3945
2026-01-29 04:32:32.56	337.65	40.06	-37.5	-38.2	25.6	0.00e+00	0	42	0	1905262592	46	3932
2026-01-29 04:32:33.57	337.21	40.14	-37.5	-38.2	25.6	0.00e+00	0	42	0	1910505472	46	3933
2026-01-29 04:32:34.57	336.76	40.22	-37.5	-38.2	25.6	0.00e+00	0	42	0	1916796928	46	3934
2026-01-29 04:32:35.58	336.31	40.29	-37.8	-38.5	25.4	0.00e+00	0	42	0	1922039808	46	4063
2026-01-29 04:32:36.58	335.85	40.37	-37.9	-38.6	25.3	0.00e+00	0	42	0	1927282688	46	4137
2026-01-29 04:32:37.59	335.40	40.44	-37.8	-38.5	25.4	0.00e+00	0	42	0	1933574144	46	4060
2026-01-29 04:32:38.60	334.94	40.51	-37.9	-38.6	25.3	0.00e+00	0	42	0	1938817024	46	4129
2026-01-29 04:32:39.61	334.48	40.58	-37.9	-38.6	25.3	0.00e+00	0	42	0	1944059904	46	4123
2026-01-29 04:32:40.61	334.02	40.65	-37.8	-38.5	25.3	0.00e+00	0	42	0	1950351360	46	4098
2026-01-29 04:32:41.62	333.55	40.72	-37.7	-38.4	25.4	0.00e+00	0	42	0	1956642816	46	4028
2026-01-29 04:32:42.63	333.09	40.78	-37.7	-38.4	25.5	0.00e+00	0	42	0	1961885696	46	4018
2026-01-29 04:32:43.63	332.62	40.84	-37.6	-38.3	25.5	0.00e+00	0	42	0	1967128576	46	3985
2026-01-29 04:32:44.64	332.15	40.90	-37.7	-38.4	25.5	0.00e+00	0	42	0	1973420032	46	4010
2026-01-29 04:32:45.65	331.68	40.96	-37.4	-38.1	25.7	0.00e+00	0	42	0	1978662912	46	3898
2026-01-29 04:32:46.66	331.20	41.01	-37.3	-38.0	25.8	0.00e+00	0	42	0	1984954368	46	3840
2026-01-29 04:32:47.67	330.73	41.07	-37.3	-38.0	25.8	0.00e+00	0	42	0	1990197248	46	3866
2026-01-29 04:32:48.68	330.25	41.12	-37.3	-38.0	25.9	0.00e+00	0	42	0	1995440128	46	3827
2026-01-29 04:32:49.69	329.77	41.17	-37.3	-38.0	25.8	0.00e+00	0	42	0	2001731584	46	3841
2026-01-29 04:32:50.70	329.29	41.21	-37.4	-38.1	25.8	0.00e+00	0	42	0	2006974464	46	3879
2026-01-29 04:32:51.71	328.81	41.26	-37.5	-38.2	25.7	0.00e+00	0	42	0	2012217344	46	3918
2026-01-29 04:32:52.72	328.33	41.30	-37.5	-38.2	25.7	0.00e+00	0	42	0	2018508800	46	3919
2026-01-29 04:32:53.73	327.84	41.34	-37.6	-38.3	25.6	0.00e+00	0	42	0	2024800256	46	3974
2026-01-29 04:32:54.73	327.36	41.38	-37.6	-38.3	25.6	0.00e+00	0	42	0	2030043136	46	3993
2026-01-29 04:32:55.74	326.88	41.41	-37.6	-38.3	25.5	0.00e+00	0	42	0	2035286016	46	3996
2026-01-29 04:32:56.75	326.39	41.44	-37.5	-38.2	25.6	0.00e+00	0	42	0	2041577472	46	3949
2026-01-29 04:32:57.76	325.90	41.48	-37.6	-38.3	25.6	0.00e+00	0	42	0	2046820352	46	3968
2026-01-29 04:32:58.77	325.41	41.50	-37.4	-38.1	25.7	0.00e+00	0	42	0	2052063232	46	3901
2026-01-29 04:32:59.78	324.92	41.53	-37.5	-38.2	25.7	0.00e+00	0	42	0	2058354688	46	3916
2026-01-29 04:33:00.79	324.43	41.55	-37.7	-38.4	25.5	0.00e+00	0	42	0	2063597568	46	4026
2026-01-29 04:33:01.80	323.94	41.57	-37.9	-38.6	25.2	0.00e+00	0	42	0	2069889024	46	4136
2026-01-29 04:33:02.80	323.45	41.59	-37.7	-38.4	25.4	0.00e+00	0	42	0	2075131904	46	4031
2026-01-29 04:33:03.81	322.96	41.61	-37.4	-38.1	25.7	0.00e+00	0	42	0	2080374784	46	3898
2026-01-29 04:33:04.81	322.47	41.62	-37.5	-38.2	25.7	0.00e+00	0	42	0	2086666240	46	3926
2026-01-29 04:33:05.82	321.98	41.64	-37.4	-38.2	25.7	0.00e+00	0	42	0	2092957696	46	3919
2026-01-29 04:33:06.83	321.48	41.64	-37.3	-38.0	25.8	0.00e+00	0	42	0	2098200576	46	3859
2026-01-29 04:33:07.84	320.99	41.65	-37.3	-38.0	25.8	0.00e+00	0	42	0	2103443456	46	3849
2026-01-29 04:33:08.85	320.50	41.66	-37.5	-38.2	25.7	0.00e+00	0	42	0	2109734912	46	3928
2026-01-29 04:33:09.86	320.00	41.66	-37.9	-38.7	25.3	0.00e+00	0	42	0	2114977792	46	4146
2026-01-29 04:33:10.86	319.51	41.66	-38.0	-38.8	25.2	0.00e+00	0	42	0	2120220672	46	4198
2026-01-29 04:33:11.87	319.02	41.65	-37.6	-38.4	25.6	0.00e+00	0	42	0	2126512128	46	4005
2026-01-29 04:33:12.88	318.52	41.65	-37.5	-38.2	25.6	0.00e+00	0	42	0	2131755008	46	3940
2026-01-29 04:33:13.89	318.03	41.64	-37.7	-38.4	25.5	0.00e+00	0	42	0	2136997888	46	4047
2026-01-29 04:33:14.90	317.53	41.63	-37.8	-38.5	25.4	0.00e+00	0	42	0	2143289344	46	4094
2026-01-29 04:33:15.91	317.04	41.62	-37.6	-38.3	25.6	0.00e+00	0	42	0	2148532224	46	3985
2026-01-29 04:33:16.91	316.55	41.60	-37.4	-38.1	25.8	0.00e+00	0	42	0	2154823680	46	3876
2026-01-29 04:33:17.93	316.05	41.59	-37.3	-38.0	25.9	0.00e+00	0	42	0	2160066560	46	3836
2026-01-29 04:33:18.93	315.57	41.57	-37.4	-38.1	25.8	0.00e+00	0	42	0	2166358016	46	3874
2026-01-29 04:33:19.95	315.07	41.55	-37.7	-38.4	25.5	0.00e+00	0	42	0	2171600896	46	4032
2026-01-29 04:33:20.95	314.59	41.52	-37.7	-38.5	25.5	0.00e+00	0	42	0	2177892352	46	4057
2026-01-29 04:33:21.96	314.10	41.50	-37.7	-38.4	25.5	0.00e+00	0	42	0	2183135232	46	4048
2026-01-29 04:33:22.97	313.61	41.47	-37.6	-38.3	25.6	0.00e+00	0	42	0	2188378112	46	3993
2026-01-29 04:33:23.98	313.12	41.43	-37.7	-38.4	25.5	0.00e+00	0	42	0	2194669568	46	4030
2026-01-29 04:33:24.99	312.63	41.40	-37.8	-38.5	25.4	0.00e+00	0	42	0	2199912448	46	4094
2026-01-29 04:33:26.00	312.14	41.37	-37.8	-38.5	25.4	0.00e+00	0	42	0	2205155328	46	4074
2026-01-29 04:33:27.01	311.66	41.33	-37.8	-38.5	25.4	0.00e+00	0	42	0	2211446784	46	4094
2026-01-29 04:33:28.01	311.18	41.29	-37.8	-38.5	25.4	0.00e+00	0	42	0	2216689664	46	4080
2026-01-29 04:33:29.01	310.70	41.24	-37.8	-38.5	25.4	0.00e+00	0	42	0	2221932544	46	4077
2026-01-29 04:33:30.02	310.22	41.20	-37.8	-38.5	25.4	0.00e+00	0	42	0	2228224000	46	4070
2026-01-29 04:33:31.03	309.74	41.15	-37.6	-38.3	25.6	0.00e+00	0	42	0	2234515456	46	3995
2026-01-29 04:33:32.04	309.26	41.10	-37.4	-38.1	25.8	0.00e+00	0	42	0	2239758336	46	3891
2026-01-29 04:33:33.05	308.79	41.05	-37.2	-37.9	26.0	0.00e+00	0	42	0	2245001216	46	3804
2026-01-29 04:33:34.06	308.31	41.00	-37.3	-38.0	25.9	0.00e+00	0	42	0	2251292672	46	3852
2026-01-29 04:33:35.06	307.84	40.94	-37.5	-38.2	25.7	0.00e+00	0	42	0	2256535552	46	3933
2026-01-29 04:33:36.07	307.37	40.88	-37.5	-38.2	25.7	0.00e+00	0	42	0	2262827008	46	3953
2026-01-29 04:33:37.08	306.90	40.82	-37.4	-38.1	25.8	0.00e+00	0	42	0	2268069888	46	3895
2026-01-29 04:33:38.09	306.43	40.76	-37.5	-38.2	25.7	0.00e+00	0	42	0	2273312768	46	3914
2026-01-29 04:33:39.10	305.96	40.70	-37.6	-38.3	25.6	0.00e+00	0	42	0	2279604224	46	4002
2026-01-29 04:33:40.11	305.50	40.63	-37.8	-38.6	25.4	0.00e+00	0	42	0	2284847104	46	4103
2026-01-29 04:33:41.12	305.03	40.56	-38.0	-38.7	25.3	0.00e+00	0	42	0	2291138560	46	4171
2026-01-29 04:33:42.13	304.57	40.49	-37.8	-38.5	25.5	0.00e+00	0	42	0	2296381440	46	4074
2026-01-29 04:33:43.13	304.12	40.42	-37.9	-38.6	25.4	0.00e+00	0	42	0	2302672896	46	4129
2026-01-29 04:33:44.14	303.66	40.35	-37.7	-38.4	25.6	0.00e+00	0	42	0	2307915776	46	4011
2026-01-29 04:33:45.15	303.21	40.27	-37.7	-38.4	25.6	0.00e+00	0	42	0	2313158656	46	4026
2026-01-29 04:33:46.15	302.76	40.19	-37.5	-38.2	25.7	0.00e+00	0	42	0	2319450112	46	3949
2026-01-29 04:33:47.16	302.31	40.11	-37.5	-38.2	25.8	0.00e+00	0	42	0	2324692992	46	3926
2026-01-29 04:33:48.17	301.86	40.03	-37.5	-38.2	25.8	0.00e+00	0	42	0	2329935872	46	3928
2026-01-29 04:33:49.18	301.41	39.95	-37.2	-37.9	26.0	0.00e+00	0	42	0	2336227328	46	3796
2026-01-29 04:33:50.18	300.97	39.86	-37.4	-38.0	25.9	0.00e+00	0	42	0	2341470208	46	3863
2026-01-29 04:33:51.19	300.53	39.78	-37.6	-38.3	25.7	0.00e+00	0	42	0	2347761664	46	3979
2026-01-29 04:33:52.20	300.09	39.69	-37.8	-38.5	25.5	0.00e+00	0	42	0	2353004544	46	4090
2026-01-29 04:33:53.21	299.66	39.60	-37.9	-38.6	25.4	0.00e+00	0	42	0	2358247424	46	4109
2026-01-29 04:33:54.21	299.23	39.51	-37.9	-38.6	25.4	0.00e+00	0	42	0	2364538880	46	4129
2026-01-29 04:33:55.22	298.80	39.41	-37.9	-38.6	25.4	0.00e+00	0	42	0	2370830336	46	4119
2026-01-29 04:33:56.23	298.37	39.32	-37.9	-38.6	25.4	0.00e+00	0	42	0	2376073216	46	4117
2026-01-29 04:33:57.23	297.94	39.22	-37.6	-38.3	25.6	0.00e+00	0	42	0	2381316096	46	3998
2026-01-29 04:33:58.24	297.52	39.12	-37.5	-38.2	25.8	0.00e+00	0	42	0	2387607552	46	3923
2026-01-29 04:33:59.25	297.10	39.02	-37.4	-38.1	25.8	0.00e+00	0	42	0	2392850432	46	3894
2026-01-29 04:34:00.26	296.68	38.92	-37.5	-38.1	25.8	0.00e+00	0	42	0	2398093312	46	3908
2026-01-29 04:34:01.26	296.27	38.82	-37.6	-38.3	25.7	0.00e+00	0	42	0	2404384768	46	3979
2026-01-29 04:34:02.27	295.85	38.72	-37.6	-38.4	25.6	0.00e+00	0	42	0	2409627648	46	4007
2026-01-29 04:34:03.29	295.44	38.61	-37.8	-38.5	25.5	0.00e+00	0	42	0	2414870528	46	4070
2026-01-29 04:34:04.29	295.03	38.50	-37.6	-38.3	25.7	0.00e+00	0	42	0	2421161984	46	3977
2026-01-29 04:34:05.30	294.63	38.40	-37.4	-38.1	25.8	0.00e+00	0	42	0	2426404864	46	3902
2026-01-29 04:34:06.31	294.23	38.29	-37.5	-38.2	25.7	0.00e+00	0	42	0	2432696320	46	3930
2026-01-29 04:34:07.31	293.83	38.18	-37.5	-38.2	25.7	0.00e+00	0	42	0	2437939200	46	3953
2026-01-29 04:34:08.32	293.43	38.07	-37.5	-38.2	25.8	0.00e+00	0	42	0	2444230656	46	3925
2026-01-29 04:34:09.33	293.04	37.95	-37.6	-38.3	25.7	0.00e+00	0	42	0	2449473536	46	3970
2026-01-29 04:34:10.34	292.64	37.84	-37.6	-38.3	25.6	0.00e+00	0	42	0	2455764992	46	4003
2026-01-29 04:34:11.35	292.26	37.72	-37.6	-38.3	25.7	0.00e+00	0	42	0	2461007872	46	3970
2026-01-29 04:34:12.36	291.87	37.61	-37.6	-38.3	25.6	0.00e+00	0	42	0	2466250752	46	3996
2026-01-29 04:34:13.37	291.49	37.49	-37.6	-38.3	25.7	0.00e+00	0	42	0	2472542208	46	3970
2026-01-29 04:34:14.38	291.10	37.37	-37.4	-38.1	25.8	0.00e+00	0	42	0	2477785088	46	3897
2026-01-29 04:34:15.39	290.73	37.25	-37.5	-38.2	25.8	0.00e+00	0	42	0	2483027968	46	3924
2026-01-29 04:34:16.40	290.35	37.13	-37.6	-38.3	25.7	0.00e+00	0	42	0	2489319424	46	3964
2026-01-29 04:34:17.41	289.98	37.01	-37.7	-38.4	25.6	0.00e+00	0	42	0	2494562304	46	4015
2026-01-29 04:34:18.42	289.61	36.89	-37.6	-38.3	25.7	0.00e+00	0	42	0	2499805184	46	3979
2026-01-29 04:34:19.42	289.25	36.77	-37.7	-38.4	25.6	0.00e+00	0	42	0	2506096640	46	4014
2026-01-29 04:34:20.43	288.88	36.64	-37.8	-38.5	25.5	0.00e+00	0	42	0	2512388096	46	4059
2026-01-29 04:34:21.44	288.52	36.52	-37.9	-38.6	25.4	0.00e+00	0	42	0	2517630976	46	4110
2026-01-29 04:34:22.45	288.16	36.39	-37.7	-38.4	25.6	0.00e+00	0	42	0	2522873856	46	4043
2026-01-29 04:34:23.46	287.81	36.26	-37.7	-38.4	25.6	0.00e+00	0	42	0	2529165312	46	4017
2026-01-29 04:34:24.47	287.45	36.14	-37.8	-38.5	25.5	0.00e+00	0	42	0	2534408192	46	4075
2026-01-29 04:34:25.48	287.10	36.01	-37.8	-38.5	25.5	0.00e+00	0	42	0	2540699648	46	4071
2026-01-29 04:34:26.49	286.75	35.88	-37.9	-38.6	25.5	0.00e+00	0	42	0	2545942528	46	4102
2026-01-29 04:34:27.50	286.41	35.75	-37.9	-38.6	25.4	0.00e+00	0	42	0	2551185408	46	4106
2026-01-29 04:34:28.51	286.07	35.62	-37.9	-38.6	25.4	0.00e+00	0	42	0	2557476864	46	4127
2026-01-29 04:34:29.52	285.73	35.49	-37.8	-38.5	25.5	0.00e+00	0	42	0	2562719744	46	4093
2026-01-29 04:34:30.52	285.39	35.36	-37.7	-38.4	25.6	0.00e+00	0	42	0	2567962624	46	4020
2026-01-29 04:34:31.52	285.06	35.23	-37.6	-38.3	25.6	0.00e+00	0	42	0	2574254080	46	3983
2026-01-29 04:34:32.53	284.73	35.10	-37.7	-38.3	25.6	0.00e+00	0	42	0	2580545536	46	3999
2026-01-29 04:34:33.54	284.40	34.96	-37.7	-38.4	25.5	0.00e+00	0	42	0	2585788416	46	4047
2026-01-29 04:34:34.55	284.08	34.83	-37.7	-38.4	25.6	0.00e+00	0	42	0	2591031296	46	4042
2026-01-29 04:34:35.56	283.76	34.70	-37.6	-38.3	25.7	0.00e+00	0	42	0	2597322752	46	3969
2026-01-29 04:34:36.57	283.44	34.56	-37.6	-38.3	25.7	0.00e+00	0	42	0	2602565632	46	3982
2026-01-29 04:34:37.58	283.12	34.43	-37.7	-38.4	25.6	0.00e+00	0	42	0	2607808512	46	4025
2026-01-29 04:34:38.59	282.80	34.29	-37.7	-38.4	25.6	0.00e+00	0	42	0	2614099968	46	4012
2026-01-29 04:34:39.59	282.49	34.16	-37.6	-38.3	25.7	0.00e+00	0	42	0	2619342848	46	3988
2026-01-29 04:34:40.60	282.18	34.02	-37.5	-38.2	25.8	0.00e+00	0	42	0	2625634304	46	3934
2026-01-29 04:34:41.61	281.88	33.89	-37.6	-38.3	25.6	0.00e+00	0	42	0	2630877184	46	3987
2026-01-29 04:34:42.61	281.57	33.75	-37.6	-38.3	25.6	0.00e+00	0	42	0	2636120064	46	3996
2026-01-29 04:34:43.62	281.27	33.61	-37.6	-38.3	25.7	0.00e+00	0	42	0	2642411520	46	3971
2026-01-29 04:34:44.63	280.97	33.48	-37.7	-38.4	25.6	0.00e+00	0	42	0	2648702976	46	4013
2026-01-29 04:34:45.63	280.68	33.34	-37.6	-38.3	25.6	0.00e+00	0	42	0	2653945856	46	3994
2026-01-29 04:34:46.63	280.39	33.20	-37.5	-38.2	25.7	0.00e+00	0	42	0	2659188736	46	3939
2026-01-29 04:34:47.64	280.09	33.06	-37.6	-38.3	25.6	0.00e+00	0	42	0	2665480192	46	3986
2026-01-29 04:34:48.65	279.80	32.93	-37.6	-38.3	25.6	0.00e+00	0	42	0	2670723072	46	3997
2026-01-29 04:34:49.66	279.52	32.79	-37.6	-38.3	25.6	0.00e+00	0	42	0	2675965952	46	4001
2026-01-29 04:34:50.67	279.23	32.65	-37.6	-38.3	25.6	0.00e+00	0	42	0	2682257408	46	4001
2026-01-29 04:34:51.67	278.95	32.51	-37.6	-38.3	25.6	0.00e+00	0	42	0	2687500288	46	3990
2026-01-29 04:34:52.68	278.67	32.37	-37.8	-38.5	25.4	0.00e+00	0	42	0	2692743168	46	4079
2026-01-29 04:34:53.69	278.40	32.23	-37.9	-38.6	25.3	0.00e+00	0	42	0	2699034624	46	4137
2026-01-29 04:34:54.69	278.12	32.10	-37.9	-38.6	25.3	0.00e+00	0	42	0	2704277504	46	4141
2026-01-29 04:34:55.70	277.85	31.96	-37.9	-38.7	25.3	0.00e+00	0	42	0	2710568960	46	4154
2026-01-29 04:34:56.71	277.58	31.82	-37.8	-38.5	25.4	0.00e+00	0	42	0	2715811840	46	4084
2026-01-29 04:34:57.72	277.31	31.68	-37.7	-38.4	25.5	0.00e+00	0	42	0	2721054720	46	4010
2026-01-29 04:34:58.73	277.05	31.54	-37.7	-38.4	25.5	0.00e+00	0	42	0	2727346176	46	4016
2026-01-29 04:34:59.73	276.78	31.40	-37.7	-38.4	25.5	0.00e+00	0	42	0	2733637632	46	4018
2026-01-29 04:35:00.74	276.52	31.26	-37.8	-38.5	25.4	0.00e+00	0	42	0	2738880512	46	4084
2026-01-29 04:35:01.75	276.26	31.12	-37.9	-38.6	25.3	0.00e+00	0	42	0	2744123392	46	4125
2026-01-29 04:35:02.76	276.01	30.98	-37.9	-38.7	25.2	0.00e+00	0	42	0	2750414848	46	4149
2026-01-29 04:35:03.76	275.76	30.84	-38.1	-38.8	25.1	0.00e+00	0	42	0	2755657728	46	4210
2026-01-29 04:35:04.77	275.50	30.70	-38.1	-38.9	25.0	0.00e+00	0	42	0	2760900608	46	4246
2026-01-29 04:35:05.78	275.25	30.57	-38.3	-39.0	24.9	0.00e+00	0	42	0	2767192064	47	4072
2026-01-29 04:35:06.79	275.01	30.43	-38.4	-39.1	24.8	0.00e+00	0	42	0	2772434944	47	4119
2026-01-29 04:35:07.79	274.76	30.29	-38.4	-39.2	24.8	0.00e+00	0	42	0	2777677824	47	4148
2026-01-29 04:35:08.80	274.52	30.15	-38.5	-39.3	24.7	0.00e+00	0	42	0	2783969280	47	4196
2026-01-29 04:35:09.81	274.28	30.01	-38.4	-39.1	24.8	0.00e+00	0	42	0	2789212160	47	4127
2026-01-29 04:35:10.82	274.04	29.87	-38.4	-39.1	24.8	0.00e+00	0	42	0	2795503616	47	4124
2026-01-29 04:35:11.82	273.80	29.73	-38.4	-39.2	24.8	0.00e+00	0	42	0	2800746496	47	4150
2026-01-29 04:35:12.83	273.57	29.59	-38.3	-39.0	24.9	0.00e+00	0	42	0	2807037952	47	4072
2026-01-29 04:35:13.84	273.33	29.46	-38.3	-39.0	24.9	0.00e+00	0	42	0	2812280832	47	4088
2026-01-29 04:35:14.85	273.10	29.32	-38.3	-39.0	24.9	0.00e+00	0	42	0	2818572288	47	4084
2026-01-29 04:35:15.85	272.88	29.18	-38.3	-39.0	24.9	0.00e+00	0	42	0	2823815168	47	4062
2026-01-29 04:35:16.86	272.65	29.04	-38.4	-39.1	24.8	0.00e+00	0	42	0	2829058048	47	4114
2026-01-29 04:35:17.86	272.42	28.91	-38.3	-39.0	24.8	0.00e+00	0	42	0	2835349504	47	4086
2026-01-29 04:35:18.87	272.20	28.77	-38.1	-38.8	25.0	0.00e+00	0	42	0	2840592384	47	4003
2026-01-29 04:35:19.87	271.98	28.63	-38.2	-38.9	25.0	0.00e+00	0	42	0	2845835264	47	4026
2026-01-29 04:35:20.88	271.76	28.49	-38.2	-38.9	24.9	0.00e+00	0	42	0	2852126720	47	4050
2026-01-29 04:35:21.88	271.55	28.36	-38.1	-38.8	25.1	0.00e+00	0	42	0	2857369600	47	3965
2026-01-29 04:35:22.89	271.33	28.22	-38.2	-38.9	24.9	0.00e+00	0	42	0	2862612480	47	4015
2026-01-29 04:35:23.90	271.12	28.08	-38.3	-39.0	24.9	0.00e+00	0	42	0	2868903936	47	4069
2026-01-29 04:35:24.90	270.91	27.95	-38.2	-38.9	24.9	0.00e+00	0	42	0	2874146816	47	4026
2026-01-29 04:35:25.91	270.70	27.81	-38.2	-38.9	24.9	0.00e+00	0	42	0	2880438272	47	4045
2026-01-29 04:35:26.92	270.49	27.68	-38.2	-39.0	24.9	0.00e+00	0	42	0	2885681152	47	4064
2026-01-29 04:35:27.93	270.28	27.54	-38.4	-39.1	24.7	0.00e+00	0	42	0	2891972608	47	4139
2026-01-29 04:35:28.93	270.08	27.41	-38.4	-39.2	24.7	0.00e+00	0	42	0	2897215488	47	4148
2026-01-29 04:35:29.94	269.87	27.27	-38.3	-39.1	24.8	0.00e+00	0	42	0	2903506944	47	4118
2026-01-29 04:35:30.94	269.68	27.14	-38.4	-39.1	24.8	0.00e+00	0	42	0	2908749824	47	4118
2026-01-29 04:35:31.95	269.48	27.00	-38.2	-39.0	24.9	0.00e+00	0	42	0	2913992704	47	4055
2026-01-29 04:35:32.96	269.28	26.87	-38.4	-39.1	24.8	0.00e+00	0	42	0	2920284160	47	4118
2026-01-29 04:35:33.97	269.08	26.73	-38.4	-39.1	24.7	0.00e+00	0	42	0	2925527040	47	4137
2026-01-29 04:35:34.98	268.89	26.60	-38.4	-39.1	24.7	0.00e+00	0	42	0	2930769920	47	4134
2026-01-29 04:35:35.99	268.69	26.47	-38.4	-39.2	24.7	0.00e+00	0	42	0	2937061376	47	4164
2026-01-29 04:35:37.00	268.50	26.33	-38.5	-39.3	24.6	0.00e+00	0	42	0	2942304256	47	4214
2026-01-29 04:35:38.00	268.31	26.20	-38.4	-39.1	24.7	0.00e+00	0	42	0	2947547136	47	4134
2026-01-29 04:35:39.01	268.13	26.07	-38.4	-39.1	24.7	0.00e+00	0	42	0	2953838592	47	4130
2026-01-29 04:35:40.02	267.94	25.94	-38.5	-39.2	24.6	0.00e+00	0	42	0	2959081472	47	4171
2026-01-29 04:35:41.02	267.76	25.81	-38.5	-39.2	24.6	0.00e+00	0	42	0	2965372928	47	4175
2026-01-29 04:35:42.03	267.57	25.67	-38.5	-39.3	24.5	0.00e+00	0	42	0	2970615808	47	4207
2026-01-29 04:35:43.04	267.39	25.54	-38.6	-39.4	24.4	0.00e+00	0	42	0	2976907264	47	4249
2026-01-29 04:35:44.05	267.21	25.41	-39.0	-39.7	24.6	0.00e+00	0	42	0	2982150144	48	4184
2026-01-29 04:35:45.05	267.03	25.28	-38.9	-39.7	24.7	0.00e+00	0	42	0	2988441600	48	4149
2026-01-29 04:35:46.06	266.85	25.15	-39.0	-39.7	24.6	0.00e+00	0	42	0	2993684480	48	4191
2026-01-29 04:35:47.07	266.68	25.02	-38.8	-39.5	24.8	0.00e+00	0	42	0	2998927360	48	4078
2026-01-29 04:35:48.08	266.50	24.89	-38.8	-39.5	24.8	0.00e+00	0	42	0	3005218816	48	4074
2026-01-29 04:35:49.08	266.33	24.76	-38.8	-39.5	24.8	0.00e+00	0	42	0	3010461696	48	4085
2026-01-29 04:35:50.09	266.16	24.63	-38.9	-39.6	24.7	0.00e+00	0	42	0	3015704576	48	4126
2026-01-29 04:35:51.10	265.99	24.50	-38.9	-39.6	24.7	0.00e+00	0	42	0	3021996032	48	4145
2026-01-29 04:35:52.11	265.82	24.38	-39.0	-39.7	24.6	0.00e+00	0	42	0	3027238912	48	4155
2026-01-29 04:35:53.12	265.65	24.25	-38.9	-39.6	24.7	0.00e+00	0	42	0	3032481792	48	4139
2026-01-29 04:35:54.13	265.49	24.12	-38.9	-39.6	24.7	0.00e+00	0	42	0	3038773248	48	4113
2026-01-29 04:35:55.13	265.32	23.99	-38.8	-39.6	24.7	0.00e+00	0	42	0	3045064704	48	4099
2026-01-29 04:35:56.13	265.16	23.87	-38.8	-39.5	24.7	0.00e+00	0	42	0	3050307584	48	4096
2026-01-29 04:35:57.14	265.00	23.74	-38.7	-39.5	24.8	0.00e+00	0	42	0	3055550464	48	4053
2026-01-29 04:35:58.15	264.84	23.62	-38.7	-39.4	24.8	0.00e+00	0	42	0	3061841920	48	4046
2026-01-29 04:35:59.15	264.68	23.49	-38.7	-39.4	24.8	0.00e+00	0	42	0	3067084800	48	4027
2026-01-29 04:36:00.16	264.52	23.37	-38.7	-39.5	24.8	0.00e+00	0	42	0	3073376256	48	4058
2026-01-29 04:36:01.17	264.37	23.24	-38.7	-39.4	24.9	0.00e+00	0	42	0	3078619136	48	4017
2026-01-29 04:36:02.18	264.21	23.12	-38.6	-39.3	24.9	0.00e+00	0	42	0	3083862016	48	4004
2026-01-29 04:36:03.19	264.06	22.99	-38.6	-39.3	24.9	0.00e+00	0	42	0	3090153472	48	4002
2026-01-29 04:36:04.19	263.91	22.87	-38.7	-39.4	24.8	0.00e+00	0	42	0	3095396352	48	4020
2026-01-29 04:36:05.20	263.75	22.75	-38.7	-39.4	24.8	0.00e+00	0	42	0	3100639232	48	4038
2026-01-29 04:36:06.21	263.60	22.62	-38.8	-39.5	24.7	0.00e+00	0	42	0	3106930688	48	4088
2026-01-29 04:36:07.22	263.45	22.50	-39.0	-39.7	24.5	0.00e+00	0	42	0	3112173568	48	4164
2026-01-29 04:36:08.22	263.31	22.38	-38.9	-39.7	24.6	0.00e+00	0	42	0	3118465024	48	4155
2026-01-29 04:36:09.23	263.16	22.26	-39.2	-39.9	24.3	0.00e+00	0	42	0	3123707904	48	4272
2026-01-29 04:36:10.24	263.01	22.13	-39.1	-39.8	24.4	0.00e+00	0	42	0	3129999360	48	4228
2026-01-29 04:36:11.25	262.87	22.01	-39.1	-39.8	24.4	0.00e+00	0	42	0	3135242240	48	4217
2026-01-29 04:36:12.26	262.73	21.89	-39.1	-39.8	24.4	0.00e+00	0	42	0	3140485120	48	4206
2026-01-29 04:36:13.27	262.58	21.77	-39.2	-39.9	24.3	0.00e+00	0	42	0	3146776576	48	4275
2026-01-29 04:36:14.28	262.44	21.65	-39.2	-39.9	24.3	0.00e+00	0	42	0	3152019456	49	4034
2026-01-29 04:36:15.28	262.30	21.53	-39.3	-40.0	24.2	0.00e+00	0	42	0	3158310912	49	4069
2026-01-29 04:36:16.29	262.16	21.41	-39.2	-39.9	24.3	0.00e+00	0	42	0	3163553792	49	4049
2026-01-29 04:36:17.30	262.03	21.29	-39.1	-39.8	24.4	0.00e+00	0	42	0	3168796672	49	3991
2026-01-29 04:36:18.31	261.89	21.17	-39.2	-39.9	24.3	0.00e+00	0	42	0	3175088128	49	4025
2026-01-29 04:36:19.31	261.75	21.06	-39.2	-39.9	24.3	0.00e+00	0	42	0	3180331008	49	4028
2026-01-29 04:36:20.32	261.62	20.94	-39.1	-39.8	24.4	0.00e+00	0	42	0	3186622464	49	4003
2026-01-29 04:36:21.33	261.49	20.82	-39.1	-39.9	24.4	0.00e+00	0	42	0	3191865344	49	4005
2026-01-29 04:36:22.33	261.35	20.71	-39.2	-39.9	24.3	0.00e+00	0	42	0	3198156800	49	4051
2026-01-29 04:36:23.34	261.22	20.59	-39.2	-40.0	24.3	0.00e+00	0	42	0	3203399680	49	4061
2026-01-29 04:36:24.34	261.09	20.47	-39.2	-40.0	24.2	0.00e+00	0	42	0	3208642560	49	4068
2026-01-29 04:36:25.35	260.96	20.36	-39.3	-40.1	24.2	0.00e+00	0	42	0	3214934016	49	4108
2026-01-29 04:36:26.36	260.83	20.24	-39.3	-40.1	24.2	0.00e+00	0	42	0	3220176896	49	4100
2026-01-29 04:36:27.37	260.71	20.13	-39.2	-40.0	24.2	0.00e+00	0	42	0	3225419776	49	4061
2026-01-29 04:36:28.37	260.58	20.01	-39.4	-40.1	24.0	0.00e+00	0	42	0	3231711232	49	4139
2026-01-29 04:36:29.38	260.45	19.90	-39.4	-40.1	24.1	0.00e+00	0	42	0	3236954112	49	4123
2026-01-29 04:36:30.39	260.33	19.78	-39.5	-40.2	24.0	0.00e+00	0	42	0	3243245568	49	4173
2026-01-29 04:36:31.40	260.21	19.67	-39.6	-40.3	23.8	0.00e+00	0	42	0	3248488448	49	4242
2026-01-29 04:36:32.41	260.08	19.56	-39.5	-40.3	23.9	0.00e+00	0	42	0	3253731328	49	4212
2026-01-29 04:36:33.41	259.96	19.44	-39.6	-40.4	23.8	0.00e+00	0	42	0	3260022784	49	4266
2026-01-29 04:36:34.41	259.84	19.33	-39.7	-40.4	23.8	0.00e+00	0	42	0	3265265664	49	4286
2026-01-29 04:36:35.42	259.72	19.22	-39.6	-40.4	23.8	0.00e+00	0	42	0	3271557120	50	4031
2026-01-29 04:36:36.43	259.60	19.11	-39.6	-40.4	23.8	0.00e+00	0	42	0	3276800000	50	4033
2026-01-29 04:36:37.43	259.49	19.00	-39.7	-40.4	23.8	0.00e+00	0	42	0	3283091456	50	4049
2026-01-29 04:36:38.44	259.37	18.89	-39.6	-40.3	23.9	0.00e+00	0	42	0	3288334336	50	3989
2026-01-29 04:36:39.45	259.25	18.78	-39.5	-40.2	24.0	0.00e+00	0	42	0	3293577216	50	3951
2026-01-29 04:36:40.46	259.14	18.67	-39.5	-40.2	23.9	0.00e+00	0	42	0	3299868672	50	3953
2026-01-29 04:36:41.46	259.02	18.56	-39.5	-40.2	23.9	0.00e+00	0	42	0	3305111552	50	3942
2026-01-29 04:36:42.47	258.91	18.45	-39.5	-40.2	23.9	0.00e+00	0	42	0	3310354432	50	3951
2026-01-29 04:36:43.48	258.79	18.34	-39.6	-40.4	23.8	0.00e+00	0	42	0	3316645888	50	4015
2026-01-29 04:36:44.49	258.68	18.23	-39.8	-40.5	23.7	0.00e+00	0	42	0	3321888768	50	4076
2026-01-29 04:36:45.50	258.57	18.12	-39.8	-40.6	23.6	0.00e+00	0	42	0	3328180224	50	4103
2026-01-29 04:36:46.51	258.46	18.01	-39.9	-40.7	23.5	0.00e+00	0	42	0	3333423104	50	4155
2026-01-29 04:36:47.52	258.35	17.90	-40.0	-40.8	23.5	0.00e+00	0	42	0	3338665984	50	4197
2026-01-29 04:36:48.53	258.24	17.80	-40.2	-41.0	23.3	0.00e+00	0	42	0	3344957440	50	4297
2026-01-29 04:36:49.53	258.13	17.69	-40.1	-40.9	23.3	0.00e+00	0	42	0	3351248896	50	4263
2026-01-29 04:36:50.54	258.02	17.58	-40.0	-40.8	23.4	0.00e+00	0	42	0	3356491776	50	4224
2026-01-29 04:36:51.55	257.92	17.48	-40.2	-41.0	23.2	0.00e+00	0	42	0	3361734656	50	4298
2026-01-29 04:36:52.56	257.81	17.37	-40.2	-40.9	23.2	0.00e+00	0	42	0	3368026112	50	4288
2026-01-29 04:36:53.57	257.71	17.26	-40.3	-41.1	23.1	0.00e+00	0	42	0	3373268992	51	4103
2026-01-29 04:36:54.58	257.60	17.16	-40.2	-41.0	23.2	0.00e+00	0	42	0	3378511872	51	4060
2026-01-29 04:36:55.59	257.50	17.05	-40.3	-41.0	23.2	0.00e+00	0	42	0	3384803328	51	4095
2026-01-29 04:36:56.60	257.39	16.95	-40.3	-41.0	23.1	0.00e+00	0	42	0	3390046208	51	4092
2026-01-29 04:36:57.61	257.29	16.85	-40.2	-41.0	23.2	0.00e+00	0	42	0	3395289088	51	4067
2026-01-29 04:36:58.62	257.19	16.74	-40.3	-41.1	23.1	0.00e+00	0	42	0	3401580544	51	4120
2026-01-29 04:36:59.63	257.09	16.64	-40.3	-41.1	23.1	0.00e+00	0	42	0	3407872000	51	4109
2026-01-29 04:37:00.64	256.99	16.53	-40.3	-41.0	23.1	0.00e+00	0	42	0	3413114880	51	4096
2026-01-29 04:37:01.64	256.89	16.43	-40.2	-41.0	23.2	0.00e+00	0	42	0	3418357760	51	4086
2026-01-29 04:37:02.65	256.79	16.33	-40.2	-41.0	23.2	0.00e+00	0	42	0	3424649216	51	4076
2026-01-29 04:37:03.66	256.69	16.23	-40.3	-41.1	23.1	0.00e+00	0	42	0	3429892096	51	4105
2026-01-29 04:37:04.67	256.60	16.13	-40.3	-41.1	23.1	0.00e+00	0	42	0	3436183552	51	4105
2026-01-29 04:37:05.68	256.50	16.02	-40.4	-41.2	23.0	0.00e+00	0	42	0	3441426432	51	4167
2026-01-29 04:37:06.68	256.40	15.92	-40.5	-41.2	22.9	0.00e+00	0	42	0	3446669312	51	4186
2026-01-29 04:37:07.69	256.31	15.82	-40.4	-41.1	23.0	0.00e+00	0	42	0	3452960768	51	4142
2026-01-29 04:37:08.69	256.22	15.72	-40.5	-41.2	22.9	0.00e+00	0	42	0	3458203648	51	4192
2026-01-29 04:37:09.70	256.12	15.62	-40.4	-41.2	22.9	0.00e+00	0	42	0	3463446528	51	4182
2026-01-29 04:37:10.71	256.03	15.52	-40.5	-41.3	22.8	0.00e+00	0	42	0	3469737984	51	4233
2026-01-29 04:37:11.71	255.94	15.42	-40.5	-41.4	22.8	0.00e+00	0	42	0	3474980864	51	4243
2026-01-29 04:37:12.73	255.84	15.32	-40.6	-41.4	22.7	0.00e+00	0	42	0	3481272320	51	4278
2026-01-29 04:37:13.73	255.75	15.23	-40.6	-41.4	22.8	0.00e+00	0	42	0	3486515200	51	4264
2026-01-29 04:37:14.74	255.66	15.13	-40.7	-41.5	22.7	0.00e+00	0	42	0	3492806656	51	4304
2026-01-29 04:37:15.75	255.57	15.03	-40.6	-41.5	22.7	0.00e+00	0	42	0	3498049536	51	4296
2026-01-29 04:37:16.76	255.48	14.93	-40.7	-41.6	22.5	0.00e+00	0	42	0	3503292416	52	4112
2026-01-29 04:37:17.76	255.39	14.83	-40.6	-41.5	22.6	0.00e+00	0	42	0	3509583872	52	4060
2026-01-29 04:37:18.77	255.30	14.74	-40.7	-41.5	22.5	0.00e+00	0	42	0	3514826752	52	4086
2026-01-29 04:37:19.78	255.22	14.64	-40.7	-41.6	22.5	0.00e+00	0	42	0	3521118208	52	4111
2026-01-29 04:37:20.79	255.13	14.54	-40.7	-41.5	22.6	0.00e+00	0	42	0	3526361088	52	4063
2026-01-29 04:37:21.79	255.04	14.45	-40.8	-41.6	22.4	0.00e+00	0	42	0	3531603968	52	4127
2026-01-29 04:37:22.80	254.96	14.35	-40.8	-41.6	22.4	0.00e+00	0	42	0	3537895424	52	4145
2026-01-29 04:37:23.80	254.87	14.26	-40.8	-41.6	22.4	0.00e+00	0	42	0	3543138304	52	4134
2026-01-29 04:37:24.81	254.79	14.16	-40.8	-41.7	22.4	0.00e+00	0	42	0	3548381184	52	4157
2026-01-29 04:37:25.81	254.70	14.07	-40.9	-41.7	22.3	0.00e+00	0	42	0	3554672640	52	4182
2026-01-29 04:37:26.82	254.62	13.97	-40.9	-41.7	22.3	0.00e+00	0	42	0	3560964096	52	4172
2026-01-29 04:37:27.83	254.54	13.88	-40.9	-41.7	22.3	0.00e+00	0	42	0	3566206976	52	4179
2026-01-29 04:37:28.84	254.45	13.78	-40.9	-41.7	22.3	0.00e+00	0	42	0	3571449856	52	4166
2026-01-29 04:37:29.85	254.37	13.69	-40.9	-41.7	22.3	0.00e+00	0	42	0	3577741312	52	4184
2026-01-29 04:37:30.86	254.29	13.60	-40.8	-41.6	22.4	0.00e+00	0	42	0	3582984192	52	4117
2026-01-29 04:37:31.87	254.21	13.50	-40.9	-41.8	22.3	0.00e+00	0	42	0	3588227072	52	4197
2026-01-29 04:37:32.88	254.13	13.41	-40.9	-41.8	22.3	0.00e+00	0	42	0	3594518528	52	4194
2026-01-29 04:37:33.89	254.05	13.32	-40.9	-41.8	22.3	0.00e+00	0	42	0	3599761408	52	4196
2026-01-29 04:37:34.90	253.97	13.22	-41.0	-41.8	22.2	0.00e+00	0	42	0	3606052864	52	4206
2026-01-29 04:37:35.91	253.89	13.13	-40.9	-41.7	22.3	0.00e+00	0	42	0	3611295744	52	4169
2026-01-29 04:37:36.91	253.81	13.04	-41.0	-41.9	22.1	0.00e+00	0	42	0	3616538624	52	4250
2026-01-29 04:37:37.92	253.73	12.95	-40.9	-41.7	22.3	0.00e+00	0	42	0	3622830080	52	4174
2026-01-29 04:37:38.93	253.66	12.86	-41.0	-41.8	22.2	0.00e+00	0	42	0	3629121536	52	4240
2026-01-29 04:37:39.94	253.58	12.77	-41.1	-41.9	22.1	0.00e+00	0	42	0	3634364416	52	4270
2026-01-29 04:37:40.95	253.50	12.68	-41.2	-42.0	22.0	0.00e+00	0	42	0	3639607296	52	4322
2026-01-29 04:37:41.96	253.43	12.59	-41.1	-42.0	22.0	0.00e+00	0	42	0	3645898752	52	4304
2026-01-29 04:37:42.97	253.35	12.50	-41.2	-42.1	21.9	0.00e+00	0	42	0	3651141632	53	4114
2026-01-29 04:37:43.98	253.27	12.41	-41.3	-42.1	21.9	0.00e+00	0	42	0	3656384512	53	4139
2026-01-29 04:37:44.99	253.20	12.32	-41.3	-42.1	21.9	0.00e+00	0	42	0	3662675968	53	4137
2026-01-29 04:37:45.99	253.13	12.23	-41.4	-42.2	21.8	0.00e+00	0	42	0	3667918848	53	4184
