passes_logs/2026/01/29/R3.2S_Murmansk/R3.2S_Murmansk__20260129_024559_FENGYUN_3D_rec.log

#Pass ID: 20260129_024559_FENGYUN 3D
#Satellite: FENGYUN 3D
#Configuration: FENGYUN 3D
#almurnet v.1.7.20251203
#Start time: 2026-01-29 02:45:59

#Version: 2.2.20231116
#Station: R3.2S_Murmansk
#Location: 33.079688 lon 68.888172 lat
#TLE: 1 43010U 17072A   26027.97130493  .00000326  00000+0  17586-3 0  9998
#TLE: 2 43010  98.9960 359.9900 0002514  87.8428 272.3036 14.19701925425097

#Time	Az	El	Level	Level2	SNR	BER	BlckErr	Temp	State	Recorded	gain1	gain2
2026-01-29 02:45:59.41	25.01	1.99	-53.9	-65.9	3.8	8.46e-01	0	40	0	0	78	15104
2026-01-29 02:46:00.41	25.01	2.06	-53.9	-65.9	3.8	8.46e-01	0	40	104	0	78	15123
2026-01-29 02:46:01.42	25.02	2.12	-53.9	-65.9	3.8	8.46e-01	0	40	104	0	78	15078
2026-01-29 02:46:02.42	25.02	2.19	-53.9	-65.9	3.8	8.46e-01	0	40	104	0	78	15166
2026-01-29 02:46:03.42	25.03	2.25	-54.0	-66.0	3.8	8.45e-01	0	40	104	0	78	15253
2026-01-29 02:46:04.43	25.03	2.32	-54.1	-66.0	3.8	8.47e-01	0	40	104	0	78	15391
2026-01-29 02:46:05.44	25.04	2.38	-54.1	-66.0	3.8	8.46e-01	0	40	104	0	78	15394
2026-01-29 02:46:06.45	25.04	2.45	-54.1	-66.1	3.8	8.46e-01	0	40	104	0	78	15440
2026-01-29 02:46:07.45	25.05	2.51	-54.1	-66.1	3.8	8.46e-01	0	40	104	0	78	15476
2026-01-29 02:46:08.46	25.05	2.58	-54.2	-66.1	3.8	8.46e-01	0	40	104	0	79	14668
2026-01-29 02:46:09.47	25.06	2.64	-54.1	-66.1	3.8	8.46e-01	0	41	104	0	79	14654
2026-01-29 02:46:10.48	25.06	2.71	-54.1	-66.1	3.8	8.47e-01	0	40	104	0	79	14620
2026-01-29 02:46:11.49	25.07	2.78	-54.1	-66.0	3.8	8.48e-01	0	40	104	0	79	14532
2026-01-29 02:46:12.49	25.07	2.84	-54.1	-66.1	3.8	8.46e-01	0	40	104	0	79	14637
2026-01-29 02:46:13.50	25.08	2.91	-54.1	-66.1	3.8	8.47e-01	0	41	104	0	79	14595
2026-01-29 02:46:14.51	25.09	2.97	-54.1	-66.1	3.8	8.46e-01	0	40	104	0	79	14579
2026-01-29 02:46:15.52	25.09	3.04	-54.0	-66.0	3.8	8.46e-01	0	41	104	0	79	14452
2026-01-29 02:46:16.53	25.10	3.11	-54.0	-65.9	3.8	8.46e-01	0	41	104	0	79	14309
2026-01-29 02:46:17.54	25.10	3.17	-53.9	-65.8	3.8	8.46e-01	0	41	104	0	79	14185
2026-01-29 02:46:18.54	25.11	3.24	-53.8	-65.7	3.8	8.46e-01	0	41	104	0	79	13995
2026-01-29 02:46:19.55	25.11	3.31	-53.6	-65.6	3.8	8.46e-01	0	41	104	0	79	13773
2026-01-29 02:46:20.56	25.12	3.38	-53.5	-65.4	3.8	8.47e-01	0	41	104	0	79	13530
2026-01-29 02:46:21.57	25.12	3.44	-53.3	-65.3	3.8	8.47e-01	0	41	104	0	78	14070
2026-01-29 02:46:22.58	25.13	3.51	-53.1	-65.0	3.8	8.46e-01	0	41	104	0	78	13684
2026-01-29 02:46:23.59	25.13	3.58	-52.8	-64.7	3.8	8.46e-01	0	41	104	0	77	14030
2026-01-29 02:46:24.59	25.14	3.65	-52.4	-64.1	3.8	8.46e-01	0	41	104	0	76	13817
2026-01-29 02:46:25.60	25.14	3.72	-51.1	-58.3	4.9	8.41e-01	0	41	104	0	74	7920
2026-01-29 02:46:26.61	25.15	3.78	-50.9	-57.3	5.5	7.36e-01	0	41	0	0	73	7531
2026-01-29 02:46:27.62	25.15	3.85	-50.5	-56.1	6.4	3.04e-01	0	41	0	5242880	73	6526
2026-01-29 02:46:28.63	25.16	3.92	-50.2	-55.0	7.4	1.67e-01	0	41	0	10485760	72	6111
2026-01-29 02:46:29.64	25.16	3.99	-49.7	-53.9	8.6	6.16e-02	0	41	0	15728640	71	5660
2026-01-29 02:46:30.65	25.17	4.06	-49.3	-52.8	9.7	2.00e-02	0	41	0	22020096	70	5335
2026-01-29 02:46:31.66	25.17	4.13	-48.7	-51.8	10.7	5.91e-03	0	41	0	27262976	69	5039
2026-01-29 02:46:32.67	25.18	4.20	-48.5	-51.5	11.1	2.96e-03	0	41	0	33554432	69	4830
2026-01-29 02:46:33.67	25.18	4.27	-48.3	-51.1	11.5	1.12e-03	0	41	0	38797312	68	4914
2026-01-29 02:46:34.68	25.19	4.34	-48.3	-51.0	11.6	1.13e-03	0	41	0	44040192	68	4853
2026-01-29 02:46:35.69	25.20	4.41	-48.4	-51.2	11.4	1.28e-03	0	41	0	50331648	68	4975
2026-01-29 02:46:36.70	25.20	4.48	-48.7	-51.9	10.7	4.24e-03	0	41	0	55574528	68	5363
2026-01-29 02:46:37.71	25.21	4.55	-49.0	-52.4	10.2	7.63e-03	0	41	0	60817408	68	5659
2026-01-29 02:46:38.71	25.21	4.62	-49.2	-52.8	9.7	9.71e-03	0	41	0	67108864	68	5991
2026-01-29 02:46:39.72	25.22	4.69	-49.6	-53.6	8.9	2.66e-02	0	41	0	73400320	69	6141
2026-01-29 02:46:40.73	25.22	4.76	-49.9	-54.4	8.0	4.65e-02	0	41	0	78643200	70	6386
2026-01-29 02:46:41.74	25.23	4.83	-50.4	-55.8	6.7	1.76e-01	0	41	0	83886080	71	7063
2026-01-29 02:46:42.75	25.23	4.91	-51.0	-58.0	5.1	6.62e-01	0	41	0	88080384	72	8591
2026-01-29 02:46:43.75	25.24	4.98	-51.3	-60.0	4.2	8.20e-01	0	41	0	88080384	73	10271
2026-01-29 02:46:44.76	25.24	5.05	-51.5	-61.6	3.8	8.44e-01	0	41	104	88080384	73	12281
2026-01-29 02:46:45.77	25.25	5.12	-45.2	-46.5	16.1	3.84e-01	0	41	0	88080384	62	4089
2026-01-29 02:46:46.78	25.25	5.19	-47.3	-49.6	13.3	3.40e-06	0	41	0	94371840	65	4881
2026-01-29 02:46:47.79	25.26	5.27	-51.5	-61.5	3.8	4.34e-01	0	41	104	97517568	74	11525
2026-01-29 02:46:48.80	25.26	5.34	-45.6	-47.1	6.0	8.18e-01	0	41	104	97517568	63	4116
2026-01-29 02:46:49.80	25.27	5.41	-50.7	-56.4	6.5	3.68e-03	0	41	0	99614720	72	7126
2026-01-29 02:46:50.81	25.27	5.48	-45.0	-46.3	16.5	1.95e-01	0	41	0	105906176	62	3989
2026-01-29 02:46:51.82	25.28	5.56	-44.2	-45.4	17.8	0.00e+00	0	41	0	112197632	59	4273
2026-01-29 02:46:52.83	25.29	5.63	-43.6	-44.7	18.5	0.00e+00	0	41	0	117440512	59	3948
2026-01-29 02:46:53.84	25.29	5.70	-43.6	-44.7	18.6	0.00e+00	0	41	0	122683392	58	4174
2026-01-29 02:46:54.85	25.30	5.78	-43.3	-44.5	18.8	0.00e+00	0	41	0	128974848	58	4061
2026-01-29 02:46:55.85	25.30	5.85	-43.6	-44.8	18.6	0.00e+00	0	41	0	134217728	58	4194
2026-01-29 02:46:56.86	25.31	5.93	-43.8	-45.0	18.3	0.00e+00	0	41	0	139460608	58	4334
2026-01-29 02:46:57.87	25.31	6.00	-43.5	-44.6	18.7	0.00e+00	0	41	0	145752064	58	4136
2026-01-29 02:46:58.88	25.32	6.07	-43.1	-44.2	19.2	0.00e+00	0	41	0	150994944	58	3929
2026-01-29 02:46:59.88	25.32	6.15	-43.0	-44.0	19.3	0.00e+00	0	41	0	157286400	57	4091
2026-01-29 02:47:00.89	25.33	6.22	-42.8	-43.9	19.5	0.00e+00	0	42	0	162529280	57	4012
2026-01-29 02:47:01.89	25.33	6.30	-42.7	-43.8	19.6	0.00e+00	0	42	0	167772160	57	3979
2026-01-29 02:47:02.91	25.34	6.38	-42.9	-43.9	19.5	0.00e+00	0	42	0	174063616	57	4049
2026-01-29 02:47:03.92	25.34	6.45	-42.7	-43.8	19.7	0.00e+00	0	41	0	180355072	57	3968
2026-01-29 02:47:04.93	25.35	6.53	-42.7	-43.7	19.7	0.00e+00	0	41	0	185597952	57	3940
2026-01-29 02:47:05.94	25.36	6.60	-42.8	-43.9	19.6	0.00e+00	0	41	0	190840832	57	4007
2026-01-29 02:47:06.94	25.36	6.68	-42.6	-43.6	19.8	0.00e+00	0	41	0	197132288	57	3905
2026-01-29 02:47:07.95	25.37	6.76	-42.5	-43.6	19.9	0.00e+00	0	41	0	202375168	57	3870
2026-01-29 02:47:08.96	25.37	6.83	-42.4	-43.4	20.1	0.00e+00	0	42	0	207618048	56	4020
2026-01-29 02:47:09.97	25.38	6.91	-42.3	-43.3	20.2	0.00e+00	0	42	0	213909504	56	3969
2026-01-29 02:47:10.97	25.38	6.99	-42.5	-43.5	19.9	0.00e+00	0	41	0	219152384	56	4087
2026-01-29 02:47:11.98	25.39	7.06	-42.3	-43.3	20.1	0.00e+00	0	42	0	224395264	56	3990
2026-01-29 02:47:12.99	25.39	7.14	-42.2	-43.2	20.3	0.00e+00	0	42	0	230686720	56	3929
2026-01-29 02:47:14.00	25.40	7.22	-42.3	-43.3	20.2	0.00e+00	0	41	0	235929600	56	3966
2026-01-29 02:47:15.01	25.40	7.30	-42.3	-43.3	20.2	0.00e+00	0	41	0	242221056	56	3994
2026-01-29 02:47:16.01	25.41	7.38	-42.3	-43.3	20.2	0.00e+00	0	42	0	247463936	56	3989
2026-01-29 02:47:17.03	25.42	7.46	-42.2	-43.1	20.4	0.00e+00	0	42	0	253755392	56	3900
2026-01-29 02:47:18.04	25.42	7.54	-42.2	-43.1	20.4	0.00e+00	0	41	0	258998272	56	3910
2026-01-29 02:47:19.05	25.43	7.61	-42.2	-43.2	20.4	0.00e+00	0	42	0	265289728	56	3928
2026-01-29 02:47:20.05	25.43	7.69	-42.1	-43.1	20.4	0.00e+00	0	42	0	270532608	56	3900
2026-01-29 02:47:21.06	25.44	7.77	-42.2	-43.2	20.3	0.00e+00	0	42	0	275775488	56	3935
2026-01-29 02:47:22.07	25.44	7.85	-42.1	-43.0	20.5	0.00e+00	0	42	0	282066944	56	3856
2026-01-29 02:47:23.08	25.45	7.93	-42.1	-43.0	20.5	0.00e+00	0	42	0	287309824	56	3852
2026-01-29 02:47:24.09	25.45	8.01	-42.1	-43.0	20.5	0.00e+00	0	42	0	292552704	56	3857
2026-01-29 02:47:25.10	25.46	8.10	-42.0	-42.9	20.6	0.00e+00	0	42	0	298844160	56	3822
2026-01-29 02:47:26.10	25.46	8.18	-41.9	-42.9	20.6	0.00e+00	0	42	0	304087040	55	4020
2026-01-29 02:47:27.11	25.47	8.26	-41.9	-42.8	20.6	0.00e+00	0	42	0	310378496	55	4001
2026-01-29 02:47:28.12	25.48	8.34	-41.9	-42.8	20.7	0.00e+00	0	42	0	315621376	55	3987
2026-01-29 02:47:29.13	25.48	8.42	-41.8	-42.7	20.8	0.00e+00	0	42	0	321912832	55	3944
2026-01-29 02:47:30.13	25.49	8.50	-41.7	-42.6	20.8	0.00e+00	0	42	0	327155712	55	3911
2026-01-29 02:47:31.14	25.49	8.59	-41.8	-42.7	20.8	0.00e+00	0	42	0	332398592	55	3942
2026-01-29 02:47:32.15	25.50	8.67	-41.8	-42.7	20.8	0.00e+00	0	42	0	338690048	55	3958
2026-01-29 02:47:33.16	25.50	8.75	-41.8	-42.8	20.7	0.00e+00	0	42	0	343932928	55	3959
2026-01-29 02:47:34.17	25.51	8.83	-41.7	-42.6	20.9	0.00e+00	0	42	0	350224384	55	3901
2026-01-29 02:47:35.18	25.51	8.92	-41.8	-42.8	20.8	0.00e+00	0	42	0	355467264	55	3964
2026-01-29 02:47:36.18	25.52	9.00	-41.7	-42.6	20.9	0.00e+00	0	42	0	360710144	55	3906
2026-01-29 02:47:37.19	25.53	9.08	-41.7	-42.6	20.9	0.00e+00	0	42	0	367001600	55	3885
2026-01-29 02:47:38.20	25.53	9.17	-41.7	-42.6	20.9	0.00e+00	0	42	0	372244480	55	3903
2026-01-29 02:47:39.21	25.54	9.25	-41.7	-42.6	21.0	0.00e+00	0	42	0	377487360	55	3881
2026-01-29 02:47:40.22	25.54	9.34	-41.6	-42.5	21.0	0.00e+00	0	42	0	383778816	55	3859
2026-01-29 02:47:41.24	25.55	9.43	-41.6	-42.5	21.1	0.00e+00	0	42	0	390070272	55	3843
2026-01-29 02:47:42.24	25.55	9.51	-41.7	-42.6	20.9	0.00e+00	0	42	0	395313152	55	3892
2026-01-29 02:47:43.25	25.56	9.60	-41.7	-42.6	21.0	0.00e+00	0	42	0	400556032	55	3878
2026-01-29 02:47:44.26	25.56	9.68	-41.8	-42.7	20.9	0.00e+00	0	42	0	406847488	55	3936
2026-01-29 02:47:45.27	25.57	9.77	-41.7	-42.7	20.9	0.00e+00	0	42	0	412090368	55	3923
2026-01-29 02:47:46.28	25.58	9.86	-41.6	-42.5	21.1	0.00e+00	0	42	0	418381824	55	3856
2026-01-29 02:47:47.29	25.58	9.94	-41.6	-42.5	21.1	0.00e+00	0	42	0	423624704	55	3862
2026-01-29 02:47:48.30	25.59	10.03	-41.5	-42.4	21.2	0.00e+00	0	42	0	428867584	55	3793
2026-01-29 02:47:49.31	25.59	10.12	-41.5	-42.4	21.2	0.00e+00	0	42	0	435159040	54	4017
2026-01-29 02:47:50.32	25.60	10.21	-41.4	-42.3	21.3	0.00e+00	0	42	0	440401920	54	3985
2026-01-29 02:47:51.32	25.60	10.29	-41.4	-42.3	21.3	0.00e+00	0	42	0	446693376	54	3981
2026-01-29 02:47:52.33	25.61	10.38	-41.4	-42.3	21.3	0.00e+00	0	42	0	451936256	54	3969
2026-01-29 02:47:53.34	25.62	10.47	-41.4	-42.3	21.3	0.00e+00	0	42	0	458227712	54	3993
2026-01-29 02:47:54.35	25.62	10.56	-41.4	-42.3	21.4	0.00e+00	0	42	0	463470592	54	3974
2026-01-29 02:47:55.35	25.63	10.65	-41.4	-42.3	21.3	0.00e+00	0	42	0	468713472	54	3992
2026-01-29 02:47:56.36	25.63	10.74	-41.3	-42.2	21.5	0.00e+00	0	42	0	475004928	54	3921
2026-01-29 02:47:57.37	25.64	10.83	-41.3	-42.2	21.4	0.00e+00	0	42	0	480247808	54	3950
2026-01-29 02:47:58.38	25.64	10.92	-41.4	-42.3	21.4	0.00e+00	0	42	0	485490688	54	3964
2026-01-29 02:47:59.39	25.65	11.01	-41.3	-42.1	21.5	0.00e+00	0	42	0	491782144	54	3913
2026-01-29 02:48:00.40	25.66	11.10	-41.4	-42.3	21.4	0.00e+00	0	42	0	497025024	54	3974
2026-01-29 02:48:01.41	25.66	11.19	-41.5	-42.3	21.3	0.00e+00	0	42	0	503316480	54	4003
2026-01-29 02:48:02.42	25.67	11.29	-41.3	-42.2	21.5	0.00e+00	0	42	0	508559360	54	3949
2026-01-29 02:48:03.42	25.67	11.38	-41.3	-42.2	21.4	0.00e+00	0	42	0	514850816	54	3951
2026-01-29 02:48:04.43	25.68	11.47	-41.4	-42.3	21.4	0.00e+00	0	42	0	520093696	54	3963
2026-01-29 02:48:05.44	25.68	11.56	-41.2	-42.1	21.6	0.00e+00	0	42	0	525336576	54	3870
2026-01-29 02:48:06.45	25.69	11.66	-41.1	-42.0	21.7	0.00e+00	0	42	0	531628032	54	3846
2026-01-29 02:48:07.46	25.70	11.75	-41.1	-42.0	21.7	0.00e+00	0	42	0	536870912	54	3845
2026-01-29 02:48:08.47	25.70	11.84	-41.2	-42.1	21.6	0.00e+00	0	42	0	543162368	54	3871
2026-01-29 02:48:09.48	25.71	11.94	-41.3	-42.2	21.5	0.00e+00	0	42	0	548405248	54	3936
2026-01-29 02:48:10.49	25.71	12.03	-41.2	-42.1	21.7	0.00e+00	0	42	0	553648128	54	3877
2026-01-29 02:48:11.49	25.72	12.13	-41.1	-41.9	21.7	0.00e+00	0	42	0	559939584	54	3812
2026-01-29 02:48:12.50	25.73	12.22	-41.2	-42.1	21.7	0.00e+00	0	42	0	565182464	54	3878
2026-01-29 02:48:13.51	25.73	12.32	-41.1	-42.0	21.7	0.00e+00	0	42	0	570425344	54	3831
2026-01-29 02:48:14.51	25.74	12.41	-41.0	-41.9	21.8	0.00e+00	0	42	0	576716800	54	3788
2026-01-29 02:48:15.52	25.74	12.51	-41.1	-41.9	21.8	0.00e+00	0	42	0	583008256	54	3820
2026-01-29 02:48:16.53	25.75	12.61	-41.0	-41.8	21.9	0.00e+00	0	42	0	588251136	53	3986
2026-01-29 02:48:17.54	25.75	12.71	-41.0	-41.8	21.9	0.00e+00	0	42	0	593494016	53	3994
2026-01-29 02:48:18.55	25.76	12.80	-41.0	-41.8	21.9	0.00e+00	0	42	0	599785472	53	3995
2026-01-29 02:48:19.56	25.77	12.90	-40.9	-41.7	22.0	0.00e+00	0	42	0	605028352	53	3944
2026-01-29 02:48:20.57	25.77	13.00	-40.9	-41.7	22.0	0.00e+00	0	42	0	611319808	53	3947
2026-01-29 02:48:21.58	25.78	13.10	-40.8	-41.6	22.1	0.00e+00	0	42	0	616562688	53	3896
2026-01-29 02:48:22.59	25.78	13.20	-40.8	-41.6	22.1	0.00e+00	0	42	0	621805568	53	3890
2026-01-29 02:48:23.59	25.79	13.30	-40.8	-41.6	22.1	0.00e+00	0	42	0	628097024	53	3897
2026-01-29 02:48:24.60	25.80	13.40	-40.9	-41.7	22.1	0.00e+00	0	42	0	633339904	53	3928
2026-01-29 02:48:25.61	25.80	13.50	-40.9	-41.7	22.0	0.00e+00	0	42	0	638582784	53	3944
2026-01-29 02:48:26.61	25.81	13.60	-40.8	-41.6	22.1	0.00e+00	0	42	0	644874240	53	3905
2026-01-29 02:48:27.62	25.81	13.70	-40.8	-41.6	22.2	0.00e+00	0	42	0	651165696	53	3893
2026-01-29 02:48:28.63	25.82	13.80	-40.5	-41.4	22.4	0.00e+00	0	42	0	656408576	53	3783
2026-01-29 02:48:29.63	25.83	13.90	-40.5	-41.3	22.4	0.00e+00	0	42	0	661651456	53	3777
2026-01-29 02:48:30.64	25.83	14.01	-40.5	-41.3	22.4	0.00e+00	0	42	0	667942912	53	3780
2026-01-29 02:48:31.64	25.84	14.11	-40.5	-41.3	22.4	0.00e+00	0	42	0	673185792	53	3776
2026-01-29 02:48:32.65	25.84	14.21	-40.5	-41.3	22.5	0.00e+00	0	42	0	678428672	53	3750
2026-01-29 02:48:33.66	25.85	14.32	-40.5	-41.4	22.4	0.00e+00	0	42	0	684720128	52	4009
2026-01-29 02:48:34.67	25.86	14.42	-40.5	-41.4	22.4	0.00e+00	0	42	0	689963008	52	4008
2026-01-29 02:48:35.68	25.86	14.53	-40.3	-41.1	22.6	0.00e+00	0	42	0	696254464	52	3912
2026-01-29 02:48:36.69	25.87	14.63	-40.3	-41.1	22.6	0.00e+00	0	42	0	701497344	52	3904
2026-01-29 02:48:37.69	25.87	14.74	-40.4	-41.2	22.6	0.00e+00	0	42	0	706740224	52	3927
2026-01-29 02:48:38.71	25.88	14.85	-40.5	-41.3	22.5	0.00e+00	0	42	0	713031680	52	3960
2026-01-29 02:48:39.71	25.89	14.95	-40.4	-41.2	22.6	0.00e+00	0	42	0	718274560	52	3928
2026-01-29 02:48:40.72	25.89	15.06	-40.3	-41.1	22.7	0.00e+00	0	42	0	724566016	52	3880
2026-01-29 02:48:41.73	25.90	15.17	-40.2	-41.0	22.7	0.00e+00	0	42	0	729808896	52	3864
2026-01-29 02:48:42.74	25.91	15.27	-40.2	-41.0	22.8	0.00e+00	0	42	0	736100352	52	3830
2026-01-29 02:48:43.75	25.91	15.38	-40.2	-41.0	22.8	0.00e+00	0	42	0	741343232	52	3852
2026-01-29 02:48:44.76	25.92	15.49	-40.1	-40.9	22.9	0.00e+00	0	42	0	746586112	52	3817
2026-01-29 02:48:45.77	25.92	15.60	-40.1	-40.9	22.9	0.00e+00	0	42	0	752877568	52	3806
2026-01-29 02:48:46.77	25.93	15.71	-40.1	-41.0	22.9	0.00e+00	0	42	0	758120448	52	3825
2026-01-29 02:48:47.78	25.94	15.82	-40.0	-40.8	23.0	0.00e+00	0	42	0	763363328	52	3769
2026-01-29 02:48:48.79	25.94	15.93	-40.1	-40.9	22.9	0.00e+00	0	42	0	769654784	52	3785
2026-01-29 02:48:49.80	25.95	16.05	-40.0	-40.8	23.0	0.00e+00	0	42	0	774897664	51	4003
2026-01-29 02:48:50.81	25.96	16.16	-40.1	-40.9	22.9	0.00e+00	0	42	0	781189120	51	4036
2026-01-29 02:48:51.82	25.96	16.27	-40.1	-40.9	23.0	0.00e+00	0	42	0	786432000	51	4018
2026-01-29 02:48:52.83	25.97	16.38	-40.1	-40.8	23.0	0.00e+00	0	42	0	792723456	51	4004
2026-01-29 02:48:53.84	25.97	16.50	-40.0	-40.8	23.1	0.00e+00	0	42	0	797966336	51	3964
2026-01-29 02:48:54.85	25.98	16.61	-40.1	-40.9	23.0	0.00e+00	0	42	0	804257792	51	4024
2026-01-29 02:48:55.85	25.99	16.73	-40.0	-40.8	23.1	0.00e+00	0	42	0	809500672	51	3964
2026-01-29 02:48:56.86	25.99	16.84	-40.0	-40.8	23.1	0.00e+00	0	42	0	814743552	51	3976
2026-01-29 02:48:57.87	26.00	16.96	-39.9	-40.7	23.2	0.00e+00	0	42	0	821035008	51	3945
2026-01-29 02:48:58.88	26.01	17.08	-39.9	-40.7	23.2	0.00e+00	0	42	0	826277888	51	3920
2026-01-29 02:48:59.89	26.01	17.19	-39.8	-40.6	23.3	0.00e+00	0	42	0	831520768	51	3878
2026-01-29 02:49:00.90	26.02	17.31	-39.9	-40.7	23.3	0.00e+00	0	42	0	837812224	51	3918
2026-01-29 02:49:01.91	26.03	17.43	-39.8	-40.6	23.3	0.00e+00	0	42	0	843055104	51	3894
2026-01-29 02:49:02.91	26.03	17.55	-39.7	-40.4	23.5	0.00e+00	0	42	0	848297984	51	3822
2026-01-29 02:49:03.92	26.04	17.67	-39.7	-40.4	23.5	0.00e+00	0	42	0	854589440	51	3824
2026-01-29 02:49:04.93	26.05	17.79	-39.7	-40.4	23.5	0.00e+00	0	42	0	860880896	51	3816
2026-01-29 02:49:05.93	26.05	17.91	-39.6	-40.4	23.5	0.00e+00	0	42	0	866123776	51	3809
2026-01-29 02:49:06.94	26.06	18.03	-39.5	-40.3	23.6	0.00e+00	0	42	0	871366656	51	3747
2026-01-29 02:49:07.95	26.07	18.15	-39.4	-40.2	23.7	0.00e+00	0	42	0	877658112	50	3927
2026-01-29 02:49:08.96	26.07	18.27	-39.5	-40.3	23.6	0.00e+00	0	42	0	882900992	50	3974
2026-01-29 02:49:09.97	26.08	18.39	-39.4	-40.2	23.7	0.00e+00	0	42	0	889192448	50	3914
2026-01-29 02:49:10.97	26.08	18.52	-39.4	-40.2	23.7	0.00e+00	0	42	0	894435328	50	3924
2026-01-29 02:49:11.98	26.09	18.64	-39.3	-40.1	23.8	0.00e+00	0	42	0	899678208	50	3879
2026-01-29 02:49:12.99	26.10	18.77	-39.3	-40.1	23.8	0.00e+00	0	42	0	905969664	50	3874
2026-01-29 02:49:14.00	26.11	18.89	-39.1	-39.9	24.0	0.00e+00	0	42	0	911212544	50	3785
2026-01-29 02:49:15.01	26.11	19.02	-39.0	-39.8	24.1	0.00e+00	0	42	0	916455424	50	3741
2026-01-29 02:49:16.01	26.12	19.14	-39.1	-39.8	24.1	0.00e+00	0	42	0	922746880	50	3775
2026-01-29 02:49:17.02	26.13	19.27	-38.9	-39.7	24.2	0.00e+00	0	42	0	929038336	49	3919
2026-01-29 02:49:18.03	26.13	19.40	-38.9	-39.7	24.2	0.00e+00	0	42	0	934281216	49	3917
2026-01-29 02:49:19.04	26.14	19.53	-38.9	-39.6	24.3	0.00e+00	0	42	0	939524096	49	3900
2026-01-29 02:49:20.05	26.15	19.66	-38.8	-39.5	24.4	0.00e+00	0	42	0	945815552	49	3838
2026-01-29 02:49:21.06	26.15	19.79	-38.9	-39.6	24.3	0.00e+00	0	42	0	951058432	49	3881
2026-01-29 02:49:22.07	26.16	19.92	-38.8	-39.5	24.4	0.00e+00	0	42	0	956301312	49	3843
2026-01-29 02:49:23.07	26.17	20.05	-38.8	-39.5	24.4	0.00e+00	0	42	0	962592768	49	3855
2026-01-29 02:49:24.08	26.17	20.18	-38.8	-39.5	24.3	0.00e+00	0	42	0	967835648	49	3860
2026-01-29 02:49:25.09	26.18	20.32	-38.7	-39.4	24.4	0.00e+00	0	42	0	974127104	49	3822
2026-01-29 02:49:26.09	26.19	20.45	-38.7	-39.4	24.5	0.00e+00	0	42	0	979369984	49	3804
2026-01-29 02:49:27.10	26.19	20.58	-38.7	-39.4	24.5	0.00e+00	0	42	0	984612864	49	3817
2026-01-29 02:49:28.11	26.20	20.72	-38.7	-39.4	24.4	0.00e+00	0	42	0	990904320	49	3818
2026-01-29 02:49:29.12	26.21	20.85	-38.6	-39.3	24.6	0.00e+00	0	42	0	997195776	49	3761
2026-01-29 02:49:30.13	26.22	20.99	-38.6	-39.3	24.5	0.00e+00	0	42	0	1002438656	49	3777
2026-01-29 02:49:31.13	26.22	21.13	-38.6	-39.3	24.5	0.00e+00	0	42	0	1007681536	49	3772
2026-01-29 02:49:32.14	26.23	21.26	-38.6	-39.3	24.5	0.00e+00	0	42	0	1013972992	49	3778
2026-01-29 02:49:33.15	26.24	21.40	-38.6	-39.3	24.6	0.00e+00	0	42	0	1019215872	49	3771
2026-01-29 02:49:34.16	26.24	21.54	-38.6	-39.4	24.5	0.00e+00	0	42	0	1024458752	49	3786
2026-01-29 02:49:35.16	26.25	21.68	-38.8	-39.5	24.4	0.00e+00	0	42	0	1030750208	49	3840
2026-01-29 02:49:36.17	26.26	21.82	-38.6	-39.3	24.6	0.00e+00	0	42	0	1035993088	49	3771
2026-01-29 02:49:37.18	26.27	21.97	-38.7	-39.5	24.4	0.00e+00	0	42	0	1041235968	49	3828
2026-01-29 02:49:38.19	26.27	22.11	-38.7	-39.4	24.5	0.00e+00	0	42	0	1047527424	49	3793
2026-01-29 02:49:39.19	26.28	22.25	-38.7	-39.4	24.5	0.00e+00	0	42	0	1052770304	49	3803
2026-01-29 02:49:40.20	26.29	22.39	-38.7	-39.5	24.4	0.00e+00	0	42	0	1059061760	49	3842
2026-01-29 02:49:41.21	26.29	22.54	-38.7	-39.5	24.4	0.00e+00	0	42	0	1064304640	49	3832
2026-01-29 02:49:42.22	26.30	22.69	-38.6	-39.3	24.6	0.00e+00	0	42	0	1070596096	49	3779
2026-01-29 02:49:43.23	26.31	22.83	-38.5	-39.2	24.6	0.00e+00	0	42	0	1075838976	49	3730
2026-01-29 02:49:44.23	26.32	22.98	-38.5	-39.2	24.7	0.00e+00	0	42	0	1082130432	49	3706
2026-01-29 02:49:45.24	26.32	23.13	-38.5	-39.2	24.6	0.00e+00	0	42	0	1087373312	48	3945
2026-01-29 02:49:46.25	26.33	23.28	-38.5	-39.3	24.6	0.00e+00	0	42	0	1092616192	48	3964
2026-01-29 02:49:47.25	26.34	23.43	-38.5	-39.2	24.6	0.00e+00	0	42	0	1098907648	48	3956
2026-01-29 02:49:48.26	26.35	23.58	-38.4	-39.1	24.8	0.00e+00	0	42	0	1104150528	48	3897
2026-01-29 02:49:49.27	26.35	23.73	-38.3	-39.1	24.8	0.00e+00	0	42	0	1109393408	48	3869
2026-01-29 02:49:50.28	26.36	23.88	-38.4	-39.2	24.7	0.00e+00	0	42	0	1115684864	48	3919
2026-01-29 02:49:51.28	26.37	24.04	-38.5	-39.2	24.7	0.00e+00	0	42	0	1120927744	48	3930
2026-01-29 02:49:52.29	26.38	24.19	-38.3	-39.1	24.8	0.00e+00	0	42	0	1126170624	48	3872
2026-01-29 02:49:53.30	26.38	24.35	-38.4	-39.2	24.8	0.00e+00	0	42	0	1132462080	48	3917
2026-01-29 02:49:54.31	26.39	24.50	-38.3	-39.0	24.9	0.00e+00	0	42	0	1137704960	48	3848
2026-01-29 02:49:55.32	26.40	24.66	-38.4	-39.1	24.8	0.00e+00	0	42	0	1143996416	48	3875
2026-01-29 02:49:56.33	26.41	24.82	-38.2	-38.9	25.0	0.00e+00	0	42	0	1149239296	48	3810
2026-01-29 02:49:57.34	26.42	24.98	-38.2	-38.9	25.0	0.00e+00	0	42	0	1155530752	48	3791
2026-01-29 02:49:58.35	26.42	25.14	-38.1	-38.8	25.1	0.00e+00	0	42	0	1160773632	48	3772
2026-01-29 02:49:59.36	26.43	25.30	-38.2	-38.9	25.0	0.00e+00	0	42	0	1167065088	48	3792
2026-01-29 02:50:00.37	26.44	25.46	-38.1	-38.8	25.1	0.00e+00	0	42	0	1172307968	48	3757
2026-01-29 02:50:01.37	26.45	25.63	-38.2	-38.9	25.0	0.00e+00	0	42	0	1177550848	48	3791
2026-01-29 02:50:02.38	26.46	25.79	-38.2	-38.9	25.0	0.00e+00	0	42	0	1183842304	48	3787
2026-01-29 02:50:03.39	26.46	25.96	-38.2	-38.9	25.0	0.00e+00	0	42	0	1189085184	48	3785
2026-01-29 02:50:04.40	26.47	26.12	-38.2	-38.9	25.0	0.00e+00	0	42	0	1194328064	48	3809
2026-01-29 02:50:05.41	26.48	26.29	-38.2	-38.9	25.0	0.00e+00	0	42	0	1200619520	48	3793
2026-01-29 02:50:06.41	26.49	26.46	-38.1	-38.8	25.1	0.00e+00	0	42	0	1205862400	48	3754
2026-01-29 02:50:07.42	26.50	26.63	-38.1	-38.9	25.1	0.00e+00	0	42	0	1212153856	48	3785
2026-01-29 02:50:08.43	26.51	26.80	-38.2	-38.9	25.0	0.00e+00	0	42	0	1217396736	48	3812
2026-01-29 02:50:09.44	26.51	26.97	-38.1	-38.8	25.2	0.00e+00	0	42	0	1223688192	48	3744
2026-01-29 02:50:10.45	26.52	27.14	-38.1	-38.8	25.2	0.00e+00	0	42	0	1228931072	48	3752
2026-01-29 02:50:11.45	26.53	27.31	-38.1	-38.8	25.2	0.00e+00	0	42	0	1234173952	48	3763
2026-01-29 02:50:12.46	26.54	27.49	-38.1	-38.9	25.1	0.00e+00	0	42	0	1240465408	48	3781
2026-01-29 02:50:13.47	26.55	27.67	-37.6	-38.3	25.1	0.00e+00	0	42	0	1245708288	47	3758
2026-01-29 02:50:14.48	26.56	27.84	-37.4	-38.2	25.3	0.00e+00	0	42	0	1251999744	46	3914
2026-01-29 02:50:15.48	26.56	28.02	-37.6	-38.3	25.2	0.00e+00	0	42	0	1257242624	46	3966
2026-01-29 02:50:16.49	26.57	28.20	-37.4	-38.1	25.3	0.00e+00	0	42	0	1262485504	46	3909
2026-01-29 02:50:17.50	26.58	28.38	-37.4	-38.1	25.3	0.00e+00	0	42	0	1268776960	46	3889
2026-01-29 02:50:18.51	26.59	28.56	-37.6	-38.3	25.2	0.00e+00	0	42	0	1274019840	46	3983
2026-01-29 02:50:19.51	26.60	28.75	-37.6	-38.3	25.1	0.00e+00	0	42	0	1279262720	46	3984
2026-01-29 02:50:20.52	26.61	28.93	-37.8	-38.5	25.0	0.00e+00	0	42	0	1285554176	46	4090
2026-01-29 02:50:21.53	26.62	29.12	-37.9	-38.6	24.9	0.00e+00	0	42	0	1291845632	46	4116
2026-01-29 02:50:22.54	26.63	29.30	-37.9	-38.7	24.8	0.00e+00	0	42	0	1297088512	46	4158
2026-01-29 02:50:23.55	26.64	29.49	-37.9	-38.7	24.9	0.00e+00	0	42	0	1302331392	46	4146
2026-01-29 02:50:24.56	26.65	29.68	-37.9	-38.6	24.9	0.00e+00	0	42	0	1308622848	46	4120
2026-01-29 02:50:25.57	26.65	29.87	-37.9	-38.7	24.9	0.00e+00	0	42	0	1313865728	46	4146
2026-01-29 02:50:26.58	26.66	30.06	-37.8	-38.5	25.0	0.00e+00	0	42	0	1319108608	46	4074
2026-01-29 02:50:27.59	26.67	30.26	-37.8	-38.6	25.0	0.00e+00	0	42	0	1325400064	46	4100
2026-01-29 02:50:28.60	26.68	30.45	-37.9	-38.7	24.9	0.00e+00	0	42	0	1330642944	46	4146
2026-01-29 02:50:29.61	26.69	30.65	-38.0	-38.7	24.8	0.00e+00	0	42	0	1336934400	46	4186
2026-01-29 02:50:30.61	26.70	30.84	-38.0	-38.7	24.8	0.00e+00	0	42	0	1342177280	46	4184
2026-01-29 02:50:31.62	26.71	31.04	-38.0	-38.7	24.8	0.00e+00	0	42	0	1348468736	46	4186
2026-01-29 02:50:32.63	26.72	31.24	-38.0	-38.7	24.8	0.00e+00	0	42	0	1353711616	46	4182
2026-01-29 02:50:33.63	26.73	31.44	-38.0	-38.7	24.8	0.00e+00	0	42	0	1360003072	46	4183
2026-01-29 02:50:34.64	26.74	31.65	-37.9	-38.6	25.0	0.00e+00	0	42	0	1365245952	46	4119
2026-01-29 02:50:35.65	26.75	31.85	-37.9	-38.7	24.9	0.00e+00	0	42	0	1370488832	46	4152
2026-01-29 02:50:36.65	26.76	32.05	-37.7	-38.4	25.1	0.00e+00	0	42	0	1376780288	46	4046
2026-01-29 02:50:37.66	26.77	32.26	-37.6	-38.3	25.2	0.00e+00	0	42	0	1382023168	46	3986
2026-01-29 02:50:38.67	26.78	32.47	-37.6	-38.3	25.2	0.00e+00	0	42	0	1387266048	46	4001
2026-01-29 02:50:39.68	26.79	32.68	-37.6	-38.3	25.2	0.00e+00	0	42	0	1393557504	46	3972
2026-01-29 02:50:40.69	26.80	32.89	-37.4	-38.1	25.4	0.00e+00	0	42	0	1398800384	46	3902
2026-01-29 02:50:41.70	26.81	33.10	-37.3	-38.0	25.5	0.00e+00	0	42	0	1404043264	46	3854
2026-01-29 02:50:42.71	26.82	33.32	-37.4	-38.1	25.4	0.00e+00	0	42	0	1410334720	46	3872
2026-01-29 02:50:43.72	26.83	33.53	-37.5	-38.2	25.3	0.00e+00	0	42	0	1416626176	46	3928
2026-01-29 02:50:44.73	26.84	33.75	-37.5	-38.2	25.3	0.00e+00	0	42	0	1421869056	46	3957
2026-01-29 02:50:45.74	26.85	33.97	-37.5	-38.2	25.3	0.00e+00	0	42	0	1427111936	46	3930
2026-01-29 02:50:46.74	26.86	34.19	-37.6	-38.3	25.3	0.00e+00	0	42	0	1433403392	46	3973
2026-01-29 02:50:47.75	26.87	34.41	-37.4	-38.1	25.4	0.00e+00	0	42	0	1438646272	46	3908
2026-01-29 02:50:48.76	26.88	34.64	-37.4	-38.1	25.4	0.00e+00	0	42	0	1444937728	46	3902
2026-01-29 02:50:49.77	26.90	34.86	-37.4	-38.1	25.4	0.00e+00	0	42	0	1450180608	46	3905
2026-01-29 02:50:50.78	26.91	35.09	-37.4	-38.1	25.4	0.00e+00	0	42	0	1455423488	46	3908
2026-01-29 02:50:51.79	26.92	35.32	-37.5	-38.3	25.3	0.00e+00	0	42	0	1461714944	46	3960
2026-01-29 02:50:52.80	26.93	35.55	-37.5	-38.2	25.4	0.00e+00	0	42	0	1466957824	46	3924
2026-01-29 02:50:53.81	26.94	35.78	-37.4	-38.1	25.4	0.00e+00	0	42	0	1472200704	46	3897
2026-01-29 02:50:54.82	26.95	36.01	-37.5	-38.2	25.3	0.00e+00	0	42	0	1478492160	46	3948
2026-01-29 02:50:55.83	26.96	36.25	-37.5	-38.2	25.4	0.00e+00	0	42	0	1484783616	46	3943
2026-01-29 02:50:56.84	26.98	36.49	-37.3	-38.0	25.5	0.00e+00	0	42	0	1490026496	46	3868
2026-01-29 02:50:57.85	26.99	36.73	-37.2	-37.9	25.7	0.00e+00	0	42	0	1495269376	46	3787
2026-01-29 02:50:58.86	27.00	36.97	-37.3	-38.0	25.5	0.00e+00	0	42	0	1501560832	46	3828
2026-01-29 02:50:59.87	27.01	37.21	-37.2	-37.9	25.6	0.00e+00	0	42	0	1506803712	46	3820
2026-01-29 02:51:00.87	27.02	37.45	-37.1	-37.8	25.7	0.00e+00	0	42	0	1512046592	46	3762
2026-01-29 02:51:01.89	27.04	37.70	-37.1	-37.8	25.7	0.00e+00	0	42	0	1518338048	46	3743
2026-01-29 02:51:02.90	27.05	37.95	-37.2	-37.9	25.6	0.00e+00	0	42	0	1523580928	46	3798
2026-01-29 02:51:03.90	27.06	38.20	-37.3	-38.1	25.5	0.00e+00	0	42	0	1529872384	46	3872
2026-01-29 02:51:04.91	27.07	38.45	-37.4	-38.1	25.5	0.00e+00	0	42	0	1535115264	46	3888
2026-01-29 02:51:05.92	27.09	38.70	-37.5	-38.2	25.4	0.00e+00	0	42	0	1541406720	46	3929
2026-01-29 02:51:06.93	27.10	38.96	-37.4	-38.1	25.5	0.00e+00	0	42	0	1546649600	46	3895
2026-01-29 02:51:07.93	27.11	39.21	-37.2	-37.9	25.7	0.00e+00	0	42	0	1552941056	46	3809
2026-01-29 02:51:08.95	27.13	39.48	-37.2	-37.9	25.7	0.00e+00	0	42	0	1558183936	46	3785
2026-01-29 02:51:09.96	27.14	39.74	-37.1	-37.8	25.7	0.00e+00	0	42	0	1563426816	46	3764
2026-01-29 02:51:10.97	27.15	40.00	-37.3	-38.0	25.6	0.00e+00	0	42	0	1569718272	46	3841
2026-01-29 02:51:11.97	27.17	40.26	-37.4	-38.1	25.5	0.00e+00	0	42	0	1574961152	46	3913
2026-01-29 02:51:12.98	27.18	40.53	-37.6	-38.3	25.3	0.00e+00	0	42	0	1580204032	46	3984
2026-01-29 02:51:13.99	27.19	40.80	-37.6	-38.3	25.4	0.00e+00	0	42	0	1586495488	46	3966
2026-01-29 02:51:15.00	27.21	41.07	-37.3	-38.0	25.6	0.00e+00	0	42	0	1591738368	46	3830
2026-01-29 02:51:16.01	27.22	41.35	-37.3	-38.0	25.6	0.00e+00	0	42	0	1596981248	46	3853
2026-01-29 02:51:17.02	27.24	41.62	-37.3	-38.0	25.6	0.00e+00	0	42	0	1603272704	46	3848
2026-01-29 02:51:18.03	27.25	41.90	-37.4	-38.1	25.5	0.00e+00	0	42	0	1609564160	46	3888
2026-01-29 02:51:19.04	27.27	42.18	-37.5	-38.2	25.4	0.00e+00	0	42	0	1614807040	46	3929
2026-01-29 02:51:20.05	27.28	42.46	-37.6	-38.3	25.4	0.00e+00	0	42	0	1620049920	46	3974
2026-01-29 02:51:21.05	27.30	42.74	-37.7	-38.4	25.3	0.00e+00	0	42	0	1626341376	46	4011
2026-01-29 02:51:22.06	27.31	43.03	-37.8	-38.6	25.2	0.00e+00	0	42	0	1631584256	46	4099
2026-01-29 02:51:23.07	27.33	43.32	-37.9	-38.6	25.1	0.00e+00	0	42	0	1637875712	46	4126
2026-01-29 02:51:24.07	27.34	43.61	-37.9	-38.6	25.1	0.00e+00	0	42	0	1643118592	46	4132
2026-01-29 02:51:25.08	27.36	43.90	-37.9	-38.6	25.1	0.00e+00	0	42	0	1648361472	46	4128
2026-01-29 02:51:26.09	27.38	44.19	-37.7	-38.4	25.3	0.00e+00	0	42	0	1654652928	46	4045
2026-01-29 02:51:27.10	27.39	44.49	-37.8	-38.5	25.2	0.00e+00	0	42	0	1659895808	46	4073
2026-01-29 02:51:28.10	27.41	44.79	-38.0	-38.7	25.1	0.00e+00	0	42	0	1665138688	46	4152
2026-01-29 02:51:29.11	27.43	45.09	-38.1	-38.8	24.9	0.00e+00	0	42	0	1671430144	46	4218
2026-01-29 02:51:30.12	27.44	45.39	-38.4	-39.2	24.6	0.00e+00	0	42	0	1677721600	47	4155
2026-01-29 02:51:31.13	27.46	45.70	-38.4	-39.2	24.6	0.00e+00	0	42	0	1682964480	47	4171
2026-01-29 02:51:32.14	27.48	46.01	-38.2	-38.9	24.8	0.00e+00	0	42	0	1688207360	47	4037
2026-01-29 02:51:33.15	27.50	46.32	-38.1	-38.8	25.0	0.00e+00	0	42	0	1694498816	47	3975
2026-01-29 02:51:34.16	27.52	46.63	-38.0	-38.7	25.0	0.00e+00	0	42	0	1699741696	47	3953
2026-01-29 02:51:35.16	27.53	46.95	-38.1	-38.8	25.0	0.00e+00	0	42	0	1704984576	47	3968
2026-01-29 02:51:36.17	27.55	47.27	-37.8	-38.5	25.3	0.00e+00	0	42	0	1711276032	47	3833
2026-01-29 02:51:37.18	27.57	47.59	-37.7	-38.4	25.3	0.00e+00	0	42	0	1716518912	47	3796
2026-01-29 02:51:38.19	27.59	47.91	-37.6	-38.3	25.4	0.00e+00	0	42	0	1722810368	47	3776
2026-01-29 02:51:39.20	27.61	48.24	-37.6	-38.3	25.4	0.00e+00	0	42	0	1728053248	47	3765
2026-01-29 02:51:40.20	27.63	48.56	-37.5	-38.2	25.5	0.00e+00	0	42	0	1733296128	47	3720
2026-01-29 02:51:41.21	27.65	48.89	-37.6	-38.2	25.4	0.00e+00	0	42	0	1739587584	47	3734
2026-01-29 02:51:42.21	27.67	49.22	-37.8	-38.5	25.2	0.00e+00	0	42	0	1744830464	47	3849
2026-01-29 02:51:43.22	27.69	49.56	-37.9	-38.6	25.2	0.00e+00	0	42	0	1751121920	47	3888
2026-01-29 02:51:44.23	27.72	49.90	-38.0	-38.7	25.1	0.00e+00	0	42	0	1756364800	47	3946
2026-01-29 02:51:45.24	27.74	50.24	-38.1	-38.9	24.9	0.00e+00	0	42	0	1762656256	47	4021
2026-01-29 02:51:46.25	27.76	50.58	-38.3	-39.1	24.7	0.00e+00	0	42	0	1767899136	47	4107
2026-01-29 02:51:47.25	27.78	50.92	-38.5	-39.2	24.6	0.00e+00	0	42	0	1773142016	47	4188
2026-01-29 02:51:48.26	27.81	51.27	-38.2	-38.9	24.8	0.00e+00	0	42	0	1779433472	47	4043
2026-01-29 02:51:49.27	27.83	51.62	-38.0	-38.7	25.1	0.00e+00	0	42	0	1784676352	47	3914
2026-01-29 02:51:50.28	27.85	51.98	-38.3	-39.0	24.8	0.00e+00	0	42	0	1789919232	47	4060
2026-01-29 02:51:51.29	27.88	52.33	-38.5	-39.3	24.6	0.00e+00	0	42	0	1796210688	47	4210
2026-01-29 02:51:52.29	27.90	52.69	-38.6	-39.3	24.6	0.00e+00	0	42	0	1801453568	47	4229
2026-01-29 02:51:53.30	27.93	53.05	-39.1	-39.8	24.6	0.00e+00	0	42	0	1807745024	48	4213
2026-01-29 02:51:54.31	27.96	53.41	-39.2	-39.9	24.6	0.00e+00	0	42	0	1812987904	48	4252
2026-01-29 02:51:55.31	27.98	53.78	-39.2	-39.9	24.5	0.00e+00	0	42	0	1818230784	49	4046
2026-01-29 02:51:56.32	28.01	54.15	-39.1	-39.9	24.6	0.00e+00	0	42	0	1824522240	49	4011
2026-01-29 02:51:57.33	28.04	54.52	-39.3	-40.0	24.5	0.00e+00	0	42	0	1830813696	49	4081
2026-01-29 02:51:58.34	28.07	54.89	-39.2	-39.9	24.6	0.00e+00	0	42	0	1836056576	49	4050
2026-01-29 02:51:59.34	28.10	55.27	-39.3	-40.0	24.5	0.00e+00	0	42	0	1841299456	49	4083
2026-01-29 02:52:00.35	28.13	55.65	-39.2	-39.9	24.6	0.00e+00	0	42	0	1847590912	49	4019
2026-01-29 02:52:01.36	28.16	56.03	-39.2	-39.9	24.5	0.00e+00	0	42	0	1852833792	49	4051
2026-01-29 02:52:02.37	28.19	56.41	-39.3	-40.0	24.5	0.00e+00	0	42	0	1858076672	49	4091
2026-01-29 02:52:03.37	28.22	56.80	-39.6	-40.3	24.2	0.00e+00	0	42	0	1864368128	49	4235
2026-01-29 02:52:04.38	28.25	57.19	-39.6	-40.4	24.1	0.00e+00	0	42	0	1869611008	49	4262
2026-01-29 02:52:05.39	28.29	57.58	-39.6	-40.4	24.1	0.00e+00	0	42	0	1874853888	49	4254
2026-01-29 02:52:06.39	28.32	57.98	-39.2	-39.9	24.5	0.00e+00	0	42	0	1881145344	49	4051
2026-01-29 02:52:07.40	28.36	58.38	-39.0	-39.7	24.7	0.00e+00	0	42	0	1886388224	49	3942
2026-01-29 02:52:08.40	28.40	58.77	-39.0	-39.7	24.7	0.00e+00	0	42	0	1892679680	49	3919
2026-01-29 02:52:09.40	28.43	59.17	-39.0	-39.7	24.8	0.00e+00	0	42	0	1897922560	49	3944
2026-01-29 02:52:10.41	28.47	59.58	-38.9	-39.6	24.9	0.00e+00	0	42	0	1903165440	49	3894
2026-01-29 02:52:11.42	28.51	59.99	-39.0	-39.7	24.8	0.00e+00	0	42	0	1909456896	49	3938
2026-01-29 02:52:12.43	28.55	60.40	-38.4	-39.1	25.3	0.00e+00	0	42	0	1915748352	48	3891
2026-01-29 02:52:13.44	28.59	60.82	-38.2	-38.9	25.5	0.00e+00	0	42	0	1920991232	48	3823
2026-01-29 02:52:14.44	28.64	61.23	-38.3	-39.1	25.3	0.00e+00	0	42	0	1926234112	48	3875
2026-01-29 02:52:15.45	28.68	61.65	-37.6	-38.3	25.5	0.00e+00	0	42	0	1932525568	47	3778
2026-01-29 02:52:16.46	28.73	62.08	-37.4	-38.1	25.8	0.00e+00	0	42	0	1937768448	46	3869
2026-01-29 02:52:17.47	28.78	62.50	-37.3	-38.0	25.8	0.00e+00	0	42	0	1943011328	46	3839
2026-01-29 02:52:18.47	28.83	62.93	-37.3	-38.0	25.8	0.00e+00	0	42	0	1949302784	46	3860
2026-01-29 02:52:19.48	28.88	63.36	-37.6	-38.3	25.5	0.00e+00	0	42	0	1954545664	46	3963
2026-01-29 02:52:20.49	28.93	63.79	-37.6	-38.3	25.5	0.00e+00	0	42	0	1959788544	46	3980
2026-01-29 02:52:21.50	28.98	64.23	-37.7	-38.4	25.4	0.00e+00	0	42	0	1966080000	46	4049
2026-01-29 02:52:22.51	29.04	64.66	-37.6	-38.3	25.5	0.00e+00	0	42	0	1971322880	46	3996
2026-01-29 02:52:23.52	29.10	65.11	-37.4	-38.1	25.7	0.00e+00	0	42	0	1977614336	46	3904
2026-01-29 02:52:24.53	29.16	65.55	-37.5	-38.2	25.6	0.00e+00	0	42	0	1982857216	46	3928
2026-01-29 02:52:25.54	29.22	66.00	-37.0	-37.7	26.0	0.00e+00	0	42	0	1989148672	46	3731
2026-01-29 02:52:26.55	29.29	66.45	-37.0	-37.7	26.0	0.00e+00	0	42	0	1994391552	45	3937
2026-01-29 02:52:27.55	29.36	66.89	-37.3	-38.0	25.8	0.00e+00	0	42	0	2000683008	45	4061
2026-01-29 02:52:28.56	29.43	67.35	-37.1	-37.8	26.0	0.00e+00	0	42	0	2005925888	45	3972
2026-01-29 02:52:29.57	29.50	67.80	-37.1	-37.8	26.0	0.00e+00	0	42	0	2011168768	45	3976
2026-01-29 02:52:30.58	29.58	68.26	-37.3	-38.0	25.8	0.00e+00	0	42	0	2017460224	45	4057
2026-01-29 02:52:31.59	29.66	68.72	-37.4	-38.1	25.7	0.00e+00	0	42	0	2022703104	45	4112
2026-01-29 02:52:32.60	29.75	69.19	-37.2	-37.9	25.9	0.00e+00	0	42	0	2027945984	45	4009
2026-01-29 02:52:33.60	29.83	69.65	-37.4	-38.1	25.7	0.00e+00	0	42	0	2034237440	45	4138
2026-01-29 02:52:34.61	29.93	70.11	-37.4	-38.1	25.7	0.00e+00	0	42	0	2039480320	45	4112
2026-01-29 02:52:35.62	30.02	70.58	-37.1	-37.8	26.0	0.00e+00	0	42	0	2045771776	45	3995
2026-01-29 02:52:36.63	30.13	71.06	-37.3	-37.9	25.9	0.00e+00	0	42	0	2051014656	45	4046
2026-01-29 02:52:37.63	30.23	71.53	-37.3	-38.0	25.9	0.00e+00	0	42	0	2057306112	45	4055
2026-01-29 02:52:38.64	30.35	72.00	-37.0	-37.7	26.1	0.00e+00	0	42	0	2062548992	45	3946
2026-01-29 02:52:39.65	30.47	72.48	-37.0	-37.7	26.1	0.00e+00	0	42	0	2067791872	45	3950
2026-01-29 02:52:40.66	30.59	72.96	-36.4	-37.0	26.6	0.00e+00	0	42	0	2074083328	44	3861
2026-01-29 02:52:41.67	30.73	73.45	-36.1	-36.8	26.8	0.00e+00	0	42	0	2079326208	44	3743
2026-01-29 02:52:42.67	30.87	73.93	-36.4	-37.1	26.5	0.00e+00	0	42	0	2085617664	44	3898
2026-01-29 02:52:43.68	31.02	74.41	-36.3	-37.0	26.6	0.00e+00	0	42	0	2090860544	44	3850
2026-01-29 02:52:44.69	31.18	74.90	-36.4	-37.0	26.6	0.00e+00	0	42	0	2096103424	44	3868
2026-01-29 02:52:45.70	31.35	75.39	-36.1	-36.8	26.8	0.00e+00	0	42	0	2102394880	44	3745
2026-01-29 02:52:46.71	31.54	75.88	-36.3	-36.9	26.7	0.00e+00	0	42	0	2107637760	44	3820
2026-01-29 02:52:47.72	31.74	76.37	-36.1	-36.8	26.9	0.00e+00	0	42	0	2113929216	44	3741
2026-01-29 02:52:48.73	31.95	76.87	-35.9	-36.6	26.9	0.00e+00	0	42	0	2119172096	43	3870
2026-01-29 02:52:49.73	32.18	77.36	-36.2	-36.9	26.7	0.00e+00	0	42	0	2125463552	43	4009
2026-01-29 02:52:50.74	32.43	77.86	-36.5	-37.2	26.4	0.00e+00	0	42	0	2130706432	43	4189
2026-01-29 02:52:51.74	32.69	78.35	-36.2	-36.9	26.6	0.00e+00	0	43	0	2135949312	43	4036
2026-01-29 02:52:52.75	32.99	78.85	-35.5	-36.1	27.3	0.00e+00	0	42	0	2142240768	43	3681
2026-01-29 02:52:53.75	33.31	79.35	-35.4	-36.1	27.3	0.00e+00	0	42	0	2147483648	42	3892
2026-01-29 02:52:54.76	33.66	79.85	-35.5	-36.2	27.2	0.00e+00	0	42	0	2152726528	42	3922
2026-01-29 02:52:55.77	34.05	80.35	-35.3	-36.0	27.4	0.00e+00	0	42	0	2159017984	42	3844
2026-01-29 02:52:56.78	34.49	80.86	-35.1	-35.7	27.6	0.00e+00	0	42	0	2164260864	42	3733
2026-01-29 02:52:57.79	34.97	81.36	-35.3	-36.0	27.4	0.00e+00	0	42	0	2170552320	42	3840
2026-01-29 02:52:58.79	35.51	81.86	-35.3	-36.0	27.4	0.00e+00	0	42	0	2175795200	42	3842
2026-01-29 02:52:59.80	36.13	82.37	-35.0	-35.6	27.7	0.00e+00	0	42	0	2181038080	42	3676
2026-01-29 02:53:00.80	36.83	82.87	-35.0	-35.6	27.7	0.00e+00	0	42	0	2187329536	41	3900
2026-01-29 02:53:01.81	37.65	83.37	-35.0	-35.7	27.6	0.00e+00	0	42	0	2192572416	41	3938
2026-01-29 02:53:02.82	38.59	83.88	-35.2	-35.9	27.4	0.00e+00	0	42	0	2198863872	41	4020
2026-01-29 02:53:03.83	39.71	84.38	-35.1	-35.8	27.5	0.00e+00	0	42	0	2204106752	41	3991
2026-01-29 02:53:04.84	41.05	84.88	-35.0	-35.6	27.6	0.00e+00	0	42	0	2210398208	41	3888
2026-01-29 02:53:05.85	42.68	85.38	-35.2	-35.8	27.5	0.00e+00	0	42	0	2215641088	41	3993
2026-01-29 02:53:06.86	44.71	85.88	-35.0	-35.7	27.6	0.00e+00	0	42	0	2220883968	41	3935
2026-01-29 02:53:07.87	47.28	86.36	-35.0	-35.6	27.6	0.00e+00	0	42	0	2227175424	41	3901
2026-01-29 02:53:08.88	50.64	86.84	-35.3	-35.9	27.4	0.00e+00	0	42	0	2232418304	41	4049
2026-01-29 02:53:09.89	55.18	87.31	-35.3	-35.9	27.4	0.00e+00	0	42	0	2237661184	41	4031
2026-01-29 02:53:10.89	61.49	87.75	-35.4	-36.0	27.3	0.00e+00	0	42	0	2243952640	41	4098
2026-01-29 02:53:11.90	70.78	88.15	-35.5	-36.2	27.2	0.00e+00	0	42	0	2249195520	41	4148
2026-01-29 02:53:12.91	84.59	88.48	-35.8	-36.5	27.0	0.00e+00	0	42	0	2255486976	42	4064
2026-01-29 02:53:13.91	103.87	88.67	-36.1	-36.8	26.7	0.00e+00	0	42	0	2260729856	43	3986
2026-01-29 02:53:14.92	126.61	88.69	-35.5	-36.1	27.2	0.00e+00	0	42	0	2267021312	42	3899
2026-01-29 02:53:15.93	146.64	88.50	-35.4	-36.1	27.3	0.00e+00	0	42	0	2272264192	42	3880
2026-01-29 02:53:16.93	160.89	88.19	-35.5	-36.2	27.3	0.00e+00	0	42	0	2278555648	42	3914
2026-01-29 02:53:17.93	170.52	87.80	-35.3	-36.0	27.4	0.00e+00	0	42	0	2283798528	42	3835
2026-01-29 02:53:18.94	177.17	87.36	-35.5	-36.1	27.3	0.00e+00	0	42	0	2289041408	42	3893
2026-01-29 02:53:19.95	181.88	86.90	-35.7	-36.4	27.1	0.00e+00	0	42	0	2295332864	42	4023
2026-01-29 02:53:20.96	185.35	86.42	-35.7	-36.4	27.0	0.00e+00	0	42	0	2300575744	42	4038
2026-01-29 02:53:21.97	188.00	85.93	-35.6	-36.2	27.2	0.00e+00	0	42	0	2305818624	42	3951
2026-01-29 02:53:22.97	190.06	85.44	-35.6	-36.2	27.2	0.00e+00	0	42	0	2312110080	42	3941
2026-01-29 02:53:23.98	191.73	84.94	-35.7	-36.4	26.9	0.00e+00	0	42	0	2317352960	42	4038
2026-01-29 02:53:24.99	193.10	84.44	-35.6	-36.2	27.2	0.00e+00	0	42	0	2322595840	42	3941
2026-01-29 02:53:26.00	194.24	83.94	-35.5	-36.2	27.2	0.00e+00	0	42	0	2328887296	42	3942
2026-01-29 02:53:27.01	195.21	83.43	-35.0	-35.7	27.6	0.00e+00	0	42	0	2334130176	42	3709
2026-01-29 02:53:28.01	196.03	82.93	-35.0	-35.6	27.7	0.00e+00	0	42	0	2340421632	41	3896
2026-01-29 02:53:29.02	196.75	82.43	-35.1	-35.7	27.6	0.00e+00	0	42	0	2345664512	41	3944
2026-01-29 02:53:30.03	197.38	81.92	-34.9	-35.5	27.8	0.00e+00	0	42	0	2351955968	41	3838
2026-01-29 02:53:31.04	197.93	81.42	-34.9	-35.5	27.7	0.00e+00	0	42	0	2357198848	41	3853
2026-01-29 02:53:32.04	198.42	80.92	-35.3	-36.0	27.3	0.00e+00	0	42	0	2363490304	41	4090
2026-01-29 02:53:33.05	198.86	80.41	-35.2	-35.9	27.5	0.00e+00	0	42	0	2368733184	41	4034
2026-01-29 02:53:34.06	199.25	79.91	-35.3	-36.0	27.4	0.00e+00	0	42	0	2373976064	41	4065
2026-01-29 02:53:35.07	199.61	79.41	-35.4	-36.1	27.4	0.00e+00	0	42	0	2380267520	41	4117
2026-01-29 02:53:36.08	199.94	78.90	-35.6	-36.2	27.3	0.00e+00	0	42	0	2385510400	41	4182
2026-01-29 02:53:37.08	200.23	78.41	-35.4	-36.1	27.4	0.00e+00	0	42	0	2390753280	41	4103
2026-01-29 02:53:38.09	200.51	77.91	-35.5	-36.2	27.3	0.00e+00	0	42	0	2397044736	41	4149
2026-01-29 02:53:39.10	200.76	77.41	-35.5	-36.1	27.4	0.00e+00	0	42	0	2402287616	41	4130
2026-01-29 02:53:40.11	200.99	76.91	-35.7	-36.3	27.1	0.00e+00	0	42	0	2407530496	42	3998
2026-01-29 02:53:41.12	201.20	76.42	-35.5	-36.2	27.3	0.00e+00	0	42	0	2413821952	42	3927
2026-01-29 02:53:42.13	201.40	75.92	-35.9	-36.6	27.0	0.00e+00	0	42	0	2420113408	42	4102
2026-01-29 02:53:43.13	201.59	75.44	-35.8	-36.5	27.0	0.00e+00	0	42	0	2425356288	42	4076
2026-01-29 02:53:44.14	201.76	74.95	-35.7	-36.3	27.1	0.00e+00	0	42	0	2430599168	42	4001
2026-01-29 02:53:45.15	201.92	74.46	-36.0	-36.7	26.9	0.00e+00	0	42	0	2436890624	42	4159
2026-01-29 02:53:46.15	202.07	73.97	-36.2	-36.9	26.7	0.00e+00	0	42	0	2442133504	43	4031
2026-01-29 02:53:47.16	202.22	73.49	-36.1	-36.7	26.9	0.00e+00	0	42	0	2448424960	43	3956
2026-01-29 02:53:48.17	202.35	73.01	-36.3	-37.0	26.7	0.00e+00	0	42	0	2453667840	43	4054
2026-01-29 02:53:49.18	202.48	72.52	-36.4	-37.0	26.6	0.00e+00	0	42	0	2458910720	43	4095
2026-01-29 02:53:50.19	202.60	72.05	-36.6	-37.2	26.5	0.00e+00	0	42	0	2465202176	43	4180
2026-01-29 02:53:51.20	202.72	71.57	-36.9	-37.5	26.3	0.00e+00	0	42	0	2470445056	44	4096
2026-01-29 02:53:52.21	202.82	71.09	-37.1	-37.8	26.1	0.00e+00	0	42	0	2475687936	44	4199
2026-01-29 02:53:53.22	202.93	70.62	-37.3	-38.0	26.0	0.00e+00	0	42	0	2481979392	45	4054
2026-01-29 02:53:54.23	203.02	70.15	-37.4	-38.1	25.8	0.00e+00	0	42	0	2488270848	45	4122
2026-01-29 02:53:55.24	203.12	69.68	-37.2	-37.9	26.0	0.00e+00	0	42	0	2493513728	45	4038
2026-01-29 02:53:56.24	203.21	69.22	-37.3	-38.0	25.9	0.00e+00	0	42	0	2498756608	45	4063
2026-01-29 02:53:57.25	203.29	68.75	-37.4	-38.1	25.8	0.00e+00	0	42	0	2505048064	45	4119
2026-01-29 02:53:58.26	203.37	68.29	-37.1	-37.7	26.2	0.00e+00	0	42	0	2510290944	45	3958
2026-01-29 02:53:59.27	203.45	67.83	-37.2	-37.9	26.0	0.00e+00	0	42	0	2515533824	45	4037
2026-01-29 02:54:00.28	203.52	67.37	-37.4	-38.2	25.7	0.00e+00	0	42	0	2521825280	45	4150
2026-01-29 02:54:01.29	203.60	66.92	-36.9	-37.6	26.2	0.00e+00	0	42	0	2527068160	45	3892
2026-01-29 02:54:02.29	203.66	66.47	-37.0	-37.7	26.1	0.00e+00	0	42	0	2533359616	45	3926
2026-01-29 02:54:03.30	203.73	66.02	-37.4	-38.1	25.8	0.00e+00	0	42	0	2538602496	45	4111
2026-01-29 02:54:04.31	203.79	65.57	-37.2	-37.9	26.0	0.00e+00	0	42	0	2543845376	45	4018
2026-01-29 02:54:05.31	203.85	65.13	-36.9	-37.5	26.3	0.00e+00	0	42	0	2550136832	45	3848
2026-01-29 02:54:06.32	203.91	64.69	-37.0	-37.7	26.1	0.00e+00	0	42	0	2556428288	45	3935
2026-01-29 02:54:07.33	203.97	64.25	-37.3	-38.0	25.9	0.00e+00	0	42	0	2561671168	45	4058
2026-01-29 02:54:08.34	204.02	63.81	-37.2	-37.9	25.9	0.00e+00	0	42	0	2566914048	45	4033
2026-01-29 02:54:09.34	204.08	63.38	-37.3	-38.0	25.9	0.00e+00	0	42	0	2573205504	45	4065
2026-01-29 02:54:10.35	204.13	62.95	-37.0	-37.7	26.1	0.00e+00	0	42	0	2578448384	45	3937
2026-01-29 02:54:11.36	204.18	62.52	-37.3	-38.0	25.9	0.00e+00	0	42	0	2583691264	45	4067
2026-01-29 02:54:12.37	204.23	62.09	-37.3	-38.0	25.9	0.00e+00	0	42	0	2589982720	45	4091
2026-01-29 02:54:13.38	204.27	61.67	-37.4	-38.1	25.8	0.00e+00	0	42	0	2595225600	45	4133
2026-01-29 02:54:14.39	204.32	61.25	-37.5	-38.2	25.7	0.00e+00	0	42	0	2600468480	45	4179
2026-01-29 02:54:15.40	204.36	60.83	-37.7	-38.4	25.5	0.00e+00	0	42	0	2606759936	46	4012
2026-01-29 02:54:16.41	204.40	60.41	-37.9	-38.6	25.4	0.00e+00	0	42	0	2612002816	46	4112
2026-01-29 02:54:17.42	204.44	60.00	-38.1	-38.8	25.2	0.00e+00	0	42	0	2618294272	46	4217
2026-01-29 02:54:18.43	204.48	59.59	-38.2	-38.9	25.1	0.00e+00	0	42	0	2623537152	46	4291
2026-01-29 02:54:19.43	204.52	59.19	-38.4	-39.1	24.9	0.00e+00	0	42	0	2629828608	47	4130
2026-01-29 02:54:20.44	204.56	58.78	-38.5	-39.3	24.8	0.00e+00	0	42	0	2635071488	47	4195
2026-01-29 02:54:21.45	204.60	58.38	-38.4	-39.2	24.9	0.00e+00	0	42	0	2641362944	47	4160
2026-01-29 02:54:22.46	204.63	57.98	-38.6	-39.3	24.8	0.00e+00	0	42	0	2646605824	47	4212
2026-01-29 02:54:23.47	204.67	57.58	-38.6	-39.4	24.7	0.00e+00	0	42	0	2651848704	47	4249
2026-01-29 02:54:24.48	204.70	57.18	-39.4	-40.2	24.5	0.00e+00	0	42	0	2658140160	49	4153
2026-01-29 02:54:25.49	204.73	56.79	-39.6	-40.4	24.3	0.00e+00	0	42	0	2663383040	49	4249
2026-01-29 02:54:26.50	204.77	56.40	-39.4	-40.2	24.5	0.00e+00	0	42	0	2668625920	49	4151
2026-01-29 02:54:27.51	204.80	56.02	-39.6	-40.3	24.3	0.00e+00	0	42	0	2674917376	49	4225
2026-01-29 02:54:28.52	204.83	55.63	-39.3	-40.0	24.6	0.00e+00	0	42	0	2681208832	49	4065
2026-01-29 02:54:29.53	204.86	55.25	-39.4	-40.1	24.6	0.00e+00	0	42	0	2686451712	49	4115
2026-01-29 02:54:30.54	204.89	54.87	-39.2	-39.9	24.6	0.00e+00	0	42	0	2691694592	49	4045
2026-01-29 02:54:31.55	204.92	54.50	-39.0	-39.7	24.9	0.00e+00	0	42	0	2697986048	49	3914
2026-01-29 02:54:32.55	204.94	54.13	-38.9	-39.6	24.9	0.00e+00	0	42	0	2703228928	49	3909
2026-01-29 02:54:33.56	204.97	53.76	-39.0	-39.7	24.9	0.00e+00	0	42	0	2708471808	49	3933
2026-01-29 02:54:34.56	205.00	53.39	-39.1	-39.8	24.7	0.00e+00	0	42	0	2714763264	49	4004
2026-01-29 02:54:35.57	205.02	53.03	-39.0	-39.7	24.9	0.00e+00	0	42	0	2720006144	49	3941
2026-01-29 02:54:36.58	205.05	52.67	-38.9	-39.6	25.0	0.00e+00	0	42	0	2726297600	49	3879
2026-01-29 02:54:37.59	205.08	52.31	-38.8	-39.5	25.0	0.00e+00	0	43	0	2731540480	49	3848
2026-01-29 02:54:38.59	205.10	51.95	-38.9	-39.6	25.0	0.00e+00	0	42	0	2736783360	49	3881
2026-01-29 02:54:39.60	205.12	51.60	-38.9	-39.6	24.9	0.00e+00	0	42	0	2743074816	49	3903
2026-01-29 02:54:40.60	205.15	51.25	-38.9	-39.6	24.9	0.00e+00	0	42	0	2748317696	49	3901
2026-01-29 02:54:41.61	205.17	50.90	-38.9	-39.6	24.9	0.00e+00	0	42	0	2753560576	49	3888
2026-01-29 02:54:42.61	205.19	50.56	-38.8	-39.5	25.0	0.00e+00	0	42	0	2759852032	49	3860
2026-01-29 02:54:43.63	205.22	50.21	-38.5	-39.3	25.2	0.00e+00	0	42	0	2766143488	49	3742
2026-01-29 02:54:44.63	205.24	49.87	-38.5	-39.2	25.3	0.00e+00	0	42	0	2771386368	48	3916
2026-01-29 02:54:45.64	205.26	49.53	-38.3	-39.0	25.4	0.00e+00	0	42	0	2776629248	48	3852
2026-01-29 02:54:46.65	205.28	49.19	-38.3	-39.0	25.4	0.00e+00	0	42	0	2782920704	48	3838
2026-01-29 02:54:47.64	205.30	48.87	-38.4	-39.1	25.3	0.00e+00	0	42	0	2788163584	48	3883
2026-01-29 02:54:48.65	205.32	48.53	-38.5	-39.2	25.3	0.00e+00	0	42	0	2793406464	48	3922
2026-01-29 02:54:49.66	205.34	48.21	-38.7	-39.4	25.1	0.00e+00	0	42	0	2799697920	48	4036
2026-01-29 02:54:50.67	205.36	47.88	-38.7	-39.4	25.0	0.00e+00	0	42	0	2804940800	48	4027
2026-01-29 02:54:51.68	205.38	47.55	-38.8	-39.5	25.0	0.00e+00	0	42	0	2811232256	48	4089
2026-01-29 02:54:52.68	205.40	47.24	-38.7	-39.4	25.1	0.00e+00	0	42	0	2816475136	48	4015
2026-01-29 02:54:53.69	205.42	46.92	-38.6	-39.3	25.1	0.00e+00	0	42	0	2821718016	48	4002
2026-01-29 02:54:54.70	205.44	46.60	-38.5	-39.2	25.3	0.00e+00	0	42	0	2828009472	48	3917
2026-01-29 02:54:55.70	205.45	46.29	-38.3	-38.9	25.4	0.00e+00	0	42	0	2833252352	48	3824
2026-01-29 02:54:56.71	205.47	45.98	-38.3	-39.0	25.4	0.00e+00	0	42	0	2838495232	48	3852
2026-01-29 02:54:57.71	205.49	45.67	-38.3	-39.0	25.4	0.00e+00	0	42	0	2844786688	48	3831
2026-01-29 02:54:58.72	205.51	45.36	-38.1	-38.8	25.6	0.00e+00	0	42	0	2851078144	48	3772
2026-01-29 02:54:59.73	205.52	45.06	-38.1	-38.8	25.6	0.00e+00	0	42	0	2856321024	48	3746
2026-01-29 02:55:00.74	205.54	44.75	-38.1	-38.8	25.6	0.00e+00	0	42	0	2861563904	48	3749
2026-01-29 02:55:01.74	205.56	44.46	-37.5	-38.2	25.6	0.00e+00	0	42	0	2867855360	47	3702
2026-01-29 02:55:02.75	205.57	44.16	-37.5	-38.1	25.6	0.00e+00	0	42	0	2873098240	46	3904
2026-01-29 02:55:03.76	205.59	43.86	-37.4	-38.0	25.7	0.00e+00	0	42	0	2878341120	46	3863
2026-01-29 02:55:04.77	205.61	43.57	-37.3	-38.0	25.8	0.00e+00	0	42	0	2884632576	46	3826
2026-01-29 02:55:05.78	205.62	43.28	-37.3	-38.0	25.8	0.00e+00	0	42	0	2889875456	46	3840
2026-01-29 02:55:06.79	205.64	42.99	-37.4	-38.1	25.7	0.00e+00	0	42	0	2896166912	46	3891
2026-01-29 02:55:07.79	205.65	42.70	-37.5	-38.2	25.5	0.00e+00	0	42	0	2901409792	46	3958
2026-01-29 02:55:08.80	205.67	42.42	-37.6	-38.3	25.5	0.00e+00	0	42	0	2906652672	46	3973
2026-01-29 02:55:09.80	205.68	42.14	-37.6	-38.3	25.5	0.00e+00	0	42	0	2912944128	46	3984
2026-01-29 02:55:10.81	205.70	41.86	-37.6	-38.3	25.5	0.00e+00	0	42	0	2918187008	46	3986
2026-01-29 02:55:11.82	205.71	41.58	-37.7	-38.4	25.4	0.00e+00	0	42	0	2924478464	46	4038
2026-01-29 02:55:12.83	205.73	41.30	-37.6	-38.2	25.5	0.00e+00	0	42	0	2929721344	46	3956
2026-01-29 02:55:13.83	205.74	41.03	-37.5	-38.1	25.6	0.00e+00	0	42	0	2936012800	46	3907
2026-01-29 02:55:14.84	205.75	40.76	-37.3	-38.0	25.7	0.00e+00	0	42	0	2941255680	46	3862
2026-01-29 02:55:15.84	205.77	40.49	-37.3	-38.0	25.7	0.00e+00	0	42	0	2946498560	46	3852
2026-01-29 02:55:16.85	205.78	40.22	-37.3	-38.0	25.7	0.00e+00	0	42	0	2952790016	46	3858
2026-01-29 02:55:17.85	205.79	39.96	-37.4	-38.1	25.7	0.00e+00	0	42	0	2958032896	46	3875
2026-01-29 02:55:18.86	205.81	39.69	-37.2	-37.9	25.8	0.00e+00	0	42	0	2963275776	46	3808
2026-01-29 02:55:19.86	205.82	39.43	-37.3	-38.0	25.7	0.00e+00	0	42	0	2969567232	46	3842
2026-01-29 02:55:20.87	205.83	39.17	-37.1	-37.8	25.9	0.00e+00	0	42	0	2974810112	46	3754
2026-01-29 02:55:21.88	205.85	38.91	-37.0	-37.7	26.0	0.00e+00	0	42	0	2981101568	46	3703
2026-01-29 02:55:22.88	205.86	38.66	-37.0	-37.7	25.9	0.00e+00	0	42	0	2986344448	46	3733
2026-01-29 02:55:23.89	205.87	38.41	-36.9	-37.6	26.0	0.00e+00	0	42	0	2991587328	45	3881
2026-01-29 02:55:24.90	205.88	38.15	-36.8	-37.5	26.1	0.00e+00	0	42	0	2997878784	45	3852
2026-01-29 02:55:25.91	205.90	37.90	-36.9	-37.5	26.1	0.00e+00	0	42	0	3003121664	45	3864
2026-01-29 02:55:26.91	205.91	37.66	-36.9	-37.5	26.0	0.00e+00	0	42	0	3008364544	45	3867
2026-01-29 02:55:27.91	205.92	37.41	-37.0	-37.7	26.0	0.00e+00	0	42	0	3014656000	45	3917
2026-01-29 02:55:28.91	205.93	37.17	-37.2	-37.9	25.7	0.00e+00	0	42	0	3020947456	45	4036
2026-01-29 02:55:29.93	205.94	36.92	-37.4	-38.2	25.5	0.00e+00	0	42	0	3026190336	45	4157
2026-01-29 02:55:30.94	205.96	36.68	-37.7	-38.4	25.3	0.00e+00	0	42	0	3031433216	45	4271
2026-01-29 02:55:31.94	205.97	36.44	-37.8	-38.6	25.1	0.00e+00	0	42	0	3037724672	46	4110
2026-01-29 02:55:32.95	205.98	36.20	-37.9	-38.7	25.0	0.00e+00	0	42	0	3042967552	46	4178
2026-01-29 02:55:33.96	205.99	35.97	-38.0	-38.8	25.0	0.00e+00	0	42	0	3048210432	46	4199
2026-01-29 02:55:34.97	206.00	35.73	-38.0	-38.8	25.0	0.00e+00	0	42	0	3054501888	46	4197
2026-01-29 02:55:35.98	206.01	35.50	-37.9	-38.7	25.0	0.00e+00	0	42	0	3059744768	46	4172
2026-01-29 02:55:36.99	206.02	35.27	-38.0	-38.7	25.0	0.00e+00	0	42	0	3066036224	46	4176
2026-01-29 02:55:37.99	206.04	35.04	-38.0	-38.8	24.9	0.00e+00	0	42	0	3071279104	46	4203
2026-01-29 02:55:39.00	206.05	34.81	-37.7	-38.5	25.2	0.00e+00	0	42	0	3076521984	46	4061
2026-01-29 02:55:40.01	206.06	34.59	-37.7	-38.4	25.3	0.00e+00	0	42	0	3082813440	46	4019
2026-01-29 02:55:41.02	206.07	34.36	-37.8	-38.5	25.1	0.00e+00	0	42	0	3089104896	46	4085
2026-01-29 02:55:42.03	206.08	34.14	-37.7	-38.4	25.2	0.00e+00	0	42	0	3094347776	46	4036
2026-01-29 02:55:43.04	206.09	33.92	-37.7	-38.4	25.3	0.00e+00	0	42	0	3099590656	46	4021
2026-01-29 02:55:44.05	206.10	33.70	-37.7	-38.4	25.2	0.00e+00	0	42	0	3105882112	46	4048
2026-01-29 02:55:45.06	206.11	33.48	-37.9	-38.7	25.0	0.00e+00	0	42	0	3111124992	46	4153
2026-01-29 02:55:46.07	206.12	33.26	-37.9	-38.6	25.0	0.00e+00	0	42	0	3116367872	46	4141
2026-01-29 02:55:47.08	206.13	33.05	-37.8	-38.6	25.1	0.00e+00	0	42	0	3122659328	46	4109
2026-01-29 02:55:48.09	206.14	32.83	-37.9	-38.6	25.0	0.00e+00	0	42	0	3127902208	46	4136
2026-01-29 02:55:49.09	206.15	32.62	-38.0	-38.7	24.9	0.00e+00	0	42	0	3133145088	46	4187
2026-01-29 02:55:50.10	206.16	32.41	-38.0	-38.7	24.9	0.00e+00	0	42	0	3139436544	46	4191
2026-01-29 02:55:51.11	206.17	32.20	-38.0	-38.7	24.9	0.00e+00	0	42	0	3144679424	46	4185
2026-01-29 02:55:52.12	206.18	31.99	-38.0	-38.7	24.9	0.00e+00	0	42	0	3150970880	46	4179
2026-01-29 02:55:53.12	206.19	31.79	-37.9	-38.6	25.0	0.00e+00	0	42	0	3156213760	46	4144
2026-01-29 02:55:54.13	206.20	31.59	-37.8	-38.6	25.1	0.00e+00	0	42	0	3162505216	46	4107
2026-01-29 02:55:55.14	206.21	31.38	-37.8	-38.5	25.1	0.00e+00	0	42	0	3167748096	46	4081
2026-01-29 02:55:56.15	206.22	31.18	-37.7	-38.5	25.2	0.00e+00	0	42	0	3174039552	46	4057
2026-01-29 02:55:57.15	206.23	30.98	-37.7	-38.4	25.2	0.00e+00	0	42	0	3179282432	46	4019
2026-01-29 02:55:58.17	206.24	30.78	-37.5	-38.2	25.3	0.00e+00	0	42	0	3184525312	46	3935
2026-01-29 02:55:59.17	206.24	30.58	-37.5	-38.2	25.4	0.00e+00	0	42	0	3190816768	46	3931
2026-01-29 02:56:00.18	206.25	30.39	-37.5	-38.2	25.3	0.00e+00	0	42	0	3196059648	46	3948
2026-01-29 02:56:01.19	206.26	30.19	-37.5	-38.2	25.4	0.00e+00	0	42	0	3201302528	46	3930
2026-01-29 02:56:02.20	206.27	30.00	-37.5	-38.2	25.4	0.00e+00	0	42	0	3207593984	46	3921
2026-01-29 02:56:03.20	206.28	29.81	-37.4	-38.1	25.4	0.00e+00	0	42	0	3212836864	46	3889
2026-01-29 02:56:04.21	206.29	29.61	-37.4	-38.1	25.4	0.00e+00	0	42	0	3218079744	46	3902
2026-01-29 02:56:05.22	206.30	29.42	-37.5	-38.2	25.4	0.00e+00	0	42	0	3224371200	46	3916
2026-01-29 02:56:06.23	206.31	29.24	-37.5	-38.2	25.3	0.00e+00	0	42	0	3230662656	46	3943
2026-01-29 02:56:07.24	206.32	29.05	-37.5	-38.2	25.3	0.00e+00	0	42	0	3235905536	46	3951
2026-01-29 02:56:08.25	206.32	28.86	-37.5	-38.2	25.3	0.00e+00	0	42	0	3241148416	46	3943
2026-01-29 02:56:09.26	206.33	28.68	-37.6	-38.3	25.3	0.00e+00	0	42	0	3247439872	46	3970
2026-01-29 02:56:10.27	206.34	28.49	-37.6	-38.3	25.2	0.00e+00	0	42	0	3252682752	46	4000
2026-01-29 02:56:11.28	206.35	28.31	-37.6	-38.3	25.2	0.00e+00	0	42	0	3258974208	46	3979
2026-01-29 02:56:12.28	206.36	28.13	-37.5	-38.2	25.3	0.00e+00	0	42	0	3264217088	46	3944
2026-01-29 02:56:13.29	206.37	27.95	-37.5	-38.2	25.3	0.00e+00	0	42	0	3269459968	46	3942
2026-01-29 02:56:14.30	206.38	27.77	-37.5	-38.2	25.3	0.00e+00	0	42	0	3275751424	46	3922
2026-01-29 02:56:15.31	206.38	27.59	-37.6	-38.3	25.2	0.00e+00	0	42	0	3280994304	46	3972
2026-01-29 02:56:16.32	206.39	27.41	-37.6	-38.3	25.2	0.00e+00	0	42	0	3287285760	46	3993
2026-01-29 02:56:17.32	206.40	27.24	-37.4	-38.1	25.3	0.00e+00	0	42	0	3292528640	46	3903
2026-01-29 02:56:18.33	206.41	27.07	-37.5	-38.2	25.3	0.00e+00	0	42	0	3298820096	46	3915
2026-01-29 02:56:19.34	206.42	26.89	-37.4	-38.1	25.3	0.00e+00	0	42	0	3304062976	46	3905
2026-01-29 02:56:20.34	206.42	26.72	-37.4	-38.1	25.4	0.00e+00	0	42	0	3309305856	46	3890
2026-01-29 02:56:21.36	206.43	26.55	-37.5	-38.2	25.3	0.00e+00	0	42	0	3315597312	46	3918
2026-01-29 02:56:22.37	206.44	26.38	-37.6	-38.3	25.2	0.00e+00	0	42	0	3320840192	46	3977
2026-01-29 02:56:23.37	206.45	26.21	-37.5	-38.2	25.3	0.00e+00	0	42	0	3326083072	46	3938
2026-01-29 02:56:24.38	206.46	26.04	-37.6	-38.3	25.2	0.00e+00	0	42	0	3332374528	46	3987
2026-01-29 02:56:25.39	206.46	25.88	-37.7	-38.4	25.1	0.00e+00	0	42	0	3337617408	46	4019
2026-01-29 02:56:26.40	206.47	25.71	-37.8	-38.5	25.0	0.00e+00	0	42	0	3343908864	46	4088
2026-01-29 02:56:27.41	206.48	25.54	-37.8	-38.5	25.0	0.00e+00	0	42	0	3349151744	46	4080
2026-01-29 02:56:28.41	206.49	25.38	-37.9	-38.6	24.9	0.00e+00	0	42	0	3354394624	46	4113
2026-01-29 02:56:29.42	206.49	25.22	-38.0	-38.7	24.8	0.00e+00	0	42	0	3360686080	46	4172
2026-01-29 02:56:30.43	206.50	25.06	-38.0	-38.7	24.8	0.00e+00	0	42	0	3366977536	46	4181
2026-01-29 02:56:31.44	206.51	24.90	-38.0	-38.8	24.8	0.00e+00	0	42	0	3372220416	46	4208
2026-01-29 02:56:32.45	206.52	24.74	-38.1	-38.8	24.7	0.00e+00	0	42	0	3377463296	46	4239
2026-01-29 02:56:33.46	206.52	24.58	-38.1	-38.9	24.6	0.00e+00	0	42	0	3383754752	46	4262
2026-01-29 02:56:34.47	206.53	24.42	-38.1	-38.9	24.6	0.00e+00	0	42	0	3388997632	47	4027
2026-01-29 02:56:35.48	206.54	24.26	-38.0	-38.8	24.7	0.00e+00	0	42	0	3394240512	47	3976
2026-01-29 02:56:36.48	206.55	24.11	-38.1	-38.9	24.7	0.00e+00	0	42	0	3400531968	47	4011
2026-01-29 02:56:37.49	206.55	23.95	-38.2	-38.9	24.6	0.00e+00	0	42	0	3405774848	47	4051
2026-01-29 02:56:38.50	206.56	23.80	-38.2	-38.9	24.6	0.00e+00	0	42	0	3411017728	47	4032
2026-01-29 02:56:39.51	206.57	23.64	-38.1	-38.9	24.6	0.00e+00	0	42	0	3417309184	47	4008
2026-01-29 02:56:40.52	206.58	23.49	-38.3	-39.0	24.5	0.00e+00	0	42	0	3423600640	47	4074
2026-01-29 02:56:41.53	206.58	23.34	-38.2	-39.0	24.5	0.00e+00	0	42	0	3428843520	47	4066
2026-01-29 02:56:42.54	206.59	23.19	-38.4	-39.1	24.4	0.00e+00	0	42	0	3434086400	47	4118
2026-01-29 02:56:43.54	206.60	23.04	-38.3	-39.0	24.5	0.00e+00	0	42	0	3440377856	47	4087
2026-01-29 02:56:44.55	206.60	22.89	-38.3	-39.0	24.5	0.00e+00	0	42	0	3445620736	47	4087
2026-01-29 02:56:45.56	206.61	22.74	-38.3	-39.0	24.5	0.00e+00	0	42	0	3451912192	47	4083
2026-01-29 02:56:46.58	206.62	22.59	-38.3	-39.1	24.4	0.00e+00	0	42	0	3457155072	47	4099
2026-01-29 02:56:47.58	206.62	22.45	-38.4	-39.2	24.3	0.00e+00	0	42	0	3462397952	47	4165
2026-01-29 02:56:48.59	206.63	22.30	-38.4	-39.1	24.4	0.00e+00	0	42	0	3468689408	47	4122
2026-01-29 02:56:49.60	206.64	22.16	-38.5	-39.2	24.3	0.00e+00	0	42	0	3473932288	47	4182
2026-01-29 02:56:50.61	206.65	22.01	-38.6	-39.3	24.2	0.00e+00	0	42	0	3479175168	47	4232
2026-01-29 02:56:51.62	206.65	21.87	-38.6	-39.3	24.2	0.00e+00	0	42	0	3485466624	47	4218
2026-01-29 02:56:52.63	206.66	21.73	-38.6	-39.3	24.2	0.00e+00	0	42	0	3491758080	47	4232
2026-01-29 02:56:53.64	206.67	21.59	-38.6	-39.3	24.2	0.00e+00	0	42	0	3497000960	47	4222
2026-01-29 02:56:54.65	206.67	21.45	-38.5	-39.3	24.2	0.00e+00	0	42	0	3502243840	47	4213
2026-01-29 02:56:55.65	206.68	21.31	-38.6	-39.4	24.1	0.00e+00	0	42	0	3508535296	47	4253
2026-01-29 02:56:56.66	206.69	21.17	-38.6	-39.3	24.2	0.00e+00	0	42	0	3513778176	47	4218
2026-01-29 02:56:57.66	206.69	21.03	-38.6	-39.4	24.1	0.00e+00	0	42	0	3519021056	47	4246
2026-01-29 02:56:58.67	206.70	20.89	-38.7	-39.4	24.0	0.00e+00	0	42	0	3525312512	47	4290
2026-01-29 02:56:59.68	206.71	20.76	-39.0	-39.8	24.2	0.00e+00	0	42	0	3530555392	48	4200
2026-01-29 02:57:00.69	206.71	20.62	-39.0	-39.8	24.2	0.00e+00	0	42	0	3536846848	48	4195
2026-01-29 02:57:01.69	206.72	20.49	-39.0	-39.7	24.3	0.00e+00	0	42	0	3542089728	48	4178
2026-01-29 02:57:02.71	206.73	20.35	-39.1	-39.8	24.2	0.00e+00	0	42	0	3547332608	48	4204
2026-01-29 02:57:03.71	206.73	20.22	-39.1	-39.8	24.2	0.00e+00	0	42	0	3553624064	48	4216
2026-01-29 02:57:04.72	206.74	20.08	-39.1	-39.8	24.1	0.00e+00	0	42	0	3559915520	48	4237
2026-01-29 02:57:05.73	206.75	19.95	-39.1	-39.9	24.1	0.00e+00	0	42	0	3565158400	48	4244
2026-01-29 02:57:06.73	206.75	19.82	-39.2	-39.9	24.0	0.00e+00	0	42	0	3570401280	49	4044
2026-01-29 02:57:07.74	206.76	19.69	-39.1	-39.9	24.1	0.00e+00	0	42	0	3576692736	49	4019
2026-01-29 02:57:08.75	206.76	19.56	-39.2	-39.9	24.1	0.00e+00	0	42	0	3581935616	49	4020
2026-01-29 02:57:09.76	206.77	19.43	-39.2	-39.9	24.1	0.00e+00	0	42	0	3587178496	49	4029
2026-01-29 02:57:10.77	206.78	19.30	-39.3	-40.0	23.9	0.00e+00	0	42	0	3593469952	49	4095
2026-01-29 02:57:11.77	206.78	19.17	-39.2	-40.0	24.0	0.00e+00	0	42	0	3598712832	49	4061
2026-01-29 02:57:12.77	206.79	19.05	-39.3	-40.0	23.9	0.00e+00	0	42	0	3603955712	49	4095
2026-01-29 02:57:13.78	206.80	18.92	-39.3	-40.1	23.9	0.00e+00	0	42	0	3610247168	49	4102
2026-01-29 02:57:14.79	206.80	18.79	-39.3	-40.1	23.9	0.00e+00	0	42	0	3615490048	49	4106
2026-01-29 02:57:15.80	206.81	18.67	-39.4	-40.1	23.8	0.00e+00	0	42	0	3621781504	49	4128
2026-01-29 02:57:16.81	206.82	18.54	-39.4	-40.2	23.8	0.00e+00	0	42	0	3627024384	49	4149
2026-01-29 02:57:17.82	206.82	18.42	-39.4	-40.2	23.8	0.00e+00	0	42	0	3633315840	49	4148
2026-01-29 02:57:18.83	206.83	18.29	-39.5	-40.3	23.7	0.00e+00	0	42	0	3638558720	49	4212
2026-01-29 02:57:19.84	206.83	18.17	-39.5	-40.3	23.6	0.00e+00	0	42	0	3644850176	49	4227
2026-01-29 02:57:20.85	206.84	18.05	-39.6	-40.3	23.6	0.00e+00	0	42	0	3650093056	49	4238
2026-01-29 02:57:21.85	206.85	17.92	-39.6	-40.3	23.6	0.00e+00	0	42	0	3655335936	49	4237
2026-01-29 02:57:22.86	206.85	17.80	-39.8	-40.5	23.5	0.00e+00	0	42	0	3661627392	50	4087
2026-01-29 02:57:23.87	206.86	17.68	-39.8	-40.5	23.4	0.00e+00	0	42	0	3666870272	50	4087
2026-01-29 02:57:24.88	206.86	17.56	-39.8	-40.6	23.4	0.00e+00	0	42	0	3672113152	50	4125
2026-01-29 02:57:25.88	206.87	17.44	-39.8	-40.6	23.4	0.00e+00	0	42	0	3678404608	50	4123
2026-01-29 02:57:26.89	206.88	17.32	-39.7	-40.5	23.5	0.00e+00	0	42	0	3683647488	50	4082
2026-01-29 02:57:27.90	206.88	17.20	-39.8	-40.6	23.4	0.00e+00	0	42	0	3688890368	50	4129
2026-01-29 02:57:28.90	206.89	17.09	-39.9	-40.6	23.3	0.00e+00	0	42	0	3695181824	50	4139
2026-01-29 02:57:29.91	206.89	16.97	-39.9	-40.7	23.3	0.00e+00	0	42	0	3700424704	50	4169
2026-01-29 02:57:30.92	206.90	16.85	-39.9	-40.7	23.2	0.00e+00	0	42	0	3706716160	50	4187
