passes_logs/2026/01/29/R3.2S_Murmansk/R3.2S_Murmansk__20260129_000859_SUOMI_NPP_rec.log

#Pass ID: 20260129_000859_SUOMI NPP
#Satellite: SUOMI NPP
#Configuration: NPP
#almurnet v.1.7.20251203
#Start time: 2026-01-29 00:08:59

#Version: 2.2.20231116
#Station: R3.2S_Murmansk
#Location: 33.079688 lon 68.888172 lat
#TLE: 1 37849U 11061A   26027.93236865  .00000148  00000+0  91411-4 0  9991
#TLE: 2 37849  98.7823 329.8704 0002085  41.3231 318.8102 14.19530777738546

#Time	Az	El	Level	Level2	SNR	BER	BlckErr	Temp	State	Recorded	gain1	gain2
2026-01-29 00:08:59.69	22.46	2.01	-53.9	-68.9	3.8	1.49e+00	0	40	0	0	79	20189
2026-01-29 00:09:00.69	22.48	2.07	-53.9	-68.9	3.8	1.49e+00	0	40	104	0	78	21381
2026-01-29 00:09:01.70	22.50	2.14	-53.9	-68.9	3.8	1.49e+00	0	40	104	0	78	21391
2026-01-29 00:09:02.70	22.52	2.20	-53.9	-68.9	3.8	1.49e+00	0	40	104	0	78	21333
2026-01-29 00:09:03.71	22.54	2.26	-53.9	-68.9	3.8	1.49e+00	0	40	104	0	78	21284
2026-01-29 00:09:04.71	22.56	2.33	-53.8	-68.8	3.8	1.49e+00	0	40	104	0	78	21198
2026-01-29 00:09:05.72	22.58	2.39	-53.8	-68.9	3.8	1.49e+00	0	40	104	0	78	21264
2026-01-29 00:09:06.73	22.61	2.46	-53.8	-68.8	3.8	1.49e+00	0	40	104	0	78	21211
2026-01-29 00:09:07.74	22.63	2.52	-54.0	-69.0	3.8	1.49e+00	0	40	104	0	78	21549
2026-01-29 00:09:08.75	22.65	2.59	-54.1	-69.1	3.8	1.49e+00	0	40	104	0	78	21802
2026-01-29 00:09:09.76	22.67	2.65	-54.1	-69.1	3.8	1.49e+00	0	40	104	0	78	21905
2026-01-29 00:09:10.77	22.69	2.72	-54.2	-69.2	3.8	1.49e+00	0	40	104	0	78	22023
2026-01-29 00:09:11.77	22.71	2.78	-54.1	-69.1	3.8	1.49e+00	0	40	104	0	78	21999
2026-01-29 00:09:12.79	22.74	2.85	-54.1	-69.1	3.8	1.49e+00	0	41	104	0	78	21961
2026-01-29 00:09:13.79	22.76	2.91	-54.1	-69.1	3.8	1.49e+00	0	41	104	0	78	21975
2026-01-29 00:09:14.80	22.78	2.98	-54.1	-69.1	3.8	1.49e+00	0	40	104	0	78	21989
2026-01-29 00:09:15.81	22.80	3.04	-54.1	-69.1	3.8	1.49e+00	0	41	104	0	78	21810
2026-01-29 00:09:16.82	22.82	3.11	-54.0	-69.0	3.8	1.49e+00	0	41	104	0	78	21708
2026-01-29 00:09:17.82	22.85	3.18	-54.1	-69.0	3.8	1.49e+00	0	41	104	0	78	21728
2026-01-29 00:09:18.83	22.87	3.24	-54.1	-69.1	3.8	1.49e+00	0	41	104	0	78	21905
2026-01-29 00:09:19.84	22.89	3.31	-54.1	-69.1	3.8	1.49e+00	0	41	104	0	78	21766
2026-01-29 00:09:20.84	22.91	3.38	-54.0	-69.0	3.8	1.49e+00	0	41	104	0	78	21594
2026-01-29 00:09:21.85	22.93	3.44	-54.0	-69.0	3.8	1.49e+00	0	41	104	0	78	21550
2026-01-29 00:09:22.86	22.96	3.51	-53.9	-68.9	3.8	1.49e+00	0	41	104	0	78	21293
2026-01-29 00:09:23.87	22.98	3.58	-53.8	-68.7	3.8	1.49e+00	0	41	104	0	78	21007
2026-01-29 00:09:24.88	23.00	3.64	-53.6	-68.6	3.8	1.49e+00	0	41	104	0	78	20678
2026-01-29 00:09:25.89	23.03	3.71	-53.5	-68.5	3.8	1.49e+00	0	41	104	0	78	20317
2026-01-29 00:09:26.90	23.05	3.78	-53.3	-68.3	3.8	1.49e+00	0	41	104	0	78	19917
2026-01-29 00:09:27.91	23.07	3.85	-53.1	-68.0	3.8	1.49e+00	0	41	104	0	78	19327
2026-01-29 00:09:28.92	23.09	3.92	-52.8	-67.7	3.8	1.49e+00	0	41	104	0	77	19777
2026-01-29 00:09:29.93	23.12	3.98	-52.3	-67.0	3.8	1.49e+00	0	41	104	0	76	19285
2026-01-29 00:09:30.94	23.14	4.05	-51.9	-64.3	3.8	1.48e+00	0	41	104	0	75	14888
2026-01-29 00:09:31.95	23.16	4.12	-51.8	-63.0	4.3	1.38e+00	0	41	0	0	75	12932
2026-01-29 00:09:32.95	23.19	4.19	-51.7	-61.7	4.8	1.05e+00	0	41	0	1048576	75	11116
2026-01-29 00:09:33.96	23.21	4.26	-51.5	-60.3	5.7	6.72e-01	0	41	0	3145728	75	9458
2026-01-29 00:09:34.97	23.23	4.33	-51.2	-58.8	6.9	2.27e-01	0	41	0	5242880	74	8396
2026-01-29 00:09:35.98	23.26	4.40	-50.9	-57.2	8.4	8.09e-02	0	41	0	6291456	73	7419
2026-01-29 00:09:36.99	23.28	4.47	-50.7	-56.6	9.0	3.40e-02	0	41	0	8388608	73	6953
2026-01-29 00:09:37.99	23.31	4.53	-50.3	-55.3	10.4	6.68e-03	0	41	0	10485760	72	6326
2026-01-29 00:09:39.00	23.33	4.60	-50.0	-54.7	11.0	2.43e-03	0	41	0	12582912	72	5867
2026-01-29 00:09:40.00	23.35	4.67	-49.9	-54.2	11.5	1.63e-03	0	41	0	14680064	71	5915
2026-01-29 00:09:41.01	23.38	4.74	-49.7	-53.7	12.1	2.66e-04	0	41	0	16777216	71	5554
2026-01-29 00:09:42.02	23.40	4.81	-49.7	-53.8	12.1	1.73e-04	0	41	0	17825792	71	5599
2026-01-29 00:09:43.02	23.43	4.88	-49.5	-53.3	12.5	1.18e-04	0	41	0	19922944	70	5630
2026-01-29 00:09:44.02	23.45	4.95	-49.5	-53.4	12.4	1.50e-04	0	41	0	22020096	70	5721
2026-01-29 00:09:45.03	23.47	5.02	-49.8	-54.2	11.7	2.89e-04	0	41	0	24117248	70	6219
2026-01-29 00:09:46.04	23.50	5.10	-47.5	-49.9	15.9	3.00e-06	0	41	0	26214400	67	4508
2026-01-29 00:09:47.04	23.52	5.17	-50.7	-56.2	9.8	5.30e-06	0	41	0	27262976	71	7378
2026-01-29 00:09:48.05	23.55	5.24	-51.8	-64.9	3.9	3.90e-01	0	41	0	29360128	74	16947
2026-01-29 00:09:49.06	23.57	5.31	-47.8	-50.4	15.2	2.87e-02	0	41	0	29360128	67	4779
2026-01-29 00:09:50.07	23.60	5.38	-51.5	-60.0	6.0	4.99e-03	0	41	0	31457280	73	10232
2026-01-29 00:09:51.07	23.62	5.45	-47.7	-50.1	15.6	1.22e-05	0	41	0	33554432	67	4646
2026-01-29 00:09:52.08	23.65	5.53	-47.4	-49.7	16.0	0.00e+00	0	41	0	34603008	66	4693
2026-01-29 00:09:53.09	23.67	5.60	-47.3	-49.5	16.2	0.00e+00	0	41	0	36700160	66	4590
2026-01-29 00:09:54.10	23.70	5.67	-46.9	-49.0	16.8	0.00e+00	0	41	0	38797312	65	4573
2026-01-29 00:09:55.11	23.72	5.74	-47.0	-49.2	16.6	0.00e+00	0	41	0	40894464	65	4682
2026-01-29 00:09:56.12	23.75	5.82	-47.0	-49.2	16.7	0.00e+00	0	41	0	42991616	65	4660
2026-01-29 00:09:57.13	23.78	5.89	-47.1	-49.3	16.5	0.00e+00	0	41	0	45088768	65	4756
2026-01-29 00:09:58.14	23.80	5.96	-47.0	-49.1	16.8	0.00e+00	0	41	0	46137344	65	4607
2026-01-29 00:09:59.14	23.83	6.04	-47.1	-49.3	16.5	0.00e+00	0	42	0	48234496	65	4738
2026-01-29 00:10:00.15	23.85	6.11	-47.0	-49.1	16.7	0.00e+00	0	42	0	50331648	65	4626
2026-01-29 00:10:01.15	23.88	6.18	-46.8	-48.9	17.0	0.00e+00	0	42	0	52428800	65	4516
2026-01-29 00:10:02.16	23.91	6.26	-47.2	-49.3	16.5	0.00e+00	0	42	0	54525952	65	4758
2026-01-29 00:10:03.17	23.93	6.33	-46.8	-48.9	17.0	0.00e+00	0	42	0	55574528	65	4511
2026-01-29 00:10:04.18	23.96	6.41	-46.8	-48.9	17.0	0.00e+00	0	41	0	57671680	65	4512
2026-01-29 00:10:05.19	23.99	6.48	-46.7	-48.7	17.1	0.00e+00	0	41	0	59768832	65	4437
2026-01-29 00:10:06.19	24.01	6.56	-46.9	-48.9	17.0	0.00e+00	0	42	0	61865984	65	4536
2026-01-29 00:10:07.19	24.04	6.63	-47.1	-49.2	16.7	0.00e+00	0	42	0	62914560	65	4670
2026-01-29 00:10:08.20	24.07	6.71	-47.1	-49.2	16.8	0.00e+00	0	42	0	65011712	65	4665
2026-01-29 00:10:09.20	24.09	6.78	-47.1	-49.2	16.8	0.00e+00	0	42	0	67108864	65	4655
2026-01-29 00:10:10.21	24.12	6.86	-46.9	-48.9	17.1	0.00e+00	0	42	0	69206016	65	4503
2026-01-29 00:10:11.22	24.15	6.93	-46.6	-48.6	17.3	0.00e+00	0	42	0	71303168	65	4353
2026-01-29 00:10:12.22	24.17	7.01	-46.8	-48.8	17.2	0.00e+00	0	42	0	73400320	65	4459
2026-01-29 00:10:13.23	24.20	7.08	-46.7	-48.6	17.4	0.00e+00	0	42	0	74448896	65	4385
2026-01-29 00:10:14.24	24.23	7.16	-46.6	-48.5	17.6	0.00e+00	0	42	0	76546048	65	4307
2026-01-29 00:10:15.25	24.26	7.24	-46.6	-48.5	17.5	0.00e+00	0	42	0	78643200	65	4339
2026-01-29 00:10:16.25	24.28	7.32	-46.7	-48.6	17.4	0.00e+00	0	42	0	80740352	65	4385
2026-01-29 00:10:17.26	24.31	7.39	-46.8	-48.8	17.2	0.00e+00	0	42	0	82837504	65	4476
2026-01-29 00:10:18.27	24.34	7.47	-46.7	-48.6	17.4	0.00e+00	0	42	0	83886080	65	4386
2026-01-29 00:10:19.27	24.37	7.55	-46.6	-48.6	17.5	0.00e+00	0	42	0	85983232	65	4346
2026-01-29 00:10:20.27	24.40	7.63	-46.4	-48.1	17.9	0.00e+00	0	42	0	88080384	64	4391
2026-01-29 00:10:21.28	24.43	7.70	-46.3	-48.1	17.9	0.00e+00	0	42	0	90177536	64	4388
2026-01-29 00:10:22.28	24.45	7.78	-46.4	-48.2	17.8	0.00e+00	0	42	0	91226112	64	4440
2026-01-29 00:10:23.29	24.48	7.86	-46.3	-48.1	17.9	0.00e+00	0	42	0	93323264	64	4364
2026-01-29 00:10:24.29	24.51	7.94	-46.3	-48.1	17.9	0.00e+00	0	42	0	95420416	64	4388
2026-01-29 00:10:25.30	24.54	8.02	-46.3	-48.1	18.0	0.00e+00	0	42	0	97517568	64	4342
2026-01-29 00:10:26.30	24.57	8.10	-46.3	-48.0	18.0	0.00e+00	0	42	0	99614720	64	4335
2026-01-29 00:10:27.31	24.60	8.18	-46.1	-47.8	18.3	0.00e+00	0	42	0	101711872	64	4195
2026-01-29 00:10:28.31	24.63	8.26	-46.1	-47.8	18.2	0.00e+00	0	42	0	102760448	64	4235
2026-01-29 00:10:29.32	24.66	8.34	-46.1	-47.8	18.2	0.00e+00	0	42	0	104857600	64	4219
2026-01-29 00:10:30.33	24.69	8.42	-46.2	-47.8	18.3	0.00e+00	0	42	0	106954752	63	4481
2026-01-29 00:10:31.34	24.72	8.50	-46.2	-47.9	18.3	0.00e+00	0	42	0	109051904	63	4498
2026-01-29 00:10:32.34	24.75	8.58	-46.2	-47.9	18.3	0.00e+00	0	42	0	111149056	63	4523
2026-01-29 00:10:33.35	24.78	8.66	-46.1	-47.7	18.4	0.00e+00	0	42	0	112197632	63	4433
2026-01-29 00:10:34.36	24.81	8.74	-46.2	-47.8	18.3	0.00e+00	0	42	0	114294784	63	4490
2026-01-29 00:10:35.37	24.84	8.82	-46.1	-47.8	18.4	0.00e+00	0	42	0	116391936	63	4448
2026-01-29 00:10:36.38	24.87	8.91	-46.0	-47.6	18.6	0.00e+00	0	42	0	118489088	63	4376
2026-01-29 00:10:37.39	24.90	8.99	-45.9	-47.5	18.7	0.00e+00	0	42	0	119537664	63	4329
2026-01-29 00:10:38.40	24.93	9.07	-45.9	-47.5	18.8	0.00e+00	0	42	0	121634816	63	4292
2026-01-29 00:10:39.41	24.96	9.15	-46.0	-47.7	18.5	0.00e+00	0	42	0	123731968	63	4397
2026-01-29 00:10:40.41	24.99	9.24	-46.0	-47.6	18.6	0.00e+00	0	42	0	125829120	63	4384
2026-01-29 00:10:41.42	25.02	9.32	-45.9	-47.6	18.7	0.00e+00	0	42	0	127926272	63	4345
2026-01-29 00:10:42.43	25.05	9.40	-45.9	-47.5	18.7	0.00e+00	0	42	0	130023424	63	4331
2026-01-29 00:10:43.44	25.09	9.49	-45.7	-47.2	19.0	0.00e+00	0	42	0	131072000	63	4179
2026-01-29 00:10:44.45	25.12	9.57	-45.8	-47.3	18.9	0.00e+00	0	42	0	133169152	63	4234
2026-01-29 00:10:45.46	25.15	9.66	-45.9	-47.5	18.7	0.00e+00	0	42	0	135266304	63	4313
2026-01-29 00:10:46.47	25.18	9.74	-45.8	-47.3	18.9	0.00e+00	0	42	0	137363456	63	4225
2026-01-29 00:10:47.48	25.21	9.83	-45.8	-47.4	18.9	0.00e+00	0	42	0	139460608	63	4258
2026-01-29 00:10:48.49	25.25	9.91	-45.8	-47.4	18.9	0.00e+00	0	42	0	140509184	63	4264
2026-01-29 00:10:49.49	25.28	10.00	-45.8	-47.3	18.9	0.00e+00	0	42	0	142606336	63	4241
2026-01-29 00:10:50.50	25.31	10.08	-45.8	-47.3	18.9	0.00e+00	0	42	0	144703488	63	4241
2026-01-29 00:10:51.51	25.34	10.17	-45.6	-47.1	19.2	0.00e+00	0	42	0	146800640	63	4124
2026-01-29 00:10:52.52	25.38	10.26	-45.7	-47.3	19.0	0.00e+00	0	42	0	148897792	63	4212
2026-01-29 00:10:53.53	25.41	10.34	-45.9	-47.5	18.8	0.00e+00	0	42	0	149946368	63	4320
2026-01-29 00:10:54.54	25.44	10.43	-45.8	-47.3	19.0	0.00e+00	0	42	0	152043520	63	4217
2026-01-29 00:10:55.55	25.48	10.52	-45.7	-47.3	19.0	0.00e+00	0	42	0	154140672	63	4200
2026-01-29 00:10:56.56	25.51	10.61	-45.7	-47.2	19.1	0.00e+00	0	42	0	156237824	63	4192
2026-01-29 00:10:57.57	25.55	10.70	-45.6	-47.1	19.2	0.00e+00	0	42	0	158334976	63	4142
2026-01-29 00:10:58.57	25.58	10.78	-45.7	-47.3	19.0	0.00e+00	0	42	0	159383552	63	4201
2026-01-29 00:10:59.58	25.61	10.87	-45.8	-47.3	19.0	0.00e+00	0	42	0	161480704	63	4211
2026-01-29 00:11:00.59	25.65	10.96	-45.6	-47.2	19.1	0.00e+00	0	42	0	163577856	63	4153
2026-01-29 00:11:01.59	25.68	11.05	-45.6	-47.1	19.3	0.00e+00	0	42	0	165675008	63	4104
2026-01-29 00:11:02.60	25.72	11.14	-45.6	-47.1	19.2	0.00e+00	0	42	0	167772160	63	4108
2026-01-29 00:11:03.60	25.75	11.23	-45.6	-47.1	19.3	0.00e+00	0	42	0	169869312	63	4107
2026-01-29 00:11:04.61	25.79	11.32	-45.6	-47.1	19.2	0.00e+00	0	42	0	170917888	63	4111
2026-01-29 00:11:05.62	25.82	11.41	-45.6	-47.1	19.2	0.00e+00	0	42	0	173015040	63	4120
2026-01-29 00:11:06.63	25.86	11.50	-45.6	-47.0	19.3	0.00e+00	0	42	0	175112192	62	4337
2026-01-29 00:11:07.64	25.89	11.59	-45.4	-46.9	19.4	0.00e+00	0	42	0	177209344	62	4247
2026-01-29 00:11:08.65	25.93	11.68	-45.5	-46.9	19.4	0.00e+00	0	42	0	178257920	62	4280
2026-01-29 00:11:09.65	25.97	11.78	-45.5	-46.9	19.4	0.00e+00	0	42	0	180355072	62	4278
2026-01-29 00:11:10.66	26.00	11.87	-45.3	-46.8	19.6	0.00e+00	0	42	0	182452224	62	4208
2026-01-29 00:11:11.67	26.04	11.96	-45.4	-46.8	19.5	0.00e+00	0	42	0	184549376	62	4234
2026-01-29 00:11:12.67	26.08	12.05	-45.4	-46.9	19.5	0.00e+00	0	42	0	186646528	62	4262
2026-01-29 00:11:13.68	26.11	12.15	-45.3	-46.8	19.6	0.00e+00	0	42	0	187695104	62	4203
2026-01-29 00:11:14.69	26.15	12.24	-45.3	-46.7	19.6	0.00e+00	0	42	0	189792256	62	4189
2026-01-29 00:11:15.70	26.19	12.33	-45.3	-46.7	19.6	0.00e+00	0	42	0	191889408	62	4189
2026-01-29 00:11:16.71	26.22	12.43	-45.2	-46.7	19.8	0.00e+00	0	42	0	193986560	62	4148
2026-01-29 00:11:17.72	26.26	12.52	-45.2	-46.6	19.8	0.00e+00	0	42	0	196083712	62	4120
2026-01-29 00:11:18.72	26.30	12.62	-45.2	-46.6	19.7	0.00e+00	0	42	0	198180864	62	4141
2026-01-29 00:11:19.73	26.34	12.71	-45.2	-46.7	19.7	0.00e+00	0	42	0	199229440	62	4148
2026-01-29 00:11:20.74	26.38	12.81	-45.4	-46.8	19.6	0.00e+00	0	42	0	201326592	62	4213
2026-01-29 00:11:21.75	26.42	12.91	-45.2	-46.6	19.8	0.00e+00	0	42	0	203423744	62	4131
2026-01-29 00:11:22.75	26.45	13.00	-45.3	-46.7	19.7	0.00e+00	0	42	0	205520896	62	4155
2026-01-29 00:11:23.76	26.49	13.10	-45.3	-46.7	19.7	0.00e+00	0	42	0	206569472	62	4152
2026-01-29 00:11:24.77	26.53	13.20	-45.2	-46.6	19.8	0.00e+00	0	42	0	208666624	62	4104
2026-01-29 00:11:25.78	26.57	13.29	-45.2	-46.6	19.8	0.00e+00	0	42	0	210763776	62	4107
2026-01-29 00:11:26.79	26.61	13.39	-45.3	-46.7	19.7	0.00e+00	0	42	0	212860928	62	4191
2026-01-29 00:11:27.79	26.65	13.49	-45.2	-46.6	19.8	0.00e+00	0	42	0	214958080	62	4113
2026-01-29 00:11:28.80	26.69	13.59	-45.4	-46.8	19.6	0.00e+00	0	42	0	217055232	62	4207
2026-01-29 00:11:29.80	26.73	13.69	-45.2	-46.6	19.8	0.00e+00	0	42	0	218103808	62	4121
2026-01-29 00:11:30.81	26.77	13.79	-45.3	-46.7	19.7	0.00e+00	0	42	0	220200960	62	4170
2026-01-29 00:11:31.82	26.81	13.89	-45.3	-46.7	19.7	0.00e+00	0	42	0	222298112	62	4159
2026-01-29 00:11:32.83	26.86	13.99	-45.2	-46.6	19.8	0.00e+00	0	42	0	224395264	62	4119
2026-01-29 00:11:33.84	26.90	14.09	-45.5	-47.0	19.5	0.00e+00	0	42	0	226492416	62	4323
2026-01-29 00:11:34.85	26.94	14.19	-45.3	-46.7	19.7	0.00e+00	0	42	0	227540992	62	4175
2026-01-29 00:11:35.85	26.98	14.29	-45.3	-46.7	19.7	0.00e+00	0	42	0	229638144	62	4168
2026-01-29 00:11:36.86	27.02	14.39	-45.2	-46.6	19.8	0.00e+00	0	42	0	231735296	62	4119
2026-01-29 00:11:37.87	27.07	14.50	-45.2	-46.6	19.8	0.00e+00	0	42	0	233832448	62	4126
2026-01-29 00:11:38.87	27.11	14.60	-45.1	-46.5	20.0	0.00e+00	0	42	0	234881024	62	4073
2026-01-29 00:11:39.89	27.15	14.70	-45.3	-46.7	19.8	0.00e+00	0	42	0	236978176	62	4165
2026-01-29 00:11:40.90	27.19	14.81	-45.2	-46.6	19.9	0.00e+00	0	42	0	239075328	62	4113
2026-01-29 00:11:41.90	27.24	14.91	-45.2	-46.6	19.9	0.00e+00	0	42	0	241172480	62	4124
2026-01-29 00:11:42.91	27.28	15.02	-45.0	-46.4	20.0	0.00e+00	0	42	0	243269632	62	4016
2026-01-29 00:11:43.92	27.33	15.12	-45.2	-46.5	19.9	0.00e+00	0	42	0	245366784	62	4081
2026-01-29 00:11:44.93	27.37	15.23	-45.1	-46.4	20.1	0.00e+00	0	42	0	246415360	62	4031
2026-01-29 00:11:45.93	27.41	15.33	-45.3	-46.7	19.8	0.00e+00	0	42	0	248512512	62	4170
2026-01-29 00:11:46.94	27.46	15.44	-45.3	-46.7	19.9	0.00e+00	0	42	0	250609664	62	4156
2026-01-29 00:11:47.94	27.50	15.54	-45.2	-46.5	19.9	0.00e+00	0	42	0	252706816	62	4098
2026-01-29 00:11:48.95	27.55	15.65	-45.2	-46.5	19.9	0.00e+00	0	42	0	254803968	62	4086
2026-01-29 00:11:49.96	27.60	15.76	-45.2	-46.6	19.9	0.00e+00	0	42	0	255852544	62	4118
2026-01-29 00:11:50.97	27.64	15.87	-45.3	-46.7	19.8	0.00e+00	0	42	0	257949696	62	4151
2026-01-29 00:11:51.97	27.69	15.98	-45.3	-46.6	19.9	0.00e+00	0	42	0	260046848	62	4139
2026-01-29 00:11:52.98	27.74	16.09	-45.1	-46.5	20.0	0.00e+00	0	42	0	262144000	62	4068
2026-01-29 00:11:53.99	27.78	16.20	-45.2	-46.6	19.9	0.00e+00	0	42	0	263192576	62	4119
2026-01-29 00:11:55.00	27.83	16.31	-45.4	-46.8	19.8	0.00e+00	0	42	0	265289728	62	4207
2026-01-29 00:11:56.01	27.88	16.42	-45.3	-46.7	19.8	0.00e+00	0	42	0	267386880	62	4157
2026-01-29 00:11:57.01	27.93	16.53	-45.3	-46.7	19.8	0.00e+00	0	42	0	269484032	62	4174
2026-01-29 00:11:58.02	27.97	16.64	-45.2	-46.5	20.0	0.00e+00	0	42	0	271581184	62	4097
2026-01-29 00:11:59.03	28.02	16.75	-45.3	-46.7	19.8	0.00e+00	0	42	0	273678336	62	4171
2026-01-29 00:12:00.04	28.07	16.86	-45.3	-46.7	19.9	0.00e+00	0	42	0	274726912	62	4157
2026-01-29 00:12:01.05	28.12	16.98	-45.3	-46.6	19.9	0.00e+00	0	42	0	276824064	62	4136
2026-01-29 00:12:02.05	28.17	17.09	-45.3	-46.7	19.8	0.00e+00	0	42	0	278921216	62	4182
2026-01-29 00:12:03.06	28.22	17.20	-45.4	-46.8	19.7	0.00e+00	0	42	0	281018368	62	4241
2026-01-29 00:12:04.07	28.27	17.32	-45.4	-46.8	19.8	0.00e+00	0	42	0	283115520	62	4197
2026-01-29 00:12:05.08	28.32	17.43	-45.3	-46.7	19.9	0.00e+00	0	42	0	284164096	62	4152
2026-01-29 00:12:06.09	28.37	17.55	-45.4	-46.8	19.8	0.00e+00	0	42	0	286261248	62	4212
2026-01-29 00:12:07.09	28.42	17.67	-45.5	-46.9	19.7	0.00e+00	0	42	0	288358400	62	4251
2026-01-29 00:12:08.10	28.48	17.78	-45.4	-46.8	19.7	0.00e+00	0	42	0	290455552	62	4231
2026-01-29 00:12:09.11	28.53	17.90	-45.4	-46.7	19.8	0.00e+00	0	42	0	292552704	62	4187
2026-01-29 00:12:10.12	28.58	18.02	-45.2	-46.6	20.0	0.00e+00	0	42	0	293601280	62	4119
2026-01-29 00:12:11.12	28.63	18.14	-45.4	-46.7	19.9	0.00e+00	0	42	0	295698432	62	4177
2026-01-29 00:12:12.13	28.69	18.26	-45.3	-46.6	19.9	0.00e+00	0	42	0	297795584	62	4144
2026-01-29 00:12:13.14	28.74	18.38	-45.4	-46.7	19.9	0.00e+00	0	42	0	299892736	62	4179
2026-01-29 00:12:14.15	28.79	18.50	-45.4	-46.8	19.9	0.00e+00	0	42	0	301989888	62	4202
2026-01-29 00:12:15.15	28.85	18.62	-45.4	-46.8	19.9	0.00e+00	0	42	0	303038464	62	4198
2026-01-29 00:12:16.16	28.90	18.74	-45.4	-46.8	19.8	0.00e+00	0	42	0	305135616	62	4197
2026-01-29 00:12:17.17	28.96	18.86	-45.6	-47.1	19.6	0.00e+00	0	42	0	307232768	62	4347
2026-01-29 00:12:18.18	29.01	18.98	-45.5	-46.9	19.7	0.00e+00	0	42	0	309329920	62	4280
2026-01-29 00:12:19.18	29.07	19.10	-45.5	-46.9	19.7	0.00e+00	0	42	0	311427072	62	4283
2026-01-29 00:12:20.19	29.13	19.23	-45.4	-46.7	19.9	0.00e+00	0	42	0	312475648	62	4179
2026-01-29 00:12:21.20	29.18	19.35	-45.5	-46.9	19.8	0.00e+00	0	42	0	314572800	62	4261
2026-01-29 00:12:22.21	29.24	19.48	-45.8	-47.2	19.5	0.00e+00	0	42	0	316669952	62	4417
2026-01-29 00:12:23.22	29.30	19.60	-45.5	-46.9	19.7	0.00e+00	0	42	0	318767104	62	4286
2026-01-29 00:12:24.22	29.36	19.73	-45.7	-47.1	19.6	0.00e+00	0	42	0	320864256	62	4389
2026-01-29 00:12:25.23	29.41	19.85	-45.7	-47.2	19.5	0.00e+00	0	42	0	321912832	62	4399
2026-01-29 00:12:26.23	29.47	19.98	-45.4	-46.7	19.9	0.00e+00	0	42	0	324009984	62	4184
2026-01-29 00:12:27.24	29.53	20.11	-45.5	-46.9	19.7	0.00e+00	0	42	0	326107136	62	4291
2026-01-29 00:12:28.25	29.59	20.24	-45.4	-46.8	19.8	0.00e+00	0	42	0	328204288	62	4228
2026-01-29 00:12:29.26	29.65	20.37	-45.6	-47.0	19.6	0.00e+00	0	42	0	330301440	62	4324
2026-01-29 00:12:30.27	29.71	20.50	-45.6	-47.0	19.6	0.00e+00	0	42	0	331350016	62	4331
2026-01-29 00:12:31.28	29.78	20.63	-45.8	-47.3	19.4	0.00e+00	0	42	0	333447168	62	4451
2026-01-29 00:12:32.29	29.84	20.76	-45.7	-47.2	19.6	0.00e+00	0	42	0	335544320	62	4399
2026-01-29 00:12:33.30	29.90	20.89	-45.8	-47.3	19.5	0.00e+00	0	42	0	337641472	62	4447
2026-01-29 00:12:34.31	29.96	21.02	-45.9	-47.4	19.4	0.00e+00	0	42	0	339738624	62	4502
2026-01-29 00:12:35.32	30.03	21.16	-45.9	-47.4	19.3	0.00e+00	0	42	0	340787200	62	4541
2026-01-29 00:12:36.33	30.09	21.29	-46.1	-47.7	19.0	0.00e+00	0	42	0	342884352	62	4670
2026-01-29 00:12:37.33	30.15	21.42	-46.1	-47.6	19.2	0.00e+00	0	42	0	344981504	62	4635
2026-01-29 00:12:38.34	30.22	21.56	-45.9	-47.4	19.3	0.00e+00	0	42	0	347078656	62	4518
2026-01-29 00:12:39.35	30.29	21.69	-45.9	-47.4	19.3	0.00e+00	0	42	0	349175808	62	4509
2026-01-29 00:12:40.36	30.35	21.83	-45.8	-47.3	19.4	0.00e+00	0	42	0	350224384	62	4481
2026-01-29 00:12:41.37	30.42	21.97	-45.7	-47.2	19.6	0.00e+00	0	42	0	352321536	62	4395
2026-01-29 00:12:42.37	30.48	22.11	-45.6	-47.0	19.7	0.00e+00	0	42	0	354418688	62	4318
2026-01-29 00:12:43.38	30.55	22.24	-45.4	-46.8	19.9	0.00e+00	0	42	0	356515840	62	4236
2026-01-29 00:12:44.39	30.62	22.38	-45.3	-46.7	20.0	0.00e+00	0	42	0	358612992	62	4162
2026-01-29 00:12:45.40	30.69	22.52	-45.1	-46.5	20.2	0.00e+00	0	42	0	360710144	62	4064
2026-01-29 00:12:46.40	30.76	22.66	-45.1	-46.4	20.3	0.00e+00	0	42	0	361758720	62	4014
2026-01-29 00:12:47.41	30.83	22.81	-44.9	-46.2	20.4	0.00e+00	0	42	0	363855872	61	4177
2026-01-29 00:12:48.42	30.90	22.95	-45.0	-46.3	20.3	0.00e+00	0	42	0	365953024	61	4234
2026-01-29 00:12:49.43	30.97	23.09	-44.8	-46.0	20.6	0.00e+00	0	42	0	368050176	61	4085
2026-01-29 00:12:50.44	31.04	23.24	-44.6	-45.8	20.8	0.00e+00	0	42	0	369098752	61	3985
2026-01-29 00:12:51.45	31.12	23.38	-44.4	-45.6	21.0	0.00e+00	0	42	0	371195904	60	4100
2026-01-29 00:12:52.47	31.19	23.53	-44.4	-45.6	21.1	0.00e+00	0	42	0	373293056	60	4100
2026-01-29 00:12:53.47	31.26	23.67	-44.1	-45.3	21.3	0.00e+00	0	42	0	375390208	60	3975
2026-01-29 00:12:54.48	31.34	23.82	-44.1	-45.3	21.3	0.00e+00	0	42	0	377487360	60	3968
2026-01-29 00:12:55.49	31.41	23.97	-44.3	-45.4	21.4	0.00e+00	0	42	0	378535936	59	4279
2026-01-29 00:12:56.50	31.49	24.12	-44.2	-45.3	21.5	0.00e+00	0	42	0	380633088	59	4238
2026-01-29 00:12:57.51	31.56	24.27	-44.3	-45.4	21.4	0.00e+00	0	42	0	382730240	59	4289
2026-01-29 00:12:58.51	31.64	24.41	-44.3	-45.4	21.5	0.00e+00	0	42	0	384827392	59	4272
2026-01-29 00:12:59.52	31.72	24.57	-44.4	-45.5	21.4	0.00e+00	0	42	0	386924544	59	4324
2026-01-29 00:13:00.53	31.80	24.72	-44.3	-45.5	21.5	0.00e+00	0	42	0	389021696	59	4304
2026-01-29 00:13:01.53	31.88	24.87	-44.2	-45.4	21.5	0.00e+00	0	42	0	390070272	59	4250
2026-01-29 00:13:02.54	31.96	25.02	-44.3	-45.4	21.5	0.00e+00	0	42	0	392167424	59	4287
2026-01-29 00:13:03.55	32.04	25.18	-44.2	-45.3	21.5	0.00e+00	0	42	0	394264576	59	4232
2026-01-29 00:13:04.56	32.12	25.33	-44.1	-45.2	21.7	0.00e+00	0	42	0	396361728	59	4155
2026-01-29 00:13:05.57	32.20	25.49	-43.9	-45.0	21.8	0.00e+00	0	42	0	397410304	59	4093
2026-01-29 00:13:06.57	32.28	25.64	-44.0	-45.1	21.7	0.00e+00	0	42	0	399507456	59	4111
2026-01-29 00:13:07.58	32.37	25.80	-44.1	-45.2	21.7	0.00e+00	0	42	0	401604608	59	4171
2026-01-29 00:13:08.59	32.45	25.96	-44.2	-45.3	21.6	0.00e+00	0	42	0	403701760	59	4217
2026-01-29 00:13:09.60	32.54	26.12	-44.0	-45.1	21.7	0.00e+00	0	42	0	405798912	59	4131
2026-01-29 00:13:10.61	32.62	26.28	-44.3	-45.4	21.5	0.00e+00	0	42	0	407896064	59	4280
2026-01-29 00:13:11.62	32.71	26.44	-44.3	-45.5	21.4	0.00e+00	0	42	0	408944640	59	4299
2026-01-29 00:13:12.63	32.80	26.61	-44.3	-45.5	21.4	0.00e+00	0	42	0	411041792	59	4311
2026-01-29 00:13:13.63	32.89	26.77	-44.5	-45.7	21.3	0.00e+00	0	42	0	413138944	59	4393
2026-01-29 00:13:14.64	32.97	26.93	-44.6	-45.8	21.2	0.00e+00	0	42	0	415236096	59	4458
2026-01-29 00:13:15.65	33.07	27.10	-44.3	-45.4	21.5	0.00e+00	0	42	0	417333248	59	4291
2026-01-29 00:13:16.66	33.16	27.26	-44.4	-45.6	21.1	0.00e+00	0	42	0	418381824	60	4145
2026-01-29 00:13:17.67	33.25	27.43	-44.3	-45.4	21.2	0.00e+00	0	42	0	420478976	60	4041
2026-01-29 00:13:18.67	33.34	27.60	-44.3	-45.4	21.3	0.00e+00	0	42	0	422576128	60	4036
2026-01-29 00:13:19.68	33.44	27.77	-44.4	-45.6	21.2	0.00e+00	0	42	0	424673280	60	4105
2026-01-29 00:13:20.69	33.53	27.94	-44.3	-45.5	21.2	0.00e+00	0	42	0	425721856	60	4067
2026-01-29 00:13:21.70	33.63	28.11	-44.3	-45.4	21.3	0.00e+00	0	42	0	427819008	60	4033
2026-01-29 00:13:22.70	33.72	28.28	-44.1	-45.3	21.4	0.00e+00	0	42	0	429916160	60	3963
2026-01-29 00:13:23.71	33.82	28.45	-44.2	-45.3	21.4	0.00e+00	0	42	0	432013312	60	3985
2026-01-29 00:13:24.72	33.92	28.62	-44.1	-45.2	21.5	0.00e+00	0	42	0	434110464	60	3918
2026-01-29 00:13:25.73	34.02	28.80	-44.4	-45.6	21.4	0.00e+00	0	42	0	436207616	59	4346
2026-01-29 00:13:26.73	34.12	28.97	-44.1	-45.3	21.4	0.00e+00	0	42	0	437256192	60	3964
2026-01-29 00:13:27.74	34.22	29.15	-44.2	-45.3	21.4	0.00e+00	0	42	0	439353344	60	3990
2026-01-29 00:13:28.75	34.33	29.33	-44.5	-45.6	21.1	0.00e+00	0	42	0	441450496	60	4143
2026-01-29 00:13:29.76	34.43	29.51	-44.3	-45.5	21.2	0.00e+00	0	42	0	443547648	60	4065
2026-01-29 00:13:30.77	34.54	29.69	-44.4	-45.5	21.2	0.00e+00	0	42	0	445644800	60	4064
2026-01-29 00:13:31.77	34.64	29.87	-44.7	-45.9	20.7	0.00e+00	0	42	0	446693376	60	4245
2026-01-29 00:13:32.78	34.75	30.05	-44.9	-46.1	20.7	0.00e+00	0	42	0	448790528	60	4373
2026-01-29 00:13:33.79	34.86	30.23	-45.0	-46.3	20.5	0.00e+00	0	42	0	450887680	60	4469
2026-01-29 00:13:34.80	34.97	30.42	-45.2	-46.4	20.4	0.00e+00	0	42	0	452984832	61	4283
2026-01-29 00:13:35.80	35.08	30.60	-45.7	-47.1	19.8	0.00e+00	0	42	0	455081984	61	4613
2026-01-29 00:13:36.81	35.19	30.79	-45.7	-47.0	19.8	0.00e+00	0	42	0	456130560	62	4334
2026-01-29 00:13:37.82	35.31	30.97	-45.9	-47.4	19.6	0.00e+00	0	42	0	458227712	62	4494
2026-01-29 00:13:38.83	35.42	31.16	-46.4	-47.9	19.0	0.00e+00	0	42	0	460324864	63	4530
2026-01-29 00:13:39.84	35.54	31.35	-45.9	-47.3	19.7	0.00e+00	0	42	0	462422016	63	4216
2026-01-29 00:13:40.84	35.65	31.54	-46.3	-47.8	19.2	0.00e+00	0	42	0	464519168	63	4475
2026-01-29 00:13:41.85	35.77	31.73	-46.2	-47.6	19.5	0.00e+00	0	42	0	465567744	63	4378
2026-01-29 00:13:42.86	35.89	31.93	-46.4	-48.0	19.1	0.00e+00	0	42	0	467664896	63	4556
2026-01-29 00:13:43.87	36.02	32.12	-46.6	-48.1	18.8	0.00e+00	0	42	0	469762048	63	4640
2026-01-29 00:13:44.88	36.14	32.32	-46.7	-48.3	18.7	0.00e+00	0	42	0	471859200	64	4464
2026-01-29 00:13:45.88	36.26	32.51	-47.0	-48.7	18.3	0.00e+00	0	42	0	473956352	64	4652
2026-01-29 00:13:46.89	36.39	32.71	-47.1	-48.8	18.2	0.00e+00	0	42	0	475004928	64	4750
2026-01-29 00:13:47.90	36.52	32.91	-47.3	-49.1	17.9	0.00e+00	0	42	0	477102080	65	4650
2026-01-29 00:13:48.91	36.65	33.11	-47.4	-49.2	17.8	0.00e+00	0	42	0	479199232	65	4681
2026-01-29 00:13:49.91	36.78	33.31	-47.5	-49.4	17.7	0.00e+00	0	42	0	481296384	65	4774
2026-01-29 00:13:50.92	36.91	33.51	-47.7	-49.6	17.4	0.00e+00	0	42	0	483393536	66	4627
2026-01-29 00:13:51.92	37.04	33.71	-47.3	-49.1	17.9	0.00e+00	0	42	0	484442112	66	4360
2026-01-29 00:13:52.93	37.18	33.92	-48.1	-50.2	16.9	0.00e+00	0	42	0	486539264	66	4967
2026-01-29 00:13:53.94	37.31	34.12	-47.8	-49.7	17.3	0.00e+00	0	42	0	488636416	66	4703
2026-01-29 00:13:54.95	37.45	34.33	-47.8	-49.7	17.2	0.00e+00	0	42	0	490733568	66	4700
2026-01-29 00:13:55.95	37.59	34.54	-47.4	-49.2	17.9	0.00e+00	0	42	0	492830720	66	4394
2026-01-29 00:13:56.96	37.73	34.74	-47.2	-48.9	18.2	0.00e+00	0	42	0	493879296	66	4262
2026-01-29 00:13:57.97	37.88	34.96	-46.9	-48.6	18.4	0.00e+00	0	42	0	495976448	65	4351
2026-01-29 00:13:58.98	38.02	35.17	-46.6	-48.2	18.8	0.00e+00	0	42	0	498073600	65	4165
2026-01-29 00:13:59.99	38.17	35.38	-46.6	-48.2	18.8	0.00e+00	0	42	0	500170752	65	4167
2026-01-29 00:14:00.99	38.32	35.59	-46.1	-47.6	19.3	0.00e+00	0	42	0	502267904	64	4109
2026-01-29 00:14:02.00	38.47	35.81	-46.5	-48.0	19.0	0.00e+00	0	42	0	504365056	64	4307
2026-01-29 00:14:03.01	38.63	36.03	-46.1	-47.5	19.4	0.00e+00	0	42	0	505413632	64	4055
2026-01-29 00:14:04.02	38.78	36.24	-46.3	-47.7	19.4	0.00e+00	0	42	0	507510784	63	4422
2026-01-29 00:14:05.03	38.94	36.46	-46.7	-48.3	18.7	0.00e+00	0	42	0	509607936	64	4485
2026-01-29 00:14:06.04	39.10	36.68	-46.6	-48.2	18.9	0.00e+00	0	42	0	511705088	64	4404
2026-01-29 00:14:07.04	39.26	36.90	-47.1	-48.8	18.3	0.00e+00	0	42	0	512753664	64	4743
2026-01-29 00:14:08.05	39.42	37.13	-47.2	-49.0	18.1	0.00e+00	0	42	0	514850816	65	4548
2026-01-29 00:14:09.06	39.59	37.35	-48.0	-50.0	17.1	0.00e+00	0	42	0	516947968	66	4846
2026-01-29 00:14:10.07	39.76	37.58	-48.0	-50.0	17.2	0.00e+00	0	42	0	519045120	66	4831
2026-01-29 00:14:11.07	39.93	37.80	-48.2	-50.4	16.9	0.00e+00	0	42	0	521142272	67	4772
2026-01-29 00:14:12.08	40.10	38.03	-48.2	-50.3	16.9	0.00e+00	0	42	0	522190848	67	4724
2026-01-29 00:14:13.09	40.27	38.26	-48.1	-50.2	17.0	0.00e+00	0	42	0	524288000	67	4680
2026-01-29 00:14:14.10	40.45	38.49	-48.2	-50.3	16.8	0.00e+00	0	42	0	526385152	67	4747
2026-01-29 00:14:15.11	40.63	38.72	-47.9	-49.9	17.3	0.00e+00	0	42	0	528482304	67	4500
2026-01-29 00:14:16.11	40.81	38.96	-49.0	-51.5	15.9	0.00e+00	0	42	0	530579456	68	5105
2026-01-29 00:14:17.12	41.00	39.19	-48.8	-51.2	16.1	0.00e+00	0	42	0	532676608	68	4978
2026-01-29 00:14:18.13	41.19	39.43	-49.2	-51.9	15.4	0.00e+00	0	42	0	533725184	69	5049
2026-01-29 00:14:19.14	41.38	39.66	-49.3	-52.2	15.2	0.00e+00	0	42	0	535822336	69	5259
2026-01-29 00:14:20.14	41.57	39.90	-48.8	-51.4	15.9	0.00e+00	0	42	0	537919488	69	4792
2026-01-29 00:14:21.15	41.77	40.14	-48.6	-51.1	16.1	0.00e+00	0	42	0	540016640	68	4914
2026-01-29 00:14:22.17	41.97	40.38	-48.0	-50.1	17.1	0.00e+00	0	42	0	541065216	68	4367
2026-01-29 00:14:23.17	42.17	40.62	-47.5	-49.4	17.7	0.00e+00	0	42	0	543162368	66	4505
2026-01-29 00:14:24.18	42.37	40.87	-47.1	-48.8	18.3	0.00e+00	0	42	0	545259520	66	4234
2026-01-29 00:14:25.19	42.58	41.11	-47.4	-49.2	18.0	0.00e+00	0	42	0	547356672	66	4440
2026-01-29 00:14:26.19	42.79	41.36	-46.8	-48.4	18.7	0.00e+00	0	42	0	549453824	65	4273
2026-01-29 00:14:27.21	43.01	41.61	-46.5	-48.0	19.0	0.00e+00	0	42	0	551550976	65	4095
2026-01-29 00:14:28.21	43.22	41.85	-46.8	-48.5	18.6	0.00e+00	0	42	0	552599552	65	4316
2026-01-29 00:14:29.22	43.44	42.10	-46.9	-48.6	18.5	0.00e+00	0	42	0	554696704	65	4383
2026-01-29 00:14:30.23	43.67	42.35	-46.8	-48.5	18.6	0.00e+00	0	42	0	556793856	65	4317
2026-01-29 00:14:31.24	43.90	42.61	-47.0	-48.7	18.4	0.00e+00	0	42	0	558891008	65	4432
2026-01-29 00:14:32.24	44.12	42.86	-47.2	-48.9	18.2	0.00e+00	0	42	0	560988160	65	4529
2026-01-29 00:14:33.25	44.36	43.11	-47.2	-48.9	18.2	0.00e+00	0	42	0	562036736	65	4517
2026-01-29 00:14:34.26	44.60	43.37	-46.6	-48.2	18.9	0.00e+00	0	42	0	564133888	65	4162
2026-01-29 00:14:35.27	44.84	43.63	-46.8	-48.4	18.6	0.00e+00	0	42	0	566231040	64	4514
2026-01-29 00:14:36.27	45.08	43.88	-47.1	-48.7	18.4	0.00e+00	0	42	0	568328192	64	4687
2026-01-29 00:14:37.28	45.34	44.14	-46.9	-48.6	18.6	0.00e+00	0	42	0	569376768	64	4608
2026-01-29 00:14:38.29	45.59	44.40	-47.2	-49.0	18.3	0.00e+00	0	42	0	571473920	64	4821
2026-01-29 00:14:39.30	45.85	44.67	-47.4	-49.2	18.0	0.00e+00	0	42	0	573571072	65	4695
2026-01-29 00:14:40.31	46.11	44.93	-47.4	-49.3	17.7	0.00e+00	0	42	0	575668224	65	4721
2026-01-29 00:14:41.31	46.37	45.19	-47.8	-49.8	17.5	0.00e+00	0	42	0	577765376	66	4712
2026-01-29 00:14:42.32	46.65	45.46	-47.1	-48.8	18.3	0.00e+00	0	42	0	579862528	66	4218
2026-01-29 00:14:43.33	46.92	45.72	-46.9	-48.6	18.5	0.00e+00	0	42	0	580911104	65	4372
2026-01-29 00:14:44.33	47.20	45.99	-46.7	-48.3	18.9	0.00e+00	0	42	0	583008256	64	4457
2026-01-29 00:14:45.34	47.49	46.25	-46.7	-48.3	18.8	0.00e+00	0	42	0	585105408	64	4480
2026-01-29 00:14:46.35	47.78	46.52	-46.4	-47.9	19.2	0.00e+00	0	42	0	587202560	64	4268
2026-01-29 00:14:47.36	48.07	46.79	-46.4	-47.9	19.2	0.00e+00	0	42	0	589299712	64	4262
2026-01-29 00:14:48.36	48.37	47.06	-45.9	-47.2	20.0	0.00e+00	0	42	0	590348288	63	4186
2026-01-29 00:14:49.37	48.67	47.34	-46.2	-47.6	19.6	0.00e+00	0	42	0	592445440	63	4357
2026-01-29 00:14:50.38	48.98	47.61	-45.4	-46.6	20.4	0.00e+00	0	42	0	594542592	62	4114
2026-01-29 00:14:51.39	49.30	47.88	-44.9	-46.1	20.9	0.00e+00	0	42	0	596639744	61	4103
2026-01-29 00:14:52.39	49.62	48.15	-45.0	-46.2	20.8	0.00e+00	0	42	0	597688320	61	4175
2026-01-29 00:14:53.40	49.94	48.43	-45.3	-46.5	20.5	0.00e+00	0	42	0	599785472	61	4333
2026-01-29 00:14:54.41	50.28	48.71	-45.2	-46.4	20.7	0.00e+00	0	42	0	601882624	61	4258
2026-01-29 00:14:55.41	50.61	48.98	-45.6	-47.0	20.2	0.00e+00	0	42	0	603979776	62	4297
2026-01-29 00:14:56.42	50.96	49.26	-45.7	-47.1	20.1	0.00e+00	0	42	0	606076928	62	4346
2026-01-29 00:14:57.43	51.31	49.54	-45.3	-46.6	20.4	0.00e+00	0	42	0	608174080	62	4125
2026-01-29 00:14:58.43	51.66	49.81	-45.4	-46.7	20.4	0.00e+00	0	42	0	609222656	62	4158
2026-01-29 00:14:59.44	52.03	50.09	-44.8	-45.9	21.1	0.00e+00	0	42	0	611319808	61	4034
2026-01-29 00:15:00.45	52.40	50.37	-44.6	-45.8	21.2	0.00e+00	0	42	0	613416960	61	3972
2026-01-29 00:15:01.46	52.78	50.65	-44.7	-45.9	21.1	0.00e+00	0	42	0	615514112	60	4261
2026-01-29 00:15:02.47	53.16	50.93	-45.0	-46.2	20.8	0.00e+00	0	42	0	617611264	60	4439
2026-01-29 00:15:03.47	53.55	51.21	-44.9	-46.1	20.8	0.00e+00	0	42	0	618659840	60	4389
2026-01-29 00:15:04.48	53.95	51.49	-44.5	-45.7	21.3	0.00e+00	0	42	0	620756992	60	4148
2026-01-29 00:15:05.49	54.35	51.78	-44.2	-45.3	22.0	0.00e+00	0	42	0	622854144	59	4196
2026-01-29 00:15:06.50	54.77	52.06	-43.5	-44.5	22.5	0.00e+00	0	42	0	624951296	59	3864
2026-01-29 00:15:07.51	55.19	52.34	-43.4	-44.4	22.7	0.00e+00	0	42	0	627048448	58	4021
2026-01-29 00:15:08.51	55.62	52.62	-43.8	-44.8	22.3	0.00e+00	0	42	0	628097024	58	4218
2026-01-29 00:15:09.52	56.05	52.90	-44.1	-45.2	22.1	0.00e+00	0	42	0	630194176	58	4408
2026-01-29 00:15:10.53	56.50	53.18	-44.1	-45.2	22.0	0.00e+00	0	42	0	632291328	59	4189
2026-01-29 00:15:11.54	56.96	53.47	-43.8	-44.8	22.4	0.00e+00	0	42	0	634388480	59	4002
2026-01-29 00:15:12.54	57.42	53.74	-43.4	-44.4	22.6	0.00e+00	0	42	0	636485632	58	4040
2026-01-29 00:15:13.55	57.89	54.03	-43.2	-44.1	22.9	0.00e+00	0	42	0	637534208	58	3905
2026-01-29 00:15:14.56	58.37	54.31	-43.4	-44.4	22.7	0.00e+00	0	42	0	639631360	58	4007
2026-01-29 00:15:15.57	58.86	54.59	-43.6	-44.6	22.5	0.00e+00	0	42	0	641728512	58	4109
2026-01-29 00:15:16.57	59.36	54.86	-44.3	-45.4	21.7	0.00e+00	0	42	0	643825664	59	4284
2026-01-29 00:15:17.58	59.87	55.14	-44.8	-46.0	21.1	0.00e+00	0	42	0	645922816	60	4303
2026-01-29 00:15:18.58	60.39	55.42	-44.7	-45.9	21.1	0.00e+00	0	42	0	646971392	60	4269
2026-01-29 00:15:19.59	60.92	55.69	-44.2	-45.2	21.7	0.00e+00	0	42	0	649068544	60	3952
2026-01-29 00:15:20.60	61.46	55.97	-43.7	-44.7	22.5	0.00e+00	0	42	0	651165696	59	3923
2026-01-29 00:15:21.60	62.01	56.24	-43.4	-44.4	22.6	0.00e+00	0	42	0	653262848	58	4034
2026-01-29 00:15:22.61	62.57	56.52	-43.6	-44.6	22.5	0.00e+00	0	42	0	655360000	58	4120
2026-01-29 00:15:23.62	63.15	56.79	-43.6	-44.6	22.5	0.00e+00	0	42	0	656408576	58	4124
2026-01-29 00:15:24.62	63.73	57.06	-43.6	-44.6	22.5	0.00e+00	0	42	0	658505728	58	4131
2026-01-29 00:15:25.63	64.33	57.33	-43.7	-44.7	22.4	0.00e+00	0	42	0	660602880	58	4155
2026-01-29 00:15:26.63	64.93	57.59	-43.9	-45.0	22.2	0.00e+00	0	42	0	662700032	58	4297
2026-01-29 00:15:27.64	65.55	57.86	-44.4	-45.6	21.5	0.00e+00	0	42	0	664797184	60	4105
2026-01-29 00:15:28.65	66.18	58.12	-45.1	-46.4	20.8	0.00e+00	0	42	0	665845760	61	4249
2026-01-29 00:15:29.65	66.82	58.38	-46.1	-47.5	19.7	0.00e+00	0	42	0	667942912	62	4579
2026-01-29 00:15:30.66	67.48	58.64	-46.2	-47.7	19.6	0.00e+00	0	42	0	670040064	63	4405
2026-01-29 00:15:31.67	68.16	58.90	-46.0	-47.4	19.9	0.00e+00	0	42	0	672137216	63	4253
2026-01-29 00:15:32.68	68.84	59.16	-45.3	-46.5	20.6	0.00e+00	0	42	0	674234368	62	4092
2026-01-29 00:15:33.69	69.54	59.41	-44.9	-46.1	20.9	0.00e+00	0	42	0	675282944	61	4139
2026-01-29 00:15:34.69	70.24	59.66	-44.7	-45.9	21.1	0.00e+00	0	42	0	677380096	60	4279
2026-01-29 00:15:35.70	70.97	59.90	-45.2	-46.5	20.6	0.00e+00	0	42	0	679477248	61	4311
2026-01-29 00:15:36.71	71.71	60.15	-45.6	-46.8	20.3	0.00e+00	0	42	0	681574400	61	4482
2026-01-29 00:15:37.72	72.46	60.39	-46.3	-47.8	19.6	0.00e+00	0	42	0	683671552	63	4456
2026-01-29 00:15:38.73	73.23	60.62	-46.3	-47.7	19.6	0.00e+00	0	42	0	684720128	63	4429
2026-01-29 00:15:39.73	74.00	60.85	-45.6	-47.0	20.3	0.00e+00	0	42	0	686817280	63	4056
2026-01-29 00:15:40.74	74.80	61.08	-45.1	-46.2	20.9	0.00e+00	0	42	0	688914432	62	3957
2026-01-29 00:15:41.75	75.61	61.31	-45.3	-46.5	20.6	0.00e+00	0	42	0	691011584	61	4317
2026-01-29 00:15:42.76	76.43	61.53	-45.7	-47.1	20.1	0.00e+00	0	42	0	693108736	62	4360
2026-01-29 00:15:43.77	77.27	61.74	-45.7	-47.0	20.1	0.00e+00	0	42	0	694157312	63	4095
2026-01-29 00:15:44.78	78.13	61.95	-45.2	-46.5	20.7	0.00e+00	0	42	0	696254464	62	4077
2026-01-29 00:15:45.79	78.99	62.16	-44.7	-45.9	21.3	0.00e+00	0	42	0	698351616	61	4006
2026-01-29 00:15:46.79	79.87	62.36	-44.6	-45.7	21.4	0.00e+00	0	42	0	700448768	61	3942
2026-01-29 00:15:47.80	80.77	62.56	-44.4	-45.6	21.5	0.00e+00	0	42	0	702545920	60	4112
2026-01-29 00:15:48.81	81.68	62.75	-44.0	-45.0	22.2	0.00e+00	0	42	0	703594496	59	4087
2026-01-29 00:15:49.82	82.60	62.93	-43.5	-44.5	22.7	0.00e+00	0	42	0	705691648	59	3826
2026-01-29 00:15:50.83	83.54	63.11	-43.1	-44.1	23.0	0.00e+00	0	42	0	707788800	57	4110
2026-01-29 00:15:51.84	84.50	63.29	-44.0	-45.1	22.3	0.00e+00	0	42	0	709885952	58	4352
2026-01-29 00:15:52.84	85.46	63.45	-44.2	-45.3	21.7	0.00e+00	0	42	0	711983104	60	3968
2026-01-29 00:15:53.85	86.44	63.61	-44.2	-45.3	22.1	0.00e+00	0	42	0	713031680	59	4214
2026-01-29 00:15:54.86	87.43	63.77	-43.6	-44.6	22.6	0.00e+00	0	42	0	715128832	58	4144
2026-01-29 00:15:55.87	88.44	63.91	-43.6	-44.7	22.5	0.00e+00	0	42	0	717225984	58	4149
2026-01-29 00:15:56.88	89.46	64.06	-44.5	-45.7	21.4	0.00e+00	0	42	0	719323136	60	4181
2026-01-29 00:15:57.88	90.48	64.19	-45.1	-46.3	20.8	0.00e+00	0	42	0	721420288	61	4240
2026-01-29 00:15:58.89	91.53	64.31	-44.4	-45.5	21.5	0.00e+00	0	42	0	723517440	60	4065
2026-01-29 00:15:59.90	92.58	64.43	-44.5	-45.7	21.7	0.00e+00	0	42	0	724566016	59	4396
2026-01-29 00:16:00.90	93.64	64.54	-44.3	-45.4	21.7	0.00e+00	0	42	0	726663168	60	4022
2026-01-29 00:16:01.91	94.72	64.65	-44.4	-45.5	21.6	0.00e+00	0	42	0	728760320	60	4068
2026-01-29 00:16:02.92	95.80	64.74	-45.1	-46.4	20.9	0.00e+00	0	42	0	730857472	60	4494
2026-01-29 00:16:03.93	96.90	64.83	-46.1	-47.6	19.7	0.00e+00	0	42	0	731906048	62	4618
2026-01-29 00:16:04.93	97.99	64.91	-46.4	-48.0	19.1	0.00e+00	0	42	0	734003200	64	4322
2026-01-29 00:16:05.94	99.10	64.98	-46.4	-47.9	19.4	0.00e+00	0	42	0	736100352	64	4277
2026-01-29 00:16:06.95	100.21	65.05	-45.6	-46.8	20.4	0.00e+00	0	42	0	738197504	63	3987
2026-01-29 00:16:07.95	101.33	65.10	-45.3	-46.5	20.6	0.00e+00	0	42	0	740294656	62	4088
2026-01-29 00:16:08.96	102.45	65.15	-44.8	-46.0	21.1	0.00e+00	0	42	0	741343232	61	4073
2026-01-29 00:16:09.97	103.58	65.19	-44.3	-45.4	21.6	0.00e+00	0	42	0	743440384	60	4040
2026-01-29 00:16:10.97	104.71	65.21	-44.4	-45.4	21.9	0.00e+00	0	42	0	745537536	59	4279
2026-01-29 00:16:11.98	105.85	65.24	-44.5	-45.6	21.7	0.00e+00	0	42	0	747634688	59	4379
2026-01-29 00:16:12.99	106.99	65.25	-44.7	-45.9	21.2	0.00e+00	0	42	0	749731840	60	4250
2026-01-29 00:16:13.99	108.12	65.25	-44.7	-45.8	21.3	0.00e+00	0	42	0	751828992	60	4224
2026-01-29 00:16:15.00	109.26	65.25	-44.2	-45.3	22.0	0.00e+00	0	42	0	752877568	59	4213
2026-01-29 00:16:16.01	110.39	65.23	-44.2	-45.2	22.1	0.00e+00	0	42	0	754974720	59	4192
2026-01-29 00:16:17.02	111.53	65.21	-45.0	-46.3	20.9	0.00e+00	0	42	0	757071872	60	4442
2026-01-29 00:16:18.02	112.66	65.18	-45.7	-47.1	20.2	0.00e+00	0	42	0	759169024	62	4350
2026-01-29 00:16:19.02	113.77	65.14	-45.2	-46.5	20.7	0.00e+00	0	42	0	760217600	62	4064
2026-01-29 00:16:20.03	114.90	65.09	-45.1	-46.4	20.8	0.00e+00	0	42	0	762314752	61	4249
2026-01-29 00:16:21.04	116.02	65.03	-44.9	-46.1	21.0	0.00e+00	0	42	0	764411904	61	4111
2026-01-29 00:16:22.05	117.14	64.97	-44.0	-45.0	22.2	0.00e+00	0	42	0	766509056	59	4082
2026-01-29 00:16:23.06	118.25	64.89	-43.1	-44.0	23.1	0.00e+00	0	42	0	768606208	58	3865
2026-01-29 00:16:24.07	119.35	64.81	-43.1	-44.1	23.1	0.00e+00	0	42	0	769654784	57	4109
2026-01-29 00:16:25.07	120.43	64.72	-43.5	-44.5	22.7	0.00e+00	0	42	0	771751936	57	4320
2026-01-29 00:16:26.08	121.51	64.62	-43.8	-44.8	22.5	0.00e+00	0	42	0	773849088	58	4213
2026-01-29 00:16:27.09	122.59	64.52	-44.1	-45.2	22.2	0.00e+00	0	42	0	775946240	59	4148
2026-01-29 00:16:28.10	123.65	64.40	-44.5	-45.7	21.8	0.00e+00	0	42	0	778043392	59	4401
2026-01-29 00:16:29.11	124.70	64.28	-44.4	-45.5	21.9	0.00e+00	0	42	0	780140544	59	4305
2026-01-29 00:16:30.11	125.73	64.15	-44.3	-45.4	22.0	0.00e+00	0	42	0	781189120	59	4249
2026-01-29 00:16:31.12	126.76	64.02	-44.3	-45.4	21.9	0.00e+00	0	42	0	783286272	59	4282
2026-01-29 00:16:32.13	127.78	63.87	-43.9	-44.9	22.3	0.00e+00	0	42	0	785383424	59	4034
2026-01-29 00:16:33.14	128.79	63.72	-43.4	-44.4	22.8	0.00e+00	0	42	0	787480576	58	4027
2026-01-29 00:16:34.15	129.78	63.57	-42.9	-43.9	23.1	0.00e+00	0	42	0	788529152	57	4014
2026-01-29 00:16:35.15	130.75	63.41	-42.8	-43.7	23.3	0.00e+00	0	42	0	790626304	57	3919
2026-01-29 00:16:36.16	131.71	63.24	-43.9	-44.9	22.4	0.00e+00	0	42	0	792723456	58	4273
2026-01-29 00:16:37.17	132.66	63.06	-44.8	-46.0	21.2	0.00e+00	0	42	0	794820608	60	4332
2026-01-29 00:16:38.18	133.60	62.88	-44.6	-45.8	21.4	0.00e+00	0	42	0	796917760	60	4204
2026-01-29 00:16:39.19	134.53	62.69	-44.2	-45.3	21.8	0.00e+00	0	42	0	797966336	60	3971
2026-01-29 00:16:40.20	135.43	62.50	-44.5	-45.6	21.5	0.00e+00	0	42	0	800063488	60	4132
2026-01-29 00:16:41.21	136.33	62.30	-44.8	-46.0	21.2	0.00e+00	0	42	0	802160640	60	4310
2026-01-29 00:16:42.22	137.21	62.10	-44.1	-45.2	21.8	0.00e+00	0	42	0	804257792	60	3931
2026-01-29 00:16:43.23	138.07	61.89	-43.9	-45.0	22.4	0.00e+00	0	42	0	806354944	59	4056
2026-01-29 00:16:44.24	138.92	61.68	-44.4	-45.5	21.8	0.00e+00	0	42	0	808452096	59	4333
2026-01-29 00:16:45.24	139.75	61.46	-44.0	-45.0	22.3	0.00e+00	0	42	0	809500672	59	4085
2026-01-29 00:16:46.25	140.57	61.24	-42.6	-43.5	23.5	0.00e+00	0	42	0	811597824	57	3836
2026-01-29 00:16:47.26	141.38	61.01	-42.2	-43.0	23.8	0.00e+00	0	42	0	813694976	56	3861
2026-01-29 00:16:48.26	142.16	60.79	-43.1	-44.0	23.0	0.00e+00	0	42	0	815792128	56	4322
2026-01-29 00:16:49.27	142.94	60.55	-43.9	-44.9	22.2	0.00e+00	0	42	0	816840704	58	4291
2026-01-29 00:16:50.28	143.71	60.31	-43.1	-44.0	23.0	0.00e+00	0	42	0	818937856	58	3860
2026-01-29 00:16:51.29	144.46	60.07	-42.7	-43.6	23.4	0.00e+00	0	42	0	821035008	57	3896
2026-01-29 00:16:52.30	145.19	59.83	-42.3	-43.2	23.7	0.00e+00	0	42	0	823132160	56	3942
2026-01-29 00:16:53.30	145.91	59.58	-42.4	-43.3	23.7	0.00e+00	0	42	0	825229312	56	3973
2026-01-29 00:16:54.31	146.62	59.33	-42.4	-43.3	23.6	0.00e+00	0	42	0	827326464	56	3965
2026-01-29 00:16:55.32	147.31	59.08	-42.8	-43.7	23.2	0.00e+00	0	42	0	828375040	56	4191
2026-01-29 00:16:56.33	147.99	58.82	-43.3	-44.3	22.8	0.00e+00	0	42	0	830472192	57	4216
2026-01-29 00:16:57.34	148.66	58.56	-43.2	-44.2	22.9	0.00e+00	0	42	0	832569344	57	4167
2026-01-29 00:16:58.35	149.32	58.30	-42.5	-43.4	23.5	0.00e+00	0	42	0	834666496	56	4021
2026-01-29 00:16:59.36	149.96	58.04	-42.8	-43.7	23.3	0.00e+00	0	42	0	836763648	56	4176
2026-01-29 00:17:00.37	150.59	57.77	-43.6	-44.6	22.5	0.00e+00	0	42	0	837812224	57	4367
2026-01-29 00:17:01.37	151.20	57.51	-43.5	-44.6	22.6	0.00e+00	0	42	0	839909376	58	4124
2026-01-29 00:17:02.38	151.81	57.24	-42.9	-43.9	23.1	0.00e+00	0	42	0	842006528	57	4048
2026-01-29 00:17:03.39	152.41	56.97	-42.9	-43.9	23.2	0.00e+00	0	42	0	844103680	57	4024
2026-01-29 00:17:04.39	152.98	56.70	-43.4	-44.4	22.8	0.00e+00	0	42	0	845152256	57	4253
2026-01-29 00:17:05.40	153.56	56.43	-44.0	-45.0	22.1	0.00e+00	0	42	0	847249408	58	4335
2026-01-29 00:17:06.41	154.12	56.15	-43.1	-44.1	23.0	0.00e+00	0	42	0	849346560	58	3882
2026-01-29 00:17:07.42	154.67	55.87	-42.9	-43.8	23.2	0.00e+00	0	42	0	851443712	57	3986
2026-01-29 00:17:08.43	155.21	55.60	-43.2	-44.2	22.9	0.00e+00	0	42	0	853540864	57	4163
2026-01-29 00:17:09.43	155.73	55.32	-42.8	-43.7	23.3	0.00e+00	0	42	0	855638016	57	3953
2026-01-29 00:17:10.44	156.25	55.04	-42.7	-43.7	23.3	0.00e+00	0	42	0	856686592	57	3922
2026-01-29 00:17:11.45	156.76	54.76	-43.0	-44.0	23.1	0.00e+00	0	42	0	858783744	57	4054
2026-01-29 00:17:12.46	157.26	54.48	-43.5	-44.6	22.6	0.00e+00	0	42	0	860880896	57	4356
2026-01-29 00:17:13.47	157.75	54.20	-43.7	-44.7	22.4	0.00e+00	0	42	0	862978048	58	4182
2026-01-29 00:17:14.48	158.23	53.92	-44.2	-45.3	21.9	0.00e+00	0	42	0	865075200	58	4472
2026-01-29 00:17:15.49	158.70	53.64	-43.9	-45.0	22.3	0.00e+00	0	42	0	866123776	59	4066
2026-01-29 00:17:16.49	159.15	53.36	-44.5	-45.6	21.8	0.00e+00	0	42	0	868220928	59	4352
2026-01-29 00:17:17.51	159.61	53.07	-45.5	-46.7	20.5	0.00e+00	0	42	0	870318080	61	4435
2026-01-29 00:17:18.51	160.05	52.79	-46.1	-47.5	19.7	0.00e+00	0	42	0	872415232	62	4594
2026-01-29 00:17:19.52	160.49	52.51	-45.8	-47.2	20.0	0.00e+00	0	42	0	874512384	63	4149
2026-01-29 00:17:20.53	160.92	52.23	-45.2	-46.4	20.7	0.00e+00	0	42	0	875560960	62	4026
2026-01-29 00:17:21.54	161.34	51.94	-44.6	-45.8	21.3	0.00e+00	0	42	0	877658112	61	3962
2026-01-29 00:17:22.54	161.74	51.66	-45.1	-46.3	20.8	0.00e+00	0	42	0	879755264	60	4443
2026-01-29 00:17:23.55	162.15	51.38	-45.7	-47.0	20.2	0.00e+00	0	42	0	881852416	61	4570
2026-01-29 00:17:24.56	162.55	51.10	-45.6	-46.9	20.3	0.00e+00	0	42	0	883949568	62	4280
2026-01-29 00:17:25.57	162.94	50.82	-45.3	-46.5	20.7	0.00e+00	0	42	0	884998144	62	4080
2026-01-29 00:17:26.58	163.32	50.54	-44.9	-46.0	21.1	0.00e+00	0	42	0	887095296	61	4082
2026-01-29 00:17:27.59	163.69	50.25	-45.0	-46.2	20.9	0.00e+00	0	42	0	889192448	61	4169
2026-01-29 00:17:28.60	164.06	49.97	-45.1	-46.3	20.8	0.00e+00	0	42	0	891289600	61	4210
2026-01-29 00:17:29.61	164.43	49.69	-46.0	-47.3	19.9	0.00e+00	0	42	0	893386752	62	4486
2026-01-29 00:17:30.61	164.78	49.42	-46.0	-47.4	19.8	0.00e+00	0	42	0	895483904	62	4520
2026-01-29 00:17:31.62	165.13	49.14	-47.0	-48.6	18.5	0.00e+00	0	42	0	896532480	64	4646
2026-01-29 00:17:32.63	165.47	48.86	-46.1	-47.6	19.5	0.00e+00	0	42	0	898629632	64	4139
2026-01-29 00:17:33.63	165.80	48.58	-45.1	-46.3	20.8	0.00e+00	0	42	0	900726784	62	3985
2026-01-29 00:17:34.64	166.14	48.31	-44.9	-46.1	21.0	0.00e+00	0	42	0	902823936	61	4099
2026-01-29 00:17:35.65	166.46	48.03	-45.6	-46.9	20.2	0.00e+00	0	42	0	903872512	61	4544
2026-01-29 00:17:36.66	166.78	47.76	-46.4	-47.9	19.4	0.00e+00	0	42	0	905969664	63	4503
2026-01-29 00:17:37.66	167.09	47.48	-46.2	-47.6	19.5	0.00e+00	0	42	0	908066816	64	4136
2026-01-29 00:17:38.67	167.40	47.21	-45.2	-46.5	20.7	0.00e+00	0	42	0	910163968	62	4056
2026-01-29 00:17:39.68	167.70	46.94	-44.4	-45.5	21.5	0.00e+00	0	42	0	912261120	60	4061
2026-01-29 00:17:40.69	168.00	46.67	-44.3	-45.4	21.7	0.00e+00	0	42	0	913309696	59	4259
2026-01-29 00:17:41.70	168.30	46.40	-44.6	-45.8	21.3	0.00e+00	0	42	0	915406848	60	4210
2026-01-29 00:17:42.71	168.58	46.13	-46.3	-47.7	19.6	0.00e+00	0	42	0	917504000	63	4422
2026-01-29 00:17:43.72	168.87	45.86	-47.0	-48.6	18.5	0.00e+00	0	42	0	919601152	64	4642
2026-01-29 00:17:44.73	169.15	45.59	-45.8	-47.1	19.9	0.00e+00	0	42	0	921698304	63	4130
2026-01-29 00:17:45.73	169.42	45.33	-44.1	-45.2	22.0	0.00e+00	0	42	0	923795456	59	4154
2026-01-29 00:17:46.74	169.69	45.06	-43.2	-44.1	22.9	0.00e+00	0	42	0	924844032	58	3907
2026-01-29 00:17:47.75	169.96	44.79	-43.3	-44.3	22.8	0.00e+00	0	42	0	926941184	58	3963
2026-01-29 00:17:48.76	170.22	44.53	-44.5	-45.6	21.7	0.00e+00	0	42	0	929038336	59	4366
2026-01-29 00:17:49.77	170.47	44.27	-46.1	-47.5	19.8	0.00e+00	0	42	0	931135488	62	4556
2026-01-29 00:17:50.77	170.72	44.01	-48.5	-50.8	16.5	0.00e+00	0	42	0	932184064	67	5036
2026-01-29 00:17:51.78	170.97	43.75	-50.1	-53.5	14.0	0.00e+00	0	42	0	934281216	70	5760
2026-01-29 00:17:52.79	171.22	43.49	-49.4	-52.2	14.9	4.80e-05	0	42	0	936378368	70	4954
2026-01-29 00:17:53.80	171.46	43.23	-47.1	-48.8	18.2	0.00e+00	0	42	0	938475520	66	4231
2026-01-29 00:17:54.81	171.70	42.98	-45.5	-46.8	20.2	0.00e+00	0	42	0	940572672	63	3987
2026-01-29 00:17:55.81	171.93	42.72	-44.9	-46.0	20.9	0.00e+00	0	42	0	942669824	61	4080
2026-01-29 00:17:56.82	172.16	42.47	-44.7	-45.8	21.2	0.00e+00	0	42	0	943718400	60	4235
2026-01-29 00:17:57.83	172.39	42.22	-45.6	-46.9	20.3	0.00e+00	0	42	0	945815552	62	4264
2026-01-29 00:17:58.84	172.61	41.97	-46.3	-47.8	19.5	0.00e+00	0	42	0	947912704	63	4443
2026-01-29 00:17:59.84	172.83	41.72	-46.8	-48.4	18.7	0.00e+00	0	42	0	950009856	64	4532
2026-01-29 00:18:00.85	173.04	41.47	-46.0	-47.4	19.6	0.00e+00	0	42	0	952107008	63	4282
2026-01-29 00:18:01.85	173.25	41.22	-44.8	-46.0	21.0	0.00e+00	0	42	0	953155584	61	4084
2026-01-29 00:18:02.86	173.46	40.98	-44.3	-45.5	21.7	0.00e+00	0	42	0	955252736	59	4294
2026-01-29 00:18:03.87	173.67	40.73	-44.5	-45.6	21.6	0.00e+00	0	42	0	957349888	59	4380
2026-01-29 00:18:04.88	173.88	40.49	-44.5	-45.6	21.3	0.00e+00	0	42	0	959447040	60	4123
2026-01-29 00:18:05.88	174.07	40.25	-45.7	-47.0	20.2	0.00e+00	0	42	0	960495616	61	4580
2026-01-29 00:18:06.89	174.27	40.01	-47.1	-48.8	18.3	0.00e+00	0	42	0	962592768	64	4746
2026-01-29 00:18:07.89	174.47	39.77	-48.2	-50.3	17.0	0.00e+00	0	42	0	964689920	66	5023
2026-01-29 00:18:08.89	174.66	39.53	-49.2	-51.5	16.1	0.00e+00	0	42	0	966787072	68	5145
2026-01-29 00:18:09.90	174.85	39.29	-48.9	-51.4	15.9	0.00e+00	0	42	0	968884224	69	4797
2026-01-29 00:18:10.91	175.03	39.06	-48.2	-50.3	17.0	0.00e+00	0	42	0	970981376	68	4490
2026-01-29 00:18:11.92	175.22	38.82	-47.1	-48.8	18.3	0.00e+00	0	42	0	972029952	66	4227
2026-01-29 00:18:12.93	175.40	38.59	-46.3	-47.8	19.3	0.00e+00	0	42	0	974127104	64	4199
2026-01-29 00:18:13.94	175.58	38.36	-45.2	-46.4	20.6	0.00e+00	0	42	0	976224256	62	4026
2026-01-29 00:18:14.94	175.76	38.13	-44.3	-45.4	21.5	0.00e+00	0	42	0	978321408	60	4033
2026-01-29 00:18:15.95	175.93	37.90	-44.8	-45.9	21.0	0.00e+00	0	42	0	980418560	60	4278
2026-01-29 00:18:16.96	176.10	37.67	-45.0	-46.2	20.8	0.00e+00	0	42	0	981467136	61	4177
2026-01-29 00:18:17.97	176.27	37.44	-45.8	-47.2	19.8	0.00e+00	0	42	0	983564288	62	4415
2026-01-29 00:18:18.98	176.44	37.21	-46.6	-48.2	19.0	0.00e+00	0	42	0	985661440	63	4655
2026-01-29 00:18:19.99	176.60	36.99	-46.5	-48.1	19.0	0.00e+00	0	42	0	987758592	64	4355
2026-01-29 00:18:21.00	176.77	36.77	-46.9	-48.5	18.5	0.00e+00	0	42	0	989855744	64	4597
2026-01-29 00:18:22.01	176.93	36.54	-46.3	-47.8	19.2	0.00e+00	0	42	0	990904320	64	4219
2026-01-29 00:18:23.02	177.09	36.32	-45.7	-47.0	20.0	0.00e+00	0	42	0	993001472	63	4098
2026-01-29 00:18:24.02	177.24	36.11	-45.1	-46.3	20.7	0.00e+00	0	42	0	995098624	62	3980
2026-01-29 00:18:25.03	177.40	35.89	-44.9	-46.2	20.8	0.00e+00	0	42	0	997195776	61	4153
2026-01-29 00:18:26.04	177.55	35.67	-44.3	-45.4	21.3	0.00e+00	0	42	0	999292928	60	4046
2026-01-29 00:18:27.05	177.70	35.45	-44.5	-45.7	21.5	0.00e+00	0	42	0	1000341504	59	4394
2026-01-29 00:18:28.06	177.85	35.24	-44.3	-45.4	21.4	0.00e+00	0	42	0	1002438656	60	4044
2026-01-29 00:18:29.06	178.00	35.03	-44.3	-45.4	21.7	0.00e+00	0	42	0	1004535808	59	4282
2026-01-29 00:18:30.07	178.14	34.82	-44.6	-45.8	21.4	0.00e+00	0	42	0	1006632960	59	4442
2026-01-29 00:18:31.08	178.29	34.60	-44.5	-45.7	21.1	0.00e+00	0	42	0	1008730112	60	4181
2026-01-29 00:18:32.09	178.43	34.39	-45.1	-46.4	20.6	0.00e+00	0	42	0	1009778688	60	4511
2026-01-29 00:18:33.10	178.57	34.19	-46.0	-47.4	19.7	0.00e+00	0	42	0	1011875840	62	4545
2026-01-29 00:18:34.11	178.70	33.98	-46.4	-48.0	19.0	0.00e+00	0	42	0	1013972992	63	4590
2026-01-29 00:18:35.12	178.84	33.77	-47.1	-49.0	18.1	0.00e+00	0	42	0	1016070144	64	4816
2026-01-29 00:18:36.13	178.98	33.57	-47.4	-49.2	17.9	0.00e+00	0	42	0	1018167296	65	4674
2026-01-29 00:18:37.14	179.11	33.36	-48.1	-50.2	17.0	0.00e+00	0	42	0	1019215872	66	4940
2026-01-29 00:18:38.15	179.24	33.16	-48.2	-50.3	16.9	0.00e+00	0	42	0	1021313024	67	4723
2026-01-29 00:18:39.15	179.37	32.96	-48.4	-50.5	16.6	0.00e+00	0	42	0	1023410176	67	4869
2026-01-29 00:18:40.16	179.50	32.76	-48.1	-50.2	16.9	0.00e+00	0	42	0	1025507328	67	4680
2026-01-29 00:18:41.17	179.63	32.56	-47.1	-48.9	18.0	0.00e+00	0	42	0	1027604480	66	4243
2026-01-29 00:18:42.18	179.75	32.36	-46.6	-48.2	18.7	0.00e+00	0	42	0	1028653056	65	4169
2026-01-29 00:18:43.19	179.87	32.17	-46.0	-47.4	19.6	0.00e+00	0	42	0	1030750208	63	4270
2026-01-29 00:18:44.19	180.00	31.97	-45.4	-46.7	20.3	0.00e+00	0	42	0	1032847360	62	4172
2026-01-29 00:18:45.20	180.12	31.78	-45.1	-46.3	20.5	0.00e+00	0	42	0	1034944512	62	4002
2026-01-29 00:18:46.21	180.24	31.59	-44.9	-46.1	20.7	0.00e+00	0	42	0	1037041664	61	4119
2026-01-29 00:18:47.22	180.36	31.39	-45.0	-46.2	20.7	0.00e+00	0	42	0	1038090240	61	4162
2026-01-29 00:18:48.22	180.47	31.20	-44.9	-46.1	20.7	0.00e+00	0	42	0	1040187392	61	4125
2026-01-29 00:18:49.23	180.59	31.01	-45.4	-46.7	20.3	0.00e+00	0	42	0	1042284544	61	4397
2026-01-29 00:18:50.23	180.70	30.83	-45.7	-47.0	19.9	0.00e+00	0	42	0	1044381696	61	4581
2026-01-29 00:18:51.24	180.81	30.64	-46.4	-47.9	19.1	0.00e+00	0	42	0	1046478848	63	4519
2026-01-29 00:18:52.25	180.93	30.45	-46.6	-48.2	18.8	0.00e+00	0	42	0	1047527424	64	4416
2026-01-29 00:18:53.25	181.04	30.27	-46.6	-48.2	18.6	0.00e+00	0	42	0	1049624576	64	4434
2026-01-29 00:18:54.26	181.15	30.09	-47.1	-48.8	18.2	0.00e+00	0	42	0	1051721728	64	4741
2026-01-29 00:18:55.27	181.25	29.90	-47.2	-49.1	17.9	0.00e+00	0	42	0	1053818880	65	4602
2026-01-29 00:18:56.28	181.36	29.72	-47.0	-48.7	18.1	0.00e+00	0	42	0	1055916032	65	4432
2026-01-29 00:18:57.27	181.47	29.54	-47.3	-49.1	17.8	0.00e+00	0	42	0	1056964608	65	4620
2026-01-29 00:18:58.29	181.57	29.36	-47.0	-48.7	18.3	0.00e+00	0	42	0	1059061760	65	4439
2026-01-29 00:18:59.29	181.67	29.18	-46.8	-48.5	18.5	0.00e+00	0	42	0	1061158912	65	4298
2026-01-29 00:19:00.30	181.78	29.00	-46.7	-48.4	18.6	0.00e+00	0	42	0	1063256064	65	4255
2026-01-29 00:19:01.30	181.88	28.83	-46.7	-48.3	18.6	0.00e+00	0	42	0	1065353216	65	4233
2026-01-29 00:19:02.31	181.98	28.65	-46.5	-48.1	18.8	0.00e+00	0	42	0	1066401792	64	4369
2026-01-29 00:19:03.32	182.08	28.48	-46.3	-47.8	19.1	0.00e+00	0	42	0	1068498944	64	4205
2026-01-29 00:19:04.33	182.18	28.30	-45.7	-47.1	19.6	0.00e+00	0	42	0	1070596096	63	4109
2026-01-29 00:19:05.33	182.27	28.13	-45.4	-46.7	20.1	0.00e+00	0	42	0	1072693248	62	4183
2026-01-29 00:19:06.34	182.37	27.96	-45.0	-46.2	20.6	0.00e+00	0	42	0	1074790400	62	3941
2026-01-29 00:19:07.35	182.46	27.79	-44.3	-45.5	21.2	0.00e+00	0	42	0	1075838976	60	4055
2026-01-29 00:19:08.36	182.56	27.62	-44.0	-45.1	21.6	0.00e+00	0	42	0	1077936128	60	3886
2026-01-29 00:19:09.37	182.65	27.45	-44.2	-45.2	21.7	0.00e+00	0	42	0	1080033280	59	4191
2026-01-29 00:19:10.37	182.74	27.28	-44.0	-45.1	21.8	0.00e+00	0	42	0	1082130432	59	4133
2026-01-29 00:19:11.38	182.84	27.12	-44.2	-45.3	21.7	0.00e+00	0	42	0	1084227584	59	4206
2026-01-29 00:19:12.39	182.93	26.95	-44.3	-45.5	21.5	0.00e+00	0	42	0	1085276160	59	4303
2026-01-29 00:19:13.39	183.02	26.79	-44.5	-45.7	21.3	0.00e+00	0	42	0	1087373312	59	4424
2026-01-29 00:19:14.40	183.11	26.62	-44.5	-45.7	21.1	0.00e+00	0	42	0	1089470464	60	4155
2026-01-29 00:19:15.41	183.19	26.46	-44.6	-45.8	20.9	0.00e+00	0	42	0	1091567616	60	4203
2026-01-29 00:19:16.42	183.28	26.30	-44.7	-46.0	20.8	0.00e+00	0	42	0	1093664768	60	4300
2026-01-29 00:19:17.43	183.37	26.13	-44.8	-46.1	20.7	0.00e+00	0	42	0	1094713344	60	4369
2026-01-29 00:19:18.43	183.45	25.97	-44.7	-45.9	20.8	0.00e+00	0	42	0	1096810496	60	4282
2026-01-29 00:19:19.44	183.54	25.81	-44.8	-46.1	20.7	0.00e+00	0	42	0	1098907648	60	4350
2026-01-29 00:19:20.45	183.62	25.66	-44.8	-46.0	20.7	0.00e+00	0	42	0	1101004800	60	4336
2026-01-29 00:19:21.46	183.70	25.50	-44.8	-46.1	20.7	0.00e+00	0	42	0	1103101952	60	4347
2026-01-29 00:19:22.47	183.79	25.34	-44.8	-46.1	20.7	0.00e+00	0	42	0	1104150528	60	4358
2026-01-29 00:19:23.47	183.87	25.19	-45.0	-46.3	20.5	0.00e+00	0	42	0	1106247680	60	4447
2026-01-29 00:19:24.48	183.95	25.03	-44.9	-46.2	20.6	0.00e+00	0	42	0	1108344832	60	4411
2026-01-29 00:19:25.48	184.03	24.88	-45.1	-46.4	20.4	0.00e+00	0	42	0	1110441984	60	4524
2026-01-29 00:19:26.49	184.11	24.72	-45.2	-46.5	20.2	0.00e+00	0	42	0	1112539136	61	4338
2026-01-29 00:19:27.50	184.19	24.57	-45.3	-46.7	20.1	0.00e+00	0	42	0	1114636288	61	4392
2026-01-29 00:19:28.51	184.26	24.42	-45.6	-47.1	19.7	0.00e+00	0	42	0	1115684864	61	4603
2026-01-29 00:19:29.52	184.34	24.27	-45.5	-46.9	19.9	0.00e+00	0	42	0	1117782016	62	4250
2026-01-29 00:19:30.53	184.42	24.12	-45.3	-46.7	20.1	0.00e+00	0	42	0	1119879168	62	4148
2026-01-29 00:19:31.53	184.49	23.97	-45.2	-46.5	20.2	0.00e+00	0	42	0	1121976320	62	4094
2026-01-29 00:19:32.54	184.57	23.82	-45.1	-46.5	20.3	0.00e+00	0	42	0	1123024896	62	4066
2026-01-29 00:19:33.55	184.64	23.67	-44.6	-45.8	20.8	0.00e+00	0	42	0	1125122048	61	3991
2026-01-29 00:19:34.55	184.72	23.52	-44.8	-46.1	20.6	0.00e+00	0	42	0	1127219200	61	4113
2026-01-29 00:19:35.56	184.79	23.38	-44.6	-45.8	20.8	0.00e+00	0	42	0	1129316352	60	4216
2026-01-29 00:19:36.57	184.86	23.23	-44.4	-45.6	21.0	0.00e+00	0	42	0	1131413504	60	4113
2026-01-29 00:19:37.58	184.93	23.09	-44.1	-45.3	21.3	0.00e+00	0	42	0	1132462080	60	3988
2026-01-29 00:19:38.59	185.01	22.94	-44.0	-45.1	21.4	0.00e+00	0	42	0	1134559232	60	3907
2026-01-29 00:19:39.59	185.08	22.80	-44.4	-45.6	21.3	0.00e+00	0	42	0	1136656384	59	4360
2026-01-29 00:19:40.60	185.15	22.66	-44.2	-45.4	21.5	0.00e+00	0	42	0	1138753536	59	4258
2026-01-29 00:19:41.61	185.21	22.52	-44.1	-45.3	21.5	0.00e+00	0	42	0	1140850688	59	4208
2026-01-29 00:19:42.62	185.28	22.38	-43.9	-45.0	21.8	0.00e+00	0	42	0	1142947840	59	4061
2026-01-29 00:19:43.62	185.35	22.24	-43.9	-45.0	21.8	0.00e+00	0	42	0	1143996416	59	4071
2026-01-29 00:19:44.63	185.42	22.10	-43.7	-44.8	22.0	0.00e+00	0	42	0	1146093568	59	3961
2026-01-29 00:19:45.64	185.49	21.96	-43.7	-44.7	22.0	0.00e+00	0	42	0	1148190720	59	3952
2026-01-29 00:19:46.65	185.55	21.82	-43.7	-44.8	22.0	0.00e+00	0	42	0	1150287872	59	3969
2026-01-29 00:19:47.65	185.62	21.68	-43.8	-44.9	21.9	0.00e+00	0	42	0	1151336448	59	4035
2026-01-29 00:19:48.66	185.68	21.55	-43.7	-44.8	22.0	0.00e+00	0	42	0	1153433600	59	3973
2026-01-29 00:19:49.66	185.75	21.41	-44.0	-45.1	21.7	0.00e+00	0	42	0	1155530752	59	4113
2026-01-29 00:19:50.67	185.81	21.28	-44.0	-45.1	21.7	0.00e+00	0	42	0	1157627904	59	4128
2026-01-29 00:19:51.68	185.88	21.14	-44.1	-45.2	21.6	0.00e+00	0	42	0	1159725056	59	4180
2026-01-29 00:19:52.69	185.94	21.01	-44.1	-45.2	21.6	0.00e+00	0	42	0	1160773632	59	4188
2026-01-29 00:19:53.69	186.00	20.88	-44.5	-45.7	21.2	0.00e+00	0	42	0	1162870784	59	4434
2026-01-29 00:19:54.70	186.07	20.74	-44.6	-45.8	21.0	0.00e+00	0	42	0	1164967936	59	4491
2026-01-29 00:19:55.71	186.13	20.61	-44.7	-45.9	21.0	0.00e+00	0	42	0	1167065088	59	4521
2026-01-29 00:19:56.71	186.19	20.48	-44.5	-45.8	20.8	0.00e+00	0	42	0	1169162240	60	4205
2026-01-29 00:19:57.72	186.25	20.35	-44.3	-45.5	20.9	0.00e+00	0	42	0	1171259392	60	4097
2026-01-29 00:19:58.72	186.31	20.22	-44.4	-45.7	20.9	0.00e+00	0	42	0	1172307968	60	4164
2026-01-29 00:19:59.73	186.37	20.09	-44.6	-45.9	20.7	0.00e+00	0	42	0	1174405120	60	4251
2026-01-29 00:20:00.74	186.43	19.96	-44.5	-45.8	20.7	0.00e+00	0	42	0	1176502272	60	4217
2026-01-29 00:20:01.75	186.49	19.83	-44.5	-45.8	20.8	0.00e+00	0	42	0	1178599424	60	4201
2026-01-29 00:20:02.75	186.55	19.71	-44.4	-45.6	20.9	0.00e+00	0	42	0	1179648000	60	4144
2026-01-29 00:20:03.76	186.60	19.58	-44.4	-45.6	20.9	0.00e+00	0	42	0	1181745152	60	4125
2026-01-29 00:20:04.77	186.66	19.45	-44.3	-45.5	21.0	0.00e+00	0	42	0	1183842304	60	4069
2026-01-29 00:20:05.77	186.72	19.33	-44.2	-45.4	21.0	0.00e+00	0	42	0	1185939456	60	4035
2026-01-29 00:20:06.78	186.78	19.20	-44.1	-45.3	21.0	0.00e+00	0	42	0	1188036608	60	3973
2026-01-29 00:20:07.79	186.83	19.08	-44.2	-45.5	21.0	0.00e+00	0	42	0	1189085184	60	4055
2026-01-29 00:20:08.80	186.89	18.96	-44.2	-45.4	21.0	0.00e+00	0	42	0	1191182336	60	4045
2026-01-29 00:20:09.81	186.94	18.83	-44.3	-45.5	20.9	0.00e+00	0	42	0	1193279488	60	4091
2026-01-29 00:20:10.81	187.00	18.71	-44.3	-45.5	20.9	0.00e+00	0	42	0	1195376640	60	4082
2026-01-29 00:20:11.82	187.05	18.59	-44.5	-45.7	20.8	0.00e+00	0	43	0	1197473792	60	4172
2026-01-29 00:20:12.83	187.11	18.47	-44.4	-45.6	20.8	0.00e+00	0	42	0	1199570944	60	4138
2026-01-29 00:20:13.84	187.16	18.35	-44.3	-45.6	20.9	0.00e+00	0	42	0	1200619520	60	4101
2026-01-29 00:20:14.84	187.21	18.23	-44.5	-45.8	20.7	0.00e+00	0	42	0	1202716672	60	4199
2026-01-29 00:20:15.85	187.27	18.11	-44.6	-45.9	20.6	0.00e+00	0	42	0	1204813824	60	4251
2026-01-29 00:20:16.86	187.32	17.99	-44.5	-45.8	20.7	0.00e+00	0	42	0	1206910976	60	4197
2026-01-29 00:20:17.87	187.37	17.87	-44.7	-45.9	20.6	0.00e+00	0	42	0	1207959552	60	4278
2026-01-29 00:20:18.87	187.42	17.75	-44.6	-45.8	20.7	0.00e+00	0	42	0	1210056704	60	4226
2026-01-29 00:20:19.88	187.48	17.63	-44.5	-45.7	20.8	0.00e+00	0	42	0	1212153856	60	4177
2026-01-29 00:20:20.89	187.53	17.52	-44.4	-45.6	20.8	0.00e+00	0	42	0	1214251008	60	4124
2026-01-29 00:20:21.89	187.58	17.40	-44.4	-45.6	20.9	0.00e+00	0	42	0	1216348160	60	4100
2026-01-29 00:20:22.90	187.63	17.29	-44.3	-45.5	20.9	0.00e+00	0	42	0	1218445312	60	4076
2026-01-29 00:20:23.91	187.68	17.17	-44.2	-45.3	21.1	0.00e+00	0	42	0	1219493888	60	4001
2026-01-29 00:20:24.91	187.73	17.06	-44.3	-45.5	20.9	0.00e+00	0	42	0	1221591040	60	4073
2026-01-29 00:20:25.92	187.78	16.94	-44.0	-45.1	21.2	0.00e+00	0	42	0	1223688192	60	3906
2026-01-29 00:20:26.93	187.83	16.83	-44.2	-45.4	21.3	0.00e+00	0	42	0	1225785344	59	4247
2026-01-29 00:20:27.94	187.87	16.71	-44.5	-45.7	21.0	0.00e+00	0	42	0	1227882496	59	4411
2026-01-29 00:20:28.94	187.92	16.60	-44.4	-45.6	21.1	0.00e+00	0	42	0	1228931072	59	4365
2026-01-29 00:20:29.95	187.97	16.49	-44.3	-45.5	21.2	0.00e+00	0	42	0	1231028224	59	4318
2026-01-29 00:20:30.96	188.02	16.38	-44.4	-45.6	21.1	0.00e+00	0	42	0	1233125376	59	4372
2026-01-29 00:20:31.97	188.07	16.27	-44.4	-45.6	21.0	0.00e+00	0	42	0	1235222528	59	4384
2026-01-29 00:20:32.97	188.11	16.16	-44.5	-45.7	21.1	0.00e+00	0	42	0	1236271104	59	4412
2026-01-29 00:20:33.98	188.16	16.05	-44.6	-45.8	20.9	0.00e+00	0	42	0	1238368256	59	4471
2026-01-29 00:20:34.99	188.21	15.94	-44.7	-45.9	20.8	0.00e+00	0	42	0	1240465408	59	4527
2026-01-29 00:20:36.00	188.25	15.83	-44.4	-45.6	20.8	0.00e+00	0	42	0	1242562560	60	4125
