passes_logs/2026/01/29/R3.2S_Murmansk/R3.2S_Murmansk__20260129_112148_TY-42_rec.log

#Pass ID: 20260129_112148_TY-42
#Satellite: TY-42
#Configuration: TY-42_900M
#almurnet v.1.7.20251203
#Start time: 2026-01-29 11:21:47

#Version: 2.2.20231116
#Station: R3.2S_Murmansk
#Location: 33.079688 lon 68.888172 lat
#TLE: 1 64048U 25103A   26028.87012731  .00008010  00000-0  38191-3 0 09994
#TLE: 2 64048 097.4122 104.0273 0001827 094.4790 293.3217 15.19170538 38926

#Time	Az	El	Level	Level2	SNR	BER	BlckErr	Temp	State	Recorded	gain1	gain2
2026-01-29 11:21:47.65	24.56	1.96	-54.3	-56.4	6.2	0.00e+00	0	49	0	0	79	19174
2026-01-29 11:21:48.65	24.49	2.03	-54.2	-56.4	6.2	0.00e+00	0	48	104	0	80	17987
2026-01-29 11:21:49.66	24.41	2.09	-54.2	-56.4	6.2	0.00e+00	0	48	104	0	80	18022
2026-01-29 11:21:50.67	24.34	2.16	-54.3	-56.4	6.2	0.00e+00	0	48	104	0	80	18050
2026-01-29 11:21:51.67	24.26	2.22	-54.2	-56.4	6.2	0.00e+00	0	48	104	0	80	18013
2026-01-29 11:21:52.68	24.19	2.29	-54.2	-56.4	6.2	0.00e+00	0	49	104	0	80	18019
2026-01-29 11:21:53.69	24.11	2.35	-54.2	-56.3	6.2	0.00e+00	0	49	104	0	80	17952
2026-01-29 11:21:54.69	24.03	2.41	-54.2	-56.3	6.2	0.00e+00	0	49	104	0	80	17913
2026-01-29 11:21:55.70	23.95	2.48	-54.2	-56.3	6.2	0.00e+00	0	49	104	0	80	17914
2026-01-29 11:21:56.71	23.87	2.54	-54.3	-56.4	6.2	0.00e+00	0	49	104	0	80	18071
2026-01-29 11:21:57.71	23.80	2.61	-54.4	-56.5	6.2	0.00e+00	0	49	104	0	80	18207
2026-01-29 11:21:58.72	23.72	2.68	-54.4	-56.5	6.2	0.00e+00	0	49	104	0	80	18258
2026-01-29 11:21:59.73	23.64	2.74	-54.4	-56.5	6.2	0.00e+00	0	49	104	0	80	18351
2026-01-29 11:22:00.74	23.56	2.81	-54.4	-56.6	6.2	0.00e+00	0	49	104	0	80	18418
2026-01-29 11:22:01.75	23.48	2.87	-54.4	-56.5	6.2	0.00e+00	0	49	104	0	80	18282
2026-01-29 11:22:02.75	23.40	2.94	-54.4	-56.5	6.2	0.00e+00	0	49	104	0	80	18369
2026-01-29 11:22:03.76	23.31	3.00	-54.4	-56.5	6.2	0.00e+00	0	49	104	0	80	18290
2026-01-29 11:22:04.77	23.23	3.07	-54.3	-56.5	6.2	0.00e+00	0	49	104	0	80	18220
2026-01-29 11:22:05.78	23.15	3.14	-54.3	-56.4	6.2	0.00e+00	0	49	104	0	80	18150
2026-01-29 11:22:06.78	23.07	3.20	-54.3	-56.4	6.2	0.00e+00	0	49	104	0	80	18163
2026-01-29 11:22:07.79	22.98	3.27	-54.3	-56.5	6.2	0.00e+00	0	49	104	0	80	18298
2026-01-29 11:22:08.80	22.90	3.34	-54.3	-56.4	6.2	0.00e+00	0	50	104	0	80	18154
2026-01-29 11:22:09.81	22.81	3.41	-54.3	-56.4	6.2	0.00e+00	0	50	104	0	80	18065
2026-01-29 11:22:10.81	22.73	3.47	-54.2	-56.3	6.2	0.00e+00	0	49	104	0	80	17967
2026-01-29 11:22:11.82	22.64	3.54	-54.1	-56.3	6.2	0.00e+00	0	50	104	0	80	17822
2026-01-29 11:22:12.83	22.56	3.61	-54.0	-56.1	6.2	0.00e+00	0	50	104	0	80	17559
2026-01-29 11:22:13.83	22.47	3.68	-54.0	-56.1	6.2	0.00e+00	0	50	104	0	79	18553
2026-01-29 11:22:14.84	22.38	3.74	-53.9	-56.0	6.2	0.00e+00	0	50	104	0	79	18287
2026-01-29 11:22:15.85	22.29	3.81	-53.7	-55.9	6.2	0.00e+00	0	50	104	0	79	18028
2026-01-29 11:22:16.86	22.21	3.88	-53.5	-55.6	6.2	0.00e+00	0	50	104	0	79	17547
2026-01-29 11:22:17.86	22.12	3.95	-53.2	-55.4	6.2	0.00e+00	0	50	104	0	78	17972
2026-01-29 11:22:18.87	22.03	4.02	-52.8	-54.9	6.2	0.00e+00	0	50	104	0	77	18068
2026-01-29 11:22:19.87	21.94	4.09	-52.5	-54.7	6.2	0.00e+00	0	50	104	0	77	17564
2026-01-29 11:22:20.88	21.85	4.16	-52.5	-54.6	6.2	0.00e+00	0	50	104	0	77	17533
2026-01-29 11:22:21.88	21.76	4.22	-52.5	-54.6	6.2	0.00e+00	0	50	104	0	77	17503
2026-01-29 11:22:22.89	21.66	4.29	-52.5	-54.6	6.2	0.00e+00	0	50	104	0	77	17508
2026-01-29 11:22:23.90	21.57	4.36	-52.5	-54.6	6.2	0.00e+00	0	50	104	0	77	17487
2026-01-29 11:22:24.90	21.48	4.43	-52.5	-54.6	6.2	0.00e+00	0	50	104	0	76	18478
2026-01-29 11:22:25.91	21.39	4.50	-52.4	-54.6	6.2	0.00e+00	0	50	104	0	76	18433
2026-01-29 11:22:26.92	21.29	4.57	-52.5	-54.6	6.2	0.00e+00	0	50	104	0	76	18473
2026-01-29 11:22:27.93	21.20	4.64	-52.5	-54.6	6.2	0.00e+00	0	50	104	0	76	18511
2026-01-29 11:22:28.93	21.10	4.71	-52.5	-54.5	6.2	0.00e+00	0	51	104	0	76	18388
2026-01-29 11:22:29.94	21.01	4.78	-52.4	-54.6	6.2	0.00e+00	0	50	104	0	76	18486
2026-01-29 11:22:30.95	20.91	4.86	-52.4	-54.6	6.2	0.00e+00	0	50	104	0	76	18428
2026-01-29 11:22:31.95	20.81	4.93	-52.4	-54.5	6.2	0.00e+00	0	51	104	0	76	18386
2026-01-29 11:22:32.96	20.72	5.00	-52.4	-54.5	6.2	0.00e+00	0	50	104	0	76	18384
2026-01-29 11:22:33.97	20.62	5.07	-52.6	-54.7	6.2	0.00e+00	0	51	104	0	76	18782
2026-01-29 11:22:34.98	20.52	5.14	-52.6	-54.7	6.2	0.00e+00	0	51	104	0	76	18673
2026-01-29 11:22:35.99	20.42	5.21	-52.4	-54.5	6.2	0.00e+00	0	50	104	0	76	18299
2026-01-29 11:22:37.00	20.32	5.29	-52.5	-54.7	6.2	0.00e+00	0	51	104	0	76	18644
2026-01-29 11:22:38.00	20.22	5.36	-52.4	-54.5	6.2	0.00e+00	0	51	104	0	76	18365
2026-01-29 11:22:39.01	20.12	5.43	-52.6	-54.7	6.2	0.00e+00	0	51	104	0	76	18705
2026-01-29 11:22:40.02	20.01	5.50	-52.4	-54.5	6.2	0.00e+00	0	51	104	0	76	18298
2026-01-29 11:22:41.02	19.91	5.57	-49.4	-50.2	6.9	0.00e+00	0	51	104	0	70	15778
2026-01-29 11:22:42.03	19.81	5.65	-41.8	-41.8	11.2	0.00e+00	9629	54	0	33554432	54	15002
2026-01-29 11:22:43.04	19.70	5.72	-41.6	-41.6	11.4	1.52e-01	5889	54	0	142606336	54	14738
2026-01-29 11:22:44.05	19.60	5.79	-40.1	-40.1	12.3	1.52e-01	0	54	0	260046848	52	13794
2026-01-29 11:22:45.05	19.49	5.87	-39.7	-39.6	12.6	1.52e-01	0	53	0	369098752	51	13911
2026-01-29 11:22:46.07	19.39	5.94	-37.1	-37.0	13.2	1.68e-01	0	53	0	494927872	46	13759
2026-01-29 11:22:47.07	19.28	6.01	-36.0	-36.0	13.9	1.68e-01	0	53	0	603979776	43	14450
2026-01-29 11:22:48.08	19.17	6.09	-35.4	-35.3	14.2	3.89e-02	0	53	0	721420288	42	14232
2026-01-29 11:22:49.09	19.06	6.16	-35.3	-35.3	14.3	3.89e-02	0	53	0	830472192	42	14146
2026-01-29 11:22:50.09	18.96	6.24	-35.1	-35.0	14.4	3.89e-02	0	53	0	947912704	42	13740
2026-01-29 11:22:51.10	18.84	6.31	-34.9	-34.9	14.4	1.55e-02	0	53	0	1056964608	41	14305
2026-01-29 11:22:52.11	18.73	6.39	-34.8	-34.8	14.5	1.55e-02	0	53	0	1174405120	41	14159
2026-01-29 11:22:53.11	18.62	6.46	-34.7	-34.7	14.6	1.18e-02	0	54	0	1283457024	41	13952
2026-01-29 11:22:54.12	18.51	6.54	-34.7	-34.7	14.6	1.18e-02	0	54	0	1392508928	41	13963
2026-01-29 11:22:55.13	18.40	6.61	-34.6	-34.5	14.6	1.18e-02	0	54	0	1509949440	41	13776
2026-01-29 11:22:56.13	18.29	6.69	-34.6	-34.5	14.7	1.02e-02	0	54	0	1619001344	41	13666
2026-01-29 11:22:57.14	18.17	6.76	-34.6	-34.5	14.7	1.02e-02	0	54	0	1736441856	41	13723
2026-01-29 11:22:58.15	18.06	6.84	-34.5	-34.4	14.7	8.85e-03	0	54	0	1845493760	40	14428
2026-01-29 11:22:59.15	17.94	6.92	-34.5	-34.4	14.7	8.85e-03	0	54	0	1954545664	40	14392
2026-01-29 11:23:00.15	17.83	6.99	-34.6	-34.5	14.7	8.85e-03	0	54	0	2071986176	40	14525
2026-01-29 11:23:01.16	17.71	7.07	-34.4	-34.3	14.8	8.73e-03	0	54	0	2197815296	40	14173
2026-01-29 11:23:02.17	17.59	7.15	-34.3	-34.3	14.9	8.73e-03	0	54	0	2306867200	40	14114
2026-01-29 11:23:03.18	17.47	7.22	-34.3	-34.2	14.9	8.06e-03	0	54	0	2415919104	40	14111
2026-01-29 11:23:04.19	17.35	7.30	-34.3	-34.2	14.9	8.06e-03	0	54	0	2533359616	40	14108
2026-01-29 11:23:05.20	17.23	7.38	-34.2	-34.1	14.9	8.06e-03	0	54	0	2642411520	40	13906
2026-01-29 11:23:06.21	17.11	7.46	-34.2	-34.1	14.9	8.06e-03	0	54	0	2759852032	40	13853
2026-01-29 11:23:07.21	16.99	7.53	-34.1	-34.0	14.9	7.01e-03	0	54	0	2868903936	40	13718
2026-01-29 11:23:08.22	16.86	7.61	-34.1	-34.1	14.9	7.01e-03	0	54	0	2977955840	40	13793
2026-01-29 11:23:09.23	16.74	7.69	-34.1	-34.0	15.0	7.01e-03	0	54	0	3095396352	40	13689
2026-01-29 11:23:10.24	16.61	7.77	-34.0	-34.0	15.0	6.49e-03	0	54	0	3204448256	40	13642
2026-01-29 11:23:11.25	16.49	7.85	-34.2	-34.1	15.0	6.49e-03	0	54	0	3321888768	39	14652
2026-01-29 11:23:12.25	16.36	7.93	-34.0	-33.9	15.0	6.49e-03	0	55	0	3430940672	39	14395
2026-01-29 11:23:13.26	16.23	8.01	-34.0	-33.9	15.1	6.25e-03	0	54	0	3556769792	39	14318
2026-01-29 11:23:14.26	16.11	8.09	-34.1	-34.0	15.0	6.25e-03	0	55	0	3665821696	39	14514
2026-01-29 11:23:15.26	15.98	8.17	-34.0	-33.9	15.1	6.25e-03	0	55	0	3783262208	39	14310
2026-01-29 11:23:16.27	15.85	8.25	-34.1	-34.0	15.1	5.62e-03	0	55	0	3892314112	39	14524
2026-01-29 11:23:17.28	15.72	8.33	-33.9	-33.8	15.2	5.62e-03	0	55	0	4001366016	39	14174
2026-01-29 11:23:18.29	15.58	8.41	-33.8	-33.7	15.2	5.62e-03	0	55	0	4118806528	39	14036
2026-01-29 11:23:19.29	15.45	8.49	-33.7	-33.7	15.2	4.68e-03	0	55	0	4227858432	39	13973
2026-01-29 11:23:20.30	15.32	8.57	-33.7	-33.6	15.3	4.68e-03	0	55	0	4345298944	39	13841
2026-01-29 11:23:21.30	15.18	8.65	-33.6	-33.5	15.3	4.68e-03	0	55	0	4454350848	39	13710
2026-01-29 11:23:22.31	15.05	8.73	-33.6	-33.5	15.3	4.68e-03	0	55	0	4571791360	39	13760
2026-01-29 11:23:23.32	14.91	8.81	-33.6	-33.5	15.3	3.60e-03	0	55	0	4680843264	39	13738
2026-01-29 11:23:24.32	14.77	8.89	-33.6	-33.5	15.3	3.60e-03	0	55	0	4789895168	38	14482
2026-01-29 11:23:25.33	14.64	8.97	-33.4	-33.3	15.4	3.46e-03	0	55	0	4907335680	38	14210
2026-01-29 11:23:26.34	14.50	9.06	-33.5	-33.4	15.4	3.46e-03	0	55	0	5016387584	38	14331
2026-01-29 11:23:27.35	14.35	9.14	-33.2	-33.2	15.5	3.46e-03	0	55	0	5133828096	38	13966
2026-01-29 11:23:28.36	14.21	9.22	-33.2	-33.2	15.5	2.97e-03	0	55	0	5251268608	38	13966
2026-01-29 11:23:29.37	14.07	9.30	-33.2	-33.1	15.5	2.97e-03	0	55	0	5368709120	38	13925
2026-01-29 11:23:30.37	13.93	9.39	-33.2	-33.1	15.5	2.97e-03	0	55	0	5477761024	38	13936
2026-01-29 11:23:31.38	13.78	9.47	-33.1	-33.0	15.6	2.15e-03	0	55	0	5595201536	38	13703
2026-01-29 11:23:32.39	13.64	9.55	-33.0	-32.9	15.6	2.15e-03	0	55	0	5704253440	38	13606
2026-01-29 11:23:33.40	13.49	9.64	-33.0	-32.9	15.6	1.79e-03	0	55	0	5813305344	37	14329
2026-01-29 11:23:34.40	13.34	9.72	-33.0	-32.9	15.6	1.79e-03	0	55	0	5930745856	37	14417
2026-01-29 11:23:35.41	13.19	9.80	-32.9	-32.8	15.6	1.79e-03	0	55	0	6039797760	37	14259
2026-01-29 11:23:36.41	13.04	9.89	-32.9	-32.8	15.7	1.85e-03	0	55	0	6157238272	37	14154
2026-01-29 11:23:37.42	12.89	9.97	-32.9	-32.8	15.7	1.85e-03	0	55	0	6266290176	37	14122
2026-01-29 11:23:38.43	12.74	10.06	-32.8	-32.7	15.7	1.85e-03	0	55	0	6375342080	37	14100
2026-01-29 11:23:39.44	12.59	10.14	-32.8	-32.7	15.7	1.32e-03	0	55	0	6492782592	37	14099
2026-01-29 11:23:40.44	12.43	10.23	-32.7	-32.6	15.8	1.32e-03	0	56	0	6601834496	37	13937
2026-01-29 11:23:41.45	12.28	10.31	-32.8	-32.7	15.7	1.32e-03	0	56	0	6719275008	37	14056
2026-01-29 11:23:42.46	12.12	10.40	-32.9	-32.8	15.7	1.27e-03	0	56	0	6836715520	37	14167
2026-01-29 11:23:43.47	11.96	10.48	-32.7	-32.6	15.8	1.27e-03	0	55	0	6954156032	37	13948
2026-01-29 11:23:44.48	11.80	10.57	-32.9	-32.8	15.8	1.27e-03	0	56	0	7063207936	37	14117
2026-01-29 11:23:45.49	11.64	10.66	-32.8	-32.7	15.8	1.18e-03	0	55	0	7180648448	37	13964
2026-01-29 11:23:46.49	11.48	10.74	-32.7	-32.6	15.8	1.18e-03	0	56	0	7289700352	37	13814
2026-01-29 11:23:47.50	11.32	10.83	-32.7	-32.6	15.8	1.18e-03	0	56	0	7407140864	37	13842
2026-01-29 11:23:48.51	11.16	10.92	-32.6	-32.5	15.9	1.23e-03	0	56	0	7516192768	37	13716
2026-01-29 11:23:49.51	10.99	11.00	-32.5	-32.4	16.0	1.23e-03	0	56	0	7625244672	37	13616
2026-01-29 11:23:50.52	10.83	11.09	-32.6	-32.5	15.9	1.23e-03	0	56	0	7742685184	37	13726
2026-01-29 11:23:51.52	10.66	11.18	-32.6	-32.5	15.9	1.13e-03	0	56	0	7851737088	37	13689
2026-01-29 11:23:52.53	10.49	11.26	-32.5	-32.4	16.0	1.13e-03	0	56	0	7969177600	36	14299
2026-01-29 11:23:53.54	10.32	11.35	-32.6	-32.5	15.9	1.13e-03	0	56	0	8078229504	36	14472
2026-01-29 11:23:54.55	10.15	11.44	-32.5	-32.4	15.9	8.77e-04	0	56	0	8187281408	36	14433
2026-01-29 11:23:55.56	9.98	11.53	-32.4	-32.3	16.0	8.77e-04	0	56	0	8313110528	36	14263
2026-01-29 11:23:56.57	9.80	11.62	-32.4	-32.3	16.0	7.30e-04	0	56	0	8430551040	36	14165
2026-01-29 11:23:57.57	9.63	11.70	-32.3	-32.2	16.1	7.30e-04	0	56	0	8539602944	36	14046
2026-01-29 11:23:58.58	9.45	11.79	-32.3	-32.2	16.1	7.30e-04	0	56	0	8648654848	36	14020
2026-01-29 11:23:59.59	9.27	11.88	-32.2	-32.1	16.1	7.30e-04	0	56	0	8766095360	36	13941
2026-01-29 11:24:00.59	9.10	11.97	-32.3	-32.2	16.1	6.25e-04	0	56	0	8875147264	36	13994
2026-01-29 11:24:01.60	8.92	12.06	-32.2	-32.1	16.1	6.25e-04	0	56	0	8992587776	36	13805
2026-01-29 11:24:02.60	8.74	12.15	-32.3	-32.2	16.1	6.20e-04	0	56	0	9101639680	36	14053
2026-01-29 11:24:03.61	8.55	12.24	-32.1	-32.0	16.1	6.20e-04	0	56	0	9210691584	36	13789
2026-01-29 11:24:04.62	8.37	12.33	-32.0	-31.9	16.2	6.20e-04	0	56	0	9328132096	36	13561
2026-01-29 11:24:05.62	8.18	12.42	-29.7	-29.6	15.7	5.20e-04	0	56	0	9437184000	31	13900
2026-01-29 11:24:06.64	7.99	12.51	-29.7	-29.6	15.7	5.20e-04	0	56	0	9554624512	31	13874
2026-01-29 11:24:07.65	7.81	12.60	-29.5	-29.4	15.8	1.24e-03	0	56	0	9663676416	31	13577
2026-01-29 11:24:08.65	7.62	12.69	-29.5	-29.5	15.8	1.24e-03	0	56	0	9772728320	30	14442
2026-01-29 11:24:09.66	7.43	12.78	-29.4	-29.3	15.8	1.24e-03	0	56	0	9898557440	30	14165
2026-01-29 11:24:10.67	7.23	12.87	-29.4	-29.3	15.8	1.20e-03	0	56	0	10015997952	30	14184
2026-01-29 11:24:11.68	7.04	12.96	-29.5	-29.4	15.8	1.20e-03	0	56	0	10125049856	30	14361
2026-01-29 11:24:12.68	6.84	13.05	-29.3	-29.2	15.9	1.20e-03	0	56	0	10234101760	30	14009
2026-01-29 11:24:13.69	6.65	13.15	-29.4	-29.3	15.8	1.10e-03	0	56	0	10351542272	30	14206
2026-01-29 11:24:14.69	6.45	13.24	-29.3	-29.2	15.9	1.10e-03	0	56	0	10460594176	30	14096
2026-01-29 11:24:15.70	6.25	13.33	-29.1	-29.1	15.9	1.10e-03	0	56	0	10578034688	30	13791
2026-01-29 11:24:16.71	6.05	13.42	-29.2	-29.2	15.9	1.10e-03	0	56	0	10687086592	30	13988
2026-01-29 11:24:17.71	5.84	13.51	-29.2	-29.1	15.9	1.10e-03	0	56	0	10804527104	30	13825
2026-01-29 11:24:18.71	5.64	13.60	-29.3	-29.2	15.9	8.82e-04	0	56	0	10913579008	30	14006
2026-01-29 11:24:19.72	5.43	13.70	-29.2	-29.1	15.9	8.82e-04	0	56	0	11022630912	30	13933
2026-01-29 11:24:20.72	5.23	13.79	-29.3	-29.2	15.9	8.82e-04	0	56	0	11140071424	30	14011
2026-01-29 11:24:21.73	5.02	13.88	-29.2	-29.1	15.9	8.63e-04	0	56	0	11249123328	30	13878
2026-01-29 11:24:22.73	4.81	13.97	-29.0	-28.9	15.9	8.63e-04	0	56	0	11366563840	30	13616
2026-01-29 11:24:23.74	4.60	14.07	-29.1	-29.0	15.9	8.63e-04	0	56	0	11475615744	30	13754
2026-01-29 11:24:24.75	4.38	14.16	-29.1	-29.0	15.9	7.06e-04	0	56	0	11584667648	30	13737
2026-01-29 11:24:25.76	4.17	14.25	-28.9	-28.8	16.0	7.06e-04	0	56	0	11710496768	29	14206
2026-01-29 11:24:26.76	3.95	14.34	-28.9	-28.8	16.0	7.06e-04	0	56	0	11827937280	29	14226
2026-01-29 11:24:27.76	3.73	14.44	-28.8	-28.8	16.0	7.06e-04	0	56	0	11936989184	29	14116
2026-01-29 11:24:28.77	3.51	14.53	-28.8	-28.7	16.0	7.06e-04	0	56	0	12046041088	29	14042
2026-01-29 11:24:29.77	3.29	14.62	-28.7	-28.6	16.0	7.06e-04	0	56	0	12163481600	29	13908
2026-01-29 11:24:30.78	3.07	14.72	-28.7	-28.6	16.0	5.48e-04	0	56	0	12272533504	29	13883
2026-01-29 11:24:31.78	2.84	14.81	-28.7	-28.6	16.0	5.48e-04	0	56	0	12389974016	29	13871
2026-01-29 11:24:32.78	2.62	14.90	-28.6	-28.5	16.0	6.10e-04	0	56	0	12499025920	29	13763
2026-01-29 11:24:33.79	2.39	15.00	-28.6	-28.5	16.0	6.10e-04	0	57	0	12608077824	29	13728
2026-01-29 11:24:34.80	2.16	15.09	-28.6	-28.5	16.0	6.10e-04	0	56	0	12725518336	29	13762
2026-01-29 11:24:35.80	1.92	15.18	-28.6	-28.5	16.0	5.34e-04	0	56	0	12834570240	29	13746
2026-01-29 11:24:36.80	1.69	15.28	-28.5	-28.4	16.1	5.34e-04	0	56	0	12952010752	29	13624
2026-01-29 11:24:37.81	1.46	15.37	-28.3	-28.2	16.1	5.34e-04	0	56	0	13061062656	28	14030
2026-01-29 11:24:38.81	1.22	15.46	-28.3	-28.3	16.1	3.72e-04	0	56	0	13178503168	28	14115
2026-01-29 11:24:39.82	0.98	15.56	-28.3	-28.2	16.1	3.72e-04	0	56	0	13287555072	28	14020
2026-01-29 11:24:40.82	0.74	15.65	-28.3	-28.2	16.1	3.05e-04	0	57	0	13396606976	28	14067
2026-01-29 11:24:41.82	0.50	15.74	-28.3	-28.2	16.1	3.05e-04	0	56	0	13514047488	28	13958
2026-01-29 11:24:42.83	0.25	15.84	-28.1	-28.0	16.2	3.05e-04	0	56	0	13623099392	28	13730
2026-01-29 11:24:43.84	0.01	15.93	-28.0	-28.0	16.2	3.53e-04	0	56	0	13740539904	28	13639
2026-01-29 11:24:44.84	359.76	16.02	-28.1	-28.0	16.2	3.53e-04	0	56	0	13849591808	28	13753
2026-01-29 11:24:45.84	359.51	16.12	-28.1	-28.0	16.2	3.53e-04	0	57	0	13958643712	28	13641
2026-01-29 11:24:46.85	359.26	16.21	-28.1	-28.0	16.2	2.43e-04	0	56	0	14076084224	27	14522
2026-01-29 11:24:47.84	359.01	16.30	-28.0	-27.9	16.2	2.43e-04	0	56	0	14185136128	27	14380
2026-01-29 11:24:48.85	358.75	16.40	-27.9	-27.8	16.3	2.43e-04	0	57	0	14302576640	27	14135
2026-01-29 11:24:49.86	358.49	16.49	-27.8	-27.7	16.3	2.19e-04	0	57	0	14420017152	27	14033
2026-01-29 11:24:50.86	358.23	16.59	-27.9	-27.8	16.3	2.19e-04	0	57	0	14537457664	27	14220
2026-01-29 11:24:51.87	357.97	16.68	-27.9	-27.8	16.3	2.19e-04	0	56	0	14646509568	27	14178
2026-01-29 11:24:52.88	357.71	16.77	-27.9	-27.8	16.3	2.19e-04	0	57	0	14763950080	27	14142
2026-01-29 11:24:53.89	357.44	16.87	-27.8	-27.7	16.3	2.05e-04	0	57	0	14873001984	27	14016
2026-01-29 11:24:54.89	357.18	16.96	-27.7	-27.6	16.4	2.05e-04	0	57	0	14982053888	27	13911
2026-01-29 11:24:55.90	356.91	17.05	-27.8	-27.7	16.4	2.05e-04	0	57	0	15099494400	27	13958
2026-01-29 11:24:56.90	356.64	17.14	-27.6	-27.5	16.4	1.19e-04	0	56	0	15208546304	27	13721
2026-01-29 11:24:57.90	356.36	17.24	-27.6	-27.5	16.4	1.19e-04	0	57	0	15325986816	27	13739
2026-01-29 11:24:58.91	356.09	17.33	-27.7	-27.6	16.4	1.19e-04	0	57	0	15435038720	27	13900
2026-01-29 11:24:59.91	355.81	17.42	-27.7	-27.6	16.4	1.19e-04	0	56	0	15544090624	27	13883
2026-01-29 11:25:00.92	355.53	17.51	-27.6	-27.5	16.4	1.19e-04	0	56	0	15661531136	27	13766
2026-01-29 11:25:01.93	355.25	17.61	-27.7	-27.6	16.4	1.19e-04	0	56	0	15770583040	27	13888
2026-01-29 11:25:02.94	354.97	17.70	-27.6	-27.5	16.4	1.52e-04	0	57	0	15888023552	27	13689
2026-01-29 11:25:03.95	354.68	17.79	-27.6	-27.5	16.4	1.52e-04	0	56	0	15997075456	27	13700
2026-01-29 11:25:04.96	354.39	17.88	-27.6	-27.5	16.4	1.52e-04	0	57	0	16122904576	27	13676
2026-01-29 11:25:05.96	354.10	17.97	-27.7	-27.6	16.4	2.00e-04	0	57	0	16231956480	27	13816
2026-01-29 11:25:06.96	353.81	18.06	-27.6	-27.5	16.4	2.00e-04	0	57	0	16349396992	27	13690
2026-01-29 11:25:07.97	353.52	18.16	-27.5	-27.4	16.4	2.00e-04	0	57	0	16458448896	27	13549
2026-01-29 11:25:08.98	353.22	18.25	-27.6	-27.5	16.4	2.19e-04	0	56	0	16575889408	27	13655
2026-01-29 11:25:09.98	352.93	18.34	-27.5	-27.4	16.4	2.19e-04	0	57	0	16684941312	26	14331
2026-01-29 11:25:10.98	352.63	18.43	-27.6	-27.5	16.4	1.00e-04	0	57	0	16793993216	26	14450
2026-01-29 11:25:11.98	352.33	18.51	-27.5	-27.4	16.4	1.00e-04	0	57	0	16911433728	26	14379
2026-01-29 11:25:12.99	352.03	18.60	-27.6	-27.5	16.4	1.00e-04	0	57	0	17020485632	26	14480
2026-01-29 11:25:14.00	351.72	18.69	-27.4	-27.3	16.4	1.67e-04	0	57	0	17137926144	26	14215
2026-01-29 11:25:15.00	351.41	18.78	-27.4	-27.3	16.5	1.67e-04	0	57	0	17246978048	26	14172
2026-01-29 11:25:16.00	351.11	18.87	-27.4	-27.3	16.5	1.67e-04	0	57	0	17356029952	26	14213
2026-01-29 11:25:17.01	350.79	18.96	-27.4	-27.3	16.4	1.43e-04	0	57	0	17473470464	26	14257
2026-01-29 11:25:18.01	350.48	19.04	-27.3	-27.2	16.5	1.43e-04	0	57	0	17582522368	26	13984
2026-01-29 11:25:19.02	350.16	19.13	-27.3	-27.2	16.5	1.43e-04	0	57	0	17699962880	26	14056
2026-01-29 11:25:20.02	349.85	19.22	-27.3	-27.2	16.5	1.14e-04	0	57	0	17809014784	26	14088
2026-01-29 11:25:21.03	349.53	19.30	-27.2	-27.1	16.5	1.14e-04	0	57	0	17918066688	26	13811
2026-01-29 11:25:22.04	349.20	19.39	-27.1	-27.0	16.5	5.72e-05	0	57	0	18035507200	26	13677
2026-01-29 11:25:23.04	348.88	19.47	-27.3	-27.1	16.5	5.72e-05	0	56	0	18144559104	26	13936
2026-01-29 11:25:24.04	348.55	19.56	-27.2	-27.1	16.5	5.72e-05	0	57	0	18261999616	26	13882
2026-01-29 11:25:25.05	348.22	19.64	-27.3	-27.2	16.5	5.24e-05	0	57	0	18371051520	26	14010
2026-01-29 11:25:26.05	347.90	19.73	-27.1	-27.0	16.5	5.24e-05	0	57	0	18488492032	26	13718
2026-01-29 11:25:27.06	347.56	19.81	-27.0	-26.9	16.5	5.24e-05	0	56	0	18605932544	26	13587
2026-01-29 11:25:28.06	347.23	19.89	-27.2	-27.0	16.5	5.24e-05	0	57	0	18723373056	26	13788
2026-01-29 11:25:29.06	346.89	19.97	-27.1	-27.0	16.5	7.62e-05	0	57	0	18832424960	26	13729
2026-01-29 11:25:30.07	346.55	20.06	-27.0	-26.9	16.5	7.62e-05	0	56	0	18949865472	26	13588
2026-01-29 11:25:31.07	346.22	20.14	-26.9	-26.8	16.6	8.58e-05	0	57	0	19058917376	25	14223
2026-01-29 11:25:32.07	345.87	20.22	-27.0	-26.9	16.6	8.58e-05	0	57	0	19167969280	25	14287
2026-01-29 11:25:33.08	345.53	20.29	-26.9	-26.8	16.5	8.58e-05	0	57	0	19285409792	25	14157
2026-01-29 11:25:34.09	345.18	20.37	-26.8	-26.7	16.6	8.58e-05	0	56	0	19394461696	25	14052
2026-01-29 11:25:35.09	344.83	20.45	-26.8	-26.7	16.6	8.58e-05	0	56	0	19511902208	25	13980
2026-01-29 11:25:36.10	344.48	20.53	-26.9	-26.8	16.5	8.58e-05	0	56	0	19620954112	25	14163
2026-01-29 11:25:37.11	344.12	20.61	-26.8	-26.7	16.5	1.90e-05	0	57	0	19730006016	25	14055
2026-01-29 11:25:38.11	343.77	20.68	-26.7	-26.6	16.6	1.90e-05	0	57	0	19847446528	25	13874
2026-01-29 11:25:39.11	343.42	20.76	-26.8	-26.7	16.5	4.29e-05	0	57	0	19956498432	25	14034
2026-01-29 11:25:40.12	343.06	20.83	-26.8	-26.7	16.6	4.29e-05	0	57	0	20073938944	25	13951
2026-01-29 11:25:41.12	342.70	20.90	-26.6	-26.5	16.6	4.29e-05	0	57	0	20182990848	25	13708
2026-01-29 11:25:42.13	342.33	20.98	-26.6	-26.5	16.6	4.76e-05	0	57	0	20292042752	25	13653
2026-01-29 11:25:43.14	341.97	21.05	-26.6	-26.5	16.6	4.76e-05	0	57	0	20409483264	25	13659
2026-01-29 11:25:44.14	341.60	21.12	-26.6	-26.5	16.6	2.86e-05	0	57	0	20518535168	25	13737
2026-01-29 11:25:45.15	341.23	21.19	-26.6	-26.5	16.6	2.86e-05	0	56	0	20635975680	25	13764
2026-01-29 11:25:46.15	340.86	21.26	-26.6	-26.5	16.6	2.86e-05	0	57	0	20745027584	25	13668
2026-01-29 11:25:47.16	340.49	21.33	-26.5	-26.4	16.6	4.29e-05	0	56	0	20870856704	25	13543
2026-01-29 11:25:48.16	340.11	21.39	-26.5	-26.4	16.6	4.29e-05	0	57	0	20979908608	24	14375
2026-01-29 11:25:49.17	339.74	21.46	-26.4	-26.3	16.5	2.38e-05	0	57	0	21097349120	24	14179
2026-01-29 11:25:50.17	339.36	21.53	-26.5	-26.4	16.5	2.38e-05	0	57	0	21206401024	24	14347
2026-01-29 11:25:51.18	338.98	21.59	-26.3	-26.2	16.6	2.38e-05	0	57	0	21315452928	24	14089
2026-01-29 11:25:52.19	338.60	21.65	-26.3	-26.2	16.6	3.81e-05	0	57	0	21432893440	24	13965
2026-01-29 11:25:53.20	338.21	21.72	-26.4	-26.3	16.6	3.81e-05	0	57	0	21541945344	24	14151
2026-01-29 11:25:54.20	337.83	21.78	-26.3	-26.1	16.6	4.76e-05	0	57	0	21659385856	24	13943
2026-01-29 11:25:55.21	337.44	21.84	-26.4	-26.3	16.5	4.76e-05	0	57	0	21768437760	24	14118
2026-01-29 11:25:56.21	337.05	21.90	-26.3	-26.2	16.5	4.76e-05	0	57	0	21885878272	24	14064
2026-01-29 11:25:57.22	336.66	21.96	-26.4	-26.3	16.5	4.29e-05	0	57	0	21994930176	24	14117
2026-01-29 11:25:58.22	336.27	22.01	-26.3	-26.2	16.5	4.29e-05	0	57	0	22103982080	24	13995
2026-01-29 11:25:59.23	335.87	22.07	-26.3	-26.2	16.5	4.29e-05	0	57	0	22221422592	24	14007
2026-01-29 11:26:00.24	335.48	22.12	-26.2	-26.1	16.5	2.86e-05	0	57	0	22330474496	24	13921
2026-01-29 11:26:01.24	335.08	22.18	-26.3	-26.2	16.5	2.86e-05	0	57	0	22447915008	24	13957
2026-01-29 11:26:02.25	334.68	22.23	-26.2	-26.2	16.5	5.24e-05	0	57	0	22556966912	24	13952
2026-01-29 11:26:03.26	334.28	22.28	-26.2	-26.1	16.5	5.24e-05	0	57	0	22682796032	24	13927
2026-01-29 11:26:04.26	333.88	22.33	-26.3	-26.2	16.5	5.24e-05	0	57	0	22791847936	24	14004
2026-01-29 11:26:05.27	333.48	22.38	-26.3	-26.2	16.5	2.86e-05	0	57	0	22909288448	24	14038
2026-01-29 11:26:06.28	333.07	22.43	-26.3	-26.2	16.5	2.86e-05	0	57	0	23018340352	24	14013
2026-01-29 11:26:07.28	332.67	22.47	-26.3	-26.2	16.5	2.86e-05	0	57	0	23127392256	24	14003
2026-01-29 11:26:08.29	332.26	22.52	-26.4	-26.3	16.4	2.86e-05	0	57	0	23244832768	24	14223
2026-01-29 11:26:09.29	331.85	22.56	-26.3	-26.2	16.5	2.86e-05	0	57	0	23353884672	24	14063
2026-01-29 11:26:10.30	331.44	22.60	-26.3	-26.2	16.4	7.15e-05	0	57	0	23471325184	24	14073
2026-01-29 11:26:11.31	331.03	22.64	-26.3	-26.2	16.4	7.15e-05	0	57	0	23580377088	24	13996
2026-01-29 11:26:12.32	330.61	22.68	-26.2	-26.1	16.4	7.15e-05	0	57	0	23689428992	24	13900
2026-01-29 11:26:13.33	330.20	22.72	-26.2	-26.1	16.4	5.72e-05	0	57	0	23806869504	24	13859
2026-01-29 11:26:14.34	329.78	22.76	-26.3	-26.2	16.4	5.72e-05	0	57	0	23915921408	24	13981
2026-01-29 11:26:15.34	329.37	22.79	-26.2	-26.1	16.4	5.72e-05	0	57	0	24033361920	24	13867
2026-01-29 11:26:16.35	328.95	22.83	-26.3	-26.2	16.4	3.33e-05	0	57	0	24142413824	24	13981
2026-01-29 11:26:17.35	328.54	22.86	-26.3	-26.2	16.3	3.33e-05	0	57	0	24259854336	24	13964
2026-01-29 11:26:18.36	328.12	22.89	-26.3	-26.2	16.3	4.29e-05	0	57	0	24377294848	24	14095
2026-01-29 11:26:19.36	327.70	22.92	-26.4	-26.3	16.3	4.29e-05	0	57	0	24494735360	24	14262
2026-01-29 11:26:20.36	327.28	22.95	-26.5	-26.4	16.2	5.24e-05	0	57	0	24603787264	24	14285
2026-01-29 11:26:21.37	326.86	22.97	-26.6	-26.5	16.2	5.24e-05	0	57	0	24712839168	24	14566
2026-01-29 11:26:22.38	326.43	23.00	-26.8	-26.7	16.1	5.24e-05	0	57	0	24830279680	24	14901
2026-01-29 11:26:23.39	326.01	23.02	-26.7	-26.6	16.2	1.29e-04	0	57	0	24939331584	24	14645
2026-01-29 11:26:24.40	325.58	23.05	-26.6	-26.5	16.2	1.29e-04	0	57	0	25056772096	24	14509
2026-01-29 11:26:25.41	325.16	23.07	-26.6	-26.4	16.2	6.19e-05	0	57	0	25165824000	24	14431
2026-01-29 11:26:26.41	324.74	23.08	-26.5	-26.4	16.2	6.19e-05	0	57	0	25283264512	24	14397
2026-01-29 11:26:27.42	324.31	23.10	-26.6	-26.5	16.2	6.19e-05	0	57	0	25392316416	24	14501
2026-01-29 11:26:28.43	323.88	23.12	-26.6	-26.5	16.2	6.19e-05	0	57	0	25501368320	24	14556
2026-01-29 11:26:29.44	323.45	23.13	-26.6	-26.5	16.2	1.24e-04	0	57	0	25618808832	24	14461
2026-01-29 11:26:30.44	323.03	23.15	-26.7	-26.6	16.2	1.24e-04	0	57	0	25727860736	24	14700
2026-01-29 11:26:31.45	322.60	23.16	-26.7	-26.6	16.2	6.19e-05	0	57	0	25845301248	24	14657
2026-01-29 11:26:32.45	322.17	23.17	-26.6	-26.4	16.2	6.19e-05	0	57	0	25954353152	24	14433
2026-01-29 11:26:33.46	321.74	23.18	-26.5	-26.3	16.3	6.19e-05	0	57	0	26080182272	24	14259
2026-01-29 11:26:34.47	321.31	23.18	-26.5	-26.4	16.3	9.53e-05	0	57	0	26189234176	24	14302
2026-01-29 11:26:35.48	320.88	23.19	-26.4	-26.3	16.3	9.53e-05	0	57	0	26306674688	24	14172
2026-01-29 11:26:36.49	320.45	23.19	-26.5	-26.4	16.3	9.53e-05	0	57	0	26415726592	24	14297
2026-01-29 11:26:37.49	320.03	23.19	-26.5	-26.4	16.3	8.58e-05	0	57	0	26524778496	24	14306
2026-01-29 11:26:38.50	319.60	23.19	-26.5	-26.3	16.3	8.58e-05	0	57	0	26642219008	24	14262
2026-01-29 11:26:39.51	319.17	23.19	-26.5	-26.4	16.4	8.58e-05	0	57	0	26751270912	24	14292
2026-01-29 11:26:40.51	318.74	23.19	-26.5	-26.4	16.4	1.90e-05	0	57	0	26868711424	24	14280
2026-01-29 11:26:41.52	318.31	23.19	-26.5	-26.4	16.4	1.90e-05	0	57	0	26977763328	24	14318
2026-01-29 11:26:42.52	317.89	23.18	-26.5	-26.3	16.4	8.10e-05	0	57	0	27086815232	24	14265
2026-01-29 11:26:43.53	317.46	23.17	-26.5	-26.4	16.4	8.10e-05	0	57	0	27204255744	24	14327
2026-01-29 11:26:44.53	317.03	23.16	-26.4	-26.3	16.4	8.10e-05	0	57	0	27313307648	24	14251
2026-01-29 11:26:45.55	316.60	23.15	-26.4	-26.3	16.4	2.86e-05	0	57	0	27430748160	24	14188
2026-01-29 11:26:46.56	316.17	23.14	-26.4	-26.3	16.4	2.86e-05	0	57	0	27548188672	24	14170
2026-01-29 11:26:47.56	315.74	23.13	-26.5	-26.4	16.4	2.86e-05	0	57	0	27665629184	24	14332
2026-01-29 11:26:48.57	315.32	23.11	-26.4	-26.3	16.4	3.81e-05	0	57	0	27774681088	24	14216
2026-01-29 11:26:49.57	314.89	23.10	-26.4	-26.2	16.5	3.81e-05	0	57	0	27892121600	24	14104
2026-01-29 11:26:50.58	314.47	23.08	-26.5	-26.4	16.4	4.29e-05	0	57	0	28001173504	24	14297
2026-01-29 11:26:51.59	314.04	23.06	-26.4	-26.3	16.4	4.29e-05	0	57	0	28118614016	24	14196
2026-01-29 11:26:52.60	313.61	23.04	-26.4	-26.3	16.4	4.29e-05	0	57	0	28227665920	24	14173
2026-01-29 11:26:53.61	313.19	23.01	-26.4	-26.3	16.5	3.33e-05	0	57	0	28336717824	24	14132
2026-01-29 11:26:54.61	312.77	22.99	-26.4	-26.2	16.5	3.33e-05	0	57	0	28454158336	24	14110
2026-01-29 11:26:55.62	312.34	22.96	-26.4	-26.3	16.5	9.50e-06	0	57	0	28563210240	24	14129
2026-01-29 11:26:56.63	311.92	22.94	-26.3	-26.2	16.4	9.50e-06	0	57	0	28680650752	24	14067
2026-01-29 11:26:57.64	311.50	22.91	-26.4	-26.3	16.4	9.50e-06	0	57	0	28789702656	24	14209
2026-01-29 11:26:58.63	311.09	22.88	-26.5	-26.4	16.5	9.50e-06	0	57	0	28898754560	24	14283
2026-01-29 11:26:59.64	310.67	22.85	-26.3	-26.2	16.5	9.50e-06	0	57	0	29016195072	24	14077
2026-01-29 11:27:00.64	310.25	22.81	-26.4	-26.3	16.5	9.50e-06	0	57	0	29125246976	24	14157
2026-01-29 11:27:01.64	309.84	22.78	-26.4	-26.4	16.5	9.50e-06	0	57	0	29242687488	24	14284
2026-01-29 11:27:02.65	309.42	22.74	-26.4	-26.3	16.5	6.19e-05	0	57	0	29351739392	24	14207
2026-01-29 11:27:03.66	309.00	22.71	-26.4	-26.3	16.5	6.19e-05	0	57	0	29477568512	24	14264
2026-01-29 11:27:04.67	308.59	22.67	-26.6	-26.5	16.5	6.19e-05	0	57	0	29586620416	24	14492
2026-01-29 11:27:05.67	308.18	22.63	-26.5	-26.4	16.5	4.29e-05	0	57	0	29704060928	24	14343
2026-01-29 11:27:06.68	307.76	22.59	-26.5	-26.4	16.5	4.29e-05	0	57	0	29813112832	24	14300
2026-01-29 11:27:07.69	307.35	22.54	-26.5	-26.4	16.5	4.29e-05	0	57	0	29922164736	24	14411
2026-01-29 11:27:08.69	306.95	22.50	-26.6	-26.5	16.5	5.72e-05	0	57	0	30039605248	24	14484
2026-01-29 11:27:09.70	306.54	22.45	-26.6	-26.5	16.5	5.72e-05	0	57	0	30148657152	24	14512
2026-01-29 11:27:10.71	306.13	22.41	-26.5	-26.4	16.5	5.72e-05	0	57	0	30266097664	24	14419
2026-01-29 11:27:11.71	305.73	22.36	-26.5	-26.4	16.5	5.72e-05	0	57	0	30375149568	24	14434
2026-01-29 11:27:12.72	305.32	22.31	-26.6	-26.5	16.5	7.62e-05	0	57	0	30484201472	24	14496
2026-01-29 11:27:13.73	304.92	22.26	-26.6	-26.5	16.5	7.62e-05	0	57	0	30601641984	24	14563
2026-01-29 11:27:14.73	304.52	22.21	-26.6	-26.5	16.5	7.62e-05	0	57	0	30710693888	24	14522
2026-01-29 11:27:15.74	304.12	22.16	-26.6	-26.5	16.5	5.72e-05	0	57	0	30828134400	24	14547
2026-01-29 11:27:16.74	303.73	22.10	-26.6	-26.5	16.5	5.72e-05	0	57	0	30937186304	24	14546
2026-01-29 11:27:17.75	303.33	22.05	-26.7	-26.6	16.5	7.62e-05	0	57	0	31054626816	24	14695
2026-01-29 11:27:18.76	302.93	21.99	-26.6	-26.5	16.5	7.62e-05	0	57	0	31172067328	24	14587
2026-01-29 11:27:19.76	302.54	21.93	-26.6	-26.5	16.5	7.62e-05	0	57	0	31289507840	24	14605
2026-01-29 11:27:20.77	302.15	21.87	-26.8	-26.7	16.4	7.62e-05	0	57	0	31398559744	24	14858
2026-01-29 11:27:21.77	301.77	21.81	-26.8	-26.7	16.4	1.05e-04	0	57	0	31516000256	24	14921
2026-01-29 11:27:22.78	301.38	21.75	-26.8	-26.7	16.4	1.05e-04	0	57	0	31625052160	24	14943
2026-01-29 11:27:23.79	300.99	21.69	-26.8	-26.7	16.4	1.05e-04	0	57	0	31734104064	24	14800
2026-01-29 11:27:24.80	300.60	21.63	-26.9	-26.8	16.4	1.24e-04	0	57	0	31851544576	24	15060
2026-01-29 11:27:25.81	300.22	21.56	-26.9	-26.8	16.4	1.24e-04	0	57	0	31960596480	24	14974
2026-01-29 11:27:26.82	299.84	21.50	-26.8	-26.7	16.4	1.14e-04	0	57	0	32078036992	24	14920
2026-01-29 11:27:27.83	299.46	21.43	-26.8	-26.7	16.4	1.14e-04	0	57	0	32187088896	24	14911
2026-01-29 11:27:28.84	299.08	21.37	-26.8	-26.8	16.4	1.14e-04	0	57	0	32296140800	24	14950
2026-01-29 11:27:29.85	298.70	21.30	-26.8	-26.7	16.4	1.29e-04	0	57	0	32413581312	24	14877
2026-01-29 11:27:30.86	298.33	21.23	-26.9	-26.8	16.4	1.29e-04	0	57	0	32539410432	24	15067
2026-01-29 11:27:31.87	297.96	21.16	-27.0	-26.9	16.4	6.19e-05	0	57	0	32648462336	24	15145
2026-01-29 11:27:32.87	297.59	21.09	-26.9	-26.8	16.4	6.19e-05	0	57	0	32757514240	24	15078
2026-01-29 11:27:33.88	297.22	21.02	-27.0	-26.9	16.4	6.19e-05	0	57	0	32874954752	24	15134
2026-01-29 11:27:34.89	296.86	20.94	-26.9	-26.8	16.4	4.29e-05	0	57	0	32984006656	24	15118
2026-01-29 11:27:35.89	296.49	20.87	-26.9	-26.8	16.4	4.29e-05	0	57	0	33101447168	24	15119
2026-01-29 11:27:36.90	296.13	20.80	-27.1	-27.0	16.4	4.29e-05	0	57	0	33210499072	24	15327
2026-01-29 11:27:37.91	295.77	20.72	-27.2	-27.1	16.4	5.72e-05	0	57	0	33319550976	24	15493
2026-01-29 11:27:38.91	295.42	20.65	-27.4	-27.3	16.3	5.72e-05	0	57	0	33436991488	25	15001
2026-01-29 11:27:39.92	295.06	20.57	-54.0	-56.3	6.2	5.72e-05	0	56	104	33478934528	78	20031
2026-01-29 11:27:40.93	294.70	20.49	-54.0	-56.2	6.2	5.72e-05	0	56	104	33478934528	78	19858
2026-01-29 11:27:41.93	294.36	20.41	-54.0	-56.2	6.2	5.72e-05	0	56	104	33478934528	78	19843
2026-01-29 11:27:42.93	294.01	20.34	-54.1	-56.2	6.2	5.72e-05	0	56	104	33478934528	78	19847
2026-01-29 11:27:43.94	293.66	20.26	-54.0	-56.2	6.2	4.76e-05	0	56	104	33478934528	78	19789
2026-01-29 11:27:44.94	293.32	20.18	-54.1	-56.2	6.2	4.76e-05	0	56	104	33478934528	78	19884
2026-01-29 11:27:45.95	292.97	20.10	-54.1	-56.2	6.2	4.76e-05	0	56	104	33478934528	78	19922
2026-01-29 11:27:46.96	292.63	20.01	-54.1	-56.2	6.2	4.76e-05	0	55	104	33478934528	78	19932
2026-01-29 11:27:47.97	292.29	19.93	-54.1	-56.2	6.2	4.76e-05	0	56	104	33478934528	78	19823
2026-01-29 11:27:48.97	291.95	19.85	-54.1	-56.2	6.2	4.76e-05	0	56	104	33478934528	78	19836
2026-01-29 11:27:49.98	291.62	19.77	-54.1	-56.2	6.2	4.76e-05	0	55	104	33478934528	78	19923
2026-01-29 11:27:50.99	291.28	19.68	-54.1	-56.2	6.2	4.76e-05	0	55	104	33478934528	78	19906
2026-01-29 11:27:52.00	290.95	19.60	-54.1	-56.2	6.2	4.76e-05	0	56	104	33478934528	78	19747
2026-01-29 11:27:53.01	290.62	19.51	-54.1	-56.2	6.2	4.76e-05	0	55	104	33478934528	78	19832
2026-01-29 11:27:54.01	290.30	19.43	-54.1	-56.2	6.2	4.76e-05	0	55	104	33478934528	78	19841
2026-01-29 11:27:55.02	289.97	19.34	-54.1	-56.2	6.2	0.00e+00	0	55	104	33478934528	78	19867
2026-01-29 11:27:56.03	289.65	19.26	-54.0	-56.2	6.2	0.00e+00	0	55	104	33478934528	78	19762
2026-01-29 11:27:57.03	289.33	19.17	-54.0	-56.1	6.2	0.00e+00	0	55	104	33478934528	78	19690
2026-01-29 11:27:58.04	289.01	19.08	-54.1	-56.2	6.2	0.00e+00	0	55	104	33478934528	78	19809
2026-01-29 11:27:59.05	288.69	19.00	-54.0	-56.1	6.2	0.00e+00	0	55	104	33478934528	78	19702
2026-01-29 11:28:00.06	288.38	18.91	-54.0	-56.1	6.2	0.00e+00	0	55	104	33478934528	78	19542
2026-01-29 11:28:01.07	288.07	18.82	-53.9	-56.1	6.2	0.00e+00	0	55	104	33478934528	78	19531
2026-01-29 11:28:02.08	287.76	18.73	-54.0	-56.1	6.2	0.00e+00	0	55	104	33478934528	78	19580
2026-01-29 11:28:03.09	287.45	18.64	-53.9	-56.1	6.2	0.00e+00	0	55	104	33478934528	78	19495
2026-01-29 11:28:04.09	287.14	18.55	-53.9	-56.0	6.2	0.00e+00	0	55	104	33478934528	78	19409
2026-01-29 11:28:05.10	286.84	18.46	-53.9	-56.0	6.2	0.00e+00	0	55	104	33478934528	78	19418
2026-01-29 11:28:06.11	286.54	18.37	-53.9	-56.0	6.2	0.00e+00	0	55	104	33478934528	78	19460
2026-01-29 11:28:07.11	286.24	18.28	-53.9	-56.0	6.2	0.00e+00	0	55	104	33478934528	78	19365
2026-01-29 11:28:08.12	285.94	18.19	-53.8	-56.0	6.2	0.00e+00	0	55	104	33478934528	78	19304
2026-01-29 11:28:09.13	285.64	18.10	-53.8	-56.0	6.2	0.00e+00	0	55	104	33478934528	78	19261
2026-01-29 11:28:10.13	285.35	18.01	-53.9	-56.0	6.2	0.00e+00	0	55	104	33478934528	78	19405
2026-01-29 11:28:11.14	285.06	17.92	-53.9	-56.0	6.2	0.00e+00	0	55	104	33478934528	78	19373
2026-01-29 11:28:12.14	284.77	17.83	-53.8	-55.9	6.2	0.00e+00	0	55	104	33478934528	78	19143
2026-01-29 11:28:13.15	284.48	17.73	-53.8	-55.9	6.2	0.00e+00	0	55	104	33478934528	78	19121
2026-01-29 11:28:14.16	284.20	17.64	-53.8	-55.9	6.2	0.00e+00	0	55	104	33478934528	78	19203
2026-01-29 11:28:15.17	283.91	17.55	-53.8	-55.9	6.2	0.00e+00	0	55	104	33478934528	78	19152
2026-01-29 11:28:16.17	283.63	17.46	-53.7	-55.9	6.2	0.00e+00	0	54	104	33478934528	78	19041
2026-01-29 11:28:17.18	283.35	17.36	-53.7	-55.8	6.2	0.00e+00	0	55	104	33478934528	78	19028
2026-01-29 11:28:18.19	283.08	17.27	-53.7	-55.9	6.2	0.00e+00	0	54	104	33478934528	78	19086
2026-01-29 11:28:19.20	282.80	17.18	-53.7	-55.9	6.2	0.00e+00	0	54	104	33478934528	78	19091
2026-01-29 11:28:20.20	282.53	17.08	-53.7	-55.8	6.2	0.00e+00	0	55	104	33478934528	78	18941
2026-01-29 11:28:21.21	282.26	16.99	-53.7	-55.8	6.2	0.00e+00	0	54	104	33478934528	78	18975
2026-01-29 11:28:22.21	281.99	16.90	-53.7	-55.9	6.2	0.00e+00	0	55	104	33478934528	78	19038
2026-01-29 11:28:23.22	281.72	16.80	-53.7	-55.8	6.2	0.00e+00	0	55	104	33478934528	78	18966
2026-01-29 11:28:24.23	281.45	16.71	-53.6	-55.8	6.2	0.00e+00	0	55	104	33478934528	78	18859
2026-01-29 11:28:25.23	281.19	16.62	-53.6	-55.8	6.2	0.00e+00	0	54	104	33478934528	78	18861
2026-01-29 11:28:26.24	280.93	16.52	-53.6	-55.8	6.2	0.00e+00	0	54	104	33478934528	78	18880
2026-01-29 11:28:27.25	280.67	16.43	-53.6	-55.8	6.2	0.00e+00	0	54	104	33478934528	78	18849
2026-01-29 11:28:28.25	280.41	16.33	-53.6	-55.7	6.2	0.00e+00	0	54	104	33478934528	78	18764
2026-01-29 11:28:29.26	280.16	16.24	-53.6	-55.7	6.2	0.00e+00	0	54	104	33478934528	78	18776
2026-01-29 11:28:30.26	279.90	16.15	-53.6	-55.7	6.2	0.00e+00	0	54	104	33478934528	78	18787
2026-01-29 11:28:31.27	279.65	16.05	-53.6	-55.7	6.2	0.00e+00	0	54	104	33478934528	78	18781
2026-01-29 11:28:32.28	279.40	15.96	-53.6	-55.7	6.2	0.00e+00	0	54	104	33478934528	78	18711
2026-01-29 11:28:33.29	279.15	15.86	-53.6	-55.7	6.2	0.00e+00	0	54	104	33478934528	78	18686
2026-01-29 11:28:34.30	278.90	15.77	-53.6	-55.7	6.2	0.00e+00	0	54	104	33478934528	78	18719
2026-01-29 11:28:35.31	278.66	15.67	-53.6	-55.7	6.2	0.00e+00	0	54	104	33478934528	78	18735
2026-01-29 11:28:36.31	278.42	15.58	-53.6	-55.7	6.2	0.00e+00	0	54	104	33478934528	78	18668
2026-01-29 11:28:37.32	278.18	15.49	-53.5	-55.7	6.2	0.00e+00	0	54	104	33478934528	78	18691
2026-01-29 11:28:38.32	277.94	15.39	-53.5	-55.7	6.2	0.00e+00	0	54	104	33478934528	78	18636
2026-01-29 11:28:39.33	277.70	15.30	-53.5	-55.7	6.2	0.00e+00	0	54	104	33478934528	78	18604
2026-01-29 11:28:40.34	277.46	15.20	-53.5	-55.6	6.2	0.00e+00	0	54	104	33478934528	78	18602
2026-01-29 11:28:41.35	277.23	15.11	-53.5	-55.6	6.2	0.00e+00	0	54	104	33478934528	78	18550
2026-01-29 11:28:42.36	277.00	15.01	-53.5	-55.6	6.2	0.00e+00	0	54	104	33478934528	78	18554
2026-01-29 11:28:43.37	276.76	14.92	-53.5	-55.6	6.2	0.00e+00	0	54	104	33478934528	78	18548
2026-01-29 11:28:44.37	276.54	14.83	-53.5	-55.6	6.2	0.00e+00	0	54	104	33478934528	78	18511
2026-01-29 11:28:45.38	276.31	14.73	-53.5	-55.6	6.2	0.00e+00	0	54	104	33478934528	78	18453
2026-01-29 11:28:46.39	276.08	14.64	-53.5	-55.6	6.2	0.00e+00	0	54	104	33478934528	78	18431
2026-01-29 11:28:47.40	275.86	14.55	-53.5	-55.6	6.2	0.00e+00	0	54	104	33478934528	78	18470
2026-01-29 11:28:48.40	275.64	14.45	-53.4	-55.6	6.2	0.00e+00	0	54	104	33478934528	78	18435
2026-01-29 11:28:49.41	275.42	14.36	-53.4	-55.6	6.2	0.00e+00	0	54	104	33478934528	78	18430
2026-01-29 11:28:50.41	275.20	14.27	-53.4	-55.6	6.2	0.00e+00	0	54	104	33478934528	78	18406
2026-01-29 11:28:51.42	274.98	14.17	-53.4	-55.6	6.2	0.00e+00	0	54	104	33478934528	78	18406
2026-01-29 11:28:52.43	274.77	14.08	-53.4	-55.5	6.2	0.00e+00	0	54	104	33478934528	78	18339
2026-01-29 11:28:53.43	274.55	13.99	-53.4	-55.5	6.2	0.00e+00	0	54	104	33478934528	78	18379
2026-01-29 11:28:54.44	274.34	13.89	-53.4	-55.5	6.2	0.00e+00	0	54	104	33478934528	78	18353
2026-01-29 11:28:55.45	274.13	13.80	-53.4	-55.5	6.2	0.00e+00	0	54	104	33478934528	78	18337
2026-01-29 11:28:56.45	273.92	13.71	-53.4	-55.5	6.2	0.00e+00	0	54	104	33478934528	78	18317
2026-01-29 11:28:57.46	273.71	13.62	-53.4	-55.5	6.2	0.00e+00	0	54	104	33478934528	78	18270
2026-01-29 11:28:58.47	273.51	13.52	-53.4	-55.5	6.2	0.00e+00	0	54	104	33478934528	78	18318
2026-01-29 11:28:59.47	273.30	13.43	-53.4	-55.5	6.2	0.00e+00	0	54	104	33478934528	78	18317
2026-01-29 11:29:00.48	273.10	13.34	-53.3	-55.4	6.2	0.00e+00	0	54	104	33478934528	78	18176
2026-01-29 11:29:01.49	272.90	13.25	-53.3	-55.5	6.2	0.00e+00	0	54	104	33478934528	78	18183
2026-01-29 11:29:02.49	272.70	13.15	-53.3	-55.5	6.2	0.00e+00	0	54	104	33478934528	78	18190
2026-01-29 11:29:03.50	272.50	13.06	-53.3	-55.4	6.2	0.00e+00	0	54	104	33478934528	78	18143
2026-01-29 11:29:04.51	272.30	12.97	-53.3	-55.4	6.2	0.00e+00	0	54	104	33478934528	78	18178
2026-01-29 11:29:05.52	272.11	12.88	-53.3	-55.4	6.2	0.00e+00	0	54	104	33478934528	78	18175
2026-01-29 11:29:06.52	271.91	12.79	-53.3	-55.4	6.2	0.00e+00	0	54	104	33478934528	78	18119
2026-01-29 11:29:07.53	271.72	12.70	-53.3	-55.4	6.2	0.00e+00	0	54	104	33478934528	78	18089
2026-01-29 11:29:08.53	271.53	12.61	-53.2	-55.4	6.2	0.00e+00	0	54	104	33478934528	78	18010
2026-01-29 11:29:09.54	271.34	12.52	-53.3	-55.4	6.2	0.00e+00	0	54	104	33478934528	78	18037
2026-01-29 11:29:10.55	271.15	12.43	-53.3	-55.4	6.2	0.00e+00	0	54	104	33478934528	78	18103
2026-01-29 11:29:11.56	270.97	12.33	-53.2	-55.4	6.2	0.00e+00	0	54	104	33478934528	78	18008
2026-01-29 11:29:12.57	270.78	12.24	-53.2	-55.3	6.2	0.00e+00	0	54	104	33478934528	78	17899
2026-01-29 11:29:13.58	270.59	12.15	-53.2	-55.3	6.2	0.00e+00	0	54	104	33478934528	78	17940
2026-01-29 11:29:14.58	270.41	12.06	-53.2	-55.3	6.2	0.00e+00	0	54	104	33478934528	78	17908
2026-01-29 11:29:15.58	270.23	11.98	-53.2	-55.3	6.2	0.00e+00	0	54	104	33478934528	78	17903
2026-01-29 11:29:16.59	270.05	11.89	-53.1	-55.3	6.2	0.00e+00	0	54	104	33478934528	78	17784
2026-01-29 11:29:17.60	269.87	11.80	-53.2	-55.3	6.2	0.00e+00	0	54	104	33478934528	78	17884
2026-01-29 11:29:18.60	269.70	11.71	-53.2	-55.3	6.2	0.00e+00	0	54	104	33478934528	78	17922
2026-01-29 11:29:19.61	269.52	11.62	-53.1	-55.2	6.2	0.00e+00	0	54	104	33478934528	78	17647
2026-01-29 11:29:20.61	269.35	11.53	-53.0	-55.1	6.2	0.00e+00	0	54	104	33478934528	78	17551
2026-01-29 11:29:21.62	269.17	11.44	-53.1	-55.2	6.2	0.00e+00	0	54	104	33478934528	78	17739
2026-01-29 11:29:22.63	269.00	11.35	-53.1	-55.3	6.2	0.00e+00	0	54	104	33478934528	78	17826
2026-01-29 11:29:23.63	268.83	11.27	-52.9	-55.0	6.2	0.00e+00	0	53	104	33478934528	77	18297
2026-01-29 11:29:24.64	268.66	11.18	-52.9	-55.0	6.2	0.00e+00	0	54	104	33478934528	77	18268
2026-01-29 11:29:25.64	268.49	11.09	-53.0	-55.1	6.2	0.00e+00	0	54	104	33478934528	77	18509
2026-01-29 11:29:26.65	268.33	11.00	-53.1	-55.2	6.2	0.00e+00	0	54	104	33478934528	77	18665
2026-01-29 11:29:27.66	268.16	10.92	-52.7	-54.8	6.2	0.00e+00	0	54	104	33478934528	77	17968
2026-01-29 11:29:28.67	267.99	10.83	-52.6	-54.8	6.2	0.00e+00	0	54	104	33478934528	77	17779
2026-01-29 11:29:29.68	267.83	10.74	-52.9	-55.0	6.2	0.00e+00	0	54	104	33478934528	77	18286
2026-01-29 11:29:30.68	267.67	10.66	-53.0	-55.1	6.2	0.00e+00	0	54	104	33478934528	77	18554
2026-01-29 11:29:31.69	267.51	10.57	-52.3	-54.4	6.2	0.00e+00	0	54	104	33478934528	76	18143
2026-01-29 11:29:32.69	267.35	10.48	-52.2	-54.3	6.2	0.00e+00	0	54	104	33478934528	76	17886
2026-01-29 11:29:33.70	267.19	10.40	-52.1	-54.3	6.2	0.00e+00	0	54	104	33478934528	76	17823
2026-01-29 11:29:34.71	267.03	10.31	-52.1	-54.2	6.2	0.00e+00	0	54	104	33478934528	76	17721
2026-01-29 11:29:35.71	266.87	10.23	-52.2	-54.4	6.2	0.00e+00	0	54	104	33478934528	76	18042
2026-01-29 11:29:36.72	266.72	10.14	-52.3	-54.4	6.2	0.00e+00	0	54	104	33478934528	76	18176
2026-01-29 11:29:37.73	266.56	10.05	-52.6	-54.8	6.2	0.00e+00	0	54	104	33478934528	76	18825
2026-01-29 11:29:38.74	266.41	9.97	-52.6	-54.7	6.2	0.00e+00	0	54	104	33478934528	76	18711
2026-01-29 11:29:39.75	266.26	9.88	-53.0	-55.1	6.2	0.00e+00	0	54	104	33478934528	76	19565
2026-01-29 11:29:40.75	266.11	9.80	-53.0	-55.1	6.2	0.00e+00	0	54	104	33478934528	76	19549
2026-01-29 11:29:41.76	265.96	9.72	-52.8	-55.0	6.2	0.00e+00	0	53	104	33478934528	76	19259
2026-01-29 11:29:42.77	265.81	9.63	-53.0	-55.1	6.2	0.00e+00	0	54	104	33478934528	76	19588
2026-01-29 11:29:43.77	265.66	9.55	-52.9	-55.0	6.2	0.00e+00	0	54	104	33478934528	76	19453
2026-01-29 11:29:44.78	265.51	9.46	-52.9	-55.1	6.2	0.00e+00	0	54	104	33478934528	76	19496
2026-01-29 11:29:45.79	265.37	9.38	-52.9	-55.1	6.2	0.00e+00	0	54	104	33478934528	76	19513
2026-01-29 11:29:46.80	265.22	9.30	-53.0	-55.1	6.2	0.00e+00	0	53	104	33478934528	76	19568
2026-01-29 11:29:47.81	265.08	9.21	-52.9	-55.0	6.2	0.00e+00	0	53	104	33478934528	76	19455
2026-01-29 11:29:48.81	264.94	9.13	-52.9	-55.0	6.2	0.00e+00	0	53	104	33478934528	76	19374
2026-01-29 11:29:49.82	264.80	9.05	-52.9	-55.1	6.2	0.00e+00	0	54	104	33478934528	76	19507
2026-01-29 11:29:50.83	264.65	8.97	-52.9	-55.1	6.2	0.00e+00	0	53	104	33478934528	76	19526
2026-01-29 11:29:51.83	264.52	8.88	-52.9	-55.0	6.2	0.00e+00	0	54	104	33478934528	76	19351
2026-01-29 11:29:52.84	264.38	8.80	-52.9	-55.0	6.2	0.00e+00	0	53	104	33478934528	76	19374
2026-01-29 11:29:53.85	264.24	8.72	-52.9	-55.0	6.2	0.00e+00	0	54	104	33478934528	76	19370
2026-01-29 11:29:54.86	264.10	8.64	-52.9	-55.0	6.2	0.00e+00	0	54	104	33478934528	76	19361
2026-01-29 11:29:55.87	263.97	8.56	-52.8	-55.0	6.2	0.00e+00	0	54	104	33478934528	76	19305
2026-01-29 11:29:56.88	263.83	8.48	-52.8	-54.9	6.2	0.00e+00	0	54	104	33478934528	76	19241
2026-01-29 11:29:57.88	263.70	8.40	-52.9	-55.0	6.2	0.00e+00	0	53	104	33478934528	76	19341
2026-01-29 11:29:58.89	263.56	8.31	-52.9	-55.0	6.2	0.00e+00	0	53	104	33478934528	76	19321
2026-01-29 11:29:59.89	263.43	8.23	-52.8	-54.9	6.2	0.00e+00	0	53	104	33478934528	76	19200
2026-01-29 11:30:00.90	263.30	8.15	-52.8	-54.9	6.2	0.00e+00	0	53	104	33478934528	76	19195
2026-01-29 11:30:01.91	263.17	8.07	-52.8	-54.9	6.2	0.00e+00	0	54	104	33478934528	76	19239
2026-01-29 11:30:02.92	263.04	7.99	-52.8	-55.0	6.2	0.00e+00	0	53	104	33478934528	76	19347
2026-01-29 11:30:03.92	262.91	7.92	-52.7	-54.8	6.2	0.00e+00	0	53	104	33478934528	76	19032
2026-01-29 11:30:04.93	262.79	7.84	-52.7	-54.8	6.2	0.00e+00	0	53	104	33478934528	76	19029
2026-01-29 11:30:05.93	262.66	7.76	-52.8	-54.9	6.2	0.00e+00	0	53	104	33478934528	76	19111
2026-01-29 11:30:06.95	262.53	7.68	-52.8	-54.9	6.2	0.00e+00	0	53	104	33478934528	76	19185
2026-01-29 11:30:07.95	262.41	7.60	-52.7	-54.8	6.2	0.00e+00	0	54	104	33478934528	76	18892
2026-01-29 11:30:08.96	262.28	7.52	-52.7	-54.8	6.2	0.00e+00	0	54	104	33478934528	76	18919
2026-01-29 11:30:09.97	262.16	7.44	-52.7	-54.8	6.2	0.00e+00	0	53	104	33478934528	76	18993
2026-01-29 11:30:10.97	262.04	7.36	-52.7	-54.8	6.2	0.00e+00	0	54	104	33478934528	76	19033
2026-01-29 11:30:11.98	261.92	7.29	-52.6	-54.7	6.2	0.00e+00	0	53	104	33478934528	76	18811
2026-01-29 11:30:12.98	261.80	7.21	-52.6	-54.8	6.2	0.00e+00	0	53	104	33478934528	76	18832
2026-01-29 11:30:13.99	261.68	7.13	-52.7	-54.8	6.2	0.00e+00	0	53	104	33478934528	76	18963
2026-01-29 11:30:15.00	261.56	7.05	-52.7	-54.8	6.2	0.00e+00	0	54	104	33478934528	76	18952
2026-01-29 11:30:16.01	261.44	6.98	-52.6	-54.7	6.2	0.00e+00	0	54	104	33478934528	76	18746
2026-01-29 11:30:17.01	261.32	6.90	-52.6	-54.7	6.2	0.00e+00	0	54	104	33478934528	76	18794
2026-01-29 11:30:18.02	261.20	6.82	-52.7	-54.8	6.2	0.00e+00	0	53	104	33478934528	76	18844
2026-01-29 11:30:19.02	261.09	6.75	-52.7	-54.8	6.2	0.00e+00	0	53	104	33478934528	76	18889
2026-01-29 11:30:20.03	260.97	6.67	-52.5	-54.7	6.2	0.00e+00	0	53	104	33478934528	76	18688
2026-01-29 11:30:21.04	260.86	6.60	-52.5	-54.7	6.2	0.00e+00	0	53	104	33478934528	76	18665
2026-01-29 11:30:22.05	260.75	6.52	-52.6	-54.7	6.2	0.00e+00	0	53	104	33478934528	76	18778
2026-01-29 11:30:23.05	260.63	6.44	-52.6	-54.8	6.2	0.00e+00	0	53	104	33478934528	76	18873
2026-01-29 11:30:24.06	260.52	6.37	-52.5	-54.6	6.2	0.00e+00	0	53	104	33478934528	76	18467
2026-01-29 11:30:25.06	260.41	6.29	-52.5	-54.6	6.2	0.00e+00	0	53	104	33478934528	76	18581
2026-01-29 11:30:26.07	260.30	6.22	-52.5	-54.7	6.2	0.00e+00	0	53	104	33478934528	76	18711
2026-01-29 11:30:27.08	260.19	6.14	-52.6	-54.7	6.2	0.00e+00	0	53	104	33478934528	76	18694
2026-01-29 11:30:28.09	260.08	6.07	-52.4	-54.5	6.2	0.00e+00	0	53	104	33478934528	76	18342
2026-01-29 11:30:29.09	259.97	6.00	-52.4	-54.6	6.2	0.00e+00	0	53	104	33478934528	76	18413
2026-01-29 11:30:30.10	259.86	5.92	-52.5	-54.6	6.2	0.00e+00	0	54	104	33478934528	76	18580
2026-01-29 11:30:31.10	259.76	5.85	-52.5	-54.6	6.2	0.00e+00	0	53	104	33478934528	76	18558
2026-01-29 11:30:32.11	259.65	5.77	-52.4	-54.5	6.2	0.00e+00	0	53	104	33478934528	76	18287
2026-01-29 11:30:33.12	259.54	5.70	-52.4	-54.5	6.2	0.00e+00	0	53	104	33478934528	76	18306
2026-01-29 11:30:34.13	259.44	5.63	-52.5	-54.6	6.2	0.00e+00	0	53	104	33478934528	76	18438
2026-01-29 11:30:35.13	259.34	5.55	-52.5	-54.6	6.2	0.00e+00	0	53	104	33478934528	76	18491
2026-01-29 11:30:36.14	259.23	5.48	-52.3	-54.4	6.2	0.00e+00	0	53	104	33478934528	76	18177
2026-01-29 11:30:37.15	259.13	5.41	-52.3	-54.5	6.2	0.00e+00	0	53	104	33478934528	76	18196
2026-01-29 11:30:38.15	259.03	5.34	-52.4	-54.5	6.2	0.00e+00	0	53	104	33478934528	76	18344
2026-01-29 11:30:39.16	258.92	5.26	-52.4	-54.5	6.2	0.00e+00	0	53	104	33478934528	76	18351
2026-01-29 11:30:40.17	258.82	5.19	-52.2	-54.4	6.2	0.00e+00	0	53	104	33478934528	76	18033
2026-01-29 11:30:41.18	258.72	5.12	-52.3	-54.4	6.2	0.00e+00	0	53	104	33478934528	76	18071
2026-01-29 11:30:42.18	258.62	5.05	-52.3	-54.5	6.2	0.00e+00	0	53	104	33478934528	76	18251
2026-01-29 11:30:43.19	258.52	4.98	-52.6	-54.7	6.2	0.00e+00	0	53	104	33478934528	76	18734
2026-01-29 11:30:44.20	258.42	4.90	-52.8	-54.9	6.2	0.00e+00	0	53	104	33478934528	76	19148
2026-01-29 11:30:45.21	258.33	4.83	-51.8	-53.9	6.2	0.00e+00	0	54	104	33478934528	75	18079
2026-01-29 11:30:46.22	258.23	4.76	-52.7	-54.8	6.2	0.00e+00	0	53	104	33478934528	75	20148
2026-01-29 11:30:47.23	258.13	4.69	-53.0	-55.1	6.2	0.00e+00	0	53	104	33478934528	76	19688
2026-01-29 11:30:48.24	258.04	4.62	-53.0	-55.1	6.2	0.00e+00	0	53	104	33478934528	76	19696
2026-01-29 11:30:49.25	257.94	4.55	-52.9	-55.1	6.2	0.00e+00	0	53	104	33478934528	76	19499
2026-01-29 11:30:50.25	257.85	4.48	-52.8	-55.0	6.2	0.00e+00	0	53	104	33478934528	76	19309
2026-01-29 11:30:51.26	257.75	4.41	-52.9	-55.1	6.2	0.00e+00	0	53	104	33478934528	76	19541
2026-01-29 11:30:52.27	257.66	4.34	-53.0	-55.2	6.2	0.00e+00	0	53	104	33478934528	76	19801
2026-01-29 11:30:53.27	257.57	4.27	-53.1	-55.2	6.2	0.00e+00	0	53	104	33478934528	76	19872
2026-01-29 11:30:54.28	257.47	4.20	-53.2	-55.3	6.2	0.00e+00	0	53	104	33478934528	76	20136
2026-01-29 11:30:55.29	257.38	4.13	-53.3	-55.4	6.2	0.00e+00	0	53	104	33478934528	77	19157
2026-01-29 11:30:56.29	257.29	4.06	-53.3	-55.5	6.2	0.00e+00	0	53	104	33478934528	77	19307
2026-01-29 11:30:57.30	257.20	3.99	-53.4	-55.5	6.2	0.00e+00	0	53	104	33478934528	77	19422
2026-01-29 11:30:58.31	257.11	3.92	-53.4	-55.5	6.2	0.00e+00	0	53	104	33478934528	77	19432
2026-01-29 11:30:59.32	257.02	3.85	-53.5	-55.6	6.2	0.00e+00	0	53	104	33478934528	77	19556
2026-01-29 11:31:00.32	256.93	3.78	-53.5	-55.6	6.2	0.00e+00	0	53	104	33478934528	77	19702
2026-01-29 11:31:01.33	256.84	3.72	-53.5	-55.7	6.2	0.00e+00	0	53	104	33478934528	77	19727
2026-01-29 11:31:02.34	256.75	3.65	-53.6	-55.7	6.2	0.00e+00	0	53	104	33478934528	77	19797
2026-01-29 11:31:03.34	256.67	3.58	-53.6	-55.7	6.2	0.00e+00	0	53	104	33478934528	77	19847
2026-01-29 11:31:04.35	256.58	3.51	-53.5	-55.7	6.2	0.00e+00	0	53	104	33478934528	77	19710
2026-01-29 11:31:05.36	256.49	3.44	-53.5	-55.6	6.2	0.00e+00	0	53	104	33478934528	77	19648
2026-01-29 11:31:06.37	256.41	3.38	-53.5	-55.6	6.2	0.00e+00	0	53	104	33478934528	77	19575
2026-01-29 11:31:07.37	256.32	3.31	-53.5	-55.6	6.2	0.00e+00	0	53	104	33478934528	77	19626
2026-01-29 11:31:08.37	256.24	3.24	-53.5	-55.6	6.2	0.00e+00	0	53	104	33478934528	77	19609
2026-01-29 11:31:09.38	256.15	3.18	-53.5	-55.6	6.2	0.00e+00	0	53	104	33478934528	77	19517
2026-01-29 11:31:10.39	256.07	3.11	-53.4	-55.6	6.2	0.00e+00	0	53	104	33478934528	77	19491
2026-01-29 11:31:11.40	255.98	3.04	-53.5	-55.6	6.2	0.00e+00	0	53	104	33478934528	77	19541
2026-01-29 11:31:12.41	255.90	2.97	-53.4	-55.6	6.2	0.00e+00	0	53	104	33478934528	77	19505
2026-01-29 11:31:13.42	255.82	2.91	-53.4	-55.6	6.2	0.00e+00	0	53	104	33478934528	77	19499
2026-01-29 11:31:14.42	255.74	2.84	-53.4	-55.5	6.2	0.00e+00	0	53	104	33478934528	77	19468
2026-01-29 11:31:15.43	255.65	2.78	-53.4	-55.6	6.2	0.00e+00	0	53	104	33478934528	77	19480
2026-01-29 11:31:16.44	255.57	2.71	-53.4	-55.6	6.2	0.00e+00	0	53	104	33478934528	77	19497
2026-01-29 11:31:17.44	255.49	2.64	-53.4	-55.5	6.2	0.00e+00	0	53	104	33478934528	77	19445
2026-01-29 11:31:18.45	255.41	2.58	-53.4	-55.5	6.2	0.00e+00	0	53	104	33478934528	77	19420
2026-01-29 11:31:19.46	255.33	2.51	-53.4	-55.5	6.2	0.00e+00	0	53	104	33478934528	77	19456
2026-01-29 11:31:20.46	255.25	2.45	-53.4	-55.5	6.2	0.00e+00	0	53	104	33478934528	77	19458
2026-01-29 11:31:21.47	255.18	2.38	-53.4	-55.5	6.2	0.00e+00	0	53	104	33478934528	77	19406
2026-01-29 11:31:22.48	255.10	2.32	-53.4	-55.5	6.2	0.00e+00	0	53	104	33478934528	77	19364
2026-01-29 11:31:23.49	255.02	2.25	-53.4	-55.5	6.2	0.00e+00	0	53	104	33478934528	77	19416
2026-01-29 11:31:24.49	254.94	2.19	-53.4	-55.5	6.2	0.00e+00	0	53	104	33478934528	77	19354
2026-01-29 11:31:25.50	254.87	2.12	-53.4	-55.5	6.2	0.00e+00	0	53	104	33478934528	77	19304
2026-01-29 11:31:26.51	254.79	2.06	-53.4	-55.5	6.2	0.00e+00	0	53	104	33478934528	77	19403
2026-01-29 11:31:27.51	254.71	1.99	-53.4	-55.5	6.2	0.00e+00	0	53	104	33478934528	77	19396

#Closed at: 2026-01-29 11:31:28
#Recorded file [33478 MB]: D:/lorett/data/31041_260129_142147.dat