passes_logs/2026/01/29/R3.2S_Murmansk/R3.2S_Murmansk__20260129_014923_SUOMI_NPP_rec.log

#Pass ID: 20260129_014923_SUOMI NPP
#Satellite: SUOMI NPP
#Configuration: NPP
#almurnet v.1.7.20251203
#Start time: 2026-01-29 01:49:24

#Version: 2.2.20231116
#Station: R3.2S_Murmansk
#Location: 33.079688 lon 68.888172 lat
#TLE: 1 37849U 11061A   26027.93236865  .00000148  00000+0  91411-4 0  9991
#TLE: 2 37849  98.7823 329.8704 0002085  41.3231 318.8102 14.19530777738546

#Time	Az	El	Level	Level2	SNR	BER	BlckErr	Temp	State	Recorded	gain1	gain2
2026-01-29 01:49:24.49	29.32	2.09	-53.9	-69.0	3.8	1.49e+00	0	40	0	0	79	20311
2026-01-29 01:49:25.49	29.29	2.15	-53.9	-68.9	3.8	1.49e+00	0	40	104	0	78	21487
2026-01-29 01:49:26.50	29.27	2.22	-53.9	-68.9	3.8	1.49e+00	0	40	104	0	78	21364
2026-01-29 01:49:27.50	29.25	2.28	-53.9	-68.9	3.8	1.49e+00	0	40	104	0	78	21413
2026-01-29 01:49:28.51	29.22	2.35	-53.9	-68.9	3.8	1.49e+00	0	40	104	0	78	21325
2026-01-29 01:49:29.52	29.20	2.41	-53.9	-68.9	3.8	1.49e+00	0	40	104	0	78	21281
2026-01-29 01:49:30.53	29.18	2.47	-53.9	-68.9	3.8	1.49e+00	0	40	104	0	78	21293
2026-01-29 01:49:31.54	29.15	2.54	-53.9	-68.9	3.8	1.49e+00	0	40	104	0	78	21334
2026-01-29 01:49:32.55	29.13	2.60	-53.8	-68.8	3.8	1.49e+00	0	40	104	0	78	21225
2026-01-29 01:49:33.55	29.11	2.67	-53.8	-68.8	3.8	1.49e+00	0	40	104	0	78	21207
2026-01-29 01:49:34.56	29.08	2.73	-53.8	-68.8	3.8	1.49e+00	0	40	104	0	78	21203
2026-01-29 01:49:35.57	29.06	2.80	-53.8	-68.8	3.8	1.49e+00	0	40	104	0	78	21194
2026-01-29 01:49:36.58	29.04	2.86	-53.8	-68.8	3.8	1.49e+00	0	40	104	0	78	21175
2026-01-29 01:49:37.59	29.01	2.93	-54.0	-69.0	3.8	1.49e+00	0	40	104	0	78	21535
2026-01-29 01:49:38.60	28.99	3.00	-54.1	-69.1	3.8	1.49e+00	0	40	104	0	78	21836
2026-01-29 01:49:39.61	28.96	3.06	-54.1	-69.1	3.8	1.49e+00	0	41	104	0	78	21878
2026-01-29 01:49:40.62	28.94	3.13	-54.1	-69.1	3.8	1.49e+00	0	40	104	0	78	21946
2026-01-29 01:49:41.63	28.91	3.19	-54.2	-69.2	3.8	1.49e+00	0	41	104	0	78	22056
2026-01-29 01:49:42.64	28.89	3.26	-54.1	-69.1	3.8	1.49e+00	0	41	104	0	78	21998
2026-01-29 01:49:43.64	28.86	3.33	-54.2	-69.1	3.8	1.49e+00	0	40	104	0	78	21986
2026-01-29 01:49:44.65	28.84	3.39	-54.1	-69.1	3.8	1.49e+00	0	40	104	0	78	21931
2026-01-29 01:49:45.66	28.81	3.46	-54.2	-69.2	3.8	1.49e+00	0	41	104	0	78	22029
2026-01-29 01:49:46.67	28.79	3.53	-54.1	-69.1	3.8	1.49e+00	0	41	104	0	78	21919
2026-01-29 01:49:47.68	28.76	3.59	-54.1	-69.1	3.8	1.49e+00	0	41	104	0	78	21987
2026-01-29 01:49:48.69	28.74	3.66	-54.1	-69.2	3.8	1.49e+00	0	41	104	0	78	22011
2026-01-29 01:49:49.70	28.71	3.73	-54.1	-69.1	3.8	1.49e+00	0	41	104	0	78	21949
2026-01-29 01:49:50.71	28.68	3.80	-54.1	-69.1	3.8	1.49e+00	0	41	104	0	78	21870
2026-01-29 01:49:51.72	28.66	3.86	-54.0	-69.0	3.8	1.49e+00	0	41	104	0	78	21647
2026-01-29 01:49:52.73	28.63	3.93	-53.9	-68.9	3.8	1.49e+00	0	41	104	0	78	21441
2026-01-29 01:49:53.73	28.61	4.00	-53.8	-68.8	3.8	1.49e+00	0	41	104	0	78	21065
2026-01-29 01:49:54.74	28.58	4.07	-53.7	-68.6	3.8	1.49e+00	0	41	104	0	78	20751
2026-01-29 01:49:55.75	28.55	4.14	-53.5	-68.5	3.8	1.49e+00	0	41	104	0	78	20439
2026-01-29 01:49:56.76	28.53	4.20	-53.4	-68.3	3.8	1.49e+00	0	41	104	0	78	20003
2026-01-29 01:49:57.77	28.50	4.27	-53.1	-68.1	3.8	1.49e+00	0	41	104	0	78	19460
2026-01-29 01:49:58.77	28.47	4.34	-52.8	-67.4	3.8	1.49e+00	0	41	104	0	77	19134
2026-01-29 01:49:59.78	28.45	4.41	-52.4	-67.0	3.8	1.49e+00	0	41	104	0	76	19258
2026-01-29 01:50:00.79	28.42	4.48	-50.7	-56.9	8.6	1.52e-01	0	41	0	0	73	7199
2026-01-29 01:50:01.80	28.39	4.55	-50.6	-56.8	8.7	3.50e-02	0	41	0	2097152	73	7088
2026-01-29 01:50:02.81	28.36	4.62	-50.6	-56.6	8.9	2.81e-02	0	41	0	4194304	73	6936
2026-01-29 01:50:03.81	28.34	4.69	-50.6	-56.6	8.9	2.58e-02	0	41	0	6291456	73	6913
2026-01-29 01:50:04.82	28.31	4.76	-50.6	-56.8	8.7	3.32e-02	0	41	0	8388608	73	7100
2026-01-29 01:50:05.83	28.28	4.83	-50.7	-57.0	8.5	3.89e-02	0	41	0	9437184	73	7278
2026-01-29 01:50:06.84	28.25	4.90	-50.7	-57.2	8.3	4.10e-02	0	41	0	11534336	73	7402
2026-01-29 01:50:07.84	28.22	4.97	-50.9	-57.9	7.5	6.65e-02	0	41	0	13631488	73	8081
2026-01-29 01:50:08.85	28.19	5.04	-51.0	-58.4	7.1	1.19e-01	0	41	0	15728640	73	8542
2026-01-29 01:50:09.85	28.17	5.11	-51.8	-64.2	3.9	8.80e-01	0	41	104	16777216	74	15738
2026-01-29 01:50:10.86	28.14	5.18	-51.0	-57.6	7.8	1.21e+00	0	41	0	16777216	74	7362
2026-01-29 01:50:11.86	28.11	5.25	-51.8	-66.5	3.8	2.51e-02	0	41	104	18874368	74	20426
2026-01-29 01:50:12.87	28.08	5.32	-46.9	-49.0	16.1	8.24e-01	0	41	104	18874368	65	4560
2026-01-29 01:50:13.87	28.05	5.39	-51.9	-66.8	3.8	3.23e-02	0	41	104	19922944	74	21198
2026-01-29 01:50:14.88	28.02	5.46	-47.4	-49.8	15.3	1.48e+00	0	41	104	19922944	67	4455
2026-01-29 01:50:15.89	27.99	5.54	-46.5	-48.4	17.3	0.00e+00	0	41	0	20971520	64	4534
2026-01-29 01:50:16.90	27.96	5.61	-46.3	-48.3	17.5	0.00e+00	0	41	0	23068672	64	4447
2026-01-29 01:50:17.91	27.93	5.68	-46.2	-48.1	17.6	0.00e+00	0	41	0	25165824	64	4371
2026-01-29 01:50:18.91	27.90	5.75	-46.3	-48.1	17.7	0.00e+00	0	41	0	27262976	64	4390
2026-01-29 01:50:19.92	27.87	5.82	-46.3	-48.2	17.6	0.00e+00	0	41	0	29360128	64	4396
2026-01-29 01:50:20.93	27.84	5.90	-45.9	-47.7	18.2	0.00e+00	0	41	0	30408704	63	4412
2026-01-29 01:50:21.93	27.81	5.97	-45.9	-47.6	18.3	0.00e+00	0	41	0	32505856	63	4361
2026-01-29 01:50:22.94	27.78	6.04	-46.0	-47.8	18.1	0.00e+00	0	41	0	34603008	63	4467
2026-01-29 01:50:23.95	27.75	6.12	-45.9	-47.6	18.3	0.00e+00	0	41	0	36700160	63	4377
2026-01-29 01:50:24.96	27.72	6.19	-45.9	-47.7	18.2	0.00e+00	0	41	0	37748736	63	4421
2026-01-29 01:50:25.97	27.69	6.26	-45.7	-47.4	18.6	0.00e+00	0	41	0	39845888	63	4255
2026-01-29 01:50:26.97	27.65	6.34	-46.1	-47.8	18.1	0.00e+00	0	41	0	41943040	63	4490
2026-01-29 01:50:27.98	27.62	6.41	-45.8	-47.5	18.5	0.00e+00	0	41	0	44040192	63	4302
2026-01-29 01:50:28.99	27.59	6.49	-45.9	-47.6	18.4	0.00e+00	0	41	0	46137344	63	4348
2026-01-29 01:50:30.00	27.56	6.56	-45.7	-47.4	18.6	0.00e+00	0	41	0	48234496	63	4269
2026-01-29 01:50:31.00	27.53	6.63	-45.7	-47.3	18.6	0.00e+00	0	41	0	49283072	63	4228
2026-01-29 01:50:32.01	27.49	6.71	-45.9	-47.6	18.5	0.00e+00	0	41	0	51380224	63	4351
2026-01-29 01:50:33.02	27.46	6.79	-45.8	-47.5	18.6	0.00e+00	0	41	0	53477376	63	4302
2026-01-29 01:50:34.03	27.43	6.86	-45.6	-47.2	18.8	0.00e+00	0	41	0	55574528	63	4162
2026-01-29 01:50:35.03	27.39	6.94	-45.6	-47.2	18.8	0.00e+00	0	42	0	57671680	63	4189
2026-01-29 01:50:36.04	27.36	7.01	-45.7	-47.3	18.7	0.00e+00	0	41	0	58720256	63	4231
2026-01-29 01:50:37.04	27.33	7.09	-45.6	-47.3	18.8	0.00e+00	0	41	0	60817408	63	4208
2026-01-29 01:50:38.05	27.29	7.16	-45.5	-47.1	18.9	0.00e+00	0	41	0	62914560	63	4117
2026-01-29 01:50:39.06	27.26	7.24	-45.5	-47.1	19.0	0.00e+00	0	41	0	65011712	62	4344
2026-01-29 01:50:40.07	27.23	7.32	-45.5	-47.1	18.9	0.00e+00	0	41	0	66060288	62	4391
2026-01-29 01:50:41.07	27.19	7.39	-45.4	-47.0	19.1	0.00e+00	0	41	0	68157440	62	4294
2026-01-29 01:50:42.08	27.16	7.47	-45.5	-47.1	18.9	0.00e+00	0	41	0	70254592	62	4368
2026-01-29 01:50:43.09	27.12	7.55	-45.5	-47.1	19.0	0.00e+00	0	41	0	72351744	62	4356
2026-01-29 01:50:44.10	27.09	7.63	-45.4	-46.9	19.1	0.00e+00	0	41	0	74448896	62	4290
2026-01-29 01:50:45.11	27.05	7.70	-45.4	-46.9	19.1	0.00e+00	0	42	0	76546048	62	4282
2026-01-29 01:50:46.11	27.02	7.78	-45.3	-46.9	19.2	0.00e+00	0	41	0	77594624	62	4254
2026-01-29 01:50:47.12	26.98	7.86	-45.3	-46.8	19.3	0.00e+00	0	41	0	79691776	62	4206
2026-01-29 01:50:48.13	26.95	7.94	-45.4	-47.0	19.1	0.00e+00	0	41	0	81788928	62	4310
2026-01-29 01:50:49.14	26.91	8.02	-45.5	-47.1	19.0	0.00e+00	0	41	0	83886080	62	4366
2026-01-29 01:50:50.15	26.87	8.10	-45.4	-47.0	19.1	0.00e+00	0	41	0	85983232	62	4312
2026-01-29 01:50:51.15	26.84	8.17	-45.6	-47.1	19.0	0.00e+00	0	42	0	87031808	62	4391
2026-01-29 01:50:52.16	26.80	8.25	-45.5	-47.0	19.1	0.00e+00	0	42	0	89128960	62	4340
2026-01-29 01:50:53.17	26.77	8.33	-45.3	-46.8	19.4	0.00e+00	0	41	0	91226112	62	4204
2026-01-29 01:50:54.18	26.73	8.41	-45.2	-46.8	19.4	0.00e+00	0	41	0	93323264	62	4197
2026-01-29 01:50:55.18	26.69	8.49	-45.4	-46.9	19.3	0.00e+00	0	41	0	94371840	62	4265
2026-01-29 01:50:56.19	26.65	8.57	-45.5	-47.0	19.1	0.00e+00	0	41	0	96468992	62	4319
2026-01-29 01:50:57.20	26.62	8.65	-45.4	-46.9	19.2	0.00e+00	0	42	0	98566144	62	4283
2026-01-29 01:50:58.21	26.58	8.73	-45.3	-46.8	19.3	0.00e+00	0	42	0	100663296	62	4209
2026-01-29 01:50:59.22	26.54	8.82	-45.3	-46.8	19.4	0.00e+00	0	41	0	102760448	62	4215
2026-01-29 01:51:00.23	26.50	8.90	-45.3	-46.8	19.3	0.00e+00	0	42	0	104857600	62	4229
2026-01-29 01:51:01.24	26.46	8.98	-45.3	-46.8	19.3	0.00e+00	0	41	0	105906176	62	4220
2026-01-29 01:51:02.25	26.42	9.06	-45.4	-47.0	19.2	0.00e+00	0	41	0	108003328	62	4292
2026-01-29 01:51:03.25	26.38	9.14	-45.2	-46.7	19.5	0.00e+00	0	42	0	110100480	62	4173
2026-01-29 01:51:04.26	26.35	9.22	-45.2	-46.7	19.5	0.00e+00	0	41	0	112197632	62	4162
2026-01-29 01:51:05.26	26.31	9.31	-45.3	-46.8	19.4	0.00e+00	0	41	0	114294784	62	4212
2026-01-29 01:51:06.27	26.27	9.39	-45.2	-46.7	19.5	0.00e+00	0	42	0	115343360	62	4178
2026-01-29 01:51:07.28	26.23	9.47	-45.3	-46.8	19.5	0.00e+00	0	41	0	117440512	62	4197
2026-01-29 01:51:08.29	26.19	9.56	-45.3	-46.8	19.4	0.00e+00	0	42	0	119537664	62	4199
2026-01-29 01:51:09.30	26.14	9.64	-45.1	-46.6	19.6	0.00e+00	0	41	0	121634816	62	4107
2026-01-29 01:51:10.31	26.10	9.72	-45.2	-46.7	19.5	0.00e+00	0	42	0	123731968	62	4187
2026-01-29 01:51:11.31	26.06	9.81	-45.3	-46.7	19.5	0.00e+00	0	41	0	124780544	62	4193
2026-01-29 01:51:12.32	26.02	9.89	-45.0	-46.4	19.7	0.00e+00	0	41	0	126877696	62	4022
2026-01-29 01:51:13.33	25.98	9.98	-45.1	-46.6	19.6	0.00e+00	0	42	0	128974848	61	4343
2026-01-29 01:51:14.34	25.94	10.06	-45.2	-46.7	19.6	0.00e+00	0	42	0	131072000	61	4407
2026-01-29 01:51:15.35	25.90	10.15	-45.1	-46.6	19.6	0.00e+00	0	42	0	133169152	61	4353
2026-01-29 01:51:16.35	25.85	10.23	-45.0	-46.5	19.7	0.00e+00	0	42	0	134217728	61	4305
2026-01-29 01:51:17.36	25.81	10.32	-45.0	-46.5	19.7	0.00e+00	0	41	0	136314880	61	4298
2026-01-29 01:51:18.37	25.77	10.40	-45.2	-46.6	19.6	0.00e+00	0	42	0	138412032	61	4381
2026-01-29 01:51:19.38	25.72	10.49	-45.2	-46.6	19.6	0.00e+00	0	42	0	140509184	61	4384
2026-01-29 01:51:20.38	25.68	10.58	-44.8	-46.2	19.9	0.00e+00	0	42	0	142606336	61	4171
2026-01-29 01:51:21.39	25.64	10.66	-45.0	-46.5	19.7	0.00e+00	0	41	0	143654912	61	4311
2026-01-29 01:51:22.40	25.59	10.75	-45.1	-46.6	19.7	0.00e+00	0	42	0	145752064	61	4344
2026-01-29 01:51:23.40	25.55	10.84	-45.0	-46.4	19.8	0.00e+00	0	42	0	147849216	61	4283
2026-01-29 01:51:24.41	25.50	10.93	-45.2	-46.7	19.6	0.00e+00	0	41	0	149946368	61	4435
2026-01-29 01:51:25.42	25.46	11.01	-45.2	-46.7	19.6	0.00e+00	0	42	0	152043520	61	4393
2026-01-29 01:51:26.43	25.41	11.10	-45.0	-46.5	19.8	0.00e+00	0	42	0	153092096	61	4301
2026-01-29 01:51:27.44	25.37	11.19	-45.3	-46.8	19.4	0.00e+00	0	42	0	155189248	61	4473
2026-01-29 01:51:28.45	25.32	11.28	-45.2	-46.6	19.6	0.00e+00	0	42	0	157286400	61	4391
2026-01-29 01:51:29.46	25.27	11.37	-45.0	-46.4	19.9	0.00e+00	0	42	0	159383552	61	4256
2026-01-29 01:51:30.47	25.23	11.46	-45.0	-46.4	19.9	0.00e+00	0	41	0	161480704	61	4269
2026-01-29 01:51:31.48	25.18	11.55	-45.1	-46.5	19.8	0.00e+00	0	41	0	162529280	61	4330
2026-01-29 01:51:32.49	25.13	11.64	-45.0	-46.5	19.8	0.00e+00	0	42	0	164626432	61	4313
2026-01-29 01:51:33.49	25.09	11.73	-45.0	-46.4	19.8	0.00e+00	0	42	0	166723584	61	4273
2026-01-29 01:51:34.50	25.04	11.82	-45.0	-46.5	19.8	0.00e+00	0	42	0	168820736	61	4310
2026-01-29 01:51:35.51	24.99	11.91	-44.9	-46.3	20.0	0.00e+00	0	42	0	170917888	61	4213
2026-01-29 01:51:36.51	24.94	12.00	-44.8	-46.2	20.1	0.00e+00	0	42	0	171966464	61	4146
2026-01-29 01:51:37.52	24.89	12.10	-44.8	-46.2	20.0	0.00e+00	0	42	0	174063616	61	4184
2026-01-29 01:51:38.53	24.84	12.19	-44.8	-46.2	20.1	0.00e+00	0	42	0	176160768	61	4162
2026-01-29 01:51:39.53	24.80	12.28	-44.8	-46.1	20.1	0.00e+00	0	42	0	178257920	61	4137
2026-01-29 01:51:40.54	24.75	12.37	-44.7	-46.0	20.2	0.00e+00	0	42	0	180355072	61	4098
2026-01-29 01:51:41.54	24.70	12.47	-44.8	-46.2	20.1	0.00e+00	0	42	0	181403648	61	4154
2026-01-29 01:51:42.56	24.65	12.56	-44.9	-46.3	20.0	0.00e+00	0	41	0	183500800	61	4213
2026-01-29 01:51:43.56	24.59	12.65	-44.6	-45.9	20.3	0.00e+00	0	42	0	185597952	61	4051
2026-01-29 01:51:44.57	24.54	12.75	-44.7	-46.0	20.2	0.00e+00	0	42	0	187695104	61	4095
2026-01-29 01:51:45.58	24.49	12.84	-44.6	-45.9	20.2	0.00e+00	0	42	0	189792256	61	4041
2026-01-29 01:51:46.58	24.44	12.94	-44.7	-46.1	20.2	0.00e+00	0	42	0	190840832	61	4109
2026-01-29 01:51:47.59	24.39	13.03	-44.6	-46.0	20.3	0.00e+00	0	42	0	192937984	61	4057
2026-01-29 01:51:48.60	24.34	13.13	-44.7	-46.0	20.3	0.00e+00	0	42	0	195035136	61	4078
2026-01-29 01:51:49.61	24.28	13.22	-44.5	-45.9	20.4	0.00e+00	0	42	0	197132288	61	4014
2026-01-29 01:51:50.61	24.23	13.32	-44.6	-45.9	20.3	0.00e+00	0	42	0	199229440	60	4283
2026-01-29 01:51:51.62	24.18	13.42	-44.6	-46.0	20.3	0.00e+00	0	42	0	200278016	60	4304
2026-01-29 01:51:52.63	24.12	13.51	-44.3	-45.6	20.7	0.00e+00	0	42	0	202375168	60	4108
2026-01-29 01:51:53.64	24.07	13.61	-44.5	-45.8	20.4	0.00e+00	0	42	0	204472320	60	4229
2026-01-29 01:51:54.65	24.01	13.71	-44.5	-45.8	20.4	0.00e+00	0	42	0	206569472	60	4231
2026-01-29 01:51:55.65	23.96	13.81	-44.3	-45.6	20.6	0.00e+00	0	42	0	208666624	60	4136
2026-01-29 01:51:56.66	23.90	13.90	-44.3	-45.5	20.7	0.00e+00	0	42	0	209715200	60	4084
2026-01-29 01:51:57.67	23.85	14.00	-44.3	-45.6	20.7	0.00e+00	0	42	0	211812352	60	4101
2026-01-29 01:51:58.68	23.79	14.10	-44.3	-45.6	20.7	0.00e+00	0	42	0	213909504	60	4121
2026-01-29 01:51:59.69	23.73	14.20	-44.4	-45.7	20.6	0.00e+00	0	42	0	216006656	60	4149
2026-01-29 01:52:00.69	23.68	14.30	-44.2	-45.4	20.9	0.00e+00	0	42	0	218103808	60	4036
2026-01-29 01:52:01.70	23.62	14.40	-44.1	-45.4	20.8	0.00e+00	0	42	0	220200960	60	4022
2026-01-29 01:52:02.71	23.56	14.50	-44.2	-45.4	20.8	0.00e+00	0	42	0	221249536	60	4043
2026-01-29 01:52:03.72	23.50	14.60	-44.2	-45.5	20.8	0.00e+00	0	42	0	223346688	60	4079
2026-01-29 01:52:04.73	23.44	14.70	-44.3	-45.5	20.8	0.00e+00	0	42	0	225443840	60	4095
2026-01-29 01:52:05.74	23.38	14.81	-44.2	-45.5	20.7	0.00e+00	0	42	0	227540992	60	4081
2026-01-29 01:52:06.74	23.32	14.91	-44.2	-45.4	20.9	0.00e+00	0	42	0	228589568	60	4042
2026-01-29 01:52:07.75	23.26	15.01	-44.2	-45.5	20.8	0.00e+00	0	42	0	230686720	60	4074
2026-01-29 01:52:08.75	23.20	15.11	-44.1	-45.4	20.9	0.00e+00	0	42	0	232783872	60	4024
2026-01-29 01:52:09.76	23.14	15.22	-44.2	-45.5	20.8	0.00e+00	0	42	0	234881024	60	4058
2026-01-29 01:52:10.76	23.08	15.32	-44.2	-45.4	20.9	0.00e+00	0	42	0	236978176	60	4048
2026-01-29 01:52:11.77	23.02	15.42	-44.3	-45.6	20.8	0.00e+00	0	42	0	238026752	60	4104
2026-01-29 01:52:12.78	22.96	15.53	-44.2	-45.5	20.8	0.00e+00	0	42	0	240123904	60	4068
2026-01-29 01:52:13.79	22.89	15.63	-44.1	-45.3	21.0	0.00e+00	0	42	0	242221056	60	3990
2026-01-29 01:52:14.79	22.83	15.74	-44.1	-45.3	20.9	0.00e+00	0	42	0	244318208	60	4000
2026-01-29 01:52:15.80	22.77	15.84	-44.2	-45.4	20.9	0.00e+00	0	42	0	246415360	60	4039
2026-01-29 01:52:16.81	22.70	15.95	-44.0	-45.2	21.1	0.00e+00	0	42	0	248512512	60	3957
2026-01-29 01:52:17.81	22.64	16.06	-44.2	-45.4	20.9	0.00e+00	0	42	0	249561088	60	4046
2026-01-29 01:52:18.82	22.57	16.16	-44.2	-45.5	20.9	0.00e+00	0	42	0	251658240	60	4053
2026-01-29 01:52:19.83	22.51	16.27	-44.3	-45.6	20.8	0.00e+00	0	42	0	253755392	60	4111
2026-01-29 01:52:20.84	22.44	16.38	-44.2	-45.5	20.9	0.00e+00	0	42	0	255852544	60	4056
2026-01-29 01:52:21.84	22.37	16.49	-44.2	-45.5	20.9	0.00e+00	0	42	0	256901120	60	4058
2026-01-29 01:52:22.85	22.31	16.60	-44.3	-45.6	20.8	0.00e+00	0	42	0	258998272	60	4114
2026-01-29 01:52:23.86	22.24	16.71	-44.4	-45.6	20.8	0.00e+00	0	42	0	261095424	60	4134
2026-01-29 01:52:24.87	22.17	16.82	-44.3	-45.6	20.9	0.00e+00	0	42	0	263192576	60	4116
2026-01-29 01:52:25.88	22.10	16.93	-44.5	-45.8	20.7	0.00e+00	0	42	0	265289728	60	4208
2026-01-29 01:52:26.89	22.03	17.04	-44.2	-45.5	20.9	0.00e+00	0	42	0	266338304	60	4063
2026-01-29 01:52:27.89	21.96	17.15	-44.2	-45.5	20.9	0.00e+00	0	42	0	268435456	60	4060
2026-01-29 01:52:28.90	21.89	17.26	-44.3	-45.6	20.8	0.00e+00	0	42	0	270532608	60	4119
2026-01-29 01:52:29.91	21.82	17.37	-44.2	-45.5	20.9	0.00e+00	0	41	0	272629760	60	4063
2026-01-29 01:52:30.92	21.75	17.49	-44.3	-45.6	20.9	0.00e+00	0	42	0	274726912	60	4128
2026-01-29 01:52:31.93	21.68	17.60	-44.4	-45.7	20.7	0.00e+00	0	42	0	276824064	60	4180
2026-01-29 01:52:32.93	21.60	17.71	-44.7	-46.0	20.6	0.00e+00	0	42	0	277872640	60	4295
2026-01-29 01:52:33.94	21.53	17.82	-44.3	-45.6	20.8	0.00e+00	0	42	0	279969792	60	4121
2026-01-29 01:52:34.94	21.46	17.94	-44.6	-45.9	20.6	0.00e+00	0	42	0	282066944	60	4249
2026-01-29 01:52:35.95	21.38	18.05	-44.5	-45.8	20.7	0.00e+00	0	42	0	284164096	60	4201
2026-01-29 01:52:36.96	21.31	18.17	-44.5	-45.8	20.6	0.00e+00	0	42	0	285212672	60	4233
2026-01-29 01:52:37.97	21.23	18.29	-44.4	-45.6	20.8	0.00e+00	0	42	0	287309824	60	4140
2026-01-29 01:52:38.97	21.15	18.40	-44.6	-45.9	20.5	0.00e+00	0	42	0	289406976	60	4287
2026-01-29 01:52:39.98	21.08	18.52	-44.5	-45.8	20.6	0.00e+00	0	42	0	291504128	60	4194
2026-01-29 01:52:40.99	21.00	18.64	-44.4	-45.7	20.8	0.00e+00	0	42	0	293601280	60	4156
2026-01-29 01:52:41.99	20.92	18.75	-44.4	-45.7	20.7	0.00e+00	0	42	0	295698432	60	4179
2026-01-29 01:52:43.00	20.84	18.87	-44.5	-45.7	20.7	0.00e+00	0	42	0	296747008	60	4188
2026-01-29 01:52:44.01	20.76	18.99	-44.3	-45.6	20.9	0.00e+00	0	42	0	298844160	60	4118
2026-01-29 01:52:45.02	20.68	19.11	-44.5	-45.8	20.7	0.00e+00	0	42	0	300941312	60	4208
2026-01-29 01:52:46.03	20.60	19.23	-44.4	-45.7	20.8	0.00e+00	0	42	0	303038464	60	4160
2026-01-29 01:52:47.04	20.52	19.35	-44.3	-45.5	20.9	0.00e+00	0	42	0	305135616	60	4077
2026-01-29 01:52:48.05	20.44	19.47	-44.4	-45.6	20.8	0.00e+00	0	42	0	306184192	60	4138
2026-01-29 01:52:49.06	20.36	19.59	-44.3	-45.6	20.9	0.00e+00	0	42	0	308281344	60	4108
2026-01-29 01:52:50.07	20.27	19.72	-44.4	-45.7	20.8	0.00e+00	0	42	0	310378496	60	4147
2026-01-29 01:52:51.07	20.19	19.84	-44.3	-45.6	20.9	0.00e+00	0	42	0	312475648	60	4110
2026-01-29 01:52:52.08	20.10	19.96	-44.3	-45.6	20.9	0.00e+00	0	42	0	313524224	60	4110
2026-01-29 01:52:53.09	20.02	20.08	-44.4	-45.7	20.8	0.00e+00	0	42	0	315621376	60	4169
2026-01-29 01:52:54.09	19.93	20.21	-44.4	-45.7	20.8	0.00e+00	0	42	0	317718528	60	4158
2026-01-29 01:52:55.10	19.84	20.33	-44.5	-45.8	20.7	0.00e+00	0	42	0	319815680	60	4211
2026-01-29 01:52:56.11	19.76	20.46	-44.4	-45.7	20.9	0.00e+00	0	42	0	321912832	60	4151
2026-01-29 01:52:57.12	19.67	20.58	-44.7	-46.0	20.6	0.00e+00	0	42	0	324009984	60	4299
2026-01-29 01:52:58.13	19.58	20.71	-44.6	-45.9	20.7	0.00e+00	0	42	0	325058560	60	4268
2026-01-29 01:52:59.14	19.49	20.84	-44.8	-46.2	20.4	0.00e+00	0	42	0	327155712	60	4399
2026-01-29 01:53:00.15	19.40	20.97	-45.1	-46.4	20.2	0.00e+00	0	42	0	329252864	60	4543
2026-01-29 01:53:01.16	19.30	21.09	-45.2	-46.6	20.0	0.00e+00	0	42	0	331350016	60	4603
2026-01-29 01:53:02.17	19.21	21.22	-45.2	-46.6	20.1	0.00e+00	0	42	0	333447168	60	4612
2026-01-29 01:53:03.17	19.12	21.35	-45.3	-46.7	20.0	0.00e+00	0	42	0	334495744	61	4415
2026-01-29 01:53:04.18	19.03	21.48	-45.2	-46.7	20.0	0.00e+00	0	42	0	336592896	61	4402
2026-01-29 01:53:05.19	18.93	21.61	-45.1	-46.4	20.2	0.00e+00	0	42	0	338690048	61	4285
2026-01-29 01:53:06.20	18.83	21.74	-45.2	-46.5	20.1	0.00e+00	0	42	0	340787200	61	4339
2026-01-29 01:53:07.21	18.74	21.87	-45.6	-47.0	19.7	0.00e+00	0	42	0	342884352	61	4589
2026-01-29 01:53:08.21	18.64	22.01	-45.2	-46.6	20.0	0.00e+00	0	42	0	343932928	61	4385
2026-01-29 01:53:09.22	18.54	22.14	-45.2	-46.6	20.0	0.00e+00	0	42	0	346030080	61	4368
2026-01-29 01:53:10.23	18.44	22.27	-45.4	-46.8	19.8	0.00e+00	0	42	0	348127232	61	4485
2026-01-29 01:53:11.24	18.34	22.41	-45.2	-46.6	20.0	0.00e+00	0	42	0	350224384	61	4375
2026-01-29 01:53:12.25	18.24	22.54	-45.2	-46.6	20.0	0.00e+00	0	42	0	352321536	61	4367
2026-01-29 01:53:13.25	18.14	22.67	-45.4	-46.9	19.8	0.00e+00	0	42	0	353370112	61	4511
2026-01-29 01:53:14.26	18.04	22.81	-45.5	-46.9	19.7	0.00e+00	0	42	0	355467264	61	4540
2026-01-29 01:53:15.27	17.93	22.95	-45.6	-47.1	19.6	0.00e+00	0	42	0	357564416	61	4621
2026-01-29 01:53:16.27	17.83	23.08	-45.7	-47.2	19.6	0.00e+00	0	42	0	359661568	62	4402
2026-01-29 01:53:17.28	17.72	23.22	-45.7	-47.1	19.6	0.00e+00	0	42	0	361758720	62	4387
2026-01-29 01:53:18.29	17.62	23.36	-45.6	-47.1	19.6	0.00e+00	0	42	0	363855872	62	4366
2026-01-29 01:53:19.30	17.51	23.50	-45.7	-47.2	19.6	0.00e+00	0	42	0	364904448	62	4393
2026-01-29 01:53:20.31	17.40	23.64	-45.8	-47.3	19.5	0.00e+00	0	42	0	367001600	62	4469
2026-01-29 01:53:21.31	17.29	23.78	-45.8	-47.3	19.4	0.00e+00	0	42	0	369098752	62	4468
2026-01-29 01:53:22.32	17.18	23.92	-45.6	-47.1	19.6	0.00e+00	0	42	0	371195904	62	4376
2026-01-29 01:53:23.32	17.07	24.06	-46.0	-47.5	19.2	0.00e+00	0	42	0	372244480	62	4581
2026-01-29 01:53:24.33	16.96	24.20	-46.0	-47.6	19.2	0.00e+00	0	42	0	374341632	62	4640
2026-01-29 01:53:25.34	16.84	24.34	-46.0	-47.6	19.2	0.00e+00	0	42	0	376438784	62	4611
2026-01-29 01:53:26.35	16.73	24.49	-45.9	-47.4	19.4	0.00e+00	0	42	0	378535936	63	4250
2026-01-29 01:53:27.36	16.61	24.63	-45.9	-47.5	19.3	0.00e+00	0	42	0	380633088	63	4307
2026-01-29 01:53:28.37	16.49	24.78	-46.2	-47.9	19.1	0.00e+00	0	42	0	381681664	63	4501
2026-01-29 01:53:29.37	16.38	24.92	-46.0	-47.6	19.3	0.00e+00	0	42	0	383778816	63	4354
2026-01-29 01:53:30.38	16.26	25.07	-45.9	-47.3	19.5	0.00e+00	0	42	0	385875968	63	4242
2026-01-29 01:53:31.38	16.14	25.21	-46.1	-47.6	19.2	0.00e+00	0	42	0	387973120	63	4370
2026-01-29 01:53:32.39	16.02	25.36	-45.9	-47.4	19.4	0.00e+00	0	42	0	390070272	63	4256
2026-01-29 01:53:33.40	15.89	25.51	-45.6	-47.0	19.9	0.00e+00	0	42	0	392167424	63	4060
2026-01-29 01:53:34.41	15.77	25.66	-45.8	-47.3	19.6	0.00e+00	0	42	0	393216000	63	4215
2026-01-29 01:53:35.42	15.64	25.81	-45.9	-47.3	19.6	0.00e+00	0	42	0	395313152	63	4225
2026-01-29 01:53:36.42	15.52	25.96	-46.3	-47.9	19.1	0.00e+00	0	42	0	397410304	63	4509
2026-01-29 01:53:37.43	15.39	26.11	-45.7	-47.1	19.8	0.00e+00	0	42	0	399507456	63	4107
2026-01-29 01:53:38.44	15.26	26.26	-45.8	-47.3	19.6	0.00e+00	0	42	0	400556032	63	4206
2026-01-29 01:53:39.45	15.13	26.41	-46.1	-47.6	19.2	0.00e+00	0	42	0	402653184	63	4352
2026-01-29 01:53:40.46	15.00	26.57	-46.0	-47.5	19.3	0.00e+00	0	42	0	404750336	63	4338
2026-01-29 01:53:41.47	14.87	26.72	-46.1	-47.6	19.3	0.00e+00	0	42	0	406847488	63	4362
2026-01-29 01:53:42.47	14.73	26.87	-46.2	-47.7	19.2	0.00e+00	0	42	0	408944640	63	4436
2026-01-29 01:53:43.48	14.60	27.03	-46.3	-47.8	19.0	0.00e+00	0	42	0	409993216	63	4491
2026-01-29 01:53:44.49	14.46	27.18	-46.8	-48.6	18.3	0.00e+00	0	42	0	412090368	64	4613
2026-01-29 01:53:45.50	14.32	27.34	-46.0	-47.6	19.3	0.00e+00	0	42	0	414187520	63	4352
2026-01-29 01:53:46.51	14.18	27.50	-46.0	-47.5	19.4	0.00e+00	0	42	0	416284672	63	4320
2026-01-29 01:53:47.51	14.04	27.65	-45.9	-47.4	19.4	0.00e+00	0	42	0	418381824	63	4279
2026-01-29 01:53:48.52	13.90	27.81	-45.6	-47.1	19.8	0.00e+00	0	42	0	420478976	63	4111
2026-01-29 01:53:49.53	13.76	27.97	-45.6	-47.1	19.7	0.00e+00	0	42	0	421527552	63	4109
2026-01-29 01:53:50.53	13.61	28.13	-45.7	-47.1	19.7	0.00e+00	0	42	0	423624704	63	4133
2026-01-29 01:53:51.54	13.46	28.29	-45.4	-46.8	20.0	0.00e+00	0	42	0	425721856	62	4235
2026-01-29 01:53:52.55	13.32	28.45	-46.2	-47.7	19.3	0.00e+00	0	42	0	427819008	62	4695
2026-01-29 01:53:53.56	13.17	28.62	-45.7	-47.1	19.7	0.00e+00	0	42	0	428867584	62	4387
2026-01-29 01:53:54.57	13.01	28.78	-45.6	-47.0	19.9	0.00e+00	0	42	0	430964736	62	4321
2026-01-29 01:53:55.57	12.86	28.94	-45.7	-47.1	19.8	0.00e+00	0	42	0	433061888	62	4374
2026-01-29 01:53:56.58	12.71	29.11	-45.9	-47.3	19.6	0.00e+00	0	42	0	435159040	62	4493
2026-01-29 01:53:57.59	12.55	29.27	-45.6	-47.0	19.8	0.00e+00	0	42	0	437256192	62	4335
2026-01-29 01:53:58.60	12.39	29.44	-45.9	-47.4	19.6	0.00e+00	0	42	0	439353344	63	4262
2026-01-29 01:53:59.61	12.23	29.60	-46.1	-47.6	19.4	0.00e+00	0	42	0	440401920	63	4359
2026-01-29 01:54:00.61	12.07	29.77	-46.5	-48.1	19.0	0.00e+00	0	42	0	442499072	63	4611
2026-01-29 01:54:01.62	11.91	29.94	-46.1	-47.7	19.4	0.00e+00	0	42	0	444596224	63	4404
2026-01-29 01:54:02.63	11.74	30.11	-46.1	-47.7	19.3	0.00e+00	0	42	0	446693376	63	4406
2026-01-29 01:54:03.63	11.58	30.27	-46.2	-47.7	19.2	0.00e+00	0	42	0	448790528	63	4440
2026-01-29 01:54:04.64	11.41	30.44	-46.5	-48.1	18.9	0.00e+00	0	42	0	449839104	63	4619
2026-01-29 01:54:05.65	11.24	30.62	-46.4	-48.0	19.0	0.00e+00	0	42	0	451936256	63	4546
2026-01-29 01:54:06.66	11.07	30.79	-46.6	-48.2	18.7	0.00e+00	0	42	0	454033408	64	4438
2026-01-29 01:54:07.66	10.90	30.96	-46.6	-48.3	18.6	0.00e+00	0	42	0	456130560	64	4465
2026-01-29 01:54:08.67	10.72	31.13	-47.3	-49.1	17.8	0.00e+00	0	42	0	457179136	65	4643
2026-01-29 01:54:09.68	10.54	31.31	-46.6	-48.3	18.7	0.00e+00	0	42	0	459276288	65	4196
2026-01-29 01:54:10.69	10.36	31.48	-46.8	-48.4	18.4	0.00e+00	0	42	0	461373440	65	4283
2026-01-29 01:54:11.69	10.18	31.65	-46.6	-48.2	18.7	0.00e+00	0	42	0	463470592	65	4192
2026-01-29 01:54:12.70	10.00	31.83	-46.7	-48.3	18.6	0.00e+00	0	42	0	465567744	65	4236
2026-01-29 01:54:13.71	9.81	32.01	-46.8	-48.5	18.7	0.00e+00	0	42	0	467664896	65	4309
2026-01-29 01:54:14.72	9.62	32.18	-47.2	-49.0	18.1	0.00e+00	0	42	0	468713472	65	4551
2026-01-29 01:54:15.73	9.43	32.36	-47.6	-49.6	17.5	0.00e+00	0	42	0	470810624	65	4900
2026-01-29 01:54:16.73	9.24	32.54	-48.2	-50.4	16.6	0.00e+00	0	42	0	472907776	67	4784
2026-01-29 01:54:17.74	9.05	32.72	-48.0	-50.1	17.1	0.00e+00	0	42	0	475004928	67	4618
2026-01-29 01:54:18.75	8.85	32.90	-48.1	-50.2	16.9	0.00e+00	0	42	0	477102080	67	4670
2026-01-29 01:54:19.75	8.66	33.08	-47.5	-49.4	17.7	0.00e+00	0	42	0	478150656	67	4284
2026-01-29 01:54:20.76	8.45	33.26	-47.5	-49.4	17.6	0.00e+00	0	42	0	480247808	66	4539
2026-01-29 01:54:21.76	8.25	33.44	-47.8	-49.9	17.4	0.00e+00	0	42	0	482344960	66	4771
2026-01-29 01:54:22.77	8.05	33.62	-47.9	-49.9	17.2	0.00e+00	0	42	0	484442112	66	4812
2026-01-29 01:54:23.78	7.84	33.81	-48.4	-50.8	16.3	0.00e+00	0	42	0	485490688	67	5014
2026-01-29 01:54:24.79	7.63	33.99	-49.1	-51.8	15.4	0.00e+00	0	42	0	487587840	69	5038
2026-01-29 01:54:25.80	7.42	34.18	-49.3	-52.2	14.9	0.00e+00	0	42	0	489684992	69	5239
2026-01-29 01:54:26.81	7.20	34.36	-49.1	-52.0	15.2	0.00e+00	0	42	0	491782144	69	5113
2026-01-29 01:54:27.81	6.98	34.55	-48.9	-51.5	15.6	0.00e+00	0	42	0	493879296	69	4829
2026-01-29 01:54:28.83	6.76	34.73	-48.5	-51.0	16.2	0.00e+00	0	42	0	495976448	69	4566
2026-01-29 01:54:29.83	6.54	34.92	-48.5	-51.0	16.2	0.00e+00	0	42	0	497025024	68	4817
2026-01-29 01:54:30.84	6.32	35.11	-47.9	-50.0	17.1	0.00e+00	0	42	0	499122176	67	4596
2026-01-29 01:54:31.84	6.09	35.29	-47.2	-49.0	17.9	0.00e+00	0	42	0	501219328	66	4340
2026-01-29 01:54:32.85	5.86	35.48	-47.4	-49.3	17.8	0.00e+00	0	42	0	503316480	66	4459
2026-01-29 01:54:33.85	5.63	35.67	-47.2	-49.0	18.0	0.00e+00	0	42	0	505413632	66	4324
2026-01-29 01:54:34.86	5.39	35.86	-47.1	-48.9	18.0	0.00e+00	0	42	0	506462208	66	4291
2026-01-29 01:54:35.87	5.15	36.05	-46.9	-48.7	18.3	0.00e+00	0	42	0	508559360	65	4396
2026-01-29 01:54:36.88	4.91	36.24	-46.9	-48.6	18.4	0.00e+00	0	42	0	510656512	65	4368
2026-01-29 01:54:37.88	4.67	36.43	-46.8	-48.5	18.4	0.00e+00	0	42	0	512753664	65	4338
2026-01-29 01:54:38.89	4.42	36.63	-46.3	-47.9	19.0	0.00e+00	0	42	0	514850816	64	4267
2026-01-29 01:54:39.89	4.17	36.82	-46.4	-48.0	19.0	0.00e+00	0	42	0	515899392	64	4299
2026-01-29 01:54:40.90	3.92	37.01	-46.3	-47.8	19.1	0.00e+00	0	42	0	517996544	64	4242
2026-01-29 01:54:41.91	3.66	37.21	-46.4	-48.0	19.0	0.00e+00	0	42	0	520093696	64	4327
2026-01-29 01:54:42.92	3.40	37.40	-46.7	-48.4	18.6	0.00e+00	0	42	0	522190848	64	4522
2026-01-29 01:54:43.93	3.14	37.60	-47.0	-48.8	18.3	0.00e+00	0	42	0	524288000	64	4723
2026-01-29 01:54:44.93	2.87	37.79	-47.4	-49.4	17.8	0.00e+00	0	42	0	525336576	65	4767
2026-01-29 01:54:45.94	2.60	37.99	-47.1	-48.9	18.1	0.00e+00	0	42	0	527433728	65	4518
2026-01-29 01:54:46.95	2.33	38.18	-47.4	-49.3	17.7	0.00e+00	0	42	0	529530880	65	4735
2026-01-29 01:54:47.96	2.05	38.38	-47.2	-49.2	17.9	0.00e+00	0	42	0	531628032	65	4667
2026-01-29 01:54:48.97	1.77	38.58	-47.3	-49.3	17.8	0.00e+00	0	42	0	533725184	65	4731
2026-01-29 01:54:49.97	1.49	38.77	-47.1	-49.1	18.0	0.00e+00	0	42	0	534773760	65	4608
2026-01-29 01:54:50.98	1.21	38.97	-47.2	-49.1	17.9	0.00e+00	0	42	0	536870912	65	4649
2026-01-29 01:54:51.99	0.91	39.17	-46.9	-48.8	18.2	0.00e+00	0	42	0	538968064	65	4443
2026-01-29 01:54:52.99	0.62	39.36	-46.9	-48.6	18.5	0.00e+00	0	42	0	541065216	65	4384
2026-01-29 01:54:54.00	0.33	39.56	-47.1	-48.9	18.2	0.00e+00	0	42	0	543162368	65	4504
2026-01-29 01:54:55.01	0.03	39.76	-47.1	-49.0	18.1	0.00e+00	0	42	0	544210944	65	4547
2026-01-29 01:54:56.01	359.72	39.96	-47.1	-49.0	18.1	0.00e+00	0	42	0	546308096	65	4562
2026-01-29 01:54:57.01	359.42	40.15	-48.1	-50.4	16.7	0.00e+00	0	42	0	548405248	66	5055
2026-01-29 01:54:58.02	359.10	40.35	-48.3	-50.7	16.5	0.00e+00	0	42	0	550502400	67	4960
2026-01-29 01:54:59.03	358.79	40.55	-47.9	-50.2	16.9	0.00e+00	0	42	0	552599552	67	4685
2026-01-29 01:55:00.03	358.47	40.75	-47.6	-49.7	17.4	0.00e+00	0	42	0	553648128	67	4392
2026-01-29 01:55:01.04	358.15	40.95	-46.8	-48.6	18.3	0.00e+00	0	42	0	555745280	65	4382
2026-01-29 01:55:02.05	357.82	41.15	-46.6	-48.3	18.7	0.00e+00	0	42	0	557842432	65	4218
2026-01-29 01:55:03.06	357.49	41.35	-46.5	-48.1	18.9	0.00e+00	0	42	0	559939584	64	4373
2026-01-29 01:55:04.06	357.15	41.55	-46.2	-47.8	19.3	0.00e+00	0	42	0	562036736	64	4224
2026-01-29 01:55:05.07	356.81	41.75	-46.2	-47.8	19.4	0.00e+00	0	42	0	563085312	63	4444
2026-01-29 01:55:06.08	356.47	41.95	-46.3	-47.9	19.3	0.00e+00	0	42	0	565182464	63	4495
2026-01-29 01:55:07.09	356.12	42.15	-46.0	-47.6	19.5	0.00e+00	0	42	0	567279616	63	4342
2026-01-29 01:55:08.09	355.77	42.34	-46.6	-48.3	18.9	0.00e+00	0	42	0	569376768	63	4710
2026-01-29 01:55:09.10	355.41	42.54	-46.8	-48.5	18.5	0.00e+00	0	42	0	571473920	64	4590
2026-01-29 01:55:10.11	355.04	42.74	-47.5	-49.6	17.6	0.00e+00	0	42	0	572522496	65	4889
2026-01-29 01:55:11.12	354.68	42.94	-47.6	-49.6	17.6	0.00e+00	0	42	0	574619648	66	4645
2026-01-29 01:55:12.13	354.31	43.14	-47.5	-49.5	17.7	0.00e+00	0	42	0	576716800	66	4555
2026-01-29 01:55:13.13	353.93	43.33	-48.0	-50.2	17.1	0.00e+00	0	42	0	578813952	66	4927
2026-01-29 01:55:14.14	353.55	43.53	-48.3	-50.7	16.6	0.00e+00	0	42	0	580911104	67	4939
2026-01-29 01:55:15.15	353.16	43.73	-48.5	-51.0	16.2	0.00e+00	0	42	0	581959680	67	5122
2026-01-29 01:55:16.16	352.77	43.93	-48.6	-51.3	16.0	0.00e+00	0	42	0	584056832	68	4993
2026-01-29 01:55:17.16	352.38	44.12	-48.4	-51.0	16.2	0.00e+00	0	42	0	586153984	68	4825
2026-01-29 01:55:18.17	351.98	44.32	-48.5	-51.1	16.3	0.00e+00	0	42	0	588251136	68	4883
2026-01-29 01:55:19.18	351.57	44.51	-48.8	-51.7	15.6	0.00e+00	0	42	0	590348288	68	5247
2026-01-29 01:55:20.19	351.16	44.70	-48.7	-51.5	15.8	0.00e+00	0	42	0	591396864	68	5103
2026-01-29 01:55:21.19	350.75	44.90	-48.7	-51.4	15.9	0.00e+00	0	42	0	593494016	68	5059
2026-01-29 01:55:22.20	350.33	45.09	-48.1	-50.3	17.1	0.00e+00	0	42	0	595591168	68	4465
2026-01-29 01:55:23.21	349.91	45.28	-48.4	-50.7	16.6	0.00e+00	0	42	0	597688320	68	4702
2026-01-29 01:55:24.21	349.48	45.47	-48.3	-50.6	16.8	0.00e+00	0	42	0	599785472	68	4642
2026-01-29 01:55:25.22	349.04	45.66	-48.3	-50.5	16.9	0.00e+00	0	42	0	600834048	68	4552
2026-01-29 01:55:26.23	348.60	45.85	-48.4	-50.7	16.8	0.00e+00	0	42	0	602931200	68	4662
2026-01-29 01:55:27.24	348.15	46.04	-48.7	-51.1	16.3	0.00e+00	0	42	0	605028352	68	4882
2026-01-29 01:55:28.24	347.70	46.22	-48.8	-51.3	16.0	0.00e+00	0	42	0	607125504	68	5002
2026-01-29 01:55:29.25	347.25	46.41	-48.5	-50.8	16.5	0.00e+00	0	42	0	609222656	68	4754
2026-01-29 01:55:30.26	346.78	46.59	-48.1	-50.4	17.0	0.00e+00	0	42	0	610271232	68	4506
2026-01-29 01:55:31.27	346.31	46.78	-47.1	-48.8	18.3	0.00e+00	0	42	0	612368384	66	4226
2026-01-29 01:55:32.28	345.84	46.96	-46.5	-48.1	19.1	0.00e+00	0	42	0	614465536	64	4362
2026-01-29 01:55:33.29	345.36	47.14	-46.2	-47.6	19.6	0.00e+00	0	42	0	616562688	64	4142
2026-01-29 01:55:34.30	344.87	47.32	-45.9	-47.3	19.8	0.00e+00	0	42	0	618659840	63	4240
2026-01-29 01:55:35.30	344.39	47.50	-46.4	-47.9	19.4	0.00e+00	0	42	0	620756992	63	4538
2026-01-29 01:55:36.31	343.89	47.67	-46.6	-48.2	19.2	0.00e+00	0	42	0	621805568	63	4677
2026-01-29 01:55:37.32	343.39	47.85	-46.6	-48.2	19.0	0.00e+00	0	42	0	623902720	64	4432
2026-01-29 01:55:38.33	342.88	48.02	-46.4	-48.0	19.3	0.00e+00	0	42	0	625999872	64	4294
2026-01-29 01:55:39.34	342.36	48.19	-46.5	-48.1	19.1	0.00e+00	0	42	0	628097024	64	4357
2026-01-29 01:55:40.35	341.84	48.36	-46.0	-47.4	19.7	0.00e+00	0	42	0	629145600	63	4283
2026-01-29 01:55:41.35	341.32	48.52	-46.2	-47.8	19.5	0.00e+00	0	42	0	631242752	63	4447
2026-01-29 01:55:42.36	340.79	48.69	-46.6	-48.2	19.1	0.00e+00	0	42	0	633339904	63	4685
2026-01-29 01:55:43.37	340.26	48.85	-47.0	-48.9	18.3	0.00e+00	0	42	0	635437056	64	4803
2026-01-29 01:55:44.38	339.71	49.01	-46.7	-48.5	18.5	0.00e+00	0	42	0	637534208	64	4568
2026-01-29 01:55:45.39	339.17	49.17	-45.9	-47.5	19.7	0.00e+00	0	42	0	638582784	63	4292
2026-01-29 01:55:46.39	338.62	49.33	-45.4	-46.7	20.4	0.00e+00	0	42	0	640679936	62	4173
2026-01-29 01:55:47.40	338.06	49.48	-45.2	-46.5	20.7	0.00e+00	0	42	0	642777088	62	4073
2026-01-29 01:55:48.41	337.49	49.63	-45.7	-47.1	20.1	0.00e+00	0	42	0	644874240	62	4390
2026-01-29 01:55:49.42	336.92	49.78	-45.9	-47.4	19.8	0.00e+00	0	42	0	646971392	62	4536
2026-01-29 01:55:50.42	336.35	49.93	-45.6	-47.1	20.1	0.00e+00	0	42	0	649068544	62	4343
2026-01-29 01:55:51.43	335.77	50.07	-45.3	-46.7	20.4	0.00e+00	0	42	0	650117120	62	4172
2026-01-29 01:55:52.44	335.18	50.21	-45.5	-46.9	20.2	0.00e+00	0	42	0	652214272	62	4280
2026-01-29 01:55:53.44	334.59	50.35	-44.8	-46.1	20.9	0.00e+00	0	42	0	654311424	61	4126
2026-01-29 01:55:54.45	333.99	50.48	-45.4	-46.9	20.3	0.00e+00	0	42	0	656408576	61	4510
2026-01-29 01:55:55.46	333.39	50.62	-46.2	-47.8	19.4	0.00e+00	0	42	0	657457152	63	4479
2026-01-29 01:55:56.47	332.78	50.75	-46.5	-48.3	18.9	0.00e+00	0	42	0	659554304	64	4447
2026-01-29 01:55:57.48	332.17	50.87	-46.4	-48.1	19.0	0.00e+00	0	42	0	661651456	64	4381
2026-01-29 01:55:58.49	331.55	51.00	-46.4	-48.2	18.9	0.00e+00	0	42	0	663748608	64	4400
2026-01-29 01:55:59.49	330.93	51.11	-47.5	-49.7	17.5	0.00e+00	0	42	0	665845760	65	4962
2026-01-29 01:56:00.50	330.30	51.23	-48.6	-51.5	15.8	0.00e+00	0	42	0	667942912	67	5443
2026-01-29 01:56:01.51	329.67	51.34	-47.8	-50.2	16.8	0.00e+00	0	42	0	668991488	67	4679
2026-01-29 01:56:02.52	329.03	51.45	-46.7	-48.5	18.4	0.00e+00	0	42	0	671088640	65	4338
2026-01-29 01:56:03.53	328.38	51.56	-45.8	-47.3	19.7	0.00e+00	0	42	0	673185792	63	4228
2026-01-29 01:56:04.54	327.73	51.66	-45.7	-47.2	19.9	0.00e+00	0	42	0	675282944	63	4148
2026-01-29 01:56:05.54	327.09	51.76	-46.1	-47.7	19.6	0.00e+00	0	42	0	677380096	63	4403
2026-01-29 01:56:06.55	326.43	51.86	-46.6	-48.4	18.9	0.00e+00	0	42	0	678428672	63	4774
2026-01-29 01:56:07.56	325.77	51.95	-47.2	-49.3	17.9	0.00e+00	0	42	0	680525824	64	4997
2026-01-29 01:56:08.57	325.10	52.04	-47.3	-49.5	17.6	0.00e+00	0	42	0	682622976	65	4825
2026-01-29 01:56:09.58	324.43	52.12	-47.2	-49.3	17.7	0.00e+00	0	42	0	684720128	65	4754
2026-01-29 01:56:10.59	323.76	52.20	-46.7	-48.6	18.3	0.00e+00	0	42	0	685768704	65	4381
2026-01-29 01:56:11.59	323.09	52.27	-46.2	-47.9	19.1	0.00e+00	0	42	0	687865856	64	4264
2026-01-29 01:56:12.60	322.41	52.35	-45.6	-47.2	19.9	0.00e+00	0	42	0	689963008	63	4147
2026-01-29 01:56:13.61	321.73	52.41	-44.7	-46.1	20.9	0.00e+00	0	42	0	692060160	61	4111
2026-01-29 01:56:14.62	321.04	52.48	-44.1	-45.4	21.5	0.00e+00	0	42	0	694157312	60	4005
2026-01-29 01:56:15.62	320.36	52.54	-43.9	-45.1	22.0	0.00e+00	0	42	0	696254464	59	4115
2026-01-29 01:56:16.63	319.67	52.59	-43.3	-44.4	22.6	0.00e+00	0	42	0	697303040	58	4022
2026-01-29 01:56:17.63	318.98	52.64	-43.3	-44.4	22.5	0.00e+00	0	42	0	699400192	58	4045
2026-01-29 01:56:18.64	318.28	52.69	-43.8	-45.0	22.1	0.00e+00	0	42	0	701497344	58	4317
2026-01-29 01:56:19.65	317.59	52.73	-44.2	-45.5	21.7	0.00e+00	0	42	0	703594496	59	4338
2026-01-29 01:56:20.66	316.89	52.77	-44.4	-45.7	21.5	0.00e+00	0	42	0	705691648	59	4396
2026-01-29 01:56:21.67	316.18	52.80	-44.2	-45.5	21.8	0.00e+00	0	42	0	706740224	59	4296
2026-01-29 01:56:22.67	315.49	52.83	-44.0	-45.2	21.9	0.00e+00	0	42	0	708837376	59	4171
2026-01-29 01:56:23.68	314.78	52.86	-44.0	-45.2	21.8	0.00e+00	0	42	0	710934528	59	4164
2026-01-29 01:56:24.70	314.07	52.88	-44.1	-45.4	21.7	0.00e+00	0	42	0	713031680	59	4260
2026-01-29 01:56:25.71	313.36	52.89	-44.5	-45.8	21.4	0.00e+00	0	42	0	715128832	59	4469
2026-01-29 01:56:26.71	312.66	52.90	-43.9	-45.1	21.9	0.00e+00	0	42	0	716177408	59	4136
2026-01-29 01:56:27.72	311.95	52.91	-43.6	-44.8	22.3	0.00e+00	0	42	0	718274560	58	4200
2026-01-29 01:56:28.73	311.24	52.91	-44.0	-45.3	21.8	0.00e+00	0	42	0	720371712	58	4448
2026-01-29 01:56:29.74	310.53	52.91	-44.4	-45.7	21.2	0.00e+00	0	42	0	722468864	60	4158
2026-01-29 01:56:30.74	309.83	52.90	-45.1	-46.6	20.5	0.00e+00	0	42	0	724566016	60	4613
2026-01-29 01:56:31.75	309.12	52.89	-45.1	-46.6	20.4	0.00e+00	0	42	0	725614592	60	4625
2026-01-29 01:56:32.76	308.42	52.88	-45.1	-46.6	20.4	0.00e+00	0	42	0	727711744	61	4358
2026-01-29 01:56:33.76	307.72	52.86	-44.4	-45.7	21.2	0.00e+00	0	42	0	729808896	60	4173
2026-01-29 01:56:34.77	307.01	52.83	-44.5	-45.8	21.3	0.00e+00	0	42	0	731906048	60	4201
2026-01-29 01:56:35.78	306.31	52.80	-44.6	-45.9	21.1	0.00e+00	0	42	0	734003200	60	4247
2026-01-29 01:56:36.79	305.60	52.77	-44.6	-45.9	21.0	0.00e+00	0	42	0	735051776	60	4281
2026-01-29 01:56:37.79	304.91	52.73	-45.1	-46.5	20.5	0.00e+00	0	42	0	737148928	60	4586
2026-01-29 01:56:38.80	304.21	52.69	-45.7	-47.4	19.7	0.00e+00	0	42	0	739246080	62	4507
2026-01-29 01:56:39.81	303.51	52.65	-45.5	-47.0	20.1	0.00e+00	0	42	0	741343232	62	4325
2026-01-29 01:56:40.81	302.83	52.59	-44.8	-46.1	20.9	0.00e+00	0	42	0	743440384	61	4139
2026-01-29 01:56:41.82	302.13	52.54	-44.5	-45.8	21.1	0.00e+00	0	42	0	744488960	60	4224
2026-01-29 01:56:42.83	301.45	52.48	-44.8	-46.2	20.8	0.00e+00	0	42	0	746586112	60	4420
2026-01-29 01:56:43.84	300.76	52.42	-45.0	-46.5	20.5	0.00e+00	0	42	0	748683264	61	4339
2026-01-29 01:56:44.85	300.08	52.35	-45.2	-46.8	20.4	0.00e+00	0	42	0	750780416	61	4453
2026-01-29 01:56:45.85	299.40	52.28	-44.5	-45.8	21.2	0.00e+00	0	42	0	752877568	60	4215
2026-01-29 01:56:46.86	298.72	52.20	-44.1	-45.3	21.9	0.00e+00	0	42	0	753926144	59	4203
2026-01-29 01:56:47.87	298.05	52.12	-43.2	-44.3	22.7	0.00e+00	0	42	0	756023296	58	3978
2026-01-29 01:56:48.88	297.38	52.04	-43.6	-44.8	22.4	0.00e+00	0	42	0	758120448	58	4196
2026-01-29 01:56:49.89	296.72	51.95	-44.2	-45.5	21.8	0.00e+00	0	42	0	760217600	58	4552
2026-01-29 01:56:50.90	296.05	51.86	-44.4	-45.7	21.1	0.00e+00	0	42	0	762314752	60	4187
2026-01-29 01:56:51.90	295.40	51.77	-44.5	-45.8	21.2	0.00e+00	0	42	0	763363328	60	4204
2026-01-29 01:56:52.91	294.75	51.67	-44.5	-45.8	21.2	0.00e+00	0	42	0	765460480	60	4225
2026-01-29 01:56:53.92	294.10	51.56	-44.6	-45.9	21.1	0.00e+00	0	42	0	767557632	60	4276
2026-01-29 01:56:54.93	293.46	51.46	-44.5	-45.8	21.3	0.00e+00	0	42	0	769654784	60	4242
2026-01-29 01:56:55.94	292.82	51.35	-45.0	-46.4	20.9	0.00e+00	0	42	0	771751936	60	4508
2026-01-29 01:56:56.95	292.18	51.24	-45.7	-47.2	20.1	0.00e+00	0	42	0	772800512	62	4410
2026-01-29 01:56:57.95	291.56	51.12	-45.6	-47.0	20.3	0.00e+00	0	42	0	774897664	62	4337
2026-01-29 01:56:58.96	290.93	51.00	-45.3	-46.6	20.6	0.00e+00	0	42	0	776994816	62	4110
2026-01-29 01:56:59.97	290.31	50.88	-44.6	-45.9	21.4	0.00e+00	0	42	0	779091968	61	4005
2026-01-29 01:57:00.98	289.70	50.75	-44.8	-46.0	21.2	0.00e+00	0	42	0	781189120	61	4076
2026-01-29 01:57:01.98	289.09	50.62	-45.2	-46.5	20.8	0.00e+00	0	42	0	782237696	61	4305
2026-01-29 01:57:02.99	288.49	50.49	-46.0	-47.5	19.9	0.00e+00	0	42	0	784334848	62	4596
2026-01-29 01:57:04.00	287.89	50.35	-47.2	-49.2	18.4	0.00e+00	0	42	0	786432000	64	4932
2026-01-29 01:57:05.01	287.29	50.22	-47.6	-49.6	17.9	0.00e+00	0	42	0	788529152	65	4897
2026-01-29 01:57:06.01	286.71	50.08	-47.7	-49.7	17.8	0.00e+00	0	42	0	790626304	66	4701
2026-01-29 01:57:07.02	286.13	49.93	-47.1	-49.0	18.5	0.00e+00	0	42	0	791674880	66	4322
2026-01-29 01:57:08.03	285.55	49.79	-46.7	-48.4	19.0	0.00e+00	0	42	0	793772032	65	4252
2026-01-29 01:57:09.04	284.98	49.64	-46.0	-47.5	19.8	0.00e+00	0	42	0	795869184	64	4085
2026-01-29 01:57:10.05	284.41	49.48	-46.2	-47.7	19.7	0.00e+00	0	42	0	797966336	63	4413
2026-01-29 01:57:11.05	283.86	49.33	-46.5	-48.1	19.3	0.00e+00	0	42	0	800063488	63	4636
2026-01-29 01:57:12.06	283.30	49.18	-46.5	-48.0	19.3	0.00e+00	0	42	0	801112064	63	4588
2026-01-29 01:57:13.07	282.75	49.02	-46.8	-48.5	18.9	0.00e+00	0	42	0	803209216	64	4546
2026-01-29 01:57:14.08	282.21	48.86	-47.1	-48.9	18.5	0.00e+00	0	42	0	805306368	64	4776
2026-01-29 01:57:15.09	281.67	48.69	-47.4	-49.3	18.0	0.00e+00	0	42	0	807403520	65	4733
2026-01-29 01:57:16.10	281.14	48.53	-47.1	-48.9	18.5	0.00e+00	0	42	0	809500672	65	4504
2026-01-29 01:57:17.10	280.62	48.36	-46.6	-48.2	19.1	0.00e+00	0	42	0	811597824	65	4171
2026-01-29 01:57:18.11	280.10	48.19	-46.4	-47.9	19.4	0.00e+00	0	42	0	812646400	64	4286
2026-01-29 01:57:19.12	279.58	48.02	-46.5	-48.1	19.2	0.00e+00	0	42	0	814743552	64	4368
2026-01-29 01:57:20.13	279.07	47.85	-46.8	-48.5	18.9	0.00e+00	0	42	0	816840704	64	4576
2026-01-29 01:57:21.14	278.57	47.67	-46.8	-48.5	18.9	0.00e+00	0	42	0	818937856	64	4547
2026-01-29 01:57:22.15	278.07	47.50	-46.4	-47.9	19.4	0.00e+00	0	42	0	819986432	64	4279
2026-01-29 01:57:23.16	277.58	47.32	-46.2	-47.6	19.7	0.00e+00	0	42	0	822083584	64	4126
2026-01-29 01:57:24.17	277.09	47.14	-46.8	-48.5	18.9	0.00e+00	0	42	0	824180736	64	4550
2026-01-29 01:57:25.17	276.62	46.96	-46.4	-48.0	19.4	0.00e+00	0	42	0	826277888	64	4297
2026-01-29 01:57:26.18	276.14	46.78	-46.7	-48.4	18.9	0.00e+00	0	42	0	828375040	64	4521
2026-01-29 01:57:27.19	275.67	46.59	-47.3	-49.2	18.3	0.00e+00	0	42	0	830472192	65	4659
2026-01-29 01:57:28.20	275.21	46.41	-48.6	-51.0	16.6	0.00e+00	0	42	0	831520768	67	5104
2026-01-29 01:57:29.20	274.75	46.23	-48.1	-50.3	17.3	0.00e+00	0	42	0	833617920	67	4712
2026-01-29 01:57:30.21	274.30	46.04	-47.3	-49.1	18.4	0.00e+00	0	42	0	835715072	66	4360
2026-01-29 01:57:31.21	273.86	45.85	-46.6	-48.1	19.3	0.00e+00	0	42	0	837812224	65	4133
2026-01-29 01:57:32.22	273.41	45.66	-45.5	-46.8	20.6	0.00e+00	0	42	0	839909376	63	4004
2026-01-29 01:57:33.23	272.98	45.47	-45.5	-46.8	20.7	0.00e+00	0	42	0	840957952	62	4220
2026-01-29 01:57:34.24	272.54	45.28	-46.0	-47.5	20.0	0.00e+00	0	42	0	843055104	62	4547
2026-01-29 01:57:35.24	272.12	45.09	-46.7	-48.3	19.2	0.00e+00	0	42	0	845152256	64	4464
2026-01-29 01:57:36.25	271.70	44.90	-47.2	-49.0	18.5	0.00e+00	0	42	0	847249408	65	4549
2026-01-29 01:57:37.25	271.29	44.70	-47.2	-48.9	18.6	0.00e+00	0	42	0	848297984	65	4521
2026-01-29 01:57:38.26	270.88	44.51	-48.1	-50.2	17.4	0.00e+00	0	42	0	850395136	66	4977
2026-01-29 01:57:39.27	270.47	44.31	-48.3	-50.5	17.0	0.00e+00	0	42	0	852492288	67	4830
2026-01-29 01:57:40.28	270.07	44.12	-47.8	-49.8	17.6	0.00e+00	0	42	0	854589440	67	4465
2026-01-29 01:57:41.28	269.67	43.92	-47.6	-49.4	18.1	0.00e+00	0	42	0	856686592	66	4528
2026-01-29 01:57:42.28	269.29	43.73	-47.5	-49.4	18.1	0.00e+00	0	42	0	857735168	66	4503
2026-01-29 01:57:43.29	268.90	43.53	-47.6	-49.5	18.0	0.00e+00	0	42	0	859832320	66	4550
2026-01-29 01:57:44.29	268.52	43.34	-48.5	-50.7	16.7	0.00e+00	0	42	0	861929472	67	4981
2026-01-29 01:57:45.30	268.14	43.14	-49.0	-51.6	16.1	0.00e+00	0	42	0	864026624	68	5160
2026-01-29 01:57:46.31	267.77	42.94	-49.0	-51.6	16.0	0.00e+00	0	42	0	866123776	69	4873
2026-01-29 01:57:47.32	267.40	42.74	-48.9	-51.4	16.1	0.00e+00	0	42	0	868220928	69	4780
2026-01-29 01:57:48.33	267.04	42.54	-48.4	-50.6	16.9	0.00e+00	0	42	0	869269504	68	4623
2026-01-29 01:57:49.34	266.68	42.34	-47.8	-49.8	17.6	0.00e+00	0	42	0	871366656	67	4467
2026-01-29 01:57:50.34	266.33	42.14	-47.1	-48.8	18.6	0.00e+00	0	42	0	873463808	66	4199
2026-01-29 01:57:51.35	265.98	41.94	-46.9	-48.6	18.7	0.00e+00	0	42	0	875560960	65	4357
2026-01-29 01:57:52.36	265.63	41.74	-46.6	-48.2	19.1	0.00e+00	0	42	0	876609536	65	4154
2026-01-29 01:57:53.37	265.29	41.54	-47.0	-48.7	18.6	0.00e+00	0	42	0	878706688	64	4666
2026-01-29 01:57:54.38	264.95	41.34	-47.7	-49.7	17.8	0.00e+00	0	42	0	880803840	65	4928
2026-01-29 01:57:55.39	264.62	41.14	-47.6	-49.6	17.8	0.00e+00	0	42	0	882900992	66	4634
2026-01-29 01:57:56.39	264.29	40.94	-47.9	-50.0	17.4	0.00e+00	0	42	0	884998144	66	4828
2026-01-29 01:57:57.40	263.97	40.74	-48.5	-50.9	16.5	0.00e+00	0	42	0	887095296	67	5089
2026-01-29 01:57:58.41	263.65	40.54	-48.6	-51.1	16.4	0.00e+00	0	42	0	888143872	67	5160
2026-01-29 01:57:59.42	263.33	40.34	-48.1	-50.2	17.2	0.00e+00	0	42	0	890241024	67	4697
2026-01-29 01:58:00.42	263.02	40.15	-47.5	-49.4	17.9	0.00e+00	0	42	0	892338176	66	4507
2026-01-29 01:58:01.44	262.71	39.94	-47.4	-49.2	18.1	0.00e+00	0	42	0	894435328	66	4440
2026-01-29 01:58:02.45	262.40	39.75	-47.9	-49.9	17.5	0.00e+00	0	42	0	896532480	66	4813
2026-01-29 01:58:03.45	262.10	39.55	-48.8	-51.4	16.0	0.00e+00	0	42	0	897581056	68	5076
2026-01-29 01:58:04.46	261.80	39.35	-49.9	-53.3	14.2	0.00e+00	0	42	0	899678208	70	5619
2026-01-29 01:58:05.47	261.51	39.15	-50.1	-53.6	13.8	3.80e-06	0	42	0	901775360	70	5819
2026-01-29 01:58:06.48	261.22	38.95	-50.0	-53.5	13.9	6.10e-06	0	42	0	903872512	71	5429
2026-01-29 01:58:07.49	260.93	38.75	-50.1	-53.7	13.6	1.50e-06	0	42	0	904921088	71	5571
2026-01-29 01:58:08.50	260.65	38.56	-50.2	-53.9	13.7	7.00e-07	0	42	0	907018240	71	5664
2026-01-29 01:58:09.50	260.37	38.36	-50.0	-53.5	13.9	2.20e-06	0	42	0	909115392	71	5435
2026-01-29 01:58:10.50	260.10	38.17	-50.0	-53.4	14.1	2.20e-06	0	42	0	911212544	71	5356
2026-01-29 01:58:11.51	259.82	37.97	-49.4	-52.3	15.1	0.00e+00	0	42	0	913309696	70	5026
2026-01-29 01:58:12.52	259.55	37.77	-49.2	-51.9	15.4	0.00e+00	0	42	0	915406848	70	4793
2026-01-29 01:58:13.53	259.28	37.58	-48.6	-51.0	16.4	0.00e+00	0	42	0	916455424	69	4560
2026-01-29 01:58:14.53	259.02	37.38	-48.2	-50.3	17.0	0.00e+00	0	42	0	918552576	68	4484
2026-01-29 01:58:15.54	258.76	37.19	-47.4	-49.2	18.0	0.00e+00	0	42	0	920649728	66	4438
2026-01-29 01:58:16.55	258.50	36.99	-47.2	-49.0	18.2	0.00e+00	0	42	0	922746880	66	4327
2026-01-29 01:58:17.56	258.25	36.80	-46.4	-48.0	19.1	0.00e+00	0	42	0	924844032	64	4300
2026-01-29 01:58:18.57	258.00	36.61	-46.1	-47.5	19.6	0.00e+00	0	42	0	925892608	64	4087
2026-01-29 01:58:19.57	257.75	36.41	-45.9	-47.3	19.9	0.00e+00	0	42	0	927989760	63	4197
2026-01-29 01:58:20.58	257.51	36.22	-46.4	-47.9	19.4	0.00e+00	0	42	0	930086912	63	4533
2026-01-29 01:58:21.59	257.26	36.03	-46.5	-48.1	19.1	0.00e+00	0	42	0	932184064	63	4604
2026-01-29 01:58:22.60	257.02	35.84	-47.2	-49.0	18.2	0.00e+00	0	42	0	934281216	65	4590
2026-01-29 01:58:23.61	256.79	35.65	-47.9	-50.0	17.3	0.00e+00	0	42	0	935329792	66	4841
2026-01-29 01:58:24.62	256.55	35.46	-48.4	-50.8	16.6	0.00e+00	0	42	0	937426944	67	4995
2026-01-29 01:58:25.63	256.32	35.27	-48.9	-51.4	16.1	0.00e+00	0	42	0	939524096	68	5070
2026-01-29 01:58:26.63	256.09	35.08	-49.3	-52.1	15.3	0.00e+00	0	42	0	941621248	69	5200
2026-01-29 01:58:27.64	255.87	34.89	-49.4	-52.2	15.2	0.00e+00	0	42	0	943718400	69	5267
2026-01-29 01:58:28.65	255.64	34.70	-49.4	-52.2	15.2	0.00e+00	0	42	0	944766976	69	5237
2026-01-29 01:58:29.66	255.42	34.52	-49.1	-51.8	15.5	0.00e+00	0	42	0	946864128	69	5015
2026-01-29 01:58:30.67	255.21	34.33	-48.6	-51.0	16.4	0.00e+00	0	42	0	948961280	68	4859
2026-01-29 01:58:31.68	254.99	34.14	-48.3	-50.6	16.8	0.00e+00	0	42	0	951058432	68	4615
2026-01-29 01:58:32.68	254.78	33.96	-47.8	-49.8	17.5	0.00e+00	0	42	0	953155584	67	4449
2026-01-29 01:58:33.69	254.57	33.78	-47.5	-49.4	17.9	0.00e+00	0	42	0	955252736	67	4290
2026-01-29 01:58:34.70	254.36	33.59	-47.2	-49.0	18.2	0.00e+00	0	42	0	956301312	66	4319
2026-01-29 01:58:35.71	254.15	33.41	-47.7	-49.6	17.6	0.00e+00	0	42	0	958398464	66	4621
2026-01-29 01:58:36.72	253.95	33.23	-48.0	-50.1	17.2	0.00e+00	0	42	0	960495616	66	4914
2026-01-29 01:58:37.73	253.75	33.04	-48.1	-50.1	17.1	0.00e+00	0	42	0	962592768	67	4641
2026-01-29 01:58:38.73	253.55	32.86	-48.5	-50.8	16.5	0.00e+00	0	42	0	963641344	67	5012
2026-01-29 01:58:39.74	253.35	32.68	-49.2	-51.9	15.6	0.00e+00	0	42	0	965738496	69	5053
2026-01-29 01:58:40.75	253.16	32.50	-48.8	-51.2	16.1	0.00e+00	0	42	0	967835648	69	4703
2026-01-29 01:58:41.75	252.97	32.33	-48.8	-51.2	16.2	0.00e+00	0	42	0	969932800	69	4700
2026-01-29 01:58:42.76	252.78	32.15	-48.1	-50.1	17.2	0.00e+00	0	42	0	972029952	68	4386
2026-01-29 01:58:43.77	252.59	31.97	-47.3	-49.1	18.1	0.00e+00	0	42	0	973078528	66	4357
2026-01-29 01:58:44.78	252.40	31.79	-46.7	-48.3	18.8	0.00e+00	0	42	0	975175680	65	4222
2026-01-29 01:58:45.78	252.22	31.62	-46.5	-48.0	19.1	0.00e+00	0	42	0	977272832	64	4338
2026-01-29 01:58:46.79	252.04	31.44	-46.1	-47.6	19.5	0.00e+00	0	42	0	979369984	64	4125
2026-01-29 01:58:47.79	251.86	31.27	-46.5	-48.0	19.1	0.00e+00	0	42	0	981467136	64	4326
2026-01-29 01:58:48.80	251.68	31.09	-47.0	-48.7	18.5	0.00e+00	0	42	0	983564288	64	4678
2026-01-29 01:58:49.81	251.50	30.92	-47.8	-49.7	17.5	0.00e+00	0	42	0	984612864	66	4689
2026-01-29 01:58:50.82	251.33	30.75	-48.2	-50.3	16.9	0.00e+00	0	42	0	986710016	67	4748
2026-01-29 01:58:51.83	251.16	30.58	-48.3	-50.5	16.8	0.00e+00	0	42	0	988807168	67	4864
2026-01-29 01:58:52.83	250.99	30.41	-47.8	-49.8	17.4	0.00e+00	0	42	0	990904320	67	4457
2026-01-29 01:58:53.84	250.82	30.24	-47.8	-49.7	17.4	0.00e+00	0	42	0	991952896	67	4439
2026-01-29 01:58:54.84	250.65	30.07	-47.4	-49.2	18.0	0.00e+00	0	42	0	994050048	66	4441
2026-01-29 01:58:55.85	250.49	29.90	-47.4	-49.2	18.0	0.00e+00	0	42	0	996147200	66	4430
2026-01-29 01:58:56.86	250.32	29.73	-47.8	-49.8	17.4	0.00e+00	0	42	0	998244352	66	4736
2026-01-29 01:58:57.86	250.16	29.56	-47.4	-49.3	17.9	0.00e+00	0	42	0	1000341504	66	4448
2026-01-29 01:58:58.87	250.00	29.40	-47.4	-49.3	17.8	0.00e+00	0	42	0	1001390080	66	4493
2026-01-29 01:58:59.88	249.84	29.23	-47.2	-49.0	18.1	0.00e+00	0	42	0	1003487232	66	4326
2026-01-29 01:59:00.89	249.69	29.06	-47.0	-48.7	18.4	0.00e+00	0	42	0	1005584384	66	4172
2026-01-29 01:59:01.90	249.53	28.90	-46.1	-47.6	19.5	0.00e+00	0	42	0	1007681536	63	4356
2026-01-29 01:59:02.90	249.38	28.74	-45.8	-47.1	19.9	0.00e+00	0	42	0	1009778688	63	4135
2026-01-29 01:59:03.91	249.23	28.57	-45.8	-47.1	19.9	0.00e+00	0	42	0	1011875840	63	4134
2026-01-29 01:59:04.92	249.08	28.41	-45.9	-47.4	19.7	0.00e+00	0	42	0	1012924416	63	4250
2026-01-29 01:59:05.93	248.93	28.25	-46.2	-47.7	19.4	0.00e+00	0	42	0	1015021568	63	4424
2026-01-29 01:59:06.93	248.78	28.09	-46.2	-47.7	19.4	0.00e+00	0	42	0	1017118720	63	4421
2026-01-29 01:59:07.94	248.64	27.93	-46.4	-48.0	19.1	0.00e+00	0	42	0	1019215872	64	4320
2026-01-29 01:59:08.94	248.49	27.77	-46.3	-47.9	19.1	0.00e+00	0	42	0	1020264448	64	4268
2026-01-29 01:59:09.95	248.35	27.61	-46.7	-48.3	18.8	0.00e+00	0	42	0	1022361600	64	4492
2026-01-29 01:59:10.96	248.21	27.45	-46.7	-48.4	18.7	0.00e+00	0	42	0	1024458752	64	4523
2026-01-29 01:59:11.97	248.07	27.30	-47.1	-48.9	18.2	0.00e+00	0	42	0	1026555904	64	4768
2026-01-29 01:59:12.97	247.93	27.14	-47.5	-49.5	17.6	0.00e+00	0	42	0	1028653056	65	4838
2026-01-29 01:59:13.98	247.79	26.98	-48.1	-50.4	16.7	0.00e+00	0	42	0	1029701632	66	5057
2026-01-29 01:59:14.99	247.66	26.83	-48.3	-50.7	16.5	0.00e+00	0	42	0	1031798784	67	4937
2026-01-29 01:59:16.00	247.52	26.67	-48.7	-51.2	16.1	0.00e+00	0	42	0	1033895936	67	5230
2026-01-29 01:59:17.00	247.39	26.52	-48.5	-50.9	16.2	0.00e+00	0	42	0	1035993088	67	5084
2026-01-29 01:59:18.01	247.26	26.37	-48.0	-50.1	17.0	0.00e+00	0	42	0	1038090240	67	4639
2026-01-29 01:59:19.02	247.13	26.21	-47.7	-49.7	17.4	0.00e+00	0	42	0	1040187392	67	4395
2026-01-29 01:59:20.02	247.00	26.06	-47.6	-49.5	17.5	0.00e+00	0	42	0	1041235968	66	4589
2026-01-29 01:59:21.03	246.87	25.91	-47.4	-49.3	17.8	0.00e+00	0	42	0	1043333120	66	4477
2026-01-29 01:59:22.03	246.74	25.76	-47.0	-48.8	18.2	0.00e+00	0	42	0	1045430272	65	4479
2026-01-29 01:59:23.03	246.62	25.61	-46.9	-48.6	18.4	0.00e+00	0	42	0	1047527424	65	4388
2026-01-29 01:59:24.04	246.50	25.47	-46.6	-48.2	18.8	0.00e+00	0	42	0	1048576000	65	4189
2026-01-29 01:59:25.04	246.37	25.32	-46.2	-47.8	19.2	0.00e+00	0	42	0	1050673152	64	4194
2026-01-29 01:59:26.05	246.25	25.17	-46.0	-47.5	19.5	0.00e+00	0	42	0	1052770304	63	4333
2026-01-29 01:59:27.06	246.13	25.02	-46.0	-47.5	19.5	0.00e+00	0	42	0	1054867456	63	4297
2026-01-29 01:59:28.07	246.01	24.88	-45.9	-47.3	19.7	0.00e+00	0	42	0	1056964608	63	4220
2026-01-29 01:59:29.08	245.89	24.73	-46.0	-47.5	19.6	0.00e+00	0	42	0	1058013184	63	4306
2026-01-29 01:59:30.09	245.77	24.58	-46.3	-47.8	19.3	0.00e+00	0	42	0	1060110336	63	4452
2026-01-29 01:59:31.09	245.66	24.44	-46.6	-48.2	18.8	0.00e+00	0	42	0	1062207488	64	4432
2026-01-29 01:59:32.10	245.54	24.30	-47.0	-48.8	18.3	0.00e+00	0	42	0	1064304640	64	4717
2026-01-29 01:59:33.11	245.43	24.15	-47.0	-48.8	18.3	0.00e+00	0	42	0	1066401792	64	4709
2026-01-29 01:59:34.11	245.32	24.01	-47.2	-49.0	18.1	0.00e+00	0	42	0	1068498944	65	4563
2026-01-29 01:59:35.12	245.20	23.87	-46.9	-48.6	18.4	0.00e+00	0	42	0	1069547520	65	4382
2026-01-29 01:59:36.13	245.09	23.73	-46.7	-48.4	18.7	0.00e+00	0	42	0	1071644672	65	4245
2026-01-29 01:59:37.14	244.98	23.59	-46.4	-47.9	19.0	0.00e+00	0	42	0	1073741824	64	4280
2026-01-29 01:59:38.15	244.87	23.45	-46.4	-47.9	19.1	0.00e+00	0	42	0	1075838976	64	4260
2026-01-29 01:59:39.16	244.76	23.31	-46.2	-47.7	19.3	0.00e+00	0	42	0	1076887552	64	4148
2026-01-29 01:59:40.17	244.66	23.17	-46.1	-47.5	19.5	0.00e+00	0	42	0	1078984704	63	4310
2026-01-29 01:59:41.18	244.55	23.03	-46.1	-47.5	19.5	0.00e+00	0	42	0	1081081856	63	4292
2026-01-29 01:59:42.18	244.45	22.90	-46.0	-47.4	19.6	0.00e+00	0	42	0	1083179008	63	4273
2026-01-29 01:59:43.19	244.34	22.76	-45.8	-47.2	19.7	0.00e+00	0	42	0	1085276160	63	4163
2026-01-29 01:59:44.20	244.24	22.62	-45.8	-47.2	19.8	0.00e+00	0	42	0	1087373312	63	4154
2026-01-29 01:59:45.21	244.14	22.49	-45.8	-47.2	19.8	0.00e+00	0	42	0	1088421888	63	4171
2026-01-29 01:59:46.22	244.03	22.35	-45.8	-47.1	19.8	0.00e+00	0	42	0	1090519040	63	4129
2026-01-29 01:59:47.23	243.93	22.22	-45.7	-47.0	20.0	0.00e+00	0	42	0	1092616192	63	4071
2026-01-29 01:59:48.24	243.83	22.08	-45.9	-47.3	19.7	0.00e+00	0	42	0	1094713344	63	4217
2026-01-29 01:59:49.25	243.73	21.95	-46.0	-47.5	19.5	0.00e+00	0	42	0	1096810496	63	4300
2026-01-29 01:59:50.26	243.64	21.82	-46.3	-47.8	19.3	0.00e+00	0	42	0	1097859072	63	4451
2026-01-29 01:59:51.27	243.54	21.69	-46.5	-48.0	19.0	0.00e+00	0	42	0	1099956224	63	4592
2026-01-29 01:59:52.27	243.44	21.56	-46.7	-48.3	18.7	0.00e+00	0	42	0	1102053376	64	4487
2026-01-29 01:59:53.28	243.35	21.42	-46.8	-48.5	18.5	0.00e+00	0	42	0	1104150528	64	4546
2026-01-29 01:59:54.29	243.25	21.29	-46.9	-48.6	18.4	0.00e+00	0	42	0	1106247680	64	4604
2026-01-29 01:59:55.30	243.16	21.16	-47.0	-48.7	18.3	0.00e+00	0	42	0	1107296256	64	4654
2026-01-29 01:59:56.31	243.07	21.04	-47.0	-48.7	18.3	0.00e+00	0	42	0	1109393408	64	4657
2026-01-29 01:59:57.31	242.98	20.91	-46.6	-48.1	18.7	0.00e+00	0	42	0	1111490560	64	4382
2026-01-29 01:59:58.32	242.88	20.78	-46.3	-47.8	19.0	0.00e+00	0	42	0	1113587712	64	4219
2026-01-29 01:59:59.33	242.79	20.65	-46.1	-47.6	19.3	0.00e+00	0	42	0	1115684864	64	4102
2026-01-29 02:00:00.34	242.70	20.53	-46.2	-47.6	19.3	0.00e+00	0	42	0	1116733440	63	4378
2026-01-29 02:00:01.35	242.61	20.40	-46.0	-47.4	19.5	0.00e+00	0	42	0	1118830592	63	4272
2026-01-29 02:00:02.35	242.53	20.28	-46.0	-47.4	19.4	0.00e+00	0	42	0	1120927744	63	4284
2026-01-29 02:00:03.36	242.44	20.15	-46.0	-47.4	19.5	0.00e+00	0	42	0	1123024896	63	4282
2026-01-29 02:00:04.36	242.35	20.03	-46.0	-47.4	19.5	0.00e+00	0	42	0	1125122048	63	4278
2026-01-29 02:00:05.37	242.27	19.90	-46.2	-47.6	19.3	0.00e+00	0	42	0	1126170624	63	4374
2026-01-29 02:00:06.37	242.18	19.78	-46.2	-47.6	19.3	0.00e+00	0	42	0	1128267776	63	4378
2026-01-29 02:00:07.38	242.10	19.66	-46.4	-47.9	19.0	0.00e+00	0	42	0	1130364928	63	4521
2026-01-29 02:00:08.39	242.01	19.53	-46.3	-47.8	19.1	0.00e+00	0	42	0	1132462080	63	4468
2026-01-29 02:00:09.40	241.93	19.41	-46.5	-48.1	18.9	0.00e+00	0	42	0	1134559232	63	4608
2026-01-29 02:00:10.41	241.85	19.29	-46.5	-48.1	18.9	0.00e+00	0	42	0	1135607808	63	4611
2026-01-29 02:00:11.42	241.76	19.17	-46.5	-48.0	18.9	0.00e+00	0	42	0	1137704960	63	4571
2026-01-29 02:00:12.43	241.68	19.05	-46.6	-48.2	18.7	0.00e+00	0	42	0	1139802112	63	4672
2026-01-29 02:00:13.44	241.60	18.93	-46.6	-48.2	18.6	0.00e+00	0	42	0	1141899264	64	4424
2026-01-29 02:00:14.45	241.52	18.81	-46.4	-48.0	18.8	0.00e+00	0	42	0	1143996416	64	4304
2026-01-29 02:00:15.45	241.44	18.69	-46.5	-48.1	18.8	0.00e+00	0	42	0	1145044992	64	4346
2026-01-29 02:00:16.46	241.36	18.57	-46.2	-47.8	19.0	0.00e+00	0	42	0	1147142144	64	4194
2026-01-29 02:00:17.47	241.29	18.46	-46.3	-47.8	19.0	0.00e+00	0	42	0	1149239296	64	4240
2026-01-29 02:00:18.47	241.21	18.34	-46.0	-47.5	19.4	0.00e+00	0	42	0	1151336448	63	4300
2026-01-29 02:00:19.48	241.13	18.22	-45.8	-47.2	19.6	0.00e+00	0	42	0	1153433600	63	4169
2026-01-29 02:00:20.49	241.06	18.11	-45.4	-46.8	20.0	0.00e+00	0	42	0	1154482176	62	4201
2026-01-29 02:00:21.50	240.98	17.99	-45.5	-46.8	19.9	0.00e+00	0	42	0	1156579328	62	4242
2026-01-29 02:00:22.50	240.91	17.88	-45.3	-46.6	20.1	0.00e+00	0	42	0	1158676480	62	4134
2026-01-29 02:00:23.51	240.83	17.76	-45.3	-46.6	20.1	0.00e+00	0	42	0	1160773632	62	4139
2026-01-29 02:00:24.52	240.76	17.65	-45.3	-46.6	20.1	0.00e+00	0	42	0	1162870784	62	4135
2026-01-29 02:00:25.53	240.68	17.53	-45.1	-46.3	20.4	0.00e+00	0	42	0	1163919360	62	3999
2026-01-29 02:00:26.53	240.61	17.42	-45.0	-46.2	20.5	0.00e+00	0	42	0	1166016512	61	4177
2026-01-29 02:00:27.54	240.54	17.31	-45.3	-46.6	20.1	0.00e+00	0	42	0	1168113664	61	4343
2026-01-29 02:00:28.54	240.47	17.20	-45.2	-46.5	20.2	0.00e+00	0	42	0	1170210816	61	4328
2026-01-29 02:00:29.55	240.40	17.09	-45.4	-46.7	20.0	0.00e+00	0	42	0	1172307968	61	4414
2026-01-29 02:00:30.56	240.33	16.97	-45.8	-47.2	19.6	0.00e+00	0	42	0	1173356544	62	4408
2026-01-29 02:00:31.56	240.26	16.86	-45.8	-47.3	19.5	0.00e+00	0	42	0	1175453696	62	4453
2026-01-29 02:00:32.57	240.19	16.75	-46.1	-47.6	19.3	0.00e+00	0	42	0	1177550848	62	4634
2026-01-29 02:00:33.58	240.12	16.64	-46.5	-48.0	18.9	0.00e+00	0	42	0	1179648000	63	4597
2026-01-29 02:00:34.59	240.05	16.53	-46.6	-48.3	18.5	0.00e+00	0	42	0	1181745152	64	4457
2026-01-29 02:00:35.60	239.98	16.42	-46.9	-48.7	18.1	0.00e+00	0	42	0	1182793728	64	4666
2026-01-29 02:00:36.60	239.92	16.32	-47.3	-49.2	17.6	0.00e+00	0	42	0	1184890880	65	4691
2026-01-29 02:00:37.61	239.85	16.21	-47.4	-49.4	17.4	0.00e+00	0	42	0	1186988032	65	4761
2026-01-29 02:00:38.62	239.78	16.10	-47.5	-49.5	17.4	0.00e+00	0	42	0	1189085184	65	4831
2026-01-29 02:00:39.63	239.72	15.99	-47.8	-49.8	17.0	0.00e+00	0	42	0	1191182336	66	4758
2026-01-29 02:00:40.64	239.65	15.89	-47.8	-49.8	17.0	0.00e+00	0	42	0	1192230912	66	4740
2026-01-29 02:00:41.65	239.59	15.78	-48.0	-50.2	16.6	0.00e+00	0	42	0	1194328064	66	4968
2026-01-29 02:00:42.66	239.52	15.67	-48.1	-50.3	16.5	0.00e+00	0	42	0	1196425216	66	5023
2026-01-29 02:00:43.66	239.46	15.57	-47.9	-50.1	16.8	0.00e+00	0	42	0	1198522368	67	4611
2026-01-29 02:00:44.67	239.40	15.46	-47.9	-50.0	16.8	0.00e+00	0	42	0	1200619520	67	4593
2026-01-29 02:00:45.68	239.33	15.36	-47.7	-49.8	17.0	0.00e+00	0	42	0	1201668096	67	4456
2026-01-29 02:00:46.69	239.27	15.25	-47.6	-49.6	17.2	0.00e+00	0	42	0	1203765248	66	4630
2026-01-29 02:00:47.70	239.21	15.15	-47.4	-49.4	17.4	0.00e+00	0	42	0	1205862400	66	4500
2026-01-29 02:00:48.70	239.15	15.05	-47.4	-49.3	17.5	0.00e+00	0	42	0	1207959552	66	4474
2026-01-29 02:00:49.71	239.09	14.94	-47.2	-49.0	17.7	0.00e+00	0	42	0	1210056704	66	4325
2026-01-29 02:00:50.72	239.02	14.84	-46.9	-48.7	18.1	0.00e+00	0	42	0	1211105280	65	4399
2026-01-29 02:00:51.73	238.96	14.74	-47.2	-49.0	17.7	0.00e+00	0	42	0	1213202432	65	4574
2026-01-29 02:00:52.73	238.90	14.64	-47.0	-48.8	18.0	0.00e+00	0	42	0	1215299584	65	4447
2026-01-29 02:00:53.74	238.85	14.53	-47.0	-48.8	17.9	0.00e+00	0	42	0	1217396736	65	4461
2026-01-29 02:00:54.75	238.79	14.43	-46.9	-48.6	18.1	0.00e+00	0	42	0	1219493888	65	4371
2026-01-29 02:00:55.75	238.73	14.33	-46.9	-48.6	18.0	0.00e+00	0	42	0	1220542464	65	4375
2026-01-29 02:00:56.76	238.67	14.23	-46.9	-48.6	18.0	0.00e+00	0	42	0	1222639616	65	4386
2026-01-29 02:00:57.77	238.61	14.13	-46.8	-48.6	18.1	0.00e+00	0	42	0	1224736768	65	4361
2026-01-29 02:00:58.78	238.55	14.03	-46.9	-48.7	18.0	0.00e+00	0	42	0	1226833920	65	4426
2026-01-29 02:00:59.78	238.50	13.93	-47.0	-48.8	17.9	0.00e+00	0	42	0	1228931072	65	4468
