passes_logs/2026/01/29/R3.2S_Murmansk/R3.2S_Murmansk__20260129_092347_FENGYUN_3D_rec.log

#Pass ID: 20260129_092347_FENGYUN 3D
#Satellite: FENGYUN 3D
#Configuration: FENGYUN 3D
#almurnet v.1.7.20251203
#Start time: 2026-01-29 09:23:47

#Version: 2.2.20231116
#Station: R3.2S_Murmansk
#Location: 33.079688 lon 68.888172 lat
#TLE: 1 43010U 17072A   26028.95797775  .00000451  00000+0  23492-3 0  9991
#TLE: 2 43010  98.9958   0.9922 0002505  85.7480 274.3981 14.19703224425237

#Time	Az	El	Level	Level2	SNR	BER	BlckErr	Temp	State	Recorded	gain1	gain2
2026-01-29 09:23:47.40	101.81	2.00	-54.0	-65.9	3.8	8.46e-01	0	40	0	0	79	14310
2026-01-29 09:23:48.39	101.77	2.06	-53.9	-65.9	3.8	8.48e-01	0	40	104	0	78	15192
2026-01-29 09:23:49.40	101.72	2.12	-53.9	-65.9	3.8	8.47e-01	0	40	104	0	78	15147
2026-01-29 09:23:50.41	101.67	2.18	-54.0	-66.0	3.8	8.46e-01	0	40	104	0	78	15241
2026-01-29 09:23:51.42	101.63	2.25	-54.1	-66.1	3.8	8.47e-01	0	40	104	0	78	15495
2026-01-29 09:23:52.43	101.58	2.31	-54.2	-66.1	3.8	8.47e-01	0	40	104	0	78	15547
2026-01-29 09:23:53.44	101.54	2.37	-54.2	-66.1	3.8	8.47e-01	0	40	104	0	78	15553
2026-01-29 09:23:54.45	101.49	2.43	-54.2	-66.1	3.8	8.46e-01	0	40	104	0	78	15521
2026-01-29 09:23:55.45	101.44	2.49	-54.1	-66.1	3.8	8.46e-01	0	40	104	0	78	15449
2026-01-29 09:23:56.46	101.40	2.55	-54.1	-66.1	3.8	8.46e-01	0	40	104	0	78	15437
2026-01-29 09:23:57.47	101.35	2.62	-54.1	-66.0	3.8	8.46e-01	0	40	104	0	78	15319
2026-01-29 09:23:58.47	101.30	2.68	-54.0	-66.0	3.8	8.47e-01	0	40	104	0	78	15273
2026-01-29 09:23:59.48	101.25	2.74	-54.0	-65.9	3.8	8.45e-01	0	40	104	0	78	15165
2026-01-29 09:24:00.49	101.21	2.80	-53.9	-65.8	3.8	8.45e-01	0	40	104	0	78	15014
2026-01-29 09:24:01.50	101.16	2.87	-53.9	-65.8	3.8	8.48e-01	0	40	104	0	78	15017
2026-01-29 09:24:02.51	101.11	2.93	-53.8	-65.8	3.8	8.46e-01	0	40	104	0	78	15015
2026-01-29 09:24:03.52	101.06	2.99	-53.8	-65.8	3.8	8.46e-01	0	40	104	0	78	14922
2026-01-29 09:24:04.53	101.01	3.06	-53.7	-65.7	3.8	8.47e-01	0	40	104	0	78	14804
2026-01-29 09:24:05.54	100.96	3.12	-53.6	-65.6	3.8	8.46e-01	0	40	104	0	78	14571
2026-01-29 09:24:06.55	100.91	3.18	-53.5	-65.5	3.8	8.46e-01	0	40	104	0	78	14386
2026-01-29 09:24:07.56	100.86	3.25	-53.3	-65.3	3.8	8.47e-01	0	40	104	0	78	14098
2026-01-29 09:24:08.57	100.81	3.31	-53.2	-65.2	3.8	8.46e-01	0	40	104	0	78	13886
2026-01-29 09:24:09.57	100.77	3.37	-53.2	-65.1	3.8	8.46e-01	0	40	104	0	78	13850
2026-01-29 09:24:10.58	100.72	3.44	-53.1	-65.0	3.8	8.46e-01	0	40	104	0	78	13717
2026-01-29 09:24:11.59	100.66	3.50	-53.0	-65.0	3.8	8.47e-01	0	40	104	0	78	13623
2026-01-29 09:24:12.59	100.61	3.56	-53.0	-64.9	3.8	8.46e-01	0	41	104	0	78	13484
2026-01-29 09:24:13.60	100.56	3.63	-52.8	-64.8	3.8	8.46e-01	0	40	104	0	77	14075
2026-01-29 09:24:14.61	100.51	3.69	-52.7	-64.7	3.8	8.47e-01	0	40	104	0	77	13937
2026-01-29 09:24:15.62	100.46	3.76	-52.6	-64.6	3.8	8.46e-01	0	40	104	0	77	13736
2026-01-29 09:24:16.63	100.41	3.82	-52.4	-64.3	3.8	8.45e-01	0	41	104	0	76	14160
2026-01-29 09:24:17.64	100.36	3.89	-52.2	-64.1	3.8	8.46e-01	0	41	104	0	76	13881
2026-01-29 09:24:18.65	100.31	3.95	-52.1	-63.8	3.8	8.46e-01	0	41	104	0	76	13295
2026-01-29 09:24:19.66	100.25	4.02	-52.0	-63.3	3.8	8.46e-01	0	41	104	0	76	12604
2026-01-29 09:24:20.67	100.20	4.08	-51.9	-63.1	3.8	8.46e-01	0	41	104	0	75	12971
2026-01-29 09:24:21.68	100.15	4.15	-51.9	-62.8	3.8	8.47e-01	0	40	104	0	75	12551
2026-01-29 09:24:22.69	100.10	4.21	-51.9	-62.9	3.8	8.46e-01	0	41	104	0	75	12805
2026-01-29 09:24:23.69	100.04	4.28	-51.9	-63.0	3.8	8.47e-01	0	41	104	0	75	12942
2026-01-29 09:24:24.70	99.99	4.34	-51.9	-62.7	3.8	8.46e-01	0	40	104	0	75	12406
2026-01-29 09:24:25.71	99.94	4.41	-51.7	-61.2	4.0	8.45e-01	0	41	104	0	75	10531
2026-01-29 09:24:26.72	99.88	4.48	-51.4	-59.0	4.7	8.33e-01	0	41	0	0	74	8593
2026-01-29 09:24:27.72	99.83	4.54	-50.8	-56.7	6.1	4.91e-01	0	41	0	1048576	73	7027
2026-01-29 09:24:28.73	99.77	4.61	-50.1	-54.5	8.1	1.06e-01	0	41	0	6291456	72	5753
2026-01-29 09:24:29.74	99.72	4.67	-49.2	-52.6	10.1	1.24e-02	0	41	0	12582912	70	5188
2026-01-29 09:24:30.74	99.66	4.74	-48.3	-50.9	11.9	1.56e-03	0	41	0	17825792	68	4791
2026-01-29 09:24:31.74	99.61	4.81	-47.5	-49.8	12.9	1.25e-04	0	41	0	23068672	67	4481
2026-01-29 09:24:32.75	99.55	4.87	-46.5	-48.5	14.4	6.80e-06	0	41	0	29360128	65	4292
2026-01-29 09:24:33.76	99.50	4.94	-46.0	-47.7	15.1	0.00e+00	0	41	0	34603008	64	4166
2026-01-29 09:24:34.77	99.44	5.01	-45.8	-47.4	15.5	0.00e+00	0	41	0	39845888	63	4288
2026-01-29 09:24:35.78	99.38	5.07	-44.6	-45.9	17.1	0.00e+00	0	41	0	46137344	61	4034
2026-01-29 09:24:36.79	99.33	5.14	-48.3	-51.0	12.0	4.00e-05	0	41	0	51380224	67	5105
2026-01-29 09:24:37.80	99.27	5.21	-46.3	-48.1	15.0	3.40e-06	0	41	0	57671680	62	4871
2026-01-29 09:24:38.81	99.21	5.28	-42.7	-43.7	19.6	0.00e+00	0	41	0	62914560	57	3954
2026-01-29 09:24:39.81	99.16	5.34	-51.5	-59.5	4.8	1.48e-05	0	41	0	69206016	73	9631
2026-01-29 09:24:40.82	99.10	5.41	-43.0	-44.1	19.1	1.10e-06	0	41	0	70254592	58	3879
2026-01-29 09:24:41.83	99.04	5.48	-42.5	-43.5	19.8	0.00e+00	0	41	0	75497472	57	3866
2026-01-29 09:24:42.83	98.98	5.55	-42.7	-43.8	19.6	0.00e+00	0	41	0	81788928	57	3981
2026-01-29 09:24:43.84	98.92	5.62	-42.5	-43.5	19.8	0.00e+00	0	41	0	87031808	56	4077
2026-01-29 09:24:44.85	98.87	5.69	-42.3	-43.3	20.0	0.00e+00	0	41	0	92274688	56	3971
2026-01-29 09:24:45.85	98.81	5.75	-42.5	-43.6	19.7	0.00e+00	0	41	0	98566144	56	4117
2026-01-29 09:24:46.86	98.75	5.82	-42.5	-43.5	19.7	0.00e+00	0	41	0	103809024	56	4098
2026-01-29 09:24:47.87	98.69	5.89	-42.4	-43.5	19.8	0.00e+00	0	41	0	109051904	56	4061
2026-01-29 09:24:48.88	98.63	5.96	-42.3	-43.4	19.9	0.00e+00	0	41	0	115343360	56	4009
2026-01-29 09:24:49.89	98.57	6.03	-42.1	-43.2	20.1	0.00e+00	0	41	0	120586240	56	3919
2026-01-29 09:24:50.89	98.51	6.10	-42.1	-43.1	20.1	0.00e+00	0	41	0	125829120	56	3890
2026-01-29 09:24:51.90	98.45	6.17	-42.1	-43.1	20.1	0.00e+00	0	41	0	132120576	56	3913
2026-01-29 09:24:52.90	98.38	6.24	-42.0	-43.0	20.2	0.00e+00	0	41	0	138412032	56	3854
2026-01-29 09:24:53.91	98.32	6.31	-41.8	-42.7	20.4	0.00e+00	0	41	0	143654912	55	3958
2026-01-29 09:24:54.92	98.26	6.38	-42.0	-43.0	20.3	0.00e+00	0	41	0	148897792	55	4058
2026-01-29 09:24:55.92	98.20	6.45	-42.1	-43.1	20.1	0.00e+00	0	41	0	155189248	55	4109
2026-01-29 09:24:56.93	98.14	6.52	-41.8	-42.8	20.4	0.00e+00	0	41	0	160432128	55	3989
2026-01-29 09:24:57.94	98.07	6.59	-41.9	-42.9	20.3	0.00e+00	0	41	0	166723584	55	4026
2026-01-29 09:24:58.94	98.01	6.66	-41.9	-42.9	20.3	0.00e+00	0	41	0	171966464	55	4005
2026-01-29 09:24:59.95	97.95	6.73	-41.8	-42.7	20.4	0.00e+00	0	41	0	177209344	55	3954
2026-01-29 09:25:00.96	97.88	6.80	-41.7	-42.7	20.5	0.00e+00	0	41	0	183500800	55	3929
2026-01-29 09:25:01.97	97.82	6.87	-41.7	-42.6	20.5	0.00e+00	0	41	0	188743680	55	3904
2026-01-29 09:25:02.98	97.75	6.94	-41.7	-42.7	20.5	0.00e+00	0	41	0	193986560	55	3915
2026-01-29 09:25:03.99	97.69	7.02	-41.8	-42.7	20.4	0.00e+00	0	41	0	200278016	55	3955
2026-01-29 09:25:05.00	97.62	7.09	-41.6	-42.6	20.6	0.00e+00	0	41	0	205520896	55	3880
2026-01-29 09:25:06.01	97.56	7.16	-41.5	-42.5	20.7	0.00e+00	0	41	0	211812352	55	3847
2026-01-29 09:25:07.01	97.49	7.23	-41.7	-42.7	20.5	0.00e+00	0	41	0	217055232	55	3920
2026-01-29 09:25:08.02	97.43	7.30	-41.7	-42.6	20.5	0.00e+00	0	41	0	223346688	55	3912
2026-01-29 09:25:09.03	97.36	7.37	-41.7	-42.7	20.5	0.00e+00	0	41	0	228589568	55	3917
2026-01-29 09:25:10.04	97.29	7.45	-41.6	-42.6	20.6	0.00e+00	0	41	0	233832448	55	3878
2026-01-29 09:25:11.05	97.23	7.52	-41.7	-42.7	20.6	0.00e+00	0	41	0	240123904	55	3934
2026-01-29 09:25:12.06	97.16	7.59	-41.7	-42.7	20.5	0.00e+00	0	41	0	245366784	55	3943
2026-01-29 09:25:13.06	97.09	7.67	-41.7	-42.6	20.6	0.00e+00	0	41	0	251658240	55	3913
2026-01-29 09:25:14.07	97.02	7.74	-41.7	-42.7	20.5	0.00e+00	0	41	0	256901120	55	3944
2026-01-29 09:25:15.08	96.95	7.81	-41.7	-42.7	20.6	0.00e+00	0	41	0	262144000	55	3941
2026-01-29 09:25:16.09	96.88	7.89	-41.7	-42.7	20.5	0.00e+00	0	41	0	268435456	55	3937
2026-01-29 09:25:17.09	96.82	7.96	-41.6	-42.5	20.7	0.00e+00	0	41	0	273678336	55	3858
2026-01-29 09:25:18.10	96.75	8.03	-41.7	-42.7	20.6	0.00e+00	0	41	0	279969792	55	3915
2026-01-29 09:25:19.11	96.68	8.11	-41.7	-42.6	20.6	0.00e+00	0	41	0	285212672	55	3903
2026-01-29 09:25:20.12	96.61	8.18	-41.5	-42.4	20.8	0.00e+00	0	41	0	291504128	55	3817
2026-01-29 09:25:21.12	96.54	8.25	-41.5	-42.5	20.8	0.00e+00	0	41	0	296747008	54	4061
2026-01-29 09:25:22.13	96.46	8.33	-41.5	-42.5	20.7	0.00e+00	0	41	0	301989888	54	4071
2026-01-29 09:25:23.14	96.39	8.40	-41.5	-42.4	20.8	0.00e+00	0	41	0	308281344	54	4041
2026-01-29 09:25:24.15	96.32	8.48	-41.5	-42.5	20.8	0.00e+00	0	41	0	313524224	54	4073
2026-01-29 09:25:25.15	96.25	8.55	-41.6	-42.6	20.7	0.00e+00	0	41	0	318767104	54	4114
2026-01-29 09:25:26.16	96.18	8.63	-41.4	-42.4	20.9	0.00e+00	0	41	0	325058560	54	4022
2026-01-29 09:25:27.17	96.10	8.70	-41.4	-42.4	20.9	0.00e+00	0	41	0	330301440	54	4012
2026-01-29 09:25:28.17	96.03	8.78	-41.4	-42.3	20.9	0.00e+00	0	41	0	336592896	54	4000
2026-01-29 09:25:29.18	95.95	8.86	-41.4	-42.3	21.0	0.00e+00	0	41	0	341835776	54	3983
2026-01-29 09:25:30.19	95.88	8.93	-41.4	-42.3	21.0	0.00e+00	0	41	0	347078656	54	3995
2026-01-29 09:25:31.20	95.81	9.01	-41.3	-42.2	21.1	0.00e+00	0	41	0	353370112	54	3932
2026-01-29 09:25:32.21	95.73	9.08	-41.3	-42.2	21.1	0.00e+00	0	41	0	359661568	54	3922
2026-01-29 09:25:33.22	95.65	9.16	-41.2	-42.2	21.1	0.00e+00	0	41	0	364904448	54	3917
2026-01-29 09:25:34.23	95.58	9.24	-41.0	-41.9	21.3	0.00e+00	0	41	0	370147328	54	3821
2026-01-29 09:25:35.24	95.50	9.31	-41.1	-42.0	21.3	0.00e+00	0	41	0	376438784	54	3825
2026-01-29 09:25:36.25	95.42	9.39	-40.9	-41.8	21.5	0.00e+00	0	41	0	381681664	53	3976
2026-01-29 09:25:37.25	95.35	9.47	-41.0	-41.9	21.4	0.00e+00	0	41	0	386924544	53	4009
2026-01-29 09:25:38.26	95.27	9.55	-41.0	-41.9	21.3	0.00e+00	0	41	0	393216000	53	4036
2026-01-29 09:25:39.27	95.19	9.62	-41.0	-41.9	21.4	0.00e+00	0	41	0	398458880	53	4027
2026-01-29 09:25:40.28	95.11	9.70	-41.0	-41.9	21.4	0.00e+00	0	41	0	403701760	53	4030
2026-01-29 09:25:41.29	95.03	9.78	-41.1	-42.0	21.3	0.00e+00	0	41	0	409993216	53	4064
2026-01-29 09:25:42.30	94.95	9.86	-40.9	-41.8	21.5	0.00e+00	0	42	0	416284672	53	3992
2026-01-29 09:25:43.31	94.87	9.94	-41.0	-41.9	21.5	0.00e+00	0	41	0	421527552	53	4023
2026-01-29 09:25:44.32	94.79	10.02	-40.9	-41.8	21.6	0.00e+00	0	41	0	426770432	53	3960
2026-01-29 09:25:45.33	94.71	10.09	-40.9	-41.8	21.6	0.00e+00	0	41	0	433061888	53	3969
2026-01-29 09:25:46.34	94.63	10.17	-40.9	-41.8	21.5	0.00e+00	0	41	0	438304768	53	3985
2026-01-29 09:25:47.35	94.55	10.25	-40.9	-41.8	21.5	0.00e+00	0	41	0	444596224	53	3995
2026-01-29 09:25:48.36	94.47	10.33	-40.9	-41.8	21.5	0.00e+00	0	41	0	449839104	53	3970
2026-01-29 09:25:49.37	94.38	10.41	-40.9	-41.8	21.5	0.00e+00	0	41	0	455081984	53	3975
2026-01-29 09:25:50.38	94.30	10.49	-40.8	-41.7	21.6	0.00e+00	0	41	0	461373440	53	3942
2026-01-29 09:25:51.39	94.22	10.57	-40.9	-41.8	21.5	0.00e+00	0	41	0	466616320	53	3987
2026-01-29 09:25:52.40	94.13	10.65	-40.7	-41.6	21.8	0.00e+00	0	42	0	471859200	53	3877
2026-01-29 09:25:53.41	94.05	10.73	-40.8	-41.7	21.7	0.00e+00	0	41	0	478150656	53	3916
2026-01-29 09:25:54.42	93.96	10.81	-40.7	-41.6	21.7	0.00e+00	0	42	0	484442112	53	3909
2026-01-29 09:25:55.42	93.88	10.89	-40.5	-41.4	21.9	0.00e+00	0	41	0	489684992	53	3793
2026-01-29 09:25:56.43	93.79	10.97	-40.6	-41.5	21.9	0.00e+00	0	42	0	494927872	53	3832
2026-01-29 09:25:57.44	93.71	11.06	-40.7	-41.6	21.8	0.00e+00	0	41	0	501219328	53	3879
2026-01-29 09:25:58.45	93.62	11.14	-40.3	-41.2	22.1	0.00e+00	0	41	0	506462208	52	3944
2026-01-29 09:25:59.47	93.53	11.22	-40.4	-41.3	22.0	0.00e+00	0	41	0	511705088	52	3972
2026-01-29 09:26:00.47	93.44	11.30	-40.3	-41.2	22.1	0.00e+00	0	41	0	517996544	52	3941
2026-01-29 09:26:01.48	93.35	11.38	-40.3	-41.2	22.1	0.00e+00	0	42	0	523239424	52	3938
2026-01-29 09:26:02.49	93.27	11.47	-40.4	-41.3	22.1	0.00e+00	0	41	0	529530880	52	3965
2026-01-29 09:26:03.49	93.18	11.55	-40.5	-41.4	22.0	0.00e+00	0	41	0	534773760	52	4013
2026-01-29 09:26:04.50	93.09	11.63	-40.4	-41.3	22.1	0.00e+00	0	41	0	541065216	52	3973
2026-01-29 09:26:05.50	93.00	11.71	-40.3	-41.2	22.1	0.00e+00	0	41	0	546308096	52	3933
2026-01-29 09:26:06.52	92.90	11.80	-40.4	-41.3	22.0	0.00e+00	0	41	0	552599552	52	3984
2026-01-29 09:26:07.53	92.81	11.88	-40.5	-41.3	22.0	0.00e+00	0	42	0	557842432	52	3998
2026-01-29 09:26:08.53	92.72	11.96	-40.5	-41.3	22.0	0.00e+00	0	42	0	563085312	52	4004
2026-01-29 09:26:09.54	92.63	12.05	-40.6	-41.5	21.8	0.00e+00	0	42	0	569376768	52	4078
2026-01-29 09:26:10.55	92.54	12.13	-40.6	-41.5	21.9	0.00e+00	0	42	0	574619648	52	4065
2026-01-29 09:26:11.56	92.44	12.21	-40.7	-41.6	21.8	0.00e+00	0	41	0	579862528	52	4119
2026-01-29 09:26:12.56	92.35	12.30	-40.7	-41.6	21.8	0.00e+00	0	41	0	586153984	52	4137
2026-01-29 09:26:13.57	92.25	12.38	-40.6	-41.5	21.9	0.00e+00	0	41	0	591396864	52	4074
2026-01-29 09:26:14.58	92.16	12.47	-40.6	-41.5	21.9	0.00e+00	0	42	0	596639744	52	4093
2026-01-29 09:26:15.59	92.06	12.55	-40.6	-41.5	21.9	0.00e+00	0	41	0	602931200	52	4070
2026-01-29 09:26:16.60	91.96	12.64	-40.6	-41.5	21.9	0.00e+00	0	41	0	608174080	52	4088
2026-01-29 09:26:17.60	91.87	12.72	-40.4	-41.3	22.1	0.00e+00	0	42	0	614465536	52	3960
2026-01-29 09:26:18.61	91.77	12.81	-40.3	-41.2	22.2	0.00e+00	0	42	0	619708416	52	3942
2026-01-29 09:26:19.62	91.67	12.89	-40.3	-41.2	22.2	0.00e+00	0	41	0	625999872	52	3939
2026-01-29 09:26:20.63	91.57	12.98	-40.2	-41.1	22.3	0.00e+00	0	42	0	631242752	52	3886
2026-01-29 09:26:21.63	91.47	13.07	-40.1	-41.0	22.4	0.00e+00	0	42	0	637534208	52	3827
2026-01-29 09:26:22.64	91.37	13.15	-40.2	-41.0	22.4	0.00e+00	0	42	0	642777088	52	3860
2026-01-29 09:26:23.65	91.27	13.24	-40.1	-41.0	22.3	0.00e+00	0	42	0	648019968	52	3847
2026-01-29 09:26:24.66	91.17	13.33	-40.1	-40.9	22.4	0.00e+00	0	41	0	654311424	52	3820
2026-01-29 09:26:25.66	91.07	13.41	-40.1	-41.0	22.4	0.00e+00	0	42	0	659554304	52	3826
2026-01-29 09:26:26.67	90.97	13.50	-40.1	-40.9	22.4	0.00e+00	0	41	0	664797184	52	3815
2026-01-29 09:26:27.68	90.86	13.59	-40.1	-41.0	22.4	0.00e+00	0	41	0	671088640	52	3831
2026-01-29 09:26:28.69	90.76	13.67	-40.0	-40.8	22.5	0.00e+00	0	41	0	676331520	52	3779
2026-01-29 09:26:29.70	90.65	13.76	-40.0	-40.9	22.5	0.00e+00	0	42	0	681574400	52	3790
2026-01-29 09:26:30.71	90.55	13.85	-40.1	-41.0	22.4	0.00e+00	0	42	0	687865856	52	3828
2026-01-29 09:26:31.71	90.44	13.94	-40.0	-40.9	22.6	0.00e+00	0	42	0	694157312	51	4009
2026-01-29 09:26:32.73	90.34	14.03	-40.1	-40.9	22.6	0.00e+00	0	41	0	699400192	51	4038
2026-01-29 09:26:33.73	90.23	14.12	-40.1	-41.0	22.5	0.00e+00	0	42	0	704643072	51	4056
2026-01-29 09:26:34.75	90.12	14.21	-39.8	-40.7	22.8	0.00e+00	0	42	0	710934528	51	3926
2026-01-29 09:26:35.75	90.01	14.30	-39.9	-40.8	22.7	0.00e+00	0	42	0	716177408	51	3971
2026-01-29 09:26:36.76	89.90	14.38	-39.9	-40.8	22.7	0.00e+00	0	41	0	722468864	51	3972
2026-01-29 09:26:37.77	89.79	14.47	-39.9	-40.7	22.7	0.00e+00	0	42	0	727711744	51	3957
2026-01-29 09:26:38.77	89.68	14.56	-39.8	-40.6	22.8	0.00e+00	0	42	0	732954624	51	3904
2026-01-29 09:26:39.79	89.57	14.66	-39.8	-40.7	22.8	0.00e+00	0	41	0	739246080	51	3919
2026-01-29 09:26:40.80	89.46	14.75	-39.6	-40.5	23.0	0.00e+00	0	42	0	744488960	51	3831
2026-01-29 09:26:41.81	89.35	14.84	-39.6	-40.4	23.0	0.00e+00	0	42	0	750780416	51	3809
2026-01-29 09:26:42.81	89.24	14.93	-39.6	-40.4	23.0	0.00e+00	0	42	0	756023296	51	3805
2026-01-29 09:26:43.82	89.12	15.02	-39.8	-40.6	22.9	0.00e+00	0	42	0	762314752	51	3887
2026-01-29 09:26:44.82	89.01	15.11	-39.6	-40.4	23.0	0.00e+00	0	42	0	767557632	51	3812
2026-01-29 09:26:45.83	88.89	15.20	-39.7	-40.5	22.9	0.00e+00	0	42	0	772800512	51	3857
2026-01-29 09:26:46.84	88.78	15.29	-39.6	-40.5	23.0	0.00e+00	0	42	0	779091968	51	3825
2026-01-29 09:26:47.85	88.66	15.38	-39.8	-40.5	23.2	0.00e+00	0	42	0	784334848	51	3861
2026-01-29 09:26:48.85	88.54	15.48	-39.8	-40.6	23.1	0.00e+00	0	42	0	789577728	51	3898
2026-01-29 09:26:49.86	88.42	15.57	-39.8	-40.6	23.2	0.00e+00	0	42	0	795869184	51	3879
2026-01-29 09:26:50.87	88.30	15.66	-39.8	-40.6	23.2	0.00e+00	0	41	0	801112064	51	3882
2026-01-29 09:26:51.88	88.18	15.75	-39.7	-40.5	23.2	0.00e+00	0	41	0	807403520	51	3853
2026-01-29 09:26:52.89	88.06	15.85	-39.7	-40.4	23.3	0.00e+00	0	42	0	812646400	51	3824
2026-01-29 09:26:53.90	87.94	15.94	-39.6	-40.3	23.4	0.00e+00	0	42	0	817889280	51	3776
2026-01-29 09:26:54.90	87.82	16.03	-39.6	-40.4	23.4	0.00e+00	0	42	0	824180736	51	3792
2026-01-29 09:26:55.91	87.70	16.13	-39.7	-40.5	23.3	0.00e+00	0	42	0	830472192	51	3825
2026-01-29 09:26:56.92	87.57	16.22	-39.4	-40.2	23.5	0.00e+00	0	42	0	835715072	50	3937
2026-01-29 09:26:57.93	87.45	16.32	-39.5	-40.2	23.5	0.00e+00	0	42	0	840957952	50	3957
2026-01-29 09:26:58.94	87.32	16.41	-39.6	-40.4	23.4	0.00e+00	0	42	0	847249408	50	4026
2026-01-29 09:26:59.95	87.20	16.51	-39.4	-40.2	23.6	0.00e+00	0	42	0	852492288	50	3917
2026-01-29 09:27:00.95	87.07	16.60	-39.5	-40.2	23.5	0.00e+00	0	42	0	857735168	50	3958
2026-01-29 09:27:01.96	86.94	16.69	-39.6	-40.3	23.5	0.00e+00	0	42	0	864026624	50	3991
2026-01-29 09:27:02.97	86.81	16.79	-39.8	-40.5	23.3	0.00e+00	0	42	0	869269504	50	4096
2026-01-29 09:27:03.99	86.68	16.89	-39.6	-40.4	23.4	0.00e+00	0	42	0	874512384	50	4014
2026-01-29 09:27:04.99	86.55	16.98	-39.4	-40.1	23.7	0.00e+00	0	42	0	880803840	50	3895
2026-01-29 09:27:06.00	86.42	17.08	-39.1	-39.9	23.9	0.00e+00	0	42	0	887095296	50	3799
2026-01-29 09:27:07.01	86.29	17.17	-39.2	-40.0	23.8	0.00e+00	0	42	0	892338176	50	3832
2026-01-29 09:27:08.02	86.16	17.27	-39.3	-40.0	23.7	0.00e+00	0	42	0	897581056	50	3867
2026-01-29 09:27:09.02	86.02	17.37	-39.0	-39.7	24.0	0.00e+00	0	42	0	903872512	50	3731
2026-01-29 09:27:10.03	85.89	17.46	-38.9	-39.6	24.1	0.00e+00	0	42	0	909115392	49	3905
2026-01-29 09:27:11.04	85.75	17.56	-38.9	-39.6	24.1	0.00e+00	0	42	0	915406848	49	3887
2026-01-29 09:27:12.05	85.62	17.66	-38.9	-39.6	24.1	0.00e+00	0	42	0	920649728	49	3908
2026-01-29 09:27:13.06	85.48	17.76	-38.8	-39.5	24.2	0.00e+00	0	42	0	925892608	49	3851
2026-01-29 09:27:14.07	85.34	17.85	-38.9	-39.6	24.1	0.00e+00	0	42	0	932184064	49	3887
2026-01-29 09:27:15.07	85.20	17.95	-38.9	-39.7	24.1	0.00e+00	0	42	0	937426944	49	3920
2026-01-29 09:27:16.08	85.06	18.05	-38.9	-39.7	24.1	0.00e+00	0	42	0	942669824	49	3927
2026-01-29 09:27:17.08	84.92	18.15	-38.9	-39.6	24.1	0.00e+00	0	42	0	948961280	49	3903
2026-01-29 09:27:18.09	84.78	18.25	-38.9	-39.6	24.1	0.00e+00	0	42	0	954204160	49	3911
2026-01-29 09:27:19.10	84.64	18.34	-38.8	-39.5	24.2	0.00e+00	0	42	0	960495616	49	3852
2026-01-29 09:27:20.11	84.49	18.44	-38.9	-39.6	24.1	0.00e+00	0	42	0	965738496	49	3892
2026-01-29 09:27:21.12	84.35	18.54	-38.8	-39.5	24.2	0.00e+00	0	42	0	972029952	49	3865
2026-01-29 09:27:22.13	84.20	18.64	-38.8	-39.5	24.2	0.00e+00	0	42	0	977272832	49	3846
2026-01-29 09:27:23.13	84.06	18.74	-38.6	-39.4	24.4	0.00e+00	0	42	0	982515712	49	3787
2026-01-29 09:27:24.14	83.91	18.84	-38.7	-39.4	24.4	0.00e+00	0	42	0	988807168	49	3793
2026-01-29 09:27:25.15	83.76	18.94	-38.6	-39.4	24.4	0.00e+00	0	42	0	994050048	49	3781
2026-01-29 09:27:26.16	83.61	19.04	-38.6	-39.3	24.4	0.00e+00	0	42	0	1000341504	49	3773
2026-01-29 09:27:27.17	83.46	19.14	-38.5	-39.2	24.5	0.00e+00	0	42	0	1005584384	49	3728
2026-01-29 09:27:28.18	83.31	19.24	-38.5	-39.2	24.5	0.00e+00	0	42	0	1010827264	49	3725
2026-01-29 09:27:29.19	83.15	19.34	-38.5	-39.2	24.5	0.00e+00	0	42	0	1017118720	49	3719
2026-01-29 09:27:30.20	83.00	19.45	-38.5	-39.3	24.5	0.00e+00	0	42	0	1022361600	48	3959
2026-01-29 09:27:31.20	82.85	19.55	-38.7	-39.4	24.4	0.00e+00	0	42	0	1028653056	48	4019
2026-01-29 09:27:32.21	82.69	19.65	-38.6	-39.4	24.4	0.00e+00	0	42	0	1033895936	48	4005
2026-01-29 09:27:33.22	82.53	19.75	-38.7	-39.5	24.3	0.00e+00	0	42	0	1040187392	48	4065
2026-01-29 09:27:34.22	82.38	19.85	-38.7	-39.4	24.3	0.00e+00	0	42	0	1045430272	48	4048
2026-01-29 09:27:35.23	82.22	19.95	-38.5	-39.2	24.5	0.00e+00	0	42	0	1050673152	48	3958
2026-01-29 09:27:36.24	82.06	20.05	-38.4	-39.1	24.6	0.00e+00	0	42	0	1056964608	48	3903
2026-01-29 09:27:37.25	81.90	20.16	-38.4	-39.1	24.6	0.00e+00	0	42	0	1062207488	48	3888
2026-01-29 09:27:38.26	81.73	20.26	-38.4	-39.1	24.7	0.00e+00	0	42	0	1067450368	48	3901
2026-01-29 09:27:39.27	81.57	20.36	-38.2	-38.9	24.8	0.00e+00	0	42	0	1073741824	48	3787
2026-01-29 09:27:40.28	81.40	20.47	-38.2	-38.9	24.9	0.00e+00	0	42	0	1078984704	48	3785
2026-01-29 09:27:41.29	81.24	20.57	-38.1	-38.8	24.9	0.00e+00	0	42	0	1085276160	48	3762
2026-01-29 09:27:42.30	81.07	20.67	-38.0	-38.8	25.0	0.00e+00	0	42	0	1090519040	48	3739
2026-01-29 09:27:43.31	80.90	20.78	-38.1	-38.8	24.9	0.00e+00	0	42	0	1096810496	48	3755
2026-01-29 09:27:44.32	80.73	20.88	-38.2	-38.9	24.8	0.00e+00	0	42	0	1102053376	48	3795
2026-01-29 09:27:45.33	80.56	20.98	-38.1	-38.9	24.9	0.00e+00	0	42	0	1108344832	48	3781
2026-01-29 09:27:46.34	80.39	21.09	-38.2	-38.9	24.9	0.00e+00	0	42	0	1113587712	48	3802
2026-01-29 09:27:47.35	80.22	21.19	-38.3	-39.0	24.8	0.00e+00	0	42	0	1118830592	48	3840
2026-01-29 09:27:48.36	80.05	21.30	-38.4	-39.2	24.6	0.00e+00	0	42	0	1125122048	48	3917
2026-01-29 09:27:49.36	79.87	21.40	-38.4	-39.2	24.6	0.00e+00	0	42	0	1130364928	48	3921
2026-01-29 09:27:50.37	79.70	21.50	-38.5	-39.2	24.6	0.00e+00	0	42	0	1135607808	48	3932
2026-01-29 09:27:51.38	79.52	21.61	-38.4	-39.2	24.6	0.00e+00	0	42	0	1141899264	48	3926
2026-01-29 09:27:52.39	79.34	21.71	-38.3	-39.0	24.7	0.00e+00	0	42	0	1147142144	48	3866
2026-01-29 09:27:53.39	79.16	21.82	-38.2	-38.9	24.8	0.00e+00	0	42	0	1152385024	48	3806
2026-01-29 09:27:54.40	78.98	21.92	-38.2	-38.9	24.9	0.00e+00	0	42	0	1158676480	48	3803
2026-01-29 09:27:55.41	78.80	22.03	-38.2	-39.0	24.8	0.00e+00	0	42	0	1164967936	48	3835
2026-01-29 09:27:56.42	78.61	22.13	-38.2	-39.0	24.8	0.00e+00	0	42	0	1170210816	48	3827
2026-01-29 09:27:57.42	78.43	22.24	-38.0	-38.7	25.0	0.00e+00	0	42	0	1175453696	48	3732
2026-01-29 09:27:58.43	78.24	22.34	-38.0	-38.7	25.1	0.00e+00	0	42	0	1181745152	48	3705
2026-01-29 09:27:59.44	78.06	22.45	-38.0	-38.7	25.1	0.00e+00	0	42	0	1186988032	48	3712
2026-01-29 09:28:00.45	77.87	22.55	-37.6	-38.3	25.0	0.00e+00	0	42	0	1193279488	47	3768
2026-01-29 09:28:01.45	77.68	22.66	-37.6	-38.3	24.9	0.00e+00	0	42	0	1198522368	47	3780
2026-01-29 09:28:02.46	77.49	22.76	-37.5	-38.3	25.0	0.00e+00	0	42	0	1203765248	47	3742
2026-01-29 09:28:03.47	77.29	22.87	-37.7	-38.4	24.9	0.00e+00	0	42	0	1210056704	47	3802
2026-01-29 09:28:04.47	77.10	22.98	-37.7	-38.4	24.9	0.00e+00	0	41	0	1215299584	47	3794
2026-01-29 09:28:05.48	76.91	23.08	-37.7	-38.4	24.9	0.00e+00	0	42	0	1220542464	47	3793
2026-01-29 09:28:06.49	76.71	23.19	-37.7	-38.4	24.9	0.00e+00	0	42	0	1226833920	47	3794
2026-01-29 09:28:07.50	76.51	23.29	-37.6	-38.3	25.0	0.00e+00	0	42	0	1233125376	47	3775
2026-01-29 09:28:08.51	76.31	23.40	-37.6	-38.3	25.0	0.00e+00	0	42	0	1238368256	47	3762
2026-01-29 09:28:09.52	76.11	23.51	-37.6	-38.3	25.0	0.00e+00	0	41	0	1243611136	47	3760
2026-01-29 09:28:10.53	75.91	23.61	-37.5	-38.3	25.0	0.00e+00	0	42	0	1249902592	47	3741
2026-01-29 09:28:11.54	75.70	23.72	-37.4	-38.1	25.2	0.00e+00	0	42	0	1255145472	46	3895
2026-01-29 09:28:12.55	75.50	23.83	-37.4	-38.1	25.1	0.00e+00	0	42	0	1260388352	46	3908
2026-01-29 09:28:13.55	75.29	23.93	-37.4	-38.1	25.2	0.00e+00	0	42	0	1266679808	46	3903
2026-01-29 09:28:14.56	75.09	24.04	-37.3	-38.0	25.3	0.00e+00	0	42	0	1271922688	46	3830
2026-01-29 09:28:15.57	74.88	24.15	-37.2	-37.9	25.4	0.00e+00	0	42	0	1278214144	46	3788
2026-01-29 09:28:16.57	74.67	24.25	-37.2	-37.9	25.3	0.00e+00	0	42	0	1283457024	46	3814
2026-01-29 09:28:17.58	74.46	24.36	-37.2	-37.9	25.4	0.00e+00	0	42	0	1288699904	46	3814
2026-01-29 09:28:18.59	74.24	24.46	-37.3	-38.0	25.3	0.00e+00	0	42	0	1294991360	46	3845
2026-01-29 09:28:19.60	74.03	24.57	-37.4	-38.1	25.2	0.00e+00	0	42	0	1301282816	46	3880
2026-01-29 09:28:20.60	73.81	24.68	-37.4	-38.2	25.1	0.00e+00	0	42	0	1306525696	46	3923
2026-01-29 09:28:21.61	73.59	24.78	-37.5	-38.2	25.0	0.00e+00	0	42	0	1311768576	46	3955
2026-01-29 09:28:22.62	73.37	24.89	-37.3	-38.0	25.3	0.00e+00	0	42	0	1318060032	46	3863
2026-01-29 09:28:23.63	73.15	25.00	-37.2	-37.9	25.3	0.00e+00	0	42	0	1323302912	46	3821
2026-01-29 09:28:24.64	72.93	25.10	-37.2	-37.9	25.4	0.00e+00	0	42	0	1328545792	46	3808
2026-01-29 09:28:25.64	72.71	25.21	-37.2	-37.9	25.3	0.00e+00	0	42	0	1334837248	46	3822
2026-01-29 09:28:26.65	72.48	25.31	-37.2	-37.9	25.4	0.00e+00	0	42	0	1340080128	46	3788
2026-01-29 09:28:27.66	72.26	25.42	-36.9	-37.6	25.6	0.00e+00	0	42	0	1345323008	45	3892
2026-01-29 09:28:28.67	72.03	25.53	-36.9	-37.6	25.7	0.00e+00	0	42	0	1351614464	45	3881
2026-01-29 09:28:29.68	71.80	25.63	-37.1	-37.8	25.5	0.00e+00	0	42	0	1356857344	45	3976
2026-01-29 09:28:30.69	71.56	25.74	-37.1	-37.8	25.5	0.00e+00	0	42	0	1363148800	45	3977
2026-01-29 09:28:31.70	71.33	25.85	-37.0	-37.7	25.5	0.00e+00	0	42	0	1368391680	45	3955
2026-01-29 09:28:32.71	71.10	25.95	-37.0	-37.7	25.6	0.00e+00	0	42	0	1374683136	45	3927
2026-01-29 09:28:33.72	70.86	26.06	-36.9	-37.6	25.6	0.00e+00	0	42	0	1379926016	45	3907
2026-01-29 09:28:34.73	70.62	26.16	-36.9	-37.6	25.6	0.00e+00	0	42	0	1386217472	45	3901
2026-01-29 09:28:35.73	70.38	26.27	-36.8	-37.5	25.7	0.00e+00	0	42	0	1391460352	45	3859
2026-01-29 09:28:36.74	70.14	26.37	-36.9	-37.5	25.7	0.00e+00	0	42	0	1396703232	45	3867
2026-01-29 09:28:37.75	69.90	26.48	-36.8	-37.5	25.7	0.00e+00	0	42	0	1402994688	45	3860
2026-01-29 09:28:38.76	69.65	26.58	-36.9	-37.6	25.7	0.00e+00	0	42	0	1408237568	45	3871
2026-01-29 09:28:39.77	69.41	26.69	-36.7	-37.4	25.9	0.00e+00	0	42	0	1413480448	45	3797
2026-01-29 09:28:40.77	69.16	26.79	-36.8	-37.5	25.8	0.00e+00	0	42	0	1419771904	45	3827
2026-01-29 09:28:41.78	68.91	26.90	-36.7	-37.3	25.9	0.00e+00	0	41	0	1425014784	45	3776
2026-01-29 09:28:42.79	68.66	27.00	-36.6	-37.3	25.9	0.00e+00	0	42	0	1430257664	45	3774
2026-01-29 09:28:43.80	68.41	27.10	-36.6	-37.3	25.9	0.00e+00	0	42	0	1436549120	45	3767
2026-01-29 09:28:44.81	68.15	27.21	-36.8	-37.5	25.8	0.00e+00	0	42	0	1442840576	45	3838
2026-01-29 09:28:45.81	67.90	27.31	-36.8	-37.5	25.7	0.00e+00	0	42	0	1448083456	45	3865
2026-01-29 09:28:46.82	67.64	27.41	-37.0	-37.7	25.6	0.00e+00	0	42	0	1453326336	45	3937
2026-01-29 09:28:47.83	67.38	27.52	-37.0	-37.7	25.6	0.00e+00	0	42	0	1459617792	45	3933
2026-01-29 09:28:48.84	67.12	27.62	-37.0	-37.7	25.6	0.00e+00	0	42	0	1464860672	45	3935
2026-01-29 09:28:49.85	66.86	27.72	-37.0	-37.7	25.6	0.00e+00	0	42	0	1471152128	45	3938
2026-01-29 09:28:50.86	66.59	27.82	-36.9	-37.6	25.7	0.00e+00	0	42	0	1476395008	45	3889
2026-01-29 09:28:51.86	66.33	27.92	-36.8	-37.5	25.8	0.00e+00	0	42	0	1481637888	45	3839
2026-01-29 09:28:52.87	66.06	28.03	-36.7	-37.4	25.9	0.00e+00	0	42	0	1487929344	45	3819
2026-01-29 09:28:53.88	65.79	28.13	-36.7	-37.4	25.9	0.00e+00	0	42	0	1493172224	45	3804
2026-01-29 09:28:54.89	65.52	28.23	-36.7	-37.4	25.9	0.00e+00	0	42	0	1498415104	45	3814
2026-01-29 09:28:55.89	65.25	28.33	-36.8	-37.5	25.8	0.00e+00	0	42	0	1504706560	45	3866
2026-01-29 09:28:56.90	64.97	28.43	-36.9	-37.6	25.7	0.00e+00	0	42	0	1510998016	45	3888
2026-01-29 09:28:57.91	64.70	28.53	-37.0	-37.7	25.7	0.00e+00	0	42	0	1516240896	45	3918
2026-01-29 09:28:58.92	64.42	28.63	-36.9	-37.6	25.8	0.00e+00	0	42	0	1521483776	45	3880
2026-01-29 09:28:59.92	64.14	28.73	-36.8	-37.5	25.8	0.00e+00	0	42	0	1527775232	45	3847
2026-01-29 09:29:00.93	63.86	28.82	-36.8	-37.5	25.9	0.00e+00	0	42	0	1533018112	45	3845
2026-01-29 09:29:01.94	63.58	28.92	-36.8	-37.5	25.8	0.00e+00	0	42	0	1538260992	45	3865
2026-01-29 09:29:02.95	63.29	29.02	-36.9	-37.6	25.7	0.00e+00	0	42	0	1544552448	45	3900
2026-01-29 09:29:03.95	63.01	29.12	-36.7	-37.4	25.9	0.00e+00	0	41	0	1549795328	45	3810
2026-01-29 09:29:04.96	62.72	29.21	-36.5	-37.2	26.1	0.00e+00	0	42	0	1556086784	45	3723
2026-01-29 09:29:05.97	62.43	29.31	-36.6	-37.2	26.1	0.00e+00	0	42	0	1561329664	45	3729
2026-01-29 09:29:06.98	62.13	29.40	-36.4	-37.1	26.2	0.00e+00	0	42	0	1566572544	44	3871
2026-01-29 09:29:07.99	61.84	29.50	-36.4	-37.1	26.2	0.00e+00	0	42	0	1572864000	44	3869
2026-01-29 09:29:08.99	61.55	29.59	-36.6	-37.3	26.0	0.00e+00	0	42	0	1578106880	44	3977
2026-01-29 09:29:10.00	61.25	29.69	-36.7	-37.4	26.0	0.00e+00	0	42	0	1584398336	44	4017
2026-01-29 09:29:11.01	60.95	29.78	-36.7	-37.4	25.9	0.00e+00	0	41	0	1589641216	44	4023
2026-01-29 09:29:12.01	60.65	29.87	-36.7	-37.4	25.9	0.00e+00	0	42	0	1595932672	44	4031
2026-01-29 09:29:13.02	60.35	29.97	-36.6	-37.3	26.0	0.00e+00	0	42	0	1601175552	44	3997
2026-01-29 09:29:14.03	60.04	30.06	-36.6	-37.3	26.0	0.00e+00	0	42	0	1606418432	44	3968
2026-01-29 09:29:15.04	59.74	30.15	-36.7	-37.3	25.9	0.00e+00	0	42	0	1612709888	44	4003
2026-01-29 09:29:16.05	59.43	30.24	-36.6	-37.3	26.1	0.00e+00	0	42	0	1617952768	44	3963
2026-01-29 09:29:17.06	59.12	30.33	-36.7	-37.4	26.0	0.00e+00	0	42	0	1623195648	44	4014
2026-01-29 09:29:18.07	58.81	30.42	-36.5	-37.2	26.1	0.00e+00	0	42	0	1629487104	44	3930
2026-01-29 09:29:19.07	58.50	30.51	-36.5	-37.2	26.1	0.00e+00	0	42	0	1634729984	44	3930
2026-01-29 09:29:20.08	58.18	30.59	-36.5	-37.2	26.1	0.00e+00	0	42	0	1641021440	44	3915
2026-01-29 09:29:21.09	57.87	30.68	-36.4	-37.1	26.2	0.00e+00	0	42	0	1646264320	44	3891
2026-01-29 09:29:22.10	57.55	30.77	-36.5	-37.1	26.2	0.00e+00	0	42	0	1652555776	44	3913
2026-01-29 09:29:23.11	57.23	30.85	-36.4	-37.1	26.2	0.00e+00	0	42	0	1657798656	44	3903
2026-01-29 09:29:24.11	56.91	30.94	-36.4	-37.1	26.2	0.00e+00	0	42	0	1664090112	44	3877
2026-01-29 09:29:25.12	56.58	31.02	-36.4	-37.1	26.2	0.00e+00	0	42	0	1669332992	44	3904
2026-01-29 09:29:26.12	56.26	31.10	-36.4	-37.1	26.2	0.00e+00	0	42	0	1674575872	44	3879
2026-01-29 09:29:27.13	55.94	31.18	-36.5	-37.2	26.2	0.00e+00	0	41	0	1680867328	44	3914
2026-01-29 09:29:28.14	55.61	31.27	-36.3	-37.0	26.3	0.00e+00	0	42	0	1686110208	44	3844
2026-01-29 09:29:29.15	55.28	31.35	-36.3	-37.0	26.3	0.00e+00	0	42	0	1691353088	44	3847
2026-01-29 09:29:30.16	54.94	31.43	-36.3	-37.0	26.3	0.00e+00	0	42	0	1697644544	44	3847
2026-01-29 09:29:31.17	54.61	31.51	-36.1	-36.8	26.5	0.00e+00	0	42	0	1702887424	44	3749
2026-01-29 09:29:32.18	54.28	31.58	-36.1	-36.8	26.5	0.00e+00	0	42	0	1708130304	44	3760
2026-01-29 09:29:33.19	53.94	31.66	-36.1	-36.8	26.5	0.00e+00	0	42	0	1714421760	44	3763
2026-01-29 09:29:34.19	53.60	31.74	-36.2	-36.9	26.4	0.00e+00	0	42	0	1719664640	44	3801
2026-01-29 09:29:35.20	53.26	31.81	-36.1	-36.8	26.5	0.00e+00	0	42	0	1725956096	44	3764
2026-01-29 09:29:36.21	52.92	31.89	-36.2	-36.8	26.5	0.00e+00	0	42	0	1731198976	44	3778
2026-01-29 09:29:37.22	52.58	31.96	-36.3	-37.0	26.3	0.00e+00	0	42	0	1737490432	44	3842
2026-01-29 09:29:38.23	52.24	32.03	-36.4	-37.0	26.3	0.00e+00	0	42	0	1742733312	44	3866
2026-01-29 09:29:39.24	51.89	32.10	-36.3	-37.0	26.3	0.00e+00	0	42	0	1749024768	44	3855
2026-01-29 09:29:40.25	51.54	32.17	-36.2	-36.9	26.4	0.00e+00	0	42	0	1754267648	44	3815
2026-01-29 09:29:41.26	51.19	32.24	-36.1	-36.8	26.5	0.00e+00	0	42	0	1759510528	44	3752
2026-01-29 09:29:42.27	50.84	32.31	-36.2	-36.9	26.4	0.00e+00	0	42	0	1765801984	44	3797
2026-01-29 09:29:43.28	50.49	32.38	-36.2	-36.9	26.5	0.00e+00	0	42	0	1771044864	44	3782
2026-01-29 09:29:44.29	50.14	32.44	-36.1	-36.8	26.5	0.00e+00	0	42	0	1776287744	44	3758
2026-01-29 09:29:45.30	49.78	32.51	-36.1	-36.8	26.5	0.00e+00	0	42	0	1782579200	44	3753
2026-01-29 09:29:46.30	49.43	32.57	-36.2	-36.9	26.4	0.00e+00	0	42	0	1788870656	44	3813
2026-01-29 09:29:47.31	49.07	32.64	-36.4	-37.0	26.3	0.00e+00	0	42	0	1794113536	44	3864
2026-01-29 09:29:48.31	48.71	32.70	-36.3	-36.9	26.4	0.00e+00	0	42	0	1799356416	44	3816
2026-01-29 09:29:49.32	48.35	32.76	-36.3	-37.0	26.4	0.00e+00	0	42	0	1805647872	44	3829
2026-01-29 09:29:50.33	47.99	32.82	-36.2	-36.9	26.4	0.00e+00	0	42	0	1810890752	44	3785
2026-01-29 09:29:51.34	47.63	32.87	-36.1	-36.8	26.5	0.00e+00	0	42	0	1816133632	44	3767
2026-01-29 09:29:52.35	47.26	32.93	-35.9	-36.6	26.6	0.00e+00	0	42	0	1822425088	43	3875
2026-01-29 09:29:53.36	46.90	32.99	-35.8	-36.5	26.7	0.00e+00	0	42	0	1827667968	43	3842
2026-01-29 09:29:54.37	46.53	33.04	-35.6	-36.3	26.8	0.00e+00	0	42	0	1833959424	43	3755
2026-01-29 09:29:55.38	46.16	33.09	-35.5	-36.2	26.9	0.00e+00	0	42	0	1839202304	43	3707
2026-01-29 09:29:56.38	45.80	33.15	-35.6	-36.3	26.9	0.00e+00	0	42	0	1844445184	43	3748
2026-01-29 09:29:57.39	45.43	33.20	-35.7	-36.4	26.8	0.00e+00	0	42	0	1850736640	43	3791
2026-01-29 09:29:58.40	45.05	33.25	-35.8	-36.4	26.7	0.00e+00	0	42	0	1855979520	43	3820
2026-01-29 09:29:59.40	44.69	33.29	-35.7	-36.3	26.8	0.00e+00	0	42	0	1862270976	43	3777
2026-01-29 09:30:00.41	44.31	33.34	-35.7	-36.4	26.7	0.00e+00	0	42	0	1867513856	43	3795
2026-01-29 09:30:01.42	43.94	33.39	-35.9	-36.6	26.6	0.00e+00	0	42	0	1873805312	43	3880
2026-01-29 09:30:02.43	43.56	33.43	-35.9	-36.6	26.6	0.00e+00	0	42	0	1879048192	43	3895
2026-01-29 09:30:03.43	43.19	33.47	-35.9	-36.6	26.6	0.00e+00	0	42	0	1884291072	43	3892
2026-01-29 09:30:04.44	42.81	33.51	-35.9	-36.6	26.6	0.00e+00	0	42	0	1890582528	43	3897
2026-01-29 09:30:05.45	42.43	33.55	-35.9	-36.5	26.7	0.00e+00	0	42	0	1895825408	43	3857
2026-01-29 09:30:06.46	42.05	33.59	-35.9	-36.6	26.6	0.00e+00	0	42	0	1901068288	43	3888
2026-01-29 09:30:07.47	41.67	33.63	-36.0	-36.7	26.5	0.00e+00	0	42	0	1907359744	43	3926
2026-01-29 09:30:08.47	41.29	33.67	-35.9	-36.6	26.6	0.00e+00	0	42	0	1912602624	43	3891
2026-01-29 09:30:09.48	40.91	33.70	-35.9	-36.6	26.6	0.00e+00	0	42	0	1918894080	43	3876
2026-01-29 09:30:10.49	40.53	33.73	-36.0	-36.6	26.6	0.00e+00	0	42	0	1924136960	43	3907
2026-01-29 09:30:11.50	40.14	33.77	-36.0	-36.7	26.5	0.00e+00	0	42	0	1930428416	43	3936
2026-01-29 09:30:12.51	39.76	33.80	-36.1	-36.8	26.4	0.00e+00	0	42	0	1935671296	43	3993
2026-01-29 09:30:13.52	39.37	33.82	-36.2	-36.9	26.4	0.00e+00	0	42	0	1941962752	43	4016
2026-01-29 09:30:14.53	38.99	33.85	-36.3	-36.9	26.3	0.00e+00	0	42	0	1947205632	43	4038
2026-01-29 09:30:15.53	38.60	33.88	-36.2	-36.8	26.4	0.00e+00	0	42	0	1952448512	43	4001
2026-01-29 09:30:16.54	38.22	33.90	-35.9	-36.6	26.7	0.00e+00	0	42	0	1958739968	43	3869
2026-01-29 09:30:17.55	37.83	33.93	-35.9	-36.5	26.6	0.00e+00	0	42	0	1963982848	43	3864
2026-01-29 09:30:18.56	37.44	33.95	-36.0	-36.7	26.5	0.00e+00	0	42	0	1969225728	43	3919
2026-01-29 09:30:19.57	37.05	33.97	-35.9	-36.6	26.6	0.00e+00	0	42	0	1975517184	43	3887
2026-01-29 09:30:20.58	36.66	33.99	-36.0	-36.7	26.5	0.00e+00	0	42	0	1980760064	43	3920
2026-01-29 09:30:21.58	36.27	34.00	-35.8	-36.5	26.7	0.00e+00	0	42	0	1986002944	43	3831
2026-01-29 09:30:22.59	35.88	34.02	-35.8	-36.4	26.7	0.00e+00	0	42	0	1992294400	43	3812
2026-01-29 09:30:23.60	35.49	34.03	-35.9	-36.6	26.6	0.00e+00	0	42	0	1998585856	43	3874
2026-01-29 09:30:24.61	35.10	34.04	-35.9	-36.6	26.6	0.00e+00	0	42	0	2003828736	43	3900
2026-01-29 09:30:25.61	34.72	34.06	-35.9	-36.5	26.7	0.00e+00	0	42	0	2009071616	43	3861
2026-01-29 09:30:26.62	34.32	34.06	-35.9	-36.6	26.6	0.00e+00	0	42	0	2015363072	43	3871
2026-01-29 09:30:27.63	33.93	34.07	-36.0	-36.6	26.6	0.00e+00	0	42	0	2020605952	43	3911
2026-01-29 09:30:28.63	33.54	34.08	-36.0	-36.6	26.6	0.00e+00	0	42	0	2026897408	43	3905
2026-01-29 09:30:29.64	33.15	34.08	-35.9	-36.6	26.6	0.00e+00	0	42	0	2032140288	43	3894
2026-01-29 09:30:30.65	32.76	34.09	-35.9	-36.6	26.7	0.00e+00	0	42	0	2037383168	43	3869
2026-01-29 09:30:31.66	32.37	34.09	-35.7	-36.4	26.8	0.00e+00	0	42	0	2043674624	43	3789
2026-01-29 09:30:32.66	31.98	34.09	-35.6	-36.3	26.9	0.00e+00	0	42	0	2048917504	43	3761
2026-01-29 09:30:33.67	31.59	34.09	-35.7	-36.3	26.8	0.00e+00	0	42	0	2054160384	43	3777
2026-01-29 09:30:34.68	31.20	34.09	-35.7	-36.4	26.8	0.00e+00	0	42	0	2060451840	43	3782
2026-01-29 09:30:35.69	30.80	34.08	-35.8	-36.5	26.7	0.00e+00	0	42	0	2065694720	43	3852
2026-01-29 09:30:36.69	30.42	34.08	-35.8	-36.5	26.7	0.00e+00	0	42	0	2070937600	43	3828
2026-01-29 09:30:37.70	30.03	34.07	-35.7	-36.4	26.8	0.00e+00	0	42	0	2077229056	43	3785
2026-01-29 09:30:38.71	29.63	34.06	-35.7	-36.3	26.8	0.00e+00	0	42	0	2083520512	43	3776
2026-01-29 09:30:39.72	29.24	34.05	-35.9	-36.5	26.7	0.00e+00	0	42	0	2088763392	43	3865
2026-01-29 09:30:40.73	28.85	34.04	-36.1	-36.8	26.4	0.00e+00	0	42	0	2094006272	43	3979
2026-01-29 09:30:41.74	28.46	34.02	-36.1	-36.8	26.4	0.00e+00	0	42	0	2100297728	43	3994
2026-01-29 09:30:42.74	28.07	34.01	-36.1	-36.8	26.5	0.00e+00	0	42	0	2105540608	43	3963
2026-01-29 09:30:43.75	27.68	33.99	-36.0	-36.7	26.6	0.00e+00	0	42	0	2111832064	43	3934
2026-01-29 09:30:44.75	27.30	33.98	-36.0	-36.6	26.6	0.00e+00	0	42	0	2117074944	43	3913
2026-01-29 09:30:45.76	26.91	33.96	-36.1	-36.8	26.5	0.00e+00	0	42	0	2122317824	43	3975
2026-01-29 09:30:46.77	26.52	33.94	-36.1	-36.8	26.5	0.00e+00	0	42	0	2128609280	43	3963
2026-01-29 09:30:47.78	26.13	33.91	-36.1	-36.7	26.5	0.00e+00	0	42	0	2133852160	43	3951
2026-01-29 09:30:48.79	25.75	33.89	-36.0	-36.6	26.6	0.00e+00	0	42	0	2139095040	43	3909
2026-01-29 09:30:49.80	25.36	33.87	-35.8	-36.4	26.7	0.00e+00	0	42	0	2145386496	43	3814
2026-01-29 09:30:50.81	24.97	33.84	-35.7	-36.4	26.8	0.00e+00	0	42	0	2151677952	43	3796
2026-01-29 09:30:51.81	24.59	33.81	-35.8	-36.5	26.7	0.00e+00	0	42	0	2156920832	43	3835
2026-01-29 09:30:52.82	24.21	33.78	-35.8	-36.5	26.8	0.00e+00	0	42	0	2162163712	43	3828
2026-01-29 09:30:53.82	23.83	33.75	-35.9	-36.5	26.7	0.00e+00	0	42	0	2168455168	43	3868
2026-01-29 09:30:54.83	23.44	33.72	-36.0	-36.6	26.6	0.00e+00	0	42	0	2173698048	43	3912
2026-01-29 09:30:55.83	23.06	33.68	-35.8	-36.5	26.7	0.00e+00	0	42	0	2178940928	43	3838
2026-01-29 09:30:56.84	22.68	33.65	-35.8	-36.5	26.7	0.00e+00	0	42	0	2185232384	43	3833
2026-01-29 09:30:57.85	22.30	33.61	-35.9	-36.6	26.7	0.00e+00	0	42	0	2190475264	43	3869
2026-01-29 09:30:58.85	21.92	33.58	-36.0	-36.7	26.6	0.00e+00	0	42	0	2196766720	43	3922
2026-01-29 09:30:59.86	21.54	33.54	-36.0	-36.7	26.5	0.00e+00	0	42	0	2202009600	43	3942
2026-01-29 09:31:00.84	21.18	33.50	-36.0	-36.7	26.5	0.00e+00	0	42	0	2207252480	43	3939
2026-01-29 09:31:01.85	20.80	33.45	-36.0	-36.6	26.6	0.00e+00	0	42	0	2213543936	43	3912
2026-01-29 09:31:02.86	20.42	33.41	-35.9	-36.6	26.7	0.00e+00	0	42	0	2218786816	43	3877
2026-01-29 09:31:03.87	20.05	33.37	-36.0	-36.7	26.6	0.00e+00	0	41	0	2224029696	43	3927
2026-01-29 09:31:04.88	19.67	33.32	-35.9	-36.6	26.6	0.00e+00	0	42	0	2230321152	43	3899
2026-01-29 09:31:05.89	19.30	33.27	-35.9	-36.6	26.6	0.00e+00	0	42	0	2235564032	43	3873
2026-01-29 09:31:06.90	18.93	33.22	-35.9	-36.6	26.6	0.00e+00	0	42	0	2241855488	43	3885
2026-01-29 09:31:07.91	18.56	33.17	-35.9	-36.6	26.6	0.00e+00	0	42	0	2247098368	43	3898
2026-01-29 09:31:08.92	18.19	33.12	-35.9	-36.6	26.7	0.00e+00	0	42	0	2253389824	43	3891
2026-01-29 09:31:09.92	17.82	33.07	-35.9	-36.6	26.6	0.00e+00	0	42	0	2258632704	43	3873
2026-01-29 09:31:10.93	17.46	33.02	-36.0	-36.6	26.6	0.00e+00	0	42	0	2263875584	43	3908
2026-01-29 09:31:11.93	17.09	32.96	-35.9	-36.5	26.7	0.00e+00	0	42	0	2270167040	43	3863
2026-01-29 09:31:12.94	16.73	32.91	-35.8	-36.4	26.8	0.00e+00	0	42	0	2275409920	43	3824
2026-01-29 09:31:13.95	16.37	32.85	-35.8	-36.4	26.8	0.00e+00	0	42	0	2281701376	43	3817
2026-01-29 09:31:14.96	16.00	32.79	-35.7	-36.4	26.8	0.00e+00	0	42	0	2286944256	43	3801
2026-01-29 09:31:15.97	15.64	32.73	-35.8	-36.5	26.8	0.00e+00	0	42	0	2292187136	43	3828
2026-01-29 09:31:16.97	15.29	32.67	-35.9	-36.6	26.6	0.00e+00	0	42	0	2298478592	43	3890
2026-01-29 09:31:17.98	14.93	32.61	-36.1	-36.7	26.5	0.00e+00	0	42	0	2303721472	43	3945
2026-01-29 09:31:18.99	14.57	32.54	-36.2	-36.8	26.4	0.00e+00	0	42	0	2308964352	43	4001
2026-01-29 09:31:20.00	14.22	32.48	-36.3	-37.0	26.3	0.00e+00	0	42	0	2315255808	43	4086
2026-01-29 09:31:21.01	13.86	32.41	-36.3	-36.9	26.3	0.00e+00	0	42	0	2321547264	43	4044
2026-01-29 09:31:22.02	13.51	32.35	-36.3	-37.0	26.3	0.00e+00	0	42	0	2326790144	43	4054
2026-01-29 09:31:23.03	13.16	32.28	-36.2	-36.8	26.4	0.00e+00	0	42	0	2332033024	43	3994
2026-01-29 09:31:24.03	12.81	32.21	-36.0	-36.7	26.5	0.00e+00	0	42	0	2338324480	43	3933
2026-01-29 09:31:25.04	12.46	32.14	-35.9	-36.6	26.7	0.00e+00	0	42	0	2343567360	43	3869
2026-01-29 09:31:26.05	12.12	32.07	-35.8	-36.5	26.7	0.00e+00	0	42	0	2348810240	43	3850
2026-01-29 09:31:27.06	11.77	32.00	-35.9	-36.5	26.6	0.00e+00	0	42	0	2355101696	43	3867
2026-01-29 09:31:28.06	11.43	31.93	-35.7	-36.4	26.7	0.00e+00	0	42	0	2360344576	43	3807
2026-01-29 09:31:29.07	11.09	31.85	-35.8	-36.4	26.6	0.00e+00	0	42	0	2366636032	43	3811
2026-01-29 09:31:30.08	10.75	31.78	-35.8	-36.5	26.7	0.00e+00	0	42	0	2371878912	43	3825
2026-01-29 09:31:31.09	10.41	31.70	-35.9	-36.6	26.6	0.00e+00	0	42	0	2377121792	43	3871
2026-01-29 09:31:32.10	10.07	31.63	-35.9	-36.6	26.7	0.00e+00	0	42	0	2383413248	43	3869
2026-01-29 09:31:33.10	9.74	31.55	-35.9	-36.6	26.6	0.00e+00	0	42	0	2389704704	43	3888
2026-01-29 09:31:34.11	9.41	31.47	-36.1	-36.7	26.5	0.00e+00	0	42	0	2394947584	43	3945
2026-01-29 09:31:35.12	9.08	31.39	-36.1	-36.7	26.4	0.00e+00	0	42	0	2400190464	43	3955
2026-01-29 09:31:36.13	8.74	31.31	-36.1	-36.8	26.3	0.00e+00	0	42	0	2406481920	43	3988
2026-01-29 09:31:37.13	8.42	31.23	-36.4	-37.1	26.2	0.00e+00	0	42	0	2411724800	43	4100
2026-01-29 09:31:38.14	8.09	31.15	-36.5	-37.2	26.1	0.00e+00	0	42	0	2416967680	43	4192
2026-01-29 09:31:39.15	7.77	31.07	-36.5	-37.2	26.1	0.00e+00	0	42	0	2423259136	43	4173
2026-01-29 09:31:40.15	7.44	30.99	-36.1	-36.8	26.4	0.00e+00	0	42	0	2428502016	43	3992
2026-01-29 09:31:41.15	7.13	30.90	-36.0	-36.7	26.5	0.00e+00	0	42	0	2433744896	43	3916
2026-01-29 09:31:42.16	6.80	30.82	-36.0	-36.6	26.6	0.00e+00	0	42	0	2440036352	43	3901
2026-01-29 09:31:43.17	6.49	30.73	-36.0	-36.7	26.5	0.00e+00	0	42	0	2445279232	43	3940
2026-01-29 09:31:44.18	6.17	30.65	-36.1	-36.8	26.4	0.00e+00	0	42	0	2451570688	43	3974
2026-01-29 09:31:45.18	5.86	30.56	-36.1	-36.8	26.4	0.00e+00	0	42	0	2456813568	43	3992
2026-01-29 09:31:46.19	5.54	30.47	-36.2	-36.8	26.4	0.00e+00	0	42	0	2462056448	43	3993
2026-01-29 09:31:47.20	5.23	30.38	-36.2	-36.9	26.4	0.00e+00	0	42	0	2468347904	43	4010
2026-01-29 09:31:48.21	4.92	30.29	-36.3	-37.0	26.2	0.00e+00	0	42	0	2474639360	43	4071
2026-01-29 09:31:49.21	4.61	30.20	-36.2	-36.9	26.3	0.00e+00	0	42	0	2479882240	43	4016
2026-01-29 09:31:50.22	4.31	30.11	-36.2	-36.9	26.2	0.00e+00	0	42	0	2485125120	43	4024
2026-01-29 09:31:51.23	4.00	30.02	-36.3	-36.9	26.2	0.00e+00	0	42	0	2491416576	43	4049
2026-01-29 09:31:52.24	3.70	29.93	-36.2	-36.9	26.4	0.00e+00	0	42	0	2496659456	43	4011
2026-01-29 09:31:53.25	3.40	29.84	-36.2	-36.9	26.4	0.00e+00	0	42	0	2501902336	43	4015
2026-01-29 09:31:54.26	3.10	29.74	-36.3	-37.0	26.3	0.00e+00	0	42	0	2508193792	43	4074
2026-01-29 09:31:55.26	2.80	29.65	-36.4	-37.1	26.2	0.00e+00	0	42	0	2513436672	43	4101
2026-01-29 09:31:56.27	2.51	29.56	-36.2	-36.8	26.4	0.00e+00	0	42	0	2518679552	43	3992
2026-01-29 09:31:57.28	2.21	29.46	-36.1	-36.8	26.4	0.00e+00	0	42	0	2524971008	43	3984
2026-01-29 09:31:58.29	1.92	29.37	-36.0	-36.7	26.5	0.00e+00	0	42	0	2530213888	43	3938
2026-01-29 09:31:59.29	1.63	29.27	-36.0	-36.7	26.5	0.00e+00	0	42	0	2536505344	43	3938
2026-01-29 09:32:00.30	1.34	29.18	-36.1	-36.8	26.5	0.00e+00	0	42	0	2541748224	43	3971
2026-01-29 09:32:01.31	1.05	29.08	-36.0	-36.7	26.5	0.00e+00	0	42	0	2548039680	43	3939
2026-01-29 09:32:02.31	0.77	28.98	-36.1	-36.8	26.4	0.00e+00	0	42	0	2553282560	43	3974
2026-01-29 09:32:03.33	0.48	28.89	-36.2	-36.9	26.4	0.00e+00	0	42	0	2559574016	43	4012
2026-01-29 09:32:04.33	0.20	28.79	-36.1	-36.8	26.4	0.00e+00	0	42	0	2564816896	43	3984
2026-01-29 09:32:05.34	359.92	28.69	-36.2	-36.9	26.3	0.00e+00	0	42	0	2570059776	43	4005
2026-01-29 09:32:06.34	359.65	28.59	-36.1	-36.8	26.4	0.00e+00	0	42	0	2576351232	43	3984
2026-01-29 09:32:07.35	359.37	28.49	-36.3	-37.0	26.3	0.00e+00	0	42	0	2581594112	43	4058
2026-01-29 09:32:08.36	359.09	28.39	-36.2	-36.9	26.3	0.00e+00	0	42	0	2586836992	43	4034
2026-01-29 09:32:09.37	358.82	28.29	-36.3	-37.0	26.3	0.00e+00	0	42	0	2593128448	43	4061
2026-01-29 09:32:10.37	358.55	28.19	-36.4	-37.1	26.2	0.00e+00	0	42	0	2598371328	43	4120
2026-01-29 09:32:11.38	358.28	28.09	-36.5	-37.2	26.1	0.00e+00	0	42	0	2603614208	43	4146
2026-01-29 09:32:12.39	358.01	27.99	-36.5	-37.1	26.1	0.00e+00	0	41	0	2609905664	43	4144
2026-01-29 09:32:13.40	357.74	27.89	-36.4	-37.1	26.1	0.00e+00	0	42	0	2616197120	43	4128
2026-01-29 09:32:14.41	357.48	27.79	-36.4	-37.0	26.2	0.00e+00	0	42	0	2621440000	43	4098
2026-01-29 09:32:15.41	357.22	27.69	-36.4	-37.0	26.2	0.00e+00	0	42	0	2626682880	43	4098
2026-01-29 09:32:16.42	356.96	27.58	-36.4	-37.1	26.1	0.00e+00	0	41	0	2632974336	43	4120
2026-01-29 09:32:17.43	356.70	27.48	-36.5	-37.1	26.1	0.00e+00	0	42	0	2638217216	43	4136
2026-01-29 09:32:18.43	356.44	27.38	-36.4	-37.1	26.2	0.00e+00	0	42	0	2644508672	43	4105
2026-01-29 09:32:19.44	356.18	27.28	-36.4	-37.1	26.1	0.00e+00	0	42	0	2649751552	43	4111
2026-01-29 09:32:20.45	355.93	27.17	-36.5	-37.1	26.1	0.00e+00	0	42	0	2654994432	43	4132
2026-01-29 09:32:21.46	355.67	27.07	-36.7	-37.4	25.9	0.00e+00	0	42	0	2661285888	43	4270
2026-01-29 09:32:22.46	355.43	26.97	-36.9	-37.6	25.8	0.00e+00	0	42	0	2666528768	44	4101
2026-01-29 09:32:23.47	355.17	26.86	-36.8	-37.5	25.8	0.00e+00	0	42	0	2671771648	44	4083
2026-01-29 09:32:24.48	354.93	26.76	-37.0	-37.7	25.7	0.00e+00	0	42	0	2678063104	44	4157
2026-01-29 09:32:25.49	354.68	26.65	-36.9	-37.6	25.8	0.00e+00	0	42	0	2683305984	44	4115
2026-01-29 09:32:26.49	354.44	26.55	-36.9	-37.6	25.8	0.00e+00	0	42	0	2689597440	44	4137
2026-01-29 09:32:27.50	354.19	26.45	-37.0	-37.7	25.7	0.00e+00	0	42	0	2694840320	44	4174
2026-01-29 09:32:28.51	353.95	26.34	-36.9	-37.6	25.8	0.00e+00	0	42	0	2701131776	44	4119
2026-01-29 09:32:29.52	353.71	26.23	-36.9	-37.6	25.8	0.00e+00	0	42	0	2706374656	44	4125
2026-01-29 09:32:30.52	353.47	26.13	-36.8	-37.5	25.9	0.00e+00	0	42	0	2711617536	44	4064
2026-01-29 09:32:31.53	353.24	26.03	-36.8	-37.5	25.9	0.00e+00	0	42	0	2717908992	44	4055
2026-01-29 09:32:32.53	353.00	25.92	-36.7	-37.4	25.9	0.00e+00	0	42	0	2723151872	44	4029
2026-01-29 09:32:33.54	352.77	25.81	-36.9	-37.6	25.7	0.00e+00	0	42	0	2729443328	44	4118
2026-01-29 09:32:34.55	352.54	25.71	-36.9	-37.6	25.7	0.00e+00	0	42	0	2734686208	44	4137
2026-01-29 09:32:35.56	352.31	25.60	-37.1	-37.8	25.6	0.00e+00	0	42	0	2739929088	44	4231
2026-01-29 09:32:36.57	352.08	25.50	-37.1	-37.9	25.5	0.00e+00	0	42	0	2746220544	44	4243
2026-01-29 09:32:37.57	351.85	25.39	-37.1	-37.8	25.5	0.00e+00	0	42	0	2751463424	44	4210
2026-01-29 09:32:38.58	351.63	25.29	-37.2	-37.9	25.5	0.00e+00	0	42	0	2756706304	44	4254
2026-01-29 09:32:39.59	351.40	25.18	-37.1	-37.8	25.6	0.00e+00	0	42	0	2762997760	44	4196
2026-01-29 09:32:40.60	351.18	25.07	-36.9	-37.6	25.7	0.00e+00	0	42	0	2769289216	44	4124
2026-01-29 09:32:41.61	350.96	24.97	-37.1	-37.8	25.6	0.00e+00	0	42	0	2774532096	44	4207
2026-01-29 09:32:42.62	350.74	24.86	-36.9	-37.6	25.7	0.00e+00	0	42	0	2779774976	44	4127
2026-01-29 09:32:43.63	350.52	24.75	-36.9	-37.5	25.8	0.00e+00	0	42	0	2786066432	44	4098
2026-01-29 09:32:44.64	350.30	24.65	-37.0	-37.7	25.7	0.00e+00	0	42	0	2791309312	44	4170
2026-01-29 09:32:45.64	350.09	24.54	-36.9	-37.6	25.7	0.00e+00	0	42	0	2796552192	44	4142
2026-01-29 09:32:46.65	349.87	24.44	-37.0	-37.7	25.7	0.00e+00	0	42	0	2802843648	44	4163
2026-01-29 09:32:47.66	349.66	24.33	-37.2	-37.9	25.5	0.00e+00	0	42	0	2808086528	44	4279
2026-01-29 09:32:48.66	349.45	24.22	-37.2	-37.9	25.5	0.00e+00	0	42	0	2814377984	45	4027
2026-01-29 09:32:49.67	349.24	24.12	-37.2	-37.9	25.5	0.00e+00	0	42	0	2819620864	45	4038
2026-01-29 09:32:50.68	349.03	24.01	-37.3	-38.0	25.4	0.00e+00	0	42	0	2824863744	45	4065
2026-01-29 09:32:51.69	348.83	23.91	-37.2	-37.9	25.5	0.00e+00	0	42	0	2831155200	45	4007
2026-01-29 09:32:52.70	348.62	23.80	-37.2	-37.9	25.5	0.00e+00	0	42	0	2837446656	45	4041
2026-01-29 09:32:53.71	348.42	23.69	-37.3	-38.0	25.4	0.00e+00	0	42	0	2842689536	45	4086
2026-01-29 09:32:54.72	348.21	23.59	-37.3	-38.0	25.4	0.00e+00	0	42	0	2847932416	45	4069
2026-01-29 09:32:55.73	348.01	23.48	-37.4	-38.1	25.3	0.00e+00	0	42	0	2854223872	45	4128
2026-01-29 09:32:56.74	347.81	23.37	-37.4	-38.1	25.3	0.00e+00	0	42	0	2859466752	45	4127
2026-01-29 09:32:57.75	347.61	23.27	-37.5	-38.2	25.2	0.00e+00	0	42	0	2864709632	45	4160
2026-01-29 09:32:58.76	347.42	23.16	-37.5	-38.2	25.2	0.00e+00	0	42	0	2871001088	45	4189
2026-01-29 09:32:59.77	347.22	23.06	-37.4	-38.1	25.3	0.00e+00	0	42	0	2876243968	45	4118
2026-01-29 09:33:00.77	347.03	22.95	-37.5	-38.2	25.2	0.00e+00	0	42	0	2882535424	45	4187
2026-01-29 09:33:01.77	346.84	22.85	-37.4	-38.1	25.2	0.00e+00	0	42	0	2887778304	45	4142
2026-01-29 09:33:02.78	346.65	22.74	-37.3	-38.0	25.4	0.00e+00	0	42	0	2893021184	45	4086
2026-01-29 09:33:03.79	346.45	22.63	-37.2	-37.9	25.4	0.00e+00	0	42	0	2899312640	45	4022
2026-01-29 09:33:04.80	346.27	22.53	-37.2	-37.9	25.5	0.00e+00	0	42	0	2904555520	45	4005
2026-01-29 09:33:05.81	346.08	22.42	-37.1	-37.8	25.5	0.00e+00	0	42	0	2910846976	45	3992
2026-01-29 09:33:06.81	345.89	22.32	-37.1	-37.8	25.5	0.00e+00	0	42	0	2916089856	45	3975
2026-01-29 09:33:07.82	345.71	22.21	-37.0	-37.7	25.6	0.00e+00	0	42	0	2922381312	45	3942
2026-01-29 09:33:08.83	345.52	22.11	-37.1	-37.8	25.5	0.00e+00	0	42	0	2927624192	45	3980
2026-01-29 09:33:09.84	345.34	22.00	-37.0	-37.7	25.6	0.00e+00	0	42	0	2932867072	45	3951
2026-01-29 09:33:10.84	345.16	21.90	-37.0	-37.7	25.6	0.00e+00	0	42	0	2939158528	45	3953
2026-01-29 09:33:11.85	344.98	21.80	-37.1	-37.8	25.6	0.00e+00	0	42	0	2944401408	45	3981
2026-01-29 09:33:12.87	344.80	21.69	-37.1	-37.8	25.5	0.00e+00	0	42	0	2949644288	45	3995
2026-01-29 09:33:13.88	344.62	21.59	-37.2	-37.9	25.4	0.00e+00	0	42	0	2955935744	45	4021
2026-01-29 09:33:14.89	344.44	21.48	-37.2	-37.9	25.4	0.00e+00	0	42	0	2961178624	45	4044
2026-01-29 09:33:15.89	344.27	21.38	-37.3	-38.0	25.3	0.00e+00	0	42	0	2966421504	45	4064
2026-01-29 09:33:16.90	344.10	21.27	-37.4	-38.0	25.2	0.00e+00	0	42	0	2972712960	45	4095
2026-01-29 09:33:17.90	343.93	21.17	-37.5	-38.2	25.1	0.00e+00	0	42	0	2979004416	45	4171
2026-01-29 09:33:18.91	343.75	21.07	-37.3	-38.1	25.2	0.00e+00	0	42	0	2984247296	45	4099
2026-01-29 09:33:19.92	343.58	20.96	-37.2	-37.9	25.4	0.00e+00	0	42	0	2989490176	45	4040
2026-01-29 09:33:20.92	343.42	20.86	-37.3	-38.0	25.3	0.00e+00	0	42	0	2995781632	45	4056
2026-01-29 09:33:21.93	343.25	20.76	-37.4	-38.1	25.3	0.00e+00	0	42	0	3001024512	45	4111
2026-01-29 09:33:22.93	343.08	20.66	-37.4	-38.2	25.2	0.00e+00	0	42	0	3007315968	45	4157
2026-01-29 09:33:23.94	342.91	20.55	-37.4	-38.1	25.2	0.00e+00	0	42	0	3012558848	45	4142
2026-01-29 09:33:24.95	342.75	20.45	-37.5	-38.2	25.1	0.00e+00	0	42	0	3017801728	45	4158
2026-01-29 09:33:25.96	342.59	20.35	-37.5	-38.2	25.1	0.00e+00	0	42	0	3024093184	45	4192
2026-01-29 09:33:26.97	342.42	20.24	-37.5	-38.2	25.1	0.00e+00	0	42	0	3029336064	45	4170
2026-01-29 09:33:27.97	342.26	20.14	-37.5	-38.2	25.1	0.00e+00	0	42	0	3034578944	45	4157
2026-01-29 09:33:28.98	342.10	20.04	-37.5	-38.2	25.2	0.00e+00	0	42	0	3040870400	45	4173
2026-01-29 09:33:29.99	341.94	19.94	-37.5	-38.2	25.1	0.00e+00	0	42	0	3046113280	45	4188
2026-01-29 09:33:30.99	341.79	19.84	-37.5	-38.2	25.1	0.00e+00	0	42	0	3052404736	45	4189
2026-01-29 09:33:32.00	341.63	19.74	-37.5	-38.2	25.1	0.00e+00	0	42	0	3057647616	45	4184
2026-01-29 09:33:33.01	341.47	19.63	-37.7	-38.4	25.0	0.00e+00	0	42	0	3063939072	45	4263
2026-01-29 09:33:34.01	341.32	19.53	-37.6	-38.3	25.0	0.00e+00	0	42	0	3069181952	45	4226
2026-01-29 09:33:35.02	341.16	19.43	-37.6	-38.4	25.0	0.00e+00	0	42	0	3074424832	45	4251
2026-01-29 09:33:36.03	341.01	19.33	-37.7	-38.5	24.9	0.00e+00	0	42	0	3080716288	46	4055
2026-01-29 09:33:37.04	340.86	19.23	-37.8	-38.6	24.8	0.00e+00	0	42	0	3085959168	46	4109
2026-01-29 09:33:38.05	340.71	19.13	-37.8	-38.5	24.9	0.00e+00	0	42	0	3092250624	46	4082
2026-01-29 09:33:39.06	340.56	19.03	-37.8	-38.5	24.8	0.00e+00	0	42	0	3097493504	46	4084
2026-01-29 09:33:40.07	340.41	18.93	-37.8	-38.5	24.8	0.00e+00	0	42	0	3102736384	46	4086
2026-01-29 09:33:41.07	340.26	18.83	-38.0	-38.7	24.7	0.00e+00	0	42	0	3109027840	46	4173
2026-01-29 09:33:42.08	340.12	18.73	-38.0	-38.7	24.6	0.00e+00	0	42	0	3114270720	46	4177
2026-01-29 09:33:43.09	339.97	18.63	-38.0	-38.7	24.7	0.00e+00	0	42	0	3119513600	46	4179
2026-01-29 09:33:44.10	339.82	18.53	-38.0	-38.8	24.6	0.00e+00	0	42	0	3125805056	46	4215
2026-01-29 09:33:45.10	339.68	18.44	-38.1	-38.8	24.6	0.00e+00	0	42	0	3132096512	46	4208
2026-01-29 09:33:46.11	339.54	18.34	-38.0	-38.7	24.6	0.00e+00	0	42	0	3137339392	46	4189
2026-01-29 09:33:47.11	339.40	18.24	-37.9	-38.7	24.7	0.00e+00	0	42	0	3142582272	46	4156
2026-01-29 09:33:48.12	339.26	18.14	-38.0	-38.7	24.6	0.00e+00	0	42	0	3148873728	46	4178
2026-01-29 09:33:49.13	339.12	18.04	-38.0	-38.7	24.6	0.00e+00	0	42	0	3154116608	46	4171
2026-01-29 09:33:50.14	338.98	17.94	-38.0	-38.7	24.7	0.00e+00	0	42	0	3159359488	46	4190
2026-01-29 09:33:51.15	338.84	17.85	-38.2	-38.9	24.5	0.00e+00	0	42	0	3165650944	46	4269
2026-01-29 09:33:52.16	338.70	17.75	-38.2	-38.9	24.5	0.00e+00	0	42	0	3170893824	46	4263
2026-01-29 09:33:53.16	338.56	17.65	-38.1	-38.9	24.4	0.00e+00	0	42	0	3177185280	46	4257
2026-01-29 09:33:54.17	338.43	17.56	-38.2	-39.0	24.4	0.00e+00	0	42	0	3182428160	47	4070
2026-01-29 09:33:55.18	338.29	17.46	-38.4	-39.1	24.3	0.00e+00	0	42	0	3187671040	47	4127
2026-01-29 09:33:56.18	338.16	17.36	-38.4	-39.2	24.2	0.00e+00	0	42	0	3193962496	47	4165
2026-01-29 09:33:57.19	338.03	17.27	-38.5	-39.2	24.2	0.00e+00	0	42	0	3199205376	47	4191
2026-01-29 09:33:58.20	337.90	17.17	-38.5	-39.3	24.1	0.00e+00	0	42	0	3205496832	47	4212
2026-01-29 09:33:59.21	337.76	17.07	-38.6	-39.3	24.1	0.00e+00	0	42	0	3210739712	47	4238
2026-01-29 09:34:00.22	337.63	16.98	-38.6	-39.4	24.0	0.00e+00	0	42	0	3217031168	47	4258
2026-01-29 09:34:01.23	337.50	16.88	-39.0	-39.7	24.2	0.00e+00	0	42	0	3222274048	48	4184
2026-01-29 09:34:02.23	337.38	16.79	-39.0	-39.8	24.2	0.00e+00	0	42	0	3227516928	48	4197
2026-01-29 09:34:03.24	337.25	16.69	-39.1	-39.8	24.1	0.00e+00	0	42	0	3233808384	48	4207
2026-01-29 09:34:04.25	337.12	16.60	-39.2	-39.9	24.0	0.00e+00	0	42	0	3239051264	48	4277
2026-01-29 09:34:05.26	336.99	16.50	-39.2	-39.9	24.0	0.00e+00	0	42	0	3244294144	49	4040
2026-01-29 09:34:06.26	336.87	16.41	-39.2	-40.0	23.9	0.00e+00	0	42	0	3250585600	49	4067
2026-01-29 09:34:07.27	336.74	16.31	-39.2	-40.0	24.0	0.00e+00	0	42	0	3255828480	49	4062
2026-01-29 09:34:08.28	336.62	16.22	-39.3	-40.1	23.9	0.00e+00	0	42	0	3262119936	49	4108
2026-01-29 09:34:09.29	336.50	16.13	-39.4	-40.1	23.8	0.00e+00	0	42	0	3267362816	49	4125
2026-01-29 09:34:10.29	336.38	16.03	-39.4	-40.2	23.8	0.00e+00	0	42	0	3272605696	49	4154
2026-01-29 09:34:11.30	336.25	15.94	-39.3	-40.0	23.9	0.00e+00	0	42	0	3278897152	49	4094
2026-01-29 09:34:12.31	336.13	15.85	-39.3	-40.0	23.9	0.00e+00	0	42	0	3285188608	49	4082
2026-01-29 09:34:13.31	336.01	15.76	-39.3	-40.0	23.9	0.00e+00	0	42	0	3290431488	49	4078
2026-01-29 09:34:14.33	335.89	15.66	-39.2	-40.0	23.9	3.40e-06	0	42	0	3295674368	49	4058
2026-01-29 09:34:15.33	335.78	15.57	-39.2	-40.0	23.9	0.00e+00	0	42	0	3301965824	49	4053
2026-01-29 09:34:16.34	335.66	15.48	-39.2	-40.0	23.9	0.00e+00	0	42	0	3307208704	49	4054
2026-01-29 09:34:17.35	335.54	15.39	-39.3	-40.0	23.9	0.00e+00	0	42	0	3312451584	49	4093
2026-01-29 09:34:18.36	335.42	15.29	-39.4	-40.1	23.8	0.00e+00	0	42	0	3318743040	49	4143
2026-01-29 09:34:19.37	335.31	15.20	-39.4	-40.1	23.8	0.00e+00	0	42	0	3323985920	49	4135
2026-01-29 09:34:20.37	335.20	15.11	-39.4	-40.1	23.7	0.00e+00	0	42	0	3330277376	49	4144
2026-01-29 09:34:21.38	335.08	15.02	-39.5	-40.2	23.7	0.00e+00	0	42	0	3335520256	49	4172
2026-01-29 09:34:22.39	334.97	14.93	-39.5	-40.2	23.7	0.00e+00	0	42	0	3340763136	49	4179
2026-01-29 09:34:23.39	334.86	14.84	-39.5	-40.2	23.7	0.00e+00	0	42	0	3347054592	49	4186
2026-01-29 09:34:24.40	334.74	14.75	-39.4	-40.2	23.7	0.00e+00	0	42	0	3352297472	49	4150
2026-01-29 09:34:25.41	334.63	14.66	-39.5	-40.2	23.6	0.00e+00	0	42	0	3358588928	49	4185
2026-01-29 09:34:26.42	334.52	14.57	-39.4	-40.2	23.7	0.00e+00	0	42	0	3363831808	49	4147
2026-01-29 09:34:27.43	334.41	14.48	-39.5	-40.2	23.6	0.00e+00	0	42	0	3370123264	49	4193
2026-01-29 09:34:28.43	334.30	14.39	-39.5	-40.2	23.6	0.00e+00	0	42	0	3375366144	49	4181
2026-01-29 09:34:29.44	334.20	14.30	-39.5	-40.3	23.6	0.00e+00	0	42	0	3380609024	49	4194
2026-01-29 09:34:30.45	334.09	14.21	-39.6	-40.4	23.5	0.00e+00	0	42	0	3386900480	49	4258
2026-01-29 09:34:31.46	333.98	14.12	-39.5	-40.3	23.6	0.00e+00	0	42	0	3392143360	49	4203
2026-01-29 09:34:32.47	333.87	14.03	-39.6	-40.3	23.5	0.00e+00	0	42	0	3397386240	49	4227
2026-01-29 09:34:33.48	333.77	13.94	-39.6	-40.4	23.5	0.00e+00	0	42	0	3403677696	49	4251
2026-01-29 09:34:34.48	333.66	13.86	-39.6	-40.4	23.5	0.00e+00	0	42	0	3408920576	49	4261
2026-01-29 09:34:35.49	333.56	13.77	-39.7	-40.5	23.4	1.10e-06	0	42	0	3415212032	50	4065
2026-01-29 09:34:36.50	333.45	13.68	-39.8	-40.6	23.3	0.00e+00	0	42	0	3420454912	50	4109
2026-01-29 09:34:37.51	333.35	13.59	-39.8	-40.6	23.2	0.00e+00	0	42	0	3426746368	50	4134
2026-01-29 09:34:38.52	333.25	13.51	-39.8	-40.6	23.2	0.00e+00	0	42	0	3431989248	50	4119
2026-01-29 09:34:39.53	333.15	13.42	-39.9	-40.7	23.2	0.00e+00	0	42	0	3437232128	50	4162
2026-01-29 09:34:40.53	333.05	13.33	-39.9	-40.7	23.1	0.00e+00	0	42	0	3443523584	50	4180
2026-01-29 09:34:41.54	332.94	13.25	-40.0	-40.8	23.1	0.00e+00	0	42	0	3448766464	50	4203
2026-01-29 09:34:42.55	332.84	13.16	-40.1	-40.9	22.9	0.00e+00	0	42	0	3455057920	50	4277
2026-01-29 09:34:43.55	332.75	13.07	-40.1	-40.9	23.0	0.00e+00	0	42	0	3460300800	50	4265
2026-01-29 09:34:44.56	332.65	12.99	-40.1	-40.9	23.0	0.00e+00	0	42	0	3465543680	50	4243
2026-01-29 09:34:45.57	332.55	12.90	-40.0	-40.8	23.1	0.00e+00	0	42	0	3471835136	50	4200
2026-01-29 09:34:46.58	332.45	12.82	-40.1	-40.8	23.0	0.00e+00	0	42	0	3477078016	50	4237
2026-01-29 09:34:47.59	332.35	12.73	-40.0	-40.8	23.0	0.00e+00	0	42	0	3482320896	50	4212
2026-01-29 09:34:48.60	332.26	12.65	-40.2	-41.0	22.9	0.00e+00	0	42	0	3488612352	50	4293
2026-01-29 09:34:49.61	332.16	12.56	-40.1	-40.9	22.9	0.00e+00	0	42	0	3494903808	50	4275
2026-01-29 09:34:50.61	332.07	12.48	-40.2	-41.0	22.9	0.00e+00	0	42	0	3500146688	51	4067
2026-01-29 09:34:51.62	331.97	12.39	-40.1	-40.8	23.0	0.00e+00	0	42	0	3505389568	51	3998
2026-01-29 09:34:52.63	331.88	12.31	-40.1	-40.9	23.0	0.00e+00	0	42	0	3511681024	51	4025
2026-01-29 09:34:53.64	331.78	12.22	-40.2	-41.0	22.9	0.00e+00	0	42	0	3516923904	51	4054
2026-01-29 09:34:54.65	331.69	12.14	-40.1	-40.9	23.0	0.00e+00	0	42	0	3522166784	51	4008
2026-01-29 09:34:55.66	331.60	12.06	-40.2	-41.0	22.9	0.00e+00	0	42	0	3528458240	51	4060
2026-01-29 09:34:56.66	331.50	11.97	-40.1	-40.9	22.9	0.00e+00	0	42	0	3533701120	51	4014
2026-01-29 09:34:57.66	331.41	11.89	-40.1	-40.9	23.0	0.00e+00	0	42	0	3539992576	51	4009
2026-01-29 09:34:58.67	331.32	11.81	-40.2	-41.0	22.8	0.00e+00	0	42	0	3545235456	51	4085
2026-01-29 09:34:59.68	331.23	11.72	-40.3	-41.1	22.7	0.00e+00	0	42	0	3550478336	51	4106
2026-01-29 09:35:00.69	331.14	11.64	-40.3	-41.1	22.7	0.00e+00	0	42	0	3556769792	51	4144
2026-01-29 09:35:01.70	331.05	11.56	-40.2	-41.0	22.8	0.00e+00	0	42	0	3563061248	51	4093
2026-01-29 09:35:02.71	330.96	11.48	-40.1	-40.9	22.9	0.00e+00	0	42	0	3568304128	51	4041
2026-01-29 09:35:03.72	330.87	11.40	-40.2	-41.0	22.8	0.00e+00	0	42	0	3573547008	51	4084
2026-01-29 09:35:04.72	330.79	11.31	-40.2	-41.0	22.7	0.00e+00	0	42	0	3579838464	51	4088
2026-01-29 09:35:05.73	330.70	11.23	-40.3	-41.1	22.7	0.00e+00	0	42	0	3585081344	51	4130
2026-01-29 09:35:06.74	330.61	11.15	-40.3	-41.1	22.7	0.00e+00	0	42	0	3590324224	51	4134
2026-01-29 09:35:07.75	330.53	11.07	-40.3	-41.1	22.7	0.00e+00	0	42	0	3596615680	51	4127
2026-01-29 09:35:08.75	330.44	10.99	-40.3	-41.1	22.6	0.00e+00	0	42	0	3601858560	51	4139
2026-01-29 09:35:09.76	330.36	10.91	-40.4	-41.2	22.6	0.00e+00	0	42	0	3607101440	51	4159
2026-01-29 09:35:10.77	330.27	10.83	-40.4	-41.2	22.6	0.00e+00	0	42	0	3613392896	51	4176
2026-01-29 09:35:11.78	330.19	10.75	-40.5	-41.3	22.5	0.00e+00	0	42	0	3618635776	51	4232
2026-01-29 09:35:12.79	330.10	10.67	-40.5	-41.3	22.5	0.00e+00	0	42	0	3624927232	51	4209
2026-01-29 09:35:13.80	330.02	10.59	-40.5	-41.3	22.4	0.00e+00	0	42	0	3630170112	51	4236
2026-01-29 09:35:14.80	329.94	10.51	-40.6	-41.5	22.3	0.00e+00	0	42	0	3636461568	51	4300
2026-01-29 09:35:15.81	329.85	10.43	-40.5	-41.4	22.4	0.00e+00	0	42	0	3641704448	51	4256
2026-01-29 09:35:16.82	329.77	10.35	-40.6	-41.4	22.3	0.00e+00	0	42	0	3647995904	51	4288
2026-01-29 09:35:17.83	329.69	10.27	-40.7	-41.5	22.2	0.00e+00	0	42	0	3653238784	51	4325
2026-01-29 09:35:18.83	329.61	10.19	-40.7	-41.5	22.2	0.00e+00	0	42	0	3658481664	52	4088
2026-01-29 09:35:19.84	329.53	10.11	-40.7	-41.6	22.1	0.00e+00	0	42	0	3664773120	52	4103
2026-01-29 09:35:20.85	329.45	10.03	-40.9	-41.7	21.9	0.00e+00	0	42	0	3670016000	52	4188
