passes_logs/2026/01/29/R3.2S_Murmansk/R3.2S_Murmansk__20260129_133220_SUOMI_NPP_rec.log

#Pass ID: 20260129_133220_SUOMI NPP
#Satellite: SUOMI NPP
#Configuration: NPP
#almurnet v.1.7.20251203
#Start time: 2026-01-29 13:32:21

#Version: 2.2.20231116
#Station: R3.2S_Murmansk
#Location: 33.079688 lon 68.888172 lat
#TLE: 1 37849U 11061A   26028.91916408  .00000155  00000+0  94467-4 0  9990
#TLE: 2 37849  98.7824 330.8488 0002045  39.4457 320.6868 14.19531289738686

#Time	Az	El	Level	Level2	SNR	BER	BlckErr	Temp	State	Recorded	gain1	gain2
2026-01-29 13:32:21.02	256.74	2.02	-53.9	-68.9	3.8	1.49e+00	0	41	0	0	79	20084
2026-01-29 13:32:22.03	256.85	2.06	-53.8	-68.9	3.8	1.49e+00	0	41	104	0	78	21278
2026-01-29 13:32:23.04	256.96	2.10	-53.8	-68.8	3.8	1.49e+00	0	41	104	0	78	21236
2026-01-29 13:32:24.04	257.07	2.14	-54.1	-69.1	3.8	1.49e+00	0	41	104	0	78	21766
2026-01-29 13:32:25.04	257.19	2.18	-54.2	-69.2	3.8	1.49e+00	0	41	104	0	78	22042
2026-01-29 13:32:26.05	257.30	2.21	-54.2	-69.2	3.8	1.49e+00	0	41	104	0	79	20919
2026-01-29 13:32:27.06	257.41	2.25	-54.3	-69.3	3.8	1.49e+00	0	41	104	0	79	21056
2026-01-29 13:32:28.07	257.52	2.29	-54.3	-69.3	3.8	1.49e+00	0	41	104	0	79	21104
2026-01-29 13:32:29.08	257.63	2.33	-54.3	-69.3	3.8	1.49e+00	0	41	104	0	79	21080
2026-01-29 13:32:30.09	257.75	2.37	-54.3	-69.2	3.8	1.49e+00	0	41	104	0	79	21002
2026-01-29 13:32:31.10	257.86	2.41	-54.2	-69.2	3.8	1.49e+00	0	41	104	0	79	20979
2026-01-29 13:32:32.11	257.97	2.45	-54.2	-69.2	3.8	1.49e+00	0	41	104	0	79	20881
2026-01-29 13:32:33.11	258.09	2.48	-54.2	-69.2	3.8	1.49e+00	0	41	104	0	79	20822
2026-01-29 13:32:34.12	258.20	2.52	-54.1	-69.1	3.8	1.49e+00	0	41	104	0	79	20668
2026-01-29 13:32:35.13	258.32	2.56	-54.1	-69.1	3.8	1.49e+00	0	41	104	0	79	20586
2026-01-29 13:32:36.14	258.43	2.60	-54.0	-69.0	3.8	1.49e+00	0	41	104	0	79	20450
2026-01-29 13:32:37.14	258.54	2.64	-53.9	-68.9	3.8	1.49e+00	0	41	104	0	79	20245
2026-01-29 13:32:38.15	258.66	2.68	-53.9	-68.8	3.8	1.49e+00	0	41	104	0	79	20064
2026-01-29 13:32:39.17	258.78	2.71	-53.8	-68.7	3.8	1.49e+00	0	41	104	0	79	19808
2026-01-29 13:32:40.17	258.89	2.75	-53.7	-68.7	3.8	1.49e+00	0	41	104	0	79	19620
2026-01-29 13:32:41.18	259.01	2.79	-53.5	-68.5	3.8	1.49e+00	0	41	104	0	79	19372
2026-01-29 13:32:42.19	259.12	2.83	-53.4	-68.3	3.8	1.49e+00	0	41	104	0	78	20016
2026-01-29 13:32:43.20	259.24	2.87	-53.2	-68.2	3.8	1.49e+00	0	41	104	0	78	19698
2026-01-29 13:32:44.21	259.36	2.91	-52.9	-67.8	3.8	1.49e+00	0	41	104	0	77	20062
2026-01-29 13:32:45.22	259.48	2.94	-52.8	-67.7	3.8	1.49e+00	0	41	104	0	77	19691
2026-01-29 13:32:46.23	259.59	2.98	-52.6	-67.5	3.8	1.49e+00	0	41	104	0	77	19343
2026-01-29 13:32:47.23	259.71	3.02	-52.4	-67.4	3.8	1.49e+00	0	42	104	0	76	20204
2026-01-29 13:32:48.24	259.83	3.06	-52.4	-67.4	3.8	1.49e+00	0	41	104	0	76	20110
2026-01-29 13:32:49.25	259.95	3.09	-52.4	-67.3	3.8	1.49e+00	0	42	104	0	76	20064
2026-01-29 13:32:50.26	260.07	3.13	-52.4	-67.3	3.8	1.49e+00	0	41	104	0	76	20017
2026-01-29 13:32:51.27	260.18	3.17	-52.4	-67.3	3.8	1.49e+00	0	42	104	0	76	19977
2026-01-29 13:32:52.27	260.30	3.21	-52.4	-67.3	3.8	1.49e+00	0	41	104	0	76	19978
2026-01-29 13:32:53.28	260.42	3.25	-52.4	-67.3	3.8	1.49e+00	0	42	104	0	76	19953
2026-01-29 13:32:54.29	260.54	3.28	-52.4	-67.3	3.8	1.49e+00	0	41	104	0	76	19911
2026-01-29 13:32:55.30	260.66	3.32	-52.3	-67.3	3.8	1.49e+00	0	42	104	0	76	19938
2026-01-29 13:32:56.31	260.78	3.36	-52.3	-67.3	3.8	1.49e+00	0	42	104	0	76	19971
2026-01-29 13:32:57.32	260.90	3.40	-52.3	-67.3	3.8	1.49e+00	0	41	104	0	76	19902
2026-01-29 13:32:58.33	261.03	3.43	-52.3	-67.3	3.8	1.49e+00	0	42	104	0	76	19863
2026-01-29 13:32:59.34	261.15	3.47	-52.3	-67.3	3.8	1.49e+00	0	42	104	0	76	19908
2026-01-29 13:33:00.35	261.27	3.51	-52.3	-67.3	3.8	1.49e+00	0	42	104	0	76	19844
2026-01-29 13:33:01.35	261.39	3.55	-52.3	-67.3	3.8	1.49e+00	0	41	104	0	76	19873
2026-01-29 13:33:02.36	261.51	3.58	-52.3	-67.3	3.8	1.49e+00	0	42	104	0	76	19852
2026-01-29 13:33:03.37	261.63	3.62	-52.3	-67.3	3.8	1.49e+00	0	42	104	0	76	19926
2026-01-29 13:33:04.37	261.76	3.66	-52.3	-67.2	3.8	1.49e+00	0	42	104	0	76	19837
2026-01-29 13:33:05.38	261.88	3.69	-52.3	-67.3	3.8	1.49e+00	0	42	104	0	76	19869
2026-01-29 13:33:06.39	262.00	3.73	-52.3	-67.2	3.8	1.49e+00	0	42	104	0	76	19780
2026-01-29 13:33:07.40	262.13	3.77	-52.3	-67.2	3.8	1.49e+00	0	42	104	0	76	19827
2026-01-29 13:33:08.41	262.25	3.80	-52.3	-67.2	3.8	1.49e+00	0	42	104	0	76	19764
2026-01-29 13:33:09.42	262.38	3.84	-52.3	-67.3	3.8	1.49e+00	0	42	104	0	76	19857
2026-01-29 13:33:10.43	262.50	3.88	-52.3	-67.2	3.8	1.49e+00	0	42	104	0	76	19827
2026-01-29 13:33:11.44	262.63	3.91	-52.3	-67.2	3.8	1.49e+00	0	41	104	0	76	19766
2026-01-29 13:33:12.45	262.75	3.95	-52.3	-67.2	3.8	1.49e+00	0	42	104	0	76	19817
2026-01-29 13:33:13.46	262.88	3.99	-52.3	-67.2	3.8	1.49e+00	0	42	104	0	76	19727
2026-01-29 13:33:14.47	263.00	4.02	-52.3	-67.2	3.8	1.49e+00	0	42	104	0	76	19681
2026-01-29 13:33:15.47	263.13	4.06	-52.3	-67.1	3.8	1.49e+00	0	42	104	0	76	19592
2026-01-29 13:33:16.48	263.25	4.10	-52.3	-67.1	3.8	1.49e+00	0	42	104	0	76	19578
2026-01-29 13:33:17.49	263.38	4.13	-52.3	-67.2	3.8	1.49e+00	0	42	104	0	76	19668
2026-01-29 13:33:18.50	263.51	4.17	-52.3	-67.2	3.8	1.49e+00	0	42	104	0	76	19665
2026-01-29 13:33:19.51	263.64	4.21	-52.3	-67.2	3.8	1.49e+00	0	42	104	0	76	19750
2026-01-29 13:33:20.52	263.76	4.24	-52.3	-67.2	3.8	1.49e+00	0	41	104	0	76	19754
2026-01-29 13:33:21.53	263.89	4.28	-52.3	-67.2	3.8	1.49e+00	0	42	104	0	76	19777
2026-01-29 13:33:22.53	264.02	4.31	-52.3	-67.2	3.8	1.49e+00	0	42	104	0	76	19742
2026-01-29 13:33:23.54	264.15	4.35	-52.3	-67.2	3.8	1.49e+00	0	42	104	0	76	19716
2026-01-29 13:33:24.55	264.28	4.39	-52.3	-67.0	3.8	1.49e+00	0	42	104	0	76	19383
2026-01-29 13:33:25.56	264.40	4.42	-52.2	-67.0	3.8	1.49e+00	0	42	104	0	76	19170
2026-01-29 13:33:26.57	264.53	4.46	-52.3	-67.1	3.8	1.49e+00	0	42	104	0	76	19554
2026-01-29 13:33:27.57	264.66	4.49	-52.3	-66.9	3.8	1.49e+00	0	42	104	0	76	19046
2026-01-29 13:33:28.58	264.79	4.53	-52.3	-67.1	3.8	1.49e+00	0	42	104	0	76	19424
2026-01-29 13:33:29.59	264.92	4.56	-52.3	-67.2	3.8	1.49e+00	0	42	104	0	76	19698
2026-01-29 13:33:30.60	265.05	4.60	-52.3	-67.2	3.8	1.49e+00	0	42	104	0	76	19681
2026-01-29 13:33:31.60	265.18	4.63	-52.3	-67.1	3.8	1.49e+00	0	42	104	0	76	19582
2026-01-29 13:33:32.61	265.32	4.67	-52.3	-67.1	3.8	1.49e+00	0	42	104	0	76	19544
2026-01-29 13:33:33.62	265.45	4.70	-52.2	-67.0	3.8	1.49e+00	0	42	104	0	76	19343
2026-01-29 13:33:34.63	265.58	4.74	-52.2	-66.8	3.8	1.49e+00	0	42	104	0	76	18914
2026-01-29 13:33:35.64	265.71	4.77	-52.2	-66.7	3.8	1.49e+00	0	42	104	0	76	18599
2026-01-29 13:33:36.65	265.84	4.81	-52.2	-66.3	3.8	1.49e+00	0	42	104	0	76	17873
2026-01-29 13:33:37.66	265.98	4.84	-52.2	-65.9	3.8	1.49e+00	0	42	104	0	76	16958
2026-01-29 13:33:38.67	266.11	4.88	-52.2	-65.7	3.8	1.49e+00	0	42	104	0	76	16564
2026-01-29 13:33:39.68	266.24	4.91	-51.9	-61.9	4.8	1.43e+00	0	42	0	0	75	11287
2026-01-29 13:33:40.69	266.38	4.95	-51.1	-57.3	8.4	3.16e-01	0	42	0	2097152	74	7075
2026-01-29 13:33:41.69	266.51	4.98	-50.1	-54.4	11.6	2.80e-03	0	42	0	3145728	72	5683
2026-01-29 13:33:42.70	266.64	5.02	-49.4	-52.8	13.2	9.15e-05	0	42	0	5242880	70	5307
2026-01-29 13:33:43.71	266.78	5.05	-52.7	-64.4	4.4	6.10e-06	45	42	0	7340032	75	15108
2026-01-29 13:33:44.72	266.91	5.09	-52.0	-62.8	4.5	1.45e+00	57	42	104	7340032	75	12608
2026-01-29 13:33:45.73	267.05	5.12	-47.6	-49.9	16.0	2.19e-01	0	42	0	8388608	67	4516
2026-01-29 13:33:46.74	267.18	5.15	-51.2	-58.5	7.7	0.00e+00	0	42	0	10485760	73	8609
2026-01-29 13:33:47.75	267.32	5.19	-47.1	-49.1	17.1	4.56e-04	0	42	0	12582912	65	4616
2026-01-29 13:33:48.75	267.46	5.22	-47.0	-49.1	17.0	0.00e+00	0	42	0	13631488	66	4344
2026-01-29 13:33:49.76	267.59	5.26	-46.8	-48.8	17.2	0.00e+00	0	42	0	15728640	65	4450
2026-01-29 13:33:50.76	267.73	5.29	-47.2	-49.3	16.6	0.00e+00	0	42	0	17825792	65	4745
2026-01-29 13:33:51.77	267.86	5.32	-47.5	-49.7	16.2	0.00e+00	0	42	0	19922944	65	4982
2026-01-29 13:33:52.78	268.00	5.36	-47.8	-50.3	15.6	0.00e+00	0	42	0	22020096	66	5029
2026-01-29 13:33:53.79	268.14	5.39	-48.1	-50.8	15.0	0.00e+00	0	42	0	23068672	66	5331
2026-01-29 13:33:54.80	268.28	5.42	-48.5	-51.5	14.4	0.00e+00	0	42	0	25165824	67	5419
2026-01-29 13:33:55.80	268.41	5.46	-48.7	-51.8	14.0	7.00e-07	0	42	0	27262976	67	5630
2026-01-29 13:33:56.81	268.55	5.49	-49.0	-52.3	13.5	4.50e-06	0	42	0	29360128	68	5651
2026-01-29 13:33:57.82	268.69	5.52	-49.1	-52.7	13.1	1.90e-05	0	42	0	30408704	68	5895
2026-01-29 13:33:58.83	268.83	5.56	-49.3	-53.2	12.5	7.24e-05	0	42	0	32505856	69	5860
2026-01-29 13:33:59.83	268.97	5.59	-49.5	-53.4	12.2	1.49e-04	0	42	0	34603008	69	6059
2026-01-29 13:34:00.84	269.11	5.62	-49.4	-53.4	12.2	1.81e-04	0	42	0	36700160	69	6054
2026-01-29 13:34:01.85	269.25	5.65	-49.4	-53.4	12.3	1.98e-04	0	42	0	38797312	69	5998
2026-01-29 13:34:02.85	269.39	5.69	-49.1	-52.7	13.0	7.17e-05	0	42	0	40894464	69	5552
2026-01-29 13:34:03.86	269.53	5.72	-48.9	-52.2	13.5	1.75e-05	0	42	0	41943040	69	5279
2026-01-29 13:34:04.87	269.67	5.75	-48.7	-51.8	14.0	1.50e-06	0	42	0	44040192	69	5037
2026-01-29 13:34:05.88	269.81	5.78	-48.4	-51.2	14.6	7.00e-07	0	42	0	46137344	68	4965
2026-01-29 13:34:06.88	269.95	5.82	-48.1	-50.7	15.2	0.00e+00	0	42	0	48234496	68	4687
2026-01-29 13:34:07.89	270.09	5.85	-48.0	-50.6	15.4	0.00e+00	0	42	0	50331648	68	4611
2026-01-29 13:34:08.90	270.24	5.88	-47.4	-49.7	16.2	0.00e+00	0	42	0	51380224	66	4658
2026-01-29 13:34:09.91	270.38	5.91	-47.1	-49.3	16.5	0.00e+00	0	42	0	53477376	66	4458
2026-01-29 13:34:10.92	270.52	5.94	-47.1	-49.2	16.7	0.00e+00	0	42	0	55574528	66	4414
2026-01-29 13:34:11.92	270.66	5.98	-46.9	-49.0	16.8	0.00e+00	0	42	0	57671680	65	4569
2026-01-29 13:34:12.93	270.81	6.01	-46.8	-48.9	16.8	0.00e+00	0	42	0	59768832	65	4532
2026-01-29 13:34:13.94	270.95	6.04	-47.1	-49.2	16.6	0.00e+00	0	42	0	60817408	65	4695
2026-01-29 13:34:14.95	271.09	6.07	-47.3	-49.6	16.2	0.00e+00	0	42	0	62914560	65	4887
2026-01-29 13:34:15.96	271.24	6.10	-47.3	-49.6	16.2	0.00e+00	0	42	0	65011712	65	4893
2026-01-29 13:34:16.96	271.38	6.13	-47.2	-49.4	16.5	0.00e+00	0	42	0	67108864	65	4808
2026-01-29 13:34:17.97	271.53	6.16	-47.4	-49.7	16.3	0.00e+00	0	42	0	69206016	65	4934
2026-01-29 13:34:18.98	271.67	6.19	-47.3	-49.5	16.6	0.00e+00	0	42	0	70254592	65	4836
2026-01-29 13:34:19.99	271.82	6.22	-47.3	-49.3	16.8	0.00e+00	0	42	0	72351744	65	4753
2026-01-29 13:34:21.00	271.96	6.25	-47.2	-49.2	16.9	0.00e+00	0	42	0	74448896	65	4688
2026-01-29 13:34:22.01	272.11	6.29	-47.1	-49.1	17.0	0.00e+00	0	42	0	76546048	65	4620
2026-01-29 13:34:23.01	272.25	6.32	-47.1	-49.1	17.1	0.00e+00	0	42	0	78643200	65	4607
2026-01-29 13:34:24.02	272.40	6.35	-47.0	-49.0	17.1	0.00e+00	0	42	0	79691776	65	4565
2026-01-29 13:34:25.03	272.55	6.38	-47.0	-49.0	17.2	0.00e+00	0	42	0	81788928	65	4563
2026-01-29 13:34:26.04	272.69	6.41	-47.0	-49.0	17.1	0.00e+00	0	42	0	83886080	65	4582
2026-01-29 13:34:27.05	272.84	6.44	-47.1	-49.2	16.9	0.00e+00	0	42	0	85983232	65	4671
2026-01-29 13:34:28.06	272.99	6.47	-47.2	-49.3	16.8	0.00e+00	0	42	0	88080384	65	4740
2026-01-29 13:34:29.06	273.14	6.50	-47.0	-49.1	17.0	0.00e+00	0	42	0	89128960	65	4611
2026-01-29 13:34:30.07	273.28	6.52	-47.2	-49.3	16.8	0.00e+00	0	42	0	91226112	65	4710
2026-01-29 13:34:31.07	273.43	6.55	-47.2	-49.3	16.8	0.00e+00	0	42	0	93323264	65	4719
2026-01-29 13:34:32.08	273.58	6.58	-47.1	-49.2	16.9	0.00e+00	0	42	0	95420416	65	4674
2026-01-29 13:34:33.08	273.73	6.61	-47.2	-49.3	16.8	0.00e+00	0	42	0	97517568	65	4728
2026-01-29 13:34:34.09	273.88	6.64	-47.3	-49.4	16.7	0.00e+00	0	42	0	98566144	65	4785
2026-01-29 13:34:35.10	274.03	6.67	-47.0	-49.0	17.1	0.00e+00	0	42	0	100663296	65	4578
2026-01-29 13:34:36.11	274.18	6.70	-47.0	-49.0	17.1	0.00e+00	0	42	0	102760448	65	4579
2026-01-29 13:34:37.12	274.33	6.73	-47.0	-49.0	17.1	0.00e+00	0	42	0	104857600	65	4553
2026-01-29 13:34:38.13	274.48	6.76	-47.0	-49.0	17.2	0.00e+00	0	42	0	106954752	65	4572
2026-01-29 13:34:39.13	274.63	6.78	-47.0	-48.9	17.2	0.00e+00	0	42	0	108003328	65	4544
2026-01-29 13:34:40.14	274.78	6.81	-46.9	-48.9	17.3	0.00e+00	0	42	0	110100480	65	4524
2026-01-29 13:34:41.14	274.93	6.84	-47.0	-48.9	17.2	0.00e+00	0	42	0	112197632	65	4535
2026-01-29 13:34:42.15	275.08	6.87	-47.0	-49.1	17.1	0.00e+00	0	42	0	114294784	65	4601
2026-01-29 13:34:43.16	275.23	6.90	-46.9	-48.8	17.4	0.00e+00	0	42	0	116391936	65	4489
2026-01-29 13:34:44.16	275.38	6.92	-47.0	-49.0	17.1	0.00e+00	0	42	0	117440512	65	4580
2026-01-29 13:34:45.17	275.54	6.95	-47.1	-49.1	17.0	0.00e+00	0	42	0	119537664	65	4644
2026-01-29 13:34:46.18	275.69	6.98	-47.1	-49.1	17.1	0.00e+00	0	42	0	121634816	65	4620
2026-01-29 13:34:47.19	275.84	7.01	-47.1	-49.0	17.2	0.00e+00	0	42	0	123731968	65	4591
2026-01-29 13:34:48.19	275.99	7.03	-47.4	-49.5	16.7	0.00e+00	0	41	0	125829120	65	4850
2026-01-29 13:34:49.20	276.15	7.06	-47.2	-49.3	17.0	0.00e+00	0	42	0	126877696	65	4708
2026-01-29 13:34:50.20	276.30	7.09	-47.3	-49.3	17.0	0.00e+00	0	42	0	128974848	65	4738
2026-01-29 13:34:51.21	276.45	7.11	-47.2	-49.2	17.0	0.00e+00	0	42	0	131072000	65	4705
2026-01-29 13:34:52.22	276.61	7.14	-47.2	-49.2	17.0	0.00e+00	0	42	0	133169152	65	4682
2026-01-29 13:34:53.23	276.76	7.17	-47.0	-49.0	17.2	0.00e+00	0	42	0	135266304	65	4568
2026-01-29 13:34:54.24	276.92	7.19	-46.8	-48.7	17.5	0.00e+00	0	42	0	136314880	65	4411
2026-01-29 13:34:55.24	277.07	7.22	-46.9	-48.7	17.4	0.00e+00	0	42	0	138412032	65	4441
2026-01-29 13:34:56.25	277.23	7.24	-46.8	-48.7	17.6	0.00e+00	0	42	0	140509184	65	4400
2026-01-29 13:34:57.25	277.38	7.27	-46.8	-48.7	17.6	0.00e+00	0	42	0	142606336	65	4424
2026-01-29 13:34:58.26	277.54	7.30	-46.8	-48.7	17.6	0.00e+00	0	42	0	144703488	65	4422
2026-01-29 13:34:59.27	277.70	7.32	-47.1	-49.1	17.2	0.00e+00	0	42	0	145752064	65	4605
2026-01-29 13:35:00.26	277.85	7.35	-47.2	-49.4	16.9	0.00e+00	0	42	0	147849216	65	4779
2026-01-29 13:35:01.27	278.01	7.37	-47.2	-49.4	16.7	0.00e+00	0	42	0	149946368	65	4804
2026-01-29 13:35:02.27	278.16	7.40	-47.3	-49.6	16.6	0.00e+00	0	42	0	152043520	65	4925
2026-01-29 13:35:03.28	278.32	7.42	-47.3	-49.6	16.6	0.00e+00	0	42	0	154140672	65	4886
2026-01-29 13:35:04.29	278.48	7.45	-47.3	-49.6	16.6	0.00e+00	0	42	0	155189248	65	4880
2026-01-29 13:35:05.29	278.63	7.47	-47.2	-49.5	16.7	0.00e+00	0	42	0	157286400	65	4826
2026-01-29 13:35:06.29	278.79	7.49	-47.3	-49.5	16.8	0.00e+00	0	42	0	159383552	65	4828
2026-01-29 13:35:07.30	278.95	7.52	-47.1	-49.3	16.9	0.00e+00	0	42	0	161480704	65	4740
2026-01-29 13:35:08.31	279.11	7.54	-47.3	-49.5	16.7	0.00e+00	0	42	0	163577856	65	4849
2026-01-29 13:35:09.32	279.26	7.57	-47.2	-49.4	16.9	0.00e+00	0	42	0	164626432	65	4766
2026-01-29 13:35:10.33	279.42	7.59	-47.2	-49.4	16.9	0.00e+00	0	42	0	166723584	65	4806
2026-01-29 13:35:11.34	279.58	7.61	-47.2	-49.4	16.9	0.00e+00	0	42	0	168820736	65	4761
2026-01-29 13:35:12.35	279.74	7.64	-47.1	-49.3	17.0	0.00e+00	0	42	0	170917888	65	4736
2026-01-29 13:35:13.35	279.90	7.66	-47.1	-49.3	17.0	0.00e+00	0	42	0	173015040	65	4720
2026-01-29 13:35:14.36	280.06	7.68	-47.1	-49.2	17.0	0.00e+00	0	42	0	174063616	65	4694
2026-01-29 13:35:15.37	280.22	7.71	-47.1	-49.2	17.1	0.00e+00	0	42	0	176160768	65	4678
2026-01-29 13:35:16.37	280.38	7.73	-47.1	-49.2	17.1	0.00e+00	0	42	0	178257920	65	4702
2026-01-29 13:35:17.38	280.54	7.75	-46.9	-48.9	17.3	0.00e+00	0	42	0	180355072	65	4537
2026-01-29 13:35:18.39	280.70	7.77	-46.8	-48.7	17.5	0.00e+00	0	42	0	182452224	65	4435
2026-01-29 13:35:19.39	280.86	7.80	-46.7	-48.7	17.6	0.00e+00	0	42	0	183500800	65	4408
2026-01-29 13:35:20.40	281.02	7.82	-46.7	-48.7	17.6	0.00e+00	0	42	0	185597952	65	4412
2026-01-29 13:35:21.41	281.19	7.84	-46.8	-48.7	17.6	0.00e+00	0	42	0	187695104	65	4407
2026-01-29 13:35:22.42	281.35	7.86	-47.1	-49.2	17.2	0.00e+00	0	42	0	189792256	65	4654
2026-01-29 13:35:23.43	281.51	7.88	-47.3	-49.5	16.8	0.00e+00	0	42	0	191889408	65	4859
2026-01-29 13:35:24.44	281.67	7.90	-47.5	-49.7	16.6	0.00e+00	0	42	0	192937984	65	4964
2026-01-29 13:35:25.45	281.84	7.92	-47.9	-50.4	16.0	0.00e+00	0	42	0	195035136	66	5074
2026-01-29 13:35:26.45	282.00	7.95	-48.1	-50.7	15.7	0.00e+00	0	42	0	197132288	66	5238
2026-01-29 13:35:27.46	282.16	7.97	-48.2	-50.7	15.6	0.00e+00	0	42	0	199229440	67	4978
2026-01-29 13:35:28.47	282.32	7.99	-48.4	-51.1	15.3	0.00e+00	0	42	0	201326592	67	5203
2026-01-29 13:35:29.47	282.49	8.01	-48.1	-50.7	15.7	0.00e+00	0	42	0	202375168	67	4940
2026-01-29 13:35:30.48	282.65	8.03	-48.0	-50.5	15.9	0.00e+00	0	42	0	204472320	67	4836
2026-01-29 13:35:31.49	282.81	8.05	-47.9	-50.3	16.1	0.00e+00	0	42	0	206569472	67	4720
2026-01-29 13:35:32.50	282.98	8.07	-47.8	-50.2	16.2	0.00e+00	0	42	0	208666624	67	4663
2026-01-29 13:35:33.51	283.14	8.09	-47.4	-49.5	16.9	0.00e+00	0	42	0	210763776	66	4591
2026-01-29 13:35:34.51	283.30	8.11	-47.4	-49.5	16.9	0.00e+00	0	42	0	211812352	66	4563
2026-01-29 13:35:35.52	283.47	8.13	-47.3	-49.4	17.1	0.00e+00	0	42	0	213909504	66	4497
2026-01-29 13:35:36.53	283.63	8.15	-47.3	-49.5	16.9	0.00e+00	0	42	0	216006656	66	4552
2026-01-29 13:35:37.54	283.80	8.16	-47.2	-49.3	17.2	0.00e+00	0	42	0	218103808	66	4447
2026-01-29 13:35:38.55	283.97	8.18	-47.3	-49.4	17.0	0.00e+00	0	42	0	220200960	66	4528
2026-01-29 13:35:39.55	284.13	8.20	-47.3	-49.3	17.1	0.00e+00	0	42	0	221249536	66	4484
2026-01-29 13:35:40.56	284.30	8.22	-47.2	-49.2	17.2	0.00e+00	0	42	0	223346688	66	4437
2026-01-29 13:35:41.57	284.46	8.24	-47.2	-49.2	17.2	0.00e+00	0	42	0	225443840	66	4403
2026-01-29 13:35:42.57	284.63	8.26	-47.3	-49.4	17.1	0.00e+00	0	42	0	227540992	66	4518
2026-01-29 13:35:43.58	284.79	8.27	-47.0	-48.9	17.5	0.00e+00	0	42	0	229638144	66	4275
2026-01-29 13:35:44.59	284.96	8.29	-46.9	-48.8	17.6	0.00e+00	0	42	0	230686720	65	4491
2026-01-29 13:35:45.60	285.13	8.31	-47.1	-49.1	17.4	0.00e+00	0	42	0	232783872	65	4635
2026-01-29 13:35:46.61	285.29	8.33	-47.3	-49.3	17.1	0.00e+00	0	42	0	234881024	65	4753
2026-01-29 13:35:47.61	285.46	8.34	-47.5	-49.6	16.9	0.00e+00	0	42	0	236978176	65	4890
2026-01-29 13:35:48.62	285.63	8.36	-47.8	-50.0	16.5	0.00e+00	0	42	0	239075328	66	4838
2026-01-29 13:35:49.63	285.79	8.38	-47.7	-50.0	16.5	0.00e+00	0	42	0	241172480	66	4839
2026-01-29 13:35:50.64	285.96	8.39	-47.8	-50.0	16.4	0.00e+00	0	42	0	242221056	66	4868
2026-01-29 13:35:51.64	286.13	8.41	-48.0	-50.3	16.2	0.00e+00	0	42	0	244318208	66	5034
2026-01-29 13:35:52.65	286.30	8.42	-48.0	-50.3	16.2	0.00e+00	0	42	0	246415360	66	5024
2026-01-29 13:35:53.66	286.46	8.44	-47.7	-50.0	16.6	0.00e+00	0	42	0	248512512	66	4824
2026-01-29 13:35:54.67	286.63	8.46	-47.4	-49.5	17.1	0.00e+00	0	42	0	249561088	66	4578
2026-01-29 13:35:55.67	286.80	8.47	-47.2	-49.2	17.4	0.00e+00	0	42	0	251658240	66	4409
2026-01-29 13:35:56.68	286.97	8.49	-47.1	-49.0	17.4	0.00e+00	0	42	0	253755392	66	4308
2026-01-29 13:35:57.69	287.14	8.50	-47.0	-48.9	17.6	0.00e+00	0	42	0	255852544	65	4514
2026-01-29 13:35:58.69	287.31	8.52	-47.1	-49.0	17.6	0.00e+00	0	42	0	257949696	65	4588
2026-01-29 13:35:59.70	287.48	8.53	-47.1	-49.0	17.6	0.00e+00	0	42	0	258998272	65	4589
2026-01-29 13:36:00.71	287.64	8.55	-47.1	-49.1	17.5	0.00e+00	0	42	0	261095424	65	4602
2026-01-29 13:36:01.71	287.81	8.56	-47.2	-49.2	17.3	0.00e+00	0	42	0	263192576	65	4682
2026-01-29 13:36:02.72	287.98	8.57	-47.2	-49.2	17.3	0.00e+00	0	42	0	265289728	65	4687
2026-01-29 13:36:03.73	288.15	8.59	-47.1	-49.1	17.5	0.00e+00	0	42	0	267386880	65	4623
2026-01-29 13:36:04.74	288.32	8.60	-47.1	-49.0	17.5	0.00e+00	0	42	0	269484032	65	4587
2026-01-29 13:36:05.74	288.49	8.61	-46.9	-48.7	17.8	0.00e+00	0	42	0	270532608	65	4428
2026-01-29 13:36:06.75	288.66	8.63	-46.7	-48.5	18.1	0.00e+00	0	42	0	272629760	65	4308
2026-01-29 13:36:07.76	288.83	8.64	-46.8	-48.6	18.0	0.00e+00	0	42	0	274726912	65	4357
2026-01-29 13:36:08.76	289.00	8.65	-46.8	-48.6	18.0	0.00e+00	0	42	0	276824064	65	4375
2026-01-29 13:36:09.77	289.17	8.67	-46.8	-48.6	17.9	0.00e+00	0	42	0	277872640	65	4386
2026-01-29 13:36:10.77	289.34	8.68	-46.8	-48.7	17.9	0.00e+00	0	42	0	279969792	65	4402
2026-01-29 13:36:11.78	289.51	8.69	-46.8	-48.7	17.9	0.00e+00	0	42	0	282066944	65	4401
2026-01-29 13:36:12.79	289.68	8.70	-46.8	-48.7	17.9	0.00e+00	0	42	0	284164096	65	4402
2026-01-29 13:36:13.80	289.85	8.71	-46.8	-48.6	17.9	0.00e+00	0	42	0	286261248	65	4389
2026-01-29 13:36:14.81	290.03	8.73	-46.7	-48.6	18.0	0.00e+00	0	42	0	287309824	65	4354
2026-01-29 13:36:15.81	290.20	8.74	-46.7	-48.6	18.1	0.00e+00	0	42	0	289406976	65	4343
2026-01-29 13:36:16.82	290.37	8.75	-46.8	-48.6	18.0	0.00e+00	0	42	0	291504128	65	4371
2026-01-29 13:36:17.83	290.54	8.76	-47.1	-49.0	17.7	0.00e+00	0	42	0	293601280	65	4575
2026-01-29 13:36:18.84	290.71	8.77	-47.3	-49.3	17.5	0.00e+00	0	42	0	295698432	65	4712
2026-01-29 13:36:19.85	290.88	8.78	-47.5	-49.7	17.0	0.00e+00	0	42	0	297795584	65	4939
2026-01-29 13:36:20.85	291.05	8.79	-47.8	-50.1	16.5	0.00e+00	0	42	0	298844160	66	4921
2026-01-29 13:36:21.86	291.23	8.80	-48.1	-50.5	16.2	0.00e+00	0	42	0	300941312	66	5109
2026-01-29 13:36:22.87	291.40	8.81	-48.2	-50.6	16.0	0.00e+00	0	42	0	303038464	66	5192
2026-01-29 13:36:23.87	291.57	8.82	-48.1	-50.5	16.2	0.00e+00	0	42	0	305135616	67	4837
2026-01-29 13:36:24.88	291.74	8.83	-48.1	-50.6	16.1	0.00e+00	0	42	0	306184192	67	4894
2026-01-29 13:36:25.89	291.92	8.84	-48.0	-50.4	16.3	0.00e+00	0	42	0	308281344	67	4793
2026-01-29 13:36:26.89	292.09	8.85	-48.1	-50.5	16.2	0.00e+00	0	42	0	310378496	67	4833
2026-01-29 13:36:27.90	292.26	8.85	-48.0	-50.3	16.4	0.00e+00	0	42	0	312475648	67	4740
2026-01-29 13:36:28.91	292.43	8.86	-48.0	-50.3	16.4	0.00e+00	0	42	0	314572800	67	4735
2026-01-29 13:36:29.91	292.60	8.87	-48.1	-50.5	16.2	0.00e+00	0	42	0	315621376	67	4843
2026-01-29 13:36:30.92	292.78	8.88	-48.1	-50.5	16.2	0.00e+00	0	42	0	317718528	67	4852
2026-01-29 13:36:31.92	292.95	8.89	-48.0	-50.3	16.3	0.00e+00	0	42	0	319815680	67	4727
2026-01-29 13:36:32.93	293.12	8.89	-48.1	-50.5	16.1	0.00e+00	0	42	0	321912832	67	4840
2026-01-29 13:36:33.94	293.30	8.90	-47.9	-50.2	16.4	0.00e+00	0	42	0	324009984	67	4677
2026-01-29 13:36:34.95	293.47	8.91	-47.8	-50.1	16.5	0.00e+00	0	42	0	326107136	67	4641
2026-01-29 13:36:35.96	293.64	8.92	-47.9	-50.2	16.4	0.00e+00	0	42	0	327155712	67	4662
2026-01-29 13:36:36.96	293.82	8.92	-48.0	-50.4	16.2	0.00e+00	0	42	0	329252864	67	4786
2026-01-29 13:36:37.97	293.99	8.93	-47.9	-50.3	16.3	0.00e+00	0	42	0	331350016	67	4727
2026-01-29 13:36:38.98	294.16	8.93	-48.0	-50.4	16.2	0.00e+00	0	42	0	333447168	67	4793
2026-01-29 13:36:39.99	294.34	8.94	-48.1	-50.5	16.1	0.00e+00	0	42	0	335544320	67	4865
2026-01-29 13:36:40.99	294.51	8.95	-48.1	-50.6	16.0	0.00e+00	0	42	0	336592896	67	4872
2026-01-29 13:36:42.00	294.68	8.95	-48.1	-50.5	16.1	0.00e+00	0	42	0	338690048	67	4844
2026-01-29 13:36:43.01	294.86	8.96	-48.0	-50.5	16.1	0.00e+00	0	42	0	340787200	67	4821
2026-01-29 13:36:44.01	295.03	8.96	-48.1	-50.5	16.0	0.00e+00	0	42	0	342884352	67	4852
2026-01-29 13:36:45.02	295.20	8.97	-48.0	-50.4	16.1	0.00e+00	0	42	0	343932928	67	4811
2026-01-29 13:36:46.03	295.38	8.97	-47.8	-50.2	16.3	0.00e+00	0	42	0	346030080	67	4660
2026-01-29 13:36:47.03	295.55	8.98	-47.7	-50.0	16.5	0.00e+00	0	42	0	348127232	67	4572
2026-01-29 13:36:48.04	295.73	8.98	-47.7	-50.0	16.6	0.00e+00	0	42	0	350224384	67	4548
2026-01-29 13:36:49.05	295.90	8.98	-47.6	-49.8	16.7	0.00e+00	0	42	0	352321536	67	4459
2026-01-29 13:36:50.06	296.07	8.99	-47.5	-49.7	16.9	0.00e+00	0	42	0	354418688	66	4670
2026-01-29 13:36:51.07	296.25	8.99	-47.5	-49.7	16.8	0.00e+00	0	42	0	355467264	66	4705
2026-01-29 13:36:52.08	296.42	8.99	-47.5	-49.8	16.7	0.00e+00	0	42	0	357564416	66	4717
2026-01-29 13:36:53.09	296.60	9.00	-47.6	-49.8	16.6	0.00e+00	0	42	0	359661568	66	4744
2026-01-29 13:36:54.09	296.77	9.00	-47.5	-49.7	16.8	0.00e+00	0	42	0	361758720	66	4662
2026-01-29 13:36:55.10	296.95	9.00	-47.6	-49.8	16.7	0.00e+00	0	42	0	362807296	66	4723
2026-01-29 13:36:56.11	297.12	9.00	-47.5	-49.7	16.7	0.00e+00	0	42	0	364904448	66	4692
2026-01-29 13:36:57.12	297.29	9.01	-47.3	-49.4	17.0	0.00e+00	0	42	0	367001600	66	4510
2026-01-29 13:36:58.13	297.47	9.01	-47.1	-49.2	17.2	0.00e+00	0	42	0	369098752	66	4418
2026-01-29 13:36:59.13	297.64	9.01	-47.1	-49.2	17.3	0.00e+00	0	42	0	371195904	66	4393
2026-01-29 13:37:00.14	297.82	9.01	-47.1	-49.2	17.2	0.00e+00	0	42	0	373293056	66	4413
2026-01-29 13:37:01.14	297.99	9.01	-47.2	-49.2	17.2	0.00e+00	0	42	0	374341632	66	4439
2026-01-29 13:37:02.14	298.16	9.01	-47.3	-49.4	17.0	0.00e+00	0	42	0	376438784	66	4508
2026-01-29 13:37:03.15	298.34	9.01	-47.3	-49.4	17.0	0.00e+00	0	42	0	378535936	66	4506
2026-01-29 13:37:04.15	298.51	9.01	-47.4	-49.6	16.9	0.00e+00	0	42	0	380633088	66	4602
2026-01-29 13:37:05.16	298.69	9.02	-47.3	-49.5	16.9	0.00e+00	0	42	0	382730240	66	4556
2026-01-29 13:37:06.17	298.86	9.02	-47.5	-49.7	16.8	0.00e+00	0	42	0	383778816	66	4657
2026-01-29 13:37:07.17	299.03	9.01	-47.3	-49.4	17.0	0.00e+00	0	42	0	385875968	66	4539
2026-01-29 13:37:08.18	299.21	9.01	-47.1	-49.2	17.2	0.00e+00	0	42	0	387973120	66	4413
2026-01-29 13:37:09.19	299.38	9.01	-47.1	-49.1	17.3	0.00e+00	0	42	0	390070272	66	4355
2026-01-29 13:37:10.20	299.56	9.01	-46.9	-48.8	17.6	0.00e+00	0	42	0	392167424	65	4465
2026-01-29 13:37:11.21	299.73	9.01	-46.8	-48.7	17.7	0.00e+00	0	42	0	393216000	65	4424
2026-01-29 13:37:12.21	299.91	9.01	-46.8	-48.7	17.7	0.00e+00	0	42	0	395313152	65	4423
2026-01-29 13:37:13.22	300.08	9.01	-46.7	-48.6	17.8	0.00e+00	0	42	0	397410304	65	4360
2026-01-29 13:37:14.23	300.25	9.01	-46.7	-48.5	17.9	0.00e+00	0	42	0	399507456	65	4333
2026-01-29 13:37:15.24	300.43	9.01	-46.7	-48.6	17.8	0.00e+00	0	42	0	401604608	65	4367
2026-01-29 13:37:16.25	300.60	9.00	-46.6	-48.5	17.9	0.00e+00	0	42	0	402653184	65	4295
2026-01-29 13:37:17.25	300.78	9.00	-46.6	-48.4	17.9	0.00e+00	0	42	0	404750336	65	4263
2026-01-29 13:37:18.26	300.95	9.00	-46.3	-48.0	18.3	0.00e+00	0	42	0	406847488	64	4332
2026-01-29 13:37:19.27	301.13	8.99	-46.0	-47.7	18.6	0.00e+00	0	42	0	408944640	64	4160
2026-01-29 13:37:20.28	301.30	8.99	-46.0	-47.7	18.7	0.00e+00	0	42	0	411041792	63	4399
2026-01-29 13:37:21.28	301.47	8.99	-46.0	-47.6	18.8	0.00e+00	0	42	0	412090368	63	4351
2026-01-29 13:37:22.29	301.65	8.98	-46.0	-47.6	18.8	0.00e+00	0	42	0	414187520	63	4347
2026-01-29 13:37:23.30	301.82	8.98	-46.0	-47.7	18.7	0.00e+00	0	42	0	416284672	63	4403
2026-01-29 13:37:24.30	301.99	8.98	-46.2	-47.9	18.5	0.00e+00	0	42	0	418381824	63	4524
2026-01-29 13:37:25.31	302.17	8.97	-46.5	-48.3	18.1	0.00e+00	0	42	0	420478976	63	4723
2026-01-29 13:37:26.32	302.34	8.97	-46.5	-48.3	18.1	0.00e+00	0	42	0	421527552	63	4753
2026-01-29 13:37:27.33	302.52	8.96	-46.6	-48.5	17.9	0.00e+00	0	42	0	423624704	63	4827
2026-01-29 13:37:28.33	302.69	8.96	-46.6	-48.5	17.8	0.00e+00	0	42	0	425721856	64	4552
2026-01-29 13:37:29.34	302.86	8.95	-46.4	-48.1	18.1	0.00e+00	0	42	0	427819008	64	4386
2026-01-29 13:37:30.35	303.04	8.95	-46.2	-47.9	18.3	0.00e+00	0	42	0	429916160	64	4284
2026-01-29 13:37:31.36	303.21	8.94	-46.1	-47.7	18.5	0.00e+00	0	42	0	430964736	64	4190
2026-01-29 13:37:32.36	303.38	8.94	-46.3	-48.0	18.3	0.00e+00	0	42	0	433061888	64	4329
2026-01-29 13:37:33.37	303.56	8.93	-46.3	-48.1	18.2	0.00e+00	0	42	0	435159040	64	4345
2026-01-29 13:37:34.38	303.73	8.92	-46.4	-48.2	18.1	0.00e+00	0	42	0	437256192	64	4415
2026-01-29 13:37:35.39	303.90	8.92	-46.4	-48.2	18.1	0.00e+00	0	42	0	439353344	64	4406
2026-01-29 13:37:36.40	304.08	8.91	-46.5	-48.3	17.9	0.00e+00	0	42	0	440401920	64	4473
2026-01-29 13:37:37.41	304.25	8.90	-46.5	-48.4	17.9	0.00e+00	0	42	0	442499072	64	4504
2026-01-29 13:37:38.41	304.42	8.90	-46.4	-48.2	18.0	0.00e+00	0	42	0	444596224	64	4427
2026-01-29 13:37:39.42	304.60	8.89	-46.5	-48.3	17.9	0.00e+00	0	42	0	446693376	64	4472
2026-01-29 13:37:40.43	304.77	8.88	-46.2	-48.0	18.2	0.00e+00	0	42	0	448790528	64	4334
2026-01-29 13:37:41.44	304.94	8.87	-46.1	-47.9	18.4	0.00e+00	0	42	0	449839104	64	4260
2026-01-29 13:37:42.45	305.11	8.86	-46.0	-47.7	18.6	0.00e+00	0	42	0	451936256	63	4420
2026-01-29 13:37:43.45	305.29	8.86	-46.0	-47.7	18.6	0.00e+00	0	42	0	454033408	63	4413
2026-01-29 13:37:44.46	305.46	8.85	-46.1	-47.8	18.5	0.00e+00	0	42	0	456130560	63	4486
2026-01-29 13:37:45.47	305.63	8.84	-46.2	-47.9	18.4	0.00e+00	0	42	0	458227712	63	4545
2026-01-29 13:37:46.48	305.80	8.83	-46.2	-47.9	18.4	0.00e+00	0	42	0	459276288	63	4525
2026-01-29 13:37:47.49	305.98	8.82	-46.2	-48.0	18.3	0.00e+00	0	42	0	461373440	63	4561
2026-01-29 13:37:48.49	306.15	8.81	-46.3	-48.0	18.3	0.00e+00	0	42	0	463470592	63	4584
2026-01-29 13:37:49.50	306.32	8.80	-46.2	-47.9	18.4	0.00e+00	0	42	0	465567744	63	4527
2026-01-29 13:37:50.51	306.49	8.79	-46.1	-47.8	18.4	0.00e+00	0	42	0	467664896	63	4492
2026-01-29 13:37:51.51	306.66	8.78	-46.0	-47.7	18.6	0.00e+00	0	42	0	468713472	63	4407
2026-01-29 13:37:52.52	306.83	8.77	-45.7	-47.3	18.9	0.00e+00	0	42	0	470810624	63	4231
2026-01-29 13:37:53.53	307.01	8.76	-45.6	-47.1	19.1	0.00e+00	0	42	0	472907776	63	4142
2026-01-29 13:37:54.54	307.18	8.75	-45.3	-46.8	19.4	0.00e+00	0	42	0	475004928	62	4219
2026-01-29 13:37:55.55	307.35	8.74	-45.1	-46.5	19.6	0.00e+00	0	42	0	477102080	62	4094
2026-01-29 13:37:56.56	307.52	8.73	-45.0	-46.4	19.8	0.00e+00	0	42	0	478150656	62	4036
2026-01-29 13:37:57.57	307.69	8.72	-45.0	-46.4	19.7	0.00e+00	0	42	0	480247808	61	4282
2026-01-29 13:37:58.57	307.86	8.71	-45.1	-46.5	19.7	0.00e+00	0	42	0	482344960	61	4334
2026-01-29 13:37:59.58	308.03	8.69	-45.1	-46.6	19.5	0.00e+00	0	42	0	484442112	61	4379
2026-01-29 13:38:00.59	308.20	8.68	-45.3	-46.8	19.3	0.00e+00	0	42	0	486539264	61	4493
2026-01-29 13:38:01.60	308.37	8.67	-45.4	-47.0	19.2	0.00e+00	0	42	0	487587840	61	4547
2026-01-29 13:38:02.61	308.54	8.66	-45.7	-47.3	18.9	0.00e+00	0	42	0	489684992	61	4736
2026-01-29 13:38:03.61	308.71	8.64	-45.8	-47.5	18.8	0.00e+00	0	42	0	491782144	62	4552
2026-01-29 13:38:04.62	308.88	8.63	-45.9	-47.6	18.7	0.00e+00	0	42	0	493879296	62	4612
2026-01-29 13:38:05.63	309.05	8.62	-45.8	-47.5	18.8	0.00e+00	0	42	0	495976448	62	4562
2026-01-29 13:38:06.64	309.22	8.61	-45.8	-47.4	18.8	0.00e+00	0	42	0	498073600	62	4513
2026-01-29 13:38:07.65	309.39	8.59	-45.6	-47.2	19.0	0.00e+00	0	42	0	499122176	62	4405
2026-01-29 13:38:08.65	309.56	8.58	-45.7	-47.3	18.9	0.00e+00	0	42	0	501219328	62	4453
2026-01-29 13:38:09.66	309.73	8.56	-45.7	-47.3	19.0	0.00e+00	0	42	0	503316480	62	4448
2026-01-29 13:38:10.67	309.90	8.55	-45.7	-47.4	18.8	0.00e+00	0	42	0	505413632	62	4506
2026-01-29 13:38:11.68	310.07	8.54	-45.8	-47.4	18.8	0.00e+00	0	42	0	506462208	62	4525
2026-01-29 13:38:12.69	310.24	8.52	-45.8	-47.5	18.7	0.00e+00	0	42	0	508559360	62	4548
2026-01-29 13:38:13.70	310.41	8.51	-45.8	-47.5	18.7	0.00e+00	0	42	0	510656512	62	4572
2026-01-29 13:38:14.71	310.58	8.49	-45.9	-47.6	18.6	0.00e+00	0	42	0	512753664	62	4609
2026-01-29 13:38:15.72	310.74	8.48	-45.7	-47.3	18.8	0.00e+00	0	42	0	514850816	62	4469
2026-01-29 13:38:16.73	310.91	8.46	-45.5	-47.1	19.1	0.00e+00	0	42	0	516947968	62	4367
2026-01-29 13:38:17.73	311.08	8.45	-45.4	-47.0	19.1	0.00e+00	0	42	0	517996544	62	4292
2026-01-29 13:38:18.74	311.25	8.43	-45.5	-47.1	19.0	0.00e+00	0	42	0	520093696	62	4379
2026-01-29 13:38:19.75	311.41	8.41	-45.5	-47.0	19.1	0.00e+00	0	42	0	522190848	62	4332
2026-01-29 13:38:20.75	311.58	8.40	-45.4	-47.0	19.2	0.00e+00	0	42	0	524288000	62	4306
2026-01-29 13:38:21.76	311.75	8.38	-45.5	-47.0	19.1	0.00e+00	0	42	0	526385152	62	4317
2026-01-29 13:38:22.77	311.92	8.37	-45.6	-47.2	19.0	0.00e+00	0	42	0	527433728	62	4403
2026-01-29 13:38:23.78	312.08	8.35	-45.6	-47.1	19.0	0.00e+00	0	42	0	529530880	62	4389
2026-01-29 13:38:24.78	312.25	8.33	-45.8	-47.4	18.8	0.00e+00	0	42	0	531628032	62	4528
2026-01-29 13:38:25.79	312.41	8.31	-45.9	-47.6	18.6	0.00e+00	0	42	0	533725184	62	4620
2026-01-29 13:38:26.80	312.58	8.30	-46.1	-47.9	18.3	0.00e+00	0	42	0	534773760	62	4783
2026-01-29 13:38:27.81	312.75	8.28	-46.3	-48.0	18.1	0.00e+00	0	42	0	536870912	63	4590
2026-01-29 13:38:28.81	312.91	8.26	-46.3	-48.1	18.0	0.00e+00	0	42	0	538968064	63	4643
2026-01-29 13:38:29.82	313.08	8.24	-46.4	-48.2	18.0	0.00e+00	0	42	0	541065216	63	4668
2026-01-29 13:38:30.83	313.24	8.23	-46.4	-48.3	17.9	0.00e+00	0	42	0	543162368	63	4729
2026-01-29 13:38:31.84	313.41	8.21	-46.5	-48.3	17.9	0.00e+00	0	42	0	545259520	63	4732
2026-01-29 13:38:32.84	313.57	8.19	-46.5	-48.3	17.9	0.00e+00	0	42	0	546308096	63	4738
2026-01-29 13:38:33.85	313.74	8.17	-46.4	-48.2	18.0	0.00e+00	0	42	0	548405248	63	4685
2026-01-29 13:38:34.86	313.90	8.15	-46.3	-48.1	18.0	0.00e+00	0	42	0	550502400	63	4609
2026-01-29 13:38:35.87	314.07	8.13	-46.1	-47.8	18.3	0.00e+00	0	42	0	552599552	63	4479
2026-01-29 13:38:36.88	314.23	8.11	-46.1	-47.9	18.3	0.00e+00	0	42	0	554696704	63	4501
2026-01-29 13:38:37.89	314.40	8.09	-45.8	-47.5	18.6	0.00e+00	0	42	0	555745280	63	4318
2026-01-29 13:38:38.89	314.56	8.08	-45.6	-47.2	18.9	0.00e+00	0	42	0	557842432	63	4183
2026-01-29 13:38:39.90	314.72	8.06	-45.5	-47.1	19.0	0.00e+00	0	42	0	559939584	62	4365
2026-01-29 13:38:40.91	314.89	8.04	-45.1	-46.6	19.5	0.00e+00	0	42	0	562036736	62	4129
2026-01-29 13:38:41.92	315.05	8.02	-44.9	-46.4	19.7	0.00e+00	0	42	0	563085312	61	4250
2026-01-29 13:38:42.93	315.21	7.99	-44.6	-46.0	20.0	0.00e+00	0	42	0	565182464	61	4084
2026-01-29 13:38:43.93	315.37	7.97	-44.5	-45.9	20.1	0.00e+00	0	42	0	567279616	61	4009
2026-01-29 13:38:44.94	315.54	7.95	-44.5	-45.8	20.1	0.00e+00	0	42	0	569376768	60	4238
2026-01-29 13:38:45.95	315.70	7.93	-44.5	-45.9	20.1	0.00e+00	0	42	0	571473920	60	4244
2026-01-29 13:38:46.96	315.86	7.91	-44.5	-45.8	20.1	0.00e+00	0	42	0	573571072	60	4238
2026-01-29 13:38:47.97	316.02	7.89	-44.6	-46.0	20.0	0.00e+00	0	42	0	574619648	60	4308
2026-01-29 13:38:48.98	316.19	7.87	-44.8	-46.2	19.8	0.00e+00	0	42	0	576716800	60	4408
2026-01-29 13:38:49.99	316.35	7.85	-44.9	-46.3	19.7	0.00e+00	0	42	0	578813952	60	4457
2026-01-29 13:38:51.00	316.51	7.83	-44.9	-46.3	19.7	0.00e+00	0	42	0	580911104	60	4483
2026-01-29 13:38:52.01	316.67	7.80	-45.1	-46.5	19.5	0.00e+00	0	42	0	583008256	60	4588
2026-01-29 13:38:53.01	316.83	7.78	-44.9	-46.4	19.6	0.00e+00	0	42	0	584056832	60	4507
2026-01-29 13:38:54.02	316.99	7.76	-44.9	-46.3	19.7	0.00e+00	0	42	0	586153984	60	4471
2026-01-29 13:38:55.02	317.15	7.74	-44.9	-46.4	19.6	0.00e+00	0	42	0	588251136	60	4500
2026-01-29 13:38:56.03	317.31	7.72	-44.9	-46.4	19.7	0.00e+00	0	42	0	590348288	60	4508
2026-01-29 13:38:57.03	317.47	7.69	-45.0	-46.5	19.6	0.00e+00	0	42	0	592445440	60	4560
2026-01-29 13:38:58.04	317.63	7.67	-45.1	-46.6	19.4	0.00e+00	0	42	0	593494016	60	4610
2026-01-29 13:38:59.05	317.79	7.65	-45.0	-46.5	19.6	0.00e+00	0	42	0	595591168	60	4552
2026-01-29 13:39:00.06	317.95	7.62	-45.2	-46.7	19.3	0.00e+00	0	42	0	597688320	60	4662
2026-01-29 13:39:01.07	318.11	7.60	-45.1	-46.6	19.4	0.00e+00	0	42	0	599785472	60	4607
2026-01-29 13:39:02.08	318.26	7.58	-45.2	-46.8	19.3	0.00e+00	0	42	0	601882624	61	4446
2026-01-29 13:39:03.09	318.42	7.55	-45.2	-46.7	19.3	0.00e+00	0	42	0	602931200	61	4401
2026-01-29 13:39:04.09	318.58	7.53	-45.3	-46.8	19.3	0.00e+00	0	42	0	605028352	61	4451
2026-01-29 13:39:05.10	318.74	7.51	-45.2	-46.7	19.3	0.00e+00	0	42	0	607125504	61	4408
2026-01-29 13:39:06.10	318.89	7.48	-45.2	-46.7	19.3	0.00e+00	0	42	0	609222656	61	4423
2026-01-29 13:39:07.11	319.05	7.46	-45.3	-46.9	19.1	0.00e+00	0	42	0	611319808	61	4501
2026-01-29 13:39:08.12	319.21	7.43	-45.2	-46.7	19.2	0.00e+00	0	42	0	612368384	61	4437
2026-01-29 13:39:09.13	319.36	7.41	-45.2	-46.7	19.3	0.00e+00	0	42	0	614465536	61	4408
2026-01-29 13:39:10.14	319.52	7.38	-45.0	-46.5	19.5	0.00e+00	0	42	0	616562688	61	4321
2026-01-29 13:39:11.15	319.68	7.36	-44.8	-46.2	19.7	0.00e+00	0	42	0	618659840	61	4156
2026-01-29 13:39:12.15	319.83	7.33	-44.7	-46.1	19.9	0.00e+00	0	42	0	620756992	61	4109
2026-01-29 13:39:13.16	319.99	7.31	-44.5	-45.8	20.1	0.00e+00	0	42	0	621805568	61	3980
2026-01-29 13:39:14.17	320.14	7.28	-44.6	-46.0	19.9	0.00e+00	0	42	0	623902720	60	4326
2026-01-29 13:39:15.18	320.30	7.26	-44.7	-46.1	19.9	0.00e+00	0	42	0	625999872	60	4366
2026-01-29 13:39:16.19	320.45	7.23	-44.8	-46.2	19.8	0.00e+00	0	42	0	628097024	60	4401
2026-01-29 13:39:17.19	320.61	7.20	-44.9	-46.3	19.6	0.00e+00	0	42	0	630194176	60	4472
2026-01-29 13:39:18.20	320.76	7.18	-45.1	-46.6	19.4	0.00e+00	0	42	0	631242752	60	4631
2026-01-29 13:39:19.21	320.92	7.15	-45.3	-46.9	19.1	0.00e+00	0	42	0	633339904	61	4510
2026-01-29 13:39:20.22	321.07	7.13	-45.4	-47.0	19.0	0.00e+00	0	42	0	635437056	61	4577
2026-01-29 13:39:21.22	321.22	7.10	-45.6	-47.2	18.8	0.00e+00	0	42	0	637534208	61	4702
2026-01-29 13:39:22.23	321.38	7.07	-45.6	-47.3	18.8	0.00e+00	0	42	0	639631360	62	4453
2026-01-29 13:39:23.24	321.53	7.05	-45.6	-47.2	18.8	0.00e+00	0	42	0	641728512	62	4412
2026-01-29 13:39:24.24	321.68	7.02	-45.5	-47.1	18.9	0.00e+00	0	42	0	642777088	62	4351
2026-01-29 13:39:25.25	321.83	6.99	-45.3	-46.8	19.2	0.00e+00	0	42	0	644874240	62	4216
2026-01-29 13:39:26.26	321.99	6.97	-45.4	-47.0	19.0	0.00e+00	0	42	0	646971392	62	4294
2026-01-29 13:39:27.27	322.14	6.94	-45.7	-47.4	18.6	0.00e+00	0	42	0	649068544	62	4495
2026-01-29 13:39:28.27	322.29	6.91	-45.7	-47.3	18.7	0.00e+00	0	42	0	650117120	62	4478
2026-01-29 13:39:29.28	322.44	6.88	-45.4	-47.0	18.9	0.00e+00	0	42	0	652214272	62	4331
2026-01-29 13:39:30.29	322.59	6.86	-45.6	-47.3	18.7	0.00e+00	0	42	0	654311424	62	4442
2026-01-29 13:39:31.29	322.74	6.83	-45.8	-47.5	18.5	0.00e+00	0	42	0	656408576	62	4547
2026-01-29 13:39:32.30	322.89	6.80	-45.8	-47.4	18.5	0.00e+00	0	42	0	658505728	62	4542
2026-01-29 13:39:33.31	323.04	6.77	-46.0	-47.8	18.2	0.00e+00	0	42	0	659554304	62	4726
2026-01-29 13:39:34.32	323.19	6.74	-46.1	-47.9	18.1	0.00e+00	0	42	0	661651456	62	4797
2026-01-29 13:39:35.33	323.34	6.72	-46.3	-48.2	17.8	0.00e+00	0	42	0	663748608	63	4672
2026-01-29 13:39:36.34	323.49	6.69	-46.7	-48.7	17.4	0.00e+00	0	42	0	665845760	63	4928
2026-01-29 13:39:37.34	323.64	6.66	-46.6	-48.6	17.3	0.00e+00	0	42	0	667942912	64	4649
2026-01-29 13:39:38.35	323.79	6.63	-46.7	-48.7	17.2	0.00e+00	0	42	0	670040064	64	4677
2026-01-29 13:39:39.36	323.94	6.60	-46.8	-48.9	17.0	0.00e+00	0	42	0	671088640	64	4779
2026-01-29 13:39:40.36	324.08	6.57	-46.7	-48.7	17.1	0.00e+00	0	42	0	673185792	64	4700
2026-01-29 13:39:41.37	324.23	6.54	-46.6	-48.6	17.2	0.00e+00	0	42	0	675282944	64	4633
2026-01-29 13:39:42.38	324.38	6.51	-46.6	-48.6	17.3	0.00e+00	0	42	0	677380096	64	4612
2026-01-29 13:39:43.39	324.53	6.48	-46.7	-48.7	17.2	0.00e+00	0	42	0	678428672	64	4702
2026-01-29 13:39:44.39	324.67	6.45	-46.7	-48.8	17.2	0.00e+00	0	42	0	680525824	64	4721
2026-01-29 13:39:45.40	324.82	6.42	-46.9	-49.0	16.9	0.00e+00	0	42	0	682622976	64	4833
2026-01-29 13:39:46.41	324.97	6.39	-46.9	-49.0	16.9	0.00e+00	0	42	0	684720128	64	4852
2026-01-29 13:39:47.42	325.11	6.36	-47.0	-49.2	16.7	0.00e+00	0	42	0	686817280	64	4929
2026-01-29 13:39:48.42	325.26	6.33	-47.0	-49.2	16.7	0.00e+00	0	42	0	687865856	64	4971
2026-01-29 13:39:49.43	325.41	6.30	-47.0	-49.1	16.8	0.00e+00	0	42	0	689963008	64	4923
2026-01-29 13:39:50.44	325.55	6.27	-46.9	-49.1	16.8	0.00e+00	0	42	0	692060160	64	4913
2026-01-29 13:39:51.45	325.70	6.24	-46.9	-49.1	16.7	0.00e+00	0	42	0	694157312	64	4921
2026-01-29 13:39:52.45	325.84	6.21	-46.7	-48.8	17.0	0.00e+00	0	42	0	696254464	64	4726
2026-01-29 13:39:53.46	325.98	6.18	-46.6	-48.6	17.2	0.00e+00	0	42	0	698351616	64	4635
2026-01-29 13:39:54.47	326.13	6.15	-46.6	-48.7	17.1	0.00e+00	0	42	0	699400192	64	4671
2026-01-29 13:39:55.48	326.27	6.12	-46.5	-48.5	17.3	0.00e+00	0	42	0	701497344	64	4548
2026-01-29 13:39:56.49	326.42	6.09	-46.5	-48.5	17.4	0.00e+00	0	42	0	703594496	64	4572
2026-01-29 13:39:57.49	326.56	6.06	-46.7	-48.8	17.0	0.00e+00	0	42	0	705691648	64	4738
2026-01-29 13:39:58.50	326.70	6.03	-46.8	-49.0	16.9	0.00e+00	0	42	0	706740224	64	4838
2026-01-29 13:39:59.51	326.85	6.00	-47.0	-49.2	16.7	0.00e+00	0	42	0	708837376	64	4932
2026-01-29 13:40:00.52	326.99	5.97	-47.1	-49.3	16.5	0.00e+00	0	42	0	710934528	64	5039
2026-01-29 13:40:01.52	327.13	5.93	-47.1	-49.4	16.5	0.00e+00	0	42	0	713031680	64	5055
2026-01-29 13:40:02.53	327.27	5.90	-47.0	-49.2	16.6	0.00e+00	0	42	0	715128832	64	4960
2026-01-29 13:40:03.54	327.41	5.87	-47.1	-49.4	16.4	0.00e+00	0	42	0	717225984	64	5074
2026-01-29 13:40:04.54	327.55	5.84	-47.2	-49.5	16.3	0.00e+00	0	42	0	718274560	64	5136
2026-01-29 13:40:05.55	327.69	5.81	-47.0	-49.3	16.5	0.00e+00	0	42	0	720371712	64	5006
2026-01-29 13:40:06.56	327.83	5.78	-47.3	-49.6	16.2	0.00e+00	0	42	0	722468864	65	4921
2026-01-29 13:40:07.57	327.98	5.74	-47.2	-49.5	16.3	0.00e+00	0	42	0	724566016	65	4867
2026-01-29 13:40:08.58	328.12	5.71	-47.5	-50.0	15.8	0.00e+00	0	42	0	726663168	65	5151
2026-01-29 13:40:09.58	328.25	5.68	-47.7	-50.3	15.5	0.00e+00	0	42	0	727711744	66	5034
2026-01-29 13:40:10.59	328.39	5.65	-47.9	-50.7	15.1	0.00e+00	0	42	0	729808896	66	5267
2026-01-29 13:40:11.60	328.53	5.61	-48.3	-51.3	14.4	0.00e+00	0	42	0	731906048	67	5327
2026-01-29 13:40:12.61	328.67	5.58	-48.3	-51.3	14.4	7.00e-07	0	42	0	734003200	67	5339
2026-01-29 13:40:13.61	328.81	5.55	-48.6	-51.8	13.9	3.80e-06	0	42	0	735051776	67	5653
2026-01-29 13:40:14.62	328.95	5.52	-48.5	-51.7	14.0	3.00e-06	0	42	0	737148928	67	5574
2026-01-29 13:40:15.62	329.08	5.48	-48.4	-51.6	14.1	7.00e-07	0	42	0	739246080	67	5495
2026-01-29 13:40:16.63	329.22	5.45	-48.5	-51.7	14.0	8.30e-06	0	42	0	741343232	67	5559
2026-01-29 13:40:17.64	329.36	5.42	-48.1	-51.0	14.7	1.50e-06	0	42	0	743440384	67	5156
2026-01-29 13:40:18.65	329.50	5.38	-48.0	-50.8	14.9	0.00e+00	0	42	0	745537536	67	5037
2026-01-29 13:40:19.65	329.63	5.35	-47.7	-50.3	15.3	0.00e+00	0	42	0	746586112	67	4747
2026-01-29 13:40:20.66	329.77	5.32	-47.6	-50.2	15.5	0.00e+00	0	42	0	748683264	67	4690
2026-01-29 13:40:21.67	329.91	5.28	-47.7	-50.4	15.4	0.00e+00	0	42	0	750780416	67	4775
2026-01-29 13:40:22.67	330.04	5.25	-47.5	-50.0	15.8	0.00e+00	0	42	0	752877568	66	4828
2026-01-29 13:40:23.68	330.18	5.22	-47.6	-50.1	15.6	0.00e+00	0	42	0	754974720	66	4906
2026-01-29 13:40:24.68	330.31	5.18	-47.6	-50.1	15.6	0.00e+00	0	42	0	756023296	66	4924
2026-01-29 13:40:25.69	330.45	5.15	-47.6	-50.2	15.6	0.00e+00	0	42	0	758120448	66	4937
2026-01-29 13:40:26.70	330.58	5.12	-47.7	-50.3	15.3	0.00e+00	0	42	0	760217600	66	5029
2026-01-29 13:40:27.71	330.72	5.08	-47.7	-50.3	15.4	0.00e+00	0	42	0	762314752	66	5030
2026-01-29 13:40:28.72	330.85	5.05	-47.8	-50.5	15.2	0.00e+00	0	42	0	763363328	66	5140
2026-01-29 13:40:29.72	330.98	5.01	-47.8	-50.5	15.2	0.00e+00	0	42	0	765460480	66	5115
2026-01-29 13:40:30.73	331.12	4.98	-52.1	-66.5	3.7	5.11e-05	32	42	0	767557632	74	20369
2026-01-29 13:40:31.74	331.25	4.95	-52.5	-67.5	3.8	1.49e+00	0	42	104	767557632	75	21589
2026-01-29 13:40:32.74	331.38	4.91	-52.8	-67.8	3.8	1.49e+00	0	42	104	767557632	76	21053
2026-01-29 13:40:33.75	331.51	4.88	-53.0	-68.0	3.8	1.49e+00	0	42	104	767557632	76	21561
2026-01-29 13:40:34.76	331.65	4.84	-53.1	-68.1	3.8	1.49e+00	0	42	104	767557632	76	21838
2026-01-29 13:40:35.77	331.78	4.81	-53.2	-68.2	3.8	1.49e+00	0	42	104	767557632	77	20904
2026-01-29 13:40:36.78	331.91	4.77	-53.3	-68.3	3.8	1.49e+00	0	42	104	767557632	77	21153
2026-01-29 13:40:37.78	332.04	4.74	-53.3	-68.3	3.8	1.49e+00	0	42	104	767557632	77	21174
2026-01-29 13:40:38.79	332.17	4.70	-53.3	-68.3	3.8	1.49e+00	0	42	104	767557632	77	21155
2026-01-29 13:40:39.80	332.30	4.67	-53.3	-68.3	3.8	1.49e+00	0	42	104	767557632	77	21026
2026-01-29 13:40:40.81	332.43	4.63	-53.2	-68.2	3.8	1.49e+00	0	42	104	767557632	77	20909
2026-01-29 13:40:41.81	332.56	4.60	-53.1	-68.1	3.8	1.49e+00	0	42	104	767557632	77	20557
2026-01-29 13:40:42.82	332.69	4.56	-53.1	-68.1	3.8	1.49e+00	0	42	104	767557632	77	20675
2026-01-29 13:40:43.83	332.82	4.53	-53.2	-68.2	3.8	1.49e+00	0	42	104	767557632	77	20794
2026-01-29 13:40:44.84	332.95	4.49	-53.3	-68.2	3.8	1.49e+00	0	42	104	767557632	77	20915
2026-01-29 13:40:45.85	333.08	4.46	-53.3	-68.3	3.8	1.49e+00	0	42	104	767557632	77	21048
2026-01-29 13:40:46.85	333.21	4.42	-53.3	-68.3	3.8	1.49e+00	0	42	104	767557632	77	21158
2026-01-29 13:40:47.86	333.34	4.39	-53.4	-68.3	3.8	1.49e+00	0	42	104	767557632	77	21162
2026-01-29 13:40:48.87	333.47	4.35	-53.4	-68.4	3.8	1.49e+00	0	42	104	767557632	77	21267
2026-01-29 13:40:49.87	333.59	4.32	-53.4	-68.4	3.8	1.49e+00	0	42	104	767557632	77	21299
2026-01-29 13:40:50.88	333.72	4.28	-53.5	-68.4	3.8	1.49e+00	0	42	104	767557632	77	21398
2026-01-29 13:40:51.89	333.85	4.24	-53.4	-68.4	3.8	1.49e+00	0	42	104	767557632	77	21411
2026-01-29 13:40:52.90	333.97	4.21	-53.4	-68.3	3.8	1.49e+00	0	42	104	767557632	77	21253
2026-01-29 13:40:53.91	334.10	4.17	-53.3	-68.3	3.8	1.49e+00	0	42	104	767557632	77	21140
2026-01-29 13:40:54.92	334.23	4.14	-53.3	-68.3	3.8	1.49e+00	0	42	104	767557632	77	21089
2026-01-29 13:40:55.93	334.35	4.10	-53.3	-68.3	3.8	1.49e+00	0	42	104	767557632	77	21044
2026-01-29 13:40:56.94	334.48	4.06	-53.3	-68.3	3.8	1.49e+00	0	42	104	767557632	77	21025
2026-01-29 13:40:57.94	334.60	4.03	-53.3	-68.3	3.8	1.49e+00	0	42	104	767557632	77	21072
2026-01-29 13:40:58.95	334.73	3.99	-53.3	-68.2	3.8	1.49e+00	0	42	104	767557632	77	20971
2026-01-29 13:40:59.96	334.85	3.96	-53.3	-68.2	3.8	1.49e+00	0	42	104	767557632	77	20956
2026-01-29 13:41:00.97	334.98	3.92	-53.2	-68.2	3.8	1.49e+00	0	42	104	767557632	77	20903
2026-01-29 13:41:01.97	335.10	3.88	-53.3	-68.2	3.8	1.49e+00	0	42	104	767557632	77	20897
2026-01-29 13:41:02.98	335.23	3.85	-53.2	-68.2	3.8	1.49e+00	0	42	104	767557632	77	20949
2026-01-29 13:41:03.99	335.35	3.81	-53.2	-68.2	3.8	1.49e+00	0	42	104	767557632	77	20846
2026-01-29 13:41:05.00	335.47	3.77	-53.2	-68.2	3.8	1.49e+00	0	42	104	767557632	77	20908
2026-01-29 13:41:06.00	335.60	3.74	-53.2	-68.2	3.8	1.49e+00	0	42	104	767557632	77	20819
2026-01-29 13:41:07.01	335.72	3.70	-53.2	-68.2	3.8	1.49e+00	0	42	104	767557632	77	20810
2026-01-29 13:41:08.02	335.84	3.66	-53.2	-68.2	3.8	1.49e+00	0	42	104	767557632	77	20784
2026-01-29 13:41:09.03	335.96	3.63	-53.2	-68.2	3.8	1.49e+00	0	42	104	767557632	77	20790
2026-01-29 13:41:10.04	336.09	3.59	-53.2	-68.1	3.8	1.49e+00	0	42	104	767557632	77	20762
2026-01-29 13:41:11.05	336.21	3.55	-53.2	-68.1	3.8	1.49e+00	0	42	104	767557632	77	20694
2026-01-29 13:41:12.05	336.33	3.52	-53.2	-68.1	3.8	1.49e+00	0	42	104	767557632	77	20735
2026-01-29 13:41:13.06	336.45	3.48	-53.2	-68.1	3.8	1.49e+00	0	42	104	767557632	77	20749
2026-01-29 13:41:14.07	336.57	3.44	-53.2	-68.1	3.8	1.49e+00	0	42	104	767557632	77	20719
2026-01-29 13:41:15.08	336.69	3.41	-53.2	-68.1	3.8	1.49e+00	0	42	104	767557632	77	20743
2026-01-29 13:41:16.09	336.81	3.37	-53.2	-68.1	3.8	1.49e+00	0	42	104	767557632	77	20695
2026-01-29 13:41:17.09	336.93	3.33	-53.2	-68.1	3.8	1.49e+00	0	42	104	767557632	77	20701
2026-01-29 13:41:18.10	337.05	3.29	-53.2	-68.1	3.8	1.49e+00	0	42	104	767557632	77	20670
2026-01-29 13:41:19.11	337.17	3.26	-53.2	-68.1	3.8	1.49e+00	0	42	104	767557632	77	20723
2026-01-29 13:41:20.12	337.29	3.22	-53.1	-68.1	3.8	1.49e+00	0	42	104	767557632	77	20639
2026-01-29 13:41:21.13	337.41	3.18	-53.1	-68.1	3.8	1.49e+00	0	42	104	767557632	77	20673
2026-01-29 13:41:22.14	337.52	3.14	-53.1	-68.1	3.8	1.49e+00	0	42	104	767557632	77	20644
2026-01-29 13:41:23.14	337.64	3.11	-53.1	-68.1	3.8	1.49e+00	0	42	104	767557632	77	20588
2026-01-29 13:41:24.15	337.76	3.07	-53.1	-68.1	3.8	1.49e+00	0	42	104	767557632	77	20606
2026-01-29 13:41:25.16	337.88	3.03	-53.1	-68.1	3.8	1.49e+00	0	42	104	767557632	77	20623
2026-01-29 13:41:26.17	338.00	2.99	-53.1	-68.1	3.8	1.49e+00	0	42	104	767557632	77	20626
2026-01-29 13:41:27.17	338.11	2.96	-53.1	-68.1	3.8	1.49e+00	0	42	104	767557632	77	20610
2026-01-29 13:41:28.18	338.23	2.92	-53.1	-68.1	3.8	1.49e+00	0	42	104	767557632	77	20602
2026-01-29 13:41:29.19	338.34	2.88	-53.1	-68.1	3.8	1.49e+00	0	42	104	767557632	77	20612
2026-01-29 13:41:30.20	338.46	2.84	-53.1	-68.1	3.8	1.49e+00	0	42	104	767557632	77	20610
2026-01-29 13:41:31.21	338.58	2.81	-53.1	-68.1	3.8	1.49e+00	0	42	104	767557632	77	20553
2026-01-29 13:41:32.21	338.69	2.77	-53.1	-68.0	3.8	1.49e+00	0	42	104	767557632	77	20491
2026-01-29 13:41:33.22	338.81	2.73	-53.1	-68.0	3.8	1.49e+00	0	42	104	767557632	77	20513
2026-01-29 13:41:34.23	338.92	2.69	-53.1	-68.0	3.8	1.49e+00	0	42	104	767557632	77	20538
2026-01-29 13:41:35.24	339.04	2.65	-53.1	-68.1	3.8	1.49e+00	0	42	104	767557632	77	20577
2026-01-29 13:41:36.25	339.15	2.62	-53.1	-68.0	3.8	1.49e+00	0	42	104	767557632	77	20532
2026-01-29 13:41:37.25	339.26	2.58	-53.1	-68.0	3.8	1.49e+00	0	42	104	767557632	77	20492
2026-01-29 13:41:38.26	339.38	2.54	-53.1	-68.1	3.8	1.49e+00	0	42	104	767557632	77	20546
2026-01-29 13:41:39.27	339.49	2.50	-53.1	-68.0	3.8	1.49e+00	0	42	104	767557632	77	20504
2026-01-29 13:41:40.27	339.60	2.46	-53.1	-68.0	3.8	1.49e+00	0	42	104	767557632	77	20464
2026-01-29 13:41:41.28	339.72	2.43	-53.1	-68.0	3.8	1.49e+00	0	42	104	767557632	77	20464
2026-01-29 13:41:42.29	339.83	2.39	-53.1	-68.0	3.8	1.49e+00	0	42	104	767557632	77	20494
2026-01-29 13:41:43.29	339.94	2.35	-53.1	-68.0	3.8	1.49e+00	0	42	104	767557632	77	20529
2026-01-29 13:41:44.31	340.06	2.31	-53.1	-68.0	3.8	1.49e+00	0	42	104	767557632	77	20477
2026-01-29 13:41:45.31	340.17	2.27	-53.1	-68.0	3.8	1.49e+00	0	42	104	767557632	77	20487
2026-01-29 13:41:46.32	340.28	2.23	-53.1	-68.0	3.8	1.49e+00	0	42	104	767557632	77	20524
2026-01-29 13:41:47.33	340.39	2.20	-53.1	-68.0	3.8	1.49e+00	0	42	104	767557632	77	20488
2026-01-29 13:41:48.33	340.50	2.16	-53.1	-68.0	3.8	1.49e+00	0	42	104	767557632	77	20486
2026-01-29 13:41:49.34	340.61	2.12	-53.1	-68.0	3.8	1.49e+00	0	42	104	767557632	77	20480
2026-01-29 13:41:50.35	340.72	2.08	-53.1	-68.0	3.8	1.49e+00	0	42	104	767557632	77	20503
2026-01-29 13:41:51.36	340.83	2.04	-53.1	-68.0	3.8	1.49e+00	0	42	104	767557632	77	20495
2026-01-29 13:41:52.37	340.94	2.00	-53.1	-68.0	3.8	1.49e+00	0	42	104	767557632	77	20479

#Closed at: 2026-01-29 13:41:52
#Recorded file [767 MB]: D:/lorett/data/31041_260129_163220.dat