passes_logs/2026/01/29/R3.2S_Murmansk/R3.2S_Murmansk__20260129_054106_KANOPUS-V_5_rec.log

#Pass ID: 20260129_054106_KANOPUS-V 5
#Satellite: KANOPUS-V 5
#Configuration: KANOPUS-V_8320
#almurnet v.1.7.20251203
#Start time: 2026-01-29 05:41:05

#Version: 2.2.20231116
#Station: R3.2S_Murmansk
#Location: 33.079688 lon 68.888172 lat
#TLE: 1 43876U 18111A   26027.97835917  .00004614  00000+0  19590-3 0  9997
#TLE: 2 43876  97.3677 296.2578 0001834  88.9595 271.1852 15.23564197393440

#Time	Az	El	Level	Level2	SNR	BER	BlckErr	Temp	State	Recorded	gain1	gain2
2026-01-29 05:41:05.93	103.77	2.00	-54.7	-63.5	3.8	7.47e-01	0	40	0	0	80	10263
2026-01-29 05:41:06.93	103.69	2.06	-54.7	-63.5	3.8	7.46e-01	0	40	104	0	80	10270
2026-01-29 05:41:07.94	103.61	2.12	-54.7	-63.6	3.8	7.46e-01	0	40	104	0	80	10308
2026-01-29 05:41:08.94	103.53	2.19	-54.7	-63.5	3.8	7.45e-01	0	40	104	0	80	10265
2026-01-29 05:41:09.95	103.45	2.25	-54.7	-63.5	3.8	7.46e-01	0	40	104	0	80	10249
2026-01-29 05:41:10.96	103.37	2.32	-54.7	-63.5	3.8	7.44e-01	0	40	104	0	80	10253
2026-01-29 05:41:11.97	103.28	2.38	-54.7	-63.5	3.8	7.45e-01	0	40	104	0	80	10239
2026-01-29 05:41:12.97	103.20	2.45	-54.7	-63.5	3.8	7.44e-01	0	40	104	0	80	10193
2026-01-29 05:41:13.98	103.12	2.51	-54.7	-63.5	3.8	7.47e-01	0	40	104	0	80	10241
2026-01-29 05:41:14.99	103.03	2.58	-54.7	-63.5	3.8	7.45e-01	0	40	104	0	80	10202
2026-01-29 05:41:16.00	102.95	2.64	-54.7	-63.5	3.8	7.46e-01	0	40	104	0	80	10235
2026-01-29 05:41:17.01	102.86	2.71	-54.8	-63.7	3.8	7.45e-01	0	40	104	0	80	10442
2026-01-29 05:41:18.01	102.78	2.77	-54.9	-63.8	3.8	7.46e-01	0	40	104	0	80	10549
2026-01-29 05:41:19.02	102.69	2.84	-54.9	-63.8	3.8	7.44e-01	0	40	104	0	80	10548
2026-01-29 05:41:20.02	102.61	2.90	-55.0	-63.8	3.8	7.46e-01	0	41	104	0	80	10643
2026-01-29 05:41:21.03	102.52	2.97	-54.9	-63.8	3.8	7.46e-01	0	41	104	0	80	10567
2026-01-29 05:41:22.04	102.43	3.04	-54.9	-63.8	3.8	7.45e-01	0	41	104	0	80	10563
2026-01-29 05:41:23.04	102.35	3.10	-54.9	-63.7	3.8	7.45e-01	0	40	104	0	80	10496
2026-01-29 05:41:24.05	102.26	3.17	-54.9	-63.7	3.8	7.45e-01	0	41	104	0	80	10498
2026-01-29 05:41:25.06	102.17	3.24	-54.8	-63.6	3.8	7.44e-01	0	41	104	0	80	10358
2026-01-29 05:41:26.07	102.08	3.30	-54.7	-63.6	3.8	7.47e-01	0	41	104	0	80	10305
2026-01-29 05:41:27.07	101.99	3.37	-54.6	-63.5	3.8	7.47e-01	0	41	104	0	80	10230
2026-01-29 05:41:28.08	101.90	3.44	-54.6	-63.5	3.8	7.45e-01	0	41	104	0	80	10186
2026-01-29 05:41:29.09	101.81	3.51	-54.6	-63.4	3.8	7.46e-01	0	41	104	0	80	10139
2026-01-29 05:41:30.10	101.71	3.57	-54.5	-63.4	3.8	7.46e-01	0	41	104	0	80	10084
2026-01-29 05:41:31.11	101.62	3.64	-54.4	-63.3	3.8	7.46e-01	0	41	104	0	80	9989
2026-01-29 05:41:32.11	101.53	3.71	-54.3	-63.1	3.8	7.42e-01	0	41	104	0	80	9764
2026-01-29 05:41:33.12	101.43	3.78	-54.1	-62.9	3.8	7.46e-01	0	41	104	0	80	9585
2026-01-29 05:41:34.13	101.34	3.85	-54.0	-62.8	3.8	7.45e-01	0	41	104	0	80	9458
2026-01-29 05:41:35.14	101.25	3.91	-54.0	-62.8	3.8	7.46e-01	0	41	104	0	79	10024
2026-01-29 05:41:36.14	101.15	3.98	-53.9	-62.7	3.8	7.44e-01	0	41	104	0	79	9917
2026-01-29 05:41:37.15	101.05	4.05	-53.8	-62.7	3.8	7.46e-01	0	41	104	0	79	9870
2026-01-29 05:41:38.15	100.96	4.12	-53.8	-62.6	3.8	7.45e-01	0	41	104	0	79	9771
2026-01-29 05:41:39.16	100.86	4.19	-53.7	-62.5	3.8	7.46e-01	0	41	104	0	79	9667
2026-01-29 05:41:40.17	100.76	4.26	-53.6	-62.4	3.8	7.45e-01	0	41	104	0	79	9560
2026-01-29 05:41:41.18	100.67	4.33	-53.4	-62.3	3.8	7.45e-01	0	41	104	0	78	9961
2026-01-29 05:41:42.18	100.57	4.40	-53.3	-62.1	3.8	7.47e-01	0	41	104	0	78	9780
2026-01-29 05:41:43.19	100.47	4.47	-53.1	-62.0	3.8	7.46e-01	0	41	104	0	78	9615
2026-01-29 05:41:44.20	100.37	4.54	-52.9	-61.7	3.8	7.45e-01	0	41	104	0	77	9836
2026-01-29 05:41:45.21	100.27	4.61	-52.2	-59.2	3.9	7.40e-01	0	41	104	0	76	7837
2026-01-29 05:41:46.21	100.17	4.68	-52.4	-59.9	3.8	7.44e-01	0	41	104	0	76	8492
2026-01-29 05:41:47.22	100.06	4.75	-52.5	-60.6	3.8	7.41e-01	0	41	104	0	76	9188
2026-01-29 05:41:48.23	99.96	4.82	-52.3	-59.7	3.8	7.42e-01	0	41	104	0	76	8353
2026-01-29 05:41:49.24	99.86	4.89	-51.4	-57.0	4.5	7.25e-01	0	41	0	6291456	74	6824
2026-01-29 05:41:50.24	99.75	4.96	-50.3	-54.7	5.7	6.88e-01	0	41	0	20971520	72	5911
2026-01-29 05:41:51.25	99.65	5.03	-49.2	-52.7	7.5	6.53e-01	0	41	0	35651584	70	5265
2026-01-29 05:41:52.26	99.54	5.10	-48.1	-51.1	9.4	6.28e-01	0	41	0	52428800	67	5178
2026-01-29 05:41:53.27	99.44	5.18	-47.8	-50.6	10.0	6.23e-01	0	41	0	67108864	67	4899
2026-01-29 05:41:54.27	99.33	5.25	-52.8	-61.6	3.8	7.45e-01	0	41	104	73400320	76	10315
2026-01-29 05:41:55.28	99.22	5.32	-51.1	-55.8	5.2	7.04e-01	0	41	104	73400320	74	5964
2026-01-29 05:41:56.29	99.11	5.39	-45.1	-47.3	13.1	6.07e-01	0	41	0	85983232	62	4487
2026-01-29 05:41:57.30	99.01	5.46	-45.3	-47.5	12.9	6.06e-01	0	41	0	102760448	62	4564
2026-01-29 05:41:58.31	98.90	5.54	-45.3	-47.6	12.9	6.06e-01	0	42	0	117440512	62	4602
2026-01-29 05:41:59.32	98.79	5.61	-45.2	-47.5	12.9	6.09e-01	0	41	0	132120576	62	4564
2026-01-29 05:42:00.33	98.67	5.68	-45.2	-47.5	12.9	6.08e-01	0	41	0	148897792	62	4550
2026-01-29 05:42:01.34	98.56	5.76	-44.9	-47.1	13.3	6.08e-01	0	41	0	165675008	61	4651
2026-01-29 05:42:02.35	98.45	5.83	-44.8	-47.0	13.4	6.08e-01	0	41	0	180355072	61	4556
2026-01-29 05:42:03.36	98.34	5.90	-45.0	-47.2	13.2	6.09e-01	0	41	0	195035136	61	4678
2026-01-29 05:42:04.37	98.22	5.98	-44.9	-47.1	13.4	6.08e-01	0	41	0	211812352	61	4608
2026-01-29 05:42:05.37	98.11	6.05	-44.9	-47.1	13.3	6.09e-01	0	41	0	226492416	61	4601
2026-01-29 05:42:06.38	97.99	6.12	-44.8	-47.0	13.4	6.08e-01	0	41	0	241172480	61	4546
2026-01-29 05:42:07.39	97.88	6.20	-45.0	-47.2	13.2	6.08e-01	0	41	0	257949696	61	4678
2026-01-29 05:42:08.39	97.76	6.27	-44.8	-46.9	13.5	6.08e-01	0	41	0	272629760	61	4537
2026-01-29 05:42:09.40	97.64	6.35	-44.7	-46.8	13.5	6.06e-01	0	42	0	287309824	61	4489
2026-01-29 05:42:10.41	97.52	6.42	-44.5	-46.6	13.8	6.09e-01	0	41	0	304087040	61	4366
2026-01-29 05:42:11.41	97.40	6.50	-44.7	-46.8	13.6	6.08e-01	0	41	0	318767104	60	4736
2026-01-29 05:42:12.42	97.28	6.57	-44.4	-46.5	13.8	6.07e-01	0	42	0	333447168	60	4582
2026-01-29 05:42:13.43	97.16	6.65	-44.5	-46.6	13.7	6.07e-01	0	41	0	350224384	60	4635
2026-01-29 05:42:14.44	97.04	6.72	-44.4	-46.4	13.9	6.07e-01	0	41	0	367001600	60	4541
2026-01-29 05:42:15.45	96.92	6.80	-44.4	-46.5	13.8	6.08e-01	0	41	0	381681664	60	4597
2026-01-29 05:42:16.46	96.79	6.88	-44.5	-46.6	13.7	6.08e-01	0	41	0	396361728	60	4636
2026-01-29 05:42:17.47	96.67	6.95	-44.5	-46.6	13.7	6.07e-01	0	42	0	413138944	60	4637
2026-01-29 05:42:18.47	96.55	7.03	-44.4	-46.5	13.9	6.07e-01	0	42	0	427819008	60	4589
2026-01-29 05:42:19.48	96.42	7.11	-44.3	-46.4	14.0	6.06e-01	0	41	0	442499072	60	4502
2026-01-29 05:42:20.49	96.29	7.18	-44.4	-46.5	13.8	6.07e-01	0	42	0	459276288	60	4594
2026-01-29 05:42:21.50	96.16	7.26	-44.3	-46.4	13.9	6.07e-01	0	42	0	473956352	60	4538
2026-01-29 05:42:22.50	96.04	7.34	-44.3	-46.4	14.0	6.08e-01	0	42	0	488636416	60	4530
2026-01-29 05:42:23.50	95.91	7.41	-44.3	-46.3	14.1	6.08e-01	0	42	0	505413632	60	4471
2026-01-29 05:42:24.51	95.78	7.49	-44.1	-46.1	14.2	6.06e-01	0	42	0	520093696	60	4385
2026-01-29 05:42:25.52	95.65	7.57	-44.1	-46.1	14.3	6.06e-01	0	42	0	534773760	60	4374
2026-01-29 05:42:26.52	95.52	7.65	-44.2	-46.2	14.2	6.06e-01	0	42	0	551550976	60	4433
2026-01-29 05:42:27.52	95.38	7.72	-44.1	-46.1	14.2	6.08e-01	0	42	0	566231040	59	4639
2026-01-29 05:42:28.53	95.25	7.80	-44.0	-46.0	14.3	6.08e-01	0	42	0	580911104	59	4581
2026-01-29 05:42:29.53	95.12	7.88	-43.9	-46.0	14.4	6.07e-01	0	42	0	597688320	59	4552
2026-01-29 05:42:30.53	94.98	7.96	-44.0	-46.0	14.4	6.07e-01	0	42	0	614465536	59	4574
2026-01-29 05:42:31.54	94.84	8.04	-43.9	-45.9	14.5	6.08e-01	0	42	0	629145600	59	4498
2026-01-29 05:42:32.55	94.71	8.12	-43.9	-45.8	14.6	6.06e-01	0	42	0	643825664	59	4493
2026-01-29 05:42:33.56	94.57	8.20	-44.0	-46.0	14.4	6.08e-01	0	42	0	660602880	59	4563
2026-01-29 05:42:34.57	94.43	8.28	-43.7	-45.7	14.7	6.06e-01	0	42	0	675282944	59	4426
2026-01-29 05:42:35.57	94.29	8.36	-43.6	-45.6	14.8	6.07e-01	0	42	0	689963008	59	4373
2026-01-29 05:42:36.58	94.15	8.44	-43.7	-45.7	14.6	6.06e-01	0	42	0	706740224	59	4429
2026-01-29 05:42:37.59	94.00	8.52	-43.7	-45.7	14.7	6.07e-01	0	42	0	721420288	59	4423
2026-01-29 05:42:38.60	93.86	8.60	-43.7	-45.7	14.7	6.06e-01	0	42	0	736100352	59	4424
2026-01-29 05:42:39.61	93.71	8.68	-43.9	-46.0	14.5	6.07e-01	0	42	0	752877568	59	4568
2026-01-29 05:42:40.62	93.57	8.76	-43.8	-45.9	14.6	6.05e-01	0	42	0	767557632	59	4494
2026-01-29 05:42:41.62	93.42	8.84	-43.7	-45.8	14.6	6.04e-01	0	42	0	782237696	59	4470
2026-01-29 05:42:42.63	93.28	8.92	-43.6	-45.7	14.7	6.06e-01	0	42	0	799014912	59	4427
2026-01-29 05:42:43.63	93.13	9.00	-43.7	-45.8	14.6	6.05e-01	0	42	0	815792128	59	4458
2026-01-29 05:42:44.64	92.98	9.08	-43.7	-45.9	14.6	6.06e-01	0	42	0	830472192	59	4496
2026-01-29 05:42:45.65	92.83	9.17	-43.7	-45.8	14.7	6.04e-01	0	42	0	845152256	59	4453
2026-01-29 05:42:46.66	92.67	9.25	-43.7	-45.8	14.6	6.06e-01	0	42	0	861929472	59	4483
2026-01-29 05:42:47.67	92.52	9.33	-43.7	-45.9	14.6	6.01e-01	0	42	0	876609536	59	4499
2026-01-29 05:42:48.68	92.37	9.41	-43.6	-45.8	14.7	6.05e-01	0	42	0	891289600	59	4465
2026-01-29 05:42:49.69	92.21	9.50	-43.6	-45.7	14.7	6.05e-01	0	42	0	908066816	59	4436
2026-01-29 05:42:50.69	92.06	9.58	-43.6	-45.8	14.7	6.06e-01	0	42	0	922746880	59	4468
2026-01-29 05:42:51.69	91.90	9.66	-43.4	-45.5	14.9	6.05e-01	0	42	0	937426944	58	4570
2026-01-29 05:42:52.70	91.74	9.74	-43.4	-45.5	14.9	6.03e-01	0	42	0	952107008	58	4581
2026-01-29 05:42:53.71	91.58	9.83	-43.5	-45.5	14.9	6.04e-01	0	42	0	968884224	58	4595
2026-01-29 05:42:54.71	91.42	9.91	-43.4	-45.5	14.9	6.04e-01	0	42	0	983564288	58	4564
2026-01-29 05:42:55.72	91.26	9.99	-43.4	-45.4	15.1	6.05e-01	0	42	0	998244352	58	4528
2026-01-29 05:42:56.73	91.10	10.08	-43.3	-45.3	15.2	6.03e-01	0	42	0	1017118720	58	4459
2026-01-29 05:42:57.74	90.93	10.16	-43.2	-45.2	15.2	6.05e-01	0	42	0	1031798784	58	4412
2026-01-29 05:42:58.75	90.77	10.25	-43.2	-45.2	15.2	6.02e-01	0	42	0	1046478848	58	4419
2026-01-29 05:42:59.76	90.60	10.33	-43.1	-45.1	15.3	6.03e-01	0	42	0	1061158912	58	4370
2026-01-29 05:43:00.77	90.43	10.42	-43.1	-45.1	15.3	6.04e-01	0	42	0	1077936128	58	4362
2026-01-29 05:43:01.78	90.26	10.50	-43.0	-45.0	15.5	6.01e-01	0	42	0	1092616192	58	4305
2026-01-29 05:43:02.78	90.09	10.59	-43.1	-45.0	15.4	5.99e-01	0	42	0	1107296256	58	4323
2026-01-29 05:43:03.79	89.92	10.67	-43.1	-45.1	15.4	6.03e-01	0	42	0	1124073472	58	4357
2026-01-29 05:43:04.79	89.75	10.76	-42.9	-44.8	15.5	6.03e-01	0	42	0	1138753536	57	4488
2026-01-29 05:43:05.80	89.57	10.84	-43.0	-44.9	15.5	6.06e-01	0	42	0	1153433600	57	4530
2026-01-29 05:43:06.81	89.40	10.93	-42.9	-44.9	15.5	6.03e-01	0	42	0	1170210816	57	4523
2026-01-29 05:43:07.81	89.22	11.01	-42.8	-44.8	15.6	6.04e-01	0	42	0	1184890880	57	4468
2026-01-29 05:43:08.82	89.05	11.10	-42.7	-44.7	15.7	6.06e-01	0	42	0	1199570944	57	4441
2026-01-29 05:43:09.82	88.87	11.19	-42.8	-44.8	15.6	6.05e-01	0	42	0	1216348160	57	4469
2026-01-29 05:43:10.83	88.69	11.27	-42.8	-44.9	15.6	6.04e-01	0	42	0	1233125376	57	4494
2026-01-29 05:43:11.84	88.50	11.36	-42.6	-44.7	15.7	6.03e-01	0	42	0	1247805440	57	4406
2026-01-29 05:43:12.85	88.32	11.45	-42.7	-44.7	15.6	6.04e-01	0	42	0	1262485504	57	4439
2026-01-29 05:43:13.86	88.14	11.53	-42.7	-44.8	15.7	6.03e-01	0	42	0	1279262720	57	4452
2026-01-29 05:43:14.87	87.95	11.62	-42.6	-44.7	15.8	6.03e-01	0	42	0	1293942784	57	4397
2026-01-29 05:43:15.88	87.76	11.71	-42.6	-44.6	15.8	6.05e-01	0	42	0	1308622848	57	4372
2026-01-29 05:43:16.89	87.57	11.80	-42.6	-44.6	15.8	6.05e-01	0	42	0	1325400064	57	4366
2026-01-29 05:43:17.90	87.38	11.88	-42.7	-44.7	15.7	6.03e-01	0	42	0	1340080128	57	4417
2026-01-29 05:43:18.91	87.19	11.97	-42.6	-44.5	15.9	6.03e-01	0	42	0	1354760192	57	4332
2026-01-29 05:43:19.91	87.00	12.06	-42.4	-44.3	16.0	6.03e-01	0	42	0	1371537408	56	4478
2026-01-29 05:43:20.92	86.80	12.15	-42.3	-44.2	16.1	6.03e-01	0	42	0	1386217472	56	4417
2026-01-29 05:43:21.93	86.61	12.24	-42.2	-44.1	16.2	6.05e-01	0	42	0	1400897536	56	4377
2026-01-29 05:43:22.93	86.41	12.32	-42.3	-44.2	16.2	6.06e-01	0	42	0	1417674752	56	4397
2026-01-29 05:43:23.94	86.21	12.41	-42.2	-44.0	16.3	6.04e-01	0	42	0	1434451968	56	4340
2026-01-29 05:43:24.94	86.02	12.50	-42.2	-44.1	16.3	6.06e-01	0	42	0	1449132032	56	4364
2026-01-29 05:43:25.95	85.81	12.59	-42.1	-44.0	16.3	6.05e-01	0	42	0	1463812096	56	4322
2026-01-29 05:43:26.96	85.61	12.68	-42.0	-44.0	16.4	6.00e-01	0	42	0	1480589312	56	4292
2026-01-29 05:43:27.97	85.40	12.77	-42.1	-44.0	16.3	6.02e-01	0	42	0	1495269376	56	4322
2026-01-29 05:43:28.98	85.20	12.86	-42.1	-44.0	16.5	6.00e-01	0	42	0	1509949440	55	4590
2026-01-29 05:43:29.99	84.99	12.95	-42.1	-44.0	16.5	6.00e-01	0	42	0	1526726656	55	4577
2026-01-29 05:43:31.00	84.78	13.04	-42.1	-44.0	16.5	6.02e-01	0	42	0	1541406720	55	4598
2026-01-29 05:43:32.00	84.57	13.12	-42.0	-44.0	16.6	6.04e-01	0	42	0	1556086784	55	4554
2026-01-29 05:43:33.01	84.36	13.21	-41.9	-43.9	16.6	6.00e-01	0	42	0	1572864000	55	4502
2026-01-29 05:43:34.02	84.14	13.30	-41.9	-43.8	16.6	6.01e-01	0	42	0	1587544064	55	4490
2026-01-29 05:43:35.03	83.93	13.39	-41.9	-43.8	16.7	6.00e-01	0	42	0	1604321280	55	4484
2026-01-29 05:43:36.04	83.71	13.48	-41.9	-43.8	16.7	6.01e-01	0	42	0	1619001344	55	4476
2026-01-29 05:43:37.05	83.49	13.57	-41.8	-43.8	16.7	5.99e-01	0	42	0	1635778560	55	4442
2026-01-29 05:43:38.06	83.27	13.67	-41.9	-43.9	16.6	6.00e-01	0	42	0	1650458624	55	4506
2026-01-29 05:43:39.07	83.05	13.76	-41.9	-43.9	16.6	6.00e-01	0	42	0	1665138688	55	4504
2026-01-29 05:43:40.08	82.82	13.85	-41.9	-43.9	16.6	6.04e-01	0	42	0	1681915904	55	4532
2026-01-29 05:43:41.09	82.60	13.94	-41.8	-43.8	16.7	6.01e-01	0	42	0	1696595968	55	4486
2026-01-29 05:43:42.10	82.37	14.03	-41.9	-43.9	16.7	5.99e-01	0	42	0	1711276032	55	4514
2026-01-29 05:43:43.10	82.14	14.12	-41.9	-43.9	16.6	6.01e-01	0	42	0	1728053248	55	4531
2026-01-29 05:43:44.11	81.91	14.21	-41.8	-43.7	16.8	6.01e-01	0	42	0	1742733312	55	4423
2026-01-29 05:43:45.12	81.68	14.30	-41.8	-43.8	16.8	6.01e-01	0	42	0	1757413376	55	4452
2026-01-29 05:43:46.12	81.45	14.39	-41.8	-43.7	16.8	6.00e-01	0	42	0	1774190592	55	4408
2026-01-29 05:43:47.13	81.21	14.48	-41.8	-43.7	16.8	5.99e-01	0	42	0	1790967808	55	4429
2026-01-29 05:43:48.13	80.98	14.57	-41.7	-43.6	16.9	5.97e-01	0	42	0	1805647872	55	4378
2026-01-29 05:43:49.15	80.74	14.66	-41.6	-43.5	17.0	6.01e-01	0	42	0	1820327936	55	4335
2026-01-29 05:43:50.16	80.50	14.75	-41.6	-43.5	17.0	5.99e-01	0	42	0	1837105152	55	4313
2026-01-29 05:43:51.17	80.25	14.84	-41.5	-43.4	17.1	6.01e-01	0	42	0	1851785216	55	4282
2026-01-29 05:43:52.17	80.01	14.93	-41.3	-43.3	17.1	6.01e-01	0	42	0	1866465280	54	4455
2026-01-29 05:43:53.18	79.76	15.02	-41.3	-43.2	17.2	5.99e-01	0	42	0	1883242496	54	4430
2026-01-29 05:43:54.19	79.52	15.11	-41.1	-43.1	17.3	6.00e-01	0	42	0	1897922560	54	4370
2026-01-29 05:43:55.20	79.27	15.20	-41.2	-43.2	17.3	6.01e-01	0	42	0	1912602624	54	4393
2026-01-29 05:43:56.21	79.01	15.29	-41.1	-43.1	17.3	6.00e-01	0	42	0	1929379840	54	4373
2026-01-29 05:43:57.21	78.76	15.38	-41.2	-43.2	17.2	5.92e-01	0	42	0	1944059904	54	4426
2026-01-29 05:43:58.21	78.51	15.47	-41.2	-43.2	17.2	5.92e-01	0	42	0	1958739968	54	4436
2026-01-29 05:43:59.23	78.25	15.56	-41.2	-43.3	17.2	5.74e-01	0	42	0	1975517184	54	4458
2026-01-29 05:44:00.23	77.99	15.65	-41.2	-43.3	17.2	5.75e-01	0	42	0	1992294400	54	4466
2026-01-29 05:44:01.24	77.73	15.74	-41.3	-43.3	17.2	5.75e-01	0	42	0	2006974464	54	4474
2026-01-29 05:44:02.25	77.47	15.83	-41.3	-43.3	17.2	5.75e-01	0	42	0	2021654528	54	4473
2026-01-29 05:44:03.26	77.20	15.92	-41.2	-43.1	17.3	5.75e-01	0	42	0	2038431744	54	4378
2026-01-29 05:44:04.27	76.94	16.01	-41.2	-43.2	17.4	5.76e-01	0	42	0	2053111808	54	4393
2026-01-29 05:44:05.27	76.67	16.10	-41.1	-43.1	17.4	5.74e-01	0	42	0	2067791872	54	4365
2026-01-29 05:44:06.28	76.40	16.19	-41.1	-43.2	17.3	5.74e-01	0	42	0	2084569088	54	4410
2026-01-29 05:44:07.29	76.13	16.28	-41.1	-43.2	17.3	5.75e-01	0	42	0	2099249152	54	4401
2026-01-29 05:44:08.30	75.85	16.37	-41.2	-43.3	17.3	5.74e-01	0	42	0	2113929216	54	4462
2026-01-29 05:44:09.31	75.58	16.46	-41.2	-43.3	17.3	5.76e-01	0	42	0	2130706432	54	4444
2026-01-29 05:44:10.32	75.30	16.55	-41.2	-43.3	17.2	5.74e-01	0	42	0	2145386496	54	4469
2026-01-29 05:44:11.33	75.02	16.64	-41.2	-43.2	17.4	5.76e-01	0	42	0	2162163712	54	4410
2026-01-29 05:44:12.34	74.74	16.73	-40.9	-42.9	17.6	5.75e-01	0	42	0	2176843776	53	4496
2026-01-29 05:44:13.35	74.45	16.82	-40.8	-42.8	17.6	5.74e-01	0	42	0	2193620992	53	4442
2026-01-29 05:44:14.36	74.17	16.90	-40.7	-42.7	17.7	5.75e-01	0	42	0	2208301056	53	4425
2026-01-29 05:44:15.36	73.88	16.99	-40.6	-42.6	17.7	5.75e-01	0	42	0	2222981120	53	4358
2026-01-29 05:44:16.37	73.59	17.08	-40.6	-42.5	17.8	5.74e-01	0	42	0	2239758336	53	4337
2026-01-29 05:44:17.38	73.30	17.17	-40.5	-42.5	17.8	5.74e-01	0	42	0	2254438400	53	4334
2026-01-29 05:44:18.39	73.01	17.25	-40.5	-42.5	17.7	5.75e-01	0	42	0	2269118464	52	4593
2026-01-29 05:44:19.40	72.71	17.34	-40.5	-42.6	17.8	5.76e-01	0	42	0	2285895680	52	4599
2026-01-29 05:44:20.40	72.41	17.43	-40.4	-42.5	17.8	5.74e-01	0	42	0	2300575744	52	4547
2026-01-29 05:44:21.41	72.11	17.51	-40.4	-42.4	17.9	5.75e-01	0	42	0	2315255808	52	4497
2026-01-29 05:44:22.42	71.81	17.60	-40.3	-42.3	18.0	5.76e-01	0	42	0	2329935872	52	4470
2026-01-29 05:44:23.43	71.51	17.68	-40.3	-42.2	18.0	5.74e-01	0	42	0	2346713088	52	4441
2026-01-29 05:44:24.43	71.21	17.77	-40.3	-42.2	18.0	5.74e-01	0	42	0	2363490304	52	4419
2026-01-29 05:44:25.44	70.90	17.85	-40.4	-42.3	18.0	5.76e-01	0	42	0	2378170368	52	4452
2026-01-29 05:44:26.45	70.59	17.94	-40.3	-42.2	18.0	5.92e-01	0	42	0	2394947584	52	4402
2026-01-29 05:44:27.45	70.28	18.02	-40.2	-42.1	18.1	5.95e-01	0	42	0	2409627648	52	4365
2026-01-29 05:44:28.46	69.96	18.11	-40.2	-42.2	18.1	5.92e-01	0	42	0	2424307712	52	4394
2026-01-29 05:44:29.47	69.65	18.19	-40.3	-42.2	18.0	5.94e-01	0	42	0	2438987776	52	4434
2026-01-29 05:44:30.47	69.33	18.27	-40.3	-42.4	17.9	5.97e-01	0	42	0	2455764992	52	4495
2026-01-29 05:44:31.48	69.01	18.35	-40.4	-42.5	17.8	5.95e-01	0	42	0	2470445056	52	4579
2026-01-29 05:44:32.49	68.69	18.44	-40.5	-42.6	17.7	5.95e-01	0	42	0	2485125120	52	4619
2026-01-29 05:44:33.50	68.37	18.52	-40.5	-42.7	17.7	5.98e-01	0	42	0	2501902336	52	4677
2026-01-29 05:44:34.51	68.04	18.60	-40.6	-42.8	17.6	5.97e-01	0	42	0	2516582400	52	4739
2026-01-29 05:44:35.51	67.71	18.68	-40.7	-42.9	17.5	5.92e-01	0	42	0	2531262464	52	4760
2026-01-29 05:44:36.52	67.38	18.76	-40.5	-42.6	17.7	5.92e-01	0	42	0	2548039680	52	4611
2026-01-29 05:44:37.53	67.05	18.84	-40.4	-42.6	17.7	5.95e-01	0	42	0	2564816896	52	4607
2026-01-29 05:44:38.54	66.72	18.92	-40.2	-42.3	17.9	5.94e-01	0	42	0	2579496960	52	4491
2026-01-29 05:44:39.54	66.38	18.99	-40.1	-42.1	18.1	5.98e-01	0	42	0	2594177024	52	4366
2026-01-29 05:44:40.55	66.05	19.07	-40.1	-42.1	18.1	5.97e-01	0	42	0	2610954240	52	4379
2026-01-29 05:44:41.56	65.71	19.15	-40.1	-42.2	18.1	5.95e-01	0	42	0	2625634304	52	4393
2026-01-29 05:44:42.57	65.36	19.22	-40.0	-42.0	18.2	5.95e-01	0	42	0	2640314368	51	4571
2026-01-29 05:44:43.58	65.02	19.30	-40.1	-42.1	18.2	5.99e-01	0	42	0	2657091584	51	4606
2026-01-29 05:44:44.59	64.67	19.37	-40.0	-42.0	18.2	5.95e-01	0	42	0	2671771648	51	4591
2026-01-29 05:44:45.60	64.32	19.45	-40.0	-42.0	18.2	5.98e-01	0	42	0	2686451712	51	4573
2026-01-29 05:44:46.61	63.97	19.52	-40.1	-42.1	18.1	5.94e-01	0	42	0	2703228928	51	4636
2026-01-29 05:44:47.62	63.62	19.60	-40.1	-42.2	18.1	5.93e-01	0	42	0	2717908992	51	4666
2026-01-29 05:44:48.62	63.27	19.67	-40.1	-42.3	18.0	5.99e-01	0	42	0	2732589056	51	4710
2026-01-29 05:44:49.63	62.92	19.74	-40.1	-42.2	18.1	5.99e-01	0	42	0	2749366272	51	4703
2026-01-29 05:44:50.64	62.56	19.81	-40.3	-42.4	17.9	6.00e-01	0	42	0	2766143488	51	4766
2026-01-29 05:44:51.65	62.20	19.88	-40.2	-42.3	18.0	6.01e-01	0	42	0	2780823552	51	4728
2026-01-29 05:44:52.66	61.84	19.95	-40.0	-42.0	18.2	5.92e-01	0	42	0	2795503616	51	4594
2026-01-29 05:44:53.67	61.47	20.02	-40.0	-42.0	18.2	5.93e-01	0	43	0	2812280832	51	4566
2026-01-29 05:44:54.68	61.11	20.08	-39.9	-42.0	18.3	5.97e-01	0	42	0	2826960896	51	4555
2026-01-29 05:44:55.69	60.74	20.15	-39.9	-42.0	18.2	6.00e-01	0	42	0	2841640960	51	4586
2026-01-29 05:44:56.69	60.37	20.22	-40.0	-42.1	18.2	5.95e-01	0	43	0	2858418176	51	4622
2026-01-29 05:44:57.70	60.00	20.28	-40.0	-42.2	18.1	5.94e-01	0	42	0	2873098240	51	4671
2026-01-29 05:44:58.71	59.63	20.34	-40.1	-42.2	18.1	5.98e-01	0	42	0	2887778304	51	4694
2026-01-29 05:44:59.72	59.26	20.41	-40.1	-42.2	18.0	5.98e-01	0	42	0	2904555520	51	4696
2026-01-29 05:45:00.72	58.88	20.47	-40.1	-42.2	18.1	5.94e-01	0	42	0	2919235584	51	4695
2026-01-29 05:45:01.73	58.51	20.53	-40.1	-42.4	18.0	5.99e-01	0	42	0	2936012800	51	4766
2026-01-29 05:45:02.74	58.13	20.59	-40.1	-42.3	18.0	5.98e-01	0	43	0	2950692864	51	4712
2026-01-29 05:45:03.75	57.75	20.65	-40.1	-42.3	18.0	5.97e-01	0	42	0	2967470080	51	4736
2026-01-29 05:45:04.76	57.36	20.71	-40.0	-42.3	18.0	5.97e-01	0	42	0	2982150144	51	4718
2026-01-29 05:45:05.77	56.98	20.76	-40.1	-42.3	18.0	5.99e-01	0	42	0	2996830208	51	4737
2026-01-29 05:45:06.77	56.60	20.82	-40.2	-42.3	18.1	5.98e-01	0	42	0	3013607424	51	4744
2026-01-29 05:45:07.78	56.21	20.87	-40.2	-42.4	17.9	5.95e-01	0	42	0	3028287488	51	4766
2026-01-29 05:45:08.79	55.82	20.93	-40.2	-42.3	18.0	5.97e-01	0	43	0	3042967552	51	4755
2026-01-29 05:45:09.80	55.43	20.98	-40.2	-42.3	18.0	6.01e-01	0	42	0	3059744768	51	4749
2026-01-29 05:45:10.80	55.04	21.03	-40.1	-42.2	18.0	6.01e-01	0	42	0	3074424832	51	4705
2026-01-29 05:45:11.81	54.65	21.08	-40.1	-42.3	18.0	5.97e-01	0	42	0	3089104896	51	4751
2026-01-29 05:45:12.81	54.26	21.13	-40.1	-42.3	18.1	5.97e-01	0	42	0	3105882112	51	4719
2026-01-29 05:45:13.82	53.86	21.18	-40.0	-42.2	18.1	5.99e-01	0	42	0	3120562176	51	4674
2026-01-29 05:45:14.82	53.47	21.22	-40.1	-42.2	18.1	5.98e-01	0	42	0	3135242240	51	4684
2026-01-29 05:45:15.83	53.07	21.27	-39.9	-42.1	18.2	5.97e-01	0	43	0	3152019456	51	4619
2026-01-29 05:45:16.84	52.67	21.31	-39.9	-42.1	18.2	5.99e-01	0	43	0	3168796672	51	4617
2026-01-29 05:45:17.85	52.26	21.36	-40.1	-42.2	18.1	5.98e-01	0	42	0	3183476736	51	4695
2026-01-29 05:45:18.86	51.86	21.40	-39.9	-42.1	18.2	6.00e-01	0	43	0	3198156800	51	4649
2026-01-29 05:45:19.87	51.46	21.44	-39.8	-42.0	18.2	6.01e-01	0	42	0	3214934016	51	4571
2026-01-29 05:45:20.87	51.05	21.48	-39.9	-42.1	18.2	5.98e-01	0	42	0	3229614080	51	4612
2026-01-29 05:45:21.88	50.65	21.52	-39.9	-42.1	18.1	5.97e-01	0	42	0	3244294144	51	4643
2026-01-29 05:45:22.89	50.24	21.55	-40.0	-42.2	18.2	5.98e-01	0	42	0	3261071360	51	4663
2026-01-29 05:45:23.90	49.83	21.59	-40.0	-42.2	18.1	5.98e-01	0	42	0	3275751424	51	4675
2026-01-29 05:45:24.91	49.42	21.62	-40.0	-42.2	18.0	5.99e-01	0	42	0	3290431488	51	4694
2026-01-29 05:45:25.91	49.01	21.65	-40.0	-42.2	18.1	5.98e-01	0	42	0	3307208704	51	4688
2026-01-29 05:45:26.92	48.60	21.68	-40.0	-42.3	18.1	5.99e-01	0	42	0	3321888768	51	4711
2026-01-29 05:45:27.93	48.19	21.71	-40.0	-42.3	18.1	5.99e-01	0	42	0	3336568832	51	4709
2026-01-29 05:45:28.93	47.78	21.74	-40.0	-42.3	18.0	5.98e-01	0	42	0	3353346048	51	4754
2026-01-29 05:45:29.94	47.37	21.77	-40.0	-42.3	18.1	5.93e-01	0	42	0	3370123264	51	4716
2026-01-29 05:45:30.95	46.95	21.80	-40.1	-42.3	18.0	5.98e-01	0	42	0	3384803328	51	4758
2026-01-29 05:45:31.96	46.53	21.82	-40.1	-42.3	18.0	5.98e-01	0	42	0	3399483392	51	4752
2026-01-29 05:45:32.97	46.12	21.84	-40.0	-42.3	18.1	5.97e-01	0	42	0	3416260608	51	4713
2026-01-29 05:45:33.97	45.70	21.87	-39.9	-42.2	18.1	6.01e-01	0	42	0	3430940672	51	4652
2026-01-29 05:45:34.98	45.29	21.89	-39.9	-42.1	18.1	5.99e-01	0	42	0	3445620736	51	4631
2026-01-29 05:45:35.99	44.87	21.90	-39.9	-42.1	18.1	5.96e-01	0	42	0	3462397952	51	4627
2026-01-29 05:45:36.99	44.45	21.92	-39.9	-42.2	18.1	5.99e-01	0	42	0	3477078016	51	4672
2026-01-29 05:45:38.00	44.03	21.94	-39.9	-42.2	18.1	5.97e-01	0	42	0	3491758080	51	4679
2026-01-29 05:45:39.01	43.61	21.95	-40.0	-42.3	18.0	6.00e-01	0	42	0	3508535296	51	4724
2026-01-29 05:45:40.02	43.19	21.96	-40.1	-42.4	17.9	5.99e-01	0	42	0	3523215360	51	4776
2026-01-29 05:45:41.03	42.77	21.98	-40.0	-42.2	18.1	5.99e-01	0	42	0	3539992576	51	4674
2026-01-29 05:45:42.04	42.35	21.99	-40.0	-42.2	18.0	5.95e-01	0	43	0	3554672640	51	4695
2026-01-29 05:45:43.05	41.93	21.99	-40.0	-42.3	18.0	5.95e-01	0	43	0	3571449856	51	4756
2026-01-29 05:45:44.06	41.51	22.00	-40.0	-42.3	18.0	5.97e-01	0	42	0	3586129920	51	4745
2026-01-29 05:45:45.07	41.08	22.01	-40.0	-42.3	18.0	5.92e-01	0	42	0	3600809984	51	4754
2026-01-29 05:45:46.08	40.66	22.01	-40.0	-42.3	18.0	5.92e-01	0	42	0	3617587200	51	4757
2026-01-29 05:45:47.09	40.24	22.01	-40.0	-42.3	17.9	5.97e-01	0	42	0	3632267264	51	4748
2026-01-29 05:45:48.09	39.82	22.01	-40.0	-42.4	18.0	5.97e-01	0	42	0	3646947328	51	4761
2026-01-29 05:45:49.10	39.40	22.01	-40.0	-42.3	18.0	5.97e-01	0	43	0	3661627392	51	4722
2026-01-29 05:45:50.11	38.98	22.01	-40.0	-42.3	18.0	6.00e-01	0	43	0	3678404608	51	4748
2026-01-29 05:45:51.11	38.56	22.01	-40.1	-42.3	18.0	6.01e-01	0	42	0	3693084672	51	4751
2026-01-29 05:45:52.12	38.14	22.00	-40.1	-42.4	17.9	5.99e-01	0	42	0	3707764736	51	4787
2026-01-29 05:45:53.13	37.72	22.00	-40.1	-42.4	17.9	5.98e-01	0	42	0	3726639104	51	4780
2026-01-29 05:45:54.14	37.30	21.99	-40.2	-42.6	17.8	5.97e-01	0	43	0	3741319168	51	4887
2026-01-29 05:45:55.14	36.88	21.98	-40.2	-42.6	17.9	5.96e-01	0	42	0	3755999232	51	4884
2026-01-29 05:45:56.15	36.46	21.97	-40.3	-42.6	17.8	5.97e-01	0	42	0	3770679296	51	4913
2026-01-29 05:45:57.15	36.04	21.96	-40.2	-42.5	17.9	5.97e-01	0	42	0	3787456512	51	4852
2026-01-29 05:45:58.16	35.62	21.94	-40.3	-42.6	17.8	5.96e-01	0	42	0	3802136576	51	4922
2026-01-29 05:45:59.17	35.20	21.93	-40.4	-42.8	17.7	5.95e-01	0	43	0	3816816640	51	5008
2026-01-29 05:46:00.17	34.79	21.91	-40.3	-42.6	17.8	5.95e-01	0	43	0	3833593856	51	4896
2026-01-29 05:46:01.17	34.37	21.89	-40.2	-42.6	17.8	5.96e-01	0	42	0	3848273920	51	4889
2026-01-29 05:46:02.18	33.95	21.87	-40.3	-42.7	17.8	5.94e-01	0	42	0	3862953984	51	4941
2026-01-29 05:46:03.19	33.54	21.85	-40.3	-42.7	17.8	5.95e-01	0	42	0	3879731200	51	4931
2026-01-29 05:46:04.20	33.12	21.83	-40.4	-42.9	17.6	5.99e-01	0	42	0	3894411264	51	5059
2026-01-29 05:46:05.21	32.70	21.81	-40.5	-42.9	17.6	5.98e-01	0	43	0	3909091328	51	5081
2026-01-29 05:46:06.22	32.29	21.78	-40.4	-42.9	17.6	5.96e-01	0	43	0	3925868544	51	5043
2026-01-29 05:46:07.22	31.88	21.76	-40.5	-42.8	17.6	5.91e-01	0	43	0	3940548608	51	5041
2026-01-29 05:46:08.24	31.46	21.73	-40.5	-42.8	17.7	5.88e-01	0	42	0	3957325824	51	5030
2026-01-29 05:46:09.25	31.05	21.70	-40.2	-42.6	17.8	5.98e-01	0	42	0	3972005888	51	4895
2026-01-29 05:46:10.25	30.64	21.67	-40.2	-42.6	17.8	5.95e-01	0	42	0	3988783104	51	4901
2026-01-29 05:46:11.26	30.23	21.64	-40.3	-42.8	17.7	5.96e-01	0	43	0	4003463168	51	4986
2026-01-29 05:46:12.27	29.82	21.60	-40.3	-42.8	17.7	5.89e-01	0	42	0	4018143232	51	4984
2026-01-29 05:46:13.28	29.41	21.57	-40.3	-42.8	17.7	5.87e-01	0	42	0	4034920448	51	5016
2026-01-29 05:46:14.29	29.00	21.53	-40.4	-42.8	17.7	5.94e-01	0	42	0	4049600512	51	5025
2026-01-29 05:46:15.29	28.60	21.49	-40.5	-42.9	17.6	5.97e-01	0	42	0	4064280576	51	5060
2026-01-29 05:46:16.30	28.19	21.46	-40.3	-42.7	17.7	5.95e-01	0	42	0	4081057792	51	4961
2026-01-29 05:46:17.31	27.79	21.42	-40.4	-42.7	17.7	5.99e-01	0	42	0	4095737856	51	4948
2026-01-29 05:46:18.32	27.39	21.38	-40.3	-42.6	17.8	5.99e-01	0	42	0	4110417920	51	4925
2026-01-29 05:46:19.32	26.99	21.33	-40.2	-42.6	17.8	5.95e-01	0	43	0	4127195136	51	4916
2026-01-29 05:46:20.33	26.59	21.29	-40.3	-42.8	17.7	6.00e-01	0	43	0	4143972352	51	5002
2026-01-29 05:46:21.34	26.19	21.24	-40.4	-42.9	17.6	5.99e-01	0	42	0	4158652416	51	5071
2026-01-29 05:46:22.34	25.79	21.20	-40.4	-42.9	17.6	6.02e-01	0	43	0	4173332480	51	5074
2026-01-29 05:46:23.35	25.40	21.15	-40.4	-42.9	17.6	5.99e-01	0	42	0	4190109696	51	5080
2026-01-29 05:46:24.36	25.00	21.10	-40.6	-43.1	17.4	5.98e-01	0	42	0	4204789760	51	5167
2026-01-29 05:46:25.37	24.61	21.05	-40.4	-42.9	17.6	5.96e-01	0	42	0	4219469824	51	5058
2026-01-29 05:46:26.37	24.22	21.00	-40.3	-42.8	17.6	5.99e-01	0	42	0	4236247040	51	5005
2026-01-29 05:46:27.37	23.83	20.95	-40.4	-42.9	17.6	6.01e-01	0	43	0	4250927104	51	5074
2026-01-29 05:46:28.38	23.44	20.90	-40.6	-43.1	17.5	6.00e-01	0	42	0	4265607168	51	5169
2026-01-29 05:46:29.39	23.06	20.84	-40.6	-43.0	17.5	6.00e-01	0	42	0	4282384384	51	5132
2026-01-29 05:46:30.39	22.67	20.79	-40.6	-43.0	17.5	6.01e-01	0	43	0	4297064448	51	5151
2026-01-29 05:46:31.40	22.29	20.73	-40.8	-43.2	17.3	6.01e-01	0	43	0	4311744512	52	4958
2026-01-29 05:46:32.41	21.91	20.68	-40.7	-43.1	17.4	6.00e-01	0	43	0	4328521728	52	4910
2026-01-29 05:46:33.41	21.53	20.62	-40.6	-43.0	17.4	5.99e-01	0	43	0	4343201792	52	4863
2026-01-29 05:46:34.42	21.15	20.56	-40.6	-43.0	17.5	5.99e-01	0	43	0	4357881856	52	4863
2026-01-29 05:46:35.43	20.77	20.50	-40.7	-43.1	17.4	6.01e-01	0	42	0	4374659072	52	4873
2026-01-29 05:46:36.44	20.40	20.44	-40.7	-43.0	17.4	5.97e-01	0	43	0	4391436288	52	4860
2026-01-29 05:46:37.45	20.02	20.38	-40.8	-43.2	17.3	6.00e-01	0	42	0	4406116352	52	4931
2026-01-29 05:46:38.46	19.65	20.31	-40.8	-43.3	17.3	6.00e-01	0	43	0	4420796416	52	4989
2026-01-29 05:46:39.47	19.28	20.25	-40.8	-43.3	17.3	6.00e-01	0	42	0	4437573632	52	4992
2026-01-29 05:46:40.48	18.91	20.18	-40.9	-43.4	17.2	5.99e-01	0	42	0	4452253696	52	5057
2026-01-29 05:46:41.49	18.54	20.12	-40.9	-43.5	17.1	5.96e-01	0	42	0	4466933760	52	5111
2026-01-29 05:46:42.49	18.18	20.05	-41.0	-43.5	17.0	6.01e-01	0	43	0	4483710976	52	5151
2026-01-29 05:46:43.50	17.82	19.98	-40.9	-43.5	17.1	5.99e-01	0	42	0	4498391040	52	5104
2026-01-29 05:46:44.51	17.45	19.91	-40.8	-43.3	17.2	5.99e-01	0	42	0	4513071104	52	5014
2026-01-29 05:46:45.52	17.09	19.85	-40.9	-43.4	17.1	5.99e-01	0	42	0	4529848320	52	5048
2026-01-29 05:46:46.53	16.74	19.78	-40.8	-43.4	17.2	6.00e-01	0	43	0	4546625536	52	5049
2026-01-29 05:46:47.54	16.38	19.70	-40.9	-43.5	17.1	6.00e-01	0	43	0	4561305600	52	5127
2026-01-29 05:46:48.55	16.03	19.63	-41.0	-43.6	17.0	5.93e-01	0	43	0	4575985664	52	5193
2026-01-29 05:46:49.56	15.67	19.56	-41.0	-43.7	17.0	5.99e-01	0	42	0	4592762880	52	5235
2026-01-29 05:46:50.56	15.33	19.49	-41.1	-43.7	16.9	5.99e-01	0	42	0	4607442944	52	5235
2026-01-29 05:46:51.57	14.98	19.41	-41.1	-43.6	17.0	5.99e-01	0	42	0	4622123008	52	5208
2026-01-29 05:46:52.58	14.63	19.34	-41.0	-43.5	17.0	6.03e-01	0	43	0	4638900224	52	5150
2026-01-29 05:46:53.59	14.29	19.26	-40.9	-43.4	17.1	5.98e-01	0	43	0	4653580288	52	5081
2026-01-29 05:46:54.60	13.95	19.19	-41.0	-43.5	17.1	5.98e-01	0	42	0	4668260352	52	5113
2026-01-29 05:46:55.60	13.61	19.11	-41.0	-43.4	17.1	6.00e-01	0	43	0	4685037568	52	5098
2026-01-29 05:46:56.61	13.27	19.04	-41.0	-43.6	17.0	6.00e-01	0	43	0	4699717632	52	5161
2026-01-29 05:46:57.61	12.94	18.96	-41.1	-43.6	17.0	6.00e-01	0	42	0	4714397696	52	5167
2026-01-29 05:46:58.62	12.60	18.88	-41.1	-43.6	16.9	5.99e-01	0	42	0	4731174912	52	5165
2026-01-29 05:46:59.63	12.27	18.80	-41.2	-43.7	16.9	6.00e-01	0	43	0	4747952128	52	5226
2026-01-29 05:47:00.63	11.94	18.72	-41.3	-43.7	16.9	5.95e-01	0	43	0	4762632192	53	4967
2026-01-29 05:47:01.64	11.62	18.64	-41.2	-43.6	17.0	5.99e-01	0	43	0	4777312256	53	4910
2026-01-29 05:47:02.65	11.29	18.56	-41.2	-43.7	16.9	5.99e-01	0	42	0	4794089472	53	4933
2026-01-29 05:47:03.66	10.97	18.48	-41.1	-43.5	17.0	6.00e-01	0	43	0	4808769536	53	4869
2026-01-29 05:47:04.67	10.64	18.40	-41.0	-43.4	17.1	6.00e-01	0	43	0	4823449600	53	4798
2026-01-29 05:47:05.68	10.32	18.32	-41.1	-43.6	16.9	6.03e-01	0	42	0	4840226816	53	4884
2026-01-29 05:47:06.69	10.00	18.24	-41.2	-43.6	16.9	6.01e-01	0	42	0	4854906880	53	4920
2026-01-29 05:47:07.70	9.69	18.15	-41.2	-43.6	16.9	5.99e-01	0	42	0	4869586944	53	4900
2026-01-29 05:47:08.71	9.37	18.07	-41.1	-43.5	17.0	5.98e-01	0	42	0	4884267008	53	4852
2026-01-29 05:47:09.72	9.06	17.99	-41.3	-43.7	16.9	5.96e-01	0	43	0	4901044224	53	4956
2026-01-29 05:47:10.73	8.75	17.90	-41.2	-43.6	16.9	6.01e-01	0	42	0	4917821440	53	4917
2026-01-29 05:47:11.74	8.44	17.82	-41.3	-43.8	16.8	5.99e-01	0	42	0	4932501504	53	4988
2026-01-29 05:47:12.75	8.14	17.73	-41.3	-43.7	16.8	6.00e-01	0	42	0	4949278720	53	4966
2026-01-29 05:47:13.76	7.83	17.65	-41.3	-43.7	16.9	5.95e-01	0	43	0	4963958784	53	4957
2026-01-29 05:47:14.77	7.53	17.56	-41.5	-43.8	16.8	5.97e-01	0	42	0	4978638848	53	4996
2026-01-29 05:47:15.78	7.23	17.48	-41.3	-43.6	17.0	5.99e-01	0	42	0	4993318912	53	4889
2026-01-29 05:47:16.79	6.93	17.39	-41.4	-43.7	16.9	6.00e-01	0	43	0	5010096128	53	4965
2026-01-29 05:47:17.79	6.64	17.30	-41.4	-43.7	16.9	5.99e-01	0	42	0	5024776192	53	4969
2026-01-29 05:47:18.80	6.35	17.22	-41.4	-43.8	16.7	6.01e-01	0	43	0	5039456256	53	5015
2026-01-29 05:47:19.81	6.05	17.13	-41.4	-43.8	16.7	6.00e-01	0	42	0	5056233472	53	5038
2026-01-29 05:47:20.82	5.76	17.04	-41.5	-44.0	16.6	5.93e-01	0	43	0	5070913536	53	5111
2026-01-29 05:47:21.83	5.48	16.95	-41.6	-44.0	16.6	6.00e-01	0	43	0	5085593600	53	5137
2026-01-29 05:47:22.83	5.19	16.87	-41.6	-44.1	16.5	6.04e-01	0	43	0	5102370816	53	5198
2026-01-29 05:47:23.84	4.91	16.78	-41.6	-44.1	16.6	6.01e-01	0	43	0	5119148032	53	5200
2026-01-29 05:47:24.85	4.63	16.69	-41.6	-44.1	16.5	6.01e-01	0	43	0	5133828096	53	5218
2026-01-29 05:47:25.85	4.35	16.60	-41.7	-44.1	16.5	6.02e-01	0	43	0	5148508160	53	5202
2026-01-29 05:47:26.86	4.07	16.51	-41.7	-44.1	16.6	5.99e-01	0	43	0	5165285376	54	4909
2026-01-29 05:47:27.87	3.79	16.43	-41.7	-44.2	16.5	5.99e-01	0	43	0	5179965440	54	4937
2026-01-29 05:47:28.88	3.52	16.34	-41.8	-44.2	16.5	5.75e-01	0	42	0	5194645504	54	4963
2026-01-29 05:47:29.89	3.25	16.25	-41.8	-44.2	16.6	5.75e-01	0	43	0	5211422720	54	4932
2026-01-29 05:47:30.90	2.98	16.16	-41.9	-44.3	16.4	5.74e-01	0	43	0	5226102784	54	5006
2026-01-29 05:47:31.90	2.71	16.07	-41.9	-44.3	16.4	5.75e-01	0	42	0	5240782848	54	5021
2026-01-29 05:47:32.92	2.44	15.98	-41.9	-44.4	16.4	5.75e-01	0	43	0	5257560064	54	5053
2026-01-29 05:47:33.92	2.18	15.89	-42.1	-44.5	16.2	5.74e-01	0	43	0	5272240128	54	5146
2026-01-29 05:47:34.94	1.91	15.80	-42.1	-44.6	16.2	5.74e-01	0	42	0	5289017344	54	5165
2026-01-29 05:47:35.94	1.66	15.71	-42.1	-44.6	16.2	5.75e-01	0	43	0	5303697408	54	5160
2026-01-29 05:47:36.95	1.40	15.62	-42.2	-44.7	16.1	5.74e-01	0	43	0	5320474624	54	5220
2026-01-29 05:47:37.96	1.14	15.53	-42.2	-44.6	16.1	5.76e-01	0	43	0	5335154688	54	5190
2026-01-29 05:47:38.97	0.88	15.44	-43.5	-44.4	16.2	5.73e-01	0	42	0	5349834752	57	4290
2026-01-29 05:47:39.97	0.63	15.35	-53.6	-62.5	3.8	7.44e-01	0	42	104	5362417664	77	10901
2026-01-29 05:47:40.98	0.38	15.26	-53.6	-62.5	3.8	7.47e-01	0	43	104	5362417664	77	10849
2026-01-29 05:47:41.99	0.13	15.17	-53.6	-62.5	3.8	7.44e-01	0	43	104	5362417664	77	10819
2026-01-29 05:47:43.00	359.88	15.08	-53.6	-62.5	3.8	7.45e-01	0	43	104	5362417664	77	10837
2026-01-29 05:47:44.01	359.64	14.99	-53.6	-62.4	3.8	7.45e-01	0	42	104	5362417664	77	10769
2026-01-29 05:47:45.02	359.39	14.90	-53.7	-62.5	3.8	7.46e-01	0	42	104	5362417664	77	10784
2026-01-29 05:47:46.02	359.15	14.81	-53.6	-62.4	3.8	7.45e-01	0	43	104	5362417664	77	10731
2026-01-29 05:47:47.03	358.91	14.72	-53.6	-62.4	3.8	7.46e-01	0	43	104	5362417664	77	10727
2026-01-29 05:47:48.04	358.67	14.63	-53.6	-62.4	3.8	7.45e-01	0	42	104	5362417664	77	10718
2026-01-29 05:47:49.05	358.43	14.54	-53.6	-62.4	3.8	7.44e-01	0	43	104	5362417664	77	10757
2026-01-29 05:47:50.05	358.20	14.45	-53.6	-62.4	3.8	7.47e-01	0	43	104	5362417664	77	10708
2026-01-29 05:47:51.06	357.97	14.36	-53.5	-62.4	3.8	7.46e-01	0	43	104	5362417664	77	10665
2026-01-29 05:47:52.07	357.73	14.27	-53.5	-62.4	3.8	7.44e-01	0	42	104	5362417664	77	10687
2026-01-29 05:47:53.08	357.50	14.18	-53.6	-62.4	3.8	7.45e-01	0	42	104	5362417664	77	10726
2026-01-29 05:47:54.09	357.28	14.09	-53.5	-62.4	3.8	7.46e-01	0	42	104	5362417664	77	10678
2026-01-29 05:47:55.10	357.05	14.00	-53.5	-62.3	3.8	7.45e-01	0	43	104	5362417664	77	10610
2026-01-29 05:47:56.10	356.82	13.91	-53.5	-62.3	3.8	7.46e-01	0	43	104	5362417664	77	10622
2026-01-29 05:47:57.11	356.60	13.82	-53.5	-62.4	3.8	7.45e-01	0	43	104	5362417664	77	10691
2026-01-29 05:47:58.12	356.38	13.73	-53.5	-62.3	3.8	7.46e-01	0	43	104	5362417664	77	10587
2026-01-29 05:47:59.12	356.16	13.64	-53.5	-62.3	3.8	7.44e-01	0	42	104	5362417664	77	10566
2026-01-29 05:48:00.13	355.94	13.55	-53.5	-62.3	3.8	7.45e-01	0	42	104	5362417664	77	10604
2026-01-29 05:48:01.14	355.72	13.46	-53.5	-62.3	3.8	7.46e-01	0	43	104	5362417664	77	10617
2026-01-29 05:48:02.15	355.51	13.37	-53.4	-62.3	3.8	7.45e-01	0	43	104	5362417664	77	10548
2026-01-29 05:48:03.16	355.29	13.28	-53.4	-62.2	3.8	7.45e-01	0	43	104	5362417664	77	10532
2026-01-29 05:48:04.16	355.08	13.19	-53.4	-62.3	3.8	7.44e-01	0	43	104	5362417664	77	10543
2026-01-29 05:48:05.17	354.87	13.10	-53.5	-62.3	3.8	7.44e-01	0	43	104	5362417664	77	10556
2026-01-29 05:48:06.18	354.66	13.01	-53.4	-62.2	3.8	7.45e-01	0	43	104	5362417664	77	10531
2026-01-29 05:48:07.18	354.46	12.93	-53.4	-62.2	3.8	7.44e-01	0	42	104	5362417664	77	10495
2026-01-29 05:48:08.19	354.25	12.84	-53.4	-62.2	3.8	7.46e-01	0	43	104	5362417664	77	10509
2026-01-29 05:48:09.19	354.05	12.75	-53.4	-62.2	3.8	7.46e-01	0	43	104	5362417664	77	10512
2026-01-29 05:48:10.20	353.84	12.66	-53.4	-62.2	3.8	7.47e-01	0	42	104	5362417664	77	10462
2026-01-29 05:48:11.21	353.64	12.57	-53.4	-62.2	3.8	7.44e-01	0	43	104	5362417664	77	10483
2026-01-29 05:48:12.22	353.44	12.48	-53.4	-62.2	3.8	7.44e-01	0	43	104	5362417664	77	10474
2026-01-29 05:48:13.23	353.24	12.39	-53.4	-62.2	3.8	7.45e-01	0	43	104	5362417664	77	10505
2026-01-29 05:48:14.23	353.05	12.31	-53.3	-62.1	3.8	7.47e-01	0	42	104	5362417664	77	10399
2026-01-29 05:48:15.24	352.85	12.22	-53.3	-62.2	3.8	7.44e-01	0	43	104	5362417664	77	10446
2026-01-29 05:48:16.24	352.66	12.13	-53.4	-62.2	3.8	7.45e-01	0	42	104	5362417664	77	10488
2026-01-29 05:48:17.25	352.47	12.04	-53.4	-62.2	3.8	7.45e-01	0	42	104	5362417664	77	10476
2026-01-29 05:48:18.26	352.27	11.96	-53.3	-62.1	3.8	7.45e-01	0	42	104	5362417664	77	10361
2026-01-29 05:48:19.27	352.08	11.87	-53.3	-62.1	3.8	7.45e-01	0	42	104	5362417664	77	10402
2026-01-29 05:48:20.27	351.90	11.78	-53.3	-62.2	3.8	7.45e-01	0	43	104	5362417664	77	10450
2026-01-29 05:48:21.28	351.71	11.69	-53.3	-62.2	3.8	7.44e-01	0	43	104	5362417664	77	10418
2026-01-29 05:48:22.29	351.52	11.61	-53.3	-62.1	3.8	7.45e-01	0	42	104	5362417664	77	10380
2026-01-29 05:48:23.30	351.34	11.52	-53.3	-62.1	3.8	7.45e-01	0	42	104	5362417664	77	10390
2026-01-29 05:48:24.31	351.15	11.43	-53.3	-62.1	3.8	7.45e-01	0	43	104	5362417664	77	10389
2026-01-29 05:48:25.32	350.97	11.35	-53.3	-62.1	3.8	7.46e-01	0	43	104	5362417664	77	10365
2026-01-29 05:48:26.32	350.79	11.26	-53.3	-62.1	3.8	7.45e-01	0	42	104	5362417664	77	10341
2026-01-29 05:48:27.33	350.61	11.17	-53.3	-62.1	3.8	7.45e-01	0	42	104	5362417664	77	10352
2026-01-29 05:48:28.34	350.44	11.09	-53.3	-62.1	3.8	7.46e-01	0	43	104	5362417664	77	10349
2026-01-29 05:48:29.35	350.26	11.00	-53.3	-62.1	3.8	7.46e-01	0	42	104	5362417664	77	10303
2026-01-29 05:48:30.36	350.08	10.92	-53.2	-62.0	3.8	7.47e-01	0	42	104	5362417664	77	10274
2026-01-29 05:48:31.36	349.91	10.83	-53.2	-62.1	3.8	7.46e-01	0	43	104	5362417664	77	10302
2026-01-29 05:48:32.37	349.74	10.75	-53.2	-62.1	3.8	7.46e-01	0	42	104	5362417664	77	10301
2026-01-29 05:48:33.38	349.57	10.66	-53.2	-62.1	3.8	7.46e-01	0	42	104	5362417664	77	10297
2026-01-29 05:48:34.39	349.40	10.58	-53.2	-62.0	3.8	7.45e-01	0	42	104	5362417664	77	10252
2026-01-29 05:48:35.40	349.23	10.49	-53.2	-62.0	3.8	7.44e-01	0	43	104	5362417664	77	10256
2026-01-29 05:48:36.41	349.06	10.41	-53.2	-62.0	3.8	7.45e-01	0	42	104	5362417664	77	10270
2026-01-29 05:48:37.41	348.89	10.32	-53.2	-62.0	3.8	7.46e-01	0	43	104	5362417664	77	10235
2026-01-29 05:48:38.42	348.73	10.24	-53.2	-62.0	3.8	7.45e-01	0	42	104	5362417664	77	10202
2026-01-29 05:48:39.43	348.56	10.15	-53.2	-62.0	3.8	7.45e-01	0	43	104	5362417664	77	10235
2026-01-29 05:48:40.43	348.40	10.07	-53.2	-62.0	3.8	7.45e-01	0	43	104	5362417664	77	10255
2026-01-29 05:48:41.44	348.24	9.99	-53.2	-62.0	3.8	7.46e-01	0	43	104	5362417664	77	10187
2026-01-29 05:48:42.45	348.08	9.90	-53.1	-61.9	3.8	7.46e-01	0	43	104	5362417664	77	10164
2026-01-29 05:48:43.45	347.92	9.82	-53.1	-61.9	3.8	7.44e-01	0	43	104	5362417664	77	10175
2026-01-29 05:48:44.46	347.76	9.74	-53.2	-62.0	3.8	7.45e-01	0	43	104	5362417664	77	10216
2026-01-29 05:48:45.47	347.60	9.65	-53.1	-62.0	3.8	7.45e-01	0	43	104	5362417664	77	10181
2026-01-29 05:48:46.48	347.45	9.57	-53.1	-61.9	3.8	7.46e-01	0	42	104	5362417664	77	10118
2026-01-29 05:48:47.49	347.29	9.49	-53.1	-61.9	3.8	7.43e-01	0	42	104	5362417664	77	10163
2026-01-29 05:48:48.49	347.14	9.41	-53.1	-62.0	3.8	7.45e-01	0	43	104	5362417664	77	10186
2026-01-29 05:48:49.50	346.99	9.33	-53.1	-61.9	3.8	7.46e-01	0	43	104	5362417664	77	10132
2026-01-29 05:48:50.51	346.83	9.24	-53.1	-61.9	3.8	7.44e-01	0	43	104	5362417664	77	10100
2026-01-29 05:48:51.52	346.68	9.16	-53.1	-61.9	3.8	7.47e-01	0	43	104	5362417664	77	10074
2026-01-29 05:48:52.53	346.53	9.08	-53.1	-61.9	3.8	7.44e-01	0	42	104	5362417664	77	10143
2026-01-29 05:48:53.53	346.39	9.00	-53.0	-61.9	3.8	7.45e-01	0	42	104	5362417664	77	10084
2026-01-29 05:48:54.53	346.24	8.92	-53.0	-61.8	3.8	7.44e-01	0	43	104	5362417664	77	10030
2026-01-29 05:48:55.54	346.09	8.84	-53.1	-61.9	3.8	7.46e-01	0	43	104	5362417664	77	10085
2026-01-29 05:48:56.55	345.95	8.76	-53.1	-61.9	3.8	7.47e-01	0	42	104	5362417664	77	10134
2026-01-29 05:48:57.55	345.81	8.68	-53.0	-61.8	3.8	7.45e-01	0	42	104	5362417664	77	10041
2026-01-29 05:48:58.56	345.66	8.60	-53.0	-61.8	3.8	7.45e-01	0	43	104	5362417664	77	10011
2026-01-29 05:48:59.57	345.52	8.52	-53.0	-61.8	3.8	7.46e-01	0	42	104	5362417664	77	10050
2026-01-29 05:49:00.58	345.38	8.44	-53.1	-61.9	3.8	7.44e-01	0	42	104	5362417664	77	10081
2026-01-29 05:49:01.58	345.24	8.36	-53.0	-61.8	3.8	7.44e-01	0	42	104	5362417664	77	9991
2026-01-29 05:49:02.59	345.10	8.28	-53.0	-61.7	3.8	7.46e-01	0	42	104	5362417664	77	9914
2026-01-29 05:49:03.59	344.96	8.20	-53.0	-61.8	3.8	7.44e-01	0	43	104	5362417664	77	9990
2026-01-29 05:49:04.60	344.82	8.12	-53.0	-61.8	3.8	7.46e-01	0	43	104	5362417664	77	10055
2026-01-29 05:49:05.61	344.69	8.04	-52.9	-61.7	3.8	7.45e-01	0	43	104	5362417664	77	9942
2026-01-29 05:49:06.62	344.55	7.96	-52.9	-61.7	3.8	7.46e-01	0	42	104	5362417664	77	9935
2026-01-29 05:49:07.62	344.42	7.88	-52.9	-61.8	3.8	7.45e-01	0	42	104	5362417664	77	9950
2026-01-29 05:49:08.63	344.28	7.81	-53.0	-61.8	3.8	7.43e-01	0	42	104	5362417664	77	10011
2026-01-29 05:49:09.63	344.15	7.73	-52.9	-61.7	3.8	7.44e-01	0	42	104	5362417664	77	9897
2026-01-29 05:49:10.64	344.02	7.65	-52.9	-61.7	3.8	7.45e-01	0	42	104	5362417664	77	9898
2026-01-29 05:49:11.65	343.89	7.57	-52.9	-61.7	3.8	7.45e-01	0	42	104	5362417664	77	9921
2026-01-29 05:49:12.66	343.76	7.49	-53.0	-61.8	3.8	7.44e-01	0	43	104	5362417664	77	9979
2026-01-29 05:49:13.66	343.63	7.42	-52.9	-61.7	3.8	7.45e-01	0	43	104	5362417664	77	9841
2026-01-29 05:49:14.67	343.50	7.34	-52.9	-61.7	3.8	7.46e-01	0	42	104	5362417664	77	9843
2026-01-29 05:49:15.68	343.37	7.26	-52.9	-61.7	3.8	7.45e-01	0	42	104	5362417664	77	9910
2026-01-29 05:49:16.68	343.25	7.19	-52.9	-61.7	3.8	7.46e-01	0	42	104	5362417664	77	9919
2026-01-29 05:49:17.69	343.12	7.11	-52.8	-61.7	3.8	7.44e-01	0	43	104	5362417664	77	9840
2026-01-29 05:49:18.70	343.00	7.03	-52.8	-61.6	3.8	7.45e-01	0	43	104	5362417664	77	9794
2026-01-29 05:49:19.71	342.87	6.96	-52.9	-61.7	3.8	7.46e-01	0	42	104	5362417664	77	9860
2026-01-29 05:49:20.72	342.75	6.88	-52.9	-61.7	3.8	7.44e-01	0	43	104	5362417664	77	9901
2026-01-29 05:49:21.73	342.63	6.81	-52.8	-61.6	3.8	7.44e-01	0	43	104	5362417664	77	9731
2026-01-29 05:49:22.74	342.50	6.73	-52.8	-61.6	3.8	7.44e-01	0	42	104	5362417664	77	9769
2026-01-29 05:49:23.74	342.39	6.66	-52.8	-61.6	3.8	7.44e-01	0	42	104	5362417664	77	9809
2026-01-29 05:49:24.75	342.27	6.58	-52.9	-61.7	3.8	7.45e-01	0	42	104	5362417664	77	9881
2026-01-29 05:49:25.75	342.15	6.51	-52.7	-61.5	3.8	7.44e-01	0	42	104	5362417664	77	9696
2026-01-29 05:49:26.76	342.03	6.43	-52.7	-61.6	3.8	7.44e-01	0	43	104	5362417664	77	9725
2026-01-29 05:49:27.77	341.91	6.36	-52.8	-61.6	3.8	7.46e-01	0	42	104	5362417664	77	9798
2026-01-29 05:49:28.77	341.79	6.28	-52.8	-61.6	3.8	7.45e-01	0	43	104	5362417664	77	9824
2026-01-29 05:49:29.78	341.68	6.21	-52.7	-61.5	3.8	7.46e-01	0	42	104	5362417664	77	9687
2026-01-29 05:49:30.79	341.56	6.13	-52.7	-61.5	3.8	7.44e-01	0	43	104	5362417664	77	9649
2026-01-29 05:49:31.80	341.45	6.06	-52.7	-61.5	3.8	7.45e-01	0	43	104	5362417664	77	9703
2026-01-29 05:49:32.81	341.33	5.99	-52.8	-61.6	3.8	7.43e-01	0	43	104	5362417664	77	9747
2026-01-29 05:49:33.82	341.22	5.91	-52.6	-61.4	3.8	7.45e-01	0	43	104	5362417664	77	9596
2026-01-29 05:49:34.82	341.11	5.84	-52.6	-61.4	3.8	7.45e-01	0	43	104	5362417664	77	9562
2026-01-29 05:49:35.83	341.00	5.77	-52.7	-61.5	3.8	7.44e-01	0	42	104	5362417664	77	9694
2026-01-29 05:49:36.84	340.89	5.69	-52.7	-61.5	3.8	7.45e-01	0	43	104	5362417664	77	9713
2026-01-29 05:49:37.85	340.78	5.62	-52.6	-61.4	3.8	7.45e-01	0	42	104	5362417664	77	9570
2026-01-29 05:49:38.85	340.67	5.55	-52.6	-61.4	3.8	7.46e-01	0	43	104	5362417664	77	9551
2026-01-29 05:49:39.85	340.56	5.48	-52.6	-61.5	3.8	7.45e-01	0	43	104	5362417664	77	9627
2026-01-29 05:49:40.86	340.45	5.41	-52.7	-61.5	3.8	7.45e-01	0	43	104	5362417664	77	9654
2026-01-29 05:49:41.87	340.35	5.33	-52.5	-61.3	3.8	7.44e-01	0	42	104	5362417664	77	9470
2026-01-29 05:49:42.87	340.24	5.26	-52.5	-61.3	3.8	7.45e-01	0	42	104	5362417664	77	9484
2026-01-29 05:49:43.88	340.13	5.19	-52.6	-61.4	3.8	7.44e-01	0	43	104	5362417664	77	9575
2026-01-29 05:49:44.89	340.03	5.12	-52.6	-61.4	3.8	7.45e-01	0	43	104	5362417664	77	9566
2026-01-29 05:49:45.90	339.92	5.05	-52.4	-61.3	3.8	7.45e-01	0	43	104	5362417664	76	9946
2026-01-29 05:49:46.90	339.82	4.98	-52.6	-61.4	3.8	7.44e-01	0	42	104	5362417664	76	10121
2026-01-29 05:49:47.91	339.72	4.91	-53.1	-61.9	3.8	7.47e-01	0	43	104	5362417664	76	10683
2026-01-29 05:49:48.92	339.62	4.84	-53.4	-62.3	3.8	7.44e-01	0	42	104	5362417664	77	10543
2026-01-29 05:49:49.93	339.51	4.76	-53.7	-62.5	3.8	7.45e-01	0	42	104	5362417664	77	10886
2026-01-29 05:49:50.94	339.41	4.69	-53.9	-62.7	3.8	7.45e-01	0	43	104	5362417664	78	10493
2026-01-29 05:49:51.94	339.31	4.62	-54.0	-62.9	3.8	7.45e-01	0	43	104	5362417664	78	10692
2026-01-29 05:49:52.95	339.21	4.55	-54.2	-63.0	3.8	7.46e-01	0	42	104	5362417664	78	10852
2026-01-29 05:49:53.96	339.11	4.48	-54.3	-63.1	3.8	7.45e-01	0	42	104	5362417664	79	10324
2026-01-29 05:49:54.97	339.01	4.42	-54.3	-63.1	3.8	7.42e-01	0	43	104	5362417664	79	10387
2026-01-29 05:49:55.97	338.92	4.35	-54.3	-63.1	3.8	7.44e-01	0	43	104	5362417664	79	10384
2026-01-29 05:49:56.98	338.82	4.28	-54.3	-63.1	3.8	7.45e-01	0	43	104	5362417664	79	10403
2026-01-29 05:49:57.99	338.72	4.21	-54.3	-63.1	3.8	7.45e-01	0	43	104	5362417664	79	10359
2026-01-29 05:49:58.99	338.63	4.14	-54.2	-63.0	3.8	7.43e-01	0	42	104	5362417664	79	10287
2026-01-29 05:50:00.00	338.53	4.07	-54.1	-62.9	3.8	7.46e-01	0	43	104	5362417664	79	10115
2026-01-29 05:50:01.01	338.44	4.00	-53.9	-62.7	3.8	7.44e-01	0	43	104	5362417664	79	9937
2026-01-29 05:50:02.02	338.34	3.93	-53.9	-62.8	3.8	7.45e-01	0	42	104	5362417664	79	9982
2026-01-29 05:50:03.02	338.25	3.87	-54.0	-62.9	3.8	7.43e-01	0	43	104	5362417664	79	10073
2026-01-29 05:50:04.03	338.15	3.80	-54.0	-62.8	3.8	7.46e-01	0	43	104	5362417664	79	10055
2026-01-29 05:50:05.04	338.06	3.73	-54.0	-62.8	3.8	7.45e-01	0	43	104	5362417664	79	10053
2026-01-29 05:50:06.05	337.97	3.66	-54.0	-62.9	3.8	7.46e-01	0	43	104	5362417664	79	10118
2026-01-29 05:50:07.06	337.88	3.59	-54.1	-62.9	3.8	7.45e-01	0	43	104	5362417664	79	10109
2026-01-29 05:50:08.07	337.79	3.53	-54.0	-62.9	3.8	7.45e-01	0	43	104	5362417664	79	10084
2026-01-29 05:50:09.08	337.70	3.46	-54.0	-62.8	3.8	7.46e-01	0	42	104	5362417664	79	10028
2026-01-29 05:50:10.09	337.61	3.39	-54.0	-62.8	3.8	7.46e-01	0	43	104	5362417664	79	9970
2026-01-29 05:50:11.09	337.52	3.33	-53.9	-62.8	3.8	7.45e-01	0	43	104	5362417664	79	10013
2026-01-29 05:50:12.10	337.43	3.26	-53.9	-62.8	3.8	7.46e-01	0	43	104	5362417664	79	9981
2026-01-29 05:50:13.11	337.34	3.19	-53.9	-62.7	3.8	7.43e-01	0	43	104	5362417664	79	9941
2026-01-29 05:50:14.12	337.25	3.13	-53.9	-62.8	3.8	7.45e-01	0	42	104	5362417664	79	9957
2026-01-29 05:50:15.12	337.17	3.06	-53.9	-62.8	3.8	7.46e-01	0	43	104	5362417664	79	9975
2026-01-29 05:50:16.13	337.08	2.99	-53.9	-62.8	3.8	7.44e-01	0	43	104	5362417664	79	9946
2026-01-29 05:50:17.14	336.99	2.93	-53.9	-62.7	3.8	7.45e-01	0	42	104	5362417664	79	9942
2026-01-29 05:50:18.14	336.91	2.86	-53.9	-62.7	3.8	7.46e-01	0	42	104	5362417664	79	9896
2026-01-29 05:50:19.15	336.82	2.80	-53.9	-62.7	3.8	7.46e-01	0	42	104	5362417664	79	9867
2026-01-29 05:50:20.17	336.74	2.73	-53.9	-62.7	3.8	7.44e-01	0	42	104	5362417664	79	9935
2026-01-29 05:50:21.17	336.65	2.66	-53.9	-62.7	3.8	7.45e-01	0	43	104	5362417664	79	9906
2026-01-29 05:50:22.17	336.57	2.60	-53.9	-62.7	3.8	7.46e-01	0	43	104	5362417664	79	9884
2026-01-29 05:50:23.18	336.49	2.54	-53.9	-62.7	3.8	7.44e-01	0	42	104	5362417664	79	9903
2026-01-29 05:50:24.19	336.41	2.47	-53.8	-62.7	3.8	7.45e-01	0	43	104	5362417664	79	9891
2026-01-29 05:50:25.20	336.32	2.41	-53.8	-62.7	3.8	7.47e-01	0	43	104	5362417664	79	9845
2026-01-29 05:50:26.20	336.24	2.34	-53.8	-62.7	3.8	7.45e-01	0	43	104	5362417664	79	9852
2026-01-29 05:50:27.21	336.16	2.28	-53.8	-62.7	3.8	7.46e-01	0	42	104	5362417664	79	9833
2026-01-29 05:50:28.22	336.08	2.21	-53.8	-62.7	3.8	7.46e-01	0	43	104	5362417664	79	9871
2026-01-29 05:50:29.23	336.00	2.15	-53.8	-62.7	3.8	7.45e-01	0	43	104	5362417664	79	9848
2026-01-29 05:50:30.24	335.92	2.08	-53.8	-62.7	3.8	7.46e-01	0	43	104	5362417664	79	9854
2026-01-29 05:50:31.25	335.84	2.02	-53.8	-62.7	3.8	7.46e-01	0	42	104	5362417664	79	9890

#Closed at: 2026-01-29 05:50:31
#Recorded file [5362 MB]: D:/lorett/data/31041_260129_084105.dat