passes_logs/2026/01/29/R3.2S_Murmansk/R3.2S_Murmansk__20260129_202226_TY-39_rec.log

#Pass ID: 20260129_202226_TY-39
#Satellite: TY-39
#Configuration: TY-39
#almurnet v.1.7.20251203
#Start time: 2026-01-29 20:22:27

#Version: 2.2.20231116
#Station: R3.2S_Murmansk
#Location: 33.079688 lon 68.888172 lat
#TLE: 1 51832U 22019J   26028.98355140  .00004481  00000-0  21254-3 0  9990
#TLE: 2 51832  97.3627  95.3313 0008690   7.4089 352.7273 15.19745294216656

#Time	Az	El	Level	Level2	SNR	BER	BlckErr	Temp	State	Recorded	gain1	gain2
2026-01-29 20:22:27.41	220.08	2.05	-52.6	-54.8	3.7	0.00e+00	0	45	0	0	77	17773
2026-01-29 20:22:28.40	220.19	2.10	-52.6	-54.8	3.7	0.00e+00	0	44	104	0	76	18880
2026-01-29 20:22:29.41	220.30	2.16	-52.6	-54.7	3.7	0.00e+00	0	45	104	0	76	18757
2026-01-29 20:22:30.42	220.41	2.22	-52.6	-54.7	3.7	0.00e+00	0	45	104	0	76	18774
2026-01-29 20:22:31.42	220.52	2.28	-52.6	-54.7	3.7	0.00e+00	0	45	104	0	76	18716
2026-01-29 20:22:32.43	220.63	2.34	-52.6	-54.7	3.7	0.00e+00	0	45	104	0	76	18662
2026-01-29 20:22:33.44	220.74	2.39	-52.6	-54.7	3.7	0.00e+00	0	45	104	0	76	18648
2026-01-29 20:22:34.44	220.85	2.45	-52.6	-54.7	3.7	0.00e+00	0	45	104	0	76	18686
2026-01-29 20:22:35.45	220.97	2.51	-52.5	-54.7	3.7	0.00e+00	0	45	104	0	76	18682
2026-01-29 20:22:36.45	221.08	2.57	-52.5	-54.7	3.7	0.00e+00	0	45	104	0	76	18681
2026-01-29 20:22:37.46	221.19	2.63	-52.5	-54.7	3.7	0.00e+00	0	45	104	0	76	18626
2026-01-29 20:22:38.47	221.31	2.68	-52.5	-54.7	3.7	0.00e+00	0	45	104	0	76	18635
2026-01-29 20:22:39.47	221.42	2.74	-52.5	-54.6	3.7	0.00e+00	0	45	104	0	76	18591
2026-01-29 20:22:40.48	221.54	2.80	-52.5	-54.7	3.7	0.00e+00	0	45	104	0	76	18656
2026-01-29 20:22:41.49	221.66	2.86	-52.5	-54.7	3.7	0.00e+00	0	45	104	0	76	18644
2026-01-29 20:22:42.50	221.77	2.92	-52.5	-54.6	3.7	0.00e+00	0	45	104	0	76	18588
2026-01-29 20:22:43.50	221.89	2.98	-52.5	-54.7	3.7	0.00e+00	0	45	104	0	76	18629
2026-01-29 20:22:44.52	222.01	3.04	-52.5	-54.7	3.7	0.00e+00	0	45	104	0	76	18653
2026-01-29 20:22:45.53	222.13	3.10	-52.5	-54.7	3.7	0.00e+00	0	45	104	0	76	18603
2026-01-29 20:22:46.53	222.25	3.16	-52.5	-54.7	3.7	0.00e+00	0	45	104	0	76	18607
2026-01-29 20:22:47.54	222.37	3.21	-52.5	-54.6	3.7	0.00e+00	0	45	104	0	76	18579
2026-01-29 20:22:48.55	222.49	3.27	-52.5	-54.6	3.7	0.00e+00	0	45	104	0	76	18579
2026-01-29 20:22:49.56	222.61	3.33	-52.5	-54.6	3.7	0.00e+00	0	45	104	0	76	18545
2026-01-29 20:22:50.57	222.73	3.39	-52.5	-54.6	3.7	0.00e+00	0	46	104	0	76	18564
2026-01-29 20:22:51.57	222.85	3.45	-52.5	-54.6	3.7	0.00e+00	0	46	104	0	76	18533
2026-01-29 20:22:52.58	222.97	3.51	-52.5	-54.6	3.7	0.00e+00	0	46	104	0	76	18557
2026-01-29 20:22:53.58	223.10	3.57	-52.5	-54.7	3.7	0.00e+00	0	46	104	0	76	18621
2026-01-29 20:22:54.59	223.22	3.63	-52.5	-54.6	3.7	0.00e+00	0	46	104	0	76	18560
2026-01-29 20:22:55.60	223.34	3.69	-52.5	-54.6	3.7	0.00e+00	0	46	104	0	76	18557
2026-01-29 20:22:56.61	223.47	3.75	-52.5	-54.6	3.7	0.00e+00	0	46	104	0	76	18539
2026-01-29 20:22:57.61	223.59	3.81	-52.5	-54.6	3.7	0.00e+00	0	46	104	0	76	18596
2026-01-29 20:22:58.62	223.72	3.87	-52.5	-54.6	3.7	0.00e+00	0	46	104	0	76	18546
2026-01-29 20:22:59.62	223.85	3.93	-52.5	-54.6	3.7	0.00e+00	0	46	104	0	76	18534
2026-01-29 20:23:00.63	223.98	3.99	-52.5	-54.6	3.7	0.00e+00	0	46	104	0	76	18560
2026-01-29 20:23:01.63	224.10	4.05	-52.5	-54.6	3.7	0.00e+00	0	46	104	0	76	18553
2026-01-29 20:23:02.64	224.23	4.11	-52.5	-54.6	3.7	0.00e+00	0	46	104	0	76	18557
2026-01-29 20:23:03.65	224.36	4.17	-52.5	-54.6	3.7	0.00e+00	0	46	104	0	76	18553
2026-01-29 20:23:04.66	224.49	4.23	-52.5	-54.6	3.7	0.00e+00	0	46	104	0	76	18557
2026-01-29 20:23:05.67	224.62	4.29	-52.5	-54.6	3.7	0.00e+00	0	46	104	0	76	18547
2026-01-29 20:23:06.68	224.76	4.36	-52.5	-54.6	3.7	0.00e+00	0	46	104	0	76	18539
2026-01-29 20:23:07.69	224.89	4.42	-52.5	-54.6	3.7	0.00e+00	0	46	104	0	76	18558
2026-01-29 20:23:08.70	225.02	4.48	-52.5	-54.6	3.7	0.00e+00	0	46	104	0	76	18547
2026-01-29 20:23:09.70	225.15	4.54	-52.5	-54.6	3.7	0.00e+00	0	46	104	0	76	18547
2026-01-29 20:23:10.71	225.29	4.60	-52.5	-54.6	3.7	0.00e+00	0	46	104	0	76	18531
2026-01-29 20:23:11.71	225.42	4.66	-52.5	-54.6	3.7	0.00e+00	0	46	104	0	76	18557
2026-01-29 20:23:12.72	225.56	4.72	-52.5	-54.6	3.7	0.00e+00	0	46	104	0	76	18494
2026-01-29 20:23:13.73	225.70	4.78	-52.5	-54.6	3.7	0.00e+00	0	46	104	0	76	18541
2026-01-29 20:23:14.73	225.83	4.84	-52.5	-54.6	3.7	0.00e+00	0	46	104	0	76	18499
2026-01-29 20:23:15.74	225.97	4.90	-52.5	-54.6	3.7	0.00e+00	0	46	104	0	76	18556
2026-01-29 20:23:16.74	226.11	4.97	-52.5	-54.6	3.7	0.00e+00	0	46	104	0	76	18555
2026-01-29 20:23:17.75	226.25	5.03	-52.5	-54.6	3.7	0.00e+00	0	46	104	0	76	18500
2026-01-29 20:23:18.76	226.39	5.09	-52.8	-54.9	3.7	0.00e+00	0	46	104	0	76	19203
2026-01-29 20:23:19.76	226.53	5.15	-52.5	-54.6	3.7	0.00e+00	0	46	104	0	76	18527
2026-01-29 20:23:20.77	226.67	5.21	-52.6	-54.7	3.7	0.00e+00	0	46	104	0	76	18664
2026-01-29 20:23:21.78	226.81	5.27	-52.5	-54.6	3.7	0.00e+00	0	46	104	0	76	18570
2026-01-29 20:23:22.78	226.95	5.34	-52.4	-54.6	3.7	0.00e+00	0	47	104	0	76	18469
2026-01-29 20:23:23.79	227.10	5.40	-52.4	-54.5	3.7	0.00e+00	0	46	104	0	76	18269
2026-01-29 20:23:24.80	227.24	5.46	-52.6	-54.7	3.7	0.00e+00	0	46	104	0	76	18678
2026-01-29 20:23:25.81	227.39	5.52	-52.5	-54.6	3.7	0.00e+00	0	47	104	0	76	18573
2026-01-29 20:23:26.82	227.53	5.58	-52.5	-54.6	3.7	0.00e+00	0	47	104	0	76	18406
2026-01-29 20:23:27.83	227.68	5.65	-52.4	-54.5	3.7	0.00e+00	0	46	104	0	76	18341
2026-01-29 20:23:28.83	227.83	5.71	-52.6	-54.7	3.7	0.00e+00	0	47	104	0	76	18788
2026-01-29 20:23:29.84	227.97	5.77	-52.5	-54.7	3.7	0.00e+00	0	47	104	0	76	18616
2026-01-29 20:23:30.85	228.12	5.83	-52.5	-54.6	3.7	0.00e+00	0	46	104	0	76	18477
2026-01-29 20:23:31.85	228.27	5.90	-52.4	-54.5	3.7	0.00e+00	0	47	104	0	76	18339
2026-01-29 20:23:32.86	228.42	5.96	-52.6	-54.7	3.7	0.00e+00	0	47	104	0	76	18735
2026-01-29 20:23:33.87	228.57	6.02	-52.6	-54.7	3.7	0.00e+00	0	47	104	0	76	18622
2026-01-29 20:23:34.88	228.73	6.08	-52.5	-54.6	3.7	0.00e+00	0	47	104	0	76	18514
2026-01-29 20:23:35.88	228.88	6.15	-52.4	-54.5	3.7	0.00e+00	0	47	104	0	76	18379
2026-01-29 20:23:36.89	229.03	6.21	-52.6	-54.7	3.7	0.00e+00	0	47	104	0	76	18808
2026-01-29 20:23:37.89	229.19	6.27	-52.6	-54.7	3.7	0.00e+00	0	47	104	0	76	18709
2026-01-29 20:23:38.89	229.34	6.33	-52.5	-54.6	3.7	0.00e+00	0	47	104	0	76	18562
2026-01-29 20:23:39.90	229.50	6.40	-52.4	-54.6	3.7	0.00e+00	0	47	104	0	76	18396
2026-01-29 20:23:40.90	229.65	6.46	-52.6	-54.8	3.7	0.00e+00	0	47	104	0	76	18844
2026-01-29 20:23:41.91	229.81	6.52	-52.6	-54.7	3.7	0.00e+00	0	47	104	0	76	18742
2026-01-29 20:23:42.92	229.97	6.59	-52.5	-54.6	3.7	0.00e+00	0	47	104	0	76	18578
2026-01-29 20:23:43.93	230.13	6.65	-52.5	-54.6	3.7	0.00e+00	0	47	104	0	76	18475
2026-01-29 20:23:44.93	230.29	6.71	-36.8	-36.6	13.5	5.35e-03	0	47	0	16777216	45	13807
2026-01-29 20:23:45.93	230.45	6.78	-43.1	-43.1	9.8	6.90e-06	0	47	0	92274688	56	15592
2026-01-29 20:23:46.94	230.61	6.84	-37.1	-37.0	13.2	3.74e-04	0	48	0	167772160	44	15454
2026-01-29 20:23:47.94	230.77	6.90	-36.2	-36.1	13.8	0.00e+00	0	48	0	234881024	44	13934
2026-01-29 20:23:48.94	230.93	6.96	-36.2	-36.2	13.8	0.00e+00	0	48	0	310378496	44	13954
2026-01-29 20:23:49.95	231.10	7.03	-36.3	-36.2	13.7	0.00e+00	0	48	0	385875968	44	14105
2026-01-29 20:23:50.96	231.26	7.09	-36.0	-35.9	14.0	6.90e-06	0	48	0	461373440	44	13563
2026-01-29 20:23:51.97	231.43	7.16	-36.1	-36.1	13.9	0.00e+00	0	48	0	536870912	43	14637
2026-01-29 20:23:52.97	231.60	7.22	-36.2	-36.1	14.0	0.00e+00	0	48	0	612368384	43	14659
2026-01-29 20:23:53.98	231.76	7.28	-36.1	-36.0	14.0	0.00e+00	0	48	0	687865856	43	14502
2026-01-29 20:23:54.99	231.93	7.35	-36.0	-35.9	14.1	0.00e+00	0	48	0	763363328	43	14360
2026-01-29 20:23:55.99	232.10	7.41	-36.0	-35.9	14.1	0.00e+00	0	48	0	838860800	43	14326
2026-01-29 20:23:57.00	232.27	7.47	-36.0	-35.9	14.1	0.00e+00	0	48	0	914358272	43	14407
2026-01-29 20:23:58.00	232.44	7.54	-36.1	-36.0	14.0	0.00e+00	0	48	0	989855744	43	14494
2026-01-29 20:23:59.01	232.62	7.60	-36.0	-36.0	14.0	0.00e+00	0	48	0	1065353216	43	14460
2026-01-29 20:24:00.01	232.79	7.66	-36.1	-36.0	14.0	0.00e+00	0	48	0	1149239296	43	14502
2026-01-29 20:24:01.02	232.96	7.73	-36.0	-35.9	14.1	0.00e+00	0	48	0	1224736768	43	14322
2026-01-29 20:24:02.02	233.14	7.79	-36.0	-36.0	14.1	0.00e+00	0	48	0	1300234240	43	14458
2026-01-29 20:24:03.03	233.31	7.85	-36.1	-36.0	14.0	0.00e+00	0	48	0	1367343104	43	14567
2026-01-29 20:24:04.04	233.49	7.92	-36.0	-35.9	14.1	0.00e+00	0	48	0	1442840576	43	14346
2026-01-29 20:24:05.05	233.67	7.98	-35.8	-35.7	14.2	0.00e+00	0	48	0	1518338048	43	14106
2026-01-29 20:24:06.06	233.85	8.05	-36.0	-35.9	14.1	0.00e+00	0	48	0	1593835520	43	14332
2026-01-29 20:24:07.06	234.03	8.11	-36.0	-35.9	14.1	0.00e+00	0	48	0	1669332992	43	14406
2026-01-29 20:24:08.07	234.21	8.17	-36.0	-36.0	14.1	0.00e+00	0	48	0	1744830464	43	14446
2026-01-29 20:24:09.07	234.39	8.24	-36.0	-35.9	14.1	0.00e+00	0	48	0	1820327936	43	14379
2026-01-29 20:24:10.08	234.57	8.30	-36.0	-35.9	14.2	0.00e+00	0	48	0	1895825408	43	14322
2026-01-29 20:24:11.08	234.75	8.36	-35.9	-35.8	14.2	0.00e+00	0	49	0	1971322880	43	14233
2026-01-29 20:24:12.09	234.94	8.43	-35.9	-35.9	14.1	0.00e+00	0	48	0	2046820352	43	14280
2026-01-29 20:24:13.10	235.12	8.49	-35.8	-35.7	14.2	0.00e+00	0	48	0	2122317824	43	14076
2026-01-29 20:24:14.10	235.31	8.56	-35.9	-35.8	14.2	0.00e+00	0	48	0	2197815296	43	14210
2026-01-29 20:24:15.11	235.50	8.62	-35.8	-35.7	14.2	0.00e+00	0	49	0	2281701376	43	14029
2026-01-29 20:24:16.12	235.69	8.68	-35.7	-35.6	14.3	0.00e+00	0	48	0	2357198848	43	13936
2026-01-29 20:24:17.13	235.88	8.75	-35.7	-35.6	14.3	0.00e+00	0	49	0	2432696320	43	13874
2026-01-29 20:24:18.13	236.06	8.81	-35.7	-35.6	14.3	0.00e+00	0	49	0	2499805184	43	13830
2026-01-29 20:24:19.14	236.26	8.87	-35.7	-35.6	14.3	0.00e+00	0	48	0	2575302656	43	13842
2026-01-29 20:24:20.15	236.45	8.94	-35.6	-35.5	14.4	0.00e+00	0	49	0	2650800128	43	13720
2026-01-29 20:24:21.16	236.64	9.00	-35.4	-35.4	14.4	0.00e+00	0	49	0	2726297600	42	14282
2026-01-29 20:24:22.16	236.84	9.07	-35.4	-35.3	14.5	0.00e+00	0	49	0	2801795072	42	14237
2026-01-29 20:24:23.17	237.03	9.13	-35.4	-35.3	14.4	0.00e+00	0	49	0	2877292544	42	14244
2026-01-29 20:24:24.17	237.23	9.19	-35.4	-35.3	14.5	0.00e+00	0	49	0	2952790016	42	14220
2026-01-29 20:24:25.18	237.42	9.26	-35.3	-35.3	14.5	0.00e+00	0	49	0	3028287488	42	14114
2026-01-29 20:24:26.18	237.62	9.32	-35.4	-35.3	14.5	0.00e+00	0	49	0	3103784960	42	14162
2026-01-29 20:24:27.19	237.82	9.38	-35.4	-35.3	14.5	0.00e+00	0	49	0	3179282432	42	14146
2026-01-29 20:24:28.19	238.02	9.45	-35.3	-35.2	14.6	0.00e+00	0	49	0	3254779904	42	13998
2026-01-29 20:24:29.20	238.22	9.51	-35.2	-35.1	14.6	0.00e+00	0	49	0	3330277376	42	13888
2026-01-29 20:24:30.21	238.43	9.57	-35.2	-35.1	14.6	0.00e+00	0	49	0	3414163456	42	13943
2026-01-29 20:24:31.22	238.63	9.64	-35.3	-35.2	14.5	0.00e+00	0	49	0	3489660928	42	14074
2026-01-29 20:24:32.23	238.84	9.70	-35.2	-35.1	14.6	0.00e+00	0	49	0	3565158400	42	13947
2026-01-29 20:24:33.23	239.04	9.76	-35.2	-35.1	14.6	0.00e+00	0	49	0	3640655872	42	13926
2026-01-29 20:24:34.23	239.24	9.82	-35.3	-35.2	14.5	0.00e+00	0	49	0	3707764736	42	14025
2026-01-29 20:24:35.23	239.45	9.89	-35.2	-35.1	14.6	0.00e+00	0	49	0	3783262208	42	13855
2026-01-29 20:24:36.23	239.66	9.95	-35.1	-35.0	14.6	0.00e+00	0	49	0	3858759680	42	13786
2026-01-29 20:24:37.24	239.87	10.01	-35.1	-35.1	14.6	0.00e+00	0	49	0	3934257152	42	13804
2026-01-29 20:24:38.24	240.08	10.07	-35.1	-35.0	14.6	0.00e+00	0	49	0	4009754624	42	13724
2026-01-29 20:24:39.25	240.29	10.14	-34.9	-34.8	14.7	0.00e+00	0	49	0	4085252096	41	14204
2026-01-29 20:24:40.26	240.51	10.20	-34.9	-34.8	14.7	0.00e+00	0	49	0	4160749568	41	14252
2026-01-29 20:24:41.26	240.72	10.26	-35.0	-34.9	14.6	0.00e+00	0	49	0	4236247040	41	14425
2026-01-29 20:24:42.27	240.93	10.33	-35.0	-34.9	14.6	0.00e+00	0	49	0	4311744512	41	14405
2026-01-29 20:24:43.28	241.15	10.39	-34.9	-34.9	14.7	0.00e+00	0	49	0	4387241984	41	14302
2026-01-29 20:24:44.28	241.37	10.45	-34.9	-34.8	14.7	0.00e+00	0	49	0	4462739456	41	14249
2026-01-29 20:24:45.29	241.59	10.51	-34.9	-34.8	14.7	0.00e+00	0	49	0	4538236928	41	14153
2026-01-29 20:24:46.30	241.81	10.57	-34.9	-34.9	14.7	0.00e+00	0	49	0	4613734400	41	14283
2026-01-29 20:24:47.31	242.03	10.64	-34.9	-34.8	14.7	0.00e+00	0	49	0	4689231872	41	14270
2026-01-29 20:24:48.31	242.25	10.70	-34.8	-34.7	14.8	0.00e+00	0	49	0	4773117952	41	14074
2026-01-29 20:24:49.31	242.47	10.76	-34.8	-34.8	14.8	0.00e+00	0	49	0	4840226816	41	14123
2026-01-29 20:24:50.32	242.69	10.82	-35.0	-34.9	14.7	0.00e+00	0	49	0	4915724288	41	14337
2026-01-29 20:24:51.32	242.92	10.88	-34.8	-34.8	14.8	0.00e+00	0	49	0	4991221760	41	14115
2026-01-29 20:24:52.32	243.14	10.94	-34.7	-34.6	14.8	0.00e+00	0	49	0	5066719232	41	13898
2026-01-29 20:24:53.33	243.37	11.00	-34.7	-34.6	14.8	0.00e+00	0	49	0	5142216704	41	13846
2026-01-29 20:24:54.33	243.60	11.06	-34.6	-34.5	14.8	0.00e+00	0	49	0	5217714176	41	13776
2026-01-29 20:24:55.34	243.83	11.12	-34.6	-34.5	14.9	0.00e+00	0	49	0	5293211648	41	13785
2026-01-29 20:24:56.34	244.06	11.18	-34.6	-34.5	14.9	0.00e+00	0	49	0	5368709120	41	13711
2026-01-29 20:24:57.34	244.29	11.24	-34.6	-34.5	14.9	0.00e+00	0	49	0	5444206592	41	13734
2026-01-29 20:24:58.35	244.52	11.30	-34.6	-34.5	14.9	0.00e+00	0	49	0	5519704064	41	13732
2026-01-29 20:24:59.36	244.76	11.36	-34.7	-34.6	14.9	0.00e+00	0	49	0	5595201536	41	13856
2026-01-29 20:25:00.36	244.99	11.42	-34.7	-34.6	14.9	0.00e+00	0	49	0	5670699008	41	13817
2026-01-29 20:25:01.37	245.23	11.48	-34.7	-34.6	14.9	0.00e+00	0	49	0	5746196480	41	13902
2026-01-29 20:25:02.37	245.46	11.54	-34.8	-34.7	14.8	0.00e+00	0	49	0	5821693952	41	14060
2026-01-29 20:25:03.38	245.70	11.60	-34.7	-34.6	14.9	0.00e+00	0	49	0	5897191424	41	13926
2026-01-29 20:25:04.39	245.94	11.66	-34.6	-34.5	14.9	0.00e+00	0	49	0	5972688896	41	13671
2026-01-29 20:25:05.40	246.18	11.72	-34.5	-34.4	14.9	0.00e+00	0	50	0	6039797760	41	13605
2026-01-29 20:25:06.40	246.43	11.78	-34.5	-34.5	14.9	0.00e+00	0	50	0	6115295232	40	14459
2026-01-29 20:25:07.41	246.67	11.84	-34.5	-34.4	15.0	0.00e+00	0	50	0	6199181312	40	14294
2026-01-29 20:25:08.42	246.91	11.90	-34.5	-34.4	15.0	0.00e+00	0	49	0	6274678784	40	14351
2026-01-29 20:25:09.42	247.16	11.95	-34.5	-34.4	15.0	0.00e+00	0	49	0	6350176256	40	14316
2026-01-29 20:25:10.43	247.41	12.01	-34.4	-34.3	15.0	0.00e+00	0	50	0	6425673728	40	14208
2026-01-29 20:25:11.44	247.65	12.07	-34.4	-34.3	15.0	0.00e+00	0	49	0	6501171200	40	14194
2026-01-29 20:25:12.44	247.90	12.12	-34.3	-34.2	15.0	0.00e+00	0	49	0	6576668672	40	14110
2026-01-29 20:25:13.45	248.15	12.18	-34.3	-34.2	15.0	0.00e+00	0	49	0	6652166144	40	14089
2026-01-29 20:25:14.45	248.40	12.24	-34.3	-34.2	15.1	0.00e+00	0	50	0	6727663616	40	13958
2026-01-29 20:25:15.45	248.65	12.29	-34.3	-34.2	15.0	0.00e+00	0	50	0	6803161088	40	13998
2026-01-29 20:25:16.46	248.91	12.35	-34.2	-34.1	15.1	0.00e+00	0	49	0	6878658560	40	13940
2026-01-29 20:25:17.46	249.16	12.41	-34.2	-34.1	15.1	0.00e+00	0	50	0	6954156032	40	13915
2026-01-29 20:25:18.47	249.41	12.46	-34.2	-34.1	15.1	0.00e+00	0	50	0	7029653504	40	13880
2026-01-29 20:25:19.48	249.67	12.52	-34.1	-34.0	15.1	0.00e+00	0	50	0	7105150976	40	13718
2026-01-29 20:25:20.48	249.93	12.57	-34.1	-34.0	15.1	0.00e+00	0	50	0	7180648448	40	13788
2026-01-29 20:25:21.49	250.19	12.63	-34.1	-34.0	15.1	0.00e+00	0	50	0	7247757312	40	13741
2026-01-29 20:25:22.49	250.45	12.68	-34.0	-33.9	15.2	0.00e+00	0	50	0	7323254784	40	13629
2026-01-29 20:25:23.50	250.71	12.74	-34.1	-34.0	15.1	0.00e+00	0	50	0	7398752256	40	13650
2026-01-29 20:25:24.50	250.97	12.79	-34.1	-34.0	15.1	0.00e+00	0	50	0	7474249728	40	13755
2026-01-29 20:25:25.51	251.23	12.84	-34.1	-34.0	15.1	0.00e+00	0	50	0	7549747200	40	13712
2026-01-29 20:25:26.51	251.50	12.90	-34.1	-34.0	15.2	0.00e+00	0	50	0	7633633280	39	14525
2026-01-29 20:25:27.52	251.76	12.95	-34.2	-34.1	15.1	0.00e+00	0	50	0	7709130752	39	14679
2026-01-29 20:25:28.53	252.03	13.00	-34.1	-34.0	15.2	0.00e+00	0	50	0	7784628224	39	14561
2026-01-29 20:25:29.53	252.30	13.05	-34.1	-34.0	15.2	0.00e+00	0	49	0	7860125696	39	14480
2026-01-29 20:25:30.54	252.57	13.10	-34.1	-34.0	15.2	0.00e+00	0	49	0	7935623168	39	14468
2026-01-29 20:25:31.55	252.84	13.16	-34.0	-33.9	15.2	0.00e+00	0	50	0	8011120640	39	14421
2026-01-29 20:25:32.55	253.11	13.21	-34.1	-34.0	15.2	0.00e+00	0	50	0	8086618112	39	14506
2026-01-29 20:25:33.56	253.38	13.26	-34.1	-34.0	15.2	0.00e+00	0	50	0	8162115584	39	14564
2026-01-29 20:25:34.56	253.65	13.31	-34.0	-33.9	15.2	0.00e+00	0	50	0	8237613056	39	14422
2026-01-29 20:25:35.57	253.93	13.36	-34.1	-34.0	15.2	0.00e+00	0	50	0	8313110528	39	14525
2026-01-29 20:25:36.57	254.20	13.41	-34.2	-34.1	15.1	0.00e+00	0	50	0	8380219392	39	14679
2026-01-29 20:25:37.57	254.47	13.46	-34.1	-34.0	15.2	0.00e+00	0	50	0	8455716864	39	14520
2026-01-29 20:25:38.58	254.75	13.50	-34.0	-34.0	15.2	0.00e+00	0	50	0	8531214336	39	14444
2026-01-29 20:25:39.58	255.03	13.55	-34.2	-34.1	15.2	0.00e+00	0	50	0	8606711808	39	14635
2026-01-29 20:25:40.59	255.31	13.60	-34.1	-34.0	15.2	0.00e+00	0	50	0	8682209280	39	14534
2026-01-29 20:25:41.59	255.59	13.65	-34.1	-34.0	15.2	0.00e+00	0	50	0	8757706752	39	14507
2026-01-29 20:25:42.60	255.87	13.69	-33.9	-33.9	15.3	0.00e+00	0	49	0	8833204224	39	14285
2026-01-29 20:25:43.61	256.15	13.74	-34.0	-33.9	15.3	0.00e+00	0	50	0	8908701696	39	14357
2026-01-29 20:25:44.61	256.44	13.79	-33.9	-33.8	15.3	0.00e+00	0	50	0	8992587776	39	14262
2026-01-29 20:25:45.62	256.72	13.83	-34.0	-33.9	15.3	0.00e+00	0	50	0	9068085248	39	14322
2026-01-29 20:25:46.62	257.01	13.88	-33.9	-33.8	15.3	0.00e+00	0	50	0	9143582720	39	14174
2026-01-29 20:25:47.62	257.29	13.92	-33.9	-33.8	15.3	0.00e+00	0	50	0	9219080192	39	14255
2026-01-29 20:25:48.63	257.58	13.97	-33.9	-33.8	15.3	0.00e+00	0	49	0	9294577664	39	14184
2026-01-29 20:25:49.63	257.87	14.01	-34.0	-33.9	15.3	0.00e+00	0	50	0	9370075136	39	14310
2026-01-29 20:25:50.64	258.16	14.05	-33.9	-33.8	15.3	0.00e+00	0	50	0	9445572608	39	14211
2026-01-29 20:25:51.64	258.44	14.09	-33.9	-33.8	15.3	0.00e+00	0	50	0	9512681472	39	14140
2026-01-29 20:25:52.65	258.74	14.14	-33.9	-33.8	15.3	0.00e+00	0	50	0	9588178944	39	14206
2026-01-29 20:25:53.66	259.03	14.18	-33.9	-33.8	15.3	0.00e+00	0	50	0	9663676416	39	14193
2026-01-29 20:25:54.66	259.32	14.22	-33.9	-33.8	15.3	0.00e+00	0	50	0	9739173888	39	14157
2026-01-29 20:25:55.67	259.62	14.26	-33.8	-33.7	15.4	0.00e+00	0	49	0	9814671360	39	14028
2026-01-29 20:25:56.67	259.91	14.30	-33.8	-33.7	15.3	0.00e+00	0	50	0	9890168832	39	14100
2026-01-29 20:25:57.68	260.21	14.34	-33.8	-33.7	15.3	0.00e+00	0	50	0	9965666304	39	14092
2026-01-29 20:25:58.69	260.51	14.38	-33.8	-33.7	15.3	0.00e+00	0	50	0	10041163776	39	14004
2026-01-29 20:25:59.69	260.80	14.42	-33.8	-33.7	15.3	0.00e+00	0	50	0	10116661248	39	14057
2026-01-29 20:26:00.70	261.10	14.45	-33.9	-33.8	15.3	0.00e+00	0	50	0	10192158720	39	14130
2026-01-29 20:26:01.70	261.40	14.49	-33.7	-33.6	15.4	0.00e+00	0	50	0	10267656192	39	13910
2026-01-29 20:26:02.70	261.70	14.53	-33.7	-33.6	15.4	0.00e+00	0	50	0	10343153664	39	13905
2026-01-29 20:26:03.70	262.00	14.56	-33.8	-33.7	15.4	0.00e+00	0	50	0	10418651136	39	14060
2026-01-29 20:26:04.71	262.30	14.60	-33.8	-33.7	15.3	0.00e+00	0	50	0	10494148608	39	14057
2026-01-29 20:26:05.72	262.61	14.63	-33.8	-33.7	15.3	0.00e+00	0	50	0	10578034688	39	14056
2026-01-29 20:26:06.72	262.91	14.67	-33.7	-33.6	15.4	0.00e+00	0	50	0	10645143552	39	13922
2026-01-29 20:26:07.73	263.21	14.70	-33.7	-33.6	15.4	0.00e+00	0	50	0	10720641024	39	13843
2026-01-29 20:26:08.73	263.52	14.74	-33.7	-33.6	15.4	0.00e+00	0	50	0	10796138496	39	13908
2026-01-29 20:26:09.74	263.82	14.77	-33.7	-33.6	15.4	0.00e+00	0	50	0	10871635968	39	13926
2026-01-29 20:26:10.75	264.13	14.80	-33.7	-33.6	15.4	0.00e+00	0	50	0	10947133440	39	13892
2026-01-29 20:26:11.75	264.44	14.83	-33.7	-33.6	15.4	0.00e+00	0	50	0	11022630912	39	13901
2026-01-29 20:26:12.75	264.74	14.86	-33.7	-33.6	15.4	0.00e+00	0	50	0	11098128384	39	13848
2026-01-29 20:26:13.75	265.05	14.89	-33.7	-33.6	15.4	0.00e+00	0	50	0	11173625856	39	13861
2026-01-29 20:26:14.76	265.36	14.92	-33.7	-33.6	15.4	0.00e+00	0	50	0	11249123328	39	13842
2026-01-29 20:26:15.77	265.67	14.95	-33.7	-33.6	15.4	0.00e+00	0	50	0	11324620800	39	13854
2026-01-29 20:26:16.77	265.98	14.98	-33.7	-33.6	15.4	0.00e+00	0	50	0	11400118272	39	13884
2026-01-29 20:26:17.78	266.29	15.01	-33.7	-33.6	15.4	0.00e+00	0	50	0	11475615744	39	13889
2026-01-29 20:26:18.79	266.61	15.03	-33.7	-33.6	15.4	0.00e+00	0	50	0	11551113216	39	13936
2026-01-29 20:26:19.80	266.92	15.06	-33.6	-33.5	15.4	0.00e+00	0	50	0	11626610688	39	13781
2026-01-29 20:26:20.81	267.24	15.08	-33.6	-33.5	15.5	0.00e+00	0	50	0	11702108160	39	13661
2026-01-29 20:26:21.81	267.55	15.11	-33.6	-33.5	15.4	0.00e+00	0	50	0	11777605632	39	13710
2026-01-29 20:26:22.82	267.87	15.13	-33.6	-33.5	15.5	0.00e+00	0	50	0	11853103104	39	13673
2026-01-29 20:26:23.82	268.18	15.16	-33.6	-33.5	15.4	0.00e+00	0	50	0	11928600576	39	13767
2026-01-29 20:26:24.83	268.50	15.18	-33.6	-33.5	15.5	0.00e+00	0	50	0	12004098048	39	13696
2026-01-29 20:26:25.83	268.81	15.20	-33.6	-33.5	15.5	0.00e+00	0	50	0	12079595520	39	13652
2026-01-29 20:26:26.84	269.13	15.22	-33.6	-33.6	15.4	0.00e+00	0	50	0	12155092992	39	13795
2026-01-29 20:26:27.84	269.44	15.24	-33.6	-33.5	15.4	0.00e+00	0	50	0	12230590464	39	13771
2026-01-29 20:26:28.85	269.76	15.26	-33.6	-33.5	15.4	0.00e+00	0	50	0	12306087936	39	13780
2026-01-29 20:26:29.85	270.08	15.28	-33.5	-33.4	15.5	0.00e+00	0	50	0	12381585408	39	13620
2026-01-29 20:26:30.85	270.40	15.30	-33.6	-33.5	15.5	0.00e+00	0	50	0	12457082880	39	13663
2026-01-29 20:26:31.86	270.72	15.32	-33.6	-33.5	15.4	0.00e+00	0	50	0	12532580352	39	13667
2026-01-29 20:26:32.87	271.04	15.33	-33.6	-33.5	15.4	0.00e+00	0	50	0	12608077824	39	13732
2026-01-29 20:26:33.88	271.36	15.35	-33.6	-33.5	15.4	0.00e+00	0	50	0	12683575296	39	13711
2026-01-29 20:26:34.88	271.68	15.37	-33.6	-33.5	15.5	0.00e+00	0	50	0	12759072768	39	13741
2026-01-29 20:26:35.89	272.00	15.38	-33.6	-33.5	15.5	0.00e+00	0	50	0	12834570240	39	13710
2026-01-29 20:26:36.89	272.32	15.39	-33.6	-33.5	15.5	0.00e+00	0	50	0	12910067712	39	13659
2026-01-29 20:26:37.90	272.64	15.41	-33.6	-33.5	15.4	0.00e+00	0	50	0	12985565184	39	13705
2026-01-29 20:26:38.91	272.96	15.42	-33.6	-33.5	15.5	0.00e+00	0	50	0	13052674048	39	13788
2026-01-29 20:26:39.91	273.28	15.43	-33.6	-33.5	15.5	0.00e+00	0	50	0	13136560128	39	13648
2026-01-29 20:26:40.92	273.61	15.44	-33.7	-33.6	15.4	0.00e+00	0	50	0	13212057600	39	13933
2026-01-29 20:26:41.92	273.93	15.45	-33.7	-33.6	15.4	0.00e+00	0	50	0	13287555072	39	13874
2026-01-29 20:26:42.92	274.25	15.46	-33.6	-33.5	15.5	0.00e+00	0	50	0	13363052544	39	13684
2026-01-29 20:26:43.93	274.57	15.47	-33.5	-33.4	15.5	0.00e+00	0	50	0	13438550016	39	13592
2026-01-29 20:26:44.93	274.89	15.48	-33.6	-33.5	15.5	0.00e+00	0	50	0	13514047488	39	13725
2026-01-29 20:26:45.93	275.22	15.49	-33.6	-33.5	15.5	0.00e+00	0	50	0	13589544960	39	13730
2026-01-29 20:26:46.94	275.54	15.49	-33.6	-33.5	15.5	0.00e+00	0	50	0	13665042432	39	13722
2026-01-29 20:26:47.95	275.87	15.50	-33.7	-33.6	15.4	0.00e+00	0	50	0	13740539904	39	13806
2026-01-29 20:26:48.96	276.19	15.50	-33.7	-33.6	15.4	0.00e+00	0	50	0	13816037376	39	13876
2026-01-29 20:26:49.96	276.51	15.51	-33.7	-33.6	15.4	0.00e+00	0	50	0	13891534848	39	13908
2026-01-29 20:26:50.97	276.84	15.51	-33.6	-33.5	15.5	0.00e+00	0	50	0	13967032320	39	13666
2026-01-29 20:26:51.97	277.16	15.51	-33.6	-33.5	15.5	0.00e+00	0	50	0	14042529792	39	13754
2026-01-29 20:26:52.98	277.48	15.52	-33.6	-33.5	15.5	0.00e+00	0	50	0	14118027264	39	13725
2026-01-29 20:26:53.98	277.81	15.52	-33.6	-33.5	15.5	0.00e+00	0	50	0	14185136128	39	13752
2026-01-29 20:26:54.98	278.13	15.52	-33.6	-33.5	15.5	0.00e+00	0	50	0	14260633600	39	13741
2026-01-29 20:26:55.99	278.45	15.52	-33.6	-33.5	15.5	0.00e+00	0	50	0	14336131072	39	13787
2026-01-29 20:26:56.99	278.78	15.52	-33.6	-33.5	15.5	0.00e+00	0	50	0	14411628544	39	13745
2026-01-29 20:26:58.00	279.10	15.51	-33.7	-33.6	15.5	0.00e+00	0	50	0	14487126016	39	13847
2026-01-29 20:26:59.00	279.42	15.51	-33.8	-33.7	15.4	0.00e+00	0	50	0	14562623488	39	13988
2026-01-29 20:27:00.01	279.75	15.51	-33.7	-33.6	15.5	0.00e+00	0	50	0	14646509568	39	13803
2026-01-29 20:27:01.01	280.07	15.50	-33.7	-33.6	15.5	0.00e+00	0	50	0	14722007040	39	13903
2026-01-29 20:27:02.02	280.39	15.50	-33.7	-33.6	15.4	0.00e+00	0	50	0	14797504512	39	13937
2026-01-29 20:27:03.02	280.72	15.49	-33.7	-33.7	15.5	0.00e+00	0	50	0	14873001984	39	13974
2026-01-29 20:27:04.02	281.04	15.49	-33.6	-33.5	15.5	0.00e+00	0	50	0	14948499456	39	13773
2026-01-29 20:27:05.03	281.36	15.48	-33.8	-33.7	15.5	0.00e+00	0	50	0	15023996928	39	13969
2026-01-29 20:27:06.03	281.68	15.47	-33.7	-33.6	15.5	0.00e+00	0	50	0	15099494400	39	13887
2026-01-29 20:27:07.04	282.01	15.46	-33.7	-33.6	15.5	0.00e+00	0	50	0	15174991872	39	13899
2026-01-29 20:27:08.04	282.33	15.45	-33.9	-33.8	15.4	0.00e+00	0	50	0	15250489344	39	14167
2026-01-29 20:27:09.05	282.65	15.44	-33.7	-33.6	15.5	0.00e+00	0	50	0	15317598208	39	13856
2026-01-29 20:27:10.06	282.97	15.43	-33.8	-33.7	15.5	0.00e+00	0	50	0	15393095680	39	13978
2026-01-29 20:27:11.06	283.29	15.42	-33.8	-33.7	15.4	0.00e+00	0	50	0	15468593152	39	13988
2026-01-29 20:27:12.07	283.61	15.41	-33.8	-33.7	15.5	0.00e+00	0	50	0	15544090624	39	14038
2026-01-29 20:27:13.08	283.94	15.39	-33.8	-33.7	15.5	0.00e+00	0	50	0	15619588096	39	13986
2026-01-29 20:27:14.09	284.26	15.38	-33.9	-33.8	15.4	0.00e+00	0	50	0	15695085568	39	14132
2026-01-29 20:27:15.09	284.58	15.37	-33.8	-33.7	15.5	0.00e+00	0	50	0	15770583040	39	14027
2026-01-29 20:27:16.09	284.89	15.35	-33.8	-33.7	15.5	0.00e+00	0	50	0	15846080512	39	14032
2026-01-29 20:27:17.09	285.21	15.33	-33.8	-33.7	15.5	0.00e+00	0	50	0	15921577984	39	14027
2026-01-29 20:27:18.10	285.53	15.32	-33.8	-33.7	15.5	0.00e+00	0	50	0	15997075456	39	14024
2026-01-29 20:27:19.10	285.85	15.30	-33.8	-33.7	15.5	0.00e+00	0	50	0	16072572928	39	14070
2026-01-29 20:27:20.10	286.16	15.28	-33.8	-33.7	15.5	0.00e+00	0	50	0	16148070400	39	14044
2026-01-29 20:27:21.11	286.48	15.26	-33.9	-33.8	15.4	0.00e+00	0	50	0	16223567872	39	14198
2026-01-29 20:27:22.11	286.80	15.24	-33.9	-33.8	15.4	0.00e+00	0	50	0	16307453952	39	14197
2026-01-29 20:27:23.11	287.11	15.22	-33.9	-33.8	15.4	0.00e+00	0	50	0	16382951424	39	14161
2026-01-29 20:27:24.12	287.43	15.20	-33.9	-33.9	15.4	0.00e+00	0	50	0	16450060288	39	14284
2026-01-29 20:27:25.13	287.75	15.18	-33.9	-33.8	15.4	0.00e+00	0	50	0	16525557760	39	14262
2026-01-29 20:27:26.14	288.06	15.16	-33.9	-33.8	15.4	0.00e+00	0	50	0	16601055232	39	14258
2026-01-29 20:27:27.14	288.38	15.13	-34.0	-33.9	15.4	0.00e+00	0	50	0	16676552704	39	14297
2026-01-29 20:27:28.15	288.69	15.11	-33.9	-33.8	15.4	0.00e+00	0	51	0	16752050176	39	14182
2026-01-29 20:27:29.16	289.00	15.08	-33.9	-33.8	15.4	0.00e+00	0	50	0	16827547648	39	14209
2026-01-29 20:27:30.16	289.32	15.06	-33.9	-33.8	15.4	0.00e+00	0	50	0	16903045120	39	14239
2026-01-29 20:27:31.17	289.63	15.03	-34.0	-33.9	15.4	0.00e+00	0	50	0	16978542592	39	14389
2026-01-29 20:27:32.17	289.94	15.01	-34.0	-33.9	15.4	0.00e+00	0	50	0	17054040064	39	14342
2026-01-29 20:27:33.18	290.25	14.98	-34.0	-33.9	15.4	0.00e+00	0	50	0	17129537536	39	14352
2026-01-29 20:27:34.19	290.56	14.95	-34.1	-34.0	15.3	0.00e+00	0	50	0	17205035008	39	14577
2026-01-29 20:27:35.19	290.87	14.92	-34.0	-33.9	15.4	0.00e+00	0	50	0	17280532480	39	14434
2026-01-29 20:27:36.20	291.18	14.89	-34.1	-34.0	15.3	0.00e+00	0	50	0	17356029952	39	14466
2026-01-29 20:27:37.20	291.48	14.86	-34.1	-34.0	15.4	0.00e+00	0	50	0	17431527424	39	14510
2026-01-29 20:27:38.20	291.79	14.83	-34.0	-33.9	15.4	0.00e+00	0	50	0	17507024896	39	14394
2026-01-29 20:27:39.21	292.10	14.80	-34.1	-34.0	15.4	0.00e+00	0	50	0	17582522368	39	14512
2026-01-29 20:27:40.21	292.40	14.77	-34.1	-34.0	15.3	0.00e+00	0	51	0	17658019840	39	14556
2026-01-29 20:27:41.22	292.71	14.74	-34.1	-34.0	15.4	0.00e+00	0	50	0	17733517312	39	14462
2026-01-29 20:27:42.22	293.01	14.71	-34.2	-34.1	15.3	0.00e+00	0	50	0	17809014784	39	14624
2026-01-29 20:27:43.22	293.31	14.67	-34.2	-34.1	15.3	0.00e+00	0	50	0	17884512256	39	14750
2026-01-29 20:27:44.23	293.61	14.64	-34.2	-34.1	15.3	0.00e+00	0	50	0	17960009728	39	14747
2026-01-29 20:27:45.23	293.91	14.60	-34.2	-34.1	15.3	0.00e+00	0	50	0	18035507200	39	14646
2026-01-29 20:27:46.24	294.21	14.57	-34.2	-34.1	15.3	0.00e+00	0	50	0	18111004672	39	14759
2026-01-29 20:27:47.24	294.51	14.53	-34.2	-34.1	15.3	0.00e+00	0	50	0	18186502144	39	14647
2026-01-29 20:27:48.25	294.81	14.50	-34.1	-34.0	15.4	0.00e+00	0	50	0	18261999616	39	14594
2026-01-29 20:27:49.24	295.11	14.46	-34.2	-34.1	15.3	0.00e+00	0	50	0	18337497088	39	14693
2026-01-29 20:27:50.25	295.40	14.42	-34.3	-34.2	15.3	0.00e+00	0	50	0	18412994560	39	14841
2026-01-29 20:27:51.25	295.70	14.38	-34.1	-34.0	15.3	0.00e+00	0	50	0	18488492032	39	14574
2026-01-29 20:27:52.26	295.99	14.35	-34.2	-34.1	15.3	0.00e+00	0	50	0	18563989504	39	14760
2026-01-29 20:27:53.26	296.29	14.31	-34.2	-34.1	15.3	0.00e+00	0	50	0	18639486976	39	14747
2026-01-29 20:27:54.27	296.58	14.27	-34.2	-34.1	15.3	0.00e+00	0	50	0	18714984448	39	14714
2026-01-29 20:27:55.28	296.88	14.23	-34.3	-34.2	15.3	0.00e+00	0	50	0	18790481920	39	14839
2026-01-29 20:27:56.29	297.17	14.19	-34.4	-34.3	15.2	0.00e+00	0	50	0	18857590784	39	15031
2026-01-29 20:27:57.29	297.46	14.15	-34.2	-34.1	15.3	0.00e+00	0	50	0	18933088256	39	14756
2026-01-29 20:27:58.29	297.75	14.10	-34.2	-34.1	15.3	0.00e+00	0	50	0	19008585728	39	14646
2026-01-29 20:27:59.30	298.04	14.06	-34.2	-34.1	15.3	0.00e+00	0	50	0	19084083200	39	14758
2026-01-29 20:28:00.31	298.32	14.02	-34.2	-34.2	15.3	0.00e+00	0	50	0	19159580672	39	14784
2026-01-29 20:28:01.31	298.61	13.98	-34.2	-34.1	15.3	0.00e+00	0	50	0	19243466752	39	14693
2026-01-29 20:28:02.31	298.89	13.93	-34.2	-34.1	15.3	0.00e+00	0	50	0	19318964224	39	14767
2026-01-29 20:28:03.32	299.18	13.89	-34.3	-34.2	15.2	0.00e+00	0	50	0	19394461696	39	14889
2026-01-29 20:28:04.33	299.46	13.84	-34.3	-34.2	15.2	0.00e+00	0	50	0	19469959168	39	14814
2026-01-29 20:28:05.34	299.75	13.80	-34.3	-34.2	15.2	0.00e+00	0	50	0	19545456640	39	14922
2026-01-29 20:28:06.34	300.03	13.75	-34.3	-34.2	15.2	0.00e+00	0	50	0	19620954112	39	14931
2026-01-29 20:28:07.35	300.31	13.71	-34.3	-34.2	15.2	0.00e+00	0	50	0	19696451584	39	14809
2026-01-29 20:28:08.35	300.59	13.66	-34.3	-34.2	15.2	0.00e+00	0	50	0	19771949056	39	14800
2026-01-29 20:28:09.35	300.87	13.61	-34.3	-34.2	15.2	0.00e+00	0	50	0	19847446528	39	14906
2026-01-29 20:28:10.36	301.14	13.57	-34.4	-34.4	15.1	0.00e+00	0	50	0	19922944000	39	15122
2026-01-29 20:28:11.37	301.42	13.52	-34.2	-34.1	15.2	0.00e+00	0	50	0	19990052864	39	14770
2026-01-29 20:28:12.37	301.70	13.47	-34.3	-34.2	15.2	0.00e+00	0	50	0	20065550336	39	14869
2026-01-29 20:28:13.38	301.97	13.42	-34.3	-34.2	15.2	0.00e+00	0	50	0	20141047808	39	14900
2026-01-29 20:28:14.39	302.25	13.37	-34.3	-34.2	15.2	0.00e+00	0	50	0	20216545280	39	14857
2026-01-29 20:28:15.39	302.52	13.32	-34.4	-34.3	15.1	0.00e+00	0	50	0	20292042752	39	15094
2026-01-29 20:28:16.40	302.79	13.27	-34.4	-34.3	15.1	0.00e+00	0	50	0	20367540224	39	15117
2026-01-29 20:28:17.41	303.06	13.22	-34.4	-34.3	15.1	0.00e+00	0	50	0	20451426304	39	14963
2026-01-29 20:28:18.42	303.33	13.17	-34.3	-34.3	15.2	0.00e+00	0	50	0	20526923776	39	14967
2026-01-29 20:28:19.42	303.60	13.12	-34.3	-34.3	15.2	0.00e+00	0	50	0	20602421248	39	14958
2026-01-29 20:28:20.41	303.86	13.07	-34.3	-34.2	15.2	0.00e+00	0	50	0	20677918720	39	14939
2026-01-29 20:28:21.42	304.13	13.02	-34.3	-34.3	15.2	0.00e+00	0	50	0	20753416192	39	14979
2026-01-29 20:28:22.43	304.39	12.97	-34.4	-34.4	15.1	0.00e+00	0	50	0	20828913664	39	15126
2026-01-29 20:28:23.44	304.66	12.91	-34.4	-34.3	15.1	0.00e+00	0	50	0	20904411136	39	15079
2026-01-29 20:28:24.44	304.92	12.86	-34.4	-34.3	15.1	0.00e+00	0	50	0	20979908608	39	15086
2026-01-29 20:28:25.45	305.18	12.81	-34.5	-34.5	15.1	0.00e+00	0	50	0	21055406080	39	15300
2026-01-29 20:28:26.46	305.44	12.76	-34.5	-34.5	15.0	0.00e+00	0	50	0	21122514944	39	15297
2026-01-29 20:28:27.47	305.70	12.70	-34.4	-34.4	15.1	0.00e+00	0	50	0	21198012416	39	15147
2026-01-29 20:28:28.47	305.96	12.65	-34.6	-34.5	15.0	0.00e+00	0	50	0	21273509888	39	15307
2026-01-29 20:28:29.48	306.22	12.59	-34.5	-34.4	15.1	0.00e+00	0	50	0	21349007360	39	15231
2026-01-29 20:28:30.49	306.47	12.54	-34.5	-34.4	15.1	0.00e+00	0	50	0	21424504832	39	15156
2026-01-29 20:28:31.49	306.73	12.49	-34.5	-34.4	15.1	0.00e+00	0	50	0	21500002304	39	15266
2026-01-29 20:28:32.50	306.98	12.43	-34.5	-34.4	15.1	0.00e+00	0	50	0	21575499776	39	15198
2026-01-29 20:28:33.51	307.23	12.37	-34.6	-34.5	15.0	0.00e+00	0	50	0	21659385856	39	15392
2026-01-29 20:28:34.52	307.49	12.32	-34.6	-34.5	15.0	0.00e+00	0	50	0	21734883328	39	15400
2026-01-29 20:28:35.53	307.74	12.26	-34.6	-34.5	15.0	0.00e+00	0	50	0	21810380800	39	15365
2026-01-29 20:28:36.54	307.99	12.21	-34.6	-34.5	15.0	0.00e+00	0	50	0	21885878272	39	15353
2026-01-29 20:28:37.55	308.24	12.15	-34.6	-34.5	15.0	0.00e+00	0	50	0	21961375744	39	15323
2026-01-29 20:28:38.56	308.48	12.09	-34.6	-34.5	15.0	0.00e+00	0	50	0	22036873216	39	15454
2026-01-29 20:28:39.57	308.73	12.04	-34.6	-34.5	15.0	0.00e+00	0	50	0	22112370688	39	15467
2026-01-29 20:28:40.58	308.98	11.98	-34.6	-34.6	15.0	0.00e+00	0	50	0	22187868160	39	15475
2026-01-29 20:28:41.58	309.22	11.92	-34.6	-34.6	14.9	0.00e+00	0	50	0	22254977024	40	14615
2026-01-29 20:28:42.59	309.46	11.86	-34.6	-34.5	15.0	0.00e+00	0	50	0	22330474496	40	14488
2026-01-29 20:28:43.60	309.70	11.81	-34.6	-34.5	15.0	0.00e+00	0	50	0	22405971968	40	14559
2026-01-29 20:28:44.61	309.94	11.75	-34.5	-34.4	15.0	0.00e+00	0	50	0	22481469440	40	14420
2026-01-29 20:28:45.62	310.18	11.69	-34.7	-34.6	14.9	0.00e+00	0	50	0	22565355520	40	14691
2026-01-29 20:28:46.63	310.42	11.63	-34.6	-34.5	14.9	0.00e+00	0	50	0	22640852992	40	14513
2026-01-29 20:28:47.63	310.66	11.57	-34.7	-34.6	14.9	0.00e+00	0	50	0	22716350464	40	14717
2026-01-29 20:28:48.64	310.89	11.51	-34.8	-34.7	14.9	0.00e+00	0	50	0	22791847936	40	14803
2026-01-29 20:28:49.65	311.13	11.45	-34.8	-34.7	14.8	0.00e+00	0	50	0	22867345408	40	14839
2026-01-29 20:28:50.66	311.36	11.40	-34.8	-34.7	14.8	0.00e+00	0	50	0	22942842880	40	14788
2026-01-29 20:28:51.66	311.59	11.34	-34.8	-34.7	14.8	0.00e+00	0	50	0	23018340352	40	14808
2026-01-29 20:28:52.66	311.82	11.28	-34.8	-34.7	14.8	0.00e+00	0	50	0	23093837824	40	14807
2026-01-29 20:28:53.67	312.05	11.22	-34.8	-34.7	14.8	0.00e+00	0	50	0	23169335296	40	14826
2026-01-29 20:28:54.68	312.28	11.16	-34.7	-34.6	14.9	0.00e+00	0	50	0	23244832768	40	14680
2026-01-29 20:28:55.69	312.51	11.10	-34.8	-34.7	14.8	0.00e+00	0	50	0	23320330240	40	14843
2026-01-29 20:28:56.69	312.74	11.04	-34.9	-34.8	14.8	0.00e+00	0	50	0	23387439104	40	15003
2026-01-29 20:28:57.70	312.96	10.98	-34.8	-34.7	14.8	0.00e+00	0	50	0	23462936576	40	14917
2026-01-29 20:28:58.71	313.19	10.92	-35.0	-34.9	14.7	0.00e+00	0	50	0	23546822656	40	15224
2026-01-29 20:28:59.71	313.41	10.86	-35.0	-34.9	14.7	0.00e+00	0	50	0	23622320128	40	15206
2026-01-29 20:29:00.72	313.63	10.80	-35.0	-34.9	14.7	0.00e+00	0	50	0	23697817600	40	15231
2026-01-29 20:29:01.72	313.85	10.73	-34.9	-34.8	14.7	0.00e+00	0	50	0	23773315072	40	15118
2026-01-29 20:29:02.73	314.07	10.67	-34.9	-34.8	14.7	0.00e+00	0	50	0	23848812544	40	15066
2026-01-29 20:29:03.73	314.29	10.61	-35.1	-35.0	14.7	0.00e+00	0	50	0	23924310016	40	15328
2026-01-29 20:29:04.74	314.51	10.55	-35.0	-34.9	14.7	0.00e+00	0	50	0	23999807488	40	15223
2026-01-29 20:29:05.75	314.73	10.49	-35.1	-35.0	14.6	0.00e+00	0	50	0	24075304960	40	15397
2026-01-29 20:29:06.76	314.94	10.43	-34.9	-34.8	14.7	0.00e+00	0	50	0	24150802432	40	15103
2026-01-29 20:29:07.77	315.16	10.37	-34.9	-34.8	14.7	0.00e+00	0	50	0	24226299904	40	15016
2026-01-29 20:29:08.78	315.37	10.30	-35.0	-34.9	14.6	0.00e+00	0	50	0	24301797376	40	15268
2026-01-29 20:29:09.78	315.58	10.24	-35.1	-35.1	14.6	0.00e+00	0	50	0	24377294848	40	15492
2026-01-29 20:29:10.79	315.80	10.18	-34.9	-34.9	14.7	0.00e+00	0	50	0	24452792320	40	15127
2026-01-29 20:29:11.79	316.00	10.12	-35.1	-35.0	14.6	0.00e+00	0	51	0	24519901184	40	15382
2026-01-29 20:29:12.80	316.21	10.06	-35.1	-35.0	14.6	0.00e+00	0	50	0	24595398656	40	15437
2026-01-29 20:29:13.80	316.42	10.00	-35.0	-34.9	14.7	0.00e+00	0	50	0	24670896128	41	14300
2026-01-29 20:29:14.80	316.63	9.93	-35.2	-35.1	14.6	0.00e+00	0	50	0	24746393600	41	14721
2026-01-29 20:29:15.81	316.83	9.87	-35.2	-35.2	14.5	0.00e+00	0	51	0	24821891072	41	14800
2026-01-29 20:29:16.82	317.04	9.81	-35.1	-35.0	14.6	0.00e+00	0	50	0	24905777152	41	14479
2026-01-29 20:29:17.83	317.24	9.75	-35.2	-35.1	14.6	0.00e+00	0	50	0	24981274624	41	14749
2026-01-29 20:29:18.84	317.45	9.68	-35.2	-35.1	14.6	0.00e+00	0	50	0	25056772096	41	14638
2026-01-29 20:29:19.84	317.65	9.62	-35.1	-35.0	14.6	0.00e+00	0	50	0	25132269568	41	14597
2026-01-29 20:29:20.84	317.85	9.56	-35.2	-35.1	14.6	0.00e+00	0	51	0	25207767040	41	14767
2026-01-29 20:29:21.85	318.05	9.50	-35.2	-35.1	14.6	0.00e+00	0	51	0	25283264512	41	14715
2026-01-29 20:29:22.86	318.25	9.43	-35.3	-35.2	14.5	0.00e+00	0	50	0	25358761984	41	14799
2026-01-29 20:29:23.86	318.44	9.37	-35.3	-35.2	14.5	0.00e+00	0	50	0	25434259456	41	14879
2026-01-29 20:29:24.87	318.64	9.31	-35.3	-35.3	14.5	0.00e+00	0	50	0	25509756928	41	14952
2026-01-29 20:29:25.87	318.84	9.25	-35.5	-35.4	14.3	0.00e+00	0	50	0	25585254400	41	15252
2026-01-29 20:29:26.88	319.03	9.18	-35.3	-35.2	14.5	0.00e+00	0	50	0	25652363264	41	14943
2026-01-29 20:29:27.89	319.22	9.12	-35.4	-35.3	14.4	0.00e+00	0	51	0	25727860736	41	15001
2026-01-29 20:29:28.89	319.42	9.06	-35.4	-35.3	14.4	0.00e+00	0	50	0	25803358208	41	14993
2026-01-29 20:29:29.90	319.61	9.00	-35.3	-35.3	14.4	0.00e+00	0	51	0	25878855680	41	14965
2026-01-29 20:29:30.91	319.80	8.93	-35.5	-35.4	14.4	0.00e+00	0	50	0	25954353152	41	15168
2026-01-29 20:29:31.91	319.99	8.87	-35.3	-35.2	14.5	0.00e+00	0	50	0	26038239232	41	14879
2026-01-29 20:29:32.92	320.18	8.81	-35.5	-35.4	14.3	0.00e+00	0	50	0	26113736704	41	15213
2026-01-29 20:29:33.92	320.36	8.74	-35.4	-35.4	14.4	0.00e+00	0	50	0	26189234176	41	15124
2026-01-29 20:29:34.94	320.55	8.68	-35.6	-35.5	14.3	0.00e+00	0	50	0	26264731648	42	14537
2026-01-29 20:29:35.94	320.74	8.62	-35.8	-35.7	14.2	0.00e+00	0	51	0	26340229120	42	14806
2026-01-29 20:29:36.95	320.92	8.55	-35.6	-35.5	14.3	6.90e-06	0	50	0	26415726592	42	14584
2026-01-29 20:29:37.95	321.11	8.49	-35.7	-35.6	14.3	0.00e+00	0	50	0	26491224064	42	14697
2026-01-29 20:29:38.96	321.29	8.43	-35.7	-35.6	14.2	0.00e+00	0	50	0	26566721536	42	14720
2026-01-29 20:29:39.97	321.47	8.37	-35.7	-35.6	14.3	0.00e+00	0	50	0	26642219008	42	14677
2026-01-29 20:29:40.97	321.65	8.30	-35.6	-35.5	14.3	0.00e+00	0	50	0	26717716480	42	14530
2026-01-29 20:29:41.98	321.83	8.24	-35.7	-35.6	14.3	0.00e+00	0	50	0	26784825344	42	14656
2026-01-29 20:29:42.99	322.01	8.18	-35.6	-35.5	14.3	6.90e-06	0	50	0	26860322816	42	14571
2026-01-29 20:29:43.99	322.19	8.11	-35.7	-35.6	14.2	0.00e+00	0	50	0	26935820288	42	14719
2026-01-29 20:29:45.00	322.37	8.05	-35.7	-35.6	14.2	0.00e+00	0	51	0	27011317760	42	14754
2026-01-29 20:29:46.00	322.54	7.99	-35.8	-35.7	14.1	0.00e+00	0	51	0	27086815232	42	14925
2026-01-29 20:29:47.01	322.72	7.92	-35.8	-35.7	14.2	0.00e+00	0	50	0	27170701312	42	14853
2026-01-29 20:29:48.01	322.89	7.86	-35.8	-35.7	14.1	0.00e+00	0	50	0	27246198784	42	14942
2026-01-29 20:29:49.02	323.07	7.80	-35.8	-35.7	14.2	0.00e+00	0	50	0	27321696256	42	14842
2026-01-29 20:29:50.03	323.24	7.74	-35.8	-35.8	14.1	0.00e+00	0	50	0	27397193728	42	14955
2026-01-29 20:29:51.04	323.41	7.67	-35.9	-35.8	14.1	0.00e+00	0	51	0	27472691200	43	14264
2026-01-29 20:29:52.05	323.58	7.61	-36.0	-35.9	14.1	0.00e+00	0	50	0	27548188672	43	14334
2026-01-29 20:29:53.05	323.75	7.55	-36.0	-35.9	14.1	0.00e+00	0	50	0	27623686144	43	14371
2026-01-29 20:29:54.06	323.92	7.48	-35.9	-35.9	14.1	0.00e+00	0	50	0	27699183616	43	14280
2026-01-29 20:29:55.07	324.09	7.42	-36.0	-35.9	14.0	6.90e-06	0	51	0	27774681088	43	14306
2026-01-29 20:29:56.07	324.26	7.36	-36.0	-35.9	14.0	0.00e+00	0	50	0	27850178560	43	14388
2026-01-29 20:29:57.08	324.42	7.30	-36.2	-36.1	13.9	0.00e+00	0	50	0	27917287424	43	14702
2026-01-29 20:29:58.09	324.59	7.23	-36.3	-36.3	13.8	0.00e+00	0	50	0	27992784896	43	14961
2026-01-29 20:29:59.09	324.75	7.17	-36.1	-36.0	13.9	0.00e+00	0	50	0	28068282368	43	14589
2026-01-29 20:30:00.10	324.92	7.11	-36.3	-36.2	13.8	0.00e+00	0	50	0	28143779840	43	14905
2026-01-29 20:30:01.11	325.08	7.04	-36.3	-36.3	13.8	0.00e+00	0	50	0	28219277312	43	14974
2026-01-29 20:30:02.11	325.24	6.98	-36.4	-36.3	13.8	0.00e+00	0	51	0	28303163392	43	15114
2026-01-29 20:30:03.12	325.40	6.92	-36.3	-36.3	13.7	0.00e+00	0	50	0	28378660864	44	14213
2026-01-29 20:30:04.13	325.56	6.86	-36.3	-36.2	13.8	0.00e+00	0	50	0	28454158336	44	14012
2026-01-29 20:30:05.13	325.72	6.80	-36.5	-36.4	13.6	0.00e+00	0	50	0	28529655808	44	14333
2026-01-29 20:30:06.14	325.88	6.73	-36.3	-36.2	13.8	0.00e+00	0	50	0	28605153280	44	14024
2026-01-29 20:30:07.14	326.04	6.67	-36.0	-36.0	13.9	0.00e+00	0	50	0	28680650752	44	13652
2026-01-29 20:30:08.15	326.20	6.61	-36.3	-36.2	13.8	6.90e-06	0	50	0	28756148224	44	14029
2026-01-29 20:30:09.16	326.35	6.55	-36.4	-36.4	13.6	0.00e+00	0	50	0	28831645696	44	14285
2026-01-29 20:30:10.17	326.51	6.48	-36.3	-36.2	13.7	0.00e+00	0	50	0	28907143168	44	14090
2026-01-29 20:30:11.17	326.66	6.42	-36.4	-36.4	13.7	0.00e+00	0	51	0	28982640640	44	14292
2026-01-29 20:30:12.18	326.82	6.36	-36.3	-36.3	13.7	1.38e-05	0	50	0	29049749504	44	14139
2026-01-29 20:30:13.18	326.97	6.30	-36.3	-36.3	13.7	6.90e-06	0	50	0	29125246976	44	14148
2026-01-29 20:30:14.19	327.12	6.24	-36.4	-36.4	13.6	0.00e+00	0	51	0	29200744448	44	14310
2026-01-29 20:30:15.19	327.27	6.17	-36.5	-36.4	13.6	0.00e+00	0	51	0	29276241920	44	14394
2026-01-29 20:30:16.20	327.42	6.11	-36.4	-36.3	13.6	0.00e+00	0	50	0	29351739392	44	14259
2026-01-29 20:30:17.21	327.57	6.05	-36.4	-36.4	13.6	0.00e+00	0	50	0	29427236864	44	14332
2026-01-29 20:30:18.21	327.72	5.99	-36.7	-36.6	13.5	6.90e-06	0	50	0	29511122944	44	14693
2026-01-29 20:30:19.22	327.87	5.93	-36.4	-36.4	13.6	0.00e+00	0	50	0	29586620416	44	14286
2026-01-29 20:30:20.23	328.02	5.86	-36.4	-36.3	13.6	1.38e-05	0	50	0	29662117888	44	14196
2026-01-29 20:30:21.23	328.17	5.80	-36.8	-36.7	13.4	0.00e+00	0	50	0	29737615360	44	14852
2026-01-29 20:30:22.24	328.31	5.74	-36.5	-36.4	13.6	0.00e+00	0	50	0	29813112832	44	14383
2026-01-29 20:30:23.25	328.46	5.68	-36.9	-36.9	13.3	2.08e-05	0	50	0	29888610304	44	15155
2026-01-29 20:30:24.26	328.60	5.62	-36.5	-36.5	13.5	1.38e-05	0	51	0	29964107776	44	14468
2026-01-29 20:30:25.27	328.75	5.56	-36.7	-36.7	13.3	0.00e+00	0	50	0	30039605248	44	14867
2026-01-29 20:30:26.27	328.89	5.50	-36.8	-36.7	13.4	0.00e+00	0	50	0	30115102720	44	14832
2026-01-29 20:30:27.28	329.03	5.43	-37.1	-37.1	13.1	6.90e-06	0	50	0	30182211584	44	15507
2026-01-29 20:30:28.29	329.18	5.37	-36.8	-36.7	13.3	6.90e-06	0	51	0	30257709056	44	14878
2026-01-29 20:30:29.29	329.32	5.31	-36.5	-36.4	13.5	6.90e-06	0	50	0	30333206528	44	14391
2026-01-29 20:30:30.30	329.46	5.25	-36.6	-36.5	13.5	0.00e+00	0	51	0	30408704000	44	14549
2026-01-29 20:30:31.30	329.60	5.19	-36.8	-36.7	13.3	6.90e-06	0	50	0	30484201472	44	14934
2026-01-29 20:30:32.30	329.73	5.13	-37.0	-36.9	13.2	0.00e+00	0	50	0	30559698944	44	15199
2026-01-29 20:30:33.31	329.87	5.07	-36.8	-36.8	13.2	6.90e-06	0	51	0	30643585024	44	15000
2026-01-29 20:30:34.32	330.01	5.01	-37.1	-37.1	13.1	6.90e-06	0	51	0	30719082496	44	15503
2026-01-29 20:30:35.33	330.15	4.95	-52.6	-54.8	3.7	2.08e-04	0	50	104	30744248320	75	20144
2026-01-29 20:30:36.33	330.28	4.89	-53.0	-55.2	3.7	2.08e-04	0	50	104	30744248320	76	19728
2026-01-29 20:30:37.33	330.42	4.83	-53.2	-55.3	3.6	2.08e-04	0	50	104	30744248320	76	20147
2026-01-29 20:30:38.34	330.55	4.77	-53.4	-55.5	3.7	2.08e-04	0	50	104	30744248320	77	19351
2026-01-29 20:30:39.35	330.69	4.71	-53.5	-55.6	3.7	2.08e-04	0	50	104	30744248320	77	19645
2026-01-29 20:30:40.36	330.82	4.65	-53.6	-55.7	3.7	2.08e-04	0	49	104	30744248320	77	19771
2026-01-29 20:30:41.37	330.95	4.58	-53.6	-55.7	3.7	2.08e-04	0	50	104	30744248320	77	19927
2026-01-29 20:30:42.37	331.08	4.53	-53.6	-55.8	3.7	2.08e-04	0	50	104	30744248320	77	19951
2026-01-29 20:30:43.38	331.22	4.46	-53.6	-55.7	3.7	2.08e-04	0	50	104	30744248320	77	19863
2026-01-29 20:30:44.39	331.35	4.40	-53.5	-55.6	3.6	2.08e-04	0	50	104	30744248320	77	19685
2026-01-29 20:30:45.40	331.48	4.34	-53.4	-55.5	3.7	2.08e-04	0	49	104	30744248320	77	19413
2026-01-29 20:30:46.41	331.61	4.28	-53.4	-55.5	3.7	2.08e-04	0	50	104	30744248320	77	19353
2026-01-29 20:30:47.41	331.74	4.22	-53.5	-55.6	3.7	2.08e-04	0	49	104	30744248320	77	19590
2026-01-29 20:30:48.42	331.86	4.17	-53.5	-55.6	3.7	2.08e-04	0	50	104	30744248320	77	19659
2026-01-29 20:30:49.42	331.99	4.11	-53.6	-55.7	3.7	2.08e-04	0	49	104	30744248320	77	19800
2026-01-29 20:30:50.43	332.12	4.05	-53.6	-55.8	3.7	2.08e-04	0	49	104	30744248320	77	19949
2026-01-29 20:30:51.44	332.25	3.99	-53.7	-55.8	3.7	2.08e-04	0	49	104	30744248320	77	20023
2026-01-29 20:30:52.45	332.37	3.93	-53.7	-55.8	3.7	2.08e-04	0	49	104	30744248320	77	20068
2026-01-29 20:30:53.45	332.50	3.87	-53.7	-55.8	3.7	2.08e-04	0	49	104	30744248320	77	20137
2026-01-29 20:30:54.46	332.62	3.81	-53.7	-55.8	3.7	2.08e-04	0	49	104	30744248320	77	20152
2026-01-29 20:30:55.46	332.74	3.75	-53.7	-55.8	3.7	2.08e-04	0	49	104	30744248320	77	20109
2026-01-29 20:30:56.47	332.87	3.69	-53.7	-55.8	3.7	2.08e-04	0	49	104	30744248320	77	20026
2026-01-29 20:30:57.48	332.99	3.63	-53.6	-55.7	3.7	2.08e-04	0	49	104	30744248320	77	19921
2026-01-29 20:30:58.49	333.11	3.57	-53.6	-55.7	3.7	2.08e-04	0	49	104	30744248320	77	19851
2026-01-29 20:30:59.49	333.23	3.51	-53.6	-55.7	3.7	2.08e-04	0	49	104	30744248320	77	19833
2026-01-29 20:31:00.50	333.35	3.45	-53.5	-55.7	3.7	2.08e-04	0	49	104	30744248320	77	19785
2026-01-29 20:31:01.50	333.47	3.40	-53.5	-55.7	3.7	2.08e-04	0	49	104	30744248320	77	19782
2026-01-29 20:31:02.51	333.59	3.34	-53.5	-55.7	3.7	2.08e-04	0	49	104	30744248320	77	19730
2026-01-29 20:31:03.52	333.71	3.28	-53.5	-55.6	3.7	2.08e-04	0	49	104	30744248320	77	19671
2026-01-29 20:31:04.53	333.83	3.22	-53.5	-55.6	3.7	2.08e-04	0	49	104	30744248320	77	19659
2026-01-29 20:31:05.53	333.95	3.16	-53.5	-55.6	3.7	2.08e-04	0	49	104	30744248320	77	19589
2026-01-29 20:31:06.54	334.07	3.10	-53.5	-55.6	3.7	2.08e-04	0	49	104	30744248320	77	19525
2026-01-29 20:31:07.55	334.18	3.05	-53.5	-55.6	3.7	2.08e-04	0	49	104	30744248320	77	19531
2026-01-29 20:31:08.56	334.30	2.99	-53.5	-55.6	3.7	2.08e-04	0	49	104	30744248320	77	19559
2026-01-29 20:31:09.56	334.41	2.93	-53.4	-55.6	3.7	2.08e-04	0	49	104	30744248320	77	19527
2026-01-29 20:31:10.57	334.53	2.87	-53.4	-55.5	3.7	2.08e-04	0	49	104	30744248320	77	19433
2026-01-29 20:31:11.58	334.64	2.81	-53.4	-55.5	3.7	2.08e-04	0	49	104	30744248320	77	19404
2026-01-29 20:31:12.59	334.76	2.76	-53.4	-55.5	3.7	2.08e-04	0	49	104	30744248320	77	19332
2026-01-29 20:31:13.59	334.87	2.70	-53.4	-55.5	3.7	2.08e-04	0	49	104	30744248320	77	19356
2026-01-29 20:31:14.60	334.99	2.64	-53.4	-55.5	3.7	2.08e-04	0	49	104	30744248320	77	19340
2026-01-29 20:31:15.61	335.10	2.58	-53.4	-55.5	3.7	2.08e-04	0	49	104	30744248320	77	19302
2026-01-29 20:31:16.61	335.21	2.53	-53.3	-55.5	3.7	2.08e-04	0	49	104	30744248320	77	19308
2026-01-29 20:31:17.62	335.32	2.47	-53.3	-55.5	3.7	2.08e-04	0	49	104	30744248320	77	19277
2026-01-29 20:31:18.63	335.43	2.41	-53.3	-55.5	3.7	2.08e-04	0	49	104	30744248320	77	19270
2026-01-29 20:31:19.63	335.54	2.35	-53.3	-55.5	3.7	2.08e-04	0	49	104	30744248320	77	19271
2026-01-29 20:31:20.64	335.65	2.30	-53.3	-55.4	3.7	2.08e-04	0	49	104	30744248320	77	19233
2026-01-29 20:31:21.65	335.76	2.24	-53.3	-55.4	3.7	2.08e-04	0	49	104	30744248320	77	19221
2026-01-29 20:31:22.66	335.87	2.18	-53.3	-55.4	3.7	2.08e-04	0	49	104	30744248320	77	19183
2026-01-29 20:31:23.66	335.98	2.13	-53.3	-55.5	3.7	2.08e-04	0	49	104	30744248320	77	19258
2026-01-29 20:31:24.67	336.09	2.07	-53.3	-55.4	3.7	2.08e-04	0	49	104	30744248320	77	19207
2026-01-29 20:31:25.68	336.19	2.01	-53.3	-55.4	3.7	2.08e-04	0	49	104	30744248320	77	19201
2026-01-29 20:31:26.69	336.30	1.95	-53.3	-55.4	3.7	2.08e-04	0	49	104	30744248320	77	19129
2026-01-29 20:31:27.69	336.41	1.90	-53.3	-55.4	3.7	2.08e-04	0	49	104	30744248320	77	19163

#Closed at: 2026-01-29 20:31:28
#Recorded file [30744 MB]: D:/lorett/data/31041_260129_232227.dat