passes_logs/2026/01/29/R3.2S_Murmansk/R3.2S_Murmansk__20260129_032921_SUOMI_NPP_rec.log

#Pass ID: 20260129_032921_SUOMI NPP
#Satellite: SUOMI NPP
#Configuration: NPP
#almurnet v.1.7.20251203
#Start time: 2026-01-29 03:29:22

#Version: 2.2.20231116
#Station: R3.2S_Murmansk
#Location: 33.079688 lon 68.888172 lat
#TLE: 1 37849U 11061A   26027.93236865  .00000148  00000+0  91411-4 0  9991
#TLE: 2 37849  98.7823 329.8704 0002085  41.3231 318.8102 14.19530777738546

#Time	Az	El	Level	Level2	SNR	BER	BlckErr	Temp	State	Recorded	gain1	gain2
2026-01-29 03:29:22.48	41.17	2.05	-54.0	-69.0	3.8	1.49e+00	0	40	0	0	79	20367
2026-01-29 03:29:23.49	41.12	2.11	-54.2	-69.2	3.8	1.49e+00	0	40	104	0	78	22203
2026-01-29 03:29:24.50	41.06	2.17	-54.2	-69.2	3.8	1.49e+00	0	40	104	0	78	22171
2026-01-29 03:29:25.51	41.01	2.23	-54.2	-69.3	3.8	1.49e+00	0	40	104	0	79	21079
2026-01-29 03:29:26.52	40.96	2.29	-54.2	-69.2	3.8	1.49e+00	0	40	104	0	79	20870
2026-01-29 03:29:27.53	40.90	2.35	-54.1	-69.1	3.8	1.49e+00	0	40	104	0	79	20715
2026-01-29 03:29:28.54	40.85	2.41	-54.1	-69.1	3.8	1.49e+00	0	40	104	0	79	20640
2026-01-29 03:29:29.55	40.79	2.47	-54.1	-69.1	3.8	1.49e+00	0	40	104	0	79	20598
2026-01-29 03:29:30.55	40.74	2.53	-54.0	-69.0	3.8	1.49e+00	0	40	104	0	79	20452
2026-01-29 03:29:31.56	40.68	2.59	-54.0	-69.0	3.8	1.49e+00	0	40	104	0	79	20422
2026-01-29 03:29:32.57	40.63	2.65	-54.0	-69.1	3.8	1.49e+00	0	40	104	0	79	20559
2026-01-29 03:29:33.58	40.57	2.71	-54.0	-69.0	3.8	1.49e+00	0	40	104	0	79	20482
2026-01-29 03:29:34.59	40.52	2.77	-54.0	-69.0	3.8	1.49e+00	0	40	104	0	79	20400
2026-01-29 03:29:35.59	40.46	2.83	-53.9	-68.9	3.8	1.49e+00	0	40	104	0	79	20172
2026-01-29 03:29:36.61	40.41	2.89	-53.8	-68.8	3.8	1.49e+00	0	40	104	0	79	20004
2026-01-29 03:29:37.61	40.35	2.95	-53.7	-68.7	3.8	1.49e+00	0	40	104	0	79	19762
2026-01-29 03:29:38.63	40.29	3.02	-53.6	-68.5	3.8	1.49e+00	0	40	104	0	79	19370
2026-01-29 03:29:39.64	40.24	3.08	-53.4	-68.4	3.8	1.49e+00	0	40	104	0	78	20253
2026-01-29 03:29:40.65	40.18	3.14	-53.3	-68.3	3.8	1.49e+00	0	40	104	0	78	19852
2026-01-29 03:29:41.65	40.12	3.20	-53.1	-68.0	3.8	1.49e+00	0	40	104	0	78	19265
2026-01-29 03:29:42.66	40.06	3.26	-52.8	-67.7	3.8	1.49e+00	0	40	104	0	77	19762
2026-01-29 03:29:43.67	40.01	3.32	-52.3	-67.3	3.8	1.49e+00	0	40	104	0	76	19923
2026-01-29 03:29:44.68	39.95	3.39	-51.9	-66.8	3.8	1.49e+00	0	40	104	0	75	20051
2026-01-29 03:29:45.68	39.89	3.45	-51.9	-66.8	3.8	1.49e+00	0	40	104	0	75	20052
2026-01-29 03:29:46.69	39.83	3.51	-51.9	-66.8	3.8	1.49e+00	0	41	104	0	75	20022
2026-01-29 03:29:47.70	39.77	3.57	-51.9	-66.8	3.8	1.49e+00	0	40	104	0	75	20018
2026-01-29 03:29:48.71	39.71	3.63	-51.9	-66.8	3.8	1.49e+00	0	40	104	0	75	19880
2026-01-29 03:29:49.72	39.65	3.70	-51.9	-66.8	3.8	1.49e+00	0	41	104	0	75	19858
2026-01-29 03:29:50.73	39.59	3.76	-51.8	-66.7	3.8	1.49e+00	0	41	104	0	75	19763
2026-01-29 03:29:51.73	39.53	3.82	-51.8	-66.7	3.8	1.49e+00	0	40	104	0	75	19760
2026-01-29 03:29:52.74	39.47	3.88	-51.8	-66.7	3.8	1.49e+00	0	41	104	0	75	19833
2026-01-29 03:29:53.75	39.41	3.95	-51.8	-66.8	3.8	1.49e+00	0	41	104	0	75	19863
2026-01-29 03:29:54.75	39.35	4.01	-51.8	-66.7	3.8	1.49e+00	0	41	104	0	75	19660
2026-01-29 03:29:55.76	39.29	4.07	-51.8	-66.4	3.8	1.49e+00	0	41	104	0	75	18971
2026-01-29 03:29:56.77	39.23	4.14	-51.8	-65.8	3.8	1.49e+00	0	41	104	0	75	17801
2026-01-29 03:29:57.78	39.17	4.20	-51.7	-65.0	3.8	1.49e+00	0	41	104	0	75	16226
2026-01-29 03:29:58.79	39.11	4.26	-51.7	-63.9	4.0	1.49e+00	0	41	104	0	75	14363
2026-01-29 03:29:59.80	39.04	4.33	-51.6	-63.0	4.3	1.38e+00	0	41	0	0	75	12918
2026-01-29 03:30:00.81	38.98	4.39	-51.6	-62.4	4.4	1.18e+00	85	41	0	1048576	75	12082
2026-01-29 03:30:01.81	38.92	4.45	-51.5	-61.9	4.6	9.95e-01	0	41	0	3145728	75	11354
2026-01-29 03:30:02.82	38.85	4.52	-51.5	-61.7	4.7	9.43e-01	0	41	0	4194304	75	11070
2026-01-29 03:30:03.83	38.79	4.58	-51.5	-62.1	4.6	8.61e-01	0	41	0	6291456	74	12355
2026-01-29 03:30:04.84	38.73	4.64	-51.6	-62.7	4.4	1.14e+00	160	41	0	8388608	74	13146
2026-01-29 03:30:05.85	38.66	4.71	-51.6	-62.9	4.2	1.33e+00	0	41	0	9437184	74	13557
2026-01-29 03:30:06.85	38.60	4.77	-51.7	-64.1	3.9	1.44e+00	0	41	104	9437184	74	15479
2026-01-29 03:30:07.86	38.53	4.84	-51.7	-64.8	3.8	1.48e+00	0	41	104	9437184	74	16696
2026-01-29 03:30:08.87	38.47	4.90	-51.7	-65.0	3.8	1.49e+00	0	41	104	9437184	74	17236
2026-01-29 03:30:09.88	38.40	4.97	-51.7	-64.3	3.8	1.49e+00	0	41	104	9437184	74	15886
2026-01-29 03:30:10.88	38.34	5.03	-51.6	-63.6	4.1	1.47e+00	0	41	0	9437184	74	14631
2026-01-29 03:30:11.89	38.27	5.10	-51.6	-61.4	5.0	1.40e+00	0	41	0	9437184	74	11323
2026-01-29 03:30:12.90	38.21	5.16	-50.0	-54.5	11.0	8.07e-02	0	41	0	11534336	71	6119
2026-01-29 03:30:13.91	38.14	5.23	-51.7	-65.4	3.8	1.06e+00	0	41	104	12582912	74	17949
2026-01-29 03:30:14.92	38.07	5.29	-51.5	-60.7	4.4	1.47e+00	13	41	104	12582912	74	10433
2026-01-29 03:30:15.93	38.01	5.36	-49.0	-52.5	13.1	1.91e-01	0	41	0	13631488	70	5147
2026-01-29 03:30:16.93	37.94	5.42	-48.9	-52.3	13.4	1.29e-05	0	41	0	14680064	69	5306
2026-01-29 03:30:17.94	37.87	5.49	-49.1	-52.9	12.8	2.89e-05	0	41	0	16777216	69	5674
2026-01-29 03:30:18.95	37.80	5.55	-48.2	-51.1	14.6	6.10e-06	0	41	0	18874368	68	4923
2026-01-29 03:30:19.95	37.73	5.62	-48.2	-51.1	14.6	0.00e+00	0	41	0	20971520	68	4897
2026-01-29 03:30:20.96	37.67	5.69	-47.7	-50.4	15.3	0.00e+00	0	41	0	23068672	67	4779
2026-01-29 03:30:21.96	37.60	5.75	-47.9	-50.7	15.0	0.00e+00	0	41	0	24117248	67	4947
2026-01-29 03:30:22.97	37.53	5.82	-47.4	-49.8	15.9	0.00e+00	0	41	0	26214400	66	4756
2026-01-29 03:30:23.98	37.46	5.88	-47.6	-50.2	15.5	0.00e+00	0	41	0	28311552	66	4960
2026-01-29 03:30:24.98	37.39	5.95	-47.2	-49.5	16.1	0.00e+00	0	41	0	30408704	66	4595
2026-01-29 03:30:25.99	37.32	6.02	-46.9	-49.1	16.6	0.00e+00	0	41	0	32505856	65	4651
2026-01-29 03:30:27.00	37.25	6.08	-47.4	-49.8	16.0	0.00e+00	0	41	0	33554432	65	5012
2026-01-29 03:30:28.00	37.18	6.15	-47.4	-49.8	15.9	0.00e+00	0	41	0	35651584	65	5028
2026-01-29 03:30:29.01	37.11	6.22	-47.1	-49.3	16.4	0.00e+00	0	41	0	37748736	65	4754
2026-01-29 03:30:30.02	37.03	6.29	-47.2	-49.6	16.2	0.00e+00	0	41	0	39845888	65	4899
2026-01-29 03:30:31.03	36.96	6.35	-47.2	-49.6	16.3	0.00e+00	0	41	0	41943040	65	4872
2026-01-29 03:30:32.03	36.89	6.42	-47.2	-49.5	16.4	0.00e+00	0	41	0	42991616	65	4840
2026-01-29 03:30:33.04	36.82	6.49	-47.1	-49.4	16.5	0.00e+00	0	41	0	45088768	65	4760
2026-01-29 03:30:34.05	36.74	6.56	-47.3	-49.6	16.2	0.00e+00	0	41	0	47185920	65	4921
2026-01-29 03:30:35.05	36.67	6.62	-47.2	-49.5	16.3	0.00e+00	0	41	0	49283072	65	4855
2026-01-29 03:30:36.07	36.60	6.69	-47.0	-49.3	16.6	0.00e+00	0	41	0	51380224	65	4712
2026-01-29 03:30:37.07	36.52	6.76	-46.8	-49.0	16.9	0.00e+00	0	41	0	52428800	65	4559
2026-01-29 03:30:38.08	36.45	6.83	-47.0	-49.3	16.6	0.00e+00	0	41	0	54525952	65	4725
2026-01-29 03:30:39.09	36.37	6.90	-47.1	-49.4	16.5	0.00e+00	0	41	0	56623104	65	4788
2026-01-29 03:30:40.10	36.30	6.96	-47.2	-49.5	16.4	0.00e+00	0	41	0	58720256	65	4844
2026-01-29 03:30:41.10	36.22	7.03	-47.3	-49.7	16.2	0.00e+00	0	41	0	60817408	65	4949
2026-01-29 03:30:42.11	36.14	7.10	-47.3	-49.6	16.3	0.00e+00	0	41	0	61865984	65	4913
2026-01-29 03:30:43.12	36.07	7.17	-47.3	-49.7	16.2	0.00e+00	0	41	0	63963136	65	4961
2026-01-29 03:30:44.13	35.99	7.24	-47.2	-49.5	16.4	0.00e+00	0	42	0	66060288	65	4852
2026-01-29 03:30:45.13	35.91	7.31	-47.4	-49.8	16.1	0.00e+00	0	41	0	68157440	65	5035
2026-01-29 03:30:46.14	35.84	7.38	-47.6	-50.1	15.9	0.00e+00	0	41	0	70254592	65	5177
2026-01-29 03:30:47.15	35.76	7.45	-47.6	-50.1	15.9	0.00e+00	0	41	0	71303168	65	5176
2026-01-29 03:30:48.15	35.68	7.52	-47.4	-49.8	16.2	0.00e+00	0	41	0	73400320	65	4996
2026-01-29 03:30:49.16	35.60	7.59	-47.4	-49.8	16.2	0.00e+00	0	41	0	75497472	66	4713
2026-01-29 03:30:50.17	35.52	7.66	-47.4	-49.8	16.2	0.00e+00	0	41	0	77594624	66	4717
2026-01-29 03:30:51.17	35.44	7.73	-47.4	-49.8	16.2	0.00e+00	0	41	0	79691776	66	4758
2026-01-29 03:30:52.18	35.36	7.80	-47.3	-49.6	16.4	0.00e+00	0	41	0	80740352	66	4638
2026-01-29 03:30:53.18	35.28	7.87	-47.3	-49.6	16.4	0.00e+00	0	42	0	82837504	66	4619
2026-01-29 03:30:54.19	35.20	7.94	-47.2	-49.4	16.6	0.00e+00	0	42	0	84934656	66	4524
2026-01-29 03:30:55.19	35.12	8.01	-47.2	-49.4	16.6	0.00e+00	0	42	0	87031808	66	4523
2026-01-29 03:30:56.20	35.04	8.08	-47.2	-49.4	16.6	0.00e+00	0	42	0	89128960	66	4523
2026-01-29 03:30:57.21	34.96	8.15	-47.1	-49.3	16.7	0.00e+00	0	41	0	90177536	66	4473
2026-01-29 03:30:58.22	34.88	8.22	-47.2	-49.5	16.6	0.00e+00	0	41	0	92274688	66	4556
2026-01-29 03:30:59.23	34.79	8.29	-47.5	-49.9	16.2	0.00e+00	0	42	0	94371840	66	4789
2026-01-29 03:31:00.23	34.71	8.36	-47.1	-49.3	16.8	0.00e+00	0	41	0	96468992	66	4469
2026-01-29 03:31:01.23	34.63	8.43	-47.1	-49.3	16.8	0.00e+00	0	41	0	98566144	66	4469
2026-01-29 03:31:02.25	34.54	8.50	-47.0	-49.2	16.9	0.00e+00	0	41	0	99614720	66	4412
2026-01-29 03:31:03.25	34.46	8.58	-47.1	-49.3	16.8	0.00e+00	0	41	0	101711872	66	4457
2026-01-29 03:31:04.26	34.37	8.65	-47.3	-49.5	16.7	0.00e+00	0	41	0	103809024	66	4548
2026-01-29 03:31:05.26	34.29	8.72	-47.2	-49.4	16.6	0.00e+00	0	41	0	105906176	66	4544
2026-01-29 03:31:06.27	34.20	8.79	-47.1	-49.3	16.9	0.00e+00	0	41	0	108003328	66	4456
2026-01-29 03:31:07.28	34.12	8.86	-47.0	-49.1	17.0	0.00e+00	0	41	0	109051904	65	4627
2026-01-29 03:31:08.28	34.03	8.93	-46.7	-48.7	17.4	0.00e+00	0	41	0	111149056	65	4409
2026-01-29 03:31:09.29	33.94	9.01	-46.6	-48.6	17.5	0.00e+00	0	41	0	113246208	65	4371
2026-01-29 03:31:10.30	33.85	9.08	-46.7	-48.7	17.4	0.00e+00	0	41	0	115343360	65	4403
2026-01-29 03:31:11.30	33.77	9.15	-46.8	-48.8	17.3	0.00e+00	0	41	0	117440512	65	4474
2026-01-29 03:31:12.31	33.68	9.23	-46.8	-48.9	17.2	0.00e+00	0	41	0	119537664	65	4514
2026-01-29 03:31:13.32	33.59	9.30	-46.6	-48.5	17.6	0.00e+00	0	41	0	120586240	65	4308
2026-01-29 03:31:14.33	33.50	9.37	-46.5	-48.4	17.6	0.00e+00	0	41	0	122683392	65	4283
2026-01-29 03:31:15.33	33.41	9.45	-46.6	-48.5	17.6	0.00e+00	0	41	0	124780544	64	4589
2026-01-29 03:31:16.34	33.32	9.52	-46.4	-48.3	17.8	0.00e+00	0	41	0	126877696	64	4475
2026-01-29 03:31:17.34	33.23	9.59	-46.5	-48.4	17.7	0.00e+00	0	41	0	127926272	64	4510
2026-01-29 03:31:18.35	33.14	9.67	-46.6	-48.6	17.5	0.00e+00	0	41	0	130023424	64	4623
2026-01-29 03:31:19.37	33.04	9.74	-46.5	-48.4	17.7	0.00e+00	0	41	0	132120576	64	4511
2026-01-29 03:31:20.38	32.95	9.82	-46.6	-48.6	17.6	0.00e+00	0	41	0	134217728	64	4618
2026-01-29 03:31:21.38	32.86	9.89	-46.7	-48.7	17.5	0.00e+00	0	41	0	136314880	64	4676
2026-01-29 03:31:22.39	32.77	9.96	-46.7	-48.7	17.5	0.00e+00	0	41	0	138412032	64	4659
2026-01-29 03:31:23.40	32.67	10.04	-46.8	-48.8	17.4	0.00e+00	0	41	0	139460608	64	4722
2026-01-29 03:31:24.40	32.58	10.11	-46.8	-48.8	17.4	0.00e+00	0	42	0	141557760	64	4738
2026-01-29 03:31:25.41	32.48	10.19	-46.7	-48.6	17.6	0.00e+00	0	42	0	143654912	64	4636
2026-01-29 03:31:26.42	32.39	10.26	-46.7	-48.7	17.5	0.00e+00	0	42	0	145752064	64	4672
2026-01-29 03:31:27.42	32.29	10.34	-46.6	-48.5	17.7	0.00e+00	0	42	0	147849216	64	4577
2026-01-29 03:31:28.42	32.20	10.41	-46.5	-48.5	17.7	0.00e+00	0	42	0	148897792	64	4550
2026-01-29 03:31:29.43	32.10	10.49	-46.5	-48.4	17.8	0.00e+00	0	42	0	150994944	64	4521
2026-01-29 03:31:30.44	32.00	10.56	-46.6	-48.6	17.7	0.00e+00	0	41	0	153092096	64	4621
2026-01-29 03:31:31.45	31.90	10.64	-46.6	-48.5	17.8	0.00e+00	0	42	0	155189248	64	4562
2026-01-29 03:31:32.45	31.81	10.71	-46.5	-48.4	17.9	0.00e+00	0	42	0	156237824	64	4495
2026-01-29 03:31:33.46	31.71	10.79	-46.6	-48.5	17.7	0.00e+00	0	42	0	158334976	64	4598
2026-01-29 03:31:34.47	31.61	10.87	-46.8	-48.7	17.5	0.00e+00	0	42	0	160432128	64	4697
2026-01-29 03:31:35.48	31.51	10.94	-46.5	-48.4	17.8	0.00e+00	0	41	0	162529280	64	4515
2026-01-29 03:31:36.48	31.41	11.02	-46.4	-48.2	18.0	0.00e+00	0	42	0	164626432	64	4406
2026-01-29 03:31:37.49	31.31	11.10	-46.4	-48.2	18.0	0.00e+00	0	42	0	166723584	64	4420
2026-01-29 03:31:38.49	31.21	11.17	-46.3	-48.1	18.1	0.00e+00	0	42	0	167772160	64	4383
2026-01-29 03:31:39.50	31.10	11.25	-46.4	-48.3	18.0	0.00e+00	0	42	0	169869312	64	4447
2026-01-29 03:31:40.51	31.00	11.33	-46.4	-48.3	18.0	0.00e+00	0	42	0	171966464	64	4454
2026-01-29 03:31:41.52	30.90	11.40	-46.4	-48.1	18.1	0.00e+00	0	42	0	174063616	64	4386
2026-01-29 03:31:42.53	30.79	11.48	-46.1	-47.9	18.3	0.00e+00	0	42	0	176160768	64	4250
2026-01-29 03:31:43.53	30.69	11.56	-46.3	-48.0	18.2	0.00e+00	0	42	0	177209344	64	4325
2026-01-29 03:31:44.54	30.58	11.64	-46.2	-47.9	18.3	0.00e+00	0	42	0	179306496	64	4266
2026-01-29 03:31:45.54	30.48	11.71	-46.2	-48.0	18.2	0.00e+00	0	42	0	181403648	64	4308
2026-01-29 03:31:46.55	30.37	11.79	-46.4	-48.2	18.1	0.00e+00	0	42	0	183500800	64	4417
2026-01-29 03:31:47.55	30.27	11.87	-46.5	-48.3	18.0	0.00e+00	0	42	0	184549376	64	4482
2026-01-29 03:31:48.56	30.16	11.95	-46.6	-48.5	17.8	0.00e+00	0	42	0	186646528	64	4553
2026-01-29 03:31:49.57	30.05	12.03	-46.6	-48.5	17.7	0.00e+00	0	42	0	188743680	64	4574
2026-01-29 03:31:50.58	29.94	12.10	-46.8	-48.7	17.6	0.00e+00	0	42	0	190840832	64	4668
2026-01-29 03:31:51.59	29.83	12.18	-46.9	-48.9	17.4	0.00e+00	0	42	0	192937984	64	4784
2026-01-29 03:31:52.60	29.72	12.26	-46.7	-48.6	17.7	0.00e+00	0	42	0	195035136	64	4599
2026-01-29 03:31:53.60	29.61	12.34	-46.8	-48.8	17.5	0.00e+00	0	42	0	196083712	64	4730
2026-01-29 03:31:54.61	29.50	12.42	-46.6	-48.4	17.8	0.00e+00	0	42	0	198180864	64	4530
2026-01-29 03:31:55.62	29.39	12.50	-46.7	-48.6	17.6	0.00e+00	0	42	0	200278016	64	4651
2026-01-29 03:31:56.63	29.28	12.58	-46.8	-48.7	17.6	0.00e+00	0	42	0	202375168	64	4691
2026-01-29 03:31:57.63	29.17	12.66	-46.9	-48.9	17.5	0.00e+00	0	42	0	204472320	64	4782
2026-01-29 03:31:58.64	29.05	12.74	-47.0	-49.0	17.3	0.00e+00	0	42	0	205520896	64	4865
2026-01-29 03:31:59.64	28.94	12.82	-47.0	-49.0	17.3	0.00e+00	0	42	0	207618048	64	4864
2026-01-29 03:32:00.65	28.82	12.90	-46.6	-48.5	17.8	0.00e+00	0	42	0	209715200	64	4550
2026-01-29 03:32:01.66	28.71	12.98	-46.9	-48.9	17.5	0.00e+00	0	42	0	211812352	64	4765
2026-01-29 03:32:02.67	28.59	13.06	-46.9	-48.9	17.5	0.00e+00	0	42	0	212860928	64	4775
2026-01-29 03:32:03.68	28.47	13.14	-46.8	-48.8	17.5	0.00e+00	0	42	0	214958080	64	4746
2026-01-29 03:32:04.68	28.36	13.22	-46.6	-48.5	17.8	0.00e+00	0	42	0	217055232	64	4574
2026-01-29 03:32:05.69	28.24	13.30	-46.5	-48.3	17.9	0.00e+00	0	42	0	219152384	64	4469
2026-01-29 03:32:06.70	28.12	13.38	-46.4	-48.2	18.1	0.00e+00	0	42	0	221249536	64	4435
2026-01-29 03:32:07.71	28.00	13.46	-46.5	-48.3	18.0	0.00e+00	0	42	0	223346688	64	4493
2026-01-29 03:32:08.71	27.88	13.54	-46.6	-48.5	17.9	0.00e+00	0	42	0	224395264	64	4569
2026-01-29 03:32:09.72	27.76	13.63	-46.6	-48.5	17.8	0.00e+00	0	42	0	226492416	64	4585
2026-01-29 03:32:10.73	27.64	13.71	-46.4	-48.2	18.1	0.00e+00	0	42	0	228589568	64	4435
2026-01-29 03:32:11.74	27.52	13.79	-46.3	-48.0	18.3	0.00e+00	0	42	0	230686720	64	4340
2026-01-29 03:32:12.74	27.40	13.87	-46.1	-47.8	18.5	0.00e+00	0	42	0	232783872	64	4223
2026-01-29 03:32:13.74	27.27	13.95	-46.0	-47.7	18.6	0.00e+00	0	42	0	233832448	64	4153
2026-01-29 03:32:14.75	27.15	14.03	-46.2	-47.8	18.6	0.00e+00	0	42	0	235929600	63	4484
2026-01-29 03:32:15.75	27.02	14.11	-46.1	-47.8	18.7	0.00e+00	0	42	0	238026752	63	4449
2026-01-29 03:32:16.76	26.90	14.20	-45.9	-47.5	18.9	0.00e+00	0	42	0	240123904	63	4329
2026-01-29 03:32:17.77	26.77	14.28	-46.0	-47.6	18.9	0.00e+00	0	42	0	241172480	63	4341
2026-01-29 03:32:18.77	26.65	14.36	-46.0	-47.6	18.8	0.00e+00	0	42	0	243269632	63	4389
2026-01-29 03:32:19.77	26.52	14.44	-46.0	-47.7	18.8	0.00e+00	0	42	0	245366784	63	4399
2026-01-29 03:32:20.78	26.39	14.53	-46.1	-47.7	18.7	0.00e+00	0	42	0	247463936	63	4434
2026-01-29 03:32:21.79	26.26	14.61	-45.8	-47.3	19.1	0.00e+00	0	42	0	249561088	63	4237
2026-01-29 03:32:22.79	26.13	14.69	-46.2	-47.8	18.7	0.00e+00	0	42	0	251658240	63	4484
2026-01-29 03:32:23.80	26.00	14.78	-46.5	-48.2	18.3	0.00e+00	0	42	0	252706816	63	4681
2026-01-29 03:32:24.81	25.87	14.86	-46.3	-48.0	18.5	0.00e+00	0	42	0	254803968	63	4556
2026-01-29 03:32:25.81	25.74	14.94	-46.5	-48.2	18.3	0.00e+00	0	42	0	256901120	63	4690
2026-01-29 03:32:26.82	25.61	15.03	-46.7	-48.6	18.0	0.00e+00	0	42	0	258998272	63	4880
2026-01-29 03:32:27.83	25.47	15.11	-46.5	-48.4	18.1	0.00e+00	0	42	0	261095424	64	4496
2026-01-29 03:32:28.84	25.34	15.19	-46.5	-48.3	18.2	0.00e+00	0	42	0	262144000	64	4447
2026-01-29 03:32:29.84	25.20	15.28	-46.1	-47.8	18.6	0.00e+00	0	42	0	264241152	64	4197
2026-01-29 03:32:30.85	25.07	15.36	-46.4	-48.1	18.3	0.00e+00	0	42	0	266338304	64	4369
2026-01-29 03:32:31.85	24.93	15.45	-46.5	-48.4	18.1	0.00e+00	0	42	0	268435456	64	4496
2026-01-29 03:32:32.86	24.79	15.53	-46.5	-48.3	18.1	0.00e+00	0	42	0	269484032	64	4478
2026-01-29 03:32:33.87	24.65	15.62	-46.6	-48.5	18.0	0.00e+00	0	42	0	271581184	64	4560
2026-01-29 03:32:34.88	24.51	15.70	-46.6	-48.4	17.9	0.00e+00	0	42	0	273678336	64	4545
2026-01-29 03:32:35.88	24.37	15.78	-46.4	-48.2	18.3	0.00e+00	0	42	0	275775488	64	4402
2026-01-29 03:32:36.89	24.23	15.87	-46.5	-48.3	18.1	0.00e+00	0	42	0	277872640	64	4487
2026-01-29 03:32:37.90	24.09	15.95	-46.1	-47.8	18.6	0.00e+00	0	42	0	279969792	64	4224
2026-01-29 03:32:38.91	23.95	16.04	-46.5	-48.3	18.1	0.00e+00	0	42	0	281018368	64	4491
2026-01-29 03:32:39.91	23.81	16.12	-46.5	-48.2	18.2	0.00e+00	0	42	0	283115520	64	4433
2026-01-29 03:32:40.92	23.66	16.21	-46.5	-48.3	18.2	0.00e+00	0	42	0	285212672	64	4473
2026-01-29 03:32:41.93	23.52	16.30	-46.5	-48.3	18.1	0.00e+00	0	42	0	287309824	64	4487
2026-01-29 03:32:42.93	23.37	16.38	-46.3	-48.0	18.4	0.00e+00	0	42	0	289406976	64	4328
2026-01-29 03:32:43.94	23.23	16.47	-46.3	-48.0	18.5	0.00e+00	0	42	0	290455552	63	4571
2026-01-29 03:32:44.94	23.08	16.55	-46.4	-48.1	18.4	0.00e+00	0	42	0	292552704	63	4623
2026-01-29 03:32:45.95	22.93	16.64	-45.9	-47.4	19.1	0.00e+00	0	42	0	294649856	63	4286
2026-01-29 03:32:46.96	22.78	16.72	-46.1	-47.7	18.9	0.00e+00	0	42	0	296747008	63	4408
2026-01-29 03:32:47.96	22.63	16.81	-45.9	-47.4	19.1	0.00e+00	0	42	0	297795584	63	4284
2026-01-29 03:32:48.97	22.48	16.90	-45.9	-47.5	19.0	0.00e+00	0	42	0	299892736	63	4333
2026-01-29 03:32:49.98	22.33	16.98	-45.7	-47.2	19.3	0.00e+00	0	41	0	301989888	63	4174
2026-01-29 03:32:50.99	22.17	17.07	-45.5	-47.0	19.3	0.00e+00	0	42	0	304087040	63	4087
2026-01-29 03:32:52.00	22.02	17.16	-45.4	-46.9	19.6	0.00e+00	0	42	0	306184192	62	4269
2026-01-29 03:32:53.00	21.87	17.24	-45.5	-46.9	19.6	0.00e+00	0	42	0	308281344	62	4286
2026-01-29 03:32:54.01	21.71	17.33	-45.3	-46.7	19.8	0.00e+00	0	42	0	309329920	62	4182
2026-01-29 03:32:55.02	21.55	17.42	-45.4	-46.9	19.6	0.00e+00	0	42	0	311427072	62	4251
2026-01-29 03:32:56.03	21.40	17.50	-45.5	-47.0	19.5	0.00e+00	0	42	0	313524224	62	4309
2026-01-29 03:32:57.04	21.24	17.59	-45.6	-47.1	19.5	0.00e+00	0	42	0	315621376	62	4341
2026-01-29 03:32:58.04	21.08	17.68	-45.5	-47.0	19.5	0.00e+00	0	42	0	317718528	62	4326
2026-01-29 03:32:59.05	20.92	17.76	-45.7	-47.1	19.4	0.00e+00	0	42	0	318767104	62	4388
2026-01-29 03:33:00.06	20.76	17.85	-45.7	-47.2	19.4	0.00e+00	0	42	0	320864256	62	4407
2026-01-29 03:33:01.06	20.60	17.94	-45.5	-47.0	19.5	0.00e+00	0	42	0	322961408	62	4317
2026-01-29 03:33:02.07	20.43	18.02	-45.6	-47.1	19.5	0.00e+00	0	42	0	325058560	62	4342
2026-01-29 03:33:03.08	20.27	18.11	-45.9	-47.4	19.2	0.00e+00	0	42	0	326107136	62	4536
2026-01-29 03:33:04.08	20.11	18.20	-45.9	-47.5	19.1	0.00e+00	0	42	0	328204288	62	4576
2026-01-29 03:33:05.09	19.94	18.29	-46.3	-48.0	18.7	0.00e+00	0	42	0	330301440	63	4547
2026-01-29 03:33:06.10	19.77	18.37	-46.4	-48.1	18.5	0.00e+00	0	42	0	332398592	63	4651
2026-01-29 03:33:07.11	19.60	18.46	-46.1	-47.8	18.8	0.00e+00	0	42	0	334495744	63	4468
2026-01-29 03:33:08.11	19.44	18.55	-46.2	-47.8	18.7	0.00e+00	0	42	0	336592896	63	4486
2026-01-29 03:33:09.13	19.27	18.64	-46.0	-47.7	18.9	0.00e+00	0	42	0	337641472	63	4394
2026-01-29 03:33:10.14	19.09	18.73	-46.1	-47.8	18.8	0.00e+00	0	42	0	339738624	63	4457
2026-01-29 03:33:11.14	18.92	18.81	-46.0	-47.6	19.0	0.00e+00	0	42	0	341835776	63	4383
2026-01-29 03:33:12.15	18.75	18.90	-46.1	-47.7	19.0	0.00e+00	0	42	0	343932928	63	4412
2026-01-29 03:33:13.16	18.58	18.99	-45.9	-47.4	19.2	0.00e+00	0	42	0	346030080	63	4268
2026-01-29 03:33:14.17	18.40	19.08	-45.7	-47.3	19.3	0.00e+00	0	42	0	347078656	63	4202
2026-01-29 03:33:15.18	18.22	19.16	-45.4	-46.8	19.7	0.00e+00	0	42	0	349175808	62	4209
2026-01-29 03:33:16.18	18.05	19.25	-45.3	-46.7	19.8	0.00e+00	0	42	0	351272960	62	4173
2026-01-29 03:33:17.19	17.87	19.34	-45.4	-46.9	19.7	0.00e+00	0	42	0	353370112	62	4243
2026-01-29 03:33:18.20	17.69	19.43	-45.2	-46.6	19.9	0.00e+00	0	42	0	355467264	62	4103
2026-01-29 03:33:19.21	17.51	19.52	-45.2	-46.6	19.9	0.00e+00	0	42	0	356515840	62	4129
2026-01-29 03:33:20.21	17.33	19.60	-45.4	-46.8	19.7	0.00e+00	0	42	0	358612992	62	4237
2026-01-29 03:33:21.22	17.15	19.69	-45.7	-47.2	19.5	0.00e+00	0	42	0	360710144	62	4410
2026-01-29 03:33:22.23	16.96	19.78	-45.8	-47.3	19.3	0.00e+00	0	42	0	362807296	62	4477
2026-01-29 03:33:23.24	16.78	19.87	-45.9	-47.4	19.2	0.00e+00	0	42	0	364904448	62	4539
2026-01-29 03:33:24.25	16.59	19.96	-46.0	-47.6	19.1	0.00e+00	0	42	0	365953024	62	4617
2026-01-29 03:33:25.25	16.41	20.04	-46.3	-48.0	18.8	0.00e+00	0	42	0	368050176	63	4546
2026-01-29 03:33:26.26	16.22	20.13	-46.4	-48.2	18.5	0.00e+00	0	42	0	370147328	63	4654
2026-01-29 03:33:27.27	16.03	20.22	-46.4	-48.0	18.7	0.00e+00	0	42	0	372244480	63	4597
2026-01-29 03:33:28.28	15.84	20.31	-46.4	-48.1	18.7	0.00e+00	0	42	0	374341632	63	4606
2026-01-29 03:33:29.28	15.65	20.39	-46.4	-48.0	18.7	0.00e+00	0	42	0	375390208	63	4590
2026-01-29 03:33:30.29	15.46	20.48	-46.3	-48.0	18.7	0.00e+00	0	42	0	377487360	63	4566
2026-01-29 03:33:31.30	15.27	20.57	-46.3	-48.0	18.8	0.00e+00	0	42	0	379584512	63	4548
2026-01-29 03:33:32.31	15.07	20.66	-46.3	-48.0	18.7	0.00e+00	0	42	0	381681664	63	4555
2026-01-29 03:33:33.31	14.88	20.75	-46.1	-47.7	19.0	0.00e+00	0	42	0	383778816	63	4430
2026-01-29 03:33:34.32	14.68	20.83	-45.9	-47.5	19.2	0.00e+00	0	42	0	384827392	63	4309
2026-01-29 03:33:35.33	14.48	20.92	-46.0	-47.6	19.1	0.00e+00	0	42	0	386924544	63	4378
2026-01-29 03:33:36.33	14.29	21.01	-45.8	-47.3	19.3	0.00e+00	0	42	0	389021696	63	4217
2026-01-29 03:33:37.34	14.09	21.10	-46.1	-47.8	18.9	0.00e+00	0	42	0	391118848	63	4458
2026-01-29 03:33:38.35	13.88	21.18	-46.4	-48.1	18.6	0.00e+00	0	42	0	393216000	63	4614
2026-01-29 03:33:39.35	13.68	21.27	-46.4	-48.1	18.7	0.00e+00	0	42	0	394264576	63	4605
2026-01-29 03:33:40.36	13.48	21.36	-46.5	-48.2	18.6	0.00e+00	0	42	0	396361728	63	4681
2026-01-29 03:33:41.36	13.28	21.44	-46.4	-48.1	18.7	0.00e+00	0	42	0	398458880	63	4605
2026-01-29 03:33:42.37	13.07	21.53	-46.3	-47.9	18.8	0.00e+00	0	42	0	400556032	63	4528
2026-01-29 03:33:43.38	12.86	21.62	-46.0	-47.5	19.2	0.00e+00	0	42	0	402653184	63	4334
2026-01-29 03:33:44.39	12.65	21.71	-45.9	-47.5	19.3	0.00e+00	0	42	0	403701760	63	4314
2026-01-29 03:33:45.39	12.45	21.79	-45.9	-47.5	19.3	0.00e+00	0	42	0	405798912	63	4310
2026-01-29 03:33:46.39	12.24	21.88	-45.7	-47.2	19.5	0.00e+00	0	42	0	407896064	63	4190
2026-01-29 03:33:47.39	12.03	21.96	-45.6	-47.0	19.7	0.00e+00	0	42	0	409993216	63	4078
2026-01-29 03:33:48.39	11.82	22.05	-45.4	-46.9	19.8	0.00e+00	0	42	0	412090368	62	4255
2026-01-29 03:33:49.40	11.60	22.14	-45.5	-46.9	19.8	0.00e+00	0	42	0	413138944	62	4288
2026-01-29 03:33:50.41	11.39	22.22	-45.7	-47.2	19.6	0.00e+00	0	42	0	415236096	62	4401
2026-01-29 03:33:51.41	11.17	22.31	-45.8	-47.3	19.4	0.00e+00	0	42	0	417333248	62	4486
2026-01-29 03:33:52.42	10.95	22.39	-46.3	-48.0	18.8	0.00e+00	0	42	0	419430400	63	4577
2026-01-29 03:33:53.43	10.74	22.48	-46.2	-47.8	19.0	0.00e+00	0	42	0	421527552	63	4466
2026-01-29 03:33:54.43	10.52	22.56	-46.2	-47.8	19.0	0.00e+00	0	42	0	422576128	63	4490
2026-01-29 03:33:55.43	10.30	22.65	-45.8	-47.3	19.5	0.00e+00	0	42	0	424673280	63	4225
2026-01-29 03:33:56.44	10.07	22.73	-45.8	-47.2	19.5	0.00e+00	0	42	0	426770432	63	4192
2026-01-29 03:33:57.44	9.85	22.82	-45.6	-47.1	19.7	0.00e+00	0	42	0	428867584	63	4128
2026-01-29 03:33:58.44	9.63	22.90	-45.3	-46.6	20.0	0.00e+00	0	42	0	430964736	62	4135
2026-01-29 03:33:59.45	9.40	22.99	-45.3	-46.7	20.0	0.00e+00	0	42	0	432013312	62	4191
2026-01-29 03:34:00.46	9.17	23.07	-45.1	-46.5	20.2	0.00e+00	0	42	0	434110464	62	4059
2026-01-29 03:34:01.47	8.95	23.16	-44.9	-46.2	20.5	0.00e+00	0	42	0	436207616	61	4170
2026-01-29 03:34:02.48	8.71	23.24	-44.4	-45.6	20.9	0.00e+00	0	42	0	438304768	60	4126
2026-01-29 03:34:03.49	8.48	23.32	-44.3	-45.4	21.1	0.00e+00	0	42	0	440401920	60	4048
2026-01-29 03:34:04.50	8.25	23.41	-44.1	-45.3	21.3	0.00e+00	0	42	0	441450496	60	3965
2026-01-29 03:34:05.50	8.02	23.49	-44.2	-45.3	21.2	0.00e+00	0	42	0	443547648	60	3996
2026-01-29 03:34:06.51	7.78	23.57	-44.6	-45.9	20.7	0.00e+00	0	42	0	445644800	60	4262
2026-01-29 03:34:07.52	7.55	23.66	-44.8	-46.1	20.5	0.00e+00	0	42	0	447741952	60	4376
2026-01-29 03:34:08.52	7.31	23.74	-45.1	-46.5	20.2	0.00e+00	0	42	0	449839104	60	4551
2026-01-29 03:34:09.53	7.07	23.82	-45.2	-46.6	20.1	0.00e+00	0	42	0	450887680	61	4364
2026-01-29 03:34:10.54	6.83	23.90	-44.9	-46.3	20.3	0.00e+00	0	42	0	452984832	61	4225
2026-01-29 03:34:11.55	6.59	23.98	-44.8	-46.2	20.4	0.00e+00	0	42	0	455081984	61	4149
2026-01-29 03:34:12.56	6.35	24.06	-44.8	-46.2	20.5	0.00e+00	0	42	0	457179136	61	4160
2026-01-29 03:34:13.56	6.10	24.14	-44.9	-46.2	20.4	0.00e+00	0	42	0	459276288	61	4192
2026-01-29 03:34:14.57	5.86	24.23	-45.0	-46.4	20.3	0.00e+00	0	42	0	460324864	61	4255
2026-01-29 03:34:15.57	5.61	24.31	-45.0	-46.3	20.3	0.00e+00	0	42	0	462422016	61	4239
2026-01-29 03:34:16.58	5.37	24.39	-44.7	-46.0	20.6	0.00e+00	0	42	0	464519168	61	4095
2026-01-29 03:34:17.58	5.12	24.46	-44.3	-45.5	21.0	0.00e+00	0	42	0	466616320	60	4095
2026-01-29 03:34:18.59	4.87	24.54	-44.3	-45.5	21.0	0.00e+00	0	42	0	468713472	60	4092
2026-01-29 03:34:19.60	4.62	24.62	-44.3	-45.5	21.1	0.00e+00	0	42	0	469762048	60	4089
2026-01-29 03:34:20.61	4.36	24.70	-44.7	-46.0	20.7	0.00e+00	0	42	0	471859200	60	4302
2026-01-29 03:34:21.62	4.11	24.78	-44.8	-46.1	20.5	0.00e+00	0	42	0	473956352	60	4357
2026-01-29 03:34:22.63	3.85	24.86	-44.9	-46.2	20.4	0.00e+00	0	42	0	476053504	60	4439
2026-01-29 03:34:23.63	3.60	24.93	-44.8	-46.1	20.5	0.00e+00	0	42	0	478150656	60	4373
2026-01-29 03:34:24.64	3.34	25.01	-44.8	-46.1	20.5	0.00e+00	0	42	0	479199232	60	4371
2026-01-29 03:34:25.65	3.08	25.09	-44.3	-45.6	21.0	0.00e+00	0	42	0	481296384	60	4100
2026-01-29 03:34:26.66	2.82	25.16	-44.5	-45.7	20.8	0.00e+00	0	42	0	483393536	60	4191
2026-01-29 03:34:27.67	2.56	25.24	-44.7	-46.0	20.6	0.00e+00	0	42	0	485490688	60	4321
2026-01-29 03:34:28.67	2.30	25.31	-44.6	-45.8	20.8	0.00e+00	0	42	0	487587840	60	4240
2026-01-29 03:34:29.68	2.03	25.39	-44.6	-45.9	20.8	0.00e+00	0	42	0	488636416	60	4256
2026-01-29 03:34:30.69	1.76	25.46	-44.2	-45.4	21.2	0.00e+00	0	42	0	490733568	60	4040
2026-01-29 03:34:31.69	1.50	25.54	-44.3	-45.4	21.2	0.00e+00	0	42	0	492830720	60	4051
2026-01-29 03:34:32.70	1.23	25.61	-44.2	-45.3	21.3	0.00e+00	0	42	0	494927872	60	4001
2026-01-29 03:34:33.71	0.96	25.68	-44.3	-45.5	21.1	0.00e+00	0	42	0	497025024	60	4058
2026-01-29 03:34:34.71	0.69	25.76	-44.8	-46.1	20.7	0.00e+00	0	42	0	498073600	60	4341
2026-01-29 03:34:35.72	0.42	25.83	-44.8	-46.1	20.6	0.00e+00	0	42	0	500170752	60	4345
2026-01-29 03:34:36.72	0.15	25.90	-45.2	-46.6	20.2	0.00e+00	0	42	0	502267904	61	4344
2026-01-29 03:34:37.73	359.88	25.97	-45.3	-46.7	20.2	0.00e+00	0	42	0	504365056	61	4401
2026-01-29 03:34:38.74	359.60	26.04	-45.3	-46.7	20.1	0.00e+00	0	42	0	506462208	61	4392
2026-01-29 03:34:39.75	359.32	26.11	-45.5	-46.9	19.9	0.00e+00	0	42	0	507510784	61	4511
2026-01-29 03:34:40.76	359.04	26.18	-45.7	-47.1	19.7	0.00e+00	0	42	0	509607936	61	4634
2026-01-29 03:34:41.77	358.76	26.25	-45.7	-47.1	19.7	0.00e+00	0	42	0	511705088	62	4370
2026-01-29 03:34:42.77	358.49	26.31	-45.3	-46.7	20.1	0.00e+00	0	42	0	513802240	62	4166
2026-01-29 03:34:43.78	358.20	26.38	-45.2	-46.6	20.2	0.00e+00	0	42	0	515899392	62	4109
2026-01-29 03:34:44.79	357.92	26.45	-45.0	-46.3	20.5	0.00e+00	0	42	0	516947968	61	4212
2026-01-29 03:34:45.80	357.64	26.52	-45.4	-46.8	20.1	0.00e+00	0	42	0	519045120	61	4461
2026-01-29 03:34:46.81	357.35	26.58	-45.5	-47.0	19.9	0.00e+00	0	42	0	521142272	61	4563
2026-01-29 03:34:47.81	357.07	26.65	-46.0	-47.5	19.4	0.00e+00	0	42	0	523239424	62	4581
2026-01-29 03:34:48.82	356.78	26.71	-45.7	-47.1	19.7	0.00e+00	0	42	0	525336576	62	4378
2026-01-29 03:34:49.82	356.49	26.77	-45.5	-46.9	19.9	0.00e+00	0	42	0	526385152	62	4270
2026-01-29 03:34:50.83	356.20	26.84	-45.3	-46.7	20.1	0.00e+00	0	42	0	528482304	62	4184
2026-01-29 03:34:51.84	355.91	26.90	-45.1	-46.4	20.4	0.00e+00	0	42	0	530579456	62	4030
2026-01-29 03:34:52.85	355.62	26.96	-45.3	-46.7	20.1	0.00e+00	0	42	0	532676608	62	4192
2026-01-29 03:34:53.85	355.33	27.02	-45.4	-46.8	20.1	0.00e+00	0	42	0	534773760	62	4220
2026-01-29 03:34:54.86	355.03	27.08	-45.4	-46.8	20.1	0.00e+00	0	42	0	535822336	62	4208
2026-01-29 03:34:55.87	354.74	27.14	-45.0	-46.4	20.4	0.00e+00	0	42	0	537919488	62	4006
2026-01-29 03:34:56.88	354.44	27.20	-45.1	-46.4	20.4	0.00e+00	0	42	0	540016640	61	4278
2026-01-29 03:34:57.88	354.14	27.26	-45.0	-46.3	20.5	0.00e+00	0	42	0	542113792	61	4216
2026-01-29 03:34:58.89	353.84	27.31	-45.3	-46.7	20.1	0.00e+00	0	42	0	544210944	61	4420
2026-01-29 03:34:59.90	353.54	27.37	-45.5	-46.9	19.9	0.00e+00	0	42	0	545259520	61	4538
2026-01-29 03:35:00.91	353.24	27.43	-45.5	-46.9	20.0	0.00e+00	0	42	0	547356672	61	4524
2026-01-29 03:35:01.91	352.94	27.48	-45.1	-46.5	20.3	0.00e+00	0	42	0	549453824	61	4297
2026-01-29 03:35:02.92	352.64	27.54	-44.9	-46.2	20.6	0.00e+00	0	42	0	551550976	61	4174
2026-01-29 03:35:03.93	352.33	27.59	-44.8	-46.0	20.8	0.00e+00	0	42	0	553648128	61	4093
2026-01-29 03:35:04.93	352.03	27.64	-44.8	-46.0	20.7	0.00e+00	0	42	0	554696704	61	4086
2026-01-29 03:35:05.94	351.73	27.69	-45.0	-46.3	20.5	0.00e+00	0	42	0	556793856	61	4232
2026-01-29 03:35:06.95	351.42	27.75	-45.1	-46.4	20.5	0.00e+00	0	42	0	558891008	61	4261
2026-01-29 03:35:07.96	351.11	27.80	-45.1	-46.4	20.4	0.00e+00	0	42	0	560988160	61	4279
2026-01-29 03:35:08.97	350.80	27.85	-44.8	-46.1	20.7	0.00e+00	0	42	0	563085312	61	4126
2026-01-29 03:35:09.97	350.49	27.89	-44.9	-46.2	20.7	0.00e+00	0	42	0	564133888	61	4168
2026-01-29 03:35:10.98	350.18	27.94	-44.8	-46.1	20.7	0.00e+00	0	42	0	566231040	61	4101
2026-01-29 03:35:11.99	349.87	27.99	-45.4	-46.8	20.1	0.00e+00	0	42	0	568328192	61	4453
2026-01-29 03:35:13.00	349.55	28.03	-46.0	-47.5	19.4	0.00e+00	0	42	0	570425344	62	4591
2026-01-29 03:35:14.00	349.24	28.08	-45.9	-47.5	19.4	0.00e+00	0	42	0	572522496	63	4299
2026-01-29 03:35:15.01	348.93	28.12	-45.7	-47.1	19.8	0.00e+00	0	42	0	573571072	63	4127
2026-01-29 03:35:16.01	348.62	28.17	-45.4	-46.8	20.1	0.00e+00	0	42	0	575668224	62	4206
2026-01-29 03:35:17.02	348.30	28.21	-45.1	-46.4	20.5	0.00e+00	0	42	0	577765376	62	4025
2026-01-29 03:35:18.02	347.98	28.25	-45.3	-46.7	20.2	0.00e+00	0	42	0	579862528	61	4392
2026-01-29 03:35:19.03	347.67	28.29	-45.5	-46.9	20.0	0.00e+00	0	42	0	581959680	61	4502
2026-01-29 03:35:20.04	347.35	28.33	-45.8	-47.3	19.7	0.00e+00	0	42	0	583008256	62	4467
2026-01-29 03:35:21.05	347.03	28.37	-45.7	-47.2	19.8	0.00e+00	0	42	0	585105408	63	4151
2026-01-29 03:35:22.06	346.70	28.41	-45.7	-47.1	19.8	0.00e+00	0	42	0	587202560	63	4126
2026-01-29 03:35:23.06	346.39	28.44	-45.8	-47.2	19.8	0.00e+00	0	42	0	589299712	63	4160
2026-01-29 03:35:24.07	346.06	28.48	-45.9	-47.3	19.6	0.00e+00	0	42	0	591396864	63	4226
2026-01-29 03:35:25.07	345.74	28.51	-46.2	-47.8	19.2	0.00e+00	0	42	0	592445440	63	4462
2026-01-29 03:35:26.08	345.42	28.55	-47.0	-48.8	18.1	0.00e+00	0	42	0	594542592	64	4732
2026-01-29 03:35:27.09	345.10	28.58	-47.0	-48.9	18.1	0.00e+00	0	42	0	596639744	64	4776
2026-01-29 03:35:28.10	344.77	28.61	-47.1	-49.0	17.9	0.00e+00	0	42	0	598736896	65	4579
2026-01-29 03:35:29.11	344.44	28.64	-47.1	-48.9	18.0	0.00e+00	0	42	0	600834048	65	4515
2026-01-29 03:35:30.11	344.12	28.67	-46.3	-47.8	19.1	0.00e+00	0	42	0	601882624	64	4239
2026-01-29 03:35:31.12	343.79	28.70	-46.1	-47.6	19.2	0.00e+00	0	42	0	603979776	64	4126
2026-01-29 03:35:32.13	343.47	28.73	-46.6	-48.3	18.6	0.00e+00	0	42	0	606076928	64	4479
2026-01-29 03:35:33.14	343.14	28.76	-47.0	-48.8	18.1	0.00e+00	0	42	0	608174080	64	4751
2026-01-29 03:35:34.14	342.81	28.78	-47.0	-48.8	18.2	0.00e+00	0	42	0	610271232	65	4486
2026-01-29 03:35:35.15	342.48	28.81	-46.9	-48.7	18.3	0.00e+00	0	42	0	611319808	65	4400
2026-01-29 03:35:36.16	342.15	28.83	-46.3	-47.9	18.9	0.00e+00	0	42	0	613416960	64	4282
2026-01-29 03:35:37.17	341.82	28.86	-45.9	-47.4	19.5	0.00e+00	0	42	0	615514112	63	4273
2026-01-29 03:35:38.17	341.50	28.88	-46.1	-47.6	19.3	0.00e+00	0	42	0	617611264	63	4389
2026-01-29 03:35:39.18	341.17	28.90	-46.2	-47.7	19.3	0.00e+00	0	42	0	619708416	63	4436
2026-01-29 03:35:40.18	340.84	28.92	-46.6	-48.3	18.7	0.00e+00	0	42	0	620756992	63	4754
2026-01-29 03:35:41.19	340.51	28.94	-47.0	-48.9	18.1	0.00e+00	0	42	0	622854144	64	4762
2026-01-29 03:35:42.19	340.18	28.95	-47.0	-49.0	18.0	0.00e+00	0	42	0	624951296	65	4547
2026-01-29 03:35:43.20	339.84	28.97	-47.0	-48.9	18.1	0.00e+00	0	42	0	627048448	65	4506
2026-01-29 03:35:44.21	339.51	28.99	-46.5	-48.2	18.8	0.00e+00	0	42	0	629145600	64	4400
2026-01-29 03:35:45.22	339.18	29.00	-46.5	-48.2	18.7	0.00e+00	0	42	0	630194176	64	4436
2026-01-29 03:35:46.23	338.84	29.01	-46.4	-48.1	18.7	0.00e+00	0	42	0	632291328	64	4375
2026-01-29 03:35:47.23	338.51	29.03	-46.6	-48.3	18.5	0.00e+00	0	42	0	634388480	64	4478
2026-01-29 03:35:48.24	338.18	29.04	-47.2	-49.2	17.8	0.00e+00	0	42	0	636485632	64	4932
2026-01-29 03:35:49.25	337.84	29.05	-47.3	-49.3	17.6	0.00e+00	0	42	0	638582784	65	4730
2026-01-29 03:35:50.25	337.51	29.06	-47.4	-49.5	17.3	0.00e+00	0	42	0	639631360	65	4869
2026-01-29 03:35:51.26	337.18	29.06	-47.3	-49.3	17.6	0.00e+00	0	42	0	641728512	65	4721
2026-01-29 03:35:52.27	336.84	29.07	-47.0	-48.9	18.1	0.00e+00	0	42	0	643825664	65	4543
2026-01-29 03:35:53.28	336.51	29.08	-46.6	-48.4	18.5	0.00e+00	0	42	0	645922816	65	4259
2026-01-29 03:35:54.28	336.18	29.08	-46.3	-48.0	18.9	0.00e+00	0	42	0	648019968	64	4294
2026-01-29 03:35:55.29	335.84	29.08	-46.0	-47.5	19.4	0.00e+00	0	42	0	650117120	64	4070
2026-01-29 03:35:56.29	335.51	29.09	-45.8	-47.3	19.6	0.00e+00	0	42	0	651165696	63	4230
2026-01-29 03:35:57.30	335.17	29.09	-45.7	-47.1	19.9	0.00e+00	0	42	0	653262848	63	4133
2026-01-29 03:35:58.31	334.84	29.09	-45.8	-47.3	19.7	0.00e+00	0	42	0	655360000	63	4205
2026-01-29 03:35:59.31	334.51	29.09	-46.0	-47.6	19.5	0.00e+00	0	42	0	657457152	63	4343
2026-01-29 03:36:00.32	334.17	29.09	-46.0	-47.5	19.4	0.00e+00	0	42	0	658505728	63	4304
2026-01-29 03:36:01.33	333.84	29.08	-46.3	-47.9	19.1	0.00e+00	0	42	0	660602880	63	4522
2026-01-29 03:36:02.34	333.50	29.08	-46.6	-48.3	18.7	0.00e+00	0	42	0	662700032	64	4485
2026-01-29 03:36:03.34	333.17	29.07	-47.0	-48.9	18.2	0.00e+00	0	42	0	664797184	64	4763
2026-01-29 03:36:04.35	332.83	29.07	-47.4	-49.3	17.8	0.00e+00	0	42	0	666894336	65	4745
2026-01-29 03:36:05.36	332.50	29.06	-47.1	-48.9	18.2	0.00e+00	0	42	0	667942912	65	4514
2026-01-29 03:36:06.37	332.16	29.05	-46.8	-48.5	18.6	0.00e+00	0	42	0	670040064	65	4299
2026-01-29 03:36:07.38	331.83	29.04	-46.1	-47.6	19.4	0.00e+00	0	42	0	672137216	64	4111
2026-01-29 03:36:08.39	331.50	29.03	-45.8	-47.2	19.8	0.00e+00	0	42	0	674234368	63	4161
2026-01-29 03:36:09.40	331.16	29.02	-45.9	-47.3	19.8	0.00e+00	0	42	0	676331520	63	4242
2026-01-29 03:36:10.41	330.83	29.01	-46.3	-47.8	19.3	0.00e+00	0	42	0	678428672	63	4485
2026-01-29 03:36:11.41	330.50	28.99	-46.6	-48.3	18.8	0.00e+00	0	42	0	679477248	64	4457
2026-01-29 03:36:12.42	330.16	28.98	-46.7	-48.5	18.6	0.00e+00	0	42	0	681574400	64	4548
2026-01-29 03:36:13.43	329.83	28.96	-46.7	-48.4	18.6	0.00e+00	0	42	0	683671552	64	4530
2026-01-29 03:36:14.43	329.50	28.94	-46.5	-48.2	18.8	0.00e+00	0	42	0	685768704	64	4415
2026-01-29 03:36:15.44	329.17	28.93	-46.3	-47.9	19.1	0.00e+00	0	42	0	686817280	64	4276
2026-01-29 03:36:16.44	328.84	28.91	-45.8	-47.2	19.8	0.00e+00	0	42	0	688914432	63	4163
2026-01-29 03:36:17.45	328.51	28.89	-45.7	-47.1	19.9	0.00e+00	0	42	0	691011584	63	4115
2026-01-29 03:36:18.45	328.18	28.86	-45.5	-46.9	20.1	0.00e+00	0	42	0	693108736	63	4033
2026-01-29 03:36:19.46	327.85	28.84	-45.9	-47.4	19.7	0.00e+00	0	42	0	695205888	62	4497
2026-01-29 03:36:20.47	327.52	28.82	-46.0	-47.5	19.6	0.00e+00	0	42	0	696254464	62	4571
2026-01-29 03:36:21.48	327.19	28.79	-46.2	-47.7	19.4	0.00e+00	0	42	0	698351616	63	4417
2026-01-29 03:36:22.49	326.86	28.77	-45.9	-47.3	19.7	0.00e+00	0	42	0	700448768	63	4238
2026-01-29 03:36:23.49	326.54	28.74	-45.7	-47.1	20.0	0.00e+00	0	42	0	702545920	63	4117
2026-01-29 03:36:24.50	326.21	28.71	-45.4	-46.7	20.3	0.00e+00	0	42	0	704643072	62	4167
2026-01-29 03:36:25.51	325.88	28.69	-45.4	-46.8	20.3	0.00e+00	0	42	0	706740224	62	4198
2026-01-29 03:36:26.52	325.55	28.66	-45.4	-46.8	20.2	0.00e+00	0	42	0	707788800	62	4218
2026-01-29 03:36:27.53	325.23	28.63	-45.3	-46.7	20.3	0.00e+00	0	42	0	709885952	62	4168
2026-01-29 03:36:28.53	324.91	28.59	-45.2	-46.5	20.5	0.00e+00	0	42	0	711983104	61	4303
2026-01-29 03:36:29.54	324.58	28.56	-45.0	-46.3	20.7	0.00e+00	0	42	0	714080256	61	4203
2026-01-29 03:36:30.55	324.26	28.53	-45.1	-46.4	20.5	0.00e+00	0	42	0	715128832	61	4268
2026-01-29 03:36:31.55	323.94	28.49	-45.1	-46.4	20.5	0.00e+00	0	42	0	717225984	61	4262
2026-01-29 03:36:32.56	323.61	28.46	-45.0	-46.3	20.6	0.00e+00	0	42	0	719323136	61	4228
2026-01-29 03:36:33.57	323.29	28.42	-45.6	-47.0	20.0	0.00e+00	0	42	0	721420288	61	4552
2026-01-29 03:36:34.58	322.97	28.38	-45.8	-47.3	19.7	0.00e+00	0	42	0	723517440	62	4485
2026-01-29 03:36:35.59	322.65	28.35	-45.8	-47.3	19.7	0.00e+00	0	42	0	725614592	62	4474
2026-01-29 03:36:36.59	322.33	28.31	-45.9	-47.4	19.6	0.00e+00	0	42	0	726663168	62	4511
2026-01-29 03:36:37.60	322.01	28.27	-45.8	-47.3	19.6	0.00e+00	0	42	0	728760320	62	4465
2026-01-29 03:36:38.61	321.70	28.23	-45.9	-47.4	19.6	0.00e+00	0	42	0	730857472	62	4524
2026-01-29 03:36:39.61	321.38	28.18	-46.4	-48.0	19.2	0.00e+00	0	42	0	732954624	63	4581
2026-01-29 03:36:40.62	321.07	28.14	-46.6	-48.2	18.9	0.00e+00	0	42	0	735051776	63	4694
2026-01-29 03:36:41.63	320.75	28.10	-46.7	-48.4	18.7	0.00e+00	0	42	0	736100352	64	4531
2026-01-29 03:36:42.63	320.44	28.05	-46.5	-48.2	18.9	0.00e+00	0	42	0	738197504	64	4406
2026-01-29 03:36:43.64	320.12	28.01	-46.0	-47.5	19.6	0.00e+00	0	42	0	740294656	63	4299
2026-01-29 03:36:44.65	319.81	27.96	-45.7	-47.0	20.0	0.00e+00	0	42	0	742391808	63	4097
2026-01-29 03:36:45.66	319.50	27.91	-45.5	-46.8	20.2	0.00e+00	0	42	0	743440384	63	3965
2026-01-29 03:36:46.67	319.19	27.86	-44.8	-46.0	21.0	0.00e+00	0	42	0	745537536	61	4057
2026-01-29 03:36:47.68	318.88	27.81	-44.9	-46.1	20.9	0.00e+00	0	42	0	747634688	61	4133
2026-01-29 03:36:48.69	318.57	27.76	-45.4	-46.8	20.3	0.00e+00	0	42	0	749731840	61	4444
2026-01-29 03:36:49.70	318.26	27.71	-45.6	-46.9	20.1	0.00e+00	0	42	0	751828992	61	4537
2026-01-29 03:36:50.71	317.95	27.66	-45.8	-47.2	19.9	0.00e+00	0	42	0	753926144	62	4395
2026-01-29 03:36:51.71	317.65	27.61	-45.5	-46.8	20.3	0.00e+00	0	42	0	754974720	62	4222
2026-01-29 03:36:52.72	317.34	27.56	-45.5	-46.9	20.2	0.00e+00	0	42	0	757071872	62	4253
2026-01-29 03:36:53.73	317.04	27.50	-45.4	-46.7	20.4	0.00e+00	0	42	0	759169024	62	4148
2026-01-29 03:36:54.74	316.74	27.45	-45.8	-47.2	19.9	0.00e+00	0	42	0	761266176	62	4441
2026-01-29 03:36:55.75	316.43	27.39	-46.0	-47.5	19.6	0.00e+00	0	42	0	763363328	62	4565
2026-01-29 03:36:56.76	316.13	27.34	-46.2	-47.8	19.3	0.00e+00	0	42	0	764411904	63	4445
2026-01-29 03:36:57.76	315.84	27.28	-46.2	-47.7	19.5	0.00e+00	0	42	0	766509056	63	4407
2026-01-29 03:36:58.77	315.54	27.22	-46.3	-47.9	19.3	0.00e+00	0	42	0	768606208	63	4506
2026-01-29 03:36:59.78	315.24	27.16	-46.3	-47.9	19.3	0.00e+00	0	42	0	770703360	63	4512
2026-01-29 03:37:00.79	314.94	27.10	-46.2	-47.7	19.4	0.00e+00	0	42	0	772800512	63	4412
2026-01-29 03:37:01.79	314.65	27.04	-46.4	-48.0	19.1	0.00e+00	0	42	0	773849088	63	4571
2026-01-29 03:37:02.80	314.36	26.98	-46.6	-48.3	18.7	0.00e+00	0	42	0	775946240	64	4480
2026-01-29 03:37:03.81	314.06	26.92	-47.2	-49.1	17.9	0.00e+00	0	42	0	778043392	64	4875
2026-01-29 03:37:04.81	313.77	26.86	-47.6	-49.6	17.5	0.00e+00	0	42	0	780140544	65	4886
2026-01-29 03:37:05.82	313.48	26.80	-48.0	-50.2	17.0	0.00e+00	0	42	0	782237696	66	4946
2026-01-29 03:37:06.83	313.19	26.73	-48.0	-50.1	17.0	0.00e+00	0	42	0	783286272	66	4924
2026-01-29 03:37:07.84	312.90	26.67	-48.2	-50.4	16.7	0.00e+00	0	42	0	785383424	67	4789
2026-01-29 03:37:08.85	312.62	26.60	-48.3	-50.6	16.6	0.00e+00	0	42	0	787480576	67	4874
2026-01-29 03:37:09.86	312.33	26.54	-48.1	-50.3	16.9	0.00e+00	0	42	0	789577728	67	4734
2026-01-29 03:37:10.87	312.05	26.47	-47.7	-49.7	17.4	0.00e+00	0	42	0	791674880	67	4401
2026-01-29 03:37:11.87	311.76	26.41	-47.2	-49.1	17.9	0.00e+00	0	42	0	792723456	66	4371
2026-01-29 03:37:12.88	311.48	26.34	-47.0	-48.8	18.3	0.00e+00	0	42	0	794820608	65	4445
2026-01-29 03:37:13.89	311.20	26.27	-46.8	-48.6	18.4	0.00e+00	0	42	0	796917760	65	4371
2026-01-29 03:37:14.90	310.92	26.20	-46.9	-48.7	18.4	0.00e+00	0	42	0	799014912	65	4399
2026-01-29 03:37:15.91	310.64	26.13	-46.1	-47.7	19.2	0.00e+00	0	42	0	801112064	64	4164
2026-01-29 03:37:16.91	310.36	26.06	-45.9	-47.3	19.7	0.00e+00	0	42	0	802160640	63	4222
2026-01-29 03:37:17.92	310.09	25.99	-45.8	-47.3	19.7	0.00e+00	0	42	0	804257792	63	4209
2026-01-29 03:37:18.93	309.81	25.92	-45.6	-47.0	19.9	0.00e+00	0	42	0	806354944	63	4096
2026-01-29 03:37:19.93	309.54	25.85	-45.4	-46.8	20.1	0.00e+00	0	42	0	808452096	62	4199
2026-01-29 03:37:20.94	309.27	25.78	-45.3	-46.7	20.2	0.00e+00	0	42	0	810549248	62	4147
2026-01-29 03:37:21.95	309.00	25.71	-45.1	-46.5	20.5	0.00e+00	0	42	0	811597824	62	4061
2026-01-29 03:37:22.96	308.73	25.64	-44.9	-46.2	20.6	0.00e+00	0	42	0	813694976	61	4173
2026-01-29 03:37:23.97	308.46	25.56	-45.2	-46.6	20.4	0.00e+00	0	42	0	815792128	61	4346
2026-01-29 03:37:24.98	308.19	25.49	-45.5	-46.9	20.0	0.00e+00	0	42	0	817889280	61	4541
2026-01-29 03:37:25.99	307.92	25.41	-45.6	-47.0	20.0	0.00e+00	0	42	0	819986432	62	4317
2026-01-29 03:37:26.99	307.66	25.34	-45.9	-47.4	19.6	0.00e+00	0	42	0	822083584	62	4511
2026-01-29 03:37:28.00	307.40	25.26	-45.8	-47.3	19.7	0.00e+00	0	42	0	823132160	62	4474
2026-01-29 03:37:29.01	307.13	25.19	-45.9	-47.4	19.6	0.00e+00	0	42	0	825229312	62	4503
2026-01-29 03:37:30.02	306.87	25.11	-45.8	-47.3	19.7	0.00e+00	0	42	0	827326464	62	4453
2026-01-29 03:37:31.03	306.61	25.04	-46.2	-47.8	19.5	0.00e+00	0	42	0	829423616	62	4729
2026-01-29 03:37:32.03	306.35	24.96	-46.2	-47.8	19.2	0.00e+00	0	42	0	830472192	63	4489
2026-01-29 03:37:33.04	306.10	24.88	-46.2	-47.8	19.2	0.00e+00	0	42	0	832569344	63	4488
2026-01-29 03:37:34.04	305.84	24.81	-46.3	-48.0	19.1	0.00e+00	0	42	0	834666496	63	4577
2026-01-29 03:37:35.05	305.59	24.73	-46.6	-48.3	18.8	0.00e+00	0	42	0	836763648	63	4735
2026-01-29 03:37:36.06	305.33	24.65	-46.8	-48.6	18.4	0.00e+00	0	42	0	838860800	64	4611
2026-01-29 03:37:37.07	305.08	24.57	-46.7	-48.5	18.6	0.00e+00	0	42	0	839909376	64	4560
2026-01-29 03:37:38.07	304.83	24.49	-46.7	-48.5	18.4	0.00e+00	0	42	0	842006528	64	4584
2026-01-29 03:37:39.08	304.58	24.41	-46.6	-48.4	18.7	0.00e+00	0	42	0	844103680	64	4537
2026-01-29 03:37:40.08	304.33	24.33	-46.5	-48.2	18.8	0.00e+00	0	42	0	846200832	64	4403
2026-01-29 03:37:41.09	304.09	24.25	-46.5	-48.2	18.8	0.00e+00	0	42	0	848297984	64	4424
2026-01-29 03:37:42.10	303.84	24.17	-46.7	-48.5	18.5	0.00e+00	0	42	0	850395136	64	4563
2026-01-29 03:37:43.11	303.59	24.09	-46.1	-47.7	19.2	0.00e+00	0	42	0	851443712	64	4173
2026-01-29 03:37:44.11	303.35	24.01	-46.0	-47.5	19.4	0.00e+00	0	42	0	853540864	64	4098
2026-01-29 03:37:45.12	303.11	23.93	-45.7	-47.1	19.9	0.00e+00	0	42	0	855638016	63	4137
2026-01-29 03:37:46.13	302.87	23.85	-45.6	-47.0	20.0	0.00e+00	0	42	0	857735168	63	4073
2026-01-29 03:37:47.14	302.63	23.76	-45.4	-46.8	20.1	0.00e+00	0	42	0	858783744	62	4225
2026-01-29 03:37:48.14	302.39	23.68	-45.3	-46.7	20.2	0.00e+00	0	42	0	860880896	62	4158
2026-01-29 03:37:49.15	302.16	23.60	-45.5	-46.9	20.1	0.00e+00	0	42	0	862978048	62	4251
2026-01-29 03:37:50.16	301.92	23.52	-45.4	-46.8	20.2	0.00e+00	0	42	0	865075200	62	4213
2026-01-29 03:37:51.16	301.69	23.43	-45.2	-46.6	20.4	0.00e+00	0	42	0	867172352	62	4105
2026-01-29 03:37:52.17	301.45	23.35	-45.0	-46.4	20.5	0.00e+00	0	42	0	868220928	62	4005
2026-01-29 03:37:53.18	301.22	23.27	-45.0	-46.3	20.5	0.00e+00	0	42	0	870318080	62	3996
2026-01-29 03:37:54.19	300.99	23.18	-45.2	-46.5	20.4	0.00e+00	0	42	0	872415232	62	4074
2026-01-29 03:37:55.19	300.76	23.10	-45.0	-46.3	20.6	0.00e+00	0	42	0	874512384	61	4236
2026-01-29 03:37:56.20	300.53	23.01	-44.9	-46.2	20.6	0.00e+00	0	42	0	876609536	61	4191
2026-01-29 03:37:57.21	300.31	22.93	-44.8	-46.0	20.8	0.00e+00	0	42	0	878706688	61	4093
2026-01-29 03:37:58.21	300.08	22.84	-44.2	-45.4	21.4	0.00e+00	0	42	0	879755264	60	4009
2026-01-29 03:37:59.22	299.86	22.76	-44.3	-45.5	21.5	0.00e+00	0	42	0	881852416	59	4316
2026-01-29 03:38:00.23	299.63	22.67	-44.2	-45.3	21.7	0.00e+00	0	42	0	883949568	59	4230
2026-01-29 03:38:01.23	299.41	22.59	-44.1	-45.3	21.7	0.00e+00	0	42	0	886046720	59	4194
2026-01-29 03:38:02.24	299.19	22.50	-44.1	-45.2	21.8	0.00e+00	0	42	0	887095296	59	4177
2026-01-29 03:38:03.25	298.97	22.42	-44.2	-45.3	21.7	0.00e+00	0	42	0	889192448	59	4233
2026-01-29 03:38:04.26	298.75	22.33	-44.5	-45.8	21.3	0.00e+00	0	42	0	891289600	59	4444
2026-01-29 03:38:05.26	298.54	22.25	-44.6	-45.9	20.9	0.00e+00	0	42	0	893386752	60	4247
2026-01-29 03:38:06.27	298.32	22.16	-44.9	-46.2	20.7	0.00e+00	0	42	0	895483904	60	4414
2026-01-29 03:38:07.28	298.11	22.07	-45.1	-46.5	20.4	0.00e+00	0	42	0	896532480	61	4299
2026-01-29 03:38:08.28	297.89	21.99	-45.5	-47.0	20.0	0.00e+00	0	42	0	898629632	61	4571
2026-01-29 03:38:09.29	297.68	21.90	-45.7	-47.2	19.8	0.00e+00	0	42	0	900726784	61	4677
2026-01-29 03:38:10.29	297.47	21.82	-45.6	-47.1	19.9	0.00e+00	0	42	0	902823936	62	4342
2026-01-29 03:38:11.29	297.26	21.73	-45.4	-46.8	20.2	0.00e+00	0	42	0	904921088	62	4200
2026-01-29 03:38:12.29	297.06	21.64	-45.1	-46.5	20.5	0.00e+00	0	42	0	907018240	62	4060
2026-01-29 03:38:13.30	296.85	21.56	-45.1	-46.4	20.5	0.00e+00	0	42	0	908066816	62	4041
2026-01-29 03:38:14.31	296.64	21.47	-45.1	-46.4	20.5	0.00e+00	0	42	0	910163968	61	4258
2026-01-29 03:38:15.31	296.44	21.38	-45.1	-46.4	20.4	0.00e+00	0	42	0	912261120	61	4285
2026-01-29 03:38:16.32	296.23	21.29	-45.3	-46.7	20.3	0.00e+00	0	42	0	914358272	61	4434
2026-01-29 03:38:17.32	296.03	21.21	-45.2	-46.5	20.3	0.00e+00	0	42	0	915406848	61	4329
2026-01-29 03:38:18.33	295.83	21.12	-44.9	-46.2	20.6	0.00e+00	0	42	0	917504000	61	4169
2026-01-29 03:38:19.34	295.63	21.03	-44.7	-45.9	20.9	0.00e+00	0	42	0	919601152	61	4035
2026-01-29 03:38:20.34	295.43	20.95	-44.1	-45.3	21.5	0.00e+00	0	42	0	921698304	60	3976
2026-01-29 03:38:21.35	295.23	20.86	-44.2	-45.3	21.8	0.00e+00	0	42	0	923795456	59	4225
2026-01-29 03:38:22.36	295.03	20.77	-43.8	-44.9	22.1	0.00e+00	0	42	0	924844032	59	4013
2026-01-29 03:38:23.37	294.84	20.68	-43.7	-44.8	22.2	0.00e+00	0	42	0	926941184	59	3997
2026-01-29 03:38:24.37	294.64	20.59	-43.9	-45.0	22.0	0.00e+00	0	42	0	929038336	59	4087
2026-01-29 03:38:25.38	294.45	20.51	-44.0	-45.1	22.0	0.00e+00	0	42	0	931135488	59	4122
2026-01-29 03:38:26.39	294.26	20.42	-44.2	-45.3	21.7	0.00e+00	0	42	0	933232640	59	4235
2026-01-29 03:38:27.39	294.07	20.33	-44.3	-45.5	21.6	0.00e+00	0	42	0	935329792	59	4323
2026-01-29 03:38:28.40	293.88	20.24	-44.7	-45.9	21.3	0.00e+00	0	42	0	936378368	59	4507
2026-01-29 03:38:29.41	293.69	20.15	-44.7	-45.9	21.2	0.00e+00	0	42	0	938475520	59	4539
2026-01-29 03:38:30.42	293.50	20.07	-44.4	-45.6	21.2	0.00e+00	0	42	0	940572672	60	4139
2026-01-29 03:38:31.42	293.31	19.98	-44.2	-45.4	21.4	0.00e+00	0	42	0	942669824	60	4027
2026-01-29 03:38:32.43	293.12	19.89	-44.2	-45.3	21.5	0.00e+00	0	42	0	943718400	60	4002
2026-01-29 03:38:33.43	292.94	19.80	-44.2	-45.3	21.5	0.00e+00	0	42	0	945815552	60	3998
2026-01-29 03:38:34.44	292.76	19.72	-44.1	-45.3	21.5	0.00e+00	0	42	0	947912704	60	3968
2026-01-29 03:38:35.44	292.58	19.63	-44.4	-45.6	21.6	0.00e+00	0	42	0	950009856	59	4365
2026-01-29 03:38:36.45	292.39	19.54	-44.5	-45.7	21.5	0.00e+00	0	42	0	952107008	59	4430
2026-01-29 03:38:37.46	292.21	19.45	-44.6	-45.8	21.3	0.00e+00	0	42	0	953155584	59	4485
2026-01-29 03:38:38.46	292.03	19.36	-44.4	-45.6	21.3	0.00e+00	0	42	0	955252736	60	4106
2026-01-29 03:38:39.47	291.85	19.28	-44.4	-45.6	21.2	0.00e+00	0	42	0	957349888	60	4139
2026-01-29 03:38:40.47	291.68	19.19	-44.5	-45.7	21.1	0.00e+00	0	42	0	959447040	60	4185
2026-01-29 03:38:41.48	291.50	19.10	-44.5	-45.7	21.2	0.00e+00	0	42	0	961544192	60	4176
2026-01-29 03:38:42.48	291.33	19.01	-44.6	-45.8	21.1	0.00e+00	0	42	0	963641344	60	4212
2026-01-29 03:38:43.49	291.15	18.92	-44.6	-45.8	21.1	0.00e+00	0	42	0	964689920	60	4212
2026-01-29 03:38:44.50	290.98	18.84	-44.6	-45.8	21.1	0.00e+00	0	42	0	966787072	60	4218
2026-01-29 03:38:45.50	290.81	18.75	-44.5	-45.7	21.2	0.00e+00	0	42	0	968884224	60	4174
2026-01-29 03:38:46.50	290.64	18.66	-44.3	-45.4	21.3	0.00e+00	0	42	0	970981376	60	4051
2026-01-29 03:38:47.51	290.47	18.57	-44.3	-45.4	21.4	0.00e+00	0	42	0	972029952	60	4038
2026-01-29 03:38:48.52	290.30	18.49	-44.4	-45.5	21.6	0.00e+00	0	42	0	974127104	59	4317
2026-01-29 03:38:49.53	290.13	18.40	-44.5	-45.6	21.5	0.00e+00	0	42	0	976224256	59	4388
2026-01-29 03:38:50.53	289.96	18.31	-44.5	-45.6	21.5	0.00e+00	0	42	0	978321408	59	4375
2026-01-29 03:38:51.54	289.79	18.22	-44.5	-45.6	21.5	0.00e+00	0	42	0	980418560	59	4377
2026-01-29 03:38:52.55	289.63	18.14	-44.4	-45.6	21.3	0.00e+00	0	42	0	981467136	60	4113
2026-01-29 03:38:53.55	289.46	18.05	-44.7	-46.0	20.9	0.00e+00	0	42	0	983564288	60	4316
2026-01-29 03:38:54.56	289.30	17.96	-45.2	-46.5	20.4	0.00e+00	0	42	0	985661440	60	4572
2026-01-29 03:38:55.57	289.14	17.87	-45.4	-46.8	20.2	0.00e+00	0	42	0	987758592	61	4477
2026-01-29 03:38:56.57	288.98	17.79	-45.7	-47.2	19.8	0.00e+00	0	42	0	989855744	62	4397
2026-01-29 03:38:57.58	288.82	17.70	-45.6	-47.0	20.1	0.00e+00	0	42	0	990904320	62	4292
2026-01-29 03:38:58.59	288.66	17.61	-45.6	-47.0	20.0	0.00e+00	0	42	0	993001472	62	4336
2026-01-29 03:38:59.60	288.50	17.53	-45.3	-46.6	20.3	0.00e+00	0	42	0	995098624	62	4123
2026-01-29 03:39:00.60	288.34	17.44	-45.0	-46.3	20.6	0.00e+00	0	42	0	997195776	62	3971
2026-01-29 03:39:01.61	288.18	17.35	-45.1	-46.4	20.6	0.00e+00	0	42	0	999292928	62	4031
2026-01-29 03:39:02.62	288.03	17.27	-44.8	-46.1	20.8	0.00e+00	0	42	0	1000341504	61	4105
2026-01-29 03:39:03.63	287.87	17.18	-44.8	-46.1	20.8	0.00e+00	0	42	0	1002438656	61	4101
2026-01-29 03:39:04.63	287.72	17.09	-44.8	-46.0	20.8	0.00e+00	0	42	0	1004535808	61	4090
2026-01-29 03:39:05.64	287.56	17.01	-45.0	-46.3	20.6	0.00e+00	0	42	0	1006632960	61	4225
2026-01-29 03:39:06.65	287.41	16.92	-45.2	-46.5	20.4	0.00e+00	0	42	0	1008730112	61	4318
2026-01-29 03:39:07.66	287.26	16.83	-45.2	-46.5	20.4	0.00e+00	0	42	0	1009778688	61	4330
2026-01-29 03:39:08.66	287.11	16.75	-45.1	-46.5	20.4	0.00e+00	0	42	0	1011875840	61	4297
2026-01-29 03:39:09.67	286.96	16.66	-45.2	-46.5	20.3	0.00e+00	0	42	0	1013972992	61	4304
2026-01-29 03:39:10.68	286.81	16.57	-45.7	-47.1	19.9	0.00e+00	0	42	0	1016070144	62	4361
2026-01-29 03:39:11.68	286.66	16.49	-45.9	-47.3	19.6	0.00e+00	0	42	0	1018167296	62	4479
2026-01-29 03:39:12.69	286.51	16.40	-46.1	-47.6	19.4	0.00e+00	0	42	0	1020264448	62	4613
2026-01-29 03:39:13.69	286.37	16.32	-46.1	-47.7	19.3	0.00e+00	0	42	0	1021313024	63	4410
2026-01-29 03:39:14.70	286.22	16.23	-46.0	-47.5	19.4	0.00e+00	0	42	0	1023410176	63	4324
2026-01-29 03:39:15.71	286.08	16.15	-45.8	-47.3	19.7	0.00e+00	0	42	0	1025507328	63	4197
2026-01-29 03:39:16.72	285.93	16.06	-45.7	-47.1	19.8	0.00e+00	0	42	0	1027604480	63	4132
2026-01-29 03:39:17.73	285.79	15.98	-45.4	-46.8	20.0	0.00e+00	0	42	0	1028653056	62	4207
2026-01-29 03:39:18.73	285.65	15.89	-45.1	-46.5	20.4	0.00e+00	0	42	0	1030750208	62	4052
2026-01-29 03:39:19.74	285.51	15.81	-45.2	-46.6	20.2	0.00e+00	0	42	0	1032847360	62	4108
2026-01-29 03:39:20.75	285.37	15.72	-45.1	-46.4	20.5	0.00e+00	0	42	0	1034944512	62	4014
2026-01-29 03:39:21.75	285.23	15.64	-45.3	-46.7	20.1	0.00e+00	0	42	0	1037041664	62	4168
2026-01-29 03:39:22.76	285.09	15.55	-45.4	-46.8	20.1	0.00e+00	0	42	0	1038090240	62	4197
2026-01-29 03:39:23.77	284.95	15.47	-45.7	-47.2	19.7	0.00e+00	0	42	0	1040187392	62	4414
2026-01-29 03:39:24.77	284.81	15.38	-45.8	-47.2	19.6	0.00e+00	0	42	0	1042284544	62	4420
2026-01-29 03:39:25.78	284.68	15.30	-46.2	-47.8	19.2	0.00e+00	0	42	0	1044381696	62	4739
2026-01-29 03:39:26.79	284.54	15.21	-46.1	-47.7	19.2	0.00e+00	0	42	0	1046478848	63	4400
2026-01-29 03:39:27.79	284.41	15.13	-46.0	-47.5	19.3	0.00e+00	0	42	0	1048576000	63	4312
2026-01-29 03:39:28.80	284.27	15.05	-46.0	-47.5	19.4	0.00e+00	0	42	0	1049624576	63	4301
2026-01-29 03:39:29.81	284.14	14.96	-45.7	-47.2	19.6	0.00e+00	0	42	0	1051721728	63	4169
2026-01-29 03:39:30.81	284.01	14.88	-45.7	-47.2	19.6	0.00e+00	0	42	0	1053818880	63	4153
2026-01-29 03:39:31.81	283.87	14.80	-45.4	-46.7	20.0	0.00e+00	0	42	0	1055916032	62	4191
2026-01-29 03:39:32.82	283.74	14.71	-45.4	-46.8	20.0	0.00e+00	0	42	0	1056964608	62	4215
2026-01-29 03:39:33.83	283.61	14.63	-45.2	-46.5	20.2	0.00e+00	0	42	0	1059061760	62	4081
2026-01-29 03:39:34.83	283.48	14.55	-45.2	-46.5	20.2	0.00e+00	0	42	0	1061158912	62	4097
2026-01-29 03:39:35.84	283.35	14.46	-45.0	-46.3	20.4	0.00e+00	0	42	0	1063256064	62	4000
2026-01-29 03:39:36.85	283.23	14.38	-45.0	-46.3	20.3	0.00e+00	0	42	0	1065353216	61	4239
2026-01-29 03:39:37.86	283.10	14.30	-45.2	-46.5	20.1	0.00e+00	0	42	0	1066401792	61	4326
2026-01-29 03:39:38.87	282.97	14.22	-45.1	-46.4	20.2	0.00e+00	0	42	0	1068498944	61	4275
2026-01-29 03:39:39.87	282.85	14.13	-45.2	-46.6	20.1	0.00e+00	0	42	0	1070596096	61	4341
2026-01-29 03:39:40.88	282.72	14.05	-45.3	-46.7	20.0	0.00e+00	0	42	0	1072693248	61	4429
2026-01-29 03:39:41.89	282.59	13.97	-45.4	-46.8	19.9	0.00e+00	0	42	0	1074790400	61	4472
2026-01-29 03:39:42.90	282.47	13.89	-45.3	-46.7	19.9	0.00e+00	0	42	0	1076887552	61	4411
2026-01-29 03:39:43.91	282.35	13.80	-45.6	-47.1	19.6	0.00e+00	0	42	0	1077936128	61	4612
2026-01-29 03:39:44.91	282.23	13.72	-45.9	-47.4	19.3	0.00e+00	0	42	0	1080033280	62	4506
2026-01-29 03:39:45.92	282.10	13.64	-45.9	-47.4	19.2	0.00e+00	0	42	0	1082130432	62	4545
2026-01-29 03:39:46.92	281.98	13.56	-46.0	-47.5	19.2	0.00e+00	0	42	0	1084227584	62	4568
2026-01-29 03:39:47.93	281.86	13.48	-46.0	-47.5	19.2	0.00e+00	0	42	0	1085276160	62	4571
2026-01-29 03:39:48.93	281.74	13.40	-46.0	-47.6	19.1	0.00e+00	0	42	0	1087373312	62	4606
2026-01-29 03:39:49.94	281.62	13.32	-45.9	-47.5	19.2	0.00e+00	0	42	0	1089470464	62	4549
2026-01-29 03:39:50.95	281.50	13.24	-46.0	-47.5	19.2	0.00e+00	0	42	0	1091567616	62	4579
2026-01-29 03:39:51.95	281.39	13.16	-45.9	-47.4	19.3	0.00e+00	0	42	0	1093664768	62	4499
2026-01-29 03:39:52.96	281.27	13.08	-45.6	-47.1	19.6	0.00e+00	0	42	0	1094713344	62	4347
2026-01-29 03:39:53.97	281.15	12.99	-45.7	-47.1	19.5	0.00e+00	0	42	0	1096810496	62	4375
2026-01-29 03:39:54.97	281.04	12.91	-45.8	-47.4	19.3	0.00e+00	0	42	0	1098907648	62	4494
2026-01-29 03:39:55.98	280.92	12.83	-45.9	-47.5	19.2	0.00e+00	0	42	0	1101004800	62	4563
2026-01-29 03:39:56.99	280.81	12.75	-45.9	-47.4	19.2	0.00e+00	0	42	0	1103101952	62	4539
2026-01-29 03:39:58.00	280.69	12.67	-46.3	-47.9	18.7	0.00e+00	0	42	0	1105199104	63	4522
2026-01-29 03:39:59.01	280.58	12.59	-46.5	-48.2	18.5	0.00e+00	0	42	0	1106247680	63	4686
2026-01-29 03:40:00.02	280.47	12.51	-46.6	-48.4	18.3	0.00e+00	0	42	0	1108344832	63	4766
2026-01-29 03:40:01.03	280.35	12.43	-46.9	-48.7	17.8	0.00e+00	0	42	0	1110441984	64	4703
2026-01-29 03:40:02.04	280.24	12.36	-47.0	-48.9	17.7	0.00e+00	0	42	0	1112539136	64	4806
2026-01-29 03:40:03.05	280.13	12.28	-46.9	-48.8	17.9	0.00e+00	0	42	0	1113587712	64	4715
2026-01-29 03:40:04.05	280.02	12.20	-46.8	-48.6	18.0	0.00e+00	0	42	0	1115684864	64	4650
2026-01-29 03:40:05.06	279.91	12.12	-46.6	-48.3	18.2	0.00e+00	0	42	0	1117782016	64	4480
2026-01-29 03:40:06.06	279.80	12.04	-46.3	-48.0	18.5	0.00e+00	0	42	0	1119879168	64	4334
2026-01-29 03:40:07.07	279.69	11.96	-46.2	-47.8	18.7	0.00e+00	0	42	0	1121976320	64	4206
2026-01-29 03:40:08.07	279.59	11.88	-45.9	-47.5	19.1	0.00e+00	0	42	0	1123024896	63	4309
2026-01-29 03:40:09.08	279.48	11.81	-45.7	-47.1	19.4	0.00e+00	0	42	0	1125122048	63	4141
2026-01-29 03:40:10.09	279.37	11.73	-45.6	-47.1	19.5	0.00e+00	0	42	0	1127219200	63	4100
2026-01-29 03:40:11.10	279.27	11.65	-45.4	-46.8	19.7	0.00e+00	0	42	0	1129316352	62	4236
2026-01-29 03:40:12.10	279.16	11.57	-45.5	-46.9	19.6	0.00e+00	0	42	0	1131413504	62	4275
2026-01-29 03:40:13.11	279.06	11.49	-45.4	-46.9	19.6	0.00e+00	0	42	0	1133510656	62	4246
2026-01-29 03:40:14.12	278.95	11.42	-45.4	-46.9	19.6	0.00e+00	0	42	0	1134559232	62	4256
2026-01-29 03:40:15.13	278.85	11.34	-45.6	-47.1	19.4	0.00e+00	0	42	0	1136656384	62	4353
2026-01-29 03:40:16.13	278.75	11.26	-45.9	-47.5	19.0	0.00e+00	0	42	0	1138753536	62	4570
2026-01-29 03:40:17.14	278.64	11.19	-46.3	-48.0	18.6	0.00e+00	0	42	0	1140850688	63	4572
2026-01-29 03:40:18.15	278.54	11.11	-46.5	-48.3	18.3	0.00e+00	0	42	0	1141899264	63	4706
2026-01-29 03:40:19.16	278.44	11.03	-46.7	-48.6	17.9	0.00e+00	0	42	0	1143996416	64	4630
2026-01-29 03:40:20.16	278.34	10.95	-47.1	-49.1	17.4	0.00e+00	0	42	0	1146093568	64	4876
2026-01-29 03:40:21.17	278.24	10.88	-47.2	-49.3	17.2	0.00e+00	0	42	0	1148190720	64	4999
2026-01-29 03:40:22.17	278.14	10.80	-47.4	-49.5	17.0	0.00e+00	0	42	0	1150287872	65	4867
2026-01-29 03:40:23.18	278.04	10.73	-47.6	-49.8	16.7	0.00e+00	0	42	0	1151336448	65	5022
2026-01-29 03:40:24.19	277.94	10.65	-47.7	-50.0	16.5	0.00e+00	0	42	0	1153433600	65	5101
2026-01-29 03:40:25.20	277.84	10.57	-47.7	-49.9	16.6	0.00e+00	0	42	0	1155530752	66	4813
2026-01-29 03:40:26.21	277.74	10.50	-47.7	-50.0	16.5	0.00e+00	0	42	0	1157627904	66	4851
2026-01-29 03:40:27.21	277.65	10.42	-47.8	-50.1	16.4	0.00e+00	0	42	0	1159725056	66	4888
2026-01-29 03:40:28.22	277.55	10.35	-47.8	-50.0	16.4	0.00e+00	0	42	0	1161822208	66	4857
2026-01-29 03:40:29.23	277.45	10.27	-47.7	-50.0	16.5	0.00e+00	0	42	0	1162870784	66	4829
2026-01-29 03:40:30.24	277.36	10.20	-47.6	-49.7	16.7	0.00e+00	0	42	0	1164967936	66	4701
2026-01-29 03:40:31.25	277.26	10.12	-47.5	-49.7	16.8	0.00e+00	0	42	0	1167065088	66	4683
2026-01-29 03:40:32.25	277.17	10.05	-47.5	-49.7	16.8	0.00e+00	0	42	0	1169162240	66	4657
2026-01-29 03:40:33.26	277.07	9.97	-47.4	-49.5	16.9	0.00e+00	0	42	0	1170210816	66	4593
2026-01-29 03:40:34.27	276.98	9.90	-47.4	-49.5	17.0	0.00e+00	0	42	0	1172307968	66	4547
2026-01-29 03:40:35.28	276.88	9.82	-47.5	-49.7	16.7	0.00e+00	0	42	0	1174405120	66	4697
2026-01-29 03:40:36.28	276.79	9.75	-47.2	-49.3	17.1	0.00e+00	0	42	0	1176502272	66	4476
2026-01-29 03:40:37.28	276.70	9.68	-47.4	-49.5	16.9	0.00e+00	0	42	0	1178599424	66	4590
2026-01-29 03:40:38.29	276.61	9.60	-47.4	-49.6	16.8	0.00e+00	0	42	0	1180696576	66	4625
2026-01-29 03:40:39.30	276.52	9.53	-47.3	-49.4	17.0	0.00e+00	0	42	0	1181745152	66	4509
2026-01-29 03:40:40.31	276.43	9.45	-47.1	-49.1	17.1	0.00e+00	0	42	0	1183842304	66	4377
2026-01-29 03:40:41.32	276.33	9.38	-47.6	-49.8	16.6	0.00e+00	0	42	0	1185939456	66	4710
2026-01-29 03:40:42.33	276.24	9.31	-47.7	-50.0	16.4	0.00e+00	0	42	0	1188036608	66	4835
2026-01-29 03:40:43.33	276.16	9.23	-47.6	-49.8	16.6	0.00e+00	0	42	0	1190133760	66	4724
2026-01-29 03:40:44.34	276.07	9.16	-47.7	-50.0	16.3	0.00e+00	0	42	0	1191182336	66	4857
2026-01-29 03:40:45.35	275.98	9.09	-47.9	-50.2	16.2	0.00e+00	0	42	0	1193279488	66	4959
2026-01-29 03:40:46.36	275.89	9.02	-47.9	-50.2	16.2	0.00e+00	0	42	0	1195376640	66	4971
2026-01-29 03:40:47.37	275.80	8.94	-48.0	-50.3	16.1	0.00e+00	0	42	0	1197473792	66	5024
2026-01-29 03:40:48.38	275.71	8.87	-48.0	-50.4	16.0	0.00e+00	0	42	0	1198522368	66	5090
2026-01-29 03:40:49.38	275.63	8.80	-47.9	-50.3	16.1	0.00e+00	0	42	0	1200619520	66	4993
2026-01-29 03:40:50.39	275.54	8.73	-47.9	-50.2	16.1	0.00e+00	0	42	0	1202716672	66	4983
2026-01-29 03:40:51.41	275.45	8.65	-47.9	-50.2	16.2	0.00e+00	0	42	0	1204813824	66	4952
2026-01-29 03:40:52.41	275.37	8.58	-47.5	-49.7	16.7	0.00e+00	0	42	0	1206910976	66	4673
2026-01-29 03:40:53.42	275.28	8.51	-47.4	-49.5	16.8	0.00e+00	0	42	0	1209008128	66	4572
2026-01-29 03:40:54.43	275.20	8.44	-47.4	-49.5	16.9	0.00e+00	0	42	0	1210056704	66	4555
2026-01-29 03:40:55.43	275.12	8.37	-46.9	-48.8	17.5	0.00e+00	0	42	0	1212153856	65	4470
2026-01-29 03:40:56.44	275.03	8.30	-46.4	-48.2	18.0	0.00e+00	0	42	0	1214251008	64	4409
2026-01-29 03:40:57.45	274.95	8.22	-46.5	-48.2	18.0	0.00e+00	0	42	0	1216348160	64	4421
2026-01-29 03:40:58.46	274.87	8.15	-46.5	-48.3	18.0	0.00e+00	0	42	0	1218445312	64	4446
