passes_logs/2026/01/29/R3.2S_Murmansk/R3.2S_Murmansk__20260129_100628_SUOMI_NPP_rec.log

#Pass ID: 20260129_100628_SUOMI NPP
#Satellite: SUOMI NPP
#Configuration: NPP
#almurnet v.1.7.20251203
#Start time: 2026-01-29 10:06:28

#Version: 2.2.20231116
#Station: R3.2S_Murmansk
#Location: 33.079688 lon 68.888172 lat
#TLE: 1 37849U 11061A   26028.91916408  .00000155  00000+0  94467-4 0  9990
#TLE: 2 37849  98.7824 330.8488 0002045  39.4457 320.6868 14.19531289738686

#Time	Az	El	Level	Level2	SNR	BER	BlckErr	Temp	State	Recorded	gain1	gain2
2026-01-29 10:06:28.52	163.91	2.01	-52.7	-67.6	3.8	1.49e+00	0	40	0	0	77	19498
2026-01-29 10:06:29.51	163.92	2.07	-52.2	-67.1	3.8	1.49e+00	0	40	104	0	75	20774
2026-01-29 10:06:30.52	163.94	2.14	-52.2	-67.2	3.8	1.49e+00	0	40	104	0	75	20816
2026-01-29 10:06:31.53	163.96	2.20	-52.2	-67.2	3.8	1.49e+00	0	40	104	0	75	20784
2026-01-29 10:06:32.54	163.98	2.26	-52.2	-67.1	3.8	1.49e+00	0	40	104	0	75	20701
2026-01-29 10:06:33.55	163.99	2.33	-52.2	-67.1	3.8	1.49e+00	0	40	104	0	75	20700
2026-01-29 10:06:34.56	164.01	2.40	-52.2	-67.1	3.8	1.49e+00	0	40	104	0	75	20707
2026-01-29 10:06:35.57	164.03	2.46	-52.2	-67.1	3.8	1.49e+00	0	40	104	0	75	20663
2026-01-29 10:06:36.58	164.05	2.53	-52.2	-67.1	3.8	1.49e+00	0	40	104	0	75	20720
2026-01-29 10:06:37.59	164.06	2.59	-52.2	-67.1	3.8	1.49e+00	0	40	104	0	75	20685
2026-01-29 10:06:38.59	164.08	2.66	-52.2	-67.1	3.8	1.49e+00	0	40	104	0	75	20692
2026-01-29 10:06:39.60	164.10	2.72	-52.2	-67.1	3.8	1.49e+00	0	40	104	0	75	20672
2026-01-29 10:06:40.61	164.12	2.79	-52.2	-67.0	3.8	1.49e+00	0	40	104	0	75	20451
2026-01-29 10:06:41.62	164.13	2.86	-52.2	-66.9	3.8	1.49e+00	0	40	104	0	75	20227
2026-01-29 10:06:42.62	164.15	2.92	-52.1	-66.7	3.8	1.49e+00	0	40	104	0	75	19643
2026-01-29 10:06:43.63	164.17	2.99	-52.1	-66.5	3.8	1.49e+00	0	40	104	0	75	19273
2026-01-29 10:06:44.64	164.19	3.05	-52.1	-66.3	3.8	1.49e+00	0	40	104	0	75	18770
2026-01-29 10:06:45.65	164.21	3.12	-52.1	-66.2	3.8	1.49e+00	0	40	104	0	75	18575
2026-01-29 10:06:46.66	164.22	3.19	-52.1	-66.0	3.8	1.49e+00	0	40	104	0	75	18254
2026-01-29 10:06:47.66	164.24	3.26	-52.1	-66.2	3.8	1.49e+00	0	40	104	0	75	18542
2026-01-29 10:06:48.67	164.26	3.32	-52.1	-66.3	3.8	1.49e+00	0	40	104	0	75	18886
2026-01-29 10:06:49.67	164.28	3.39	-52.1	-66.6	3.8	1.49e+00	0	40	104	0	75	19471
2026-01-29 10:06:50.68	164.30	3.46	-52.1	-66.7	3.8	1.49e+00	0	40	104	0	75	19672
2026-01-29 10:06:51.69	164.31	3.53	-52.1	-66.2	3.8	1.49e+00	0	40	104	0	75	18613
2026-01-29 10:06:52.70	164.33	3.59	-52.0	-64.9	3.9	1.49e+00	0	40	104	0	75	15974
2026-01-29 10:06:53.71	164.35	3.66	-51.9	-63.4	4.2	1.42e+00	0	41	0	0	75	13444
2026-01-29 10:06:54.71	164.37	3.73	-51.7	-61.0	5.3	7.95e-01	0	40	0	1048576	75	10206
2026-01-29 10:06:55.72	164.39	3.80	-51.3	-58.6	7.1	3.19e-01	0	40	0	3145728	74	8270
2026-01-29 10:06:56.73	164.41	3.87	-50.9	-56.9	8.8	5.11e-02	0	41	0	5242880	73	7196
2026-01-29 10:06:57.74	164.43	3.94	-50.4	-55.4	10.4	1.04e-02	0	40	0	7340032	72	6398
2026-01-29 10:06:58.74	164.44	4.00	-49.9	-54.1	11.9	2.25e-03	0	41	0	8388608	71	5790
2026-01-29 10:06:59.75	164.46	4.07	-49.3	-52.8	13.2	4.42e-05	0	40	0	10485760	70	5281
2026-01-29 10:07:00.76	164.48	4.14	-48.9	-52.0	14.0	4.50e-06	0	40	0	12582912	69	5140
2026-01-29 10:07:01.77	164.50	4.21	-48.4	-51.1	14.8	0.00e+00	0	40	0	14680064	68	4895
2026-01-29 10:07:02.77	164.52	4.28	-48.0	-50.5	15.4	0.00e+00	0	40	0	16777216	67	4857
2026-01-29 10:07:03.78	164.54	4.35	-47.9	-50.3	15.6	0.00e+00	0	40	0	17825792	67	4742
2026-01-29 10:07:04.79	164.56	4.42	-47.5	-49.8	16.2	0.00e+00	0	40	0	19922944	67	4445
2026-01-29 10:07:05.80	164.58	4.49	-47.2	-49.3	16.6	0.00e+00	0	40	0	22020096	66	4461
2026-01-29 10:07:06.81	164.60	4.56	-47.5	-49.8	16.1	0.00e+00	0	40	0	24117248	66	4737
2026-01-29 10:07:07.81	164.62	4.63	-47.7	-50.0	15.9	0.00e+00	0	41	0	25165824	66	4869
2026-01-29 10:07:08.82	164.64	4.70	-48.2	-50.9	15.1	0.00e+00	0	41	0	27262976	66	5352
2026-01-29 10:07:09.83	164.66	4.78	-48.2	-50.9	15.1	0.00e+00	0	41	0	29360128	66	5352
2026-01-29 10:07:10.83	164.68	4.85	-48.8	-51.9	14.1	0.00e+00	0	41	0	31457280	68	5354
2026-01-29 10:07:11.84	164.70	4.92	-49.3	-52.8	13.3	3.00e-06	0	41	0	33554432	69	5597
2026-01-29 10:07:12.85	164.72	4.99	-49.8	-53.9	12.0	1.95e-04	0	41	0	35651584	70	6032
2026-01-29 10:07:13.86	164.74	5.06	-50.6	-55.8	10.1	2.21e-03	0	41	0	36700160	71	7087
2026-01-29 10:07:14.87	164.76	5.13	-50.8	-56.5	9.2	1.39e-02	0	41	0	38797312	72	7284
2026-01-29 10:07:15.87	164.78	5.20	-52.0	-64.1	4.1	5.56e-02	20	41	0	40894464	74	15499
2026-01-29 10:07:16.88	164.80	5.28	-50.0	-54.1	11.9	6.84e-02	0	41	0	40894464	71	5850
2026-01-29 10:07:17.89	164.82	5.35	-47.5	-49.7	16.4	1.90e-05	0	41	0	42991616	67	4418
2026-01-29 10:07:18.90	164.84	5.42	-52.1	-65.4	3.9	3.00e-06	42	41	0	44040192	74	17930
2026-01-29 10:07:19.91	164.86	5.50	-47.6	-49.9	15.7	9.54e-01	0	41	104	44040192	67	4506
2026-01-29 10:07:20.92	164.88	5.57	-47.3	-49.4	16.7	0.00e+00	0	40	0	45088768	66	4527
2026-01-29 10:07:21.93	164.90	5.64	-47.3	-49.5	16.6	0.00e+00	0	41	0	47185920	66	4559
2026-01-29 10:07:22.93	164.92	5.71	-47.3	-49.4	16.7	0.00e+00	0	41	0	49283072	66	4535
2026-01-29 10:07:23.94	164.94	5.79	-47.1	-49.2	17.0	0.00e+00	0	41	0	51380224	66	4395
2026-01-29 10:07:24.94	164.96	5.86	-47.1	-49.1	17.0	0.00e+00	0	41	0	52428800	66	4375
2026-01-29 10:07:25.95	164.98	5.94	-47.1	-49.1	17.0	0.00e+00	0	41	0	54525952	66	4366
2026-01-29 10:07:26.96	165.01	6.01	-47.0	-49.0	17.1	0.00e+00	0	41	0	56623104	65	4584
2026-01-29 10:07:27.97	165.03	6.09	-47.1	-49.1	17.1	0.00e+00	0	41	0	58720256	65	4641
2026-01-29 10:07:28.97	165.05	6.16	-46.9	-48.8	17.4	0.00e+00	0	41	0	59768832	65	4453
2026-01-29 10:07:29.98	165.07	6.23	-46.7	-48.6	17.6	0.00e+00	0	41	0	61865984	65	4355
2026-01-29 10:07:30.98	165.09	6.31	-46.6	-48.5	17.7	0.00e+00	0	41	0	63963136	65	4301
2026-01-29 10:07:31.99	165.11	6.38	-46.8	-48.7	17.5	0.00e+00	0	41	0	66060288	65	4420
2026-01-29 10:07:33.00	165.13	6.46	-46.6	-48.4	17.8	0.00e+00	0	41	0	68157440	65	4273
2026-01-29 10:07:34.01	165.16	6.54	-46.4	-48.2	18.0	0.00e+00	0	41	0	69206016	64	4416
2026-01-29 10:07:35.01	165.18	6.61	-46.5	-48.3	17.9	0.00e+00	0	41	0	71303168	64	4468
2026-01-29 10:07:36.02	165.20	6.69	-46.4	-48.2	18.0	0.00e+00	0	41	0	73400320	64	4414
2026-01-29 10:07:37.03	165.22	6.77	-46.3	-48.0	18.1	0.00e+00	0	41	0	75497472	64	4324
2026-01-29 10:07:38.04	165.24	6.84	-46.5	-48.3	18.0	0.00e+00	0	41	0	77594624	64	4446
2026-01-29 10:07:39.05	165.27	6.92	-46.7	-48.5	17.7	0.00e+00	0	41	0	79691776	64	4582
2026-01-29 10:07:40.06	165.29	7.00	-46.5	-48.2	18.0	0.00e+00	0	41	0	80740352	64	4421
2026-01-29 10:07:41.06	165.31	7.07	-46.4	-48.2	18.0	0.00e+00	0	41	0	82837504	64	4421
2026-01-29 10:07:42.07	165.33	7.15	-46.4	-48.1	18.2	0.00e+00	0	41	0	84934656	64	4361
2026-01-29 10:07:43.08	165.36	7.23	-46.3	-48.0	18.2	0.00e+00	0	41	0	87031808	64	4328
2026-01-29 10:07:44.08	165.38	7.31	-46.3	-48.1	18.2	0.00e+00	0	41	0	88080384	64	4347
2026-01-29 10:07:45.09	165.40	7.39	-46.3	-48.0	18.3	0.00e+00	0	41	0	90177536	64	4328
2026-01-29 10:07:46.09	165.42	7.46	-46.4	-48.2	18.1	0.00e+00	0	41	0	92274688	64	4399
2026-01-29 10:07:47.10	165.45	7.54	-46.4	-48.1	18.2	0.00e+00	0	41	0	94371840	64	4365
2026-01-29 10:07:48.11	165.47	7.62	-46.2	-47.9	18.4	0.00e+00	0	41	0	96468992	64	4259
2026-01-29 10:07:49.12	165.49	7.70	-46.2	-47.9	18.5	0.00e+00	0	41	0	98566144	64	4244
2026-01-29 10:07:50.13	165.52	7.78	-46.1	-47.7	18.6	0.00e+00	0	41	0	99614720	64	4170
2026-01-29 10:07:51.14	165.54	7.86	-46.2	-47.8	18.5	0.00e+00	0	41	0	101711872	64	4232
2026-01-29 10:07:52.15	165.57	7.94	-46.1	-47.7	18.6	0.00e+00	0	41	0	103809024	64	4182
2026-01-29 10:07:53.15	165.59	8.02	-46.0	-47.6	18.8	0.00e+00	0	41	0	105906176	63	4386
2026-01-29 10:07:54.16	165.61	8.10	-46.1	-47.7	18.7	0.00e+00	0	41	0	108003328	63	4427
2026-01-29 10:07:55.17	165.64	8.18	-46.1	-47.8	18.6	0.00e+00	0	41	0	109051904	63	4446
2026-01-29 10:07:56.17	165.66	8.26	-46.1	-47.7	18.7	0.00e+00	0	41	0	111149056	63	4423
2026-01-29 10:07:57.18	165.68	8.34	-46.2	-47.8	18.6	0.00e+00	0	41	0	113246208	63	4493
2026-01-29 10:07:58.19	165.71	8.43	-45.9	-47.5	18.9	0.00e+00	0	41	0	115343360	63	4314
2026-01-29 10:07:59.19	165.73	8.51	-46.1	-47.6	18.8	0.00e+00	0	41	0	116391936	63	4378
2026-01-29 10:08:00.20	165.76	8.59	-46.1	-47.7	18.7	0.00e+00	0	41	0	118489088	63	4431
2026-01-29 10:08:01.21	165.78	8.67	-46.0	-47.6	18.9	0.00e+00	0	41	0	120586240	63	4357
2026-01-29 10:08:02.21	165.81	8.75	-46.2	-47.8	18.7	0.00e+00	0	41	0	122683392	63	4459
2026-01-29 10:08:03.22	165.83	8.84	-46.0	-47.6	18.9	0.00e+00	0	41	0	124780544	63	4362
2026-01-29 10:08:04.22	165.86	8.92	-46.1	-47.7	18.8	0.00e+00	0	41	0	126877696	63	4414
2026-01-29 10:08:05.23	165.88	9.00	-46.1	-47.7	18.8	0.00e+00	0	41	0	127926272	63	4421
2026-01-29 10:08:06.24	165.91	9.09	-46.2	-47.8	18.7	0.00e+00	0	41	0	130023424	63	4482
2026-01-29 10:08:07.24	165.93	9.17	-46.3	-47.9	18.6	0.00e+00	0	41	0	132120576	63	4516
2026-01-29 10:08:08.25	165.96	9.25	-46.4	-48.1	18.4	0.00e+00	0	41	0	134217728	63	4630
2026-01-29 10:08:09.26	165.98	9.34	-46.1	-47.7	18.9	0.00e+00	0	41	0	136314880	63	4403
2026-01-29 10:08:10.27	166.01	9.42	-45.8	-47.3	19.3	0.00e+00	0	41	0	137363456	63	4194
2026-01-29 10:08:11.28	166.04	9.51	-45.6	-47.1	19.4	0.00e+00	0	41	0	139460608	63	4103
2026-01-29 10:08:12.29	166.06	9.60	-45.7	-47.2	19.3	0.00e+00	0	41	0	141557760	63	4152
2026-01-29 10:08:13.29	166.09	9.68	-45.6	-47.0	19.5	0.00e+00	0	41	0	143654912	63	4075
2026-01-29 10:08:14.30	166.11	9.77	-45.7	-47.1	19.4	0.00e+00	0	41	0	144703488	63	4143
2026-01-29 10:08:15.31	166.14	9.85	-45.5	-46.9	19.6	0.00e+00	0	41	0	146800640	62	4254
2026-01-29 10:08:16.32	166.17	9.94	-45.4	-46.9	19.6	0.00e+00	0	41	0	148897792	62	4246
2026-01-29 10:08:17.32	166.19	10.03	-45.3	-46.7	19.7	0.00e+00	0	41	0	150994944	62	4182
2026-01-29 10:08:18.33	166.22	10.11	-45.4	-46.8	19.7	0.00e+00	0	41	0	153092096	62	4240
2026-01-29 10:08:19.34	166.25	10.20	-45.4	-46.8	19.7	0.00e+00	0	41	0	155189248	62	4228
2026-01-29 10:08:20.35	166.28	10.29	-45.4	-46.8	19.7	0.00e+00	0	41	0	156237824	62	4204
2026-01-29 10:08:21.35	166.30	10.38	-45.4	-46.9	19.6	0.00e+00	0	41	0	158334976	62	4243
2026-01-29 10:08:22.35	166.33	10.46	-45.4	-46.8	19.7	0.00e+00	0	41	0	160432128	62	4221
2026-01-29 10:08:23.36	166.36	10.55	-45.2	-46.6	19.9	0.00e+00	0	41	0	162529280	62	4115
2026-01-29 10:08:24.37	166.38	10.64	-45.3	-46.7	19.8	0.00e+00	0	41	0	164626432	62	4162
2026-01-29 10:08:25.38	166.41	10.73	-45.3	-46.7	19.8	0.00e+00	0	41	0	165675008	62	4169
2026-01-29 10:08:26.38	166.44	10.82	-45.2	-46.5	20.0	0.00e+00	0	41	0	167772160	62	4087
2026-01-29 10:08:27.39	166.47	10.91	-45.1	-46.5	20.1	0.00e+00	0	42	0	169869312	62	4052
2026-01-29 10:08:28.39	166.50	11.00	-45.1	-46.4	20.1	0.00e+00	0	41	0	171966464	62	4047
2026-01-29 10:08:29.40	166.53	11.09	-45.0	-46.3	20.2	0.00e+00	0	41	0	173015040	62	3987
2026-01-29 10:08:30.41	166.55	11.18	-45.0	-46.4	20.2	0.00e+00	0	41	0	175112192	62	4012
2026-01-29 10:08:31.41	166.58	11.27	-45.0	-46.3	20.2	0.00e+00	0	41	0	177209344	62	4003
2026-01-29 10:08:32.41	166.61	11.37	-45.1	-46.4	20.1	0.00e+00	0	42	0	179306496	62	4027
2026-01-29 10:08:33.42	166.64	11.46	-44.9	-46.2	20.3	0.00e+00	0	41	0	181403648	61	4188
2026-01-29 10:08:34.43	166.67	11.55	-44.9	-46.1	20.3	0.00e+00	0	41	0	183500800	61	4139
2026-01-29 10:08:35.44	166.70	11.64	-44.8	-46.1	20.4	0.00e+00	0	41	0	184549376	61	4110
2026-01-29 10:08:36.44	166.73	11.74	-44.6	-45.8	20.6	0.00e+00	0	41	0	186646528	61	3991
2026-01-29 10:08:37.45	166.76	11.83	-44.7	-45.9	20.5	0.00e+00	0	41	0	188743680	61	4048
2026-01-29 10:08:38.45	166.79	11.92	-44.6	-45.9	20.6	0.00e+00	0	41	0	190840832	61	4027
2026-01-29 10:08:39.46	166.82	12.02	-44.5	-45.7	20.8	0.00e+00	0	42	0	192937984	60	4169
2026-01-29 10:08:40.47	166.85	12.11	-44.4	-45.6	20.8	0.00e+00	0	41	0	193986560	60	4139
2026-01-29 10:08:41.48	166.88	12.21	-44.5	-45.7	20.8	0.00e+00	0	41	0	196083712	60	4183
2026-01-29 10:08:42.49	166.91	12.30	-44.4	-45.7	20.8	0.00e+00	0	41	0	198180864	60	4148
2026-01-29 10:08:43.49	166.94	12.40	-44.4	-45.6	20.8	0.00e+00	0	41	0	200278016	60	4140
2026-01-29 10:08:44.50	166.97	12.49	-44.2	-45.4	21.0	0.00e+00	0	42	0	201326592	60	4017
2026-01-29 10:08:45.51	167.00	12.59	-44.3	-45.5	20.9	0.00e+00	0	42	0	203423744	60	4097
2026-01-29 10:08:46.51	167.03	12.69	-44.4	-45.5	20.9	0.00e+00	0	42	0	205520896	60	4093
2026-01-29 10:08:47.52	167.06	12.78	-44.4	-45.5	20.9	0.00e+00	0	41	0	207618048	60	4098
2026-01-29 10:08:48.53	167.10	12.88	-44.2	-45.4	21.1	0.00e+00	0	41	0	209715200	60	4026
2026-01-29 10:08:49.54	167.13	12.98	-44.2	-45.4	21.0	0.00e+00	0	41	0	211812352	60	4030
2026-01-29 10:08:50.55	167.16	13.08	-44.3	-45.4	21.0	0.00e+00	0	42	0	212860928	60	4047
2026-01-29 10:08:51.55	167.19	13.17	-44.1	-45.2	21.2	0.00e+00	0	41	0	214958080	60	3957
2026-01-29 10:08:52.56	167.23	13.27	-44.1	-45.2	21.2	0.00e+00	0	41	0	217055232	60	3954
2026-01-29 10:08:53.56	167.26	13.37	-44.2	-45.4	21.1	0.00e+00	0	41	0	219152384	60	4017
2026-01-29 10:08:54.57	167.29	13.47	-44.1	-45.3	21.2	0.00e+00	0	41	0	221249536	60	3980
2026-01-29 10:08:55.58	167.32	13.57	-44.2	-45.4	21.1	0.00e+00	0	41	0	222298112	60	4009
2026-01-29 10:08:56.59	167.36	13.67	-44.3	-45.5	21.0	0.00e+00	0	41	0	224395264	60	4069
2026-01-29 10:08:57.59	167.39	13.77	-44.3	-45.4	21.1	0.00e+00	0	42	0	226492416	60	4041
2026-01-29 10:08:58.60	167.42	13.88	-44.6	-45.8	20.8	0.00e+00	0	42	0	228589568	60	4220
2026-01-29 10:08:59.60	167.46	13.98	-44.1	-45.3	21.2	0.00e+00	0	42	0	229638144	60	3976
2026-01-29 10:09:00.61	167.49	14.08	-44.2	-45.3	21.2	0.00e+00	0	42	0	231735296	60	3991
2026-01-29 10:09:01.62	167.53	14.18	-44.0	-45.1	21.4	0.00e+00	0	42	0	233832448	60	3903
2026-01-29 10:09:02.62	167.56	14.28	-44.2	-45.4	21.1	0.00e+00	0	42	0	235929600	60	4017
2026-01-29 10:09:03.63	167.59	14.39	-44.1	-45.3	21.2	0.00e+00	0	41	0	238026752	60	3969
2026-01-29 10:09:04.64	167.63	14.49	-44.3	-45.5	21.1	0.00e+00	0	41	0	240123904	60	4055
2026-01-29 10:09:05.65	167.66	14.60	-44.1	-45.3	21.2	0.00e+00	0	41	0	241172480	60	3970
2026-01-29 10:09:06.66	167.70	14.70	-44.2	-45.3	21.2	0.00e+00	0	42	0	243269632	60	3983
2026-01-29 10:09:07.66	167.73	14.81	-44.3	-45.4	21.4	0.00e+00	0	41	0	245366784	59	4287
2026-01-29 10:09:08.67	167.77	14.91	-44.5	-45.6	21.2	0.00e+00	0	41	0	247463936	59	4374
2026-01-29 10:09:09.67	167.81	15.02	-44.6	-45.8	21.1	0.00e+00	0	41	0	249561088	59	4451
2026-01-29 10:09:10.68	167.84	15.13	-44.5	-45.6	21.2	0.00e+00	0	42	0	250609664	59	4391
2026-01-29 10:09:11.69	167.88	15.23	-44.5	-45.7	21.2	0.00e+00	0	41	0	252706816	59	4407
2026-01-29 10:09:12.69	167.92	15.34	-44.6	-45.7	21.1	0.00e+00	0	41	0	254803968	59	4439
2026-01-29 10:09:13.70	167.95	15.45	-44.5	-45.7	21.2	0.00e+00	0	41	0	256901120	59	4396
2026-01-29 10:09:14.70	167.99	15.56	-44.5	-45.6	21.2	0.00e+00	0	41	0	257949696	59	4372
2026-01-29 10:09:15.71	168.03	15.67	-44.4	-45.5	20.9	0.00e+00	0	41	0	260046848	60	4096
2026-01-29 10:09:16.72	168.06	15.77	-44.5	-45.7	20.9	0.00e+00	0	42	0	262144000	60	4164
2026-01-29 10:09:17.73	168.10	15.89	-44.5	-45.7	20.9	0.00e+00	0	42	0	264241152	60	4183
2026-01-29 10:09:18.74	168.14	16.00	-44.5	-45.6	20.9	0.00e+00	0	41	0	266338304	60	4145
2026-01-29 10:09:19.74	168.18	16.11	-44.7	-45.9	20.7	0.00e+00	0	41	0	268435456	60	4273
2026-01-29 10:09:20.75	168.22	16.22	-44.6	-45.8	20.8	0.00e+00	0	42	0	269484032	60	4230
2026-01-29 10:09:21.76	168.26	16.33	-44.7	-45.9	20.7	0.00e+00	0	41	0	271581184	60	4276
2026-01-29 10:09:22.77	168.30	16.44	-44.8	-46.1	20.6	0.00e+00	0	42	0	273678336	60	4345
2026-01-29 10:09:23.77	168.34	16.55	-44.8	-46.1	20.6	0.00e+00	0	42	0	275775488	60	4351
2026-01-29 10:09:24.78	168.37	16.67	-44.8	-46.1	20.6	0.00e+00	0	41	0	277872640	60	4364
2026-01-29 10:09:25.78	168.41	16.78	-44.9	-46.2	20.6	0.00e+00	0	42	0	278921216	60	4407
2026-01-29 10:09:26.79	168.45	16.90	-44.9	-46.2	20.5	0.00e+00	0	42	0	281018368	60	4409
2026-01-29 10:09:27.80	168.50	17.01	-44.9	-46.2	20.4	0.00e+00	0	41	0	283115520	60	4422
2026-01-29 10:09:28.81	168.54	17.13	-45.1	-46.4	20.3	0.00e+00	0	42	0	285212672	60	4510
2026-01-29 10:09:29.81	168.58	17.24	-45.1	-46.4	20.3	0.00e+00	0	42	0	286261248	60	4508
2026-01-29 10:09:30.82	168.62	17.36	-45.1	-46.3	20.4	0.00e+00	0	41	0	288358400	60	4484
2026-01-29 10:09:31.82	168.66	17.48	-45.2	-46.5	20.3	0.00e+00	0	42	0	290455552	60	4549
2026-01-29 10:09:32.83	168.70	17.59	-45.2	-46.6	20.2	0.00e+00	0	42	0	292552704	61	4344
2026-01-29 10:09:33.83	168.74	17.71	-45.1	-46.4	20.3	0.00e+00	0	41	0	294649856	61	4266
2026-01-29 10:09:34.84	168.79	17.83	-45.2	-46.5	20.2	0.00e+00	0	42	0	296747008	61	4323
2026-01-29 10:09:35.84	168.83	17.95	-45.3	-46.6	20.2	0.00e+00	0	42	0	297795584	61	4359
2026-01-29 10:09:36.85	168.87	18.07	-45.3	-46.6	20.2	0.00e+00	0	41	0	299892736	61	4365
2026-01-29 10:09:37.86	168.92	18.19	-45.5	-46.8	19.9	0.00e+00	0	42	0	301989888	61	4479
2026-01-29 10:09:38.87	168.96	18.31	-45.5	-46.9	19.9	0.00e+00	0	42	0	304087040	61	4504
2026-01-29 10:09:39.87	169.00	18.43	-45.6	-47.0	19.8	0.00e+00	0	42	0	306184192	61	4569
2026-01-29 10:09:40.88	169.05	18.56	-45.6	-47.0	19.7	0.00e+00	0	41	0	307232768	62	4339
2026-01-29 10:09:41.89	169.09	18.68	-45.8	-47.2	19.7	0.00e+00	0	42	0	309329920	62	4406
2026-01-29 10:09:42.89	169.14	18.80	-45.7	-47.1	19.7	0.00e+00	0	41	0	311427072	62	4366
2026-01-29 10:09:43.90	169.18	18.93	-46.0	-47.4	19.4	0.00e+00	0	42	0	313524224	62	4541
2026-01-29 10:09:44.91	169.23	19.05	-45.8	-47.3	19.6	0.00e+00	0	42	0	315621376	62	4456
2026-01-29 10:09:45.91	169.28	19.18	-46.0	-47.5	19.3	0.00e+00	0	42	0	316669952	62	4585
2026-01-29 10:09:46.92	169.32	19.30	-45.8	-47.2	19.6	0.00e+00	0	42	0	318767104	62	4413
2026-01-29 10:09:47.93	169.37	19.43	-46.0	-47.5	19.4	0.00e+00	0	42	0	320864256	62	4575
2026-01-29 10:09:48.94	169.42	19.56	-45.9	-47.4	19.5	0.00e+00	0	42	0	322961408	62	4512
2026-01-29 10:09:49.94	169.46	19.68	-46.1	-47.5	19.4	0.00e+00	0	42	0	325058560	62	4593
2026-01-29 10:09:50.95	169.51	19.81	-46.1	-47.5	19.4	0.00e+00	0	42	0	326107136	62	4593
2026-01-29 10:09:51.96	169.56	19.94	-45.9	-47.4	19.5	0.00e+00	0	42	0	328204288	62	4507
2026-01-29 10:09:52.96	169.61	20.07	-45.9	-47.3	19.6	0.00e+00	0	41	0	330301440	62	4471
2026-01-29 10:09:53.97	169.66	20.20	-45.9	-47.3	19.5	0.00e+00	0	41	0	332398592	62	4479
2026-01-29 10:09:54.98	169.71	20.33	-45.8	-47.2	19.7	0.00e+00	0	42	0	334495744	62	4395
2026-01-29 10:09:55.99	169.76	20.47	-45.6	-47.0	19.9	0.00e+00	0	41	0	335544320	62	4307
2026-01-29 10:09:56.99	169.81	20.60	-45.5	-46.8	20.0	0.00e+00	0	42	0	337641472	62	4233
2026-01-29 10:09:58.00	169.86	20.73	-45.5	-46.9	20.0	0.00e+00	0	42	0	339738624	62	4245
2026-01-29 10:09:59.01	169.91	20.86	-45.6	-46.9	19.9	0.00e+00	0	42	0	341835776	62	4277
2026-01-29 10:10:00.02	169.96	21.00	-45.4	-46.8	20.0	0.00e+00	0	41	0	343932928	62	4204
2026-01-29 10:10:01.03	170.01	21.13	-45.4	-46.8	20.0	0.00e+00	0	42	0	344981504	62	4204
2026-01-29 10:10:02.04	170.06	21.27	-45.5	-46.8	20.1	0.00e+00	0	42	0	347078656	62	4211
2026-01-29 10:10:03.04	170.12	21.41	-45.8	-47.2	19.7	0.00e+00	0	42	0	349175808	62	4431
2026-01-29 10:10:04.05	170.17	21.54	-45.6	-46.9	19.9	0.00e+00	0	41	0	351272960	62	4289
2026-01-29 10:10:05.06	170.22	21.68	-45.7	-47.1	19.7	0.00e+00	0	42	0	353370112	62	4377
2026-01-29 10:10:06.06	170.28	21.82	-45.7	-47.1	19.8	0.00e+00	0	41	0	354418688	62	4362
2026-01-29 10:10:07.07	170.33	21.96	-45.7	-47.1	19.7	0.00e+00	0	41	0	356515840	62	4379
2026-01-29 10:10:08.07	170.39	22.10	-45.8	-47.2	19.7	0.00e+00	0	42	0	358612992	62	4417
2026-01-29 10:10:09.08	170.44	22.24	-45.5	-46.8	20.1	0.00e+00	0	41	0	360710144	62	4210
2026-01-29 10:10:10.07	170.50	22.38	-45.6	-47.0	19.9	0.00e+00	0	41	0	362807296	62	4302
2026-01-29 10:10:11.08	170.55	22.52	-45.6	-47.0	19.9	0.00e+00	0	42	0	363855872	62	4318
2026-01-29 10:10:12.09	170.61	22.67	-45.6	-47.0	19.9	0.00e+00	0	42	0	365953024	62	4327
2026-01-29 10:10:13.10	170.67	22.81	-45.6	-47.0	19.9	0.00e+00	0	41	0	368050176	62	4302
2026-01-29 10:10:14.11	170.73	22.96	-45.5	-46.8	20.0	0.00e+00	0	42	0	370147328	62	4242
2026-01-29 10:10:15.11	170.78	23.10	-45.6	-47.0	19.9	0.00e+00	0	42	0	372244480	62	4319
2026-01-29 10:10:16.12	170.84	23.25	-45.6	-47.0	19.9	0.00e+00	0	41	0	373293056	62	4338
2026-01-29 10:10:17.13	170.90	23.40	-45.7	-47.1	19.8	0.00e+00	0	42	0	375390208	62	4345
2026-01-29 10:10:18.14	170.96	23.55	-45.7	-47.0	19.8	0.00e+00	0	41	0	377487360	62	4337
2026-01-29 10:10:19.14	171.02	23.69	-45.7	-47.1	19.8	0.00e+00	0	42	0	379584512	62	4365
2026-01-29 10:10:20.15	171.08	23.84	-45.6	-47.0	19.9	0.00e+00	0	41	0	381681664	62	4312
2026-01-29 10:10:21.16	171.15	24.00	-45.7	-47.1	19.8	0.00e+00	0	42	0	382730240	62	4385
2026-01-29 10:10:22.17	171.21	24.15	-45.6	-47.0	19.9	0.00e+00	0	42	0	384827392	62	4315
2026-01-29 10:10:23.17	171.27	24.30	-45.5	-46.8	20.1	0.00e+00	0	42	0	386924544	62	4232
2026-01-29 10:10:24.17	171.33	24.45	-45.2	-46.5	20.4	0.00e+00	0	41	0	389021696	62	4092
2026-01-29 10:10:25.19	171.40	24.61	-45.4	-46.7	20.2	0.00e+00	0	41	0	391118848	62	4166
2026-01-29 10:10:26.19	171.46	24.76	-45.0	-46.3	20.6	0.00e+00	0	42	0	392167424	62	3960
2026-01-29 10:10:27.20	171.53	24.92	-45.0	-46.3	20.5	0.00e+00	0	42	0	394264576	61	4199
2026-01-29 10:10:28.21	171.59	25.07	-45.1	-46.3	20.5	0.00e+00	0	42	0	396361728	61	4235
2026-01-29 10:10:29.21	171.66	25.23	-44.9	-46.2	20.7	0.00e+00	0	41	0	398458880	61	4152
2026-01-29 10:10:30.22	171.72	25.39	-44.8	-46.0	20.8	0.00e+00	0	41	0	400556032	61	4092
2026-01-29 10:10:31.23	171.79	25.55	-44.7	-45.9	20.9	0.00e+00	0	41	0	401604608	61	4020
2026-01-29 10:10:32.24	171.86	25.71	-44.7	-45.9	20.9	0.00e+00	0	42	0	403701760	61	4042
2026-01-29 10:10:33.24	171.93	25.87	-45.0	-46.2	20.7	0.00e+00	0	41	0	405798912	61	4155
2026-01-29 10:10:34.25	172.00	26.03	-44.6	-45.8	21.0	0.00e+00	0	42	0	407896064	61	3979
2026-01-29 10:10:35.26	172.07	26.20	-44.8	-45.9	20.9	0.00e+00	0	42	0	409993216	61	4051
2026-01-29 10:10:36.26	172.14	26.36	-44.4	-45.5	21.3	0.00e+00	0	42	0	411041792	60	4081
2026-01-29 10:10:37.27	172.21	26.53	-44.5	-45.6	21.1	0.00e+00	0	42	0	413138944	60	4140
2026-01-29 10:10:38.28	172.28	26.69	-44.5	-45.6	21.2	0.00e+00	0	42	0	415236096	60	4137
2026-01-29 10:10:39.29	172.36	26.86	-44.5	-45.6	21.2	0.00e+00	0	41	0	417333248	60	4127
2026-01-29 10:10:40.29	172.43	27.03	-44.5	-45.7	21.1	0.00e+00	0	41	0	419430400	60	4161
2026-01-29 10:10:41.30	172.50	27.20	-44.4	-45.5	21.3	0.00e+00	0	42	0	420478976	60	4091
2026-01-29 10:10:42.31	172.58	27.37	-44.6	-45.7	21.1	0.00e+00	0	41	0	422576128	60	4170
2026-01-29 10:10:43.31	172.65	27.54	-44.8	-45.9	20.9	0.00e+00	0	42	0	424673280	60	4274
2026-01-29 10:10:44.32	172.73	27.71	-44.7	-45.8	21.0	0.00e+00	0	42	0	426770432	60	4232
2026-01-29 10:10:45.33	172.81	27.88	-44.8	-46.0	20.9	0.00e+00	0	42	0	428867584	60	4295
2026-01-29 10:10:46.33	172.89	28.06	-44.4	-45.5	21.2	0.00e+00	0	42	0	429916160	60	4085
2026-01-29 10:10:47.34	172.97	28.23	-44.8	-45.9	20.9	0.00e+00	0	42	0	432013312	60	4288
2026-01-29 10:10:48.35	173.05	28.41	-44.4	-45.5	21.4	0.00e+00	0	42	0	434110464	60	4064
2026-01-29 10:10:49.36	173.13	28.59	-44.4	-45.5	21.3	0.00e+00	0	42	0	436207616	60	4085
2026-01-29 10:10:50.37	173.21	28.76	-44.8	-46.0	20.9	0.00e+00	0	42	0	438304768	60	4302
2026-01-29 10:10:51.37	173.29	28.94	-44.5	-45.6	21.2	0.00e+00	0	42	0	439353344	60	4139
2026-01-29 10:10:52.38	173.37	29.12	-44.8	-46.0	20.9	0.00e+00	0	42	0	441450496	60	4306
2026-01-29 10:10:53.39	173.46	29.31	-44.9	-46.1	20.8	0.00e+00	0	42	0	443547648	60	4357
2026-01-29 10:10:54.40	173.54	29.49	-45.1	-46.3	20.5	0.00e+00	0	42	0	445644800	60	4481
2026-01-29 10:10:55.41	173.63	29.67	-45.0	-46.2	20.7	0.00e+00	0	42	0	447741952	60	4417
2026-01-29 10:10:56.42	173.72	29.86	-45.1	-46.4	20.6	0.00e+00	0	41	0	449839104	61	4244
2026-01-29 10:10:57.43	173.80	30.05	-45.2	-46.5	20.4	0.00e+00	0	42	0	450887680	61	4337
2026-01-29 10:10:58.43	173.89	30.23	-45.2	-46.5	20.4	0.00e+00	0	42	0	452984832	61	4339
2026-01-29 10:10:59.44	173.98	30.42	-45.6	-46.9	20.2	0.00e+00	0	42	0	455081984	61	4541
2026-01-29 10:11:00.45	174.07	30.61	-45.1	-46.3	20.6	0.00e+00	0	42	0	457179136	61	4240
2026-01-29 10:11:01.46	174.17	30.80	-45.2	-46.5	20.5	0.00e+00	0	42	0	458227712	61	4312
2026-01-29 10:11:02.46	174.26	30.99	-45.6	-47.0	20.1	0.00e+00	0	42	0	460324864	61	4551
2026-01-29 10:11:03.47	174.35	31.19	-45.5	-46.8	20.2	0.00e+00	0	42	0	462422016	62	4198
2026-01-29 10:11:04.48	174.45	31.38	-45.9	-47.3	19.8	0.00e+00	0	42	0	464519168	62	4442
2026-01-29 10:11:05.49	174.54	31.58	-46.0	-47.5	19.6	0.00e+00	0	42	0	466616320	62	4547
2026-01-29 10:11:06.49	174.64	31.77	-46.1	-47.6	19.5	0.00e+00	0	41	0	467664896	63	4341
2026-01-29 10:11:07.50	174.74	31.97	-46.6	-48.2	18.9	0.00e+00	0	42	0	469762048	64	4399
2026-01-29 10:11:08.50	174.84	32.17	-46.8	-48.3	18.7	0.00e+00	0	42	0	471859200	64	4493
2026-01-29 10:11:09.51	174.94	32.37	-46.8	-48.4	18.5	0.00e+00	0	42	0	473956352	64	4537
2026-01-29 10:11:10.51	175.04	32.57	-46.7	-48.2	18.9	0.00e+00	0	41	0	476053504	64	4427
2026-01-29 10:11:11.52	175.14	32.78	-46.9	-48.5	18.5	0.00e+00	0	42	0	477102080	64	4591
2026-01-29 10:11:12.52	175.25	32.98	-46.8	-48.4	18.6	0.00e+00	0	42	0	479199232	64	4502
2026-01-29 10:11:13.53	175.35	33.19	-46.9	-48.6	18.6	0.00e+00	0	42	0	481296384	64	4607
2026-01-29 10:11:14.53	175.46	33.39	-46.9	-48.5	18.5	0.00e+00	0	42	0	483393536	64	4585
2026-01-29 10:11:15.54	175.57	33.60	-46.5	-48.0	19.0	0.00e+00	0	42	0	485490688	65	4081
2026-01-29 10:11:16.55	175.68	33.81	-46.5	-47.9	19.1	0.00e+00	0	41	0	486539264	64	4290
2026-01-29 10:11:17.55	175.79	34.02	-46.0	-47.3	19.6	0.00e+00	0	42	0	488636416	64	3987
2026-01-29 10:11:18.56	175.90	34.23	-45.9	-47.2	19.9	0.00e+00	0	42	0	490733568	63	4161
2026-01-29 10:11:19.57	176.02	34.45	-45.7	-46.9	20.2	0.00e+00	0	41	0	492830720	63	4044
2026-01-29 10:11:20.58	176.13	34.66	-45.4	-46.6	20.4	0.00e+00	0	42	0	494927872	62	4110
2026-01-29 10:11:21.58	176.25	34.88	-45.5	-46.8	20.3	0.00e+00	0	42	0	495976448	62	4200
2026-01-29 10:11:22.59	176.37	35.10	-45.5	-46.8	20.3	0.00e+00	0	42	0	498073600	62	4206
2026-01-29 10:11:23.60	176.49	35.32	-46.1	-47.5	19.6	0.00e+00	0	42	0	500170752	62	4562
2026-01-29 10:11:24.61	176.61	35.54	-45.9	-47.3	19.8	0.00e+00	0	42	0	502267904	62	4480
2026-01-29 10:11:25.61	176.73	35.76	-46.0	-47.4	19.7	0.00e+00	0	42	0	504365056	62	4524
2026-01-29 10:11:26.62	176.86	35.98	-46.4	-47.9	19.2	0.00e+00	0	41	0	506462208	64	4261
2026-01-29 10:11:27.63	176.98	36.21	-46.3	-47.8	19.2	0.00e+00	0	41	0	507510784	64	4242
2026-01-29 10:11:28.63	177.11	36.43	-46.7	-48.3	18.9	0.00e+00	0	42	0	509607936	64	4460
2026-01-29 10:11:29.64	177.24	36.66	-46.8	-48.4	18.7	0.00e+00	0	42	0	511705088	64	4544
2026-01-29 10:11:30.65	177.37	36.89	-47.0	-48.7	18.5	0.00e+00	0	42	0	513802240	64	4663
2026-01-29 10:11:31.65	177.50	37.12	-46.7	-48.3	18.8	0.00e+00	0	42	0	514850816	64	4483
2026-01-29 10:11:32.66	177.64	37.35	-47.2	-49.0	18.2	0.00e+00	0	41	0	516947968	65	4578
2026-01-29 10:11:33.66	177.77	37.58	-47.2	-48.9	18.3	0.00e+00	0	42	0	519045120	65	4525
2026-01-29 10:11:34.67	177.91	37.82	-47.0	-48.6	18.6	0.00e+00	0	42	0	521142272	65	4374
2026-01-29 10:11:35.68	178.06	38.05	-46.9	-48.5	18.6	0.00e+00	0	42	0	523239424	65	4335
2026-01-29 10:11:36.69	178.20	38.29	-46.4	-47.9	19.2	0.00e+00	0	42	0	524288000	64	4249
2026-01-29 10:11:37.69	178.34	38.53	-46.8	-48.4	18.7	0.00e+00	0	42	0	526385152	64	4499
2026-01-29 10:11:38.70	178.49	38.77	-47.1	-48.7	18.5	0.00e+00	0	41	0	528482304	64	4668
2026-01-29 10:11:39.71	178.64	39.01	-47.9	-49.8	17.4	0.00e+00	0	42	0	530579456	66	4718
2026-01-29 10:11:40.72	178.79	39.26	-48.0	-49.9	17.3	0.00e+00	0	42	0	532676608	66	4809
2026-01-29 10:11:41.72	178.94	39.50	-48.0	-49.9	17.2	0.00e+00	0	42	0	534773760	67	4535
2026-01-29 10:11:42.73	179.10	39.75	-48.0	-50.0	17.2	0.00e+00	0	42	0	535822336	67	4554
2026-01-29 10:11:43.74	179.26	40.00	-48.0	-49.9	17.4	0.00e+00	0	42	0	537919488	67	4519
2026-01-29 10:11:44.75	179.42	40.25	-47.9	-49.8	17.5	0.00e+00	0	42	0	540016640	67	4478
2026-01-29 10:11:45.76	179.58	40.50	-47.6	-49.4	17.8	0.00e+00	0	42	0	542113792	67	4270
2026-01-29 10:11:46.77	179.75	40.76	-48.0	-49.9	17.3	0.00e+00	0	42	0	543162368	67	4526
2026-01-29 10:11:47.78	179.92	41.01	-47.2	-48.9	18.3	0.00e+00	0	42	0	545259520	66	4250
2026-01-29 10:11:48.79	180.09	41.27	-47.5	-49.3	18.0	0.00e+00	0	42	0	547356672	66	4448
2026-01-29 10:11:49.79	180.26	41.52	-47.9	-49.7	17.7	0.00e+00	0	42	0	549453824	66	4703
2026-01-29 10:11:50.80	180.44	41.78	-47.3	-49.0	18.2	0.00e+00	0	42	0	551550976	66	4327
2026-01-29 10:11:51.80	180.61	42.04	-47.4	-49.1	18.1	0.00e+00	0	42	0	552599552	66	4375
2026-01-29 10:11:52.81	180.80	42.30	-47.1	-48.7	18.5	0.00e+00	0	41	0	554696704	66	4152
2026-01-29 10:11:53.82	180.98	42.57	-47.3	-49.0	18.1	0.00e+00	0	42	0	556793856	65	4597
2026-01-29 10:11:54.82	181.17	42.83	-47.1	-48.7	18.5	0.00e+00	0	42	0	558891008	65	4416
2026-01-29 10:11:55.83	181.36	43.10	-47.1	-48.7	18.5	0.00e+00	0	42	0	560988160	65	4434
2026-01-29 10:11:56.84	181.55	43.37	-47.3	-49.1	18.2	0.00e+00	0	42	0	563085312	65	4612
2026-01-29 10:11:57.85	181.75	43.64	-47.4	-49.2	18.1	0.00e+00	0	42	0	564133888	66	4397
2026-01-29 10:11:58.85	181.95	43.91	-47.9	-49.9	17.4	0.00e+00	0	42	0	566231040	66	4791
2026-01-29 10:11:59.86	182.15	44.18	-48.1	-50.1	17.2	0.00e+00	0	42	0	568328192	67	4649
2026-01-29 10:12:00.87	182.36	44.46	-47.6	-49.4	17.9	0.00e+00	0	42	0	570425344	67	4254
2026-01-29 10:12:01.88	182.57	44.74	-47.2	-48.9	18.3	0.00e+00	0	42	0	571473920	66	4271
2026-01-29 10:12:02.89	182.79	45.01	-47.2	-48.9	18.4	0.00e+00	0	42	0	573571072	65	4513
2026-01-29 10:12:03.89	183.00	45.29	-46.5	-48.0	19.2	0.00e+00	0	42	0	575668224	64	4315
2026-01-29 10:12:04.90	183.23	45.57	-46.4	-47.9	19.3	0.00e+00	0	42	0	577765376	64	4274
2026-01-29 10:12:05.91	183.45	45.85	-46.9	-48.6	18.6	0.00e+00	0	42	0	579862528	64	4613
2026-01-29 10:12:06.92	183.68	46.14	-46.4	-47.9	19.3	0.00e+00	0	42	0	581959680	64	4246
2026-01-29 10:12:07.92	183.91	46.42	-46.0	-47.4	19.7	0.00e+00	0	42	0	583008256	63	4248
2026-01-29 10:12:08.93	184.15	46.71	-45.9	-47.2	20.0	0.00e+00	0	42	0	585105408	63	4184
2026-01-29 10:12:09.93	184.39	47.00	-46.0	-47.3	19.9	0.00e+00	0	42	0	587202560	63	4235
2026-01-29 10:12:10.94	184.64	47.29	-46.1	-47.5	19.8	0.00e+00	0	42	0	589299712	63	4307
2026-01-29 10:12:11.95	184.89	47.58	-45.9	-47.2	20.0	0.00e+00	0	42	0	591396864	63	4181
2026-01-29 10:12:12.96	185.15	47.87	-46.1	-47.4	19.7	0.00e+00	0	42	0	592445440	63	4288
2026-01-29 10:12:13.96	185.41	48.16	-46.8	-48.4	18.8	0.00e+00	0	42	0	594542592	64	4510
2026-01-29 10:12:14.97	185.67	48.46	-46.6	-48.1	19.1	0.00e+00	0	42	0	596639744	64	4350
2026-01-29 10:12:15.98	185.95	48.75	-47.0	-48.7	18.6	0.00e+00	0	41	0	598736896	64	4661
2026-01-29 10:12:16.99	186.22	49.05	-46.9	-48.5	18.7	0.00e+00	0	41	0	599785472	64	4567
2026-01-29 10:12:18.00	186.50	49.35	-47.2	-49.0	18.2	0.00e+00	0	42	0	601882624	65	4549
2026-01-29 10:12:19.01	186.79	49.65	-47.0	-48.7	18.6	0.00e+00	0	42	0	603979776	65	4395
2026-01-29 10:12:20.02	187.08	49.96	-46.3	-47.8	19.4	0.00e+00	0	42	0	606076928	64	4217
2026-01-29 10:12:21.02	187.38	50.26	-45.7	-47.0	20.2	0.00e+00	0	42	0	608174080	63	4085
2026-01-29 10:12:22.03	187.68	50.56	-45.7	-47.0	20.1	0.00e+00	0	42	0	610271232	62	4339
2026-01-29 10:12:23.04	188.00	50.87	-45.2	-46.4	20.7	0.00e+00	0	42	0	611319808	62	4029
2026-01-29 10:12:24.05	188.31	51.17	-45.2	-46.4	20.7	0.00e+00	0	42	0	613416960	62	4044
2026-01-29 10:12:25.05	188.63	51.48	-45.0	-46.3	20.9	0.00e+00	0	42	0	615514112	61	4198
2026-01-29 10:12:26.06	188.96	51.79	-45.5	-46.9	20.3	0.00e+00	0	42	0	617611264	61	4495
2026-01-29 10:12:27.07	189.30	52.10	-45.8	-47.2	20.0	0.00e+00	0	42	0	619708416	62	4400
2026-01-29 10:12:28.08	189.64	52.41	-45.5	-46.8	20.4	0.00e+00	0	42	0	620756992	62	4231
2026-01-29 10:12:29.09	190.00	52.72	-45.6	-46.9	20.3	0.00e+00	0	41	0	622854144	62	4290
2026-01-29 10:12:30.10	190.35	53.03	-45.6	-46.9	20.3	0.00e+00	0	42	0	624951296	62	4283
2026-01-29 10:12:31.10	190.72	53.34	-44.8	-46.1	21.1	0.00e+00	0	42	0	627048448	61	4100
2026-01-29 10:12:32.11	191.09	53.66	-44.5	-45.7	21.4	0.00e+00	0	42	0	628097024	60	4178
2026-01-29 10:12:33.12	191.47	53.97	-44.3	-45.4	21.9	0.00e+00	0	42	0	630194176	59	4265
2026-01-29 10:12:34.13	191.87	54.29	-43.9	-45.0	22.3	0.00e+00	0	42	0	632291328	59	4058
2026-01-29 10:12:35.13	192.26	54.60	-44.0	-45.1	22.2	0.00e+00	0	42	0	634388480	59	4109
2026-01-29 10:12:36.14	192.67	54.92	-43.7	-44.7	22.5	0.00e+00	0	42	0	636485632	59	3934
2026-01-29 10:12:37.15	193.09	55.24	-43.7	-44.7	22.5	0.00e+00	0	42	0	638582784	59	3943
2026-01-29 10:12:38.16	193.51	55.56	-43.4	-44.4	22.7	0.00e+00	0	42	0	639631360	58	4023
2026-01-29 10:12:39.17	193.95	55.87	-43.6	-44.6	22.6	0.00e+00	0	42	0	641728512	58	4128
2026-01-29 10:12:40.17	194.39	56.19	-43.2	-44.2	23.0	0.00e+00	0	42	0	643825664	58	3943
2026-01-29 10:12:41.18	194.85	56.51	-43.3	-44.2	22.9	0.00e+00	0	42	0	645922816	58	3947
2026-01-29 10:12:42.19	195.31	56.83	-43.3	-44.3	22.8	0.00e+00	0	42	0	648019968	58	3984
2026-01-29 10:12:43.20	195.79	57.14	-43.4	-44.4	22.8	0.00e+00	0	42	0	649068544	58	4009
2026-01-29 10:12:44.21	196.28	57.46	-43.0	-43.9	23.2	0.00e+00	0	42	0	651165696	57	4036
2026-01-29 10:12:45.21	196.78	57.78	-42.7	-43.6	23.5	0.00e+00	0	42	0	653262848	57	3869
2026-01-29 10:12:46.22	197.29	58.10	-42.6	-43.5	23.5	0.00e+00	0	41	0	655360000	56	4082
2026-01-29 10:12:47.23	197.81	58.41	-43.1	-44.0	23.1	0.00e+00	0	42	0	657457152	57	4095
2026-01-29 10:12:48.24	198.35	58.73	-43.1	-44.0	23.1	0.00e+00	0	42	0	658505728	57	4079
2026-01-29 10:12:49.24	198.89	59.04	-43.0	-43.9	23.2	0.00e+00	0	42	0	660602880	57	4038
2026-01-29 10:12:50.25	199.46	59.36	-42.7	-43.6	23.5	0.00e+00	0	42	0	662700032	57	3886
2026-01-29 10:12:51.25	200.03	59.67	-42.8	-43.7	23.4	0.00e+00	0	42	0	664797184	57	3938
2026-01-29 10:12:52.26	200.62	59.98	-43.8	-44.9	22.4	0.00e+00	0	42	0	666894336	58	4249
2026-01-29 10:12:53.27	201.22	60.30	-44.1	-45.2	22.1	0.00e+00	0	42	0	667942912	59	4168
2026-01-29 10:12:54.28	201.84	60.61	-44.3	-45.5	21.7	0.00e+00	0	42	0	670040064	60	4066
2026-01-29 10:12:55.28	202.47	60.91	-44.3	-45.4	21.7	0.00e+00	0	42	0	672137216	60	4033
2026-01-29 10:12:56.29	203.12	61.22	-44.6	-45.8	21.4	0.00e+00	0	42	0	674234368	60	4216
2026-01-29 10:12:57.29	203.78	61.52	-44.9	-46.1	21.1	0.00e+00	0	42	0	676331520	60	4341
2026-01-29 10:12:58.30	204.46	61.83	-45.3	-46.6	20.7	0.00e+00	0	41	0	677380096	61	4352
2026-01-29 10:12:59.31	205.16	62.13	-44.7	-45.8	21.4	0.00e+00	0	42	0	679477248	61	3992
2026-01-29 10:13:00.31	205.87	62.43	-44.3	-45.5	21.9	0.00e+00	0	42	0	681574400	59	4292
2026-01-29 10:13:01.32	206.60	62.72	-43.4	-44.4	22.8	0.00e+00	0	42	0	683671552	58	4010
2026-01-29 10:13:02.32	207.35	63.01	-42.9	-43.9	23.2	0.00e+00	0	41	0	685768704	57	4013
2026-01-29 10:13:03.33	208.12	63.31	-43.2	-44.2	23.0	0.00e+00	0	42	0	686817280	57	4147
2026-01-29 10:13:04.34	208.91	63.59	-43.8	-44.8	22.6	0.00e+00	0	42	0	688914432	58	4232
2026-01-29 10:13:05.35	209.72	63.88	-44.0	-45.0	22.3	0.00e+00	0	42	0	691011584	58	4331
2026-01-29 10:13:06.36	210.55	64.16	-43.5	-44.4	22.8	0.00e+00	0	42	0	693108736	58	4048
2026-01-29 10:13:07.37	211.39	64.44	-43.3	-44.3	23.0	0.00e+00	0	42	0	695205888	58	3961
2026-01-29 10:13:08.37	212.26	64.71	-43.1	-44.0	23.2	0.00e+00	0	42	0	696254464	57	4064
2026-01-29 10:13:09.38	213.15	64.98	-43.1	-44.0	23.1	0.00e+00	0	42	0	698351616	57	4097
2026-01-29 10:13:10.39	214.06	65.24	-43.2	-44.2	23.0	0.00e+00	0	42	0	700448768	57	4149
2026-01-29 10:13:11.39	214.98	65.50	-43.3	-44.2	23.0	0.00e+00	0	42	0	702545920	57	4168
2026-01-29 10:13:12.40	215.93	65.75	-43.7	-44.7	22.5	0.00e+00	0	42	0	704643072	58	4182
2026-01-29 10:13:13.41	216.91	66.00	-43.6	-44.6	22.7	0.00e+00	0	42	0	705691648	58	4117
2026-01-29 10:13:14.41	217.90	66.24	-43.8	-44.8	22.5	0.00e+00	0	42	0	707788800	58	4211
2026-01-29 10:13:15.42	218.92	66.48	-44.2	-45.3	22.1	0.00e+00	0	42	0	709885952	59	4234
2026-01-29 10:13:16.43	219.96	66.71	-44.6	-45.7	21.7	0.00e+00	0	42	0	711983104	59	4425
2026-01-29 10:13:17.43	221.02	66.93	-44.4	-45.5	21.7	0.00e+00	0	42	0	714080256	60	4095
2026-01-29 10:13:18.44	222.11	67.15	-45.2	-46.4	20.9	0.00e+00	0	42	0	715128832	61	4267
2026-01-29 10:13:19.45	223.22	67.36	-45.7	-47.0	20.4	0.00e+00	0	42	0	717225984	62	4318
2026-01-29 10:13:20.45	224.34	67.56	-44.9	-46.0	21.3	0.00e+00	0	42	0	719323136	61	4060
2026-01-29 10:13:21.46	225.50	67.76	-44.5	-45.6	21.6	0.00e+00	0	42	0	721420288	61	3895
2026-01-29 10:13:22.47	226.67	67.95	-45.4	-46.6	20.8	0.00e+00	0	42	0	723517440	61	4372
2026-01-29 10:13:23.48	227.87	68.13	-46.4	-47.9	19.5	0.00e+00	0	42	0	724566016	64	4259
2026-01-29 10:13:24.49	229.09	68.30	-47.2	-48.9	18.7	0.00e+00	0	42	0	726663168	65	4521
2026-01-29 10:13:25.50	230.33	68.46	-47.0	-48.5	19.0	0.00e+00	0	42	0	728760320	65	4333
2026-01-29 10:13:26.50	231.58	68.61	-46.2	-47.6	19.8	0.00e+00	0	42	0	730857472	64	4100
2026-01-29 10:13:27.51	232.85	68.76	-46.5	-47.9	19.6	0.00e+00	0	41	0	732954624	63	4502
2026-01-29 10:13:28.52	234.15	68.89	-47.5	-49.2	18.2	0.00e+00	0	42	0	735051776	65	4682
2026-01-29 10:13:29.53	235.46	69.02	-47.3	-48.9	18.6	0.00e+00	0	42	0	736100352	66	4290
2026-01-29 10:13:30.54	236.79	69.13	-46.3	-47.7	19.8	0.00e+00	0	42	0	738197504	64	4185
2026-01-29 10:13:31.55	238.14	69.23	-47.6	-49.4	18.4	0.00e+00	0	42	0	740294656	65	4760
2026-01-29 10:13:32.56	239.49	69.33	-48.2	-50.1	17.4	0.00e+00	0	42	0	742391808	67	4638
2026-01-29 10:13:33.56	240.85	69.41	-47.9	-49.6	17.8	0.00e+00	0	42	0	743440384	67	4382
2026-01-29 10:13:34.57	242.23	69.48	-47.1	-48.7	18.7	0.00e+00	0	42	0	745537536	65	4426
2026-01-29 10:13:35.57	243.61	69.54	-46.1	-47.4	20.1	0.00e+00	0	42	0	747634688	63	4282
2026-01-29 10:13:36.58	245.01	69.59	-44.9	-46.0	21.2	0.00e+00	0	42	0	749731840	61	4093
2026-01-29 10:13:37.59	246.41	69.63	-44.3	-45.4	21.9	0.00e+00	0	42	0	751828992	60	4018
2026-01-29 10:13:38.60	247.82	69.66	-45.2	-46.4	21.0	0.00e+00	0	42	0	752877568	60	4499
2026-01-29 10:13:39.60	249.22	69.67	-45.0	-46.2	21.1	0.00e+00	0	42	0	754974720	61	4168
2026-01-29 10:13:40.61	250.64	69.68	-44.5	-45.5	21.8	0.00e+00	0	42	0	757071872	60	4089
2026-01-29 10:13:41.62	252.05	69.67	-44.4	-45.5	21.8	0.00e+00	0	42	0	759169024	60	4080
2026-01-29 10:13:42.63	253.46	69.65	-45.5	-46.7	20.7	0.00e+00	0	42	0	761266176	61	4434
2026-01-29 10:13:43.64	254.87	69.62	-46.2	-47.6	19.9	0.00e+00	0	42	0	763363328	63	4363
2026-01-29 10:13:44.65	256.28	69.58	-44.3	-45.4	21.8	0.00e+00	0	42	0	764411904	60	4012
2026-01-29 10:13:45.65	257.66	69.53	-43.8	-44.8	22.6	0.00e+00	0	42	0	766509056	59	3973
2026-01-29 10:13:46.66	259.05	69.46	-45.0	-46.1	21.2	0.00e+00	0	42	0	768606208	60	4377
2026-01-29 10:13:47.67	260.43	69.39	-46.2	-47.6	19.9	0.00e+00	0	42	0	770703360	63	4359
2026-01-29 10:13:48.67	261.78	69.30	-45.3	-46.5	20.9	0.00e+00	0	42	0	771751936	62	4085
2026-01-29 10:13:49.68	263.13	69.21	-45.0	-46.2	21.2	0.00e+00	0	42	0	773849088	61	4162
2026-01-29 10:13:50.69	264.47	69.10	-46.2	-47.6	20.0	0.00e+00	0	42	0	775946240	63	4347
2026-01-29 10:13:51.70	265.80	68.99	-46.2	-47.5	20.0	0.00e+00	0	42	0	778043392	63	4334
2026-01-29 10:13:52.71	267.11	68.86	-46.3	-47.6	19.8	0.00e+00	0	42	0	780140544	64	4109
2026-01-29 10:13:53.72	268.40	68.72	-46.9	-48.5	19.0	0.00e+00	0	42	0	782237696	64	4550
2026-01-29 10:13:54.73	269.67	68.58	-48.0	-49.9	17.7	0.00e+00	0	42	0	783286272	66	4801
2026-01-29 10:13:55.73	270.91	68.42	-47.7	-49.5	18.0	0.00e+00	0	42	0	785383424	67	4298
2026-01-29 10:13:56.74	272.14	68.26	-47.8	-49.6	18.0	0.00e+00	0	42	0	787480576	67	4382
2026-01-29 10:13:57.75	273.36	68.08	-47.3	-49.0	18.7	0.00e+00	0	42	0	789577728	66	4313
2026-01-29 10:13:58.75	274.54	67.90	-45.5	-46.7	20.7	0.00e+00	0	42	0	791674880	63	3953
2026-01-29 10:13:59.76	275.71	67.71	-45.1	-46.2	21.4	0.00e+00	0	42	0	792723456	61	4192
2026-01-29 10:14:00.77	276.85	67.52	-46.4	-47.8	19.8	0.00e+00	0	42	0	794820608	63	4487
2026-01-29 10:14:01.78	277.98	67.31	-45.8	-47.0	20.4	0.00e+00	0	42	0	796917760	63	4097
2026-01-29 10:14:02.78	279.07	67.10	-44.1	-45.1	22.0	0.00e+00	0	42	0	799014912	60	3892
2026-01-29 10:14:03.79	280.16	66.88	-44.2	-45.3	22.3	0.00e+00	0	42	0	800063488	59	4200
2026-01-29 10:14:04.80	281.22	66.65	-44.5	-45.6	21.7	0.00e+00	0	42	0	802160640	60	4106
2026-01-29 10:14:05.81	282.25	66.42	-44.6	-45.8	21.4	0.00e+00	0	42	0	804257792	60	4199
2026-01-29 10:14:06.81	283.26	66.19	-44.1	-45.2	22.0	0.00e+00	0	42	0	806354944	60	3926
2026-01-29 10:14:07.82	284.25	65.94	-42.8	-43.7	23.4	0.00e+00	0	42	0	808452096	57	3946
2026-01-29 10:14:08.83	285.22	65.69	-41.9	-42.7	24.2	0.00e+00	0	42	0	810549248	55	3928
2026-01-29 10:14:09.83	286.16	65.44	-42.3	-43.2	23.9	0.00e+00	0	42	0	811597824	55	4173
2026-01-29 10:14:10.84	287.08	65.18	-42.6	-43.5	23.6	0.00e+00	0	42	0	813694976	55	4299
2026-01-29 10:14:11.85	287.99	64.91	-42.4	-43.3	23.8	0.00e+00	0	42	0	815792128	55	4218
2026-01-29 10:14:12.86	288.87	64.64	-42.1	-42.9	24.0	0.00e+00	0	42	0	817889280	55	4047
2026-01-29 10:14:13.87	289.74	64.37	-42.6	-43.5	23.6	0.00e+00	0	42	0	819986432	55	4336
2026-01-29 10:14:14.87	290.57	64.09	-42.6	-43.5	23.6	0.00e+00	0	42	0	821035008	55	4299
2026-01-29 10:14:15.88	291.39	63.81	-42.7	-43.6	23.6	0.00e+00	0	42	0	823132160	56	4117
2026-01-29 10:14:16.89	292.20	63.53	-42.9	-43.9	23.4	0.00e+00	0	42	0	825229312	56	4254
2026-01-29 10:14:17.90	292.98	63.24	-42.6	-43.5	23.6	0.00e+00	0	42	0	827326464	56	4085
2026-01-29 10:14:18.90	293.74	62.95	-42.9	-43.8	23.5	0.00e+00	0	42	0	828375040	56	4198
2026-01-29 10:14:19.91	294.48	62.66	-44.4	-45.4	22.2	0.00e+00	0	42	0	830472192	59	4278
2026-01-29 10:14:20.92	295.21	62.36	-44.0	-45.1	22.4	0.00e+00	0	42	0	832569344	59	4104
2026-01-29 10:14:21.93	295.92	62.06	-43.9	-44.9	22.6	0.00e+00	0	42	0	834666496	59	4042
2026-01-29 10:14:22.94	296.62	61.76	-44.1	-45.1	22.5	0.00e+00	0	42	0	836763648	59	4129
2026-01-29 10:14:23.95	297.30	61.46	-44.5	-45.6	22.1	0.00e+00	0	42	0	838860800	59	4355
2026-01-29 10:14:24.96	297.96	61.15	-44.5	-45.6	21.7	0.00e+00	0	42	0	839909376	60	4132
2026-01-29 10:14:25.97	298.60	60.84	-44.5	-45.6	21.8	0.00e+00	0	42	0	842006528	60	4108
2026-01-29 10:14:26.98	299.23	60.53	-44.0	-45.1	22.2	0.00e+00	0	42	0	844103680	60	3869
2026-01-29 10:14:27.99	299.85	60.22	-44.1	-45.2	22.2	0.00e+00	0	42	0	846200832	59	4147
2026-01-29 10:14:28.99	300.44	59.91	-44.3	-45.4	21.9	0.00e+00	0	42	0	848297984	60	4025
2026-01-29 10:14:30.00	301.03	59.60	-44.5	-45.6	22.0	0.00e+00	0	42	0	849346560	59	4363
2026-01-29 10:14:31.00	301.59	59.29	-44.1	-45.1	22.3	0.00e+00	0	42	0	851443712	59	4130
2026-01-29 10:14:32.01	302.15	58.98	-43.8	-44.8	22.7	0.00e+00	0	42	0	853540864	59	3987
2026-01-29 10:14:33.01	302.69	58.66	-43.7	-44.7	22.8	0.00e+00	0	42	0	855638016	59	3930
2026-01-29 10:14:34.02	303.22	58.35	-43.1	-44.1	23.2	0.00e+00	0	42	0	857735168	58	3892
2026-01-29 10:14:35.03	303.74	58.03	-42.1	-42.9	24.2	0.00e+00	0	42	0	858783744	56	3801
2026-01-29 10:14:36.04	304.25	57.71	-41.1	-41.8	24.8	0.00e+00	0	42	0	860880896	54	3773
2026-01-29 10:14:37.05	304.75	57.40	-41.5	-42.4	24.5	0.00e+00	0	42	0	862978048	54	4007
2026-01-29 10:14:38.06	305.23	57.08	-42.0	-42.8	24.1	0.00e+00	0	42	0	865075200	54	4236
2026-01-29 10:14:39.07	305.71	56.76	-42.3	-43.2	23.8	0.00e+00	0	42	0	867172352	55	4177
2026-01-29 10:14:40.07	306.17	56.45	-42.7	-43.6	23.6	0.00e+00	0	42	0	868220928	55	4371
2026-01-29 10:14:41.08	306.62	56.13	-43.1	-44.1	23.2	0.00e+00	0	42	0	870318080	56	4366
2026-01-29 10:14:42.09	307.06	55.81	-41.8	-42.7	24.2	0.00e+00	0	42	0	872415232	55	3939
2026-01-29 10:14:43.09	307.49	55.50	-41.1	-41.8	24.8	0.00e+00	0	42	0	874512384	54	3776
2026-01-29 10:14:44.10	307.92	55.18	-41.2	-42.0	24.6	0.00e+00	0	42	0	876609536	53	4095
2026-01-29 10:14:45.11	308.33	54.86	-42.6	-43.5	23.6	0.00e+00	0	42	0	877658112	55	4333
2026-01-29 10:14:46.11	308.73	54.55	-43.3	-44.3	23.1	0.00e+00	0	42	0	879755264	57	4238
2026-01-29 10:14:47.12	309.13	54.24	-42.3	-43.2	23.9	0.00e+00	0	42	0	881852416	56	3941
2026-01-29 10:14:48.13	309.52	53.92	-41.8	-42.7	24.2	0.00e+00	0	42	0	883949568	55	3919
2026-01-29 10:14:49.13	309.89	53.61	-42.3	-43.2	23.8	0.00e+00	0	42	0	886046720	55	4157
2026-01-29 10:14:50.14	310.26	53.30	-42.6	-43.5	23.5	0.00e+00	0	42	0	887095296	55	4322
2026-01-29 10:14:51.15	310.63	52.99	-42.3	-43.2	23.9	0.00e+00	0	42	0	889192448	55	4148
2026-01-29 10:14:52.16	310.99	52.67	-42.7	-43.6	23.5	0.00e+00	0	42	0	891289600	55	4379
2026-01-29 10:14:53.17	311.33	52.36	-43.7	-44.7	22.7	0.00e+00	0	42	0	893386752	57	4439
2026-01-29 10:14:54.17	311.67	52.06	-43.9	-44.9	22.6	0.00e+00	0	42	0	895483904	58	4250
2026-01-29 10:14:55.19	312.01	51.74	-43.7	-44.7	22.7	0.00e+00	0	42	0	896532480	58	4173
2026-01-29 10:14:56.20	312.34	51.44	-43.4	-44.3	23.0	0.00e+00	0	42	0	898629632	58	4003
2026-01-29 10:14:57.20	312.66	51.13	-44.2	-45.2	22.3	0.00e+00	0	42	0	900726784	59	4167
2026-01-29 10:14:58.21	312.97	50.83	-45.6	-46.8	20.7	0.00e+00	0	42	0	902823936	61	4491
2026-01-29 10:14:59.22	313.28	50.52	-47.0	-48.7	18.8	0.00e+00	0	42	0	904921088	64	4695
2026-01-29 10:15:00.22	313.58	50.22	-47.5	-49.4	18.2	0.00e+00	0	42	0	905969664	66	4515
2026-01-29 10:15:01.23	313.88	49.92	-46.2	-47.7	19.7	0.00e+00	0	42	0	908066816	64	4154
2026-01-29 10:15:02.24	314.17	49.62	-45.2	-46.4	20.9	0.00e+00	0	42	0	910163968	62	4033
2026-01-29 10:15:03.25	314.46	49.32	-45.3	-46.5	20.9	0.00e+00	0	42	0	912261120	62	4089
2026-01-29 10:15:04.26	314.74	49.02	-46.6	-48.1	19.5	0.00e+00	0	42	0	914358272	63	4625
2026-01-29 10:15:05.27	315.01	48.72	-47.6	-49.4	18.1	0.00e+00	0	42	0	915406848	65	4795
2026-01-29 10:15:06.27	315.28	48.43	-46.3	-47.8	19.5	0.00e+00	0	42	0	917504000	64	4199
2026-01-29 10:15:07.28	315.54	48.14	-46.0	-47.3	20.2	0.00e+00	0	42	0	919601152	63	4218
2026-01-29 10:15:08.29	315.80	47.84	-46.2	-47.6	19.8	0.00e+00	0	42	0	921698304	63	4375
2026-01-29 10:15:09.29	316.06	47.55	-46.0	-47.4	20.0	0.00e+00	0	42	0	923795456	63	4243
2026-01-29 10:15:10.30	316.31	47.26	-44.9	-46.0	21.1	0.00e+00	0	42	0	924844032	61	4091
2026-01-29 10:15:11.31	316.55	46.98	-44.1	-45.1	22.3	0.00e+00	0	42	0	926941184	59	4127
2026-01-29 10:15:12.32	316.79	46.69	-43.5	-44.4	22.8	0.00e+00	0	42	0	929038336	59	3821
2026-01-29 10:15:13.33	317.03	46.40	-43.9	-44.9	22.5	0.00e+00	0	42	0	931135488	58	4272
2026-01-29 10:15:14.34	317.27	46.12	-44.4	-45.4	22.1	0.00e+00	0	42	0	933232640	59	4267
2026-01-29 10:15:15.34	317.49	45.84	-45.0	-46.1	21.2	0.00e+00	0	42	0	934281216	60	4363
2026-01-29 10:15:16.35	317.72	45.56	-45.9	-47.1	20.3	0.00e+00	0	42	0	936378368	62	4387
2026-01-29 10:15:17.36	317.94	45.28	-45.5	-46.8	20.6	0.00e+00	0	42	0	938475520	62	4208
2026-01-29 10:15:18.36	318.15	45.00	-45.0	-46.2	21.1	0.00e+00	0	42	0	940572672	62	3932
2026-01-29 10:15:19.37	318.37	44.72	-44.8	-45.9	21.4	0.00e+00	0	42	0	942669824	61	4036
2026-01-29 10:15:20.37	318.58	44.45	-44.3	-45.4	21.7	0.00e+00	0	42	0	943718400	60	4023
2026-01-29 10:15:21.38	318.78	44.18	-44.6	-45.6	21.9	0.00e+00	0	42	0	945815552	59	4374
2026-01-29 10:15:22.39	318.99	43.90	-44.4	-45.4	22.0	0.00e+00	0	42	0	947912704	59	4254
2026-01-29 10:15:23.39	319.18	43.64	-44.6	-45.7	21.8	0.00e+00	0	42	0	950009856	59	4393
2026-01-29 10:15:24.40	319.38	43.37	-45.3	-46.6	20.6	0.00e+00	0	42	0	952107008	61	4358
2026-01-29 10:15:25.41	319.57	43.10	-46.7	-48.3	19.2	0.00e+00	0	42	0	953155584	63	4745
2026-01-29 10:15:26.42	319.76	42.83	-47.1	-48.8	18.5	0.00e+00	0	42	0	955252736	65	4489
2026-01-29 10:15:27.42	319.95	42.57	-45.7	-47.0	20.2	0.00e+00	0	42	0	957349888	63	4082
2026-01-29 10:15:28.43	320.13	42.31	-44.2	-45.3	21.9	0.00e+00	0	42	0	959447040	60	3978
2026-01-29 10:15:29.43	320.31	42.05	-43.7	-44.6	22.7	0.00e+00	0	42	0	961544192	59	3900
2026-01-29 10:15:30.44	320.49	41.79	-43.1	-44.0	23.2	0.00e+00	0	42	0	962592768	58	3844
2026-01-29 10:15:31.45	320.67	41.53	-43.2	-44.1	23.1	0.00e+00	0	42	0	964689920	57	4119
2026-01-29 10:15:32.46	320.84	41.27	-44.2	-45.2	22.2	0.00e+00	0	42	0	966787072	58	4431
2026-01-29 10:15:33.47	321.01	41.02	-45.0	-46.2	21.1	0.00e+00	0	42	0	968884224	60	4430
2026-01-29 10:15:34.47	321.18	40.77	-45.9	-47.3	20.1	0.00e+00	0	42	0	970981376	62	4470
2026-01-29 10:15:35.48	321.34	40.51	-46.8	-48.4	18.9	0.00e+00	0	42	0	972029952	64	4537
2026-01-29 10:15:36.48	321.50	40.27	-46.3	-47.8	19.3	0.00e+00	0	42	0	974127104	64	4232
2026-01-29 10:15:37.49	321.67	40.02	-45.4	-46.7	20.6	0.00e+00	0	42	0	976224256	62	4187
2026-01-29 10:15:38.50	321.82	39.77	-44.8	-46.0	21.1	0.00e+00	0	42	0	978321408	61	4055
2026-01-29 10:15:39.51	321.98	39.52	-44.3	-45.4	21.9	0.00e+00	0	42	0	980418560	59	4291
2026-01-29 10:15:40.52	322.13	39.28	-43.9	-45.0	22.2	0.00e+00	0	42	0	981467136	59	4067
2026-01-29 10:15:41.52	322.28	39.04	-43.3	-44.2	22.9	0.00e+00	0	42	0	983564288	58	3941
2026-01-29 10:15:42.53	322.43	38.80	-43.5	-44.5	22.7	0.00e+00	0	42	0	985661440	58	4065
2026-01-29 10:15:43.54	322.58	38.55	-43.9	-44.9	22.4	0.00e+00	0	42	0	987758592	58	4275
2026-01-29 10:15:44.54	322.72	38.32	-44.7	-45.9	21.3	0.00e+00	0	42	0	989855744	60	4263
2026-01-29 10:15:45.55	322.87	38.08	-46.0	-47.4	20.0	0.00e+00	0	42	0	990904320	62	4506
2026-01-29 10:15:46.55	323.00	37.85	-46.5	-48.1	19.2	0.00e+00	0	42	0	993001472	64	4367
2026-01-29 10:15:47.56	323.14	37.61	-46.6	-48.2	19.2	0.00e+00	0	42	0	995098624	64	4403
2026-01-29 10:15:48.57	323.28	37.38	-45.6	-46.9	20.4	0.00e+00	0	42	0	997195776	63	4037
2026-01-29 10:15:49.58	323.42	37.15	-44.8	-45.9	21.3	0.00e+00	0	42	0	999292928	61	4034
2026-01-29 10:15:50.59	323.55	36.92	-44.2	-45.2	22.1	0.00e+00	0	42	0	1000341504	59	4177
2026-01-29 10:15:51.60	323.68	36.69	-43.8	-44.7	22.5	0.00e+00	0	42	0	1002438656	59	3950
2026-01-29 10:15:52.60	323.81	36.47	-43.4	-44.3	22.8	0.00e+00	0	42	0	1004535808	58	4001
2026-01-29 10:15:53.61	323.94	36.24	-43.7	-44.6	22.6	0.00e+00	0	42	0	1006632960	58	4145
2026-01-29 10:15:54.62	324.06	36.02	-44.0	-45.0	22.3	0.00e+00	0	42	0	1008730112	58	4321
2026-01-29 10:15:55.62	324.19	35.80	-44.1	-45.1	22.2	0.00e+00	0	42	0	1010827264	59	4137
2026-01-29 10:15:56.63	324.31	35.57	-44.2	-45.2	22.1	0.00e+00	0	42	0	1011875840	59	4189
2026-01-29 10:15:57.63	324.43	35.36	-44.5	-45.5	21.8	0.00e+00	0	42	0	1013972992	59	4338
2026-01-29 10:15:58.64	324.55	35.14	-44.3	-45.4	22.0	0.00e+00	0	42	0	1016070144	59	4246
2026-01-29 10:15:59.65	324.67	34.92	-44.3	-45.4	22.0	0.00e+00	0	42	0	1018167296	59	4268
2026-01-29 10:16:00.66	324.79	34.70	-44.3	-45.4	21.7	0.00e+00	0	42	0	1019215872	60	4044
2026-01-29 10:16:01.67	324.90	34.49	-44.9	-46.1	21.0	0.00e+00	0	42	0	1021313024	60	4355
2026-01-29 10:16:02.67	325.01	34.28	-45.0	-46.3	20.9	0.00e+00	0	42	0	1023410176	61	4203
2026-01-29 10:16:03.67	325.13	34.07	-45.6	-46.9	20.4	0.00e+00	0	42	0	1025507328	61	4523
2026-01-29 10:16:04.68	325.24	33.86	-45.9	-47.3	20.0	0.00e+00	0	42	0	1027604480	62	4458
2026-01-29 10:16:05.69	325.35	33.65	-46.8	-48.4	18.9	0.00e+00	0	42	0	1028653056	64	4524
2026-01-29 10:16:06.69	325.45	33.44	-47.0	-48.7	18.6	0.00e+00	0	42	0	1030750208	64	4678
2026-01-29 10:16:07.70	325.56	33.24	-47.4	-49.1	18.1	0.00e+00	0	42	0	1032847360	65	4647
2026-01-29 10:16:08.71	325.67	33.03	-47.6	-49.4	18.0	0.00e+00	0	42	0	1034944512	66	4534
2026-01-29 10:16:09.72	325.77	32.83	-47.7	-49.6	17.8	0.00e+00	0	42	0	1037041664	66	4599
2026-01-29 10:16:10.72	325.87	32.63	-47.1	-48.8	18.4	0.00e+00	0	42	0	1039138816	66	4225
2026-01-29 10:16:11.73	325.98	32.43	-46.7	-48.3	18.9	0.00e+00	0	42	0	1040187392	65	4227
2026-01-29 10:16:12.73	326.08	32.23	-45.6	-46.9	20.3	0.00e+00	0	42	0	1042284544	63	4040
2026-01-29 10:16:13.74	326.18	32.03	-44.9	-46.1	21.1	0.00e+00	0	42	0	1044381696	61	4113
2026-01-29 10:16:14.75	326.28	31.83	-44.9	-46.0	21.1	0.00e+00	0	42	0	1046478848	61	4090
2026-01-29 10:16:15.75	326.37	31.64	-44.8	-46.0	21.1	0.00e+00	0	42	0	1047527424	61	4061
2026-01-29 10:16:16.76	326.47	31.44	-45.1	-46.3	20.9	0.00e+00	0	42	0	1049624576	61	4200
2026-01-29 10:16:17.77	326.56	31.25	-45.2	-46.4	20.8	0.00e+00	0	42	0	1051721728	61	4265
2026-01-29 10:16:18.77	326.66	31.06	-45.9	-47.3	20.0	0.00e+00	0	42	0	1053818880	62	4460
2026-01-29 10:16:19.77	326.75	30.87	-46.1	-47.6	19.7	0.00e+00	0	42	0	1055916032	63	4347
2026-01-29 10:16:20.78	326.84	30.67	-46.3	-47.8	19.5	0.00e+00	0	42	0	1056964608	63	4471
2026-01-29 10:16:21.79	326.93	30.49	-46.4	-47.9	19.4	0.00e+00	0	42	0	1059061760	63	4516
2026-01-29 10:16:22.79	327.02	30.30	-46.6	-48.2	19.1	0.00e+00	0	42	0	1061158912	63	4660
2026-01-29 10:16:23.80	327.11	30.11	-46.5	-48.0	19.3	0.00e+00	0	42	0	1063256064	63	4552
2026-01-29 10:16:24.81	327.20	29.93	-46.7	-48.3	18.9	0.00e+00	0	41	0	1065353216	64	4470
2026-01-29 10:16:25.82	327.29	29.74	-46.2	-47.7	19.5	0.00e+00	0	42	0	1067450368	64	4166
2026-01-29 10:16:26.83	327.37	29.56	-46.3	-47.8	19.4	0.00e+00	0	42	0	1068498944	64	4207
2026-01-29 10:16:27.83	327.46	29.38	-46.3	-47.7	19.5	0.00e+00	0	42	0	1070596096	64	4169
2026-01-29 10:16:28.84	327.54	29.20	-45.8	-47.2	20.1	0.00e+00	0	42	0	1072693248	63	4155
2026-01-29 10:16:29.85	327.63	29.02	-45.8	-47.1	20.1	0.00e+00	0	42	0	1074790400	63	4131
2026-01-29 10:16:30.86	327.71	28.84	-46.0	-47.4	19.8	1.50e-06	0	42	0	1075838976	63	4269
2026-01-29 10:16:31.87	327.79	28.66	-45.8	-47.1	20.1	0.00e+00	0	42	0	1077936128	63	4134
2026-01-29 10:16:32.88	327.87	28.48	-45.4	-46.7	20.5	0.00e+00	0	42	0	1080033280	62	4157
2026-01-29 10:16:33.88	327.95	28.31	-45.3	-46.5	20.6	0.00e+00	0	42	0	1082130432	62	4074
2026-01-29 10:16:34.89	328.03	28.13	-44.9	-46.1	20.9	0.00e+00	0	42	0	1084227584	61	4118
2026-01-29 10:16:35.89	328.11	27.96	-44.3	-45.4	21.5	0.00e+00	0	42	0	1085276160	60	4035
2026-01-29 10:16:36.90	328.18	27.79	-44.1	-45.1	21.8	0.00e+00	0	41	0	1087373312	60	3888
2026-01-29 10:16:37.91	328.26	27.62	-44.0	-45.0	22.1	0.00e+00	0	42	0	1089470464	59	4087
2026-01-29 10:16:38.91	328.34	27.45	-44.0	-45.0	22.2	0.00e+00	0	42	0	1091567616	59	4077
2026-01-29 10:16:39.92	328.41	27.28	-43.8	-44.8	22.3	0.00e+00	0	42	0	1093664768	59	3993
2026-01-29 10:16:40.93	328.49	27.11	-43.9	-44.9	22.3	0.00e+00	0	42	0	1095761920	59	4021
2026-01-29 10:16:41.94	328.56	26.94	-43.9	-45.0	22.2	0.00e+00	0	42	0	1096810496	59	4061
2026-01-29 10:16:42.95	328.63	26.77	-43.9	-45.0	22.2	0.00e+00	0	42	0	1098907648	59	4053
2026-01-29 10:16:43.96	328.71	26.61	-43.9	-44.9	22.2	0.00e+00	0	42	0	1101004800	59	4048
2026-01-29 10:16:44.97	328.78	26.44	-44.3	-45.5	21.7	0.00e+00	0	42	0	1103101952	59	4297
2026-01-29 10:16:45.97	328.85	26.28	-44.1	-45.2	22.0	0.00e+00	0	42	0	1104150528	59	4171
2026-01-29 10:16:46.98	328.92	26.12	-44.2	-45.4	21.8	0.00e+00	0	42	0	1106247680	59	4248
2026-01-29 10:16:47.99	328.99	25.96	-44.5	-45.6	21.6	0.00e+00	0	42	0	1108344832	59	4378
2026-01-29 10:16:49.00	329.06	25.79	-44.5	-45.7	21.1	0.00e+00	0	42	0	1110441984	59	4403
2026-01-29 10:16:50.00	329.13	25.64	-44.5	-45.7	21.5	0.00e+00	0	42	0	1112539136	59	4408
2026-01-29 10:16:51.01	329.19	25.48	-44.6	-45.7	21.5	0.00e+00	0	42	0	1113587712	59	4437
2026-01-29 10:16:52.02	329.26	25.32	-44.4	-45.5	21.4	0.00e+00	0	42	0	1115684864	60	4075
2026-01-29 10:16:53.03	329.33	25.16	-44.5	-45.7	21.3	0.00e+00	0	42	0	1117782016	60	4183
2026-01-29 10:16:54.03	329.39	25.01	-44.8	-46.1	20.9	0.00e+00	0	42	0	1119879168	60	4347
2026-01-29 10:16:55.04	329.46	24.85	-44.9	-46.1	20.8	0.00e+00	0	42	0	1121976320	60	4374
2026-01-29 10:16:56.05	329.52	24.70	-45.2	-46.4	20.6	0.00e+00	0	42	0	1124073472	60	4544
2026-01-29 10:16:57.06	329.59	24.54	-45.2	-46.5	20.5	0.00e+00	0	42	0	1125122048	61	4311
2026-01-29 10:16:58.07	329.65	24.39	-44.9	-46.2	20.8	0.00e+00	0	42	0	1127219200	61	4166
2026-01-29 10:16:59.08	329.71	24.24	-45.2	-46.5	20.4	0.00e+00	0	42	0	1129316352	61	4336
2026-01-29 10:17:00.08	329.78	24.09	-45.0	-46.3	20.7	0.00e+00	0	42	0	1131413504	61	4211
2026-01-29 10:17:01.09	329.84	23.94	-44.6	-45.9	21.1	0.00e+00	0	42	0	1132462080	61	4010
2026-01-29 10:17:02.09	329.90	23.79	-44.6	-45.8	21.1	0.00e+00	0	42	0	1134559232	60	4202
2026-01-29 10:17:03.10	329.96	23.64	-44.4	-45.6	21.4	0.00e+00	0	42	0	1136656384	60	4105
2026-01-29 10:17:04.11	330.02	23.49	-44.2	-45.4	21.4	0.00e+00	0	42	0	1138753536	60	4008
2026-01-29 10:17:05.12	330.08	23.34	-44.3	-45.5	21.6	0.00e+00	0	42	0	1140850688	59	4302
2026-01-29 10:17:06.13	330.14	23.20	-44.2	-45.4	21.7	0.00e+00	0	42	0	1142947840	59	4272
2026-01-29 10:17:07.14	330.20	23.05	-44.1	-45.3	21.8	0.00e+00	0	42	0	1143996416	59	4212
2026-01-29 10:17:08.15	330.25	22.91	-43.8	-44.9	22.1	0.00e+00	0	42	0	1146093568	59	4051
2026-01-29 10:17:09.15	330.31	22.77	-43.9	-44.9	22.1	0.00e+00	0	42	0	1148190720	59	4047
2026-01-29 10:17:10.16	330.37	22.62	-43.7	-44.7	22.2	0.00e+00	0	42	0	1150287872	58	4191
2026-01-29 10:17:11.17	330.43	22.48	-43.4	-44.4	22.5	0.00e+00	0	42	0	1152385024	58	4042
2026-01-29 10:17:12.17	330.48	22.34	-43.3	-44.3	22.5	0.00e+00	0	42	0	1153433600	58	3995
2026-01-29 10:17:13.18	330.54	22.20	-43.2	-44.2	22.7	0.00e+00	0	42	0	1155530752	58	3914
2026-01-29 10:17:14.19	330.59	22.06	-43.1	-44.0	22.8	0.00e+00	0	42	0	1157627904	57	4097
2026-01-29 10:17:15.19	330.65	21.92	-43.1	-44.0	22.8	0.00e+00	0	42	0	1159725056	57	4095
2026-01-29 10:17:16.20	330.70	21.78	-42.9	-43.9	23.0	0.00e+00	0	42	0	1160773632	57	4005
2026-01-29 10:17:17.21	330.76	21.64	-42.8	-43.7	23.0	0.00e+00	0	42	0	1162870784	57	3950
2026-01-29 10:17:18.22	330.81	21.51	-42.8	-43.7	23.0	0.00e+00	0	42	0	1164967936	57	3957
2026-01-29 10:17:19.22	330.86	21.37	-42.7	-43.7	23.1	0.00e+00	0	42	0	1167065088	57	3929
2026-01-29 10:17:20.23	330.91	21.24	-43.0	-43.9	22.9	0.00e+00	0	42	0	1169162240	57	4041
2026-01-29 10:17:21.24	330.97	21.10	-43.0	-43.9	22.8	0.00e+00	0	42	0	1171259392	57	4047
2026-01-29 10:17:22.24	331.02	20.97	-43.1	-44.1	22.7	0.00e+00	0	42	0	1172307968	57	4101
2026-01-29 10:17:23.25	331.07	20.83	-43.2	-44.1	22.6	0.00e+00	0	42	0	1174405120	57	4139
2026-01-29 10:17:24.25	331.12	20.70	-43.5	-44.5	22.3	0.00e+00	0	42	0	1176502272	57	4320
2026-01-29 10:17:25.26	331.17	20.57	-43.5	-44.6	22.3	0.00e+00	0	42	0	1178599424	58	4099
2026-01-29 10:17:26.27	331.22	20.44	-43.6	-44.7	22.2	0.00e+00	0	42	0	1180696576	58	4157
2026-01-29 10:17:27.28	331.27	20.31	-43.9	-44.9	21.9	0.00e+00	0	42	0	1181745152	58	4283
2026-01-29 10:17:28.29	331.32	20.18	-43.7	-44.7	22.2	0.00e+00	0	42	0	1183842304	58	4180
2026-01-29 10:17:29.30	331.37	20.05	-43.6	-44.7	22.2	0.00e+00	0	42	0	1185939456	58	4166
2026-01-29 10:17:30.31	331.42	19.92	-43.6	-44.6	22.2	0.00e+00	0	42	0	1188036608	58	4135
2026-01-29 10:17:31.31	331.47	19.79	-43.7	-44.7	22.2	0.00e+00	0	42	0	1189085184	58	4176
2026-01-29 10:17:32.31	331.51	19.67	-43.8	-44.9	22.0	0.00e+00	0	42	0	1191182336	58	4250
2026-01-29 10:17:33.32	331.56	19.54	-43.6	-44.7	22.1	0.00e+00	0	42	0	1193279488	58	4169
2026-01-29 10:17:34.33	331.61	19.41	-43.8	-44.9	22.0	0.00e+00	0	42	0	1195376640	58	4255
2026-01-29 10:17:35.34	331.66	19.29	-43.7	-44.8	22.1	0.00e+00	0	42	0	1197473792	58	4215
2026-01-29 10:17:36.35	331.70	19.16	-43.8	-44.9	22.0	0.00e+00	0	42	0	1199570944	58	4267
2026-01-29 10:17:37.36	331.75	19.04	-44.1	-45.2	21.7	0.00e+00	0	42	0	1200619520	58	4436
2026-01-29 10:17:38.37	331.79	18.91	-44.0	-45.1	21.8	0.00e+00	0	42	0	1202716672	58	4364
2026-01-29 10:17:39.37	331.84	18.79	-44.1	-45.2	21.7	0.00e+00	0	42	0	1204813824	59	4187
2026-01-29 10:17:40.38	331.89	18.67	-44.3	-45.5	21.5	0.00e+00	0	42	0	1206910976	59	4304
2026-01-29 10:17:41.39	331.93	18.55	-44.3	-45.5	21.4	0.00e+00	0	42	0	1209008128	59	4334
2026-01-29 10:17:42.40	331.97	18.42	-44.5	-45.7	21.3	0.00e+00	0	42	0	1210056704	59	4397
2026-01-29 10:17:43.40	332.02	18.30	-44.4	-45.6	21.1	0.00e+00	0	42	0	1212153856	60	4101
2026-01-29 10:17:44.41	332.06	18.18	-44.2	-45.4	21.2	0.00e+00	0	42	0	1214251008	60	4024
2026-01-29 10:17:45.41	332.11	18.07	-44.6	-45.8	20.8	0.00e+00	0	42	0	1216348160	60	4228
2026-01-29 10:17:46.42	332.15	17.95	-44.5	-45.7	21.0	0.00e+00	0	42	0	1218445312	60	4154
2026-01-29 10:17:47.43	332.19	17.83	-44.4	-45.6	21.0	0.00e+00	0	42	0	1219493888	60	4114
2026-01-29 10:17:48.44	332.24	17.71	-44.6	-45.9	20.8	0.00e+00	0	42	0	1221591040	60	4259
2026-01-29 10:17:49.44	332.28	17.59	-44.4	-45.6	21.0	0.00e+00	0	42	0	1223688192	60	4114
2026-01-29 10:17:50.45	332.32	17.48	-44.2	-45.4	21.2	0.00e+00	0	42	0	1225785344	60	4027
2026-01-29 10:17:51.46	332.36	17.36	-44.0	-45.2	21.4	0.00e+00	0	42	0	1227882496	60	3920
2026-01-29 10:17:52.47	332.40	17.24	-44.4	-45.6	21.3	0.00e+00	0	42	0	1228931072	59	4349
2026-01-29 10:17:53.48	332.44	17.13	-44.4	-45.5	21.4	0.00e+00	0	42	0	1231028224	59	4317
2026-01-29 10:17:54.48	332.48	17.01	-44.0	-45.1	21.7	0.00e+00	0	42	0	1233125376	59	4133
2026-01-29 10:17:55.49	332.53	16.90	-44.1	-45.3	21.6	0.00e+00	0	42	0	1235222528	59	4194
2026-01-29 10:17:56.50	332.57	16.79	-43.9	-45.0	21.9	0.00e+00	0	42	0	1237319680	59	4068
2026-01-29 10:17:57.51	332.61	16.67	-43.7	-44.7	22.1	0.00e+00	0	42	0	1238368256	59	3943
2026-01-29 10:17:58.51	332.65	16.56	-43.8	-44.9	21.9	0.00e+00	0	42	0	1240465408	59	4007
