passes_logs/2026/01/29/R3.2S_Murmansk/R3.2S_Murmansk__20260129_082626_SUOMI_NPP_rec.log

#Pass ID: 20260129_082626_SUOMI NPP
#Satellite: SUOMI NPP
#Configuration: NPP
#almurnet v.1.7.20251203
#Start time: 2026-01-29 08:26:28

#Version: 2.2.20231116
#Station: R3.2S_Murmansk
#Location: 33.079688 lon 68.888172 lat
#TLE: 1 37849U 11061A   26028.91916408  .00000155  00000+0  94467-4 0  9990
#TLE: 2 37849  98.7824 330.8488 0002045  39.4457 320.6868 14.19531289738686

#Time	Az	El	Level	Level2	SNR	BER	BlckErr	Temp	State	Recorded	gain1	gain2
2026-01-29 08:26:28.12	124.46	2.07	-54.0	-69.0	3.8	1.49e+00	0	39	0	0	79	20318
2026-01-29 08:26:29.12	124.44	2.14	-54.2	-69.2	3.8	1.49e+00	0	40	104	0	78	22196
2026-01-29 08:26:30.13	124.41	2.20	-54.2	-69.2	3.8	1.49e+00	0	40	104	0	78	22051
2026-01-29 08:26:31.14	124.38	2.27	-54.1	-69.1	3.8	1.49e+00	0	40	104	0	78	21969
2026-01-29 08:26:32.15	124.36	2.33	-54.1	-69.1	3.8	1.49e+00	0	40	104	0	78	21837
2026-01-29 08:26:33.15	124.33	2.39	-54.1	-69.0	3.8	1.49e+00	0	40	104	0	78	21741
2026-01-29 08:26:34.16	124.30	2.46	-54.0	-69.0	3.8	1.49e+00	0	40	104	0	78	21662
2026-01-29 08:26:35.17	124.28	2.52	-54.0	-69.0	3.8	1.49e+00	0	40	104	0	78	21611
2026-01-29 08:26:36.18	124.25	2.59	-53.9	-68.9	3.8	1.49e+00	0	40	104	0	78	21467
2026-01-29 08:26:37.19	124.22	2.65	-53.9	-68.9	3.8	1.49e+00	0	40	104	0	78	21286
2026-01-29 08:26:38.19	124.20	2.72	-53.9	-68.9	3.8	1.49e+00	0	40	104	0	78	21298
2026-01-29 08:26:39.20	124.17	2.78	-53.8	-68.8	3.8	1.49e+00	0	40	104	0	78	21070
2026-01-29 08:26:40.21	124.14	2.85	-53.7	-68.7	3.8	1.49e+00	0	40	104	0	78	20826
2026-01-29 08:26:41.22	124.11	2.91	-53.6	-68.6	3.8	1.49e+00	0	40	104	0	78	20647
2026-01-29 08:26:42.23	124.08	2.98	-53.5	-68.5	3.8	1.49e+00	0	40	104	0	78	20350
2026-01-29 08:26:43.24	124.06	3.05	-53.4	-68.3	3.8	1.49e+00	0	40	104	0	78	20044
2026-01-29 08:26:44.25	124.03	3.11	-53.2	-68.2	3.8	1.49e+00	0	40	104	0	78	19666
2026-01-29 08:26:45.26	124.00	3.18	-53.1	-68.0	3.8	1.49e+00	0	40	104	0	78	19308
2026-01-29 08:26:46.27	123.97	3.24	-53.0	-68.0	3.8	1.49e+00	0	40	104	0	78	19185
2026-01-29 08:26:47.27	123.94	3.31	-52.9	-67.9	3.8	1.49e+00	0	40	104	0	77	20093
2026-01-29 08:26:48.28	123.91	3.38	-52.8	-67.7	3.8	1.49e+00	0	40	104	0	77	19823
2026-01-29 08:26:49.29	123.89	3.44	-52.7	-67.7	3.8	1.49e+00	0	40	104	0	77	19624
2026-01-29 08:26:50.30	123.86	3.51	-52.5	-67.5	3.8	1.49e+00	0	40	104	0	77	19339
2026-01-29 08:26:51.30	123.83	3.58	-52.4	-67.4	3.8	1.49e+00	0	40	104	0	76	20096
2026-01-29 08:26:52.31	123.80	3.64	-52.2	-67.2	3.8	1.49e+00	0	41	104	0	76	19726
2026-01-29 08:26:53.32	123.77	3.71	-52.0	-66.8	3.8	1.49e+00	0	40	104	0	76	18782
2026-01-29 08:26:54.32	123.74	3.78	-51.8	-66.3	3.8	1.49e+00	0	40	104	0	75	18907
2026-01-29 08:26:55.33	123.71	3.85	-51.8	-66.5	3.8	1.49e+00	0	40	104	0	75	19238
2026-01-29 08:26:56.34	123.68	3.91	-51.8	-66.6	3.8	1.49e+00	0	40	104	0	75	19543
2026-01-29 08:26:57.35	123.65	3.98	-51.8	-66.6	3.8	1.49e+00	0	41	104	0	75	19491
2026-01-29 08:26:58.36	123.62	4.05	-51.8	-66.0	3.8	1.49e+00	0	40	104	0	75	18149
2026-01-29 08:26:59.37	123.59	4.12	-51.7	-64.2	4.0	1.48e+00	0	41	104	0	75	14846
2026-01-29 08:27:00.37	123.56	4.19	-51.5	-62.2	4.5	1.37e+00	15	41	0	0	75	11693
2026-01-29 08:27:01.38	123.53	4.26	-51.2	-59.6	6.0	6.55e-01	0	41	0	2097152	74	9268
2026-01-29 08:27:02.39	123.50	4.32	-50.7	-57.2	8.2	2.10e-01	0	41	0	3145728	73	7452
2026-01-29 08:27:03.39	123.47	4.39	-50.3	-55.7	9.8	1.97e-02	0	41	0	5242880	72	6579
2026-01-29 08:27:04.40	123.44	4.46	-49.7	-53.9	11.7	1.82e-03	0	41	0	7340032	71	5704
2026-01-29 08:27:05.41	123.40	4.53	-49.0	-52.6	13.0	1.79e-04	0	41	0	9437184	70	5205
2026-01-29 08:27:06.42	123.37	4.60	-48.1	-50.8	14.8	3.00e-06	0	41	0	11534336	68	4753
2026-01-29 08:27:07.43	123.34	4.67	-47.3	-49.6	16.0	0.00e+00	0	41	0	12582912	66	4621
2026-01-29 08:27:08.43	123.31	4.74	-46.6	-48.6	16.9	0.00e+00	0	41	0	14680064	65	4357
2026-01-29 08:27:09.44	123.28	4.81	-46.2	-48.1	17.4	0.00e+00	0	41	0	16777216	64	4380
2026-01-29 08:27:10.44	123.25	4.88	-46.0	-47.8	17.8	0.00e+00	0	41	0	18874368	63	4466
2026-01-29 08:27:11.45	123.21	4.95	-46.0	-47.8	17.8	0.00e+00	0	41	0	20971520	63	4473
2026-01-29 08:27:12.46	123.18	5.02	-46.1	-48.0	17.6	0.00e+00	0	41	0	22020096	63	4561
2026-01-29 08:27:13.47	123.15	5.09	-46.2	-48.1	17.5	0.00e+00	0	41	0	24117248	63	4623
2026-01-29 08:27:14.47	123.11	5.16	-46.4	-48.4	17.4	0.00e+00	0	41	0	26214400	63	4765
2026-01-29 08:27:15.48	123.08	5.23	-46.0	-47.8	17.8	0.00e+00	0	41	0	28311552	64	4242
2026-01-29 08:27:16.49	123.05	5.31	-48.0	-50.7	14.7	2.67e-03	0	41	0	30408704	68	4670
2026-01-29 08:27:17.50	123.02	5.38	-46.5	-48.5	17.1	0.00e+00	0	41	0	31457280	65	4306
2026-01-29 08:27:18.51	122.98	5.45	-48.1	-51.0	14.5	4.65e-05	0	41	0	33554432	68	4827
2026-01-29 08:27:19.51	122.95	5.52	-46.3	-48.3	17.3	0.00e+00	0	41	0	35651584	64	4467
2026-01-29 08:27:20.51	122.91	5.59	-46.4	-48.4	17.2	0.00e+00	0	41	0	37748736	64	4512
2026-01-29 08:27:21.52	122.88	5.66	-46.6	-48.6	17.0	0.00e+00	0	41	0	39845888	64	4642
2026-01-29 08:27:22.53	122.85	5.74	-46.6	-48.7	16.9	0.00e+00	0	41	0	40894464	64	4671
2026-01-29 08:27:23.54	122.81	5.81	-46.4	-48.3	17.3	0.00e+00	0	41	0	42991616	64	4481
2026-01-29 08:27:24.55	122.78	5.88	-46.6	-48.6	17.1	0.00e+00	0	41	0	45088768	64	4629
2026-01-29 08:27:25.55	122.74	5.95	-46.1	-47.9	17.7	0.00e+00	0	41	0	47185920	64	4279
2026-01-29 08:27:26.56	122.71	6.03	-46.3	-48.1	17.7	0.00e+00	0	41	0	49283072	63	4618
2026-01-29 08:27:27.56	122.67	6.10	-46.2	-48.0	17.8	0.00e+00	0	41	0	50331648	63	4583
2026-01-29 08:27:28.57	122.64	6.17	-46.2	-48.0	17.8	0.00e+00	0	41	0	52428800	63	4549
2026-01-29 08:27:29.58	122.60	6.25	-46.2	-48.0	17.8	0.00e+00	0	41	0	54525952	63	4585
2026-01-29 08:27:30.58	122.57	6.32	-46.1	-47.9	17.9	0.00e+00	0	41	0	56623104	63	4505
2026-01-29 08:27:31.59	122.53	6.39	-46.2	-48.1	17.7	0.00e+00	0	41	0	58720256	63	4609
2026-01-29 08:27:32.60	122.49	6.47	-46.2	-48.0	17.7	0.00e+00	0	41	0	59768832	63	4592
2026-01-29 08:27:33.61	122.46	6.54	-46.4	-48.4	17.4	0.00e+00	0	41	0	61865984	63	4771
2026-01-29 08:27:34.61	122.42	6.62	-46.6	-48.6	17.1	0.00e+00	0	41	0	63963136	63	4923
2026-01-29 08:27:35.62	122.38	6.69	-46.7	-48.8	16.9	0.00e+00	0	41	0	66060288	64	4736
2026-01-29 08:27:36.63	122.35	6.77	-46.4	-48.3	17.4	0.00e+00	0	41	0	68157440	64	4486
2026-01-29 08:27:37.64	122.31	6.84	-46.3	-48.3	17.4	0.00e+00	0	41	0	69206016	64	4454
2026-01-29 08:27:38.64	122.27	6.92	-46.1	-48.0	17.7	0.00e+00	0	41	0	71303168	64	4310
2026-01-29 08:27:39.65	122.23	6.99	-46.0	-47.7	18.1	0.00e+00	0	41	0	73400320	63	4420
2026-01-29 08:27:40.65	122.20	7.07	-46.1	-47.8	18.0	0.00e+00	0	41	0	75497472	63	4489
2026-01-29 08:27:41.66	122.16	7.15	-45.8	-47.5	18.4	0.00e+00	0	41	0	77594624	63	4292
2026-01-29 08:27:42.66	122.12	7.22	-46.0	-47.8	18.1	0.00e+00	0	41	0	78643200	63	4462
2026-01-29 08:27:43.67	122.08	7.30	-45.8	-47.5	18.4	0.00e+00	0	41	0	80740352	63	4299
2026-01-29 08:27:44.68	122.04	7.38	-45.9	-47.5	18.3	0.00e+00	0	41	0	82837504	63	4329
2026-01-29 08:27:45.69	122.00	7.45	-45.8	-47.5	18.4	0.00e+00	0	41	0	84934656	63	4295
2026-01-29 08:27:46.69	121.97	7.53	-45.8	-47.4	18.5	0.00e+00	0	41	0	87031808	63	4270
2026-01-29 08:27:47.70	121.93	7.61	-46.0	-47.7	18.2	0.00e+00	0	41	0	88080384	63	4404
2026-01-29 08:27:48.71	121.89	7.68	-46.0	-47.7	18.1	0.00e+00	0	41	0	90177536	63	4407
2026-01-29 08:27:49.72	121.85	7.76	-46.1	-47.8	18.1	0.00e+00	0	41	0	92274688	63	4488
2026-01-29 08:27:50.73	121.81	7.84	-46.1	-47.9	18.0	0.00e+00	0	41	0	94371840	63	4507
2026-01-29 08:27:51.73	121.77	7.92	-46.2	-48.0	17.8	0.00e+00	0	41	0	96468992	63	4576
2026-01-29 08:27:52.74	121.73	8.00	-46.0	-47.8	18.0	0.00e+00	0	41	0	97517568	63	4486
2026-01-29 08:27:53.75	121.68	8.08	-46.0	-47.8	18.2	0.00e+00	0	41	0	99614720	63	4449
2026-01-29 08:27:54.75	121.64	8.15	-46.0	-47.7	18.2	0.00e+00	0	41	0	101711872	63	4440
2026-01-29 08:27:55.76	121.60	8.23	-45.8	-47.5	18.4	0.00e+00	0	41	0	103809024	63	4321
2026-01-29 08:27:56.77	121.56	8.31	-45.7	-47.4	18.5	0.00e+00	0	41	0	105906176	63	4266
2026-01-29 08:27:57.78	121.52	8.39	-45.7	-47.4	18.5	0.00e+00	0	41	0	106954752	63	4261
2026-01-29 08:27:58.78	121.48	8.47	-46.0	-47.6	18.4	0.00e+00	0	41	0	109051904	63	4386
2026-01-29 08:27:59.79	121.44	8.55	-45.6	-47.3	18.7	0.00e+00	0	41	0	111149056	63	4194
2026-01-29 08:28:00.80	121.39	8.63	-45.8	-47.5	18.5	0.00e+00	0	41	0	113246208	63	4294
2026-01-29 08:28:01.81	121.35	8.71	-45.7	-47.3	18.7	0.00e+00	0	41	0	115343360	63	4207
2026-01-29 08:28:02.81	121.31	8.80	-45.5	-47.1	18.9	0.00e+00	0	41	0	116391936	63	4121
2026-01-29 08:28:03.82	121.26	8.88	-45.5	-47.0	19.1	0.00e+00	0	41	0	118489088	62	4329
2026-01-29 08:28:04.83	121.22	8.96	-45.5	-47.0	19.1	0.00e+00	0	41	0	120586240	62	4310
2026-01-29 08:28:05.83	121.18	9.04	-45.3	-46.8	19.3	0.00e+00	0	41	0	122683392	62	4194
2026-01-29 08:28:06.84	121.13	9.12	-45.5	-47.0	19.1	0.00e+00	0	41	0	124780544	62	4329
2026-01-29 08:28:07.84	121.09	9.20	-45.5	-47.1	19.0	0.00e+00	0	41	0	125829120	62	4353
2026-01-29 08:28:08.84	121.04	9.28	-45.8	-47.5	18.5	0.00e+00	0	41	0	127926272	62	4566
2026-01-29 08:28:09.85	121.00	9.37	-45.6	-47.2	18.9	0.00e+00	0	41	0	130023424	62	4409
2026-01-29 08:28:10.87	120.95	9.45	-45.7	-47.3	18.7	0.00e+00	0	41	0	132120576	62	4466
2026-01-29 08:28:11.87	120.91	9.53	-45.3	-46.8	19.2	0.00e+00	0	41	0	134217728	62	4201
2026-01-29 08:28:12.88	120.86	9.62	-45.5	-47.0	19.0	0.00e+00	0	41	0	135266304	62	4317
2026-01-29 08:28:13.89	120.82	9.70	-45.5	-47.0	18.9	0.00e+00	0	41	0	137363456	62	4333
2026-01-29 08:28:14.88	120.77	9.78	-45.4	-46.9	19.0	0.00e+00	0	41	0	139460608	62	4287
2026-01-29 08:28:15.89	120.72	9.87	-45.4	-46.9	19.1	0.00e+00	0	41	0	141557760	62	4285
2026-01-29 08:28:16.89	120.68	9.95	-45.4	-46.9	19.2	0.00e+00	0	41	0	143654912	62	4256
2026-01-29 08:28:17.90	120.63	10.04	-45.3	-46.8	19.3	0.00e+00	0	41	0	144703488	62	4238
2026-01-29 08:28:18.91	120.58	10.12	-45.2	-46.7	19.4	0.00e+00	0	41	0	146800640	62	4171
2026-01-29 08:28:19.91	120.54	10.21	-45.2	-46.7	19.5	0.00e+00	0	41	0	148897792	62	4164
2026-01-29 08:28:20.92	120.49	10.29	-45.4	-46.9	19.3	0.00e+00	0	41	0	150994944	62	4251
2026-01-29 08:28:21.93	120.44	10.38	-45.5	-47.0	19.1	0.00e+00	0	41	0	153092096	62	4332
2026-01-29 08:28:22.93	120.39	10.46	-45.1	-46.5	19.6	0.00e+00	0	41	0	154140672	62	4085
2026-01-29 08:28:23.94	120.34	10.55	-45.2	-46.7	19.5	0.00e+00	0	41	0	156237824	62	4160
2026-01-29 08:28:24.94	120.29	10.64	-45.0	-46.4	19.7	0.00e+00	0	41	0	158334976	62	4047
2026-01-29 08:28:25.95	120.24	10.72	-45.1	-46.5	19.6	0.00e+00	0	41	0	160432128	61	4326
2026-01-29 08:28:26.96	120.19	10.81	-45.1	-46.5	19.7	0.00e+00	0	41	0	162529280	61	4315
2026-01-29 08:28:27.97	120.14	10.90	-45.1	-46.5	19.7	0.00e+00	0	41	0	163577856	61	4300
2026-01-29 08:28:28.97	120.09	10.99	-45.1	-46.5	19.6	0.00e+00	0	41	0	165675008	61	4325
2026-01-29 08:28:29.98	120.04	11.08	-45.2	-46.6	19.5	0.00e+00	0	41	0	167772160	61	4378
2026-01-29 08:28:30.99	119.99	11.16	-45.0	-46.4	19.8	0.00e+00	0	41	0	169869312	61	4275
2026-01-29 08:28:31.99	119.94	11.25	-45.2	-46.6	19.6	0.00e+00	0	41	0	171966464	61	4379
2026-01-29 08:28:33.00	119.89	11.34	-45.1	-46.6	19.6	0.00e+00	0	41	0	173015040	61	4348
2026-01-29 08:28:34.01	119.84	11.43	-45.1	-46.5	19.8	0.00e+00	0	41	0	175112192	61	4310
2026-01-29 08:28:35.01	119.78	11.52	-45.1	-46.6	19.7	0.00e+00	0	41	0	177209344	61	4345
2026-01-29 08:28:36.01	119.73	11.61	-45.1	-46.5	19.8	0.00e+00	0	41	0	179306496	61	4298
2026-01-29 08:28:37.02	119.68	11.70	-45.0	-46.4	20.0	0.00e+00	0	41	0	181403648	61	4246
2026-01-29 08:28:38.03	119.63	11.79	-45.2	-46.6	19.7	0.00e+00	0	41	0	182452224	61	4368
2026-01-29 08:28:39.03	119.57	11.88	-45.0	-46.4	19.9	0.00e+00	0	42	0	184549376	61	4244
2026-01-29 08:28:40.04	119.52	11.97	-44.6	-45.9	20.3	0.00e+00	0	41	0	186646528	61	4036
2026-01-29 08:28:41.05	119.46	12.06	-44.6	-45.9	20.3	0.00e+00	0	41	0	188743680	61	4033
2026-01-29 08:28:42.05	119.41	12.15	-44.7	-46.1	20.2	0.00e+00	0	42	0	190840832	61	4109
2026-01-29 08:28:43.06	119.35	12.25	-44.6	-46.0	20.2	0.00e+00	0	41	0	191889408	60	4295
2026-01-29 08:28:44.06	119.30	12.34	-44.7	-46.1	20.2	0.00e+00	0	41	0	193986560	60	4343
2026-01-29 08:28:45.07	119.24	12.43	-44.8	-46.2	20.0	0.00e+00	0	42	0	196083712	60	4416
2026-01-29 08:28:46.07	119.19	12.52	-45.1	-46.6	19.7	0.00e+00	0	42	0	198180864	61	4373
2026-01-29 08:28:47.08	119.13	12.62	-44.9	-46.3	19.9	0.00e+00	0	42	0	200278016	61	4222
2026-01-29 08:28:48.09	119.07	12.71	-44.7	-46.1	20.3	0.00e+00	0	41	0	201326592	61	4100
2026-01-29 08:28:49.09	119.01	12.80	-44.7	-46.1	20.3	0.00e+00	0	42	0	203423744	61	4101
2026-01-29 08:28:50.10	118.96	12.90	-44.5	-45.8	20.4	0.00e+00	0	42	0	205520896	61	3994
2026-01-29 08:28:51.10	118.90	12.99	-44.5	-45.9	20.4	0.00e+00	0	42	0	207618048	60	4249
2026-01-29 08:28:52.11	118.84	13.09	-44.7	-46.1	20.2	0.00e+00	0	42	0	209715200	60	4347
2026-01-29 08:28:53.12	118.78	13.18	-44.5	-45.8	20.5	0.00e+00	0	41	0	210763776	60	4235
2026-01-29 08:28:54.12	118.72	13.28	-44.6	-45.9	20.4	0.00e+00	0	41	0	212860928	60	4270
2026-01-29 08:28:55.13	118.66	13.38	-44.7	-46.0	20.3	0.00e+00	0	42	0	214958080	60	4334
2026-01-29 08:28:56.13	118.60	13.47	-44.7	-46.1	20.2	0.00e+00	0	42	0	217055232	60	4375
2026-01-29 08:28:57.14	118.54	13.57	-44.7	-46.0	20.3	0.00e+00	0	42	0	219152384	60	4331
2026-01-29 08:28:58.15	118.48	13.67	-44.7	-46.1	20.2	0.00e+00	0	42	0	220200960	60	4341
2026-01-29 08:28:59.15	118.42	13.76	-44.9	-46.3	20.1	0.00e+00	0	42	0	222298112	60	4471
2026-01-29 08:29:00.16	118.36	13.86	-44.6	-46.0	20.3	0.00e+00	0	42	0	224395264	60	4300
2026-01-29 08:29:01.17	118.29	13.96	-44.6	-46.0	20.3	0.00e+00	0	41	0	226492416	60	4294
2026-01-29 08:29:02.18	118.23	14.06	-44.6	-46.0	20.3	0.00e+00	0	42	0	228589568	60	4333
2026-01-29 08:29:03.19	118.17	14.16	-44.5	-45.8	20.5	0.00e+00	0	41	0	229638144	60	4238
2026-01-29 08:29:04.19	118.10	14.26	-44.5	-45.8	20.5	0.00e+00	0	42	0	231735296	60	4239
2026-01-29 08:29:05.19	118.04	14.35	-44.6	-45.9	20.4	0.00e+00	0	42	0	233832448	60	4290
2026-01-29 08:29:06.20	117.98	14.45	-44.4	-45.8	20.5	0.00e+00	0	42	0	235929600	60	4198
2026-01-29 08:29:07.21	117.91	14.56	-44.4	-45.7	20.6	0.00e+00	0	42	0	238026752	60	4164
2026-01-29 08:29:08.21	117.85	14.66	-44.5	-45.9	20.5	0.00e+00	0	42	0	239075328	60	4263
2026-01-29 08:29:09.22	117.78	14.76	-44.6	-46.0	20.3	0.00e+00	0	42	0	241172480	60	4307
2026-01-29 08:29:10.22	117.71	14.86	-44.4	-45.8	20.5	0.00e+00	0	41	0	243269632	60	4200
2026-01-29 08:29:11.23	117.65	14.96	-44.6	-46.1	20.3	0.00e+00	0	42	0	245366784	60	4350
2026-01-29 08:29:12.23	117.58	15.06	-44.6	-46.0	20.4	0.00e+00	0	42	0	247463936	60	4321
2026-01-29 08:29:13.24	117.51	15.16	-44.5	-45.9	20.4	0.00e+00	0	42	0	248512512	60	4283
2026-01-29 08:29:14.25	117.44	15.27	-44.5	-45.9	20.4	0.00e+00	0	42	0	250609664	60	4280
2026-01-29 08:29:15.25	117.37	15.37	-44.5	-45.9	20.4	0.00e+00	0	41	0	252706816	60	4282
2026-01-29 08:29:16.25	117.31	15.47	-44.5	-45.9	20.4	0.00e+00	0	42	0	254803968	60	4248
2026-01-29 08:29:17.26	117.24	15.58	-44.5	-45.8	20.5	0.00e+00	0	42	0	256901120	60	4236
2026-01-29 08:29:18.27	117.17	15.68	-44.5	-45.9	20.4	0.00e+00	0	42	0	257949696	60	4249
2026-01-29 08:29:19.28	117.09	15.79	-44.5	-45.9	20.4	0.00e+00	0	42	0	260046848	60	4272
2026-01-29 08:29:20.28	117.02	15.89	-44.5	-45.9	20.4	0.00e+00	0	42	0	262144000	60	4244
2026-01-29 08:29:21.29	116.95	16.00	-44.8	-46.2	20.2	0.00e+00	0	42	0	264241152	60	4415
2026-01-29 08:29:22.29	116.88	16.10	-44.9	-46.4	20.0	0.00e+00	0	42	0	266338304	60	4495
2026-01-29 08:29:23.30	116.81	16.21	-44.5	-45.9	20.4	0.00e+00	0	42	0	267386880	60	4274
2026-01-29 08:29:24.31	116.73	16.32	-44.7	-46.2	20.2	0.00e+00	0	42	0	269484032	60	4397
2026-01-29 08:29:25.31	116.66	16.43	-44.7	-46.1	20.3	0.00e+00	0	42	0	271581184	60	4380
2026-01-29 08:29:26.32	116.58	16.53	-44.7	-46.1	20.3	0.00e+00	0	42	0	273678336	60	4353
2026-01-29 08:29:27.32	116.51	16.64	-44.7	-46.1	20.3	0.00e+00	0	41	0	275775488	60	4371
2026-01-29 08:29:28.33	116.43	16.75	-44.7	-46.1	20.3	0.00e+00	0	42	0	276824064	60	4380
2026-01-29 08:29:29.34	116.36	16.86	-44.7	-46.0	20.4	0.00e+00	0	42	0	278921216	60	4335
2026-01-29 08:29:30.35	116.28	16.97	-44.8	-46.1	20.3	0.00e+00	0	42	0	281018368	60	4389
2026-01-29 08:29:31.35	116.20	17.08	-44.4	-45.7	20.7	0.00e+00	0	42	0	283115520	60	4161
2026-01-29 08:29:32.35	116.12	17.19	-44.7	-46.1	20.4	0.00e+00	0	42	0	285212672	60	4350
2026-01-29 08:29:33.36	116.05	17.30	-44.8	-46.2	20.3	0.00e+00	0	42	0	286261248	60	4402
2026-01-29 08:29:34.36	115.97	17.41	-44.7	-46.0	20.4	0.00e+00	0	42	0	288358400	60	4340
2026-01-29 08:29:35.37	115.89	17.52	-44.7	-46.0	20.4	0.00e+00	0	42	0	290455552	60	4331
2026-01-29 08:29:36.38	115.81	17.64	-44.6	-45.9	20.6	0.00e+00	0	42	0	292552704	60	4273
2026-01-29 08:29:37.39	115.72	17.75	-44.3	-45.5	20.9	0.00e+00	0	42	0	294649856	60	4082
2026-01-29 08:29:38.39	115.64	17.86	-44.4	-45.7	20.8	0.00e+00	0	42	0	295698432	60	4167
2026-01-29 08:29:39.40	115.56	17.98	-44.2	-45.4	21.0	0.00e+00	0	42	0	297795584	60	4031
2026-01-29 08:29:40.40	115.48	18.09	-44.5	-45.8	20.6	0.00e+00	0	42	0	299892736	60	4216
2026-01-29 08:29:41.41	115.39	18.20	-44.4	-45.7	20.7	0.00e+00	0	42	0	301989888	60	4176
2026-01-29 08:29:42.42	115.31	18.32	-44.7	-46.0	20.5	0.00e+00	0	42	0	304087040	60	4332
2026-01-29 08:29:43.42	115.22	18.43	-44.7	-46.0	20.5	0.00e+00	0	41	0	305135616	60	4303
2026-01-29 08:29:44.43	115.14	18.55	-44.7	-46.0	20.4	0.00e+00	0	42	0	307232768	60	4320
2026-01-29 08:29:45.44	115.05	18.67	-44.8	-46.1	20.4	0.00e+00	0	42	0	309329920	60	4375
2026-01-29 08:29:46.44	114.97	18.78	-44.7	-46.1	20.4	0.00e+00	0	42	0	311427072	60	4362
2026-01-29 08:29:47.45	114.88	18.90	-44.5	-45.8	20.7	0.00e+00	0	42	0	313524224	60	4219
2026-01-29 08:29:48.46	114.79	19.02	-44.6	-46.0	20.6	0.00e+00	0	42	0	314572800	60	4296
2026-01-29 08:29:49.47	114.70	19.14	-44.5	-45.8	20.6	0.00e+00	0	42	0	316669952	60	4238
2026-01-29 08:29:50.48	114.61	19.26	-44.7	-46.0	20.5	0.00e+00	0	42	0	318767104	60	4313
2026-01-29 08:29:51.49	114.52	19.38	-44.5	-45.7	20.7	0.00e+00	0	42	0	320864256	60	4189
2026-01-29 08:29:52.50	114.43	19.50	-44.6	-45.9	20.6	0.00e+00	0	41	0	322961408	60	4282
2026-01-29 08:29:53.51	114.33	19.62	-44.7	-46.1	20.4	0.00e+00	0	42	0	324009984	60	4354
2026-01-29 08:29:54.51	114.24	19.74	-44.7	-46.1	20.4	0.00e+00	0	42	0	326107136	60	4353
2026-01-29 08:29:55.52	114.15	19.86	-44.7	-46.1	20.4	0.00e+00	0	42	0	328204288	60	4380
2026-01-29 08:29:56.53	114.05	19.98	-44.9	-46.3	20.2	0.00e+00	0	42	0	330301440	60	4466
2026-01-29 08:29:57.53	113.96	20.10	-44.7	-46.1	20.4	0.00e+00	0	42	0	332398592	60	4359
2026-01-29 08:29:58.54	113.86	20.23	-44.9	-46.3	20.2	0.00e+00	0	42	0	333447168	60	4462
2026-01-29 08:29:59.54	113.77	20.35	-45.0	-46.4	20.1	0.00e+00	0	42	0	335544320	60	4509
2026-01-29 08:30:00.55	113.67	20.47	-44.5	-45.9	20.6	0.00e+00	0	42	0	337641472	60	4248
2026-01-29 08:30:01.56	113.57	20.60	-44.8	-46.2	20.3	0.00e+00	0	42	0	339738624	60	4395
2026-01-29 08:30:02.57	113.47	20.73	-44.7	-46.1	20.4	0.00e+00	0	42	0	341835776	60	4355
2026-01-29 08:30:03.57	113.37	20.85	-44.7	-46.1	20.5	0.00e+00	0	42	0	342884352	60	4367
2026-01-29 08:30:04.58	113.27	20.98	-44.9	-46.3	20.3	0.00e+00	0	42	0	344981504	60	4460
2026-01-29 08:30:05.59	113.17	21.10	-44.9	-46.3	20.3	0.00e+00	0	42	0	347078656	60	4446
2026-01-29 08:30:06.60	113.06	21.23	-45.1	-46.6	20.0	0.00e+00	0	42	0	349175808	61	4358
2026-01-29 08:30:07.60	112.96	21.36	-45.2	-46.6	19.9	0.00e+00	0	42	0	351272960	61	4385
2026-01-29 08:30:08.61	112.86	21.49	-45.0	-46.4	20.1	0.00e+00	0	42	0	352321536	61	4264
2026-01-29 08:30:09.61	112.75	21.61	-45.0	-46.4	20.2	0.00e+00	0	41	0	354418688	61	4245
2026-01-29 08:30:10.62	112.65	21.74	-45.1	-46.5	20.0	0.00e+00	0	42	0	356515840	61	4306
2026-01-29 08:30:11.63	112.54	21.87	-45.0	-46.3	20.3	0.00e+00	0	42	0	358612992	61	4233
2026-01-29 08:30:12.62	112.43	22.00	-44.9	-46.2	20.3	0.00e+00	0	42	0	360710144	61	4191
2026-01-29 08:30:13.63	112.32	22.13	-45.0	-46.3	20.3	0.00e+00	0	42	0	361758720	61	4239
2026-01-29 08:30:14.63	112.21	22.26	-45.2	-46.6	20.1	0.00e+00	0	42	0	363855872	61	4359
2026-01-29 08:30:15.64	112.10	22.40	-45.2	-46.6	20.1	0.00e+00	0	42	0	365953024	61	4370
2026-01-29 08:30:16.65	111.99	22.53	-45.2	-46.6	20.1	0.00e+00	0	42	0	368050176	61	4351
2026-01-29 08:30:17.66	111.88	22.66	-45.5	-47.0	19.7	0.00e+00	0	42	0	370147328	61	4553
2026-01-29 08:30:18.66	111.76	22.80	-45.3	-46.7	20.0	0.00e+00	0	42	0	371195904	61	4403
2026-01-29 08:30:19.67	111.65	22.93	-45.2	-46.6	20.1	0.00e+00	0	42	0	373293056	61	4352
2026-01-29 08:30:20.67	111.53	23.07	-45.3	-46.7	19.9	0.00e+00	0	42	0	375390208	61	4440
2026-01-29 08:30:21.68	111.42	23.20	-45.4	-46.9	19.9	0.00e+00	0	42	0	377487360	61	4506
2026-01-29 08:30:22.69	111.30	23.34	-45.6	-47.1	19.6	0.00e+00	0	42	0	379584512	62	4380
2026-01-29 08:30:23.69	111.18	23.47	-45.9	-47.5	19.3	0.00e+00	0	42	0	380633088	62	4549
2026-01-29 08:30:24.70	111.06	23.61	-45.8	-47.3	19.5	0.00e+00	0	42	0	382730240	62	4459
2026-01-29 08:30:25.71	110.94	23.75	-45.9	-47.5	19.3	0.00e+00	0	42	0	384827392	63	4312
2026-01-29 08:30:26.71	110.82	23.89	-45.8	-47.3	19.5	0.00e+00	0	42	0	386924544	63	4231
2026-01-29 08:30:27.72	110.69	24.03	-45.7	-47.3	19.5	0.00e+00	0	42	0	389021696	62	4454
2026-01-29 08:30:28.72	110.57	24.17	-45.6	-47.2	19.6	0.00e+00	0	42	0	390070272	62	4404
2026-01-29 08:30:29.73	110.44	24.31	-45.6	-47.2	19.7	0.00e+00	0	42	0	392167424	62	4418
2026-01-29 08:30:30.74	110.32	24.45	-45.5	-47.1	19.7	0.00e+00	0	42	0	394264576	62	4345
2026-01-29 08:30:31.75	110.19	24.59	-45.6	-47.2	19.6	0.00e+00	0	42	0	396361728	62	4400
2026-01-29 08:30:32.75	110.06	24.73	-45.6	-47.2	19.5	0.00e+00	0	42	0	398458880	62	4434
2026-01-29 08:30:33.75	109.93	24.87	-45.8	-47.4	19.3	0.00e+00	0	42	0	399507456	62	4519
2026-01-29 08:30:34.76	109.80	25.02	-46.1	-47.7	19.0	0.00e+00	0	42	0	401604608	62	4700
2026-01-29 08:30:35.77	109.67	25.16	-46.1	-47.8	18.9	0.00e+00	0	42	0	403701760	62	4732
2026-01-29 08:30:36.78	109.53	25.31	-46.1	-47.7	19.0	0.00e+00	0	42	0	405798912	62	4693
2026-01-29 08:30:37.78	109.40	25.45	-46.0	-47.7	19.1	0.00e+00	0	42	0	407896064	62	4689
2026-01-29 08:30:38.79	109.26	25.60	-46.2	-47.9	18.9	0.00e+00	0	42	0	408944640	62	4805
2026-01-29 08:30:39.79	109.12	25.74	-46.5	-48.3	18.4	0.00e+00	0	42	0	411041792	63	4740
2026-01-29 08:30:40.80	108.98	25.89	-46.0	-47.6	19.1	0.00e+00	0	42	0	413138944	63	4387
2026-01-29 08:30:41.81	108.84	26.04	-46.2	-47.9	18.9	0.00e+00	0	42	0	415236096	63	4513
2026-01-29 08:30:42.82	108.70	26.19	-45.8	-47.3	19.5	0.00e+00	0	42	0	417333248	63	4232
2026-01-29 08:30:43.83	108.56	26.34	-45.4	-46.9	19.8	0.00e+00	0	42	0	418381824	62	4251
2026-01-29 08:30:44.83	108.41	26.48	-45.2	-46.5	20.1	0.00e+00	0	42	0	420478976	62	4089
2026-01-29 08:30:45.84	108.27	26.64	-44.8	-46.1	20.5	0.00e+00	0	42	0	422576128	61	4110
2026-01-29 08:30:46.84	108.12	26.79	-44.8	-46.1	20.5	0.00e+00	0	42	0	424673280	61	4107
2026-01-29 08:30:47.85	107.97	26.94	-44.8	-46.1	20.5	0.00e+00	0	42	0	426770432	61	4126
2026-01-29 08:30:48.85	107.82	27.09	-44.8	-46.1	20.5	0.00e+00	0	42	0	427819008	61	4144
2026-01-29 08:30:49.86	107.67	27.24	-45.2	-46.6	20.1	0.00e+00	0	42	0	429916160	61	4362
2026-01-29 08:30:50.87	107.52	27.39	-45.4	-46.9	19.9	0.00e+00	0	42	0	432013312	61	4510
2026-01-29 08:30:51.88	107.36	27.55	-45.3	-46.7	20.1	0.00e+00	0	42	0	434110464	61	4399
2026-01-29 08:30:52.89	107.21	27.70	-45.3	-46.7	20.0	0.00e+00	0	42	0	436207616	61	4430
2026-01-29 08:30:53.89	107.05	27.86	-45.2	-46.6	20.1	0.00e+00	0	41	0	437256192	61	4378
2026-01-29 08:30:54.90	106.89	28.01	-45.3	-46.8	19.8	0.00e+00	0	42	0	439353344	61	4467
2026-01-29 08:30:55.91	106.73	28.17	-45.0	-46.5	20.2	0.00e+00	0	42	0	441450496	61	4293
2026-01-29 08:30:56.91	106.57	28.33	-45.1	-46.6	20.1	0.00e+00	0	42	0	443547648	61	4354
2026-01-29 08:30:57.92	106.40	28.49	-45.1	-46.5	20.1	0.00e+00	0	42	0	445644800	61	4338
2026-01-29 08:30:58.93	106.24	28.64	-45.0	-46.5	20.2	0.00e+00	0	42	0	446693376	61	4309
2026-01-29 08:30:59.93	106.07	28.80	-45.0	-46.4	20.3	0.00e+00	0	42	0	448790528	61	4279
2026-01-29 08:31:00.92	105.90	28.96	-44.8	-46.2	20.4	0.00e+00	0	42	0	450887680	61	4184
2026-01-29 08:31:01.93	105.73	29.12	-44.7	-46.1	20.5	0.00e+00	0	42	0	452984832	61	4110
2026-01-29 08:31:02.93	105.56	29.28	-45.3	-46.8	19.9	0.00e+00	0	42	0	455081984	61	4450
2026-01-29 08:31:03.94	105.39	29.44	-45.7	-47.3	19.5	0.00e+00	0	42	0	456130560	62	4465
2026-01-29 08:31:04.95	105.21	29.60	-46.1	-47.8	19.0	0.00e+00	0	42	0	458227712	62	4752
2026-01-29 08:31:05.95	105.03	29.76	-46.0	-47.6	19.1	0.00e+00	0	42	0	460324864	62	4634
2026-01-29 08:31:06.95	104.85	29.93	-46.0	-47.5	19.3	0.00e+00	0	42	0	462422016	62	4597
2026-01-29 08:31:07.96	104.67	30.09	-45.5	-47.0	19.8	0.00e+00	0	42	0	464519168	62	4311
2026-01-29 08:31:08.96	104.49	30.25	-45.6	-47.0	19.8	0.00e+00	0	42	0	465567744	62	4320
2026-01-29 08:31:09.97	104.30	30.42	-45.0	-46.4	20.4	0.00e+00	0	42	0	467664896	62	4009
2026-01-29 08:31:10.97	104.12	30.58	-45.9	-47.5	19.3	0.00e+00	0	42	0	469762048	62	4581
2026-01-29 08:31:11.98	103.93	30.75	-46.4	-48.2	18.7	0.00e+00	0	42	0	471859200	63	4658
2026-01-29 08:31:12.99	103.74	30.92	-46.8	-48.7	18.1	0.00e+00	0	42	0	472907776	64	4688
2026-01-29 08:31:13.99	103.54	31.08	-46.5	-48.3	18.5	0.00e+00	0	42	0	475004928	64	4454
2026-01-29 08:31:15.00	103.35	31.25	-46.3	-48.0	18.7	0.00e+00	0	42	0	477102080	64	4320
2026-01-29 08:31:16.01	103.15	31.42	-46.1	-47.7	19.1	0.00e+00	0	42	0	479199232	63	4423
2026-01-29 08:31:17.02	102.95	31.59	-45.8	-47.3	19.5	0.00e+00	0	42	0	481296384	63	4220
2026-01-29 08:31:18.03	102.75	31.76	-45.5	-46.9	19.9	0.00e+00	0	41	0	483393536	62	4277
2026-01-29 08:31:19.03	102.55	31.93	-46.2	-47.8	19.1	0.00e+00	0	42	0	484442112	63	4478
2026-01-29 08:31:20.04	102.34	32.10	-46.5	-48.2	18.7	0.00e+00	0	42	0	486539264	63	4686
2026-01-29 08:31:21.04	102.13	32.27	-46.6	-48.4	18.4	0.00e+00	0	42	0	488636416	64	4521
2026-01-29 08:31:22.05	101.92	32.45	-46.5	-48.1	18.6	0.00e+00	0	42	0	490733568	64	4381
2026-01-29 08:31:23.05	101.71	32.62	-47.4	-49.4	17.5	0.00e+00	0	42	0	492830720	65	4775
2026-01-29 08:31:24.06	101.49	32.79	-49.7	-52.7	14.6	0.00e+00	0	42	0	493879296	69	5560
2026-01-29 08:31:25.06	101.28	32.96	-52.0	-58.4	8.6	5.03e-03	0	42	0	495976448	74	8029
2026-01-29 08:31:26.07	101.06	33.14	-53.1	-65.0	4.1	7.41e-01	0	42	0	498073600	76	15335
2026-01-29 08:31:27.08	100.84	33.31	-53.1	-65.9	3.8	1.49e+00	0	42	104	498073600	76	16902
2026-01-29 08:31:28.09	100.61	33.49	-53.1	-66.4	3.8	1.48e+00	0	42	104	498073600	76	18089
2026-01-29 08:31:29.09	100.39	33.66	-53.2	-68.0	3.8	1.49e+00	0	42	104	498073600	77	20476
2026-01-29 08:31:30.10	100.16	33.84	-53.2	-68.2	3.8	1.49e+00	0	42	104	498073600	77	20933
2026-01-29 08:31:31.11	99.92	34.02	-53.2	-68.1	3.8	1.49e+00	0	42	104	498073600	77	20754
2026-01-29 08:31:32.11	99.69	34.19	-53.2	-67.7	3.8	1.49e+00	0	42	104	498073600	77	19700
2026-01-29 08:31:33.12	99.45	34.37	-53.2	-67.6	3.8	1.49e+00	0	42	104	498073600	77	19491
2026-01-29 08:31:34.13	99.21	34.55	-53.2	-67.8	3.8	1.49e+00	0	42	104	498073600	77	19963
2026-01-29 08:31:35.14	98.97	34.73	-53.2	-67.9	3.8	1.49e+00	0	42	104	498073600	77	20114
2026-01-29 08:31:36.14	98.73	34.90	-53.2	-67.8	3.8	1.49e+00	0	42	104	498073600	77	20037
2026-01-29 08:31:37.15	98.48	35.08	-53.2	-67.7	3.8	1.49e+00	0	42	104	498073600	77	19779
2026-01-29 08:31:38.15	98.23	35.26	-53.2	-67.7	3.8	1.49e+00	0	42	104	498073600	77	19730
2026-01-29 08:31:39.16	97.97	35.44	-53.2	-67.8	3.8	1.49e+00	0	42	104	498073600	77	20029
2026-01-29 08:31:40.16	97.72	35.62	-53.2	-68.0	3.8	1.49e+00	0	42	104	498073600	77	20319
2026-01-29 08:31:41.17	97.46	35.80	-53.2	-67.9	3.8	1.49e+00	0	42	104	498073600	77	20245
2026-01-29 08:31:42.18	97.20	35.98	-53.2	-67.8	3.8	1.49e+00	0	42	104	498073600	77	20048
2026-01-29 08:31:43.19	96.93	36.17	-53.2	-67.8	3.8	1.49e+00	0	42	104	498073600	77	20066
2026-01-29 08:31:44.20	96.66	36.35	-53.2	-67.9	3.8	1.49e+00	0	42	104	498073600	77	20261
2026-01-29 08:31:45.21	96.39	36.53	-53.2	-68.0	3.8	1.49e+00	0	42	104	498073600	77	20411
2026-01-29 08:31:46.21	96.12	36.71	-53.2	-68.1	3.8	1.49e+00	0	42	104	498073600	77	20594
2026-01-29 08:31:47.22	95.84	36.89	-53.2	-68.1	3.8	1.49e+00	0	42	104	498073600	77	20681
2026-01-29 08:31:48.23	95.56	37.08	-53.3	-68.1	3.8	1.49e+00	0	42	104	498073600	77	20729
2026-01-29 08:31:49.24	95.28	37.26	-53.2	-68.1	3.8	1.49e+00	0	42	104	498073600	77	20729
2026-01-29 08:31:50.25	94.99	37.44	-53.2	-68.1	3.8	1.49e+00	0	42	104	498073600	77	20697
2026-01-29 08:31:51.26	94.70	37.63	-53.3	-68.1	3.8	1.49e+00	0	42	104	498073600	77	20738
2026-01-29 08:31:52.27	94.40	37.81	-53.3	-68.2	3.8	1.49e+00	0	42	104	498073600	77	20798
2026-01-29 08:31:53.28	94.11	38.00	-53.2	-68.2	3.8	1.49e+00	0	42	104	498073600	77	20811
2026-01-29 08:31:54.28	93.81	38.18	-53.2	-68.2	3.8	1.49e+00	0	42	104	498073600	77	20903
2026-01-29 08:31:55.29	93.50	38.36	-53.2	-68.2	3.8	1.49e+00	0	42	104	498073600	77	20891
2026-01-29 08:31:56.30	93.20	38.55	-53.2	-68.2	3.8	1.49e+00	0	42	104	498073600	77	20872
2026-01-29 08:31:57.31	92.88	38.73	-53.2	-68.2	3.8	1.49e+00	0	42	104	498073600	77	20926
2026-01-29 08:31:58.31	92.57	38.91	-53.2	-68.2	3.8	1.49e+00	0	42	104	498073600	77	20904
2026-01-29 08:31:59.32	92.25	39.10	-53.2	-68.2	3.8	1.49e+00	0	42	104	498073600	77	20859
2026-01-29 08:32:00.33	91.93	39.28	-53.2	-68.2	3.8	1.49e+00	0	42	104	498073600	77	20881
2026-01-29 08:32:01.33	91.61	39.46	-53.2	-68.2	3.8	1.49e+00	0	42	104	498073600	77	20886
2026-01-29 08:32:02.34	91.28	39.65	-53.2	-68.2	3.8	1.49e+00	0	42	104	498073600	77	20864
2026-01-29 08:32:03.35	90.95	39.83	-53.2	-68.2	3.8	1.49e+00	0	42	104	498073600	77	20868
2026-01-29 08:32:04.36	90.61	40.02	-53.2	-68.2	3.8	1.49e+00	0	42	104	498073600	77	20846
2026-01-29 08:32:05.36	90.27	40.20	-53.2	-68.2	3.8	1.49e+00	0	42	104	498073600	77	20797
2026-01-29 08:32:06.37	89.93	40.38	-53.2	-68.2	3.8	1.49e+00	0	42	104	498073600	77	20827
2026-01-29 08:32:07.38	89.58	40.56	-53.2	-68.2	3.8	1.49e+00	0	42	104	498073600	77	20851
2026-01-29 08:32:08.39	89.23	40.75	-53.2	-68.2	3.8	1.49e+00	0	42	104	498073600	77	20922
2026-01-29 08:32:09.39	88.87	40.93	-53.2	-68.2	3.8	1.49e+00	0	42	104	498073600	77	20905
2026-01-29 08:32:10.40	88.51	41.11	-53.2	-68.2	3.8	1.49e+00	0	42	104	498073600	77	20900
2026-01-29 08:32:11.41	88.15	41.29	-53.2	-68.2	3.8	1.49e+00	0	42	104	498073600	77	20929
2026-01-29 08:32:12.42	87.78	41.47	-53.2	-68.2	3.8	1.49e+00	0	42	104	498073600	77	20891
2026-01-29 08:32:13.43	87.40	41.65	-53.2	-68.2	3.8	1.49e+00	0	42	104	498073600	77	20887
2026-01-29 08:32:14.43	87.03	41.83	-53.2	-68.2	3.8	1.49e+00	0	42	104	498073600	77	20958
2026-01-29 08:32:15.44	86.65	42.01	-53.2	-68.2	3.8	1.49e+00	0	42	104	498073600	77	20852
2026-01-29 08:32:16.45	86.26	42.19	-53.2	-68.2	3.8	1.49e+00	0	42	104	498073600	77	20873
2026-01-29 08:32:17.46	85.87	42.37	-53.2	-68.2	3.8	1.49e+00	0	42	104	498073600	77	20907
2026-01-29 08:32:18.47	85.48	42.55	-53.2	-68.2	3.8	1.49e+00	0	42	104	498073600	77	20856
2026-01-29 08:32:19.47	85.08	42.72	-53.2	-68.2	3.8	1.49e+00	0	42	104	498073600	77	20932
2026-01-29 08:32:20.48	84.68	42.90	-53.2	-68.2	3.8	1.49e+00	0	42	104	498073600	77	20891
2026-01-29 08:32:21.49	84.27	43.08	-53.2	-68.2	3.8	1.49e+00	0	42	104	498073600	77	20883
2026-01-29 08:32:22.50	83.86	43.25	-53.2	-68.2	3.8	1.49e+00	0	42	104	498073600	77	20872
2026-01-29 08:32:23.50	83.44	43.42	-53.2	-68.2	3.8	1.49e+00	0	42	104	498073600	77	20903
2026-01-29 08:32:24.51	83.02	43.60	-53.2	-68.2	3.8	1.49e+00	0	42	104	498073600	77	20878
2026-01-29 08:32:25.52	82.60	43.77	-53.2	-68.2	3.8	1.49e+00	0	42	104	498073600	77	20895
2026-01-29 08:32:26.53	82.17	43.94	-53.2	-68.2	3.8	1.49e+00	0	42	104	498073600	77	20904
2026-01-29 08:32:27.53	81.74	44.11	-53.2	-68.2	3.8	1.49e+00	0	42	104	498073600	77	20886
2026-01-29 08:32:28.54	81.30	44.28	-53.2	-68.2	3.8	1.49e+00	0	42	104	498073600	77	20930
2026-01-29 08:32:29.55	80.85	44.44	-53.2	-68.2	3.8	1.49e+00	0	42	104	498073600	77	20861
2026-01-29 08:32:30.56	80.40	44.61	-53.2	-68.2	3.8	1.49e+00	0	42	104	498073600	77	20854
2026-01-29 08:32:31.57	79.95	44.77	-53.2	-68.2	3.8	1.49e+00	0	42	104	498073600	77	20927
2026-01-29 08:32:32.57	79.49	44.94	-53.2	-68.2	3.8	1.49e+00	0	42	104	498073600	77	20908
2026-01-29 08:32:33.58	79.03	45.10	-53.2	-68.2	3.8	1.49e+00	0	42	104	498073600	77	20893
2026-01-29 08:32:34.59	78.56	45.26	-53.2	-68.2	3.8	1.49e+00	0	42	104	498073600	77	20934
2026-01-29 08:32:35.60	78.09	45.42	-53.2	-68.2	3.8	1.49e+00	0	42	104	498073600	77	20918
2026-01-29 08:32:36.61	77.61	45.58	-53.2	-68.2	3.8	1.49e+00	0	42	104	498073600	77	20946
2026-01-29 08:32:37.62	77.13	45.73	-53.2	-68.2	3.8	1.49e+00	0	42	104	498073600	77	20943
2026-01-29 08:32:38.63	76.64	45.89	-53.2	-68.2	3.8	1.49e+00	0	42	104	498073600	77	20937
2026-01-29 08:32:39.63	76.15	46.04	-53.2	-68.2	3.8	1.49e+00	0	42	104	498073600	77	20953
2026-01-29 08:32:40.64	75.66	46.19	-53.2	-68.2	3.8	1.49e+00	0	42	104	498073600	77	20928
2026-01-29 08:32:41.65	75.15	46.34	-53.2	-68.2	3.8	1.49e+00	0	42	104	498073600	77	20916
2026-01-29 08:32:42.66	74.65	46.48	-53.2	-68.2	3.8	1.49e+00	0	42	104	498073600	77	20914
2026-01-29 08:32:43.67	74.14	46.63	-53.2	-68.2	3.8	1.49e+00	0	42	104	498073600	77	20886
2026-01-29 08:32:44.67	73.62	46.77	-53.2	-68.2	3.8	1.49e+00	0	42	104	498073600	77	20928
2026-01-29 08:32:45.68	73.10	46.91	-53.2	-68.2	3.8	1.49e+00	0	42	104	498073600	77	20936
2026-01-29 08:32:46.69	72.58	47.05	-53.2	-68.2	3.8	1.49e+00	0	42	104	498073600	77	20876
2026-01-29 08:32:47.70	72.05	47.19	-53.2	-68.2	3.8	1.49e+00	0	42	104	498073600	77	20912
2026-01-29 08:32:48.71	71.51	47.32	-53.2	-68.2	3.8	1.49e+00	0	42	104	498073600	77	20867
2026-01-29 08:32:49.71	70.98	47.45	-53.2	-68.2	3.8	1.49e+00	0	42	104	498073600	77	20867
2026-01-29 08:32:50.72	70.44	47.58	-53.2	-68.2	3.8	1.49e+00	0	42	104	498073600	77	20901
2026-01-29 08:32:51.73	69.89	47.71	-53.2	-68.2	3.8	1.49e+00	0	42	104	498073600	77	20947
2026-01-29 08:32:52.73	69.34	47.83	-53.2	-68.2	3.8	1.49e+00	0	42	104	498073600	77	20879
2026-01-29 08:32:53.74	68.78	47.95	-53.2	-68.2	3.8	1.49e+00	0	42	104	498073600	77	20918
2026-01-29 08:32:54.75	68.22	48.07	-53.2	-68.2	3.8	1.49e+00	0	42	104	498073600	77	20870
2026-01-29 08:32:55.76	67.66	48.19	-53.2	-68.2	3.8	1.49e+00	0	42	104	498073600	77	20875
2026-01-29 08:32:56.77	67.09	48.30	-53.2	-68.2	3.8	1.49e+00	0	42	104	498073600	77	20872
2026-01-29 08:32:57.78	66.51	48.42	-53.2	-68.2	3.8	1.49e+00	0	42	104	498073600	77	20832
2026-01-29 08:32:58.79	65.93	48.52	-53.2	-68.2	3.8	1.49e+00	0	42	104	498073600	77	20889
2026-01-29 08:32:59.79	65.36	48.63	-53.2	-68.2	3.8	1.49e+00	0	42	104	498073600	77	20898
2026-01-29 08:33:00.79	64.78	48.73	-53.2	-68.2	3.8	1.49e+00	0	42	104	498073600	77	20848
2026-01-29 08:33:01.80	64.19	48.83	-53.2	-68.2	3.8	1.49e+00	0	42	104	498073600	77	20888
2026-01-29 08:33:02.81	63.59	48.93	-53.2	-68.2	3.8	1.49e+00	0	42	104	498073600	77	20868
2026-01-29 08:33:03.82	63.00	49.02	-53.2	-68.2	3.8	1.49e+00	0	42	104	498073600	77	20918
2026-01-29 08:33:04.82	62.40	49.11	-53.2	-68.2	3.8	1.49e+00	0	42	104	498073600	77	20852
2026-01-29 08:33:05.83	61.80	49.19	-53.2	-68.2	3.8	1.49e+00	0	42	104	498073600	77	20892
2026-01-29 08:33:06.84	61.19	49.28	-53.2	-68.2	3.8	1.49e+00	0	42	104	498073600	77	20902
2026-01-29 08:33:07.84	60.58	49.36	-53.2	-68.2	3.8	1.49e+00	0	42	104	498073600	77	20824
2026-01-29 08:33:08.85	59.97	49.43	-53.2	-68.2	3.8	1.49e+00	0	42	104	498073600	77	20833
2026-01-29 08:33:09.85	59.36	49.51	-53.2	-68.2	3.8	1.49e+00	0	42	104	498073600	77	20857
2026-01-29 08:33:10.86	58.74	49.58	-53.2	-68.2	3.8	1.49e+00	0	42	104	498073600	77	20899
2026-01-29 08:33:11.87	58.11	49.64	-53.2	-68.2	3.8	1.49e+00	0	42	104	498073600	77	20876
2026-01-29 08:33:12.87	57.49	49.71	-53.2	-68.2	3.8	1.49e+00	0	42	104	498073600	77	20872
2026-01-29 08:33:13.88	56.87	49.76	-53.2	-68.2	3.8	1.49e+00	0	42	104	498073600	77	20878
2026-01-29 08:33:14.88	56.24	49.82	-53.2	-68.2	3.8	1.49e+00	0	42	104	498073600	77	20894
2026-01-29 08:33:15.89	55.61	49.87	-53.2	-68.2	3.8	1.49e+00	0	42	104	498073600	77	20855
2026-01-29 08:33:16.90	54.97	49.92	-53.2	-68.2	3.8	1.49e+00	0	42	104	498073600	77	20893
2026-01-29 08:33:17.90	54.34	49.96	-53.2	-68.2	3.8	1.49e+00	0	42	104	498073600	77	20863
2026-01-29 08:33:18.91	53.71	50.01	-53.2	-68.2	3.8	1.49e+00	0	42	104	498073600	77	20882
2026-01-29 08:33:19.92	53.07	50.04	-53.2	-68.2	3.8	1.49e+00	0	42	104	498073600	77	20864
2026-01-29 08:33:20.93	52.42	50.08	-53.2	-68.2	3.8	1.49e+00	0	42	104	498073600	77	20870
2026-01-29 08:33:21.94	51.78	50.11	-53.2	-68.2	3.8	1.49e+00	0	42	104	498073600	77	20847
2026-01-29 08:33:22.95	51.14	50.13	-53.2	-68.2	3.8	1.49e+00	0	42	104	498073600	77	20873
2026-01-29 08:33:23.95	50.50	50.15	-53.2	-68.2	3.8	1.49e+00	0	42	104	498073600	77	20857
2026-01-29 08:33:24.96	49.85	50.17	-53.2	-68.2	3.8	1.49e+00	0	42	104	498073600	77	20846
2026-01-29 08:33:25.97	49.21	50.19	-53.2	-68.2	3.8	1.49e+00	0	42	104	498073600	77	20867
2026-01-29 08:33:26.98	48.56	50.20	-53.2	-68.2	3.8	1.49e+00	0	42	104	498073600	77	20857
2026-01-29 08:33:27.99	47.91	50.20	-53.2	-68.2	3.8	1.49e+00	0	42	104	498073600	77	20821
2026-01-29 08:33:28.99	47.27	50.20	-53.2	-68.2	3.8	1.49e+00	0	42	104	498073600	77	20838
2026-01-29 08:33:30.00	46.62	50.20	-53.2	-68.2	3.8	1.49e+00	0	42	104	498073600	77	20881
2026-01-29 08:33:31.01	45.98	50.20	-53.2	-68.2	3.8	1.49e+00	0	42	104	498073600	77	20863
2026-01-29 08:33:32.01	45.33	50.19	-53.2	-68.2	3.8	1.49e+00	0	42	104	498073600	77	20834
2026-01-29 08:33:33.02	44.69	50.18	-53.2	-68.2	3.8	1.49e+00	0	42	104	498073600	77	20875
2026-01-29 08:33:34.03	44.04	50.16	-53.2	-68.2	3.8	1.49e+00	0	42	104	498073600	77	20877
2026-01-29 08:33:35.04	43.40	50.14	-53.2	-68.2	3.8	1.49e+00	0	42	104	498073600	77	20944
2026-01-29 08:33:36.04	42.76	50.11	-53.3	-68.2	3.8	1.49e+00	0	42	104	498073600	77	20976
2026-01-29 08:33:37.05	42.12	50.09	-53.3	-68.2	3.8	1.49e+00	0	42	104	498073600	77	21009
2026-01-29 08:33:38.06	41.47	50.05	-53.3	-68.3	3.8	1.49e+00	0	42	104	498073600	77	21160
2026-01-29 08:33:39.07	40.83	50.02	-53.3	-68.3	3.8	1.49e+00	0	42	104	498073600	77	21131
2026-01-29 08:33:40.08	40.19	49.98	-53.3	-68.3	3.8	1.49e+00	0	42	104	498073600	77	21101
2026-01-29 08:33:41.09	39.56	49.93	-53.3	-68.3	3.8	1.49e+00	0	42	104	498073600	77	21103
2026-01-29 08:33:42.10	38.92	49.89	-53.3	-68.3	3.8	1.49e+00	0	42	104	498073600	77	21108
2026-01-29 08:33:43.10	38.30	49.84	-53.3	-68.3	3.8	1.49e+00	0	42	104	498073600	77	21088
2026-01-29 08:33:44.11	37.66	49.78	-53.3	-68.3	3.8	1.49e+00	0	42	104	498073600	77	21064
2026-01-29 08:33:45.11	37.04	49.72	-53.3	-68.3	3.8	1.49e+00	0	42	104	498073600	77	21066
2026-01-29 08:33:46.12	36.42	49.66	-53.3	-68.3	3.8	1.49e+00	0	42	104	498073600	77	21072
2026-01-29 08:33:47.13	35.79	49.60	-53.3	-68.3	3.8	1.49e+00	0	42	104	498073600	77	21045
2026-01-29 08:33:48.14	35.17	49.53	-53.3	-68.3	3.8	1.49e+00	0	43	104	498073600	77	21055
2026-01-29 08:33:49.15	34.56	49.46	-53.3	-68.3	3.8	1.49e+00	0	42	104	498073600	77	21072
2026-01-29 08:33:50.15	33.95	49.38	-53.3	-68.3	3.8	1.49e+00	0	42	104	498073600	77	21186
2026-01-29 08:33:51.16	33.33	49.30	-53.4	-68.3	3.8	1.49e+00	0	42	104	498073600	77	21244
2026-01-29 08:33:52.17	32.73	49.22	-53.4	-68.4	3.8	1.49e+00	0	42	104	498073600	77	21261
2026-01-29 08:33:53.18	32.12	49.13	-53.4	-68.3	3.8	1.49e+00	0	42	104	498073600	77	21213
2026-01-29 08:33:54.19	31.52	49.05	-53.3	-68.3	3.8	1.49e+00	0	42	104	498073600	77	21195
2026-01-29 08:33:55.19	30.93	48.95	-53.3	-68.3	3.8	1.49e+00	0	42	104	498073600	77	21172
2026-01-29 08:33:56.20	30.33	48.86	-53.3	-68.3	3.8	1.49e+00	0	42	104	498073600	77	21200
2026-01-29 08:33:57.21	29.74	48.76	-53.3	-68.3	3.8	1.49e+00	0	42	104	498073600	77	21150
2026-01-29 08:33:58.21	29.16	48.66	-53.3	-68.3	3.8	1.49e+00	0	42	104	498073600	77	21067
2026-01-29 08:33:59.22	28.58	48.56	-53.3	-68.3	3.8	1.49e+00	0	42	104	498073600	77	21155
2026-01-29 08:34:00.23	28.00	48.45	-53.3	-68.3	3.8	1.49e+00	0	42	104	498073600	77	21149
2026-01-29 08:34:01.23	27.43	48.34	-53.3	-68.3	3.8	1.49e+00	0	42	104	498073600	77	21136
2026-01-29 08:34:02.24	26.86	48.23	-53.3	-68.3	3.8	1.49e+00	0	42	104	498073600	77	21104
2026-01-29 08:34:03.25	26.29	48.11	-53.4	-68.3	3.8	1.49e+00	0	42	104	498073600	77	21242
2026-01-29 08:34:04.26	25.73	47.99	-53.3	-68.3	3.8	1.49e+00	0	42	104	498073600	77	21197
2026-01-29 08:34:05.26	25.18	47.87	-53.3	-68.3	3.8	1.49e+00	0	42	104	498073600	77	21183
2026-01-29 08:34:06.27	24.63	47.75	-53.3	-68.4	3.8	1.49e+00	0	42	104	498073600	77	21261
2026-01-29 08:34:07.28	24.08	47.62	-53.3	-68.3	3.8	1.49e+00	0	42	104	498073600	77	21240
2026-01-29 08:34:08.28	23.54	47.50	-53.3	-68.3	3.8	1.49e+00	0	42	104	498073600	77	21186
2026-01-29 08:34:09.29	23.00	47.36	-53.3	-68.3	3.8	1.49e+00	0	42	104	498073600	77	21129
2026-01-29 08:34:10.29	22.47	47.23	-53.3	-68.3	3.8	1.49e+00	0	42	104	498073600	77	21166
2026-01-29 08:34:11.30	21.94	47.10	-53.3	-68.3	3.8	1.49e+00	0	42	104	498073600	77	21155
2026-01-29 08:34:12.31	21.41	46.96	-53.3	-68.3	3.8	1.49e+00	0	42	104	498073600	77	21135
2026-01-29 08:34:13.31	20.90	46.82	-53.4	-68.3	3.8	1.49e+00	0	42	104	498073600	77	21236
2026-01-29 08:34:14.32	20.38	46.68	-53.4	-68.4	3.8	1.49e+00	0	42	104	498073600	77	21404
2026-01-29 08:34:15.33	19.87	46.53	-53.4	-68.4	3.8	1.49e+00	0	42	104	498073600	77	21463
2026-01-29 08:34:16.34	19.36	46.39	-53.4	-68.4	3.8	1.49e+00	0	42	104	498073600	77	21324
2026-01-29 08:34:17.35	18.86	46.24	-53.4	-68.4	3.8	1.49e+00	0	42	104	498073600	77	21436
2026-01-29 08:34:18.35	18.37	46.09	-53.4	-68.4	3.8	1.49e+00	0	42	104	498073600	77	21299
2026-01-29 08:34:19.36	17.87	45.94	-53.4	-68.3	3.8	1.49e+00	0	42	104	498073600	77	21256
2026-01-29 08:34:20.37	17.38	45.79	-53.4	-68.4	3.8	1.49e+00	0	42	104	498073600	77	21418
2026-01-29 08:34:21.38	16.90	45.63	-53.4	-68.4	3.8	1.49e+00	0	42	104	498073600	77	21471
2026-01-29 08:34:22.38	16.43	45.48	-53.4	-68.4	3.8	1.49e+00	0	42	104	498073600	77	21403
2026-01-29 08:34:23.39	15.95	45.32	-53.4	-68.4	3.8	1.49e+00	0	42	104	498073600	77	21355
2026-01-29 08:34:24.40	15.48	45.16	-53.4	-68.4	3.8	1.49e+00	0	42	104	498073600	77	21323
2026-01-29 08:34:25.40	15.02	45.00	-53.4	-68.4	3.8	1.49e+00	0	42	104	498073600	77	21375
2026-01-29 08:34:26.41	14.56	44.83	-53.4	-68.4	3.8	1.49e+00	0	42	104	498073600	77	21360
2026-01-29 08:34:27.41	14.11	44.67	-53.4	-68.4	3.8	1.49e+00	0	42	104	498073600	77	21399
2026-01-29 08:34:28.42	13.66	44.51	-53.4	-68.4	3.8	1.49e+00	0	42	104	498073600	77	21335
2026-01-29 08:34:29.42	13.22	44.34	-53.4	-68.4	3.8	1.49e+00	0	42	104	498073600	77	21331
2026-01-29 08:34:30.43	12.78	44.17	-53.4	-68.4	3.8	1.49e+00	0	42	104	498073600	77	21310
2026-01-29 08:34:31.44	12.35	44.00	-53.4	-68.4	3.8	1.49e+00	0	42	104	498073600	77	21278
2026-01-29 08:34:32.45	11.91	43.83	-53.4	-68.4	3.8	1.49e+00	0	42	104	498073600	77	21294
2026-01-29 08:34:33.46	11.49	43.66	-53.4	-68.4	3.8	1.49e+00	0	42	104	498073600	77	21295
2026-01-29 08:34:34.46	11.07	43.49	-53.4	-68.4	3.8	1.49e+00	0	42	104	498073600	77	21308
2026-01-29 08:34:35.47	10.65	43.32	-53.4	-68.4	3.8	1.49e+00	0	42	104	498073600	77	21270
2026-01-29 08:34:36.48	10.24	43.15	-53.4	-68.4	3.8	1.49e+00	0	42	104	498073600	77	21279
2026-01-29 08:34:37.49	9.83	42.97	-53.4	-68.3	3.8	1.49e+00	0	42	104	498073600	77	21247
2026-01-29 08:34:38.49	9.43	42.80	-53.4	-68.3	3.8	1.49e+00	0	42	104	498073600	77	21249
2026-01-29 08:34:39.50	9.03	42.62	-53.4	-68.3	3.8	1.49e+00	0	42	104	498073600	77	21224
2026-01-29 08:34:40.51	8.63	42.44	-53.3	-68.3	3.8	1.49e+00	0	42	104	498073600	77	21212
2026-01-29 08:34:41.52	8.24	42.26	-53.4	-68.3	3.8	1.49e+00	0	42	104	498073600	77	21225
2026-01-29 08:34:42.53	7.86	42.09	-53.3	-68.3	3.8	1.49e+00	0	42	104	498073600	77	21238
2026-01-29 08:34:43.54	7.47	41.91	-53.4	-68.4	3.8	1.49e+00	0	42	104	498073600	77	21283
2026-01-29 08:34:44.54	7.10	41.73	-53.4	-68.3	3.8	1.49e+00	0	42	104	498073600	77	21214
2026-01-29 08:34:45.55	6.73	41.55	-53.3	-68.3	3.8	1.49e+00	0	42	104	498073600	77	21233
2026-01-29 08:34:46.56	6.36	41.37	-53.3	-68.3	3.8	1.49e+00	0	42	104	498073600	77	21201
2026-01-29 08:34:47.57	5.99	41.19	-53.3	-68.3	3.8	1.49e+00	0	42	104	498073600	77	21130
2026-01-29 08:34:48.57	5.63	41.01	-53.3	-68.3	3.8	1.49e+00	0	42	104	498073600	77	21167
2026-01-29 08:34:49.58	5.28	40.83	-53.3	-68.3	3.8	1.49e+00	0	42	104	498073600	77	21126
2026-01-29 08:34:50.59	4.92	40.64	-53.3	-68.3	3.8	1.49e+00	0	42	104	498073600	77	21166
2026-01-29 08:34:51.60	4.57	40.46	-53.3	-68.3	3.8	1.49e+00	0	42	104	498073600	77	21151
2026-01-29 08:34:52.60	4.23	40.28	-53.3	-68.3	3.8	1.49e+00	0	42	104	498073600	77	21140
2026-01-29 08:34:53.61	3.89	40.10	-53.3	-68.3	3.8	1.49e+00	0	42	104	498073600	77	21121
2026-01-29 08:34:54.62	3.55	39.91	-53.3	-68.3	3.8	1.49e+00	0	42	104	498073600	77	21114
2026-01-29 08:34:55.63	3.22	39.73	-53.3	-68.3	3.8	1.49e+00	0	42	104	498073600	77	21155
2026-01-29 08:34:56.63	2.89	39.55	-53.3	-68.3	3.8	1.49e+00	0	42	104	498073600	77	21159
2026-01-29 08:34:57.64	2.56	39.36	-53.3	-68.3	3.8	1.49e+00	0	42	104	498073600	77	21190
2026-01-29 08:34:58.64	2.25	39.18	-53.3	-68.3	3.8	1.49e+00	0	42	104	498073600	77	21134
2026-01-29 08:34:59.65	1.93	39.00	-53.3	-68.3	3.8	1.49e+00	0	42	104	498073600	77	21108
2026-01-29 08:35:00.66	1.61	38.82	-53.3	-68.3	3.8	1.49e+00	0	42	104	498073600	77	21107
2026-01-29 08:35:01.67	1.30	38.63	-53.3	-68.3	3.8	1.49e+00	0	42	104	498073600	77	21071
2026-01-29 08:35:02.68	0.99	38.45	-53.3	-68.3	3.8	1.49e+00	0	42	104	498073600	77	21164
2026-01-29 08:35:03.68	0.69	38.27	-53.4	-68.4	3.8	1.49e+00	0	42	104	498073600	77	21438
2026-01-29 08:35:04.69	0.39	38.08	-53.5	-68.5	3.8	1.49e+00	0	42	104	498073600	77	21514
2026-01-29 08:35:05.70	0.09	37.90	-53.5	-68.5	3.8	1.49e+00	0	42	104	498073600	77	21570
2026-01-29 08:35:06.70	359.80	37.72	-53.5	-68.5	3.8	1.49e+00	0	42	104	498073600	77	21511
2026-01-29 08:35:07.71	359.51	37.53	-53.5	-68.5	3.8	1.49e+00	0	42	104	498073600	77	21517
2026-01-29 08:35:08.71	359.22	37.35	-53.5	-68.4	3.8	1.49e+00	0	42	104	498073600	77	21475
2026-01-29 08:35:09.72	358.94	37.17	-53.5	-68.4	3.8	1.49e+00	0	42	104	498073600	77	21465
2026-01-29 08:35:10.73	358.66	36.99	-53.5	-68.4	3.8	1.49e+00	0	42	104	498073600	77	21491
2026-01-29 08:35:11.74	358.38	36.80	-53.5	-68.4	3.8	1.49e+00	0	42	104	498073600	77	21447
2026-01-29 08:35:12.74	358.10	36.62	-53.5	-68.5	3.8	1.49e+00	0	42	104	498073600	77	21520
2026-01-29 08:35:13.75	357.83	36.44	-53.4	-68.4	3.8	1.49e+00	0	42	104	498073600	77	21484
2026-01-29 08:35:14.75	357.57	36.26	-53.5	-68.4	3.8	1.49e+00	0	42	104	498073600	77	21477
2026-01-29 08:35:15.76	357.30	36.08	-53.4	-68.4	3.8	1.49e+00	0	42	104	498073600	77	21405
2026-01-29 08:35:16.77	357.04	35.90	-53.4	-68.4	3.8	1.49e+00	0	42	104	498073600	77	21429
2026-01-29 08:35:17.78	356.78	35.72	-53.4	-68.4	3.8	1.49e+00	0	42	104	498073600	77	21441
2026-01-29 08:35:18.79	356.52	35.54	-53.4	-68.4	3.8	1.49e+00	0	42	104	498073600	77	21390
2026-01-29 08:35:19.80	356.26	35.36	-53.4	-68.4	3.8	1.49e+00	0	42	104	498073600	77	21421
2026-01-29 08:35:20.80	356.02	35.18	-53.4	-68.4	3.8	1.49e+00	0	42	104	498073600	77	21367
2026-01-29 08:35:21.80	355.77	35.00	-53.4	-68.4	3.8	1.49e+00	0	42	104	498073600	77	21421
2026-01-29 08:35:22.80	355.53	34.83	-53.4	-68.4	3.8	1.49e+00	0	42	104	498073600	77	21403
2026-01-29 08:35:23.81	355.28	34.65	-53.5	-68.5	3.8	1.49e+00	0	42	104	498073600	77	21549
2026-01-29 08:35:24.82	355.04	34.47	-53.5	-68.5	3.8	1.49e+00	0	42	104	498073600	77	21552
2026-01-29 08:35:25.83	354.80	34.29	-53.5	-68.4	3.8	1.49e+00	0	42	104	498073600	77	21504
2026-01-29 08:35:26.84	354.57	34.12	-53.5	-68.5	3.8	1.49e+00	0	42	104	498073600	77	21554
2026-01-29 08:35:27.84	354.34	33.94	-53.5	-68.4	3.8	1.49e+00	0	42	104	498073600	77	21480
2026-01-29 08:35:28.85	354.11	33.76	-53.5	-68.4	3.8	1.49e+00	0	42	104	498073600	77	21439
2026-01-29 08:35:29.86	353.88	33.59	-53.4	-68.4	3.8	1.49e+00	0	42	104	498073600	77	21450
2026-01-29 08:35:30.86	353.66	33.42	-53.4	-68.4	3.8	1.49e+00	0	42	104	498073600	77	21404
2026-01-29 08:35:31.87	353.43	33.24	-53.4	-68.4	3.8	1.49e+00	0	42	104	498073600	77	21420
2026-01-29 08:35:32.88	353.21	33.07	-53.4	-68.4	3.8	1.49e+00	0	42	104	498073600	77	21409
2026-01-29 08:35:33.89	352.99	32.89	-53.4	-68.4	3.8	1.49e+00	0	42	104	498073600	77	21357
2026-01-29 08:35:34.90	352.78	32.72	-53.4	-68.4	3.8	1.49e+00	0	42	104	498073600	77	21377
2026-01-29 08:35:35.90	352.57	32.55	-53.4	-68.4	3.8	1.49e+00	0	42	104	498073600	77	21329
2026-01-29 08:35:36.91	352.36	32.38	-53.4	-68.4	3.8	1.49e+00	0	42	104	498073600	77	21376
2026-01-29 08:35:37.92	352.15	32.21	-53.4	-68.4	3.8	1.49e+00	0	42	104	498073600	77	21363
2026-01-29 08:35:38.93	351.94	32.03	-53.4	-68.4	3.8	1.49e+00	0	42	104	498073600	77	21321
2026-01-29 08:35:39.94	351.74	31.86	-53.4	-68.4	3.8	1.49e+00	0	42	104	498073600	77	21323
2026-01-29 08:35:40.94	351.53	31.70	-53.4	-68.4	3.8	1.49e+00	0	42	104	498073600	77	21294
2026-01-29 08:35:41.95	351.33	31.53	-53.4	-68.4	3.8	1.49e+00	0	42	104	498073600	77	21298
2026-01-29 08:35:42.96	351.14	31.36	-53.4	-68.4	3.8	1.49e+00	0	42	104	498073600	77	21282
2026-01-29 08:35:43.97	350.94	31.19	-53.4	-68.4	3.8	1.49e+00	0	42	104	498073600	77	21320
2026-01-29 08:35:44.98	350.75	31.02	-53.4	-68.3	3.8	1.49e+00	0	42	104	498073600	77	21240
2026-01-29 08:35:45.98	350.56	30.86	-53.4	-68.4	3.8	1.49e+00	0	42	104	498073600	77	21283
2026-01-29 08:35:46.99	350.37	30.69	-53.4	-68.4	3.8	1.49e+00	0	42	104	498073600	77	21343
2026-01-29 08:35:48.00	350.18	30.52	-53.4	-68.4	3.8	1.49e+00	0	42	104	498073600	77	21285
2026-01-29 08:35:49.01	349.99	30.36	-53.4	-68.4	3.8	1.49e+00	0	42	104	498073600	77	21272
2026-01-29 08:35:50.02	349.81	30.19	-53.4	-68.4	3.8	1.49e+00	0	42	104	498073600	77	21284
2026-01-29 08:35:51.02	349.63	30.03	-53.4	-68.4	3.8	1.49e+00	0	42	104	498073600	77	21303
2026-01-29 08:35:52.03	349.45	29.87	-53.4	-68.3	3.8	1.49e+00	0	42	104	498073600	77	21244
2026-01-29 08:35:53.03	349.27	29.71	-53.4	-68.4	3.8	1.49e+00	0	42	104	498073600	77	21278
2026-01-29 08:35:54.04	349.09	29.55	-53.4	-68.3	3.8	1.49e+00	0	42	104	498073600	77	21260
2026-01-29 08:35:55.04	348.92	29.39	-53.4	-68.4	3.8	1.49e+00	0	42	104	498073600	77	21264
2026-01-29 08:35:56.05	348.75	29.22	-53.4	-68.3	3.8	1.49e+00	0	42	104	498073600	77	21234
2026-01-29 08:35:57.06	348.58	29.06	-53.4	-68.4	3.8	1.49e+00	0	42	104	498073600	77	21274
2026-01-29 08:35:58.07	348.41	28.90	-53.4	-68.4	3.8	1.49e+00	0	42	104	498073600	77	21261
2026-01-29 08:35:59.08	348.24	28.75	-53.4	-68.4	3.8	1.49e+00	0	42	104	498073600	77	21430
2026-01-29 08:36:00.09	348.07	28.59	-53.5	-68.5	3.8	1.49e+00	0	42	104	498073600	77	21532
2026-01-29 08:36:01.09	347.91	28.43	-53.4	-68.4	3.8	1.49e+00	0	42	104	498073600	77	21427
2026-01-29 08:36:02.10	347.75	28.27	-53.4	-68.4	3.8	1.49e+00	0	42	104	498073600	77	21425
2026-01-29 08:36:03.11	347.59	28.12	-53.5	-68.5	3.8	1.49e+00	0	42	104	498073600	77	21520
2026-01-29 08:36:04.11	347.43	27.96	-53.5	-68.5	3.8	1.49e+00	0	42	104	498073600	77	21728
2026-01-29 08:36:05.12	347.27	27.81	-53.6	-68.6	3.8	1.49e+00	0	42	104	498073600	77	21811
2026-01-29 08:36:06.13	347.11	27.65	-53.6	-68.6	3.8	1.49e+00	0	42	104	498073600	77	21775
2026-01-29 08:36:07.14	346.96	27.50	-53.6	-68.5	3.8	1.49e+00	0	42	104	498073600	77	21719
2026-01-29 08:36:08.15	346.80	27.35	-53.6	-68.5	3.8	1.49e+00	0	42	104	498073600	77	21728
2026-01-29 08:36:09.16	346.65	27.19	-53.5	-68.5	3.8	1.49e+00	0	42	104	498073600	77	21650
2026-01-29 08:36:10.17	346.50	27.04	-53.6	-68.6	3.8	1.49e+00	0	42	104	498073600	77	21799
2026-01-29 08:36:11.17	346.35	26.89	-53.6	-68.6	3.8	1.49e+00	0	42	104	498073600	77	21764
2026-01-29 08:36:12.17	346.21	26.74	-53.6	-68.5	3.8	1.49e+00	0	42	104	498073600	77	21694
2026-01-29 08:36:13.18	346.06	26.59	-53.6	-68.5	3.8	1.49e+00	0	42	104	498073600	77	21730
2026-01-29 08:36:14.19	345.92	26.44	-53.5	-68.5	3.8	1.49e+00	0	42	104	498073600	77	21735
2026-01-29 08:36:15.20	345.77	26.29	-53.6	-68.5	3.8	1.49e+00	0	42	104	498073600	77	21733
2026-01-29 08:36:16.21	345.63	26.14	-53.6	-68.6	3.8	1.49e+00	0	42	104	498073600	77	21765
2026-01-29 08:36:17.22	345.49	26.00	-53.5	-68.5	3.8	1.49e+00	0	42	104	498073600	77	21681
2026-01-29 08:36:18.23	345.35	25.85	-53.5	-68.5	3.8	1.49e+00	0	42	104	498073600	77	21667
2026-01-29 08:36:19.23	345.21	25.70	-53.5	-68.5	3.8	1.49e+00	0	42	104	498073600	77	21631
2026-01-29 08:36:20.24	345.08	25.56	-53.5	-68.5	3.8	1.49e+00	0	42	104	498073600	77	21607
2026-01-29 08:36:21.25	344.94	25.41	-53.5	-68.5	3.8	1.49e+00	0	42	104	498073600	77	21707
2026-01-29 08:36:22.25	344.81	25.27	-53.6	-68.6	3.8	1.49e+00	0	42	104	498073600	77	21836
2026-01-29 08:36:23.26	344.67	25.12	-53.6	-68.6	3.8	1.49e+00	0	42	104	498073600	77	21951
2026-01-29 08:36:24.26	344.54	24.98	-53.6	-68.6	3.8	1.49e+00	0	42	104	498073600	77	21987
2026-01-29 08:36:25.27	344.41	24.84	-53.7	-68.7	3.8	1.49e+00	0	42	104	498073600	77	22060
2026-01-29 08:36:26.28	344.28	24.70	-53.8	-68.7	3.8	1.49e+00	0	42	104	498073600	78	20994
2026-01-29 08:36:27.29	344.16	24.56	-53.8	-68.8	3.8	1.49e+00	0	42	104	498073600	78	21066
2026-01-29 08:36:28.30	344.03	24.41	-53.8	-68.8	3.8	1.49e+00	0	42	104	498073600	78	21173
2026-01-29 08:36:29.31	343.90	24.27	-53.8	-68.8	3.8	1.49e+00	0	42	104	498073600	78	21143
2026-01-29 08:36:30.31	343.78	24.14	-53.8	-68.8	3.8	1.49e+00	0	42	104	498073600	78	21098
2026-01-29 08:36:31.32	343.66	24.00	-53.8	-68.8	3.8	1.49e+00	0	42	104	498073600	78	21062
2026-01-29 08:36:32.32	343.54	23.86	-53.8	-68.8	3.8	1.49e+00	0	42	104	498073600	78	21053
2026-01-29 08:36:33.33	343.41	23.72	-53.8	-68.8	3.8	1.49e+00	0	42	104	498073600	78	21046
2026-01-29 08:36:34.34	343.29	23.58	-53.8	-68.8	3.8	1.49e+00	0	42	104	498073600	78	21043
2026-01-29 08:36:35.35	343.17	23.45	-53.8	-68.7	3.8	1.49e+00	0	42	104	498073600	78	20971
2026-01-29 08:36:36.35	343.06	23.31	-53.8	-68.8	3.8	1.49e+00	0	42	104	498073600	78	21038
2026-01-29 08:36:37.36	342.94	23.18	-53.8	-68.7	3.8	1.49e+00	0	42	104	498073600	78	20976
2026-01-29 08:36:38.37	342.82	23.04	-53.8	-68.7	3.8	1.49e+00	0	42	104	498073600	78	20999
2026-01-29 08:36:39.38	342.71	22.91	-53.8	-68.8	3.8	1.49e+00	0	42	104	498073600	78	21045
2026-01-29 08:36:40.39	342.60	22.77	-53.7	-68.7	3.8	1.49e+00	0	42	104	498073600	78	20978
2026-01-29 08:36:41.40	342.48	22.64	-53.7	-68.7	3.8	1.49e+00	0	42	104	498073600	78	20972
2026-01-29 08:36:42.40	342.37	22.51	-53.7	-68.7	3.8	1.49e+00	0	42	104	498073600	78	20931
2026-01-29 08:36:43.41	342.26	22.37	-53.7	-68.7	3.8	1.49e+00	0	42	104	498073600	78	20902
2026-01-29 08:36:44.42	342.15	22.24	-53.7	-68.7	3.8	1.49e+00	0	42	104	498073600	78	20894
2026-01-29 08:36:45.42	342.04	22.11	-53.7	-68.7	3.8	1.49e+00	0	42	104	498073600	78	20898
2026-01-29 08:36:46.43	341.93	21.98	-53.7	-68.7	3.8	1.49e+00	0	42	104	498073600	78	20870
2026-01-29 08:36:47.44	341.83	21.85	-53.7	-68.7	3.8	1.49e+00	0	42	104	498073600	78	20910
2026-01-29 08:36:48.45	341.72	21.72	-53.7	-68.7	3.8	1.49e+00	0	42	104	498073600	78	20953
2026-01-29 08:36:49.45	341.62	21.59	-53.7	-68.7	3.8	1.49e+00	0	42	104	498073600	78	20858
2026-01-29 08:36:50.46	341.51	21.47	-53.7	-68.7	3.8	1.49e+00	0	43	104	498073600	78	20932
2026-01-29 08:36:51.46	341.41	21.34	-53.7	-68.7	3.8	1.49e+00	0	42	104	498073600	78	20848
2026-01-29 08:36:52.46	341.31	21.21	-53.7	-68.7	3.8	1.49e+00	0	42	104	498073600	78	20886
2026-01-29 08:36:53.47	341.21	21.09	-53.7	-68.7	3.8	1.49e+00	0	42	104	498073600	78	20880
2026-01-29 08:36:54.48	341.11	20.96	-53.7	-68.7	3.8	1.49e+00	0	42	104	498073600	78	20876
2026-01-29 08:36:55.49	341.01	20.83	-53.7	-68.7	3.8	1.49e+00	0	42	104	498073600	78	20807
2026-01-29 08:36:56.49	340.91	20.71	-53.7	-68.7	3.8	1.49e+00	0	42	104	498073600	78	20880
2026-01-29 08:36:57.50	340.81	20.59	-53.7	-68.7	3.8	1.49e+00	0	42	104	498073600	78	20829
2026-01-29 08:36:58.51	340.71	20.46	-53.8	-68.7	3.8	1.49e+00	0	43	104	498073600	78	20969
2026-01-29 08:36:59.52	340.61	20.34	-53.7	-68.7	3.8	1.49e+00	0	42	104	498073600	78	21004
2026-01-29 08:37:00.52	340.52	20.22	-53.7	-68.7	3.8	1.49e+00	0	42	104	498073600	78	20872
2026-01-29 08:37:01.53	340.42	20.09	-53.7	-68.7	3.8	1.49e+00	0	42	104	498073600	78	20835
2026-01-29 08:37:02.53	340.33	19.97	-53.7	-68.7	3.8	1.49e+00	0	42	104	498073600	78	20855
2026-01-29 08:37:03.54	340.24	19.85	-53.7	-68.7	3.8	1.49e+00	0	42	104	498073600	78	20891
2026-01-29 08:37:04.54	340.14	19.73	-53.7	-68.7	3.8	1.49e+00	0	42	104	498073600	78	20805
2026-01-29 08:37:05.55	340.05	19.61	-53.7	-68.7	3.8	1.49e+00	0	42	104	498073600	78	20831
2026-01-29 08:37:06.56	339.96	19.49	-53.7	-68.7	3.8	1.49e+00	0	42	104	498073600	78	20876
2026-01-29 08:37:07.57	339.87	19.37	-53.7	-68.7	3.8	1.49e+00	0	42	104	498073600	78	20875
2026-01-29 08:37:08.57	339.78	19.25	-53.7	-68.7	3.8	1.49e+00	0	42	104	498073600	78	20870
2026-01-29 08:37:09.58	339.69	19.13	-53.7	-68.7	3.8	1.49e+00	0	42	104	498073600	78	20829
2026-01-29 08:37:10.58	339.60	19.02	-53.7	-68.7	3.8	1.49e+00	0	42	104	498073600	78	20833
2026-01-29 08:37:11.59	339.52	18.90	-53.7	-68.7	3.8	1.49e+00	0	42	104	498073600	78	20833
2026-01-29 08:37:12.60	339.43	18.78	-53.7	-68.7	3.8	1.49e+00	0	42	104	498073600	78	20811
2026-01-29 08:37:13.61	339.34	18.67	-53.7	-68.7	3.8	1.49e+00	0	42	104	498073600	78	20847
2026-01-29 08:37:14.61	339.26	18.55	-53.7	-68.7	3.8	1.49e+00	0	42	104	498073600	78	20827
2026-01-29 08:37:15.62	339.17	18.43	-53.7	-68.6	3.8	1.49e+00	0	42	104	498073600	78	20750
2026-01-29 08:37:16.62	339.09	18.32	-53.7	-68.7	3.8	1.49e+00	0	42	104	498073600	78	20813
2026-01-29 08:37:17.63	339.01	18.21	-53.7	-68.6	3.8	1.49e+00	0	42	104	498073600	78	20764
2026-01-29 08:37:18.63	338.92	18.09	-53.7	-68.7	3.8	1.49e+00	0	42	104	498073600	78	20842
2026-01-29 08:37:19.64	338.84	17.98	-53.7	-68.7	3.8	1.49e+00	0	42	104	498073600	78	20825
2026-01-29 08:37:20.65	338.76	17.87	-53.7	-68.7	3.8	1.49e+00	0	42	104	498073600	78	20819
2026-01-29 08:37:21.65	338.68	17.75	-53.7	-68.6	3.8	1.49e+00	0	42	104	498073600	78	20761
2026-01-29 08:37:22.66	338.60	17.64	-53.7	-68.7	3.8	1.49e+00	0	42	104	498073600	78	20817
2026-01-29 08:37:23.67	338.52	17.53	-53.7	-68.7	3.8	1.49e+00	0	42	104	498073600	78	20809
2026-01-29 08:37:24.67	338.44	17.42	-53.7	-68.6	3.8	1.49e+00	0	42	104	498073600	78	20775
2026-01-29 08:37:25.68	338.36	17.31	-53.7	-68.7	3.8	1.49e+00	0	42	104	498073600	78	20807
2026-01-29 08:37:26.69	338.28	17.20	-53.7	-68.7	3.8	1.49e+00	0	42	104	498073600	78	20796
2026-01-29 08:37:27.70	338.21	17.09	-53.7	-68.7	3.8	1.49e+00	0	42	104	498073600	78	20826
2026-01-29 08:37:28.71	338.13	16.98	-53.7	-68.7	3.8	1.49e+00	0	42	104	498073600	78	20797
2026-01-29 08:37:29.71	338.05	16.87	-53.7	-68.7	3.8	1.49e+00	0	42	104	498073600	78	20837
2026-01-29 08:37:30.71	337.98	16.76	-53.8	-68.8	3.8	1.49e+00	0	42	104	498073600	78	21026
2026-01-29 08:37:31.72	337.90	16.65	-53.8	-68.7	3.8	1.49e+00	0	42	104	498073600	78	20970
2026-01-29 08:37:32.73	337.83	16.54	-53.7	-68.7	3.8	1.49e+00	0	42	104	498073600	78	20971
2026-01-29 08:37:33.74	337.76	16.44	-53.7	-68.7	3.8	1.49e+00	0	42	104	498073600	78	20974
2026-01-29 08:37:34.74	337.68	16.33	-53.8	-68.8	3.8	1.49e+00	0	43	104	498073600	78	21106
2026-01-29 08:37:35.75	337.61	16.22	-53.8	-68.8	3.8	1.49e+00	0	42	104	498073600	78	21071
2026-01-29 08:37:36.76	337.54	16.12	-53.8	-68.8	3.8	1.49e+00	0	42	104	498073600	78	21044
2026-01-29 08:37:37.76	337.47	16.01	-53.8	-68.8	3.8	1.49e+00	0	43	104	498073600	78	21189
2026-01-29 08:37:38.77	337.40	15.91	-53.9	-68.9	3.8	1.49e+00	0	42	104	498073600	78	21388
2026-01-29 08:37:39.78	337.32	15.80	-53.9	-68.9	3.8	1.49e+00	0	42	104	498073600	78	21413
2026-01-29 08:37:40.79	337.25	15.70	-54.0	-68.9	3.8	1.49e+00	0	42	104	498073600	78	21483
2026-01-29 08:37:41.80	337.18	15.59	-54.0	-68.9	3.8	1.49e+00	0	42	104	498073600	78	21496
2026-01-29 08:37:42.80	337.12	15.49	-54.0	-68.9	3.8	1.49e+00	0	42	104	498073600	78	21477
2026-01-29 08:37:43.81	337.05	15.38	-54.0	-69.0	3.8	1.49e+00	0	42	104	498073600	78	21515
2026-01-29 08:37:44.82	336.98	15.28	-53.9	-68.9	3.8	1.49e+00	0	42	104	498073600	78	21365
2026-01-29 08:37:45.82	336.91	15.18	-53.9	-68.9	3.8	1.49e+00	0	42	104	498073600	78	21422
2026-01-29 08:37:46.83	336.84	15.08	-53.9	-68.9	3.8	1.49e+00	0	42	104	498073600	78	21395
2026-01-29 08:37:47.84	336.78	14.98	-54.0	-69.0	3.8	1.49e+00	0	43	104	498073600	78	21515
2026-01-29 08:37:48.85	336.71	14.87	-54.0	-68.9	3.8	1.49e+00	0	42	104	498073600	78	21381
2026-01-29 08:37:49.85	336.65	14.77	-53.9	-68.9	3.8	1.49e+00	0	42	104	498073600	78	21407
2026-01-29 08:37:50.86	336.58	14.67	-53.9	-68.8	3.8	1.49e+00	0	42	104	498073600	78	21258
2026-01-29 08:37:51.87	336.52	14.57	-53.8	-68.8	3.8	1.49e+00	0	42	104	498073600	78	21071
2026-01-29 08:37:52.88	336.45	14.47	-53.7	-68.7	3.8	1.49e+00	0	42	104	498073600	78	20877
2026-01-29 08:37:53.88	336.39	14.37	-53.6	-68.6	3.8	1.49e+00	0	42	104	498073600	78	20750
