passes_logs/2026/01/29/R3.2S_Murmansk/R3.2S_Murmansk__20260129_225046_AQUA_rec.log

#Pass ID: 20260129_225046_AQUA
#Satellite: AQUA
#Configuration: AQUA
#almurnet v.1.7.20251203
#Start time: 2026-01-29 22:50:47

#Version: 2.2.20231116
#Station: R3.2S_Murmansk
#Location: 33.079688 lon 68.888172 lat
#TLE: 1 27424U 02022A   26029.54575153  .00001738  00000+0  35736-3 0  9994
#TLE: 2 27424  98.4104 356.2197 0001804  61.7823  56.0643 14.61874165263019

#Time	Az	El	Level	Level2	SNR	BER	BlckErr	Temp	State	Recorded	gain1	gain2
2026-01-29 22:50:47.15	23.78	2.01	-55.4	-73.2	3.8	7.43e-01	0	39	0	0	82	27805
2026-01-29 22:50:48.15	23.90	2.05	-55.3	-73.2	3.8	7.43e-01	0	39	104	0	81	29465
2026-01-29 22:50:49.16	24.02	2.09	-55.3	-73.2	3.8	7.46e-01	0	39	104	0	81	29410
2026-01-29 22:50:50.17	24.15	2.13	-55.3	-73.2	3.8	7.44e-01	0	39	104	0	81	29378
2026-01-29 22:50:51.18	24.27	2.17	-55.3	-73.1	3.8	7.45e-01	0	39	104	0	81	29038
2026-01-29 22:50:52.18	24.40	2.21	-55.5	-73.3	3.8	7.44e-01	0	39	104	0	81	29897
2026-01-29 22:50:53.18	24.52	2.25	-55.6	-73.4	3.8	7.42e-01	0	39	104	0	81	30089
2026-01-29 22:50:54.19	24.65	2.29	-55.6	-73.4	3.8	7.44e-01	0	39	104	0	81	30312
2026-01-29 22:50:55.19	24.77	2.33	-55.6	-73.4	3.8	7.45e-01	0	39	104	0	81	30207
2026-01-29 22:50:56.20	24.90	2.37	-55.6	-73.4	3.8	7.48e-01	0	39	104	0	81	30146
2026-01-29 22:50:57.21	25.02	2.41	-55.5	-73.4	3.8	7.46e-01	0	39	104	0	81	30122
2026-01-29 22:50:58.22	25.15	2.45	-55.5	-73.3	3.8	7.45e-01	0	39	104	0	81	29949
2026-01-29 22:50:59.23	25.28	2.49	-55.5	-73.3	3.8	7.46e-01	0	39	104	0	81	29898
2026-01-29 22:51:00.23	25.40	2.53	-55.5	-73.3	3.8	7.45e-01	0	40	104	0	81	29913
2026-01-29 22:51:01.24	25.53	2.57	-55.4	-73.2	3.8	7.45e-01	0	40	104	0	81	29650
2026-01-29 22:51:02.25	25.66	2.61	-55.4	-73.2	3.8	7.46e-01	0	39	104	0	81	29597
2026-01-29 22:51:03.25	25.79	2.64	-55.4	-73.3	3.8	7.44e-01	0	40	104	0	81	29698
2026-01-29 22:51:04.25	25.91	2.68	-55.4	-73.2	3.8	7.45e-01	0	40	104	0	81	29651
2026-01-29 22:51:05.26	26.04	2.72	-55.4	-73.2	3.8	7.45e-01	0	40	104	0	81	29492
2026-01-29 22:51:06.26	26.17	2.76	-55.3	-73.1	3.8	7.46e-01	0	40	104	0	81	29258
2026-01-29 22:51:07.27	26.30	2.80	-55.2	-73.1	3.8	7.44e-01	0	40	104	0	81	29031
2026-01-29 22:51:08.28	26.43	2.84	-55.1	-72.9	3.8	7.44e-01	0	40	104	0	81	28670
2026-01-29 22:51:09.28	26.56	2.88	-55.0	-72.8	3.8	7.46e-01	0	40	104	0	81	28284
2026-01-29 22:51:10.29	26.69	2.92	-54.9	-72.7	3.8	7.46e-01	0	40	104	0	81	27813
2026-01-29 22:51:11.29	26.82	2.96	-54.7	-72.5	3.8	7.49e-01	0	40	104	0	81	27250
2026-01-29 22:51:12.29	26.95	3.00	-54.4	-72.2	3.8	7.46e-01	0	40	104	0	80	27963
2026-01-29 22:51:13.30	27.08	3.03	-54.1	-71.9	3.8	7.45e-01	0	40	104	0	80	26909
2026-01-29 22:51:14.31	27.22	3.07	-53.7	-71.4	3.8	7.44e-01	0	40	104	0	79	26827
2026-01-29 22:51:15.31	27.35	3.11	-53.6	-71.3	3.8	7.47e-01	0	40	104	0	79	26493
2026-01-29 22:51:16.32	27.48	3.15	-53.6	-71.2	3.8	7.47e-01	0	40	104	0	79	26386
2026-01-29 22:51:17.32	27.61	3.19	-53.5	-71.2	3.8	7.44e-01	0	40	104	0	79	26250
2026-01-29 22:51:18.33	27.75	3.23	-53.5	-71.0	3.8	7.46e-01	0	40	104	0	79	25778
2026-01-29 22:51:19.34	27.88	3.27	-53.5	-70.9	3.8	7.43e-01	0	40	104	0	79	25377
2026-01-29 22:51:20.34	28.02	3.30	-53.5	-70.9	3.8	7.49e-01	0	40	104	0	79	25315
2026-01-29 22:51:21.35	28.15	3.34	-53.5	-70.8	3.8	7.49e-01	0	40	104	0	79	25252
2026-01-29 22:51:22.36	28.29	3.38	-53.5	-70.6	3.8	7.46e-01	0	40	104	0	79	24456
2026-01-29 22:51:23.36	28.42	3.42	-53.5	-70.6	3.8	7.50e-01	0	40	104	0	79	24422
2026-01-29 22:51:24.37	28.56	3.46	-53.5	-70.5	3.8	7.45e-01	0	40	104	0	79	24366
2026-01-29 22:51:25.38	28.69	3.50	-53.5	-70.7	3.8	7.45e-01	0	40	104	0	79	24711
2026-01-29 22:51:26.39	28.83	3.53	-53.5	-70.3	3.8	7.49e-01	0	40	104	0	78	25129
2026-01-29 22:51:27.39	28.97	3.57	-53.5	-70.5	3.8	7.45e-01	0	40	104	0	78	25723
2026-01-29 22:51:28.40	29.11	3.61	-53.5	-70.5	3.8	7.47e-01	0	40	104	0	78	25623
2026-01-29 22:51:29.41	29.24	3.65	-53.5	-70.5	3.8	7.44e-01	0	40	104	0	78	25644
2026-01-29 22:51:30.42	29.38	3.69	-53.5	-70.6	3.8	7.45e-01	0	40	104	0	78	26136
2026-01-29 22:51:31.42	29.52	3.72	-53.5	-70.6	3.8	7.45e-01	0	40	104	0	78	25893
2026-01-29 22:51:32.43	29.66	3.76	-53.5	-70.6	3.8	7.46e-01	0	40	104	0	78	25959
2026-01-29 22:51:33.44	29.80	3.80	-53.5	-70.6	3.8	7.43e-01	0	40	104	0	78	26017
2026-01-29 22:51:34.44	29.94	3.84	-53.5	-70.7	3.8	7.45e-01	0	40	104	0	78	26428
2026-01-29 22:51:35.45	30.08	3.87	-53.5	-70.8	3.8	7.43e-01	0	40	104	0	78	26731
2026-01-29 22:51:36.46	30.22	3.91	-53.5	-70.8	3.8	7.47e-01	0	40	104	0	78	26722
2026-01-29 22:51:37.46	30.36	3.95	-53.4	-70.7	3.8	7.46e-01	0	40	104	0	78	26391
2026-01-29 22:51:38.47	30.50	3.98	-53.4	-70.8	3.8	7.45e-01	0	40	104	0	78	26624
2026-01-29 22:51:39.48	30.64	4.02	-53.5	-71.0	3.8	7.46e-01	0	40	104	0	78	27090
2026-01-29 22:51:40.49	30.78	4.06	-53.5	-71.1	3.8	7.46e-01	0	40	104	0	78	27558
2026-01-29 22:51:41.49	30.92	4.10	-53.5	-71.2	3.8	7.42e-01	0	40	104	0	78	27762
2026-01-29 22:51:42.50	31.07	4.13	-53.5	-71.2	3.8	7.47e-01	0	40	104	0	78	27905
2026-01-29 22:51:43.50	31.21	4.17	-53.5	-71.2	3.8	7.45e-01	0	41	104	0	78	27984
2026-01-29 22:51:44.51	31.35	4.21	-53.5	-71.2	3.8	7.45e-01	0	41	104	0	78	27887
2026-01-29 22:51:45.52	31.50	4.24	-53.4	-71.1	3.8	7.47e-01	0	40	104	0	78	27497
2026-01-29 22:51:46.53	31.64	4.28	-53.4	-71.0	3.8	7.46e-01	0	40	104	0	78	27152
2026-01-29 22:51:47.53	31.79	4.32	-53.4	-70.9	3.8	7.47e-01	0	40	104	0	78	26828
2026-01-29 22:51:48.54	31.93	4.35	-53.4	-71.1	3.8	7.47e-01	0	40	104	0	78	27475
2026-01-29 22:51:49.54	32.08	4.39	-53.4	-71.2	3.8	7.46e-01	0	40	104	0	78	27860
2026-01-29 22:51:50.55	32.22	4.42	-53.4	-71.1	3.8	7.46e-01	0	40	104	0	78	27491
2026-01-29 22:51:51.56	32.37	4.46	-53.4	-71.0	3.8	7.46e-01	0	40	104	0	78	27098
2026-01-29 22:51:52.56	32.51	4.50	-53.4	-71.2	3.8	7.44e-01	0	41	104	0	78	27776
2026-01-29 22:51:53.57	32.66	4.53	-53.4	-71.1	3.8	7.47e-01	0	41	104	0	78	27394
2026-01-29 22:51:54.58	32.81	4.57	-53.4	-69.3	3.8	7.43e-01	0	40	104	0	78	22385
2026-01-29 22:51:55.59	32.96	4.61	-53.3	-67.0	3.9	7.35e-01	0	41	104	0	78	17235
2026-01-29 22:51:56.59	33.10	4.64	-53.2	-65.3	5.2	7.03e-01	10	41	0	0	78	14100
2026-01-29 22:51:57.60	33.25	4.68	-53.2	-64.8	5.5	6.94e-01	40	41	0	524288	78	13377
2026-01-29 22:51:58.61	33.40	4.71	-52.9	-62.4	7.1	6.60e-01	183	41	0	1572864	77	10762
2026-01-29 22:51:59.62	33.55	4.75	-52.0	-58.1	11.9	6.06e-01	0	41	0	3670016	76	6886
2026-01-29 22:52:00.63	33.70	4.78	-50.2	-53.7	16.4	6.01e-01	0	41	0	5242880	72	5249
2026-01-29 22:52:01.64	33.85	4.82	-48.2	-50.4	19.8	6.01e-01	0	41	0	7340032	68	4514
2026-01-29 22:52:02.65	34.00	4.85	-46.7	-48.5	21.8	6.03e-01	0	41	0	9437184	65	4307
2026-01-29 22:52:03.65	34.15	4.89	-45.9	-47.5	22.8	6.01e-01	0	41	0	11534336	63	4315
2026-01-29 22:52:04.66	34.30	4.92	-45.5	-47.0	23.3	6.02e-01	0	41	0	13107200	63	4091
2026-01-29 22:52:05.67	34.45	4.96	-46.0	-47.6	22.8	6.02e-01	0	41	0	15204352	63	4365
2026-01-29 22:52:06.68	34.61	4.99	-47.2	-49.1	21.3	6.01e-01	0	41	0	16777216	64	4896
2026-01-29 22:52:07.68	34.76	5.03	-47.4	-49.4	21.1	6.01e-01	0	41	0	18874368	66	4507
2026-01-29 22:52:08.69	34.91	5.06	-45.4	-46.9	23.4	6.01e-01	0	41	0	20447232	63	4039
2026-01-29 22:52:09.70	35.06	5.10	-50.0	-53.3	17.6	5.98e-01	0	41	0	22544384	70	5632
2026-01-29 22:52:10.70	35.22	5.13	-48.6	-51.1	19.2	6.00e-01	0	41	0	24641536	69	4646
2026-01-29 22:52:11.71	35.37	5.16	-47.0	-48.8	22.0	6.01e-01	0	41	0	26214400	64	4722
2026-01-29 22:52:12.71	35.52	5.20	-45.6	-47.1	23.2	6.03e-01	0	41	0	28311552	63	4123
2026-01-29 22:52:13.72	35.68	5.23	-45.6	-47.1	23.3	6.02e-01	0	41	0	29884416	62	4372
2026-01-29 22:52:14.72	35.83	5.27	-45.6	-47.1	23.3	6.00e-01	0	41	0	31981568	62	4349
2026-01-29 22:52:15.73	35.99	5.30	-45.4	-46.9	23.4	6.01e-01	0	41	0	33554432	62	4278
2026-01-29 22:52:16.73	36.14	5.33	-45.6	-47.1	23.3	6.01e-01	0	41	0	35651584	62	4346
2026-01-29 22:52:17.74	36.30	5.37	-45.1	-46.5	23.8	6.01e-01	0	41	0	37748736	62	4097
2026-01-29 22:52:18.75	36.46	5.40	-45.2	-46.7	23.7	6.01e-01	0	41	0	39845888	62	4163
2026-01-29 22:52:19.75	36.61	5.43	-45.2	-46.7	23.8	6.02e-01	0	41	0	41418752	62	4148
2026-01-29 22:52:20.76	36.77	5.47	-45.2	-46.6	23.8	5.99e-01	0	41	0	43515904	62	4131
2026-01-29 22:52:21.77	36.93	5.50	-45.4	-46.9	23.5	6.01e-01	0	41	0	45088768	62	4256
2026-01-29 22:52:22.78	37.09	5.53	-45.2	-46.7	23.7	6.02e-01	0	41	0	47185920	62	4161
2026-01-29 22:52:23.79	37.24	5.57	-45.3	-46.8	23.7	6.00e-01	0	41	0	48758784	62	4207
2026-01-29 22:52:24.80	37.40	5.60	-45.4	-46.9	23.5	6.01e-01	0	41	0	50855936	62	4261
2026-01-29 22:52:25.81	37.56	5.63	-45.3	-46.7	23.6	6.00e-01	0	41	0	52953088	62	4179
2026-01-29 22:52:26.82	37.72	5.66	-45.2	-46.7	23.7	6.00e-01	0	41	0	54525952	62	4167
2026-01-29 22:52:27.82	37.88	5.70	-45.1	-46.5	23.8	6.00e-01	0	41	0	56623104	62	4094
2026-01-29 22:52:28.83	38.04	5.73	-45.0	-46.5	23.9	5.99e-01	0	41	0	58195968	61	4295
2026-01-29 22:52:29.84	38.20	5.76	-45.0	-46.5	23.9	6.03e-01	0	41	0	60293120	61	4296
2026-01-29 22:52:30.85	38.36	5.79	-45.1	-46.5	23.9	6.00e-01	0	41	0	62390272	61	4302
2026-01-29 22:52:31.86	38.53	5.82	-45.2	-46.7	23.7	6.04e-01	0	41	0	63963136	61	4402
2026-01-29 22:52:32.87	38.69	5.85	-45.2	-46.7	23.7	6.01e-01	0	41	0	66060288	61	4393
2026-01-29 22:52:33.88	38.85	5.89	-45.1	-46.6	23.8	5.99e-01	0	41	0	68157440	61	4349
2026-01-29 22:52:34.88	39.01	5.92	-45.2	-46.7	23.8	6.00e-01	0	41	0	69730304	61	4392
2026-01-29 22:52:35.89	39.17	5.95	-44.9	-46.3	24.1	5.98e-01	0	41	0	71827456	61	4235
2026-01-29 22:52:36.90	39.34	5.98	-45.2	-46.7	23.7	6.00e-01	0	41	0	73400320	61	4410
2026-01-29 22:52:37.90	39.50	6.01	-45.1	-46.5	23.9	6.02e-01	0	41	0	75497472	61	4320
2026-01-29 22:52:38.91	39.66	6.04	-45.0	-46.4	23.9	6.02e-01	0	41	0	77070336	61	4276
2026-01-29 22:52:39.92	39.83	6.07	-45.0	-46.4	24.0	5.99e-01	0	41	0	79167488	61	4270
2026-01-29 22:52:40.92	39.99	6.10	-45.1	-46.5	23.9	5.99e-01	0	41	0	81264640	61	4331
2026-01-29 22:52:41.93	40.16	6.13	-45.0	-46.4	24.0	5.99e-01	0	41	0	82837504	61	4289
2026-01-29 22:52:42.94	40.32	6.16	-45.0	-46.4	24.0	6.02e-01	0	41	0	84934656	61	4286
2026-01-29 22:52:43.94	40.49	6.19	-45.1	-46.5	23.8	5.98e-01	0	41	0	86507520	61	4333
2026-01-29 22:52:44.95	40.65	6.22	-45.1	-46.5	23.9	5.99e-01	0	41	0	88604672	61	4294
2026-01-29 22:52:45.95	40.82	6.25	-45.0	-46.3	24.1	6.00e-01	0	41	0	90701824	61	4238
2026-01-29 22:52:46.96	40.99	6.28	-44.8	-46.2	24.2	6.02e-01	0	41	0	92274688	61	4159
2026-01-29 22:52:47.97	41.15	6.31	-44.9	-46.3	24.1	5.99e-01	0	41	0	94371840	61	4233
2026-01-29 22:52:48.97	41.32	6.34	-44.9	-46.3	24.1	6.01e-01	0	41	0	96468992	61	4233
2026-01-29 22:52:49.98	41.49	6.37	-44.9	-46.3	24.1	6.01e-01	0	41	0	98041856	61	4224
2026-01-29 22:52:50.99	41.66	6.40	-44.9	-46.3	24.1	5.99e-01	0	41	0	100139008	61	4204
2026-01-29 22:52:51.99	41.82	6.43	-45.1	-46.5	23.9	6.02e-01	0	41	0	101711872	61	4320
2026-01-29 22:52:53.00	41.99	6.46	-45.2	-46.6	23.8	6.00e-01	0	41	0	103809024	61	4376
2026-01-29 22:52:54.00	42.16	6.48	-45.2	-46.6	23.8	6.02e-01	0	41	0	105381888	61	4369
2026-01-29 22:52:55.01	42.33	6.51	-45.0	-46.4	24.0	6.02e-01	0	41	0	107479040	61	4248
2026-01-29 22:52:56.02	42.50	6.54	-44.8	-46.2	24.2	6.02e-01	0	41	0	109576192	61	4167
2026-01-29 22:52:57.03	42.67	6.57	-44.9	-46.3	24.1	6.02e-01	0	41	0	111149056	61	4229
2026-01-29 22:52:58.04	42.84	6.60	-44.7	-46.0	24.4	6.02e-01	0	41	0	113246208	61	4082
2026-01-29 22:52:59.05	43.02	6.62	-44.7	-46.0	24.3	6.02e-01	0	41	0	115343360	61	4089
2026-01-29 22:53:00.06	43.19	6.65	-44.9	-46.3	24.1	6.02e-01	0	41	0	116916224	61	4239
2026-01-29 22:53:01.07	43.36	6.68	-44.7	-46.1	24.2	6.02e-01	0	41	0	119013376	61	4131
2026-01-29 22:53:02.07	43.53	6.71	-44.7	-46.0	24.4	6.01e-01	0	41	0	120586240	61	4077
2026-01-29 22:53:03.08	43.70	6.73	-44.8	-46.2	24.2	6.01e-01	0	41	0	122683392	61	4164
2026-01-29 22:53:04.09	43.88	6.76	-44.8	-46.1	24.3	6.00e-01	0	41	0	124780544	61	4134
2026-01-29 22:53:05.10	44.05	6.79	-44.7	-46.1	24.4	6.01e-01	0	41	0	126353408	61	4102
2026-01-29 22:53:06.10	44.22	6.81	-44.7	-46.1	24.4	6.00e-01	0	41	0	128450560	61	4123
2026-01-29 22:53:07.11	44.40	6.84	-44.8	-46.2	24.4	6.00e-01	0	41	0	130023424	61	4149
2026-01-29 22:53:08.12	44.57	6.87	-44.8	-46.2	24.3	6.01e-01	0	41	0	132120576	61	4161
2026-01-29 22:53:09.12	44.74	6.89	-44.7	-46.1	24.4	6.02e-01	0	41	0	133693440	61	4101
2026-01-29 22:53:10.13	44.92	6.92	-44.6	-46.0	24.5	6.02e-01	0	41	0	135790592	61	4067
2026-01-29 22:53:11.13	45.09	6.94	-44.6	-45.9	22.9	6.03e-01	0	41	0	137887744	61	4049
2026-01-29 22:53:12.15	45.27	6.97	-44.7	-46.1	24.4	6.02e-01	0	41	0	139460608	61	4113
2026-01-29 22:53:13.15	45.44	6.99	-44.6	-45.9	24.6	6.01e-01	0	41	0	141557760	61	4025
2026-01-29 22:53:14.16	45.62	7.02	-44.7	-46.0	24.5	6.01e-01	0	41	0	143654912	61	4093
2026-01-29 22:53:15.17	45.80	7.04	-44.6	-45.9	24.6	6.01e-01	0	41	0	145227776	61	4018
2026-01-29 22:53:16.18	45.97	7.07	-44.6	-45.9	24.5	6.00e-01	0	41	0	147324928	61	4024
2026-01-29 22:53:17.19	46.15	7.09	-44.6	-46.0	24.5	6.02e-01	0	41	0	148897792	61	4059
2026-01-29 22:53:18.20	46.33	7.12	-44.7	-46.0	24.4	6.02e-01	0	41	0	150994944	61	4076
2026-01-29 22:53:19.21	46.51	7.14	-44.6	-45.9	24.6	6.00e-01	0	41	0	153092096	61	4044
2026-01-29 22:53:20.21	46.68	7.16	-44.6	-46.0	24.5	6.03e-01	0	41	0	154664960	61	4058
2026-01-29 22:53:21.22	46.86	7.19	-44.6	-45.9	24.6	6.02e-01	0	41	0	156762112	61	4040
2026-01-29 22:53:22.22	47.04	7.21	-44.5	-45.8	24.6	6.01e-01	0	41	0	158334976	61	4001
2026-01-29 22:53:23.23	47.22	7.23	-44.5	-45.9	24.6	6.01e-01	0	41	0	160432128	61	4011
2026-01-29 22:53:24.23	47.40	7.26	-44.5	-45.8	24.6	6.00e-01	0	41	0	162004992	61	4003
2026-01-29 22:53:25.24	47.58	7.28	-44.5	-45.8	24.7	6.03e-01	0	41	0	164102144	61	3994
2026-01-29 22:53:26.25	47.76	7.30	-44.4	-45.7	24.8	5.99e-01	0	41	0	166199296	60	4170
2026-01-29 22:53:27.26	47.94	7.33	-44.5	-45.8	24.7	6.00e-01	0	41	0	168296448	60	4217
2026-01-29 22:53:28.26	48.11	7.35	-44.6	-45.9	24.6	6.00e-01	0	41	0	169869312	60	4258
2026-01-29 22:53:29.27	48.30	7.37	-44.5	-45.8	24.7	6.03e-01	0	41	0	171966464	60	4212
2026-01-29 22:53:30.28	48.48	7.39	-44.5	-45.8	24.6	6.01e-01	0	41	0	173539328	60	4235
2026-01-29 22:53:31.28	48.66	7.41	-44.4	-45.8	24.6	6.01e-01	0	41	0	175636480	60	4199
2026-01-29 22:53:32.29	48.84	7.43	-44.5	-45.8	24.7	6.00e-01	0	41	0	177209344	60	4223
2026-01-29 22:53:33.30	49.02	7.46	-44.4	-45.7	24.7	6.00e-01	0	41	0	179306496	60	4173
2026-01-29 22:53:34.30	49.20	7.48	-44.4	-45.7	24.8	6.00e-01	0	41	0	181403648	60	4152
2026-01-29 22:53:35.31	49.38	7.50	-44.4	-45.7	24.8	5.99e-01	0	41	0	182976512	60	4177
2026-01-29 22:53:36.32	49.57	7.52	-44.4	-45.7	24.7	6.01e-01	0	41	0	185073664	60	4186
2026-01-29 22:53:37.33	49.75	7.54	-44.4	-45.7	24.7	6.00e-01	0	41	0	186646528	60	4188
2026-01-29 22:53:38.34	49.93	7.56	-44.4	-45.7	24.7	6.00e-01	0	41	0	188743680	60	4186
2026-01-29 22:53:39.34	50.12	7.58	-44.5	-45.8	24.7	5.99e-01	0	41	0	190316544	60	4231
2026-01-29 22:53:40.35	50.30	7.60	-44.4	-45.6	24.8	5.98e-01	0	41	0	192413696	60	4144
2026-01-29 22:53:41.36	50.48	7.62	-44.4	-45.7	24.8	6.01e-01	0	41	0	194510848	60	4154
2026-01-29 22:53:42.36	50.67	7.64	-44.5	-45.8	24.7	6.02e-01	0	41	0	196608000	60	4221
2026-01-29 22:53:43.37	50.85	7.65	-44.5	-45.8	24.7	6.00e-01	0	41	0	198180864	60	4217
2026-01-29 22:53:44.38	51.04	7.67	-44.4	-45.8	24.7	6.03e-01	0	41	0	200278016	60	4204
2026-01-29 22:53:45.38	51.22	7.69	-44.5	-45.8	24.6	6.00e-01	0	41	0	201850880	60	4213
2026-01-29 22:53:46.39	51.41	7.71	-44.3	-45.6	24.8	6.00e-01	0	41	0	203948032	60	4132
2026-01-29 22:53:47.40	51.59	7.73	-44.3	-45.5	24.9	6.02e-01	0	41	0	205520896	60	4096
2026-01-29 22:53:48.41	51.78	7.75	-44.4	-45.7	24.8	6.01e-01	0	41	0	207618048	60	4146
2026-01-29 22:53:49.41	51.96	7.76	-44.2	-45.5	24.9	6.01e-01	0	41	0	209715200	60	4083
2026-01-29 22:53:50.42	52.15	7.78	-44.2	-45.5	25.0	6.00e-01	0	41	0	211288064	60	4067
2026-01-29 22:53:51.43	52.34	7.80	-44.3	-45.6	24.9	6.01e-01	0	41	0	213385216	60	4126
2026-01-29 22:53:52.43	52.52	7.82	-44.3	-45.6	24.9	6.01e-01	0	41	0	214958080	60	4132
2026-01-29 22:53:53.43	52.71	7.83	-44.4	-45.7	24.8	6.02e-01	0	41	0	217055232	60	4161
2026-01-29 22:53:54.44	52.89	7.85	-44.5	-45.8	24.7	6.02e-01	0	41	0	218628096	60	4216
2026-01-29 22:53:55.45	53.08	7.87	-44.3	-45.6	24.8	6.02e-01	0	41	0	220725248	60	4145
2026-01-29 22:53:56.45	53.27	7.88	-44.2	-45.5	25.0	6.02e-01	0	41	0	222822400	60	4062
2026-01-29 22:53:57.46	53.46	7.90	-44.3	-45.5	24.9	6.00e-01	0	41	0	224919552	60	4088
2026-01-29 22:53:58.46	53.64	7.91	-44.1	-45.4	25.0	6.02e-01	0	41	0	226492416	60	4033
2026-01-29 22:53:59.47	53.83	7.93	-44.2	-45.5	25.0	6.03e-01	0	41	0	228589568	60	4063
2026-01-29 22:54:00.48	54.02	7.94	-44.3	-45.6	24.9	6.02e-01	0	41	0	230162432	60	4101
2026-01-29 22:54:01.49	54.21	7.96	-44.3	-45.6	24.9	5.99e-01	0	41	0	232259584	60	4105
2026-01-29 22:54:02.50	54.40	7.97	-44.1	-45.4	25.1	6.01e-01	0	41	0	233832448	60	4024
2026-01-29 22:54:03.50	54.59	7.99	-44.1	-45.4	25.1	6.01e-01	0	41	0	235929600	60	4027
2026-01-29 22:54:04.51	54.77	8.00	-44.3	-45.6	25.0	6.00e-01	0	41	0	238026752	60	4110
2026-01-29 22:54:05.52	54.96	8.01	-44.3	-45.5	25.0	6.01e-01	0	41	0	239599616	60	4088
2026-01-29 22:54:06.52	55.15	8.03	-44.3	-45.6	24.9	6.02e-01	0	41	0	241696768	60	4116
2026-01-29 22:54:07.53	55.34	8.04	-44.4	-45.7	24.8	6.01e-01	0	41	0	243269632	60	4154
2026-01-29 22:54:08.53	55.53	8.05	-44.5	-45.8	24.7	6.01e-01	0	41	0	245366784	60	4236
2026-01-29 22:54:09.54	55.72	8.07	-44.4	-45.7	24.8	6.03e-01	0	41	0	246939648	60	4184
2026-01-29 22:54:10.54	55.91	8.08	-44.4	-45.6	24.9	6.01e-01	0	41	0	249036800	60	4141
2026-01-29 22:54:11.55	56.10	8.09	-44.2	-45.5	25.0	5.99e-01	0	41	0	251133952	60	4054
2026-01-29 22:54:12.56	56.29	8.10	-44.2	-45.4	25.0	6.01e-01	0	41	0	253231104	60	4049
2026-01-29 22:54:13.56	56.48	8.12	-44.3	-45.6	24.9	6.02e-01	0	41	0	254803968	60	4114
2026-01-29 22:54:14.57	56.67	8.13	-44.2	-45.4	25.1	5.99e-01	0	41	0	256901120	60	4049
2026-01-29 22:54:15.58	56.86	8.14	-44.2	-45.5	25.0	6.00e-01	0	41	0	258473984	60	4076
2026-01-29 22:54:16.58	57.05	8.15	-44.1	-45.4	25.1	6.02e-01	0	41	0	260571136	60	4022
2026-01-29 22:54:17.59	57.25	8.16	-44.1	-45.4	25.2	5.99e-01	0	41	0	262144000	60	4009
2026-01-29 22:54:18.60	57.44	8.17	-44.1	-45.4	25.1	6.01e-01	0	41	0	264241152	60	4034
2026-01-29 22:54:19.61	57.63	8.18	-44.2	-45.4	25.1	6.01e-01	0	41	0	266338304	60	4044
2026-01-29 22:54:20.62	57.82	8.19	-44.2	-45.5	25.0	6.00e-01	0	41	0	267911168	60	4061
2026-01-29 22:54:21.62	58.01	8.20	-44.2	-45.4	25.0	6.03e-01	0	41	0	270008320	60	4042
2026-01-29 22:54:22.63	58.21	8.21	-44.1	-45.4	25.1	6.04e-01	0	41	0	271581184	60	4025
2026-01-29 22:54:23.63	58.40	8.22	-44.2	-45.5	25.0	6.02e-01	0	41	0	273678336	60	4059
2026-01-29 22:54:24.64	58.59	8.23	-44.1	-45.4	25.1	6.01e-01	0	41	0	275251200	60	4018
2026-01-29 22:54:25.65	58.78	8.24	-44.1	-45.4	25.0	6.01e-01	0	41	0	277348352	60	4027
2026-01-29 22:54:26.66	58.98	8.25	-44.1	-45.4	25.1	6.01e-01	0	41	0	279445504	60	4019
2026-01-29 22:54:27.66	59.17	8.26	-44.2	-45.5	25.0	5.99e-01	0	41	0	281542656	60	4059
2026-01-29 22:54:28.66	59.36	8.26	-44.2	-45.5	24.9	6.02e-01	0	41	0	283115520	60	4082
2026-01-29 22:54:29.66	59.55	8.27	-44.2	-45.5	25.0	6.02e-01	0	41	0	285212672	60	4086
2026-01-29 22:54:30.67	59.74	8.28	-44.3	-45.5	25.0	6.01e-01	0	41	0	286785536	60	4091
2026-01-29 22:54:31.68	59.94	8.29	-44.1	-45.4	25.1	6.00e-01	0	41	0	288882688	60	4016
2026-01-29 22:54:32.69	60.13	8.29	-44.1	-45.4	25.1	6.01e-01	0	41	0	290455552	60	4026
2026-01-29 22:54:33.69	60.32	8.30	-44.0	-45.3	25.2	6.00e-01	0	41	0	292552704	60	3967
2026-01-29 22:54:34.70	60.52	8.31	-44.0	-45.3	25.1	6.02e-01	0	41	0	294649856	59	4211
2026-01-29 22:54:35.71	60.71	8.31	-44.3	-45.5	24.9	6.00e-01	0	41	0	296222720	59	4339
2026-01-29 22:54:36.71	60.90	8.32	-44.2	-45.4	25.0	6.01e-01	0	41	0	298319872	59	4290
2026-01-29 22:54:37.72	61.10	8.32	-44.2	-45.5	25.0	6.03e-01	0	41	0	299892736	59	4310
2026-01-29 22:54:38.72	61.29	8.33	-44.2	-45.5	24.9	6.02e-01	0	41	0	301989888	59	4324
2026-01-29 22:54:39.73	61.48	8.33	-44.4	-45.7	24.7	6.03e-01	0	41	0	303562752	59	4431
2026-01-29 22:54:40.74	61.68	8.34	-44.2	-45.5	24.9	6.00e-01	0	41	0	305659904	59	4320
2026-01-29 22:54:41.74	61.87	8.34	-44.0	-45.3	25.1	5.99e-01	0	41	0	307757056	59	4209
2026-01-29 22:54:42.75	62.07	8.35	-44.2	-45.4	25.0	6.01e-01	0	41	0	309854208	59	4284
2026-01-29 22:54:43.76	62.26	8.35	-44.2	-45.5	25.0	6.01e-01	0	41	0	311427072	59	4295
2026-01-29 22:54:44.76	62.45	8.36	-44.3	-45.6	24.9	6.03e-01	0	41	0	313524224	59	4347
2026-01-29 22:54:45.77	62.65	8.36	-44.3	-45.6	24.8	6.02e-01	0	41	0	315097088	59	4380
2026-01-29 22:54:46.77	62.84	8.36	-44.3	-45.6	24.9	6.02e-01	0	41	0	317194240	59	4353
2026-01-29 22:54:47.78	63.04	8.37	-44.3	-45.6	24.9	6.00e-01	0	41	0	318767104	59	4342
2026-01-29 22:54:48.78	63.23	8.37	-44.2	-45.5	25.0	6.01e-01	0	41	0	320864256	59	4305
2026-01-29 22:54:49.79	63.42	8.37	-44.4	-45.7	24.8	6.01e-01	0	41	0	322961408	59	4392
2026-01-29 22:54:50.80	63.62	8.37	-44.3	-45.6	24.9	5.99e-01	0	41	0	324534272	59	4366
2026-01-29 22:54:51.81	63.81	8.38	-44.4	-45.7	24.7	6.01e-01	0	41	0	326631424	59	4425
2026-01-29 22:54:52.81	64.01	8.38	-44.3	-45.6	24.8	6.00e-01	0	41	0	328204288	59	4378
2026-01-29 22:54:53.82	64.20	8.38	-44.3	-45.6	24.9	6.00e-01	0	41	0	330301440	59	4351
2026-01-29 22:54:54.83	64.40	8.38	-44.1	-45.4	25.0	6.00e-01	0	41	0	331874304	59	4269
2026-01-29 22:54:55.83	64.59	8.38	-44.3	-45.5	24.9	6.00e-01	0	41	0	333971456	59	4327
2026-01-29 22:54:56.84	64.79	8.38	-44.3	-45.6	24.9	6.01e-01	0	41	0	336068608	59	4341
2026-01-29 22:54:57.85	64.98	8.38	-44.2	-45.4	25.0	6.01e-01	0	41	0	338165760	59	4282
2026-01-29 22:54:58.86	65.18	8.38	-44.2	-45.5	24.9	6.03e-01	0	41	0	339738624	59	4300
2026-01-29 22:54:59.86	65.37	8.38	-44.2	-45.5	25.0	6.00e-01	0	41	0	341835776	59	4300
2026-01-29 22:55:00.87	65.56	8.38	-44.0	-45.3	25.1	6.02e-01	0	41	0	343408640	59	4199
2026-01-29 22:55:01.88	65.76	8.38	-44.2	-45.5	24.9	5.99e-01	0	41	0	345505792	59	4301
2026-01-29 22:55:02.89	65.96	8.38	-44.1	-45.4	25.0	6.01e-01	0	41	0	347078656	59	4256
2026-01-29 22:55:03.89	66.15	8.38	-44.2	-45.5	24.9	6.01e-01	0	41	0	349175808	59	4295
2026-01-29 22:55:04.90	66.34	8.38	-44.1	-45.3	25.1	6.00e-01	0	41	0	351272960	59	4232
2026-01-29 22:55:05.91	66.54	8.37	-44.1	-45.3	25.1	6.01e-01	0	41	0	352845824	59	4241
2026-01-29 22:55:06.91	66.73	8.37	-44.2	-45.4	25.0	6.01e-01	0	41	0	354942976	59	4283
2026-01-29 22:55:07.92	66.93	8.37	-44.1	-45.4	25.0	6.01e-01	0	41	0	356515840	59	4250
2026-01-29 22:55:08.93	67.12	8.37	-44.2	-45.5	24.9	6.01e-01	0	41	0	358612992	59	4312
2026-01-29 22:55:09.93	67.31	8.36	-44.2	-45.4	25.0	5.99e-01	0	41	0	360185856	59	4275
2026-01-29 22:55:10.94	67.51	8.36	-44.1	-45.4	25.0	6.03e-01	0	41	0	362283008	59	4244
2026-01-29 22:55:11.94	67.70	8.36	-44.2	-45.5	25.0	6.02e-01	0	41	0	364380160	59	4306
2026-01-29 22:55:12.95	67.90	8.35	-44.0	-45.2	25.2	6.01e-01	0	41	0	366477312	59	4189
2026-01-29 22:55:13.96	68.09	8.35	-44.0	-45.2	25.2	6.01e-01	0	41	0	368050176	59	4181
2026-01-29 22:55:14.96	68.28	8.35	-44.0	-45.2	25.2	6.02e-01	0	41	0	370147328	59	4188
2026-01-29 22:55:15.97	68.48	8.34	-44.1	-45.4	25.0	6.03e-01	0	41	0	371720192	59	4269
2026-01-29 22:55:16.98	68.67	8.34	-44.1	-45.3	25.0	6.01e-01	0	41	0	373817344	59	4236
2026-01-29 22:55:17.98	68.87	8.33	-44.2	-45.5	24.9	6.01e-01	0	41	0	375390208	59	4315
2026-01-29 22:55:18.99	69.06	8.33	-44.2	-45.4	25.0	6.02e-01	0	41	0	377487360	59	4291
2026-01-29 22:55:20.00	69.26	8.32	-44.1	-45.4	25.0	5.99e-01	0	41	0	379584512	59	4244
2026-01-29 22:55:21.00	69.45	8.31	-44.0	-45.2	25.2	6.01e-01	0	41	0	381157376	59	4177
2026-01-29 22:55:22.01	69.64	8.31	-44.0	-45.3	25.1	6.01e-01	0	41	0	383254528	59	4202
2026-01-29 22:55:23.02	69.84	8.30	-44.0	-45.3	25.1	6.03e-01	0	41	0	384827392	59	4215
2026-01-29 22:55:24.02	70.03	8.30	-44.0	-45.3	25.2	6.03e-01	0	41	0	386924544	59	4211
2026-01-29 22:55:25.02	70.22	8.29	-44.1	-45.3	25.1	6.02e-01	0	41	0	388497408	59	4236
2026-01-29 22:55:26.03	70.41	8.28	-44.2	-45.5	25.0	6.01e-01	0	41	0	390594560	59	4309
2026-01-29 22:55:27.04	70.61	8.27	-44.1	-45.4	25.1	6.01e-01	0	41	0	392691712	59	4245
2026-01-29 22:55:28.04	70.80	8.27	-44.2	-45.5	24.8	6.03e-01	0	41	0	394264576	59	4330
2026-01-29 22:55:29.05	70.99	8.26	-44.0	-45.2	25.1	6.01e-01	0	41	0	396361728	59	4191
2026-01-29 22:55:30.06	71.19	8.25	-44.0	-45.3	25.1	5.99e-01	0	41	0	398458880	59	4194
2026-01-29 22:55:31.07	71.38	8.24	-44.1	-45.3	25.1	6.01e-01	0	41	0	400031744	59	4222
2026-01-29 22:55:32.08	71.57	8.23	-44.1	-45.3	25.1	6.02e-01	0	41	0	402128896	59	4227
2026-01-29 22:55:33.08	71.77	8.22	-44.2	-45.4	24.9	6.03e-01	0	41	0	403701760	59	4287
2026-01-29 22:55:34.09	71.96	8.22	-44.2	-45.5	24.9	6.01e-01	0	41	0	405798912	59	4302
2026-01-29 22:55:35.09	72.15	8.21	-44.0	-45.3	25.1	6.02e-01	0	41	0	407896064	59	4220
2026-01-29 22:55:36.10	72.34	8.20	-44.1	-45.4	25.0	6.00e-01	0	41	0	409468928	59	4253
2026-01-29 22:55:37.11	72.53	8.19	-44.1	-45.4	25.0	6.01e-01	0	41	0	411566080	59	4260
2026-01-29 22:55:38.12	72.73	8.18	-44.2	-45.5	25.0	6.00e-01	0	41	0	413138944	59	4292
2026-01-29 22:55:39.13	72.92	8.16	-44.0	-45.3	25.1	6.04e-01	0	41	0	415236096	59	4196
2026-01-29 22:55:40.14	73.11	8.15	-44.1	-45.4	25.0	6.02e-01	0	41	0	416808960	59	4256
2026-01-29 22:55:41.14	73.30	8.14	-44.0	-45.3	25.1	6.01e-01	0	41	0	418906112	59	4215
2026-01-29 22:55:42.15	73.49	8.13	-44.0	-45.3	25.1	6.00e-01	0	41	0	421003264	59	4215
2026-01-29 22:55:43.16	73.69	8.12	-44.1	-45.3	25.0	5.99e-01	0	41	0	423100416	59	4236
2026-01-29 22:55:44.16	73.87	8.11	-44.1	-45.4	25.0	5.99e-01	0	41	0	424673280	59	4265
2026-01-29 22:55:45.17	74.07	8.10	-44.1	-45.4	25.0	6.03e-01	0	41	0	426770432	59	4249
2026-01-29 22:55:46.18	74.26	8.08	-44.1	-45.4	24.9	6.04e-01	0	41	0	428343296	59	4266
2026-01-29 22:55:47.19	74.45	8.07	-44.2	-45.5	24.9	6.00e-01	0	41	0	430440448	59	4323
2026-01-29 22:55:48.19	74.64	8.06	-44.3	-45.6	24.8	6.03e-01	0	41	0	432013312	59	4370
2026-01-29 22:55:49.20	74.83	8.05	-44.1	-45.4	25.0	6.01e-01	0	41	0	434110464	59	4274
2026-01-29 22:55:50.21	75.02	8.03	-44.2	-45.5	24.8	6.00e-01	0	41	0	436207616	59	4322
2026-01-29 22:55:51.21	75.21	8.02	-44.2	-45.4	24.9	5.97e-01	0	41	0	437780480	59	4288
2026-01-29 22:55:52.22	75.40	8.00	-44.3	-45.6	24.8	6.01e-01	0	41	0	439877632	59	4354
2026-01-29 22:55:53.23	75.59	7.99	-44.3	-45.5	24.8	5.99e-01	0	41	0	441450496	59	4339
2026-01-29 22:55:54.23	75.78	7.98	-44.3	-45.6	24.8	6.00e-01	0	41	0	443547648	59	4365
2026-01-29 22:55:55.25	75.97	7.96	-44.2	-45.4	25.0	6.01e-01	0	41	0	445120512	59	4290
2026-01-29 22:55:56.25	76.15	7.95	-44.2	-45.5	24.9	6.02e-01	0	41	0	447217664	59	4302
2026-01-29 22:55:57.26	76.34	7.93	-44.1	-45.4	24.9	6.02e-01	0	41	0	449314816	59	4275
2026-01-29 22:55:58.26	76.53	7.92	-44.1	-45.4	24.9	6.01e-01	0	41	0	451411968	59	4272
2026-01-29 22:55:59.26	76.72	7.90	-44.2	-45.4	24.9	5.99e-01	0	41	0	452984832	59	4285
2026-01-29 22:56:00.27	76.91	7.89	-44.1	-45.4	24.9	6.00e-01	0	41	0	455081984	59	4273
2026-01-29 22:56:01.28	77.09	7.87	-44.1	-45.4	24.9	6.00e-01	0	41	0	456654848	59	4262
2026-01-29 22:56:02.29	77.28	7.85	-44.1	-45.4	25.0	6.01e-01	0	41	0	458752000	59	4256
2026-01-29 22:56:03.30	77.47	7.84	-44.2	-45.5	24.9	6.01e-01	0	41	0	460324864	59	4308
2026-01-29 22:56:04.30	77.66	7.82	-44.2	-45.5	24.9	6.03e-01	0	41	0	462422016	59	4308
2026-01-29 22:56:05.31	77.84	7.80	-44.0	-45.3	25.1	6.00e-01	0	41	0	464519168	59	4200
2026-01-29 22:56:06.32	78.03	7.79	-44.1	-45.4	25.0	6.01e-01	0	41	0	466092032	59	4252
2026-01-29 22:56:07.32	78.22	7.77	-44.2	-45.5	24.8	6.01e-01	0	41	0	468189184	59	4307
2026-01-29 22:56:08.33	78.40	7.75	-44.2	-45.5	24.8	6.00e-01	0	41	0	469762048	59	4300
2026-01-29 22:56:09.34	78.59	7.73	-44.2	-45.5	24.9	6.03e-01	0	41	0	471859200	59	4298
2026-01-29 22:56:10.35	78.78	7.72	-44.1	-45.4	24.9	6.00e-01	0	41	0	473956352	59	4252
2026-01-29 22:56:11.35	78.96	7.70	-44.2	-45.4	24.9	6.02e-01	0	41	0	475529216	59	4291
2026-01-29 22:56:12.36	79.15	7.68	-44.2	-45.5	24.8	6.01e-01	0	41	0	477626368	59	4301
2026-01-29 22:56:13.36	79.33	7.66	-44.3	-45.6	24.7	6.03e-01	0	41	0	479723520	59	4341
2026-01-29 22:56:14.37	79.52	7.64	-44.2	-45.5	24.8	6.00e-01	0	41	0	481296384	59	4321
2026-01-29 22:56:15.37	79.70	7.62	-44.2	-45.5	24.9	6.03e-01	0	41	0	483393536	59	4296
2026-01-29 22:56:16.38	79.88	7.60	-44.2	-45.5	24.8	6.03e-01	0	41	0	484966400	59	4307
2026-01-29 22:56:17.39	80.07	7.58	-44.3	-45.6	24.7	6.02e-01	0	41	0	487063552	59	4376
2026-01-29 22:56:18.39	80.25	7.56	-44.3	-45.6	24.7	6.00e-01	0	41	0	488636416	59	4391
2026-01-29 22:56:19.40	80.43	7.54	-44.3	-45.6	24.7	6.02e-01	0	41	0	490733568	59	4388
2026-01-29 22:56:20.41	80.62	7.52	-44.3	-45.7	24.6	6.02e-01	0	41	0	492830720	59	4398
2026-01-29 22:56:21.41	80.80	7.50	-44.4	-45.7	24.6	6.01e-01	0	41	0	494403584	59	4410
2026-01-29 22:56:22.42	80.98	7.48	-44.2	-45.5	24.7	6.01e-01	0	41	0	496500736	59	4304
2026-01-29 22:56:23.42	81.16	7.46	-44.2	-45.4	24.9	6.00e-01	0	41	0	498073600	59	4280
2026-01-29 22:56:24.43	81.35	7.44	-44.1	-45.4	24.9	6.01e-01	0	41	0	500170752	59	4245
2026-01-29 22:56:25.43	81.53	7.42	-44.1	-45.4	24.8	6.01e-01	0	41	0	501743616	59	4275
2026-01-29 22:56:26.44	81.71	7.40	-44.2	-45.5	24.8	5.99e-01	0	41	0	503840768	59	4308
2026-01-29 22:56:27.44	81.89	7.37	-44.3	-45.6	24.7	6.03e-01	0	41	0	505937920	59	4348
2026-01-29 22:56:28.44	82.07	7.35	-44.2	-45.5	24.8	6.02e-01	0	41	0	507510784	59	4324
2026-01-29 22:56:29.44	82.25	7.33	-44.4	-45.7	24.5	6.01e-01	0	41	0	509607936	59	4415
2026-01-29 22:56:30.45	82.43	7.31	-44.4	-45.7	24.6	6.02e-01	0	41	0	511180800	59	4422
2026-01-29 22:56:31.45	82.61	7.29	-44.4	-45.7	24.6	6.00e-01	0	41	0	513277952	59	4412
2026-01-29 22:56:32.46	82.79	7.26	-44.4	-45.7	24.5	6.02e-01	0	41	0	515375104	59	4429
2026-01-29 22:56:33.46	82.97	7.24	-44.2	-45.5	24.8	6.01e-01	0	41	0	516947968	59	4326
2026-01-29 22:56:34.46	83.15	7.22	-44.4	-45.7	24.6	6.00e-01	0	41	0	519045120	59	4416
2026-01-29 22:56:35.47	83.32	7.19	-44.4	-45.7	24.5	6.04e-01	0	41	0	521142272	59	4433
2026-01-29 22:56:36.47	83.50	7.17	-44.3	-45.6	24.6	6.03e-01	0	41	0	522715136	59	4391
2026-01-29 22:56:37.48	83.68	7.15	-44.3	-45.6	24.6	6.01e-01	0	41	0	524812288	59	4374
2026-01-29 22:56:38.49	83.86	7.12	-44.2	-45.5	24.7	6.01e-01	0	41	0	526385152	59	4320
2026-01-29 22:56:39.49	84.04	7.10	-44.4	-45.7	24.6	6.01e-01	0	41	0	528482304	59	4412
2026-01-29 22:56:40.50	84.21	7.07	-44.4	-45.7	24.5	6.00e-01	0	41	0	530055168	59	4436
2026-01-29 22:56:41.50	84.39	7.05	-44.4	-45.7	24.5	6.01e-01	0	41	0	532152320	59	4440
2026-01-29 22:56:42.52	84.57	7.02	-44.6	-46.0	24.2	6.02e-01	0	41	0	534249472	59	4580
2026-01-29 22:56:43.52	84.74	7.00	-44.5	-45.8	24.4	6.01e-01	0	41	0	535822336	59	4483
2026-01-29 22:56:44.53	84.92	6.97	-44.5	-45.8	24.5	6.02e-01	0	41	0	537919488	59	4473
2026-01-29 22:56:45.54	85.10	6.95	-44.4	-45.8	24.4	6.02e-01	0	41	0	539492352	59	4457
2026-01-29 22:56:46.54	85.27	6.92	-44.6	-46.0	24.3	6.02e-01	0	41	0	541589504	59	4554
2026-01-29 22:56:47.55	85.45	6.90	-44.5	-45.8	24.4	5.99e-01	0	41	0	543686656	60	4225
2026-01-29 22:56:48.55	85.62	6.87	-44.2	-45.5	24.7	5.98e-01	0	41	0	545259520	60	4093
2026-01-29 22:56:49.56	85.80	6.85	-44.2	-45.5	24.7	6.00e-01	0	41	0	547356672	60	4093
2026-01-29 22:56:50.57	85.97	6.82	-44.2	-45.5	24.8	6.02e-01	0	41	0	549453824	60	4068
2026-01-29 22:56:51.58	86.15	6.79	-44.3	-45.6	24.7	6.01e-01	0	41	0	551026688	60	4117
2026-01-29 22:56:52.59	86.32	6.77	-44.3	-45.7	24.6	6.01e-01	0	41	0	553123840	60	4150
2026-01-29 22:56:53.59	86.49	6.74	-44.1	-45.5	24.8	6.02e-01	0	41	0	554696704	60	4052
2026-01-29 22:56:54.60	86.67	6.71	-44.2	-45.5	24.6	6.02e-01	0	41	0	556793856	60	4097
2026-01-29 22:56:55.60	86.84	6.68	-44.2	-45.5	24.6	6.00e-01	0	41	0	558366720	60	4054
2026-01-29 22:56:56.61	87.01	6.66	-44.4	-45.8	24.5	6.01e-01	0	41	0	560463872	60	4194
2026-01-29 22:56:57.61	87.18	6.63	-44.4	-45.7	24.3	5.99e-01	0	41	0	562561024	60	4173
2026-01-29 22:56:58.62	87.35	6.60	-44.6	-45.9	24.3	6.02e-01	0	41	0	564133888	60	4278
2026-01-29 22:56:59.63	87.52	6.57	-44.4	-45.7	24.5	5.99e-01	0	41	0	566231040	60	4159
2026-01-29 22:57:00.64	87.70	6.55	-44.5	-45.8	24.4	6.00e-01	0	41	0	567803904	60	4213
2026-01-29 22:57:01.64	87.86	6.52	-44.4	-45.8	24.4	6.03e-01	0	41	0	569901056	60	4207
2026-01-29 22:57:02.65	88.04	6.49	-44.4	-45.8	24.5	6.03e-01	0	41	0	571998208	60	4198
2026-01-29 22:57:03.65	88.20	6.46	-44.3	-45.7	24.5	6.01e-01	0	41	0	573571072	60	4151
2026-01-29 22:57:04.65	88.37	6.43	-44.2	-45.5	24.6	6.00e-01	0	41	0	575668224	60	4093
2026-01-29 22:57:05.66	88.54	6.40	-44.5	-45.8	24.3	6.01e-01	0	41	0	577765376	60	4219
2026-01-29 22:57:06.66	88.71	6.38	-44.5	-45.8	24.4	6.03e-01	0	41	0	579338240	60	4233
2026-01-29 22:57:07.67	88.88	6.35	-44.4	-45.8	24.4	6.00e-01	0	41	0	581435392	60	4214
2026-01-29 22:57:08.68	89.05	6.32	-44.6	-46.0	24.2	6.02e-01	0	41	0	583008256	60	4307
2026-01-29 22:57:09.68	89.21	6.29	-44.7	-46.1	24.1	6.01e-01	0	41	0	585105408	60	4356
2026-01-29 22:57:10.69	89.38	6.26	-44.6	-46.0	24.0	6.00e-01	0	41	0	586678272	60	4308
2026-01-29 22:57:11.70	89.55	6.23	-44.7	-46.1	24.0	6.03e-01	0	41	0	588775424	60	4346
2026-01-29 22:57:12.70	89.71	6.20	-44.7	-46.0	24.1	6.02e-01	0	41	0	590872576	60	4329
2026-01-29 22:57:13.71	89.88	6.17	-44.5	-45.9	24.2	6.01e-01	0	41	0	592445440	60	4278
2026-01-29 22:57:14.72	90.05	6.14	-44.4	-45.8	24.2	5.98e-01	0	41	0	594542592	60	4207
2026-01-29 22:57:15.73	90.21	6.11	-44.6	-46.0	24.0	6.02e-01	0	41	0	596115456	60	4331
2026-01-29 22:57:16.73	90.38	6.08	-44.6	-46.0	24.1	6.01e-01	0	41	0	598212608	60	4323
2026-01-29 22:57:17.74	90.54	6.05	-44.5	-45.9	24.2	6.01e-01	0	41	0	600309760	60	4260
2026-01-29 22:57:18.74	90.71	6.01	-44.4	-45.7	24.2	6.00e-01	0	41	0	601882624	60	4180
2026-01-29 22:57:19.75	90.87	5.98	-44.7	-46.1	24.1	6.01e-01	0	41	0	603979776	60	4356
2026-01-29 22:57:20.76	91.04	5.95	-44.3	-45.7	24.3	6.02e-01	0	41	0	606076928	60	4161
2026-01-29 22:57:21.77	91.20	5.92	-44.5	-45.8	24.3	6.02e-01	0	41	0	607649792	60	4235
2026-01-29 22:57:22.77	91.36	5.89	-44.4	-45.8	24.2	6.03e-01	0	41	0	609746944	60	4207
2026-01-29 22:57:23.78	91.52	5.86	-44.7	-46.1	24.0	6.01e-01	0	41	0	611319808	60	4352
2026-01-29 22:57:24.79	91.69	5.83	-44.6	-46.0	24.1	6.01e-01	0	41	0	613416960	60	4292
2026-01-29 22:57:25.79	91.85	5.79	-44.5	-45.9	24.1	5.98e-01	0	41	0	614989824	60	4274
2026-01-29 22:57:26.80	92.01	5.76	-44.6	-46.0	23.9	6.01e-01	0	41	0	617086976	60	4308
2026-01-29 22:57:27.81	92.17	5.73	-44.8	-46.2	23.8	6.02e-01	0	41	0	619184128	60	4416
2026-01-29 22:57:28.82	92.33	5.70	-44.7	-46.1	23.9	6.00e-01	0	41	0	620756992	60	4356
2026-01-29 22:57:29.82	92.49	5.67	-44.7	-46.1	24.0	5.98e-01	0	41	0	622854144	60	4363
2026-01-29 22:57:30.83	92.65	5.63	-44.9	-46.3	23.9	6.01e-01	0	41	0	624427008	60	4487
2026-01-29 22:57:31.84	92.81	5.60	-44.8	-46.2	23.9	6.00e-01	0	41	0	626524160	60	4437
2026-01-29 22:57:32.84	92.97	5.57	-44.7	-46.1	23.8	5.98e-01	0	41	0	628621312	60	4390
2026-01-29 22:57:33.85	93.13	5.53	-44.8	-46.2	23.7	6.03e-01	0	41	0	630194176	60	4412
2026-01-29 22:57:34.86	93.29	5.50	-44.4	-45.8	24.2	5.99e-01	0	41	0	632291328	60	4217
2026-01-29 22:57:35.87	93.45	5.47	-44.5	-45.9	24.1	6.01e-01	0	41	0	634388480	60	4280
2026-01-29 22:57:36.87	93.60	5.44	-44.5	-45.9	24.1	6.02e-01	0	41	0	635961344	60	4273
2026-01-29 22:57:37.88	93.76	5.40	-44.6	-45.9	24.2	6.01e-01	0	41	0	638058496	60	4286
2026-01-29 22:57:38.88	93.92	5.37	-44.5	-45.8	24.1	6.01e-01	0	41	0	639631360	60	4229
2026-01-29 22:57:39.89	94.08	5.33	-44.7	-46.1	24.0	6.03e-01	0	41	0	641728512	60	4371
2026-01-29 22:57:40.89	94.23	5.30	-44.8	-46.2	23.9	6.00e-01	0	41	0	643301376	60	4428
2026-01-29 22:57:41.90	94.39	5.27	-45.0	-46.4	23.6	6.00e-01	0	41	0	645398528	60	4535
2026-01-29 22:57:42.91	94.54	5.23	-44.9	-46.3	23.7	6.03e-01	0	41	0	647495680	60	4463
2026-01-29 22:57:43.92	94.70	5.20	-45.1	-46.6	23.4	6.01e-01	0	41	0	649068544	61	4387
2026-01-29 22:57:44.93	94.85	5.16	-44.9	-46.4	23.6	6.02e-01	0	41	0	651165696	61	4256
2026-01-29 22:57:45.94	95.01	5.13	-44.9	-46.4	23.6	5.99e-01	0	41	0	652738560	61	4248
2026-01-29 22:57:46.94	95.16	5.10	-44.8	-46.2	23.8	6.02e-01	0	41	0	654835712	61	4177
2026-01-29 22:57:47.95	95.32	5.06	-44.6	-45.9	24.0	6.03e-01	0	41	0	656932864	60	4289
2026-01-29 22:57:48.96	95.47	5.03	-44.6	-46.0	24.0	6.00e-01	0	41	0	658505728	60	4294
2026-01-29 22:57:49.97	95.62	4.99	-53.3	-69.1	3.8	7.44e-01	0	41	104	660078592	77	23125
2026-01-29 22:57:50.97	95.77	4.96	-53.7	-71.5	3.8	7.48e-01	0	41	104	660078592	77	30623
2026-01-29 22:57:51.98	95.93	4.92	-54.0	-71.5	3.8	7.44e-01	0	41	104	660078592	78	29007
2026-01-29 22:57:52.99	96.08	4.89	-54.5	-72.3	3.8	7.47e-01	0	41	104	660078592	79	29900
2026-01-29 22:57:53.99	96.23	4.85	-54.6	-72.4	3.8	7.47e-01	0	41	104	660078592	79	30369
2026-01-29 22:57:55.01	96.38	4.82	-54.7	-72.5	3.8	7.44e-01	0	41	104	660078592	80	28832
2026-01-29 22:57:56.01	96.53	4.78	-54.8	-72.6	3.8	7.44e-01	0	41	104	660078592	80	29087
2026-01-29 22:57:57.02	96.68	4.74	-55.0	-72.8	3.8	7.41e-01	0	41	104	660078592	80	29707
2026-01-29 22:57:58.03	96.83	4.71	-55.1	-72.9	3.8	7.44e-01	0	41	104	660078592	80	30038
2026-01-29 22:57:59.04	96.98	4.67	-55.2	-73.0	3.8	7.44e-01	0	41	104	660078592	80	30469
2026-01-29 22:58:00.04	97.13	4.64	-55.2	-72.9	3.8	7.44e-01	0	41	104	660078592	81	28479
2026-01-29 22:58:01.05	97.28	4.60	-55.3	-73.1	3.8	7.45e-01	0	41	104	660078592	81	29247
2026-01-29 22:58:02.05	97.43	4.57	-55.3	-73.1	3.8	7.45e-01	0	41	104	660078592	81	29335
2026-01-29 22:58:03.06	97.57	4.53	-55.4	-73.2	3.8	7.46e-01	0	41	104	660078592	81	29530
2026-01-29 22:58:04.06	97.72	4.49	-55.4	-73.2	3.8	7.47e-01	0	41	104	660078592	81	29540
2026-01-29 22:58:05.07	97.87	4.46	-55.5	-73.3	3.8	7.47e-01	0	41	104	660078592	81	29772
2026-01-29 22:58:06.08	98.02	4.42	-55.5	-73.3	3.8	7.46e-01	0	41	104	660078592	81	29853
2026-01-29 22:58:07.09	98.16	4.38	-55.5	-73.3	3.8	7.48e-01	0	41	104	660078592	81	30029
2026-01-29 22:58:08.09	98.31	4.35	-55.6	-73.4	3.8	7.46e-01	0	41	104	660078592	81	30123
2026-01-29 22:58:09.10	98.45	4.31	-55.6	-73.5	3.8	7.42e-01	0	41	104	660078592	81	30397
2026-01-29 22:58:10.11	98.60	4.27	-55.7	-73.5	3.8	7.44e-01	0	41	104	660078592	81	30404
2026-01-29 22:58:11.11	98.74	4.24	-55.7	-73.5	3.8	7.48e-01	0	41	104	660078592	81	30531
2026-01-29 22:58:12.12	98.89	4.20	-55.7	-73.5	3.8	7.45e-01	0	41	104	660078592	81	30598
2026-01-29 22:58:13.13	99.03	4.16	-55.7	-73.6	3.8	7.46e-01	0	41	104	660078592	82	29019
2026-01-29 22:58:14.13	99.17	4.13	-55.7	-73.6	3.8	7.45e-01	0	41	104	660078592	82	29107
2026-01-29 22:58:15.14	99.32	4.09	-55.7	-73.6	3.8	7.47e-01	0	41	104	660078592	82	29136
2026-01-29 22:58:16.15	99.46	4.05	-55.8	-73.6	3.8	7.46e-01	0	41	104	660078592	82	29194
2026-01-29 22:58:17.16	99.60	4.01	-55.8	-73.6	3.8	7.43e-01	0	41	104	660078592	82	29188
2026-01-29 22:58:18.17	99.75	3.98	-55.8	-73.6	3.8	7.45e-01	0	41	104	660078592	82	29320
2026-01-29 22:58:19.18	99.89	3.94	-55.8	-73.7	3.8	7.45e-01	0	41	104	660078592	82	29364
2026-01-29 22:58:20.19	100.03	3.90	-55.8	-73.7	3.8	7.44e-01	0	41	104	660078592	82	29386
2026-01-29 22:58:21.20	100.17	3.86	-55.9	-73.7	3.8	7.46e-01	0	41	104	660078592	82	29471
2026-01-29 22:58:22.21	100.31	3.83	-55.9	-73.7	3.8	7.45e-01	0	41	104	660078592	82	29487
2026-01-29 22:58:23.22	100.45	3.79	-55.9	-73.7	3.8	7.45e-01	0	41	104	660078592	82	29435
2026-01-29 22:58:24.23	100.59	3.75	-55.9	-73.7	3.8	7.48e-01	0	41	104	660078592	82	29438
2026-01-29 22:58:25.23	100.73	3.71	-55.9	-73.6	3.8	7.44e-01	0	41	104	660078592	82	29346
2026-01-29 22:58:26.24	100.87	3.68	-55.8	-73.7	3.8	7.47e-01	0	42	104	660078592	82	29373
2026-01-29 22:58:27.25	101.01	3.64	-55.8	-73.6	3.8	7.43e-01	0	41	104	660078592	82	29320
2026-01-29 22:58:28.26	101.15	3.60	-55.8	-73.6	3.8	7.44e-01	0	41	104	660078592	82	29253
2026-01-29 22:58:29.27	101.29	3.56	-55.8	-73.6	3.8	7.46e-01	0	41	104	660078592	82	29222
2026-01-29 22:58:30.28	101.43	3.52	-55.8	-73.6	3.8	7.42e-01	0	42	104	660078592	82	29056
2026-01-29 22:58:31.29	101.56	3.48	-55.8	-73.6	3.8	7.46e-01	0	41	104	660078592	82	29137
2026-01-29 22:58:32.30	101.70	3.45	-55.8	-73.6	3.8	7.43e-01	0	42	104	660078592	82	29139
2026-01-29 22:58:33.31	101.84	3.41	-55.8	-73.5	3.8	7.46e-01	0	41	104	660078592	82	29000
2026-01-29 22:58:34.32	101.97	3.37	-55.7	-73.5	3.8	7.44e-01	0	42	104	660078592	82	28880
2026-01-29 22:58:35.33	102.11	3.33	-55.6	-73.5	3.8	7.43e-01	0	41	104	660078592	82	28693
2026-01-29 22:58:36.34	102.25	3.29	-55.6	-73.4	3.8	7.46e-01	0	41	104	660078592	82	28466
2026-01-29 22:58:37.35	102.38	3.25	-55.5	-73.3	3.8	7.47e-01	0	41	104	660078592	82	28293
2026-01-29 22:58:38.36	102.52	3.21	-55.5	-73.3	3.8	7.47e-01	0	42	104	660078592	82	28139
2026-01-29 22:58:39.36	102.65	3.17	-55.4	-73.2	3.8	7.46e-01	0	42	104	660078592	82	28024
2026-01-29 22:58:40.37	102.78	3.14	-55.4	-73.2	3.8	7.48e-01	0	41	104	660078592	82	27885
2026-01-29 22:58:41.38	102.92	3.10	-55.3	-73.1	3.8	7.45e-01	0	41	104	660078592	82	27509
2026-01-29 22:58:42.39	103.05	3.06	-55.2	-73.0	3.8	7.45e-01	0	41	104	660078592	82	27156
2026-01-29 22:58:43.39	103.18	3.02	-55.0	-72.9	3.8	7.44e-01	0	41	104	660078592	82	26794
2026-01-29 22:58:44.40	103.32	2.98	-54.8	-72.6	3.8	7.41e-01	0	42	104	660078592	81	27596
2026-01-29 22:58:45.41	103.45	2.94	-54.7	-72.5	3.8	7.45e-01	0	42	104	660078592	81	27281
2026-01-29 22:58:46.42	103.58	2.90	-54.7	-72.5	3.8	7.46e-01	0	41	104	660078592	81	27199
2026-01-29 22:58:47.42	103.71	2.86	-54.6	-72.5	3.8	7.44e-01	0	41	104	660078592	81	27165
2026-01-29 22:58:48.43	103.84	2.82	-54.6	-72.5	3.8	7.46e-01	0	41	104	660078592	81	27148
2026-01-29 22:58:49.43	103.97	2.78	-54.6	-72.4	3.8	7.46e-01	0	41	104	660078592	81	27055
2026-01-29 22:58:50.44	104.10	2.74	-54.6	-72.4	3.8	7.45e-01	0	41	104	660078592	81	27054
2026-01-29 22:58:51.45	104.23	2.70	-54.6	-72.4	3.8	7.43e-01	0	41	104	660078592	81	27017
2026-01-29 22:58:52.46	104.36	2.66	-54.6	-72.4	3.8	7.47e-01	0	42	104	660078592	81	27046
2026-01-29 22:58:53.46	104.49	2.62	-54.6	-72.4	3.8	7.46e-01	0	42	104	660078592	81	27004
2026-01-29 22:58:54.47	104.62	2.59	-54.6	-72.4	3.8	7.45e-01	0	41	104	660078592	81	26903
2026-01-29 22:58:55.48	104.75	2.55	-54.6	-72.4	3.8	7.46e-01	0	41	104	660078592	81	26984
2026-01-29 22:58:56.49	104.88	2.51	-54.6	-72.4	3.8	7.48e-01	0	41	104	660078592	81	26960
2026-01-29 22:58:57.49	105.00	2.47	-54.6	-72.4	3.8	7.47e-01	0	41	104	660078592	81	26922
2026-01-29 22:58:58.50	105.13	2.43	-54.6	-72.4	3.8	7.45e-01	0	41	104	660078592	81	26892
2026-01-29 22:58:59.51	105.26	2.39	-54.6	-72.4	3.8	7.45e-01	0	42	104	660078592	81	26927
2026-01-29 22:59:00.51	105.38	2.35	-54.6	-72.4	3.8	7.44e-01	0	41	104	660078592	81	26952
2026-01-29 22:59:01.52	105.51	2.31	-54.6	-72.4	3.8	7.47e-01	0	41	104	660078592	81	26896
2026-01-29 22:59:02.53	105.63	2.27	-54.6	-72.4	3.8	7.43e-01	0	41	104	660078592	81	26853
2026-01-29 22:59:03.53	105.76	2.23	-54.6	-72.4	3.8	7.49e-01	0	42	104	660078592	81	26832
2026-01-29 22:59:04.54	105.88	2.19	-54.6	-72.4	3.8	7.46e-01	0	42	104	660078592	81	26911
2026-01-29 22:59:05.55	106.01	2.15	-54.6	-72.4	3.8	7.43e-01	0	42	104	660078592	81	26855
2026-01-29 22:59:06.56	106.13	2.11	-54.6	-72.4	3.8	7.44e-01	0	42	104	660078592	81	26809
2026-01-29 22:59:07.57	106.26	2.07	-54.6	-72.4	3.8	7.46e-01	0	41	104	660078592	81	26767
2026-01-29 22:59:08.58	106.38	2.03	-54.5	-72.4	3.8	7.46e-01	0	42	104	660078592	81	26769

#Closed at: 2026-01-29 22:59:09
#Recorded file [660 MB]: D:/lorett/data/31041_260130_015046.dat