passes_logs/2026/01/29/R3.2S_Murmansk/R3.2S_Murmansk__20260129_020952_NOAA_20_JPSS-1_rec.log

#Pass ID: 20260129_020952_NOAA 20 (JPSS-1)
#Satellite: NOAA 20 (JPSS-1)
#Configuration: NOAA 20
#almurnet v.1.7.20251203
#Start time: 2026-01-29 02:09:53

#Version: 2.2.20231116
#Station: R3.2S_Murmansk
#Location: 33.079688 lon 68.888172 lat
#TLE: 1 43013U 17073A   26027.94683596  .00000137  00000+0  85741-4 0  9995
#TLE: 2 43013  98.7648 328.7503 0000940  21.3928 338.7287 14.19541154424576

#Time	Az	El	Level	Level2	SNR	BER	BlckErr	Temp	State	Recorded	gain1	gain2
2026-01-29 02:09:53.96	31.68	2.08	-53.9	-68.9	3.8	1.49e+00	0	40	0	0	79	20210
2026-01-29 02:09:54.96	31.64	2.14	-53.9	-68.9	3.8	1.49e+00	0	40	104	0	78	21308
2026-01-29 02:09:55.97	31.61	2.21	-53.9	-68.9	3.8	1.49e+00	0	40	104	0	78	21325
2026-01-29 02:09:56.98	31.58	2.27	-53.9	-68.9	3.8	1.49e+00	0	40	104	0	78	21278
2026-01-29 02:09:57.99	31.55	2.33	-53.9	-68.9	3.8	1.49e+00	0	40	104	0	78	21292
2026-01-29 02:09:58.99	31.52	2.40	-53.8	-68.9	3.8	1.49e+00	0	40	104	0	78	21264
2026-01-29 02:10:00.00	31.48	2.46	-53.8	-68.8	3.8	1.49e+00	0	40	104	0	78	21238
2026-01-29 02:10:01.01	31.45	2.52	-54.0	-69.0	3.8	1.49e+00	0	40	104	0	78	21594
2026-01-29 02:10:02.01	31.42	2.59	-54.1	-69.1	3.8	1.49e+00	0	40	104	0	78	21870
2026-01-29 02:10:03.02	31.38	2.65	-54.1	-69.1	3.8	1.49e+00	0	41	104	0	78	21940
2026-01-29 02:10:04.03	31.35	2.71	-54.1	-69.1	3.8	1.49e+00	0	40	104	0	78	21968
2026-01-29 02:10:05.04	31.32	2.78	-54.2	-69.2	3.8	1.49e+00	0	41	104	0	78	22029
2026-01-29 02:10:06.05	31.28	2.84	-54.1	-69.2	3.8	1.49e+00	0	40	104	0	78	22027
2026-01-29 02:10:07.06	31.25	2.91	-54.1	-69.1	3.8	1.49e+00	0	40	104	0	78	21988
2026-01-29 02:10:08.07	31.22	2.97	-54.1	-69.1	3.8	1.49e+00	0	41	104	0	78	21885
2026-01-29 02:10:09.08	31.18	3.04	-54.1	-69.1	3.8	1.49e+00	0	40	104	0	78	21828
2026-01-29 02:10:10.09	31.15	3.10	-54.1	-69.1	3.8	1.49e+00	0	41	104	0	78	21948
2026-01-29 02:10:11.09	31.11	3.17	-54.1	-69.1	3.8	1.49e+00	0	41	104	0	78	21968
2026-01-29 02:10:12.10	31.08	3.23	-54.1	-69.2	3.8	1.49e+00	0	40	104	0	78	22008
2026-01-29 02:10:13.11	31.04	3.30	-54.1	-69.1	3.8	1.49e+00	0	40	104	0	78	21900
2026-01-29 02:10:14.11	31.01	3.36	-54.1	-69.0	3.8	1.49e+00	0	41	104	0	78	21699
2026-01-29 02:10:15.13	30.97	3.43	-54.0	-68.9	3.8	1.49e+00	0	41	104	0	78	21492
2026-01-29 02:10:16.13	30.94	3.49	-53.9	-68.9	3.8	1.49e+00	0	41	104	0	78	21261
2026-01-29 02:10:17.14	30.90	3.56	-53.7	-68.7	3.8	1.49e+00	0	41	104	0	78	20952
2026-01-29 02:10:18.15	30.87	3.63	-53.6	-68.6	3.8	1.49e+00	0	41	104	0	78	20588
2026-01-29 02:10:19.16	30.83	3.69	-53.5	-68.4	3.8	1.49e+00	0	41	104	0	78	20290
2026-01-29 02:10:20.16	30.80	3.76	-53.3	-68.2	3.8	1.49e+00	0	41	104	0	78	19817
2026-01-29 02:10:21.17	30.76	3.82	-53.0	-68.0	3.8	1.49e+00	0	41	104	0	78	19250
2026-01-29 02:10:22.18	30.72	3.89	-52.6	-67.5	3.8	1.49e+00	0	41	104	0	77	19172
2026-01-29 02:10:23.19	30.69	3.96	-52.0	-66.1	3.8	1.49e+00	0	41	104	0	76	17406
2026-01-29 02:10:24.19	30.65	4.02	-51.5	-61.3	5.0	1.01e+00	0	41	0	0	75	10571
2026-01-29 02:10:25.20	30.61	4.09	-51.4	-60.7	5.4	5.62e-01	0	41	0	2097152	74	10417
2026-01-29 02:10:26.21	30.58	4.16	-51.4	-60.1	5.7	4.18e-01	0	41	0	4194304	74	9769
2026-01-29 02:10:27.22	30.54	4.23	-51.4	-60.1	5.7	4.27e-01	0	41	0	6291456	74	9830
2026-01-29 02:10:28.22	30.50	4.29	-51.3	-60.0	5.8	3.68e-01	0	41	0	7340032	74	9700
2026-01-29 02:10:29.23	30.46	4.36	-51.4	-60.2	5.7	3.56e-01	0	41	0	9437184	74	9913
2026-01-29 02:10:30.24	30.43	4.43	-51.3	-60.1	5.7	4.23e-01	0	41	0	11534336	74	9830
2026-01-29 02:10:31.25	30.39	4.50	-51.3	-59.5	6.2	3.13e-01	0	41	0	13631488	74	9117
2026-01-29 02:10:32.26	30.35	4.57	-51.3	-59.6	6.1	3.13e-01	0	41	0	15728640	74	9192
2026-01-29 02:10:33.27	30.31	4.63	-51.2	-59.3	6.3	2.75e-01	0	41	0	17825792	74	8943
2026-01-29 02:10:34.27	30.27	4.70	-51.1	-58.7	6.9	2.29e-01	0	41	0	18874368	74	8314
2026-01-29 02:10:35.28	30.23	4.77	-50.9	-57.8	7.8	9.96e-02	0	41	0	20971520	73	7912
2026-01-29 02:10:36.29	30.19	4.84	-50.8	-57.4	8.1	7.06e-02	0	41	0	23068672	73	7584
2026-01-29 02:10:37.30	30.15	4.91	-50.7	-57.2	8.2	5.64e-02	0	41	0	25165824	73	7415
2026-01-29 02:10:38.30	30.12	4.98	-50.6	-56.8	8.7	3.68e-02	0	41	0	27262976	73	7064
2026-01-29 02:10:39.31	30.08	5.05	-50.9	-57.7	7.9	4.23e-02	0	41	0	28311552	73	7829
2026-01-29 02:10:40.31	30.04	5.12	-51.5	-60.8	5.4	5.43e-01	0	41	0	30408704	73	11198
2026-01-29 02:10:41.32	30.00	5.19	-51.1	-58.2	7.3	4.17e-01	0	41	0	32505856	73	8347
2026-01-29 02:10:42.33	29.96	5.26	-51.0	-58.7	6.4	9.29e-01	0	41	0	33554432	73	8818
2026-01-29 02:10:43.34	29.91	5.33	-48.1	-50.8	15.2	0.00e+00	0	41	0	35651584	66	5288
2026-01-29 02:10:44.34	29.87	5.39	-51.8	-66.8	3.8	1.19e+00	0	41	104	36700160	74	21088
2026-01-29 02:10:45.35	29.83	5.47	-47.3	-49.6	16.2	0.00e+00	0	41	0	36700160	66	4610
2026-01-29 02:10:46.36	29.79	5.54	-47.1	-49.2	16.7	0.00e+00	0	41	0	38797312	66	4415
2026-01-29 02:10:47.37	29.75	5.61	-47.2	-49.4	16.6	0.00e+00	0	41	0	40894464	66	4517
2026-01-29 02:10:48.37	29.71	5.68	-47.1	-49.3	16.7	0.00e+00	0	41	0	42991616	66	4442
2026-01-29 02:10:49.38	29.67	5.75	-47.1	-49.3	16.7	0.00e+00	0	41	0	45088768	66	4456
2026-01-29 02:10:50.39	29.62	5.82	-47.0	-49.1	16.9	0.00e+00	0	41	0	46137344	65	4602
2026-01-29 02:10:51.40	29.58	5.89	-47.1	-49.2	16.8	0.00e+00	0	41	0	48234496	65	4676
2026-01-29 02:10:52.41	29.54	5.96	-47.0	-49.1	16.9	0.00e+00	0	41	0	50331648	65	4639
2026-01-29 02:10:53.42	29.50	6.03	-46.9	-49.0	17.0	0.00e+00	0	42	0	52428800	65	4547
2026-01-29 02:10:54.43	29.45	6.11	-46.9	-49.0	17.0	0.00e+00	0	41	0	54525952	65	4563
2026-01-29 02:10:55.44	29.41	6.18	-46.9	-48.9	17.2	0.00e+00	0	42	0	55574528	65	4505
2026-01-29 02:10:56.45	29.37	6.25	-46.6	-48.6	17.4	0.00e+00	0	41	0	57671680	65	4353
2026-01-29 02:10:57.46	29.32	6.32	-46.7	-48.7	17.4	0.00e+00	0	41	0	59768832	65	4396
2026-01-29 02:10:58.46	29.28	6.40	-46.6	-48.4	17.6	0.00e+00	0	41	0	61865984	65	4290
2026-01-29 02:10:59.47	29.24	6.47	-46.5	-48.3	17.7	0.00e+00	0	41	0	63963136	64	4480
2026-01-29 02:11:00.48	29.19	6.54	-46.6	-48.5	17.6	0.00e+00	0	41	0	65011712	64	4575
2026-01-29 02:11:01.49	29.15	6.61	-46.6	-48.5	17.6	0.00e+00	0	41	0	67108864	64	4588
2026-01-29 02:11:02.50	29.10	6.69	-46.6	-48.5	17.6	0.00e+00	0	41	0	69206016	64	4553
2026-01-29 02:11:03.50	29.06	6.76	-46.5	-48.4	17.7	0.00e+00	0	41	0	71303168	64	4502
2026-01-29 02:11:04.51	29.01	6.84	-46.6	-48.4	17.7	0.00e+00	0	41	0	73400320	64	4533
2026-01-29 02:11:05.52	28.96	6.91	-46.5	-48.4	17.7	0.00e+00	0	41	0	74448896	64	4514
2026-01-29 02:11:06.53	28.92	6.98	-46.4	-48.3	17.9	0.00e+00	0	41	0	76546048	64	4451
2026-01-29 02:11:07.53	28.87	7.06	-46.5	-48.4	17.7	0.00e+00	0	41	0	78643200	64	4520
2026-01-29 02:11:08.54	28.83	7.13	-46.6	-48.5	17.6	0.00e+00	0	41	0	80740352	64	4570
2026-01-29 02:11:09.55	28.78	7.21	-46.6	-48.5	17.7	0.00e+00	0	41	0	82837504	64	4553
2026-01-29 02:11:10.56	28.73	7.28	-46.5	-48.4	17.8	0.00e+00	0	41	0	83886080	64	4522
2026-01-29 02:11:11.57	28.69	7.36	-46.5	-48.4	17.8	0.00e+00	0	41	0	85983232	64	4512
2026-01-29 02:11:12.57	28.64	7.43	-46.5	-48.3	17.9	0.00e+00	0	42	0	88080384	64	4457
2026-01-29 02:11:13.58	28.59	7.51	-46.5	-48.3	17.9	0.00e+00	0	41	0	90177536	64	4457
2026-01-29 02:11:14.59	28.54	7.58	-46.5	-48.3	17.9	0.00e+00	0	41	0	92274688	64	4469
2026-01-29 02:11:15.60	28.49	7.66	-46.5	-48.3	17.9	0.00e+00	0	42	0	93323264	64	4463
2026-01-29 02:11:16.61	28.45	7.74	-46.5	-48.3	18.0	0.00e+00	0	42	0	95420416	64	4445
2026-01-29 02:11:17.61	28.40	7.81	-46.5	-48.3	17.9	0.00e+00	0	41	0	97517568	64	4487
2026-01-29 02:11:18.62	28.35	7.89	-46.6	-48.4	17.8	0.00e+00	0	42	0	99614720	64	4519
2026-01-29 02:11:19.63	28.30	7.97	-46.5	-48.3	17.9	0.00e+00	0	42	0	101711872	64	4476
2026-01-29 02:11:20.64	28.25	8.04	-46.4	-48.1	18.1	0.00e+00	0	41	0	102760448	64	4381
2026-01-29 02:11:21.64	28.20	8.12	-46.5	-48.3	18.0	0.00e+00	0	42	0	104857600	64	4448
2026-01-29 02:11:22.65	28.15	8.20	-46.4	-48.2	18.1	0.00e+00	0	41	0	106954752	64	4393
2026-01-29 02:11:23.66	28.10	8.27	-46.5	-48.2	18.1	0.00e+00	0	41	0	109051904	64	4437
2026-01-29 02:11:24.67	28.05	8.35	-46.3	-48.0	18.2	0.00e+00	0	42	0	111149056	64	4340
2026-01-29 02:11:25.67	28.00	8.43	-46.4	-48.2	18.0	0.00e+00	0	41	0	113246208	64	4432
2026-01-29 02:11:26.68	27.94	8.51	-46.4	-48.2	18.1	0.00e+00	0	41	0	114294784	64	4399
2026-01-29 02:11:27.69	27.89	8.59	-46.3	-48.1	18.2	0.00e+00	0	41	0	116391936	64	4355
2026-01-29 02:11:28.69	27.84	8.66	-46.2	-47.9	18.4	0.00e+00	0	42	0	118489088	64	4291
2026-01-29 02:11:29.70	27.79	8.74	-46.2	-48.0	18.3	0.00e+00	0	42	0	120586240	64	4294
2026-01-29 02:11:30.71	27.74	8.82	-46.2	-47.9	18.4	0.00e+00	0	42	0	121634816	64	4262
2026-01-29 02:11:31.72	27.68	8.90	-46.3	-48.1	18.3	0.00e+00	0	42	0	123731968	64	4343
2026-01-29 02:11:32.73	27.63	8.98	-46.2	-47.9	18.5	0.00e+00	0	42	0	125829120	64	4248
2026-01-29 02:11:33.74	27.58	9.06	-46.3	-48.0	18.4	0.00e+00	0	42	0	127926272	64	4295
2026-01-29 02:11:34.75	27.52	9.14	-46.2	-47.9	18.4	0.00e+00	0	42	0	130023424	64	4282
2026-01-29 02:11:35.75	27.47	9.22	-46.2	-47.8	18.5	0.00e+00	0	42	0	131072000	64	4235
2026-01-29 02:11:36.76	27.41	9.30	-46.1	-47.7	18.6	0.00e+00	0	42	0	133169152	64	4188
2026-01-29 02:11:37.77	27.36	9.38	-46.0	-47.7	18.7	0.00e+00	0	42	0	135266304	64	4155
2026-01-29 02:11:38.77	27.30	9.46	-46.1	-47.7	18.7	0.00e+00	0	42	0	137363456	64	4173
2026-01-29 02:11:39.78	27.25	9.55	-46.2	-47.8	18.5	0.00e+00	0	42	0	139460608	64	4229
2026-01-29 02:11:40.79	27.19	9.63	-46.0	-47.6	18.8	0.00e+00	0	42	0	141557760	64	4119
2026-01-29 02:11:41.79	27.14	9.71	-46.0	-47.6	18.7	0.00e+00	0	42	0	142606336	64	4125
2026-01-29 02:11:42.80	27.08	9.79	-46.0	-47.6	18.8	0.00e+00	0	42	0	144703488	64	4128
2026-01-29 02:11:43.81	27.02	9.87	-46.2	-47.8	18.6	0.00e+00	0	42	0	146800640	64	4221
2026-01-29 02:11:44.82	26.97	9.96	-46.1	-47.7	18.8	0.00e+00	0	42	0	148897792	63	4401
2026-01-29 02:11:45.83	26.91	10.04	-46.1	-47.7	18.8	0.00e+00	0	42	0	149946368	63	4425
2026-01-29 02:11:46.83	26.85	10.12	-46.0	-47.5	19.0	0.00e+00	0	42	0	152043520	63	4329
2026-01-29 02:11:47.84	26.79	10.20	-46.1	-47.7	18.8	0.00e+00	0	42	0	154140672	63	4406
2026-01-29 02:11:48.84	26.73	10.29	-46.0	-47.6	18.9	0.00e+00	0	42	0	156237824	63	4381
2026-01-29 02:11:49.85	26.68	10.37	-46.0	-47.5	19.0	0.00e+00	0	42	0	158334976	63	4334
2026-01-29 02:11:50.86	26.62	10.45	-46.0	-47.6	18.9	0.00e+00	0	42	0	159383552	63	4376
2026-01-29 02:11:51.87	26.56	10.54	-46.1	-47.7	18.8	0.00e+00	0	42	0	161480704	63	4440
2026-01-29 02:11:52.88	26.50	10.62	-46.2	-47.8	18.7	0.00e+00	0	42	0	163577856	63	4465
2026-01-29 02:11:53.88	26.44	10.71	-46.0	-47.6	19.0	0.00e+00	0	42	0	165675008	63	4347
2026-01-29 02:11:54.89	26.37	10.79	-45.9	-47.5	19.0	0.00e+00	0	42	0	167772160	63	4314
2026-01-29 02:11:55.91	26.31	10.88	-46.0	-47.6	19.0	0.00e+00	0	42	0	169869312	63	4342
2026-01-29 02:11:56.91	26.25	10.96	-45.9	-47.5	19.1	0.00e+00	0	42	0	170917888	63	4305
2026-01-29 02:11:57.92	26.19	11.05	-45.9	-47.5	19.1	0.00e+00	0	42	0	173015040	63	4297
2026-01-29 02:11:58.92	26.13	11.13	-45.8	-47.3	19.3	0.00e+00	0	42	0	175112192	63	4220
2026-01-29 02:11:59.93	26.07	11.22	-45.9	-47.5	19.1	0.00e+00	0	42	0	177209344	63	4294
2026-01-29 02:12:00.94	26.00	11.31	-45.9	-47.5	19.1	0.00e+00	0	42	0	178257920	63	4306
2026-01-29 02:12:01.95	25.94	11.39	-45.9	-47.5	19.1	0.00e+00	0	42	0	180355072	63	4306
2026-01-29 02:12:02.95	25.88	11.48	-45.9	-47.4	19.2	0.00e+00	0	42	0	182452224	63	4256
2026-01-29 02:12:03.96	25.81	11.57	-45.7	-47.2	19.4	0.00e+00	0	42	0	184549376	63	4182
2026-01-29 02:12:04.97	25.75	11.66	-45.8	-47.4	19.3	0.00e+00	0	42	0	186646528	63	4245
2026-01-29 02:12:05.97	25.68	11.74	-45.8	-47.3	19.3	0.00e+00	0	42	0	188743680	63	4210
2026-01-29 02:12:06.98	25.62	11.83	-45.8	-47.3	19.3	0.00e+00	0	42	0	189792256	63	4215
2026-01-29 02:12:07.99	25.55	11.92	-45.7	-47.2	19.4	0.00e+00	0	42	0	191889408	63	4172
2026-01-29 02:12:09.00	25.48	12.01	-45.8	-47.3	19.4	0.00e+00	0	42	0	193986560	63	4205
2026-01-29 02:12:10.01	25.42	12.10	-45.7	-47.1	19.5	0.00e+00	0	42	0	196083712	63	4142
2026-01-29 02:12:11.02	25.35	12.19	-45.6	-47.1	19.5	0.00e+00	0	42	0	198180864	63	4111
2026-01-29 02:12:12.02	25.28	12.28	-45.5	-47.0	19.6	0.00e+00	0	41	0	199229440	63	4062
2026-01-29 02:12:13.03	25.21	12.37	-45.6	-47.1	19.5	0.00e+00	0	42	0	201326592	63	4122
2026-01-29 02:12:14.03	25.15	12.46	-45.6	-47.0	19.6	0.00e+00	0	42	0	203423744	63	4088
2026-01-29 02:12:15.04	25.08	12.55	-45.6	-47.0	19.6	0.00e+00	0	42	0	205520896	63	4096
2026-01-29 02:12:16.05	25.01	12.64	-45.5	-47.0	19.7	0.00e+00	0	42	0	206569472	63	4056
2026-01-29 02:12:17.05	24.94	12.73	-45.5	-46.9	19.7	0.00e+00	0	42	0	208666624	62	4257
2026-01-29 02:12:18.06	24.87	12.82	-45.4	-46.8	19.8	0.00e+00	0	42	0	210763776	62	4241
2026-01-29 02:12:19.07	24.80	12.91	-45.5	-46.9	19.8	0.00e+00	0	42	0	212860928	62	4249
2026-01-29 02:12:20.07	24.73	13.00	-45.4	-46.8	19.9	0.00e+00	0	42	0	214958080	62	4215
2026-01-29 02:12:21.08	24.65	13.10	-45.4	-46.8	19.8	0.00e+00	0	42	0	217055232	62	4225
2026-01-29 02:12:22.08	24.58	13.19	-45.5	-46.9	19.8	0.00e+00	0	42	0	218103808	62	4244
2026-01-29 02:12:23.09	24.51	13.28	-45.4	-46.8	19.8	0.00e+00	0	42	0	220200960	62	4234
2026-01-29 02:12:24.10	24.44	13.37	-45.4	-46.8	19.8	0.00e+00	0	42	0	222298112	62	4224
2026-01-29 02:12:25.11	24.36	13.47	-45.5	-46.9	19.8	0.00e+00	0	42	0	224395264	62	4262
2026-01-29 02:12:26.12	24.29	13.56	-45.4	-46.8	19.9	0.00e+00	0	42	0	226492416	62	4205
2026-01-29 02:12:27.13	24.21	13.66	-45.4	-46.8	19.9	0.00e+00	0	42	0	227540992	62	4205
2026-01-29 02:12:28.14	24.14	13.75	-45.4	-46.8	19.9	0.00e+00	0	42	0	229638144	62	4205
2026-01-29 02:12:29.14	24.06	13.84	-45.5	-46.9	19.8	0.00e+00	0	42	0	231735296	62	4276
2026-01-29 02:12:30.15	23.99	13.94	-45.4	-46.8	19.9	0.00e+00	0	42	0	233832448	62	4237
2026-01-29 02:12:31.16	23.91	14.03	-45.4	-46.8	19.9	0.00e+00	0	42	0	234881024	62	4207
2026-01-29 02:12:32.17	23.83	14.13	-45.5	-46.9	19.9	0.00e+00	0	42	0	236978176	62	4253
2026-01-29 02:12:33.17	23.76	14.23	-45.4	-46.9	19.9	0.00e+00	0	42	0	239075328	62	4243
2026-01-29 02:12:34.18	23.68	14.32	-45.5	-46.9	19.9	0.00e+00	0	42	0	241172480	62	4245
2026-01-29 02:12:35.19	23.60	14.42	-45.5	-46.9	19.8	0.00e+00	0	42	0	243269632	62	4265
2026-01-29 02:12:36.20	23.52	14.52	-45.4	-46.8	19.9	0.00e+00	0	42	0	245366784	62	4222
2026-01-29 02:12:37.21	23.44	14.61	-45.4	-46.8	19.9	0.00e+00	0	42	0	246415360	62	4220
2026-01-29 02:12:38.21	23.36	14.71	-45.4	-46.8	19.9	0.00e+00	0	42	0	248512512	62	4238
2026-01-29 02:12:39.22	23.28	14.81	-45.5	-46.9	19.8	0.00e+00	0	42	0	250609664	62	4263
2026-01-29 02:12:40.23	23.20	14.91	-45.4	-46.8	19.9	0.00e+00	0	42	0	252706816	62	4231
2026-01-29 02:12:41.24	23.11	15.01	-45.4	-46.8	19.9	0.00e+00	0	42	0	254803968	62	4234
2026-01-29 02:12:42.25	23.03	15.10	-45.5	-46.8	19.9	0.00e+00	0	42	0	255852544	62	4242
2026-01-29 02:12:43.25	22.95	15.20	-45.3	-46.7	20.1	0.00e+00	0	42	0	257949696	62	4159
2026-01-29 02:12:44.26	22.87	15.30	-45.4	-46.8	19.9	0.00e+00	0	42	0	260046848	62	4226
2026-01-29 02:12:45.26	22.78	15.40	-45.4	-46.8	20.0	0.00e+00	0	42	0	262144000	62	4219
2026-01-29 02:12:46.27	22.70	15.50	-45.5	-46.9	19.9	0.00e+00	0	42	0	264241152	62	4254
2026-01-29 02:12:47.28	22.61	15.60	-45.4	-46.7	20.0	0.00e+00	0	42	0	265289728	62	4181
2026-01-29 02:12:48.28	22.53	15.70	-45.4	-46.7	20.0	0.00e+00	0	42	0	267386880	62	4184
2026-01-29 02:12:49.29	22.44	15.81	-45.4	-46.8	20.0	0.00e+00	0	42	0	269484032	62	4209
2026-01-29 02:12:50.30	22.35	15.91	-45.4	-46.8	20.0	0.00e+00	0	42	0	271581184	62	4194
2026-01-29 02:12:51.31	22.26	16.01	-45.4	-46.8	20.0	0.00e+00	0	42	0	273678336	62	4198
2026-01-29 02:12:52.32	22.17	16.11	-45.4	-46.8	20.0	0.00e+00	0	42	0	274726912	62	4224
2026-01-29 02:12:53.32	22.09	16.21	-45.5	-46.9	19.9	0.00e+00	0	42	0	276824064	62	4266
2026-01-29 02:12:54.33	22.00	16.32	-45.5	-46.9	19.9	0.00e+00	0	42	0	278921216	62	4277
2026-01-29 02:12:55.34	21.90	16.42	-45.5	-46.9	19.9	0.00e+00	0	42	0	281018368	62	4262
2026-01-29 02:12:56.35	21.81	16.52	-45.6	-47.0	19.8	0.00e+00	0	42	0	283115520	62	4321
2026-01-29 02:12:57.36	21.72	16.63	-45.5	-46.9	19.9	0.00e+00	0	42	0	284164096	62	4277
2026-01-29 02:12:58.36	21.63	16.73	-45.5	-46.9	19.9	0.00e+00	0	42	0	286261248	62	4276
2026-01-29 02:12:59.37	21.54	16.84	-45.5	-46.9	19.9	0.00e+00	0	42	0	288358400	62	4282
2026-01-29 02:13:00.38	21.44	16.94	-45.4	-46.8	20.1	0.00e+00	0	42	0	290455552	62	4204
2026-01-29 02:13:01.39	21.35	17.05	-45.5	-46.9	20.0	0.00e+00	0	42	0	292552704	62	4245
2026-01-29 02:13:02.39	21.25	17.15	-45.6	-47.0	19.9	0.00e+00	0	42	0	293601280	62	4302
2026-01-29 02:13:03.40	21.16	17.26	-45.6	-47.0	19.8	0.00e+00	0	42	0	295698432	62	4332
2026-01-29 02:13:04.41	21.06	17.37	-45.7	-47.1	19.7	0.00e+00	0	42	0	297795584	62	4369
2026-01-29 02:13:05.42	20.96	17.48	-45.7	-47.1	19.8	0.00e+00	0	42	0	299892736	62	4353
2026-01-29 02:13:06.42	20.87	17.58	-45.7	-47.2	19.7	0.00e+00	0	42	0	301989888	62	4400
2026-01-29 02:13:07.43	20.77	17.69	-45.7	-47.1	19.7	0.00e+00	0	42	0	303038464	62	4380
2026-01-29 02:13:08.44	20.67	17.80	-45.7	-47.1	19.8	0.00e+00	0	42	0	305135616	62	4372
2026-01-29 02:13:09.44	20.57	17.91	-45.8	-47.3	19.6	0.00e+00	0	42	0	307232768	62	4461
2026-01-29 02:13:10.45	20.47	18.02	-45.8	-47.2	19.7	0.00e+00	0	42	0	309329920	62	4433
2026-01-29 02:13:11.46	20.36	18.13	-45.8	-47.2	19.7	0.00e+00	0	42	0	311427072	62	4421
2026-01-29 02:13:12.46	20.26	18.24	-45.9	-47.4	19.5	0.00e+00	0	42	0	313524224	62	4497
2026-01-29 02:13:13.47	20.16	18.35	-45.8	-47.3	19.6	0.00e+00	0	42	0	314572800	62	4449
2026-01-29 02:13:14.48	20.05	18.46	-45.8	-47.3	19.6	0.00e+00	0	42	0	316669952	62	4444
2026-01-29 02:13:15.49	19.95	18.57	-45.9	-47.3	19.6	0.00e+00	0	42	0	318767104	62	4463
2026-01-29 02:13:16.50	19.84	18.68	-45.8	-47.3	19.7	0.00e+00	0	42	0	320864256	62	4452
2026-01-29 02:13:17.50	19.74	18.79	-45.9	-47.3	19.6	0.00e+00	0	42	0	321912832	62	4459
2026-01-29 02:13:18.51	19.63	18.90	-45.9	-47.4	19.5	0.00e+00	0	42	0	324009984	62	4519
2026-01-29 02:13:19.52	19.52	19.02	-45.9	-47.3	19.6	0.00e+00	0	42	0	326107136	62	4464
2026-01-29 02:13:20.53	19.41	19.13	-45.8	-47.3	19.7	0.00e+00	0	42	0	328204288	62	4457
2026-01-29 02:13:21.53	19.30	19.24	-45.9	-47.3	19.6	0.00e+00	0	42	0	330301440	62	4492
2026-01-29 02:13:22.54	19.19	19.36	-45.9	-47.3	19.6	0.00e+00	0	42	0	331350016	62	4465
2026-01-29 02:13:23.55	19.08	19.47	-45.9	-47.4	19.6	0.00e+00	0	42	0	333447168	62	4504
2026-01-29 02:13:24.56	18.97	19.59	-45.8	-47.2	19.7	0.00e+00	0	42	0	335544320	62	4434
2026-01-29 02:13:25.57	18.85	19.70	-45.9	-47.4	19.7	0.00e+00	0	42	0	337641472	62	4496
2026-01-29 02:13:26.58	18.74	19.82	-46.0	-47.4	19.5	0.00e+00	0	42	0	339738624	62	4543
2026-01-29 02:13:27.58	18.63	19.93	-46.0	-47.4	19.5	0.00e+00	0	42	0	341835776	62	4544
2026-01-29 02:13:28.59	18.51	20.05	-45.9	-47.4	19.6	0.00e+00	0	42	0	342884352	62	4513
2026-01-29 02:13:29.59	18.39	20.16	-46.0	-47.5	19.5	0.00e+00	0	42	0	344981504	62	4555
2026-01-29 02:13:30.60	18.28	20.28	-46.1	-47.6	19.4	0.00e+00	0	42	0	347078656	62	4613
2026-01-29 02:13:31.61	18.16	20.40	-46.0	-47.5	19.5	0.00e+00	0	42	0	349175808	62	4581
2026-01-29 02:13:32.62	18.04	20.52	-46.0	-47.5	19.5	0.00e+00	0	42	0	350224384	62	4575
2026-01-29 02:13:33.63	17.92	20.64	-46.1	-47.6	19.4	0.00e+00	0	42	0	352321536	62	4599
2026-01-29 02:13:34.63	17.80	20.75	-46.2	-47.7	19.3	0.00e+00	0	42	0	354418688	62	4669
2026-01-29 02:13:35.64	17.67	20.87	-46.1	-47.6	19.4	0.00e+00	0	42	0	356515840	62	4615
2026-01-29 02:13:36.64	17.55	20.99	-46.1	-47.5	19.5	0.00e+00	0	42	0	358612992	62	4598
2026-01-29 02:13:37.65	17.43	21.11	-46.0	-47.4	19.6	0.00e+00	0	42	0	359661568	62	4533
2026-01-29 02:13:38.66	17.30	21.23	-46.0	-47.4	19.6	0.00e+00	0	42	0	361758720	62	4521
2026-01-29 02:13:39.67	17.17	21.36	-46.0	-47.4	19.6	0.00e+00	0	42	0	363855872	62	4539
2026-01-29 02:13:40.67	17.05	21.48	-46.0	-47.4	19.6	0.00e+00	0	42	0	365953024	62	4531
2026-01-29 02:13:41.68	16.92	21.60	-46.0	-47.5	19.5	0.00e+00	0	42	0	368050176	62	4570
2026-01-29 02:13:42.68	16.79	21.72	-46.1	-47.5	19.5	0.00e+00	0	42	0	370147328	62	4578
2026-01-29 02:13:43.69	16.66	21.84	-46.0	-47.4	19.6	0.00e+00	0	42	0	371195904	62	4518
2026-01-29 02:13:44.70	16.53	21.97	-46.1	-47.6	19.5	0.00e+00	0	42	0	373293056	62	4601
2026-01-29 02:13:45.71	16.39	22.09	-45.9	-47.3	19.7	0.00e+00	0	42	0	375390208	62	4467
2026-01-29 02:13:46.71	16.26	22.21	-45.9	-47.3	19.8	0.00e+00	0	42	0	377487360	62	4456
2026-01-29 02:13:47.72	16.13	22.34	-45.8	-47.3	19.8	0.00e+00	0	42	0	378535936	62	4444
2026-01-29 02:13:48.73	15.99	22.46	-45.7	-47.1	19.9	0.00e+00	0	42	0	380633088	62	4365
2026-01-29 02:13:49.74	15.85	22.59	-45.7	-47.1	19.9	0.00e+00	0	42	0	382730240	62	4362
2026-01-29 02:13:50.75	15.71	22.71	-45.8	-47.2	19.8	0.00e+00	0	42	0	384827392	62	4434
2026-01-29 02:13:51.76	15.57	22.84	-45.8	-47.2	19.9	0.00e+00	0	42	0	386924544	62	4399
2026-01-29 02:13:52.77	15.43	22.97	-45.8	-47.2	19.8	0.00e+00	0	42	0	389021696	62	4430
2026-01-29 02:13:53.77	15.29	23.09	-45.7	-47.1	19.9	0.00e+00	0	42	0	390070272	62	4368
2026-01-29 02:13:54.78	15.15	23.22	-45.8	-47.2	19.8	0.00e+00	0	42	0	392167424	62	4433
2026-01-29 02:13:55.79	15.01	23.35	-45.9	-47.3	19.7	0.00e+00	0	42	0	394264576	62	4486
2026-01-29 02:13:56.80	14.86	23.48	-45.9	-47.3	19.7	0.00e+00	0	42	0	396361728	62	4487
2026-01-29 02:13:57.81	14.71	23.61	-46.0	-47.4	19.6	0.00e+00	0	42	0	398458880	62	4536
2026-01-29 02:13:58.81	14.57	23.74	-45.9	-47.3	19.8	0.00e+00	0	42	0	399507456	62	4485
2026-01-29 02:13:59.82	14.42	23.87	-45.8	-47.2	19.9	0.00e+00	0	42	0	401604608	62	4400
2026-01-29 02:14:00.83	14.27	24.00	-45.9	-47.3	19.8	0.00e+00	0	42	0	403701760	62	4463
2026-01-29 02:14:01.83	14.12	24.13	-45.9	-47.3	19.8	0.00e+00	0	42	0	405798912	62	4446
2026-01-29 02:14:02.84	13.96	24.26	-45.8	-47.2	19.9	0.00e+00	0	42	0	406847488	62	4417
2026-01-29 02:14:03.85	13.81	24.39	-45.9	-47.4	19.7	0.00e+00	0	42	0	408944640	62	4502
2026-01-29 02:14:04.86	13.65	24.52	-46.0	-47.4	19.7	0.00e+00	0	42	0	411041792	62	4524
2026-01-29 02:14:05.87	13.49	24.65	-46.0	-47.4	19.7	0.00e+00	0	42	0	413138944	62	4521
2026-01-29 02:14:06.88	13.34	24.79	-46.0	-47.5	19.6	0.00e+00	0	42	0	415236096	62	4562
2026-01-29 02:14:07.88	13.18	24.92	-46.1	-47.6	19.5	0.00e+00	0	42	0	417333248	62	4620
2026-01-29 02:14:08.89	13.02	25.05	-46.1	-47.5	19.6	0.00e+00	0	42	0	418381824	62	4578
2026-01-29 02:14:09.89	12.85	25.18	-46.0	-47.5	19.7	0.00e+00	0	42	0	420478976	62	4569
2026-01-29 02:14:10.90	12.69	25.32	-46.1	-47.5	19.6	0.00e+00	0	42	0	422576128	62	4588
2026-01-29 02:14:11.91	12.52	25.45	-46.2	-47.6	19.5	0.00e+00	0	42	0	424673280	62	4651
2026-01-29 02:14:12.92	12.36	25.59	-46.3	-47.8	19.4	0.00e+00	0	42	0	426770432	63	4454
2026-01-29 02:14:13.93	12.19	25.72	-46.2	-47.6	19.5	0.00e+00	0	42	0	427819008	63	4380
2026-01-29 02:14:14.93	12.02	25.86	-46.1	-47.6	19.6	0.00e+00	0	42	0	429916160	63	4362
2026-01-29 02:14:15.94	11.85	26.00	-46.2	-47.7	19.5	0.00e+00	0	42	0	432013312	63	4404
2026-01-29 02:14:16.95	11.68	26.13	-46.1	-47.5	19.7	0.00e+00	0	42	0	434110464	63	4308
2026-01-29 02:14:17.95	11.50	26.27	-46.1	-47.6	19.6	0.00e+00	0	42	0	435159040	63	4350
2026-01-29 02:14:18.96	11.33	26.41	-46.1	-47.6	19.6	0.00e+00	0	42	0	437256192	63	4341
2026-01-29 02:14:19.97	11.15	26.55	-46.2	-47.6	19.6	0.00e+00	0	42	0	439353344	63	4380
2026-01-29 02:14:20.98	10.97	26.68	-46.1	-47.5	19.7	0.00e+00	0	42	0	441450496	63	4325
2026-01-29 02:14:21.99	10.79	26.82	-46.2	-47.6	19.5	0.00e+00	0	42	0	443547648	63	4389
2026-01-29 02:14:22.99	10.61	26.96	-46.2	-47.6	19.6	0.00e+00	0	42	0	445644800	63	4386
2026-01-29 02:14:24.00	10.42	27.10	-46.2	-47.6	19.5	0.00e+00	0	42	0	446693376	63	4391
2026-01-29 02:14:25.01	10.24	27.24	-46.3	-47.7	19.5	0.00e+00	0	42	0	448790528	63	4434
2026-01-29 02:14:26.02	10.05	27.38	-46.2	-47.7	19.6	0.00e+00	0	42	0	450887680	63	4395
2026-01-29 02:14:27.03	9.86	27.52	-46.2	-47.6	19.5	0.00e+00	0	42	0	452984832	63	4389
2026-01-29 02:14:28.03	9.67	27.66	-46.3	-47.8	19.5	0.00e+00	0	42	0	455081984	63	4453
2026-01-29 02:14:29.04	9.48	27.81	-46.2	-47.6	19.6	0.00e+00	0	42	0	456130560	63	4391
2026-01-29 02:14:30.05	9.29	27.95	-46.3	-47.8	19.4	0.00e+00	0	42	0	458227712	63	4484
2026-01-29 02:14:31.06	9.09	28.09	-46.4	-47.9	19.3	0.00e+00	0	42	0	460324864	63	4538
2026-01-29 02:14:32.07	8.89	28.23	-46.5	-48.1	19.2	0.00e+00	0	42	0	462422016	63	4603
2026-01-29 02:14:33.08	8.69	28.38	-46.5	-48.1	19.2	0.00e+00	0	42	0	464519168	63	4603
2026-01-29 02:14:34.09	8.49	28.52	-46.6	-48.1	19.2	0.00e+00	0	42	0	465567744	63	4618
2026-01-29 02:14:35.09	8.29	28.66	-46.6	-48.1	19.2	0.00e+00	0	42	0	467664896	63	4631
2026-01-29 02:14:36.10	8.09	28.81	-46.6	-48.2	19.0	0.00e+00	0	42	0	469762048	64	4414
2026-01-29 02:14:37.11	7.88	28.95	-46.7	-48.3	18.9	0.00e+00	0	42	0	471859200	64	4481
2026-01-29 02:14:38.11	7.67	29.09	-46.9	-48.5	18.7	0.00e+00	0	42	0	473956352	64	4595
2026-01-29 02:14:39.12	7.46	29.24	-47.1	-48.8	18.4	0.00e+00	0	42	0	475004928	64	4719
2026-01-29 02:14:40.13	7.25	29.38	-47.2	-49.0	18.2	0.00e+00	0	42	0	477102080	65	4563
2026-01-29 02:14:41.14	7.03	29.53	-47.4	-49.1	18.1	0.00e+00	0	42	0	479199232	65	4645
2026-01-29 02:14:42.14	6.82	29.67	-47.4	-49.2	18.0	0.00e+00	0	42	0	481296384	65	4700
2026-01-29 02:14:43.15	6.60	29.82	-47.5	-49.3	17.9	0.00e+00	0	42	0	483393536	65	4725
2026-01-29 02:14:44.16	6.38	29.97	-47.6	-49.4	17.8	0.00e+00	0	42	0	484442112	65	4807
2026-01-29 02:14:45.17	6.16	30.11	-47.6	-49.5	17.7	0.00e+00	0	42	0	486539264	66	4575
2026-01-29 02:14:46.17	5.93	30.26	-47.8	-49.7	17.5	0.00e+00	0	42	0	488636416	66	4702
2026-01-29 02:14:47.18	5.71	30.41	-48.2	-50.2	17.0	0.00e+00	0	42	0	490733568	66	4980
2026-01-29 02:14:48.19	5.48	30.55	-48.3	-50.5	16.8	0.00e+00	0	42	0	492830720	67	4835
2026-01-29 02:14:49.19	5.25	30.70	-48.6	-50.9	16.4	0.00e+00	0	42	0	493879296	67	5055
2026-01-29 02:14:50.20	5.02	30.85	-48.6	-50.9	16.4	0.00e+00	0	42	0	495976448	67	5075
2026-01-29 02:14:51.21	4.78	31.00	-48.9	-51.2	16.2	0.00e+00	0	42	0	498073600	68	4954
2026-01-29 02:14:52.22	4.54	31.15	-48.9	-51.3	16.1	0.00e+00	0	42	0	500170752	68	4985
2026-01-29 02:14:53.23	4.30	31.29	-49.0	-51.5	15.9	0.00e+00	0	42	0	502267904	68	5104
2026-01-29 02:14:54.23	4.06	31.44	-49.2	-51.7	15.7	0.00e+00	0	42	0	503316480	69	4963
2026-01-29 02:14:55.24	3.82	31.59	-48.8	-51.1	16.3	0.00e+00	0	42	0	505413632	69	4626
2026-01-29 02:14:56.25	3.57	31.74	-48.8	-51.1	16.3	0.00e+00	0	42	0	507510784	69	4625
2026-01-29 02:14:57.26	3.32	31.89	-48.8	-51.1	16.3	0.00e+00	0	42	0	509607936	69	4605
2026-01-29 02:14:58.26	3.08	32.04	-48.6	-50.8	16.7	0.00e+00	0	42	0	511705088	69	4444
2026-01-29 02:14:59.27	2.82	32.19	-48.5	-50.7	16.7	0.00e+00	0	42	0	512753664	69	4399
2026-01-29 02:15:00.29	2.56	32.34	-48.2	-50.2	17.2	0.00e+00	0	42	0	514850816	68	4409
2026-01-29 02:15:01.29	2.31	32.49	-48.3	-50.4	17.0	0.00e+00	0	42	0	516947968	68	4528
2026-01-29 02:15:02.30	2.05	32.64	-48.4	-50.5	17.0	0.00e+00	0	42	0	519045120	68	4566
2026-01-29 02:15:03.30	1.79	32.78	-48.4	-50.5	16.9	0.00e+00	0	42	0	521142272	68	4593
2026-01-29 02:15:04.31	1.52	32.93	-48.4	-50.5	16.9	0.00e+00	0	42	0	522190848	68	4580
2026-01-29 02:15:05.32	1.25	33.08	-48.5	-50.7	16.7	0.00e+00	0	42	0	524288000	68	4671
2026-01-29 02:15:06.33	0.98	33.23	-48.4	-50.5	17.0	0.00e+00	0	42	0	526385152	68	4548
2026-01-29 02:15:07.33	0.71	33.38	-48.3	-50.3	17.1	0.00e+00	0	42	0	528482304	68	4488
2026-01-29 02:15:08.34	0.44	33.53	-48.3	-50.4	17.0	0.00e+00	0	42	0	530579456	68	4527
2026-01-29 02:15:09.35	0.16	33.68	-48.4	-50.4	17.1	0.00e+00	0	42	0	531628032	68	4537
2026-01-29 02:15:10.36	359.88	33.83	-48.3	-50.3	17.1	0.00e+00	0	42	0	533725184	68	4458
2026-01-29 02:15:11.37	359.59	33.98	-48.3	-50.4	17.1	0.00e+00	0	42	0	535822336	68	4530
2026-01-29 02:15:12.38	359.31	34.13	-48.2	-50.2	17.2	0.00e+00	0	42	0	537919488	68	4436
2026-01-29 02:15:13.38	359.02	34.28	-48.0	-49.9	17.5	0.00e+00	0	42	0	540016640	68	4285
2026-01-29 02:15:14.39	358.73	34.43	-47.8	-49.7	17.6	0.00e+00	0	42	0	541065216	67	4403
2026-01-29 02:15:15.40	358.44	34.58	-47.6	-49.4	18.0	0.00e+00	0	42	0	543162368	67	4246
2026-01-29 02:15:16.40	358.14	34.73	-47.3	-49.0	18.3	0.00e+00	0	42	0	545259520	66	4323
2026-01-29 02:15:17.41	357.84	34.88	-47.1	-48.7	18.6	0.00e+00	0	42	0	547356672	66	4188
2026-01-29 02:15:18.41	357.54	35.02	-47.0	-48.6	18.7	0.00e+00	0	42	0	549453824	65	4364
2026-01-29 02:15:19.42	357.24	35.17	-46.7	-48.2	19.1	0.00e+00	0	42	0	550502400	65	4186
2026-01-29 02:15:20.42	356.93	35.32	-46.6	-48.1	19.2	0.00e+00	0	42	0	552599552	65	4132
2026-01-29 02:15:21.43	356.62	35.47	-46.7	-48.2	19.1	0.00e+00	0	42	0	554696704	65	4187
2026-01-29 02:15:22.44	356.31	35.61	-46.8	-48.4	19.0	0.00e+00	0	42	0	556793856	65	4264
2026-01-29 02:15:23.45	355.99	35.76	-46.7	-48.2	19.2	0.00e+00	0	42	0	558891008	65	4183
2026-01-29 02:15:24.46	355.67	35.91	-46.7	-48.2	19.2	0.00e+00	0	42	0	559939584	65	4169
2026-01-29 02:15:25.47	355.35	36.06	-46.6	-48.1	19.3	0.00e+00	0	42	0	562036736	65	4100
2026-01-29 02:15:26.48	355.02	36.20	-46.6	-48.1	19.4	0.00e+00	0	42	0	564133888	65	4099
2026-01-29 02:15:27.48	354.70	36.35	-46.5	-48.0	19.4	0.00e+00	0	42	0	566231040	65	4085
2026-01-29 02:15:28.49	354.37	36.49	-46.6	-48.1	19.3	0.00e+00	0	42	0	568328192	65	4120
2026-01-29 02:15:29.50	354.03	36.64	-46.8	-48.3	19.1	0.00e+00	0	42	0	569376768	65	4229
2026-01-29 02:15:30.51	353.70	36.78	-46.9	-48.4	19.0	0.00e+00	0	42	0	571473920	65	4279
2026-01-29 02:15:31.52	353.36	36.93	-47.1	-48.7	18.7	0.00e+00	0	42	0	573571072	65	4408
2026-01-29 02:15:32.53	353.01	37.07	-47.1	-48.8	18.7	0.00e+00	0	42	0	575668224	65	4456
2026-01-29 02:15:33.53	352.67	37.21	-47.0	-48.5	18.9	0.00e+00	0	42	0	577765376	65	4337
2026-01-29 02:15:34.54	352.32	37.35	-47.1	-48.7	18.8	0.00e+00	0	42	0	578813952	65	4414
2026-01-29 02:15:35.55	351.97	37.49	-47.0	-48.5	18.9	0.00e+00	0	42	0	580911104	65	4337
2026-01-29 02:15:36.56	351.61	37.64	-47.0	-48.6	18.9	0.00e+00	0	42	0	583008256	65	4365
2026-01-29 02:15:37.57	351.25	37.78	-47.0	-48.7	18.8	0.00e+00	0	42	0	585105408	65	4392
2026-01-29 02:15:38.58	350.89	37.92	-47.2	-48.8	18.7	0.00e+00	0	42	0	587202560	65	4486
2026-01-29 02:15:39.59	350.53	38.06	-47.2	-48.8	18.6	0.00e+00	0	42	0	589299712	65	4477
2026-01-29 02:15:40.60	350.16	38.19	-47.2	-48.9	18.6	0.00e+00	0	42	0	590348288	65	4503
2026-01-29 02:15:41.61	349.79	38.33	-47.1	-48.7	18.7	0.00e+00	0	42	0	592445440	65	4436
2026-01-29 02:15:42.61	349.42	38.47	-47.0	-48.6	18.9	0.00e+00	0	42	0	594542592	65	4374
2026-01-29 02:15:43.62	349.04	38.60	-47.1	-48.7	18.7	0.00e+00	0	42	0	596639744	65	4440
2026-01-29 02:15:44.63	348.66	38.74	-47.3	-49.0	18.5	0.00e+00	0	42	0	597688320	65	4577
2026-01-29 02:15:45.64	348.27	38.87	-47.6	-49.4	18.1	0.00e+00	0	42	0	599785472	65	4806
2026-01-29 02:15:46.64	347.89	39.00	-47.8	-49.6	17.9	0.00e+00	0	42	0	601882624	66	4650
2026-01-29 02:15:47.65	347.50	39.13	-47.9	-49.7	17.8	0.00e+00	0	42	0	603979776	66	4702
2026-01-29 02:15:48.66	347.11	39.27	-47.6	-49.3	18.2	0.00e+00	0	42	0	606076928	66	4466
2026-01-29 02:15:49.67	346.71	39.40	-47.6	-49.3	18.2	0.00e+00	0	42	0	608174080	66	4463
2026-01-29 02:15:50.68	346.31	39.52	-47.4	-49.1	18.4	0.00e+00	0	42	0	609222656	66	4348
2026-01-29 02:15:51.68	345.91	39.65	-47.3	-49.0	18.5	0.00e+00	0	42	0	611319808	66	4309
2026-01-29 02:15:52.69	345.50	39.78	-47.3	-49.0	18.6	0.00e+00	0	42	0	613416960	66	4293
2026-01-29 02:15:53.70	345.09	39.90	-47.2	-48.8	18.7	0.00e+00	0	42	0	615514112	66	4211
2026-01-29 02:15:54.70	344.69	40.02	-46.8	-48.4	19.1	0.00e+00	0	42	0	617611264	65	4250
2026-01-29 02:15:55.71	344.27	40.15	-46.5	-48.0	19.4	0.00e+00	0	42	0	618659840	65	4074
2026-01-29 02:15:56.72	343.85	40.27	-46.4	-47.8	19.6	0.00e+00	0	42	0	620756992	64	4242
2026-01-29 02:15:57.72	343.43	40.39	-46.2	-47.6	19.9	0.00e+00	0	42	0	622854144	64	4133
2026-01-29 02:15:58.73	343.01	40.51	-46.2	-47.6	19.8	0.00e+00	0	42	0	624951296	64	4133
2026-01-29 02:15:59.74	342.58	40.62	-46.2	-47.6	19.9	0.00e+00	0	42	0	625999872	64	4127
2026-01-29 02:16:00.75	342.15	40.74	-46.0	-47.3	20.2	0.00e+00	0	42	0	628097024	64	3991
2026-01-29 02:16:01.76	341.71	40.85	-45.9	-47.2	20.4	0.00e+00	0	42	0	630194176	63	4159
2026-01-29 02:16:02.77	341.27	40.97	-45.9	-47.2	20.3	0.00e+00	0	42	0	632291328	63	4185
2026-01-29 02:16:03.78	340.83	41.08	-45.9	-47.3	20.3	0.00e+00	0	42	0	634388480	63	4195
2026-01-29 02:16:04.79	340.39	41.19	-45.9	-47.3	20.3	0.00e+00	0	42	0	636485632	63	4202
2026-01-29 02:16:05.80	339.94	41.30	-46.0	-47.3	20.2	0.00e+00	0	42	0	637534208	63	4240
2026-01-29 02:16:06.80	339.50	41.40	-45.8	-47.1	20.5	0.00e+00	0	42	0	639631360	63	4113
2026-01-29 02:16:07.81	339.05	41.51	-45.7	-47.0	20.6	0.00e+00	0	42	0	641728512	63	4061
2026-01-29 02:16:08.82	338.59	41.61	-45.8	-47.1	20.5	0.00e+00	0	42	0	643825664	63	4106
2026-01-29 02:16:09.83	338.13	41.71	-46.1	-47.4	20.2	0.00e+00	0	42	0	645922816	63	4277
2026-01-29 02:16:10.83	337.67	41.81	-46.3	-47.6	19.9	0.00e+00	0	42	0	646971392	63	4384
2026-01-29 02:16:11.84	337.21	41.91	-46.5	-47.9	19.7	0.00e+00	0	42	0	649068544	63	4526
2026-01-29 02:16:12.85	336.74	42.00	-46.6	-48.1	19.5	0.00e+00	0	42	0	651165696	63	4632
2026-01-29 02:16:13.86	336.27	42.10	-46.5	-48.0	19.6	0.00e+00	0	42	0	653262848	63	4555
2026-01-29 02:16:14.86	335.80	42.19	-46.6	-48.1	19.5	0.00e+00	0	42	0	654311424	63	4599
2026-01-29 02:16:15.87	335.33	42.28	-46.5	-48.0	19.7	0.00e+00	0	42	0	656408576	63	4555
2026-01-29 02:16:16.88	334.85	42.36	-46.2	-47.6	20.0	0.00e+00	0	42	0	658505728	63	4382
2026-01-29 02:16:17.89	334.37	42.45	-46.0	-47.3	20.3	0.00e+00	0	42	0	660602880	63	4209
2026-01-29 02:16:18.91	333.88	42.53	-45.7	-47.0	20.6	0.00e+00	0	42	0	662700032	63	4082
2026-01-29 02:16:19.91	333.40	42.61	-45.8	-47.1	20.5	0.00e+00	0	42	0	664797184	63	4122
2026-01-29 02:16:20.92	332.91	42.69	-46.0	-47.3	20.2	0.00e+00	0	42	0	665845760	63	4236
2026-01-29 02:16:21.93	332.42	42.77	-46.3	-47.7	20.0	0.00e+00	0	42	0	667942912	63	4404
2026-01-29 02:16:22.94	331.93	42.85	-46.4	-47.8	19.8	0.00e+00	0	42	0	670040064	63	4475
2026-01-29 02:16:23.95	331.44	42.92	-46.0	-47.4	20.2	0.00e+00	0	42	0	672137216	63	4252
2026-01-29 02:16:24.96	330.94	42.99	-46.0	-47.3	20.3	0.00e+00	0	42	0	674234368	63	4237
2026-01-29 02:16:25.97	330.44	43.06	-46.1	-47.4	20.2	0.00e+00	0	42	0	676331520	63	4273
2026-01-29 02:16:26.97	329.94	43.12	-45.9	-47.2	20.4	0.00e+00	0	42	0	677380096	63	4185
2026-01-29 02:16:27.98	329.44	43.19	-45.9	-47.2	20.4	0.00e+00	0	42	0	679477248	63	4180
2026-01-29 02:16:28.99	328.93	43.25	-45.6	-46.9	20.7	0.00e+00	0	42	0	681574400	63	4030
2026-01-29 02:16:30.01	328.42	43.31	-45.7	-47.0	20.6	0.00e+00	0	42	0	683671552	63	4070
2026-01-29 02:16:31.01	327.92	43.36	-45.6	-46.8	20.8	0.00e+00	0	42	0	684720128	63	3998
2026-01-29 02:16:32.02	327.41	43.41	-45.6	-46.8	20.8	0.00e+00	0	42	0	686817280	62	4217
2026-01-29 02:16:33.03	326.89	43.47	-45.5	-46.7	20.9	0.00e+00	0	42	0	688914432	62	4191
2026-01-29 02:16:34.04	326.38	43.51	-45.7	-47.0	20.6	0.00e+00	0	42	0	691011584	62	4323
2026-01-29 02:16:35.04	325.87	43.56	-46.0	-47.3	20.3	0.00e+00	0	42	0	693108736	62	4460
2026-01-29 02:16:36.05	325.35	43.60	-45.9	-47.2	20.4	0.00e+00	0	42	0	694157312	62	4427
2026-01-29 02:16:37.06	324.83	43.64	-45.9	-47.2	20.4	0.00e+00	0	42	0	696254464	62	4428
2026-01-29 02:16:38.07	324.31	43.68	-45.8	-47.1	20.5	0.00e+00	0	42	0	698351616	62	4383
2026-01-29 02:16:39.07	323.80	43.72	-46.1	-47.4	20.2	0.00e+00	0	42	0	700448768	62	4503
2026-01-29 02:16:40.09	323.27	43.75	-46.2	-47.6	20.1	0.00e+00	0	42	0	702545920	63	4358
2026-01-29 02:16:41.09	322.75	43.78	-46.4	-47.7	19.9	0.00e+00	0	42	0	704643072	63	4437
2026-01-29 02:16:42.10	322.23	43.81	-46.4	-47.8	19.9	0.00e+00	0	42	0	705691648	63	4473
2026-01-29 02:16:43.11	321.70	43.83	-46.6	-48.0	19.7	0.00e+00	0	42	0	707788800	63	4578
2026-01-29 02:16:44.12	321.17	43.86	-46.6	-48.1	19.5	0.00e+00	0	42	0	709885952	64	4354
2026-01-29 02:16:45.12	320.65	43.88	-46.6	-48.0	19.6	0.00e+00	0	42	0	711983104	64	4323
2026-01-29 02:16:46.13	320.12	43.89	-46.3	-47.7	19.9	0.00e+00	0	42	0	713031680	64	4172
2026-01-29 02:16:47.13	319.60	43.91	-46.3	-47.7	19.9	0.00e+00	0	42	0	715128832	64	4170
2026-01-29 02:16:48.14	319.07	43.92	-46.1	-47.5	20.1	0.00e+00	0	42	0	717225984	64	4068
2026-01-29 02:16:49.15	318.55	43.93	-46.2	-47.6	20.0	0.00e+00	0	42	0	719323136	64	4117
2026-01-29 02:16:50.16	318.02	43.93	-46.5	-47.9	19.7	0.00e+00	0	42	0	721420288	64	4259
2026-01-29 02:16:51.16	317.49	43.94	-46.8	-48.3	19.3	0.00e+00	0	42	0	723517440	64	4476
2026-01-29 02:16:52.17	316.96	43.94	-47.3	-48.9	18.7	0.00e+00	0	42	0	724566016	65	4541
2026-01-29 02:16:53.18	316.43	43.94	-47.2	-48.8	18.8	0.00e+00	0	42	0	726663168	65	4478
2026-01-29 02:16:54.19	315.90	43.93	-47.2	-48.8	18.9	0.00e+00	0	42	0	728760320	65	4466
2026-01-29 02:16:55.19	315.38	43.92	-47.3	-49.0	18.6	0.00e+00	0	42	0	730857472	65	4562
2026-01-29 02:16:56.20	314.85	43.91	-47.5	-49.2	18.5	0.00e+00	0	42	0	732954624	65	4676
2026-01-29 02:16:57.21	314.32	43.90	-47.7	-49.5	18.2	0.00e+00	0	42	0	734003200	65	4831
2026-01-29 02:16:58.22	313.80	43.88	-47.6	-49.4	18.2	0.00e+00	0	42	0	736100352	66	4498
2026-01-29 02:16:59.22	313.27	43.87	-47.3	-48.9	18.7	0.00e+00	0	42	0	738197504	66	4290
2026-01-29 02:17:00.23	312.75	43.85	-47.3	-49.0	18.7	0.00e+00	0	42	0	740294656	66	4304
2026-01-29 02:17:01.24	312.22	43.82	-47.3	-49.0	18.7	0.00e+00	0	42	0	741343232	66	4299
2026-01-29 02:17:02.25	311.70	43.79	-47.8	-49.5	18.1	0.00e+00	0	42	0	743440384	66	4590
2026-01-29 02:17:03.25	311.18	43.77	-48.3	-50.2	17.5	0.00e+00	0	42	0	745537536	67	4682
2026-01-29 02:17:04.26	310.66	43.73	-48.6	-50.6	17.1	0.00e+00	0	42	0	747634688	67	4925
2026-01-29 02:17:05.27	310.13	43.70	-49.0	-51.1	16.7	0.00e+00	0	42	0	749731840	68	4924
2026-01-29 02:17:06.28	309.61	43.66	-49.1	-51.4	16.4	0.00e+00	0	42	0	751828992	68	5068
2026-01-29 02:17:07.29	309.09	43.62	-48.9	-51.2	16.6	0.00e+00	0	42	0	752877568	68	4927
2026-01-29 02:17:08.29	308.58	43.58	-48.6	-50.6	17.2	0.00e+00	0	42	0	754974720	68	4642
2026-01-29 02:17:09.30	308.06	43.54	-48.6	-50.6	17.2	0.00e+00	0	42	0	757071872	68	4614
2026-01-29 02:17:10.31	307.55	43.49	-48.5	-50.5	17.4	0.00e+00	0	42	0	759169024	68	4554
2026-01-29 02:17:11.31	307.04	43.44	-48.3	-50.2	17.6	0.00e+00	0	42	0	761266176	68	4401
2026-01-29 02:17:12.32	306.53	43.39	-48.3	-50.2	17.6	0.00e+00	0	42	0	762314752	68	4403
2026-01-29 02:17:13.33	306.02	43.33	-48.4	-50.3	17.5	0.00e+00	0	42	0	764411904	68	4487
2026-01-29 02:17:14.34	305.51	43.27	-48.9	-51.0	16.9	0.00e+00	0	42	0	766509056	68	4836
2026-01-29 02:17:15.35	305.00	43.22	-49.1	-51.3	16.5	0.00e+00	0	42	0	768606208	68	5025
2026-01-29 02:17:16.35	304.50	43.15	-49.3	-51.7	16.2	0.00e+00	0	42	0	769654784	69	4933
2026-01-29 02:17:17.36	304.00	43.09	-49.7	-52.3	15.6	0.00e+00	0	42	0	771751936	69	5281
2026-01-29 02:17:18.37	303.50	43.02	-49.7	-52.3	15.6	0.00e+00	0	42	0	773849088	70	5033
2026-01-29 02:17:19.38	303.00	42.95	-49.0	-51.2	16.6	0.00e+00	0	42	0	775946240	70	4419
2026-01-29 02:17:20.39	302.50	42.88	-48.5	-50.5	17.3	0.00e+00	0	42	0	778043392	69	4312
2026-01-29 02:17:21.40	302.01	42.81	-48.2	-50.1	17.7	0.00e+00	0	42	0	780140544	68	4356
2026-01-29 02:17:22.41	301.52	42.73	-48.2	-50.1	17.7	0.00e+00	0	42	0	781189120	68	4351
2026-01-29 02:17:23.41	301.03	42.65	-48.2	-50.1	17.8	0.00e+00	0	42	0	783286272	68	4346
2026-01-29 02:17:24.42	300.54	42.57	-48.0	-49.8	17.9	0.00e+00	0	42	0	785383424	67	4469
2026-01-29 02:17:25.43	300.06	42.49	-47.8	-49.6	18.2	0.00e+00	0	42	0	787480576	67	4359
2026-01-29 02:17:26.44	299.58	42.41	-47.8	-49.6	18.3	0.00e+00	0	42	0	789577728	67	4363
2026-01-29 02:17:27.45	299.10	42.32	-47.6	-49.3	18.5	0.00e+00	0	42	0	790626304	67	4197
2026-01-29 02:17:28.46	298.62	42.23	-47.2	-48.8	18.9	0.00e+00	0	42	0	792723456	66	4197
2026-01-29 02:17:29.47	298.15	42.14	-46.5	-47.9	19.8	0.00e+00	0	42	0	794820608	65	4038
2026-01-29 02:17:30.48	297.67	42.05	-46.1	-47.4	20.3	0.00e+00	0	42	0	796917760	64	4018
2026-01-29 02:17:31.49	297.20	41.95	-45.9	-47.2	20.6	0.00e+00	0	42	0	799014912	63	4158
2026-01-29 02:17:32.49	296.74	41.86	-45.9	-47.2	20.6	0.00e+00	0	42	0	800063488	63	4167
2026-01-29 02:17:33.50	296.28	41.76	-46.2	-47.6	20.2	0.00e+00	0	42	0	802160640	63	4350
2026-01-29 02:17:34.51	295.82	41.66	-46.6	-48.1	19.8	0.00e+00	0	42	0	804257792	63	4602
2026-01-29 02:17:35.52	295.36	41.55	-46.6	-48.0	19.7	0.00e+00	0	42	0	806354944	64	4323
2026-01-29 02:17:36.52	294.91	41.45	-46.0	-47.3	20.4	0.00e+00	0	42	0	808452096	64	3971
2026-01-29 02:17:37.53	294.46	41.35	-45.7	-47.0	20.8	0.00e+00	0	42	0	809500672	63	4072
2026-01-29 02:17:38.54	294.01	41.24	-45.3	-46.5	21.2	0.00e+00	0	42	0	811597824	62	4084
2026-01-29 02:17:39.55	293.56	41.13	-45.1	-46.3	21.5	0.00e+00	0	42	0	813694976	62	3970
2026-01-29 02:17:40.56	293.12	41.02	-45.1	-46.3	21.5	0.00e+00	0	42	0	815792128	62	3971
2026-01-29 02:17:41.57	292.68	40.91	-45.1	-46.3	21.4	0.00e+00	0	42	0	817889280	62	3982
2026-01-29 02:17:42.57	292.25	40.79	-44.9	-46.1	21.6	0.00e+00	0	42	0	818937856	61	4105
2026-01-29 02:17:43.58	291.82	40.68	-44.8	-45.9	21.7	0.00e+00	0	42	0	821035008	61	4029
2026-01-29 02:17:44.58	291.39	40.56	-44.4	-45.5	22.2	0.00e+00	0	42	0	823132160	60	4060
2026-01-29 02:17:45.59	290.96	40.44	-44.2	-45.3	22.4	0.00e+00	0	42	0	825229312	60	3962
2026-01-29 02:17:46.59	290.54	40.33	-44.3	-45.4	22.2	0.00e+00	0	42	0	827326464	60	4033
2026-01-29 02:17:47.60	290.12	40.20	-44.3	-45.4	22.2	0.00e+00	0	42	0	828375040	60	4006
2026-01-29 02:17:48.61	289.70	40.08	-44.2	-45.3	22.4	0.00e+00	0	42	0	830472192	60	3968
2026-01-29 02:17:49.62	289.29	39.96	-44.3	-45.3	22.3	0.00e+00	0	42	0	832569344	60	3990
2026-01-29 02:17:50.63	288.88	39.83	-44.4	-45.5	22.1	0.00e+00	0	42	0	834666496	60	4076
2026-01-29 02:17:51.64	288.47	39.71	-44.4	-45.4	22.2	0.00e+00	0	42	0	836763648	60	4048
2026-01-29 02:17:52.64	288.07	39.58	-44.3	-45.4	22.2	0.00e+00	0	42	0	837812224	60	4015
2026-01-29 02:17:53.65	287.67	39.45	-44.2	-45.3	22.3	0.00e+00	0	42	0	839909376	60	3986
2026-01-29 02:17:54.66	287.27	39.32	-44.2	-45.3	22.4	0.00e+00	0	42	0	842006528	60	3968
2026-01-29 02:17:55.67	286.87	39.19	-44.2	-45.3	22.4	0.00e+00	0	42	0	844103680	60	3965
2026-01-29 02:17:56.68	286.48	39.06	-44.0	-45.0	22.6	0.00e+00	0	42	0	846200832	60	3865
2026-01-29 02:17:57.69	286.09	38.93	-44.2	-45.3	22.4	0.00e+00	0	42	0	847249408	60	3965
2026-01-29 02:17:58.70	285.70	38.80	-44.5	-45.5	22.1	0.00e+00	0	42	0	849346560	60	4096
2026-01-29 02:17:59.71	285.32	38.66	-44.4	-45.5	22.1	0.00e+00	0	42	0	851443712	60	4083
2026-01-29 02:18:00.71	284.94	38.53	-44.7	-45.8	21.9	0.00e+00	0	42	0	853540864	60	4199
2026-01-29 02:18:01.72	284.57	38.39	-44.7	-45.8	21.8	0.00e+00	0	42	0	855638016	60	4234
2026-01-29 02:18:02.73	284.19	38.25	-44.8	-46.0	21.7	0.00e+00	0	42	0	856686592	60	4294
2026-01-29 02:18:03.74	283.82	38.11	-44.9	-46.0	21.6	0.00e+00	0	42	0	858783744	60	4338
2026-01-29 02:18:04.75	283.46	37.98	-45.0	-46.2	21.5	0.00e+00	0	42	0	860880896	60	4414
2026-01-29 02:18:05.76	283.09	37.84	-45.1	-46.2	21.5	0.00e+00	0	42	0	862978048	60	4433
2026-01-29 02:18:06.77	282.73	37.70	-45.3	-46.5	21.2	0.00e+00	0	42	0	865075200	61	4300
2026-01-29 02:18:07.77	282.38	37.56	-45.0	-46.1	21.5	0.00e+00	0	42	0	867172352	61	4134
2026-01-29 02:18:08.78	282.02	37.41	-45.0	-46.2	21.5	0.00e+00	0	42	0	868220928	61	4157
2026-01-29 02:18:09.79	281.67	37.27	-45.2	-46.3	21.4	0.00e+00	0	42	0	870318080	61	4234
2026-01-29 02:18:10.80	281.32	37.13	-45.5	-46.7	21.0	0.00e+00	0	42	0	872415232	61	4433
2026-01-29 02:18:11.81	280.98	36.98	-45.5	-46.8	21.0	0.00e+00	0	42	0	874512384	61	4452
2026-01-29 02:18:12.82	280.63	36.84	-45.7	-46.9	20.8	0.00e+00	0	42	0	876609536	61	4525
2026-01-29 02:18:13.83	280.29	36.70	-45.8	-47.0	20.7	0.00e+00	0	42	0	877658112	62	4335
2026-01-29 02:18:14.84	279.96	36.55	-45.8	-47.0	20.7	0.00e+00	0	42	0	879755264	62	4323
2026-01-29 02:18:15.85	279.63	36.40	-45.7	-46.9	20.8	0.00e+00	0	42	0	881852416	62	4269
2026-01-29 02:18:16.85	279.30	36.26	-45.8	-47.0	20.7	0.00e+00	0	42	0	883949568	62	4334
2026-01-29 02:18:17.86	278.97	36.11	-45.9	-47.2	20.5	0.00e+00	0	42	0	884998144	62	4436
2026-01-29 02:18:18.87	278.65	35.97	-46.4	-47.8	20.0	0.00e+00	0	42	0	887095296	63	4442
2026-01-29 02:18:19.87	278.33	35.82	-46.5	-47.9	19.8	0.00e+00	0	42	0	889192448	63	4501
2026-01-29 02:18:20.88	278.01	35.67	-46.5	-47.9	19.8	0.00e+00	0	42	0	891289600	63	4510
2026-01-29 02:18:21.89	277.69	35.53	-46.4	-47.8	19.9	0.00e+00	0	42	0	893386752	63	4489
2026-01-29 02:18:22.90	277.38	35.38	-46.4	-47.8	19.9	0.00e+00	0	42	0	895483904	63	4455
2026-01-29 02:18:23.91	277.07	35.23	-46.4	-47.8	19.9	0.00e+00	0	42	0	896532480	63	4466
2026-01-29 02:18:24.91	276.77	35.08	-46.4	-47.8	19.9	0.00e+00	0	42	0	898629632	63	4483
2026-01-29 02:18:25.92	276.46	34.93	-46.6	-48.0	19.7	0.00e+00	0	42	0	900726784	63	4570
2026-01-29 02:18:26.93	276.16	34.78	-46.8	-48.4	19.3	0.00e+00	0	42	0	902823936	64	4502
2026-01-29 02:18:27.94	275.86	34.63	-47.0	-48.5	19.1	0.00e+00	0	42	0	904921088	64	4584
2026-01-29 02:18:28.94	275.57	34.49	-47.1	-48.7	18.9	0.00e+00	0	42	0	905969664	64	4680
2026-01-29 02:18:29.95	275.28	34.34	-47.4	-49.0	18.6	0.00e+00	0	42	0	908066816	65	4580
2026-01-29 02:18:30.96	274.98	34.19	-47.6	-49.4	18.2	0.00e+00	0	42	0	910163968	65	4779
2026-01-29 02:18:31.97	274.70	34.04	-47.7	-49.5	18.1	0.00e+00	0	42	0	912261120	66	4592
2026-01-29 02:18:32.97	274.41	33.89	-47.6	-49.3	18.3	0.00e+00	0	42	0	914358272	66	4485
2026-01-29 02:18:33.98	274.13	33.74	-47.5	-49.2	18.4	0.00e+00	0	42	0	915406848	66	4429
2026-01-29 02:18:34.99	273.85	33.59	-47.6	-49.3	18.3	0.00e+00	0	42	0	917504000	66	4455
2026-01-29 02:18:36.00	273.57	33.44	-47.7	-49.5	18.2	0.00e+00	0	42	0	919601152	66	4569
2026-01-29 02:18:37.01	273.30	33.29	-47.8	-49.6	18.0	0.00e+00	0	42	0	921698304	66	4644
2026-01-29 02:18:38.02	273.03	33.14	-48.2	-50.1	17.6	0.00e+00	0	42	0	923795456	66	4887
2026-01-29 02:18:39.03	272.76	32.99	-48.3	-50.3	17.4	0.00e+00	0	42	0	924844032	67	4735
2026-01-29 02:18:40.03	272.49	32.84	-48.5	-50.5	17.1	0.00e+00	0	42	0	926941184	67	4870
2026-01-29 02:18:41.04	272.23	32.69	-48.4	-50.4	17.2	0.00e+00	0	42	0	929038336	67	4774
2026-01-29 02:18:42.05	271.96	32.54	-48.4	-50.4	17.2	0.00e+00	0	42	0	931135488	67	4794
2026-01-29 02:18:43.06	271.70	32.39	-48.2	-50.1	17.5	0.00e+00	0	42	0	933232640	67	4630
2026-01-29 02:18:44.07	271.45	32.24	-48.1	-50.0	17.6	0.00e+00	0	42	0	934281216	67	4574
2026-01-29 02:18:45.07	271.19	32.09	-48.0	-49.9	17.8	0.00e+00	0	42	0	936378368	67	4497
2026-01-29 02:18:46.08	270.94	31.94	-48.1	-50.0	17.6	0.00e+00	0	42	0	938475520	67	4557
2026-01-29 02:18:47.09	270.69	31.79	-48.3	-50.2	17.3	0.00e+00	0	42	0	940572672	67	4701
2026-01-29 02:18:48.10	270.44	31.64	-48.4	-50.4	17.2	0.00e+00	0	42	0	942669824	67	4763
2026-01-29 02:18:49.11	270.20	31.49	-48.2	-50.1	17.4	0.00e+00	0	42	0	943718400	67	4650
2026-01-29 02:18:50.12	269.95	31.34	-48.2	-50.1	17.4	0.00e+00	0	42	0	945815552	67	4638
2026-01-29 02:18:51.13	269.71	31.19	-48.1	-50.0	17.6	0.00e+00	0	42	0	947912704	67	4564
2026-01-29 02:18:52.13	269.47	31.04	-48.1	-50.0	17.5	0.00e+00	0	42	0	950009856	67	4594
2026-01-29 02:18:53.14	269.24	30.89	-48.2	-50.1	17.4	0.00e+00	0	42	0	952107008	67	4641
2026-01-29 02:18:54.15	269.00	30.75	-48.3	-50.3	17.2	0.00e+00	0	42	0	953155584	67	4709
2026-01-29 02:18:55.16	268.77	30.60	-48.3	-50.3	17.2	0.00e+00	0	42	0	955252736	67	4728
2026-01-29 02:18:56.17	268.54	30.45	-48.2	-50.1	17.4	0.00e+00	0	42	0	957349888	67	4633
2026-01-29 02:18:57.17	268.31	30.30	-47.9	-49.7	17.8	0.00e+00	0	42	0	959447040	67	4421
2026-01-29 02:18:58.18	268.09	30.16	-47.8	-49.6	17.8	0.00e+00	0	42	0	961544192	67	4369
2026-01-29 02:18:59.19	267.86	30.01	-47.7	-49.5	18.0	0.00e+00	0	42	0	962592768	67	4316
2026-01-29 02:19:00.20	267.64	29.86	-47.4	-49.1	18.4	0.00e+00	0	42	0	964689920	66	4375
2026-01-29 02:19:01.21	267.42	29.71	-47.5	-49.2	18.3	0.00e+00	0	42	0	966787072	66	4411
2026-01-29 02:19:02.22	267.20	29.57	-47.3	-49.0	18.4	0.00e+00	0	42	0	968884224	66	4327
2026-01-29 02:19:03.23	266.99	29.42	-47.2	-48.9	18.6	0.00e+00	0	42	0	970981376	66	4245
2026-01-29 02:19:04.24	266.77	29.28	-47.1	-48.7	18.7	0.00e+00	0	42	0	972029952	66	4169
2026-01-29 02:19:05.24	266.56	29.13	-47.2	-48.9	18.5	0.00e+00	0	42	0	974127104	66	4263
2026-01-29 02:19:06.25	266.35	28.99	-47.4	-49.1	18.3	0.00e+00	0	42	0	976224256	66	4378
2026-01-29 02:19:07.26	266.14	28.84	-47.4	-49.1	18.4	0.00e+00	0	42	0	978321408	66	4360
2026-01-29 02:19:08.27	265.94	28.70	-47.2	-48.8	18.6	0.00e+00	0	42	0	980418560	66	4234
2026-01-29 02:19:09.27	265.74	28.55	-47.1	-48.7	18.7	0.00e+00	0	42	0	982515712	66	4167
2026-01-29 02:19:10.28	265.53	28.41	-47.0	-48.6	18.7	0.00e+00	0	42	0	983564288	66	4134
2026-01-29 02:19:11.29	265.33	28.27	-47.0	-48.7	18.7	0.00e+00	0	42	0	985661440	65	4406
2026-01-29 02:19:12.29	265.13	28.12	-46.7	-48.3	19.1	0.00e+00	0	42	0	987758592	65	4195
2026-01-29 02:19:13.30	264.94	27.98	-46.7	-48.2	19.1	0.00e+00	0	42	0	989855744	65	4191
2026-01-29 02:19:14.31	264.74	27.84	-46.7	-48.2	19.1	0.00e+00	0	42	0	990904320	65	4181
2026-01-29 02:19:15.32	264.55	27.70	-46.7	-48.2	19.2	0.00e+00	0	42	0	993001472	65	4161
2026-01-29 02:19:16.32	264.36	27.56	-46.7	-48.3	19.1	0.00e+00	0	42	0	995098624	65	4208
2026-01-29 02:19:17.33	264.17	27.41	-46.7	-48.3	19.0	0.00e+00	0	42	0	997195776	65	4212
2026-01-29 02:19:18.34	263.98	27.27	-46.8	-48.3	19.0	0.00e+00	0	42	0	999292928	65	4235
2026-01-29 02:19:19.35	263.79	27.13	-46.8	-48.4	19.0	0.00e+00	0	42	0	1000341504	65	4245
2026-01-29 02:19:20.36	263.61	26.99	-46.7	-48.3	19.1	0.00e+00	0	42	0	1002438656	65	4208
2026-01-29 02:19:21.36	263.42	26.85	-46.7	-48.3	19.1	0.00e+00	0	42	0	1004535808	65	4208
2026-01-29 02:19:22.37	263.24	26.71	-46.6	-48.1	19.2	0.00e+00	0	42	0	1006632960	65	4132
2026-01-29 02:19:23.37	263.06	26.58	-46.5	-48.0	19.3	0.00e+00	0	42	0	1008730112	65	4086
2026-01-29 02:19:24.38	262.88	26.44	-46.6	-48.2	19.2	0.00e+00	0	42	0	1010827264	65	4154
2026-01-29 02:19:25.39	262.71	26.30	-46.5	-48.0	19.3	0.00e+00	0	42	0	1011875840	64	4314
2026-01-29 02:19:26.39	262.53	26.16	-46.6	-48.2	19.1	0.00e+00	0	42	0	1013972992	64	4405
2026-01-29 02:19:27.40	262.36	26.02	-46.7	-48.2	19.1	0.00e+00	0	42	0	1016070144	64	4423
2026-01-29 02:19:28.41	262.19	25.89	-46.7	-48.3	19.0	0.00e+00	0	42	0	1018167296	64	4464
2026-01-29 02:19:29.42	262.02	25.75	-46.7	-48.3	19.0	0.00e+00	0	42	0	1019215872	64	4463
2026-01-29 02:19:30.42	261.85	25.62	-46.8	-48.5	18.8	0.00e+00	0	42	0	1021313024	64	4548
2026-01-29 02:19:31.43	261.68	25.48	-46.8	-48.4	18.9	0.00e+00	0	42	0	1023410176	64	4511
2026-01-29 02:19:32.43	261.51	25.35	-46.9	-48.5	18.8	0.00e+00	0	42	0	1025507328	64	4581
2026-01-29 02:19:33.44	261.35	25.21	-47.0	-48.6	18.6	0.00e+00	0	42	0	1027604480	64	4638
2026-01-29 02:19:34.45	261.19	25.08	-47.0	-48.6	18.7	0.00e+00	0	42	0	1028653056	64	4620
2026-01-29 02:19:35.46	261.02	24.94	-47.1	-48.7	18.5	0.00e+00	0	42	0	1030750208	64	4702
2026-01-29 02:19:36.46	260.86	24.81	-47.1	-48.8	18.5	0.00e+00	0	42	0	1032847360	64	4735
2026-01-29 02:19:37.47	260.70	24.68	-47.3	-49.0	18.3	0.00e+00	0	42	0	1034944512	65	4591
2026-01-29 02:19:38.48	260.54	24.54	-47.3	-49.1	18.2	0.00e+00	0	42	0	1037041664	65	4609
2026-01-29 02:19:39.49	260.39	24.41	-47.3	-49.0	18.2	0.00e+00	0	42	0	1039138816	65	4592
2026-01-29 02:19:40.50	260.23	24.28	-47.2	-48.9	18.4	0.00e+00	0	42	0	1040187392	65	4502
2026-01-29 02:19:41.51	260.08	24.15	-47.2	-48.9	18.3	0.00e+00	0	42	0	1042284544	65	4540
2026-01-29 02:19:42.51	259.93	24.02	-46.8	-48.4	18.8	0.00e+00	0	42	0	1044381696	65	4272
2026-01-29 02:19:43.52	259.77	23.89	-46.9	-48.5	18.8	0.00e+00	0	42	0	1046478848	65	4304
2026-01-29 02:19:44.53	259.62	23.75	-46.8	-48.4	18.8	0.00e+00	0	42	0	1047527424	65	4253
2026-01-29 02:19:45.54	259.47	23.62	-46.7	-48.2	19.0	0.00e+00	0	42	0	1049624576	65	4187
2026-01-29 02:19:46.55	259.33	23.50	-46.7	-48.3	19.0	0.00e+00	0	42	0	1051721728	65	4212
2026-01-29 02:19:47.56	259.18	23.37	-46.7	-48.3	18.9	0.00e+00	0	42	0	1053818880	65	4234
2026-01-29 02:19:48.57	259.03	23.24	-46.7	-48.3	18.9	0.00e+00	0	42	0	1055916032	65	4219
2026-01-29 02:19:49.57	258.89	23.11	-46.7	-48.3	18.9	0.00e+00	0	42	0	1058013184	65	4223
2026-01-29 02:19:50.58	258.75	22.98	-46.8	-48.4	18.8	0.00e+00	0	42	0	1059061760	65	4258
2026-01-29 02:19:51.59	258.61	22.86	-46.7	-48.3	18.9	0.00e+00	0	42	0	1061158912	65	4215
2026-01-29 02:19:52.60	258.47	22.73	-46.7	-48.3	18.9	0.00e+00	0	42	0	1063256064	65	4216
2026-01-29 02:19:53.61	258.33	22.60	-46.7	-48.3	18.9	0.00e+00	0	42	0	1065353216	65	4216
2026-01-29 02:19:54.61	258.19	22.48	-46.8	-48.5	18.7	0.00e+00	0	42	0	1067450368	65	4305
2026-01-29 02:19:55.62	258.05	22.35	-46.9	-48.6	18.6	0.00e+00	0	42	0	1068498944	65	4355
2026-01-29 02:19:56.63	257.92	22.23	-46.9	-48.5	18.7	0.00e+00	0	42	0	1070596096	65	4322
2026-01-29 02:19:57.64	257.78	22.10	-47.0	-48.7	18.5	0.00e+00	0	42	0	1072693248	65	4397
2026-01-29 02:19:58.65	257.65	21.98	-47.0	-48.6	18.5	0.00e+00	0	42	0	1074790400	65	4380
2026-01-29 02:19:59.66	257.51	21.85	-47.0	-48.7	18.4	0.00e+00	0	42	0	1075838976	65	4432
2026-01-29 02:20:00.67	257.38	21.73	-47.1	-48.8	18.3	0.00e+00	0	42	0	1077936128	65	4475
2026-01-29 02:20:01.68	257.25	21.61	-47.1	-48.9	18.3	0.00e+00	0	42	0	1080033280	65	4503
2026-01-29 02:20:02.69	257.12	21.48	-47.1	-48.9	18.3	0.00e+00	0	42	0	1082130432	65	4507
2026-01-29 02:20:03.70	256.99	21.36	-47.2	-49.0	18.1	0.00e+00	0	42	0	1084227584	65	4572
2026-01-29 02:20:04.70	256.87	21.24	-47.1	-48.8	18.3	0.00e+00	0	42	0	1086324736	65	4482
2026-01-29 02:20:05.71	256.74	21.12	-47.1	-48.8	18.4	0.00e+00	0	42	0	1087373312	65	4460
2026-01-29 02:20:06.72	256.61	21.00	-46.9	-48.5	18.6	0.00e+00	0	42	0	1089470464	65	4337
2026-01-29 02:20:07.73	256.49	20.88	-46.7	-48.3	18.8	0.00e+00	0	42	0	1091567616	65	4230
2026-01-29 02:20:08.73	256.37	20.76	-46.6	-48.2	18.8	0.00e+00	0	42	0	1093664768	65	4191
2026-01-29 02:20:09.74	256.25	20.64	-46.6	-48.2	18.9	0.00e+00	0	42	0	1095761920	65	4166
2026-01-29 02:20:10.75	256.12	20.52	-46.5	-48.1	19.0	0.00e+00	0	42	0	1096810496	64	4345
2026-01-29 02:20:11.76	256.00	20.40	-46.5	-48.1	19.0	0.00e+00	0	42	0	1098907648	64	4362
2026-01-29 02:20:12.77	255.88	20.28	-46.6	-48.2	18.9	0.00e+00	0	42	0	1101004800	64	4401
2026-01-29 02:20:13.77	255.77	20.17	-46.7	-48.3	18.7	0.00e+00	0	42	0	1103101952	64	4476
2026-01-29 02:20:14.78	255.65	20.05	-46.7	-48.4	18.7	0.00e+00	0	42	0	1105199104	64	4513
2026-01-29 02:20:15.79	255.53	19.93	-46.9	-48.5	18.5	0.00e+00	0	42	0	1106247680	64	4590
2026-01-29 02:20:16.79	255.42	19.82	-46.9	-48.5	18.5	0.00e+00	0	42	0	1108344832	64	4587
2026-01-29 02:20:17.80	255.30	19.70	-46.9	-48.6	18.4	0.00e+00	0	42	0	1110441984	64	4642
2026-01-29 02:20:18.80	255.19	19.59	-46.8	-48.5	18.6	0.00e+00	0	42	0	1112539136	64	4569
2026-01-29 02:20:19.81	255.07	19.47	-46.8	-48.5	18.6	0.00e+00	0	42	0	1114636288	64	4546
2026-01-29 02:20:20.82	254.96	19.36	-46.6	-48.3	18.8	0.00e+00	0	42	0	1115684864	64	4454
2026-01-29 02:20:21.82	254.85	19.24	-46.6	-48.2	18.8	0.00e+00	0	42	0	1117782016	64	4438
2026-01-29 02:20:22.83	254.74	19.13	-46.5	-48.1	19.0	0.00e+00	0	42	0	1119879168	64	4354
2026-01-29 02:20:23.84	254.63	19.02	-46.5	-48.0	18.9	0.00e+00	0	42	0	1121976320	64	4338
2026-01-29 02:20:24.85	254.52	18.90	-46.5	-48.1	18.9	0.00e+00	0	42	0	1124073472	64	4354
2026-01-29 02:20:25.86	254.41	18.79	-46.4	-47.9	19.0	0.00e+00	0	42	0	1125122048	64	4288
2026-01-29 02:20:26.87	254.31	18.68	-46.4	-48.0	18.9	0.00e+00	0	42	0	1127219200	64	4333
2026-01-29 02:20:27.87	254.20	18.57	-46.4	-48.0	19.0	0.00e+00	0	42	0	1129316352	64	4319
2026-01-29 02:20:28.88	254.09	18.45	-46.5	-48.1	18.9	0.00e+00	0	42	0	1131413504	64	4350
2026-01-29 02:20:29.89	253.99	18.34	-46.5	-48.1	18.9	0.00e+00	0	42	0	1133510656	64	4343
2026-01-29 02:20:30.89	253.89	18.23	-46.4	-48.0	19.0	0.00e+00	0	42	0	1134559232	64	4333
2026-01-29 02:20:31.90	253.78	18.12	-46.4	-48.0	19.0	0.00e+00	0	42	0	1136656384	64	4311
2026-01-29 02:20:32.90	253.68	18.01	-46.4	-47.9	19.1	0.00e+00	0	42	0	1138753536	64	4282
2026-01-29 02:20:33.91	253.58	17.90	-46.5	-48.1	18.8	0.00e+00	0	42	0	1140850688	64	4350
2026-01-29 02:20:34.91	253.48	17.80	-46.4	-48.0	19.0	0.00e+00	0	42	0	1142947840	64	4302
2026-01-29 02:20:35.92	253.38	17.69	-46.5	-48.1	18.8	0.00e+00	0	42	0	1143996416	64	4366
2026-01-29 02:20:36.93	253.28	17.58	-46.5	-48.1	18.8	0.00e+00	0	42	0	1146093568	64	4372
2026-01-29 02:20:37.94	253.18	17.47	-46.6	-48.3	18.7	0.00e+00	0	42	0	1148190720	64	4458
2026-01-29 02:20:38.94	253.08	17.36	-46.7	-48.4	18.5	0.00e+00	0	42	0	1150287872	64	4528
2026-01-29 02:20:39.95	252.98	17.26	-46.8	-48.5	18.5	0.00e+00	0	42	0	1152385024	64	4571
2026-01-29 02:20:40.96	252.89	17.15	-46.9	-48.6	18.3	0.00e+00	0	42	0	1153433600	64	4626
2026-01-29 02:20:41.97	252.79	17.04	-46.9	-48.7	18.3	0.00e+00	0	42	0	1155530752	64	4654
2026-01-29 02:20:42.98	252.69	16.94	-46.9	-48.7	18.3	0.00e+00	0	42	0	1157627904	64	4655
2026-01-29 02:20:43.98	252.60	16.83	-47.0	-48.7	18.2	0.00e+00	0	42	0	1159725056	64	4688
2026-01-29 02:20:44.99	252.51	16.72	-47.0	-48.7	18.2	0.00e+00	0	42	0	1161822208	64	4701
2026-01-29 02:20:46.00	252.41	16.62	-46.9	-48.6	18.3	0.00e+00	0	42	0	1162870784	64	4636
2026-01-29 02:20:47.01	252.32	16.51	-46.9	-48.7	18.3	0.00e+00	0	42	0	1164967936	64	4661
2026-01-29 02:20:48.01	252.23	16.41	-46.8	-48.5	18.4	0.00e+00	0	42	0	1167065088	64	4556
2026-01-29 02:20:49.03	252.14	16.31	-46.7	-48.4	18.6	0.00e+00	0	42	0	1169162240	64	4501
2026-01-29 02:20:50.03	252.05	16.20	-46.6	-48.3	18.6	0.00e+00	0	42	0	1171259392	64	4472
2026-01-29 02:20:51.04	251.96	16.10	-46.6	-48.3	18.6	0.00e+00	0	42	0	1172307968	64	4473
2026-01-29 02:20:52.04	251.87	16.00	-46.7	-48.4	18.5	0.00e+00	0	42	0	1174405120	64	4510
2026-01-29 02:20:53.06	251.78	15.89	-46.7	-48.3	18.5	0.00e+00	0	42	0	1176502272	64	4481
2026-01-29 02:20:54.06	251.69	15.79	-46.7	-48.4	18.6	0.00e+00	0	42	0	1178599424	64	4500
2026-01-29 02:20:55.07	251.60	15.69	-46.7	-48.5	18.4	0.00e+00	0	42	0	1180696576	64	4547
2026-01-29 02:20:56.08	251.52	15.59	-46.8	-48.5	18.4	0.00e+00	0	42	0	1182793728	64	4564
2026-01-29 02:20:57.09	251.43	15.49	-46.8	-48.5	18.3	0.00e+00	0	42	0	1183842304	64	4598
2026-01-29 02:20:58.10	251.34	15.39	-46.9	-48.7	18.2	0.00e+00	0	42	0	1185939456	64	4671
2026-01-29 02:20:59.10	251.26	15.29	-46.9	-48.7	18.2	0.00e+00	0	42	0	1188036608	64	4672
2026-01-29 02:21:00.11	251.18	15.19	-47.0	-48.7	18.1	0.00e+00	0	42	0	1190133760	64	4703
2026-01-29 02:21:01.12	251.09	15.09	-47.1	-48.9	17.9	0.00e+00	0	42	0	1191182336	64	4801
2026-01-29 02:21:02.13	251.01	14.99	-47.0	-48.9	18.0	0.00e+00	0	42	0	1193279488	64	4765
2026-01-29 02:21:03.13	250.93	14.89	-47.0	-48.8	18.1	0.00e+00	0	42	0	1195376640	64	4733
2026-01-29 02:21:04.14	250.84	14.79	-47.0	-48.8	18.1	0.00e+00	0	42	0	1197473792	64	4715
2026-01-29 02:21:05.15	250.76	14.69	-47.0	-48.8	18.0	0.00e+00	0	42	0	1199570944	64	4754
2026-01-29 02:21:06.15	250.68	14.60	-47.2	-49.0	17.8	0.00e+00	0	42	0	1200619520	64	4841
2026-01-29 02:21:07.16	250.60	14.50	-47.1	-48.8	17.9	0.00e+00	0	42	0	1202716672	64	4757
2026-01-29 02:21:08.17	250.52	14.40	-47.0	-48.8	18.0	0.00e+00	0	42	0	1204813824	64	4713
2026-01-29 02:21:09.18	250.44	14.30	-47.0	-48.7	18.0	0.00e+00	0	42	0	1206910976	64	4703
2026-01-29 02:21:10.19	250.36	14.21	-46.9	-48.7	18.2	0.00e+00	0	42	0	1209008128	64	4688
2026-01-29 02:21:11.19	250.28	14.11	-47.0	-48.8	17.9	0.00e+00	0	42	0	1211105280	64	4746
2026-01-29 02:21:12.20	250.21	14.02	-46.9	-48.7	18.1	0.00e+00	0	42	0	1212153856	64	4679
2026-01-29 02:21:13.20	250.13	13.92	-47.1	-48.9	17.8	0.00e+00	0	42	0	1214251008	64	4807
2026-01-29 02:21:14.21	250.05	13.82	-47.2	-49.0	17.8	0.00e+00	0	42	0	1216348160	65	4595
2026-01-29 02:21:15.22	249.98	13.73	-47.2	-49.1	17.7	0.00e+00	0	42	0	1218445312	65	4606
2026-01-29 02:21:16.23	249.90	13.63	-47.2	-49.1	17.7	0.00e+00	0	42	0	1219493888	65	4617
2026-01-29 02:21:17.24	249.82	13.54	-47.1	-49.0	17.7	0.00e+00	0	42	0	1221591040	65	4571
2026-01-29 02:21:18.25	249.75	13.45	-47.3	-49.2	17.6	0.00e+00	0	42	0	1223688192	65	4654
2026-01-29 02:21:19.26	249.67	13.35	-47.3	-49.2	17.6	0.00e+00	0	42	0	1225785344	65	4679
2026-01-29 02:21:20.26	249.60	13.26	-47.4	-49.3	17.5	0.00e+00	0	42	0	1227882496	65	4735
2026-01-29 02:21:21.27	249.53	13.17	-47.3	-49.3	17.5	0.00e+00	0	42	0	1229979648	65	4710
2026-01-29 02:21:22.28	249.45	13.07	-47.3	-49.2	17.5	0.00e+00	0	42	0	1231028224	65	4701
2026-01-29 02:21:23.28	249.38	12.98	-47.3	-49.3	17.5	0.00e+00	0	42	0	1233125376	65	4714
2026-01-29 02:21:24.29	249.31	12.89	-47.4	-49.4	17.4	0.00e+00	0	42	0	1235222528	65	4767
2026-01-29 02:21:25.30	249.24	12.80	-47.3	-49.2	17.5	0.00e+00	0	42	0	1237319680	65	4685
2026-01-29 02:21:26.31	249.17	12.70	-47.3	-49.3	17.4	0.00e+00	0	42	0	1239416832	65	4729
2026-01-29 02:21:27.31	249.10	12.61	-47.3	-49.3	17.4	0.00e+00	0	42	0	1240465408	65	4720
2026-01-29 02:21:28.32	249.03	12.52	-47.3	-49.2	17.5	0.00e+00	0	42	0	1242562560	65	4702
2026-01-29 02:21:29.33	248.96	12.43	-47.3	-49.3	17.4	0.00e+00	0	42	0	1244659712	65	4739
