passes_logs/2026/01/29/R3.2S_Murmansk/R3.2S_Murmansk__20260129_093637_NOAA_21_JPSS-2_rec.log

#Pass ID: 20260129_093637_NOAA 21 (JPSS-2)
#Satellite: NOAA 21 (JPSS-2)
#Configuration: NOAA-21
#almurnet v.1.7.20251203
#Start time: 2026-01-29 09:37:26

#Version: 2.2.20231116
#Station: R3.2S_Murmansk
#Location: 33.079688 lon 68.888172 lat
#TLE: 1 54234U 22150A   26028.89828222  .00000145  00000+0  89569-4 0  9997
#TLE: 2 54234  98.7511 329.6308 0000927 198.8651 161.2491 14.19540676166783

#Time	Az	El	Level	Level2	SNR	BER	BlckErr	Temp	State	Recorded	gain1	gain2
2026-01-29 09:37:26.87	153.99	5.36	-53.1	-65.0	3.8	8.46e-01	0	41	0	0	77	14451
2026-01-29 09:37:27.87	153.99	5.43	-54.2	-67.0	3.8	1.49e+00	0	42	104	0	78	17146
2026-01-29 09:37:28.88	154.00	5.50	-54.2	-67.0	3.8	1.49e+00	0	42	104	0	79	16273
2026-01-29 09:37:29.89	154.01	5.58	-54.3	-67.0	3.8	1.49e+00	0	42	104	0	79	16296
2026-01-29 09:37:30.90	154.01	5.65	-54.3	-67.1	3.8	1.49e+00	0	42	104	0	79	16388
2026-01-29 09:37:31.91	154.02	5.72	-54.3	-67.1	3.8	1.49e+00	0	42	104	0	79	16441
2026-01-29 09:37:32.91	154.02	5.80	-54.4	-67.1	3.8	1.49e+00	0	42	104	0	79	16445
2026-01-29 09:37:33.92	154.03	5.87	-54.4	-67.1	3.8	1.49e+00	0	42	104	0	79	16491
2026-01-29 09:37:34.93	154.03	5.95	-54.4	-67.2	3.8	1.49e+00	0	42	104	0	79	16512
2026-01-29 09:37:35.94	154.04	6.02	-54.4	-67.2	3.8	1.49e+00	0	42	104	0	79	16604
2026-01-29 09:37:36.95	154.05	6.10	-54.4	-67.2	3.8	1.49e+00	0	42	104	0	79	16594
2026-01-29 09:37:37.96	154.05	6.17	-54.5	-67.2	3.8	1.49e+00	0	42	104	0	79	16635
2026-01-29 09:37:38.97	154.06	6.25	-54.5	-67.2	3.8	1.49e+00	0	42	104	0	79	16640
2026-01-29 09:37:39.98	154.06	6.32	-54.5	-67.2	3.8	1.49e+00	0	42	104	0	79	16642
2026-01-29 09:37:40.98	154.07	6.40	-54.5	-67.2	3.8	1.49e+00	0	42	104	0	79	16680
2026-01-29 09:37:41.99	154.07	6.48	-54.5	-67.2	3.8	1.49e+00	0	42	104	0	79	16639
2026-01-29 09:37:43.00	154.08	6.55	-54.4	-67.2	3.8	1.49e+00	0	42	104	0	79	16586
2026-01-29 09:37:44.01	154.09	6.63	-54.4	-67.2	3.8	1.49e+00	0	42	104	0	79	16583
2026-01-29 09:37:45.01	154.09	6.71	-54.4	-67.2	3.8	1.49e+00	0	42	104	0	79	16579
2026-01-29 09:37:46.02	154.10	6.78	-54.4	-67.2	3.8	1.49e+00	0	42	104	0	79	16514
2026-01-29 09:37:47.03	154.10	6.86	-54.4	-67.2	3.8	1.49e+00	0	42	104	0	79	16520
2026-01-29 09:37:48.03	154.11	6.94	-54.3	-67.1	3.8	1.49e+00	0	42	104	0	79	16462
2026-01-29 09:37:49.04	154.12	7.02	-54.3	-67.1	3.8	1.49e+00	0	42	104	0	79	16378
2026-01-29 09:37:50.05	154.12	7.09	-54.3	-67.0	3.8	1.49e+00	0	42	104	0	79	16307
2026-01-29 09:37:51.05	154.13	7.17	-54.3	-67.1	3.8	1.49e+00	0	42	104	0	79	16387
2026-01-29 09:37:52.06	154.13	7.25	-54.3	-67.0	3.8	1.49e+00	0	42	104	0	79	16302
2026-01-29 09:37:53.07	154.14	7.33	-54.3	-67.0	3.8	1.49e+00	0	42	104	0	79	16250
2026-01-29 09:37:54.07	154.15	7.41	-54.2	-67.0	3.8	1.49e+00	0	42	104	0	79	16209
2026-01-29 09:37:55.08	154.15	7.49	-54.2	-67.0	3.8	1.49e+00	0	42	104	0	79	16141
2026-01-29 09:37:56.09	154.16	7.57	-54.2	-66.9	3.8	1.49e+00	0	42	104	0	79	16099
2026-01-29 09:37:57.09	154.16	7.65	-54.2	-67.0	3.8	1.49e+00	0	42	104	0	79	16134
2026-01-29 09:37:58.10	154.17	7.73	-54.2	-67.0	3.8	1.49e+00	0	42	104	0	79	16156
2026-01-29 09:37:59.11	154.18	7.81	-54.2	-67.0	3.8	1.49e+00	0	42	104	0	79	16195
2026-01-29 09:38:00.12	154.18	7.89	-54.3	-67.0	3.8	1.49e+00	0	42	104	0	79	16266
2026-01-29 09:38:01.12	154.19	7.97	-54.2	-67.0	3.8	1.49e+00	0	42	104	0	79	16248
2026-01-29 09:38:02.13	154.19	8.05	-54.2	-67.0	3.8	1.49e+00	0	42	104	0	79	16197
2026-01-29 09:38:03.14	154.20	8.13	-54.2	-67.0	3.8	1.49e+00	0	42	104	0	79	16147
2026-01-29 09:38:04.15	154.21	8.21	-54.2	-67.0	3.8	1.49e+00	0	42	104	0	79	16140
2026-01-29 09:38:05.16	154.21	8.29	-54.2	-67.0	3.8	1.49e+00	0	42	104	0	79	16175
2026-01-29 09:38:06.17	154.22	8.38	-54.2	-66.9	3.8	1.49e+00	0	42	104	0	79	16110
2026-01-29 09:38:07.17	154.22	8.46	-54.2	-66.9	3.8	1.49e+00	0	42	104	0	79	16105
2026-01-29 09:38:08.18	154.23	8.54	-54.2	-66.9	3.8	1.49e+00	0	42	104	0	79	16054
2026-01-29 09:38:09.19	154.24	8.62	-54.1	-66.9	3.8	1.49e+00	0	42	104	0	79	16055
2026-01-29 09:38:10.20	154.24	8.71	-54.1	-66.9	3.8	1.49e+00	0	42	104	0	79	16009
2026-01-29 09:38:11.20	154.25	8.79	-54.1	-66.9	3.8	1.49e+00	0	42	104	0	79	15982
2026-01-29 09:38:12.22	154.26	8.87	-54.1	-66.9	3.8	1.49e+00	0	42	104	0	79	15956
2026-01-29 09:38:13.23	154.26	8.96	-54.1	-66.9	3.8	1.49e+00	0	42	104	0	79	15980
2026-01-29 09:38:14.23	154.27	9.04	-54.1	-66.9	3.8	1.49e+00	0	42	104	0	79	15950
2026-01-29 09:38:15.24	154.28	9.13	-54.1	-66.8	3.8	1.49e+00	0	42	104	0	79	15937
2026-01-29 09:38:16.25	154.28	9.21	-54.1	-66.9	3.8	1.49e+00	0	42	104	0	79	16011
2026-01-29 09:38:17.26	154.29	9.30	-54.1	-66.9	3.8	1.49e+00	0	42	104	0	79	15997
2026-01-29 09:38:18.26	154.29	9.38	-54.1	-66.9	3.8	1.49e+00	0	42	104	0	79	15971
2026-01-29 09:38:19.27	154.30	9.47	-54.1	-66.8	3.8	1.49e+00	0	42	104	0	79	15923
2026-01-29 09:38:20.28	154.31	9.55	-54.1	-66.8	3.8	1.49e+00	0	42	104	0	79	15898
2026-01-29 09:38:21.29	154.31	9.64	-54.1	-66.8	3.8	1.49e+00	0	42	104	0	79	15908
2026-01-29 09:38:22.29	154.32	9.73	-54.1	-66.8	3.8	1.49e+00	0	42	104	0	79	15918
2026-01-29 09:38:23.30	154.33	9.81	-54.1	-66.8	3.8	1.49e+00	0	42	104	0	79	15880
2026-01-29 09:38:24.31	154.33	9.90	-54.1	-66.8	3.8	1.49e+00	0	42	104	0	79	15856
2026-01-29 09:38:25.31	154.34	9.99	-54.1	-66.8	3.8	1.49e+00	0	42	104	0	79	15883
2026-01-29 09:38:26.32	154.35	10.08	-54.0	-66.8	3.8	1.49e+00	0	42	104	0	79	15809
2026-01-29 09:38:27.33	154.35	10.16	-54.0	-66.8	3.8	1.49e+00	0	42	104	0	79	15855
2026-01-29 09:38:28.34	154.36	10.25	-54.0	-66.8	3.8	1.49e+00	0	42	104	0	79	15816
2026-01-29 09:38:29.35	154.37	10.34	-54.1	-66.9	3.8	1.49e+00	0	42	104	0	79	15951
2026-01-29 09:38:30.36	154.37	10.43	-54.2	-67.0	3.8	1.49e+00	0	42	104	0	79	16265
2026-01-29 09:38:31.36	154.38	10.52	-54.3	-67.0	3.8	1.49e+00	0	42	104	0	79	16260
2026-01-29 09:38:32.37	154.39	10.61	-54.3	-67.0	3.8	1.49e+00	0	42	104	0	79	16258
2026-01-29 09:38:33.38	154.39	10.70	-54.2	-67.0	3.8	1.49e+00	0	42	104	0	79	16231
2026-01-29 09:38:34.39	154.40	10.79	-54.2	-67.0	3.8	1.49e+00	0	42	104	0	79	16137
2026-01-29 09:38:35.39	154.41	10.88	-54.2	-66.9	3.8	1.49e+00	0	42	104	0	79	16100
2026-01-29 09:38:36.40	154.41	10.97	-54.1	-66.9	3.8	1.49e+00	0	42	104	0	79	16025
2026-01-29 09:38:37.40	154.42	11.06	-54.1	-66.9	3.8	1.49e+00	0	42	104	0	79	15976
2026-01-29 09:38:38.41	154.43	11.16	-54.1	-66.8	3.8	1.49e+00	0	42	104	0	79	15904
2026-01-29 09:38:39.42	154.43	11.25	-54.0	-66.8	3.8	1.49e+00	0	42	104	0	79	15781
2026-01-29 09:38:40.43	154.44	11.34	-54.0	-66.7	3.8	1.49e+00	0	42	104	0	79	15693
2026-01-29 09:38:41.44	154.45	11.43	-53.9	-66.7	3.8	1.49e+00	0	42	104	0	79	15607
2026-01-29 09:38:42.44	154.45	11.53	-53.8	-66.6	3.8	1.49e+00	0	42	104	0	79	15514
2026-01-29 09:38:43.45	154.46	11.62	-53.7	-66.5	3.8	1.49e+00	0	42	104	0	79	15300
2026-01-29 09:38:44.46	154.47	11.71	-53.6	-66.4	3.8	1.49e+00	0	42	104	0	79	15109
2026-01-29 09:38:45.47	154.47	11.81	-53.5	-66.3	3.8	1.49e+00	0	42	104	0	79	14899
2026-01-29 09:38:46.48	154.48	11.90	-53.4	-66.1	3.8	1.49e+00	0	42	104	0	78	15406
2026-01-29 09:38:47.49	154.49	12.00	-53.3	-65.9	3.8	1.49e+00	0	42	104	0	78	15157
2026-01-29 09:38:48.49	154.49	12.09	-51.6	-56.5	6.8	1.49e+00	2	42	104	0	75	6080
2026-01-29 09:38:49.50	154.50	12.19	-44.7	-45.8	18.8	0.00e+00	0	42	0	2097152	60	4207
2026-01-29 09:38:50.51	154.51	12.29	-48.6	-50.9	15.3	0.00e+00	0	42	0	5242880	66	5374
2026-01-29 09:38:51.52	154.52	12.38	-53.0	-64.3	3.8	1.49e+00	0	42	104	5242880	76	14057
2026-01-29 09:38:52.52	154.52	12.48	-44.8	-45.9	18.9	0.00e+00	0	42	0	7340032	60	4265
2026-01-29 09:38:53.53	154.53	12.58	-49.6	-52.4	11.8	3.70e-01	0	42	104	8388608	71	4792
2026-01-29 09:38:54.54	154.54	12.67	-43.4	-44.3	20.3	0.00e+00	0	42	0	10485760	58	3977
2026-01-29 09:38:55.55	154.54	12.77	-44.2	-45.3	19.2	0.00e+00	0	42	0	13631488	60	3980
2026-01-29 09:38:56.55	154.55	12.87	-43.6	-44.6	20.2	0.00e+00	0	42	0	16777216	59	3899
2026-01-29 09:38:57.56	154.56	12.97	-43.3	-44.3	20.5	0.00e+00	0	42	0	19922944	58	3961
2026-01-29 09:38:58.57	154.57	13.07	-43.1	-44.0	20.7	0.00e+00	0	42	0	23068672	58	3861
2026-01-29 09:38:59.58	154.57	13.17	-43.1	-44.1	20.7	0.00e+00	0	42	0	27262976	58	3872
2026-01-29 09:39:00.59	154.58	13.27	-42.9	-43.8	20.9	0.00e+00	0	42	0	29360128	57	3987
2026-01-29 09:39:01.59	154.59	13.37	-42.5	-43.4	21.2	0.00e+00	0	42	0	32505856	57	3808
2026-01-29 09:39:02.60	154.59	13.47	-42.4	-43.3	21.3	0.00e+00	0	42	0	35651584	56	3963
2026-01-29 09:39:03.61	154.60	13.57	-42.5	-43.4	21.3	0.00e+00	0	42	0	38797312	56	4026
2026-01-29 09:39:04.61	154.61	13.67	-42.5	-43.4	21.3	0.00e+00	0	42	0	41943040	56	4015
2026-01-29 09:39:05.62	154.62	13.77	-42.4	-43.3	21.3	0.00e+00	0	42	0	45088768	56	3980
2026-01-29 09:39:06.63	154.62	13.88	-42.5	-43.3	21.3	0.00e+00	0	42	0	48234496	56	3995
2026-01-29 09:39:07.64	154.63	13.98	-42.3	-43.1	21.5	0.00e+00	0	42	0	51380224	56	3913
2026-01-29 09:39:08.64	154.64	14.08	-42.3	-43.1	21.5	0.00e+00	0	42	0	54525952	56	3894
2026-01-29 09:39:09.65	154.65	14.19	-42.3	-43.1	21.5	0.00e+00	0	42	0	57671680	56	3910
2026-01-29 09:39:10.66	154.65	14.29	-42.2	-43.0	21.6	0.00e+00	0	42	0	60817408	56	3855
2026-01-29 09:39:11.67	154.66	14.40	-42.2	-43.0	21.6	0.00e+00	0	42	0	63963136	56	3854
2026-01-29 09:39:12.67	154.67	14.50	-42.2	-43.1	21.6	0.00e+00	0	42	0	68157440	56	3875
2026-01-29 09:39:13.68	154.68	14.61	-42.3	-43.1	21.5	0.00e+00	0	42	0	71303168	56	3899
2026-01-29 09:39:14.69	154.68	14.71	-42.2	-43.0	21.6	0.00e+00	0	42	0	74448896	56	3856
2026-01-29 09:39:15.70	154.69	14.82	-42.2	-43.0	21.6	0.00e+00	0	42	0	76546048	56	3864
2026-01-29 09:39:16.70	154.70	14.93	-42.1	-43.0	21.7	0.00e+00	0	42	0	79691776	56	3830
2026-01-29 09:39:17.71	154.71	15.03	-42.2	-43.0	21.6	0.00e+00	0	42	0	82837504	56	3852
2026-01-29 09:39:18.72	154.71	15.14	-42.2	-43.0	21.6	0.00e+00	0	42	0	85983232	56	3855
2026-01-29 09:39:19.73	154.72	15.25	-42.1	-43.0	21.6	0.00e+00	0	42	0	89128960	56	3841
2026-01-29 09:39:20.74	154.73	15.36	-42.1	-43.0	21.7	0.00e+00	0	42	0	92274688	56	3828
2026-01-29 09:39:21.75	154.74	15.47	-42.1	-42.9	21.7	0.00e+00	0	42	0	95420416	56	3823
2026-01-29 09:39:22.75	154.75	15.58	-42.1	-43.0	21.7	0.00e+00	0	42	0	98566144	56	3840
2026-01-29 09:39:23.76	154.75	15.69	-42.1	-43.0	21.7	0.00e+00	0	42	0	101711872	56	3841
2026-01-29 09:39:24.77	154.76	15.80	-42.2	-43.0	21.7	0.00e+00	0	42	0	104857600	56	3857
2026-01-29 09:39:25.78	154.77	15.91	-42.2	-43.0	21.6	0.00e+00	0	42	0	109051904	56	3863
2026-01-29 09:39:26.78	154.78	16.02	-42.2	-43.0	21.7	0.00e+00	0	42	0	112197632	56	3844
2026-01-29 09:39:27.79	154.79	16.14	-42.1	-43.0	21.7	0.00e+00	0	42	0	115343360	56	3832
2026-01-29 09:39:28.80	154.79	16.25	-42.2	-43.0	21.6	0.00e+00	0	42	0	118489088	56	3868
2026-01-29 09:39:29.81	154.80	16.36	-42.2	-43.1	21.6	0.00e+00	0	42	0	121634816	56	3879
2026-01-29 09:39:30.81	154.81	16.48	-42.2	-43.0	21.6	0.00e+00	0	42	0	123731968	56	3857
2026-01-29 09:39:31.82	154.82	16.59	-42.3	-43.1	21.6	0.00e+00	0	42	0	126877696	56	3897
2026-01-29 09:39:32.83	154.83	16.71	-42.3	-43.1	21.6	0.00e+00	0	42	0	130023424	56	3904
2026-01-29 09:39:33.84	154.84	16.82	-42.3	-43.2	21.6	0.00e+00	0	42	0	133169152	56	3915
2026-01-29 09:39:34.85	154.84	16.94	-42.2	-43.0	21.7	0.00e+00	0	42	0	136314880	56	3848
2026-01-29 09:39:35.86	154.85	17.06	-42.2	-43.1	21.7	0.00e+00	0	42	0	139460608	56	3873
2026-01-29 09:39:36.87	154.86	17.18	-42.3	-43.1	21.6	0.00e+00	0	42	0	142606336	56	3908
2026-01-29 09:39:37.88	154.87	17.29	-42.3	-43.1	21.6	0.00e+00	0	42	0	146800640	56	3906
2026-01-29 09:39:38.89	154.88	17.41	-42.4	-43.3	21.5	0.00e+00	0	42	0	149946368	56	3969
2026-01-29 09:39:39.89	154.89	17.53	-42.3	-43.2	21.5	0.00e+00	0	42	0	153092096	56	3922
2026-01-29 09:39:40.90	154.89	17.65	-42.3	-43.2	21.6	0.00e+00	0	42	0	156237824	56	3920
2026-01-29 09:39:41.91	154.90	17.77	-42.4	-43.2	21.5	0.00e+00	0	42	0	159383552	56	3939
2026-01-29 09:39:42.92	154.91	17.89	-42.3	-43.2	21.6	0.00e+00	0	42	0	162529280	56	3928
2026-01-29 09:39:43.93	154.92	18.01	-42.3	-43.2	21.6	0.00e+00	0	42	0	165675008	56	3934
2026-01-29 09:39:44.93	154.93	18.14	-42.4	-43.3	21.5	0.00e+00	0	42	0	168820736	56	3976
2026-01-29 09:39:45.94	154.94	18.26	-42.5	-43.4	21.4	0.00e+00	0	42	0	170917888	56	4014
2026-01-29 09:39:46.94	154.95	18.38	-42.5	-43.4	21.4	0.00e+00	0	42	0	174063616	56	4014
2026-01-29 09:39:47.95	154.95	18.50	-42.4	-43.3	21.5	0.00e+00	0	42	0	177209344	56	3978
2026-01-29 09:39:48.97	154.96	18.63	-42.5	-43.4	21.4	0.00e+00	0	42	0	180355072	56	4017
2026-01-29 09:39:49.98	154.97	18.76	-42.6	-43.4	21.4	0.00e+00	0	42	0	184549376	56	4041
2026-01-29 09:39:50.99	154.98	18.88	-42.5	-43.4	21.4	0.00e+00	0	42	0	187695104	56	4037
2026-01-29 09:39:51.99	154.99	19.01	-42.4	-43.3	21.5	0.00e+00	0	42	0	190840832	56	3985
2026-01-29 09:39:53.00	155.00	19.14	-42.4	-43.3	21.5	0.00e+00	0	42	0	193986560	56	3970
2026-01-29 09:39:54.01	155.01	19.26	-42.4	-43.3	21.5	0.00e+00	0	42	0	197132288	56	3972
2026-01-29 09:39:55.02	155.02	19.39	-42.4	-43.2	21.5	0.00e+00	0	42	0	200278016	56	3952
2026-01-29 09:39:56.03	155.03	19.52	-42.5	-43.4	21.4	0.00e+00	0	42	0	203423744	56	4011
2026-01-29 09:39:57.04	155.04	19.65	-42.4	-43.2	21.6	0.00e+00	0	42	0	206569472	56	3956
2026-01-29 09:39:58.05	155.05	19.78	-42.3	-43.2	21.7	0.00e+00	0	42	0	209715200	56	3915
2026-01-29 09:39:59.06	155.05	19.91	-42.2	-43.1	21.7	0.00e+00	0	42	0	212860928	56	3874
2026-01-29 09:40:00.07	155.06	20.05	-42.1	-43.0	21.8	0.00e+00	0	42	0	216006656	56	3827
2026-01-29 09:40:01.08	155.07	20.18	-42.1	-42.9	21.9	0.00e+00	0	42	0	219152384	56	3816
2026-01-29 09:40:02.09	155.08	20.31	-42.2	-43.1	21.7	0.00e+00	0	42	0	222298112	56	3870
2026-01-29 09:40:03.09	155.09	20.45	-42.0	-42.8	21.9	0.00e+00	0	42	0	225443840	56	3776
2026-01-29 09:40:04.10	155.10	20.58	-42.0	-42.8	21.9	0.00e+00	0	42	0	228589568	55	3971
2026-01-29 09:40:05.11	155.11	20.72	-41.8	-42.6	22.0	0.00e+00	0	42	0	231735296	55	3903
2026-01-29 09:40:06.12	155.12	20.85	-41.8	-42.6	22.1	0.00e+00	0	42	0	234881024	55	3890
2026-01-29 09:40:07.12	155.13	20.99	-41.8	-42.6	22.1	0.00e+00	0	42	0	238026752	55	3879
2026-01-29 09:40:08.13	155.14	21.13	-41.8	-42.6	22.1	0.00e+00	0	42	0	241172480	55	3909
2026-01-29 09:40:09.14	155.15	21.26	-41.7	-42.5	22.1	0.00e+00	0	42	0	244318208	55	3861
2026-01-29 09:40:10.15	155.16	21.40	-41.7	-42.6	22.1	0.00e+00	0	42	0	247463936	55	3870
2026-01-29 09:40:11.15	155.17	21.54	-41.4	-42.2	22.3	0.00e+00	0	42	0	250609664	54	3945
2026-01-29 09:40:12.16	155.18	21.68	-41.4	-42.2	22.4	0.00e+00	0	42	0	253755392	54	3920
2026-01-29 09:40:13.17	155.19	21.83	-41.2	-42.0	22.6	0.00e+00	0	42	0	256901120	54	3840
2026-01-29 09:40:14.18	155.20	21.97	-41.1	-41.9	22.6	0.00e+00	0	42	0	260046848	54	3810
2026-01-29 09:40:15.19	155.21	22.11	-41.2	-41.9	22.6	0.00e+00	0	42	0	263192576	54	3810
2026-01-29 09:40:16.19	155.22	22.25	-41.1	-41.8	22.7	0.00e+00	0	42	0	266338304	54	3761
2026-01-29 09:40:17.20	155.23	22.40	-40.9	-41.7	22.8	0.00e+00	0	42	0	269484032	53	3916
2026-01-29 09:40:18.21	155.24	22.55	-40.9	-41.6	22.8	0.00e+00	0	42	0	272629760	53	3905
2026-01-29 09:40:19.22	155.25	22.69	-40.8	-41.5	22.9	0.00e+00	0	42	0	275775488	53	3851
2026-01-29 09:40:20.22	155.26	22.84	-40.8	-41.5	22.9	0.00e+00	0	42	0	278921216	53	3864
2026-01-29 09:40:21.23	155.27	22.99	-40.7	-41.5	23.0	0.00e+00	0	42	0	282066944	53	3836
2026-01-29 09:40:22.24	155.28	23.14	-40.8	-41.5	22.9	0.00e+00	0	42	0	285212672	53	3858
2026-01-29 09:40:23.24	155.29	23.28	-40.8	-41.5	22.9	0.00e+00	0	42	0	288358400	53	3856
2026-01-29 09:40:24.25	155.30	23.44	-40.7	-41.5	23.0	0.00e+00	0	42	0	291504128	53	3825
2026-01-29 09:40:25.26	155.32	23.59	-40.7	-41.4	23.0	0.00e+00	0	42	0	294649856	53	3817
2026-01-29 09:40:26.27	155.33	23.74	-40.7	-41.4	23.0	0.00e+00	0	42	0	297795584	53	3797
2026-01-29 09:40:27.27	155.34	23.89	-40.7	-41.5	23.0	0.00e+00	0	42	0	300941312	53	3832
2026-01-29 09:40:28.28	155.35	24.05	-40.7	-41.4	23.0	0.00e+00	0	42	0	304087040	53	3806
2026-01-29 09:40:29.29	155.36	24.20	-40.5	-41.3	23.1	0.00e+00	0	42	0	307232768	53	3741
2026-01-29 09:40:30.29	155.37	24.36	-40.6	-41.3	23.1	0.00e+00	0	42	0	310378496	53	3757
2026-01-29 09:40:31.30	155.38	24.51	-40.7	-41.4	23.0	0.00e+00	0	42	0	313524224	53	3807
2026-01-29 09:40:32.31	155.39	24.67	-40.7	-41.4	23.0	0.00e+00	0	42	0	316669952	53	3816
2026-01-29 09:40:33.32	155.40	24.83	-40.7	-41.4	23.1	0.00e+00	0	42	0	319815680	53	3801
2026-01-29 09:40:34.33	155.42	24.99	-40.7	-41.4	23.0	0.00e+00	0	42	0	322961408	53	3818
2026-01-29 09:40:35.33	155.43	25.15	-40.6	-41.4	23.1	0.00e+00	0	42	0	326107136	53	3783
2026-01-29 09:40:36.34	155.44	25.31	-40.8	-41.6	22.9	0.00e+00	0	42	0	329252864	53	3876
2026-01-29 09:40:37.35	155.45	25.48	-40.7	-41.5	23.0	0.00e+00	0	42	0	332398592	53	3840
2026-01-29 09:40:38.36	155.46	25.64	-40.9	-41.7	22.9	0.00e+00	0	42	0	335544320	53	3916
2026-01-29 09:40:39.37	155.47	25.81	-40.9	-41.7	22.9	0.00e+00	0	42	0	338690048	53	3926
2026-01-29 09:40:40.37	155.49	25.97	-41.0	-41.8	22.7	0.00e+00	0	42	0	341835776	53	3979
2026-01-29 09:40:41.38	155.50	26.14	-41.1	-41.9	22.7	0.00e+00	0	42	0	344981504	53	4014
2026-01-29 09:40:42.39	155.51	26.31	-41.2	-42.0	22.6	0.00e+00	0	42	0	348127232	53	4075
2026-01-29 09:40:43.39	155.52	26.47	-41.3	-42.0	22.5	0.00e+00	0	42	0	351272960	53	4096
2026-01-29 09:40:44.40	155.53	26.64	-41.5	-42.3	22.3	0.00e+00	0	42	0	354418688	53	4227
2026-01-29 09:40:45.41	155.55	26.82	-41.5	-42.3	22.3	0.00e+00	0	42	0	357564416	53	4233
2026-01-29 09:40:46.42	155.56	26.99	-41.7	-42.5	22.1	0.00e+00	0	42	0	360710144	53	4319
2026-01-29 09:40:47.43	155.57	27.16	-41.7	-42.5	22.1	0.00e+00	0	42	0	363855872	53	4316
2026-01-29 09:40:48.43	155.58	27.34	-41.7	-42.5	22.1	0.00e+00	0	42	0	367001600	54	4082
2026-01-29 09:40:49.44	155.60	27.51	-41.8	-42.6	22.0	0.00e+00	0	42	0	370147328	54	4128
2026-01-29 09:40:50.45	155.61	27.69	-41.9	-42.7	22.0	0.00e+00	0	42	0	373293056	54	4178
2026-01-29 09:40:51.46	155.62	27.87	-42.0	-42.8	21.9	0.00e+00	0	42	0	376438784	54	4237
2026-01-29 09:40:52.46	155.64	28.04	-42.2	-43.0	21.8	0.00e+00	0	42	0	379584512	54	4327
2026-01-29 09:40:53.47	155.65	28.22	-42.2	-43.1	21.7	0.00e+00	0	42	0	382730240	55	4099
2026-01-29 09:40:54.48	155.66	28.41	-42.2	-43.1	21.8	0.00e+00	0	42	0	385875968	55	4102
2026-01-29 09:40:55.49	155.68	28.59	-42.2	-43.1	21.7	0.00e+00	0	42	0	389021696	55	4109
2026-01-29 09:40:56.49	155.69	28.77	-42.3	-43.1	21.7	0.00e+00	0	42	0	392167424	55	4137
2026-01-29 09:40:57.50	155.70	28.96	-42.4	-43.2	21.6	0.00e+00	0	42	0	395313152	55	4181
2026-01-29 09:40:58.51	155.72	29.14	-42.5	-43.3	21.6	0.00e+00	0	42	0	398458880	55	4225
2026-01-29 09:40:59.52	155.73	29.33	-42.3	-43.1	21.7	0.00e+00	0	42	0	401604608	55	4143
2026-01-29 09:41:00.53	155.75	29.52	-42.4	-43.3	21.6	0.00e+00	0	42	0	404750336	55	4203
2026-01-29 09:41:01.53	155.76	29.71	-42.2	-43.1	21.8	0.00e+00	0	42	0	407896064	55	4101
2026-01-29 09:41:02.54	155.77	29.90	-42.2	-43.1	21.8	0.00e+00	0	42	0	411041792	55	4101
2026-01-29 09:41:03.55	155.79	30.09	-42.1	-42.9	21.9	0.00e+00	0	42	0	414187520	55	4042
2026-01-29 09:41:04.56	155.80	30.29	-42.0	-42.8	22.0	0.00e+00	0	42	0	417333248	55	3975
2026-01-29 09:41:05.56	155.82	30.48	-42.0	-42.8	22.0	0.00e+00	0	42	0	420478976	55	3999
2026-01-29 09:41:06.57	155.83	30.68	-41.9	-42.7	22.1	0.00e+00	0	42	0	423624704	55	3948
2026-01-29 09:41:07.58	155.85	30.87	-42.0	-42.8	22.1	0.00e+00	0	42	0	426770432	55	3972
2026-01-29 09:41:08.59	155.86	31.07	-41.8	-42.6	22.2	0.00e+00	0	42	0	429916160	55	3879
2026-01-29 09:41:09.60	155.88	31.27	-41.5	-42.3	22.5	0.00e+00	0	42	0	433061888	55	3742
2026-01-29 09:41:10.61	155.89	31.48	-41.6	-42.3	22.5	0.00e+00	0	42	0	436207616	55	3779
2026-01-29 09:41:11.61	155.91	31.68	-41.5	-42.3	22.5	0.00e+00	0	42	0	439353344	55	3747
2026-01-29 09:41:12.62	155.92	31.88	-41.3	-42.1	22.7	0.00e+00	0	42	0	442499072	54	3883
2026-01-29 09:41:13.63	155.94	32.09	-41.2	-42.0	22.7	0.00e+00	0	42	0	445644800	54	3844
2026-01-29 09:41:14.63	155.95	32.30	-41.3	-42.0	22.7	0.00e+00	0	42	0	448790528	54	3852
2026-01-29 09:41:15.64	155.97	32.51	-41.4	-42.1	22.6	0.00e+00	0	42	0	451936256	54	3899
2026-01-29 09:41:16.65	155.99	32.72	-41.5	-42.3	22.5	0.00e+00	0	42	0	455081984	54	3983
2026-01-29 09:41:17.65	156.00	32.93	-41.6	-42.3	22.4	0.00e+00	0	42	0	458227712	54	3995
2026-01-29 09:41:18.66	156.02	33.14	-41.6	-42.4	22.4	0.00e+00	0	42	0	461373440	54	4010
2026-01-29 09:41:19.67	156.04	33.35	-41.7	-42.5	22.3	0.00e+00	0	42	0	464519168	54	4086
2026-01-29 09:41:20.67	156.05	33.57	-41.8	-42.6	22.2	0.00e+00	0	42	0	467664896	54	4117
2026-01-29 09:41:21.68	156.07	33.79	-42.1	-42.9	22.0	0.00e+00	0	42	0	470810624	54	4250
2026-01-29 09:41:22.69	156.09	34.01	-42.3	-43.1	21.8	0.00e+00	0	42	0	473956352	55	4114
2026-01-29 09:41:23.70	156.11	34.23	-42.4	-43.2	21.7	0.00e+00	0	42	0	477102080	55	4189
2026-01-29 09:41:24.71	156.12	34.45	-42.6	-43.4	21.5	0.00e+00	0	42	0	480247808	55	4287
2026-01-29 09:41:25.71	156.14	34.67	-42.6	-43.4	21.5	0.00e+00	0	42	0	483393536	55	4270
2026-01-29 09:41:26.72	156.16	34.90	-42.8	-43.7	21.3	0.00e+00	0	42	0	486539264	56	4181
2026-01-29 09:41:27.73	156.18	35.13	-43.0	-43.9	21.1	0.00e+00	0	42	0	489684992	56	4264
2026-01-29 09:41:28.73	156.20	35.36	-43.0	-43.9	21.1	0.00e+00	0	42	0	492830720	56	4287
2026-01-29 09:41:29.74	156.21	35.59	-43.2	-44.1	21.0	0.00e+00	0	42	0	495976448	56	4367
2026-01-29 09:41:30.75	156.23	35.82	-43.4	-44.3	20.8	0.00e+00	0	42	0	499122176	57	4221
2026-01-29 09:41:31.75	156.25	36.05	-43.6	-44.5	20.7	0.00e+00	0	42	0	502267904	57	4340
2026-01-29 09:41:32.76	156.27	36.29	-43.9	-44.9	20.4	0.00e+00	0	42	0	505413632	58	4248
2026-01-29 09:41:33.77	156.29	36.53	-44.0	-45.0	20.2	0.00e+00	0	42	0	508559360	58	4323
2026-01-29 09:41:34.78	156.31	36.77	-44.2	-45.3	20.1	0.00e+00	0	42	0	511705088	59	4195
2026-01-29 09:41:35.79	156.33	37.01	-44.5	-45.5	19.8	0.00e+00	0	42	0	514850816	59	4326
2026-01-29 09:41:36.79	156.35	37.25	-44.4	-45.4	19.9	0.00e+00	0	42	0	517996544	59	4280
2026-01-29 09:41:37.80	156.37	37.49	-44.4	-45.4	19.9	0.00e+00	0	42	0	521142272	59	4259
2026-01-29 09:41:38.81	156.39	37.74	-44.5	-45.5	19.8	0.00e+00	0	42	0	524288000	59	4330
2026-01-29 09:41:39.81	156.41	37.99	-44.4	-45.4	19.9	0.00e+00	0	42	0	527433728	59	4286
2026-01-29 09:41:40.82	156.43	38.24	-44.4	-45.5	19.9	0.00e+00	0	42	0	530579456	59	4311
2026-01-29 09:41:41.83	156.45	38.49	-44.1	-45.2	20.2	0.00e+00	0	42	0	533725184	59	4148
2026-01-29 09:41:42.84	156.48	38.74	-43.8	-44.8	20.5	0.00e+00	0	42	0	536870912	59	3977
2026-01-29 09:41:43.85	156.50	39.00	-43.8	-44.8	20.5	0.00e+00	0	42	0	540016640	59	3967
2026-01-29 09:41:44.85	156.52	39.26	-43.7	-44.7	20.6	0.00e+00	0	42	0	543162368	59	3927
2026-01-29 09:41:45.86	156.54	39.52	-43.7	-44.6	20.7	0.00e+00	0	42	0	546308096	59	3898
2026-01-29 09:41:46.87	156.57	39.78	-43.5	-44.4	20.8	0.00e+00	0	42	0	549453824	59	3812
2026-01-29 09:41:47.88	156.59	40.04	-43.4	-44.3	20.9	0.00e+00	0	42	0	552599552	58	3991
2026-01-29 09:41:48.89	156.61	40.31	-43.3	-44.2	21.0	0.00e+00	0	42	0	555745280	58	3934
2026-01-29 09:41:49.90	156.64	40.57	-43.4	-44.3	20.9	0.00e+00	0	42	0	558891008	58	3989
2026-01-29 09:41:50.90	156.66	40.84	-43.3	-44.2	20.9	0.00e+00	0	42	0	562036736	58	3932
2026-01-29 09:41:51.91	156.69	41.11	-43.4	-44.3	20.9	0.00e+00	0	42	0	565182464	58	3965
2026-01-29 09:41:52.92	156.71	41.39	-43.3	-44.3	20.8	0.00e+00	0	42	0	568328192	58	3959
2026-01-29 09:41:53.92	156.74	41.66	-43.2	-44.1	20.9	0.00e+00	0	42	0	571473920	58	3896
2026-01-29 09:41:54.93	156.76	41.94	-43.4	-44.4	20.8	0.00e+00	0	42	0	574619648	58	4005
2026-01-29 09:41:55.94	156.79	42.22	-43.6	-44.5	20.7	0.00e+00	0	42	0	577765376	58	4083
2026-01-29 09:41:56.95	156.81	42.50	-44.0	-45.0	20.2	0.00e+00	0	42	0	580911104	58	4316
2026-01-29 09:41:57.96	156.84	42.79	-44.2	-45.2	20.1	0.00e+00	0	42	0	584056832	58	4423
2026-01-29 09:41:58.97	156.87	43.07	-44.6	-45.7	19.6	0.00e+00	0	42	0	587202560	59	4399
2026-01-29 09:41:59.97	156.90	43.36	-44.5	-45.6	19.4	0.00e+00	0	42	0	590348288	60	4126
2026-01-29 09:42:00.98	156.92	43.65	-44.8	-45.9	19.1	0.00e+00	0	42	0	593494016	60	4288
2026-01-29 09:42:01.99	156.95	43.94	-44.8	-46.0	19.1	0.00e+00	0	42	0	596639744	60	4296
2026-01-29 09:42:03.00	156.98	44.24	-44.9	-46.1	19.0	0.00e+00	0	42	0	599785472	60	4371
2026-01-29 09:42:04.01	157.01	44.54	-44.8	-45.9	19.2	0.00e+00	0	42	0	602931200	60	4282
2026-01-29 09:42:05.02	157.04	44.84	-44.4	-45.5	19.6	0.00e+00	0	42	0	606076928	60	4071
2026-01-29 09:42:06.03	157.07	45.14	-44.1	-45.1	19.9	0.00e+00	0	42	0	609222656	60	3889
2026-01-29 09:42:07.04	157.10	45.44	-44.2	-45.1	20.1	0.00e+00	0	42	0	612368384	59	4141
2026-01-29 09:42:08.05	157.13	45.75	-44.1	-45.1	20.2	0.00e+00	0	42	0	615514112	59	4129
2026-01-29 09:42:09.05	157.17	46.06	-44.2	-45.2	20.0	0.00e+00	0	42	0	618659840	59	4190
2026-01-29 09:42:10.06	157.20	46.37	-44.3	-45.3	19.8	0.00e+00	0	42	0	621805568	59	4236
2026-01-29 09:42:11.07	157.23	46.68	-44.6	-45.6	19.5	0.00e+00	0	42	0	624951296	59	4364
2026-01-29 09:42:12.08	157.27	47.00	-44.4	-45.4	19.4	0.00e+00	0	42	0	628097024	60	4025
2026-01-29 09:42:13.09	157.30	47.32	-44.4	-45.4	19.4	0.00e+00	0	42	0	631242752	60	4038
2026-01-29 09:42:14.10	157.34	47.64	-44.2	-45.2	19.5	0.00e+00	0	42	0	634388480	60	3942
2026-01-29 09:42:15.11	157.37	47.96	-44.0	-45.0	19.8	0.00e+00	0	42	0	637534208	60	3842
2026-01-29 09:42:16.12	157.41	48.29	-44.2	-45.2	19.9	0.00e+00	0	42	0	640679936	59	4180
2026-01-29 09:42:17.12	157.44	48.61	-44.0	-45.0	20.1	0.00e+00	0	42	0	643825664	59	4081
2026-01-29 09:42:18.13	157.48	48.94	-43.7	-44.6	20.6	0.00e+00	0	42	0	646971392	59	3905
2026-01-29 09:42:19.14	157.52	49.28	-43.3	-44.3	20.9	0.00e+00	0	42	0	650117120	58	3964
2026-01-29 09:42:20.15	157.56	49.61	-43.3	-44.2	20.9	0.00e+00	0	42	0	653262848	58	3954
2026-01-29 09:42:21.16	157.60	49.95	-42.9	-43.8	21.3	0.00e+00	0	42	0	656408576	57	3983
2026-01-29 09:42:22.17	157.64	50.29	-42.9	-43.7	21.4	0.00e+00	0	42	0	659554304	57	3948
2026-01-29 09:42:23.18	157.68	50.63	-42.8	-43.6	21.5	0.00e+00	0	42	0	662700032	57	3913
2026-01-29 09:42:24.18	157.72	50.98	-42.8	-43.6	21.5	0.00e+00	0	42	0	665845760	57	3910
2026-01-29 09:42:25.19	157.77	51.32	-42.8	-43.7	21.4	0.00e+00	0	42	0	668991488	57	3932
2026-01-29 09:42:26.20	157.81	51.68	-42.8	-43.7	21.3	0.00e+00	0	42	0	672137216	57	3919
2026-01-29 09:42:27.21	157.86	52.03	-42.9	-43.7	21.4	0.00e+00	0	42	0	675282944	57	3949
2026-01-29 09:42:28.22	157.90	52.39	-42.8	-43.6	21.5	0.00e+00	0	42	0	678428672	57	3887
2026-01-29 09:42:29.23	157.95	52.74	-42.9	-43.7	21.4	0.00e+00	0	42	0	681574400	57	3942
2026-01-29 09:42:30.24	158.00	53.11	-42.7	-43.5	21.6	0.00e+00	0	42	0	684720128	57	3860
2026-01-29 09:42:31.24	158.05	53.47	-42.6	-43.5	21.7	0.00e+00	0	42	0	687865856	57	3825
2026-01-29 09:42:32.25	158.10	53.83	-42.7	-43.6	21.5	0.00e+00	0	42	0	691011584	57	3881
2026-01-29 09:42:33.26	158.15	54.20	-42.8	-43.6	21.5	0.00e+00	0	42	0	694157312	57	3913
2026-01-29 09:42:34.27	158.21	54.57	-42.7	-43.5	21.6	0.00e+00	0	42	0	697303040	57	3862
2026-01-29 09:42:35.28	158.26	54.95	-42.8	-43.7	21.5	0.00e+00	0	42	0	700448768	57	3936
2026-01-29 09:42:36.29	158.32	55.32	-42.6	-43.4	21.7	0.00e+00	0	42	0	703594496	57	3811
2026-01-29 09:42:37.30	158.37	55.70	-42.3	-43.2	21.9	0.00e+00	0	42	0	706740224	56	3929
2026-01-29 09:42:38.31	158.43	56.09	-42.1	-42.9	22.1	0.00e+00	0	42	0	709885952	56	3821
2026-01-29 09:42:39.32	158.49	56.47	-42.1	-42.9	22.1	0.00e+00	0	42	0	713031680	56	3809
2026-01-29 09:42:40.32	158.55	56.85	-42.1	-42.9	22.2	0.00e+00	0	42	0	716177408	56	3803
2026-01-29 09:42:41.33	158.62	57.24	-42.1	-43.0	22.1	0.00e+00	0	42	0	719323136	56	3830
2026-01-29 09:42:42.34	158.68	57.64	-42.2	-43.0	22.1	0.00e+00	0	42	0	722468864	56	3848
2026-01-29 09:42:43.35	158.75	58.03	-41.8	-42.6	22.3	0.00e+00	0	42	0	725614592	55	3898
2026-01-29 09:42:44.36	158.82	58.43	-41.9	-42.7	22.2	0.00e+00	0	42	0	728760320	55	3920
2026-01-29 09:42:45.37	158.89	58.83	-41.8	-42.6	22.4	0.00e+00	0	42	0	731906048	55	3883
2026-01-29 09:42:46.38	158.96	59.24	-41.6	-42.4	22.4	0.00e+00	0	42	0	735051776	55	3824
2026-01-29 09:42:47.39	159.04	59.64	-41.7	-42.5	22.4	0.00e+00	0	42	0	738197504	55	3835
2026-01-29 09:42:48.40	159.12	60.05	-41.6	-42.4	22.5	0.00e+00	0	42	0	741343232	55	3797
2026-01-29 09:42:49.41	159.20	60.46	-41.6	-42.4	22.5	0.00e+00	0	42	0	744488960	55	3805
2026-01-29 09:42:50.41	159.28	60.87	-41.3	-42.1	22.8	0.00e+00	0	42	0	747634688	54	3882
2026-01-29 09:42:51.42	159.36	61.29	-41.2	-42.0	22.8	0.00e+00	0	42	0	750780416	54	3851
2026-01-29 09:42:52.43	159.45	61.71	-41.2	-42.0	22.9	0.00e+00	0	42	0	753926144	54	3840
2026-01-29 09:42:53.44	159.54	62.13	-41.3	-42.1	22.8	0.00e+00	0	42	0	757071872	54	3873
2026-01-29 09:42:54.44	159.64	62.55	-40.9	-41.6	23.2	0.00e+00	0	42	0	760217600	53	3913
2026-01-29 09:42:55.45	159.73	62.97	-40.8	-41.6	23.2	0.00e+00	0	42	0	763363328	53	3890
2026-01-29 09:42:56.46	159.83	63.40	-41.0	-41.7	23.1	0.00e+00	0	42	0	766509056	53	3952
2026-01-29 09:42:57.48	159.94	63.84	-40.7	-41.4	23.3	0.00e+00	0	42	0	770703360	53	3810
2026-01-29 09:42:58.48	160.04	64.27	-40.9	-41.6	23.1	0.00e+00	0	42	0	772800512	53	3908
2026-01-29 09:42:59.49	160.16	64.71	-40.8	-41.6	23.2	0.00e+00	0	42	0	775946240	53	3870
2026-01-29 09:43:00.50	160.27	65.15	-40.9	-41.7	22.9	0.00e+00	0	42	0	779091968	53	3935
2026-01-29 09:43:01.51	160.39	65.59	-40.7	-41.5	23.1	0.00e+00	0	42	0	782237696	53	3840
2026-01-29 09:43:02.52	160.52	66.03	-40.4	-41.2	23.5	0.00e+00	0	42	0	785383424	52	3928
2026-01-29 09:43:03.53	160.65	66.48	-40.4	-41.2	23.5	0.00e+00	0	42	0	788529152	52	3920
2026-01-29 09:43:04.54	160.78	66.93	-40.7	-41.4	23.4	0.00e+00	0	42	0	791674880	52	4046
2026-01-29 09:43:05.55	160.93	67.38	-41.0	-41.8	23.1	0.00e+00	0	42	0	794820608	52	4194
2026-01-29 09:43:06.56	161.07	67.83	-40.9	-41.6	23.2	0.00e+00	0	42	0	797966336	52	4133
2026-01-29 09:43:07.56	161.23	68.28	-40.7	-41.4	23.2	0.00e+00	0	42	0	801112064	52	4051
2026-01-29 09:43:08.57	161.39	68.74	-40.5	-41.2	23.4	0.00e+00	0	42	0	805306368	52	3937
2026-01-29 09:43:09.58	161.56	69.20	-40.5	-41.3	23.4	0.00e+00	0	42	0	808452096	52	3967
2026-01-29 09:43:10.59	161.73	69.66	-40.7	-41.4	23.3	0.00e+00	0	42	0	811597824	52	4027
2026-01-29 09:43:11.60	161.92	70.13	-40.5	-41.2	23.5	0.00e+00	0	42	0	814743552	52	3942
2026-01-29 09:43:12.61	162.11	70.59	-40.5	-41.3	23.4	0.00e+00	0	42	0	817889280	52	3959
2026-01-29 09:43:13.61	162.32	71.06	-40.5	-41.2	23.5	0.00e+00	0	42	0	819986432	52	3936
2026-01-29 09:43:14.62	162.53	71.53	-40.1	-40.8	23.9	0.00e+00	0	42	0	823132160	52	3738
2026-01-29 09:43:15.63	162.76	72.00	-40.0	-40.7	24.0	0.00e+00	0	42	0	826277888	51	3944
2026-01-29 09:43:16.64	163.00	72.47	-40.0	-40.7	23.9	0.00e+00	0	42	0	829423616	51	3945
2026-01-29 09:43:17.65	163.25	72.95	-40.1	-40.8	23.9	0.00e+00	0	42	0	832569344	51	3974
2026-01-29 09:43:18.66	163.52	73.42	-40.3	-41.0	23.8	0.00e+00	0	42	0	835715072	51	4067
2026-01-29 09:43:19.67	163.81	73.90	-40.1	-40.8	23.8	0.00e+00	0	42	0	838860800	51	3989
2026-01-29 09:43:20.68	164.11	74.38	-40.0	-40.6	24.1	0.00e+00	0	42	0	843055104	51	3902
2026-01-29 09:43:21.68	164.43	74.86	-40.1	-40.7	23.8	0.00e+00	0	42	0	846200832	51	3946
2026-01-29 09:43:22.69	164.77	75.34	-40.1	-40.7	23.7	0.00e+00	0	42	0	849346560	51	3956
2026-01-29 09:43:23.70	165.14	75.82	-40.1	-40.8	23.7	0.00e+00	0	42	0	852492288	51	3965
2026-01-29 09:43:24.71	165.54	76.31	-40.0	-40.7	24.0	0.00e+00	0	42	0	855638016	51	3921
2026-01-29 09:43:25.72	165.96	76.80	-40.3	-41.0	23.8	0.00e+00	0	42	0	858783744	51	4054
2026-01-29 09:43:26.73	166.42	77.28	-40.2	-40.9	23.8	0.00e+00	0	42	0	861929472	51	4021
2026-01-29 09:43:27.73	166.91	77.77	-40.4	-41.1	23.6	0.00e+00	0	42	0	865075200	51	4132
2026-01-29 09:43:28.74	167.45	78.25	-40.6	-41.4	23.3	0.00e+00	0	42	0	867172352	52	4010
2026-01-29 09:43:29.75	168.04	78.74	-40.9	-41.6	23.2	0.00e+00	0	42	0	870318080	52	4124
2026-01-29 09:43:30.76	168.68	79.23	-41.2	-42.0	23.0	0.00e+00	0	42	0	873463808	53	4068
2026-01-29 09:43:31.76	169.37	79.71	-41.2	-42.0	22.9	0.00e+00	0	42	0	876609536	53	4076
2026-01-29 09:43:32.77	170.14	80.20	-41.2	-41.9	22.7	0.00e+00	0	42	0	879755264	53	4050
2026-01-29 09:43:33.78	170.99	80.69	-40.9	-41.6	23.1	0.00e+00	0	42	0	883949568	53	3898
2026-01-29 09:43:34.79	171.94	81.18	-41.0	-41.7	23.1	0.00e+00	0	42	0	887095296	53	3952
2026-01-29 09:43:35.79	172.99	81.66	-41.2	-41.9	23.0	0.00e+00	0	42	0	890241024	53	4050
2026-01-29 09:43:36.80	174.17	82.14	-41.4	-42.2	22.7	0.00e+00	0	42	0	893386752	53	4178
2026-01-29 09:43:37.81	175.52	82.62	-41.2	-41.9	23.0	0.00e+00	0	42	0	896532480	53	4031
2026-01-29 09:43:38.82	177.05	83.09	-41.3	-42.1	22.8	0.00e+00	0	42	0	899678208	53	4104
2026-01-29 09:43:39.83	178.81	83.56	-41.4	-42.2	22.7	0.00e+00	0	42	0	902823936	53	4149
2026-01-29 09:43:40.84	180.84	84.03	-41.5	-42.3	22.6	0.00e+00	0	42	0	905969664	53	4226
2026-01-29 09:43:41.85	183.22	84.49	-41.4	-42.2	22.8	0.00e+00	0	42	0	909115392	53	4149
2026-01-29 09:43:42.85	185.99	84.93	-41.0	-41.8	22.9	0.00e+00	0	42	0	912261120	53	3978
2026-01-29 09:43:43.86	189.33	85.36	-40.7	-41.4	23.1	0.00e+00	0	42	0	915406848	53	3815
2026-01-29 09:43:44.87	193.33	85.77	-40.8	-41.5	23.2	0.00e+00	0	42	0	917504000	53	3839
2026-01-29 09:43:45.88	198.17	86.16	-41.0	-41.8	23.1	0.00e+00	0	42	0	921698304	53	3960
2026-01-29 09:43:46.88	203.99	86.52	-41.0	-41.7	23.1	0.00e+00	0	42	0	924844032	53	3951
2026-01-29 09:43:47.89	211.11	86.83	-41.1	-41.8	23.1	0.00e+00	0	42	0	927989760	53	3985
2026-01-29 09:43:48.89	219.54	87.08	-41.5	-42.2	22.7	0.00e+00	0	42	0	931135488	53	4190
2026-01-29 09:43:49.90	229.41	87.26	-41.7	-42.5	22.4	0.00e+00	0	42	0	934281216	53	4297
2026-01-29 09:43:50.91	240.29	87.35	-41.5	-42.2	22.8	0.00e+00	0	42	0	937426944	54	3957
2026-01-29 09:43:51.92	251.49	87.34	-41.1	-41.9	23.0	0.00e+00	0	42	0	940572672	54	3800
2026-01-29 09:43:52.93	262.19	87.23	-41.2	-42.0	23.0	0.00e+00	0	42	0	943718400	54	3834
2026-01-29 09:43:53.93	271.70	87.04	-41.3	-42.0	22.9	0.00e+00	0	42	0	946864128	54	3861
2026-01-29 09:43:54.94	279.91	86.77	-40.9	-41.6	23.0	0.00e+00	0	42	0	950009856	53	3900
2026-01-29 09:43:55.95	286.75	86.44	-40.7	-41.4	23.4	0.00e+00	0	42	0	953155584	53	3811
2026-01-29 09:43:56.96	292.38	86.08	-40.8	-41.6	23.4	0.00e+00	0	42	0	956301312	53	3869
2026-01-29 09:43:57.97	297.02	85.68	-40.8	-41.5	23.4	0.00e+00	0	42	0	959447040	53	3846
2026-01-29 09:43:58.97	300.82	85.27	-40.9	-41.6	23.3	0.00e+00	0	42	0	962592768	53	3891
2026-01-29 09:43:59.98	304.02	84.83	-40.8	-41.6	23.4	0.00e+00	0	42	0	965738496	53	3870
2026-01-29 09:44:00.99	306.72	84.39	-40.7	-41.4	23.2	0.00e+00	0	42	0	968884224	53	3802
2026-01-29 09:44:02.00	309.01	83.93	-40.6	-41.3	22.7	0.00e+00	0	42	0	972029952	53	3757
2026-01-29 09:44:03.01	310.98	83.46	-40.6	-41.3	23.1	0.00e+00	0	42	0	975175680	52	3997
2026-01-29 09:44:04.02	312.69	82.99	-40.8	-41.6	23.3	0.00e+00	0	42	0	978321408	52	4108
2026-01-29 09:44:05.03	314.17	82.51	-41.2	-42.0	23.0	0.00e+00	0	42	0	981467136	52	4294
2026-01-29 09:44:06.03	315.47	82.04	-41.4	-42.2	22.7	0.00e+00	0	42	0	984612864	53	4149
2026-01-29 09:44:07.04	316.63	81.55	-41.2	-41.9	22.8	0.00e+00	0	42	0	987758592	53	4050
2026-01-29 09:44:08.05	317.66	81.07	-40.9	-41.6	23.3	0.00e+00	0	42	0	990904320	53	3899
2026-01-29 09:44:09.06	318.58	80.58	-40.6	-41.3	23.5	0.00e+00	0	42	0	994050048	53	3774
2026-01-29 09:44:10.07	319.41	80.10	-40.5	-41.2	23.7	0.00e+00	0	42	0	997195776	53	3724
2026-01-29 09:44:11.07	320.16	79.61	-40.7	-41.4	23.6	0.00e+00	0	42	0	1000341504	53	3789
2026-01-29 09:44:12.08	320.85	79.13	-40.7	-41.4	23.4	0.00e+00	0	42	0	1003487232	53	3821
2026-01-29 09:44:13.09	321.47	78.64	-40.7	-41.4	23.1	0.00e+00	0	42	0	1006632960	53	3811
2026-01-29 09:44:14.09	322.04	78.15	-40.5	-41.2	23.5	0.00e+00	0	42	0	1009778688	53	3708
2026-01-29 09:44:15.11	322.57	77.66	-40.4	-41.1	23.7	0.00e+00	0	42	0	1012924416	52	3896
2026-01-29 09:44:16.11	323.06	77.18	-40.6	-41.3	23.5	0.00e+00	0	42	0	1016070144	52	3981
2026-01-29 09:44:17.12	323.51	76.69	-40.5	-41.2	23.7	0.00e+00	0	42	0	1019215872	52	3915
2026-01-29 09:44:18.13	323.93	76.21	-40.4	-41.2	23.7	0.00e+00	0	42	0	1022361600	52	3917
2026-01-29 09:44:19.14	324.32	75.72	-40.5	-41.2	23.7	0.00e+00	0	42	0	1025507328	52	3926
2026-01-29 09:44:20.14	324.68	75.25	-40.7	-41.4	23.4	0.00e+00	0	42	0	1028653056	52	4031
2026-01-29 09:44:21.15	325.02	74.76	-40.5	-41.2	23.3	0.00e+00	0	42	0	1031798784	52	3942
2026-01-29 09:44:22.16	325.33	74.28	-40.6	-41.4	23.4	0.00e+00	0	42	0	1034944512	52	4007
2026-01-29 09:44:23.17	325.63	73.80	-40.8	-41.6	23.4	0.00e+00	0	42	0	1038090240	52	4103
2026-01-29 09:44:24.18	325.91	73.33	-41.5	-42.3	22.8	0.00e+00	0	42	0	1041235968	53	4224
2026-01-29 09:44:25.19	326.18	72.85	-41.0	-41.7	23.3	0.00e+00	0	42	0	1044381696	53	3935
2026-01-29 09:44:26.19	326.43	72.38	-40.8	-41.6	23.3	0.00e+00	0	42	0	1047527424	53	3878
2026-01-29 09:44:27.20	326.67	71.91	-40.8	-41.5	23.4	0.00e+00	0	42	0	1050673152	53	3852
2026-01-29 09:44:28.20	326.89	71.44	-40.4	-41.1	23.7	0.00e+00	0	42	0	1053818880	52	3887
2026-01-29 09:44:29.20	327.10	70.98	-40.3	-41.0	23.9	0.00e+00	0	42	0	1056964608	52	3838
2026-01-29 09:44:30.21	327.30	70.51	-40.3	-41.0	23.8	0.00e+00	0	42	0	1060110336	52	3853
2026-01-29 09:44:31.22	327.49	70.05	-40.7	-41.4	23.5	0.00e+00	0	42	0	1063256064	52	4016
2026-01-29 09:44:32.23	327.68	69.58	-41.4	-42.1	23.0	0.00e+00	0	42	0	1066401792	53	4135
2026-01-29 09:44:33.24	327.85	69.12	-41.4	-42.2	22.8	0.00e+00	0	42	0	1069547520	53	4161
2026-01-29 09:44:34.24	328.02	68.67	-41.3	-42.1	22.9	0.00e+00	0	42	0	1072693248	53	4115
2026-01-29 09:44:35.25	328.18	68.21	-40.9	-41.6	23.2	0.00e+00	0	42	0	1075838976	53	3906
2026-01-29 09:44:36.26	328.33	67.76	-40.9	-41.6	23.3	0.00e+00	0	42	0	1078984704	53	3906
2026-01-29 09:44:37.27	328.48	67.30	-40.5	-41.3	23.6	0.00e+00	0	42	0	1082130432	53	3743
2026-01-29 09:44:38.27	328.62	66.86	-40.9	-41.6	23.4	0.00e+00	0	42	0	1085276160	52	4121
2026-01-29 09:44:39.28	328.75	66.41	-41.8	-42.6	22.5	0.00e+00	0	42	0	1088421888	54	4118
2026-01-29 09:44:40.29	328.88	65.97	-41.5	-42.3	22.7	0.00e+00	0	42	0	1091567616	54	3990
2026-01-29 09:44:41.30	329.01	65.52	-40.9	-41.6	23.4	0.00e+00	0	42	0	1094713344	53	3881
2026-01-29 09:44:42.31	329.13	65.08	-40.9	-41.6	23.3	0.00e+00	0	42	0	1097859072	53	3902
2026-01-29 09:44:43.31	329.24	64.65	-40.3	-41.0	23.8	0.00e+00	0	42	0	1101004800	52	3840
2026-01-29 09:44:44.32	329.35	64.21	-39.9	-40.6	24.1	0.00e+00	0	42	0	1104150528	51	3904
2026-01-29 09:44:45.33	329.46	63.78	-40.2	-40.9	23.9	0.00e+00	0	42	0	1107296256	51	4046
2026-01-29 09:44:46.34	329.56	63.35	-40.7	-41.4	23.4	0.00e+00	0	42	0	1110441984	52	4023
2026-01-29 09:44:47.34	329.66	62.93	-41.4	-42.2	22.9	0.00e+00	0	42	0	1113587712	53	4164
2026-01-29 09:44:48.35	329.76	62.50	-41.9	-42.7	22.5	0.00e+00	0	42	0	1116733440	54	4167
2026-01-29 09:44:49.36	329.85	62.08	-41.8	-42.6	22.0	0.00e+00	0	42	0	1119879168	54	4128
2026-01-29 09:44:50.37	329.94	61.66	-41.5	-42.3	21.9	0.00e+00	0	42	0	1123024896	54	3977
2026-01-29 09:44:51.38	330.03	61.24	-40.5	-41.2	23.1	0.00e+00	0	42	0	1126170624	52	3921
2026-01-29 09:44:52.39	330.11	60.83	-40.5	-41.2	23.4	0.00e+00	0	42	0	1129316352	52	3939
2026-01-29 09:44:53.39	330.19	60.42	-40.9	-41.6	23.2	0.00e+00	0	42	0	1132462080	52	4126
2026-01-29 09:44:54.40	330.27	60.01	-41.5	-42.3	22.7	0.00e+00	0	42	0	1135607808	53	4201
2026-01-29 09:44:55.41	330.35	59.60	-41.7	-42.5	22.3	0.00e+00	0	42	0	1138753536	54	4088
2026-01-29 09:44:56.41	330.43	59.20	-41.6	-42.4	22.5	0.00e+00	0	42	0	1141899264	54	4021
2026-01-29 09:44:57.42	330.50	58.80	-41.4	-42.1	22.9	0.00e+00	0	42	0	1145044992	54	3911
2026-01-29 09:44:58.42	330.57	58.40	-41.6	-42.4	22.3	0.00e+00	0	42	0	1148190720	54	4008
2026-01-29 09:44:59.43	330.64	58.00	-41.6	-42.3	22.6	0.00e+00	0	42	0	1151336448	54	4000
2026-01-29 09:45:00.44	330.70	57.61	-41.1	-41.9	23.0	0.00e+00	0	42	0	1154482176	54	3796
2026-01-29 09:45:01.44	330.77	57.22	-41.0	-41.7	23.2	0.00e+00	0	42	0	1157627904	53	3934
2026-01-29 09:45:02.45	330.83	56.83	-41.2	-41.9	23.0	0.00e+00	0	42	0	1160773632	53	4043
2026-01-29 09:45:03.46	330.89	56.45	-41.6	-42.4	22.3	0.00e+00	0	42	0	1163919360	53	4261
2026-01-29 09:45:04.47	330.95	56.06	-42.1	-42.9	21.8	0.00e+00	0	42	0	1167065088	54	4282
2026-01-29 09:45:05.47	331.01	55.69	-42.6	-43.4	21.5	0.00e+00	0	42	0	1170210816	55	4291
2026-01-29 09:45:06.48	331.07	55.31	-43.0	-43.8	21.5	0.00e+00	0	42	0	1173356544	56	4236
2026-01-29 09:45:07.49	331.13	54.93	-43.0	-43.9	21.3	0.00e+00	0	42	0	1176502272	56	4259
2026-01-29 09:45:08.49	331.18	54.56	-43.0	-43.8	21.2	0.00e+00	0	42	0	1179648000	56	4223
2026-01-29 09:45:09.50	331.23	54.19	-42.8	-43.7	21.3	0.00e+00	0	42	0	1182793728	56	4150
2026-01-29 09:45:10.51	331.29	53.82	-42.6	-43.4	21.5	0.00e+00	0	42	0	1185939456	56	4045
2026-01-29 09:45:11.51	331.34	53.46	-42.7	-43.5	21.4	0.00e+00	0	42	0	1189085184	56	4080
2026-01-29 09:45:12.52	331.39	53.10	-42.3	-43.1	21.9	0.00e+00	0	42	0	1192230912	56	3896
2026-01-29 09:45:13.53	331.43	52.74	-42.2	-43.0	22.1	0.00e+00	0	42	0	1195376640	56	3843
2026-01-29 09:45:14.53	331.48	52.39	-42.3	-43.1	22.1	0.00e+00	0	42	0	1198522368	56	3893
2026-01-29 09:45:15.54	331.53	52.03	-42.6	-43.5	21.8	0.00e+00	0	42	0	1201668096	56	4054
2026-01-29 09:45:16.54	331.57	51.68	-43.3	-44.1	21.3	0.00e+00	0	42	0	1204813824	57	4136
2026-01-29 09:45:17.55	331.62	51.33	-43.9	-44.9	20.5	0.00e+00	0	42	0	1207959552	58	4269
2026-01-29 09:45:18.56	331.66	50.99	-44.3	-45.3	20.0	0.00e+00	0	42	0	1211105280	59	4232
2026-01-29 09:45:19.57	331.70	50.64	-44.2	-45.2	20.1	0.00e+00	0	42	0	1214251008	59	4148
2026-01-29 09:45:20.57	331.74	50.30	-44.2	-45.1	20.3	0.00e+00	0	42	0	1217396736	59	4138
2026-01-29 09:45:21.58	331.79	49.96	-43.6	-44.6	20.8	0.00e+00	0	42	0	1220542464	59	3869
2026-01-29 09:45:22.58	331.83	49.63	-43.4	-44.3	21.1	0.00e+00	0	42	0	1223688192	58	3969
2026-01-29 09:45:23.59	331.86	49.29	-43.5	-44.4	21.0	0.00e+00	0	42	0	1226833920	58	4008
2026-01-29 09:45:24.60	331.90	48.96	-43.6	-44.5	20.9	0.00e+00	0	42	0	1229979648	58	4085
2026-01-29 09:45:25.60	331.94	48.64	-43.6	-44.5	20.7	0.00e+00	0	42	0	1233125376	58	4081
2026-01-29 09:45:26.61	331.98	48.31	-43.6	-44.6	20.7	0.00e+00	0	42	0	1236271104	58	4105
2026-01-29 09:45:27.62	332.01	47.98	-43.8	-44.7	20.6	0.00e+00	0	42	0	1239416832	58	4181
2026-01-29 09:45:28.62	332.05	47.66	-44.2	-45.2	20.3	0.00e+00	0	42	0	1242562560	58	4398
2026-01-29 09:45:29.63	332.09	47.34	-44.4	-45.5	19.7	0.00e+00	0	42	0	1245708288	59	4296
2026-01-29 09:45:30.64	332.12	47.03	-44.2	-45.2	19.8	0.00e+00	0	42	0	1248854016	59	4170
2026-01-29 09:45:31.65	332.15	46.71	-44.3	-45.3	20.1	0.00e+00	0	42	0	1251999744	59	4201
2026-01-29 09:45:32.66	332.19	46.40	-44.4	-45.4	20.1	0.00e+00	0	42	0	1255145472	59	4244
2026-01-29 09:45:33.67	332.22	46.09	-44.5	-45.5	19.7	0.00e+00	0	42	0	1258291200	59	4319
2026-01-29 09:45:34.68	332.25	45.78	-44.4	-45.4	19.6	0.00e+00	0	42	0	1261436928	59	4278
2026-01-29 09:45:35.69	332.28	45.47	-44.4	-45.4	19.6	0.00e+00	0	42	0	1264582656	59	4281
2026-01-29 09:45:36.69	332.31	45.17	-44.4	-45.4	19.5	0.00e+00	0	42	0	1267728384	60	4036
2026-01-29 09:45:37.70	332.35	44.87	-44.8	-45.9	19.2	0.00e+00	0	42	0	1270874112	60	4244
2026-01-29 09:45:38.71	332.38	44.57	-44.9	-46.0	19.1	0.00e+00	0	42	0	1274019840	60	4337
2026-01-29 09:45:39.72	332.41	44.28	-45.0	-46.1	19.1	0.00e+00	0	42	0	1277165568	60	4375
2026-01-29 09:45:40.73	332.43	43.98	-45.3	-46.4	18.8	0.00e+00	0	42	0	1280311296	61	4287
2026-01-29 09:45:41.73	332.46	43.69	-45.2	-46.4	18.8	0.00e+00	0	42	0	1283457024	61	4268
2026-01-29 09:45:42.74	332.49	43.40	-44.9	-45.9	19.2	0.00e+00	0	42	0	1286602752	61	4050
2026-01-29 09:45:43.75	332.52	43.11	-44.7	-45.8	19.3	0.00e+00	0	42	0	1289748480	61	3967
2026-01-29 09:45:44.76	332.55	42.83	-44.2	-45.2	19.8	0.00e+00	0	42	0	1292894208	60	3933
2026-01-29 09:45:45.77	332.57	42.55	-44.0	-45.0	20.3	0.00e+00	0	42	0	1296039936	59	4066
2026-01-29 09:45:46.78	332.60	42.26	-44.0	-44.9	20.4	0.00e+00	0	42	0	1299185664	59	4050
2026-01-29 09:45:47.79	332.63	41.98	-44.2	-45.1	20.2	0.00e+00	0	42	0	1302331392	59	4136
2026-01-29 09:45:48.80	332.65	41.71	-44.1	-45.1	20.0	0.00e+00	0	42	0	1305477120	59	4118
2026-01-29 09:45:49.81	332.68	41.43	-44.2	-45.1	20.0	0.00e+00	0	42	0	1308622848	59	4141
2026-01-29 09:45:50.82	332.70	41.16	-44.2	-45.1	20.0	0.00e+00	0	42	0	1311768576	59	4144
2026-01-29 09:45:51.82	332.73	40.89	-44.2	-45.1	20.3	0.00e+00	0	42	0	1314914304	59	4137
2026-01-29 09:45:52.83	332.75	40.62	-44.3	-45.3	20.1	0.00e+00	0	42	0	1318060032	59	4223
2026-01-29 09:45:53.84	332.78	40.35	-44.5	-45.5	19.9	0.00e+00	0	42	0	1321205760	59	4318
2026-01-29 09:45:54.84	332.80	40.09	-44.4	-45.5	19.9	0.00e+00	0	42	0	1324351488	59	4305
2026-01-29 09:45:55.85	332.82	39.83	-44.3	-45.2	20.1	0.00e+00	0	42	0	1327497216	59	4191
2026-01-29 09:45:56.86	332.85	39.57	-44.3	-45.3	20.0	0.00e+00	0	42	0	1330642944	59	4223
2026-01-29 09:45:57.87	332.87	39.31	-44.4	-45.5	19.9	0.00e+00	0	42	0	1333788672	59	4297
2026-01-29 09:45:58.88	332.89	39.05	-44.5	-45.5	19.9	0.00e+00	0	42	0	1336934400	59	4327
2026-01-29 09:45:59.89	332.91	38.80	-44.2	-45.2	20.2	0.00e+00	0	42	0	1340080128	59	4180
2026-01-29 09:46:00.89	332.94	38.55	-43.8	-44.8	20.6	0.00e+00	0	42	0	1343225856	59	3965
2026-01-29 09:46:01.90	332.96	38.29	-43.4	-44.2	21.1	0.00e+00	0	42	0	1346371584	58	3945
2026-01-29 09:46:02.91	332.98	38.04	-43.1	-43.9	21.3	0.00e+00	0	42	0	1349517312	58	3820
2026-01-29 09:46:03.92	333.00	37.80	-43.1	-44.0	21.2	0.00e+00	0	42	0	1352663040	58	3846
2026-01-29 09:46:04.93	333.02	37.55	-43.2	-44.1	21.1	0.00e+00	0	42	0	1355808768	58	3880
2026-01-29 09:46:05.93	333.04	37.31	-43.1	-43.9	21.2	0.00e+00	0	42	0	1358954496	58	3812
2026-01-29 09:46:06.94	333.06	37.07	-42.8	-43.7	21.4	0.00e+00	0	42	0	1362100224	57	3918
2026-01-29 09:46:07.95	333.08	36.82	-42.7	-43.6	21.5	0.00e+00	0	42	0	1365245952	57	3879
2026-01-29 09:46:08.96	333.10	36.59	-42.9	-43.7	21.4	0.00e+00	0	42	0	1368391680	57	3951
2026-01-29 09:46:09.97	333.12	36.35	-43.1	-44.0	21.2	0.00e+00	0	42	0	1371537408	57	4055
2026-01-29 09:46:10.98	333.14	36.11	-43.1	-44.0	21.2	0.00e+00	0	42	0	1374683136	57	4087
2026-01-29 09:46:11.99	333.16	35.88	-43.2	-44.1	21.1	0.00e+00	0	42	0	1377828864	57	4134
2026-01-29 09:46:12.99	333.18	35.65	-43.2	-44.1	21.2	0.00e+00	0	42	0	1380974592	57	4103
2026-01-29 09:46:14.00	333.20	35.42	-43.3	-44.2	21.1	0.00e+00	0	42	0	1384120320	57	4148
2026-01-29 09:46:15.01	333.22	35.19	-43.4	-44.3	21.0	0.00e+00	0	42	0	1387266048	57	4205
2026-01-29 09:46:16.02	333.24	34.96	-43.5	-44.4	20.9	0.00e+00	0	42	0	1390411776	57	4274
2026-01-29 09:46:17.03	333.25	34.74	-43.5	-44.5	20.8	0.00e+00	0	42	0	1393557504	57	4302
2026-01-29 09:46:18.03	333.27	34.52	-43.7	-44.6	20.7	0.00e+00	0	42	0	1396703232	58	4139
2026-01-29 09:46:19.04	333.29	34.29	-43.8	-44.7	20.6	0.00e+00	0	42	0	1399848960	58	4181
2026-01-29 09:46:20.05	333.31	34.07	-43.6	-44.6	20.7	0.00e+00	0	42	0	1402994688	58	4114
2026-01-29 09:46:21.06	333.33	33.85	-43.6	-44.5	20.7	0.00e+00	0	42	0	1406140416	58	4097
2026-01-29 09:46:22.07	333.34	33.64	-43.6	-44.5	20.8	0.00e+00	0	42	0	1409286144	58	4085
2026-01-29 09:46:23.07	333.36	33.42	-43.3	-44.3	21.0	0.00e+00	0	42	0	1412431872	58	3959
2026-01-29 09:46:24.08	333.38	33.21	-43.3	-44.2	21.0	0.00e+00	0	42	0	1415577600	58	3945
2026-01-29 09:46:25.09	333.39	32.99	-42.9	-43.7	21.4	0.00e+00	0	42	0	1418723328	57	3957
2026-01-29 09:46:26.10	333.41	32.78	-42.6	-43.5	21.7	0.00e+00	0	42	0	1421869056	57	3828
2026-01-29 09:46:27.11	333.43	32.57	-42.2	-43.0	22.0	0.00e+00	0	42	0	1425014784	56	3861
2026-01-29 09:46:28.12	333.44	32.36	-42.3	-43.1	22.0	0.00e+00	0	42	0	1428160512	56	3889
2026-01-29 09:46:29.12	333.46	32.16	-42.3	-43.1	22.0	0.00e+00	0	42	0	1431306240	56	3894
2026-01-29 09:46:30.13	333.48	31.95	-42.2	-43.0	22.1	0.00e+00	0	42	0	1434451968	56	3844
2026-01-29 09:46:31.14	333.49	31.75	-42.2	-43.0	22.0	0.00e+00	0	42	0	1437597696	56	3864
2026-01-29 09:46:32.15	333.51	31.55	-42.2	-43.1	22.0	0.00e+00	0	42	0	1440743424	56	3871
2026-01-29 09:46:33.16	333.52	31.34	-42.2	-43.1	22.0	0.00e+00	0	42	0	1443889152	56	3874
2026-01-29 09:46:34.17	333.54	31.14	-42.2	-43.1	22.0	0.00e+00	0	42	0	1447034880	56	3883
2026-01-29 09:46:35.17	333.55	30.95	-42.3	-43.2	21.9	0.00e+00	0	42	0	1450180608	56	3918
2026-01-29 09:46:36.18	333.57	30.75	-42.4	-43.3	21.8	0.00e+00	0	42	0	1453326336	56	3959
2026-01-29 09:46:37.19	333.58	30.55	-42.4	-43.2	21.8	0.00e+00	0	42	0	1456472064	56	3957
2026-01-29 09:46:38.20	333.60	30.36	-42.4	-43.2	21.8	0.00e+00	0	42	0	1459617792	56	3943
2026-01-29 09:46:39.20	333.61	30.17	-42.5	-43.3	21.7	0.00e+00	0	42	0	1462763520	56	3993
2026-01-29 09:46:40.21	333.63	29.98	-42.3	-43.2	21.9	0.00e+00	0	42	0	1465909248	56	3923
2026-01-29 09:46:41.22	333.64	29.78	-42.2	-43.1	22.0	0.00e+00	0	42	0	1469054976	56	3870
2026-01-29 09:46:42.23	333.66	29.60	-42.3	-43.1	21.9	0.00e+00	0	42	0	1472200704	56	3910
2026-01-29 09:46:43.24	333.67	29.41	-42.3	-43.2	21.8	0.00e+00	0	42	0	1475346432	56	3919
2026-01-29 09:46:44.25	333.69	29.22	-42.3	-43.2	21.8	0.00e+00	0	42	0	1478492160	56	3932
2026-01-29 09:46:45.26	333.70	29.03	-42.2	-43.1	21.8	0.00e+00	0	42	0	1481637888	56	3886
2026-01-29 09:46:46.26	333.71	28.85	-42.3	-43.2	21.7	0.00e+00	0	42	0	1484783616	56	3918
2026-01-29 09:46:47.27	333.73	28.67	-42.4	-43.3	21.6	0.00e+00	0	42	0	1487929344	56	3963
2026-01-29 09:46:48.28	333.74	28.49	-42.3	-43.2	21.6	0.00e+00	0	42	0	1491075072	56	3937
2026-01-29 09:46:49.29	333.75	28.30	-42.3	-43.2	21.7	0.00e+00	0	42	0	1494220800	56	3925
2026-01-29 09:46:50.29	333.77	28.13	-42.3	-43.1	21.8	0.00e+00	0	42	0	1497366528	56	3898
2026-01-29 09:46:51.30	333.78	27.95	-42.2	-43.0	21.8	0.00e+00	0	42	0	1500512256	56	3852
2026-01-29 09:46:52.31	333.79	27.77	-42.2	-43.1	21.8	0.00e+00	0	42	0	1503657984	56	3882
2026-01-29 09:46:53.31	333.81	27.59	-41.8	-42.6	22.1	0.00e+00	0	42	0	1506803712	55	3870
2026-01-29 09:46:54.32	333.82	27.42	-41.6	-42.4	22.3	0.00e+00	0	42	0	1509949440	55	3790
2026-01-29 09:46:55.33	333.83	27.25	-41.7	-42.5	22.3	0.00e+00	0	42	0	1513095168	55	3827
2026-01-29 09:46:56.34	333.85	27.07	-41.2	-42.0	22.6	0.00e+00	0	42	0	1516240896	54	3846
2026-01-29 09:46:57.35	333.86	26.90	-41.2	-42.0	22.6	0.00e+00	0	42	0	1519386624	54	3826
2026-01-29 09:46:58.36	333.87	26.73	-41.1	-41.8	22.7	0.00e+00	0	42	0	1522532352	54	3775
2026-01-29 09:46:59.36	333.89	26.56	-41.0	-41.8	22.8	0.00e+00	0	42	0	1525678080	54	3751
2026-01-29 09:47:00.37	333.90	26.39	-41.1	-41.8	22.7	0.00e+00	0	42	0	1528823808	54	3775
2026-01-29 09:47:01.38	333.91	26.22	-41.0	-41.8	22.8	0.00e+00	0	42	0	1531969536	54	3740
2026-01-29 09:47:02.39	333.92	26.06	-40.9	-41.7	22.9	0.00e+00	0	42	0	1535115264	53	3934
2026-01-29 09:47:03.39	333.93	25.89	-41.0	-41.8	22.8	0.00e+00	0	42	0	1538260992	53	3971
2026-01-29 09:47:04.40	333.95	25.73	-40.9	-41.6	23.0	0.00e+00	0	42	0	1541406720	53	3903
2026-01-29 09:47:05.41	333.96	25.57	-40.8	-41.6	22.9	0.00e+00	0	42	0	1544552448	53	3880
2026-01-29 09:47:06.42	333.97	25.40	-40.8	-41.5	23.0	0.00e+00	0	42	0	1547698176	53	3852
2026-01-29 09:47:07.43	333.98	25.24	-40.8	-41.6	22.9	0.00e+00	0	42	0	1550843904	53	3888
2026-01-29 09:47:08.44	334.00	25.08	-40.9	-41.6	22.9	0.00e+00	0	42	0	1553989632	53	3913
2026-01-29 09:47:09.45	334.01	24.92	-40.9	-41.7	22.9	0.00e+00	0	42	0	1557135360	53	3927
2026-01-29 09:47:10.45	334.02	24.76	-41.0	-41.7	22.8	0.00e+00	0	42	0	1560281088	53	3954
2026-01-29 09:47:11.46	334.03	24.61	-41.1	-41.8	22.7	0.00e+00	0	42	0	1563426816	53	3987
2026-01-29 09:47:12.47	334.04	24.45	-41.1	-41.8	22.8	0.00e+00	0	42	0	1566572544	53	3987
2026-01-29 09:47:13.48	334.05	24.29	-41.0	-41.8	22.8	0.00e+00	0	42	0	1569718272	53	3986
2026-01-29 09:47:14.49	334.07	24.14	-41.1	-41.9	22.7	0.00e+00	0	42	0	1572864000	53	4023
2026-01-29 09:47:15.50	334.08	23.98	-41.1	-41.8	22.7	0.00e+00	0	42	0	1576009728	53	3985
2026-01-29 09:47:16.51	334.09	23.83	-41.0	-41.7	22.8	0.00e+00	0	42	0	1579155456	53	3942
2026-01-29 09:47:17.52	334.10	23.68	-41.0	-41.7	22.8	0.00e+00	0	42	0	1582301184	53	3958
2026-01-29 09:47:18.53	334.11	23.53	-40.9	-41.6	22.9	0.00e+00	0	42	0	1585446912	53	3900
2026-01-29 09:47:19.54	334.12	23.38	-40.9	-41.6	22.9	0.00e+00	0	42	0	1588592640	53	3903
2026-01-29 09:47:20.55	334.13	23.23	-40.9	-41.6	22.9	0.00e+00	0	42	0	1591738368	53	3893
2026-01-29 09:47:21.56	334.14	23.08	-40.9	-41.6	22.9	0.00e+00	0	42	0	1594884096	53	3891
2026-01-29 09:47:22.57	334.15	22.93	-40.9	-41.6	22.9	0.00e+00	0	42	0	1598029824	53	3885
2026-01-29 09:47:23.57	334.17	22.78	-41.0	-41.7	22.8	0.00e+00	0	42	0	1602224128	53	3953
2026-01-29 09:47:24.58	334.18	22.64	-40.9	-41.6	22.9	0.00e+00	0	42	0	1605369856	53	3897
2026-01-29 09:47:25.59	334.19	22.49	-41.0	-41.7	22.8	0.00e+00	0	42	0	1608515584	53	3956
2026-01-29 09:47:26.59	334.20	22.35	-41.1	-41.8	22.7	0.00e+00	0	42	0	1610612736	53	4000
2026-01-29 09:47:27.60	334.21	22.21	-41.1	-41.9	22.7	0.00e+00	0	42	0	1613758464	53	4020
2026-01-29 09:47:28.61	334.22	22.06	-41.2	-41.9	22.6	0.00e+00	0	42	0	1616904192	53	4038
2026-01-29 09:47:29.62	334.23	21.92	-41.3	-42.0	22.6	0.00e+00	0	42	0	1620049920	53	4085
2026-01-29 09:47:30.63	334.24	21.78	-41.3	-42.1	22.5	0.00e+00	0	42	0	1623195648	53	4116
2026-01-29 09:47:31.64	334.25	21.64	-41.4	-42.1	22.4	0.00e+00	0	42	0	1626341376	53	4145
2026-01-29 09:47:32.65	334.26	21.50	-41.4	-42.1	22.4	0.00e+00	0	42	0	1629487104	53	4139
2026-01-29 09:47:33.66	334.27	21.36	-41.3	-42.1	22.5	0.00e+00	0	42	0	1632632832	53	4127
2026-01-29 09:47:34.67	334.28	21.22	-41.4	-42.2	22.4	0.00e+00	0	42	0	1635778560	53	4146
2026-01-29 09:47:35.68	334.29	21.08	-41.5	-42.3	22.3	0.00e+00	0	42	0	1639972864	53	4197
2026-01-29 09:47:36.69	334.30	20.95	-41.4	-42.2	22.3	0.00e+00	0	42	0	1643118592	53	4167
2026-01-29 09:47:37.70	334.31	20.81	-41.4	-42.2	22.4	0.00e+00	0	42	0	1646264320	53	4171
2026-01-29 09:47:38.71	334.32	20.68	-41.5	-42.3	22.3	0.00e+00	0	42	0	1649410048	53	4208
2026-01-29 09:47:39.72	334.33	20.54	-41.4	-42.2	22.4	0.00e+00	0	42	0	1652555776	53	4150
2026-01-29 09:47:40.73	334.34	20.41	-41.5	-42.3	22.2	0.00e+00	0	42	0	1655701504	53	4226
2026-01-29 09:47:41.74	334.35	20.27	-41.5	-42.3	22.2	0.00e+00	0	42	0	1657798656	53	4228
2026-01-29 09:47:42.74	334.36	20.14	-41.4	-42.2	22.3	0.00e+00	0	42	0	1660944384	53	4167
2026-01-29 09:47:43.75	334.37	20.01	-41.5	-42.3	22.2	0.00e+00	0	42	0	1664090112	53	4215
2026-01-29 09:47:44.76	334.38	19.88	-41.5	-42.3	22.2	0.00e+00	0	42	0	1667235840	53	4204
2026-01-29 09:47:45.77	334.39	19.75	-41.5	-42.3	22.2	0.00e+00	0	42	0	1671430144	53	4222
2026-01-29 09:47:46.78	334.40	19.62	-41.6	-42.4	22.1	0.00e+00	0	42	0	1674575872	54	4049
2026-01-29 09:47:47.79	334.41	19.49	-41.5	-42.3	22.2	0.00e+00	0	42	0	1677721600	54	3991
2026-01-29 09:47:48.80	334.42	19.36	-41.3	-42.1	22.4	0.00e+00	0	42	0	1680867328	54	3904
2026-01-29 09:47:49.81	334.43	19.23	-41.4	-42.1	22.4	0.00e+00	0	42	0	1684013056	54	3906
2026-01-29 09:47:50.82	334.44	19.11	-41.4	-42.1	22.3	0.00e+00	0	42	0	1687158784	54	3913
2026-01-29 09:47:51.83	334.45	18.98	-41.3	-42.1	22.4	0.00e+00	0	42	0	1690304512	54	3902
2026-01-29 09:47:52.84	334.46	18.86	-41.3	-42.1	22.4	0.00e+00	0	42	0	1693450240	54	3877
2026-01-29 09:47:53.85	334.47	18.73	-41.4	-42.2	22.3	0.00e+00	0	42	0	1696595968	54	3921
2026-01-29 09:47:54.86	334.48	18.61	-41.3	-42.1	22.3	0.00e+00	0	42	0	1699741696	54	3900
2026-01-29 09:47:55.87	334.48	18.48	-41.3	-42.1	22.3	0.00e+00	0	42	0	1702887424	54	3904
2026-01-29 09:47:56.87	334.49	18.36	-41.3	-42.1	22.3	0.00e+00	0	42	0	1704984576	54	3901
2026-01-29 09:47:57.88	334.50	18.24	-41.5	-42.3	22.2	0.00e+00	0	42	0	1709178880	54	3964
2026-01-29 09:47:58.89	334.51	18.12	-41.5	-42.3	22.2	0.00e+00	0	42	0	1712324608	54	3962
2026-01-29 09:47:59.90	334.52	17.99	-41.4	-42.2	22.1	0.00e+00	0	42	0	1715470336	54	3955
2026-01-29 09:48:00.91	334.53	17.87	-41.5	-42.3	22.1	0.00e+00	0	42	0	1718616064	54	4004
2026-01-29 09:48:01.92	334.54	17.75	-41.6	-42.4	22.0	0.00e+00	0	42	0	1721761792	54	4029
2026-01-29 09:48:02.93	334.55	17.63	-41.6	-42.5	22.0	0.00e+00	0	42	0	1724907520	54	4053
2026-01-29 09:48:03.94	334.56	17.51	-41.7	-42.5	21.9	0.00e+00	0	42	0	1728053248	54	4098
2026-01-29 09:48:04.95	334.57	17.40	-41.8	-42.6	21.8	0.00e+00	0	42	0	1731198976	54	4122
2026-01-29 09:48:05.96	334.58	17.28	-41.8	-42.6	21.8	0.00e+00	0	42	0	1734344704	54	4144
2026-01-29 09:48:06.97	334.58	17.16	-41.9	-42.8	21.7	0.00e+00	0	42	0	1737490432	54	4197
2026-01-29 09:48:07.98	334.59	17.04	-41.9	-42.8	21.7	0.00e+00	0	42	0	1740636160	54	4215
2026-01-29 09:48:08.98	334.60	16.93	-42.0	-42.8	21.6	0.00e+00	0	42	0	1743781888	54	4220
2026-01-29 09:48:09.99	334.61	16.81	-42.1	-42.9	21.5	0.00e+00	0	42	0	1746927616	54	4278
2026-01-29 09:48:11.00	334.62	16.70	-42.2	-43.1	21.5	0.00e+00	0	42	0	1750073344	55	4106
2026-01-29 09:48:12.01	334.63	16.58	-42.2	-43.0	21.5	0.00e+00	0	42	0	1753219072	55	4093
2026-01-29 09:48:13.02	334.64	16.47	-42.1	-42.9	21.6	7.00e-07	0	42	0	1756364800	55	4044
2026-01-29 09:48:14.03	334.65	16.36	-42.1	-42.9	21.5	0.00e+00	0	42	0	1759510528	55	4048
2026-01-29 09:48:15.04	334.65	16.24	-42.1	-43.0	21.5	0.00e+00	0	42	0	1762656256	55	4061
2026-01-29 09:48:16.05	334.66	16.13	-42.2	-43.0	21.4	0.00e+00	0	42	0	1765801984	55	4087
2026-01-29 09:48:17.05	334.67	16.02	-42.1	-42.9	21.5	0.00e+00	0	42	0	1768947712	55	4050
2026-01-29 09:48:18.05	334.68	15.91	-42.2	-43.1	21.5	0.00e+00	0	42	0	1772093440	55	4101
2026-01-29 09:48:19.06	334.69	15.80	-42.2	-43.1	21.4	0.00e+00	0	42	0	1775239168	55	4101
2026-01-29 09:48:20.07	334.70	15.69	-42.2	-43.1	21.4	0.00e+00	0	42	0	1778384896	55	4105
2026-01-29 09:48:21.08	334.70	15.58	-42.2	-43.0	21.4	0.00e+00	0	42	0	1781530624	55	4090
2026-01-29 09:48:22.09	334.71	15.47	-42.1	-43.0	21.4	0.00e+00	0	42	0	1784676352	55	4078
2026-01-29 09:48:23.10	334.72	15.36	-42.1	-43.0	21.4	0.00e+00	0	42	0	1787822080	55	4067
2026-01-29 09:48:24.11	334.73	15.25	-42.2	-43.0	21.4	0.00e+00	0	42	0	1790967808	55	4091
2026-01-29 09:48:25.12	334.74	15.14	-42.2	-43.0	21.4	0.00e+00	0	42	0	1794113536	55	4088
2026-01-29 09:48:26.13	334.75	15.03	-42.3	-43.1	21.3	0.00e+00	0	42	0	1797259264	55	4140
2026-01-29 09:48:27.13	334.75	14.93	-42.1	-43.0	21.4	0.00e+00	0	42	0	1800404992	55	4072
2026-01-29 09:48:28.15	334.76	14.82	-42.1	-43.0	21.4	0.00e+00	0	42	0	1803550720	55	4077
2026-01-29 09:48:29.16	334.77	14.71	-42.0	-42.9	21.5	0.00e+00	0	42	0	1806696448	55	4029
2026-01-29 09:48:30.17	334.78	14.61	-42.1	-43.0	21.4	0.00e+00	0	42	0	1809842176	55	4078
2026-01-29 09:48:31.18	334.79	14.50	-42.1	-43.0	21.4	0.00e+00	0	42	0	1812987904	55	4080
2026-01-29 09:48:32.18	334.79	14.40	-42.3	-43.1	21.3	0.00e+00	0	42	0	1816133632	55	4144
2026-01-29 09:48:33.19	334.80	14.30	-42.2	-43.1	21.3	0.00e+00	0	42	0	1819279360	55	4101
2026-01-29 09:48:34.20	334.81	14.19	-42.3	-43.1	21.3	0.00e+00	0	42	0	1822425088	55	4129
2026-01-29 09:48:35.21	334.82	14.09	-42.2	-43.1	21.2	0.00e+00	0	42	0	1825570816	55	4119
2026-01-29 09:48:36.22	334.83	13.99	-42.4	-43.3	21.1	0.00e+00	0	42	0	1828716544	55	4212
2026-01-29 09:48:37.22	334.83	13.88	-42.3	-43.1	21.2	0.00e+00	0	42	0	1831862272	55	4136
2026-01-29 09:48:38.23	334.84	13.78	-42.4	-43.2	21.1	0.00e+00	0	42	0	1835008000	55	4188
2026-01-29 09:48:39.24	334.85	13.68	-42.3	-43.2	21.1	0.00e+00	0	42	0	1838153728	55	4169
2026-01-29 09:48:40.25	334.86	13.58	-42.3	-43.2	21.1	0.00e+00	0	42	0	1841299456	55	4161
2026-01-29 09:48:41.27	334.87	13.48	-42.2	-43.1	21.1	0.00e+00	0	42	0	1844445184	55	4114
2026-01-29 09:48:42.28	334.87	13.38	-42.3	-43.2	21.1	0.00e+00	0	42	0	1847590912	55	4161
2026-01-29 09:48:43.28	334.88	13.28	-42.3	-43.2	21.1	0.00e+00	0	42	0	1850736640	55	4174
2026-01-29 09:48:44.29	334.89	13.18	-42.2	-43.0	21.2	0.00e+00	0	42	0	1853882368	55	4095
2026-01-29 09:48:45.30	334.90	13.08	-42.3	-43.1	21.1	0.00e+00	0	42	0	1857028096	55	4144
2026-01-29 09:48:46.31	334.91	12.98	-42.3	-43.2	21.1	0.00e+00	0	42	0	1860173824	55	4185
2026-01-29 09:48:47.31	334.91	12.88	-42.4	-43.3	21.0	0.00e+00	0	42	0	1863319552	55	4199
2026-01-29 09:48:48.32	334.92	12.78	-42.3	-43.2	21.1	0.00e+00	0	42	0	1866465280	55	4167
2026-01-29 09:48:49.33	334.93	12.69	-42.4	-43.3	21.0	0.00e+00	0	42	0	1869611008	55	4203
2026-01-29 09:48:50.34	334.94	12.59	-42.3	-43.2	21.1	7.00e-07	0	42	0	1872756736	55	4155
2026-01-29 09:48:51.35	334.94	12.49	-42.3	-43.2	21.1	0.00e+00	0	42	0	1875902464	55	4169
2026-01-29 09:48:52.36	334.95	12.40	-42.3	-43.2	21.0	0.00e+00	0	42	0	1879048192	55	4184
2026-01-29 09:48:53.36	334.96	12.30	-42.4	-43.3	21.0	0.00e+00	0	42	0	1882193920	55	4229
2026-01-29 09:48:54.37	334.97	12.21	-42.4	-43.3	21.0	0.00e+00	0	42	0	1885339648	55	4205
2026-01-29 09:48:55.38	334.97	12.11	-42.3	-43.2	21.1	0.00e+00	0	42	0	1888485376	55	4152
2026-01-29 09:48:56.39	334.98	12.02	-42.3	-43.2	21.0	0.00e+00	0	42	0	1891631104	55	4180
2026-01-29 09:48:57.39	334.99	11.92	-42.4	-43.2	21.0	0.00e+00	0	42	0	1894776832	55	4190
2026-01-29 09:48:58.40	335.00	11.83	-42.3	-43.2	21.0	0.00e+00	0	42	0	1897922560	55	4181
