passes_logs/2026/01/29/R3.2S_Murmansk/R3.2S_Murmansk__20260129_130120_NOAA_21_JPSS-2_rec.log

#Pass ID: 20260129_130120_NOAA 21 (JPSS-2)
#Satellite: NOAA 21 (JPSS-2)
#Configuration: NOAA-21
#almurnet v.1.7.20251203
#Start time: 2026-01-29 13:01:20

#Version: 2.2.20231116
#Station: R3.2S_Murmansk
#Location: 33.079688 lon 68.888172 lat
#TLE: 1 54234U 22150A   26028.89828222  .00000145  00000+0  89569-4 0  9997
#TLE: 2 54234  98.7511 329.6308 0000927 198.8651 161.2491 14.19540676166783

#Time	Az	El	Level	Level2	SNR	BER	BlckErr	Temp	State	Recorded	gain1	gain2
2026-01-29 13:01:20.89	243.33	2.03	-54.0	-66.8	3.8	1.49e+00	0	40	0	0	79	15800
2026-01-29 13:01:21.90	243.43	2.08	-54.0	-66.7	3.8	1.49e+00	0	40	104	0	78	16653
2026-01-29 13:01:22.91	243.53	2.12	-54.0	-66.7	3.8	1.49e+00	0	40	104	0	78	16652
2026-01-29 13:01:23.91	243.63	2.17	-54.1	-66.9	3.8	1.49e+00	0	40	104	0	78	16957
2026-01-29 13:01:24.92	243.73	2.21	-54.3	-67.1	3.8	1.49e+00	0	40	104	0	79	16322
2026-01-29 13:01:25.92	243.83	2.26	-54.3	-67.1	3.8	1.49e+00	0	40	104	0	79	16459
2026-01-29 13:01:26.93	243.94	2.30	-54.4	-67.2	3.8	1.49e+00	0	40	104	0	79	16507
2026-01-29 13:01:27.93	244.04	2.35	-54.4	-67.2	3.8	1.49e+00	0	40	104	0	79	16579
2026-01-29 13:01:28.94	244.14	2.39	-54.4	-67.1	3.8	1.49e+00	0	40	104	0	79	16490
2026-01-29 13:01:29.95	244.24	2.43	-54.3	-67.1	3.8	1.49e+00	0	40	104	0	79	16447
2026-01-29 13:01:30.96	244.35	2.48	-54.3	-67.1	3.8	1.49e+00	0	40	104	0	79	16327
2026-01-29 13:01:31.97	244.45	2.52	-54.3	-67.0	3.8	1.49e+00	0	40	104	0	79	16288
2026-01-29 13:01:32.98	244.55	2.57	-54.2	-67.0	3.8	1.49e+00	0	40	104	0	79	16192
2026-01-29 13:01:33.99	244.66	2.61	-54.1	-66.9	3.8	1.49e+00	0	40	104	0	79	16035
2026-01-29 13:01:35.00	244.76	2.66	-54.1	-66.9	3.8	1.49e+00	0	40	104	0	79	15949
2026-01-29 13:01:36.01	244.86	2.70	-54.0	-66.8	3.8	1.49e+00	0	40	104	0	79	15801
2026-01-29 13:01:37.01	244.97	2.75	-53.9	-66.7	3.8	1.49e+00	0	41	104	0	79	15686
2026-01-29 13:01:38.02	245.07	2.79	-53.9	-66.6	3.8	1.49e+00	0	40	104	0	79	15453
2026-01-29 13:01:39.03	245.18	2.84	-53.7	-66.5	3.8	1.49e+00	0	40	104	0	79	15269
2026-01-29 13:01:40.04	245.28	2.88	-53.6	-66.4	3.8	1.49e+00	0	41	104	0	79	15089
2026-01-29 13:01:41.04	245.39	2.93	-53.5	-66.3	3.8	1.49e+00	0	40	104	0	79	14948
2026-01-29 13:01:42.05	245.50	2.97	-53.4	-66.1	3.8	1.49e+00	0	40	104	0	78	15502
2026-01-29 13:01:43.06	245.60	3.02	-53.2	-65.9	3.8	1.49e+00	0	40	104	0	78	15215
2026-01-29 13:01:44.07	245.71	3.06	-53.0	-65.7	3.8	1.49e+00	0	41	104	0	78	14852
2026-01-29 13:01:45.07	245.81	3.10	-52.6	-65.4	3.8	1.49e+00	0	40	104	0	77	15100
2026-01-29 13:01:46.08	245.92	3.15	-52.4	-65.1	3.8	1.49e+00	0	41	104	0	76	15483
2026-01-29 13:01:47.09	246.03	3.19	-52.4	-65.1	3.8	1.49e+00	0	41	104	0	76	15452
2026-01-29 13:01:48.09	246.14	3.24	-52.3	-65.0	3.8	1.49e+00	0	41	104	0	76	15334
2026-01-29 13:01:49.10	246.25	3.28	-52.4	-65.1	3.8	1.49e+00	0	41	104	0	76	15411
2026-01-29 13:01:50.11	246.35	3.33	-52.4	-65.0	3.8	1.49e+00	0	40	104	0	76	15400
2026-01-29 13:01:51.12	246.46	3.37	-52.4	-65.0	3.8	1.49e+00	0	41	104	0	76	15374
2026-01-29 13:01:52.13	246.57	3.42	-52.3	-65.0	3.8	1.49e+00	0	41	104	0	76	15381
2026-01-29 13:01:53.13	246.68	3.46	-52.4	-65.0	3.8	1.49e+00	0	41	104	0	76	15397
2026-01-29 13:01:54.14	246.79	3.51	-52.3	-65.0	3.8	1.49e+00	0	41	104	0	76	15358
2026-01-29 13:01:55.15	246.90	3.55	-52.3	-65.0	3.8	1.49e+00	0	41	104	0	76	15385
2026-01-29 13:01:56.16	247.01	3.59	-52.3	-65.0	3.8	1.49e+00	0	41	104	0	76	15318
2026-01-29 13:01:57.17	247.12	3.64	-52.3	-65.0	3.8	1.49e+00	0	41	104	0	76	15265
2026-01-29 13:01:58.18	247.23	3.68	-52.3	-65.0	3.8	1.49e+00	0	41	104	0	76	15261
2026-01-29 13:01:59.19	247.35	3.73	-52.3	-65.0	3.8	1.49e+00	0	41	104	0	76	15226
2026-01-29 13:02:00.20	247.46	3.77	-52.3	-64.9	3.8	1.49e+00	0	41	104	0	76	15179
2026-01-29 13:02:01.21	247.57	3.82	-52.3	-65.0	3.8	1.49e+00	0	41	104	0	76	15255
2026-01-29 13:02:02.21	247.68	3.86	-52.3	-65.0	3.8	1.49e+00	0	41	104	0	76	15291
2026-01-29 13:02:03.22	247.79	3.91	-52.3	-65.0	3.8	1.49e+00	0	41	104	0	76	15338
2026-01-29 13:02:04.23	247.91	3.95	-52.3	-65.0	3.8	1.49e+00	0	41	104	0	76	15360
2026-01-29 13:02:05.23	248.02	3.99	-52.3	-65.0	3.8	1.49e+00	0	41	104	0	76	15355
2026-01-29 13:02:06.24	248.13	4.04	-52.3	-65.0	3.8	1.49e+00	0	41	104	0	76	15366
2026-01-29 13:02:07.25	248.25	4.08	-52.3	-65.0	3.8	1.49e+00	0	41	104	0	76	15290
2026-01-29 13:02:08.26	248.36	4.13	-52.3	-64.9	3.8	1.49e+00	0	41	104	0	76	15189
2026-01-29 13:02:09.27	248.48	4.17	-52.3	-64.8	3.8	1.49e+00	0	41	104	0	76	15006
2026-01-29 13:02:10.28	248.59	4.22	-52.3	-64.8	3.8	1.49e+00	0	41	104	0	76	15023
2026-01-29 13:02:11.29	248.71	4.26	-52.3	-64.9	3.8	1.49e+00	0	41	104	0	76	15079
2026-01-29 13:02:12.30	248.82	4.30	-52.3	-64.9	3.8	1.49e+00	0	41	104	0	76	15167
2026-01-29 13:02:13.31	248.94	4.35	-52.3	-64.9	3.8	1.49e+00	0	41	104	0	76	15153
2026-01-29 13:02:14.31	249.06	4.39	-52.3	-65.0	3.8	1.49e+00	0	41	104	0	76	15273
2026-01-29 13:02:15.32	249.17	4.44	-52.3	-65.0	3.8	1.49e+00	0	41	104	0	76	15260
2026-01-29 13:02:16.33	249.29	4.48	-52.3	-65.0	3.8	1.49e+00	0	41	104	0	76	15228
2026-01-29 13:02:17.34	249.41	4.53	-52.3	-65.0	3.8	1.49e+00	0	41	104	0	76	15245
2026-01-29 13:02:18.34	249.52	4.57	-52.3	-65.0	3.8	1.49e+00	0	41	104	0	76	15257
2026-01-29 13:02:19.35	249.64	4.61	-52.3	-64.9	3.8	1.49e+00	0	41	104	0	76	15181
2026-01-29 13:02:20.36	249.76	4.66	-52.3	-64.7	3.8	1.49e+00	0	41	104	0	76	14852
2026-01-29 13:02:21.37	249.88	4.70	-52.3	-64.5	3.8	1.49e+00	0	41	104	0	76	14430
2026-01-29 13:02:22.37	250.00	4.75	-52.2	-64.2	3.8	1.49e+00	0	41	104	0	76	14013
2026-01-29 13:02:23.38	250.12	4.79	-52.2	-64.1	3.8	1.49e+00	0	41	104	0	76	13860
2026-01-29 13:02:24.39	250.24	4.83	-52.1	-63.5	3.8	1.49e+00	0	41	104	0	76	12814
2026-01-29 13:02:25.40	250.36	4.88	-51.8	-60.6	4.4	1.48e+00	0	41	104	0	75	9778
2026-01-29 13:02:26.41	250.48	4.92	-51.2	-57.1	6.6	3.91e-01	0	41	0	1048576	74	6942
2026-01-29 13:02:27.41	250.60	4.96	-50.0	-53.8	9.9	2.08e-02	0	41	0	4194304	71	5653
2026-01-29 13:02:28.42	250.72	5.01	-48.7	-51.4	12.5	3.60e-04	0	41	0	7340032	69	4779
2026-01-29 13:02:29.43	250.84	5.05	-47.7	-49.9	14.0	3.80e-06	0	41	0	10485760	67	4497
2026-01-29 13:02:30.43	250.96	5.10	-49.4	-52.6	11.5	3.80e-06	0	41	0	13631488	69	5528
2026-01-29 13:02:31.44	251.09	5.14	-49.5	-52.7	10.8	1.33e+00	0	41	104	14680064	71	4972
2026-01-29 13:02:32.45	251.21	5.18	-49.8	-53.4	10.7	1.51e-04	0	41	0	17825792	70	5680
2026-01-29 13:02:33.46	251.33	5.23	-49.1	-52.0	11.7	2.72e-01	0	41	0	20971520	70	4859
2026-01-29 13:02:34.46	251.45	5.27	-44.4	-45.6	18.2	0.00e+00	0	41	0	24117248	60	4117
2026-01-29 13:02:35.47	251.58	5.31	-44.5	-45.7	18.2	0.00e+00	0	41	0	27262976	60	4168
2026-01-29 13:02:36.48	251.70	5.36	-44.5	-45.8	18.1	0.00e+00	0	41	0	30408704	60	4215
2026-01-29 13:02:37.48	251.82	5.40	-44.6	-45.9	18.0	0.00e+00	0	41	0	33554432	60	4262
2026-01-29 13:02:38.49	251.95	5.44	-44.4	-45.6	18.3	0.00e+00	0	41	0	35651584	60	4128
2026-01-29 13:02:39.49	252.07	5.49	-44.4	-45.7	18.3	0.00e+00	0	41	0	39845888	60	4147
2026-01-29 13:02:40.50	252.20	5.53	-44.6	-45.8	18.1	0.00e+00	0	41	0	42991616	60	4242
2026-01-29 13:02:41.51	252.32	5.57	-44.5	-45.8	18.1	0.00e+00	0	41	0	46137344	60	4212
2026-01-29 13:02:42.52	252.45	5.62	-44.4	-45.7	18.2	0.00e+00	0	41	0	49283072	60	4153
2026-01-29 13:02:43.53	252.58	5.66	-44.4	-45.6	18.3	0.00e+00	0	41	0	52428800	60	4122
2026-01-29 13:02:44.53	252.70	5.70	-44.4	-45.7	18.3	0.00e+00	0	41	0	55574528	60	4147
2026-01-29 13:02:45.54	252.83	5.75	-44.3	-45.5	18.4	0.00e+00	0	41	0	58720256	60	4089
2026-01-29 13:02:46.55	252.96	5.79	-44.3	-45.6	18.4	0.00e+00	0	41	0	61865984	60	4105
2026-01-29 13:02:47.56	253.09	5.83	-44.4	-45.6	18.3	0.00e+00	0	41	0	65011712	60	4142
2026-01-29 13:02:48.57	253.22	5.88	-44.5	-45.7	18.3	0.00e+00	0	41	0	68157440	60	4187
2026-01-29 13:02:49.58	253.34	5.92	-44.6	-45.8	18.1	0.00e+00	0	41	0	71303168	60	4234
2026-01-29 13:02:50.59	253.47	5.96	-44.5	-45.7	18.3	0.00e+00	0	41	0	74448896	60	4179
2026-01-29 13:02:51.60	253.60	6.00	-44.5	-45.7	18.4	0.00e+00	0	41	0	77594624	60	4159
2026-01-29 13:02:52.61	253.73	6.05	-44.3	-45.5	18.5	0.00e+00	0	41	0	80740352	60	4079
2026-01-29 13:02:53.61	253.86	6.09	-44.4	-45.6	18.4	0.00e+00	0	41	0	83886080	60	4107
2026-01-29 13:02:54.62	253.99	6.13	-44.4	-45.6	18.4	0.00e+00	0	41	0	87031808	60	4136
2026-01-29 13:02:55.63	254.12	6.18	-44.4	-45.6	18.5	0.00e+00	0	41	0	90177536	60	4101
2026-01-29 13:02:56.64	254.25	6.22	-44.1	-45.2	18.8	0.00e+00	0	41	0	93323264	60	3947
2026-01-29 13:02:57.65	254.39	6.26	-44.1	-45.2	18.8	0.00e+00	0	41	0	96468992	60	3940
2026-01-29 13:02:58.66	254.52	6.30	-44.3	-45.5	18.9	0.00e+00	0	41	0	99614720	59	4301
2026-01-29 13:02:59.66	254.65	6.35	-44.4	-45.5	18.9	0.00e+00	0	41	0	102760448	59	4328
2026-01-29 13:03:00.67	254.78	6.39	-44.4	-45.6	18.8	0.00e+00	0	41	0	105906176	59	4356
2026-01-29 13:03:01.68	254.92	6.43	-44.3	-45.5	18.9	0.00e+00	0	41	0	109051904	59	4315
2026-01-29 13:03:02.69	255.05	6.47	-44.3	-45.4	19.0	0.00e+00	0	41	0	112197632	59	4274
2026-01-29 13:03:03.70	255.18	6.51	-44.2	-45.3	19.0	0.00e+00	0	42	0	115343360	59	4223
2026-01-29 13:03:04.71	255.32	6.56	-44.2	-45.3	19.0	0.00e+00	0	41	0	118489088	59	4240
2026-01-29 13:03:05.72	255.45	6.60	-44.3	-45.4	18.9	0.00e+00	0	41	0	121634816	59	4282
2026-01-29 13:03:06.73	255.59	6.64	-44.1	-45.2	19.2	0.00e+00	0	41	0	124780544	59	4160
2026-01-29 13:03:07.74	255.72	6.68	-44.2	-45.3	19.0	0.00e+00	0	41	0	127926272	59	4225
2026-01-29 13:03:08.74	255.86	6.72	-44.2	-45.4	19.0	0.00e+00	0	41	0	131072000	59	4249
2026-01-29 13:03:09.75	255.99	6.77	-44.1	-45.2	19.2	0.00e+00	0	41	0	134217728	59	4161
2026-01-29 13:03:10.77	256.13	6.81	-44.2	-45.3	19.0	0.00e+00	0	41	0	137363456	59	4238
2026-01-29 13:03:11.78	256.27	6.85	-44.3	-45.4	19.0	0.00e+00	0	41	0	140509184	59	4276
2026-01-29 13:03:12.78	256.40	6.89	-44.4	-45.6	18.8	0.00e+00	0	41	0	143654912	59	4349
2026-01-29 13:03:13.79	256.54	6.93	-44.2	-45.3	19.0	0.00e+00	0	42	0	146800640	59	4230
2026-01-29 13:03:14.80	256.68	6.97	-44.2	-45.3	19.0	0.00e+00	0	42	0	149946368	59	4240
2026-01-29 13:03:15.81	256.82	7.02	-44.1	-45.2	19.1	0.00e+00	0	42	0	153092096	59	4192
2026-01-29 13:03:16.81	256.96	7.06	-44.1	-45.2	19.2	0.00e+00	0	41	0	156237824	59	4177
2026-01-29 13:03:17.82	257.09	7.10	-44.0	-45.1	19.3	0.00e+00	0	42	0	159383552	59	4111
2026-01-29 13:03:18.83	257.23	7.14	-44.0	-45.1	19.2	0.00e+00	0	41	0	162529280	59	4144
2026-01-29 13:03:19.84	257.37	7.18	-43.9	-45.0	19.3	0.00e+00	0	41	0	165675008	59	4093
2026-01-29 13:03:20.84	257.51	7.22	-43.8	-44.9	19.5	0.00e+00	0	41	0	168820736	59	4005
2026-01-29 13:03:21.85	257.65	7.26	-43.9	-45.0	19.4	0.00e+00	0	41	0	171966464	59	4089
2026-01-29 13:03:22.86	257.80	7.30	-43.9	-45.0	19.4	0.00e+00	0	41	0	175112192	59	4074
2026-01-29 13:03:23.87	257.94	7.34	-44.0	-45.0	19.4	0.00e+00	0	42	0	178257920	59	4086
2026-01-29 13:03:24.88	258.08	7.38	-44.0	-45.1	19.3	0.00e+00	0	41	0	181403648	59	4123
2026-01-29 13:03:25.89	258.22	7.43	-44.0	-45.0	19.4	0.00e+00	0	41	0	184549376	59	4095
2026-01-29 13:03:26.89	258.36	7.47	-43.9	-45.0	19.4	0.00e+00	0	42	0	187695104	59	4084
2026-01-29 13:03:27.91	258.51	7.51	-43.9	-45.0	19.4	0.00e+00	0	41	0	190840832	59	4070
2026-01-29 13:03:28.91	258.65	7.55	-43.9	-45.0	19.4	0.00e+00	0	41	0	193986560	59	4065
2026-01-29 13:03:29.93	258.79	7.59	-43.8	-44.9	19.5	0.00e+00	0	41	0	197132288	59	4026
2026-01-29 13:03:30.94	258.94	7.63	-43.7	-44.8	19.6	0.00e+00	0	41	0	200278016	59	3969
2026-01-29 13:03:31.95	259.08	7.67	-43.8	-44.8	19.6	0.00e+00	0	41	0	203423744	59	3984
2026-01-29 13:03:32.95	259.23	7.71	-43.7	-44.8	19.6	0.00e+00	0	41	0	206569472	59	3973
2026-01-29 13:03:33.96	259.37	7.75	-43.8	-44.8	19.6	0.00e+00	0	42	0	209715200	59	3987
2026-01-29 13:03:34.97	259.52	7.79	-43.8	-44.9	19.5	0.00e+00	0	41	0	212860928	59	4016
2026-01-29 13:03:35.99	259.66	7.83	-43.7	-44.7	19.6	0.00e+00	0	41	0	216006656	59	3951
2026-01-29 13:03:36.99	259.81	7.87	-43.7	-44.8	19.6	0.00e+00	0	42	0	219152384	59	3977
2026-01-29 13:03:38.00	259.96	7.91	-43.8	-44.9	19.5	0.00e+00	0	41	0	222298112	59	4016
2026-01-29 13:03:39.01	260.10	7.95	-43.8	-44.9	19.5	0.00e+00	0	42	0	225443840	59	4022
2026-01-29 13:03:40.01	260.25	7.98	-43.9	-45.0	19.4	0.00e+00	0	42	0	228589568	59	4071
2026-01-29 13:03:41.02	260.40	8.02	-43.9	-45.0	19.4	0.00e+00	0	41	0	231735296	59	4072
2026-01-29 13:03:42.03	260.55	8.06	-43.8	-44.9	19.6	0.00e+00	0	41	0	234881024	59	4005
2026-01-29 13:03:43.04	260.69	8.10	-43.8	-44.9	19.6	0.00e+00	0	41	0	238026752	59	4007
2026-01-29 13:03:44.04	260.84	8.14	-43.8	-44.8	19.6	0.00e+00	0	41	0	241172480	59	3990
2026-01-29 13:03:45.04	260.99	8.18	-43.9	-44.9	19.5	0.00e+00	0	42	0	244318208	59	4044
2026-01-29 13:03:46.05	261.14	8.22	-43.8	-44.9	19.5	0.00e+00	0	41	0	247463936	59	4024
2026-01-29 13:03:47.06	261.29	8.26	-43.8	-44.8	19.6	0.00e+00	0	41	0	250609664	59	3990
2026-01-29 13:03:48.07	261.44	8.30	-43.8	-44.8	19.6	0.00e+00	0	42	0	253755392	59	3983
2026-01-29 13:03:49.08	261.59	8.33	-43.7	-44.8	19.7	0.00e+00	0	41	0	256901120	59	3966
2026-01-29 13:03:50.08	261.74	8.37	-43.6	-44.6	19.8	0.00e+00	0	41	0	260046848	59	3890
2026-01-29 13:03:51.09	261.89	8.41	-43.6	-44.6	19.8	0.00e+00	0	42	0	263192576	59	3900
2026-01-29 13:03:52.10	262.05	8.45	-43.6	-44.6	19.9	0.00e+00	0	42	0	266338304	59	3896
2026-01-29 13:03:53.11	262.20	8.49	-43.6	-44.6	19.8	0.00e+00	0	42	0	269484032	59	3907
2026-01-29 13:03:54.13	262.35	8.52	-43.6	-44.6	19.8	0.00e+00	0	41	0	272629760	59	3910
2026-01-29 13:03:55.13	262.50	8.56	-43.5	-44.5	19.9	0.00e+00	0	42	0	275775488	59	3865
2026-01-29 13:03:56.14	262.66	8.60	-43.5	-44.5	19.9	0.00e+00	0	41	0	278921216	59	3867
2026-01-29 13:03:57.15	262.81	8.64	-43.6	-44.6	19.9	0.00e+00	0	42	0	282066944	59	3885
2026-01-29 13:03:58.16	262.97	8.67	-43.5	-44.6	19.9	0.00e+00	0	41	0	285212672	58	4099
2026-01-29 13:03:59.17	263.12	8.71	-43.5	-44.5	19.9	0.00e+00	0	41	0	288358400	58	4087
2026-01-29 13:04:00.18	263.28	8.75	-43.5	-44.5	19.9	0.00e+00	0	42	0	291504128	58	4090
2026-01-29 13:04:01.18	263.43	8.78	-43.5	-44.6	19.9	0.00e+00	0	41	0	294649856	58	4106
2026-01-29 13:04:02.19	263.59	8.82	-43.4	-44.4	20.0	0.00e+00	0	42	0	297795584	58	4048
2026-01-29 13:04:03.20	263.74	8.86	-43.4	-44.5	20.0	0.00e+00	0	42	0	300941312	58	4055
2026-01-29 13:04:04.21	263.90	8.89	-43.5	-44.5	20.0	0.00e+00	0	42	0	304087040	58	4065
2026-01-29 13:04:05.22	264.06	8.93	-43.5	-44.6	19.9	0.00e+00	0	41	0	307232768	58	4101
2026-01-29 13:04:06.23	264.21	8.97	-43.6	-44.7	19.8	0.00e+00	0	42	0	310378496	58	4160
2026-01-29 13:04:07.23	264.37	9.00	-43.5	-44.5	20.0	0.00e+00	0	41	0	313524224	58	4081
2026-01-29 13:04:08.24	264.53	9.04	-43.4	-44.4	20.1	0.00e+00	0	41	0	316669952	58	4041
2026-01-29 13:04:09.25	264.69	9.08	-43.5	-44.5	20.0	0.00e+00	0	41	0	319815680	58	4079
2026-01-29 13:04:10.26	264.85	9.11	-43.3	-44.3	20.1	0.00e+00	0	41	0	322961408	58	3984
2026-01-29 13:04:11.27	265.01	9.15	-43.2	-44.2	20.2	0.00e+00	0	42	0	326107136	58	3941
2026-01-29 13:04:12.28	265.17	9.18	-43.3	-44.3	20.2	0.00e+00	0	42	0	329252864	58	3963
2026-01-29 13:04:13.29	265.33	9.22	-43.3	-44.2	20.2	0.00e+00	0	42	0	332398592	58	3955
2026-01-29 13:04:14.30	265.49	9.25	-43.2	-44.2	20.3	0.00e+00	0	42	0	335544320	58	3917
2026-01-29 13:04:15.31	265.65	9.29	-43.2	-44.2	20.2	0.00e+00	0	42	0	338690048	58	3944
2026-01-29 13:04:16.31	265.81	9.32	-43.2	-44.2	20.2	0.00e+00	0	42	0	341835776	58	3934
2026-01-29 13:04:17.32	265.97	9.36	-43.1	-44.1	20.3	0.00e+00	0	42	0	344981504	58	3892
2026-01-29 13:04:18.33	266.13	9.39	-43.1	-44.0	20.4	0.00e+00	0	42	0	348127232	58	3861
2026-01-29 13:04:19.33	266.29	9.43	-43.0	-44.0	20.4	0.00e+00	0	42	0	351272960	58	3826
2026-01-29 13:04:20.34	266.45	9.46	-43.1	-44.1	20.3	0.00e+00	0	42	0	354418688	58	3896
2026-01-29 13:04:21.35	266.62	9.49	-43.4	-44.4	19.9	0.00e+00	0	42	0	357564416	58	4051
2026-01-29 13:04:22.36	266.78	9.53	-43.8	-44.9	19.4	0.00e+00	0	42	0	360710144	58	4278
2026-01-29 13:04:23.37	266.94	9.56	-44.4	-45.5	18.8	0.00e+00	0	41	0	363855872	59	4334
2026-01-29 13:04:24.37	267.11	9.60	-44.7	-46.0	18.0	0.00e+00	0	42	0	367001600	60	4294
2026-01-29 13:04:25.38	267.27	9.63	-45.1	-46.4	17.4	0.00e+00	0	42	0	370147328	60	4530
2026-01-29 13:04:26.39	267.44	9.66	-45.3	-46.8	16.9	0.00e+00	0	41	0	373293056	61	4472
2026-01-29 13:04:27.40	267.60	9.70	-45.5	-47.1	16.5	0.00e+00	0	41	0	376438784	61	4619
2026-01-29 13:04:28.41	267.77	9.73	-45.6	-47.2	16.4	0.00e+00	0	42	0	379584512	61	4655
2026-01-29 13:04:29.42	267.93	9.76	-45.8	-47.4	16.1	0.00e+00	0	42	0	382730240	62	4525
2026-01-29 13:04:30.43	268.10	9.80	-45.9	-47.6	15.9	0.00e+00	0	42	0	385875968	62	4632
2026-01-29 13:04:31.43	268.26	9.83	-46.2	-47.9	15.6	0.00e+00	0	42	0	389021696	62	4801
2026-01-29 13:04:32.44	268.43	9.86	-46.1	-47.8	15.8	0.00e+00	0	41	0	392167424	63	4463
2026-01-29 13:04:33.45	268.60	9.89	-46.0	-47.6	16.0	0.00e+00	0	41	0	395313152	63	4385
2026-01-29 13:04:34.46	268.77	9.92	-46.1	-47.8	16.0	0.00e+00	0	41	0	398458880	63	4456
2026-01-29 13:04:35.46	268.93	9.96	-45.9	-47.5	16.2	0.00e+00	0	42	0	401604608	63	4321
2026-01-29 13:04:36.47	269.10	9.99	-45.9	-47.5	16.1	0.00e+00	0	42	0	404750336	63	4335
2026-01-29 13:04:37.48	269.27	10.02	-45.9	-47.5	16.1	0.00e+00	0	42	0	407896064	63	4305
2026-01-29 13:04:38.49	269.44	10.05	-45.2	-46.6	17.0	0.00e+00	0	42	0	411041792	62	4137
2026-01-29 13:04:39.50	269.61	10.08	-44.8	-46.1	17.6	0.00e+00	0	41	0	414187520	61	4127
2026-01-29 13:04:40.51	269.78	10.11	-44.7	-46.0	17.8	0.00e+00	0	41	0	417333248	61	4090
2026-01-29 13:04:41.52	269.95	10.14	-44.6	-45.8	18.1	0.00e+00	0	42	0	420478976	61	3990
2026-01-29 13:04:42.53	270.12	10.17	-44.4	-45.7	18.3	0.00e+00	0	42	0	423624704	60	4152
2026-01-29 13:04:43.54	270.29	10.20	-44.2	-45.3	18.7	0.00e+00	0	42	0	426770432	60	3998
2026-01-29 13:04:44.55	270.46	10.23	-44.3	-45.4	19.0	0.00e+00	0	42	0	429916160	59	4270
2026-01-29 13:04:45.56	270.63	10.26	-44.0	-45.1	19.4	0.00e+00	0	42	0	433061888	59	4125
2026-01-29 13:04:46.57	270.80	10.29	-43.9	-45.0	19.5	0.00e+00	0	41	0	436207616	59	4061
2026-01-29 13:04:47.58	270.98	10.32	-44.0	-45.0	19.5	0.00e+00	0	42	0	439353344	59	4089
2026-01-29 13:04:48.59	271.15	10.35	-43.7	-44.7	19.8	0.00e+00	0	42	0	442499072	59	3932
2026-01-29 13:04:49.59	271.32	10.38	-43.4	-44.3	20.1	0.00e+00	0	41	0	445644800	58	4002
2026-01-29 13:04:50.60	271.49	10.41	-43.3	-44.3	20.2	0.00e+00	0	41	0	448790528	58	3959
2026-01-29 13:04:51.61	271.67	10.44	-43.3	-44.3	20.2	0.00e+00	0	42	0	451936256	58	3984
2026-01-29 13:04:52.62	271.84	10.47	-43.4	-44.4	20.1	0.00e+00	0	42	0	455081984	58	4015
2026-01-29 13:04:53.62	272.01	10.50	-43.4	-44.5	20.1	0.00e+00	0	42	0	458227712	58	4055
2026-01-29 13:04:54.63	272.19	10.53	-43.5	-44.5	20.1	0.00e+00	0	42	0	461373440	58	4057
2026-01-29 13:04:55.64	272.36	10.55	-43.4	-44.4	20.1	0.00e+00	0	42	0	464519168	58	4036
2026-01-29 13:04:56.65	272.54	10.58	-43.4	-44.4	20.1	0.00e+00	0	42	0	467664896	58	4027
2026-01-29 13:04:57.65	272.71	10.61	-43.4	-44.4	20.2	0.00e+00	0	42	0	470810624	58	4005
2026-01-29 13:04:58.66	272.89	10.64	-43.4	-44.4	20.1	0.00e+00	0	42	0	473956352	58	4037
2026-01-29 13:04:59.67	273.06	10.66	-43.4	-44.4	20.1	0.00e+00	0	42	0	477102080	58	4045
2026-01-29 13:05:00.68	273.24	10.69	-43.4	-44.4	20.1	0.00e+00	0	42	0	480247808	58	4037
2026-01-29 13:05:01.69	273.42	10.72	-43.4	-44.4	20.2	0.00e+00	0	42	0	483393536	58	4013
2026-01-29 13:05:02.70	273.59	10.75	-43.5	-44.5	20.1	0.00e+00	0	41	0	487587840	58	4056
2026-01-29 13:05:03.71	273.77	10.77	-43.4	-44.4	20.2	0.00e+00	0	42	0	490733568	58	4023
2026-01-29 13:05:04.71	273.95	10.80	-43.4	-44.4	20.1	0.00e+00	0	41	0	492830720	58	4040
2026-01-29 13:05:05.72	274.12	10.82	-43.4	-44.4	20.2	0.00e+00	0	42	0	495976448	58	4021
2026-01-29 13:05:06.73	274.30	10.85	-43.5	-44.5	20.2	0.00e+00	0	42	0	499122176	58	4055
2026-01-29 13:05:07.74	274.48	10.87	-43.5	-44.5	20.2	0.00e+00	0	42	0	502267904	58	4053
2026-01-29 13:05:08.74	274.66	10.90	-43.3	-44.2	20.4	0.00e+00	0	41	0	505413632	58	3945
2026-01-29 13:05:09.75	274.84	10.93	-43.2	-44.2	20.4	0.00e+00	0	42	0	508559360	58	3938
2026-01-29 13:05:10.77	275.02	10.95	-43.3	-44.2	20.4	0.00e+00	0	42	0	511705088	58	3950
2026-01-29 13:05:11.78	275.20	10.98	-43.2	-44.2	20.4	0.00e+00	0	42	0	514850816	58	3914
2026-01-29 13:05:12.79	275.38	11.00	-43.2	-44.2	20.4	0.00e+00	0	41	0	517996544	58	3929
2026-01-29 13:05:13.79	275.56	11.02	-43.2	-44.2	20.4	0.00e+00	0	42	0	522190848	58	3915
2026-01-29 13:05:14.80	275.74	11.05	-43.3	-44.3	20.3	0.00e+00	0	42	0	525336576	58	3973
2026-01-29 13:05:15.81	275.92	11.07	-43.3	-44.3	20.3	0.00e+00	0	41	0	528482304	58	3965
2026-01-29 13:05:16.83	276.10	11.10	-43.3	-44.3	20.3	0.00e+00	0	42	0	531628032	58	3974
2026-01-29 13:05:17.83	276.28	11.12	-43.3	-44.3	20.3	0.00e+00	0	42	0	534773760	58	3990
2026-01-29 13:05:18.84	276.46	11.14	-43.4	-44.4	20.2	0.00e+00	0	42	0	537919488	58	4046
2026-01-29 13:05:19.85	276.64	11.16	-43.4	-44.4	20.2	0.00e+00	0	42	0	540016640	58	4015
2026-01-29 13:05:20.85	276.83	11.19	-43.5	-44.4	20.2	0.00e+00	0	42	0	543162368	58	4048
2026-01-29 13:05:21.86	277.01	11.21	-43.4	-44.4	20.3	0.00e+00	0	42	0	546308096	58	4018
2026-01-29 13:05:22.87	277.19	11.23	-43.3	-44.3	20.4	0.00e+00	0	42	0	549453824	58	3969
2026-01-29 13:05:23.88	277.37	11.25	-43.3	-44.3	20.4	0.00e+00	0	42	0	552599552	58	3971
2026-01-29 13:05:24.88	277.56	11.27	-43.4	-44.4	20.2	0.00e+00	0	42	0	555745280	58	4017
2026-01-29 13:05:25.89	277.74	11.30	-43.4	-44.4	20.2	0.00e+00	0	42	0	559939584	58	4008
2026-01-29 13:05:26.90	277.92	11.32	-43.4	-44.4	20.1	0.00e+00	0	42	0	563085312	58	4043
2026-01-29 13:05:27.91	278.11	11.34	-43.4	-44.4	20.2	0.00e+00	0	42	0	566231040	58	4034
2026-01-29 13:05:28.92	278.29	11.36	-43.5	-44.5	20.1	0.00e+00	0	42	0	569376768	58	4069
2026-01-29 13:05:29.93	278.48	11.38	-43.4	-44.4	20.2	0.00e+00	0	41	0	572522496	58	4015
2026-01-29 13:05:30.94	278.66	11.40	-43.4	-44.4	20.2	0.00e+00	0	42	0	575668224	58	4051
2026-01-29 13:05:31.95	278.85	11.42	-43.4	-44.4	20.2	0.00e+00	0	41	0	578813952	58	4027
2026-01-29 13:05:32.96	279.03	11.44	-43.5	-44.5	20.2	0.00e+00	0	42	0	581959680	58	4052
2026-01-29 13:05:33.97	279.22	11.46	-43.3	-44.3	20.3	0.00e+00	0	42	0	585105408	58	3984
2026-01-29 13:05:34.98	279.40	11.48	-43.3	-44.3	20.3	0.00e+00	0	42	0	588251136	58	3971
2026-01-29 13:05:35.99	279.59	11.50	-43.2	-44.2	20.5	0.00e+00	0	42	0	590348288	58	3917
2026-01-29 13:05:36.99	279.77	11.52	-43.3	-44.2	20.4	0.00e+00	0	41	0	594542592	58	3955
2026-01-29 13:05:38.00	279.96	11.53	-43.3	-44.2	20.4	0.00e+00	0	42	0	597688320	58	3947
2026-01-29 13:05:39.01	280.15	11.55	-43.2	-44.2	20.4	0.00e+00	0	42	0	600834048	58	3921
2026-01-29 13:05:40.02	280.33	11.57	-43.4	-44.3	20.3	0.00e+00	0	42	0	603979776	58	4000
2026-01-29 13:05:41.03	280.52	11.59	-43.4	-44.4	20.3	0.00e+00	0	42	0	607125504	58	4018
2026-01-29 13:05:42.04	280.71	11.61	-43.5	-44.5	20.2	0.00e+00	0	42	0	610271232	58	4068
2026-01-29 13:05:43.05	280.89	11.62	-43.6	-44.6	20.1	0.00e+00	0	42	0	613416960	58	4120
2026-01-29 13:05:44.06	281.08	11.64	-43.6	-44.6	20.1	0.00e+00	0	42	0	616562688	58	4131
2026-01-29 13:05:45.07	281.27	11.66	-43.5	-44.5	20.2	0.00e+00	0	42	0	619708416	58	4054
2026-01-29 13:05:46.07	281.46	11.67	-43.4	-44.4	20.3	0.00e+00	0	42	0	622854144	58	4033
2026-01-29 13:05:47.08	281.65	11.69	-43.4	-44.3	20.4	0.00e+00	0	42	0	625999872	58	3998
2026-01-29 13:05:48.09	281.83	11.70	-43.3	-44.3	20.5	0.00e+00	0	42	0	629145600	58	3964
2026-01-29 13:05:49.10	282.02	11.72	-43.3	-44.2	20.5	0.00e+00	0	42	0	632291328	58	3942
2026-01-29 13:05:50.10	282.21	11.73	-43.4	-44.4	20.4	0.00e+00	0	42	0	635437056	58	4007
2026-01-29 13:05:51.11	282.40	11.75	-43.4	-44.4	20.3	0.00e+00	0	42	0	638582784	58	4006
2026-01-29 13:05:52.12	282.59	11.76	-43.5	-44.4	20.3	0.00e+00	0	42	0	641728512	58	4042
2026-01-29 13:05:53.13	282.78	11.78	-43.5	-44.5	20.2	0.00e+00	0	42	0	644874240	58	4066
2026-01-29 13:05:54.14	282.97	11.79	-43.6	-44.6	20.2	0.00e+00	0	42	0	648019968	58	4119
2026-01-29 13:05:55.15	283.16	11.81	-43.7	-44.7	20.1	0.00e+00	0	42	0	651165696	58	4152
2026-01-29 13:05:56.16	283.35	11.82	-43.5	-44.5	20.4	0.00e+00	0	42	0	654311424	58	4069
2026-01-29 13:05:57.17	283.54	11.83	-43.6	-44.5	20.3	0.00e+00	0	42	0	657457152	58	4089
2026-01-29 13:05:58.17	283.73	11.85	-43.2	-44.2	20.5	0.00e+00	0	42	0	660602880	58	3923
2026-01-29 13:05:59.19	283.92	11.86	-43.2	-44.1	20.6	0.00e+00	0	42	0	663748608	58	3886
2026-01-29 13:06:00.20	284.11	11.87	-43.1	-44.1	20.6	0.00e+00	0	42	0	666894336	58	3876
2026-01-29 13:06:01.21	284.30	11.89	-43.1	-44.1	20.6	0.00e+00	0	42	0	670040064	58	3876
2026-01-29 13:06:02.21	284.49	11.90	-43.0	-43.9	20.7	0.00e+00	0	42	0	673185792	58	3813
2026-01-29 13:06:03.22	284.68	11.91	-43.1	-44.1	20.6	0.00e+00	0	42	0	676331520	58	3872
2026-01-29 13:06:04.23	284.87	11.92	-43.1	-44.1	20.6	0.00e+00	0	42	0	679477248	58	3885
2026-01-29 13:06:05.24	285.06	11.93	-43.3	-44.2	20.5	0.00e+00	0	42	0	682622976	58	3945
2026-01-29 13:06:06.25	285.25	11.94	-43.3	-44.2	20.5	0.00e+00	0	41	0	685768704	58	3954
2026-01-29 13:06:07.25	285.44	11.95	-43.4	-44.3	20.5	0.00e+00	0	42	0	688914432	58	3984
2026-01-29 13:06:08.26	285.64	11.96	-43.4	-44.3	20.5	0.00e+00	0	42	0	692060160	58	3989
2026-01-29 13:06:09.27	285.83	11.97	-43.2	-44.2	20.6	0.00e+00	0	42	0	695205888	58	3921
2026-01-29 13:06:10.27	286.02	11.98	-43.3	-44.2	20.6	0.00e+00	0	42	0	698351616	58	3937
2026-01-29 13:06:11.28	286.21	11.99	-43.3	-44.2	20.6	0.00e+00	0	42	0	701497344	58	3934
2026-01-29 13:06:12.29	286.40	12.00	-43.3	-44.3	20.6	0.00e+00	0	42	0	704643072	58	3964
2026-01-29 13:06:13.30	286.59	12.01	-43.4	-44.3	20.5	0.00e+00	0	42	0	707788800	58	4004
2026-01-29 13:06:14.31	286.79	12.02	-43.4	-44.4	20.5	0.00e+00	0	42	0	710934528	58	4016
2026-01-29 13:06:15.32	286.98	12.03	-43.4	-44.4	20.5	0.00e+00	0	42	0	714080256	58	4028
2026-01-29 13:06:16.32	287.17	12.04	-43.5	-44.5	20.4	0.00e+00	0	41	0	717225984	58	4056
2026-01-29 13:06:17.33	287.36	12.04	-43.6	-44.6	20.3	0.00e+00	0	42	0	720371712	58	4112
2026-01-29 13:06:18.34	287.56	12.05	-43.7	-44.7	20.2	0.00e+00	0	42	0	723517440	58	4156
2026-01-29 13:06:19.35	287.75	12.06	-43.7	-44.7	20.2	0.00e+00	0	42	0	726663168	58	4170
2026-01-29 13:06:20.35	287.94	12.06	-43.6	-44.6	20.3	0.00e+00	0	42	0	729808896	58	4139
2026-01-29 13:06:21.36	288.13	12.07	-43.4	-44.4	20.5	0.00e+00	0	42	0	732954624	58	4032
2026-01-29 13:06:22.37	288.33	12.08	-43.3	-44.3	20.6	0.00e+00	0	42	0	736100352	58	3966
2026-01-29 13:06:23.38	288.52	12.08	-43.3	-44.3	20.6	0.00e+00	0	42	0	739246080	58	3981
2026-01-29 13:06:24.39	288.71	12.09	-43.3	-44.2	20.6	0.00e+00	0	42	0	742391808	58	3956
2026-01-29 13:06:25.40	288.91	12.09	-43.2	-44.1	20.8	0.00e+00	0	41	0	745537536	58	3903
2026-01-29 13:06:26.41	289.10	12.10	-43.2	-44.1	20.8	0.00e+00	0	42	0	748683264	58	3909
2026-01-29 13:06:27.41	289.29	12.10	-43.2	-44.1	20.8	0.00e+00	0	42	0	751828992	58	3887
2026-01-29 13:06:28.42	289.49	12.11	-43.2	-44.2	20.7	0.00e+00	0	42	0	754974720	58	3917
2026-01-29 13:06:29.43	289.68	12.11	-43.0	-44.0	20.9	0.00e+00	0	41	0	758120448	58	3827
2026-01-29 13:06:30.44	289.87	12.12	-43.1	-44.1	20.8	0.00e+00	0	41	0	761266176	58	3877
2026-01-29 13:06:31.44	290.06	12.12	-43.0	-44.0	21.0	0.00e+00	0	41	0	764411904	58	3825
2026-01-29 13:06:32.45	290.26	12.12	-43.1	-44.0	20.9	0.00e+00	0	42	0	767557632	58	3867
2026-01-29 13:06:33.45	290.45	12.13	-43.1	-44.0	20.9	0.00e+00	0	42	0	770703360	58	3861
2026-01-29 13:06:34.46	290.64	12.13	-43.0	-43.9	20.9	0.00e+00	0	42	0	773849088	58	3818
2026-01-29 13:06:35.47	290.84	12.13	-43.0	-43.9	21.0	0.00e+00	0	41	0	776994816	58	3801
2026-01-29 13:06:36.48	291.03	12.14	-43.1	-44.0	20.9	0.00e+00	0	42	0	780140544	58	3855
2026-01-29 13:06:37.49	291.23	12.14	-43.2	-44.1	20.8	0.00e+00	0	42	0	783286272	58	3904
2026-01-29 13:06:38.50	291.42	12.14	-43.1	-44.1	20.9	0.00e+00	0	42	0	786432000	58	3874
2026-01-29 13:06:39.51	291.61	12.14	-43.1	-44.0	20.9	0.00e+00	0	42	0	789577728	58	3842
2026-01-29 13:06:40.51	291.81	12.14	-43.2	-44.1	20.8	0.00e+00	0	42	0	792723456	58	3890
2026-01-29 13:06:41.52	292.00	12.14	-43.2	-44.1	20.8	0.00e+00	0	42	0	795869184	58	3896
2026-01-29 13:06:42.53	292.19	12.14	-43.2	-44.2	20.7	0.00e+00	0	42	0	799014912	58	3917
2026-01-29 13:06:43.54	292.39	12.14	-43.2	-44.2	20.7	0.00e+00	0	42	0	802160640	58	3914
2026-01-29 13:06:44.54	292.58	12.14	-43.2	-44.1	20.8	0.00e+00	0	42	0	805306368	58	3882
2026-01-29 13:06:45.55	292.77	12.14	-43.2	-44.1	20.8	0.00e+00	0	41	0	808452096	58	3902
2026-01-29 13:06:46.56	292.97	12.14	-43.2	-44.1	20.8	0.00e+00	0	42	0	811597824	58	3884
2026-01-29 13:06:47.57	293.16	12.14	-43.0	-44.0	20.9	0.00e+00	0	42	0	814743552	58	3832
2026-01-29 13:06:48.58	293.36	12.14	-43.1	-44.0	20.8	0.00e+00	0	41	0	817889280	58	3867
2026-01-29 13:06:49.59	293.55	12.14	-43.1	-44.0	20.9	0.00e+00	0	42	0	821035008	58	3855
2026-01-29 13:06:50.60	293.74	12.14	-43.1	-44.0	20.8	0.00e+00	0	42	0	824180736	58	3866
2026-01-29 13:06:51.61	293.94	12.13	-43.0	-43.9	20.9	0.00e+00	0	42	0	827326464	58	3819
2026-01-29 13:06:52.62	294.13	12.13	-43.1	-44.0	20.9	0.00e+00	0	42	0	830472192	58	3829
2026-01-29 13:06:53.63	294.33	12.13	-43.1	-44.0	20.8	0.00e+00	0	42	0	833617920	58	3838
2026-01-29 13:06:54.63	294.52	12.13	-43.1	-44.1	20.8	0.00e+00	0	42	0	836763648	58	3872
2026-01-29 13:06:55.64	294.71	12.12	-43.2	-44.1	20.7	0.00e+00	0	42	0	839909376	58	3888
2026-01-29 13:06:56.64	294.90	12.12	-43.2	-44.1	20.7	0.00e+00	0	42	0	843055104	58	3884
2026-01-29 13:06:57.65	295.10	12.11	-43.2	-44.1	20.8	0.00e+00	0	42	0	846200832	58	3888
2026-01-29 13:06:58.66	295.29	12.11	-43.2	-44.1	20.7	0.00e+00	0	42	0	849346560	58	3898
2026-01-29 13:06:59.67	295.48	12.11	-43.2	-44.1	20.7	0.00e+00	0	42	0	852492288	58	3886
2026-01-29 13:07:00.68	295.68	12.10	-43.1	-44.1	20.8	0.00e+00	0	42	0	855638016	58	3874
2026-01-29 13:07:01.69	295.87	12.10	-43.1	-44.0	20.8	0.00e+00	0	42	0	858783744	58	3862
2026-01-29 13:07:02.70	296.06	12.09	-43.1	-44.1	20.8	0.00e+00	0	42	0	861929472	58	3874
2026-01-29 13:07:03.71	296.26	12.08	-43.2	-44.1	20.7	0.00e+00	0	42	0	865075200	58	3903
2026-01-29 13:07:04.71	296.45	12.08	-43.1	-44.0	20.7	0.00e+00	0	42	0	868220928	58	3862
2026-01-29 13:07:05.72	296.64	12.07	-43.2	-44.2	20.6	0.00e+00	0	42	0	871366656	58	3917
2026-01-29 13:07:06.73	296.84	12.07	-43.3	-44.2	20.6	0.00e+00	0	42	0	874512384	58	3954
2026-01-29 13:07:07.73	297.03	12.06	-43.1	-44.1	20.7	0.00e+00	0	42	0	877658112	58	3885
2026-01-29 13:07:08.74	297.22	12.05	-43.1	-44.0	20.8	0.00e+00	0	42	0	880803840	58	3846
2026-01-29 13:07:09.75	297.41	12.04	-43.2	-44.1	20.7	0.00e+00	0	42	0	883949568	58	3909
2026-01-29 13:07:10.76	297.60	12.04	-43.3	-44.2	20.5	0.00e+00	0	42	0	887095296	58	3952
2026-01-29 13:07:11.77	297.80	12.03	-43.2	-44.2	20.6	0.00e+00	0	42	0	890241024	58	3935
2026-01-29 13:07:12.78	297.99	12.02	-43.2	-44.1	20.6	0.00e+00	0	42	0	893386752	58	3912
2026-01-29 13:07:13.79	298.18	12.01	-43.3	-44.2	20.6	0.00e+00	0	42	0	896532480	58	3937
2026-01-29 13:07:14.80	298.37	12.00	-43.3	-44.3	20.5	0.00e+00	0	42	0	899678208	58	3960
2026-01-29 13:07:15.81	298.57	11.99	-43.3	-44.3	20.5	0.00e+00	0	42	0	902823936	58	3965
2026-01-29 13:07:16.82	298.76	11.98	-43.3	-44.2	20.5	0.00e+00	0	42	0	905969664	58	3952
2026-01-29 13:07:17.82	298.95	11.98	-43.3	-44.3	20.5	0.00e+00	0	42	0	909115392	58	3974
2026-01-29 13:07:18.83	299.14	11.97	-43.3	-44.2	20.5	0.00e+00	0	42	0	912261120	58	3955
2026-01-29 13:07:19.84	299.33	11.95	-43.1	-44.1	20.6	0.00e+00	0	42	0	915406848	58	3888
2026-01-29 13:07:20.85	299.52	11.94	-43.1	-44.0	20.7	0.00e+00	0	42	0	918552576	58	3845
2026-01-29 13:07:21.85	299.71	11.93	-43.1	-44.0	20.6	0.00e+00	0	42	0	921698304	58	3858
2026-01-29 13:07:22.86	299.90	11.92	-43.1	-44.0	20.7	0.00e+00	0	42	0	924844032	58	3848
2026-01-29 13:07:23.87	300.09	11.91	-43.2	-44.1	20.6	0.00e+00	0	42	0	927989760	58	3904
2026-01-29 13:07:24.88	300.29	11.90	-43.2	-44.2	20.5	0.00e+00	0	42	0	931135488	58	3933
2026-01-29 13:07:25.89	300.48	11.89	-43.1	-44.1	20.6	0.00e+00	0	42	0	934281216	58	3881
2026-01-29 13:07:26.90	300.67	11.88	-43.1	-44.0	20.7	0.00e+00	0	42	0	937426944	58	3857
2026-01-29 13:07:27.91	300.86	11.86	-43.2	-44.2	20.6	0.00e+00	0	42	0	940572672	58	3914
2026-01-29 13:07:28.91	301.05	11.85	-43.1	-44.1	20.6	0.00e+00	0	42	0	943718400	58	3869
2026-01-29 13:07:29.92	301.24	11.84	-43.2	-44.2	20.5	0.00e+00	0	42	0	946864128	58	3921
2026-01-29 13:07:30.93	301.43	11.82	-43.3	-44.3	20.4	0.00e+00	0	42	0	950009856	58	3961
2026-01-29 13:07:31.94	301.62	11.81	-43.3	-44.2	20.5	0.00e+00	0	42	0	953155584	58	3951
2026-01-29 13:07:32.94	301.80	11.80	-43.3	-44.3	20.4	0.00e+00	0	42	0	956301312	58	3986
2026-01-29 13:07:33.95	301.99	11.78	-43.2	-44.2	20.5	0.00e+00	0	42	0	959447040	58	3929
2026-01-29 13:07:34.96	302.18	11.77	-43.2	-44.2	20.5	0.00e+00	0	41	0	962592768	58	3924
2026-01-29 13:07:35.97	302.37	11.75	-42.9	-43.8	20.8	0.00e+00	0	42	0	965738496	57	4004
2026-01-29 13:07:36.98	302.56	11.74	-42.9	-43.8	20.8	0.00e+00	0	42	0	968884224	57	3980
2026-01-29 13:07:37.99	302.75	11.72	-42.9	-43.9	20.8	0.00e+00	0	42	0	972029952	57	4005
2026-01-29 13:07:39.00	302.94	11.71	-43.0	-43.9	20.8	0.00e+00	0	42	0	975175680	57	4022
2026-01-29 13:07:40.01	303.13	11.69	-43.0	-43.9	20.7	0.00e+00	0	42	0	978321408	57	4048
2026-01-29 13:07:41.01	303.31	11.68	-43.0	-43.9	20.7	0.00e+00	0	42	0	981467136	57	4044
2026-01-29 13:07:42.02	303.50	11.66	-43.1	-44.0	20.7	0.00e+00	0	42	0	984612864	57	4072
2026-01-29 13:07:43.03	303.69	11.64	-43.1	-44.1	20.6	0.00e+00	0	42	0	987758592	57	4109
2026-01-29 13:07:44.04	303.88	11.63	-43.2	-44.1	20.6	0.00e+00	0	42	0	990904320	57	4129
2026-01-29 13:07:45.05	304.06	11.61	-43.2	-44.1	20.6	0.00e+00	0	42	0	994050048	57	4131
2026-01-29 13:07:46.05	304.25	11.59	-43.1	-44.1	20.6	0.00e+00	0	42	0	997195776	57	4113
2026-01-29 13:07:47.06	304.43	11.57	-43.2	-44.1	20.6	0.00e+00	0	42	0	1000341504	57	4132
2026-01-29 13:07:48.07	304.62	11.56	-43.1	-44.0	20.6	0.00e+00	0	42	0	1003487232	57	4088
2026-01-29 13:07:49.08	304.81	11.54	-43.1	-44.1	20.6	0.00e+00	0	42	0	1006632960	57	4117
2026-01-29 13:07:50.09	304.99	11.52	-43.1	-44.1	20.6	0.00e+00	0	42	0	1009778688	57	4108
2026-01-29 13:07:51.09	305.18	11.50	-43.2	-44.2	20.5	0.00e+00	0	42	0	1012924416	57	4152
2026-01-29 13:07:52.10	305.36	11.48	-43.2	-44.2	20.5	0.00e+00	0	42	0	1016070144	57	4150
2026-01-29 13:07:53.11	305.55	11.46	-43.1	-44.1	20.5	0.00e+00	0	42	0	1019215872	57	4116
2026-01-29 13:07:54.12	305.73	11.44	-43.1	-44.0	20.6	0.00e+00	0	42	0	1022361600	57	4083
2026-01-29 13:07:55.13	305.92	11.42	-43.0	-44.0	20.6	0.00e+00	0	42	0	1025507328	57	4076
2026-01-29 13:07:56.13	306.10	11.41	-43.1	-44.0	20.6	0.00e+00	0	42	0	1028653056	57	4077
2026-01-29 13:07:57.14	306.29	11.39	-43.1	-44.0	20.6	0.00e+00	0	42	0	1031798784	57	4090
2026-01-29 13:07:58.14	306.47	11.37	-43.1	-44.0	20.5	0.00e+00	0	42	0	1034944512	57	4093
2026-01-29 13:07:59.15	306.65	11.34	-43.0	-43.9	20.7	0.00e+00	0	41	0	1038090240	57	4028
2026-01-29 13:08:00.16	306.84	11.32	-43.0	-43.9	20.6	0.00e+00	0	42	0	1041235968	57	4039
2026-01-29 13:08:01.17	307.02	11.30	-43.0	-43.9	20.7	0.00e+00	0	42	0	1044381696	57	4038
2026-01-29 13:08:02.18	307.20	11.28	-42.9	-43.8	20.7	0.00e+00	0	42	0	1047527424	57	4002
2026-01-29 13:08:03.19	307.39	11.26	-43.0	-43.9	20.7	0.00e+00	0	42	0	1050673152	57	4025
2026-01-29 13:08:04.20	307.57	11.24	-43.0	-43.9	20.6	0.00e+00	0	42	0	1053818880	57	4033
2026-01-29 13:08:05.21	307.75	11.22	-42.9	-43.9	20.7	0.00e+00	0	42	0	1056964608	57	4015
2026-01-29 13:08:06.22	307.93	11.19	-43.0	-43.9	20.7	0.00e+00	0	42	0	1060110336	57	4036
2026-01-29 13:08:07.23	308.12	11.17	-43.0	-43.9	20.6	0.00e+00	0	42	0	1063256064	57	4048
2026-01-29 13:08:08.24	308.30	11.15	-43.0	-43.9	20.7	0.00e+00	0	42	0	1066401792	57	4026
2026-01-29 13:08:09.25	308.48	11.13	-43.0	-44.0	20.6	0.00e+00	0	42	0	1069547520	57	4063
2026-01-29 13:08:10.26	308.66	11.10	-43.2	-44.1	20.5	0.00e+00	0	42	0	1072693248	57	4140
2026-01-29 13:08:11.26	308.84	11.08	-43.1	-44.0	20.6	0.00e+00	0	42	0	1075838976	57	4081
2026-01-29 13:08:12.27	309.02	11.06	-43.0	-43.9	20.7	0.00e+00	0	42	0	1078984704	57	4034
2026-01-29 13:08:13.28	309.20	11.03	-43.0	-44.0	20.6	0.00e+00	0	42	0	1082130432	57	4068
2026-01-29 13:08:14.29	309.38	11.01	-42.8	-43.7	20.8	0.00e+00	0	42	0	1086324736	57	3954
2026-01-29 13:08:15.30	309.56	10.98	-42.8	-43.7	20.8	0.00e+00	0	42	0	1089470464	57	3936
2026-01-29 13:08:16.31	309.74	10.96	-42.8	-43.7	20.8	0.00e+00	0	42	0	1092616192	57	3939
2026-01-29 13:08:17.31	309.92	10.93	-42.8	-43.7	20.8	0.00e+00	0	42	0	1094713344	57	3939
2026-01-29 13:08:18.32	310.09	10.91	-42.8	-43.7	20.8	0.00e+00	0	42	0	1097859072	57	3935
2026-01-29 13:08:19.33	310.27	10.88	-42.8	-43.7	20.8	0.00e+00	0	42	0	1101004800	57	3923
2026-01-29 13:08:20.33	310.45	10.86	-42.7	-43.6	20.9	0.00e+00	0	42	0	1104150528	57	3898
2026-01-29 13:08:21.34	310.63	10.83	-42.8	-43.7	20.9	0.00e+00	0	41	0	1107296256	57	3918
2026-01-29 13:08:22.35	310.80	10.81	-42.8	-43.7	20.8	0.00e+00	0	42	0	1110441984	57	3948
2026-01-29 13:08:23.36	310.98	10.78	-42.7	-43.7	20.8	0.00e+00	0	42	0	1113587712	57	3916
2026-01-29 13:08:24.37	311.16	10.75	-42.7	-43.6	20.8	0.00e+00	0	42	0	1116733440	57	3910
2026-01-29 13:08:25.38	311.34	10.73	-42.8	-43.8	20.8	0.00e+00	0	42	0	1119879168	57	3959
2026-01-29 13:08:26.39	311.51	10.70	-42.8	-43.8	20.7	0.00e+00	0	42	0	1124073472	57	3960
2026-01-29 13:08:27.40	311.69	10.67	-42.8	-43.7	20.7	0.00e+00	0	42	0	1127219200	57	3948
2026-01-29 13:08:28.41	311.86	10.65	-42.8	-43.7	20.7	0.00e+00	0	42	0	1130364928	57	3948
2026-01-29 13:08:29.42	312.04	10.62	-42.9	-43.8	20.7	0.00e+00	0	42	0	1133510656	57	3982
2026-01-29 13:08:30.43	312.21	10.59	-42.8	-43.8	20.7	0.00e+00	0	42	0	1136656384	57	3968
2026-01-29 13:08:31.44	312.39	10.56	-42.8	-43.8	20.7	0.00e+00	0	42	0	1139802112	57	3962
2026-01-29 13:08:32.45	312.56	10.54	-42.8	-43.7	20.7	0.00e+00	0	42	0	1141899264	57	3951
2026-01-29 13:08:33.46	312.74	10.51	-42.8	-43.7	20.8	0.00e+00	0	42	0	1145044992	57	3938
2026-01-29 13:08:34.47	312.91	10.48	-42.8	-43.8	20.7	0.00e+00	0	42	0	1148190720	57	3960
2026-01-29 13:08:35.48	313.08	10.45	-42.9	-43.8	20.7	0.00e+00	0	42	0	1151336448	57	3973
2026-01-29 13:08:36.49	313.26	10.42	-42.9	-43.9	20.6	0.00e+00	0	42	0	1155530752	57	4012
2026-01-29 13:08:37.50	313.43	10.39	-42.9	-43.8	20.6	0.00e+00	0	42	0	1158676480	57	3995
2026-01-29 13:08:38.51	313.60	10.36	-43.0	-44.0	20.5	0.00e+00	0	42	0	1161822208	57	4060
2026-01-29 13:08:39.52	313.78	10.34	-43.1	-44.1	20.4	0.00e+00	0	42	0	1164967936	57	4108
2026-01-29 13:08:40.53	313.95	10.31	-43.0	-44.0	20.5	0.00e+00	0	42	0	1168113664	57	4076
2026-01-29 13:08:41.54	314.12	10.28	-43.1	-44.1	20.4	0.00e+00	0	41	0	1171259392	57	4124
2026-01-29 13:08:42.55	314.29	10.25	-43.1	-44.1	20.4	0.00e+00	0	42	0	1174405120	57	4119
2026-01-29 13:08:43.56	314.46	10.22	-43.3	-44.3	20.2	0.00e+00	0	42	0	1177550848	57	4195
2026-01-29 13:08:44.57	314.63	10.19	-43.1	-44.0	20.4	0.00e+00	0	42	0	1180696576	57	4094
2026-01-29 13:08:45.58	314.80	10.16	-43.1	-44.0	20.4	0.00e+00	0	42	0	1183842304	57	4088
2026-01-29 13:08:46.59	314.97	10.13	-43.1	-44.0	20.4	0.00e+00	0	42	0	1186988032	57	4088
2026-01-29 13:08:47.60	315.14	10.09	-43.0	-44.0	20.5	0.00e+00	0	41	0	1190133760	57	4054
2026-01-29 13:08:48.61	315.31	10.06	-43.0	-44.0	20.5	0.00e+00	0	42	0	1193279488	57	4067
2026-01-29 13:08:49.62	315.48	10.03	-43.1	-44.0	20.4	0.00e+00	0	42	0	1196425216	57	4079
2026-01-29 13:08:50.63	315.65	10.00	-43.1	-44.1	20.4	0.00e+00	0	42	0	1199570944	57	4100
2026-01-29 13:08:51.64	315.81	9.97	-43.1	-44.1	20.4	0.00e+00	0	42	0	1202716672	57	4122
2026-01-29 13:08:52.65	315.98	9.94	-43.1	-44.1	20.3	0.00e+00	0	42	0	1205862400	57	4128
2026-01-29 13:08:53.65	316.15	9.91	-43.0	-44.0	20.4	0.00e+00	0	42	0	1209008128	57	4077
2026-01-29 13:08:54.66	316.31	9.87	-43.1	-44.1	20.4	0.00e+00	0	42	0	1212153856	57	4107
2026-01-29 13:08:55.67	316.48	9.84	-43.1	-44.1	20.4	0.00e+00	0	42	0	1215299584	57	4120
2026-01-29 13:08:56.69	316.65	9.81	-43.2	-44.1	20.3	0.00e+00	0	42	0	1218445312	57	4142
2026-01-29 13:08:57.69	316.81	9.78	-43.2	-44.1	20.3	0.00e+00	0	42	0	1221591040	57	4137
2026-01-29 13:08:58.70	316.98	9.74	-43.2	-44.2	20.2	0.00e+00	0	42	0	1224736768	57	4179
2026-01-29 13:08:59.71	317.14	9.71	-43.2	-44.2	20.2	0.00e+00	0	42	0	1227882496	57	4169
2026-01-29 13:09:00.71	317.31	9.68	-43.2	-44.1	20.3	0.00e+00	0	42	0	1231028224	57	4143
2026-01-29 13:09:01.73	317.47	9.65	-43.1	-44.1	20.3	0.00e+00	0	42	0	1234173952	57	4101
2026-01-29 13:09:02.73	317.63	9.61	-43.0	-44.0	20.4	0.00e+00	0	42	0	1237319680	57	4054
2026-01-29 13:09:03.74	317.80	9.58	-43.1	-44.0	20.3	0.00e+00	0	42	0	1240465408	57	4097
2026-01-29 13:09:04.75	317.96	9.55	-43.0	-43.9	20.4	0.00e+00	0	42	0	1243611136	57	4037
2026-01-29 13:09:05.76	318.12	9.51	-43.0	-43.9	20.4	0.00e+00	0	41	0	1246756864	57	4048
2026-01-29 13:09:06.77	318.29	9.48	-42.9	-43.8	20.5	0.00e+00	0	42	0	1249902592	57	3989
2026-01-29 13:09:07.78	318.45	9.44	-42.8	-43.7	20.6	0.00e+00	0	42	0	1253048320	57	3948
2026-01-29 13:09:08.78	318.61	9.41	-42.8	-43.7	20.6	0.00e+00	0	42	0	1256194048	57	3948
2026-01-29 13:09:09.79	318.77	9.38	-42.8	-43.7	20.6	0.00e+00	0	42	0	1259339776	57	3958
2026-01-29 13:09:10.80	318.93	9.34	-42.9	-43.9	20.5	0.00e+00	0	42	0	1262485504	57	4010
2026-01-29 13:09:11.81	319.09	9.31	-43.1	-44.1	20.3	0.00e+00	0	42	0	1265631232	57	4101
2026-01-29 13:09:12.82	319.25	9.27	-43.2	-44.2	20.2	0.00e+00	0	42	0	1268776960	57	4147
2026-01-29 13:09:13.83	319.41	9.24	-43.3	-44.3	20.0	0.00e+00	0	42	0	1271922688	57	4226
2026-01-29 13:09:14.84	319.57	9.20	-43.4	-44.5	19.9	0.00e+00	0	42	0	1275068416	57	4295
2026-01-29 13:09:15.85	319.73	9.17	-43.4	-44.4	19.9	0.00e+00	0	42	0	1278214144	57	4273
2026-01-29 13:09:16.86	319.89	9.13	-43.4	-44.4	20.0	0.00e+00	0	42	0	1281359872	57	4264
2026-01-29 13:09:17.87	320.05	9.09	-43.5	-44.5	19.9	0.00e+00	0	42	0	1284505600	57	4314
2026-01-29 13:09:18.88	320.21	9.06	-43.4	-44.5	19.9	0.00e+00	0	42	0	1287651328	57	4296
2026-01-29 13:09:19.89	320.37	9.02	-43.4	-44.4	20.0	0.00e+00	0	42	0	1290797056	57	4259
2026-01-29 13:09:20.90	320.52	8.99	-43.4	-44.4	19.9	0.00e+00	0	42	0	1293942784	57	4266
2026-01-29 13:09:21.91	320.68	8.95	-43.4	-44.4	19.9	0.00e+00	0	42	0	1297088512	57	4261
2026-01-29 13:09:22.91	320.84	8.92	-43.4	-44.4	19.9	0.00e+00	0	42	0	1300234240	57	4279
2026-01-29 13:09:23.92	320.99	8.88	-43.3	-44.4	19.9	0.00e+00	0	42	0	1303379968	57	4248
2026-01-29 13:09:24.92	321.15	8.84	-43.4	-44.4	19.9	0.00e+00	0	42	0	1306525696	57	4267
2026-01-29 13:09:25.93	321.30	8.81	-43.4	-44.4	19.9	0.00e+00	0	42	0	1309671424	57	4276
2026-01-29 13:09:26.94	321.46	8.77	-43.4	-44.4	20.0	0.00e+00	0	42	0	1312817152	57	4261
2026-01-29 13:09:27.95	321.61	8.73	-43.4	-44.4	19.9	0.00e+00	0	42	0	1315962880	57	4274
2026-01-29 13:09:28.96	321.77	8.70	-43.4	-44.4	19.9	0.00e+00	0	42	0	1319108608	57	4274
2026-01-29 13:09:29.97	321.92	8.66	-43.5	-44.5	19.8	0.00e+00	0	42	0	1322254336	57	4322
2026-01-29 13:09:30.98	322.07	8.62	-43.4	-44.4	19.9	0.00e+00	0	42	0	1325400064	57	4289
2026-01-29 13:09:31.99	322.23	8.58	-43.5	-44.5	19.8	0.00e+00	0	42	0	1328545792	57	4330
2026-01-29 13:09:33.00	322.38	8.55	-43.6	-44.6	19.7	0.00e+00	0	42	0	1331691520	57	4387
2026-01-29 13:09:34.01	322.53	8.51	-43.6	-44.7	19.6	0.00e+00	0	42	0	1334837248	57	4411
2026-01-29 13:09:35.01	322.68	8.47	-43.7	-44.8	19.6	0.00e+00	0	42	0	1337982976	58	4211
2026-01-29 13:09:36.02	322.83	8.43	-43.6	-44.7	19.7	0.00e+00	0	42	0	1341128704	58	4152
2026-01-29 13:09:37.03	322.99	8.40	-43.6	-44.7	19.6	0.00e+00	0	42	0	1344274432	58	4172
2026-01-29 13:09:38.04	323.14	8.36	-43.6	-44.6	19.7	0.00e+00	0	42	0	1347420160	58	4136
2026-01-29 13:09:39.05	323.29	8.32	-43.6	-44.7	19.6	0.00e+00	0	42	0	1350565888	58	4160
2026-01-29 13:09:40.06	323.44	8.28	-43.7	-44.8	19.5	0.00e+00	0	42	0	1353711616	58	4202
2026-01-29 13:09:41.06	323.59	8.24	-43.6	-44.6	19.7	0.00e+00	0	42	0	1356857344	58	4133
2026-01-29 13:09:42.07	323.74	8.21	-43.5	-44.5	19.8	0.00e+00	0	42	0	1360003072	58	4090
2026-01-29 13:09:43.08	323.88	8.17	-43.6	-44.6	19.7	0.00e+00	0	42	0	1363148800	58	4128
2026-01-29 13:09:44.09	324.03	8.13	-43.5	-44.5	19.8	0.00e+00	0	42	0	1366294528	58	4070
2026-01-29 13:09:45.09	324.18	8.09	-43.4	-44.4	19.9	0.00e+00	0	42	0	1369440256	58	4035
2026-01-29 13:09:46.10	324.33	8.05	-43.5	-44.5	19.8	0.00e+00	0	42	0	1372585984	58	4075
2026-01-29 13:09:47.11	324.48	8.01	-43.5	-44.6	19.7	0.00e+00	0	42	0	1375731712	58	4101
2026-01-29 13:09:48.12	324.62	7.97	-43.6	-44.7	19.6	0.00e+00	0	42	0	1378877440	58	4168
2026-01-29 13:09:49.13	324.77	7.93	-43.7	-44.7	19.6	0.00e+00	0	42	0	1382023168	58	4182
2026-01-29 13:09:50.14	324.92	7.89	-43.6	-44.7	19.6	0.00e+00	0	42	0	1385168896	58	4147
2026-01-29 13:09:51.15	325.06	7.86	-43.7	-44.7	19.6	0.00e+00	0	42	0	1388314624	58	4191
2026-01-29 13:09:52.16	325.21	7.82	-43.7	-44.7	19.5	0.00e+00	0	41	0	1391460352	58	4181
2026-01-29 13:09:53.17	325.35	7.78	-43.7	-44.8	19.5	0.00e+00	0	42	0	1394606080	58	4197
2026-01-29 13:09:54.17	325.50	7.74	-43.9	-45.0	19.3	0.00e+00	0	42	0	1397751808	58	4301
2026-01-29 13:09:55.18	325.64	7.70	-43.8	-44.9	19.3	0.00e+00	0	42	0	1400897536	58	4283
2026-01-29 13:09:56.19	325.79	7.66	-43.9	-45.0	19.3	0.00e+00	0	42	0	1404043264	58	4295
2026-01-29 13:09:57.21	325.93	7.62	-44.0	-45.1	19.2	0.00e+00	0	42	0	1407188992	58	4347
2026-01-29 13:09:58.21	326.07	7.58	-43.9	-45.1	19.2	0.00e+00	0	42	0	1410334720	58	4342
2026-01-29 13:09:59.22	326.22	7.54	-44.0	-45.1	19.2	0.00e+00	0	42	0	1413480448	58	4353
2026-01-29 13:10:00.23	326.36	7.50	-43.9	-45.0	19.3	0.00e+00	0	42	0	1416626176	58	4297
2026-01-29 13:10:01.23	326.50	7.46	-43.8	-44.9	19.3	0.00e+00	0	42	0	1419771904	58	4264
2026-01-29 13:10:02.24	326.64	7.42	-43.8	-44.9	19.4	0.00e+00	0	42	0	1422917632	58	4268
2026-01-29 13:10:03.25	326.78	7.38	-43.9	-45.0	19.3	0.00e+00	0	42	0	1426063360	58	4295
2026-01-29 13:10:04.26	326.92	7.34	-43.8	-44.9	19.3	0.00e+00	0	42	0	1429209088	58	4269
2026-01-29 13:10:05.27	327.06	7.30	-43.9	-45.0	19.3	0.00e+00	0	42	0	1432354816	58	4298
2026-01-29 13:10:06.27	327.20	7.26	-43.9	-45.0	19.2	0.00e+00	0	42	0	1435500544	58	4318
2026-01-29 13:10:07.28	327.34	7.21	-43.9	-45.1	19.2	0.00e+00	0	42	0	1438646272	58	4342
2026-01-29 13:10:08.29	327.48	7.17	-43.9	-45.0	19.2	0.00e+00	0	42	0	1441792000	58	4312
2026-01-29 13:10:09.30	327.62	7.13	-43.7	-44.8	19.4	0.00e+00	0	42	0	1444937728	58	4231
2026-01-29 13:10:10.31	327.76	7.09	-43.9	-45.0	19.2	0.00e+00	0	42	0	1448083456	58	4337
2026-01-29 13:10:11.32	327.90	7.05	-43.9	-45.0	19.2	0.00e+00	0	42	0	1451229184	58	4333
2026-01-29 13:10:12.33	328.04	7.01	-44.0	-45.1	19.1	0.00e+00	0	42	0	1454374912	58	4359
2026-01-29 13:10:13.33	328.17	6.97	-44.1	-45.2	19.0	0.00e+00	0	42	0	1457520640	58	4415
2026-01-29 13:10:14.34	328.31	6.93	-44.2	-45.3	18.8	0.00e+00	0	42	0	1460666368	58	4481
2026-01-29 13:10:15.35	328.45	6.89	-44.0	-45.2	19.1	0.00e+00	0	42	0	1463812096	58	4402
2026-01-29 13:10:16.36	328.58	6.84	-44.3	-45.4	18.9	0.00e+00	0	42	0	1466957824	59	4287
2026-01-29 13:10:17.37	328.72	6.80	-44.1	-45.2	19.0	0.00e+00	0	42	0	1470103552	59	4192
2026-01-29 13:10:18.37	328.86	6.76	-44.0	-45.2	19.0	0.00e+00	0	42	0	1473249280	59	4161
2026-01-29 13:10:19.38	328.99	6.72	-44.1	-45.2	19.0	0.00e+00	0	42	0	1476395008	59	4170
2026-01-29 13:10:20.39	329.13	6.68	-43.9	-45.1	19.1	0.00e+00	0	42	0	1479540736	59	4100
2026-01-29 13:10:21.39	329.26	6.64	-44.0	-45.2	19.0	0.00e+00	0	42	0	1482686464	59	4149
2026-01-29 13:10:22.40	329.39	6.60	-44.1	-45.2	19.0	0.00e+00	0	42	0	1485832192	59	4163
2026-01-29 13:10:23.41	329.53	6.55	-43.9	-45.0	19.2	0.00e+00	0	42	0	1488977920	59	4070
2026-01-29 13:10:24.41	329.66	6.51	-44.1	-45.2	19.0	0.00e+00	0	42	0	1492123648	59	4179
2026-01-29 13:10:25.42	329.79	6.47	-44.2	-45.3	18.9	0.00e+00	0	42	0	1495269376	59	4236
2026-01-29 13:10:26.43	329.93	6.43	-44.1	-45.2	19.0	0.00e+00	0	42	0	1498415104	59	4172
2026-01-29 13:10:27.44	330.06	6.39	-44.1	-45.2	19.0	0.00e+00	0	42	0	1501560832	59	4170
2026-01-29 13:10:28.45	330.19	6.34	-44.2	-45.3	18.9	0.00e+00	0	42	0	1504706560	59	4217
2026-01-29 13:10:29.46	330.32	6.30	-44.0	-45.1	19.0	0.00e+00	0	42	0	1507852288	59	4136
2026-01-29 13:10:30.47	330.45	6.26	-44.0	-45.1	19.0	0.00e+00	0	42	0	1510998016	59	4118
2026-01-29 13:10:31.47	330.58	6.22	-44.0	-45.2	19.0	0.00e+00	0	42	0	1514143744	59	4149
2026-01-29 13:10:32.48	330.72	6.18	-44.0	-45.1	19.0	0.00e+00	0	42	0	1517289472	59	4145
2026-01-29 13:10:33.49	330.85	6.13	-43.9	-45.0	19.1	0.00e+00	0	42	0	1520435200	59	4063
2026-01-29 13:10:34.50	330.98	6.09	-44.0	-45.1	19.0	0.00e+00	0	41	0	1523580928	59	4145
2026-01-29 13:10:35.51	331.11	6.05	-44.1	-45.3	18.8	0.00e+00	0	42	0	1526726656	59	4215
2026-01-29 13:10:36.51	331.23	6.01	-44.1	-45.3	18.9	0.00e+00	0	41	0	1529872384	59	4205
2026-01-29 13:10:37.52	331.36	5.96	-44.4	-45.6	18.6	0.00e+00	0	42	0	1533018112	59	4345
2026-01-29 13:10:38.53	331.49	5.92	-44.3	-45.5	18.7	0.00e+00	0	42	0	1536163840	59	4303
2026-01-29 13:10:39.54	331.62	5.88	-44.2	-45.4	18.7	0.00e+00	0	42	0	1539309568	59	4271
2026-01-29 13:10:40.54	331.75	5.84	-44.1	-45.2	18.9	0.00e+00	0	42	0	1542455296	59	4181
2026-01-29 13:10:41.55	331.87	5.79	-44.2	-45.4	18.6	0.00e+00	0	42	0	1545601024	59	4283
2026-01-29 13:10:42.56	332.00	5.75	-44.2	-45.3	18.8	0.00e+00	0	42	0	1548746752	59	4240
2026-01-29 13:10:43.57	332.13	5.71	-44.2	-45.4	18.7	3.00e-06	0	42	0	1551892480	59	4266
2026-01-29 13:10:44.57	332.25	5.66	-44.2	-45.3	18.8	0.00e+00	0	42	0	1555038208	59	4229
2026-01-29 13:10:45.58	332.38	5.62	-44.2	-45.4	18.7	0.00e+00	0	42	0	1558183936	59	4272
2026-01-29 13:10:46.59	332.50	5.58	-44.2	-45.4	18.6	0.00e+00	0	42	0	1561329664	59	4285
2026-01-29 13:10:47.60	332.63	5.54	-44.3	-45.5	18.5	0.00e+00	0	42	0	1564475392	59	4322
2026-01-29 13:10:48.61	332.75	5.49	-44.4	-45.6	18.4	0.00e+00	0	42	0	1567621120	59	4385
2026-01-29 13:10:49.62	332.88	5.45	-44.7	-46.0	18.1	0.00e+00	0	42	0	1570766848	59	4552
2026-01-29 13:10:50.63	333.00	5.41	-44.4	-45.6	18.4	0.00e+00	0	42	0	1573912576	59	4385
2026-01-29 13:10:51.64	333.13	5.36	-44.5	-45.7	18.3	0.00e+00	0	42	0	1577058304	59	4437
2026-01-29 13:10:52.65	333.25	5.32	-44.3	-45.5	18.5	0.00e+00	0	42	0	1580204032	59	4320
2026-01-29 13:10:53.65	333.37	5.28	-44.6	-45.9	18.2	0.00e+00	0	42	0	1583349760	59	4511
2026-01-29 13:10:54.66	333.50	5.23	-44.5	-45.8	18.3	0.00e+00	0	42	0	1586495488	59	4450
2026-01-29 13:10:55.67	333.62	5.19	-44.4	-45.6	18.4	0.00e+00	0	42	0	1589641216	59	4371
2026-01-29 13:10:56.67	333.74	5.15	-44.7	-46.0	18.0	0.00e+00	0	42	0	1592786944	59	4546
2026-01-29 13:10:57.68	333.86	5.10	-44.3	-45.6	18.0	0.00e+00	0	42	0	1595932672	60	4108
2026-01-29 13:10:58.69	333.98	5.06	-44.5	-45.9	17.6	0.00e+00	0	42	0	1599078400	60	4262
2026-01-29 13:10:59.70	334.10	5.02	-44.3	-45.6	17.9	0.00e+00	0	42	0	1602224128	59	4380
2026-01-29 13:11:00.71	334.22	4.97	-51.7	-60.8	5.1	7.00e-07	2	42	0	1605369856	73	11189
2026-01-29 13:11:01.72	334.34	4.93	-52.5	-65.4	3.8	1.49e+00	0	42	104	1605369856	75	16900
2026-01-29 13:11:02.72	334.46	4.89	-52.9	-65.6	3.8	1.49e+00	0	42	104	1605369856	76	16489
2026-01-29 13:11:03.73	334.58	4.84	-53.1	-65.9	3.8	1.49e+00	0	42	104	1605369856	76	16898
2026-01-29 13:11:04.74	334.70	4.80	-53.2	-66.0	3.8	1.49e+00	0	42	104	1605369856	77	16161
2026-01-29 13:11:05.75	334.82	4.76	-53.3	-66.1	3.8	1.49e+00	0	42	104	1605369856	77	16387
2026-01-29 13:11:06.76	334.94	4.71	-53.4	-66.2	3.8	1.49e+00	0	42	104	1605369856	77	16566
2026-01-29 13:11:07.77	335.06	4.67	-53.5	-66.2	3.8	1.49e+00	0	42	104	1605369856	77	16651
2026-01-29 13:11:08.78	335.18	4.62	-53.5	-66.2	3.8	1.49e+00	0	42	104	1605369856	77	16665
2026-01-29 13:11:09.79	335.30	4.58	-53.5	-66.2	3.8	1.49e+00	0	42	104	1605369856	77	16654
2026-01-29 13:11:10.80	335.41	4.54	-53.5	-66.2	3.8	1.49e+00	0	42	104	1605369856	77	16591
2026-01-29 13:11:11.81	335.53	4.49	-53.4	-66.1	3.8	1.49e+00	0	42	104	1605369856	77	16435
2026-01-29 13:11:12.81	335.65	4.45	-53.2	-66.0	3.8	1.49e+00	0	42	104	1605369856	77	16139
2026-01-29 13:11:13.82	335.76	4.41	-53.2	-66.0	3.8	1.49e+00	0	42	104	1605369856	77	16171
2026-01-29 13:11:14.83	335.88	4.36	-53.3	-66.1	3.8	1.49e+00	0	42	104	1605369856	77	16322
2026-01-29 13:11:15.84	335.99	4.32	-53.3	-66.1	3.8	1.49e+00	0	42	104	1605369856	77	16342
2026-01-29 13:11:16.85	336.11	4.27	-53.4	-66.1	3.8	1.49e+00	0	42	104	1605369856	77	16501
2026-01-29 13:11:17.85	336.22	4.23	-53.4	-66.1	3.8	1.49e+00	0	42	104	1605369856	77	16480
2026-01-29 13:11:18.86	336.34	4.19	-53.4	-66.2	3.8	1.49e+00	0	42	104	1605369856	77	16530
2026-01-29 13:11:19.87	336.45	4.14	-53.4	-66.2	3.8	1.49e+00	0	42	104	1605369856	77	16554
2026-01-29 13:11:20.88	336.57	4.10	-53.5	-66.3	3.8	1.49e+00	0	42	104	1605369856	77	16721
2026-01-29 13:11:21.89	336.68	4.05	-53.5	-66.2	3.8	1.49e+00	0	42	104	1605369856	77	16623
2026-01-29 13:11:22.90	336.79	4.01	-53.4	-66.2	3.8	1.49e+00	0	42	104	1605369856	77	16528
2026-01-29 13:11:23.91	336.91	3.97	-53.4	-66.1	3.8	1.49e+00	0	42	104	1605369856	77	16420
2026-01-29 13:11:24.92	337.02	3.92	-53.4	-66.1	3.8	1.49e+00	0	42	104	1605369856	77	16458
2026-01-29 13:11:25.92	337.13	3.88	-53.3	-66.1	3.8	1.49e+00	0	42	104	1605369856	77	16391
2026-01-29 13:11:26.93	337.24	3.83	-53.3	-66.1	3.8	1.49e+00	0	42	104	1605369856	77	16332
2026-01-29 13:11:27.94	337.36	3.79	-53.3	-66.1	3.8	1.49e+00	0	42	104	1605369856	77	16355
2026-01-29 13:11:28.95	337.47	3.75	-53.3	-66.1	3.8	1.49e+00	0	42	104	1605369856	77	16315
2026-01-29 13:11:29.95	337.58	3.70	-53.3	-66.0	3.8	1.49e+00	0	42	104	1605369856	77	16285
2026-01-29 13:11:30.96	337.69	3.66	-53.3	-66.0	3.8	1.49e+00	0	42	104	1605369856	77	16257
2026-01-29 13:11:31.97	337.80	3.61	-53.3	-66.0	3.8	1.49e+00	0	42	104	1605369856	77	16233
2026-01-29 13:11:32.98	337.91	3.57	-53.3	-66.0	3.8	1.49e+00	0	42	104	1605369856	77	16251
2026-01-29 13:11:33.99	338.02	3.53	-53.3	-66.1	3.8	1.49e+00	0	42	104	1605369856	77	16316
2026-01-29 13:11:35.00	338.13	3.48	-53.3	-66.0	3.8	1.49e+00	0	42	104	1605369856	77	16198
2026-01-29 13:11:36.01	338.24	3.44	-53.3	-66.0	3.8	1.49e+00	0	42	104	1605369856	77	16199
2026-01-29 13:11:37.02	338.35	3.39	-53.2	-66.0	3.8	1.49e+00	0	42	104	1605369856	77	16143
2026-01-29 13:11:38.02	338.45	3.35	-53.2	-66.0	3.8	1.49e+00	0	42	104	1605369856	77	16159
2026-01-29 13:11:39.03	338.56	3.30	-53.2	-66.0	3.8	1.49e+00	0	42	104	1605369856	77	16197
2026-01-29 13:11:40.04	338.67	3.26	-53.2	-66.0	3.8	1.49e+00	0	42	104	1605369856	77	16197
2026-01-29 13:11:41.05	338.78	3.22	-53.2	-66.0	3.8	1.49e+00	0	42	104	1605369856	77	16132
2026-01-29 13:11:42.05	338.88	3.17	-53.2	-66.0	3.8	1.49e+00	0	42	104	1605369856	77	16199
2026-01-29 13:11:43.06	338.99	3.13	-53.2	-66.0	3.8	1.49e+00	0	42	104	1605369856	77	16137
2026-01-29 13:11:44.07	339.10	3.08	-53.2	-66.0	3.8	1.49e+00	0	42	104	1605369856	77	16134
2026-01-29 13:11:45.08	339.21	3.04	-53.2	-65.9	3.8	1.49e+00	0	42	104	1605369856	77	16109
2026-01-29 13:11:46.09	339.31	3.00	-53.2	-66.0	3.8	1.49e+00	0	42	104	1605369856	77	16132
2026-01-29 13:11:47.10	339.42	2.95	-53.2	-65.9	3.8	1.49e+00	0	42	104	1605369856	77	16040
2026-01-29 13:11:48.11	339.52	2.91	-53.2	-65.9	3.8	1.49e+00	0	42	104	1605369856	77	16086
2026-01-29 13:11:49.12	339.63	2.86	-53.2	-65.9	3.8	1.49e+00	0	42	104	1605369856	77	16034
2026-01-29 13:11:50.13	339.73	2.82	-53.2	-65.9	3.8	1.49e+00	0	42	104	1605369856	77	16045
2026-01-29 13:11:51.14	339.84	2.77	-53.2	-65.9	3.8	1.49e+00	0	42	104	1605369856	77	16061
2026-01-29 13:11:52.15	339.94	2.73	-53.2	-65.9	3.8	1.49e+00	0	42	104	1605369856	77	16059
2026-01-29 13:11:53.16	340.05	2.68	-53.2	-65.9	3.8	1.49e+00	0	42	104	1605369856	77	16104
2026-01-29 13:11:54.17	340.15	2.64	-53.2	-65.9	3.8	1.49e+00	0	42	104	1605369856	77	16060
2026-01-29 13:11:55.17	340.25	2.60	-53.2	-65.9	3.8	1.49e+00	0	42	104	1605369856	77	16063
2026-01-29 13:11:56.18	340.36	2.55	-53.2	-65.9	3.8	1.49e+00	0	42	104	1605369856	77	16083
2026-01-29 13:11:57.19	340.46	2.51	-53.1	-65.9	3.8	1.49e+00	0	42	104	1605369856	77	16022
2026-01-29 13:11:58.20	340.56	2.46	-53.1	-65.9	3.8	1.49e+00	0	42	104	1605369856	77	15989
2026-01-29 13:11:59.21	340.66	2.42	-53.1	-65.9	3.8	1.49e+00	0	42	104	1605369856	77	15989
2026-01-29 13:12:00.22	340.77	2.37	-53.1	-65.9	3.8	1.49e+00	0	42	104	1605369856	77	15966
2026-01-29 13:12:01.23	340.87	2.33	-53.1	-65.9	3.8	1.49e+00	0	42	104	1605369856	77	16020
2026-01-29 13:12:02.24	340.97	2.29	-53.1	-65.9	3.8	1.49e+00	0	42	104	1605369856	77	15946
2026-01-29 13:12:03.25	341.07	2.24	-53.1	-65.9	3.8	1.49e+00	0	42	104	1605369856	77	15957
2026-01-29 13:12:04.25	341.17	2.20	-53.1	-65.9	3.8	1.49e+00	0	42	104	1605369856	77	16027
2026-01-29 13:12:05.26	341.27	2.15	-53.1	-65.9	3.8	1.49e+00	0	42	104	1605369856	77	15949
2026-01-29 13:12:06.27	341.37	2.11	-53.1	-65.8	3.8	1.49e+00	0	42	104	1605369856	77	15938
2026-01-29 13:12:07.28	341.47	2.06	-53.1	-65.8	3.8	1.49e+00	0	42	104	1605369856	77	15897
2026-01-29 13:12:08.29	341.57	2.02	-53.1	-65.9	3.8	1.49e+00	0	42	104	1605369856	77	15953
2026-01-29 13:12:09.30	341.67	1.98	-53.1	-65.9	3.8	1.49e+00	0	42	104	1605369856	77	15958
2026-01-29 13:12:10.31	341.77	1.93	-53.1	-65.8	3.8	1.49e+00	0	42	104	1605369856	77	15930

#Closed at: 2026-01-29 13:12:10
#Recorded file [1605 MB]: D:/lorett/data/31041_260129_160120.dat