passes_logs/2026/01/29/R3.2S_Murmansk/R3.2S_Murmansk__20260129_011937_NOAA_21_JPSS-2_rec.log

#Pass ID: 20260129_011937_NOAA 21 (JPSS-2)
#Satellite: NOAA 21 (JPSS-2)
#Configuration: NOAA-21
#almurnet v.1.7.20251203
#Start time: 2026-01-29 01:19:37

#Version: 2.2.20231116
#Station: R3.2S_Murmansk
#Location: 33.079688 lon 68.888172 lat
#TLE: 1 54234U 22150A   26027.91149249  .00000141  00000+0  87546-4 0  9993
#TLE: 2 54234  98.7510 328.6558 0000880 202.8718 157.2419 14.19540177166642

#Time	Az	El	Level	Level2	SNR	BER	BlckErr	Temp	State	Recorded	gain1	gain2
2026-01-29 01:19:37.59	27.19	2.01	-53.9	-66.7	3.8	1.49e+00	0	40	0	0	79	15649
2026-01-29 01:19:38.59	27.17	2.07	-53.3	-66.1	3.8	1.49e+00	0	40	104	0	78	15569
2026-01-29 01:19:39.60	27.16	2.14	-53.1	-65.9	3.8	1.49e+00	0	40	104	0	78	15106
2026-01-29 01:19:40.61	27.15	2.20	-52.8	-65.6	3.8	1.49e+00	0	40	104	0	77	15489
2026-01-29 01:19:41.62	27.14	2.27	-52.4	-65.1	3.8	1.49e+00	0	40	104	0	76	15466
2026-01-29 01:19:42.63	27.12	2.33	-51.9	-64.5	3.8	1.49e+00	0	40	104	0	75	15390
2026-01-29 01:19:43.64	27.11	2.40	-51.9	-64.5	3.8	1.49e+00	0	40	104	0	75	15368
2026-01-29 01:19:44.65	27.10	2.46	-51.9	-64.5	3.8	1.49e+00	0	40	104	0	75	15301
2026-01-29 01:19:45.66	27.08	2.53	-51.9	-64.5	3.8	1.49e+00	0	40	104	0	75	15239
2026-01-29 01:19:46.67	27.07	2.59	-51.8	-64.5	3.8	1.49e+00	0	40	104	0	75	15228
2026-01-29 01:19:47.67	27.06	2.66	-51.8	-64.4	3.8	1.49e+00	0	40	104	0	75	15207
2026-01-29 01:19:48.68	27.04	2.72	-51.8	-64.4	3.8	1.49e+00	0	40	104	0	75	15150
2026-01-29 01:19:49.69	27.03	2.79	-51.8	-64.4	3.8	1.49e+00	0	40	104	0	75	15061
2026-01-29 01:19:50.70	27.02	2.85	-51.8	-64.3	3.8	1.49e+00	0	40	104	0	75	14926
2026-01-29 01:19:51.71	27.00	2.92	-51.8	-64.2	3.8	1.49e+00	0	41	104	0	75	14852
2026-01-29 01:19:52.72	26.99	2.99	-51.8	-64.1	3.8	1.49e+00	0	40	104	0	75	14647
2026-01-29 01:19:53.73	26.97	3.05	-51.8	-64.2	3.8	1.49e+00	0	40	104	0	75	14842
2026-01-29 01:19:54.73	26.96	3.12	-51.8	-64.3	3.8	1.49e+00	0	41	104	0	75	14956
2026-01-29 01:19:55.74	26.95	3.19	-51.8	-64.4	3.8	1.49e+00	0	40	104	0	75	15151
2026-01-29 01:19:56.75	26.93	3.25	-51.8	-64.5	3.8	1.49e+00	0	40	104	0	75	15345
2026-01-29 01:19:57.76	26.92	3.32	-51.8	-64.5	3.8	1.49e+00	0	40	104	0	75	15282
2026-01-29 01:19:58.77	26.90	3.39	-51.8	-64.2	3.8	1.49e+00	0	41	104	0	75	14790
2026-01-29 01:19:59.77	26.89	3.45	-51.8	-63.9	3.8	1.49e+00	0	41	104	0	75	14220
2026-01-29 01:20:00.78	26.87	3.52	-51.7	-63.2	3.8	1.49e+00	0	41	104	0	75	13117
2026-01-29 01:20:01.79	26.86	3.59	-51.6	-62.3	3.9	1.49e+00	0	41	104	0	75	11858
2026-01-29 01:20:02.80	26.84	3.66	-51.5	-61.2	4.1	1.48e+00	0	41	104	0	75	10470
2026-01-29 01:20:03.81	26.83	3.72	-51.4	-60.5	4.3	1.46e+00	0	41	104	0	74	10285
2026-01-29 01:20:04.81	26.81	3.79	-51.4	-60.1	4.5	1.43e+00	0	41	104	0	74	9805
2026-01-29 01:20:05.82	26.80	3.86	-51.3	-59.6	4.7	1.09e+00	0	41	104	0	74	9216
2026-01-29 01:20:06.83	26.78	3.93	-51.2	-59.6	4.1	1.46e+00	0	41	104	0	74	9235
2026-01-29 01:20:07.84	26.77	4.00	-51.1	-58.6	5.2	6.55e-01	0	41	0	1048576	74	8220
2026-01-29 01:20:08.85	26.75	4.07	-51.0	-58.1	5.5	4.48e-01	0	41	0	4194304	74	7772
2026-01-29 01:20:09.86	26.74	4.14	-50.9	-57.5	5.9	3.83e-01	0	41	0	7340032	73	7693
2026-01-29 01:20:10.87	26.72	4.20	-50.8	-57.3	6.1	2.89e-01	0	41	0	10485760	73	7500
2026-01-29 01:20:11.88	26.71	4.27	-50.7	-56.7	6.6	2.25e-01	0	41	0	13631488	73	7028
2026-01-29 01:20:12.88	26.69	4.34	-50.6	-56.3	6.9	1.70e-01	0	41	0	16777216	73	6700
2026-01-29 01:20:13.89	26.68	4.41	-50.5	-56.0	7.3	1.54e-01	0	41	0	19922944	72	6815
2026-01-29 01:20:14.90	26.66	4.48	-50.3	-55.4	7.8	7.06e-02	0	41	0	24117248	72	6352
2026-01-29 01:20:15.91	26.64	4.55	-50.0	-54.7	8.5	5.45e-02	0	41	0	27262976	72	5896
2026-01-29 01:20:16.91	26.63	4.62	-49.9	-54.3	9.0	3.11e-02	0	41	0	30408704	71	5940
2026-01-29 01:20:17.92	26.61	4.69	-49.9	-54.2	9.0	2.58e-02	0	41	0	33554432	71	5907
2026-01-29 01:20:18.93	26.60	4.76	-49.9	-54.2	9.1	2.52e-02	0	41	0	35651584	71	5920
2026-01-29 01:20:19.94	26.58	4.83	-50.0	-54.7	8.6	3.51e-02	0	41	0	38797312	71	6213
2026-01-29 01:20:20.95	26.56	4.91	-50.3	-55.3	8.0	5.08e-02	0	41	0	41943040	71	6664
2026-01-29 01:20:21.95	26.55	4.98	-50.3	-55.5	7.8	6.75e-02	0	41	0	45088768	71	6844
2026-01-29 01:20:22.96	26.53	5.05	-50.5	-56.2	7.1	1.33e-01	0	41	0	48234496	71	7372
2026-01-29 01:20:23.96	26.51	5.12	-51.5	-60.8	4.2	1.48e+00	0	41	104	50331648	73	11226
2026-01-29 01:20:24.97	26.50	5.19	-50.4	-55.4	7.9	2.00e-01	0	41	0	50331648	72	6367
2026-01-29 01:20:25.98	26.48	5.26	-51.6	-64.3	3.8	4.60e-01	0	41	104	52428800	73	16868
2026-01-29 01:20:26.99	26.46	5.33	-45.7	-47.2	16.2	6.03e-02	0	41	0	52428800	63	4179
2026-01-29 01:20:28.00	26.45	5.41	-51.7	-62.7	3.8	8.19e-01	0	41	104	54525952	73	13937
2026-01-29 01:20:29.01	26.43	5.48	-45.9	-47.5	16.1	5.85e-04	0	41	0	55574528	63	4294
2026-01-29 01:20:30.01	26.41	5.55	-45.1	-46.5	17.2	0.00e+00	0	41	0	58720256	62	4063
2026-01-29 01:20:31.02	26.39	5.62	-45.0	-46.4	17.3	0.00e+00	0	41	0	61865984	61	4254
2026-01-29 01:20:32.03	26.38	5.70	-44.8	-46.2	17.5	0.00e+00	0	41	0	65011712	61	4164
2026-01-29 01:20:33.03	26.36	5.77	-44.6	-46.0	17.7	0.00e+00	0	41	0	68157440	61	4054
2026-01-29 01:20:34.04	26.34	5.84	-44.7	-46.0	17.7	0.00e+00	0	41	0	71303168	61	4067
2026-01-29 01:20:35.05	26.32	5.92	-44.9	-46.2	17.4	0.00e+00	0	41	0	74448896	61	4187
2026-01-29 01:20:36.05	26.30	5.99	-44.7	-46.0	17.7	0.00e+00	0	41	0	77594624	61	4084
2026-01-29 01:20:37.06	26.29	6.07	-44.8	-46.1	17.6	0.00e+00	0	41	0	80740352	61	4118
2026-01-29 01:20:38.07	26.27	6.14	-44.7	-46.0	17.7	0.00e+00	0	41	0	83886080	61	4073
2026-01-29 01:20:39.08	26.25	6.21	-44.6	-45.9	17.8	0.00e+00	0	41	0	87031808	61	4031
2026-01-29 01:20:40.09	26.23	6.29	-44.7	-46.0	17.7	0.00e+00	0	41	0	90177536	61	4067
2026-01-29 01:20:41.10	26.21	6.36	-44.7	-46.0	17.7	0.00e+00	0	41	0	93323264	61	4084
2026-01-29 01:20:42.11	26.19	6.44	-44.5	-45.8	18.0	0.00e+00	0	41	0	96468992	61	3989
2026-01-29 01:20:43.12	26.17	6.51	-44.5	-45.7	18.0	0.00e+00	0	41	0	99614720	60	4185
2026-01-29 01:20:44.13	26.16	6.59	-44.4	-45.7	18.1	0.00e+00	0	41	0	102760448	60	4150
2026-01-29 01:20:45.14	26.14	6.67	-44.5	-45.7	18.1	0.00e+00	0	41	0	105906176	60	4179
2026-01-29 01:20:46.15	26.12	6.74	-44.5	-45.7	18.0	0.00e+00	0	41	0	109051904	60	4192
2026-01-29 01:20:47.16	26.10	6.82	-44.3	-45.5	18.4	0.00e+00	0	41	0	112197632	60	4065
2026-01-29 01:20:48.16	26.08	6.89	-44.3	-45.5	18.3	0.00e+00	0	41	0	115343360	60	4072
2026-01-29 01:20:49.17	26.06	6.97	-44.3	-45.5	18.3	0.00e+00	0	41	0	118489088	60	4072
2026-01-29 01:20:50.17	26.04	7.05	-44.4	-45.6	18.2	0.00e+00	0	41	0	121634816	60	4134
2026-01-29 01:20:51.18	26.02	7.12	-44.1	-45.3	18.5	0.00e+00	0	42	0	124780544	60	4002
2026-01-29 01:20:52.19	26.00	7.20	-44.1	-45.3	18.5	0.00e+00	0	41	0	127926272	60	3971
2026-01-29 01:20:53.20	25.98	7.28	-44.3	-45.5	18.3	0.00e+00	0	41	0	131072000	60	4096
2026-01-29 01:20:54.21	25.96	7.36	-44.2	-45.4	18.4	0.00e+00	0	41	0	134217728	60	4020
2026-01-29 01:20:55.22	25.94	7.44	-44.1	-45.3	18.6	0.00e+00	0	41	0	137363456	60	3983
2026-01-29 01:20:56.23	25.92	7.51	-44.2	-45.4	18.5	0.00e+00	0	42	0	140509184	60	4016
2026-01-29 01:20:57.24	25.90	7.59	-44.0	-45.1	18.7	0.00e+00	0	41	0	143654912	60	3907
2026-01-29 01:20:58.25	25.88	7.67	-44.4	-45.6	18.6	0.00e+00	0	42	0	146800640	59	4390
2026-01-29 01:20:59.26	25.86	7.75	-44.2	-45.4	18.8	0.00e+00	0	42	0	149946368	59	4270
2026-01-29 01:21:00.27	25.83	7.83	-44.4	-45.6	18.7	0.00e+00	0	41	0	153092096	59	4356
2026-01-29 01:21:01.28	25.81	7.91	-44.4	-45.6	18.6	0.00e+00	0	41	0	156237824	59	4390
2026-01-29 01:21:02.29	25.79	7.99	-44.3	-45.4	18.8	0.00e+00	0	41	0	159383552	59	4283
2026-01-29 01:21:03.29	25.77	8.07	-44.2	-45.4	18.9	0.00e+00	0	42	0	162529280	59	4258
2026-01-29 01:21:04.30	25.75	8.15	-44.3	-45.4	18.8	0.00e+00	0	42	0	165675008	59	4274
2026-01-29 01:21:05.31	25.73	8.23	-44.2	-45.3	19.0	0.00e+00	0	41	0	168820736	59	4229
2026-01-29 01:21:06.32	25.71	8.31	-44.1	-45.2	19.1	0.00e+00	0	41	0	171966464	59	4184
2026-01-29 01:21:07.33	25.68	8.39	-44.1	-45.2	19.1	0.00e+00	0	41	0	175112192	59	4171
2026-01-29 01:21:08.34	25.66	8.47	-44.1	-45.2	19.1	0.00e+00	0	41	0	178257920	59	4181
2026-01-29 01:21:09.35	25.64	8.55	-44.0	-45.2	19.1	0.00e+00	0	42	0	181403648	59	4156
2026-01-29 01:21:10.36	25.62	8.64	-44.2	-45.4	18.9	0.00e+00	0	41	0	184549376	59	4262
2026-01-29 01:21:11.37	25.59	8.72	-44.0	-45.1	19.2	0.00e+00	0	42	0	187695104	59	4121
2026-01-29 01:21:12.38	25.57	8.80	-43.9	-45.0	19.3	0.00e+00	0	42	0	190840832	59	4073
2026-01-29 01:21:13.39	25.55	8.88	-43.9	-45.0	19.3	0.00e+00	0	42	0	193986560	59	4097
2026-01-29 01:21:14.40	25.52	8.97	-43.9	-45.0	19.3	0.00e+00	0	41	0	197132288	59	4080
2026-01-29 01:21:15.40	25.50	9.05	-43.9	-44.9	19.4	0.00e+00	0	41	0	200278016	59	4048
2026-01-29 01:21:16.42	25.48	9.13	-43.8	-44.9	19.4	0.00e+00	0	42	0	203423744	59	4039
2026-01-29 01:21:17.43	25.45	9.22	-43.7	-44.8	19.5	0.00e+00	0	42	0	206569472	59	3991
2026-01-29 01:21:18.44	25.43	9.30	-43.8	-44.9	19.5	0.00e+00	0	42	0	209715200	59	4013
2026-01-29 01:21:19.44	25.41	9.38	-43.7	-44.8	19.5	0.00e+00	0	41	0	212860928	59	3982
2026-01-29 01:21:20.45	25.38	9.47	-43.8	-44.8	19.5	0.00e+00	0	41	0	216006656	59	4004
2026-01-29 01:21:21.47	25.36	9.55	-43.7	-44.8	19.6	0.00e+00	0	42	0	219152384	59	3961
2026-01-29 01:21:22.47	25.33	9.64	-43.6	-44.7	19.6	0.00e+00	0	42	0	222298112	59	3934
2026-01-29 01:21:23.48	25.31	9.72	-43.7	-44.7	19.6	0.00e+00	0	41	0	225443840	59	3943
2026-01-29 01:21:24.49	25.29	9.81	-43.7	-44.8	19.6	0.00e+00	0	42	0	228589568	59	3980
2026-01-29 01:21:25.50	25.26	9.90	-43.5	-44.6	19.8	0.00e+00	0	42	0	232783872	59	3881
2026-01-29 01:21:26.51	25.24	9.98	-43.5	-44.5	19.8	0.00e+00	0	42	0	234881024	58	4065
2026-01-29 01:21:27.52	25.21	10.07	-43.5	-44.6	19.8	0.00e+00	0	42	0	238026752	58	4109
2026-01-29 01:21:28.53	25.18	10.16	-43.5	-44.5	19.9	0.00e+00	0	42	0	241172480	58	4071
2026-01-29 01:21:29.53	25.16	10.24	-43.5	-44.5	19.8	0.00e+00	0	42	0	244318208	58	4073
2026-01-29 01:21:30.54	25.13	10.33	-43.5	-44.5	19.8	0.00e+00	0	42	0	247463936	58	4092
2026-01-29 01:21:31.54	25.11	10.42	-43.4	-44.4	19.9	0.00e+00	0	42	0	250609664	58	4042
2026-01-29 01:21:32.55	25.08	10.50	-43.4	-44.4	19.9	0.00e+00	0	42	0	253755392	58	4042
2026-01-29 01:21:33.56	25.06	10.59	-43.3	-44.4	20.0	0.00e+00	0	42	0	256901120	58	4005
2026-01-29 01:21:34.57	25.03	10.68	-43.3	-44.4	20.0	0.00e+00	0	42	0	260046848	58	4012
2026-01-29 01:21:35.58	25.00	10.77	-43.3	-44.3	20.1	0.00e+00	0	42	0	263192576	58	3984
2026-01-29 01:21:36.59	24.98	10.86	-43.4	-44.4	19.9	0.00e+00	0	41	0	266338304	58	4045
2026-01-29 01:21:37.60	24.95	10.95	-43.3	-44.4	20.0	0.00e+00	0	42	0	270532608	58	4007
2026-01-29 01:21:38.61	24.92	11.04	-43.3	-44.3	20.1	0.00e+00	0	42	0	273678336	58	3994
2026-01-29 01:21:39.61	24.89	11.13	-43.4	-44.4	20.0	0.00e+00	0	42	0	276824064	58	4020
2026-01-29 01:21:40.62	24.87	11.22	-43.3	-44.4	20.0	0.00e+00	0	42	0	279969792	58	4006
2026-01-29 01:21:41.63	24.84	11.31	-43.3	-44.3	20.0	0.00e+00	0	42	0	282066944	58	4003
2026-01-29 01:21:42.64	24.81	11.40	-43.3	-44.4	20.0	0.00e+00	0	42	0	285212672	58	4009
2026-01-29 01:21:43.65	24.78	11.49	-43.3	-44.3	20.1	0.00e+00	0	42	0	288358400	58	3978
2026-01-29 01:21:44.66	24.75	11.59	-43.3	-44.3	20.1	0.00e+00	0	42	0	291504128	58	3962
2026-01-29 01:21:45.67	24.72	11.68	-43.3	-44.3	20.1	0.00e+00	0	42	0	294649856	58	3999
2026-01-29 01:21:46.68	24.70	11.77	-43.3	-44.3	20.1	0.00e+00	0	42	0	297795584	58	3974
2026-01-29 01:21:47.69	24.67	11.86	-43.2	-44.2	20.2	0.00e+00	0	42	0	300941312	58	3931
2026-01-29 01:21:48.70	24.64	11.96	-43.2	-44.2	20.2	0.00e+00	0	42	0	305135616	58	3946
2026-01-29 01:21:49.71	24.61	12.05	-43.2	-44.1	20.3	0.00e+00	0	42	0	308281344	58	3907
2026-01-29 01:21:50.72	24.58	12.14	-43.1	-44.1	20.3	0.00e+00	0	42	0	311427072	58	3894
2026-01-29 01:21:51.72	24.55	12.24	-43.1	-44.1	20.3	0.00e+00	0	42	0	314572800	58	3888
2026-01-29 01:21:52.73	24.52	12.33	-43.2	-44.2	20.3	0.00e+00	0	42	0	317718528	58	3925
2026-01-29 01:21:53.74	24.49	12.43	-43.1	-44.1	20.3	0.00e+00	0	42	0	320864256	58	3900
2026-01-29 01:21:54.75	24.46	12.52	-43.1	-44.0	20.4	0.00e+00	0	42	0	324009984	58	3856
2026-01-29 01:21:55.76	24.43	12.62	-43.1	-44.0	20.4	0.00e+00	0	42	0	327155712	58	3866
2026-01-29 01:21:56.77	24.40	12.72	-43.0	-44.0	20.4	0.00e+00	0	42	0	329252864	58	3843
2026-01-29 01:21:57.78	24.36	12.81	-43.0	-44.0	20.4	0.00e+00	0	42	0	332398592	58	3851
2026-01-29 01:21:58.79	24.33	12.91	-43.0	-43.9	20.5	0.00e+00	0	42	0	335544320	57	4035
2026-01-29 01:21:59.80	24.30	13.01	-43.0	-44.0	20.4	0.00e+00	0	42	0	339738624	57	4073
2026-01-29 01:22:00.81	24.27	13.10	-43.0	-44.0	20.5	0.00e+00	0	42	0	342884352	57	4077
2026-01-29 01:22:01.82	24.24	13.20	-43.0	-43.9	20.5	0.00e+00	0	42	0	346030080	57	4041
2026-01-29 01:22:02.83	24.20	13.30	-42.9	-43.8	20.6	0.00e+00	0	42	0	349175808	57	3993
2026-01-29 01:22:03.84	24.17	13.40	-42.9	-43.9	20.6	0.00e+00	0	42	0	352321536	57	4007
2026-01-29 01:22:04.84	24.14	13.50	-42.9	-43.8	20.6	0.00e+00	0	42	0	355467264	57	3999
2026-01-29 01:22:05.85	24.11	13.60	-42.9	-43.8	20.6	0.00e+00	0	42	0	358612992	57	3990
2026-01-29 01:22:06.86	24.07	13.70	-42.9	-43.9	20.6	0.00e+00	0	42	0	361758720	57	4026
2026-01-29 01:22:07.87	24.04	13.80	-42.9	-43.9	20.6	0.00e+00	0	42	0	364904448	57	4028
2026-01-29 01:22:08.88	24.00	13.90	-42.9	-43.8	20.6	0.00e+00	0	42	0	368050176	57	4000
2026-01-29 01:22:09.89	23.97	14.00	-42.7	-43.7	20.8	0.00e+00	0	42	0	371195904	57	3921
2026-01-29 01:22:10.89	23.94	14.10	-42.7	-43.6	20.9	0.00e+00	0	42	0	374341632	57	3885
2026-01-29 01:22:11.90	23.90	14.20	-42.7	-43.6	20.8	0.00e+00	0	42	0	377487360	57	3893
2026-01-29 01:22:12.91	23.87	14.30	-42.6	-43.6	20.9	0.00e+00	0	42	0	380633088	57	3871
2026-01-29 01:22:13.92	23.83	14.41	-42.6	-43.5	20.9	0.00e+00	0	42	0	383778816	57	3868
2026-01-29 01:22:14.93	23.80	14.51	-42.7	-43.6	20.9	0.00e+00	0	42	0	386924544	57	3880
2026-01-29 01:22:15.94	23.76	14.61	-42.6	-43.5	20.9	0.00e+00	0	42	0	390070272	57	3860
2026-01-29 01:22:16.94	23.72	14.72	-42.6	-43.5	20.9	0.00e+00	0	42	0	393216000	57	3867
2026-01-29 01:22:17.95	23.69	14.82	-42.6	-43.6	20.9	0.00e+00	0	42	0	396361728	57	3874
2026-01-29 01:22:18.96	23.65	14.93	-42.7	-43.7	20.8	0.00e+00	0	42	0	399507456	57	3917
2026-01-29 01:22:19.96	23.61	15.03	-42.5	-43.4	21.0	0.00e+00	0	42	0	402653184	57	3821
2026-01-29 01:22:20.97	23.58	15.14	-42.7	-43.6	20.9	0.00e+00	0	42	0	405798912	57	3876
2026-01-29 01:22:21.98	23.54	15.24	-42.6	-43.5	21.0	0.00e+00	0	42	0	408944640	57	3850
2026-01-29 01:22:22.99	23.50	15.35	-42.7	-43.6	20.9	0.00e+00	0	42	0	412090368	57	3878
2026-01-29 01:22:24.00	23.46	15.46	-42.6	-43.5	21.0	0.00e+00	0	42	0	415236096	57	3863
2026-01-29 01:22:25.01	23.42	15.57	-42.6	-43.5	20.9	0.00e+00	0	42	0	418381824	57	3866
2026-01-29 01:22:26.02	23.39	15.67	-42.6	-43.5	21.0	0.00e+00	0	42	0	421527552	57	3860
2026-01-29 01:22:27.03	23.35	15.78	-42.7	-43.6	20.9	0.00e+00	0	42	0	424673280	57	3899
2026-01-29 01:22:28.04	23.31	15.89	-42.7	-43.6	21.0	0.00e+00	0	42	0	427819008	57	3877
2026-01-29 01:22:29.05	23.27	16.00	-42.7	-43.6	20.9	0.00e+00	0	42	0	430964736	57	3905
2026-01-29 01:22:30.05	23.23	16.11	-42.7	-43.6	20.9	0.00e+00	0	42	0	434110464	57	3911
2026-01-29 01:22:31.06	23.19	16.22	-42.7	-43.6	20.9	0.00e+00	0	42	0	437256192	57	3887
2026-01-29 01:22:32.07	23.15	16.33	-42.8	-43.7	20.9	0.00e+00	0	42	0	440401920	57	3925
2026-01-29 01:22:33.09	23.11	16.45	-42.8	-43.8	20.8	0.00e+00	0	42	0	443547648	57	3959
2026-01-29 01:22:34.09	23.06	16.56	-42.8	-43.7	20.9	0.00e+00	0	42	0	446693376	57	3930
2026-01-29 01:22:35.10	23.02	16.67	-42.8	-43.7	20.9	0.00e+00	0	42	0	449839104	57	3938
2026-01-29 01:22:36.11	22.98	16.78	-42.8	-43.7	20.8	0.00e+00	0	42	0	452984832	57	3953
2026-01-29 01:22:37.12	22.94	16.90	-42.8	-43.7	20.9	0.00e+00	0	42	0	456130560	57	3929
2026-01-29 01:22:38.13	22.90	17.01	-42.9	-43.8	20.8	0.00e+00	0	42	0	459276288	57	3975
2026-01-29 01:22:39.14	22.85	17.12	-42.8	-43.7	20.8	0.00e+00	0	42	0	462422016	57	3958
2026-01-29 01:22:40.15	22.81	17.24	-42.8	-43.7	20.9	0.00e+00	0	42	0	465567744	57	3955
2026-01-29 01:22:41.16	22.77	17.36	-42.8	-43.8	20.9	0.00e+00	0	42	0	468713472	57	3964
2026-01-29 01:22:42.17	22.72	17.47	-42.8	-43.7	20.9	0.00e+00	0	42	0	471859200	57	3924
2026-01-29 01:22:43.17	22.68	17.59	-42.9	-43.8	20.8	0.00e+00	0	42	0	475004928	57	3988
2026-01-29 01:22:44.18	22.63	17.70	-42.8	-43.7	20.9	0.00e+00	0	42	0	478150656	57	3938
2026-01-29 01:22:45.19	22.59	17.82	-42.8	-43.8	20.9	0.00e+00	0	42	0	481296384	57	3959
2026-01-29 01:22:46.20	22.54	17.94	-42.9	-43.8	20.8	0.00e+00	0	42	0	484442112	57	3979
2026-01-29 01:22:47.21	22.50	18.06	-42.7	-43.7	21.0	0.00e+00	0	42	0	487587840	57	3915
2026-01-29 01:22:48.22	22.45	18.18	-42.8	-43.7	20.9	0.00e+00	0	42	0	490733568	57	3936
2026-01-29 01:22:49.23	22.40	18.30	-42.8	-43.7	20.9	0.00e+00	0	42	0	493879296	57	3946
2026-01-29 01:22:50.24	22.35	18.42	-42.7	-43.6	21.0	0.00e+00	0	42	0	497025024	57	3897
2026-01-29 01:22:51.25	22.31	18.54	-42.7	-43.6	21.0	0.00e+00	0	42	0	500170752	57	3912
2026-01-29 01:22:52.26	22.26	18.66	-42.8	-43.7	20.9	0.00e+00	0	42	0	503316480	57	3929
2026-01-29 01:22:53.27	22.21	18.78	-42.7	-43.6	21.1	0.00e+00	0	42	0	506462208	57	3873
2026-01-29 01:22:54.28	22.16	18.91	-42.6	-43.5	21.2	0.00e+00	0	42	0	509607936	57	3829
2026-01-29 01:22:55.28	22.11	19.03	-42.7	-43.6	21.1	0.00e+00	0	42	0	512753664	57	3891
2026-01-29 01:22:56.29	22.06	19.15	-42.8	-43.7	21.0	0.00e+00	0	42	0	515899392	57	3927
2026-01-29 01:22:57.30	22.01	19.28	-42.5	-43.4	21.3	0.00e+00	0	42	0	519045120	57	3790
2026-01-29 01:22:58.31	21.96	19.40	-42.4	-43.3	21.3	0.00e+00	0	42	0	522190848	56	3979
2026-01-29 01:22:59.31	21.91	19.53	-42.4	-43.3	21.4	0.00e+00	0	42	0	525336576	56	3971
2026-01-29 01:23:00.32	21.86	19.65	-42.5	-43.4	21.3	0.00e+00	0	42	0	528482304	56	4008
2026-01-29 01:23:01.33	21.81	19.78	-42.4	-43.3	21.4	0.00e+00	0	42	0	531628032	56	3964
2026-01-29 01:23:02.34	21.75	19.91	-42.4	-43.2	21.4	0.00e+00	0	42	0	534773760	56	3957
2026-01-29 01:23:03.35	21.70	20.04	-42.4	-43.2	21.4	0.00e+00	0	42	0	537919488	56	3953
2026-01-29 01:23:04.35	21.65	20.17	-42.3	-43.1	21.5	0.00e+00	0	42	0	541065216	56	3905
2026-01-29 01:23:05.36	21.59	20.29	-42.3	-43.1	21.5	0.00e+00	0	42	0	544210944	56	3913
2026-01-29 01:23:06.37	21.54	20.43	-42.3	-43.2	21.4	0.00e+00	0	42	0	547356672	56	3936
2026-01-29 01:23:07.38	21.49	20.56	-42.2	-43.1	21.6	0.00e+00	0	42	0	550502400	56	3870
2026-01-29 01:23:08.39	21.43	20.69	-42.2	-43.0	21.5	0.00e+00	0	42	0	553648128	56	3866
2026-01-29 01:23:09.39	21.37	20.82	-42.1	-43.0	21.6	0.00e+00	0	42	0	556793856	56	3840
2026-01-29 01:23:10.40	21.32	20.95	-42.1	-43.0	21.6	0.00e+00	0	42	0	559939584	56	3841
2026-01-29 01:23:11.41	21.26	21.09	-42.1	-42.9	21.6	0.00e+00	0	42	0	563085312	56	3820
2026-01-29 01:23:12.41	21.20	21.22	-42.0	-42.8	21.7	0.00e+00	0	42	0	566231040	56	3771
2026-01-29 01:23:13.42	21.15	21.35	-42.0	-42.9	21.7	0.00e+00	0	42	0	569376768	56	3797
2026-01-29 01:23:14.43	21.09	21.49	-42.0	-42.8	21.7	0.00e+00	0	42	0	572522496	56	3767
2026-01-29 01:23:15.44	21.03	21.62	-41.8	-42.6	21.8	0.00e+00	0	42	0	575668224	55	3907
2026-01-29 01:23:16.45	20.97	21.76	-41.8	-42.6	21.8	0.00e+00	0	42	0	578813952	55	3895
2026-01-29 01:23:17.46	20.91	21.90	-41.7	-42.5	21.9	0.00e+00	0	42	0	581959680	55	3858
2026-01-29 01:23:18.47	20.85	22.04	-41.8	-42.6	21.9	0.00e+00	0	42	0	585105408	55	3880
2026-01-29 01:23:19.48	20.79	22.18	-41.7	-42.5	22.0	0.00e+00	0	42	0	588251136	55	3840
2026-01-29 01:23:20.49	20.72	22.32	-41.6	-42.4	22.1	0.00e+00	0	42	0	591396864	55	3796
2026-01-29 01:23:21.50	20.66	22.46	-41.6	-42.4	22.1	0.00e+00	0	42	0	594542592	55	3808
2026-01-29 01:23:22.51	20.60	22.60	-41.5	-42.3	22.2	0.00e+00	0	42	0	597688320	54	3969
2026-01-29 01:23:23.52	20.53	22.74	-41.3	-42.1	22.4	0.00e+00	0	42	0	600834048	54	3895
2026-01-29 01:23:24.52	20.47	22.88	-41.3	-42.1	22.4	0.00e+00	0	42	0	603979776	54	3880
2026-01-29 01:23:25.53	20.40	23.03	-41.2	-42.0	22.4	0.00e+00	0	42	0	607125504	54	3853
2026-01-29 01:23:26.54	20.34	23.17	-41.3	-42.1	22.4	0.00e+00	0	42	0	610271232	54	3875
2026-01-29 01:23:27.55	20.27	23.32	-41.1	-41.9	22.5	0.00e+00	0	42	0	613416960	54	3793
2026-01-29 01:23:28.56	20.21	23.46	-41.2	-41.9	22.5	0.00e+00	0	42	0	616562688	54	3824
2026-01-29 01:23:29.57	20.14	23.61	-41.2	-42.0	22.5	0.00e+00	0	42	0	619708416	54	3840
2026-01-29 01:23:30.58	20.07	23.76	-41.1	-41.8	22.6	0.00e+00	0	42	0	622854144	54	3769
2026-01-29 01:23:31.59	20.00	23.90	-41.1	-41.9	22.6	0.00e+00	0	42	0	625999872	54	3787
2026-01-29 01:23:32.60	19.93	24.05	-41.1	-41.9	22.5	0.00e+00	0	42	0	629145600	54	3814
2026-01-29 01:23:33.61	19.86	24.20	-41.1	-41.9	22.6	0.00e+00	0	42	0	632291328	54	3795
2026-01-29 01:23:34.62	19.79	24.35	-41.2	-42.0	22.5	0.00e+00	0	42	0	635437056	54	3859
2026-01-29 01:23:35.63	19.72	24.50	-41.2	-42.0	22.5	0.00e+00	0	42	0	638582784	54	3837
2026-01-29 01:23:36.63	19.64	24.66	-41.3	-42.1	22.4	0.00e+00	0	42	0	641728512	54	3887
2026-01-29 01:23:37.64	19.57	24.81	-41.4	-42.2	22.4	0.00e+00	0	42	0	644874240	54	3915
2026-01-29 01:23:38.64	19.50	24.96	-41.3	-42.1	22.4	0.00e+00	0	42	0	648019968	54	3903
2026-01-29 01:23:39.65	19.42	25.12	-41.4	-42.2	22.4	0.00e+00	0	42	0	651165696	54	3922
2026-01-29 01:23:40.67	19.35	25.27	-41.4	-42.3	22.3	0.00e+00	0	42	0	654311424	54	3960
2026-01-29 01:23:41.67	19.27	25.43	-41.5	-42.3	22.2	0.00e+00	0	42	0	657457152	54	3978
2026-01-29 01:23:42.68	19.19	25.59	-41.5	-42.3	22.2	0.00e+00	0	42	0	660602880	54	4000
2026-01-29 01:23:43.69	19.12	25.74	-41.5	-42.3	22.2	0.00e+00	0	42	0	663748608	54	3982
2026-01-29 01:23:44.69	19.04	25.90	-41.5	-42.3	22.2	0.00e+00	0	42	0	666894336	54	3999
2026-01-29 01:23:45.70	18.96	26.06	-41.8	-42.6	22.0	0.00e+00	0	42	0	670040064	54	4114
2026-01-29 01:23:46.71	18.88	26.22	-41.9	-42.7	21.9	0.00e+00	0	42	0	673185792	54	4159
2026-01-29 01:23:47.72	18.80	26.38	-41.9	-42.7	21.9	0.00e+00	0	42	0	676331520	54	4168
2026-01-29 01:23:48.73	18.71	26.55	-41.9	-42.8	21.8	0.00e+00	0	42	0	679477248	54	4197
2026-01-29 01:23:49.74	18.63	26.71	-42.1	-42.9	21.7	0.00e+00	0	42	0	682622976	54	4265
2026-01-29 01:23:50.74	18.55	26.87	-42.3	-43.1	21.6	0.00e+00	0	42	0	685768704	55	4119
2026-01-29 01:23:51.75	18.46	27.04	-42.2	-43.1	21.6	0.00e+00	0	42	0	688914432	55	4099
2026-01-29 01:23:52.76	18.38	27.21	-42.4	-43.2	21.4	0.00e+00	0	42	0	692060160	55	4191
2026-01-29 01:23:53.77	18.29	27.37	-42.5	-43.4	21.3	0.00e+00	0	42	0	695205888	55	4251
2026-01-29 01:23:54.78	18.20	27.54	-42.6	-43.5	21.2	0.00e+00	0	42	0	698351616	55	4311
2026-01-29 01:23:55.78	18.11	27.71	-42.7	-43.6	21.2	0.00e+00	0	42	0	701497344	55	4367
2026-01-29 01:23:56.79	18.02	27.88	-42.8	-43.7	21.1	0.00e+00	0	42	0	704643072	56	4184
2026-01-29 01:23:57.80	17.93	28.05	-43.0	-43.9	21.0	0.00e+00	0	42	0	707788800	56	4243
2026-01-29 01:23:58.80	17.84	28.22	-43.1	-44.0	20.9	0.00e+00	0	42	0	710934528	56	4312
2026-01-29 01:23:59.82	17.75	28.40	-42.9	-43.8	21.0	0.00e+00	0	42	0	714080256	56	4231
2026-01-29 01:24:00.82	17.65	28.57	-42.9	-43.8	21.0	0.00e+00	0	42	0	717225984	56	4239
2026-01-29 01:24:01.83	17.56	28.74	-43.0	-43.9	21.0	0.00e+00	0	42	0	720371712	56	4258
2026-01-29 01:24:02.84	17.46	28.92	-43.0	-43.9	21.0	0.00e+00	0	42	0	723517440	56	4271
2026-01-29 01:24:03.84	17.37	29.10	-43.0	-43.9	21.0	0.00e+00	0	42	0	726663168	56	4253
2026-01-29 01:24:04.85	17.27	29.27	-43.0	-43.9	21.0	0.00e+00	0	42	0	729808896	56	4250
2026-01-29 01:24:05.86	17.17	29.45	-42.8	-43.7	21.1	0.00e+00	0	42	0	732954624	56	4175
2026-01-29 01:24:06.87	17.07	29.63	-42.9	-43.7	21.1	0.00e+00	0	42	0	736100352	56	4193
2026-01-29 01:24:07.87	16.97	29.81	-42.7	-43.5	21.4	0.00e+00	0	42	0	739246080	56	4080
2026-01-29 01:24:08.87	16.87	29.99	-42.7	-43.6	21.3	0.00e+00	0	42	0	742391808	56	4103
2026-01-29 01:24:09.88	16.76	30.18	-42.7	-43.6	21.3	0.00e+00	0	42	0	745537536	56	4121
2026-01-29 01:24:10.88	16.66	30.36	-42.5	-43.3	21.5	0.00e+00	0	42	0	748683264	56	4004
2026-01-29 01:24:11.89	16.55	30.55	-42.5	-43.3	21.5	0.00e+00	0	42	0	751828992	56	3994
2026-01-29 01:24:12.90	16.44	30.73	-42.4	-43.3	21.5	0.00e+00	0	42	0	754974720	56	3967
2026-01-29 01:24:13.91	16.33	30.92	-42.5	-43.4	21.4	0.00e+00	0	42	0	758120448	56	4007
2026-01-29 01:24:14.91	16.22	31.11	-42.3	-43.2	21.6	0.00e+00	0	42	0	761266176	56	3931
2026-01-29 01:24:15.92	16.11	31.30	-42.1	-43.0	21.7	0.00e+00	0	42	0	764411904	56	3827
2026-01-29 01:24:16.93	16.00	31.49	-42.1	-42.9	21.8	0.00e+00	0	42	0	767557632	56	3813
2026-01-29 01:24:17.94	15.88	31.68	-42.2	-43.0	21.7	0.00e+00	0	42	0	770703360	56	3861
2026-01-29 01:24:18.95	15.77	31.87	-42.3	-43.1	21.6	0.00e+00	0	42	0	773849088	56	3898
2026-01-29 01:24:19.96	15.65	32.07	-42.4	-43.3	21.4	0.00e+00	0	42	0	776994816	56	3981
2026-01-29 01:24:20.96	15.53	32.26	-42.5	-43.3	21.4	0.00e+00	0	42	0	780140544	56	3996
2026-01-29 01:24:21.97	15.41	32.46	-42.6	-43.5	21.3	0.00e+00	0	42	0	783286272	56	4065
2026-01-29 01:24:22.98	15.29	32.66	-42.8	-43.6	21.2	0.00e+00	0	42	0	786432000	56	4141
2026-01-29 01:24:23.99	15.17	32.86	-42.8	-43.7	21.2	0.00e+00	0	42	0	789577728	56	4150
2026-01-29 01:24:25.00	15.04	33.06	-42.9	-43.8	21.1	0.00e+00	0	42	0	792723456	56	4229
2026-01-29 01:24:26.01	14.92	33.26	-42.9	-43.8	21.2	0.00e+00	0	42	0	795869184	56	4214
2026-01-29 01:24:27.01	14.79	33.46	-43.0	-43.9	21.1	0.00e+00	0	42	0	799014912	56	4253
2026-01-29 01:24:28.02	14.66	33.66	-42.9	-43.8	21.2	0.00e+00	0	42	0	802160640	56	4216
2026-01-29 01:24:29.03	14.53	33.87	-42.9	-43.8	21.2	0.00e+00	0	42	0	805306368	56	4231
2026-01-29 01:24:30.04	14.39	34.07	-42.9	-43.8	21.2	0.00e+00	0	42	0	808452096	56	4223
2026-01-29 01:24:31.05	14.26	34.28	-43.0	-43.8	21.2	0.00e+00	0	42	0	811597824	56	4242
2026-01-29 01:24:32.06	14.12	34.49	-43.1	-44.1	21.0	0.00e+00	0	42	0	814743552	56	4343
2026-01-29 01:24:33.07	13.98	34.70	-43.4	-44.3	20.7	0.00e+00	0	42	0	817889280	57	4218
2026-01-29 01:24:34.08	13.84	34.91	-43.7	-44.6	20.5	0.00e+00	0	42	0	821035008	57	4380
2026-01-29 01:24:35.09	13.70	35.12	-44.0	-45.0	20.2	0.00e+00	0	42	0	824180736	58	4329
2026-01-29 01:24:36.10	13.56	35.34	-44.2	-45.3	19.9	0.00e+00	0	42	0	828375040	58	4449
2026-01-29 01:24:37.11	13.41	35.55	-44.3	-45.3	19.9	0.00e+00	0	42	0	831520768	59	4219
2026-01-29 01:24:38.11	13.26	35.76	-44.4	-45.5	19.8	0.00e+00	0	42	0	834666496	59	4293
2026-01-29 01:24:39.12	13.11	35.98	-44.4	-45.4	19.8	0.00e+00	0	42	0	836763648	59	4280
2026-01-29 01:24:40.13	12.96	36.20	-44.4	-45.4	19.8	0.00e+00	0	42	0	839909376	59	4275
2026-01-29 01:24:41.13	12.81	36.42	-44.4	-45.4	19.8	0.00e+00	0	42	0	843055104	59	4286
2026-01-29 01:24:42.14	12.65	36.64	-44.4	-45.4	19.8	0.00e+00	0	42	0	846200832	59	4260
2026-01-29 01:24:43.15	12.49	36.86	-44.5	-45.6	19.7	0.00e+00	0	42	0	849346560	59	4359
2026-01-29 01:24:44.16	12.33	37.08	-44.5	-45.6	19.7	0.00e+00	0	42	0	852492288	59	4346
2026-01-29 01:24:45.17	12.17	37.31	-44.6	-45.7	19.5	0.00e+00	0	42	0	855638016	59	4421
2026-01-29 01:24:46.17	12.00	37.53	-44.5	-45.6	19.7	0.00e+00	0	42	0	858783744	59	4355
2026-01-29 01:24:47.18	11.84	37.76	-44.6	-45.6	19.6	0.00e+00	0	42	0	861929472	59	4373
2026-01-29 01:24:48.19	11.66	37.99	-44.7	-45.7	19.5	0.00e+00	0	42	0	865075200	59	4436
2026-01-29 01:24:49.20	11.49	38.22	-44.6	-45.7	19.6	0.00e+00	0	42	0	869269504	59	4403
2026-01-29 01:24:50.21	11.32	38.45	-44.6	-45.7	19.6	0.00e+00	0	42	0	872415232	59	4422
2026-01-29 01:24:51.22	11.14	38.68	-44.4	-45.5	19.4	0.00e+00	0	42	0	875560960	60	4063
2026-01-29 01:24:52.23	10.96	38.91	-44.3	-45.3	19.7	0.00e+00	0	42	0	878706688	60	3987
2026-01-29 01:24:53.24	10.78	39.15	-44.3	-45.3	19.7	0.00e+00	0	42	0	881852416	60	3979
2026-01-29 01:24:54.25	10.59	39.38	-44.4	-45.4	19.6	0.00e+00	0	42	0	883949568	60	4039
2026-01-29 01:24:55.25	10.40	39.62	-44.2	-45.2	19.8	0.00e+00	0	42	0	887095296	60	3920
2026-01-29 01:24:56.26	10.21	39.86	-44.1	-45.1	19.9	0.00e+00	0	42	0	890241024	60	3885
2026-01-29 01:24:57.27	10.02	40.10	-44.4	-45.4	19.8	0.00e+00	0	42	0	893386752	59	4267
2026-01-29 01:24:58.28	9.82	40.34	-44.5	-45.5	19.7	0.00e+00	0	42	0	896532480	59	4317
2026-01-29 01:24:59.29	9.62	40.58	-44.5	-45.6	19.6	0.00e+00	0	42	0	899678208	59	4364
2026-01-29 01:25:00.28	9.42	40.82	-44.4	-45.4	19.4	0.00e+00	0	42	0	902823936	60	4034
2026-01-29 01:25:01.28	9.21	41.06	-44.5	-45.6	19.2	0.00e+00	0	42	0	905969664	60	4134
2026-01-29 01:25:02.29	9.00	41.31	-44.8	-45.9	19.0	0.00e+00	0	42	0	909115392	60	4267
2026-01-29 01:25:03.30	8.79	41.55	-44.9	-46.1	18.8	0.00e+00	0	42	0	913309696	60	4361
2026-01-29 01:25:04.31	8.58	41.80	-45.1	-46.3	18.8	0.00e+00	0	42	0	916455424	60	4444
2026-01-29 01:25:05.32	8.36	42.05	-45.0	-46.1	18.9	0.00e+00	0	42	0	919601152	60	4367
2026-01-29 01:25:06.33	8.13	42.30	-44.7	-45.8	19.2	0.00e+00	0	42	0	922746880	60	4206
2026-01-29 01:25:07.33	7.91	42.55	-44.6	-45.7	19.2	0.00e+00	0	42	0	925892608	60	4179
2026-01-29 01:25:08.34	7.68	42.80	-44.6	-45.6	19.4	0.00e+00	0	42	0	929038336	60	4145
2026-01-29 01:25:09.35	7.44	43.06	-44.4	-45.4	19.6	0.00e+00	0	42	0	931135488	60	4047
2026-01-29 01:25:10.36	7.20	43.31	-44.5	-45.5	19.5	0.00e+00	0	42	0	934281216	60	4077
2026-01-29 01:25:11.36	6.97	43.57	-44.7	-45.8	19.2	0.00e+00	0	42	0	937426944	60	4216
2026-01-29 01:25:12.37	6.72	43.83	-45.0	-46.1	18.9	0.00e+00	0	42	0	940572672	60	4363
2026-01-29 01:25:13.38	6.47	44.08	-45.3	-46.5	18.5	0.00e+00	0	42	0	943718400	61	4331
2026-01-29 01:25:14.39	6.22	44.34	-45.6	-46.8	18.3	0.00e+00	0	42	0	946864128	61	4489
2026-01-29 01:25:15.39	5.96	44.60	-45.7	-47.0	18.1	0.00e+00	0	42	0	950009856	62	4318
2026-01-29 01:25:16.40	5.70	44.87	-45.8	-47.1	18.1	0.00e+00	0	42	0	954204160	62	4349
2026-01-29 01:25:17.41	5.43	45.13	-45.7	-46.9	18.3	0.00e+00	0	42	0	957349888	62	4255
2026-01-29 01:25:18.42	5.16	45.39	-45.3	-46.4	18.7	0.00e+00	0	42	0	960495616	62	4042
2026-01-29 01:25:19.43	4.88	45.66	-45.1	-46.2	19.0	0.00e+00	0	42	0	963641344	62	3934
2026-01-29 01:25:20.44	4.60	45.92	-44.9	-46.0	19.1	0.00e+00	0	42	0	966787072	61	4055
2026-01-29 01:25:21.45	4.32	46.19	-45.0	-46.1	19.0	0.00e+00	0	42	0	969932800	61	4128
2026-01-29 01:25:22.46	4.02	46.46	-44.6	-45.6	19.4	0.00e+00	0	42	0	973078528	61	3898
2026-01-29 01:25:23.46	3.73	46.73	-44.4	-45.5	19.6	0.00e+00	0	42	0	976224256	60	4067
2026-01-29 01:25:24.47	3.43	47.00	-44.7	-45.8	19.2	0.00e+00	0	42	0	978321408	60	4199
2026-01-29 01:25:25.48	3.12	47.27	-44.8	-45.9	19.1	0.00e+00	0	42	0	981467136	60	4288
2026-01-29 01:25:26.49	2.81	47.54	-44.9	-46.0	19.1	0.00e+00	0	42	0	984612864	60	4309
2026-01-29 01:25:27.50	2.50	47.81	-45.0	-46.1	19.0	0.00e+00	0	42	0	988807168	60	4376
2026-01-29 01:25:28.51	2.17	48.08	-44.8	-45.9	19.2	0.00e+00	0	42	0	991952896	60	4257
2026-01-29 01:25:29.51	1.85	48.35	-44.6	-45.7	19.4	0.00e+00	0	42	0	995098624	60	4154
2026-01-29 01:25:30.52	1.51	48.63	-44.5	-45.5	19.6	0.00e+00	0	42	0	998244352	60	4092
2026-01-29 01:25:31.53	1.17	48.90	-44.5	-45.5	19.6	0.00e+00	0	42	0	1001390080	60	4090
2026-01-29 01:25:32.54	0.82	49.18	-44.3	-45.3	19.8	0.00e+00	0	42	0	1004535808	60	3980
2026-01-29 01:25:33.55	0.47	49.46	-44.2	-45.2	20.2	0.00e+00	0	42	0	1007681536	59	4158
2026-01-29 01:25:34.55	0.11	49.73	-44.2	-45.1	20.2	0.00e+00	0	42	0	1010827264	59	4136
2026-01-29 01:25:35.56	359.75	50.01	-44.4	-45.4	20.1	0.00e+00	0	42	0	1013972992	59	4260
2026-01-29 01:25:36.57	359.37	50.28	-44.5	-45.5	19.9	0.00e+00	0	42	0	1017118720	59	4326
2026-01-29 01:25:37.57	359.00	50.56	-44.5	-45.5	19.9	0.00e+00	0	42	0	1020264448	59	4332
2026-01-29 01:25:38.58	358.61	50.84	-44.4	-45.4	19.7	0.00e+00	0	42	0	1023410176	60	4033
2026-01-29 01:25:39.59	358.22	51.12	-44.3	-45.3	20.1	0.00e+00	0	42	0	1025507328	59	4234
2026-01-29 01:25:40.59	357.82	51.39	-44.3	-45.3	20.2	0.00e+00	0	42	0	1028653056	59	4224
2026-01-29 01:25:41.60	357.41	51.67	-44.1	-45.1	20.4	0.00e+00	0	42	0	1032847360	59	4108
2026-01-29 01:25:42.61	356.99	51.95	-44.4	-45.4	20.1	0.00e+00	0	42	0	1035993088	59	4266
2026-01-29 01:25:43.61	356.57	52.23	-44.3	-45.3	19.9	0.00e+00	0	42	0	1039138816	60	3980
2026-01-29 01:25:44.62	356.14	52.50	-44.1	-45.2	20.0	0.00e+00	0	42	0	1042284544	60	3915
2026-01-29 01:25:45.63	355.69	52.78	-44.3	-45.3	19.9	0.00e+00	0	42	0	1045430272	60	3991
2026-01-29 01:25:46.63	355.25	53.06	-44.3	-45.3	20.2	0.00e+00	0	42	0	1048576000	59	4220
2026-01-29 01:25:47.64	354.79	53.34	-43.6	-44.5	20.8	0.00e+00	0	42	0	1051721728	59	3854
2026-01-29 01:25:48.65	354.32	53.61	-43.6	-44.5	20.8	0.00e+00	0	42	0	1054867456	59	3825
2026-01-29 01:25:49.66	353.84	53.89	-43.6	-44.6	20.8	0.00e+00	0	42	0	1058013184	59	3879
2026-01-29 01:25:50.67	353.36	54.17	-43.3	-44.2	21.1	0.00e+00	0	42	0	1061158912	58	3951
2026-01-29 01:25:51.68	352.86	54.44	-43.0	-43.8	21.5	0.00e+00	0	42	0	1064304640	57	3999
2026-01-29 01:25:52.69	352.35	54.72	-42.9	-43.8	21.6	0.00e+00	0	42	0	1067450368	57	3960
2026-01-29 01:25:53.70	351.84	54.99	-42.4	-43.2	22.0	0.00e+00	0	42	0	1070596096	56	3939
2026-01-29 01:25:54.71	351.31	55.27	-42.6	-43.4	21.8	0.00e+00	0	42	0	1073741824	56	4042
2026-01-29 01:25:55.72	350.78	55.54	-43.2	-44.1	21.1	0.00e+00	0	42	0	1076887552	56	4346
2026-01-29 01:25:56.73	350.23	55.81	-43.3	-44.3	21.0	0.00e+00	0	42	0	1080033280	57	4205
2026-01-29 01:25:57.74	349.67	56.08	-43.1	-44.0	21.3	0.00e+00	0	42	0	1083179008	57	4074
2026-01-29 01:25:58.74	349.11	56.35	-43.1	-44.0	21.3	0.00e+00	0	42	0	1086324736	57	4080
2026-01-29 01:25:59.75	348.53	56.61	-42.8	-43.6	21.7	0.00e+00	0	42	0	1089470464	57	3882
2026-01-29 01:26:00.76	347.94	56.88	-42.7	-43.5	21.7	0.00e+00	0	42	0	1092616192	57	3865
2026-01-29 01:26:01.77	347.34	57.14	-42.9	-43.8	21.5	0.00e+00	0	42	0	1095761920	57	3968
2026-01-29 01:26:02.78	346.72	57.41	-43.0	-43.9	21.4	0.00e+00	0	42	0	1098907648	57	4024
2026-01-29 01:26:03.79	346.10	57.67	-43.1	-44.0	21.4	0.00e+00	0	42	0	1102053376	57	4066
2026-01-29 01:26:04.79	345.47	57.92	-42.9	-43.8	21.6	0.00e+00	0	42	0	1105199104	57	3959
2026-01-29 01:26:05.80	344.81	58.18	-42.5	-43.3	21.9	0.00e+00	0	42	0	1108344832	57	3779
2026-01-29 01:26:06.81	344.15	58.43	-42.5	-43.3	21.9	0.00e+00	0	42	0	1111490560	57	3769
2026-01-29 01:26:07.82	343.48	58.68	-42.6	-43.4	21.9	0.00e+00	0	42	0	1114636288	56	4019
2026-01-29 01:26:08.82	342.79	58.92	-42.5	-43.3	22.0	0.00e+00	0	42	0	1117782016	56	3997
2026-01-29 01:26:09.83	342.09	59.17	-42.5	-43.4	21.9	0.00e+00	0	42	0	1120927744	56	4023
2026-01-29 01:26:10.84	341.38	59.41	-42.4	-43.3	22.0	0.00e+00	0	42	0	1124073472	56	3964
2026-01-29 01:26:11.85	340.65	59.65	-42.4	-43.2	22.1	0.00e+00	0	42	0	1127219200	56	3950
2026-01-29 01:26:12.86	339.91	59.88	-42.1	-42.9	22.2	0.00e+00	0	42	0	1130364928	56	3810
2026-01-29 01:26:13.87	339.15	60.12	-42.1	-42.9	22.2	0.00e+00	0	42	0	1133510656	56	3804
2026-01-29 01:26:14.87	338.39	60.34	-41.6	-42.3	22.6	0.00e+00	0	42	0	1136656384	55	3773
2026-01-29 01:26:15.88	337.61	60.57	-41.3	-42.1	22.9	0.00e+00	0	42	0	1139802112	54	3880
2026-01-29 01:26:16.89	336.81	60.79	-41.3	-42.0	22.9	0.00e+00	0	42	0	1142947840	54	3857
2026-01-29 01:26:17.90	336.00	61.00	-41.5	-42.3	22.6	0.00e+00	0	42	0	1146093568	54	3965
2026-01-29 01:26:18.91	335.18	61.21	-41.5	-42.3	22.6	0.00e+00	0	42	0	1149239296	54	3989
2026-01-29 01:26:19.92	334.34	61.42	-41.4	-42.2	22.8	0.00e+00	0	42	0	1152385024	54	3919
2026-01-29 01:26:20.93	333.48	61.62	-41.4	-42.1	22.7	0.00e+00	0	42	0	1155530752	54	3907
2026-01-29 01:26:21.93	332.63	61.81	-41.7	-42.4	22.5	0.00e+00	0	42	0	1158676480	54	4046
2026-01-29 01:26:22.94	331.75	62.01	-41.5	-42.2	22.6	0.00e+00	0	42	0	1161822208	54	3946
2026-01-29 01:26:23.95	330.85	62.19	-41.8	-42.6	22.5	0.00e+00	0	42	0	1164967936	54	4107
2026-01-29 01:26:24.96	329.95	62.37	-42.0	-42.8	22.3	0.00e+00	0	42	0	1168113664	54	4198
2026-01-29 01:26:25.97	329.02	62.55	-42.3	-43.2	22.1	0.00e+00	0	42	0	1171259392	55	4147
2026-01-29 01:26:26.98	328.09	62.72	-42.4	-43.3	21.9	0.00e+00	0	42	0	1174405120	55	4210
2026-01-29 01:26:27.98	327.15	62.88	-42.0	-42.8	22.3	0.00e+00	0	42	0	1177550848	55	3963
2026-01-29 01:26:28.99	326.19	63.03	-41.8	-42.6	22.4	0.00e+00	0	42	0	1180696576	55	3873
2026-01-29 01:26:30.01	325.21	63.19	-41.5	-42.3	22.7	0.00e+00	0	42	0	1183842304	55	3740
2026-01-29 01:26:31.02	324.23	63.33	-41.7	-42.5	22.7	0.00e+00	0	42	0	1186988032	54	4075
2026-01-29 01:26:32.03	323.23	63.47	-41.5	-42.2	22.9	0.00e+00	0	42	0	1190133760	54	3945
2026-01-29 01:26:33.04	322.22	63.60	-41.1	-41.9	23.2	0.00e+00	0	42	0	1193279488	54	3789
2026-01-29 01:26:34.05	321.20	63.72	-41.1	-41.9	23.1	0.00e+00	0	42	0	1196425216	54	3788
2026-01-29 01:26:35.05	320.18	63.83	-41.4	-42.1	22.9	0.00e+00	0	42	0	1199570944	54	3896
2026-01-29 01:26:36.06	319.15	63.94	-41.5	-42.2	22.9	0.00e+00	0	42	0	1202716672	54	3941
2026-01-29 01:26:37.07	318.10	64.04	-41.4	-42.1	23.0	0.00e+00	0	42	0	1205862400	54	3901
2026-01-29 01:26:38.08	317.04	64.13	-41.6	-42.3	22.8	0.00e+00	0	42	0	1209008128	54	4004
2026-01-29 01:26:39.09	315.97	64.22	-41.8	-42.6	22.6	0.00e+00	0	42	0	1212153856	54	4107
2026-01-29 01:26:40.10	314.90	64.29	-41.8	-42.6	22.6	0.00e+00	0	42	0	1215299584	54	4137
2026-01-29 01:26:41.11	313.82	64.36	-41.6	-42.4	22.8	0.00e+00	0	42	0	1218445312	54	4014
2026-01-29 01:26:42.12	312.74	64.42	-41.5	-42.3	22.9	0.00e+00	0	42	0	1221591040	54	3974
2026-01-29 01:26:43.13	311.64	64.47	-41.3	-42.1	23.0	0.00e+00	0	42	0	1224736768	54	3871
2026-01-29 01:26:44.14	310.55	64.52	-41.5	-42.2	22.8	0.00e+00	0	42	0	1227882496	54	3943
2026-01-29 01:26:45.15	309.45	64.55	-41.4	-42.1	22.9	0.00e+00	0	42	0	1231028224	54	3892
2026-01-29 01:26:46.16	308.35	64.58	-41.3	-42.0	23.0	0.00e+00	0	42	0	1234173952	54	3840
2026-01-29 01:26:47.17	307.24	64.60	-41.4	-42.2	22.6	0.00e+00	0	42	0	1237319680	54	3931
2026-01-29 01:26:48.18	306.14	64.61	-41.7	-42.4	22.4	0.00e+00	0	42	0	1240465408	54	4047
2026-01-29 01:26:49.19	305.03	64.61	-41.6	-42.3	22.7	0.00e+00	0	42	0	1243611136	54	3998
2026-01-29 01:26:50.20	303.92	64.60	-41.4	-42.1	22.8	0.00e+00	0	42	0	1246756864	54	3902
2026-01-29 01:26:51.21	302.82	64.59	-41.7	-42.4	22.6	0.00e+00	0	42	0	1249902592	54	4051
2026-01-29 01:26:52.22	301.71	64.56	-41.7	-42.5	22.6	0.00e+00	0	42	0	1253048320	54	4060
2026-01-29 01:26:53.23	300.61	64.53	-41.8	-42.6	22.5	0.00e+00	0	42	0	1256194048	54	4129
2026-01-29 01:26:54.24	299.51	64.49	-41.6	-42.3	22.7	0.00e+00	0	42	0	1259339776	54	3998
2026-01-29 01:26:55.25	298.42	64.44	-41.5	-42.2	22.8	0.00e+00	0	42	0	1262485504	54	3956
2026-01-29 01:26:56.26	297.33	64.38	-41.5	-42.2	22.9	0.00e+00	0	42	0	1265631232	54	3946
2026-01-29 01:26:57.27	296.25	64.31	-41.8	-42.6	22.6	0.00e+00	0	42	0	1268776960	54	4108
2026-01-29 01:26:58.27	295.19	64.24	-42.2	-43.0	22.3	0.00e+00	0	42	0	1271922688	55	4093
2026-01-29 01:26:59.28	294.12	64.16	-42.4	-43.3	22.0	0.00e+00	0	42	0	1275068416	55	4196
2026-01-29 01:27:00.29	293.06	64.07	-42.3	-43.1	22.2	0.00e+00	0	42	0	1278214144	55	4118
2026-01-29 01:27:01.29	292.02	63.97	-42.1	-42.9	22.3	0.00e+00	0	42	0	1281359872	55	4019
2026-01-29 01:27:02.30	290.97	63.87	-42.1	-42.9	22.4	0.00e+00	0	42	0	1284505600	55	4021
2026-01-29 01:27:03.31	289.94	63.75	-41.9	-42.7	22.6	0.00e+00	0	42	0	1287651328	55	3914
2026-01-29 01:27:04.32	288.92	63.63	-42.0	-42.8	22.2	0.00e+00	0	42	0	1290797056	55	3979
2026-01-29 01:27:05.33	287.91	63.51	-41.8	-42.6	22.6	0.00e+00	0	42	0	1293942784	55	3875
2026-01-29 01:27:06.34	286.91	63.37	-41.7	-42.4	22.7	0.00e+00	0	42	0	1297088512	55	3819
2026-01-29 01:27:07.35	285.92	63.23	-41.7	-42.5	22.7	0.00e+00	0	42	0	1300234240	55	3848
2026-01-29 01:27:08.36	284.94	63.08	-42.0	-42.8	22.4	0.00e+00	0	42	0	1303379968	55	3999
2026-01-29 01:27:09.36	283.98	62.93	-42.5	-43.3	22.1	0.00e+00	0	42	0	1306525696	55	4236
2026-01-29 01:27:10.37	283.03	62.77	-42.6	-43.4	21.9	0.00e+00	0	42	0	1309671424	55	4290
2026-01-29 01:27:11.38	282.09	62.60	-42.5	-43.4	21.9	0.00e+00	0	42	0	1312817152	56	4015
2026-01-29 01:27:12.39	281.17	62.43	-42.6	-43.4	22.0	0.00e+00	0	42	0	1315962880	56	4017
2026-01-29 01:27:13.39	280.26	62.25	-41.7	-42.5	22.7	0.00e+00	0	42	0	1319108608	55	3849
2026-01-29 01:27:14.40	279.36	62.07	-41.9	-42.6	22.6	0.00e+00	0	42	0	1322254336	54	4142
2026-01-29 01:27:15.41	278.48	61.88	-42.3	-43.2	22.2	0.00e+00	0	42	0	1325400064	55	4151
2026-01-29 01:27:16.42	277.61	61.68	-42.7	-43.5	21.9	0.00e+00	0	42	0	1328545792	55	4331
2026-01-29 01:27:17.42	276.76	61.48	-42.7	-43.5	22.0	0.00e+00	0	42	0	1331691520	56	4076
2026-01-29 01:27:18.43	275.91	61.28	-42.1	-42.9	22.4	0.00e+00	0	42	0	1334837248	56	3806
2026-01-29 01:27:19.44	275.08	61.07	-41.8	-42.5	22.7	0.00e+00	0	42	0	1337982976	55	3858
2026-01-29 01:27:20.45	274.27	60.85	-41.6	-42.4	22.9	0.00e+00	0	42	0	1341128704	55	3787
2026-01-29 01:27:21.46	273.47	60.63	-42.0	-42.8	22.5	0.00e+00	0	42	0	1344274432	55	3965
2026-01-29 01:27:22.47	272.68	60.41	-42.2	-43.0	22.4	0.00e+00	0	42	0	1347420160	55	4056
2026-01-29 01:27:23.47	271.91	60.19	-42.0	-42.8	22.5	0.00e+00	0	42	0	1350565888	55	3983
2026-01-29 01:27:24.48	271.15	59.96	-41.7	-42.5	22.6	0.00e+00	0	42	0	1353711616	55	3838
2026-01-29 01:27:25.49	270.40	59.72	-41.9	-42.6	22.3	0.00e+00	0	42	0	1356857344	55	3901
2026-01-29 01:27:26.50	269.67	59.48	-42.1	-42.8	22.3	0.00e+00	0	42	0	1360003072	55	4003
2026-01-29 01:27:27.51	268.95	59.24	-42.1	-42.9	22.3	0.00e+00	0	42	0	1363148800	55	4043
2026-01-29 01:27:28.52	268.24	59.00	-42.2	-43.0	22.3	0.00e+00	0	42	0	1366294528	55	4076
2026-01-29 01:27:29.53	267.55	58.75	-42.5	-43.4	22.0	0.00e+00	0	42	0	1369440256	55	4248
2026-01-29 01:27:30.54	266.87	58.50	-42.7	-43.5	21.8	0.00e+00	0	42	0	1372585984	56	4066
2026-01-29 01:27:31.55	266.20	58.25	-42.3	-43.1	21.8	0.00e+00	0	42	0	1375731712	56	3885
2026-01-29 01:27:32.56	265.54	57.99	-42.2	-43.0	22.1	0.00e+00	0	42	0	1378877440	56	3860
2026-01-29 01:27:33.57	264.90	57.74	-42.2	-43.0	22.3	0.00e+00	0	42	0	1382023168	56	3849
2026-01-29 01:27:34.58	264.27	57.48	-42.6	-43.5	21.8	0.00e+00	0	42	0	1385168896	56	4064
2026-01-29 01:27:35.59	263.65	57.22	-43.3	-44.3	21.2	0.00e+00	0	42	0	1388314624	57	4198
2026-01-29 01:27:36.60	263.04	56.95	-43.4	-44.3	21.1	0.00e+00	0	42	0	1391460352	57	4231
2026-01-29 01:27:37.61	262.45	56.69	-43.6	-44.5	21.1	0.00e+00	0	42	0	1394606080	57	4325
2026-01-29 01:27:38.62	261.87	56.42	-43.7	-44.7	20.8	0.00e+00	0	42	0	1397751808	58	4147
2026-01-29 01:27:39.63	261.29	56.15	-43.1	-43.9	21.4	0.00e+00	0	42	0	1400897536	58	3809
2026-01-29 01:27:40.64	260.73	55.88	-42.7	-43.6	21.7	0.00e+00	0	42	0	1404043264	57	3879
2026-01-29 01:27:41.64	260.19	55.61	-42.8	-43.6	21.8	0.00e+00	0	42	0	1407188992	57	3896
2026-01-29 01:27:42.65	259.65	55.34	-43.6	-44.6	20.9	0.00e+00	0	42	0	1410334720	57	4345
2026-01-29 01:27:43.66	259.12	55.06	-44.3	-45.3	20.4	0.00e+00	0	42	0	1413480448	59	4238
2026-01-29 01:27:44.67	258.60	54.79	-44.5	-45.6	20.1	0.00e+00	0	42	0	1416626176	59	4355
2026-01-29 01:27:45.68	258.09	54.51	-43.9	-44.9	20.7	0.00e+00	0	42	0	1419771904	59	4025
2026-01-29 01:27:46.69	257.59	54.24	-43.4	-44.3	21.3	0.00e+00	0	42	0	1422917632	58	3972
2026-01-29 01:27:47.69	257.10	53.96	-43.3	-44.2	21.3	0.00e+00	0	42	0	1426063360	58	3936
2026-01-29 01:27:48.70	256.62	53.69	-43.4	-44.3	21.2	0.00e+00	0	42	0	1430257664	58	3979
2026-01-29 01:27:49.71	256.15	53.41	-43.4	-44.3	21.2	0.00e+00	0	42	0	1433403392	58	3966
2026-01-29 01:27:50.72	255.69	53.13	-43.5	-44.4	21.0	0.00e+00	0	42	0	1436549120	58	4033
2026-01-29 01:27:51.72	255.24	52.85	-44.5	-45.5	20.2	0.00e+00	0	42	0	1438646272	59	4318
2026-01-29 01:27:52.73	254.79	52.57	-45.4	-46.6	18.7	0.00e+00	0	42	0	1441792000	61	4360
2026-01-29 01:27:53.74	254.36	52.29	-45.5	-46.7	18.3	0.00e+00	0	42	0	1444937728	62	4183
2026-01-29 01:27:54.75	253.93	52.01	-44.6	-45.7	19.3	0.00e+00	0	42	0	1448083456	61	3928
2026-01-29 01:27:55.77	253.50	51.73	-44.0	-45.0	20.1	0.00e+00	0	42	0	1451229184	60	3831
2026-01-29 01:27:56.77	253.09	51.45	-43.9	-44.8	20.7	0.00e+00	0	42	0	1454374912	59	3986
2026-01-29 01:27:57.78	252.69	51.18	-43.7	-44.6	20.7	0.00e+00	0	42	0	1457520640	59	3902
2026-01-29 01:27:58.79	252.29	50.90	-44.1	-45.0	20.5	0.00e+00	0	42	0	1460666368	59	4081
2026-01-29 01:27:59.80	251.90	50.62	-44.6	-45.6	20.0	0.00e+00	0	42	0	1464860672	59	4371
2026-01-29 01:28:00.81	251.52	50.34	-44.8	-45.9	19.4	0.00e+00	0	42	0	1468006400	60	4244
2026-01-29 01:28:01.81	251.15	50.06	-45.3	-46.5	19.0	0.00e+00	0	42	0	1471152128	61	4294
2026-01-29 01:28:02.82	250.78	49.78	-46.0	-47.3	18.1	0.00e+00	0	42	0	1474297856	62	4466
2026-01-29 01:28:03.83	250.41	49.51	-45.6	-46.8	18.3	0.00e+00	0	42	0	1477443584	62	4195
2026-01-29 01:28:04.84	250.06	49.23	-44.7	-45.7	19.1	0.00e+00	0	42	0	1480589312	61	3935
2026-01-29 01:28:05.85	249.71	48.95	-44.5	-45.5	19.3	0.00e+00	0	42	0	1483735040	60	4072
2026-01-29 01:28:06.86	249.37	48.68	-44.2	-45.2	19.9	0.00e+00	0	42	0	1485832192	60	3934
2026-01-29 01:28:07.87	249.03	48.40	-44.5	-45.5	20.0	0.00e+00	0	42	0	1488977920	59	4315
2026-01-29 01:28:08.88	248.70	48.13	-44.7	-45.8	19.4	0.00e+00	0	42	0	1492123648	60	4202
2026-01-29 01:28:09.89	248.37	47.85	-45.4	-46.5	18.6	0.00e+00	0	42	0	1495269376	61	4326
2026-01-29 01:28:10.90	248.05	47.58	-45.9	-47.1	18.2	0.00e+00	0	42	0	1499463680	62	4374
2026-01-29 01:28:11.91	247.74	47.31	-46.4	-47.8	17.7	0.00e+00	0	42	0	1502609408	63	4447
2026-01-29 01:28:12.91	247.43	47.04	-46.7	-48.2	17.1	0.00e+00	0	42	0	1505755136	64	4406
2026-01-29 01:28:13.92	247.13	46.77	-46.8	-48.3	17.1	0.00e+00	0	42	0	1508900864	64	4468
2026-01-29 01:28:14.93	246.83	46.50	-46.6	-48.0	17.3	0.00e+00	0	42	0	1512046592	64	4323
2026-01-29 01:28:15.94	246.54	46.23	-46.1	-47.4	17.9	0.00e+00	0	42	0	1515192320	64	4020
2026-01-29 01:28:16.94	246.26	45.96	-45.5	-46.7	18.7	0.00e+00	0	42	0	1518338048	63	3925
2026-01-29 01:28:17.95	245.97	45.70	-45.3	-46.4	19.0	0.00e+00	0	42	0	1521483776	62	4037
2026-01-29 01:28:18.96	245.69	45.43	-44.5	-45.5	19.7	0.00e+00	0	42	0	1524629504	61	3846
2026-01-29 01:28:19.96	245.42	45.17	-44.7	-45.8	19.4	0.00e+00	0	42	0	1527775232	60	4199
2026-01-29 01:28:20.97	245.16	44.90	-44.9	-45.9	19.3	0.00e+00	0	42	0	1530920960	60	4290
2026-01-29 01:28:21.98	244.89	44.64	-45.6	-46.8	18.5	0.00e+00	0	42	0	1533018112	61	4478
2026-01-29 01:28:22.99	244.63	44.38	-45.4	-46.5	18.6	0.00e+00	0	42	0	1536163840	61	4336
2026-01-29 01:28:24.01	244.37	44.11	-44.9	-46.0	18.9	0.00e+00	0	42	0	1540358144	61	4081
2026-01-29 01:28:25.01	244.12	43.86	-44.8	-45.8	19.2	0.00e+00	0	42	0	1543503872	61	3990
2026-01-29 01:28:26.02	243.88	43.60	-44.6	-45.7	19.4	0.00e+00	0	42	0	1546649600	61	3927
2026-01-29 01:28:27.03	243.63	43.34	-45.1	-46.2	19.1	0.00e+00	0	42	0	1549795328	61	4163
2026-01-29 01:28:28.04	243.39	43.08	-45.4	-46.6	18.7	0.00e+00	0	42	0	1552941056	61	4352
2026-01-29 01:28:29.05	243.16	42.83	-45.3	-46.5	18.8	0.00e+00	0	42	0	1556086784	61	4312
2026-01-29 01:28:30.06	242.93	42.57	-45.1	-46.2	19.0	0.00e+00	0	42	0	1559232512	61	4187
2026-01-29 01:28:31.07	242.70	42.32	-45.0	-46.1	19.1	0.00e+00	0	42	0	1562378240	61	4117
2026-01-29 01:28:32.08	242.47	42.07	-45.0	-46.1	19.2	0.00e+00	0	42	0	1565523968	61	4101
2026-01-29 01:28:33.09	242.25	41.82	-45.0	-46.0	19.2	0.00e+00	0	42	0	1568669696	61	4093
2026-01-29 01:28:34.10	242.03	41.57	-45.4	-46.6	18.5	0.00e+00	0	42	0	1571815424	61	4355
2026-01-29 01:28:35.11	241.82	41.32	-45.2	-46.3	18.7	0.00e+00	0	42	0	1574961152	61	4237
2026-01-29 01:28:36.12	241.61	41.07	-45.2	-46.3	18.8	0.00e+00	0	42	0	1578106880	61	4216
2026-01-29 01:28:37.13	241.40	40.83	-44.9	-46.0	19.2	0.00e+00	0	42	0	1581252608	61	4061
2026-01-29 01:28:38.14	241.20	40.58	-44.4	-45.4	19.5	0.00e+00	0	42	0	1584398336	60	4040
2026-01-29 01:28:39.15	241.00	40.34	-44.1	-45.1	19.7	0.00e+00	0	42	0	1587544064	60	3896
2026-01-29 01:28:40.16	240.80	40.10	-44.0	-44.9	20.1	0.00e+00	0	42	0	1590689792	59	4042
2026-01-29 01:28:41.17	240.60	39.86	-43.7	-44.6	20.7	0.00e+00	0	42	0	1593835520	59	3891
2026-01-29 01:28:42.18	240.41	39.62	-43.6	-44.5	20.8	0.00e+00	0	42	0	1596981248	59	3837
2026-01-29 01:28:43.19	240.22	39.38	-43.8	-44.7	20.7	0.00e+00	0	42	0	1600126976	59	3923
2026-01-29 01:28:44.19	240.03	39.15	-44.1	-45.1	20.3	0.00e+00	0	42	0	1603272704	59	4107
2026-01-29 01:28:45.20	239.85	38.91	-44.6	-45.6	19.8	0.00e+00	0	42	0	1606418432	59	4380
2026-01-29 01:28:46.21	239.67	38.68	-44.6	-45.6	19.5	0.00e+00	0	42	0	1609564160	60	4136
2026-01-29 01:28:47.22	239.49	38.44	-44.7	-45.8	19.4	0.00e+00	0	42	0	1612709888	60	4218
2026-01-29 01:28:48.23	239.31	38.21	-44.7	-45.7	19.5	0.00e+00	0	42	0	1615855616	60	4172
2026-01-29 01:28:49.23	239.14	37.98	-44.4	-45.4	19.7	0.00e+00	0	42	0	1619001344	60	4028
2026-01-29 01:28:50.24	238.97	37.75	-44.4	-45.5	19.7	0.00e+00	0	42	0	1622147072	60	4065
2026-01-29 01:28:51.25	238.80	37.52	-44.4	-45.5	19.7	0.00e+00	0	42	0	1625292800	60	4061
2026-01-29 01:28:52.26	238.63	37.30	-44.3	-45.4	19.7	0.00e+00	0	42	0	1628438528	60	4022
2026-01-29 01:28:53.27	238.47	37.07	-44.5	-45.6	19.6	0.00e+00	0	42	0	1631584256	60	4124
2026-01-29 01:28:54.27	238.31	36.85	-44.3	-45.3	19.7	0.00e+00	0	42	0	1634729984	60	4004
2026-01-29 01:28:55.29	238.15	36.63	-44.2	-45.3	19.7	0.00e+00	0	42	0	1637875712	60	3970
2026-01-29 01:28:56.30	237.99	36.40	-44.3	-45.4	19.7	0.00e+00	0	42	0	1641021440	59	4249
2026-01-29 01:28:57.31	237.83	36.18	-44.2	-45.3	19.8	0.00e+00	0	42	0	1644167168	59	4208
2026-01-29 01:28:58.32	237.68	35.96	-43.9	-44.8	20.2	0.00e+00	0	42	0	1647312896	59	4004
2026-01-29 01:28:59.33	237.53	35.75	-43.8	-44.8	20.4	0.00e+00	0	42	0	1650458624	59	3986
2026-01-29 01:29:00.33	237.38	35.53	-43.6	-44.5	20.6	0.00e+00	0	42	0	1653604352	59	3848
2026-01-29 01:29:01.34	237.24	35.32	-43.7	-44.6	20.6	0.00e+00	0	42	0	1656750080	59	3901
2026-01-29 01:29:02.35	237.09	35.10	-43.8	-44.7	20.5	0.00e+00	0	42	0	1659895808	59	3953
2026-01-29 01:29:03.36	236.95	34.89	-44.0	-45.0	20.3	0.00e+00	0	42	0	1663041536	59	4057
2026-01-29 01:29:04.36	236.81	34.68	-44.2	-45.2	20.1	0.00e+00	0	42	0	1666187264	59	4169
2026-01-29 01:29:05.37	236.67	34.47	-44.3	-45.3	20.0	0.00e+00	0	42	0	1669332992	59	4242
2026-01-29 01:29:06.38	236.53	34.26	-44.5	-45.6	19.8	0.00e+00	0	42	0	1672478720	59	4360
2026-01-29 01:29:07.39	236.39	34.05	-44.6	-45.7	19.6	0.00e+00	0	42	0	1675624448	59	4421
2026-01-29 01:29:08.40	236.26	33.84	-44.6	-45.7	19.7	0.00e+00	0	42	0	1678770176	59	4407
2026-01-29 01:29:09.41	236.13	33.64	-44.5	-45.5	19.8	0.00e+00	0	42	0	1681915904	59	4336
2026-01-29 01:29:10.42	236.00	33.43	-44.2	-45.2	20.1	0.00e+00	0	42	0	1685061632	59	4149
2026-01-29 01:29:11.43	235.87	33.23	-43.9	-44.8	20.5	0.00e+00	0	42	0	1688207360	59	3991
2026-01-29 01:29:12.43	235.74	33.03	-43.2	-44.1	21.1	0.00e+00	0	42	0	1691353088	58	3911
2026-01-29 01:29:13.44	235.62	32.83	-43.2	-44.1	21.1	0.00e+00	0	42	0	1694498816	58	3883
2026-01-29 01:29:14.44	235.49	32.63	-43.1	-43.9	21.2	0.00e+00	0	42	0	1697644544	58	3822
2026-01-29 01:29:15.45	235.37	32.43	-43.1	-43.9	21.2	0.00e+00	0	42	0	1700790272	58	3811
2026-01-29 01:29:16.46	235.25	32.23	-42.8	-43.7	21.4	0.00e+00	0	42	0	1703936000	57	3919
2026-01-29 01:29:17.47	235.13	32.04	-42.9	-43.8	21.4	0.00e+00	0	42	0	1707081728	57	3961
2026-01-29 01:29:18.47	235.01	31.84	-42.9	-43.8	21.3	0.00e+00	0	42	0	1710227456	57	3969
2026-01-29 01:29:19.48	234.90	31.65	-43.0	-43.9	21.3	0.00e+00	0	42	0	1713373184	57	4005
2026-01-29 01:29:20.49	234.78	31.46	-43.1	-44.0	21.1	0.00e+00	0	42	0	1716518912	57	4085
2026-01-29 01:29:21.50	234.67	31.26	-43.3	-44.2	20.9	0.00e+00	0	42	0	1719664640	57	4173
2026-01-29 01:29:22.51	234.55	31.07	-43.2	-44.1	21.0	0.00e+00	0	42	0	1722810368	57	4115
2026-01-29 01:29:23.51	234.44	30.89	-43.2	-44.1	21.0	0.00e+00	0	42	0	1725956096	57	4110
2026-01-29 01:29:24.53	234.33	30.70	-43.2	-44.1	21.0	0.00e+00	0	42	0	1729101824	57	4125
2026-01-29 01:29:25.53	234.23	30.51	-43.2	-44.1	21.0	0.00e+00	0	42	0	1732247552	57	4122
2026-01-29 01:29:26.54	234.12	30.32	-43.1	-44.0	21.1	0.00e+00	0	42	0	1735393280	57	4063
2026-01-29 01:29:27.55	234.01	30.14	-43.1	-44.0	21.1	0.00e+00	0	42	0	1738539008	57	4097
2026-01-29 01:29:28.56	233.91	29.95	-43.2	-44.1	21.0	0.00e+00	0	42	0	1741684736	57	4106
2026-01-29 01:29:29.57	233.80	29.77	-43.1	-44.0	21.1	0.00e+00	0	42	0	1744830464	57	4054
2026-01-29 01:29:30.57	233.70	29.59	-43.0	-43.9	21.0	0.00e+00	0	42	0	1747976192	57	4050
2026-01-29 01:29:31.59	233.60	29.41	-43.1	-44.0	20.9	0.00e+00	0	42	0	1751121920	57	4084
2026-01-29 01:29:32.59	233.50	29.23	-43.1	-44.0	20.8	0.00e+00	0	42	0	1754267648	57	4083
2026-01-29 01:29:33.60	233.40	29.05	-43.1	-44.1	20.8	0.00e+00	0	42	0	1757413376	57	4110
2026-01-29 01:29:34.61	233.30	28.87	-43.1	-44.0	20.9	0.00e+00	0	42	0	1760559104	57	4093
2026-01-29 01:29:35.62	233.21	28.70	-43.1	-44.0	20.9	0.00e+00	0	42	0	1763704832	57	4083
2026-01-29 01:29:36.63	233.11	28.52	-42.9	-43.9	21.1	0.00e+00	0	42	0	1766850560	57	4007
2026-01-29 01:29:37.64	233.02	28.34	-42.9	-43.8	21.2	0.00e+00	0	42	0	1769996288	57	3959
2026-01-29 01:29:38.65	232.92	28.17	-42.9	-43.8	21.2	0.00e+00	0	42	0	1773142016	57	3968
2026-01-29 01:29:39.66	232.83	28.00	-42.9	-43.7	21.2	0.00e+00	0	42	0	1776287744	57	3955
2026-01-29 01:29:40.67	232.74	27.83	-42.8	-43.6	21.3	0.00e+00	0	42	0	1779433472	57	3906
2026-01-29 01:29:41.68	232.65	27.65	-42.8	-43.7	21.3	0.00e+00	0	42	0	1782579200	57	3922
2026-01-29 01:29:42.69	232.56	27.48	-42.6	-43.5	21.4	0.00e+00	0	42	0	1785724928	57	3840
2026-01-29 01:29:43.70	232.47	27.32	-42.4	-43.3	21.6	0.00e+00	0	42	0	1788870656	56	3969
2026-01-29 01:29:44.71	232.38	27.15	-42.4	-43.2	21.7	0.00e+00	0	42	0	1792016384	56	3933
2026-01-29 01:29:45.72	232.30	26.98	-42.2	-43.0	21.8	0.00e+00	0	42	0	1795162112	56	3860
2026-01-29 01:29:46.73	232.21	26.81	-42.2	-43.1	21.8	0.00e+00	0	42	0	1798307840	56	3870
2026-01-29 01:29:47.74	232.13	26.65	-42.2	-43.1	21.8	0.00e+00	0	42	0	1801453568	56	3887
2026-01-29 01:29:48.74	232.05	26.49	-42.3	-43.2	21.7	0.00e+00	0	42	0	1804599296	56	3916
2026-01-29 01:29:49.75	231.96	26.32	-42.4	-43.3	21.6	0.00e+00	0	42	0	1807745024	56	3976
2026-01-29 01:29:50.76	231.88	26.16	-42.4	-43.3	21.6	0.00e+00	0	42	0	1810890752	56	3982
2026-01-29 01:29:51.77	231.80	26.00	-42.4	-43.2	21.6	0.00e+00	0	42	0	1814036480	56	3950
2026-01-29 01:29:52.78	231.72	25.84	-42.4	-43.2	21.7	0.00e+00	0	42	0	1817182208	56	3938
2026-01-29 01:29:53.79	231.64	25.68	-42.3	-43.2	21.7	0.00e+00	0	42	0	1820327936	56	3930
2026-01-29 01:29:54.80	231.56	25.52	-42.4	-43.2	21.6	0.00e+00	0	42	0	1823473664	56	3938
2026-01-29 01:29:55.81	231.48	25.36	-42.3	-43.1	21.7	0.00e+00	0	42	0	1826619392	56	3911
2026-01-29 01:29:56.82	231.41	25.20	-42.2	-43.1	21.8	0.00e+00	0	42	0	1829765120	56	3869
2026-01-29 01:29:57.82	231.33	25.05	-42.2	-43.1	21.8	0.00e+00	0	42	0	1832910848	56	3873
2026-01-29 01:29:58.83	231.26	24.89	-42.1	-42.9	21.9	0.00e+00	0	42	0	1836056576	56	3819
2026-01-29 01:29:59.84	231.18	24.74	-42.1	-42.9	21.9	0.00e+00	0	42	0	1839202304	56	3812
2026-01-29 01:30:00.85	231.11	24.59	-42.1	-42.9	21.9	0.00e+00	0	42	0	1842348032	56	3803
2026-01-29 01:30:01.85	231.03	24.44	-42.1	-42.9	21.8	0.00e+00	0	42	0	1845493760	56	3821
2026-01-29 01:30:02.87	230.96	24.28	-42.2	-43.0	21.7	0.00e+00	0	42	0	1848639488	56	3858
2026-01-29 01:30:03.87	230.89	24.13	-42.2	-43.0	21.7	0.00e+00	0	42	0	1851785216	56	3838
2026-01-29 01:30:04.88	230.82	23.98	-42.3	-43.1	21.6	0.00e+00	0	42	0	1854930944	56	3901
2026-01-29 01:30:05.89	230.75	23.83	-42.5	-43.3	21.4	0.00e+00	0	42	0	1858076672	56	3990
2026-01-29 01:30:06.90	230.68	23.68	-42.5	-43.4	21.3	0.00e+00	0	42	0	1861222400	56	4024
2026-01-29 01:30:07.91	230.61	23.54	-42.6	-43.5	21.3	0.00e+00	0	42	0	1864368128	56	4076
2026-01-29 01:30:08.92	230.54	23.39	-42.7	-43.5	21.2	0.00e+00	0	42	0	1867513856	56	4094
2026-01-29 01:30:09.93	230.47	23.24	-42.8	-43.7	21.1	0.00e+00	0	42	0	1870659584	56	4157
2026-01-29 01:30:10.94	230.41	23.10	-42.8	-43.7	21.1	0.00e+00	0	42	0	1873805312	56	4169
2026-01-29 01:30:11.95	230.34	22.95	-42.8	-43.7	21.1	0.00e+00	0	42	0	1876951040	56	4177
2026-01-29 01:30:12.95	230.28	22.81	-42.6	-43.5	21.3	0.00e+00	0	42	0	1880096768	56	4088
2026-01-29 01:30:13.96	230.21	22.67	-42.6	-43.5	21.3	0.00e+00	0	42	0	1883242496	56	4073
2026-01-29 01:30:14.97	230.15	22.52	-42.6	-43.5	21.3	0.00e+00	0	42	0	1886388224	56	4088
2026-01-29 01:30:15.99	230.08	22.38	-42.6	-43.4	21.3	0.00e+00	0	42	0	1889533952	56	4047
2026-01-29 01:30:16.99	230.02	22.24	-42.6	-43.5	21.3	0.00e+00	0	42	0	1892679680	56	4073
2026-01-29 01:30:18.00	229.96	22.10	-42.6	-43.5	21.3	0.00e+00	0	42	0	1895825408	56	4067
2026-01-29 01:30:19.01	229.90	21.96	-42.6	-43.5	21.4	0.00e+00	0	42	0	1898971136	56	4058
2026-01-29 01:30:20.02	229.83	21.82	-42.5	-43.4	21.4	0.00e+00	0	42	0	1902116864	56	4018
2026-01-29 01:30:21.02	229.77	21.68	-42.5	-43.4	21.4	0.00e+00	0	42	0	1905262592	56	4020
2026-01-29 01:30:22.03	229.71	21.55	-42.5	-43.4	21.4	0.00e+00	0	42	0	1908408320	56	4041
2026-01-29 01:30:23.04	229.65	21.41	-42.5	-43.4	21.4	0.00e+00	0	42	0	1911554048	56	4008
2026-01-29 01:30:24.05	229.59	21.27	-42.4	-43.3	21.4	0.00e+00	0	42	0	1914699776	56	3991
2026-01-29 01:30:25.06	229.54	21.14	-42.5	-43.4	21.4	0.00e+00	0	42	0	1917845504	56	4026
2026-01-29 01:30:26.07	229.48	21.00	-42.4	-43.3	21.4	0.00e+00	0	42	0	1920991232	56	3990
2026-01-29 01:30:27.07	229.42	20.87	-42.5	-43.4	21.4	0.00e+00	0	42	0	1924136960	56	4024
2026-01-29 01:30:28.08	229.36	20.74	-42.5	-43.3	21.4	0.00e+00	0	42	0	1927282688	56	4001
2026-01-29 01:30:29.09	229.31	20.61	-42.4	-43.2	21.5	0.00e+00	0	42	0	1930428416	56	3947
2026-01-29 01:30:30.10	229.25	20.47	-42.4	-43.3	21.5	0.00e+00	0	42	0	1934622720	56	3976
2026-01-29 01:30:31.10	229.20	20.34	-42.5	-43.3	21.4	0.00e+00	0	42	0	1937768448	56	4001
2026-01-29 01:30:32.11	229.14	20.21	-42.4	-43.3	21.4	0.00e+00	0	42	0	1940914176	56	3996
2026-01-29 01:30:33.12	229.09	20.08	-42.5	-43.4	21.4	0.00e+00	0	42	0	1943011328	56	4018
2026-01-29 01:30:34.13	229.03	19.95	-42.5	-43.4	21.3	0.00e+00	0	42	0	1946157056	56	4026
2026-01-29 01:30:35.14	228.98	19.82	-42.6	-43.5	21.2	0.00e+00	0	42	0	1949302784	56	4088
2026-01-29 01:30:36.15	228.93	19.70	-42.6	-43.5	21.3	0.00e+00	0	42	0	1952448512	56	4062
2026-01-29 01:30:37.16	228.87	19.57	-42.6	-43.5	21.2	0.00e+00	0	42	0	1955594240	56	4061
2026-01-29 01:30:38.17	228.82	19.44	-42.7	-43.6	21.2	0.00e+00	0	42	0	1958739968	56	4108
2026-01-29 01:30:39.18	228.77	19.32	-42.6	-43.5	21.2	0.00e+00	0	42	0	1961885696	56	4095
2026-01-29 01:30:40.19	228.72	19.19	-42.7	-43.6	21.1	0.00e+00	0	42	0	1965031424	56	4140
2026-01-29 01:30:41.20	228.67	19.06	-42.8	-43.7	21.1	0.00e+00	0	42	0	1969225728	56	4152
2026-01-29 01:30:42.21	228.62	18.94	-42.9	-43.8	20.9	0.00e+00	0	42	0	1972371456	56	4230
2026-01-29 01:30:43.22	228.57	18.82	-42.9	-43.8	20.9	0.00e+00	0	42	0	1975517184	56	4228
2026-01-29 01:30:44.23	228.52	18.69	-42.8	-43.8	21.0	0.00e+00	0	42	0	1978662912	56	4195
2026-01-29 01:30:45.24	228.47	18.57	-43.0	-43.9	20.8	0.00e+00	0	42	0	1981808640	56	4271
2026-01-29 01:30:46.25	228.42	18.45	-43.0	-43.9	20.8	0.00e+00	0	42	0	1984954368	56	4290
2026-01-29 01:30:47.26	228.37	18.33	-42.9	-43.9	20.8	0.00e+00	0	42	0	1988100096	56	4247
2026-01-29 01:30:48.26	228.33	18.21	-43.0	-43.9	20.8	0.00e+00	0	42	0	1990197248	56	4277
2026-01-29 01:30:49.27	228.28	18.09	-43.0	-43.9	20.8	0.00e+00	0	42	0	1993342976	56	4276
2026-01-29 01:30:50.28	228.23	17.97	-42.9	-43.8	20.9	0.00e+00	0	42	0	1996488704	56	4207
2026-01-29 01:30:51.29	228.18	17.85	-42.8	-43.7	21.0	0.00e+00	0	42	0	1999634432	56	4154
2026-01-29 01:30:52.29	228.14	17.73	-42.9	-43.8	20.8	0.00e+00	0	42	0	2002780160	56	4227
2026-01-29 01:30:53.30	228.09	17.61	-42.9	-43.8	20.9	0.00e+00	0	42	0	2006974464	56	4202
2026-01-29 01:30:54.31	228.05	17.49	-42.9	-43.8	20.8	0.00e+00	0	42	0	2010120192	56	4217
2026-01-29 01:30:55.32	228.00	17.38	-43.1	-44.0	20.7	0.00e+00	0	42	0	2013265920	56	4313
2026-01-29 01:30:56.33	227.96	17.26	-43.0	-43.9	20.8	0.00e+00	0	42	0	2016411648	56	4259
2026-01-29 01:30:57.34	227.91	17.15	-43.0	-43.9	20.7	0.00e+00	0	42	0	2019557376	56	4289
2026-01-29 01:30:58.35	227.87	17.03	-43.2	-44.1	20.6	0.00e+00	0	42	0	2022703104	56	4380
2026-01-29 01:30:59.36	227.83	16.91	-43.1	-44.1	20.6	0.00e+00	0	42	0	2025848832	57	4112
2026-01-29 01:31:00.37	227.78	16.80	-43.3	-44.2	20.4	0.00e+00	0	42	0	2028994560	57	4191
2026-01-29 01:31:01.38	227.74	16.69	-43.3	-44.2	20.4	0.00e+00	0	42	0	2032140288	57	4183
2026-01-29 01:31:02.39	227.70	16.57	-43.4	-44.3	20.3	0.00e+00	0	42	0	2035286016	57	4242
2026-01-29 01:31:03.39	227.65	16.46	-43.4	-44.4	20.3	0.00e+00	0	42	0	2037383168	57	4265
2026-01-29 01:31:04.40	227.61	16.35	-43.4	-44.4	20.3	0.00e+00	0	42	0	2041577472	57	4263
2026-01-29 01:31:05.41	227.57	16.24	-43.4	-44.4	20.3	0.00e+00	0	42	0	2044723200	57	4279
2026-01-29 01:31:06.41	227.53	16.13	-43.6	-44.6	20.1	0.00e+00	0	42	0	2047868928	57	4353
2026-01-29 01:31:07.42	227.49	16.02	-43.7	-44.7	20.0	0.00e+00	0	42	0	2051014656	57	4413
2026-01-29 01:31:08.43	227.45	15.91	-43.6	-44.6	20.1	0.00e+00	0	42	0	2054160384	57	4371
2026-01-29 01:31:09.44	227.41	15.80	-43.6	-44.7	20.0	0.00e+00	0	42	0	2057306112	57	4397
2026-01-29 01:31:10.45	227.37	15.69	-43.6	-44.7	20.0	0.00e+00	0	42	0	2060451840	57	4399
