passes_logs/2026/01/29/R3.2S_Murmansk/R3.2S_Murmansk__20260129_074502_FENGYUN_3D_rec.log

#Pass ID: 20260129_074502_FENGYUN 3D
#Satellite: FENGYUN 3D
#Configuration: FENGYUN 3D
#almurnet v.1.7.20251203
#Start time: 2026-01-29 07:45:02

#Version: 2.2.20231116
#Station: R3.2S_Murmansk
#Location: 33.079688 lon 68.888172 lat
#TLE: 1 43010U 17072A   26028.95797775  .00000451  00000+0  23492-3 0  9991
#TLE: 2 43010  98.9958   0.9922 0002505  85.7480 274.3981 14.19703224425237

#Time	Az	El	Level	Level2	SNR	BER	BlckErr	Temp	State	Recorded	gain1	gain2
2026-01-29 07:45:02.15	70.58	1.98	-52.3	-64.2	3.8	8.46e-01	0	40	0	0	76	13989
2026-01-29 07:45:03.17	70.52	2.04	-51.8	-63.8	3.8	8.47e-01	0	40	104	0	74	14889
2026-01-29 07:45:04.17	70.46	2.10	-51.8	-63.7	3.8	8.46e-01	0	40	104	0	74	14799
2026-01-29 07:45:05.18	70.39	2.16	-51.8	-63.7	3.8	8.45e-01	0	40	104	0	74	14818
2026-01-29 07:45:06.19	70.33	2.21	-51.8	-63.7	3.8	8.46e-01	0	40	104	0	74	14777
2026-01-29 07:45:07.20	70.27	2.27	-51.8	-63.7	3.8	8.46e-01	0	40	104	0	74	14779
2026-01-29 07:45:08.20	70.20	2.33	-51.8	-63.7	3.8	8.47e-01	0	40	104	0	74	14742
2026-01-29 07:45:09.21	70.14	2.39	-51.8	-63.7	3.8	8.48e-01	0	40	104	0	74	14710
2026-01-29 07:45:10.22	70.08	2.45	-51.8	-63.7	3.8	8.46e-01	0	40	104	0	74	14805
2026-01-29 07:45:11.23	70.01	2.51	-51.8	-63.7	3.8	8.46e-01	0	40	104	0	74	14770
2026-01-29 07:45:12.23	69.95	2.56	-51.8	-63.7	3.8	8.45e-01	0	40	104	0	74	14756
2026-01-29 07:45:13.24	69.88	2.62	-51.8	-63.7	3.8	8.46e-01	0	40	104	0	74	14774
2026-01-29 07:45:14.25	69.82	2.68	-51.8	-63.6	3.8	8.47e-01	0	40	104	0	74	14698
2026-01-29 07:45:15.25	69.75	2.74	-51.8	-63.6	3.8	8.46e-01	0	40	104	0	74	14638
2026-01-29 07:45:16.26	69.69	2.80	-51.8	-63.5	3.8	8.46e-01	0	40	104	0	74	14507
2026-01-29 07:45:17.27	69.62	2.86	-51.7	-63.5	3.8	8.46e-01	0	40	104	0	74	14443
2026-01-29 07:45:18.28	69.56	2.92	-51.7	-63.5	3.8	8.46e-01	0	40	104	0	74	14447
2026-01-29 07:45:19.29	69.49	2.97	-51.7	-63.5	3.8	8.46e-01	0	40	104	0	74	14423
2026-01-29 07:45:20.30	69.42	3.03	-51.8	-63.6	3.8	8.46e-01	0	40	104	0	74	14643
2026-01-29 07:45:21.31	69.35	3.09	-51.8	-63.6	3.8	8.46e-01	0	40	104	0	74	14654
2026-01-29 07:45:22.31	69.29	3.15	-51.8	-63.7	3.8	8.46e-01	0	40	104	0	74	14721
2026-01-29 07:45:23.32	69.22	3.21	-51.8	-63.6	3.8	8.46e-01	0	40	104	0	74	14694
2026-01-29 07:45:24.33	69.15	3.27	-51.7	-63.6	3.8	8.46e-01	0	41	104	0	74	14552
2026-01-29 07:45:25.34	69.08	3.33	-51.7	-63.4	3.8	8.46e-01	0	41	104	0	74	14364
2026-01-29 07:45:26.34	69.02	3.39	-51.7	-63.4	3.8	8.47e-01	0	41	104	0	74	14272
2026-01-29 07:45:27.35	68.95	3.45	-51.7	-63.4	3.8	8.46e-01	0	41	104	0	74	14275
2026-01-29 07:45:28.36	68.88	3.51	-51.7	-63.4	3.8	8.46e-01	0	41	104	0	74	14325
2026-01-29 07:45:29.37	68.81	3.57	-51.7	-63.5	3.8	8.45e-01	0	40	104	0	74	14480
2026-01-29 07:45:30.37	68.74	3.63	-51.7	-63.7	3.8	8.46e-01	0	41	104	0	74	14722
2026-01-29 07:45:31.38	68.67	3.69	-51.7	-63.7	3.8	8.45e-01	0	41	104	0	74	14747
2026-01-29 07:45:32.39	68.60	3.75	-51.7	-63.6	3.8	8.46e-01	0	41	104	0	74	14686
2026-01-29 07:45:33.39	68.53	3.81	-51.7	-63.5	3.8	8.46e-01	0	41	104	0	74	14490
2026-01-29 07:45:34.40	68.46	3.87	-51.7	-63.5	3.8	8.46e-01	0	40	104	0	74	14387
2026-01-29 07:45:35.41	68.39	3.93	-51.7	-63.6	3.8	8.46e-01	0	41	104	0	74	14575
2026-01-29 07:45:36.42	68.32	3.99	-51.7	-63.6	3.8	8.47e-01	0	41	104	0	74	14648
2026-01-29 07:45:37.42	68.24	4.05	-51.7	-63.5	3.8	8.45e-01	0	41	104	0	74	14447
2026-01-29 07:45:38.43	68.17	4.11	-51.7	-62.7	3.8	8.46e-01	0	41	104	0	74	13211
2026-01-29 07:45:39.44	68.10	4.17	-51.5	-61.3	3.8	8.45e-01	0	41	104	0	74	11252
2026-01-29 07:45:40.45	68.03	4.23	-51.4	-60.1	4.2	8.44e-01	0	41	104	0	74	9737
2026-01-29 07:45:41.46	67.95	4.30	-51.0	-58.0	5.1	8.00e-01	0	41	0	0	74	7642
2026-01-29 07:45:42.46	67.88	4.36	-50.7	-56.9	5.8	5.74e-01	0	41	0	1048576	73	7176
2026-01-29 07:45:43.47	67.81	4.42	-50.4	-56.0	6.5	3.19e-01	0	41	0	7340032	72	6856
2026-01-29 07:45:44.48	67.73	4.48	-50.4	-55.7	6.7	2.39e-01	0	41	0	12582912	72	6640
2026-01-29 07:45:45.48	67.66	4.54	-50.4	-56.0	6.5	2.65e-01	0	41	0	18874368	72	6807
2026-01-29 07:45:46.49	67.58	4.60	-50.6	-56.6	6.0	2.99e-01	0	41	0	24117248	72	7290
2026-01-29 07:45:47.50	67.51	4.66	-50.7	-57.1	5.6	5.29e-01	0	41	0	29360128	72	7787
2026-01-29 07:45:48.50	67.43	4.72	-50.8	-57.4	5.5	6.86e-01	0	41	0	31457280	72	8010
2026-01-29 07:45:49.51	67.36	4.79	-50.7	-56.9	5.8	5.30e-01	0	41	0	35651584	72	7593
2026-01-29 07:45:50.52	67.28	4.85	-50.3	-55.5	6.9	2.49e-01	0	41	0	40894464	72	6429
2026-01-29 07:45:51.53	67.21	4.91	-49.7	-53.8	8.6	5.87e-02	0	41	0	46137344	71	5602
2026-01-29 07:45:52.54	67.13	4.97	-48.9	-52.1	10.3	1.07e-02	0	41	0	52428800	69	5216
2026-01-29 07:45:53.55	67.05	5.04	-49.9	-54.2	8.4	2.36e-03	0	41	0	57671680	70	6253
2026-01-29 07:45:54.55	66.98	5.10	-48.8	-51.8	10.7	2.76e-01	0	41	0	61865984	69	4994
2026-01-29 07:45:55.56	66.90	5.16	-50.0	-54.5	8.6	3.97e-04	0	41	0	68157440	70	6444
2026-01-29 07:45:56.57	66.82	5.22	-50.3	-55.3	4.8	8.46e-01	0	41	104	69206016	72	6314
2026-01-29 07:45:57.57	66.74	5.28	-44.9	-46.3	16.4	6.99e-04	0	41	0	72351744	62	3973
2026-01-29 07:45:58.58	66.66	5.35	-43.9	-45.1	17.9	0.00e+00	0	41	0	77594624	59	4123
2026-01-29 07:45:59.59	66.58	5.41	-44.1	-45.3	17.8	0.00e+00	0	41	0	83886080	59	4223
2026-01-29 07:46:00.60	66.50	5.47	-43.7	-44.9	18.3	0.00e+00	0	41	0	89128960	59	4012
2026-01-29 07:46:01.61	66.42	5.54	-43.2	-44.3	18.9	0.00e+00	0	41	0	94371840	58	3964
2026-01-29 07:46:02.61	66.34	5.60	-43.0	-44.1	19.0	0.00e+00	0	41	0	100663296	58	3909
2026-01-29 07:46:03.62	66.26	5.66	-42.8	-43.9	19.3	0.00e+00	0	41	0	105906176	57	4007
2026-01-29 07:46:04.63	66.18	5.72	-42.9	-43.9	19.2	0.00e+00	0	41	0	111149056	57	4049
2026-01-29 07:46:05.63	66.10	5.79	-42.8	-43.9	19.3	0.00e+00	0	41	0	117440512	57	4023
2026-01-29 07:46:06.64	66.02	5.85	-43.0	-44.1	19.1	0.00e+00	0	41	0	122683392	57	4114
2026-01-29 07:46:07.66	65.94	5.92	-43.0	-44.1	19.2	0.00e+00	0	41	0	128974848	57	4100
2026-01-29 07:46:08.66	65.86	5.98	-43.0	-44.1	19.2	0.00e+00	0	41	0	134217728	57	4126
2026-01-29 07:46:09.67	65.77	6.04	-42.9	-44.0	19.3	0.00e+00	0	41	0	140509184	57	4079
2026-01-29 07:46:10.68	65.69	6.11	-42.9	-44.0	19.3	0.00e+00	0	41	0	145752064	57	4065
2026-01-29 07:46:11.69	65.61	6.17	-43.0	-44.0	19.3	0.00e+00	0	41	0	152043520	57	4098
2026-01-29 07:46:12.69	65.52	6.23	-42.9	-44.0	19.3	0.00e+00	0	41	0	157286400	57	4073
2026-01-29 07:46:13.70	65.44	6.30	-43.0	-44.1	19.2	0.00e+00	0	41	0	162529280	57	4119
2026-01-29 07:46:14.70	65.35	6.36	-43.0	-44.1	19.2	0.00e+00	0	41	0	168820736	57	4115
2026-01-29 07:46:15.71	65.27	6.43	-42.9	-44.0	19.3	0.00e+00	0	41	0	174063616	57	4079
2026-01-29 07:46:16.72	65.18	6.49	-42.9	-44.0	19.3	0.00e+00	0	41	0	179306496	57	4067
2026-01-29 07:46:17.72	65.10	6.55	-43.0	-44.0	19.3	0.00e+00	0	41	0	185597952	57	4095
2026-01-29 07:46:18.73	65.01	6.62	-42.9	-44.0	19.4	0.00e+00	0	41	0	190840832	57	4074
2026-01-29 07:46:19.74	64.93	6.68	-42.9	-44.0	19.4	0.00e+00	0	41	0	196083712	57	4065
2026-01-29 07:46:20.74	64.84	6.75	-43.0	-44.1	19.3	0.00e+00	0	41	0	202375168	57	4109
2026-01-29 07:46:21.75	64.75	6.81	-43.0	-44.1	19.3	0.00e+00	0	41	0	207618048	57	4105
2026-01-29 07:46:22.76	64.66	6.88	-42.8	-43.9	19.5	0.00e+00	0	41	0	213909504	57	4025
2026-01-29 07:46:23.77	64.58	6.94	-42.9	-44.0	19.4	0.00e+00	0	41	0	219152384	57	4059
2026-01-29 07:46:24.78	64.49	7.01	-42.9	-44.0	19.4	0.00e+00	0	42	0	225443840	57	4058
2026-01-29 07:46:25.78	64.40	7.07	-42.8	-43.9	19.5	0.00e+00	0	41	0	230686720	57	4015
2026-01-29 07:46:26.79	64.31	7.14	-42.8	-43.9	19.5	0.00e+00	0	41	0	236978176	57	4014
2026-01-29 07:46:27.80	64.22	7.20	-42.9	-43.9	19.5	0.00e+00	0	41	0	242221056	57	4050
2026-01-29 07:46:28.80	64.13	7.27	-42.8	-43.9	19.6	0.00e+00	0	41	0	247463936	57	4017
2026-01-29 07:46:29.81	64.04	7.34	-42.8	-43.9	19.5	0.00e+00	0	42	0	253755392	57	4019
2026-01-29 07:46:30.81	63.95	7.40	-43.0	-44.0	19.4	0.00e+00	0	41	0	258998272	57	4086
2026-01-29 07:46:31.82	63.86	7.47	-42.8	-43.9	19.6	0.00e+00	0	41	0	264241152	57	4008
2026-01-29 07:46:32.83	63.76	7.53	-42.9	-43.9	19.6	0.00e+00	0	41	0	270532608	57	4042
2026-01-29 07:46:33.84	63.67	7.60	-42.9	-44.0	19.5	0.00e+00	0	42	0	275775488	57	4077
2026-01-29 07:46:34.85	63.58	7.67	-42.9	-43.9	19.6	0.00e+00	0	41	0	282066944	57	4028
2026-01-29 07:46:35.85	63.49	7.73	-42.9	-43.9	19.6	0.00e+00	0	42	0	287309824	57	4025
2026-01-29 07:46:36.86	63.39	7.80	-42.6	-43.6	19.9	0.00e+00	0	42	0	293601280	57	3896
2026-01-29 07:46:37.87	63.30	7.86	-42.5	-43.4	20.0	0.00e+00	0	41	0	298844160	56	4051
2026-01-29 07:46:38.88	63.20	7.93	-42.5	-43.5	20.0	0.00e+00	0	42	0	304087040	56	4057
2026-01-29 07:46:39.89	63.11	8.00	-42.5	-43.5	20.0	0.00e+00	0	41	0	310378496	56	4056
2026-01-29 07:46:40.89	63.01	8.06	-42.5	-43.5	20.1	0.00e+00	0	42	0	315621376	56	4063
2026-01-29 07:46:41.90	62.92	8.13	-42.5	-43.5	20.0	0.00e+00	0	41	0	321912832	56	4062
2026-01-29 07:46:42.91	62.82	8.20	-42.4	-43.4	20.1	0.00e+00	0	42	0	327155712	56	4022
2026-01-29 07:46:43.91	62.72	8.27	-42.2	-43.2	20.3	0.00e+00	0	42	0	332398592	56	3936
2026-01-29 07:46:44.92	62.63	8.33	-42.2	-43.1	20.4	0.00e+00	0	41	0	338690048	56	3906
2026-01-29 07:46:45.93	62.53	8.40	-42.2	-43.2	20.4	0.00e+00	0	42	0	343932928	56	3922
2026-01-29 07:46:46.94	62.43	8.47	-42.3	-43.3	20.2	0.00e+00	0	42	0	349175808	56	3991
2026-01-29 07:46:47.94	62.33	8.53	-42.3	-43.3	20.3	0.00e+00	0	42	0	355467264	56	3976
2026-01-29 07:46:48.95	62.23	8.60	-42.4	-43.3	20.2	0.00e+00	0	42	0	360710144	56	3990
2026-01-29 07:46:49.96	62.13	8.67	-42.4	-43.4	20.2	0.00e+00	0	42	0	367001600	56	4008
2026-01-29 07:46:50.97	62.03	8.74	-42.3	-43.3	20.3	0.00e+00	0	42	0	372244480	56	3964
2026-01-29 07:46:51.97	61.93	8.80	-42.1	-43.1	20.5	0.00e+00	0	42	0	378535936	56	3887
2026-01-29 07:46:52.98	61.83	8.87	-42.0	-43.0	20.6	0.00e+00	0	42	0	383778816	56	3831
2026-01-29 07:46:53.99	61.73	8.94	-42.1	-43.1	20.5	0.00e+00	0	42	0	389021696	56	3879
2026-01-29 07:46:55.00	61.63	9.01	-42.3	-43.2	20.4	0.00e+00	0	42	0	395313152	56	3952
2026-01-29 07:46:56.01	61.52	9.08	-42.2	-43.1	20.5	0.00e+00	0	42	0	400556032	56	3906
2026-01-29 07:46:57.02	61.42	9.15	-42.1	-43.1	20.5	0.00e+00	0	42	0	406847488	56	3883
2026-01-29 07:46:58.03	61.32	9.21	-42.3	-43.2	20.4	0.00e+00	0	42	0	412090368	56	3956
2026-01-29 07:46:59.03	61.21	9.28	-42.2	-43.2	20.4	0.00e+00	0	42	0	417333248	56	3934
2026-01-29 07:47:00.04	61.11	9.35	-42.2	-43.2	20.4	0.00e+00	0	42	0	423624704	56	3942
2026-01-29 07:47:01.04	61.00	9.42	-42.3	-43.3	20.3	0.00e+00	0	42	0	428867584	56	3990
2026-01-29 07:47:02.05	60.90	9.49	-42.3	-43.3	20.4	0.00e+00	0	42	0	434110464	56	3984
2026-01-29 07:47:03.06	60.79	9.56	-42.3	-43.3	20.3	0.00e+00	0	42	0	440401920	56	3986
2026-01-29 07:47:04.07	60.69	9.63	-42.1	-43.1	20.6	0.00e+00	0	42	0	446693376	56	3890
2026-01-29 07:47:05.07	60.58	9.70	-42.1	-43.1	20.6	0.00e+00	0	41	0	451936256	56	3883
2026-01-29 07:47:06.08	60.47	9.76	-42.1	-43.0	20.6	0.00e+00	0	41	0	457179136	56	3866
2026-01-29 07:47:07.09	60.36	9.83	-42.3	-43.2	20.4	0.00e+00	0	42	0	463470592	56	3946
2026-01-29 07:47:08.10	60.25	9.90	-42.3	-43.3	20.4	0.00e+00	0	42	0	468713472	56	3974
2026-01-29 07:47:09.10	60.15	9.97	-42.3	-43.3	20.4	0.00e+00	0	41	0	475004928	56	3991
2026-01-29 07:47:10.11	60.04	10.04	-42.0	-43.0	20.7	0.00e+00	0	42	0	480247808	56	3837
2026-01-29 07:47:11.12	59.92	10.11	-42.1	-43.0	20.7	0.00e+00	0	42	0	485490688	56	3852
2026-01-29 07:47:12.13	59.81	10.18	-42.0	-43.0	20.7	0.00e+00	0	42	0	491782144	56	3835
2026-01-29 07:47:13.14	59.70	10.25	-42.1	-43.0	20.7	0.00e+00	0	42	0	497025024	56	3860
2026-01-29 07:47:14.14	59.59	10.32	-42.3	-43.2	20.5	0.00e+00	0	42	0	502267904	56	3958
2026-01-29 07:47:15.15	59.48	10.39	-42.2	-43.2	20.5	0.00e+00	0	42	0	508559360	56	3928
2026-01-29 07:47:16.16	59.36	10.46	-42.2	-43.1	20.6	0.00e+00	0	42	0	514850816	56	3910
2026-01-29 07:47:17.16	59.25	10.53	-42.0	-42.9	20.8	0.00e+00	0	42	0	520093696	56	3815
2026-01-29 07:47:18.17	59.14	10.60	-41.9	-42.8	20.8	0.00e+00	0	42	0	525336576	55	3979
2026-01-29 07:47:19.17	59.02	10.67	-42.0	-42.9	20.7	0.00e+00	0	42	0	531628032	55	4028
2026-01-29 07:47:20.18	58.91	10.74	-41.9	-42.8	20.8	0.00e+00	0	42	0	536870912	55	3990
2026-01-29 07:47:21.19	58.79	10.81	-41.8	-42.7	20.9	0.00e+00	0	42	0	542113792	55	3950
2026-01-29 07:47:22.20	58.68	10.88	-41.9	-42.8	20.8	0.00e+00	0	42	0	548405248	55	3992
2026-01-29 07:47:23.21	58.56	10.95	-41.7	-42.6	21.0	0.00e+00	0	42	0	553648128	55	3895
2026-01-29 07:47:24.22	58.44	11.03	-41.6	-42.5	21.2	0.00e+00	0	42	0	559939584	55	3836
2026-01-29 07:47:25.23	58.32	11.10	-41.6	-42.5	21.1	0.00e+00	0	42	0	565182464	55	3850
2026-01-29 07:47:26.24	58.20	11.17	-41.7	-42.6	21.1	0.00e+00	0	42	0	570425344	55	3894
2026-01-29 07:47:27.25	58.08	11.24	-41.5	-42.4	21.2	0.00e+00	0	42	0	576716800	55	3813
2026-01-29 07:47:28.25	57.96	11.31	-41.6	-42.5	21.1	0.00e+00	0	42	0	583008256	55	3861
2026-01-29 07:47:29.26	57.84	11.38	-41.7	-42.6	21.1	0.00e+00	0	42	0	588251136	55	3886
2026-01-29 07:47:30.27	57.72	11.45	-41.7	-42.6	21.0	0.00e+00	0	42	0	593494016	55	3906
2026-01-29 07:47:31.27	57.60	11.52	-41.7	-42.6	21.1	0.00e+00	0	42	0	599785472	55	3876
2026-01-29 07:47:32.28	57.48	11.59	-41.6	-42.5	21.2	0.00e+00	0	42	0	605028352	55	3852
2026-01-29 07:47:33.29	57.35	11.67	-41.3	-42.2	21.4	0.00e+00	0	42	0	610271232	54	3949
2026-01-29 07:47:34.30	57.23	11.74	-41.4	-42.3	21.4	0.00e+00	0	42	0	616562688	54	3978
2026-01-29 07:47:35.31	57.11	11.81	-41.5	-42.4	21.3	0.00e+00	0	42	0	621805568	54	4010
2026-01-29 07:47:36.31	56.98	11.88	-41.5	-42.4	21.3	0.00e+00	0	41	0	627048448	54	4028
2026-01-29 07:47:37.32	56.86	11.95	-41.4	-42.3	21.4	0.00e+00	0	42	0	633339904	54	3987
2026-01-29 07:47:38.33	56.73	12.03	-41.4	-42.3	21.4	0.00e+00	0	42	0	638582784	54	3993
2026-01-29 07:47:39.33	56.60	12.10	-41.2	-42.1	21.6	0.00e+00	0	42	0	644874240	54	3892
2026-01-29 07:47:40.34	56.48	12.17	-41.3	-42.1	21.6	0.00e+00	0	42	0	650117120	54	3901
2026-01-29 07:47:41.35	56.35	12.24	-41.4	-42.2	21.5	0.00e+00	0	42	0	655360000	54	3957
2026-01-29 07:47:42.36	56.22	12.31	-41.3	-42.2	21.5	0.00e+00	0	42	0	661651456	54	3942
2026-01-29 07:47:43.37	56.09	12.39	-41.3	-42.2	21.5	0.00e+00	0	42	0	667942912	54	3952
2026-01-29 07:47:44.38	55.96	12.46	-41.2	-42.1	21.6	0.00e+00	0	42	0	673185792	54	3894
2026-01-29 07:47:45.39	55.83	12.53	-41.3	-42.2	21.6	0.00e+00	0	42	0	678428672	54	3916
2026-01-29 07:47:46.39	55.70	12.60	-41.2	-42.0	21.7	0.00e+00	0	42	0	684720128	54	3868
2026-01-29 07:47:47.40	55.57	12.68	-41.1	-42.0	21.7	0.00e+00	0	42	0	689963008	54	3829
2026-01-29 07:47:48.41	55.43	12.75	-41.1	-42.0	21.7	0.00e+00	0	42	0	695205888	54	3829
2026-01-29 07:47:49.42	55.30	12.82	-41.1	-41.9	21.8	0.00e+00	0	42	0	701497344	54	3810
2026-01-29 07:47:50.43	55.16	12.89	-41.2	-42.0	21.7	0.00e+00	0	42	0	706740224	54	3855
2026-01-29 07:47:51.44	55.03	12.97	-41.1	-41.9	21.8	0.00e+00	0	42	0	711983104	54	3819
2026-01-29 07:47:52.45	54.89	13.04	-41.2	-42.0	21.7	0.00e+00	0	42	0	718274560	54	3856
2026-01-29 07:47:53.46	54.76	13.11	-41.1	-41.9	21.8	0.00e+00	0	42	0	724566016	54	3817
2026-01-29 07:47:54.46	54.62	13.19	-41.1	-42.0	21.8	0.00e+00	0	42	0	729808896	54	3826
2026-01-29 07:47:55.47	54.48	13.26	-40.9	-41.8	21.9	0.00e+00	0	42	0	735051776	53	3976
2026-01-29 07:47:56.48	54.35	13.33	-40.9	-41.8	21.9	0.00e+00	0	42	0	741343232	53	3985
2026-01-29 07:47:57.48	54.21	13.40	-41.0	-41.8	21.9	0.00e+00	0	42	0	746586112	53	3994
2026-01-29 07:47:58.49	54.07	13.48	-40.9	-41.7	22.0	0.00e+00	0	42	0	752877568	53	3929
2026-01-29 07:47:59.50	53.93	13.55	-40.8	-41.6	22.1	0.00e+00	0	42	0	758120448	53	3904
2026-01-29 07:48:00.50	53.79	13.62	-40.8	-41.6	22.1	0.00e+00	0	42	0	763363328	53	3887
2026-01-29 07:48:01.51	53.65	13.70	-40.8	-41.7	22.1	0.00e+00	0	42	0	769654784	53	3923
2026-01-29 07:48:02.52	53.50	13.77	-40.8	-41.6	22.1	0.00e+00	0	42	0	774897664	53	3887
2026-01-29 07:48:03.53	53.36	13.84	-40.8	-41.6	22.1	0.00e+00	0	42	0	780140544	53	3894
2026-01-29 07:48:04.54	53.22	13.92	-40.7	-41.5	22.2	0.00e+00	0	42	0	786432000	53	3868
2026-01-29 07:48:05.55	53.07	13.99	-40.7	-41.5	22.2	0.00e+00	0	42	0	791674880	53	3840
2026-01-29 07:48:06.56	52.92	14.06	-40.8	-41.6	22.1	0.00e+00	0	42	0	797966336	53	3894
2026-01-29 07:48:07.57	52.78	14.14	-40.7	-41.5	22.2	0.00e+00	0	42	0	803209216	53	3863
2026-01-29 07:48:08.57	52.63	14.21	-40.7	-41.5	22.3	0.00e+00	0	42	0	809500672	53	3846
2026-01-29 07:48:09.58	52.48	14.28	-40.6	-41.4	22.3	0.00e+00	0	42	0	814743552	53	3820
2026-01-29 07:48:10.59	52.34	14.36	-40.6	-41.4	22.4	0.00e+00	0	42	0	819986432	53	3796
2026-01-29 07:48:11.60	52.19	14.43	-40.5	-41.4	22.4	0.00e+00	0	42	0	826277888	53	3783
2026-01-29 07:48:12.60	52.04	14.51	-40.6	-41.5	22.3	0.00e+00	0	42	0	831520768	53	3830
2026-01-29 07:48:13.61	51.89	14.58	-40.6	-41.5	22.3	0.00e+00	0	42	0	837812224	53	3836
2026-01-29 07:48:14.63	51.73	14.65	-40.6	-41.4	22.3	0.00e+00	0	42	0	843055104	53	3797
2026-01-29 07:48:15.63	51.58	14.73	-40.6	-41.4	22.3	0.00e+00	0	42	0	848297984	53	3799
2026-01-29 07:48:16.64	51.43	14.80	-40.6	-41.4	22.3	0.00e+00	0	42	0	854589440	53	3810
2026-01-29 07:48:17.65	51.28	14.87	-40.6	-41.4	22.4	0.00e+00	0	42	0	860880896	53	3794
2026-01-29 07:48:18.66	51.12	14.95	-40.3	-41.2	22.5	0.00e+00	0	42	0	866123776	52	3919
2026-01-29 07:48:19.67	50.97	15.02	-40.5	-41.3	22.5	0.00e+00	0	42	0	871366656	52	3972
2026-01-29 07:48:20.68	50.81	15.10	-40.6	-41.4	22.4	0.00e+00	0	42	0	877658112	52	4021
2026-01-29 07:48:21.69	50.65	15.17	-40.4	-41.2	22.5	0.00e+00	0	42	0	882900992	52	3942
2026-01-29 07:48:22.70	50.50	15.24	-40.4	-41.2	22.6	0.00e+00	0	42	0	888143872	52	3933
2026-01-29 07:48:23.71	50.34	15.32	-40.4	-41.3	22.5	0.00e+00	0	42	0	894435328	52	3960
2026-01-29 07:48:24.72	50.18	15.39	-40.3	-41.1	22.7	0.00e+00	0	42	0	899678208	52	3869
2026-01-29 07:48:25.73	50.02	15.47	-40.2	-41.0	22.7	0.00e+00	0	42	0	904921088	52	3851
2026-01-29 07:48:26.73	49.86	15.54	-40.2	-41.0	22.7	0.00e+00	0	42	0	911212544	52	3863
2026-01-29 07:48:27.74	49.70	15.61	-40.3	-41.1	22.6	0.00e+00	0	42	0	916455424	52	3907
2026-01-29 07:48:28.75	49.53	15.69	-40.3	-41.1	22.7	0.00e+00	0	42	0	922746880	52	3885
2026-01-29 07:48:29.76	49.37	15.76	-40.2	-41.0	22.7	0.00e+00	0	42	0	927989760	52	3864
2026-01-29 07:48:30.77	49.20	15.84	-40.2	-41.0	22.7	0.00e+00	0	42	0	934281216	52	3868
2026-01-29 07:48:31.78	49.04	15.91	-40.2	-41.0	22.7	0.00e+00	0	42	0	939524096	52	3855
2026-01-29 07:48:32.79	48.87	15.98	-40.3	-41.2	22.6	0.00e+00	0	42	0	945815552	52	3915
2026-01-29 07:48:33.79	48.71	16.06	-40.4	-41.2	22.6	0.00e+00	0	42	0	951058432	52	3921
2026-01-29 07:48:34.80	48.54	16.13	-40.3	-41.1	22.7	0.00e+00	0	42	0	956301312	52	3905
2026-01-29 07:48:35.81	48.37	16.20	-40.3	-41.1	22.7	0.00e+00	0	42	0	962592768	52	3869
2026-01-29 07:48:36.81	48.20	16.28	-40.2	-41.0	22.8	0.00e+00	0	42	0	967835648	52	3848
2026-01-29 07:48:37.82	48.03	16.35	-40.2	-41.0	22.8	0.00e+00	0	42	0	973078528	52	3856
2026-01-29 07:48:38.83	47.86	16.42	-40.2	-41.0	22.8	0.00e+00	0	42	0	979369984	52	3838
2026-01-29 07:48:39.84	47.69	16.50	-40.3	-41.1	22.7	0.00e+00	0	42	0	984612864	52	3904
2026-01-29 07:48:40.84	47.52	16.57	-40.2	-41.0	22.8	0.00e+00	0	42	0	989855744	52	3864
2026-01-29 07:48:41.85	47.35	16.64	-40.1	-40.9	22.9	0.00e+00	0	42	0	996147200	52	3798
2026-01-29 07:48:42.85	47.17	16.72	-40.0	-40.8	23.0	0.00e+00	0	42	0	1002438656	52	3777
2026-01-29 07:48:43.86	47.00	16.79	-40.1	-40.9	22.9	0.00e+00	0	42	0	1007681536	52	3815
2026-01-29 07:48:44.87	46.82	16.86	-40.0	-40.8	23.0	0.00e+00	0	42	0	1012924416	52	3777
2026-01-29 07:48:45.88	46.65	16.94	-40.3	-41.1	22.7	0.00e+00	0	42	0	1019215872	52	3882
2026-01-29 07:48:46.88	46.47	17.01	-40.2	-41.0	22.8	0.00e+00	0	42	0	1024458752	52	3848
2026-01-29 07:48:47.89	46.29	17.08	-40.2	-41.0	22.8	0.00e+00	0	42	0	1030750208	52	3859
2026-01-29 07:48:48.90	46.11	17.16	-40.2	-41.0	22.9	0.00e+00	0	42	0	1035993088	52	3834
2026-01-29 07:48:49.91	45.93	17.23	-40.2	-41.0	22.8	0.00e+00	0	42	0	1041235968	52	3850
2026-01-29 07:48:50.92	45.75	17.30	-40.1	-40.9	22.9	0.00e+00	0	42	0	1047527424	52	3810
2026-01-29 07:48:51.93	45.57	17.38	-40.0	-40.8	23.0	0.00e+00	0	42	0	1052770304	52	3754
2026-01-29 07:48:52.94	45.38	17.45	-40.1	-40.8	23.0	0.00e+00	0	42	0	1058013184	51	4001
2026-01-29 07:48:53.95	45.20	17.52	-40.1	-40.9	23.1	0.00e+00	0	42	0	1064304640	51	4006
2026-01-29 07:48:54.95	45.02	17.59	-39.9	-40.7	23.2	0.00e+00	0	42	0	1069547520	51	3936
2026-01-29 07:48:55.96	44.83	17.67	-39.9	-40.7	23.2	0.00e+00	0	42	0	1075838976	51	3924
2026-01-29 07:48:56.97	44.64	17.74	-40.0	-40.7	23.2	0.00e+00	0	42	0	1081081856	51	3955
2026-01-29 07:48:57.98	44.46	17.81	-39.8	-40.6	23.3	0.00e+00	0	42	0	1087373312	51	3885
2026-01-29 07:48:58.98	44.27	17.88	-39.8	-40.6	23.3	0.00e+00	0	42	0	1092616192	51	3899
2026-01-29 07:48:59.99	44.08	17.95	-40.0	-40.8	23.2	0.00e+00	0	42	0	1097859072	51	3961
2026-01-29 07:49:01.00	43.89	18.03	-40.0	-40.8	23.1	0.00e+00	0	42	0	1104150528	51	3974
2026-01-29 07:49:02.01	43.70	18.10	-39.9	-40.7	23.3	0.00e+00	0	42	0	1109393408	51	3917
2026-01-29 07:49:03.02	43.50	18.17	-39.7	-40.5	23.4	0.00e+00	0	42	0	1115684864	51	3833
2026-01-29 07:49:04.03	43.31	18.24	-39.7	-40.4	23.5	0.00e+00	0	42	0	1120927744	51	3824
2026-01-29 07:49:05.03	43.12	18.31	-39.7	-40.5	23.5	0.00e+00	0	42	0	1126170624	51	3831
2026-01-29 07:49:06.04	42.92	18.38	-39.6	-40.3	23.6	0.00e+00	0	42	0	1132462080	51	3774
2026-01-29 07:49:07.05	42.73	18.45	-39.6	-40.3	23.6	0.00e+00	0	42	0	1137704960	51	3776
2026-01-29 07:49:08.05	42.53	18.52	-39.5	-40.3	23.6	0.00e+00	0	42	0	1143996416	51	3761
2026-01-29 07:49:09.06	42.33	18.60	-39.6	-40.3	23.6	0.00e+00	0	42	0	1149239296	51	3775
2026-01-29 07:49:10.07	42.14	18.67	-39.4	-40.1	23.8	0.00e+00	0	42	0	1155530752	50	3891
2026-01-29 07:49:11.07	41.94	18.74	-39.4	-40.1	23.8	0.00e+00	0	42	0	1160773632	50	3900
2026-01-29 07:49:12.07	41.74	18.81	-39.4	-40.1	23.8	0.00e+00	0	42	0	1166016512	50	3904
2026-01-29 07:49:13.08	41.54	18.88	-39.3	-40.1	23.8	0.00e+00	0	42	0	1172307968	50	3876
2026-01-29 07:49:14.09	41.34	18.95	-39.3	-40.1	23.8	0.00e+00	0	42	0	1177550848	50	3882
2026-01-29 07:49:15.10	41.13	19.02	-39.3	-40.0	23.8	0.00e+00	0	42	0	1182793728	50	3868
2026-01-29 07:49:16.11	40.93	19.09	-39.2	-39.9	23.9	0.00e+00	0	42	0	1189085184	50	3819
2026-01-29 07:49:17.12	40.72	19.16	-39.1	-39.8	24.1	0.00e+00	0	42	0	1194328064	50	3757
2026-01-29 07:49:18.13	40.52	19.22	-39.2	-39.9	24.0	0.00e+00	0	42	0	1200619520	50	3799
2026-01-29 07:49:19.13	40.31	19.29	-39.2	-39.9	24.0	0.00e+00	0	42	0	1205862400	50	3813
2026-01-29 07:49:20.14	40.10	19.36	-39.3	-40.0	23.8	0.00e+00	0	42	0	1211105280	50	3868
2026-01-29 07:49:21.15	39.89	19.43	-39.3	-40.1	23.8	0.00e+00	0	42	0	1217396736	50	3871
2026-01-29 07:49:22.16	39.68	19.50	-39.3	-40.0	23.9	0.00e+00	0	42	0	1223688192	50	3859
2026-01-29 07:49:23.17	39.47	19.57	-39.2	-40.0	23.9	0.00e+00	0	42	0	1228931072	50	3838
2026-01-29 07:49:24.17	39.26	19.64	-39.2	-39.9	24.0	0.00e+00	0	42	0	1234173952	50	3822
2026-01-29 07:49:25.18	39.05	19.70	-39.2	-40.0	23.9	0.00e+00	0	42	0	1240465408	50	3831
2026-01-29 07:49:26.19	38.83	19.77	-39.1	-39.9	24.0	0.00e+00	0	42	0	1245708288	50	3786
2026-01-29 07:49:27.20	38.62	19.84	-39.1	-39.9	24.0	0.00e+00	0	42	0	1250951168	50	3782
2026-01-29 07:49:28.20	38.41	19.90	-39.2	-39.9	24.0	0.00e+00	0	42	0	1257242624	50	3798
2026-01-29 07:49:29.21	38.19	19.97	-39.3	-40.1	23.9	0.00e+00	0	42	0	1262485504	50	3873
2026-01-29 07:49:30.22	37.97	20.04	-39.2	-39.9	24.0	0.00e+00	0	42	0	1267728384	50	3804
2026-01-29 07:49:31.23	37.75	20.10	-39.2	-39.9	24.0	0.00e+00	0	42	0	1274019840	50	3820
2026-01-29 07:49:32.23	37.53	20.17	-39.2	-39.9	24.0	0.00e+00	0	42	0	1279262720	50	3824
2026-01-29 07:49:33.25	37.31	20.24	-39.1	-39.8	24.1	0.00e+00	0	42	0	1285554176	50	3770
2026-01-29 07:49:34.25	37.09	20.30	-39.1	-39.8	24.1	0.00e+00	0	42	0	1290797056	50	3768
2026-01-29 07:49:35.26	36.87	20.37	-39.1	-39.8	24.1	0.00e+00	0	42	0	1297088512	50	3761
2026-01-29 07:49:36.27	36.65	20.43	-39.1	-39.8	24.1	0.00e+00	0	42	0	1302331392	50	3764
2026-01-29 07:49:37.28	36.42	20.50	-39.1	-39.8	24.1	0.00e+00	0	42	0	1308622848	50	3762
2026-01-29 07:49:38.28	36.20	20.56	-38.9	-39.6	24.3	0.00e+00	0	42	0	1313865728	49	3909
2026-01-29 07:49:39.29	35.97	20.62	-38.7	-39.5	24.4	0.00e+00	0	42	0	1319108608	49	3833
2026-01-29 07:49:40.29	35.75	20.69	-38.8	-39.5	24.4	0.00e+00	0	42	0	1325400064	49	3852
2026-01-29 07:49:41.30	35.52	20.75	-38.9	-39.6	24.2	0.00e+00	0	42	0	1330642944	49	3901
2026-01-29 07:49:42.31	35.29	20.81	-39.0	-39.7	24.2	0.00e+00	0	42	0	1335885824	49	3943
2026-01-29 07:49:43.32	35.06	20.88	-39.1	-39.8	24.1	0.00e+00	0	42	0	1342177280	49	3981
2026-01-29 07:49:44.33	34.83	20.94	-39.2	-39.9	24.0	0.00e+00	0	42	0	1347420160	49	4029
2026-01-29 07:49:45.34	34.60	21.00	-39.2	-40.0	23.9	0.00e+00	0	42	0	1352663040	49	4072
2026-01-29 07:49:46.34	34.37	21.06	-39.1	-39.8	24.1	0.00e+00	0	42	0	1358954496	49	3983
2026-01-29 07:49:47.35	34.13	21.12	-39.1	-39.9	24.0	0.00e+00	0	42	0	1364197376	49	4013
2026-01-29 07:49:48.36	33.90	21.18	-39.2	-40.0	24.0	0.00e+00	0	42	0	1370488832	49	4060
2026-01-29 07:49:49.37	33.66	21.25	-39.0	-39.8	24.1	0.00e+00	0	42	0	1375731712	49	3969
2026-01-29 07:49:50.37	33.43	21.31	-39.2	-39.9	24.0	0.00e+00	0	42	0	1382023168	49	4027
2026-01-29 07:49:51.38	33.19	21.37	-39.3	-40.1	23.8	0.00e+00	0	42	0	1387266048	49	4115
2026-01-29 07:49:52.39	32.95	21.42	-39.3	-40.0	23.9	0.00e+00	0	42	0	1393557504	49	4078
2026-01-29 07:49:53.40	32.71	21.48	-39.0	-39.7	24.1	0.00e+00	0	42	0	1398800384	49	3954
2026-01-29 07:49:54.40	32.47	21.54	-38.8	-39.5	24.3	0.00e+00	0	42	0	1404043264	49	3868
2026-01-29 07:49:55.41	32.23	21.60	-38.7	-39.5	24.4	0.00e+00	0	42	0	1410334720	49	3835
2026-01-29 07:49:56.42	31.99	21.66	-38.9	-39.6	24.3	0.00e+00	0	42	0	1415577600	49	3888
2026-01-29 07:49:57.43	31.75	21.72	-39.0	-39.7	24.2	0.00e+00	0	42	0	1420820480	49	3940
2026-01-29 07:49:58.44	31.50	21.77	-39.0	-39.7	24.2	0.00e+00	0	42	0	1427111936	49	3930
2026-01-29 07:49:59.45	31.26	21.83	-39.0	-39.7	24.2	0.00e+00	0	42	0	1433403392	49	3952
2026-01-29 07:50:00.46	31.01	21.89	-39.0	-39.7	24.2	0.00e+00	0	42	0	1438646272	49	3953
2026-01-29 07:50:01.47	30.76	21.94	-39.0	-39.7	24.2	0.00e+00	0	42	0	1443889152	49	3949
2026-01-29 07:50:02.48	30.52	22.00	-39.0	-39.8	24.2	0.00e+00	0	42	0	1450180608	49	3966
2026-01-29 07:50:03.49	30.27	22.05	-38.9	-39.7	24.3	0.00e+00	0	42	0	1455423488	49	3925
2026-01-29 07:50:04.49	30.02	22.11	-38.8	-39.6	24.4	0.00e+00	0	42	0	1460666368	49	3875
2026-01-29 07:50:05.50	29.77	22.16	-38.8	-39.5	24.5	0.00e+00	0	42	0	1466957824	49	3842
2026-01-29 07:50:06.51	29.52	22.21	-38.8	-39.5	24.5	0.00e+00	0	42	0	1472200704	49	3851
2026-01-29 07:50:07.51	29.27	22.27	-38.9	-39.6	24.3	0.00e+00	0	42	0	1478492160	49	3893
2026-01-29 07:50:08.52	29.02	22.32	-38.8	-39.6	24.3	0.00e+00	0	42	0	1483735040	49	3885
2026-01-29 07:50:09.53	28.76	22.37	-38.9	-39.6	24.3	0.00e+00	0	42	0	1488977920	49	3904
2026-01-29 07:50:10.54	28.51	22.42	-38.9	-39.6	24.3	0.00e+00	0	42	0	1495269376	49	3883
2026-01-29 07:50:11.54	28.26	22.47	-38.8	-39.6	23.9	0.00e+00	0	42	0	1500512256	49	3874
2026-01-29 07:50:12.55	28.00	22.52	-38.8	-39.6	23.9	0.00e+00	0	42	0	1505755136	49	3881
2026-01-29 07:50:13.56	27.74	22.57	-38.8	-39.6	23.9	0.00e+00	0	42	0	1512046592	49	3880
2026-01-29 07:50:14.56	27.49	22.62	-38.7	-39.4	23.9	0.00e+00	0	42	0	1518338048	49	3793
2026-01-29 07:50:15.57	27.23	22.67	-38.4	-39.2	24.0	0.00e+00	0	42	0	1523580928	48	3917
2026-01-29 07:50:16.58	26.97	22.72	-38.4	-39.1	24.0	0.00e+00	0	42	0	1528823808	48	3899
2026-01-29 07:50:17.59	26.71	22.77	-38.4	-39.1	24.0	0.00e+00	0	42	0	1535115264	48	3911
2026-01-29 07:50:18.60	26.45	22.81	-38.4	-39.2	24.4	0.00e+00	0	42	0	1540358144	48	3915
2026-01-29 07:50:19.61	26.18	22.86	-38.5	-39.3	24.7	0.00e+00	0	42	0	1545601024	48	3962
2026-01-29 07:50:20.61	25.92	22.91	-38.6	-39.4	24.6	0.00e+00	0	42	0	1551892480	48	4005
2026-01-29 07:50:21.63	25.66	22.95	-38.6	-39.3	24.3	0.00e+00	0	42	0	1557135360	48	4002
2026-01-29 07:50:22.63	25.40	23.00	-38.5	-39.2	24.6	0.00e+00	0	42	0	1563426816	48	3955
2026-01-29 07:50:23.64	25.13	23.04	-38.5	-39.2	24.8	0.00e+00	0	42	0	1568669696	48	3936
2026-01-29 07:50:24.65	24.87	23.09	-38.5	-39.3	24.6	0.00e+00	0	42	0	1573912576	48	3965
2026-01-29 07:50:25.66	24.60	23.13	-38.5	-39.2	24.5	0.00e+00	0	42	0	1580204032	48	3940
2026-01-29 07:50:26.67	24.33	23.17	-38.5	-39.3	24.3	0.00e+00	0	42	0	1586495488	48	3960
2026-01-29 07:50:27.68	24.06	23.21	-38.5	-39.2	24.5	0.00e+00	0	42	0	1591738368	48	3949
2026-01-29 07:50:28.69	23.79	23.25	-38.3	-39.0	24.8	0.00e+00	0	42	0	1596981248	48	3860
2026-01-29 07:50:29.69	23.53	23.29	-38.2	-38.9	25.0	0.00e+00	0	42	0	1603272704	48	3812
2026-01-29 07:50:30.69	23.26	23.33	-38.2	-38.9	25.0	0.00e+00	0	42	0	1608515584	48	3811
2026-01-29 07:50:31.70	22.99	23.37	-38.3	-39.0	24.9	0.00e+00	0	42	0	1613758464	48	3838
2026-01-29 07:50:32.71	22.72	23.41	-38.3	-39.1	24.9	0.00e+00	0	42	0	1620049920	48	3871
2026-01-29 07:50:33.72	22.44	23.45	-38.4	-39.1	24.8	0.00e+00	0	42	0	1625292800	48	3890
2026-01-29 07:50:34.73	22.17	23.49	-38.5	-39.3	24.7	0.00e+00	0	42	0	1630535680	48	3966
2026-01-29 07:50:35.74	21.90	23.53	-38.6	-39.3	24.7	0.00e+00	0	42	0	1636827136	48	3992
2026-01-29 07:50:36.74	21.63	23.56	-38.6	-39.4	24.6	0.00e+00	0	42	0	1642070016	48	4013
2026-01-29 07:50:37.75	21.35	23.60	-38.6	-39.3	24.7	0.00e+00	0	42	0	1648361472	48	3980
2026-01-29 07:50:38.76	21.08	23.63	-38.6	-39.3	24.6	0.00e+00	0	42	0	1653604352	48	3998
2026-01-29 07:50:39.77	20.80	23.67	-38.6	-39.3	24.7	0.00e+00	0	42	0	1659895808	48	3973
2026-01-29 07:50:40.78	20.52	23.70	-38.6	-39.4	24.6	0.00e+00	0	42	0	1665138688	48	4010
2026-01-29 07:50:41.79	20.25	23.73	-38.5	-39.2	24.7	0.00e+00	0	42	0	1671430144	48	3941
2026-01-29 07:50:42.80	19.97	23.77	-38.5	-39.3	24.7	0.00e+00	0	42	0	1676673024	48	3963
2026-01-29 07:50:43.81	19.69	23.80	-38.5	-39.2	24.8	0.00e+00	0	42	0	1681915904	48	3933
2026-01-29 07:50:44.82	19.41	23.83	-38.5	-39.3	24.7	0.00e+00	0	42	0	1688207360	48	3964
2026-01-29 07:50:45.83	19.13	23.86	-38.5	-39.2	24.7	0.00e+00	0	42	0	1693450240	48	3946
2026-01-29 07:50:46.84	18.85	23.89	-38.5	-39.2	24.8	0.00e+00	0	42	0	1698693120	48	3941
2026-01-29 07:50:47.85	18.57	23.92	-38.2	-38.9	25.0	0.00e+00	0	42	0	1704984576	48	3810
2026-01-29 07:50:48.85	18.29	23.95	-38.2	-38.9	25.0	0.00e+00	0	42	0	1711276032	48	3812
2026-01-29 07:50:49.86	18.01	23.97	-38.2	-38.9	25.1	0.00e+00	0	42	0	1716518912	48	3802
2026-01-29 07:50:50.87	17.73	24.00	-38.1	-38.8	25.1	0.00e+00	0	42	0	1721761792	48	3774
2026-01-29 07:50:51.88	17.45	24.03	-38.2	-38.9	25.0	0.00e+00	0	42	0	1728053248	48	3824
2026-01-29 07:50:52.89	17.16	24.05	-38.1	-38.8	25.2	0.00e+00	0	42	0	1733296128	48	3739
2026-01-29 07:50:53.90	16.88	24.07	-37.6	-38.4	25.1	0.00e+00	0	42	0	1738539008	47	3781
2026-01-29 07:50:54.91	16.59	24.10	-37.6	-38.3	25.1	0.00e+00	0	42	0	1744830464	47	3742
2026-01-29 07:50:55.92	16.31	24.12	-37.6	-38.4	25.0	0.00e+00	0	42	0	1750073344	47	3783
2026-01-29 07:50:56.93	16.03	24.14	-37.7	-38.4	25.0	0.00e+00	0	42	0	1756364800	47	3817
2026-01-29 07:50:57.94	15.74	24.17	-37.9	-38.6	24.8	0.00e+00	0	42	0	1761607680	47	3897
2026-01-29 07:50:58.95	15.45	24.19	-37.9	-38.6	24.9	0.00e+00	0	42	0	1766850560	47	3885
2026-01-29 07:50:59.95	15.17	24.21	-38.0	-38.7	24.8	0.00e+00	0	42	0	1773142016	47	3941
2026-01-29 07:51:00.96	14.89	24.22	-38.0	-38.8	24.7	0.00e+00	0	42	0	1779433472	47	3960
2026-01-29 07:51:01.97	14.60	24.24	-38.2	-39.0	24.5	0.00e+00	0	42	0	1784676352	47	4070
2026-01-29 07:51:02.97	14.31	24.26	-38.1	-38.8	24.6	0.00e+00	0	42	0	1789919232	47	3997
2026-01-29 07:51:03.98	14.03	24.28	-38.1	-38.8	24.7	0.00e+00	0	42	0	1796210688	47	3985
2026-01-29 07:51:04.99	13.74	24.29	-38.1	-38.8	24.6	0.00e+00	0	42	0	1801453568	47	3996
2026-01-29 07:51:06.00	13.45	24.31	-37.9	-38.6	24.8	0.00e+00	0	42	0	1806696448	47	3910
2026-01-29 07:51:07.00	13.17	24.32	-37.9	-38.6	24.8	0.00e+00	0	42	0	1812987904	47	3911
2026-01-29 07:51:08.01	12.88	24.34	-37.9	-38.6	24.8	0.00e+00	0	42	0	1818230784	47	3904
2026-01-29 07:51:09.02	12.59	24.35	-37.8	-38.6	24.8	0.00e+00	0	42	0	1823473664	47	3870
2026-01-29 07:51:10.03	12.30	24.36	-37.9	-38.6	24.8	0.00e+00	0	42	0	1829765120	47	3909
2026-01-29 07:51:11.04	12.01	24.37	-37.8	-38.6	24.9	0.00e+00	0	42	0	1835008000	47	3877
2026-01-29 07:51:12.05	11.72	24.38	-37.8	-38.5	24.9	0.00e+00	0	42	0	1841299456	47	3860
2026-01-29 07:51:13.06	11.43	24.39	-37.6	-38.3	25.1	0.00e+00	0	42	0	1846542336	47	3776
2026-01-29 07:51:14.07	11.14	24.40	-37.5	-38.2	25.2	0.00e+00	0	42	0	1852833792	47	3724
2026-01-29 07:51:15.07	10.86	24.41	-37.6	-38.3	25.1	0.00e+00	0	42	0	1858076672	47	3750
2026-01-29 07:51:16.08	10.57	24.42	-37.7	-38.4	25.0	0.00e+00	0	42	0	1864368128	47	3819
2026-01-29 07:51:17.09	10.28	24.43	-37.8	-38.5	24.9	0.00e+00	0	42	0	1869611008	47	3853
2026-01-29 07:51:18.10	9.98	24.43	-37.8	-38.5	25.0	0.00e+00	0	42	0	1874853888	47	3854
2026-01-29 07:51:19.11	9.69	24.44	-37.8	-38.5	24.9	0.00e+00	0	42	0	1881145344	47	3854
2026-01-29 07:51:20.11	9.41	24.44	-37.9	-38.6	24.9	0.00e+00	0	42	0	1886388224	47	3880
2026-01-29 07:51:21.12	9.12	24.44	-37.8	-38.5	25.0	0.00e+00	0	42	0	1891631104	47	3834
2026-01-29 07:51:22.13	8.83	24.45	-37.8	-38.5	24.9	0.00e+00	0	42	0	1897922560	47	3857
2026-01-29 07:51:23.14	8.54	24.45	-37.9	-38.6	24.9	0.00e+00	0	42	0	1903165440	47	3908
2026-01-29 07:51:24.15	8.24	24.45	-37.9	-38.6	24.8	0.00e+00	0	42	0	1908408320	47	3911
2026-01-29 07:51:25.16	7.95	24.45	-37.8	-38.5	25.0	0.00e+00	0	42	0	1914699776	47	3838
2026-01-29 07:51:26.17	7.66	24.45	-37.7	-38.4	25.0	0.00e+00	0	42	0	1920991232	47	3809
2026-01-29 07:51:27.17	7.38	24.45	-37.6	-38.3	25.1	0.00e+00	0	42	0	1926234112	47	3774
2026-01-29 07:51:28.18	7.08	24.45	-37.6	-38.3	25.1	0.00e+00	0	42	0	1931476992	47	3756
2026-01-29 07:51:29.19	6.79	24.44	-37.7	-38.4	25.1	0.00e+00	0	42	0	1937768448	47	3808
2026-01-29 07:51:30.20	6.50	24.44	-37.7	-38.4	25.1	0.00e+00	0	42	0	1943011328	47	3789
2026-01-29 07:51:31.21	6.21	24.43	-37.6	-38.3	25.1	0.00e+00	0	42	0	1949302784	47	3763
2026-01-29 07:51:32.21	5.93	24.43	-37.5	-38.2	25.2	0.00e+00	0	42	0	1954545664	47	3737
2026-01-29 07:51:33.22	5.64	24.42	-37.6	-38.4	25.1	0.00e+00	0	42	0	1959788544	47	3785
2026-01-29 07:51:34.23	5.35	24.42	-37.7	-38.4	25.0	0.00e+00	0	42	0	1966080000	47	3812
2026-01-29 07:51:35.23	5.06	24.41	-37.7	-38.5	25.0	0.00e+00	0	42	0	1971322880	47	3826
2026-01-29 07:51:36.24	4.77	24.40	-37.7	-38.4	25.1	0.00e+00	0	42	0	1976565760	47	3795
2026-01-29 07:51:37.25	4.48	24.39	-37.8	-38.5	25.0	0.00e+00	0	42	0	1982857216	47	3835
2026-01-29 07:51:38.26	4.19	24.38	-37.8	-38.5	25.0	0.00e+00	0	42	0	1989148672	47	3843
2026-01-29 07:51:39.26	3.90	24.37	-37.8	-38.5	25.0	0.00e+00	0	42	0	1994391552	47	3847
2026-01-29 07:51:40.27	3.61	24.36	-37.9	-38.6	24.9	0.00e+00	0	42	0	1999634432	47	3899
2026-01-29 07:51:41.28	3.33	24.35	-37.8	-38.5	24.9	0.00e+00	0	42	0	2005925888	47	3868
2026-01-29 07:51:42.29	3.04	24.33	-37.8	-38.5	25.0	0.00e+00	0	42	0	2011168768	47	3863
2026-01-29 07:51:43.30	2.75	24.32	-37.8	-38.5	25.0	0.00e+00	0	42	0	2016411648	47	3862
2026-01-29 07:51:44.31	2.46	24.30	-38.0	-38.7	24.8	0.00e+00	0	42	0	2022703104	47	3948
2026-01-29 07:51:45.32	2.17	24.29	-38.0	-38.7	24.8	0.00e+00	0	42	0	2027945984	47	3952
2026-01-29 07:51:46.33	1.88	24.27	-37.9	-38.6	24.9	0.00e+00	0	42	0	2034237440	47	3890
2026-01-29 07:51:47.33	1.60	24.26	-37.8	-38.5	25.0	0.00e+00	0	42	0	2039480320	47	3854
2026-01-29 07:51:48.34	1.31	24.24	-37.7	-38.4	25.0	0.00e+00	0	42	0	2044723200	47	3820
2026-01-29 07:51:49.35	1.03	24.22	-37.7	-38.4	25.0	0.00e+00	0	42	0	2051014656	47	3819
2026-01-29 07:51:50.36	0.74	24.20	-37.7	-38.4	25.1	0.00e+00	0	42	0	2057306112	47	3801
2026-01-29 07:51:51.36	0.46	24.18	-37.7	-38.5	25.0	0.00e+00	0	42	0	2062548992	47	3827
2026-01-29 07:51:52.37	0.17	24.16	-37.9	-38.6	24.9	0.00e+00	0	42	0	2067791872	47	3886
2026-01-29 07:51:53.37	359.89	24.14	-37.8	-38.6	24.9	0.00e+00	0	42	0	2074083328	47	3878
2026-01-29 07:51:54.38	359.61	24.11	-37.7	-38.4	25.1	0.00e+00	0	42	0	2079326208	47	3795
2026-01-29 07:51:55.39	359.32	24.09	-37.5	-38.2	25.2	0.00e+00	0	42	0	2084569088	47	3734
2026-01-29 07:51:56.40	359.04	24.07	-37.4	-38.1	25.3	0.00e+00	0	42	0	2090860544	46	3911
2026-01-29 07:51:57.41	358.75	24.04	-37.5	-38.2	25.2	0.00e+00	0	42	0	2096103424	46	3921
2026-01-29 07:51:58.41	358.47	24.02	-37.6	-38.3	25.1	0.00e+00	0	42	0	2101346304	46	3983
2026-01-29 07:51:59.42	358.19	23.99	-37.7	-38.4	25.0	0.00e+00	0	42	0	2107637760	46	4045
2026-01-29 07:52:00.43	357.91	23.96	-37.7	-38.4	25.0	0.00e+00	0	42	0	2112880640	46	4048
2026-01-29 07:52:01.44	357.63	23.94	-37.6	-38.3	25.1	0.00e+00	0	42	0	2119172096	46	3994
2026-01-29 07:52:02.44	357.35	23.91	-37.6	-38.3	25.1	0.00e+00	0	42	0	2124414976	46	4000
2026-01-29 07:52:03.45	357.07	23.88	-37.6	-38.3	25.1	0.00e+00	0	42	0	2129657856	46	3989
2026-01-29 07:52:04.45	356.79	23.85	-37.7	-38.4	25.0	0.00e+00	0	42	0	2135949312	46	4027
2026-01-29 07:52:05.46	356.51	23.82	-37.8	-38.5	24.9	0.00e+00	0	42	0	2142240768	46	4096
2026-01-29 07:52:06.47	356.23	23.79	-37.8	-38.6	24.9	0.00e+00	0	42	0	2147483648	46	4110
2026-01-29 07:52:07.48	355.96	23.76	-37.8	-38.6	24.9	0.00e+00	0	42	0	2152726528	46	4099
2026-01-29 07:52:08.48	355.68	23.72	-37.8	-38.5	24.9	0.00e+00	0	42	0	2159017984	46	4091
2026-01-29 07:52:09.49	355.40	23.69	-37.8	-38.6	24.9	0.00e+00	0	42	0	2164260864	46	4103
2026-01-29 07:52:10.49	355.13	23.66	-37.9	-38.7	24.8	0.00e+00	0	42	0	2169503744	46	4156
2026-01-29 07:52:11.50	354.85	23.62	-37.8	-38.5	24.9	0.00e+00	0	42	0	2175795200	46	4088
2026-01-29 07:52:12.51	354.58	23.59	-37.8	-38.5	24.9	0.00e+00	0	42	0	2181038080	46	4085
2026-01-29 07:52:13.52	354.30	23.55	-37.8	-38.5	24.9	0.00e+00	0	42	0	2186280960	46	4079
2026-01-29 07:52:14.53	354.03	23.52	-37.8	-38.5	25.0	0.00e+00	0	42	0	2192572416	46	4072
2026-01-29 07:52:15.53	353.76	23.48	-37.7	-38.5	25.0	0.00e+00	0	42	0	2197815296	46	4056
2026-01-29 07:52:16.53	353.49	23.44	-37.6	-38.3	25.1	0.00e+00	0	42	0	2204106752	46	3982
2026-01-29 07:52:17.54	353.22	23.40	-37.6	-38.3	25.1	0.00e+00	0	42	0	2209349632	46	3998
2026-01-29 07:52:18.55	352.95	23.36	-37.6	-38.3	25.1	0.00e+00	0	42	0	2214592512	46	3995
2026-01-29 07:52:19.55	352.68	23.32	-37.8	-38.5	25.0	0.00e+00	0	42	0	2220883968	46	4062
2026-01-29 07:52:20.56	352.41	23.28	-37.8	-38.6	24.9	0.00e+00	0	42	0	2227175424	46	4104
2026-01-29 07:52:21.57	352.14	23.24	-37.9	-38.7	24.8	0.00e+00	0	42	0	2232418304	46	4156
2026-01-29 07:52:22.58	351.87	23.20	-37.8	-38.5	24.9	0.00e+00	0	42	0	2237661184	46	4096
2026-01-29 07:52:23.58	351.61	23.16	-37.9	-38.7	24.8	0.00e+00	0	42	0	2243952640	46	4158
2026-01-29 07:52:24.59	351.34	23.12	-37.8	-38.5	24.9	0.00e+00	0	42	0	2249195520	46	4088
2026-01-29 07:52:25.60	351.07	23.07	-37.8	-38.5	24.9	0.00e+00	0	42	0	2254438400	46	4073
2026-01-29 07:52:26.61	350.81	23.03	-37.8	-38.6	24.9	0.00e+00	0	42	0	2260729856	46	4103
2026-01-29 07:52:27.62	350.54	22.99	-37.7	-38.4	25.0	0.00e+00	0	42	0	2265972736	46	4047
2026-01-29 07:52:28.63	350.28	22.94	-37.8	-38.5	25.0	0.00e+00	0	42	0	2271215616	46	4062
2026-01-29 07:52:29.63	350.02	22.90	-37.7	-38.4	25.0	0.00e+00	0	42	0	2277507072	46	4049
2026-01-29 07:52:30.64	349.75	22.85	-37.7	-38.4	25.0	0.00e+00	0	42	0	2282749952	46	4043
2026-01-29 07:52:31.65	349.49	22.80	-37.7	-38.4	25.0	0.00e+00	0	42	0	2289041408	46	4039
2026-01-29 07:52:32.66	349.23	22.75	-37.7	-38.4	25.0	0.00e+00	0	42	0	2294284288	46	4036
2026-01-29 07:52:33.66	348.97	22.71	-37.8	-38.5	24.9	0.00e+00	0	42	0	2300575744	46	4096
2026-01-29 07:52:34.67	348.71	22.66	-37.8	-38.6	24.9	0.00e+00	0	42	0	2305818624	46	4105
2026-01-29 07:52:35.68	348.46	22.61	-38.1	-38.8	24.7	0.00e+00	0	42	0	2312110080	46	4228
2026-01-29 07:52:36.69	348.20	22.56	-37.9	-38.6	24.8	0.00e+00	0	42	0	2317352960	46	4127
2026-01-29 07:52:37.70	347.94	22.51	-37.9	-38.6	24.9	0.00e+00	0	42	0	2322595840	46	4109
2026-01-29 07:52:38.71	347.69	22.46	-38.0	-38.7	24.8	0.00e+00	0	42	0	2328887296	46	4159
2026-01-29 07:52:39.71	347.43	22.41	-37.9	-38.6	24.8	0.00e+00	0	42	0	2334130176	46	4130
2026-01-29 07:52:40.72	347.18	22.36	-37.9	-38.7	24.8	0.00e+00	0	42	0	2339373056	46	4153
2026-01-29 07:52:41.72	346.93	22.31	-38.0	-38.8	24.7	0.00e+00	0	42	0	2345664512	46	4204
2026-01-29 07:52:42.73	346.68	22.25	-38.1	-38.9	24.6	0.00e+00	0	42	0	2350907392	46	4251
2026-01-29 07:52:43.74	346.42	22.20	-38.0	-38.7	24.8	0.00e+00	0	42	0	2356150272	46	4161
2026-01-29 07:52:44.75	346.17	22.15	-38.0	-38.7	24.7	0.00e+00	0	42	0	2362441728	46	4165
2026-01-29 07:52:45.75	345.93	22.09	-37.9	-38.6	24.8	0.00e+00	0	42	0	2368733184	46	4138
2026-01-29 07:52:46.76	345.68	22.04	-38.0	-38.7	24.7	0.00e+00	0	42	0	2373976064	46	4182
2026-01-29 07:52:47.77	345.43	21.98	-38.0	-38.8	24.7	0.00e+00	0	42	0	2379218944	46	4198
2026-01-29 07:52:48.78	345.18	21.93	-38.0	-38.7	24.7	0.00e+00	0	42	0	2385510400	46	4179
2026-01-29 07:52:49.79	344.93	21.87	-38.0	-38.7	24.8	0.00e+00	0	42	0	2390753280	46	4170
2026-01-29 07:52:50.79	344.69	21.82	-38.0	-38.8	24.7	0.00e+00	0	42	0	2397044736	46	4194
2026-01-29 07:52:51.80	344.45	21.76	-37.9	-38.6	24.8	0.00e+00	0	42	0	2402287616	46	4138
2026-01-29 07:52:52.81	344.20	21.70	-37.9	-38.6	24.8	0.00e+00	0	42	0	2407530496	46	4109
2026-01-29 07:52:53.82	343.96	21.64	-38.0	-38.7	24.8	0.00e+00	0	42	0	2413821952	46	4161
2026-01-29 07:52:54.82	343.72	21.59	-37.9	-38.6	24.8	0.00e+00	0	42	0	2419064832	46	4136
2026-01-29 07:52:55.83	343.48	21.53	-37.9	-38.6	24.8	0.00e+00	0	42	0	2424307712	46	4130
2026-01-29 07:52:56.84	343.24	21.47	-37.9	-38.6	24.8	0.00e+00	0	42	0	2430599168	46	4125
2026-01-29 07:52:57.84	343.00	21.41	-37.9	-38.7	24.8	0.00e+00	0	42	0	2435842048	46	4146
2026-01-29 07:52:58.85	342.76	21.35	-38.1	-38.8	24.6	0.00e+00	0	42	0	2441084928	46	4223
2026-01-29 07:52:59.86	342.53	21.29	-38.1	-38.9	24.6	0.00e+00	0	42	0	2447376384	46	4250
2026-01-29 07:53:00.87	342.29	21.23	-38.2	-38.9	24.6	0.00e+00	0	42	0	2453667840	46	4262
2026-01-29 07:53:01.87	342.06	21.17	-38.0	-38.8	24.7	0.00e+00	0	42	0	2458910720	46	4199
2026-01-29 07:53:02.88	341.82	21.11	-38.2	-38.9	24.5	0.00e+00	0	42	0	2464153600	46	4264
2026-01-29 07:53:03.89	341.59	21.05	-38.2	-38.9	24.5	0.00e+00	0	42	0	2470445056	47	4036
2026-01-29 07:53:04.90	341.36	20.99	-38.3	-39.1	24.4	0.00e+00	0	42	0	2475687936	47	4107
2026-01-29 07:53:05.90	341.13	20.93	-38.5	-39.2	24.3	0.00e+00	0	42	0	2481979392	47	4173
2026-01-29 07:53:06.91	340.90	20.86	-38.5	-39.3	24.2	0.00e+00	0	42	0	2487222272	47	4206
2026-01-29 07:53:07.92	340.67	20.80	-38.6	-39.4	24.1	0.00e+00	0	42	0	2492465152	47	4243
2026-01-29 07:53:08.93	340.44	20.74	-38.5	-39.2	24.3	0.00e+00	0	42	0	2498756608	47	4176
2026-01-29 07:53:09.93	340.21	20.67	-38.5	-39.2	24.3	0.00e+00	0	42	0	2503999488	47	4176
2026-01-29 07:53:10.94	339.98	20.61	-38.5	-39.2	24.3	0.00e+00	0	42	0	2509242368	47	4184
2026-01-29 07:53:11.94	339.76	20.55	-38.5	-39.2	24.3	0.00e+00	0	42	0	2515533824	47	4168
2026-01-29 07:53:12.95	339.54	20.48	-38.4	-39.1	24.3	0.00e+00	0	42	0	2520776704	47	4128
2026-01-29 07:53:13.96	339.31	20.42	-38.4	-39.1	24.3	0.00e+00	0	42	0	2527068160	47	4141
2026-01-29 07:53:14.97	339.09	20.35	-38.3	-39.1	24.4	0.00e+00	0	42	0	2532311040	47	4112
2026-01-29 07:53:15.98	338.87	20.29	-38.5	-39.2	24.3	0.00e+00	0	42	0	2538602496	47	4184
2026-01-29 07:53:16.99	338.65	20.22	-38.5	-39.3	24.2	0.00e+00	0	42	0	2543845376	47	4201
2026-01-29 07:53:18.00	338.42	20.16	-39.1	-39.8	24.2	0.00e+00	0	42	0	2549088256	48	4213
2026-01-29 07:53:19.01	338.21	20.09	-39.0	-39.8	24.2	0.00e+00	0	42	0	2555379712	48	4208
2026-01-29 07:53:20.02	337.99	20.02	-39.1	-39.9	24.2	0.00e+00	0	42	0	2560622592	48	4244
2026-01-29 07:53:21.03	337.77	19.96	-39.1	-39.8	24.2	0.00e+00	0	42	0	2566914048	48	4210
2026-01-29 07:53:22.04	337.55	19.89	-39.1	-39.8	24.2	0.00e+00	0	42	0	2572156928	48	4215
2026-01-29 07:53:23.05	337.34	19.82	-39.2	-39.9	24.1	0.00e+00	0	42	0	2577399808	48	4271
2026-01-29 07:53:24.06	337.12	19.76	-39.2	-39.9	24.1	0.00e+00	0	42	0	2583691264	48	4277
2026-01-29 07:53:25.07	336.91	19.69	-39.3	-40.1	23.9	0.00e+00	0	42	0	2589982720	49	4111
2026-01-29 07:53:26.07	336.70	19.62	-39.2	-39.9	24.1	0.00e+00	0	42	0	2595225600	49	4051
2026-01-29 07:53:27.08	336.49	19.55	-39.1	-39.9	24.2	0.00e+00	0	42	0	2600468480	49	4013
2026-01-29 07:53:28.09	336.28	19.48	-39.2	-40.0	24.0	0.00e+00	0	42	0	2606759936	49	4057
2026-01-29 07:53:29.10	336.07	19.42	-39.3	-40.0	24.0	0.00e+00	0	42	0	2612002816	49	4072
2026-01-29 07:53:30.11	335.86	19.35	-39.3	-40.0	24.0	0.00e+00	0	42	0	2617245696	49	4088
2026-01-29 07:53:31.12	335.65	19.28	-39.3	-40.1	23.9	0.00e+00	0	42	0	2623537152	49	4123
2026-01-29 07:53:32.12	335.45	19.21	-39.4	-40.1	23.9	0.00e+00	0	42	0	2628780032	49	4126
2026-01-29 07:53:33.13	335.24	19.14	-39.3	-40.0	24.0	0.00e+00	0	42	0	2634022912	49	4071
2026-01-29 07:53:34.13	335.04	19.07	-39.3	-40.1	23.9	0.00e+00	0	42	0	2640314368	49	4113
2026-01-29 07:53:35.14	334.83	19.00	-39.1	-39.9	24.1	0.00e+00	0	42	0	2645557248	49	4010
2026-01-29 07:53:36.15	334.63	18.93	-39.1	-39.8	24.2	0.00e+00	0	42	0	2651848704	49	4004
2026-01-29 07:53:37.16	334.43	18.86	-39.3	-40.0	24.0	0.00e+00	0	42	0	2657091584	49	4076
2026-01-29 07:53:38.17	334.23	18.79	-39.3	-40.1	23.9	0.00e+00	0	42	0	2663383040	49	4101
2026-01-29 07:53:39.18	334.03	18.72	-39.4	-40.2	23.9	0.00e+00	0	42	0	2668625920	49	4147
2026-01-29 07:53:40.19	333.83	18.65	-39.3	-40.0	24.0	0.00e+00	0	42	0	2674917376	49	4083
2026-01-29 07:53:41.20	333.63	18.58	-39.2	-39.9	24.0	0.00e+00	0	42	0	2680160256	49	4050
2026-01-29 07:53:42.21	333.43	18.51	-39.1	-39.9	24.1	0.00e+00	0	42	0	2685403136	49	4012
2026-01-29 07:53:43.22	333.23	18.44	-39.2	-40.0	24.0	0.00e+00	0	42	0	2691694592	49	4068
2026-01-29 07:53:44.23	333.04	18.37	-39.4	-40.1	23.9	0.00e+00	0	42	0	2696937472	49	4132
2026-01-29 07:53:45.24	332.84	18.29	-39.4	-40.1	23.9	0.00e+00	0	42	0	2702180352	49	4130
2026-01-29 07:53:46.24	332.65	18.22	-39.4	-40.2	23.8	0.00e+00	0	42	0	2708471808	49	4150
2026-01-29 07:53:47.25	332.46	18.15	-39.4	-40.1	23.9	0.00e+00	0	42	0	2714763264	49	4141
2026-01-29 07:53:48.26	332.27	18.08	-39.3	-40.0	24.0	0.00e+00	0	42	0	2720006144	49	4080
2026-01-29 07:53:49.27	332.08	18.01	-39.2	-40.0	24.0	0.00e+00	0	42	0	2725249024	49	4058
2026-01-29 07:53:50.29	331.88	17.94	-39.2	-39.9	24.0	0.00e+00	0	42	0	2731540480	49	4040
2026-01-29 07:53:51.29	331.70	17.86	-39.2	-40.0	24.0	0.00e+00	0	42	0	2736783360	49	4062
2026-01-29 07:53:52.30	331.51	17.79	-39.4	-40.1	23.9	0.00e+00	0	42	0	2742026240	49	4120
2026-01-29 07:53:53.31	331.32	17.72	-39.2	-40.0	24.0	0.00e+00	0	42	0	2748317696	49	4064
2026-01-29 07:53:54.32	331.13	17.65	-39.2	-39.9	24.0	0.00e+00	0	42	0	2753560576	49	4035
2026-01-29 07:53:55.33	330.95	17.58	-39.2	-40.0	24.0	0.00e+00	0	42	0	2759852032	49	4052
2026-01-29 07:53:56.33	330.77	17.50	-39.2	-39.9	24.0	0.00e+00	0	42	0	2765094912	49	4045
2026-01-29 07:53:57.34	330.58	17.43	-39.3	-40.1	23.9	0.00e+00	0	42	0	2770337792	49	4116
2026-01-29 07:53:58.35	330.40	17.36	-39.4	-40.1	23.8	0.00e+00	0	42	0	2776629248	49	4142
2026-01-29 07:53:59.36	330.22	17.28	-39.4	-40.1	23.8	0.00e+00	0	42	0	2782920704	49	4134
2026-01-29 07:54:00.37	330.04	17.21	-39.3	-40.1	23.9	0.00e+00	0	42	0	2788163584	49	4110
2026-01-29 07:54:01.39	329.85	17.14	-39.4	-40.1	23.8	0.00e+00	0	42	0	2793406464	49	4124
2026-01-29 07:54:02.39	329.68	17.07	-39.4	-40.1	23.8	0.00e+00	0	42	0	2799697920	49	4118
2026-01-29 07:54:03.40	329.50	16.99	-39.5	-40.2	23.7	0.00e+00	0	42	0	2804940800	49	4179
2026-01-29 07:54:04.41	329.32	16.92	-39.5	-40.2	23.7	0.00e+00	0	42	0	2810183680	49	4171
2026-01-29 07:54:05.42	329.14	16.85	-39.5	-40.3	23.7	0.00e+00	0	42	0	2816475136	49	4196
2026-01-29 07:54:06.43	328.97	16.77	-39.6	-40.4	23.6	0.00e+00	0	42	0	2821718016	49	4268
2026-01-29 07:54:07.43	328.79	16.70	-39.7	-40.5	23.5	0.00e+00	0	42	0	2826960896	49	4298
2026-01-29 07:54:08.44	328.62	16.63	-39.8	-40.6	23.4	0.00e+00	0	42	0	2833252352	50	4100
2026-01-29 07:54:09.44	328.45	16.55	-39.8	-40.6	23.4	0.00e+00	0	42	0	2838495232	50	4114
2026-01-29 07:54:10.45	328.28	16.48	-39.9	-40.7	23.3	0.00e+00	0	42	0	2844786688	50	4169
2026-01-29 07:54:11.46	328.11	16.41	-40.0	-40.8	23.2	0.00e+00	0	42	0	2850029568	50	4197
2026-01-29 07:54:12.47	327.93	16.33	-39.9	-40.7	23.3	0.00e+00	0	42	0	2856321024	50	4163
2026-01-29 07:54:13.48	327.76	16.26	-39.9	-40.7	23.3	0.00e+00	0	42	0	2861563904	50	4167
2026-01-29 07:54:14.48	327.60	16.19	-39.9	-40.7	23.2	0.00e+00	0	42	0	2867855360	50	4181
2026-01-29 07:54:15.49	327.43	16.11	-40.0	-40.8	23.2	0.00e+00	0	42	0	2873098240	50	4218
2026-01-29 07:54:16.50	327.26	16.04	-40.0	-40.7	23.2	0.00e+00	0	42	0	2878341120	50	4183
2026-01-29 07:54:17.50	327.10	15.97	-39.9	-40.7	23.3	0.00e+00	0	42	0	2884632576	50	4164
2026-01-29 07:54:18.51	326.93	15.89	-40.0	-40.8	23.2	0.00e+00	0	42	0	2889875456	50	4206
2026-01-29 07:54:19.52	326.77	15.82	-39.8	-40.6	23.4	0.00e+00	0	42	0	2895118336	50	4110
2026-01-29 07:54:20.53	326.60	15.74	-39.9	-40.7	23.3	0.00e+00	0	42	0	2901409792	50	4148
2026-01-29 07:54:21.54	326.44	15.67	-39.9	-40.6	23.3	0.00e+00	0	42	0	2906652672	50	4144
2026-01-29 07:54:22.54	326.28	15.60	-39.8	-40.6	23.3	0.00e+00	0	42	0	2911895552	50	4123
2026-01-29 07:54:23.55	326.12	15.52	-39.9	-40.7	23.2	0.00e+00	0	42	0	2918187008	50	4173
2026-01-29 07:54:24.56	325.96	15.45	-40.0	-40.7	23.2	0.00e+00	0	42	0	2924478464	50	4193
2026-01-29 07:54:25.57	325.80	15.38	-40.0	-40.8	23.2	0.00e+00	0	42	0	2929721344	50	4208
2026-01-29 07:54:26.58	325.64	15.30	-40.1	-40.9	23.1	0.00e+00	0	42	0	2934964224	50	4253
2026-01-29 07:54:27.59	325.48	15.23	-40.1	-40.8	23.1	0.00e+00	0	42	0	2941255680	50	4240
2026-01-29 07:54:28.60	325.32	15.15	-40.1	-40.8	23.1	0.00e+00	0	42	0	2946498560	50	4238
2026-01-29 07:54:29.61	325.17	15.08	-40.1	-40.9	23.0	0.00e+00	0	42	0	2952790016	50	4275
2026-01-29 07:54:30.62	325.01	15.01	-40.2	-41.0	22.9	0.00e+00	0	42	0	2958032896	51	4080
2026-01-29 07:54:31.63	324.85	14.93	-40.2	-41.0	22.9	0.00e+00	0	42	0	2963275776	51	4080
2026-01-29 07:54:32.63	324.70	14.86	-40.2	-41.0	22.9	0.00e+00	0	42	0	2969567232	51	4080
2026-01-29 07:54:33.64	324.55	14.78	-40.3	-41.1	22.9	0.00e+00	0	42	0	2974810112	51	4105
2026-01-29 07:54:34.65	324.40	14.71	-40.4	-41.2	22.8	0.00e+00	0	42	0	2980052992	51	4160
2026-01-29 07:54:35.66	324.24	14.64	-40.2	-41.0	22.9	0.00e+00	0	42	0	2986344448	51	4084
2026-01-29 07:54:36.67	324.09	14.56	-40.2	-41.0	22.9	0.00e+00	0	42	0	2992635904	51	4085
2026-01-29 07:54:37.67	323.94	14.49	-40.3	-41.1	22.9	0.00e+00	0	42	0	2997878784	51	4105
2026-01-29 07:54:38.68	323.79	14.42	-40.3	-41.1	22.8	0.00e+00	0	42	0	3003121664	51	4123
2026-01-29 07:54:39.69	323.64	14.34	-40.4	-41.2	22.8	0.00e+00	0	42	0	3009413120	51	4154
2026-01-29 07:54:40.70	323.50	14.27	-40.3	-41.1	22.8	0.00e+00	0	42	0	3014656000	51	4118
2026-01-29 07:54:41.71	323.35	14.20	-40.4	-41.2	22.7	0.00e+00	0	42	0	3019898880	51	4152
2026-01-29 07:54:42.72	323.20	14.12	-40.4	-41.2	22.7	0.00e+00	0	42	0	3026190336	51	4168
2026-01-29 07:54:43.73	323.06	14.05	-40.5	-41.3	22.6	0.00e+00	0	42	0	3031433216	51	4235
2026-01-29 07:54:44.73	322.91	13.97	-40.5	-41.3	22.6	0.00e+00	0	42	0	3037724672	51	4206
2026-01-29 07:54:45.74	322.77	13.90	-40.5	-41.3	22.6	0.00e+00	0	42	0	3042967552	51	4214
2026-01-29 07:54:46.75	322.62	13.83	-40.6	-41.4	22.5	0.00e+00	0	42	0	3048210432	51	4251
2026-01-29 07:54:47.76	322.48	13.75	-40.5	-41.3	22.6	0.00e+00	0	42	0	3054501888	51	4239
2026-01-29 07:54:48.77	322.34	13.68	-40.6	-41.5	22.5	0.00e+00	0	42	0	3060793344	51	4295
2026-01-29 07:54:49.77	322.20	13.61	-40.6	-41.4	22.5	0.00e+00	0	42	0	3066036224	51	4275
2026-01-29 07:54:50.78	322.06	13.54	-40.6	-41.5	22.4	0.00e+00	0	42	0	3071279104	51	4301
2026-01-29 07:54:51.78	321.92	13.46	-40.7	-41.6	22.3	0.00e+00	0	42	0	3077570560	52	4109
2026-01-29 07:54:52.79	321.78	13.39	-40.7	-41.5	22.3	0.00e+00	0	42	0	3082813440	52	4094
2026-01-29 07:54:53.80	321.64	13.32	-40.5	-41.3	22.5	0.00e+00	0	42	0	3088056320	52	3983
2026-01-29 07:54:54.80	321.50	13.24	-40.5	-41.3	22.5	0.00e+00	0	42	0	3094347776	52	3987
2026-01-29 07:54:55.81	321.37	13.17	-40.5	-41.3	22.4	0.00e+00	0	42	0	3099590656	52	4003
2026-01-29 07:54:56.82	321.23	13.10	-40.4	-41.3	22.5	0.00e+00	0	42	0	3104833536	52	3959
2026-01-29 07:54:57.83	321.09	13.02	-40.6	-41.4	22.4	0.00e+00	0	42	0	3111124992	52	4013
2026-01-29 07:54:58.83	320.96	12.95	-40.6	-41.5	22.4	0.00e+00	0	42	0	3116367872	52	4055
2026-01-29 07:54:59.84	320.82	12.88	-40.7	-41.5	22.3	0.00e+00	0	42	0	3122659328	52	4087
2026-01-29 07:55:00.85	320.69	12.81	-40.8	-41.7	22.2	0.00e+00	0	42	0	3127902208	52	4147
2026-01-29 07:55:01.86	320.56	12.73	-40.7	-41.5	22.3	0.00e+00	0	42	0	3134193664	52	4097
2026-01-29 07:55:02.86	320.43	12.66	-40.7	-41.6	22.2	0.00e+00	0	42	0	3139436544	52	4107
2026-01-29 07:55:03.87	320.29	12.59	-40.8	-41.7	22.1	0.00e+00	0	42	0	3145728000	52	4146
2026-01-29 07:55:04.88	320.16	12.52	-40.9	-41.7	22.1	0.00e+00	0	42	0	3150970880	52	4184
2026-01-29 07:55:05.88	320.03	12.45	-41.0	-41.8	21.9	0.00e+00	0	42	0	3156213760	52	4225
2026-01-29 07:55:06.88	319.90	12.37	-40.9	-41.7	22.1	0.00e+00	0	42	0	3162505216	52	4179
2026-01-29 07:55:07.89	319.78	12.30	-40.9	-41.7	22.1	0.00e+00	0	42	0	3167748096	52	4157
2026-01-29 07:55:08.90	319.65	12.23	-41.0	-41.8	22.0	0.00e+00	0	42	0	3172990976	52	4214
2026-01-29 07:55:09.91	319.52	12.16	-41.0	-41.8	22.0	0.00e+00	0	42	0	3179282432	52	4230
2026-01-29 07:55:10.92	319.39	12.08	-40.9	-41.8	22.0	0.00e+00	0	42	0	3184525312	52	4205
2026-01-29 07:55:11.92	319.27	12.01	-41.0	-41.8	22.0	0.00e+00	0	42	0	3189768192	52	4221
2026-01-29 07:55:12.93	319.14	11.94	-40.9	-41.8	22.0	0.00e+00	0	42	0	3196059648	52	4211
2026-01-29 07:55:13.94	319.01	11.87	-40.9	-41.8	22.0	0.00e+00	0	42	0	3201302528	52	4198
2026-01-29 07:55:14.94	318.89	11.80	-40.9	-41.7	22.0	0.00e+00	0	42	0	3207593984	52	4176
2026-01-29 07:55:15.95	318.77	11.73	-40.9	-41.7	22.0	0.00e+00	0	42	0	3212836864	52	4181
2026-01-29 07:55:16.96	318.64	11.65	-41.0	-41.9	21.9	0.00e+00	0	42	0	3219128320	52	4249
2026-01-29 07:55:17.97	318.52	11.58	-41.1	-42.0	21.8	0.00e+00	0	42	0	3224371200	52	4299
2026-01-29 07:55:18.98	318.40	11.51	-41.2	-42.0	21.7	0.00e+00	0	42	0	3230662656	52	4338
2026-01-29 07:55:19.98	318.28	11.44	-41.2	-42.1	21.6	0.00e+00	0	42	0	3235905536	53	4117
2026-01-29 07:55:20.99	318.16	11.37	-41.3	-42.2	21.5	0.00e+00	0	42	0	3241148416	53	4180
2026-01-29 07:55:22.00	318.03	11.30	-41.3	-42.2	21.6	0.00e+00	0	42	0	3247439872	53	4170
2026-01-29 07:55:23.01	317.91	11.23	-41.5	-42.3	21.5	0.00e+00	0	42	0	3252682752	53	4236
2026-01-29 07:55:24.02	317.80	11.16	-41.4	-42.3	21.5	0.00e+00	0	42	0	3257925632	53	4203
2026-01-29 07:55:25.03	317.68	11.08	-41.4	-42.3	21.5	0.00e+00	0	42	0	3264217088	53	4208
2026-01-29 07:55:26.04	317.56	11.01	-41.4	-42.3	21.5	0.00e+00	0	42	0	3269459968	53	4213
2026-01-29 07:55:27.05	317.44	10.94	-41.5	-42.4	21.4	0.00e+00	0	42	0	3274702848	53	4253
2026-01-29 07:55:28.05	317.32	10.87	-41.5	-42.4	21.4	0.00e+00	0	42	0	3280994304	53	4252
2026-01-29 07:55:29.06	317.21	10.80	-41.4	-42.3	21.4	0.00e+00	0	42	0	3287285760	53	4221
2026-01-29 07:55:30.07	317.09	10.73	-41.5	-42.3	21.4	0.00e+00	0	42	0	3292528640	53	4234
2026-01-29 07:55:31.07	316.98	10.66	-41.4	-42.3	21.4	0.00e+00	0	42	0	3297771520	53	4209
2026-01-29 07:55:32.08	316.86	10.59	-41.4	-42.3	21.4	0.00e+00	0	42	0	3304062976	53	4213
2026-01-29 07:55:33.08	316.75	10.52	-41.4	-42.2	21.5	0.00e+00	0	42	0	3309305856	53	4189
2026-01-29 07:55:34.09	316.64	10.45	-41.4	-42.3	21.4	0.00e+00	0	42	0	3315597312	53	4223
2026-01-29 07:55:35.10	316.52	10.38	-41.4	-42.2	21.5	0.00e+00	0	42	0	3320840192	53	4185
2026-01-29 07:55:36.10	316.41	10.31	-41.5	-42.3	21.3	0.00e+00	0	42	0	3326083072	53	4232
2026-01-29 07:55:37.12	316.30	10.24	-41.4	-42.3	21.4	0.00e+00	0	42	0	3332374528	53	4223
2026-01-29 07:55:38.13	316.19	10.17	-41.4	-42.3	21.3	0.00e+00	0	42	0	3337617408	53	4230
2026-01-29 07:55:39.13	316.08	10.10	-41.4	-42.3	21.4	0.00e+00	0	42	0	3342860288	53	4225
2026-01-29 07:55:40.14	315.97	10.03	-41.4	-42.3	21.4	0.00e+00	0	42	0	3349151744	53	4213
2026-01-29 07:55:41.15	315.86	9.96	-41.5	-42.4	21.3	0.00e+00	0	42	0	3354394624	53	4244
2026-01-29 07:55:42.16	315.75	9.89	-41.5	-42.4	21.2	0.00e+00	0	42	0	3360686080	53	4277
2026-01-29 07:55:43.16	315.64	9.82	-41.5	-42.4	21.2	0.00e+00	0	42	0	3365928960	53	4279
2026-01-29 07:55:44.17	315.53	9.75	-41.6	-42.5	21.1	0.00e+00	0	42	0	3372220416	53	4321
2026-01-29 07:55:45.18	315.43	9.69	-41.7	-42.7	21.0	0.00e+00	0	42	0	3377463296	54	4146
2026-01-29 07:55:46.18	315.32	9.62	-41.7	-42.6	21.1	0.00e+00	0	42	0	3382706176	54	4131
2026-01-29 07:55:47.19	315.21	9.55	-41.8	-42.7	20.9	0.00e+00	0	42	0	3388997632	54	4189
2026-01-29 07:55:48.20	315.11	9.48	-41.8	-42.8	20.9	0.00e+00	0	42	0	3394240512	54	4194
2026-01-29 07:55:49.21	315.00	9.41	-41.8	-42.7	20.9	0.00e+00	0	42	0	3400531968	54	4170
2026-01-29 07:55:50.22	314.90	9.34	-41.8	-42.7	20.9	0.00e+00	0	42	0	3405774848	54	4162
2026-01-29 07:55:51.23	314.79	9.27	-41.9	-42.8	20.9	0.00e+00	0	42	0	3411017728	54	4213
2026-01-29 07:55:52.23	314.69	9.20	-41.8	-42.7	20.9	0.00e+00	0	42	0	3417309184	54	4179
2026-01-29 07:55:53.24	314.58	9.14	-41.8	-42.7	20.9	0.00e+00	0	42	0	3422552064	54	4189
2026-01-29 07:55:54.25	314.48	9.07	-41.8	-42.7	20.9	0.00e+00	0	42	0	3427794944	54	4190
2026-01-29 07:55:55.25	314.38	9.00	-41.8	-42.7	20.9	0.00e+00	0	42	0	3434086400	54	4171
2026-01-29 07:55:56.26	314.28	8.93	-41.9	-42.8	20.8	0.00e+00	0	42	0	3440377856	54	4222
2026-01-29 07:55:57.27	314.18	8.86	-41.9	-42.9	20.7	0.00e+00	0	42	0	3445620736	54	4261
2026-01-29 07:55:58.28	314.08	8.80	-42.0	-43.0	20.7	0.00e+00	0	42	0	3450863616	54	4301
2026-01-29 07:55:59.28	313.98	8.73	-42.0	-43.0	20.6	0.00e+00	0	42	0	3457155072	54	4310
2026-01-29 07:56:00.29	313.88	8.66	-42.1	-43.0	20.6	0.00e+00	0	42	0	3462397952	54	4325
2026-01-29 07:56:01.30	313.78	8.59	-42.1	-43.0	20.5	0.00e+00	0	42	0	3467640832	54	4340
2026-01-29 07:56:02.31	313.68	8.53	-42.2	-43.1	20.4	0.00e+00	0	42	0	3473932288	54	4378
2026-01-29 07:56:03.32	313.58	8.46	-42.0	-42.9	20.7	0.00e+00	0	42	0	3479175168	54	4264
2026-01-29 07:56:04.32	313.48	8.39	-42.1	-43.1	20.5	0.00e+00	0	42	0	3485466624	54	4348
2026-01-29 07:56:05.33	313.38	8.32	-41.9	-42.9	20.7	0.00e+00	0	42	0	3490709504	54	4257
2026-01-29 07:56:06.34	313.29	8.26	-41.9	-42.8	20.7	0.00e+00	0	42	0	3495952384	54	4233
2026-01-29 07:56:07.35	313.19	8.19	-42.0	-43.0	20.6	0.00e+00	0	42	0	3502243840	54	4306
2026-01-29 07:56:08.35	313.09	8.12	-42.2	-43.1	20.5	0.00e+00	0	42	0	3508535296	54	4371
2026-01-29 07:56:09.36	313.00	8.06	-42.2	-43.2	20.4	0.00e+00	0	42	0	3513778176	55	4152
2026-01-29 07:56:10.37	312.90	7.99	-42.1	-43.0	20.5	0.00e+00	0	42	0	3519021056	55	4083
2026-01-29 07:56:11.38	312.81	7.92	-42.2	-43.1	20.4	0.00e+00	0	42	0	3525312512	55	4137
2026-01-29 07:56:12.39	312.71	7.86	-42.3	-43.2	20.3	0.00e+00	0	42	0	3530555392	55	4187
2026-01-29 07:56:13.40	312.62	7.79	-42.3	-43.2	20.3	0.00e+00	0	42	0	3535798272	55	4191
2026-01-29 07:56:14.40	312.53	7.72	-42.3	-43.2	20.3	0.00e+00	0	42	0	3542089728	55	4191
2026-01-29 07:56:15.41	312.43	7.66	-42.4	-43.3	20.2	0.00e+00	0	42	0	3547332608	55	4237
2026-01-29 07:56:16.42	312.34	7.59	-42.5	-43.4	20.1	0.00e+00	0	42	0	3552575488	55	4291
2026-01-29 07:56:17.43	312.25	7.52	-42.4	-43.4	20.2	0.00e+00	0	42	0	3558866944	55	4249
2026-01-29 07:56:18.44	312.16	7.46	-42.4	-43.3	20.2	0.00e+00	0	42	0	3564109824	55	4239
2026-01-29 07:56:19.45	312.06	7.39	-42.4	-43.4	20.1	0.00e+00	0	42	0	3570401280	55	4249
2026-01-29 07:56:20.46	311.97	7.33	-42.4	-43.4	20.1	0.00e+00	0	42	0	3575644160	55	4243
2026-01-29 07:56:21.47	311.88	7.26	-42.3	-43.2	20.2	0.00e+00	0	42	0	3581935616	55	4188
2026-01-29 07:56:22.47	311.79	7.20	-42.3	-43.3	20.1	0.00e+00	0	42	0	3587178496	55	4237
2026-01-29 07:56:23.48	311.70	7.13	-42.3	-43.3	20.1	0.00e+00	0	42	0	3593469952	55	4230
2026-01-29 07:56:24.49	311.61	7.06	-42.3	-43.3	20.2	0.00e+00	0	42	0	3598712832	55	4209
2026-01-29 07:56:25.49	311.53	7.00	-42.3	-43.3	20.1	0.00e+00	0	42	0	3603955712	55	4218
2026-01-29 07:56:26.50	311.44	6.93	-42.3	-43.3	20.1	0.00e+00	0	42	0	3610247168	55	4210
2026-01-29 07:56:27.51	311.35	6.87	-42.4	-43.4	20.0	0.00e+00	0	42	0	3615490048	55	4261
2026-01-29 07:56:28.52	311.26	6.80	-42.3	-43.3	20.1	0.00e+00	0	42	0	3620732928	55	4210
2026-01-29 07:56:29.53	311.17	6.74	-42.3	-43.3	20.1	0.00e+00	0	42	0	3627024384	55	4232
2026-01-29 07:56:30.54	311.09	6.67	-42.4	-43.4	20.1	0.00e+00	0	42	0	3632267264	55	4244
2026-01-29 07:56:31.55	311.00	6.61	-42.4	-43.4	20.0	0.00e+00	0	42	0	3637510144	55	4262
2026-01-29 07:56:32.56	310.91	6.55	-42.5	-43.5	19.9	0.00e+00	0	42	0	3643801600	55	4320
2026-01-29 07:56:33.57	310.83	6.48	-42.4	-43.4	20.0	0.00e+00	0	42	0	3650093056	55	4254
2026-01-29 07:56:34.58	310.74	6.42	-42.5	-43.5	19.9	0.00e+00	0	42	0	3655335936	55	4318
2026-01-29 07:56:35.58	310.66	6.35	-42.4	-43.4	20.0	0.00e+00	0	42	0	3660578816	55	4267
