passes_logs/2026/01/29/R3.2S_Murmansk/R3.2S_Murmansk__20260129_114813_SUOMI_NPP_rec.log

#Pass ID: 20260129_114813_SUOMI NPP
#Satellite: SUOMI NPP
#Configuration: NPP
#almurnet v.1.7.20251203
#Start time: 2026-01-29 11:48:14

#Version: 2.2.20231116
#Station: R3.2S_Murmansk
#Location: 33.079688 lon 68.888172 lat
#TLE: 1 37849U 11061A   26028.91916408  .00000155  00000+0  94467-4 0  9990
#TLE: 2 37849  98.7824 330.8488 0002045  39.4457 320.6868 14.19531289738686

#Time	Az	El	Level	Level2	SNR	BER	BlckErr	Temp	State	Recorded	gain1	gain2
2026-01-29 11:48:14.88	207.16	2.08	-53.8	-68.8	3.8	1.49e+00	0	40	0	0	78	21101
2026-01-29 11:48:15.85	207.23	2.13	-53.9	-69.0	3.8	1.49e+00	0	40	104	0	78	21539
2026-01-29 11:48:16.82	207.29	2.19	-54.1	-69.1	3.8	1.49e+00	0	40	104	0	78	21796
2026-01-29 11:48:17.79	207.35	2.24	-54.1	-69.1	3.8	1.49e+00	0	40	104	0	78	21893
2026-01-29 11:48:18.76	207.42	2.30	-54.2	-69.2	3.8	1.49e+00	0	40	104	0	78	22052
2026-01-29 11:48:19.73	207.48	2.35	-54.2	-69.2	3.8	1.49e+00	0	40	104	0	78	22033
2026-01-29 11:48:20.70	207.55	2.41	-54.2	-69.2	3.8	1.49e+00	0	40	104	0	78	22071
2026-01-29 11:48:21.67	207.61	2.46	-54.2	-69.1	3.8	1.49e+00	0	40	104	0	78	21980
2026-01-29 11:48:22.64	207.68	2.52	-54.1	-69.1	3.8	1.49e+00	0	40	104	0	78	21959
2026-01-29 11:48:23.61	207.74	2.58	-54.1	-69.1	3.8	1.49e+00	0	40	104	0	78	21879
2026-01-29 11:48:24.58	207.81	2.63	-54.1	-69.1	3.8	1.49e+00	0	40	104	0	78	21820
2026-01-29 11:48:25.55	207.87	2.69	-54.0	-69.0	3.8	1.49e+00	0	40	104	0	78	21750
2026-01-29 11:48:26.51	207.94	2.74	-54.0	-69.0	3.8	1.49e+00	0	40	104	0	78	21616
2026-01-29 11:48:27.48	208.01	2.80	-54.0	-69.0	3.8	1.49e+00	0	40	104	0	78	21532
2026-01-29 11:48:28.45	208.07	2.85	-53.9	-68.9	3.8	1.49e+00	0	40	104	0	78	21496
2026-01-29 11:48:29.42	208.14	2.91	-53.9	-68.9	3.8	1.49e+00	0	40	104	0	78	21325
2026-01-29 11:48:30.39	208.21	2.97	-53.8	-68.8	3.8	1.49e+00	0	40	104	0	78	21127
2026-01-29 11:48:31.36	208.27	3.02	-53.8	-68.7	3.8	1.49e+00	0	40	104	0	78	20980
2026-01-29 11:48:32.33	208.34	3.08	-53.7	-68.7	3.8	1.49e+00	0	40	104	0	78	20812
2026-01-29 11:48:33.30	208.41	3.14	-53.6	-68.6	3.8	1.49e+00	0	40	104	0	78	20631
2026-01-29 11:48:34.27	208.48	3.19	-53.5	-68.5	3.8	1.49e+00	0	40	104	0	78	20397
2026-01-29 11:48:35.24	208.55	3.25	-53.4	-68.4	3.8	1.49e+00	0	40	104	0	78	20090
2026-01-29 11:48:36.21	208.62	3.31	-53.2	-68.2	3.8	1.49e+00	0	40	104	0	78	19705
2026-01-29 11:48:37.19	208.68	3.36	-52.9	-67.9	3.8	1.49e+00	0	40	104	0	77	20114
2026-01-29 11:48:38.16	208.75	3.42	-52.5	-67.5	3.8	1.49e+00	0	40	104	0	77	19176
2026-01-29 11:48:39.13	208.82	3.48	-52.4	-67.2	3.8	1.49e+00	0	40	104	0	76	19754
2026-01-29 11:48:40.10	208.89	3.54	-52.3	-67.2	3.8	1.49e+00	0	41	104	0	76	19786
2026-01-29 11:48:41.07	208.96	3.59	-52.3	-67.3	3.8	1.49e+00	0	41	104	0	76	19869
2026-01-29 11:48:42.04	209.03	3.65	-52.3	-67.3	3.8	1.49e+00	0	41	104	0	76	19849
2026-01-29 11:48:43.01	209.10	3.71	-52.3	-67.3	3.8	1.49e+00	0	41	104	0	76	19902
2026-01-29 11:48:43.98	209.17	3.76	-52.3	-67.2	3.8	1.49e+00	0	41	104	0	76	19840
2026-01-29 11:48:44.96	209.25	3.82	-52.3	-67.2	3.8	1.49e+00	0	41	104	0	76	19832
2026-01-29 11:48:45.93	209.32	3.88	-52.3	-67.2	3.8	1.49e+00	0	41	104	0	76	19732
2026-01-29 11:48:46.89	209.39	3.94	-52.3	-67.2	3.8	1.49e+00	0	41	104	0	76	19679
2026-01-29 11:48:47.87	209.46	4.00	-52.3	-67.2	3.8	1.49e+00	0	41	104	0	76	19677
2026-01-29 11:48:48.83	209.53	4.05	-52.3	-67.2	3.8	1.49e+00	0	41	104	0	76	19620
2026-01-29 11:48:49.80	209.60	4.11	-52.3	-67.1	3.8	1.49e+00	0	41	104	0	76	19511
2026-01-29 11:48:50.77	209.68	4.17	-52.3	-67.0	3.8	1.49e+00	0	41	104	0	76	19194
2026-01-29 11:48:51.74	209.75	4.23	-52.3	-66.8	3.8	1.49e+00	0	41	104	0	76	18944
2026-01-29 11:48:52.71	209.82	4.29	-52.3	-66.7	3.8	1.49e+00	0	41	104	0	76	18697
2026-01-29 11:48:53.68	209.89	4.34	-52.3	-66.7	3.8	1.49e+00	0	41	104	0	76	18627
2026-01-29 11:48:54.65	209.97	4.40	-52.3	-66.8	3.8	1.49e+00	0	41	104	0	76	18840
2026-01-29 11:48:55.62	210.04	4.46	-52.3	-66.7	3.8	1.49e+00	0	41	104	0	76	18560
2026-01-29 11:48:56.59	210.12	4.52	-52.2	-65.5	3.8	1.49e+00	0	41	104	0	76	16281
2026-01-29 11:48:57.56	210.19	4.58	-52.1	-63.7	4.2	1.46e+00	0	41	104	0	76	13138
2026-01-29 11:48:58.53	210.27	4.64	-51.8	-61.1	5.3	8.55e-01	0	41	0	1048576	75	10335
2026-01-29 11:48:59.50	210.34	4.70	-51.4	-58.6	7.2	2.96e-01	0	41	0	3145728	74	8240
2026-01-29 11:49:00.47	210.42	4.75	-50.9	-56.6	9.1	6.92e-02	0	41	0	4194304	73	6947
2026-01-29 11:49:01.44	210.49	4.81	-50.3	-54.7	11.2	3.35e-03	0	41	0	6291456	72	5914
2026-01-29 11:49:02.41	210.57	4.87	-49.8	-53.5	12.5	2.00e-04	0	41	0	8388608	71	5462
2026-01-29 11:49:03.38	210.64	4.93	-49.2	-52.5	13.7	1.75e-05	0	41	0	10485760	70	5122
2026-01-29 11:49:04.36	210.72	4.99	-48.8	-51.7	14.5	2.20e-06	0	41	0	11534336	69	4953
2026-01-29 11:49:05.33	210.80	5.05	-48.4	-51.0	15.1	7.00e-07	0	41	0	13631488	68	4847
2026-01-29 11:49:06.30	210.87	5.11	-51.2	-57.3	8.8	5.49e-02	0	41	0	15728640	73	7479
2026-01-29 11:49:07.27	210.95	5.17	-50.1	-54.4	11.5	1.02e-02	0	41	0	16777216	72	5687
2026-01-29 11:49:08.24	211.03	5.23	-49.9	-53.8	12.4	7.00e-07	0	41	0	18874368	70	5976
2026-01-29 11:49:09.21	211.11	5.29	-51.9	-63.3	3.9	5.33e-01	0	41	104	19922944	74	14185
2026-01-29 11:49:10.18	211.19	5.35	-46.6	-48.4	17.4	8.88e-01	0	41	0	19922944	64	4505
2026-01-29 11:49:11.14	211.26	5.41	-46.4	-48.1	17.9	0.00e+00	0	41	0	22020096	64	4380
2026-01-29 11:49:12.12	211.34	5.47	-46.6	-48.5	17.6	0.00e+00	0	41	0	24117248	64	4555
2026-01-29 11:49:13.09	211.42	5.53	-46.4	-48.2	17.9	0.00e+00	0	41	0	25165824	64	4428
2026-01-29 11:49:14.06	211.50	5.59	-46.6	-48.5	17.6	0.00e+00	0	41	0	27262976	64	4573
2026-01-29 11:49:15.02	211.58	5.65	-46.5	-48.3	17.8	0.00e+00	0	41	0	29360128	64	4454
2026-01-29 11:49:16.00	211.66	5.71	-46.3	-48.1	18.0	0.00e+00	0	41	0	30408704	64	4358
2026-01-29 11:49:16.97	211.74	5.77	-46.3	-48.0	18.1	0.00e+00	0	41	0	32505856	64	4315
2026-01-29 11:49:17.94	211.82	5.83	-46.0	-47.7	18.5	0.00e+00	0	41	0	34603008	64	4156
2026-01-29 11:49:18.91	211.90	5.89	-46.2	-47.9	18.3	0.00e+00	0	41	0	36700160	64	4264
2026-01-29 11:49:19.88	211.99	5.95	-46.2	-47.9	18.3	0.00e+00	0	41	0	37748736	64	4247
2026-01-29 11:49:20.85	212.07	6.02	-46.1	-47.7	18.4	0.00e+00	0	41	0	39845888	64	4177
2026-01-29 11:49:21.82	212.15	6.08	-46.3	-48.0	18.2	0.00e+00	0	41	0	41943040	64	4295
2026-01-29 11:49:22.79	212.23	6.14	-46.2	-47.9	18.3	0.00e+00	0	41	0	44040192	64	4248
2026-01-29 11:49:23.76	212.31	6.20	-46.0	-47.7	18.5	0.00e+00	0	41	0	45088768	64	4167
2026-01-29 11:49:24.73	212.40	6.26	-46.1	-47.8	18.5	0.00e+00	0	41	0	47185920	63	4451
2026-01-29 11:49:25.70	212.48	6.32	-46.1	-47.7	18.5	0.00e+00	0	41	0	49283072	63	4438
2026-01-29 11:49:26.67	212.56	6.38	-46.1	-47.8	18.5	0.00e+00	0	41	0	50331648	63	4463
2026-01-29 11:49:27.64	212.65	6.44	-46.1	-47.7	18.6	0.00e+00	0	41	0	52428800	63	4407
2026-01-29 11:49:28.62	212.73	6.51	-46.1	-47.7	18.6	0.00e+00	0	41	0	54525952	63	4428
2026-01-29 11:49:29.59	212.82	6.57	-46.2	-47.9	18.4	0.00e+00	0	41	0	56623104	63	4538
2026-01-29 11:49:30.56	212.90	6.63	-46.4	-48.2	18.1	0.00e+00	0	41	0	57671680	63	4684
2026-01-29 11:49:31.53	212.99	6.69	-46.4	-48.1	18.2	0.00e+00	0	41	0	59768832	63	4643
2026-01-29 11:49:32.50	213.07	6.75	-46.4	-48.2	18.1	0.00e+00	0	41	0	61865984	63	4658
2026-01-29 11:49:33.47	213.16	6.82	-46.5	-48.2	18.2	0.00e+00	0	41	0	63963136	63	4687
2026-01-29 11:49:34.44	213.25	6.88	-46.4	-48.2	18.2	0.00e+00	0	41	0	65011712	63	4652
2026-01-29 11:49:35.41	213.33	6.94	-46.2	-47.9	18.5	0.00e+00	0	41	0	67108864	63	4500
2026-01-29 11:49:36.38	213.42	7.00	-46.4	-48.2	18.2	0.00e+00	0	41	0	69206016	63	4667
2026-01-29 11:49:37.35	213.51	7.07	-46.2	-47.9	18.4	0.00e+00	0	41	0	71303168	63	4514
2026-01-29 11:49:38.32	213.60	7.13	-46.2	-47.8	18.6	0.00e+00	0	41	0	72351744	63	4474
2026-01-29 11:49:39.29	213.68	7.19	-46.2	-47.8	18.5	0.00e+00	0	41	0	74448896	63	4490
2026-01-29 11:49:40.25	213.77	7.25	-46.1	-47.7	18.6	0.00e+00	0	41	0	76546048	63	4429
2026-01-29 11:49:41.22	213.86	7.32	-46.0	-47.5	18.8	0.00e+00	0	41	0	78643200	63	4340
2026-01-29 11:49:42.19	213.95	7.38	-46.1	-47.7	18.7	0.00e+00	0	41	0	79691776	63	4400
2026-01-29 11:49:43.16	214.04	7.44	-45.9	-47.5	18.9	0.00e+00	0	41	0	81788928	63	4315
2026-01-29 11:49:44.13	214.13	7.51	-45.9	-47.5	18.9	0.00e+00	0	41	0	83886080	63	4317
2026-01-29 11:49:45.10	214.22	7.57	-46.0	-47.6	18.8	0.00e+00	0	41	0	85983232	63	4373
2026-01-29 11:49:46.07	214.31	7.63	-46.1	-47.8	18.7	0.00e+00	0	41	0	87031808	63	4451
2026-01-29 11:49:47.04	214.40	7.70	-46.1	-47.7	18.7	0.00e+00	0	41	0	89128960	63	4433
2026-01-29 11:49:48.01	214.49	7.76	-46.0	-47.5	18.9	0.00e+00	0	41	0	91226112	63	4322
2026-01-29 11:49:48.99	214.59	7.83	-46.0	-47.6	18.9	0.00e+00	0	41	0	92274688	63	4344
2026-01-29 11:49:49.96	214.68	7.89	-46.0	-47.6	18.8	0.00e+00	0	41	0	94371840	63	4365
2026-01-29 11:49:50.93	214.77	7.95	-46.0	-47.6	18.9	0.00e+00	0	41	0	96468992	63	4342
2026-01-29 11:49:51.89	214.86	8.02	-45.9	-47.4	19.0	0.00e+00	0	41	0	98566144	63	4277
2026-01-29 11:49:52.86	214.96	8.08	-45.9	-47.5	18.9	0.00e+00	0	41	0	99614720	63	4306
2026-01-29 11:49:53.83	215.05	8.14	-45.9	-47.4	19.0	0.00e+00	0	41	0	101711872	63	4269
2026-01-29 11:49:54.80	215.15	8.21	-45.7	-47.2	19.2	0.00e+00	0	42	0	103809024	63	4151
2026-01-29 11:49:55.77	215.24	8.27	-45.8	-47.2	19.2	0.00e+00	0	41	0	104857600	63	4190
2026-01-29 11:49:56.75	215.34	8.34	-45.9	-47.4	19.0	0.00e+00	0	41	0	106954752	63	4268
2026-01-29 11:49:57.72	215.43	8.40	-45.7	-47.2	19.2	0.00e+00	0	41	0	109051904	63	4181
2026-01-29 11:49:58.69	215.53	8.47	-46.0	-47.5	18.9	0.00e+00	0	41	0	111149056	63	4328
2026-01-29 11:49:59.66	215.62	8.53	-46.1	-47.6	18.9	0.00e+00	0	41	0	112197632	63	4382
2026-01-29 11:50:00.63	215.72	8.60	-45.8	-47.3	19.2	0.00e+00	0	41	0	114294784	63	4204
2026-01-29 11:50:01.60	215.82	8.66	-45.9	-47.5	19.0	0.00e+00	0	41	0	116391936	63	4305
2026-01-29 11:50:02.57	215.92	8.73	-45.7	-47.2	19.3	0.00e+00	0	41	0	118489088	63	4171
2026-01-29 11:50:03.54	216.01	8.79	-45.7	-47.1	19.3	0.00e+00	0	41	0	119537664	63	4136
2026-01-29 11:50:04.51	216.11	8.86	-45.7	-47.2	19.3	0.00e+00	0	41	0	121634816	63	4154
2026-01-29 11:50:05.48	216.21	8.92	-45.6	-47.1	19.4	0.00e+00	0	41	0	123731968	63	4109
2026-01-29 11:50:06.45	216.31	8.99	-45.5	-46.9	19.5	0.00e+00	0	41	0	125829120	62	4286
2026-01-29 11:50:07.41	216.41	9.06	-45.5	-46.9	19.5	0.00e+00	0	41	0	126877696	62	4291
2026-01-29 11:50:08.38	216.51	9.12	-45.5	-46.9	19.6	0.00e+00	0	41	0	128974848	62	4267
2026-01-29 11:50:09.35	216.61	9.19	-45.3	-46.7	19.8	0.00e+00	0	41	0	131072000	62	4171
2026-01-29 11:50:10.32	216.71	9.25	-45.4	-46.8	19.7	0.00e+00	0	42	0	133169152	62	4218
2026-01-29 11:50:11.30	216.81	9.32	-45.3	-46.7	19.7	0.00e+00	0	41	0	134217728	62	4171
2026-01-29 11:50:12.27	216.92	9.39	-45.1	-46.5	20.0	0.00e+00	0	41	0	136314880	62	4062
2026-01-29 11:50:13.24	217.02	9.45	-45.3	-46.6	19.8	0.00e+00	0	42	0	138412032	62	4133
2026-01-29 11:50:14.21	217.12	9.52	-45.3	-46.6	19.8	0.00e+00	0	41	0	140509184	62	4139
2026-01-29 11:50:15.18	217.22	9.58	-45.2	-46.5	20.0	0.00e+00	0	41	0	141557760	62	4070
2026-01-29 11:50:16.15	217.33	9.65	-45.3	-46.6	19.9	0.00e+00	0	42	0	143654912	62	4145
2026-01-29 11:50:17.12	217.43	9.72	-45.3	-46.6	19.8	0.00e+00	0	41	0	145752064	62	4144
2026-01-29 11:50:18.10	217.54	9.79	-45.3	-46.7	19.8	0.00e+00	0	41	0	147849216	62	4172
2026-01-29 11:50:19.07	217.64	9.85	-45.4	-46.8	19.7	0.00e+00	0	42	0	148897792	62	4229
2026-01-29 11:50:20.04	217.75	9.92	-45.6	-47.0	19.5	0.00e+00	0	42	0	150994944	62	4318
2026-01-29 11:50:21.02	217.85	9.99	-45.8	-47.3	19.2	0.00e+00	0	41	0	153092096	62	4484
2026-01-29 11:50:21.99	217.96	10.05	-45.8	-47.3	19.3	0.00e+00	0	41	0	155189248	62	4462
2026-01-29 11:50:22.96	218.07	10.12	-45.8	-47.4	19.2	0.00e+00	0	41	0	156237824	62	4497
2026-01-29 11:50:23.93	218.18	10.19	-45.9	-47.4	19.2	0.00e+00	0	42	0	158334976	62	4505
2026-01-29 11:50:24.90	218.28	10.26	-46.0	-47.5	19.1	0.00e+00	0	41	0	160432128	62	4579
2026-01-29 11:50:25.87	218.39	10.32	-46.1	-47.6	19.0	0.00e+00	0	41	0	161480704	62	4646
2026-01-29 11:50:26.84	218.50	10.39	-46.0	-47.6	19.0	0.00e+00	0	41	0	163577856	62	4628
2026-01-29 11:50:27.81	218.61	10.46	-46.0	-47.5	19.1	0.00e+00	0	41	0	165675008	62	4590
2026-01-29 11:50:28.79	218.72	10.53	-46.0	-47.5	19.1	0.00e+00	0	41	0	167772160	62	4578
2026-01-29 11:50:29.76	218.83	10.60	-45.7	-47.2	19.4	0.00e+00	0	41	0	168820736	62	4422
2026-01-29 11:50:30.73	218.94	10.66	-45.8	-47.3	19.4	0.00e+00	0	41	0	170917888	62	4446
2026-01-29 11:50:31.70	219.05	10.73	-45.8	-47.2	19.4	0.00e+00	0	42	0	173015040	62	4427
2026-01-29 11:50:32.67	219.16	10.80	-45.6	-47.1	19.5	0.00e+00	0	41	0	174063616	62	4357
2026-01-29 11:50:33.63	219.28	10.87	-45.5	-46.9	19.7	0.00e+00	0	41	0	176160768	62	4284
2026-01-29 11:50:34.61	219.39	10.94	-45.6	-47.0	19.6	0.00e+00	0	41	0	178257920	62	4322
2026-01-29 11:50:35.57	219.50	11.00	-45.4	-46.8	19.8	0.00e+00	0	41	0	180355072	62	4195
2026-01-29 11:50:36.55	219.62	11.07	-45.4	-46.8	19.8	0.00e+00	0	41	0	181403648	62	4220
2026-01-29 11:50:37.52	219.73	11.14	-45.4	-46.8	19.8	0.00e+00	0	41	0	183500800	62	4215
2026-01-29 11:50:38.49	219.85	11.21	-45.3	-46.6	19.9	0.00e+00	0	42	0	185597952	62	4142
2026-01-29 11:50:39.47	219.96	11.28	-45.3	-46.6	19.9	0.00e+00	0	42	0	187695104	62	4127
2026-01-29 11:50:40.43	220.08	11.35	-45.3	-46.7	19.9	0.00e+00	0	42	0	188743680	62	4170
2026-01-29 11:50:41.40	220.19	11.42	-45.4	-46.8	19.8	0.00e+00	0	42	0	190840832	62	4211
2026-01-29 11:50:42.37	220.31	11.49	-45.2	-46.6	20.0	0.00e+00	0	41	0	192937984	62	4101
2026-01-29 11:50:43.34	220.43	11.56	-45.3	-46.6	20.0	0.00e+00	0	42	0	195035136	62	4135
2026-01-29 11:50:44.31	220.55	11.63	-45.2	-46.5	20.0	0.00e+00	0	42	0	196083712	62	4098
2026-01-29 11:50:45.28	220.66	11.70	-45.1	-46.4	20.2	0.00e+00	0	42	0	198180864	62	4047
2026-01-29 11:50:46.25	220.78	11.76	-45.3	-46.6	20.0	0.00e+00	0	42	0	200278016	62	4119
2026-01-29 11:50:47.23	220.90	11.83	-45.1	-46.4	20.2	0.00e+00	0	42	0	202375168	62	4047
2026-01-29 11:50:48.19	221.02	11.90	-45.2	-46.5	20.1	0.00e+00	0	42	0	203423744	62	4088
2026-01-29 11:50:49.17	221.14	11.97	-45.1	-46.5	20.1	0.00e+00	0	42	0	205520896	62	4062
2026-01-29 11:50:50.14	221.27	12.04	-45.3	-46.7	19.9	0.00e+00	0	41	0	207618048	62	4165
2026-01-29 11:50:51.11	221.39	12.11	-45.2	-46.5	20.1	0.00e+00	0	41	0	209715200	62	4075
2026-01-29 11:50:52.08	221.51	12.18	-45.1	-46.4	20.1	0.00e+00	0	41	0	210763776	62	4022
2026-01-29 11:50:53.05	221.63	12.25	-45.4	-46.7	19.9	0.00e+00	0	41	0	212860928	62	4182
2026-01-29 11:50:54.02	221.76	12.32	-45.4	-46.7	19.9	0.00e+00	0	41	0	214958080	62	4181
2026-01-29 11:50:54.98	221.88	12.39	-45.2	-46.5	20.1	0.00e+00	0	41	0	217055232	62	4085
2026-01-29 11:50:55.95	222.00	12.46	-45.2	-46.5	20.1	0.00e+00	0	41	0	218103808	62	4070
2026-01-29 11:50:56.92	222.13	12.53	-45.0	-46.3	20.3	0.00e+00	0	42	0	220200960	62	3979
2026-01-29 11:50:57.89	222.25	12.61	-45.2	-46.6	20.1	0.00e+00	0	42	0	222298112	62	4102
2026-01-29 11:50:58.87	222.38	12.68	-45.1	-46.4	20.2	0.00e+00	0	41	0	223346688	62	4031
2026-01-29 11:50:59.83	222.51	12.75	-45.2	-46.5	20.1	0.00e+00	0	42	0	225443840	62	4078
2026-01-29 11:51:00.80	222.64	12.82	-45.1	-46.4	20.2	0.00e+00	0	42	0	227540992	62	4044
2026-01-29 11:51:01.78	222.76	12.89	-45.3	-46.6	20.0	0.00e+00	0	42	0	228589568	62	4124
2026-01-29 11:51:02.74	222.89	12.96	-45.4	-46.8	19.9	0.00e+00	0	42	0	230686720	62	4200
2026-01-29 11:51:03.71	223.02	13.03	-45.6	-47.0	19.7	0.00e+00	0	41	0	232783872	62	4309
2026-01-29 11:51:04.68	223.15	13.10	-45.7	-47.2	19.5	0.00e+00	0	41	0	234881024	62	4409
2026-01-29 11:51:05.65	223.28	13.17	-45.6	-47.1	19.6	0.00e+00	0	42	0	235929600	62	4344
2026-01-29 11:51:06.62	223.41	13.24	-45.8	-47.3	19.4	0.00e+00	0	42	0	238026752	62	4471
2026-01-29 11:51:07.60	223.55	13.32	-45.9	-47.4	19.4	0.00e+00	0	42	0	240123904	62	4494
2026-01-29 11:51:08.56	223.68	13.39	-45.7	-47.2	19.5	0.00e+00	0	42	0	242221056	62	4417
2026-01-29 11:51:09.53	223.81	13.46	-45.8	-47.3	19.5	0.00e+00	0	42	0	243269632	62	4450
2026-01-29 11:51:10.51	223.94	13.53	-45.7	-47.1	19.6	0.00e+00	0	42	0	245366784	62	4361
2026-01-29 11:51:11.48	224.08	13.60	-45.7	-47.2	19.5	0.00e+00	0	42	0	247463936	62	4409
2026-01-29 11:51:12.45	224.21	13.67	-45.6	-47.0	19.6	0.00e+00	0	41	0	249561088	62	4314
2026-01-29 11:51:13.42	224.35	13.74	-45.5	-46.9	19.8	0.00e+00	0	42	0	250609664	62	4277
2026-01-29 11:51:14.39	224.49	13.82	-45.5	-46.8	19.8	0.00e+00	0	42	0	252706816	62	4242
2026-01-29 11:51:15.36	224.62	13.89	-45.4	-46.8	19.9	0.00e+00	0	42	0	254803968	62	4230
2026-01-29 11:51:16.33	224.76	13.96	-45.4	-46.8	19.9	0.00e+00	0	42	0	256901120	62	4204
2026-01-29 11:51:17.30	224.90	14.03	-45.1	-46.4	20.3	0.00e+00	0	42	0	257949696	62	4012
2026-01-29 11:51:18.27	225.04	14.10	-45.0	-46.3	20.3	0.00e+00	0	42	0	260046848	61	4229
2026-01-29 11:51:19.24	225.18	14.18	-44.9	-46.2	20.5	0.00e+00	0	42	0	262144000	61	4159
2026-01-29 11:51:20.21	225.32	14.25	-44.9	-46.1	20.5	0.00e+00	0	42	0	264241152	61	4135
2026-01-29 11:51:21.17	225.45	14.32	-44.8	-46.1	20.5	0.00e+00	0	42	0	265289728	61	4103
2026-01-29 11:51:22.14	225.60	14.39	-44.7	-45.9	20.7	0.00e+00	0	42	0	267386880	61	4027
2026-01-29 11:51:23.12	225.74	14.47	-44.8	-46.1	20.5	0.00e+00	0	42	0	269484032	61	4126
2026-01-29 11:51:24.09	225.88	14.54	-44.6	-45.8	20.8	0.00e+00	0	42	0	271581184	61	3986
2026-01-29 11:51:25.06	226.03	14.61	-44.5	-45.6	20.9	0.00e+00	0	42	0	272629760	60	4142
2026-01-29 11:51:26.03	226.17	14.68	-44.5	-45.7	20.9	0.00e+00	0	42	0	274726912	60	4166
2026-01-29 11:51:27.00	226.31	14.76	-44.5	-45.7	20.9	0.00e+00	0	42	0	276824064	60	4150
2026-01-29 11:51:27.97	226.46	14.83	-44.4	-45.6	21.0	0.00e+00	0	42	0	277872640	60	4123
2026-01-29 11:51:28.94	226.61	14.90	-44.4	-45.6	21.0	0.00e+00	0	42	0	279969792	60	4127
2026-01-29 11:51:29.92	226.75	14.97	-44.3	-45.4	21.2	0.00e+00	0	42	0	282066944	60	4044
2026-01-29 11:51:30.89	226.90	15.05	-44.5	-45.7	20.9	0.00e+00	0	42	0	284164096	60	4155
2026-01-29 11:51:31.85	227.05	15.12	-44.4	-45.6	21.1	0.00e+00	0	42	0	285212672	60	4102
2026-01-29 11:51:32.82	227.20	15.19	-44.6	-45.8	20.8	0.00e+00	0	42	0	287309824	60	4202
2026-01-29 11:51:33.79	227.35	15.26	-44.6	-45.9	20.7	0.00e+00	0	42	0	289406976	60	4257
2026-01-29 11:51:34.76	227.50	15.34	-44.8	-46.1	20.6	0.00e+00	0	42	0	291504128	60	4362
2026-01-29 11:51:35.73	227.65	15.41	-44.8	-46.1	20.6	0.00e+00	0	42	0	292552704	60	4356
2026-01-29 11:51:36.70	227.80	15.48	-44.9	-46.2	20.6	0.00e+00	0	42	0	294649856	60	4392
2026-01-29 11:51:37.67	227.95	15.56	-45.0	-46.3	20.4	0.00e+00	0	41	0	296747008	60	4465
2026-01-29 11:51:38.65	228.11	15.63	-44.8	-46.0	20.7	0.00e+00	0	42	0	297795584	60	4315
2026-01-29 11:51:39.62	228.26	15.70	-45.0	-46.3	20.5	0.00e+00	0	42	0	299892736	60	4448
2026-01-29 11:51:40.59	228.41	15.78	-45.1	-46.4	20.3	0.00e+00	0	42	0	301989888	60	4509
2026-01-29 11:51:41.56	228.57	15.85	-45.1	-46.4	20.3	0.00e+00	0	42	0	304087040	60	4535
2026-01-29 11:51:42.53	228.72	15.92	-45.1	-46.4	20.3	0.00e+00	0	42	0	305135616	61	4264
2026-01-29 11:51:43.50	228.88	16.00	-45.1	-46.5	20.3	0.00e+00	0	42	0	307232768	61	4293
2026-01-29 11:51:44.47	229.04	16.07	-45.2	-46.5	20.2	0.00e+00	0	42	0	309329920	61	4309
2026-01-29 11:51:45.45	229.20	16.14	-44.8	-46.1	20.6	0.00e+00	0	42	0	311427072	61	4104
2026-01-29 11:51:46.42	229.36	16.22	-45.0	-46.3	20.4	0.00e+00	0	42	0	312475648	61	4203
2026-01-29 11:51:47.39	229.52	16.29	-44.7	-46.0	20.7	0.00e+00	0	42	0	314572800	61	4059
2026-01-29 11:51:48.36	229.68	16.36	-44.6	-45.8	20.8	0.00e+00	0	42	0	316669952	61	3999
2026-01-29 11:51:49.33	229.84	16.43	-44.4	-45.6	21.0	0.00e+00	0	42	0	318767104	60	4132
2026-01-29 11:51:50.30	230.00	16.51	-44.1	-45.3	21.3	0.00e+00	0	42	0	319815680	60	3974
2026-01-29 11:51:51.27	230.16	16.58	-44.0	-45.1	21.4	0.00e+00	0	42	0	321912832	60	3905
2026-01-29 11:51:52.24	230.33	16.65	-44.4	-45.5	21.4	0.00e+00	0	42	0	324009984	59	4328
2026-01-29 11:51:53.21	230.49	16.73	-44.5	-45.7	21.3	0.00e+00	0	42	0	326107136	59	4402
2026-01-29 11:51:54.18	230.66	16.80	-44.4	-45.6	21.3	0.00e+00	0	41	0	327155712	59	4367
2026-01-29 11:51:55.16	230.82	16.87	-44.5	-45.6	21.3	0.00e+00	0	42	0	329252864	59	4385
2026-01-29 11:51:56.13	230.99	16.95	-44.3	-45.5	21.4	0.00e+00	0	42	0	331350016	59	4310
2026-01-29 11:51:57.10	231.16	17.02	-44.1	-45.3	21.7	0.00e+00	0	42	0	333447168	59	4195
2026-01-29 11:51:58.07	231.33	17.09	-44.2	-45.3	21.6	0.00e+00	0	42	0	334495744	59	4221
2026-01-29 11:51:59.04	231.50	17.17	-44.0	-45.1	21.8	0.00e+00	0	42	0	336592896	59	4142
2026-01-29 11:52:00.01	231.67	17.24	-43.9	-45.0	21.8	0.00e+00	0	42	0	338690048	59	4060
2026-01-29 11:52:00.98	231.84	17.31	-43.9	-45.0	21.9	0.00e+00	0	42	0	339738624	59	4058
2026-01-29 11:52:01.95	232.01	17.39	-43.8	-44.9	21.9	0.00e+00	0	42	0	341835776	59	4025
2026-01-29 11:52:02.92	232.18	17.46	-44.0	-45.1	21.8	0.00e+00	0	42	0	343932928	59	4144
2026-01-29 11:52:03.89	232.35	17.53	-44.2	-45.3	21.6	0.00e+00	0	42	0	346030080	59	4215
2026-01-29 11:52:04.86	232.53	17.61	-44.2	-45.3	21.6	0.00e+00	0	42	0	347078656	59	4234
2026-01-29 11:52:05.83	232.70	17.68	-44.4	-45.6	21.3	0.00e+00	0	42	0	349175808	59	4372
2026-01-29 11:52:06.80	232.88	17.75	-44.5	-45.8	20.9	0.00e+00	0	42	0	351272960	60	4196
2026-01-29 11:52:07.76	233.05	17.82	-44.3	-45.5	21.1	0.00e+00	0	42	0	353370112	60	4082
2026-01-29 11:52:08.73	233.23	17.90	-44.3	-45.5	21.2	0.00e+00	0	42	0	354418688	60	4064
2026-01-29 11:52:09.71	233.41	17.97	-44.3	-45.5	21.2	0.00e+00	0	42	0	356515840	60	4073
2026-01-29 11:52:10.67	233.58	18.04	-44.3	-45.4	21.3	0.00e+00	0	42	0	358612992	60	4034
2026-01-29 11:52:11.64	233.76	18.12	-44.3	-45.5	21.2	0.00e+00	0	42	0	359661568	60	4069
2026-01-29 11:52:12.61	233.94	18.19	-44.4	-45.6	21.1	0.00e+00	0	41	0	361758720	60	4125
2026-01-29 11:52:13.58	234.13	18.26	-44.5	-45.7	21.0	0.00e+00	0	42	0	363855872	60	4151
2026-01-29 11:52:14.55	234.31	18.33	-44.7	-45.9	20.9	0.00e+00	0	42	0	365953024	60	4256
2026-01-29 11:52:15.52	234.49	18.41	-44.7	-46.0	20.8	0.00e+00	0	42	0	367001600	60	4308
2026-01-29 11:52:16.49	234.67	18.48	-44.6	-45.8	20.9	0.00e+00	0	42	0	369098752	60	4220
2026-01-29 11:52:17.46	234.86	18.55	-44.4	-45.6	21.1	0.00e+00	0	42	0	371195904	60	4128
2026-01-29 11:52:18.42	235.04	18.62	-44.4	-45.6	21.2	0.00e+00	0	42	0	373293056	60	4104
2026-01-29 11:52:19.39	235.23	18.69	-44.1	-45.2	21.5	0.00e+00	0	42	0	374341632	60	3956
2026-01-29 11:52:20.36	235.42	18.77	-44.4	-45.5	21.5	0.00e+00	0	42	0	376438784	59	4318
2026-01-29 11:52:21.34	235.61	18.84	-44.2	-45.3	21.7	0.00e+00	0	42	0	378535936	59	4214
2026-01-29 11:52:22.31	235.80	18.91	-44.1	-45.2	21.7	0.00e+00	0	42	0	380633088	59	4168
2026-01-29 11:52:23.28	235.99	18.98	-44.1	-45.2	21.8	0.00e+00	0	42	0	381681664	59	4172
2026-01-29 11:52:24.25	236.18	19.05	-44.2	-45.3	21.6	0.00e+00	0	42	0	383778816	59	4239
2026-01-29 11:52:25.22	236.37	19.13	-44.0	-45.1	21.9	0.00e+00	0	42	0	385875968	59	4100
2026-01-29 11:52:26.19	236.56	19.20	-43.9	-45.0	22.0	0.00e+00	0	42	0	387973120	59	4067
2026-01-29 11:52:27.16	236.75	19.27	-43.8	-44.8	22.1	0.00e+00	0	42	0	389021696	59	3995
2026-01-29 11:52:28.13	236.95	19.34	-43.5	-44.5	22.4	0.00e+00	0	42	0	391118848	59	3855
2026-01-29 11:52:29.10	237.14	19.41	-43.4	-44.4	22.4	0.00e+00	0	42	0	393216000	58	4025
2026-01-29 11:52:30.07	237.34	19.48	-43.4	-44.4	22.4	0.00e+00	0	42	0	394264576	58	4037
2026-01-29 11:52:31.04	237.54	19.55	-43.4	-44.5	22.4	0.00e+00	0	41	0	396361728	58	4054
2026-01-29 11:52:32.01	237.73	19.62	-43.5	-44.5	22.4	0.00e+00	0	42	0	398458880	58	4069
2026-01-29 11:52:32.98	237.93	19.69	-43.4	-44.4	22.4	0.00e+00	0	42	0	400556032	58	4047
2026-01-29 11:52:33.95	238.13	19.76	-43.3	-44.3	22.5	0.00e+00	0	42	0	401604608	58	3997
2026-01-29 11:52:34.92	238.33	19.83	-43.4	-44.4	22.5	0.00e+00	0	42	0	403701760	58	4024
2026-01-29 11:52:35.89	238.53	19.90	-43.1	-44.1	22.7	0.00e+00	0	42	0	405798912	58	3892
2026-01-29 11:52:36.86	238.74	19.98	-43.0	-43.9	22.8	0.00e+00	0	42	0	407896064	57	4038
2026-01-29 11:52:37.82	238.94	20.04	-43.1	-44.1	22.6	0.00e+00	0	42	0	408944640	57	4129
2026-01-29 11:52:38.80	239.14	20.11	-43.0	-44.0	22.7	0.00e+00	0	42	0	411041792	57	4079
2026-01-29 11:52:39.77	239.35	20.18	-42.9	-43.8	22.9	0.00e+00	0	42	0	413138944	57	3997
2026-01-29 11:52:40.74	239.55	20.25	-42.9	-43.8	22.9	0.00e+00	0	42	0	415236096	57	3999
2026-01-29 11:52:41.71	239.76	20.32	-43.1	-44.1	22.7	0.00e+00	0	42	0	416284672	57	4104
2026-01-29 11:52:42.68	239.97	20.39	-43.2	-44.2	22.6	0.00e+00	0	42	0	418381824	57	4173
2026-01-29 11:52:43.64	240.17	20.46	-43.1	-44.1	22.6	0.00e+00	0	42	0	420478976	57	4140
2026-01-29 11:52:44.61	240.38	20.53	-43.1	-44.1	22.7	0.00e+00	0	42	0	421527552	57	4132
2026-01-29 11:52:45.58	240.59	20.60	-43.1	-44.2	22.6	0.00e+00	0	42	0	423624704	57	4146
2026-01-29 11:52:46.55	240.80	20.67	-43.3	-44.3	22.5	0.00e+00	0	42	0	425721856	57	4237
2026-01-29 11:52:47.53	241.02	20.73	-43.3	-44.3	22.5	0.00e+00	0	42	0	427819008	57	4214
2026-01-29 11:52:48.50	241.23	20.80	-43.3	-44.3	22.5	0.00e+00	0	42	0	428867584	57	4236
2026-01-29 11:52:49.47	241.45	20.87	-43.4	-44.5	22.4	0.00e+00	0	42	0	430964736	57	4293
2026-01-29 11:52:50.44	241.66	20.94	-43.3	-44.3	22.5	0.00e+00	0	42	0	433061888	57	4228
2026-01-29 11:52:51.42	241.88	21.01	-43.4	-44.4	22.4	0.00e+00	0	42	0	435159040	57	4268
2026-01-29 11:52:52.39	242.10	21.07	-43.3	-44.3	22.5	0.00e+00	0	42	0	436207616	57	4228
2026-01-29 11:52:53.36	242.31	21.14	-43.2	-44.2	22.6	0.00e+00	0	42	0	438304768	57	4156
2026-01-29 11:52:54.33	242.53	21.21	-43.3	-44.3	22.5	0.00e+00	0	42	0	440401920	57	4242
2026-01-29 11:52:55.29	242.75	21.27	-43.0	-44.0	22.8	0.00e+00	0	42	0	442499072	57	4085
2026-01-29 11:52:56.26	242.97	21.34	-43.0	-44.0	22.7	0.00e+00	0	42	0	443547648	57	4083
2026-01-29 11:52:57.23	243.19	21.40	-43.1	-44.1	22.7	0.00e+00	0	42	0	445644800	57	4110
2026-01-29 11:52:58.20	243.41	21.47	-43.4	-44.5	22.4	0.00e+00	0	42	0	447741952	57	4298
2026-01-29 11:52:59.16	243.63	21.53	-43.6	-44.7	22.1	0.00e+00	0	42	0	448790528	57	4416
2026-01-29 11:53:00.14	243.86	21.60	-43.8	-44.9	22.0	0.00e+00	0	42	0	450887680	58	4255
2026-01-29 11:53:01.10	244.08	21.66	-43.7	-44.8	22.1	0.00e+00	0	42	0	452984832	58	4219
2026-01-29 11:53:02.08	244.31	21.73	-43.8	-44.9	22.1	0.00e+00	0	42	0	455081984	58	4254
2026-01-29 11:53:03.05	244.54	21.79	-43.9	-44.9	22.0	0.00e+00	0	42	0	456130560	58	4277
2026-01-29 11:53:04.02	244.76	21.86	-43.6	-44.7	22.3	0.00e+00	0	42	0	458227712	58	4153
2026-01-29 11:53:05.00	245.00	21.92	-43.6	-44.7	22.2	0.00e+00	0	42	0	460324864	58	4150
2026-01-29 11:53:05.96	245.22	21.98	-43.8	-44.9	22.0	0.00e+00	0	42	0	462422016	58	4273
2026-01-29 11:53:06.93	245.45	22.05	-44.1	-45.2	21.8	0.00e+00	0	42	0	463470592	58	4422
2026-01-29 11:53:07.90	245.68	22.11	-44.0	-45.1	21.9	0.00e+00	0	42	0	465567744	58	4366
2026-01-29 11:53:08.87	245.92	22.17	-44.0	-45.1	21.8	0.00e+00	0	42	0	467664896	58	4381
2026-01-29 11:53:09.84	246.15	22.23	-43.7	-44.7	22.2	0.00e+00	0	42	0	469762048	58	4183
2026-01-29 11:53:10.81	246.38	22.29	-43.6	-44.6	22.2	0.00e+00	0	42	0	470810624	58	4123
2026-01-29 11:53:11.78	246.62	22.36	-43.5	-44.5	22.3	0.00e+00	0	42	0	472907776	58	4071
2026-01-29 11:53:12.75	246.86	22.42	-43.5	-44.6	22.3	0.00e+00	0	42	0	475004928	58	4102
2026-01-29 11:53:13.72	247.09	22.48	-44.0	-45.1	21.9	0.00e+00	0	42	0	477102080	58	4349
2026-01-29 11:53:14.69	247.33	22.54	-44.5	-45.7	21.4	0.00e+00	0	42	0	478150656	59	4399
2026-01-29 11:53:15.66	247.57	22.60	-44.4	-45.6	21.2	0.00e+00	0	42	0	480247808	60	4136
2026-01-29 11:53:16.63	247.81	22.66	-44.3	-45.4	21.3	0.00e+00	0	41	0	482344960	60	4028
2026-01-29 11:53:17.60	248.05	22.72	-44.3	-45.4	21.6	0.00e+00	0	42	0	484442112	59	4270
2026-01-29 11:53:18.57	248.29	22.78	-43.9	-45.0	21.9	0.00e+00	0	42	0	485490688	59	4059
2026-01-29 11:53:19.54	248.53	22.83	-43.9	-45.0	21.9	0.00e+00	0	42	0	487587840	59	4060
2026-01-29 11:53:20.51	248.77	22.89	-43.8	-44.8	22.1	0.00e+00	0	42	0	489684992	59	4000
2026-01-29 11:53:21.48	249.02	22.95	-43.9	-45.0	22.0	0.00e+00	0	42	0	490733568	59	4058
2026-01-29 11:53:22.45	249.26	23.01	-44.2	-45.3	21.7	0.00e+00	0	42	0	492830720	59	4225
2026-01-29 11:53:23.42	249.51	23.06	-44.3	-45.4	21.6	0.00e+00	0	42	0	494927872	59	4288
2026-01-29 11:53:24.39	249.75	23.12	-44.3	-45.4	21.6	0.00e+00	0	42	0	497025024	59	4288
2026-01-29 11:53:25.36	250.00	23.18	-44.3	-45.4	21.6	0.00e+00	0	42	0	498073600	59	4283
2026-01-29 11:53:26.33	250.25	23.23	-44.2	-45.3	21.7	0.00e+00	0	42	0	500170752	59	4242
2026-01-29 11:53:27.30	250.50	23.29	-44.4	-45.6	21.5	0.00e+00	0	42	0	502267904	59	4342
2026-01-29 11:53:28.26	250.75	23.34	-44.7	-45.9	21.2	0.00e+00	0	42	0	503316480	59	4505
2026-01-29 11:53:29.24	251.00	23.40	-44.5	-45.6	21.1	0.00e+00	0	42	0	505413632	60	4133
2026-01-29 11:53:30.20	251.25	23.45	-44.7	-45.9	20.9	0.00e+00	0	42	0	507510784	60	4266
2026-01-29 11:53:31.18	251.50	23.50	-44.7	-45.9	20.8	0.00e+00	0	42	0	509607936	60	4291
2026-01-29 11:53:32.15	251.76	23.56	-44.7	-45.9	20.9	0.00e+00	0	42	0	510656512	60	4265
2026-01-29 11:53:33.12	252.01	23.61	-44.5	-45.6	21.1	0.00e+00	0	42	0	512753664	60	4130
2026-01-29 11:53:34.08	252.26	23.66	-44.4	-45.6	21.3	0.00e+00	0	42	0	514850816	60	4100
2026-01-29 11:53:35.05	252.52	23.71	-44.4	-45.5	21.2	0.00e+00	0	42	0	516947968	60	4082
2026-01-29 11:53:36.02	252.78	23.76	-44.9	-46.1	20.6	0.00e+00	0	42	0	517996544	60	4367
2026-01-29 11:53:36.99	253.03	23.81	-45.0	-46.2	20.6	0.00e+00	0	42	0	520093696	60	4435
2026-01-29 11:53:37.96	253.29	23.86	-45.4	-46.7	20.2	0.00e+00	0	42	0	522190848	61	4421
2026-01-29 11:53:38.92	253.55	23.91	-45.6	-47.0	19.9	0.00e+00	0	42	0	524288000	61	4582
2026-01-29 11:53:39.89	253.81	23.96	-45.7	-47.1	19.8	0.00e+00	0	42	0	525336576	62	4379
2026-01-29 11:53:40.86	254.07	24.01	-46.0	-47.5	19.4	0.00e+00	0	42	0	527433728	62	4566
2026-01-29 11:53:41.83	254.33	24.06	-46.3	-47.9	19.2	0.00e+00	0	42	0	529530880	63	4507
2026-01-29 11:53:42.80	254.59	24.11	-46.2	-47.7	19.3	0.00e+00	0	42	0	531628032	63	4404
2026-01-29 11:53:43.77	254.85	24.15	-46.0	-47.5	19.5	0.00e+00	0	42	0	532676608	63	4307
2026-01-29 11:53:44.74	255.12	24.20	-45.7	-47.0	19.9	0.00e+00	0	42	0	534773760	63	4098
2026-01-29 11:53:45.71	255.38	24.25	-45.1	-46.3	20.6	0.00e+00	0	42	0	536870912	62	3988
2026-01-29 11:53:46.68	255.65	24.29	-44.8	-46.0	20.8	0.00e+00	0	42	0	537919488	61	4058
2026-01-29 11:53:47.65	255.91	24.34	-44.7	-45.9	20.9	0.00e+00	0	42	0	540016640	61	4034
2026-01-29 11:53:48.61	256.18	24.38	-45.4	-46.7	20.2	0.00e+00	0	42	0	542113792	61	4407
2026-01-29 11:53:49.58	256.45	24.42	-45.8	-47.3	19.7	0.00e+00	0	42	0	544210944	62	4446
2026-01-29 11:53:50.55	256.71	24.47	-46.4	-47.9	19.1	0.00e+00	0	42	0	545259520	63	4518
2026-01-29 11:53:51.52	256.98	24.51	-46.9	-48.6	18.3	0.00e+00	0	42	0	547356672	64	4648
2026-01-29 11:53:52.49	257.25	24.55	-47.1	-48.9	18.1	0.00e+00	0	42	0	549453824	64	4766
2026-01-29 11:53:53.46	257.52	24.59	-47.2	-48.9	18.0	0.00e+00	0	42	0	551550976	65	4523
2026-01-29 11:53:54.43	257.79	24.63	-47.1	-48.8	18.2	0.00e+00	0	42	0	552599552	65	4469
2026-01-29 11:53:55.40	258.06	24.67	-47.0	-48.7	18.3	0.00e+00	0	42	0	554696704	65	4408
2026-01-29 11:53:56.38	258.34	24.71	-47.1	-48.9	18.1	0.00e+00	0	42	0	556793856	65	4530
2026-01-29 11:53:57.35	258.61	24.75	-47.3	-49.2	17.8	0.00e+00	0	42	0	557842432	65	4673
2026-01-29 11:53:58.32	258.89	24.79	-47.3	-49.1	18.0	0.00e+00	0	42	0	559939584	65	4602
2026-01-29 11:53:59.29	259.16	24.83	-46.8	-48.4	18.5	0.00e+00	0	42	0	562036736	65	4274
2026-01-29 11:54:00.26	259.43	24.87	-46.6	-48.2	18.8	0.00e+00	0	42	0	564133888	65	4149
2026-01-29 11:54:01.23	259.71	24.90	-46.5	-48.0	18.9	0.00e+00	0	42	0	565182464	64	4333
2026-01-29 11:54:02.20	259.99	24.94	-46.7	-48.4	18.5	0.00e+00	0	42	0	567279616	64	4503
2026-01-29 11:54:03.17	260.26	24.97	-47.2	-49.0	17.9	0.00e+00	0	42	0	569376768	65	4594
2026-01-29 11:54:04.15	260.54	25.01	-47.9	-50.0	17.1	0.00e+00	0	42	0	571473920	66	4827
2026-01-29 11:54:05.12	260.82	25.04	-48.3	-50.4	16.7	0.00e+00	0	42	0	572522496	67	4812
2026-01-29 11:54:06.09	261.10	25.07	-47.8	-49.8	17.2	0.00e+00	0	42	0	574619648	67	4489
2026-01-29 11:54:07.05	261.38	25.11	-47.4	-49.2	17.9	0.00e+00	0	42	0	576716800	66	4405
2026-01-29 11:54:08.03	261.66	25.14	-47.1	-48.9	18.1	0.00e+00	0	42	0	578813952	65	4500
2026-01-29 11:54:09.00	261.94	25.17	-47.1	-48.8	18.2	0.00e+00	0	42	0	579862528	65	4488
2026-01-29 11:54:09.97	262.22	25.20	-47.0	-48.6	18.4	0.00e+00	0	42	0	581959680	65	4378
2026-01-29 11:54:10.94	262.50	25.23	-47.5	-49.4	17.7	0.00e+00	0	42	0	584056832	65	4797
2026-01-29 11:54:11.91	262.78	25.26	-47.6	-49.5	17.6	0.00e+00	0	42	0	586153984	65	4838
2026-01-29 11:54:12.88	263.06	25.29	-47.3	-49.1	17.9	0.00e+00	0	42	0	587202560	65	4635
2026-01-29 11:54:13.85	263.35	25.32	-47.0	-48.7	18.4	0.00e+00	0	42	0	589299712	65	4400
2026-01-29 11:54:14.82	263.63	25.34	-46.5	-48.1	18.9	0.00e+00	0	42	0	591396864	64	4380
2026-01-29 11:54:15.79	263.91	25.37	-46.1	-47.6	19.4	0.00e+00	0	42	0	593494016	64	4115
2026-01-29 11:54:16.76	264.20	25.40	-46.1	-47.6	19.4	0.00e+00	0	42	0	594542592	63	4353
2026-01-29 11:54:17.73	264.48	25.42	-46.0	-47.4	19.7	0.00e+00	0	42	0	596639744	63	4263
2026-01-29 11:54:18.70	264.77	25.44	-46.1	-47.5	19.5	0.00e+00	0	42	0	598736896	63	4306
2026-01-29 11:54:19.67	265.05	25.47	-46.4	-48.0	19.1	0.00e+00	0	42	0	599785472	63	4552
2026-01-29 11:54:20.64	265.34	25.49	-46.6	-48.1	19.0	0.00e+00	0	42	0	601882624	63	4637
2026-01-29 11:54:21.61	265.62	25.51	-46.6	-48.2	18.8	0.00e+00	0	42	0	603979776	64	4418
2026-01-29 11:54:22.58	265.91	25.53	-46.6	-48.2	18.8	0.00e+00	0	42	0	606076928	64	4407
2026-01-29 11:54:23.55	266.20	25.56	-46.5	-48.0	18.9	0.00e+00	0	42	0	607125504	64	4336
2026-01-29 11:54:24.52	266.48	25.58	-46.3	-47.8	19.1	0.00e+00	0	42	0	609222656	64	4219
2026-01-29 11:54:25.49	266.77	25.59	-46.1	-47.6	19.4	0.00e+00	0	42	0	611319808	64	4121
2026-01-29 11:54:26.46	267.06	25.61	-46.2	-47.6	19.4	0.00e+00	0	42	0	613416960	64	4143
2026-01-29 11:54:27.43	267.35	25.63	-46.1	-47.5	19.6	0.00e+00	0	42	0	614465536	63	4339
2026-01-29 11:54:28.40	267.63	25.65	-45.6	-46.9	20.1	0.00e+00	0	42	0	616562688	63	4027
2026-01-29 11:54:29.37	267.92	25.66	-45.1	-46.3	20.7	0.00e+00	0	42	0	618659840	62	3969
2026-01-29 11:54:30.34	268.21	25.68	-44.7	-45.8	21.0	0.00e+00	0	42	0	619708416	61	3989
2026-01-29 11:54:31.31	268.50	25.69	-44.6	-45.7	21.1	0.00e+00	0	42	0	621805568	61	3947
2026-01-29 11:54:32.28	268.79	25.71	-45.0	-46.2	20.7	0.00e+00	0	42	0	623902720	61	4164
2026-01-29 11:54:33.25	269.08	25.72	-45.4	-46.7	20.3	0.00e+00	0	42	0	625999872	61	4423
2026-01-29 11:54:34.22	269.37	25.73	-45.9	-47.3	19.7	0.00e+00	0	42	0	627048448	62	4489
2026-01-29 11:54:35.19	269.66	25.75	-46.1	-47.6	19.5	0.00e+00	0	42	0	629145600	62	4603
2026-01-29 11:54:36.16	269.95	25.76	-45.7	-47.0	20.0	0.00e+00	0	42	0	631242752	62	4335
2026-01-29 11:54:37.13	270.24	25.77	-45.2	-46.4	20.6	0.00e+00	0	42	0	633339904	62	4049
2026-01-29 11:54:38.10	270.53	25.78	-45.0	-46.2	20.7	0.00e+00	0	42	0	634388480	61	4162
2026-01-29 11:54:39.07	270.82	25.79	-45.0	-46.2	20.7	0.00e+00	0	42	0	636485632	61	4171
2026-01-29 11:54:40.04	271.12	25.79	-45.3	-46.6	20.4	0.00e+00	0	42	0	638582784	61	4377
2026-01-29 11:54:41.01	271.41	25.80	-45.7	-47.1	20.0	0.00e+00	0	42	0	640679936	61	4611
2026-01-29 11:54:41.98	271.70	25.81	-45.7	-47.0	20.0	0.00e+00	0	42	0	641728512	62	4332
2026-01-29 11:54:42.95	271.99	25.81	-45.7	-47.1	19.9	0.00e+00	0	42	0	643825664	62	4348
2026-01-29 11:54:43.92	272.28	25.82	-45.5	-46.7	20.3	0.00e+00	0	42	0	645922816	62	4193
2026-01-29 11:54:44.89	272.57	25.82	-45.4	-46.6	20.4	0.00e+00	0	42	0	648019968	62	4139
2026-01-29 11:54:45.86	272.86	25.82	-45.5	-46.8	20.3	0.00e+00	0	42	0	649068544	62	4219
2026-01-29 11:54:46.83	273.16	25.83	-45.5	-46.8	20.2	0.00e+00	0	42	0	651165696	62	4234
2026-01-29 11:54:47.81	273.45	25.83	-45.4	-46.8	20.2	0.00e+00	0	42	0	653262848	62	4194
2026-01-29 11:54:48.77	273.74	25.83	-45.1	-46.3	20.7	0.00e+00	0	42	0	654311424	62	3977
2026-01-29 11:54:49.75	274.03	25.83	-44.5	-45.6	21.2	0.00e+00	0	42	0	656408576	60	4122
2026-01-29 11:54:50.72	274.33	25.83	-44.3	-45.4	21.7	0.00e+00	0	42	0	658505728	59	4260
2026-01-29 11:54:51.69	274.62	25.83	-44.5	-45.6	21.5	0.00e+00	0	42	0	660602880	59	4374
2026-01-29 11:54:52.66	274.91	25.83	-44.5	-45.7	21.5	0.00e+00	0	42	0	661651456	59	4398
2026-01-29 11:54:53.63	275.20	25.82	-44.5	-45.7	21.2	0.00e+00	0	42	0	663748608	60	4176
2026-01-29 11:54:54.60	275.49	25.82	-44.8	-46.0	21.0	0.00e+00	0	42	0	665845760	60	4322
2026-01-29 11:54:55.57	275.78	25.81	-44.9	-46.1	20.9	0.00e+00	0	42	0	667942912	60	4355
2026-01-29 11:54:56.54	276.08	25.81	-44.7	-45.9	21.0	0.00e+00	0	42	0	668991488	60	4244
2026-01-29 11:54:57.51	276.37	25.80	-44.6	-45.7	21.2	0.00e+00	0	42	0	671088640	60	4188
2026-01-29 11:54:58.48	276.66	25.80	-44.5	-45.6	21.3	0.00e+00	0	42	0	673185792	60	4125
2026-01-29 11:54:59.45	276.95	25.79	-44.6	-45.7	21.2	0.00e+00	0	42	0	675282944	60	4181
2026-01-29 11:55:00.42	277.24	25.78	-44.8	-45.9	21.0	0.00e+00	0	42	0	676331520	60	4282
2026-01-29 11:55:01.40	277.53	25.77	-45.3	-46.5	20.4	0.00e+00	0	42	0	678428672	61	4337
2026-01-29 11:55:02.36	277.82	25.76	-45.4	-46.7	20.3	0.00e+00	0	42	0	680525824	61	4431
2026-01-29 11:55:03.33	278.11	25.75	-45.5	-46.8	20.3	0.00e+00	0	42	0	682622976	61	4448
2026-01-29 11:55:04.30	278.40	25.74	-45.5	-46.8	20.2	0.00e+00	0	42	0	683671552	61	4493
2026-01-29 11:55:05.27	278.69	25.73	-45.8	-47.1	19.9	0.00e+00	0	42	0	685768704	62	4391
2026-01-29 11:55:06.25	278.98	25.71	-45.9	-47.3	19.8	0.00e+00	0	42	0	687865856	62	4493
2026-01-29 11:55:07.22	279.27	25.70	-46.2	-47.7	19.5	0.00e+00	0	42	0	688914432	63	4392
2026-01-29 11:55:08.18	279.56	25.69	-46.2	-47.7	19.5	0.00e+00	0	42	0	691011584	63	4416
2026-01-29 11:55:09.16	279.85	25.67	-46.0	-47.4	19.8	0.00e+00	0	42	0	693108736	63	4260
2026-01-29 11:55:10.12	280.14	25.66	-46.0	-47.4	19.7	0.00e+00	0	42	0	695205888	63	4287
2026-01-29 11:55:11.09	280.43	25.64	-45.7	-47.0	20.0	0.00e+00	0	42	0	696254464	63	4095
2026-01-29 11:55:12.06	280.71	25.62	-45.6	-46.9	20.2	0.00e+00	0	42	0	698351616	63	4044
2026-01-29 11:55:13.03	281.00	25.60	-45.4	-46.7	20.4	0.00e+00	0	42	0	700448768	62	4153
2026-01-29 11:55:14.00	281.29	25.58	-45.0	-46.2	20.8	0.00e+00	0	42	0	702545920	62	3956
2026-01-29 11:55:14.97	281.58	25.57	-44.6	-45.7	21.2	0.00e+00	0	42	0	703594496	61	3953
2026-01-29 11:55:15.94	281.86	25.54	-44.3	-45.4	21.5	0.00e+00	0	42	0	705691648	60	4013
2026-01-29 11:55:16.91	282.15	25.52	-44.4	-45.5	21.4	0.00e+00	0	42	0	707788800	60	4075
2026-01-29 11:55:17.88	282.43	25.50	-44.5	-45.6	21.3	0.00e+00	0	42	0	709885952	60	4143
2026-01-29 11:55:18.85	282.72	25.48	-44.5	-45.7	21.3	0.00e+00	0	42	0	710934528	60	4146
2026-01-29 11:55:19.81	283.00	25.46	-44.3	-45.4	21.5	0.00e+00	0	42	0	713031680	60	4023
2026-01-29 11:55:20.78	283.29	25.43	-44.2	-45.3	21.6	0.00e+00	0	42	0	715128832	60	3971
2026-01-29 11:55:21.76	283.57	25.41	-44.1	-45.1	21.8	0.00e+00	0	42	0	716177408	60	3906
2026-01-29 11:55:22.73	283.86	25.38	-44.6	-45.8	21.5	0.00e+00	0	42	0	718274560	59	4445
2026-01-29 11:55:23.70	284.14	25.36	-44.7	-45.8	21.4	0.00e+00	0	42	0	720371712	59	4465
2026-01-29 11:55:24.67	284.42	25.33	-44.3	-45.4	21.6	0.00e+00	0	42	0	722468864	60	4009
2026-01-29 11:55:25.64	284.71	25.30	-44.2	-45.2	21.7	0.00e+00	0	42	0	723517440	60	3953
2026-01-29 11:55:26.61	284.99	25.27	-44.3	-45.4	21.9	0.00e+00	0	42	0	725614592	59	4264
2026-01-29 11:55:27.59	285.27	25.25	-44.2	-45.2	22.0	0.00e+00	0	42	0	727711744	59	4182
2026-01-29 11:55:28.55	285.55	25.22	-44.0	-45.1	22.1	0.00e+00	0	42	0	729808896	59	4116
2026-01-29 11:55:29.52	285.83	25.19	-43.8	-44.9	22.3	0.00e+00	0	42	0	730857472	59	4019
2026-01-29 11:55:30.49	286.11	25.16	-44.0	-45.1	22.1	0.00e+00	0	42	0	732954624	59	4134
2026-01-29 11:55:31.46	286.39	25.12	-44.0	-45.1	22.1	0.00e+00	0	42	0	735051776	59	4130
2026-01-29 11:55:32.43	286.67	25.09	-44.4	-45.5	21.7	0.00e+00	0	42	0	737148928	59	4327
2026-01-29 11:55:33.40	286.95	25.06	-44.5	-45.7	21.6	0.00e+00	0	42	0	738197504	59	4396
2026-01-29 11:55:34.37	287.22	25.03	-44.6	-45.7	21.6	0.00e+00	0	42	0	740294656	59	4417
2026-01-29 11:55:35.34	287.50	24.99	-44.6	-45.7	21.3	0.00e+00	0	42	0	742391808	60	4175
2026-01-29 11:55:36.31	287.78	24.96	-44.5	-45.6	21.3	0.00e+00	0	42	0	744488960	60	4125
2026-01-29 11:55:37.28	288.05	24.92	-44.4	-45.5	21.5	0.00e+00	0	42	0	745537536	60	4093
2026-01-29 11:55:38.25	288.33	24.88	-44.2	-45.3	21.7	0.00e+00	0	42	0	747634688	60	3975
2026-01-29 11:55:39.22	288.60	24.85	-44.2	-45.3	21.7	0.00e+00	0	42	0	749731840	60	3989
2026-01-29 11:55:40.19	288.88	24.81	-44.1	-45.2	21.7	0.00e+00	0	42	0	750780416	60	3951
2026-01-29 11:55:41.16	289.15	24.77	-44.1	-45.2	21.8	0.00e+00	0	42	0	752877568	60	3915
2026-01-29 11:55:42.13	289.42	24.73	-44.2	-45.3	21.9	0.00e+00	0	42	0	754974720	59	4227
2026-01-29 11:55:43.10	289.69	24.70	-44.0	-45.0	22.2	0.00e+00	0	42	0	757071872	59	4096
2026-01-29 11:55:44.07	289.97	24.66	-43.8	-44.8	22.4	0.00e+00	0	42	0	758120448	59	3994
2026-01-29 11:55:45.04	290.24	24.62	-43.8	-44.8	22.4	0.00e+00	0	42	0	760217600	59	3977
2026-01-29 11:55:46.01	290.51	24.57	-43.7	-44.8	22.4	0.00e+00	0	42	0	762314752	59	3959
2026-01-29 11:55:46.98	290.78	24.53	-43.7	-44.7	22.5	0.00e+00	0	42	0	763363328	59	3956
2026-01-29 11:55:47.95	291.04	24.49	-43.7	-44.8	22.4	0.00e+00	0	42	0	765460480	59	3970
2026-01-29 11:55:48.92	291.31	24.45	-43.5	-44.6	22.6	0.00e+00	0	42	0	767557632	59	3876
2026-01-29 11:55:49.89	291.58	24.40	-43.7	-44.7	22.5	0.00e+00	0	42	0	769654784	59	3936
2026-01-29 11:55:50.86	291.85	24.36	-43.5	-44.5	22.7	0.00e+00	0	42	0	770703360	58	4063
2026-01-29 11:55:51.83	292.11	24.32	-43.4	-44.4	22.7	0.00e+00	0	42	0	772800512	58	4014
2026-01-29 11:55:52.81	292.38	24.27	-42.9	-43.9	23.0	0.00e+00	0	42	0	774897664	57	4016
2026-01-29 11:55:53.78	292.64	24.23	-43.1	-44.1	22.9	0.00e+00	0	42	0	776994816	57	4122
2026-01-29 11:55:54.76	292.91	24.18	-43.2	-44.1	23.0	0.00e+00	0	42	0	778043392	57	4137
2026-01-29 11:55:55.72	293.17	24.13	-43.3	-44.3	22.8	0.00e+00	0	42	0	780140544	57	4219
2026-01-29 11:55:56.70	293.43	24.09	-43.3	-44.3	22.8	0.00e+00	0	42	0	782237696	57	4242
2026-01-29 11:55:57.66	293.69	24.04	-43.2	-44.2	22.8	0.00e+00	0	42	0	784334848	57	4186
2026-01-29 11:55:58.63	293.95	23.99	-43.0	-44.0	23.1	0.00e+00	0	42	0	785383424	57	4067
2026-01-29 11:55:59.60	294.21	23.94	-42.8	-43.7	23.3	0.00e+00	0	42	0	787480576	57	3944
2026-01-29 11:56:00.57	294.47	23.89	-42.7	-43.6	23.4	0.00e+00	0	42	0	789577728	57	3888
2026-01-29 11:56:01.54	294.73	23.84	-42.7	-43.6	23.4	0.00e+00	0	42	0	791674880	57	3882
2026-01-29 11:56:02.51	294.98	23.79	-43.0	-44.0	23.1	0.00e+00	0	42	0	792723456	57	4057
2026-01-29 11:56:03.48	295.24	23.74	-43.3	-44.3	22.8	0.00e+00	0	42	0	794820608	57	4207
2026-01-29 11:56:04.45	295.50	23.69	-43.4	-44.4	22.7	0.00e+00	0	42	0	796917760	57	4263
2026-01-29 11:56:05.42	295.75	23.64	-43.3	-44.3	22.8	0.00e+00	0	42	0	799014912	57	4216
2026-01-29 11:56:06.39	296.00	23.59	-42.9	-43.8	23.1	0.00e+00	0	42	0	800063488	57	3994
2026-01-29 11:56:07.35	296.25	23.54	-42.7	-43.7	23.2	0.00e+00	0	42	0	802160640	57	3930
2026-01-29 11:56:08.32	296.51	23.48	-42.7	-43.6	23.3	0.00e+00	0	42	0	804257792	57	3896
2026-01-29 11:56:09.29	296.76	23.43	-42.7	-43.7	23.3	0.00e+00	0	42	0	806354944	57	3923
2026-01-29 11:56:10.27	297.01	23.38	-42.9	-43.9	23.1	0.00e+00	0	42	0	807403520	57	4013
2026-01-29 11:56:11.24	297.26	23.32	-42.9	-43.8	23.2	0.00e+00	0	42	0	809500672	57	3979
2026-01-29 11:56:12.21	297.51	23.27	-43.4	-44.4	22.6	0.00e+00	0	42	0	811597824	57	4267
2026-01-29 11:56:13.18	297.76	23.21	-43.4	-44.4	22.6	0.00e+00	0	42	0	812646400	57	4282
2026-01-29 11:56:14.14	298.00	23.16	-43.6	-44.7	22.5	0.00e+00	0	42	0	814743552	57	4398
2026-01-29 11:56:15.12	298.25	23.10	-43.5	-44.6	22.5	0.00e+00	0	42	0	816840704	58	4105
2026-01-29 11:56:16.08	298.49	23.04	-43.4	-44.4	22.7	0.00e+00	0	42	0	818937856	58	4035
2026-01-29 11:56:17.06	298.74	22.99	-43.3	-44.3	22.8	0.00e+00	0	42	0	819986432	58	3985
2026-01-29 11:56:18.03	298.98	22.93	-42.9	-43.8	23.1	0.00e+00	0	42	0	822083584	57	4000
2026-01-29 11:56:19.00	299.23	22.87	-43.1	-44.1	23.0	0.00e+00	0	42	0	824180736	57	4113
2026-01-29 11:56:19.97	299.47	22.81	-43.4	-44.3	22.7	0.00e+00	0	42	0	825229312	57	4242
2026-01-29 11:56:20.94	299.71	22.75	-43.5	-44.5	22.6	0.00e+00	0	42	0	827326464	57	4326
2026-01-29 11:56:21.91	299.95	22.70	-43.6	-44.6	22.5	0.00e+00	0	42	0	829423616	57	4379
2026-01-29 11:56:22.88	300.19	22.64	-43.8	-44.8	22.4	0.00e+00	0	42	0	831520768	58	4215
2026-01-29 11:56:23.84	300.42	22.58	-43.9	-44.9	22.2	0.00e+00	0	42	0	832569344	58	4290
2026-01-29 11:56:24.81	300.66	22.52	-43.9	-44.9	22.2	0.00e+00	0	42	0	834666496	58	4274
2026-01-29 11:56:25.78	300.90	22.46	-43.7	-44.7	22.3	0.00e+00	0	42	0	836763648	58	4192
2026-01-29 11:56:26.75	301.13	22.40	-43.8	-44.9	22.2	0.00e+00	0	42	0	838860800	58	4246
2026-01-29 11:56:27.72	301.37	22.34	-43.9	-45.0	22.2	0.00e+00	0	42	0	839909376	58	4293
2026-01-29 11:56:28.69	301.60	22.28	-44.0	-45.0	22.1	0.00e+00	0	42	0	842006528	58	4331
2026-01-29 11:56:29.66	301.83	22.21	-43.8	-44.9	22.2	0.00e+00	0	42	0	844103680	58	4265
2026-01-29 11:56:30.63	302.07	22.15	-43.8	-44.8	22.3	0.00e+00	0	41	0	846200832	58	4240
2026-01-29 11:56:31.60	302.30	22.09	-43.7	-44.8	22.3	0.00e+00	0	42	0	847249408	58	4210
2026-01-29 11:56:32.57	302.53	22.03	-43.9	-45.0	22.1	0.00e+00	0	42	0	849346560	58	4303
2026-01-29 11:56:33.54	302.76	21.96	-43.9	-45.0	22.1	0.00e+00	0	42	0	851443712	58	4333
2026-01-29 11:56:34.51	302.98	21.90	-44.2	-45.3	21.8	0.00e+00	0	42	0	853540864	59	4233
2026-01-29 11:56:35.48	303.21	21.84	-44.4	-45.5	21.7	0.00e+00	0	42	0	854589440	59	4320
2026-01-29 11:56:36.45	303.44	21.77	-44.5	-45.7	21.5	0.00e+00	0	42	0	856686592	59	4415
2026-01-29 11:56:37.42	303.66	21.71	-44.5	-45.6	21.6	0.00e+00	0	41	0	858783744	59	4384
2026-01-29 11:56:38.40	303.89	21.65	-44.3	-45.4	21.8	0.00e+00	0	42	0	860880896	59	4255
2026-01-29 11:56:39.37	304.11	21.58	-44.0	-45.1	22.1	0.00e+00	0	41	0	861929472	59	4102
2026-01-29 11:56:40.34	304.34	21.52	-43.8	-44.9	22.2	0.00e+00	0	42	0	864026624	59	4012
2026-01-29 11:56:41.32	304.56	21.45	-43.6	-44.6	22.4	0.00e+00	0	42	0	866123776	59	3907
2026-01-29 11:56:42.29	304.78	21.39	-43.5	-44.5	22.5	0.00e+00	0	42	0	868220928	59	3837
2026-01-29 11:56:43.26	305.00	21.32	-43.5	-44.5	22.5	0.00e+00	0	42	0	869269504	58	4096
2026-01-29 11:56:44.23	305.22	21.25	-43.8	-44.9	22.2	0.00e+00	0	42	0	871366656	58	4246
2026-01-29 11:56:45.20	305.44	21.19	-44.3	-45.4	21.7	0.00e+00	0	42	0	873463808	59	4251
2026-01-29 11:56:46.17	305.66	21.12	-44.6	-45.8	21.4	0.00e+00	0	42	0	874512384	59	4468
2026-01-29 11:56:47.14	305.87	21.06	-44.7	-45.9	21.0	0.00e+00	0	42	0	876609536	60	4276
2026-01-29 11:56:48.11	306.09	20.99	-44.9	-46.1	20.8	0.00e+00	0	42	0	878706688	60	4374
2026-01-29 11:56:49.08	306.30	20.92	-45.0	-46.3	20.7	0.00e+00	0	42	0	880803840	60	4444
2026-01-29 11:56:50.05	306.52	20.85	-44.6	-45.8	21.1	0.00e+00	0	42	0	881852416	60	4205
2026-01-29 11:56:51.02	306.73	20.79	-44.2	-45.3	21.5	0.00e+00	0	42	0	883949568	60	3971
2026-01-29 11:56:51.99	306.94	20.72	-44.1	-45.2	21.8	0.00e+00	0	42	0	886046720	59	4193
2026-01-29 11:56:52.96	307.15	20.65	-43.7	-44.7	22.2	0.00e+00	0	42	0	887095296	59	3955
2026-01-29 11:56:53.93	307.36	20.58	-43.4	-44.4	22.5	0.00e+00	0	42	0	889192448	58	4050
2026-01-29 11:56:54.90	307.57	20.52	-43.4	-44.4	22.5	0.00e+00	0	42	0	891289600	58	4032
2026-01-29 11:56:55.87	307.78	20.45	-43.5	-44.6	22.4	0.00e+00	0	42	0	893386752	58	4111
2026-01-29 11:56:56.84	307.99	20.38	-43.9	-45.0	22.0	0.00e+00	0	42	0	894435328	58	4322
2026-01-29 11:56:57.81	308.19	20.31	-44.3	-45.5	21.7	0.00e+00	0	42	0	896532480	59	4298
2026-01-29 11:56:58.77	308.40	20.24	-44.6	-45.7	21.4	0.00e+00	0	42	0	898629632	59	4440
2026-01-29 11:56:59.75	308.60	20.17	-44.6	-45.8	21.1	0.00e+00	0	42	0	900726784	60	4199
2026-01-29 11:57:00.72	308.81	20.10	-44.6	-45.8	21.1	0.00e+00	0	42	0	901775360	60	4232
2026-01-29 11:57:01.69	309.01	20.03	-45.0	-46.2	20.7	0.00e+00	0	42	0	903872512	60	4417
2026-01-29 11:57:02.66	309.21	19.96	-44.6	-45.8	21.1	0.00e+00	0	42	0	905969664	60	4219
2026-01-29 11:57:03.64	309.41	19.89	-44.8	-46.0	20.9	0.00e+00	0	42	0	908066816	60	4309
2026-01-29 11:57:04.60	309.61	19.83	-44.7	-45.9	21.0	0.00e+00	0	42	0	909115392	60	4269
2026-01-29 11:57:05.57	309.81	19.76	-44.5	-45.7	21.2	0.00e+00	0	42	0	911212544	60	4155
2026-01-29 11:57:06.54	310.01	19.68	-44.8	-46.1	20.8	0.00e+00	0	42	0	913309696	60	4345
2026-01-29 11:57:07.51	310.21	19.61	-44.6	-45.8	21.1	0.00e+00	0	42	0	915406848	60	4217
2026-01-29 11:57:08.48	310.40	19.54	-44.6	-45.8	21.1	0.00e+00	0	42	0	916455424	60	4204
2026-01-29 11:57:09.46	310.60	19.47	-44.5	-45.6	21.2	0.00e+00	0	42	0	918552576	60	4139
2026-01-29 11:57:10.44	310.80	19.40	-44.4	-45.6	21.2	0.00e+00	0	42	0	920649728	60	4099
2026-01-29 11:57:11.41	310.99	19.33	-44.6	-45.7	21.1	0.00e+00	0	42	0	922746880	60	4190
2026-01-29 11:57:12.38	311.19	19.26	-44.8	-46.1	20.8	0.00e+00	0	42	0	923795456	60	4346
2026-01-29 11:57:13.35	311.38	19.19	-44.8	-46.0	20.8	0.00e+00	0	42	0	925892608	60	4334
2026-01-29 11:57:14.32	311.57	19.12	-45.0	-46.3	20.6	0.00e+00	0	42	0	927989760	60	4474
2026-01-29 11:57:15.29	311.76	19.05	-45.3	-46.6	20.3	0.00e+00	0	42	0	930086912	61	4391
2026-01-29 11:57:16.26	311.95	18.98	-45.3	-46.7	20.3	0.00e+00	0	42	0	931135488	61	4394
2026-01-29 11:57:17.23	312.14	18.90	-45.0	-46.3	20.6	0.00e+00	0	42	0	933232640	61	4194
2026-01-29 11:57:18.19	312.32	18.83	-44.5	-45.7	21.2	0.00e+00	0	42	0	935329792	61	3925
2026-01-29 11:57:19.17	312.51	18.76	-44.3	-45.4	21.4	0.00e+00	0	42	0	936378368	60	4031
2026-01-29 11:57:20.14	312.70	18.69	-44.0	-45.1	21.9	0.00e+00	0	42	0	938475520	59	4118
2026-01-29 11:57:21.11	312.88	18.62	-43.9	-45.0	22.0	0.00e+00	0	42	0	940572672	59	4086
2026-01-29 11:57:22.08	313.07	18.55	-43.9	-45.0	22.0	0.00e+00	0	42	0	942669824	59	4061
2026-01-29 11:57:23.05	313.25	18.47	-44.0	-45.1	21.9	0.00e+00	0	42	0	943718400	59	4129
2026-01-29 11:57:24.02	313.43	18.40	-44.7	-45.9	21.2	0.00e+00	0	42	0	945815552	59	4528
2026-01-29 11:57:24.99	313.62	18.33	-44.6	-45.8	21.0	0.00e+00	0	42	0	947912704	60	4216
2026-01-29 11:57:25.97	313.80	18.26	-44.8	-46.1	20.7	0.00e+00	0	42	0	948961280	60	4367
2026-01-29 11:57:26.94	313.98	18.19	-45.1	-46.4	20.5	0.00e+00	0	42	0	951058432	60	4515
2026-01-29 11:57:27.92	314.16	18.11	-44.7	-46.0	20.9	0.00e+00	0	42	0	953155584	60	4292
2026-01-29 11:57:28.89	314.34	18.04	-44.7	-45.9	20.9	0.00e+00	0	42	0	955252736	60	4276
2026-01-29 11:57:29.86	314.52	17.97	-44.4	-45.5	21.2	0.00e+00	0	42	0	956301312	60	4088
2026-01-29 11:57:30.84	314.70	17.90	-44.1	-45.2	21.4	0.00e+00	0	42	0	958398464	60	3957
2026-01-29 11:57:31.82	314.87	17.82	-44.4	-45.5	21.2	0.00e+00	0	42	0	960495616	60	4078
2026-01-29 11:57:32.82	315.05	17.75	-44.8	-46.0	20.8	0.00e+00	0	42	0	962592768	60	4319
2026-01-29 11:57:33.81	315.23	17.67	-45.3	-46.6	20.3	0.00e+00	0	42	0	964689920	61	4350
2026-01-29 11:57:34.81	315.41	17.60	-45.7	-47.1	19.8	0.00e+00	0	42	0	965738496	62	4379
2026-01-29 11:57:35.80	315.59	17.53	-45.8	-47.3	19.6	0.00e+00	0	42	0	967835648	62	4465
2026-01-29 11:57:36.80	315.76	17.45	-45.9	-47.3	19.6	0.00e+00	0	42	0	969932800	62	4482
2026-01-29 11:57:37.80	315.94	17.38	-45.5	-46.9	20.0	0.00e+00	0	42	0	972029952	62	4270
2026-01-29 11:57:38.80	316.12	17.30	-45.2	-46.5	20.4	0.00e+00	0	42	0	974127104	62	4067
2026-01-29 11:57:39.80	316.29	17.23	-44.6	-45.8	21.0	0.00e+00	0	42	0	975175680	61	3986
2026-01-29 11:57:40.81	316.47	17.15	-44.5	-45.7	21.0	0.00e+00	0	42	0	977272832	61	3924
2026-01-29 11:57:41.81	316.64	17.08	-44.5	-45.7	21.0	0.00e+00	0	42	0	979369984	60	4175
2026-01-29 11:57:42.81	316.81	17.00	-44.3	-45.4	21.3	0.00e+00	0	42	0	981467136	60	4048
2026-01-29 11:57:43.81	316.98	16.93	-44.6	-45.8	20.9	0.00e+00	0	42	0	983564288	60	4210
2026-01-29 11:57:44.80	317.15	16.85	-44.8	-46.0	20.8	0.00e+00	0	42	0	984612864	60	4305
2026-01-29 11:57:45.80	317.32	16.78	-44.7	-45.9	20.8	0.00e+00	0	42	0	986710016	60	4270
2026-01-29 11:57:46.79	317.49	16.70	-44.8	-46.1	20.7	0.00e+00	0	42	0	988807168	60	4341
2026-01-29 11:57:47.79	317.66	16.63	-44.6	-45.8	20.9	0.00e+00	0	42	0	990904320	60	4205
2026-01-29 11:57:48.79	317.82	16.55	-44.4	-45.6	21.1	0.00e+00	0	42	0	991952896	60	4100
2026-01-29 11:57:49.79	317.99	16.48	-44.3	-45.5	21.5	0.00e+00	0	42	0	994050048	59	4302
2026-01-29 11:57:50.79	318.16	16.40	-44.3	-45.4	21.5	0.00e+00	0	42	0	996147200	59	4278
2026-01-29 11:57:51.79	318.32	16.33	-44.5	-45.7	21.4	0.00e+00	0	42	0	998244352	59	4406
2026-01-29 11:57:52.78	318.48	16.25	-44.4	-45.6	20.9	0.00e+00	0	42	0	1000341504	60	4104
2026-01-29 11:57:53.78	318.65	16.18	-44.4	-45.6	21.1	0.00e+00	0	42	0	1001390080	60	4110
2026-01-29 11:57:54.77	318.81	16.10	-44.8	-46.0	20.7	0.00e+00	0	42	0	1003487232	60	4315
2026-01-29 11:57:55.76	318.97	16.03	-45.0	-46.3	20.4	0.00e+00	0	42	0	1005584384	60	4485
2026-01-29 11:57:56.76	319.13	15.96	-45.2	-46.5	20.2	0.00e+00	0	42	0	1007681536	61	4340
2026-01-29 11:57:57.76	319.29	15.88	-45.3	-46.7	20.1	0.00e+00	0	42	0	1008730112	61	4397
2026-01-29 11:57:58.75	319.45	15.81	-45.0	-46.3	20.4	0.00e+00	0	42	0	1010827264	61	4213
2026-01-29 11:57:59.75	319.60	15.73	-44.8	-46.1	20.7	0.00e+00	0	42	0	1012924416	61	4109
2026-01-29 11:58:00.76	319.76	15.66	-44.5	-45.7	20.9	0.00e+00	0	42	0	1015021568	61	3951
2026-01-29 11:58:01.77	319.92	15.58	-44.3	-45.5	21.1	0.00e+00	0	42	0	1017118720	60	4086
2026-01-29 11:58:02.77	320.08	15.51	-44.4	-45.6	21.1	0.00e+00	0	42	0	1018167296	60	4102
2026-01-29 11:58:03.78	320.24	15.43	-44.4	-45.6	21.0	0.00e+00	0	42	0	1020264448	60	4101
2026-01-29 11:58:04.79	320.39	15.36	-44.5	-45.7	20.9	0.00e+00	0	42	0	1022361600	60	4187
2026-01-29 11:58:05.79	320.55	15.28	-44.7	-45.9	20.7	0.00e+00	0	42	0	1024458752	60	4279
2026-01-29 11:58:06.80	320.70	15.21	-44.8	-46.1	20.5	0.00e+00	0	42	0	1026555904	60	4368
2026-01-29 11:58:07.81	320.85	15.13	-44.8	-46.0	20.6	0.00e+00	0	42	0	1027604480	60	4319
2026-01-29 11:58:08.81	321.01	15.06	-44.6	-45.9	20.7	0.00e+00	0	42	0	1029701632	60	4249
2026-01-29 11:58:09.82	321.16	14.98	-44.7	-45.9	20.7	0.00e+00	0	42	0	1031798784	60	4259
2026-01-29 11:58:10.83	321.31	14.91	-44.3	-45.5	21.0	0.00e+00	0	42	0	1033895936	60	4086
2026-01-29 11:58:11.84	321.46	14.83	-44.2	-45.4	21.2	0.00e+00	0	42	0	1035993088	60	4013
2026-01-29 11:58:12.84	321.61	14.76	-44.1	-45.2	21.3	0.00e+00	0	42	0	1037041664	60	3946
2026-01-29 11:58:13.85	321.76	14.68	-44.1	-45.3	21.3	0.00e+00	0	42	0	1039138816	60	3974
2026-01-29 11:58:14.86	321.91	14.61	-44.5	-45.7	20.9	0.00e+00	0	42	0	1041235968	60	4171
2026-01-29 11:58:15.87	322.06	14.53	-44.7	-45.9	20.7	0.00e+00	0	42	0	1043333120	60	4272
2026-01-29 11:58:16.88	322.21	14.46	-45.3	-46.6	20.0	0.00e+00	0	41	0	1045430272	61	4382
2026-01-29 11:58:17.88	322.35	14.38	-45.6	-47.0	19.7	0.00e+00	0	41	0	1046478848	61	4579
2026-01-29 11:58:18.89	322.50	14.31	-45.7	-47.1	19.6	0.00e+00	0	42	0	1048576000	62	4360
2026-01-29 11:58:19.89	322.64	14.24	-45.9	-47.4	19.4	0.00e+00	0	42	0	1050673152	62	4520
2026-01-29 11:58:20.90	322.78	14.16	-45.8	-47.3	19.3	0.00e+00	0	42	0	1052770304	62	4487
2026-01-29 11:58:21.91	322.93	14.09	-45.7	-47.1	19.6	0.00e+00	0	42	0	1054867456	62	4375
2026-01-29 11:58:22.92	323.07	14.01	-45.4	-46.8	19.8	0.00e+00	0	42	0	1055916032	62	4239
2026-01-29 11:58:23.92	323.21	13.94	-45.3	-46.7	20.0	0.00e+00	0	42	0	1058013184	62	4158
2026-01-29 11:58:24.92	323.35	13.86	-45.3	-46.7	20.0	0.00e+00	0	42	0	1060110336	62	4161
2026-01-29 11:58:25.94	323.50	13.79	-45.2	-46.6	20.0	0.00e+00	0	42	0	1062207488	62	4126
2026-01-29 11:58:26.94	323.64	13.72	-44.9	-46.2	20.3	0.00e+00	0	42	0	1064304640	61	4159
2026-01-29 11:58:27.95	323.78	13.64	-44.9	-46.2	20.4	0.00e+00	0	42	0	1065353216	61	4179
2026-01-29 11:58:28.95	323.91	13.57	-44.9	-46.2	20.4	0.00e+00	0	42	0	1067450368	61	4181
2026-01-29 11:58:29.96	324.05	13.50	-44.9	-46.2	20.3	0.00e+00	0	42	0	1069547520	61	4174
2026-01-29 11:58:30.97	324.19	13.42	-44.9	-46.3	20.3	0.00e+00	0	42	0	1071644672	61	4197
2026-01-29 11:58:31.97	324.33	13.35	-44.9	-46.1	20.4	0.00e+00	0	42	0	1073741824	61	4140
2026-01-29 11:58:32.98	324.46	13.28	-44.5	-45.7	20.7	0.00e+00	0	42	0	1074790400	61	3958
2026-01-29 11:58:33.99	324.60	13.20	-44.4	-45.6	20.8	0.00e+00	0	42	0	1076887552	60	4138
2026-01-29 11:58:35.00	324.73	13.13	-44.4	-45.6	20.8	0.00e+00	0	42	0	1078984704	60	4132
2026-01-29 11:58:36.00	324.87	13.06	-44.2	-45.4	21.1	0.00e+00	0	42	0	1081081856	60	4007
2026-01-29 11:58:37.01	325.00	12.98	-44.1	-45.3	21.1	0.00e+00	0	42	0	1083179008	60	3969
2026-01-29 11:58:38.02	325.13	12.91	-44.4	-45.6	21.2	0.00e+00	0	42	0	1084227584	59	4362
2026-01-29 11:58:39.03	325.27	12.84	-44.5	-45.6	21.1	0.00e+00	0	42	0	1086324736	59	4391
2026-01-29 11:58:40.04	325.40	12.76	-44.5	-45.7	21.0	0.00e+00	0	42	0	1088421888	59	4417
2026-01-29 11:58:41.05	325.53	12.69	-44.6	-45.8	21.0	0.00e+00	0	42	0	1090519040	59	4457
2026-01-29 11:58:42.05	325.66	12.62	-44.4	-45.6	20.9	0.00e+00	0	42	0	1092616192	60	4124
2026-01-29 11:58:43.06	325.79	12.54	-44.7	-45.9	20.6	0.00e+00	0	42	0	1093664768	60	4271
2026-01-29 11:58:44.06	325.92	12.47	-44.7	-46.0	20.5	0.00e+00	0	42	0	1095761920	60	4327
2026-01-29 11:58:45.06	326.05	12.40	-45.0	-46.3	20.2	0.00e+00	0	42	0	1097859072	60	4468
2026-01-29 11:58:46.07	326.17	12.33	-45.0	-46.3	20.1	0.00e+00	0	42	0	1099956224	60	4480
2026-01-29 11:58:47.08	326.30	12.26	-45.0	-46.3	20.2	0.00e+00	0	42	0	1102053376	60	4476
2026-01-29 11:58:48.09	326.43	12.18	-45.1	-46.4	20.1	0.00e+00	0	42	0	1103101952	61	4289
2026-01-29 11:58:49.09	326.55	12.11	-45.0	-46.3	20.2	0.00e+00	0	42	0	1105199104	61	4230
2026-01-29 11:58:50.10	326.68	12.04	-44.9	-46.3	20.2	0.00e+00	0	42	0	1107296256	61	4199
2026-01-29 11:58:51.11	326.81	11.97	-44.8	-46.1	20.4	0.00e+00	0	42	0	1109393408	61	4102
2026-01-29 11:58:52.11	326.93	11.90	-44.7	-45.9	20.5	0.00e+00	0	42	0	1111490560	61	4049
2026-01-29 11:58:53.12	327.05	11.82	-44.7	-45.9	20.5	0.00e+00	0	42	0	1112539136	61	4044
2026-01-29 11:58:54.13	327.18	11.75	-44.7	-46.0	20.4	0.00e+00	0	42	0	1114636288	61	4082
2026-01-29 11:58:55.14	327.30	11.68	-44.8	-46.1	20.3	0.00e+00	0	42	0	1116733440	61	4123
2026-01-29 11:58:56.15	327.42	11.61	-44.9	-46.3	20.2	0.00e+00	0	42	0	1118830592	61	4205
2026-01-29 11:58:57.15	327.54	11.54	-44.8	-46.1	20.3	0.00e+00	0	42	0	1120927744	61	4105
2026-01-29 11:58:58.16	327.66	11.47	-44.9	-46.2	20.3	0.00e+00	0	42	0	1121976320	61	4174
2026-01-29 11:58:59.17	327.78	11.40	-45.1	-46.4	20.0	0.00e+00	0	42	0	1124073472	61	4278
2026-01-29 11:59:00.17	327.90	11.33	-45.1	-46.5	19.9	0.00e+00	0	42	0	1126170624	61	4312
2026-01-29 11:59:01.17	328.02	11.26	-45.2	-46.6	19.9	0.00e+00	0	42	0	1128267776	61	4357
2026-01-29 11:59:02.17	328.14	11.18	-45.2	-46.5	19.9	0.00e+00	0	42	0	1130364928	61	4336
2026-01-29 11:59:03.18	328.26	11.11	-45.3	-46.7	19.8	0.00e+00	0	42	0	1131413504	61	4402
2026-01-29 11:59:04.18	328.38	11.04	-45.3	-46.7	19.7	0.00e+00	0	42	0	1133510656	61	4437
2026-01-29 11:59:05.19	328.49	10.97	-45.0	-46.3	20.1	0.00e+00	0	42	0	1135607808	61	4232
2026-01-29 11:59:06.20	328.61	10.90	-45.0	-46.4	20.0	0.00e+00	0	42	0	1137704960	61	4264
2026-01-29 11:59:07.20	328.73	10.83	-45.1	-46.5	19.9	0.00e+00	0	42	0	1139802112	61	4314
2026-01-29 11:59:08.21	328.84	10.76	-45.0	-46.3	20.0	0.00e+00	0	42	0	1140850688	61	4240
2026-01-29 11:59:09.21	328.96	10.69	-45.1	-46.4	20.0	0.00e+00	0	42	0	1142947840	61	4278
2026-01-29 11:59:10.22	329.07	10.62	-45.2	-46.6	19.8	0.00e+00	0	42	0	1145044992	61	4353
2026-01-29 11:59:11.22	329.18	10.55	-45.3	-46.6	19.7	0.00e+00	0	42	0	1147142144	61	4385
2026-01-29 11:59:12.22	329.30	10.48	-45.3	-46.7	19.7	0.00e+00	0	42	0	1149239296	61	4432
2026-01-29 11:59:13.23	329.41	10.41	-45.3	-46.8	19.6	0.00e+00	0	42	0	1150287872	61	4444
2026-01-29 11:59:14.24	329.52	10.34	-45.5	-46.9	19.5	0.00e+00	0	42	0	1152385024	61	4539
2026-01-29 11:59:15.24	329.63	10.27	-45.7	-47.2	19.3	0.00e+00	0	42	0	1154482176	61	4667
2026-01-29 11:59:16.23	329.74	10.21	-45.7	-47.2	19.2	0.00e+00	0	42	0	1156579328	62	4414
2026-01-29 11:59:17.24	329.85	10.14	-46.0	-47.5	18.9	0.00e+00	0	42	0	1158676480	62	4570
2026-01-29 11:59:18.24	329.96	10.07	-46.2	-47.8	18.7	0.00e+00	0	42	0	1159725056	62	4726
2026-01-29 11:59:19.25	330.07	10.00	-45.9	-47.5	18.9	0.00e+00	0	42	0	1161822208	62	4553
2026-01-29 11:59:20.25	330.18	9.93	-46.1	-47.7	18.7	0.00e+00	0	42	0	1163919360	62	4681
2026-01-29 11:59:21.26	330.29	9.86	-46.0	-47.6	18.9	0.00e+00	0	42	0	1166016512	62	4616
2026-01-29 11:59:22.27	330.40	9.79	-46.1	-47.7	18.7	0.00e+00	0	42	0	1167065088	62	4691
2026-01-29 11:59:23.28	330.51	9.72	-46.1	-47.7	18.7	0.00e+00	0	42	0	1169162240	62	4678
2026-01-29 11:59:24.27	330.61	9.66	-46.1	-47.7	18.7	0.00e+00	0	42	0	1171259392	62	4653
2026-01-29 11:59:25.28	330.72	9.59	-46.0	-47.5	18.8	0.00e+00	0	42	0	1173356544	62	4591
