passes_logs/2026/01/29/R3.2S_Murmansk/R3.2S_Murmansk__20260129_071347_KANOPUS-V_5_rec.log

#Pass ID: 20260129_071347_KANOPUS-V 5
#Satellite: KANOPUS-V 5
#Configuration: KANOPUS-V_8320
#almurnet v.1.7.20251203
#Start time: 2026-01-29 07:13:48

#Version: 2.2.20231116
#Station: R3.2S_Murmansk
#Location: 33.079688 lon 68.888172 lat
#TLE: 1 43876U 18111A   26028.96352095  .00005379  00000+0  22781-3 0  9993
#TLE: 2 43876  97.3678 297.2251 0001862  88.5725 271.5725 15.23575473393590

#Time	Az	El	Level	Level2	SNR	BER	BlckErr	Temp	State	Recorded	gain1	gain2
2026-01-29 07:13:48.76	144.49	2.10	-54.6	-63.5	3.8	7.44e-01	0	40	0	0	80	10181
2026-01-29 07:13:49.76	144.47	2.17	-54.6	-63.5	3.8	7.46e-01	0	40	104	0	80	10196
2026-01-29 07:13:50.77	144.46	2.24	-54.6	-63.4	3.8	7.45e-01	0	40	104	0	80	10167
2026-01-29 07:13:51.77	144.44	2.32	-54.6	-63.4	3.8	7.45e-01	0	40	104	0	80	10115
2026-01-29 07:13:52.77	144.42	2.39	-54.6	-63.4	3.8	7.44e-01	0	40	104	0	80	10114
2026-01-29 07:13:53.78	144.40	2.46	-54.6	-63.4	3.8	7.44e-01	0	40	104	0	80	10109
2026-01-29 07:13:54.79	144.38	2.53	-54.7	-63.5	3.8	7.46e-01	0	40	104	0	80	10276
2026-01-29 07:13:55.80	144.36	2.60	-54.8	-63.7	3.8	7.46e-01	0	40	104	0	80	10427
2026-01-29 07:13:56.81	144.35	2.68	-54.8	-63.6	3.8	7.45e-01	0	41	104	0	80	10364
2026-01-29 07:13:57.81	144.33	2.75	-54.8	-63.6	3.8	7.47e-01	0	41	104	0	80	10350
2026-01-29 07:13:58.82	144.31	2.82	-54.8	-63.6	3.8	7.45e-01	0	41	104	0	80	10338
2026-01-29 07:13:59.83	144.29	2.90	-54.7	-63.6	3.8	7.45e-01	0	41	104	0	80	10295
2026-01-29 07:14:00.83	144.27	2.97	-54.7	-63.5	3.8	7.44e-01	0	40	104	0	80	10249
2026-01-29 07:14:01.85	144.25	3.04	-54.6	-63.5	3.8	7.47e-01	0	41	104	0	80	10216
2026-01-29 07:14:02.85	144.23	3.12	-54.6	-63.4	3.8	7.44e-01	0	41	104	0	80	10170
2026-01-29 07:14:03.86	144.21	3.19	-54.5	-63.4	3.8	7.45e-01	0	41	104	0	80	10069
2026-01-29 07:14:04.87	144.19	3.27	-54.5	-63.4	3.8	7.45e-01	0	41	104	0	80	10067
2026-01-29 07:14:05.87	144.17	3.34	-54.4	-63.3	3.8	7.45e-01	0	41	104	0	80	9997
2026-01-29 07:14:06.89	144.15	3.42	-54.4	-63.2	3.8	7.45e-01	0	41	104	0	80	9875
2026-01-29 07:14:07.89	144.13	3.49	-54.3	-63.2	3.8	7.45e-01	0	41	104	0	80	9837
2026-01-29 07:14:08.90	144.11	3.57	-54.2	-63.1	3.8	7.46e-01	0	41	104	0	80	9749
2026-01-29 07:14:09.91	144.09	3.64	-54.1	-63.0	3.8	7.45e-01	0	41	104	0	80	9607
2026-01-29 07:14:10.91	144.07	3.72	-54.0	-62.8	3.8	7.45e-01	0	41	104	0	80	9452
2026-01-29 07:14:11.92	144.05	3.80	-53.9	-62.7	3.8	7.46e-01	0	41	104	0	79	9876
2026-01-29 07:14:12.93	144.03	3.87	-53.7	-62.6	3.8	7.44e-01	0	41	104	0	79	9731
2026-01-29 07:14:13.94	144.00	3.95	-53.6	-62.4	3.8	7.45e-01	0	41	104	0	79	9508
2026-01-29 07:14:14.95	143.98	4.03	-53.3	-62.0	3.8	7.45e-01	0	41	104	0	78	9686
2026-01-29 07:14:15.95	143.96	4.11	-52.8	-61.4	3.8	7.45e-01	0	41	104	0	77	9555
2026-01-29 07:14:16.96	143.94	4.18	-48.5	-51.7	8.6	6.05e-01	0	41	0	2097152	69	4948
2026-01-29 07:14:17.96	143.92	4.26	-47.7	-50.6	9.9	6.08e-01	0	41	0	16777216	67	4895
2026-01-29 07:14:18.97	143.90	4.34	-46.8	-49.4	11.0	6.01e-01	0	41	0	33554432	65	4801
2026-01-29 07:14:19.98	143.87	4.42	-46.4	-48.9	11.4	5.99e-01	0	41	0	48234496	64	4796
2026-01-29 07:14:20.98	143.85	4.50	-45.9	-48.3	12.1	5.96e-01	0	41	0	65011712	63	4729
2026-01-29 07:14:21.99	143.83	4.58	-45.4	-47.8	12.5	5.95e-01	0	41	0	79691776	62	4734
2026-01-29 07:14:22.99	143.81	4.66	-45.7	-48.1	12.3	5.96e-01	0	41	0	94371840	62	4902
2026-01-29 07:14:24.00	143.78	4.74	-45.4	-47.8	12.5	5.94e-01	0	41	0	111149056	62	4732
2026-01-29 07:14:25.01	143.76	4.82	-45.8	-48.2	12.2	5.97e-01	0	41	0	125829120	62	4943
2026-01-29 07:14:26.02	143.74	4.90	-46.3	-48.8	11.6	5.99e-01	0	41	0	140509184	63	5031
2026-01-29 07:14:27.03	143.71	4.98	-47.1	-49.9	10.5	6.04e-01	0	41	0	157286400	64	5347
2026-01-29 07:14:28.04	143.69	5.06	-47.7	-50.6	9.8	6.08e-01	0	41	0	171966464	65	5522
2026-01-29 07:14:29.04	143.66	5.14	-48.3	-51.3	9.2	6.24e-01	0	42	0	186646528	67	5310
2026-01-29 07:14:30.05	143.64	5.23	-45.6	-47.9	12.5	6.03e-01	0	42	0	201326592	63	4538
2026-01-29 07:14:31.05	143.62	5.31	-52.2	-60.3	3.8	7.45e-01	0	41	104	216006656	74	9978
2026-01-29 07:14:32.06	143.59	5.39	-49.4	-53.1	7.3	6.51e-01	0	41	104	216006656	69	5793
2026-01-29 07:14:33.07	143.57	5.48	-46.6	-49.1	11.2	6.06e-01	0	41	0	230686720	63	5212
2026-01-29 07:14:34.08	143.54	5.56	-44.6	-46.8	13.3	6.01e-01	0	41	0	245366784	61	4481
2026-01-29 07:14:35.09	143.52	5.64	-45.1	-47.3	12.9	6.01e-01	0	41	0	262144000	61	4758
2026-01-29 07:14:36.09	143.49	5.73	-44.7	-46.9	13.4	6.01e-01	0	41	0	276824064	61	4514
2026-01-29 07:14:37.10	143.47	5.81	-44.9	-47.2	13.1	6.03e-01	0	42	0	291504128	61	4655
2026-01-29 07:14:38.10	143.44	5.90	-44.7	-46.9	13.3	6.00e-01	0	42	0	308281344	61	4541
2026-01-29 07:14:39.11	143.41	5.98	-44.9	-47.1	13.2	6.04e-01	0	41	0	322961408	61	4637
2026-01-29 07:14:40.12	143.39	6.07	-44.7	-46.9	13.4	6.03e-01	0	41	0	337641472	61	4544
2026-01-29 07:14:41.13	143.36	6.15	-44.6	-46.7	13.6	6.01e-01	0	42	0	354418688	61	4440
2026-01-29 07:14:42.13	143.33	6.24	-44.3	-46.5	13.8	6.01e-01	0	42	0	369098752	60	4551
2026-01-29 07:14:43.13	143.31	6.33	-44.4	-46.6	13.7	6.01e-01	0	42	0	383778816	60	4613
2026-01-29 07:14:44.14	143.28	6.41	-44.4	-46.5	13.7	6.00e-01	0	42	0	400556032	60	4598
2026-01-29 07:14:45.15	143.25	6.50	-44.3	-46.5	13.8	6.04e-01	0	42	0	415236096	60	4575
2026-01-29 07:14:46.16	143.23	6.59	-44.1	-46.3	14.1	6.06e-01	0	42	0	432013312	60	4451
2026-01-29 07:14:47.17	143.20	6.68	-44.3	-46.5	13.8	6.04e-01	0	42	0	446693376	60	4585
2026-01-29 07:14:48.18	143.17	6.77	-44.3	-46.5	13.8	6.01e-01	0	42	0	463470592	60	4570
2026-01-29 07:14:49.19	143.14	6.86	-44.2	-46.4	13.9	6.04e-01	0	42	0	478150656	60	4529
2026-01-29 07:14:50.20	143.11	6.95	-44.2	-46.4	14.0	6.06e-01	0	42	0	492830720	60	4494
2026-01-29 07:14:51.21	143.08	7.04	-44.2	-46.4	14.0	6.07e-01	0	42	0	509607936	60	4495
2026-01-29 07:14:52.21	143.05	7.13	-44.1	-46.3	14.1	6.04e-01	0	41	0	524288000	60	4451
2026-01-29 07:14:53.22	143.02	7.22	-44.1	-46.2	14.1	6.05e-01	0	42	0	538968064	59	4703
2026-01-29 07:14:54.23	143.00	7.31	-44.2	-46.4	14.0	6.09e-01	0	42	0	555745280	59	4775
2026-01-29 07:14:55.24	142.97	7.40	-44.1	-46.3	14.1	6.06e-01	0	42	0	570425344	59	4752
2026-01-29 07:14:56.24	142.94	7.49	-44.1	-46.3	14.1	6.04e-01	0	42	0	585105408	59	4732
2026-01-29 07:14:57.25	142.90	7.59	-44.1	-46.3	14.1	6.06e-01	0	42	0	601882624	59	4715
2026-01-29 07:14:58.25	142.87	7.68	-44.1	-46.3	14.1	6.04e-01	0	42	0	616562688	59	4740
2026-01-29 07:14:59.26	142.84	7.77	-44.1	-46.3	14.1	6.05e-01	0	42	0	633339904	59	4753
2026-01-29 07:15:00.27	142.81	7.87	-44.0	-46.1	14.3	6.04e-01	0	42	0	648019968	59	4641
2026-01-29 07:15:01.28	142.78	7.96	-43.9	-46.1	14.3	6.05e-01	0	42	0	664797184	59	4641
2026-01-29 07:15:02.29	142.75	8.06	-43.8	-46.0	14.4	6.05e-01	0	42	0	679477248	59	4573
2026-01-29 07:15:03.29	142.72	8.15	-43.9	-46.1	14.4	6.05e-01	0	42	0	694157312	59	4599
2026-01-29 07:15:04.30	142.68	8.25	-43.7	-45.9	14.6	6.04e-01	0	42	0	710934528	59	4523
2026-01-29 07:15:05.31	142.65	8.35	-43.7	-45.9	14.5	6.03e-01	0	42	0	725614592	59	4522
2026-01-29 07:15:06.31	142.62	8.44	-43.8	-45.9	14.5	6.05e-01	0	42	0	740294656	59	4539
2026-01-29 07:15:07.32	142.59	8.54	-43.7	-45.8	14.6	6.04e-01	0	42	0	757071872	59	4491
2026-01-29 07:15:08.33	142.55	8.64	-43.7	-45.8	14.7	6.03e-01	0	42	0	771751936	59	4474
2026-01-29 07:15:09.33	142.52	8.74	-43.6	-45.8	14.7	6.07e-01	0	42	0	786432000	59	4461
2026-01-29 07:15:10.34	142.48	8.84	-43.6	-45.8	14.7	6.02e-01	0	42	0	803209216	59	4464
2026-01-29 07:15:11.35	142.45	8.94	-43.7	-45.8	14.6	6.04e-01	0	42	0	817889280	59	4479
2026-01-29 07:15:12.35	142.41	9.03	-43.7	-45.8	14.6	6.02e-01	0	42	0	832569344	59	4471
2026-01-29 07:15:13.36	142.38	9.14	-43.7	-45.8	14.7	6.06e-01	0	42	0	849346560	59	4484
2026-01-29 07:15:14.37	142.34	9.24	-43.6	-45.7	14.8	6.07e-01	0	42	0	866123776	59	4413
2026-01-29 07:15:15.37	142.31	9.34	-43.5	-45.6	14.9	6.05e-01	0	42	0	880803840	58	4611
2026-01-29 07:15:16.38	142.27	9.44	-43.5	-45.6	14.9	6.06e-01	0	42	0	895483904	58	4602
2026-01-29 07:15:17.38	142.24	9.54	-43.3	-45.4	15.1	6.02e-01	0	42	0	912261120	58	4503
2026-01-29 07:15:18.39	142.20	9.65	-43.4	-45.5	15.0	6.03e-01	0	42	0	926941184	58	4550
2026-01-29 07:15:19.40	142.16	9.75	-43.4	-45.5	15.0	6.05e-01	0	42	0	941621248	58	4565
2026-01-29 07:15:20.41	142.12	9.85	-43.3	-45.4	15.1	6.05e-01	0	42	0	958398464	58	4523
2026-01-29 07:15:21.41	142.09	9.96	-43.3	-45.3	15.1	6.07e-01	0	42	0	973078528	58	4485
2026-01-29 07:15:22.41	142.05	10.06	-43.2	-45.3	15.2	6.07e-01	0	42	0	987758592	58	4448
2026-01-29 07:15:23.42	142.01	10.17	-43.1	-45.1	15.3	6.06e-01	0	42	0	1004535808	58	4388
2026-01-29 07:15:24.42	141.97	10.28	-43.2	-45.2	15.3	6.07e-01	0	42	0	1019215872	58	4418
2026-01-29 07:15:25.42	141.93	10.38	-43.2	-45.3	15.2	6.03e-01	0	42	0	1033895936	58	4448
2026-01-29 07:15:26.43	141.89	10.49	-42.9	-44.8	15.5	6.04e-01	0	42	0	1050673152	57	4493
2026-01-29 07:15:27.44	141.85	10.60	-42.9	-44.9	15.5	6.04e-01	0	42	0	1065353216	57	4535
2026-01-29 07:15:28.44	141.81	10.71	-43.1	-45.0	15.4	6.01e-01	0	42	0	1080033280	57	4596
2026-01-29 07:15:29.45	141.77	10.82	-43.0	-45.0	15.5	6.04e-01	0	42	0	1094713344	57	4548
2026-01-29 07:15:30.45	141.73	10.93	-42.9	-44.8	15.7	6.04e-01	0	42	0	1111490560	57	4476
2026-01-29 07:15:31.46	141.69	11.04	-42.8	-44.8	15.6	6.02e-01	0	42	0	1126170624	57	4453
2026-01-29 07:15:32.47	141.64	11.15	-42.8	-44.7	15.7	6.05e-01	0	42	0	1142947840	57	4419
2026-01-29 07:15:33.47	141.60	11.26	-42.7	-44.6	15.8	6.02e-01	0	42	0	1159725056	57	4376
2026-01-29 07:15:34.48	141.56	11.38	-42.8	-44.7	15.8	6.05e-01	0	42	0	1174405120	57	4421
2026-01-29 07:15:35.48	141.51	11.49	-42.6	-44.5	15.9	6.03e-01	0	42	0	1189085184	57	4332
2026-01-29 07:15:36.49	141.47	11.61	-42.7	-44.5	15.8	6.05e-01	0	42	0	1203765248	57	4336
2026-01-29 07:15:37.50	141.43	11.72	-42.4	-44.3	16.1	6.02e-01	0	42	0	1220542464	56	4467
2026-01-29 07:15:38.50	141.38	11.84	-42.5	-44.3	16.0	6.05e-01	0	42	0	1235222528	56	4487
2026-01-29 07:15:39.51	141.33	11.95	-42.4	-44.3	16.1	6.06e-01	0	42	0	1249902592	56	4454
2026-01-29 07:15:40.51	141.29	12.07	-42.3	-44.1	16.3	6.04e-01	0	42	0	1266679808	56	4370
2026-01-29 07:15:41.52	141.24	12.19	-42.2	-44.1	16.3	6.04e-01	0	42	0	1281359872	56	4351
2026-01-29 07:15:42.52	141.20	12.31	-42.2	-44.0	16.3	6.04e-01	0	42	0	1296039936	56	4314
2026-01-29 07:15:43.53	141.15	12.43	-42.0	-43.8	16.6	6.03e-01	0	42	0	1312817152	56	4208
2026-01-29 07:15:44.53	141.10	12.55	-42.2	-44.0	16.5	6.04e-01	0	42	0	1327497216	55	4589
2026-01-29 07:15:45.55	141.05	12.67	-42.3	-44.1	16.4	6.02e-01	0	42	0	1342177280	55	4621
2026-01-29 07:15:46.56	141.00	12.79	-42.0	-43.8	16.7	6.01e-01	0	42	0	1358954496	55	4454
2026-01-29 07:15:47.57	140.95	12.91	-42.0	-43.8	16.7	6.04e-01	0	42	0	1375731712	55	4462
2026-01-29 07:15:48.57	140.90	13.04	-42.0	-43.8	16.7	6.02e-01	0	42	0	1390411776	55	4480
2026-01-29 07:15:49.58	140.85	13.16	-41.9	-43.7	16.8	6.05e-01	0	42	0	1405091840	55	4411
2026-01-29 07:15:50.59	140.80	13.29	-42.0	-43.8	16.7	6.05e-01	0	42	0	1421869056	55	4466
2026-01-29 07:15:51.60	140.75	13.41	-41.9	-43.8	16.7	6.03e-01	0	42	0	1436549120	55	4452
2026-01-29 07:15:52.60	140.70	13.54	-41.8	-43.6	16.8	6.02e-01	0	42	0	1451229184	55	4349
2026-01-29 07:15:53.61	140.65	13.67	-41.8	-43.6	16.9	6.04e-01	0	42	0	1468006400	55	4357
2026-01-29 07:15:54.62	140.59	13.80	-41.8	-43.6	16.9	6.02e-01	0	42	0	1482686464	55	4369
2026-01-29 07:15:55.63	140.54	13.93	-41.8	-43.6	16.8	6.03e-01	0	42	0	1497366528	55	4362
2026-01-29 07:15:56.63	140.48	14.06	-41.6	-43.5	17.0	6.03e-01	0	42	0	1514143744	55	4312
2026-01-29 07:15:57.64	140.43	14.19	-41.8	-43.6	16.9	6.01e-01	0	42	0	1528823808	55	4367
2026-01-29 07:15:58.65	140.37	14.32	-41.5	-43.4	17.1	6.04e-01	0	42	0	1543503872	55	4248
2026-01-29 07:15:59.66	140.32	14.46	-41.5	-43.4	17.0	6.05e-01	0	42	0	1560281088	55	4256
2026-01-29 07:16:00.66	140.26	14.59	-41.5	-43.3	17.0	6.04e-01	0	42	0	1577058304	54	4482
2026-01-29 07:16:01.67	140.20	14.72	-41.5	-43.4	17.0	6.05e-01	0	42	0	1591738368	54	4519
2026-01-29 07:16:02.67	140.14	14.86	-41.3	-43.2	17.2	6.05e-01	0	42	0	1606418432	54	4395
2026-01-29 07:16:03.68	140.08	15.00	-41.3	-43.3	17.2	6.05e-01	0	42	0	1623195648	54	4444
2026-01-29 07:16:04.69	140.02	15.13	-41.3	-43.2	17.1	6.05e-01	0	42	0	1637875712	54	4421
2026-01-29 07:16:05.69	139.96	15.27	-41.3	-43.3	17.1	6.03e-01	0	42	0	1652555776	54	4452
2026-01-29 07:16:06.70	139.90	15.41	-41.3	-43.3	17.1	6.05e-01	0	42	0	1669332992	54	4453
2026-01-29 07:16:07.71	139.84	15.55	-41.3	-43.2	17.2	6.05e-01	0	42	0	1684013056	54	4417
2026-01-29 07:16:08.72	139.78	15.70	-41.3	-43.2	17.2	6.03e-01	0	42	0	1698693120	54	4425
2026-01-29 07:16:09.72	139.71	15.84	-41.2	-43.2	17.2	6.06e-01	0	42	0	1715470336	54	4394
2026-01-29 07:16:10.73	139.65	15.98	-41.2	-43.2	17.2	6.04e-01	0	42	0	1730150400	54	4403
2026-01-29 07:16:11.74	139.59	16.13	-41.3	-43.2	17.2	6.03e-01	0	42	0	1744830464	54	4421
2026-01-29 07:16:12.74	139.52	16.27	-41.3	-43.2	17.2	6.02e-01	0	42	0	1761607680	54	4414
2026-01-29 07:16:13.75	139.45	16.42	-41.3	-43.3	17.1	6.03e-01	0	42	0	1776287744	54	4445
2026-01-29 07:16:14.76	139.39	16.57	-41.2	-43.2	17.2	6.04e-01	0	42	0	1793064960	54	4395
2026-01-29 07:16:15.76	139.32	16.72	-41.2	-43.1	17.3	6.02e-01	0	42	0	1807745024	54	4383
2026-01-29 07:16:16.77	139.25	16.87	-41.2	-43.2	17.3	6.02e-01	0	42	0	1824522240	54	4396
2026-01-29 07:16:17.78	139.18	17.02	-41.2	-43.1	17.3	6.02e-01	0	42	0	1839202304	54	4366
2026-01-29 07:16:18.79	139.11	17.18	-41.3	-43.2	17.3	6.02e-01	0	42	0	1853882368	54	4412
2026-01-29 07:16:19.80	139.04	17.33	-41.2	-43.1	17.3	6.00e-01	0	42	0	1870659584	54	4367
2026-01-29 07:16:20.81	138.96	17.49	-41.3	-43.2	17.3	6.03e-01	0	42	0	1885339648	54	4400
2026-01-29 07:16:21.81	138.89	17.64	-41.2	-43.0	17.4	6.01e-01	0	42	0	1900019712	54	4317
2026-01-29 07:16:22.82	138.82	17.80	-41.3	-43.1	17.3	6.05e-01	0	42	0	1916796928	54	4385
2026-01-29 07:16:23.82	138.74	17.96	-41.1	-42.9	17.4	5.97e-01	0	42	0	1931476992	54	4286
2026-01-29 07:16:24.83	138.66	18.12	-41.0	-42.9	17.5	6.03e-01	0	42	0	1946157056	54	4250
2026-01-29 07:16:25.84	138.59	18.29	-41.2	-43.1	17.4	5.97e-01	0	43	0	1962934272	54	4341
2026-01-29 07:16:26.85	138.51	18.45	-40.9	-42.8	17.6	5.98e-01	0	42	0	1977614336	53	4447
2026-01-29 07:16:27.85	138.43	18.61	-40.9	-42.7	17.6	5.97e-01	0	42	0	1992294400	53	4425
2026-01-29 07:16:28.86	138.35	18.78	-40.8	-42.7	17.6	6.02e-01	0	42	0	2009071616	53	4409
2026-01-29 07:16:29.87	138.27	18.95	-40.8	-42.6	17.6	6.01e-01	0	42	0	2025848832	53	4387
2026-01-29 07:16:30.89	138.18	19.12	-40.7	-42.5	17.8	5.97e-01	0	42	0	2040528896	53	4302
2026-01-29 07:16:31.89	138.10	19.29	-40.7	-42.5	17.8	6.00e-01	0	42	0	2055208960	53	4326
2026-01-29 07:16:32.90	138.02	19.46	-40.7	-42.5	17.8	5.96e-01	0	42	0	2071986176	53	4329
2026-01-29 07:16:33.90	137.93	19.63	-40.4	-42.2	18.0	6.00e-01	0	43	0	2086666240	52	4398
2026-01-29 07:16:34.91	137.84	19.81	-40.5	-42.2	18.0	5.98e-01	0	43	0	2101346304	52	4434
2026-01-29 07:16:35.93	137.75	19.99	-40.5	-42.3	17.9	5.98e-01	0	42	0	2118123520	52	4443
2026-01-29 07:16:36.93	137.67	20.16	-40.3	-42.0	18.1	6.03e-01	0	42	0	2132803584	52	4336
2026-01-29 07:16:37.95	137.57	20.34	-40.2	-42.0	18.2	6.02e-01	0	42	0	2147483648	52	4310
2026-01-29 07:16:38.95	137.48	20.52	-40.4	-42.1	18.0	6.04e-01	0	42	0	2164260864	52	4378
2026-01-29 07:16:39.95	137.39	20.70	-40.2	-42.0	18.2	6.06e-01	0	42	0	2178940928	52	4307
2026-01-29 07:16:40.96	137.29	20.89	-40.1	-41.8	18.3	6.02e-01	0	43	0	2195718144	52	4230
2026-01-29 07:16:41.97	137.20	21.07	-40.1	-41.9	18.2	6.06e-01	0	42	0	2210398208	52	4276
2026-01-29 07:16:42.98	137.10	21.26	-40.2	-42.0	18.1	5.98e-01	0	42	0	2227175424	52	4335
2026-01-29 07:16:43.99	137.00	21.45	-40.2	-42.0	18.2	6.01e-01	0	42	0	2241855488	52	4312
2026-01-29 07:16:44.99	136.90	21.64	-40.2	-42.0	18.1	5.98e-01	0	42	0	2256535552	52	4339
2026-01-29 07:16:46.00	136.80	21.83	-40.2	-42.0	18.1	6.03e-01	0	42	0	2273312768	52	4335
2026-01-29 07:16:47.01	136.70	22.03	-40.3	-42.2	18.1	6.01e-01	0	43	0	2287992832	52	4393
2026-01-29 07:16:48.01	136.59	22.22	-40.4	-42.2	18.0	6.01e-01	0	42	0	2302672896	52	4435
2026-01-29 07:16:49.02	136.49	22.42	-40.5	-42.3	18.0	5.99e-01	0	42	0	2319450112	52	4451
2026-01-29 07:16:50.03	136.38	22.62	-40.6	-42.4	17.9	5.97e-01	0	43	0	2334130176	52	4525
2026-01-29 07:16:51.03	136.27	22.82	-40.6	-42.4	17.9	5.99e-01	0	42	0	2348810240	52	4526
2026-01-29 07:16:52.04	136.16	23.02	-40.6	-42.4	17.9	5.98e-01	0	42	0	2363490304	52	4538
2026-01-29 07:16:53.05	136.05	23.23	-40.6	-42.3	17.9	6.04e-01	0	43	0	2380267520	52	4493
2026-01-29 07:16:54.06	135.93	23.44	-40.5	-42.3	18.0	5.97e-01	0	42	0	2394947584	52	4489
2026-01-29 07:16:55.07	135.81	23.65	-40.5	-42.3	18.0	6.01e-01	0	43	0	2411724800	52	4483
2026-01-29 07:16:56.08	135.70	23.86	-40.5	-42.3	18.0	6.01e-01	0	43	0	2428502016	52	4459
2026-01-29 07:16:57.09	135.58	24.07	-40.5	-42.4	18.0	6.01e-01	0	43	0	2443182080	52	4498
2026-01-29 07:16:58.10	135.45	24.29	-40.5	-42.4	18.0	6.00e-01	0	42	0	2457862144	52	4499
2026-01-29 07:16:59.10	135.33	24.50	-40.3	-42.2	18.2	5.96e-01	0	43	0	2472542208	52	4399
2026-01-29 07:17:00.11	135.20	24.72	-40.4	-42.2	18.1	5.96e-01	0	43	0	2489319424	52	4392
2026-01-29 07:17:01.12	135.08	24.95	-40.3	-42.1	18.1	5.97e-01	0	42	0	2503999488	52	4379
2026-01-29 07:17:02.13	134.95	25.17	-40.4	-42.2	18.1	5.95e-01	0	42	0	2518679552	52	4423
2026-01-29 07:17:03.13	134.82	25.39	-40.4	-42.1	18.2	5.98e-01	0	42	0	2535456768	52	4387
2026-01-29 07:17:04.14	134.68	25.62	-40.4	-42.1	18.2	5.96e-01	0	43	0	2550136832	52	4379
2026-01-29 07:17:05.15	134.54	25.85	-40.4	-42.2	18.2	5.98e-01	0	42	0	2564816896	52	4396
2026-01-29 07:17:06.15	134.41	26.08	-40.5	-42.3	18.0	5.96e-01	0	43	0	2581594112	52	4464
2026-01-29 07:17:07.16	134.27	26.32	-40.6	-42.4	18.0	5.97e-01	0	42	0	2598371328	52	4515
2026-01-29 07:17:08.17	134.12	26.56	-40.6	-42.4	18.0	5.99e-01	0	42	0	2613051392	52	4544
2026-01-29 07:17:09.18	133.98	26.80	-40.7	-42.6	17.8	6.03e-01	0	43	0	2627731456	52	4603
2026-01-29 07:17:10.18	133.83	27.04	-40.8	-42.7	17.8	6.00e-01	0	43	0	2644508672	52	4676
2026-01-29 07:17:11.19	133.68	27.28	-40.7	-42.7	17.8	6.01e-01	0	43	0	2659188736	52	4654
2026-01-29 07:17:12.20	133.52	27.53	-40.7	-42.7	17.8	5.91e-01	0	43	0	2673868800	52	4675
2026-01-29 07:17:13.21	133.37	27.78	-40.8	-42.7	17.8	5.91e-01	0	42	0	2690646016	52	4698
2026-01-29 07:17:14.21	133.21	28.03	-40.8	-42.8	17.8	5.91e-01	0	43	0	2705326080	52	4710
2026-01-29 07:17:15.22	133.05	28.28	-40.7	-42.6	17.9	5.90e-01	0	43	0	2720006144	52	4635
2026-01-29 07:17:16.22	132.88	28.54	-40.7	-42.6	17.9	5.91e-01	0	42	0	2736783360	52	4640
2026-01-29 07:17:17.23	132.72	28.80	-40.7	-42.7	17.8	5.91e-01	0	42	0	2751463424	52	4673
2026-01-29 07:17:18.23	132.55	29.06	-40.8	-42.8	17.8	5.91e-01	0	43	0	2766143488	52	4744
2026-01-29 07:17:19.24	132.37	29.32	-40.7	-42.8	17.8	5.90e-01	0	43	0	2782920704	52	4740
2026-01-29 07:17:20.25	132.20	29.59	-40.7	-42.8	17.8	5.91e-01	0	42	0	2797600768	52	4727
2026-01-29 07:17:21.26	132.01	29.86	-40.8	-42.9	17.7	5.91e-01	0	42	0	2812280832	52	4790
2026-01-29 07:17:22.26	131.83	30.13	-40.9	-43.0	17.7	5.89e-01	0	42	0	2829058048	52	4826
2026-01-29 07:17:23.27	131.65	30.41	-40.7	-42.8	17.8	5.91e-01	0	43	0	2845835264	52	4726
2026-01-29 07:17:24.28	131.45	30.69	-40.7	-42.8	17.8	5.92e-01	0	43	0	2860515328	52	4736
2026-01-29 07:17:25.29	131.26	30.97	-40.6	-42.7	17.8	5.91e-01	0	43	0	2875195392	52	4673
2026-01-29 07:17:26.29	131.06	31.25	-40.4	-42.6	18.0	5.90e-01	0	43	0	2891972608	52	4605
2026-01-29 07:17:27.30	130.86	31.54	-40.2	-42.4	18.0	5.92e-01	0	43	0	2906652672	52	4542
2026-01-29 07:17:28.31	130.65	31.83	-40.1	-42.4	18.0	5.91e-01	0	43	0	2921332736	52	4526
2026-01-29 07:17:29.32	130.44	32.12	-40.1	-42.4	18.1	5.91e-01	0	43	0	2938109952	52	4526
2026-01-29 07:17:30.33	130.23	32.42	-40.3	-42.6	17.9	5.90e-01	0	42	0	2952790016	52	4609
2026-01-29 07:17:31.33	130.01	32.72	-40.1	-42.3	18.1	5.91e-01	0	43	0	2967470080	52	4485
2026-01-29 07:17:32.34	129.79	33.02	-40.1	-42.3	18.1	6.00e-01	0	43	0	2984247296	52	4492
2026-01-29 07:17:33.35	129.56	33.32	-40.0	-42.2	18.2	5.93e-01	0	42	0	2998927360	52	4418
2026-01-29 07:17:34.36	129.33	33.63	-40.0	-42.1	18.3	6.02e-01	0	43	0	3013607424	51	4650
2026-01-29 07:17:35.36	129.09	33.94	-39.9	-42.0	18.4	5.98e-01	0	43	0	3030384640	51	4592
2026-01-29 07:17:36.37	128.85	34.26	-40.0	-42.1	18.3	5.91e-01	0	43	0	3047161856	51	4601
2026-01-29 07:17:37.37	128.60	34.57	-39.6	-41.7	18.7	5.82e-01	0	43	0	3061841920	51	4412
2026-01-29 07:17:38.38	128.35	34.90	-39.3	-41.5	18.8	5.92e-01	0	43	0	3076521984	50	4564
2026-01-29 07:17:39.39	128.09	35.22	-39.2	-41.5	18.8	5.98e-01	0	43	0	3093299200	50	4558
2026-01-29 07:17:40.40	127.83	35.55	-39.2	-41.5	18.7	5.89e-01	0	43	0	3107979264	50	4575
2026-01-29 07:17:41.40	127.56	35.88	-39.0	-41.4	18.8	5.96e-01	0	43	0	3122659328	50	4544
2026-01-29 07:17:42.41	127.29	36.21	-39.2	-41.5	18.7	5.95e-01	0	43	0	3139436544	50	4594
2026-01-29 07:17:43.41	127.01	36.55	-38.9	-41.2	18.9	6.01e-01	0	43	0	3154116608	49	4667
2026-01-29 07:17:44.42	126.72	36.89	-38.7	-40.9	19.1	5.84e-01	0	43	0	3168796672	49	4502
2026-01-29 07:17:45.43	126.42	37.23	-38.7	-40.8	19.2	5.90e-01	0	42	0	3185573888	49	4462
2026-01-29 07:17:46.44	126.12	37.58	-38.7	-40.8	19.2	5.99e-01	0	43	0	3200253952	49	4452
2026-01-29 07:17:47.45	125.81	37.93	-38.3	-40.4	19.4	5.88e-01	0	43	0	3214934016	48	4514
2026-01-29 07:17:48.45	125.50	38.28	-38.5	-40.7	19.2	5.90e-01	0	43	0	3231711232	48	4672
2026-01-29 07:17:49.47	125.18	38.64	-38.3	-40.6	19.3	5.90e-01	0	43	0	3248488448	48	4623
2026-01-29 07:17:50.48	124.85	39.01	-38.3	-40.8	19.3	5.81e-01	0	43	0	3263168512	48	4720
2026-01-29 07:17:51.48	124.51	39.37	-38.3	-40.7	19.2	5.92e-01	0	43	0	3277848576	48	4678
2026-01-29 07:17:52.49	124.16	39.73	-38.5	-40.8	19.2	5.85e-01	0	43	0	3294625792	48	4739
2026-01-29 07:17:53.49	123.81	40.10	-38.1	-40.3	19.3	5.97e-01	0	43	0	3309305856	48	4493
2026-01-29 07:17:54.50	123.45	40.48	-37.0	-39.1	19.2	5.95e-01	0	42	0	3323985920	46	4383
2026-01-29 07:17:55.51	123.08	40.85	-36.8	-39.0	19.2	5.95e-01	0	43	0	3340763136	45	4589
2026-01-29 07:17:56.51	122.70	41.23	-36.8	-39.1	19.2	5.92e-01	0	43	0	3355443200	45	4642
2026-01-29 07:17:57.52	122.31	41.61	-36.9	-39.2	19.1	5.78e-01	0	43	0	3370123264	45	4694
2026-01-29 07:17:58.53	121.90	42.00	-37.0	-39.1	19.3	5.89e-01	0	43	0	3386900480	45	4623
2026-01-29 07:17:59.53	121.50	42.39	-36.9	-39.0	19.2	5.90e-01	0	42	0	3401580544	45	4563
2026-01-29 07:18:00.54	121.07	42.78	-36.6	-38.8	19.4	5.99e-01	0	43	0	3416260608	45	4457
2026-01-29 07:18:01.55	120.64	43.18	-36.7	-38.9	19.3	5.95e-01	0	43	0	3433037824	45	4529
2026-01-29 07:18:02.56	120.20	43.58	-36.7	-38.9	19.3	6.02e-01	0	43	0	3449815040	45	4543
2026-01-29 07:18:03.57	119.74	43.98	-36.8	-38.9	19.3	6.01e-01	0	43	0	3464495104	45	4532
2026-01-29 07:18:04.57	119.28	44.38	-36.8	-38.9	19.3	6.01e-01	0	43	0	3479175168	45	4525
2026-01-29 07:18:05.58	118.79	44.78	-36.9	-38.9	19.3	5.97e-01	0	43	0	3495952384	45	4541
2026-01-29 07:18:06.59	118.30	45.19	-36.7	-38.9	19.4	5.92e-01	0	43	0	3510632448	45	4496
2026-01-29 07:18:07.60	117.79	45.60	-36.9	-39.0	19.3	6.00e-01	0	43	0	3525312512	45	4578
2026-01-29 07:18:08.61	117.27	46.02	-37.0	-39.2	19.1	6.02e-01	0	43	0	3542089728	45	4684
2026-01-29 07:18:09.62	116.73	46.43	-37.2	-39.3	19.0	6.01e-01	0	43	0	3556769792	45	4755
2026-01-29 07:18:10.63	116.18	46.85	-37.1	-39.1	19.1	6.02e-01	0	43	0	3571449856	45	4649
2026-01-29 07:18:11.64	115.62	47.27	-37.1	-39.0	19.3	5.95e-01	0	43	0	3586129920	45	4568
2026-01-29 07:18:12.65	115.03	47.69	-37.1	-39.1	19.2	5.93e-01	0	43	0	3602907136	45	4602
2026-01-29 07:18:13.66	114.43	48.12	-37.6	-39.6	18.9	5.98e-01	0	43	0	3617587200	45	4921
2026-01-29 07:18:14.66	113.82	48.53	-37.7	-39.8	18.9	5.96e-01	0	43	0	3634364416	46	4734
2026-01-29 07:18:15.67	113.19	48.96	-37.8	-39.8	18.8	5.99e-01	0	43	0	3651141632	46	4741
2026-01-29 07:18:16.67	112.54	49.38	-37.9	-39.9	18.8	5.92e-01	0	42	0	3665821696	46	4789
2026-01-29 07:18:17.68	111.87	49.81	-37.8	-39.8	18.8	5.90e-01	0	43	0	3680501760	46	4738
2026-01-29 07:18:18.69	111.18	50.23	-37.8	-40.0	18.7	6.00e-01	0	43	0	3695181824	46	4816
2026-01-29 07:18:19.70	110.47	50.66	-38.0	-40.2	18.5	5.89e-01	0	43	0	3711959040	46	4975
2026-01-29 07:18:20.70	109.75	51.08	-38.1	-40.3	18.5	5.99e-01	0	43	0	3726639104	46	5003
2026-01-29 07:18:21.71	108.99	51.50	-38.2	-40.3	18.4	5.99e-01	0	42	0	3741319168	46	5029
2026-01-29 07:18:22.71	108.23	51.92	-38.3	-40.4	18.4	5.99e-01	0	43	0	3758096384	47	4809
2026-01-29 07:18:23.71	107.43	52.34	-38.4	-40.6	18.3	5.86e-01	0	43	0	3772776448	47	4878
2026-01-29 07:18:24.72	106.61	52.76	-38.5	-40.6	18.3	5.94e-01	0	43	0	3787456512	47	4913
2026-01-29 07:18:25.73	105.77	53.18	-38.6	-40.7	18.3	5.96e-01	0	43	0	3804233728	47	4932
2026-01-29 07:18:26.74	104.89	53.60	-39.8	-42.0	18.6	5.96e-01	0	43	0	3818913792	50	4829
2026-01-29 07:18:27.74	104.01	54.01	-39.8	-42.0	18.5	5.97e-01	0	43	0	3833593856	50	4840
2026-01-29 07:18:28.75	103.08	54.41	-39.5	-41.5	18.8	5.99e-01	0	43	0	3850371072	50	4588
2026-01-29 07:18:29.76	102.13	54.82	-39.4	-41.4	18.9	5.98e-01	0	43	0	3867148288	50	4510
2026-01-29 07:18:30.77	101.15	55.22	-39.4	-41.4	18.9	5.98e-01	0	43	0	3881828352	50	4518
2026-01-29 07:18:31.78	100.15	55.62	-39.5	-41.5	18.8	5.97e-01	0	43	0	3896508416	50	4583
2026-01-29 07:18:32.78	99.12	56.00	-39.5	-41.5	18.8	5.98e-01	0	43	0	3913285632	50	4596
2026-01-29 07:18:33.79	98.05	56.38	-39.0	-41.0	19.1	5.96e-01	0	42	0	3927965696	50	4308
2026-01-29 07:18:34.79	96.97	56.76	-38.7	-40.7	19.3	5.97e-01	0	43	0	3942645760	49	4404
2026-01-29 07:18:35.80	95.84	57.13	-38.9	-40.9	19.2	5.98e-01	0	43	0	3959422976	49	4499
2026-01-29 07:18:36.81	94.68	57.49	-39.0	-40.9	19.2	5.97e-01	0	43	0	3974103040	49	4540
2026-01-29 07:18:37.81	93.51	57.84	-38.8	-40.9	19.2	5.98e-01	0	43	0	3988783104	49	4519
2026-01-29 07:18:38.82	92.29	58.18	-38.6	-40.7	19.4	5.89e-01	0	43	0	4005560320	49	4397
2026-01-29 07:18:39.83	91.04	58.51	-38.6	-40.5	19.4	6.00e-01	0	43	0	4020240384	49	4294
2026-01-29 07:18:40.84	89.75	58.83	-38.7	-40.6	19.3	5.96e-01	0	43	0	4034920448	49	4378
2026-01-29 07:18:41.85	88.44	59.14	-38.8	-40.8	19.3	5.98e-01	0	43	0	4051697664	49	4481
2026-01-29 07:18:42.85	87.11	59.44	-38.9	-40.8	19.3	5.96e-01	0	43	0	4066377728	49	4488
2026-01-29 07:18:43.86	85.73	59.72	-38.6	-40.5	19.5	5.96e-01	0	43	0	4083154944	49	4334
2026-01-29 07:18:44.87	84.32	59.99	-38.6	-40.5	19.5	5.95e-01	0	43	0	4097835008	49	4339
2026-01-29 07:18:45.88	82.89	60.25	-38.9	-41.1	19.2	5.98e-01	0	43	0	4114612224	49	4607
2026-01-29 07:18:46.89	81.42	60.49	-38.8	-41.0	19.1	5.94e-01	0	43	0	4129292288	49	4594
2026-01-29 07:18:47.90	79.93	60.71	-38.9	-40.9	19.3	5.96e-01	0	43	0	4143972352	49	4518
2026-01-29 07:18:48.91	78.41	60.92	-38.6	-40.6	19.5	6.01e-01	0	43	0	4160749568	49	4346
2026-01-29 07:18:49.92	76.87	61.11	-38.1	-40.2	19.6	5.97e-01	0	43	0	4175429632	48	4418
2026-01-29 07:18:50.92	75.32	61.28	-38.2	-40.3	19.7	5.98e-01	0	43	0	4190109696	48	4443
2026-01-29 07:18:51.93	73.73	61.44	-38.4	-40.5	19.5	5.98e-01	0	43	0	4206886912	48	4553
2026-01-29 07:18:52.93	72.14	61.58	-38.5	-40.6	19.3	5.95e-01	0	43	0	4221566976	48	4650
2026-01-29 07:18:53.94	70.52	61.69	-38.2	-40.3	19.6	5.98e-01	0	43	0	4236247040	48	4485
2026-01-29 07:18:54.95	68.88	61.79	-38.1	-40.3	19.6	5.97e-01	0	43	0	4253024256	48	4449
2026-01-29 07:18:55.95	67.25	61.87	-38.1	-40.3	19.6	5.97e-01	0	43	0	4267704320	48	4450
2026-01-29 07:18:56.96	65.59	61.93	-38.2	-40.3	19.6	5.98e-01	0	43	0	4284481536	48	4458
2026-01-29 07:18:57.97	63.93	61.96	-38.3	-40.6	19.4	5.99e-01	0	43	0	4299161600	48	4615
2026-01-29 07:18:58.97	62.28	61.98	-38.3	-40.7	19.4	6.00e-01	0	43	0	4315938816	48	4653
2026-01-29 07:18:59.98	60.61	61.98	-38.3	-40.5	19.5	5.99e-01	0	43	0	4330618880	48	4575
2026-01-29 07:19:00.99	58.94	61.95	-38.3	-40.4	19.6	5.97e-01	0	43	0	4345298944	48	4506
2026-01-29 07:19:01.99	57.30	61.91	-38.4	-40.6	19.5	5.98e-01	0	43	0	4362076160	48	4614
2026-01-29 07:19:03.00	55.64	61.84	-38.4	-40.8	19.3	6.00e-01	0	42	0	4376756224	48	4730
2026-01-29 07:19:04.01	54.00	61.76	-38.3	-40.6	19.4	5.76e-01	0	43	0	4391436288	48	4651
2026-01-29 07:19:05.01	52.38	61.66	-38.2	-40.5	19.5	5.98e-01	0	43	0	4408213504	48	4565
2026-01-29 07:19:06.02	50.77	61.53	-38.3	-40.4	19.5	5.99e-01	0	43	0	4422893568	48	4536
2026-01-29 07:19:07.03	49.17	61.39	-38.3	-40.6	19.4	6.02e-01	0	43	0	4437573632	48	4627
2026-01-29 07:19:08.04	47.59	61.23	-38.6	-40.9	19.3	5.91e-01	0	43	0	4454350848	48	4770
2026-01-29 07:19:09.05	46.03	61.05	-38.5	-40.7	19.4	5.78e-01	0	43	0	4469030912	48	4701
2026-01-29 07:19:10.05	44.51	60.85	-38.4	-40.5	19.5	5.92e-01	0	43	0	4483710976	48	4567
2026-01-29 07:19:11.06	43.00	60.64	-38.8	-41.1	19.1	5.95e-01	0	43	0	4500488192	48	4875
2026-01-29 07:19:12.07	41.52	60.41	-39.0	-41.4	18.9	5.91e-01	0	43	0	4517265408	48	5058
2026-01-29 07:19:13.08	40.07	60.16	-38.9	-41.1	19.2	5.66e-01	0	43	0	4531945472	48	4874
2026-01-29 07:19:14.09	38.64	59.90	-38.9	-41.0	19.3	5.91e-01	0	43	0	4546625536	48	4828
2026-01-29 07:19:15.09	37.26	59.63	-39.0	-41.0	19.2	5.80e-01	0	43	0	4563402752	48	4818
2026-01-29 07:19:16.10	35.90	59.34	-39.1	-41.1	19.1	5.96e-01	0	43	0	4578082816	48	4923
2026-01-29 07:19:17.11	34.56	59.04	-39.1	-41.2	19.1	5.98e-01	0	43	0	4592762880	48	4967
2026-01-29 07:19:18.12	33.26	58.72	-39.1	-41.2	19.1	5.94e-01	0	43	0	4609540096	48	4957
2026-01-29 07:19:19.13	31.99	58.40	-39.4	-41.5	18.8	5.96e-01	0	43	0	4624220160	49	4849
2026-01-29 07:19:20.14	30.75	58.06	-39.8	-42.0	18.6	6.00e-01	0	43	0	4638900224	50	4819
2026-01-29 07:19:21.15	29.54	57.72	-39.8	-42.0	18.6	5.79e-01	0	43	0	4655677440	50	4844
2026-01-29 07:19:22.15	28.38	57.37	-39.7	-41.8	18.8	5.92e-01	0	43	0	4670357504	50	4731
2026-01-29 07:19:23.16	27.23	57.00	-39.4	-41.4	19.0	5.98e-01	0	43	0	4687134720	50	4517
2026-01-29 07:19:24.17	26.12	56.63	-39.4	-41.3	19.0	5.97e-01	0	43	0	4701814784	50	4475
2026-01-29 07:19:25.18	25.04	56.26	-39.5	-41.6	18.9	5.99e-01	0	43	0	4718592000	50	4621
2026-01-29 07:19:26.19	23.98	55.87	-39.8	-42.0	18.6	6.01e-01	0	43	0	4733272064	50	4820
2026-01-29 07:19:27.20	22.96	55.48	-39.6	-41.7	18.7	5.92e-01	0	43	0	4747952128	50	4661
2026-01-29 07:19:28.20	21.97	55.09	-39.6	-41.7	18.8	5.93e-01	0	43	0	4764729344	50	4700
2026-01-29 07:19:29.21	21.01	54.69	-39.8	-42.2	18.4	5.96e-01	0	43	0	4779409408	50	4950
2026-01-29 07:19:30.22	20.07	54.28	-39.8	-42.1	18.4	5.96e-01	0	42	0	4794089472	50	4894
2026-01-29 07:19:31.23	19.15	53.87	-39.5	-41.6	18.9	5.99e-01	0	43	0	4810866688	50	4605
2026-01-29 07:19:32.24	18.27	53.46	-39.5	-41.5	18.9	5.97e-01	0	43	0	4825546752	50	4579
2026-01-29 07:19:33.25	17.40	53.04	-39.5	-41.5	18.9	5.99e-01	0	43	0	4840226816	50	4578
2026-01-29 07:19:34.25	16.58	52.63	-39.6	-41.5	18.9	5.98e-01	0	43	0	4854906880	50	4573
2026-01-29 07:19:35.26	15.76	52.21	-39.6	-41.5	19.0	5.98e-01	0	43	0	4873781248	50	4575
2026-01-29 07:19:36.26	14.98	51.79	-39.5	-41.4	19.0	5.96e-01	0	43	0	4888461312	50	4523
2026-01-29 07:19:37.27	14.22	51.37	-39.5	-41.4	19.0	5.95e-01	0	43	0	4903141376	50	4530
2026-01-29 07:19:38.28	13.47	50.94	-39.5	-41.4	19.0	5.96e-01	0	43	0	4919918592	50	4497
2026-01-29 07:19:39.28	12.76	50.52	-39.2	-41.2	19.1	5.92e-01	0	43	0	4934598656	50	4416
2026-01-29 07:19:40.29	12.05	50.10	-39.3	-41.4	19.0	5.91e-01	0	43	0	4949278720	50	4494
2026-01-29 07:19:41.29	11.38	49.68	-39.4	-41.6	18.9	5.91e-01	0	43	0	4963958784	50	4606
2026-01-29 07:19:42.30	10.72	49.25	-39.3	-41.4	19.0	5.91e-01	0	43	0	4980736000	50	4535
2026-01-29 07:19:43.31	10.07	48.83	-39.1	-41.2	19.2	5.92e-01	0	43	0	4995416064	50	4404
2026-01-29 07:19:44.32	9.44	48.41	-39.1	-41.2	19.1	5.91e-01	0	43	0	5010096128	50	4414
2026-01-29 07:19:45.33	8.84	47.98	-39.0	-41.2	19.2	5.91e-01	0	43	0	5026873344	50	4393
2026-01-29 07:19:46.34	8.24	47.56	-38.8	-40.9	19.3	5.90e-01	0	43	0	5041553408	49	4517
2026-01-29 07:19:47.35	7.67	47.14	-38.9	-40.9	19.3	5.91e-01	0	43	0	5056233472	49	4525
2026-01-29 07:19:48.35	7.11	46.73	-38.9	-40.9	19.4	5.91e-01	0	43	0	5073010688	49	4502
2026-01-29 07:19:49.36	6.57	46.31	-38.7	-40.6	19.5	5.91e-01	0	43	0	5089787904	49	4387
2026-01-29 07:19:50.37	6.04	45.90	-38.4	-40.4	19.6	5.91e-01	0	43	0	5104467968	48	4504
2026-01-29 07:19:51.38	5.52	45.49	-38.4	-40.4	19.5	5.91e-01	0	43	0	5119148032	48	4545
2026-01-29 07:19:52.39	5.02	45.08	-38.5	-40.6	19.4	5.91e-01	0	43	0	5135925248	48	4616
2026-01-29 07:19:53.39	4.54	44.68	-38.3	-40.5	19.6	5.91e-01	0	43	0	5150605312	48	4552
2026-01-29 07:19:54.40	4.06	44.27	-38.3	-40.5	19.5	5.91e-01	0	42	0	5165285376	48	4549
2026-01-29 07:19:55.41	3.60	43.87	-38.3	-40.4	19.6	5.91e-01	0	43	0	5182062592	48	4510
2026-01-29 07:19:56.41	3.15	43.47	-38.2	-40.3	19.6	5.91e-01	0	43	0	5196742656	48	4474
2026-01-29 07:19:57.42	2.71	43.08	-36.8	-38.8	19.5	5.91e-01	0	43	0	5211422720	45	4467
2026-01-29 07:19:58.43	2.28	42.68	-36.8	-38.7	19.5	5.91e-01	0	42	0	5228199936	45	4428
2026-01-29 07:19:59.44	1.86	42.29	-36.7	-38.6	19.6	5.99e-01	0	43	0	5242880000	45	4366
2026-01-29 07:20:00.45	1.46	41.91	-36.8	-38.7	19.6	5.98e-01	0	43	0	5257560064	45	4399
2026-01-29 07:20:01.45	1.06	41.52	-36.8	-38.8	19.5	5.77e-01	0	43	0	5274337280	45	4474
2026-01-29 07:20:02.46	0.67	41.14	-37.1	-39.1	19.3	6.04e-01	0	43	0	5291114496	45	4636
2026-01-29 07:20:03.47	0.30	40.76	-37.1	-39.3	19.2	5.94e-01	0	43	0	5305794560	45	4720
2026-01-29 07:20:04.48	359.93	40.39	-37.2	-39.4	19.1	6.02e-01	0	43	0	5320474624	45	4801
2026-01-29 07:20:05.49	359.57	40.02	-37.4	-39.5	19.0	6.02e-01	0	42	0	5337251840	45	4854
2026-01-29 07:20:06.50	359.22	39.65	-37.4	-39.5	19.1	6.01e-01	0	43	0	5351931904	45	4829
2026-01-29 07:20:07.50	358.88	39.29	-37.3	-39.4	19.1	6.04e-01	0	43	0	5366611968	45	4771
2026-01-29 07:20:08.51	358.54	38.92	-37.3	-39.3	19.1	6.02e-01	0	43	0	5383389184	45	4748
2026-01-29 07:20:09.52	358.21	38.57	-37.3	-39.4	19.1	6.02e-01	0	43	0	5398069248	45	4773
2026-01-29 07:20:10.53	357.89	38.21	-37.4	-39.4	19.0	6.01e-01	0	43	0	5412749312	45	4814
2026-01-29 07:20:11.54	357.58	37.86	-37.6	-39.6	19.0	6.01e-01	0	43	0	5429526528	45	4924
2026-01-29 07:20:12.55	357.28	37.51	-37.6	-39.7	18.9	5.98e-01	0	43	0	5444206592	45	4978
2026-01-29 07:20:13.55	356.98	37.17	-37.8	-39.9	18.8	6.00e-01	0	43	0	5458886656	46	4765
2026-01-29 07:20:14.56	356.69	36.82	-37.9	-40.0	18.7	6.04e-01	0	43	0	5475663872	46	4825
2026-01-29 07:20:15.57	356.40	36.48	-37.9	-39.9	18.7	6.02e-01	0	43	0	5492441088	46	4781
2026-01-29 07:20:16.58	356.13	36.15	-38.0	-40.0	18.7	5.96e-01	0	43	0	5507121152	46	4825
2026-01-29 07:20:17.59	355.85	35.82	-37.9	-39.8	18.9	5.98e-01	0	43	0	5521801216	46	4709
2026-01-29 07:20:18.60	355.58	35.49	-37.9	-39.7	18.9	6.00e-01	0	43	0	5538578432	46	4703
2026-01-29 07:20:19.61	355.32	35.16	-38.0	-39.8	18.8	5.98e-01	0	43	0	5553258496	46	4756
2026-01-29 07:20:20.61	355.07	34.84	-38.1	-39.9	18.7	5.97e-01	0	43	0	5567938560	46	4788
2026-01-29 07:20:21.62	354.82	34.52	-38.2	-40.0	18.7	6.04e-01	0	43	0	5584715776	46	4838
2026-01-29 07:20:22.63	354.57	34.21	-38.4	-40.2	18.6	6.00e-01	0	43	0	5599395840	47	4676
2026-01-29 07:20:23.64	354.33	33.89	-38.5	-40.4	18.4	6.02e-01	0	43	0	5614075904	47	4767
2026-01-29 07:20:24.65	354.10	33.58	-38.7	-40.6	18.3	6.03e-01	0	43	0	5630853120	47	4873
2026-01-29 07:20:25.65	353.87	33.28	-39.8	-41.8	18.6	5.97e-01	0	43	0	5645533184	50	4730
2026-01-29 07:20:26.66	353.64	32.97	-40.0	-42.0	18.5	5.85e-01	0	43	0	5662310400	50	4830
2026-01-29 07:20:27.67	353.42	32.67	-40.2	-42.2	18.3	5.91e-01	0	43	0	5676990464	50	4941
2026-01-29 07:20:28.68	353.21	32.38	-40.3	-42.3	18.3	5.98e-01	0	43	0	5693767680	51	4736
2026-01-29 07:20:29.69	352.99	32.08	-40.5	-42.5	18.2	6.01e-01	0	43	0	5708447744	51	4820
2026-01-29 07:20:30.70	352.79	31.79	-40.6	-42.6	18.1	6.03e-01	0	43	0	5723127808	51	4882
2026-01-29 07:20:31.71	352.58	31.50	-40.8	-42.7	17.9	6.04e-01	0	43	0	5739905024	52	4677
2026-01-29 07:20:32.71	352.38	31.22	-40.8	-42.7	18.0	5.91e-01	0	43	0	5754585088	52	4676
2026-01-29 07:20:33.72	352.19	30.94	-40.9	-42.8	17.9	6.02e-01	0	43	0	5769265152	52	4738
2026-01-29 07:20:34.73	351.99	30.66	-41.0	-42.9	17.8	6.01e-01	0	43	0	5786042368	52	4760
2026-01-29 07:20:35.74	351.80	30.38	-41.1	-43.0	17.7	6.01e-01	0	43	0	5800722432	52	4824
2026-01-29 07:20:36.75	351.62	30.10	-41.1	-43.0	17.7	6.01e-01	0	43	0	5815402496	52	4857
2026-01-29 07:20:37.75	351.44	29.83	-41.1	-43.0	17.7	5.96e-01	0	43	0	5832179712	52	4855
2026-01-29 07:20:38.76	351.26	29.57	-41.2	-43.1	17.6	5.98e-01	0	43	0	5846859776	52	4880
2026-01-29 07:20:39.77	351.08	29.30	-41.2	-43.2	17.6	5.83e-01	0	43	0	5863636992	53	4669
2026-01-29 07:20:40.77	350.91	29.04	-41.3	-43.2	17.6	5.88e-01	0	42	0	5878317056	53	4683
2026-01-29 07:20:41.78	350.74	28.78	-41.2	-43.2	17.6	5.92e-01	0	43	0	5895094272	53	4675
2026-01-29 07:20:42.79	350.58	28.52	-41.3	-43.3	17.5	5.86e-01	0	43	0	5909774336	53	4721
2026-01-29 07:20:43.79	350.41	28.27	-41.4	-43.4	17.5	5.99e-01	0	43	0	5924454400	53	4770
2026-01-29 07:20:44.80	350.25	28.01	-41.5	-43.4	17.4	6.00e-01	0	43	0	5941231616	53	4785
2026-01-29 07:20:45.81	350.10	27.76	-41.5	-43.3	17.4	6.02e-01	0	43	0	5955911680	53	4754
2026-01-29 07:20:46.81	349.94	27.52	-41.4	-43.2	17.5	6.00e-01	0	43	0	5970591744	53	4693
2026-01-29 07:20:47.82	349.79	27.27	-41.5	-43.4	17.4	6.02e-01	0	43	0	5987368960	53	4771
2026-01-29 07:20:48.83	349.64	27.03	-41.5	-43.3	17.5	5.99e-01	0	43	0	6002049024	53	4752
2026-01-29 07:20:49.84	349.49	26.79	-41.3	-43.1	17.6	6.01e-01	0	42	0	6016729088	53	4651
2026-01-29 07:20:50.85	349.35	26.55	-41.3	-43.1	17.7	6.01e-01	0	43	0	6033506304	53	4611
2026-01-29 07:20:51.85	349.21	26.32	-41.3	-43.1	17.5	6.04e-01	0	43	0	6048186368	53	4631
2026-01-29 07:20:52.86	349.07	26.08	-41.3	-43.1	17.6	5.99e-01	0	43	0	6062866432	53	4607
2026-01-29 07:20:53.87	348.93	25.85	-41.2	-43.1	17.7	5.77e-01	0	43	0	6079643648	53	4599
2026-01-29 07:20:54.88	348.79	25.62	-41.1	-42.9	17.7	5.78e-01	0	42	0	6096420864	53	4527
2026-01-29 07:20:55.89	348.66	25.40	-41.2	-42.9	17.7	5.99e-01	0	43	0	6111100928	53	4538
2026-01-29 07:20:56.89	348.53	25.17	-41.1	-42.9	17.7	5.73e-01	0	43	0	6125780992	53	4525
2026-01-29 07:20:57.90	348.40	24.95	-41.1	-42.8	17.9	5.71e-01	0	43	0	6142558208	53	4490
2026-01-29 07:20:58.91	348.28	24.73	-40.9	-42.7	17.9	5.83e-01	0	43	0	6157238272	53	4420
2026-01-29 07:20:59.91	348.15	24.51	-41.1	-42.8	17.8	5.73e-01	0	43	0	6171918336	53	4491
2026-01-29 07:21:00.92	348.03	24.30	-40.9	-42.7	17.8	5.95e-01	0	43	0	6186598400	53	4416
2026-01-29 07:21:01.93	347.91	24.08	-40.9	-42.6	18.0	5.67e-01	0	43	0	6203375616	53	4381
2026-01-29 07:21:02.94	347.79	23.87	-41.0	-42.8	17.8	5.95e-01	0	43	0	6218055680	53	4464
2026-01-29 07:21:03.94	347.67	23.66	-40.9	-42.7	17.9	5.76e-01	0	43	0	6232735744	53	4400
2026-01-29 07:21:04.95	347.56	23.45	-40.9	-42.7	17.9	5.81e-01	0	43	0	6249512960	53	4435
2026-01-29 07:21:05.95	347.44	23.25	-40.9	-42.7	17.9	5.97e-01	0	43	0	6264193024	53	4393
2026-01-29 07:21:06.96	347.33	23.05	-40.9	-42.7	17.9	6.00e-01	0	43	0	6280970240	53	4410
2026-01-29 07:21:07.97	347.22	22.84	-40.9	-42.7	17.9	5.95e-01	0	43	0	6295650304	53	4405
2026-01-29 07:21:08.97	347.11	22.64	-41.1	-42.9	17.7	6.00e-01	0	43	0	6312427520	53	4501
2026-01-29 07:21:09.98	347.01	22.45	-40.9	-42.7	17.8	6.01e-01	0	43	0	6327107584	53	4431
2026-01-29 07:21:10.99	346.90	22.25	-40.9	-42.7	17.8	5.98e-01	0	43	0	6341787648	53	4431
2026-01-29 07:21:12.00	346.80	22.05	-41.0	-42.9	17.7	5.99e-01	0	43	0	6358564864	53	4508
2026-01-29 07:21:13.01	346.69	21.86	-41.0	-42.8	17.7	5.97e-01	0	43	0	6373244928	53	4491
2026-01-29 07:21:14.02	346.59	21.67	-41.1	-43.0	17.6	5.98e-01	0	43	0	6387924992	53	4558
2026-01-29 07:21:15.03	346.49	21.48	-41.1	-43.0	17.6	5.97e-01	0	43	0	6404702208	53	4546
2026-01-29 07:21:16.03	346.40	21.29	-41.0	-42.9	17.6	5.98e-01	0	43	0	6419382272	53	4525
2026-01-29 07:21:17.04	346.30	21.11	-41.0	-42.9	17.6	5.98e-01	0	43	0	6434062336	53	4514
2026-01-29 07:21:18.05	346.21	20.92	-41.0	-43.0	17.6	5.97e-01	0	43	0	6450839552	53	4562
2026-01-29 07:21:19.06	346.11	20.74	-41.0	-43.0	17.6	5.98e-01	0	43	0	6467616768	53	4560
2026-01-29 07:21:20.07	346.02	20.55	-41.2	-43.2	17.5	5.98e-01	0	43	0	6482296832	53	4653
2026-01-29 07:21:21.08	345.93	20.37	-41.0	-43.0	17.6	5.98e-01	0	43	0	6496976896	53	4546
2026-01-29 07:21:22.09	345.84	20.20	-41.1	-43.1	17.5	5.99e-01	0	43	0	6513754112	53	4618
2026-01-29 07:21:23.10	345.75	20.02	-41.0	-43.0	17.6	5.98e-01	0	43	0	6528434176	53	4550
2026-01-29 07:21:24.10	345.66	19.84	-41.1	-43.1	17.4	5.98e-01	0	43	0	6543114240	53	4635
2026-01-29 07:21:25.11	345.57	19.67	-41.1	-43.1	17.5	6.00e-01	0	43	0	6559891456	53	4600
2026-01-29 07:21:26.12	345.49	19.50	-41.1	-43.1	17.4	5.97e-01	0	43	0	6574571520	53	4625
2026-01-29 07:21:27.13	345.41	19.33	-41.2	-43.3	17.3	5.99e-01	0	43	0	6589251584	53	4710
2026-01-29 07:21:28.13	345.32	19.16	-41.2	-43.2	17.4	5.99e-01	0	43	0	6606028800	53	4677
2026-01-29 07:21:29.14	345.24	18.99	-41.2	-43.2	17.3	5.98e-01	0	43	0	6620708864	53	4687
2026-01-29 07:21:30.15	345.16	18.82	-41.2	-43.2	17.4	5.97e-01	0	43	0	6635388928	53	4654
2026-01-29 07:21:31.16	345.08	18.66	-41.2	-43.2	17.3	5.99e-01	0	43	0	6652166144	53	4684
2026-01-29 07:21:32.17	345.00	18.49	-41.2	-43.2	17.3	5.98e-01	0	43	0	6668943360	53	4672
2026-01-29 07:21:33.17	344.92	18.33	-41.2	-43.2	17.3	5.91e-01	0	43	0	6683623424	53	4685
2026-01-29 07:21:34.18	344.85	18.17	-41.2	-43.3	17.3	5.91e-01	0	43	0	6698303488	53	4709
2026-01-29 07:21:35.19	344.77	18.01	-41.3	-43.3	17.2	5.90e-01	0	43	0	6715080704	53	4756
2026-01-29 07:21:36.20	344.70	17.85	-41.2	-43.3	17.3	5.91e-01	0	43	0	6729760768	53	4715
2026-01-29 07:21:37.21	344.62	17.69	-41.3	-43.4	17.2	5.91e-01	0	43	0	6744440832	53	4776
2026-01-29 07:21:38.22	344.55	17.54	-41.4	-43.4	17.2	5.91e-01	0	43	0	6761218048	53	4787
2026-01-29 07:21:39.23	344.48	17.38	-41.4	-43.4	17.2	5.91e-01	0	43	0	6775898112	53	4789
2026-01-29 07:21:40.24	344.41	17.23	-41.3	-43.4	17.2	5.91e-01	0	43	0	6790578176	53	4768
2026-01-29 07:21:41.25	344.34	17.07	-41.4	-43.4	17.2	5.91e-01	0	43	0	6807355392	53	4811
2026-01-29 07:21:42.26	344.27	16.92	-41.4	-43.4	17.1	5.91e-01	0	43	0	6824132608	53	4809
2026-01-29 07:21:43.26	344.20	16.77	-41.6	-43.6	17.0	5.90e-01	0	43	0	6838812672	53	4919
2026-01-29 07:21:44.27	344.13	16.62	-42.6	-43.4	17.1	5.92e-01	0	43	0	6853492736	56	4046
2026-01-29 07:21:45.27	344.07	16.48	-42.7	-43.5	17.0	5.91e-01	0	43	0	6870269952	56	4085
2026-01-29 07:21:46.28	344.00	16.33	-53.7	-62.6	3.8	7.44e-01	0	43	104	6876561408	77	10981
2026-01-29 07:21:47.28	343.94	16.19	-53.7	-62.5	3.8	7.45e-01	0	43	104	6876561408	77	10890
2026-01-29 07:21:48.29	343.87	16.04	-53.7	-62.5	3.8	7.46e-01	0	42	104	6876561408	77	10895
2026-01-29 07:21:49.31	343.81	15.90	-53.7	-62.5	3.8	7.44e-01	0	43	104	6876561408	77	10823
2026-01-29 07:21:50.31	343.75	15.75	-53.7	-62.5	3.8	7.47e-01	0	43	104	6876561408	78	10239
2026-01-29 07:21:51.33	343.68	15.61	-53.7	-62.5	3.8	7.45e-01	0	42	104	6876561408	78	10230
2026-01-29 07:21:52.33	343.62	15.47	-53.7	-62.5	3.8	7.46e-01	0	43	104	6876561408	78	10207
2026-01-29 07:21:53.34	343.56	15.33	-53.7	-62.5	3.8	7.45e-01	0	43	104	6876561408	78	10207
2026-01-29 07:21:54.34	343.50	15.19	-53.6	-62.4	3.8	7.45e-01	0	43	104	6876561408	78	10152
2026-01-29 07:21:55.35	343.44	15.06	-53.6	-62.5	3.8	7.46e-01	0	43	104	6876561408	78	10180
2026-01-29 07:21:56.36	343.38	14.92	-53.6	-62.5	3.8	7.45e-01	0	43	104	6876561408	78	10193
2026-01-29 07:21:57.37	343.33	14.78	-53.6	-62.4	3.8	7.45e-01	0	43	104	6876561408	78	10175
2026-01-29 07:21:58.37	343.27	14.65	-53.6	-62.4	3.8	7.44e-01	0	43	104	6876561408	78	10125
2026-01-29 07:21:59.37	343.21	14.52	-53.6	-62.4	3.8	7.45e-01	0	43	104	6876561408	78	10107
2026-01-29 07:22:00.39	343.16	14.38	-53.6	-62.4	3.8	7.46e-01	0	43	104	6876561408	78	10121
2026-01-29 07:22:01.40	343.10	14.25	-53.6	-62.4	3.8	7.46e-01	0	43	104	6876561408	78	10103
2026-01-29 07:22:02.40	343.05	14.12	-53.6	-62.4	3.8	7.46e-01	0	43	104	6876561408	78	10095
2026-01-29 07:22:03.41	342.99	13.99	-53.5	-62.4	3.8	7.44e-01	0	43	104	6876561408	78	10076
2026-01-29 07:22:04.42	342.94	13.86	-53.5	-62.4	3.8	7.47e-01	0	43	104	6876561408	78	10097
2026-01-29 07:22:05.43	342.89	13.73	-53.5	-62.3	3.8	7.45e-01	0	43	104	6876561408	78	10018
2026-01-29 07:22:06.43	342.84	13.61	-53.5	-62.3	3.8	7.47e-01	0	43	104	6876561408	78	10041
2026-01-29 07:22:07.44	342.78	13.48	-53.5	-62.3	3.8	7.45e-01	0	43	104	6876561408	78	10030
2026-01-29 07:22:08.45	342.73	13.35	-53.5	-62.3	3.8	7.45e-01	0	43	104	6876561408	78	10031
2026-01-29 07:22:09.46	342.68	13.23	-53.5	-62.3	3.8	7.44e-01	0	43	104	6876561408	78	10019
2026-01-29 07:22:10.46	342.63	13.11	-53.5	-62.3	3.8	7.45e-01	0	43	104	6876561408	78	9972
2026-01-29 07:22:11.47	342.58	12.98	-53.5	-62.3	3.8	7.45e-01	0	43	104	6876561408	78	10025
2026-01-29 07:22:12.48	342.53	12.86	-53.5	-62.3	3.8	7.45e-01	0	43	104	6876561408	78	9985
2026-01-29 07:22:13.49	342.49	12.74	-53.4	-62.3	3.8	7.46e-01	0	43	104	6876561408	78	9980
2026-01-29 07:22:14.49	342.44	12.62	-53.4	-62.3	3.8	7.45e-01	0	43	104	6876561408	78	9945
2026-01-29 07:22:15.50	342.39	12.50	-53.4	-62.3	3.8	7.46e-01	0	43	104	6876561408	78	9959
2026-01-29 07:22:16.51	342.34	12.38	-53.4	-62.2	3.8	7.45e-01	0	43	104	6876561408	78	9942
2026-01-29 07:22:17.51	342.30	12.26	-53.4	-62.2	3.8	7.46e-01	0	43	104	6876561408	78	9901
2026-01-29 07:22:18.52	342.25	12.14	-53.4	-62.2	3.8	7.45e-01	0	43	104	6876561408	78	9918
2026-01-29 07:22:19.52	342.21	12.03	-53.4	-62.2	3.8	7.47e-01	0	43	104	6876561408	78	9903
2026-01-29 07:22:20.53	342.16	11.91	-53.4	-62.2	3.8	7.47e-01	0	43	104	6876561408	78	9898
2026-01-29 07:22:21.54	342.12	11.80	-53.4	-62.2	3.8	7.45e-01	0	43	104	6876561408	78	9844
2026-01-29 07:22:22.55	342.07	11.68	-53.3	-62.1	3.8	7.45e-01	0	43	104	6876561408	78	9817
2026-01-29 07:22:23.56	342.03	11.57	-53.4	-62.2	3.8	7.45e-01	0	43	104	6876561408	78	9901
2026-01-29 07:22:24.57	341.99	11.45	-53.4	-62.2	3.8	7.45e-01	0	43	104	6876561408	78	9833
2026-01-29 07:22:25.58	341.94	11.34	-53.3	-62.1	3.8	7.46e-01	0	43	104	6876561408	78	9801
2026-01-29 07:22:26.58	341.90	11.23	-53.3	-62.1	3.8	7.44e-01	0	42	104	6876561408	78	9830
2026-01-29 07:22:27.59	341.86	11.12	-53.3	-62.2	3.8	7.45e-01	0	43	104	6876561408	78	9834
2026-01-29 07:22:28.60	341.82	11.00	-53.3	-62.1	3.8	7.45e-01	0	43	104	6876561408	78	9783
2026-01-29 07:22:29.61	341.78	10.89	-53.3	-62.1	3.8	7.45e-01	0	43	104	6876561408	78	9777
2026-01-29 07:22:30.61	341.74	10.79	-53.3	-62.1	3.8	7.44e-01	0	43	104	6876561408	78	9757
2026-01-29 07:22:31.62	341.70	10.68	-53.3	-62.1	3.8	7.45e-01	0	43	104	6876561408	78	9786
2026-01-29 07:22:32.63	341.66	10.57	-53.3	-62.1	3.8	7.46e-01	0	43	104	6876561408	78	9761
2026-01-29 07:22:33.64	341.62	10.46	-53.2	-62.1	3.8	7.45e-01	0	43	104	6876561408	78	9756
2026-01-29 07:22:34.64	341.58	10.35	-53.2	-62.0	3.8	7.46e-01	0	43	104	6876561408	78	9709
2026-01-29 07:22:35.65	341.54	10.25	-53.3	-62.1	3.8	7.45e-01	0	42	104	6876561408	78	9742
2026-01-29 07:22:36.66	341.50	10.14	-53.2	-62.0	3.8	7.44e-01	0	43	104	6876561408	78	9711
2026-01-29 07:22:37.66	341.47	10.04	-53.2	-62.0	3.8	7.45e-01	0	43	104	6876561408	78	9663
2026-01-29 07:22:38.67	341.43	9.93	-53.2	-62.0	3.8	7.45e-01	0	43	104	6876561408	78	9641
2026-01-29 07:22:39.68	341.39	9.83	-53.2	-62.0	3.8	7.45e-01	0	42	104	6876561408	78	9687
2026-01-29 07:22:40.69	341.35	9.72	-53.2	-62.0	3.8	7.46e-01	0	43	104	6876561408	78	9661
2026-01-29 07:22:41.69	341.32	9.62	-53.2	-62.0	3.8	7.46e-01	0	43	104	6876561408	78	9626
2026-01-29 07:22:42.69	341.28	9.52	-53.1	-61.9	3.8	7.45e-01	0	43	104	6876561408	78	9564
2026-01-29 07:22:43.70	341.25	9.42	-53.2	-62.0	3.8	7.44e-01	0	43	104	6876561408	78	9671
2026-01-29 07:22:44.70	341.21	9.32	-53.1	-62.0	3.8	7.45e-01	0	43	104	6876561408	78	9621
2026-01-29 07:22:45.71	341.18	9.22	-53.1	-61.9	3.8	7.46e-01	0	42	104	6876561408	78	9570
2026-01-29 07:22:46.72	341.14	9.12	-53.1	-61.9	3.8	7.45e-01	0	43	104	6876561408	78	9570
2026-01-29 07:22:47.72	341.11	9.02	-53.1	-62.0	3.8	7.44e-01	0	43	104	6876561408	78	9652
2026-01-29 07:22:48.73	341.07	8.92	-53.1	-62.0	3.8	7.46e-01	0	43	104	6876561408	78	9635
2026-01-29 07:22:49.74	341.04	8.82	-53.1	-61.9	3.8	7.44e-01	0	43	104	6876561408	78	9511
2026-01-29 07:22:50.75	341.01	8.72	-53.0	-61.9	3.8	7.46e-01	0	43	104	6876561408	78	9522
2026-01-29 07:22:51.76	340.97	8.62	-53.1	-62.0	3.8	7.45e-01	0	43	104	6876561408	78	9616
2026-01-29 07:22:52.77	340.94	8.53	-53.1	-61.9	3.8	7.46e-01	0	43	104	6876561408	78	9505
2026-01-29 07:22:53.77	340.91	8.43	-53.0	-61.9	3.8	7.46e-01	0	43	104	6876561408	78	9530
2026-01-29 07:22:54.78	340.88	8.33	-53.0	-61.8	3.8	7.44e-01	0	43	104	6876561408	78	9443
2026-01-29 07:22:55.78	340.85	8.24	-53.1	-61.9	3.8	7.45e-01	0	43	104	6876561408	78	9529
2026-01-29 07:22:56.79	340.81	8.14	-53.0	-61.8	3.8	7.45e-01	0	43	104	6876561408	78	9492
2026-01-29 07:22:57.79	340.78	8.05	-53.0	-61.8	3.8	7.45e-01	0	43	104	6876561408	78	9447
2026-01-29 07:22:58.80	340.75	7.95	-52.9	-61.7	3.8	7.46e-01	0	43	104	6876561408	77	9934
2026-01-29 07:22:59.80	340.72	7.86	-53.0	-61.8	3.8	7.43e-01	0	43	104	6876561408	77	10042
2026-01-29 07:23:00.80	340.69	7.77	-53.0	-61.8	3.8	7.45e-01	0	43	104	6876561408	77	9991
2026-01-29 07:23:01.81	340.66	7.68	-52.9	-61.7	3.8	7.45e-01	0	42	104	6876561408	77	9931
2026-01-29 07:23:02.82	340.63	7.58	-52.9	-61.7	3.8	7.45e-01	0	43	104	6876561408	77	9881
2026-01-29 07:23:03.83	340.60	7.49	-53.0	-61.8	3.8	7.44e-01	0	43	104	6876561408	77	10001
2026-01-29 07:23:04.84	340.57	7.40	-52.9	-61.7	3.8	7.43e-01	0	42	104	6876561408	77	9942
2026-01-29 07:23:05.85	340.54	7.31	-52.9	-61.7	3.8	7.46e-01	0	42	104	6876561408	77	9884
2026-01-29 07:23:06.85	340.52	7.22	-52.8	-61.6	3.8	7.44e-01	0	43	104	6876561408	77	9802
2026-01-29 07:23:07.86	340.49	7.13	-52.9	-61.8	3.8	7.46e-01	0	43	104	6876561408	77	9950
2026-01-29 07:23:08.87	340.46	7.04	-52.9	-61.7	3.8	7.47e-01	0	43	104	6876561408	77	9886
2026-01-29 07:23:09.87	340.43	6.95	-52.8	-61.6	3.8	7.45e-01	0	42	104	6876561408	77	9818
2026-01-29 07:23:10.88	340.40	6.86	-52.8	-61.6	3.8	7.47e-01	0	43	104	6876561408	77	9756
2026-01-29 07:23:11.89	340.37	6.77	-52.9	-61.7	3.8	7.44e-01	0	43	104	6876561408	77	9873
2026-01-29 07:23:12.90	340.35	6.68	-52.8	-61.6	3.8	7.45e-01	0	43	104	6876561408	77	9813
2026-01-29 07:23:13.90	340.32	6.60	-52.8	-61.6	3.8	7.46e-01	0	43	104	6876561408	77	9770
2026-01-29 07:23:14.91	340.29	6.51	-52.7	-61.6	3.8	7.44e-01	0	43	104	6876561408	77	9722
2026-01-29 07:23:15.92	340.27	6.42	-52.9	-61.7	3.8	7.44e-01	0	43	104	6876561408	77	9897
2026-01-29 07:23:16.92	340.24	6.33	-52.8	-61.6	3.8	7.46e-01	0	43	104	6876561408	77	9802
2026-01-29 07:23:17.93	340.22	6.25	-52.7	-61.5	3.8	7.45e-01	0	43	104	6876561408	77	9673
2026-01-29 07:23:18.94	340.19	6.16	-52.7	-61.5	3.8	7.44e-01	0	43	104	6876561408	77	9658
2026-01-29 07:23:19.95	340.16	6.08	-52.8	-61.6	3.8	7.44e-01	0	43	104	6876561408	77	9805
2026-01-29 07:23:20.96	340.14	5.99	-52.7	-61.6	3.8	7.45e-01	0	43	104	6876561408	77	9728
2026-01-29 07:23:21.97	340.11	5.91	-52.7	-61.5	3.8	7.46e-01	0	43	104	6876561408	77	9643
2026-01-29 07:23:22.98	340.09	5.82	-52.6	-61.4	3.8	7.46e-01	0	43	104	6876561408	77	9581
2026-01-29 07:23:23.98	340.06	5.74	-52.7	-61.6	3.8	7.45e-01	0	42	104	6876561408	77	9766
2026-01-29 07:23:24.98	340.04	5.65	-52.7	-61.5	3.8	7.44e-01	0	43	104	6876561408	77	9612
2026-01-29 07:23:25.99	340.01	5.57	-52.6	-61.4	3.8	7.47e-01	0	43	104	6876561408	77	9604
2026-01-29 07:23:27.00	339.99	5.49	-52.5	-61.4	3.8	7.46e-01	0	43	104	6876561408	77	9505
2026-01-29 07:23:28.01	339.97	5.41	-52.7	-61.5	3.8	7.46e-01	0	43	104	6876561408	77	9671
2026-01-29 07:23:29.01	339.94	5.32	-52.6	-61.5	3.8	7.45e-01	0	43	104	6876561408	77	9614
2026-01-29 07:23:30.02	339.92	5.24	-52.5	-61.4	3.8	7.44e-01	0	43	104	6876561408	77	9518
2026-01-29 07:23:31.03	339.90	5.16	-52.5	-61.3	3.8	7.45e-01	0	43	104	6876561408	76	10012
2026-01-29 07:23:32.03	339.87	5.08	-52.6	-61.5	3.8	7.46e-01	0	43	104	6876561408	76	10213
2026-01-29 07:23:33.04	339.85	5.00	-52.5	-61.4	3.8	7.45e-01	0	43	104	6876561408	76	10081
2026-01-29 07:23:34.05	339.83	4.92	-52.8	-61.6	3.8	7.46e-01	0	43	104	6876561408	76	10394
2026-01-29 07:23:35.05	339.80	4.84	-53.2	-62.0	3.8	7.46e-01	0	43	104	6876561408	76	10891
2026-01-29 07:23:36.05	339.78	4.76	-53.6	-62.4	3.8	7.47e-01	0	43	104	6876561408	77	10698
2026-01-29 07:23:37.06	339.76	4.68	-53.8	-62.6	3.8	7.47e-01	0	43	104	6876561408	78	10366
2026-01-29 07:23:38.07	339.74	4.60	-54.0	-62.8	3.8	7.46e-01	0	43	104	6876561408	78	10586
2026-01-29 07:23:39.07	339.72	4.52	-54.1	-62.9	3.8	7.46e-01	0	42	104	6876561408	78	10686
2026-01-29 07:23:40.08	339.69	4.44	-54.2	-63.0	3.8	7.46e-01	0	43	104	6876561408	78	10884
2026-01-29 07:23:41.09	339.67	4.36	-54.3	-63.0	3.8	7.44e-01	0	43	104	6876561408	79	10292
2026-01-29 07:23:42.10	339.65	4.28	-54.3	-63.1	3.8	7.45e-01	0	42	104	6876561408	79	10341
2026-01-29 07:23:43.10	339.63	4.21	-54.3	-63.1	3.8	7.46e-01	0	43	104	6876561408	79	10332
2026-01-29 07:23:44.11	339.61	4.13	-54.2	-63.1	3.8	7.45e-01	0	43	104	6876561408	79	10323
2026-01-29 07:23:45.12	339.59	4.05	-54.2	-63.1	3.8	7.44e-01	0	43	104	6876561408	79	10303
2026-01-29 07:23:46.12	339.57	3.98	-54.1	-63.0	3.8	7.46e-01	0	43	104	6876561408	79	10182
2026-01-29 07:23:47.13	339.55	3.90	-54.0	-62.8	3.8	7.45e-01	0	43	104	6876561408	79	10006
2026-01-29 07:23:48.13	339.53	3.82	-53.9	-62.8	3.8	7.46e-01	0	43	104	6876561408	79	9946
2026-01-29 07:23:49.14	339.51	3.75	-53.9	-62.8	3.8	7.45e-01	0	43	104	6876561408	79	9973
2026-01-29 07:23:50.15	339.49	3.67	-54.0	-62.8	3.8	7.45e-01	0	43	104	6876561408	79	9988
2026-01-29 07:23:51.16	339.47	3.59	-54.0	-62.9	3.8	7.45e-01	0	43	104	6876561408	79	10075
2026-01-29 07:23:52.16	339.45	3.52	-54.0	-62.9	3.8	7.45e-01	0	43	104	6876561408	79	10074
2026-01-29 07:23:53.17	339.43	3.44	-54.0	-62.9	3.8	7.46e-01	0	43	104	6876561408	79	10115
2026-01-29 07:23:54.18	339.41	3.37	-54.1	-62.9	3.8	7.47e-01	0	43	104	6876561408	79	10105
2026-01-29 07:23:55.19	339.39	3.29	-54.0	-62.9	3.8	7.45e-01	0	43	104	6876561408	79	10075
2026-01-29 07:23:56.19	339.37	3.22	-54.0	-62.8	3.8	7.45e-01	0	43	104	6876561408	79	9993
2026-01-29 07:23:57.20	339.35	3.15	-54.0	-62.8	3.8	7.44e-01	0	43	104	6876561408	79	9960
2026-01-29 07:23:58.21	339.33	3.07	-53.9	-62.8	3.8	7.44e-01	0	43	104	6876561408	79	9971
2026-01-29 07:23:59.22	339.31	3.00	-53.9	-62.8	3.8	7.45e-01	0	43	104	6876561408	79	9967
2026-01-29 07:24:00.23	339.30	2.93	-53.9	-62.8	3.8	7.46e-01	0	43	104	6876561408	79	9950
2026-01-29 07:24:01.24	339.28	2.85	-53.9	-62.8	3.8	7.45e-01	0	43	104	6876561408	79	9947
2026-01-29 07:24:02.25	339.26	2.78	-53.9	-62.7	3.8	7.45e-01	0	43	104	6876561408	79	9927
2026-01-29 07:24:03.25	339.24	2.71	-53.9	-62.7	3.8	7.45e-01	0	43	104	6876561408	79	9915
2026-01-29 07:24:04.26	339.22	2.64	-53.9	-62.7	3.8	7.46e-01	0	43	104	6876561408	79	9922
2026-01-29 07:24:05.26	339.21	2.56	-53.9	-62.8	3.8	7.46e-01	0	43	104	6876561408	79	9945
2026-01-29 07:24:06.26	339.19	2.49	-53.9	-62.7	3.8	7.45e-01	0	43	104	6876561408	79	9915
2026-01-29 07:24:07.27	339.17	2.42	-53.9	-62.7	3.8	7.44e-01	0	43	104	6876561408	79	9875
2026-01-29 07:24:08.28	339.15	2.35	-53.9	-62.7	3.8	7.44e-01	0	43	104	6876561408	79	9855
2026-01-29 07:24:09.29	339.14	2.28	-53.8	-62.7	3.8	7.46e-01	0	43	104	6876561408	79	9857
2026-01-29 07:24:10.29	339.12	2.21	-53.8	-62.7	3.8	7.45e-01	0	43	104	6876561408	79	9876
2026-01-29 07:24:11.30	339.10	2.14	-53.8	-62.7	3.8	7.45e-01	0	43	104	6876561408	79	9851
2026-01-29 07:24:12.31	339.09	2.07	-53.8	-62.7	3.8	7.45e-01	0	43	104	6876561408	79	9854
2026-01-29 07:24:13.32	339.07	2.00	-53.8	-62.7	3.8	7.46e-01	0	43	104	6876561408	79	9864
2026-01-29 07:24:14.33	339.05	1.93	-53.8	-62.7	3.8	7.46e-01	0	43	104	6876561408	79	9847

#Closed at: 2026-01-29 07:24:14
#Recorded file [6876 MB]: D:/lorett/data/31041_260129_101348.dat