passes_logs/2026/01/29/R3.2S_Murmansk/R3.2S_Murmansk__20260129_064728_SUOMI_NPP_rec.log

#Pass ID: 20260129_064728_SUOMI NPP
#Satellite: SUOMI NPP
#Configuration: NPP
#almurnet v.1.7.20251203
#Start time: 2026-01-29 06:47:28

#Version: 2.2.20231116
#Station: R3.2S_Murmansk
#Location: 33.079688 lon 68.888172 lat
#TLE: 1 37849U 11061A   26027.93236865  .00000148  00000+0  91411-4 0  9991
#TLE: 2 37849  98.7823 329.8704 0002085  41.3231 318.8102 14.19530777738546

#Time	Az	El	Level	Level2	SNR	BER	BlckErr	Temp	State	Recorded	gain1	gain2
2026-01-29 06:47:28.05	89.23	1.96	-53.9	-68.9	3.8	1.49e+00	0	40	0	0	78	21308
2026-01-29 06:47:29.04	89.18	2.02	-54.0	-69.0	3.8	1.49e+00	0	39	104	0	78	21602
2026-01-29 06:47:30.05	89.13	2.08	-53.9	-68.9	3.8	1.49e+00	0	40	104	0	78	21404
2026-01-29 06:47:31.06	89.07	2.14	-53.9	-68.9	3.8	1.49e+00	0	40	104	0	78	21365
2026-01-29 06:47:32.07	89.02	2.20	-53.9	-68.9	3.8	1.49e+00	0	40	104	0	78	21455
2026-01-29 06:47:33.07	88.96	2.26	-53.9	-68.9	3.8	1.49e+00	0	40	104	0	78	21343
2026-01-29 06:47:34.08	88.90	2.32	-53.9	-68.9	3.8	1.49e+00	0	40	104	0	78	21290
2026-01-29 06:47:35.09	88.85	2.38	-53.9	-68.9	3.8	1.49e+00	0	40	104	0	78	21273
2026-01-29 06:47:36.10	88.79	2.44	-53.8	-68.9	3.8	1.49e+00	0	40	104	0	78	21311
2026-01-29 06:47:37.11	88.74	2.50	-54.0	-69.0	3.8	1.49e+00	0	40	104	0	78	21612
2026-01-29 06:47:38.12	88.68	2.56	-54.1	-69.1	3.8	1.49e+00	0	40	104	0	78	21805
2026-01-29 06:47:39.13	88.62	2.62	-54.1	-69.1	3.8	1.49e+00	0	40	104	0	78	21851
2026-01-29 06:47:40.13	88.56	2.68	-54.1	-69.1	3.8	1.49e+00	0	40	104	0	78	21959
2026-01-29 06:47:41.14	88.51	2.74	-54.1	-69.2	3.8	1.49e+00	0	40	104	0	79	20785
2026-01-29 06:47:42.15	88.45	2.80	-54.1	-69.1	3.8	1.49e+00	0	40	104	0	79	20687
2026-01-29 06:47:43.16	88.39	2.86	-54.1	-69.1	3.8	1.49e+00	0	40	104	0	79	20611
2026-01-29 06:47:44.17	88.33	2.92	-54.0	-69.0	3.8	1.49e+00	0	40	104	0	79	20532
2026-01-29 06:47:45.17	88.27	2.98	-54.0	-69.0	3.8	1.49e+00	0	40	104	0	79	20361
2026-01-29 06:47:46.18	88.21	3.04	-54.0	-68.9	3.8	1.49e+00	0	40	104	0	79	20292
2026-01-29 06:47:47.19	88.16	3.11	-53.9	-68.9	3.8	1.49e+00	0	40	104	0	79	20088
2026-01-29 06:47:48.19	88.10	3.17	-53.8	-68.8	3.8	1.49e+00	0	40	104	0	79	20006
2026-01-29 06:47:49.20	88.04	3.23	-53.8	-68.8	3.8	1.49e+00	0	40	104	0	79	19962
2026-01-29 06:47:50.21	87.98	3.29	-53.8	-68.7	3.8	1.49e+00	0	40	104	0	79	19793
2026-01-29 06:47:51.22	87.92	3.35	-53.6	-68.6	3.8	1.49e+00	0	40	104	0	79	19590
2026-01-29 06:47:52.23	87.86	3.41	-53.6	-68.5	3.8	1.49e+00	0	40	104	0	79	19372
2026-01-29 06:47:53.23	87.80	3.47	-53.3	-68.3	3.8	1.49e+00	0	40	104	0	78	20056
2026-01-29 06:47:54.24	87.74	3.54	-53.2	-68.1	3.8	1.49e+00	0	40	104	0	78	19524
2026-01-29 06:47:55.25	87.67	3.60	-52.9	-67.8	3.8	1.49e+00	0	40	104	0	77	20037
2026-01-29 06:47:56.26	87.61	3.66	-52.6	-67.6	3.8	1.49e+00	0	40	104	0	77	19435
2026-01-29 06:47:57.27	87.55	3.72	-52.2	-67.2	3.8	1.49e+00	0	40	104	0	76	19765
2026-01-29 06:47:58.27	87.49	3.78	-52.1	-67.0	3.8	1.49e+00	0	40	104	0	76	19295
2026-01-29 06:47:59.28	87.43	3.85	-52.0	-66.9	3.8	1.49e+00	0	41	104	0	76	19065
2026-01-29 06:48:00.29	87.36	3.91	-51.9	-66.6	3.8	1.49e+00	0	40	104	0	75	19393
2026-01-29 06:48:01.30	87.30	3.97	-51.8	-65.9	3.8	1.49e+00	0	41	104	0	75	18084
2026-01-29 06:48:02.31	87.24	4.04	-51.8	-65.1	3.8	1.49e+00	0	40	104	0	75	16495
2026-01-29 06:48:03.32	87.17	4.10	-51.7	-64.2	3.8	1.48e+00	0	41	104	0	75	14790
2026-01-29 06:48:04.33	87.11	4.16	-51.6	-62.7	4.3	1.39e+00	152	40	0	0	75	12458
2026-01-29 06:48:05.33	87.05	4.22	-51.5	-62.0	4.6	1.18e+00	0	41	0	1048576	75	11433
2026-01-29 06:48:06.34	86.98	4.29	-51.4	-61.1	5.1	7.77e-01	0	41	0	3145728	74	10950
2026-01-29 06:48:07.35	86.92	4.35	-51.4	-61.0	5.2	6.62e-01	0	41	0	5242880	74	10835
2026-01-29 06:48:08.36	86.85	4.41	-51.5	-61.3	5.0	7.08e-01	0	41	0	7340032	74	11242
2026-01-29 06:48:09.37	86.79	4.48	-51.5	-61.6	4.8	8.04e-01	0	41	0	9437184	74	11671
2026-01-29 06:48:10.37	86.72	4.54	-51.5	-62.2	4.5	9.27e-01	5	41	0	11534336	74	12518
2026-01-29 06:48:11.38	86.66	4.61	-51.6	-62.9	4.3	1.13e+00	43	41	0	12582912	74	13450
2026-01-29 06:48:12.39	86.59	4.67	-51.6	-62.4	4.5	1.17e+00	57	41	0	13631488	74	12722
2026-01-29 06:48:13.39	86.52	4.73	-51.5	-61.6	4.8	8.95e-01	0	41	0	15728640	74	11636
2026-01-29 06:48:14.40	86.46	4.80	-51.3	-60.1	5.7	6.91e-01	0	41	0	17825792	74	9747
2026-01-29 06:48:15.41	86.39	4.86	-51.0	-58.6	6.9	2.88e-01	0	41	0	19922944	74	8198
2026-01-29 06:48:16.42	86.32	4.93	-50.7	-57.1	8.3	7.72e-02	0	41	0	22020096	73	7328
2026-01-29 06:48:17.43	86.25	4.99	-50.4	-56.2	9.3	2.40e-02	0	41	0	23068672	72	7003
2026-01-29 06:48:18.43	86.19	5.05	-50.4	-56.0	9.5	1.23e-02	0	41	0	25165824	72	6839
2026-01-29 06:48:19.44	86.12	5.12	-50.9	-57.9	7.7	5.31e-02	0	41	0	27262976	72	8507
2026-01-29 06:48:20.45	86.05	5.18	-50.9	-57.6	7.7	6.42e-01	0	41	0	29360128	73	7723
2026-01-29 06:48:21.45	85.98	5.25	-48.9	-52.2	13.2	1.55e-02	0	41	0	31457280	69	5230
2026-01-29 06:48:22.46	85.91	5.31	-49.8	-54.1	12.2	0.00e+00	0	41	0	32505856	69	6514
2026-01-29 06:48:23.47	85.84	5.38	-51.0	-58.4	4.7	1.49e+00	0	41	104	33554432	74	8069
2026-01-29 06:48:24.48	85.77	5.44	-48.3	-51.1	14.8	7.00e-07	0	41	0	33554432	68	4881
2026-01-29 06:48:25.49	85.70	5.51	-48.1	-50.7	15.2	0.00e+00	0	41	0	35651584	68	4669
2026-01-29 06:48:26.49	85.63	5.58	-48.3	-51.1	14.8	7.00e-07	0	41	0	37748736	68	4903
2026-01-29 06:48:27.50	85.56	5.64	-48.2	-50.9	14.9	0.00e+00	0	41	0	39845888	68	4807
2026-01-29 06:48:28.51	85.49	5.71	-48.1	-50.8	15.1	0.00e+00	0	41	0	41943040	68	4741
2026-01-29 06:48:29.51	85.42	5.77	-48.2	-50.9	15.0	0.00e+00	0	41	0	42991616	68	4793
2026-01-29 06:48:30.51	85.35	5.84	-48.3	-51.0	15.0	7.00e-07	0	41	0	45088768	68	4852
2026-01-29 06:48:31.52	85.28	5.90	-48.0	-50.6	15.3	0.00e+00	0	41	0	47185920	67	4913
2026-01-29 06:48:32.53	85.20	5.97	-48.2	-51.0	14.9	7.00e-07	0	41	0	49283072	67	5140
2026-01-29 06:48:33.54	85.13	6.04	-48.2	-51.0	15.0	7.00e-07	0	41	0	51380224	67	5115
2026-01-29 06:48:34.54	85.06	6.10	-48.1	-50.7	15.1	0.00e+00	0	41	0	52428800	67	4972
2026-01-29 06:48:35.54	84.98	6.17	-48.1	-50.9	15.0	0.00e+00	0	41	0	54525952	67	5049
2026-01-29 06:48:36.55	84.91	6.24	-48.1	-50.8	15.1	0.00e+00	0	41	0	56623104	67	5036
2026-01-29 06:48:37.56	84.84	6.30	-48.0	-50.6	15.3	0.00e+00	0	41	0	58720256	67	4891
2026-01-29 06:48:38.57	84.76	6.37	-48.1	-50.8	15.0	0.00e+00	0	41	0	60817408	67	5039
2026-01-29 06:48:39.57	84.69	6.44	-47.8	-50.5	15.3	0.00e+00	0	41	0	61865984	67	4848
2026-01-29 06:48:40.58	84.61	6.50	-47.9	-50.7	15.2	0.00e+00	0	41	0	63963136	67	4949
2026-01-29 06:48:41.58	84.54	6.57	-47.6	-50.2	15.7	0.00e+00	0	41	0	66060288	67	4667
2026-01-29 06:48:42.59	84.46	6.64	-47.8	-50.5	15.5	0.00e+00	0	41	0	68157440	67	4825
2026-01-29 06:48:43.60	84.38	6.71	-47.8	-50.5	15.4	0.00e+00	0	41	0	70254592	67	4837
2026-01-29 06:48:44.61	84.31	6.77	-47.7	-50.3	15.7	0.00e+00	0	41	0	71303168	67	4715
2026-01-29 06:48:45.61	84.23	6.84	-47.7	-50.3	15.6	0.00e+00	0	41	0	73400320	67	4721
2026-01-29 06:48:46.62	84.15	6.91	-47.6	-50.1	15.8	0.00e+00	0	41	0	75497472	67	4609
2026-01-29 06:48:47.63	84.07	6.98	-47.4	-49.9	16.0	0.00e+00	0	41	0	77594624	66	4762
2026-01-29 06:48:48.63	84.00	7.05	-47.6	-50.1	15.8	0.00e+00	0	41	0	79691776	66	4901
2026-01-29 06:48:49.64	83.92	7.11	-47.4	-49.8	16.1	0.00e+00	0	41	0	80740352	66	4719
2026-01-29 06:48:50.65	83.84	7.18	-47.5	-49.9	16.1	0.00e+00	0	41	0	82837504	66	4779
2026-01-29 06:48:51.66	83.76	7.25	-47.6	-50.0	16.0	0.00e+00	0	41	0	84934656	66	4847
2026-01-29 06:48:52.67	83.68	7.32	-47.1	-49.4	16.5	0.00e+00	0	41	0	87031808	66	4518
2026-01-29 06:48:53.67	83.60	7.39	-47.1	-49.4	16.5	0.00e+00	0	41	0	89128960	66	4528
2026-01-29 06:48:54.68	83.52	7.46	-46.9	-49.0	16.9	0.00e+00	0	41	0	90177536	65	4575
2026-01-29 06:48:55.69	83.44	7.53	-46.8	-48.9	17.0	0.00e+00	0	41	0	92274688	65	4494
2026-01-29 06:48:56.70	83.35	7.60	-46.9	-49.0	16.8	0.00e+00	0	41	0	94371840	65	4583
2026-01-29 06:48:57.70	83.27	7.67	-46.8	-48.9	17.0	0.00e+00	0	41	0	96468992	65	4523
2026-01-29 06:48:58.71	83.19	7.74	-46.8	-48.9	17.0	0.00e+00	0	41	0	98566144	65	4534
2026-01-29 06:48:59.71	83.11	7.81	-46.7	-48.8	17.1	0.00e+00	0	41	0	99614720	65	4466
2026-01-29 06:49:00.72	83.03	7.88	-46.8	-49.0	17.0	0.00e+00	0	41	0	101711872	65	4547
2026-01-29 06:49:01.73	82.94	7.95	-46.8	-49.0	17.0	0.00e+00	0	41	0	103809024	65	4557
2026-01-29 06:49:02.74	82.86	8.02	-46.7	-48.8	17.2	0.00e+00	0	41	0	105906176	65	4445
2026-01-29 06:49:03.75	82.77	8.09	-46.9	-49.1	16.9	0.00e+00	0	41	0	108003328	65	4619
2026-01-29 06:49:04.75	82.69	8.16	-47.0	-49.3	16.7	0.00e+00	0	41	0	110100480	65	4706
2026-01-29 06:49:05.75	82.60	8.23	-46.8	-49.0	17.0	0.00e+00	0	41	0	111149056	65	4551
2026-01-29 06:49:06.76	82.52	8.30	-46.8	-48.9	17.1	0.00e+00	0	41	0	113246208	65	4514
2026-01-29 06:49:07.77	82.43	8.37	-46.9	-49.1	16.9	0.00e+00	0	41	0	115343360	65	4642
2026-01-29 06:49:08.78	82.35	8.44	-46.7	-48.8	17.1	0.00e+00	0	41	0	117440512	65	4472
2026-01-29 06:49:09.78	82.26	8.51	-46.9	-49.0	17.0	0.00e+00	0	41	0	118489088	65	4585
2026-01-29 06:49:10.79	82.17	8.58	-46.9	-49.1	16.9	0.00e+00	0	41	0	120586240	65	4632
2026-01-29 06:49:11.80	82.08	8.65	-47.0	-49.1	16.9	0.00e+00	0	41	0	122683392	65	4631
2026-01-29 06:49:12.81	82.00	8.72	-46.9	-49.1	16.9	0.00e+00	0	41	0	124780544	65	4626
2026-01-29 06:49:13.82	81.91	8.80	-47.1	-49.3	16.7	0.00e+00	0	41	0	126877696	65	4739
2026-01-29 06:49:14.83	81.82	8.87	-47.0	-49.1	16.9	0.00e+00	0	41	0	127926272	65	4646
2026-01-29 06:49:15.83	81.73	8.94	-47.0	-49.2	16.8	0.00e+00	0	41	0	130023424	65	4693
2026-01-29 06:49:16.83	81.64	9.01	-46.9	-49.0	17.0	0.00e+00	0	41	0	132120576	65	4568
2026-01-29 06:49:17.84	81.55	9.08	-46.9	-49.1	17.0	0.00e+00	0	41	0	134217728	65	4604
2026-01-29 06:49:18.85	81.46	9.15	-46.9	-49.1	17.0	0.00e+00	0	41	0	136314880	65	4604
2026-01-29 06:49:19.86	81.37	9.23	-47.1	-49.2	16.9	0.00e+00	0	41	0	138412032	65	4681
2026-01-29 06:49:20.86	81.27	9.30	-47.1	-49.3	16.8	0.00e+00	0	41	0	139460608	65	4709
2026-01-29 06:49:21.87	81.18	9.37	-46.8	-48.9	17.2	0.00e+00	0	41	0	141557760	65	4513
2026-01-29 06:49:22.88	81.09	9.45	-46.9	-49.0	17.1	0.00e+00	0	41	0	143654912	65	4553
2026-01-29 06:49:23.88	81.00	9.52	-46.9	-49.0	17.1	0.00e+00	0	41	0	145752064	65	4577
2026-01-29 06:49:24.89	80.90	9.59	-47.0	-49.1	17.0	0.00e+00	0	41	0	146800640	65	4615
2026-01-29 06:49:25.90	80.81	9.66	-46.9	-49.0	17.1	0.00e+00	0	41	0	148897792	65	4550
2026-01-29 06:49:26.90	80.71	9.74	-47.1	-49.3	16.8	0.00e+00	0	41	0	150994944	65	4741
2026-01-29 06:49:27.91	80.62	9.81	-47.0	-49.1	17.0	0.00e+00	0	42	0	153092096	65	4634
2026-01-29 06:49:28.91	80.52	9.88	-47.0	-49.2	16.9	0.00e+00	0	42	0	155189248	65	4663
2026-01-29 06:49:29.92	80.43	9.96	-46.8	-48.8	17.2	0.00e+00	0	41	0	156237824	65	4489
2026-01-29 06:49:30.92	80.33	10.03	-46.8	-48.8	17.3	0.00e+00	0	41	0	158334976	65	4460
2026-01-29 06:49:31.93	80.23	10.11	-46.8	-48.8	17.3	0.00e+00	0	41	0	160432128	65	4471
2026-01-29 06:49:32.93	80.14	10.18	-46.8	-48.8	17.3	0.00e+00	0	42	0	162529280	65	4461
2026-01-29 06:49:33.94	80.04	10.25	-46.8	-48.8	17.3	0.00e+00	0	41	0	164626432	65	4468
2026-01-29 06:49:34.94	79.94	10.33	-46.9	-48.9	17.2	0.00e+00	0	42	0	165675008	65	4536
2026-01-29 06:49:35.95	79.84	10.40	-46.8	-48.9	17.3	0.00e+00	0	41	0	167772160	65	4496
2026-01-29 06:49:36.96	79.74	10.48	-47.0	-49.1	17.0	0.00e+00	0	41	0	169869312	65	4628
2026-01-29 06:49:37.97	79.64	10.55	-46.8	-48.9	17.3	0.00e+00	0	41	0	171966464	65	4498
2026-01-29 06:49:38.97	79.54	10.63	-46.8	-48.8	17.3	0.00e+00	0	41	0	174063616	65	4488
2026-01-29 06:49:39.98	79.44	10.70	-46.8	-48.8	17.3	0.00e+00	0	41	0	175112192	65	4478
2026-01-29 06:49:40.99	79.33	10.78	-46.7	-48.7	17.4	0.00e+00	0	41	0	177209344	65	4433
2026-01-29 06:49:42.00	79.23	10.85	-46.8	-48.9	17.3	0.00e+00	0	41	0	179306496	65	4502
2026-01-29 06:49:43.01	79.13	10.93	-46.9	-49.0	17.1	0.00e+00	0	42	0	181403648	65	4588
2026-01-29 06:49:44.01	79.03	11.01	-46.8	-48.9	17.2	0.00e+00	0	41	0	183500800	65	4508
2026-01-29 06:49:45.02	78.92	11.08	-47.1	-49.3	16.9	0.00e+00	0	42	0	184549376	65	4722
2026-01-29 06:49:46.03	78.82	11.16	-46.9	-49.1	17.1	0.00e+00	0	42	0	186646528	65	4613
2026-01-29 06:49:47.04	78.71	11.23	-46.8	-48.9	17.2	0.00e+00	0	42	0	188743680	65	4541
2026-01-29 06:49:48.04	78.61	11.31	-46.8	-48.9	17.3	0.00e+00	0	41	0	190840832	65	4495
2026-01-29 06:49:49.05	78.50	11.39	-46.7	-48.8	17.4	0.00e+00	0	41	0	192937984	65	4452
2026-01-29 06:49:50.05	78.39	11.46	-46.6	-48.5	17.6	0.00e+00	0	41	0	195035136	65	4333
2026-01-29 06:49:51.06	78.29	11.54	-46.7	-48.8	17.4	0.00e+00	0	42	0	196083712	65	4450
2026-01-29 06:49:52.07	78.18	11.62	-46.6	-48.5	17.6	0.00e+00	0	41	0	198180864	65	4327
2026-01-29 06:49:53.08	78.07	11.69	-46.6	-48.6	17.5	0.00e+00	0	42	0	200278016	65	4382
2026-01-29 06:49:54.09	77.96	11.77	-46.6	-48.6	17.6	0.00e+00	0	42	0	202375168	65	4346
2026-01-29 06:49:55.10	77.85	11.85	-46.8	-48.9	17.2	0.00e+00	0	42	0	203423744	65	4533
2026-01-29 06:49:56.10	77.74	11.93	-47.0	-49.2	17.0	0.00e+00	0	42	0	205520896	65	4659
2026-01-29 06:49:57.11	77.63	12.00	-46.8	-48.9	17.3	0.00e+00	0	42	0	207618048	65	4495
2026-01-29 06:49:58.12	77.51	12.08	-46.7	-48.8	17.5	0.00e+00	0	42	0	209715200	65	4450
2026-01-29 06:49:59.12	77.40	12.16	-46.6	-48.5	17.7	0.00e+00	0	42	0	211812352	65	4335
2026-01-29 06:50:00.13	77.29	12.24	-46.4	-48.3	17.9	0.00e+00	0	41	0	212860928	64	4462
2026-01-29 06:50:01.14	77.18	12.31	-46.3	-48.2	18.0	0.00e+00	0	42	0	214958080	64	4408
2026-01-29 06:50:02.15	77.06	12.39	-46.2	-48.1	18.1	0.00e+00	0	42	0	217055232	64	4343
2026-01-29 06:50:03.15	76.95	12.47	-46.2	-47.9	18.2	0.00e+00	0	42	0	219152384	64	4289
2026-01-29 06:50:04.16	76.83	12.55	-46.4	-48.3	17.9	0.00e+00	0	41	0	221249536	64	4475
2026-01-29 06:50:05.16	76.72	12.63	-46.5	-48.4	17.8	0.00e+00	0	42	0	223346688	64	4513
2026-01-29 06:50:06.17	76.60	12.71	-46.4	-48.3	18.0	0.00e+00	0	42	0	224395264	64	4444
2026-01-29 06:50:07.18	76.48	12.79	-46.2	-48.1	18.1	0.00e+00	0	41	0	226492416	64	4341
2026-01-29 06:50:08.19	76.36	12.87	-46.0	-47.7	18.5	0.00e+00	0	41	0	228589568	63	4416
2026-01-29 06:50:09.20	76.25	12.94	-46.1	-47.8	18.5	0.00e+00	0	42	0	230686720	63	4477
2026-01-29 06:50:10.20	76.13	13.02	-46.2	-47.9	18.4	0.00e+00	0	42	0	231735296	63	4520
2026-01-29 06:50:11.21	76.01	13.10	-46.0	-47.6	18.7	0.00e+00	0	42	0	233832448	63	4373
2026-01-29 06:50:12.22	75.89	13.18	-46.3	-48.0	18.3	0.00e+00	0	42	0	235929600	63	4580
2026-01-29 06:50:13.22	75.77	13.26	-46.5	-48.4	18.0	0.00e+00	0	41	0	238026752	63	4780
2026-01-29 06:50:14.23	75.64	13.34	-46.6	-48.6	17.8	0.00e+00	0	42	0	240123904	63	4876
2026-01-29 06:50:15.24	75.52	13.42	-46.5	-48.4	18.0	0.00e+00	0	42	0	241172480	63	4776
2026-01-29 06:50:16.25	75.40	13.50	-46.5	-48.4	18.0	0.00e+00	0	42	0	243269632	63	4761
2026-01-29 06:50:17.25	75.27	13.58	-46.6	-48.4	17.9	0.00e+00	0	42	0	245366784	63	4810
2026-01-29 06:50:18.26	75.15	13.66	-46.6	-48.5	17.8	0.00e+00	0	42	0	247463936	63	4854
2026-01-29 06:50:19.27	75.02	13.74	-46.6	-48.5	17.8	0.00e+00	0	42	0	249561088	64	4556
2026-01-29 06:50:20.27	74.90	13.82	-47.1	-49.2	17.2	0.00e+00	0	42	0	251658240	64	4928
2026-01-29 06:50:21.28	74.77	13.90	-46.9	-49.0	17.4	0.00e+00	0	42	0	252706816	64	4815
2026-01-29 06:50:22.29	74.64	13.99	-47.0	-49.1	17.2	0.00e+00	0	42	0	254803968	64	4871
2026-01-29 06:50:23.30	74.51	14.07	-47.2	-49.3	17.1	0.00e+00	0	42	0	256901120	64	5015
2026-01-29 06:50:24.30	74.39	14.15	-47.0	-49.1	17.3	0.00e+00	0	42	0	258998272	64	4891
2026-01-29 06:50:25.30	74.26	14.23	-47.0	-49.1	17.3	0.00e+00	0	42	0	260046848	64	4883
2026-01-29 06:50:26.31	74.13	14.31	-46.7	-48.7	17.6	0.00e+00	0	42	0	262144000	64	4670
2026-01-29 06:50:27.32	74.00	14.39	-46.5	-48.3	18.0	0.00e+00	0	42	0	264241152	64	4475
2026-01-29 06:50:28.32	73.86	14.47	-46.6	-48.6	17.8	0.00e+00	0	42	0	266338304	64	4606
2026-01-29 06:50:29.33	73.73	14.55	-46.6	-48.4	17.9	0.00e+00	0	41	0	268435456	64	4545
2026-01-29 06:50:30.34	73.60	14.64	-46.4	-48.3	18.1	0.00e+00	0	42	0	269484032	64	4443
2026-01-29 06:50:31.35	73.46	14.72	-46.3	-48.1	18.2	0.00e+00	0	42	0	271581184	64	4390
2026-01-29 06:50:32.35	73.33	14.80	-46.2	-48.0	18.4	0.00e+00	0	42	0	273678336	64	4295
2026-01-29 06:50:33.36	73.19	14.88	-46.0	-47.7	18.6	0.00e+00	0	42	0	275775488	64	4193
2026-01-29 06:50:34.36	73.06	14.96	-46.2	-47.9	18.3	0.00e+00	0	42	0	277872640	64	4290
2026-01-29 06:50:35.37	72.92	15.05	-46.0	-47.7	18.7	0.00e+00	0	42	0	279969792	63	4420
2026-01-29 06:50:36.38	72.78	15.13	-46.0	-47.7	18.7	0.00e+00	0	42	0	281018368	63	4398
2026-01-29 06:50:37.39	72.64	15.21	-46.1	-47.9	18.6	0.00e+00	0	42	0	283115520	63	4513
2026-01-29 06:50:38.39	72.51	15.30	-46.0	-47.6	18.8	0.00e+00	0	42	0	285212672	63	4366
2026-01-29 06:50:39.39	72.37	15.38	-46.0	-47.6	18.8	0.00e+00	0	42	0	287309824	63	4387
2026-01-29 06:50:40.40	72.23	15.46	-45.6	-47.2	19.1	0.00e+00	0	42	0	288358400	63	4173
2026-01-29 06:50:41.41	72.08	15.54	-45.6	-47.2	19.2	0.00e+00	0	42	0	290455552	63	4154
2026-01-29 06:50:42.41	71.94	15.63	-45.8	-47.4	19.0	0.00e+00	0	42	0	292552704	63	4251
2026-01-29 06:50:43.42	71.80	15.71	-45.5	-47.0	19.5	0.00e+00	0	41	0	294649856	62	4304
2026-01-29 06:50:44.42	71.65	15.79	-45.6	-47.2	19.2	0.00e+00	0	41	0	296747008	62	4397
2026-01-29 06:50:45.43	71.51	15.88	-45.8	-47.4	19.1	0.00e+00	0	42	0	297795584	62	4515
2026-01-29 06:50:46.43	71.36	15.96	-45.6	-47.1	19.2	0.00e+00	0	42	0	299892736	62	4388
2026-01-29 06:50:47.44	71.22	16.04	-45.6	-47.2	19.2	0.00e+00	0	41	0	301989888	62	4418
2026-01-29 06:50:48.45	71.07	16.13	-45.5	-47.0	19.4	0.00e+00	0	42	0	304087040	62	4324
2026-01-29 06:50:49.46	70.92	16.21	-45.6	-47.2	19.2	0.00e+00	0	42	0	306184192	62	4398
2026-01-29 06:50:50.47	70.77	16.30	-45.5	-47.1	19.3	0.00e+00	0	42	0	308281344	62	4352
2026-01-29 06:50:51.47	70.62	16.38	-45.5	-47.0	19.4	0.00e+00	0	42	0	309329920	62	4307
2026-01-29 06:50:52.48	70.47	16.46	-45.6	-47.2	19.3	0.00e+00	0	42	0	311427072	62	4396
2026-01-29 06:50:53.49	70.32	16.55	-45.7	-47.3	19.2	0.00e+00	0	42	0	313524224	62	4455
2026-01-29 06:50:54.49	70.17	16.63	-45.6	-47.2	19.3	0.00e+00	0	42	0	315621376	62	4400
2026-01-29 06:50:55.49	70.01	16.72	-45.5	-47.0	19.4	0.00e+00	0	42	0	316669952	62	4310
2026-01-29 06:50:56.50	69.86	16.80	-45.5	-47.0	19.4	0.00e+00	0	42	0	318767104	62	4320
2026-01-29 06:50:57.50	69.71	16.88	-45.6	-47.1	19.3	0.00e+00	0	42	0	320864256	62	4371
2026-01-29 06:50:58.50	69.55	16.97	-45.7	-47.3	19.2	0.00e+00	0	42	0	322961408	62	4445
2026-01-29 06:50:59.51	69.39	17.05	-45.7	-47.4	19.1	0.00e+00	0	42	0	325058560	62	4498
2026-01-29 06:51:00.51	69.24	17.14	-45.7	-47.3	19.1	0.00e+00	0	42	0	326107136	62	4487
2026-01-29 06:51:01.52	69.08	17.22	-45.8	-47.4	19.0	0.00e+00	0	42	0	328204288	62	4528
2026-01-29 06:51:02.53	68.92	17.31	-45.8	-47.4	19.0	0.00e+00	0	42	0	330301440	62	4537
2026-01-29 06:51:03.54	68.76	17.39	-45.7	-47.4	19.1	0.00e+00	0	42	0	332398592	62	4494
2026-01-29 06:51:04.55	68.59	17.48	-45.8	-47.4	19.0	0.00e+00	0	42	0	334495744	62	4536
2026-01-29 06:51:05.55	68.43	17.56	-45.8	-47.5	19.0	0.00e+00	0	42	0	336592896	62	4547
2026-01-29 06:51:06.56	68.27	17.65	-45.7	-47.3	19.1	0.00e+00	0	42	0	337641472	62	4481
2026-01-29 06:51:07.56	68.10	17.73	-45.8	-47.4	19.0	0.00e+00	0	42	0	339738624	62	4519
2026-01-29 06:51:08.56	67.94	17.82	-45.7	-47.3	19.1	0.00e+00	0	42	0	341835776	62	4476
2026-01-29 06:51:09.57	67.77	17.90	-45.7	-47.3	19.2	0.00e+00	0	42	0	343932928	62	4452
2026-01-29 06:51:10.58	67.61	17.99	-45.8	-47.4	19.0	0.00e+00	0	42	0	344981504	62	4534
2026-01-29 06:51:11.59	67.44	18.07	-45.7	-47.3	19.2	0.00e+00	0	42	0	347078656	62	4466
2026-01-29 06:51:12.60	67.27	18.16	-45.6	-47.1	19.3	0.00e+00	0	42	0	349175808	62	4387
2026-01-29 06:51:13.60	67.10	18.24	-45.8	-47.5	19.0	0.00e+00	0	42	0	351272960	62	4561
2026-01-29 06:51:14.61	66.93	18.33	-46.1	-47.9	18.6	0.00e+00	0	42	0	353370112	62	4785
2026-01-29 06:51:15.61	66.76	18.41	-46.1	-47.9	18.6	0.00e+00	0	42	0	354418688	63	4498
2026-01-29 06:51:16.62	66.58	18.50	-46.1	-47.8	18.7	0.00e+00	0	42	0	356515840	63	4453
2026-01-29 06:51:17.63	66.41	18.58	-46.0	-47.7	18.8	0.00e+00	0	42	0	358612992	63	4419
2026-01-29 06:51:18.64	66.23	18.67	-46.2	-47.9	18.6	0.00e+00	0	42	0	360710144	63	4534
2026-01-29 06:51:19.65	66.06	18.76	-46.2	-47.9	18.6	0.00e+00	0	42	0	362807296	63	4517
2026-01-29 06:51:20.65	65.88	18.84	-46.1	-47.8	18.8	0.00e+00	0	42	0	363855872	63	4444
2026-01-29 06:51:21.66	65.70	18.93	-46.3	-48.1	18.4	0.00e+00	0	42	0	365953024	63	4634
2026-01-29 06:51:22.67	65.52	19.01	-46.4	-48.1	18.4	0.00e+00	0	42	0	368050176	63	4639
2026-01-29 06:51:23.67	65.34	19.10	-46.1	-47.8	18.7	0.00e+00	0	42	0	370147328	63	4478
2026-01-29 06:51:24.68	65.16	19.18	-46.3	-48.0	18.6	0.00e+00	0	42	0	372244480	63	4578
2026-01-29 06:51:25.69	64.98	19.27	-46.5	-48.3	18.4	0.00e+00	0	42	0	373293056	63	4751
2026-01-29 06:51:26.69	64.80	19.35	-46.3	-48.1	18.4	0.00e+00	0	42	0	375390208	63	4628
2026-01-29 06:51:27.70	64.61	19.44	-46.3	-48.0	18.5	0.00e+00	0	42	0	377487360	63	4583
2026-01-29 06:51:28.71	64.43	19.52	-46.1	-47.8	18.8	0.00e+00	0	41	0	379584512	63	4485
2026-01-29 06:51:29.71	64.24	19.61	-46.1	-47.8	18.8	0.00e+00	0	42	0	381681664	63	4493
2026-01-29 06:51:30.72	64.05	19.70	-46.0	-47.6	19.0	0.00e+00	0	42	0	382730240	63	4373
2026-01-29 06:51:31.73	63.87	19.78	-45.9	-47.6	19.0	0.00e+00	0	42	0	384827392	63	4342
2026-01-29 06:51:32.73	63.68	19.87	-46.0	-47.7	18.8	0.00e+00	0	42	0	386924544	63	4392
2026-01-29 06:51:33.74	63.49	19.95	-46.1	-47.8	18.7	0.00e+00	0	42	0	389021696	63	4482
2026-01-29 06:51:34.75	63.29	20.04	-46.3	-48.1	18.4	0.00e+00	0	42	0	391118848	63	4637
2026-01-29 06:51:35.75	63.10	20.12	-46.6	-48.5	18.2	0.00e+00	0	42	0	393216000	63	4847
2026-01-29 06:51:36.76	62.91	20.21	-46.7	-48.6	17.9	0.00e+00	0	42	0	394264576	64	4620
2026-01-29 06:51:37.77	62.71	20.29	-46.5	-48.3	18.2	0.00e+00	0	41	0	396361728	64	4484
2026-01-29 06:51:38.78	62.52	20.38	-46.3	-48.1	18.5	0.00e+00	0	42	0	398458880	64	4342
2026-01-29 06:51:39.79	62.32	20.46	-46.3	-48.0	18.6	0.00e+00	0	42	0	400556032	64	4319
2026-01-29 06:51:40.79	62.12	20.55	-46.1	-47.8	18.9	0.00e+00	0	42	0	401604608	63	4462
2026-01-29 06:51:41.80	61.92	20.63	-45.8	-47.4	19.2	0.00e+00	0	41	0	403701760	63	4266
2026-01-29 06:51:42.81	61.72	20.72	-45.7	-47.3	19.3	0.00e+00	0	42	0	405798912	63	4226
2026-01-29 06:51:43.81	61.52	20.80	-45.8	-47.3	19.3	0.00e+00	0	42	0	407896064	63	4239
2026-01-29 06:51:44.82	61.32	20.88	-45.6	-47.1	19.5	0.00e+00	0	42	0	409993216	62	4368
2026-01-29 06:51:45.83	61.11	20.97	-45.5	-46.9	19.6	0.00e+00	0	42	0	411041792	62	4285
2026-01-29 06:51:46.83	60.91	21.05	-45.4	-46.8	19.8	0.00e+00	0	42	0	413138944	62	4228
2026-01-29 06:51:47.84	60.70	21.14	-45.6	-47.1	19.5	0.00e+00	0	42	0	415236096	62	4345
2026-01-29 06:51:48.85	60.50	21.22	-45.7	-47.3	19.4	0.00e+00	0	41	0	417333248	62	4443
2026-01-29 06:51:49.85	60.29	21.31	-46.1	-47.8	18.8	0.00e+00	0	42	0	419430400	62	4738
2026-01-29 06:51:50.86	60.08	21.39	-46.1	-47.7	18.9	0.00e+00	0	42	0	421527552	62	4688
2026-01-29 06:51:51.87	59.87	21.47	-46.1	-47.8	18.9	0.00e+00	0	42	0	422576128	62	4706
2026-01-29 06:51:52.87	59.66	21.56	-46.1	-47.7	18.9	0.00e+00	0	42	0	424673280	63	4432
2026-01-29 06:51:53.87	59.45	21.64	-46.1	-47.8	18.9	0.00e+00	0	42	0	426770432	63	4450
2026-01-29 06:51:54.88	59.23	21.72	-46.0	-47.6	19.1	0.00e+00	0	42	0	428867584	63	4371
2026-01-29 06:51:55.89	59.02	21.81	-45.8	-47.4	19.3	0.00e+00	0	42	0	429916160	63	4245
2026-01-29 06:51:56.90	58.80	21.89	-45.6	-47.2	19.4	0.00e+00	0	42	0	432013312	63	4149
2026-01-29 06:51:57.91	58.58	21.97	-45.3	-46.7	19.8	0.00e+00	0	42	0	434110464	62	4170
2026-01-29 06:51:58.91	58.36	22.05	-44.9	-46.2	20.3	0.00e+00	0	42	0	436207616	61	4175
2026-01-29 06:51:59.92	58.14	22.14	-44.9	-46.2	20.4	0.00e+00	0	42	0	438304768	61	4174
2026-01-29 06:52:00.93	57.92	22.22	-44.2	-45.4	20.9	0.00e+00	0	42	0	439353344	60	4046
2026-01-29 06:52:01.94	57.70	22.30	-44.4	-45.7	20.7	0.00e+00	0	42	0	441450496	60	4179
2026-01-29 06:52:02.94	57.48	22.38	-44.5	-45.8	20.7	0.00e+00	0	42	0	443547648	60	4215
2026-01-29 06:52:03.95	57.25	22.46	-44.5	-45.8	20.6	0.00e+00	0	42	0	445644800	60	4214
2026-01-29 06:52:04.96	57.02	22.55	-44.7	-46.1	20.4	0.00e+00	0	42	0	447741952	60	4385
2026-01-29 06:52:05.97	56.80	22.63	-44.8	-46.3	20.3	0.00e+00	0	42	0	449839104	60	4448
2026-01-29 06:52:06.98	56.57	22.71	-45.0	-46.5	20.0	0.00e+00	0	42	0	450887680	60	4571
2026-01-29 06:52:07.98	56.34	22.79	-45.1	-46.6	20.0	0.00e+00	0	42	0	452984832	60	4602
2026-01-29 06:52:08.99	56.11	22.87	-45.1	-46.6	20.0	0.00e+00	0	42	0	455081984	61	4351
2026-01-29 06:52:10.00	55.88	22.95	-44.9	-46.3	20.2	0.00e+00	0	42	0	457179136	61	4227
2026-01-29 06:52:11.00	55.65	23.03	-44.9	-46.3	20.3	0.00e+00	0	42	0	458227712	61	4221
2026-01-29 06:52:12.01	55.41	23.11	-44.7	-46.1	20.4	0.00e+00	0	42	0	460324864	61	4124
2026-01-29 06:52:13.01	55.18	23.19	-44.5	-45.7	20.7	0.00e+00	0	42	0	462422016	60	4190
2026-01-29 06:52:14.02	54.94	23.27	-44.4	-45.7	20.7	0.00e+00	0	42	0	464519168	60	4167
2026-01-29 06:52:15.02	54.70	23.34	-44.2	-45.5	20.9	0.00e+00	0	42	0	466616320	60	4063
2026-01-29 06:52:16.03	54.46	23.42	-44.0	-45.2	21.2	0.00e+00	0	42	0	467664896	60	3946
2026-01-29 06:52:17.04	54.22	23.50	-44.1	-45.3	21.1	0.00e+00	0	42	0	469762048	60	3998
2026-01-29 06:52:18.05	53.98	23.58	-44.5	-45.8	20.7	0.00e+00	0	42	0	471859200	60	4218
2026-01-29 06:52:19.05	53.74	23.66	-44.5	-45.7	20.8	0.00e+00	0	42	0	473956352	60	4190
2026-01-29 06:52:20.06	53.49	23.73	-44.6	-45.9	20.6	0.00e+00	0	42	0	476053504	60	4277
2026-01-29 06:52:21.07	53.25	23.81	-44.4	-45.7	20.8	0.00e+00	0	42	0	478150656	60	4154
2026-01-29 06:52:22.08	53.00	23.89	-44.1	-45.3	21.1	0.00e+00	0	42	0	479199232	60	3967
2026-01-29 06:52:23.08	52.76	23.96	-44.4	-45.6	21.1	0.00e+00	0	42	0	481296384	59	4369
2026-01-29 06:52:24.09	52.51	24.04	-44.5	-45.7	21.0	0.00e+00	0	42	0	483393536	59	4435
2026-01-29 06:52:25.10	52.26	24.11	-44.4	-45.6	21.1	0.00e+00	0	42	0	485490688	59	4359
2026-01-29 06:52:26.11	52.00	24.19	-44.2	-45.4	21.3	0.00e+00	0	42	0	486539264	59	4247
2026-01-29 06:52:27.12	51.75	24.26	-44.2	-45.4	21.3	0.00e+00	0	42	0	488636416	59	4258
2026-01-29 06:52:28.13	51.50	24.34	-44.5	-45.8	20.9	0.00e+00	0	42	0	490733568	59	4468
2026-01-29 06:52:29.13	51.24	24.41	-44.7	-46.0	20.9	0.00e+00	0	42	0	492830720	59	4559
2026-01-29 06:52:30.14	50.99	24.49	-44.2	-45.4	21.0	0.00e+00	0	42	0	494927872	60	4051
2026-01-29 06:52:31.15	50.73	24.56	-44.2	-45.4	21.1	0.00e+00	0	42	0	497025024	60	4023
2026-01-29 06:52:32.16	50.47	24.63	-44.3	-45.6	21.0	0.00e+00	0	42	0	498073600	60	4105
2026-01-29 06:52:33.17	50.21	24.70	-44.3	-45.6	21.0	0.00e+00	0	42	0	500170752	60	4105
2026-01-29 06:52:34.18	49.95	24.78	-44.4	-45.7	20.8	0.00e+00	0	42	0	502267904	60	4173
2026-01-29 06:52:35.18	49.69	24.85	-44.5	-45.8	20.8	0.00e+00	0	42	0	504365056	60	4206
2026-01-29 06:52:36.19	49.42	24.92	-44.8	-46.1	20.4	0.00e+00	0	42	0	506462208	60	4363
2026-01-29 06:52:37.20	49.16	24.99	-44.9	-46.2	20.4	0.00e+00	0	42	0	507510784	60	4426
2026-01-29 06:52:38.21	48.89	25.06	-44.7	-46.0	20.6	0.00e+00	0	42	0	509607936	60	4330
2026-01-29 06:52:39.21	48.63	25.13	-44.9	-46.3	20.3	0.00e+00	0	42	0	511705088	60	4476
2026-01-29 06:52:40.22	48.36	25.20	-45.1	-46.5	20.2	0.00e+00	0	42	0	513802240	60	4578
2026-01-29 06:52:41.23	48.09	25.26	-44.9	-46.2	20.5	0.00e+00	0	42	0	514850816	60	4418
2026-01-29 06:52:42.24	47.82	25.33	-44.6	-45.8	20.7	0.00e+00	0	42	0	516947968	60	4233
2026-01-29 06:52:43.24	47.55	25.40	-44.5	-45.8	20.8	0.00e+00	0	42	0	519045120	60	4206
2026-01-29 06:52:44.25	47.28	25.47	-44.5	-45.7	20.8	0.00e+00	0	42	0	521142272	60	4187
2026-01-29 06:52:45.26	47.00	25.53	-44.8	-46.1	20.5	0.00e+00	0	42	0	523239424	60	4390
2026-01-29 06:52:46.27	46.73	25.60	-44.7	-46.0	20.6	0.00e+00	0	42	0	525336576	60	4305
2026-01-29 06:52:47.28	46.45	25.66	-44.6	-45.9	20.7	0.00e+00	0	42	0	526385152	60	4244
2026-01-29 06:52:48.29	46.17	25.73	-44.6	-45.9	20.6	0.00e+00	0	42	0	528482304	60	4266
2026-01-29 06:52:49.30	45.89	25.79	-44.4	-45.7	20.8	0.00e+00	0	42	0	530579456	60	4169
2026-01-29 06:52:50.30	45.62	25.85	-44.7	-46.0	20.6	0.00e+00	0	42	0	532676608	60	4311
2026-01-29 06:52:51.31	45.33	25.92	-44.7	-46.1	20.6	0.00e+00	0	42	0	534773760	60	4342
2026-01-29 06:52:52.32	45.05	25.98	-44.6	-45.9	20.7	0.00e+00	0	42	0	535822336	60	4287
2026-01-29 06:52:53.33	44.77	26.04	-44.5	-45.8	20.8	0.00e+00	0	42	0	537919488	60	4221
2026-01-29 06:52:54.33	44.49	26.10	-44.7	-46.0	20.6	0.00e+00	0	42	0	540016640	60	4296
2026-01-29 06:52:55.34	44.20	26.16	-44.4	-45.6	21.0	0.00e+00	0	42	0	542113792	60	4119
2026-01-29 06:52:56.35	43.91	26.22	-44.5	-45.7	20.9	0.00e+00	0	42	0	544210944	60	4190
2026-01-29 06:52:57.36	43.63	26.28	-44.2	-45.4	21.1	0.00e+00	0	42	0	545259520	60	4024
2026-01-29 06:52:58.36	43.34	26.34	-44.3	-45.5	21.0	0.00e+00	0	42	0	547356672	60	4080
2026-01-29 06:52:59.37	43.05	26.40	-44.4	-45.6	21.0	0.00e+00	0	42	0	549453824	60	4129
2026-01-29 06:53:00.38	42.76	26.45	-44.4	-45.7	21.0	0.00e+00	0	42	0	551550976	60	4150
2026-01-29 06:53:01.39	42.47	26.51	-44.4	-45.6	21.0	0.00e+00	0	42	0	553648128	60	4127
2026-01-29 06:53:02.40	42.17	26.56	-44.4	-45.6	21.0	0.00e+00	0	42	0	554696704	60	4132
2026-01-29 06:53:03.41	41.88	26.62	-44.4	-45.7	21.0	0.00e+00	0	41	0	556793856	60	4156
2026-01-29 06:53:04.42	41.58	26.67	-44.5	-45.7	20.8	0.00e+00	0	42	0	558891008	60	4173
2026-01-29 06:53:05.43	41.29	26.73	-44.6	-45.9	20.7	0.00e+00	0	42	0	560988160	60	4262
2026-01-29 06:53:06.44	40.99	26.78	-44.4	-45.6	21.0	0.00e+00	0	42	0	563085312	60	4130
2026-01-29 06:53:07.45	40.69	26.83	-44.6	-45.9	20.7	0.00e+00	0	42	0	564133888	60	4254
2026-01-29 06:53:08.45	40.40	26.88	-44.5	-45.8	20.8	0.00e+00	0	42	0	566231040	60	4199
2026-01-29 06:53:09.46	40.10	26.93	-44.5	-45.7	20.9	0.00e+00	0	42	0	568328192	60	4186
2026-01-29 06:53:10.47	39.80	26.98	-44.8	-46.1	20.5	0.00e+00	0	42	0	570425344	60	4374
2026-01-29 06:53:11.47	39.50	27.03	-45.1	-46.5	20.2	0.00e+00	0	42	0	572522496	60	4550
2026-01-29 06:53:12.48	39.19	27.08	-45.2	-46.6	20.0	0.00e+00	0	42	0	573571072	61	4347
2026-01-29 06:53:13.48	38.89	27.12	-45.2	-46.6	20.0	0.00e+00	0	42	0	575668224	61	4359
2026-01-29 06:53:14.49	38.59	27.17	-45.2	-46.7	20.0	0.00e+00	0	42	0	577765376	61	4402
2026-01-29 06:53:15.50	38.28	27.22	-45.4	-46.8	19.9	0.00e+00	0	42	0	579862528	61	4492
2026-01-29 06:53:16.51	37.98	27.26	-45.5	-46.9	19.8	0.00e+00	0	42	0	581959680	61	4531
2026-01-29 06:53:17.51	37.67	27.30	-45.9	-47.4	19.4	0.00e+00	0	42	0	583008256	62	4514
2026-01-29 06:53:18.52	37.36	27.35	-45.9	-47.4	19.4	0.00e+00	0	42	0	585105408	62	4523
2026-01-29 06:53:19.53	37.06	27.39	-45.8	-47.4	19.5	0.00e+00	0	42	0	587202560	62	4495
2026-01-29 06:53:20.54	36.75	27.43	-45.9	-47.4	19.4	0.00e+00	0	42	0	589299712	62	4524
2026-01-29 06:53:21.55	36.44	27.47	-45.8	-47.3	19.5	0.00e+00	0	42	0	591396864	62	4447
2026-01-29 06:53:22.55	36.13	27.51	-45.6	-47.0	19.7	0.00e+00	0	42	0	593494016	62	4320
2026-01-29 06:53:23.56	35.81	27.55	-45.5	-46.9	19.9	0.00e+00	0	42	0	594542592	62	4263
2026-01-29 06:53:24.57	35.50	27.59	-45.6	-47.1	19.7	0.00e+00	0	42	0	596639744	62	4343
2026-01-29 06:53:25.57	35.19	27.62	-45.9	-47.4	19.4	0.00e+00	0	42	0	598736896	62	4535
2026-01-29 06:53:26.58	34.88	27.66	-46.3	-47.9	19.0	0.00e+00	0	42	0	600834048	63	4498
2026-01-29 06:53:27.59	34.56	27.69	-46.3	-47.9	18.9	0.00e+00	0	42	0	601882624	63	4539
2026-01-29 06:53:28.60	34.25	27.73	-46.3	-47.9	19.0	0.00e+00	0	42	0	603979776	63	4503
2026-01-29 06:53:29.61	33.93	27.76	-46.3	-47.9	18.9	0.00e+00	0	42	0	606076928	63	4526
2026-01-29 06:53:30.61	33.62	27.79	-46.4	-48.0	19.0	0.00e+00	0	42	0	608174080	63	4564
2026-01-29 06:53:31.62	33.30	27.82	-46.3	-47.9	18.9	0.00e+00	0	42	0	610271232	63	4518
2026-01-29 06:53:32.63	32.98	27.85	-46.3	-48.0	18.9	0.00e+00	0	42	0	611319808	63	4548
2026-01-29 06:53:33.64	32.66	27.88	-46.4	-48.0	18.8	0.00e+00	0	42	0	613416960	63	4592
2026-01-29 06:53:34.64	32.35	27.91	-46.2	-47.8	19.0	0.00e+00	0	42	0	615514112	63	4493
2026-01-29 06:53:35.65	32.03	27.94	-45.8	-47.2	19.5	0.00e+00	0	42	0	617611264	63	4189
2026-01-29 06:53:36.66	31.71	27.97	-45.7	-47.1	19.7	0.00e+00	0	42	0	619708416	63	4133
2026-01-29 06:53:37.67	31.39	27.99	-45.8	-47.4	19.4	0.00e+00	0	42	0	621805568	63	4247
2026-01-29 06:53:38.67	31.07	28.02	-46.1	-47.7	19.1	0.00e+00	0	42	0	622854144	63	4422
2026-01-29 06:53:39.68	30.74	28.04	-46.4	-48.1	18.7	0.00e+00	0	42	0	624951296	63	4649
2026-01-29 06:53:40.69	30.42	28.06	-46.4	-48.1	18.6	0.00e+00	0	42	0	627048448	63	4639
2026-01-29 06:53:41.69	30.10	28.08	-46.4	-48.2	18.7	0.00e+00	0	41	0	629145600	63	4657
2026-01-29 06:53:42.70	29.78	28.10	-46.3	-48.0	18.8	0.00e+00	0	42	0	630194176	63	4574
2026-01-29 06:53:43.71	29.46	28.12	-46.3	-48.0	18.8	0.00e+00	0	42	0	632291328	63	4577
2026-01-29 06:53:44.72	29.13	28.14	-46.2	-47.9	18.8	0.00e+00	0	42	0	634388480	63	4523
2026-01-29 06:53:45.73	28.81	28.16	-46.3	-48.0	18.8	0.00e+00	0	42	0	636485632	63	4546
2026-01-29 06:53:46.73	28.49	28.18	-46.3	-48.0	18.7	0.00e+00	0	42	0	638582784	63	4597
2026-01-29 06:53:47.74	28.16	28.19	-46.3	-47.9	18.8	0.00e+00	0	42	0	639631360	63	4540
2026-01-29 06:53:48.75	27.84	28.21	-46.5	-48.3	18.5	0.00e+00	0	42	0	641728512	63	4742
2026-01-29 06:53:49.76	27.51	28.22	-46.8	-48.7	18.0	0.00e+00	0	42	0	643825664	64	4655
2026-01-29 06:53:50.76	27.19	28.23	-47.2	-49.3	17.4	0.00e+00	0	42	0	645922816	65	4735
2026-01-29 06:53:51.77	26.86	28.24	-47.3	-49.5	17.3	0.00e+00	0	42	0	648019968	65	4819
2026-01-29 06:53:52.78	26.53	28.25	-47.3	-49.3	17.4	0.00e+00	0	42	0	650117120	65	4742
2026-01-29 06:53:53.79	26.21	28.26	-46.8	-48.6	18.1	0.00e+00	0	42	0	651165696	65	4387
2026-01-29 06:53:54.79	25.88	28.27	-46.4	-48.2	18.6	0.00e+00	0	42	0	653262848	64	4397
2026-01-29 06:53:55.79	25.56	28.28	-46.1	-47.7	19.1	0.00e+00	0	42	0	655360000	63	4427
2026-01-29 06:53:56.80	25.23	28.28	-45.6	-47.1	19.6	0.00e+00	0	42	0	657457152	63	4130
2026-01-29 06:53:57.81	24.91	28.29	-45.1	-46.5	20.3	0.00e+00	0	42	0	658505728	62	4054
2026-01-29 06:53:58.81	24.58	28.29	-45.2	-46.6	20.1	0.00e+00	0	42	0	660602880	62	4130
2026-01-29 06:53:59.82	24.26	28.30	-45.4	-46.8	19.9	0.00e+00	0	42	0	662700032	62	4234
2026-01-29 06:54:00.83	23.93	28.30	-45.6	-47.1	19.7	0.00e+00	0	42	0	664797184	62	4355
2026-01-29 06:54:01.83	23.60	28.30	-45.6	-47.1	19.7	0.00e+00	0	42	0	666894336	62	4362
2026-01-29 06:54:02.84	23.28	28.30	-45.6	-47.1	19.7	0.00e+00	0	42	0	667942912	62	4346
2026-01-29 06:54:03.85	22.95	28.30	-45.9	-47.4	19.4	0.00e+00	0	42	0	670040064	62	4527
2026-01-29 06:54:04.86	22.62	28.30	-46.1	-47.7	19.1	0.00e+00	0	42	0	672137216	62	4666
2026-01-29 06:54:05.87	22.29	28.30	-46.2	-47.8	19.0	0.00e+00	0	42	0	674234368	63	4487
2026-01-29 06:54:06.87	21.97	28.29	-46.0	-47.6	19.3	0.00e+00	0	42	0	676331520	63	4349
2026-01-29 06:54:07.88	21.64	28.29	-45.5	-46.9	19.9	0.00e+00	0	42	0	678428672	63	4033
2026-01-29 06:54:08.88	21.32	28.28	-45.4	-46.8	20.1	0.00e+00	0	42	0	679477248	62	4215
2026-01-29 06:54:09.89	20.99	28.27	-45.4	-46.8	20.0	0.00e+00	0	42	0	681574400	62	4223
2026-01-29 06:54:10.89	20.67	28.26	-45.6	-47.1	19.8	0.00e+00	0	42	0	683671552	62	4356
2026-01-29 06:54:11.90	20.34	28.26	-45.9	-47.5	19.4	0.00e+00	0	42	0	685768704	62	4559
2026-01-29 06:54:12.91	20.02	28.24	-46.1	-47.7	19.2	0.00e+00	0	42	0	686817280	62	4682
2026-01-29 06:54:13.92	19.69	28.23	-46.4	-48.0	18.8	0.00e+00	0	42	0	688914432	63	4588
2026-01-29 06:54:14.93	19.36	28.22	-46.4	-48.1	18.8	0.00e+00	0	42	0	691011584	63	4632
2026-01-29 06:54:15.93	19.04	28.21	-46.5	-48.2	18.6	0.00e+00	0	42	0	693108736	63	4689
2026-01-29 06:54:16.94	18.72	28.19	-46.4	-48.2	18.7	0.00e+00	0	42	0	695205888	63	4659
2026-01-29 06:54:17.95	18.39	28.18	-46.3	-47.9	19.0	0.00e+00	0	42	0	696254464	63	4534
2026-01-29 06:54:18.95	18.07	28.16	-45.9	-47.4	19.4	0.00e+00	0	42	0	698351616	63	4280
2026-01-29 06:54:19.96	17.75	28.14	-45.5	-47.0	19.8	0.00e+00	0	42	0	700448768	63	4071
2026-01-29 06:54:20.97	17.42	28.13	-45.2	-46.5	20.2	0.00e+00	0	42	0	702545920	62	4079
2026-01-29 06:54:21.97	17.10	28.11	-45.0	-46.3	20.4	0.00e+00	0	42	0	704643072	62	3977
2026-01-29 06:54:22.98	16.78	28.09	-45.0	-46.3	20.4	0.00e+00	0	42	0	706740224	61	4221
2026-01-29 06:54:23.98	16.46	28.07	-45.1	-46.5	20.3	0.00e+00	0	42	0	707788800	61	4305
2026-01-29 06:54:24.99	16.14	28.04	-45.2	-46.6	20.1	0.00e+00	0	42	0	709885952	61	4374
2026-01-29 06:54:26.00	15.81	28.02	-45.1	-46.4	20.3	0.00e+00	0	42	0	711983104	61	4276
2026-01-29 06:54:27.00	15.50	28.00	-44.9	-46.2	20.4	0.00e+00	0	42	0	714080256	61	4184
2026-01-29 06:54:28.01	15.18	27.97	-44.6	-45.9	20.8	0.00e+00	0	42	0	715128832	61	4026
2026-01-29 06:54:29.02	14.85	27.94	-44.6	-45.9	20.8	0.00e+00	0	42	0	717225984	61	4007
2026-01-29 06:54:30.03	14.54	27.92	-44.6	-45.8	20.8	0.00e+00	0	42	0	719323136	60	4242
2026-01-29 06:54:31.03	14.22	27.89	-44.2	-45.4	21.2	0.00e+00	0	42	0	721420288	60	4007
2026-01-29 06:54:32.04	13.90	27.86	-44.2	-45.4	21.2	0.00e+00	0	41	0	723517440	60	4042
2026-01-29 06:54:33.05	13.58	27.83	-44.4	-45.7	21.0	0.00e+00	0	42	0	724566016	60	4146
2026-01-29 06:54:34.05	13.27	27.80	-44.9	-46.2	20.6	0.00e+00	0	42	0	726663168	60	4397
2026-01-29 06:54:35.06	12.95	27.77	-45.2	-46.6	20.3	0.00e+00	0	42	0	728760320	61	4341
2026-01-29 06:54:36.07	12.64	27.73	-45.6	-47.1	19.8	0.00e+00	0	42	0	730857472	61	4616
2026-01-29 06:54:37.07	12.32	27.70	-45.4	-46.9	20.0	0.00e+00	0	42	0	732954624	61	4494
2026-01-29 06:54:38.08	12.01	27.66	-45.1	-46.5	20.2	0.00e+00	0	42	0	735051776	61	4299
2026-01-29 06:54:39.08	11.70	27.63	-44.9	-46.2	20.5	0.00e+00	0	42	0	736100352	61	4167
2026-01-29 06:54:40.09	11.38	27.59	-45.0	-46.4	20.4	0.00e+00	0	42	0	738197504	61	4243
2026-01-29 06:54:41.10	11.07	27.56	-45.5	-46.9	19.9	0.00e+00	0	42	0	740294656	61	4511
2026-01-29 06:54:42.10	10.76	27.52	-45.8	-47.3	19.6	0.00e+00	0	42	0	742391808	62	4467
2026-01-29 06:54:43.11	10.45	27.48	-45.8	-47.3	19.5	0.00e+00	0	42	0	743440384	62	4467
2026-01-29 06:54:44.11	10.14	27.44	-45.6	-47.1	19.8	0.00e+00	0	42	0	745537536	62	4352
2026-01-29 06:54:45.12	9.83	27.40	-45.4	-46.8	20.0	0.00e+00	0	42	0	747634688	62	4228
2026-01-29 06:54:46.13	9.53	27.36	-45.0	-46.3	20.5	0.00e+00	0	42	0	749731840	62	3980
2026-01-29 06:54:47.14	9.22	27.31	-44.9	-46.1	20.7	0.00e+00	0	42	0	751828992	61	4126
2026-01-29 06:54:48.14	8.91	27.27	-44.5	-45.7	21.0	0.00e+00	0	42	0	752877568	60	4184
2026-01-29 06:54:49.15	8.61	27.22	-44.8	-46.0	20.7	0.00e+00	0	42	0	754974720	60	4339
2026-01-29 06:54:50.16	8.30	27.18	-45.0	-46.2	20.5	0.00e+00	0	42	0	757071872	60	4438
2026-01-29 06:54:51.16	8.00	27.13	-45.5	-46.9	20.0	0.00e+00	0	42	0	759169024	61	4494
2026-01-29 06:54:52.17	7.70	27.09	-45.3	-46.7	20.2	0.00e+00	0	42	0	761266176	61	4406
2026-01-29 06:54:53.18	7.39	27.04	-45.0	-46.3	20.5	0.00e+00	0	42	0	763363328	61	4227
2026-01-29 06:54:54.18	7.10	26.99	-44.6	-45.9	20.8	0.00e+00	0	42	0	764411904	61	4008
2026-01-29 06:54:55.19	6.79	26.94	-44.5	-45.7	21.0	0.00e+00	0	42	0	766509056	60	4183
2026-01-29 06:54:56.20	6.49	26.89	-44.8	-46.1	20.7	0.00e+00	0	42	0	768606208	60	4346
2026-01-29 06:54:57.20	6.20	26.84	-45.1	-46.5	20.3	0.00e+00	0	42	0	770703360	60	4558
2026-01-29 06:54:58.20	5.90	26.79	-45.4	-46.8	20.0	0.00e+00	0	42	0	771751936	61	4488
2026-01-29 06:54:59.21	5.61	26.74	-45.8	-47.3	19.6	0.00e+00	0	42	0	773849088	62	4462
2026-01-29 06:55:00.22	5.31	26.69	-46.0	-47.6	19.3	0.00e+00	0	42	0	775946240	62	4619
2026-01-29 06:55:01.23	5.02	26.63	-46.1	-47.7	19.2	0.00e+00	0	42	0	778043392	62	4676
2026-01-29 06:55:02.24	4.72	26.58	-46.2	-47.8	19.1	0.00e+00	0	42	0	780140544	63	4449
2026-01-29 06:55:03.24	4.43	26.52	-46.1	-47.7	19.1	0.00e+00	0	42	0	781189120	63	4428
2026-01-29 06:55:04.25	4.14	26.47	-46.4	-48.0	18.9	0.00e+00	0	42	0	783286272	63	4589
2026-01-29 06:55:05.25	3.85	26.41	-46.5	-48.2	18.7	0.00e+00	0	42	0	785383424	63	4682
2026-01-29 06:55:06.26	3.56	26.35	-46.8	-48.5	18.3	0.00e+00	0	42	0	787480576	64	4596
2026-01-29 06:55:07.27	3.27	26.29	-46.8	-48.5	18.3	0.00e+00	0	42	0	789577728	64	4594
2026-01-29 06:55:08.28	2.98	26.24	-46.8	-48.5	18.3	0.00e+00	0	42	0	791674880	64	4597
2026-01-29 06:55:09.29	2.70	26.18	-47.1	-49.0	17.9	0.00e+00	0	42	0	792723456	64	4827
2026-01-29 06:55:10.29	2.42	26.12	-47.3	-49.3	17.6	0.00e+00	0	42	0	794820608	65	4713
2026-01-29 06:55:11.30	2.13	26.06	-47.0	-48.9	17.9	0.00e+00	0	42	0	796917760	65	4527
2026-01-29 06:55:12.31	1.85	26.00	-46.8	-48.6	18.1	0.00e+00	0	42	0	799014912	65	4383
2026-01-29 06:55:13.31	1.57	25.93	-46.6	-48.3	18.5	0.00e+00	0	42	0	800063488	64	4462
2026-01-29 06:55:14.32	1.29	25.87	-46.5	-48.2	18.5	0.00e+00	0	42	0	802160640	64	4410
2026-01-29 06:55:15.33	1.01	25.81	-46.3	-48.0	18.8	0.00e+00	0	42	0	804257792	64	4321
2026-01-29 06:55:16.34	0.73	25.74	-46.1	-47.7	19.1	0.00e+00	0	42	0	806354944	63	4399
2026-01-29 06:55:17.34	0.45	25.68	-45.9	-47.4	19.4	0.00e+00	0	42	0	808452096	63	4257
2026-01-29 06:55:18.35	0.18	25.62	-45.8	-47.3	19.5	0.00e+00	0	42	0	810549248	63	4236
2026-01-29 06:55:19.36	359.90	25.55	-45.8	-47.3	19.5	0.00e+00	0	42	0	811597824	63	4217
2026-01-29 06:55:20.37	359.63	25.48	-45.8	-47.3	19.4	0.00e+00	0	42	0	813694976	63	4233
2026-01-29 06:55:21.37	359.36	25.42	-45.4	-46.8	19.8	0.00e+00	0	42	0	815792128	62	4234
2026-01-29 06:55:22.38	359.08	25.35	-45.1	-46.5	20.1	0.00e+00	0	42	0	817889280	62	4094
2026-01-29 06:55:23.39	358.81	25.28	-44.9	-46.2	20.4	0.00e+00	0	42	0	819986432	61	4180
2026-01-29 06:55:24.40	358.54	25.21	-44.9	-46.3	20.4	0.00e+00	0	42	0	821035008	61	4214
2026-01-29 06:55:25.41	358.28	25.15	-44.9	-46.3	20.4	0.00e+00	0	42	0	823132160	61	4200
2026-01-29 06:55:26.42	358.01	25.08	-45.2	-46.7	20.0	0.00e+00	0	42	0	825229312	61	4400
2026-01-29 06:55:27.42	357.74	25.01	-45.8	-47.3	19.4	0.00e+00	0	42	0	827326464	62	4488
2026-01-29 06:55:28.43	357.48	24.94	-45.6	-47.1	19.4	0.00e+00	0	42	0	828375040	62	4357
2026-01-29 06:55:29.44	357.22	24.87	-45.9	-47.4	19.3	0.00e+00	0	42	0	830472192	62	4545
2026-01-29 06:55:30.45	356.95	24.80	-45.9	-47.5	19.2	0.00e+00	0	42	0	832569344	62	4592
2026-01-29 06:55:31.46	356.69	24.72	-46.2	-47.9	18.9	0.00e+00	0	42	0	834666496	62	4788
2026-01-29 06:55:32.47	356.43	24.65	-46.3	-48.0	18.8	0.00e+00	0	42	0	836763648	63	4593
2026-01-29 06:55:33.48	356.17	24.58	-46.3	-48.1	18.7	0.00e+00	0	42	0	838860800	63	4614
2026-01-29 06:55:34.48	355.92	24.51	-46.3	-48.1	18.6	0.00e+00	0	42	0	839909376	64	4387
2026-01-29 06:55:35.48	355.66	24.43	-46.2	-48.0	18.8	0.00e+00	0	42	0	842006528	64	4300
2026-01-29 06:55:36.49	355.41	24.36	-46.1	-47.8	18.9	0.00e+00	0	42	0	844103680	64	4198
2026-01-29 06:55:37.50	355.15	24.29	-46.3	-48.1	18.6	0.00e+00	0	42	0	846200832	64	4354
2026-01-29 06:55:38.51	354.90	24.21	-46.2	-48.0	18.7	0.00e+00	0	42	0	848297984	64	4318
2026-01-29 06:55:39.51	354.65	24.14	-46.3	-48.0	18.8	0.00e+00	0	42	0	849346560	63	4571
2026-01-29 06:55:40.52	354.40	24.06	-46.3	-48.1	18.7	0.00e+00	0	42	0	851443712	63	4619
2026-01-29 06:55:41.53	354.15	23.99	-46.3	-48.0	18.8	0.00e+00	0	42	0	853540864	63	4593
2026-01-29 06:55:42.54	353.90	23.91	-46.5	-48.3	18.5	0.00e+00	0	42	0	855638016	63	4716
2026-01-29 06:55:43.54	353.66	23.83	-46.5	-48.2	18.6	0.00e+00	0	42	0	856686592	63	4669
2026-01-29 06:55:44.55	353.41	23.76	-46.1	-47.7	19.0	0.00e+00	0	42	0	858783744	63	4434
2026-01-29 06:55:45.56	353.17	23.68	-45.6	-47.1	19.6	0.00e+00	0	42	0	860880896	63	4133
2026-01-29 06:55:46.57	352.93	23.60	-45.5	-47.0	19.7	0.00e+00	0	42	0	862978048	63	4058
2026-01-29 06:55:47.58	352.69	23.53	-45.0	-46.4	20.3	0.00e+00	0	42	0	865075200	62	4024
2026-01-29 06:55:48.59	352.44	23.45	-45.2	-46.5	20.1	0.00e+00	0	42	0	867172352	62	4096
2026-01-29 06:55:49.60	352.20	23.37	-45.1	-46.5	20.2	0.00e+00	0	42	0	868220928	62	4081
2026-01-29 06:55:50.61	351.97	23.29	-45.1	-46.5	20.2	0.00e+00	0	42	0	870318080	61	4318
2026-01-29 06:55:51.61	351.73	23.21	-44.8	-46.2	20.5	0.00e+00	0	42	0	872415232	61	4157
2026-01-29 06:55:52.62	351.50	23.13	-44.8	-46.2	20.4	0.00e+00	0	42	0	874512384	61	4166
2026-01-29 06:55:53.63	351.26	23.05	-44.8	-46.1	20.5	0.00e+00	0	42	0	876609536	61	4123
2026-01-29 06:55:54.64	351.03	22.97	-44.7	-46.0	20.6	0.00e+00	0	42	0	877658112	61	4077
2026-01-29 06:55:55.64	350.80	22.89	-44.6	-46.0	20.6	0.00e+00	0	42	0	879755264	61	4052
2026-01-29 06:55:56.65	350.57	22.81	-44.6	-45.8	20.7	0.00e+00	0	42	0	881852416	61	4002
2026-01-29 06:55:57.66	350.34	22.73	-44.5	-45.8	20.7	0.00e+00	0	42	0	883949568	60	4215
2026-01-29 06:55:58.67	350.11	22.65	-44.1	-45.4	21.1	0.00e+00	0	42	0	886046720	60	4005
2026-01-29 06:55:59.67	349.88	22.57	-44.1	-45.3	21.2	0.00e+00	0	42	0	887095296	60	3966
2026-01-29 06:56:00.67	349.66	22.49	-44.0	-45.2	21.6	0.00e+00	0	42	0	889192448	59	4160
2026-01-29 06:56:01.68	349.43	22.41	-43.9	-45.0	21.7	0.00e+00	0	42	0	891289600	59	4073
2026-01-29 06:56:02.69	349.21	22.33	-43.8	-45.0	21.8	0.00e+00	0	42	0	893386752	59	4057
2026-01-29 06:56:03.70	348.99	22.25	-44.1	-45.3	21.4	0.00e+00	0	42	0	895483904	59	4197
2026-01-29 06:56:04.70	348.77	22.16	-44.4	-45.6	21.2	0.00e+00	0	42	0	896532480	59	4362
2026-01-29 06:56:05.71	348.55	22.08	-44.4	-45.7	20.7	0.00e+00	0	42	0	898629632	60	4177
2026-01-29 06:56:06.72	348.33	22.00	-44.7	-46.0	20.6	0.00e+00	0	42	0	900726784	60	4307
2026-01-29 06:56:07.73	348.11	21.92	-45.0	-46.4	20.2	0.00e+00	0	42	0	902823936	60	4497
2026-01-29 06:56:08.73	347.90	21.83	-45.0	-46.4	20.1	0.00e+00	0	42	0	904921088	60	4538
2026-01-29 06:56:09.74	347.68	21.75	-45.1	-46.5	20.0	0.00e+00	0	42	0	905969664	60	4596
2026-01-29 06:56:10.75	347.47	21.67	-45.2	-46.7	19.9	0.00e+00	0	42	0	908066816	61	4403
2026-01-29 06:56:11.76	347.25	21.58	-45.0	-46.4	20.1	0.00e+00	0	42	0	910163968	61	4287
2026-01-29 06:56:12.77	347.04	21.50	-45.0	-46.3	20.3	0.00e+00	0	42	0	912261120	61	4240
2026-01-29 06:56:13.77	346.83	21.42	-44.7	-46.0	20.5	0.00e+00	0	42	0	914358272	61	4056
2026-01-29 06:56:14.78	346.62	21.33	-44.4	-45.7	20.8	0.00e+00	0	42	0	915406848	60	4166
2026-01-29 06:56:15.79	346.41	21.25	-44.5	-45.7	20.8	0.00e+00	0	42	0	917504000	60	4186
2026-01-29 06:56:16.80	346.21	21.17	-44.5	-45.7	20.8	0.00e+00	0	42	0	919601152	60	4182
2026-01-29 06:56:17.81	346.00	21.08	-44.5	-45.8	20.6	0.00e+00	0	42	0	921698304	60	4224
2026-01-29 06:56:18.82	345.79	21.00	-44.5	-45.8	20.7	0.00e+00	0	42	0	923795456	60	4213
2026-01-29 06:56:19.83	345.59	20.91	-44.4	-45.7	20.8	0.00e+00	0	42	0	924844032	60	4155
2026-01-29 06:56:20.83	345.39	20.83	-44.0	-45.2	21.2	0.00e+00	0	42	0	926941184	60	3953
2026-01-29 06:56:21.84	345.19	20.75	-43.8	-44.9	21.8	0.00e+00	0	42	0	929038336	59	4045
2026-01-29 06:56:22.85	344.99	20.66	-43.5	-44.6	22.0	0.00e+00	0	42	0	931135488	59	3900
2026-01-29 06:56:23.86	344.79	20.58	-43.3	-44.4	22.3	0.00e+00	0	42	0	933232640	58	4006
2026-01-29 06:56:24.86	344.59	20.49	-43.2	-44.3	22.3	0.00e+00	0	42	0	934281216	58	3987
2026-01-29 06:56:25.87	344.39	20.41	-43.5	-44.6	22.1	0.00e+00	0	42	0	936378368	58	4107
2026-01-29 06:56:26.87	344.20	20.32	-43.6	-44.8	21.9	0.00e+00	0	42	0	938475520	58	4205
2026-01-29 06:56:27.88	344.00	20.24	-43.8	-44.9	21.7	0.00e+00	0	42	0	940572672	58	4282
2026-01-29 06:56:28.89	343.81	20.15	-44.0	-45.1	21.6	0.00e+00	0	42	0	942669824	58	4377
2026-01-29 06:56:29.89	343.62	20.07	-44.1	-45.2	21.5	0.00e+00	0	42	0	943718400	58	4437
2026-01-29 06:56:30.90	343.43	19.98	-44.1	-45.2	21.5	0.00e+00	0	42	0	945815552	58	4441
2026-01-29 06:56:31.90	343.24	19.90	-44.2	-45.4	21.4	0.00e+00	0	42	0	947912704	58	4501
2026-01-29 06:56:32.91	343.05	19.81	-44.1	-45.3	21.4	0.00e+00	0	42	0	950009856	58	4479
2026-01-29 06:56:33.92	342.86	19.73	-44.2	-45.4	21.3	0.00e+00	0	42	0	952107008	59	4281
2026-01-29 06:56:34.93	342.67	19.64	-44.2	-45.4	21.3	0.00e+00	0	42	0	953155584	59	4251
2026-01-29 06:56:35.94	342.48	19.56	-44.2	-45.4	21.3	0.00e+00	0	42	0	955252736	59	4278
2026-01-29 06:56:36.95	342.30	19.47	-44.4	-45.6	21.2	0.00e+00	0	42	0	957349888	59	4352
2026-01-29 06:56:37.95	342.12	19.39	-44.4	-45.6	21.2	0.00e+00	0	42	0	959447040	59	4361
2026-01-29 06:56:38.96	341.93	19.30	-44.6	-45.8	21.0	0.00e+00	0	42	0	961544192	59	4470
2026-01-29 06:56:39.97	341.75	19.22	-44.6	-45.8	21.0	0.00e+00	0	42	0	962592768	59	4483
2026-01-29 06:56:40.98	341.57	19.13	-44.4	-45.6	20.9	0.00e+00	0	42	0	964689920	60	4119
2026-01-29 06:56:41.98	341.39	19.05	-44.3	-45.5	20.9	0.00e+00	0	42	0	966787072	60	4098
2026-01-29 06:56:42.99	341.21	18.96	-44.1	-45.3	21.1	0.00e+00	0	42	0	968884224	60	3971
2026-01-29 06:56:44.00	341.03	18.87	-44.3	-45.6	20.9	0.00e+00	0	42	0	970981376	60	4104
2026-01-29 06:56:45.01	340.86	18.79	-44.2	-45.4	21.0	0.00e+00	0	42	0	972029952	60	4042
2026-01-29 06:56:46.01	340.68	18.70	-44.3	-45.5	21.0	0.00e+00	0	42	0	974127104	60	4098
2026-01-29 06:56:47.02	340.51	18.62	-44.2	-45.4	21.3	0.00e+00	0	42	0	976224256	59	4278
2026-01-29 06:56:48.03	340.33	18.53	-44.2	-45.4	21.4	0.00e+00	0	42	0	978321408	59	4253
2026-01-29 06:56:49.03	340.16	18.45	-43.8	-44.9	21.7	0.00e+00	0	42	0	980418560	59	4050
2026-01-29 06:56:50.03	339.99	18.36	-44.0	-45.1	21.6	0.00e+00	0	42	0	981467136	59	4118
2026-01-29 06:56:51.04	339.82	18.28	-44.0	-45.2	21.6	0.00e+00	0	42	0	983564288	59	4152
2026-01-29 06:56:52.05	339.65	18.19	-44.1	-45.3	21.5	0.00e+00	0	42	0	985661440	59	4202
2026-01-29 06:56:53.06	339.48	18.11	-44.3	-45.6	21.1	0.00e+00	0	42	0	987758592	59	4341
2026-01-29 06:56:54.07	339.31	18.02	-44.6	-45.9	20.9	0.00e+00	0	42	0	989855744	59	4524
2026-01-29 06:56:55.08	339.14	17.94	-44.6	-45.9	20.6	0.00e+00	0	42	0	990904320	60	4252
2026-01-29 06:56:56.09	338.98	17.85	-45.0	-46.4	20.1	0.00e+00	0	42	0	993001472	60	4506
2026-01-29 06:56:57.09	338.81	17.77	-45.2	-46.6	19.9	0.00e+00	0	42	0	995098624	61	4372
2026-01-29 06:56:58.10	338.65	17.68	-45.2	-46.6	19.9	0.00e+00	0	42	0	997195776	61	4385
2026-01-29 06:56:59.11	338.48	17.60	-45.1	-46.5	20.1	0.00e+00	0	42	0	999292928	61	4306
2026-01-29 06:57:00.11	338.32	17.51	-45.1	-46.5	20.1	0.00e+00	0	42	0	1000341504	61	4302
2026-01-29 06:57:01.12	338.16	17.43	-45.0	-46.4	20.2	0.00e+00	0	42	0	1002438656	61	4249
2026-01-29 06:57:02.13	338.00	17.34	-44.8	-46.1	20.4	0.00e+00	0	42	0	1004535808	61	4107
2026-01-29 06:57:03.13	337.84	17.26	-44.6	-45.9	20.6	0.00e+00	0	42	0	1006632960	61	4006
2026-01-29 06:57:04.14	337.68	17.17	-44.6	-45.9	20.6	0.00e+00	0	42	0	1008730112	61	4007
2026-01-29 06:57:05.14	337.53	17.09	-44.5	-45.8	20.6	0.00e+00	0	42	0	1009778688	60	4225
2026-01-29 06:57:06.15	337.37	17.01	-44.7	-46.0	20.4	0.00e+00	0	42	0	1011875840	60	4330
2026-01-29 06:57:07.16	337.21	16.92	-44.8	-46.1	20.3	0.00e+00	0	42	0	1013972992	60	4363
2026-01-29 06:57:08.17	337.06	16.84	-44.9	-46.2	20.2	0.00e+00	0	42	0	1016070144	60	4441
2026-01-29 06:57:09.18	336.90	16.75	-44.9	-46.2	20.2	0.00e+00	0	42	0	1018167296	60	4437
2026-01-29 06:57:10.19	336.75	16.67	-45.4	-46.8	19.7	0.00e+00	0	42	0	1019215872	61	4485
2026-01-29 06:57:11.20	336.60	16.58	-45.5	-47.0	19.6	0.00e+00	0	42	0	1021313024	61	4563
2026-01-29 06:57:12.21	336.44	16.50	-45.7	-47.2	19.4	0.00e+00	0	42	0	1023410176	61	4663
2026-01-29 06:57:13.21	336.29	16.42	-45.9	-47.5	19.1	0.00e+00	0	42	0	1025507328	62	4550
2026-01-29 06:57:14.21	336.15	16.33	-45.9	-47.5	19.1	0.00e+00	0	42	0	1027604480	62	4583
2026-01-29 06:57:15.22	336.00	16.25	-46.0	-47.6	19.0	0.00e+00	0	42	0	1028653056	62	4614
2026-01-29 06:57:16.23	335.85	16.16	-45.7	-47.2	19.4	0.00e+00	0	42	0	1030750208	62	4421
2026-01-29 06:57:17.24	335.70	16.08	-45.5	-47.0	19.6	0.00e+00	0	42	0	1032847360	62	4295
2026-01-29 06:57:18.24	335.56	16.00	-45.2	-46.5	19.9	0.00e+00	0	42	0	1034944512	62	4096
2026-01-29 06:57:19.25	335.41	15.91	-45.1	-46.5	20.0	0.00e+00	0	42	0	1037041664	62	4067
2026-01-29 06:57:20.25	335.27	15.83	-44.9	-46.2	20.2	0.00e+00	0	42	0	1039138816	61	4178
2026-01-29 06:57:21.26	335.12	15.75	-44.8	-46.2	20.3	0.00e+00	0	42	0	1040187392	61	4162
2026-01-29 06:57:22.27	334.98	15.66	-45.0	-46.4	20.1	0.00e+00	0	42	0	1042284544	61	4272
2026-01-29 06:57:23.27	334.84	15.58	-45.1	-46.4	20.0	0.00e+00	0	42	0	1044381696	61	4289
2026-01-29 06:57:24.28	334.69	15.50	-45.3	-46.7	19.8	0.00e+00	0	42	0	1046478848	61	4411
2026-01-29 06:57:25.29	334.55	15.42	-45.4	-46.8	19.7	0.00e+00	0	42	0	1047527424	61	4469
2026-01-29 06:57:26.30	334.41	15.33	-45.7	-47.3	19.2	0.00e+00	0	42	0	1049624576	62	4464
2026-01-29 06:57:27.30	334.27	15.25	-45.5	-47.0	19.5	0.00e+00	0	42	0	1051721728	62	4335
2026-01-29 06:57:28.31	334.14	15.17	-45.5	-46.9	19.6	0.00e+00	0	42	0	1053818880	62	4279
2026-01-29 06:57:29.32	334.00	15.09	-45.4	-46.8	19.6	0.00e+00	0	42	0	1055916032	62	4240
2026-01-29 06:57:30.33	333.86	15.00	-45.3	-46.7	19.8	0.00e+00	0	42	0	1056964608	62	4162
2026-01-29 06:57:31.33	333.73	14.92	-45.1	-46.5	20.0	0.00e+00	0	42	0	1059061760	62	4060
2026-01-29 06:57:32.34	333.59	14.84	-44.9	-46.3	20.1	0.00e+00	0	42	0	1061158912	61	4198
2026-01-29 06:57:33.35	333.46	14.76	-44.8	-46.2	20.3	0.00e+00	0	42	0	1063256064	61	4147
2026-01-29 06:57:34.36	333.32	14.68	-44.6	-45.9	20.4	0.00e+00	0	42	0	1065353216	61	4028
2026-01-29 06:57:35.37	333.19	14.59	-44.7	-46.1	20.1	0.00e+00	0	42	0	1067450368	61	4105
2026-01-29 06:57:36.38	333.06	14.51	-44.6	-45.9	20.4	0.00e+00	0	42	0	1068498944	61	4029
2026-01-29 06:57:37.38	332.92	14.43	-44.5	-45.8	20.5	0.00e+00	0	42	0	1070596096	60	4237
2026-01-29 06:57:38.39	332.79	14.35	-44.5	-45.8	20.5	0.00e+00	0	42	0	1072693248	60	4211
2026-01-29 06:57:39.40	332.66	14.27	-44.5	-45.8	20.4	0.00e+00	0	42	0	1074790400	60	4240
2026-01-29 06:57:40.41	332.53	14.19	-44.6	-45.9	20.4	0.00e+00	0	42	0	1075838976	60	4268
2026-01-29 06:57:41.41	332.41	14.11	-44.6	-45.9	20.4	0.00e+00	0	42	0	1077936128	60	4286
2026-01-29 06:57:42.42	332.28	14.02	-44.9	-46.2	20.1	0.00e+00	0	42	0	1080033280	60	4423
2026-01-29 06:57:43.43	332.15	13.94	-44.8	-46.2	20.1	0.00e+00	0	42	0	1082130432	60	4401
2026-01-29 06:57:44.43	332.02	13.86	-45.1	-46.4	20.0	0.00e+00	0	42	0	1084227584	60	4536
2026-01-29 06:57:45.43	331.90	13.78	-45.2	-46.6	19.7	0.00e+00	0	42	0	1085276160	61	4381
2026-01-29 06:57:46.44	331.77	13.70	-45.3	-46.7	19.7	0.00e+00	0	42	0	1087373312	61	4409
2026-01-29 06:57:47.44	331.65	13.62	-45.4	-46.8	19.6	0.00e+00	0	42	0	1089470464	61	4480
2026-01-29 06:57:48.45	331.53	13.54	-45.4	-46.8	19.5	0.00e+00	0	42	0	1091567616	61	4486
2026-01-29 06:57:49.45	331.41	13.46	-45.5	-47.0	19.4	0.00e+00	0	42	0	1093664768	61	4557
2026-01-29 06:57:50.46	331.28	13.38	-45.1	-46.6	19.8	0.00e+00	0	42	0	1095761920	61	4345
2026-01-29 06:57:51.47	331.16	13.30	-45.3	-46.7	19.6	0.00e+00	0	42	0	1096810496	61	4426
2026-01-29 06:57:52.48	331.04	13.22	-45.1	-46.6	19.8	0.00e+00	0	42	0	1098907648	61	4346
2026-01-29 06:57:53.49	330.92	13.14	-45.3	-46.7	19.6	0.00e+00	0	42	0	1101004800	61	4440
2026-01-29 06:57:54.49	330.80	13.07	-45.3	-46.8	19.6	0.00e+00	0	42	0	1103101952	61	4457
2026-01-29 06:57:55.50	330.68	12.99	-45.5	-47.0	19.4	0.00e+00	0	42	0	1104150528	61	4569
2026-01-29 06:57:56.51	330.56	12.91	-45.7	-47.2	19.2	0.00e+00	0	42	0	1106247680	62	4420
2026-01-29 06:57:57.52	330.44	12.83	-46.0	-47.6	18.8	0.00e+00	0	42	0	1108344832	62	4624
2026-01-29 06:57:58.53	330.33	12.75	-46.4	-48.2	18.3	0.00e+00	0	42	0	1110441984	63	4664
2026-01-29 06:57:59.53	330.21	12.67	-46.5	-48.2	18.2	0.00e+00	0	42	0	1112539136	63	4705
2026-01-29 06:58:00.54	330.10	12.59	-46.7	-48.6	17.7	0.00e+00	0	42	0	1113587712	64	4638
2026-01-29 06:58:01.55	329.98	12.51	-46.9	-48.9	17.5	0.00e+00	0	42	0	1115684864	64	4775
2026-01-29 06:58:02.56	329.87	12.44	-46.9	-48.9	17.5	0.00e+00	0	42	0	1117782016	64	4760
2026-01-29 06:58:03.56	329.75	12.36	-46.7	-48.6	17.8	0.00e+00	0	42	0	1119879168	64	4604
2026-01-29 06:58:04.57	329.64	12.28	-46.5	-48.3	18.0	0.00e+00	0	42	0	1121976320	64	4458
2026-01-29 06:58:05.58	329.53	12.20	-46.2	-48.0	18.2	0.00e+00	0	42	0	1124073472	64	4301
2026-01-29 06:58:06.58	329.41	12.12	-46.0	-47.6	18.8	0.00e+00	0	42	0	1125122048	63	4365
2026-01-29 06:58:07.59	329.30	12.05	-45.7	-47.3	19.0	0.00e+00	0	42	0	1127219200	63	4222
2026-01-29 06:58:08.60	329.19	11.97	-45.6	-47.2	19.2	0.00e+00	0	42	0	1129316352	63	4154
2026-01-29 06:58:09.61	329.08	11.89	-45.4	-46.9	19.4	0.00e+00	0	42	0	1131413504	62	4255
2026-01-29 06:58:10.62	328.97	11.81	-45.3	-46.7	19.6	0.00e+00	0	42	0	1132462080	62	4186
2026-01-29 06:58:11.62	328.86	11.74	-45.1	-46.6	19.7	0.00e+00	0	42	0	1134559232	62	4100
2026-01-29 06:58:12.63	328.75	11.66	-45.3	-46.7	19.5	0.00e+00	0	42	0	1136656384	62	4189
2026-01-29 06:58:13.63	328.65	11.58	-45.3	-46.7	19.5	0.00e+00	0	42	0	1138753536	62	4184
2026-01-29 06:58:14.64	328.54	11.51	-45.4	-46.9	19.3	0.00e+00	0	42	0	1140850688	62	4288
2026-01-29 06:58:15.65	328.43	11.43	-45.7	-47.3	19.0	0.00e+00	0	42	0	1142947840	62	4478
2026-01-29 06:58:16.66	328.33	11.35	-46.1	-47.9	18.5	0.00e+00	0	42	0	1143996416	62	4765
2026-01-29 06:58:17.67	328.22	11.28	-46.3	-48.1	18.3	0.00e+00	0	42	0	1146093568	63	4611
2026-01-29 06:58:18.67	328.12	11.20	-46.5	-48.3	18.0	0.00e+00	0	42	0	1148190720	63	4728
2026-01-29 06:58:19.68	328.01	11.13	-46.7	-48.7	17.6	0.00e+00	0	42	0	1150287872	64	4680
2026-01-29 06:58:20.68	327.91	11.05	-46.9	-48.9	17.4	0.00e+00	0	42	0	1152385024	64	4773
2026-01-29 06:58:21.69	327.81	10.98	-46.9	-48.8	17.3	0.00e+00	0	42	0	1153433600	64	4759
2026-01-29 06:58:22.70	327.70	10.90	-47.1	-49.2	17.1	0.00e+00	0	42	0	1155530752	64	4939
2026-01-29 06:58:23.70	327.60	10.82	-47.2	-49.3	16.9	0.00e+00	0	42	0	1157627904	65	4756
2026-01-29 06:58:24.71	327.50	10.75	-47.1	-49.3	17.0	0.00e+00	0	42	0	1159725056	65	4708
2026-01-29 06:58:25.72	327.40	10.67	-47.1	-49.2	17.0	0.00e+00	0	42	0	1160773632	65	4688
2026-01-29 06:58:26.73	327.30	10.60	-47.1	-49.2	17.0	0.00e+00	0	42	0	1162870784	65	4686
2026-01-29 06:58:27.73	327.20	10.52	-46.9	-48.9	17.3	0.00e+00	0	42	0	1164967936	65	4527
2026-01-29 06:58:28.74	327.10	10.45	-47.0	-49.0	17.2	0.00e+00	0	42	0	1167065088	65	4564
2026-01-29 06:58:29.75	327.00	10.37	-46.9	-48.9	17.3	0.00e+00	0	42	0	1169162240	65	4512
2026-01-29 06:58:30.76	326.90	10.30	-46.7	-48.6	17.6	0.00e+00	0	42	0	1171259392	65	4382
2026-01-29 06:58:31.76	326.80	10.23	-46.7	-48.6	17.6	0.00e+00	0	42	0	1172307968	65	4352
2026-01-29 06:58:32.77	326.70	10.15	-46.6	-48.5	17.7	0.00e+00	0	42	0	1174405120	65	4295
2026-01-29 06:58:33.78	326.61	10.08	-46.7	-48.7	17.5	0.00e+00	0	42	0	1176502272	65	4407
2026-01-29 06:58:34.79	326.51	10.00	-46.7	-48.6	17.5	0.00e+00	0	42	0	1178599424	65	4378
2026-01-29 06:58:35.79	326.42	9.93	-46.8	-48.8	17.4	0.00e+00	0	42	0	1180696576	65	4482
2026-01-29 06:58:36.80	326.32	9.86	-46.7	-48.7	17.4	0.00e+00	0	42	0	1181745152	65	4407
2026-01-29 06:58:37.80	326.23	9.78	-46.8	-48.8	17.5	0.00e+00	0	42	0	1183842304	65	4449
2026-01-29 06:58:38.82	326.13	9.71	-46.9	-49.0	17.2	0.00e+00	0	42	0	1185939456	65	4555
2026-01-29 06:58:39.82	326.04	9.64	-47.0	-49.1	17.0	0.00e+00	0	42	0	1188036608	65	4626
2026-01-29 06:58:40.83	325.94	9.56	-47.2	-49.3	16.9	0.00e+00	0	42	0	1189085184	65	4725
2026-01-29 06:58:41.83	325.85	9.49	-47.4	-49.7	16.5	0.00e+00	0	42	0	1191182336	65	4937
2026-01-29 06:58:42.84	325.76	9.42	-47.4	-49.7	16.5	0.00e+00	0	42	0	1193279488	65	4932
2026-01-29 06:58:43.85	325.67	9.35	-47.4	-49.6	16.5	0.00e+00	0	42	0	1195376640	65	4899
2026-01-29 06:58:44.85	325.57	9.27	-47.6	-50.0	16.1	0.00e+00	0	42	0	1197473792	65	5129
2026-01-29 06:58:45.86	325.48	9.20	-47.5	-49.8	16.4	0.00e+00	0	42	0	1199570944	65	4993
2026-01-29 06:58:46.87	325.39	9.13	-47.4	-49.6	16.5	0.00e+00	0	42	0	1200619520	65	4918
2026-01-29 06:58:47.88	325.30	9.06	-47.4	-49.6	16.5	0.00e+00	0	42	0	1202716672	65	4906
2026-01-29 06:58:48.88	325.21	8.99	-47.2	-49.4	16.7	0.00e+00	0	42	0	1204813824	65	4772
2026-01-29 06:58:49.89	325.12	8.91	-47.0	-49.1	17.0	0.00e+00	0	42	0	1206910976	65	4604
2026-01-29 06:58:50.90	325.03	8.84	-46.9	-48.9	17.2	0.00e+00	0	42	0	1209008128	65	4510
2026-01-29 06:58:51.90	324.95	8.77	-46.7	-48.7	17.4	0.00e+00	0	42	0	1210056704	65	4418
2026-01-29 06:58:52.91	324.86	8.70	-46.5	-48.4	17.7	0.00e+00	0	42	0	1212153856	64	4494
2026-01-29 06:58:53.92	324.77	8.63	-46.2	-48.0	18.0	0.00e+00	0	42	0	1214251008	64	4306
2026-01-29 06:58:54.92	324.68	8.56	-46.1	-47.8	18.2	0.00e+00	0	42	0	1216348160	64	4224
2026-01-29 06:58:55.93	324.60	8.49	-46.1	-47.8	18.3	0.00e+00	0	42	0	1217396736	63	4460
2026-01-29 06:58:56.94	324.51	8.42	-45.9	-47.6	18.5	0.00e+00	0	42	0	1219493888	63	4360
2026-01-29 06:58:57.94	324.43	8.35	-45.9	-47.6	18.4	0.00e+00	0	42	0	1221591040	63	4356
2026-01-29 06:58:58.95	324.34	8.28	-45.7	-47.4	18.7	0.00e+00	0	42	0	1223688192	63	4249
2026-01-29 06:58:59.95	324.26	8.21	-45.8	-47.5	18.6	0.00e+00	0	42	0	1225785344	63	4295
2026-01-29 06:59:00.96	324.17	8.13	-45.8	-47.5	18.6	0.00e+00	0	42	0	1227882496	63	4306
2026-01-29 06:59:01.97	324.09	8.06	-45.9	-47.5	18.5	0.00e+00	0	42	0	1228931072	63	4337
2026-01-29 06:59:02.97	324.00	8.00	-46.0	-47.8	18.3	0.00e+00	0	42	0	1231028224	63	4444
2026-01-29 06:59:03.98	323.92	7.93	-46.1	-47.9	18.2	0.00e+00	0	42	0	1233125376	63	4508
2026-01-29 06:59:04.99	323.84	7.86	-46.3	-48.1	17.9	0.00e+00	0	42	0	1235222528	63	4618
