passes_logs/2026/01/29/R3.2S_Murmansk/R3.2S_Murmansk__20260129_232019_NOAA_21_JPSS-2_rec.log

#Pass ID: 20260129_232019_NOAA 21 (JPSS-2)
#Satellite: NOAA 21 (JPSS-2)
#Configuration: NOAA-21
#almurnet v.1.7.20251203
#Start time: 2026-01-29 23:20:20

#Version: 2.2.20231116
#Station: R3.2S_Murmansk
#Location: 33.079688 lon 68.888172 lat
#TLE: 1 54234U 22150A   26029.46216196  .00000141  00000+0  87503-4 0  9994
#TLE: 2 54234  98.7512 330.1880 0000955 196.3413 163.7732 14.19540905166865

#Time	Az	El	Level	Level2	SNR	BER	BlckErr	Temp	State	Recorded	gain1	gain2
2026-01-29 23:20:20.43	20.49	2.07	-54.0	-66.8	3.8	1.49e+00	0	42	0	0	79	15891
2026-01-29 23:20:21.42	20.53	2.13	-54.0	-66.8	3.8	1.49e+00	0	42	104	0	78	16761
2026-01-29 23:20:22.43	20.58	2.19	-54.0	-66.8	3.8	1.49e+00	0	42	104	0	78	16749
2026-01-29 23:20:23.44	20.62	2.25	-54.0	-66.7	3.8	1.49e+00	0	42	104	0	78	16683
2026-01-29 23:20:24.44	20.66	2.31	-54.0	-66.7	3.8	1.49e+00	0	41	104	0	78	16645
2026-01-29 23:20:25.45	20.70	2.37	-54.0	-66.7	3.8	1.49e+00	0	41	104	0	78	16647
2026-01-29 23:20:26.46	20.75	2.43	-54.0	-66.7	3.8	1.49e+00	0	42	104	0	78	16619
2026-01-29 23:20:27.47	20.79	2.50	-53.9	-66.7	3.8	1.49e+00	0	42	104	0	78	16599
2026-01-29 23:20:28.47	20.83	2.56	-53.9	-66.7	3.8	1.49e+00	0	42	104	0	78	16606
2026-01-29 23:20:29.48	20.87	2.62	-53.9	-66.7	3.8	1.49e+00	0	41	104	0	78	16590
2026-01-29 23:20:30.48	20.92	2.68	-53.9	-66.7	3.8	1.49e+00	0	42	104	0	78	16542
2026-01-29 23:20:31.49	20.96	2.75	-54.0	-66.7	3.8	1.49e+00	0	41	104	0	78	16605
2026-01-29 23:20:32.50	21.00	2.81	-54.0	-66.7	3.8	1.49e+00	0	41	104	0	78	16644
2026-01-29 23:20:33.50	21.05	2.87	-53.9	-66.7	3.8	1.49e+00	0	42	104	0	78	16595
2026-01-29 23:20:34.51	21.09	2.93	-53.9	-66.7	3.8	1.49e+00	0	42	104	0	78	16523
2026-01-29 23:20:35.52	21.14	3.00	-53.9	-66.7	3.8	1.49e+00	0	42	104	0	78	16509
2026-01-29 23:20:36.53	21.18	3.06	-53.9	-66.6	3.8	1.49e+00	0	42	104	0	78	16500
2026-01-29 23:20:37.53	21.22	3.12	-53.9	-66.6	3.8	1.49e+00	0	42	104	0	78	16503
2026-01-29 23:20:38.55	21.27	3.19	-54.0	-66.8	3.8	1.49e+00	0	42	104	0	78	16708
2026-01-29 23:20:39.55	21.31	3.25	-54.1	-66.9	3.8	1.49e+00	0	42	104	0	78	16906
2026-01-29 23:20:40.56	21.36	3.32	-54.1	-66.9	3.8	1.49e+00	0	42	104	0	78	16975
2026-01-29 23:20:41.57	21.40	3.38	-54.2	-66.9	3.8	1.49e+00	0	42	104	0	78	17083
2026-01-29 23:20:42.57	21.45	3.44	-54.2	-67.0	3.8	1.49e+00	0	42	104	0	79	16236
2026-01-29 23:20:43.58	21.49	3.51	-54.2	-67.0	3.8	1.49e+00	0	42	104	0	79	16189
2026-01-29 23:20:44.58	21.54	3.57	-54.2	-67.0	3.8	1.49e+00	0	41	104	0	79	16252
2026-01-29 23:20:45.59	21.58	3.64	-54.2	-67.0	3.8	1.49e+00	0	42	104	0	79	16203
2026-01-29 23:20:46.60	21.63	3.70	-54.2	-66.9	3.8	1.49e+00	0	42	104	0	79	16060
2026-01-29 23:20:47.60	21.68	3.77	-54.1	-66.9	3.8	1.49e+00	0	42	104	0	79	16000
2026-01-29 23:20:48.61	21.72	3.83	-54.1	-66.9	3.8	1.49e+00	0	42	104	0	79	16012
2026-01-29 23:20:49.62	21.77	3.90	-54.2	-66.9	3.8	1.49e+00	0	41	104	0	79	16019
2026-01-29 23:20:50.63	21.82	3.96	-54.2	-66.9	3.8	1.49e+00	0	42	104	0	79	16110
2026-01-29 23:20:51.63	21.86	4.03	-54.1	-66.9	3.8	1.49e+00	0	42	104	0	79	16031
2026-01-29 23:20:52.64	21.91	4.09	-54.1	-66.8	3.8	1.49e+00	0	42	104	0	79	15849
2026-01-29 23:20:53.65	21.96	4.16	-54.0	-66.7	3.8	1.49e+00	0	42	104	0	79	15683
2026-01-29 23:20:54.65	22.00	4.22	-53.9	-66.6	3.8	1.49e+00	0	41	104	0	79	15528
2026-01-29 23:20:55.66	22.05	4.29	-53.7	-66.5	3.8	1.49e+00	0	42	104	0	79	15282
2026-01-29 23:20:56.67	22.10	4.36	-53.6	-66.3	3.8	1.49e+00	0	41	104	0	79	15006
2026-01-29 23:20:57.68	22.15	4.42	-53.4	-66.2	3.8	1.49e+00	0	42	104	0	78	15587
2026-01-29 23:20:58.69	22.20	4.49	-53.2	-65.9	3.8	1.49e+00	0	42	104	0	78	15095
2026-01-29 23:20:59.69	22.24	4.55	-52.9	-65.6	3.8	1.49e+00	0	42	104	0	77	15422
2026-01-29 23:21:00.70	22.29	4.62	-52.5	-65.2	3.8	1.49e+00	0	42	104	0	77	14860
2026-01-29 23:21:01.71	22.34	4.69	-49.1	-52.2	11.4	1.46e+00	2	41	104	0	70	4950
2026-01-29 23:21:02.71	22.39	4.75	-48.3	-50.8	13.0	1.38e-04	0	42	0	2097152	68	4722
2026-01-29 23:21:03.73	22.44	4.82	-47.6	-49.8	13.9	3.80e-06	0	41	0	5242880	67	4472
2026-01-29 23:21:04.73	22.49	4.89	-47.1	-49.2	14.5	7.00e-07	0	42	0	8388608	66	4403
2026-01-29 23:21:05.74	22.54	4.96	-46.7	-48.6	15.1	0.00e+00	0	42	0	11534336	65	4353
2026-01-29 23:21:06.75	22.59	5.02	-46.3	-48.0	15.6	0.00e+00	0	41	0	14680064	64	4336
2026-01-29 23:21:07.75	22.64	5.09	-45.8	-47.3	16.5	0.00e+00	0	41	0	17825792	63	4232
2026-01-29 23:21:08.76	22.69	5.16	-44.7	-46.0	17.6	0.00e+00	0	41	0	20971520	61	4098
2026-01-29 23:21:09.77	22.74	5.23	-50.8	-56.2	7.8	7.00e-07	0	42	0	24117248	72	6974
2026-01-29 23:21:10.78	22.79	5.30	-47.0	-48.9	14.7	1.30e-02	0	42	0	24117248	66	4257
2026-01-29 23:21:11.79	22.84	5.37	-46.6	-48.5	15.3	0.00e+00	0	42	0	27262976	63	4821
2026-01-29 23:21:12.79	22.89	5.43	-44.6	-45.8	17.7	0.00e+00	0	42	0	30408704	61	3997
2026-01-29 23:21:13.80	22.94	5.50	-44.3	-45.6	18.0	0.00e+00	0	41	0	33554432	60	4122
2026-01-29 23:21:14.81	23.00	5.57	-44.2	-45.5	18.1	0.00e+00	0	42	0	36700160	60	4058
2026-01-29 23:21:15.81	23.05	5.64	-44.3	-45.6	18.0	0.00e+00	0	42	0	39845888	60	4109
2026-01-29 23:21:16.82	23.10	5.71	-44.3	-45.5	18.5	0.00e+00	0	41	0	42991616	59	4300
2026-01-29 23:21:17.82	23.15	5.78	-44.5	-45.8	18.2	0.00e+00	0	41	0	46137344	59	4450
2026-01-29 23:21:18.83	23.20	5.85	-44.4	-45.6	18.3	0.00e+00	0	41	0	49283072	59	4370
2026-01-29 23:21:19.84	23.26	5.92	-44.1	-45.3	18.7	0.00e+00	0	42	0	52428800	59	4194
2026-01-29 23:21:20.85	23.31	5.99	-44.2	-45.4	18.6	0.00e+00	0	41	0	55574528	59	4249
2026-01-29 23:21:21.86	23.36	6.06	-44.4	-45.6	18.4	0.00e+00	0	42	0	58720256	59	4360
2026-01-29 23:21:22.86	23.41	6.13	-44.3	-45.5	18.5	0.00e+00	0	41	0	61865984	59	4336
2026-01-29 23:21:23.87	23.47	6.20	-43.9	-45.1	18.9	0.00e+00	0	42	0	65011712	59	4114
2026-01-29 23:21:24.88	23.52	6.27	-43.9	-45.1	18.9	0.00e+00	0	41	0	68157440	59	4118
2026-01-29 23:21:25.89	23.58	6.34	-44.0	-45.1	18.9	0.00e+00	0	41	0	71303168	59	4138
2026-01-29 23:21:26.90	23.63	6.41	-43.8	-45.0	19.0	0.00e+00	0	41	0	74448896	59	4057
2026-01-29 23:21:27.90	23.69	6.48	-43.8	-45.0	19.0	0.00e+00	0	42	0	77594624	59	4059
2026-01-29 23:21:28.91	23.74	6.55	-44.0	-45.1	18.9	0.00e+00	0	41	0	80740352	59	4132
2026-01-29 23:21:29.92	23.80	6.63	-43.8	-44.9	19.2	0.00e+00	0	41	0	83886080	59	4010
2026-01-29 23:21:30.93	23.85	6.70	-44.0	-45.2	18.9	0.00e+00	0	41	0	87031808	59	4163
2026-01-29 23:21:31.94	23.91	6.77	-44.1	-45.2	18.9	0.00e+00	0	42	0	90177536	59	4192
2026-01-29 23:21:32.95	23.96	6.84	-43.9	-45.0	19.1	0.00e+00	0	41	0	93323264	59	4062
2026-01-29 23:21:33.96	24.02	6.91	-43.9	-45.1	19.0	0.00e+00	0	41	0	96468992	59	4105
2026-01-29 23:21:34.97	24.07	6.99	-43.9	-45.0	19.0	0.00e+00	0	41	0	99614720	59	4098
2026-01-29 23:21:35.98	24.13	7.06	-43.6	-44.7	19.3	0.00e+00	0	42	0	102760448	59	3955
2026-01-29 23:21:36.99	24.19	7.13	-43.8	-44.9	19.2	0.00e+00	0	41	0	105906176	59	4046
2026-01-29 23:21:37.99	24.24	7.20	-43.8	-44.9	19.2	0.00e+00	0	42	0	109051904	59	4026
2026-01-29 23:21:39.00	24.30	7.28	-43.7	-44.8	19.2	0.00e+00	0	41	0	112197632	59	4002
2026-01-29 23:21:40.01	24.36	7.35	-43.6	-44.7	19.4	0.00e+00	0	41	0	115343360	59	3930
2026-01-29 23:21:41.01	24.42	7.42	-43.6	-44.7	19.4	0.00e+00	0	41	0	118489088	59	3921
2026-01-29 23:21:42.02	24.48	7.50	-43.5	-44.6	19.5	0.00e+00	0	42	0	121634816	59	3879
2026-01-29 23:21:43.02	24.53	7.57	-43.4	-44.5	19.6	0.00e+00	0	41	0	124780544	58	4075
2026-01-29 23:21:44.03	24.59	7.64	-43.6	-44.6	19.5	0.00e+00	0	41	0	127926272	58	4128
2026-01-29 23:21:45.04	24.65	7.72	-43.6	-44.6	19.5	0.00e+00	0	41	0	131072000	58	4142
2026-01-29 23:21:46.04	24.71	7.79	-43.6	-44.6	19.5	0.00e+00	0	41	0	134217728	58	4127
2026-01-29 23:21:47.05	24.77	7.87	-43.5	-44.6	19.5	0.00e+00	0	41	0	137363456	58	4112
2026-01-29 23:21:48.06	24.83	7.94	-43.4	-44.5	19.6	0.00e+00	0	41	0	140509184	58	4064
2026-01-29 23:21:49.07	24.89	8.02	-43.6	-44.7	19.4	0.00e+00	0	41	0	143654912	58	4151
2026-01-29 23:21:50.07	24.95	8.09	-43.5	-44.5	19.6	0.00e+00	0	41	0	146800640	58	4088
2026-01-29 23:21:51.07	25.01	8.17	-43.4	-44.5	19.7	0.00e+00	0	42	0	149946368	58	4068
2026-01-29 23:21:52.08	25.07	8.24	-43.5	-44.5	19.6	0.00e+00	0	41	0	153092096	58	4093
2026-01-29 23:21:53.09	25.13	8.32	-43.5	-44.5	19.6	0.00e+00	0	41	0	156237824	58	4087
2026-01-29 23:21:54.10	25.19	8.40	-43.6	-44.6	19.5	0.00e+00	0	41	0	159383552	58	4143
2026-01-29 23:21:55.10	25.25	8.47	-43.3	-44.3	19.9	0.00e+00	0	41	0	162529280	58	3978
2026-01-29 23:21:56.11	25.32	8.55	-43.3	-44.3	19.9	0.00e+00	0	42	0	165675008	58	3975
2026-01-29 23:21:57.12	25.38	8.63	-43.5	-44.5	19.7	0.00e+00	0	41	0	168820736	58	4086
2026-01-29 23:21:58.13	25.44	8.70	-43.4	-44.5	19.7	0.00e+00	0	41	0	171966464	58	4071
2026-01-29 23:21:59.13	25.51	8.78	-43.2	-44.3	19.9	0.00e+00	0	42	0	175112192	58	3959
2026-01-29 23:22:00.14	25.57	8.86	-43.3	-44.3	19.9	0.00e+00	0	41	0	178257920	58	3980
2026-01-29 23:22:01.14	25.63	8.93	-43.3	-44.3	19.8	0.00e+00	0	42	0	181403648	58	3988
2026-01-29 23:22:02.15	25.70	9.01	-43.3	-44.3	19.9	0.00e+00	0	41	0	184549376	58	3974
2026-01-29 23:22:03.16	25.76	9.09	-43.1	-44.1	20.0	0.00e+00	0	42	0	187695104	58	3901
2026-01-29 23:22:04.16	25.82	9.17	-43.0	-44.0	20.1	0.00e+00	0	42	0	190840832	58	3839
2026-01-29 23:22:05.17	25.89	9.25	-43.0	-43.9	20.1	0.00e+00	0	41	0	193986560	57	4047
2026-01-29 23:22:06.17	25.95	9.32	-42.9	-43.8	20.2	0.00e+00	0	41	0	197132288	57	4001
2026-01-29 23:22:07.18	26.02	9.40	-42.8	-43.8	20.3	0.00e+00	0	41	0	200278016	57	3971
2026-01-29 23:22:08.19	26.09	9.48	-42.9	-43.9	20.3	0.00e+00	0	41	0	203423744	57	4012
2026-01-29 23:22:09.19	26.15	9.56	-42.8	-43.7	20.4	0.00e+00	0	41	0	206569472	57	3945
2026-01-29 23:22:10.20	26.22	9.64	-42.6	-43.6	20.5	0.00e+00	0	42	0	209715200	57	3879
2026-01-29 23:22:11.20	26.28	9.72	-42.7	-43.7	20.4	0.00e+00	0	41	0	212860928	57	3929
2026-01-29 23:22:12.21	26.35	9.80	-42.7	-43.7	20.5	0.00e+00	0	41	0	216006656	57	3920
2026-01-29 23:22:13.22	26.42	9.88	-42.7	-43.6	20.5	0.00e+00	0	41	0	219152384	57	3893
2026-01-29 23:22:14.22	26.49	9.96	-42.7	-43.6	20.5	0.00e+00	0	41	0	222298112	57	3892
2026-01-29 23:22:15.23	26.55	10.04	-42.6	-43.6	20.6	0.00e+00	0	41	0	225443840	57	3885
2026-01-29 23:22:16.24	26.62	10.12	-42.6	-43.5	20.6	0.00e+00	0	41	0	228589568	57	3856
2026-01-29 23:22:17.25	26.69	10.20	-42.6	-43.5	20.7	0.00e+00	0	42	0	231735296	57	3842
2026-01-29 23:22:18.25	26.76	10.28	-42.5	-43.5	20.7	0.00e+00	0	41	0	234881024	57	3837
2026-01-29 23:22:19.26	26.83	10.36	-42.4	-43.3	20.8	0.00e+00	0	42	0	238026752	56	3971
2026-01-29 23:22:20.27	26.90	10.45	-42.4	-43.3	20.8	0.00e+00	0	41	0	241172480	56	3989
2026-01-29 23:22:21.27	26.97	10.53	-42.6	-43.5	20.7	0.00e+00	0	41	0	244318208	56	4071
2026-01-29 23:22:22.28	27.04	10.61	-42.2	-43.1	21.0	0.00e+00	0	41	0	247463936	56	3891
2026-01-29 23:22:23.28	27.11	10.69	-42.2	-43.1	21.0	0.00e+00	0	41	0	250609664	56	3882
2026-01-29 23:22:24.29	27.18	10.77	-42.1	-43.0	21.1	0.00e+00	0	42	0	253755392	56	3840
2026-01-29 23:22:25.30	27.26	10.86	-42.2	-43.1	21.1	0.00e+00	0	41	0	256901120	56	3871
2026-01-29 23:22:26.30	27.33	10.94	-42.2	-43.1	21.1	0.00e+00	0	41	0	260046848	56	3877
2026-01-29 23:22:27.31	27.40	11.02	-42.1	-42.9	21.2	0.00e+00	0	41	0	263192576	56	3812
2026-01-29 23:22:28.31	27.47	11.11	-42.1	-42.9	21.2	0.00e+00	0	42	0	266338304	56	3811
2026-01-29 23:22:29.32	27.55	11.19	-42.1	-43.0	21.2	0.00e+00	0	41	0	269484032	56	3825
2026-01-29 23:22:30.32	27.62	11.27	-42.0	-42.9	21.2	0.00e+00	0	41	0	272629760	56	3813
2026-01-29 23:22:31.33	27.69	11.36	-42.0	-42.9	21.2	0.00e+00	0	41	0	275775488	56	3809
2026-01-29 23:22:32.34	27.77	11.44	-42.2	-43.1	21.2	0.00e+00	0	41	0	278921216	56	3870
2026-01-29 23:22:33.35	27.84	11.53	-42.3	-43.1	21.1	0.00e+00	0	41	0	282066944	56	3912
2026-01-29 23:22:34.36	27.92	11.62	-42.1	-43.0	21.2	0.00e+00	0	41	0	285212672	56	3845
2026-01-29 23:22:35.37	28.00	11.70	-42.1	-42.9	21.3	0.00e+00	0	41	0	288358400	56	3816
2026-01-29 23:22:36.38	28.07	11.79	-42.0	-42.9	21.3	0.00e+00	0	41	0	291504128	56	3806
2026-01-29 23:22:37.38	28.15	11.87	-41.9	-42.8	21.3	0.00e+00	0	42	0	294649856	55	3970
2026-01-29 23:22:38.39	28.23	11.96	-41.9	-42.8	21.3	0.00e+00	0	41	0	297795584	55	3959
2026-01-29 23:22:39.40	28.30	12.05	-41.9	-42.8	21.3	0.00e+00	0	42	0	300941312	55	3963
2026-01-29 23:22:40.41	28.38	12.13	-41.8	-42.6	21.4	0.00e+00	0	41	0	304087040	55	3901
2026-01-29 23:22:41.41	28.46	12.22	-41.7	-42.6	21.5	0.00e+00	0	41	0	307232768	55	3881
2026-01-29 23:22:42.42	28.54	12.31	-41.7	-42.6	21.5	0.00e+00	0	42	0	310378496	55	3874
2026-01-29 23:22:43.42	28.62	12.39	-41.7	-42.6	21.5	0.00e+00	0	41	0	313524224	55	3872
2026-01-29 23:22:44.43	28.70	12.48	-41.6	-42.4	21.6	0.00e+00	0	41	0	316669952	55	3822
2026-01-29 23:22:45.43	28.78	12.57	-41.6	-42.5	21.6	0.00e+00	0	41	0	319815680	55	3837
2026-01-29 23:22:46.44	28.86	12.66	-41.7	-42.5	21.6	0.00e+00	0	41	0	322961408	55	3851
2026-01-29 23:22:47.45	28.94	12.75	-41.6	-42.5	21.6	0.00e+00	0	41	0	326107136	55	3825
2026-01-29 23:22:48.46	29.02	12.83	-41.7	-42.5	21.6	0.00e+00	0	41	0	329252864	55	3868
2026-01-29 23:22:49.46	29.10	12.92	-41.6	-42.4	21.7	0.00e+00	0	41	0	332398592	55	3819
2026-01-29 23:22:50.47	29.18	13.01	-41.6	-42.4	21.7	0.00e+00	0	41	0	335544320	55	3820
2026-01-29 23:22:51.48	29.27	13.10	-41.5	-42.3	21.8	0.00e+00	0	41	0	338690048	55	3777
2026-01-29 23:22:52.48	29.35	13.19	-41.5	-42.3	21.8	0.00e+00	0	41	0	341835776	54	3987
2026-01-29 23:22:53.48	29.43	13.28	-41.5	-42.4	21.7	0.00e+00	0	42	0	344981504	54	4011
2026-01-29 23:22:54.49	29.52	13.37	-41.4	-42.2	21.9	0.00e+00	0	41	0	348127232	54	3951
2026-01-29 23:22:55.50	29.60	13.46	-41.4	-42.2	21.8	0.00e+00	0	41	0	351272960	54	3954
2026-01-29 23:22:56.51	29.69	13.56	-41.4	-42.2	21.9	0.00e+00	0	41	0	354418688	54	3947
2026-01-29 23:22:57.51	29.77	13.65	-41.4	-42.2	21.9	0.00e+00	0	42	0	357564416	54	3942
2026-01-29 23:22:58.52	29.86	13.74	-41.5	-42.3	21.8	0.00e+00	0	41	0	360710144	54	3992
2026-01-29 23:22:59.52	29.95	13.83	-41.5	-42.3	21.9	0.00e+00	0	41	0	363855872	54	3973
2026-01-29 23:23:00.53	30.03	13.92	-41.5	-42.4	21.8	0.00e+00	0	41	0	367001600	54	4020
2026-01-29 23:23:01.53	30.12	14.01	-41.5	-42.3	21.8	0.00e+00	0	41	0	370147328	54	4000
2026-01-29 23:23:02.54	30.21	14.11	-41.5	-42.3	21.8	0.00e+00	0	41	0	373293056	54	3975
2026-01-29 23:23:03.55	30.30	14.20	-41.5	-42.3	21.8	0.00e+00	0	42	0	376438784	54	4001
2026-01-29 23:23:04.56	30.39	14.29	-41.5	-42.3	21.8	0.00e+00	0	41	0	379584512	54	3997
2026-01-29 23:23:05.57	30.48	14.39	-41.5	-42.3	21.8	0.00e+00	0	42	0	382730240	54	4003
2026-01-29 23:23:06.57	30.57	14.48	-41.4	-42.2	21.9	0.00e+00	0	41	0	385875968	54	3948
2026-01-29 23:23:07.58	30.66	14.58	-41.5	-42.3	21.8	0.00e+00	0	41	0	389021696	54	3992
2026-01-29 23:23:08.58	30.75	14.67	-41.5	-42.3	21.9	0.00e+00	0	41	0	392167424	54	3982
2026-01-29 23:23:09.59	30.84	14.77	-41.5	-42.3	21.8	0.00e+00	0	41	0	395313152	54	3986
2026-01-29 23:23:10.60	30.94	14.86	-41.5	-42.3	21.9	0.00e+00	0	41	0	398458880	54	3981
2026-01-29 23:23:11.61	31.03	14.96	-41.4	-42.3	21.9	0.00e+00	0	41	0	401604608	54	3965
2026-01-29 23:23:12.62	31.12	15.05	-41.5	-42.3	21.8	0.00e+00	0	42	0	404750336	54	3980
2026-01-29 23:23:13.62	31.22	15.15	-41.4	-42.2	22.0	0.00e+00	0	41	0	407896064	54	3945
2026-01-29 23:23:14.63	31.31	15.25	-41.4	-42.2	22.0	0.00e+00	0	41	0	411041792	54	3939
2026-01-29 23:23:15.63	31.41	15.34	-41.5	-42.3	21.9	0.00e+00	0	41	0	414187520	54	3981
2026-01-29 23:23:16.64	31.50	15.44	-41.6	-42.4	21.8	0.00e+00	0	41	0	417333248	54	4036
2026-01-29 23:23:17.65	31.60	15.54	-41.5	-42.4	21.9	0.00e+00	0	42	0	420478976	54	4011
2026-01-29 23:23:18.66	31.70	15.64	-41.5	-42.3	21.9	0.00e+00	0	41	0	423624704	54	3996
2026-01-29 23:23:19.66	31.79	15.73	-41.7	-42.5	21.7	0.00e+00	0	41	0	426770432	54	4081
2026-01-29 23:23:20.66	31.89	15.83	-41.7	-42.6	21.7	0.00e+00	0	41	0	429916160	54	4102
2026-01-29 23:23:21.67	31.99	15.93	-41.7	-42.5	21.7	0.00e+00	0	41	0	433061888	54	4093
2026-01-29 23:23:22.68	32.09	16.03	-41.7	-42.6	21.7	0.00e+00	0	42	0	436207616	54	4107
2026-01-29 23:23:23.68	32.19	16.13	-41.7	-42.5	21.8	0.00e+00	0	41	0	439353344	54	4072
2026-01-29 23:23:24.69	32.29	16.23	-41.7	-42.5	21.7	0.00e+00	0	41	0	442499072	54	4087
2026-01-29 23:23:25.70	32.40	16.33	-41.7	-42.5	21.7	0.00e+00	0	41	0	445644800	54	4089
2026-01-29 23:23:26.71	32.50	16.43	-41.7	-42.5	21.7	0.00e+00	0	41	0	448790528	54	4082
2026-01-29 23:23:27.71	32.60	16.53	-41.8	-42.7	21.7	0.00e+00	0	41	0	451936256	54	4146
2026-01-29 23:23:28.72	32.70	16.63	-41.7	-42.5	21.7	0.00e+00	0	41	0	455081984	54	4097
2026-01-29 23:23:29.73	32.81	16.73	-41.7	-42.5	21.8	0.00e+00	0	41	0	458227712	54	4089
2026-01-29 23:23:30.74	32.91	16.83	-41.7	-42.5	21.8	0.00e+00	0	41	0	461373440	54	4077
2026-01-29 23:23:31.74	33.02	16.94	-41.7	-42.6	21.7	0.00e+00	0	42	0	464519168	54	4100
2026-01-29 23:23:32.75	33.13	17.04	-41.7	-42.5	21.8	0.00e+00	0	41	0	467664896	54	4096
2026-01-29 23:23:33.76	33.23	17.14	-41.8	-42.7	21.7	0.00e+00	0	41	0	470810624	54	4149
2026-01-29 23:23:34.76	33.34	17.24	-41.8	-42.6	21.7	0.00e+00	0	41	0	473956352	54	4135
2026-01-29 23:23:35.77	33.45	17.35	-41.8	-42.7	21.7	0.00e+00	0	41	0	477102080	54	4157
2026-01-29 23:23:36.78	33.56	17.45	-41.9	-42.8	21.6	0.00e+00	0	41	0	480247808	54	4208
2026-01-29 23:23:37.79	33.67	17.56	-42.1	-43.0	21.4	0.00e+00	0	41	0	483393536	54	4320
2026-01-29 23:23:38.80	33.78	17.66	-42.1	-43.0	21.4	0.00e+00	0	41	0	486539264	54	4295
2026-01-29 23:23:39.80	33.89	17.77	-42.1	-42.9	21.5	0.00e+00	0	41	0	489684992	54	4276
2026-01-29 23:23:40.81	34.00	17.87	-42.1	-43.0	21.4	0.00e+00	0	41	0	492830720	54	4304
2026-01-29 23:23:41.82	34.12	17.98	-42.2	-43.0	21.3	0.00e+00	0	41	0	495976448	54	4338
2026-01-29 23:23:42.83	34.23	18.08	-42.2	-43.0	21.3	0.00e+00	0	41	0	499122176	54	4335
2026-01-29 23:23:43.84	34.34	18.19	-42.2	-43.0	21.3	0.00e+00	0	41	0	502267904	54	4331
2026-01-29 23:23:44.85	34.46	18.30	-42.0	-42.9	21.5	0.00e+00	0	41	0	505413632	54	4258
2026-01-29 23:23:45.86	34.58	18.40	-42.1	-42.9	21.5	0.00e+00	0	41	0	508559360	54	4277
2026-01-29 23:23:46.86	34.69	18.51	-41.9	-42.7	21.6	0.00e+00	0	41	0	511705088	54	4186
2026-01-29 23:23:47.87	34.81	18.62	-41.9	-42.8	21.6	0.00e+00	0	41	0	514850816	54	4208
2026-01-29 23:23:48.88	34.93	18.73	-41.9	-42.7	21.6	0.00e+00	0	41	0	517996544	54	4174
2026-01-29 23:23:49.89	35.05	18.84	-41.9	-42.7	21.6	0.00e+00	0	41	0	521142272	54	4171
2026-01-29 23:23:50.89	35.17	18.94	-41.9	-42.7	21.6	0.00e+00	0	41	0	524288000	54	4181
2026-01-29 23:23:51.90	35.29	19.05	-41.9	-42.7	21.7	0.00e+00	0	41	0	527433728	54	4164
2026-01-29 23:23:52.90	35.41	19.16	-41.9	-42.7	21.6	0.00e+00	0	41	0	530579456	54	4193
2026-01-29 23:23:53.91	35.53	19.27	-41.8	-42.6	21.7	0.00e+00	0	41	0	533725184	54	4140
2026-01-29 23:23:54.92	35.66	19.38	-41.9	-42.8	21.6	0.00e+00	0	41	0	536870912	54	4202
2026-01-29 23:23:55.93	35.78	19.49	-41.9	-42.7	21.6	0.00e+00	0	41	0	540016640	54	4181
2026-01-29 23:23:56.93	35.90	19.60	-41.9	-42.7	21.6	0.00e+00	0	41	0	543162368	54	4169
2026-01-29 23:23:57.94	36.03	19.72	-41.8	-42.6	21.6	0.00e+00	0	42	0	546308096	54	4142
2026-01-29 23:23:58.95	36.16	19.83	-41.9	-42.7	21.5	0.00e+00	0	42	0	549453824	54	4181
2026-01-29 23:23:59.95	36.28	19.94	-41.9	-42.7	21.5	0.00e+00	0	41	0	552599552	54	4180
2026-01-29 23:24:00.96	36.41	20.05	-41.9	-42.7	21.5	0.00e+00	0	41	0	555745280	54	4193
2026-01-29 23:24:01.97	36.54	20.16	-41.6	-42.4	21.8	0.00e+00	0	41	0	558891008	54	4046
2026-01-29 23:24:02.98	36.67	20.28	-41.5	-42.3	21.9	0.00e+00	0	41	0	562036736	54	3986
2026-01-29 23:24:03.99	36.81	20.39	-41.5	-42.3	21.9	0.00e+00	0	41	0	565182464	54	3986
2026-01-29 23:24:05.00	36.94	20.51	-41.4	-42.2	22.0	0.00e+00	0	41	0	568328192	54	3948
2026-01-29 23:24:06.01	37.07	20.62	-41.5	-42.3	22.0	0.00e+00	0	41	0	571473920	54	3966
2026-01-29 23:24:07.02	37.21	20.74	-41.4	-42.2	22.0	0.00e+00	0	41	0	574619648	54	3949
2026-01-29 23:24:08.02	37.34	20.85	-41.4	-42.2	22.0	0.00e+00	0	41	0	577765376	54	3931
2026-01-29 23:24:09.03	37.48	20.97	-41.4	-42.2	22.0	0.00e+00	0	41	0	580911104	54	3942
2026-01-29 23:24:10.04	37.61	21.08	-41.4	-42.2	22.0	0.00e+00	0	41	0	584056832	54	3943
2026-01-29 23:24:11.05	37.75	21.20	-41.2	-42.0	22.2	0.00e+00	0	41	0	587202560	54	3862
2026-01-29 23:24:12.05	37.89	21.31	-41.3	-42.1	22.2	0.00e+00	0	41	0	590348288	54	3873
2026-01-29 23:24:13.06	38.03	21.43	-41.2	-42.0	22.2	0.00e+00	0	41	0	593494016	54	3837
2026-01-29 23:24:14.06	38.17	21.55	-41.1	-41.9	22.2	0.00e+00	0	41	0	596639744	54	3819
2026-01-29 23:24:15.07	38.31	21.67	-41.0	-41.8	22.4	0.00e+00	0	41	0	599785472	54	3741
2026-01-29 23:24:16.08	38.46	21.78	-40.9	-41.7	22.4	0.00e+00	0	41	0	602931200	53	3942
2026-01-29 23:24:17.09	38.60	21.90	-40.9	-41.7	22.4	0.00e+00	0	41	0	606076928	53	3920
2026-01-29 23:24:18.10	38.75	22.02	-40.8	-41.6	22.5	0.00e+00	0	41	0	609222656	53	3892
2026-01-29 23:24:19.11	38.90	22.14	-40.9	-41.6	22.5	0.00e+00	0	41	0	612368384	53	3909
2026-01-29 23:24:20.12	39.04	22.26	-40.8	-41.6	22.6	0.00e+00	0	41	0	615514112	53	3888
2026-01-29 23:24:21.13	39.19	22.38	-40.9	-41.7	22.6	0.00e+00	0	41	0	618659840	53	3931
2026-01-29 23:24:22.13	39.34	22.50	-41.0	-41.8	22.5	0.00e+00	0	41	0	621805568	53	3966
2026-01-29 23:24:23.14	39.49	22.62	-40.8	-41.6	22.6	0.00e+00	0	41	0	624951296	53	3881
2026-01-29 23:24:24.15	39.65	22.74	-40.8	-41.6	22.6	0.00e+00	0	42	0	628097024	53	3885
2026-01-29 23:24:25.16	39.80	22.87	-40.8	-41.6	22.6	0.00e+00	0	41	0	631242752	53	3877
2026-01-29 23:24:26.17	39.95	22.99	-40.6	-41.4	22.7	0.00e+00	0	41	0	634388480	53	3794
2026-01-29 23:24:27.17	40.11	23.11	-40.6	-41.3	22.7	0.00e+00	0	41	0	637534208	53	3778
2026-01-29 23:24:28.18	40.27	23.23	-40.4	-41.1	22.9	0.00e+00	0	41	0	640679936	52	3898
2026-01-29 23:24:29.19	40.42	23.36	-40.3	-41.1	23.0	0.00e+00	0	41	0	643825664	52	3889
2026-01-29 23:24:30.19	40.58	23.48	-40.3	-41.0	23.1	0.00e+00	0	41	0	646971392	52	3853
2026-01-29 23:24:31.20	40.74	23.60	-40.3	-41.1	23.1	0.00e+00	0	41	0	650117120	52	3882
2026-01-29 23:24:32.21	40.91	23.73	-40.5	-41.2	23.0	0.00e+00	0	41	0	653262848	52	3945
2026-01-29 23:24:33.22	41.07	23.85	-40.5	-41.3	22.9	0.00e+00	0	41	0	656408576	52	3976
2026-01-29 23:24:34.22	41.23	23.98	-40.6	-41.4	22.9	0.00e+00	0	41	0	659554304	52	4005
2026-01-29 23:24:35.23	41.40	24.10	-40.8	-41.6	22.8	0.00e+00	0	41	0	662700032	52	4099
2026-01-29 23:24:36.24	41.56	24.23	-40.6	-41.4	22.9	0.00e+00	0	41	0	665845760	52	4035
2026-01-29 23:24:37.25	41.73	24.35	-40.6	-41.4	22.9	0.00e+00	0	41	0	668991488	52	4027
2026-01-29 23:24:38.25	41.90	24.48	-40.7	-41.4	22.9	0.00e+00	0	41	0	672137216	52	4049
2026-01-29 23:24:39.25	42.07	24.60	-40.5	-41.3	23.0	0.00e+00	0	41	0	675282944	52	3965
2026-01-29 23:24:40.26	42.24	24.73	-40.5	-41.2	23.1	0.00e+00	0	41	0	678428672	52	3939
2026-01-29 23:24:41.27	42.42	24.86	-40.4	-41.2	23.1	0.00e+00	0	41	0	681574400	52	3934
2026-01-29 23:24:42.27	42.59	24.99	-40.5	-41.3	23.1	0.00e+00	0	41	0	684720128	52	3962
2026-01-29 23:24:43.27	42.77	25.11	-40.5	-41.2	23.1	0.00e+00	0	41	0	687865856	52	3937
2026-01-29 23:24:44.27	42.94	25.24	-40.6	-41.3	23.0	0.00e+00	0	41	0	691011584	52	3994
2026-01-29 23:24:45.28	43.12	25.37	-40.7	-41.4	22.9	0.00e+00	0	41	0	694157312	52	4041
2026-01-29 23:24:46.28	43.30	25.50	-40.8	-41.5	22.8	0.00e+00	0	41	0	697303040	52	4088
2026-01-29 23:24:47.29	43.48	25.63	-41.0	-41.8	22.6	0.00e+00	0	41	0	700448768	52	4212
2026-01-29 23:24:48.30	43.67	25.76	-40.9	-41.6	22.7	0.00e+00	0	41	0	703594496	52	4133
2026-01-29 23:24:49.31	43.85	25.89	-40.9	-41.6	22.7	0.00e+00	0	41	0	706740224	52	4143
2026-01-29 23:24:50.32	44.04	26.02	-40.9	-41.7	22.6	0.00e+00	0	41	0	709885952	52	4167
2026-01-29 23:24:51.33	44.23	26.15	-40.9	-41.7	22.6	0.00e+00	0	41	0	713031680	52	4150
2026-01-29 23:24:52.34	44.42	26.28	-40.9	-41.7	22.7	0.00e+00	0	41	0	716177408	52	4161
2026-01-29 23:24:53.35	44.61	26.41	-41.2	-41.9	22.5	0.00e+00	0	41	0	719323136	52	4290
2026-01-29 23:24:54.36	44.80	26.55	-41.3	-42.1	22.4	0.00e+00	0	41	0	722468864	53	4113
2026-01-29 23:24:55.36	44.99	26.68	-41.5	-42.3	22.2	0.00e+00	0	41	0	725614592	53	4232
2026-01-29 23:24:56.37	45.19	26.81	-41.7	-42.6	22.0	0.00e+00	0	41	0	728760320	54	4103
2026-01-29 23:24:57.38	45.39	26.94	-41.9	-42.8	21.8	0.00e+00	0	41	0	731906048	54	4208
2026-01-29 23:24:58.39	45.58	27.08	-42.0	-42.8	21.8	0.00e+00	0	41	0	735051776	54	4242
2026-01-29 23:24:59.39	45.78	27.21	-42.0	-42.8	21.7	0.00e+00	0	41	0	738197504	54	4224
2026-01-29 23:25:00.40	45.99	27.34	-41.9	-42.8	21.8	0.00e+00	0	41	0	741343232	54	4196
2026-01-29 23:25:01.41	46.19	27.48	-42.0	-42.8	21.8	0.00e+00	0	41	0	744488960	54	4240
2026-01-29 23:25:02.42	46.40	27.61	-41.9	-42.7	21.9	0.00e+00	0	41	0	747634688	54	4172
2026-01-29 23:25:03.42	46.60	27.74	-41.7	-42.5	22.1	0.00e+00	0	41	0	750780416	54	4065
2026-01-29 23:25:04.43	46.81	27.88	-41.8	-42.6	21.9	0.00e+00	0	41	0	753926144	54	4131
2026-01-29 23:25:05.43	47.02	28.01	-42.0	-42.8	21.8	0.00e+00	0	42	0	757071872	54	4230
2026-01-29 23:25:06.44	47.23	28.15	-42.2	-43.0	21.6	0.00e+00	0	41	0	760217600	54	4334
2026-01-29 23:25:07.45	47.45	28.28	-42.3	-43.2	21.5	0.00e+00	0	41	0	763363328	55	4167
2026-01-29 23:25:08.45	47.66	28.42	-42.4	-43.3	21.4	0.00e+00	0	41	0	766509056	55	4224
2026-01-29 23:25:09.46	47.88	28.55	-42.3	-43.1	21.5	0.00e+00	0	42	0	769654784	55	4132
2026-01-29 23:25:10.46	48.09	28.69	-42.2	-43.0	21.5	0.00e+00	0	41	0	772800512	55	4097
2026-01-29 23:25:11.47	48.32	28.83	-42.1	-42.9	21.7	0.00e+00	0	41	0	775946240	55	4037
2026-01-29 23:25:12.48	48.54	28.96	-41.9	-42.7	21.9	0.00e+00	0	41	0	779091968	55	3927
2026-01-29 23:25:13.49	48.77	29.10	-41.9	-42.7	21.9	0.00e+00	0	42	0	782237696	55	3951
2026-01-29 23:25:14.49	48.99	29.24	-41.7	-42.5	22.1	0.00e+00	0	41	0	785383424	55	3841
2026-01-29 23:25:15.50	49.22	29.37	-41.7	-42.6	22.1	0.00e+00	0	41	0	788529152	55	3872
2026-01-29 23:25:16.50	49.45	29.51	-41.8	-42.6	22.0	0.00e+00	0	41	0	791674880	55	3895
2026-01-29 23:25:17.51	49.68	29.65	-41.8	-42.6	22.0	0.00e+00	0	41	0	794820608	55	3882
2026-01-29 23:25:18.52	49.92	29.79	-41.9	-42.7	21.9	0.00e+00	0	41	0	797966336	55	3947
2026-01-29 23:25:19.53	50.15	29.92	-41.9	-42.7	21.9	0.00e+00	0	41	0	801112064	55	3939
2026-01-29 23:25:20.53	50.39	30.06	-41.9	-42.8	21.8	0.00e+00	0	41	0	804257792	55	3962
2026-01-29 23:25:21.54	50.63	30.20	-41.7	-42.5	22.0	0.00e+00	0	41	0	807403520	55	3848
2026-01-29 23:25:22.55	50.87	30.34	-41.5	-42.3	22.2	0.00e+00	0	41	0	810549248	55	3777
2026-01-29 23:25:23.56	51.12	30.48	-41.2	-42.0	22.5	0.00e+00	0	41	0	813694976	54	3844
2026-01-29 23:25:24.56	51.36	30.61	-41.3	-42.0	22.5	0.00e+00	0	41	0	816840704	54	3863
2026-01-29 23:25:25.57	51.61	30.75	-41.4	-42.2	22.4	0.00e+00	0	41	0	819986432	54	3949
2026-01-29 23:25:26.57	51.86	30.89	-41.6	-42.4	22.2	0.00e+00	0	41	0	823132160	54	4013
2026-01-29 23:25:27.58	52.11	31.03	-41.7	-42.5	22.1	0.00e+00	0	41	0	826277888	54	4084
2026-01-29 23:25:28.59	52.37	31.17	-41.7	-42.5	22.1	0.00e+00	0	41	0	829423616	54	4081
2026-01-29 23:25:29.60	52.63	31.31	-41.7	-42.5	22.0	0.00e+00	0	41	0	832569344	54	4093
2026-01-29 23:25:30.61	52.89	31.45	-41.5	-42.3	22.2	0.00e+00	0	41	0	835715072	54	3982
2026-01-29 23:25:31.62	53.15	31.59	-41.5	-42.3	22.3	0.00e+00	0	41	0	838860800	54	3962
2026-01-29 23:25:32.63	53.41	31.73	-41.3	-42.1	22.4	0.00e+00	0	41	0	842006528	54	3883
2026-01-29 23:25:33.63	53.68	31.86	-41.6	-42.4	22.2	0.00e+00	0	41	0	845152256	54	4009
2026-01-29 23:25:34.63	53.94	32.00	-41.9	-42.7	21.9	0.00e+00	0	41	0	848297984	54	4183
2026-01-29 23:25:35.64	54.21	32.14	-41.9	-42.8	21.9	0.00e+00	0	41	0	851443712	54	4204
2026-01-29 23:25:36.64	54.48	32.28	-42.1	-42.9	21.7	0.00e+00	0	41	0	854589440	54	4287
2026-01-29 23:25:37.65	54.76	32.42	-42.2	-43.1	21.5	0.00e+00	0	41	0	857735168	55	4122
2026-01-29 23:25:38.66	55.04	32.56	-42.2	-43.0	21.6	0.00e+00	0	41	0	860880896	55	4082
2026-01-29 23:25:39.67	55.32	32.70	-42.0	-42.9	21.7	0.00e+00	0	41	0	864026624	55	4014
2026-01-29 23:25:40.68	55.60	32.83	-42.0	-42.8	21.8	0.00e+00	0	41	0	867172352	55	3988
2026-01-29 23:25:41.69	55.88	32.97	-41.8	-42.6	22.0	0.00e+00	0	42	0	870318080	55	3904
2026-01-29 23:25:42.70	56.17	33.11	-41.8	-42.6	22.1	0.00e+00	0	41	0	873463808	55	3879
2026-01-29 23:25:43.71	56.46	33.25	-42.0	-42.8	22.0	0.00e+00	0	41	0	876609536	55	3974
2026-01-29 23:25:44.71	56.75	33.39	-42.1	-43.0	21.8	0.00e+00	0	41	0	879755264	55	4067
2026-01-29 23:25:45.72	57.05	33.53	-42.4	-43.2	21.5	0.00e+00	0	41	0	882900992	55	4187
2026-01-29 23:25:46.73	57.34	33.66	-42.5	-43.4	21.4	0.00e+00	0	41	0	886046720	55	4250
2026-01-29 23:25:47.73	57.64	33.80	-42.5	-43.4	21.4	0.00e+00	0	41	0	889192448	55	4280
2026-01-29 23:25:48.74	57.94	33.94	-42.5	-43.4	21.3	0.00e+00	0	41	0	892338176	55	4285
2026-01-29 23:25:49.74	58.24	34.07	-42.4	-43.3	21.4	0.00e+00	0	41	0	895483904	55	4219
2026-01-29 23:25:50.75	58.55	34.21	-42.5	-43.4	21.4	0.00e+00	0	41	0	898629632	55	4253
2026-01-29 23:25:51.76	58.86	34.35	-42.5	-43.4	21.3	0.00e+00	0	41	0	901775360	55	4285
2026-01-29 23:25:52.77	59.17	34.48	-42.7	-43.6	21.3	0.00e+00	0	42	0	904921088	56	4140
2026-01-29 23:25:53.77	59.48	34.62	-43.0	-43.9	21.0	0.00e+00	0	41	0	908066816	56	4255
2026-01-29 23:25:54.78	59.80	34.75	-43.2	-44.1	20.9	0.00e+00	0	41	0	911212544	57	4132
2026-01-29 23:25:55.79	60.12	34.89	-43.4	-44.3	20.7	0.00e+00	0	42	0	914358272	57	4240
2026-01-29 23:25:56.79	60.44	35.02	-43.2	-44.1	20.9	0.00e+00	0	41	0	917504000	57	4143
2026-01-29 23:25:57.81	60.77	35.16	-42.9	-43.8	21.1	0.00e+00	0	41	0	920649728	57	3985
2026-01-29 23:25:58.81	61.09	35.29	-42.9	-43.8	21.2	0.00e+00	0	42	0	923795456	57	3982
2026-01-29 23:25:59.83	61.43	35.42	-42.9	-43.8	21.1	0.00e+00	0	41	0	926941184	57	3993
2026-01-29 23:26:00.83	61.76	35.56	-43.1	-44.1	20.9	0.00e+00	0	41	0	931135488	57	4101
2026-01-29 23:26:01.84	62.09	35.69	-43.3	-44.2	20.8	0.00e+00	0	41	0	933232640	57	4169
2026-01-29 23:26:02.84	62.43	35.82	-43.3	-44.3	20.7	0.00e+00	0	41	0	936378368	57	4197
2026-01-29 23:26:03.85	62.77	35.95	-43.5	-44.4	20.6	0.00e+00	0	41	0	939524096	57	4277
2026-01-29 23:26:04.86	63.11	36.08	-43.3	-44.3	20.6	0.00e+00	0	41	0	942669824	57	4213
2026-01-29 23:26:05.87	63.46	36.21	-43.2	-44.1	20.8	0.00e+00	0	41	0	945815552	57	4134
2026-01-29 23:26:06.87	63.81	36.34	-43.3	-44.2	20.8	0.00e+00	0	41	0	948961280	57	4168
2026-01-29 23:26:07.88	64.16	36.47	-43.0	-43.8	21.0	0.00e+00	0	41	0	952107008	57	3999
2026-01-29 23:26:08.88	64.51	36.60	-43.0	-43.9	21.0	0.00e+00	0	41	0	955252736	57	4023
2026-01-29 23:26:09.89	64.87	36.72	-43.1	-44.0	21.0	0.00e+00	0	41	0	958398464	57	4059
2026-01-29 23:26:10.90	65.23	36.85	-43.1	-44.0	20.9	0.00e+00	0	41	0	961544192	57	4098
2026-01-29 23:26:11.91	65.59	36.98	-43.2	-44.1	20.8	0.00e+00	0	41	0	964689920	57	4141
2026-01-29 23:26:12.92	65.96	37.10	-43.4	-44.4	20.7	0.00e+00	0	41	0	967835648	57	4264
2026-01-29 23:26:13.92	66.32	37.23	-43.6	-44.6	20.4	0.00e+00	0	41	0	970981376	57	4385
2026-01-29 23:26:14.93	66.69	37.35	-43.6	-44.6	20.4	0.00e+00	0	41	0	975175680	58	4135
2026-01-29 23:26:15.94	67.07	37.47	-43.6	-44.5	20.5	0.00e+00	0	41	0	978321408	58	4093
2026-01-29 23:26:16.95	67.44	37.59	-43.7	-44.6	20.5	0.00e+00	0	41	0	980418560	58	4144
2026-01-29 23:26:17.95	67.82	37.71	-43.4	-44.3	20.7	0.00e+00	0	41	0	983564288	58	3981
2026-01-29 23:26:18.96	68.20	37.83	-43.1	-44.0	20.9	0.00e+00	0	41	0	986710016	58	3837
2026-01-29 23:26:19.97	68.59	37.95	-43.3	-44.2	20.8	0.00e+00	0	41	0	989855744	58	3948
2026-01-29 23:26:20.97	68.97	38.07	-43.5	-44.4	20.7	0.00e+00	0	41	0	993001472	58	4023
2026-01-29 23:26:21.97	69.36	38.19	-43.7	-44.6	20.4	0.00e+00	0	41	0	996147200	58	4142
2026-01-29 23:26:22.98	69.75	38.30	-43.8	-44.8	20.3	0.00e+00	0	42	0	999292928	58	4233
2026-01-29 23:26:23.99	70.15	38.42	-44.0	-45.0	20.1	0.00e+00	0	41	0	1002438656	58	4322
2026-01-29 23:26:24.99	70.55	38.53	-43.9	-44.9	20.1	0.00e+00	0	41	0	1005584384	58	4286
2026-01-29 23:26:26.00	70.95	38.64	-43.9	-44.9	20.3	0.00e+00	0	41	0	1008730112	58	4243
2026-01-29 23:26:27.01	71.35	38.75	-43.8	-44.8	20.3	0.00e+00	0	41	0	1011875840	58	4206
2026-01-29 23:26:28.02	71.76	38.86	-43.8	-44.7	20.2	0.00e+00	0	42	0	1015021568	58	4182
2026-01-29 23:26:29.03	72.17	38.97	-43.7	-44.7	20.3	0.00e+00	0	41	0	1019215872	58	4179
2026-01-29 23:26:30.04	72.58	39.08	-43.9	-44.9	20.2	0.00e+00	0	41	0	1022361600	58	4251
2026-01-29 23:26:31.05	73.00	39.19	-44.2	-45.2	20.0	0.00e+00	0	41	0	1025507328	58	4411
2026-01-29 23:26:32.05	73.41	39.29	-44.0	-45.0	20.1	0.00e+00	0	41	0	1027604480	58	4331
2026-01-29 23:26:33.06	73.83	39.39	-44.0	-45.0	20.1	0.00e+00	0	41	0	1030750208	58	4306
2026-01-29 23:26:34.07	74.26	39.50	-44.2	-45.2	20.0	0.00e+00	0	41	0	1033895936	59	4163
2026-01-29 23:26:35.08	74.68	39.60	-44.4	-45.5	19.7	0.00e+00	0	41	0	1037041664	59	4298
2026-01-29 23:26:36.08	75.11	39.70	-44.3	-45.4	19.8	0.00e+00	0	41	0	1040187392	59	4251
2026-01-29 23:26:37.09	75.54	39.79	-44.4	-45.4	19.8	0.00e+00	0	41	0	1043333120	59	4276
2026-01-29 23:26:38.10	75.97	39.89	-44.4	-45.4	19.8	0.00e+00	0	41	0	1046478848	59	4273
2026-01-29 23:26:39.11	76.41	39.98	-44.3	-45.4	19.9	0.00e+00	0	41	0	1049624576	59	4260
2026-01-29 23:26:40.12	76.85	40.08	-44.4	-45.5	19.8	0.00e+00	0	41	0	1052770304	59	4295
2026-01-29 23:26:41.12	77.29	40.17	-44.6	-45.7	19.6	0.00e+00	0	41	0	1055916032	59	4401
2026-01-29 23:26:42.13	77.73	40.26	-44.5	-45.5	19.6	0.00e+00	0	41	0	1060110336	59	4327
2026-01-29 23:26:43.14	78.18	40.35	-44.2	-45.2	19.9	0.00e+00	0	41	0	1063256064	59	4172
2026-01-29 23:26:44.15	78.62	40.43	-43.9	-44.9	20.2	0.00e+00	0	41	0	1066401792	59	4037
2026-01-29 23:26:45.16	79.08	40.52	-43.8	-44.7	20.4	0.00e+00	0	41	0	1069547520	59	3942
2026-01-29 23:26:46.16	79.52	40.60	-43.8	-44.8	20.3	0.00e+00	0	41	0	1072693248	59	3966
2026-01-29 23:26:47.17	79.98	40.68	-44.0	-45.0	20.2	0.00e+00	0	41	0	1074790400	59	4060
2026-01-29 23:26:48.18	80.44	40.76	-44.1	-45.1	20.1	0.00e+00	0	41	0	1077936128	59	4108
2026-01-29 23:26:49.18	80.89	40.84	-44.2	-45.3	19.9	0.00e+00	0	41	0	1081081856	59	4203
2026-01-29 23:26:50.19	81.36	40.91	-44.3	-45.4	19.8	0.00e+00	0	41	0	1084227584	59	4262
2026-01-29 23:26:51.20	81.82	40.99	-44.3	-45.4	19.6	0.00e+00	0	41	0	1087373312	59	4250
2026-01-29 23:26:52.21	82.29	41.06	-44.2	-45.2	19.5	0.00e+00	0	41	0	1090519040	59	4193
2026-01-29 23:26:53.21	82.75	41.13	-44.3	-45.4	19.4	0.00e+00	0	41	0	1093664768	59	4253
2026-01-29 23:26:54.22	83.22	41.20	-44.2	-45.2	19.8	0.00e+00	0	41	0	1096810496	59	4166
2026-01-29 23:26:55.23	83.69	41.26	-44.2	-45.2	19.9	0.00e+00	0	41	0	1099956224	59	4165
2026-01-29 23:26:56.23	84.16	41.33	-44.0	-45.0	20.2	0.00e+00	0	41	0	1104150528	59	4071
2026-01-29 23:26:57.24	84.64	41.39	-43.9	-44.9	20.3	0.00e+00	0	41	0	1107296256	59	4036
2026-01-29 23:26:58.24	85.11	41.45	-44.0	-45.0	20.2	0.00e+00	0	41	0	1110441984	59	4082
2026-01-29 23:26:59.25	85.59	41.51	-44.2	-45.2	20.0	0.00e+00	0	41	0	1113587712	59	4184
2026-01-29 23:27:00.26	86.07	41.56	-44.3	-45.3	19.9	0.00e+00	0	41	0	1116733440	59	4228
2026-01-29 23:27:01.27	86.56	41.62	-44.3	-45.3	19.9	0.00e+00	0	41	0	1119879168	59	4219
2026-01-29 23:27:02.27	87.04	41.67	-44.2	-45.2	20.1	0.00e+00	0	41	0	1121976320	59	4171
2026-01-29 23:27:03.28	87.52	41.72	-44.0	-45.0	20.2	0.00e+00	0	42	0	1125122048	59	4070
2026-01-29 23:27:04.29	88.01	41.76	-44.2	-45.2	19.9	0.00e+00	0	41	0	1128267776	59	4173
2026-01-29 23:27:05.30	88.50	41.81	-44.3	-45.3	19.9	0.00e+00	0	41	0	1131413504	59	4200
2026-01-29 23:27:06.30	88.98	41.85	-44.3	-45.3	19.9	0.00e+00	0	42	0	1134559232	59	4214
2026-01-29 23:27:07.32	89.48	41.89	-43.9	-44.9	20.3	0.00e+00	0	41	0	1137704960	59	4021
2026-01-29 23:27:08.32	89.97	41.93	-43.7	-44.6	20.6	0.00e+00	0	41	0	1140850688	59	3899
2026-01-29 23:27:09.33	90.46	41.97	-43.6	-44.5	20.7	0.00e+00	0	41	0	1145044992	59	3848
2026-01-29 23:27:10.34	90.96	42.00	-43.6	-44.5	20.6	0.00e+00	0	42	0	1148190720	58	4071
2026-01-29 23:27:11.35	91.45	42.03	-43.9	-44.9	20.3	0.00e+00	0	41	0	1151336448	58	4266
2026-01-29 23:27:12.36	91.95	42.06	-44.2	-45.2	20.0	0.00e+00	0	41	0	1154482176	59	4161
2026-01-29 23:27:13.37	92.45	42.09	-44.4	-45.4	19.7	0.00e+00	0	41	0	1157627904	59	4290
2026-01-29 23:27:14.37	92.94	42.11	-44.5	-45.6	19.6	0.00e+00	0	42	0	1160773632	59	4361
2026-01-29 23:27:15.37	93.44	42.13	-44.6	-45.7	19.4	0.00e+00	0	42	0	1163919360	59	4404
2026-01-29 23:27:16.38	93.94	42.15	-44.5	-45.6	19.5	0.00e+00	0	41	0	1167065088	59	4364
2026-01-29 23:27:17.39	94.44	42.17	-44.6	-45.6	19.5	0.00e+00	0	41	0	1169162240	59	4379
2026-01-29 23:27:18.40	94.94	42.18	-44.3	-45.3	19.7	0.00e+00	0	41	0	1172307968	59	4226
2026-01-29 23:27:19.41	95.44	42.20	-44.1	-45.1	19.8	0.00e+00	0	41	0	1175453696	59	4130
2026-01-29 23:27:20.42	95.94	42.21	-44.2	-45.2	19.9	0.00e+00	0	41	0	1178599424	59	4166
2026-01-29 23:27:21.43	96.44	42.21	-44.4	-45.4	19.8	0.00e+00	0	41	0	1182793728	59	4267
2026-01-29 23:27:22.44	96.94	42.22	-44.4	-45.5	19.7	0.00e+00	0	42	0	1185939456	59	4312
2026-01-29 23:27:23.44	97.44	42.22	-44.3	-45.4	19.9	0.00e+00	0	41	0	1189085184	59	4247
2026-01-29 23:27:24.45	97.94	42.22	-43.9	-44.9	20.3	0.00e+00	0	41	0	1192230912	59	4010
2026-01-29 23:27:25.46	98.45	42.22	-43.4	-44.4	20.8	0.00e+00	0	41	0	1195376640	58	4007
2026-01-29 23:27:26.47	98.95	42.21	-43.8	-44.7	20.4	0.00e+00	0	41	0	1198522368	58	4180
2026-01-29 23:27:27.48	99.45	42.21	-44.1	-45.1	20.1	0.00e+00	0	41	0	1201668096	58	4362
2026-01-29 23:27:28.49	99.95	42.20	-44.2	-45.2	20.0	0.00e+00	0	41	0	1204813824	59	4191
2026-01-29 23:27:29.50	100.45	42.19	-44.3	-45.3	19.9	0.00e+00	0	41	0	1207959552	59	4218
2026-01-29 23:27:30.51	100.95	42.17	-44.5	-45.5	19.7	0.00e+00	0	41	0	1211105280	59	4338
2026-01-29 23:27:31.51	101.45	42.16	-44.5	-45.5	19.4	0.00e+00	0	41	0	1214251008	60	4095
2026-01-29 23:27:32.52	101.95	42.14	-44.7	-45.8	19.1	0.00e+00	0	41	0	1216348160	60	4209
2026-01-29 23:27:33.53	102.45	42.12	-44.8	-46.0	18.9	0.00e+00	0	41	0	1220542464	60	4317
2026-01-29 23:27:34.53	102.94	42.09	-44.4	-45.4	19.5	0.00e+00	0	41	0	1223688192	60	4048
2026-01-29 23:27:35.54	103.44	42.07	-44.4	-45.4	19.8	0.00e+00	0	41	0	1226833920	59	4269
2026-01-29 23:27:36.55	103.94	42.04	-44.5	-45.5	19.7	0.00e+00	0	41	0	1229979648	59	4317
2026-01-29 23:27:37.55	104.43	42.01	-44.5	-45.5	19.7	0.00e+00	0	41	0	1233125376	59	4324
2026-01-29 23:27:38.56	104.93	41.98	-44.2	-45.2	20.0	0.00e+00	0	41	0	1236271104	59	4164
2026-01-29 23:27:39.57	105.42	41.94	-44.1	-45.1	20.1	0.00e+00	0	41	0	1239416832	59	4111
2026-01-29 23:27:40.58	105.91	41.90	-44.2	-45.2	20.0	0.00e+00	0	41	0	1242562560	59	4165
2026-01-29 23:27:41.59	106.41	41.86	-44.0	-45.0	20.1	0.00e+00	0	41	0	1245708288	59	4077
2026-01-29 23:27:42.60	106.90	41.82	-43.9	-44.8	20.3	0.00e+00	0	41	0	1248854016	59	3992
2026-01-29 23:27:43.61	107.39	41.78	-43.7	-44.6	20.3	0.00e+00	0	41	0	1251999744	59	3911
2026-01-29 23:27:44.62	107.88	41.73	-43.8	-44.8	20.4	0.00e+00	0	41	0	1255145472	59	3962
2026-01-29 23:27:45.63	108.36	41.68	-44.1	-45.0	20.1	0.00e+00	0	41	0	1258291200	59	4095
2026-01-29 23:27:46.63	108.84	41.63	-44.7	-45.8	19.5	0.00e+00	0	41	0	1261436928	59	4447
2026-01-29 23:27:47.64	109.33	41.58	-44.1	-45.1	19.7	0.00e+00	0	41	0	1264582656	60	3890
2026-01-29 23:27:48.65	109.81	41.52	-44.3	-45.3	19.9	0.00e+00	0	41	0	1267728384	59	4207
2026-01-29 23:27:49.66	110.29	41.47	-43.8	-44.8	20.3	0.00e+00	0	41	0	1270874112	59	3965
2026-01-29 23:27:50.67	110.77	41.41	-43.9	-44.8	20.2	0.00e+00	0	41	0	1274019840	59	4001
2026-01-29 23:27:51.68	111.25	41.34	-44.0	-45.0	20.1	0.00e+00	0	41	0	1277165568	59	4092
2026-01-29 23:27:52.69	111.72	41.28	-44.2	-45.2	20.0	0.00e+00	0	41	0	1280311296	59	4183
2026-01-29 23:27:53.70	112.20	41.22	-44.1	-45.1	20.1	0.00e+00	0	41	0	1283457024	59	4103
2026-01-29 23:27:54.71	112.67	41.15	-44.2	-45.2	20.0	0.00e+00	0	41	0	1286602752	59	4168
2026-01-29 23:27:55.72	113.14	41.08	-44.4	-45.4	19.8	0.00e+00	0	41	0	1289748480	59	4285
2026-01-29 23:27:56.72	113.60	41.01	-44.4	-45.4	19.8	0.00e+00	0	41	0	1292894208	59	4280
2026-01-29 23:27:57.73	114.07	40.93	-44.2	-45.3	20.0	0.00e+00	0	41	0	1296039936	59	4195
2026-01-29 23:27:58.74	114.53	40.86	-44.2	-45.3	20.0	0.00e+00	0	41	0	1299185664	59	4203
2026-01-29 23:27:59.75	114.99	40.78	-44.3	-45.3	19.8	0.00e+00	0	41	0	1302331392	59	4215
2026-01-29 23:28:00.75	115.45	40.70	-44.6	-45.7	19.3	0.00e+00	0	41	0	1305477120	59	4427
2026-01-29 23:28:01.75	115.90	40.62	-44.5	-45.6	19.2	0.00e+00	0	41	0	1308622848	60	4103
2026-01-29 23:28:02.76	116.35	40.54	-44.2	-45.2	19.6	0.00e+00	0	41	0	1311768576	60	3934
2026-01-29 23:28:03.77	116.81	40.45	-44.3	-45.4	19.7	0.00e+00	0	41	0	1314914304	59	4248
2026-01-29 23:28:04.78	117.26	40.37	-44.2	-45.2	19.8	0.00e+00	0	41	0	1318060032	59	4185
2026-01-29 23:28:05.79	117.70	40.28	-43.9	-44.9	20.2	0.00e+00	0	41	0	1321205760	59	4039
2026-01-29 23:28:06.80	118.15	40.19	-43.4	-44.4	20.7	0.00e+00	0	41	0	1324351488	58	4010
2026-01-29 23:28:07.80	118.59	40.10	-43.5	-44.4	20.6	0.00e+00	0	41	0	1327497216	58	4030
2026-01-29 23:28:08.81	119.03	40.01	-43.9	-44.9	20.0	0.00e+00	0	41	0	1330642944	58	4270
2026-01-29 23:28:09.82	119.47	39.91	-44.3	-45.4	19.7	0.00e+00	0	41	0	1333788672	59	4245
2026-01-29 23:28:10.82	119.90	39.82	-44.2	-45.2	19.9	0.00e+00	0	41	0	1336934400	59	4167
2026-01-29 23:28:11.83	120.33	39.72	-43.7	-44.7	20.2	0.00e+00	0	41	0	1340080128	59	3935
2026-01-29 23:28:12.84	120.76	39.62	-43.6	-44.6	20.3	0.00e+00	0	41	0	1343225856	59	3889
2026-01-29 23:28:13.85	121.19	39.52	-43.6	-44.5	20.4	0.00e+00	0	41	0	1346371584	59	3839
2026-01-29 23:28:14.85	121.61	39.42	-43.5	-44.4	20.5	0.00e+00	0	41	0	1349517312	58	4029
2026-01-29 23:28:15.86	122.03	39.31	-43.6	-44.5	20.4	0.00e+00	0	41	0	1352663040	58	4086
2026-01-29 23:28:16.87	122.45	39.21	-43.8	-44.8	20.2	0.00e+00	0	41	0	1355808768	58	4211
2026-01-29 23:28:17.87	122.87	39.10	-44.2	-45.3	19.8	0.00e+00	0	41	0	1358954496	58	4447
2026-01-29 23:28:18.88	123.28	39.00	-44.4	-45.4	19.4	0.00e+00	0	41	0	1362100224	60	4049
2026-01-29 23:28:19.89	123.69	38.89	-44.4	-45.5	19.3	0.00e+00	0	41	0	1365245952	60	4089
2026-01-29 23:28:20.90	124.10	38.78	-44.0	-45.0	19.7	0.00e+00	0	41	0	1368391680	60	3862
2026-01-29 23:28:21.91	124.51	38.67	-43.7	-44.6	20.4	0.00e+00	0	41	0	1371537408	59	3901
2026-01-29 23:28:22.92	124.91	38.55	-43.4	-44.3	20.7	0.00e+00	0	41	0	1374683136	58	3995
2026-01-29 23:28:23.92	125.31	38.44	-43.3	-44.2	20.8	0.00e+00	0	41	0	1377828864	58	3919
2026-01-29 23:28:24.93	125.71	38.33	-43.4	-44.3	20.7	0.00e+00	0	41	0	1380974592	58	3976
2026-01-29 23:28:25.94	126.10	38.21	-43.7	-44.6	20.4	0.00e+00	0	41	0	1384120320	58	4133
2026-01-29 23:28:26.94	126.49	38.09	-43.6	-44.6	20.4	0.00e+00	0	41	0	1387266048	58	4119
2026-01-29 23:28:27.95	126.88	37.97	-43.5	-44.5	20.6	0.00e+00	0	41	0	1390411776	58	4060
2026-01-29 23:28:28.96	127.27	37.86	-43.5	-44.5	20.5	0.00e+00	0	41	0	1393557504	58	4068
2026-01-29 23:28:29.97	127.65	37.74	-43.7	-44.6	20.3	0.00e+00	0	41	0	1396703232	58	4140
2026-01-29 23:28:30.98	128.03	37.61	-43.5	-44.4	20.6	0.00e+00	0	41	0	1399848960	58	4034
2026-01-29 23:28:31.99	128.41	37.49	-43.1	-44.0	21.0	0.00e+00	0	41	0	1402994688	58	3836
2026-01-29 23:28:32.99	128.78	37.37	-43.0	-43.9	21.1	0.00e+00	0	41	0	1406140416	57	4005
2026-01-29 23:28:34.00	129.16	37.25	-43.3	-44.2	20.7	0.00e+00	0	41	0	1409286144	57	4178
2026-01-29 23:28:35.01	129.53	37.12	-43.7	-44.7	20.4	0.00e+00	0	41	0	1412431872	57	4396
2026-01-29 23:28:36.02	129.89	37.00	-43.8	-44.9	20.2	0.00e+00	0	41	0	1415577600	58	4248
2026-01-29 23:28:37.03	130.26	36.87	-43.7	-44.7	20.4	0.00e+00	0	41	0	1418723328	58	4149
2026-01-29 23:28:38.03	130.62	36.74	-43.3	-44.2	20.8	0.00e+00	0	41	0	1421869056	58	3937
2026-01-29 23:28:39.04	130.98	36.62	-42.8	-43.7	21.2	0.00e+00	0	41	0	1425014784	57	3916
2026-01-29 23:28:40.05	131.33	36.49	-42.8	-43.6	21.1	0.00e+00	0	41	0	1428160512	57	3907
2026-01-29 23:28:41.06	131.69	36.36	-42.8	-43.7	21.1	0.00e+00	0	41	0	1431306240	57	3921
2026-01-29 23:28:42.07	132.04	36.23	-42.7	-43.5	21.3	0.00e+00	0	41	0	1434451968	57	3863
2026-01-29 23:28:43.08	132.39	36.10	-42.6	-43.4	21.4	0.00e+00	0	41	0	1437597696	57	3821
2026-01-29 23:28:44.08	132.73	35.97	-42.6	-43.5	21.4	0.00e+00	0	41	0	1440743424	57	3827
2026-01-29 23:28:45.09	133.07	35.83	-42.7	-43.6	21.2	0.00e+00	0	41	0	1443889152	57	3885
2026-01-29 23:28:46.10	133.41	35.70	-42.9	-43.8	21.1	0.00e+00	0	41	0	1447034880	57	3982
2026-01-29 23:28:47.11	133.75	35.57	-43.1	-44.0	21.0	0.00e+00	0	41	0	1450180608	57	4055
2026-01-29 23:28:48.11	134.08	35.44	-43.1	-44.0	20.8	0.00e+00	0	41	0	1453326336	57	4080
2026-01-29 23:28:49.12	134.41	35.30	-43.3	-44.2	20.7	0.00e+00	0	41	0	1456472064	57	4193
2026-01-29 23:28:50.13	134.74	35.17	-43.4	-44.3	20.6	0.00e+00	0	41	0	1459617792	57	4230
2026-01-29 23:28:51.14	135.07	35.03	-43.6	-44.6	20.4	0.00e+00	0	41	0	1462763520	57	4351
2026-01-29 23:28:52.14	135.39	34.90	-43.8	-44.8	20.3	0.00e+00	0	41	0	1465909248	58	4204
2026-01-29 23:28:53.15	135.71	34.76	-43.8	-44.9	20.2	0.00e+00	0	41	0	1469054976	58	4250
2026-01-29 23:28:54.16	136.03	34.63	-43.7	-44.7	20.3	0.00e+00	0	42	0	1472200704	58	4172
2026-01-29 23:28:55.17	136.35	34.49	-43.6	-44.5	20.5	0.00e+00	0	41	0	1475346432	58	4086
2026-01-29 23:28:56.18	136.66	34.35	-43.7	-44.7	20.4	0.00e+00	0	41	0	1478492160	58	4168
2026-01-29 23:28:57.18	136.97	34.22	-43.3	-44.2	20.7	0.00e+00	0	41	0	1481637888	58	3948
2026-01-29 23:28:58.19	137.28	34.08	-43.3	-44.2	20.5	0.00e+00	0	41	0	1484783616	58	3948
2026-01-29 23:28:59.20	137.58	33.94	-43.4	-44.4	20.6	0.00e+00	0	41	0	1487929344	58	4013
2026-01-29 23:29:00.21	137.89	33.80	-42.9	-43.8	21.1	0.00e+00	0	41	0	1491075072	57	3986
2026-01-29 23:29:01.21	138.18	33.67	-42.6	-43.5	21.3	0.00e+00	0	41	0	1494220800	57	3839
2026-01-29 23:29:02.22	138.48	33.53	-42.6	-43.5	21.3	0.00e+00	0	41	0	1497366528	57	3835
2026-01-29 23:29:03.23	138.78	33.39	-42.4	-43.3	21.6	0.00e+00	0	41	0	1500512256	56	3963
2026-01-29 23:29:04.24	139.07	33.25	-42.5	-43.3	21.5	0.00e+00	0	41	0	1503657984	56	3998
2026-01-29 23:29:05.25	139.36	33.11	-42.5	-43.4	21.4	0.00e+00	0	41	0	1506803712	56	4023
2026-01-29 23:29:06.25	139.65	32.97	-42.5	-43.4	21.4	0.00e+00	0	41	0	1509949440	56	4012
2026-01-29 23:29:07.26	139.93	32.83	-42.3	-43.2	21.6	0.00e+00	0	41	0	1513095168	56	3936
2026-01-29 23:29:08.27	140.22	32.69	-42.3	-43.1	21.6	0.00e+00	0	41	0	1516240896	56	3899
2026-01-29 23:29:09.27	140.50	32.56	-42.2	-43.1	21.6	0.00e+00	0	41	0	1519386624	56	3891
2026-01-29 23:29:10.28	140.78	32.42	-42.0	-42.9	21.8	0.00e+00	0	41	0	1522532352	56	3796
2026-01-29 23:29:11.28	141.05	32.28	-41.8	-42.7	22.0	0.00e+00	0	41	0	1525678080	55	3920
2026-01-29 23:29:12.29	141.32	32.14	-41.8	-42.6	22.0	0.00e+00	0	41	0	1528823808	55	3904
2026-01-29 23:29:13.30	141.60	32.00	-41.7	-42.5	22.1	0.00e+00	0	41	0	1531969536	55	3841
2026-01-29 23:29:14.31	141.87	31.86	-41.7	-42.5	22.1	0.00e+00	0	41	0	1535115264	55	3846
2026-01-29 23:29:15.31	142.13	31.72	-41.5	-42.3	22.3	0.00e+00	0	41	0	1538260992	55	3763
2026-01-29 23:29:16.32	142.40	31.58	-41.4	-42.2	22.3	0.00e+00	0	41	0	1541406720	54	3942
2026-01-29 23:29:17.33	142.66	31.44	-41.2	-42.0	22.4	0.00e+00	0	41	0	1544552448	54	3853
2026-01-29 23:29:18.33	142.92	31.30	-41.2	-41.9	22.5	0.00e+00	0	41	0	1547698176	54	3824
2026-01-29 23:29:19.34	143.18	31.16	-41.1	-41.9	22.5	0.00e+00	0	41	0	1550843904	54	3790
2026-01-29 23:29:20.34	143.43	31.02	-41.2	-41.9	22.4	0.00e+00	0	41	0	1553989632	54	3821
2026-01-29 23:29:21.35	143.69	30.88	-41.0	-41.8	22.5	0.00e+00	0	41	0	1557135360	54	3747
2026-01-29 23:29:22.35	143.94	30.74	-41.0	-41.8	22.4	0.00e+00	0	41	0	1560281088	54	3768
2026-01-29 23:29:23.36	144.19	30.60	-41.0	-41.7	22.6	0.00e+00	0	41	0	1563426816	53	3947
2026-01-29 23:29:24.37	144.43	30.47	-40.8	-41.5	22.7	0.00e+00	0	41	0	1566572544	53	3862
2026-01-29 23:29:25.37	144.68	30.33	-40.8	-41.5	22.7	0.00e+00	0	41	0	1569718272	53	3864
2026-01-29 23:29:26.38	144.92	30.19	-40.9	-41.7	22.6	0.00e+00	0	41	0	1572864000	53	3919
2026-01-29 23:29:27.39	145.16	30.05	-41.0	-41.7	22.5	0.00e+00	0	41	0	1576009728	53	3947
2026-01-29 23:29:28.39	145.40	29.91	-41.1	-41.9	22.4	0.00e+00	0	41	0	1579155456	53	4019
2026-01-29 23:29:29.41	145.64	29.77	-41.2	-42.0	22.4	0.00e+00	0	41	0	1582301184	53	4055
2026-01-29 23:29:30.41	145.87	29.63	-41.3	-42.1	22.3	0.00e+00	0	41	0	1585446912	53	4127
2026-01-29 23:29:31.42	146.11	29.49	-41.3	-42.1	22.3	0.00e+00	0	41	0	1588592640	53	4136
2026-01-29 23:29:32.42	146.34	29.36	-41.4	-42.2	22.2	0.00e+00	0	41	0	1591738368	53	4155
2026-01-29 23:29:33.43	146.57	29.22	-41.3	-42.1	22.3	0.00e+00	0	41	0	1594884096	53	4105
2026-01-29 23:29:34.44	146.80	29.08	-41.4	-42.2	22.2	0.00e+00	0	41	0	1598029824	53	4158
2026-01-29 23:29:35.45	147.02	28.94	-41.3	-42.1	22.1	0.00e+00	0	41	0	1601175552	53	4135
2026-01-29 23:29:36.46	147.25	28.81	-41.3	-42.2	22.1	0.00e+00	0	41	0	1604321280	53	4147
2026-01-29 23:29:37.46	147.47	28.67	-41.5	-42.3	22.0	0.00e+00	0	41	0	1607467008	53	4217
2026-01-29 23:29:38.47	147.69	28.53	-41.4	-42.3	22.1	0.00e+00	0	41	0	1610612736	53	4200
2026-01-29 23:29:39.48	147.91	28.39	-41.4	-42.2	22.1	0.00e+00	0	41	0	1613758464	53	4192
2026-01-29 23:29:40.48	148.12	28.26	-41.4	-42.2	22.2	0.00e+00	0	41	0	1616904192	53	4161
2026-01-29 23:29:41.49	148.34	28.12	-41.5	-42.4	22.0	0.00e+00	0	41	0	1620049920	53	4249
2026-01-29 23:29:42.49	148.55	27.99	-41.4	-42.2	22.2	0.00e+00	0	41	0	1623195648	53	4156
2026-01-29 23:29:43.50	148.76	27.85	-41.4	-42.2	22.2	0.00e+00	0	41	0	1626341376	53	4155
2026-01-29 23:29:44.51	148.97	27.72	-41.5	-42.3	22.2	0.00e+00	0	41	0	1629487104	53	4209
2026-01-29 23:29:45.51	149.18	27.58	-41.4	-42.2	22.2	0.00e+00	0	41	0	1632632832	53	4158
2026-01-29 23:29:46.52	149.38	27.45	-41.4	-42.2	22.2	0.00e+00	0	41	0	1635778560	53	4185
2026-01-29 23:29:47.53	149.59	27.31	-41.4	-42.2	22.1	0.00e+00	0	41	0	1638924288	53	4184
2026-01-29 23:29:48.54	149.79	27.18	-41.5	-42.3	22.1	0.00e+00	0	41	0	1642070016	53	4202
2026-01-29 23:29:49.55	149.99	27.04	-41.5	-42.4	22.0	0.00e+00	0	41	0	1645215744	53	4252
2026-01-29 23:29:50.56	150.19	26.91	-41.4	-42.2	22.2	0.00e+00	0	41	0	1648361472	53	4164
2026-01-29 23:29:51.56	150.39	26.78	-41.3	-42.1	22.4	0.00e+00	0	41	0	1651507200	53	4102
2026-01-29 23:29:52.57	150.58	26.64	-41.2	-42.0	22.4	0.00e+00	0	41	0	1654652928	53	4075
2026-01-29 23:29:53.58	150.78	26.51	-41.2	-42.0	22.4	0.00e+00	0	41	0	1657798656	53	4063
2026-01-29 23:29:54.58	150.97	26.38	-41.1	-41.8	22.5	0.00e+00	0	41	0	1660944384	53	4002
2026-01-29 23:29:55.59	151.16	26.25	-40.8	-41.6	22.7	0.00e+00	0	41	0	1664090112	53	3897
2026-01-29 23:29:56.60	151.35	26.11	-40.9	-41.6	22.7	0.00e+00	0	41	0	1667235840	53	3898
2026-01-29 23:29:57.60	151.54	25.98	-40.8	-41.6	22.7	0.00e+00	0	41	0	1670381568	53	3876
2026-01-29 23:29:58.61	151.73	25.85	-40.9	-41.6	22.6	0.00e+00	0	41	0	1673527296	53	3902
2026-01-29 23:29:59.62	151.91	25.72	-40.9	-41.7	22.6	0.00e+00	0	41	0	1676673024	53	3922
2026-01-29 23:30:00.63	152.10	25.59	-40.7	-41.4	22.8	0.00e+00	0	41	0	1679818752	53	3815
2026-01-29 23:30:01.63	152.28	25.46	-40.8	-41.6	22.6	0.00e+00	0	41	0	1682964480	53	3882
2026-01-29 23:30:02.64	152.46	25.33	-40.9	-41.7	22.5	0.00e+00	0	41	0	1686110208	53	3937
2026-01-29 23:30:03.65	152.64	25.20	-40.9	-41.7	22.5	0.00e+00	0	41	0	1689255936	53	3934
2026-01-29 23:30:04.65	152.82	25.07	-40.9	-41.7	22.5	0.00e+00	0	41	0	1692401664	53	3942
2026-01-29 23:30:05.66	152.99	24.94	-41.0	-41.8	22.4	0.00e+00	0	41	0	1695547392	53	3985
2026-01-29 23:30:06.66	153.17	24.81	-41.1	-41.9	22.4	0.00e+00	0	41	0	1698693120	53	4028
2026-01-29 23:30:07.67	153.34	24.69	-40.8	-41.6	22.6	0.00e+00	0	41	0	1701838848	53	3892
2026-01-29 23:30:08.68	153.52	24.56	-40.8	-41.6	22.6	0.00e+00	0	41	0	1704984576	53	3884
2026-01-29 23:30:09.69	153.69	24.43	-40.7	-41.5	22.7	0.00e+00	0	41	0	1708130304	53	3844
2026-01-29 23:30:10.69	153.86	24.30	-40.7	-41.5	22.7	0.00e+00	0	41	0	1711276032	53	3826
2026-01-29 23:30:11.70	154.02	24.18	-40.8	-41.6	22.6	0.00e+00	0	41	0	1714421760	53	3874
2026-01-29 23:30:12.70	154.19	24.05	-40.7	-41.4	22.6	0.00e+00	0	41	0	1717567488	53	3824
2026-01-29 23:30:13.70	154.36	23.93	-40.7	-41.5	22.6	0.00e+00	0	41	0	1720713216	53	3854
2026-01-29 23:30:14.71	154.52	23.80	-40.8	-41.6	22.5	0.00e+00	0	41	0	1723858944	53	3883
2026-01-29 23:30:15.71	154.68	23.68	-40.8	-41.6	22.5	0.00e+00	0	41	0	1727004672	53	3891
2026-01-29 23:30:16.73	154.85	23.55	-41.0	-41.8	22.4	0.00e+00	0	41	0	1730150400	53	3960
2026-01-29 23:30:17.73	155.01	23.43	-40.9	-41.7	22.5	0.00e+00	0	41	0	1733296128	53	3924
2026-01-29 23:30:18.74	155.17	23.30	-41.0	-41.8	22.4	0.00e+00	0	41	0	1736441856	53	3961
2026-01-29 23:30:19.75	155.32	23.18	-41.0	-41.8	22.4	0.00e+00	0	41	0	1739587584	53	3990
2026-01-29 23:30:20.75	155.48	23.06	-41.1	-41.9	22.4	0.00e+00	0	41	0	1742733312	53	4014
2026-01-29 23:30:21.76	155.64	22.93	-41.1	-41.9	22.3	0.00e+00	0	41	0	1745879040	53	4036
2026-01-29 23:30:22.76	155.79	22.81	-41.2	-42.0	22.3	0.00e+00	0	41	0	1749024768	53	4054
2026-01-29 23:30:23.78	155.95	22.69	-41.2	-42.1	22.2	0.00e+00	0	41	0	1752170496	53	4099
2026-01-29 23:30:24.79	156.10	22.56	-41.2	-42.0	22.3	0.00e+00	0	41	0	1755316224	53	4052
2026-01-29 23:30:25.80	156.25	22.44	-41.2	-42.0	22.2	0.00e+00	0	41	0	1758461952	53	4053
2026-01-29 23:30:26.81	156.40	22.32	-41.2	-42.1	22.2	0.00e+00	0	41	0	1761607680	53	4099
2026-01-29 23:30:27.81	156.55	22.20	-41.2	-42.0	22.2	0.00e+00	0	41	0	1764753408	53	4083
2026-01-29 23:30:28.83	156.70	22.08	-41.2	-42.0	22.2	0.00e+00	0	41	0	1767899136	53	4083
2026-01-29 23:30:29.83	156.85	21.96	-41.2	-42.0	22.1	0.00e+00	0	41	0	1771044864	53	4082
2026-01-29 23:30:30.84	156.99	21.84	-41.2	-42.0	22.2	0.00e+00	0	41	0	1774190592	53	4085
2026-01-29 23:30:31.85	157.14	21.72	-41.1	-41.8	22.3	0.00e+00	0	41	0	1777336320	53	4000
2026-01-29 23:30:32.86	157.28	21.60	-41.1	-41.9	22.4	0.00e+00	0	41	0	1780482048	53	4008
2026-01-29 23:30:33.86	157.42	21.48	-41.0	-41.8	22.4	0.00e+00	0	41	0	1783627776	53	3968
2026-01-29 23:30:34.87	157.56	21.37	-41.1	-41.9	22.3	0.00e+00	0	41	0	1786773504	53	4018
2026-01-29 23:30:35.88	157.70	21.25	-41.0	-41.8	22.4	0.00e+00	0	41	0	1789919232	53	3962
2026-01-29 23:30:36.89	157.84	21.13	-41.0	-41.8	22.4	0.00e+00	0	41	0	1793064960	53	3975
2026-01-29 23:30:37.89	157.98	21.01	-41.1	-41.9	22.4	0.00e+00	0	41	0	1796210688	53	4005
2026-01-29 23:30:38.90	158.12	20.90	-41.1	-41.9	22.3	0.00e+00	0	41	0	1799356416	53	4039
2026-01-29 23:30:39.91	158.26	20.78	-41.0	-41.8	22.4	0.00e+00	0	41	0	1802502144	53	3973
2026-01-29 23:30:40.92	158.39	20.66	-41.0	-41.8	22.3	0.00e+00	0	41	0	1805647872	53	3991
2026-01-29 23:30:41.92	158.53	20.55	-40.9	-41.7	22.4	0.00e+00	0	41	0	1808793600	53	3947
2026-01-29 23:30:42.93	158.66	20.43	-40.9	-41.7	22.5	0.00e+00	0	41	0	1811939328	53	3921
2026-01-29 23:30:43.94	158.79	20.32	-41.0	-41.8	22.4	0.00e+00	0	41	0	1815085056	53	3960
2026-01-29 23:30:44.94	158.92	20.21	-40.8	-41.6	22.5	0.00e+00	0	41	0	1818230784	53	3872
2026-01-29 23:30:45.95	159.05	20.09	-40.9	-41.7	22.5	0.00e+00	0	42	0	1821376512	53	3917
2026-01-29 23:30:46.96	159.18	19.98	-40.7	-41.5	22.6	0.00e+00	0	41	0	1824522240	53	3841
2026-01-29 23:30:47.97	159.31	19.86	-40.7	-41.5	22.5	0.00e+00	0	41	0	1827667968	53	3842
2026-01-29 23:30:48.97	159.44	19.75	-40.9	-41.6	22.4	0.00e+00	0	41	0	1830813696	53	3912
2026-01-29 23:30:49.98	159.57	19.64	-40.7	-41.5	22.5	0.00e+00	0	41	0	1833959424	53	3828
2026-01-29 23:30:50.99	159.69	19.53	-40.6	-41.3	22.6	0.00e+00	0	41	0	1837105152	53	3773
2026-01-29 23:30:52.00	159.82	19.42	-40.6	-41.4	22.6	0.00e+00	0	41	0	1840250880	53	3783
2026-01-29 23:30:53.00	159.94	19.30	-40.6	-41.4	22.6	0.00e+00	0	41	0	1843396608	53	3788
2026-01-29 23:30:54.01	160.07	19.19	-40.6	-41.3	22.6	0.00e+00	0	41	0	1846542336	53	3766
2026-01-29 23:30:55.01	160.19	19.08	-40.7	-41.4	22.6	0.00e+00	0	41	0	1849688064	53	3818
2026-01-29 23:30:56.02	160.31	18.97	-40.8	-41.6	22.4	0.00e+00	0	41	0	1852833792	53	3883
2026-01-29 23:30:57.03	160.43	18.86	-40.9	-41.6	22.4	0.00e+00	0	41	0	1855979520	53	3913
2026-01-29 23:30:58.04	160.55	18.75	-41.0	-41.8	22.2	0.00e+00	0	41	0	1859125248	53	3990
2026-01-29 23:30:59.04	160.67	18.65	-41.1	-41.9	22.2	0.00e+00	0	41	0	1862270976	53	4030
2026-01-29 23:31:00.05	160.79	18.54	-41.2	-42.0	22.1	0.00e+00	0	41	0	1865416704	53	4066
2026-01-29 23:31:01.05	160.91	18.43	-41.2	-42.1	22.0	0.00e+00	0	41	0	1868562432	53	4107
2026-01-29 23:31:02.07	161.02	18.32	-41.3	-42.1	22.1	0.00e+00	0	41	0	1871708160	53	4124
2026-01-29 23:31:03.08	161.14	18.21	-41.3	-42.2	22.0	0.00e+00	0	41	0	1874853888	53	4151
2026-01-29 23:31:04.08	161.25	18.10	-41.3	-42.1	22.0	0.00e+00	0	41	0	1877999616	53	4118
2026-01-29 23:31:05.09	161.37	18.00	-41.4	-42.2	21.9	0.00e+00	0	41	0	1881145344	53	4172
2026-01-29 23:31:06.10	161.48	17.89	-41.3	-42.1	22.0	0.00e+00	0	41	0	1884291072	53	4143
2026-01-29 23:31:07.11	161.60	17.78	-41.3	-42.1	22.0	0.00e+00	0	41	0	1887436800	53	4133
2026-01-29 23:31:08.11	161.71	17.68	-41.3	-42.1	21.9	0.00e+00	0	41	0	1890582528	53	4144
2026-01-29 23:31:09.12	161.82	17.57	-41.4	-42.3	21.8	0.00e+00	0	41	0	1893728256	53	4195
2026-01-29 23:31:10.12	161.93	17.47	-41.4	-42.3	21.8	0.00e+00	0	41	0	1896873984	53	4208
2026-01-29 23:31:11.13	162.04	17.36	-41.5	-42.4	21.6	0.00e+00	0	41	0	1900019712	53	4264
2026-01-29 23:31:12.14	162.15	17.26	-41.6	-42.5	21.4	0.00e+00	0	42	0	1903165440	53	4304
2026-01-29 23:31:13.14	162.26	17.16	-41.6	-42.5	21.4	0.00e+00	0	41	0	1906311168	54	4060
2026-01-29 23:31:14.15	162.36	17.05	-41.6	-42.4	21.5	0.00e+00	0	41	0	1909456896	54	4031
2026-01-29 23:31:15.16	162.47	16.95	-41.6	-42.4	21.5	0.00e+00	0	41	0	1912602624	54	4047
2026-01-29 23:31:16.17	162.58	16.84	-41.5	-42.3	21.7	0.00e+00	0	41	0	1915748352	54	3981
2026-01-29 23:31:17.17	162.68	16.74	-41.5	-42.4	21.6	0.00e+00	0	41	0	1918894080	54	4015
2026-01-29 23:31:18.18	162.79	16.64	-41.6	-42.4	21.6	0.00e+00	0	41	0	1922039808	54	4048
2026-01-29 23:31:19.19	162.89	16.54	-41.7	-42.5	21.5	0.00e+00	0	41	0	1925185536	54	4076
2026-01-29 23:31:20.19	163.00	16.44	-41.5	-42.3	21.6	0.00e+00	0	41	0	1928331264	54	3991
2026-01-29 23:31:21.19	163.10	16.34	-41.4	-42.2	21.8	0.00e+00	0	41	0	1931476992	54	3923
2026-01-29 23:31:22.20	163.20	16.23	-41.4	-42.3	21.7	0.00e+00	0	41	0	1934622720	54	3959
2026-01-29 23:31:23.21	163.30	16.13	-41.4	-42.2	21.8	0.00e+00	0	41	0	1937768448	54	3921
2026-01-29 23:31:24.21	163.40	16.03	-41.4	-42.3	21.8	0.00e+00	0	41	0	1940914176	54	3968
2026-01-29 23:31:25.22	163.50	15.93	-41.5	-42.4	21.7	0.00e+00	0	41	0	1944059904	54	4008
2026-01-29 23:31:26.23	163.60	15.83	-41.7	-42.5	21.6	0.00e+00	0	41	0	1947205632	54	4067
2026-01-29 23:31:27.23	163.70	15.74	-41.7	-42.6	21.5	0.00e+00	0	41	0	1950351360	54	4101
2026-01-29 23:31:28.24	163.80	15.64	-41.7	-42.5	21.6	0.00e+00	0	41	0	1953497088	54	4087
2026-01-29 23:31:29.25	163.90	15.54	-41.7	-42.5	21.6	0.00e+00	0	41	0	1956642816	54	4098
2026-01-29 23:31:30.26	164.00	15.44	-41.8	-42.6	21.5	0.00e+00	0	41	0	1959788544	54	4127
2026-01-29 23:31:31.27	164.09	15.34	-41.8	-42.7	21.4	0.00e+00	0	41	0	1962934272	54	4164
2026-01-29 23:31:32.27	164.19	15.24	-41.9	-42.7	21.4	0.00e+00	0	41	0	1966080000	54	4190
2026-01-29 23:31:33.28	164.28	15.15	-41.9	-42.8	21.3	0.00e+00	0	41	0	1969225728	54	4212
2026-01-29 23:31:34.29	164.38	15.05	-42.1	-43.0	21.2	0.00e+00	0	41	0	1972371456	54	4312
2026-01-29 23:31:35.29	164.47	14.95	-42.3	-43.2	21.0	0.00e+00	0	41	0	1975517184	55	4148
2026-01-29 23:31:36.30	164.57	14.85	-42.4	-43.3	20.9	0.00e+00	0	41	0	1978662912	55	4233
2026-01-29 23:31:37.30	164.66	14.76	-42.4	-43.3	20.9	0.00e+00	0	41	0	1981808640	55	4228
2026-01-29 23:31:38.31	164.75	14.66	-42.4	-43.4	20.8	0.00e+00	0	41	0	1984954368	55	4256
2026-01-29 23:31:39.32	164.84	14.57	-42.5	-43.5	20.7	0.00e+00	0	41	0	1988100096	55	4303
2026-01-29 23:31:40.33	164.94	14.47	-42.5	-43.4	20.7	0.00e+00	0	41	0	1991245824	55	4288
2026-01-29 23:31:41.33	165.03	14.38	-42.5	-43.5	20.7	0.00e+00	0	41	0	1994391552	55	4301
2026-01-29 23:31:42.34	165.12	14.28	-42.5	-43.4	20.7	0.00e+00	0	41	0	1997537280	55	4282
2026-01-29 23:31:43.35	165.21	14.19	-42.6	-43.5	20.5	0.00e+00	0	41	0	2000683008	55	4338
2026-01-29 23:31:44.36	165.30	14.09	-42.4	-43.3	20.7	0.00e+00	0	41	0	2003828736	55	4227
2026-01-29 23:31:45.37	165.39	14.00	-42.3	-43.2	20.8	0.00e+00	0	41	0	2006974464	55	4192
2026-01-29 23:31:46.37	165.47	13.91	-42.4	-43.3	20.8	0.00e+00	0	41	0	2010120192	55	4210
2026-01-29 23:31:47.38	165.56	13.81	-42.5	-43.5	20.5	0.00e+00	0	41	0	2013265920	55	4304
2026-01-29 23:31:48.38	165.65	13.72	-42.5	-43.5	20.5	0.00e+00	0	41	0	2016411648	55	4322
2026-01-29 23:31:49.39	165.73	13.63	-42.6	-43.6	20.4	0.00e+00	0	41	0	2019557376	55	4353
2026-01-29 23:31:50.40	165.82	13.54	-42.5	-43.5	20.5	0.00e+00	0	41	0	2022703104	55	4312
2026-01-29 23:31:51.41	165.91	13.44	-42.5	-43.4	20.6	0.00e+00	0	41	0	2025848832	55	4280
2026-01-29 23:31:52.41	165.99	13.35	-42.5	-43.4	20.6	0.00e+00	0	41	0	2028994560	55	4266
2026-01-29 23:31:53.41	166.07	13.26	-42.4	-43.4	20.6	0.00e+00	0	41	0	2032140288	55	4254
2026-01-29 23:31:54.42	166.16	13.17	-42.4	-43.4	20.6	0.00e+00	0	41	0	2035286016	55	4244
