passes_logs/2026/01/29/R3.2S_Murmansk/R3.2S_Murmansk__20260129_235009_SUOMI_NPP_rec.log

#Pass ID: 20260129_235009_SUOMI NPP
#Satellite: SUOMI NPP
#Configuration: NPP
#almurnet v.1.7.20251203
#Start time: 2026-01-29 23:50:09

#Version: 2.2.20231116
#Station: R3.2S_Murmansk
#Location: 33.079688 lon 68.888172 lat
#TLE: 1 37849U 11061A   26029.48304708  .00000140  00000+0  87283-4 0  9999
#TLE: 2 37849  98.7824 331.4079 0002024  38.4342 321.6978 14.19531488738761

#Time	Az	El	Level	Level2	SNR	BER	BlckErr	Temp	State	Recorded	gain1	gain2
2026-01-29 23:50:09.27	21.55	1.98	-54.0	-69.0	3.8	1.49e+00	0	39	0	0	79	20325
2026-01-29 23:50:10.27	21.58	2.04	-53.3	-68.3	3.8	1.49e+00	0	39	104	0	78	19918
2026-01-29 23:50:11.28	21.61	2.10	-53.1	-68.0	3.8	1.49e+00	0	39	104	0	78	19331
2026-01-29 23:50:12.29	21.64	2.17	-52.7	-67.7	3.8	1.49e+00	0	39	104	0	77	19622
2026-01-29 23:50:13.29	21.67	2.23	-52.2	-67.1	3.8	1.49e+00	0	39	104	0	76	19566
2026-01-29 23:50:14.30	21.70	2.29	-52.1	-67.0	3.8	1.49e+00	0	39	104	0	76	19276
2026-01-29 23:50:15.30	21.73	2.36	-52.1	-67.0	3.8	1.49e+00	0	40	104	0	76	19190
2026-01-29 23:50:16.31	21.76	2.42	-52.1	-67.0	3.8	1.49e+00	0	39	104	0	76	19265
2026-01-29 23:50:17.32	21.79	2.48	-52.0	-67.0	3.8	1.49e+00	0	39	104	0	76	19305
2026-01-29 23:50:18.33	21.82	2.55	-52.0	-67.0	3.8	1.49e+00	0	39	104	0	76	19250
2026-01-29 23:50:19.33	21.85	2.61	-52.0	-67.0	3.8	1.49e+00	0	39	104	0	76	19235
2026-01-29 23:50:20.34	21.88	2.68	-52.0	-67.0	3.8	1.49e+00	0	39	104	0	76	19246
2026-01-29 23:50:21.35	21.91	2.74	-52.0	-67.0	3.8	1.49e+00	0	40	104	0	76	19209
2026-01-29 23:50:22.35	21.94	2.81	-52.0	-66.9	3.8	1.49e+00	0	40	104	0	76	19120
2026-01-29 23:50:23.36	21.98	2.87	-52.0	-66.9	3.8	1.49e+00	0	40	104	0	76	19104
2026-01-29 23:50:24.37	22.01	2.93	-52.0	-66.9	3.8	1.49e+00	0	40	104	0	76	19034
2026-01-29 23:50:25.37	22.04	3.00	-52.0	-66.9	3.8	1.49e+00	0	40	104	0	76	18970
2026-01-29 23:50:26.38	22.07	3.06	-52.0	-66.8	3.8	1.49e+00	0	40	104	0	76	18880
2026-01-29 23:50:27.39	22.10	3.13	-52.0	-66.8	3.8	1.49e+00	0	40	104	0	76	18925
2026-01-29 23:50:28.40	22.13	3.20	-52.0	-66.9	3.8	1.49e+00	0	40	104	0	76	19000
2026-01-29 23:50:29.41	22.16	3.26	-52.0	-66.9	3.8	1.49e+00	0	40	104	0	76	19095
2026-01-29 23:50:30.41	22.20	3.33	-52.0	-66.9	3.8	1.49e+00	0	40	104	0	76	19109
2026-01-29 23:50:31.42	22.23	3.39	-52.0	-66.9	3.8	1.49e+00	0	40	104	0	76	19155
2026-01-29 23:50:32.43	22.26	3.46	-52.0	-66.9	3.8	1.49e+00	0	40	104	0	76	19097
2026-01-29 23:50:33.43	22.29	3.52	-52.0	-66.9	3.8	1.49e+00	0	40	104	0	76	18992
2026-01-29 23:50:34.44	22.33	3.59	-52.0	-66.8	3.8	1.49e+00	0	40	104	0	75	20014
2026-01-29 23:50:35.45	22.36	3.66	-52.0	-66.8	3.8	1.49e+00	0	40	104	0	75	19908
2026-01-29 23:50:36.46	22.39	3.72	-52.0	-66.8	3.8	1.49e+00	0	40	104	0	75	20006
2026-01-29 23:50:37.47	22.42	3.79	-51.9	-66.9	3.8	1.49e+00	0	40	104	0	75	20135
2026-01-29 23:50:38.48	22.46	3.86	-51.9	-66.8	3.8	1.49e+00	0	40	104	0	75	19994
2026-01-29 23:50:39.49	22.49	3.92	-51.9	-66.4	3.8	1.49e+00	0	40	104	0	75	19130
2026-01-29 23:50:40.50	22.52	3.99	-51.9	-65.5	3.8	1.49e+00	0	40	104	0	75	17152
2026-01-29 23:50:41.51	22.56	4.06	-51.8	-63.6	4.1	1.48e+00	0	40	104	0	75	13874
2026-01-29 23:50:42.52	22.59	4.13	-51.6	-61.3	5.0	1.09e+00	0	40	0	1048576	75	10599
2026-01-29 23:50:43.53	22.63	4.19	-51.3	-59.6	6.1	5.18e-01	0	40	0	2097152	74	9244
2026-01-29 23:50:44.54	22.66	4.26	-50.9	-57.7	7.9	1.04e-01	0	40	0	4194304	73	7846
2026-01-29 23:50:45.55	22.69	4.33	-50.4	-55.8	9.8	2.93e-02	0	40	0	6291456	72	6679
2026-01-29 23:50:46.56	22.73	4.40	-50.1	-54.8	10.8	5.47e-03	0	40	0	8388608	72	5985
2026-01-29 23:50:47.56	22.76	4.47	-49.6	-53.6	12.2	3.58e-04	0	40	0	10485760	71	5484
2026-01-29 23:50:48.57	22.80	4.53	-49.0	-52.4	13.4	3.58e-05	0	40	0	11534336	70	5053
2026-01-29 23:50:49.57	22.83	4.60	-48.5	-51.6	14.2	3.00e-06	0	40	0	13631488	69	4873
2026-01-29 23:50:50.58	22.86	4.67	-47.9	-50.5	15.3	0.00e+00	0	40	0	15728640	67	4822
2026-01-29 23:50:51.59	22.90	4.74	-47.8	-50.4	15.4	0.00e+00	0	40	0	17825792	67	4764
2026-01-29 23:50:52.60	22.93	4.81	-47.6	-50.0	15.7	0.00e+00	0	40	0	19922944	67	4597
2026-01-29 23:50:53.60	22.97	4.88	-47.6	-50.0	15.7	0.00e+00	0	41	0	22020096	66	4844
2026-01-29 23:50:54.61	23.01	4.95	-47.5	-49.9	15.8	0.00e+00	0	40	0	23068672	66	4780
2026-01-29 23:50:55.61	23.04	5.02	-48.0	-50.6	15.1	0.00e+00	0	41	0	25165824	66	5212
2026-01-29 23:50:56.61	23.08	5.09	-47.3	-49.5	16.2	0.00e+00	0	41	0	27262976	66	4594
2026-01-29 23:50:57.62	23.11	5.16	-47.1	-49.4	16.4	0.00e+00	0	41	0	29360128	65	4764
2026-01-29 23:50:58.63	23.15	5.23	-48.6	-51.7	14.4	3.00e-06	0	41	0	30408704	67	5541
2026-01-29 23:50:59.64	23.18	5.30	-48.8	-52.0	13.9	4.89e-02	0	41	0	32505856	69	5115
2026-01-29 23:51:00.64	23.22	5.37	-48.7	-51.9	14.2	7.00e-07	0	41	0	34603008	67	5678
2026-01-29 23:51:01.65	23.26	5.44	-49.0	-52.3	13.2	1.80e-01	0	41	0	36700160	70	5011
2026-01-29 23:51:02.65	23.29	5.51	-47.6	-50.0	15.7	0.00e+00	0	40	0	38797312	67	4598
2026-01-29 23:51:03.66	23.33	5.58	-47.7	-50.2	15.6	0.00e+00	0	40	0	39845888	67	4661
2026-01-29 23:51:04.67	23.36	5.65	-47.7	-50.1	15.7	0.00e+00	0	41	0	41943040	67	4628
2026-01-29 23:51:05.67	23.40	5.72	-47.3	-49.6	16.2	0.00e+00	0	41	0	44040192	66	4607
2026-01-29 23:51:06.68	23.44	5.80	-47.4	-49.7	16.1	0.00e+00	0	41	0	46137344	66	4693
2026-01-29 23:51:07.69	23.48	5.87	-47.3	-49.5	16.4	0.00e+00	0	41	0	48234496	66	4552
2026-01-29 23:51:08.69	23.51	5.94	-47.3	-49.5	16.4	0.00e+00	0	41	0	50331648	66	4574
2026-01-29 23:51:09.70	23.55	6.01	-47.5	-49.9	16.0	0.00e+00	0	41	0	51380224	66	4774
2026-01-29 23:51:10.70	23.59	6.08	-47.3	-49.5	16.3	0.00e+00	0	41	0	53477376	66	4598
2026-01-29 23:51:11.71	23.63	6.16	-47.0	-49.1	16.8	0.00e+00	0	41	0	55574528	66	4355
2026-01-29 23:51:12.72	23.66	6.23	-47.1	-49.2	16.7	0.00e+00	0	41	0	57671680	66	4417
2026-01-29 23:51:13.72	23.70	6.30	-46.9	-48.9	17.0	0.00e+00	0	41	0	58720256	65	4526
2026-01-29 23:51:14.73	23.74	6.37	-46.9	-49.0	16.9	0.00e+00	0	41	0	60817408	65	4577
2026-01-29 23:51:15.74	23.78	6.45	-47.1	-49.3	16.6	0.00e+00	0	41	0	62914560	65	4717
2026-01-29 23:51:16.74	23.82	6.52	-46.6	-48.5	17.4	0.00e+00	0	41	0	65011712	65	4328
2026-01-29 23:51:17.74	23.86	6.59	-46.8	-48.7	17.2	0.00e+00	0	41	0	67108864	65	4438
2026-01-29 23:51:18.75	23.90	6.67	-46.7	-48.6	17.3	0.00e+00	0	41	0	68157440	65	4382
2026-01-29 23:51:19.76	23.93	6.74	-46.9	-48.9	17.0	0.00e+00	0	41	0	70254592	65	4506
2026-01-29 23:51:20.77	23.97	6.82	-46.7	-48.7	17.2	0.00e+00	0	41	0	72351744	65	4423
2026-01-29 23:51:21.77	24.01	6.89	-46.9	-48.9	17.1	0.00e+00	0	41	0	74448896	65	4534
2026-01-29 23:51:22.78	24.05	6.97	-47.0	-49.1	16.9	0.00e+00	0	41	0	76546048	65	4612
2026-01-29 23:51:23.79	24.09	7.04	-47.1	-49.3	16.7	0.00e+00	0	41	0	78643200	65	4708
2026-01-29 23:51:24.79	24.13	7.12	-47.2	-49.3	16.8	0.00e+00	0	41	0	79691776	65	4713
2026-01-29 23:51:25.80	24.17	7.19	-46.8	-48.8	17.2	0.00e+00	0	41	0	81788928	65	4453
2026-01-29 23:51:26.80	24.21	7.27	-46.8	-48.8	17.2	0.00e+00	0	41	0	83886080	65	4480
2026-01-29 23:51:27.81	24.25	7.34	-46.8	-48.8	17.2	0.00e+00	0	41	0	85983232	65	4477
2026-01-29 23:51:28.81	24.29	7.42	-46.8	-48.8	17.2	0.00e+00	0	41	0	87031808	65	4457
2026-01-29 23:51:29.82	24.34	7.50	-46.7	-48.7	17.3	0.00e+00	0	41	0	89128960	65	4392
2026-01-29 23:51:30.83	24.38	7.57	-46.7	-48.7	17.3	0.00e+00	0	41	0	91226112	65	4396
2026-01-29 23:51:31.83	24.42	7.65	-46.9	-48.8	17.2	0.00e+00	0	41	0	93323264	65	4488
2026-01-29 23:51:32.83	24.46	7.73	-46.8	-48.8	17.3	0.00e+00	0	41	0	95420416	65	4454
2026-01-29 23:51:33.83	24.50	7.80	-46.7	-48.6	17.4	0.00e+00	0	41	0	96468992	65	4349
2026-01-29 23:51:34.84	24.54	7.88	-46.5	-48.3	17.7	0.00e+00	0	41	0	98566144	65	4230
2026-01-29 23:51:35.84	24.59	7.96	-46.2	-48.0	18.0	0.00e+00	0	41	0	100663296	64	4296
2026-01-29 23:51:36.85	24.63	8.03	-46.0	-47.7	18.3	0.00e+00	0	41	0	102760448	64	4156
2026-01-29 23:51:37.85	24.67	8.11	-46.0	-47.7	18.4	0.00e+00	0	41	0	104857600	64	4154
2026-01-29 23:51:38.86	24.71	8.19	-46.1	-47.7	18.4	0.00e+00	0	41	0	105906176	63	4427
2026-01-29 23:51:39.87	24.76	8.27	-46.0	-47.7	18.5	0.00e+00	0	41	0	108003328	63	4403
2026-01-29 23:51:40.87	24.80	8.35	-46.1	-47.8	18.4	0.00e+00	0	41	0	110100480	63	4460
2026-01-29 23:51:41.87	24.84	8.43	-45.9	-47.4	18.7	0.00e+00	0	41	0	112197632	63	4291
2026-01-29 23:51:42.88	24.89	8.51	-45.9	-47.4	18.7	0.00e+00	0	41	0	114294784	63	4290
2026-01-29 23:51:43.89	24.93	8.59	-45.8	-47.4	18.7	0.00e+00	0	41	0	115343360	63	4279
2026-01-29 23:51:44.89	24.97	8.66	-45.9	-47.5	18.7	0.00e+00	0	41	0	117440512	63	4313
2026-01-29 23:51:45.90	25.02	8.74	-45.8	-47.4	18.8	0.00e+00	0	41	0	119537664	63	4256
2026-01-29 23:51:46.91	25.06	8.82	-45.7	-47.2	19.0	0.00e+00	0	41	0	121634816	63	4175
2026-01-29 23:51:47.91	25.11	8.90	-45.6	-47.1	19.0	0.00e+00	0	41	0	123731968	63	4144
2026-01-29 23:51:48.91	25.15	8.98	-45.7	-47.3	18.9	0.00e+00	0	41	0	124780544	63	4207
2026-01-29 23:51:49.92	25.20	9.07	-45.6	-47.1	18.9	0.00e+00	0	41	0	126877696	63	4141
2026-01-29 23:51:50.93	25.24	9.15	-45.6	-47.1	19.1	0.00e+00	0	41	0	128974848	63	4104
2026-01-29 23:51:51.93	25.29	9.23	-45.4	-46.9	19.3	0.00e+00	0	41	0	131072000	62	4264
2026-01-29 23:51:52.93	25.33	9.31	-45.4	-46.9	19.3	0.00e+00	0	41	0	133169152	62	4247
2026-01-29 23:51:53.92	25.38	9.39	-45.4	-46.9	19.2	0.00e+00	0	41	0	134217728	62	4271
2026-01-29 23:51:54.93	25.42	9.47	-45.5	-47.0	19.1	0.00e+00	0	41	0	136314880	62	4320
2026-01-29 23:51:55.93	25.47	9.55	-45.5	-46.9	19.2	0.00e+00	0	41	0	138412032	62	4289
2026-01-29 23:51:56.93	25.52	9.64	-45.5	-46.9	19.3	0.00e+00	0	41	0	140509184	62	4277
2026-01-29 23:51:57.94	25.56	9.72	-45.3	-46.7	19.5	0.00e+00	0	41	0	141557760	62	4170
2026-01-29 23:51:58.95	25.61	9.80	-45.4	-46.8	19.4	0.00e+00	0	41	0	143654912	62	4215
2026-01-29 23:51:59.96	25.66	9.89	-45.3	-46.7	19.5	0.00e+00	0	41	0	145752064	62	4160
2026-01-29 23:52:00.96	25.71	9.97	-45.3	-46.7	19.5	0.00e+00	0	41	0	147849216	62	4161
2026-01-29 23:52:01.97	25.75	10.05	-45.3	-46.7	19.5	0.00e+00	0	41	0	149946368	62	4178
2026-01-29 23:52:02.97	25.80	10.14	-45.4	-46.8	19.4	0.00e+00	0	41	0	152043520	62	4237
2026-01-29 23:52:03.98	25.85	10.22	-45.2	-46.6	19.6	0.00e+00	0	41	0	153092096	62	4142
2026-01-29 23:52:04.98	25.90	10.31	-45.4	-46.8	19.4	0.00e+00	0	41	0	155189248	62	4231
2026-01-29 23:52:05.99	25.95	10.39	-45.3	-46.7	19.5	0.00e+00	0	41	0	157286400	62	4166
2026-01-29 23:52:07.00	26.00	10.48	-45.3	-46.7	19.5	0.00e+00	0	41	0	159383552	62	4185
2026-01-29 23:52:08.00	26.05	10.56	-45.3	-46.7	19.6	0.00e+00	0	41	0	161480704	62	4178
2026-01-29 23:52:09.01	26.10	10.65	-45.2	-46.6	19.6	0.00e+00	0	41	0	162529280	62	4138
2026-01-29 23:52:10.02	26.15	10.74	-45.2	-46.6	19.7	0.00e+00	0	41	0	164626432	62	4103
2026-01-29 23:52:11.03	26.20	10.82	-45.3	-46.7	19.6	0.00e+00	0	41	0	166723584	62	4156
2026-01-29 23:52:12.03	26.25	10.91	-45.1	-46.4	19.8	0.00e+00	0	41	0	168820736	62	4039
2026-01-29 23:52:13.04	26.30	11.00	-45.0	-46.4	19.8	0.00e+00	0	41	0	169869312	61	4277
2026-01-29 23:52:14.05	26.35	11.08	-45.0	-46.3	19.9	0.00e+00	0	41	0	171966464	61	4240
2026-01-29 23:52:15.06	26.40	11.17	-45.1	-46.5	19.7	0.00e+00	0	41	0	174063616	61	4309
2026-01-29 23:52:16.07	26.45	11.26	-45.0	-46.4	19.7	0.00e+00	0	41	0	176160768	61	4281
2026-01-29 23:52:17.07	26.50	11.35	-45.0	-46.4	19.9	0.00e+00	0	41	0	178257920	61	4274
2026-01-29 23:52:18.08	26.56	11.44	-45.0	-46.4	19.9	0.00e+00	0	41	0	180355072	61	4267
2026-01-29 23:52:19.09	26.61	11.53	-44.9	-46.3	20.0	0.00e+00	0	41	0	181403648	61	4215
2026-01-29 23:52:20.10	26.66	11.62	-45.0	-46.3	19.9	0.00e+00	0	41	0	183500800	61	4238
2026-01-29 23:52:21.11	26.72	11.71	-45.0	-46.4	19.9	0.00e+00	0	41	0	185597952	61	4257
2026-01-29 23:52:22.11	26.77	11.79	-45.1	-46.5	19.8	0.00e+00	0	41	0	187695104	61	4322
2026-01-29 23:52:23.12	26.82	11.89	-45.1	-46.5	19.8	0.00e+00	0	41	0	189792256	61	4298
2026-01-29 23:52:24.13	26.88	11.98	-45.1	-46.5	19.9	0.00e+00	0	41	0	190840832	61	4298
2026-01-29 23:52:25.13	26.93	12.07	-45.1	-46.5	19.8	0.00e+00	0	41	0	192937984	61	4306
2026-01-29 23:52:26.14	26.99	12.16	-45.0	-46.4	20.0	0.00e+00	0	41	0	195035136	61	4249
2026-01-29 23:52:27.15	27.04	12.25	-45.1	-46.4	19.9	0.00e+00	0	41	0	197132288	61	4283
2026-01-29 23:52:28.15	27.10	12.34	-45.0	-46.4	19.9	0.00e+00	0	41	0	198180864	61	4257
2026-01-29 23:52:29.16	27.15	12.43	-44.9	-46.3	20.1	0.00e+00	0	41	0	200278016	61	4203
2026-01-29 23:52:30.17	27.21	12.53	-45.0	-46.3	20.0	0.00e+00	0	41	0	202375168	61	4236
2026-01-29 23:52:31.17	27.26	12.62	-44.9	-46.3	20.0	0.00e+00	0	41	0	204472320	61	4205
2026-01-29 23:52:32.18	27.32	12.71	-44.9	-46.2	20.1	0.00e+00	0	41	0	206569472	61	4170
2026-01-29 23:52:33.18	27.38	12.80	-45.2	-46.6	19.7	0.00e+00	0	41	0	208666624	61	4377
2026-01-29 23:52:34.19	27.43	12.90	-45.1	-46.5	19.9	0.00e+00	0	41	0	209715200	61	4303
2026-01-29 23:52:35.20	27.49	12.99	-44.9	-46.3	20.1	0.00e+00	0	41	0	211812352	61	4206
2026-01-29 23:52:36.21	27.55	13.09	-45.0	-46.3	20.0	0.00e+00	0	41	0	213909504	61	4218
2026-01-29 23:52:37.21	27.61	13.18	-44.9	-46.2	20.1	0.00e+00	0	41	0	216006656	61	4177
2026-01-29 23:52:38.22	27.67	13.28	-44.7	-46.0	20.3	0.00e+00	0	41	0	218103808	61	4068
2026-01-29 23:52:39.23	27.73	13.37	-44.7	-46.0	20.3	0.00e+00	0	41	0	219152384	61	4087
2026-01-29 23:52:40.24	27.78	13.47	-44.7	-46.0	20.4	0.00e+00	0	41	0	221249536	61	4063
2026-01-29 23:52:41.24	27.84	13.56	-44.7	-46.0	20.3	0.00e+00	0	41	0	223346688	61	4080
2026-01-29 23:52:42.24	27.90	13.66	-44.7	-46.0	20.4	0.00e+00	0	41	0	225443840	61	4070
2026-01-29 23:52:43.25	27.96	13.76	-44.6	-45.9	20.4	0.00e+00	0	41	0	226492416	61	4036
2026-01-29 23:52:44.26	28.02	13.85	-44.6	-45.9	20.5	0.00e+00	0	41	0	228589568	61	4005
2026-01-29 23:52:45.27	28.09	13.95	-44.6	-45.9	20.4	0.00e+00	0	41	0	230686720	61	4041
2026-01-29 23:52:46.27	28.15	14.05	-44.5	-45.7	20.6	0.00e+00	0	41	0	232783872	60	4168
2026-01-29 23:52:47.28	28.21	14.15	-44.5	-45.7	20.6	0.00e+00	0	41	0	234881024	60	4176
2026-01-29 23:52:48.29	28.27	14.25	-44.4	-45.7	20.7	0.00e+00	0	41	0	236978176	60	4161
2026-01-29 23:52:49.30	28.33	14.35	-44.2	-45.5	20.9	0.00e+00	0	41	0	238026752	60	4053
2026-01-29 23:52:50.31	28.40	14.45	-44.5	-45.7	20.6	0.00e+00	0	41	0	240123904	60	4182
2026-01-29 23:52:51.31	28.46	14.55	-44.3	-45.5	20.8	0.00e+00	0	41	0	242221056	60	4077
2026-01-29 23:52:52.31	28.52	14.65	-44.4	-45.6	20.7	0.00e+00	0	41	0	244318208	60	4124
2026-01-29 23:52:53.32	28.59	14.75	-44.3	-45.5	20.9	0.00e+00	0	41	0	246415360	60	4053
2026-01-29 23:52:54.33	28.65	14.85	-44.4	-45.6	20.8	0.00e+00	0	41	0	247463936	60	4130
2026-01-29 23:52:55.34	28.72	14.95	-44.5	-45.7	20.7	0.00e+00	0	41	0	249561088	60	4167
2026-01-29 23:52:56.35	28.78	15.05	-44.3	-45.6	20.8	0.00e+00	0	41	0	251658240	60	4105
2026-01-29 23:52:57.35	28.85	15.15	-44.2	-45.3	21.0	0.00e+00	0	41	0	253755392	60	4000
2026-01-29 23:52:58.36	28.91	15.26	-44.1	-45.3	21.1	0.00e+00	0	41	0	254803968	60	3959
2026-01-29 23:52:59.36	28.98	15.36	-44.1	-45.3	21.1	0.00e+00	0	41	0	256901120	60	3959
2026-01-29 23:53:00.37	29.05	15.46	-44.4	-45.6	21.1	0.00e+00	0	41	0	258998272	59	4352
2026-01-29 23:53:01.37	29.12	15.56	-44.4	-45.7	21.0	0.00e+00	0	41	0	261095424	59	4395
2026-01-29 23:53:02.38	29.18	15.67	-44.2	-45.4	21.3	0.00e+00	0	41	0	263192576	59	4265
2026-01-29 23:53:03.39	29.25	15.77	-44.2	-45.3	21.3	0.00e+00	0	41	0	265289728	59	4231
2026-01-29 23:53:04.40	29.32	15.88	-44.1	-45.3	21.4	0.00e+00	0	41	0	266338304	59	4198
2026-01-29 23:53:05.41	29.39	15.99	-43.9	-45.1	21.5	0.00e+00	0	41	0	268435456	59	4107
2026-01-29 23:53:06.41	29.46	16.09	-44.0	-45.2	21.5	0.00e+00	0	41	0	270532608	59	4150
2026-01-29 23:53:07.42	29.53	16.20	-44.1	-45.2	21.3	0.00e+00	0	41	0	272629760	59	4183
2026-01-29 23:53:08.43	29.60	16.30	-44.1	-45.3	21.4	0.00e+00	0	41	0	274726912	59	4200
2026-01-29 23:53:09.43	29.67	16.41	-44.0	-45.1	21.6	0.00e+00	0	41	0	275775488	59	4123
2026-01-29 23:53:10.44	29.74	16.52	-43.8	-44.9	21.8	0.00e+00	0	41	0	277872640	59	4011
2026-01-29 23:53:11.45	29.82	16.63	-43.8	-44.9	21.7	0.00e+00	0	41	0	279969792	59	4050
2026-01-29 23:53:12.46	29.89	16.74	-43.7	-44.8	21.8	0.00e+00	0	41	0	282066944	59	3988
2026-01-29 23:53:13.47	29.96	16.84	-43.9	-45.1	21.6	0.00e+00	0	41	0	283115520	59	4102
2026-01-29 23:53:14.47	30.04	16.95	-44.0	-45.1	21.6	0.00e+00	0	41	0	285212672	59	4119
2026-01-29 23:53:15.48	30.11	17.06	-43.9	-45.0	21.6	0.00e+00	0	41	0	287309824	59	4090
2026-01-29 23:53:16.49	30.18	17.17	-44.0	-45.1	21.5	0.00e+00	0	41	0	289406976	59	4129
2026-01-29 23:53:17.50	30.26	17.29	-44.1	-45.3	21.5	0.00e+00	0	41	0	291504128	59	4206
2026-01-29 23:53:18.51	30.34	17.40	-44.2	-45.4	21.3	0.00e+00	0	41	0	293601280	59	4271
2026-01-29 23:53:19.51	30.41	17.51	-44.2	-45.4	21.3	0.00e+00	0	41	0	294649856	59	4279
2026-01-29 23:53:20.52	30.49	17.62	-44.1	-45.2	21.4	0.00e+00	0	41	0	296747008	59	4175
2026-01-29 23:53:21.53	30.57	17.73	-44.3	-45.5	21.2	0.00e+00	0	41	0	298844160	59	4338
2026-01-29 23:53:22.53	30.64	17.85	-44.2	-45.4	21.4	0.00e+00	0	41	0	300941312	59	4248
2026-01-29 23:53:23.54	30.72	17.96	-44.1	-45.3	21.4	0.00e+00	0	41	0	303038464	59	4220
2026-01-29 23:53:24.55	30.80	18.07	-44.1	-45.3	21.5	0.00e+00	0	41	0	304087040	59	4204
2026-01-29 23:53:25.55	30.88	18.19	-44.1	-45.3	21.5	0.00e+00	0	41	0	306184192	59	4203
2026-01-29 23:53:26.56	30.96	18.30	-43.9	-45.1	21.6	0.00e+00	0	41	0	308281344	59	4107
2026-01-29 23:53:27.57	31.04	18.42	-43.9	-45.0	21.7	0.00e+00	0	41	0	310378496	59	4074
2026-01-29 23:53:28.58	31.12	18.54	-43.8	-44.9	21.8	0.00e+00	0	41	0	312475648	59	4013
2026-01-29 23:53:29.59	31.20	18.65	-43.7	-44.8	21.9	0.00e+00	0	41	0	313524224	59	3965
2026-01-29 23:53:30.59	31.28	18.77	-43.8	-44.9	21.8	0.00e+00	0	41	0	315621376	59	4012
2026-01-29 23:53:31.59	31.37	18.89	-43.6	-44.7	22.0	0.00e+00	0	41	0	317718528	59	3938
2026-01-29 23:53:32.60	31.45	19.00	-43.8	-44.9	21.7	0.00e+00	0	41	0	319815680	59	4042
2026-01-29 23:53:33.60	31.53	19.12	-43.7	-44.8	21.9	0.00e+00	0	41	0	321912832	59	3969
2026-01-29 23:53:34.61	31.62	19.24	-43.7	-44.8	21.9	0.00e+00	0	41	0	322961408	59	3981
2026-01-29 23:53:35.62	31.71	19.36	-43.8	-44.9	21.8	0.00e+00	0	41	0	325058560	59	4005
2026-01-29 23:53:36.63	31.79	19.48	-43.9	-45.0	21.8	0.00e+00	0	41	0	327155712	59	4063
2026-01-29 23:53:37.64	31.88	19.60	-43.6	-44.6	22.0	0.00e+00	0	41	0	329252864	59	3905
2026-01-29 23:53:38.65	31.97	19.72	-43.7	-44.8	21.9	0.00e+00	0	41	0	331350016	59	3986
2026-01-29 23:53:39.66	32.05	19.85	-43.6	-44.7	22.0	0.00e+00	0	41	0	332398592	59	3951
2026-01-29 23:53:40.67	32.14	19.97	-43.7	-44.8	22.0	0.00e+00	0	41	0	334495744	59	3970
2026-01-29 23:53:41.68	32.23	20.09	-43.7	-44.8	21.9	0.00e+00	0	41	0	336592896	58	4201
2026-01-29 23:53:42.69	32.32	20.21	-43.7	-44.7	21.9	0.00e+00	0	41	0	338690048	58	4190
2026-01-29 23:53:43.69	32.41	20.34	-43.7	-44.8	22.0	0.00e+00	0	41	0	340787200	58	4204
2026-01-29 23:53:44.70	32.50	20.46	-43.6	-44.7	22.0	0.00e+00	0	41	0	341835776	58	4180
2026-01-29 23:53:45.71	32.60	20.59	-43.6	-44.7	22.0	0.00e+00	0	41	0	343932928	58	4166
2026-01-29 23:53:46.72	32.69	20.71	-43.6	-44.7	22.0	0.00e+00	0	41	0	346030080	58	4181
2026-01-29 23:53:47.72	32.78	20.84	-43.8	-44.9	21.8	0.00e+00	0	41	0	348127232	58	4266
2026-01-29 23:53:48.73	32.88	20.97	-43.7	-44.8	21.9	0.00e+00	0	41	0	350224384	58	4224
2026-01-29 23:53:49.74	32.97	21.09	-43.8	-44.9	21.8	0.00e+00	0	41	0	351272960	58	4258
2026-01-29 23:53:50.74	33.07	21.22	-43.7	-44.8	21.9	0.00e+00	0	41	0	353370112	58	4218
2026-01-29 23:53:51.75	33.16	21.35	-43.7	-44.8	22.0	0.00e+00	0	41	0	355467264	58	4195
2026-01-29 23:53:52.76	33.26	21.48	-43.5	-44.6	22.1	0.00e+00	0	42	0	357564416	58	4119
2026-01-29 23:53:53.77	33.36	21.61	-43.5	-44.5	22.2	0.00e+00	0	41	0	359661568	58	4089
2026-01-29 23:53:54.77	33.46	21.74	-43.4	-44.5	22.3	0.00e+00	0	41	0	361758720	58	4064
2026-01-29 23:53:55.78	33.56	21.87	-43.1	-44.1	22.5	0.00e+00	0	41	0	362807296	58	3903
2026-01-29 23:53:56.79	33.66	22.00	-43.1	-44.1	22.5	0.00e+00	0	41	0	364904448	58	3896
2026-01-29 23:53:57.79	33.76	22.13	-43.2	-44.2	22.5	0.00e+00	0	41	0	367001600	58	3927
2026-01-29 23:53:58.80	33.86	22.26	-43.0	-44.0	22.6	0.00e+00	0	41	0	369098752	58	3835
2026-01-29 23:53:59.81	33.97	22.40	-43.2	-44.2	22.5	0.00e+00	0	41	0	370147328	58	3924
2026-01-29 23:54:00.82	34.07	22.53	-43.1	-44.1	22.5	0.00e+00	0	41	0	372244480	57	4129
2026-01-29 23:54:01.82	34.17	22.66	-43.0	-44.1	22.6	0.00e+00	0	41	0	374341632	57	4100
2026-01-29 23:54:02.83	34.28	22.80	-43.1	-44.2	22.5	0.00e+00	0	41	0	376438784	57	4150
2026-01-29 23:54:03.83	34.38	22.93	-43.1	-44.2	22.5	0.00e+00	0	41	0	378535936	57	4151
2026-01-29 23:54:04.83	34.49	23.07	-43.2	-44.2	22.4	0.00e+00	0	41	0	379584512	57	4191
2026-01-29 23:54:05.84	34.60	23.21	-43.1	-44.1	22.5	0.00e+00	0	41	0	381681664	57	4139
2026-01-29 23:54:06.84	34.71	23.34	-43.1	-44.1	22.6	0.00e+00	0	41	0	383778816	57	4116
2026-01-29 23:54:07.85	34.82	23.48	-43.3	-44.3	22.4	0.00e+00	0	41	0	385875968	57	4216
2026-01-29 23:54:08.85	34.93	23.62	-43.1	-44.1	22.6	0.00e+00	0	42	0	387973120	57	4116
2026-01-29 23:54:09.86	35.04	23.76	-42.9	-43.9	22.7	0.00e+00	0	41	0	389021696	57	4043
2026-01-29 23:54:10.87	35.15	23.90	-43.2	-44.2	22.5	0.00e+00	0	41	0	391118848	57	4170
2026-01-29 23:54:11.87	35.27	24.04	-43.2	-44.2	22.5	0.00e+00	0	41	0	393216000	57	4172
2026-01-29 23:54:12.88	35.38	24.18	-43.3	-44.4	22.3	0.00e+00	0	41	0	395313152	57	4258
2026-01-29 23:54:13.88	35.50	24.32	-43.5	-44.5	22.2	0.00e+00	0	41	0	397410304	57	4321
2026-01-29 23:54:14.89	35.61	24.46	-43.6	-44.7	22.1	0.00e+00	0	41	0	398458880	58	4177
2026-01-29 23:54:15.90	35.73	24.61	-43.7	-44.8	22.1	0.00e+00	0	41	0	400556032	58	4195
2026-01-29 23:54:16.91	35.85	24.75	-43.9	-45.1	21.8	0.00e+00	0	41	0	402653184	58	4343
2026-01-29 23:54:17.92	35.97	24.90	-44.0	-45.1	21.8	0.00e+00	0	41	0	404750336	58	4348
2026-01-29 23:54:18.92	36.09	25.04	-44.1	-45.3	21.6	0.00e+00	0	41	0	406847488	58	4452
2026-01-29 23:54:19.93	36.21	25.19	-43.9	-45.0	21.8	0.00e+00	0	41	0	407896064	59	4069
2026-01-29 23:54:20.93	36.34	25.33	-44.2	-45.4	21.5	0.00e+00	0	41	0	409993216	59	4247
2026-01-29 23:54:21.94	36.46	25.48	-44.4	-45.6	21.3	0.00e+00	0	41	0	412090368	59	4363
2026-01-29 23:54:22.95	36.59	25.63	-44.5	-45.7	21.3	0.00e+00	0	41	0	414187520	59	4393
2026-01-29 23:54:23.95	36.71	25.78	-44.2	-45.4	21.6	0.00e+00	0	41	0	416284672	59	4252
2026-01-29 23:54:24.96	36.84	25.93	-44.4	-45.6	21.4	0.00e+00	0	41	0	417333248	59	4370
2026-01-29 23:54:25.96	36.97	26.08	-44.6	-45.8	21.2	0.00e+00	0	41	0	419430400	59	4467
2026-01-29 23:54:26.97	37.10	26.23	-44.3	-45.5	21.4	0.00e+00	0	41	0	421527552	59	4314
2026-01-29 23:54:27.98	37.23	26.38	-44.6	-45.8	21.2	0.00e+00	0	41	0	423624704	59	4475
2026-01-29 23:54:28.99	37.36	26.53	-44.4	-45.6	21.3	0.00e+00	0	41	0	425721856	59	4365
2026-01-29 23:54:30.00	37.50	26.69	-44.4	-45.5	21.4	0.00e+00	0	41	0	426770432	59	4332
2026-01-29 23:54:31.01	37.63	26.84	-44.4	-45.6	21.3	0.00e+00	0	41	0	428867584	59	4366
2026-01-29 23:54:32.01	37.77	26.99	-44.6	-45.7	21.3	0.00e+00	0	41	0	430964736	59	4435
2026-01-29 23:54:33.02	37.90	27.15	-44.4	-45.6	21.1	0.00e+00	0	41	0	433061888	60	4118
2026-01-29 23:54:34.03	38.04	27.30	-44.2	-45.3	21.4	0.00e+00	0	41	0	435159040	60	3980
2026-01-29 23:54:35.03	38.18	27.46	-44.1	-45.3	21.4	0.00e+00	0	41	0	436207616	60	3969
2026-01-29 23:54:36.04	38.32	27.62	-44.1	-45.3	21.4	0.00e+00	0	41	0	438304768	60	3963
2026-01-29 23:54:37.05	38.47	27.78	-44.5	-45.7	21.1	0.00e+00	0	41	0	440401920	60	4149
2026-01-29 23:54:38.05	38.61	27.93	-44.5	-45.7	21.0	0.00e+00	0	41	0	442499072	60	4176
2026-01-29 23:54:39.06	38.76	28.09	-44.4	-45.6	21.1	0.00e+00	0	42	0	444596224	60	4116
2026-01-29 23:54:40.07	38.90	28.25	-44.3	-45.5	21.2	0.00e+00	0	41	0	445644800	60	4076
2026-01-29 23:54:41.07	39.05	28.41	-44.4	-45.6	21.1	0.00e+00	0	41	0	447741952	60	4130
2026-01-29 23:54:42.08	39.20	28.58	-44.7	-45.9	20.8	0.00e+00	0	41	0	449839104	60	4262
2026-01-29 23:54:43.09	39.35	28.74	-44.9	-46.2	20.5	0.00e+00	0	41	0	451936256	60	4424
2026-01-29 23:54:44.09	39.50	28.90	-45.3	-46.6	20.3	0.00e+00	0	41	0	454033408	61	4353
2026-01-29 23:54:45.10	39.66	29.06	-45.3	-46.6	20.2	0.00e+00	0	41	0	455081984	61	4385
2026-01-29 23:54:46.10	39.81	29.23	-45.6	-46.9	20.0	0.00e+00	0	41	0	457179136	61	4527
2026-01-29 23:54:47.11	39.97	29.39	-46.0	-47.5	19.5	0.00e+00	0	41	0	459276288	63	4327
2026-01-29 23:54:48.12	40.13	29.56	-46.4	-47.9	19.1	0.00e+00	0	41	0	461373440	63	4533
2026-01-29 23:54:49.13	40.29	29.73	-46.4	-48.0	19.0	0.00e+00	0	41	0	463470592	63	4573
2026-01-29 23:54:50.13	40.45	29.89	-46.4	-48.0	19.0	0.00e+00	0	41	0	464519168	63	4552
2026-01-29 23:54:51.14	40.62	30.06	-46.5	-48.0	18.9	0.00e+00	0	41	0	466616320	63	4578
2026-01-29 23:54:52.14	40.78	30.23	-46.6	-48.2	18.8	0.00e+00	0	41	0	468713472	63	4660
2026-01-29 23:54:53.15	40.95	30.40	-46.6	-48.2	18.8	0.00e+00	0	41	0	470810624	63	4690
2026-01-29 23:54:54.16	41.12	30.57	-46.6	-48.1	18.8	0.00e+00	0	41	0	472907776	64	4380
2026-01-29 23:54:55.17	41.29	30.74	-46.9	-48.5	18.4	0.00e+00	0	41	0	473956352	64	4591
2026-01-29 23:54:56.17	41.46	30.91	-46.8	-48.5	18.4	0.00e+00	0	41	0	476053504	64	4564
2026-01-29 23:54:57.18	41.63	31.09	-46.7	-48.4	18.6	0.00e+00	0	41	0	478150656	64	4496
2026-01-29 23:54:58.19	41.81	31.26	-46.8	-48.4	18.6	0.00e+00	0	41	0	480247808	64	4539
2026-01-29 23:54:59.20	41.99	31.44	-46.8	-48.5	18.5	0.00e+00	0	41	0	482344960	64	4550
2026-01-29 23:55:00.20	42.17	31.61	-46.6	-48.2	18.8	0.00e+00	0	41	0	483393536	64	4404
2026-01-29 23:55:01.21	42.35	31.79	-46.7	-48.3	18.6	0.00e+00	0	41	0	485490688	64	4453
2026-01-29 23:55:02.22	42.53	31.96	-46.7	-48.4	18.6	0.00e+00	0	41	0	487587840	64	4528
2026-01-29 23:55:03.23	42.72	32.14	-46.6	-48.3	18.7	0.00e+00	0	41	0	489684992	64	4463
2026-01-29 23:55:04.24	42.91	32.32	-46.5	-48.1	18.9	0.00e+00	0	41	0	491782144	64	4377
2026-01-29 23:55:05.25	43.10	32.50	-46.9	-48.7	18.4	0.00e+00	0	41	0	492830720	64	4661
2026-01-29 23:55:06.26	43.29	32.68	-46.9	-48.6	18.4	0.00e+00	0	41	0	494927872	64	4641
2026-01-29 23:55:07.26	43.48	32.86	-47.1	-48.9	18.2	0.00e+00	0	41	0	497025024	64	4768
2026-01-29 23:55:08.27	43.68	33.04	-47.0	-48.8	18.2	0.00e+00	0	41	0	499122176	64	4726
2026-01-29 23:55:09.27	43.88	33.22	-46.8	-48.5	18.6	0.00e+00	0	41	0	501219328	65	4303
2026-01-29 23:55:10.28	44.08	33.40	-46.5	-48.1	18.9	0.00e+00	0	41	0	503316480	64	4344
2026-01-29 23:55:11.29	44.28	33.59	-46.0	-47.5	19.6	0.00e+00	0	41	0	504365056	63	4306
2026-01-29 23:55:12.29	44.48	33.77	-45.5	-46.9	20.1	0.00e+00	0	41	0	506462208	63	4016
2026-01-29 23:55:13.30	44.69	33.95	-45.1	-46.4	20.5	0.00e+00	0	42	0	508559360	62	4016
2026-01-29 23:55:14.31	44.90	34.14	-45.4	-46.7	20.2	0.00e+00	0	41	0	510656512	62	4188
2026-01-29 23:55:15.31	45.11	34.32	-45.3	-46.6	20.4	0.00e+00	0	41	0	511705088	62	4118
2026-01-29 23:55:16.32	45.32	34.51	-45.8	-47.2	19.9	0.00e+00	0	41	0	513802240	62	4392
2026-01-29 23:55:17.33	45.54	34.70	-45.9	-47.3	19.8	0.00e+00	0	41	0	515899392	62	4468
2026-01-29 23:55:18.33	45.76	34.89	-45.9	-47.3	19.7	0.00e+00	0	41	0	517996544	62	4471
2026-01-29 23:55:19.34	45.98	35.08	-46.1	-47.5	19.6	0.00e+00	0	41	0	520093696	63	4335
2026-01-29 23:55:20.35	46.20	35.27	-45.9	-47.3	19.8	0.00e+00	0	41	0	521142272	63	4227
2026-01-29 23:55:21.36	46.43	35.46	-46.2	-47.7	19.4	0.00e+00	0	41	0	523239424	63	4422
2026-01-29 23:55:22.36	46.66	35.65	-45.7	-47.1	20.0	0.00e+00	0	41	0	525336576	63	4119
2026-01-29 23:55:23.37	46.89	35.84	-45.7	-47.1	20.0	0.00e+00	0	41	0	527433728	63	4104
2026-01-29 23:55:24.37	47.12	36.03	-45.6	-47.0	20.1	0.00e+00	0	41	0	529530880	62	4295
2026-01-29 23:55:25.38	47.36	36.22	-45.3	-46.6	20.4	0.00e+00	0	41	0	531628032	62	4118
2026-01-29 23:55:26.38	47.60	36.41	-45.0	-46.2	20.7	0.00e+00	0	41	0	532676608	61	4169
2026-01-29 23:55:27.39	47.84	36.61	-44.7	-45.9	21.0	0.00e+00	0	41	0	534773760	61	4024
2026-01-29 23:55:28.39	48.08	36.80	-44.9	-46.0	20.9	0.00e+00	0	41	0	536870912	61	4093
2026-01-29 23:55:29.40	48.33	37.00	-44.4	-45.5	21.3	0.00e+00	0	41	0	538968064	60	4094
2026-01-29 23:55:30.41	48.58	37.19	-44.4	-45.5	21.3	0.00e+00	0	41	0	540016640	60	4097
2026-01-29 23:55:31.42	48.84	37.39	-44.5	-45.7	21.2	0.00e+00	0	41	0	542113792	60	4146
2026-01-29 23:55:32.42	49.09	37.58	-44.3	-45.4	21.5	0.00e+00	0	41	0	544210944	60	4017
2026-01-29 23:55:33.43	49.36	37.78	-44.4	-45.6	21.6	0.00e+00	0	41	0	546308096	59	4347
2026-01-29 23:55:34.44	49.62	37.98	-44.4	-45.5	21.6	0.00e+00	0	41	0	548405248	59	4332
2026-01-29 23:55:35.45	49.89	38.18	-44.3	-45.5	21.7	0.00e+00	0	41	0	549453824	59	4292
2026-01-29 23:55:36.45	50.15	38.38	-44.2	-45.3	21.9	0.00e+00	0	41	0	551550976	59	4199
2026-01-29 23:55:37.46	50.43	38.58	-44.2	-45.3	21.8	0.00e+00	0	41	0	553648128	59	4231
2026-01-29 23:55:38.47	50.71	38.78	-44.0	-45.1	22.1	0.00e+00	0	41	0	555745280	59	4122
2026-01-29 23:55:39.47	50.98	38.98	-43.9	-44.9	22.1	0.00e+00	0	41	0	557842432	59	4030
2026-01-29 23:55:40.48	51.27	39.18	-43.7	-44.8	22.3	0.00e+00	0	41	0	559939584	59	3984
2026-01-29 23:55:41.49	51.55	39.38	-43.4	-44.4	22.7	0.00e+00	0	41	0	560988160	58	4019
2026-01-29 23:55:42.50	51.85	39.58	-43.1	-44.0	22.9	0.00e+00	0	41	0	563085312	57	4089
2026-01-29 23:55:43.51	52.14	39.78	-43.0	-43.9	23.0	0.00e+00	0	41	0	565182464	57	4049
2026-01-29 23:55:44.51	52.43	39.98	-42.9	-43.9	23.1	0.00e+00	0	41	0	567279616	57	4005
2026-01-29 23:55:45.52	52.74	40.19	-43.5	-44.5	22.5	0.00e+00	0	41	0	568328192	57	4317
2026-01-29 23:55:46.53	53.04	40.39	-43.8	-44.9	22.2	0.00e+00	0	41	0	570425344	58	4249
2026-01-29 23:55:47.54	53.35	40.59	-44.3	-45.4	21.8	0.00e+00	0	41	0	572522496	59	4259
2026-01-29 23:55:48.55	53.66	40.80	-44.3	-45.4	21.7	0.00e+00	0	41	0	574619648	59	4289
2026-01-29 23:55:49.56	53.98	41.00	-44.2	-45.3	21.8	0.00e+00	0	41	0	576716800	59	4215
2026-01-29 23:55:50.56	54.30	41.20	-44.3	-45.5	21.7	0.00e+00	0	41	0	577765376	59	4297
2026-01-29 23:55:51.57	54.62	41.41	-44.7	-45.9	21.4	0.00e+00	0	41	0	579862528	59	4494
2026-01-29 23:55:52.58	54.95	41.61	-44.4	-45.5	21.4	0.00e+00	0	41	0	581959680	60	4061
2026-01-29 23:55:53.59	55.29	41.82	-44.4	-45.6	21.3	0.00e+00	0	41	0	584056832	60	4110
2026-01-29 23:55:54.59	55.62	42.02	-44.2	-45.3	21.7	0.00e+00	0	41	0	586153984	60	3962
2026-01-29 23:55:55.60	55.96	42.22	-44.2	-45.3	21.8	0.00e+00	0	41	0	588251136	59	4228
2026-01-29 23:55:56.61	56.31	42.43	-44.3	-45.4	21.8	0.00e+00	0	41	0	589299712	59	4289
2026-01-29 23:55:57.60	56.65	42.63	-44.0	-45.0	22.1	0.00e+00	0	41	0	591396864	59	4082
2026-01-29 23:55:58.61	57.00	42.83	-44.0	-45.0	22.1	0.00e+00	0	41	0	593494016	59	4083
2026-01-29 23:55:59.62	57.36	43.04	-44.2	-45.3	21.8	0.00e+00	0	41	0	595591168	59	4196
2026-01-29 23:56:00.63	57.73	43.24	-44.6	-45.8	21.5	0.00e+00	0	41	0	596639744	59	4449
2026-01-29 23:56:01.64	58.10	43.45	-44.8	-46.0	21.0	0.00e+00	0	41	0	598736896	60	4309
2026-01-29 23:56:02.65	58.47	43.65	-45.4	-46.7	20.3	0.00e+00	0	41	0	600834048	61	4430
2026-01-29 23:56:03.64	58.84	43.85	-46.0	-47.4	19.8	0.00e+00	0	41	0	602931200	62	4508
2026-01-29 23:56:04.65	59.22	44.06	-45.7	-47.0	20.1	0.00e+00	0	41	0	605028352	62	4327
2026-01-29 23:56:05.67	59.61	44.26	-45.2	-46.4	20.6	0.00e+00	0	41	0	606076928	62	4048
2026-01-29 23:56:06.67	60.00	44.46	-44.8	-46.0	21.0	0.00e+00	0	41	0	608174080	61	4067
2026-01-29 23:56:07.68	60.40	44.66	-44.6	-45.7	21.2	0.00e+00	0	41	0	610271232	60	4158
2026-01-29 23:56:08.69	60.80	44.87	-44.6	-45.7	21.2	0.00e+00	0	41	0	612368384	60	4166
2026-01-29 23:56:09.70	61.21	45.07	-45.1	-46.3	20.8	0.00e+00	0	41	0	614465536	60	4467
2026-01-29 23:56:10.71	61.62	45.27	-45.6	-46.9	20.2	0.00e+00	0	41	0	616562688	61	4507
2026-01-29 23:56:11.72	62.04	45.47	-46.2	-47.6	19.6	0.00e+00	0	41	0	617611264	62	4645
2026-01-29 23:56:12.72	62.45	45.67	-46.7	-48.2	18.9	0.00e+00	0	41	0	619708416	64	4435
2026-01-29 23:56:13.73	62.88	45.87	-46.4	-47.9	19.2	0.00e+00	0	41	0	621805568	64	4248
2026-01-29 23:56:14.74	63.32	46.06	-46.3	-47.7	19.5	0.00e+00	0	41	0	623902720	63	4433
2026-01-29 23:56:15.74	63.75	46.26	-45.9	-47.3	19.9	0.00e+00	0	41	0	624951296	63	4195
2026-01-29 23:56:16.75	64.19	46.46	-45.9	-47.3	20.0	0.00e+00	0	41	0	627048448	63	4216
2026-01-29 23:56:17.76	64.64	46.65	-46.4	-47.9	19.3	0.00e+00	0	41	0	629145600	63	4516
2026-01-29 23:56:18.77	65.10	46.85	-46.6	-48.1	19.1	0.00e+00	0	41	0	631242752	63	4642
2026-01-29 23:56:19.77	65.56	47.04	-46.1	-47.6	19.6	0.00e+00	0	41	0	633339904	63	4344
2026-01-29 23:56:20.78	66.02	47.23	-46.1	-47.6	19.7	0.00e+00	0	41	0	635437056	63	4341
2026-01-29 23:56:21.79	66.49	47.42	-45.5	-46.8	20.4	0.00e+00	0	41	0	636485632	62	4218
2026-01-29 23:56:22.79	66.97	47.61	-45.4	-46.6	20.5	0.00e+00	0	42	0	638582784	62	4136
2026-01-29 23:56:23.80	67.45	47.80	-45.4	-46.6	20.5	0.00e+00	0	41	0	640679936	62	4141
2026-01-29 23:56:24.81	67.94	47.99	-45.8	-47.1	20.0	0.00e+00	0	41	0	642777088	62	4374
2026-01-29 23:56:25.81	68.43	48.17	-45.9	-47.3	19.8	0.00e+00	0	41	0	644874240	62	4472
2026-01-29 23:56:26.82	68.93	48.35	-45.9	-47.2	20.0	0.00e+00	0	41	0	645922816	62	4424
2026-01-29 23:56:27.82	69.43	48.54	-45.4	-46.6	20.4	0.00e+00	0	41	0	648019968	62	4139
2026-01-29 23:56:28.83	69.95	48.72	-44.8	-46.0	21.1	0.00e+00	0	41	0	650117120	61	4056
2026-01-29 23:56:29.83	70.46	48.90	-44.2	-45.2	21.7	0.00e+00	0	41	0	652214272	60	3952
2026-01-29 23:56:30.84	70.99	49.07	-44.2	-45.3	21.6	0.00e+00	0	41	0	653262848	60	3979
2026-01-29 23:56:31.84	71.51	49.25	-44.7	-45.9	21.2	0.00e+00	0	41	0	655360000	60	4259
2026-01-29 23:56:32.85	72.05	49.42	-45.2	-46.5	20.6	0.00e+00	0	41	0	657457152	61	4304
2026-01-29 23:56:33.86	72.59	49.59	-45.7	-47.1	20.2	0.00e+00	0	41	0	659554304	61	4600
2026-01-29 23:56:34.87	73.14	49.76	-45.6	-46.9	20.3	0.00e+00	0	41	0	661651456	62	4284
2026-01-29 23:56:35.87	73.69	49.93	-45.5	-46.8	20.4	0.00e+00	0	41	0	663748608	62	4214
2026-01-29 23:56:36.88	74.25	50.10	-45.6	-46.9	20.2	0.00e+00	0	41	0	664797184	62	4271
2026-01-29 23:56:37.88	74.82	50.26	-45.4	-46.7	20.4	0.00e+00	0	41	0	666894336	62	4193
2026-01-29 23:56:38.89	75.39	50.42	-45.2	-46.4	20.7	0.00e+00	0	41	0	668991488	62	4043
2026-01-29 23:56:39.90	75.97	50.58	-44.9	-46.1	21.0	0.00e+00	0	41	0	671088640	61	4114
2026-01-29 23:56:40.91	76.55	50.73	-45.0	-46.2	20.8	0.00e+00	0	41	0	673185792	61	4164
2026-01-29 23:56:41.92	77.15	50.89	-45.2	-46.5	20.6	0.00e+00	0	41	0	674234368	61	4298
2026-01-29 23:56:42.92	77.74	51.04	-45.3	-46.6	20.6	0.00e+00	0	41	0	676331520	61	4356
2026-01-29 23:56:43.94	78.35	51.19	-45.6	-47.0	20.2	0.00e+00	0	41	0	678428672	61	4553
2026-01-29 23:56:44.94	78.95	51.33	-45.9	-47.3	19.9	0.00e+00	0	42	0	680525824	62	4455
2026-01-29 23:56:45.95	79.57	51.47	-45.7	-47.0	20.2	0.00e+00	0	41	0	681574400	62	4302
2026-01-29 23:56:46.95	80.18	51.61	-45.2	-46.5	20.7	0.00e+00	0	42	0	683671552	62	4055
2026-01-29 23:56:47.96	80.81	51.75	-44.7	-45.8	21.2	0.00e+00	0	41	0	685768704	61	3993
2026-01-29 23:56:48.97	81.44	51.88	-45.4	-46.7	20.5	0.00e+00	0	41	0	687865856	61	4420
2026-01-29 23:56:49.97	82.07	52.01	-45.7	-47.1	20.1	0.00e+00	0	41	0	689963008	62	4360
2026-01-29 23:56:50.98	82.72	52.14	-45.6	-46.9	20.3	0.00e+00	0	41	0	692060160	62	4261
2026-01-29 23:56:51.99	83.36	52.26	-45.0	-46.2	21.0	0.00e+00	0	41	0	693108736	61	4164
2026-01-29 23:56:53.00	84.02	52.38	-44.6	-45.8	21.3	0.00e+00	0	41	0	695205888	61	3967
2026-01-29 23:56:54.01	84.68	52.50	-44.2	-45.3	21.7	0.00e+00	0	41	0	697303040	60	3999
2026-01-29 23:56:55.01	85.34	52.61	-43.7	-44.7	22.4	0.00e+00	0	41	0	699400192	59	3945
2026-01-29 23:56:56.02	86.01	52.72	-43.3	-44.2	22.9	0.00e+00	0	41	0	701497344	58	3946
2026-01-29 23:56:57.03	86.68	52.82	-44.0	-45.1	22.2	0.00e+00	0	41	0	702545920	58	4357
2026-01-29 23:56:58.03	87.35	52.93	-44.4	-45.6	21.4	0.00e+00	0	41	0	704643072	60	4103
2026-01-29 23:56:59.04	88.04	53.02	-44.5	-45.6	21.4	0.00e+00	0	41	0	706740224	60	4113
2026-01-29 23:57:00.05	88.73	53.12	-44.3	-45.3	21.7	0.00e+00	0	41	0	708837376	60	3995
2026-01-29 23:57:01.05	89.41	53.21	-45.1	-46.3	20.9	0.00e+00	0	41	0	709885952	60	4455
2026-01-29 23:57:02.05	90.10	53.29	-46.0	-47.4	19.9	0.00e+00	0	41	0	711983104	62	4527
2026-01-29 23:57:03.05	90.80	53.37	-46.0	-47.4	19.9	0.00e+00	0	41	0	714080256	63	4243
2026-01-29 23:57:04.06	91.50	53.45	-45.3	-46.5	20.6	0.00e+00	0	41	0	716177408	62	4090
2026-01-29 23:57:05.07	92.21	53.52	-45.4	-46.7	20.6	0.00e+00	0	41	0	718274560	61	4401
2026-01-29 23:57:06.07	92.91	53.59	-45.6	-46.8	20.3	0.00e+00	0	41	0	720371712	61	4491
2026-01-29 23:57:07.08	93.63	53.66	-46.2	-47.6	19.6	0.00e+00	0	41	0	721420288	62	4630
2026-01-29 23:57:08.08	94.34	53.72	-46.0	-47.4	19.8	0.00e+00	0	41	0	723517440	63	4272
2026-01-29 23:57:09.09	95.06	53.77	-44.9	-46.1	21.0	0.00e+00	0	41	0	725614592	61	4107
2026-01-29 23:57:10.10	95.78	53.83	-44.8	-46.0	21.1	0.00e+00	0	41	0	727711744	60	4310
2026-01-29 23:57:11.11	96.51	53.87	-45.6	-46.9	20.3	0.00e+00	0	41	0	729808896	61	4517
2026-01-29 23:57:12.11	97.23	53.91	-45.7	-47.0	20.2	0.00e+00	0	41	0	730857472	62	4339
2026-01-29 23:57:13.12	97.96	53.95	-45.7	-47.0	20.1	0.00e+00	0	41	0	732954624	62	4339
2026-01-29 23:57:14.12	98.69	53.99	-46.2	-47.7	19.6	0.00e+00	0	41	0	735051776	63	4406
2026-01-29 23:57:15.13	99.42	54.02	-46.7	-48.3	18.9	0.00e+00	0	41	0	737148928	64	4465
2026-01-29 23:57:16.13	100.15	54.04	-46.6	-48.2	19.0	0.00e+00	0	41	0	738197504	64	4396
2026-01-29 23:57:17.14	100.88	54.06	-46.1	-47.4	19.8	0.00e+00	0	41	0	740294656	63	4290
2026-01-29 23:57:18.14	101.61	54.07	-45.6	-46.9	20.3	0.00e+00	0	41	0	742391808	63	4041
2026-01-29 23:57:19.14	102.34	54.08	-45.8	-47.2	20.1	0.00e+00	0	41	0	744488960	63	4172
2026-01-29 23:57:20.14	103.08	54.09	-45.4	-46.6	20.5	0.00e+00	0	41	0	746586112	62	4145
2026-01-29 23:57:21.15	103.81	54.09	-45.1	-46.3	20.9	0.00e+00	0	41	0	747634688	62	3959
2026-01-29 23:57:22.16	104.55	54.09	-44.6	-45.7	21.3	0.00e+00	0	41	0	749731840	61	3957
2026-01-29 23:57:23.17	105.29	54.08	-44.6	-45.7	21.3	0.00e+00	0	41	0	751828992	61	3952
2026-01-29 23:57:24.17	106.02	54.07	-44.8	-46.0	21.1	0.00e+00	0	41	0	753926144	60	4300
2026-01-29 23:57:25.18	106.76	54.05	-45.4	-46.6	20.6	0.00e+00	0	41	0	756023296	61	4385
2026-01-29 23:57:26.18	107.49	54.03	-45.3	-46.5	20.7	0.00e+00	0	41	0	758120448	61	4323
2026-01-29 23:57:27.19	108.22	54.00	-45.4	-46.6	20.6	0.00e+00	0	42	0	759169024	61	4370
2026-01-29 23:57:28.20	108.95	53.97	-45.7	-47.0	20.3	0.00e+00	0	41	0	761266176	61	4578
2026-01-29 23:57:29.20	109.68	53.93	-45.2	-46.4	20.7	0.00e+00	0	41	0	763363328	61	4260
2026-01-29 23:57:30.21	110.41	53.89	-44.4	-45.5	21.5	0.00e+00	0	42	0	765460480	60	4063
2026-01-29 23:57:31.21	111.13	53.85	-44.0	-45.1	22.1	0.00e+00	0	41	0	766509056	59	4107
2026-01-29 23:57:32.22	111.85	53.80	-44.2	-45.3	22.0	0.00e+00	0	41	0	768606208	59	4221
2026-01-29 23:57:33.22	112.57	53.74	-44.3	-45.4	22.0	0.00e+00	0	41	0	770703360	59	4261
2026-01-29 23:57:34.23	113.29	53.68	-44.7	-45.8	21.5	0.00e+00	0	42	0	772800512	59	4489
2026-01-29 23:57:35.24	114.00	53.62	-44.7	-45.8	21.3	0.00e+00	0	41	0	774897664	60	4241
2026-01-29 23:57:36.24	114.71	53.55	-45.0	-46.2	21.0	0.00e+00	0	41	0	775946240	60	4414
2026-01-29 23:57:37.25	115.42	53.48	-44.7	-45.8	21.2	0.00e+00	0	41	0	778043392	60	4231
2026-01-29 23:57:38.26	116.13	53.41	-44.3	-45.4	21.6	0.00e+00	0	41	0	780140544	60	4047
2026-01-29 23:57:39.26	116.82	53.33	-45.2	-46.4	20.7	0.00e+00	0	41	0	782237696	60	4533
2026-01-29 23:57:40.26	117.52	53.24	-45.2	-46.4	20.7	0.00e+00	0	41	0	784334848	61	4260
2026-01-29 23:57:41.27	118.21	53.15	-45.0	-46.2	20.9	0.00e+00	0	41	0	785383424	61	4149
2026-01-29 23:57:42.28	118.90	53.06	-45.3	-46.6	20.5	0.00e+00	0	41	0	787480576	61	4351
2026-01-29 23:57:43.28	119.58	52.97	-44.9	-46.1	21.0	0.00e+00	0	41	0	789577728	61	4116
2026-01-29 23:57:44.28	120.26	52.87	-44.2	-45.3	21.7	0.00e+00	0	41	0	791674880	60	3967
2026-01-29 23:57:45.28	120.93	52.76	-44.1	-45.2	22.0	0.00e+00	0	41	0	793772032	59	4179
2026-01-29 23:57:46.29	121.60	52.66	-44.6	-45.8	21.3	0.00e+00	0	41	0	794820608	60	4206
2026-01-29 23:57:47.30	122.27	52.54	-45.0	-46.2	20.9	0.00e+00	0	41	0	796917760	60	4416
2026-01-29 23:57:48.31	122.93	52.43	-44.9	-46.1	21.0	0.00e+00	0	41	0	799014912	61	4102
2026-01-29 23:57:49.32	123.59	52.31	-45.1	-46.3	20.8	0.00e+00	0	41	0	801112064	61	4212
2026-01-29 23:57:50.33	124.24	52.19	-44.8	-46.0	21.1	0.00e+00	0	41	0	803209216	61	4054
2026-01-29 23:57:51.33	124.88	52.06	-44.9	-46.0	21.0	0.00e+00	0	41	0	804257792	61	4095
2026-01-29 23:57:52.34	125.52	51.94	-44.2	-45.3	21.7	0.00e+00	0	41	0	806354944	60	3959
2026-01-29 23:57:53.35	126.15	51.80	-44.7	-45.9	21.1	0.00e+00	0	42	0	808452096	60	4255
2026-01-29 23:57:54.35	126.78	51.67	-45.0	-46.2	20.9	0.00e+00	0	41	0	810549248	60	4413
2026-01-29 23:57:55.36	127.40	51.53	-44.6	-45.7	21.3	0.00e+00	0	41	0	812646400	61	3943
2026-01-29 23:57:56.37	128.02	51.39	-44.0	-45.1	22.1	0.00e+00	0	41	0	813694976	59	4124
2026-01-29 23:57:57.38	128.63	51.24	-43.9	-45.0	22.2	0.00e+00	0	41	0	815792128	59	4060
2026-01-29 23:57:58.38	129.23	51.10	-44.2	-45.4	21.9	0.00e+00	0	41	0	817889280	59	4247
2026-01-29 23:57:59.39	129.84	50.95	-44.0	-45.1	22.1	0.00e+00	0	41	0	819986432	59	4115
2026-01-29 23:58:00.39	130.42	50.80	-43.8	-44.9	22.3	0.00e+00	0	41	0	822083584	59	4028
2026-01-29 23:58:01.40	131.01	50.64	-43.6	-44.7	22.4	0.00e+00	0	41	0	823132160	59	3919
2026-01-29 23:58:02.41	131.60	50.48	-43.4	-44.4	22.6	0.00e+00	0	41	0	825229312	58	4046
2026-01-29 23:58:03.41	132.17	50.32	-44.2	-45.3	22.0	0.00e+00	0	41	0	827326464	58	4445
2026-01-29 23:58:04.42	132.74	50.16	-44.5	-45.6	21.3	0.00e+00	0	41	0	829423616	60	4113
2026-01-29 23:58:05.42	133.30	50.00	-44.8	-46.0	21.0	0.00e+00	0	41	0	831520768	60	4306
2026-01-29 23:58:06.43	133.86	49.83	-44.3	-45.4	21.6	0.00e+00	0	41	0	832569344	60	4018
2026-01-29 23:58:07.44	134.41	49.66	-43.6	-44.6	22.4	0.00e+00	0	41	0	834666496	59	3908
2026-01-29 23:58:08.44	134.95	49.49	-43.3	-44.3	22.7	0.00e+00	0	41	0	836763648	58	3977
2026-01-29 23:58:09.45	135.49	49.32	-43.9	-44.9	22.2	0.00e+00	0	41	0	838860800	58	4277
2026-01-29 23:58:10.45	136.02	49.14	-44.5	-45.6	21.6	0.00e+00	0	41	0	840957952	59	4384
2026-01-29 23:58:11.46	136.55	48.97	-44.7	-45.9	21.1	0.00e+00	0	41	0	842006528	60	4274
2026-01-29 23:58:12.46	137.07	48.79	-45.0	-46.3	20.7	0.00e+00	0	42	0	844103680	60	4463
2026-01-29 23:58:13.47	137.58	48.61	-45.4	-46.7	20.4	0.00e+00	0	41	0	846200832	61	4410
2026-01-29 23:58:14.48	138.09	48.42	-46.3	-47.7	19.5	0.00e+00	0	41	0	848297984	63	4426
2026-01-29 23:58:15.49	138.60	48.24	-46.4	-47.9	19.2	0.00e+00	0	41	0	850395136	64	4277
2026-01-29 23:58:16.49	139.09	48.05	-47.2	-49.0	18.2	0.00e+00	0	41	0	851443712	64	4821
2026-01-29 23:58:17.50	139.58	47.87	-46.1	-47.6	19.5	0.00e+00	0	41	0	853540864	64	4114
2026-01-29 23:58:18.50	140.07	47.68	-45.3	-46.5	20.6	0.00e+00	0	41	0	855638016	62	4094
2026-01-29 23:58:19.51	140.55	47.49	-45.1	-46.3	20.8	0.00e+00	0	41	0	857735168	61	4212
2026-01-29 23:58:20.52	141.02	47.30	-45.7	-47.1	20.0	0.00e+00	0	41	0	859832320	62	4344
2026-01-29 23:58:21.53	141.49	47.11	-45.5	-46.9	20.2	0.00e+00	0	41	0	860880896	62	4257
2026-01-29 23:58:22.53	141.95	46.91	-45.2	-46.4	20.7	0.00e+00	0	41	0	862978048	62	4048
2026-01-29 23:58:23.54	142.41	46.72	-45.1	-46.3	20.7	0.00e+00	0	41	0	865075200	61	4235
2026-01-29 23:58:24.54	142.86	46.53	-45.6	-46.9	20.3	0.00e+00	0	41	0	867172352	61	4517
2026-01-29 23:58:25.55	143.31	46.33	-45.6	-47.0	20.1	0.00e+00	0	41	0	869269504	62	4296
2026-01-29 23:58:26.56	143.75	46.13	-46.5	-48.0	19.3	0.00e+00	0	41	0	870318080	63	4579
2026-01-29 23:58:27.56	144.18	45.94	-47.9	-49.9	17.5	0.00e+00	0	41	0	872415232	66	4784
2026-01-29 23:58:28.56	144.61	45.74	-49.6	-52.5	14.9	0.00e+00	0	42	0	874512384	69	5436
2026-01-29 23:58:29.56	145.03	45.54	-49.2	-51.8	15.6	7.00e-07	0	41	0	876609536	70	4719
2026-01-29 23:58:30.57	145.45	45.34	-48.0	-49.9	17.4	0.00e+00	0	41	0	878706688	68	4279
2026-01-29 23:58:31.58	145.86	45.14	-46.7	-48.2	18.9	0.00e+00	0	42	0	879755264	65	4153
2026-01-29 23:58:32.59	146.27	44.94	-47.3	-49.0	18.2	0.00e+00	0	42	0	881852416	65	4572
2026-01-29 23:58:33.60	146.68	44.73	-49.0	-51.3	16.1	0.00e+00	0	41	0	883949568	68	5041
2026-01-29 23:58:34.60	147.07	44.53	-50.1	-53.4	14.0	7.00e-07	0	41	0	886046720	70	5716
2026-01-29 23:58:35.61	147.47	44.33	-50.1	-53.3	14.1	6.80e-06	0	41	0	888143872	71	5291
2026-01-29 23:58:36.62	147.86	44.13	-49.2	-51.7	15.6	0.00e+00	0	41	0	889192448	70	4659
2026-01-29 23:58:37.62	148.24	43.92	-48.4	-50.5	16.9	0.00e+00	0	42	0	891289600	68	4562
2026-01-29 23:58:38.63	148.62	43.72	-48.1	-50.0	17.3	0.00e+00	0	42	0	893386752	68	4340
2026-01-29 23:58:39.63	148.99	43.52	-47.9	-49.8	17.4	0.00e+00	0	41	0	895483904	67	4442
2026-01-29 23:58:40.64	149.36	43.31	-49.5	-52.2	15.3	0.00e+00	0	41	0	897581056	69	5224
2026-01-29 23:58:41.65	149.73	43.11	-51.9	-57.3	9.9	2.43e-04	0	41	0	898629632	74	7120
2026-01-29 23:58:42.66	150.09	42.90	-52.2	-58.9	8.2	2.68e-02	0	42	0	900726784	75	8011
2026-01-29 23:58:43.66	150.44	42.70	-51.7	-56.8	10.2	2.54e-02	0	41	0	902823936	75	6341
2026-01-29 23:58:44.67	150.80	42.49	-50.3	-53.6	13.7	2.27e-04	0	41	0	904921088	72	5168
2026-01-29 23:58:45.68	151.14	42.29	-49.6	-52.2	15.0	0.00e+00	0	41	0	907018240	71	4679
2026-01-29 23:58:46.69	151.49	42.08	-50.2	-53.4	14.1	0.00e+00	0	41	0	908066816	71	5383
2026-01-29 23:58:47.69	151.82	41.88	-51.7	-57.1	10.4	4.07e-04	0	41	0	910163968	73	7307
2026-01-29 23:58:48.69	152.16	41.68	-52.2	-59.0	7.9	4.53e-02	0	41	0	912261120	75	8148
2026-01-29 23:58:49.70	152.49	41.47	-51.9	-58.0	8.8	5.84e-02	0	41	0	914358272	75	7226
2026-01-29 23:58:50.70	152.81	41.27	-51.3	-55.9	11.1	8.75e-03	0	42	0	916455424	74	6032
2026-01-29 23:58:51.71	153.13	41.06	-48.2	-50.2	16.8	3.80e-06	0	41	0	917504000	68	4421
2026-01-29 23:58:52.71	153.45	40.86	-46.0	-47.3	19.7	0.00e+00	0	41	0	919601152	63	4221
2026-01-29 23:58:53.72	153.77	40.65	-45.4	-46.7	20.3	0.00e+00	0	41	0	921698304	62	4171
2026-01-29 23:58:54.72	154.07	40.45	-46.0	-47.4	19.8	0.00e+00	0	41	0	923795456	62	4535
2026-01-29 23:58:55.73	154.38	40.25	-47.9	-49.8	17.3	0.00e+00	0	41	0	925892608	66	4750
2026-01-29 23:58:56.73	154.68	40.05	-48.8	-51.2	16.0	0.00e+00	0	41	0	926941184	68	4972
2026-01-29 23:58:57.74	154.98	39.84	-48.2	-50.4	16.9	0.00e+00	0	41	0	929038336	68	4499
2026-01-29 23:58:58.75	155.28	39.64	-47.1	-48.7	18.4	0.00e+00	0	42	0	931135488	66	4186
2026-01-29 23:58:59.76	155.57	39.44	-47.1	-48.7	18.3	0.00e+00	0	41	0	933232640	65	4426
2026-01-29 23:59:00.77	155.86	39.23	-46.9	-48.6	18.4	0.00e+00	0	41	0	935329792	65	4362
2026-01-29 23:59:01.78	156.15	39.03	-47.4	-49.2	17.9	0.00e+00	0	41	0	936378368	65	4665
2026-01-29 23:59:02.79	156.43	38.83	-47.7	-49.7	17.5	0.00e+00	0	41	0	938475520	66	4655
2026-01-29 23:59:03.79	156.70	38.63	-47.9	-49.9	17.4	0.00e+00	0	41	0	940572672	66	4760
2026-01-29 23:59:04.80	156.98	38.43	-47.8	-49.7	17.4	0.00e+00	0	41	0	942669824	66	4665
2026-01-29 23:59:05.81	157.25	38.23	-46.9	-48.5	18.5	0.00e+00	0	41	0	944766976	65	4323
2026-01-29 23:59:06.81	157.52	38.03	-46.0	-47.4	19.5	0.00e+00	0	41	0	945815552	64	4051
2026-01-29 23:59:07.82	157.78	37.83	-45.1	-46.4	20.6	0.00e+00	0	41	0	947912704	62	4011
2026-01-29 23:59:08.82	158.04	37.64	-44.2	-45.3	21.4	0.00e+00	0	41	0	950009856	60	3996
2026-01-29 23:59:09.83	158.30	37.44	-44.4	-45.6	21.6	0.00e+00	0	41	0	952107008	59	4355
2026-01-29 23:59:10.84	158.56	37.24	-44.8	-46.0	20.8	0.00e+00	0	41	0	954204160	60	4340
2026-01-29 23:59:11.85	158.81	37.04	-45.7	-47.1	19.9	0.00e+00	0	41	0	955252736	62	4354
2026-01-29 23:59:12.85	159.06	36.85	-46.5	-48.1	18.9	0.00e+00	0	41	0	957349888	64	4358
2026-01-29 23:59:13.86	159.31	36.65	-46.2	-47.7	19.2	0.00e+00	0	42	0	959447040	64	4190
2026-01-29 23:59:14.87	159.55	36.46	-45.4	-46.7	20.2	0.00e+00	0	41	0	961544192	62	4185
2026-01-29 23:59:15.87	159.79	36.26	-44.3	-45.4	21.4	0.00e+00	0	41	0	963641344	60	4022
2026-01-29 23:59:16.88	160.03	36.07	-44.0	-45.1	21.6	0.00e+00	0	42	0	964689920	60	3875
2026-01-29 23:59:17.89	160.27	35.88	-44.7	-45.8	21.2	0.00e+00	0	42	0	966787072	59	4480
2026-01-29 23:59:18.89	160.50	35.69	-44.7	-45.9	20.9	0.00e+00	0	41	0	968884224	60	4279
2026-01-29 23:59:19.90	160.73	35.49	-45.5	-46.8	20.1	0.00e+00	0	41	0	970981376	61	4484
2026-01-29 23:59:20.91	160.96	35.30	-46.4	-48.0	19.1	0.00e+00	0	41	0	973078528	63	4552
2026-01-29 23:59:21.92	161.18	35.11	-46.6	-48.2	18.8	0.00e+00	0	41	0	974127104	64	4395
2026-01-29 23:59:22.93	161.41	34.92	-46.3	-47.8	19.1	0.00e+00	0	41	0	976224256	64	4240
2026-01-29 23:59:23.94	161.63	34.73	-45.4	-46.7	20.2	0.00e+00	0	41	0	978321408	62	4186
2026-01-29 23:59:24.95	161.85	34.54	-44.6	-45.8	21.0	0.00e+00	0	41	0	980418560	61	3980
2026-01-29 23:59:25.95	162.06	34.36	-44.3	-45.4	21.6	0.00e+00	0	41	0	982515712	59	4281
2026-01-29 23:59:26.96	162.27	34.17	-44.5	-45.7	21.4	0.00e+00	0	41	0	983564288	59	4405
2026-01-29 23:59:27.97	162.48	33.98	-44.3	-45.4	21.3	0.00e+00	0	41	0	985661440	60	4031
2026-01-29 23:59:28.98	162.69	33.80	-44.8	-46.0	20.8	0.00e+00	0	41	0	987758592	60	4328
2026-01-29 23:59:29.99	162.90	33.61	-45.8	-47.2	19.8	0.00e+00	0	41	0	989855744	62	4433
2026-01-29 23:59:30.99	163.10	33.43	-46.3	-47.8	19.1	0.00e+00	0	41	0	991952896	63	4476
2026-01-29 23:59:31.99	163.30	33.24	-47.4	-49.3	17.9	0.00e+00	0	42	0	993001472	65	4707
2026-01-29 23:59:33.00	163.50	33.06	-47.5	-49.5	17.5	0.00e+00	0	41	0	995098624	66	4581
2026-01-29 23:59:34.01	163.70	32.88	-46.6	-48.4	18.6	0.00e+00	0	41	0	997195776	65	4245
2026-01-29 23:59:35.01	163.89	32.70	-46.0	-47.6	19.3	0.00e+00	0	41	0	999292928	64	4116
2026-01-29 23:59:36.02	164.08	32.52	-45.0	-46.3	20.5	0.00e+00	0	42	0	1001390080	62	3987
2026-01-29 23:59:37.02	164.27	32.34	-44.3	-45.5	21.2	0.00e+00	0	41	0	1002438656	60	4070
2026-01-29 23:59:38.03	164.46	32.16	-44.4	-45.5	21.2	0.00e+00	0	41	0	1004535808	60	4096
2026-01-29 23:59:39.04	164.65	31.98	-44.6	-45.8	21.0	0.00e+00	0	41	0	1006632960	60	4200
2026-01-29 23:59:40.05	164.83	31.80	-45.4	-46.7	20.1	0.00e+00	0	41	0	1008730112	61	4439
2026-01-29 23:59:41.06	165.02	31.63	-46.3	-47.8	19.2	0.00e+00	0	41	0	1010827264	63	4471
2026-01-29 23:59:42.06	165.20	31.45	-46.5	-48.1	18.9	0.00e+00	0	41	0	1011875840	63	4610
2026-01-29 23:59:43.07	165.37	31.28	-46.4	-47.9	19.0	0.00e+00	0	41	0	1013972992	63	4530
2026-01-29 23:59:44.08	165.55	31.10	-46.7	-48.3	18.6	0.00e+00	0	41	0	1016070144	64	4459
2026-01-29 23:59:45.08	165.73	30.93	-46.1	-47.5	19.4	0.00e+00	0	41	0	1018167296	63	4335
2026-01-29 23:59:46.09	165.90	30.75	-45.6	-47.0	19.8	0.00e+00	0	41	0	1020264448	63	4063
2026-01-29 23:59:47.10	166.07	30.58	-45.5	-46.9	19.9	0.00e+00	0	41	0	1021313024	63	4029
2026-01-29 23:59:48.11	166.24	30.41	-45.2	-46.5	20.3	0.00e+00	0	41	0	1023410176	62	4053
2026-01-29 23:59:49.12	166.41	30.24	-45.4	-46.8	20.0	0.00e+00	0	41	0	1025507328	62	4198
2026-01-29 23:59:50.12	166.57	30.07	-45.7	-47.0	19.8	0.00e+00	0	41	0	1027604480	62	4337
2026-01-29 23:59:51.12	166.74	29.90	-46.2	-47.6	19.3	0.00e+00	0	41	0	1029701632	62	4645
2026-01-29 23:59:52.13	166.90	29.73	-47.2	-48.9	17.9	0.00e+00	0	41	0	1030750208	64	4812
2026-01-29 23:59:53.13	167.06	29.57	-47.0	-48.7	18.1	0.00e+00	0	41	0	1032847360	65	4392
2026-01-29 23:59:54.14	167.22	29.40	-46.9	-48.6	18.2	0.00e+00	0	41	0	1034944512	65	4362
2026-01-29 23:59:55.14	167.38	29.23	-46.5	-48.1	18.7	0.00e+00	0	41	0	1037041664	64	4341
2026-01-29 23:59:56.15	167.53	29.07	-46.0	-47.4	19.4	0.00e+00	0	41	0	1039138816	63	4287
2026-01-29 23:59:57.15	167.69	28.90	-45.1	-46.3	20.4	0.00e+00	0	41	0	1040187392	62	3997
2026-01-29 23:59:58.16	167.84	28.74	-44.9	-46.1	20.6	0.00e+00	0	41	0	1042284544	61	4128
2026-01-29 23:59:59.16	167.99	28.58	-44.5	-45.7	21.0	0.00e+00	0	41	0	1044381696	60	4162
2026-01-30 00:00:00.17	168.14	28.41	-44.1	-45.2	21.3	0.00e+00	0	41	0	1046478848	60	3949
2026-01-30 00:00:01.17	168.29	28.25	-44.3	-45.4	21.2	0.00e+00	0	42	0	1048576000	60	4047
2026-01-30 00:00:02.18	168.44	28.09	-44.1	-45.3	21.3	0.00e+00	0	41	0	1049624576	60	3996
2026-01-30 00:00:03.19	168.59	27.93	-44.5	-45.7	21.3	0.00e+00	0	41	0	1051721728	59	4397
2026-01-30 00:00:04.20	168.73	27.77	-44.2	-45.4	21.2	0.00e+00	0	41	0	1053818880	60	4045
2026-01-30 00:00:05.20	168.87	27.61	-44.1	-45.2	21.7	0.00e+00	0	41	0	1055916032	59	4180
2026-01-30 00:00:06.21	169.02	27.46	-44.3	-45.4	21.4	0.00e+00	0	41	0	1058013184	59	4284
2026-01-30 00:00:07.21	169.15	27.30	-44.1	-45.2	21.4	0.00e+00	0	41	0	1059061760	60	3951
2026-01-30 00:00:08.22	169.29	27.14	-44.3	-45.4	21.2	0.00e+00	0	42	0	1061158912	60	4044
2026-01-30 00:00:09.23	169.43	26.99	-44.6	-45.8	20.9	0.00e+00	0	41	0	1063256064	60	4237
2026-01-30 00:00:10.23	169.57	26.83	-44.5	-45.8	20.9	0.00e+00	0	41	0	1065353216	60	4200
2026-01-30 00:00:11.24	169.70	26.68	-44.6	-45.9	20.8	0.00e+00	0	41	0	1067450368	60	4256
2026-01-30 00:00:12.25	169.84	26.52	-44.8	-46.1	20.6	0.00e+00	0	41	0	1068498944	60	4350
2026-01-30 00:00:13.25	169.97	26.37	-45.0	-46.2	20.5	0.00e+00	0	41	0	1070596096	60	4434
2026-01-30 00:00:14.26	170.10	26.22	-44.9	-46.2	20.5	0.00e+00	0	41	0	1072693248	60	4411
2026-01-30 00:00:15.27	170.23	26.07	-45.0	-46.3	20.4	0.00e+00	0	41	0	1074790400	61	4229
2026-01-30 00:00:16.28	170.36	25.91	-45.3	-46.6	20.1	0.00e+00	0	41	0	1076887552	61	4371
2026-01-30 00:00:17.28	170.49	25.77	-45.3	-46.7	20.1	0.00e+00	0	41	0	1077936128	61	4405
2026-01-30 00:00:18.29	170.62	25.62	-45.8	-47.2	19.6	0.00e+00	0	41	0	1080033280	62	4416
2026-01-30 00:00:19.29	170.74	25.47	-45.8	-47.2	19.5	0.00e+00	0	41	0	1082130432	62	4427
2026-01-30 00:00:20.30	170.87	25.32	-46.0	-47.4	19.4	0.00e+00	0	41	0	1084227584	62	4530
2026-01-30 00:00:21.31	170.99	25.17	-46.1	-47.6	19.2	0.00e+00	0	42	0	1086324736	63	4358
2026-01-30 00:00:22.31	171.11	25.03	-46.1	-47.6	19.3	0.00e+00	0	41	0	1087373312	63	4345
2026-01-30 00:00:23.31	171.23	24.88	-46.2	-47.6	19.2	0.00e+00	0	41	0	1089470464	63	4372
2026-01-30 00:00:24.32	171.35	24.73	-46.1	-47.6	19.2	0.00e+00	0	41	0	1091567616	63	4358
2026-01-30 00:00:25.33	171.47	24.59	-45.3	-46.6	20.2	0.00e+00	0	41	0	1093664768	62	4103
2026-01-30 00:00:26.34	171.59	24.44	-45.1	-46.3	20.3	0.00e+00	0	41	0	1095761920	62	3991
2026-01-30 00:00:27.34	171.71	24.30	-44.6	-45.8	20.7	0.00e+00	0	41	0	1096810496	61	3975
2026-01-30 00:00:28.34	171.82	24.16	-44.5	-45.7	21.0	0.00e+00	0	42	0	1098907648	60	4149
2026-01-30 00:00:29.35	171.94	24.02	-44.6	-45.7	20.8	0.00e+00	0	41	0	1101004800	60	4178
2026-01-30 00:00:30.35	172.05	23.88	-44.3	-45.4	21.1	0.00e+00	0	41	0	1103101952	60	4035
2026-01-30 00:00:31.36	172.16	23.74	-44.7	-45.9	20.7	0.00e+00	0	41	0	1105199104	60	4255
2026-01-30 00:00:32.36	172.27	23.60	-44.9	-46.1	20.4	0.00e+00	0	41	0	1106247680	60	4388
2026-01-30 00:00:33.36	172.39	23.46	-45.1	-46.4	20.2	0.00e+00	0	41	0	1108344832	60	4524
2026-01-30 00:00:34.37	172.50	23.32	-45.7	-47.1	19.6	0.00e+00	0	41	0	1110441984	61	4630
2026-01-30 00:00:35.38	172.61	23.18	-46.2	-47.8	18.9	0.00e+00	0	41	0	1112539136	62	4739
2026-01-30 00:00:36.38	172.71	23.04	-46.1	-47.6	19.1	0.00e+00	0	41	0	1114636288	62	4651
2026-01-30 00:00:37.39	172.82	22.91	-45.9	-47.5	19.2	0.00e+00	0	41	0	1115684864	63	4322
2026-01-30 00:00:38.39	172.93	22.77	-45.4	-46.8	19.8	0.00e+00	0	41	0	1117782016	62	4217
2026-01-30 00:00:39.41	173.03	22.63	-45.3	-46.8	19.9	0.00e+00	0	41	0	1119879168	62	4201
2026-01-30 00:00:40.41	173.14	22.50	-45.1	-46.5	20.1	0.00e+00	0	41	0	1121976320	61	4300
2026-01-30 00:00:41.42	173.24	22.37	-44.5	-45.8	20.8	0.00e+00	0	41	0	1124073472	60	4198
2026-01-30 00:00:42.43	173.34	22.23	-44.1	-45.3	21.1	0.00e+00	0	41	0	1125122048	60	3989
2026-01-30 00:00:43.44	173.45	22.10	-44.1	-45.3	21.4	0.00e+00	0	41	0	1127219200	59	4226
2026-01-30 00:00:44.45	173.55	21.96	-44.2	-45.4	21.4	0.00e+00	0	41	0	1129316352	59	4261
2026-01-30 00:00:45.45	173.65	21.83	-44.0	-45.1	21.7	0.00e+00	0	41	0	1131413504	59	4110
2026-01-30 00:00:46.46	173.75	21.70	-43.9	-45.0	21.6	0.00e+00	0	42	0	1133510656	59	4084
2026-01-30 00:00:47.47	173.85	21.57	-44.3	-45.4	21.3	0.00e+00	0	41	0	1134559232	59	4282
2026-01-30 00:00:48.48	173.95	21.44	-44.3	-45.4	21.3	0.00e+00	0	41	0	1136656384	59	4285
2026-01-30 00:00:49.48	174.04	21.31	-44.6	-45.8	20.9	0.00e+00	0	41	0	1138753536	59	4477
2026-01-30 00:00:50.49	174.14	21.18	-44.5	-45.7	20.7	0.00e+00	0	41	0	1140850688	60	4166
2026-01-30 00:00:51.50	174.24	21.05	-44.7	-46.0	20.5	0.00e+00	0	41	0	1142947840	60	4317
2026-01-30 00:00:52.51	174.33	20.93	-44.8	-46.0	20.4	0.00e+00	0	41	0	1143996416	60	4334
2026-01-30 00:00:53.51	174.42	20.80	-44.5	-45.7	20.8	0.00e+00	0	41	0	1146093568	60	4183
2026-01-30 00:00:54.52	174.52	20.67	-44.5	-45.8	20.7	0.00e+00	0	41	0	1148190720	60	4196
2026-01-30 00:00:55.53	174.61	20.54	-44.3	-45.5	20.9	0.00e+00	0	41	0	1150287872	60	4091
2026-01-30 00:00:56.53	174.70	20.42	-44.3	-45.5	20.8	0.00e+00	0	41	0	1152385024	60	4097
2026-01-30 00:00:57.54	174.79	20.29	-44.1	-45.2	20.5	0.00e+00	0	41	0	1153433600	60	3957
2026-01-30 00:00:58.55	174.89	20.17	-44.2	-45.4	21.3	0.00e+00	0	41	0	1155530752	59	4260
2026-01-30 00:00:59.55	174.98	20.05	-44.2	-45.3	21.3	0.00e+00	0	41	0	1157627904	59	4236
2026-01-30 00:01:00.56	175.06	19.92	-43.9	-45.0	21.7	0.00e+00	0	41	0	1159725056	59	4065
2026-01-30 00:01:01.57	175.15	19.80	-43.8	-44.9	21.7	0.00e+00	0	41	0	1161822208	59	4041
2026-01-30 00:01:02.58	175.24	19.68	-43.6	-44.7	21.9	0.00e+00	0	41	0	1162870784	59	3918
2026-01-30 00:01:03.59	175.33	19.56	-43.6	-44.7	21.9	0.00e+00	0	41	0	1164967936	59	3936
2026-01-30 00:01:04.59	175.42	19.43	-43.6	-44.7	21.8	0.00e+00	0	41	0	1167065088	58	4173
2026-01-30 00:01:05.60	175.50	19.31	-43.5	-44.6	21.9	0.00e+00	0	41	0	1169162240	58	4131
2026-01-30 00:01:06.60	175.59	19.19	-43.7	-44.8	21.7	0.00e+00	0	41	0	1171259392	58	4219
2026-01-30 00:01:07.61	175.67	19.07	-43.7	-44.8	21.8	0.00e+00	0	41	0	1172307968	58	4241
2026-01-30 00:01:08.62	175.76	18.95	-43.6	-44.7	21.9	0.00e+00	0	42	0	1174405120	58	4165
2026-01-30 00:01:09.63	175.84	18.84	-43.7	-44.8	21.8	0.00e+00	0	41	0	1176502272	58	4202
2026-01-30 00:01:10.63	175.92	18.72	-43.9	-45.1	21.5	0.00e+00	0	41	0	1178599424	58	4351
2026-01-30 00:01:11.64	176.00	18.60	-44.2	-45.4	21.3	0.00e+00	0	41	0	1180696576	58	4499
2026-01-30 00:01:12.65	176.09	18.48	-44.3	-45.5	21.1	0.00e+00	0	41	0	1181745152	59	4311
2026-01-30 00:01:13.66	176.17	18.37	-44.5	-45.7	21.0	0.00e+00	0	41	0	1183842304	59	4432
2026-01-30 00:01:14.67	176.25	18.25	-44.4	-45.7	20.7	0.00e+00	0	41	0	1185939456	60	4165
2026-01-30 00:01:15.67	176.33	18.13	-44.6	-45.9	20.5	0.00e+00	0	42	0	1188036608	60	4268
2026-01-30 00:01:16.68	176.41	18.02	-44.7	-46.0	20.4	0.00e+00	0	41	0	1190133760	60	4329
2026-01-30 00:01:17.69	176.49	17.90	-44.7	-46.0	20.4	0.00e+00	0	41	0	1191182336	60	4328
2026-01-30 00:01:18.69	176.56	17.79	-45.0	-46.3	20.1	0.00e+00	0	41	0	1193279488	60	4482
2026-01-30 00:01:19.70	176.64	17.68	-45.0	-46.4	20.1	0.00e+00	0	41	0	1195376640	60	4517
2026-01-30 00:01:20.71	176.72	17.56	-45.3	-46.8	19.7	0.00e+00	0	41	0	1197473792	61	4447
2026-01-30 00:01:21.72	176.80	17.45	-45.4	-46.8	19.7	0.00e+00	0	41	0	1199570944	61	4459
2026-01-30 00:01:22.73	176.87	17.34	-45.3	-46.8	19.7	0.00e+00	0	41	0	1200619520	61	4448
2026-01-30 00:01:23.73	176.95	17.23	-45.3	-46.7	19.7	0.00e+00	0	41	0	1202716672	61	4413
2026-01-30 00:01:24.74	177.02	17.12	-45.1	-46.5	19.9	0.00e+00	0	41	0	1204813824	61	4298
2026-01-30 00:01:25.75	177.10	17.00	-45.2	-46.6	19.9	0.00e+00	0	41	0	1206910976	61	4351
2026-01-30 00:01:26.75	177.17	16.89	-45.1	-46.5	20.0	0.00e+00	0	41	0	1209008128	61	4306
2026-01-30 00:01:27.75	177.24	16.79	-45.1	-46.5	19.9	0.00e+00	0	41	0	1210056704	61	4323
2026-01-30 00:01:28.76	177.32	16.68	-45.0	-46.4	20.0	0.00e+00	0	41	0	1212153856	61	4253
2026-01-30 00:01:29.77	177.39	16.57	-44.9	-46.2	20.2	0.00e+00	0	42	0	1214251008	61	4183
2026-01-30 00:01:30.77	177.46	16.46	-44.7	-46.0	20.3	0.00e+00	0	41	0	1216348160	61	4097
2026-01-30 00:01:31.78	177.53	16.35	-44.6	-45.9	20.4	0.00e+00	0	41	0	1218445312	61	4029
2026-01-30 00:01:32.79	177.60	16.24	-44.5	-45.8	20.5	0.00e+00	0	41	0	1219493888	60	4227
2026-01-30 00:01:33.79	177.67	16.14	-44.5	-45.8	20.5	0.00e+00	0	41	0	1221591040	60	4214
2026-01-30 00:01:34.80	177.74	16.03	-44.4	-45.6	20.7	0.00e+00	0	41	0	1223688192	60	4125
2026-01-30 00:01:35.81	177.81	15.92	-44.4	-45.6	20.7	0.00e+00	0	41	0	1225785344	60	4133
2026-01-30 00:01:36.82	177.88	15.81	-44.3	-45.5	20.7	0.00e+00	0	41	0	1227882496	60	4087
2026-01-30 00:01:37.83	177.95	15.71	-44.0	-45.2	21.0	0.00e+00	0	41	0	1228931072	60	3936
2026-01-30 00:01:38.83	178.02	15.60	-44.2	-45.4	20.9	0.00e+00	0	41	0	1231028224	60	4028
2026-01-30 00:01:39.84	178.09	15.50	-44.2	-45.4	20.9	0.00e+00	0	41	0	1233125376	60	4021
2026-01-30 00:01:40.85	178.15	15.39	-44.2	-45.4	20.9	0.00e+00	0	41	0	1235222528	60	4006
2026-01-30 00:01:41.85	178.22	15.29	-44.1	-45.3	20.8	0.00e+00	0	41	0	1237319680	60	3964
2026-01-30 00:01:42.86	178.29	15.19	-44.4	-45.6	21.0	0.00e+00	0	41	0	1238368256	59	4347
2026-01-30 00:01:43.86	178.35	15.09	-44.5	-45.7	20.9	0.00e+00	0	41	0	1240465408	59	4415
2026-01-30 00:01:44.87	178.42	14.98	-44.2	-45.3	21.2	0.00e+00	0	41	0	1242562560	59	4237
