passes_logs/2026/01/29/R3.2S_Murmansk/R3.2S_Murmansk__20260129_030518_AQUA_rec.log

#Pass ID: 20260129_030518_AQUA
#Satellite: AQUA
#Configuration: AQUA
#almurnet v.1.7.20251203
#Start time: 2026-01-29 03:05:19

#Version: 2.2.20231116
#Station: R3.2S_Murmansk
#Location: 33.079688 lon 68.888172 lat
#TLE: 1 27424U 02022A   26027.96263068  .00001625  00000+0  33481-3 0  9997
#TLE: 2 27424  98.4102 354.6095 0001839  63.4368   7.7786 14.61867353262782

#Time	Az	El	Level	Level2	SNR	BER	BlckErr	Temp	State	Recorded	gain1	gain2
2026-01-29 03:05:19.55	25.88	2.05	-55.4	-73.2	3.8	7.48e-01	0	40	0	0	81	29568
2026-01-29 03:05:20.55	25.86	2.11	-55.4	-73.2	3.8	7.47e-01	0	40	104	0	81	29612
2026-01-29 03:05:21.56	25.84	2.18	-55.3	-73.2	3.8	7.45e-01	0	40	104	0	81	29541
2026-01-29 03:05:22.57	25.82	2.25	-55.3	-73.2	3.8	7.47e-01	0	40	104	0	81	29399
2026-01-29 03:05:23.58	25.80	2.31	-55.3	-73.2	3.8	7.44e-01	0	40	104	0	81	29413
2026-01-29 03:05:24.58	25.78	2.38	-55.3	-73.2	3.8	7.47e-01	0	40	104	0	81	29363
2026-01-29 03:05:25.59	25.76	2.45	-55.3	-73.2	3.8	7.45e-01	0	40	104	0	81	29388
2026-01-29 03:05:26.60	25.74	2.52	-55.3	-73.2	3.8	7.45e-01	0	40	104	0	81	29362
2026-01-29 03:05:27.61	25.72	2.58	-55.4	-73.3	3.8	7.44e-01	0	40	104	0	81	29710
2026-01-29 03:05:28.61	25.70	2.65	-55.5	-73.4	3.8	7.45e-01	0	40	104	0	81	30067
2026-01-29 03:05:29.62	25.68	2.72	-55.6	-73.4	3.8	7.45e-01	0	40	104	0	81	30222
2026-01-29 03:05:30.63	25.66	2.79	-55.6	-73.4	3.8	7.47e-01	0	40	104	0	81	30272
2026-01-29 03:05:31.63	25.64	2.85	-55.6	-73.4	3.8	7.44e-01	0	40	104	0	81	30343
2026-01-29 03:05:32.64	25.62	2.92	-55.7	-73.5	3.9	7.44e-01	0	40	104	0	82	28972
2026-01-29 03:05:33.65	25.60	2.99	-55.7	-73.5	3.8	7.44e-01	0	40	104	0	82	28745
2026-01-29 03:05:34.66	25.57	3.06	-55.6	-73.5	3.8	7.49e-01	0	40	104	0	82	28704
2026-01-29 03:05:35.67	25.55	3.13	-55.6	-73.4	3.8	7.44e-01	0	40	104	0	82	28503
2026-01-29 03:05:36.68	25.53	3.20	-55.6	-73.4	3.8	7.47e-01	0	41	104	0	82	28674
2026-01-29 03:05:37.68	25.51	3.27	-55.6	-73.4	3.8	7.45e-01	0	40	104	0	82	28562
2026-01-29 03:05:38.70	25.49	3.34	-55.6	-73.4	3.8	7.43e-01	0	41	104	0	82	28638
2026-01-29 03:05:39.71	25.47	3.41	-55.6	-73.4	3.8	7.46e-01	0	40	104	0	82	28520
2026-01-29 03:05:40.72	25.44	3.48	-55.6	-73.4	3.8	7.45e-01	0	41	104	0	82	28393
2026-01-29 03:05:41.73	25.42	3.55	-55.5	-73.3	3.8	7.49e-01	0	41	104	0	82	28191
2026-01-29 03:05:42.73	25.40	3.62	-55.4	-73.2	3.8	7.42e-01	0	40	104	0	82	27904
2026-01-29 03:05:43.74	25.38	3.69	-55.3	-73.1	3.8	7.43e-01	0	41	104	0	82	27530
2026-01-29 03:05:44.75	25.36	3.76	-55.1	-73.0	3.8	7.45e-01	0	41	104	0	82	27126
2026-01-29 03:05:45.76	25.33	3.83	-55.0	-72.8	3.8	7.49e-01	0	41	104	0	82	26691
2026-01-29 03:05:46.77	25.31	3.90	-54.8	-72.6	3.8	7.46e-01	0	41	104	0	81	27580
2026-01-29 03:05:47.78	25.29	3.97	-54.6	-72.4	3.8	7.46e-01	0	41	104	0	81	27014
2026-01-29 03:05:48.79	25.26	4.04	-54.3	-72.1	3.8	7.44e-01	0	41	104	0	80	27501
2026-01-29 03:05:49.79	25.24	4.12	-53.8	-71.4	3.8	7.48e-01	0	41	104	0	79	26922
2026-01-29 03:05:50.80	25.22	4.19	-52.5	-67.5	3.8	7.48e-01	0	41	104	0	77	19232
2026-01-29 03:05:51.81	25.19	4.26	-52.3	-67.0	3.8	7.47e-01	0	41	104	0	76	19312
2026-01-29 03:05:52.82	25.17	4.33	-52.2	-66.6	3.8	7.44e-01	0	41	104	0	76	18438
2026-01-29 03:05:53.83	25.15	4.41	-52.1	-66.4	3.8	7.47e-01	0	41	104	0	76	17906
2026-01-29 03:05:54.84	25.12	4.48	-51.9	-65.9	3.8	7.40e-01	0	41	104	0	75	17961
2026-01-29 03:05:55.84	25.10	4.55	-51.8	-65.6	3.8	7.41e-01	0	41	104	0	75	17455
2026-01-29 03:05:56.85	25.08	4.62	-51.6	-65.3	3.8	7.44e-01	0	41	104	0	75	16722
2026-01-29 03:05:57.86	25.05	4.70	-51.4	-64.8	3.8	7.46e-01	0	41	104	0	74	16707
2026-01-29 03:05:58.87	25.03	4.77	-51.3	-64.8	3.8	7.46e-01	0	41	104	0	74	16697
2026-01-29 03:05:59.87	25.00	4.84	-51.4	-64.8	3.8	7.48e-01	0	41	104	0	74	16865
2026-01-29 03:06:00.88	24.98	4.92	-51.4	-65.0	3.8	7.46e-01	0	41	104	0	74	17088
2026-01-29 03:06:01.89	24.95	4.99	-51.6	-65.3	3.8	7.45e-01	0	41	104	0	74	17752
2026-01-29 03:06:02.90	24.93	5.07	-53.0	-69.1	3.8	7.45e-01	0	41	104	0	76	24545
2026-01-29 03:06:03.90	24.90	5.14	-47.4	-58.6	3.8	7.42e-01	0	41	104	0	66	12998
2026-01-29 03:06:04.91	24.88	5.22	-53.3	-70.6	3.8	7.41e-01	0	41	104	0	77	27393
2026-01-29 03:06:05.91	24.85	5.29	-50.7	-63.3	3.8	7.42e-01	0	41	104	0	72	15773
2026-01-29 03:06:06.92	24.82	5.37	-50.3	-62.4	3.8	7.44e-01	0	41	104	0	70	16052
2026-01-29 03:06:07.92	24.80	5.44	-47.4	-58.7	3.8	7.45e-01	0	41	104	0	66	13142
2026-01-29 03:06:08.93	24.77	5.52	-47.3	-58.5	3.8	7.43e-01	0	41	104	0	66	12935
2026-01-29 03:06:09.94	24.75	5.59	-46.9	-58.1	3.8	7.45e-01	0	41	104	0	65	13085
2026-01-29 03:06:10.94	24.72	5.67	-48.0	-59.5	3.8	7.40e-01	0	41	104	0	66	14450
2026-01-29 03:06:11.95	24.69	5.75	-46.6	-57.7	3.8	7.45e-01	0	41	104	0	65	12483
2026-01-29 03:06:12.95	24.67	5.82	-53.3	-70.5	3.8	7.44e-01	0	41	104	0	77	27276
2026-01-29 03:06:13.96	24.64	5.90	-50.9	-63.6	3.8	7.45e-01	0	41	104	0	72	16425
2026-01-29 03:06:14.97	24.61	5.98	-50.3	-62.9	3.8	7.41e-01	0	41	104	0	71	16059
2026-01-29 03:06:15.98	24.58	6.06	-46.8	-58.0	3.8	7.41e-01	0	41	104	0	65	12842
2026-01-29 03:06:16.99	24.56	6.13	-46.5	-57.6	3.8	7.45e-01	0	41	104	0	65	12302
2026-01-29 03:06:18.00	24.53	6.21	-46.3	-57.4	3.8	7.45e-01	0	41	104	0	64	12741
2026-01-29 03:06:19.00	24.50	6.29	-47.3	-58.6	3.8	7.45e-01	0	41	104	0	65	13851
2026-01-29 03:06:20.01	24.47	6.37	-46.5	-57.6	3.8	7.46e-01	0	41	104	0	64	13000
2026-01-29 03:06:21.02	24.44	6.45	-53.4	-70.5	3.8	7.45e-01	0	41	104	0	77	27299
2026-01-29 03:06:22.03	24.42	6.53	-51.0	-63.8	3.8	7.48e-01	0	41	104	0	72	16773
2026-01-29 03:06:23.03	24.39	6.61	-49.9	-62.1	3.8	7.45e-01	0	41	104	0	70	15532
2026-01-29 03:06:24.04	24.36	6.69	-46.7	-57.8	3.8	7.46e-01	0	41	104	0	65	12588
2026-01-29 03:06:25.05	24.33	6.77	-46.6	-57.8	3.8	7.49e-01	0	41	104	0	65	12636
2026-01-29 03:06:26.05	24.30	6.85	-46.3	-57.4	3.8	7.45e-01	0	41	104	0	64	12736
2026-01-29 03:06:27.06	24.27	6.93	-46.3	-57.5	3.8	7.43e-01	0	41	104	0	63	13571
2026-01-29 03:06:28.07	24.24	7.01	-46.4	-57.5	3.8	7.47e-01	0	41	104	0	63	13594
2026-01-29 03:06:29.07	24.21	7.09	-53.4	-70.3	3.8	7.45e-01	0	41	104	0	77	26742
2026-01-29 03:06:30.08	24.18	7.17	-50.9	-63.6	3.8	7.47e-01	0	41	104	0	72	16422
2026-01-29 03:06:31.09	24.15	7.25	-49.8	-62.0	3.9	7.47e-01	0	41	104	0	70	15226
2026-01-29 03:06:32.10	24.12	7.33	-46.2	-57.3	3.8	7.41e-01	0	41	104	0	64	12544
2026-01-29 03:06:33.11	24.09	7.42	-46.2	-57.3	3.8	7.44e-01	0	41	104	0	64	12564
2026-01-29 03:06:34.12	24.06	7.50	-46.2	-57.3	3.8	7.49e-01	0	41	104	0	64	12524
2026-01-29 03:06:35.13	24.03	7.58	-48.7	-60.3	3.8	7.44e-01	0	41	104	0	67	14892
2026-01-29 03:06:36.13	23.99	7.66	-46.1	-57.1	3.8	7.47e-01	0	41	104	0	64	12269
2026-01-29 03:06:37.14	23.96	7.75	-53.5	-70.4	3.8	7.47e-01	0	41	104	0	77	27000
2026-01-29 03:06:38.15	23.93	7.83	-50.9	-63.7	3.8	7.44e-01	0	41	104	0	72	16618
2026-01-29 03:06:39.15	23.90	7.91	-49.1	-61.0	3.8	7.45e-01	0	41	104	0	69	14467
2026-01-29 03:06:40.16	23.87	8.00	-46.0	-56.9	3.8	7.45e-01	0	41	104	0	63	12797
2026-01-29 03:06:41.17	23.83	8.08	-45.9	-56.9	3.8	7.44e-01	0	41	104	0	63	12682
2026-01-29 03:06:42.17	23.80	8.17	-45.5	-56.4	3.8	7.42e-01	0	41	104	0	63	12029
2026-01-29 03:06:43.18	23.77	8.25	-47.0	-58.2	3.8	7.45e-01	0	41	104	0	65	13204
2026-01-29 03:06:44.19	23.74	8.34	-46.1	-57.1	3.8	7.45e-01	0	41	104	0	63	13044
2026-01-29 03:06:45.20	23.70	8.42	-53.6	-70.6	3.8	7.50e-01	0	41	104	0	77	27459
2026-01-29 03:06:46.20	23.67	8.51	-50.1	-62.3	3.9	7.43e-01	0	41	104	0	72	14155
2026-01-29 03:06:47.21	23.63	8.60	-48.7	-60.4	3.8	7.44e-01	0	41	104	0	68	14243
2026-01-29 03:06:48.22	23.60	8.68	-45.8	-56.7	3.8	7.45e-01	0	42	104	0	63	12492
2026-01-29 03:06:49.23	23.57	8.77	-45.6	-56.5	3.8	7.43e-01	0	42	104	0	63	12162
2026-01-29 03:06:50.23	23.53	8.86	-45.5	-56.4	3.8	7.44e-01	0	41	104	0	62	12757
2026-01-29 03:06:51.23	23.50	8.94	-47.3	-58.5	3.8	7.45e-01	0	42	104	0	65	13689
2026-01-29 03:06:52.24	23.46	9.03	-46.1	-57.0	3.8	7.47e-01	0	41	104	0	63	12952
2026-01-29 03:06:53.25	23.42	9.12	-53.6	-70.4	3.8	7.44e-01	0	41	104	0	78	25540
2026-01-29 03:06:54.26	23.39	9.21	-49.0	-60.7	3.8	7.45e-01	0	41	104	0	70	13150
2026-01-29 03:06:55.27	23.35	9.30	-48.0	-59.4	3.8	7.45e-01	0	41	104	0	68	12757
2026-01-29 03:06:56.27	23.32	9.39	-45.6	-56.5	3.8	7.47e-01	0	41	104	0	63	12140
2026-01-29 03:06:57.28	23.28	9.48	-45.5	-56.5	3.8	7.42e-01	0	41	104	0	63	12118
2026-01-29 03:06:58.29	23.24	9.57	-45.6	-56.5	3.8	7.46e-01	0	41	104	0	62	12916
2026-01-29 03:06:59.30	23.21	9.66	-47.3	-58.5	3.8	7.42e-01	0	42	104	0	66	12824
2026-01-29 03:07:00.31	23.17	9.75	-46.4	-57.3	3.8	7.44e-01	0	42	104	0	63	13356
2026-01-29 03:07:01.31	23.13	9.84	-53.6	-70.3	3.8	7.45e-01	0	41	104	0	78	24979
2026-01-29 03:07:02.32	23.09	9.93	-48.8	-60.2	3.9	7.46e-01	0	41	104	0	69	13161
2026-01-29 03:07:03.32	23.06	10.02	-47.7	-59.0	3.8	7.44e-01	0	42	104	0	67	12903
2026-01-29 03:07:04.33	23.02	10.11	-45.3	-56.1	3.8	7.44e-01	0	42	104	0	62	12357
2026-01-29 03:07:05.34	22.98	10.21	-45.2	-56.1	3.8	7.46e-01	0	42	104	0	62	12283
2026-01-29 03:07:06.34	22.94	10.30	-45.0	-55.9	3.8	7.43e-01	0	42	104	0	62	11990
2026-01-29 03:07:07.34	22.90	10.39	-46.3	-57.3	3.8	7.46e-01	0	42	104	0	63	13379
2026-01-29 03:07:08.35	22.86	10.49	-47.4	-58.8	3.8	7.43e-01	0	42	104	0	65	14112
2026-01-29 03:07:09.36	22.82	10.58	-52.9	-67.5	3.9	7.41e-01	0	42	104	0	77	19284
2026-01-29 03:07:10.37	22.78	10.68	-47.2	-58.3	3.8	7.43e-01	0	42	104	0	66	12611
2026-01-29 03:07:11.38	22.74	10.77	-46.6	-57.8	3.9	7.46e-01	0	42	104	0	65	12562
2026-01-29 03:07:12.39	22.70	10.87	-45.2	-56.0	3.8	7.43e-01	0	41	104	0	62	12198
2026-01-29 03:07:13.40	22.66	10.96	-45.0	-55.9	3.8	7.43e-01	0	42	104	0	62	12002
2026-01-29 03:07:14.41	22.61	11.06	-44.7	-55.5	3.8	7.43e-01	0	41	104	0	61	12158
2026-01-29 03:07:15.41	22.57	11.15	-45.3	-56.2	3.8	7.46e-01	0	42	104	0	61	13115
2026-01-29 03:07:16.42	22.53	11.25	-47.4	-58.7	3.8	7.44e-01	0	41	104	0	65	14002
2026-01-29 03:07:17.43	22.49	11.35	-52.9	-67.4	3.9	7.42e-01	0	42	104	0	77	19040
2026-01-29 03:07:18.43	22.45	11.45	-47.2	-58.3	3.8	7.41e-01	0	41	104	0	66	12589
2026-01-29 03:07:19.44	22.40	11.54	-46.4	-57.3	3.9	7.43e-01	0	41	104	0	64	12586
2026-01-29 03:07:20.45	22.36	11.64	-45.0	-55.8	3.9	7.43e-01	0	42	104	0	61	12539
2026-01-29 03:07:21.45	22.31	11.74	-44.9	-55.7	3.8	7.45e-01	0	41	104	0	61	12479
2026-01-29 03:07:22.45	22.27	11.84	-45.3	-56.1	3.8	7.44e-01	0	41	104	0	61	13009
2026-01-29 03:07:23.46	22.23	11.94	-46.0	-56.8	3.9	7.46e-01	0	41	104	0	63	12642
2026-01-29 03:07:24.47	22.18	12.04	-49.5	-61.4	3.8	7.48e-01	0	41	104	0	69	15128
2026-01-29 03:07:25.48	22.14	12.14	-51.5	-64.6	3.9	7.40e-01	0	42	104	0	75	15473
2026-01-29 03:07:26.49	22.09	12.24	-45.6	-56.6	3.9	7.45e-01	0	42	104	0	63	12278
2026-01-29 03:07:27.50	22.04	12.34	-45.6	-56.6	3.8	7.43e-01	0	41	104	0	63	12289
2026-01-29 03:07:28.50	22.00	12.45	-44.7	-55.5	3.8	7.47e-01	0	42	104	0	61	12169
2026-01-29 03:07:29.50	21.95	12.55	-44.6	-55.3	3.8	7.47e-01	0	42	104	0	61	11946
2026-01-29 03:07:30.51	21.90	12.65	-44.7	-55.5	3.8	7.42e-01	0	42	104	0	61	12187
2026-01-29 03:07:31.52	21.86	12.75	-45.1	-56.0	3.9	7.44e-01	0	42	104	0	62	12179
2026-01-29 03:07:32.53	21.81	12.86	-49.5	-61.3	3.8	7.46e-01	0	41	104	0	69	15006
2026-01-29 03:07:33.54	21.76	12.96	-51.2	-64.0	3.9	7.44e-01	0	42	104	0	74	15226
2026-01-29 03:07:34.55	21.71	13.07	-45.7	-56.6	3.8	7.46e-01	0	41	104	0	63	12301
2026-01-29 03:07:35.55	21.66	13.17	-44.9	-55.6	3.9	7.43e-01	0	41	104	0	61	12332
2026-01-29 03:07:36.56	21.61	13.28	-44.5	-55.3	3.9	7.43e-01	0	42	104	0	61	11854
2026-01-29 03:07:37.57	21.56	13.38	-44.5	-55.3	3.8	7.44e-01	0	42	104	0	60	12645
2026-01-29 03:07:38.58	21.51	13.49	-45.7	-56.6	3.8	7.42e-01	0	42	104	0	61	13754
2026-01-29 03:07:39.58	21.46	13.60	-45.8	-56.8	3.8	7.44e-01	0	42	104	0	63	12553
2026-01-29 03:07:40.59	21.41	13.71	-52.0	-65.2	3.8	7.45e-01	0	42	104	0	74	17613
2026-01-29 03:07:41.60	21.36	13.81	-50.4	-62.4	3.9	7.45e-01	0	41	104	0	72	14365
2026-01-29 03:07:42.61	21.30	13.92	-44.6	-55.4	3.8	7.44e-01	0	42	104	0	61	12062
2026-01-29 03:07:43.62	21.25	14.03	-45.2	-56.1	3.9	7.42e-01	0	42	104	0	62	12342
2026-01-29 03:07:44.63	21.20	14.14	-44.7	-55.5	3.8	7.44e-01	0	42	104	0	61	12153
2026-01-29 03:07:45.63	21.15	14.25	-44.5	-55.3	3.9	7.46e-01	0	42	104	0	60	12560
2026-01-29 03:07:46.64	21.09	14.36	-44.5	-55.3	3.8	7.47e-01	0	42	104	0	60	12618
2026-01-29 03:07:47.64	21.04	14.48	-45.1	-56.0	3.8	7.43e-01	0	41	104	0	61	12846
2026-01-29 03:07:48.65	20.98	14.59	-53.6	-68.9	3.7	7.48e-01	0	42	104	0	77	22775
2026-01-29 03:07:49.66	20.93	14.70	-50.6	-62.8	3.8	7.42e-01	0	42	104	0	72	14973
2026-01-29 03:07:50.67	20.87	14.81	-44.7	-55.4	3.9	7.45e-01	0	42	104	0	61	12078
2026-01-29 03:07:51.67	20.82	14.93	-45.4	-56.3	3.9	7.45e-01	0	42	104	0	62	12550
2026-01-29 03:07:52.68	20.76	15.04	-45.2	-56.2	3.8	7.49e-01	0	42	104	0	62	12386
2026-01-29 03:07:53.69	20.70	15.16	-44.9	-55.7	3.8	7.46e-01	0	42	104	0	61	12399
2026-01-29 03:07:54.70	20.64	15.27	-44.4	-55.1	3.8	7.45e-01	0	42	104	0	60	12304
2026-01-29 03:07:55.71	20.58	15.39	-44.5	-55.3	3.9	7.44e-01	0	42	104	0	60	12571
2026-01-29 03:07:56.72	20.53	15.50	-53.6	-68.8	3.7	7.49e-01	0	42	104	0	77	22383
2026-01-29 03:07:57.73	20.47	15.62	-50.5	-62.6	3.8	7.46e-01	0	42	104	0	72	14637
2026-01-29 03:07:58.73	20.41	15.74	-44.2	-54.9	3.8	7.42e-01	0	41	104	0	60	12083
2026-01-29 03:07:59.74	20.35	15.86	-45.0	-55.8	3.8	7.44e-01	0	42	104	0	62	11886
2026-01-29 03:08:00.75	20.28	15.98	-44.8	-55.6	3.8	7.45e-01	0	42	104	0	61	12288
2026-01-29 03:08:01.75	20.22	16.10	-44.2	-54.9	3.8	7.43e-01	0	42	104	0	60	12029
2026-01-29 03:08:02.75	20.16	16.21	-44.3	-55.0	3.9	7.40e-01	0	42	104	0	59	12898
2026-01-29 03:08:03.76	20.10	16.34	-44.8	-55.6	3.8	7.46e-01	0	42	104	0	60	12975
2026-01-29 03:08:04.77	20.04	16.46	-53.9	-70.1	3.8	7.47e-01	0	42	104	0	78	24589
2026-01-29 03:08:05.77	19.97	16.58	-51.3	-63.8	3.8	7.45e-01	0	42	104	0	73	15906
2026-01-29 03:08:06.78	19.91	16.70	-44.9	-55.7	3.8	7.43e-01	0	42	104	0	60	13203
2026-01-29 03:08:07.79	19.84	16.82	-44.5	-55.2	3.8	7.41e-01	0	42	104	0	61	11784
2026-01-29 03:08:08.80	19.78	16.95	-44.3	-55.0	3.8	7.43e-01	0	42	104	0	60	12168
2026-01-29 03:08:09.81	19.71	17.07	-44.1	-54.8	3.8	7.45e-01	0	42	104	0	60	11951
2026-01-29 03:08:10.81	19.64	17.20	-45.4	-56.3	3.8	7.44e-01	0	42	104	0	61	13288
2026-01-29 03:08:11.82	19.58	17.32	-45.1	-56.0	3.8	7.45e-01	0	42	104	0	61	12819
2026-01-29 03:08:12.83	19.51	17.45	-53.9	-70.0	3.8	7.46e-01	0	42	104	0	78	24150
2026-01-29 03:08:13.84	19.44	17.58	-51.6	-64.4	3.8	7.45e-01	0	42	104	0	74	15949
2026-01-29 03:08:14.85	19.37	17.71	-46.7	-57.7	3.8	7.43e-01	0	42	104	0	63	13924
2026-01-29 03:08:15.85	19.30	17.83	-46.0	-57.0	3.8	7.45e-01	0	42	104	0	64	12120
2026-01-29 03:08:16.86	19.23	17.96	-46.0	-57.0	3.8	7.44e-01	0	42	104	0	63	12879
2026-01-29 03:08:17.87	19.16	18.09	-46.1	-57.0	3.8	7.44e-01	0	42	104	0	63	12944
2026-01-29 03:08:18.87	19.09	18.22	-44.5	-55.3	3.8	7.42e-01	0	42	104	0	61	11887
2026-01-29 03:08:19.88	19.01	18.36	-51.6	-64.5	3.8	7.46e-01	0	42	104	0	73	17086
2026-01-29 03:08:20.89	18.94	18.49	-51.9	-64.9	3.8	7.49e-01	0	42	104	0	74	16956
2026-01-29 03:08:21.90	18.86	18.62	-47.5	-58.6	3.9	7.44e-01	0	42	104	0	67	12342
2026-01-29 03:08:22.90	18.79	18.75	-53.4	-68.4	3.8	7.47e-01	0	42	104	0	77	21296
2026-01-29 03:08:23.90	18.71	18.89	-47.2	-58.2	3.9	7.44e-01	0	42	104	0	66	12501
2026-01-29 03:08:24.91	18.64	19.02	-46.2	-57.1	3.8	7.41e-01	0	42	104	0	64	12334
2026-01-29 03:08:25.92	18.56	19.16	-45.4	-56.2	3.8	7.43e-01	0	42	104	0	62	12421
2026-01-29 03:08:26.93	18.48	19.30	-52.3	-65.6	3.8	7.43e-01	0	42	104	0	75	17479
2026-01-29 03:08:27.94	18.40	19.43	-45.8	-56.6	3.8	7.44e-01	0	42	104	0	63	12361
2026-01-29 03:08:28.94	18.32	19.57	-54.0	-69.9	3.8	7.46e-01	0	42	104	0	78	24078
2026-01-29 03:08:29.95	18.24	19.71	-52.3	-65.6	3.8	7.44e-01	0	42	104	0	75	17450
2026-01-29 03:08:30.96	18.16	19.85	-46.8	-57.8	3.8	7.45e-01	0	41	104	0	64	13377
2026-01-29 03:08:31.97	18.08	19.99	-45.8	-56.7	3.8	7.47e-01	0	42	104	0	63	12465
2026-01-29 03:08:32.97	18.00	20.13	-45.6	-56.5	3.8	7.43e-01	0	42	104	0	63	12107
2026-01-29 03:08:33.98	17.91	20.28	-44.9	-55.7	3.8	7.43e-01	0	42	104	0	61	12442
2026-01-29 03:08:34.99	17.83	20.42	-44.4	-55.1	3.8	7.44e-01	0	42	104	0	60	12339
2026-01-29 03:08:35.99	17.74	20.56	-45.6	-56.5	3.8	7.46e-01	0	42	104	0	61	13616
2026-01-29 03:08:37.00	17.66	20.71	-53.9	-69.8	3.8	7.44e-01	0	42	104	0	78	23631
2026-01-29 03:08:38.00	17.57	20.85	-52.5	-65.9	3.8	7.48e-01	0	42	104	0	75	18062
2026-01-29 03:08:39.00	17.48	21.00	-46.8	-57.8	3.8	7.46e-01	0	42	104	0	64	13378
2026-01-29 03:08:40.01	17.39	21.14	-45.8	-56.7	3.8	7.44e-01	0	42	104	0	63	12501
2026-01-29 03:08:41.02	17.30	21.29	-45.8	-56.6	3.8	7.46e-01	0	42	104	0	63	12357
2026-01-29 03:08:42.03	17.21	21.44	-45.3	-56.1	3.8	7.47e-01	0	42	104	0	62	12284
2026-01-29 03:08:43.03	17.12	21.59	-45.6	-56.5	3.8	7.46e-01	0	42	104	0	62	12893
2026-01-29 03:08:44.04	17.03	21.74	-46.1	-57.0	3.8	7.46e-01	0	42	104	0	62	13713
2026-01-29 03:08:45.05	16.94	21.89	-54.0	-70.1	3.8	7.47e-01	0	42	104	0	78	24423
2026-01-29 03:08:46.06	16.84	22.05	-52.4	-65.9	3.8	7.44e-01	0	42	104	0	75	18060
2026-01-29 03:08:47.06	16.74	22.20	-47.0	-58.0	3.8	7.45e-01	0	42	104	0	64	13698
2026-01-29 03:08:48.07	16.65	22.36	-45.9	-56.8	3.8	7.41e-01	0	42	104	0	63	12520
2026-01-29 03:08:49.08	16.55	22.51	-45.4	-56.2	3.8	7.44e-01	0	42	104	0	62	12397
2026-01-29 03:08:50.08	16.45	22.67	-45.2	-56.0	3.8	7.45e-01	0	42	104	0	62	12104
2026-01-29 03:08:51.09	16.35	22.82	-46.5	-57.5	3.8	7.41e-01	0	42	104	0	63	13573
2026-01-29 03:08:52.10	16.25	22.98	-45.8	-56.7	3.8	7.44e-01	0	42	104	0	63	12378
2026-01-29 03:08:53.10	16.15	23.14	-54.0	-69.8	3.8	7.46e-01	0	42	104	0	78	23801
2026-01-29 03:08:54.11	16.04	23.30	-52.5	-66.0	3.8	7.42e-01	0	42	104	0	76	17222
2026-01-29 03:08:55.12	15.94	23.46	-46.7	-57.7	3.8	7.44e-01	0	42	104	0	64	13110
2026-01-29 03:08:56.13	15.83	23.63	-45.9	-56.9	3.8	7.47e-01	0	42	104	0	63	12726
2026-01-29 03:08:57.14	15.73	23.79	-45.6	-56.5	3.8	7.41e-01	0	42	104	0	63	12123
2026-01-29 03:08:58.14	15.62	23.95	-45.1	-55.9	3.8	7.45e-01	0	42	104	0	62	12073
2026-01-29 03:08:59.15	15.51	24.12	-44.9	-55.8	3.8	7.43e-01	0	42	104	0	61	12523
2026-01-29 03:09:00.17	15.40	24.29	-46.2	-57.2	3.8	7.44e-01	0	42	104	0	63	13226
2026-01-29 03:09:01.17	15.29	24.45	-54.0	-69.6	3.8	7.47e-01	0	42	104	0	78	23160
2026-01-29 03:09:02.18	15.17	24.62	-52.0	-65.1	3.9	7.47e-01	0	42	104	0	76	15493
2026-01-29 03:09:03.18	15.06	24.79	-46.5	-57.5	3.8	7.44e-01	0	42	104	0	63	13636
2026-01-29 03:09:04.19	14.94	24.96	-45.5	-56.4	3.8	7.46e-01	0	42	104	0	63	11973
2026-01-29 03:09:05.20	14.82	25.13	-44.9	-55.6	3.9	7.45e-01	0	42	104	0	61	12284
2026-01-29 03:09:06.21	14.70	25.31	-44.5	-55.2	3.9	7.42e-01	0	42	104	0	61	11770
2026-01-29 03:09:07.22	14.58	25.48	-44.8	-55.5	3.8	7.44e-01	0	42	104	0	60	12874
2026-01-29 03:09:08.23	14.46	25.65	-46.1	-57.0	3.8	7.44e-01	0	42	104	0	63	12881
2026-01-29 03:09:09.23	14.34	25.83	-53.9	-69.3	3.8	7.45e-01	0	42	104	0	78	22299
2026-01-29 03:09:10.24	14.22	26.01	-52.1	-65.2	3.9	7.43e-01	0	42	104	0	76	15612
2026-01-29 03:09:11.24	14.09	26.18	-46.3	-57.2	3.8	7.45e-01	0	42	104	0	63	13212
2026-01-29 03:09:12.25	13.96	26.36	-45.6	-56.5	3.8	7.46e-01	0	42	104	0	62	12815
2026-01-29 03:09:13.26	13.83	26.54	-45.5	-56.4	3.8	7.45e-01	0	42	104	0	62	12704
2026-01-29 03:09:14.27	13.70	26.73	-44.9	-55.7	3.8	7.45e-01	0	42	104	0	61	12467
2026-01-29 03:09:15.27	13.57	26.91	-45.2	-56.0	3.8	7.47e-01	0	42	104	0	61	12899
2026-01-29 03:09:16.28	13.44	27.09	-46.6	-57.5	3.8	7.47e-01	0	42	104	0	63	13619
2026-01-29 03:09:17.29	13.30	27.28	-53.6	-68.4	3.8	7.43e-01	0	42	104	0	78	20073
2026-01-29 03:09:18.29	13.16	27.46	-50.8	-62.7	3.8	7.43e-01	0	42	104	0	73	13967
2026-01-29 03:09:19.29	13.03	27.65	-45.7	-56.5	3.8	7.43e-01	0	42	104	0	62	12890
2026-01-29 03:09:20.30	12.89	27.84	-44.8	-55.6	3.8	7.45e-01	0	42	104	0	61	12289
2026-01-29 03:09:21.30	12.74	28.03	-44.4	-55.1	3.8	7.43e-01	0	42	104	0	60	12354
2026-01-29 03:09:22.31	12.60	28.22	-44.2	-55.0	3.8	7.47e-01	0	42	104	0	60	12113
2026-01-29 03:09:23.32	12.45	28.41	-45.2	-56.0	3.8	7.43e-01	0	42	104	0	60	13615
2026-01-29 03:09:24.32	12.31	28.60	-46.4	-57.3	3.8	7.45e-01	0	42	104	0	64	12574
2026-01-29 03:09:25.33	12.16	28.80	-53.5	-67.9	3.8	7.44e-01	0	42	104	0	78	19128
2026-01-29 03:09:26.34	12.00	28.99	-50.9	-63.1	3.8	7.45e-01	0	42	104	0	74	13824
2026-01-29 03:09:27.35	11.85	29.19	-45.2	-56.0	3.8	7.46e-01	0	42	104	0	61	12838
2026-01-29 03:09:28.35	11.70	29.39	-45.2	-55.9	3.8	7.41e-01	0	42	104	0	61	12775
2026-01-29 03:09:29.37	11.54	29.59	-44.9	-55.7	3.8	7.47e-01	0	42	104	0	61	12448
2026-01-29 03:09:30.38	11.38	29.79	-44.1	-54.9	3.8	7.48e-01	0	42	104	0	60	12011
2026-01-29 03:09:31.38	11.21	29.99	-44.6	-55.3	3.8	7.43e-01	0	42	104	0	59	13338
2026-01-29 03:09:32.39	11.05	30.20	-48.6	-59.9	3.8	7.41e-01	0	42	104	0	69	12794
2026-01-29 03:09:33.39	10.88	30.40	-51.3	-63.6	3.8	7.42e-01	0	42	104	0	74	14599
2026-01-29 03:09:34.40	10.72	30.61	-47.0	-57.9	3.8	7.45e-01	0	42	104	0	64	13468
2026-01-29 03:09:35.41	10.54	30.82	-53.0	-67.0	3.9	7.46e-01	0	42	104	0	78	17102
2026-01-29 03:09:36.42	10.37	31.02	-46.2	-57.1	3.8	7.42e-01	0	42	104	0	64	12297
2026-01-29 03:09:37.43	10.19	31.24	-46.3	-57.2	3.8	7.44e-01	0	42	104	0	64	12487
2026-01-29 03:09:38.43	10.02	31.45	-48.7	-59.9	3.8	7.43e-01	0	42	104	0	67	14287
2026-01-29 03:09:39.44	9.84	31.66	-51.8	-64.4	3.8	7.42e-01	0	42	104	0	75	15140
2026-01-29 03:09:40.44	9.65	31.87	-47.7	-58.6	3.8	7.45e-01	0	42	104	0	65	13847
2026-01-29 03:09:41.45	9.47	32.09	-52.0	-64.8	3.8	7.45e-01	0	42	104	0	76	14952
2026-01-29 03:09:42.46	9.28	32.30	-47.2	-58.1	3.8	7.43e-01	0	42	104	0	66	12363
2026-01-29 03:09:43.47	9.09	32.52	-44.9	-55.7	3.8	7.43e-01	0	42	104	0	61	12453
2026-01-29 03:09:44.47	8.90	32.74	-44.9	-55.7	3.8	7.44e-01	0	42	104	0	61	12443
2026-01-29 03:09:45.47	8.70	32.96	-44.3	-55.0	3.8	7.44e-01	0	42	104	0	60	12197
2026-01-29 03:09:46.48	8.50	33.18	-44.1	-54.8	3.8	7.42e-01	0	42	104	0	60	11947
2026-01-29 03:09:47.49	8.30	33.41	-45.1	-55.9	3.8	7.45e-01	0	42	104	0	60	13481
2026-01-29 03:09:48.49	8.09	33.63	-50.4	-62.4	3.8	7.45e-01	0	42	104	0	71	15055
2026-01-29 03:09:49.50	7.89	33.86	-50.0	-61.9	3.9	7.48e-01	0	42	104	0	72	13456
2026-01-29 03:09:50.50	7.68	34.08	-48.9	-60.4	3.8	7.43e-01	0	42	104	0	68	14294
2026-01-29 03:09:51.51	7.46	34.31	-50.3	-62.6	3.9	7.41e-01	0	42	104	0	73	13768
2026-01-29 03:09:52.52	7.24	34.54	-45.4	-56.2	3.8	7.42e-01	0	42	104	0	62	12400
2026-01-29 03:09:53.53	7.02	34.77	-45.4	-56.3	3.8	7.44e-01	0	42	104	0	62	12566
2026-01-29 03:09:54.53	6.80	35.01	-49.3	-60.7	3.8	7.44e-01	0	42	104	0	68	14756
2026-01-29 03:09:55.54	6.57	35.24	-51.5	-64.0	3.9	7.41e-01	0	42	104	0	75	14383
2026-01-29 03:09:56.54	6.34	35.47	-50.7	-62.5	3.8	7.46e-01	0	42	104	0	71	15282
2026-01-29 03:09:57.55	6.11	35.71	-52.7	-65.9	3.9	7.44e-01	0	42	104	0	77	15984
2026-01-29 03:09:58.56	5.87	35.95	-47.4	-58.1	3.8	7.45e-01	0	42	104	0	66	12329
2026-01-29 03:09:59.57	5.63	36.19	-46.6	-57.5	3.8	7.46e-01	0	42	104	0	65	12154
2026-01-29 03:10:00.57	5.39	36.43	-46.9	-57.8	3.8	7.44e-01	0	42	104	0	65	12649
2026-01-29 03:10:01.58	5.14	36.67	-47.5	-58.7	3.8	7.42e-01	0	42	104	0	65	14007
2026-01-29 03:10:02.59	4.88	36.92	-47.8	-59.1	3.8	7.45e-01	0	42	104	0	66	13757
2026-01-29 03:10:03.60	4.63	37.16	-49.0	-60.3	3.8	7.43e-01	0	42	104	0	68	14143
2026-01-29 03:10:04.60	4.37	37.41	-52.6	-65.5	3.8	7.47e-01	0	42	104	0	75	17120
2026-01-29 03:10:05.61	4.10	37.65	-50.0	-61.7	3.8	7.43e-01	0	42	104	0	72	13163
2026-01-29 03:10:06.61	3.83	37.90	-53.0	-66.3	3.8	7.44e-01	0	42	104	0	76	17881
2026-01-29 03:10:07.62	3.56	38.15	-49.8	-61.3	3.8	7.44e-01	0	42	104	0	71	13293
2026-01-29 03:10:08.63	3.28	38.40	-47.3	-58.3	3.8	7.47e-01	0	42	104	0	66	12578
2026-01-29 03:10:09.64	3.00	38.65	-46.8	-57.7	3.8	7.42e-01	0	42	104	0	65	12400
2026-01-29 03:10:10.65	2.71	38.91	-52.3	-65.4	3.8	7.46e-01	0	42	104	0	75	16920
2026-01-29 03:10:11.66	2.42	39.16	-51.1	-63.3	3.9	7.44e-01	0	42	104	0	74	14126
2026-01-29 03:10:12.67	2.12	39.42	-53.8	-68.1	3.8	7.40e-01	0	42	104	0	78	19565
2026-01-29 03:10:13.68	1.82	39.68	-53.7	-67.7	3.8	7.44e-01	0	42	104	0	78	18687
2026-01-29 03:10:14.68	1.52	39.93	-46.8	-57.7	3.8	7.44e-01	0	42	104	0	65	12395
2026-01-29 03:10:15.69	1.20	40.19	-46.5	-57.4	3.8	7.44e-01	0	42	104	0	64	12799
2026-01-29 03:10:16.69	0.89	40.45	-46.5	-57.4	3.8	7.46e-01	0	42	104	0	64	12672
2026-01-29 03:10:17.70	0.57	40.71	-46.3	-57.1	3.8	7.45e-01	0	42	104	0	64	12275
2026-01-29 03:10:18.71	0.24	40.98	-47.7	-58.7	3.8	7.46e-01	0	42	104	0	65	13980
2026-01-29 03:10:19.72	359.91	41.24	-48.5	-59.7	3.8	7.42e-01	0	42	104	0	67	13992
2026-01-29 03:10:20.73	359.57	41.50	-53.4	-67.2	3.8	7.45e-01	0	42	104	0	77	18556
2026-01-29 03:10:21.74	359.22	41.77	-48.1	-59.2	3.8	7.44e-01	0	42	104	0	68	12494
2026-01-29 03:10:22.75	358.87	42.03	-54.8	-71.2	3.7	7.45e-01	0	42	104	0	80	24766
2026-01-29 03:10:23.76	358.52	42.30	-46.9	-57.5	3.8	7.48e-01	0	42	104	0	65	12227
2026-01-29 03:10:24.75	358.16	42.56	-46.1	-57.1	3.8	7.45e-01	0	42	104	0	64	12286
2026-01-29 03:10:25.76	357.79	42.83	-46.0	-56.8	3.8	7.47e-01	0	42	104	0	63	12663
2026-01-29 03:10:26.77	357.42	43.10	-53.5	-67.2	3.8	7.44e-01	0	42	104	0	77	18594
2026-01-29 03:10:27.78	357.04	43.37	-48.7	-60.0	3.8	7.45e-01	0	42	104	0	68	13628
2026-01-29 03:10:28.78	356.65	43.64	-53.6	-67.6	3.8	7.45e-01	0	42	104	0	77	19424
2026-01-29 03:10:29.79	356.26	43.91	-47.1	-58.1	3.9	7.46e-01	0	42	104	0	66	12320
2026-01-29 03:10:30.80	355.85	44.18	-54.7	-70.6	3.7	7.44e-01	0	42	104	0	79	24692
2026-01-29 03:10:31.81	355.45	44.45	-46.2	-56.9	3.8	7.42e-01	0	42	104	0	64	12072
2026-01-29 03:10:32.81	355.03	44.72	-46.0	-56.9	3.8	7.44e-01	0	42	104	0	63	12665
2026-01-29 03:10:33.82	354.61	44.99	-46.0	-56.9	3.8	7.43e-01	0	42	104	0	63	12714
2026-01-29 03:10:34.83	354.18	45.27	-53.8	-67.8	3.8	7.48e-01	0	42	104	0	77	19963
2026-01-29 03:10:35.83	353.74	45.54	-51.4	-63.5	3.9	7.45e-01	0	42	104	0	74	14536
2026-01-29 03:10:36.84	353.30	45.81	-53.5	-67.2	3.8	7.44e-01	0	42	104	0	77	18673
2026-01-29 03:10:37.85	352.84	46.08	-54.4	-69.3	3.8	7.46e-01	0	42	104	0	79	21196
2026-01-29 03:10:38.85	352.39	46.35	-45.8	-56.5	3.8	7.46e-01	0	42	104	0	63	12213
2026-01-29 03:10:39.86	351.92	46.62	-45.8	-56.5	3.8	7.44e-01	0	42	104	0	63	12233
2026-01-29 03:10:40.87	351.44	46.90	-45.6	-56.4	3.8	7.43e-01	0	42	104	0	63	12030
2026-01-29 03:10:41.87	350.95	47.17	-45.3	-56.1	3.8	7.44e-01	0	42	104	0	62	12321
2026-01-29 03:10:42.88	350.46	47.44	-47.9	-59.0	3.8	7.41e-01	0	42	104	0	66	13636
2026-01-29 03:10:43.89	349.95	47.71	-48.9	-60.2	3.8	7.46e-01	0	42	104	0	68	13910
2026-01-29 03:10:44.90	349.44	47.98	-54.3	-69.1	3.8	7.45e-01	0	42	104	0	79	20551
2026-01-29 03:10:45.91	348.91	48.25	-47.2	-58.1	3.9	7.45e-01	0	42	104	0	66	12313
2026-01-29 03:10:46.92	348.38	48.52	-54.6	-70.1	3.8	7.46e-01	0	42	104	0	79	23085
2026-01-29 03:10:47.93	347.84	48.78	-46.6	-57.5	3.8	7.46e-01	0	42	104	0	65	12116
2026-01-29 03:10:48.94	347.29	49.05	-46.6	-57.5	3.8	7.46e-01	0	42	104	0	64	12912
2026-01-29 03:10:49.94	346.73	49.31	-46.5	-57.3	3.8	7.44e-01	0	42	104	0	64	12590
2026-01-29 03:10:50.95	346.16	49.58	-54.2	-68.8	3.8	7.45e-01	0	42	104	0	78	21196
2026-01-29 03:10:51.96	345.58	49.84	-51.0	-63.1	3.8	7.41e-01	0	42	104	0	74	13753
2026-01-29 03:10:52.97	344.99	50.10	-53.6	-67.3	3.8	7.44e-01	0	42	104	0	77	18902
2026-01-29 03:10:53.98	344.38	50.36	-54.7	-70.1	3.8	7.46e-01	0	42	104	0	79	23154
2026-01-29 03:10:54.98	343.78	50.61	-46.6	-57.5	3.8	7.45e-01	0	42	104	0	65	12183
2026-01-29 03:10:55.98	343.16	50.86	-46.0	-56.8	3.8	7.44e-01	0	42	104	0	64	11830
2026-01-29 03:10:56.99	342.53	51.12	-46.1	-56.9	3.8	7.44e-01	0	42	104	0	63	12808
2026-01-29 03:10:58.00	341.88	51.37	-45.9	-56.7	3.8	7.45e-01	0	42	104	0	63	12475
2026-01-29 03:10:59.01	341.23	51.62	-47.8	-58.9	3.8	7.42e-01	0	42	104	0	66	13524
2026-01-29 03:11:00.01	340.56	51.86	-48.3	-59.5	3.9	7.45e-01	0	42	104	0	67	13620
2026-01-29 03:11:01.01	339.89	52.10	-54.3	-68.9	3.8	7.47e-01	0	42	104	0	79	20270
2026-01-29 03:11:02.02	339.20	52.34	-46.5	-57.4	3.8	7.43e-01	0	42	104	0	65	11964
2026-01-29 03:11:03.03	338.50	52.58	-54.3	-69.1	3.8	7.44e-01	0	42	104	0	79	20597
2026-01-29 03:11:04.03	337.80	52.81	-45.8	-56.6	3.8	7.44e-01	0	42	104	0	63	12251
2026-01-29 03:11:05.04	337.07	53.04	-45.6	-56.4	3.8	7.43e-01	0	42	104	0	63	12079
2026-01-29 03:11:06.05	336.34	53.26	-45.0	-55.7	3.8	7.44e-01	0	42	104	0	62	11727
2026-01-29 03:11:07.05	335.60	53.48	-52.7	-65.8	3.8	7.43e-01	0	42	104	0	77	15887
2026-01-29 03:11:08.06	334.84	53.70	-48.1	-59.2	3.8	7.46e-01	0	42	104	0	67	13169
2026-01-29 03:11:09.06	334.08	53.91	-54.2	-68.8	3.8	7.43e-01	0	42	104	0	79	19908
2026-01-29 03:11:10.07	333.30	54.12	-46.2	-57.2	3.9	7.45e-01	0	42	104	0	64	12405
2026-01-29 03:11:11.08	332.51	54.33	-54.3	-68.9	3.8	7.41e-01	0	42	104	0	79	20083
2026-01-29 03:11:12.09	331.70	54.53	-46.1	-56.8	3.8	7.47e-01	0	42	104	0	64	11944
2026-01-29 03:11:13.09	330.89	54.72	-45.9	-56.9	3.8	7.44e-01	0	42	104	0	63	12740
2026-01-29 03:11:14.10	330.07	54.91	-46.2	-57.0	3.8	7.46e-01	0	42	104	0	63	12893
2026-01-29 03:11:15.10	329.24	55.10	-54.0	-68.1	3.8	7.43e-01	0	42	104	0	79	18505
2026-01-29 03:11:16.11	328.39	55.28	-48.3	-59.5	3.8	7.46e-01	0	42	104	0	68	12854
2026-01-29 03:11:17.12	327.53	55.45	-54.4	-69.3	3.8	7.42e-01	0	42	104	0	79	21152
2026-01-29 03:11:18.12	326.67	55.62	-46.5	-57.3	3.8	7.46e-01	0	42	104	0	65	11909
2026-01-29 03:11:19.13	325.79	55.78	-54.2	-68.5	3.8	7.45e-01	0	42	104	0	78	20530
2026-01-29 03:11:20.14	324.90	55.94	-46.7	-57.5	3.8	7.43e-01	0	42	104	0	65	12209
2026-01-29 03:11:21.15	323.99	56.09	-46.3	-57.1	3.8	7.43e-01	0	42	104	0	64	12278
2026-01-29 03:11:22.15	323.09	56.23	-46.8	-57.8	3.8	7.50e-01	0	42	104	0	64	13336
2026-01-29 03:11:23.15	322.18	56.37	-53.8	-67.7	3.9	7.44e-01	0	42	104	0	79	17677
2026-01-29 03:11:24.16	321.25	56.50	-48.9	-60.1	3.8	7.47e-01	0	42	104	0	69	13033
2026-01-29 03:11:25.17	320.32	56.62	-54.3	-69.1	3.9	7.43e-01	0	42	104	0	80	19528
2026-01-29 03:11:26.17	319.38	56.73	-45.9	-47.8	5.3	7.04e-01	35	42	104	0	63	4453
2026-01-29 03:11:27.18	318.43	56.84	-54.5	-61.9	10.5	6.18e-01	0	42	0	1048576	79	8997
2026-01-29 03:11:28.19	317.47	56.94	-46.7	-48.0	24.2	6.05e-01	0	42	0	2621440	64	4321
2026-01-29 03:11:29.20	316.50	57.04	-46.9	-48.3	23.9	6.04e-01	0	42	0	4718592	64	4447
2026-01-29 03:11:30.21	315.52	57.12	-46.0	-47.3	25.0	6.01e-01	0	42	0	6815744	63	4212
2026-01-29 03:11:31.22	314.54	57.20	-46.0	-47.3	25.0	6.02e-01	0	42	0	8388608	63	4217
2026-01-29 03:11:32.23	313.56	57.27	-45.6	-46.8	25.4	6.05e-01	0	42	0	10485760	63	4000
2026-01-29 03:11:33.23	312.58	57.33	-45.6	-46.8	25.5	6.00e-01	0	42	0	12058624	62	4225
2026-01-29 03:11:34.24	311.58	57.39	-45.6	-46.8	25.4	6.02e-01	0	42	0	14155776	62	4230
2026-01-29 03:11:35.25	310.59	57.43	-45.6	-46.8	25.5	6.01e-01	0	42	0	15728640	62	4241
2026-01-29 03:11:36.25	309.59	57.47	-46.0	-47.2	25.1	6.05e-01	0	42	0	17825792	62	4436
2026-01-29 03:11:37.26	308.59	57.50	-45.6	-46.9	25.4	6.03e-01	0	42	0	19922944	62	4248
2026-01-29 03:11:38.26	307.59	57.52	-45.9	-47.1	25.2	6.02e-01	0	42	0	21495808	62	4380
2026-01-29 03:11:39.27	306.59	57.53	-46.1	-47.4	25.0	6.04e-01	0	42	0	23592960	62	4500
2026-01-29 03:11:40.28	305.58	57.54	-45.8	-47.1	25.2	6.04e-01	0	42	0	25690112	62	4357
2026-01-29 03:11:41.28	304.58	57.53	-45.7	-46.9	25.4	6.04e-01	0	42	0	27262976	62	4263
2026-01-29 03:11:42.29	303.57	57.52	-45.9	-47.1	25.2	6.04e-01	0	42	0	29360128	62	4376
2026-01-29 03:11:43.30	302.57	57.50	-45.9	-47.1	25.1	6.00e-01	0	42	0	30932992	62	4379
2026-01-29 03:11:44.31	301.56	57.47	-45.7	-46.9	25.4	6.04e-01	0	42	0	33030144	62	4255
2026-01-29 03:11:45.32	300.56	57.43	-45.8	-47.1	25.2	6.03e-01	0	42	0	35127296	62	4355
2026-01-29 03:11:46.32	299.57	57.39	-45.9	-47.2	25.1	6.03e-01	0	42	0	36700160	62	4416
2026-01-29 03:11:47.33	298.58	57.34	-46.0	-47.3	24.9	6.06e-01	0	42	0	38797312	62	4460
2026-01-29 03:11:48.34	297.59	57.27	-45.7	-46.9	25.4	6.03e-01	0	42	0	40370176	62	4275
2026-01-29 03:11:49.34	296.61	57.21	-45.6	-46.8	25.5	6.00e-01	0	42	0	42467328	62	4229
2026-01-29 03:11:50.35	295.63	57.13	-46.0	-47.3	25.1	6.02e-01	0	42	0	44564480	62	4459
2026-01-29 03:11:51.36	294.65	57.04	-45.9	-47.2	25.1	6.00e-01	0	42	0	46137344	62	4393
2026-01-29 03:11:52.36	293.70	56.95	-45.3	-46.4	25.8	6.02e-01	0	42	0	48234496	62	4041
2026-01-29 03:11:53.37	292.73	56.85	-46.1	-47.4	25.0	6.05e-01	0	42	0	49807360	62	4508
2026-01-29 03:11:54.38	291.78	56.74	-46.0	-47.2	25.2	6.05e-01	0	42	0	51904512	63	4179
2026-01-29 03:11:55.39	290.83	56.63	-45.3	-46.5	25.8	6.03e-01	0	42	0	54001664	62	4091
2026-01-29 03:11:56.39	289.90	56.51	-45.9	-47.2	25.2	6.06e-01	0	42	0	55574528	62	4423
2026-01-29 03:11:57.39	288.98	56.38	-46.2	-47.5	24.9	6.03e-01	0	42	0	57671680	63	4316
2026-01-29 03:11:58.40	288.06	56.24	-45.2	-46.4	25.9	6.02e-01	0	42	0	59244544	62	4023
2026-01-29 03:11:59.41	287.15	56.10	-45.4	-46.6	25.8	6.04e-01	0	42	0	61341696	62	4102
2026-01-29 03:12:00.42	286.25	55.95	-45.9	-47.2	25.1	6.04e-01	0	42	0	63438848	62	4430
2026-01-29 03:12:01.43	285.35	55.79	-45.1	-46.2	26.0	6.04e-01	0	42	0	65011712	62	3941
2026-01-29 03:12:02.44	284.47	55.63	-44.8	-45.9	26.3	6.03e-01	0	42	0	67108864	61	4044
2026-01-29 03:12:03.44	283.61	55.46	-45.2	-46.5	25.9	6.02e-01	0	42	0	68681728	61	4292
2026-01-29 03:12:04.45	282.75	55.29	-45.4	-46.6	25.6	6.04e-01	0	42	0	70778880	61	4388
2026-01-29 03:12:05.46	281.90	55.11	-44.7	-45.8	26.4	6.03e-01	0	42	0	72876032	61	3985
2026-01-29 03:12:06.47	281.06	54.92	-44.6	-45.8	26.5	6.01e-01	0	42	0	74448896	61	3959
2026-01-29 03:12:07.48	280.23	54.73	-45.1	-46.4	25.9	6.04e-01	0	42	0	76546048	61	4247
2026-01-29 03:12:08.48	279.42	54.54	-45.3	-46.5	25.7	6.04e-01	0	42	0	78118912	61	4295
2026-01-29 03:12:09.49	278.61	54.34	-44.9	-46.1	26.0	6.03e-01	0	42	0	80216064	61	4115
2026-01-29 03:12:10.50	277.82	54.13	-44.3	-45.4	26.7	6.03e-01	0	42	0	82313216	60	4033
2026-01-29 03:12:11.51	277.04	53.92	-44.4	-45.5	26.6	6.03e-01	0	42	0	83886080	60	4097
2026-01-29 03:12:12.51	276.27	53.71	-45.0	-46.2	26.1	6.04e-01	0	42	0	85983232	60	4411
2026-01-29 03:12:13.52	275.51	53.49	-44.5	-45.6	26.4	6.04e-01	0	42	0	87556096	60	4131
2026-01-29 03:12:14.53	274.77	53.27	-44.3	-45.4	26.5	6.03e-01	0	42	0	89653248	59	4257
2026-01-29 03:12:15.54	274.03	53.04	-44.5	-45.6	26.4	6.04e-01	0	42	0	91750400	60	4142
2026-01-29 03:12:16.54	273.31	52.82	-44.0	-45.1	27.1	6.02e-01	0	42	0	93323264	60	3881
2026-01-29 03:12:17.55	272.60	52.58	-44.3	-45.4	26.7	6.02e-01	0	42	0	95420416	60	4039
2026-01-29 03:12:18.56	271.89	52.35	-44.3	-45.4	26.5	6.01e-01	0	42	0	97517568	59	4267
2026-01-29 03:12:19.57	271.20	52.11	-44.5	-45.7	26.3	6.01e-01	0	42	0	99090432	60	4167
2026-01-29 03:12:20.57	270.53	51.87	-44.6	-45.7	26.2	6.05e-01	0	42	0	101187584	60	4188
2026-01-29 03:12:21.58	269.86	51.62	-43.9	-45.0	26.9	6.04e-01	0	42	0	102760448	59	4053
2026-01-29 03:12:22.59	269.20	51.37	-44.3	-45.4	26.6	6.04e-01	0	42	0	104857600	59	4260
2026-01-29 03:12:23.59	268.56	51.12	-44.1	-45.2	26.7	6.02e-01	0	42	0	106430464	59	4176
2026-01-29 03:12:24.60	267.93	50.87	-44.4	-45.5	26.5	6.00e-01	0	42	0	108527616	59	4304
2026-01-29 03:12:25.61	267.30	50.61	-44.4	-45.6	26.5	6.03e-01	0	42	0	110624768	59	4352
2026-01-29 03:12:26.61	266.70	50.36	-44.4	-45.5	26.4	6.01e-01	0	42	0	112197632	59	4318
2026-01-29 03:12:27.62	266.09	50.10	-44.5	-45.6	26.4	6.03e-01	0	42	0	114294784	59	4371
2026-01-29 03:12:28.63	265.50	49.84	-44.4	-45.6	26.3	6.02e-01	0	42	0	115867648	59	4344
2026-01-29 03:12:29.64	264.92	49.58	-44.5	-45.6	26.3	6.03e-01	0	42	0	117964800	60	4124
2026-01-29 03:12:30.64	264.35	49.31	-44.0	-45.0	26.9	6.03e-01	0	42	0	120061952	60	3856
2026-01-29 03:12:31.65	263.79	49.05	-44.6	-45.8	26.2	6.03e-01	0	42	0	121634816	59	4463
2026-01-29 03:12:32.66	263.23	48.78	-44.8	-45.9	26.2	6.03e-01	0	42	0	123731968	60	4284
2026-01-29 03:12:33.67	262.69	48.51	-44.6	-45.7	26.2	6.02e-01	0	42	0	125829120	60	4186
2026-01-29 03:12:34.68	262.16	48.25	-44.5	-45.6	26.4	6.03e-01	0	42	0	127401984	60	4131
2026-01-29 03:12:35.69	261.63	47.98	-44.4	-45.5	26.5	6.02e-01	0	42	0	129499136	60	4074
2026-01-29 03:12:36.69	261.12	47.71	-44.3	-45.4	26.7	6.02e-01	0	42	0	131072000	60	4047
2026-01-29 03:12:37.70	260.61	47.44	-44.5	-45.7	26.4	6.03e-01	0	42	0	133169152	60	4153
2026-01-29 03:12:38.71	260.12	47.16	-44.8	-46.0	26.1	6.01e-01	0	42	0	134742016	60	4314
2026-01-29 03:12:39.71	259.63	46.89	-44.4	-45.5	26.3	6.01e-01	0	42	0	136839168	60	4095
2026-01-29 03:12:40.71	259.16	46.62	-44.2	-45.3	26.6	6.06e-01	0	42	0	138936320	59	4196
2026-01-29 03:12:41.72	258.69	46.35	-44.3	-45.4	26.5	6.01e-01	0	42	0	140509184	59	4283
2026-01-29 03:12:42.73	258.22	46.08	-45.0	-46.1	26.0	6.03e-01	0	42	0	142606336	60	4387
2026-01-29 03:12:43.74	257.77	45.81	-44.9	-46.1	26.0	6.04e-01	0	42	0	144179200	60	4342
2026-01-29 03:12:44.74	257.32	45.53	-44.3	-45.4	26.7	6.03e-01	0	42	0	146276352	60	4015
2026-01-29 03:12:45.75	256.88	45.26	-44.0	-45.1	26.8	6.01e-01	0	42	0	148373504	59	4107
2026-01-29 03:12:46.75	256.46	44.99	-44.1	-45.2	26.6	6.04e-01	0	42	0	149946368	59	4178
2026-01-29 03:12:47.76	256.03	44.72	-44.7	-45.9	26.2	6.02e-01	0	42	0	152043520	60	4269
2026-01-29 03:12:48.76	255.62	44.45	-44.8	-45.9	26.2	6.03e-01	0	42	0	154140672	60	4268
2026-01-29 03:12:49.77	255.21	44.18	-44.8	-46.0	25.9	6.02e-01	0	42	0	155713536	60	4315
2026-01-29 03:12:50.78	254.80	43.90	-44.8	-46.0	26.1	6.03e-01	0	42	0	157810688	60	4303
2026-01-29 03:12:51.79	254.41	43.63	-44.5	-45.6	26.4	6.03e-01	0	42	0	159383552	60	4143
2026-01-29 03:12:52.80	254.02	43.36	-44.8	-46.0	26.1	6.03e-01	0	42	0	161480704	60	4306
2026-01-29 03:12:53.81	253.64	43.09	-44.7	-45.9	26.1	6.02e-01	0	42	0	163577856	60	4264
2026-01-29 03:12:54.81	253.26	42.82	-45.1	-46.3	25.8	5.99e-01	0	42	0	165150720	60	4447
2026-01-29 03:12:55.82	252.89	42.55	-45.0	-46.2	25.9	6.04e-01	0	42	0	167247872	61	4164
2026-01-29 03:12:56.83	252.53	42.29	-45.3	-46.6	25.6	6.03e-01	0	42	0	168820736	61	4358
2026-01-29 03:12:57.83	252.18	42.02	-45.3	-46.5	25.5	6.02e-01	0	42	0	170917888	61	4318
2026-01-29 03:12:58.85	251.82	41.75	-45.2	-46.4	25.6	6.02e-01	0	42	0	172490752	61	4279
2026-01-29 03:12:59.85	251.48	41.49	-45.6	-46.9	25.2	6.03e-01	0	42	0	174587904	61	4519
2026-01-29 03:13:00.86	251.14	41.22	-46.1	-47.5	24.7	6.01e-01	0	42	0	176685056	62	4547
2026-01-29 03:13:01.87	250.81	40.96	-46.1	-47.4	24.6	6.05e-01	0	42	0	178257920	63	4274
2026-01-29 03:13:02.88	250.48	40.69	-45.8	-47.1	25.0	6.04e-01	0	42	0	180355072	63	4121
2026-01-29 03:13:03.89	250.15	40.43	-46.0	-47.3	24.9	6.03e-01	0	42	0	182452224	63	4219
2026-01-29 03:13:04.89	249.84	40.17	-46.3	-47.6	24.6	6.02e-01	0	42	0	184025088	63	4378
2026-01-29 03:13:05.90	249.53	39.91	-46.3	-47.6	24.4	6.03e-01	0	42	0	186122240	63	4377
2026-01-29 03:13:06.91	249.22	39.65	-46.3	-47.6	24.6	6.01e-01	0	42	0	187695104	63	4380
2026-01-29 03:13:07.92	248.92	39.40	-46.6	-47.9	24.1	6.04e-01	0	42	0	189792256	63	4535
2026-01-29 03:13:08.93	248.62	39.14	-47.0	-48.5	23.6	6.01e-01	0	42	0	191365120	64	4590
2026-01-29 03:13:09.93	248.33	38.89	-46.6	-48.0	24.1	6.06e-01	0	42	0	193462272	64	4296
2026-01-29 03:13:10.93	248.04	38.63	-46.1	-47.4	24.6	6.02e-01	0	42	0	195559424	64	4037
2026-01-29 03:13:11.94	247.76	38.38	-46.2	-47.5	24.7	6.01e-01	0	42	0	197132288	63	4295
2026-01-29 03:13:12.95	247.48	38.13	-46.3	-47.7	24.5	6.04e-01	0	42	0	199229440	63	4405
2026-01-29 03:13:13.95	247.21	37.88	-46.3	-47.7	24.4	6.02e-01	0	42	0	201326592	63	4412
2026-01-29 03:13:14.96	246.94	37.63	-46.4	-47.8	24.3	6.03e-01	0	42	0	202899456	63	4458
2026-01-29 03:13:15.96	246.68	37.38	-46.5	-47.8	24.3	6.02e-01	0	42	0	204996608	63	4492
2026-01-29 03:13:16.97	246.41	37.14	-46.6	-47.9	24.1	6.03e-01	0	42	0	206569472	63	4545
2026-01-29 03:13:17.98	246.15	36.89	-46.5	-47.9	24.3	6.04e-01	0	42	0	208666624	63	4511
2026-01-29 03:13:18.99	245.90	36.64	-46.1	-47.4	24.6	6.01e-01	0	42	0	210763776	63	4285
2026-01-29 03:13:19.99	245.65	36.40	-46.1	-47.4	24.6	6.06e-01	0	42	0	212336640	63	4291
2026-01-29 03:13:21.00	245.41	36.16	-46.2	-47.5	24.6	6.01e-01	0	42	0	214433792	63	4339
2026-01-29 03:13:22.01	245.16	35.92	-45.8	-47.1	24.9	6.02e-01	0	42	0	216006656	63	4121
2026-01-29 03:13:23.02	244.93	35.68	-45.7	-47.0	25.1	6.02e-01	0	42	0	218103808	63	4063
2026-01-29 03:13:24.02	244.69	35.45	-45.8	-47.0	25.0	6.02e-01	0	42	0	220200960	63	4085
2026-01-29 03:13:25.03	244.46	35.21	-46.1	-47.5	24.5	6.02e-01	0	42	0	221773824	63	4323
2026-01-29 03:13:26.04	244.23	34.97	-46.0	-47.3	24.7	6.03e-01	0	42	0	223870976	63	4214
2026-01-29 03:13:27.05	244.01	34.74	-45.8	-47.1	24.9	6.02e-01	0	42	0	225443840	63	4123
2026-01-29 03:13:28.05	243.79	34.51	-45.4	-46.7	25.2	6.02e-01	0	42	0	227540992	62	4154
2026-01-29 03:13:29.06	243.57	34.28	-45.3	-46.6	25.4	6.02e-01	0	42	0	229638144	62	4105
2026-01-29 03:13:30.07	243.35	34.05	-45.3	-46.6	25.3	6.02e-01	0	42	0	231211008	62	4105
2026-01-29 03:13:31.08	243.14	33.82	-45.4	-46.7	25.3	6.04e-01	0	42	0	233308160	62	4181
2026-01-29 03:13:32.08	242.93	33.59	-45.3	-46.5	25.3	6.02e-01	0	42	0	234881024	62	4091
2026-01-29 03:13:33.09	242.73	33.37	-45.2	-46.4	25.5	6.03e-01	0	42	0	236978176	62	4010
2026-01-29 03:13:34.10	242.52	33.14	-45.1	-46.3	25.6	6.05e-01	0	42	0	239075328	61	4204
2026-01-29 03:13:35.11	242.32	32.92	-45.4	-46.6	25.3	6.05e-01	0	42	0	240648192	61	4387
2026-01-29 03:13:36.11	242.13	32.70	-45.3	-46.5	25.4	6.03e-01	0	42	0	242745344	61	4340
2026-01-29 03:13:37.12	241.93	32.48	-45.3	-46.5	25.4	6.03e-01	0	42	0	244318208	61	4321
2026-01-29 03:13:38.13	241.74	32.26	-44.8	-46.0	25.9	6.03e-01	0	42	0	246415360	61	4086
2026-01-29 03:13:39.14	241.55	32.04	-44.7	-45.9	26.0	6.04e-01	0	42	0	247988224	61	4021
2026-01-29 03:13:40.14	241.37	31.83	-44.8	-46.0	25.8	6.05e-01	0	42	0	250085376	61	4081
2026-01-29 03:13:41.14	241.19	31.61	-44.5	-45.7	26.0	6.03e-01	0	42	0	252182528	61	3930
2026-01-29 03:13:42.15	241.00	31.40	-44.3	-45.5	26.3	6.02e-01	0	42	0	254279680	60	4073
2026-01-29 03:13:43.16	240.83	31.19	-44.4	-45.6	26.2	6.01e-01	0	42	0	255852544	60	4101
2026-01-29 03:13:44.17	240.65	30.98	-44.4	-45.5	26.3	6.03e-01	0	42	0	257949696	60	4078
2026-01-29 03:13:45.17	240.48	30.77	-44.3	-45.5	26.3	6.03e-01	0	42	0	259522560	60	4066
2026-01-29 03:13:46.18	240.30	30.56	-44.3	-45.4	26.3	6.01e-01	0	42	0	261619712	60	4044
2026-01-29 03:13:47.19	240.13	30.35	-44.2	-45.4	26.4	6.03e-01	0	42	0	263192576	60	4006
2026-01-29 03:13:48.19	239.97	30.15	-44.2	-45.4	26.4	6.00e-01	0	42	0	265289728	60	4008
2026-01-29 03:13:49.19	239.80	29.95	-44.4	-45.6	26.2	6.03e-01	0	42	0	267386880	60	4104
2026-01-29 03:13:50.20	239.64	29.74	-44.4	-45.6	26.1	6.04e-01	0	42	0	268959744	60	4126
2026-01-29 03:13:51.21	239.48	29.54	-44.4	-45.6	26.2	6.02e-01	0	42	0	271056896	60	4119
2026-01-29 03:13:52.22	239.32	29.34	-44.3	-45.5	26.2	6.02e-01	0	42	0	272629760	60	4082
2026-01-29 03:13:53.22	239.17	29.14	-44.4	-45.6	26.1	6.03e-01	0	42	0	274726912	60	4100
2026-01-29 03:13:54.23	239.01	28.94	-44.2	-45.4	26.3	6.01e-01	0	42	0	276824064	60	4018
2026-01-29 03:13:55.24	238.86	28.75	-44.2	-45.3	26.3	6.03e-01	0	42	0	278396928	60	3998
2026-01-29 03:13:56.24	238.71	28.55	-44.1	-45.3	26.4	6.02e-01	0	42	0	280494080	60	3966
2026-01-29 03:13:57.25	238.56	28.36	-44.2	-45.4	26.4	6.03e-01	0	42	0	282591232	60	4008
2026-01-29 03:13:58.26	238.41	28.17	-44.1	-45.3	26.3	6.04e-01	0	42	0	284164096	60	3977
2026-01-29 03:13:59.27	238.27	27.97	-44.4	-45.6	26.2	6.03e-01	0	42	0	286261248	60	4101
2026-01-29 03:14:00.28	238.13	27.78	-44.4	-45.5	26.1	6.02e-01	0	42	0	287834112	60	4091
2026-01-29 03:14:01.28	237.99	27.59	-44.3	-45.5	26.1	6.02e-01	0	42	0	289931264	60	4067
2026-01-29 03:14:02.29	237.85	27.41	-44.6	-45.7	26.0	6.03e-01	0	42	0	291504128	60	4190
2026-01-29 03:14:03.30	237.71	27.22	-44.5	-45.6	26.0	6.04e-01	0	42	0	293601280	60	4133
2026-01-29 03:14:04.30	237.57	27.03	-44.4	-45.6	26.1	6.00e-01	0	42	0	295698432	60	4114
2026-01-29 03:14:05.31	237.44	26.85	-44.6	-45.8	25.9	6.02e-01	0	42	0	297271296	60	4218
2026-01-29 03:14:06.32	237.31	26.67	-44.7	-45.9	25.8	6.03e-01	0	42	0	299368448	60	4288
2026-01-29 03:14:07.32	237.18	26.49	-44.6	-45.8	25.8	6.03e-01	0	42	0	300941312	60	4216
2026-01-29 03:14:08.33	237.05	26.30	-44.7	-45.9	25.8	6.03e-01	0	42	0	303038464	60	4260
2026-01-29 03:14:09.34	236.92	26.12	-44.6	-45.7	25.8	6.03e-01	0	42	0	305135616	60	4193
2026-01-29 03:14:10.35	236.79	25.94	-44.6	-45.8	25.8	6.02e-01	0	42	0	306708480	60	4209
2026-01-29 03:14:11.36	236.67	25.77	-44.4	-45.5	26.0	6.03e-01	0	42	0	308805632	60	4090
2026-01-29 03:14:12.37	236.54	25.59	-44.4	-45.5	26.1	6.02e-01	0	42	0	310902784	60	4086
2026-01-29 03:14:13.37	236.42	25.42	-44.5	-45.7	25.9	6.02e-01	0	42	0	312475648	60	4171
2026-01-29 03:14:14.38	236.30	25.24	-44.7	-45.9	25.8	6.03e-01	0	42	0	314572800	60	4266
2026-01-29 03:14:15.39	236.18	25.07	-44.8	-46.0	25.6	6.02e-01	0	42	0	316145664	60	4327
2026-01-29 03:14:16.39	236.06	24.90	-44.7	-46.0	25.6	6.02e-01	0	42	0	318242816	60	4294
2026-01-29 03:14:17.40	235.95	24.73	-44.7	-45.9	25.8	6.02e-01	0	42	0	319815680	60	4252
2026-01-29 03:14:18.41	235.83	24.56	-44.7	-45.9	25.8	6.03e-01	0	42	0	321912832	60	4245
2026-01-29 03:14:19.42	235.72	24.39	-44.8	-46.0	25.7	6.02e-01	0	42	0	324009984	60	4298
2026-01-29 03:14:20.43	235.60	24.22	-44.8	-46.0	25.6	6.02e-01	0	42	0	325582848	60	4338
2026-01-29 03:14:21.43	235.49	24.05	-44.9	-46.2	25.5	6.04e-01	0	42	0	327680000	60	4413
2026-01-29 03:14:22.44	235.38	23.89	-45.1	-46.3	25.3	6.05e-01	0	42	0	329252864	60	4476
2026-01-29 03:14:23.44	235.28	23.72	-45.1	-46.3	25.4	6.01e-01	0	42	0	331350016	60	4481
2026-01-29 03:14:24.45	235.17	23.56	-45.0	-46.3	25.3	6.03e-01	0	42	0	333447168	60	4456
2026-01-29 03:14:25.45	235.06	23.40	-45.0	-46.2	25.4	6.03e-01	0	42	0	335020032	60	4428
2026-01-29 03:14:26.46	234.96	23.24	-45.0	-46.2	25.4	6.04e-01	0	42	0	337117184	60	4421
2026-01-29 03:14:27.47	234.85	23.07	-44.8	-46.0	25.6	6.00e-01	0	42	0	339214336	60	4320
2026-01-29 03:14:28.48	234.75	22.91	-44.7	-45.9	25.6	6.03e-01	0	42	0	340787200	60	4263
2026-01-29 03:14:29.48	234.65	22.76	-44.7	-45.9	25.6	6.00e-01	0	42	0	342884352	60	4288
2026-01-29 03:14:30.48	234.55	22.60	-44.8	-46.1	25.5	6.04e-01	0	42	0	344457216	60	4346
2026-01-29 03:14:31.49	234.45	22.44	-44.9	-46.1	25.5	6.01e-01	0	42	0	346554368	60	4378
2026-01-29 03:14:32.50	234.35	22.29	-44.8	-46.0	25.5	6.02e-01	0	42	0	348127232	60	4322
2026-01-29 03:14:33.51	234.25	22.13	-44.8	-46.0	25.5	6.06e-01	0	42	0	350224384	60	4325
2026-01-29 03:14:34.51	234.16	21.98	-44.7	-45.9	25.7	6.04e-01	0	42	0	352321536	60	4257
2026-01-29 03:14:35.52	234.06	21.83	-44.7	-45.9	25.6	6.02e-01	0	42	0	353894400	60	4278
2026-01-29 03:14:36.53	233.97	21.67	-44.6	-45.7	25.7	6.00e-01	0	42	0	355991552	60	4186
2026-01-29 03:14:37.54	233.87	21.52	-44.5	-45.7	25.7	6.04e-01	0	42	0	357564416	60	4167
2026-01-29 03:14:38.55	233.78	21.37	-44.6	-45.8	25.8	6.02e-01	0	42	0	359661568	60	4208
2026-01-29 03:14:39.55	233.69	21.22	-44.6	-45.8	25.7	6.02e-01	0	42	0	361758720	60	4209
2026-01-29 03:14:40.56	233.60	21.07	-44.6	-45.8	25.7	6.03e-01	0	42	0	363331584	60	4223
2026-01-29 03:14:41.57	233.51	20.93	-44.8	-46.0	25.5	6.02e-01	0	42	0	365428736	60	4320
2026-01-29 03:14:42.58	233.42	20.78	-44.8	-46.1	25.5	6.02e-01	0	42	0	367525888	60	4343
2026-01-29 03:14:43.59	233.33	20.63	-45.0	-46.2	25.3	6.03e-01	0	42	0	369098752	60	4428
2026-01-29 03:14:44.60	233.25	20.49	-45.0	-46.2	25.4	6.06e-01	0	42	0	371195904	60	4417
2026-01-29 03:14:45.60	233.16	20.34	-45.1	-46.4	25.2	6.00e-01	0	42	0	372768768	60	4500
2026-01-29 03:14:46.61	233.08	20.20	-44.9	-46.2	25.3	6.04e-01	0	42	0	374865920	60	4424
2026-01-29 03:14:47.62	232.99	20.06	-44.9	-46.1	25.3	6.01e-01	0	42	0	376438784	60	4382
2026-01-29 03:14:48.63	232.91	19.91	-44.7	-46.0	25.5	6.01e-01	0	42	0	378535936	60	4305
2026-01-29 03:14:49.63	232.83	19.77	-44.8	-46.0	25.5	6.02e-01	0	42	0	380633088	60	4309
2026-01-29 03:14:50.64	232.75	19.63	-44.7	-46.0	25.5	6.03e-01	0	42	0	382205952	60	4298
2026-01-29 03:14:51.65	232.66	19.49	-44.7	-45.9	25.6	6.04e-01	0	42	0	384303104	60	4268
2026-01-29 03:14:52.65	232.58	19.36	-44.6	-45.8	25.6	6.02e-01	0	42	0	386400256	60	4236
2026-01-29 03:14:53.66	232.51	19.22	-44.6	-45.8	25.6	6.03e-01	0	42	0	387973120	60	4221
2026-01-29 03:14:54.67	232.43	19.08	-44.7	-46.0	25.4	6.03e-01	0	42	0	390070272	60	4296
2026-01-29 03:14:55.68	232.35	18.94	-44.7	-45.9	25.6	6.04e-01	0	42	0	391643136	60	4258
2026-01-29 03:14:56.69	232.27	18.81	-44.7	-46.0	25.5	6.04e-01	0	42	0	393740288	60	4302
2026-01-29 03:14:57.69	232.20	18.68	-44.6	-45.9	25.6	6.04e-01	0	42	0	395837440	60	4246
2026-01-29 03:14:58.70	232.12	18.54	-44.6	-45.9	25.6	6.03e-01	0	42	0	397410304	60	4251
2026-01-29 03:14:59.71	232.05	18.41	-44.6	-45.8	25.6	6.02e-01	0	42	0	399507456	60	4227
2026-01-29 03:15:00.71	231.97	18.28	-44.6	-45.9	25.6	6.01e-01	0	42	0	401080320	60	4245
2026-01-29 03:15:01.72	231.90	18.14	-44.7	-46.0	25.4	6.01e-01	0	42	0	403177472	60	4301
2026-01-29 03:15:02.73	231.83	18.01	-44.9	-46.1	25.3	6.00e-01	0	42	0	404750336	60	4374
2026-01-29 03:15:03.74	231.75	17.88	-44.7	-46.0	25.4	6.04e-01	0	42	0	406847488	60	4308
2026-01-29 03:15:04.75	231.68	17.75	-44.8	-46.0	25.4	6.02e-01	0	42	0	408944640	60	4318
2026-01-29 03:15:05.75	231.61	17.62	-44.9	-46.1	25.3	6.05e-01	0	42	0	411041792	60	4366
2026-01-29 03:15:06.76	231.54	17.50	-44.7	-45.9	25.4	6.05e-01	0	42	0	412614656	60	4276
2026-01-29 03:15:07.76	231.47	17.37	-44.7	-46.0	25.4	6.02e-01	0	42	0	414711808	60	4302
2026-01-29 03:15:08.77	231.41	17.24	-44.6	-45.8	25.5	6.02e-01	0	42	0	416284672	60	4226
2026-01-29 03:15:09.78	231.34	17.12	-44.7	-45.9	25.5	6.02e-01	0	42	0	418381824	60	4267
2026-01-29 03:15:10.79	231.27	16.99	-44.6	-45.8	25.5	6.04e-01	0	42	0	419954688	60	4215
2026-01-29 03:15:11.79	231.20	16.87	-44.7	-45.9	25.4	6.05e-01	0	42	0	422051840	60	4276
2026-01-29 03:15:12.80	231.14	16.74	-44.6	-45.8	25.5	6.03e-01	0	42	0	424148992	60	4211
2026-01-29 03:15:13.81	231.07	16.62	-44.7	-45.9	25.5	6.05e-01	0	42	0	425721856	60	4256
2026-01-29 03:15:14.82	231.01	16.49	-44.7	-45.9	25.4	6.06e-01	0	42	0	427819008	60	4261
2026-01-29 03:15:15.83	230.94	16.37	-44.7	-45.9	25.4	6.02e-01	0	42	0	429391872	60	4264
2026-01-29 03:15:16.83	230.88	16.25	-44.7	-46.0	25.3	6.02e-01	0	42	0	431489024	60	4297
2026-01-29 03:15:17.84	230.82	16.13	-44.7	-46.0	25.3	6.03e-01	0	42	0	433061888	60	4305
2026-01-29 03:15:18.85	230.75	16.01	-44.8	-46.0	25.3	6.03e-01	0	42	0	435159040	60	4323
2026-01-29 03:15:19.86	230.69	15.89	-44.7	-45.9	25.4	6.02e-01	0	42	0	437256192	60	4262
2026-01-29 03:15:20.87	230.63	15.77	-44.7	-46.0	25.4	6.02e-01	0	42	0	439353344	60	4307
2026-01-29 03:15:21.88	230.57	15.65	-44.6	-45.8	25.4	6.04e-01	0	42	0	440926208	60	4236
2026-01-29 03:15:22.89	230.51	15.53	-44.6	-45.9	25.4	6.04e-01	0	42	0	443023360	60	4255
2026-01-29 03:15:23.90	230.45	15.41	-44.6	-45.8	25.5	6.03e-01	0	42	0	444596224	60	4233
2026-01-29 03:15:24.90	230.39	15.30	-44.6	-45.8	25.5	6.02e-01	0	42	0	446693376	60	4228
2026-01-29 03:15:25.91	230.33	15.18	-44.6	-45.9	25.4	6.02e-01	0	42	0	448266240	60	4260
2026-01-29 03:15:26.92	230.27	15.07	-44.6	-45.8	25.5	6.04e-01	0	42	0	450363392	60	4216
2026-01-29 03:15:27.93	230.21	14.95	-44.7	-45.9	25.3	6.03e-01	0	42	0	452460544	60	4289
2026-01-29 03:15:28.94	230.16	14.84	-44.8	-46.0	25.3	6.03e-01	0	42	0	454033408	60	4319
2026-01-29 03:15:29.95	230.10	14.72	-44.8	-46.0	25.3	6.03e-01	0	42	0	456130560	60	4326
2026-01-29 03:15:30.96	230.04	14.61	-44.6	-45.9	25.4	6.02e-01	0	42	0	458227712	60	4248
2026-01-29 03:15:31.97	229.99	14.50	-44.7	-45.9	25.3	6.02e-01	0	42	0	459800576	60	4286
2026-01-29 03:15:32.98	229.93	14.38	-44.7	-45.9	25.4	6.02e-01	0	42	0	461897728	60	4281
2026-01-29 03:15:33.99	229.88	14.27	-44.8	-46.1	25.3	6.04e-01	0	42	0	463470592	60	4347
2026-01-29 03:15:34.99	229.82	14.16	-44.8	-46.0	25.3	6.01e-01	0	42	0	465567744	60	4321
2026-01-29 03:15:36.00	229.77	14.05	-44.7	-45.9	25.4	6.02e-01	0	42	0	467664896	60	4262
2026-01-29 03:15:37.00	229.71	13.94	-44.6	-45.8	25.4	6.03e-01	0	42	0	469237760	60	4211
2026-01-29 03:15:38.01	229.66	13.83	-44.7	-45.9	25.4	6.02e-01	0	42	0	471334912	60	4262
2026-01-29 03:15:39.02	229.61	13.72	-44.5	-45.7	25.5	6.05e-01	0	42	0	472907776	60	4177
2026-01-29 03:15:40.03	229.56	13.61	-44.6	-45.8	25.4	6.03e-01	0	42	0	475004928	60	4233
2026-01-29 03:15:41.04	229.50	13.51	-44.5	-45.8	25.5	6.07e-01	0	42	0	476577792	60	4199
2026-01-29 03:15:42.05	229.45	13.40	-44.6	-45.8	25.4	6.04e-01	0	42	0	478674944	60	4216
2026-01-29 03:15:43.06	229.40	13.29	-44.6	-45.8	25.4	6.04e-01	0	42	0	480772096	60	4216
2026-01-29 03:15:44.07	229.35	13.18	-44.6	-45.9	25.3	6.04e-01	0	42	0	482869248	60	4260
2026-01-29 03:15:45.08	229.30	13.08	-44.7	-45.9	25.3	6.03e-01	0	42	0	484442112	60	4273
2026-01-29 03:15:46.08	229.25	12.97	-44.6	-45.9	25.3	6.03e-01	0	42	0	486539264	60	4262
2026-01-29 03:15:47.09	229.20	12.87	-44.7	-45.9	25.3	6.02e-01	0	42	0	488112128	60	4276
2026-01-29 03:15:48.10	229.15	12.76	-44.7	-45.9	25.3	6.03e-01	0	42	0	490209280	60	4278
2026-01-29 03:15:49.11	229.10	12.66	-44.7	-46.0	25.2	6.02e-01	0	42	0	491782144	60	4296
2026-01-29 03:15:50.11	229.06	12.56	-44.7	-45.9	25.4	6.01e-01	0	42	0	493879296	60	4265
2026-01-29 03:15:51.12	229.01	12.45	-44.8	-46.0	25.2	6.03e-01	0	42	0	495976448	60	4323
2026-01-29 03:15:52.13	228.96	12.35	-44.6	-45.9	25.3	6.02e-01	0	42	0	497549312	60	4250
2026-01-29 03:15:53.14	228.91	12.25	-44.7	-45.9	25.2	6.06e-01	0	42	0	499646464	60	4276
2026-01-29 03:15:54.15	228.87	12.14	-44.8	-46.1	25.1	6.02e-01	0	42	0	501219328	60	4344
2026-01-29 03:15:55.15	228.82	12.04	-44.8	-46.0	25.2	6.04e-01	0	42	0	503316480	60	4324
2026-01-29 03:15:56.16	228.78	11.94	-44.8	-46.1	25.1	6.04e-01	0	42	0	505413632	60	4378
2026-01-29 03:15:57.17	228.73	11.84	-44.9	-46.2	25.0	6.02e-01	0	42	0	506986496	60	4407
2026-01-29 03:15:58.18	228.69	11.74	-45.0	-46.2	24.9	6.02e-01	0	42	0	509083648	60	4439
2026-01-29 03:15:59.18	228.64	11.64	-45.0	-46.3	24.9	6.03e-01	0	42	0	511180800	60	4483
2026-01-29 03:16:00.19	228.60	11.54	-45.0	-46.3	24.8	6.05e-01	0	42	0	512753664	60	4493
2026-01-29 03:16:01.20	228.55	11.44	-45.0	-46.3	24.8	6.05e-01	0	42	0	514850816	60	4490
2026-01-29 03:16:02.21	228.51	11.35	-45.1	-46.4	24.8	6.01e-01	0	42	0	516423680	60	4503
2026-01-29 03:16:03.22	228.47	11.25	-45.1	-46.4	24.7	6.02e-01	0	42	0	518520832	60	4538
2026-01-29 03:16:04.22	228.42	11.15	-45.1	-46.5	24.6	6.04e-01	0	42	0	520093696	60	4556
2026-01-29 03:16:05.23	228.38	11.05	-45.1	-46.4	24.7	6.04e-01	0	42	0	522190848	61	4279
2026-01-29 03:16:06.24	228.34	10.96	-45.2	-46.5	24.6	6.01e-01	0	42	0	524288000	61	4310
2026-01-29 03:16:07.25	228.29	10.86	-45.2	-46.6	24.6	6.05e-01	0	42	0	525860864	61	4345
2026-01-29 03:16:08.26	228.25	10.76	-45.2	-46.6	24.5	6.02e-01	0	42	0	527958016	61	4347
2026-01-29 03:16:09.26	228.21	10.67	-45.2	-46.5	24.5	6.02e-01	0	42	0	530055168	61	4321
2026-01-29 03:16:10.27	228.17	10.58	-45.3	-46.6	24.4	6.01e-01	0	42	0	531628032	61	4373
2026-01-29 03:16:11.28	228.13	10.48	-45.1	-46.5	24.5	6.03e-01	0	42	0	533725184	61	4308
2026-01-29 03:16:12.28	228.09	10.39	-45.1	-46.4	24.6	6.05e-01	0	42	0	535298048	61	4254
2026-01-29 03:16:13.29	228.05	10.29	-45.1	-46.4	24.6	6.03e-01	0	42	0	537395200	61	4282
2026-01-29 03:16:14.30	228.01	10.20	-45.2	-46.5	24.5	6.01e-01	0	42	0	539492352	61	4318
2026-01-29 03:16:15.31	227.97	10.11	-45.3	-46.7	24.3	6.03e-01	0	42	0	541065216	61	4402
2026-01-29 03:16:16.31	227.93	10.01	-45.1	-46.4	24.6	6.02e-01	0	42	0	543162368	61	4252
2026-01-29 03:16:17.32	227.89	9.92	-45.2	-46.5	24.5	6.03e-01	0	42	0	544735232	61	4334
2026-01-29 03:16:18.33	227.85	9.83	-45.2	-46.5	24.5	6.03e-01	0	42	0	546832384	61	4319
2026-01-29 03:16:19.34	227.81	9.74	-45.2	-46.5	24.5	6.04e-01	0	42	0	548405248	61	4331
2026-01-29 03:16:20.34	227.78	9.65	-45.3	-46.6	24.4	6.00e-01	0	42	0	550502400	61	4377
2026-01-29 03:16:21.35	227.74	9.56	-45.2	-46.6	24.4	6.04e-01	0	42	0	552599552	61	4358
2026-01-29 03:16:22.36	227.70	9.46	-45.3	-46.7	24.3	6.06e-01	0	42	0	554172416	61	4416
2026-01-29 03:16:23.37	227.66	9.37	-45.2	-46.5	24.4	5.98e-01	0	42	0	556269568	61	4332
2026-01-29 03:16:24.37	227.63	9.29	-45.3	-46.6	24.4	6.02e-01	0	42	0	558366720	61	4370
2026-01-29 03:16:25.38	227.59	9.20	-45.3	-46.6	24.3	6.03e-01	0	42	0	559939584	61	4385
2026-01-29 03:16:26.39	227.55	9.11	-45.3	-46.6	24.3	6.04e-01	0	42	0	562036736	61	4385
2026-01-29 03:16:27.40	227.52	9.02	-45.3	-46.7	24.3	6.04e-01	0	42	0	563609600	61	4410
2026-01-29 03:16:28.41	227.48	8.93	-45.4	-46.8	24.1	6.02e-01	0	42	0	565706752	61	4484
2026-01-29 03:16:29.41	227.44	8.84	-45.4	-46.8	24.2	6.03e-01	0	42	0	567803904	61	4453
2026-01-29 03:16:30.42	227.41	8.75	-45.6	-47.0	23.9	6.02e-01	0	42	0	569376768	61	4578
2026-01-29 03:16:31.43	227.37	8.67	-45.4	-46.8	24.1	6.02e-01	0	42	0	571473920	61	4478
2026-01-29 03:16:32.43	227.34	8.58	-45.6	-47.0	24.0	6.03e-01	0	42	0	573046784	61	4576
2026-01-29 03:16:33.44	227.30	8.49	-45.6	-47.0	23.9	6.02e-01	0	42	0	575143936	61	4591
2026-01-29 03:16:34.45	227.27	8.41	-45.5	-46.9	24.0	6.02e-01	0	42	0	576716800	61	4527
2026-01-29 03:16:35.45	227.24	8.32	-45.6	-47.0	24.0	6.04e-01	0	42	0	578813952	61	4552
2026-01-29 03:16:36.46	227.20	8.23	-45.6	-47.0	23.9	6.03e-01	0	42	0	580911104	61	4582
2026-01-29 03:16:37.47	227.17	8.15	-45.6	-47.0	23.9	6.03e-01	0	42	0	582483968	61	4582
2026-01-29 03:16:38.47	227.13	8.06	-45.7	-47.1	23.8	6.02e-01	0	42	0	584581120	61	4643
2026-01-29 03:16:39.48	227.10	7.98	-45.6	-47.1	23.8	6.05e-01	0	42	0	586678272	61	4612
2026-01-29 03:16:40.48	227.07	7.89	-45.6	-47.0	23.9	6.04e-01	0	42	0	588251136	61	4564
2026-01-29 03:16:41.49	227.03	7.81	-45.6	-47.1	23.8	6.04e-01	0	42	0	590348288	61	4603
2026-01-29 03:16:42.50	227.00	7.73	-45.6	-47.1	23.8	6.01e-01	0	42	0	591921152	61	4611
2026-01-29 03:16:43.51	226.97	7.64	-45.6	-47.0	23.9	6.05e-01	0	42	0	594018304	61	4557
2026-01-29 03:16:44.51	226.94	7.56	-45.7	-47.2	23.7	6.02e-01	0	42	0	596115456	62	4409
2026-01-29 03:16:45.52	226.91	7.48	-45.8	-47.3	23.6	6.04e-01	0	42	0	597688320	62	4450
2026-01-29 03:16:46.53	226.87	7.39	-45.9	-47.3	23.5	6.02e-01	0	42	0	599785472	62	4485
2026-01-29 03:16:47.54	226.84	7.31	-45.9	-47.4	23.5	6.03e-01	0	42	0	601358336	62	4511
2026-01-29 03:16:48.54	226.81	7.23	-45.7	-47.2	23.6	6.04e-01	0	42	0	603455488	62	4419
2026-01-29 03:16:49.55	226.78	7.15	-45.8	-47.2	23.6	6.02e-01	0	42	0	605552640	62	4428
2026-01-29 03:16:50.56	226.75	7.06	-45.7	-47.2	23.7	6.04e-01	0	42	0	607125504	62	4405
2026-01-29 03:16:51.57	226.72	6.98	-45.8	-47.3	23.5	6.04e-01	0	42	0	609222656	62	4444
2026-01-29 03:16:52.57	226.69	6.90	-45.6	-47.0	23.7	6.02e-01	0	42	0	610795520	62	4320
2026-01-29 03:16:53.57	226.66	6.82	-45.8	-47.3	23.5	6.03e-01	0	42	0	612892672	62	4446
2026-01-29 03:16:54.58	226.63	6.74	-45.8	-47.3	23.5	6.03e-01	0	42	0	614989824	62	4479
2026-01-29 03:16:55.58	226.60	6.66	-46.0	-47.5	23.3	6.00e-01	0	42	0	616562688	62	4554
2026-01-29 03:16:56.59	226.57	6.58	-45.8	-47.3	23.5	6.03e-01	0	42	0	618659840	62	4461
2026-01-29 03:16:57.60	226.54	6.50	-45.8	-47.2	23.5	6.04e-01	0	42	0	620232704	62	4422
2026-01-29 03:16:58.61	226.51	6.42	-45.8	-47.3	23.5	6.04e-01	0	42	0	622329856	62	4447
2026-01-29 03:16:59.61	226.48	6.34	-45.9	-47.3	23.4	6.03e-01	0	42	0	624427008	62	4490
2026-01-29 03:17:00.62	226.45	6.26	-45.9	-47.4	23.3	6.06e-01	0	42	0	625999872	62	4511
2026-01-29 03:17:01.63	226.42	6.18	-45.8	-47.3	23.4	6.05e-01	0	42	0	628097024	62	4459
2026-01-29 03:17:02.64	226.39	6.11	-46.0	-47.5	23.2	6.05e-01	0	42	0	629669888	62	4565
2026-01-29 03:17:03.64	226.37	6.03	-46.1	-47.6	23.1	6.02e-01	0	42	0	631767040	62	4621
2026-01-29 03:17:04.65	226.34	5.95	-46.2	-47.7	23.0	6.04e-01	0	42	0	633864192	63	4421
2026-01-29 03:17:05.66	226.31	5.87	-46.1	-47.6	23.1	6.03e-01	0	42	0	635437056	63	4359
2026-01-29 03:17:06.66	226.28	5.80	-46.0	-47.5	23.1	6.02e-01	0	42	0	637534208	63	4335
2026-01-29 03:17:07.67	226.25	5.72	-46.2	-47.8	22.8	6.04e-01	0	42	0	639107072	63	4461
2026-01-29 03:17:08.67	226.23	5.64	-46.1	-47.6	23.0	6.02e-01	0	42	0	641204224	63	4387
2026-01-29 03:17:09.68	226.20	5.57	-46.0	-47.6	23.0	6.03e-01	0	42	0	643301376	63	4357
2026-01-29 03:17:10.69	226.17	5.49	-46.2	-47.8	22.8	6.05e-01	0	42	0	644874240	63	4460
2026-01-29 03:17:11.70	226.14	5.41	-46.2	-47.7	22.8	6.04e-01	0	42	0	646971392	63	4441
2026-01-29 03:17:12.71	226.12	5.34	-46.2	-47.8	22.8	6.05e-01	0	42	0	648544256	63	4466
2026-01-29 03:17:13.71	226.09	5.26	-46.2	-47.8	22.8	5.99e-01	0	42	0	650641408	63	4452
2026-01-29 03:17:14.72	226.06	5.19	-46.3	-47.9	22.6	6.00e-01	0	42	0	652738560	63	4523
2026-01-29 03:17:15.73	226.04	5.11	-46.3	-47.9	22.6	6.03e-01	0	42	0	654311424	63	4522
2026-01-29 03:17:16.74	226.01	5.03	-46.2	-47.7	22.8	6.01e-01	0	42	0	656408576	63	4431
2026-01-29 03:17:17.74	225.99	4.96	-53.8	-70.9	5.0	7.55e-01	36	42	0	657981440	78	27042
2026-01-29 03:17:18.75	225.96	4.89	-54.3	-71.8	3.9	7.44e-01	0	42	104	657981440	79	28315
2026-01-29 03:17:19.75	225.94	4.81	-54.6	-72.4	3.8	7.43e-01	0	42	104	657981440	79	30090
