passes_logs/2026/01/29/R3.2S_Murmansk/R3.2S_Murmansk__20260129_142610_FENGYUN_3D_rec.log

#Pass ID: 20260129_142610_FENGYUN 3D
#Satellite: FENGYUN 3D
#Configuration: FENGYUN 3D
#almurnet v.1.7.20251203
#Start time: 2026-01-29 14:26:11

#Version: 2.2.20231116
#Station: R3.2S_Murmansk
#Location: 33.079688 lon 68.888172 lat
#TLE: 1 43010U 17072A   26028.95797775  .00000451  00000+0  23492-3 0  9991
#TLE: 2 43010  98.9958   0.9922 0002505  85.7480 274.3981 14.19703224425237

#Time	Az	El	Level	Level2	SNR	BER	BlckErr	Temp	State	Recorded	gain1	gain2
2026-01-29 14:26:11.41	224.61	2.06	-54.0	-66.0	3.8	8.46e-01	0	40	0	0	79	14446
2026-01-29 14:26:12.41	224.69	2.11	-54.0	-66.0	3.8	8.46e-01	0	40	104	0	78	15297
2026-01-29 14:26:13.42	224.78	2.16	-54.0	-66.0	3.8	8.45e-01	0	40	104	0	78	15264
2026-01-29 14:26:14.42	224.86	2.21	-54.0	-66.0	3.8	8.46e-01	0	40	104	0	78	15251
2026-01-29 14:26:15.43	224.95	2.27	-54.0	-66.0	3.8	8.46e-01	0	40	104	0	78	15245
2026-01-29 14:26:16.44	225.03	2.32	-54.1	-66.0	3.8	8.45e-01	0	40	104	0	78	15332
2026-01-29 14:26:17.45	225.12	2.37	-54.3	-66.2	3.8	8.46e-01	0	40	104	0	79	14838
2026-01-29 14:26:18.46	225.20	2.42	-54.4	-66.3	3.8	8.46e-01	0	40	104	0	79	14997
2026-01-29 14:26:19.47	225.29	2.47	-54.4	-66.4	3.8	8.46e-01	0	40	104	0	79	15123
2026-01-29 14:26:20.48	225.38	2.53	-54.4	-66.4	3.8	8.47e-01	0	40	104	0	79	15125
2026-01-29 14:26:21.49	225.46	2.58	-54.5	-66.4	3.8	8.45e-01	0	40	104	0	79	15149
2026-01-29 14:26:22.50	225.55	2.63	-54.4	-66.4	3.8	8.48e-01	0	40	104	0	79	15128
2026-01-29 14:26:23.51	225.64	2.68	-54.4	-66.3	3.8	8.46e-01	0	40	104	0	79	15038
2026-01-29 14:26:24.51	225.73	2.73	-54.3	-66.3	3.8	8.46e-01	0	40	104	0	79	14979
2026-01-29 14:26:25.52	225.82	2.79	-54.3	-66.3	3.8	8.46e-01	0	40	104	0	79	14890
2026-01-29 14:26:26.52	225.90	2.84	-54.2	-66.2	3.8	8.45e-01	0	40	104	0	79	14754
2026-01-29 14:26:27.53	225.99	2.89	-54.2	-66.1	3.8	8.46e-01	0	40	104	0	79	14652
2026-01-29 14:26:28.54	226.08	2.94	-54.1	-66.1	3.8	8.45e-01	0	40	104	0	79	14603
2026-01-29 14:26:29.55	226.17	3.00	-54.1	-66.0	3.8	8.47e-01	0	40	104	0	79	14517
2026-01-29 14:26:30.56	226.26	3.05	-54.0	-66.0	3.8	8.46e-01	0	40	104	0	79	14428
2026-01-29 14:26:31.56	226.35	3.10	-54.0	-65.9	3.8	8.46e-01	0	40	104	0	79	14362
2026-01-29 14:26:32.57	226.44	3.15	-53.9	-65.8	3.8	8.47e-01	0	40	104	0	79	14163
2026-01-29 14:26:33.58	226.53	3.21	-53.8	-65.7	3.8	8.46e-01	0	40	104	0	79	13997
2026-01-29 14:26:34.59	226.62	3.26	-53.7	-65.7	3.8	8.46e-01	0	40	104	0	79	13917
2026-01-29 14:26:35.60	226.71	3.31	-53.6	-65.6	3.8	8.46e-01	0	40	104	0	79	13821
2026-01-29 14:26:36.61	226.81	3.36	-53.5	-65.4	3.8	8.46e-01	0	40	104	0	79	13487
2026-01-29 14:26:37.61	226.90	3.42	-53.2	-65.2	3.8	8.46e-01	0	40	104	0	78	13911
2026-01-29 14:26:38.62	226.99	3.47	-52.7	-64.6	3.8	8.45e-01	0	40	104	0	77	13857
2026-01-29 14:26:39.63	227.08	3.52	-52.4	-64.3	3.8	8.45e-01	0	40	104	0	76	14202
2026-01-29 14:26:40.63	227.17	3.57	-52.4	-64.3	3.8	8.46e-01	0	40	104	0	76	14069
2026-01-29 14:26:41.63	227.27	3.63	-52.4	-64.2	3.8	8.45e-01	0	40	104	0	76	13892
2026-01-29 14:26:42.64	227.36	3.68	-52.4	-64.1	3.8	8.46e-01	0	41	104	0	76	13782
2026-01-29 14:26:43.65	227.45	3.73	-52.4	-64.0	3.8	8.46e-01	0	41	104	0	76	13599
2026-01-29 14:26:44.66	227.55	3.78	-52.4	-63.9	3.8	8.46e-01	0	41	104	0	76	13531
2026-01-29 14:26:45.67	227.64	3.84	-52.4	-64.0	3.8	8.46e-01	0	41	104	0	76	13577
2026-01-29 14:26:46.67	227.74	3.89	-52.4	-64.0	3.8	8.46e-01	0	41	104	0	76	13714
2026-01-29 14:26:47.68	227.83	3.94	-52.4	-64.2	3.8	8.46e-01	0	41	104	0	76	13899
2026-01-29 14:26:48.69	227.93	4.00	-52.4	-64.2	3.8	8.46e-01	0	41	104	0	76	14036
2026-01-29 14:26:49.70	228.02	4.05	-52.4	-64.3	3.8	8.45e-01	0	41	104	0	76	14065
2026-01-29 14:26:50.71	228.12	4.10	-52.4	-64.3	3.8	8.46e-01	0	41	104	0	76	14107
2026-01-29 14:26:51.71	228.22	4.16	-52.4	-64.2	3.8	8.46e-01	0	41	104	0	76	14007
2026-01-29 14:26:52.72	228.31	4.21	-52.4	-64.3	3.8	8.46e-01	0	41	104	0	76	14054
2026-01-29 14:26:53.73	228.41	4.26	-52.4	-64.1	3.8	8.46e-01	0	41	104	0	76	13860
2026-01-29 14:26:54.74	228.51	4.32	-52.4	-63.8	3.8	8.48e-01	0	41	104	0	76	13375
2026-01-29 14:26:55.74	228.60	4.37	-52.3	-63.4	3.8	8.46e-01	0	41	104	0	76	12713
2026-01-29 14:26:56.75	228.70	4.42	-52.3	-63.1	3.8	8.45e-01	0	41	104	0	76	12287
2026-01-29 14:26:57.76	228.80	4.48	-52.3	-63.2	3.8	8.45e-01	0	41	104	0	76	12434
2026-01-29 14:26:58.77	228.90	4.53	-52.3	-63.1	3.8	8.46e-01	0	41	104	0	76	12293
2026-01-29 14:26:59.78	229.00	4.58	-52.2	-62.6	3.8	8.46e-01	0	41	104	0	76	11655
2026-01-29 14:27:00.79	229.10	4.64	-51.9	-60.3	4.3	8.36e-01	0	41	0	0	75	9484
2026-01-29 14:27:01.80	229.20	4.69	-51.3	-57.3	6.0	7.02e-01	0	41	0	0	74	7048
2026-01-29 14:27:02.81	229.30	4.75	-50.2	-54.4	8.6	1.35e-01	0	41	0	6291456	72	5668
2026-01-29 14:27:03.82	229.40	4.80	-48.9	-51.7	11.4	4.51e-03	0	41	0	12582912	69	4971
2026-01-29 14:27:04.83	229.50	4.85	-47.7	-49.9	13.2	6.40e-05	0	41	0	17825792	67	4544
2026-01-29 14:27:05.83	229.60	4.91	-46.6	-48.4	14.8	1.10e-06	0	41	0	23068672	65	4283
2026-01-29 14:27:06.84	229.70	4.96	-46.1	-47.7	15.5	0.00e+00	0	41	0	29360128	64	4174
2026-01-29 14:27:07.85	229.81	5.01	-45.9	-47.5	15.8	0.00e+00	0	41	0	34603008	63	4327
2026-01-29 14:27:08.86	229.91	5.07	-44.2	-45.4	17.9	0.00e+00	0	41	0	39845888	60	4046
2026-01-29 14:27:09.87	230.01	5.12	-52.1	-62.9	3.8	2.93e-01	0	41	0	45088768	74	13548
2026-01-29 14:27:10.88	230.11	5.18	-42.7	-43.7	18.8	7.97e-01	0	41	104	45088768	57	3929
2026-01-29 14:27:11.88	230.22	5.23	-46.3	-47.9	15.7	0.00e+00	0	41	0	49283072	63	4508
2026-01-29 14:27:12.89	230.32	5.28	-43.4	-44.5	19.3	0.00e+00	0	41	0	54525952	57	4292
2026-01-29 14:27:13.89	230.42	5.34	-42.8	-43.8	19.9	0.00e+00	0	41	0	60817408	57	3984
2026-01-29 14:27:14.90	230.53	5.39	-42.7	-43.7	20.0	0.00e+00	0	41	0	66060288	57	3929
2026-01-29 14:27:15.91	230.63	5.45	-42.9	-43.9	19.8	0.00e+00	0	41	0	71303168	57	4019
2026-01-29 14:27:16.91	230.74	5.50	-42.8	-43.8	20.0	0.00e+00	0	41	0	77594624	57	3971
2026-01-29 14:27:17.92	230.84	5.55	-42.8	-43.8	19.9	0.00e+00	0	41	0	83886080	57	3983
2026-01-29 14:27:18.93	230.95	5.61	-42.6	-43.6	20.1	0.00e+00	0	41	0	89128960	57	3907
2026-01-29 14:27:19.93	231.06	5.66	-42.6	-43.6	20.1	0.00e+00	0	41	0	94371840	57	3902
2026-01-29 14:27:20.93	231.16	5.72	-42.7	-43.7	20.0	0.00e+00	0	41	0	100663296	57	3946
2026-01-29 14:27:21.94	231.27	5.77	-42.7	-43.7	20.1	0.00e+00	0	41	0	105906176	57	3915
2026-01-29 14:27:22.95	231.38	5.83	-42.8	-43.8	20.0	0.00e+00	0	41	0	112197632	57	3969
2026-01-29 14:27:23.96	231.48	5.88	-42.7	-43.7	20.1	0.00e+00	0	41	0	117440512	57	3948
2026-01-29 14:27:24.96	231.59	5.93	-42.6	-43.7	20.1	0.00e+00	0	41	0	122683392	57	3914
2026-01-29 14:27:25.97	231.70	5.99	-42.3	-43.3	20.4	0.00e+00	0	41	0	128974848	56	3990
2026-01-29 14:27:26.98	231.81	6.04	-42.1	-43.1	20.7	0.00e+00	0	41	0	134217728	56	3882
2026-01-29 14:27:27.99	231.92	6.10	-42.2	-43.2	20.6	0.00e+00	0	41	0	139460608	56	3926
2026-01-29 14:27:28.99	232.03	6.15	-42.2	-43.1	20.6	0.00e+00	0	41	0	145752064	56	3910
2026-01-29 14:27:29.99	232.14	6.21	-42.2	-43.2	20.6	0.00e+00	0	41	0	150994944	56	3917
2026-01-29 14:27:31.01	232.25	6.26	-42.3	-43.2	20.6	0.00e+00	0	41	0	156237824	56	3952
2026-01-29 14:27:32.01	232.36	6.32	-42.2	-43.2	20.6	0.00e+00	0	41	0	162529280	56	3918
2026-01-29 14:27:33.03	232.47	6.37	-42.4	-43.4	20.5	0.00e+00	0	41	0	168820736	56	4006
2026-01-29 14:27:34.03	232.58	6.42	-42.1	-43.1	20.7	0.00e+00	0	41	0	174063616	56	3889
2026-01-29 14:27:35.04	232.70	6.48	-42.2	-43.1	20.7	0.00e+00	0	41	0	179306496	56	3902
2026-01-29 14:27:36.05	232.81	6.53	-42.2	-43.1	20.7	0.00e+00	0	41	0	185597952	56	3909
2026-01-29 14:27:37.06	232.92	6.59	-42.2	-43.1	20.7	0.00e+00	0	41	0	190840832	56	3892
2026-01-29 14:27:38.06	233.03	6.64	-41.9	-42.8	20.9	0.00e+00	0	41	0	197132288	55	3978
2026-01-29 14:27:39.07	233.15	6.70	-42.0	-42.9	20.9	0.00e+00	0	41	0	202375168	55	4018
2026-01-29 14:27:40.08	233.26	6.75	-42.0	-42.9	20.9	0.00e+00	0	41	0	207618048	55	4023
2026-01-29 14:27:41.08	233.38	6.81	-42.0	-42.9	20.9	0.00e+00	0	41	0	213909504	55	4021
2026-01-29 14:27:42.09	233.49	6.86	-41.9	-42.8	20.9	0.00e+00	0	41	0	219152384	55	4003
2026-01-29 14:27:43.10	233.61	6.92	-42.0	-42.9	20.9	0.00e+00	0	41	0	224395264	55	4029
2026-01-29 14:27:44.11	233.72	6.97	-42.2	-43.1	20.6	0.00e+00	0	41	0	230686720	55	4144
2026-01-29 14:27:45.12	233.84	7.03	-41.9	-42.8	21.0	0.00e+00	0	41	0	236978176	55	3980
2026-01-29 14:27:46.13	233.96	7.08	-41.8	-42.7	21.1	0.00e+00	0	41	0	242221056	55	3944
2026-01-29 14:27:47.13	234.07	7.14	-41.7	-42.6	21.1	0.00e+00	0	41	0	247463936	55	3908
2026-01-29 14:27:48.14	234.19	7.19	-41.8	-42.7	21.0	0.00e+00	0	41	0	253755392	55	3955
2026-01-29 14:27:49.15	234.31	7.25	-41.8	-42.7	21.1	0.00e+00	0	41	0	258998272	55	3956
2026-01-29 14:27:50.16	234.43	7.30	-41.7	-42.6	21.2	0.00e+00	0	41	0	264241152	55	3893
2026-01-29 14:27:51.16	234.55	7.36	-41.8	-42.7	21.1	0.00e+00	0	41	0	270532608	55	3920
2026-01-29 14:27:52.17	234.67	7.41	-41.6	-42.5	21.2	0.00e+00	0	41	0	275775488	55	3861
2026-01-29 14:27:53.18	234.79	7.47	-41.4	-42.2	21.5	0.00e+00	0	41	0	282066944	54	3953
2026-01-29 14:27:54.19	234.91	7.52	-41.4	-42.2	21.6	0.00e+00	0	41	0	287309824	54	3945
2026-01-29 14:27:55.20	235.03	7.58	-41.3	-42.1	21.7	0.00e+00	0	41	0	292552704	54	3897
2026-01-29 14:27:56.21	235.15	7.63	-41.3	-42.1	21.7	0.00e+00	0	41	0	298844160	54	3913
2026-01-29 14:27:57.22	235.27	7.69	-41.2	-42.0	21.7	0.00e+00	0	41	0	305135616	54	3868
2026-01-29 14:27:58.23	235.39	7.74	-41.3	-42.1	21.7	0.00e+00	0	41	0	310378496	54	3896
2026-01-29 14:27:59.23	235.51	7.80	-41.2	-42.1	21.8	0.00e+00	0	42	0	315621376	54	3875
2026-01-29 14:28:00.24	235.64	7.85	-41.2	-42.1	21.7	0.00e+00	0	41	0	321912832	54	3881
2026-01-29 14:28:01.25	235.76	7.91	-41.2	-42.0	21.8	0.00e+00	0	41	0	327155712	54	3867
2026-01-29 14:28:02.26	235.89	7.96	-41.3	-42.1	21.7	0.00e+00	0	41	0	332398592	54	3908
2026-01-29 14:28:03.26	236.01	8.02	-41.3	-42.2	21.7	0.00e+00	0	41	0	338690048	54	3935
2026-01-29 14:28:04.27	236.13	8.07	-41.5	-42.3	21.5	0.00e+00	0	41	0	343932928	54	3998
2026-01-29 14:28:05.27	236.26	8.13	-41.4	-42.3	21.6	0.00e+00	0	41	0	349175808	54	3978
2026-01-29 14:28:06.29	236.38	8.18	-41.4	-42.3	21.5	0.00e+00	0	41	0	355467264	54	3984
2026-01-29 14:28:07.29	236.51	8.24	-41.5	-42.4	21.5	0.00e+00	0	41	0	360710144	54	4026
2026-01-29 14:28:08.30	236.64	8.29	-41.5	-42.4	21.5	0.00e+00	0	41	0	367001600	54	4037
2026-01-29 14:28:09.31	236.76	8.35	-41.6	-42.5	21.4	0.00e+00	0	41	0	372244480	54	4074
2026-01-29 14:28:10.31	236.89	8.40	-41.5	-42.4	21.5	0.00e+00	0	41	0	378535936	54	4033
2026-01-29 14:28:11.32	237.02	8.46	-41.4	-42.3	21.6	0.00e+00	0	41	0	383778816	54	3960
2026-01-29 14:28:12.32	237.15	8.51	-41.3	-42.2	21.7	0.00e+00	0	41	0	390070272	54	3921
2026-01-29 14:28:13.33	237.27	8.57	-41.2	-42.1	21.8	0.00e+00	0	41	0	395313152	54	3897
2026-01-29 14:28:14.34	237.40	8.63	-41.3	-42.2	21.7	0.00e+00	0	41	0	400556032	54	3943
2026-01-29 14:28:15.35	237.53	8.68	-41.2	-42.1	21.8	0.00e+00	0	41	0	406847488	54	3879
2026-01-29 14:28:16.36	237.66	8.74	-41.2	-42.1	21.8	0.00e+00	0	41	0	412090368	54	3898
2026-01-29 14:28:17.37	237.80	8.79	-41.3	-42.1	21.8	0.00e+00	0	41	0	417333248	54	3906
2026-01-29 14:28:18.38	237.93	8.85	-41.3	-42.1	21.8	0.00e+00	0	41	0	423624704	54	3898
2026-01-29 14:28:19.39	238.06	8.90	-41.3	-42.2	21.7	0.00e+00	0	41	0	428867584	54	3946
2026-01-29 14:28:20.40	238.19	8.96	-41.2	-42.0	21.9	0.00e+00	0	41	0	434110464	54	3863
2026-01-29 14:28:21.40	238.32	9.01	-41.2	-42.1	21.8	0.00e+00	0	41	0	440401920	54	3870
2026-01-29 14:28:22.41	238.46	9.07	-41.2	-42.0	21.9	0.00e+00	0	41	0	445644800	54	3856
2026-01-29 14:28:23.42	238.59	9.12	-41.2	-42.0	21.9	0.00e+00	0	41	0	451936256	54	3866
2026-01-29 14:28:24.42	238.72	9.18	-41.3	-42.2	21.7	0.00e+00	0	41	0	457179136	54	3927
2026-01-29 14:28:25.43	238.86	9.23	-41.1	-41.9	22.0	0.00e+00	0	41	0	463470592	54	3810
2026-01-29 14:28:26.44	238.99	9.29	-41.0	-41.9	22.0	0.00e+00	0	41	0	468713472	54	3790
2026-01-29 14:28:27.44	239.13	9.34	-40.9	-41.8	22.1	0.00e+00	0	42	0	475004928	53	3967
2026-01-29 14:28:28.45	239.26	9.40	-40.9	-41.7	22.1	0.00e+00	0	41	0	480247808	53	3955
2026-01-29 14:28:29.45	239.40	9.45	-40.9	-41.7	22.2	0.00e+00	0	41	0	485490688	53	3937
2026-01-29 14:28:30.46	239.54	9.51	-41.0	-41.8	22.1	0.00e+00	0	41	0	491782144	53	3978
2026-01-29 14:28:31.46	239.67	9.56	-41.0	-41.8	22.1	0.00e+00	0	42	0	497025024	53	3999
2026-01-29 14:28:32.47	239.81	9.62	-41.0	-41.9	22.1	0.00e+00	0	41	0	502267904	53	4018
2026-01-29 14:28:33.48	239.95	9.67	-40.8	-41.6	22.3	0.00e+00	0	42	0	508559360	53	3911
2026-01-29 14:28:34.49	240.09	9.73	-40.6	-41.4	22.5	0.00e+00	0	41	0	513802240	53	3791
2026-01-29 14:28:35.49	240.23	9.78	-40.6	-41.4	22.5	0.00e+00	0	41	0	519045120	53	3797
2026-01-29 14:28:36.50	240.37	9.84	-40.6	-41.4	22.5	0.00e+00	0	41	0	525336576	53	3799
2026-01-29 14:28:37.51	240.51	9.89	-40.5	-41.3	22.5	0.00e+00	0	42	0	530579456	53	3771
2026-01-29 14:28:38.52	240.65	9.95	-40.4	-41.2	22.6	0.00e+00	0	42	0	536870912	52	3950
2026-01-29 14:28:39.52	240.79	10.00	-40.4	-41.1	22.7	0.00e+00	0	41	0	542113792	52	3908
2026-01-29 14:28:40.53	240.93	10.06	-40.4	-41.2	22.7	0.00e+00	0	41	0	548405248	52	3928
2026-01-29 14:28:41.54	241.08	10.11	-40.5	-41.3	22.6	0.00e+00	0	42	0	553648128	52	3970
2026-01-29 14:28:42.55	241.22	10.16	-40.5	-41.3	22.6	0.00e+00	0	42	0	559939584	52	3986
2026-01-29 14:28:43.56	241.36	10.22	-40.6	-41.4	22.5	0.00e+00	0	41	0	565182464	52	4050
2026-01-29 14:28:44.57	241.51	10.27	-40.6	-41.4	22.5	0.00e+00	0	41	0	570425344	52	4050
2026-01-29 14:28:45.58	241.65	10.33	-40.7	-41.5	22.4	0.00e+00	0	42	0	576716800	52	4065
2026-01-29 14:28:46.58	241.80	10.38	-40.6	-41.5	22.5	0.00e+00	0	41	0	581959680	52	4052
2026-01-29 14:28:47.59	241.94	10.44	-40.8	-41.6	22.3	0.00e+00	0	41	0	587202560	52	4112
2026-01-29 14:28:48.60	242.09	10.49	-40.8	-41.6	22.3	0.00e+00	0	42	0	593494016	52	4117
2026-01-29 14:28:49.61	242.24	10.55	-40.6	-41.4	22.5	0.00e+00	0	42	0	598736896	52	4031
2026-01-29 14:28:50.62	242.38	10.60	-40.6	-41.4	22.5	0.00e+00	0	41	0	605028352	52	4049
2026-01-29 14:28:51.63	242.53	10.66	-40.6	-41.4	22.5	0.00e+00	0	42	0	610271232	52	4026
2026-01-29 14:28:52.63	242.68	10.71	-40.6	-41.4	22.5	0.00e+00	0	41	0	616562688	52	4037
2026-01-29 14:28:53.64	242.83	10.76	-40.7	-41.5	22.4	0.00e+00	0	41	0	621805568	52	4072
2026-01-29 14:28:54.64	242.98	10.82	-40.6	-41.5	22.5	0.00e+00	0	42	0	627048448	52	4060
2026-01-29 14:28:55.65	243.13	10.87	-40.6	-41.5	22.5	0.00e+00	0	42	0	633339904	52	4059
2026-01-29 14:28:56.65	243.27	10.93	-40.6	-41.4	22.5	0.00e+00	0	42	0	638582784	52	4039
2026-01-29 14:28:57.66	243.43	10.98	-40.7	-41.5	22.5	0.00e+00	0	42	0	644874240	52	4061
2026-01-29 14:28:58.67	243.58	11.03	-40.7	-41.5	22.5	0.00e+00	0	42	0	650117120	52	4081
2026-01-29 14:28:59.67	243.73	11.09	-40.6	-41.5	22.5	0.00e+00	0	41	0	655360000	52	4052
2026-01-29 14:29:00.68	243.88	11.14	-40.6	-41.5	22.5	0.00e+00	0	41	0	661651456	52	4054
2026-01-29 14:29:01.69	244.03	11.20	-40.6	-41.4	22.5	0.00e+00	0	42	0	666894336	52	4050
2026-01-29 14:29:02.70	244.19	11.25	-40.6	-41.4	22.5	0.00e+00	0	42	0	672137216	52	4033
2026-01-29 14:29:03.71	244.34	11.30	-40.6	-41.4	22.5	0.00e+00	0	41	0	678428672	52	4051
2026-01-29 14:29:04.71	244.50	11.36	-40.6	-41.4	22.5	0.00e+00	0	42	0	683671552	52	4022
2026-01-29 14:29:05.72	244.65	11.41	-40.6	-41.4	22.5	0.00e+00	0	41	0	689963008	52	4032
2026-01-29 14:29:06.73	244.81	11.46	-40.6	-41.4	22.6	0.00e+00	0	42	0	695205888	52	4014
2026-01-29 14:29:07.73	244.96	11.52	-40.5	-41.3	22.6	0.00e+00	0	42	0	701497344	52	3973
2026-01-29 14:29:08.74	245.12	11.57	-40.2	-41.0	22.9	0.00e+00	0	42	0	706740224	52	3868
2026-01-29 14:29:09.74	245.28	11.62	-40.2	-41.0	22.9	0.00e+00	0	42	0	711983104	52	3838
2026-01-29 14:29:10.75	245.44	11.68	-40.3	-41.1	22.8	0.00e+00	0	41	0	718274560	52	3872
2026-01-29 14:29:11.76	245.59	11.73	-40.1	-40.9	23.0	0.00e+00	0	41	0	723517440	52	3796
2026-01-29 14:29:12.77	245.75	11.78	-40.2	-41.0	22.9	0.00e+00	0	42	0	729808896	52	3827
2026-01-29 14:29:13.77	245.91	11.83	-40.2	-40.9	23.0	0.00e+00	0	41	0	735051776	52	3820
2026-01-29 14:29:14.78	246.07	11.89	-40.1	-40.9	23.0	0.00e+00	0	41	0	740294656	52	3815
2026-01-29 14:29:15.79	246.23	11.94	-40.2	-40.9	23.0	0.00e+00	0	41	0	746586112	52	3823
2026-01-29 14:29:16.79	246.39	11.99	-40.1	-40.9	23.0	0.00e+00	0	41	0	751828992	52	3795
2026-01-29 14:29:17.80	246.56	12.05	-40.2	-41.0	22.9	0.00e+00	0	42	0	757071872	52	3836
2026-01-29 14:29:18.80	246.72	12.10	-40.1	-40.8	23.1	0.00e+00	0	41	0	763363328	52	3775
2026-01-29 14:29:19.80	246.88	12.15	-40.1	-40.9	23.1	0.00e+00	0	42	0	768606208	52	3781
2026-01-29 14:29:20.81	247.04	12.20	-40.0	-40.8	23.1	0.00e+00	0	42	0	774897664	52	3767
2026-01-29 14:29:21.81	247.21	12.25	-40.1	-40.9	23.0	0.00e+00	0	41	0	780140544	52	3791
2026-01-29 14:29:22.82	247.37	12.31	-40.2	-40.9	23.0	0.00e+00	0	42	0	786432000	52	3823
2026-01-29 14:29:23.83	247.54	12.36	-40.1	-40.9	23.0	0.00e+00	0	41	0	791674880	52	3814
2026-01-29 14:29:24.83	247.70	12.41	-40.1	-40.9	23.0	0.00e+00	0	41	0	796917760	52	3807
2026-01-29 14:29:25.84	247.87	12.46	-40.1	-40.8	23.1	0.00e+00	0	41	0	803209216	52	3775
2026-01-29 14:29:26.84	248.03	12.51	-40.0	-40.8	23.1	0.00e+00	0	42	0	808452096	52	3739
2026-01-29 14:29:27.84	248.20	12.56	-39.9	-40.7	23.3	0.00e+00	0	41	0	814743552	51	3946
2026-01-29 14:29:28.85	248.37	12.62	-40.0	-40.7	23.3	0.00e+00	0	42	0	819986432	51	3941
2026-01-29 14:29:29.86	248.54	12.67	-40.0	-40.8	23.2	0.00e+00	0	42	0	825229312	51	3979
2026-01-29 14:29:30.87	248.71	12.72	-40.0	-40.8	23.2	0.00e+00	0	41	0	831520768	51	3977
2026-01-29 14:29:31.87	248.88	12.77	-40.0	-40.8	23.2	0.00e+00	0	42	0	836763648	51	3980
2026-01-29 14:29:32.88	249.05	12.82	-40.0	-40.8	23.3	0.00e+00	0	42	0	842006528	51	3970
2026-01-29 14:29:33.89	249.22	12.87	-40.0	-40.8	23.3	0.00e+00	0	42	0	848297984	51	3963
2026-01-29 14:29:34.90	249.39	12.92	-39.9	-40.7	23.3	0.00e+00	0	42	0	853540864	51	3945
2026-01-29 14:29:35.90	249.56	12.97	-39.9	-40.7	23.3	0.00e+00	0	42	0	859832320	51	3942
2026-01-29 14:29:36.90	249.73	13.02	-39.9	-40.6	23.4	0.00e+00	0	42	0	865075200	51	3900
2026-01-29 14:29:37.91	249.91	13.07	-39.9	-40.6	23.3	0.00e+00	0	42	0	870318080	51	3906
2026-01-29 14:29:38.92	250.08	13.12	-39.9	-40.7	23.3	0.00e+00	0	42	0	876609536	51	3937
2026-01-29 14:29:39.93	250.25	13.17	-40.0	-40.8	23.3	0.00e+00	0	42	0	881852416	51	3960
2026-01-29 14:29:40.94	250.43	13.22	-39.8	-40.6	23.4	0.00e+00	0	41	0	888143872	51	3879
2026-01-29 14:29:41.95	250.61	13.27	-39.8	-40.6	23.5	0.00e+00	0	41	0	893386752	51	3872
2026-01-29 14:29:42.96	250.78	13.32	-39.8	-40.6	23.5	0.00e+00	0	42	0	899678208	51	3871
2026-01-29 14:29:43.96	250.96	13.37	-39.8	-40.6	23.4	0.00e+00	0	41	0	904921088	51	3900
2026-01-29 14:29:44.96	251.13	13.42	-39.9	-40.6	23.4	0.00e+00	0	42	0	910163968	51	3911
2026-01-29 14:29:45.97	251.31	13.47	-39.9	-40.7	23.3	0.00e+00	0	42	0	916455424	51	3939
2026-01-29 14:29:46.97	251.49	13.52	-40.0	-40.8	23.2	0.00e+00	0	42	0	921698304	51	3989
2026-01-29 14:29:47.98	251.67	13.57	-40.0	-40.7	23.3	0.00e+00	0	42	0	926941184	51	3957
2026-01-29 14:29:48.99	251.85	13.62	-39.8	-40.6	23.5	0.00e+00	0	42	0	933232640	51	3889
2026-01-29 14:29:50.00	252.03	13.67	-39.9	-40.7	23.4	0.00e+00	0	42	0	938475520	51	3924
2026-01-29 14:29:51.01	252.21	13.71	-39.8	-40.6	23.4	0.00e+00	0	41	0	944766976	51	3899
2026-01-29 14:29:52.02	252.39	13.76	-40.0	-40.8	23.3	0.00e+00	0	41	0	950009856	51	3962
2026-01-29 14:29:53.03	252.57	13.81	-40.0	-40.8	23.4	0.00e+00	0	42	0	956301312	51	3970
2026-01-29 14:29:54.04	252.75	13.86	-40.0	-40.7	23.5	0.00e+00	0	42	0	961544192	51	3955
2026-01-29 14:29:55.04	252.94	13.91	-40.1	-40.9	23.3	0.00e+00	0	42	0	967835648	51	4014
2026-01-29 14:29:56.04	253.12	13.95	-40.0	-40.8	23.4	0.00e+00	0	42	0	973078528	51	3969
2026-01-29 14:29:57.05	253.30	14.00	-40.0	-40.8	23.4	0.00e+00	0	42	0	978321408	51	3983
2026-01-29 14:29:58.05	253.49	14.05	-39.9	-40.7	23.4	0.00e+00	0	42	0	984612864	51	3939
2026-01-29 14:29:59.06	253.67	14.09	-39.9	-40.7	23.5	0.00e+00	0	41	0	989855744	51	3923
2026-01-29 14:30:00.07	253.86	14.14	-39.8	-40.6	23.5	0.00e+00	0	42	0	995098624	51	3890
2026-01-29 14:30:01.08	254.04	14.19	-39.8	-40.6	23.6	0.00e+00	0	41	0	1001390080	51	3888
2026-01-29 14:30:02.09	254.23	14.23	-39.9	-40.6	23.5	0.00e+00	0	41	0	1006632960	51	3908
2026-01-29 14:30:03.10	254.42	14.28	-39.8	-40.6	23.6	0.00e+00	0	42	0	1011875840	51	3876
2026-01-29 14:30:04.11	254.61	14.33	-39.8	-40.6	23.6	0.00e+00	0	42	0	1018167296	51	3882
2026-01-29 14:30:05.12	254.80	14.37	-39.7	-40.5	23.7	0.00e+00	0	42	0	1024458752	51	3839
2026-01-29 14:30:06.13	254.99	14.42	-39.8	-40.5	23.6	0.00e+00	0	42	0	1029701632	51	3859
2026-01-29 14:30:07.14	255.18	14.46	-39.8	-40.6	23.6	0.00e+00	0	41	0	1034944512	51	3869
2026-01-29 14:30:08.14	255.37	14.51	-39.7	-40.4	23.7	0.00e+00	0	41	0	1041235968	51	3803
2026-01-29 14:30:09.15	255.56	14.56	-39.6	-40.3	23.8	0.00e+00	0	42	0	1046478848	51	3757
2026-01-29 14:30:10.16	255.75	14.60	-39.5	-40.2	23.9	0.00e+00	0	42	0	1052770304	50	3936
2026-01-29 14:30:11.17	255.94	14.64	-39.5	-40.3	23.9	0.00e+00	0	42	0	1058013184	50	3962
2026-01-29 14:30:12.17	256.13	14.69	-39.4	-40.2	23.9	0.00e+00	0	42	0	1063256064	50	3918
2026-01-29 14:30:13.18	256.33	14.73	-39.5	-40.3	23.8	0.00e+00	0	42	0	1069547520	50	3971
2026-01-29 14:30:14.19	256.52	14.78	-39.6	-40.4	23.8	0.00e+00	0	42	0	1074790400	50	4013
2026-01-29 14:30:15.20	256.71	14.82	-39.6	-40.4	23.7	0.00e+00	0	42	0	1080033280	50	4020
2026-01-29 14:30:16.20	256.91	14.86	-39.6	-40.4	23.7	0.00e+00	0	41	0	1086324736	50	4022
2026-01-29 14:30:17.21	257.10	14.91	-39.6	-40.4	23.7	0.00e+00	0	41	0	1091567616	50	4025
2026-01-29 14:30:18.22	257.30	14.95	-39.7	-40.4	23.7	0.00e+00	0	41	0	1097859072	50	4048
2026-01-29 14:30:19.22	257.49	14.99	-39.5	-40.3	23.8	0.00e+00	0	42	0	1103101952	50	3961
2026-01-29 14:30:20.23	257.69	15.04	-39.5	-40.2	23.9	0.00e+00	0	42	0	1109393408	50	3942
2026-01-29 14:30:21.24	257.89	15.08	-39.5	-40.3	23.9	0.00e+00	0	42	0	1114636288	50	3969
2026-01-29 14:30:22.25	258.09	15.12	-39.5	-40.2	23.9	0.00e+00	0	41	0	1119879168	50	3949
2026-01-29 14:30:23.26	258.29	15.16	-39.5	-40.3	23.9	0.00e+00	0	42	0	1126170624	50	3960
2026-01-29 14:30:24.27	258.49	15.20	-39.5	-40.2	23.9	0.00e+00	0	42	0	1131413504	50	3955
2026-01-29 14:30:25.28	258.69	15.25	-39.5	-40.2	23.9	0.00e+00	0	42	0	1137704960	50	3937
2026-01-29 14:30:26.29	258.89	15.29	-39.5	-40.3	23.9	0.00e+00	0	41	0	1142947840	50	3959
2026-01-29 14:30:27.30	259.09	15.33	-39.6	-40.3	23.8	0.00e+00	0	41	0	1148190720	50	3993
2026-01-29 14:30:28.31	259.29	15.37	-39.6	-40.3	23.8	0.00e+00	0	42	0	1154482176	50	3998
2026-01-29 14:30:29.32	259.49	15.41	-39.7	-40.4	23.7	0.00e+00	0	42	0	1160773632	50	4051
2026-01-29 14:30:30.33	259.69	15.45	-39.6	-40.4	23.7	0.00e+00	0	42	0	1166016512	50	4031
2026-01-29 14:30:31.33	259.90	15.49	-39.6	-40.4	23.7	0.00e+00	0	42	0	1171259392	50	4034
2026-01-29 14:30:32.34	260.10	15.53	-39.6	-40.4	23.8	0.00e+00	0	42	0	1177550848	50	4016
2026-01-29 14:30:33.35	260.30	15.57	-39.5	-40.3	23.9	0.00e+00	0	42	0	1182793728	50	3968
2026-01-29 14:30:34.35	260.51	15.61	-39.4	-40.1	24.0	0.00e+00	0	42	0	1188036608	50	3896
2026-01-29 14:30:35.36	260.71	15.65	-39.3	-40.0	24.0	0.00e+00	0	41	0	1194328064	50	3853
2026-01-29 14:30:36.37	260.92	15.68	-39.3	-40.0	24.1	0.00e+00	0	41	0	1199570944	50	3854
2026-01-29 14:30:37.38	261.12	15.72	-39.3	-40.0	24.1	0.00e+00	0	42	0	1204813824	50	3844
2026-01-29 14:30:38.39	261.33	15.76	-39.3	-40.1	24.1	0.00e+00	0	42	0	1211105280	50	3871
2026-01-29 14:30:39.39	261.54	15.80	-39.4	-40.2	23.9	0.00e+00	0	42	0	1216348160	50	3927
2026-01-29 14:30:40.40	261.74	15.83	-39.5	-40.2	23.9	0.00e+00	0	42	0	1222639616	50	3952
2026-01-29 14:30:41.41	261.95	15.87	-39.4	-40.2	23.9	0.00e+00	0	42	0	1227882496	50	3928
2026-01-29 14:30:42.42	262.16	15.91	-39.5	-40.3	23.9	0.00e+00	0	42	0	1234173952	50	3968
2026-01-29 14:30:43.42	262.37	15.94	-39.5	-40.3	23.9	0.00e+00	0	42	0	1239416832	50	3961
2026-01-29 14:30:44.43	262.58	15.98	-39.3	-40.0	24.1	0.00e+00	0	42	0	1245708288	50	3856
2026-01-29 14:30:45.43	262.79	16.02	-39.3	-40.1	24.0	0.00e+00	0	42	0	1250951168	50	3878
2026-01-29 14:30:46.44	263.00	16.05	-39.3	-40.1	24.0	0.00e+00	0	42	0	1256194048	50	3880
2026-01-29 14:30:47.45	263.21	16.09	-39.2	-40.0	24.1	0.00e+00	0	42	0	1262485504	50	3836
2026-01-29 14:30:48.46	263.42	16.12	-39.2	-39.9	24.2	0.00e+00	0	42	0	1267728384	50	3820
2026-01-29 14:30:49.47	263.63	16.16	-39.2	-39.9	24.2	0.00e+00	0	42	0	1272971264	50	3823
2026-01-29 14:30:50.48	263.84	16.19	-39.2	-39.9	24.2	0.00e+00	0	42	0	1279262720	50	3796
2026-01-29 14:30:51.49	264.06	16.22	-39.1	-39.8	24.3	0.00e+00	0	42	0	1284505600	50	3763
2026-01-29 14:30:52.50	264.27	16.26	-39.1	-39.9	24.2	0.00e+00	0	42	0	1289748480	50	3783
2026-01-29 14:30:53.51	264.49	16.29	-39.1	-39.9	24.2	0.00e+00	0	42	0	1296039936	50	3781
2026-01-29 14:30:54.52	264.70	16.32	-39.1	-39.8	24.3	0.00e+00	0	42	0	1302331392	50	3768
2026-01-29 14:30:55.53	264.92	16.36	-39.1	-39.8	24.3	0.00e+00	0	42	0	1307574272	50	3777
2026-01-29 14:30:56.54	265.13	16.39	-39.1	-39.8	24.3	0.00e+00	0	42	0	1312817152	50	3778
2026-01-29 14:30:57.55	265.35	16.42	-39.1	-39.9	24.2	0.00e+00	0	42	0	1319108608	50	3794
2026-01-29 14:30:58.55	265.56	16.45	-39.2	-40.0	24.2	0.00e+00	0	41	0	1324351488	50	3828
2026-01-29 14:30:59.56	265.78	16.48	-39.2	-40.0	24.2	0.00e+00	0	42	0	1330642944	50	3825
2026-01-29 14:31:00.57	265.99	16.51	-39.2	-39.9	24.2	0.00e+00	0	42	0	1335885824	50	3799
2026-01-29 14:31:01.58	266.21	16.54	-39.2	-39.9	24.2	0.00e+00	0	41	0	1341128704	50	3806
2026-01-29 14:31:02.58	266.43	16.57	-39.1	-39.9	24.2	0.00e+00	0	42	0	1347420160	50	3790
2026-01-29 14:31:03.59	266.65	16.60	-39.1	-39.9	24.3	0.00e+00	0	42	0	1352663040	50	3787
2026-01-29 14:31:04.60	266.87	16.63	-39.2	-40.0	24.2	0.00e+00	0	42	0	1357905920	50	3831
2026-01-29 14:31:05.61	267.08	16.66	-39.2	-39.9	24.2	0.00e+00	0	42	0	1364197376	50	3821
2026-01-29 14:31:06.62	267.30	16.69	-39.3	-40.0	24.1	0.00e+00	0	42	0	1370488832	50	3853
2026-01-29 14:31:07.63	267.52	16.72	-39.4	-40.1	24.0	0.00e+00	0	42	0	1375731712	50	3903
2026-01-29 14:31:08.64	267.75	16.75	-39.3	-40.1	24.0	0.00e+00	0	41	0	1380974592	50	3884
2026-01-29 14:31:09.65	267.97	16.78	-39.4	-40.2	24.0	0.00e+00	0	42	0	1387266048	50	3925
2026-01-29 14:31:10.65	268.19	16.80	-39.3	-40.1	24.0	0.00e+00	0	42	0	1392508928	50	3891
2026-01-29 14:31:11.66	268.41	16.83	-39.3	-40.1	24.1	0.00e+00	0	42	0	1397751808	50	3873
2026-01-29 14:31:12.67	268.63	16.86	-39.2	-40.0	24.1	0.00e+00	0	42	0	1404043264	50	3833
2026-01-29 14:31:13.68	268.85	16.88	-39.1	-39.9	24.2	0.00e+00	0	42	0	1409286144	50	3798
2026-01-29 14:31:14.69	269.07	16.91	-39.2	-40.0	24.1	0.00e+00	0	42	0	1415577600	50	3836
2026-01-29 14:31:15.70	269.30	16.93	-39.2	-39.9	24.2	0.00e+00	0	42	0	1420820480	50	3799
2026-01-29 14:31:16.71	269.52	16.96	-39.2	-39.9	24.2	0.00e+00	0	42	0	1426063360	50	3822
2026-01-29 14:31:17.72	269.74	16.98	-39.2	-40.0	24.2	0.00e+00	0	42	0	1432354816	50	3835
2026-01-29 14:31:18.73	269.97	17.01	-39.4	-40.1	24.0	0.00e+00	0	42	0	1438646272	50	3911
2026-01-29 14:31:19.73	270.19	17.03	-39.4	-40.1	24.0	0.00e+00	0	42	0	1443889152	50	3906
2026-01-29 14:31:20.74	270.42	17.05	-39.3	-40.1	24.1	0.00e+00	0	42	0	1449132032	50	3875
2026-01-29 14:31:21.74	270.64	17.08	-39.2	-40.0	24.1	0.00e+00	0	41	0	1455423488	50	3839
2026-01-29 14:31:22.75	270.86	17.10	-39.3	-40.0	24.1	0.00e+00	0	42	0	1460666368	50	3863
2026-01-29 14:31:23.76	271.09	17.12	-39.2	-39.9	24.2	0.00e+00	0	42	0	1465909248	50	3809
2026-01-29 14:31:24.77	271.32	17.14	-39.2	-39.9	24.2	0.00e+00	0	42	0	1472200704	50	3816
2026-01-29 14:31:25.78	271.54	17.16	-39.2	-39.9	24.2	0.00e+00	0	42	0	1477443584	50	3803
2026-01-29 14:31:26.79	271.77	17.19	-39.2	-39.9	24.2	0.00e+00	0	42	0	1482686464	50	3812
2026-01-29 14:31:27.79	271.99	17.21	-39.0	-39.8	24.4	0.00e+00	0	42	0	1488977920	50	3747
2026-01-29 14:31:28.80	272.22	17.23	-39.1	-39.8	24.3	0.00e+00	0	41	0	1494220800	50	3779
2026-01-29 14:31:29.80	272.45	17.25	-39.1	-39.8	24.3	0.00e+00	0	42	0	1500512256	50	3750
2026-01-29 14:31:30.80	272.67	17.26	-39.1	-39.8	24.3	0.00e+00	0	42	0	1505755136	50	3776
2026-01-29 14:31:31.81	272.90	17.28	-39.2	-40.0	24.2	0.00e+00	0	42	0	1512046592	50	3846
2026-01-29 14:31:32.82	273.13	17.30	-39.3	-40.0	24.1	0.00e+00	0	42	0	1517289472	50	3853
2026-01-29 14:31:33.83	273.36	17.32	-39.3	-40.1	24.1	0.00e+00	0	42	0	1523580928	50	3878
2026-01-29 14:31:34.83	273.59	17.34	-39.2	-40.0	24.2	0.00e+00	0	42	0	1528823808	50	3832
2026-01-29 14:31:35.84	273.82	17.36	-39.1	-39.8	24.3	0.00e+00	0	42	0	1534066688	50	3759
2026-01-29 14:31:36.85	274.04	17.37	-39.1	-39.8	24.4	0.00e+00	0	42	0	1540358144	50	3751
2026-01-29 14:31:37.86	274.27	17.39	-39.0	-39.7	24.4	0.00e+00	0	42	0	1545601024	50	3716
2026-01-29 14:31:38.87	274.50	17.40	-39.0	-39.7	24.4	0.00e+00	0	42	0	1550843904	50	3715
2026-01-29 14:31:39.88	274.73	17.42	-39.1	-39.8	24.3	0.00e+00	0	42	0	1557135360	50	3758
2026-01-29 14:31:40.89	274.97	17.43	-39.1	-39.8	24.3	0.00e+00	0	42	0	1562378240	50	3760
2026-01-29 14:31:41.89	275.19	17.45	-39.1	-39.8	24.4	0.00e+00	0	42	0	1567621120	50	3753
2026-01-29 14:31:42.90	275.42	17.46	-39.0	-39.8	24.4	0.00e+00	0	42	0	1573912576	50	3740
2026-01-29 14:31:43.91	275.66	17.48	-38.9	-39.6	24.5	0.00e+00	0	42	0	1579155456	49	3888
2026-01-29 14:31:44.91	275.88	17.49	-38.9	-39.6	24.6	0.00e+00	0	42	0	1585446912	49	3876
2026-01-29 14:31:45.92	276.12	17.50	-39.0	-39.7	24.4	0.00e+00	0	42	0	1590689792	49	3935
2026-01-29 14:31:46.93	276.35	17.52	-39.0	-39.7	24.4	0.00e+00	0	42	0	1596981248	49	3934
2026-01-29 14:31:47.93	276.58	17.53	-39.0	-39.7	24.4	0.00e+00	0	42	0	1602224128	49	3936
2026-01-29 14:31:48.95	276.81	17.54	-39.0	-39.7	24.4	0.00e+00	0	42	0	1608515584	49	3939
2026-01-29 14:31:49.96	277.04	17.55	-39.0	-39.7	24.4	0.00e+00	0	42	0	1613758464	49	3930
2026-01-29 14:31:50.97	277.28	17.56	-39.0	-39.7	24.4	0.00e+00	0	42	0	1619001344	49	3942
2026-01-29 14:31:51.97	277.51	17.57	-39.1	-39.8	24.3	0.00e+00	0	42	0	1625292800	49	4001
2026-01-29 14:31:52.98	277.74	17.58	-39.0	-39.8	24.4	0.00e+00	0	42	0	1630535680	49	3975
2026-01-29 14:31:53.99	277.97	17.59	-39.0	-39.7	24.4	0.00e+00	0	42	0	1635778560	49	3936
2026-01-29 14:31:54.99	278.20	17.60	-39.0	-39.7	24.5	0.00e+00	0	42	0	1642070016	49	3934
2026-01-29 14:31:56.00	278.44	17.61	-38.9	-39.7	24.5	0.00e+00	0	42	0	1647312896	49	3925
2026-01-29 14:31:57.01	278.67	17.62	-38.8	-39.5	24.6	0.00e+00	0	42	0	1652555776	49	3866
2026-01-29 14:31:58.00	278.90	17.62	-38.8	-39.5	24.6	0.00e+00	0	41	0	1658847232	49	3862
2026-01-29 14:31:59.01	279.13	17.63	-38.9	-39.6	24.5	0.00e+00	0	42	0	1664090112	49	3905
2026-01-29 14:32:00.02	279.36	17.64	-39.0	-39.8	24.4	0.00e+00	0	42	0	1670381568	49	3963
2026-01-29 14:32:01.03	279.60	17.64	-39.0	-39.7	24.5	0.00e+00	0	42	0	1675624448	49	3948
2026-01-29 14:32:02.03	279.83	17.65	-38.9	-39.7	24.5	0.00e+00	0	41	0	1681915904	49	3917
2026-01-29 14:32:03.03	280.06	17.65	-39.1	-39.8	24.4	0.00e+00	0	42	0	1687158784	49	3980
2026-01-29 14:32:04.04	280.29	17.66	-39.1	-39.8	24.4	0.00e+00	0	42	0	1693450240	49	4004
2026-01-29 14:32:05.05	280.53	17.66	-39.1	-39.8	24.4	0.00e+00	0	42	0	1698693120	49	3985
2026-01-29 14:32:06.06	280.76	17.67	-39.1	-39.8	24.4	0.00e+00	0	42	0	1703936000	49	4002
2026-01-29 14:32:07.07	281.00	17.67	-39.2	-39.9	24.3	0.00e+00	0	42	0	1710227456	49	4020
2026-01-29 14:32:08.07	281.23	17.67	-39.2	-40.0	24.3	0.00e+00	0	42	0	1715470336	49	4056
2026-01-29 14:32:09.07	281.46	17.68	-39.1	-39.8	24.4	0.00e+00	0	41	0	1720713216	49	3978
2026-01-29 14:32:10.08	281.69	17.68	-39.1	-39.8	24.4	0.00e+00	0	42	0	1727004672	49	3981
2026-01-29 14:32:11.09	281.93	17.68	-39.1	-39.8	24.4	0.00e+00	0	42	0	1732247552	49	3998
2026-01-29 14:32:12.09	282.16	17.68	-39.2	-39.9	24.3	0.00e+00	0	42	0	1737490432	49	4030
2026-01-29 14:32:13.10	282.39	17.68	-39.2	-39.9	24.3	0.00e+00	0	42	0	1743781888	49	4036
2026-01-29 14:32:14.11	282.63	17.68	-39.1	-39.8	24.4	0.00e+00	0	41	0	1749024768	49	3992
2026-01-29 14:32:15.12	282.86	17.68	-39.1	-39.8	24.4	0.00e+00	0	42	0	1755316224	49	3991
2026-01-29 14:32:16.13	283.10	17.68	-39.1	-39.8	24.4	0.00e+00	0	42	0	1760559104	49	3997
2026-01-29 14:32:17.13	283.33	17.68	-39.1	-39.8	24.4	0.00e+00	0	42	0	1766850560	49	4003
2026-01-29 14:32:18.14	283.56	17.68	-39.2	-40.0	24.3	0.00e+00	0	42	0	1772093440	49	4063
2026-01-29 14:32:19.15	283.80	17.68	-39.2	-39.9	24.3	0.00e+00	0	42	0	1778384896	49	4041
2026-01-29 14:32:20.15	284.03	17.67	-39.2	-39.9	24.3	0.00e+00	0	42	0	1783627776	49	4036
2026-01-29 14:32:21.17	284.26	17.67	-39.3	-40.0	24.3	0.00e+00	0	42	0	1788870656	49	4066
2026-01-29 14:32:22.17	284.50	17.67	-39.2	-39.9	24.3	0.00e+00	0	42	0	1795162112	49	4031
2026-01-29 14:32:23.18	284.73	17.66	-39.3	-40.0	24.3	0.00e+00	0	42	0	1800404992	49	4084
2026-01-29 14:32:24.19	284.96	17.66	-39.3	-40.0	24.2	0.00e+00	0	42	0	1805647872	49	4092
2026-01-29 14:32:25.19	285.20	17.65	-39.4	-40.1	24.2	0.00e+00	0	42	0	1811939328	49	4121
2026-01-29 14:32:26.20	285.43	17.65	-39.4	-40.2	24.1	0.00e+00	0	42	0	1817182208	49	4154
2026-01-29 14:32:27.20	285.66	17.64	-39.5	-40.2	24.0	0.00e+00	0	42	0	1822425088	49	4180
2026-01-29 14:32:28.21	285.89	17.64	-39.5	-40.2	24.1	0.00e+00	0	42	0	1828716544	49	4179
2026-01-29 14:32:29.22	286.13	17.63	-39.4	-40.2	24.1	0.00e+00	0	41	0	1835008000	49	4157
2026-01-29 14:32:30.23	286.36	17.62	-39.4	-40.1	24.2	0.00e+00	0	42	0	1840250880	49	4115
2026-01-29 14:32:31.24	286.59	17.62	-39.5	-40.2	24.1	0.00e+00	0	41	0	1845493760	49	4160
2026-01-29 14:32:32.25	286.83	17.61	-39.4	-40.1	24.2	0.00e+00	0	42	0	1851785216	49	4134
2026-01-29 14:32:33.26	287.06	17.60	-39.4	-40.1	24.2	0.00e+00	0	42	0	1857028096	49	4134
2026-01-29 14:32:34.26	287.29	17.59	-39.4	-40.1	24.2	0.00e+00	0	42	0	1863319552	49	4124
2026-01-29 14:32:35.27	287.52	17.58	-39.4	-40.1	24.2	0.00e+00	0	42	0	1868562432	49	4142
2026-01-29 14:32:36.28	287.76	17.57	-39.4	-40.1	24.2	0.00e+00	0	42	0	1873805312	49	4135
2026-01-29 14:32:37.29	287.99	17.56	-39.4	-40.2	24.2	0.00e+00	0	42	0	1880096768	49	4149
2026-01-29 14:32:38.30	288.22	17.55	-39.2	-39.9	24.4	0.00e+00	0	42	0	1885339648	49	4027
2026-01-29 14:32:39.31	288.45	17.54	-39.3	-40.0	24.3	0.00e+00	0	42	0	1890582528	49	4075
2026-01-29 14:32:40.32	288.68	17.53	-39.2	-39.9	24.4	0.00e+00	0	41	0	1896873984	49	4018
2026-01-29 14:32:41.33	288.92	17.52	-39.2	-39.9	24.4	0.00e+00	0	42	0	1903165440	49	4047
2026-01-29 14:32:42.33	289.14	17.50	-39.2	-39.9	24.4	0.00e+00	0	42	0	1908408320	49	4019
2026-01-29 14:32:43.34	289.38	17.49	-39.2	-39.9	24.4	0.00e+00	0	42	0	1913651200	49	4049
2026-01-29 14:32:44.34	289.60	17.48	-39.2	-39.9	24.4	0.00e+00	0	42	0	1919942656	49	4037
2026-01-29 14:32:45.35	289.84	17.46	-39.3	-40.0	24.3	0.00e+00	0	42	0	1925185536	49	4074
2026-01-29 14:32:46.35	290.06	17.45	-39.3	-40.0	24.3	0.00e+00	0	42	0	1930428416	49	4087
2026-01-29 14:32:47.36	290.29	17.44	-39.3	-40.0	24.3	0.00e+00	0	42	0	1936719872	49	4097
2026-01-29 14:32:48.37	290.52	17.42	-39.3	-40.1	24.3	0.00e+00	0	42	0	1941962752	49	4120
2026-01-29 14:32:49.38	290.75	17.41	-39.5	-40.2	24.2	0.00e+00	0	42	0	1948254208	49	4176
2026-01-29 14:32:50.38	290.98	17.39	-39.5	-40.2	24.2	0.00e+00	0	42	0	1953497088	49	4189
2026-01-29 14:32:51.39	291.21	17.37	-39.6	-40.4	24.0	0.00e+00	0	42	0	1958739968	49	4265
2026-01-29 14:32:52.40	291.44	17.36	-39.7	-40.4	24.0	0.00e+00	0	42	0	1965031424	49	4285
2026-01-29 14:32:53.41	291.67	17.34	-39.6	-40.3	24.1	0.00e+00	0	42	0	1970274304	49	4228
2026-01-29 14:32:54.42	291.90	17.32	-39.6	-40.3	24.1	0.00e+00	0	41	0	1976565760	49	4242
2026-01-29 14:32:55.42	292.12	17.30	-39.6	-40.3	24.1	0.00e+00	0	42	0	1981808640	49	4231
2026-01-29 14:32:56.43	292.35	17.29	-39.6	-40.3	24.1	0.00e+00	0	42	0	1988100096	49	4215
2026-01-29 14:32:57.43	292.58	17.27	-39.6	-40.3	24.1	0.00e+00	0	42	0	1993342976	49	4220
2026-01-29 14:32:58.44	292.81	17.25	-39.6	-40.3	24.1	0.00e+00	0	42	0	1998585856	49	4232
2026-01-29 14:32:59.45	293.03	17.23	-39.6	-40.3	24.0	0.00e+00	0	42	0	2004877312	49	4232
2026-01-29 14:33:00.46	293.26	17.21	-39.7	-40.5	23.9	0.00e+00	0	42	0	2010120192	49	4300
2026-01-29 14:33:01.47	293.49	17.19	-39.8	-40.5	23.9	0.00e+00	0	42	0	2015363072	50	4096
2026-01-29 14:33:02.48	293.71	17.17	-39.9	-40.7	23.8	0.00e+00	0	42	0	2021654528	50	4149
2026-01-29 14:33:03.49	293.94	17.15	-39.8	-40.6	23.8	0.00e+00	0	42	0	2026897408	50	4138
2026-01-29 14:33:04.49	294.16	17.12	-39.9	-40.7	23.7	0.00e+00	0	42	0	2033188864	50	4178
2026-01-29 14:33:05.50	294.39	17.10	-40.0	-40.7	23.7	0.00e+00	0	42	0	2038431744	50	4189
2026-01-29 14:33:06.51	294.61	17.08	-40.0	-40.7	23.7	0.00e+00	0	42	0	2043674624	50	4193
2026-01-29 14:33:07.52	294.84	17.06	-39.7	-40.4	24.0	0.00e+00	0	42	0	2049966080	50	4030
2026-01-29 14:33:08.52	295.06	17.03	-39.5	-40.3	24.1	0.00e+00	0	42	0	2056257536	50	3962
2026-01-29 14:33:09.53	295.29	17.01	-39.5	-40.2	24.1	0.00e+00	0	42	0	2061500416	50	3952
2026-01-29 14:33:10.53	295.51	16.99	-39.5	-40.3	24.0	0.00e+00	0	42	0	2066743296	50	3981
2026-01-29 14:33:11.54	295.73	16.96	-39.6	-40.3	24.1	0.00e+00	0	42	0	2073034752	50	4000
2026-01-29 14:33:12.55	295.95	16.94	-39.6	-40.3	24.1	0.00e+00	0	42	0	2078277632	50	3986
2026-01-29 14:33:13.56	296.18	16.91	-39.6	-40.3	24.1	0.00e+00	0	42	0	2083520512	50	3990
2026-01-29 14:33:14.57	296.40	16.89	-39.8	-40.5	23.9	0.00e+00	0	42	0	2089811968	50	4087
2026-01-29 14:33:15.57	296.62	16.86	-39.7	-40.4	24.0	0.00e+00	0	42	0	2095054848	50	4041
2026-01-29 14:33:16.58	296.84	16.83	-39.6	-40.4	24.0	0.00e+00	0	42	0	2100297728	50	4017
2026-01-29 14:33:17.59	297.06	16.81	-39.6	-40.3	24.0	0.00e+00	0	42	0	2106589184	50	4004
2026-01-29 14:33:18.59	297.28	16.78	-39.8	-40.5	23.8	0.00e+00	0	42	0	2111832064	50	4088
2026-01-29 14:33:19.60	297.50	16.75	-39.7	-40.5	23.9	0.00e+00	0	42	0	2118123520	50	4073
2026-01-29 14:33:20.61	297.72	16.72	-39.8	-40.5	23.8	0.00e+00	0	42	0	2123366400	50	4093
2026-01-29 14:33:21.62	297.94	16.70	-39.8	-40.6	23.7	0.00e+00	0	42	0	2129657856	50	4126
2026-01-29 14:33:22.63	298.16	16.67	-39.9	-40.6	23.7	0.00e+00	0	41	0	2134900736	50	4142
2026-01-29 14:33:23.64	298.38	16.64	-39.8	-40.6	23.7	0.00e+00	0	42	0	2141192192	50	4134
2026-01-29 14:33:24.64	298.59	16.61	-39.9	-40.7	23.7	0.00e+00	0	42	0	2146435072	50	4146
2026-01-29 14:33:25.65	298.81	16.58	-39.8	-40.6	23.7	0.00e+00	0	42	0	2151677952	50	4123
2026-01-29 14:33:26.66	299.03	16.55	-39.8	-40.6	23.7	0.00e+00	0	42	0	2157969408	50	4114
2026-01-29 14:33:27.67	299.25	16.52	-39.9	-40.7	23.6	0.00e+00	0	42	0	2163212288	50	4155
2026-01-29 14:33:28.67	299.46	16.49	-39.7	-40.5	23.8	0.00e+00	0	42	0	2168455168	50	4068
2026-01-29 14:33:29.68	299.68	16.46	-39.8	-40.5	23.7	0.00e+00	0	42	0	2174746624	50	4097
2026-01-29 14:33:30.69	299.89	16.43	-39.6	-40.4	23.9	0.00e+00	0	42	0	2179989504	50	4023
2026-01-29 14:33:31.70	300.11	16.39	-39.7	-40.5	23.8	0.00e+00	0	42	0	2185232384	50	4064
2026-01-29 14:33:32.71	300.32	16.36	-39.7	-40.4	23.8	0.00e+00	0	42	0	2191523840	50	4049
2026-01-29 14:33:33.72	300.54	16.33	-39.8	-40.6	23.7	0.00e+00	0	42	0	2197815296	50	4103
2026-01-29 14:33:34.73	300.75	16.30	-39.8	-40.6	23.7	0.00e+00	0	42	0	2203058176	50	4102
2026-01-29 14:33:35.74	300.97	16.26	-39.8	-40.6	23.7	0.00e+00	0	42	0	2208301056	50	4107
2026-01-29 14:33:36.75	301.18	16.23	-39.7	-40.4	23.8	0.00e+00	0	42	0	2214592512	50	4047
2026-01-29 14:33:37.76	301.39	16.20	-39.7	-40.5	23.8	0.00e+00	0	41	0	2219835392	50	4067
2026-01-29 14:33:38.76	301.60	16.16	-39.8	-40.6	23.6	0.00e+00	0	42	0	2226126848	50	4128
2026-01-29 14:33:39.77	301.81	16.13	-39.6	-40.4	23.8	0.00e+00	0	42	0	2231369728	50	4010
2026-01-29 14:33:40.78	302.03	16.09	-39.6	-40.3	23.8	0.00e+00	0	42	0	2236612608	50	4002
2026-01-29 14:33:41.78	302.23	16.06	-39.7	-40.4	23.8	0.00e+00	0	42	0	2242904064	50	4041
2026-01-29 14:33:42.79	302.44	16.02	-39.6	-40.4	23.8	0.00e+00	0	42	0	2248146944	50	4010
2026-01-29 14:33:43.80	302.65	15.99	-39.5	-40.3	23.9	0.00e+00	0	42	0	2253389824	50	3964
2026-01-29 14:33:44.81	302.86	15.95	-39.5	-40.3	23.9	0.00e+00	0	42	0	2259681280	50	3963
2026-01-29 14:33:45.82	303.07	15.92	-39.6	-40.3	23.9	0.00e+00	0	42	0	2265972736	50	3981
2026-01-29 14:33:46.83	303.28	15.88	-39.6	-40.4	23.8	0.00e+00	0	42	0	2271215616	50	4014
2026-01-29 14:33:47.83	303.49	15.84	-39.5	-40.3	23.9	0.00e+00	0	42	0	2276458496	50	3976
2026-01-29 14:33:48.84	303.69	15.81	-39.6	-40.4	23.8	0.00e+00	0	42	0	2282749952	50	4015
2026-01-29 14:33:49.85	303.90	15.77	-39.6	-40.4	23.8	0.00e+00	0	42	0	2287992832	50	4026
2026-01-29 14:33:50.85	304.10	15.73	-39.6	-40.3	23.8	0.00e+00	0	42	0	2293235712	50	4002
2026-01-29 14:33:51.86	304.31	15.69	-39.6	-40.4	23.7	0.00e+00	0	42	0	2299527168	50	4029
2026-01-29 14:33:52.87	304.52	15.66	-39.7	-40.4	23.7	0.00e+00	0	42	0	2304770048	50	4040
2026-01-29 14:33:53.88	304.72	15.62	-39.7	-40.4	23.7	0.00e+00	0	42	0	2311061504	50	4048
2026-01-29 14:33:54.88	304.92	15.58	-39.7	-40.5	23.7	0.00e+00	0	42	0	2316304384	50	4055
2026-01-29 14:33:55.89	305.13	15.54	-39.8	-40.6	23.6	0.00e+00	0	42	0	2321547264	50	4106
2026-01-29 14:33:56.89	305.33	15.50	-39.9	-40.6	23.5	0.00e+00	0	42	0	2327838720	50	4143
2026-01-29 14:33:57.90	305.53	15.46	-39.9	-40.7	23.5	0.00e+00	0	42	0	2333081600	50	4169
2026-01-29 14:33:58.90	305.73	15.42	-40.0	-40.8	23.4	0.00e+00	0	42	0	2338324480	50	4223
2026-01-29 14:33:59.91	305.93	15.38	-40.0	-40.8	23.4	0.00e+00	0	42	0	2344615936	50	4224
2026-01-29 14:34:00.91	306.13	15.34	-40.0	-40.8	23.4	0.00e+00	0	42	0	2350907392	50	4229
2026-01-29 14:34:01.92	306.33	15.30	-39.9	-40.7	23.5	0.00e+00	0	42	0	2356150272	50	4169
2026-01-29 14:34:02.92	306.53	15.26	-39.9	-40.7	23.6	0.00e+00	0	42	0	2361393152	50	4150
2026-01-29 14:34:03.93	306.73	15.22	-39.8	-40.6	23.6	0.00e+00	0	42	0	2367684608	50	4115
2026-01-29 14:34:04.94	306.93	15.18	-39.8	-40.6	23.6	0.00e+00	0	42	0	2372927488	50	4108
2026-01-29 14:34:05.95	307.13	15.13	-39.8	-40.6	23.6	0.00e+00	0	42	0	2378170368	50	4113
2026-01-29 14:34:06.96	307.32	15.09	-39.9	-40.7	23.5	0.00e+00	0	42	0	2384461824	50	4148
2026-01-29 14:34:07.96	307.52	15.05	-39.9	-40.7	23.5	0.00e+00	0	42	0	2389704704	50	4181
2026-01-29 14:34:08.97	307.72	15.01	-39.9	-40.7	23.5	0.00e+00	0	42	0	2395996160	50	4169
2026-01-29 14:34:09.98	307.91	14.97	-39.9	-40.7	23.5	0.00e+00	0	42	0	2401239040	50	4176
2026-01-29 14:34:10.99	308.11	14.92	-39.9	-40.7	23.4	0.00e+00	0	42	0	2406481920	50	4176
2026-01-29 14:34:12.00	308.30	14.88	-39.8	-40.6	23.6	0.00e+00	0	42	0	2412773376	50	4119
2026-01-29 14:34:13.00	308.50	14.84	-39.8	-40.6	23.6	0.00e+00	0	42	0	2418016256	50	4104
2026-01-29 14:34:14.01	308.69	14.79	-39.9	-40.7	23.5	0.00e+00	0	41	0	2424307712	50	4152
2026-01-29 14:34:15.02	308.88	14.75	-39.9	-40.7	23.5	0.00e+00	0	42	0	2429550592	50	4152
2026-01-29 14:34:16.03	309.08	14.71	-40.1	-40.8	23.3	0.00e+00	0	42	0	2435842048	50	4242
2026-01-29 14:34:17.03	309.27	14.66	-40.0	-40.8	23.4	0.00e+00	0	42	0	2441084928	50	4209
2026-01-29 14:34:18.04	309.46	14.62	-40.0	-40.8	23.4	0.00e+00	0	42	0	2446327808	50	4222
2026-01-29 14:34:19.05	309.65	14.57	-39.9	-40.7	23.4	0.00e+00	0	42	0	2452619264	50	4161
2026-01-29 14:34:20.06	309.84	14.53	-40.0	-40.8	23.4	0.00e+00	0	42	0	2457862144	50	4197
2026-01-29 14:34:21.07	310.03	14.48	-39.8	-40.6	23.5	0.00e+00	0	42	0	2463105024	50	4119
2026-01-29 14:34:22.08	310.22	14.44	-39.9	-40.7	23.5	0.00e+00	0	42	0	2469396480	50	4153
2026-01-29 14:34:23.09	310.41	14.39	-39.7	-40.5	23.6	0.00e+00	0	42	0	2474639360	50	4066
2026-01-29 14:34:24.10	310.60	14.35	-39.8	-40.5	23.6	0.00e+00	0	42	0	2480930816	50	4090
2026-01-29 14:34:25.11	310.79	14.30	-39.9	-40.6	23.5	0.00e+00	0	42	0	2486173696	50	4140
2026-01-29 14:34:26.12	310.97	14.25	-39.9	-40.7	23.4	0.00e+00	0	42	0	2492465152	50	4159
2026-01-29 14:34:27.12	311.16	14.21	-39.9	-40.7	23.4	0.00e+00	0	42	0	2497708032	50	4176
2026-01-29 14:34:28.12	311.34	14.16	-40.0	-40.8	23.3	0.00e+00	0	42	0	2503999488	50	4203
2026-01-29 14:34:29.13	311.53	14.12	-40.0	-40.8	23.3	0.00e+00	0	42	0	2509242368	50	4220
2026-01-29 14:34:30.13	311.71	14.07	-40.0	-40.8	23.3	0.00e+00	0	42	0	2514485248	50	4217
2026-01-29 14:34:31.14	311.90	14.02	-40.0	-40.8	23.3	0.00e+00	0	42	0	2520776704	50	4200
2026-01-29 14:34:32.15	312.08	13.98	-40.0	-40.8	23.2	0.00e+00	0	42	0	2526019584	50	4227
2026-01-29 14:34:33.16	312.26	13.93	-40.0	-40.8	23.3	0.00e+00	0	42	0	2531262464	50	4223
2026-01-29 14:34:34.17	312.45	13.88	-40.0	-40.7	23.3	0.00e+00	0	42	0	2537553920	50	4180
2026-01-29 14:34:35.17	312.63	13.83	-39.9	-40.7	23.4	0.00e+00	0	42	0	2542796800	50	4161
2026-01-29 14:34:36.17	312.81	13.79	-40.0	-40.7	23.3	0.00e+00	0	42	0	2548039680	50	4192
2026-01-29 14:34:37.18	312.99	13.74	-40.1	-40.9	23.2	0.00e+00	0	42	0	2554331136	50	4253
2026-01-29 14:34:38.19	313.17	13.69	-40.0	-40.8	23.2	0.00e+00	0	42	0	2559574016	50	4226
2026-01-29 14:34:39.20	313.35	13.64	-40.2	-41.0	23.0	0.00e+00	0	42	0	2565865472	51	4084
2026-01-29 14:34:40.20	313.52	13.59	-40.2	-41.0	23.1	0.00e+00	0	42	0	2571108352	51	4073
2026-01-29 14:34:41.21	313.70	13.54	-40.2	-41.0	23.0	0.00e+00	0	42	0	2576351232	51	4093
2026-01-29 14:34:42.21	313.88	13.50	-40.2	-41.0	23.0	0.00e+00	0	42	0	2582642688	51	4082
2026-01-29 14:34:43.21	314.06	13.45	-40.2	-41.0	23.0	0.00e+00	0	42	0	2588934144	51	4071
2026-01-29 14:34:44.22	314.23	13.40	-40.3	-41.1	23.0	0.00e+00	0	42	0	2594177024	51	4108
2026-01-29 14:34:45.23	314.41	13.35	-40.3	-41.1	22.9	0.00e+00	0	42	0	2599419904	51	4120
2026-01-29 14:34:46.24	314.59	13.30	-40.2	-41.0	23.0	0.00e+00	0	42	0	2605711360	51	4079
2026-01-29 14:34:47.24	314.76	13.25	-40.2	-41.0	23.1	0.00e+00	0	42	0	2610954240	51	4065
2026-01-29 14:34:48.25	314.93	13.20	-40.3	-41.1	22.9	0.00e+00	0	42	0	2616197120	51	4117
2026-01-29 14:34:49.26	315.11	13.15	-40.2	-41.0	23.0	0.00e+00	0	42	0	2622488576	51	4072
2026-01-29 14:34:50.27	315.28	13.10	-40.3	-41.1	23.0	0.00e+00	0	42	0	2627731456	51	4099
2026-01-29 14:34:51.27	315.45	13.05	-40.2	-41.0	23.0	0.00e+00	0	42	0	2632974336	51	4089
2026-01-29 14:34:52.28	315.63	13.00	-40.3	-41.2	22.9	0.00e+00	0	42	0	2639265792	51	4148
2026-01-29 14:34:53.29	315.80	12.95	-40.3	-41.2	22.9	0.00e+00	0	42	0	2644508672	51	4148
2026-01-29 14:34:54.30	315.97	12.90	-40.4	-41.2	22.9	0.00e+00	0	42	0	2650800128	51	4147
2026-01-29 14:34:55.31	316.14	12.85	-40.3	-41.1	22.9	0.00e+00	0	42	0	2656043008	51	4136
2026-01-29 14:34:56.31	316.31	12.80	-40.4	-41.2	22.8	0.00e+00	0	42	0	2661285888	51	4181
2026-01-29 14:34:57.32	316.48	12.75	-40.4	-41.2	22.7	0.00e+00	0	42	0	2667577344	51	4187
2026-01-29 14:34:58.33	316.65	12.70	-40.4	-41.2	22.8	0.00e+00	0	42	0	2673868800	51	4156
2026-01-29 14:34:59.33	316.81	12.65	-40.4	-41.2	22.8	0.00e+00	0	42	0	2679111680	51	4182
2026-01-29 14:35:00.33	316.98	12.60	-40.4	-41.2	22.8	0.00e+00	0	42	0	2684354560	51	4177
2026-01-29 14:35:01.33	317.15	12.55	-40.4	-41.2	22.8	0.00e+00	0	42	0	2690646016	51	4178
2026-01-29 14:35:02.34	317.31	12.49	-40.5	-41.3	22.7	0.00e+00	0	42	0	2695888896	51	4202
2026-01-29 14:35:03.35	317.48	12.44	-40.4	-41.2	22.8	0.00e+00	0	42	0	2701131776	51	4173
2026-01-29 14:35:04.36	317.65	12.39	-40.5	-41.3	22.7	0.00e+00	0	42	0	2707423232	51	4196
2026-01-29 14:35:05.37	317.81	12.34	-40.6	-41.4	22.6	0.00e+00	0	42	0	2712666112	51	4265
2026-01-29 14:35:06.37	317.97	12.29	-40.5	-41.3	22.7	0.00e+00	0	42	0	2717908992	51	4205
2026-01-29 14:35:07.38	318.14	12.24	-40.5	-41.3	22.6	0.00e+00	0	42	0	2724200448	51	4240
2026-01-29 14:35:08.39	318.30	12.18	-40.5	-41.3	22.7	0.00e+00	0	42	0	2729443328	51	4217
2026-01-29 14:35:09.39	318.46	12.13	-40.5	-41.3	22.6	0.00e+00	0	42	0	2735734784	51	4242
2026-01-29 14:35:10.40	318.62	12.08	-40.5	-41.3	22.6	0.00e+00	0	42	0	2740977664	51	4221
2026-01-29 14:35:11.40	318.78	12.03	-40.6	-41.4	22.6	0.00e+00	0	42	0	2746220544	51	4260
2026-01-29 14:35:12.41	318.95	11.98	-40.6	-41.4	22.5	0.00e+00	0	42	0	2752512000	51	4284
2026-01-29 14:35:13.42	319.11	11.92	-40.4	-41.2	22.7	0.00e+00	0	42	0	2758803456	51	4169
2026-01-29 14:35:14.43	319.27	11.87	-40.5	-41.3	22.6	0.00e+00	0	42	0	2764046336	51	4221
2026-01-29 14:35:15.44	319.43	11.82	-40.4	-41.3	22.7	0.00e+00	0	42	0	2769289216	51	4194
2026-01-29 14:35:16.44	319.58	11.77	-40.4	-41.2	22.7	0.00e+00	0	42	0	2775580672	51	4180
2026-01-29 14:35:17.44	319.74	11.71	-40.4	-41.2	22.7	0.00e+00	0	42	0	2780823552	51	4174
2026-01-29 14:35:18.45	319.90	11.66	-40.4	-41.3	22.6	0.00e+00	0	42	0	2786066432	51	4196
2026-01-29 14:35:19.46	320.06	11.61	-40.4	-41.3	22.6	0.00e+00	0	42	0	2792357888	51	4199
2026-01-29 14:35:20.47	320.21	11.56	-40.5	-41.3	22.5	0.00e+00	0	42	0	2797600768	51	4241
2026-01-29 14:35:21.47	320.37	11.50	-40.5	-41.3	22.6	0.00e+00	0	42	0	2802843648	51	4233
2026-01-29 14:35:22.48	320.52	11.45	-40.5	-41.4	22.5	0.00e+00	0	42	0	2809135104	51	4258
2026-01-29 14:35:23.49	320.68	11.40	-40.6	-41.4	22.5	0.00e+00	0	42	0	2814377984	51	4273
2026-01-29 14:35:24.50	320.83	11.34	-40.5	-41.3	22.6	0.00e+00	0	42	0	2820669440	51	4225
2026-01-29 14:35:25.50	320.99	11.29	-40.5	-41.3	22.5	0.00e+00	0	42	0	2825912320	51	4242
2026-01-29 14:35:26.51	321.14	11.24	-40.7	-41.5	22.4	0.00e+00	0	42	0	2832203776	51	4310
2026-01-29 14:35:27.52	321.29	11.18	-40.6	-41.4	22.5	0.00e+00	0	42	0	2837446656	51	4267
2026-01-29 14:35:28.53	321.45	11.13	-40.6	-41.4	22.4	0.00e+00	0	42	0	2843738112	51	4282
2026-01-29 14:35:29.53	321.60	11.08	-40.6	-41.4	22.5	0.00e+00	0	42	0	2848980992	51	4266
2026-01-29 14:35:30.54	321.75	11.02	-40.6	-41.5	22.4	0.00e+00	0	42	0	2854223872	51	4298
2026-01-29 14:35:31.54	321.90	10.97	-40.7	-41.6	22.2	0.00e+00	0	42	0	2860515328	52	4105
2026-01-29 14:35:32.55	322.05	10.92	-40.6	-41.5	22.3	0.00e+00	0	42	0	2865758208	52	4056
2026-01-29 14:35:33.55	322.20	10.86	-40.6	-41.4	22.4	0.00e+00	0	42	0	2871001088	52	4017
2026-01-29 14:35:34.56	322.34	10.81	-40.6	-41.4	22.3	0.00e+00	0	42	0	2877292544	52	4051
2026-01-29 14:35:35.57	322.49	10.76	-40.7	-41.5	22.3	0.00e+00	0	42	0	2882535424	52	4063
2026-01-29 14:35:36.58	322.64	10.70	-40.7	-41.5	22.2	0.00e+00	0	42	0	2887778304	52	4092
2026-01-29 14:35:37.58	322.79	10.65	-40.6	-41.5	22.3	0.00e+00	0	42	0	2894069760	52	4054
2026-01-29 14:35:38.59	322.94	10.59	-40.8	-41.6	22.1	0.00e+00	0	42	0	2899312640	52	4121
2026-01-29 14:35:39.60	323.08	10.54	-40.8	-41.6	22.1	0.00e+00	0	42	0	2905604096	52	4137
2026-01-29 14:35:40.61	323.23	10.49	-40.9	-41.7	22.0	0.00e+00	0	42	0	2910846976	52	4193
2026-01-29 14:35:41.61	323.37	10.43	-40.8	-41.7	22.0	0.00e+00	0	42	0	2917138432	52	4170
2026-01-29 14:35:42.62	323.52	10.38	-40.9	-41.8	22.0	0.00e+00	0	42	0	2922381312	52	4197
2026-01-29 14:35:43.63	323.66	10.32	-40.8	-41.7	22.0	0.00e+00	0	42	0	2928672768	52	4167
2026-01-29 14:35:44.64	323.81	10.27	-40.9	-41.7	22.0	0.00e+00	0	42	0	2933915648	52	4185
2026-01-29 14:35:45.64	323.95	10.21	-40.8	-41.7	22.0	0.00e+00	0	42	0	2939158528	52	4153
2026-01-29 14:35:46.65	324.09	10.16	-40.8	-41.6	22.1	0.00e+00	0	42	0	2945449984	52	4137
2026-01-29 14:35:47.66	324.23	10.11	-40.9	-41.8	21.9	0.00e+00	0	42	0	2950692864	52	4205
2026-01-29 14:35:48.66	324.37	10.05	-40.9	-41.7	22.0	0.00e+00	0	42	0	2955935744	52	4185
2026-01-29 14:35:49.67	324.52	10.00	-40.9	-41.7	21.9	0.00e+00	0	42	0	2962227200	52	4180
2026-01-29 14:35:50.67	324.66	9.94	-40.9	-41.7	21.9	0.00e+00	0	42	0	2967470080	52	4167
2026-01-29 14:35:51.68	324.80	9.89	-41.0	-41.8	21.9	0.00e+00	0	42	0	2972712960	52	4224
2026-01-29 14:35:52.69	324.94	9.83	-41.0	-41.9	21.8	0.00e+00	0	42	0	2979004416	52	4244
2026-01-29 14:35:53.70	325.08	9.78	-40.9	-41.8	21.8	0.00e+00	0	42	0	2984247296	52	4204
2026-01-29 14:35:54.71	325.21	9.73	-41.0	-41.9	21.8	0.00e+00	0	42	0	2990538752	52	4264
2026-01-29 14:35:55.71	325.35	9.67	-41.0	-41.9	21.4	0.00e+00	0	42	0	2995781632	52	4257
2026-01-29 14:35:56.72	325.49	9.62	-41.0	-41.8	20.8	0.00e+00	0	42	0	3002073088	52	4242
2026-01-29 14:35:57.73	325.63	9.56	-40.9	-41.8	20.7	0.00e+00	0	42	0	3007315968	52	4228
2026-01-29 14:35:58.73	325.76	9.51	-41.0	-41.8	21.1	0.00e+00	0	42	0	3013607424	52	4239
2026-01-29 14:35:59.74	325.90	9.45	-40.9	-41.8	21.8	0.00e+00	0	42	0	3018850304	52	4213
2026-01-29 14:36:00.73	326.03	9.40	-40.9	-41.8	21.5	0.00e+00	0	42	0	3024093184	52	4221
2026-01-29 14:36:01.73	326.17	9.35	-40.9	-41.8	21.6	0.00e+00	0	42	0	3030384640	52	4206
2026-01-29 14:36:02.75	326.30	9.29	-40.9	-41.8	21.4	0.00e+00	0	42	0	3035627520	52	4216
2026-01-29 14:36:03.75	326.44	9.24	-41.0	-41.9	21.2	0.00e+00	0	42	0	3040870400	52	4248
2026-01-29 14:36:04.76	326.57	9.18	-40.9	-41.8	21.4	0.00e+00	0	42	0	3047161856	52	4202
2026-01-29 14:36:05.76	326.70	9.13	-41.0	-41.8	20.9	0.00e+00	0	42	0	3052404736	52	4239
2026-01-29 14:36:06.77	326.84	9.07	-40.8	-41.7	21.3	0.00e+00	0	42	0	3057647616	52	4150
2026-01-29 14:36:07.78	326.97	9.02	-40.9	-41.8	21.7	0.00e+00	0	42	0	3063939072	52	4216
2026-01-29 14:36:08.79	327.10	8.96	-41.0	-41.8	21.7	0.00e+00	0	42	0	3069181952	52	4238
2026-01-29 14:36:09.79	327.23	8.91	-40.8	-41.7	21.9	0.00e+00	0	42	0	3075473408	52	4155
2026-01-29 14:36:10.80	327.36	8.85	-40.9	-41.8	21.8	0.00e+00	0	42	0	3080716288	52	4221
2026-01-29 14:36:11.80	327.49	8.80	-41.0	-41.8	21.7	0.00e+00	0	42	0	3085959168	52	4236
2026-01-29 14:36:12.81	327.62	8.74	-41.0	-41.8	21.7	0.00e+00	0	42	0	3092250624	52	4229
2026-01-29 14:36:13.82	327.75	8.69	-41.0	-41.9	21.6	0.00e+00	0	42	0	3098542080	52	4274
2026-01-29 14:36:14.83	327.88	8.63	-41.2	-42.1	21.5	0.00e+00	0	42	0	3103784960	52	4349
2026-01-29 14:36:15.83	328.01	8.58	-41.1	-42.0	21.5	0.00e+00	0	42	0	3109027840	52	4321
2026-01-29 14:36:16.84	328.14	8.53	-41.2	-42.1	21.5	0.00e+00	0	42	0	3115319296	53	4120
2026-01-29 14:36:17.85	328.27	8.47	-41.3	-42.2	21.4	0.00e+00	0	42	0	3120562176	53	4157
2026-01-29 14:36:18.85	328.39	8.42	-41.4	-42.3	21.3	0.00e+00	0	42	0	3125805056	53	4201
2026-01-29 14:36:19.86	328.52	8.36	-41.3	-42.2	21.3	0.00e+00	0	42	0	3132096512	53	4187
2026-01-29 14:36:20.87	328.65	8.31	-41.4	-42.3	21.2	0.00e+00	0	42	0	3137339392	53	4235
2026-01-29 14:36:21.87	328.77	8.25	-41.5	-42.4	21.1	0.00e+00	0	42	0	3142582272	53	4274
2026-01-29 14:36:22.88	328.90	8.20	-41.6	-42.5	21.1	0.00e+00	0	42	0	3148873728	53	4307
2026-01-29 14:36:23.88	329.02	8.14	-41.6	-42.6	21.0	0.00e+00	0	42	0	3154116608	53	4344
2026-01-29 14:36:24.89	329.15	8.09	-41.7	-42.7	20.9	0.00e+00	0	42	0	3160408064	54	4154
2026-01-29 14:36:25.90	329.27	8.03	-41.7	-42.7	20.9	0.00e+00	0	42	0	3165650944	54	4149
2026-01-29 14:36:26.91	329.39	7.98	-41.7	-42.7	20.9	0.00e+00	0	42	0	3170893824	54	4151
2026-01-29 14:36:27.91	329.52	7.92	-41.8	-42.7	20.8	0.00e+00	0	42	0	3177185280	54	4186
2026-01-29 14:36:28.92	329.64	7.87	-41.8	-42.7	20.8	0.00e+00	0	42	0	3183476736	54	4190
2026-01-29 14:36:29.93	329.76	7.81	-41.8	-42.7	20.8	0.00e+00	0	42	0	3188719616	54	4179
2026-01-29 14:36:30.93	329.88	7.76	-41.7	-42.7	20.9	0.00e+00	0	42	0	3193962496	54	4146
2026-01-29 14:36:31.94	330.00	7.71	-41.7	-42.6	20.9	0.00e+00	0	42	0	3200253952	54	4135
2026-01-29 14:36:32.95	330.13	7.65	-41.8	-42.7	20.8	0.00e+00	0	42	0	3205496832	54	4167
2026-01-29 14:36:33.96	330.25	7.60	-41.8	-42.7	20.8	0.00e+00	0	42	0	3210739712	54	4168
2026-01-29 14:36:34.97	330.37	7.54	-41.7	-42.6	20.9	0.00e+00	0	42	0	3217031168	54	4142
2026-01-29 14:36:35.97	330.49	7.49	-41.8	-42.7	20.8	0.00e+00	0	42	0	3222274048	54	4187
2026-01-29 14:36:36.98	330.60	7.43	-41.8	-42.7	20.8	0.00e+00	0	42	0	3227516928	54	4193
2026-01-29 14:36:37.98	330.72	7.38	-41.8	-42.7	20.8	0.00e+00	0	42	0	3233808384	54	4164
2026-01-29 14:36:38.99	330.84	7.32	-41.9	-42.9	20.7	0.00e+00	0	42	0	3239051264	54	4245
2026-01-29 14:36:40.00	330.96	7.27	-41.8	-42.7	20.7	0.00e+00	0	42	0	3245342720	54	4188
2026-01-29 14:36:41.01	331.08	7.21	-41.8	-42.8	20.8	0.00e+00	0	42	0	3250585600	54	4196
2026-01-29 14:36:42.02	331.19	7.16	-41.7	-42.7	20.8	0.00e+00	0	42	0	3256877056	54	4159
2026-01-29 14:36:43.03	331.31	7.10	-41.8	-42.7	20.8	0.00e+00	0	42	0	3262119936	54	4177
2026-01-29 14:36:44.03	331.43	7.05	-41.9	-42.8	20.7	0.00e+00	0	42	0	3268411392	54	4217
2026-01-29 14:36:45.04	331.54	7.00	-41.7	-42.7	20.8	0.00e+00	0	42	0	3273654272	54	4149
2026-01-29 14:36:46.04	331.66	6.94	-41.9	-42.9	20.7	0.00e+00	0	42	0	3278897152	54	4244
2026-01-29 14:36:47.05	331.77	6.89	-41.9	-42.8	20.6	0.00e+00	0	42	0	3285188608	54	4237
2026-01-29 14:36:48.06	331.89	6.83	-42.0	-43.0	20.4	0.00e+00	0	42	0	3290431488	54	4321
2026-01-29 14:36:49.07	332.00	6.78	-42.1	-43.1	20.4	0.00e+00	0	42	0	3295674368	54	4344
2026-01-29 14:36:50.08	332.12	6.72	-42.0	-43.0	20.4	0.00e+00	0	42	0	3301965824	54	4327
2026-01-29 14:36:51.08	332.23	6.67	-42.0	-43.0	20.5	0.00e+00	0	42	0	3307208704	54	4294
2026-01-29 14:36:52.09	332.34	6.62	-42.2	-43.2	20.2	0.00e+00	0	42	0	3312451584	54	4415
2026-01-29 14:36:53.10	332.46	6.56	-42.2	-43.2	20.3	0.00e+00	0	42	0	3318743040	54	4401
2026-01-29 14:36:54.10	332.57	6.51	-42.1	-43.1	20.3	0.00e+00	0	42	0	3323985920	54	4355
2026-01-29 14:36:55.10	332.68	6.45	-42.1	-43.1	20.3	0.00e+00	0	42	0	3330277376	55	4126
2026-01-29 14:36:56.11	332.79	6.40	-42.2	-43.1	20.2	0.00e+00	0	42	0	3335520256	55	4142
2026-01-29 14:36:57.12	332.90	6.34	-41.9	-42.9	20.5	0.00e+00	0	42	0	3341811712	55	4014
2026-01-29 14:36:58.13	333.01	6.29	-42.1	-43.1	20.3	0.00e+00	0	42	0	3347054592	55	4126
2026-01-29 14:36:59.14	333.12	6.24	-42.1	-43.0	20.4	0.00e+00	0	42	0	3353346048	55	4085
2026-01-29 14:37:00.14	333.23	6.18	-42.0	-42.9	20.4	0.00e+00	0	42	0	3358588928	55	4042
2026-01-29 14:37:01.15	333.34	6.13	-41.9	-42.8	20.6	0.00e+00	0	42	0	3363831808	55	3975
2026-01-29 14:37:02.16	333.45	6.07	-41.9	-42.9	20.4	0.00e+00	0	42	0	3370123264	55	4019
2026-01-29 14:37:03.17	333.56	6.02	-41.8	-42.7	20.6	0.00e+00	0	42	0	3375366144	55	3945
2026-01-29 14:37:04.17	333.67	5.97	-41.9	-42.8	20.5	0.00e+00	0	42	0	3380609024	55	4003
2026-01-29 14:37:05.18	333.77	5.91	-42.1	-43.1	20.2	0.00e+00	0	42	0	3386900480	55	4104
2026-01-29 14:37:06.19	333.88	5.86	-42.1	-43.0	20.3	0.00e+00	0	42	0	3392143360	55	4083
2026-01-29 14:37:07.20	333.99	5.80	-42.1	-43.1	20.2	0.00e+00	0	42	0	3397386240	55	4133
2026-01-29 14:37:08.20	334.10	5.75	-42.1	-43.0	20.2	0.00e+00	0	42	0	3403677696	55	4089
2026-01-29 14:37:09.21	334.20	5.70	-42.1	-43.1	20.2	0.00e+00	0	42	0	3408920576	55	4105
2026-01-29 14:37:10.21	334.31	5.64	-42.1	-43.1	20.2	0.00e+00	0	42	0	3415212032	55	4117
2026-01-29 14:37:11.22	334.41	5.59	-42.2	-43.2	20.0	0.00e+00	0	42	0	3420454912	55	4192
2026-01-29 14:37:12.23	334.52	5.54	-42.1	-43.1	20.1	0.00e+00	0	42	0	3426746368	55	4141
2026-01-29 14:37:13.24	334.62	5.48	-42.5	-43.5	19.7	0.00e+00	0	42	0	3431989248	55	4327
2026-01-29 14:37:14.25	334.73	5.43	-42.6	-43.6	19.6	0.00e+00	0	42	0	3438280704	55	4369
2026-01-29 14:37:15.26	334.83	5.37	-42.2	-43.2	19.9	0.00e+00	0	42	0	3443523584	55	4168
2026-01-29 14:37:16.26	334.94	5.32	-42.1	-43.1	19.9	0.00e+00	0	42	0	3448766464	55	4140
2026-01-29 14:37:17.27	335.04	5.27	-42.3	-43.3	19.8	0.00e+00	0	42	0	3455057920	55	4204
2026-01-29 14:37:18.28	335.14	5.21	-42.2	-43.2	19.9	0.00e+00	0	42	0	3460300800	55	4186
2026-01-29 14:37:19.29	335.25	5.16	-42.4	-43.4	19.7	0.00e+00	0	42	0	3465543680	55	4272
2026-01-29 14:37:20.29	335.35	5.11	-42.3	-43.3	19.9	0.00e+00	0	42	0	3471835136	55	4196
2026-01-29 14:37:21.30	335.45	5.05	-42.2	-43.2	19.9	0.00e+00	0	42	0	3477078016	55	4155
2026-01-29 14:37:22.30	335.55	5.00	-42.5	-43.5	19.6	0.00e+00	0	42	0	3482320896	55	4336
2026-01-29 14:37:23.31	335.65	4.95	-52.4	-64.4	3.8	8.46e-01	0	42	104	3485466624	75	15139
2026-01-29 14:37:24.32	335.75	4.89	-52.8	-64.7	3.8	8.46e-01	0	42	104	3485466624	76	14867
2026-01-29 14:37:25.33	335.86	4.84	-53.0	-65.0	3.8	8.45e-01	0	42	104	3485466624	76	15259
2026-01-29 14:37:26.34	335.96	4.79	-53.2	-65.1	3.8	8.46e-01	0	42	104	3485466624	76	15555
2026-01-29 14:37:27.35	336.06	4.73	-53.3	-65.3	3.8	8.46e-01	0	42	104	3485466624	77	14928
2026-01-29 14:37:28.36	336.16	4.68	-53.4	-65.4	3.8	8.46e-01	0	42	104	3485466624	77	15095
2026-01-29 14:37:29.37	336.26	4.63	-53.5	-65.4	3.8	8.46e-01	0	42	104	3485466624	77	15215
2026-01-29 14:37:30.38	336.35	4.57	-53.6	-65.5	3.8	8.46e-01	0	42	104	3485466624	77	15340
2026-01-29 14:37:31.39	336.45	4.52	-53.6	-65.5	3.8	8.46e-01	0	42	104	3485466624	77	15364
2026-01-29 14:37:32.39	336.55	4.47	-53.6	-65.5	3.8	8.46e-01	0	42	104	3485466624	77	15319
2026-01-29 14:37:33.40	336.65	4.42	-53.5	-65.5	3.8	8.45e-01	0	42	104	3485466624	77	15233
2026-01-29 14:37:34.41	336.75	4.36	-53.4	-65.4	3.8	8.46e-01	0	42	104	3485466624	77	15128
2026-01-29 14:37:35.42	336.84	4.31	-53.3	-65.2	3.8	8.46e-01	0	42	104	3485466624	77	14836
2026-01-29 14:37:36.43	336.94	4.26	-53.3	-65.3	3.8	8.46e-01	0	42	104	3485466624	77	14891
2026-01-29 14:37:37.43	337.04	4.20	-53.4	-65.3	3.8	8.47e-01	0	42	104	3485466624	77	14993
2026-01-29 14:37:38.44	337.13	4.15	-53.4	-65.4	3.8	8.45e-01	0	42	104	3485466624	77	15077
2026-01-29 14:37:39.45	337.23	4.10	-53.5	-65.4	3.8	8.45e-01	0	42	104	3485466624	77	15170
2026-01-29 14:37:40.45	337.32	4.05	-53.5	-65.4	3.8	8.47e-01	0	42	104	3485466624	77	15177
