passes_logs/2026/01/29/R3.2S_Murmansk/R3.2S_Murmansk__20260129_204143_TY-42_rec.log

#Pass ID: 20260129_204143_TY-42
#Satellite: TY-42
#Configuration: TY-42_900M
#almurnet v.1.7.20251203
#Start time: 2026-01-29 20:41:44

#Version: 2.2.20231116
#Station: R3.2S_Murmansk
#Location: 33.079688 lon 68.888172 lat
#TLE: 1 64048U 25103A   26029.59629630  .00008015  00000-0  38191-3 0 09991
#TLE: 2 64048 097.4120 104.7398 0001761 095.4017 301.3163 15.19189348 39031

#Time	Az	El	Level	Level2	SNR	BER	BlckErr	Temp	State	Recorded	gain1	gain2
2026-01-29 20:41:44.35	211.70	2.05	-52.7	-54.8	6.2	0.00e+00	0	48	0	0	77	17907
2026-01-29 20:41:45.34	211.80	2.11	-52.6	-54.8	6.2	0.00e+00	0	48	104	0	76	18959
2026-01-29 20:41:46.35	211.89	2.17	-52.6	-54.8	6.2	0.00e+00	0	48	104	0	76	18847
2026-01-29 20:41:47.35	211.99	2.23	-52.6	-54.8	6.2	0.00e+00	0	48	104	0	76	18827
2026-01-29 20:41:48.34	212.09	2.29	-52.6	-54.7	6.2	0.00e+00	0	48	104	0	76	18751
2026-01-29 20:41:49.32	212.18	2.35	-52.6	-54.7	6.2	0.00e+00	0	48	104	0	76	18790
2026-01-29 20:41:50.31	212.28	2.41	-52.6	-54.7	6.2	0.00e+00	0	48	104	0	76	18765
2026-01-29 20:41:51.29	212.37	2.47	-52.6	-54.7	6.2	0.00e+00	0	48	104	0	76	18741
2026-01-29 20:41:52.27	212.47	2.53	-52.6	-54.7	6.2	0.00e+00	0	48	104	0	76	18735
2026-01-29 20:41:53.24	212.57	2.59	-52.6	-54.7	6.2	0.00e+00	0	49	104	0	76	18656
2026-01-29 20:41:54.21	212.66	2.65	-52.6	-54.7	6.2	0.00e+00	0	49	104	0	76	18699
2026-01-29 20:41:55.18	212.76	2.71	-52.6	-54.7	6.2	0.00e+00	0	49	104	0	76	18699
2026-01-29 20:41:56.15	212.86	2.77	-52.6	-54.7	6.2	0.00e+00	0	48	104	0	76	18725
2026-01-29 20:41:57.12	212.95	2.83	-52.6	-54.7	6.2	0.00e+00	0	49	104	0	76	18684
2026-01-29 20:41:58.10	213.05	2.89	-52.6	-54.7	6.2	0.00e+00	0	49	104	0	76	18692
2026-01-29 20:41:59.07	213.15	2.95	-52.6	-54.7	6.2	0.00e+00	0	49	104	0	76	18610
2026-01-29 20:42:00.04	213.25	3.01	-52.6	-54.7	6.2	0.00e+00	0	49	104	0	76	18706
2026-01-29 20:42:01.00	213.35	3.07	-52.6	-54.7	6.2	0.00e+00	0	49	104	0	76	18625
2026-01-29 20:42:01.97	213.45	3.13	-52.6	-54.7	6.2	0.00e+00	0	49	104	0	76	18662
2026-01-29 20:42:02.95	213.55	3.19	-52.6	-54.7	6.2	0.00e+00	0	49	104	0	76	18695
2026-01-29 20:42:03.91	213.65	3.25	-52.5	-54.7	6.2	0.00e+00	0	49	104	0	76	18625
2026-01-29 20:42:04.89	213.76	3.31	-52.6	-54.7	6.2	0.00e+00	0	49	104	0	76	18685
2026-01-29 20:42:05.86	213.86	3.37	-52.6	-54.7	6.2	0.00e+00	0	49	104	0	76	18690
2026-01-29 20:42:06.82	213.96	3.43	-52.5	-54.7	6.2	0.00e+00	0	49	104	0	76	18658
2026-01-29 20:42:07.80	214.07	3.49	-52.5	-54.7	6.2	0.00e+00	0	49	104	0	76	18678
2026-01-29 20:42:08.77	214.17	3.55	-52.5	-54.7	6.2	0.00e+00	0	50	104	0	76	18624
2026-01-29 20:42:09.74	214.28	3.62	-52.5	-54.7	6.2	0.00e+00	0	49	104	0	76	18637
2026-01-29 20:42:10.71	214.38	3.68	-52.5	-54.7	6.2	0.00e+00	0	49	104	0	76	18642
2026-01-29 20:42:11.68	214.49	3.74	-52.5	-54.7	6.2	0.00e+00	0	50	104	0	76	18658
2026-01-29 20:42:12.65	214.59	3.80	-52.5	-54.6	6.2	0.00e+00	0	50	104	0	76	18600
2026-01-29 20:42:13.62	214.70	3.86	-52.5	-54.6	6.2	0.00e+00	0	50	104	0	76	18583
2026-01-29 20:42:14.59	214.81	3.92	-52.5	-54.7	6.2	0.00e+00	0	50	104	0	76	18618
2026-01-29 20:42:15.56	214.91	3.99	-52.5	-54.7	6.2	0.00e+00	0	50	104	0	76	18649
2026-01-29 20:42:16.52	215.02	4.05	-52.5	-54.7	6.2	0.00e+00	0	50	104	0	76	18635
2026-01-29 20:42:17.50	215.13	4.11	-52.5	-54.6	6.2	0.00e+00	0	50	104	0	76	18593
2026-01-29 20:42:18.47	215.24	4.17	-52.5	-54.6	6.2	0.00e+00	0	50	104	0	76	18544
2026-01-29 20:42:19.44	215.35	4.23	-52.5	-54.7	6.2	0.00e+00	0	50	104	0	76	18618
2026-01-29 20:42:20.41	215.46	4.30	-52.5	-54.6	6.2	0.00e+00	0	50	104	0	76	18582
2026-01-29 20:42:21.38	215.57	4.36	-52.5	-54.6	6.2	0.00e+00	0	50	104	0	76	18588
2026-01-29 20:42:22.34	215.68	4.42	-52.5	-54.6	6.2	0.00e+00	0	50	104	0	76	18539
2026-01-29 20:42:23.32	215.80	4.48	-52.5	-54.7	6.2	0.00e+00	0	50	104	0	76	18618
2026-01-29 20:42:24.29	215.91	4.55	-52.5	-54.6	6.2	0.00e+00	0	50	104	0	76	18569
2026-01-29 20:42:25.25	216.02	4.61	-52.5	-54.6	6.2	0.00e+00	0	50	104	0	76	18523
2026-01-29 20:42:26.23	216.14	4.67	-52.5	-54.6	6.2	0.00e+00	0	50	104	0	76	18572
2026-01-29 20:42:27.20	216.25	4.74	-52.5	-54.6	6.2	0.00e+00	0	50	104	0	76	18535
2026-01-29 20:42:28.16	216.37	4.80	-52.5	-54.7	6.2	0.00e+00	0	50	104	0	76	18634
2026-01-29 20:42:29.13	216.48	4.86	-52.5	-54.6	6.2	0.00e+00	0	50	104	0	76	18570
2026-01-29 20:42:30.10	216.60	4.93	-52.5	-54.6	6.2	0.00e+00	0	50	104	0	76	18552
2026-01-29 20:42:31.07	216.72	4.99	-52.5	-54.6	6.2	0.00e+00	0	50	104	0	76	18544
2026-01-29 20:42:32.04	216.84	5.05	-52.5	-54.6	6.2	0.00e+00	0	50	104	0	76	18577
2026-01-29 20:42:33.01	216.95	5.12	-52.5	-54.7	6.2	0.00e+00	0	50	104	0	76	18639
2026-01-29 20:42:33.98	217.07	5.18	-52.6	-54.7	6.2	0.00e+00	0	50	104	0	76	18772
2026-01-29 20:42:34.96	217.19	5.25	-52.5	-54.7	6.2	0.00e+00	0	51	104	0	76	18648
2026-01-29 20:42:35.93	217.31	5.31	-52.4	-54.6	6.2	0.00e+00	0	51	104	0	76	18415
2026-01-29 20:42:36.89	217.43	5.38	-52.7	-54.8	6.2	0.00e+00	0	50	104	0	76	18999
2026-01-29 20:42:37.86	217.56	5.44	-52.6	-54.7	6.2	0.00e+00	0	50	104	0	76	18801
2026-01-29 20:42:38.84	217.68	5.51	-52.5	-54.7	6.2	0.00e+00	0	51	104	0	76	18603
2026-01-29 20:42:39.81	217.80	5.57	-52.5	-54.6	6.2	0.00e+00	0	51	104	0	76	18498
2026-01-29 20:42:40.77	217.92	5.63	-52.6	-54.8	6.2	0.00e+00	0	50	104	0	76	18889
2026-01-29 20:42:41.74	218.05	5.70	-52.6	-54.8	6.2	0.00e+00	0	50	104	0	76	18862
2026-01-29 20:42:42.71	218.17	5.76	-52.6	-54.6	6.2	0.00e+00	0	50	104	0	76	18576
2026-01-29 20:42:43.68	218.30	5.83	-52.5	-54.6	6.2	0.00e+00	0	51	104	0	76	18487
2026-01-29 20:42:44.65	218.43	5.90	-52.6	-54.8	6.2	0.00e+00	0	51	104	0	76	18850
2026-01-29 20:42:45.62	218.55	5.96	-52.6	-54.7	6.2	0.00e+00	0	51	104	0	76	18806
2026-01-29 20:42:46.59	218.68	6.03	-52.6	-54.7	6.2	0.00e+00	0	51	104	0	76	18688
2026-01-29 20:42:47.56	218.81	6.09	-52.5	-54.6	6.2	0.00e+00	0	51	104	0	76	18553
2026-01-29 20:42:48.53	218.94	6.16	-52.6	-54.7	6.2	0.00e+00	0	51	104	0	76	18725
2026-01-29 20:42:49.50	219.07	6.22	-52.7	-54.8	6.2	0.00e+00	0	51	104	0	76	18908
2026-01-29 20:42:50.47	219.20	6.29	-52.6	-54.8	6.2	0.00e+00	0	51	104	0	76	18854
2026-01-29 20:42:51.44	219.33	6.36	-52.5	-54.7	6.2	0.00e+00	0	51	104	0	76	18624
2026-01-29 20:42:52.41	219.46	6.42	-52.6	-54.7	6.2	0.00e+00	0	51	104	0	76	18649
2026-01-29 20:42:53.38	219.60	6.49	-52.7	-54.8	6.2	0.00e+00	0	51	104	0	76	18969
2026-01-29 20:42:54.34	219.73	6.56	-52.6	-54.7	6.2	0.00e+00	0	51	104	0	76	18800
2026-01-29 20:42:55.31	219.86	6.62	-52.6	-54.7	6.2	0.00e+00	0	51	104	0	76	18736
2026-01-29 20:42:56.28	220.00	6.69	-52.6	-54.7	6.2	0.00e+00	0	51	104	0	76	18720
2026-01-29 20:42:57.25	220.13	6.76	-52.7	-54.8	6.2	0.00e+00	0	51	104	0	76	19033
2026-01-29 20:42:58.22	220.27	6.82	-52.7	-54.8	6.2	0.00e+00	0	51	104	0	76	18948
2026-01-29 20:42:59.19	220.41	6.89	-52.6	-54.7	6.2	0.00e+00	0	51	104	0	76	18753
2026-01-29 20:43:00.16	220.54	6.96	-52.6	-54.7	6.2	0.00e+00	0	51	104	0	76	18643
2026-01-29 20:43:01.13	220.68	7.02	-52.8	-54.9	6.2	0.00e+00	0	51	104	0	76	19088
2026-01-29 20:43:02.10	220.82	7.09	-52.7	-54.8	6.2	0.00e+00	0	51	104	0	76	18993
2026-01-29 20:43:03.07	220.96	7.16	-52.6	-54.7	6.2	0.00e+00	0	51	104	0	76	18767
2026-01-29 20:43:04.04	221.10	7.23	-52.6	-54.7	6.2	0.00e+00	0	51	104	0	76	18740
2026-01-29 20:43:05.02	221.25	7.30	-52.8	-54.9	6.2	0.00e+00	0	51	104	0	76	19129
2026-01-29 20:43:05.99	221.39	7.36	-52.7	-54.9	6.2	0.00e+00	0	51	104	0	76	19104
2026-01-29 20:43:06.96	221.53	7.43	-52.7	-54.8	6.2	0.00e+00	0	51	104	0	76	18917
2026-01-29 20:43:07.93	221.68	7.50	-52.6	-54.7	6.2	0.00e+00	0	51	104	0	76	18805
2026-01-29 20:43:08.90	221.82	7.57	-52.8	-54.9	6.2	0.00e+00	0	51	104	0	76	19146
2026-01-29 20:43:09.87	221.97	7.64	-52.8	-54.9	6.2	0.00e+00	0	51	104	0	76	19073
2026-01-29 20:43:10.84	222.11	7.71	-52.7	-54.8	6.2	0.00e+00	0	51	104	0	76	18936
2026-01-29 20:43:11.81	222.26	7.77	-52.6	-54.8	6.2	0.00e+00	0	51	104	0	76	18842
2026-01-29 20:43:12.78	222.41	7.84	-52.8	-54.9	6.2	0.00e+00	0	51	104	0	76	19128
2026-01-29 20:43:13.75	222.56	7.91	-52.8	-54.9	6.2	0.00e+00	0	51	104	0	76	19158
2026-01-29 20:43:14.72	222.71	7.98	-52.7	-54.8	6.2	0.00e+00	0	51	104	0	76	18972
2026-01-29 20:43:15.69	222.86	8.05	-52.7	-54.8	6.2	0.00e+00	0	51	104	0	76	18921
2026-01-29 20:43:16.67	223.01	8.12	-52.8	-54.9	6.2	0.00e+00	0	51	104	0	76	19103
2026-01-29 20:43:17.64	223.17	8.19	-52.8	-54.9	6.2	0.00e+00	0	51	104	0	76	19200
2026-01-29 20:43:18.61	223.32	8.26	-52.8	-54.9	6.2	0.00e+00	0	51	104	0	76	19088
2026-01-29 20:43:19.58	223.48	8.33	-52.7	-54.8	6.2	0.00e+00	0	51	104	0	76	19020
2026-01-29 20:43:20.56	223.63	8.40	-52.8	-54.9	6.2	0.00e+00	0	51	104	0	76	19149
2026-01-29 20:43:21.53	223.79	8.47	-52.8	-55.0	6.2	0.00e+00	0	51	104	0	76	19276
2026-01-29 20:43:22.50	223.95	8.54	-52.8	-54.9	6.2	0.00e+00	0	51	104	0	76	19173
2026-01-29 20:43:23.47	224.10	8.61	-52.7	-54.9	6.2	0.00e+00	0	51	104	0	76	19079
2026-01-29 20:43:24.44	224.26	8.68	-52.7	-54.9	6.2	0.00e+00	0	51	104	0	76	19069
2026-01-29 20:43:25.41	224.42	8.75	-52.8	-55.0	6.2	0.00e+00	0	52	104	0	76	19326
2026-01-29 20:43:26.38	224.58	8.82	-52.8	-54.9	6.2	0.00e+00	0	51	104	0	76	19164
2026-01-29 20:43:27.35	224.74	8.89	-52.8	-54.9	6.2	0.00e+00	0	51	104	0	76	19110
2026-01-29 20:43:28.32	224.91	8.96	-52.8	-54.9	6.2	0.00e+00	0	51	104	0	76	19106
2026-01-29 20:43:29.29	225.07	9.03	-52.9	-55.0	6.2	0.00e+00	0	51	104	0	76	19384
2026-01-29 20:43:30.25	225.23	9.10	-52.8	-55.0	6.2	0.00e+00	0	51	104	0	76	19289
2026-01-29 20:43:31.23	225.40	9.17	-52.8	-54.9	6.2	0.00e+00	0	51	104	0	76	19156
2026-01-29 20:43:32.20	225.57	9.24	-52.8	-54.9	6.2	0.00e+00	0	51	104	0	76	19158
2026-01-29 20:43:33.17	225.73	9.31	-52.9	-55.0	6.2	0.00e+00	0	51	104	0	76	19390
2026-01-29 20:43:34.14	225.90	9.38	-52.9	-55.0	6.2	0.00e+00	0	51	104	0	76	19329
2026-01-29 20:43:35.10	226.07	9.45	-52.8	-54.9	6.2	0.00e+00	0	52	104	0	76	19207
2026-01-29 20:43:36.08	226.24	9.52	-52.8	-54.9	6.2	0.00e+00	0	52	104	0	76	19190
2026-01-29 20:43:37.04	226.41	9.59	-52.9	-55.0	6.2	0.00e+00	0	51	104	0	76	19460
2026-01-29 20:43:38.01	226.58	9.67	-52.9	-55.0	6.2	0.00e+00	0	52	104	0	76	19401
2026-01-29 20:43:38.98	226.76	9.74	-52.9	-55.0	6.2	0.00e+00	0	52	104	0	76	19357
2026-01-29 20:43:39.96	226.93	9.81	-52.8	-54.9	6.2	0.00e+00	0	52	104	0	76	19215
2026-01-29 20:43:40.93	227.11	9.88	-52.9	-55.0	6.2	0.00e+00	0	52	104	0	76	19445
2026-01-29 20:43:41.90	227.29	9.95	-52.9	-55.0	6.2	0.00e+00	0	52	104	0	76	19414
2026-01-29 20:43:42.87	227.46	10.02	-52.9	-55.0	6.2	0.00e+00	0	52	104	0	76	19398
2026-01-29 20:43:43.84	227.64	10.09	-52.8	-55.0	6.2	0.00e+00	0	52	104	0	76	19306
2026-01-29 20:43:44.81	227.82	10.17	-52.9	-55.1	6.2	0.00e+00	0	51	104	0	76	19582
2026-01-29 20:43:45.78	228.00	10.24	-52.9	-55.1	6.2	0.00e+00	0	52	104	0	76	19499
2026-01-29 20:43:46.75	228.18	10.31	-52.9	-55.0	6.2	0.00e+00	0	52	104	0	76	19410
2026-01-29 20:43:47.72	228.37	10.38	-52.9	-55.0	6.2	0.00e+00	0	52	104	0	76	19372
2026-01-29 20:43:48.69	228.55	10.45	-52.9	-55.1	6.2	0.00e+00	0	52	104	0	76	19519
2026-01-29 20:43:49.66	228.73	10.53	-52.9	-55.1	6.2	0.00e+00	0	52	104	0	76	19515
2026-01-29 20:43:50.62	228.92	10.60	-52.9	-55.0	6.2	0.00e+00	0	52	104	0	76	19456
2026-01-29 20:43:51.59	229.10	10.67	-52.9	-55.0	6.2	0.00e+00	0	52	104	0	76	19343
2026-01-29 20:43:52.57	229.29	10.74	-52.9	-55.1	6.2	0.00e+00	0	52	104	0	76	19549
2026-01-29 20:43:53.54	229.48	10.81	-52.9	-55.1	6.2	0.00e+00	0	52	104	0	76	19500
2026-01-29 20:43:54.51	229.67	10.89	-52.9	-55.1	6.2	0.00e+00	0	52	104	0	76	19483
2026-01-29 20:43:55.48	229.87	10.96	-52.9	-55.0	6.2	0.00e+00	0	52	104	0	76	19384
2026-01-29 20:43:56.45	230.06	11.03	-52.9	-55.0	6.2	0.00e+00	0	52	104	0	76	19408
2026-01-29 20:43:57.42	230.25	11.10	-53.0	-55.1	6.2	0.00e+00	0	52	104	0	76	19563
2026-01-29 20:43:58.39	230.45	11.17	-53.0	-55.1	6.2	0.00e+00	0	52	104	0	76	19552
2026-01-29 20:43:59.36	230.64	11.25	-52.9	-55.0	6.2	0.00e+00	0	52	104	0	76	19465
2026-01-29 20:44:00.34	230.84	11.32	-52.9	-55.1	6.2	0.00e+00	0	52	104	0	76	19504
2026-01-29 20:44:01.31	231.04	11.39	-53.0	-55.1	6.2	0.00e+00	0	52	104	0	76	19599
2026-01-29 20:44:02.28	231.24	11.46	-53.0	-55.1	6.2	0.00e+00	0	52	104	0	76	19573
2026-01-29 20:44:03.25	231.44	11.54	-53.0	-55.1	6.2	0.00e+00	0	52	104	0	76	19529
2026-01-29 20:44:04.22	231.64	11.61	-53.0	-55.1	6.2	0.00e+00	0	52	104	0	76	19539
2026-01-29 20:44:05.19	231.84	11.68	-53.0	-55.1	6.2	0.00e+00	0	52	104	0	76	19652
2026-01-29 20:44:06.16	232.05	11.75	-53.0	-55.1	6.2	0.00e+00	0	52	104	0	76	19681
2026-01-29 20:44:07.13	232.25	11.83	-53.0	-55.1	6.2	0.00e+00	0	52	104	0	76	19653
2026-01-29 20:44:08.09	232.46	11.90	-53.0	-55.1	6.2	0.00e+00	0	52	104	0	76	19603
2026-01-29 20:44:09.06	232.66	11.97	-53.1	-55.2	6.2	0.00e+00	0	52	104	0	76	19851
2026-01-29 20:44:10.04	232.87	12.04	-53.0	-55.2	6.2	0.00e+00	0	52	104	0	76	19731
2026-01-29 20:44:11.01	233.08	12.12	-53.0	-55.1	6.2	0.00e+00	0	52	104	0	76	19667
2026-01-29 20:44:11.98	233.29	12.19	-53.0	-55.2	6.2	0.00e+00	0	52	104	0	76	19723
2026-01-29 20:44:12.95	233.51	12.26	-53.1	-55.2	6.2	0.00e+00	0	52	104	0	76	19869
2026-01-29 20:44:13.91	233.72	12.33	-53.1	-55.2	6.2	0.00e+00	0	52	104	0	76	19796
2026-01-29 20:44:14.88	233.93	12.40	-53.0	-55.1	6.2	0.00e+00	0	52	104	0	76	19672
2026-01-29 20:44:15.85	234.15	12.48	-53.0	-55.1	6.2	0.00e+00	0	52	104	0	76	19662
2026-01-29 20:44:16.82	234.37	12.55	-53.1	-55.2	6.2	0.00e+00	0	52	104	0	76	19802
2026-01-29 20:44:17.79	234.58	12.62	-53.1	-55.2	6.2	0.00e+00	0	52	104	0	76	19816
2026-01-29 20:44:18.76	234.80	12.69	-53.0	-55.2	6.2	0.00e+00	0	52	104	0	76	19782
2026-01-29 20:44:19.73	235.03	12.76	-53.0	-55.1	6.2	0.00e+00	0	52	104	0	76	19688
2026-01-29 20:44:20.70	235.25	12.84	-53.1	-55.2	6.2	0.00e+00	0	52	104	0	76	19829
2026-01-29 20:44:21.67	235.47	12.91	-53.1	-55.2	6.2	0.00e+00	0	52	104	0	76	19831
2026-01-29 20:44:22.64	235.70	12.98	-53.1	-55.2	6.2	0.00e+00	0	52	104	0	76	19783
2026-01-29 20:44:23.61	235.92	13.05	-53.0	-55.2	6.2	0.00e+00	0	52	104	0	76	19724
2026-01-29 20:44:24.58	236.15	13.12	-53.1	-55.2	6.2	0.00e+00	0	52	104	0	76	19761
2026-01-29 20:44:25.55	236.38	13.19	-53.1	-55.2	6.2	0.00e+00	0	52	104	0	76	19834
2026-01-29 20:44:26.52	236.61	13.26	-53.1	-55.2	6.2	0.00e+00	0	52	104	0	76	19820
2026-01-29 20:44:27.49	236.84	13.34	-53.0	-55.2	6.2	0.00e+00	0	52	104	0	76	19780
2026-01-29 20:44:28.46	237.07	13.41	-53.1	-55.2	6.2	0.00e+00	0	52	104	0	76	19742
2026-01-29 20:44:29.43	237.31	13.48	-53.1	-55.2	6.2	0.00e+00	0	52	104	0	76	19880
2026-01-29 20:44:30.41	237.54	13.55	-53.1	-55.2	6.2	0.00e+00	0	52	104	0	76	19786
2026-01-29 20:44:31.38	237.78	13.62	-53.1	-55.2	6.2	0.00e+00	0	52	104	0	76	19785
2026-01-29 20:44:32.35	238.02	13.69	-53.1	-55.2	6.2	0.00e+00	0	52	104	0	76	19817
2026-01-29 20:44:33.32	238.26	13.76	-53.1	-55.2	6.2	0.00e+00	0	52	104	0	76	19854
2026-01-29 20:44:34.29	238.50	13.83	-53.1	-55.2	6.2	0.00e+00	0	52	104	0	76	19760
2026-01-29 20:44:35.26	238.74	13.90	-53.1	-55.2	6.2	0.00e+00	0	52	104	0	76	19775
2026-01-29 20:44:36.23	238.98	13.97	-53.1	-55.2	6.2	0.00e+00	0	52	104	0	76	19831
2026-01-29 20:44:37.20	239.23	14.04	-53.1	-55.2	6.2	0.00e+00	0	52	104	0	76	19911
2026-01-29 20:44:38.17	239.47	14.11	-53.1	-55.2	6.2	0.00e+00	0	52	104	0	76	19837
2026-01-29 20:44:39.14	239.72	14.18	-53.1	-55.2	6.2	0.00e+00	0	52	104	0	76	19822
2026-01-29 20:44:40.11	239.97	14.25	-53.1	-55.3	6.2	0.00e+00	0	52	104	0	76	19936
2026-01-29 20:44:41.08	240.22	14.32	-53.1	-55.3	6.2	0.00e+00	0	52	104	0	76	19955
2026-01-29 20:44:42.05	240.47	14.39	-53.1	-55.2	6.2	0.00e+00	0	52	104	0	76	19916
2026-01-29 20:44:43.02	240.72	14.46	-53.1	-55.2	6.2	0.00e+00	0	52	104	0	76	19796
2026-01-29 20:44:43.99	240.97	14.53	-53.1	-55.2	6.2	0.00e+00	0	52	104	0	76	19878
2026-01-29 20:44:44.96	241.23	14.59	-53.2	-55.3	6.2	0.00e+00	0	52	104	0	76	20027
2026-01-29 20:44:45.93	241.48	14.66	-53.1	-55.2	6.2	0.00e+00	0	52	104	0	76	19924
2026-01-29 20:44:46.90	241.74	14.73	-53.1	-55.2	6.2	0.00e+00	0	52	104	0	76	19901
2026-01-29 20:44:47.88	242.00	14.80	-53.1	-55.3	6.2	0.00e+00	0	52	104	0	76	20013
2026-01-29 20:44:48.86	242.27	14.87	-53.2	-55.3	6.2	0.00e+00	0	52	104	0	76	20091
2026-01-29 20:44:49.82	242.53	14.93	-53.2	-55.3	6.2	0.00e+00	0	52	104	0	76	20007
2026-01-29 20:44:50.80	242.79	15.00	-34.8	-34.6	14.6	0.00e+00	155	53	104	0	41	13912
2026-01-29 20:44:51.77	243.06	15.07	-51.9	-53.5	6.3	3.14e-02	0	53	104	92274688	74	18324
2026-01-29 20:44:52.74	243.32	15.13	-28.6	-28.4	15.4	0.00e+00	131	54	104	92274688	29	13560
2026-01-29 20:44:53.70	243.59	15.20	-28.2	-28.1	16.1	0.00e+00	0	54	0	201326592	28	13897
2026-01-29 20:44:54.67	243.86	15.27	-28.3	-28.2	16.0	0.00e+00	0	54	0	318767104	28	13979
2026-01-29 20:44:55.64	244.13	15.33	-28.1	-28.0	16.1	1.55e-02	0	54	0	419430400	28	13708
2026-01-29 20:44:56.61	244.40	15.40	-28.2	-28.1	16.1	1.55e-02	0	54	0	528482304	28	13862
2026-01-29 20:44:57.59	244.67	15.46	-28.1	-28.0	16.1	1.36e-03	0	54	0	645922816	28	13765
2026-01-29 20:44:58.56	244.95	15.53	-28.1	-28.0	16.1	1.36e-03	0	54	0	754974720	28	13719
2026-01-29 20:44:59.53	245.22	15.59	-28.1	-28.0	16.1	1.36e-03	0	54	0	855638016	28	13726
2026-01-29 20:45:00.50	245.50	15.66	-28.1	-28.0	16.1	1.25e-03	0	54	0	973078528	28	13767
2026-01-29 20:45:01.47	245.78	15.72	-28.0	-27.9	16.1	1.25e-03	0	54	0	1082130432	28	13587
2026-01-29 20:45:02.45	246.06	15.78	-28.0	-27.9	16.1	1.25e-03	0	54	0	1182793728	27	14434
2026-01-29 20:45:03.41	246.34	15.84	-28.1	-28.0	16.1	1.25e-03	0	55	0	1300234240	27	14455
2026-01-29 20:45:04.38	246.62	15.91	-28.0	-27.9	16.1	1.13e-03	0	54	0	1409286144	27	14397
2026-01-29 20:45:05.35	246.90	15.97	-28.1	-28.0	16.1	1.13e-03	0	55	0	1518338048	27	14476
2026-01-29 20:45:06.32	247.19	16.03	-28.1	-28.0	16.2	1.13e-03	0	55	0	1619001344	27	14462
2026-01-29 20:45:07.29	247.48	16.09	-28.1	-28.0	16.2	1.35e-03	0	55	0	1736441856	27	14463
2026-01-29 20:45:08.26	247.76	16.15	-28.0	-27.9	16.2	1.35e-03	0	55	0	1845493760	27	14396
2026-01-29 20:45:09.23	248.05	16.21	-28.1	-28.0	16.2	1.35e-03	0	55	0	1946157056	27	14494
2026-01-29 20:45:10.20	248.34	16.27	-28.0	-27.9	16.2	1.11e-03	0	55	0	2063597568	27	14294
2026-01-29 20:45:11.17	248.63	16.33	-27.9	-27.8	16.1	1.11e-03	0	55	0	2172649472	27	14189
2026-01-29 20:45:12.14	248.93	16.39	-27.8	-27.7	16.1	1.11e-03	0	54	0	2273312768	27	14000
2026-01-29 20:45:13.11	249.22	16.45	-27.7	-27.6	16.2	5.91e-04	0	55	0	2390753280	27	13888
2026-01-29 20:45:14.08	249.52	16.51	-27.7	-27.6	16.2	5.91e-04	0	55	0	2499805184	27	13866
2026-01-29 20:45:15.05	249.81	16.57	-27.8	-27.7	16.1	5.91e-04	0	55	0	2608857088	27	13978
2026-01-29 20:45:16.02	250.11	16.62	-27.6	-27.5	16.2	3.43e-04	0	55	0	2717908992	27	13725
2026-01-29 20:45:16.99	250.41	16.68	-27.7	-27.6	16.2	3.43e-04	0	55	0	2826960896	27	13859
2026-01-29 20:45:17.96	250.71	16.74	-27.7	-27.6	16.2	3.43e-04	0	55	0	2936012800	27	13904
2026-01-29 20:45:18.93	251.01	16.79	-27.7	-27.6	16.2	3.15e-04	0	55	0	3036676096	27	13852
2026-01-29 20:45:19.90	251.32	16.85	-27.6	-27.5	16.2	3.15e-04	0	55	0	3154116608	27	13766
2026-01-29 20:45:20.86	251.62	16.90	-27.6	-27.5	16.2	3.15e-04	0	55	0	3263168512	27	13673
2026-01-29 20:45:21.84	251.93	16.96	-27.7	-27.6	16.2	3.81e-04	0	55	0	3363831808	27	13852
2026-01-29 20:45:22.80	252.23	17.01	-27.5	-27.4	16.2	3.81e-04	0	55	0	3481272320	27	13598
2026-01-29 20:45:23.77	252.54	17.06	-27.5	-27.4	16.2	3.81e-04	0	55	0	3590324224	27	13625
2026-01-29 20:45:24.74	252.85	17.12	-27.6	-27.5	16.2	3.00e-04	0	55	0	3690987520	27	13753
2026-01-29 20:45:25.71	253.16	17.17	-27.6	-27.5	16.2	3.00e-04	0	55	0	3808428032	27	13641
2026-01-29 20:45:26.68	253.47	17.22	-27.6	-27.4	16.2	3.00e-04	0	55	0	3917479936	27	13628
2026-01-29 20:45:27.65	253.79	17.27	-27.4	-27.3	16.2	2.24e-04	0	55	0	4026531840	26	14216
2026-01-29 20:45:28.62	254.10	17.32	-27.4	-27.3	16.2	2.24e-04	0	55	0	4135583744	26	14236
2026-01-29 20:45:29.59	254.42	17.37	-27.4	-27.3	16.2	2.24e-04	0	55	0	4244635648	26	14198
2026-01-29 20:45:30.55	254.73	17.42	-27.4	-27.3	16.2	2.24e-04	0	55	0	4353687552	26	14235
2026-01-29 20:45:31.52	255.05	17.47	-27.4	-27.3	16.3	2.24e-04	0	55	0	4454350848	26	14153
2026-01-29 20:45:32.49	255.37	17.51	-27.4	-27.3	16.2	3.05e-04	0	55	0	4571791360	26	14248
2026-01-29 20:45:33.46	255.69	17.56	-27.4	-27.3	16.2	3.05e-04	0	55	0	4680843264	26	14260
2026-01-29 20:45:34.43	256.01	17.61	-27.4	-27.3	16.2	3.05e-04	0	55	0	4781506560	26	14246
2026-01-29 20:45:35.41	256.33	17.65	-27.3	-27.2	16.3	2.24e-04	0	55	0	4898947072	26	14101
2026-01-29 20:45:36.37	256.65	17.70	-27.4	-27.3	16.3	2.24e-04	0	55	0	5007998976	26	14165
2026-01-29 20:45:37.35	256.98	17.74	-27.5	-27.4	16.2	2.24e-04	0	55	0	5108662272	26	14309
2026-01-29 20:45:38.32	257.31	17.79	-27.5	-27.4	16.2	3.62e-04	0	55	0	5226102784	26	14411
2026-01-29 20:45:39.29	257.63	17.83	-27.5	-27.4	16.2	3.62e-04	0	55	0	5335154688	26	14370
2026-01-29 20:45:40.26	257.96	17.87	-27.4	-27.3	16.2	3.62e-04	0	55	0	5444206592	26	14198
2026-01-29 20:45:41.22	258.28	17.91	-27.3	-27.2	16.3	2.53e-04	0	56	0	5544869888	26	14024
2026-01-29 20:45:42.19	258.61	17.95	-27.4	-27.3	16.2	2.53e-04	0	55	0	5662310400	26	14158
2026-01-29 20:45:43.16	258.95	17.99	-27.4	-27.3	16.2	2.53e-04	0	56	0	5771362304	26	14207
2026-01-29 20:45:44.13	259.28	18.03	-27.4	-27.3	16.2	2.86e-04	0	55	0	5872025600	26	14148
2026-01-29 20:45:45.11	259.61	18.07	-27.3	-27.2	16.3	2.86e-04	0	55	0	5989466112	26	14073
2026-01-29 20:45:46.08	259.95	18.11	-27.3	-27.3	16.2	2.10e-04	0	55	0	6098518016	26	14112
2026-01-29 20:45:47.05	260.28	18.14	-27.3	-27.2	16.3	2.10e-04	0	55	0	6199181312	26	14044
2026-01-29 20:45:48.01	260.61	18.18	-27.4	-27.3	16.2	2.10e-04	0	55	0	6316621824	26	14139
2026-01-29 20:45:48.98	260.95	18.22	-27.3	-27.2	16.3	2.10e-04	0	55	0	6425673728	26	14000
2026-01-29 20:45:49.95	261.29	18.25	-27.4	-27.3	16.2	2.05e-04	0	56	0	6526337024	26	14211
2026-01-29 20:45:50.92	261.62	18.28	-27.4	-27.3	16.2	2.05e-04	0	55	0	6643777536	26	14239
2026-01-29 20:45:51.89	261.96	18.32	-27.4	-27.3	16.2	2.05e-04	0	56	0	6752829440	26	14188
2026-01-29 20:45:52.86	262.30	18.35	-27.4	-27.3	16.2	3.34e-04	0	56	0	6861881344	26	14205
2026-01-29 20:45:53.83	262.64	18.38	-27.4	-27.3	16.2	3.34e-04	0	55	0	6962544640	26	14179
2026-01-29 20:45:54.80	262.98	18.41	-27.4	-27.3	16.2	3.34e-04	0	56	0	7079985152	26	14182
2026-01-29 20:45:55.77	263.32	18.44	-27.5	-27.4	16.2	3.10e-04	0	56	0	7189037056	26	14352
2026-01-29 20:45:56.73	263.66	18.47	-27.4	-27.3	16.2	3.10e-04	0	56	0	7289700352	26	14180
2026-01-29 20:45:57.70	264.01	18.50	-27.5	-27.4	16.2	3.10e-04	0	56	0	7407140864	26	14319
2026-01-29 20:45:58.66	264.35	18.52	-27.5	-27.4	16.1	3.43e-04	0	56	0	7516192768	26	14414
2026-01-29 20:45:59.63	264.69	18.55	-27.4	-27.3	16.2	3.43e-04	0	56	0	7616856064	26	14202
2026-01-29 20:46:00.60	265.04	18.57	-27.3	-27.2	16.2	3.48e-04	0	56	0	7734296576	26	13987
2026-01-29 20:46:01.57	265.38	18.60	-27.4	-27.3	16.2	3.48e-04	0	56	0	7843348480	26	14127
2026-01-29 20:46:02.54	265.73	18.62	-27.4	-27.3	16.4	3.48e-04	0	56	0	7944011776	26	14221
2026-01-29 20:46:03.51	266.08	18.64	-27.4	-27.3	16.3	4.67e-04	0	56	0	8061452288	26	14258
2026-01-29 20:46:04.48	266.42	18.67	-27.3	-27.2	16.4	4.67e-04	0	56	0	8170504192	26	14053
2026-01-29 20:46:05.45	266.77	18.69	-27.4	-27.2	16.4	4.67e-04	0	56	0	8279556096	26	14105
2026-01-29 20:46:06.43	267.12	18.71	-27.3	-27.2	16.4	4.67e-04	0	56	0	8380219392	26	14103
2026-01-29 20:46:07.39	267.47	18.72	-27.2	-27.1	16.4	3.53e-04	0	56	0	8497659904	26	13915
2026-01-29 20:46:08.36	267.82	18.74	-27.3	-27.2	16.3	3.53e-04	0	56	0	8606711808	26	13992
2026-01-29 20:46:09.33	268.17	18.76	-27.3	-27.2	16.2	3.53e-04	0	56	0	8707375104	26	14053
2026-01-29 20:46:10.30	268.52	18.78	-27.3	-27.2	16.2	3.53e-04	0	56	0	8824815616	26	14109
2026-01-29 20:46:11.27	268.87	18.79	-27.3	-27.2	16.2	2.14e-04	0	56	0	8933867520	26	14062
2026-01-29 20:46:12.24	269.22	18.81	-27.3	-27.2	16.2	2.14e-04	0	56	0	9034530816	26	13997
2026-01-29 20:46:13.20	269.57	18.82	-27.3	-27.2	16.2	2.14e-04	0	56	0	9151971328	26	14092
2026-01-29 20:46:14.17	269.92	18.83	-27.4	-27.3	16.2	1.62e-04	0	56	0	9261023232	26	14120
2026-01-29 20:46:15.15	270.28	18.84	-27.4	-27.3	16.2	1.62e-04	0	56	0	9361686528	26	14157
2026-01-29 20:46:16.11	270.63	18.85	-27.4	-27.2	16.2	1.62e-04	0	56	0	9479127040	26	14103
2026-01-29 20:46:17.09	270.98	18.86	-27.4	-27.3	16.2	1.62e-04	0	56	0	9588178944	26	14139
2026-01-29 20:46:18.05	271.33	18.87	-27.2	-27.1	16.2	1.24e-04	0	56	0	9697230848	26	13914
2026-01-29 20:46:19.02	271.69	18.88	-27.4	-27.2	16.2	1.24e-04	0	56	0	9797894144	26	14105
2026-01-29 20:46:20.00	272.04	18.88	-27.5	-27.4	16.2	1.24e-04	0	56	0	9915334656	26	14275
2026-01-29 20:46:20.96	272.39	18.89	-27.3	-27.2	16.2	1.48e-04	0	56	0	10024386560	26	13978
2026-01-29 20:46:21.93	272.75	18.90	-27.4	-27.3	16.3	1.48e-04	0	56	0	10125049856	26	14171
2026-01-29 20:46:22.90	273.10	18.90	-27.4	-27.3	16.2	1.48e-04	0	56	0	10242490368	26	14202
2026-01-29 20:46:23.87	273.45	18.90	-27.3	-27.2	16.2	1.62e-04	0	56	0	10351542272	26	14089
2026-01-29 20:46:24.84	273.81	18.90	-27.4	-27.3	16.2	1.62e-04	0	56	0	10452205568	26	14120
2026-01-29 20:46:25.81	274.16	18.90	-27.4	-27.3	16.1	1.52e-04	0	56	0	10569646080	26	14260
2026-01-29 20:46:26.79	274.52	18.90	-27.5	-27.4	16.2	1.52e-04	0	56	0	10678697984	26	14367
2026-01-29 20:46:27.76	274.87	18.90	-27.4	-27.3	16.1	1.52e-04	0	56	0	10787749888	26	14186
2026-01-29 20:46:28.72	275.22	18.90	-27.4	-27.3	16.2	1.52e-04	0	56	0	10896801792	26	14133
2026-01-29 20:46:29.69	275.58	18.90	-27.4	-27.3	16.1	1.38e-04	0	56	0	11005853696	26	14227
2026-01-29 20:46:30.66	275.93	18.89	-27.4	-27.3	16.1	1.38e-04	0	56	0	11114905600	26	14242
2026-01-29 20:46:31.63	276.28	18.89	-27.4	-27.3	16.1	1.38e-04	0	56	0	11215568896	26	14216
2026-01-29 20:46:32.60	276.64	18.88	-27.4	-27.3	16.3	1.72e-04	0	57	0	11333009408	26	14217
2026-01-29 20:46:33.57	276.99	18.88	-27.5	-27.4	16.1	1.72e-04	0	57	0	11442061312	26	14429
2026-01-29 20:46:34.54	277.34	18.87	-27.5	-27.4	16.1	1.72e-04	0	57	0	11542724608	26	14417
2026-01-29 20:46:35.51	277.70	18.86	-27.5	-27.4	16.1	1.43e-04	0	56	0	11660165120	26	14327
2026-01-29 20:46:36.48	278.05	18.85	-27.6	-27.5	16.1	1.43e-04	0	56	0	11769217024	26	14447
2026-01-29 20:46:37.45	278.40	18.84	-27.7	-27.6	16.1	1.43e-04	0	56	0	11869880320	26	14641
2026-01-29 20:46:38.41	278.75	18.83	-27.6	-27.5	16.1	2.67e-04	0	56	0	11987320832	26	14486
2026-01-29 20:46:39.38	279.10	18.82	-27.5	-27.4	16.1	2.67e-04	0	57	0	12096372736	26	14437
2026-01-29 20:46:40.35	279.45	18.80	-27.7	-27.6	16.1	2.67e-04	0	56	0	12205424640	26	14669
2026-01-29 20:46:41.32	279.80	18.79	-27.8	-27.7	16.0	1.72e-04	0	56	0	12306087936	26	14845
2026-01-29 20:46:42.29	280.15	18.77	-27.7	-27.6	16.0	1.72e-04	0	57	0	12423528448	26	14685
2026-01-29 20:46:43.26	280.50	18.76	-27.8	-27.7	16.0	1.72e-04	0	56	0	12532580352	26	14791
2026-01-29 20:46:44.23	280.85	18.74	-27.7	-27.6	16.0	1.72e-04	0	57	0	12633243648	26	14768
2026-01-29 20:46:45.20	281.20	18.72	-27.8	-27.7	16.0	2.38e-04	0	57	0	12750684160	26	14837
2026-01-29 20:46:46.17	281.55	18.70	-27.9	-27.8	16.0	2.38e-04	0	56	0	12859736064	26	15050
2026-01-29 20:46:47.14	281.90	18.68	-27.7	-27.6	16.0	2.38e-04	0	56	0	12960399360	26	14694
2026-01-29 20:46:48.11	282.25	18.66	-27.8	-27.7	16.0	2.72e-04	0	57	0	13077839872	26	14800
2026-01-29 20:46:49.08	282.59	18.64	-27.7	-27.6	16.0	2.72e-04	0	57	0	13186891776	26	14721
2026-01-29 20:46:50.05	282.94	18.62	-27.7	-27.6	16.0	2.72e-04	0	57	0	13287555072	26	14706
2026-01-29 20:46:51.02	283.29	18.59	-27.8	-27.7	16.0	2.19e-04	0	57	0	13404995584	26	14827
2026-01-29 20:46:51.99	283.63	18.57	-27.8	-27.7	16.0	2.19e-04	0	57	0	13514047488	26	14819
2026-01-29 20:46:52.95	283.97	18.54	-27.7	-27.6	16.0	2.19e-04	0	56	0	13623099392	26	14679
2026-01-29 20:46:53.92	284.32	18.52	-27.8	-27.7	16.0	2.43e-04	0	57	0	13723762688	26	14807
2026-01-29 20:46:54.90	284.66	18.49	-27.9	-27.8	16.0	2.43e-04	0	57	0	13841203200	26	14973
2026-01-29 20:46:55.86	285.00	18.46	-27.8	-27.7	16.0	2.43e-04	0	57	0	13950255104	26	14908
2026-01-29 20:46:56.83	285.34	18.43	-27.8	-27.7	16.0	2.43e-04	0	57	0	14050918400	26	14816
2026-01-29 20:46:57.80	285.68	18.40	-27.8	-27.7	16.1	2.43e-04	0	57	0	14168358912	26	14920
2026-01-29 20:46:58.77	286.02	18.37	-27.8	-27.7	16.0	2.43e-04	0	57	0	14277410816	26	14914
2026-01-29 20:46:59.74	286.36	18.34	-27.9	-27.8	16.0	2.43e-04	0	57	0	14378074112	26	14985
2026-01-29 20:47:00.71	286.70	18.31	-27.9	-27.8	16.0	2.57e-04	0	57	0	14495514624	26	14968
2026-01-29 20:47:01.68	287.04	18.28	-28.0	-27.9	16.0	2.57e-04	0	56	0	14604566528	26	15211
2026-01-29 20:47:02.65	287.38	18.24	-27.9	-27.8	16.0	2.57e-04	0	57	0	14713618432	26	15089
2026-01-29 20:47:03.62	287.71	18.21	-28.0	-27.9	16.0	2.76e-04	0	57	0	14822670336	26	15276
2026-01-29 20:47:04.59	288.05	18.17	-28.0	-27.9	16.1	2.76e-04	0	57	0	14931722240	26	15162
2026-01-29 20:47:05.56	288.38	18.14	-28.0	-27.9	16.0	2.76e-04	0	57	0	15040774144	26	15274
2026-01-29 20:47:06.53	288.72	18.10	-28.0	-27.9	16.1	2.76e-04	0	57	0	15141437440	26	15121
2026-01-29 20:47:07.50	289.05	18.06	-27.9	-27.8	16.1	2.72e-04	0	57	0	15258877952	26	15080
2026-01-29 20:47:08.47	289.38	18.02	-27.9	-27.8	16.1	2.72e-04	0	57	0	15367929856	26	15069
2026-01-29 20:47:09.43	289.71	17.98	-28.0	-27.9	16.1	2.72e-04	0	57	0	15468593152	26	15152
2026-01-29 20:47:10.40	290.04	17.94	-28.0	-27.9	16.2	2.14e-04	0	57	0	15586033664	26	15146
2026-01-29 20:47:11.37	290.36	17.90	-28.0	-27.9	16.1	2.14e-04	0	57	0	15695085568	26	15250
2026-01-29 20:47:12.34	290.69	17.86	-28.0	-27.9	16.1	2.14e-04	0	57	0	15795748864	26	15207
2026-01-29 20:47:13.31	291.02	17.82	-28.0	-27.9	16.1	1.86e-04	0	57	0	15913189376	26	15255
2026-01-29 20:47:14.28	291.34	17.78	-28.1	-28.0	16.1	1.86e-04	0	57	0	16022241280	26	15441
2026-01-29 20:47:15.25	291.67	17.73	-28.2	-28.1	16.1	1.86e-04	0	57	0	16131293184	26	15545
2026-01-29 20:47:16.23	291.99	17.69	-28.0	-27.9	16.1	1.76e-04	0	57	0	16240345088	26	15264
2026-01-29 20:47:17.20	292.32	17.64	-28.2	-28.1	16.1	1.76e-04	0	57	0	16349396992	26	15535
2026-01-29 20:47:18.17	292.64	17.60	-28.1	-28.0	16.1	2.62e-04	0	57	0	16458448896	26	15439
2026-01-29 20:47:19.14	292.96	17.55	-28.2	-28.1	16.1	2.62e-04	0	57	0	16559112192	26	15476
2026-01-29 20:47:20.11	293.28	17.51	-28.1	-28.0	16.1	2.62e-04	0	57	0	16676552704	27	14549
2026-01-29 20:47:21.08	293.59	17.46	-28.2	-28.1	16.1	2.67e-04	0	57	0	16785604608	27	14676
2026-01-29 20:47:22.05	293.91	17.41	-28.2	-28.1	16.1	2.67e-04	0	57	0	16886267904	27	14648
2026-01-29 20:47:23.02	294.23	17.36	-28.2	-28.1	16.2	2.67e-04	0	57	0	17003708416	27	14643
2026-01-29 20:47:23.99	294.54	17.31	-28.2	-28.1	16.2	2.24e-04	0	57	0	17112760320	27	14669
2026-01-29 20:47:24.96	294.85	17.26	-28.3	-28.2	16.1	2.24e-04	0	57	0	17230200832	27	14842
2026-01-29 20:47:25.93	295.16	17.21	-28.3	-28.2	16.2	2.24e-04	0	57	0	17330864128	27	14834
2026-01-29 20:47:26.90	295.48	17.16	-28.3	-28.2	16.3	2.24e-04	0	57	0	17439916032	27	14814
2026-01-29 20:47:27.87	295.78	17.11	-28.4	-28.3	16.1	2.57e-04	0	57	0	17548967936	27	14964
2026-01-29 20:47:28.84	296.09	17.06	-28.3	-28.2	16.2	2.57e-04	0	57	0	17658019840	27	14803
2026-01-29 20:47:29.81	296.40	17.00	-28.2	-28.1	16.2	2.57e-04	0	57	0	17767071744	27	14738
2026-01-29 20:47:30.78	296.71	16.95	-28.2	-28.1	16.2	2.24e-04	0	57	0	17876123648	27	14755
2026-01-29 20:47:31.74	297.01	16.90	-28.3	-28.2	16.2	2.24e-04	0	57	0	17976786944	27	14863
2026-01-29 20:47:32.71	297.31	16.84	-28.3	-28.2	16.2	2.24e-04	0	57	0	18094227456	27	14860
2026-01-29 20:47:33.68	297.61	16.79	-28.3	-28.2	16.2	2.24e-04	0	57	0	18203279360	27	14795
2026-01-29 20:47:34.65	297.91	16.73	-28.3	-28.2	16.2	2.24e-04	0	57	0	18303942656	27	14866
2026-01-29 20:47:35.62	298.21	16.67	-28.4	-28.3	16.2	2.24e-04	0	57	0	18421383168	27	15055
2026-01-29 20:47:36.59	298.51	16.62	-28.4	-28.3	16.2	1.62e-04	0	57	0	18530435072	27	14956
2026-01-29 20:47:37.56	298.81	16.56	-28.5	-28.4	16.2	1.62e-04	0	57	0	18647875584	27	15176
2026-01-29 20:47:38.54	299.10	16.50	-28.4	-28.3	16.2	1.62e-04	0	57	0	18748538880	27	15082
2026-01-29 20:47:39.50	299.40	16.44	-28.3	-28.2	16.2	1.95e-04	0	57	0	18857590784	27	14886
2026-01-29 20:47:40.47	299.69	16.39	-28.4	-28.3	16.2	1.95e-04	0	57	0	18966642688	27	15069
2026-01-29 20:47:41.44	299.98	16.33	-28.5	-28.4	16.2	1.95e-04	0	57	0	19067305984	27	15127
2026-01-29 20:47:42.41	300.27	16.27	-28.4	-28.3	16.2	2.86e-04	0	57	0	19184746496	27	15039
2026-01-29 20:47:43.38	300.56	16.21	-28.5	-28.4	16.2	2.86e-04	0	57	0	19293798400	27	15164
2026-01-29 20:47:44.35	300.85	16.15	-28.4	-28.3	16.2	2.86e-04	0	57	0	19411238912	27	15047
2026-01-29 20:47:45.32	301.13	16.09	-28.4	-28.3	16.2	2.29e-04	0	57	0	19511902208	27	14968
2026-01-29 20:47:46.29	301.42	16.03	-28.3	-28.2	16.3	2.29e-04	0	57	0	19620954112	27	14932
2026-01-29 20:47:47.26	301.70	15.96	-28.4	-28.2	16.3	2.29e-04	0	57	0	19738394624	27	14926
2026-01-29 20:47:48.23	301.98	15.90	-28.5	-28.4	16.2	2.29e-04	0	57	0	19839057920	27	15222
2026-01-29 20:47:49.20	302.26	15.84	-28.4	-28.3	16.3	1.91e-04	0	57	0	19948109824	27	14977
2026-01-29 20:47:50.16	302.54	15.78	-28.5	-28.4	16.2	1.91e-04	0	57	0	20057161728	27	15166
2026-01-29 20:47:51.13	302.82	15.72	-28.3	-28.2	16.3	1.91e-04	0	57	0	20166213632	27	14778
2026-01-29 20:47:52.10	303.09	15.65	-28.4	-28.3	16.3	2.57e-04	0	57	0	20275265536	27	15062
2026-01-29 20:47:53.07	303.37	15.59	-28.4	-28.3	16.3	2.57e-04	0	57	0	20384317440	27	15049
2026-01-29 20:47:54.04	303.64	15.52	-28.4	-28.3	16.3	2.57e-04	0	57	0	20484980736	27	15041
2026-01-29 20:47:55.01	303.92	15.46	-28.5	-28.3	16.3	2.81e-04	0	57	0	20602421248	27	15095
2026-01-29 20:47:55.98	304.19	15.40	-28.6	-28.5	16.3	2.81e-04	0	57	0	20711473152	27	15343
2026-01-29 20:47:56.95	304.46	15.33	-28.5	-28.4	16.3	2.81e-04	0	57	0	20828913664	27	15243
2026-01-29 20:47:57.92	304.73	15.27	-28.5	-28.4	16.2	2.96e-04	0	57	0	20929576960	27	15278
2026-01-29 20:47:58.89	304.99	15.20	-28.5	-28.4	16.3	2.96e-04	0	57	0	21038628864	27	15238
2026-01-29 20:47:59.86	305.26	15.13	-28.6	-28.5	16.2	2.96e-04	0	57	0	21156069376	27	15332
2026-01-29 20:48:00.83	305.52	15.07	-28.6	-28.5	16.3	3.05e-04	0	57	0	21256732672	27	15346
2026-01-29 20:48:01.80	305.79	15.00	-28.7	-28.6	16.2	3.05e-04	0	57	0	21365784576	28	14677
2026-01-29 20:48:02.77	306.05	14.94	-28.5	-28.5	16.2	3.05e-04	0	57	0	21474836480	28	14448
2026-01-29 20:48:03.74	306.31	14.87	-28.6	-28.4	16.2	3.19e-04	0	57	0	21583888384	28	14423
2026-01-29 20:48:04.71	306.57	14.80	-28.7	-28.6	16.2	3.19e-04	0	57	0	21692940288	28	14742
2026-01-29 20:48:05.68	306.83	14.73	-28.6	-28.5	16.2	3.19e-04	0	57	0	21801992192	28	14542
2026-01-29 20:48:06.65	307.08	14.67	-28.6	-28.5	16.2	3.81e-04	0	57	0	21919432704	28	14543
2026-01-29 20:48:07.62	307.34	14.60	-28.7	-28.6	16.2	3.81e-04	0	57	0	22020096000	28	14645
2026-01-29 20:48:08.59	307.59	14.53	-28.7	-28.5	16.2	3.81e-04	0	57	0	22129147904	28	14599
2026-01-29 20:48:09.56	307.84	14.46	-28.7	-28.5	16.2	3.81e-04	0	57	0	22246588416	28	14596
2026-01-29 20:48:10.53	308.10	14.39	-28.7	-28.6	16.2	4.05e-04	0	57	0	22347251712	28	14752
2026-01-29 20:48:11.50	308.34	14.33	-28.7	-28.6	16.2	4.05e-04	0	57	0	22456303616	28	14665
2026-01-29 20:48:12.47	308.59	14.26	-28.7	-28.6	16.2	4.05e-04	0	57	0	22573744128	28	14687
2026-01-29 20:48:13.44	308.84	14.19	-28.8	-28.7	16.2	4.58e-04	0	57	0	22674407424	28	14857
2026-01-29 20:48:14.41	309.09	14.12	-28.8	-28.7	16.2	4.58e-04	0	57	0	22783459328	28	14809
2026-01-29 20:48:15.39	309.33	14.05	-28.9	-28.8	16.1	4.58e-04	0	57	0	22892511232	28	15019
2026-01-29 20:48:16.36	309.58	13.98	-28.8	-28.7	16.2	4.05e-04	0	57	0	23009951744	28	14803
2026-01-29 20:48:17.32	309.81	13.91	-29.0	-28.9	16.1	4.05e-04	0	57	0	23110615040	28	15224
2026-01-29 20:48:18.30	310.06	13.84	-29.0	-28.9	16.1	5.43e-04	0	57	0	23219666944	28	15270
2026-01-29 20:48:19.28	310.30	13.77	-28.9	-28.8	16.1	5.43e-04	0	57	0	23337107456	28	15083
2026-01-29 20:48:20.26	310.54	13.70	-29.0	-28.9	16.1	4.86e-04	0	57	0	23446159360	28	15150
2026-01-29 20:48:21.25	310.78	13.63	-29.0	-28.8	16.1	4.86e-04	0	57	0	23546822656	28	15089
2026-01-29 20:48:22.24	311.02	13.56	-29.0	-28.9	16.1	4.86e-04	0	57	0	23664263168	29	14368
2026-01-29 20:48:23.24	311.26	13.48	-29.0	-28.9	16.1	5.25e-04	0	57	0	23773315072	29	14282
2026-01-29 20:48:24.24	311.50	13.41	-29.1	-29.0	16.1	5.25e-04	0	57	0	23882366976	29	14499
2026-01-29 20:48:25.25	311.74	13.34	-29.2	-29.1	16.0	5.25e-04	0	57	0	23999807488	29	14747
2026-01-29 20:48:26.25	311.98	13.26	-29.3	-29.2	16.0	7.10e-04	0	57	0	24125636608	29	14782
2026-01-29 20:48:27.25	312.21	13.19	-29.1	-29.0	16.0	7.10e-04	0	57	0	24226299904	29	14570
2026-01-29 20:48:28.24	312.44	13.12	-29.2	-29.1	16.0	7.10e-04	0	57	0	24335351808	29	14628
2026-01-29 20:48:29.25	312.68	13.04	-29.1	-29.0	16.1	6.96e-04	0	57	0	24452792320	29	14589
2026-01-29 20:48:30.25	312.91	12.97	-29.3	-29.2	16.0	6.96e-04	0	57	0	24561844224	29	14804
2026-01-29 20:48:31.24	313.14	12.90	-29.0	-28.9	16.1	8.49e-04	0	57	0	24670896128	29	14371
2026-01-29 20:48:32.23	313.36	12.83	-29.2	-29.1	16.0	8.49e-04	0	57	0	24788336640	29	14736
2026-01-29 20:48:33.22	313.59	12.75	-29.2	-29.1	16.0	8.49e-04	0	57	0	24897388544	29	14660
2026-01-29 20:48:34.22	313.82	12.68	-29.2	-29.1	16.0	7.91e-04	0	57	0	25014829056	29	14719
2026-01-29 20:48:35.21	314.04	12.61	-29.3	-29.2	16.0	7.91e-04	0	57	0	25123880960	29	14819
2026-01-29 20:48:36.20	314.26	12.53	-29.2	-29.1	16.0	7.91e-04	0	57	0	25232932864	29	14662
2026-01-29 20:48:37.19	314.48	12.46	-29.1	-29.0	16.1	7.96e-04	0	57	0	25350373376	29	14497
2026-01-29 20:48:38.18	314.70	12.39	-29.3	-29.2	16.0	7.96e-04	0	57	0	25459425280	29	14829
2026-01-29 20:48:39.18	314.92	12.31	-29.2	-29.1	16.0	7.96e-04	0	57	0	25576865792	29	14759
2026-01-29 20:48:40.19	315.14	12.24	-29.1	-29.0	16.0	7.30e-04	0	57	0	25685917696	29	14591
2026-01-29 20:48:41.19	315.35	12.16	-29.2	-29.1	16.0	7.30e-04	0	57	0	25794969600	29	14621
2026-01-29 20:48:42.20	315.57	12.09	-29.2	-29.1	16.0	7.30e-04	0	57	0	25912410112	29	14669
2026-01-29 20:48:43.21	315.79	12.01	-29.3	-29.3	15.9	6.63e-04	0	57	0	26021462016	29	14956
2026-01-29 20:48:44.21	316.00	11.94	-29.3	-29.2	16.0	6.63e-04	0	57	0	26138902528	29	14882
2026-01-29 20:48:45.22	316.22	11.87	-29.1	-29.1	16.0	6.63e-04	0	57	0	26247954432	29	14616
2026-01-29 20:48:46.23	316.43	11.79	-29.4	-29.3	15.9	6.63e-04	0	57	0	26365394944	29	14953
2026-01-29 20:48:47.24	316.64	11.72	-29.3	-29.2	15.9	7.58e-04	0	57	0	26474446848	29	14807
2026-01-29 20:48:48.24	316.85	11.64	-29.3	-29.2	15.9	7.58e-04	0	57	0	26583498752	29	14930
2026-01-29 20:48:49.25	317.06	11.57	-29.3	-29.2	15.9	8.92e-04	0	57	0	26700939264	29	14906
2026-01-29 20:48:50.26	317.26	11.49	-29.4	-29.3	15.9	8.92e-04	0	57	0	26818379776	29	15113
2026-01-29 20:48:51.26	317.47	11.42	-29.5	-29.4	15.9	9.77e-04	0	57	0	26935820288	29	15255
2026-01-29 20:48:52.26	317.67	11.34	-29.4	-29.3	15.9	9.77e-04	0	57	0	27044872192	29	14993
2026-01-29 20:48:53.27	317.88	11.27	-29.4	-29.3	15.9	9.77e-04	0	57	0	27162312704	29	15040
2026-01-29 20:48:54.28	318.08	11.20	-29.5	-29.4	15.8	9.68e-04	0	57	0	27271364608	29	15262
2026-01-29 20:48:55.28	318.28	11.12	-29.5	-29.4	15.8	9.68e-04	0	57	0	27388805120	29	15174
2026-01-29 20:48:56.29	318.48	11.05	-29.5	-29.4	15.8	9.68e-04	0	57	0	27497857024	29	15251
2026-01-29 20:48:57.30	318.68	10.97	-29.6	-29.5	15.8	1.14e-03	0	57	0	27606908928	29	15391
2026-01-29 20:48:58.30	318.87	10.90	-29.7	-29.6	15.8	1.14e-03	0	57	0	27724349440	29	15480
2026-01-29 20:48:59.31	319.07	10.82	-29.6	-29.5	15.8	1.14e-03	0	57	0	27833401344	30	14603
2026-01-29 20:49:00.31	319.26	10.75	-29.7	-29.6	15.8	1.43e-03	0	57	0	27950841856	30	14641
2026-01-29 20:49:01.32	319.46	10.68	-29.7	-29.6	15.8	1.43e-03	0	57	0	28059893760	30	14723
2026-01-29 20:49:02.33	319.65	10.60	-29.7	-29.6	15.8	1.43e-03	0	57	0	28168945664	30	14667
2026-01-29 20:49:03.33	319.84	10.53	-29.8	-29.7	15.7	1.62e-03	0	57	0	28286386176	30	14870
2026-01-29 20:49:04.34	320.03	10.45	-29.8	-29.7	15.7	1.62e-03	0	57	0	28395438080	30	14875
2026-01-29 20:49:05.35	320.22	10.38	-29.7	-29.6	15.8	1.62e-03	0	57	0	28512878592	30	14744
2026-01-29 20:49:06.35	320.41	10.31	-29.9	-29.9	15.6	1.82e-03	0	57	0	28630319104	30	15123
2026-01-29 20:49:07.36	320.60	10.23	-29.8	-29.7	15.7	1.82e-03	0	57	0	28747759616	30	14867
2026-01-29 20:49:08.37	320.78	10.16	-29.9	-29.8	15.6	1.82e-03	0	57	0	28856811520	30	15082
2026-01-29 20:49:09.37	320.96	10.08	-30.0	-29.9	15.6	1.96e-03	0	57	0	28974252032	30	15222
2026-01-29 20:49:10.38	321.15	10.01	-29.9	-29.8	15.6	1.96e-03	0	57	0	29083303936	30	15041
2026-01-29 20:49:11.38	321.33	9.94	-29.9	-29.9	15.6	1.96e-03	0	57	0	29192355840	30	15131
2026-01-29 20:49:12.39	321.51	9.86	-29.9	-29.8	15.6	2.10e-03	0	57	0	29309796352	30	14993
2026-01-29 20:49:13.39	321.69	9.79	-30.0	-29.9	15.6	2.15e-03	0	58	0	29418848256	30	15247
2026-01-29 20:49:14.40	321.87	9.72	-29.9	-29.8	15.6	2.15e-03	0	57	0	29536288768	30	15001
2026-01-29 20:49:15.40	322.05	9.64	-30.1	-30.0	15.6	2.15e-03	0	57	0	29645340672	30	15356
2026-01-29 20:49:16.41	322.23	9.57	-30.1	-30.0	15.5	2.15e-03	0	57	0	29762781184	30	15406
2026-01-29 20:49:17.40	322.40	9.50	-30.0	-29.9	15.5	2.37e-03	0	57	0	29871833088	30	15249
2026-01-29 20:49:18.41	322.57	9.43	-30.0	-30.0	15.5	2.37e-03	0	57	0	29980884992	30	15309
2026-01-29 20:49:19.41	322.75	9.35	-30.1	-30.0	15.5	2.68e-03	0	57	0	30098325504	30	15363
2026-01-29 20:49:20.42	322.92	9.28	-30.1	-30.0	15.5	2.68e-03	0	58	0	30207377408	30	15473
2026-01-29 20:49:21.42	323.09	9.21	-30.1	-30.0	15.5	2.68e-03	0	58	0	30324817920	31	14554
2026-01-29 20:49:22.43	323.26	9.13	-30.1	-30.0	15.5	3.03e-03	0	57	0	30433869824	31	14590
2026-01-29 20:49:23.43	323.43	9.06	-30.1	-30.0	15.4	3.03e-03	0	57	0	30542921728	31	14602
2026-01-29 20:49:24.44	323.60	8.99	-30.3	-30.2	15.4	2.86e-03	0	57	0	30660362240	31	14855
2026-01-29 20:49:25.45	323.77	8.92	-30.4	-30.3	15.4	2.86e-03	0	57	0	30769414144	31	14971
2026-01-29 20:49:26.45	323.93	8.85	-30.3	-30.2	15.4	2.86e-03	0	58	0	30895243264	31	14936
2026-01-29 20:49:27.46	324.10	8.77	-30.7	-30.6	15.2	3.56e-03	0	57	0	31004295168	31	15507
2026-01-29 20:49:28.47	324.27	8.70	-30.5	-30.4	15.2	3.56e-03	0	58	0	31121735680	32	14314
2026-01-29 20:49:29.48	324.43	8.63	-30.5	-30.4	15.2	3.56e-03	0	58	0	31230787584	32	14427
2026-01-29 20:49:30.48	324.59	8.56	-30.5	-30.4	15.2	4.27e-03	0	57	0	31348228096	32	14350
2026-01-29 20:49:31.48	324.75	8.49	-30.4	-30.3	15.3	4.27e-03	0	58	0	31457280000	32	14223
2026-01-29 20:49:32.49	324.92	8.41	-30.6	-30.5	15.2	4.27e-03	0	58	0	31566331904	32	14589
2026-01-29 20:49:33.50	325.08	8.34	-30.7	-30.6	15.1	4.27e-03	0	57	0	31683772416	32	14722
2026-01-29 20:49:34.50	325.23	8.27	-30.3	-30.2	15.3	4.55e-03	0	57	0	31792824320	32	14079
2026-01-29 20:49:35.50	325.39	8.20	-30.5	-30.4	15.2	4.55e-03	0	57	0	31910264832	32	14416
2026-01-29 20:49:36.51	325.55	8.13	-30.3	-30.2	15.3	4.55e-03	0	57	0	32019316736	32	14027
2026-01-29 20:49:37.51	325.70	8.06	-30.3	-30.2	15.3	4.22e-03	0	58	0	32128368640	32	14062
2026-01-29 20:49:38.52	325.86	7.99	-30.4	-30.3	15.2	4.22e-03	0	58	0	32245809152	32	14242
2026-01-29 20:49:39.53	326.02	7.91	-30.5	-30.4	15.2	4.22e-03	0	58	0	32354861056	32	14376
2026-01-29 20:49:40.54	326.17	7.84	-30.6	-30.5	15.2	4.22e-03	0	57	0	32472301568	32	14522
2026-01-29 20:49:41.54	326.32	7.77	-30.2	-30.2	15.3	4.22e-03	0	57	0	32581353472	32	13954
2026-01-29 20:49:42.55	326.47	7.70	-30.3	-30.2	15.3	4.55e-03	0	57	0	32707182592	32	14105
2026-01-29 20:49:43.56	326.62	7.63	-30.4	-30.3	15.2	4.55e-03	0	58	0	32816234496	32	14167
2026-01-29 20:49:44.57	326.78	7.56	-30.6	-30.5	15.2	4.55e-03	0	58	0	32933675008	32	14524
2026-01-29 20:49:45.57	326.92	7.49	-30.5	-30.4	15.2	4.55e-03	0	58	0	33042726912	32	14427
2026-01-29 20:49:46.57	327.07	7.42	-30.6	-30.5	15.2	4.95e-03	0	58	0	33160167424	32	14545
2026-01-29 20:49:47.58	327.22	7.35	-30.7	-30.6	15.1	4.95e-03	0	57	0	33269219328	32	14612
2026-01-29 20:49:48.58	327.36	7.28	-30.7	-30.6	15.1	4.95e-03	0	58	0	33378271232	32	14638
2026-01-29 20:49:49.59	327.51	7.21	-30.7	-30.5	15.1	5.32e-03	0	57	0	33495711744	32	14601
2026-01-29 20:49:50.59	327.66	7.14	-30.7	-30.6	15.1	5.32e-03	0	58	0	33604763648	32	14694
2026-01-29 20:49:51.59	327.80	7.07	-30.5	-30.4	15.2	5.41e-03	0	58	0	33722204160	32	14367
2026-01-29 20:49:52.59	327.94	7.00	-30.4	-30.3	15.2	5.41e-03	0	57	0	33831256064	32	14217
2026-01-29 20:49:53.60	328.08	6.94	-30.5	-30.4	15.2	5.41e-03	0	58	0	33940307968	32	14394
2026-01-29 20:49:54.60	328.22	6.87	-30.4	-30.3	15.2	5.43e-03	0	58	0	34057748480	32	14225
2026-01-29 20:49:55.61	328.37	6.80	-30.5	-30.4	15.2	5.43e-03	0	57	0	34166800384	32	14306
2026-01-29 20:49:56.62	328.51	6.73	-30.5	-30.4	15.2	5.56e-03	0	58	0	34284240896	32	14370
2026-01-29 20:49:57.63	328.65	6.66	-30.4	-30.3	15.3	5.56e-03	0	58	0	34393292800	31	15038
2026-01-29 20:49:58.63	328.78	6.59	-30.4	-30.4	15.2	5.56e-03	0	58	0	34502344704	32	14295
2026-01-29 20:49:59.63	328.92	6.52	-30.3	-30.2	15.2	5.56e-03	0	57	0	34619785216	32	14014
2026-01-29 20:50:00.64	329.06	6.45	-30.3	-30.2	15.2	5.94e-03	0	57	0	34728837120	31	14946
2026-01-29 20:50:01.64	329.19	6.39	-30.4	-30.3	15.2	5.94e-03	0	58	0	34846277632	32	14182
2026-01-29 20:50:02.65	329.33	6.32	-30.3	-30.2	15.2	5.94e-03	0	57	0	34963718144	32	14057
2026-01-29 20:50:03.66	329.46	6.25	-30.4	-30.3	15.1	6.04e-03	0	57	0	35081158656	32	14231
2026-01-29 20:50:04.66	329.60	6.18	-30.3	-30.3	15.2	6.04e-03	0	58	0	35190210560	32	14115
2026-01-29 20:50:05.67	329.73	6.11	-30.4	-30.3	15.1	6.04e-03	0	57	0	35307651072	32	14242
2026-01-29 20:50:06.67	329.86	6.05	-30.5	-30.4	15.1	6.04e-03	0	58	0	35416702976	32	14313
2026-01-29 20:50:07.68	329.99	5.98	-30.5	-30.4	15.1	7.00e-03	0	57	0	35525754880	32	14355
2026-01-29 20:50:08.69	330.13	5.91	-30.6	-30.5	15.0	7.00e-03	0	58	0	35643195392	32	14579
2026-01-29 20:50:09.70	330.26	5.84	-30.3	-30.2	15.2	7.00e-03	0	58	0	35752247296	32	14071
2026-01-29 20:50:10.70	330.39	5.78	-30.4	-30.3	15.1	6.84e-03	0	58	0	35869687808	32	14134
2026-01-29 20:50:11.71	330.51	5.71	-30.3	-30.2	15.1	6.84e-03	0	58	0	35978739712	32	14041
2026-01-29 20:50:12.71	330.64	5.64	-30.4	-30.3	15.1	6.84e-03	0	58	0	36096180224	32	14207
2026-01-29 20:50:13.72	330.77	5.58	-30.6	-30.5	15.0	6.84e-03	0	58	0	36205232128	32	14477
2026-01-29 20:50:14.72	330.90	5.51	-30.6	-30.5	15.0	8.04e-03	0	58	0	36314284032	32	14554
2026-01-29 20:50:15.72	331.02	5.44	-30.7	-30.6	14.9	8.04e-03	0	58	0	36431724544	32	14757
2026-01-29 20:50:16.73	331.15	5.38	-30.9	-30.8	14.8	8.62e-03	0	58	0	36540776448	32	14992
2026-01-29 20:50:17.73	331.27	5.31	-30.9	-30.8	14.8	8.62e-03	0	58	0	36658216960	32	15060
2026-01-29 20:50:18.74	331.39	5.25	-30.7	-30.7	14.9	8.62e-03	0	58	0	36767268864	32	14809
2026-01-29 20:50:19.74	331.52	5.18	-30.9	-30.8	14.8	1.21e-02	0	58	0	36876320768	32	15104
2026-01-29 20:50:20.74	331.64	5.11	-30.9	-30.9	14.8	1.21e-02	0	57	0	36993761280	33	14279
2026-01-29 20:50:21.75	331.76	5.05	-30.8	-30.7	14.9	1.21e-02	0	58	0	37119590400	33	14039
2026-01-29 20:50:22.76	331.88	4.98	-50.5	-51.8	6.5	1.43e-02	0	57	104	37220253696	72	16851
2026-01-29 20:50:23.77	332.00	4.92	-52.8	-55.0	6.2	1.43e-02	0	57	104	37220253696	76	19474
2026-01-29 20:50:24.77	332.12	4.85	-53.2	-55.4	6.2	1.43e-02	0	57	104	37220253696	76	20238
2026-01-29 20:50:25.78	332.24	4.79	-53.4	-55.5	6.2	1.43e-02	0	57	104	37220253696	77	19459
2026-01-29 20:50:26.79	332.36	4.72	-53.5	-55.7	6.2	1.43e-02	0	56	104	37220253696	77	19771
2026-01-29 20:50:27.79	332.48	4.66	-53.7	-55.8	6.2	1.43e-02	0	56	104	37220253696	77	20015
2026-01-29 20:50:28.81	332.60	4.59	-53.8	-55.9	6.2	1.43e-02	0	56	104	37220253696	78	19116
2026-01-29 20:50:29.81	332.71	4.53	-53.8	-56.0	6.2	1.43e-02	0	56	104	37220253696	78	19272
2026-01-29 20:50:30.82	332.83	4.46	-53.8	-55.9	6.2	1.43e-02	0	56	104	37220253696	78	19253
2026-01-29 20:50:31.82	332.94	4.40	-53.8	-55.9	6.2	1.43e-02	0	56	104	37220253696	78	19179
2026-01-29 20:50:32.83	333.06	4.33	-53.7	-55.8	6.2	5.26e-03	0	56	104	37220253696	78	18958
2026-01-29 20:50:33.83	333.17	4.27	-53.5	-55.7	6.2	5.26e-03	0	56	104	37220253696	78	18698
2026-01-29 20:50:34.84	333.29	4.20	-53.5	-55.7	6.2	5.26e-03	0	56	104	37220253696	78	18637
2026-01-29 20:50:35.85	333.40	4.14	-53.6	-55.7	6.2	5.26e-03	0	56	104	37220253696	78	18778
2026-01-29 20:50:36.86	333.51	4.08	-53.6	-55.8	6.2	5.26e-03	0	56	104	37220253696	78	18930
2026-01-29 20:50:37.86	333.63	4.01	-53.7	-55.8	6.2	5.26e-03	0	56	104	37220253696	78	18956
2026-01-29 20:50:38.87	333.74	3.95	-53.7	-55.9	6.2	5.26e-03	0	56	104	37220253696	78	19050
2026-01-29 20:50:39.88	333.85	3.89	-53.8	-55.9	6.2	5.26e-03	0	56	104	37220253696	78	19159
2026-01-29 20:50:40.89	333.96	3.82	-53.8	-55.9	6.2	5.26e-03	0	56	104	37220253696	78	19146
2026-01-29 20:50:41.89	334.07	3.76	-53.8	-56.0	6.2	5.26e-03	0	56	104	37220253696	78	19311
2026-01-29 20:50:42.90	334.18	3.70	-53.8	-56.0	6.2	5.26e-03	0	56	104	37220253696	78	19264
2026-01-29 20:50:43.90	334.28	3.63	-53.8	-56.0	6.2	5.26e-03	0	56	104	37220253696	78	19284
2026-01-29 20:50:44.91	334.39	3.57	-53.8	-55.9	6.2	5.26e-03	0	56	104	37220253696	78	19153
2026-01-29 20:50:45.92	334.50	3.51	-53.7	-55.9	6.2	5.26e-03	0	56	104	37220253696	78	19073
2026-01-29 20:50:46.92	334.61	3.44	-53.7	-55.9	6.2	5.26e-03	0	56	104	37220253696	78	19076
2026-01-29 20:50:47.93	334.71	3.38	-53.7	-55.8	6.2	5.26e-03	0	56	104	37220253696	78	19010
2026-01-29 20:50:48.93	334.82	3.32	-53.7	-55.8	6.2	5.26e-03	0	56	104	37220253696	78	18965
2026-01-29 20:50:49.94	334.92	3.26	-53.7	-55.8	6.2	5.26e-03	0	55	104	37220253696	78	18940
2026-01-29 20:50:50.95	335.03	3.19	-53.7	-55.8	6.2	0.00e+00	0	55	104	37220253696	78	18917
2026-01-29 20:50:51.96	335.13	3.13	-53.7	-55.8	6.2	0.00e+00	0	55	104	37220253696	78	18856
2026-01-29 20:50:52.96	335.24	3.07	-53.7	-55.8	6.2	0.00e+00	0	55	104	37220253696	78	18827
2026-01-29 20:50:53.97	335.34	3.01	-53.6	-55.8	6.2	0.00e+00	0	55	104	37220253696	78	18863
2026-01-29 20:50:54.98	335.44	2.95	-53.6	-55.7	6.2	0.00e+00	0	55	104	37220253696	78	18814
2026-01-29 20:50:55.99	335.54	2.89	-53.6	-55.8	6.2	0.00e+00	0	56	104	37220253696	78	18842
2026-01-29 20:50:57.00	335.65	2.82	-53.6	-55.8	6.2	0.00e+00	0	55	104	37220253696	78	18856
2026-01-29 20:50:58.00	335.75	2.76	-53.6	-55.8	6.2	0.00e+00	0	55	104	37220253696	78	18876
2026-01-29 20:50:59.01	335.85	2.70	-53.6	-55.7	6.2	0.00e+00	0	55	104	37220253696	78	18791
2026-01-29 20:51:00.01	335.95	2.64	-53.6	-55.7	6.2	0.00e+00	0	55	104	37220253696	78	18780
2026-01-29 20:51:01.02	336.05	2.58	-53.6	-55.7	6.2	0.00e+00	0	55	104	37220253696	78	18717
2026-01-29 20:51:02.03	336.15	2.52	-53.6	-55.7	6.2	0.00e+00	0	55	104	37220253696	78	18733
2026-01-29 20:51:03.03	336.24	2.46	-53.6	-55.7	6.2	0.00e+00	0	55	104	37220253696	78	18722
2026-01-29 20:51:04.04	336.34	2.40	-53.6	-55.7	6.2	0.00e+00	0	55	104	37220253696	78	18759
2026-01-29 20:51:05.04	336.44	2.34	-53.6	-55.7	6.2	0.00e+00	0	55	104	37220253696	78	18701
2026-01-29 20:51:06.04	336.53	2.28	-53.6	-55.7	6.2	0.00e+00	0	55	104	37220253696	78	18701
2026-01-29 20:51:07.05	336.63	2.22	-53.6	-55.7	6.2	0.00e+00	0	55	104	37220253696	78	18731
2026-01-29 20:51:08.06	336.73	2.16	-53.6	-55.7	6.2	0.00e+00	0	55	104	37220253696	78	18690
2026-01-29 20:51:09.07	336.82	2.10	-53.5	-55.7	6.2	0.00e+00	0	55	104	37220253696	78	18631
2026-01-29 20:51:10.07	336.92	2.04	-53.6	-55.7	6.2	0.00e+00	0	55	104	37220253696	78	18659
2026-01-29 20:51:11.08	337.01	1.98	-53.5	-55.7	6.2	0.00e+00	0	55	104	37220253696	78	18612
2026-01-29 20:51:12.09	337.11	1.92	-53.5	-55.7	6.2	0.00e+00	0	55	104	37220253696	78	18615

#Closed at: 2026-01-29 20:51:12
#Recorded file [37220 MB]: D:/lorett/data/31041_260129_234144.dat