passes_logs/2026/01/29/R3.2S_Murmansk/R3.2S_Murmansk__20260129_034942_NOAA_20_JPSS-1_rec.log

#Pass ID: 20260129_034942_NOAA 20 (JPSS-1)
#Satellite: NOAA 20 (JPSS-1)
#Configuration: NOAA 20
#almurnet v.1.7.20251203
#Start time: 2026-01-29 03:49:42

#Version: 2.2.20231116
#Station: R3.2S_Murmansk
#Location: 33.079688 lon 68.888172 lat
#TLE: 1 43013U 17073A   26027.94683596  .00000137  00000+0  85741-4 0  9995
#TLE: 2 43013  98.7648 328.7503 0000940  21.3928 338.7287 14.19541154424576

#Time	Az	El	Level	Level2	SNR	BER	BlckErr	Temp	State	Recorded	gain1	gain2
2026-01-29 03:49:42.31	45.25	1.99	-54.0	-69.0	3.8	1.49e+00	0	40	0	0	79	20321
2026-01-29 03:49:43.31	45.20	2.05	-54.0	-69.0	3.8	1.49e+00	0	40	104	0	78	21586
2026-01-29 03:49:44.32	45.14	2.11	-53.9	-69.0	3.8	1.49e+00	0	40	104	0	78	21592
2026-01-29 03:49:45.33	45.08	2.16	-53.9	-68.9	3.8	1.49e+00	0	40	104	0	78	21502
2026-01-29 03:49:46.33	45.02	2.22	-53.9	-68.9	3.8	1.49e+00	0	40	104	0	78	21469
2026-01-29 03:49:47.34	44.96	2.28	-53.9	-68.9	3.8	1.49e+00	0	40	104	0	78	21480
2026-01-29 03:49:48.35	44.91	2.34	-53.9	-68.9	3.8	1.49e+00	0	40	104	0	78	21411
2026-01-29 03:49:49.36	44.85	2.40	-53.9	-68.9	3.8	1.49e+00	0	40	104	0	78	21399
2026-01-29 03:49:50.36	44.79	2.46	-53.9	-68.9	3.8	1.49e+00	0	40	104	0	78	21392
2026-01-29 03:49:51.37	44.73	2.52	-53.9	-68.9	3.8	1.49e+00	0	40	104	0	78	21444
2026-01-29 03:49:52.38	44.67	2.58	-54.1	-69.1	3.8	1.49e+00	0	40	104	0	78	21934
2026-01-29 03:49:53.39	44.61	2.64	-54.2	-69.2	3.8	1.49e+00	0	40	104	0	78	22099
2026-01-29 03:49:54.40	44.55	2.70	-54.2	-69.2	3.8	1.49e+00	0	40	104	0	78	22215
2026-01-29 03:49:55.40	44.49	2.76	-54.3	-69.3	3.8	1.49e+00	0	40	104	0	79	21101
2026-01-29 03:49:56.42	44.43	2.82	-54.2	-69.2	3.8	1.49e+00	0	40	104	0	79	20971
2026-01-29 03:49:57.43	44.36	2.88	-54.2	-69.2	3.8	1.49e+00	0	40	104	0	79	20883
2026-01-29 03:49:58.43	44.30	2.94	-54.1	-69.1	3.8	1.49e+00	0	40	104	0	79	20667
2026-01-29 03:49:59.44	44.24	3.00	-54.1	-69.1	3.8	1.49e+00	0	40	104	0	79	20608
2026-01-29 03:50:00.45	44.18	3.06	-54.0	-69.0	3.8	1.49e+00	0	40	104	0	79	20503
2026-01-29 03:50:01.46	44.12	3.12	-54.0	-69.0	3.8	1.49e+00	0	40	104	0	79	20441
2026-01-29 03:50:02.47	44.05	3.18	-54.0	-69.0	3.8	1.49e+00	0	40	104	0	79	20490
2026-01-29 03:50:03.48	43.99	3.24	-54.0	-69.0	3.8	1.49e+00	0	40	104	0	79	20472
2026-01-29 03:50:04.49	43.93	3.30	-54.0	-69.0	3.8	1.49e+00	0	40	104	0	79	20482
2026-01-29 03:50:05.49	43.87	3.36	-53.9	-68.9	3.8	1.49e+00	0	40	104	0	79	20288
2026-01-29 03:50:06.50	43.80	3.42	-53.9	-68.8	3.8	1.49e+00	0	40	104	0	79	19989
2026-01-29 03:50:07.51	43.74	3.48	-53.7	-68.7	3.8	1.49e+00	0	40	104	0	79	19757
2026-01-29 03:50:08.52	43.67	3.54	-53.6	-68.6	3.8	1.49e+00	0	40	104	0	79	19501
2026-01-29 03:50:09.53	43.61	3.60	-53.4	-68.4	3.8	1.49e+00	0	41	104	0	78	20266
2026-01-29 03:50:10.54	43.54	3.66	-53.3	-68.3	3.8	1.49e+00	0	41	104	0	78	19868
2026-01-29 03:50:11.55	43.48	3.73	-53.1	-67.9	3.8	1.49e+00	0	40	104	0	78	19155
2026-01-29 03:50:12.56	43.41	3.79	-52.8	-67.7	3.8	1.49e+00	0	41	104	0	77	19793
2026-01-29 03:50:13.57	43.35	3.85	-52.3	-67.2	3.8	1.49e+00	0	41	104	0	76	19642
2026-01-29 03:50:14.57	43.28	3.91	-51.9	-66.8	3.8	1.49e+00	0	41	104	0	75	19921
2026-01-29 03:50:15.58	43.22	3.97	-51.9	-66.8	3.8	1.49e+00	0	41	104	0	75	19928
2026-01-29 03:50:16.59	43.15	4.03	-51.9	-66.8	3.8	1.49e+00	0	41	104	0	75	20005
2026-01-29 03:50:17.60	43.08	4.09	-51.9	-66.8	3.8	1.49e+00	0	41	104	0	75	19927
2026-01-29 03:50:18.61	43.02	4.16	-51.9	-66.7	3.8	1.49e+00	0	41	104	0	75	19741
2026-01-29 03:50:19.62	42.95	4.22	-51.8	-66.3	3.8	1.49e+00	0	41	104	0	75	18867
2026-01-29 03:50:20.62	42.88	4.28	-51.8	-65.6	3.8	1.49e+00	0	41	104	0	75	17404
2026-01-29 03:50:21.63	42.81	4.34	-51.7	-64.8	3.8	1.49e+00	0	41	104	0	75	15836
2026-01-29 03:50:22.64	42.74	4.41	-51.7	-63.5	4.1	1.48e+00	0	41	104	0	75	13582
2026-01-29 03:50:23.64	42.68	4.47	-51.6	-62.7	4.4	1.34e+00	134	41	0	0	75	12489
2026-01-29 03:50:24.65	42.61	4.53	-51.6	-62.2	4.5	1.15e+00	0	41	0	1048576	75	11731
2026-01-29 03:50:25.66	42.54	4.59	-51.5	-61.9	4.7	9.48e-01	0	41	0	3145728	75	11348
2026-01-29 03:50:26.67	42.47	4.66	-51.5	-62.1	4.6	9.06e-01	0	41	0	5242880	75	11573
2026-01-29 03:50:27.67	42.40	4.72	-51.6	-62.4	4.5	1.00e+00	23	41	0	7340032	75	11956
2026-01-29 03:50:28.68	42.33	4.78	-51.6	-62.9	4.3	1.29e+00	0	41	0	8388608	75	12785
2026-01-29 03:50:29.69	42.26	4.84	-51.7	-64.2	3.8	1.43e+00	0	41	104	8388608	75	14715
2026-01-29 03:50:30.70	42.19	4.91	-51.7	-64.9	3.8	1.49e+00	0	41	104	8388608	75	16052
2026-01-29 03:50:31.71	42.12	4.97	-51.8	-65.3	3.8	1.49e+00	0	41	104	8388608	75	16810
2026-01-29 03:50:32.71	42.04	5.03	-51.7	-65.0	3.8	1.49e+00	0	41	104	8388608	75	16216
2026-01-29 03:50:33.72	41.97	5.10	-51.7	-64.7	3.8	1.49e+00	0	41	104	8388608	75	15693
2026-01-29 03:50:34.73	41.90	5.16	-51.7	-63.5	3.9	1.49e+00	0	41	104	8388608	75	13628
2026-01-29 03:50:35.73	41.83	5.22	-51.6	-62.5	4.4	1.44e+00	50	41	104	8388608	75	12116
2026-01-29 03:50:36.74	41.76	5.29	-49.1	-52.6	13.0	1.19e-01	0	41	0	9437184	70	5198
2026-01-29 03:50:37.75	41.68	5.35	-51.7	-66.4	3.8	1.30e-01	0	41	104	10485760	74	20189
2026-01-29 03:50:38.75	41.61	5.42	-49.9	-54.3	5.5	1.49e+00	0	41	104	10485760	71	5968
2026-01-29 03:50:39.76	41.54	5.48	-48.7	-51.9	14.0	3.80e-06	0	41	0	10485760	69	5055
2026-01-29 03:50:40.77	41.46	5.54	-48.7	-51.8	14.1	2.20e-06	0	41	0	12582912	69	5037
2026-01-29 03:50:41.77	41.39	5.61	-48.7	-51.9	14.0	2.20e-06	0	41	0	14680064	69	5059
2026-01-29 03:50:42.78	41.31	5.67	-48.6	-51.7	14.2	1.50e-06	0	41	0	16777216	69	4956
2026-01-29 03:50:43.79	41.24	5.74	-48.7	-51.8	14.1	7.00e-07	0	41	0	18874368	69	5004
2026-01-29 03:50:44.79	41.16	5.80	-48.5	-51.4	14.5	7.00e-07	0	41	0	19922944	68	5056
2026-01-29 03:50:45.79	41.09	5.87	-48.2	-50.9	15.1	0.00e+00	0	41	0	22020096	68	4792
2026-01-29 03:50:46.80	41.01	5.93	-48.4	-51.2	14.8	7.00e-07	0	41	0	24117248	68	4959
2026-01-29 03:50:47.81	40.93	6.00	-48.0	-50.6	15.5	7.00e-07	0	41	0	26214400	68	4608
2026-01-29 03:50:48.81	40.86	6.06	-47.8	-50.3	15.7	0.00e+00	0	41	0	28311552	67	4732
2026-01-29 03:50:49.82	40.78	6.13	-47.6	-50.0	16.0	0.00e+00	0	41	0	30408704	67	4593
2026-01-29 03:50:50.82	40.70	6.19	-47.7	-50.1	15.9	0.00e+00	0	41	0	31457280	67	4601
2026-01-29 03:50:51.83	40.63	6.26	-47.7	-50.1	15.9	0.00e+00	0	41	0	33554432	67	4638
2026-01-29 03:50:52.83	40.55	6.32	-47.6	-49.9	16.1	0.00e+00	0	41	0	35651584	67	4516
2026-01-29 03:50:53.84	40.47	6.39	-47.7	-50.1	15.9	0.00e+00	0	41	0	37748736	67	4645
2026-01-29 03:50:54.85	40.39	6.45	-47.7	-50.1	15.9	0.00e+00	0	41	0	38797312	67	4640
2026-01-29 03:50:55.85	40.31	6.52	-47.5	-49.8	16.2	0.00e+00	0	41	0	40894464	66	4729
2026-01-29 03:50:56.86	40.23	6.59	-47.6	-49.9	16.2	0.00e+00	0	41	0	42991616	66	4768
2026-01-29 03:50:57.87	40.15	6.65	-47.6	-49.9	16.1	0.00e+00	0	41	0	45088768	66	4809
2026-01-29 03:50:58.88	40.07	6.72	-47.6	-49.9	16.1	0.00e+00	0	41	0	47185920	66	4788
2026-01-29 03:50:59.88	39.99	6.78	-47.6	-49.9	16.2	0.00e+00	0	41	0	48234496	66	4794
2026-01-29 03:51:00.89	39.91	6.85	-47.5	-49.8	16.3	0.00e+00	0	41	0	50331648	66	4743
2026-01-29 03:51:01.89	39.83	6.92	-47.5	-49.8	16.3	0.00e+00	0	41	0	52428800	66	4723
2026-01-29 03:51:02.90	39.74	6.98	-47.4	-49.6	16.5	0.00e+00	0	41	0	54525952	66	4633
2026-01-29 03:51:03.91	39.66	7.05	-47.3	-49.5	16.6	0.00e+00	0	41	0	56623104	66	4586
2026-01-29 03:51:04.91	39.58	7.12	-47.4	-49.6	16.5	0.00e+00	0	41	0	58720256	66	4641
2026-01-29 03:51:05.92	39.50	7.18	-47.4	-49.6	16.5	0.00e+00	0	41	0	59768832	66	4615
2026-01-29 03:51:06.93	39.41	7.25	-47.5	-49.7	16.4	0.00e+00	0	41	0	61865984	66	4693
2026-01-29 03:51:07.94	39.33	7.32	-47.3	-49.4	16.7	0.00e+00	0	41	0	63963136	66	4520
2026-01-29 03:51:08.95	39.24	7.39	-47.3	-49.4	16.7	0.00e+00	0	41	0	66060288	66	4527
2026-01-29 03:51:09.95	39.16	7.45	-47.5	-49.7	16.5	0.00e+00	0	41	0	67108864	66	4665
2026-01-29 03:51:10.96	39.07	7.52	-47.6	-49.9	16.3	0.00e+00	0	41	0	69206016	66	4784
2026-01-29 03:51:11.97	38.99	7.59	-47.3	-49.5	16.7	0.00e+00	0	42	0	71303168	66	4559
2026-01-29 03:51:12.97	38.90	7.66	-47.3	-49.4	16.8	0.00e+00	0	41	0	73400320	66	4507
2026-01-29 03:51:13.98	38.82	7.72	-47.3	-49.4	16.8	0.00e+00	0	41	0	75497472	66	4506
2026-01-29 03:51:14.99	38.73	7.79	-47.3	-49.4	16.8	0.00e+00	0	41	0	76546048	66	4537
2026-01-29 03:51:15.99	38.64	7.86	-47.4	-49.6	16.7	0.00e+00	0	42	0	78643200	66	4623
2026-01-29 03:51:17.00	38.55	7.93	-47.2	-49.3	16.9	0.00e+00	0	41	0	80740352	66	4485
2026-01-29 03:51:18.01	38.46	8.00	-47.3	-49.5	16.7	0.00e+00	0	42	0	82837504	66	4559
2026-01-29 03:51:19.01	38.38	8.07	-47.2	-49.3	17.0	0.00e+00	0	42	0	84934656	66	4468
2026-01-29 03:51:20.02	38.29	8.13	-47.2	-49.3	16.9	0.00e+00	0	41	0	87031808	66	4474
2026-01-29 03:51:21.03	38.20	8.20	-47.4	-49.5	16.7	0.00e+00	0	41	0	88080384	66	4559
2026-01-29 03:51:22.04	38.11	8.27	-47.3	-49.5	16.8	0.00e+00	0	41	0	90177536	66	4548
2026-01-29 03:51:23.04	38.02	8.34	-47.3	-49.5	16.8	0.00e+00	0	41	0	92274688	66	4546
2026-01-29 03:51:24.05	37.93	8.41	-47.3	-49.4	16.9	0.00e+00	0	41	0	94371840	66	4524
2026-01-29 03:51:25.06	37.83	8.48	-47.3	-49.5	16.8	0.00e+00	0	41	0	95420416	66	4550
2026-01-29 03:51:26.07	37.74	8.55	-47.4	-49.5	16.8	0.00e+00	0	42	0	97517568	66	4560
2026-01-29 03:51:27.07	37.65	8.62	-47.4	-49.5	16.8	0.00e+00	0	42	0	99614720	66	4591
2026-01-29 03:51:28.08	37.56	8.69	-47.3	-49.4	16.9	0.00e+00	0	41	0	101711872	66	4543
2026-01-29 03:51:29.09	37.46	8.76	-47.4	-49.5	16.8	0.00e+00	0	41	0	103809024	66	4568
2026-01-29 03:51:30.10	37.37	8.83	-47.3	-49.4	16.9	0.00e+00	0	42	0	104857600	66	4505
2026-01-29 03:51:31.11	37.28	8.90	-47.3	-49.4	16.9	0.00e+00	0	42	0	106954752	66	4533
2026-01-29 03:51:32.11	37.18	8.97	-47.4	-49.6	16.8	0.00e+00	0	41	0	109051904	66	4611
2026-01-29 03:51:33.12	37.09	9.04	-47.4	-49.5	16.9	0.00e+00	0	42	0	111149056	66	4551
2026-01-29 03:51:34.13	36.99	9.11	-47.3	-49.4	16.9	0.00e+00	0	42	0	113246208	66	4536
2026-01-29 03:51:35.13	36.90	9.18	-47.4	-49.6	16.8	0.00e+00	0	41	0	115343360	66	4602
2026-01-29 03:51:36.14	36.80	9.25	-47.3	-49.4	16.9	0.00e+00	0	42	0	116391936	66	4530
2026-01-29 03:51:37.15	36.70	9.32	-47.3	-49.3	17.1	0.00e+00	0	42	0	118489088	66	4486
2026-01-29 03:51:38.16	36.60	9.39	-47.2	-49.3	17.1	0.00e+00	0	42	0	120586240	66	4453
2026-01-29 03:51:39.17	36.51	9.46	-47.3	-49.4	17.0	0.00e+00	0	41	0	122683392	66	4494
2026-01-29 03:51:40.17	36.41	9.53	-47.3	-49.3	17.1	0.00e+00	0	41	0	123731968	66	4462
2026-01-29 03:51:41.18	36.31	9.61	-47.3	-49.4	17.0	0.00e+00	0	42	0	125829120	66	4519
2026-01-29 03:51:42.18	36.21	9.68	-47.3	-49.4	17.1	0.00e+00	0	42	0	127926272	66	4504
2026-01-29 03:51:43.19	36.11	9.75	-47.5	-49.6	16.9	0.00e+00	0	42	0	130023424	66	4622
2026-01-29 03:51:44.19	36.01	9.82	-47.4	-49.5	17.0	0.00e+00	0	42	0	132120576	66	4554
2026-01-29 03:51:45.20	35.91	9.89	-47.2	-49.3	17.2	0.00e+00	0	42	0	133169152	66	4444
2026-01-29 03:51:46.21	35.81	9.96	-47.1	-49.1	17.3	0.00e+00	0	41	0	135266304	66	4366
2026-01-29 03:51:47.22	35.71	10.03	-47.2	-49.2	17.2	0.00e+00	0	42	0	137363456	66	4424
2026-01-29 03:51:48.22	35.60	10.11	-47.3	-49.4	17.1	0.00e+00	0	42	0	139460608	66	4502
2026-01-29 03:51:49.23	35.50	10.18	-47.2	-49.2	17.3	0.00e+00	0	42	0	141557760	66	4397
2026-01-29 03:51:50.24	35.40	10.25	-47.2	-49.2	17.2	0.00e+00	0	42	0	143654912	66	4430
2026-01-29 03:51:51.25	35.29	10.32	-47.3	-49.3	17.2	0.00e+00	0	42	0	144703488	66	4458
2026-01-29 03:51:52.25	35.19	10.40	-47.3	-49.3	17.2	0.00e+00	0	42	0	146800640	66	4458
2026-01-29 03:51:53.26	35.08	10.47	-47.3	-49.3	17.1	0.00e+00	0	42	0	148897792	66	4485
2026-01-29 03:51:54.27	34.98	10.54	-47.2	-49.2	17.2	0.00e+00	0	42	0	150994944	66	4420
2026-01-29 03:51:55.28	34.87	10.61	-47.2	-49.2	17.2	0.00e+00	0	42	0	152043520	66	4429
2026-01-29 03:51:56.29	34.76	10.69	-47.3	-49.3	17.2	0.00e+00	0	42	0	154140672	66	4461
2026-01-29 03:51:57.30	34.66	10.76	-47.2	-49.1	17.3	0.00e+00	0	41	0	156237824	66	4384
2026-01-29 03:51:58.30	34.55	10.83	-47.2	-49.1	17.3	0.00e+00	0	42	0	158334976	66	4380
2026-01-29 03:51:59.31	34.44	10.91	-47.2	-49.2	17.3	0.00e+00	0	42	0	160432128	66	4395
2026-01-29 03:52:00.32	34.33	10.98	-47.2	-49.2	17.3	0.00e+00	0	42	0	162529280	66	4396
2026-01-29 03:52:01.32	34.22	11.05	-47.2	-49.2	17.3	0.00e+00	0	42	0	163577856	66	4395
2026-01-29 03:52:02.33	34.11	11.13	-47.1	-49.1	17.4	0.00e+00	0	42	0	165675008	66	4348
2026-01-29 03:52:03.33	34.00	11.20	-47.1	-49.0	17.5	0.00e+00	0	42	0	167772160	66	4306
2026-01-29 03:52:04.34	33.89	11.27	-47.1	-49.1	17.5	0.00e+00	0	42	0	169869312	66	4348
2026-01-29 03:52:05.35	33.78	11.35	-46.8	-48.6	17.8	0.00e+00	0	42	0	171966464	65	4386
2026-01-29 03:52:06.36	33.66	11.42	-46.9	-48.7	17.8	0.00e+00	0	42	0	173015040	65	4419
2026-01-29 03:52:07.37	33.55	11.50	-46.9	-48.7	17.8	0.00e+00	0	42	0	175112192	65	4420
2026-01-29 03:52:08.37	33.44	11.57	-46.8	-48.6	17.9	0.00e+00	0	42	0	177209344	65	4371
2026-01-29 03:52:09.38	33.32	11.65	-46.7	-48.5	18.0	0.00e+00	0	42	0	179306496	65	4318
2026-01-29 03:52:10.39	33.21	11.72	-46.6	-48.4	18.1	0.00e+00	0	42	0	180355072	65	4272
2026-01-29 03:52:11.39	33.09	11.79	-46.7	-48.5	17.9	0.00e+00	0	42	0	182452224	65	4315
2026-01-29 03:52:12.40	32.98	11.87	-46.8	-48.5	18.0	0.00e+00	0	42	0	184549376	65	4335
2026-01-29 03:52:13.41	32.86	11.94	-46.8	-48.6	17.9	0.00e+00	0	41	0	186646528	65	4390
2026-01-29 03:52:14.41	32.74	12.02	-46.8	-48.6	17.9	0.00e+00	0	42	0	188743680	65	4361
2026-01-29 03:52:15.42	32.63	12.09	-46.7	-48.4	18.1	0.00e+00	0	41	0	190840832	65	4284
2026-01-29 03:52:16.43	32.51	12.17	-46.8	-48.6	18.0	0.00e+00	0	42	0	191889408	65	4360
2026-01-29 03:52:17.43	32.39	12.24	-46.6	-48.4	18.1	0.00e+00	0	42	0	193986560	65	4267
2026-01-29 03:52:18.44	32.27	12.32	-46.7	-48.5	18.1	0.00e+00	0	42	0	196083712	65	4295
2026-01-29 03:52:19.45	32.15	12.40	-46.8	-48.6	18.0	0.00e+00	0	42	0	198180864	65	4356
2026-01-29 03:52:20.45	32.03	12.47	-46.8	-48.6	18.0	0.00e+00	0	42	0	200278016	65	4356
2026-01-29 03:52:21.46	31.91	12.55	-46.8	-48.6	18.0	0.00e+00	0	42	0	201326592	65	4353
2026-01-29 03:52:22.47	31.78	12.62	-46.8	-48.6	18.0	0.00e+00	0	42	0	203423744	65	4346
2026-01-29 03:52:23.47	31.66	12.70	-46.7	-48.5	18.1	0.00e+00	0	42	0	205520896	65	4311
2026-01-29 03:52:24.48	31.54	12.77	-46.8	-48.6	18.0	0.00e+00	0	42	0	207618048	65	4346
2026-01-29 03:52:25.49	31.41	12.85	-46.8	-48.5	18.1	0.00e+00	0	42	0	208666624	65	4334
2026-01-29 03:52:26.50	31.29	12.93	-46.8	-48.5	18.1	0.00e+00	0	42	0	210763776	65	4337
2026-01-29 03:52:27.50	31.16	13.00	-46.8	-48.6	18.0	0.00e+00	0	42	0	212860928	65	4375
2026-01-29 03:52:28.51	31.04	13.08	-46.7	-48.5	18.1	0.00e+00	0	42	0	214958080	65	4326
2026-01-29 03:52:29.52	30.91	13.16	-46.7	-48.5	18.1	0.00e+00	0	42	0	217055232	65	4296
2026-01-29 03:52:30.53	30.78	13.23	-46.6	-48.4	18.3	0.00e+00	0	42	0	219152384	65	4246
2026-01-29 03:52:31.53	30.65	13.31	-46.7	-48.5	18.1	0.00e+00	0	42	0	220200960	65	4316
2026-01-29 03:52:32.54	30.53	13.39	-46.7	-48.5	18.1	0.00e+00	0	42	0	222298112	65	4319
2026-01-29 03:52:33.55	30.40	13.46	-46.8	-48.6	18.0	0.00e+00	0	42	0	224395264	65	4374
2026-01-29 03:52:34.56	30.26	13.54	-46.9	-48.7	18.0	0.00e+00	0	41	0	226492416	65	4398
2026-01-29 03:52:35.56	30.13	13.62	-46.7	-48.4	18.3	0.00e+00	0	42	0	228589568	65	4252
2026-01-29 03:52:36.57	30.00	13.70	-46.6	-48.3	18.4	0.00e+00	0	42	0	229638144	65	4195
2026-01-29 03:52:37.57	29.87	13.77	-46.5	-48.2	18.4	0.00e+00	0	42	0	231735296	65	4181
2026-01-29 03:52:38.58	29.74	13.85	-46.5	-48.2	18.4	0.00e+00	0	42	0	233832448	65	4160
2026-01-29 03:52:39.59	29.60	13.93	-46.5	-48.2	18.4	0.00e+00	0	42	0	235929600	65	4170
2026-01-29 03:52:40.60	29.47	14.01	-46.6	-48.3	18.4	0.00e+00	0	42	0	236978176	65	4200
2026-01-29 03:52:41.61	29.33	14.08	-46.5	-48.2	18.5	0.00e+00	0	42	0	239075328	65	4157
2026-01-29 03:52:42.61	29.20	14.16	-46.5	-48.2	18.4	0.00e+00	0	42	0	241172480	64	4419
2026-01-29 03:52:43.62	29.06	14.24	-46.5	-48.1	18.5	0.00e+00	0	42	0	243269632	64	4378
2026-01-29 03:52:44.63	28.92	14.32	-46.4	-48.1	18.6	0.00e+00	0	42	0	245366784	64	4346
2026-01-29 03:52:45.64	28.78	14.39	-46.4	-48.0	18.7	0.00e+00	0	42	0	247463936	64	4318
2026-01-29 03:52:46.64	28.65	14.47	-46.3	-48.0	18.7	0.00e+00	0	42	0	248512512	64	4300
2026-01-29 03:52:47.65	28.51	14.55	-46.3	-47.9	18.7	0.00e+00	0	42	0	250609664	64	4278
2026-01-29 03:52:48.66	28.37	14.63	-46.3	-47.9	18.8	0.00e+00	0	42	0	252706816	64	4248
2026-01-29 03:52:49.67	28.22	14.71	-46.2	-47.7	18.9	0.00e+00	0	42	0	254803968	64	4182
2026-01-29 03:52:50.68	28.08	14.79	-46.1	-47.7	19.0	0.00e+00	0	42	0	256901120	64	4175
2026-01-29 03:52:51.69	27.94	14.86	-46.2	-47.8	18.9	0.00e+00	0	42	0	257949696	64	4214
2026-01-29 03:52:52.70	27.79	14.94	-46.0	-47.6	19.1	0.00e+00	0	42	0	260046848	64	4117
2026-01-29 03:52:53.71	27.65	15.02	-46.1	-47.7	19.0	0.00e+00	0	42	0	262144000	64	4150
2026-01-29 03:52:54.72	27.50	15.10	-46.2	-47.8	18.9	0.00e+00	0	42	0	264241152	64	4230
2026-01-29 03:52:55.73	27.36	15.18	-46.2	-47.8	18.9	0.00e+00	0	42	0	266338304	64	4211
2026-01-29 03:52:56.73	27.21	15.26	-46.1	-47.7	19.0	0.00e+00	0	42	0	267386880	64	4176
2026-01-29 03:52:57.74	27.06	15.34	-46.2	-47.7	19.0	0.00e+00	0	42	0	269484032	64	4192
2026-01-29 03:52:58.75	26.92	15.42	-46.2	-47.7	19.0	0.00e+00	0	42	0	271581184	64	4184
2026-01-29 03:52:59.76	26.77	15.50	-46.1	-47.7	19.0	0.00e+00	0	41	0	273678336	64	4163
2026-01-29 03:53:00.76	26.62	15.57	-46.2	-47.8	18.9	0.00e+00	0	42	0	275775488	64	4217
2026-01-29 03:53:01.77	26.47	15.65	-46.1	-47.7	19.0	0.00e+00	0	42	0	276824064	64	4177
2026-01-29 03:53:02.78	26.31	15.73	-46.2	-47.8	18.9	0.00e+00	0	42	0	278921216	64	4240
2026-01-29 03:53:03.79	26.16	15.81	-46.1	-47.7	19.0	0.00e+00	0	42	0	281018368	64	4164
2026-01-29 03:53:04.79	26.01	15.89	-46.1	-47.7	19.0	0.00e+00	0	42	0	283115520	64	4174
2026-01-29 03:53:05.80	25.86	15.97	-46.2	-47.7	19.0	0.00e+00	0	42	0	285212672	64	4180
2026-01-29 03:53:06.80	25.70	16.05	-46.1	-47.7	19.0	0.00e+00	0	42	0	286261248	64	4161
2026-01-29 03:53:07.81	25.55	16.13	-46.1	-47.6	19.1	0.00e+00	0	42	0	288358400	64	4118
2026-01-29 03:53:08.82	25.39	16.21	-46.0	-47.6	19.2	0.00e+00	0	42	0	290455552	64	4099
2026-01-29 03:53:09.82	25.23	16.29	-46.1	-47.6	19.2	0.00e+00	0	42	0	292552704	63	4364
2026-01-29 03:53:10.83	25.07	16.37	-46.1	-47.6	19.2	0.00e+00	0	42	0	294649856	63	4364
2026-01-29 03:53:11.83	24.92	16.45	-46.1	-47.6	19.2	0.00e+00	0	42	0	295698432	63	4361
2026-01-29 03:53:12.84	24.76	16.53	-46.1	-47.7	19.2	0.00e+00	0	42	0	297795584	63	4401
2026-01-29 03:53:13.85	24.59	16.61	-46.0	-47.5	19.3	0.00e+00	0	42	0	299892736	63	4321
2026-01-29 03:53:14.85	24.43	16.68	-46.1	-47.7	19.2	0.00e+00	0	42	0	301989888	63	4400
2026-01-29 03:53:15.86	24.27	16.76	-46.2	-47.7	19.1	0.00e+00	0	42	0	304087040	63	4425
2026-01-29 03:53:16.87	24.11	16.84	-46.3	-47.8	19.0	0.00e+00	0	42	0	305135616	63	4465
2026-01-29 03:53:17.88	23.94	16.92	-46.2	-47.8	19.1	0.00e+00	0	42	0	307232768	63	4442
2026-01-29 03:53:18.88	23.78	17.00	-46.3	-47.8	19.0	0.00e+00	0	42	0	309329920	63	4472
2026-01-29 03:53:19.89	23.61	17.08	-46.2	-47.8	19.1	0.00e+00	0	42	0	311427072	63	4446
2026-01-29 03:53:20.90	23.44	17.16	-46.2	-47.7	19.2	0.00e+00	0	42	0	313524224	63	4414
2026-01-29 03:53:21.91	23.28	17.24	-46.3	-47.8	19.0	0.00e+00	0	42	0	314572800	63	4482
2026-01-29 03:53:22.91	23.11	17.32	-46.3	-47.8	19.1	0.00e+00	0	42	0	316669952	63	4481
2026-01-29 03:53:23.92	22.94	17.40	-46.3	-47.8	19.0	0.00e+00	0	42	0	318767104	63	4491
2026-01-29 03:53:24.93	22.77	17.48	-46.4	-47.9	18.9	0.00e+00	0	42	0	320864256	63	4538
2026-01-29 03:53:25.94	22.60	17.56	-46.4	-48.0	18.9	0.00e+00	0	42	0	322961408	63	4579
2026-01-29 03:53:26.94	22.42	17.64	-46.4	-48.0	18.9	0.00e+00	0	42	0	324009984	63	4560
2026-01-29 03:53:27.95	22.25	17.72	-46.3	-47.9	19.0	0.00e+00	0	42	0	326107136	63	4520
2026-01-29 03:53:28.96	22.08	17.80	-46.4	-48.0	18.9	0.00e+00	0	41	0	328204288	63	4569
2026-01-29 03:53:29.97	21.90	17.88	-46.4	-48.0	18.9	0.00e+00	0	42	0	330301440	63	4584
2026-01-29 03:53:30.98	21.72	17.96	-46.4	-48.0	18.9	0.00e+00	0	42	0	332398592	63	4569
2026-01-29 03:53:31.99	21.55	18.04	-46.4	-48.0	18.9	0.00e+00	0	42	0	333447168	63	4591
2026-01-29 03:53:32.99	21.37	18.12	-46.4	-48.0	18.9	0.00e+00	0	42	0	335544320	63	4563
2026-01-29 03:53:34.00	21.19	18.20	-46.3	-47.8	19.1	0.00e+00	0	42	0	337641472	63	4475
2026-01-29 03:53:35.01	21.01	18.28	-46.3	-47.8	19.1	0.00e+00	0	42	0	339738624	63	4476
2026-01-29 03:53:36.02	20.83	18.36	-46.2	-47.8	19.1	0.00e+00	0	42	0	341835776	63	4450
2026-01-29 03:53:37.02	20.65	18.44	-46.3	-47.9	19.1	0.00e+00	0	42	0	343932928	63	4495
2026-01-29 03:53:38.03	20.46	18.52	-46.3	-47.8	19.1	0.00e+00	0	42	0	344981504	63	4471
2026-01-29 03:53:39.04	20.28	18.60	-46.4	-47.9	19.0	0.00e+00	0	42	0	347078656	63	4531
2026-01-29 03:53:40.05	20.10	18.67	-46.4	-47.9	19.0	0.00e+00	0	42	0	349175808	63	4543
2026-01-29 03:53:41.06	19.91	18.75	-46.4	-48.0	19.0	0.00e+00	0	42	0	351272960	63	4567
2026-01-29 03:53:42.07	19.72	18.83	-46.6	-48.2	18.8	0.00e+00	0	42	0	352321536	63	4663
2026-01-29 03:53:43.08	19.53	18.91	-46.6	-48.2	18.8	0.00e+00	0	42	0	354418688	63	4673
2026-01-29 03:53:44.08	19.35	18.99	-46.6	-48.2	18.8	0.00e+00	0	42	0	356515840	63	4669
2026-01-29 03:53:45.09	19.16	19.07	-46.5	-48.1	18.8	0.00e+00	0	42	0	358612992	63	4642
2026-01-29 03:53:46.10	18.96	19.15	-46.6	-48.2	18.8	0.00e+00	0	42	0	360710144	63	4680
2026-01-29 03:53:47.10	18.77	19.23	-46.6	-48.2	18.7	0.00e+00	0	42	0	361758720	63	4691
2026-01-29 03:53:48.11	18.58	19.31	-46.7	-48.3	18.7	0.00e+00	0	42	0	363855872	63	4731
2026-01-29 03:53:49.12	18.39	19.38	-46.6	-48.2	18.7	0.00e+00	0	42	0	365953024	63	4699
2026-01-29 03:53:50.13	18.19	19.46	-46.5	-48.0	18.9	0.00e+00	0	42	0	368050176	63	4591
2026-01-29 03:53:51.14	18.00	19.54	-46.3	-47.8	19.1	0.00e+00	0	42	0	370147328	63	4486
2026-01-29 03:53:52.14	17.80	19.62	-46.3	-47.9	19.2	0.00e+00	0	42	0	372244480	63	4496
2026-01-29 03:53:53.15	17.60	19.70	-46.3	-47.8	19.2	0.00e+00	0	42	0	373293056	63	4462
2026-01-29 03:53:54.16	17.40	19.78	-46.2	-47.8	19.2	0.00e+00	0	42	0	375390208	63	4444
2026-01-29 03:53:55.16	17.20	19.85	-46.2	-47.7	19.3	0.00e+00	0	42	0	377487360	63	4421
2026-01-29 03:53:56.17	17.00	19.93	-46.2	-47.7	19.3	0.00e+00	0	42	0	379584512	63	4402
2026-01-29 03:53:57.19	16.80	20.01	-46.1	-47.6	19.4	0.00e+00	0	42	0	380633088	63	4346
2026-01-29 03:53:58.19	16.60	20.09	-46.2	-47.7	19.3	0.00e+00	0	42	0	382730240	63	4401
2026-01-29 03:53:59.20	16.39	20.16	-46.2	-47.7	19.2	0.00e+00	0	42	0	384827392	63	4440
2026-01-29 03:54:00.21	16.19	20.24	-46.1	-47.6	19.4	0.00e+00	0	42	0	386924544	63	4356
2026-01-29 03:54:01.22	15.98	20.32	-46.0	-47.4	19.6	0.00e+00	0	42	0	389021696	63	4291
2026-01-29 03:54:02.23	15.77	20.40	-46.0	-47.4	19.6	0.00e+00	0	42	0	391118848	63	4277
2026-01-29 03:54:03.23	15.57	20.47	-46.0	-47.4	19.6	0.00e+00	0	42	0	392167424	63	4270
2026-01-29 03:54:04.24	15.36	20.55	-45.9	-47.3	19.7	0.00e+00	0	42	0	394264576	63	4217
2026-01-29 03:54:05.25	15.14	20.63	-45.9	-47.3	19.7	0.00e+00	0	42	0	396361728	63	4233
2026-01-29 03:54:06.26	14.93	20.70	-45.8	-47.2	19.8	0.00e+00	0	42	0	398458880	63	4167
2026-01-29 03:54:07.27	14.72	20.78	-45.7	-47.1	19.9	0.00e+00	0	42	0	400556032	63	4112
2026-01-29 03:54:08.27	14.51	20.85	-45.7	-47.1	20.0	0.00e+00	0	42	0	401604608	63	4100
2026-01-29 03:54:09.28	14.29	20.93	-45.6	-47.0	20.0	0.00e+00	0	42	0	403701760	63	4082
2026-01-29 03:54:10.29	14.08	21.00	-45.6	-46.9	20.1	0.00e+00	0	42	0	405798912	63	4039
2026-01-29 03:54:11.29	13.86	21.08	-45.6	-47.0	20.0	0.00e+00	0	42	0	407896064	63	4065
2026-01-29 03:54:12.30	13.64	21.15	-45.6	-46.9	20.1	0.00e+00	0	42	0	408944640	63	4043
2026-01-29 03:54:13.31	13.42	21.23	-45.4	-46.7	20.3	0.00e+00	0	42	0	411041792	62	4155
2026-01-29 03:54:14.32	13.20	21.30	-45.3	-46.6	20.4	0.00e+00	0	42	0	413138944	62	4132
2026-01-29 03:54:15.33	12.98	21.38	-45.1	-46.4	20.6	0.00e+00	0	42	0	415236096	62	4008
2026-01-29 03:54:16.34	12.76	21.45	-45.0	-46.2	20.8	0.00e+00	0	42	0	417333248	62	3957
2026-01-29 03:54:17.34	12.54	21.53	-44.8	-46.0	21.0	0.00e+00	0	42	0	419430400	61	4078
2026-01-29 03:54:18.35	12.31	21.60	-44.7	-46.0	21.1	0.00e+00	0	42	0	420478976	61	4056
2026-01-29 03:54:19.36	12.09	21.67	-44.6	-45.8	21.1	0.00e+00	0	42	0	422576128	61	3986
2026-01-29 03:54:20.37	11.86	21.75	-44.7	-45.9	21.1	0.00e+00	0	42	0	424673280	61	4010
2026-01-29 03:54:21.38	11.63	21.82	-44.6	-45.8	21.1	0.00e+00	0	42	0	426770432	61	3989
2026-01-29 03:54:22.39	11.40	21.89	-44.8	-46.0	21.0	0.00e+00	0	42	0	428867584	61	4064
2026-01-29 03:54:23.40	11.17	21.96	-44.7	-45.9	21.1	0.00e+00	0	42	0	429916160	61	4027
2026-01-29 03:54:24.41	10.94	22.04	-44.7	-45.9	21.1	0.00e+00	0	42	0	432013312	61	4027
2026-01-29 03:54:25.41	10.71	22.11	-44.7	-46.0	21.0	0.00e+00	0	42	0	434110464	61	4053
2026-01-29 03:54:26.43	10.48	22.18	-44.7	-45.9	21.1	0.00e+00	0	42	0	436207616	61	4040
2026-01-29 03:54:27.43	10.24	22.25	-44.7	-45.8	21.2	0.00e+00	0	42	0	438304768	61	4003
2026-01-29 03:54:28.44	10.01	22.32	-44.6	-45.8	21.2	0.00e+00	0	42	0	439353344	61	3962
2026-01-29 03:54:29.45	9.77	22.39	-44.7	-45.9	21.1	0.00e+00	0	42	0	441450496	61	4037
2026-01-29 03:54:30.46	9.53	22.46	-44.6	-45.8	21.1	0.00e+00	0	42	0	443547648	61	3990
2026-01-29 03:54:31.47	9.29	22.53	-44.6	-45.8	21.2	0.00e+00	0	42	0	445644800	61	3974
2026-01-29 03:54:32.47	9.06	22.60	-44.6	-45.8	21.1	0.00e+00	0	42	0	447741952	61	4002
2026-01-29 03:54:33.48	8.82	22.67	-44.8	-46.0	21.0	0.00e+00	0	42	0	448790528	61	4070
2026-01-29 03:54:34.49	8.57	22.74	-44.6	-45.8	21.2	0.00e+00	0	42	0	450887680	61	3981
2026-01-29 03:54:35.49	8.33	22.81	-44.6	-45.8	21.3	0.00e+00	0	42	0	452984832	61	3961
2026-01-29 03:54:36.50	8.09	22.87	-44.6	-45.8	21.2	0.00e+00	0	42	0	455081984	61	4001
2026-01-29 03:54:37.51	7.84	22.94	-44.6	-45.8	21.2	0.00e+00	0	42	0	457179136	61	3974
2026-01-29 03:54:38.52	7.60	23.01	-44.6	-45.7	21.3	0.00e+00	0	42	0	458227712	61	3955
2026-01-29 03:54:39.53	7.35	23.07	-44.6	-45.7	21.3	0.00e+00	0	42	0	460324864	61	3953
2026-01-29 03:54:40.53	7.10	23.14	-44.5	-45.7	21.3	0.00e+00	0	42	0	462422016	61	3941
2026-01-29 03:54:41.54	6.85	23.21	-44.5	-45.6	21.4	0.00e+00	0	42	0	464519168	60	4129
2026-01-29 03:54:42.55	6.60	23.27	-44.5	-45.7	21.3	0.00e+00	0	42	0	466616320	60	4172
2026-01-29 03:54:43.55	6.35	23.34	-44.6	-45.8	21.2	0.00e+00	0	42	0	467664896	60	4200
2026-01-29 03:54:44.56	6.10	23.40	-44.7	-45.9	21.1	0.00e+00	0	42	0	469762048	60	4281
2026-01-29 03:54:45.57	5.85	23.47	-44.8	-46.0	21.0	0.00e+00	0	42	0	471859200	60	4331
2026-01-29 03:54:46.58	5.59	23.53	-44.8	-46.1	20.9	0.00e+00	0	42	0	473956352	60	4350
2026-01-29 03:54:47.59	5.34	23.59	-44.7	-45.9	21.1	0.00e+00	0	42	0	476053504	60	4256
2026-01-29 03:54:48.59	5.08	23.65	-44.7	-45.9	21.2	0.00e+00	0	42	0	477102080	60	4251
2026-01-29 03:54:49.60	4.82	23.72	-44.7	-45.8	21.2	0.00e+00	0	42	0	479199232	60	4239
2026-01-29 03:54:50.61	4.56	23.78	-44.7	-45.9	21.1	0.00e+00	0	42	0	481296384	60	4256
2026-01-29 03:54:51.62	4.30	23.84	-44.7	-45.9	21.1	0.00e+00	0	42	0	483393536	60	4282
2026-01-29 03:54:52.62	4.05	23.90	-44.7	-45.8	21.2	0.00e+00	0	42	0	485490688	60	4241
2026-01-29 03:54:53.63	3.78	23.96	-44.6	-45.8	21.2	0.00e+00	0	42	0	486539264	60	4232
2026-01-29 03:54:54.64	3.52	24.02	-44.6	-45.7	21.3	0.00e+00	0	42	0	488636416	60	4184
2026-01-29 03:54:55.65	3.26	24.08	-44.5	-45.6	21.5	0.00e+00	0	42	0	490733568	60	4121
2026-01-29 03:54:56.65	2.99	24.14	-44.4	-45.6	21.4	0.00e+00	0	42	0	492830720	60	4100
2026-01-29 03:54:57.66	2.73	24.20	-44.4	-45.5	21.5	0.00e+00	0	42	0	494927872	60	4078
2026-01-29 03:54:58.67	2.46	24.26	-44.4	-45.5	21.5	0.00e+00	0	41	0	495976448	60	4075
2026-01-29 03:54:59.68	2.19	24.31	-44.3	-45.5	21.6	0.00e+00	0	42	0	498073600	60	4053
2026-01-29 03:55:00.69	1.92	24.37	-44.3	-45.5	21.5	0.00e+00	0	42	0	500170752	60	4060
2026-01-29 03:55:01.70	1.65	24.42	-44.5	-45.6	21.4	0.00e+00	0	42	0	502267904	60	4133
2026-01-29 03:55:02.71	1.38	24.48	-44.4	-45.5	21.5	0.00e+00	0	42	0	504365056	60	4094
2026-01-29 03:55:03.71	1.11	24.53	-44.4	-45.6	21.5	0.00e+00	0	42	0	506462208	60	4100
2026-01-29 03:55:04.72	0.84	24.59	-44.4	-45.6	21.5	0.00e+00	0	42	0	507510784	60	4100
2026-01-29 03:55:05.73	0.57	24.64	-44.3	-45.4	21.6	0.00e+00	0	42	0	509607936	60	4038
2026-01-29 03:55:06.74	0.29	24.70	-44.2	-45.3	21.7	0.00e+00	0	42	0	511705088	60	3977
2026-01-29 03:55:07.75	0.02	24.75	-44.3	-45.4	21.6	0.00e+00	0	42	0	513802240	60	4030
2026-01-29 03:55:08.76	359.74	24.80	-44.2	-45.3	21.7	0.00e+00	0	42	0	514850816	60	3999
2026-01-29 03:55:09.77	359.46	24.85	-44.2	-45.4	21.7	0.00e+00	0	42	0	516947968	60	4009
2026-01-29 03:55:10.78	359.18	24.90	-44.3	-45.5	21.5	0.00e+00	0	42	0	519045120	60	4064
2026-01-29 03:55:11.78	358.91	24.95	-44.1	-45.2	21.8	0.00e+00	0	42	0	521142272	60	3920
2026-01-29 03:55:12.79	358.63	25.00	-44.4	-45.6	21.8	0.00e+00	0	42	0	523239424	59	4344
2026-01-29 03:55:13.80	358.34	25.05	-44.6	-45.7	21.7	0.00e+00	0	42	0	524288000	59	4421
2026-01-29 03:55:14.81	358.06	25.10	-44.7	-45.8	21.6	0.00e+00	0	42	0	526385152	59	4475
2026-01-29 03:55:15.82	357.78	25.14	-44.4	-45.5	21.5	0.00e+00	0	42	0	528482304	60	4093
2026-01-29 03:55:16.82	357.50	25.19	-44.5	-45.6	21.4	0.00e+00	0	42	0	530579456	60	4139
2026-01-29 03:55:17.83	357.21	25.24	-44.5	-45.7	21.4	0.00e+00	0	42	0	532676608	60	4172
2026-01-29 03:55:18.83	356.93	25.28	-44.6	-45.8	21.3	0.00e+00	0	42	0	534773760	60	4230
2026-01-29 03:55:19.84	356.64	25.33	-44.7	-45.9	21.2	0.00e+00	0	42	0	535822336	60	4257
2026-01-29 03:55:20.84	356.36	25.37	-44.8	-46.1	21.1	0.00e+00	0	42	0	537919488	60	4345
2026-01-29 03:55:21.85	356.07	25.41	-45.0	-46.2	20.9	0.00e+00	0	42	0	540016640	60	4410
2026-01-29 03:55:22.86	355.78	25.45	-45.0	-46.3	20.8	0.00e+00	0	42	0	542113792	60	4459
2026-01-29 03:55:23.87	355.49	25.50	-44.9	-46.1	21.0	0.00e+00	0	42	0	543162368	60	4373
2026-01-29 03:55:24.88	355.20	25.54	-45.1	-46.3	20.8	0.00e+00	0	42	0	545259520	60	4469
2026-01-29 03:55:25.89	354.91	25.58	-44.9	-46.2	21.0	0.00e+00	0	42	0	547356672	60	4401
2026-01-29 03:55:26.90	354.62	25.62	-45.1	-46.4	20.7	0.00e+00	0	42	0	549453824	60	4526
2026-01-29 03:55:27.90	354.33	25.66	-45.3	-46.6	20.6	0.00e+00	0	42	0	551550976	61	4350
2026-01-29 03:55:28.91	354.04	25.69	-45.3	-46.6	20.5	0.00e+00	0	42	0	553648128	61	4381
2026-01-29 03:55:29.91	353.75	25.73	-45.4	-46.7	20.4	0.00e+00	0	42	0	554696704	61	4425
2026-01-29 03:55:30.92	353.45	25.77	-45.4	-46.7	20.4	0.00e+00	0	42	0	556793856	61	4403
2026-01-29 03:55:31.93	353.16	25.80	-45.4	-46.8	20.4	0.00e+00	0	42	0	558891008	61	4443
2026-01-29 03:55:32.93	352.87	25.84	-45.5	-46.9	20.3	0.00e+00	0	42	0	560988160	61	4498
2026-01-29 03:55:33.94	352.57	25.87	-45.6	-46.9	20.1	0.00e+00	0	42	0	563085312	61	4529
2026-01-29 03:55:34.94	352.27	25.90	-45.7	-47.0	20.1	0.00e+00	0	42	0	564133888	61	4597
2026-01-29 03:55:35.95	351.98	25.94	-45.7	-47.0	20.2	0.00e+00	0	42	0	566231040	61	4570
2026-01-29 03:55:36.95	351.68	25.97	-45.6	-47.0	20.2	0.00e+00	0	42	0	568328192	61	4546
2026-01-29 03:55:37.96	351.38	26.00	-45.8	-47.2	20.0	0.00e+00	0	42	0	570425344	62	4402
2026-01-29 03:55:38.97	351.08	26.03	-46.0	-47.4	19.8	0.00e+00	0	42	0	571473920	62	4531
2026-01-29 03:55:39.98	350.78	26.06	-46.2	-47.7	19.6	0.00e+00	0	42	0	573571072	63	4410
2026-01-29 03:55:40.99	350.48	26.08	-46.2	-47.7	19.5	0.00e+00	0	42	0	575668224	63	4394
2026-01-29 03:55:41.99	350.18	26.11	-46.2	-47.6	19.6	0.00e+00	0	42	0	577765376	63	4379
2026-01-29 03:55:43.00	349.88	26.14	-46.2	-47.6	19.6	0.00e+00	0	42	0	579862528	63	4384
2026-01-29 03:55:44.01	349.58	26.16	-46.1	-47.5	19.7	0.00e+00	0	42	0	580911104	63	4332
2026-01-29 03:55:45.01	349.28	26.19	-46.1	-47.6	19.7	0.00e+00	0	42	0	583008256	63	4349
2026-01-29 03:55:46.02	348.98	26.21	-46.2	-47.7	19.5	0.00e+00	0	42	0	585105408	63	4397
2026-01-29 03:55:47.02	348.68	26.24	-46.2	-47.7	19.6	0.00e+00	0	42	0	587202560	63	4392
2026-01-29 03:55:48.03	348.37	26.26	-46.0	-47.4	19.8	0.00e+00	0	42	0	589299712	63	4263
2026-01-29 03:55:49.04	348.07	26.28	-46.0	-47.4	19.8	0.00e+00	0	42	0	591396864	63	4281
2026-01-29 03:55:50.05	347.76	26.30	-45.9	-47.3	19.9	0.00e+00	0	42	0	592445440	63	4209
2026-01-29 03:55:51.05	347.46	26.32	-46.0	-47.5	19.8	0.00e+00	0	42	0	594542592	63	4293
2026-01-29 03:55:52.06	347.16	26.34	-46.3	-47.7	19.6	0.00e+00	0	42	0	596639744	63	4431
2026-01-29 03:55:53.07	346.85	26.36	-46.4	-47.9	19.4	0.00e+00	0	42	0	598736896	63	4502
2026-01-29 03:55:54.08	346.54	26.37	-46.4	-47.9	19.3	0.00e+00	0	42	0	599785472	63	4536
2026-01-29 03:55:55.08	346.24	26.39	-46.5	-48.0	19.3	0.00e+00	0	42	0	601882624	63	4552
2026-01-29 03:55:56.09	345.93	26.40	-46.5	-48.0	19.3	0.00e+00	0	42	0	603979776	63	4553
2026-01-29 03:55:57.10	345.63	26.42	-46.3	-47.8	19.4	0.00e+00	0	42	0	606076928	63	4478
2026-01-29 03:55:58.11	345.32	26.43	-46.5	-48.0	19.3	0.00e+00	0	42	0	608174080	63	4551
2026-01-29 03:55:59.12	345.01	26.44	-46.5	-48.1	19.2	0.00e+00	0	42	0	610271232	63	4609
2026-01-29 03:56:00.13	344.70	26.46	-46.5	-48.0	19.2	0.00e+00	0	42	0	611319808	63	4593
2026-01-29 03:56:01.13	344.40	26.47	-46.5	-48.0	19.3	0.00e+00	0	42	0	613416960	63	4574
2026-01-29 03:56:02.14	344.09	26.48	-46.6	-48.2	19.1	0.00e+00	0	42	0	615514112	63	4676
2026-01-29 03:56:03.14	343.78	26.48	-46.6	-48.2	19.1	0.00e+00	0	42	0	617611264	63	4672
2026-01-29 03:56:04.15	343.48	26.49	-46.7	-48.3	19.0	0.00e+00	0	42	0	619708416	64	4447
2026-01-29 03:56:05.16	343.17	26.50	-46.6	-48.2	19.0	0.00e+00	0	42	0	620756992	64	4426
2026-01-29 03:56:06.17	342.86	26.51	-46.5	-48.1	19.1	0.00e+00	0	42	0	622854144	64	4368
2026-01-29 03:56:07.18	342.55	26.51	-46.5	-48.0	19.1	0.00e+00	0	42	0	624951296	64	4326
2026-01-29 03:56:08.18	342.24	26.51	-46.4	-47.9	19.3	0.00e+00	0	42	0	627048448	64	4263
2026-01-29 03:56:09.19	341.93	26.52	-46.4	-47.9	19.3	0.00e+00	0	42	0	628097024	64	4283
2026-01-29 03:56:10.20	341.62	26.52	-46.2	-47.6	19.5	0.00e+00	0	42	0	630194176	64	4136
2026-01-29 03:56:11.21	341.31	26.52	-46.0	-47.4	19.9	0.00e+00	0	42	0	632291328	63	4255
2026-01-29 03:56:12.22	341.01	26.52	-46.1	-47.5	19.8	0.00e+00	0	42	0	634388480	63	4330
2026-01-29 03:56:13.23	340.70	26.52	-46.0	-47.4	20.0	0.00e+00	0	42	0	636485632	63	4256
2026-01-29 03:56:14.24	340.39	26.52	-46.1	-47.6	19.7	0.00e+00	0	42	0	638582784	63	4348
2026-01-29 03:56:15.25	340.08	26.52	-46.2	-47.7	19.6	0.00e+00	0	42	0	639631360	63	4413
2026-01-29 03:56:16.26	339.77	26.52	-46.3	-47.7	19.5	0.00e+00	0	42	0	641728512	63	4434
2026-01-29 03:56:17.27	339.46	26.51	-46.2	-47.6	19.7	0.00e+00	0	42	0	643825664	63	4350
2026-01-29 03:56:18.28	339.15	26.51	-45.7	-47.1	20.2	0.00e+00	0	42	0	645922816	63	4109
2026-01-29 03:56:19.28	338.84	26.50	-45.6	-46.9	20.4	0.00e+00	0	42	0	648019968	63	4007
2026-01-29 03:56:20.29	338.53	26.49	-45.5	-46.8	20.5	0.00e+00	0	42	0	649068544	62	4217
2026-01-29 03:56:21.30	338.23	26.49	-45.4	-46.7	20.5	0.00e+00	0	42	0	651165696	62	4189
2026-01-29 03:56:22.31	337.92	26.48	-45.4	-46.6	20.6	0.00e+00	0	42	0	653262848	62	4134
2026-01-29 03:56:23.32	337.61	26.47	-45.4	-46.7	20.6	0.00e+00	0	42	0	655360000	62	4165
2026-01-29 03:56:24.33	337.30	26.46	-45.2	-46.5	20.8	0.00e+00	0	42	0	657457152	62	4057
2026-01-29 03:56:25.34	336.99	26.45	-45.2	-46.5	20.8	0.00e+00	0	42	0	658505728	62	4066
2026-01-29 03:56:26.35	336.68	26.43	-45.1	-46.3	20.9	0.00e+00	0	42	0	660602880	62	3995
2026-01-29 03:56:27.36	336.38	26.42	-45.1	-46.3	20.9	0.00e+00	0	42	0	662700032	62	3979
2026-01-29 03:56:28.36	336.07	26.41	-45.1	-46.3	20.9	0.00e+00	0	42	0	664797184	62	3975
2026-01-29 03:56:29.37	335.77	26.39	-45.0	-46.3	21.0	0.00e+00	0	42	0	666894336	62	3967
2026-01-29 03:56:30.38	335.46	26.38	-45.0	-46.2	21.0	0.00e+00	0	42	0	667942912	62	3942
2026-01-29 03:56:31.38	335.16	26.36	-45.0	-46.2	21.0	0.00e+00	0	42	0	670040064	61	4188
2026-01-29 03:56:32.39	334.85	26.34	-45.0	-46.2	20.9	0.00e+00	0	42	0	672137216	61	4180
2026-01-29 03:56:33.39	334.55	26.32	-44.8	-46.0	21.2	0.00e+00	0	42	0	674234368	61	4059
2026-01-29 03:56:34.40	334.24	26.30	-44.5	-45.6	21.5	0.00e+00	0	42	0	676331520	61	3902
2026-01-29 03:56:35.41	333.94	26.28	-44.5	-45.6	21.6	0.00e+00	0	42	0	678428672	60	4113
2026-01-29 03:56:36.42	333.63	26.26	-44.4	-45.6	21.6	0.00e+00	0	42	0	679477248	60	4111
2026-01-29 03:56:37.43	333.33	26.24	-44.5	-45.6	21.6	0.00e+00	0	42	0	681574400	60	4122
2026-01-29 03:56:38.43	333.03	26.22	-44.5	-45.7	21.5	0.00e+00	0	42	0	683671552	60	4155
2026-01-29 03:56:39.44	332.72	26.20	-44.5	-45.7	21.5	0.00e+00	0	42	0	685768704	60	4170
2026-01-29 03:56:40.45	332.42	26.17	-44.6	-45.7	21.5	0.00e+00	0	42	0	686817280	60	4167
2026-01-29 03:56:41.46	332.12	26.14	-44.4	-45.6	21.6	0.00e+00	0	42	0	688914432	60	4109
2026-01-29 03:56:42.46	331.82	26.12	-44.4	-45.5	21.7	0.00e+00	0	42	0	691011584	60	4072
2026-01-29 03:56:43.47	331.52	26.09	-44.4	-45.5	21.7	0.00e+00	0	42	0	693108736	60	4092
2026-01-29 03:56:44.47	331.22	26.06	-44.4	-45.5	21.7	0.00e+00	0	42	0	695205888	60	4076
2026-01-29 03:56:45.48	330.92	26.04	-44.5	-45.6	21.6	0.00e+00	0	42	0	696254464	60	4118
2026-01-29 03:56:46.49	330.62	26.01	-44.3	-45.4	21.8	0.00e+00	0	42	0	698351616	60	4030
2026-01-29 03:56:47.49	330.32	25.98	-44.2	-45.3	21.9	0.00e+00	0	42	0	700448768	60	3989
2026-01-29 03:56:48.50	330.03	25.94	-44.4	-45.5	21.7	0.00e+00	0	42	0	702545920	60	4068
2026-01-29 03:56:49.51	329.73	25.91	-44.5	-45.7	21.6	0.00e+00	0	42	0	704643072	60	4156
2026-01-29 03:56:50.52	329.43	25.88	-44.6	-45.8	21.4	0.00e+00	0	42	0	706740224	60	4215
2026-01-29 03:56:51.53	329.13	25.85	-44.8	-46.0	21.2	0.00e+00	0	42	0	707788800	60	4302
2026-01-29 03:56:52.53	328.84	25.81	-44.7	-45.9	21.4	0.00e+00	0	42	0	709885952	60	4251
2026-01-29 03:56:53.54	328.54	25.78	-44.8	-45.9	21.3	0.00e+00	0	42	0	711983104	60	4290
2026-01-29 03:56:54.54	328.25	25.74	-44.7	-45.9	21.3	0.00e+00	0	42	0	714080256	60	4271
2026-01-29 03:56:55.55	327.96	25.70	-44.6	-45.7	21.5	0.00e+00	0	42	0	715128832	60	4186
2026-01-29 03:56:56.56	327.67	25.67	-44.7	-45.9	21.4	0.00e+00	0	42	0	717225984	60	4247
2026-01-29 03:56:57.57	327.37	25.63	-44.8	-46.0	21.2	0.00e+00	0	42	0	719323136	60	4325
2026-01-29 03:56:58.57	327.08	25.59	-44.9	-46.1	21.2	0.00e+00	0	42	0	721420288	60	4349
2026-01-29 03:56:59.58	326.79	25.55	-45.0	-46.2	21.1	0.00e+00	0	42	0	723517440	60	4417
2026-01-29 03:57:00.58	326.50	25.51	-44.9	-46.1	21.2	0.00e+00	0	42	0	724566016	60	4365
2026-01-29 03:57:01.59	326.21	25.47	-44.9	-46.1	21.1	0.00e+00	0	42	0	726663168	60	4381
2026-01-29 03:57:02.60	325.93	25.42	-45.0	-46.2	21.0	0.00e+00	0	42	0	728760320	60	4433
2026-01-29 03:57:03.60	325.64	25.38	-45.2	-46.4	20.9	0.00e+00	0	42	0	730857472	60	4507
2026-01-29 03:57:04.61	325.35	25.34	-45.2	-46.5	20.8	0.00e+00	0	42	0	732954624	61	4305
2026-01-29 03:57:05.62	325.07	25.29	-45.3	-46.6	20.7	0.00e+00	0	42	0	735051776	61	4359
2026-01-29 03:57:06.63	324.78	25.25	-45.4	-46.6	20.6	0.00e+00	0	42	0	736100352	61	4382
2026-01-29 03:57:07.63	324.50	25.20	-45.4	-46.7	20.6	0.00e+00	0	42	0	738197504	61	4416
2026-01-29 03:57:08.64	324.21	25.16	-45.3	-46.6	20.7	0.00e+00	0	42	0	740294656	61	4371
2026-01-29 03:57:09.64	323.93	25.11	-45.5	-46.8	20.5	0.00e+00	0	42	0	742391808	61	4462
2026-01-29 03:57:10.65	323.65	25.06	-45.5	-46.9	20.4	0.00e+00	0	42	0	743440384	61	4500
2026-01-29 03:57:11.66	323.37	25.01	-45.6	-46.9	20.3	0.00e+00	0	42	0	745537536	61	4543
2026-01-29 03:57:12.67	323.09	24.96	-45.7	-47.0	20.3	0.00e+00	0	42	0	747634688	61	4590
2026-01-29 03:57:13.68	322.81	24.92	-45.9	-47.3	20.0	0.00e+00	0	42	0	749731840	62	4463
2026-01-29 03:57:14.69	322.53	24.86	-45.9	-47.3	20.0	0.00e+00	0	42	0	751828992	62	4481
2026-01-29 03:57:15.69	322.25	24.81	-46.0	-47.4	19.8	0.00e+00	0	42	0	752877568	62	4528
2026-01-29 03:57:16.70	321.98	24.76	-46.0	-47.4	19.9	0.00e+00	0	42	0	754974720	62	4536
2026-01-29 03:57:17.71	321.70	24.71	-46.0	-47.4	19.8	0.00e+00	0	42	0	757071872	62	4531
2026-01-29 03:57:18.72	321.43	24.66	-46.1	-47.5	19.8	0.00e+00	0	42	0	759169024	62	4560
2026-01-29 03:57:19.72	321.15	24.60	-46.1	-47.6	19.7	0.00e+00	0	42	0	761266176	62	4599
2026-01-29 03:57:20.73	320.88	24.55	-46.1	-47.5	19.7	0.00e+00	0	42	0	763363328	62	4588
2026-01-29 03:57:21.73	320.61	24.50	-46.0	-47.4	19.9	0.00e+00	0	42	0	764411904	62	4537
2026-01-29 03:57:22.74	320.34	24.44	-46.2	-47.6	19.7	0.00e+00	0	42	0	766509056	62	4616
2026-01-29 03:57:23.74	320.07	24.38	-46.3	-47.8	19.6	0.00e+00	0	42	0	768606208	63	4444
2026-01-29 03:57:24.75	319.80	24.33	-46.4	-47.8	19.5	0.00e+00	0	42	0	770703360	63	4476
2026-01-29 03:57:25.76	319.53	24.27	-46.5	-48.0	19.3	0.00e+00	0	42	0	771751936	63	4554
2026-01-29 03:57:26.77	319.27	24.21	-46.4	-47.9	19.5	0.00e+00	0	42	0	773849088	63	4496
2026-01-29 03:57:27.77	319.00	24.16	-46.4	-47.8	19.5	0.00e+00	0	42	0	775946240	63	4479
2026-01-29 03:57:28.78	318.74	24.10	-46.2	-47.7	19.6	0.00e+00	0	42	0	778043392	63	4406
2026-01-29 03:57:29.79	318.47	24.04	-46.1	-47.5	19.7	0.00e+00	0	42	0	780140544	63	4337
2026-01-29 03:57:30.80	318.21	23.98	-46.1	-47.5	19.8	0.00e+00	0	42	0	781189120	63	4305
2026-01-29 03:57:31.81	317.94	23.92	-46.1	-47.6	19.7	0.00e+00	0	42	0	783286272	63	4348
2026-01-29 03:57:32.81	317.69	23.86	-46.1	-47.6	19.7	0.00e+00	0	42	0	785383424	63	4341
2026-01-29 03:57:33.82	317.42	23.80	-46.2	-47.6	19.7	0.00e+00	0	42	0	787480576	63	4373
2026-01-29 03:57:34.83	317.17	23.73	-46.2	-47.7	19.6	0.00e+00	0	42	0	789577728	63	4394
2026-01-29 03:57:35.84	316.91	23.67	-46.3	-47.8	19.5	0.00e+00	0	42	0	791674880	63	4471
2026-01-29 03:57:36.84	316.65	23.61	-46.5	-48.0	19.4	0.00e+00	0	42	0	792723456	63	4554
2026-01-29 03:57:37.85	316.40	23.55	-46.6	-48.1	19.2	0.00e+00	0	42	0	794820608	63	4618
2026-01-29 03:57:38.85	316.14	23.48	-46.5	-48.0	19.2	0.00e+00	0	42	0	796917760	63	4596
2026-01-29 03:57:39.86	315.89	23.42	-46.5	-48.0	19.4	0.00e+00	0	42	0	799014912	63	4553
2026-01-29 03:57:40.87	315.63	23.36	-46.2	-47.6	19.7	0.00e+00	0	42	0	800063488	63	4366
2026-01-29 03:57:41.88	315.38	23.29	-46.1	-47.4	19.8	0.00e+00	0	42	0	802160640	63	4288
2026-01-29 03:57:42.89	315.13	23.22	-46.0	-47.4	19.9	0.00e+00	0	42	0	804257792	63	4272
2026-01-29 03:57:43.89	314.88	23.16	-45.9	-47.3	19.9	0.00e+00	0	42	0	806354944	63	4216
2026-01-29 03:57:44.90	314.63	23.09	-46.0	-47.4	19.8	0.00e+00	0	42	0	808452096	63	4290
2026-01-29 03:57:45.91	314.39	23.03	-46.2	-47.6	19.7	0.00e+00	0	42	0	809500672	63	4361
2026-01-29 03:57:46.91	314.14	22.96	-46.2	-47.7	19.6	0.00e+00	0	42	0	811597824	63	4401
2026-01-29 03:57:47.91	313.90	22.89	-46.3	-47.8	19.5	0.00e+00	0	42	0	813694976	63	4459
2026-01-29 03:57:48.91	313.66	22.83	-46.2	-47.6	19.6	0.00e+00	0	42	0	815792128	63	4387
2026-01-29 03:57:49.92	313.41	22.76	-46.1	-47.5	19.8	0.00e+00	0	42	0	817889280	63	4326
2026-01-29 03:57:50.93	313.17	22.69	-46.0	-47.4	19.9	0.00e+00	0	42	0	819986432	63	4265
2026-01-29 03:57:51.94	312.93	22.62	-45.8	-47.2	20.1	0.00e+00	0	42	0	821035008	63	4160
2026-01-29 03:57:52.94	312.69	22.55	-45.8	-47.2	20.1	0.00e+00	0	42	0	823132160	63	4158
2026-01-29 03:57:53.95	312.45	22.48	-45.7	-47.1	20.2	0.00e+00	0	42	0	825229312	63	4113
2026-01-29 03:57:54.96	312.21	22.41	-45.6	-46.9	20.4	0.00e+00	0	42	0	827326464	63	4033
2026-01-29 03:57:55.97	311.97	22.34	-45.5	-46.8	20.5	0.00e+00	0	42	0	828375040	63	3989
2026-01-29 03:57:56.97	311.74	22.27	-45.5	-46.8	20.5	0.00e+00	0	42	0	830472192	62	4194
2026-01-29 03:57:57.98	311.50	22.20	-45.5	-46.8	20.5	0.00e+00	0	42	0	832569344	62	4198
2026-01-29 03:57:58.98	311.27	22.13	-45.4	-46.7	20.5	0.00e+00	0	42	0	834666496	62	4180
2026-01-29 03:57:59.99	311.04	22.06	-45.3	-46.5	20.6	0.00e+00	0	42	0	836763648	62	4096
2026-01-29 03:58:00.99	310.81	21.99	-45.3	-46.5	20.7	0.00e+00	0	42	0	837812224	62	4085
2026-01-29 03:58:02.00	310.58	21.91	-45.2	-46.5	20.8	0.00e+00	0	42	0	839909376	62	4065
2026-01-29 03:58:03.01	310.35	21.84	-45.1	-46.3	20.9	0.00e+00	0	42	0	842006528	62	3978
2026-01-29 03:58:04.01	310.12	21.77	-45.2	-46.4	20.8	0.00e+00	0	42	0	844103680	62	4030
2026-01-29 03:58:05.02	309.90	21.70	-45.0	-46.3	20.9	0.00e+00	0	42	0	846200832	62	3960
2026-01-29 03:58:06.03	309.67	21.62	-44.9	-46.2	21.0	0.00e+00	0	42	0	848297984	61	4149
2026-01-29 03:58:07.03	309.45	21.55	-45.0	-46.2	21.0	0.00e+00	0	42	0	849346560	61	4173
2026-01-29 03:58:08.04	309.22	21.48	-45.0	-46.3	20.9	0.00e+00	0	42	0	851443712	61	4200
2026-01-29 03:58:09.05	309.00	21.40	-45.1	-46.4	20.8	0.00e+00	0	42	0	853540864	61	4248
2026-01-29 03:58:10.05	308.78	21.33	-45.1	-46.3	20.8	0.00e+00	0	42	0	855638016	61	4230
2026-01-29 03:58:11.06	308.56	21.25	-45.1	-46.3	20.7	0.00e+00	0	42	0	856686592	61	4231
2026-01-29 03:58:12.07	308.34	21.18	-45.1	-46.4	20.8	0.00e+00	0	42	0	858783744	61	4257
2026-01-29 03:58:13.07	308.12	21.10	-45.0	-46.2	21.0	0.00e+00	0	42	0	860880896	61	4179
2026-01-29 03:58:14.08	307.90	21.03	-45.1	-46.3	20.9	0.00e+00	0	42	0	862978048	61	4213
2026-01-29 03:58:15.09	307.69	20.95	-45.1	-46.3	20.8	0.00e+00	0	42	0	865075200	61	4230
2026-01-29 03:58:16.10	307.47	20.88	-45.2	-46.4	20.7	0.00e+00	0	42	0	866123776	61	4291
2026-01-29 03:58:17.11	307.26	20.80	-45.3	-46.6	20.7	0.00e+00	0	42	0	868220928	61	4344
2026-01-29 03:58:18.11	307.04	20.73	-45.3	-46.5	20.6	0.00e+00	0	42	0	870318080	61	4337
2026-01-29 03:58:19.12	306.83	20.65	-45.2	-46.5	20.7	0.00e+00	0	42	0	872415232	61	4321
2026-01-29 03:58:20.13	306.62	20.57	-45.2	-46.5	20.6	0.00e+00	0	42	0	874512384	61	4324
2026-01-29 03:58:21.14	306.41	20.50	-45.3	-46.6	20.6	0.00e+00	0	42	0	876609536	61	4351
2026-01-29 03:58:22.15	306.20	20.42	-45.2	-46.4	20.7	0.00e+00	0	42	0	877658112	61	4276
2026-01-29 03:58:23.15	305.99	20.34	-45.1	-46.3	20.8	0.00e+00	0	42	0	879755264	61	4224
2026-01-29 03:58:24.16	305.79	20.26	-45.0	-46.3	20.9	0.00e+00	0	42	0	881852416	61	4196
2026-01-29 03:58:25.17	305.58	20.19	-45.1	-46.3	20.8	0.00e+00	0	42	0	883949568	61	4232
2026-01-29 03:58:26.17	305.38	20.11	-45.1	-46.4	20.8	0.00e+00	0	42	0	884998144	61	4247
2026-01-29 03:58:27.18	305.17	20.03	-44.8	-46.0	21.2	0.00e+00	0	42	0	887095296	61	4061
2026-01-29 03:58:28.19	304.97	19.96	-44.7	-45.8	21.3	0.00e+00	0	42	0	889192448	61	3990
2026-01-29 03:58:29.20	304.77	19.88	-44.6	-45.8	21.3	0.00e+00	0	42	0	891289600	61	3968
2026-01-29 03:58:30.20	304.57	19.80	-44.6	-45.7	21.4	0.00e+00	0	42	0	893386752	61	3947
2026-01-29 03:58:31.21	304.37	19.72	-44.6	-45.8	21.4	0.00e+00	0	42	0	894435328	61	3967
2026-01-29 03:58:32.22	304.17	19.64	-44.7	-45.9	21.3	0.00e+00	0	42	0	896532480	61	4005
2026-01-29 03:58:33.23	303.97	19.56	-44.6	-45.8	21.3	0.00e+00	0	42	0	898629632	61	3976
2026-01-29 03:58:34.23	303.78	19.49	-44.6	-45.7	21.4	0.00e+00	0	42	0	900726784	61	3953
2026-01-29 03:58:35.24	303.58	19.41	-44.5	-45.7	21.4	0.00e+00	0	42	0	902823936	61	3920
2026-01-29 03:58:36.25	303.39	19.33	-44.4	-45.6	21.5	0.00e+00	0	42	0	904921088	60	4100
2026-01-29 03:58:37.25	303.19	19.25	-44.4	-45.5	21.6	0.00e+00	0	42	0	905969664	60	4090
2026-01-29 03:58:38.26	303.00	19.17	-44.3	-45.4	21.6	0.00e+00	0	42	0	908066816	60	4047
2026-01-29 03:58:39.27	302.81	19.09	-44.3	-45.4	21.7	0.00e+00	0	42	0	910163968	60	4015
2026-01-29 03:58:40.28	302.62	19.01	-44.3	-45.4	21.6	0.00e+00	0	42	0	912261120	60	4040
2026-01-29 03:58:41.29	302.43	18.94	-44.2	-45.3	21.7	0.00e+00	0	42	0	913309696	60	4004
2026-01-29 03:58:42.29	302.24	18.86	-44.1	-45.2	21.9	0.00e+00	0	42	0	915406848	60	3932
2026-01-29 03:58:43.29	302.06	18.78	-44.2	-45.3	21.8	0.00e+00	0	42	0	917504000	60	3974
2026-01-29 03:58:44.30	301.87	18.70	-44.1	-45.2	21.8	0.00e+00	0	42	0	919601152	60	3947
2026-01-29 03:58:45.31	301.68	18.62	-44.1	-45.2	21.9	0.00e+00	0	42	0	921698304	60	3922
2026-01-29 03:58:46.31	301.50	18.54	-44.1	-45.2	21.9	0.00e+00	0	42	0	923795456	60	3928
2026-01-29 03:58:47.32	301.32	18.46	-44.2	-45.3	21.7	0.00e+00	0	42	0	924844032	60	3984
2026-01-29 03:58:48.32	301.14	18.38	-44.2	-45.3	21.7	0.00e+00	0	42	0	926941184	60	3991
2026-01-29 03:58:49.33	300.95	18.30	-44.2	-45.3	21.8	0.00e+00	0	42	0	929038336	60	3972
2026-01-29 03:58:50.33	300.77	18.22	-44.1	-45.2	21.8	0.00e+00	0	42	0	931135488	60	3951
2026-01-29 03:58:51.33	300.60	18.14	-44.1	-45.2	21.8	0.00e+00	0	42	0	933232640	60	3940
2026-01-29 03:58:52.34	300.42	18.06	-44.0	-45.1	21.9	0.00e+00	0	42	0	934281216	60	3906
2026-01-29 03:58:53.35	300.24	17.98	-44.0	-45.1	21.9	0.00e+00	0	42	0	936378368	60	3902
2026-01-29 03:58:54.35	300.06	17.91	-44.1	-45.2	21.8	0.00e+00	0	42	0	938475520	60	3948
2026-01-29 03:58:55.36	299.89	17.83	-44.0	-45.1	21.9	0.00e+00	0	42	0	940572672	60	3871
2026-01-29 03:58:56.37	299.71	17.75	-44.4	-45.5	21.9	0.00e+00	0	42	0	941621248	59	4321
2026-01-29 03:58:57.38	299.54	17.67	-44.5	-45.6	21.7	0.00e+00	0	42	0	943718400	59	4390
2026-01-29 03:58:58.38	299.36	17.59	-44.5	-45.6	21.8	0.00e+00	0	42	0	945815552	59	4360
2026-01-29 03:58:59.39	299.19	17.51	-44.6	-45.8	21.6	0.00e+00	0	42	0	947912704	59	4450
2026-01-29 03:59:00.40	299.02	17.43	-44.5	-45.7	21.7	0.00e+00	0	42	0	950009856	59	4406
2026-01-29 03:59:01.40	298.85	17.35	-44.6	-45.8	21.6	0.00e+00	0	42	0	951058432	59	4461
2026-01-29 03:59:02.41	298.68	17.27	-44.7	-45.8	21.6	0.00e+00	0	42	0	953155584	59	4469
2026-01-29 03:59:03.41	298.51	17.19	-44.7	-45.8	21.5	0.00e+00	0	42	0	955252736	59	4487
2026-01-29 03:59:04.42	298.35	17.11	-44.6	-45.7	21.6	0.00e+00	0	42	0	957349888	59	4441
2026-01-29 03:59:05.42	298.18	17.03	-44.6	-45.8	21.6	0.00e+00	0	42	0	959447040	59	4447
2026-01-29 03:59:06.43	298.01	16.95	-44.4	-45.5	21.5	0.00e+00	0	42	0	961544192	60	4074
2026-01-29 03:59:07.44	297.85	16.87	-44.4	-45.6	21.5	0.00e+00	0	42	0	962592768	60	4106
2026-01-29 03:59:08.45	297.69	16.79	-44.5	-45.7	21.4	0.00e+00	0	42	0	964689920	60	4158
2026-01-29 03:59:09.46	297.52	16.71	-44.4	-45.6	21.5	0.00e+00	0	42	0	966787072	60	4121
2026-01-29 03:59:10.46	297.36	16.63	-44.5	-45.7	21.4	0.00e+00	0	42	0	968884224	60	4154
2026-01-29 03:59:11.47	297.20	16.55	-44.4	-45.6	21.5	0.00e+00	0	42	0	969932800	60	4118
2026-01-29 03:59:12.48	297.04	16.47	-44.5	-45.7	21.4	0.00e+00	0	42	0	972029952	60	4150
2026-01-29 03:59:13.49	296.88	16.39	-44.6	-45.8	21.3	0.00e+00	0	42	0	974127104	60	4196
2026-01-29 03:59:14.50	296.72	16.31	-44.6	-45.7	21.3	0.00e+00	0	42	0	976224256	60	4185
2026-01-29 03:59:15.50	296.56	16.23	-44.6	-45.7	21.3	0.00e+00	0	42	0	978321408	60	4193
2026-01-29 03:59:16.51	296.40	16.15	-44.7	-45.9	21.2	0.00e+00	0	42	0	979369984	60	4243
2026-01-29 03:59:17.52	296.25	16.07	-44.9	-46.1	21.0	0.00e+00	0	42	0	981467136	60	4357
2026-01-29 03:59:18.52	296.09	15.99	-45.0	-46.2	20.9	0.00e+00	0	42	0	983564288	60	4435
2026-01-29 03:59:19.53	295.94	15.91	-45.0	-46.3	20.8	0.00e+00	0	42	0	985661440	60	4460
2026-01-29 03:59:20.53	295.79	15.84	-45.1	-46.3	20.8	0.00e+00	0	42	0	987758592	60	4486
2026-01-29 03:59:21.53	295.63	15.76	-45.2	-46.5	20.6	0.00e+00	0	42	0	989855744	61	4328
2026-01-29 03:59:22.54	295.48	15.68	-45.2	-46.5	20.6	0.00e+00	0	42	0	990904320	61	4318
2026-01-29 03:59:23.55	295.33	15.60	-45.3	-46.6	20.5	0.00e+00	0	42	0	993001472	61	4356
2026-01-29 03:59:24.56	295.18	15.52	-45.4	-46.7	20.4	0.00e+00	0	42	0	995098624	61	4418
2026-01-29 03:59:25.57	295.03	15.44	-45.4	-46.7	20.4	0.00e+00	0	42	0	997195776	61	4419
2026-01-29 03:59:26.58	294.88	15.36	-45.4	-46.7	20.4	0.00e+00	0	42	0	998244352	61	4418
2026-01-29 03:59:27.58	294.73	15.28	-45.4	-46.8	20.3	0.00e+00	0	42	0	1000341504	61	4448
2026-01-29 03:59:28.59	294.58	15.20	-45.5	-46.8	20.3	0.00e+00	0	42	0	1002438656	61	4484
2026-01-29 03:59:29.59	294.44	15.12	-45.4	-46.8	20.3	0.00e+00	0	42	0	1004535808	61	4444
2026-01-29 03:59:30.60	294.29	15.05	-45.5	-46.8	20.3	0.00e+00	0	42	0	1006632960	61	4460
2026-01-29 03:59:31.61	294.15	14.97	-45.6	-46.9	20.2	0.00e+00	0	42	0	1007681536	61	4510
2026-01-29 03:59:32.62	294.00	14.89	-45.4	-46.7	20.4	0.00e+00	0	42	0	1009778688	61	4437
2026-01-29 03:59:33.63	293.86	14.81	-45.5	-46.8	20.3	0.00e+00	0	42	0	1011875840	61	4489
2026-01-29 03:59:34.63	293.72	14.73	-45.4	-46.8	20.4	0.00e+00	0	42	0	1013972992	61	4445
2026-01-29 03:59:35.64	293.58	14.65	-45.5	-46.8	20.3	0.00e+00	0	42	0	1016070144	61	4455
2026-01-29 03:59:36.65	293.43	14.57	-45.4	-46.8	20.3	0.00e+00	0	42	0	1018167296	61	4445
2026-01-29 03:59:37.66	293.29	14.50	-45.6	-46.9	20.2	0.00e+00	0	42	0	1019215872	61	4539
2026-01-29 03:59:38.67	293.15	14.42	-45.5	-46.8	20.2	0.00e+00	0	42	0	1021313024	61	4493
2026-01-29 03:59:39.67	293.02	14.34	-45.6	-47.0	20.1	0.00e+00	0	42	0	1023410176	61	4560
2026-01-29 03:59:40.68	292.88	14.26	-45.7	-47.1	20.0	0.00e+00	0	42	0	1025507328	61	4610
2026-01-29 03:59:41.69	292.74	14.18	-45.8	-47.1	20.0	0.00e+00	0	42	0	1026555904	62	4382
2026-01-29 03:59:42.70	292.60	14.10	-45.8	-47.2	19.9	0.00e+00	0	42	0	1028653056	62	4417
2026-01-29 03:59:43.71	292.47	14.03	-45.8	-47.1	20.0	0.00e+00	0	42	0	1030750208	62	4390
2026-01-29 03:59:44.71	292.33	13.95	-45.8	-47.2	19.9	0.00e+00	0	42	0	1032847360	62	4402
2026-01-29 03:59:45.71	292.20	13.87	-45.8	-47.2	20.0	0.00e+00	0	42	0	1034944512	62	4392
2026-01-29 03:59:46.72	292.07	13.79	-45.8	-47.2	19.9	0.00e+00	0	42	0	1037041664	62	4419
2026-01-29 03:59:47.72	291.93	13.72	-45.9	-47.3	19.8	0.00e+00	0	42	0	1038090240	62	4471
2026-01-29 03:59:48.73	291.80	13.64	-45.9	-47.3	19.8	0.00e+00	0	42	0	1040187392	62	4476
2026-01-29 03:59:49.74	291.67	13.56	-45.9	-47.3	19.8	0.00e+00	0	42	0	1042284544	62	4478
2026-01-29 03:59:50.75	291.54	13.49	-46.0	-47.4	19.7	0.00e+00	0	42	0	1044381696	62	4528
2026-01-29 03:59:51.75	291.41	13.41	-46.1	-47.6	19.5	0.00e+00	0	42	0	1046478848	62	4619
2026-01-29 03:59:52.76	291.28	13.33	-46.1	-47.6	19.6	0.00e+00	0	42	0	1047527424	62	4608
2026-01-29 03:59:53.76	291.15	13.26	-46.1	-47.6	19.6	0.00e+00	0	42	0	1049624576	62	4605
2026-01-29 03:59:54.77	291.02	13.18	-46.2	-47.7	19.5	0.00e+00	0	42	0	1051721728	62	4652
2026-01-29 03:59:55.78	290.89	13.10	-46.2	-47.7	19.4	0.00e+00	0	42	0	1053818880	63	4434
2026-01-29 03:59:56.79	290.77	13.02	-46.3	-47.8	19.3	0.00e+00	0	42	0	1054867456	63	4474
2026-01-29 03:59:57.79	290.64	12.95	-46.3	-47.8	19.3	0.00e+00	0	42	0	1056964608	63	4475
2026-01-29 03:59:58.80	290.52	12.87	-46.3	-47.8	19.3	0.00e+00	0	42	0	1059061760	63	4480
2026-01-29 03:59:59.81	290.39	12.80	-46.3	-47.8	19.3	0.00e+00	0	42	0	1061158912	63	4475
2026-01-29 04:00:00.81	290.27	12.72	-46.4	-47.9	19.2	0.00e+00	0	42	0	1063256064	63	4518
2026-01-29 04:00:01.82	290.14	12.64	-46.3	-47.8	19.4	0.00e+00	0	42	0	1065353216	63	4455
2026-01-29 04:00:02.83	290.02	12.57	-46.3	-47.8	19.4	0.00e+00	0	42	0	1066401792	63	4456
2026-01-29 04:00:03.84	289.90	12.49	-46.2	-47.7	19.4	0.00e+00	0	42	0	1068498944	63	4404
2026-01-29 04:00:04.84	289.78	12.42	-46.2	-47.6	19.5	0.00e+00	0	42	0	1070596096	63	4388
2026-01-29 04:00:05.85	289.66	12.34	-46.2	-47.7	19.4	0.00e+00	0	42	0	1072693248	63	4412
2026-01-29 04:00:06.86	289.54	12.26	-46.3	-47.7	19.4	0.00e+00	0	42	0	1074790400	63	4437
2026-01-29 04:00:07.87	289.42	12.19	-46.3	-47.9	19.3	0.00e+00	0	42	0	1075838976	63	4494
2026-01-29 04:00:08.88	289.30	12.11	-46.4	-48.0	19.1	0.00e+00	0	42	0	1077936128	63	4554
2026-01-29 04:00:09.89	289.18	12.04	-46.4	-48.0	19.1	0.00e+00	0	42	0	1080033280	63	4559
2026-01-29 04:00:10.90	289.06	11.96	-46.5	-48.0	19.1	0.00e+00	0	42	0	1082130432	63	4579
2026-01-29 04:00:11.91	288.94	11.89	-46.6	-48.2	18.9	0.00e+00	0	42	0	1083179008	63	4692
2026-01-29 04:00:12.91	288.83	11.81	-46.6	-48.1	18.9	0.00e+00	0	42	0	1085276160	63	4642
2026-01-29 04:00:13.92	288.71	11.74	-46.6	-48.2	18.9	0.00e+00	0	42	0	1087373312	63	4671
2026-01-29 04:00:14.93	288.59	11.66	-46.6	-48.2	18.8	0.00e+00	0	42	0	1089470464	63	4690
2026-01-29 04:00:15.93	288.48	11.59	-46.6	-48.2	18.8	0.00e+00	0	42	0	1091567616	63	4688
2026-01-29 04:00:16.94	288.37	11.51	-46.6	-48.2	18.8	0.00e+00	0	42	0	1093664768	64	4417
2026-01-29 04:00:17.95	288.25	11.44	-46.6	-48.2	18.8	0.00e+00	0	42	0	1094713344	64	4435
2026-01-29 04:00:18.96	288.14	11.37	-46.7	-48.3	18.6	0.00e+00	0	42	0	1096810496	64	4472
2026-01-29 04:00:19.96	288.03	11.29	-46.7	-48.3	18.6	0.00e+00	0	42	0	1098907648	64	4482
2026-01-29 04:00:20.97	287.92	11.22	-46.8	-48.5	18.5	0.00e+00	0	42	0	1101004800	64	4589
2026-01-29 04:00:21.97	287.80	11.14	-46.9	-48.6	18.3	0.00e+00	0	42	0	1103101952	64	4632
2026-01-29 04:00:22.98	287.69	11.07	-47.0	-48.7	18.2	0.00e+00	0	42	0	1104150528	64	4679
2026-01-29 04:00:23.99	287.58	11.00	-47.0	-48.8	18.1	0.00e+00	0	42	0	1106247680	64	4716
2026-01-29 04:00:25.00	287.47	10.92	-47.0	-48.8	18.1	0.00e+00	0	42	0	1108344832	64	4747
2026-01-29 04:00:26.00	287.37	10.85	-47.1	-48.9	18.0	0.00e+00	0	42	0	1110441984	64	4807
2026-01-29 04:00:27.01	287.26	10.78	-47.1	-48.9	18.0	0.00e+00	0	42	0	1112539136	64	4799
2026-01-29 04:00:28.02	287.15	10.70	-47.3	-49.1	17.7	0.00e+00	0	42	0	1113587712	65	4640
2026-01-29 04:00:29.03	287.04	10.63	-47.2	-49.1	17.7	0.00e+00	0	42	0	1115684864	65	4629
2026-01-29 04:00:30.03	286.94	10.56	-47.2	-49.0	17.8	0.00e+00	0	42	0	1117782016	65	4597
2026-01-29 04:00:31.04	286.83	10.48	-47.1	-49.0	17.8	0.00e+00	0	42	0	1119879168	65	4563
2026-01-29 04:00:32.04	286.72	10.41	-47.3	-49.1	17.7	0.00e+00	0	42	0	1121976320	65	4638
2026-01-29 04:00:33.05	286.62	10.34	-47.3	-49.1	17.7	0.00e+00	0	42	0	1123024896	65	4646
2026-01-29 04:00:34.05	286.51	10.27	-47.2	-49.0	17.7	0.00e+00	0	42	0	1125122048	65	4586
2026-01-29 04:00:35.06	286.41	10.20	-47.3	-49.2	17.6	0.00e+00	0	42	0	1127219200	65	4655
2026-01-29 04:00:36.07	286.31	10.12	-47.3	-49.2	17.6	0.00e+00	0	42	0	1129316352	65	4696
2026-01-29 04:00:37.08	286.20	10.05	-47.3	-49.2	17.6	0.00e+00	0	42	0	1131413504	65	4653
2026-01-29 04:00:38.09	286.10	9.98	-47.3	-49.2	17.6	0.00e+00	0	42	0	1132462080	65	4670
2026-01-29 04:00:39.09	286.00	9.91	-47.3	-49.2	17.6	0.00e+00	0	42	0	1134559232	65	4661
2026-01-29 04:00:40.10	285.90	9.83	-47.4	-49.3	17.5	0.00e+00	0	42	0	1136656384	65	4720
2026-01-29 04:00:41.10	285.80	9.76	-47.3	-49.2	17.5	0.00e+00	0	42	0	1138753536	65	4703
2026-01-29 04:00:42.11	285.70	9.69	-47.3	-49.2	17.5	0.00e+00	0	42	0	1140850688	65	4701
2026-01-29 04:00:43.12	285.60	9.62	-47.3	-49.2	17.5	0.00e+00	0	42	0	1141899264	65	4682
2026-01-29 04:00:44.13	285.50	9.55	-47.3	-49.2	17.5	0.00e+00	0	42	0	1143996416	65	4684
2026-01-29 04:00:45.13	285.40	9.48	-47.2	-49.1	17.6	0.00e+00	0	42	0	1146093568	65	4602
2026-01-29 04:00:46.14	285.30	9.41	-47.2	-49.2	17.5	0.00e+00	0	42	0	1148190720	65	4654
2026-01-29 04:00:47.15	285.20	9.34	-47.2	-49.1	17.5	0.00e+00	0	42	0	1150287872	65	4633
2026-01-29 04:00:48.15	285.10	9.27	-47.1	-49.0	17.7	0.00e+00	0	42	0	1151336448	65	4564
2026-01-29 04:00:49.16	285.01	9.19	-47.2	-49.2	17.5	0.00e+00	0	42	0	1153433600	65	4660
2026-01-29 04:00:50.17	284.91	9.12	-47.3	-49.3	17.3	0.00e+00	0	42	0	1155530752	65	4739
2026-01-29 04:00:51.18	284.81	9.05	-47.3	-49.3	17.4	0.00e+00	0	42	0	1157627904	65	4722
2026-01-29 04:00:52.18	284.72	8.98	-47.2	-49.1	17.5	0.00e+00	0	42	0	1159725056	65	4640
2026-01-29 04:00:53.19	284.62	8.91	-47.3	-49.2	17.4	0.00e+00	0	42	0	1160773632	65	4680
2026-01-29 04:00:54.20	284.53	8.84	-47.4	-49.4	17.2	0.00e+00	0	42	0	1162870784	65	4769
2026-01-29 04:00:55.20	284.44	8.77	-47.3	-49.3	17.3	0.00e+00	0	42	0	1164967936	65	4744
2026-01-29 04:00:56.21	284.34	8.70	-47.5	-49.5	17.1	0.00e+00	0	42	0	1167065088	65	4838
2026-01-29 04:00:57.22	284.25	8.63	-47.6	-49.6	16.9	0.00e+00	0	42	0	1169162240	65	4926
2026-01-29 04:00:58.23	284.16	8.56	-47.6	-49.7	16.8	0.00e+00	0	42	0	1170210816	65	4979
2026-01-29 04:00:59.23	284.06	8.49	-47.6	-49.7	16.8	0.00e+00	0	42	0	1172307968	65	4971
2026-01-29 04:01:00.24	283.97	8.43	-47.8	-49.9	16.6	0.00e+00	0	42	0	1174405120	66	4797
2026-01-29 04:01:01.25	283.88	8.36	-47.7	-49.9	16.7	0.00e+00	0	42	0	1176502272	66	4775
2026-01-29 04:01:02.26	283.79	8.29	-47.7	-49.8	16.7	0.00e+00	0	42	0	1178599424	66	4731
2026-01-29 04:01:03.27	283.70	8.22	-47.8	-50.0	16.5	0.00e+00	0	42	0	1179648000	66	4829
2026-01-29 04:01:04.27	283.61	8.15	-47.8	-50.0	16.5	0.00e+00	0	42	0	1181745152	66	4870
2026-01-29 04:01:05.28	283.52	8.08	-47.7	-49.9	16.6	0.00e+00	0	42	0	1183842304	66	4778
2026-01-29 04:01:06.28	283.43	8.01	-47.9	-50.1	16.3	0.00e+00	0	42	0	1185939456	66	4920
2026-01-29 04:01:07.29	283.34	7.94	-47.8	-50.1	16.4	0.00e+00	0	42	0	1188036608	66	4888
2026-01-29 04:01:08.30	283.25	7.87	-47.9	-50.1	16.3	0.00e+00	0	42	0	1189085184	66	4925
2026-01-29 04:01:09.31	283.17	7.81	-47.8	-50.0	16.4	0.00e+00	0	42	0	1191182336	66	4857
2026-01-29 04:01:10.31	283.08	7.74	-47.7	-49.9	16.5	0.00e+00	0	42	0	1193279488	66	4807
2026-01-29 04:01:11.32	282.99	7.67	-47.9	-50.2	16.3	0.00e+00	0	42	0	1195376640	66	4928
2026-01-29 04:01:12.33	282.90	7.60	-48.0	-50.3	16.2	0.00e+00	0	42	0	1197473792	66	5006
2026-01-29 04:01:13.33	282.82	7.53	-48.0	-50.4	16.0	0.00e+00	0	42	0	1198522368	66	5089
2026-01-29 04:01:14.34	282.73	7.47	-48.2	-50.6	15.8	0.00e+00	0	42	0	1200619520	66	5186
2026-01-29 04:01:15.35	282.65	7.40	-48.1	-50.5	15.8	0.00e+00	0	42	0	1202716672	66	5147
2026-01-29 04:01:16.36	282.56	7.33	-48.2	-50.6	15.7	0.00e+00	0	42	0	1204813824	66	5211
2026-01-29 04:01:17.37	282.48	7.26	-48.3	-50.9	15.5	0.00e+00	0	42	0	1206910976	67	5042
2026-01-29 04:01:18.37	282.39	7.20	-48.3	-50.9	15.4	0.00e+00	0	42	0	1207959552	67	5070
