passes_logs/2026/01/29/R3.2S_Murmansk/R3.2S_Murmansk__20260129_075656_NOAA_21_JPSS-2_rec.log

#Pass ID: 20260129_075656_NOAA 21 (JPSS-2)
#Satellite: NOAA 21 (JPSS-2)
#Configuration: NOAA-21
#almurnet v.1.7.20251203
#Start time: 2026-01-29 07:57:56

#Version: 2.2.20231116
#Station: R3.2S_Murmansk
#Location: 33.079688 lon 68.888172 lat
#TLE: 1 54234U 22150A   26028.89828222  .00000145  00000+0  89569-4 0  9997
#TLE: 2 54234  98.7511 329.6308 0000927 198.8651 161.2491 14.19540676166783

#Time	Az	El	Level	Level2	SNR	BER	BlckErr	Temp	State	Recorded	gain1	gain2
2026-01-29 07:57:56.59	112.80	5.99	-52.9	-64.8	3.8	8.46e-01	0	41	0	0	76	15021
2026-01-29 07:57:57.58	112.76	6.06	-54.0	-66.9	3.8	1.49e+00	0	42	104	0	78	16971
2026-01-29 07:57:58.59	112.71	6.13	-54.1	-66.9	3.8	1.49e+00	0	42	104	0	78	17046
2026-01-29 07:57:59.60	112.66	6.20	-54.2	-67.0	3.8	1.49e+00	0	42	104	0	78	17132
2026-01-29 07:58:00.61	112.61	6.28	-54.2	-67.0	3.8	1.49e+00	0	42	104	0	79	16244
2026-01-29 07:58:01.61	112.57	6.35	-54.3	-67.1	3.8	1.49e+00	0	42	104	0	79	16355
2026-01-29 07:58:02.62	112.52	6.42	-54.3	-67.1	3.8	1.49e+00	0	42	104	0	79	16363
2026-01-29 07:58:03.63	112.47	6.49	-54.3	-67.1	3.8	1.49e+00	0	42	104	0	79	16402
2026-01-29 07:58:04.63	112.42	6.57	-54.4	-67.1	3.8	1.49e+00	0	42	104	0	79	16465
2026-01-29 07:58:05.64	112.37	6.64	-54.4	-67.2	3.8	1.49e+00	0	42	104	0	79	16576
2026-01-29 07:58:06.65	112.32	6.71	-54.4	-67.2	3.8	1.49e+00	0	42	104	0	79	16547
2026-01-29 07:58:07.65	112.27	6.79	-54.4	-67.2	3.8	1.49e+00	0	42	104	0	79	16554
2026-01-29 07:58:08.66	112.23	6.86	-54.4	-67.2	3.8	1.49e+00	0	42	104	0	79	16614
2026-01-29 07:58:09.67	112.18	6.93	-54.4	-67.2	3.8	1.49e+00	0	42	104	0	79	16672
2026-01-29 07:58:10.67	112.13	7.01	-54.4	-67.2	3.8	1.49e+00	0	42	104	0	79	16610
2026-01-29 07:58:11.68	112.08	7.08	-54.4	-67.2	3.8	1.49e+00	0	42	104	0	79	16598
2026-01-29 07:58:12.69	112.02	7.16	-54.4	-67.2	3.8	1.49e+00	0	42	104	0	79	16617
2026-01-29 07:58:13.70	111.97	7.23	-54.4	-67.2	3.8	1.49e+00	0	42	104	0	79	16642
2026-01-29 07:58:14.71	111.92	7.31	-54.4	-67.2	3.8	1.49e+00	0	42	104	0	79	16552
2026-01-29 07:58:15.72	111.87	7.38	-54.4	-67.2	3.8	1.49e+00	0	42	104	0	79	16531
2026-01-29 07:58:16.73	111.82	7.46	-54.4	-67.2	3.8	1.49e+00	0	42	104	0	79	16506
2026-01-29 07:58:17.73	111.77	7.53	-54.4	-67.2	3.8	1.49e+00	0	42	104	0	79	16523
2026-01-29 07:58:18.74	111.72	7.61	-54.3	-67.1	3.8	1.49e+00	0	42	104	0	79	16429
2026-01-29 07:58:19.75	111.66	7.68	-54.3	-67.1	3.8	1.49e+00	0	42	104	0	79	16434
2026-01-29 07:58:20.76	111.61	7.76	-54.3	-67.1	3.8	1.49e+00	0	42	104	0	79	16424
2026-01-29 07:58:21.77	111.56	7.83	-54.3	-67.1	3.8	1.49e+00	0	42	104	0	79	16419
2026-01-29 07:58:22.77	111.50	7.91	-54.3	-67.1	3.8	1.49e+00	0	42	104	0	79	16347
2026-01-29 07:58:23.78	111.45	7.99	-54.2	-67.0	3.8	1.49e+00	0	42	104	0	79	16257
2026-01-29 07:58:24.79	111.40	8.06	-54.2	-67.0	3.8	1.49e+00	0	42	104	0	79	16172
2026-01-29 07:58:25.80	111.34	8.14	-54.2	-67.0	3.8	1.49e+00	0	42	104	0	79	16183
2026-01-29 07:58:26.80	111.29	8.22	-54.2	-67.0	3.8	1.49e+00	0	42	104	0	79	16179
2026-01-29 07:58:27.81	111.23	8.30	-54.2	-67.0	3.8	1.49e+00	0	42	104	0	79	16188
2026-01-29 07:58:28.82	111.18	8.37	-54.2	-67.0	3.8	1.49e+00	0	42	104	0	79	16225
2026-01-29 07:58:29.83	111.12	8.45	-54.2	-67.0	3.8	1.49e+00	0	42	104	0	79	16265
2026-01-29 07:58:30.84	111.07	8.53	-54.3	-67.1	3.8	1.49e+00	0	42	104	0	79	16333
2026-01-29 07:58:31.85	111.01	8.61	-54.2	-67.0	3.8	1.49e+00	0	42	104	0	79	16257
2026-01-29 07:58:32.85	110.95	8.69	-54.2	-67.0	3.8	1.49e+00	0	42	104	0	79	16191
2026-01-29 07:58:33.86	110.90	8.76	-54.2	-67.0	3.8	1.49e+00	0	42	104	0	79	16136
2026-01-29 07:58:34.87	110.84	8.84	-54.2	-67.0	3.8	1.49e+00	0	42	104	0	79	16140
2026-01-29 07:58:35.88	110.78	8.92	-54.2	-67.0	3.8	1.49e+00	0	42	104	0	79	16168
2026-01-29 07:58:36.89	110.72	9.00	-54.2	-67.0	3.8	1.49e+00	0	42	104	0	79	16153
2026-01-29 07:58:37.89	110.67	9.08	-54.2	-66.9	3.8	1.49e+00	0	42	104	0	79	16109
2026-01-29 07:58:38.90	110.61	9.16	-54.1	-66.9	3.8	1.49e+00	0	42	104	0	79	16098
2026-01-29 07:58:39.91	110.55	9.24	-54.1	-66.9	3.8	1.49e+00	0	42	104	0	79	16077
2026-01-29 07:58:40.91	110.49	9.32	-54.1	-66.9	3.8	1.49e+00	0	42	104	0	79	16051
2026-01-29 07:58:41.92	110.43	9.40	-54.1	-66.9	3.8	1.49e+00	0	42	104	0	79	16037
2026-01-29 07:58:42.93	110.37	9.48	-54.1	-66.9	3.8	1.49e+00	0	42	104	0	79	15987
2026-01-29 07:58:43.93	110.31	9.56	-54.1	-66.9	3.8	1.49e+00	0	42	104	0	79	15978
2026-01-29 07:58:44.94	110.25	9.64	-54.1	-66.9	3.8	1.49e+00	0	42	104	0	79	15983
2026-01-29 07:58:45.95	110.19	9.73	-54.1	-66.9	3.8	1.49e+00	0	42	104	0	79	15977
2026-01-29 07:58:46.96	110.13	9.81	-54.1	-66.9	3.8	1.49e+00	0	42	104	0	79	15946
2026-01-29 07:58:47.97	110.07	9.89	-54.1	-66.8	3.8	1.49e+00	0	42	104	0	79	15927
2026-01-29 07:58:48.97	110.00	9.97	-54.1	-66.8	3.8	1.49e+00	0	42	104	0	79	15931
2026-01-29 07:58:49.98	109.94	10.05	-54.1	-66.8	3.8	1.49e+00	0	42	104	0	79	15907
2026-01-29 07:58:50.99	109.88	10.14	-54.0	-66.8	3.8	1.49e+00	0	42	104	0	79	15906
2026-01-29 07:58:51.99	109.82	10.22	-54.1	-66.8	3.8	1.49e+00	0	42	104	0	79	15906
2026-01-29 07:58:53.00	109.75	10.30	-54.2	-67.0	3.8	1.49e+00	0	42	104	0	79	16179
2026-01-29 07:58:54.01	109.69	10.38	-54.3	-67.1	3.8	1.49e+00	0	42	104	0	79	16333
2026-01-29 07:58:55.01	109.62	10.47	-54.3	-67.1	3.8	1.49e+00	0	42	104	0	79	16350
2026-01-29 07:58:56.02	109.56	10.55	-54.3	-67.0	3.8	1.49e+00	0	42	104	0	79	16291
2026-01-29 07:58:57.02	109.50	10.64	-54.2	-67.0	3.8	1.49e+00	0	42	104	0	79	16248
2026-01-29 07:58:58.03	109.43	10.72	-54.2	-67.0	3.8	1.49e+00	0	42	104	0	79	16136
2026-01-29 07:58:59.04	109.36	10.80	-54.1	-66.9	3.8	1.49e+00	0	42	104	0	79	16082
2026-01-29 07:59:00.05	109.30	10.89	-54.1	-66.9	3.8	1.49e+00	0	42	104	0	79	15975
2026-01-29 07:59:01.06	109.23	10.97	-54.1	-66.9	3.8	1.49e+00	0	42	104	0	79	15969
2026-01-29 07:59:02.06	109.16	11.06	-54.1	-66.8	3.8	1.49e+00	0	42	104	0	79	15871
2026-01-29 07:59:03.07	109.10	11.14	-54.0	-66.8	3.8	1.49e+00	0	42	104	0	79	15825
2026-01-29 07:59:04.08	109.03	11.23	-54.0	-66.8	3.8	1.49e+00	0	42	104	0	79	15776
2026-01-29 07:59:05.09	108.96	11.32	-53.9	-66.7	3.8	1.49e+00	0	42	104	0	79	15676
2026-01-29 07:59:06.09	108.89	11.40	-53.9	-66.7	3.8	1.49e+00	0	42	104	0	79	15640
2026-01-29 07:59:07.10	108.82	11.49	-53.9	-66.6	3.8	1.49e+00	0	42	104	0	79	15556
2026-01-29 07:59:08.11	108.75	11.58	-53.8	-66.6	3.8	1.49e+00	0	42	104	0	79	15445
2026-01-29 07:59:09.12	108.68	11.66	-53.8	-66.6	3.8	1.49e+00	0	42	104	0	79	15462
2026-01-29 07:59:10.13	108.61	11.75	-53.8	-66.5	3.8	1.49e+00	0	42	104	0	79	15347
2026-01-29 07:59:11.13	108.54	11.84	-53.7	-66.5	3.8	1.49e+00	0	42	104	0	79	15326
2026-01-29 07:59:12.14	108.47	11.93	-53.7	-66.5	3.8	1.49e+00	0	42	104	0	79	15234
2026-01-29 07:59:13.15	108.40	12.01	-53.6	-66.4	3.8	1.49e+00	0	42	104	0	79	15139
2026-01-29 07:59:14.16	108.33	12.10	-53.6	-66.3	3.8	1.49e+00	0	42	104	0	79	15017
2026-01-29 07:59:15.16	108.26	12.19	-53.5	-66.3	3.8	1.49e+00	0	42	104	0	79	14957
2026-01-29 07:59:16.17	108.18	12.28	-53.4	-66.1	3.8	1.49e+00	0	42	104	0	78	15409
2026-01-29 07:59:17.17	108.11	12.37	-53.4	-66.1	3.8	1.49e+00	0	42	104	0	78	15408
2026-01-29 07:59:18.18	108.03	12.46	-53.3	-66.0	3.8	1.49e+00	0	42	104	0	78	15296
2026-01-29 07:59:19.18	107.96	12.55	-53.2	-65.7	3.8	1.49e+00	0	42	104	0	78	14840
2026-01-29 07:59:20.19	107.89	12.64	-45.1	-46.2	17.8	3.62e-01	0	42	104	0	62	3949
2026-01-29 07:59:21.20	107.81	12.73	-44.2	-45.2	19.5	0.00e+00	0	42	0	3145728	59	4160
2026-01-29 07:59:22.21	107.73	12.82	-44.1	-45.1	19.6	0.00e+00	0	42	0	6291456	59	4131
2026-01-29 07:59:23.22	107.66	12.91	-46.0	-47.4	17.0	0.00e+00	0	42	0	9437184	64	4050
2026-01-29 07:59:24.23	107.58	13.00	-47.6	-49.5	15.2	0.00e+00	0	42	0	12582912	67	4307
2026-01-29 07:59:25.24	107.50	13.09	-49.8	-52.8	11.7	4.58e-02	0	42	0	15728640	71	5031
2026-01-29 07:59:26.24	107.43	13.19	-44.3	-45.4	19.4	0.00e+00	0	42	0	18874368	59	4247
2026-01-29 07:59:27.25	107.35	13.28	-43.7	-44.7	20.1	0.00e+00	0	42	0	20971520	59	3915
2026-01-29 07:59:28.25	107.27	13.37	-43.5	-44.5	20.2	0.00e+00	0	42	0	24117248	59	3833
2026-01-29 07:59:29.26	107.19	13.46	-43.4	-44.4	20.4	0.00e+00	0	42	0	27262976	58	4016
2026-01-29 07:59:30.27	107.11	13.56	-43.5	-44.5	20.3	0.00e+00	0	42	0	30408704	58	4062
2026-01-29 07:59:31.28	107.03	13.65	-43.3	-44.3	20.5	0.00e+00	0	42	0	33554432	58	3986
2026-01-29 07:59:32.28	106.95	13.74	-43.4	-44.3	20.4	0.00e+00	0	42	0	36700160	58	3998
2026-01-29 07:59:33.28	106.87	13.84	-43.2	-44.1	20.6	0.00e+00	0	42	0	39845888	58	3887
2026-01-29 07:59:34.29	106.79	13.93	-43.1	-44.0	20.7	0.00e+00	0	42	0	44040192	58	3842
2026-01-29 07:59:35.30	106.70	14.02	-43.2	-44.2	20.6	0.00e+00	0	42	0	47185920	58	3915
2026-01-29 07:59:36.31	106.62	14.12	-43.0	-43.9	20.8	0.00e+00	0	42	0	50331648	58	3804
2026-01-29 07:59:37.31	106.54	14.21	-43.1	-44.0	20.7	0.00e+00	0	42	0	53477376	58	3865
2026-01-29 07:59:38.31	106.45	14.31	-43.1	-44.0	20.7	0.00e+00	0	42	0	56623104	58	3862
2026-01-29 07:59:39.32	106.37	14.40	-42.9	-43.9	20.8	0.00e+00	0	42	0	59768832	57	4006
2026-01-29 07:59:40.33	106.28	14.50	-43.1	-44.0	20.7	0.00e+00	0	42	0	62914560	57	4084
2026-01-29 07:59:41.34	106.20	14.60	-43.0	-44.0	20.7	0.00e+00	0	42	0	66060288	57	4062
2026-01-29 07:59:42.34	106.11	14.69	-43.1	-44.1	20.6	0.00e+00	0	42	0	68157440	57	4114
2026-01-29 07:59:43.35	106.02	14.79	-43.1	-44.0	20.7	0.00e+00	0	42	0	71303168	57	4076
2026-01-29 07:59:44.36	105.94	14.89	-43.0	-44.0	20.7	0.00e+00	0	42	0	74448896	57	4059
2026-01-29 07:59:45.36	105.85	14.99	-43.1	-44.1	20.7	0.00e+00	0	42	0	77594624	57	4103
2026-01-29 07:59:46.37	105.76	15.08	-43.0	-44.0	20.7	0.00e+00	0	42	0	80740352	57	4063
2026-01-29 07:59:47.38	105.67	15.18	-43.0	-43.9	20.7	0.00e+00	0	42	0	83886080	57	4042
2026-01-29 07:59:48.39	105.58	15.28	-43.0	-43.9	20.7	0.00e+00	0	42	0	88080384	57	4049
2026-01-29 07:59:49.40	105.49	15.38	-43.0	-43.9	20.8	0.00e+00	0	42	0	91226112	57	4014
2026-01-29 07:59:50.40	105.40	15.48	-43.1	-44.0	20.7	0.00e+00	0	42	0	94371840	57	4079
2026-01-29 07:59:51.41	105.31	15.58	-43.2	-44.2	20.5	0.00e+00	0	42	0	97517568	57	4146
2026-01-29 07:59:52.42	105.21	15.68	-43.1	-44.1	20.6	0.00e+00	0	42	0	100663296	57	4104
2026-01-29 07:59:53.43	105.12	15.78	-43.2	-44.2	20.5	0.00e+00	0	42	0	103809024	57	4162
2026-01-29 07:59:54.44	105.03	15.88	-43.2	-44.1	20.6	0.00e+00	0	42	0	106954752	57	4136
2026-01-29 07:59:55.45	104.93	15.98	-43.2	-44.1	20.6	0.00e+00	0	42	0	110100480	57	4141
2026-01-29 07:59:56.46	104.84	16.08	-43.3	-44.2	20.5	0.00e+00	0	42	0	113246208	57	4178
2026-01-29 07:59:57.47	104.74	16.18	-43.2	-44.1	20.6	0.00e+00	0	42	0	115343360	57	4120
2026-01-29 07:59:58.48	104.64	16.29	-43.2	-44.1	20.6	0.00e+00	0	42	0	118489088	57	4136
2026-01-29 07:59:59.49	104.55	16.39	-43.1	-44.0	20.7	0.00e+00	0	42	0	121634816	57	4097
2026-01-29 08:00:00.50	104.45	16.49	-43.2	-44.1	20.6	0.00e+00	0	42	0	125829120	57	4143
2026-01-29 08:00:01.51	104.35	16.59	-43.1	-44.0	20.7	0.00e+00	0	42	0	128974848	57	4083
2026-01-29 08:00:02.51	104.25	16.70	-43.1	-44.1	20.7	0.00e+00	0	42	0	132120576	57	4109
2026-01-29 08:00:03.52	104.15	16.80	-43.2	-44.1	20.6	0.00e+00	0	42	0	135266304	57	4143
2026-01-29 08:00:04.53	104.05	16.91	-43.1	-44.0	20.7	0.00e+00	0	42	0	138412032	57	4083
2026-01-29 08:00:05.54	103.95	17.01	-43.2	-44.1	20.6	0.00e+00	0	42	0	141557760	57	4125
2026-01-29 08:00:06.55	103.84	17.12	-43.3	-44.3	20.4	0.00e+00	0	42	0	144703488	57	4204
2026-01-29 08:00:07.55	103.74	17.22	-43.2	-44.2	20.6	0.00e+00	0	42	0	147849216	57	4157
2026-01-29 08:00:08.56	103.64	17.33	-43.3	-44.3	20.5	0.00e+00	0	42	0	150994944	57	4220
2026-01-29 08:00:09.57	103.53	17.43	-43.2	-44.1	20.6	0.00e+00	0	42	0	154140672	57	4145
2026-01-29 08:00:10.58	103.43	17.54	-43.3	-44.3	20.5	0.00e+00	0	42	0	157286400	57	4194
2026-01-29 08:00:11.59	103.32	17.64	-43.3	-44.2	20.5	0.00e+00	0	42	0	160432128	57	4172
2026-01-29 08:00:12.59	103.22	17.75	-43.3	-44.3	20.4	0.00e+00	0	42	0	163577856	57	4209
2026-01-29 08:00:13.60	103.11	17.86	-43.4	-44.3	20.4	0.00e+00	0	42	0	166723584	57	4231
2026-01-29 08:00:14.61	103.00	17.97	-43.2	-44.2	20.5	0.00e+00	0	42	0	169869312	57	4158
2026-01-29 08:00:15.62	102.89	18.07	-43.3	-44.3	20.5	0.00e+00	0	42	0	173015040	57	4197
2026-01-29 08:00:16.63	102.78	18.18	-43.3	-44.3	20.5	0.00e+00	0	42	0	176160768	57	4210
2026-01-29 08:00:17.63	102.67	18.29	-43.2	-44.2	20.5	0.00e+00	0	42	0	179306496	57	4164
2026-01-29 08:00:18.64	102.56	18.40	-43.3	-44.2	20.5	0.00e+00	0	42	0	182452224	57	4189
2026-01-29 08:00:19.65	102.45	18.51	-43.2	-44.2	20.6	0.00e+00	0	42	0	185597952	57	4159
2026-01-29 08:00:20.66	102.33	18.62	-43.1	-44.0	20.7	0.00e+00	0	42	0	188743680	57	4078
2026-01-29 08:00:21.67	102.22	18.73	-43.0	-43.9	20.8	0.00e+00	0	42	0	191889408	57	4034
2026-01-29 08:00:22.67	102.11	18.84	-43.0	-44.0	20.8	0.00e+00	0	42	0	195035136	57	4062
2026-01-29 08:00:23.68	101.99	18.95	-43.0	-43.9	20.7	0.00e+00	0	42	0	198180864	57	4050
2026-01-29 08:00:24.69	101.87	19.06	-43.0	-43.9	20.8	0.00e+00	0	42	0	201326592	57	4018
2026-01-29 08:00:25.69	101.76	19.17	-43.0	-44.0	20.8	0.00e+00	0	42	0	204472320	57	4059
2026-01-29 08:00:26.70	101.64	19.28	-42.8	-43.7	21.0	0.00e+00	0	42	0	207618048	57	3953
2026-01-29 08:00:27.71	101.52	19.40	-42.9	-43.8	20.9	0.00e+00	0	42	0	210763776	57	3979
2026-01-29 08:00:28.71	101.40	19.51	-42.7	-43.6	21.0	0.00e+00	0	42	0	213909504	57	3893
2026-01-29 08:00:29.72	101.28	19.62	-42.7	-43.6	21.0	0.00e+00	0	42	0	217055232	57	3881
2026-01-29 08:00:30.73	101.16	19.74	-42.7	-43.6	21.0	0.00e+00	0	42	0	220200960	57	3913
2026-01-29 08:00:31.73	101.04	19.85	-42.8	-43.7	20.9	0.00e+00	0	42	0	223346688	57	3936
2026-01-29 08:00:32.74	100.91	19.96	-42.8	-43.7	20.9	0.00e+00	0	42	0	226492416	57	3942
2026-01-29 08:00:33.74	100.79	20.08	-42.8	-43.7	20.9	0.00e+00	0	42	0	229638144	57	3928
2026-01-29 08:00:34.75	100.66	20.19	-42.6	-43.5	21.1	0.00e+00	0	42	0	232783872	57	3863
2026-01-29 08:00:35.76	100.54	20.31	-42.5	-43.4	21.2	0.00e+00	0	42	0	235929600	56	4022
2026-01-29 08:00:36.77	100.41	20.42	-42.5	-43.4	21.2	0.00e+00	0	42	0	239075328	56	4036
2026-01-29 08:00:37.78	100.28	20.54	-42.5	-43.4	21.2	0.00e+00	0	42	0	242221056	56	4028
2026-01-29 08:00:38.79	100.15	20.66	-42.4	-43.3	21.4	0.00e+00	0	42	0	245366784	56	3967
2026-01-29 08:00:39.79	100.02	20.77	-42.3	-43.1	21.5	0.00e+00	0	42	0	248512512	56	3906
2026-01-29 08:00:40.80	99.89	20.89	-42.3	-43.1	21.6	0.00e+00	0	42	0	251658240	56	3897
2026-01-29 08:00:41.80	99.76	21.01	-42.1	-42.9	21.7	0.00e+00	0	42	0	254803968	56	3815
2026-01-29 08:00:42.81	99.62	21.13	-41.8	-42.7	21.9	0.00e+00	0	42	0	257949696	55	3919
2026-01-29 08:00:43.82	99.49	21.24	-42.0	-42.8	21.7	0.00e+00	0	42	0	261095424	55	4003
2026-01-29 08:00:44.82	99.35	21.36	-41.8	-42.6	21.9	0.00e+00	0	42	0	264241152	55	3904
2026-01-29 08:00:45.83	99.22	21.48	-41.7	-42.6	21.9	0.00e+00	0	42	0	267386880	55	3869
2026-01-29 08:00:46.83	99.08	21.60	-41.8	-42.6	21.8	0.00e+00	0	42	0	270532608	55	3894
2026-01-29 08:00:47.84	98.94	21.72	-41.7	-42.5	21.9	0.00e+00	0	42	0	273678336	55	3841
2026-01-29 08:00:48.85	98.80	21.84	-41.5	-42.3	22.0	0.00e+00	0	42	0	276824064	55	3774
2026-01-29 08:00:49.86	98.66	21.96	-41.6	-42.5	21.9	0.00e+00	0	42	0	279969792	55	3831
2026-01-29 08:00:50.86	98.52	22.08	-41.6	-42.4	22.0	0.00e+00	0	42	0	283115520	55	3794
2026-01-29 08:00:51.87	98.37	22.20	-41.5	-42.3	22.1	0.00e+00	0	42	0	286261248	54	3989
2026-01-29 08:00:52.88	98.23	22.33	-41.6	-42.4	22.1	0.00e+00	0	42	0	289406976	54	4015
2026-01-29 08:00:53.89	98.08	22.45	-41.5	-42.3	22.1	0.00e+00	0	42	0	292552704	54	3995
2026-01-29 08:00:54.90	97.93	22.57	-41.5	-42.4	22.1	0.00e+00	0	42	0	295698432	54	4005
2026-01-29 08:00:55.90	97.79	22.69	-41.4	-42.2	22.3	0.00e+00	0	42	0	298844160	54	3914
2026-01-29 08:00:56.91	97.64	22.82	-41.4	-42.2	22.3	0.00e+00	0	42	0	301989888	54	3919
2026-01-29 08:00:57.91	97.49	22.94	-41.4	-42.2	22.3	0.00e+00	0	42	0	305135616	54	3916
2026-01-29 08:00:58.92	97.34	23.06	-41.3	-42.1	22.3	0.00e+00	0	42	0	308281344	54	3897
2026-01-29 08:00:59.93	97.18	23.19	-41.5	-42.3	22.2	0.00e+00	0	42	0	311427072	54	3965
2026-01-29 08:01:00.94	97.03	23.31	-41.3	-42.1	22.4	0.00e+00	0	42	0	314572800	54	3881
2026-01-29 08:01:01.95	96.87	23.44	-41.3	-42.1	22.3	0.00e+00	0	42	0	317718528	54	3882
2026-01-29 08:01:02.96	96.72	23.57	-41.4	-42.2	22.2	0.00e+00	0	42	0	320864256	54	3933
2026-01-29 08:01:03.97	96.56	23.69	-41.4	-42.2	22.2	0.00e+00	0	42	0	324009984	54	3957
2026-01-29 08:01:04.97	96.40	23.82	-41.4	-42.2	22.2	0.00e+00	0	42	0	327155712	54	3941
2026-01-29 08:01:05.98	96.24	23.94	-41.5	-42.3	22.2	0.00e+00	0	42	0	330301440	54	3992
2026-01-29 08:01:06.99	96.08	24.07	-41.5	-42.3	22.2	0.00e+00	0	42	0	333447168	54	3988
2026-01-29 08:01:07.99	95.91	24.20	-41.5	-42.3	22.2	0.00e+00	0	42	0	336592896	54	3980
2026-01-29 08:01:09.00	95.75	24.33	-41.6	-42.4	22.1	0.00e+00	0	42	0	339738624	54	4039
2026-01-29 08:01:10.01	95.58	24.46	-41.5	-42.3	22.2	0.00e+00	0	42	0	342884352	54	3993
2026-01-29 08:01:11.01	95.42	24.58	-41.5	-42.3	22.2	0.00e+00	0	42	0	346030080	54	3983
2026-01-29 08:01:12.01	95.25	24.71	-41.6	-42.4	22.1	0.00e+00	0	42	0	349175808	54	4036
2026-01-29 08:01:13.02	95.08	24.84	-41.8	-42.6	21.9	0.00e+00	0	42	0	352321536	54	4122
2026-01-29 08:01:14.03	94.91	24.97	-41.9	-42.7	21.9	0.00e+00	0	42	0	355467264	54	4170
2026-01-29 08:01:15.04	94.73	25.10	-42.0	-42.9	21.7	0.00e+00	0	42	0	358612992	54	4256
2026-01-29 08:01:16.05	94.56	25.23	-42.1	-43.0	21.6	0.00e+00	0	42	0	361758720	54	4299
2026-01-29 08:01:17.05	94.38	25.36	-42.2	-43.1	21.6	0.00e+00	0	42	0	364904448	54	4343
2026-01-29 08:01:18.06	94.21	25.49	-42.3	-43.2	21.5	0.00e+00	0	42	0	368050176	55	4155
2026-01-29 08:01:19.07	94.03	25.62	-42.4	-43.2	21.4	0.00e+00	0	42	0	371195904	55	4178
2026-01-29 08:01:20.08	93.85	25.76	-42.4	-43.3	21.4	0.00e+00	0	42	0	374341632	55	4195
2026-01-29 08:01:21.08	93.67	25.89	-42.5	-43.4	21.2	0.00e+00	0	42	0	377487360	55	4255
2026-01-29 08:01:22.09	93.48	26.02	-42.6	-43.5	21.2	0.00e+00	0	42	0	380633088	55	4314
2026-01-29 08:01:23.10	93.30	26.15	-42.7	-43.6	21.0	0.00e+00	0	42	0	383778816	55	4376
2026-01-29 08:01:24.11	93.11	26.29	-42.9	-43.9	21.0	0.00e+00	0	42	0	386924544	56	4247
2026-01-29 08:01:25.12	92.92	26.42	-43.1	-44.0	20.9	0.00e+00	0	42	0	390070272	56	4322
2026-01-29 08:01:26.12	92.73	26.55	-43.1	-44.1	20.8	0.00e+00	0	42	0	393216000	56	4341
2026-01-29 08:01:27.13	92.54	26.69	-43.1	-44.0	20.8	0.00e+00	0	42	0	396361728	56	4323
2026-01-29 08:01:28.13	92.35	26.82	-43.0	-43.9	21.0	0.00e+00	0	42	0	399507456	56	4277
2026-01-29 08:01:29.14	92.15	26.95	-42.9	-43.8	21.0	0.00e+00	0	42	0	402653184	56	4234
2026-01-29 08:01:30.15	91.96	27.09	-42.8	-43.7	21.1	0.00e+00	0	41	0	405798912	56	4173
2026-01-29 08:01:31.16	91.76	27.22	-42.6	-43.5	21.2	0.00e+00	0	42	0	408944640	56	4083
2026-01-29 08:01:32.16	91.56	27.36	-42.7	-43.6	21.1	0.00e+00	0	42	0	412090368	56	4102
2026-01-29 08:01:33.17	91.36	27.50	-42.8	-43.7	21.0	0.00e+00	0	42	0	415236096	56	4192
2026-01-29 08:01:34.17	91.16	27.63	-42.8	-43.7	21.1	0.00e+00	0	42	0	418381824	56	4155
2026-01-29 08:01:35.18	90.95	27.77	-42.8	-43.8	21.0	0.00e+00	0	42	0	421527552	56	4204
2026-01-29 08:01:36.18	90.75	27.90	-43.0	-43.9	20.9	0.00e+00	0	42	0	424673280	56	4261
2026-01-29 08:01:37.19	90.54	28.04	-42.8	-43.8	21.1	0.00e+00	0	42	0	427819008	56	4196
2026-01-29 08:01:38.20	90.33	28.18	-42.8	-43.7	21.1	0.00e+00	0	42	0	430964736	56	4176
2026-01-29 08:01:39.21	90.11	28.31	-42.8	-43.7	21.1	0.00e+00	0	42	0	434110464	56	4186
2026-01-29 08:01:40.22	89.90	28.45	-42.8	-43.6	21.2	0.00e+00	0	42	0	437256192	56	4143
2026-01-29 08:01:41.22	89.68	28.59	-42.7	-43.5	21.3	0.00e+00	0	42	0	440401920	56	4089
2026-01-29 08:01:42.23	89.47	28.73	-42.5	-43.4	21.4	0.00e+00	0	42	0	443547648	56	4032
2026-01-29 08:01:43.24	89.25	28.86	-42.7	-43.6	21.1	0.00e+00	0	42	0	446693376	56	4122
2026-01-29 08:01:44.25	89.02	29.00	-42.6	-43.4	21.3	0.00e+00	0	42	0	449839104	56	4044
2026-01-29 08:01:45.25	88.80	29.14	-42.6	-43.5	21.1	0.00e+00	0	42	0	452984832	56	4092
2026-01-29 08:01:46.26	88.58	29.28	-42.8	-43.7	20.9	0.00e+00	0	42	0	456130560	56	4166
2026-01-29 08:01:47.27	88.35	29.42	-42.6	-43.5	21.1	0.00e+00	0	42	0	459276288	56	4074
2026-01-29 08:01:48.28	88.12	29.56	-42.7	-43.6	21.1	0.00e+00	0	42	0	462422016	56	4104
2026-01-29 08:01:49.29	87.89	29.70	-42.6	-43.5	21.2	0.00e+00	0	42	0	465567744	56	4068
2026-01-29 08:01:50.30	87.65	29.84	-42.5	-43.4	21.3	0.00e+00	0	42	0	468713472	56	4022
2026-01-29 08:01:51.31	87.42	29.98	-42.4	-43.3	21.4	0.00e+00	0	42	0	471859200	56	3971
2026-01-29 08:01:52.32	87.18	30.12	-42.4	-43.3	21.5	0.00e+00	0	42	0	475004928	56	3966
2026-01-29 08:01:53.32	86.94	30.25	-42.5	-43.3	21.4	0.00e+00	0	42	0	478150656	56	4003
2026-01-29 08:01:54.33	86.70	30.39	-42.6	-43.4	21.3	0.00e+00	0	42	0	481296384	56	4046
2026-01-29 08:01:55.34	86.45	30.54	-42.6	-43.5	21.2	0.00e+00	0	42	0	484442112	56	4069
2026-01-29 08:01:56.35	86.21	30.68	-42.7	-43.6	21.2	0.00e+00	0	42	0	487587840	56	4105
2026-01-29 08:01:57.36	85.96	30.82	-42.7	-43.5	21.3	0.00e+00	0	42	0	490733568	56	4093
2026-01-29 08:01:58.37	85.71	30.96	-42.7	-43.6	21.2	0.00e+00	0	42	0	493879296	56	4138
2026-01-29 08:01:59.38	85.45	31.10	-42.8	-43.7	21.1	0.00e+00	0	42	0	497025024	56	4186
2026-01-29 08:02:00.39	85.20	31.24	-42.7	-43.6	21.2	0.00e+00	0	42	0	500170752	56	4118
2026-01-29 08:02:01.40	84.94	31.38	-42.7	-43.6	21.3	0.00e+00	0	42	0	503316480	56	4114
2026-01-29 08:02:02.41	84.68	31.52	-42.6	-43.4	21.4	0.00e+00	0	42	0	506462208	56	4048
2026-01-29 08:02:03.42	84.42	31.66	-42.5	-43.3	21.5	0.00e+00	0	42	0	509607936	56	4001
2026-01-29 08:02:04.43	84.15	31.80	-42.3	-43.1	21.7	0.00e+00	0	42	0	512753664	56	3905
2026-01-29 08:02:05.43	83.89	31.94	-42.3	-43.2	21.6	0.00e+00	0	42	0	515899392	56	3930
2026-01-29 08:02:06.44	83.62	32.08	-42.3	-43.1	21.7	0.00e+00	0	42	0	519045120	56	3907
2026-01-29 08:02:07.45	83.35	32.22	-42.4	-43.2	21.6	0.00e+00	0	42	0	522190848	56	3955
2026-01-29 08:02:08.46	83.07	32.36	-42.5	-43.3	21.6	0.00e+00	0	42	0	525336576	56	3984
2026-01-29 08:02:09.47	82.80	32.50	-42.5	-43.4	21.5	0.00e+00	0	42	0	528482304	56	4018
2026-01-29 08:02:10.48	82.52	32.64	-42.7	-43.5	21.4	0.00e+00	0	42	0	531628032	56	4094
2026-01-29 08:02:11.49	82.24	32.78	-42.7	-43.6	21.3	0.00e+00	0	42	0	534773760	56	4128
2026-01-29 08:02:12.50	81.95	32.92	-42.9	-43.8	21.1	0.00e+00	0	42	0	537919488	56	4223
2026-01-29 08:02:13.51	81.67	33.06	-43.2	-44.2	20.8	0.00e+00	0	41	0	541065216	57	4150
2026-01-29 08:02:14.52	81.38	33.20	-43.4	-44.4	20.6	0.00e+00	0	42	0	544210944	57	4249
2026-01-29 08:02:15.53	81.09	33.34	-43.5	-44.5	20.5	0.00e+00	0	42	0	547356672	57	4308
2026-01-29 08:02:16.54	80.80	33.47	-43.7	-44.7	20.3	0.00e+00	0	42	0	550502400	57	4414
2026-01-29 08:02:17.55	80.50	33.61	-43.8	-44.8	20.2	0.00e+00	0	42	0	553648128	58	4220
2026-01-29 08:02:18.56	80.20	33.75	-43.9	-44.9	20.2	0.00e+00	0	42	0	556793856	58	4253
2026-01-29 08:02:19.56	79.90	33.89	-44.1	-45.2	20.0	0.00e+00	0	42	0	559939584	58	4394
2026-01-29 08:02:20.57	79.60	34.03	-44.1	-45.1	20.0	0.00e+00	0	42	0	563085312	58	4363
2026-01-29 08:02:21.58	79.29	34.16	-44.0	-45.1	20.1	0.00e+00	0	42	0	566231040	58	4342
2026-01-29 08:02:22.59	78.98	34.30	-44.2	-45.3	19.9	0.00e+00	0	42	0	569376768	59	4210
2026-01-29 08:02:23.60	78.67	34.44	-44.4	-45.4	19.8	0.00e+00	0	42	0	572522496	59	4270
2026-01-29 08:02:24.60	78.36	34.57	-44.4	-45.4	19.8	0.00e+00	0	42	0	575668224	59	4270
2026-01-29 08:02:25.61	78.04	34.71	-44.3	-45.3	19.9	0.00e+00	0	42	0	578813952	59	4234
2026-01-29 08:02:26.62	77.72	34.85	-44.3	-45.3	19.9	0.00e+00	0	42	0	581959680	59	4211
2026-01-29 08:02:27.63	77.40	34.98	-44.4	-45.5	19.7	0.00e+00	0	42	0	585105408	59	4292
2026-01-29 08:02:28.63	77.08	35.11	-44.3	-45.3	19.9	0.00e+00	0	42	0	588251136	59	4206
2026-01-29 08:02:29.65	76.75	35.25	-44.2	-45.2	20.0	0.00e+00	0	42	0	591396864	59	4173
2026-01-29 08:02:30.65	76.42	35.38	-44.0	-45.0	20.1	0.00e+00	0	42	0	594542592	59	4063
2026-01-29 08:02:31.66	76.09	35.52	-44.1	-45.1	20.1	0.00e+00	0	42	0	597688320	59	4126
2026-01-29 08:02:32.67	75.75	35.65	-43.8	-44.7	20.4	0.00e+00	0	42	0	600834048	59	3957
2026-01-29 08:02:33.68	75.42	35.78	-43.7	-44.6	20.5	0.00e+00	0	42	0	603979776	59	3887
2026-01-29 08:02:34.69	75.07	35.91	-43.8	-44.8	20.3	0.00e+00	0	42	0	607125504	59	3990
2026-01-29 08:02:35.70	74.73	36.04	-43.6	-44.6	20.5	0.00e+00	0	42	0	610271232	59	3881
2026-01-29 08:02:36.71	74.38	36.17	-43.7	-44.6	20.5	0.00e+00	0	42	0	613416960	59	3900
2026-01-29 08:02:37.72	74.03	36.30	-43.6	-44.5	20.6	0.00e+00	0	42	0	616562688	59	3861
2026-01-29 08:02:38.72	73.69	36.43	-43.7	-44.6	20.4	0.00e+00	0	42	0	619708416	59	3912
2026-01-29 08:02:39.73	73.33	36.56	-43.9	-44.9	20.2	0.00e+00	0	42	0	622854144	59	4026
2026-01-29 08:02:40.74	72.97	36.68	-44.0	-45.0	20.1	0.00e+00	0	42	0	625999872	59	4055
2026-01-29 08:02:41.75	72.61	36.81	-44.2	-45.3	19.8	0.00e+00	0	42	0	629145600	59	4195
2026-01-29 08:02:42.75	72.25	36.94	-44.4	-45.4	19.7	0.00e+00	0	42	0	632291328	59	4288
2026-01-29 08:02:43.76	71.89	37.06	-44.4	-45.5	19.7	0.00e+00	0	42	0	635437056	59	4315
2026-01-29 08:02:44.77	71.52	37.18	-44.4	-45.5	19.7	0.00e+00	0	42	0	638582784	59	4317
2026-01-29 08:02:45.78	71.14	37.31	-44.4	-45.4	19.8	0.00e+00	0	42	0	641728512	59	4275
2026-01-29 08:02:46.79	70.77	37.43	-44.1	-45.1	20.0	0.00e+00	0	42	0	644874240	59	4122
2026-01-29 08:02:47.80	70.39	37.55	-43.9	-44.9	20.2	0.00e+00	0	42	0	648019968	59	4020
2026-01-29 08:02:48.80	70.02	37.67	-43.9	-44.9	20.3	0.00e+00	0	42	0	651165696	59	4012
2026-01-29 08:02:49.81	69.63	37.79	-43.7	-44.7	20.4	0.00e+00	0	42	0	654311424	59	3937
2026-01-29 08:02:50.82	69.25	37.91	-43.8	-44.8	20.4	0.00e+00	0	42	0	657457152	59	3961
2026-01-29 08:02:51.83	68.86	38.02	-43.7	-44.6	20.6	0.00e+00	0	42	0	660602880	59	3885
2026-01-29 08:02:52.84	68.47	38.14	-43.7	-44.7	20.5	0.00e+00	0	42	0	663748608	59	3931
2026-01-29 08:02:53.85	68.07	38.25	-44.0	-45.0	20.2	0.00e+00	0	42	0	666894336	59	4062
2026-01-29 08:02:54.86	67.67	38.37	-44.4	-45.4	19.8	0.00e+00	0	42	0	670040064	59	4277
2026-01-29 08:02:55.87	67.27	38.48	-44.5	-45.6	19.6	0.00e+00	0	42	0	673185792	59	4364
2026-01-29 08:02:56.87	66.88	38.59	-44.6	-45.7	19.5	0.00e+00	0	42	0	676331520	59	4414
2026-01-29 08:02:57.88	66.47	38.70	-44.3	-45.4	19.9	0.00e+00	0	42	0	679477248	59	4247
2026-01-29 08:02:58.89	66.06	38.81	-44.1	-45.1	20.0	0.00e+00	0	42	0	682622976	59	4143
2026-01-29 08:02:59.90	65.65	38.91	-44.0	-45.0	20.1	0.00e+00	0	42	0	685768704	59	4060
2026-01-29 08:03:00.90	65.24	39.02	-44.1	-45.1	19.9	0.00e+00	0	42	0	688914432	59	4136
2026-01-29 08:03:01.91	64.82	39.12	-44.6	-45.7	19.5	0.00e+00	0	42	0	692060160	59	4414
2026-01-29 08:03:02.91	64.41	39.22	-44.4	-45.4	19.4	0.00e+00	0	42	0	695205888	60	4044
2026-01-29 08:03:03.92	63.99	39.33	-44.5	-45.5	19.4	0.00e+00	0	42	0	698351616	60	4090
2026-01-29 08:03:04.93	63.56	39.43	-44.6	-45.6	19.3	0.00e+00	0	42	0	701497344	60	4132
2026-01-29 08:03:05.94	63.14	39.52	-44.7	-45.8	19.1	0.00e+00	0	42	0	704643072	60	4216
2026-01-29 08:03:06.95	62.71	39.62	-44.8	-46.0	18.9	0.00e+00	0	42	0	707788800	60	4293
2026-01-29 08:03:07.96	62.28	39.72	-45.0	-46.1	18.7	0.00e+00	0	42	0	710934528	60	4389
2026-01-29 08:03:08.97	61.84	39.81	-45.1	-46.3	18.6	0.00e+00	0	42	0	714080256	60	4462
2026-01-29 08:03:09.98	61.40	39.90	-45.1	-46.2	18.7	0.00e+00	0	42	0	717225984	60	4428
2026-01-29 08:03:10.99	60.97	39.99	-44.9	-46.0	18.9	0.00e+00	0	42	0	720371712	60	4326
2026-01-29 08:03:11.99	60.53	40.08	-44.5	-45.5	19.3	0.00e+00	0	42	0	723517440	60	4093
2026-01-29 08:03:13.00	60.08	40.17	-44.4	-45.5	19.4	0.00e+00	0	42	0	726663168	60	4059
2026-01-29 08:03:14.01	59.64	40.25	-44.2	-45.2	19.7	0.00e+00	0	42	0	729808896	60	3932
2026-01-29 08:03:15.02	59.19	40.34	-44.3	-45.3	19.6	0.00e+00	0	42	0	732954624	60	3980
2026-01-29 08:03:16.02	58.74	40.42	-44.2	-45.2	19.6	0.00e+00	0	42	0	736100352	60	3954
2026-01-29 08:03:17.03	58.29	40.50	-44.4	-45.5	19.3	0.00e+00	0	42	0	739246080	60	4071
2026-01-29 08:03:18.04	57.83	40.57	-44.7	-45.8	19.2	0.00e+00	0	42	0	742391808	60	4194
2026-01-29 08:03:19.05	57.37	40.65	-44.6	-45.7	19.3	0.00e+00	0	42	0	745537536	60	4148
2026-01-29 08:03:20.06	56.91	40.72	-44.4	-45.5	19.5	0.00e+00	0	42	0	748683264	60	4061
2026-01-29 08:03:21.06	56.46	40.80	-44.5	-45.5	19.4	0.00e+00	0	42	0	751828992	60	4088
2026-01-29 08:03:22.07	55.99	40.87	-44.6	-45.7	19.2	0.00e+00	0	42	0	754974720	60	4192
2026-01-29 08:03:23.08	55.53	40.93	-44.8	-45.9	19.0	0.00e+00	0	42	0	758120448	60	4275
2026-01-29 08:03:24.08	55.06	41.00	-45.2	-46.4	18.7	0.00e+00	0	42	0	761266176	60	4509
2026-01-29 08:03:25.09	54.59	41.06	-45.5	-46.7	18.3	0.00e+00	0	42	0	764411904	61	4434
2026-01-29 08:03:26.09	54.13	41.12	-45.3	-46.5	18.5	0.00e+00	0	42	0	767557632	61	4335
2026-01-29 08:03:27.10	53.65	41.18	-45.0	-46.2	18.9	0.00e+00	0	42	0	770703360	61	4154
2026-01-29 08:03:28.11	53.18	41.24	-45.0	-46.1	19.0	0.00e+00	0	42	0	773849088	61	4125
2026-01-29 08:03:29.12	52.70	41.30	-44.9	-46.0	19.0	0.00e+00	0	42	0	776994816	61	4084
2026-01-29 08:03:30.13	52.22	41.35	-44.9	-46.0	19.0	0.00e+00	0	42	0	780140544	61	4089
2026-01-29 08:03:31.14	51.74	41.40	-45.0	-46.1	18.9	0.00e+00	0	42	0	783286272	61	4112
2026-01-29 08:03:32.15	51.26	41.45	-44.9	-46.1	19.0	0.00e+00	0	42	0	786432000	61	4099
2026-01-29 08:03:33.16	50.78	41.50	-44.8	-45.9	19.1	0.00e+00	0	42	0	789577728	61	4017
2026-01-29 08:03:34.17	50.29	41.54	-45.2	-46.3	18.7	0.00e+00	0	42	0	792723456	61	4222
2026-01-29 08:03:35.18	49.81	41.58	-45.3	-46.4	18.7	0.00e+00	0	42	0	795869184	61	4282
2026-01-29 08:03:36.18	49.32	41.62	-45.2	-46.4	18.6	0.00e+00	0	42	0	799014912	61	4274
2026-01-29 08:03:37.19	48.84	41.66	-45.2	-46.4	18.7	0.00e+00	0	42	0	803209216	61	4255
2026-01-29 08:03:38.19	48.35	41.70	-45.1	-46.2	18.7	0.00e+00	0	42	0	806354944	61	4193
2026-01-29 08:03:39.21	47.86	41.73	-45.0	-46.1	18.7	0.00e+00	0	42	0	809500672	61	4140
2026-01-29 08:03:40.21	47.37	41.76	-45.1	-46.3	18.7	0.00e+00	0	42	0	811597824	61	4206
2026-01-29 08:03:41.22	46.88	41.79	-45.1	-46.3	18.8	0.00e+00	0	42	0	814743552	61	4213
2026-01-29 08:03:42.22	46.39	41.81	-45.3	-46.5	18.6	0.00e+00	0	42	0	817889280	61	4323
2026-01-29 08:03:43.23	45.90	41.84	-45.5	-46.7	18.4	0.00e+00	0	42	0	821035008	61	4416
2026-01-29 08:03:44.23	45.41	41.86	-45.3	-46.4	18.6	0.00e+00	0	42	0	824180736	61	4284
2026-01-29 08:03:45.24	44.91	41.88	-45.1	-46.3	18.8	0.00e+00	0	42	0	827326464	61	4209
2026-01-29 08:03:46.25	44.42	41.89	-44.8	-45.9	19.0	0.00e+00	0	42	0	830472192	61	4030
2026-01-29 08:03:47.26	43.92	41.91	-44.7	-45.7	19.2	0.00e+00	0	42	0	833617920	61	3953
2026-01-29 08:03:48.27	43.43	41.92	-44.6	-45.6	19.3	0.00e+00	0	42	0	836763648	61	3910
2026-01-29 08:03:49.28	42.93	41.93	-44.8	-45.9	19.1	0.00e+00	0	42	0	839909376	61	4012
2026-01-29 08:03:50.29	42.43	41.94	-44.8	-45.9	19.1	0.00e+00	0	42	0	844103680	61	4038
2026-01-29 08:03:51.29	41.94	41.94	-44.7	-45.8	19.3	0.00e+00	0	42	0	847249408	61	3968
2026-01-29 08:03:52.30	41.44	41.94	-44.4	-45.5	19.5	0.00e+00	0	42	0	850395136	60	4057
2026-01-29 08:03:53.31	40.95	41.94	-44.4	-45.4	19.6	0.00e+00	0	42	0	853540864	60	4013
2026-01-29 08:03:54.32	40.45	41.94	-44.1	-45.0	19.8	0.00e+00	0	42	0	856686592	60	3864
2026-01-29 08:03:55.33	39.95	41.93	-44.0	-45.0	19.9	0.00e+00	0	42	0	858783744	60	3834
2026-01-29 08:03:56.33	39.46	41.92	-44.1	-45.0	19.9	0.00e+00	0	42	0	861929472	60	3866
2026-01-29 08:03:57.34	38.96	41.91	-44.3	-45.3	19.6	0.00e+00	0	42	0	865075200	60	3985
2026-01-29 08:03:58.35	38.47	41.90	-44.6	-45.7	19.3	0.00e+00	0	42	0	868220928	60	4175
2026-01-29 08:03:59.36	37.97	41.89	-44.7	-45.7	19.3	0.00e+00	0	42	0	871366656	60	4183
2026-01-29 08:04:00.36	37.48	41.87	-44.5	-45.6	19.4	0.00e+00	0	42	0	874512384	60	4101
2026-01-29 08:04:01.37	36.99	41.85	-44.4	-45.4	19.5	0.00e+00	0	42	0	877658112	60	4048
2026-01-29 08:04:02.37	36.50	41.83	-44.2	-45.2	19.7	0.00e+00	0	42	0	880803840	60	3957
2026-01-29 08:04:03.38	36.01	41.80	-44.2	-45.2	19.7	0.00e+00	0	42	0	883949568	60	3949
2026-01-29 08:04:04.39	35.51	41.77	-44.6	-45.7	19.3	0.00e+00	0	42	0	888143872	60	4149
2026-01-29 08:04:05.40	35.02	41.74	-44.7	-45.7	19.3	0.00e+00	0	42	0	891289600	60	4180
2026-01-29 08:04:06.41	34.53	41.71	-44.6	-45.6	19.5	0.00e+00	0	42	0	894435328	60	4128
2026-01-29 08:04:07.41	34.05	41.68	-44.4	-45.4	19.6	0.00e+00	0	42	0	897581056	60	4046
2026-01-29 08:04:08.42	33.56	41.64	-44.3	-45.4	19.6	0.00e+00	0	42	0	900726784	60	4014
2026-01-29 08:04:09.43	33.07	41.60	-44.6	-45.6	19.3	0.00e+00	0	42	0	903872512	60	4143
2026-01-29 08:04:10.44	32.59	41.56	-44.7	-45.8	19.3	0.00e+00	0	42	0	905969664	60	4203
2026-01-29 08:04:11.44	32.11	41.52	-44.6	-45.6	19.4	0.00e+00	0	42	0	909115392	60	4135
2026-01-29 08:04:12.45	31.62	41.47	-44.7	-45.8	19.3	0.00e+00	0	42	0	912261120	60	4199
2026-01-29 08:04:13.46	31.14	41.43	-44.9	-46.1	19.0	0.00e+00	0	42	0	915406848	60	4351
2026-01-29 08:04:14.47	30.66	41.38	-45.2	-46.3	18.8	0.00e+00	0	42	0	918552576	60	4486
2026-01-29 08:04:15.47	30.19	41.32	-45.5	-46.7	18.3	0.00e+00	0	42	0	921698304	61	4420
2026-01-29 08:04:16.48	29.71	41.27	-45.6	-46.9	18.2	0.00e+00	0	42	0	924844032	61	4496
2026-01-29 08:04:17.49	29.23	41.21	-45.5	-46.7	18.3	0.00e+00	0	42	0	929038336	61	4428
2026-01-29 08:04:18.49	28.76	41.15	-45.5	-46.7	18.4	0.00e+00	0	42	0	932184064	61	4417
2026-01-29 08:04:19.51	28.29	41.09	-45.3	-46.4	18.6	0.00e+00	0	42	0	935329792	61	4277
2026-01-29 08:04:20.51	27.82	41.03	-45.1	-46.3	18.7	0.00e+00	0	42	0	938475520	61	4209
2026-01-29 08:04:21.52	27.35	40.97	-44.9	-46.0	19.0	0.00e+00	0	42	0	941621248	61	4073
2026-01-29 08:04:22.53	26.89	40.90	-44.8	-45.9	19.2	0.00e+00	0	42	0	944766976	61	4011
2026-01-29 08:04:23.54	26.42	40.83	-44.6	-45.6	19.3	0.00e+00	0	42	0	947912704	61	3910
2026-01-29 08:04:24.55	25.96	40.76	-44.3	-45.3	19.6	0.00e+00	0	42	0	951058432	60	3972
2026-01-29 08:04:25.56	25.50	40.68	-44.4	-45.4	19.6	0.00e+00	0	42	0	953155584	60	4024
2026-01-29 08:04:26.56	25.04	40.61	-44.3	-45.3	19.6	0.00e+00	0	42	0	956301312	60	3993
2026-01-29 08:04:27.56	24.59	40.53	-44.5	-45.6	19.3	0.00e+00	0	42	0	959447040	60	4107
2026-01-29 08:04:28.57	24.14	40.46	-44.8	-45.9	19.0	0.00e+00	0	42	0	962592768	60	4262
2026-01-29 08:04:29.57	23.69	40.38	-44.7	-45.7	19.2	0.00e+00	0	42	0	965738496	60	4180
2026-01-29 08:04:30.58	23.24	40.29	-44.3	-45.2	19.6	0.00e+00	0	42	0	968884224	60	3958
2026-01-29 08:04:31.59	22.79	40.21	-44.1	-45.0	20.1	0.00e+00	0	42	0	972029952	59	4095
2026-01-29 08:04:32.60	22.35	40.12	-43.8	-44.7	20.4	0.00e+00	0	42	0	976224256	59	3931
2026-01-29 08:04:33.60	21.91	40.04	-44.1	-45.1	20.1	0.00e+00	0	42	0	979369984	59	4105
2026-01-29 08:04:34.61	21.47	39.95	-44.5	-45.5	19.6	0.00e+00	0	42	0	982515712	59	4331
2026-01-29 08:04:35.62	21.03	39.86	-44.7	-45.7	19.2	0.00e+00	0	42	0	985661440	60	4179
2026-01-29 08:04:36.63	20.60	39.76	-45.0	-46.2	18.5	0.00e+00	0	42	0	988807168	60	4395
2026-01-29 08:04:37.63	20.17	39.67	-45.1	-46.3	18.2	0.00e+00	0	42	0	991952896	60	4462
2026-01-29 08:04:38.64	19.74	39.57	-44.9	-46.0	18.6	0.00e+00	0	42	0	995098624	60	4306
2026-01-29 08:04:39.65	19.31	39.48	-44.7	-45.8	18.8	0.00e+00	0	42	0	998244352	60	4230
2026-01-29 08:04:40.66	18.89	39.38	-45.0	-46.1	18.6	0.00e+00	0	42	0	1001390080	60	4381
2026-01-29 08:04:41.67	18.46	39.28	-45.1	-46.3	18.5	0.00e+00	0	42	0	1003487232	60	4461
2026-01-29 08:04:42.68	18.04	39.17	-45.1	-46.3	18.6	0.00e+00	0	42	0	1006632960	61	4194
2026-01-29 08:04:43.68	17.63	39.07	-45.5	-46.7	18.2	0.00e+00	0	42	0	1009778688	61	4413
2026-01-29 08:04:44.68	17.22	38.97	-45.8	-47.1	18.0	0.00e+00	0	42	0	1012924416	62	4349
2026-01-29 08:04:45.69	16.81	38.86	-45.4	-46.5	18.6	0.00e+00	0	42	0	1017118720	62	4092
2026-01-29 08:04:46.70	16.40	38.75	-44.9	-46.0	19.0	0.00e+00	0	42	0	1020264448	61	4086
2026-01-29 08:04:47.71	15.99	38.64	-44.4	-45.5	19.4	0.00e+00	0	42	0	1023410176	60	4066
2026-01-29 08:04:48.72	15.59	38.53	-44.2	-45.2	19.7	0.00e+00	0	42	0	1026555904	60	3944
2026-01-29 08:04:49.73	15.19	38.42	-44.1	-45.1	19.9	0.00e+00	0	42	0	1029701632	60	3887
2026-01-29 08:04:50.73	14.80	38.31	-44.5	-45.6	19.4	0.00e+00	0	42	0	1032847360	60	4108
2026-01-29 08:04:51.74	14.40	38.20	-44.9	-46.0	19.0	0.00e+00	0	42	0	1035993088	60	4334
2026-01-29 08:04:52.75	14.01	38.08	-44.9	-46.0	19.0	0.00e+00	0	42	0	1039138816	60	4314
2026-01-29 08:04:53.76	13.62	37.97	-44.4	-45.5	19.6	0.00e+00	0	42	0	1042284544	60	4058
2026-01-29 08:04:54.77	13.23	37.85	-44.1	-45.1	19.8	0.00e+00	0	42	0	1045430272	60	3903
2026-01-29 08:04:55.77	12.85	37.73	-43.9	-44.8	20.4	0.00e+00	0	42	0	1048576000	59	3996
2026-01-29 08:04:56.78	12.47	37.61	-43.6	-44.5	20.7	0.00e+00	0	42	0	1050673152	59	3858
2026-01-29 08:04:57.79	12.09	37.49	-44.1	-45.0	20.2	0.00e+00	0	42	0	1053818880	59	4090
2026-01-29 08:04:58.79	11.72	37.37	-44.4	-45.4	19.6	0.00e+00	0	42	0	1058013184	60	4045
2026-01-29 08:04:59.80	11.35	37.25	-44.6	-45.7	19.3	0.00e+00	0	42	0	1061158912	60	4163
2026-01-29 08:05:00.81	10.98	37.13	-44.4	-45.4	19.3	0.00e+00	0	42	0	1064304640	60	4028
2026-01-29 08:05:01.81	10.61	37.00	-44.1	-45.1	19.7	0.00e+00	0	42	0	1067450368	60	3874
2026-01-29 08:05:02.82	10.25	36.88	-44.2	-45.2	20.0	0.00e+00	0	42	0	1070596096	59	4170
2026-01-29 08:05:03.83	9.89	36.75	-43.9	-44.8	20.4	0.00e+00	0	42	0	1073741824	59	3991
2026-01-29 08:05:04.84	9.53	36.63	-43.8	-44.7	20.5	0.00e+00	0	42	0	1076887552	59	3943
2026-01-29 08:05:05.85	9.17	36.50	-44.3	-45.3	19.9	0.00e+00	0	42	0	1080033280	59	4198
2026-01-29 08:05:06.86	8.82	36.37	-44.4	-45.4	19.8	0.00e+00	0	42	0	1083179008	59	4286
2026-01-29 08:05:07.86	8.47	36.24	-44.4	-45.4	19.6	0.00e+00	0	42	0	1086324736	60	4047
2026-01-29 08:05:08.87	8.13	36.11	-44.3	-45.3	19.5	0.00e+00	0	42	0	1089470464	60	3985
2026-01-29 08:05:09.88	7.78	35.98	-44.3	-45.3	19.7	0.00e+00	0	42	0	1092616192	59	4213
2026-01-29 08:05:10.89	7.44	35.85	-43.2	-44.1	20.8	0.00e+00	0	42	0	1095761920	58	3889
2026-01-29 08:05:11.89	7.10	35.72	-42.9	-43.7	21.3	0.00e+00	0	42	0	1098907648	57	3951
2026-01-29 08:05:12.90	6.77	35.59	-43.0	-43.9	21.2	0.00e+00	0	42	0	1102053376	57	4023
2026-01-29 08:05:13.91	6.43	35.46	-43.6	-44.5	20.6	0.00e+00	0	42	0	1105199104	57	4329
2026-01-29 08:05:14.92	6.10	35.33	-44.4	-45.4	19.9	0.00e+00	0	42	0	1108344832	59	4278
2026-01-29 08:05:15.93	5.77	35.19	-44.6	-45.8	19.2	0.00e+00	0	42	0	1111490560	60	4211
2026-01-29 08:05:16.93	5.45	35.06	-44.6	-45.8	18.8	0.00e+00	0	42	0	1114636288	60	4197
2026-01-29 08:05:17.95	5.13	34.92	-44.2	-45.3	19.0	0.00e+00	0	42	0	1117782016	60	3984
2026-01-29 08:05:18.95	4.81	34.79	-44.0	-45.0	19.5	0.00e+00	0	42	0	1120927744	60	3847
2026-01-29 08:05:19.96	4.49	34.65	-43.9	-44.9	20.1	0.00e+00	0	42	0	1124073472	59	4021
2026-01-29 08:05:20.97	4.18	34.52	-43.5	-44.4	20.6	0.00e+00	0	42	0	1127219200	59	3807
2026-01-29 08:05:21.98	3.86	34.38	-43.6	-44.6	20.5	0.00e+00	0	42	0	1130364928	58	4121
2026-01-29 08:05:22.99	3.55	34.24	-43.9	-44.9	20.2	0.00e+00	0	42	0	1133510656	58	4275
2026-01-29 08:05:23.99	3.25	34.11	-44.2	-45.2	19.9	0.00e+00	0	42	0	1136656384	58	4411
2026-01-29 08:05:25.00	2.95	33.97	-44.3	-45.3	19.9	0.00e+00	0	42	0	1139802112	59	4226
2026-01-29 08:05:26.01	2.64	33.83	-44.2	-45.2	20.0	0.00e+00	0	42	0	1142947840	59	4178
2026-01-29 08:05:27.02	2.34	33.70	-44.1	-45.1	20.1	0.00e+00	0	42	0	1146093568	59	4121
2026-01-29 08:05:28.03	2.05	33.56	-43.5	-44.5	20.6	0.00e+00	0	42	0	1149239296	59	3835
2026-01-29 08:05:29.04	1.75	33.42	-42.9	-43.7	21.2	0.00e+00	0	42	0	1152385024	57	3951
2026-01-29 08:05:30.04	1.46	33.28	-42.8	-43.6	21.3	0.00e+00	0	42	0	1155530752	57	3909
2026-01-29 08:05:31.05	1.18	33.14	-43.0	-43.8	21.2	0.00e+00	0	42	0	1158676480	57	3999
2026-01-29 08:05:32.06	0.89	33.00	-43.3	-44.2	20.8	0.00e+00	0	42	0	1161822208	57	4183
2026-01-29 08:05:33.07	0.60	32.86	-43.7	-44.7	20.4	0.00e+00	0	42	0	1164967936	57	4398
2026-01-29 08:05:34.07	0.33	32.73	-44.0	-45.0	20.2	0.00e+00	0	42	0	1168113664	58	4307
2026-01-29 08:05:35.08	0.05	32.59	-44.0	-45.1	20.1	0.00e+00	0	42	0	1171259392	58	4343
2026-01-29 08:05:36.09	359.77	32.45	-43.7	-44.7	20.4	0.00e+00	0	42	0	1174405120	58	4159
2026-01-29 08:05:37.10	359.50	32.31	-43.6	-44.6	20.5	0.00e+00	0	42	0	1177550848	58	4120
2026-01-29 08:05:38.10	359.23	32.17	-43.2	-44.2	20.9	0.00e+00	0	42	0	1180696576	58	3914
2026-01-29 08:05:39.11	358.96	32.03	-43.2	-44.1	21.0	0.00e+00	0	42	0	1183842304	58	3887
2026-01-29 08:05:40.12	358.69	31.89	-43.1	-44.0	21.1	0.00e+00	0	42	0	1186988032	58	3840
2026-01-29 08:05:41.13	358.42	31.75	-43.2	-44.1	21.0	0.00e+00	0	42	0	1190133760	58	3900
2026-01-29 08:05:42.14	358.16	31.61	-43.4	-44.3	20.8	0.00e+00	0	42	0	1193279488	58	3990
2026-01-29 08:05:43.14	357.90	31.47	-43.6	-44.5	20.6	0.00e+00	0	42	0	1196425216	58	4086
2026-01-29 08:05:44.15	357.64	31.33	-43.7	-44.7	20.5	0.00e+00	0	42	0	1199570944	58	4150
2026-01-29 08:05:45.16	357.39	31.19	-43.8	-44.8	20.4	0.00e+00	0	42	0	1202716672	58	4195
2026-01-29 08:05:46.17	357.13	31.05	-43.5	-44.5	20.7	0.00e+00	0	42	0	1205862400	58	4066
2026-01-29 08:05:47.18	356.88	30.91	-43.4	-44.3	20.8	0.00e+00	0	42	0	1209008128	58	3976
2026-01-29 08:05:48.18	356.64	30.77	-43.4	-44.3	20.8	0.00e+00	0	42	0	1212153856	58	3993
2026-01-29 08:05:49.19	356.39	30.63	-43.1	-44.0	21.1	0.00e+00	0	42	0	1215299584	58	3826
2026-01-29 08:05:50.19	356.15	30.49	-43.0	-43.9	21.2	0.00e+00	0	42	0	1218445312	58	3803
2026-01-29 08:05:51.19	355.91	30.35	-43.1	-44.1	21.0	0.00e+00	0	42	0	1221591040	58	3871
2026-01-29 08:05:52.20	355.66	30.21	-43.1	-44.1	21.0	0.00e+00	0	42	0	1224736768	58	3873
2026-01-29 08:05:53.21	355.43	30.07	-43.3	-44.2	20.9	0.00e+00	0	42	0	1227882496	58	3930
2026-01-29 08:05:54.21	355.19	29.94	-43.3	-44.2	20.9	0.00e+00	0	42	0	1231028224	58	3939
2026-01-29 08:05:55.22	354.96	29.80	-43.1	-44.0	21.0	0.00e+00	0	42	0	1234173952	58	3855
2026-01-29 08:05:56.23	354.72	29.66	-42.8	-43.7	21.0	0.00e+00	0	42	0	1237319680	57	3948
2026-01-29 08:05:57.24	354.49	29.52	-42.4	-43.3	21.4	0.00e+00	0	42	0	1240465408	56	3959
2026-01-29 08:05:58.25	354.26	29.38	-42.3	-43.2	21.5	0.00e+00	0	42	0	1243611136	56	3914
2026-01-29 08:05:59.26	354.04	29.24	-41.6	-42.4	22.1	0.00e+00	0	42	0	1246756864	55	3794
2026-01-29 08:06:00.27	353.81	29.10	-41.4	-42.2	22.4	0.00e+00	0	42	0	1249902592	54	3926
2026-01-29 08:06:01.28	353.59	28.96	-41.6	-42.4	22.3	0.00e+00	0	42	0	1253048320	54	4021
2026-01-29 08:06:02.29	353.37	28.83	-41.9	-42.7	22.0	0.00e+00	0	42	0	1256194048	54	4169
2026-01-29 08:06:03.29	353.15	28.69	-42.3	-43.2	21.7	0.00e+00	0	42	0	1259339776	55	4147
2026-01-29 08:06:04.30	352.94	28.55	-42.6	-43.4	21.4	0.00e+00	0	42	0	1262485504	55	4287
2026-01-29 08:06:05.30	352.72	28.42	-42.8	-43.7	21.2	0.00e+00	0	42	0	1265631232	56	4172
2026-01-29 08:06:06.31	352.51	28.28	-42.8	-43.7	21.2	0.00e+00	0	42	0	1268776960	56	4186
2026-01-29 08:06:07.32	352.30	28.14	-42.8	-43.7	21.2	0.00e+00	0	42	0	1271922688	56	4183
2026-01-29 08:06:08.32	352.09	28.01	-42.8	-43.7	21.1	0.00e+00	0	42	0	1275068416	56	4179
2026-01-29 08:06:09.33	351.88	27.87	-42.7	-43.5	21.3	0.00e+00	0	42	0	1278214144	56	4091
2026-01-29 08:06:10.34	351.68	27.73	-42.6	-43.5	21.4	0.00e+00	0	42	0	1281359872	56	4061
2026-01-29 08:06:11.35	351.47	27.60	-42.6	-43.4	21.4	0.00e+00	0	42	0	1284505600	56	4045
2026-01-29 08:06:12.35	351.27	27.46	-42.5	-43.4	21.5	0.00e+00	0	42	0	1287651328	56	4022
2026-01-29 08:06:13.36	351.07	27.33	-42.6	-43.4	21.4	0.00e+00	0	42	0	1290797056	56	4047
2026-01-29 08:06:14.37	350.87	27.19	-42.6	-43.5	21.4	0.00e+00	0	42	0	1293942784	56	4066
2026-01-29 08:06:15.38	350.68	27.06	-42.8	-43.7	21.2	0.00e+00	0	42	0	1297088512	56	4161
2026-01-29 08:06:16.39	350.48	26.92	-42.9	-43.8	21.1	0.00e+00	0	42	0	1300234240	56	4203
2026-01-29 08:06:17.39	350.29	26.79	-42.9	-43.8	21.1	0.00e+00	0	42	0	1303379968	56	4225
2026-01-29 08:06:18.40	350.10	26.65	-42.9	-43.8	21.1	0.00e+00	0	42	0	1306525696	56	4200
2026-01-29 08:06:19.41	349.91	26.52	-42.9	-43.8	21.1	0.00e+00	0	42	0	1309671424	56	4205
2026-01-29 08:06:20.42	349.72	26.39	-42.5	-43.4	21.4	0.00e+00	0	42	0	1312817152	56	4028
2026-01-29 08:06:21.43	349.53	26.25	-42.3	-43.1	21.7	0.00e+00	0	42	0	1315962880	56	3886
2026-01-29 08:06:22.43	349.35	26.12	-42.2	-43.0	21.7	0.00e+00	0	42	0	1319108608	56	3865
2026-01-29 08:06:23.44	349.16	25.99	-42.0	-42.8	22.0	0.00e+00	0	42	0	1322254336	56	3753
2026-01-29 08:06:24.45	348.98	25.86	-41.7	-42.5	22.2	0.00e+00	0	42	0	1325400064	55	3831
2026-01-29 08:06:25.46	348.80	25.73	-41.5	-42.2	22.3	0.00e+00	0	42	0	1328545792	54	3954
2026-01-29 08:06:26.47	348.62	25.60	-41.5	-42.3	22.3	0.00e+00	0	42	0	1331691520	54	3983
2026-01-29 08:06:27.48	348.44	25.46	-41.7	-42.5	22.1	0.00e+00	0	42	0	1334837248	54	4066
2026-01-29 08:06:28.49	348.26	25.33	-41.8	-42.6	22.0	0.00e+00	0	42	0	1337982976	54	4117
2026-01-29 08:06:29.50	348.09	25.20	-41.9	-42.7	21.9	0.00e+00	0	42	0	1341128704	54	4181
2026-01-29 08:06:30.51	347.91	25.07	-42.1	-42.9	21.8	0.00e+00	0	42	0	1344274432	54	4266
2026-01-29 08:06:31.51	347.74	24.94	-42.1	-42.9	21.7	0.00e+00	0	42	0	1347420160	54	4288
2026-01-29 08:06:32.52	347.57	24.81	-42.1	-43.0	21.7	0.00e+00	0	42	0	1350565888	54	4295
2026-01-29 08:06:33.53	347.40	24.69	-42.2	-43.1	21.6	0.00e+00	0	42	0	1353711616	55	4117
2026-01-29 08:06:34.54	347.24	24.56	-42.3	-43.1	21.6	0.00e+00	0	42	0	1356857344	55	4142
2026-01-29 08:06:35.55	347.07	24.43	-42.3	-43.2	21.5	0.00e+00	0	42	0	1360003072	55	4156
2026-01-29 08:06:36.55	346.90	24.30	-42.4	-43.3	21.4	0.00e+00	0	42	0	1363148800	55	4210
2026-01-29 08:06:37.56	346.74	24.17	-42.5	-43.4	21.3	0.00e+00	0	42	0	1366294528	55	4280
2026-01-29 08:06:38.57	346.58	24.05	-42.5	-43.4	21.3	0.00e+00	0	42	0	1369440256	55	4284
2026-01-29 08:06:39.58	346.42	23.92	-42.6	-43.5	21.2	0.00e+00	0	42	0	1372585984	55	4333
2026-01-29 08:06:40.58	346.26	23.79	-42.7	-43.6	21.2	0.00e+00	0	42	0	1375731712	55	4360
2026-01-29 08:06:41.58	346.10	23.67	-42.8	-43.7	21.1	0.00e+00	0	42	0	1378877440	56	4180
2026-01-29 08:06:42.59	345.94	23.54	-42.8	-43.7	21.1	0.00e+00	0	42	0	1382023168	56	4177
2026-01-29 08:06:43.59	345.79	23.42	-42.8	-43.8	21.1	0.00e+00	0	42	0	1385168896	56	4198
2026-01-29 08:06:44.60	345.64	23.29	-42.7	-43.6	21.3	0.00e+00	0	42	0	1388314624	56	4102
2026-01-29 08:06:45.61	345.48	23.17	-42.5	-43.4	21.4	0.00e+00	0	42	0	1391460352	56	4038
2026-01-29 08:06:46.61	345.33	23.05	-42.5	-43.4	21.4	0.00e+00	0	42	0	1394606080	56	4039
2026-01-29 08:06:47.62	345.18	22.92	-42.5	-43.4	21.4	0.00e+00	0	42	0	1397751808	56	4020
2026-01-29 08:06:48.63	345.03	22.80	-42.6	-43.4	21.3	0.00e+00	0	42	0	1400897536	56	4047
2026-01-29 08:06:49.64	344.88	22.68	-42.6	-43.4	21.3	0.00e+00	0	42	0	1404043264	56	4050
2026-01-29 08:06:50.65	344.73	22.55	-42.4	-43.3	21.5	0.00e+00	0	42	0	1407188992	56	3970
2026-01-29 08:06:51.66	344.59	22.43	-42.4	-43.3	21.4	0.00e+00	0	42	0	1410334720	56	3999
2026-01-29 08:06:52.67	344.44	22.31	-42.4	-43.2	21.5	0.00e+00	0	42	0	1413480448	56	3957
2026-01-29 08:06:53.67	344.30	22.19	-42.4	-43.3	21.4	0.00e+00	0	42	0	1416626176	56	3988
2026-01-29 08:06:54.68	344.16	22.07	-42.4	-43.3	21.4	0.00e+00	0	42	0	1419771904	56	3982
2026-01-29 08:06:55.69	344.02	21.95	-42.5	-43.3	21.4	0.00e+00	0	42	0	1422917632	56	4001
2026-01-29 08:06:56.70	343.88	21.83	-42.4	-43.3	21.4	0.00e+00	0	42	0	1426063360	56	3995
2026-01-29 08:06:57.70	343.74	21.71	-42.6	-43.5	21.2	0.00e+00	0	42	0	1429209088	56	4053
2026-01-29 08:06:58.71	343.60	21.59	-42.4	-43.3	21.3	0.00e+00	0	42	0	1432354816	56	3983
2026-01-29 08:06:59.72	343.46	21.47	-42.4	-43.3	21.3	0.00e+00	0	42	0	1435500544	56	3986
2026-01-29 08:07:00.73	343.33	21.35	-42.4	-43.3	21.3	0.00e+00	0	42	0	1438646272	56	3965
2026-01-29 08:07:01.73	343.19	21.23	-42.2	-43.0	21.6	0.00e+00	0	42	0	1441792000	56	3861
2026-01-29 08:07:02.74	343.06	21.11	-42.2	-43.0	21.6	0.00e+00	0	42	0	1444937728	56	3865
2026-01-29 08:07:03.75	342.93	20.99	-42.1	-42.9	21.7	0.00e+00	0	42	0	1448083456	56	3817
2026-01-29 08:07:04.76	342.79	20.88	-42.0	-42.9	21.7	0.00e+00	0	42	0	1451229184	56	3793
2026-01-29 08:07:05.76	342.66	20.76	-42.1	-43.0	21.7	0.00e+00	0	42	0	1454374912	56	3835
2026-01-29 08:07:06.77	342.53	20.64	-42.0	-42.9	21.8	0.00e+00	0	42	0	1457520640	56	3782
2026-01-29 08:07:07.78	342.41	20.53	-42.0	-42.8	21.8	0.00e+00	0	42	0	1460666368	56	3777
2026-01-29 08:07:08.79	342.28	20.41	-42.0	-42.9	21.8	0.00e+00	0	42	0	1463812096	56	3781
2026-01-29 08:07:09.80	342.15	20.30	-42.1	-42.9	21.7	0.00e+00	0	42	0	1466957824	56	3814
2026-01-29 08:07:10.81	342.02	20.18	-42.1	-42.9	21.7	0.00e+00	0	41	0	1470103552	56	3810
2026-01-29 08:07:11.81	341.90	20.07	-42.1	-43.0	21.7	0.00e+00	0	42	0	1473249280	56	3833
2026-01-29 08:07:12.82	341.78	19.95	-42.2	-43.0	21.6	0.00e+00	0	41	0	1476395008	56	3855
2026-01-29 08:07:13.83	341.65	19.84	-42.2	-43.1	21.6	0.00e+00	0	42	0	1479540736	56	3879
2026-01-29 08:07:14.83	341.53	19.73	-42.1	-43.0	21.7	0.00e+00	0	42	0	1482686464	56	3827
2026-01-29 08:07:15.84	341.41	19.61	-42.1	-42.9	21.7	0.00e+00	0	42	0	1485832192	56	3809
2026-01-29 08:07:16.85	341.29	19.50	-42.2	-43.1	21.5	0.00e+00	0	42	0	1488977920	56	3895
2026-01-29 08:07:17.86	341.17	19.39	-42.2	-43.1	21.5	0.00e+00	0	42	0	1492123648	56	3893
2026-01-29 08:07:18.87	341.05	19.28	-42.2	-43.1	21.5	0.00e+00	0	42	0	1495269376	56	3878
2026-01-29 08:07:19.88	340.94	19.16	-42.2	-43.1	21.5	0.00e+00	0	42	0	1498415104	56	3885
2026-01-29 08:07:20.88	340.82	19.05	-42.2	-43.1	21.5	0.00e+00	0	42	0	1501560832	56	3885
2026-01-29 08:07:21.89	340.70	18.94	-42.3	-43.1	21.4	0.00e+00	0	42	0	1504706560	56	3896
2026-01-29 08:07:22.90	340.59	18.83	-42.0	-42.9	21.6	0.00e+00	0	42	0	1507852288	56	3798
2026-01-29 08:07:23.91	340.48	18.72	-42.0	-42.8	21.6	0.00e+00	0	42	0	1510998016	56	3778
2026-01-29 08:07:24.91	340.36	18.61	-41.9	-42.7	21.6	0.00e+00	0	42	0	1514143744	55	3932
2026-01-29 08:07:25.92	340.25	18.50	-41.8	-42.7	21.7	0.00e+00	0	42	0	1517289472	55	3918
2026-01-29 08:07:26.93	340.14	18.39	-41.8	-42.7	21.6	0.00e+00	0	42	0	1520435200	55	3914
2026-01-29 08:07:27.94	340.03	18.29	-41.7	-42.6	21.7	0.00e+00	0	42	0	1523580928	55	3872
2026-01-29 08:07:28.95	339.92	18.18	-41.7	-42.5	21.8	0.00e+00	0	42	0	1526726656	55	3851
2026-01-29 08:07:29.96	339.81	18.07	-41.7	-42.5	21.8	0.00e+00	0	42	0	1529872384	55	3847
2026-01-29 08:07:30.96	339.70	17.96	-41.7	-42.5	21.8	0.00e+00	0	42	0	1533018112	55	3839
2026-01-29 08:07:31.97	339.59	17.85	-41.8	-42.6	21.8	0.00e+00	0	42	0	1536163840	55	3876
2026-01-29 08:07:32.98	339.49	17.75	-41.8	-42.6	21.7	0.00e+00	0	42	0	1539309568	55	3910
2026-01-29 08:07:33.98	339.38	17.64	-41.9	-42.8	21.7	0.00e+00	0	42	0	1542455296	55	3959
2026-01-29 08:07:34.99	339.28	17.54	-42.0	-42.9	21.6	0.00e+00	0	42	0	1545601024	55	4020
2026-01-29 08:07:36.00	339.17	17.43	-42.1	-43.0	21.5	0.00e+00	0	42	0	1548746752	55	4057
2026-01-29 08:07:37.01	339.07	17.32	-42.3	-43.2	21.3	0.00e+00	0	42	0	1551892480	55	4166
2026-01-29 08:07:38.02	338.97	17.22	-42.4	-43.3	21.2	0.00e+00	0	42	0	1555038208	55	4195
2026-01-29 08:07:39.02	338.87	17.12	-42.6	-43.5	21.1	0.00e+00	0	42	0	1558183936	55	4296
2026-01-29 08:07:40.03	338.76	17.01	-42.6	-43.5	21.0	0.00e+00	0	42	0	1561329664	55	4309
2026-01-29 08:07:41.04	338.66	16.91	-42.7	-43.6	20.9	0.00e+00	0	42	0	1564475392	55	4362
2026-01-29 08:07:42.05	338.56	16.80	-42.9	-43.8	20.8	0.00e+00	0	42	0	1567621120	56	4239
2026-01-29 08:07:43.05	338.46	16.70	-42.9	-43.8	20.8	0.00e+00	0	42	0	1570766848	56	4232
2026-01-29 08:07:44.06	338.37	16.60	-42.9	-43.8	20.8	0.00e+00	0	42	0	1573912576	56	4237
2026-01-29 08:07:45.07	338.27	16.49	-42.9	-43.8	20.8	0.00e+00	0	42	0	1577058304	56	4236
2026-01-29 08:07:46.07	338.17	16.39	-42.9	-43.8	20.8	0.00e+00	0	42	0	1580204032	56	4242
2026-01-29 08:07:47.08	338.07	16.29	-42.9	-43.8	20.7	0.00e+00	0	42	0	1583349760	56	4240
2026-01-29 08:07:48.09	337.98	16.19	-42.9	-43.8	20.7	0.00e+00	0	42	0	1586495488	56	4234
2026-01-29 08:07:49.09	337.88	16.09	-42.9	-43.8	20.8	0.00e+00	0	42	0	1589641216	56	4220
2026-01-29 08:07:50.10	337.79	15.99	-42.8	-43.7	20.9	0.00e+00	0	42	0	1592786944	56	4158
2026-01-29 08:07:51.11	337.70	15.89	-42.8	-43.8	20.8	0.00e+00	0	42	0	1595932672	56	4194
2026-01-29 08:07:52.11	337.60	15.79	-42.8	-43.7	20.9	0.00e+00	0	42	0	1599078400	56	4157
2026-01-29 08:07:53.12	337.51	15.69	-42.8	-43.7	20.9	4.50e-06	0	42	0	1602224128	56	4179
2026-01-29 08:07:54.13	337.42	15.59	-42.8	-43.8	20.9	0.00e+00	0	42	0	1605369856	56	4195
2026-01-29 08:07:55.14	337.33	15.49	-42.8	-43.8	20.8	0.00e+00	0	42	0	1608515584	56	4195
2026-01-29 08:07:56.15	337.24	15.39	-42.9	-43.8	20.8	0.00e+00	0	42	0	1611661312	56	4213
2026-01-29 08:07:57.16	337.15	15.29	-42.9	-43.9	20.8	0.00e+00	0	42	0	1614807040	56	4244
2026-01-29 08:07:58.17	337.06	15.19	-42.9	-43.9	20.7	0.00e+00	0	42	0	1617952768	56	4249
2026-01-29 08:07:59.18	336.97	15.09	-43.0	-44.0	20.7	0.00e+00	0	42	0	1621098496	56	4293
2026-01-29 08:08:00.19	336.88	14.99	-43.1	-44.0	20.6	0.00e+00	0	42	0	1624244224	56	4322
2026-01-29 08:08:01.19	336.79	14.90	-43.1	-44.1	20.6	0.00e+00	0	42	0	1627389952	56	4343
2026-01-29 08:08:02.20	336.71	14.80	-43.1	-44.1	20.5	0.00e+00	0	42	0	1630535680	56	4345
2026-01-29 08:08:03.20	336.62	14.71	-43.2	-44.2	20.4	0.00e+00	0	42	0	1633681408	57	4166
2026-01-29 08:08:04.21	336.53	14.61	-43.2	-44.1	20.5	0.00e+00	0	42	0	1636827136	57	4145
2026-01-29 08:08:05.22	336.45	14.51	-43.1	-44.1	20.5	0.00e+00	0	42	0	1639972864	57	4112
2026-01-29 08:08:06.23	336.36	14.42	-43.3	-44.3	20.4	0.00e+00	0	42	0	1643118592	57	4197
2026-01-29 08:08:07.24	336.28	14.32	-43.2	-44.2	20.4	0.00e+00	0	42	0	1646264320	57	4152
2026-01-29 08:08:08.25	336.20	14.23	-43.3	-44.2	20.4	0.00e+00	0	42	0	1649410048	57	4185
2026-01-29 08:08:09.26	336.11	14.13	-43.2	-44.2	20.4	7.00e-07	0	42	0	1652555776	57	4155
2026-01-29 08:08:10.26	336.03	14.04	-43.2	-44.2	20.4	7.00e-07	0	42	0	1655701504	57	4148
2026-01-29 08:08:11.27	335.95	13.94	-43.2	-44.2	20.4	0.00e+00	0	42	0	1658847232	57	4168
2026-01-29 08:08:12.28	335.87	13.85	-43.2	-44.2	20.4	0.00e+00	0	42	0	1661992960	57	4155
2026-01-29 08:08:13.29	335.79	13.75	-43.3	-44.3	20.3	0.00e+00	0	42	0	1665138688	57	4206
2026-01-29 08:08:14.30	335.71	13.66	-43.2	-44.2	20.4	0.00e+00	0	42	0	1668284416	57	4171
2026-01-29 08:08:15.30	335.63	13.57	-43.3	-44.3	20.3	0.00e+00	0	42	0	1671430144	57	4195
2026-01-29 08:08:16.31	335.55	13.48	-43.3	-44.3	20.3	0.00e+00	0	42	0	1674575872	57	4202
2026-01-29 08:08:17.32	335.47	13.38	-43.4	-44.4	20.2	0.00e+00	0	42	0	1677721600	57	4256
2026-01-29 08:08:18.33	335.39	13.29	-43.3	-44.3	20.2	0.00e+00	0	42	0	1680867328	57	4236
2026-01-29 08:08:19.34	335.31	13.20	-43.4	-44.4	20.2	0.00e+00	0	42	0	1684013056	57	4264
2026-01-29 08:08:20.35	335.24	13.11	-43.4	-44.4	20.2	0.00e+00	0	42	0	1687158784	57	4262
2026-01-29 08:08:21.36	335.16	13.02	-43.6	-44.6	20.0	0.00e+00	0	42	0	1690304512	57	4362
2026-01-29 08:08:22.37	335.08	12.92	-43.5	-44.5	20.0	0.00e+00	0	42	0	1693450240	57	4333
2026-01-29 08:08:23.38	335.01	12.83	-43.5	-44.5	20.0	0.00e+00	0	42	0	1696595968	57	4332
2026-01-29 08:08:24.39	334.93	12.74	-43.6	-44.7	19.9	0.00e+00	0	42	0	1699741696	57	4396
2026-01-29 08:08:25.40	334.86	12.65	-43.6	-44.6	19.9	0.00e+00	0	42	0	1702887424	57	4374
2026-01-29 08:08:26.41	334.78	12.56	-43.5	-44.5	20.0	0.00e+00	0	42	0	1706033152	57	4337
2026-01-29 08:08:27.42	334.71	12.47	-43.6	-44.7	19.8	0.00e+00	0	41	0	1709178880	57	4408
2026-01-29 08:08:28.43	334.64	12.38	-43.8	-44.8	19.7	0.00e+00	0	42	0	1712324608	58	4221
2026-01-29 08:08:29.43	334.56	12.30	-43.6	-44.7	19.9	0.00e+00	0	42	0	1715470336	58	4148
2026-01-29 08:08:30.45	334.49	12.21	-43.7	-44.7	19.8	0.00e+00	0	42	0	1718616064	58	4191
2026-01-29 08:08:31.45	334.42	12.12	-43.6	-44.7	19.8	0.00e+00	0	42	0	1721761792	58	4156
2026-01-29 08:08:32.46	334.35	12.03	-43.5	-44.6	19.9	0.00e+00	0	42	0	1724907520	58	4109
2026-01-29 08:08:33.46	334.28	11.94	-43.6	-44.6	19.9	0.00e+00	0	42	0	1728053248	58	4115
2026-01-29 08:08:34.47	334.21	11.85	-43.6	-44.6	19.9	0.00e+00	0	42	0	1731198976	58	4125
2026-01-29 08:08:35.47	334.14	11.77	-43.5	-44.5	19.9	0.00e+00	0	42	0	1734344704	58	4095
2026-01-29 08:08:36.48	334.07	11.68	-43.5	-44.6	19.9	7.60e-06	0	42	0	1737490432	58	4106
2026-01-29 08:08:37.49	334.00	11.59	-43.6	-44.6	19.8	0.00e+00	0	42	0	1741684736	58	4143
2026-01-29 08:08:38.50	333.93	11.51	-43.6	-44.7	19.8	0.00e+00	0	42	0	1743781888	58	4148
2026-01-29 08:08:39.51	333.86	11.42	-43.6	-44.6	19.8	0.00e+00	0	42	0	1746927616	58	4130
2026-01-29 08:08:40.52	333.79	11.33	-43.6	-44.6	19.8	0.00e+00	0	42	0	1750073344	58	4133
2026-01-29 08:08:41.53	333.72	11.25	-43.7	-44.7	19.7	0.00e+00	0	42	0	1753219072	58	4183
2026-01-29 08:08:42.54	333.66	11.16	-43.6	-44.6	19.9	0.00e+00	0	42	0	1756364800	58	4113
2026-01-29 08:08:43.54	333.59	11.08	-43.7	-44.8	19.7	0.00e+00	0	42	0	1759510528	58	4198
2026-01-29 08:08:44.55	333.52	10.99	-43.8	-44.8	19.6	0.00e+00	0	42	0	1762656256	58	4235
2026-01-29 08:08:45.55	333.46	10.91	-43.6	-44.7	19.8	0.00e+00	0	42	0	1765801984	58	4167
2026-01-29 08:08:46.56	333.39	10.82	-43.8	-44.9	19.6	0.00e+00	0	42	0	1768947712	58	4252
2026-01-29 08:08:47.57	333.33	10.74	-43.8	-44.8	19.6	0.00e+00	0	42	0	1772093440	58	4225
2026-01-29 08:08:48.57	333.26	10.66	-43.8	-44.9	19.6	0.00e+00	0	42	0	1775239168	58	4246
2026-01-29 08:08:49.58	333.20	10.57	-43.8	-44.9	19.6	0.00e+00	0	42	0	1778384896	58	4262
2026-01-29 08:08:50.59	333.14	10.49	-43.9	-45.0	19.4	0.00e+00	0	42	0	1782579200	58	4331
2026-01-29 08:08:51.60	333.07	10.40	-44.0	-45.0	19.4	0.00e+00	0	42	0	1785724928	58	4340
2026-01-29 08:08:52.61	333.01	10.32	-44.0	-45.1	19.3	0.00e+00	0	42	0	1788870656	58	4372
2026-01-29 08:08:53.61	332.95	10.24	-44.1	-45.2	19.2	0.00e+00	0	42	0	1790967808	58	4438
2026-01-29 08:08:54.62	332.88	10.16	-44.0	-45.1	19.3	0.00e+00	0	42	0	1794113536	58	4388
2026-01-29 08:08:55.63	332.82	10.07	-44.1	-45.2	19.2	0.00e+00	0	42	0	1797259264	58	4414
2026-01-29 08:08:56.64	332.76	9.99	-44.1	-45.2	19.2	0.00e+00	0	42	0	1800404992	58	4437
2026-01-29 08:08:57.65	332.70	9.91	-44.2	-45.3	19.1	0.00e+00	0	42	0	1803550720	59	4234
2026-01-29 08:08:58.65	332.64	9.83	-44.3	-45.4	19.0	0.00e+00	0	42	0	1806696448	59	4277
2026-01-29 08:08:59.66	332.58	9.75	-44.3	-45.5	18.9	0.00e+00	0	42	0	1809842176	59	4296
2026-01-29 08:09:00.67	332.52	9.67	-44.3	-45.5	18.9	0.00e+00	0	42	0	1812987904	59	4306
2026-01-29 08:09:01.68	332.46	9.58	-44.4	-45.6	18.8	0.00e+00	0	42	0	1816133632	59	4344
2026-01-29 08:09:02.69	332.40	9.50	-44.4	-45.6	18.8	0.00e+00	0	42	0	1820327936	59	4373
2026-01-29 08:09:03.70	332.34	9.42	-44.5	-45.7	18.7	0.00e+00	0	42	0	1823473664	59	4392
2026-01-29 08:09:04.71	332.28	9.34	-44.5	-45.7	18.7	0.00e+00	0	42	0	1826619392	59	4398
2026-01-29 08:09:05.72	332.22	9.26	-44.6	-45.8	18.6	0.00e+00	0	42	0	1829765120	59	4448
2026-01-29 08:09:06.73	332.16	9.18	-44.5	-45.7	18.7	0.00e+00	0	42	0	1832910848	59	4420
2026-01-29 08:09:07.74	332.10	9.10	-44.6	-45.8	18.6	0.00e+00	0	42	0	1836056576	59	4448
2026-01-29 08:09:08.74	332.05	9.02	-44.6	-45.8	18.6	0.00e+00	0	42	0	1838153728	59	4455
2026-01-29 08:09:09.75	331.99	8.95	-44.6	-45.9	18.5	0.00e+00	0	42	0	1841299456	59	4508
2026-01-29 08:09:10.75	331.93	8.87	-44.7	-45.9	18.4	0.00e+00	0	42	0	1844445184	59	4532
2026-01-29 08:09:11.76	331.88	8.79	-44.7	-45.9	18.5	0.00e+00	0	42	0	1847590912	59	4521
2026-01-29 08:09:12.77	331.82	8.71	-44.4	-45.6	18.4	0.00e+00	0	42	0	1850736640	60	4113
2026-01-29 08:09:13.78	331.76	8.63	-44.4	-45.6	18.4	0.00e+00	0	42	0	1853882368	60	4120
2026-01-29 08:09:14.79	331.71	8.55	-44.3	-45.5	18.5	0.00e+00	0	42	0	1858076672	60	4067
2026-01-29 08:09:15.80	331.65	8.48	-44.3	-45.5	18.5	0.00e+00	0	42	0	1861222400	60	4072
2026-01-29 08:09:16.80	331.60	8.40	-44.4	-45.6	18.4	0.00e+00	0	42	0	1864368128	60	4106
2026-01-29 08:09:17.81	331.54	8.32	-44.4	-45.6	18.3	0.00e+00	0	42	0	1867513856	60	4143
2026-01-29 08:09:18.81	331.49	8.24	-44.4	-45.6	18.3	0.00e+00	0	42	0	1870659584	60	4139
2026-01-29 08:09:19.82	331.44	8.17	-44.4	-45.6	18.2	0.00e+00	0	42	0	1873805312	60	4142
2026-01-29 08:09:20.82	331.38	8.09	-44.4	-45.7	18.2	0.00e+00	0	42	0	1876951040	60	4157
2026-01-29 08:09:21.83	331.33	8.01	-44.5	-45.7	18.2	0.00e+00	0	42	0	1880096768	60	4180
2026-01-29 08:09:22.84	331.28	7.94	-44.3	-45.6	18.3	0.00e+00	0	42	0	1883242496	60	4102
2026-01-29 08:09:23.85	331.22	7.86	-44.4	-45.6	18.2	0.00e+00	0	42	0	1885339648	60	4145
2026-01-29 08:09:24.85	331.17	7.79	-44.3	-45.6	18.3	0.00e+00	0	41	0	1888485376	60	4105
2026-01-29 08:09:25.86	331.12	7.71	-44.4	-45.6	18.2	0.00e+00	0	42	0	1891631104	60	4111
2026-01-29 08:09:26.86	331.07	7.64	-44.3	-45.5	18.3	0.00e+00	0	42	0	1894776832	60	4068
2026-01-29 08:09:27.87	331.02	7.56	-44.4	-45.7	18.1	0.00e+00	0	42	0	1897922560	60	4162
2026-01-29 08:09:28.88	330.97	7.48	-44.3	-45.6	18.3	0.00e+00	0	42	0	1901068288	60	4100
2026-01-29 08:09:29.89	330.91	7.41	-44.4	-45.6	18.2	0.00e+00	0	42	0	1905262592	60	4138
2026-01-29 08:09:30.89	330.86	7.34	-44.3	-45.5	18.3	0.00e+00	0	42	0	1908408320	60	4077
2026-01-29 08:09:31.90	330.81	7.26	-44.2	-45.4	18.3	0.00e+00	0	42	0	1911554048	60	4038
