passes_logs/2026/01/29/R3.2S_Murmansk/R3.2S_Murmansk__20260129_110303_FENGYUN_3D_rec.log

#Pass ID: 20260129_110303_FENGYUN 3D
#Satellite: FENGYUN 3D
#Configuration: FENGYUN 3D
#almurnet v.1.7.20251203
#Start time: 2026-01-29 11:03:03

#Version: 2.2.20231116
#Station: R3.2S_Murmansk
#Location: 33.079688 lon 68.888172 lat
#TLE: 1 43010U 17072A   26028.95797775  .00000451  00000+0  23492-3 0  9991
#TLE: 2 43010  98.9958   0.9922 0002505  85.7480 274.3981 14.19703224425237

#Time	Az	El	Level	Level2	SNR	BER	BlckErr	Temp	State	Recorded	gain1	gain2
2026-01-29 11:03:03.15	138.75	2.00	-53.9	-65.8	3.8	8.47e-01	0	40	0	0	79	14199
2026-01-29 11:03:04.15	138.74	2.07	-53.9	-65.9	3.8	8.45e-01	0	40	104	0	78	15101
2026-01-29 11:03:05.15	138.73	2.13	-53.9	-65.8	3.8	8.45e-01	0	40	104	0	78	15008
2026-01-29 11:03:06.16	138.72	2.20	-53.9	-65.8	3.8	8.46e-01	0	40	104	0	78	14975
2026-01-29 11:03:07.17	138.71	2.26	-53.9	-65.8	3.8	8.45e-01	0	40	104	0	78	15004
2026-01-29 11:03:08.18	138.70	2.33	-53.9	-65.8	3.8	8.46e-01	0	40	104	0	78	14933
2026-01-29 11:03:09.18	138.69	2.39	-53.9	-65.8	3.8	8.45e-01	0	40	104	0	78	14967
2026-01-29 11:03:10.19	138.68	2.46	-53.8	-65.8	3.8	8.46e-01	0	40	104	0	78	14978
2026-01-29 11:03:11.20	138.67	2.52	-53.8	-65.8	3.8	8.46e-01	0	40	104	0	78	14943
2026-01-29 11:03:12.21	138.66	2.59	-53.9	-65.9	3.8	8.46e-01	0	40	104	0	78	15112
2026-01-29 11:03:13.22	138.64	2.65	-53.9	-65.9	3.8	8.48e-01	0	40	104	0	78	15052
2026-01-29 11:03:14.23	138.63	2.72	-53.9	-65.9	3.8	8.46e-01	0	40	104	0	78	15074
2026-01-29 11:03:15.24	138.62	2.79	-53.9	-65.8	3.8	8.45e-01	0	40	104	0	78	15035
2026-01-29 11:03:16.25	138.61	2.85	-53.9	-65.8	3.8	8.46e-01	0	40	104	0	78	15008
2026-01-29 11:03:17.25	138.60	2.92	-53.9	-65.8	3.8	8.45e-01	0	40	104	0	78	14977
2026-01-29 11:03:18.26	138.59	2.99	-54.1	-66.1	3.8	8.45e-01	0	40	104	0	78	15403
2026-01-29 11:03:19.27	138.58	3.05	-54.1	-66.1	3.8	8.47e-01	0	40	104	0	78	15489
2026-01-29 11:03:20.28	138.57	3.12	-54.1	-66.1	3.8	8.47e-01	0	40	104	0	78	15501
2026-01-29 11:03:21.29	138.55	3.19	-54.1	-66.1	3.8	8.45e-01	0	40	104	0	78	15409
2026-01-29 11:03:22.29	138.54	3.26	-54.1	-66.1	3.8	8.46e-01	0	40	104	0	78	15417
2026-01-29 11:03:23.30	138.53	3.32	-54.1	-66.0	3.8	8.44e-01	0	40	104	0	78	15361
2026-01-29 11:03:24.31	138.52	3.39	-54.1	-66.0	3.8	8.46e-01	0	41	104	0	78	15363
2026-01-29 11:03:25.32	138.51	3.46	-54.0	-66.0	3.8	8.46e-01	0	40	104	0	78	15254
2026-01-29 11:03:26.33	138.49	3.53	-54.0	-65.9	3.8	8.46e-01	0	40	104	0	78	15170
2026-01-29 11:03:27.33	138.48	3.60	-53.9	-65.9	3.8	8.46e-01	0	41	104	0	78	15123
2026-01-29 11:03:28.34	138.47	3.66	-53.9	-65.8	3.8	8.46e-01	0	41	104	0	78	14995
2026-01-29 11:03:29.35	138.46	3.73	-53.8	-65.8	3.8	8.45e-01	0	41	104	0	78	14903
2026-01-29 11:03:30.36	138.45	3.80	-53.8	-65.7	3.8	8.46e-01	0	41	104	0	78	14752
2026-01-29 11:03:31.37	138.43	3.87	-53.6	-65.6	3.8	8.46e-01	0	41	104	0	78	14561
2026-01-29 11:03:32.37	138.42	3.94	-53.6	-65.5	3.8	8.46e-01	0	41	104	0	78	14405
2026-01-29 11:03:33.38	138.41	4.01	-53.4	-65.4	3.8	8.47e-01	0	41	104	0	78	14270
2026-01-29 11:03:34.39	138.40	4.08	-53.3	-65.2	3.8	8.46e-01	0	41	104	0	78	13979
2026-01-29 11:03:35.40	138.38	4.15	-53.2	-65.1	3.8	8.46e-01	0	41	104	0	78	13771
2026-01-29 11:03:36.41	138.37	4.22	-53.0	-64.9	3.8	8.46e-01	0	41	104	0	78	13479
2026-01-29 11:03:37.42	138.36	4.29	-52.7	-64.6	3.8	8.46e-01	0	41	104	0	77	13869
2026-01-29 11:03:38.43	138.35	4.36	-52.3	-64.1	3.8	8.47e-01	0	41	104	0	76	13739
2026-01-29 11:03:39.43	138.33	4.43	-47.5	-49.6	5.7	8.16e-01	0	41	104	0	67	4390
2026-01-29 11:03:40.44	138.32	4.50	-45.4	-46.9	15.8	0.00e+00	0	41	0	3145728	62	4284
2026-01-29 11:03:41.45	138.31	4.57	-44.4	-45.8	17.0	0.00e+00	0	41	0	8388608	60	4202
2026-01-29 11:03:42.45	138.29	4.64	-43.9	-45.1	18.0	0.00e+00	0	40	0	14680064	59	4134
2026-01-29 11:03:43.46	138.28	4.71	-43.4	-44.6	18.5	0.00e+00	0	41	0	20971520	58	4112
2026-01-29 11:03:44.47	138.27	4.78	-42.8	-44.0	19.1	0.00e+00	0	41	0	26214400	57	4052
2026-01-29 11:03:45.48	138.25	4.85	-42.8	-43.9	19.2	0.00e+00	0	41	0	31457280	57	4026
2026-01-29 11:03:46.49	138.24	4.93	-42.8	-43.9	19.2	0.00e+00	0	41	0	37748736	57	4007
2026-01-29 11:03:47.49	138.23	5.00	-42.8	-43.9	19.1	0.00e+00	0	41	0	42991616	57	4044
2026-01-29 11:03:48.50	138.21	5.07	-42.9	-44.0	19.0	0.00e+00	0	41	0	48234496	57	4097
2026-01-29 11:03:49.51	138.20	5.14	-42.6	-43.7	19.4	0.00e+00	0	41	0	54525952	57	3951
2026-01-29 11:03:50.52	138.18	5.21	-42.7	-43.8	19.2	0.00e+00	0	41	0	59768832	57	3992
2026-01-29 11:03:51.53	138.17	5.29	-43.3	-44.4	18.7	0.00e+00	0	41	0	65011712	58	4046
2026-01-29 11:03:52.54	138.16	5.36	-42.5	-43.5	19.6	0.00e+00	0	41	0	71303168	56	4080
2026-01-29 11:03:53.55	138.14	5.43	-43.9	-45.1	17.9	1.26e-03	0	41	0	77594624	59	4113
2026-01-29 11:03:54.56	138.13	5.51	-42.6	-43.7	19.4	0.00e+00	0	41	0	82837504	57	3937
2026-01-29 11:03:55.57	138.11	5.58	-42.4	-43.4	19.7	0.00e+00	0	41	0	88080384	56	4040
2026-01-29 11:03:56.58	138.10	5.65	-42.4	-43.5	19.6	0.00e+00	0	41	0	94371840	56	4076
2026-01-29 11:03:57.59	138.09	5.73	-42.4	-43.4	19.7	0.00e+00	0	41	0	99614720	56	4026
2026-01-29 11:03:58.60	138.07	5.80	-42.3	-43.4	19.8	0.00e+00	0	41	0	105906176	56	4015
2026-01-29 11:03:59.60	138.06	5.88	-42.2	-43.3	19.9	0.00e+00	0	41	0	111149056	56	3966
2026-01-29 11:04:00.61	138.04	5.95	-42.3	-43.3	19.9	0.00e+00	0	41	0	116391936	56	3985
2026-01-29 11:04:01.62	138.03	6.03	-42.3	-43.4	19.8	0.00e+00	0	41	0	122683392	56	4017
2026-01-29 11:04:02.63	138.01	6.10	-42.2	-43.2	20.0	0.00e+00	0	41	0	127926272	56	3938
2026-01-29 11:04:03.64	138.00	6.18	-42.2	-43.2	20.0	0.00e+00	0	41	0	133169152	56	3944
2026-01-29 11:04:04.65	137.98	6.25	-42.2	-43.2	20.0	0.00e+00	0	41	0	139460608	56	3922
2026-01-29 11:04:05.66	137.97	6.33	-42.2	-43.3	20.0	0.00e+00	0	41	0	145752064	56	3962
2026-01-29 11:04:06.66	137.95	6.40	-42.0	-43.1	20.2	0.00e+00	0	41	0	150994944	56	3872
2026-01-29 11:04:07.67	137.94	6.48	-42.1	-43.2	20.1	0.00e+00	0	41	0	156237824	56	3915
2026-01-29 11:04:08.67	137.92	6.55	-42.1	-43.1	20.1	0.00e+00	0	41	0	162529280	56	3898
2026-01-29 11:04:09.69	137.90	6.63	-42.1	-43.1	20.2	0.00e+00	0	41	0	167772160	56	3880
2026-01-29 11:04:10.70	137.89	6.71	-42.1	-43.1	20.2	0.00e+00	0	41	0	173015040	56	3878
2026-01-29 11:04:11.70	137.87	6.78	-42.1	-43.1	20.3	0.00e+00	0	41	0	179306496	56	3869
2026-01-29 11:04:12.71	137.86	6.86	-41.9	-42.9	20.3	0.00e+00	0	41	0	184549376	55	4044
2026-01-29 11:04:13.72	137.84	6.94	-41.7	-42.7	20.5	0.00e+00	0	41	0	190840832	55	3947
2026-01-29 11:04:14.73	137.82	7.02	-41.7	-42.7	20.5	0.00e+00	0	41	0	196083712	55	3932
2026-01-29 11:04:15.73	137.81	7.09	-41.8	-42.7	20.5	0.00e+00	0	41	0	201326592	55	3951
2026-01-29 11:04:16.74	137.79	7.17	-41.7	-42.6	20.6	0.00e+00	0	41	0	207618048	55	3907
2026-01-29 11:04:17.75	137.78	7.25	-41.7	-42.6	20.6	0.00e+00	0	41	0	213909504	55	3912
2026-01-29 11:04:18.76	137.76	7.33	-41.6	-42.6	20.6	0.00e+00	0	41	0	219152384	55	3894
2026-01-29 11:04:19.77	137.74	7.41	-41.6	-42.5	20.7	0.00e+00	0	41	0	224395264	55	3867
2026-01-29 11:04:20.77	137.73	7.49	-41.6	-42.6	20.7	0.00e+00	0	41	0	230686720	55	3870
2026-01-29 11:04:21.79	137.71	7.57	-41.6	-42.5	20.7	0.00e+00	0	41	0	235929600	55	3857
2026-01-29 11:04:22.80	137.69	7.65	-41.5	-42.5	20.8	0.00e+00	0	41	0	241172480	55	3843
2026-01-29 11:04:23.80	137.68	7.72	-41.4	-42.3	20.9	0.00e+00	0	41	0	247463936	54	4002
2026-01-29 11:04:24.81	137.66	7.80	-41.4	-42.3	20.9	0.00e+00	0	41	0	252706816	54	4002
2026-01-29 11:04:25.82	137.64	7.89	-41.5	-42.4	20.8	0.00e+00	0	41	0	257949696	54	4040
2026-01-29 11:04:26.83	137.62	7.97	-41.5	-42.5	20.9	0.00e+00	0	42	0	264241152	54	4055
2026-01-29 11:04:27.84	137.61	8.05	-41.3	-42.2	21.1	0.00e+00	0	41	0	269484032	54	3935
2026-01-29 11:04:28.85	137.59	8.13	-41.3	-42.2	21.1	0.00e+00	0	41	0	275775488	54	3951
2026-01-29 11:04:29.86	137.57	8.21	-41.4	-42.3	21.0	0.00e+00	0	41	0	281018368	54	3986
2026-01-29 11:04:30.87	137.55	8.29	-41.2	-42.2	21.2	0.00e+00	0	42	0	287309824	54	3914
2026-01-29 11:04:31.87	137.53	8.37	-41.2	-42.1	21.2	0.00e+00	0	41	0	292552704	54	3903
2026-01-29 11:04:32.88	137.52	8.45	-41.3	-42.2	21.2	0.00e+00	0	41	0	298844160	54	3939
2026-01-29 11:04:33.89	137.50	8.54	-41.1	-42.0	21.3	0.00e+00	0	41	0	304087040	54	3863
2026-01-29 11:04:34.89	137.48	8.62	-41.2	-42.1	21.2	0.00e+00	0	41	0	309329920	54	3900
2026-01-29 11:04:35.90	137.46	8.70	-41.2	-42.1	21.2	0.00e+00	0	41	0	315621376	54	3890
2026-01-29 11:04:36.91	137.44	8.79	-41.2	-42.1	21.2	0.00e+00	0	41	0	320864256	54	3898
2026-01-29 11:04:37.92	137.42	8.87	-41.1	-42.0	21.4	0.00e+00	0	42	0	326107136	54	3847
2026-01-29 11:04:38.93	137.41	8.95	-41.0	-41.9	21.4	0.00e+00	0	42	0	332398592	54	3806
2026-01-29 11:04:39.94	137.39	9.04	-41.0	-41.9	21.4	0.00e+00	0	41	0	337641472	54	3813
2026-01-29 11:04:40.95	137.37	9.12	-41.1	-42.0	21.4	0.00e+00	0	41	0	343932928	54	3831
2026-01-29 11:04:41.96	137.35	9.21	-40.9	-41.8	21.5	0.00e+00	0	42	0	349175808	53	4003
2026-01-29 11:04:42.97	137.33	9.29	-40.8	-41.7	21.6	0.00e+00	0	42	0	355467264	53	3947
2026-01-29 11:04:43.97	137.31	9.37	-40.9	-41.8	21.6	0.00e+00	0	41	0	360710144	53	3979
2026-01-29 11:04:44.98	137.29	9.46	-41.0	-41.9	21.5	0.00e+00	0	41	0	365953024	53	4006
2026-01-29 11:04:45.99	137.27	9.55	-40.9	-41.8	21.6	0.00e+00	0	42	0	372244480	53	3997
2026-01-29 11:04:47.00	137.25	9.63	-40.9	-41.8	21.6	0.00e+00	0	42	0	377487360	53	3970
2026-01-29 11:04:48.00	137.23	9.72	-41.0	-41.9	21.5	0.00e+00	0	42	0	383778816	53	4013
2026-01-29 11:04:49.01	137.21	9.80	-40.8	-41.7	21.7	0.00e+00	0	41	0	389021696	53	3945
2026-01-29 11:04:50.02	137.19	9.89	-40.8	-41.7	21.7	0.00e+00	0	42	0	394264576	53	3950
2026-01-29 11:04:51.03	137.17	9.98	-40.8	-41.7	21.8	0.00e+00	0	42	0	400556032	53	3917
2026-01-29 11:04:52.04	137.15	10.07	-40.9	-41.8	21.7	0.00e+00	0	42	0	405798912	53	3959
2026-01-29 11:04:53.05	137.13	10.15	-40.6	-41.5	21.9	0.00e+00	0	42	0	412090368	53	3854
2026-01-29 11:04:54.06	137.11	10.24	-40.7	-41.5	21.9	0.00e+00	0	42	0	417333248	53	3865
2026-01-29 11:04:55.07	137.09	10.33	-40.6	-41.5	21.9	0.00e+00	0	42	0	423624704	53	3852
2026-01-29 11:04:56.08	137.06	10.42	-40.7	-41.6	21.9	0.00e+00	0	42	0	428867584	53	3880
2026-01-29 11:04:57.09	137.04	10.51	-40.7	-41.5	21.9	0.00e+00	0	42	0	434110464	53	3866
2026-01-29 11:04:58.09	137.02	10.60	-40.7	-41.5	21.9	0.00e+00	0	42	0	440401920	53	3863
2026-01-29 11:04:59.10	137.00	10.69	-40.6	-41.4	22.0	0.00e+00	0	42	0	445644800	53	3819
2026-01-29 11:05:00.11	136.98	10.78	-40.6	-41.5	22.0	0.00e+00	0	42	0	450887680	53	3826
2026-01-29 11:05:01.12	136.96	10.87	-40.5	-41.3	22.1	0.00e+00	0	41	0	457179136	53	3777
2026-01-29 11:05:02.12	136.93	10.96	-40.5	-41.3	22.1	0.00e+00	0	42	0	462422016	52	3993
2026-01-29 11:05:03.13	136.91	11.05	-40.6	-41.5	22.0	0.00e+00	0	42	0	468713472	52	4053
2026-01-29 11:05:04.14	136.89	11.14	-40.4	-41.3	22.2	0.00e+00	0	42	0	473956352	52	3973
2026-01-29 11:05:05.15	136.87	11.23	-40.5	-41.3	22.1	0.00e+00	0	42	0	480247808	52	3996
2026-01-29 11:05:06.16	136.84	11.32	-40.3	-41.2	22.3	0.00e+00	0	42	0	485490688	52	3930
2026-01-29 11:05:07.17	136.82	11.42	-40.4	-41.3	22.2	0.00e+00	0	42	0	491782144	52	3959
2026-01-29 11:05:08.18	136.80	11.51	-40.5	-41.3	22.1	0.00e+00	0	42	0	497025024	52	3998
2026-01-29 11:05:09.19	136.77	11.60	-40.4	-41.3	22.2	0.00e+00	0	41	0	502267904	52	3986
2026-01-29 11:05:10.19	136.75	11.70	-40.4	-41.3	22.2	0.00e+00	0	41	0	508559360	52	3975
2026-01-29 11:05:11.20	136.73	11.79	-40.3	-41.2	22.3	0.00e+00	0	42	0	513802240	52	3925
2026-01-29 11:05:12.21	136.70	11.88	-40.3	-41.1	22.3	0.00e+00	0	41	0	519045120	52	3899
2026-01-29 11:05:13.22	136.68	11.98	-40.3	-41.2	22.3	0.00e+00	0	41	0	525336576	52	3922
2026-01-29 11:05:14.23	136.66	12.07	-40.3	-41.1	22.4	0.00e+00	0	42	0	530579456	52	3894
2026-01-29 11:05:15.24	136.63	12.17	-40.2	-41.1	22.4	0.00e+00	0	41	0	535822336	52	3883
2026-01-29 11:05:16.24	136.61	12.26	-40.3	-41.1	22.4	0.00e+00	0	42	0	542113792	52	3899
2026-01-29 11:05:17.25	136.58	12.36	-40.1	-41.0	22.5	0.00e+00	0	42	0	548405248	52	3839
2026-01-29 11:05:18.26	136.56	12.46	-40.2	-41.1	22.4	0.00e+00	0	42	0	553648128	52	3876
2026-01-29 11:05:19.27	136.53	12.55	-40.2	-41.0	22.4	0.00e+00	0	42	0	558891008	52	3859
2026-01-29 11:05:20.28	136.51	12.65	-40.1	-40.9	22.5	0.00e+00	0	42	0	565182464	52	3822
2026-01-29 11:05:21.28	136.48	12.75	-40.1	-41.0	22.5	0.00e+00	0	42	0	570425344	52	3833
2026-01-29 11:05:22.29	136.46	12.84	-40.2	-41.1	22.4	0.00e+00	0	42	0	576716800	52	3873
2026-01-29 11:05:23.30	136.43	12.94	-40.1	-41.0	22.5	0.00e+00	0	42	0	581959680	52	3840
2026-01-29 11:05:24.31	136.40	13.04	-40.1	-40.9	22.6	0.00e+00	0	42	0	587202560	52	3803
2026-01-29 11:05:25.31	136.38	13.14	-40.1	-41.0	22.5	0.00e+00	0	42	0	593494016	52	3826
2026-01-29 11:05:26.32	136.35	13.24	-40.1	-40.9	22.6	0.00e+00	0	42	0	598736896	52	3824
2026-01-29 11:05:27.33	136.33	13.34	-40.1	-41.0	22.6	0.00e+00	0	42	0	603979776	52	3827
2026-01-29 11:05:28.34	136.30	13.44	-40.0	-40.9	22.6	0.00e+00	0	42	0	610271232	52	3792
2026-01-29 11:05:29.35	136.27	13.54	-40.1	-41.0	22.5	0.00e+00	0	42	0	616562688	52	3841
2026-01-29 11:05:30.36	136.24	13.64	-40.0	-40.8	22.7	0.00e+00	0	42	0	621805568	52	3779
2026-01-29 11:05:31.37	136.22	13.74	-40.1	-40.9	22.7	0.00e+00	0	41	0	627048448	51	4022
2026-01-29 11:05:32.37	136.19	13.84	-40.2	-41.0	22.6	0.00e+00	0	42	0	633339904	51	4082
2026-01-29 11:05:33.38	136.16	13.95	-40.1	-40.9	22.7	0.00e+00	0	42	0	638582784	51	4043
2026-01-29 11:05:34.39	136.13	14.05	-40.0	-40.8	22.7	0.00e+00	0	42	0	643825664	51	4004
2026-01-29 11:05:35.39	136.11	14.15	-40.0	-40.9	22.7	0.00e+00	0	42	0	650117120	51	4010
2026-01-29 11:05:36.40	136.08	14.25	-39.9	-40.7	22.9	0.00e+00	0	42	0	655360000	51	3951
2026-01-29 11:05:37.41	136.05	14.36	-39.9	-40.7	22.8	0.00e+00	0	42	0	661651456	51	3952
2026-01-29 11:05:38.42	136.02	14.46	-39.8	-40.6	22.9	0.00e+00	0	42	0	666894336	51	3908
2026-01-29 11:05:39.43	135.99	14.57	-39.8	-40.7	22.9	0.00e+00	0	42	0	672137216	51	3928
2026-01-29 11:05:40.43	135.96	14.67	-39.9	-40.7	22.9	0.00e+00	0	42	0	678428672	51	3940
2026-01-29 11:05:41.44	135.93	14.78	-39.8	-40.6	23.0	0.00e+00	0	42	0	683671552	51	3896
2026-01-29 11:05:42.45	135.90	14.88	-39.9	-40.7	22.9	0.00e+00	0	42	0	689963008	51	3934
2026-01-29 11:05:43.46	135.87	14.99	-39.8	-40.6	23.0	0.00e+00	0	42	0	695205888	51	3889
2026-01-29 11:05:44.47	135.84	15.10	-39.7	-40.5	23.1	0.00e+00	0	42	0	701497344	51	3844
2026-01-29 11:05:45.48	135.81	15.21	-39.5	-40.3	23.2	0.00e+00	0	42	0	706740224	51	3780
2026-01-29 11:05:46.49	135.78	15.31	-39.5	-40.3	23.2	0.00e+00	0	42	0	711983104	51	3776
2026-01-29 11:05:47.50	135.75	15.42	-39.6	-40.4	23.2	0.00e+00	0	42	0	718274560	51	3822
2026-01-29 11:05:48.51	135.72	15.53	-39.5	-40.3	23.3	0.00e+00	0	42	0	723517440	51	3760
2026-01-29 11:05:49.52	135.69	15.64	-39.3	-40.1	23.5	0.00e+00	0	42	0	729808896	50	3880
2026-01-29 11:05:50.53	135.65	15.75	-39.3	-40.1	23.4	0.00e+00	0	42	0	735051776	50	3911
2026-01-29 11:05:51.54	135.62	15.86	-39.4	-40.2	23.4	0.00e+00	0	42	0	740294656	50	3928
2026-01-29 11:05:52.55	135.59	15.97	-39.3	-40.0	23.5	0.00e+00	0	42	0	746586112	50	3867
2026-01-29 11:05:53.55	135.56	16.08	-39.2	-40.0	23.6	0.00e+00	0	42	0	751828992	50	3830
2026-01-29 11:05:54.56	135.52	16.20	-39.2	-40.0	23.6	0.00e+00	0	42	0	758120448	50	3838
2026-01-29 11:05:55.57	135.49	16.31	-39.1	-39.9	23.6	0.00e+00	0	42	0	763363328	50	3814
2026-01-29 11:05:56.58	135.46	16.42	-39.1	-39.8	23.7	0.00e+00	0	42	0	769654784	50	3778
2026-01-29 11:05:57.59	135.42	16.54	-39.1	-39.8	23.7	0.00e+00	0	42	0	774897664	50	3776
2026-01-29 11:05:58.60	135.39	16.65	-39.0	-39.8	23.7	0.00e+00	0	42	0	780140544	50	3756
2026-01-29 11:05:59.60	135.36	16.76	-39.1	-39.9	23.7	0.00e+00	0	42	0	786432000	50	3786
2026-01-29 11:06:00.61	135.32	16.88	-39.1	-39.9	23.7	0.00e+00	0	42	0	791674880	50	3782
2026-01-29 11:06:01.62	135.29	16.99	-39.1	-39.9	23.6	0.00e+00	0	42	0	796917760	50	3818
2026-01-29 11:06:02.62	135.25	17.11	-39.1	-39.9	23.7	0.00e+00	0	42	0	803209216	50	3815
2026-01-29 11:06:03.62	135.22	17.22	-39.1	-39.9	23.7	0.00e+00	0	42	0	808452096	50	3801
2026-01-29 11:06:04.63	135.18	17.34	-39.2	-40.0	23.6	0.00e+00	0	42	0	814743552	50	3833
2026-01-29 11:06:05.64	135.14	17.46	-39.0	-39.8	23.8	0.00e+00	0	42	0	819986432	50	3762
2026-01-29 11:06:06.65	135.11	17.58	-39.0	-39.8	23.8	0.00e+00	0	42	0	826277888	50	3769
2026-01-29 11:06:07.66	135.07	17.70	-39.1	-39.9	23.7	0.00e+00	0	42	0	831520768	50	3794
2026-01-29 11:06:08.67	135.03	17.82	-38.9	-39.6	23.9	0.00e+00	0	42	0	836763648	49	3909
2026-01-29 11:06:09.67	135.00	17.94	-38.9	-39.7	23.9	0.00e+00	0	42	0	843055104	49	3915
2026-01-29 11:06:10.68	134.96	18.06	-38.8	-39.6	23.9	0.00e+00	0	42	0	848297984	49	3900
2026-01-29 11:06:11.69	134.92	18.18	-38.9	-39.7	23.9	0.00e+00	0	42	0	854589440	49	3925
2026-01-29 11:06:12.69	134.88	18.30	-38.9	-39.6	23.9	0.00e+00	0	42	0	859832320	49	3910
2026-01-29 11:06:13.70	134.84	18.42	-38.7	-39.5	24.0	0.00e+00	0	42	0	865075200	49	3837
2026-01-29 11:06:14.71	134.81	18.54	-38.6	-39.4	24.1	0.00e+00	0	42	0	871366656	49	3794
2026-01-29 11:06:15.72	134.77	18.67	-38.7	-39.5	24.1	0.00e+00	0	42	0	876609536	49	3825
2026-01-29 11:06:16.73	134.73	18.79	-38.6	-39.4	24.2	0.00e+00	0	42	0	881852416	49	3790
2026-01-29 11:06:17.74	134.69	18.92	-38.7	-39.5	24.1	0.00e+00	0	42	0	888143872	49	3844
2026-01-29 11:06:18.75	134.65	19.04	-38.6	-39.4	24.1	0.00e+00	0	41	0	894435328	49	3790
2026-01-29 11:06:19.76	134.61	19.17	-38.5	-39.3	24.2	0.00e+00	0	42	0	899678208	49	3745
2026-01-29 11:06:20.77	134.56	19.30	-38.6	-39.4	24.1	0.00e+00	0	42	0	904921088	49	3786
2026-01-29 11:06:21.78	134.52	19.42	-38.6	-39.3	24.2	0.00e+00	0	42	0	911212544	49	3776
2026-01-29 11:06:22.79	134.48	19.55	-38.5	-39.2	24.3	0.00e+00	0	42	0	916455424	49	3729
2026-01-29 11:06:23.79	134.44	19.68	-38.5	-39.2	24.3	0.00e+00	0	42	0	922746880	48	3946
2026-01-29 11:06:24.80	134.40	19.81	-38.4	-39.1	24.3	0.00e+00	0	42	0	927989760	48	3908
2026-01-29 11:06:25.81	134.35	19.94	-38.4	-39.2	24.3	0.00e+00	0	42	0	933232640	48	3934
2026-01-29 11:06:26.82	134.31	20.07	-38.6	-39.3	24.2	0.00e+00	0	42	0	939524096	48	3994
2026-01-29 11:06:27.82	134.27	20.20	-38.5	-39.2	24.3	0.00e+00	0	42	0	944766976	48	3948
2026-01-29 11:06:28.83	134.22	20.33	-38.5	-39.3	24.2	0.00e+00	0	42	0	950009856	48	3969
2026-01-29 11:06:29.84	134.18	20.46	-38.5	-39.2	24.3	0.00e+00	0	42	0	956301312	48	3955
2026-01-29 11:06:30.85	134.13	20.60	-38.4	-39.1	24.3	0.00e+00	0	42	0	961544192	48	3911
2026-01-29 11:06:31.85	134.09	20.73	-38.4	-39.1	24.4	0.00e+00	0	42	0	967835648	48	3904
2026-01-29 11:06:32.87	134.04	20.86	-38.4	-39.2	24.3	0.00e+00	0	42	0	973078528	48	3919
2026-01-29 11:06:33.87	134.00	21.00	-38.3	-39.0	24.4	0.00e+00	0	42	0	979369984	48	3863
2026-01-29 11:06:34.88	133.95	21.13	-38.2	-39.0	24.5	0.00e+00	0	42	0	984612864	48	3843
2026-01-29 11:06:35.88	133.90	21.27	-38.1	-38.9	24.6	0.00e+00	0	42	0	989855744	48	3788
2026-01-29 11:06:36.89	133.85	21.41	-38.0	-38.8	24.6	0.00e+00	0	42	0	996147200	48	3757
2026-01-29 11:06:37.90	133.81	21.55	-38.1	-38.8	24.6	0.00e+00	0	42	0	1001390080	48	3768
2026-01-29 11:06:38.91	133.76	21.69	-38.1	-38.8	24.6	0.00e+00	0	42	0	1007681536	48	3771
2026-01-29 11:06:39.92	133.71	21.82	-37.6	-38.4	24.6	0.00e+00	0	42	0	1012924416	47	3790
2026-01-29 11:06:40.91	133.66	21.96	-37.7	-38.4	24.5	0.00e+00	0	42	0	1018167296	47	3811
2026-01-29 11:06:41.92	133.61	22.10	-37.6	-38.4	24.5	0.00e+00	0	42	0	1024458752	47	3805
2026-01-29 11:06:42.93	133.56	22.25	-37.5	-38.3	24.6	0.00e+00	0	42	0	1029701632	47	3767
2026-01-29 11:06:43.94	133.51	22.39	-37.5	-38.3	24.6	0.00e+00	0	42	0	1034944512	47	3762
2026-01-29 11:06:44.95	133.46	22.53	-37.5	-38.3	24.6	0.00e+00	0	42	0	1041235968	47	3766
2026-01-29 11:06:45.95	133.41	22.68	-37.6	-38.4	24.6	0.00e+00	0	42	0	1047527424	47	3781
2026-01-29 11:06:46.96	133.35	22.82	-37.6	-38.3	24.6	0.00e+00	0	42	0	1052770304	47	3779
2026-01-29 11:06:47.97	133.30	22.97	-37.4	-38.2	24.7	0.00e+00	0	42	0	1058013184	46	3947
2026-01-29 11:06:48.98	133.25	23.11	-37.5	-38.2	24.6	0.00e+00	0	42	0	1064304640	46	3957
2026-01-29 11:06:49.98	133.19	23.26	-37.4	-38.2	24.8	0.00e+00	0	42	0	1069547520	46	3919
2026-01-29 11:06:50.99	133.14	23.41	-37.4	-38.1	24.8	0.00e+00	0	42	0	1074790400	46	3909
2026-01-29 11:06:52.00	133.08	23.56	-37.3	-38.1	24.8	0.00e+00	0	42	0	1081081856	46	3889
2026-01-29 11:06:53.00	133.03	23.71	-37.4	-38.1	24.7	0.00e+00	0	42	0	1086324736	46	3902
2026-01-29 11:06:54.01	132.97	23.86	-37.3	-38.0	24.9	0.00e+00	0	42	0	1092616192	46	3862
2026-01-29 11:06:55.02	132.91	24.01	-37.3	-38.1	24.9	0.00e+00	0	42	0	1097859072	46	3873
2026-01-29 11:06:56.02	132.86	24.16	-37.4	-38.2	24.8	0.00e+00	0	42	0	1103101952	46	3929
2026-01-29 11:06:57.03	132.80	24.31	-37.4	-38.1	24.8	0.00e+00	0	42	0	1109393408	46	3907
2026-01-29 11:06:58.04	132.74	24.47	-37.3	-38.1	24.9	0.00e+00	0	42	0	1114636288	46	3888
2026-01-29 11:06:59.05	132.68	24.62	-37.4	-38.1	24.8	0.00e+00	0	42	0	1119879168	46	3902
2026-01-29 11:07:00.05	132.62	24.78	-37.5	-38.3	24.7	0.00e+00	0	42	0	1126170624	46	3978
2026-01-29 11:07:01.06	132.56	24.93	-37.4	-38.1	24.8	0.00e+00	0	42	0	1132462080	46	3904
2026-01-29 11:07:02.07	132.50	25.09	-37.3	-38.0	24.9	0.00e+00	0	42	0	1137704960	46	3868
2026-01-29 11:07:03.08	132.44	25.25	-37.2	-37.9	25.0	0.00e+00	0	42	0	1142947840	46	3817
2026-01-29 11:07:04.09	132.38	25.41	-37.1	-37.9	25.0	0.00e+00	0	42	0	1149239296	46	3808
2026-01-29 11:07:05.09	132.31	25.57	-37.2	-37.9	25.0	0.00e+00	0	42	0	1154482176	46	3820
2026-01-29 11:07:06.10	132.25	25.73	-37.1	-37.8	25.1	0.00e+00	0	42	0	1159725056	46	3769
2026-01-29 11:07:07.11	132.18	25.89	-37.1	-37.9	25.1	0.00e+00	0	42	0	1166016512	46	3792
2026-01-29 11:07:08.12	132.12	26.06	-37.0	-37.8	25.2	0.00e+00	0	42	0	1171259392	46	3743
2026-01-29 11:07:09.13	132.05	26.22	-37.1	-37.8	25.1	0.00e+00	0	42	0	1177550848	46	3780
2026-01-29 11:07:10.14	131.99	26.38	-37.0	-37.8	25.1	0.00e+00	0	42	0	1182793728	46	3751
2026-01-29 11:07:11.14	131.92	26.55	-37.1	-37.9	25.0	0.00e+00	0	42	0	1188036608	46	3803
2026-01-29 11:07:12.15	131.85	26.72	-37.2	-37.9	25.0	0.00e+00	0	42	0	1194328064	46	3812
2026-01-29 11:07:13.16	131.78	26.89	-37.2	-38.0	25.0	0.00e+00	0	42	0	1200619520	46	3827
2026-01-29 11:07:14.17	131.71	27.05	-37.3	-38.1	24.9	0.00e+00	0	42	0	1205862400	46	3881
2026-01-29 11:07:15.17	131.64	27.22	-37.4	-38.1	24.8	0.00e+00	0	42	0	1211105280	46	3910
2026-01-29 11:07:16.19	131.57	27.40	-37.3	-38.1	24.9	0.00e+00	0	42	0	1217396736	46	3869
2026-01-29 11:07:17.19	131.50	27.57	-37.4	-38.2	24.8	0.00e+00	0	42	0	1222639616	46	3922
2026-01-29 11:07:18.20	131.43	27.74	-37.4	-38.1	24.8	0.00e+00	0	42	0	1227882496	46	3911
2026-01-29 11:07:19.20	131.35	27.91	-37.1	-37.9	25.1	0.00e+00	0	42	0	1234173952	46	3785
2026-01-29 11:07:20.21	131.28	28.09	-37.0	-37.8	25.1	0.00e+00	0	42	0	1239416832	46	3756
2026-01-29 11:07:21.22	131.20	28.26	-37.1	-37.8	25.1	0.00e+00	0	42	0	1244659712	46	3766
2026-01-29 11:07:22.22	131.13	28.44	-36.9	-37.7	25.3	0.00e+00	0	42	0	1250951168	45	3918
2026-01-29 11:07:23.22	131.05	28.62	-36.9	-37.7	25.2	0.00e+00	0	42	0	1256194048	45	3924
2026-01-29 11:07:24.23	130.97	28.80	-36.8	-37.6	25.3	0.00e+00	0	42	0	1262485504	45	3873
2026-01-29 11:07:25.24	130.90	28.98	-36.8	-37.6	25.3	0.00e+00	0	42	0	1267728384	45	3880
2026-01-29 11:07:26.25	130.82	29.16	-36.7	-37.5	25.4	0.00e+00	0	42	0	1274019840	45	3840
2026-01-29 11:07:27.25	130.74	29.34	-36.8	-37.5	25.4	0.00e+00	0	42	0	1279262720	45	3849
2026-01-29 11:07:28.26	130.65	29.52	-36.7	-37.4	25.4	0.00e+00	0	42	0	1285554176	45	3812
2026-01-29 11:07:29.26	130.57	29.71	-36.8	-37.5	25.3	0.00e+00	0	42	0	1290797056	45	3864
2026-01-29 11:07:30.27	130.49	29.89	-36.8	-37.5	25.4	0.00e+00	0	42	0	1296039936	45	3840
2026-01-29 11:07:31.28	130.40	30.08	-36.7	-37.5	25.4	0.00e+00	0	42	0	1302331392	45	3832
2026-01-29 11:07:32.28	130.32	30.27	-36.7	-37.5	25.4	0.00e+00	0	42	0	1307574272	45	3837
2026-01-29 11:07:33.29	130.23	30.46	-36.5	-37.3	25.5	0.00e+00	0	42	0	1312817152	45	3751
2026-01-29 11:07:34.30	130.14	30.65	-36.6	-37.3	25.5	0.00e+00	0	42	0	1319108608	45	3776
2026-01-29 11:07:35.30	130.06	30.84	-36.5	-37.2	25.6	0.00e+00	0	42	0	1324351488	45	3737
2026-01-29 11:07:36.31	129.97	31.03	-36.4	-37.2	25.6	0.00e+00	0	42	0	1329594368	44	3923
2026-01-29 11:07:37.31	129.88	31.23	-36.5	-37.3	25.5	0.00e+00	0	42	0	1335885824	44	3959
2026-01-29 11:07:38.32	129.78	31.42	-36.5	-37.3	25.5	0.00e+00	0	42	0	1341128704	44	3967
2026-01-29 11:07:39.33	129.69	31.62	-36.5	-37.2	25.6	0.00e+00	0	42	0	1347420160	44	3937
2026-01-29 11:07:40.34	129.60	31.82	-36.4	-37.2	25.6	0.00e+00	0	42	0	1352663040	44	3923
2026-01-29 11:07:41.35	129.50	32.02	-36.5	-37.3	25.5	0.00e+00	0	42	0	1358954496	44	3967
2026-01-29 11:07:42.36	129.40	32.22	-36.4	-37.1	25.6	0.00e+00	0	42	0	1364197376	44	3898
2026-01-29 11:07:43.37	129.30	32.42	-36.4	-37.1	25.7	0.00e+00	0	42	0	1370488832	44	3902
2026-01-29 11:07:44.38	129.20	32.62	-36.4	-37.1	25.7	0.00e+00	0	42	0	1375731712	44	3890
2026-01-29 11:07:45.38	129.10	32.82	-36.5	-37.2	25.6	0.00e+00	0	42	0	1380974592	44	3949
2026-01-29 11:07:46.39	129.00	33.03	-36.6	-37.3	25.5	0.00e+00	0	42	0	1387266048	44	3997
2026-01-29 11:07:47.40	128.90	33.24	-36.5	-37.3	25.5	0.00e+00	0	42	0	1392508928	44	3976
2026-01-29 11:07:48.41	128.79	33.45	-36.6	-37.3	26.0	0.00e+00	0	42	0	1397751808	44	3991
2026-01-29 11:07:49.42	128.69	33.66	-36.6	-37.3	26.0	0.00e+00	0	42	0	1404043264	44	3987
2026-01-29 11:07:50.43	128.58	33.87	-36.6	-37.3	26.0	0.00e+00	0	42	0	1409286144	44	3982
2026-01-29 11:07:51.43	128.47	34.08	-36.6	-37.3	26.0	0.00e+00	0	42	0	1414529024	44	3994
2026-01-29 11:07:52.44	128.36	34.29	-36.6	-37.2	26.1	0.00e+00	0	42	0	1420820480	44	3954
2026-01-29 11:07:53.45	128.25	34.51	-36.4	-37.1	26.2	0.00e+00	0	42	0	1427111936	44	3900
2026-01-29 11:07:54.45	128.14	34.72	-36.5	-37.2	26.2	0.00e+00	0	42	0	1432354816	44	3914
2026-01-29 11:07:55.47	128.02	34.94	-36.4	-37.1	26.2	0.00e+00	0	42	0	1437597696	44	3899
2026-01-29 11:07:56.48	127.90	35.16	-36.4	-37.1	26.2	0.00e+00	0	42	0	1443889152	44	3893
2026-01-29 11:07:57.48	127.79	35.38	-36.5	-37.2	26.2	0.00e+00	0	42	0	1449132032	44	3933
2026-01-29 11:07:58.49	127.66	35.60	-36.4	-37.1	26.2	0.00e+00	0	42	0	1455423488	44	3895
2026-01-29 11:07:59.50	127.54	35.82	-36.4	-37.1	26.2	0.00e+00	0	42	0	1460666368	44	3900
2026-01-29 11:08:00.51	127.42	36.05	-36.5	-37.2	26.2	0.00e+00	0	42	0	1465909248	44	3920
2026-01-29 11:08:01.52	127.29	36.27	-36.4	-37.1	26.3	0.00e+00	0	42	0	1472200704	44	3896
2026-01-29 11:08:02.52	127.17	36.50	-36.5	-37.1	26.2	0.00e+00	0	42	0	1477443584	44	3909
2026-01-29 11:08:03.53	127.04	36.73	-36.5	-37.1	26.2	0.00e+00	0	42	0	1482686464	44	3903
2026-01-29 11:08:04.53	126.91	36.96	-36.4	-37.1	26.2	0.00e+00	0	42	0	1488977920	44	3890
2026-01-29 11:08:05.54	126.78	37.19	-36.5	-37.1	26.2	0.00e+00	0	42	0	1494220800	44	3909
2026-01-29 11:08:06.55	126.64	37.42	-36.5	-37.1	26.2	0.00e+00	0	42	0	1500512256	44	3905
2026-01-29 11:08:07.56	126.51	37.66	-36.4	-37.1	26.3	0.00e+00	0	42	0	1505755136	44	3896
2026-01-29 11:08:08.56	126.37	37.89	-36.5	-37.1	26.2	0.00e+00	0	42	0	1512046592	44	3910
2026-01-29 11:08:09.57	126.23	38.13	-36.5	-37.2	26.2	0.00e+00	0	42	0	1517289472	44	3930
2026-01-29 11:08:10.58	126.08	38.37	-36.6	-37.3	26.1	0.00e+00	0	42	0	1522532352	44	3986
2026-01-29 11:08:11.59	125.94	38.61	-36.6	-37.3	26.1	0.00e+00	0	42	0	1528823808	44	3981
2026-01-29 11:08:12.59	125.79	38.85	-36.7	-37.4	26.0	0.00e+00	0	42	0	1534066688	44	4042
2026-01-29 11:08:13.60	125.64	39.09	-36.8	-37.5	26.0	0.00e+00	0	42	0	1540358144	44	4054
2026-01-29 11:08:14.61	125.49	39.34	-36.7	-37.4	26.0	0.00e+00	0	42	0	1545601024	44	4020
2026-01-29 11:08:15.61	125.34	39.58	-36.7	-37.4	26.0	0.00e+00	0	42	0	1550843904	44	4040
2026-01-29 11:08:16.62	125.18	39.83	-36.6	-37.3	26.1	0.00e+00	0	42	0	1557135360	44	3978
2026-01-29 11:08:17.63	125.02	40.08	-36.8	-37.5	26.0	0.00e+00	0	42	0	1562378240	44	4059
2026-01-29 11:08:18.64	124.86	40.33	-36.7	-37.4	26.1	0.00e+00	0	42	0	1567621120	44	4019
2026-01-29 11:08:19.65	124.70	40.58	-36.8	-37.5	25.9	0.00e+00	0	42	0	1573912576	44	4081
2026-01-29 11:08:20.65	124.53	40.83	-37.1	-37.8	25.7	0.00e+00	0	42	0	1580204032	44	4217
2026-01-29 11:08:21.66	124.36	41.09	-37.3	-38.0	25.5	0.00e+00	0	42	0	1585446912	45	4096
2026-01-29 11:08:22.67	124.19	41.35	-37.4	-38.2	25.4	0.00e+00	0	42	0	1590689792	45	4153
2026-01-29 11:08:23.67	124.02	41.60	-37.4	-38.1	25.5	0.00e+00	0	42	0	1596981248	45	4113
2026-01-29 11:08:24.68	123.84	41.86	-37.4	-38.1	25.4	0.00e+00	0	42	0	1602224128	45	4112
2026-01-29 11:08:25.69	123.66	42.13	-37.3	-38.0	25.5	0.00e+00	0	42	0	1607467008	45	4076
2026-01-29 11:08:26.70	123.47	42.39	-37.1	-37.7	25.8	0.00e+00	0	42	0	1613758464	45	3956
2026-01-29 11:08:27.71	123.29	42.65	-37.0	-37.7	25.8	0.00e+00	0	42	0	1619001344	45	3918
2026-01-29 11:08:28.72	123.10	42.92	-37.0	-37.7	25.8	0.00e+00	0	42	0	1625292800	45	3942
2026-01-29 11:08:29.72	122.91	43.19	-37.1	-37.8	25.7	0.00e+00	0	42	0	1630535680	45	3976
2026-01-29 11:08:30.72	122.71	43.45	-37.1	-37.8	25.7	0.00e+00	0	42	0	1635778560	45	3996
2026-01-29 11:08:31.73	122.51	43.72	-37.2	-38.0	25.6	0.00e+00	0	42	0	1642070016	45	4054
2026-01-29 11:08:32.74	122.31	44.00	-36.9	-37.6	25.9	0.00e+00	0	42	0	1647312896	45	3897
2026-01-29 11:08:33.75	122.10	44.27	-37.1	-37.8	25.7	0.00e+00	0	42	0	1653604352	45	3980
2026-01-29 11:08:34.75	121.89	44.54	-37.1	-37.8	25.7	0.00e+00	0	42	0	1658847232	45	3996
2026-01-29 11:08:35.76	121.68	44.82	-37.2	-37.9	25.7	0.00e+00	0	42	0	1665138688	45	4011
2026-01-29 11:08:36.77	121.46	45.10	-37.2	-37.9	25.6	0.00e+00	0	42	0	1670381568	45	4033
2026-01-29 11:08:37.78	121.24	45.38	-37.1	-37.8	25.8	0.00e+00	0	42	0	1675624448	45	3964
2026-01-29 11:08:38.79	121.01	45.66	-37.0	-37.7	25.8	0.00e+00	0	42	0	1681915904	45	3946
2026-01-29 11:08:39.80	120.78	45.94	-37.0	-37.7	25.9	0.00e+00	0	42	0	1687158784	45	3919
2026-01-29 11:08:40.81	120.55	46.23	-36.9	-37.6	25.9	0.00e+00	0	42	0	1692401664	45	3886
2026-01-29 11:08:41.81	120.31	46.51	-37.0	-37.7	25.8	0.00e+00	0	42	0	1698693120	45	3941
2026-01-29 11:08:42.82	120.07	46.80	-37.0	-37.7	25.8	0.00e+00	0	42	0	1703936000	45	3923
2026-01-29 11:08:43.83	119.82	47.08	-36.9	-37.6	25.9	0.00e+00	0	42	0	1710227456	45	3885
2026-01-29 11:08:44.83	119.57	47.37	-37.0	-37.7	25.9	0.00e+00	0	42	0	1715470336	45	3919
2026-01-29 11:08:45.84	119.31	47.66	-37.1	-37.8	25.8	0.00e+00	0	42	0	1720713216	45	3965
2026-01-29 11:08:46.85	119.05	47.95	-37.2	-37.9	25.6	0.00e+00	0	42	0	1727004672	45	4046
2026-01-29 11:08:47.86	118.78	48.25	-37.3	-38.0	25.6	0.00e+00	0	42	0	1733296128	45	4061
2026-01-29 11:08:48.87	118.51	48.54	-37.2	-37.9	25.6	0.00e+00	0	42	0	1738539008	45	4039
2026-01-29 11:08:49.88	118.23	48.84	-37.3	-38.0	25.6	0.00e+00	0	42	0	1743781888	45	4067
2026-01-29 11:08:50.89	117.95	49.14	-37.4	-38.1	25.5	0.00e+00	0	42	0	1750073344	45	4109
2026-01-29 11:08:51.89	117.66	49.43	-37.6	-38.3	25.3	0.00e+00	0	42	0	1755316224	45	4223
2026-01-29 11:08:52.90	117.36	49.73	-37.9	-38.6	25.1	0.00e+00	0	42	0	1760559104	46	4104
2026-01-29 11:08:53.91	117.06	50.03	-38.0	-38.7	25.0	0.00e+00	0	42	0	1766850560	46	4163
2026-01-29 11:08:54.92	116.76	50.34	-37.8	-38.6	25.1	0.00e+00	0	42	0	1772093440	46	4105
2026-01-29 11:08:55.93	116.44	50.64	-37.8	-38.6	25.1	0.00e+00	0	42	0	1777336320	46	4107
2026-01-29 11:08:56.94	116.12	50.94	-38.0	-38.7	25.0	0.00e+00	0	42	0	1783627776	46	4184
2026-01-29 11:08:57.95	115.80	51.25	-38.3	-39.1	24.6	0.00e+00	0	42	0	1788870656	47	4116
2026-01-29 11:08:58.95	115.47	51.55	-38.2	-39.0	24.7	0.00e+00	0	42	0	1795162112	47	4063
2026-01-29 11:08:59.96	115.13	51.86	-38.0	-38.7	25.0	0.00e+00	0	42	0	1800404992	47	3957
2026-01-29 11:09:00.97	114.78	52.17	-38.0	-38.8	24.9	0.00e+00	0	42	0	1806696448	47	3964
2026-01-29 11:09:01.97	114.43	52.47	-37.8	-38.5	25.2	0.00e+00	0	42	0	1811939328	47	3851
2026-01-29 11:09:02.98	114.07	52.78	-37.8	-38.6	25.1	0.00e+00	0	42	0	1818230784	47	3878
2026-01-29 11:09:03.99	113.70	53.09	-38.0	-38.7	25.0	0.00e+00	0	42	0	1823473664	47	3930
2026-01-29 11:09:05.00	113.32	53.41	-37.8	-38.5	25.2	0.00e+00	0	42	0	1828716544	47	3845
2026-01-29 11:09:06.00	112.94	53.71	-37.7	-38.4	25.3	0.00e+00	0	42	0	1835008000	47	3804
2026-01-29 11:09:07.01	112.55	54.03	-37.7	-38.4	25.3	0.00e+00	0	42	0	1840250880	47	3800
2026-01-29 11:09:08.02	112.14	54.34	-37.5	-38.2	25.4	0.00e+00	0	42	0	1845493760	47	3734
2026-01-29 11:09:09.03	111.73	54.65	-37.5	-38.2	25.5	0.00e+00	0	42	0	1851785216	46	3925
2026-01-29 11:09:10.04	111.31	54.97	-37.6	-38.3	25.4	0.00e+00	0	42	0	1857028096	46	3979
2026-01-29 11:09:11.05	110.88	55.28	-37.6	-38.4	25.3	0.00e+00	0	42	0	1863319552	46	4010
2026-01-29 11:09:12.06	110.44	55.59	-37.7	-38.4	25.3	0.00e+00	0	42	0	1868562432	46	4008
2026-01-29 11:09:13.07	109.99	55.91	-37.7	-38.4	25.3	0.00e+00	0	42	0	1874853888	46	4011
2026-01-29 11:09:14.08	109.53	56.22	-37.5	-38.2	25.4	0.00e+00	0	42	0	1880096768	46	3949
2026-01-29 11:09:15.09	109.06	56.54	-37.7	-38.4	25.3	0.00e+00	0	42	0	1885339648	46	4010
2026-01-29 11:09:16.10	108.57	56.85	-37.6	-38.3	25.4	0.00e+00	0	42	0	1891631104	46	3987
2026-01-29 11:09:17.11	108.08	57.16	-37.7	-38.4	25.3	0.00e+00	0	42	0	1896873984	46	4008
2026-01-29 11:09:18.11	107.58	57.47	-37.6	-38.3	25.4	0.00e+00	0	42	0	1903165440	46	3993
2026-01-29 11:09:19.12	107.06	57.79	-37.6	-38.3	25.4	0.00e+00	0	42	0	1908408320	46	4003
2026-01-29 11:09:20.13	106.53	58.10	-37.6	-38.3	25.4	0.00e+00	0	42	0	1913651200	46	3981
2026-01-29 11:09:21.14	105.99	58.41	-37.6	-38.3	25.3	0.00e+00	0	42	0	1919942656	46	3998
2026-01-29 11:09:22.15	105.44	58.72	-37.7	-38.4	25.3	0.00e+00	0	42	0	1926234112	46	4042
2026-01-29 11:09:23.16	104.87	59.03	-37.6	-38.3	25.4	0.00e+00	0	42	0	1931476992	46	3978
2026-01-29 11:09:24.17	104.29	59.34	-37.7	-38.4	25.4	0.00e+00	0	42	0	1936719872	46	4010
2026-01-29 11:09:25.18	103.70	59.65	-37.8	-38.6	25.2	0.00e+00	0	42	0	1943011328	46	4099
2026-01-29 11:09:26.19	103.09	59.95	-37.9	-38.7	25.0	0.00e+00	0	42	0	1948254208	46	4156
2026-01-29 11:09:27.20	102.46	60.26	-37.6	-38.3	25.4	0.00e+00	0	42	0	1953497088	46	3982
2026-01-29 11:09:28.21	101.82	60.56	-37.6	-38.3	25.4	0.00e+00	0	42	0	1959788544	46	3991
2026-01-29 11:09:29.22	101.17	60.86	-37.5	-38.2	25.5	0.00e+00	0	42	0	1965031424	46	3922
2026-01-29 11:09:30.23	100.50	61.16	-37.2	-37.9	25.8	0.00e+00	0	42	0	1970274304	46	3804
2026-01-29 11:09:31.23	99.82	61.45	-37.2	-37.9	25.8	0.00e+00	0	42	0	1976565760	46	3784
2026-01-29 11:09:32.24	99.12	61.75	-37.2	-37.8	25.8	0.00e+00	0	42	0	1981808640	46	3779
2026-01-29 11:09:33.25	98.40	62.04	-36.9	-37.6	26.0	0.00e+00	0	42	0	1988100096	45	3899
2026-01-29 11:09:34.26	97.66	62.33	-37.0	-37.6	26.0	0.00e+00	0	42	0	1993342976	45	3911
2026-01-29 11:09:35.27	96.90	62.62	-36.8	-37.4	26.2	0.00e+00	0	42	0	1999634432	45	3817
2026-01-29 11:09:36.28	96.13	62.90	-37.0	-37.7	26.0	0.00e+00	0	42	0	2004877312	45	3923
2026-01-29 11:09:37.29	95.34	63.18	-36.6	-37.3	26.3	0.00e+00	0	42	0	2011168768	45	3769
2026-01-29 11:09:38.29	94.54	63.45	-36.5	-37.1	26.4	0.00e+00	0	42	0	2016411648	44	3907
2026-01-29 11:09:39.31	93.70	63.73	-36.4	-37.1	26.5	0.00e+00	0	42	0	2021654528	44	3881
2026-01-29 11:09:40.31	92.86	63.99	-36.2	-36.9	26.6	0.00e+00	0	42	0	2027945984	44	3782
2026-01-29 11:09:41.32	91.99	64.26	-36.3	-37.0	26.5	0.00e+00	0	42	0	2033188864	44	3845
2026-01-29 11:09:42.33	91.10	64.51	-36.2	-36.9	26.6	0.00e+00	0	42	0	2038431744	44	3811
2026-01-29 11:09:43.34	90.19	64.77	-35.8	-36.5	26.9	0.00e+00	0	42	0	2044723200	43	3832
2026-01-29 11:09:44.35	89.26	65.02	-35.8	-36.5	26.9	0.00e+00	0	42	0	2051014656	43	3841
2026-01-29 11:09:45.36	88.31	65.26	-35.6	-36.2	27.1	0.00e+00	0	42	0	2056257536	43	3722
2026-01-29 11:09:46.37	87.34	65.50	-35.6	-36.2	27.1	0.00e+00	0	42	0	2061500416	43	3734
2026-01-29 11:09:47.38	86.35	65.73	-35.9	-36.5	26.8	0.00e+00	0	42	0	2067791872	43	3854
2026-01-29 11:09:48.39	85.34	65.96	-36.1	-36.8	26.6	0.00e+00	0	42	0	2073034752	43	3985
2026-01-29 11:09:49.40	84.30	66.18	-35.9	-36.6	26.8	0.00e+00	0	42	0	2078277632	43	3891
2026-01-29 11:09:50.41	83.25	66.40	-35.5	-36.2	27.1	0.00e+00	0	42	0	2084569088	43	3700
2026-01-29 11:09:51.42	82.17	66.60	-35.4	-36.0	27.3	0.00e+00	0	42	0	2089811968	42	3835
2026-01-29 11:09:52.43	81.07	66.80	-35.3	-35.9	27.3	0.00e+00	0	42	0	2096103424	42	3821
2026-01-29 11:09:53.44	79.96	66.99	-35.5	-36.2	27.1	0.00e+00	0	42	0	2101346304	42	3926
2026-01-29 11:09:54.45	78.82	67.18	-35.5	-36.1	27.1	0.00e+00	0	42	0	2107637760	42	3911
2026-01-29 11:09:55.46	77.66	67.36	-35.5	-36.2	27.1	0.00e+00	0	42	0	2112880640	42	3918
2026-01-29 11:09:56.47	76.48	67.52	-35.4	-36.0	27.3	0.00e+00	0	42	0	2119172096	42	3864
2026-01-29 11:09:57.48	75.29	67.68	-35.5	-36.2	27.2	0.00e+00	0	42	0	2124414976	42	3915
2026-01-29 11:09:58.49	74.07	67.83	-35.6	-36.3	27.0	0.00e+00	0	42	0	2129657856	42	3978
2026-01-29 11:09:59.49	72.85	67.97	-35.5	-36.2	27.1	0.00e+00	0	42	0	2135949312	42	3920
2026-01-29 11:10:00.50	71.61	68.11	-35.6	-36.3	27.1	0.00e+00	0	42	0	2141192192	42	3965
2026-01-29 11:10:01.51	70.34	68.23	-35.7	-36.4	27.0	0.00e+00	0	42	0	2146435072	42	4010
2026-01-29 11:10:02.52	69.06	68.34	-35.6	-36.3	27.0	0.00e+00	0	42	0	2152726528	42	3962
2026-01-29 11:10:03.53	67.77	68.44	-35.7	-36.3	27.0	0.00e+00	0	42	0	2157969408	42	3987
2026-01-29 11:10:04.53	66.48	68.54	-35.5	-36.1	27.2	0.00e+00	0	42	0	2163212288	42	3906
2026-01-29 11:10:05.53	65.17	68.62	-35.3	-35.9	27.3	0.00e+00	0	42	0	2169503744	42	3820
2026-01-29 11:10:06.54	63.85	68.69	-35.4	-36.1	27.3	0.00e+00	0	42	0	2174746624	42	3874
2026-01-29 11:10:07.55	62.51	68.75	-35.7	-36.3	27.0	0.00e+00	0	42	0	2181038080	42	4002
2026-01-29 11:10:08.56	61.17	68.80	-35.6	-36.2	27.1	0.00e+00	0	42	0	2186280960	42	3952
2026-01-29 11:10:09.57	59.82	68.84	-35.6	-36.2	27.1	0.00e+00	0	42	0	2192572416	42	3947
2026-01-29 11:10:10.58	58.46	68.87	-35.6	-36.3	27.1	0.00e+00	0	42	0	2197815296	42	3972
2026-01-29 11:10:11.59	57.10	68.89	-35.7	-36.4	27.0	0.00e+00	0	42	0	2204106752	42	4008
2026-01-29 11:10:12.60	55.74	68.90	-35.7	-36.3	27.0	0.00e+00	0	42	0	2209349632	42	3995
2026-01-29 11:10:13.61	54.38	68.89	-35.7	-36.3	27.0	0.00e+00	0	42	0	2214592512	42	3997
2026-01-29 11:10:14.62	53.02	68.88	-35.5	-36.1	27.2	0.00e+00	0	42	0	2220883968	42	3905
2026-01-29 11:10:15.63	51.67	68.85	-35.4	-36.1	27.2	0.00e+00	0	42	0	2226126848	42	3877
2026-01-29 11:10:16.64	50.32	68.81	-35.6	-36.2	27.1	0.00e+00	0	42	0	2231369728	42	3952
2026-01-29 11:10:17.65	48.97	68.76	-35.4	-36.0	27.3	0.00e+00	0	42	0	2237661184	42	3859
2026-01-29 11:10:18.65	47.65	68.71	-35.5	-36.2	27.1	0.00e+00	0	42	0	2243952640	42	3935
2026-01-29 11:10:19.66	46.32	68.64	-35.8	-36.4	26.9	0.00e+00	0	42	0	2249195520	42	4048
2026-01-29 11:10:20.67	45.00	68.56	-35.6	-36.3	27.1	0.00e+00	0	42	0	2254438400	42	3959
2026-01-29 11:10:21.68	43.69	68.47	-35.5	-36.1	27.2	0.00e+00	0	42	0	2260729856	42	3901
2026-01-29 11:10:22.68	42.41	68.37	-35.7	-36.3	27.1	0.00e+00	0	42	0	2265972736	42	4002
2026-01-29 11:10:23.69	41.13	68.25	-35.6	-36.2	27.1	0.00e+00	0	42	0	2271215616	42	3946
2026-01-29 11:10:24.71	39.85	68.13	-35.6	-36.3	27.1	0.00e+00	0	42	0	2277507072	42	3963
2026-01-29 11:10:25.71	38.61	68.00	-35.5	-36.2	27.2	0.00e+00	0	42	0	2282749952	42	3921
2026-01-29 11:10:26.72	37.37	67.86	-35.6	-36.3	27.1	0.00e+00	0	42	0	2289041408	42	3983
2026-01-29 11:10:27.73	36.16	67.72	-35.8	-36.5	26.9	0.00e+00	0	42	0	2294284288	42	4063
2026-01-29 11:10:28.74	34.96	67.56	-35.6	-36.3	27.1	0.00e+00	0	42	0	2299527168	42	3962
2026-01-29 11:10:29.74	33.79	67.39	-35.8	-36.4	27.0	0.00e+00	0	42	0	2305818624	42	4036
2026-01-29 11:10:30.75	32.63	67.22	-36.0	-36.7	26.8	0.00e+00	0	42	0	2312110080	42	4146
2026-01-29 11:10:31.76	31.49	67.04	-35.6	-36.2	27.1	0.00e+00	0	42	0	2317352960	42	3948
2026-01-29 11:10:32.77	30.37	66.85	-35.4	-36.0	27.3	0.00e+00	0	42	0	2322595840	42	3858
2026-01-29 11:10:33.77	29.28	66.65	-35.7	-36.4	27.0	0.00e+00	0	42	0	2328887296	42	4015
2026-01-29 11:10:34.78	28.20	66.45	-35.8	-36.5	26.9	0.00e+00	0	42	0	2334130176	42	4060
2026-01-29 11:10:35.78	27.15	66.24	-35.7	-36.3	27.0	0.00e+00	0	42	0	2339373056	42	3997
2026-01-29 11:10:36.79	26.11	66.02	-35.8	-36.4	27.0	0.00e+00	0	42	0	2345664512	42	4049
2026-01-29 11:10:37.80	25.09	65.79	-35.7	-36.3	27.0	0.00e+00	0	42	0	2350907392	42	4000
2026-01-29 11:10:38.81	24.09	65.56	-36.0	-36.7	26.8	0.00e+00	0	42	0	2356150272	42	4155
2026-01-29 11:10:39.81	23.13	65.33	-36.1	-36.8	26.6	0.00e+00	0	42	0	2362441728	42	4222
2026-01-29 11:10:40.82	22.17	65.08	-36.2	-36.8	26.6	0.00e+00	0	42	0	2367684608	42	4227
2026-01-29 11:10:41.83	21.24	64.84	-35.8	-36.5	26.9	0.00e+00	0	42	0	2373976064	42	4067
2026-01-29 11:10:42.84	20.33	64.58	-35.7	-36.4	27.0	0.00e+00	0	42	0	2379218944	42	4020
2026-01-29 11:10:43.85	19.43	64.32	-35.6	-36.3	27.1	0.00e+00	0	42	0	2384461824	42	3975
2026-01-29 11:10:44.85	18.57	64.06	-35.8	-36.5	26.9	0.00e+00	0	42	0	2390753280	42	4059
2026-01-29 11:10:45.86	17.72	63.80	-35.8	-36.4	26.9	0.00e+00	0	42	0	2397044736	42	4051
2026-01-29 11:10:46.87	16.88	63.53	-35.8	-36.4	26.9	0.00e+00	0	42	0	2402287616	42	4044
2026-01-29 11:10:47.88	16.07	63.25	-35.9	-36.5	26.9	0.00e+00	0	42	0	2407530496	42	4083
2026-01-29 11:10:48.89	15.27	62.97	-36.1	-36.8	26.7	0.00e+00	0	42	0	2413821952	42	4199
2026-01-29 11:10:49.90	14.50	62.69	-36.2	-36.9	26.6	0.00e+00	0	42	0	2419064832	43	4008
2026-01-29 11:10:50.91	13.74	62.41	-36.5	-37.1	26.4	0.00e+00	0	42	0	2424307712	43	4139
2026-01-29 11:10:51.91	13.00	62.12	-36.7	-37.4	26.2	0.00e+00	0	42	0	2430599168	43	4255
2026-01-29 11:10:52.92	12.28	61.83	-36.6	-37.3	26.2	0.00e+00	0	42	0	2435842048	43	4235
2026-01-29 11:10:53.93	11.57	61.54	-36.9	-37.6	26.1	0.00e+00	0	42	0	2441084928	44	4111
2026-01-29 11:10:54.93	10.89	61.25	-36.9	-37.6	26.1	0.00e+00	0	42	0	2447376384	44	4109
2026-01-29 11:10:55.94	10.22	60.95	-36.9	-37.5	26.1	0.00e+00	0	42	0	2452619264	44	4095
2026-01-29 11:10:56.95	9.56	60.65	-36.6	-37.3	26.3	0.00e+00	0	42	0	2458910720	44	3987
2026-01-29 11:10:57.96	8.92	60.35	-36.7	-37.4	26.3	0.00e+00	0	42	0	2464153600	44	4020
2026-01-29 11:10:58.97	8.29	60.04	-36.8	-37.5	26.2	0.00e+00	0	42	0	2470445056	44	4074
2026-01-29 11:10:59.97	7.68	59.74	-36.8	-37.5	26.1	0.00e+00	0	42	0	2475687936	44	4083
2026-01-29 11:11:00.98	7.08	59.43	-36.9	-37.5	26.1	0.00e+00	0	42	0	2481979392	44	4093
2026-01-29 11:11:01.99	6.50	59.13	-36.8	-37.4	26.2	0.00e+00	0	42	0	2487222272	44	4038
2026-01-29 11:11:02.99	5.93	58.82	-36.8	-37.5	26.2	0.00e+00	0	42	0	2492465152	44	4053
2026-01-29 11:11:04.00	5.38	58.51	-36.9	-37.6	26.1	0.00e+00	0	42	0	2498756608	44	4100
2026-01-29 11:11:05.01	4.83	58.20	-36.6	-37.3	26.3	0.00e+00	0	42	0	2503999488	44	3975
2026-01-29 11:11:06.02	4.30	57.89	-36.7	-37.4	26.2	0.00e+00	0	42	0	2509242368	44	4031
2026-01-29 11:11:07.02	3.79	57.58	-37.1	-37.9	25.8	0.00e+00	0	42	0	2515533824	44	4245
2026-01-29 11:11:08.03	3.28	57.27	-37.3	-38.0	25.7	0.00e+00	0	42	0	2520776704	45	4089
2026-01-29 11:11:09.04	2.78	56.96	-37.3	-37.9	25.8	0.00e+00	0	42	0	2526019584	45	4049
2026-01-29 11:11:10.04	2.30	56.65	-37.2	-37.9	25.8	0.00e+00	0	42	0	2532311040	45	4033
2026-01-29 11:11:11.05	1.83	56.33	-37.3	-38.0	25.7	0.00e+00	0	42	0	2538602496	45	4079
2026-01-29 11:11:12.06	1.37	56.02	-37.3	-38.0	25.7	0.00e+00	0	42	0	2543845376	45	4077
2026-01-29 11:11:13.07	0.91	55.70	-37.3	-38.0	25.8	0.00e+00	0	42	0	2549088256	45	4063
2026-01-29 11:11:14.08	0.47	55.39	-37.2	-37.9	25.8	0.00e+00	0	42	0	2555379712	45	4007
2026-01-29 11:11:15.09	0.04	55.08	-37.3	-38.0	25.7	0.00e+00	0	42	0	2560622592	45	4059
2026-01-29 11:11:16.10	359.61	54.77	-37.2	-37.9	25.8	0.00e+00	0	42	0	2566914048	45	4040
2026-01-29 11:11:17.10	359.20	54.46	-37.4	-38.1	25.7	0.00e+00	0	42	0	2572156928	45	4112
2026-01-29 11:11:18.11	358.80	54.14	-37.4	-38.1	25.6	0.00e+00	0	42	0	2577399808	45	4137
2026-01-29 11:11:19.12	358.40	53.83	-37.4	-38.1	25.6	0.00e+00	0	42	0	2583691264	45	4133
2026-01-29 11:11:20.13	358.01	53.52	-37.2	-37.8	25.9	0.00e+00	0	42	0	2588934144	45	3994
2026-01-29 11:11:21.14	357.63	53.21	-37.1	-37.8	25.9	0.00e+00	0	42	0	2594177024	45	3967
2026-01-29 11:11:22.15	357.26	52.90	-37.2	-37.9	25.9	0.00e+00	0	42	0	2600468480	45	4018
2026-01-29 11:11:23.16	356.90	52.59	-37.1	-37.8	25.9	0.00e+00	0	42	0	2606759936	45	3965
2026-01-29 11:11:24.17	356.54	52.28	-37.3	-38.0	25.8	0.00e+00	0	42	0	2612002816	45	4076
2026-01-29 11:11:25.17	356.20	51.98	-37.4	-38.1	25.6	0.00e+00	0	42	0	2617245696	45	4139
2026-01-29 11:11:26.18	355.86	51.67	-37.5	-38.2	25.5	0.00e+00	0	42	0	2623537152	45	4180
2026-01-29 11:11:27.19	355.52	51.36	-37.4	-38.1	25.6	0.00e+00	0	42	0	2628780032	45	4136
2026-01-29 11:11:28.20	355.19	51.06	-37.4	-38.0	25.7	0.00e+00	0	42	0	2634022912	45	4089
2026-01-29 11:11:29.21	354.87	50.76	-37.4	-38.1	25.6	0.00e+00	0	42	0	2640314368	45	4119
2026-01-29 11:11:30.21	354.56	50.46	-37.6	-38.4	25.4	0.00e+00	0	42	0	2645557248	45	4256
2026-01-29 11:11:31.22	354.25	50.15	-37.5	-38.2	25.5	0.00e+00	0	42	0	2651848704	45	4176
2026-01-29 11:11:32.23	353.95	49.85	-37.2	-37.9	25.8	0.00e+00	0	42	0	2657091584	45	4046
2026-01-29 11:11:33.23	353.66	49.56	-37.1	-37.8	25.8	0.00e+00	0	42	0	2662334464	45	3992
2026-01-29 11:11:34.24	353.37	49.26	-36.9	-37.6	26.1	0.00e+00	0	42	0	2668625920	45	3874
2026-01-29 11:11:35.25	353.08	48.96	-36.7	-37.4	26.3	0.00e+00	0	42	0	2674917376	45	3790
2026-01-29 11:11:36.26	352.80	48.66	-36.6	-37.2	26.4	0.00e+00	0	42	0	2680160256	45	3729
2026-01-29 11:11:37.26	352.53	48.37	-36.6	-37.3	26.4	0.00e+00	0	42	0	2685403136	45	3746
2026-01-29 11:11:38.27	352.26	48.08	-36.6	-37.3	26.3	0.00e+00	0	42	0	2691694592	45	3773
2026-01-29 11:11:39.28	352.00	47.79	-36.6	-37.3	26.3	0.00e+00	0	42	0	2696937472	45	3760
2026-01-29 11:11:40.29	351.74	47.50	-36.8	-37.4	26.2	0.00e+00	0	42	0	2702180352	45	3823
2026-01-29 11:11:41.30	351.49	47.21	-36.7	-37.4	26.2	0.00e+00	0	42	0	2708471808	45	3802
2026-01-29 11:11:42.31	351.24	46.92	-36.6	-37.3	26.3	0.00e+00	0	42	0	2713714688	45	3756
2026-01-29 11:11:43.31	351.00	46.63	-36.7	-37.3	26.3	0.00e+00	0	42	0	2718957568	45	3770
2026-01-29 11:11:44.32	350.76	46.35	-36.7	-37.4	26.2	0.00e+00	0	42	0	2725249024	45	3790
2026-01-29 11:11:45.33	350.52	46.07	-36.8	-37.5	26.2	0.00e+00	0	42	0	2730491904	45	3838
2026-01-29 11:11:46.33	350.29	45.79	-36.8	-37.5	26.2	0.00e+00	0	42	0	2736783360	45	3848
2026-01-29 11:11:47.34	350.06	45.51	-36.6	-37.3	26.3	0.00e+00	0	42	0	2742026240	45	3761
2026-01-29 11:11:48.35	349.84	45.23	-36.5	-37.2	26.4	0.00e+00	0	42	0	2748317696	45	3702
2026-01-29 11:11:49.36	349.62	44.95	-36.4	-37.0	26.5	0.00e+00	0	42	0	2753560576	44	3852
2026-01-29 11:11:50.37	349.41	44.67	-36.3	-37.0	26.6	0.00e+00	0	42	0	2759852032	44	3837
2026-01-29 11:11:51.38	349.20	44.40	-36.4	-37.1	26.5	0.00e+00	0	42	0	2765094912	44	3889
2026-01-29 11:11:52.38	348.99	44.12	-36.6	-37.3	26.3	0.00e+00	0	42	0	2770337792	44	3978
2026-01-29 11:11:53.39	348.79	43.85	-36.6	-37.3	26.3	0.00e+00	0	42	0	2776629248	44	3995
2026-01-29 11:11:54.40	348.58	43.58	-36.7	-37.4	26.2	0.00e+00	0	42	0	2781872128	44	4005
2026-01-29 11:11:55.41	348.39	43.31	-36.5	-37.2	26.4	0.00e+00	0	42	0	2787115008	44	3917
2026-01-29 11:11:56.41	348.20	43.05	-36.3	-37.0	26.6	0.00e+00	0	42	0	2793406464	44	3832
2026-01-29 11:11:57.42	348.00	42.78	-36.4	-37.0	26.5	0.00e+00	0	42	0	2798649344	44	3857
2026-01-29 11:11:58.43	347.82	42.52	-36.2	-36.9	26.6	0.00e+00	0	42	0	2803892224	44	3799
2026-01-29 11:11:59.44	347.63	42.25	-36.3	-37.0	26.6	0.00e+00	0	42	0	2810183680	44	3828
2026-01-29 11:12:00.45	347.45	41.99	-36.4	-37.1	26.5	0.00e+00	0	42	0	2816475136	44	3885
2026-01-29 11:12:01.46	347.27	41.73	-36.5	-37.2	26.4	0.00e+00	0	42	0	2821718016	44	3914
2026-01-29 11:12:02.46	347.10	41.48	-36.6	-37.3	26.3	0.00e+00	0	42	0	2826960896	44	3966
2026-01-29 11:12:03.47	346.93	41.22	-36.4	-37.1	26.5	0.00e+00	0	42	0	2833252352	44	3893
2026-01-29 11:12:04.48	346.76	40.96	-36.4	-37.0	26.5	0.00e+00	0	42	0	2838495232	44	3862
2026-01-29 11:12:05.49	346.59	40.71	-36.3	-36.9	26.6	0.00e+00	0	42	0	2844786688	44	3812
2026-01-29 11:12:06.50	346.42	40.46	-36.2	-36.8	26.6	0.00e+00	0	42	0	2850029568	44	3773
2026-01-29 11:12:07.50	346.26	40.21	-36.2	-36.8	26.7	0.00e+00	0	42	0	2855272448	44	3779
2026-01-29 11:12:08.52	346.10	39.96	-36.0	-36.7	26.8	0.00e+00	0	42	0	2861563904	44	3713
2026-01-29 11:12:09.53	345.94	39.71	-35.8	-36.5	26.9	0.00e+00	0	42	0	2866806784	43	3831
2026-01-29 11:12:10.53	345.79	39.46	-35.8	-36.5	26.8	0.00e+00	0	42	0	2872049664	43	3852
2026-01-29 11:12:11.54	345.64	39.22	-35.9	-36.5	26.8	0.00e+00	0	42	0	2878341120	43	3860
2026-01-29 11:12:12.55	345.49	38.98	-35.9	-36.5	26.8	0.00e+00	0	42	0	2884632576	43	3857
2026-01-29 11:12:13.56	345.34	38.73	-35.9	-36.5	26.8	0.00e+00	0	42	0	2889875456	43	3862
2026-01-29 11:12:14.57	345.20	38.49	-36.0	-36.6	26.7	0.00e+00	0	42	0	2895118336	43	3906
2026-01-29 11:12:15.58	345.05	38.25	-36.0	-36.7	26.6	0.00e+00	0	42	0	2901409792	43	3954
2026-01-29 11:12:16.59	344.91	38.02	-36.0	-36.7	26.6	0.00e+00	0	42	0	2906652672	43	3941
2026-01-29 11:12:17.60	344.77	37.78	-35.9	-36.6	26.7	0.00e+00	0	42	0	2911895552	43	3890
2026-01-29 11:12:18.61	344.64	37.55	-36.0	-36.7	26.6	0.00e+00	0	42	0	2918187008	43	3927
2026-01-29 11:12:19.61	344.50	37.31	-35.8	-36.5	26.8	0.00e+00	0	42	0	2923429888	43	3840
2026-01-29 11:12:20.63	344.37	37.08	-35.7	-36.4	26.9	0.00e+00	0	42	0	2929721344	43	3800
2026-01-29 11:12:21.63	344.24	36.85	-35.8	-36.5	26.9	0.00e+00	0	42	0	2934964224	43	3833
2026-01-29 11:12:22.64	344.11	36.62	-35.9	-36.5	26.8	0.00e+00	0	42	0	2940207104	43	3858
2026-01-29 11:12:23.65	343.98	36.40	-35.9	-36.6	26.7	0.00e+00	0	42	0	2946498560	43	3895
2026-01-29 11:12:24.66	343.86	36.17	-36.1	-36.7	26.6	0.00e+00	0	42	0	2952790016	43	3955
2026-01-29 11:12:25.67	343.73	35.95	-36.0	-36.7	26.7	0.00e+00	0	42	0	2958032896	43	3935
2026-01-29 11:12:26.68	343.61	35.72	-36.0	-36.7	26.6	0.00e+00	0	42	0	2963275776	43	3933
2026-01-29 11:12:27.68	343.49	35.50	-36.1	-36.7	26.6	0.00e+00	0	42	0	2969567232	43	3955
2026-01-29 11:12:28.69	343.37	35.28	-36.1	-36.8	26.6	0.00e+00	0	42	0	2974810112	43	3965
2026-01-29 11:12:29.70	343.26	35.06	-36.2	-36.8	26.5	0.00e+00	0	42	0	2980052992	43	4000
2026-01-29 11:12:30.71	343.14	34.85	-36.2	-36.8	26.5	0.00e+00	0	42	0	2986344448	43	4003
2026-01-29 11:12:31.72	343.03	34.63	-36.3	-36.9	26.4	0.00e+00	0	42	0	2991587328	43	4039
2026-01-29 11:12:32.73	342.91	34.42	-36.3	-36.9	26.4	0.00e+00	0	42	0	2996830208	43	4043
2026-01-29 11:12:33.73	342.80	34.20	-36.4	-37.0	26.4	0.00e+00	0	42	0	3003121664	43	4088
2026-01-29 11:12:34.74	342.70	33.99	-36.3	-37.0	26.3	0.00e+00	0	42	0	3008364544	43	4084
2026-01-29 11:12:35.75	342.59	33.78	-36.4	-37.1	26.3	0.00e+00	0	42	0	3014656000	43	4124
2026-01-29 11:12:36.76	342.48	33.57	-36.4	-37.1	26.3	0.00e+00	0	42	0	3019898880	43	4124
2026-01-29 11:12:37.76	342.38	33.36	-36.5	-37.2	26.2	0.00e+00	0	42	0	3026190336	43	4147
2026-01-29 11:12:38.77	342.27	33.16	-36.4	-37.1	26.2	0.00e+00	0	42	0	3031433216	43	4126
2026-01-29 11:12:39.78	342.17	32.95	-36.4	-37.1	26.2	0.00e+00	0	42	0	3037724672	43	4129
2026-01-29 11:12:40.79	342.07	32.75	-36.5	-37.2	26.2	0.00e+00	0	42	0	3042967552	43	4151
2026-01-29 11:12:41.79	341.97	32.55	-36.4	-37.1	26.2	0.00e+00	0	42	0	3048210432	43	4131
2026-01-29 11:12:42.80	341.87	32.34	-36.4	-37.1	26.3	0.00e+00	0	42	0	3054501888	43	4101
2026-01-29 11:12:43.81	341.78	32.14	-36.3	-37.0	26.4	0.00e+00	0	42	0	3059744768	43	4064
2026-01-29 11:12:44.82	341.68	31.94	-36.4	-37.0	26.3	0.00e+00	0	42	0	3064987648	43	4088
2026-01-29 11:12:45.82	341.59	31.75	-36.4	-37.0	26.3	0.00e+00	0	42	0	3071279104	43	4097
2026-01-29 11:12:46.83	341.49	31.55	-36.3	-37.0	26.4	0.00e+00	0	42	0	3076521984	43	4064
2026-01-29 11:12:47.84	341.40	31.36	-36.3	-37.0	26.3	0.00e+00	0	42	0	3081764864	43	4078
2026-01-29 11:12:48.85	341.31	31.16	-36.4	-37.0	26.3	0.00e+00	0	42	0	3088056320	43	4088
2026-01-29 11:12:49.86	341.22	30.97	-36.4	-37.0	26.3	0.00e+00	0	42	0	3094347776	43	4096
2026-01-29 11:12:50.86	341.13	30.78	-36.5	-37.2	26.2	0.00e+00	0	42	0	3099590656	43	4153
2026-01-29 11:12:51.87	341.04	30.59	-36.3	-37.0	26.3	0.00e+00	0	42	0	3104833536	43	4089
2026-01-29 11:12:52.88	340.96	30.40	-36.3	-37.0	26.3	0.00e+00	0	42	0	3111124992	43	4084
2026-01-29 11:12:53.89	340.87	30.21	-36.3	-37.0	26.3	0.00e+00	0	42	0	3116367872	43	4068
2026-01-29 11:12:54.90	340.79	30.02	-36.3	-36.9	26.3	0.00e+00	0	42	0	3122659328	43	4050
2026-01-29 11:12:55.90	340.70	29.84	-36.3	-36.9	26.3	0.00e+00	0	42	0	3127902208	43	4035
2026-01-29 11:12:56.91	340.62	29.65	-36.3	-36.9	26.3	0.00e+00	0	42	0	3133145088	43	4040
2026-01-29 11:12:57.92	340.54	29.47	-36.3	-36.9	26.4	0.00e+00	0	42	0	3139436544	43	4034
2026-01-29 11:12:58.93	340.46	29.29	-36.4	-37.0	26.3	0.00e+00	0	42	0	3144679424	43	4080
2026-01-29 11:12:59.94	340.38	29.10	-36.4	-37.0	26.2	0.00e+00	0	42	0	3149922304	43	4084
2026-01-29 11:13:00.95	340.30	28.92	-36.5	-37.1	26.1	0.00e+00	0	42	0	3156213760	43	4134
2026-01-29 11:13:01.96	340.22	28.74	-36.5	-37.2	26.1	0.00e+00	0	42	0	3162505216	43	4179
2026-01-29 11:13:02.97	340.14	28.57	-36.6	-37.3	26.1	0.00e+00	0	42	0	3167748096	43	4210
2026-01-29 11:13:03.97	340.07	28.39	-36.8	-37.5	25.9	0.00e+00	0	42	0	3172990976	44	4060
2026-01-29 11:13:04.98	339.99	28.21	-36.6	-37.3	24.9	0.00e+00	0	42	0	3179282432	44	3997
2026-01-29 11:13:05.99	339.92	28.04	-36.6	-37.3	25.9	0.00e+00	0	42	0	3184525312	44	3990
2026-01-29 11:13:07.00	339.85	27.86	-36.5	-37.2	20.4	0.00e+00	0	42	0	3189768192	44	3956
2026-01-29 11:13:08.00	339.77	27.69	-36.2	-37.1	15.0	0.00e+00	0	42	0	3196059648	44	3906
2026-01-29 11:13:09.01	339.70	27.52	-35.8	-37.0	11.2	0.00e+00	0	42	0	3201302528	43	4053
2026-01-29 11:13:10.02	339.63	27.35	-35.2	-36.6	9.5	0.00e+00	0	42	0	3207593984	42	4114
2026-01-29 11:13:11.03	339.56	27.18	-35.4	-36.6	10.5	0.00e+00	0	42	0	3212836864	42	4132
2026-01-29 11:13:12.04	339.49	27.01	-35.9	-36.8	14.6	0.00e+00	0	42	0	3218079744	42	4225
2026-01-29 11:13:13.04	339.42	26.84	-36.2	-36.9	22.6	0.00e+00	0	42	0	3224371200	42	4257
2026-01-29 11:13:14.05	339.36	26.68	-36.3	-37.0	26.0	0.00e+00	0	42	0	3230662656	43	4054
2026-01-29 11:13:15.06	339.29	26.51	-36.4	-37.0	26.0	0.00e+00	0	42	0	3235905536	43	4089
2026-01-29 11:13:16.07	339.22	26.34	-36.4	-37.1	26.2	0.00e+00	0	42	0	3241148416	43	4101
2026-01-29 11:13:17.07	339.16	26.18	-36.4	-37.1	26.1	0.00e+00	0	42	0	3247439872	43	4123
2026-01-29 11:13:18.08	339.09	26.02	-36.6	-37.2	26.0	0.00e+00	0	42	0	3252682752	43	4181
2026-01-29 11:13:19.09	339.03	25.86	-36.6	-37.2	25.9	0.00e+00	0	42	0	3257925632	43	4186
2026-01-29 11:13:20.10	338.96	25.70	-36.6	-37.3	25.9	0.00e+00	0	42	0	3264217088	43	4220
2026-01-29 11:13:21.11	338.90	25.54	-36.8	-37.5	25.9	0.00e+00	0	42	0	3269459968	44	4073
2026-01-29 11:13:22.11	338.84	25.38	-36.9	-37.6	25.8	0.00e+00	0	42	0	3274702848	44	4118
2026-01-29 11:13:23.11	338.78	25.22	-36.9	-37.6	25.8	0.00e+00	0	42	0	3280994304	44	4124
2026-01-29 11:13:24.12	338.72	25.06	-36.9	-37.6	25.7	0.00e+00	0	42	0	3286237184	44	4140
2026-01-29 11:13:25.13	338.66	24.91	-36.9	-37.6	25.8	0.00e+00	0	42	0	3292528640	44	4133
2026-01-29 11:13:26.13	338.60	24.75	-37.0	-37.7	25.8	0.00e+00	0	42	0	3297771520	44	4153
2026-01-29 11:13:27.14	338.54	24.60	-36.9	-37.6	25.7	0.00e+00	0	42	0	3303014400	44	4140
2026-01-29 11:13:28.15	338.48	24.44	-37.0	-37.7	25.7	0.00e+00	0	42	0	3309305856	44	4149
2026-01-29 11:13:29.16	338.42	24.29	-36.9	-37.6	25.7	0.00e+00	0	42	0	3315597312	44	4142
2026-01-29 11:13:30.16	338.37	24.14	-36.9	-37.6	25.7	0.00e+00	0	42	0	3320840192	44	4135
2026-01-29 11:13:31.17	338.31	23.99	-36.9	-37.6	25.7	0.00e+00	0	42	0	3326083072	44	4131
2026-01-29 11:13:32.18	338.25	23.84	-36.9	-37.6	25.7	0.00e+00	0	42	0	3332374528	44	4132
2026-01-29 11:13:33.19	338.20	23.69	-37.0	-37.7	25.6	0.00e+00	0	42	0	3337617408	44	4183
2026-01-29 11:13:34.19	338.14	23.54	-37.0	-37.7	25.7	0.00e+00	0	42	0	3342860288	44	4155
2026-01-29 11:13:35.20	338.09	23.39	-37.0	-37.7	25.6	0.00e+00	0	42	0	3349151744	44	4191
2026-01-29 11:13:36.21	338.03	23.24	-37.1	-37.8	25.6	0.00e+00	0	42	0	3354394624	44	4224
2026-01-29 11:13:37.22	337.98	23.10	-37.0	-37.7	25.7	0.00e+00	0	42	0	3359637504	44	4182
2026-01-29 11:13:38.23	337.93	22.95	-37.0	-37.7	25.6	0.00e+00	0	42	0	3365928960	44	4184
2026-01-29 11:13:39.24	337.88	22.80	-37.1	-37.8	25.6	0.00e+00	0	42	0	3371171840	44	4201
2026-01-29 11:13:40.25	337.82	22.66	-37.1	-37.9	25.5	0.00e+00	0	42	0	3377463296	44	4245
2026-01-29 11:13:41.25	337.77	22.52	-37.2	-37.9	25.5	0.00e+00	0	42	0	3382706176	45	4025
2026-01-29 11:13:42.26	337.72	22.38	-37.2	-38.0	25.4	0.00e+00	0	42	0	3388997632	45	4053
2026-01-29 11:13:43.27	337.67	22.23	-37.2	-37.9	25.4	0.00e+00	0	42	0	3394240512	45	4050
2026-01-29 11:13:44.28	337.62	22.09	-37.2	-37.9	25.5	0.00e+00	0	42	0	3400531968	45	4037
2026-01-29 11:13:45.29	337.57	21.95	-37.2	-37.9	25.5	0.00e+00	0	42	0	3405774848	45	4044
2026-01-29 11:13:46.30	337.52	21.81	-37.3	-38.0	25.3	0.00e+00	0	42	0	3411017728	45	4090
2026-01-29 11:13:47.30	337.48	21.68	-37.3	-38.0	25.4	0.00e+00	0	42	0	3417309184	45	4076
2026-01-29 11:13:48.32	337.43	21.54	-37.4	-38.1	25.3	0.00e+00	0	42	0	3422552064	45	4123
2026-01-29 11:13:49.33	337.38	21.40	-37.4	-38.1	25.3	0.00e+00	0	42	0	3427794944	45	4137
2026-01-29 11:13:50.34	337.33	21.26	-37.5	-38.2	25.2	0.00e+00	0	42	0	3434086400	45	4172
2026-01-29 11:13:51.34	337.29	21.13	-37.5	-38.2	25.2	0.00e+00	0	42	0	3439329280	45	4188
2026-01-29 11:13:52.35	337.24	20.99	-37.6	-38.3	25.1	0.00e+00	0	42	0	3445620736	45	4216
2026-01-29 11:13:53.36	337.20	20.86	-37.7	-38.4	25.0	0.00e+00	0	42	0	3450863616	45	4250
2026-01-29 11:13:54.36	337.15	20.72	-37.8	-38.5	24.9	0.00e+00	0	42	0	3457155072	46	4084
2026-01-29 11:13:55.37	337.11	20.59	-37.7	-38.4	25.0	0.00e+00	0	42	0	3462397952	46	4040
2026-01-29 11:13:56.37	337.06	20.46	-37.7	-38.5	24.9	0.00e+00	0	42	0	3467640832	46	4052
2026-01-29 11:13:57.38	337.02	20.33	-37.8	-38.5	25.0	0.00e+00	0	42	0	3473932288	46	4061
2026-01-29 11:13:58.38	336.98	20.20	-37.8	-38.5	24.9	0.00e+00	0	42	0	3479175168	46	4069
2026-01-29 11:13:59.39	336.93	20.07	-37.8	-38.5	24.9	0.00e+00	0	42	0	3485466624	46	4087
2026-01-29 11:14:00.39	336.89	19.94	-37.8	-38.5	24.9	0.00e+00	0	42	0	3490709504	46	4087
2026-01-29 11:14:01.41	336.85	19.81	-37.8	-38.5	24.9	0.00e+00	0	42	0	3495952384	46	4098
2026-01-29 11:14:02.41	336.81	19.68	-37.8	-38.5	24.9	0.00e+00	0	42	0	3502243840	46	4073
2026-01-29 11:14:03.42	336.76	19.55	-37.8	-38.5	24.9	0.00e+00	0	42	0	3507486720	46	4084
2026-01-29 11:14:04.43	336.72	19.43	-37.9	-38.6	24.7	0.00e+00	0	42	0	3512729600	46	4139
2026-01-29 11:14:05.43	336.68	19.30	-37.8	-38.6	24.8	0.00e+00	0	42	0	3519021056	46	4099
2026-01-29 11:14:06.44	336.64	19.17	-37.9	-38.6	24.8	0.00e+00	0	42	0	3524263936	46	4139
2026-01-29 11:14:07.45	336.60	19.05	-37.9	-38.6	24.8	0.00e+00	0	42	0	3530555392	46	4144
2026-01-29 11:14:08.46	336.56	18.92	-37.9	-38.7	24.8	0.00e+00	0	42	0	3535798272	46	4147
2026-01-29 11:14:09.47	336.52	18.80	-37.9	-38.7	24.7	0.00e+00	0	42	0	3542089728	46	4149
2026-01-29 11:14:10.47	336.49	18.68	-37.9	-38.6	24.7	0.00e+00	0	42	0	3547332608	46	4145
2026-01-29 11:14:11.48	336.45	18.55	-38.1	-38.8	24.6	0.00e+00	0	42	0	3552575488	46	4211
2026-01-29 11:14:12.49	336.41	18.43	-38.0	-38.7	24.7	0.00e+00	0	42	0	3558866944	46	4178
2026-01-29 11:14:13.49	336.37	18.31	-38.0	-38.8	24.7	0.00e+00	0	42	0	3564109824	46	4202
2026-01-29 11:14:14.50	336.33	18.19	-38.0	-38.8	24.6	0.00e+00	0	42	0	3570401280	46	4195
2026-01-29 11:14:15.51	336.30	18.07	-38.1	-38.8	24.6	0.00e+00	0	42	0	3575644160	46	4235
2026-01-29 11:14:16.51	336.26	17.95	-38.1	-38.9	24.5	1.10e-06	0	42	0	3580887040	46	4252
2026-01-29 11:14:17.52	336.22	17.83	-38.1	-38.9	24.5	0.00e+00	0	42	0	3587178496	47	4015
2026-01-29 11:14:18.53	336.19	17.71	-38.2	-38.9	24.4	0.00e+00	0	42	0	3592421376	47	4049
2026-01-29 11:14:19.53	336.15	17.60	-38.2	-39.0	24.5	0.00e+00	0	42	0	3597664256	47	4064
2026-01-29 11:14:20.54	336.11	17.48	-38.4	-39.1	24.3	0.00e+00	0	42	0	3603955712	47	4145
2026-01-29 11:14:21.55	336.08	17.36	-38.3	-39.1	24.3	1.10e-06	0	42	0	3610247168	47	4122
2026-01-29 11:14:22.56	336.04	17.24	-38.3	-39.1	24.4	0.00e+00	0	42	0	3615490048	47	4108
2026-01-29 11:14:23.57	336.01	17.13	-38.5	-39.3	24.2	0.00e+00	0	42	0	3620732928	47	4194
2026-01-29 11:14:24.57	335.97	17.01	-38.4	-39.1	24.3	0.00e+00	0	42	0	3627024384	47	4139
2026-01-29 11:14:25.58	335.94	16.90	-38.4	-39.1	24.3	0.00e+00	0	42	0	3632267264	47	4143
2026-01-29 11:14:26.58	335.91	16.78	-38.4	-39.2	24.2	0.00e+00	0	42	0	3637510144	47	4165
2026-01-29 11:14:27.59	335.87	16.67	-38.6	-39.3	24.1	0.00e+00	0	42	0	3643801600	47	4235
2026-01-29 11:14:28.60	335.84	16.56	-38.5	-39.3	24.1	0.00e+00	0	42	0	3649044480	47	4223
2026-01-29 11:14:29.61	335.81	16.44	-38.6	-39.4	24.0	0.00e+00	0	42	0	3655335936	47	4264
2026-01-29 11:14:30.61	335.77	16.33	-39.0	-39.7	24.2	0.00e+00	0	42	0	3660578816	48	4192
2026-01-29 11:14:31.62	335.74	16.22	-39.0	-39.7	24.2	0.00e+00	0	42	0	3665821696	48	4182
