passes_logs/2026/01/29/R3.2S_Murmansk/R3.2S_Murmansk__20260129_200148_KANOPUS-V_5_rec.log

#Pass ID: 20260129_200148_KANOPUS-V 5
#Satellite: KANOPUS-V 5
#Configuration: KANOPUS-V_8320
#almurnet v.1.7.20251203
#Start time: 2026-01-29 20:01:49

#Version: 2.2.20231116
#Station: R3.2S_Murmansk
#Location: 33.079688 lon 68.888172 lat
#TLE: 1 43876U 18111A   26029.55461459  .00005403  00000+0  22878-3 0  9999
#TLE: 2 43876  97.3680 297.8054 0001872  89.3369 270.8082 15.23581770393689

#Time	Az	El	Level	Level2	SNR	BER	BlckErr	Temp	State	Recorded	gain1	gain2
2026-01-29 20:01:49.54	24.95	2.08	-54.7	-63.5	3.8	7.43e-01	0	40	0	0	80	10280
2026-01-29 20:01:50.53	25.07	2.14	-54.7	-63.6	3.8	7.44e-01	0	40	104	0	80	10315
2026-01-29 20:01:51.55	25.19	2.19	-54.7	-63.5	3.8	7.46e-01	0	40	104	0	80	10284
2026-01-29 20:01:52.55	25.30	2.25	-54.7	-63.5	3.8	7.44e-01	0	40	104	0	80	10248
2026-01-29 20:01:53.55	25.42	2.30	-54.7	-63.5	3.8	7.45e-01	0	40	104	0	80	10223
2026-01-29 20:01:54.56	25.54	2.36	-54.7	-63.5	3.8	7.46e-01	0	40	104	0	80	10222
2026-01-29 20:01:55.57	25.66	2.42	-54.7	-63.5	3.8	7.45e-01	0	40	104	0	80	10292
2026-01-29 20:01:56.58	25.77	2.47	-54.7	-63.5	3.8	7.45e-01	0	40	104	0	80	10273
2026-01-29 20:01:57.59	25.89	2.53	-54.8	-63.7	3.8	7.47e-01	0	40	104	0	80	10490
2026-01-29 20:01:58.59	26.01	2.58	-54.9	-63.8	3.8	7.45e-01	0	40	104	0	80	10535
2026-01-29 20:01:59.60	26.14	2.64	-54.9	-63.8	3.8	7.45e-01	0	40	104	0	80	10550
2026-01-29 20:02:00.61	26.26	2.70	-54.9	-63.7	3.8	7.46e-01	0	40	104	0	80	10522
2026-01-29 20:02:01.62	26.38	2.75	-54.9	-63.7	3.8	7.45e-01	0	40	104	0	80	10515
2026-01-29 20:02:02.62	26.50	2.81	-54.9	-63.7	3.8	7.46e-01	0	40	104	0	80	10482
2026-01-29 20:02:03.63	26.62	2.86	-54.9	-63.7	3.8	7.45e-01	0	40	104	0	80	10462
2026-01-29 20:02:04.63	26.75	2.92	-54.9	-63.7	3.8	7.45e-01	0	40	104	0	80	10453
2026-01-29 20:02:05.64	26.87	2.98	-54.8	-63.6	3.8	7.45e-01	0	40	104	0	80	10403
2026-01-29 20:02:06.65	27.00	3.03	-54.8	-63.6	3.8	7.46e-01	0	40	104	0	80	10389
2026-01-29 20:02:07.65	27.12	3.09	-54.8	-63.7	3.8	7.47e-01	0	40	104	0	80	10424
2026-01-29 20:02:08.66	27.25	3.15	-54.8	-63.6	3.8	7.44e-01	0	40	104	0	80	10391
2026-01-29 20:02:09.67	27.38	3.20	-54.8	-63.6	3.8	7.46e-01	0	40	104	0	80	10352
2026-01-29 20:02:10.68	27.50	3.26	-54.7	-63.5	3.8	7.45e-01	0	40	104	0	80	10270
2026-01-29 20:02:11.69	27.63	3.32	-54.6	-63.5	3.8	7.46e-01	0	40	104	0	80	10208
2026-01-29 20:02:12.69	27.76	3.37	-54.6	-63.4	3.8	7.46e-01	0	40	104	0	80	10142
2026-01-29 20:02:13.70	27.89	3.43	-54.4	-63.3	3.8	7.45e-01	0	40	104	0	80	9979
2026-01-29 20:02:14.70	28.02	3.49	-54.3	-63.2	3.8	7.46e-01	0	40	104	0	80	9849
2026-01-29 20:02:15.71	28.15	3.54	-54.2	-63.0	3.8	7.44e-01	0	41	104	0	80	9687
2026-01-29 20:02:16.72	28.28	3.60	-54.0	-62.8	3.8	7.46e-01	0	40	104	0	80	9460
2026-01-29 20:02:17.73	28.41	3.66	-53.8	-62.6	3.8	7.44e-01	0	40	104	0	79	9759
2026-01-29 20:02:18.73	28.54	3.71	-53.4	-62.2	3.8	7.46e-01	0	40	104	0	78	9900
2026-01-29 20:02:19.74	28.68	3.77	-53.0	-61.9	3.8	7.44e-01	0	41	104	0	78	9541
2026-01-29 20:02:20.74	28.81	3.83	-53.0	-61.8	3.8	7.44e-01	0	41	104	0	78	9488
2026-01-29 20:02:21.75	28.94	3.88	-53.0	-61.8	3.8	7.46e-01	0	41	104	0	78	9463
2026-01-29 20:02:22.76	29.08	3.94	-52.9	-61.8	3.8	7.47e-01	0	41	104	0	77	9993
2026-01-29 20:02:23.77	29.21	4.00	-53.0	-61.8	3.8	7.45e-01	0	40	104	0	77	9982
2026-01-29 20:02:24.77	29.35	4.06	-52.9	-61.8	3.8	7.44e-01	0	41	104	0	77	9969
2026-01-29 20:02:25.78	29.49	4.11	-52.9	-61.8	3.8	7.43e-01	0	41	104	0	77	9997
2026-01-29 20:02:26.79	29.62	4.17	-52.9	-61.8	3.8	7.44e-01	0	41	104	0	77	9951
2026-01-29 20:02:27.80	29.76	4.23	-52.9	-61.7	3.8	7.45e-01	0	41	104	0	77	9936
2026-01-29 20:02:28.81	29.90	4.29	-52.9	-61.7	3.8	7.46e-01	0	41	104	0	77	9927
2026-01-29 20:02:29.82	30.04	4.35	-52.9	-61.8	3.8	7.46e-01	0	41	104	0	77	9983
2026-01-29 20:02:30.83	30.18	4.40	-52.9	-61.7	3.8	7.44e-01	0	41	104	0	77	9943
2026-01-29 20:02:31.84	30.32	4.46	-52.9	-61.7	3.8	7.45e-01	0	41	104	0	77	9936
2026-01-29 20:02:32.85	30.47	4.52	-52.9	-61.7	3.8	7.45e-01	0	41	104	0	77	9933
2026-01-29 20:02:33.85	30.61	4.58	-52.9	-61.7	3.8	7.45e-01	0	41	104	0	77	9914
2026-01-29 20:02:34.86	30.75	4.63	-52.9	-61.7	3.8	7.45e-01	0	41	104	0	77	9942
2026-01-29 20:02:35.86	30.89	4.69	-52.9	-61.7	3.8	7.45e-01	0	41	104	0	77	9915
2026-01-29 20:02:36.87	31.04	4.75	-52.9	-61.7	3.8	7.45e-01	0	41	104	0	77	9902
2026-01-29 20:02:37.88	31.18	4.81	-52.9	-61.7	3.8	7.45e-01	0	41	104	0	77	9907
2026-01-29 20:02:38.89	31.33	4.87	-52.9	-61.7	3.8	7.45e-01	0	41	104	0	77	9896
2026-01-29 20:02:39.90	31.48	4.93	-52.9	-61.7	3.8	7.46e-01	0	41	104	0	77	9918
2026-01-29 20:02:40.90	31.62	4.98	-52.9	-61.7	3.8	7.45e-01	0	41	104	0	77	9870
2026-01-29 20:02:41.91	31.77	5.04	-52.9	-61.7	3.8	7.44e-01	0	41	104	0	77	9910
2026-01-29 20:02:42.91	31.92	5.10	-52.9	-61.7	3.8	7.45e-01	0	41	104	0	77	9896
2026-01-29 20:02:43.92	32.07	5.16	-52.8	-61.6	3.8	7.44e-01	0	41	104	0	77	9805
2026-01-29 20:02:44.93	32.22	5.22	-53.0	-61.8	3.8	7.45e-01	0	41	104	0	77	10058
2026-01-29 20:02:45.94	32.37	5.27	-52.9	-61.8	3.8	7.46e-01	0	41	104	0	77	9983
2026-01-29 20:02:46.94	32.52	5.33	-52.9	-61.7	3.8	7.46e-01	0	41	104	0	77	9860
2026-01-29 20:02:47.95	32.67	5.39	-52.8	-61.6	3.8	7.45e-01	0	41	104	0	77	9777
2026-01-29 20:02:48.96	32.83	5.45	-53.0	-61.8	3.8	7.45e-01	0	41	104	0	77	10040
2026-01-29 20:02:49.97	32.98	5.51	-52.9	-61.7	3.8	7.46e-01	0	41	104	0	77	9905
2026-01-29 20:02:50.97	33.13	5.57	-52.8	-61.7	3.8	7.45e-01	0	41	104	0	77	9865
2026-01-29 20:02:51.98	33.29	5.63	-52.8	-61.6	3.8	7.45e-01	0	41	104	0	77	9748
2026-01-29 20:02:52.99	33.45	5.68	-53.0	-61.8	3.8	7.47e-01	0	41	104	0	77	10031
2026-01-29 20:02:54.00	33.60	5.74	-52.9	-61.7	3.8	7.44e-01	0	41	104	0	77	9931
2026-01-29 20:02:55.00	33.76	5.80	-52.8	-61.7	3.8	7.45e-01	0	41	104	0	77	9835
2026-01-29 20:02:56.01	33.92	5.86	-52.8	-61.6	3.8	7.46e-01	0	41	104	0	77	9764
2026-01-29 20:02:57.02	34.08	5.92	-53.0	-61.8	3.8	7.46e-01	0	41	104	0	77	10023
2026-01-29 20:02:58.02	34.24	5.98	-52.9	-61.7	3.8	7.46e-01	0	41	104	0	77	9909
2026-01-29 20:02:59.03	34.40	6.04	-52.8	-61.7	3.8	7.45e-01	0	41	104	0	77	9853
2026-01-29 20:03:00.04	34.56	6.10	-52.8	-61.6	3.8	7.46e-01	0	41	104	0	77	9744
2026-01-29 20:03:01.05	34.72	6.15	-53.0	-61.8	3.8	7.44e-01	0	41	104	0	77	10031
2026-01-29 20:03:02.06	34.89	6.21	-52.9	-61.7	3.8	7.45e-01	0	41	104	0	77	9938
2026-01-29 20:03:03.06	35.05	6.27	-52.8	-61.7	3.8	7.46e-01	0	41	104	0	77	9851
2026-01-29 20:03:04.07	35.22	6.33	-52.8	-61.6	3.8	7.45e-01	0	41	104	0	77	9819
2026-01-29 20:03:05.08	35.38	6.39	-53.0	-61.8	3.8	7.46e-01	0	41	104	0	77	10041
2026-01-29 20:03:06.08	35.55	6.45	-52.9	-61.8	3.8	7.45e-01	0	41	104	0	77	9972
2026-01-29 20:03:07.09	35.72	6.51	-52.9	-61.7	3.8	7.45e-01	0	41	104	0	77	9906
2026-01-29 20:03:08.09	35.88	6.57	-52.8	-61.7	3.8	7.45e-01	0	41	104	0	77	9841
2026-01-29 20:03:09.10	36.05	6.62	-53.0	-61.9	3.8	7.46e-01	0	41	104	0	77	10086
2026-01-29 20:03:10.11	36.22	6.68	-52.9	-61.8	3.8	7.47e-01	0	41	104	0	77	9965
2026-01-29 20:03:11.12	36.39	6.74	-52.9	-61.7	3.8	7.45e-01	0	41	104	0	77	9908
2026-01-29 20:03:12.12	36.56	6.80	-52.8	-61.7	3.8	7.45e-01	0	41	104	0	77	9847
2026-01-29 20:03:13.13	36.74	6.86	-53.0	-61.9	3.8	7.44e-01	0	41	104	0	77	10081
2026-01-29 20:03:14.13	36.91	6.92	-52.9	-61.8	3.8	7.45e-01	0	42	104	0	77	10002
2026-01-29 20:03:15.14	37.08	6.98	-52.9	-61.7	3.8	7.45e-01	0	41	104	0	77	9910
2026-01-29 20:03:16.14	37.26	7.04	-52.9	-61.7	3.8	7.46e-01	0	41	104	0	77	9891
2026-01-29 20:03:17.15	37.43	7.09	-53.0	-61.9	3.8	7.44e-01	0	41	104	0	77	10109
2026-01-29 20:03:18.16	37.61	7.15	-53.0	-61.8	3.8	7.44e-01	0	41	104	0	77	10003
2026-01-29 20:03:19.16	37.79	7.21	-52.9	-61.8	3.8	7.44e-01	0	42	104	0	77	9969
2026-01-29 20:03:20.17	37.97	7.27	-52.9	-61.7	3.8	7.45e-01	0	41	104	0	77	9894
2026-01-29 20:03:21.17	38.14	7.33	-53.0	-61.9	3.8	7.44e-01	0	41	104	0	77	10081
2026-01-29 20:03:22.18	38.33	7.39	-53.0	-61.8	3.8	7.45e-01	0	41	104	0	77	10014
2026-01-29 20:03:23.19	38.51	7.45	-52.9	-61.8	3.8	7.45e-01	0	42	104	0	77	9956
2026-01-29 20:03:24.19	38.69	7.51	-52.9	-61.7	3.8	7.44e-01	0	42	104	0	77	9901
2026-01-29 20:03:25.20	38.87	7.56	-53.1	-61.9	3.8	7.45e-01	0	41	104	0	77	10103
2026-01-29 20:03:26.20	39.05	7.62	-53.0	-61.8	3.8	7.44e-01	0	42	104	0	77	10001
2026-01-29 20:03:27.21	39.24	7.68	-52.9	-61.8	3.8	7.44e-01	0	41	104	0	77	9974
2026-01-29 20:03:28.22	39.43	7.74	-52.9	-61.7	3.8	7.46e-01	0	41	104	0	77	9921
2026-01-29 20:03:29.23	39.61	7.80	-53.1	-61.9	3.8	7.46e-01	0	42	104	0	77	10107
2026-01-29 20:03:30.24	39.80	7.86	-53.0	-61.8	3.8	7.45e-01	0	42	104	0	77	10014
2026-01-29 20:03:31.25	39.99	7.92	-53.0	-61.8	3.8	7.46e-01	0	41	104	0	77	9973
2026-01-29 20:03:32.26	40.18	7.97	-52.9	-61.8	3.8	7.46e-01	0	41	104	0	77	9963
2026-01-29 20:03:33.27	40.37	8.03	-53.1	-61.9	3.8	7.45e-01	0	42	104	0	77	10088
2026-01-29 20:03:34.27	40.56	8.09	-53.0	-61.8	3.8	7.46e-01	0	41	104	0	77	10022
2026-01-29 20:03:35.28	40.75	8.15	-53.0	-61.8	3.8	7.46e-01	0	41	104	0	77	10015
2026-01-29 20:03:36.28	40.94	8.21	-52.9	-61.8	3.8	7.46e-01	0	42	104	0	77	9985
2026-01-29 20:03:37.29	41.14	8.27	-53.1	-61.9	3.8	7.46e-01	0	41	104	0	77	10167
2026-01-29 20:03:38.29	41.33	8.32	-53.0	-61.9	3.8	7.44e-01	0	41	104	0	77	10072
2026-01-29 20:03:39.30	41.53	8.38	-53.0	-61.8	3.8	7.46e-01	0	42	104	0	77	9992
2026-01-29 20:03:40.31	41.73	8.44	-52.9	-61.8	3.8	7.45e-01	0	42	104	0	77	9951
2026-01-29 20:03:41.31	41.92	8.50	-53.1	-61.9	3.8	7.45e-01	0	42	104	0	77	10114
2026-01-29 20:03:42.32	42.12	8.56	-53.0	-61.9	3.8	7.44e-01	0	41	104	0	77	10066
2026-01-29 20:03:43.33	42.32	8.61	-53.0	-61.8	3.8	7.46e-01	0	42	104	0	77	10039
2026-01-29 20:03:44.33	42.52	8.67	-53.0	-61.8	3.8	7.46e-01	0	42	104	0	77	10001
2026-01-29 20:03:45.34	42.72	8.73	-53.1	-61.9	3.8	7.44e-01	0	42	104	0	77	10166
2026-01-29 20:03:46.34	42.93	8.79	-53.0	-61.9	3.8	7.46e-01	0	42	104	0	77	10073
2026-01-29 20:03:47.35	43.13	8.84	-53.0	-61.9	3.8	7.43e-01	0	42	104	0	77	10060
2026-01-29 20:03:48.36	43.34	8.90	-53.0	-61.8	3.8	7.45e-01	0	42	104	0	77	10024
2026-01-29 20:03:49.36	43.54	8.96	-53.1	-61.9	3.8	7.45e-01	0	42	104	0	77	10160
2026-01-29 20:03:50.37	43.75	9.01	-53.1	-61.9	3.8	7.47e-01	0	42	104	0	77	10145
2026-01-29 20:03:51.37	43.95	9.07	-53.0	-61.8	3.8	7.46e-01	0	42	104	0	77	10003
2026-01-29 20:03:52.38	44.16	9.13	-53.0	-61.8	3.8	7.45e-01	0	42	104	0	77	10016
2026-01-29 20:03:53.39	44.37	9.19	-53.1	-61.9	3.8	7.45e-01	0	42	104	0	77	10156
2026-01-29 20:03:54.40	44.58	9.24	-53.1	-61.9	3.8	7.46e-01	0	42	104	0	77	10101
2026-01-29 20:03:55.40	44.79	9.30	-53.0	-61.9	3.8	7.45e-01	0	42	104	0	77	10072
2026-01-29 20:03:56.41	45.01	9.35	-53.0	-61.8	3.8	7.44e-01	0	42	104	0	77	10050
2026-01-29 20:03:57.41	45.22	9.41	-53.1	-62.0	3.8	7.44e-01	0	42	104	0	77	10186
2026-01-29 20:03:58.42	45.43	9.47	-53.1	-61.9	3.8	7.45e-01	0	42	104	0	77	10128
2026-01-29 20:03:59.43	45.65	9.52	-53.1	-61.9	3.8	7.46e-01	0	42	104	0	77	10083
2026-01-29 20:04:00.43	45.86	9.58	-53.0	-61.9	3.8	7.45e-01	0	42	104	0	77	10079
2026-01-29 20:04:01.44	46.08	9.64	-53.1	-62.0	3.8	7.44e-01	0	42	104	0	77	10220
2026-01-29 20:04:02.45	46.30	9.69	-53.1	-61.9	3.8	7.46e-01	0	42	104	0	77	10161
2026-01-29 20:04:03.46	46.52	9.75	-53.1	-61.9	3.8	7.47e-01	0	42	104	0	77	10118
2026-01-29 20:04:04.46	46.74	9.80	-53.1	-61.9	3.8	7.44e-01	0	42	104	0	77	10109
2026-01-29 20:04:05.47	46.96	9.86	-53.1	-62.0	3.8	7.46e-01	0	42	104	0	77	10199
2026-01-29 20:04:06.47	47.18	9.91	-53.1	-62.0	3.8	7.45e-01	0	42	104	0	77	10190
2026-01-29 20:04:07.48	47.41	9.97	-53.1	-61.9	3.8	7.46e-01	0	42	104	0	77	10088
2026-01-29 20:04:08.49	47.63	10.02	-53.1	-61.9	3.8	7.46e-01	0	42	104	0	77	10146
2026-01-29 20:04:09.49	47.86	10.08	-53.2	-62.0	3.8	7.44e-01	0	42	104	0	77	10237
2026-01-29 20:04:10.50	48.09	10.13	-53.1	-61.9	3.8	7.46e-01	0	42	104	0	77	10151
2026-01-29 20:04:11.50	48.31	10.18	-53.1	-61.9	3.8	7.47e-01	0	42	104	0	77	10136
2026-01-29 20:04:12.51	48.54	10.24	-53.1	-61.9	3.8	7.46e-01	0	42	104	0	77	10167
2026-01-29 20:04:13.52	48.77	10.29	-53.2	-62.0	3.8	7.45e-01	0	42	104	0	77	10235
2026-01-29 20:04:14.53	49.00	10.35	-53.1	-62.0	3.8	7.46e-01	0	42	104	0	77	10203
2026-01-29 20:04:15.53	49.23	10.40	-53.1	-61.9	3.8	7.45e-01	0	42	104	0	77	10151
2026-01-29 20:04:16.54	49.47	10.45	-53.1	-62.0	3.8	7.45e-01	0	42	104	0	77	10212
2026-01-29 20:04:17.55	49.70	10.51	-53.2	-62.0	3.8	7.45e-01	0	41	104	0	77	10287
2026-01-29 20:04:18.56	49.94	10.56	-53.1	-62.0	3.8	7.45e-01	0	42	104	0	77	10187
2026-01-29 20:04:19.56	50.17	10.61	-53.1	-61.9	3.8	7.45e-01	0	42	104	0	77	10153
2026-01-29 20:04:20.57	50.41	10.66	-53.2	-62.0	3.8	7.47e-01	0	42	104	0	77	10198
2026-01-29 20:04:21.58	50.65	10.72	-53.2	-62.1	3.8	7.45e-01	0	42	104	0	77	10300
2026-01-29 20:04:22.58	50.88	10.77	-53.2	-62.0	3.8	7.46e-01	0	42	104	0	77	10183
2026-01-29 20:04:23.59	51.12	10.82	-53.1	-61.9	3.8	7.45e-01	0	42	104	0	77	10165
2026-01-29 20:04:24.60	51.37	10.87	-53.2	-62.0	3.8	7.46e-01	0	42	104	0	77	10259
2026-01-29 20:04:25.60	51.61	10.92	-53.2	-62.0	3.8	7.45e-01	0	42	104	0	77	10255
2026-01-29 20:04:26.61	51.85	10.97	-53.2	-62.0	3.8	7.44e-01	0	42	104	0	77	10239
2026-01-29 20:04:27.62	52.09	11.02	-53.1	-61.9	3.8	7.46e-01	0	42	104	0	77	10175
2026-01-29 20:04:28.63	52.34	11.07	-53.2	-62.0	3.8	7.44e-01	0	42	104	0	77	10243
2026-01-29 20:04:29.63	52.58	11.12	-53.2	-62.0	3.8	7.44e-01	0	42	104	0	77	10288
2026-01-29 20:04:30.64	52.83	11.17	-53.2	-62.0	3.8	7.45e-01	0	42	104	0	77	10236
2026-01-29 20:04:31.65	53.08	11.22	-53.1	-62.0	3.8	7.46e-01	0	42	104	0	77	10210
2026-01-29 20:04:32.66	53.33	11.27	-53.2	-62.1	3.8	7.45e-01	0	42	104	0	77	10303
2026-01-29 20:04:33.67	53.58	11.32	-53.2	-62.0	3.8	7.45e-01	0	42	104	0	77	10286
2026-01-29 20:04:34.68	53.83	11.37	-53.2	-62.0	3.8	7.45e-01	0	42	104	0	77	10256
2026-01-29 20:04:35.69	54.09	11.42	-53.2	-62.0	3.8	7.45e-01	0	42	104	0	77	10224
2026-01-29 20:04:36.69	54.34	11.47	-53.2	-62.1	3.8	7.47e-01	0	42	104	0	77	10310
2026-01-29 20:04:37.70	54.59	11.52	-53.2	-62.0	3.8	7.46e-01	0	42	104	0	77	10268
2026-01-29 20:04:38.71	54.85	11.56	-53.2	-62.0	3.8	7.47e-01	0	42	104	0	77	10271
2026-01-29 20:04:39.71	55.10	11.61	-53.2	-62.0	3.8	7.47e-01	0	42	104	0	77	10210
2026-01-29 20:04:40.72	55.36	11.66	-53.2	-62.1	3.8	7.46e-01	0	42	104	0	77	10350
2026-01-29 20:04:41.73	55.62	11.70	-53.2	-62.1	3.8	7.44e-01	0	42	104	0	77	10330
2026-01-29 20:04:42.73	55.88	11.75	-53.2	-62.0	3.8	7.46e-01	0	42	104	0	77	10281
2026-01-29 20:04:43.74	56.14	11.80	-53.2	-62.0	3.8	7.46e-01	0	42	104	0	77	10242
2026-01-29 20:04:44.74	56.40	11.84	-53.3	-62.1	3.8	7.45e-01	0	42	104	0	77	10357
2026-01-29 20:04:45.75	56.66	11.89	-53.2	-62.1	3.8	7.46e-01	0	42	104	0	77	10340
2026-01-29 20:04:46.76	56.92	11.93	-53.2	-62.1	3.8	7.46e-01	0	42	104	0	77	10309
2026-01-29 20:04:47.77	57.19	11.98	-53.2	-62.0	3.8	7.45e-01	0	42	104	0	77	10290
2026-01-29 20:04:48.77	57.45	12.02	-53.3	-62.1	3.8	7.45e-01	0	42	104	0	77	10378
2026-01-29 20:04:49.78	57.72	12.06	-53.3	-62.1	3.8	7.44e-01	0	42	104	0	77	10325
2026-01-29 20:04:50.78	57.98	12.11	-53.2	-62.1	3.8	7.45e-01	0	42	104	0	77	10302
2026-01-29 20:04:51.79	58.25	12.15	-53.2	-62.0	3.8	7.44e-01	0	42	104	0	77	10273
2026-01-29 20:04:52.80	58.52	12.19	-53.3	-62.1	3.8	7.44e-01	0	42	104	0	77	10367
2026-01-29 20:04:53.80	58.79	12.24	-53.3	-62.1	3.8	7.45e-01	0	42	104	0	77	10351
2026-01-29 20:04:54.80	59.06	12.28	-53.2	-62.1	3.8	7.44e-01	0	42	104	0	77	10308
2026-01-29 20:04:55.81	59.33	12.32	-53.2	-62.0	3.8	7.45e-01	0	42	104	0	77	10268
2026-01-29 20:04:56.82	59.60	12.36	-53.3	-62.1	3.8	7.46e-01	0	42	104	0	77	10405
2026-01-29 20:04:57.83	59.88	12.40	-53.3	-62.1	3.8	7.46e-01	0	42	104	0	77	10363
2026-01-29 20:04:58.83	60.15	12.44	-53.3	-62.1	3.8	7.44e-01	0	42	104	0	77	10357
2026-01-29 20:04:59.84	60.42	12.48	-53.2	-62.0	3.8	7.45e-01	0	42	104	0	77	10267
2026-01-29 20:05:00.84	60.70	12.52	-53.3	-62.2	3.8	7.44e-01	0	42	104	0	77	10451
2026-01-29 20:05:01.85	60.98	12.56	-53.3	-62.1	3.8	7.44e-01	0	42	104	0	77	10365
2026-01-29 20:05:02.86	61.25	12.60	-53.2	-62.1	3.8	7.44e-01	0	42	104	0	77	10334
2026-01-29 20:05:03.87	61.53	12.63	-53.2	-62.1	3.8	7.46e-01	0	42	104	0	77	10300
2026-01-29 20:05:04.87	61.81	12.67	-53.3	-62.2	3.8	7.44e-01	0	42	104	0	77	10445
2026-01-29 20:05:05.87	62.09	12.71	-53.3	-62.1	3.8	7.45e-01	0	42	104	0	77	10400
2026-01-29 20:05:06.89	62.37	12.75	-53.3	-62.1	3.8	7.44e-01	0	42	104	0	77	10330
2026-01-29 20:05:07.89	62.65	12.78	-53.2	-62.1	3.8	7.45e-01	0	42	104	0	77	10298
2026-01-29 20:05:08.90	62.94	12.82	-53.4	-62.2	3.8	7.47e-01	0	42	104	0	77	10433
2026-01-29 20:05:09.91	63.22	12.85	-53.3	-62.1	3.8	7.46e-01	0	42	104	0	77	10390
2026-01-29 20:05:10.92	63.51	12.89	-53.3	-62.1	3.8	7.44e-01	0	42	104	0	77	10364
2026-01-29 20:05:11.92	63.79	12.92	-53.2	-62.1	3.8	7.44e-01	0	42	104	0	77	10316
2026-01-29 20:05:12.93	64.08	12.95	-53.4	-62.2	3.8	7.46e-01	0	42	104	0	77	10451
2026-01-29 20:05:13.93	64.36	12.99	-53.3	-62.1	3.8	7.46e-01	0	42	104	0	77	10400
2026-01-29 20:05:14.94	64.65	13.02	-53.3	-62.1	3.8	7.46e-01	0	42	104	0	77	10347
2026-01-29 20:05:15.95	64.94	13.05	-53.3	-62.1	3.8	7.46e-01	0	42	104	0	77	10334
2026-01-29 20:05:16.95	65.22	13.08	-53.4	-62.2	3.8	7.45e-01	0	42	104	0	77	10484
2026-01-29 20:05:17.96	65.52	13.11	-53.3	-62.1	3.8	7.46e-01	0	42	104	0	77	10411
2026-01-29 20:05:18.96	65.80	13.14	-53.3	-62.1	3.8	7.46e-01	0	42	104	0	77	10365
2026-01-29 20:05:19.97	66.10	13.17	-53.3	-62.1	3.8	7.46e-01	0	42	104	0	77	10333
2026-01-29 20:05:20.97	66.38	13.20	-53.4	-62.2	3.8	7.44e-01	0	42	104	0	77	10501
2026-01-29 20:05:21.98	66.68	13.23	-53.3	-62.1	3.8	7.45e-01	0	42	104	0	77	10400
2026-01-29 20:05:22.99	66.97	13.26	-53.3	-62.1	3.8	7.48e-01	0	42	104	0	77	10410
2026-01-29 20:05:23.99	67.26	13.29	-53.3	-62.1	3.8	7.44e-01	0	42	104	0	77	10340
2026-01-29 20:05:24.99	67.56	13.32	-53.4	-62.2	3.8	7.46e-01	0	42	104	0	77	10481
2026-01-29 20:05:26.00	67.85	13.34	-53.3	-62.1	3.8	7.45e-01	0	42	104	0	77	10385
2026-01-29 20:05:27.01	68.15	13.37	-53.3	-62.1	3.8	7.45e-01	0	42	104	0	77	10402
2026-01-29 20:05:28.01	68.44	13.39	-53.3	-62.1	3.8	7.46e-01	0	42	104	0	77	10372
2026-01-29 20:05:29.02	68.74	13.42	-53.4	-62.2	3.8	7.46e-01	0	42	104	0	77	10485
2026-01-29 20:05:30.03	69.04	13.44	-53.3	-62.2	3.8	7.46e-01	0	42	104	0	77	10440
2026-01-29 20:05:31.03	69.34	13.47	-53.3	-62.2	3.8	7.47e-01	0	42	104	0	77	10419
2026-01-29 20:05:32.04	69.63	13.49	-53.3	-62.1	3.8	7.45e-01	0	42	104	0	77	10333
2026-01-29 20:05:33.04	69.93	13.51	-53.4	-62.2	3.8	7.45e-01	0	42	104	0	77	10510
2026-01-29 20:05:34.05	70.23	13.53	-53.3	-62.2	3.8	7.44e-01	0	42	104	0	77	10428
2026-01-29 20:05:35.05	70.53	13.55	-53.3	-62.2	3.8	7.46e-01	0	42	104	0	77	10426
2026-01-29 20:05:36.06	70.83	13.58	-53.3	-62.1	3.8	7.45e-01	0	42	104	0	77	10368
2026-01-29 20:05:37.06	71.13	13.60	-53.4	-62.2	3.8	7.44e-01	0	42	104	0	77	10514
2026-01-29 20:05:38.07	71.43	13.62	-53.3	-62.2	3.8	7.45e-01	0	42	104	0	77	10424
2026-01-29 20:05:39.07	71.73	13.63	-53.3	-62.1	3.8	7.45e-01	0	42	104	0	77	10412
2026-01-29 20:05:40.08	72.04	13.65	-53.3	-62.1	3.8	7.46e-01	0	42	104	0	77	10373
2026-01-29 20:05:41.08	72.34	13.67	-53.4	-62.2	3.8	7.46e-01	0	42	104	0	77	10525
2026-01-29 20:05:42.09	72.64	13.69	-53.3	-62.2	3.8	7.46e-01	0	42	104	0	77	10440
2026-01-29 20:05:43.10	72.95	13.70	-53.3	-62.2	3.8	7.44e-01	0	42	104	0	77	10433
2026-01-29 20:05:44.10	73.25	13.72	-53.3	-62.1	3.8	7.45e-01	0	42	104	0	77	10383
2026-01-29 20:05:45.11	73.56	13.73	-53.4	-62.3	3.8	7.44e-01	0	42	104	0	77	10545
2026-01-29 20:05:46.12	73.86	13.75	-53.4	-62.2	3.8	7.45e-01	0	42	104	0	77	10486
2026-01-29 20:05:47.12	74.16	13.76	-53.3	-62.2	3.8	7.45e-01	0	42	104	0	77	10431
2026-01-29 20:05:48.13	74.47	13.77	-53.3	-62.2	3.8	7.45e-01	0	42	104	0	77	10421
2026-01-29 20:05:49.14	74.78	13.79	-53.4	-62.2	3.8	7.44e-01	0	42	104	0	77	10519
2026-01-29 20:05:50.15	75.09	13.80	-53.4	-62.2	3.8	7.45e-01	0	42	104	0	77	10439
2026-01-29 20:05:51.15	75.39	13.81	-53.3	-62.2	3.8	7.45e-01	0	42	104	0	77	10423
2026-01-29 20:05:52.16	75.70	13.82	-53.3	-62.1	3.8	7.45e-01	0	42	104	0	77	10392
2026-01-29 20:05:53.17	76.01	13.83	-53.4	-62.2	3.8	7.46e-01	0	42	104	0	77	10533
2026-01-29 20:05:54.18	76.31	13.84	-53.4	-62.2	3.8	7.45e-01	0	42	104	0	77	10453
2026-01-29 20:05:55.18	76.62	13.85	-53.3	-62.2	3.8	7.46e-01	0	42	104	0	77	10469
2026-01-29 20:05:56.19	76.93	13.86	-53.3	-62.1	3.8	7.47e-01	0	42	104	0	77	10402
2026-01-29 20:05:57.20	77.24	13.86	-53.4	-62.3	3.8	7.45e-01	0	42	104	0	77	10553
2026-01-29 20:05:58.21	77.55	13.87	-53.4	-62.2	3.8	7.46e-01	0	42	104	0	77	10453
2026-01-29 20:05:59.21	77.85	13.88	-53.3	-62.2	3.8	7.47e-01	0	42	104	0	77	10445
2026-01-29 20:06:00.22	78.16	13.88	-53.3	-62.1	3.8	7.47e-01	0	42	104	0	77	10387
2026-01-29 20:06:01.23	78.47	13.89	-53.4	-62.3	3.8	7.45e-01	0	42	104	0	77	10535
2026-01-29 20:06:02.23	78.78	13.89	-53.4	-62.2	3.8	7.43e-01	0	42	104	0	77	10438
2026-01-29 20:06:03.24	79.09	13.89	-53.3	-62.2	3.8	7.44e-01	0	42	104	0	77	10436
2026-01-29 20:06:04.25	79.40	13.90	-53.3	-62.1	3.8	7.46e-01	0	42	104	0	77	10411
2026-01-29 20:06:05.26	79.71	13.90	-53.4	-62.2	3.8	7.45e-01	0	42	104	0	77	10501
2026-01-29 20:06:06.26	80.02	13.90	-53.4	-62.2	3.8	7.45e-01	0	42	104	0	77	10465
2026-01-29 20:06:07.26	80.32	13.90	-53.3	-62.2	3.8	7.44e-01	0	42	104	0	77	10471
2026-01-29 20:06:08.27	80.63	13.90	-53.3	-62.1	3.8	7.45e-01	0	42	104	0	77	10398
2026-01-29 20:06:09.28	80.94	13.90	-53.4	-62.2	3.8	7.44e-01	0	42	104	0	77	10466
2026-01-29 20:06:10.29	81.25	13.90	-53.4	-62.2	3.8	7.44e-01	0	42	104	0	77	10470
2026-01-29 20:06:11.29	81.56	13.89	-53.3	-62.2	3.8	7.46e-01	0	42	104	0	77	10446
2026-01-29 20:06:12.30	81.87	13.89	-53.3	-62.1	3.8	7.47e-01	0	42	104	0	77	10396
2026-01-29 20:06:13.31	82.18	13.89	-53.4	-62.2	3.8	7.46e-01	0	42	104	0	77	10512
2026-01-29 20:06:14.31	82.49	13.88	-53.4	-62.2	3.8	7.47e-01	0	42	104	0	77	10468
2026-01-29 20:06:15.31	82.79	13.88	-53.3	-62.2	3.8	7.45e-01	0	42	104	0	77	10483
2026-01-29 20:06:16.32	83.10	13.87	-53.3	-62.2	3.8	7.45e-01	0	42	104	0	77	10418
2026-01-29 20:06:17.32	83.41	13.87	-53.4	-62.2	3.8	7.45e-01	0	42	104	0	77	10533
2026-01-29 20:06:18.33	83.72	13.86	-53.4	-62.2	3.8	7.44e-01	0	42	104	0	77	10465
2026-01-29 20:06:19.33	84.02	13.85	-53.3	-62.2	3.8	7.44e-01	0	42	104	0	77	10437
2026-01-29 20:06:20.34	84.33	13.84	-53.3	-62.2	3.8	7.46e-01	0	42	104	0	77	10432
2026-01-29 20:06:21.35	84.64	13.83	-53.4	-62.2	3.8	7.46e-01	0	42	104	0	77	10510
2026-01-29 20:06:22.36	84.95	13.83	-53.4	-62.2	3.8	7.45e-01	0	42	104	0	77	10463
2026-01-29 20:06:23.36	85.26	13.81	-53.3	-62.2	3.8	7.47e-01	0	42	104	0	77	10415
2026-01-29 20:06:24.37	85.56	13.80	-53.3	-62.2	3.8	7.44e-01	0	42	104	0	77	10433
2026-01-29 20:06:25.38	85.87	13.79	-53.4	-62.2	3.8	7.45e-01	0	42	104	0	77	10497
2026-01-29 20:06:26.38	86.18	13.78	-53.3	-62.2	3.8	7.45e-01	0	42	104	0	77	10443
2026-01-29 20:06:27.39	86.48	13.77	-53.3	-62.2	3.8	7.43e-01	0	42	104	0	77	10439
2026-01-29 20:06:28.40	86.79	13.75	-53.3	-62.2	3.8	7.45e-01	0	42	104	0	77	10418
2026-01-29 20:06:29.40	87.09	13.74	-53.4	-62.2	3.8	7.45e-01	0	42	104	0	77	10455
2026-01-29 20:06:30.40	87.40	13.73	-53.3	-62.2	3.8	7.46e-01	0	42	104	0	77	10434
2026-01-29 20:06:31.41	87.70	13.71	-53.3	-62.1	3.8	7.46e-01	0	42	104	0	77	10404
2026-01-29 20:06:32.42	88.01	13.69	-53.3	-62.2	3.8	7.43e-01	0	42	104	0	77	10429
2026-01-29 20:06:33.43	88.31	13.68	-53.4	-62.2	3.8	7.46e-01	0	42	104	0	77	10473
2026-01-29 20:06:34.44	88.62	13.66	-53.3	-62.2	3.8	7.46e-01	0	42	104	0	77	10422
2026-01-29 20:06:35.44	88.92	13.64	-53.3	-62.1	3.8	7.46e-01	0	42	104	0	77	10397
2026-01-29 20:06:36.44	89.22	13.62	-53.3	-62.2	3.8	7.45e-01	0	42	104	0	77	10459
2026-01-29 20:06:37.45	89.52	13.60	-53.3	-62.2	3.8	7.44e-01	0	42	104	0	77	10464
2026-01-29 20:06:38.46	89.83	13.58	-53.3	-62.2	3.8	7.47e-01	0	42	104	0	77	10431
2026-01-29 20:06:39.47	90.13	13.56	-53.3	-62.2	3.8	7.45e-01	0	42	104	0	77	10424
2026-01-29 20:06:40.47	90.43	13.54	-53.3	-62.2	3.8	7.44e-01	0	42	104	0	77	10414
2026-01-29 20:06:41.47	90.73	13.52	-53.3	-62.2	3.8	7.46e-01	0	42	104	0	77	10426
2026-01-29 20:06:42.48	91.03	13.50	-53.3	-62.1	3.8	7.44e-01	0	42	104	0	77	10399
2026-01-29 20:06:43.49	91.33	13.48	-53.3	-62.1	3.8	7.46e-01	0	42	104	0	77	10390
2026-01-29 20:06:44.49	91.62	13.45	-53.3	-62.1	3.8	7.45e-01	0	42	104	0	77	10394
2026-01-29 20:06:45.50	91.92	13.43	-53.3	-62.1	3.8	7.46e-01	0	42	104	0	77	10407
2026-01-29 20:06:46.51	92.22	13.40	-53.3	-62.2	3.8	7.46e-01	0	42	104	0	77	10428
2026-01-29 20:06:47.51	92.52	13.38	-53.3	-62.1	3.8	7.46e-01	0	42	104	0	77	10320
2026-01-29 20:06:48.52	92.81	13.35	-53.3	-62.2	3.8	7.46e-01	0	42	104	0	77	10439
2026-01-29 20:06:49.53	93.11	13.33	-53.3	-62.2	3.8	7.45e-01	0	42	104	0	77	10416
2026-01-29 20:06:50.54	93.41	13.30	-53.3	-62.2	3.8	7.44e-01	0	42	104	0	77	10426
2026-01-29 20:06:51.54	93.70	13.27	-53.3	-62.1	3.8	7.46e-01	0	42	104	0	77	10375
2026-01-29 20:06:52.55	94.00	13.24	-53.3	-62.2	3.8	7.46e-01	0	42	104	0	77	10465
2026-01-29 20:06:53.55	94.29	13.21	-53.3	-62.2	3.8	7.45e-01	0	42	104	0	77	10419
2026-01-29 20:06:54.56	94.58	13.18	-53.3	-62.1	3.8	7.44e-01	0	42	104	0	77	10393
2026-01-29 20:06:55.56	94.87	13.16	-53.3	-62.1	3.8	7.44e-01	0	42	104	0	77	10366
2026-01-29 20:06:56.57	95.16	13.12	-53.3	-62.2	3.8	7.46e-01	0	42	104	0	77	10456
2026-01-29 20:06:57.58	95.45	13.09	-53.3	-62.2	3.8	7.45e-01	0	42	104	0	77	10420
2026-01-29 20:06:58.58	95.74	13.06	-53.3	-62.2	3.8	7.44e-01	0	42	104	0	77	10420
2026-01-29 20:06:59.59	96.03	13.03	-53.3	-62.1	3.8	7.45e-01	0	42	104	0	77	10351
2026-01-29 20:07:00.59	96.32	13.00	-53.3	-62.2	3.8	7.47e-01	0	42	104	0	77	10429
2026-01-29 20:07:01.60	96.61	12.97	-53.3	-62.1	3.8	7.44e-01	0	42	104	0	77	10397
2026-01-29 20:07:02.60	96.89	12.93	-53.3	-62.2	3.8	7.43e-01	0	42	104	0	77	10431
2026-01-29 20:07:03.61	97.18	12.90	-53.3	-62.1	3.8	7.46e-01	0	42	104	0	77	10337
2026-01-29 20:07:04.61	97.46	12.86	-53.4	-62.2	3.8	7.46e-01	0	42	104	0	77	10452
2026-01-29 20:07:05.61	97.75	12.83	-53.3	-62.1	3.8	7.46e-01	0	42	104	0	77	10405
2026-01-29 20:07:06.62	98.03	12.79	-53.3	-62.2	3.8	7.45e-01	0	42	104	0	77	10464
2026-01-29 20:07:07.62	98.31	12.76	-53.3	-62.1	3.8	7.46e-01	0	42	104	0	77	10368
2026-01-29 20:07:08.63	98.60	12.72	-53.3	-62.2	3.8	7.46e-01	0	42	104	0	77	10476
2026-01-29 20:07:09.63	98.87	12.68	-53.3	-62.2	3.8	7.43e-01	0	42	104	0	77	10438
2026-01-29 20:07:10.64	99.16	12.65	-53.4	-62.2	3.8	7.46e-01	0	42	104	0	77	10466
2026-01-29 20:07:11.64	99.43	12.61	-53.3	-62.1	3.8	7.44e-01	0	42	104	0	77	10378
2026-01-29 20:07:12.65	99.71	12.57	-53.4	-62.2	3.8	7.45e-01	0	42	104	0	77	10478
2026-01-29 20:07:13.66	99.99	12.53	-53.3	-62.2	3.8	7.46e-01	0	42	104	0	77	10435
2026-01-29 20:07:14.67	100.27	12.49	-53.4	-62.2	3.8	7.46e-01	0	42	104	0	77	10494
2026-01-29 20:07:15.67	100.55	12.45	-53.3	-62.1	3.8	7.45e-01	0	42	104	0	77	10368
2026-01-29 20:07:16.68	100.82	12.41	-53.4	-62.2	3.8	7.46e-01	0	42	104	0	77	10492
2026-01-29 20:07:17.69	101.10	12.37	-53.3	-62.2	3.8	7.46e-01	0	42	104	0	77	10434
2026-01-29 20:07:18.69	101.37	12.33	-53.4	-62.2	3.8	7.44e-01	0	42	104	0	77	10501
2026-01-29 20:07:19.69	101.64	12.29	-53.3	-62.1	3.8	7.44e-01	0	42	104	0	77	10381
2026-01-29 20:07:20.70	101.91	12.25	-53.4	-62.2	3.8	7.45e-01	0	42	104	0	77	10492
2026-01-29 20:07:21.71	102.18	12.21	-53.3	-62.2	3.8	7.47e-01	0	42	104	0	77	10453
2026-01-29 20:07:22.71	102.45	12.16	-53.4	-62.2	3.8	7.44e-01	0	42	104	0	77	10511
2026-01-29 20:07:23.72	102.72	12.12	-53.3	-62.1	3.8	7.45e-01	0	42	104	0	77	10387
2026-01-29 20:07:24.72	102.99	12.08	-53.4	-62.2	3.8	7.46e-01	0	42	104	0	77	10526
2026-01-29 20:07:25.73	103.26	12.03	-53.4	-62.2	3.8	7.44e-01	0	42	104	0	77	10445
2026-01-29 20:07:26.74	103.52	11.99	-53.4	-62.2	3.8	7.45e-01	0	42	104	0	77	10520
2026-01-29 20:07:27.74	103.79	11.94	-53.3	-62.1	3.8	7.45e-01	0	42	104	0	77	10405
2026-01-29 20:07:28.75	104.05	11.90	-53.4	-62.3	3.8	7.45e-01	0	42	104	0	77	10564
2026-01-29 20:07:29.76	104.32	11.85	-53.3	-62.2	3.8	7.46e-01	0	42	104	0	77	10466
2026-01-29 20:07:30.76	104.58	11.81	-53.4	-62.3	3.8	7.47e-01	0	42	104	0	77	10542
2026-01-29 20:07:31.77	104.84	11.76	-53.3	-62.2	3.8	7.45e-01	0	42	104	0	77	10447
2026-01-29 20:07:32.78	105.10	11.72	-53.4	-62.2	3.8	7.45e-01	0	42	104	0	77	10510
2026-01-29 20:07:33.78	105.36	11.67	-53.3	-62.2	3.8	7.44e-01	0	42	104	0	77	10472
2026-01-29 20:07:34.78	105.62	11.62	-53.4	-62.3	3.8	7.45e-01	0	42	104	0	77	10549
2026-01-29 20:07:35.79	105.87	11.58	-53.3	-62.2	3.8	7.43e-01	0	42	104	0	77	10467
2026-01-29 20:07:36.80	106.13	11.53	-53.4	-62.3	3.8	7.45e-01	0	42	104	0	77	10614
2026-01-29 20:07:37.81	106.39	11.48	-53.4	-62.2	3.8	7.45e-01	0	42	104	0	77	10462
2026-01-29 20:07:38.82	106.64	11.43	-53.4	-62.3	3.8	7.45e-01	0	42	104	0	77	10595
2026-01-29 20:07:39.82	106.90	11.38	-53.4	-62.2	3.8	7.45e-01	0	42	104	0	77	10489
2026-01-29 20:07:40.83	107.15	11.33	-53.4	-62.3	3.8	7.45e-01	0	42	104	0	77	10542
2026-01-29 20:07:41.83	107.40	11.28	-53.4	-62.2	3.8	7.45e-01	0	42	104	0	77	10473
2026-01-29 20:07:42.84	107.65	11.23	-53.4	-62.3	3.8	7.46e-01	0	42	104	0	77	10614
2026-01-29 20:07:43.85	107.90	11.18	-53.4	-62.2	3.8	7.47e-01	0	42	104	0	77	10472
2026-01-29 20:07:44.86	108.15	11.13	-53.4	-62.3	3.8	7.46e-01	0	42	104	0	77	10534
2026-01-29 20:07:45.86	108.40	11.08	-53.3	-62.2	3.8	7.45e-01	0	42	104	0	77	10442
2026-01-29 20:07:46.87	108.64	11.03	-53.5	-62.3	3.8	7.46e-01	0	42	104	0	77	10598
2026-01-29 20:07:47.88	108.89	10.98	-53.4	-62.2	3.8	7.44e-01	0	42	104	0	77	10458
2026-01-29 20:07:48.89	109.13	10.93	-53.4	-62.2	3.8	7.45e-01	0	42	104	0	77	10506
2026-01-29 20:07:49.89	109.38	10.88	-53.3	-62.2	3.8	7.46e-01	0	42	104	0	77	10460
2026-01-29 20:07:50.90	109.62	10.83	-53.5	-62.3	3.8	7.45e-01	0	42	104	0	77	10591
2026-01-29 20:07:51.91	109.86	10.78	-53.4	-62.2	3.8	7.46e-01	0	42	104	0	77	10492
2026-01-29 20:07:52.91	110.10	10.72	-53.4	-62.3	3.8	7.46e-01	0	42	104	0	77	10575
2026-01-29 20:07:53.92	110.34	10.67	-53.3	-62.2	3.8	7.45e-01	0	42	104	0	77	10422
2026-01-29 20:07:54.92	110.58	10.62	-53.5	-62.3	3.8	7.45e-01	0	42	104	0	77	10613
2026-01-29 20:07:55.93	110.82	10.57	-53.4	-62.2	3.8	7.46e-01	0	42	104	0	77	10470
2026-01-29 20:07:56.93	111.05	10.51	-53.4	-62.2	3.8	7.46e-01	0	42	104	0	77	10518
2026-01-29 20:07:57.94	111.29	10.46	-53.3	-62.2	3.8	7.45e-01	0	42	104	0	77	10433
2026-01-29 20:07:58.94	111.52	10.41	-53.5	-62.3	3.8	7.45e-01	0	42	104	0	77	10618
2026-01-29 20:07:59.95	111.75	10.35	-53.3	-62.2	3.8	7.45e-01	0	42	104	0	77	10428
2026-01-29 20:08:00.95	111.98	10.30	-53.4	-62.2	3.8	7.45e-01	0	42	104	0	77	10494
2026-01-29 20:08:01.96	112.22	10.25	-53.4	-62.2	3.8	7.45e-01	0	42	104	0	77	10515
2026-01-29 20:08:02.97	112.45	10.19	-53.5	-62.3	3.8	7.45e-01	0	42	104	0	77	10642
2026-01-29 20:08:03.97	112.67	10.14	-53.4	-62.2	3.8	7.46e-01	0	42	104	0	77	10495
2026-01-29 20:08:04.97	112.90	10.08	-53.4	-62.2	3.8	7.45e-01	0	42	104	0	77	10491
2026-01-29 20:08:05.98	113.13	10.03	-53.3	-62.1	3.8	7.44e-01	0	42	104	0	77	10385
2026-01-29 20:08:06.99	113.36	9.97	-53.4	-62.3	3.8	7.45e-01	0	42	104	0	77	10612
2026-01-29 20:08:08.00	113.58	9.92	-53.3	-62.1	3.8	7.45e-01	0	42	104	0	77	10362
2026-01-29 20:08:09.00	113.80	9.86	-53.3	-62.2	3.8	7.45e-01	0	42	104	0	77	10476
2026-01-29 20:08:10.01	114.03	9.81	-53.3	-62.1	3.8	7.45e-01	0	42	104	0	77	10313
2026-01-29 20:08:11.02	114.25	9.75	-53.4	-62.2	3.8	7.45e-01	0	42	104	0	77	10479
2026-01-29 20:08:12.02	114.47	9.69	-53.2	-62.1	3.8	7.45e-01	0	42	104	0	77	10331
2026-01-29 20:08:13.03	114.69	9.64	-53.3	-62.2	3.8	7.43e-01	0	42	104	0	77	10441
2026-01-29 20:08:14.04	114.91	9.58	-53.2	-62.0	3.8	7.46e-01	0	42	104	0	77	10276
2026-01-29 20:08:15.04	115.13	9.53	-53.3	-62.2	3.8	7.46e-01	0	42	104	0	77	10495
2026-01-29 20:08:16.05	115.34	9.47	-53.2	-62.1	3.8	7.46e-01	0	42	104	0	77	10321
2026-01-29 20:08:17.06	115.56	9.41	-53.3	-62.2	3.8	7.46e-01	0	42	104	0	77	10427
2026-01-29 20:08:18.07	115.78	9.36	-53.2	-62.0	3.8	7.46e-01	0	42	104	0	77	10269
2026-01-29 20:08:19.08	115.99	9.30	-53.3	-62.2	3.8	7.46e-01	0	42	104	0	77	10480
2026-01-29 20:08:20.08	116.20	9.24	-53.1	-61.9	3.8	7.44e-01	0	42	104	0	77	10158
2026-01-29 20:08:21.08	116.41	9.19	-53.2	-62.1	3.8	7.44e-01	0	42	104	0	77	10298
2026-01-29 20:08:22.08	116.62	9.13	-53.1	-61.9	3.8	7.44e-01	0	42	104	0	77	10112
2026-01-29 20:08:23.09	116.83	9.07	-53.1	-62.0	3.8	7.46e-01	0	42	104	0	77	10213
2026-01-29 20:08:24.10	117.04	9.01	-53.0	-61.8	3.8	7.45e-01	0	42	104	0	77	10026
2026-01-29 20:08:25.10	117.25	8.96	-53.1	-62.0	3.8	7.46e-01	0	42	104	0	77	10223
2026-01-29 20:08:26.10	117.45	8.90	-53.0	-61.8	3.8	7.46e-01	0	42	104	0	77	10053
2026-01-29 20:08:27.10	117.66	8.84	-53.0	-61.9	3.8	7.46e-01	0	42	104	0	77	10071
2026-01-29 20:08:28.11	117.87	8.78	-52.9	-61.8	3.8	7.44e-01	0	42	104	0	77	9983
2026-01-29 20:08:29.11	118.07	8.73	-53.0	-61.9	3.8	7.44e-01	0	42	104	0	77	10088
2026-01-29 20:08:30.12	118.27	8.67	-52.9	-61.8	3.8	7.46e-01	0	42	104	0	77	9988
2026-01-29 20:08:31.12	118.47	8.61	-52.9	-61.8	3.8	7.45e-01	0	42	104	0	77	9993
2026-01-29 20:08:32.13	118.67	8.55	-52.8	-61.7	3.8	7.45e-01	0	42	104	0	77	9873
2026-01-29 20:08:33.14	118.87	8.49	-53.0	-61.8	3.8	7.46e-01	0	42	104	0	77	10004
2026-01-29 20:08:34.15	119.07	8.44	-52.9	-61.7	3.8	7.45e-01	0	42	104	0	77	9939
2026-01-29 20:08:35.15	119.27	8.38	-52.9	-61.7	3.8	7.44e-01	0	42	104	0	77	9894
2026-01-29 20:08:36.16	119.47	8.32	-52.8	-61.6	3.8	7.44e-01	0	42	104	0	77	9818
2026-01-29 20:08:37.17	119.67	8.26	-52.9	-61.8	3.8	7.45e-01	0	42	104	0	77	9965
2026-01-29 20:08:38.17	119.86	8.20	-52.9	-61.7	3.8	7.45e-01	0	42	104	0	77	9944
2026-01-29 20:08:39.18	120.06	8.14	-52.9	-61.7	3.8	7.45e-01	0	42	104	0	77	9903
2026-01-29 20:08:40.18	120.25	8.08	-52.8	-61.6	3.8	7.45e-01	0	42	104	0	77	9822
2026-01-29 20:08:41.18	120.44	8.03	-52.9	-61.7	3.8	7.46e-01	0	42	104	0	77	9899
2026-01-29 20:08:42.19	120.63	7.97	-52.8	-61.6	3.8	7.45e-01	0	42	104	0	77	9765
2026-01-29 20:08:43.19	120.82	7.91	-52.7	-61.6	3.8	7.46e-01	0	42	104	0	77	9763
2026-01-29 20:08:44.20	121.01	7.85	-52.7	-61.5	3.8	7.46e-01	0	42	104	0	77	9674
2026-01-29 20:08:45.21	121.20	7.79	-52.8	-61.7	3.8	7.46e-01	0	42	104	0	77	9846
2026-01-29 20:08:46.22	121.39	7.73	-52.7	-61.5	3.8	7.47e-01	0	42	104	0	77	9670
2026-01-29 20:08:47.22	121.57	7.67	-52.7	-61.5	3.8	7.45e-01	0	42	104	0	77	9709
2026-01-29 20:08:48.23	121.76	7.61	-52.6	-61.4	3.8	7.44e-01	0	42	104	0	77	9595
2026-01-29 20:08:49.23	121.94	7.55	-52.8	-61.6	3.8	7.45e-01	0	42	104	0	77	9743
2026-01-29 20:08:50.23	122.13	7.50	-52.6	-61.5	3.8	7.46e-01	0	42	104	0	77	9655
2026-01-29 20:08:51.24	122.31	7.44	-52.6	-61.4	3.8	7.44e-01	0	42	104	0	77	9602
2026-01-29 20:08:52.25	122.49	7.38	-52.6	-61.4	3.8	7.45e-01	0	42	104	0	77	9538
2026-01-29 20:08:53.24	122.67	7.32	-52.7	-61.5	3.8	7.44e-01	0	42	104	0	77	9659
2026-01-29 20:08:54.25	122.85	7.26	-52.6	-61.4	3.8	7.44e-01	0	42	104	0	77	9532
2026-01-29 20:08:55.25	123.03	7.20	-52.6	-61.4	3.8	7.46e-01	0	42	104	0	77	9526
2026-01-29 20:08:56.25	123.21	7.14	-52.5	-61.3	3.8	7.44e-01	0	42	104	0	77	9467
2026-01-29 20:08:57.26	123.39	7.08	-52.6	-61.5	3.8	7.44e-01	0	42	104	0	77	9633
2026-01-29 20:08:58.27	123.57	7.02	-52.5	-61.4	3.8	7.44e-01	0	42	104	0	77	9515
2026-01-29 20:08:59.29	123.74	6.96	-52.5	-61.3	3.8	7.44e-01	0	42	104	0	77	9485
2026-01-29 20:09:00.29	123.92	6.90	-52.4	-61.3	3.8	7.44e-01	0	42	104	0	76	9952
2026-01-29 20:09:01.30	124.09	6.84	-52.5	-61.4	3.8	7.44e-01	0	42	104	0	76	10094
2026-01-29 20:09:02.30	124.27	6.79	-52.4	-61.3	3.8	7.45e-01	0	42	104	0	76	9976
2026-01-29 20:09:03.31	124.44	6.73	-52.4	-61.3	3.8	7.46e-01	0	42	104	0	76	9978
2026-01-29 20:09:04.31	124.61	6.67	-52.4	-61.2	3.8	7.46e-01	0	42	104	0	76	9899
2026-01-29 20:09:05.32	124.78	6.61	-52.5	-61.3	3.8	7.47e-01	0	42	104	0	76	10034
2026-01-29 20:09:06.32	124.95	6.55	-52.4	-61.2	3.8	7.45e-01	0	42	104	0	76	9905
2026-01-29 20:09:07.33	125.12	6.49	-52.3	-61.2	3.8	7.47e-01	0	42	104	0	76	9845
2026-01-29 20:09:08.33	125.29	6.43	-52.3	-61.1	3.8	7.45e-01	0	42	104	0	76	9826
2026-01-29 20:09:09.33	125.45	6.37	-52.4	-61.3	3.8	7.46e-01	0	42	104	0	76	9949
2026-01-29 20:09:10.34	125.62	6.31	-52.3	-61.1	3.8	7.45e-01	0	42	104	0	76	9821
2026-01-29 20:09:11.34	125.79	6.25	-52.3	-61.1	3.8	7.45e-01	0	42	104	0	76	9772
2026-01-29 20:09:12.35	125.95	6.19	-52.3	-61.1	3.8	7.45e-01	0	42	104	0	76	9767
2026-01-29 20:09:13.36	126.12	6.13	-52.3	-61.2	3.8	7.46e-01	0	42	104	0	76	9894
2026-01-29 20:09:14.36	126.28	6.08	-52.3	-61.1	3.8	7.44e-01	0	42	104	0	76	9766
2026-01-29 20:09:15.37	126.44	6.02	-52.2	-61.0	3.8	7.46e-01	0	42	104	0	76	9700
2026-01-29 20:09:16.38	126.60	5.96	-52.2	-61.0	3.8	7.45e-01	0	42	104	0	76	9716
2026-01-29 20:09:17.38	126.76	5.90	-52.3	-61.1	3.8	7.46e-01	0	42	104	0	76	9790
2026-01-29 20:09:18.39	126.92	5.84	-52.2	-61.1	3.8	7.46e-01	0	42	104	0	76	9739
2026-01-29 20:09:19.39	127.08	5.78	-52.2	-61.0	3.8	7.43e-01	0	42	104	0	76	9671
2026-01-29 20:09:20.39	127.24	5.72	-52.2	-61.0	3.8	7.43e-01	0	42	104	0	76	9689
2026-01-29 20:09:21.40	127.40	5.66	-52.2	-61.0	3.8	7.45e-01	0	42	104	0	76	9715
2026-01-29 20:09:22.41	127.56	5.60	-52.1	-61.0	3.8	7.47e-01	0	42	104	0	76	9651
2026-01-29 20:09:23.42	127.71	5.54	-52.1	-61.0	3.8	7.46e-01	0	42	104	0	76	9612
2026-01-29 20:09:24.43	127.87	5.48	-52.1	-60.9	3.8	7.46e-01	0	42	104	0	76	9590
2026-01-29 20:09:25.43	128.02	5.43	-52.2	-61.0	3.8	7.45e-01	0	42	104	0	76	9658
2026-01-29 20:09:26.44	128.18	5.37	-52.1	-60.9	3.8	7.45e-01	0	42	104	0	76	9566
2026-01-29 20:09:27.44	128.33	5.31	-52.0	-60.9	3.8	7.43e-01	0	42	104	0	76	9505
2026-01-29 20:09:28.45	128.48	5.25	-52.1	-60.9	3.8	7.45e-01	0	42	104	0	75	10113
2026-01-29 20:09:29.46	128.64	5.19	-52.1	-60.9	3.8	7.46e-01	0	42	104	0	75	10155
2026-01-29 20:09:30.47	128.79	5.13	-52.0	-60.9	3.8	7.45e-01	0	42	104	0	75	10067
2026-01-29 20:09:31.47	128.94	5.07	-51.9	-60.8	3.8	7.46e-01	0	42	104	0	75	9947
2026-01-29 20:09:32.48	129.09	5.01	-51.8	-60.7	3.8	7.44e-01	0	42	104	0	75	9875
2026-01-29 20:09:33.49	129.24	4.96	-52.3	-61.2	3.8	7.46e-01	0	42	104	0	75	10435
2026-01-29 20:09:34.49	129.38	4.90	-52.8	-61.6	3.8	7.46e-01	0	42	104	0	76	10338
2026-01-29 20:09:35.50	129.53	4.84	-53.1	-61.9	3.8	7.46e-01	0	42	104	0	76	10733
2026-01-29 20:09:36.50	129.68	4.78	-53.4	-62.2	3.8	7.46e-01	0	42	104	0	77	10509
2026-01-29 20:09:37.51	129.82	4.72	-53.6	-62.4	3.8	7.45e-01	0	42	104	0	77	10760
2026-01-29 20:09:38.52	129.97	4.66	-53.8	-62.6	3.8	7.46e-01	0	42	104	0	78	10397
2026-01-29 20:09:39.53	130.11	4.60	-53.9	-62.8	3.8	7.45e-01	0	42	104	0	78	10615
2026-01-29 20:09:40.53	130.25	4.55	-54.1	-62.9	3.8	7.46e-01	0	42	104	0	78	10754
2026-01-29 20:09:41.54	130.40	4.49	-54.2	-63.0	3.8	7.45e-01	0	42	104	0	78	10869
2026-01-29 20:09:42.55	130.54	4.43	-54.3	-63.1	3.8	7.45e-01	0	42	104	0	79	10407
2026-01-29 20:09:43.55	130.68	4.37	-54.4	-63.2	3.8	7.44e-01	0	42	104	0	79	10523
2026-01-29 20:09:44.56	130.82	4.31	-54.5	-63.3	3.8	7.46e-01	0	42	104	0	79	10629
2026-01-29 20:09:45.57	130.96	4.25	-54.6	-63.4	3.8	7.46e-01	0	42	104	0	79	10726
2026-01-29 20:09:46.58	131.10	4.20	-54.6	-63.4	3.8	7.44e-01	0	42	104	0	79	10776
2026-01-29 20:09:47.59	131.24	4.14	-54.7	-63.5	3.8	7.44e-01	0	42	104	0	79	10883
2026-01-29 20:09:48.60	131.38	4.08	-54.7	-63.6	3.8	7.45e-01	0	42	104	0	79	10948
2026-01-29 20:09:49.61	131.52	4.02	-54.7	-63.6	3.8	7.45e-01	0	42	104	0	80	10335
2026-01-29 20:09:50.61	131.66	3.96	-54.8	-63.6	3.8	7.44e-01	0	42	104	0	80	10355
2026-01-29 20:09:51.62	131.79	3.91	-54.8	-63.7	3.8	7.44e-01	0	42	104	0	80	10459
2026-01-29 20:09:52.63	131.93	3.85	-54.9	-63.7	3.8	7.47e-01	0	42	104	0	80	10470
2026-01-29 20:09:53.63	132.06	3.79	-54.9	-63.7	3.8	7.46e-01	0	42	104	0	80	10516
2026-01-29 20:09:54.64	132.20	3.73	-54.9	-63.7	3.8	7.46e-01	0	42	104	0	80	10475
2026-01-29 20:09:55.65	132.33	3.68	-54.9	-63.8	3.8	7.45e-01	0	42	104	0	80	10561
2026-01-29 20:09:56.65	132.46	3.62	-54.9	-63.7	3.8	7.45e-01	0	42	104	0	80	10529
2026-01-29 20:09:57.66	132.60	3.56	-54.9	-63.8	3.8	7.45e-01	0	42	104	0	80	10549
2026-01-29 20:09:58.67	132.73	3.50	-54.9	-63.8	3.8	7.45e-01	0	42	104	0	80	10560
2026-01-29 20:09:59.68	132.86	3.45	-54.9	-63.8	3.8	7.45e-01	0	42	104	0	80	10618
2026-01-29 20:10:00.68	132.99	3.39	-55.0	-63.9	3.8	7.46e-01	0	42	104	0	80	10665
2026-01-29 20:10:01.69	133.12	3.33	-55.0	-63.9	3.8	7.45e-01	0	42	104	0	80	10659
2026-01-29 20:10:02.70	133.25	3.27	-55.0	-63.9	3.8	7.45e-01	0	42	104	0	80	10691
2026-01-29 20:10:03.71	133.38	3.22	-55.0	-63.9	3.8	7.45e-01	0	42	104	0	80	10673
2026-01-29 20:10:04.71	133.50	3.16	-55.0	-63.9	3.8	7.45e-01	0	42	104	0	80	10709
2026-01-29 20:10:05.72	133.63	3.10	-55.1	-63.9	3.8	7.45e-01	0	42	104	0	80	10692
2026-01-29 20:10:06.73	133.76	3.05	-55.0	-63.9	3.8	7.45e-01	0	42	104	0	80	10712
2026-01-29 20:10:07.73	133.88	2.99	-55.0	-63.9	3.8	7.44e-01	0	42	104	0	80	10714
2026-01-29 20:10:08.74	134.01	2.93	-55.0	-63.9	3.8	7.45e-01	0	42	104	0	80	10693
2026-01-29 20:10:09.75	134.13	2.88	-55.0	-63.8	3.8	7.45e-01	0	42	104	0	80	10634
2026-01-29 20:10:10.75	134.26	2.82	-55.0	-63.8	3.8	7.45e-01	0	42	104	0	80	10622
2026-01-29 20:10:11.76	134.38	2.76	-55.0	-63.9	3.8	7.46e-01	0	42	104	0	80	10688
2026-01-29 20:10:12.77	134.50	2.71	-55.0	-63.8	3.8	7.44e-01	0	42	104	0	80	10624
2026-01-29 20:10:13.79	134.63	2.65	-54.9	-63.8	3.8	7.46e-01	0	42	104	0	80	10549
2026-01-29 20:10:14.79	134.75	2.59	-54.9	-63.7	3.8	7.45e-01	0	42	104	0	80	10524
2026-01-29 20:10:15.79	134.87	2.54	-54.9	-63.7	3.8	7.45e-01	0	42	104	0	80	10526
2026-01-29 20:10:16.80	134.99	2.48	-54.8	-63.6	3.8	7.46e-01	0	42	104	0	80	10405
2026-01-29 20:10:17.81	135.11	2.42	-54.8	-63.6	3.8	7.45e-01	0	42	104	0	80	10367
2026-01-29 20:10:18.81	135.23	2.37	-54.7	-63.6	3.8	7.44e-01	0	42	104	0	80	10300
2026-01-29 20:10:19.82	135.35	2.31	-54.6	-63.5	3.8	7.46e-01	0	42	104	0	80	10204
2026-01-29 20:10:20.83	135.47	2.25	-54.6	-63.4	3.8	7.45e-01	0	42	104	0	80	10108
2026-01-29 20:10:21.83	135.59	2.20	-54.5	-63.3	3.8	7.45e-01	0	42	104	0	80	10024
2026-01-29 20:10:22.84	135.70	2.14	-54.4	-63.3	3.8	7.45e-01	0	42	104	0	80	9948
2026-01-29 20:10:23.85	135.82	2.09	-54.3	-63.1	3.8	7.45e-01	0	42	104	0	80	9812
2026-01-29 20:10:24.86	135.94	2.03	-54.2	-63.0	3.8	7.45e-01	0	42	104	0	80	9658
2026-01-29 20:10:25.87	136.05	1.98	-54.0	-62.8	3.8	7.46e-01	0	42	104	0	80	9467

#Closed at: 2026-01-29 20:10:26
#Recorded file [0 MB]: D:/lorett/data/31041_260129_230149.dat