passes_logs/2026/01/29/R3.2S_Murmansk/R3.2S_Murmansk__20260129_124338_FENGYUN_3D_rec.log

#Pass ID: 20260129_124338_FENGYUN 3D
#Satellite: FENGYUN 3D
#Configuration: FENGYUN 3D
#almurnet v.1.7.20251203
#Start time: 2026-01-29 12:43:39

#Version: 2.2.20231116
#Station: R3.2S_Murmansk
#Location: 33.079688 lon 68.888172 lat
#TLE: 1 43010U 17072A   26028.95797775  .00000451  00000+0  23492-3 0  9991
#TLE: 2 43010  98.9958   0.9922 0002505  85.7480 274.3981 14.19703224425237

#Time	Az	El	Level	Level2	SNR	BER	BlckErr	Temp	State	Recorded	gain1	gain2
2026-01-29 12:43:39.77	179.47	2.10	-52.3	-64.2	3.8	8.46e-01	0	40	0	0	76	13971
2026-01-29 12:43:40.77	179.51	2.16	-52.2	-64.2	3.8	8.47e-01	0	39	104	0	75	14733
2026-01-29 12:43:41.78	179.54	2.23	-52.2	-64.1	3.8	8.45e-01	0	40	104	0	75	14609
2026-01-29 12:43:42.78	179.58	2.29	-52.2	-64.1	3.8	8.46e-01	0	40	104	0	75	14630
2026-01-29 12:43:43.79	179.61	2.35	-52.2	-64.1	3.8	8.46e-01	0	39	104	0	75	14584
2026-01-29 12:43:44.80	179.65	2.42	-52.2	-64.1	3.8	8.47e-01	0	40	104	0	75	14579
2026-01-29 12:43:45.81	179.69	2.48	-52.2	-64.1	3.8	8.46e-01	0	40	104	0	75	14644
2026-01-29 12:43:46.81	179.72	2.54	-52.2	-64.1	3.8	8.46e-01	0	40	104	0	75	14624
2026-01-29 12:43:47.82	179.76	2.61	-52.2	-64.1	3.8	8.46e-01	0	40	104	0	75	14691
2026-01-29 12:43:48.83	179.80	2.67	-52.2	-64.1	3.8	8.46e-01	0	40	104	0	75	14657
2026-01-29 12:43:49.84	179.84	2.74	-52.2	-64.1	3.8	8.46e-01	0	40	104	0	75	14680
2026-01-29 12:43:50.85	179.87	2.80	-52.2	-64.1	3.8	8.45e-01	0	40	104	0	75	14577
2026-01-29 12:43:51.86	179.91	2.87	-52.2	-64.0	3.8	8.46e-01	0	40	104	0	75	14523
2026-01-29 12:43:52.86	179.95	2.93	-52.2	-64.0	3.8	8.46e-01	0	40	104	0	75	14533
2026-01-29 12:43:53.87	179.98	2.99	-52.2	-64.0	3.8	8.46e-01	0	40	104	0	75	14495
2026-01-29 12:43:54.88	180.02	3.06	-52.2	-64.1	3.8	8.47e-01	0	40	104	0	75	14559
2026-01-29 12:43:55.88	180.06	3.12	-52.2	-64.1	3.8	8.45e-01	0	40	104	0	75	14557
2026-01-29 12:43:56.89	180.10	3.19	-52.2	-64.1	3.8	8.46e-01	0	40	104	0	75	14588
2026-01-29 12:43:57.90	180.14	3.25	-52.2	-64.0	3.8	8.45e-01	0	40	104	0	75	14402
2026-01-29 12:43:58.90	180.18	3.32	-52.2	-63.8	3.8	8.47e-01	0	40	104	0	75	14101
2026-01-29 12:43:59.91	180.21	3.38	-52.1	-63.5	3.8	8.45e-01	0	40	104	0	75	13725
2026-01-29 12:44:00.91	180.25	3.45	-52.1	-63.2	3.8	8.46e-01	0	40	104	0	75	13111
2026-01-29 12:44:01.92	180.29	3.52	-52.1	-62.9	3.8	8.45e-01	0	40	104	0	75	12727
2026-01-29 12:44:02.93	180.33	3.58	-52.1	-62.7	3.8	8.46e-01	0	40	104	0	75	12465
2026-01-29 12:44:03.94	180.37	3.65	-52.0	-62.7	3.8	8.47e-01	0	40	104	0	75	12462
2026-01-29 12:44:04.95	180.41	3.71	-52.1	-63.0	3.8	8.45e-01	0	40	104	0	75	12911
2026-01-29 12:44:05.96	180.45	3.78	-52.1	-63.2	3.8	8.45e-01	0	40	104	0	75	13145
2026-01-29 12:44:06.97	180.49	3.85	-52.1	-62.9	3.8	8.46e-01	0	40	104	0	75	12698
2026-01-29 12:44:07.97	180.53	3.91	-51.8	-60.9	4.1	8.45e-01	0	40	104	0	75	10115
2026-01-29 12:44:08.98	180.57	3.98	-51.4	-58.5	5.0	7.99e-01	0	40	0	0	74	8152
2026-01-29 12:44:09.99	180.61	4.05	-50.8	-56.2	6.7	3.63e-01	0	40	0	2097152	73	6572
2026-01-29 12:44:10.99	180.65	4.12	-49.9	-53.8	9.1	8.48e-02	0	40	0	8388608	71	5606
2026-01-29 12:44:12.00	180.69	4.18	-49.1	-52.1	10.8	5.84e-03	0	41	0	13631488	70	4907
2026-01-29 12:44:13.01	180.73	4.25	-47.8	-50.2	12.8	3.42e-04	0	41	0	18874368	67	4652
2026-01-29 12:44:14.02	180.77	4.32	-47.0	-49.0	13.9	2.17e-05	0	40	0	25165824	66	4340
2026-01-29 12:44:15.02	180.81	4.39	-46.0	-47.6	15.4	0.00e+00	0	40	0	30408704	64	4138
2026-01-29 12:44:16.03	180.85	4.45	-45.3	-46.8	16.3	0.00e+00	0	40	0	36700160	62	4207
2026-01-29 12:44:17.03	180.89	4.52	-44.8	-46.1	16.9	0.00e+00	0	40	0	41943040	61	4144
2026-01-29 12:44:18.04	180.94	4.59	-44.3	-45.5	17.5	0.00e+00	0	41	0	47185920	60	4094
2026-01-29 12:44:19.05	180.98	4.66	-44.4	-45.7	17.4	0.00e+00	0	41	0	53477376	60	4161
2026-01-29 12:44:20.06	181.02	4.73	-44.2	-45.5	17.6	0.00e+00	0	41	0	58720256	60	4072
2026-01-29 12:44:21.07	181.06	4.80	-44.5	-45.8	17.6	0.00e+00	0	41	0	65011712	59	4465
2026-01-29 12:44:22.08	181.11	4.87	-44.5	-45.9	17.2	0.00e+00	0	40	0	70254592	60	4262
2026-01-29 12:44:23.09	181.15	4.93	-45.0	-46.5	16.6	0.00e+00	0	40	0	76546048	60	4554
2026-01-29 12:44:24.10	181.19	5.00	-45.6	-47.2	15.9	0.00e+00	0	41	0	81788928	61	4669
2026-01-29 12:44:25.11	181.23	5.07	-46.4	-48.1	15.0	0.00e+00	0	41	0	87031808	63	4641
2026-01-29 12:44:26.12	181.28	5.14	-45.9	-47.5	15.6	0.00e+00	0	41	0	93323264	63	4328
2026-01-29 12:44:27.13	181.32	5.21	-44.0	-45.2	18.0	0.00e+00	0	41	0	98566144	60	3934
2026-01-29 12:44:28.13	181.36	5.28	-51.8	-61.4	4.0	3.26e-01	0	41	0	102760448	74	11408
2026-01-29 12:44:29.14	181.41	5.35	-50.7	-55.7	7.0	2.12e-01	0	41	0	106954752	72	6632
2026-01-29 12:44:30.15	181.45	5.42	-43.1	-44.2	19.3	0.00e+00	0	41	0	112197632	57	4166
2026-01-29 12:44:31.16	181.50	5.49	-42.7	-43.7	19.8	0.00e+00	0	41	0	118489088	57	3930
2026-01-29 12:44:32.17	181.54	5.57	-42.5	-43.6	19.9	0.00e+00	0	41	0	124780544	57	3877
2026-01-29 12:44:33.18	181.58	5.64	-42.8	-43.8	19.6	0.00e+00	0	41	0	130023424	57	4003
2026-01-29 12:44:34.18	181.63	5.71	-42.8	-43.8	19.7	0.00e+00	0	41	0	135266304	57	3986
2026-01-29 12:44:35.19	181.67	5.78	-42.3	-43.3	20.2	0.00e+00	0	41	0	141557760	56	3978
2026-01-29 12:44:36.20	181.72	5.85	-42.2	-43.2	20.3	0.00e+00	0	41	0	146800640	56	3920
2026-01-29 12:44:37.21	181.76	5.92	-42.1	-43.1	20.4	0.00e+00	0	41	0	152043520	56	3895
2026-01-29 12:44:38.21	181.81	5.99	-41.9	-42.8	20.5	0.00e+00	0	41	0	158334976	55	3998
2026-01-29 12:44:39.22	181.85	6.07	-42.0	-43.0	20.4	0.00e+00	0	41	0	163577856	55	4067
2026-01-29 12:44:40.23	181.90	6.14	-41.9	-42.9	20.5	0.00e+00	0	41	0	168820736	55	4023
2026-01-29 12:44:41.24	181.95	6.21	-41.9	-42.9	20.5	0.00e+00	0	41	0	175112192	55	4022
2026-01-29 12:44:42.25	181.99	6.28	-41.8	-42.7	20.7	0.00e+00	0	41	0	180355072	55	3954
2026-01-29 12:44:43.26	182.04	6.36	-41.9	-42.9	20.6	0.00e+00	0	41	0	186646528	55	4006
2026-01-29 12:44:44.27	182.09	6.43	-41.8	-42.7	20.7	0.00e+00	0	41	0	191889408	55	3938
2026-01-29 12:44:45.28	182.13	6.50	-41.8	-42.8	20.7	0.00e+00	0	41	0	198180864	55	3965
2026-01-29 12:44:46.29	182.18	6.58	-41.6	-42.5	20.9	0.00e+00	0	41	0	203423744	55	3858
2026-01-29 12:44:47.29	182.23	6.65	-41.7	-42.7	20.8	0.00e+00	0	41	0	209715200	55	3933
2026-01-29 12:44:48.30	182.28	6.72	-41.7	-42.6	20.9	0.00e+00	0	41	0	214958080	55	3897
2026-01-29 12:44:49.31	182.32	6.80	-41.5	-42.4	21.1	0.00e+00	0	41	0	220200960	55	3805
2026-01-29 12:44:50.32	182.37	6.87	-41.6	-42.5	20.9	0.00e+00	0	41	0	226492416	55	3861
2026-01-29 12:44:51.32	182.42	6.94	-41.6	-42.5	21.0	0.00e+00	0	41	0	231735296	55	3850
2026-01-29 12:44:52.33	182.47	7.02	-41.6	-42.5	21.0	0.00e+00	0	41	0	236978176	55	3847
2026-01-29 12:44:53.34	182.52	7.09	-41.5	-42.5	21.0	0.00e+00	0	41	0	243269632	55	3830
2026-01-29 12:44:54.35	182.57	7.17	-41.5	-42.4	21.1	0.00e+00	0	41	0	248512512	55	3809
2026-01-29 12:44:55.36	182.62	7.24	-41.4	-42.4	21.2	0.00e+00	0	41	0	253755392	54	4007
2026-01-29 12:44:56.37	182.66	7.32	-41.4	-42.3	21.2	0.00e+00	0	41	0	260046848	54	3984
2026-01-29 12:44:57.37	182.71	7.40	-41.4	-42.3	21.2	0.00e+00	0	41	0	266338304	54	4003
2026-01-29 12:44:58.38	182.76	7.47	-41.6	-42.6	21.0	0.00e+00	0	41	0	271581184	54	4101
2026-01-29 12:44:59.39	182.81	7.55	-41.4	-42.3	21.2	0.00e+00	0	41	0	276824064	54	3998
2026-01-29 12:45:00.40	182.86	7.62	-41.5	-42.4	21.1	0.00e+00	0	41	0	283115520	54	4038
2026-01-29 12:45:01.41	182.92	7.70	-41.6	-42.5	21.0	0.00e+00	0	41	0	288358400	54	4084
2026-01-29 12:45:02.41	182.97	7.78	-41.4	-42.3	21.3	0.00e+00	0	41	0	294649856	54	3993
2026-01-29 12:45:03.42	183.02	7.85	-41.4	-42.3	21.3	0.00e+00	0	41	0	299892736	54	3970
2026-01-29 12:45:04.42	183.07	7.93	-41.3	-42.3	21.3	0.00e+00	0	41	0	305135616	54	3963
2026-01-29 12:45:05.43	183.12	8.01	-41.3	-42.2	21.3	0.00e+00	0	41	0	311427072	54	3953
2026-01-29 12:45:06.43	183.17	8.08	-41.4	-42.3	21.3	0.00e+00	0	41	0	316669952	54	3970
2026-01-29 12:45:07.44	183.22	8.16	-41.4	-42.3	21.3	0.00e+00	0	41	0	321912832	54	4002
2026-01-29 12:45:08.45	183.28	8.24	-41.4	-42.4	21.2	0.00e+00	0	41	0	328204288	54	4020
2026-01-29 12:45:09.46	183.33	8.32	-41.2	-42.1	21.5	0.00e+00	0	41	0	333447168	54	3910
2026-01-29 12:45:10.47	183.38	8.40	-41.4	-42.3	21.3	0.00e+00	0	41	0	339738624	54	3980
2026-01-29 12:45:11.48	183.44	8.48	-41.4	-42.3	21.3	0.00e+00	0	41	0	344981504	54	3973
2026-01-29 12:45:12.48	183.49	8.55	-41.1	-42.0	21.6	0.00e+00	0	41	0	351272960	54	3847
2026-01-29 12:45:13.49	183.54	8.63	-41.1	-42.0	21.6	0.00e+00	0	41	0	356515840	54	3848
2026-01-29 12:45:14.50	183.60	8.71	-41.1	-42.0	21.6	0.00e+00	0	41	0	361758720	54	3844
2026-01-29 12:45:15.51	183.65	8.79	-41.1	-41.9	21.7	0.00e+00	0	41	0	368050176	54	3823
2026-01-29 12:45:16.52	183.71	8.87	-41.0	-41.9	21.7	0.00e+00	0	41	0	373293056	54	3796
2026-01-29 12:45:17.52	183.76	8.95	-41.0	-41.9	21.7	0.00e+00	0	41	0	379584512	53	4035
2026-01-29 12:45:18.53	183.81	9.03	-41.0	-41.9	21.7	0.00e+00	0	41	0	384827392	53	4042
2026-01-29 12:45:19.53	183.87	9.11	-40.9	-41.7	21.9	0.00e+00	0	41	0	390070272	53	3956
2026-01-29 12:45:20.54	183.93	9.19	-40.8	-41.7	21.9	0.00e+00	0	41	0	396361728	53	3934
2026-01-29 12:45:21.55	183.98	9.27	-40.9	-41.8	21.8	0.00e+00	0	41	0	401604608	53	3977
2026-01-29 12:45:22.56	184.04	9.35	-40.8	-41.7	22.0	0.00e+00	0	41	0	406847488	53	3915
2026-01-29 12:45:23.56	184.09	9.43	-40.8	-41.7	21.9	0.00e+00	0	41	0	413138944	53	3939
2026-01-29 12:45:24.56	184.15	9.52	-40.8	-41.7	21.9	0.00e+00	0	41	0	418381824	53	3941
2026-01-29 12:45:25.57	184.21	9.60	-40.8	-41.6	22.0	0.00e+00	0	41	0	424673280	53	3905
2026-01-29 12:45:26.58	184.27	9.68	-40.7	-41.6	22.0	0.00e+00	0	41	0	429916160	53	3888
2026-01-29 12:45:27.59	184.32	9.76	-40.9	-41.8	21.8	0.00e+00	0	41	0	436207616	53	3973
2026-01-29 12:45:28.60	184.38	9.85	-40.7	-41.6	22.0	0.00e+00	0	41	0	441450496	53	3890
2026-01-29 12:45:29.61	184.44	9.93	-40.8	-41.6	22.0	0.00e+00	0	41	0	446693376	53	3900
2026-01-29 12:45:30.61	184.50	10.01	-40.7	-41.6	22.1	0.00e+00	0	41	0	452984832	53	3884
2026-01-29 12:45:31.62	184.56	10.09	-40.7	-41.6	22.1	0.00e+00	0	41	0	458227712	53	3876
2026-01-29 12:45:32.63	184.62	10.18	-40.7	-41.6	22.1	0.00e+00	0	41	0	464519168	53	3870
2026-01-29 12:45:33.63	184.68	10.26	-40.5	-41.3	22.3	0.00e+00	0	41	0	469762048	53	3769
2026-01-29 12:45:34.64	184.74	10.35	-40.5	-41.3	22.3	0.00e+00	0	41	0	475004928	52	4000
2026-01-29 12:45:35.65	184.80	10.43	-40.5	-41.3	22.3	0.00e+00	0	41	0	481296384	52	3986
2026-01-29 12:45:36.65	184.86	10.51	-40.6	-41.5	22.2	0.00e+00	0	41	0	486539264	52	4063
2026-01-29 12:45:37.66	184.92	10.60	-40.5	-41.4	22.3	0.00e+00	0	41	0	491782144	52	4022
2026-01-29 12:45:38.67	184.98	10.69	-40.5	-41.3	22.3	0.00e+00	0	41	0	498073600	52	4003
2026-01-29 12:45:39.67	185.04	10.77	-40.5	-41.4	22.3	0.00e+00	0	41	0	504365056	52	4025
2026-01-29 12:45:40.68	185.10	10.86	-40.7	-41.5	22.2	0.00e+00	0	41	0	509607936	52	4077
2026-01-29 12:45:41.68	185.16	10.94	-40.6	-41.4	22.3	0.00e+00	0	41	0	514850816	52	4047
2026-01-29 12:45:42.69	185.23	11.03	-40.5	-41.4	22.3	0.00e+00	0	41	0	521142272	52	4007
2026-01-29 12:45:43.69	185.29	11.11	-40.6	-41.4	22.2	0.00e+00	0	41	0	526385152	52	4042
2026-01-29 12:45:44.69	185.35	11.20	-40.6	-41.4	22.3	0.00e+00	0	41	0	531628032	52	4041
2026-01-29 12:45:45.70	185.42	11.29	-40.6	-41.5	22.2	0.00e+00	0	41	0	537919488	52	4057
2026-01-29 12:45:46.71	185.48	11.38	-40.5	-41.3	22.3	0.00e+00	0	41	0	543162368	52	4002
2026-01-29 12:45:47.71	185.54	11.46	-40.6	-41.4	22.3	0.00e+00	0	41	0	549453824	52	4031
2026-01-29 12:45:48.72	185.61	11.55	-40.5	-41.3	22.4	0.00e+00	0	41	0	554696704	52	3990
2026-01-29 12:45:49.73	185.67	11.64	-40.5	-41.4	22.3	0.00e+00	0	41	0	559939584	52	4019
2026-01-29 12:45:50.74	185.74	11.73	-40.5	-41.4	22.3	0.00e+00	0	41	0	566231040	52	4023
2026-01-29 12:45:51.74	185.80	11.82	-40.4	-41.3	22.4	0.00e+00	0	41	0	571473920	52	3977
2026-01-29 12:45:52.74	185.87	11.90	-40.4	-41.3	22.4	0.00e+00	0	41	0	576716800	52	3974
2026-01-29 12:45:53.74	185.94	11.99	-40.5	-41.3	22.4	0.00e+00	0	41	0	583008256	52	3995
2026-01-29 12:45:54.75	186.00	12.08	-40.4	-41.3	22.4	0.00e+00	0	41	0	588251136	52	3965
2026-01-29 12:45:55.76	186.07	12.17	-40.3	-41.1	22.6	0.00e+00	0	41	0	593494016	52	3893
2026-01-29 12:45:56.77	186.14	12.26	-40.4	-41.2	22.5	0.00e+00	0	41	0	599785472	52	3935
2026-01-29 12:45:57.78	186.21	12.35	-40.4	-41.2	22.5	0.00e+00	0	41	0	606076928	52	3929
2026-01-29 12:45:58.78	186.27	12.45	-40.2	-41.0	22.7	0.00e+00	0	42	0	611319808	52	3859
2026-01-29 12:45:59.79	186.34	12.54	-40.2	-41.0	22.7	0.00e+00	0	41	0	616562688	52	3844
2026-01-29 12:46:00.79	186.41	12.63	-40.1	-41.0	22.7	0.00e+00	0	41	0	622854144	52	3828
2026-01-29 12:46:01.80	186.48	12.72	-40.2	-41.1	22.7	0.00e+00	0	41	0	628097024	52	3875
2026-01-29 12:46:02.80	186.55	12.81	-40.2	-41.0	22.7	0.00e+00	0	41	0	634388480	52	3856
2026-01-29 12:46:03.81	186.62	12.90	-40.2	-41.0	22.7	0.00e+00	0	41	0	639631360	52	3845
2026-01-29 12:46:04.81	186.69	13.00	-40.3	-41.1	22.6	0.00e+00	0	42	0	644874240	52	3894
2026-01-29 12:46:05.82	186.76	13.09	-40.3	-41.1	22.7	0.00e+00	0	41	0	651165696	52	3883
2026-01-29 12:46:06.82	186.84	13.18	-40.1	-41.0	22.8	0.00e+00	0	41	0	656408576	52	3828
2026-01-29 12:46:07.83	186.91	13.28	-40.2	-41.0	22.7	0.00e+00	0	41	0	661651456	52	3853
2026-01-29 12:46:08.83	186.98	13.37	-40.3	-41.2	22.6	0.00e+00	0	41	0	667942912	52	3924
2026-01-29 12:46:09.84	187.05	13.46	-40.1	-40.9	22.8	0.00e+00	0	41	0	673185792	52	3815
2026-01-29 12:46:10.85	187.13	13.56	-40.1	-40.9	22.8	0.00e+00	0	41	0	678428672	52	3808
2026-01-29 12:46:11.86	187.20	13.65	-40.2	-41.0	22.7	0.00e+00	0	41	0	684720128	52	3849
2026-01-29 12:46:12.87	187.28	13.75	-40.1	-40.9	22.8	0.00e+00	0	41	0	689963008	52	3803
2026-01-29 12:46:13.87	187.35	13.84	-40.0	-40.9	23.0	0.00e+00	0	41	0	696254464	51	4009
2026-01-29 12:46:14.87	187.43	13.94	-40.1	-41.0	22.9	0.00e+00	0	41	0	701497344	51	4059
2026-01-29 12:46:15.89	187.50	14.04	-40.0	-40.9	23.0	0.00e+00	0	41	0	707788800	51	4009
2026-01-29 12:46:16.90	187.58	14.13	-39.9	-40.7	23.1	0.00e+00	0	41	0	713031680	51	3948
2026-01-29 12:46:17.90	187.65	14.23	-39.9	-40.7	23.1	0.00e+00	0	41	0	719323136	51	3948
2026-01-29 12:46:18.91	187.73	14.33	-40.0	-40.8	23.0	0.00e+00	0	41	0	724566016	51	3971
2026-01-29 12:46:19.91	187.81	14.43	-40.0	-40.8	23.0	0.00e+00	0	41	0	729808896	51	3992
2026-01-29 12:46:20.92	187.89	14.52	-40.0	-40.8	23.0	0.00e+00	0	41	0	736100352	51	3984
2026-01-29 12:46:21.93	187.97	14.62	-40.0	-40.8	23.0	0.00e+00	0	41	0	741343232	51	3993
2026-01-29 12:46:22.93	188.04	14.72	-39.9	-40.8	23.1	0.00e+00	0	41	0	746586112	51	3965
2026-01-29 12:46:23.94	188.12	14.82	-39.9	-40.7	23.1	0.00e+00	0	41	0	752877568	51	3936
2026-01-29 12:46:24.95	188.21	14.92	-39.9	-40.7	23.1	0.00e+00	0	41	0	758120448	51	3956
2026-01-29 12:46:25.96	188.29	15.02	-39.8	-40.6	23.2	0.00e+00	0	41	0	763363328	51	3888
2026-01-29 12:46:26.97	188.37	15.12	-39.7	-40.5	23.3	0.00e+00	0	41	0	769654784	51	3859
2026-01-29 12:46:27.97	188.45	15.22	-39.6	-40.5	23.4	0.00e+00	0	42	0	775946240	51	3827
2026-01-29 12:46:28.98	188.53	15.32	-39.6	-40.4	23.4	0.00e+00	0	41	0	781189120	51	3801
2026-01-29 12:46:29.99	188.61	15.42	-39.6	-40.4	23.4	0.00e+00	0	41	0	786432000	51	3818
2026-01-29 12:46:31.00	188.70	15.53	-39.7	-40.5	23.4	0.00e+00	0	41	0	792723456	51	3839
2026-01-29 12:46:32.01	188.78	15.63	-39.2	-40.0	23.7	0.00e+00	0	41	0	797966336	50	3852
2026-01-29 12:46:33.02	188.87	15.73	-39.2	-40.0	23.8	0.00e+00	0	41	0	804257792	50	3844
2026-01-29 12:46:34.03	188.95	15.83	-39.3	-40.1	23.7	0.00e+00	0	41	0	809500672	50	3878
2026-01-29 12:46:35.04	189.04	15.94	-39.1	-39.8	23.9	0.00e+00	0	41	0	814743552	50	3767
2026-01-29 12:46:36.04	189.12	16.04	-39.0	-39.7	24.0	0.00e+00	0	41	0	821035008	50	3735
2026-01-29 12:46:37.05	189.21	16.14	-39.0	-39.7	24.0	0.00e+00	0	41	0	826277888	50	3730
2026-01-29 12:46:38.05	189.30	16.25	-39.0	-39.7	24.0	0.00e+00	0	41	0	831520768	49	3953
2026-01-29 12:46:39.06	189.38	16.35	-39.0	-39.7	24.0	0.00e+00	0	41	0	837812224	49	3943
2026-01-29 12:46:40.07	189.47	16.46	-38.9	-39.7	24.0	0.00e+00	0	41	0	843055104	49	3931
2026-01-29 12:46:41.07	189.56	16.56	-39.1	-39.9	23.9	0.00e+00	0	41	0	848297984	49	4005
2026-01-29 12:46:42.08	189.65	16.67	-39.0	-39.7	24.0	0.00e+00	0	41	0	854589440	49	3957
2026-01-29 12:46:43.09	189.74	16.78	-39.0	-39.8	24.0	0.00e+00	0	41	0	860880896	49	3972
2026-01-29 12:46:44.10	189.83	16.88	-39.0	-39.7	24.0	0.00e+00	0	41	0	866123776	49	3956
2026-01-29 12:46:45.11	189.92	16.99	-38.9	-39.7	24.0	0.00e+00	0	42	0	871366656	49	3920
2026-01-29 12:46:46.12	190.02	17.10	-39.0	-39.7	24.0	0.00e+00	0	41	0	877658112	49	3953
2026-01-29 12:46:47.13	190.11	17.21	-39.0	-39.8	24.0	0.00e+00	0	42	0	882900992	49	3961
2026-01-29 12:46:48.13	190.20	17.31	-38.8	-39.5	24.2	0.00e+00	0	41	0	889192448	49	3856
2026-01-29 12:46:49.14	190.30	17.42	-38.8	-39.5	24.2	0.00e+00	0	41	0	894435328	49	3860
2026-01-29 12:46:50.15	190.39	17.53	-38.7	-39.5	24.2	0.00e+00	0	41	0	899678208	49	3837
2026-01-29 12:46:51.15	190.49	17.64	-38.8	-39.5	24.2	0.00e+00	0	41	0	905969664	49	3868
2026-01-29 12:46:52.16	190.58	17.75	-38.9	-39.7	24.1	0.00e+00	0	41	0	911212544	49	3922
2026-01-29 12:46:53.17	190.68	17.86	-38.9	-39.6	24.1	0.00e+00	0	41	0	916455424	49	3904
2026-01-29 12:46:54.17	190.78	17.97	-38.8	-39.5	24.2	0.00e+00	0	42	0	922746880	49	3861
2026-01-29 12:46:55.18	190.87	18.08	-38.8	-39.6	24.2	0.00e+00	0	41	0	929038336	49	3873
2026-01-29 12:46:56.18	190.97	18.20	-38.8	-39.6	24.1	0.00e+00	0	41	0	934281216	49	3897
2026-01-29 12:46:57.19	191.07	18.31	-38.7	-39.5	24.2	0.00e+00	0	41	0	939524096	49	3845
2026-01-29 12:46:58.20	191.17	18.42	-38.7	-39.5	24.2	0.00e+00	0	41	0	945815552	49	3840
2026-01-29 12:46:59.21	191.27	18.53	-38.7	-39.5	24.2	0.00e+00	0	41	0	951058432	49	3840
2026-01-29 12:47:00.22	191.37	18.65	-38.7	-39.4	24.3	0.00e+00	0	41	0	956301312	49	3824
2026-01-29 12:47:01.23	191.48	18.76	-38.5	-39.2	24.5	0.00e+00	0	41	0	962592768	48	3938
2026-01-29 12:47:02.24	191.58	18.88	-38.5	-39.3	24.4	0.00e+00	0	41	0	967835648	48	3973
2026-01-29 12:47:03.25	191.68	18.99	-38.5	-39.2	24.5	0.00e+00	0	41	0	974127104	48	3950
2026-01-29 12:47:04.26	191.79	19.11	-38.4	-39.1	24.5	0.00e+00	0	42	0	979369984	48	3911
2026-01-29 12:47:05.26	191.89	19.22	-38.4	-39.2	24.5	0.00e+00	0	42	0	984612864	48	3923
2026-01-29 12:47:06.27	192.00	19.34	-38.5	-39.2	24.5	0.00e+00	0	41	0	990904320	48	3941
2026-01-29 12:47:07.28	192.11	19.46	-38.6	-39.3	24.4	0.00e+00	0	42	0	997195776	48	3983
2026-01-29 12:47:08.29	192.21	19.57	-38.5	-39.3	24.4	0.00e+00	0	41	0	1002438656	48	3972
2026-01-29 12:47:09.29	192.32	19.69	-38.6	-39.4	24.4	0.00e+00	0	41	0	1007681536	48	4011
2026-01-29 12:47:10.30	192.43	19.81	-38.6	-39.3	24.4	0.00e+00	0	41	0	1013972992	48	3991
2026-01-29 12:47:11.31	192.54	19.93	-38.5	-39.2	24.4	0.00e+00	0	41	0	1019215872	48	3957
2026-01-29 12:47:12.32	192.65	20.05	-38.3	-39.1	24.6	0.00e+00	0	41	0	1024458752	48	3883
2026-01-29 12:47:13.33	192.76	20.17	-38.4	-39.2	24.5	0.00e+00	0	41	0	1030750208	48	3921
2026-01-29 12:47:14.34	192.88	20.29	-38.4	-39.1	24.5	0.00e+00	0	42	0	1035993088	48	3907
2026-01-29 12:47:15.35	192.99	20.41	-38.1	-38.9	24.8	0.00e+00	0	41	0	1041235968	48	3782
2026-01-29 12:47:16.36	193.10	20.53	-38.1	-38.8	24.8	0.00e+00	0	41	0	1047527424	48	3768
2026-01-29 12:47:17.37	193.22	20.65	-38.1	-38.8	24.8	0.00e+00	0	41	0	1053818880	48	3777
2026-01-29 12:47:18.37	193.34	20.77	-38.1	-38.8	24.8	0.00e+00	0	41	0	1059061760	48	3760
2026-01-29 12:47:19.38	193.45	20.89	-38.0	-38.8	24.9	0.00e+00	0	41	0	1064304640	48	3743
2026-01-29 12:47:20.39	193.57	21.01	-38.1	-38.8	24.9	0.00e+00	0	41	0	1070596096	48	3750
2026-01-29 12:47:21.40	193.69	21.14	-38.0	-38.7	24.9	0.00e+00	0	42	0	1075838976	48	3735
2026-01-29 12:47:22.41	193.81	21.26	-38.1	-38.8	24.8	0.00e+00	0	41	0	1082130432	48	3770
2026-01-29 12:47:23.42	193.93	21.39	-38.0	-38.8	24.9	0.00e+00	0	41	0	1087373312	48	3751
2026-01-29 12:47:24.43	194.05	21.51	-38.1	-38.9	24.8	0.00e+00	0	41	0	1092616192	48	3795
2026-01-29 12:47:25.44	194.17	21.64	-38.1	-38.8	24.9	0.00e+00	0	42	0	1098907648	48	3757
2026-01-29 12:47:26.45	194.30	21.76	-38.1	-38.8	24.9	0.00e+00	0	42	0	1104150528	48	3764
2026-01-29 12:47:27.45	194.42	21.89	-38.0	-38.8	24.9	0.00e+00	0	41	0	1109393408	48	3746
2026-01-29 12:47:28.46	194.55	22.02	-38.0	-38.8	24.9	0.00e+00	0	42	0	1115684864	48	3749
2026-01-29 12:47:29.47	194.67	22.14	-37.5	-38.3	24.8	0.00e+00	0	42	0	1120927744	47	3749
2026-01-29 12:47:30.47	194.80	22.27	-37.4	-38.1	24.9	0.00e+00	0	41	0	1127219200	46	3909
2026-01-29 12:47:31.48	194.93	22.40	-37.4	-38.2	24.9	0.00e+00	0	42	0	1132462080	46	3939
2026-01-29 12:47:32.49	195.06	22.53	-37.4	-38.1	25.0	0.00e+00	0	42	0	1138753536	46	3901
2026-01-29 12:47:33.50	195.19	22.66	-37.2	-37.9	25.1	0.00e+00	0	41	0	1143996416	46	3820
2026-01-29 12:47:34.51	195.32	22.79	-37.3	-38.0	25.0	0.00e+00	0	41	0	1149239296	46	3866
2026-01-29 12:47:35.51	195.45	22.92	-37.3	-38.1	25.0	0.00e+00	0	41	0	1155530752	46	3874
2026-01-29 12:47:36.52	195.59	23.05	-37.4	-38.1	25.3	0.00e+00	0	42	0	1160773632	46	3913
2026-01-29 12:47:37.53	195.72	23.18	-37.4	-38.1	25.3	0.00e+00	0	41	0	1167065088	46	3908
2026-01-29 12:47:38.54	195.86	23.31	-37.4	-38.1	25.4	0.00e+00	0	42	0	1172307968	46	3881
2026-01-29 12:47:39.55	195.99	23.44	-37.4	-38.1	25.4	0.00e+00	0	41	0	1177550848	46	3870
2026-01-29 12:47:40.56	196.13	23.58	-37.3	-38.0	25.4	0.00e+00	0	41	0	1183842304	46	3846
2026-01-29 12:47:41.56	196.27	23.71	-37.4	-38.1	25.3	0.00e+00	0	42	0	1189085184	46	3898
2026-01-29 12:47:42.57	196.41	23.84	-37.4	-38.1	25.3	0.00e+00	0	41	0	1195376640	46	3899
2026-01-29 12:47:43.58	196.55	23.98	-37.5	-38.2	25.3	0.00e+00	0	42	0	1200619520	46	3930
2026-01-29 12:47:44.59	196.69	24.11	-37.5	-38.2	25.3	0.00e+00	0	41	0	1206910976	46	3933
2026-01-29 12:47:45.59	196.84	24.25	-37.4	-38.1	25.4	0.00e+00	0	42	0	1212153856	46	3876
2026-01-29 12:47:46.61	196.98	24.38	-37.4	-38.1	25.4	0.00e+00	0	41	0	1217396736	46	3904
2026-01-29 12:47:47.61	197.13	24.52	-37.3	-38.0	25.4	0.00e+00	0	42	0	1223688192	46	3863
2026-01-29 12:47:48.62	197.28	24.66	-37.2	-37.9	25.6	0.00e+00	0	42	0	1228931072	46	3786
2026-01-29 12:47:49.63	197.43	24.79	-37.1	-37.8	25.6	0.00e+00	0	41	0	1234173952	46	3747
2026-01-29 12:47:50.63	197.57	24.93	-37.1	-37.7	25.7	0.00e+00	0	41	0	1240465408	46	3736
2026-01-29 12:47:51.64	197.73	25.07	-37.0	-37.7	25.7	0.00e+00	0	42	0	1245708288	46	3726
2026-01-29 12:47:52.65	197.88	25.21	-37.0	-37.8	25.7	0.00e+00	0	41	0	1251999744	46	3738
2026-01-29 12:47:53.66	198.03	25.35	-37.0	-37.7	25.7	0.00e+00	0	41	0	1257242624	46	3710
2026-01-29 12:47:54.67	198.19	25.49	-37.1	-37.8	25.7	0.00e+00	0	42	0	1262485504	46	3744
2026-01-29 12:47:55.68	198.35	25.63	-37.0	-37.7	25.7	0.00e+00	0	42	0	1268776960	46	3707
2026-01-29 12:47:56.69	198.50	25.77	-37.1	-37.8	25.7	0.00e+00	0	41	0	1275068416	46	3746
2026-01-29 12:47:57.70	198.66	25.91	-37.1	-37.8	25.7	0.00e+00	0	42	0	1280311296	46	3759
2026-01-29 12:47:58.71	198.82	26.06	-37.2	-37.9	25.6	0.00e+00	0	41	0	1285554176	46	3814
2026-01-29 12:47:59.72	198.99	26.20	-37.2	-37.9	25.6	0.00e+00	0	41	0	1291845632	46	3801
2026-01-29 12:48:00.72	199.15	26.34	-37.2	-37.9	25.6	0.00e+00	0	41	0	1297088512	46	3797
2026-01-29 12:48:01.73	199.31	26.49	-36.9	-37.6	25.8	0.00e+00	0	41	0	1302331392	45	3886
2026-01-29 12:48:02.73	199.48	26.63	-37.0	-37.7	25.7	0.00e+00	0	41	0	1308622848	45	3933
2026-01-29 12:48:03.74	199.65	26.77	-37.0	-37.7	25.7	0.00e+00	0	42	0	1313865728	45	3930
2026-01-29 12:48:04.75	199.82	26.92	-36.8	-37.5	25.9	0.00e+00	0	41	0	1319108608	45	3851
2026-01-29 12:48:05.76	199.99	27.07	-36.8	-37.5	25.9	0.00e+00	0	42	0	1325400064	45	3862
2026-01-29 12:48:06.76	200.16	27.21	-36.7	-37.4	26.0	0.00e+00	0	42	0	1330642944	45	3805
2026-01-29 12:48:07.77	200.33	27.36	-36.8	-37.4	26.0	0.00e+00	0	41	0	1336934400	45	3821
2026-01-29 12:48:08.78	200.51	27.51	-36.7	-37.4	26.0	0.00e+00	0	42	0	1342177280	45	3781
2026-01-29 12:48:09.79	200.69	27.65	-36.8	-37.5	25.9	0.00e+00	0	42	0	1348468736	45	3829
2026-01-29 12:48:10.79	200.86	27.80	-36.7	-37.4	26.0	0.00e+00	0	41	0	1353711616	45	3797
2026-01-29 12:48:11.80	201.04	27.95	-36.8	-37.5	25.8	0.00e+00	0	42	0	1360003072	45	3846
2026-01-29 12:48:12.81	201.23	28.10	-36.9	-37.6	25.8	0.00e+00	0	42	0	1365245952	45	3876
2026-01-29 12:48:13.81	201.41	28.25	-36.9	-37.5	25.8	0.00e+00	0	42	0	1370488832	45	3865
2026-01-29 12:48:14.82	201.59	28.40	-36.9	-37.5	25.8	0.00e+00	0	42	0	1376780288	45	3863
2026-01-29 12:48:15.83	201.78	28.55	-36.8	-37.5	25.8	0.00e+00	0	42	0	1382023168	45	3861
2026-01-29 12:48:16.84	201.97	28.70	-36.8	-37.5	25.9	0.00e+00	0	42	0	1387266048	45	3825
2026-01-29 12:48:17.85	202.16	28.85	-36.8	-37.4	25.9	0.00e+00	0	42	0	1393557504	45	3824
2026-01-29 12:48:18.85	202.35	29.01	-36.9	-37.6	25.8	0.00e+00	0	41	0	1398800384	45	3869
2026-01-29 12:48:19.86	202.55	29.16	-36.8	-37.5	25.9	0.00e+00	0	42	0	1404043264	45	3845
2026-01-29 12:48:20.87	202.74	29.31	-36.9	-37.6	25.9	0.00e+00	0	42	0	1410334720	45	3882
2026-01-29 12:48:21.88	202.94	29.47	-36.9	-37.6	25.8	0.00e+00	0	41	0	1416626176	45	3889
2026-01-29 12:48:22.89	203.14	29.62	-36.9	-37.6	25.9	0.00e+00	0	41	0	1421869056	45	3886
2026-01-29 12:48:23.89	203.34	29.78	-36.8	-37.5	25.9	0.00e+00	0	42	0	1427111936	45	3833
2026-01-29 12:48:24.90	203.54	29.93	-36.8	-37.5	25.9	0.00e+00	0	42	0	1433403392	45	3865
2026-01-29 12:48:25.91	203.75	30.09	-37.0	-37.7	25.8	0.00e+00	0	42	0	1438646272	45	3923
2026-01-29 12:48:26.92	203.96	30.24	-36.8	-37.5	25.9	0.00e+00	0	42	0	1444937728	45	3858
2026-01-29 12:48:27.93	204.17	30.40	-36.9	-37.6	25.8	0.00e+00	0	42	0	1450180608	45	3890
2026-01-29 12:48:28.93	204.38	30.56	-36.8	-37.5	26.0	0.00e+00	0	42	0	1455423488	45	3828
2026-01-29 12:48:29.94	204.59	30.71	-36.8	-37.5	25.9	0.00e+00	0	42	0	1461714944	45	3860
2026-01-29 12:48:30.95	204.81	30.87	-36.8	-37.5	25.9	0.00e+00	0	41	0	1466957824	45	3856
2026-01-29 12:48:31.96	205.02	31.03	-36.8	-37.5	25.9	0.00e+00	0	42	0	1472200704	45	3844
2026-01-29 12:48:32.97	205.24	31.19	-36.8	-37.5	25.9	0.00e+00	0	41	0	1478492160	45	3861
2026-01-29 12:48:33.98	205.46	31.35	-36.9	-37.6	25.9	0.00e+00	0	42	0	1484783616	45	3870
2026-01-29 12:48:34.99	205.69	31.51	-36.6	-37.3	26.1	0.00e+00	0	41	0	1490026496	45	3751
2026-01-29 12:48:35.99	205.91	31.67	-36.6	-37.3	26.2	0.00e+00	0	41	0	1495269376	45	3743
2026-01-29 12:48:37.00	206.14	31.83	-36.7	-37.3	26.1	0.00e+00	0	41	0	1501560832	45	3778
2026-01-29 12:48:38.01	206.37	31.99	-36.6	-37.3	26.2	0.00e+00	0	42	0	1506803712	45	3740
2026-01-29 12:48:39.02	206.60	32.15	-36.7	-37.4	26.0	0.00e+00	0	41	0	1512046592	45	3792
2026-01-29 12:48:40.03	206.84	32.31	-36.7	-37.4	26.0	0.00e+00	0	41	0	1518338048	45	3796
2026-01-29 12:48:41.03	207.07	32.47	-36.7	-37.4	26.0	0.00e+00	0	41	0	1523580928	45	3815
2026-01-29 12:48:42.04	207.31	32.64	-36.7	-37.4	26.1	0.00e+00	0	41	0	1529872384	45	3793
2026-01-29 12:48:43.05	207.56	32.80	-36.8	-37.5	26.0	0.00e+00	0	41	0	1535115264	45	3848
2026-01-29 12:48:44.06	207.80	32.96	-36.9	-37.6	25.9	0.00e+00	0	41	0	1540358144	45	3870
2026-01-29 12:48:45.07	208.05	33.13	-36.7	-37.4	26.0	0.00e+00	0	41	0	1546649600	45	3808
2026-01-29 12:48:46.07	208.30	33.29	-36.7	-37.4	26.0	0.00e+00	0	41	0	1551892480	45	3818
2026-01-29 12:48:47.08	208.55	33.45	-36.8	-37.5	26.0	0.00e+00	0	42	0	1558183936	45	3826
2026-01-29 12:48:48.08	208.80	33.62	-36.6	-37.3	26.2	0.00e+00	0	42	0	1563426816	45	3740
2026-01-29 12:48:49.09	209.06	33.78	-36.4	-37.1	26.3	0.00e+00	0	42	0	1569718272	44	3876
2026-01-29 12:48:50.10	209.31	33.95	-36.4	-37.1	26.3	0.00e+00	0	42	0	1574961152	44	3889
2026-01-29 12:48:51.10	209.57	34.11	-36.5	-37.2	26.2	0.00e+00	0	42	0	1580204032	44	3926
2026-01-29 12:48:52.11	209.84	34.28	-36.5	-37.2	26.2	0.00e+00	0	42	0	1586495488	44	3951
2026-01-29 12:48:53.12	210.11	34.44	-36.5	-37.2	26.2	0.00e+00	0	41	0	1591738368	44	3952
2026-01-29 12:48:54.13	210.38	34.61	-36.6	-37.2	26.2	0.00e+00	0	41	0	1596981248	44	3958
2026-01-29 12:48:55.14	210.65	34.77	-36.6	-37.3	26.1	0.00e+00	0	42	0	1603272704	44	3992
2026-01-29 12:48:56.15	210.92	34.94	-36.6	-37.3	26.2	0.00e+00	0	42	0	1608515584	44	3961
2026-01-29 12:48:57.16	211.20	35.11	-36.5	-37.2	26.3	0.00e+00	0	42	0	1614807040	44	3935
2026-01-29 12:48:58.17	211.48	35.27	-36.4	-37.1	26.3	0.00e+00	0	42	0	1620049920	44	3897
2026-01-29 12:48:59.17	211.76	35.44	-36.5	-37.1	26.3	0.00e+00	0	41	0	1626341376	44	3905
2026-01-29 12:49:00.18	212.05	35.60	-36.4	-37.1	26.3	0.00e+00	0	42	0	1631584256	44	3882
2026-01-29 12:49:01.19	212.34	35.77	-36.3	-37.0	26.4	0.00e+00	0	41	0	1637875712	44	3835
2026-01-29 12:49:02.20	212.63	35.94	-36.4	-37.1	26.4	0.00e+00	0	41	0	1643118592	44	3874
2026-01-29 12:49:03.21	212.93	36.10	-36.5	-37.1	26.3	0.00e+00	0	41	0	1648361472	44	3913
2026-01-29 12:49:04.21	213.22	36.27	-36.6	-37.3	26.2	0.00e+00	0	41	0	1654652928	44	3962
2026-01-29 12:49:05.22	213.52	36.44	-36.7	-37.4	26.1	0.00e+00	0	42	0	1659895808	44	4014
2026-01-29 12:49:06.23	213.83	36.60	-36.7	-37.4	26.1	0.00e+00	0	42	0	1665138688	44	4045
2026-01-29 12:49:07.24	214.14	36.77	-36.7	-37.4	26.1	0.00e+00	0	42	0	1671430144	44	4020
2026-01-29 12:49:08.25	214.45	36.94	-36.7	-37.4	26.1	0.00e+00	0	42	0	1676673024	44	4015
2026-01-29 12:49:09.25	214.76	37.10	-36.6	-37.3	26.2	0.00e+00	0	42	0	1681915904	44	3960
2026-01-29 12:49:10.26	215.07	37.27	-36.2	-36.9	26.5	0.00e+00	0	42	0	1688207360	44	3804
2026-01-29 12:49:11.27	215.39	37.43	-36.2	-36.9	26.5	0.00e+00	0	42	0	1693450240	44	3805
2026-01-29 12:49:12.28	215.72	37.60	-36.3	-37.0	26.4	0.00e+00	0	42	0	1699741696	44	3849
2026-01-29 12:49:13.29	216.04	37.77	-36.3	-36.9	26.5	0.00e+00	0	42	0	1704984576	44	3810
2026-01-29 12:49:14.29	216.37	37.93	-36.3	-37.0	26.5	0.00e+00	0	41	0	1711276032	44	3833
2026-01-29 12:49:15.30	216.70	38.10	-36.4	-37.0	26.4	0.00e+00	0	42	0	1716518912	44	3861
2026-01-29 12:49:16.31	217.04	38.26	-36.3	-37.0	26.5	0.00e+00	0	42	0	1722810368	44	3832
2026-01-29 12:49:17.32	217.38	38.43	-36.2	-36.9	26.5	0.00e+00	0	42	0	1728053248	44	3792
2026-01-29 12:49:18.33	217.72	38.59	-36.2	-36.9	26.5	0.00e+00	0	42	0	1733296128	44	3802
2026-01-29 12:49:19.33	218.06	38.76	-36.2	-36.9	26.5	0.00e+00	0	42	0	1739587584	44	3800
2026-01-29 12:49:20.34	218.41	38.92	-36.2	-36.9	26.6	0.00e+00	0	42	0	1744830464	44	3791
2026-01-29 12:49:21.34	218.76	39.08	-36.3	-37.0	26.5	0.00e+00	0	42	0	1750073344	44	3846
2026-01-29 12:49:22.35	219.12	39.24	-36.5	-37.2	26.3	0.00e+00	0	42	0	1756364800	44	3929
2026-01-29 12:49:23.36	219.48	39.41	-36.6	-37.3	26.2	0.00e+00	0	42	0	1761607680	44	3982
2026-01-29 12:49:24.37	219.85	39.57	-36.5	-37.2	26.2	0.00e+00	0	42	0	1766850560	44	3951
2026-01-29 12:49:25.38	220.21	39.73	-36.5	-37.2	26.3	0.00e+00	0	42	0	1773142016	44	3924
2026-01-29 12:49:26.39	220.58	39.89	-36.3	-37.0	26.5	0.00e+00	0	42	0	1779433472	44	3840
2026-01-29 12:49:27.39	220.96	40.05	-36.3	-36.9	26.5	0.00e+00	0	41	0	1784676352	44	3820
2026-01-29 12:49:28.40	221.33	40.21	-36.3	-37.0	26.5	0.00e+00	0	42	0	1789919232	44	3831
2026-01-29 12:49:29.41	221.72	40.37	-36.4	-37.1	26.4	0.00e+00	0	42	0	1796210688	44	3870
2026-01-29 12:49:30.42	222.10	40.53	-36.3	-37.0	26.5	0.00e+00	0	42	0	1801453568	44	3839
2026-01-29 12:49:31.43	222.49	40.69	-36.5	-37.2	26.4	0.00e+00	0	42	0	1807745024	44	3924
2026-01-29 12:49:32.43	222.88	40.84	-36.6	-37.3	26.2	0.00e+00	0	41	0	1812987904	44	3988
2026-01-29 12:49:33.44	223.28	41.00	-36.6	-37.3	26.3	0.00e+00	0	41	0	1818230784	44	3972
2026-01-29 12:49:34.45	223.68	41.16	-36.5	-37.2	26.4	0.00e+00	0	42	0	1824522240	44	3915
2026-01-29 12:49:35.46	224.08	41.31	-36.4	-37.1	26.4	0.00e+00	0	42	0	1829765120	44	3885
2026-01-29 12:49:36.47	224.49	41.46	-36.4	-37.1	26.4	0.00e+00	0	42	0	1835008000	44	3883
2026-01-29 12:49:37.47	224.90	41.62	-36.4	-37.0	26.5	0.00e+00	0	42	0	1841299456	44	3865
2026-01-29 12:49:38.48	225.32	41.77	-36.4	-37.0	26.5	0.00e+00	0	42	0	1847590912	44	3855
2026-01-29 12:49:39.49	225.74	41.92	-36.4	-37.0	26.5	0.00e+00	0	41	0	1852833792	44	3856
2026-01-29 12:49:40.50	226.16	42.07	-36.4	-37.1	26.4	0.00e+00	0	41	0	1858076672	44	3884
2026-01-29 12:49:41.51	226.59	42.22	-36.7	-37.4	26.2	0.00e+00	0	42	0	1864368128	44	4015
2026-01-29 12:49:42.51	227.02	42.36	-36.8	-37.5	26.0	0.00e+00	0	42	0	1869611008	44	4088
2026-01-29 12:49:43.52	227.45	42.51	-36.7	-37.4	26.1	0.00e+00	0	42	0	1874853888	44	4036
2026-01-29 12:49:44.53	227.89	42.65	-36.6	-37.3	26.2	0.00e+00	0	42	0	1881145344	44	3990
2026-01-29 12:49:45.53	228.33	42.79	-36.6	-37.2	26.3	0.00e+00	0	42	0	1886388224	44	3952
2026-01-29 12:49:46.54	228.78	42.94	-36.5	-37.1	26.4	0.00e+00	0	42	0	1892679680	44	3904
2026-01-29 12:49:47.55	229.23	43.08	-36.5	-37.2	26.3	0.00e+00	0	42	0	1897922560	44	3931
2026-01-29 12:49:48.56	229.68	43.22	-36.7	-37.4	26.2	0.00e+00	0	42	0	1903165440	44	4021
2026-01-29 12:49:49.56	230.14	43.35	-36.8	-37.4	26.1	0.00e+00	0	42	0	1909456896	44	4047
2026-01-29 12:49:50.57	230.60	43.49	-36.9	-37.6	26.0	0.00e+00	0	41	0	1915748352	44	4141
2026-01-29 12:49:51.58	231.07	43.63	-37.0	-37.7	26.0	0.00e+00	0	42	0	1920991232	44	4148
2026-01-29 12:49:52.59	231.54	43.76	-37.1	-37.8	25.8	0.00e+00	0	42	0	1926234112	44	4220
2026-01-29 12:49:53.60	232.01	43.89	-37.1	-37.8	25.9	0.00e+00	0	42	0	1932525568	44	4196
2026-01-29 12:49:54.61	232.49	44.02	-36.8	-37.5	26.1	0.00e+00	0	42	0	1937768448	44	4075
2026-01-29 12:49:55.62	232.97	44.15	-36.8	-37.5	26.1	0.00e+00	0	42	0	1943011328	44	4068
2026-01-29 12:49:56.63	233.46	44.27	-36.8	-37.5	26.1	0.00e+00	0	42	0	1949302784	44	4064
2026-01-29 12:49:57.63	233.94	44.40	-36.8	-37.5	26.1	0.00e+00	0	42	0	1954545664	44	4075
2026-01-29 12:49:58.64	234.44	44.52	-36.8	-37.5	26.1	0.00e+00	0	42	0	1959788544	44	4080
2026-01-29 12:49:59.65	234.94	44.64	-36.8	-37.5	26.1	0.00e+00	0	42	0	1966080000	44	4082
2026-01-29 12:50:00.65	235.43	44.76	-37.0	-37.7	25.9	0.00e+00	0	42	0	1971322880	44	4165
2026-01-29 12:50:01.66	235.94	44.87	-37.0	-37.7	26.0	0.00e+00	0	41	0	1977614336	44	4153
2026-01-29 12:50:02.67	236.44	44.99	-36.9	-37.6	26.0	0.00e+00	0	42	0	1982857216	44	4119
2026-01-29 12:50:03.68	236.96	45.10	-37.0	-37.7	25.9	0.00e+00	0	42	0	1989148672	44	4174
2026-01-29 12:50:04.69	237.47	45.21	-37.2	-37.9	25.8	0.00e+00	0	42	0	1994391552	44	4258
2026-01-29 12:50:05.70	237.99	45.32	-37.2	-37.9	25.7	0.00e+00	0	41	0	2000683008	45	4051
2026-01-29 12:50:06.71	238.51	45.43	-37.1	-37.8	25.8	0.00e+00	0	42	0	2005925888	45	4001
2026-01-29 12:50:07.71	239.03	45.53	-36.9	-37.6	26.1	0.00e+00	0	42	0	2011168768	45	3882
2026-01-29 12:50:08.73	239.57	45.63	-36.9	-37.6	26.0	0.00e+00	0	41	0	2017460224	45	3888
2026-01-29 12:50:09.73	240.09	45.73	-36.7	-37.4	26.2	0.00e+00	0	41	0	2022703104	45	3813
2026-01-29 12:50:10.75	240.63	45.82	-36.7	-37.4	26.3	0.00e+00	0	42	0	2027945984	45	3790
2026-01-29 12:50:11.75	241.17	45.92	-36.8	-37.5	26.1	0.00e+00	0	41	0	2034237440	45	3855
2026-01-29 12:50:12.76	241.71	46.01	-37.2	-37.9	25.8	0.00e+00	0	41	0	2039480320	45	4019
2026-01-29 12:50:13.77	242.26	46.10	-37.3	-38.0	25.7	0.00e+00	0	41	0	2045771776	45	4086
2026-01-29 12:50:14.78	242.80	46.18	-37.2	-37.9	25.8	0.00e+00	0	41	0	2051014656	45	4017
2026-01-29 12:50:15.79	243.35	46.27	-37.2	-37.9	25.8	0.00e+00	0	42	0	2057306112	45	4019
2026-01-29 12:50:16.80	243.91	46.35	-37.1	-37.8	25.9	0.00e+00	0	42	0	2062548992	45	3996
2026-01-29 12:50:17.81	244.46	46.42	-37.0	-37.7	26.0	0.00e+00	0	42	0	2067791872	45	3927
2026-01-29 12:50:18.82	245.02	46.50	-37.1	-37.8	25.9	0.00e+00	0	42	0	2074083328	45	3970
2026-01-29 12:50:19.82	245.58	46.57	-37.0	-37.7	26.0	0.00e+00	0	42	0	2079326208	45	3915
2026-01-29 12:50:20.83	246.14	46.64	-37.1	-37.7	26.0	0.00e+00	0	42	0	2085617664	45	3957
2026-01-29 12:50:21.84	246.71	46.71	-37.0	-37.7	26.0	0.00e+00	0	42	0	2090860544	45	3928
2026-01-29 12:50:22.85	247.28	46.77	-36.9	-37.6	26.1	0.00e+00	0	42	0	2096103424	45	3898
2026-01-29 12:50:23.85	247.84	46.83	-36.9	-37.6	26.1	0.00e+00	0	42	0	2102394880	45	3889
2026-01-29 12:50:24.86	248.42	46.89	-36.7	-37.3	26.3	0.00e+00	0	42	0	2107637760	45	3775
2026-01-29 12:50:25.87	248.99	46.94	-36.6	-37.3	26.3	0.00e+00	0	42	0	2113929216	45	3746
2026-01-29 12:50:26.88	249.57	47.00	-36.7	-37.4	26.2	0.00e+00	0	42	0	2119172096	45	3810
2026-01-29 12:50:27.89	250.15	47.05	-37.1	-37.8	26.0	0.00e+00	0	42	0	2125463552	45	3962
2026-01-29 12:50:28.89	250.72	47.09	-37.2	-38.0	25.7	0.00e+00	0	41	0	2130706432	45	4062
2026-01-29 12:50:29.90	251.31	47.13	-37.1	-37.8	25.9	0.00e+00	0	42	0	2135949312	45	3999
2026-01-29 12:50:30.91	251.89	47.17	-37.1	-37.8	25.9	0.00e+00	0	42	0	2142240768	45	3969
2026-01-29 12:50:31.91	252.47	47.21	-36.9	-37.5	26.1	0.00e+00	0	41	0	2147483648	45	3862
2026-01-29 12:50:32.92	253.06	47.24	-37.1	-37.8	25.9	0.00e+00	0	41	0	2152726528	45	3980
2026-01-29 12:50:33.93	253.65	47.27	-37.2	-37.9	25.9	0.00e+00	0	41	0	2159017984	45	4009
2026-01-29 12:50:34.94	254.23	47.30	-37.0	-37.7	26.0	0.00e+00	0	42	0	2164260864	45	3945
2026-01-29 12:50:35.94	254.82	47.32	-37.0	-37.7	26.1	0.00e+00	0	42	0	2170552320	45	3917
2026-01-29 12:50:36.95	255.41	47.34	-36.9	-37.6	26.1	0.00e+00	0	42	0	2175795200	45	3892
2026-01-29 12:50:37.96	256.00	47.36	-36.8	-37.4	26.2	0.00e+00	0	42	0	2181038080	45	3810
2026-01-29 12:50:38.97	256.59	47.37	-36.7	-37.4	26.3	0.00e+00	0	42	0	2187329536	45	3796
2026-01-29 12:50:39.98	257.18	47.38	-36.7	-37.3	26.3	0.00e+00	0	42	0	2193620992	45	3774
2026-01-29 12:50:40.99	257.78	47.39	-36.8	-37.5	26.2	0.00e+00	0	42	0	2198863872	45	3849
2026-01-29 12:50:41.99	258.36	47.40	-37.0	-37.7	26.0	0.00e+00	0	42	0	2204106752	45	3948
2026-01-29 12:50:43.00	258.96	47.40	-37.2	-37.9	25.8	0.00e+00	0	42	0	2210398208	45	4038
2026-01-29 12:50:44.01	259.55	47.39	-37.1	-37.8	25.9	0.00e+00	0	42	0	2215641088	45	3996
2026-01-29 12:50:45.01	260.14	47.39	-37.0	-37.7	26.0	0.00e+00	0	42	0	2220883968	45	3931
2026-01-29 12:50:46.03	260.73	47.38	-37.0	-37.7	26.1	0.00e+00	0	42	0	2227175424	45	3929
2026-01-29 12:50:47.03	261.32	47.37	-36.9	-37.6	26.1	0.00e+00	0	42	0	2232418304	45	3884
2026-01-29 12:50:48.04	261.91	47.35	-36.8	-37.5	26.2	0.00e+00	0	42	0	2237661184	45	3842
2026-01-29 12:50:49.05	262.50	47.33	-36.9	-37.6	26.1	0.00e+00	0	42	0	2243952640	45	3892
2026-01-29 12:50:50.06	263.09	47.31	-37.0	-37.7	26.1	0.00e+00	0	41	0	2249195520	45	3920
2026-01-29 12:50:51.07	263.68	47.29	-37.1	-37.8	25.9	0.00e+00	0	42	0	2255486976	45	3989
2026-01-29 12:50:52.08	264.27	47.26	-37.0	-37.7	26.0	0.00e+00	0	42	0	2260729856	45	3942
2026-01-29 12:50:53.09	264.86	47.23	-37.1	-37.7	26.0	0.00e+00	0	42	0	2267021312	45	3953
2026-01-29 12:50:54.10	265.44	47.19	-37.1	-37.8	26.0	0.00e+00	0	42	0	2272264192	45	3963
2026-01-29 12:50:55.11	266.03	47.15	-37.0	-37.7	26.0	0.00e+00	0	42	0	2278555648	45	3935
2026-01-29 12:50:56.12	266.61	47.11	-37.1	-37.8	26.0	0.00e+00	0	41	0	2283798528	45	3960
2026-01-29 12:50:57.12	267.19	47.07	-37.2	-37.9	25.9	0.00e+00	0	41	0	2289041408	45	4007
2026-01-29 12:50:58.13	267.77	47.02	-37.3	-38.0	25.8	0.00e+00	0	42	0	2295332864	45	4078
2026-01-29 12:50:59.14	268.34	46.97	-37.2	-37.9	25.9	0.00e+00	0	42	0	2300575744	45	4011
2026-01-29 12:51:00.15	268.92	46.92	-37.2	-37.9	25.8	0.00e+00	0	42	0	2305818624	45	4046
2026-01-29 12:51:01.16	269.49	46.86	-37.3	-38.0	25.8	0.00e+00	0	42	0	2312110080	45	4055
2026-01-29 12:51:02.17	270.07	46.80	-37.1	-37.8	26.0	0.00e+00	0	42	0	2317352960	45	3959
2026-01-29 12:51:03.18	270.64	46.74	-37.1	-37.8	26.0	0.00e+00	0	42	0	2323644416	45	3993
2026-01-29 12:51:04.19	271.20	46.68	-37.0	-37.6	26.1	0.00e+00	0	42	0	2328887296	45	3907
2026-01-29 12:51:05.20	271.77	46.61	-36.9	-37.6	26.1	0.00e+00	0	41	0	2335178752	45	3905
2026-01-29 12:51:06.21	272.33	46.54	-37.1	-37.8	26.0	0.00e+00	0	42	0	2340421632	45	3972
2026-01-29 12:51:07.22	272.89	46.46	-37.2	-37.9	25.9	0.00e+00	0	42	0	2345664512	45	4008
2026-01-29 12:51:08.23	273.45	46.39	-37.0	-37.7	26.0	0.00e+00	0	42	0	2351955968	45	3952
2026-01-29 12:51:09.24	274.00	46.31	-37.2	-37.9	25.9	0.00e+00	0	41	0	2357198848	45	4033
2026-01-29 12:51:10.24	274.55	46.23	-37.4	-38.1	25.7	0.00e+00	0	41	0	2363490304	45	4108
2026-01-29 12:51:11.26	275.10	46.14	-37.4	-38.1	25.7	0.00e+00	0	42	0	2368733184	45	4124
2026-01-29 12:51:12.26	275.64	46.06	-37.5	-38.2	25.6	0.00e+00	0	42	0	2373976064	45	4156
2026-01-29 12:51:13.27	276.19	45.97	-37.3	-38.0	25.8	0.00e+00	0	42	0	2380267520	45	4067
2026-01-29 12:51:14.28	276.73	45.87	-37.3	-37.9	25.9	0.00e+00	0	42	0	2386558976	45	4049
2026-01-29 12:51:15.28	277.26	45.78	-37.2	-37.9	25.9	0.00e+00	0	41	0	2391801856	45	4031
2026-01-29 12:51:16.29	277.79	45.68	-37.1	-37.8	25.9	0.00e+00	0	42	0	2397044736	45	3999
2026-01-29 12:51:17.30	278.32	45.58	-37.1	-37.8	26.0	0.00e+00	0	42	0	2403336192	45	3980
2026-01-29 12:51:18.30	278.84	45.48	-37.3	-38.0	25.8	0.00e+00	0	42	0	2408579072	45	4085
2026-01-29 12:51:19.31	279.36	45.38	-37.4	-38.1	25.7	0.00e+00	0	42	0	2413821952	45	4136
2026-01-29 12:51:20.32	279.88	45.27	-37.4	-38.1	25.7	0.00e+00	0	41	0	2420113408	45	4137
2026-01-29 12:51:21.33	280.40	45.16	-37.4	-38.1	25.7	0.00e+00	0	42	0	2425356288	45	4126
2026-01-29 12:51:22.34	280.91	45.05	-37.3	-38.0	25.8	0.00e+00	0	42	0	2430599168	45	4093
2026-01-29 12:51:23.34	281.42	44.94	-37.1	-37.8	26.0	0.00e+00	0	42	0	2436890624	45	3977
2026-01-29 12:51:24.35	281.92	44.83	-37.1	-37.7	26.0	0.00e+00	0	42	0	2442133504	45	3954
2026-01-29 12:51:25.36	282.43	44.71	-37.0	-37.7	26.1	0.00e+00	0	42	0	2448424960	45	3933
2026-01-29 12:51:26.37	282.92	44.59	-37.1	-37.8	26.0	0.00e+00	0	42	0	2453667840	45	3967
2026-01-29 12:51:27.38	283.42	44.47	-37.1	-37.8	26.0	0.00e+00	0	42	0	2459959296	45	3979
2026-01-29 12:51:28.39	283.91	44.34	-37.2	-37.9	26.0	0.00e+00	0	42	0	2465202176	45	4020
2026-01-29 12:51:29.40	284.40	44.22	-37.2	-37.9	26.0	0.00e+00	0	42	0	2471493632	45	4015
2026-01-29 12:51:30.41	284.88	44.09	-37.2	-37.9	26.0	0.00e+00	0	42	0	2476736512	45	4005
2026-01-29 12:51:31.42	285.36	43.96	-37.2	-37.9	25.9	0.00e+00	0	42	0	2481979392	45	4021
2026-01-29 12:51:32.43	285.84	43.83	-37.5	-38.2	25.6	0.00e+00	0	42	0	2488270848	45	4181
2026-01-29 12:51:33.43	286.30	43.70	-37.8	-38.5	25.4	0.00e+00	0	41	0	2493513728	46	4086
2026-01-29 12:51:34.44	286.77	43.57	-37.9	-38.6	25.3	0.00e+00	0	42	0	2498756608	46	4129
2026-01-29 12:51:35.45	287.24	43.44	-37.7	-38.4	25.5	0.00e+00	0	42	0	2505048064	46	4041
2026-01-29 12:51:36.45	287.69	43.30	-37.7	-38.4	25.6	0.00e+00	0	42	0	2510290944	46	4022
2026-01-29 12:51:37.46	288.15	43.16	-37.6	-38.3	25.6	0.00e+00	0	42	0	2515533824	46	4001
2026-01-29 12:51:38.47	288.60	43.02	-37.6	-38.3	25.6	0.00e+00	0	42	0	2521825280	46	3981
2026-01-29 12:51:39.48	289.05	42.88	-37.4	-38.1	25.8	0.00e+00	0	42	0	2528116736	46	3904
2026-01-29 12:51:40.49	289.49	42.74	-37.3	-37.9	25.9	0.00e+00	0	42	0	2533359616	46	3823
2026-01-29 12:51:41.49	289.93	42.60	-37.1	-37.8	26.0	0.00e+00	0	42	0	2538602496	46	3778
2026-01-29 12:51:42.50	290.37	42.45	-37.2	-37.8	26.0	0.00e+00	0	42	0	2544893952	46	3777
2026-01-29 12:51:43.51	290.80	42.31	-37.1	-37.8	26.0	0.00e+00	0	41	0	2550136832	46	3775
2026-01-29 12:51:44.52	291.23	42.16	-37.2	-37.9	26.0	0.00e+00	0	42	0	2556428288	46	3781
2026-01-29 12:51:45.52	291.65	42.01	-37.4	-38.1	25.8	0.00e+00	0	42	0	2561671168	46	3869
2026-01-29 12:51:46.53	292.07	41.86	-37.3	-38.0	25.9	0.00e+00	0	41	0	2566914048	46	3839
2026-01-29 12:51:47.54	292.49	41.71	-37.3	-38.0	25.9	0.00e+00	0	42	0	2573205504	46	3859
2026-01-29 12:51:48.55	292.90	41.56	-37.5	-38.2	25.7	0.00e+00	0	42	0	2578448384	46	3928
2026-01-29 12:51:49.56	293.31	41.41	-37.2	-37.9	26.0	0.00e+00	0	41	0	2583691264	46	3797
2026-01-29 12:51:50.56	293.71	41.25	-37.3	-38.0	25.9	0.00e+00	0	42	0	2589982720	46	3837
2026-01-29 12:51:51.57	294.12	41.10	-37.1	-37.7	26.1	0.00e+00	0	42	0	2595225600	46	3732
2026-01-29 12:51:52.57	294.51	40.95	-36.9	-37.5	26.3	0.00e+00	0	42	0	2601517056	45	3864
2026-01-29 12:51:53.58	294.90	40.79	-36.9	-37.6	26.3	0.00e+00	0	42	0	2606759936	45	3878
2026-01-29 12:51:54.59	295.30	40.63	-36.8	-37.5	26.3	0.00e+00	0	42	0	2613051392	45	3829
2026-01-29 12:51:55.60	295.68	40.47	-36.9	-37.6	26.2	0.00e+00	0	42	0	2618294272	45	3880
2026-01-29 12:51:56.61	296.07	40.32	-36.8	-37.4	26.3	0.00e+00	0	42	0	2623537152	45	3815
2026-01-29 12:51:57.62	296.45	40.16	-36.8	-37.4	26.4	0.00e+00	0	42	0	2629828608	45	3813
2026-01-29 12:51:58.63	296.82	40.00	-36.8	-37.5	26.3	0.00e+00	0	42	0	2635071488	45	3832
2026-01-29 12:51:59.64	297.19	39.84	-37.0	-37.7	26.2	0.00e+00	0	41	0	2641362944	45	3924
2026-01-29 12:52:00.65	297.56	39.68	-37.0	-37.7	26.1	0.00e+00	0	42	0	2646605824	45	3931
2026-01-29 12:52:01.65	297.93	39.52	-37.1	-37.8	26.1	0.00e+00	0	42	0	2651848704	45	3962
2026-01-29 12:52:02.66	298.29	39.35	-37.1	-37.8	26.0	0.00e+00	0	42	0	2658140160	45	3993
2026-01-29 12:52:03.67	298.65	39.19	-36.9	-37.6	26.2	0.00e+00	0	42	0	2663383040	45	3871
2026-01-29 12:52:04.67	299.00	39.03	-36.8	-37.5	26.3	0.00e+00	0	42	0	2669674496	45	3845
2026-01-29 12:52:05.68	299.35	38.87	-36.9	-37.6	26.2	0.00e+00	0	41	0	2674917376	45	3875
2026-01-29 12:52:06.69	299.70	38.70	-36.6	-37.3	26.5	0.00e+00	0	42	0	2681208832	45	3766
2026-01-29 12:52:07.69	300.04	38.54	-36.6	-37.3	26.5	0.00e+00	0	42	0	2686451712	45	3774
2026-01-29 12:52:08.70	300.38	38.38	-36.6	-37.3	26.5	0.00e+00	0	41	0	2691694592	45	3761
2026-01-29 12:52:09.71	300.71	38.21	-36.8	-37.5	26.3	0.00e+00	0	42	0	2697986048	45	3831
2026-01-29 12:52:10.72	301.05	38.05	-36.7	-37.4	26.3	0.00e+00	0	42	0	2703228928	45	3817
2026-01-29 12:52:11.73	301.38	37.88	-36.8	-37.5	26.3	0.00e+00	0	42	0	2708471808	45	3839
2026-01-29 12:52:12.74	301.71	37.72	-36.7	-37.4	26.3	0.00e+00	0	41	0	2714763264	45	3817
2026-01-29 12:52:13.75	302.03	37.55	-36.6	-37.3	26.4	0.00e+00	0	42	0	2720006144	45	3758
2026-01-29 12:52:14.76	302.35	37.39	-36.6	-37.3	26.4	0.00e+00	0	42	0	2726297600	45	3762
2026-01-29 12:52:15.77	302.67	37.22	-36.6	-37.3	26.4	0.00e+00	0	42	0	2731540480	45	3756
2026-01-29 12:52:16.78	302.99	37.05	-36.7	-37.4	26.3	0.00e+00	0	42	0	2737831936	45	3808
2026-01-29 12:52:17.79	303.30	36.89	-36.8	-37.5	26.3	0.00e+00	0	42	0	2743074816	45	3838
2026-01-29 12:52:18.80	303.61	36.72	-36.8	-37.5	26.2	0.00e+00	0	42	0	2749366272	45	3859
2026-01-29 12:52:19.81	303.91	36.56	-36.8	-37.5	26.3	0.00e+00	0	42	0	2754609152	45	3830
2026-01-29 12:52:20.82	304.21	36.39	-36.6	-37.3	26.4	0.00e+00	0	42	0	2759852032	45	3752
2026-01-29 12:52:21.83	304.51	36.22	-36.7	-37.4	26.4	0.00e+00	0	42	0	2766143488	45	3796
2026-01-29 12:52:22.83	304.81	36.06	-36.7	-37.4	26.3	0.00e+00	0	41	0	2771386368	45	3804
2026-01-29 12:52:23.84	305.10	35.89	-36.7	-37.4	26.3	0.00e+00	0	42	0	2776629248	45	3817
2026-01-29 12:52:24.85	305.39	35.73	-36.7	-37.4	26.3	0.00e+00	0	42	0	2782920704	45	3806
2026-01-29 12:52:25.86	305.68	35.56	-36.6	-37.3	26.4	0.00e+00	0	42	0	2788163584	45	3769
2026-01-29 12:52:26.87	305.96	35.39	-36.7	-37.3	26.3	0.00e+00	0	42	0	2794455040	45	3780
2026-01-29 12:52:27.88	306.24	35.23	-36.8	-37.5	26.3	0.00e+00	0	42	0	2799697920	45	3830
2026-01-29 12:52:28.89	306.52	35.06	-36.8	-37.4	26.3	0.00e+00	0	42	0	2805989376	45	3816
2026-01-29 12:52:29.90	306.80	34.90	-36.8	-37.5	26.2	0.00e+00	0	41	0	2811232256	45	3854
2026-01-29 12:52:30.91	307.07	34.73	-36.8	-37.5	26.2	0.00e+00	0	42	0	2816475136	45	3856
2026-01-29 12:52:31.92	307.34	34.57	-36.8	-37.5	26.2	0.00e+00	0	42	0	2822766592	45	3855
2026-01-29 12:52:32.92	307.61	34.40	-36.8	-37.5	26.1	0.00e+00	0	42	0	2828009472	45	3849
2026-01-29 12:52:33.93	307.87	34.24	-36.8	-37.4	26.2	0.00e+00	0	42	0	2834300928	45	3820
2026-01-29 12:52:34.94	308.14	34.07	-36.7	-37.4	26.3	0.00e+00	0	42	0	2839543808	45	3800
2026-01-29 12:52:35.95	308.40	33.91	-36.7	-37.3	26.3	0.00e+00	0	42	0	2844786688	45	3777
2026-01-29 12:52:36.96	308.66	33.75	-36.7	-37.4	26.3	0.00e+00	0	42	0	2851078144	45	3792
2026-01-29 12:52:37.97	308.91	33.58	-36.7	-37.5	26.3	0.00e+00	0	41	0	2857369600	45	3827
2026-01-29 12:52:38.99	309.17	33.42	-36.7	-37.4	26.3	0.00e+00	0	42	0	2862612480	45	3797
2026-01-29 12:52:39.99	309.41	33.26	-36.8	-37.4	26.2	0.00e+00	0	42	0	2867855360	45	3816
2026-01-29 12:52:41.00	309.66	33.09	-36.7	-37.4	26.3	0.00e+00	0	41	0	2874146816	45	3784
2026-01-29 12:52:42.00	309.90	32.93	-36.5	-37.2	26.4	0.00e+00	0	42	0	2879389696	45	3701
2026-01-29 12:52:43.01	310.15	32.77	-36.6	-37.3	26.3	0.00e+00	0	42	0	2884632576	45	3747
2026-01-29 12:52:44.01	310.39	32.61	-36.6	-37.3	26.4	0.00e+00	0	41	0	2890924032	45	3741
2026-01-29 12:52:45.02	310.62	32.45	-36.6	-37.3	26.4	0.00e+00	0	42	0	2896166912	45	3749
2026-01-29 12:52:46.03	310.86	32.29	-36.7	-37.4	26.2	0.00e+00	0	42	0	2901409792	45	3801
2026-01-29 12:52:47.04	311.09	32.12	-36.8	-37.5	26.2	0.00e+00	0	42	0	2907701248	45	3830
2026-01-29 12:52:48.05	311.32	31.96	-37.0	-37.6	26.1	0.00e+00	0	42	0	2912944128	45	3905
2026-01-29 12:52:49.06	311.55	31.80	-36.9	-37.6	26.1	0.00e+00	0	42	0	2919235584	45	3879
2026-01-29 12:52:50.07	311.78	31.64	-37.0	-37.6	26.0	0.00e+00	0	41	0	2924478464	45	3911
2026-01-29 12:52:51.08	312.01	31.48	-36.9	-37.6	26.1	0.00e+00	0	42	0	2930769920	45	3873
2026-01-29 12:52:52.09	312.23	31.33	-36.9	-37.6	26.1	0.00e+00	0	42	0	2936012800	45	3881
2026-01-29 12:52:53.10	312.45	31.17	-37.0	-37.7	26.0	0.00e+00	0	42	0	2942304256	45	3927
2026-01-29 12:52:54.11	312.67	31.01	-37.0	-37.7	26.0	0.00e+00	0	42	0	2947547136	45	3929
2026-01-29 12:52:55.12	312.88	30.85	-36.8	-37.5	26.1	0.00e+00	0	42	0	2952790016	45	3847
2026-01-29 12:52:56.13	313.10	30.69	-36.9	-37.5	26.1	0.00e+00	0	42	0	2959081472	45	3861
2026-01-29 12:52:57.13	313.31	30.54	-36.8	-37.5	26.1	0.00e+00	0	42	0	2964324352	45	3839
2026-01-29 12:52:58.14	313.52	30.38	-37.0	-37.6	26.0	0.00e+00	0	42	0	2969567232	45	3913
2026-01-29 12:52:59.15	313.73	30.23	-36.8	-37.5	26.1	0.00e+00	0	42	0	2975858688	45	3857
2026-01-29 12:53:00.16	313.93	30.07	-36.8	-37.5	26.1	0.00e+00	0	42	0	2981101568	45	3841
2026-01-29 12:53:01.17	314.14	29.91	-36.9	-37.5	26.1	0.00e+00	0	41	0	2987393024	45	3866
2026-01-29 12:53:02.18	314.34	29.76	-36.9	-37.5	26.1	0.00e+00	0	42	0	2992635904	45	3866
2026-01-29 12:53:03.19	314.54	29.61	-36.9	-37.6	26.1	0.00e+00	0	42	0	2998927360	45	3882
2026-01-29 12:53:04.20	314.74	29.45	-36.9	-37.6	26.0	0.00e+00	0	41	0	3004170240	45	3906
2026-01-29 12:53:05.21	314.94	29.30	-37.0	-37.7	26.0	0.00e+00	0	42	0	3009413120	45	3925
2026-01-29 12:53:06.22	315.13	29.15	-36.7	-37.4	26.2	0.00e+00	0	41	0	3015704576	45	3811
2026-01-29 12:53:07.22	315.32	28.99	-36.8	-37.5	26.1	0.00e+00	0	42	0	3020947456	45	3829
2026-01-29 12:53:08.23	315.51	28.84	-36.8	-37.5	26.1	0.00e+00	0	42	0	3027238912	45	3838
2026-01-29 12:53:09.24	315.70	28.69	-36.9	-37.6	26.0	0.00e+00	0	42	0	3032481792	45	3908
2026-01-29 12:53:10.25	315.89	28.54	-36.9	-37.6	26.0	0.00e+00	0	42	0	3037724672	45	3884
2026-01-29 12:53:11.25	316.08	28.39	-37.0	-37.7	25.9	0.00e+00	0	42	0	3044016128	45	3929
2026-01-29 12:53:12.26	316.26	28.24	-37.0	-37.7	25.9	0.00e+00	0	42	0	3049259008	45	3952
2026-01-29 12:53:13.27	316.44	28.09	-37.1	-37.9	25.8	0.00e+00	0	42	0	3055550464	45	4006
2026-01-29 12:53:14.28	316.63	27.94	-37.1	-37.8	25.8	0.00e+00	0	42	0	3060793344	45	3998
2026-01-29 12:53:15.29	316.81	27.80	-37.2	-37.9	25.7	0.00e+00	0	42	0	3067084800	45	4038
2026-01-29 12:53:16.30	316.98	27.65	-37.2	-38.0	25.7	0.00e+00	0	42	0	3072327680	45	4058
2026-01-29 12:53:17.31	317.16	27.50	-37.2	-37.9	25.7	0.00e+00	0	42	0	3077570560	45	4025
2026-01-29 12:53:18.32	317.34	27.35	-37.1	-37.9	25.8	0.00e+00	0	42	0	3083862016	45	4008
2026-01-29 12:53:19.32	317.51	27.21	-37.1	-37.8	25.8	0.00e+00	0	42	0	3089104896	45	4001
2026-01-29 12:53:20.33	317.68	27.06	-37.1	-37.8	25.8	0.00e+00	0	42	0	3094347776	45	3987
2026-01-29 12:53:21.34	317.85	26.92	-37.0	-37.7	25.9	0.00e+00	0	42	0	3100639232	45	3922
2026-01-29 12:53:22.35	318.02	26.77	-36.9	-37.6	26.0	0.00e+00	0	42	0	3105882112	45	3876
2026-01-29 12:53:23.36	318.19	26.63	-36.9	-37.6	26.0	0.00e+00	0	42	0	3112173568	45	3888
2026-01-29 12:53:24.37	318.35	26.49	-37.0	-37.6	25.9	0.00e+00	0	42	0	3117416448	45	3909
2026-01-29 12:53:25.38	318.52	26.34	-37.0	-37.7	25.9	0.00e+00	0	41	0	3123707904	45	3933
2026-01-29 12:53:26.38	318.68	26.20	-37.1	-37.8	25.7	0.00e+00	0	42	0	3128950784	45	3995
2026-01-29 12:53:27.39	318.84	26.06	-37.1	-37.8	25.8	0.00e+00	0	41	0	3135242240	45	3987
2026-01-29 12:53:28.40	319.00	25.92	-37.2	-37.9	25.7	0.00e+00	0	42	0	3140485120	45	4025
2026-01-29 12:53:29.41	319.16	25.78	-37.4	-38.1	25.5	0.00e+00	0	42	0	3145728000	45	4119
2026-01-29 12:53:30.41	319.31	25.64	-37.3	-38.0	25.6	0.00e+00	0	42	0	3152019456	45	4085
2026-01-29 12:53:31.42	319.47	25.50	-37.3	-38.0	25.6	0.00e+00	0	42	0	3157262336	45	4080
2026-01-29 12:53:32.43	319.62	25.36	-37.3	-38.1	25.6	0.00e+00	0	42	0	3162505216	45	4100
2026-01-29 12:53:33.44	319.78	25.22	-37.3	-38.0	25.6	0.00e+00	0	42	0	3168796672	45	4081
2026-01-29 12:53:34.45	319.93	25.08	-37.3	-38.1	25.5	0.00e+00	0	42	0	3174039552	45	4110
2026-01-29 12:53:35.46	320.08	24.94	-37.3	-38.0	25.6	0.00e+00	0	42	0	3179282432	45	4074
2026-01-29 12:53:36.47	320.23	24.81	-37.4	-38.1	25.5	0.00e+00	0	42	0	3185573888	45	4136
2026-01-29 12:53:37.47	320.38	24.67	-37.4	-38.1	25.5	0.00e+00	0	42	0	3191865344	45	4105
2026-01-29 12:53:38.48	320.53	24.53	-37.4	-38.1	25.4	0.00e+00	0	42	0	3197108224	45	4142
2026-01-29 12:53:39.48	320.67	24.40	-37.5	-38.2	25.5	0.00e+00	0	42	0	3202351104	45	4152
2026-01-29 12:53:40.49	320.81	24.26	-37.3	-38.0	25.6	0.00e+00	0	42	0	3208642560	45	4084
2026-01-29 12:53:41.50	320.96	24.13	-37.4	-38.1	25.5	0.00e+00	0	42	0	3213885440	45	4108
2026-01-29 12:53:42.51	321.10	23.99	-37.4	-38.1	25.5	0.00e+00	0	41	0	3220176896	45	4130
2026-01-29 12:53:43.52	321.24	23.86	-37.5	-38.1	25.5	0.00e+00	0	42	0	3225419776	45	4136
2026-01-29 12:53:44.53	321.38	23.73	-37.4	-38.1	25.5	0.00e+00	0	42	0	3230662656	45	4126
2026-01-29 12:53:45.53	321.52	23.60	-37.3	-38.0	25.6	0.00e+00	0	42	0	3236954112	45	4075
2026-01-29 12:53:46.54	321.66	23.46	-37.3	-38.0	25.5	0.00e+00	0	42	0	3242196992	45	4068
2026-01-29 12:53:47.55	321.79	23.33	-37.4	-38.0	25.5	0.00e+00	0	42	0	3247439872	45	4088
2026-01-29 12:53:48.56	321.93	23.20	-37.4	-38.1	25.5	0.00e+00	0	42	0	3253731328	45	4111
2026-01-29 12:53:49.57	322.06	23.07	-37.5	-38.2	25.3	0.00e+00	0	42	0	3258974208	45	4178
2026-01-29 12:53:50.57	322.20	22.94	-37.5	-38.2	25.4	0.00e+00	0	41	0	3265265664	45	4165
2026-01-29 12:53:51.58	322.33	22.81	-37.6	-38.3	25.2	0.00e+00	0	42	0	3270508544	45	4239
2026-01-29 12:53:52.59	322.46	22.68	-37.7	-38.4	25.2	0.00e+00	0	42	0	3276800000	46	4044
2026-01-29 12:53:53.60	322.59	22.55	-37.9	-38.6	25.0	0.00e+00	0	42	0	3282042880	46	4117
2026-01-29 12:53:54.61	322.72	22.43	-38.0	-38.7	24.9	0.00e+00	0	42	0	3287285760	46	4181
2026-01-29 12:53:55.62	322.85	22.30	-38.0	-38.8	24.9	0.00e+00	0	42	0	3293577216	46	4201
2026-01-29 12:53:56.63	322.97	22.17	-38.1	-38.9	24.7	0.00e+00	0	42	0	3298820096	46	4267
2026-01-29 12:53:57.63	323.10	22.05	-38.2	-38.9	24.7	0.00e+00	0	42	0	3305111552	47	4050
2026-01-29 12:53:58.64	323.22	21.92	-38.2	-38.9	24.7	0.00e+00	0	42	0	3310354432	47	4034
2026-01-29 12:53:59.65	323.35	21.79	-38.2	-38.9	24.7	0.00e+00	0	42	0	3315597312	47	4037
2026-01-29 12:54:00.66	323.47	21.67	-38.2	-38.9	24.7	0.00e+00	0	42	0	3321888768	47	4028
2026-01-29 12:54:01.66	323.59	21.55	-38.2	-38.9	24.7	0.00e+00	0	42	0	3327131648	47	4042
2026-01-29 12:54:02.67	323.71	21.42	-38.0	-38.7	24.8	0.00e+00	0	41	0	3333423104	47	3954
2026-01-29 12:54:03.68	323.83	21.30	-37.9	-38.7	24.9	0.00e+00	0	42	0	3338665984	47	3921
2026-01-29 12:54:04.69	323.95	21.17	-37.8	-38.5	25.0	0.00e+00	0	42	0	3344957440	47	3863
2026-01-29 12:54:05.70	324.07	21.05	-37.8	-38.6	25.0	0.00e+00	0	42	0	3350200320	47	3869
2026-01-29 12:54:06.70	324.19	20.93	-37.8	-38.5	25.1	0.00e+00	0	42	0	3355443200	47	3832
2026-01-29 12:54:07.71	324.31	20.81	-37.9	-38.6	25.0	0.00e+00	0	42	0	3361734656	47	3886
2026-01-29 12:54:08.71	324.42	20.69	-37.8	-38.5	25.0	0.00e+00	0	42	0	3366977536	47	3861
2026-01-29 12:54:09.72	324.54	20.57	-37.9	-38.6	24.9	0.00e+00	0	42	0	3372220416	47	3885
2026-01-29 12:54:10.73	324.65	20.45	-38.0	-38.7	24.8	0.00e+00	0	42	0	3378511872	47	3937
2026-01-29 12:54:11.73	324.76	20.33	-38.1	-38.8	24.7	0.00e+00	0	42	0	3383754752	47	3987
2026-01-29 12:54:12.74	324.87	20.21	-38.0	-38.8	24.8	0.00e+00	0	41	0	3390046208	47	3959
2026-01-29 12:54:13.75	324.99	20.09	-38.1	-38.8	24.7	0.00e+00	0	41	0	3395289088	47	3998
2026-01-29 12:54:14.76	325.10	19.97	-38.2	-38.9	24.6	0.00e+00	0	42	0	3400531968	47	4031
2026-01-29 12:54:15.77	325.21	19.85	-38.3	-39.0	24.5	0.00e+00	0	42	0	3406823424	47	4089
2026-01-29 12:54:16.77	325.32	19.74	-38.2	-38.9	24.6	0.00e+00	0	42	0	3413114880	47	4018
2026-01-29 12:54:17.78	325.42	19.62	-38.3	-39.0	24.6	0.00e+00	0	42	0	3418357760	47	4064
2026-01-29 12:54:18.79	325.53	19.50	-38.3	-39.1	24.5	0.00e+00	0	41	0	3423600640	47	4104
2026-01-29 12:54:19.80	325.64	19.39	-38.2	-38.9	24.6	0.00e+00	0	42	0	3429892096	47	4039
2026-01-29 12:54:20.81	325.74	19.27	-38.2	-38.9	24.6	0.00e+00	0	42	0	3435134976	47	4051
2026-01-29 12:54:21.81	325.85	19.16	-38.2	-38.9	24.6	0.00e+00	0	42	0	3440377856	47	4027
2026-01-29 12:54:22.82	325.95	19.04	-38.3	-39.0	24.5	0.00e+00	0	41	0	3446669312	47	4085
2026-01-29 12:54:23.83	326.06	18.93	-38.3	-39.0	24.5	0.00e+00	0	42	0	3451912192	47	4076
2026-01-29 12:54:24.84	326.16	18.81	-38.3	-39.0	24.4	0.00e+00	0	42	0	3457155072	47	4089
2026-01-29 12:54:25.85	326.26	18.70	-38.4	-39.2	24.3	0.00e+00	0	41	0	3463446528	47	4152
2026-01-29 12:54:26.86	326.36	18.59	-38.5	-39.2	24.3	0.00e+00	0	41	0	3468689408	47	4178
2026-01-29 12:54:27.87	326.47	18.47	-38.5	-39.3	24.3	0.00e+00	0	42	0	3474980864	47	4197
2026-01-29 12:54:28.87	326.56	18.36	-38.6	-39.3	23.7	0.00e+00	0	42	0	3480223744	47	4238
2026-01-29 12:54:29.88	326.66	18.25	-38.7	-39.5	22.9	0.00e+00	0	41	0	3486515200	47	4308
2026-01-29 12:54:30.89	326.76	18.14	-39.1	-39.8	23.6	0.00e+00	0	41	0	3491758080	48	4223
2026-01-29 12:54:31.89	326.86	18.03	-39.1	-39.9	22.7	0.00e+00	0	42	0	3498049536	48	4262
2026-01-29 12:54:32.90	326.96	17.92	-39.2	-40.0	19.9	0.00e+00	0	42	0	3503292416	48	4321
2026-01-29 12:54:33.91	327.05	17.81	-39.1	-39.9	17.2	0.00e+00	0	41	0	3508535296	49	4041
2026-01-29 12:54:34.92	327.15	17.70	-39.0	-39.9	15.2	0.00e+00	0	42	0	3514826752	49	4043
2026-01-29 12:54:35.92	327.25	17.59	-39.2	-40.1	16.9	0.00e+00	0	41	0	3520069632	49	4113
2026-01-29 12:54:36.93	327.34	17.48	-39.2	-40.0	21.6	0.00e+00	0	42	0	3525312512	49	4063
2026-01-29 12:54:37.94	327.43	17.37	-39.3	-40.1	22.6	0.00e+00	0	42	0	3531603968	49	4100
2026-01-29 12:54:38.95	327.53	17.27	-39.4	-40.2	23.5	0.00e+00	0	42	0	3536846848	49	4151
2026-01-29 12:54:39.96	327.62	17.16	-39.2	-40.0	24.0	0.00e+00	0	42	0	3542089728	49	4059
2026-01-29 12:54:40.96	327.71	17.05	-39.3	-40.0	23.9	0.00e+00	0	42	0	3548381184	49	4097
2026-01-29 12:54:41.97	327.80	16.95	-39.3	-40.1	24.0	0.00e+00	0	42	0	3554672640	49	4115
2026-01-29 12:54:42.98	327.90	16.84	-39.2	-40.0	23.7	0.00e+00	0	42	0	3559915520	49	4054
2026-01-29 12:54:43.99	327.99	16.73	-39.1	-39.8	23.8	0.00e+00	0	42	0	3565158400	49	3980
2026-01-29 12:54:45.00	328.08	16.63	-39.2	-39.9	24.0	0.00e+00	0	42	0	3571449856	49	4024
2026-01-29 12:54:46.01	328.16	16.52	-39.2	-39.9	24.0	0.00e+00	0	42	0	3576692736	49	4039
2026-01-29 12:54:47.02	328.25	16.42	-39.2	-39.9	24.1	0.00e+00	0	42	0	3582984192	49	4020
2026-01-29 12:54:48.03	328.34	16.31	-39.2	-39.9	24.1	0.00e+00	0	42	0	3588227072	49	4017
2026-01-29 12:54:49.03	328.43	16.21	-39.3	-40.0	24.0	0.00e+00	0	42	0	3593469952	49	4079
2026-01-29 12:54:50.04	328.52	16.11	-39.3	-40.0	24.0	0.00e+00	0	42	0	3599761408	49	4093
2026-01-29 12:54:51.05	328.60	16.00	-39.3	-40.0	24.0	0.00e+00	0	42	0	3605004288	49	4080
2026-01-29 12:54:52.05	328.69	15.90	-39.3	-40.0	23.9	0.00e+00	0	42	0	3610247168	49	4090
2026-01-29 12:54:53.06	328.77	15.80	-39.4	-40.2	23.8	0.00e+00	0	42	0	3616538624	49	4163
2026-01-29 12:54:54.07	328.86	15.70	-39.5	-40.3	23.7	0.00e+00	0	42	0	3622830080	49	4212
2026-01-29 12:54:55.08	328.94	15.60	-39.6	-40.4	23.6	0.00e+00	0	41	0	3628072960	49	4254
2026-01-29 12:54:56.09	329.02	15.49	-39.6	-40.4	23.6	0.00e+00	0	42	0	3633315840	49	4263
2026-01-29 12:54:57.09	329.11	15.39	-39.8	-40.5	23.5	0.00e+00	0	42	0	3639607296	50	4096
2026-01-29 12:54:58.10	329.19	15.29	-39.8	-40.5	23.5	0.00e+00	0	42	0	3644850176	50	4097
2026-01-29 12:54:59.11	329.27	15.19	-39.8	-40.6	23.4	0.00e+00	0	42	0	3650093056	50	4115
2026-01-29 12:55:00.12	329.35	15.09	-39.9	-40.7	23.3	0.00e+00	0	42	0	3656384512	50	4172
2026-01-29 12:55:01.13	329.43	14.99	-39.9	-40.6	23.4	0.00e+00	0	42	0	3661627392	50	4134
2026-01-29 12:55:02.14	329.51	14.89	-39.9	-40.6	23.4	0.00e+00	0	42	0	3667918848	50	4137
2026-01-29 12:55:03.15	329.59	14.80	-39.9	-40.7	23.4	0.00e+00	0	42	0	3673161728	50	4146
2026-01-29 12:55:04.15	329.67	14.70	-39.9	-40.6	23.3	0.00e+00	0	42	0	3678404608	50	4144
2026-01-29 12:55:05.16	329.75	14.60	-39.9	-40.7	23.3	0.00e+00	0	42	0	3684696064	50	4163
2026-01-29 12:55:06.17	329.83	14.50	-40.0	-40.7	23.2	0.00e+00	0	42	0	3689938944	50	4186
