passes_logs/2026/01/29/R3.2S_Murmansk/R3.2S_Murmansk__20260129_214546_JL1KF02B02_rec.log

#Pass ID: 20260129_214546_JL1KF02B02
#Satellite: JL1KF02B02
#Configuration: 01B_900M
#almurnet v.1.7.20251203
#Start time: 2026-01-29 21:45:48

#Version: 2.2.20231116
#Station: R3.2S_Murmansk
#Location: 33.079688 lon 68.888172 lat
#TLE: 1 61193U 24169E   26028.96955180  .00008208  00000+0  51534-3 0  9991
#TLE: 2 61193  97.5623 120.6623 0012912  84.4227 275.8475 15.09469698 74833

#Time	Az	El	Level	Level2	SNR	BER	BlckErr	Temp	State	Recorded	gain1	gain2
2026-01-29 21:45:48.34	210.36	2.09	-53.9	-56.0	6.3	0.00e+00	0	42	0	0	79	18207
2026-01-29 21:45:49.30	210.44	2.14	-53.2	-55.4	6.2	0.00e+00	0	42	104	0	78	18089
2026-01-29 21:45:50.27	210.53	2.20	-52.9	-55.0	6.2	0.00e+00	0	42	104	0	77	18229
2026-01-29 21:45:51.24	210.62	2.26	-52.8	-54.9	6.2	0.00e+00	0	42	104	0	77	18068
2026-01-29 21:45:52.21	210.71	2.32	-52.8	-54.9	6.2	0.00e+00	0	42	104	0	77	18048
2026-01-29 21:45:53.18	210.80	2.38	-52.8	-54.9	6.2	0.00e+00	0	42	104	0	77	18047
2026-01-29 21:45:54.15	210.89	2.44	-52.8	-54.9	6.2	0.00e+00	0	42	104	0	77	18022
2026-01-29 21:45:55.13	210.98	2.50	-52.8	-54.9	6.2	0.00e+00	0	42	104	0	77	17991
2026-01-29 21:45:56.10	211.08	2.56	-52.8	-54.9	6.2	0.00e+00	0	42	104	0	77	18002
2026-01-29 21:45:57.07	211.17	2.62	-52.8	-54.9	6.2	0.00e+00	0	42	104	0	77	18021
2026-01-29 21:45:58.04	211.26	2.68	-52.8	-54.9	6.2	0.00e+00	0	42	104	0	77	18030
2026-01-29 21:45:59.02	211.35	2.74	-52.8	-54.8	6.2	0.00e+00	0	42	104	0	77	17948
2026-01-29 21:45:59.99	211.45	2.80	-52.8	-54.9	6.2	0.00e+00	0	42	104	0	77	17981
2026-01-29 21:46:00.96	211.54	2.85	-52.7	-54.8	6.2	0.00e+00	0	42	104	0	77	17944
2026-01-29 21:46:01.93	211.63	2.91	-52.8	-54.8	6.2	0.00e+00	0	43	104	0	77	17938
2026-01-29 21:46:02.90	211.73	2.97	-52.8	-54.8	6.2	0.00e+00	0	42	104	0	77	17963
2026-01-29 21:46:03.87	211.82	3.03	-52.8	-54.8	6.2	0.00e+00	0	42	104	0	77	17909
2026-01-29 21:46:04.85	211.92	3.10	-52.7	-54.8	6.2	0.00e+00	0	43	104	0	77	17916
2026-01-29 21:46:05.82	212.01	3.16	-52.7	-54.8	6.2	0.00e+00	0	43	104	0	77	17949
2026-01-29 21:46:06.79	212.11	3.22	-52.7	-54.8	6.2	0.00e+00	0	42	104	0	77	17922
2026-01-29 21:46:07.76	212.21	3.28	-52.7	-54.8	6.2	0.00e+00	0	42	104	0	77	17950
2026-01-29 21:46:08.73	212.31	3.34	-52.7	-54.8	6.2	0.00e+00	0	43	104	0	77	17916
2026-01-29 21:46:09.70	212.40	3.40	-52.7	-54.8	6.2	0.00e+00	0	43	104	0	77	17918
2026-01-29 21:46:10.68	212.50	3.46	-52.7	-54.8	6.2	0.00e+00	0	43	104	0	77	17922
2026-01-29 21:46:11.65	212.60	3.52	-52.7	-54.8	6.2	0.00e+00	0	43	104	0	77	17885
2026-01-29 21:46:12.62	212.70	3.58	-52.7	-54.8	6.2	0.00e+00	0	43	104	0	77	17923
2026-01-29 21:46:13.59	212.80	3.64	-52.7	-54.8	6.2	0.00e+00	0	43	104	0	77	17928
2026-01-29 21:46:14.56	212.90	3.70	-52.7	-54.8	6.2	0.00e+00	0	43	104	0	77	17910
2026-01-29 21:46:15.54	213.00	3.77	-52.7	-54.8	6.2	0.00e+00	0	43	104	0	77	17905
2026-01-29 21:46:16.51	213.10	3.83	-52.7	-54.8	6.2	0.00e+00	0	43	104	0	77	17919
2026-01-29 21:46:17.48	213.20	3.89	-52.7	-54.8	6.2	0.00e+00	0	43	104	0	77	17880
2026-01-29 21:46:18.45	213.31	3.95	-52.7	-54.8	6.2	0.00e+00	0	43	104	0	77	17896
2026-01-29 21:46:19.42	213.41	4.01	-52.7	-54.8	6.2	0.00e+00	0	43	104	0	77	17927
2026-01-29 21:46:20.39	213.51	4.08	-52.7	-54.8	6.2	0.00e+00	0	43	104	0	77	17867
2026-01-29 21:46:21.36	213.62	4.14	-52.7	-54.8	6.2	0.00e+00	0	43	104	0	77	17929
2026-01-29 21:46:22.34	213.72	4.20	-52.7	-54.8	6.2	0.00e+00	0	43	104	0	77	17910
2026-01-29 21:46:23.31	213.83	4.26	-52.7	-54.8	6.2	0.00e+00	0	43	104	0	77	17873
2026-01-29 21:46:24.27	213.93	4.33	-52.7	-54.8	6.2	0.00e+00	0	43	104	0	77	17897
2026-01-29 21:46:25.24	214.04	4.39	-52.7	-54.8	6.2	0.00e+00	0	43	104	0	77	17856
2026-01-29 21:46:26.21	214.14	4.45	-52.7	-54.8	6.2	0.00e+00	0	43	104	0	77	17905
2026-01-29 21:46:27.18	214.25	4.51	-52.7	-54.8	6.2	0.00e+00	0	43	104	0	77	17894
2026-01-29 21:46:28.16	214.36	4.58	-52.7	-54.8	6.2	0.00e+00	0	43	104	0	77	17915
2026-01-29 21:46:29.13	214.47	4.64	-52.7	-54.8	6.2	0.00e+00	0	43	104	0	77	17876
2026-01-29 21:46:30.10	214.58	4.70	-52.7	-54.8	6.2	0.00e+00	0	43	104	0	77	17815
2026-01-29 21:46:31.07	214.68	4.77	-52.7	-54.8	6.2	0.00e+00	0	43	104	0	77	17823
2026-01-29 21:46:32.04	214.79	4.83	-52.7	-54.8	6.2	0.00e+00	0	43	104	0	77	17800
2026-01-29 21:46:33.02	214.91	4.90	-52.7	-54.8	6.2	0.00e+00	0	43	104	0	77	17797
2026-01-29 21:46:33.99	215.02	4.96	-52.7	-54.8	6.2	0.00e+00	0	43	104	0	77	17813
2026-01-29 21:46:34.96	215.13	5.02	-52.7	-54.8	6.2	0.00e+00	0	43	104	0	77	17856
2026-01-29 21:46:35.93	215.24	5.09	-52.9	-54.9	6.2	0.00e+00	0	43	104	0	77	18162
2026-01-29 21:46:36.91	215.35	5.15	-52.6	-54.8	6.2	0.00e+00	0	43	104	0	77	17774
2026-01-29 21:46:37.88	215.47	5.22	-52.8	-54.9	6.2	0.00e+00	0	44	104	0	77	17999
2026-01-29 21:46:38.85	215.58	5.28	-52.7	-54.8	6.2	0.00e+00	0	43	104	0	77	17930
2026-01-29 21:46:39.82	215.70	5.34	-52.7	-54.8	6.2	0.00e+00	0	43	104	0	77	17767
2026-01-29 21:46:40.80	215.81	5.41	-52.6	-54.7	6.2	0.00e+00	0	44	104	0	77	17693
2026-01-29 21:46:41.77	215.93	5.47	-52.7	-54.8	6.2	0.00e+00	0	43	104	0	77	17907
2026-01-29 21:46:42.74	216.04	5.54	-52.7	-54.8	6.2	0.00e+00	0	43	104	0	77	17918
2026-01-29 21:46:43.71	216.16	5.60	-52.7	-54.8	6.2	0.00e+00	0	44	104	0	77	17823
2026-01-29 21:46:44.68	216.28	5.67	-52.6	-54.7	6.2	0.00e+00	0	44	104	0	77	17698
2026-01-29 21:46:45.65	216.40	5.74	-52.7	-54.8	6.2	0.00e+00	0	43	104	0	77	17915
2026-01-29 21:46:46.62	216.52	5.80	-52.8	-54.8	6.2	0.00e+00	0	43	104	0	77	17961
2026-01-29 21:46:47.59	216.64	5.87	-52.7	-54.8	6.2	0.00e+00	0	44	104	0	77	17870
2026-01-29 21:46:48.57	216.76	5.93	-52.7	-54.8	6.2	0.00e+00	0	44	104	0	77	17775
2026-01-29 21:46:49.54	216.88	6.00	-52.7	-54.8	6.2	0.00e+00	0	44	104	0	77	17818
2026-01-29 21:46:50.51	217.00	6.06	-52.8	-54.9	6.2	0.00e+00	0	43	104	0	77	18014
2026-01-29 21:46:51.49	217.12	6.13	-52.7	-54.8	6.2	0.00e+00	0	43	104	0	77	17857
2026-01-29 21:46:52.46	217.24	6.20	-52.7	-54.7	6.2	0.00e+00	0	44	104	0	77	17761
2026-01-29 21:46:53.43	217.37	6.26	-52.7	-54.8	6.2	0.00e+00	0	44	104	0	77	17830
2026-01-29 21:46:54.40	217.49	6.33	-52.8	-54.9	6.2	0.00e+00	0	44	104	0	77	18059
2026-01-29 21:46:55.37	217.62	6.40	-52.8	-54.8	6.2	0.00e+00	0	44	104	0	77	17936
2026-01-29 21:46:56.34	217.74	6.46	-52.7	-54.8	6.2	0.00e+00	0	44	104	0	77	17795
2026-01-29 21:46:57.31	217.87	6.53	-52.7	-54.8	6.2	0.00e+00	0	43	104	0	77	17822
2026-01-29 21:46:58.28	217.99	6.60	-52.8	-54.9	6.2	0.00e+00	0	44	104	0	77	18046
2026-01-29 21:46:59.25	218.12	6.66	-52.8	-54.9	6.2	0.00e+00	0	44	104	0	77	17979
2026-01-29 21:47:00.23	218.25	6.73	-52.7	-54.8	6.2	0.00e+00	0	44	104	0	77	17862
2026-01-29 21:47:01.20	218.38	6.80	-52.7	-54.8	6.2	0.00e+00	0	44	104	0	77	17797
2026-01-29 21:47:02.17	218.51	6.87	-52.8	-54.9	6.2	0.00e+00	0	44	104	0	77	18113
2026-01-29 21:47:03.14	218.64	6.93	-52.8	-54.9	6.2	0.00e+00	0	44	104	0	77	17993
2026-01-29 21:47:04.11	218.77	7.00	-52.7	-54.8	6.2	0.00e+00	0	44	104	0	77	17870
2026-01-29 21:47:05.08	218.90	7.07	-52.7	-54.8	6.2	0.00e+00	0	44	104	0	77	17801
2026-01-29 21:47:06.06	219.04	7.14	-52.8	-54.9	6.2	0.00e+00	0	44	104	0	77	18157
2026-01-29 21:47:07.02	219.17	7.20	-52.8	-54.9	6.2	0.00e+00	0	44	104	0	77	18040
2026-01-29 21:47:08.00	219.30	7.27	-52.7	-54.8	6.2	0.00e+00	0	44	104	0	77	17933
2026-01-29 21:47:08.97	219.44	7.34	-52.7	-54.8	6.2	0.00e+00	0	44	104	0	77	17828
2026-01-29 21:47:09.94	219.57	7.41	-52.8	-54.9	6.2	0.00e+00	0	44	104	0	77	18111
2026-01-29 21:47:10.92	219.71	7.48	-52.8	-54.9	6.2	0.00e+00	0	44	104	0	77	18044
2026-01-29 21:47:11.89	219.85	7.55	-52.7	-54.8	6.2	0.00e+00	0	44	104	0	77	17966
2026-01-29 21:47:12.86	219.99	7.62	-52.7	-54.8	6.2	0.00e+00	0	44	104	0	77	17868
2026-01-29 21:47:13.84	220.12	7.69	-52.8	-54.9	6.2	0.00e+00	0	44	104	0	77	18105
2026-01-29 21:47:14.81	220.26	7.75	-52.8	-54.9	6.2	0.00e+00	0	44	104	0	77	18120
2026-01-29 21:47:15.77	220.40	7.82	-52.8	-54.9	6.2	0.00e+00	0	44	104	0	77	17982
2026-01-29 21:47:16.74	220.54	7.89	-52.7	-54.8	6.2	0.00e+00	0	44	104	0	77	17875
2026-01-29 21:47:17.71	220.68	7.96	-52.8	-54.9	6.2	0.00e+00	0	44	104	0	77	18063
2026-01-29 21:47:18.69	220.83	8.03	-52.8	-54.9	6.2	0.00e+00	0	44	104	0	77	18161
2026-01-29 21:47:19.66	220.97	8.10	-52.8	-54.9	6.2	0.00e+00	0	44	104	0	77	18045
2026-01-29 21:47:20.62	221.11	8.17	-52.7	-54.8	6.2	0.00e+00	0	44	104	0	77	17958
2026-01-29 21:47:21.59	221.26	8.24	-52.8	-54.9	6.2	0.00e+00	0	44	104	0	77	18016
2026-01-29 21:47:22.56	221.40	8.31	-52.9	-55.0	6.2	0.00e+00	0	44	104	0	77	18206
2026-01-29 21:47:23.53	221.55	8.38	-52.8	-54.9	6.2	0.00e+00	0	44	104	0	77	18061
2026-01-29 21:47:24.50	221.70	8.45	-52.8	-54.8	6.2	0.00e+00	0	44	104	0	77	17963
2026-01-29 21:47:25.47	221.85	8.52	-52.8	-54.9	6.2	0.00e+00	0	44	104	0	77	18024
2026-01-29 21:47:26.44	221.99	8.59	-52.9	-55.0	6.2	0.00e+00	0	44	104	0	77	18181
2026-01-29 21:47:27.41	222.14	8.66	-52.8	-54.9	6.2	0.00e+00	0	44	104	0	77	18077
2026-01-29 21:47:28.38	222.30	8.73	-50.4	-51.5	6.4	0.00e+00	0	44	104	0	72	16285
2026-01-29 21:47:29.36	222.45	8.80	-51.7	-53.3	6.2	0.00e+00	0	44	104	0	75	16820
2026-01-29 21:47:30.33	222.60	8.87	-51.3	-52.8	6.3	0.00e+00	0	44	104	0	73	17770
2026-01-29 21:47:31.30	222.75	8.94	-52.3	-54.2	6.2	0.00e+00	0	44	104	0	75	18638
2026-01-29 21:47:32.27	222.91	9.01	-48.1	-48.7	6.6	0.00e+00	0	44	104	0	67	15738
2026-01-29 21:47:33.24	223.06	9.09	-48.2	-48.8	6.6	0.00e+00	0	44	104	0	67	15942
2026-01-29 21:47:34.21	223.22	9.16	-48.3	-49.0	6.6	0.00e+00	0	44	104	0	67	16262
2026-01-29 21:47:35.18	223.37	9.23	-48.3	-49.0	6.6	0.00e+00	0	44	104	0	67	16286
2026-01-29 21:47:36.16	223.53	9.30	-48.5	-49.2	6.6	0.00e+00	0	44	104	0	67	16757
2026-01-29 21:47:37.13	223.69	9.37	-49.4	-50.3	6.4	0.00e+00	0	44	104	0	69	16933
2026-01-29 21:47:38.10	223.85	9.44	-52.7	-54.8	6.2	0.00e+00	0	44	104	0	75	19935
2026-01-29 21:47:39.07	224.01	9.51	-52.7	-54.8	6.2	0.00e+00	0	44	104	0	75	19980
2026-01-29 21:47:40.04	224.17	9.59	-49.5	-50.4	6.4	0.00e+00	0	44	104	0	69	17075
2026-01-29 21:47:41.01	224.34	9.66	-48.6	-49.2	6.7	0.00e+00	0	44	104	0	69	14898
2026-01-29 21:47:41.98	224.50	9.73	-48.6	-49.3	6.7	0.00e+00	0	44	104	0	69	14973
2026-01-29 21:47:42.95	224.66	9.80	-48.8	-49.4	6.6	0.00e+00	0	44	104	0	69	15265
2026-01-29 21:47:43.92	224.83	9.87	-49.4	-50.3	6.5	0.00e+00	0	44	104	0	69	16806
2026-01-29 21:47:44.90	225.00	9.95	-49.8	-50.7	6.4	0.00e+00	0	44	104	0	70	16736
2026-01-29 21:47:45.87	225.16	10.02	-44.0	-44.2	9.7	1.79e-02	0	44	0	33554432	58	15677
2026-01-29 21:47:46.84	225.33	10.09	-45.4	-45.6	8.8	1.90e-03	0	44	0	100663296	61	15630
2026-01-29 21:47:47.81	225.50	10.16	-27.3	-27.1	17.1	1.90e-06	0	44	0	125829120	25	14774
2026-01-29 21:47:48.78	225.67	10.24	-27.0	-26.9	17.3	1.90e-06	0	45	0	234881024	26	13506
2026-01-29 21:47:49.76	225.84	10.31	-26.8	-26.7	17.4	1.90e-06	0	44	0	352321536	25	14002
2026-01-29 21:47:50.73	226.01	10.38	-26.6	-26.5	17.4	0.00e+00	0	44	0	452984832	25	13636
2026-01-29 21:47:51.70	226.19	10.46	-26.4	-26.3	17.5	0.00e+00	0	44	0	562036736	24	14120
2026-01-29 21:47:52.68	226.36	10.53	-26.3	-26.2	17.6	0.00e+00	0	44	0	671088640	24	14014
2026-01-29 21:47:53.65	226.54	10.60	-26.4	-26.2	17.5	1.90e-06	0	44	0	788529152	24	14108
2026-01-29 21:47:54.62	226.71	10.68	-26.3	-26.1	17.6	0.00e+00	0	44	0	889192448	24	13925
2026-01-29 21:47:55.60	226.89	10.75	-26.3	-26.1	17.5	0.00e+00	0	44	0	998244352	24	13874
2026-01-29 21:47:56.57	227.07	10.82	-26.3	-26.1	17.3	0.00e+00	0	44	0	1115684864	24	13893
2026-01-29 21:47:57.54	227.25	10.90	-26.2	-26.0	17.6	0.00e+00	0	45	0	1224736768	24	13725
2026-01-29 21:47:58.52	227.43	10.97	-26.1	-26.0	17.7	1.90e-06	0	45	0	1325400064	24	13684
2026-01-29 21:47:59.49	227.61	11.04	-26.2	-26.1	17.5	0.00e+00	0	44	0	1442840576	24	13846
2026-01-29 21:48:00.46	227.79	11.12	-26.2	-26.0	17.6	0.00e+00	0	44	0	1551892480	24	13739
2026-01-29 21:48:01.43	227.98	11.19	-26.1	-25.9	17.7	0.00e+00	0	45	0	1652555776	24	13608
2026-01-29 21:48:02.40	228.16	11.26	-26.1	-25.9	17.4	1.90e-06	0	45	0	1769996288	24	13583
2026-01-29 21:48:03.38	228.35	11.34	-26.1	-25.9	17.7	0.00e+00	0	44	0	1879048192	24	13624
2026-01-29 21:48:04.34	228.53	11.41	-25.9	-25.8	17.6	0.00e+00	0	44	0	1988100096	23	14163
2026-01-29 21:48:05.31	228.72	11.48	-25.9	-25.8	17.8	0.00e+00	0	45	0	2088763392	23	14122
2026-01-29 21:48:06.28	228.91	11.56	-26.0	-25.8	17.6	0.00e+00	0	45	0	2206203904	23	14237
2026-01-29 21:48:07.25	229.10	11.63	-26.0	-25.8	17.5	0.00e+00	0	44	0	2315255808	23	14247
2026-01-29 21:48:08.22	229.29	11.71	-26.0	-25.8	17.7	0.00e+00	0	44	0	2415919104	23	14269
2026-01-29 21:48:09.19	229.48	11.78	-25.9	-25.7	17.6	0.00e+00	0	44	0	2533359616	23	14014
2026-01-29 21:48:10.16	229.67	11.85	-25.9	-25.7	17.6	1.90e-06	0	45	0	2642411520	23	14060
2026-01-29 21:48:11.13	229.87	11.93	-25.8	-25.7	17.6	1.90e-06	0	45	0	2759852032	23	14011
2026-01-29 21:48:12.10	230.06	12.00	-25.8	-25.7	17.7	0.00e+00	0	45	0	2860515328	23	13965
2026-01-29 21:48:13.08	230.26	12.08	-25.8	-25.7	17.7	0.00e+00	0	45	0	2969567232	23	13983
2026-01-29 21:48:14.05	230.46	12.15	-25.9	-25.7	17.6	0.00e+00	0	45	0	3078619136	23	14033
2026-01-29 21:48:15.02	230.66	12.22	-25.7	-25.5	17.8	0.00e+00	0	45	0	3179282432	23	13786
2026-01-29 21:48:15.98	230.86	12.30	-25.7	-25.5	17.8	0.00e+00	0	45	0	3296722944	23	13698
2026-01-29 21:48:16.95	231.06	12.37	-25.8	-25.6	17.6	0.00e+00	0	44	0	3405774848	23	13919
2026-01-29 21:48:17.92	231.26	12.45	-25.7	-25.6	17.9	0.00e+00	0	45	0	3506438144	23	13824
2026-01-29 21:48:18.89	231.46	12.52	-25.7	-25.5	17.8	0.00e+00	0	45	0	3623878656	23	13750
2026-01-29 21:48:19.86	231.67	12.59	-25.7	-25.6	17.7	0.00e+00	0	45	0	3732930560	23	13817
2026-01-29 21:48:20.84	231.88	12.67	-25.7	-25.5	17.7	0.00e+00	0	45	0	3850371072	23	13737
2026-01-29 21:48:21.81	232.08	12.74	-25.7	-25.6	17.8	1.90e-06	0	45	0	3951034368	23	13828
2026-01-29 21:48:22.78	232.29	12.82	-25.5	-25.4	17.7	0.00e+00	0	45	0	4060086272	23	13518
2026-01-29 21:48:23.75	232.50	12.89	-25.6	-25.4	17.7	1.90e-06	0	45	0	4177526784	23	13609
2026-01-29 21:48:24.72	232.71	12.96	-25.5	-25.4	17.7	0.00e+00	0	45	0	4278190080	23	13505
2026-01-29 21:48:25.69	232.92	13.04	-25.5	-25.4	17.8	0.00e+00	0	45	0	4387241984	23	13485
2026-01-29 21:48:26.66	233.14	13.11	-25.4	-25.2	17.6	0.00e+00	0	45	0	4496293888	22	14022
2026-01-29 21:48:27.63	233.35	13.18	-25.5	-25.3	17.8	0.00e+00	0	45	0	4613734400	22	14187
2026-01-29 21:48:28.61	233.57	13.26	-25.4	-25.3	17.7	0.00e+00	0	45	0	4714397696	22	14185
2026-01-29 21:48:29.58	233.78	13.33	-25.3	-25.2	17.5	0.00e+00	0	45	0	4823449600	22	13979
2026-01-29 21:48:30.55	234.00	13.41	-25.4	-25.2	17.7	0.00e+00	0	45	0	4940890112	22	14055
2026-01-29 21:48:31.52	234.22	13.48	-25.3	-25.2	17.8	0.00e+00	0	45	0	5041553408	22	13996
2026-01-29 21:48:32.49	234.44	13.55	-25.3	-25.1	17.5	0.00e+00	0	45	0	5150605312	22	13929
2026-01-29 21:48:33.45	234.66	13.63	-25.3	-25.1	17.7	0.00e+00	0	45	0	5268045824	22	13944
2026-01-29 21:48:34.42	234.88	13.70	-25.3	-25.1	17.7	0.00e+00	0	45	0	5368709120	22	13948
2026-01-29 21:48:35.39	235.11	13.77	-25.3	-25.1	17.6	0.00e+00	0	45	0	5477761024	22	13899
2026-01-29 21:48:36.37	235.34	13.85	-25.1	-25.0	17.5	0.00e+00	0	45	0	5595201536	22	13677
2026-01-29 21:48:37.34	235.56	13.92	-25.2	-25.1	17.7	0.00e+00	0	45	0	5704253440	22	13818
2026-01-29 21:48:38.31	235.79	13.99	-25.2	-25.0	17.3	0.00e+00	0	45	0	5804916736	22	13743
2026-01-29 21:48:39.28	236.02	14.07	-25.1	-24.9	17.5	0.00e+00	0	45	0	5913968640	22	13562
2026-01-29 21:48:40.25	236.25	14.14	-25.2	-25.0	17.6	0.00e+00	0	45	0	6031409152	22	13727
2026-01-29 21:48:41.22	236.48	14.21	-25.1	-25.0	17.5	0.00e+00	0	45	0	6132072448	22	13638
2026-01-29 21:48:42.19	236.72	14.28	-25.0	-24.9	17.6	1.90e-06	0	45	0	6241124352	22	13486
2026-01-29 21:48:43.16	236.95	14.36	-25.2	-25.0	17.5	0.00e+00	0	45	0	6358564864	22	13701
2026-01-29 21:48:44.13	237.19	14.43	-24.9	-24.8	17.6	0.00e+00	0	45	0	6467616768	21	14134
2026-01-29 21:48:45.11	237.43	14.50	-25.0	-24.8	17.3	0.00e+00	0	45	0	6568280064	21	14239
2026-01-29 21:48:46.07	237.66	14.57	-25.0	-24.8	17.5	0.00e+00	0	45	0	6685720576	21	14264
2026-01-29 21:48:47.04	237.90	14.65	-24.9	-24.7	17.6	0.00e+00	0	45	0	6794772480	21	14093
2026-01-29 21:48:48.01	238.14	14.72	-24.9	-24.7	17.2	0.00e+00	0	45	0	6895435776	21	14093
2026-01-29 21:48:48.98	238.39	14.79	-24.8	-24.7	17.3	1.90e-06	0	45	0	7004487680	21	13975
2026-01-29 21:48:49.96	238.63	14.86	-24.9	-24.7	17.3	0.00e+00	0	45	0	7121928192	21	14084
2026-01-29 21:48:50.93	238.88	14.93	-24.8	-24.6	17.2	0.00e+00	0	45	0	7222591488	21	13913
2026-01-29 21:48:51.90	239.12	15.00	-24.8	-24.7	17.1	0.00e+00	0	45	0	7331643392	21	13981
2026-01-29 21:48:52.88	239.37	15.08	-24.8	-24.6	17.1	0.00e+00	0	45	0	7449083904	21	13847
2026-01-29 21:48:53.85	239.62	15.15	-25.0	-24.8	17.3	0.00e+00	0	45	0	7558135808	21	14187
2026-01-29 21:48:54.82	239.87	15.22	-24.8	-24.6	17.1	0.00e+00	0	45	0	7658799104	21	13912
2026-01-29 21:48:55.79	240.12	15.29	-24.8	-24.6	17.2	0.00e+00	0	45	0	7776239616	21	13924
2026-01-29 21:48:56.76	240.38	15.36	-24.8	-24.6	17.4	0.00e+00	0	45	0	7885291520	21	13911
2026-01-29 21:48:57.73	240.63	15.43	-24.7	-24.6	17.1	1.90e-06	0	45	0	7994343424	21	13810
2026-01-29 21:48:58.70	240.89	15.50	-24.7	-24.5	17.3	0.00e+00	0	45	0	8103395328	21	13764
2026-01-29 21:48:59.67	241.15	15.57	-24.8	-24.6	17.1	0.00e+00	0	45	0	8212447232	21	13890
2026-01-29 21:49:00.65	241.41	15.64	-24.7	-24.6	17.0	0.00e+00	0	45	0	8321499136	21	13799
2026-01-29 21:49:01.62	241.67	15.71	-24.8	-24.7	16.8	0.00e+00	0	45	0	8422162432	21	13993
2026-01-29 21:49:02.59	241.93	15.78	-24.7	-24.5	17.0	0.00e+00	0	45	0	8539602944	21	13749
2026-01-29 21:49:03.57	242.19	15.84	-24.7	-24.5	16.9	0.00e+00	0	45	0	8648654848	21	13712
2026-01-29 21:49:04.53	242.46	15.91	-24.7	-24.5	16.8	0.00e+00	0	45	0	8766095360	21	13719
2026-01-29 21:49:05.50	242.72	15.98	-24.7	-24.5	16.6	0.00e+00	0	45	0	8866758656	21	13752
2026-01-29 21:49:06.47	242.99	16.05	-24.7	-24.5	16.9	0.00e+00	0	45	0	8975810560	21	13751
2026-01-29 21:49:07.45	243.26	16.12	-24.8	-24.6	16.4	0.00e+00	0	45	0	9093251072	21	13891
2026-01-29 21:49:08.41	243.52	16.18	-24.7	-24.5	16.5	0.00e+00	0	45	0	9193914368	21	13752
2026-01-29 21:49:09.38	243.80	16.25	-24.6	-24.5	16.9	0.00e+00	0	45	0	9302966272	21	13667
2026-01-29 21:49:10.36	244.07	16.32	-24.4	-24.2	16.6	0.00e+00	0	45	0	9412018176	20	14108
2026-01-29 21:49:11.33	244.34	16.38	-24.4	-24.2	16.7	0.00e+00	0	45	0	9521070080	20	14105
2026-01-29 21:49:12.30	244.62	16.45	-24.4	-24.2	16.8	0.00e+00	0	45	0	9630121984	20	14030
2026-01-29 21:49:13.27	244.90	16.51	-24.3	-24.1	16.8	0.00e+00	0	45	0	9739173888	20	13936
2026-01-29 21:49:14.24	245.17	16.58	-24.3	-24.1	16.4	1.90e-06	0	45	0	9856614400	20	13846
2026-01-29 21:49:15.21	245.45	16.64	-24.3	-24.1	16.4	0.00e+00	0	45	0	9957277696	20	13909
2026-01-29 21:49:16.18	245.73	16.71	-24.2	-24.1	16.6	1.90e-06	0	45	0	10066329600	20	13819
2026-01-29 21:49:17.15	246.01	16.77	-24.2	-24.0	16.8	0.00e+00	0	45	0	10183770112	20	13748
2026-01-29 21:49:18.12	246.30	16.84	-24.2	-24.1	16.7	5.70e-06	0	45	0	10284433408	20	13829
2026-01-29 21:49:19.09	246.58	16.90	-24.1	-24.0	16.6	0.00e+00	0	45	0	10393485312	20	13701
2026-01-29 21:49:20.07	246.87	16.96	-24.2	-24.0	16.3	0.00e+00	0	45	0	10510925824	20	13732
2026-01-29 21:49:21.04	247.16	17.02	-24.1	-24.0	16.3	0.00e+00	0	45	0	10619977728	20	13642
2026-01-29 21:49:22.01	247.45	17.09	-24.2	-24.0	16.0	1.90e-06	0	45	0	10720641024	20	13756
2026-01-29 21:49:22.98	247.74	17.15	-24.1	-24.0	16.0	1.90e-06	0	45	0	10829692928	20	13657
2026-01-29 21:49:23.95	248.03	17.21	-24.1	-24.0	16.2	1.90e-06	0	45	0	10947133440	20	13658
2026-01-29 21:49:24.92	248.32	17.27	-24.0	-23.9	16.0	0.00e+00	0	45	0	11047796736	20	13477
2026-01-29 21:49:25.90	248.62	17.33	-24.1	-24.0	15.8	0.00e+00	0	45	0	11156848640	20	13674
2026-01-29 21:49:26.87	248.91	17.39	-24.0	-23.8	15.9	0.00e+00	0	45	0	11274289152	20	13422
2026-01-29 21:49:27.84	249.21	17.45	-24.1	-24.0	15.8	0.00e+00	0	45	0	11383341056	19	14441
2026-01-29 21:49:28.82	249.51	17.51	-24.2	-24.0	15.8	3.80e-06	0	45	0	11484004352	19	14531
2026-01-29 21:49:29.79	249.81	17.57	-24.1	-23.9	15.7	1.90e-06	0	45	0	11601444864	19	14432
2026-01-29 21:49:30.76	250.11	17.62	-24.0	-23.8	15.8	0.00e+00	0	45	0	11710496768	19	14197
2026-01-29 21:49:31.73	250.41	17.68	-24.0	-23.8	15.8	5.70e-06	0	45	0	11819548672	19	14205
2026-01-29 21:49:32.71	250.71	17.74	-24.0	-23.8	15.9	0.00e+00	0	45	0	11928600576	19	14193
2026-01-29 21:49:33.69	251.02	17.79	-24.0	-23.9	15.7	1.90e-06	0	45	0	12037652480	19	14282
2026-01-29 21:49:34.66	251.33	17.85	-24.0	-23.9	15.6	7.60e-06	0	45	0	12146704384	19	14294
2026-01-29 21:49:35.63	251.63	17.91	-24.0	-23.8	15.5	5.70e-06	0	45	0	12264144896	19	14215
2026-01-29 21:49:36.61	251.94	17.96	-24.0	-23.8	15.7	1.90e-06	0	45	0	12364808192	19	14255
2026-01-29 21:49:37.58	252.25	18.01	-24.0	-23.8	15.8	7.60e-06	0	45	0	12473860096	19	14201
2026-01-29 21:49:38.55	252.56	18.07	-23.9	-23.8	15.6	5.70e-06	0	45	0	12591300608	19	14121
2026-01-29 21:49:39.52	252.87	18.12	-23.9	-23.7	15.3	0.00e+00	0	45	0	12691963904	19	14049
2026-01-29 21:49:40.49	253.19	18.17	-23.9	-23.7	15.5	3.80e-06	0	45	0	12801015808	19	14084
2026-01-29 21:49:41.47	253.50	18.22	-23.8	-23.6	15.6	7.60e-06	0	45	0	12918456320	19	13942
2026-01-29 21:49:42.44	253.82	18.27	-23.8	-23.7	15.5	5.70e-06	0	45	0	13027508224	19	13983
2026-01-29 21:49:43.41	254.14	18.32	-23.8	-23.7	15.5	9.50e-06	0	45	0	13128171520	19	13990
2026-01-29 21:49:44.37	254.45	18.37	-23.8	-23.6	15.5	5.70e-06	0	45	0	13237223424	19	13908
2026-01-29 21:49:45.35	254.77	18.42	-23.8	-23.7	15.3	3.80e-06	0	45	0	13354663936	19	13972
2026-01-29 21:49:46.33	255.09	18.47	-23.8	-23.7	15.6	3.80e-06	0	45	0	13455327232	19	14001
2026-01-29 21:49:47.30	255.42	18.52	-23.8	-23.7	15.4	9.50e-06	0	45	0	13564379136	19	13976
2026-01-29 21:49:48.28	255.74	18.57	-23.8	-23.6	15.2	1.90e-06	0	45	0	13681819648	19	13903
2026-01-29 21:49:49.25	256.06	18.61	-23.8	-23.6	15.5	0.00e+00	0	45	0	13790871552	19	13933
2026-01-29 21:49:50.22	256.39	18.66	-23.7	-23.6	15.3	3.80e-06	0	45	0	13891534848	19	13809
2026-01-29 21:49:51.20	256.72	18.70	-23.8	-23.6	15.6	7.60e-06	0	45	0	14008975360	19	13914
2026-01-29 21:49:52.17	257.04	18.75	-23.8	-23.6	15.2	7.60e-06	0	45	0	14118027264	19	13899
2026-01-29 21:49:53.14	257.37	18.79	-23.8	-23.7	15.6	7.60e-06	0	45	0	14227079168	19	13999
2026-01-29 21:49:54.11	257.70	18.83	-23.8	-23.7	15.3	1.90e-06	0	45	0	14336131072	19	13953
2026-01-29 21:49:55.08	258.03	18.87	-23.8	-23.6	15.7	1.14e-05	0	45	0	14445182976	19	13911
2026-01-29 21:49:56.06	258.36	18.91	-23.9	-23.7	15.4	3.80e-06	0	45	0	14554234880	19	14021
2026-01-29 21:49:57.03	258.69	18.95	-23.9	-23.7	15.7	1.90e-06	0	45	0	14671675392	19	13997
2026-01-29 21:49:58.00	259.02	18.99	-23.7	-23.6	15.6	7.60e-06	0	45	0	14772338688	19	13837
2026-01-29 21:49:58.97	259.36	19.03	-23.7	-23.5	15.4	5.70e-06	0	45	0	14881390592	19	13786
2026-01-29 21:49:59.95	259.69	19.07	-23.7	-23.5	15.7	3.80e-06	0	45	0	14998831104	19	13778
2026-01-29 21:50:00.92	260.03	19.11	-23.7	-23.6	15.7	0.00e+00	0	45	0	15099494400	19	13804
2026-01-29 21:50:01.89	260.36	19.14	-23.7	-23.5	15.5	1.90e-06	0	45	0	15208546304	19	13752
2026-01-29 21:50:02.86	260.70	19.18	-23.7	-23.5	16.0	1.90e-06	0	45	0	15325986816	19	13730
2026-01-29 21:50:03.83	261.04	19.21	-23.7	-23.5	15.5	1.90e-06	0	45	0	15435038720	19	13763
2026-01-29 21:50:04.80	261.38	19.25	-23.7	-23.5	15.5	5.70e-06	0	45	0	15535702016	19	13769
2026-01-29 21:50:05.77	261.72	19.28	-23.7	-23.6	16.0	7.60e-06	0	45	0	15644753920	19	13796
2026-01-29 21:50:06.74	262.06	19.31	-23.6	-23.5	15.9	0.00e+00	0	45	0	15762194432	19	13671
2026-01-29 21:50:07.71	262.40	19.34	-23.7	-23.5	16.0	0.00e+00	0	45	0	15862857728	19	13767
2026-01-29 21:50:08.69	262.74	19.37	-23.7	-23.5	15.8	0.00e+00	0	45	0	15971909632	19	13749
2026-01-29 21:50:09.66	263.08	19.40	-23.6	-23.5	16.1	3.80e-06	0	45	0	16089350144	19	13700
2026-01-29 21:50:10.63	263.43	19.43	-23.7	-23.5	16.0	0.00e+00	0	45	0	16198402048	19	13709
2026-01-29 21:50:11.60	263.77	19.46	-23.7	-23.5	16.1	3.80e-06	0	45	0	16299065344	19	13756
2026-01-29 21:50:12.58	264.12	19.49	-23.7	-23.5	15.9	1.90e-06	0	45	0	16416505856	19	13707
2026-01-29 21:50:13.54	264.46	19.51	-23.6	-23.5	16.0	1.90e-06	0	45	0	16525557760	19	13657
2026-01-29 21:50:14.52	264.81	19.54	-23.7	-23.6	16.0	0.00e+00	0	45	0	16626221056	19	13792
2026-01-29 21:50:15.49	265.16	19.56	-23.7	-23.5	16.2	0.00e+00	0	45	0	16743661568	19	13747
2026-01-29 21:50:16.46	265.50	19.58	-23.7	-23.6	16.4	1.90e-06	0	45	0	16852713472	19	13792
2026-01-29 21:50:17.43	265.85	19.61	-23.6	-23.5	16.5	0.00e+00	0	45	0	16961765376	19	13677
2026-01-29 21:50:18.40	266.20	19.63	-23.7	-23.5	16.7	0.00e+00	0	45	0	17062428672	19	13718
2026-01-29 21:50:19.38	266.55	19.65	-23.7	-23.5	16.7	0.00e+00	0	45	0	17179869184	19	13731
2026-01-29 21:50:20.35	266.90	19.67	-23.7	-23.5	16.5	0.00e+00	0	45	0	17288921088	19	13759
2026-01-29 21:50:21.32	267.25	19.69	-23.7	-23.5	16.7	0.00e+00	0	45	0	17389584384	19	13754
2026-01-29 21:50:22.29	267.60	19.70	-23.7	-23.6	16.8	0.00e+00	0	45	0	17507024896	19	13872
2026-01-29 21:50:23.27	267.95	19.72	-23.7	-23.5	16.7	1.90e-06	0	45	0	17616076800	19	13744
2026-01-29 21:50:24.23	268.30	19.73	-23.7	-23.6	16.7	0.00e+00	0	45	0	17733517312	19	13815
2026-01-29 21:50:25.20	268.65	19.75	-23.7	-23.5	16.9	0.00e+00	0	45	0	17834180608	19	13783
2026-01-29 21:50:26.17	269.00	19.76	-23.7	-23.6	17.0	1.90e-06	0	45	0	17943232512	19	13819
2026-01-29 21:50:27.15	269.36	19.78	-23.9	-23.7	16.9	0.00e+00	0	45	0	18052284416	19	14037
2026-01-29 21:50:28.12	269.71	19.79	-23.8	-23.6	16.9	1.90e-06	0	45	0	18161336320	19	13936
2026-01-29 21:50:29.09	270.06	19.80	-23.8	-23.6	17.0	0.00e+00	0	45	0	18270388224	19	13912
2026-01-29 21:50:30.06	270.41	19.81	-24.0	-23.8	17.0	0.00e+00	0	45	0	18379440128	19	14206
2026-01-29 21:50:31.03	270.77	19.82	-23.9	-23.8	17.0	0.00e+00	0	45	0	18496880640	19	14135
2026-01-29 21:50:32.00	271.12	19.82	-23.9	-23.7	17.1	0.00e+00	0	45	0	18597543936	19	14064
2026-01-29 21:50:32.97	271.47	19.83	-23.9	-23.7	17.3	0.00e+00	0	45	0	18706595840	19	14039
2026-01-29 21:50:33.94	271.83	19.84	-24.0	-23.9	17.3	0.00e+00	0	45	0	18824036352	19	14284
2026-01-29 21:50:34.92	272.18	19.84	-24.0	-23.9	17.3	0.00e+00	0	45	0	18924699648	19	14290
2026-01-29 21:50:35.89	272.54	19.85	-23.8	-23.6	17.5	0.00e+00	0	45	0	19033751552	19	13944
2026-01-29 21:50:36.86	272.89	19.85	-23.9	-23.7	17.5	0.00e+00	0	45	0	19151192064	19	14052
2026-01-29 21:50:37.83	273.24	19.85	-24.0	-23.8	17.5	0.00e+00	0	45	0	19260243968	19	14211
2026-01-29 21:50:38.81	273.60	19.85	-24.0	-23.8	17.9	0.00e+00	0	45	0	19360907264	19	14188
2026-01-29 21:50:39.77	273.95	19.85	-24.0	-23.8	18.1	0.00e+00	0	45	0	19469959168	19	14264
2026-01-29 21:50:40.74	274.30	19.85	-24.0	-23.8	18.0	0.00e+00	0	45	0	19587399680	19	14193
2026-01-29 21:50:41.72	274.66	19.85	-24.1	-23.9	18.2	0.00e+00	0	45	0	19688062976	19	14320
2026-01-29 21:50:42.69	275.02	19.85	-24.0	-23.8	18.4	0.00e+00	0	45	0	19797114880	19	14182
2026-01-29 21:50:43.66	275.37	19.84	-24.0	-23.8	18.3	0.00e+00	0	45	0	19914555392	19	14252
2026-01-29 21:50:44.62	275.72	19.84	-23.9	-23.8	18.4	0.00e+00	0	45	0	20015218688	19	14165
2026-01-29 21:50:45.60	276.08	19.83	-24.0	-23.9	18.5	0.00e+00	0	45	0	20124270592	19	14318
2026-01-29 21:50:46.57	276.43	19.82	-24.0	-23.8	18.5	0.00e+00	0	45	0	20241711104	19	14203
2026-01-29 21:50:47.54	276.78	19.82	-24.0	-23.8	18.4	0.00e+00	0	45	0	20350763008	19	14258
2026-01-29 21:50:48.51	277.13	19.81	-24.1	-24.0	18.7	0.00e+00	0	45	0	20451426304	19	14486
2026-01-29 21:50:49.48	277.49	19.80	-24.1	-23.9	18.7	0.00e+00	0	45	0	20568866816	19	14354
2026-01-29 21:50:50.45	277.84	19.79	-24.2	-24.0	18.8	0.00e+00	0	45	0	20677918720	19	14584
2026-01-29 21:50:51.42	278.19	19.77	-24.1	-24.0	18.8	0.00e+00	0	45	0	20778582016	19	14470
2026-01-29 21:50:52.39	278.54	19.76	-24.2	-24.0	18.8	0.00e+00	0	45	0	20887633920	19	14547
2026-01-29 21:50:53.36	278.89	19.75	-24.2	-24.0	19.0	0.00e+00	0	45	0	21005074432	19	14584
2026-01-29 21:50:54.33	279.24	19.73	-24.2	-24.1	19.0	0.00e+00	0	45	0	21114126336	19	14643
2026-01-29 21:50:55.30	279.59	19.72	-24.2	-24.1	19.0	0.00e+00	0	45	0	21214789632	19	14635
2026-01-29 21:50:56.28	279.95	19.70	-24.2	-24.1	19.0	0.00e+00	0	45	0	21332230144	19	14611
2026-01-29 21:50:57.25	280.30	19.68	-24.3	-24.1	19.1	0.00e+00	0	45	0	21441282048	19	14691
2026-01-29 21:50:58.22	280.65	19.66	-24.2	-24.0	19.1	0.00e+00	0	45	0	21541945344	19	14586
2026-01-29 21:50:59.19	280.99	19.64	-24.2	-24.1	19.2	0.00e+00	0	45	0	21659385856	19	14675
2026-01-29 21:51:00.16	281.34	19.62	-24.3	-24.1	19.2	0.00e+00	0	45	0	21768437760	19	14750
2026-01-29 21:51:01.13	281.69	19.60	-24.3	-24.1	19.2	0.00e+00	0	45	0	21877489664	19	14688
2026-01-29 21:51:02.10	282.04	19.58	-24.3	-24.1	19.2	0.00e+00	0	45	0	21978152960	19	14659
2026-01-29 21:51:03.08	282.39	19.56	-24.3	-24.1	19.2	0.00e+00	0	45	0	22095593472	19	14732
2026-01-29 21:51:04.04	282.73	19.53	-24.3	-24.1	19.2	0.00e+00	0	45	0	22204645376	19	14745
2026-01-29 21:51:05.01	283.07	19.51	-24.3	-24.2	19.1	0.00e+00	0	45	0	22305308672	19	14782
2026-01-29 21:51:05.99	283.42	19.48	-24.3	-24.2	19.2	0.00e+00	0	45	0	22422749184	19	14817
2026-01-29 21:51:06.96	283.77	19.46	-24.4	-24.2	19.0	0.00e+00	0	45	0	22531801088	19	14852
2026-01-29 21:51:07.93	284.11	19.43	-24.5	-24.3	18.9	0.00e+00	0	45	0	22649241600	19	15020
2026-01-29 21:51:08.90	284.45	19.40	-24.4	-24.2	18.9	0.00e+00	0	45	0	22749904896	19	14938
2026-01-29 21:51:09.87	284.79	19.37	-24.4	-24.2	19.0	0.00e+00	0	45	0	22858956800	19	14871
2026-01-29 21:51:10.85	285.14	19.34	-24.5	-24.4	19.0	0.00e+00	0	45	0	22976397312	19	15140
2026-01-29 21:51:11.82	285.48	19.31	-24.4	-24.3	18.9	0.00e+00	0	45	0	23077060608	19	15002
2026-01-29 21:51:12.79	285.82	19.28	-24.4	-24.2	19.0	0.00e+00	0	45	0	23186112512	19	14934
2026-01-29 21:51:13.76	286.15	19.24	-24.5	-24.4	18.9	0.00e+00	0	45	0	23295164416	19	15180
2026-01-29 21:51:14.74	286.50	19.21	-24.5	-24.3	18.8	0.00e+00	0	45	0	23412604928	19	15077
2026-01-29 21:51:15.71	286.83	19.17	-24.5	-24.4	18.8	0.00e+00	0	45	0	23513268224	19	15161
2026-01-29 21:51:16.68	287.17	19.14	-24.6	-24.5	18.6	0.00e+00	0	45	0	23622320128	19	15319
2026-01-29 21:51:17.65	287.50	19.10	-24.7	-24.5	18.5	0.00e+00	0	45	0	23739760640	19	15428
2026-01-29 21:51:18.63	287.84	19.07	-24.5	-24.3	18.7	0.00e+00	0	45	0	23840423936	20	14179
2026-01-29 21:51:19.60	288.17	19.03	-24.5	-24.4	18.8	0.00e+00	0	45	0	23949475840	20	14322
2026-01-29 21:51:20.57	288.51	18.99	-24.6	-24.5	18.7	0.00e+00	0	45	0	24066916352	20	14477
2026-01-29 21:51:21.55	288.84	18.95	-24.6	-24.5	18.5	0.00e+00	0	45	0	24175968256	20	14453
2026-01-29 21:51:22.52	289.17	18.91	-24.6	-24.4	18.4	0.00e+00	0	45	0	24276631552	20	14430
2026-01-29 21:51:23.49	289.50	18.87	-24.6	-24.4	18.3	0.00e+00	0	45	0	24385683456	20	14423
2026-01-29 21:51:24.46	289.83	18.83	-24.7	-24.5	18.3	0.00e+00	0	46	0	24503123968	20	14506
2026-01-29 21:51:25.43	290.16	18.78	-24.7	-24.5	18.2	0.00e+00	0	46	0	24603787264	20	14584
2026-01-29 21:51:26.40	290.48	18.74	-24.7	-24.5	18.2	0.00e+00	0	45	0	24712839168	20	14553
2026-01-29 21:51:27.38	290.81	18.70	-24.7	-24.6	18.2	0.00e+00	0	45	0	24830279680	20	14666
2026-01-29 21:51:28.35	291.14	18.65	-24.8	-24.6	18.3	0.00e+00	0	45	0	24939331584	20	14686
2026-01-29 21:51:29.32	291.46	18.61	-24.7	-24.6	18.1	0.00e+00	0	45	0	25039994880	20	14631
2026-01-29 21:51:30.30	291.78	18.56	-24.7	-24.6	18.0	0.00e+00	0	45	0	25157435392	20	14610
2026-01-29 21:51:31.27	292.11	18.51	-24.7	-24.5	18.1	0.00e+00	0	45	0	25266487296	20	14575
2026-01-29 21:51:32.24	292.43	18.47	-24.8	-24.6	18.2	0.00e+00	0	45	0	25383927808	20	14704
2026-01-29 21:51:33.22	292.75	18.42	-24.8	-24.7	18.0	0.00e+00	0	45	0	25484591104	20	14790
2026-01-29 21:51:34.18	293.06	18.37	-24.9	-24.7	17.9	0.00e+00	0	45	0	25593643008	20	14884
2026-01-29 21:51:35.16	293.38	18.32	-24.8	-24.7	18.0	0.00e+00	0	45	0	25702694912	20	14805
2026-01-29 21:51:36.13	293.70	18.27	-24.8	-24.7	18.1	0.00e+00	0	45	0	25820135424	20	14799
2026-01-29 21:51:37.10	294.01	18.22	-24.8	-24.6	18.0	0.00e+00	0	45	0	25920798720	20	14737
2026-01-29 21:51:38.07	294.32	18.17	-24.8	-24.7	17.8	0.00e+00	0	45	0	26029850624	20	14844
2026-01-29 21:51:39.04	294.63	18.12	-25.0	-24.8	17.9	0.00e+00	0	45	0	26147291136	20	15020
2026-01-29 21:51:40.02	294.95	18.06	-24.9	-24.7	17.8	0.00e+00	0	45	0	26247954432	20	14889
2026-01-29 21:51:40.99	295.26	18.01	-25.0	-24.9	17.7	0.00e+00	0	45	0	26357006336	20	15137
2026-01-29 21:51:41.96	295.57	17.96	-24.9	-24.7	17.7	0.00e+00	0	45	0	26474446848	20	14843
2026-01-29 21:51:42.93	295.87	17.90	-24.8	-24.7	17.8	0.00e+00	0	45	0	26575110144	20	14791
2026-01-29 21:51:43.90	296.18	17.85	-24.9	-24.7	17.9	0.00e+00	0	45	0	26684162048	20	14844
2026-01-29 21:51:44.88	296.48	17.79	-24.9	-24.7	17.8	0.00e+00	0	45	0	26793213952	20	14872
2026-01-29 21:51:45.85	296.79	17.74	-24.8	-24.7	17.9	0.00e+00	0	45	0	26910654464	20	14786
2026-01-29 21:51:46.82	297.09	17.68	-24.9	-24.8	17.6	0.00e+00	0	45	0	27011317760	20	15000
2026-01-29 21:51:47.78	297.39	17.62	-24.9	-24.7	17.6	0.00e+00	0	45	0	27120369664	20	14912
2026-01-29 21:51:48.75	297.69	17.57	-25.0	-24.8	17.6	0.00e+00	0	45	0	27237810176	20	15114
2026-01-29 21:51:49.72	297.98	17.51	-25.0	-24.8	17.9	0.00e+00	0	45	0	27338473472	20	15076
2026-01-29 21:51:50.69	298.28	17.45	-25.1	-24.9	17.8	0.00e+00	0	45	0	27447525376	20	15208
2026-01-29 21:51:51.66	298.58	17.39	-25.3	-25.2	17.7	0.00e+00	0	45	0	27564965888	21	14795
2026-01-29 21:51:52.63	298.87	17.33	-25.4	-25.2	17.6	0.00e+00	0	45	0	27674017792	21	14940
2026-01-29 21:51:53.61	299.17	17.27	-25.3	-25.1	17.8	0.00e+00	0	45	0	27774681088	21	14722
2026-01-29 21:51:54.58	299.46	17.21	-25.0	-24.9	17.9	0.00e+00	0	45	0	27892121600	21	14282
2026-01-29 21:51:55.55	299.75	17.15	-25.1	-24.9	17.8	0.00e+00	0	45	0	28001173504	21	14347
2026-01-29 21:51:56.53	300.04	17.09	-25.0	-24.9	17.9	0.00e+00	0	45	0	28101836800	21	14311
2026-01-29 21:51:57.50	300.33	17.03	-25.0	-24.9	17.9	0.00e+00	0	45	0	28210888704	21	14323
2026-01-29 21:51:58.47	300.61	16.96	-25.1	-24.9	17.8	0.00e+00	0	45	0	28328329216	21	14370
2026-01-29 21:51:59.44	300.90	16.90	-25.0	-24.9	17.9	0.00e+00	0	45	0	28437381120	21	14307
2026-01-29 21:52:00.41	301.18	16.84	-25.2	-25.0	17.9	0.00e+00	0	45	0	28538044416	21	14602
2026-01-29 21:52:01.38	301.46	16.78	-25.2	-25.0	17.6	0.00e+00	0	45	0	28655484928	21	14561
2026-01-29 21:52:02.35	301.74	16.71	-25.1	-25.0	17.9	0.00e+00	0	45	0	28764536832	21	14464
2026-01-29 21:52:03.32	302.02	16.65	-25.2	-25.1	17.8	1.90e-06	0	45	0	28865200128	21	14652
2026-01-29 21:52:04.29	302.30	16.58	-25.1	-24.9	18.1	0.00e+00	0	45	0	28982640640	21	14409
2026-01-29 21:52:05.26	302.58	16.52	-25.0	-24.8	18.1	0.00e+00	0	45	0	29091692544	21	14205
2026-01-29 21:52:06.23	302.85	16.45	-25.2	-25.0	18.0	0.00e+00	0	45	0	29200744448	21	14539
2026-01-29 21:52:07.21	303.13	16.39	-25.1	-24.9	18.1	0.00e+00	0	45	0	29309796352	21	14385
2026-01-29 21:52:08.18	303.40	16.32	-25.1	-24.9	18.0	0.00e+00	0	45	0	29418848256	21	14406
2026-01-29 21:52:09.15	303.67	16.26	-25.3	-25.1	18.1	0.00e+00	0	45	0	29527900160	21	14699
2026-01-29 21:52:10.12	303.94	16.19	-25.1	-24.9	18.0	0.00e+00	0	45	0	29628563456	21	14431
2026-01-29 21:52:11.10	304.21	16.12	-25.3	-25.1	18.0	0.00e+00	0	45	0	29746003968	21	14692
2026-01-29 21:52:12.07	304.48	16.05	-25.3	-25.2	17.9	0.00e+00	0	45	0	29855055872	21	14785
2026-01-29 21:52:13.04	304.75	15.99	-25.3	-25.1	18.0	0.00e+00	0	45	0	29972496384	21	14688
2026-01-29 21:52:14.01	305.01	15.92	-25.3	-25.1	18.1	1.90e-06	0	45	0	30073159680	21	14770
2026-01-29 21:52:14.98	305.27	15.85	-25.3	-25.1	17.9	0.00e+00	0	45	0	30182211584	21	14732
2026-01-29 21:52:15.95	305.53	15.78	-25.3	-25.1	18.1	0.00e+00	0	45	0	30299652096	21	14775
2026-01-29 21:52:16.92	305.79	15.72	-25.4	-25.3	17.9	0.00e+00	0	45	0	30400315392	21	14991
2026-01-29 21:52:17.90	306.06	15.65	-25.4	-25.2	18.0	0.00e+00	0	45	0	30509367296	21	14900
2026-01-29 21:52:18.87	306.31	15.58	-25.6	-25.4	17.8	0.00e+00	0	45	0	30618419200	21	15230
2026-01-29 21:52:19.85	306.57	15.51	-25.4	-25.2	17.8	0.00e+00	0	45	0	30735859712	21	14906
2026-01-29 21:52:20.82	306.83	15.44	-25.4	-25.2	17.9	0.00e+00	0	45	0	30836523008	21	14906
2026-01-29 21:52:21.79	307.08	15.37	-25.5	-25.3	17.7	0.00e+00	0	45	0	30945574912	21	15016
2026-01-29 21:52:22.76	307.33	15.30	-25.6	-25.5	17.8	0.00e+00	0	45	0	31063015424	21	15323
2026-01-29 21:52:23.73	307.58	15.23	-25.6	-25.4	17.8	0.00e+00	0	45	0	31172067328	21	15271
2026-01-29 21:52:24.70	307.83	15.16	-25.5	-25.4	17.6	0.00e+00	0	45	0	31272730624	21	15147
2026-01-29 21:52:25.68	308.08	15.09	-25.6	-25.4	17.6	0.00e+00	0	46	0	31390171136	21	15198
2026-01-29 21:52:26.65	308.33	15.02	-25.5	-25.3	17.6	0.00e+00	0	45	0	31499223040	21	15105
2026-01-29 21:52:27.62	308.58	14.95	-25.5	-25.3	17.6	0.00e+00	0	45	0	31599886336	21	15085
2026-01-29 21:52:28.60	308.82	14.87	-25.6	-25.4	17.4	0.00e+00	0	45	0	31717326848	21	15234
2026-01-29 21:52:29.57	309.07	14.80	-25.7	-25.5	17.5	0.00e+00	0	45	0	31826378752	21	15405
2026-01-29 21:52:30.54	309.31	14.73	-25.7	-25.5	17.7	0.00e+00	0	45	0	31935430656	22	14576
2026-01-29 21:52:31.51	309.55	14.66	-25.7	-25.6	17.7	0.00e+00	0	45	0	32036093952	22	14667
2026-01-29 21:52:32.48	309.79	14.59	-25.8	-25.6	17.3	0.00e+00	0	46	0	32153534464	22	14704
2026-01-29 21:52:33.45	310.02	14.52	-25.8	-25.7	17.2	0.00e+00	0	45	0	32262586368	22	14814
2026-01-29 21:52:34.43	310.26	14.44	-25.8	-25.7	17.2	0.00e+00	0	45	0	32363249664	22	14806
2026-01-29 21:52:35.40	310.50	14.37	-25.8	-25.7	17.4	0.00e+00	0	45	0	32480690176	22	14822
2026-01-29 21:52:36.37	310.73	14.30	-26.0	-25.8	17.5	0.00e+00	0	45	0	32589742080	22	15049
2026-01-29 21:52:37.35	310.97	14.23	-25.8	-25.7	17.4	0.00e+00	0	45	0	32707182592	22	14798
2026-01-29 21:52:38.32	311.20	14.15	-25.9	-25.8	17.5	1.90e-06	0	45	0	32807845888	22	15005
2026-01-29 21:52:39.29	311.43	14.08	-25.9	-25.7	17.4	0.00e+00	0	46	0	32916897792	22	14902
2026-01-29 21:52:40.27	311.66	14.01	-26.0	-25.8	17.3	0.00e+00	0	45	0	33025949696	22	15027
2026-01-29 21:52:41.23	311.88	13.94	-26.1	-25.9	17.2	1.90e-06	0	45	0	33143390208	22	15249
2026-01-29 21:52:42.20	312.11	13.86	-26.1	-25.9	17.2	0.00e+00	0	45	0	33244053504	22	15259
2026-01-29 21:52:43.17	312.33	13.79	-26.0	-25.9	17.1	1.90e-06	0	45	0	33353105408	22	15147
2026-01-29 21:52:44.15	312.56	13.72	-26.0	-25.8	17.0	1.90e-06	0	45	0	33470545920	22	15061
2026-01-29 21:52:45.12	312.78	13.64	-26.0	-25.9	17.0	0.00e+00	0	45	0	33571209216	22	15148
2026-01-29 21:52:46.08	313.00	13.57	-26.1	-25.9	17.0	1.90e-06	0	45	0	33680261120	22	15282
2026-01-29 21:52:47.06	313.22	13.50	-26.2	-26.1	16.9	1.90e-06	0	45	0	33797701632	22	15480
2026-01-29 21:52:48.04	313.44	13.42	-26.2	-26.1	16.9	0.00e+00	0	45	0	33906753536	23	14629
2026-01-29 21:52:49.01	313.66	13.35	-26.2	-26.1	16.9	3.80e-06	0	45	0	34007416832	23	14632
2026-01-29 21:52:49.98	313.87	13.28	-26.3	-26.1	16.9	1.90e-06	0	46	0	34124857344	23	14759
2026-01-29 21:52:50.95	314.09	13.20	-26.2	-26.1	16.9	1.90e-06	0	45	0	34233909248	23	14671
2026-01-29 21:52:51.92	314.30	13.13	-26.3	-26.1	17.1	0.00e+00	0	45	0	34334572544	23	14765
2026-01-29 21:52:52.89	314.51	13.06	-26.3	-26.1	17.1	1.90e-06	0	45	0	34443624448	23	14755
2026-01-29 21:52:53.87	314.73	12.98	-26.3	-26.2	17.2	0.00e+00	0	45	0	34561064960	23	14856
2026-01-29 21:52:54.84	314.94	12.91	-26.4	-26.3	17.2	0.00e+00	0	45	0	34670116864	23	14956
2026-01-29 21:52:55.81	315.14	12.84	-26.4	-26.2	17.0	0.00e+00	0	45	0	34770780160	23	14883
2026-01-29 21:52:56.78	315.35	12.76	-26.4	-26.2	16.9	0.00e+00	0	46	0	34888220672	23	14933
2026-01-29 21:52:57.75	315.56	12.69	-26.5	-26.3	16.8	0.00e+00	0	45	0	34997272576	23	15065
2026-01-29 21:52:58.72	315.76	12.62	-26.6	-26.4	17.0	0.00e+00	0	45	0	35097935872	23	15207
2026-01-29 21:52:59.69	315.97	12.54	-26.6	-26.5	17.2	0.00e+00	0	45	0	35215376384	23	15315
2026-01-29 21:53:00.66	316.17	12.47	-26.5	-26.3	16.9	1.90e-06	0	45	0	35324428288	23	15080
2026-01-29 21:53:01.63	316.37	12.40	-26.5	-26.4	16.6	0.00e+00	0	45	0	35433480192	23	15164
2026-01-29 21:53:02.61	316.57	12.32	-26.6	-26.4	16.5	0.00e+00	0	45	0	35542532096	23	15265
2026-01-29 21:53:03.58	316.77	12.25	-26.6	-26.4	16.7	1.90e-06	0	45	0	35651584000	23	15234
2026-01-29 21:53:04.55	316.97	12.17	-26.8	-26.6	16.7	1.90e-06	0	45	0	35760635904	24	14692
2026-01-29 21:53:05.52	317.17	12.10	-26.7	-26.6	16.4	5.70e-06	0	46	0	35861299200	24	14673
2026-01-29 21:53:06.50	317.36	12.03	-26.8	-26.6	16.3	1.90e-06	0	45	0	35978739712	24	14739
2026-01-29 21:53:07.47	317.56	11.95	-26.7	-26.5	16.5	7.60e-06	0	45	0	36087791616	24	14556
2026-01-29 21:53:08.44	317.75	11.88	-26.8	-26.6	16.2	0.00e+00	0	46	0	36205232128	24	14684
2026-01-29 21:53:09.42	317.95	11.81	-26.7	-26.6	16.1	0.00e+00	0	46	0	36305895424	24	14628
2026-01-29 21:53:10.39	318.14	11.73	-26.9	-26.7	16.3	1.90e-06	0	45	0	36414947328	24	14868
2026-01-29 21:53:11.36	318.33	11.66	-26.8	-26.7	16.3	5.70e-06	0	46	0	36532387840	24	14831
2026-01-29 21:53:12.33	318.52	11.59	-26.8	-26.6	16.1	9.50e-06	0	46	0	36633051136	24	14743
2026-01-29 21:53:13.31	318.71	11.51	-26.9	-26.7	16.4	7.60e-06	0	45	0	36742103040	24	14918
2026-01-29 21:53:14.28	318.89	11.44	-26.9	-26.8	16.2	3.80e-06	0	45	0	36851154944	24	15001
2026-01-29 21:53:15.25	319.08	11.37	-27.1	-26.9	16.0	5.70e-06	0	45	0	36968595456	24	15196
2026-01-29 21:53:16.22	319.26	11.29	-27.0	-26.8	16.3	1.90e-06	0	45	0	37069258752	24	15091
2026-01-29 21:53:17.19	319.45	11.22	-27.0	-26.9	16.1	1.33e-05	0	45	0	37178310656	24	15164
2026-01-29 21:53:18.17	319.63	11.15	-26.9	-26.8	16.4	3.80e-06	0	45	0	37295751168	24	14976
2026-01-29 21:53:19.14	319.81	11.07	-27.0	-26.9	16.0	1.90e-06	0	45	0	37404803072	24	15128
2026-01-29 21:53:20.11	319.99	11.00	-27.1	-26.9	16.3	1.14e-05	0	45	0	37505466368	24	15250
2026-01-29 21:53:21.08	320.17	10.93	-27.1	-27.0	16.2	1.90e-06	0	45	0	37622906880	24	15342
2026-01-29 21:53:22.05	320.35	10.85	-27.3	-27.1	16.3	1.14e-05	0	46	0	37731958784	25	14695
2026-01-29 21:53:23.02	320.53	10.78	-27.3	-27.1	16.0	9.50e-06	0	45	0	37832622080	25	14732
2026-01-29 21:53:24.00	320.71	10.71	-27.3	-27.1	16.3	1.71e-05	0	45	0	37941673984	25	14771
2026-01-29 21:53:24.97	320.88	10.64	-27.2	-27.1	16.1	5.70e-06	0	45	0	38059114496	25	14639
2026-01-29 21:53:25.94	321.05	10.56	-27.2	-27.0	16.5	3.80e-06	0	45	0	38168166400	25	14582
2026-01-29 21:53:26.91	321.23	10.49	-27.5	-27.3	16.1	3.80e-06	0	45	0	38268829696	25	15060
2026-01-29 21:53:27.89	321.40	10.42	-27.4	-27.2	16.4	9.50e-06	0	45	0	38386270208	25	14915
2026-01-29 21:53:28.86	321.57	10.35	-27.4	-27.2	16.3	9.50e-06	0	45	0	38495322112	25	14895
2026-01-29 21:53:29.83	321.74	10.27	-27.3	-27.1	16.2	1.90e-06	0	46	0	38612762624	25	14723
2026-01-29 21:53:30.80	321.91	10.20	-27.4	-27.2	16.4	5.70e-06	0	46	0	38713425920	25	14879
2026-01-29 21:53:31.77	322.08	10.13	-48.2	-48.7	8.0	0.00e+00	0	45	104	38763757568	67	15679
2026-01-29 21:53:32.74	322.25	10.06	-53.4	-55.6	6.2	0.00e+00	0	45	104	38763757568	77	19493
2026-01-29 21:53:33.72	322.42	9.98	-53.4	-55.5	6.2	0.00e+00	0	45	104	38763757568	77	19382
2026-01-29 21:53:34.69	322.58	9.91	-53.4	-55.5	6.2	0.00e+00	0	45	104	38763757568	77	19299
2026-01-29 21:53:35.66	322.75	9.84	-53.4	-55.5	6.2	0.00e+00	0	45	104	38763757568	77	19283
2026-01-29 21:53:36.63	322.91	9.77	-53.3	-55.4	6.2	0.00e+00	0	45	104	38763757568	77	19200
2026-01-29 21:53:37.61	323.07	9.70	-53.4	-55.5	6.2	0.00e+00	0	45	104	38763757568	77	19310
2026-01-29 21:53:38.58	323.24	9.63	-53.3	-55.4	6.2	0.00e+00	0	45	104	38763757568	77	19182
2026-01-29 21:53:39.55	323.40	9.56	-53.4	-55.5	6.2	0.00e+00	0	45	104	38763757568	77	19282
2026-01-29 21:53:40.52	323.56	9.48	-53.3	-55.5	6.2	0.00e+00	0	45	104	38763757568	77	19271
2026-01-29 21:53:41.49	323.72	9.41	-53.3	-55.4	6.2	0.00e+00	0	45	104	38763757568	77	19132
2026-01-29 21:53:42.46	323.87	9.34	-53.3	-55.3	6.2	0.00e+00	0	45	104	38763757568	77	19022
2026-01-29 21:53:43.44	324.03	9.27	-53.3	-55.4	6.2	0.00e+00	0	45	104	38763757568	77	19086
2026-01-29 21:53:44.41	324.19	9.20	-53.3	-55.4	6.2	0.00e+00	0	45	104	38763757568	77	19214
2026-01-29 21:53:45.38	324.34	9.13	-53.3	-55.4	6.2	0.00e+00	0	45	104	38763757568	77	19036
2026-01-29 21:53:46.35	324.50	9.06	-53.2	-55.3	6.2	0.00e+00	0	45	104	38763757568	77	18959
2026-01-29 21:53:47.32	324.65	8.99	-53.2	-55.3	6.2	0.00e+00	0	45	104	38763757568	77	18888
2026-01-29 21:53:48.30	324.81	8.92	-53.3	-55.4	6.2	0.00e+00	0	45	104	38763757568	77	19106
2026-01-29 21:53:49.27	324.96	8.85	-53.2	-55.3	6.2	0.00e+00	0	45	104	38763757568	77	18920
2026-01-29 21:53:50.24	325.11	8.78	-53.1	-55.2	6.2	0.00e+00	0	45	104	38763757568	77	18729
2026-01-29 21:53:51.21	325.26	8.71	-53.1	-55.2	6.2	0.00e+00	0	45	104	38763757568	77	18738
2026-01-29 21:53:52.18	325.41	8.64	-53.2	-55.3	6.2	0.00e+00	0	45	104	38763757568	77	18998
2026-01-29 21:53:53.16	325.56	8.57	-53.1	-55.2	6.2	0.00e+00	0	45	104	38763757568	77	18792
2026-01-29 21:53:54.13	325.71	8.50	-53.1	-55.2	6.2	0.00e+00	0	45	104	38763757568	77	18730
2026-01-29 21:53:55.11	325.85	8.43	-53.1	-55.2	6.2	0.00e+00	0	45	104	38763757568	77	18665
2026-01-29 21:53:56.08	326.00	8.36	-53.2	-55.3	6.2	0.00e+00	0	45	104	38763757568	77	18894
2026-01-29 21:53:57.05	326.14	8.29	-53.1	-55.2	6.2	0.00e+00	0	45	104	38763757568	77	18690
2026-01-29 21:53:58.02	326.29	8.22	-53.1	-55.2	6.2	0.00e+00	0	45	104	38763757568	77	18615
2026-01-29 21:53:58.99	326.43	8.15	-53.0	-55.1	6.2	0.00e+00	0	45	104	38763757568	77	18457
2026-01-29 21:53:59.96	326.58	8.08	-53.1	-55.2	6.2	0.00e+00	0	45	104	38763757568	77	18781
2026-01-29 21:54:00.94	326.72	8.01	-53.0	-55.2	6.2	0.00e+00	0	45	104	38763757568	77	18643
2026-01-29 21:54:01.91	326.86	7.94	-53.0	-55.1	6.2	0.00e+00	0	45	104	38763757568	77	18508
2026-01-29 21:54:02.88	327.00	7.87	-53.0	-55.0	6.2	0.00e+00	0	45	104	38763757568	77	18389
2026-01-29 21:54:03.85	327.14	7.80	-53.1	-55.2	6.2	0.00e+00	0	45	104	38763757568	77	18643
2026-01-29 21:54:04.82	327.28	7.73	-53.0	-55.1	6.2	0.00e+00	0	45	104	38763757568	77	18426
2026-01-29 21:54:05.79	327.42	7.67	-53.0	-55.1	6.2	0.00e+00	0	45	104	38763757568	77	18431
2026-01-29 21:54:06.76	327.55	7.60	-52.9	-55.0	6.2	0.00e+00	0	45	104	38763757568	77	18311
2026-01-29 21:54:07.74	327.69	7.53	-53.0	-55.1	6.2	0.00e+00	0	45	104	38763757568	77	18521
2026-01-29 21:54:08.71	327.83	7.46	-52.9	-55.0	6.2	0.00e+00	0	45	104	38763757568	77	18321
2026-01-29 21:54:09.69	327.96	7.39	-52.9	-55.0	6.2	0.00e+00	0	45	104	38763757568	77	18290
2026-01-29 21:54:10.66	328.10	7.32	-52.9	-55.0	6.2	0.00e+00	0	45	104	38763757568	77	18198
2026-01-29 21:54:11.63	328.23	7.26	-53.0	-55.1	6.2	0.00e+00	0	45	104	38763757568	77	18403
2026-01-29 21:54:12.60	328.36	7.19	-52.9	-55.0	6.2	0.00e+00	0	45	104	38763757568	77	18269
2026-01-29 21:54:13.57	328.50	7.12	-52.9	-55.0	6.2	0.00e+00	0	45	104	38763757568	77	18212
2026-01-29 21:54:14.54	328.63	7.05	-52.9	-54.9	6.2	0.00e+00	0	45	104	38763757568	77	18159
2026-01-29 21:54:15.51	328.76	6.99	-52.9	-55.0	6.2	0.00e+00	0	45	104	38763757568	77	18276
2026-01-29 21:54:16.49	328.89	6.92	-52.9	-55.0	6.2	0.00e+00	0	45	104	38763757568	77	18270
2026-01-29 21:54:17.47	329.02	6.85	-52.9	-55.0	6.2	0.00e+00	0	45	104	38763757568	77	18252
2026-01-29 21:54:18.44	329.15	6.79	-52.8	-54.9	6.2	0.00e+00	0	45	104	38763757568	77	18127
2026-01-29 21:54:19.41	329.28	6.72	-52.8	-54.9	6.2	0.00e+00	0	45	104	38763757568	77	18097
2026-01-29 21:54:20.39	329.41	6.65	-52.8	-55.0	6.2	0.00e+00	0	45	104	38763757568	77	18207
2026-01-29 21:54:21.35	329.53	6.59	-52.8	-54.9	6.2	0.00e+00	0	45	104	38763757568	77	18139
2026-01-29 21:54:22.33	329.66	6.52	-52.8	-54.9	6.2	0.00e+00	0	45	104	38763757568	77	17995
2026-01-29 21:54:23.29	329.78	6.45	-52.8	-54.9	6.2	0.00e+00	0	45	104	38763757568	77	18011
2026-01-29 21:54:24.26	329.91	6.39	-52.8	-54.9	6.2	0.00e+00	0	45	104	38763757568	77	18125
2026-01-29 21:54:25.24	330.03	6.32	-52.8	-54.9	6.2	0.00e+00	0	45	104	38763757568	77	17972
2026-01-29 21:54:26.21	330.15	6.25	-52.8	-54.8	6.2	0.00e+00	0	45	104	38763757568	77	17945
2026-01-29 21:54:27.18	330.28	6.19	-52.7	-54.8	6.2	0.00e+00	0	45	104	38763757568	77	17866
2026-01-29 21:54:28.15	330.40	6.12	-52.8	-54.9	6.2	0.00e+00	0	45	104	38763757568	77	18103
2026-01-29 21:54:29.13	330.52	6.06	-52.7	-54.8	6.2	0.00e+00	0	45	104	38763757568	77	17851
2026-01-29 21:54:30.10	330.64	5.99	-52.7	-54.8	6.2	0.00e+00	0	45	104	38763757568	77	17867
2026-01-29 21:54:31.08	330.76	5.93	-52.7	-54.8	6.2	0.00e+00	0	45	104	38763757568	77	17803
2026-01-29 21:54:32.05	330.88	5.86	-52.8	-54.9	6.2	0.00e+00	0	45	104	38763757568	77	18033
2026-01-29 21:54:33.01	331.00	5.80	-52.7	-54.8	6.2	0.00e+00	0	45	104	38763757568	77	17828
2026-01-29 21:54:33.99	331.12	5.73	-52.7	-54.8	6.2	0.00e+00	0	45	104	38763757568	77	17829
2026-01-29 21:54:34.95	331.23	5.67	-52.6	-54.7	6.2	0.00e+00	0	45	104	38763757568	77	17692
2026-01-29 21:54:35.92	331.35	5.60	-52.7	-54.8	6.2	0.00e+00	0	45	104	38763757568	77	17941
2026-01-29 21:54:36.90	331.47	5.54	-52.6	-54.7	6.2	0.00e+00	0	45	104	38763757568	77	17719
2026-01-29 21:54:37.87	331.58	5.47	-52.6	-54.7	6.2	0.00e+00	0	45	104	38763757568	77	17757
2026-01-29 21:54:38.84	331.70	5.41	-52.6	-54.7	6.2	0.00e+00	0	45	104	38763757568	77	17585
2026-01-29 21:54:39.82	331.81	5.34	-52.7	-54.8	6.2	0.00e+00	0	45	104	38763757568	77	17832
2026-01-29 21:54:40.79	331.93	5.28	-52.6	-54.6	6.2	0.00e+00	0	45	104	38763757568	77	17545
2026-01-29 21:54:41.76	332.04	5.22	-52.6	-54.7	6.2	0.00e+00	0	45	104	38763757568	77	17607
2026-01-29 21:54:42.74	332.16	5.15	-52.5	-54.6	6.2	0.00e+00	0	45	104	38763757568	77	17405
2026-01-29 21:54:43.71	332.27	5.09	-52.6	-54.7	6.2	0.00e+00	0	45	104	38763757568	76	18675
2026-01-29 21:54:44.68	332.38	5.02	-52.5	-54.6	6.2	0.00e+00	0	45	104	38763757568	76	18395
2026-01-29 21:54:45.65	332.49	4.96	-52.5	-54.6	6.2	0.00e+00	0	45	104	38763757568	76	18501
2026-01-29 21:54:46.62	332.60	4.90	-53.0	-55.1	6.2	0.00e+00	0	45	104	38763757568	76	19583
2026-01-29 21:54:47.59	332.71	4.83	-53.4	-55.5	6.2	0.00e+00	0	45	104	38763757568	77	19309
2026-01-29 21:54:48.57	332.82	4.77	-53.6	-55.6	6.2	0.00e+00	0	45	104	38763757568	77	19696
2026-01-29 21:54:49.54	332.93	4.71	-53.7	-55.8	6.2	0.00e+00	0	45	104	38763757568	77	20000
2026-01-29 21:54:50.51	333.04	4.65	-53.8	-55.9	6.2	0.00e+00	0	45	104	38763757568	78	19084
2026-01-29 21:54:51.48	333.14	4.58	-53.8	-55.9	6.2	0.00e+00	0	45	104	38763757568	78	19170
2026-01-29 21:54:52.46	333.25	4.52	-53.8	-55.9	6.2	0.00e+00	0	45	104	38763757568	78	19158
2026-01-29 21:54:53.43	333.36	4.46	-53.8	-55.9	6.2	0.00e+00	0	45	104	38763757568	78	19224
2026-01-29 21:54:54.40	333.46	4.39	-53.8	-55.9	6.2	0.00e+00	0	45	104	38763757568	78	19173
2026-01-29 21:54:55.37	333.57	4.33	-53.7	-55.8	6.2	0.00e+00	0	45	104	38763757568	78	19002
2026-01-29 21:54:56.34	333.67	4.27	-53.6	-55.7	6.2	0.00e+00	0	45	104	38763757568	78	18758
2026-01-29 21:54:57.31	333.78	4.21	-53.5	-55.6	6.2	0.00e+00	0	45	104	38763757568	78	18514
2026-01-29 21:54:58.28	333.88	4.15	-53.5	-55.6	6.2	0.00e+00	0	45	104	38763757568	78	18547
2026-01-29 21:54:59.25	333.99	4.09	-53.5	-55.6	6.2	0.00e+00	0	45	104	38763757568	78	18568
2026-01-29 21:55:00.23	334.09	4.02	-53.6	-55.7	6.2	0.00e+00	0	45	104	38763757568	78	18633
2026-01-29 21:55:01.20	334.19	3.96	-53.6	-55.7	6.2	0.00e+00	0	45	104	38763757568	78	18692
2026-01-29 21:55:02.17	334.29	3.90	-53.6	-55.7	6.2	0.00e+00	0	45	104	38763757568	78	18747
2026-01-29 21:55:03.15	334.40	3.84	-53.6	-55.7	6.2	0.00e+00	0	45	104	38763757568	78	18792
2026-01-29 21:55:04.12	334.50	3.78	-53.7	-55.8	6.2	0.00e+00	0	45	104	38763757568	78	18841
2026-01-29 21:55:05.09	334.60	3.72	-53.7	-55.8	6.2	0.00e+00	0	45	104	38763757568	78	18878
2026-01-29 21:55:06.06	334.70	3.66	-53.7	-55.8	6.2	0.00e+00	0	44	104	38763757568	78	18843
2026-01-29 21:55:07.04	334.80	3.59	-53.7	-55.8	6.2	0.00e+00	0	45	104	38763757568	78	18936
2026-01-29 21:55:08.01	334.90	3.53	-53.7	-55.8	6.2	0.00e+00	0	45	104	38763757568	78	18888
2026-01-29 21:55:08.99	335.00	3.47	-53.6	-55.7	6.2	0.00e+00	0	45	104	38763757568	78	18744
2026-01-29 21:55:09.96	335.09	3.41	-53.6	-55.8	6.2	0.00e+00	0	45	104	38763757568	78	18839
2026-01-29 21:55:10.93	335.19	3.35	-53.6	-55.7	6.2	0.00e+00	0	45	104	38763757568	78	18716
2026-01-29 21:55:11.90	335.29	3.29	-53.6	-55.7	6.2	0.00e+00	0	45	104	38763757568	78	18749
2026-01-29 21:55:12.87	335.38	3.23	-53.6	-55.7	6.2	0.00e+00	0	45	104	38763757568	78	18748
2026-01-29 21:55:13.85	335.48	3.17	-53.6	-55.7	6.2	0.00e+00	0	45	104	38763757568	78	18700
2026-01-29 21:55:14.82	335.58	3.11	-53.6	-55.7	6.2	0.00e+00	0	45	104	38763757568	78	18692
2026-01-29 21:55:15.79	335.67	3.05	-53.6	-55.7	6.2	0.00e+00	0	45	104	38763757568	78	18618
2026-01-29 21:55:16.76	335.77	2.99	-53.6	-55.7	6.2	0.00e+00	0	45	104	38763757568	78	18669
2026-01-29 21:55:17.73	335.86	2.93	-53.6	-55.7	6.2	0.00e+00	0	45	104	38763757568	78	18645
2026-01-29 21:55:18.70	335.95	2.87	-53.6	-55.7	6.2	0.00e+00	0	45	104	38763757568	78	18654
2026-01-29 21:55:19.67	336.05	2.81	-53.6	-55.7	6.2	0.00e+00	0	45	104	38763757568	78	18625
2026-01-29 21:55:20.64	336.14	2.75	-53.5	-55.6	6.2	0.00e+00	0	45	104	38763757568	78	18586
2026-01-29 21:55:21.61	336.23	2.70	-53.5	-55.6	6.2	0.00e+00	0	45	104	38763757568	78	18572
2026-01-29 21:55:22.58	336.32	2.64	-53.5	-55.6	6.2	0.00e+00	0	45	104	38763757568	78	18518
2026-01-29 21:55:23.56	336.42	2.58	-53.5	-55.6	6.2	0.00e+00	0	45	104	38763757568	78	18502
2026-01-29 21:55:24.53	336.51	2.52	-53.5	-55.6	6.2	0.00e+00	0	45	104	38763757568	78	18562
2026-01-29 21:55:25.51	336.60	2.46	-53.5	-55.6	6.2	0.00e+00	0	45	104	38763757568	78	18475
2026-01-29 21:55:26.47	336.69	2.40	-53.5	-55.6	6.2	0.00e+00	0	45	104	38763757568	78	18564
2026-01-29 21:55:27.45	336.78	2.34	-53.5	-55.6	6.2	0.00e+00	0	45	104	38763757568	78	18507
2026-01-29 21:55:28.42	336.87	2.28	-53.5	-55.6	6.2	0.00e+00	0	45	104	38763757568	78	18481
2026-01-29 21:55:29.39	336.96	2.23	-53.5	-55.6	6.2	0.00e+00	0	45	104	38763757568	78	18433
2026-01-29 21:55:30.36	337.04	2.17	-53.5	-55.6	6.2	0.00e+00	0	45	104	38763757568	78	18413
2026-01-29 21:55:31.33	337.13	2.11	-53.5	-55.6	6.2	0.00e+00	0	45	104	38763757568	78	18433
2026-01-29 21:55:32.30	337.22	2.05	-53.5	-55.6	6.2	0.00e+00	0	45	104	38763757568	78	18473
2026-01-29 21:55:33.27	337.31	1.99	-53.5	-55.5	6.2	0.00e+00	0	45	104	38763757568	78	18336
2026-01-29 21:55:34.24	337.39	1.94	-53.5	-55.6	6.2	0.00e+00	0	45	104	38763757568	78	18436

#Closed at: 2026-01-29 21:55:34
#Recorded file [38763 MB]: D:/lorett/data/31041_260130_004548.dat