passes_logs/2026/01/29/R3.2S_Murmansk/R3.2S_Murmansk__20260129_212434_JL1KF02B01_rec.log

#Pass ID: 20260129_212434_JL1KF02B01
#Satellite: JL1KF02B01
#Configuration: 01B_900M
#almurnet v.1.7.20251203
#Start time: 2026-01-29 21:24:34

#Version: 2.2.20231116
#Station: R3.2S_Murmansk
#Location: 33.079688 lon 68.888172 lat
#TLE: 1 61191U 24169C   26028.95513050  .00007507  00000+0  46820-3 0  9997
#TLE: 2 61191  97.5609 120.3307 0014645  79.9682 280.3199 15.09725114 74821

#Time	Az	El	Level	Level2	SNR	BER	BlckErr	Temp	State	Recorded	gain1	gain2
2026-01-29 21:24:34.58	200.36	2.02	-54.2	-56.2	6.2	0.00e+00	0	42	0	0	79	18795
2026-01-29 21:24:35.59	200.43	2.08	-54.1	-56.2	6.2	0.00e+00	0	42	104	0	79	18800
2026-01-29 21:24:36.60	200.51	2.15	-54.1	-56.2	6.2	0.00e+00	0	42	104	0	79	18729
2026-01-29 21:24:37.60	200.59	2.21	-54.1	-56.2	6.2	0.00e+00	0	42	104	0	79	18737
2026-01-29 21:24:38.61	200.66	2.27	-54.1	-56.2	6.2	0.00e+00	0	42	104	0	79	18764
2026-01-29 21:24:39.62	200.74	2.34	-54.1	-56.2	6.2	0.00e+00	0	42	104	0	79	18741
2026-01-29 21:24:40.63	200.82	2.40	-54.1	-56.2	6.2	0.00e+00	0	42	104	0	79	18748
2026-01-29 21:24:41.63	200.90	2.47	-54.1	-56.2	6.2	0.00e+00	0	42	104	0	79	18722
2026-01-29 21:24:42.64	200.98	2.53	-54.1	-56.2	6.2	0.00e+00	0	42	104	0	79	18682
2026-01-29 21:24:43.65	201.06	2.60	-54.2	-56.3	6.2	0.00e+00	0	42	104	0	79	18882
2026-01-29 21:24:44.65	201.14	2.66	-54.3	-56.3	6.2	0.00e+00	0	42	104	0	79	19001
2026-01-29 21:24:45.66	201.22	2.73	-54.3	-56.4	6.2	0.00e+00	0	42	104	0	79	19123
2026-01-29 21:24:46.67	201.30	2.79	-54.3	-56.3	6.2	0.00e+00	0	42	104	0	79	19030
2026-01-29 21:24:47.68	201.38	2.86	-54.3	-56.4	6.2	0.00e+00	0	42	104	0	79	19130
2026-01-29 21:24:48.68	201.46	2.92	-54.3	-56.3	6.2	0.00e+00	0	42	104	0	79	19015
2026-01-29 21:24:49.69	201.54	2.99	-54.3	-56.3	6.2	0.00e+00	0	43	104	0	79	18988
2026-01-29 21:24:50.70	201.63	3.06	-54.2	-56.3	6.2	0.00e+00	0	42	104	0	79	18950
2026-01-29 21:24:51.70	201.71	3.12	-54.2	-56.3	6.2	0.00e+00	0	43	104	0	79	18923
2026-01-29 21:24:52.71	201.79	3.19	-54.2	-56.3	6.2	0.00e+00	0	42	104	0	79	18902
2026-01-29 21:24:53.71	201.87	3.25	-54.2	-56.2	6.2	0.00e+00	0	42	104	0	79	18808
2026-01-29 21:24:54.72	201.96	3.32	-54.1	-56.2	6.2	0.00e+00	0	42	104	0	79	18709
2026-01-29 21:24:55.73	202.04	3.39	-54.1	-56.2	6.2	0.00e+00	0	43	104	0	79	18706
2026-01-29 21:24:56.73	202.13	3.46	-54.1	-56.1	6.2	0.00e+00	0	43	104	0	79	18579
2026-01-29 21:24:57.74	202.21	3.52	-54.0	-56.1	6.2	0.00e+00	0	43	104	0	79	18500
2026-01-29 21:24:58.75	202.30	3.59	-53.9	-56.1	6.2	0.00e+00	0	42	104	0	79	18392
2026-01-29 21:24:59.75	202.39	3.66	-53.9	-56.0	6.2	0.00e+00	0	43	104	0	79	18217
2026-01-29 21:25:00.76	202.47	3.73	-53.8	-55.9	6.2	0.00e+00	0	43	104	0	79	18059
2026-01-29 21:25:01.77	202.56	3.79	-53.7	-55.8	6.2	0.00e+00	0	43	104	0	79	17924
2026-01-29 21:25:02.78	202.65	3.86	-53.6	-55.7	6.2	0.00e+00	0	43	104	0	79	17636
2026-01-29 21:25:03.79	202.74	3.93	-53.5	-55.5	6.2	0.00e+00	0	43	104	0	79	17344
2026-01-29 21:25:04.80	202.83	4.00	-53.3	-55.3	6.2	0.00e+00	0	43	104	0	78	17950
2026-01-29 21:25:05.80	202.92	4.07	-52.9	-55.0	6.2	0.00e+00	0	43	104	0	77	18182
2026-01-29 21:25:06.81	203.01	4.14	-52.6	-54.7	6.2	0.00e+00	0	43	104	0	77	17612
2026-01-29 21:25:07.81	203.10	4.20	-52.6	-54.7	6.2	0.00e+00	0	43	104	0	77	17630
2026-01-29 21:25:08.82	203.19	4.27	-52.6	-54.7	6.2	0.00e+00	0	43	104	0	77	17621
2026-01-29 21:25:09.83	203.28	4.34	-52.6	-54.7	6.2	0.00e+00	0	43	104	0	77	17590
2026-01-29 21:25:10.84	203.37	4.41	-52.6	-54.7	6.2	0.00e+00	0	43	104	0	77	17575
2026-01-29 21:25:11.84	203.46	4.48	-52.6	-54.7	6.2	0.00e+00	0	43	104	0	77	17565
2026-01-29 21:25:12.85	203.56	4.55	-52.6	-54.7	6.2	0.00e+00	0	43	104	0	77	17592
2026-01-29 21:25:13.86	203.65	4.62	-52.6	-54.7	6.2	0.00e+00	0	43	104	0	77	17598
2026-01-29 21:25:14.87	203.74	4.69	-52.6	-54.7	6.2	0.00e+00	0	43	104	0	77	17575
2026-01-29 21:25:15.87	203.84	4.76	-52.6	-54.7	6.2	0.00e+00	0	43	104	0	77	17566
2026-01-29 21:25:16.88	203.93	4.83	-44.6	-52.6	6.6	0.00e+00	0	43	104	0	63	31177
2026-01-29 21:25:17.89	204.03	4.90	-44.8	-53.4	6.3	0.00e+00	0	43	104	0	59	42978
2026-01-29 21:25:18.90	204.13	4.97	-45.2	-53.5	6.3	0.00e+00	0	43	104	0	60	41139
2026-01-29 21:25:19.90	204.22	5.05	-45.5	-53.6	6.3	0.00e+00	0	43	104	0	64	32989
2026-01-29 21:25:20.91	204.32	5.12	-48.5	-54.2	6.3	0.00e+00	0	43	104	0	67	29589
2026-01-29 21:25:21.92	204.42	5.19	-49.4	-54.2	6.2	0.00e+00	0	43	104	0	69	26410
2026-01-29 21:25:22.93	204.52	5.26	-52.2	-54.5	6.2	0.00e+00	0	43	104	0	74	20556
2026-01-29 21:25:23.93	204.62	5.33	-52.5	-54.6	6.2	0.00e+00	0	43	104	0	75	19493
2026-01-29 21:25:24.94	204.72	5.40	-52.5	-54.5	6.2	0.00e+00	0	43	104	0	75	19385
2026-01-29 21:25:25.94	204.82	5.48	-52.3	-54.5	6.2	0.00e+00	0	43	104	0	75	19378
2026-01-29 21:25:26.95	204.92	5.55	-52.4	-54.7	6.2	0.00e+00	0	43	104	0	75	19846
2026-01-29 21:25:27.95	205.02	5.62	-52.3	-54.7	6.2	0.00e+00	0	43	104	0	75	19732
2026-01-29 21:25:28.96	205.12	5.69	-52.2	-54.6	6.2	0.00e+00	0	43	104	0	75	19510
2026-01-29 21:25:29.97	205.22	5.77	-52.1	-54.5	6.2	0.00e+00	0	43	104	0	75	19409
2026-01-29 21:25:30.97	205.32	5.84	-52.4	-54.7	6.2	0.00e+00	0	43	104	0	75	19786
2026-01-29 21:25:31.97	205.43	5.91	-52.4	-54.7	6.2	0.00e+00	0	43	104	0	75	19732
2026-01-29 21:25:32.98	205.53	5.99	-52.4	-54.6	6.2	0.00e+00	0	43	104	0	75	19520
2026-01-29 21:25:33.99	205.64	6.06	-52.4	-54.6	6.2	0.00e+00	0	44	104	0	75	19481
2026-01-29 21:25:35.00	205.74	6.14	-52.6	-54.7	6.2	0.00e+00	0	43	104	0	75	19834
2026-01-29 21:25:36.00	205.85	6.21	-52.6	-54.7	6.2	0.00e+00	0	43	104	0	75	19867
2026-01-29 21:25:37.01	205.96	6.28	-52.5	-54.6	6.2	0.00e+00	0	43	104	0	75	19612
2026-01-29 21:25:38.02	206.07	6.36	-52.5	-54.6	6.2	0.00e+00	0	43	104	0	75	19589
2026-01-29 21:25:39.03	206.17	6.43	-52.6	-54.7	6.2	0.00e+00	0	43	104	0	75	19933
2026-01-29 21:25:40.03	206.28	6.51	-52.6	-54.7	6.2	0.00e+00	0	44	104	0	75	19880
2026-01-29 21:25:41.04	206.39	6.58	-52.5	-54.6	6.2	0.00e+00	0	44	104	0	75	19686
2026-01-29 21:25:42.05	206.50	6.66	-52.4	-54.6	6.2	0.00e+00	0	44	104	0	75	19648
2026-01-29 21:25:43.05	206.61	6.74	-52.6	-54.8	6.2	0.00e+00	0	44	104	0	75	19937
2026-01-29 21:25:44.06	206.72	6.81	-52.6	-54.7	6.2	0.00e+00	0	44	104	0	75	19870
2026-01-29 21:25:45.07	206.84	6.89	-52.4	-54.6	6.2	0.00e+00	0	43	104	0	75	19694
2026-01-29 21:25:46.08	206.95	6.96	-52.4	-54.6	6.2	0.00e+00	0	44	104	0	75	19609
2026-01-29 21:25:47.09	207.06	7.04	-52.7	-54.8	6.2	0.00e+00	0	44	104	0	75	19990
2026-01-29 21:25:48.09	207.18	7.12	-52.7	-54.8	6.2	0.00e+00	0	44	104	0	75	19967
2026-01-29 21:25:49.10	207.29	7.19	-52.6	-54.7	6.2	0.00e+00	0	44	104	0	75	19787
2026-01-29 21:25:50.10	207.41	7.27	-52.5	-54.6	6.2	0.00e+00	0	44	104	0	75	19641
2026-01-29 21:25:51.11	207.53	7.35	-52.7	-54.8	6.2	0.00e+00	0	44	104	0	75	20103
2026-01-29 21:25:52.12	207.64	7.43	-52.6	-54.8	6.2	0.00e+00	0	44	104	0	75	19963
2026-01-29 21:25:53.12	207.76	7.50	-52.6	-54.7	6.2	0.00e+00	0	43	104	0	75	19847
2026-01-29 21:25:54.13	207.88	7.58	-52.5	-54.7	6.2	0.00e+00	0	44	104	0	75	19730
2026-01-29 21:25:55.14	208.00	7.66	-52.6	-54.8	6.2	0.00e+00	0	44	104	0	75	20158
2026-01-29 21:25:56.14	208.12	7.74	-52.6	-54.8	6.2	0.00e+00	0	44	104	0	75	20085
2026-01-29 21:25:57.15	208.24	7.82	-52.6	-54.7	6.2	0.00e+00	0	44	104	0	75	19858
2026-01-29 21:25:58.16	208.36	7.90	-52.6	-54.7	6.2	0.00e+00	0	44	104	0	75	19819
2026-01-29 21:25:59.16	208.49	7.98	-52.7	-54.8	6.2	0.00e+00	0	44	104	0	75	20115
2026-01-29 21:26:00.17	208.61	8.06	-52.7	-54.8	6.2	0.00e+00	0	44	104	0	75	20101
2026-01-29 21:26:01.17	208.73	8.14	-52.7	-54.7	6.2	0.00e+00	0	44	104	0	75	19915
2026-01-29 21:26:02.18	208.86	8.22	-52.6	-54.7	6.2	0.00e+00	0	44	104	0	75	19916
2026-01-29 21:26:03.18	208.98	8.30	-52.8	-54.9	6.2	0.00e+00	0	44	104	0	76	19126
2026-01-29 21:26:04.19	209.11	8.38	-52.8	-54.9	6.2	0.00e+00	0	44	104	0	76	19097
2026-01-29 21:26:05.20	209.24	8.46	-52.7	-54.8	6.2	0.00e+00	0	44	104	0	76	18874
2026-01-29 21:26:06.20	209.37	8.54	-52.7	-54.8	6.2	0.00e+00	0	44	104	0	76	18826
2026-01-29 21:26:07.21	209.49	8.62	-46.9	-47.2	7.5	0.00e+00	0	44	104	0	65	14926
2026-01-29 21:26:08.21	209.62	8.70	-48.6	-49.3	6.5	0.00e+00	0	44	104	0	69	14967
2026-01-29 21:26:09.22	209.76	8.78	-47.8	-48.3	6.6	0.00e+00	0	44	104	0	66	15948
2026-01-29 21:26:10.23	209.89	8.86	-46.1	-46.6	6.7	0.00e+00	0	44	104	0	64	14747
2026-01-29 21:26:11.23	210.02	8.95	-45.8	-46.2	6.8	0.00e+00	0	44	104	0	63	14935
2026-01-29 21:26:12.24	210.15	9.03	-45.6	-46.0	6.8	0.00e+00	0	44	104	0	63	14550
2026-01-29 21:26:13.25	210.29	9.11	-45.0	-45.3	6.8	0.00e+00	0	44	104	0	61	15031
2026-01-29 21:26:14.25	210.42	9.19	-47.0	-47.5	6.6	0.00e+00	0	44	104	0	64	16360
2026-01-29 21:26:15.26	210.56	9.28	-52.6	-54.7	6.2	0.00e+00	0	44	104	0	75	19801
2026-01-29 21:26:16.27	210.70	9.36	-48.9	-49.6	6.4	0.00e+00	0	44	104	0	69	15633
2026-01-29 21:26:17.28	210.83	9.44	-47.7	-48.2	6.7	0.00e+00	0	44	104	0	66	15802
2026-01-29 21:26:18.28	210.97	9.53	-46.0	-46.3	7.3	0.00e+00	0	44	104	0	63	14972
2026-01-29 21:26:19.29	211.11	9.61	-45.1	-45.4	7.2	0.00e+00	0	44	104	0	62	14359
2026-01-29 21:26:20.30	211.25	9.70	-44.7	-44.9	7.3	0.00e+00	0	44	104	0	61	14345
2026-01-29 21:26:21.30	211.39	9.78	-44.3	-44.5	7.3	0.00e+00	0	44	104	0	60	14546
2026-01-29 21:26:22.31	211.54	9.86	-48.0	-48.7	6.8	0.00e+00	0	44	104	0	66	16726
2026-01-29 21:26:23.31	211.68	9.95	-48.9	-49.6	7.1	0.00e+00	0	44	104	0	69	15523
2026-01-29 21:26:24.32	211.83	10.03	-46.9	-47.3	7.5	0.00e+00	0	44	104	0	65	15078
2026-01-29 21:26:25.33	211.97	10.12	-49.8	-50.8	6.7	0.00e+00	0	44	104	0	71	15836
2026-01-29 21:26:26.33	212.12	10.20	-46.6	-47.0	8.0	0.00e+00	0	44	104	0	65	14455
2026-01-29 21:26:27.34	212.27	10.29	-42.3	-42.3	11.1	1.63e-02	0	44	0	25165824	56	14195
2026-01-29 21:26:28.35	212.41	10.38	-39.0	-38.9	13.6	1.57e-03	0	44	0	142606336	50	13481
2026-01-29 21:26:29.36	212.56	10.46	-35.5	-35.3	15.1	2.29e-04	0	44	0	251658240	43	13432
2026-01-29 21:26:30.36	212.71	10.55	-33.3	-33.2	16.3	2.09e-05	0	44	0	369098752	38	13968
2026-01-29 21:26:31.37	212.87	10.64	-29.3	-29.2	16.4	1.71e-05	0	44	0	478150656	30	14018
2026-01-29 21:26:32.38	213.02	10.72	-28.0	-27.8	17.0	0.00e+00	0	44	0	603979776	28	13451
2026-01-29 21:26:33.38	213.17	10.81	-27.3	-27.1	17.3	0.00e+00	0	44	0	713031680	26	13940
2026-01-29 21:26:34.39	213.33	10.90	-26.8	-26.7	17.4	0.00e+00	0	44	0	830472192	25	13979
2026-01-29 21:26:35.40	213.48	10.99	-26.7	-26.6	17.4	0.00e+00	0	44	0	939524096	25	13816
2026-01-29 21:26:36.40	213.64	11.07	-26.6	-26.4	17.4	0.00e+00	0	44	0	1056964608	25	13553
2026-01-29 21:26:37.41	213.80	11.16	-26.6	-26.4	17.6	0.00e+00	0	44	0	1166016512	25	13595
2026-01-29 21:26:38.42	213.96	11.25	-26.6	-26.4	17.4	0.00e+00	0	44	0	1275068416	25	13599
2026-01-29 21:26:39.42	214.12	11.34	-26.6	-26.4	17.6	0.00e+00	0	44	0	1392508928	25	13592
2026-01-29 21:26:40.43	214.28	11.43	-26.4	-26.3	17.5	0.00e+00	0	44	0	1501560832	24	14123
2026-01-29 21:26:41.44	214.44	11.52	-26.3	-26.1	17.4	0.00e+00	0	44	0	1619001344	24	13933
2026-01-29 21:26:42.44	214.61	11.61	-26.4	-26.2	17.3	0.00e+00	0	44	0	1728053248	24	14050
2026-01-29 21:26:43.45	214.77	11.70	-26.3	-26.1	17.3	0.00e+00	0	44	0	1845493760	24	13932
2026-01-29 21:26:44.47	214.94	11.79	-26.4	-26.3	17.3	0.00e+00	0	45	0	1954545664	24	14144
2026-01-29 21:26:45.47	215.11	11.88	-26.3	-26.1	17.4	0.00e+00	0	44	0	2063597568	24	13901
2026-01-29 21:26:46.47	215.27	11.97	-26.3	-26.1	17.5	0.00e+00	0	44	0	2181038080	24	13918
2026-01-29 21:26:47.48	215.44	12.06	-26.2	-26.0	17.5	0.00e+00	0	45	0	2298478592	24	13755
2026-01-29 21:26:48.49	215.61	12.15	-26.1	-25.9	17.3	0.00e+00	0	44	0	2415919104	24	13619
2026-01-29 21:26:49.50	215.79	12.24	-26.1	-25.9	17.5	0.00e+00	0	45	0	2524971008	24	13596
2026-01-29 21:26:50.50	215.96	12.33	-26.0	-25.8	17.4	0.00e+00	0	44	0	2642411520	23	14182
2026-01-29 21:26:51.51	216.13	12.42	-25.9	-25.7	17.3	0.00e+00	0	45	0	2751463424	23	14108
2026-01-29 21:26:52.52	216.31	12.52	-26.0	-25.8	17.3	0.00e+00	0	44	0	2868903936	23	14213
2026-01-29 21:26:53.53	216.49	12.61	-25.8	-25.7	17.3	0.00e+00	0	44	0	2977955840	23	13988
2026-01-29 21:26:54.53	216.67	12.70	-25.9	-25.8	17.4	0.00e+00	0	44	0	3087007744	23	14165
2026-01-29 21:26:55.54	216.85	12.79	-25.8	-25.7	17.5	0.00e+00	0	45	0	3204448256	23	14004
2026-01-29 21:26:56.55	217.03	12.89	-25.8	-25.6	17.6	0.00e+00	0	44	0	3313500160	23	13885
2026-01-29 21:26:57.55	217.21	12.98	-25.7	-25.5	17.6	0.00e+00	0	44	0	3430940672	23	13753
2026-01-29 21:26:58.55	217.39	13.07	-25.7	-25.5	17.5	0.00e+00	0	44	0	3539992576	23	13722
2026-01-29 21:26:59.56	217.58	13.16	-25.5	-25.4	17.6	0.00e+00	0	44	0	3649044480	23	13541
2026-01-29 21:27:00.57	217.76	13.26	-25.6	-25.4	17.5	0.00e+00	0	45	0	3766484992	23	13573
2026-01-29 21:27:01.58	217.95	13.35	-25.5	-25.4	17.6	0.00e+00	0	45	0	3892314112	22	14302
2026-01-29 21:27:02.59	218.14	13.45	-25.4	-25.2	17.6	0.00e+00	0	44	0	4001366016	22	14091
2026-01-29 21:27:03.59	218.33	13.54	-25.4	-25.3	17.5	0.00e+00	0	45	0	4110417920	22	14137
2026-01-29 21:27:04.59	218.52	13.63	-25.6	-25.5	17.5	0.00e+00	0	45	0	4227858432	22	14482
2026-01-29 21:27:05.60	218.71	13.73	-25.3	-25.2	17.6	0.00e+00	0	45	0	4336910336	22	14025
2026-01-29 21:27:06.61	218.91	13.82	-25.5	-25.4	17.5	0.00e+00	0	45	0	4454350848	22	14312
2026-01-29 21:27:07.62	219.11	13.92	-25.3	-25.2	17.6	0.00e+00	0	45	0	4563402752	22	13955
2026-01-29 21:27:08.63	219.30	14.02	-25.3	-25.2	17.6	1.90e-06	0	45	0	4672454656	22	13973
2026-01-29 21:27:09.63	219.50	14.11	-25.1	-25.0	17.8	0.00e+00	0	45	0	4789895168	22	13645
2026-01-29 21:27:10.64	219.70	14.21	-25.1	-25.0	17.8	0.00e+00	0	45	0	4898947072	22	13664
2026-01-29 21:27:11.65	219.91	14.30	-25.1	-24.9	17.7	0.00e+00	0	45	0	5016387584	22	13551
2026-01-29 21:27:12.65	220.11	14.40	-25.1	-25.0	17.9	0.00e+00	0	45	0	5125439488	22	13635
2026-01-29 21:27:13.66	220.31	14.49	-25.1	-24.9	17.7	0.00e+00	0	45	0	5242880000	22	13609
2026-01-29 21:27:14.67	220.52	14.59	-25.1	-24.9	17.9	0.00e+00	0	44	0	5351931904	22	13588
2026-01-29 21:27:15.67	220.73	14.69	-25.0	-24.8	17.9	0.00e+00	0	45	0	5460983808	22	13441
2026-01-29 21:27:16.67	220.94	14.78	-24.9	-24.8	17.8	0.00e+00	0	45	0	5578424320	21	14163
2026-01-29 21:27:17.68	221.15	14.88	-25.0	-24.8	17.8	0.00e+00	0	45	0	5704253440	21	14227
2026-01-29 21:27:18.69	221.36	14.98	-24.9	-24.7	17.9	0.00e+00	0	45	0	5813305344	21	14034
2026-01-29 21:27:19.70	221.58	15.08	-24.9	-24.8	17.9	0.00e+00	0	45	0	5922357248	21	14129
2026-01-29 21:27:20.70	221.79	15.17	-24.8	-24.6	17.9	0.00e+00	0	45	0	6039797760	21	13901
2026-01-29 21:27:21.70	222.01	15.27	-24.8	-24.6	17.9	0.00e+00	0	44	0	6148849664	21	13913
2026-01-29 21:27:22.71	222.23	15.37	-24.8	-24.6	17.9	0.00e+00	0	45	0	6266290176	21	13899
2026-01-29 21:27:23.72	222.45	15.47	-24.7	-24.5	17.8	0.00e+00	0	45	0	6375342080	21	13721
2026-01-29 21:27:24.72	222.67	15.56	-24.8	-24.7	17.7	0.00e+00	0	45	0	6484393984	21	13985
2026-01-29 21:27:25.73	222.89	15.66	-24.6	-24.5	17.8	0.00e+00	0	45	0	6601834496	21	13656
2026-01-29 21:27:26.74	223.12	15.76	-24.5	-24.4	17.9	0.00e+00	0	45	0	6710886400	21	13510
2026-01-29 21:27:27.75	223.35	15.86	-24.4	-24.3	17.7	0.00e+00	0	45	0	6828326912	20	14159
2026-01-29 21:27:28.75	223.57	15.96	-24.4	-24.3	17.8	0.00e+00	0	45	0	6937378816	20	14142
2026-01-29 21:27:29.76	223.81	16.06	-24.5	-24.4	17.6	0.00e+00	0	45	0	7046430720	20	14276
2026-01-29 21:27:30.77	224.04	16.15	-24.4	-24.2	17.9	0.00e+00	0	45	0	7163871232	20	14070
2026-01-29 21:27:31.77	224.27	16.25	-24.3	-24.2	17.8	0.00e+00	0	45	0	7272923136	20	13997
2026-01-29 21:27:32.78	224.51	16.35	-24.4	-24.3	17.7	0.00e+00	0	45	0	7398752256	20	14178
2026-01-29 21:27:33.79	224.75	16.45	-24.3	-24.1	17.9	0.00e+00	0	45	0	7507804160	20	13857
2026-01-29 21:27:34.80	224.99	16.55	-24.2	-24.1	17.8	0.00e+00	0	45	0	7625244672	20	13796
2026-01-29 21:27:35.80	225.23	16.65	-24.2	-24.0	17.7	0.00e+00	0	45	0	7734296576	20	13707
2026-01-29 21:27:36.81	225.47	16.75	-24.1	-23.9	17.8	0.00e+00	0	45	0	7851737088	20	13584
2026-01-29 21:27:37.82	225.72	16.85	-24.1	-23.9	17.7	0.00e+00	0	45	0	7960788992	20	13618
2026-01-29 21:27:38.82	225.96	16.95	-24.1	-24.0	17.7	0.00e+00	0	45	0	8069840896	20	13635
2026-01-29 21:27:39.84	226.21	17.05	-24.0	-23.9	17.7	0.00e+00	0	45	0	8187281408	20	13517
2026-01-29 21:27:40.84	226.46	17.15	-24.1	-23.9	17.7	0.00e+00	0	45	0	8296333312	20	13606
2026-01-29 21:27:41.85	226.71	17.25	-24.1	-23.9	17.6	0.00e+00	0	45	0	8413773824	19	14415
2026-01-29 21:27:42.85	226.97	17.35	-24.1	-24.0	17.4	0.00e+00	0	45	0	8522825728	19	14462
2026-01-29 21:27:43.86	227.22	17.45	-24.1	-23.9	17.5	0.00e+00	0	45	0	8640266240	19	14424
2026-01-29 21:27:44.87	227.48	17.55	-24.0	-23.8	17.7	0.00e+00	0	45	0	8749318144	19	14217
2026-01-29 21:27:45.88	227.74	17.65	-23.9	-23.7	17.7	0.00e+00	0	45	0	8875147264	19	14083
2026-01-29 21:27:46.89	228.01	17.74	-23.9	-23.8	17.4	0.00e+00	0	45	0	8984199168	19	14143
2026-01-29 21:27:47.90	228.27	17.84	-23.9	-23.8	17.7	0.00e+00	0	45	0	9101639680	19	14144
2026-01-29 21:27:48.91	228.54	17.94	-23.9	-23.7	17.6	0.00e+00	0	45	0	9210691584	19	14081
2026-01-29 21:27:49.92	228.80	18.04	-23.9	-23.7	17.6	0.00e+00	0	45	0	9319743488	19	14074
2026-01-29 21:27:50.93	229.07	18.14	-23.8	-23.6	17.4	0.00e+00	0	45	0	9437184000	19	13859
2026-01-29 21:27:51.94	229.35	18.24	-23.8	-23.6	17.7	0.00e+00	0	45	0	9546235904	19	13872
2026-01-29 21:27:52.95	229.62	18.34	-23.8	-23.6	17.6	0.00e+00	0	45	0	9663676416	19	13944
2026-01-29 21:27:53.96	229.90	18.44	-23.7	-23.5	17.4	0.00e+00	0	45	0	9772728320	19	13781
2026-01-29 21:27:54.97	230.18	18.54	-23.7	-23.5	17.6	0.00e+00	0	45	0	9881780224	19	13706
2026-01-29 21:27:55.98	230.46	18.64	-23.8	-23.6	17.6	0.00e+00	0	45	0	10007609344	19	13902
2026-01-29 21:27:56.99	230.74	18.74	-23.7	-23.6	17.7	0.00e+00	0	45	0	10125049856	19	13858
2026-01-29 21:27:58.00	231.02	18.84	-23.6	-23.4	17.7	0.00e+00	0	45	0	10234101760	19	13632
2026-01-29 21:27:59.01	231.31	18.94	-23.6	-23.4	17.8	0.00e+00	0	45	0	10343153664	19	13542
2026-01-29 21:28:00.01	231.60	19.04	-23.8	-23.6	17.6	0.00e+00	0	45	0	10460594176	19	13862
2026-01-29 21:28:01.03	231.89	19.14	-23.5	-23.4	17.5	0.00e+00	0	45	0	10569646080	19	13532
2026-01-29 21:28:02.03	232.18	19.23	-23.6	-23.5	17.4	0.00e+00	0	45	0	10687086592	19	13685
2026-01-29 21:28:03.05	232.48	19.33	-23.5	-23.3	17.4	0.00e+00	0	45	0	10796138496	19	13428
2026-01-29 21:28:04.05	232.77	19.43	-23.4	-23.3	17.5	1.90e-06	0	45	0	10905190400	18	14152
2026-01-29 21:28:05.06	233.07	19.53	-23.4	-23.2	17.3	0.00e+00	0	45	0	11022630912	18	14056
2026-01-29 21:28:06.07	233.37	19.62	-23.4	-23.2	17.4	0.00e+00	0	45	0	11131682816	18	14074
2026-01-29 21:28:07.08	233.68	19.72	-23.4	-23.3	17.4	0.00e+00	0	45	0	11257511936	18	14114
2026-01-29 21:28:08.08	233.98	19.82	-23.3	-23.2	17.3	1.90e-06	0	45	0	11366563840	18	13986
2026-01-29 21:28:09.09	234.29	19.92	-23.4	-23.2	17.2	0.00e+00	0	45	0	11484004352	18	14075
2026-01-29 21:28:10.10	234.60	20.01	-23.3	-23.2	17.5	0.00e+00	0	45	0	11593056256	18	13951
2026-01-29 21:28:11.11	234.91	20.11	-23.3	-23.1	17.2	0.00e+00	0	45	0	11710496768	18	13926
2026-01-29 21:28:12.11	235.22	20.20	-23.3	-23.2	17.2	0.00e+00	0	45	0	11819548672	18	13980
2026-01-29 21:28:13.12	235.54	20.30	-23.3	-23.2	17.3	0.00e+00	0	45	0	11928600576	18	13977
2026-01-29 21:28:14.13	235.86	20.39	-23.3	-23.1	17.0	0.00e+00	0	45	0	12046041088	18	13845
2026-01-29 21:28:15.14	236.18	20.49	-23.3	-23.1	17.0	0.00e+00	0	45	0	12155092992	18	13927
2026-01-29 21:28:16.15	236.50	20.58	-23.2	-23.0	17.1	0.00e+00	0	45	0	12272533504	18	13726
2026-01-29 21:28:17.15	236.82	20.68	-23.1	-22.9	17.3	0.00e+00	0	45	0	12381585408	18	13598
2026-01-29 21:28:18.16	237.15	20.77	-23.1	-23.0	17.1	0.00e+00	0	45	0	12499025920	18	13638
2026-01-29 21:28:19.16	237.47	20.86	-23.1	-22.9	16.9	0.00e+00	0	45	0	12608077824	18	13573
2026-01-29 21:28:20.17	237.81	20.95	-23.1	-22.9	16.9	0.00e+00	0	45	0	12717129728	18	13623
2026-01-29 21:28:21.18	238.14	21.05	-23.0	-22.8	16.8	0.00e+00	0	45	0	12834570240	18	13458
2026-01-29 21:28:22.19	238.48	21.14	-23.1	-22.9	16.9	0.00e+00	0	45	0	12960399360	18	13627
2026-01-29 21:28:23.19	238.81	21.23	-23.1	-23.0	16.8	0.00e+00	0	45	0	13069451264	18	13659
2026-01-29 21:28:24.20	239.15	21.32	-22.9	-22.7	16.8	0.00e+00	0	45	0	13178503168	17	14076
2026-01-29 21:28:25.21	239.49	21.41	-22.9	-22.7	16.6	0.00e+00	0	45	0	13295943680	17	14061
2026-01-29 21:28:26.21	239.84	21.50	-23.0	-22.8	16.4	0.00e+00	0	45	0	13404995584	17	14228
2026-01-29 21:28:27.22	240.18	21.59	-22.9	-22.7	16.5	0.00e+00	0	45	0	13522436096	17	14066
2026-01-29 21:28:28.23	240.53	21.68	-22.9	-22.7	16.6	0.00e+00	0	45	0	13631488000	17	14105
2026-01-29 21:28:29.24	240.88	21.76	-22.8	-22.7	16.4	0.00e+00	0	45	0	13740539904	17	13965
2026-01-29 21:28:30.25	241.24	21.85	-22.7	-22.5	16.4	0.00e+00	0	45	0	13857980416	17	13723
2026-01-29 21:28:31.26	241.59	21.94	-22.7	-22.5	16.7	0.00e+00	0	45	0	13967032320	17	13753
2026-01-29 21:28:32.27	241.95	22.02	-22.6	-22.5	16.3	0.00e+00	0	45	0	14084472832	17	13644
2026-01-29 21:28:33.27	242.31	22.11	-22.7	-22.5	16.6	0.00e+00	0	45	0	14193524736	17	13790
2026-01-29 21:28:34.28	242.67	22.19	-22.7	-22.5	16.3	0.00e+00	0	45	0	14302576640	17	13704
2026-01-29 21:28:35.28	243.03	22.28	-22.5	-22.4	16.5	0.00e+00	0	45	0	14428405760	17	13509
2026-01-29 21:28:36.29	243.40	22.36	-22.6	-22.5	16.2	0.00e+00	0	45	0	14545846272	17	13634
2026-01-29 21:28:37.29	243.76	22.44	-22.6	-22.4	16.4	1.90e-06	0	45	0	14654898176	17	13588
2026-01-29 21:28:38.30	244.13	22.52	-22.5	-22.3	16.3	3.80e-06	0	45	0	14763950080	16	14200
2026-01-29 21:28:39.31	244.50	22.60	-22.4	-22.3	15.9	0.00e+00	0	45	0	14881390592	16	14171
2026-01-29 21:28:40.32	244.88	22.68	-22.5	-22.3	16.0	1.90e-06	0	45	0	14990442496	16	14272
2026-01-29 21:28:41.33	245.26	22.76	-22.4	-22.2	16.0	0.00e+00	0	45	0	15107883008	16	14082
2026-01-29 21:28:42.33	245.63	22.84	-22.3	-22.1	15.8	0.00e+00	0	45	0	15216934912	16	13929
2026-01-29 21:28:43.34	246.01	22.92	-22.3	-22.1	15.8	1.90e-06	0	45	0	15334375424	16	13857
2026-01-29 21:28:44.35	246.40	22.99	-22.3	-22.1	16.0	1.90e-06	0	45	0	15443427328	16	13869
2026-01-29 21:28:45.36	246.78	23.07	-22.3	-22.1	15.9	0.00e+00	0	45	0	15552479232	16	13943
2026-01-29 21:28:46.36	247.17	23.14	-22.2	-22.0	15.5	1.90e-06	0	45	0	15669919744	16	13719
2026-01-29 21:28:47.37	247.55	23.21	-22.2	-22.0	15.3	0.00e+00	0	45	0	15778971648	16	13749
2026-01-29 21:28:48.38	247.95	23.29	-22.2	-22.0	15.6	5.70e-06	0	45	0	15904800768	16	13739
2026-01-29 21:28:49.39	248.34	23.36	-22.2	-22.1	15.3	7.60e-06	0	45	0	16013852672	16	13811
2026-01-29 21:28:50.40	248.73	23.43	-22.2	-22.1	15.4	1.90e-06	0	45	0	16131293184	16	13827
2026-01-29 21:28:51.40	249.13	23.50	-22.1	-21.9	15.5	1.90e-06	0	45	0	16240345088	16	13629
2026-01-29 21:28:52.41	249.53	23.57	-22.1	-22.0	15.6	1.90e-06	0	45	0	16357785600	16	13688
2026-01-29 21:28:53.41	249.92	23.63	-22.0	-21.9	15.5	0.00e+00	0	45	0	16466837504	16	13502
2026-01-29 21:28:54.42	250.33	23.70	-22.1	-22.0	15.3	1.90e-06	0	45	0	16575889408	16	13696
2026-01-29 21:28:55.42	250.73	23.76	-22.0	-21.9	15.3	1.90e-06	0	45	0	16693329920	16	13518
2026-01-29 21:28:56.43	251.13	23.83	-22.1	-21.9	15.3	1.90e-06	0	45	0	16802381824	16	13602
2026-01-29 21:28:57.44	251.54	23.89	-22.1	-21.9	15.6	1.90e-06	0	45	0	16919822336	16	13587
2026-01-29 21:28:58.45	251.95	23.95	-22.1	-22.0	15.8	0.00e+00	0	45	0	17028874240	16	13662
2026-01-29 21:28:59.45	252.36	24.01	-22.2	-22.0	15.4	5.70e-06	0	45	0	17137926144	16	13732
2026-01-29 21:29:00.46	252.77	24.07	-22.0	-21.8	15.6	0.00e+00	0	45	0	17255366656	16	13435
2026-01-29 21:29:01.47	253.19	24.12	-21.9	-21.8	15.6	3.80e-06	0	45	0	17364418560	15	14112
2026-01-29 21:29:02.47	253.60	24.18	-22.0	-21.8	15.4	0.00e+00	0	45	0	17481859072	15	14260
2026-01-29 21:29:03.48	254.02	24.23	-21.9	-21.8	15.8	0.00e+00	0	45	0	17590910976	15	14113
2026-01-29 21:29:04.48	254.43	24.29	-21.9	-21.7	15.8	1.90e-06	0	45	0	17716740096	15	14074
2026-01-29 21:29:05.49	254.85	24.34	-21.9	-21.8	15.4	0.00e+00	0	45	0	17825792000	15	14158
2026-01-29 21:29:06.51	255.28	24.39	-21.8	-21.7	15.9	1.90e-06	0	45	0	17943232512	15	13994
2026-01-29 21:29:07.51	255.70	24.44	-21.8	-21.7	15.5	1.90e-06	0	45	0	18052284416	15	13967
2026-01-29 21:29:08.52	256.12	24.49	-21.8	-21.6	15.7	3.80e-06	0	45	0	18161336320	15	13928
2026-01-29 21:29:09.53	256.55	24.53	-21.8	-21.6	16.0	1.90e-06	0	45	0	18278776832	15	13929
2026-01-29 21:29:10.53	256.98	24.58	-21.8	-21.6	15.6	0.00e+00	0	45	0	18387828736	15	13941
2026-01-29 21:29:11.54	257.40	24.62	-21.8	-21.6	15.7	1.90e-06	0	45	0	18505269248	15	13899
2026-01-29 21:29:12.55	257.84	24.67	-21.8	-21.6	16.0	0.00e+00	0	45	0	18614321152	15	13915
2026-01-29 21:29:13.55	258.26	24.71	-21.8	-21.6	16.0	3.80e-06	0	45	0	18731761664	15	13874
2026-01-29 21:29:14.56	258.70	24.74	-21.8	-21.6	15.8	0.00e+00	0	45	0	18840813568	15	13929
2026-01-29 21:29:15.57	259.13	24.78	-21.8	-21.6	15.8	0.00e+00	0	45	0	18949865472	15	13938
2026-01-29 21:29:16.57	259.56	24.82	-21.9	-21.7	15.7	0.00e+00	0	45	0	19067305984	15	14079
2026-01-29 21:29:17.58	260.00	24.85	-21.9	-21.7	15.7	3.80e-06	0	45	0	19176357888	15	14063
2026-01-29 21:29:18.59	260.44	24.89	-21.8	-21.7	16.2	1.90e-06	0	45	0	19302187008	15	13994
2026-01-29 21:29:19.59	260.87	24.92	-21.8	-21.7	16.2	1.90e-06	0	45	0	19411238912	15	13965
2026-01-29 21:29:20.60	261.31	24.95	-22.0	-21.8	16.2	0.00e+00	0	45	0	19528679424	15	14179
2026-01-29 21:29:21.60	261.74	24.98	-21.9	-21.8	16.1	0.00e+00	0	45	0	19637731328	15	14115
2026-01-29 21:29:22.62	262.19	25.00	-22.0	-21.8	16.0	0.00e+00	0	45	0	19755171840	15	14261
2026-01-29 21:29:23.63	262.63	25.03	-21.8	-21.6	16.0	0.00e+00	0	45	0	19864223744	15	13937
2026-01-29 21:29:24.64	263.07	25.05	-21.9	-21.7	16.3	0.00e+00	0	46	0	19973275648	15	14062
2026-01-29 21:29:25.65	263.52	25.07	-21.8	-21.7	16.4	0.00e+00	0	45	0	20090716160	15	13973
2026-01-29 21:29:26.65	263.96	25.09	-22.0	-21.8	16.4	0.00e+00	0	45	0	20199768064	15	14250
2026-01-29 21:29:27.66	264.40	25.11	-21.9	-21.7	16.8	0.00e+00	0	45	0	20317208576	15	14031
2026-01-29 21:29:28.67	264.85	25.13	-21.9	-21.7	16.6	0.00e+00	0	45	0	20426260480	15	14108
2026-01-29 21:29:29.68	265.29	25.14	-21.9	-21.7	17.1	0.00e+00	0	45	0	20552089600	15	14106
2026-01-29 21:29:30.69	265.74	25.16	-21.9	-21.8	17.0	0.00e+00	0	45	0	20661141504	15	14172
2026-01-29 21:29:31.69	266.18	25.17	-22.0	-21.9	17.1	0.00e+00	0	45	0	20770193408	15	14311
2026-01-29 21:29:32.70	266.62	25.18	-22.1	-21.9	17.4	0.00e+00	0	45	0	20887633920	15	14429
2026-01-29 21:29:33.71	267.07	25.19	-22.1	-21.9	17.2	0.00e+00	0	45	0	20996685824	15	14342
2026-01-29 21:29:34.72	267.52	25.20	-22.0	-21.9	17.6	0.00e+00	0	45	0	21114126336	15	14291
2026-01-29 21:29:35.73	267.97	25.20	-22.2	-22.0	17.8	0.00e+00	0	45	0	21223178240	15	14574
2026-01-29 21:29:36.74	268.41	25.20	-22.1	-22.0	17.6	0.00e+00	0	45	0	21340618752	15	14461
2026-01-29 21:29:37.75	268.86	25.21	-22.1	-22.0	17.6	0.00e+00	0	45	0	21449670656	15	14474
2026-01-29 21:29:38.76	269.31	25.21	-22.1	-21.9	17.6	0.00e+00	0	45	0	21558722560	15	14435
2026-01-29 21:29:39.77	269.75	25.20	-22.1	-21.9	17.9	0.00e+00	0	45	0	21676163072	15	14394
2026-01-29 21:29:40.78	270.20	25.20	-22.2	-22.0	18.1	0.00e+00	0	45	0	21785214976	15	14489
2026-01-29 21:29:41.78	270.64	25.20	-22.1	-21.9	17.9	0.00e+00	0	45	0	21911044096	15	14411
2026-01-29 21:29:42.79	271.09	25.19	-22.1	-21.9	18.1	0.00e+00	0	45	0	22020096000	15	14403
2026-01-29 21:29:43.79	271.53	25.18	-22.1	-22.0	18.1	0.00e+00	0	45	0	22137536512	15	14442
2026-01-29 21:29:44.80	271.98	25.17	-22.2	-22.0	18.2	0.00e+00	0	46	0	22246588416	15	14558
2026-01-29 21:29:45.81	272.43	25.16	-22.1	-22.0	18.3	0.00e+00	0	45	0	22364028928	15	14482
2026-01-29 21:29:46.81	272.87	25.15	-22.1	-22.0	18.4	0.00e+00	0	45	0	22473080832	15	14475
2026-01-29 21:29:47.82	273.31	25.13	-22.1	-22.0	18.5	0.00e+00	0	45	0	22590521344	15	14475
2026-01-29 21:29:48.83	273.76	25.12	-22.2	-22.0	18.6	0.00e+00	0	45	0	22699573248	15	14552
2026-01-29 21:29:49.84	274.20	25.10	-22.1	-22.0	18.5	0.00e+00	0	45	0	22808625152	15	14482
2026-01-29 21:29:50.85	274.65	25.08	-22.2	-22.0	18.5	0.00e+00	0	45	0	22926065664	15	14598
2026-01-29 21:29:51.85	275.08	25.06	-22.2	-22.0	18.8	0.00e+00	0	45	0	23035117568	15	14542
2026-01-29 21:29:52.86	275.53	25.03	-22.3	-22.2	18.6	0.00e+00	0	45	0	23152558080	15	14803
2026-01-29 21:29:53.87	275.97	25.01	-22.3	-22.2	18.7	0.00e+00	0	45	0	23261609984	15	14793
2026-01-29 21:29:54.88	276.41	24.98	-22.3	-22.1	18.8	0.00e+00	0	45	0	23387439104	15	14683
2026-01-29 21:29:55.88	276.84	24.95	-22.3	-22.2	18.9	0.00e+00	0	45	0	23496491008	15	14782
2026-01-29 21:29:56.89	277.28	24.92	-22.3	-22.2	18.8	0.00e+00	0	46	0	23613931520	15	14807
2026-01-29 21:29:57.90	277.72	24.89	-22.3	-22.2	18.9	0.00e+00	0	45	0	23722983424	15	14781
2026-01-29 21:29:58.90	278.15	24.86	-22.3	-22.1	19.0	0.00e+00	0	45	0	23832035328	15	14754
2026-01-29 21:29:59.91	278.59	24.83	-22.4	-22.2	18.9	0.00e+00	0	45	0	23949475840	15	14870
2026-01-29 21:30:00.91	279.02	24.79	-22.4	-22.2	19.0	0.00e+00	0	45	0	24058527744	15	14897
2026-01-29 21:30:01.92	279.45	24.75	-22.5	-22.4	18.9	0.00e+00	0	45	0	24175968256	15	15173
2026-01-29 21:30:02.93	279.89	24.71	-22.3	-22.1	18.9	0.00e+00	0	45	0	24285020160	15	14776
2026-01-29 21:30:03.94	280.32	24.67	-22.4	-22.2	19.1	0.00e+00	0	45	0	24394072064	15	14848
2026-01-29 21:30:04.95	280.75	24.63	-22.4	-22.2	19.0	0.00e+00	0	45	0	24511512576	15	14916
2026-01-29 21:30:05.96	281.18	24.59	-22.4	-22.3	19.0	0.00e+00	0	45	0	24620564480	15	14948
2026-01-29 21:30:06.97	281.61	24.54	-22.4	-22.2	19.0	0.00e+00	0	45	0	24738004992	15	14931
2026-01-29 21:30:07.97	282.03	24.50	-22.4	-22.3	19.0	0.00e+00	0	45	0	24847056896	15	14977
2026-01-29 21:30:08.98	282.45	24.45	-22.5	-22.3	19.0	0.00e+00	0	45	0	24956108800	15	15054
2026-01-29 21:30:09.99	282.88	24.40	-22.6	-22.4	19.1	0.00e+00	0	45	0	25081937920	15	15194
2026-01-29 21:30:11.00	283.30	24.35	-22.5	-22.3	19.1	0.00e+00	0	45	0	25199378432	15	15071
2026-01-29 21:30:12.01	283.72	24.30	-22.5	-22.4	19.0	0.00e+00	0	45	0	25308430336	15	15159
2026-01-29 21:30:13.01	284.13	24.25	-22.6	-22.4	19.1	0.00e+00	0	45	0	25417482240	15	15192
2026-01-29 21:30:14.02	284.55	24.19	-22.7	-22.5	19.1	0.00e+00	0	45	0	25534922752	16	14535
2026-01-29 21:30:15.03	284.97	24.14	-22.6	-22.4	19.1	0.00e+00	0	45	0	25643974656	16	14440
2026-01-29 21:30:16.03	285.38	24.08	-22.7	-22.5	19.1	0.00e+00	0	45	0	25761415168	16	14582
2026-01-29 21:30:17.04	285.79	24.02	-22.7	-22.6	19.1	0.00e+00	0	45	0	25870467072	16	14633
2026-01-29 21:30:18.04	286.20	23.96	-22.9	-22.7	19.0	0.00e+00	0	45	0	25987907584	16	14836
2026-01-29 21:30:19.05	286.61	23.90	-22.8	-22.6	19.0	0.00e+00	0	45	0	26096959488	16	14752
2026-01-29 21:30:20.06	287.01	23.84	-22.8	-22.6	19.0	0.00e+00	0	45	0	26206011392	16	14759
2026-01-29 21:30:21.06	287.42	23.78	-22.8	-22.7	18.9	0.00e+00	0	45	0	26323451904	16	14793
2026-01-29 21:30:22.07	287.82	23.71	-22.9	-22.7	18.9	0.00e+00	0	46	0	26432503808	16	14902
2026-01-29 21:30:23.07	288.22	23.65	-22.8	-22.7	18.8	0.00e+00	0	45	0	26549944320	16	14837
2026-01-29 21:30:24.08	288.62	23.58	-22.9	-22.7	18.7	0.00e+00	0	45	0	26667384832	16	14907
2026-01-29 21:30:25.09	289.02	23.52	-22.8	-22.7	18.7	0.00e+00	0	45	0	26784825344	16	14796
2026-01-29 21:30:26.10	289.41	23.45	-22.9	-22.7	18.8	0.00e+00	0	45	0	26893877248	16	14870
2026-01-29 21:30:27.11	289.81	23.38	-22.8	-22.7	18.7	0.00e+00	0	45	0	27011317760	16	14781
2026-01-29 21:30:28.12	290.20	23.31	-22.8	-22.6	18.7	0.00e+00	0	45	0	27120369664	16	14773
2026-01-29 21:30:29.12	290.59	23.24	-23.0	-22.9	18.7	0.00e+00	0	45	0	27229421568	16	15147
2026-01-29 21:30:30.13	290.97	23.16	-23.0	-22.8	18.7	0.00e+00	0	45	0	27346862080	16	15027
2026-01-29 21:30:31.14	291.36	23.09	-23.0	-22.8	18.7	0.00e+00	0	46	0	27455913984	16	15048
2026-01-29 21:30:32.15	291.75	23.01	-22.9	-22.8	18.8	0.00e+00	0	45	0	27573354496	16	15030
2026-01-29 21:30:33.16	292.13	22.94	-23.0	-22.8	18.8	0.00e+00	0	45	0	27682406400	16	15019
2026-01-29 21:30:34.17	292.51	22.86	-23.0	-22.8	18.8	0.00e+00	0	45	0	27791458304	16	15038
2026-01-29 21:30:35.18	292.89	22.78	-23.0	-22.8	18.8	0.00e+00	0	45	0	27917287424	16	15046
2026-01-29 21:30:36.19	293.26	22.71	-23.0	-22.9	18.8	0.00e+00	0	46	0	28034727936	16	15174
2026-01-29 21:30:37.20	293.64	22.63	-23.2	-23.0	18.9	0.00e+00	0	45	0	28143779840	17	14546
2026-01-29 21:30:38.21	294.01	22.55	-23.3	-23.1	18.8	0.00e+00	0	45	0	28252831744	17	14680
2026-01-29 21:30:39.22	294.38	22.46	-23.3	-23.2	18.8	0.00e+00	0	45	0	28370272256	17	14802
2026-01-29 21:30:40.23	294.75	22.38	-23.2	-23.1	18.8	0.00e+00	0	45	0	28479324160	17	14657
2026-01-29 21:30:41.24	295.11	22.30	-23.2	-23.0	18.8	0.00e+00	0	45	0	28596764672	17	14599
2026-01-29 21:30:42.25	295.48	22.22	-23.3	-23.1	18.8	0.00e+00	0	45	0	28705816576	17	14653
2026-01-29 21:30:43.25	295.84	22.13	-23.2	-23.1	18.8	0.00e+00	0	45	0	28814868480	17	14614
2026-01-29 21:30:44.26	296.20	22.05	-23.3	-23.1	18.7	0.00e+00	0	45	0	28932308992	17	14770
2026-01-29 21:30:45.27	296.55	21.96	-23.3	-23.1	18.7	0.00e+00	0	45	0	29041360896	17	14719
2026-01-29 21:30:46.27	296.90	21.88	-23.3	-23.1	18.8	0.00e+00	0	45	0	29158801408	17	14710
2026-01-29 21:30:47.28	297.26	21.79	-23.3	-23.2	18.7	0.00e+00	0	45	0	29276241920	17	14783
2026-01-29 21:30:48.29	297.61	21.70	-23.4	-23.3	18.7	0.00e+00	0	45	0	29393682432	17	14999
2026-01-29 21:30:49.30	297.96	21.62	-23.5	-23.3	18.7	0.00e+00	0	45	0	29502734336	17	15099
2026-01-29 21:30:50.30	298.30	21.53	-23.4	-23.2	18.7	0.00e+00	0	45	0	29620174848	17	14888
2026-01-29 21:30:51.31	298.64	21.44	-23.4	-23.3	18.7	0.00e+00	0	45	0	29729226752	17	14981
2026-01-29 21:30:52.32	298.99	21.35	-23.5	-23.3	18.7	0.00e+00	0	45	0	29846667264	17	15019
2026-01-29 21:30:53.33	299.33	21.26	-23.6	-23.4	18.7	0.00e+00	0	45	0	29955719168	17	15243
2026-01-29 21:30:54.33	299.66	21.17	-23.6	-23.5	18.6	0.00e+00	0	45	0	30064771072	17	15312
2026-01-29 21:30:55.34	300.00	21.08	-23.7	-23.5	18.7	0.00e+00	0	45	0	30182211584	18	14585
2026-01-29 21:30:56.35	300.33	20.99	-23.5	-23.4	18.5	0.00e+00	0	45	0	30291263488	18	14316
2026-01-29 21:30:57.36	300.66	20.89	-23.6	-23.5	18.6	0.00e+00	0	45	0	30408704000	18	14487
2026-01-29 21:30:58.37	300.99	20.80	-23.7	-23.5	18.5	0.00e+00	0	45	0	30517755904	18	14562
2026-01-29 21:30:59.38	301.31	20.71	-23.6	-23.4	18.5	0.00e+00	0	45	0	30643585024	18	14381
2026-01-29 21:31:00.38	301.64	20.62	-23.6	-23.5	18.4	0.00e+00	0	45	0	30752636928	18	14445
2026-01-29 21:31:01.39	301.96	20.52	-23.6	-23.5	18.4	0.00e+00	0	45	0	30870077440	18	14500
2026-01-29 21:31:02.40	302.28	20.43	-23.7	-23.6	18.3	0.00e+00	0	45	0	30979129344	18	14621
2026-01-29 21:31:03.41	302.60	20.33	-23.7	-23.5	18.3	0.00e+00	0	46	0	31088181248	18	14570
2026-01-29 21:31:04.41	302.91	20.24	-23.7	-23.6	18.3	0.00e+00	0	45	0	31205621760	18	14610
2026-01-29 21:31:05.42	303.22	20.14	-23.8	-23.6	18.1	0.00e+00	0	46	0	31314673664	18	14698
2026-01-29 21:31:06.42	303.53	20.05	-23.7	-23.6	18.1	0.00e+00	0	45	0	31432114176	18	14638
2026-01-29 21:31:07.43	303.84	19.95	-23.8	-23.6	18.1	0.00e+00	0	46	0	31541166080	18	14698
2026-01-29 21:31:08.44	304.15	19.86	-23.8	-23.6	18.0	0.00e+00	0	46	0	31650217984	18	14721
2026-01-29 21:31:09.44	304.45	19.76	-23.9	-23.7	18.0	0.00e+00	0	45	0	31767658496	18	14879
2026-01-29 21:31:10.45	304.75	19.67	-23.9	-23.7	17.9	0.00e+00	0	45	0	31876710400	18	14855
2026-01-29 21:31:11.46	305.05	19.57	-23.9	-23.7	18.0	0.00e+00	0	45	0	31994150912	18	14905
2026-01-29 21:31:12.47	305.35	19.47	-24.0	-23.8	18.1	0.00e+00	0	45	0	32103202816	18	15068
2026-01-29 21:31:13.47	305.64	19.37	-23.9	-23.8	17.9	0.00e+00	0	45	0	32212254720	18	14987
2026-01-29 21:31:14.48	305.94	19.28	-24.0	-23.8	17.7	0.00e+00	0	45	0	32338083840	18	15031
2026-01-29 21:31:15.49	306.23	19.18	-24.0	-23.8	17.9	0.00e+00	0	45	0	32455524352	18	15113
2026-01-29 21:31:16.50	306.52	19.08	-24.0	-23.9	17.8	0.00e+00	0	45	0	32564576256	18	15130
2026-01-29 21:31:17.50	306.81	18.98	-24.1	-24.0	17.8	0.00e+00	0	45	0	32673628160	18	15328
2026-01-29 21:31:18.51	307.09	18.89	-24.2	-24.0	18.0	0.00e+00	0	45	0	32791068672	19	14592
2026-01-29 21:31:19.52	307.38	18.79	-24.2	-24.0	17.7	0.00e+00	0	46	0	32900120576	19	14513
2026-01-29 21:31:20.53	307.66	18.69	-24.3	-24.1	17.8	0.00e+00	0	46	0	33017561088	19	14680
2026-01-29 21:31:21.54	307.94	18.59	-24.3	-24.1	17.8	0.00e+00	0	45	0	33126612992	19	14690
2026-01-29 21:31:22.55	308.22	18.49	-24.4	-24.3	17.6	0.00e+00	0	45	0	33244053504	19	14996
2026-01-29 21:31:23.55	308.49	18.39	-24.5	-24.3	17.7	0.00e+00	0	45	0	33353105408	19	15059
2026-01-29 21:31:24.56	308.76	18.29	-24.5	-24.3	17.5	0.00e+00	0	45	0	33462157312	19	15032
2026-01-29 21:31:25.57	309.04	18.20	-24.4	-24.2	17.5	0.00e+00	0	45	0	33579597824	19	14848
2026-01-29 21:31:26.58	309.31	18.10	-24.5	-24.4	17.6	0.00e+00	0	45	0	33705426944	19	15162
2026-01-29 21:31:27.59	309.57	18.00	-24.4	-24.3	17.6	0.00e+00	0	46	0	33814478848	19	15006
2026-01-29 21:31:28.60	309.84	17.90	-24.5	-24.4	17.3	0.00e+00	0	45	0	33923530752	19	15150
2026-01-29 21:31:29.61	310.10	17.80	-24.6	-24.5	17.3	0.00e+00	0	45	0	34040971264	19	15314
2026-01-29 21:31:30.61	310.36	17.70	-24.6	-24.4	17.2	0.00e+00	0	46	0	34150023168	19	15216
2026-01-29 21:31:31.62	310.62	17.60	-24.6	-24.4	17.1	0.00e+00	0	45	0	34267463680	20	14426
2026-01-29 21:31:32.63	310.88	17.50	-24.5	-24.4	17.1	0.00e+00	0	45	0	34376515584	20	14323
2026-01-29 21:31:33.63	311.14	17.40	-24.6	-24.4	17.1	0.00e+00	0	45	0	34485567488	20	14438
2026-01-29 21:31:34.64	311.39	17.30	-24.7	-24.5	17.1	1.90e-06	0	45	0	34603008000	20	14534
2026-01-29 21:31:35.65	311.64	17.20	-24.6	-24.5	17.2	0.00e+00	0	46	0	34712059904	20	14498
2026-01-29 21:31:36.66	311.89	17.11	-24.7	-24.5	17.3	0.00e+00	0	45	0	34829500416	20	14572
2026-01-29 21:31:37.67	312.14	17.01	-24.8	-24.7	17.0	0.00e+00	0	45	0	34938552320	20	14801
2026-01-29 21:31:38.67	312.39	16.91	-24.7	-24.6	16.9	0.00e+00	0	45	0	35047604224	20	14665
2026-01-29 21:31:39.68	312.63	16.81	-24.8	-24.6	17.1	0.00e+00	0	45	0	35173433344	20	14732
2026-01-29 21:31:40.69	312.88	16.71	-24.9	-24.7	17.1	0.00e+00	0	45	0	35290873856	20	14873
2026-01-29 21:31:41.70	313.12	16.61	-24.9	-24.8	16.8	0.00e+00	0	45	0	35399925760	20	14979
2026-01-29 21:31:42.71	313.36	16.51	-24.9	-24.7	17.0	0.00e+00	0	45	0	35508977664	20	14869
2026-01-29 21:31:43.72	313.60	16.41	-24.9	-24.8	16.7	1.90e-06	0	45	0	35626418176	20	14951
2026-01-29 21:31:44.73	313.83	16.32	-25.0	-24.8	16.9	0.00e+00	0	45	0	35735470080	20	15100
2026-01-29 21:31:45.73	314.06	16.22	-25.0	-24.8	16.6	0.00e+00	0	45	0	35852910592	20	15072
2026-01-29 21:31:46.74	314.30	16.12	-25.1	-24.9	16.6	1.90e-06	0	45	0	35961962496	20	15267
2026-01-29 21:31:47.75	314.53	16.02	-25.1	-24.9	16.6	0.00e+00	0	45	0	36071014400	20	15239
2026-01-29 21:31:48.75	314.76	15.92	-25.1	-25.0	16.4	1.90e-06	0	45	0	36188454912	20	15318
2026-01-29 21:31:49.76	314.98	15.83	-25.3	-25.1	16.4	0.00e+00	0	45	0	36297506816	21	14676
2026-01-29 21:31:50.77	315.21	15.73	-25.3	-25.1	16.6	0.00e+00	0	45	0	36414947328	21	14773
2026-01-29 21:31:51.77	315.43	15.63	-25.3	-25.1	16.7	3.80e-06	0	45	0	36523999232	21	14702
2026-01-29 21:31:52.78	315.65	15.53	-25.3	-25.2	16.7	0.00e+00	0	45	0	36649828352	21	14794
2026-01-29 21:31:53.79	315.87	15.43	-25.3	-25.2	16.6	0.00e+00	0	45	0	36758880256	21	14820
2026-01-29 21:31:54.80	316.09	15.34	-25.5	-25.3	16.6	1.90e-06	0	45	0	36876320768	21	15021
2026-01-29 21:31:55.80	316.31	15.24	-25.5	-25.3	16.6	0.00e+00	0	45	0	36985372672	21	14997
2026-01-29 21:31:56.81	316.53	15.14	-25.5	-25.3	16.7	0.00e+00	0	46	0	37102813184	21	15067
2026-01-29 21:31:57.82	316.74	15.05	-25.6	-25.4	16.6	0.00e+00	0	45	0	37211865088	21	15195
2026-01-29 21:31:58.82	316.95	14.95	-25.5	-25.4	16.8	0.00e+00	0	46	0	37320916992	21	15123
2026-01-29 21:31:59.83	317.16	14.85	-25.7	-25.5	16.7	0.00e+00	0	45	0	37438357504	21	15383
2026-01-29 21:32:00.84	317.37	14.76	-25.7	-25.5	16.5	1.90e-06	0	45	0	37547409408	22	14525
2026-01-29 21:32:01.85	317.58	14.66	-25.7	-25.5	16.6	0.00e+00	0	45	0	37664849920	22	14590
2026-01-29 21:32:02.85	317.79	14.57	-25.7	-25.6	16.8	0.00e+00	0	45	0	37773901824	22	14642
2026-01-29 21:32:03.86	317.99	14.47	-25.7	-25.6	16.7	0.00e+00	0	45	0	37882953728	22	14642
2026-01-29 21:32:04.87	318.20	14.37	-25.6	-25.5	16.5	0.00e+00	0	46	0	38000394240	22	14490
2026-01-29 21:32:05.87	318.40	14.28	-25.7	-25.6	16.7	0.00e+00	0	45	0	38109446144	22	14672
2026-01-29 21:32:06.88	318.60	14.18	-25.9	-25.7	16.5	1.90e-06	0	45	0	38235275264	22	14928
2026-01-29 21:32:07.89	318.80	14.09	-25.9	-25.7	16.7	1.90e-06	0	45	0	38344327168	22	14846
2026-01-29 21:32:08.90	318.99	13.99	-25.9	-25.7	16.5	0.00e+00	0	45	0	38461767680	22	14923
2026-01-29 21:32:09.90	319.19	13.90	-25.9	-25.8	16.7	3.80e-06	0	45	0	38570819584	22	14977
2026-01-29 21:32:10.91	319.38	13.81	-26.0	-25.8	16.5	3.80e-06	0	45	0	38688260096	22	15021
2026-01-29 21:32:11.92	319.58	13.71	-26.1	-25.9	16.8	1.90e-06	0	45	0	38797312000	22	15222
2026-01-29 21:32:12.93	319.77	13.62	-26.1	-25.9	16.7	0.00e+00	0	45	0	38906363904	22	15283
2026-01-29 21:32:13.93	319.96	13.52	-26.3	-26.1	16.6	0.00e+00	0	45	0	39023804416	23	14717
2026-01-29 21:32:14.94	320.15	13.43	-26.2	-26.0	16.6	1.90e-06	0	45	0	39132856320	23	14579
2026-01-29 21:32:15.95	320.34	13.34	-26.1	-26.0	16.9	1.90e-06	0	46	0	39250296832	23	14477
2026-01-29 21:32:16.96	320.52	13.24	-26.2	-26.1	16.9	3.80e-06	0	46	0	39359348736	23	14639
2026-01-29 21:32:17.97	320.71	13.15	-26.3	-26.1	16.7	0.00e+00	0	45	0	39468400640	23	14691
2026-01-29 21:32:18.97	320.89	13.06	-26.3	-26.2	16.8	0.00e+00	0	45	0	39585841152	23	14832
2026-01-29 21:32:19.98	321.07	12.96	-26.3	-26.1	16.8	0.00e+00	0	45	0	39711670272	23	14695
2026-01-29 21:32:20.98	321.25	12.87	-26.4	-26.3	16.8	1.90e-06	0	45	0	39820722176	23	14957
2026-01-29 21:32:21.99	321.43	12.78	-26.4	-26.2	16.9	0.00e+00	0	45	0	39929774080	23	14891
2026-01-29 21:32:23.00	321.61	12.69	-26.4	-26.3	17.0	0.00e+00	0	45	0	40047214592	23	15006
2026-01-29 21:32:24.01	321.79	12.60	-26.5	-26.3	16.9	0.00e+00	0	45	0	40156266496	23	15052
2026-01-29 21:32:25.01	321.96	12.51	-26.5	-26.4	16.8	0.00e+00	0	45	0	40273707008	23	15140
2026-01-29 21:32:26.02	322.14	12.41	-26.5	-26.3	16.7	3.80e-06	0	46	0	40382758912	23	15029
2026-01-29 21:32:27.03	322.31	12.32	-26.6	-26.5	16.8	0.00e+00	0	46	0	40500199424	23	15296
2026-01-29 21:32:28.04	322.48	12.23	-26.7	-26.5	16.9	3.80e-06	0	46	0	40609251328	23	15400
2026-01-29 21:32:29.04	322.65	12.14	-26.6	-26.4	16.7	0.00e+00	0	45	0	40718303232	23	15291
2026-01-29 21:32:30.05	322.82	12.05	-26.6	-26.5	16.8	3.80e-06	0	45	0	40835743744	23	15339
2026-01-29 21:32:31.06	322.99	11.96	-26.8	-26.7	16.7	1.90e-06	0	45	0	40944795648	24	14794
2026-01-29 21:32:32.07	323.16	11.87	-26.8	-26.6	16.6	1.90e-06	0	46	0	41062236160	24	14693
2026-01-29 21:32:33.07	323.33	11.78	-26.9	-26.7	16.7	0.00e+00	0	45	0	41171288064	24	14870
2026-01-29 21:32:34.08	323.49	11.69	-27.0	-26.8	16.7	9.50e-06	0	45	0	41297117184	24	15051
2026-01-29 21:32:35.09	323.66	11.60	-27.0	-26.8	16.4	5.70e-06	0	45	0	41406169088	24	15101
2026-01-29 21:32:36.10	323.82	11.52	-26.8	-26.7	16.8	1.90e-06	0	45	0	41523609600	24	14818
2026-01-29 21:32:37.11	323.98	11.43	-26.9	-26.8	16.6	3.80e-06	0	46	0	41632661504	24	14981
2026-01-29 21:32:38.11	324.14	11.34	-27.1	-26.9	16.5	0.00e+00	0	45	0	41741713408	24	15206
2026-01-29 21:32:39.12	324.30	11.25	-27.1	-26.9	16.6	3.80e-06	0	45	0	41859153920	24	15236
2026-01-29 21:32:40.13	324.46	11.16	-27.1	-27.0	16.7	1.90e-06	0	45	0	41968205824	24	15353
2026-01-29 21:32:41.14	324.62	11.07	-48.9	-49.5	7.7	0.00e+00	0	45	104	41984983040	68	16236
2026-01-29 21:32:42.15	324.77	10.99	-53.4	-55.6	6.2	0.00e+00	0	45	104	41984983040	77	19600
2026-01-29 21:32:43.15	324.93	10.90	-53.4	-55.6	6.2	0.00e+00	0	45	104	41984983040	77	19496
2026-01-29 21:32:44.16	325.08	10.81	-53.4	-55.5	6.2	0.00e+00	0	45	104	41984983040	77	19357
2026-01-29 21:32:45.17	325.23	10.73	-53.4	-55.5	6.2	0.00e+00	0	45	104	41984983040	77	19397
2026-01-29 21:32:46.18	325.39	10.64	-53.4	-55.5	6.2	0.00e+00	0	45	104	41984983040	77	19360
2026-01-29 21:32:47.19	325.54	10.55	-53.5	-55.6	6.2	0.00e+00	0	45	104	41984983040	77	19531
2026-01-29 21:32:48.19	325.69	10.47	-53.4	-55.5	6.2	0.00e+00	0	45	104	41984983040	77	19419
2026-01-29 21:32:49.20	325.83	10.38	-53.4	-55.5	6.2	0.00e+00	0	45	104	41984983040	77	19288
2026-01-29 21:32:50.21	325.98	10.30	-53.4	-55.5	6.2	0.00e+00	0	45	104	41984983040	77	19265
2026-01-29 21:32:51.22	326.13	10.21	-53.4	-55.5	6.2	0.00e+00	0	45	104	41984983040	77	19404
2026-01-29 21:32:52.23	326.28	10.13	-53.4	-55.4	6.2	0.00e+00	0	45	104	41984983040	77	19228
2026-01-29 21:32:53.23	326.42	10.04	-53.3	-55.4	6.2	0.00e+00	0	45	104	41984983040	77	19149
2026-01-29 21:32:54.24	326.56	9.96	-53.3	-55.4	6.2	0.00e+00	0	45	104	41984983040	77	19108
2026-01-29 21:32:55.25	326.71	9.87	-53.4	-55.5	6.2	0.00e+00	0	45	104	41984983040	77	19282
2026-01-29 21:32:56.26	326.85	9.79	-53.3	-55.4	6.2	0.00e+00	0	45	104	41984983040	77	19131
2026-01-29 21:32:57.27	326.99	9.70	-53.3	-55.3	6.2	0.00e+00	0	45	104	41984983040	77	18989
2026-01-29 21:32:58.28	327.13	9.62	-53.3	-55.3	6.2	0.00e+00	0	45	104	41984983040	77	18979
2026-01-29 21:32:59.29	327.27	9.54	-53.3	-55.4	6.2	0.00e+00	0	45	104	41984983040	77	19128
2026-01-29 21:33:00.29	327.41	9.45	-53.2	-55.3	6.2	0.00e+00	0	45	104	41984983040	77	18981
2026-01-29 21:33:01.30	327.54	9.37	-53.2	-55.2	6.2	0.00e+00	0	45	104	41984983040	77	18799
2026-01-29 21:33:02.31	327.68	9.29	-53.2	-55.3	6.2	0.00e+00	0	45	104	41984983040	77	18917
2026-01-29 21:33:03.32	327.82	9.21	-53.2	-55.3	6.2	0.00e+00	0	45	104	41984983040	77	18990
2026-01-29 21:33:04.32	327.95	9.12	-53.2	-55.3	6.2	0.00e+00	0	45	104	41984983040	77	18884
2026-01-29 21:33:05.33	328.08	9.04	-53.1	-55.2	6.2	0.00e+00	0	45	104	41984983040	77	18684
2026-01-29 21:33:06.34	328.22	8.96	-53.1	-55.2	6.2	0.00e+00	0	45	104	41984983040	77	18759
2026-01-29 21:33:07.35	328.35	8.88	-53.2	-55.3	6.2	0.00e+00	0	45	104	41984983040	77	18877
2026-01-29 21:33:08.35	328.48	8.80	-53.1	-55.2	6.2	0.00e+00	0	45	104	41984983040	77	18725
2026-01-29 21:33:09.36	328.61	8.72	-53.1	-55.1	6.2	0.00e+00	0	45	104	41984983040	77	18579
2026-01-29 21:33:10.37	328.74	8.64	-53.1	-55.2	6.2	0.00e+00	0	45	104	41984983040	77	18628
2026-01-29 21:33:11.37	328.87	8.56	-53.1	-55.2	6.2	0.00e+00	0	45	104	41984983040	77	18700
2026-01-29 21:33:12.37	328.99	8.48	-53.1	-55.2	6.2	0.00e+00	0	45	104	41984983040	77	18627
2026-01-29 21:33:13.38	329.12	8.40	-53.0	-55.1	6.2	0.00e+00	0	45	104	41984983040	77	18452
2026-01-29 21:33:14.39	329.25	8.32	-53.0	-55.1	6.2	0.00e+00	0	45	104	41984983040	77	18565
2026-01-29 21:33:15.40	329.37	8.24	-53.1	-55.1	6.2	0.00e+00	0	45	104	41984983040	77	18517
2026-01-29 21:33:16.41	329.50	8.16	-53.0	-55.1	6.2	0.00e+00	0	45	104	41984983040	77	18552
2026-01-29 21:33:17.41	329.62	8.08	-52.9	-55.0	6.2	0.00e+00	0	45	104	41984983040	77	18370
2026-01-29 21:33:18.42	329.74	8.00	-53.0	-55.1	6.2	0.00e+00	0	45	104	41984983040	77	18445
2026-01-29 21:33:19.43	329.87	7.92	-53.0	-55.1	6.2	0.00e+00	0	45	104	41984983040	77	18417
2026-01-29 21:33:20.44	329.99	7.84	-53.0	-55.1	6.2	0.00e+00	0	45	104	41984983040	77	18444
2026-01-29 21:33:21.45	330.11	7.76	-52.9	-55.0	6.2	0.00e+00	0	45	104	41984983040	77	18253
2026-01-29 21:33:22.45	330.23	7.68	-53.0	-55.0	6.2	0.00e+00	0	45	104	41984983040	77	18323
2026-01-29 21:33:23.46	330.35	7.61	-52.9	-55.0	6.2	0.00e+00	0	45	104	41984983040	77	18385
2026-01-29 21:33:24.46	330.46	7.53	-52.9	-55.0	6.2	0.00e+00	0	45	104	41984983040	77	18284
2026-01-29 21:33:25.47	330.58	7.45	-52.9	-55.0	6.2	0.00e+00	0	45	104	41984983040	77	18183
2026-01-29 21:33:26.48	330.70	7.37	-52.9	-55.0	6.2	0.00e+00	0	45	104	41984983040	77	18344
2026-01-29 21:33:27.49	330.82	7.30	-52.9	-55.0	6.2	0.00e+00	0	45	104	41984983040	77	18182
2026-01-29 21:33:28.50	330.93	7.22	-52.9	-55.0	6.2	0.00e+00	0	45	104	41984983040	77	18193
2026-01-29 21:33:29.51	331.05	7.14	-52.8	-54.9	6.2	0.00e+00	0	45	104	41984983040	77	18150
2026-01-29 21:33:30.51	331.16	7.07	-52.9	-54.9	6.2	0.00e+00	0	45	104	41984983040	77	18153
2026-01-29 21:33:31.52	331.27	6.99	-52.9	-54.9	6.2	0.00e+00	0	45	104	41984983040	77	18174
2026-01-29 21:33:32.53	331.39	6.92	-52.8	-54.9	6.2	0.00e+00	0	45	104	41984983040	77	18089
2026-01-29 21:33:33.54	331.50	6.84	-52.8	-54.9	6.2	0.00e+00	0	45	104	41984983040	77	18046
2026-01-29 21:33:34.54	331.61	6.77	-52.9	-54.9	6.2	0.00e+00	0	45	104	41984983040	77	18167
2026-01-29 21:33:35.55	331.72	6.69	-52.8	-54.9	6.2	0.00e+00	0	45	104	41984983040	77	18063
2026-01-29 21:33:36.56	331.83	6.61	-52.8	-54.9	6.2	0.00e+00	0	45	104	41984983040	77	18016
2026-01-29 21:33:37.57	331.94	6.54	-52.8	-54.8	6.2	0.00e+00	0	45	104	41984983040	77	17932
2026-01-29 21:33:38.58	332.05	6.46	-52.8	-54.9	6.2	0.00e+00	0	45	104	41984983040	77	18144
2026-01-29 21:33:39.58	332.16	6.39	-52.8	-54.9	6.2	0.00e+00	0	45	104	41984983040	77	18027
2026-01-29 21:33:40.59	332.26	6.32	-52.8	-54.8	6.2	0.00e+00	0	45	104	41984983040	77	17957
2026-01-29 21:33:41.60	332.37	6.24	-52.7	-54.8	6.2	0.00e+00	0	45	104	41984983040	77	17825
2026-01-29 21:33:42.60	332.48	6.17	-52.8	-54.9	6.2	0.00e+00	0	45	104	41984983040	77	18049
2026-01-29 21:33:43.61	332.58	6.10	-52.7	-54.8	6.2	0.00e+00	0	45	104	41984983040	77	17939
2026-01-29 21:33:44.62	332.69	6.02	-52.7	-54.8	6.2	0.00e+00	0	45	104	41984983040	77	17840
2026-01-29 21:33:45.63	332.79	5.95	-52.7	-54.8	6.2	0.00e+00	0	45	104	41984983040	77	17781
2026-01-29 21:33:46.63	332.89	5.88	-52.8	-54.9	6.2	0.00e+00	0	45	104	41984983040	77	17975
2026-01-29 21:33:47.64	333.00	5.80	-52.7	-54.8	6.2	0.00e+00	0	45	104	41984983040	77	17802
2026-01-29 21:33:48.65	333.10	5.73	-52.7	-54.8	6.2	0.00e+00	0	45	104	41984983040	77	17800
2026-01-29 21:33:49.66	333.20	5.66	-52.6	-54.7	6.2	0.00e+00	0	45	104	41984983040	77	17652
2026-01-29 21:33:50.66	333.30	5.59	-52.7	-54.8	6.2	0.00e+00	0	45	104	41984983040	77	17802
2026-01-29 21:33:51.67	333.40	5.51	-52.6	-54.7	6.2	0.00e+00	0	45	104	41984983040	77	17700
2026-01-29 21:33:52.67	333.50	5.44	-52.6	-54.7	6.2	0.00e+00	0	45	104	41984983040	77	17732
2026-01-29 21:33:53.68	333.60	5.37	-52.5	-54.7	6.2	0.00e+00	0	45	104	41984983040	77	17587
2026-01-29 21:33:54.69	333.70	5.30	-52.7	-54.8	6.2	0.00e+00	0	45	104	41984983040	77	17823
2026-01-29 21:33:55.70	333.80	5.23	-52.5	-54.6	6.2	0.00e+00	0	45	104	41984983040	77	17527
2026-01-29 21:33:56.70	333.90	5.16	-52.6	-54.6	6.2	0.00e+00	0	45	104	41984983040	77	17554
2026-01-29 21:33:57.71	333.99	5.09	-52.5	-54.6	6.2	0.00e+00	0	45	104	41984983040	77	17362
2026-01-29 21:33:58.72	334.09	5.02	-52.5	-54.6	6.2	0.00e+00	0	45	104	41984983040	76	18568
2026-01-29 21:33:59.72	334.19	4.95	-53.1	-55.2	6.2	0.00e+00	0	45	104	41984983040	76	19713
2026-01-29 21:34:00.73	334.28	4.88	-53.5	-55.5	6.2	0.00e+00	0	45	104	41984983040	77	19436
2026-01-29 21:34:01.74	334.38	4.81	-53.6	-55.7	6.2	0.00e+00	0	45	104	41984983040	77	19836
2026-01-29 21:34:02.74	334.47	4.74	-53.8	-55.8	6.2	0.00e+00	0	45	104	41984983040	78	19003
2026-01-29 21:34:03.75	334.56	4.67	-53.9	-55.9	6.2	0.00e+00	0	45	104	41984983040	78	19174
2026-01-29 21:34:04.76	334.66	4.60	-53.9	-55.9	6.2	0.00e+00	0	45	104	41984983040	78	19253
2026-01-29 21:34:05.76	334.75	4.53	-53.9	-56.0	6.2	0.00e+00	0	45	104	41984983040	78	19276
2026-01-29 21:34:06.76	334.84	4.46	-53.9	-55.9	6.2	0.00e+00	0	45	104	41984983040	78	19246
2026-01-29 21:34:07.77	334.93	4.39	-53.8	-55.9	6.2	0.00e+00	0	45	104	41984983040	78	19184
2026-01-29 21:34:08.78	335.03	4.32	-53.8	-55.9	6.2	0.00e+00	0	45	104	41984983040	78	19055
2026-01-29 21:34:09.79	335.12	4.25	-53.7	-55.8	6.2	0.00e+00	0	45	104	41984983040	78	18853
2026-01-29 21:34:10.80	335.21	4.18	-53.5	-55.6	6.2	0.00e+00	0	45	104	41984983040	78	18565
2026-01-29 21:34:11.80	335.30	4.12	-53.5	-55.6	6.2	0.00e+00	0	45	104	41984983040	78	18522
2026-01-29 21:34:12.81	335.39	4.05	-53.6	-55.6	6.2	0.00e+00	0	45	104	41984983040	78	18578
2026-01-29 21:34:13.82	335.48	3.98	-53.6	-55.7	6.2	0.00e+00	0	45	104	41984983040	78	18690
2026-01-29 21:34:14.83	335.56	3.91	-53.6	-55.7	6.2	0.00e+00	0	45	104	41984983040	78	18727
2026-01-29 21:34:15.83	335.65	3.84	-53.7	-55.7	6.2	0.00e+00	0	45	104	41984983040	78	18791
2026-01-29 21:34:16.84	335.74	3.78	-53.7	-55.8	6.2	0.00e+00	0	45	104	41984983040	78	18830
2026-01-29 21:34:17.85	335.83	3.71	-53.7	-55.8	6.2	0.00e+00	0	45	104	41984983040	78	18864
2026-01-29 21:34:18.86	335.91	3.64	-53.7	-55.8	6.2	0.00e+00	0	45	104	41984983040	78	18828
2026-01-29 21:34:19.87	336.00	3.57	-53.7	-55.8	6.2	0.00e+00	0	45	104	41984983040	78	18855
2026-01-29 21:34:20.87	336.08	3.51	-53.7	-55.8	6.2	0.00e+00	0	45	104	41984983040	78	18872
2026-01-29 21:34:21.88	336.17	3.44	-53.7	-55.7	6.2	0.00e+00	0	45	104	41984983040	78	18789
2026-01-29 21:34:22.89	336.25	3.38	-53.7	-55.7	6.2	0.00e+00	0	45	104	41984983040	78	18780
2026-01-29 21:34:23.89	336.34	3.31	-53.6	-55.7	6.2	0.00e+00	0	45	104	41984983040	78	18763
2026-01-29 21:34:24.90	336.42	3.24	-53.6	-55.7	6.2	0.00e+00	0	45	104	41984983040	78	18777
2026-01-29 21:34:25.91	336.51	3.18	-53.6	-55.7	6.2	0.00e+00	0	45	104	41984983040	78	18662
2026-01-29 21:34:26.91	336.59	3.11	-53.6	-55.7	6.2	0.00e+00	0	45	104	41984983040	78	18667
2026-01-29 21:34:27.92	336.67	3.05	-53.6	-55.7	6.2	0.00e+00	0	45	104	41984983040	78	18690
2026-01-29 21:34:28.92	336.75	2.98	-53.6	-55.7	6.2	0.00e+00	0	45	104	41984983040	78	18638
2026-01-29 21:34:29.93	336.83	2.92	-53.6	-55.7	6.2	0.00e+00	0	45	104	41984983040	78	18626
2026-01-29 21:34:30.93	336.91	2.85	-53.6	-55.7	6.2	0.00e+00	0	45	104	41984983040	78	18618
2026-01-29 21:34:31.94	336.99	2.79	-53.6	-55.7	6.2	0.00e+00	0	45	104	41984983040	78	18612
2026-01-29 21:34:32.94	337.07	2.72	-53.6	-55.7	6.2	0.00e+00	0	45	104	41984983040	78	18607
2026-01-29 21:34:33.95	337.15	2.66	-53.6	-55.6	6.2	0.00e+00	0	45	104	41984983040	78	18509
2026-01-29 21:34:34.96	337.23	2.59	-53.6	-55.6	6.2	0.00e+00	0	45	104	41984983040	78	18533
2026-01-29 21:34:35.97	337.31	2.53	-53.5	-55.6	6.2	0.00e+00	0	45	104	41984983040	78	18549
2026-01-29 21:34:36.98	337.39	2.46	-53.5	-55.6	6.2	0.00e+00	0	45	104	41984983040	78	18584
2026-01-29 21:34:37.98	337.47	2.40	-53.5	-55.6	6.2	0.00e+00	0	45	104	41984983040	78	18588
2026-01-29 21:34:38.99	337.55	2.34	-53.5	-55.6	6.2	0.00e+00	0	45	104	41984983040	78	18513
2026-01-29 21:34:39.99	337.63	2.27	-53.5	-55.6	6.2	0.00e+00	0	45	104	41984983040	78	18537
2026-01-29 21:34:41.00	337.70	2.21	-53.5	-55.6	6.2	0.00e+00	0	45	104	41984983040	78	18521
2026-01-29 21:34:42.01	337.78	2.14	-53.5	-55.6	6.2	0.00e+00	0	45	104	41984983040	78	18510
2026-01-29 21:34:43.01	337.86	2.08	-53.5	-55.6	6.2	0.00e+00	0	45	104	41984983040	78	18532
2026-01-29 21:34:44.02	337.93	2.02	-53.5	-55.6	6.2	0.00e+00	0	45	104	41984983040	78	18579

#Closed at: 2026-01-29 21:34:45
#Recorded file [41984 MB]: D:/lorett/data/31041_260130_002434.dat