passes_logs/2026/01/29/R3.2S_Murmansk/R3.2S_Murmansk__20260129_044237_AQUA_rec.log

#Pass ID: 20260129_044237_AQUA
#Satellite: AQUA
#Configuration: AQUA
#almurnet v.1.7.20251203
#Start time: 2026-01-29 04:42:40

#Version: 2.2.20231116
#Station: R3.2S_Murmansk
#Location: 33.079688 lon 68.888172 lat
#TLE: 1 27424U 02022A   26027.96263068  .00001625  00000+0  33481-3 0  9997
#TLE: 2 27424  98.4102 354.6095 0001839  63.4368   7.7786 14.61867353262782

#Time	Az	El	Level	Level2	SNR	BER	BlckErr	Temp	State	Recorded	gain1	gain2
2026-01-29 04:42:40.05	34.33	2.14	-55.5	-73.3	3.8	7.47e-01	0	40	0	0	82	28112
2026-01-29 04:42:41.05	34.27	2.20	-55.4	-73.3	3.8	7.48e-01	0	41	104	0	81	29755
2026-01-29 04:42:42.06	34.21	2.26	-55.4	-73.2	3.8	7.48e-01	0	40	104	0	81	29654
2026-01-29 04:42:43.07	34.15	2.32	-55.4	-73.2	3.8	7.46e-01	0	41	104	0	81	29640
2026-01-29 04:42:44.07	34.09	2.38	-55.4	-73.2	3.8	7.46e-01	0	40	104	0	81	29644
2026-01-29 04:42:45.08	34.03	2.45	-55.4	-73.2	3.8	7.43e-01	0	41	104	0	81	29638
2026-01-29 04:42:46.09	33.97	2.51	-55.6	-73.4	3.8	7.48e-01	0	41	104	0	81	30116
2026-01-29 04:42:47.09	33.90	2.57	-55.6	-73.4	3.8	7.46e-01	0	41	104	0	81	30349
2026-01-29 04:42:48.10	33.84	2.63	-55.7	-73.5	3.8	7.42e-01	0	41	104	0	81	30529
2026-01-29 04:42:49.10	33.78	2.70	-55.7	-73.5	3.8	7.45e-01	0	41	104	0	81	30555
2026-01-29 04:42:50.11	33.72	2.76	-55.7	-73.6	3.8	7.45e-01	0	41	104	0	82	29024
2026-01-29 04:42:51.12	33.65	2.82	-55.7	-73.5	3.8	7.45e-01	0	41	104	0	82	28978
2026-01-29 04:42:52.13	33.59	2.88	-55.7	-73.5	3.8	7.45e-01	0	41	104	0	82	28901
2026-01-29 04:42:53.13	33.52	2.95	-55.7	-73.5	3.8	7.43e-01	0	41	104	0	82	28795
2026-01-29 04:42:54.14	33.46	3.01	-55.6	-73.5	3.8	7.48e-01	0	41	104	0	82	28711
2026-01-29 04:42:55.15	33.39	3.07	-55.6	-73.5	3.8	7.47e-01	0	41	104	0	82	28756
2026-01-29 04:42:56.16	33.33	3.14	-55.6	-73.5	3.8	7.46e-01	0	41	104	0	82	28745
2026-01-29 04:42:57.17	33.26	3.20	-55.6	-73.4	3.8	7.44e-01	0	41	104	0	82	28604
2026-01-29 04:42:58.18	33.20	3.27	-55.6	-73.4	3.8	7.42e-01	0	41	104	0	82	28570
2026-01-29 04:42:59.19	33.13	3.33	-55.5	-73.4	3.8	7.45e-01	0	41	104	0	82	28372
2026-01-29 04:43:00.20	33.06	3.39	-55.4	-73.3	3.8	7.47e-01	0	41	104	0	82	28070
2026-01-29 04:43:01.20	33.00	3.46	-55.3	-73.1	3.8	7.42e-01	0	41	104	0	82	27668
2026-01-29 04:43:02.21	32.93	3.52	-55.2	-73.0	3.8	7.47e-01	0	41	104	0	82	27332
2026-01-29 04:43:03.22	32.86	3.59	-55.1	-72.9	3.8	7.43e-01	0	41	104	0	82	26996
2026-01-29 04:43:04.23	32.80	3.65	-54.9	-72.7	3.8	7.46e-01	0	41	104	0	81	28025
2026-01-29 04:43:05.24	32.73	3.72	-54.7	-72.6	3.8	7.44e-01	0	41	104	0	81	27398
2026-01-29 04:43:06.24	32.66	3.78	-54.5	-72.3	3.8	7.47e-01	0	41	104	0	81	26503
2026-01-29 04:43:07.25	32.59	3.85	-54.1	-71.9	3.8	7.45e-01	0	41	104	0	80	27035
2026-01-29 04:43:08.26	32.52	3.91	-53.6	-71.3	3.8	7.43e-01	0	41	104	0	79	26737
2026-01-29 04:43:09.27	32.45	3.98	-53.5	-71.3	3.8	7.44e-01	0	41	104	0	79	26489
2026-01-29 04:43:10.27	32.38	4.04	-53.5	-71.3	3.8	7.43e-01	0	41	104	0	79	26596
2026-01-29 04:43:11.28	32.31	4.11	-53.5	-71.3	3.8	7.44e-01	0	41	104	0	78	28049
2026-01-29 04:43:12.29	32.24	4.17	-53.4	-71.1	3.8	7.44e-01	0	41	104	0	78	27434
2026-01-29 04:43:13.30	32.17	4.24	-53.3	-70.6	3.8	7.44e-01	0	41	104	0	78	25946
2026-01-29 04:43:14.31	32.10	4.31	-53.2	-69.9	3.8	7.45e-01	0	41	104	0	78	23960
2026-01-29 04:43:15.31	32.03	4.37	-52.9	-68.8	3.8	7.42e-01	0	41	104	0	77	22367
2026-01-29 04:43:16.33	31.95	4.44	-52.6	-68.0	3.8	7.46e-01	0	41	104	0	77	20478
2026-01-29 04:43:17.33	31.88	4.51	-52.5	-67.7	3.8	7.46e-01	0	41	104	0	77	19763
2026-01-29 04:43:18.33	31.81	4.57	-52.5	-67.5	3.8	7.44e-01	0	41	104	0	77	19349
2026-01-29 04:43:19.34	31.74	4.64	-52.4	-67.3	3.8	7.46e-01	0	41	104	0	76	20012
2026-01-29 04:43:20.35	31.66	4.71	-52.5	-67.5	3.8	7.45e-01	0	41	104	0	76	20344
2026-01-29 04:43:21.36	31.59	4.77	-52.6	-67.9	3.8	7.47e-01	0	41	104	0	76	21450
2026-01-29 04:43:22.36	31.51	4.84	-52.6	-68.0	3.8	7.43e-01	0	41	104	0	76	21547
2026-01-29 04:43:23.37	31.44	4.91	-52.5	-67.6	3.8	7.44e-01	0	41	104	0	76	20682
2026-01-29 04:43:24.37	31.36	4.97	-52.2	-66.8	3.8	7.41e-01	0	41	104	0	76	18859
2026-01-29 04:43:25.38	31.29	5.04	-52.2	-66.6	3.8	7.47e-01	0	41	104	0	76	18413
2026-01-29 04:43:26.39	31.21	5.11	-52.3	-66.7	3.8	7.45e-01	0	41	104	0	76	18659
2026-01-29 04:43:27.39	31.14	5.18	-50.3	-62.7	3.8	7.44e-01	0	42	104	0	71	15646
2026-01-29 04:43:28.40	31.06	5.24	-53.2	-70.4	3.8	7.44e-01	0	41	104	0	77	27070
2026-01-29 04:43:29.41	30.98	5.31	-51.7	-65.4	3.9	7.44e-01	0	42	104	0	75	16981
2026-01-29 04:43:30.42	30.90	5.38	-46.7	-57.9	3.8	7.44e-01	0	42	104	0	65	12691
2026-01-29 04:43:31.43	30.83	5.45	-46.7	-57.9	3.8	7.42e-01	0	42	104	0	65	12671
2026-01-29 04:43:32.43	30.75	5.52	-46.3	-57.4	3.8	7.46e-01	0	41	104	0	64	12808
2026-01-29 04:43:33.44	30.67	5.59	-46.2	-57.3	3.8	7.46e-01	0	41	104	0	64	12582
2026-01-29 04:43:34.45	30.59	5.66	-46.9	-58.1	3.8	7.46e-01	0	41	104	0	64	13754
2026-01-29 04:43:35.46	30.51	5.73	-51.3	-64.9	3.8	7.46e-01	0	41	104	0	73	17910
2026-01-29 04:43:36.47	30.43	5.79	-53.0	-69.1	3.9	7.45e-01	0	41	104	0	77	23286
2026-01-29 04:43:37.47	30.35	5.86	-50.3	-62.7	3.8	7.42e-01	0	41	104	0	72	14731
2026-01-29 04:43:38.48	30.27	5.93	-46.3	-57.4	3.8	7.47e-01	0	41	104	0	64	12751
2026-01-29 04:43:39.49	30.19	6.00	-46.3	-57.4	3.8	7.44e-01	0	41	104	0	64	12737
2026-01-29 04:43:40.49	30.10	6.07	-46.0	-56.8	3.8	7.43e-01	0	41	104	0	63	12612
2026-01-29 04:43:41.49	30.02	6.14	-46.2	-57.3	3.8	7.43e-01	0	41	104	0	63	13305
2026-01-29 04:43:42.50	29.94	6.21	-48.0	-59.5	3.8	7.44e-01	0	42	104	0	66	14452
2026-01-29 04:43:43.51	29.86	6.28	-51.8	-65.9	3.8	7.43e-01	0	42	104	0	74	19045
2026-01-29 04:43:44.52	29.77	6.35	-51.0	-64.0	3.9	7.43e-01	0	41	104	0	74	15361
2026-01-29 04:43:45.53	29.69	6.42	-50.4	-62.3	3.8	7.45e-01	0	42	104	0	70	15870
2026-01-29 04:43:46.54	29.60	6.49	-52.1	-66.7	4.0	7.40e-01	0	42	104	0	76	18584
2026-01-29 04:43:47.54	29.52	6.57	-46.2	-57.2	3.8	7.45e-01	0	41	104	0	64	12452
2026-01-29 04:43:48.55	29.43	6.64	-46.0	-57.0	3.8	7.45e-01	0	42	104	0	64	12172
2026-01-29 04:43:49.55	29.35	6.71	-48.5	-60.0	3.8	7.46e-01	0	42	104	0	67	14540
2026-01-29 04:43:50.55	29.26	6.78	-51.2	-64.3	3.9	7.43e-01	0	41	104	0	74	15895
2026-01-29 04:43:51.56	29.17	6.85	-53.1	-68.6	3.8	7.47e-01	0	42	104	0	76	23093
2026-01-29 04:43:52.56	29.09	6.92	-52.5	-67.0	3.9	7.45e-01	0	42	104	0	77	18226
2026-01-29 04:43:53.56	29.00	6.99	-48.3	-59.7	3.9	7.45e-01	0	41	104	0	68	13110
2026-01-29 04:43:54.57	28.91	7.06	-46.1	-57.2	3.8	7.47e-01	0	42	104	0	63	13122
2026-01-29 04:43:55.58	28.82	7.14	-45.9	-56.9	3.8	7.45e-01	0	42	104	0	63	12667
2026-01-29 04:43:56.59	28.73	7.21	-45.9	-56.9	3.8	7.43e-01	0	41	104	0	63	12736
2026-01-29 04:43:57.60	28.64	7.28	-46.2	-57.3	3.8	7.47e-01	0	42	104	0	63	13308
2026-01-29 04:43:58.61	28.55	7.36	-48.8	-60.6	3.8	7.45e-01	0	42	104	0	68	14544
2026-01-29 04:43:59.62	28.46	7.43	-52.5	-67.1	3.8	7.46e-01	0	41	104	0	75	20566
2026-01-29 04:44:00.63	28.37	7.50	-49.2	-61.0	3.9	7.44e-01	0	42	104	0	70	13691
2026-01-29 04:44:01.63	28.27	7.57	-52.2	-66.1	3.8	7.49e-01	0	42	104	0	74	19552
2026-01-29 04:44:02.64	28.18	7.65	-48.8	-60.3	3.9	7.40e-01	0	42	104	0	69	13358
2026-01-29 04:44:03.65	28.09	7.72	-46.0	-57.0	3.8	7.45e-01	0	42	104	0	63	12878
2026-01-29 04:44:04.66	27.99	7.80	-46.0	-57.0	3.8	7.46e-01	0	42	104	0	63	12873
2026-01-29 04:44:05.66	27.90	7.87	-52.6	-66.8	3.7	7.47e-01	0	42	104	0	75	19985
2026-01-29 04:44:06.67	27.81	7.94	-50.7	-63.3	3.8	7.43e-01	0	42	104	0	73	15016
2026-01-29 04:44:07.68	27.71	8.02	-53.7	-70.9	3.7	7.49e-01	0	41	104	0	77	28365
2026-01-29 04:44:08.68	27.61	8.09	-52.3	-66.4	3.8	7.43e-01	0	42	104	0	76	17999
2026-01-29 04:44:09.69	27.52	8.17	-47.1	-58.2	3.8	7.44e-01	0	42	104	0	66	12509
2026-01-29 04:44:10.70	27.42	8.24	-45.6	-56.6	3.8	7.45e-01	0	42	104	0	63	12257
2026-01-29 04:44:11.71	27.32	8.32	-45.5	-56.5	3.8	7.43e-01	0	41	104	0	63	12122
2026-01-29 04:44:12.71	27.23	8.39	-45.4	-56.3	3.8	7.43e-01	0	42	104	0	62	12550
2026-01-29 04:44:13.72	27.13	8.47	-45.3	-56.3	3.8	7.46e-01	0	42	104	0	62	12543
2026-01-29 04:44:14.72	27.03	8.54	-47.9	-59.4	3.8	7.48e-01	0	42	104	0	66	14273
2026-01-29 04:44:15.73	26.93	8.62	-52.6	-67.2	3.8	7.46e-01	0	42	104	0	75	20991
2026-01-29 04:44:16.74	26.83	8.69	-47.7	-59.0	3.8	7.46e-01	0	42	104	0	67	12897
2026-01-29 04:44:17.75	26.73	8.77	-53.5	-69.9	3.7	7.51e-01	0	42	104	0	77	25521
2026-01-29 04:44:18.76	26.62	8.84	-46.4	-57.3	3.8	7.46e-01	0	42	104	0	64	12650
2026-01-29 04:44:19.77	26.52	8.92	-45.6	-56.6	3.8	7.45e-01	0	42	104	0	63	12272
2026-01-29 04:44:20.78	26.42	9.00	-45.2	-56.2	3.8	7.43e-01	0	42	104	0	62	12381
2026-01-29 04:44:21.78	26.32	9.07	-52.4	-66.4	3.8	7.48e-01	0	42	104	0	75	19107
2026-01-29 04:44:22.79	26.21	9.15	-48.1	-59.5	3.8	7.48e-01	0	42	104	0	66	14391
2026-01-29 04:44:23.79	26.11	9.23	-52.5	-66.8	3.8	7.45e-01	0	42	104	0	75	19847
2026-01-29 04:44:24.80	26.00	9.30	-46.6	-57.6	3.8	7.44e-01	0	42	104	0	65	12350
2026-01-29 04:44:25.81	25.90	9.38	-53.9	-71.7	3.6	7.48e-01	0	42	104	0	78	29405
2026-01-29 04:44:26.82	25.79	9.46	-46.2	-57.1	3.9	7.43e-01	0	42	104	0	64	12365
2026-01-29 04:44:27.82	25.68	9.54	-45.5	-56.5	3.8	7.45e-01	0	42	104	0	63	12144
2026-01-29 04:44:28.83	25.57	9.61	-45.1	-56.0	3.8	7.42e-01	0	42	104	0	62	12196
2026-01-29 04:44:29.84	25.47	9.69	-51.3	-64.4	3.8	7.47e-01	0	42	104	0	73	17014
2026-01-29 04:44:30.85	25.36	9.77	-47.8	-59.5	3.8	7.44e-01	0	42	104	0	66	14383
2026-01-29 04:44:31.86	25.25	9.85	-52.4	-66.4	3.9	7.47e-01	0	42	104	0	75	19069
2026-01-29 04:44:32.87	25.14	9.93	-46.1	-57.1	3.8	7.42e-01	0	42	104	0	64	12247
2026-01-29 04:44:33.87	25.02	10.01	-53.9	-71.6	3.8	7.46e-01	0	42	104	0	78	29252
2026-01-29 04:44:34.88	24.91	10.09	-45.7	-56.7	3.8	7.43e-01	0	42	104	0	63	12391
2026-01-29 04:44:35.89	24.80	10.16	-45.4	-56.4	3.8	7.42e-01	0	42	104	0	62	12673
2026-01-29 04:44:36.90	24.69	10.24	-45.1	-55.9	3.9	7.43e-01	0	42	104	0	62	12045
2026-01-29 04:44:37.90	24.57	10.32	-52.5	-66.6	3.8	7.44e-01	0	42	104	0	75	19395
2026-01-29 04:44:38.92	24.46	10.40	-48.6	-60.1	3.8	7.48e-01	0	42	104	0	67	14552
2026-01-29 04:44:39.93	24.34	10.48	-52.3	-66.2	3.8	7.44e-01	0	42	104	0	75	18528
2026-01-29 04:44:40.93	24.23	10.56	-45.9	-56.8	3.8	7.47e-01	0	42	104	0	63	12609
2026-01-29 04:44:41.93	24.11	10.64	-53.9	-71.7	3.8	7.47e-01	0	42	104	0	78	29570
2026-01-29 04:44:42.94	23.99	10.72	-46.0	-57.0	3.8	7.44e-01	0	42	104	0	64	12149
2026-01-29 04:44:43.95	23.88	10.80	-45.5	-56.4	3.8	7.41e-01	0	42	104	0	63	12028
2026-01-29 04:44:44.95	23.76	10.88	-45.3	-56.2	3.8	7.44e-01	0	42	104	0	62	12454
2026-01-29 04:44:45.96	23.64	10.97	-51.1	-63.9	3.8	7.44e-01	0	42	104	0	72	16898
2026-01-29 04:44:46.97	23.52	11.05	-49.0	-60.6	3.8	7.43e-01	0	42	104	0	68	14657
2026-01-29 04:44:47.97	23.40	11.13	-52.2	-66.0	3.8	7.45e-01	0	42	104	0	75	18201
2026-01-29 04:44:48.98	23.28	11.21	-45.4	-56.3	3.9	7.47e-01	0	42	104	0	62	12602
2026-01-29 04:44:49.99	23.15	11.29	-53.9	-71.6	3.8	7.43e-01	0	42	104	0	78	29036
2026-01-29 04:44:51.00	23.03	11.37	-45.4	-56.2	3.9	7.44e-01	0	42	104	0	62	12471
2026-01-29 04:44:52.01	22.90	11.45	-45.0	-55.9	3.8	7.47e-01	0	42	104	0	62	12060
2026-01-29 04:44:53.01	22.78	11.54	-44.9	-55.8	3.8	7.46e-01	0	42	104	0	61	12549
2026-01-29 04:44:54.02	22.65	11.62	-51.5	-64.5	3.8	7.47e-01	0	42	104	0	73	17163
2026-01-29 04:44:55.03	22.53	11.70	-48.8	-60.4	3.8	7.43e-01	0	42	104	0	68	14216
2026-01-29 04:44:56.03	22.40	11.78	-52.3	-66.0	3.8	7.45e-01	0	42	104	0	75	18289
2026-01-29 04:44:57.04	22.27	11.87	-45.3	-56.2	3.9	7.45e-01	0	42	104	0	62	12457
2026-01-29 04:44:58.05	22.14	11.95	-54.0	-71.5	3.8	7.43e-01	0	42	104	0	78	28981
2026-01-29 04:44:59.06	22.02	12.03	-45.3	-56.1	3.8	7.45e-01	0	42	104	0	62	12324
2026-01-29 04:45:00.06	21.89	12.12	-45.0	-55.8	3.8	7.44e-01	0	42	104	0	62	11941
2026-01-29 04:45:01.07	21.75	12.20	-44.6	-55.4	3.8	7.42e-01	0	42	104	0	61	12045
2026-01-29 04:45:02.08	21.62	12.28	-50.2	-62.5	3.8	7.46e-01	0	42	104	0	72	14463
2026-01-29 04:45:03.09	21.49	12.37	-48.6	-60.2	3.8	7.46e-01	0	42	104	0	67	14754
2026-01-29 04:45:04.09	21.36	12.45	-52.2	-65.7	3.8	7.42e-01	0	42	104	0	75	17654
2026-01-29 04:45:05.10	21.22	12.54	-45.0	-55.9	3.8	7.45e-01	0	42	104	0	62	11973
2026-01-29 04:45:06.11	21.09	12.62	-54.0	-71.5	3.8	7.46e-01	0	42	104	0	78	28985
2026-01-29 04:45:07.12	20.95	12.70	-44.9	-55.6	3.8	7.45e-01	0	42	104	0	61	12342
2026-01-29 04:45:08.12	20.81	12.79	-44.7	-55.4	3.8	7.42e-01	0	42	104	0	61	12083
2026-01-29 04:45:09.13	20.68	12.87	-44.4	-55.2	3.8	7.46e-01	0	42	104	0	60	12514
2026-01-29 04:45:10.14	20.54	12.96	-51.2	-64.2	3.8	7.43e-01	0	42	104	0	73	16507
2026-01-29 04:45:11.15	20.40	13.04	-48.2	-59.6	3.8	7.41e-01	0	42	104	0	66	14613
2026-01-29 04:45:12.15	20.26	13.13	-52.1	-65.6	3.8	7.47e-01	0	42	104	0	75	17461
2026-01-29 04:45:13.16	20.11	13.22	-44.6	-55.4	3.8	7.39e-01	0	42	104	0	61	12045
2026-01-29 04:45:14.17	19.97	13.30	-54.1	-72.0	3.8	7.43e-01	0	42	104	0	78	30389
2026-01-29 04:45:15.18	19.83	13.39	-44.9	-55.7	3.8	7.42e-01	0	42	104	0	61	12438
2026-01-29 04:45:16.19	19.68	13.47	-44.8	-55.6	3.9	7.44e-01	0	42	104	0	61	12280
2026-01-29 04:45:17.19	19.54	13.56	-44.4	-55.3	3.8	7.45e-01	0	42	104	0	60	12526
2026-01-29 04:45:18.20	19.39	13.65	-48.9	-60.2	3.9	7.44e-01	0	42	104	0	69	13196
2026-01-29 04:45:19.21	19.25	13.73	-48.2	-59.6	3.8	7.48e-01	0	42	104	0	66	14618
2026-01-29 04:45:20.22	19.10	13.82	-52.2	-65.7	3.8	7.42e-01	0	42	104	0	75	17641
2026-01-29 04:45:21.22	18.95	13.91	-44.8	-55.5	3.8	7.45e-01	0	42	104	0	61	12214
2026-01-29 04:45:22.23	18.80	13.99	-54.2	-72.0	3.8	7.46e-01	0	42	104	0	78	30579
2026-01-29 04:45:23.24	18.65	14.08	-45.6	-56.5	3.8	7.48e-01	0	42	104	0	63	12161
2026-01-29 04:45:24.25	18.50	14.17	-45.3	-56.1	3.8	7.42e-01	0	42	104	0	62	12315
2026-01-29 04:45:25.26	18.34	14.26	-44.9	-55.7	3.8	7.41e-01	0	42	104	0	61	12483
2026-01-29 04:45:26.26	18.19	14.34	-48.3	-59.5	3.9	7.44e-01	0	42	104	0	68	12857
2026-01-29 04:45:27.27	18.04	14.43	-48.8	-60.4	3.8	7.41e-01	0	42	104	0	68	14300
2026-01-29 04:45:28.27	17.88	14.52	-52.1	-65.6	3.8	7.46e-01	0	42	104	0	75	17296
2026-01-29 04:45:29.28	17.72	14.61	-44.7	-55.5	3.8	7.41e-01	0	42	104	0	61	12099
2026-01-29 04:45:30.29	17.57	14.70	-54.1	-71.5	3.8	7.43e-01	0	42	104	0	78	28841
2026-01-29 04:45:31.30	17.41	14.78	-45.3	-56.1	3.9	7.44e-01	0	42	104	0	62	12332
2026-01-29 04:45:32.31	17.25	14.87	-44.7	-55.5	3.8	7.43e-01	0	42	104	0	61	12224
2026-01-29 04:45:33.31	17.09	14.96	-44.3	-55.1	3.8	7.46e-01	0	42	104	0	60	12267
2026-01-29 04:45:34.32	16.92	15.05	-46.0	-56.7	3.8	7.43e-01	0	42	104	0	63	12471
2026-01-29 04:45:35.32	16.76	15.14	-48.6	-60.0	3.8	7.46e-01	0	42	104	0	67	14415
2026-01-29 04:45:36.32	16.60	15.23	-52.1	-65.4	3.8	7.46e-01	0	42	104	0	75	16912
2026-01-29 04:45:37.33	16.43	15.32	-44.5	-55.2	3.9	7.46e-01	0	42	104	0	60	12484
2026-01-29 04:45:38.33	16.27	15.40	-54.1	-71.6	3.8	7.43e-01	0	42	104	0	79	27467
2026-01-29 04:45:39.34	16.10	15.49	-45.6	-56.5	3.8	7.44e-01	0	42	104	0	63	12120
2026-01-29 04:45:40.35	15.93	15.58	-45.5	-56.3	3.8	7.42e-01	0	42	104	0	62	12637
2026-01-29 04:45:41.36	15.76	15.67	-45.1	-56.0	3.8	7.46e-01	0	42	104	0	62	12110
2026-01-29 04:45:42.37	15.59	15.76	-45.8	-56.8	3.8	7.45e-01	0	42	104	0	63	12538
2026-01-29 04:45:43.37	15.42	15.85	-50.0	-61.9	3.8	7.46e-01	0	42	104	0	70	15221
2026-01-29 04:45:44.38	15.25	15.94	-51.9	-65.1	3.9	7.47e-01	0	42	104	0	75	16360
2026-01-29 04:45:45.39	15.07	16.03	-45.5	-56.2	3.8	7.45e-01	0	42	104	0	61	13211
2026-01-29 04:45:46.40	14.90	16.13	-53.0	-67.8	4.0	7.40e-01	0	42	104	0	78	18930
2026-01-29 04:45:47.40	14.72	16.21	-45.2	-55.9	3.8	7.45e-01	0	42	104	0	62	12093
2026-01-29 04:45:48.41	14.55	16.31	-44.7	-55.5	3.8	7.42e-01	0	42	104	0	61	12150
2026-01-29 04:45:49.41	14.37	16.40	-44.2	-54.9	3.8	7.45e-01	0	42	104	0	60	12067
2026-01-29 04:45:50.42	14.19	16.49	-45.1	-56.0	3.9	7.46e-01	0	42	104	0	62	12118
2026-01-29 04:45:51.43	14.01	16.58	-49.7	-61.4	3.8	7.45e-01	0	42	104	0	69	15102
2026-01-29 04:45:52.43	13.83	16.67	-51.9	-65.1	3.8	7.46e-01	0	42	104	0	75	16366
2026-01-29 04:45:53.44	13.64	16.76	-45.3	-56.0	3.8	7.47e-01	0	42	104	0	61	12862
2026-01-29 04:45:54.45	13.46	16.85	-53.0	-67.7	4.0	7.43e-01	0	42	104	0	78	18707
2026-01-29 04:45:55.46	13.27	16.94	-45.4	-56.2	3.8	7.42e-01	0	42	104	0	62	12489
2026-01-29 04:45:56.47	13.09	17.03	-45.0	-55.8	3.8	7.45e-01	0	42	104	0	62	11845
2026-01-29 04:45:57.47	12.90	17.12	-47.1	-58.1	3.8	7.44e-01	0	42	104	0	64	13748
2026-01-29 04:45:58.48	12.71	17.22	-46.0	-57.0	3.8	7.45e-01	0	42	104	0	64	12142
2026-01-29 04:45:59.49	12.52	17.31	-51.8	-64.6	3.8	7.43e-01	0	42	104	0	73	17352
2026-01-29 04:46:00.50	12.33	17.40	-50.7	-62.9	3.9	7.42e-01	0	42	104	0	73	14369
2026-01-29 04:46:01.51	12.13	17.49	-47.3	-58.4	3.8	7.44e-01	0	42	104	0	64	14219
2026-01-29 04:46:02.51	11.94	17.58	-50.6	-62.9	3.9	7.44e-01	0	42	104	0	73	14325
2026-01-29 04:46:03.52	11.74	17.67	-45.2	-56.0	3.8	7.48e-01	0	42	104	0	62	12199
2026-01-29 04:46:04.52	11.55	17.76	-44.9	-55.7	3.8	7.44e-01	0	42	104	0	61	12494
2026-01-29 04:46:05.53	11.35	17.86	-47.9	-59.3	3.8	7.41e-01	0	42	104	0	66	14184
2026-01-29 04:46:06.54	11.15	17.95	-46.5	-57.6	3.9	7.42e-01	0	42	104	0	65	12298
2026-01-29 04:46:07.55	10.95	18.04	-51.9	-65.0	3.8	7.45e-01	0	42	104	0	74	17224
2026-01-29 04:46:08.56	10.75	18.13	-49.2	-60.7	3.9	7.43e-01	0	42	104	0	70	13239
2026-01-29 04:46:09.57	10.54	18.22	-50.5	-62.7	3.8	7.46e-01	0	42	104	0	71	15634
2026-01-29 04:46:10.57	10.34	18.32	-48.5	-60.1	3.9	7.42e-01	0	42	104	0	69	12986
2026-01-29 04:46:11.57	10.13	18.41	-45.3	-56.1	3.8	7.42e-01	0	42	104	0	62	12315
2026-01-29 04:46:12.58	9.93	18.50	-44.9	-55.7	3.8	7.43e-01	0	42	104	0	61	12464
2026-01-29 04:46:13.59	9.72	18.59	-49.8	-61.4	3.8	7.45e-01	0	42	104	0	69	15167
2026-01-29 04:46:14.60	9.51	18.68	-45.6	-56.4	3.8	7.44e-01	0	42	104	0	63	12085
2026-01-29 04:46:15.61	9.29	18.78	-52.4	-65.8	3.8	7.45e-01	0	42	104	0	75	17817
2026-01-29 04:46:16.61	9.08	18.87	-49.0	-60.6	3.9	7.46e-01	0	42	104	0	70	13073
2026-01-29 04:46:17.63	8.87	18.96	-50.2	-62.1	3.8	7.43e-01	0	42	104	0	70	15432
2026-01-29 04:46:18.63	8.65	19.05	-48.4	-59.9	3.9	7.42e-01	0	42	104	0	69	12682
2026-01-29 04:46:19.63	8.44	19.14	-45.5	-56.4	3.8	7.41e-01	0	42	104	0	63	12003
2026-01-29 04:46:20.64	8.22	19.23	-45.3	-56.2	3.8	7.44e-01	0	42	104	0	62	12425
2026-01-29 04:46:21.65	8.00	19.33	-50.2	-62.0	3.8	7.43e-01	0	42	104	0	70	15365
2026-01-29 04:46:22.66	7.78	19.42	-45.9	-56.8	3.8	7.43e-01	0	42	104	0	63	12557
2026-01-29 04:46:23.67	7.55	19.51	-52.3	-65.8	3.8	7.44e-01	0	42	104	0	75	17735
2026-01-29 04:46:24.68	7.33	19.60	-47.9	-59.2	3.8	7.41e-01	0	42	104	0	68	12425
2026-01-29 04:46:25.69	7.10	19.69	-53.0	-66.9	3.8	7.46e-01	0	42	104	0	76	19162
2026-01-29 04:46:26.69	6.88	19.78	-47.2	-58.3	3.8	7.45e-01	0	42	104	0	66	12526
2026-01-29 04:46:27.70	6.65	19.87	-45.5	-56.3	3.8	7.48e-01	0	42	104	0	63	11942
2026-01-29 04:46:28.71	6.42	19.97	-45.4	-56.3	3.8	7.45e-01	0	42	104	0	62	12592
2026-01-29 04:46:29.72	6.18	20.06	-49.8	-61.9	3.8	7.45e-01	0	42	104	0	70	15170
2026-01-29 04:46:30.73	5.95	20.15	-46.0	-56.9	3.8	7.44e-01	0	42	104	0	63	12669
2026-01-29 04:46:31.74	5.72	20.24	-52.3	-65.7	3.8	7.43e-01	0	42	104	0	75	17597
2026-01-29 04:46:32.75	5.48	20.33	-48.1	-59.4	3.9	7.47e-01	0	42	104	0	68	12810
2026-01-29 04:46:33.75	5.24	20.42	-54.2	-70.7	3.7	7.49e-01	0	42	104	0	78	26206
2026-01-29 04:46:34.76	5.01	20.51	-46.4	-57.2	3.9	7.42e-01	0	42	104	0	64	12383
2026-01-29 04:46:35.77	4.76	20.60	-45.4	-56.2	3.8	7.45e-01	0	42	104	0	62	12470
2026-01-29 04:46:36.77	4.52	20.69	-45.0	-55.8	3.8	7.43e-01	0	42	104	0	62	11921
2026-01-29 04:46:37.78	4.28	20.78	-47.7	-58.9	3.9	7.39e-01	0	42	104	0	65	14304
2026-01-29 04:46:38.79	4.04	20.87	-46.7	-57.8	3.8	7.45e-01	0	42	104	0	63	14049
2026-01-29 04:46:39.80	3.79	20.96	-52.4	-65.8	3.8	7.46e-01	0	42	104	0	75	17755
2026-01-29 04:46:40.81	3.54	21.05	-48.2	-59.5	3.8	7.43e-01	0	42	104	0	68	12844
2026-01-29 04:46:41.82	3.29	21.14	-54.3	-71.2	3.7	7.48e-01	0	42	104	0	79	26430
2026-01-29 04:46:42.82	3.04	21.23	-47.1	-58.1	3.8	7.44e-01	0	42	104	0	66	12373
2026-01-29 04:46:43.83	2.79	21.32	-45.9	-56.7	3.8	7.42e-01	0	42	104	0	63	12514
2026-01-29 04:46:44.84	2.53	21.40	-45.4	-56.2	3.8	7.41e-01	0	42	104	0	62	12424
2026-01-29 04:46:45.85	2.28	21.49	-51.3	-63.7	3.8	7.46e-01	0	42	104	0	72	16594
2026-01-29 04:46:46.85	2.02	21.58	-46.9	-58.0	3.8	7.45e-01	0	42	104	0	65	12892
2026-01-29 04:46:47.86	1.76	21.67	-52.5	-65.9	3.8	7.45e-01	0	42	104	0	75	18042
2026-01-29 04:46:48.87	1.50	21.76	-47.2	-58.2	3.8	7.47e-01	0	42	104	0	66	12499
2026-01-29 04:46:49.87	1.24	21.84	-54.5	-72.2	3.7	7.47e-01	0	42	104	0	79	29539
2026-01-29 04:46:50.88	0.98	21.93	-46.1	-57.0	3.8	7.48e-01	0	42	104	0	64	12189
2026-01-29 04:46:51.89	0.71	22.02	-45.4	-56.2	3.8	7.45e-01	0	42	104	0	62	12394
2026-01-29 04:46:52.89	0.45	22.10	-45.7	-56.5	3.8	7.45e-01	0	42	104	0	62	12949
2026-01-29 04:46:53.90	0.18	22.19	-48.7	-60.3	3.8	7.44e-01	0	42	104	0	68	14125
2026-01-29 04:46:54.91	359.91	22.27	-47.2	-58.3	3.8	7.46e-01	0	42	104	0	64	14187
2026-01-29 04:46:55.91	359.64	22.36	-52.5	-66.0	3.8	7.46e-01	0	42	104	0	75	18275
2026-01-29 04:46:56.92	359.37	22.44	-47.4	-58.2	3.8	7.46e-01	0	42	104	0	66	12486
2026-01-29 04:46:57.93	359.09	22.53	-54.5	-72.2	3.7	7.48e-01	0	42	104	0	79	29532
2026-01-29 04:46:58.94	358.82	22.61	-46.4	-57.1	3.8	7.44e-01	0	42	104	0	64	12256
2026-01-29 04:46:59.94	358.54	22.69	-46.1	-56.9	3.8	7.43e-01	0	42	104	0	64	12076
2026-01-29 04:47:00.95	358.26	22.78	-46.2	-57.1	3.8	7.43e-01	0	42	104	0	63	13021
2026-01-29 04:47:01.96	357.98	22.86	-51.3	-63.8	3.8	7.40e-01	0	42	104	0	73	15891
2026-01-29 04:47:02.96	357.70	22.94	-47.3	-58.4	3.8	7.43e-01	0	42	104	0	66	12696
2026-01-29 04:47:03.97	357.41	23.03	-52.6	-66.2	3.8	7.45e-01	0	42	104	0	75	18532
2026-01-29 04:47:04.98	357.13	23.11	-47.2	-58.2	3.8	7.44e-01	0	42	104	0	66	12464
2026-01-29 04:47:05.99	356.84	23.19	-54.6	-72.5	3.8	7.46e-01	0	42	104	0	79	30463
2026-01-29 04:47:07.00	356.55	23.27	-46.2	-57.1	3.8	7.47e-01	0	42	104	0	64	12244
2026-01-29 04:47:08.00	356.26	23.35	-45.8	-56.7	3.8	7.41e-01	0	42	104	0	63	12449
2026-01-29 04:47:09.01	355.97	23.43	-45.3	-56.1	3.8	7.43e-01	0	42	104	0	62	12372
2026-01-29 04:47:10.02	355.68	23.51	-49.0	-60.6	3.8	7.47e-01	0	42	104	0	68	14592
2026-01-29 04:47:11.02	355.39	23.59	-47.6	-58.7	3.8	7.49e-01	0	42	104	0	65	13963
2026-01-29 04:47:12.03	355.09	23.66	-52.8	-66.5	3.8	7.41e-01	0	42	104	0	76	18275
2026-01-29 04:47:13.04	354.79	23.74	-47.4	-58.4	3.9	7.47e-01	0	42	104	0	66	12766
2026-01-29 04:47:14.05	354.49	23.82	-54.6	-72.5	3.8	7.43e-01	0	42	104	0	79	30566
2026-01-29 04:47:15.05	354.19	23.89	-46.2	-57.2	3.8	7.42e-01	0	42	104	0	64	12386
2026-01-29 04:47:16.06	353.89	23.97	-46.0	-56.9	3.8	7.43e-01	0	42	104	0	63	12782
2026-01-29 04:47:17.07	353.58	24.05	-45.3	-56.1	3.8	7.44e-01	0	42	104	0	62	12363
2026-01-29 04:47:18.08	353.28	24.12	-49.8	-61.5	3.8	7.44e-01	0	42	104	0	71	13718
2026-01-29 04:47:19.08	352.97	24.19	-47.8	-59.2	3.8	7.45e-01	0	42	104	0	66	13918
2026-01-29 04:47:20.09	352.66	24.27	-52.6	-66.1	3.8	7.43e-01	0	42	104	0	76	17463
2026-01-29 04:47:21.10	352.35	24.34	-47.0	-58.1	3.8	7.46e-01	0	42	104	0	66	12255
2026-01-29 04:47:22.11	352.04	24.41	-54.7	-72.5	3.8	7.47e-01	0	42	104	0	79	30488
2026-01-29 04:47:23.12	351.72	24.48	-46.2	-57.1	3.8	7.42e-01	0	42	104	0	64	12321
2026-01-29 04:47:24.12	351.41	24.55	-45.8	-56.7	3.8	7.45e-01	0	42	104	0	63	12437
2026-01-29 04:47:25.13	351.10	24.62	-45.2	-55.9	3.8	7.42e-01	0	42	104	0	62	12038
2026-01-29 04:47:26.13	350.78	24.69	-49.1	-60.7	3.8	7.41e-01	0	42	104	0	69	13968
2026-01-29 04:47:27.14	350.46	24.76	-47.6	-58.7	3.8	7.44e-01	0	42	104	0	65	13967
2026-01-29 04:47:28.15	350.14	24.83	-52.6	-66.1	3.8	7.42e-01	0	42	104	0	76	17341
2026-01-29 04:47:29.16	349.82	24.90	-46.4	-57.1	3.8	7.43e-01	0	42	104	0	64	12299
2026-01-29 04:47:30.17	349.49	24.96	-54.5	-71.7	3.8	7.44e-01	0	42	104	0	79	27731
2026-01-29 04:47:31.17	349.17	25.03	-46.4	-57.3	3.8	7.44e-01	0	42	104	0	64	12627
2026-01-29 04:47:32.18	348.84	25.09	-46.2	-57.1	3.8	7.46e-01	0	42	104	0	64	12358
2026-01-29 04:47:33.19	348.51	25.16	-46.2	-57.0	3.8	7.46e-01	0	42	104	0	63	12927
2026-01-29 04:47:34.20	348.18	25.22	-51.1	-63.6	3.9	7.43e-01	0	42	104	0	74	14603
2026-01-29 04:47:35.20	347.86	25.28	-48.4	-59.7	3.8	7.46e-01	0	42	104	0	67	13915
2026-01-29 04:47:36.21	347.52	25.34	-52.5	-65.8	3.8	7.48e-01	0	42	104	0	76	16861
2026-01-29 04:47:37.22	347.19	25.40	-46.7	-57.7	3.9	7.44e-01	0	42	104	0	65	12493
2026-01-29 04:47:38.23	346.86	25.46	-54.5	-71.7	3.8	7.43e-01	0	42	104	0	80	26325
2026-01-29 04:47:39.23	346.52	25.52	-46.6	-57.5	3.8	7.45e-01	0	42	104	0	64	12820
2026-01-29 04:47:40.24	346.18	25.58	-45.8	-56.6	3.8	7.46e-01	0	42	104	0	63	12373
2026-01-29 04:47:41.25	345.85	25.63	-45.2	-55.9	3.8	7.44e-01	0	42	104	0	62	12088
2026-01-29 04:47:42.26	345.50	25.69	-47.9	-59.0	3.8	7.43e-01	0	42	104	0	67	12943
2026-01-29 04:47:43.27	345.16	25.74	-49.7	-61.3	3.9	7.45e-01	0	42	104	0	69	14965
2026-01-29 04:47:44.27	344.82	25.80	-52.4	-65.5	3.8	7.44e-01	0	42	104	0	76	16176
2026-01-29 04:47:45.28	344.48	25.85	-46.1	-57.0	3.8	7.43e-01	0	42	104	0	64	12179
2026-01-29 04:47:46.29	344.13	25.90	-53.8	-69.1	3.9	7.45e-01	0	42	104	0	79	20584
2026-01-29 04:47:47.29	343.79	25.95	-46.4	-57.3	3.8	7.44e-01	0	42	104	0	64	12603
2026-01-29 04:47:48.30	343.44	26.00	-45.8	-56.7	3.8	7.44e-01	0	42	104	0	63	12426
2026-01-29 04:47:49.31	343.09	26.05	-45.5	-56.3	3.8	7.41e-01	0	42	104	0	62	12635
2026-01-29 04:47:50.32	342.74	26.10	-48.2	-59.4	3.8	7.42e-01	0	42	104	0	68	12786
2026-01-29 04:47:51.33	342.39	26.15	-49.8	-61.7	3.8	7.45e-01	0	42	104	0	70	14874
2026-01-29 04:47:52.34	342.04	26.19	-52.4	-65.4	3.8	7.44e-01	0	42	104	0	76	16119
2026-01-29 04:47:53.34	341.69	26.24	-46.3	-57.2	3.9	7.45e-01	0	42	104	0	64	12390
2026-01-29 04:47:54.35	341.34	26.28	-53.9	-69.2	3.9	7.41e-01	0	42	104	0	79	20854
2026-01-29 04:47:55.36	340.98	26.32	-46.5	-57.5	3.8	7.43e-01	0	42	104	0	65	12133
2026-01-29 04:47:56.37	340.63	26.37	-45.8	-56.7	3.8	7.44e-01	0	42	104	0	63	12448
2026-01-29 04:47:57.37	340.27	26.41	-47.3	-58.1	3.8	7.46e-01	0	42	104	0	64	13853
2026-01-29 04:47:58.38	339.92	26.44	-48.1	-59.3	3.9	7.43e-01	0	42	104	0	68	12625
2026-01-29 04:47:59.39	339.56	26.48	-51.6	-64.0	3.8	7.47e-01	0	42	104	0	73	16204
2026-01-29 04:48:00.40	339.20	26.52	-52.4	-65.5	3.8	7.44e-01	0	42	104	0	76	16277
2026-01-29 04:48:01.40	338.84	26.55	-46.7	-57.6	3.9	7.44e-01	0	42	104	0	64	12962
2026-01-29 04:48:02.41	338.48	26.59	-52.4	-65.8	3.9	7.42e-01	0	42	104	0	77	15854
2026-01-29 04:48:03.41	338.12	26.62	-46.5	-57.4	3.8	7.44e-01	0	42	104	0	65	12044
2026-01-29 04:48:04.42	337.76	26.66	-45.8	-56.6	3.8	7.44e-01	0	42	104	0	63	12338
2026-01-29 04:48:05.43	337.39	26.69	-46.1	-57.0	3.8	7.44e-01	0	42	104	0	62	13589
2026-01-29 04:48:06.44	337.03	26.72	-47.5	-58.7	3.8	7.42e-01	0	42	104	0	67	12453
2026-01-29 04:48:07.45	336.66	26.74	-52.3	-64.8	3.8	7.42e-01	0	42	104	0	74	16713
2026-01-29 04:48:08.46	336.30	26.77	-52.1	-65.1	3.8	7.43e-01	0	42	104	0	76	15482
2026-01-29 04:48:09.47	335.93	26.80	-48.6	-59.8	3.8	7.46e-01	0	42	104	0	67	14200
2026-01-29 04:48:10.47	335.57	26.82	-50.4	-62.5	3.9	7.40e-01	0	42	104	0	73	13592
2026-01-29 04:48:11.47	335.20	26.85	-46.6	-57.6	3.8	7.45e-01	0	42	104	0	65	12274
2026-01-29 04:48:12.48	334.83	26.87	-46.3	-57.2	3.8	7.47e-01	0	42	104	0	64	12496
2026-01-29 04:48:13.49	334.46	26.89	-49.3	-60.4	3.8	7.44e-01	0	42	104	0	68	14326
2026-01-29 04:48:14.49	334.10	26.91	-48.0	-59.0	3.8	7.45e-01	0	42	104	0	67	12932
2026-01-29 04:48:15.50	333.73	26.93	-52.5	-65.6	3.8	7.44e-01	0	42	104	0	75	17376
2026-01-29 04:48:16.51	333.36	26.95	-52.1	-65.0	3.8	7.41e-01	0	42	104	0	76	15338
2026-01-29 04:48:17.52	332.99	26.96	-49.4	-60.4	3.8	7.44e-01	0	42	104	0	68	14370
2026-01-29 04:48:18.53	332.62	26.98	-50.6	-62.6	3.9	7.43e-01	0	42	104	0	73	13730
2026-01-29 04:48:19.53	332.25	26.99	-46.7	-57.8	3.8	7.46e-01	0	42	104	0	65	12541
2026-01-29 04:48:20.54	331.88	27.00	-46.0	-56.9	3.8	7.46e-01	0	42	104	0	63	12734
2026-01-29 04:48:21.55	331.50	27.02	-47.8	-58.7	3.8	7.45e-01	0	42	104	0	65	13950
2026-01-29 04:48:22.56	331.13	27.03	-47.4	-58.4	3.8	7.44e-01	0	42	104	0	66	12774
2026-01-29 04:48:23.57	330.76	27.03	-52.5	-65.5	3.8	7.42e-01	0	42	104	0	75	17251
2026-01-29 04:48:24.57	330.39	27.04	-51.3	-63.5	3.9	7.46e-01	0	42	104	0	74	14479
2026-01-29 04:48:25.58	330.02	27.05	-52.0	-64.7	3.8	7.47e-01	0	42	104	0	74	16641
2026-01-29 04:48:26.59	329.64	27.05	-49.2	-60.6	3.9	7.43e-01	0	42	104	0	70	12989
2026-01-29 04:48:27.60	329.27	27.06	-46.8	-57.7	3.8	7.43e-01	0	42	104	0	65	12463
2026-01-29 04:48:28.60	328.90	27.06	-46.3	-57.3	3.8	7.43e-01	0	42	104	0	64	12531
2026-01-29 04:48:29.61	328.53	27.06	-50.3	-62.4	3.8	7.44e-01	0	42	104	0	71	15125
2026-01-29 04:48:30.62	328.15	27.06	-47.8	-58.9	3.8	7.46e-01	0	42	104	0	67	12782
2026-01-29 04:48:31.63	327.78	27.06	-52.6	-65.6	3.8	7.42e-01	0	42	104	0	75	17448
2026-01-29 04:48:32.64	327.41	27.05	-51.3	-63.5	3.9	7.45e-01	0	42	104	0	74	14442
2026-01-29 04:48:33.65	327.03	27.05	-52.1	-64.7	3.8	7.47e-01	0	42	104	0	74	16613
2026-01-29 04:48:34.65	326.67	27.04	-49.2	-60.6	3.8	7.45e-01	0	42	104	0	70	13044
2026-01-29 04:48:35.66	326.29	27.04	-46.7	-57.6	3.8	7.44e-01	0	42	104	0	65	12326
2026-01-29 04:48:36.66	325.92	27.03	-46.0	-56.9	3.8	7.46e-01	0	42	104	0	63	12724
2026-01-29 04:48:37.67	325.55	27.02	-50.0	-61.6	3.8	7.45e-01	0	42	104	0	70	14682
2026-01-29 04:48:38.68	325.18	27.01	-48.1	-59.1	3.8	7.43e-01	0	42	104	0	67	13078
2026-01-29 04:48:39.69	324.81	27.00	-52.9	-66.2	3.8	7.40e-01	0	42	104	0	76	17655
2026-01-29 04:48:40.69	324.44	26.98	-50.1	-61.9	3.8	7.46e-01	0	42	104	0	72	13524
2026-01-29 04:48:41.71	324.06	26.97	-54.2	-69.2	3.8	7.49e-01	0	42	104	0	78	22098
2026-01-29 04:48:42.71	323.70	26.95	-48.5	-59.7	3.8	7.45e-01	0	42	104	0	69	12447
2026-01-29 04:48:43.72	323.33	26.93	-47.0	-57.9	3.8	7.44e-01	0	42	104	0	66	12039
2026-01-29 04:48:44.73	322.96	26.92	-46.5	-57.4	3.8	7.44e-01	0	42	104	0	65	11979
2026-01-29 04:48:45.74	322.59	26.90	-51.8	-64.6	3.8	7.49e-01	0	42	104	0	74	16469
2026-01-29 04:48:46.74	322.22	26.87	-48.3	-59.5	3.8	7.43e-01	0	42	104	0	68	12881
2026-01-29 04:48:47.75	321.85	26.85	-53.0	-66.3	3.8	7.43e-01	0	42	104	0	76	17777
2026-01-29 04:48:48.76	321.48	26.83	-49.1	-60.5	3.8	7.43e-01	0	42	104	0	70	12882
2026-01-29 04:48:49.77	321.12	26.80	-54.8	-71.8	3.6	7.44e-01	0	42	104	0	80	26522
2026-01-29 04:48:50.78	320.75	26.78	-48.0	-59.3	3.8	7.44e-01	0	42	104	0	68	12588
2026-01-29 04:48:51.78	320.39	26.75	-47.5	-58.5	3.8	7.45e-01	0	42	104	0	66	12842
2026-01-29 04:48:52.79	320.02	26.72	-47.6	-58.5	3.8	7.44e-01	0	42	104	0	66	12921
2026-01-29 04:48:53.80	319.65	26.69	-51.7	-64.3	3.8	7.45e-01	0	42	104	0	73	16700
2026-01-29 04:48:54.80	319.29	26.66	-48.8	-60.4	3.8	7.46e-01	0	42	104	0	69	13448
2026-01-29 04:48:55.81	318.93	26.63	-53.5	-67.3	3.8	7.43e-01	0	42	104	0	77	18782
2026-01-29 04:48:56.82	318.57	26.60	-48.5	-51.0	5.6	7.04e-01	0	42	104	0	69	4565
2026-01-29 04:48:57.83	318.21	26.56	-54.7	-66.5	6.5	6.84e-01	125	42	0	0	80	14521
2026-01-29 04:48:58.84	317.84	26.53	-48.0	-49.7	21.0	5.99e-01	0	42	104	0	68	4148
2026-01-29 04:48:59.85	317.48	26.49	-46.7	-48.2	23.5	6.03e-01	0	42	0	1572864	65	4157
2026-01-29 04:49:00.86	317.13	26.45	-46.0	-47.4	24.3	6.01e-01	0	42	0	3670016	64	4005
2026-01-29 04:49:01.86	316.77	26.41	-45.8	-47.1	24.6	6.00e-01	0	42	0	5767168	63	4123
2026-01-29 04:49:02.87	316.41	26.37	-46.3	-47.7	24.2	6.01e-01	0	42	0	7340032	63	4401
2026-01-29 04:49:03.88	316.06	26.33	-46.4	-47.8	24.1	6.02e-01	0	42	0	9437184	63	4462
2026-01-29 04:49:04.89	315.70	26.29	-46.3	-47.7	24.2	6.01e-01	0	42	0	11010048	63	4420
2026-01-29 04:49:05.89	315.35	26.25	-46.2	-47.6	24.2	6.01e-01	0	42	0	13107200	63	4365
2026-01-29 04:49:06.90	315.00	26.20	-46.3	-47.7	24.0	6.03e-01	0	42	0	15204352	64	4179
2026-01-29 04:49:07.91	314.64	26.16	-46.4	-47.9	23.7	6.03e-01	0	42	0	16777216	64	4250
2026-01-29 04:49:08.91	314.30	26.11	-46.2	-47.5	24.3	5.99e-01	0	42	0	18874368	63	4336
2026-01-29 04:49:09.92	313.94	26.06	-45.8	-47.1	24.8	5.99e-01	0	42	0	20447232	62	4370
2026-01-29 04:49:10.93	313.60	26.01	-45.0	-46.3	25.5	6.02e-01	0	42	0	22544384	61	4194
2026-01-29 04:49:11.94	313.25	25.96	-45.0	-46.2	25.5	6.05e-01	0	42	0	24117248	62	3942
2026-01-29 04:49:12.94	312.90	25.91	-45.2	-46.4	25.1	6.03e-01	0	42	0	26214400	62	4031
2026-01-29 04:49:13.95	312.56	25.86	-45.8	-47.2	24.7	6.03e-01	0	42	0	28311552	62	4403
2026-01-29 04:49:14.96	312.21	25.81	-45.9	-47.3	24.6	6.01e-01	0	42	0	30408704	62	4485
2026-01-29 04:49:15.97	311.87	25.76	-45.1	-46.3	25.4	6.03e-01	0	42	0	31981568	61	4218
2026-01-29 04:49:16.97	311.53	25.70	-44.3	-45.4	26.2	6.02e-01	0	42	0	34078720	60	4050
2026-01-29 04:49:17.98	311.19	25.65	-44.8	-46.0	25.3	6.05e-01	0	42	0	35651584	61	4059
2026-01-29 04:49:18.99	310.85	25.59	-46.0	-47.5	24.1	6.00e-01	0	42	0	37748736	63	4303
2026-01-29 04:49:20.00	310.51	25.53	-45.8	-47.2	24.6	6.03e-01	0	42	0	39321600	62	4397
2026-01-29 04:49:21.01	310.17	25.47	-44.7	-45.9	25.8	6.01e-01	0	42	0	41418752	60	4256
2026-01-29 04:49:22.02	309.84	25.41	-44.2	-45.3	26.3	6.03e-01	0	42	0	43515904	60	3961
2026-01-29 04:49:23.02	309.51	25.35	-45.0	-46.3	25.0	6.02e-01	0	42	0	45088768	62	3966
2026-01-29 04:49:24.02	309.18	25.29	-45.9	-47.4	24.3	6.03e-01	0	42	0	47185920	62	4501
2026-01-29 04:49:25.02	308.85	25.23	-45.4	-46.7	25.1	6.03e-01	0	42	0	48758784	61	4405
2026-01-29 04:49:26.03	308.52	25.17	-44.9	-46.1	25.7	6.03e-01	0	42	0	50855936	61	4129
2026-01-29 04:49:27.03	308.19	25.11	-44.8	-46.0	24.1	6.02e-01	0	42	0	52428800	61	4082
2026-01-29 04:49:28.04	307.86	25.04	-45.0	-46.2	25.5	6.03e-01	0	42	0	54525952	61	4189
2026-01-29 04:49:29.05	307.54	24.98	-44.9	-46.1	25.7	6.03e-01	0	42	0	56623104	61	4129
2026-01-29 04:49:30.05	307.22	24.91	-45.1	-46.3	25.4	6.03e-01	0	42	0	58195968	61	4200
2026-01-29 04:49:31.06	306.89	24.84	-45.5	-46.8	24.7	6.01e-01	0	42	0	60293120	62	4226
2026-01-29 04:49:32.07	306.57	24.78	-45.4	-46.7	25.1	6.00e-01	0	42	0	62390272	61	4403
2026-01-29 04:49:33.07	306.25	24.71	-45.0	-46.3	25.4	6.01e-01	0	42	0	63963136	61	4202
2026-01-29 04:49:34.08	305.93	24.64	-44.9	-46.0	25.7	6.01e-01	0	42	0	66060288	61	4092
2026-01-29 04:49:35.08	305.62	24.57	-45.3	-46.5	25.1	6.00e-01	0	42	0	67633152	61	4334
2026-01-29 04:49:36.09	305.30	24.50	-45.4	-46.7	25.2	6.02e-01	0	42	0	69730304	61	4424
2026-01-29 04:49:37.09	304.99	24.43	-44.8	-46.0	25.7	6.01e-01	0	42	0	71827456	61	4087
2026-01-29 04:49:38.10	304.68	24.36	-45.0	-46.3	25.5	6.01e-01	0	42	0	73400320	61	4197
2026-01-29 04:49:39.11	304.37	24.28	-45.4	-46.7	25.1	6.03e-01	0	42	0	75497472	61	4412
2026-01-29 04:49:40.12	304.06	24.21	-44.7	-45.8	25.9	6.03e-01	0	42	0	77070336	61	4003
2026-01-29 04:49:41.12	303.75	24.14	-44.5	-45.6	25.8	6.02e-01	0	42	0	79167488	61	3899
2026-01-29 04:49:42.12	303.45	24.06	-45.5	-46.9	24.7	6.00e-01	0	42	0	81264640	62	4248
2026-01-29 04:49:43.13	303.14	23.99	-45.5	-46.9	24.9	6.01e-01	0	42	0	82837504	61	4502
2026-01-29 04:49:44.13	302.84	23.91	-45.0	-46.3	25.5	6.01e-01	0	42	0	84934656	61	4208
2026-01-29 04:49:45.13	302.54	23.84	-44.8	-46.0	25.8	6.04e-01	0	42	0	86507520	61	4078
2026-01-29 04:49:46.14	302.24	23.76	-44.8	-46.0	25.5	6.01e-01	0	42	0	88604672	61	4093
2026-01-29 04:49:47.15	301.94	23.68	-45.5	-47.0	24.8	6.01e-01	0	42	0	90177536	61	4575
2026-01-29 04:49:48.16	301.64	23.60	-45.4	-46.9	24.6	6.01e-01	0	42	0	92274688	61	4519
2026-01-29 04:49:49.17	301.34	23.53	-44.3	-45.5	26.2	6.04e-01	0	42	0	94371840	60	4057
2026-01-29 04:49:50.18	301.05	23.45	-44.9	-46.2	24.7	6.02e-01	0	42	0	95944704	61	4179
2026-01-29 04:49:51.19	300.76	23.37	-45.8	-47.3	24.5	6.03e-01	0	42	0	98041856	62	4485
2026-01-29 04:49:52.19	300.47	23.29	-45.1	-46.5	25.3	6.01e-01	0	42	0	100139008	61	4293
2026-01-29 04:49:53.20	300.18	23.21	-44.3	-45.5	26.2	6.02e-01	0	42	0	101711872	60	4079
2026-01-29 04:49:54.21	299.89	23.12	-45.0	-46.3	24.8	6.00e-01	0	42	0	103809024	61	4237
2026-01-29 04:49:55.21	299.61	23.04	-45.6	-47.1	24.5	6.02e-01	0	42	0	105381888	61	4603
2026-01-29 04:49:56.21	299.32	22.96	-44.8	-46.0	25.8	6.01e-01	0	42	0	107479040	61	4069
2026-01-29 04:49:57.22	299.04	22.88	-45.1	-46.3	25.3	6.02e-01	0	42	0	109576192	61	4223
2026-01-29 04:49:58.23	298.76	22.80	-45.3	-46.6	25.2	6.00e-01	0	42	0	111149056	61	4364
2026-01-29 04:49:59.23	298.48	22.71	-45.4	-46.7	25.1	6.03e-01	0	42	0	113246208	61	4431
2026-01-29 04:50:00.24	298.20	22.63	-44.6	-45.7	25.9	6.04e-01	0	42	0	114819072	61	3944
2026-01-29 04:50:01.25	297.92	22.55	-45.5	-46.9	24.8	6.02e-01	0	42	0	116916224	61	4508
2026-01-29 04:50:02.25	297.65	22.46	-44.8	-46.0	25.5	6.01e-01	0	42	0	118489088	60	4301
2026-01-29 04:50:03.26	297.37	22.38	-45.1	-46.3	25.3	6.02e-01	0	42	0	120586240	62	3987
2026-01-29 04:50:04.27	297.10	22.29	-45.7	-47.0	24.8	6.01e-01	0	42	0	122683392	62	4339
2026-01-29 04:50:05.28	296.83	22.21	-45.1	-46.3	25.5	6.03e-01	0	42	0	124256256	62	3981
2026-01-29 04:50:06.29	296.56	22.12	-45.3	-46.6	25.3	6.01e-01	0	42	0	126353408	62	4103
2026-01-29 04:50:07.29	296.30	22.03	-45.1	-46.4	25.4	6.03e-01	0	42	0	128450560	62	4012
2026-01-29 04:50:08.30	296.03	21.95	-45.1	-46.3	25.5	6.02e-01	0	42	0	130023424	62	3983
2026-01-29 04:50:09.31	295.76	21.86	-45.0	-46.2	25.5	6.03e-01	0	42	0	132120576	62	3950
2026-01-29 04:50:10.32	295.50	21.77	-45.4	-46.6	25.2	6.01e-01	0	42	0	133693440	61	4379
2026-01-29 04:50:11.32	295.24	21.69	-45.3	-46.5	25.3	6.00e-01	0	42	0	135790592	61	4320
2026-01-29 04:50:12.33	294.98	21.60	-45.3	-46.6	25.2	6.03e-01	0	42	0	137887744	61	4344
2026-01-29 04:50:13.34	294.72	21.51	-45.5	-46.8	24.9	6.01e-01	0	42	0	139460608	61	4479
2026-01-29 04:50:14.35	294.47	21.42	-44.8	-46.0	25.6	6.03e-01	0	42	0	141557760	61	4077
2026-01-29 04:50:15.35	294.21	21.33	-45.3	-46.6	25.2	6.04e-01	0	42	0	143130624	61	4375
2026-01-29 04:50:16.36	293.96	21.24	-45.1	-46.3	25.5	6.02e-01	0	42	0	145227776	61	4218
2026-01-29 04:50:17.37	293.71	21.15	-45.8	-47.1	24.6	6.01e-01	0	42	0	147324928	62	4376
2026-01-29 04:50:18.38	293.46	21.07	-45.2	-46.4	25.3	5.99e-01	0	42	0	148897792	62	4043
2026-01-29 04:50:19.38	293.21	20.98	-45.9	-47.3	24.4	6.02e-01	0	42	0	150994944	62	4442
2026-01-29 04:50:20.39	292.96	20.89	-45.2	-46.4	25.4	6.01e-01	0	42	0	152567808	62	4017
2026-01-29 04:50:21.40	292.72	20.80	-45.8	-47.2	24.7	6.01e-01	0	42	0	154664960	62	4404
2026-01-29 04:50:22.41	292.47	20.71	-45.7	-46.9	25.0	6.02e-01	0	42	0	156762112	62	4278
2026-01-29 04:50:23.41	292.23	20.62	-45.9	-47.3	24.6	6.00e-01	0	42	0	158334976	62	4448
2026-01-29 04:50:24.42	291.99	20.53	-45.0	-46.2	25.5	6.00e-01	0	42	0	160432128	62	3940
2026-01-29 04:50:25.43	291.75	20.44	-45.2	-46.4	25.4	6.04e-01	0	42	0	162004992	61	4282
2026-01-29 04:50:26.44	291.51	20.34	-45.2	-46.4	25.3	6.03e-01	0	42	0	164102144	61	4281
2026-01-29 04:50:27.45	291.27	20.25	-45.1	-46.3	25.5	6.03e-01	0	42	0	166199296	61	4218
2026-01-29 04:50:28.45	291.04	20.16	-45.1	-46.3	25.4	6.03e-01	0	42	0	167772160	61	4203
2026-01-29 04:50:29.46	290.80	20.07	-45.2	-46.4	25.3	6.02e-01	0	42	0	169869312	61	4267
2026-01-29 04:50:30.47	290.57	19.98	-45.1	-46.3	25.4	6.00e-01	0	42	0	171966464	61	4242
2026-01-29 04:50:31.47	290.34	19.89	-45.4	-46.7	25.2	6.01e-01	0	42	0	173539328	61	4401
2026-01-29 04:50:32.48	290.11	19.80	-44.9	-46.1	25.4	6.04e-01	0	42	0	175636480	61	4100
2026-01-29 04:50:33.49	289.88	19.71	-44.7	-45.9	25.7	6.02e-01	0	42	0	177209344	60	4250
2026-01-29 04:50:34.50	289.66	19.62	-45.4	-46.8	25.0	6.04e-01	0	42	0	179306496	61	4448
2026-01-29 04:50:35.51	289.43	19.52	-44.8	-45.9	25.8	6.01e-01	0	42	0	180879360	61	4031
2026-01-29 04:50:36.51	289.21	19.43	-45.7	-47.1	24.9	6.01e-01	0	42	0	182976512	61	4600
2026-01-29 04:50:37.51	288.99	19.34	-45.1	-46.3	25.3	6.02e-01	0	42	0	185073664	61	4216
2026-01-29 04:50:38.52	288.77	19.25	-45.1	-46.3	25.4	6.03e-01	0	42	0	186646528	61	4204
2026-01-29 04:50:39.53	288.55	19.16	-45.6	-47.0	24.8	6.02e-01	0	42	0	188743680	61	4566
2026-01-29 04:50:40.54	288.33	19.06	-44.9	-46.1	25.6	6.02e-01	0	42	0	190316544	61	4134
2026-01-29 04:50:41.55	288.11	18.97	-45.5	-46.8	24.9	6.02e-01	0	42	0	192413696	61	4471
2026-01-29 04:50:42.56	287.90	18.88	-45.0	-46.2	25.3	6.02e-01	0	42	0	194510848	62	3919
2026-01-29 04:50:43.57	287.68	18.79	-44.7	-45.8	25.7	6.01e-01	0	42	0	196083712	60	4234
2026-01-29 04:50:44.58	287.47	18.70	-45.4	-46.7	25.0	6.00e-01	0	42	0	198180864	61	4434
2026-01-29 04:50:45.59	287.26	18.60	-44.6	-45.7	25.9	6.01e-01	0	42	0	200278016	61	3928
2026-01-29 04:50:46.60	287.05	18.51	-45.4	-46.7	25.0	6.02e-01	0	42	0	201850880	61	4401
2026-01-29 04:50:47.60	286.84	18.42	-45.2	-46.5	24.8	6.02e-01	0	42	0	203948032	61	4301
2026-01-29 04:50:48.62	286.63	18.33	-44.5	-45.6	25.9	6.03e-01	0	42	0	205520896	61	3906
2026-01-29 04:50:49.63	286.43	18.23	-45.5	-46.8	24.7	6.00e-01	0	42	0	207618048	61	4492
2026-01-29 04:50:50.63	286.22	18.14	-45.0	-46.2	25.1	6.01e-01	0	42	0	209190912	61	4192
2026-01-29 04:50:51.64	286.02	18.05	-44.9	-46.1	25.4	6.02e-01	0	42	0	211288064	61	4127
2026-01-29 04:50:52.65	285.82	17.96	-45.7	-47.1	24.7	6.02e-01	0	42	0	213385216	61	4611
2026-01-29 04:50:53.65	285.62	17.87	-44.8	-46.0	25.3	6.04e-01	0	42	0	214958080	61	4089
2026-01-29 04:50:54.66	285.42	17.78	-44.9	-46.1	25.5	6.01e-01	0	42	0	217055232	61	4100
2026-01-29 04:50:55.67	285.22	17.68	-45.6	-47.0	24.7	6.01e-01	0	42	0	219152384	61	4556
2026-01-29 04:50:56.68	285.02	17.59	-45.3	-46.5	24.9	6.00e-01	0	42	0	220725248	61	4323
2026-01-29 04:50:57.68	284.83	17.50	-45.6	-46.9	24.7	6.02e-01	0	42	0	222822400	61	4502
2026-01-29 04:50:58.68	284.64	17.41	-46.5	-48.0	23.8	6.03e-01	0	42	0	224395264	63	4561
2026-01-29 04:50:59.69	284.44	17.32	-46.1	-47.4	24.0	6.04e-01	0	42	0	226492416	63	4276
2026-01-29 04:51:00.69	284.25	17.23	-46.1	-47.5	24.1	6.02e-01	0	42	0	228589568	63	4292
2026-01-29 04:51:01.70	284.06	17.13	-46.8	-48.4	23.3	6.01e-01	0	42	0	230162432	64	4525
2026-01-29 04:51:02.70	283.88	17.04	-45.9	-47.2	24.1	6.01e-01	0	42	0	232259584	63	4178
2026-01-29 04:51:03.71	283.69	16.95	-45.1	-46.2	25.4	6.02e-01	0	42	0	233832448	62	3958
2026-01-29 04:51:04.71	283.50	16.86	-45.9	-47.3	24.3	6.02e-01	0	42	0	235929600	62	4476
2026-01-29 04:51:05.72	283.32	16.77	-45.9	-47.2	24.2	6.02e-01	0	42	0	237502464	63	4187
2026-01-29 04:51:06.72	283.13	16.68	-44.8	-46.0	25.4	6.03e-01	0	42	0	239599616	61	4064
2026-01-29 04:51:07.73	282.95	16.59	-44.8	-46.0	25.4	6.03e-01	0	42	0	241696768	61	4089
2026-01-29 04:51:08.74	282.77	16.50	-45.5	-46.9	24.7	6.00e-01	0	42	0	243269632	61	4520
2026-01-29 04:51:09.74	282.59	16.41	-44.9	-46.2	24.8	6.01e-01	0	42	0	245366784	61	4166
2026-01-29 04:51:10.75	282.41	16.31	-44.5	-45.7	25.8	6.00e-01	0	42	0	246939648	61	3914
2026-01-29 04:51:11.76	282.23	16.22	-45.0	-46.2	25.2	6.01e-01	0	42	0	249036800	61	4167
2026-01-29 04:51:12.77	282.05	16.13	-45.4	-46.7	24.9	6.01e-01	0	42	0	251133952	61	4422
2026-01-29 04:51:13.78	281.88	16.04	-45.1	-46.4	24.9	6.02e-01	0	42	0	252706816	61	4262
2026-01-29 04:51:14.78	281.70	15.95	-45.0	-46.2	25.3	6.02e-01	0	42	0	254803968	61	4171
2026-01-29 04:51:15.79	281.53	15.86	-45.4	-46.6	24.8	6.02e-01	0	42	0	256901120	61	4387
2026-01-29 04:51:16.79	281.36	15.77	-45.5	-46.9	24.7	6.02e-01	0	42	0	258473984	61	4514
2026-01-29 04:51:17.79	281.19	15.68	-45.1	-46.4	25.1	6.02e-01	0	42	0	260571136	61	4244
2026-01-29 04:51:18.79	281.02	15.59	-44.9	-46.1	25.4	6.01e-01	0	42	0	262144000	61	4112
2026-01-29 04:51:19.80	280.85	15.50	-44.9	-46.2	25.4	6.03e-01	0	42	0	264241152	61	4154
2026-01-29 04:51:20.81	280.68	15.41	-45.3	-46.6	24.9	6.02e-01	0	42	0	265814016	61	4374
2026-01-29 04:51:21.81	280.52	15.32	-45.3	-46.7	24.8	6.01e-01	0	42	0	267911168	61	4398
2026-01-29 04:51:22.82	280.35	15.24	-45.3	-46.5	24.9	6.03e-01	0	42	0	270008320	61	4332
2026-01-29 04:51:23.83	280.19	15.15	-45.1	-46.4	25.1	6.03e-01	0	42	0	271581184	61	4251
2026-01-29 04:51:24.83	280.02	15.06	-45.0	-46.3	25.2	6.02e-01	0	42	0	273678336	61	4212
2026-01-29 04:51:25.83	279.86	14.97	-45.2	-46.5	25.0	6.00e-01	0	42	0	275251200	61	4309
2026-01-29 04:51:26.83	279.70	14.88	-45.1	-46.4	25.0	6.03e-01	0	42	0	277348352	61	4265
2026-01-29 04:51:27.83	279.54	14.79	-45.0	-46.3	25.2	6.02e-01	0	42	0	279445504	61	4208
2026-01-29 04:51:28.84	279.38	14.70	-45.1	-46.4	25.1	6.02e-01	0	42	0	281018368	61	4263
2026-01-29 04:51:29.85	279.22	14.61	-45.1	-46.4	25.1	6.04e-01	0	42	0	283115520	61	4255
2026-01-29 04:51:30.86	279.06	14.53	-45.1	-46.3	25.2	6.00e-01	0	42	0	285212672	61	4230
2026-01-29 04:51:31.87	278.91	14.44	-45.1	-46.4	25.1	6.00e-01	0	42	0	286785536	61	4244
2026-01-29 04:51:32.87	278.75	14.35	-45.1	-46.3	25.1	6.01e-01	0	42	0	288882688	61	4237
2026-01-29 04:51:33.88	278.60	14.26	-45.0	-46.3	25.2	6.02e-01	0	42	0	290455552	61	4206
2026-01-29 04:51:34.89	278.44	14.17	-45.2	-46.5	25.0	6.04e-01	0	42	0	292552704	61	4301
2026-01-29 04:51:35.90	278.29	14.09	-45.3	-46.7	24.8	6.01e-01	0	42	0	294125568	61	4403
2026-01-29 04:51:36.91	278.14	14.00	-45.4	-46.7	24.8	6.05e-01	0	42	0	296222720	61	4412
2026-01-29 04:51:37.92	277.99	13.91	-45.4	-46.7	24.7	6.03e-01	0	42	0	298319872	61	4427
2026-01-29 04:51:38.93	277.84	13.82	-45.4	-46.7	24.7	6.03e-01	0	42	0	299892736	61	4424
2026-01-29 04:51:39.93	277.69	13.74	-45.1	-46.4	25.0	6.00e-01	0	42	0	301989888	61	4267
2026-01-29 04:51:40.94	277.54	13.65	-45.1	-46.4	25.0	5.99e-01	0	42	0	303562752	61	4277
2026-01-29 04:51:41.94	277.40	13.56	-45.2	-46.5	24.9	6.02e-01	0	42	0	305659904	61	4319
2026-01-29 04:51:42.95	277.25	13.48	-45.2	-46.5	24.9	6.00e-01	0	42	0	307757056	61	4309
2026-01-29 04:51:43.96	277.11	13.39	-45.3	-46.6	24.8	6.01e-01	0	42	0	309329920	61	4353
2026-01-29 04:51:44.97	276.96	13.31	-45.3	-46.6	24.8	6.00e-01	0	42	0	311427072	61	4353
2026-01-29 04:51:45.97	276.82	13.22	-45.2	-46.5	24.8	6.03e-01	0	42	0	313524224	61	4315
2026-01-29 04:51:46.98	276.68	13.13	-45.3	-46.6	24.8	6.01e-01	0	42	0	315097088	61	4347
2026-01-29 04:51:47.99	276.54	13.05	-45.3	-46.7	24.7	6.02e-01	0	42	0	317194240	61	4397
2026-01-29 04:51:49.00	276.39	12.96	-45.4	-46.7	24.7	6.03e-01	0	42	0	318767104	61	4407
2026-01-29 04:51:50.00	276.26	12.88	-45.4	-46.7	24.7	6.02e-01	0	42	0	320864256	61	4406
2026-01-29 04:51:51.01	276.12	12.79	-45.1	-46.4	24.9	6.02e-01	0	42	0	322437120	61	4245
2026-01-29 04:51:52.02	275.98	12.71	-45.0	-46.3	25.1	5.99e-01	0	42	0	324534272	61	4196
2026-01-29 04:51:53.03	275.84	12.62	-45.0	-46.2	25.1	6.03e-01	0	42	0	326631424	61	4177
2026-01-29 04:51:54.04	275.71	12.54	-45.0	-46.3	25.1	6.02e-01	0	42	0	328204288	61	4215
2026-01-29 04:51:55.05	275.57	12.45	-45.2	-46.5	24.9	6.03e-01	0	42	0	330301440	61	4301
2026-01-29 04:51:56.06	275.44	12.37	-45.4	-46.8	24.6	6.06e-01	0	42	0	332398592	61	4446
2026-01-29 04:51:57.06	275.30	12.28	-45.4	-46.7	24.6	6.01e-01	0	42	0	333971456	61	4440
2026-01-29 04:51:58.07	275.17	12.20	-45.4	-46.8	24.5	6.02e-01	0	42	0	336068608	61	4468
2026-01-29 04:51:59.08	275.04	12.12	-45.4	-46.8	24.5	6.04e-01	0	42	0	337641472	61	4453
2026-01-29 04:52:00.09	274.91	12.03	-45.4	-46.8	24.5	6.03e-01	0	42	0	339738624	61	4458
2026-01-29 04:52:01.10	274.78	11.95	-45.3	-46.6	24.7	6.02e-01	0	42	0	341835776	61	4355
2026-01-29 04:52:02.11	274.65	11.87	-45.2	-46.5	24.8	6.02e-01	0	42	0	343408640	61	4339
2026-01-29 04:52:03.12	274.52	11.78	-45.2	-46.5	24.8	6.02e-01	0	42	0	345505792	61	4328
2026-01-29 04:52:04.13	274.39	11.70	-45.2	-46.5	24.8	6.02e-01	0	42	0	347078656	61	4297
2026-01-29 04:52:05.13	274.26	11.62	-45.2	-46.5	24.8	6.02e-01	0	42	0	349175808	61	4318
2026-01-29 04:52:06.14	274.14	11.53	-45.3	-46.6	24.7	6.03e-01	0	42	0	350748672	61	4372
2026-01-29 04:52:07.15	274.01	11.45	-45.3	-46.6	24.5	6.01e-01	0	42	0	352845824	61	4377
2026-01-29 04:52:08.15	273.89	11.37	-45.4	-46.8	24.4	6.05e-01	0	42	0	354942976	61	4460
2026-01-29 04:52:09.16	273.76	11.29	-45.4	-46.8	24.5	6.04e-01	0	42	0	357040128	61	4464
2026-01-29 04:52:10.17	273.64	11.21	-45.4	-46.8	24.4	6.00e-01	0	42	0	358612992	61	4454
2026-01-29 04:52:11.17	273.52	11.13	-45.3	-46.6	24.5	6.02e-01	0	42	0	360710144	61	4381
2026-01-29 04:52:12.18	273.40	11.04	-45.4	-46.8	24.4	6.01e-01	0	42	0	362283008	61	4463
2026-01-29 04:52:13.19	273.27	10.96	-45.4	-46.8	24.5	6.01e-01	0	42	0	364380160	61	4443
2026-01-29 04:52:14.19	273.16	10.88	-45.4	-46.8	24.5	6.02e-01	0	42	0	365953024	61	4442
2026-01-29 04:52:15.20	273.04	10.80	-45.5	-46.8	24.4	6.01e-01	0	42	0	368050176	61	4489
2026-01-29 04:52:16.21	272.92	10.72	-45.4	-46.8	24.4	6.02e-01	0	42	0	370147328	61	4460
2026-01-29 04:52:17.22	272.80	10.64	-45.5	-46.9	24.3	6.00e-01	0	42	0	371720192	61	4516
2026-01-29 04:52:18.23	272.68	10.56	-45.5	-46.9	24.3	5.99e-01	0	42	0	373817344	61	4518
2026-01-29 04:52:19.23	272.57	10.48	-45.6	-46.9	24.3	6.02e-01	0	42	0	375390208	61	4530
2026-01-29 04:52:20.24	272.45	10.40	-45.5	-46.9	24.3	6.02e-01	0	42	0	377487360	61	4511
2026-01-29 04:52:21.25	272.33	10.32	-45.6	-47.0	24.3	6.01e-01	0	42	0	379060224	61	4560
2026-01-29 04:52:22.25	272.22	10.24	-45.7	-47.1	24.0	6.03e-01	0	42	0	381157376	62	4389
2026-01-29 04:52:23.25	272.11	10.16	-45.7	-47.1	24.1	6.02e-01	0	42	0	383254528	62	4356
2026-01-29 04:52:24.26	271.99	10.08	-45.7	-47.1	24.0	6.05e-01	0	42	0	385351680	62	4382
2026-01-29 04:52:25.27	271.88	10.00	-45.6	-47.0	24.1	6.03e-01	0	42	0	386924544	62	4334
2026-01-29 04:52:26.28	271.77	9.92	-45.7	-47.1	24.0	6.02e-01	0	42	0	389021696	62	4383
2026-01-29 04:52:27.28	271.66	9.84	-45.7	-47.1	24.0	6.02e-01	0	42	0	390594560	62	4367
2026-01-29 04:52:28.28	271.55	9.77	-45.5	-46.9	24.2	6.02e-01	0	42	0	392691712	62	4272
2026-01-29 04:52:29.29	271.44	9.69	-45.5	-46.8	24.3	6.02e-01	0	42	0	394264576	62	4234
2026-01-29 04:52:30.30	271.33	9.61	-45.4	-46.8	24.3	6.01e-01	0	42	0	396361728	62	4213
2026-01-29 04:52:31.31	271.22	9.53	-45.4	-46.8	24.4	6.02e-01	0	42	0	398458880	62	4213
2026-01-29 04:52:32.31	271.11	9.45	-45.8	-47.2	24.0	6.02e-01	0	42	0	400031744	62	4417
2026-01-29 04:52:33.32	271.01	9.38	-45.9	-47.3	23.8	6.03e-01	0	42	0	402128896	62	4484
2026-01-29 04:52:34.33	270.90	9.30	-46.1	-47.6	23.6	6.01e-01	0	42	0	403701760	62	4600
2026-01-29 04:52:35.33	270.79	9.22	-46.4	-48.0	23.1	6.01e-01	0	42	0	405798912	63	4553
2026-01-29 04:52:36.34	270.69	9.14	-46.6	-48.2	22.8	6.01e-01	0	42	0	407371776	63	4671
2026-01-29 04:52:37.35	270.58	9.07	-46.8	-48.4	22.5	6.02e-01	0	42	0	409468928	64	4530
2026-01-29 04:52:38.36	270.48	8.99	-47.2	-48.9	21.8	6.01e-01	0	42	0	411566080	64	4795
2026-01-29 04:52:39.36	270.38	8.91	-47.5	-49.4	21.4	6.01e-01	0	42	0	413663232	65	4792
2026-01-29 04:52:40.37	270.27	8.84	-47.8	-49.8	20.9	6.01e-01	0	42	0	415236096	66	4744
2026-01-29 04:52:41.38	270.17	8.76	-48.2	-50.4	20.1	6.02e-01	0	42	0	417333248	67	4785
2026-01-29 04:52:42.39	270.07	8.68	-48.4	-50.7	19.8	6.01e-01	0	42	0	418906112	67	4964
2026-01-29 04:52:43.39	269.97	8.61	-48.6	-51.0	19.3	6.02e-01	0	42	0	421003264	67	5150
2026-01-29 04:52:44.40	269.87	8.53	-48.9	-51.5	18.6	5.99e-01	0	42	0	422576128	68	5152
2026-01-29 04:52:45.40	269.77	8.46	-49.1	-52.0	18.0	6.02e-01	0	42	0	424673280	68	5448
2026-01-29 04:52:46.41	269.67	8.38	-49.5	-52.8	17.2	6.00e-01	0	42	0	426770432	69	5602
2026-01-29 04:52:47.42	269.57	8.31	-49.6	-53.0	16.7	6.01e-01	0	42	0	428343296	69	5755
2026-01-29 04:52:48.42	269.47	8.23	-49.8	-53.6	16.1	6.02e-01	0	42	0	430440448	70	5792
2026-01-29 04:52:49.43	269.38	8.16	-50.0	-54.0	15.6	6.00e-01	0	42	0	432013312	70	6099
2026-01-29 04:52:50.43	269.28	8.08	-50.2	-54.4	15.1	6.02e-01	0	42	0	434110464	70	6404
2026-01-29 04:52:51.44	269.18	8.01	-50.4	-55.0	14.5	6.02e-01	0	42	0	435683328	71	6426
2026-01-29 04:52:52.44	269.09	7.94	-50.6	-55.5	13.9	6.03e-01	0	42	0	437780480	71	6811
2026-01-29 04:52:53.44	268.99	7.86	-50.7	-55.9	13.4	6.02e-01	0	42	0	439877632	72	6745
2026-01-29 04:52:54.45	268.90	7.79	-50.8	-56.2	13.1	6.02e-01	0	42	0	441450496	72	7002
2026-01-29 04:52:55.46	268.80	7.71	-50.9	-56.3	13.0	6.06e-01	0	42	0	443547648	72	7066
2026-01-29 04:52:56.46	268.71	7.64	-50.9	-56.3	13.0	6.04e-01	0	42	0	445644800	72	7102
2026-01-29 04:52:57.47	268.62	7.57	-50.7	-55.7	13.8	6.03e-01	0	42	0	447217664	72	6572
2026-01-29 04:52:58.47	268.52	7.49	-50.5	-54.8	14.8	6.01e-01	0	42	0	449314816	72	5960
2026-01-29 04:52:59.48	268.43	7.42	-50.2	-54.1	15.7	6.01e-01	0	42	0	450887680	72	5478
2026-01-29 04:53:00.49	268.34	7.35	-50.0	-53.5	16.5	6.01e-01	0	42	0	452984832	72	5143
2026-01-29 04:53:01.50	268.25	7.27	-49.9	-53.2	17.0	6.03e-01	0	42	0	455081984	71	5238
2026-01-29 04:53:02.51	268.16	7.20	-49.7	-52.8	17.4	5.99e-01	0	42	0	456654848	71	5027
2026-01-29 04:53:03.52	268.07	7.13	-49.3	-52.1	18.2	5.99e-01	0	42	0	458752000	70	4875
2026-01-29 04:53:04.52	267.98	7.06	-48.9	-51.5	18.8	5.99e-01	0	42	0	460324864	69	4842
2026-01-29 04:53:05.53	267.89	6.98	-48.4	-50.7	19.6	6.02e-01	0	42	0	462422016	68	4667
2026-01-29 04:53:06.53	267.80	6.91	-48.1	-50.2	20.2	6.00e-01	0	42	0	463994880	67	4679
2026-01-29 04:53:07.54	267.71	6.84	-47.9	-49.9	20.6	6.01e-01	0	42	0	466092032	67	4528
2026-01-29 04:53:08.55	267.62	6.77	-47.6	-49.5	20.9	6.02e-01	0	42	0	468189184	67	4332
2026-01-29 04:53:09.55	267.54	6.70	-47.1	-48.9	21.7	6.01e-01	0	42	0	469762048	66	4266
2026-01-29 04:53:10.56	267.45	6.63	-46.5	-48.1	22.3	6.01e-01	0	42	0	471859200	65	4133
2026-01-29 04:53:11.56	267.36	6.56	-46.3	-47.9	22.7	6.01e-01	0	42	0	473956352	64	4252
2026-01-29 04:53:12.57	267.28	6.48	-46.3	-47.9	22.7	6.03e-01	0	42	0	475529216	64	4253
2026-01-29 04:53:13.58	267.19	6.41	-46.2	-47.8	22.9	6.03e-01	0	42	0	477626368	64	4216
2026-01-29 04:53:14.58	267.11	6.34	-46.2	-47.8	22.8	6.01e-01	0	42	0	479199232	64	4217
2026-01-29 04:53:15.59	267.02	6.27	-46.4	-48.0	22.7	6.02e-01	0	42	0	481296384	64	4315
2026-01-29 04:53:16.60	266.94	6.20	-46.2	-47.8	22.8	6.00e-01	0	42	0	483393536	64	4226
2026-01-29 04:53:17.60	266.86	6.13	-46.3	-47.9	22.8	6.03e-01	0	42	0	484966400	64	4247
2026-01-29 04:53:18.61	266.77	6.06	-46.4	-48.1	22.6	6.01e-01	0	42	0	487063552	64	4343
2026-01-29 04:53:19.62	266.69	5.99	-46.5	-48.1	22.4	6.00e-01	0	42	0	488636416	64	4385
2026-01-29 04:53:20.62	266.61	5.92	-46.4	-48.0	22.5	6.00e-01	0	42	0	490733568	64	4320
2026-01-29 04:53:21.63	266.53	5.85	-46.4	-48.0	22.6	6.01e-01	0	42	0	492306432	64	4317
2026-01-29 04:53:22.64	266.45	5.78	-46.4	-48.1	22.5	6.04e-01	0	42	0	494403584	64	4347
2026-01-29 04:53:23.65	266.36	5.71	-46.4	-48.1	22.5	6.02e-01	0	42	0	496500736	64	4344
2026-01-29 04:53:24.66	266.28	5.64	-46.4	-48.1	22.4	6.02e-01	0	42	0	498597888	64	4367
2026-01-29 04:53:25.67	266.20	5.57	-46.6	-48.3	22.1	6.02e-01	0	42	0	500170752	64	4485
2026-01-29 04:53:26.67	266.12	5.51	-46.8	-48.6	22.0	6.01e-01	0	42	0	502267904	64	4612
2026-01-29 04:53:27.68	266.05	5.44	-46.9	-48.7	21.8	6.00e-01	0	42	0	503840768	64	4682
2026-01-29 04:53:28.69	265.97	5.37	-46.6	-48.3	22.2	6.02e-01	0	42	0	505937920	64	4482
2026-01-29 04:53:29.70	265.89	5.30	-46.8	-48.5	22.0	6.02e-01	0	42	0	507510784	64	4592
2026-01-29 04:53:30.71	265.81	5.23	-46.8	-48.5	22.0	6.01e-01	0	42	0	509607936	64	4590
2026-01-29 04:53:31.71	265.73	5.16	-46.8	-48.6	21.9	6.02e-01	0	42	0	511705088	64	4641
2026-01-29 04:53:32.72	265.66	5.10	-47.1	-48.9	21.6	6.00e-01	0	42	0	513277952	64	4792
2026-01-29 04:53:33.72	265.58	5.03	-46.9	-48.7	21.7	6.01e-01	0	42	0	515375104	64	4667
2026-01-29 04:53:34.72	265.50	4.96	-51.6	-56.5	15.3	6.03e-01	0	42	0	516947968	73	6861
2026-01-29 04:53:35.73	265.43	4.89	-53.4	-71.2	3.8	7.46e-01	0	42	104	517472256	77	29648
2026-01-29 04:53:36.74	265.35	4.83	-54.0	-71.7	3.8	7.48e-01	0	42	104	517472256	78	29514
2026-01-29 04:53:37.74	265.28	4.76	-54.0	-71.8	3.8	7.43e-01	0	42	104	517472256	78	29711
2026-01-29 04:53:38.76	265.20	4.69	-54.0	-71.8	3.8	7.42e-01	0	42	104	517472256	78	29857
2026-01-29 04:53:39.76	265.13	4.62	-53.9	-71.7	3.8	7.48e-01	0	42	104	517472256	78	29435
2026-01-29 04:53:40.77	265.05	4.56	-53.9	-71.8	3.8	7.45e-01	0	42	104	517472256	78	29751
2026-01-29 04:53:41.77	264.98	4.49	-54.1	-71.9	3.8	7.48e-01	0	42	104	517472256	78	30174
2026-01-29 04:53:42.78	264.91	4.42	-54.1	-71.8	3.8	7.46e-01	0	42	104	517472256	78	29922
2026-01-29 04:53:43.79	264.84	4.36	-54.2	-72.0	3.8	7.46e-01	0	42	104	517472256	78	30462
2026-01-29 04:53:44.79	264.76	4.29	-54.3	-72.1	3.8	7.46e-01	0	42	104	517472256	79	29025
2026-01-29 04:53:45.80	264.69	4.23	-54.4	-72.2	3.8	7.47e-01	0	42	104	517472256	79	29390
2026-01-29 04:53:46.81	264.62	4.16	-54.4	-71.6	3.8	7.48e-01	0	42	104	517472256	79	27681
2026-01-29 04:53:47.81	264.55	4.09	-54.5	-72.2	3.8	7.50e-01	0	42	104	517472256	79	29652
2026-01-29 04:53:48.82	264.48	4.03	-54.5	-69.2	4.1	7.35e-01	0	42	104	517472256	79	20821
2026-01-29 04:53:49.83	264.41	3.96	-54.6	-71.5	3.8	7.45e-01	0	42	104	517472256	79	27150
2026-01-29 04:53:50.84	264.34	3.90	-54.6	-69.9	3.9	7.37e-01	0	42	104	517472256	79	22765
2026-01-29 04:53:51.85	264.27	3.83	-49.8	-52.2	19.1	6.02e-01	0	42	0	519045120	71	4659
2026-01-29 04:53:52.86	264.20	3.77	-53.5	-60.0	11.9	6.08e-01	0	42	0	520617984	77	8170
2026-01-29 04:53:53.87	264.13	3.70	-54.4	-65.5	6.1	6.83e-01	160	42	0	522715136	79	13588
2026-01-29 04:53:54.88	264.06	3.64	-54.6	-68.8	3.9	7.38e-01	0	42	104	523239424	79	20025
2026-01-29 04:53:55.88	263.99	3.57	-54.7	-72.2	3.8	7.45e-01	0	42	104	523239424	79	29447
2026-01-29 04:53:56.89	263.92	3.51	-54.7	-72.4	3.8	7.45e-01	0	42	104	523239424	79	30042
2026-01-29 04:53:57.90	263.86	3.44	-54.7	-71.8	3.8	7.44e-01	0	42	104	523239424	79	28090
2026-01-29 04:53:58.91	263.79	3.38	-54.7	-71.2	3.8	7.46e-01	0	42	104	523239424	79	26317
2026-01-29 04:53:59.92	263.72	3.31	-54.6	-71.2	3.8	7.45e-01	0	42	104	523239424	79	26436
2026-01-29 04:54:00.93	263.65	3.25	-54.6	-71.1	3.8	7.47e-01	0	42	104	523239424	79	26087
2026-01-29 04:54:01.93	263.59	3.19	-54.6	-71.1	3.8	7.43e-01	0	42	104	523239424	79	26127
2026-01-29 04:54:02.94	263.52	3.12	-54.6	-70.6	3.9	7.45e-01	0	42	104	523239424	79	24593
2026-01-29 04:54:03.95	263.46	3.06	-54.6	-70.0	4.0	7.38e-01	0	42	104	523239424	79	23009
2026-01-29 04:54:04.96	263.39	2.99	-54.6	-69.9	4.0	7.41e-01	0	42	104	523239424	79	22685
2026-01-29 04:54:05.97	263.33	2.93	-54.6	-70.4	3.9	7.42e-01	0	42	104	523239424	79	23890
2026-01-29 04:54:06.98	263.26	2.87	-54.6	-71.3	3.8	7.50e-01	0	42	104	523239424	79	26759
2026-01-29 04:54:07.99	263.20	2.80	-54.6	-71.8	3.8	7.47e-01	0	42	104	523239424	79	28333
2026-01-29 04:54:08.99	263.13	2.74	-54.6	-72.1	3.8	7.46e-01	0	42	104	523239424	79	29219
2026-01-29 04:54:10.00	263.07	2.68	-54.6	-72.2	3.8	7.47e-01	0	42	104	523239424	79	29526
2026-01-29 04:54:11.01	263.00	2.61	-54.6	-72.1	3.8	7.44e-01	0	42	104	523239424	79	29200
2026-01-29 04:54:12.02	262.94	2.55	-54.6	-72.1	3.8	7.47e-01	0	42	104	523239424	79	29270
2026-01-29 04:54:13.03	262.88	2.49	-54.6	-72.0	3.8	7.44e-01	0	42	104	523239424	79	28900
2026-01-29 04:54:14.04	262.82	2.43	-54.6	-72.0	3.8	7.47e-01	0	42	104	523239424	79	28831
2026-01-29 04:54:15.05	262.75	2.36	-54.6	-72.1	3.8	7.45e-01	0	42	104	523239424	79	29079
2026-01-29 04:54:16.05	262.69	2.30	-54.6	-72.1	3.8	7.45e-01	0	42	104	523239424	79	29327
2026-01-29 04:54:17.06	262.63	2.24	-54.6	-72.0	3.8	7.44e-01	0	42	104	523239424	79	28810
2026-01-29 04:54:18.07	262.57	2.18	-54.6	-72.1	3.8	7.45e-01	0	42	104	523239424	79	29339
2026-01-29 04:54:19.08	262.51	2.12	-54.6	-72.2	3.8	7.43e-01	0	42	104	523239424	79	29450
2026-01-29 04:54:20.09	262.45	2.05	-54.6	-72.1	3.8	7.48e-01	0	42	104	523239424	79	29231
2026-01-29 04:54:21.09	262.39	1.99	-54.6	-72.2	3.8	7.44e-01	0	42	104	523239424	79	29586
2026-01-29 04:54:22.10	262.33	1.93	-54.5	-71.9	3.8	7.45e-01	0	42	104	523239424	79	28555
2026-01-29 04:54:23.11	262.27	1.87	-54.6	-72.0	3.8	7.43e-01	0	42	104	523239424	79	28819

#Closed at: 2026-01-29 04:54:23
#Recorded file [523 MB]: D:/lorett/data/31041_260129_074239.dat