passes_logs/2026/01/29/R3.2S_Murmansk/R3.2S_Murmansk__20260129_230912_KANOPUS-V_5_rec.log

#Pass ID: 20260129_230912_KANOPUS-V 5
#Satellite: KANOPUS-V 5
#Configuration: KANOPUS-V_8320
#almurnet v.1.7.20251203
#Start time: 2026-01-29 23:09:13

#Version: 2.2.20231116
#Station: R3.2S_Murmansk
#Location: 33.079688 lon 68.888172 lat
#TLE: 1 43876U 18111A   26029.55461459  .00005403  00000+0  22878-3 0  9999
#TLE: 2 43876  97.3680 297.8054 0001872  89.3369 270.8082 15.23581770393689

#Time	Az	El	Level	Level2	SNR	BER	BlckErr	Temp	State	Recorded	gain1	gain2
2026-01-29 23:09:13.83	21.35	2.12	-54.6	-63.5	3.8	7.45e-01	0	40	0	0	80	10197
2026-01-29 23:09:14.83	21.31	2.18	-54.6	-63.5	3.8	7.45e-01	0	39	104	0	80	10279
2026-01-29 23:09:15.84	21.28	2.25	-54.6	-63.5	3.8	7.44e-01	0	40	104	0	80	10228
2026-01-29 23:09:16.84	21.24	2.32	-54.6	-63.5	3.8	7.46e-01	0	40	104	0	80	10192
2026-01-29 23:09:17.85	21.20	2.39	-54.8	-63.6	3.8	7.44e-01	0	40	104	0	80	10383
2026-01-29 23:09:18.86	21.17	2.46	-54.9	-63.7	3.8	7.45e-01	0	40	104	0	80	10489
2026-01-29 23:09:19.87	21.13	2.53	-54.9	-63.7	3.8	7.43e-01	0	40	104	0	80	10533
2026-01-29 23:09:20.87	21.09	2.61	-54.9	-63.8	3.8	7.46e-01	0	40	104	0	80	10603
2026-01-29 23:09:21.88	21.05	2.68	-55.0	-63.8	3.8	7.46e-01	0	40	104	0	80	10603
2026-01-29 23:09:22.89	21.02	2.75	-55.0	-63.8	3.8	7.45e-01	0	40	104	0	80	10582
2026-01-29 23:09:23.89	20.98	2.82	-54.9	-63.8	3.8	7.46e-01	0	40	104	0	80	10606
2026-01-29 23:09:24.90	20.94	2.89	-54.9	-63.7	3.8	7.46e-01	0	40	104	0	80	10515
2026-01-29 23:09:25.91	20.90	2.96	-54.9	-63.7	3.8	7.46e-01	0	40	104	0	80	10531
2026-01-29 23:09:26.92	20.86	3.03	-54.9	-63.7	3.8	7.46e-01	0	40	104	0	80	10450
2026-01-29 23:09:27.92	20.82	3.11	-54.8	-63.6	3.8	7.44e-01	0	40	104	0	80	10395
2026-01-29 23:09:28.94	20.78	3.18	-54.8	-63.7	3.8	7.45e-01	0	40	104	0	80	10423
2026-01-29 23:09:29.94	20.74	3.25	-54.8	-63.6	3.8	7.47e-01	0	40	104	0	80	10387
2026-01-29 23:09:30.95	20.70	3.33	-54.7	-63.6	3.8	7.45e-01	0	40	104	0	80	10326
2026-01-29 23:09:31.95	20.66	3.40	-54.7	-63.5	3.8	7.46e-01	0	40	104	0	80	10283
2026-01-29 23:09:32.97	20.62	3.47	-54.6	-63.4	3.8	7.45e-01	0	40	104	0	80	10137
2026-01-29 23:09:33.97	20.58	3.55	-54.5	-63.4	3.8	7.46e-01	0	40	104	0	80	10074
2026-01-29 23:09:34.98	20.53	3.62	-54.4	-63.2	3.8	7.45e-01	0	40	104	0	80	9923
2026-01-29 23:09:35.99	20.49	3.70	-54.2	-63.1	3.8	7.46e-01	0	40	104	0	80	9747
2026-01-29 23:09:36.99	20.45	3.77	-54.0	-62.9	3.8	7.46e-01	0	40	104	0	80	9542
2026-01-29 23:09:38.00	20.41	3.84	-53.9	-62.7	3.8	7.45e-01	0	40	104	0	79	9911
2026-01-29 23:09:39.00	20.36	3.92	-53.6	-62.4	3.8	7.46e-01	0	40	104	0	79	9553
2026-01-29 23:09:40.01	20.32	3.99	-53.1	-62.0	3.8	7.47e-01	0	41	104	0	78	9626
2026-01-29 23:09:41.02	20.28	4.07	-52.9	-61.7	3.8	7.46e-01	0	40	104	0	77	9885
2026-01-29 23:09:42.03	20.23	4.15	-52.8	-61.7	3.8	7.45e-01	0	41	104	0	77	9861
2026-01-29 23:09:43.03	20.19	4.22	-52.8	-61.7	3.8	7.46e-01	0	40	104	0	77	9897
2026-01-29 23:09:44.04	20.15	4.30	-52.8	-61.6	3.8	7.46e-01	0	40	104	0	77	9822
2026-01-29 23:09:45.05	20.10	4.38	-52.8	-61.7	3.8	7.45e-01	0	40	104	0	77	9847
2026-01-29 23:09:46.05	20.06	4.45	-52.8	-61.6	3.8	7.47e-01	0	40	104	0	77	9820
2026-01-29 23:09:47.06	20.01	4.53	-52.8	-61.7	3.8	7.45e-01	0	40	104	0	77	9840
2026-01-29 23:09:48.07	19.96	4.61	-52.8	-61.6	3.8	7.46e-01	0	41	104	0	77	9826
2026-01-29 23:09:49.08	19.92	4.69	-52.8	-61.6	3.8	7.46e-01	0	40	104	0	77	9808
2026-01-29 23:09:50.08	19.87	4.76	-52.8	-61.6	3.8	7.46e-01	0	41	104	0	77	9827
2026-01-29 23:09:51.09	19.82	4.84	-52.8	-61.6	3.8	7.46e-01	0	40	104	0	77	9797
2026-01-29 23:09:52.10	19.78	4.92	-52.8	-61.6	3.8	7.45e-01	0	40	104	0	77	9804
2026-01-29 23:09:53.11	19.73	5.00	-52.8	-61.6	3.8	7.44e-01	0	41	104	0	77	9788
2026-01-29 23:09:54.11	19.68	5.08	-52.8	-61.6	3.8	7.45e-01	0	41	104	0	77	9803
2026-01-29 23:09:55.12	19.63	5.16	-52.9	-61.7	3.8	7.45e-01	0	41	104	0	77	9895
2026-01-29 23:09:56.13	19.58	5.24	-52.9	-61.7	3.8	7.46e-01	0	40	104	0	77	9921
2026-01-29 23:09:57.13	19.54	5.32	-52.8	-61.6	3.8	7.45e-01	0	41	104	0	77	9748
2026-01-29 23:09:58.14	19.49	5.40	-52.9	-61.7	3.8	7.46e-01	0	41	104	0	77	9944
2026-01-29 23:09:59.15	19.44	5.48	-52.8	-61.5	3.8	7.45e-01	0	41	104	0	77	9706
2026-01-29 23:10:00.16	19.39	5.56	-52.9	-61.8	3.8	7.46e-01	0	41	104	0	77	9950
2026-01-29 23:10:01.17	19.34	5.64	-52.8	-61.6	3.8	7.43e-01	0	41	104	0	77	9733
2026-01-29 23:10:02.18	19.29	5.73	-52.9	-61.7	3.8	7.45e-01	0	41	104	0	77	9911
2026-01-29 23:10:03.18	19.23	5.81	-52.8	-61.6	3.8	7.47e-01	0	41	104	0	77	9751
2026-01-29 23:10:04.19	19.18	5.89	-52.9	-61.7	3.8	7.46e-01	0	41	104	0	77	9931
2026-01-29 23:10:05.20	19.13	5.97	-52.8	-61.6	3.8	7.46e-01	0	41	104	0	77	9801
2026-01-29 23:10:06.20	19.08	6.06	-52.9	-61.8	3.8	7.43e-01	0	41	104	0	77	9970
2026-01-29 23:10:07.21	19.02	6.14	-52.8	-61.6	3.8	7.46e-01	0	41	104	0	77	9819
2026-01-29 23:10:08.22	18.97	6.22	-52.9	-61.7	3.8	7.46e-01	0	41	104	0	77	9938
2026-01-29 23:10:09.22	18.92	6.31	-52.8	-61.6	3.8	7.45e-01	0	41	104	0	77	9816
2026-01-29 23:10:10.22	18.86	6.39	-52.9	-61.8	3.8	7.45e-01	0	41	104	0	77	9967
2026-01-29 23:10:11.23	18.81	6.48	-52.8	-61.7	3.8	7.45e-01	0	41	104	0	77	9851
2026-01-29 23:10:12.24	18.75	6.56	-52.9	-61.8	3.8	7.44e-01	0	41	104	0	77	9990
2026-01-29 23:10:13.25	18.70	6.65	-52.9	-61.7	3.8	7.46e-01	0	41	104	0	77	9855
2026-01-29 23:10:14.25	18.64	6.73	-53.0	-61.8	3.8	7.46e-01	0	41	104	0	77	10004
2026-01-29 23:10:15.26	18.59	6.82	-52.9	-61.7	3.8	7.43e-01	0	41	104	0	77	9868
2026-01-29 23:10:16.27	18.53	6.91	-53.0	-61.8	3.8	7.44e-01	0	41	104	0	77	10025
2026-01-29 23:10:17.27	18.47	6.99	-52.9	-61.7	3.8	7.44e-01	0	41	104	0	77	9896
2026-01-29 23:10:18.28	18.42	7.08	-53.0	-61.8	3.8	7.44e-01	0	41	104	0	77	10026
2026-01-29 23:10:19.29	18.36	7.17	-52.9	-61.7	3.8	7.45e-01	0	41	104	0	77	9928
2026-01-29 23:10:20.29	18.30	7.26	-53.0	-61.9	3.8	7.46e-01	0	41	104	0	77	10076
2026-01-29 23:10:21.29	18.24	7.34	-52.9	-61.7	3.8	7.45e-01	0	41	104	0	77	9940
2026-01-29 23:10:22.30	18.18	7.43	-53.0	-61.9	3.8	7.43e-01	0	41	104	0	77	10079
2026-01-29 23:10:23.31	18.12	7.52	-52.9	-61.7	3.8	7.45e-01	0	41	104	0	77	9925
2026-01-29 23:10:24.32	18.06	7.61	-53.0	-61.9	3.8	7.45e-01	0	41	104	0	77	10095
2026-01-29 23:10:25.32	18.00	7.70	-52.9	-61.8	3.8	7.45e-01	0	41	104	0	77	9972
2026-01-29 23:10:26.32	17.94	7.79	-53.0	-61.9	3.8	7.45e-01	0	41	104	0	77	10081
2026-01-29 23:10:27.33	17.87	7.88	-53.0	-61.8	3.8	7.47e-01	0	41	104	0	77	9994
2026-01-29 23:10:28.34	17.81	7.97	-53.1	-61.9	3.8	7.45e-01	0	41	104	0	77	10133
2026-01-29 23:10:29.35	17.75	8.07	-53.0	-61.8	3.8	7.44e-01	0	41	104	0	77	10027
2026-01-29 23:10:30.35	17.69	8.16	-53.1	-61.9	3.8	7.43e-01	0	41	104	0	77	10107
2026-01-29 23:10:31.35	17.62	8.25	-53.0	-61.8	3.8	7.45e-01	0	41	104	0	77	10022
2026-01-29 23:10:32.36	17.56	8.34	-53.1	-61.9	3.8	7.46e-01	0	41	104	0	77	10115
2026-01-29 23:10:33.37	17.49	8.44	-53.0	-61.8	3.8	7.46e-01	0	41	104	0	77	10029
2026-01-29 23:10:34.37	17.43	8.53	-53.1	-61.9	3.8	7.46e-01	0	41	104	0	77	10150
2026-01-29 23:10:35.38	17.36	8.62	-53.0	-61.9	3.8	7.46e-01	0	41	104	0	77	10066
2026-01-29 23:10:36.38	17.29	8.72	-53.1	-61.9	3.8	7.45e-01	0	41	104	0	77	10144
2026-01-29 23:10:37.39	17.22	8.81	-53.0	-61.8	3.8	7.45e-01	0	41	104	0	77	10051
2026-01-29 23:10:38.40	17.16	8.91	-53.1	-61.9	3.8	7.44e-01	0	41	104	0	77	10156
2026-01-29 23:10:39.41	17.09	9.01	-53.0	-61.8	3.8	7.45e-01	0	41	104	0	77	10059
2026-01-29 23:10:40.41	17.02	9.10	-53.1	-61.8	3.8	7.45e-01	0	41	104	0	77	10053
2026-01-29 23:10:41.42	16.95	9.20	-53.1	-61.9	3.8	7.44e-01	0	41	104	0	77	10118
2026-01-29 23:10:42.43	16.88	9.30	-53.1	-61.9	3.8	7.46e-01	0	41	104	0	77	10100
2026-01-29 23:10:43.44	16.81	9.40	-53.1	-61.9	3.8	7.45e-01	0	41	104	0	77	10110
2026-01-29 23:10:44.44	16.73	9.49	-53.1	-61.9	3.8	7.44e-01	0	41	104	0	77	10127
2026-01-29 23:10:45.45	16.66	9.59	-53.1	-61.9	3.8	7.45e-01	0	41	104	0	77	10133
2026-01-29 23:10:46.45	16.59	9.69	-53.1	-62.0	3.8	7.45e-01	0	41	104	0	77	10182
2026-01-29 23:10:47.46	16.52	9.79	-53.1	-62.0	3.8	7.45e-01	0	41	104	0	77	10204
2026-01-29 23:10:48.47	16.44	9.89	-53.1	-62.0	3.8	7.45e-01	0	41	104	0	77	10176
2026-01-29 23:10:49.47	16.37	9.99	-53.1	-61.9	3.8	7.44e-01	0	41	104	0	77	10142
2026-01-29 23:10:50.48	16.29	10.10	-53.1	-62.0	3.8	7.44e-01	0	41	104	0	77	10223
2026-01-29 23:10:51.48	16.21	10.20	-53.1	-61.9	3.8	7.46e-01	0	41	104	0	77	10127
2026-01-29 23:10:52.48	16.14	10.30	-53.2	-62.0	3.8	7.45e-01	0	41	104	0	77	10183
2026-01-29 23:10:53.49	16.06	10.40	-53.1	-62.0	3.8	7.45e-01	0	41	104	0	77	10189
2026-01-29 23:10:54.49	15.98	10.50	-53.2	-61.9	3.8	7.46e-01	0	41	104	0	77	10175
2026-01-29 23:10:55.50	15.90	10.61	-53.1	-62.0	3.8	7.45e-01	0	41	104	0	77	10179
2026-01-29 23:10:56.50	15.82	10.71	-53.2	-62.0	3.8	7.45e-01	0	41	104	0	77	10227
2026-01-29 23:10:57.51	15.74	10.82	-53.1	-62.0	3.8	7.46e-01	0	41	104	0	77	10180
2026-01-29 23:10:58.52	15.66	10.92	-53.2	-62.0	3.8	7.45e-01	0	41	104	0	77	10217
2026-01-29 23:10:59.52	15.58	11.03	-53.2	-62.0	3.8	7.46e-01	0	41	104	0	77	10249
2026-01-29 23:11:00.53	15.49	11.14	-53.2	-62.0	3.8	7.44e-01	0	41	104	0	77	10267
2026-01-29 23:11:01.54	15.41	11.25	-53.2	-62.0	3.8	7.43e-01	0	41	104	0	77	10236
2026-01-29 23:11:02.54	15.33	11.35	-53.2	-62.0	3.8	7.45e-01	0	41	104	0	77	10221
2026-01-29 23:11:03.55	15.24	11.46	-53.2	-62.0	3.8	7.44e-01	0	41	104	0	77	10227
2026-01-29 23:11:04.55	15.15	11.57	-53.2	-62.0	3.8	7.46e-01	0	41	104	0	77	10225
2026-01-29 23:11:05.55	15.07	11.68	-53.2	-62.0	3.8	7.46e-01	0	42	104	0	77	10211
2026-01-29 23:11:06.56	14.98	11.79	-53.2	-62.0	3.8	7.46e-01	0	42	104	0	77	10245
2026-01-29 23:11:07.57	14.89	11.90	-53.2	-62.1	3.8	7.45e-01	0	41	104	0	77	10307
2026-01-29 23:11:08.58	14.80	12.01	-53.2	-62.0	3.8	7.46e-01	0	41	104	0	77	10290
2026-01-29 23:11:09.59	14.71	12.13	-53.2	-62.0	3.8	7.47e-01	0	41	104	0	77	10281
2026-01-29 23:11:10.60	14.62	12.24	-53.3	-62.1	3.8	7.45e-01	0	41	104	0	77	10372
2026-01-29 23:11:11.60	14.53	12.35	-53.3	-62.1	3.8	7.44e-01	0	41	104	0	77	10328
2026-01-29 23:11:12.61	14.43	12.47	-53.3	-62.1	3.8	7.46e-01	0	41	104	0	77	10315
2026-01-29 23:11:13.62	14.34	12.58	-53.3	-62.1	3.8	7.43e-01	0	41	104	0	77	10352
2026-01-29 23:11:14.63	14.24	12.70	-53.3	-62.1	3.8	7.46e-01	0	41	104	0	77	10331
2026-01-29 23:11:15.64	14.15	12.81	-53.3	-62.1	3.8	7.45e-01	0	41	104	0	77	10350
2026-01-29 23:11:16.65	14.05	12.93	-53.3	-62.1	3.8	7.45e-01	0	42	104	0	77	10326
2026-01-29 23:11:17.65	13.95	13.05	-53.3	-62.2	3.8	7.44e-01	0	41	104	0	77	10416
2026-01-29 23:11:18.66	13.85	13.17	-53.3	-62.1	3.8	7.45e-01	0	41	104	0	77	10357
2026-01-29 23:11:19.67	13.75	13.28	-53.3	-62.2	3.8	7.47e-01	0	41	104	0	77	10420
2026-01-29 23:11:20.67	13.65	13.40	-53.3	-62.1	3.8	7.45e-01	0	42	104	0	77	10355
2026-01-29 23:11:21.68	13.55	13.52	-53.3	-62.2	3.8	7.44e-01	0	41	104	0	77	10422
2026-01-29 23:11:22.69	13.45	13.65	-53.3	-62.2	3.8	7.45e-01	0	42	104	0	77	10417
2026-01-29 23:11:23.70	13.34	13.77	-53.4	-62.2	3.8	7.45e-01	0	42	104	0	77	10446
2026-01-29 23:11:24.71	13.24	13.89	-53.3	-62.1	3.8	7.46e-01	0	42	104	0	77	10407
2026-01-29 23:11:25.72	13.13	14.01	-53.4	-62.2	3.8	7.44e-01	0	42	104	0	77	10439
2026-01-29 23:11:26.73	13.02	14.14	-53.3	-62.2	3.8	7.46e-01	0	41	104	0	77	10419
2026-01-29 23:11:27.73	12.92	14.26	-53.4	-62.2	3.8	7.44e-01	0	41	104	0	77	10458
2026-01-29 23:11:28.74	12.81	14.39	-53.3	-62.2	3.8	7.45e-01	0	41	104	0	77	10439
2026-01-29 23:11:29.74	12.70	14.51	-53.4	-62.2	3.8	7.44e-01	0	42	104	0	77	10498
2026-01-29 23:11:30.75	12.58	14.64	-53.4	-62.2	3.8	7.47e-01	0	42	104	0	77	10456
2026-01-29 23:11:31.76	12.47	14.77	-53.4	-62.2	3.8	7.46e-01	0	42	104	0	77	10490
2026-01-29 23:11:32.77	12.36	14.90	-53.4	-62.2	3.8	7.44e-01	0	42	104	0	77	10477
2026-01-29 23:11:33.77	12.24	15.02	-53.4	-62.2	3.8	7.45e-01	0	41	104	0	77	10516
2026-01-29 23:11:34.78	12.12	15.16	-53.4	-62.2	3.8	7.46e-01	0	42	104	0	77	10516
2026-01-29 23:11:35.79	12.01	15.29	-53.4	-62.3	3.8	7.46e-01	0	42	104	0	77	10571
2026-01-29 23:11:36.79	11.89	15.42	-53.4	-62.2	3.8	7.45e-01	0	42	104	0	77	10453
2026-01-29 23:11:37.80	11.77	15.55	-53.4	-62.3	3.8	7.45e-01	0	42	104	0	77	10563
2026-01-29 23:11:38.80	11.65	15.68	-53.4	-62.2	3.8	7.47e-01	0	42	104	0	77	10487
2026-01-29 23:11:39.81	11.52	15.82	-53.5	-62.3	3.8	7.45e-01	0	42	104	0	77	10583
2026-01-29 23:11:40.82	11.40	15.95	-53.4	-62.2	3.8	7.46e-01	0	42	104	0	77	10472
2026-01-29 23:11:41.82	11.27	16.09	-53.5	-62.3	3.8	7.45e-01	0	42	104	0	77	10595
2026-01-29 23:11:42.83	11.15	16.22	-53.4	-62.3	3.8	7.47e-01	0	41	104	0	77	10543
2026-01-29 23:11:43.84	11.02	16.36	-53.5	-62.3	3.8	7.43e-01	0	41	104	0	77	10604
2026-01-29 23:11:44.85	10.89	16.50	-53.4	-62.3	3.8	7.46e-01	0	41	104	0	77	10535
2026-01-29 23:11:45.85	10.75	16.64	-53.5	-62.3	3.8	7.43e-01	0	41	104	0	77	10630
2026-01-29 23:11:46.86	10.62	16.78	-53.5	-62.2	3.8	7.46e-01	0	42	104	0	77	10530
2026-01-29 23:11:47.87	10.49	16.92	-53.5	-62.3	3.8	7.44e-01	0	42	104	0	77	10639
2026-01-29 23:11:48.88	10.35	17.06	-53.5	-62.3	3.8	7.46e-01	0	42	104	0	77	10560
2026-01-29 23:11:49.88	10.21	17.21	-53.5	-62.4	3.8	7.45e-01	0	42	104	0	77	10672
2026-01-29 23:11:50.88	10.07	17.35	-53.5	-62.3	3.8	7.45e-01	0	42	104	0	77	10595
2026-01-29 23:11:51.89	9.93	17.49	-53.5	-62.4	3.8	7.43e-01	0	42	104	0	77	10658
2026-01-29 23:11:52.90	9.79	17.64	-53.5	-62.3	3.8	7.43e-01	0	41	104	0	77	10600
2026-01-29 23:11:53.91	9.65	17.79	-53.6	-62.4	3.8	7.44e-01	0	42	104	0	77	10716
2026-01-29 23:11:54.92	9.50	17.94	-53.5	-62.3	3.8	7.47e-01	0	41	104	0	77	10638
2026-01-29 23:11:55.93	9.35	18.08	-53.6	-62.4	3.8	7.45e-01	0	42	104	0	77	10670
2026-01-29 23:11:56.94	9.20	18.23	-53.5	-62.3	3.8	7.45e-01	0	42	104	0	77	10618
2026-01-29 23:11:57.94	9.05	18.38	-53.6	-62.4	3.8	7.46e-01	0	42	104	0	77	10718
2026-01-29 23:11:58.95	8.90	18.54	-53.5	-62.4	3.8	7.45e-01	0	41	104	0	77	10670
2026-01-29 23:11:59.95	8.74	18.69	-53.6	-62.4	3.8	7.46e-01	0	42	104	0	77	10730
2026-01-29 23:12:00.96	8.59	18.84	-53.5	-62.4	3.8	7.46e-01	0	42	104	0	77	10689
2026-01-29 23:12:01.96	8.43	19.00	-53.6	-62.5	3.8	7.47e-01	0	42	104	0	77	10808
2026-01-29 23:12:02.97	8.27	19.15	-53.6	-62.4	3.8	7.46e-01	0	42	104	0	77	10696
2026-01-29 23:12:03.97	8.11	19.31	-53.6	-62.4	3.8	7.46e-01	0	42	104	0	77	10771
2026-01-29 23:12:04.98	7.94	19.47	-53.6	-62.4	3.8	7.46e-01	0	42	104	0	77	10727
2026-01-29 23:12:05.99	7.78	19.62	-53.6	-62.5	3.8	7.44e-01	0	42	104	0	77	10789
2026-01-29 23:12:07.00	7.61	19.78	-53.6	-62.4	3.8	7.44e-01	0	42	104	0	77	10747
2026-01-29 23:12:08.01	7.44	19.95	-53.7	-62.5	3.8	7.46e-01	0	42	104	0	77	10811
2026-01-29 23:12:09.01	7.27	20.11	-53.6	-62.4	3.8	7.46e-01	0	42	104	0	77	10760
2026-01-29 23:12:10.01	7.09	20.27	-53.7	-62.5	3.8	7.44e-01	0	42	104	0	77	10862
2026-01-29 23:12:11.02	6.91	20.43	-53.6	-62.5	3.8	7.47e-01	0	42	104	0	77	10781
2026-01-29 23:12:12.03	6.73	20.60	-53.7	-62.5	3.8	7.46e-01	0	42	104	0	77	10836
2026-01-29 23:12:13.03	6.55	20.76	-53.6	-62.4	3.8	7.45e-01	0	42	104	0	77	10749
2026-01-29 23:12:14.03	6.37	20.93	-53.7	-62.5	3.8	7.44e-01	0	42	104	0	77	10871
2026-01-29 23:12:15.04	6.19	21.10	-53.7	-62.5	3.8	7.45e-01	0	42	104	0	77	10817
2026-01-29 23:12:16.05	6.00	21.27	-53.7	-62.5	3.8	7.45e-01	0	42	104	0	77	10870
2026-01-29 23:12:17.06	5.81	21.44	-53.7	-62.5	3.8	7.44e-01	0	42	104	0	77	10833
2026-01-29 23:12:18.07	5.61	21.61	-53.7	-62.5	3.8	7.44e-01	0	42	104	0	78	10289
2026-01-29 23:12:19.08	5.41	21.79	-53.7	-62.5	3.8	7.44e-01	0	42	104	0	78	10281
2026-01-29 23:12:20.09	5.22	21.96	-53.8	-62.6	3.8	7.46e-01	0	42	104	0	78	10327
2026-01-29 23:12:21.09	5.02	22.14	-53.7	-62.5	3.8	7.43e-01	0	42	104	0	78	10258
2026-01-29 23:12:22.10	4.81	22.32	-53.8	-62.5	3.8	7.45e-01	0	42	104	0	78	10292
2026-01-29 23:12:23.11	4.61	22.49	-53.7	-62.5	3.8	7.47e-01	0	42	104	0	78	10293
2026-01-29 23:12:24.11	4.40	22.67	-53.8	-62.6	3.8	7.46e-01	0	42	104	0	78	10348
2026-01-29 23:12:25.12	4.19	22.85	-53.7	-62.5	3.8	7.44e-01	0	42	104	0	78	10278
2026-01-29 23:12:26.13	3.97	23.03	-53.8	-62.6	3.8	7.45e-01	0	42	104	0	78	10345
2026-01-29 23:12:27.14	3.75	23.22	-53.8	-62.6	3.8	7.45e-01	0	42	104	0	78	10330
2026-01-29 23:12:28.15	3.53	23.40	-53.8	-62.6	3.8	7.45e-01	0	42	104	0	78	10380
2026-01-29 23:12:29.15	3.31	23.59	-53.8	-62.6	3.8	7.44e-01	0	42	104	0	78	10331
2026-01-29 23:12:30.16	3.08	23.77	-53.8	-62.6	3.8	7.46e-01	0	42	104	0	78	10397
2026-01-29 23:12:31.17	2.85	23.96	-53.8	-62.6	3.8	7.47e-01	0	42	104	0	78	10324
2026-01-29 23:12:32.17	2.62	24.15	-53.8	-62.7	3.8	7.45e-01	0	42	104	0	78	10465
2026-01-29 23:12:33.18	2.38	24.34	-53.8	-62.6	3.8	7.45e-01	0	42	104	0	78	10398
2026-01-29 23:12:34.19	2.14	24.53	-53.9	-62.7	3.8	7.47e-01	0	42	104	0	78	10433
2026-01-29 23:12:35.19	1.90	24.72	-53.8	-62.6	3.8	7.45e-01	0	42	104	0	78	10409
2026-01-29 23:12:36.20	1.66	24.92	-53.9	-62.7	3.8	7.44e-01	0	42	104	0	78	10452
2026-01-29 23:12:37.21	1.41	25.11	-53.8	-62.6	3.8	7.45e-01	0	42	104	0	78	10381
2026-01-29 23:12:38.22	1.15	25.31	-53.9	-62.7	3.8	7.45e-01	0	42	104	0	78	10504
2026-01-29 23:12:39.23	0.89	25.51	-53.9	-62.7	3.8	7.45e-01	0	42	104	0	78	10420
2026-01-29 23:12:40.23	0.64	25.70	-53.9	-62.7	3.8	7.45e-01	0	42	104	0	78	10529
2026-01-29 23:12:41.23	0.37	25.90	-53.9	-62.7	3.8	7.46e-01	0	42	104	0	78	10433
2026-01-29 23:12:42.24	0.11	26.10	-53.9	-62.7	3.8	7.44e-01	0	42	104	0	78	10491
2026-01-29 23:12:43.24	359.84	26.30	-53.9	-62.7	3.8	7.43e-01	0	42	104	0	78	10486
2026-01-29 23:12:44.25	359.56	26.51	-53.9	-62.7	3.8	7.45e-01	0	42	104	0	78	10502
2026-01-29 23:12:45.26	359.28	26.71	-53.9	-62.7	3.8	7.45e-01	0	42	104	0	78	10469
2026-01-29 23:12:46.26	359.00	26.92	-53.9	-62.8	3.8	7.44e-01	0	42	104	0	78	10551
2026-01-29 23:12:47.27	358.71	27.12	-53.9	-62.7	3.8	7.44e-01	0	42	104	0	78	10477
2026-01-29 23:12:48.27	358.42	27.33	-54.0	-62.8	3.8	7.47e-01	0	42	104	0	78	10566
2026-01-29 23:12:49.28	358.12	27.54	-53.9	-62.8	3.8	7.45e-01	0	42	104	0	78	10534
2026-01-29 23:12:50.29	357.82	27.75	-54.0	-62.8	3.8	7.46e-01	0	42	104	0	78	10566
2026-01-29 23:12:51.30	357.52	27.96	-53.9	-62.8	3.8	7.45e-01	0	42	104	0	78	10569
2026-01-29 23:12:52.31	357.21	28.18	-54.0	-62.8	3.8	7.44e-01	0	42	104	0	78	10608
2026-01-29 23:12:53.32	356.89	28.39	-53.9	-62.8	3.8	7.44e-01	0	42	104	0	78	10579
2026-01-29 23:12:54.33	356.57	28.61	-54.0	-62.8	3.8	7.44e-01	0	42	104	0	78	10652
2026-01-29 23:12:55.34	356.25	28.82	-54.0	-62.8	3.8	7.44e-01	0	42	104	0	78	10603
2026-01-29 23:12:56.34	355.92	29.04	-54.0	-62.9	3.8	7.47e-01	0	42	104	0	78	10672
2026-01-29 23:12:57.35	355.59	29.26	-54.0	-62.8	3.8	7.44e-01	0	42	104	0	78	10598
2026-01-29 23:12:58.35	355.25	29.48	-54.0	-62.8	3.8	7.45e-01	0	42	104	0	78	10643
2026-01-29 23:12:59.36	354.91	29.70	-54.0	-62.8	3.8	7.46e-01	0	42	104	0	78	10644
2026-01-29 23:13:00.36	354.56	29.91	-54.1	-62.9	3.8	7.44e-01	0	42	104	0	78	10671
2026-01-29 23:13:01.37	354.21	30.14	-54.0	-62.8	3.8	7.44e-01	0	42	104	0	78	10623
2026-01-29 23:13:02.38	353.85	30.36	-54.1	-62.9	3.8	7.45e-01	0	42	104	0	78	10684
2026-01-29 23:13:03.38	353.49	30.58	-54.0	-62.9	3.8	7.45e-01	0	42	104	0	78	10691
2026-01-29 23:13:04.39	353.12	30.81	-54.1	-62.9	3.8	7.45e-01	0	42	104	0	78	10772
2026-01-29 23:13:05.39	352.74	31.03	-54.0	-62.9	3.8	7.46e-01	0	42	104	0	78	10676
2026-01-29 23:13:06.39	352.36	31.26	-54.1	-62.9	3.8	7.45e-01	0	42	104	0	78	10757
2026-01-29 23:13:07.40	351.98	31.48	-54.1	-62.9	3.8	7.48e-01	0	42	104	0	78	10692
2026-01-29 23:13:08.40	351.59	31.71	-54.1	-62.9	3.8	7.45e-01	0	42	104	0	78	10772
2026-01-29 23:13:09.41	351.19	31.94	-54.1	-62.9	3.8	7.43e-01	0	42	104	0	78	10702
2026-01-29 23:13:10.41	350.78	32.16	-54.1	-63.0	3.8	7.44e-01	0	42	104	0	78	10793
2026-01-29 23:13:11.42	350.37	32.39	-54.1	-63.0	3.8	7.44e-01	0	42	104	0	78	10784
2026-01-29 23:13:12.42	349.96	32.62	-54.2	-63.0	3.8	7.45e-01	0	42	104	0	78	10831
2026-01-29 23:13:13.43	349.53	32.85	-54.1	-63.0	3.8	7.44e-01	0	42	104	0	78	10799
2026-01-29 23:13:14.44	349.10	33.08	-54.2	-63.0	3.8	7.46e-01	0	42	104	0	78	10879
2026-01-29 23:13:15.44	348.66	33.31	-54.2	-63.0	3.8	7.45e-01	0	42	104	0	78	10876
2026-01-29 23:13:16.45	348.22	33.54	-54.2	-63.0	3.8	7.46e-01	0	42	104	0	79	10286
2026-01-29 23:13:17.46	347.77	33.77	-54.2	-63.0	3.8	7.45e-01	0	42	104	0	79	10273
2026-01-29 23:13:18.46	347.31	34.00	-54.3	-63.1	3.8	7.46e-01	0	42	104	0	79	10311
2026-01-29 23:13:19.47	346.84	34.23	-54.3	-63.1	3.8	7.43e-01	0	42	104	0	79	10323
2026-01-29 23:13:20.48	346.37	34.47	-54.3	-63.1	3.8	7.46e-01	0	42	104	0	79	10332
2026-01-29 23:13:21.48	345.89	34.70	-54.3	-63.1	3.8	7.45e-01	0	42	104	0	79	10351
2026-01-29 23:13:22.49	345.41	34.93	-54.3	-63.1	3.8	7.46e-01	0	42	104	0	79	10324
2026-01-29 23:13:23.50	344.91	35.16	-54.3	-63.1	3.8	7.45e-01	0	42	104	0	79	10379
2026-01-29 23:13:24.51	344.41	35.39	-54.3	-63.2	3.8	7.46e-01	0	42	104	0	79	10417
2026-01-29 23:13:25.51	343.90	35.62	-54.3	-63.1	3.8	7.45e-01	0	42	104	0	79	10381
2026-01-29 23:13:26.52	343.38	35.85	-54.3	-63.2	3.8	7.44e-01	0	42	104	0	79	10429
2026-01-29 23:13:27.53	342.86	36.08	-54.4	-63.2	3.8	7.46e-01	0	42	104	0	79	10465
2026-01-29 23:13:28.53	342.33	36.30	-54.3	-63.1	3.8	7.45e-01	0	42	104	0	79	10410
2026-01-29 23:13:29.54	341.79	36.53	-54.4	-63.2	3.8	7.46e-01	0	42	104	0	79	10421
2026-01-29 23:13:30.54	341.24	36.75	-54.4	-63.2	3.8	7.45e-01	0	42	104	0	79	10442
2026-01-29 23:13:31.56	340.68	36.98	-54.4	-63.2	3.8	7.45e-01	0	42	104	0	79	10507
2026-01-29 23:13:32.57	340.11	37.20	-54.4	-63.2	3.8	7.46e-01	0	42	104	0	79	10471
2026-01-29 23:13:33.57	339.54	37.42	-54.4	-63.2	3.8	7.46e-01	0	42	104	0	79	10422
2026-01-29 23:13:34.57	338.96	37.64	-54.4	-63.2	3.8	7.45e-01	0	42	104	0	79	10479
2026-01-29 23:13:35.58	338.37	37.86	-54.4	-63.2	3.8	7.45e-01	0	42	104	0	79	10516
2026-01-29 23:13:36.58	337.78	38.08	-54.4	-63.2	3.8	7.45e-01	0	42	104	0	79	10486
2026-01-29 23:13:37.59	337.17	38.29	-54.4	-63.2	3.8	7.46e-01	0	42	104	0	79	10525
2026-01-29 23:13:38.60	336.55	38.51	-54.4	-63.3	3.8	7.45e-01	0	42	104	0	79	10534
2026-01-29 23:13:39.60	335.93	38.72	-54.5	-63.3	3.8	7.46e-01	0	42	104	0	79	10573
2026-01-29 23:13:40.60	335.30	38.93	-54.4	-63.3	3.8	7.46e-01	0	42	104	0	79	10564
2026-01-29 23:13:41.61	334.66	39.13	-54.4	-63.3	3.8	7.43e-01	0	42	104	0	79	10574
2026-01-29 23:13:42.61	334.01	39.34	-54.5	-63.3	3.8	7.46e-01	0	42	104	0	79	10584
2026-01-29 23:13:43.62	333.35	39.54	-54.5	-63.3	3.8	7.45e-01	0	42	104	0	79	10651
2026-01-29 23:13:44.63	332.68	39.74	-54.5	-63.3	3.8	7.44e-01	0	42	104	0	79	10601
2026-01-29 23:13:45.64	332.01	39.93	-54.5	-63.3	3.8	7.46e-01	0	42	104	0	79	10638
2026-01-29 23:13:46.65	331.32	40.13	-54.5	-63.3	3.8	7.45e-01	0	42	104	0	79	10626
2026-01-29 23:13:47.65	330.63	40.31	-54.6	-63.4	3.8	7.45e-01	0	42	104	0	79	10719
2026-01-29 23:13:48.66	329.93	40.50	-54.5	-63.3	3.8	7.47e-01	0	42	104	0	79	10651
2026-01-29 23:13:49.66	329.22	40.68	-54.5	-63.4	3.8	7.44e-01	0	42	104	0	79	10697
2026-01-29 23:13:50.67	328.50	40.86	-54.6	-63.4	3.8	7.44e-01	0	42	104	0	79	10721
2026-01-29 23:13:51.68	327.78	41.03	-54.6	-63.4	3.8	7.45e-01	0	42	104	0	79	10750
2026-01-29 23:13:52.69	327.04	41.20	-54.5	-63.4	3.8	7.44e-01	0	42	104	0	79	10680
2026-01-29 23:13:53.69	326.30	41.37	-54.6	-63.4	3.8	7.44e-01	0	42	104	0	79	10735
2026-01-29 23:13:54.69	325.56	41.53	-54.6	-63.5	3.8	7.44e-01	0	42	104	0	79	10782
2026-01-29 23:13:55.70	324.80	41.69	-54.6	-63.5	3.8	7.45e-01	0	42	104	0	79	10818
2026-01-29 23:13:56.71	324.03	41.84	-54.6	-63.4	3.8	7.43e-01	0	42	104	0	79	10759
2026-01-29 23:13:57.72	323.25	41.99	-54.6	-63.4	3.8	7.46e-01	0	42	104	0	79	10768
2026-01-29 23:13:58.72	322.48	42.13	-54.7	-63.5	3.8	7.47e-01	0	42	104	0	79	10819
2026-01-29 23:13:59.73	321.69	42.26	-54.7	-63.5	3.8	7.44e-01	0	42	104	0	79	10851
2026-01-29 23:14:00.73	320.90	42.39	-54.6	-63.5	3.8	7.45e-01	0	42	104	0	79	10823
2026-01-29 23:14:01.73	320.10	42.52	-54.7	-63.5	3.8	7.44e-01	0	42	104	0	79	10843
2026-01-29 23:14:02.74	319.29	42.64	-54.7	-63.5	3.8	7.45e-01	0	42	104	0	79	10860
2026-01-29 23:14:03.75	318.47	42.75	-54.7	-63.5	3.8	7.47e-01	0	42	104	0	79	10880
2026-01-29 23:14:04.75	317.66	42.86	-54.7	-63.5	3.8	7.44e-01	0	42	104	0	79	10810
2026-01-29 23:14:05.76	316.83	42.97	-54.7	-63.5	3.8	7.43e-01	0	42	104	0	79	10865
2026-01-29 23:14:06.77	316.00	43.06	-54.7	-63.5	3.8	7.44e-01	0	42	104	0	79	10897
2026-01-29 23:14:07.78	315.16	43.15	-54.7	-63.5	3.8	7.45e-01	0	42	104	0	80	10236
2026-01-29 23:14:08.78	314.33	43.23	-54.6	-63.5	3.8	7.46e-01	0	42	104	0	80	10203
2026-01-29 23:14:09.79	313.48	43.31	-54.7	-63.5	3.8	7.47e-01	0	42	104	0	80	10253
2026-01-29 23:14:10.79	312.63	43.38	-54.7	-63.5	3.8	7.45e-01	0	42	104	0	80	10222
2026-01-29 23:14:11.80	311.78	43.45	-54.7	-63.5	3.8	7.45e-01	0	42	104	0	80	10258
2026-01-29 23:14:12.80	310.93	43.50	-54.7	-63.5	3.8	7.46e-01	0	42	104	0	80	10237
2026-01-29 23:14:13.81	310.07	43.55	-54.7	-63.5	3.8	7.46e-01	0	42	104	0	80	10271
2026-01-29 23:14:14.82	309.20	43.60	-54.7	-63.5	3.8	7.44e-01	0	42	104	0	80	10241
2026-01-29 23:14:15.83	308.33	43.63	-54.7	-63.5	3.8	7.44e-01	0	42	104	0	80	10285
2026-01-29 23:14:16.83	307.47	43.66	-54.7	-63.5	3.8	7.45e-01	0	42	104	0	80	10216
2026-01-29 23:14:17.84	306.60	43.68	-54.7	-63.6	3.8	7.44e-01	0	42	104	0	80	10306
2026-01-29 23:14:18.85	305.73	43.70	-54.7	-63.6	3.8	7.45e-01	0	42	104	0	80	10309
2026-01-29 23:14:19.85	304.87	43.71	-54.8	-63.6	3.8	7.45e-01	0	42	104	0	80	10311
2026-01-29 23:14:20.86	304.00	43.71	-54.7	-63.5	3.8	7.45e-01	0	42	104	0	80	10271
2026-01-29 23:14:21.86	303.13	43.70	-54.7	-63.6	3.8	7.45e-01	0	42	104	0	80	10294
2026-01-29 23:14:22.87	302.26	43.69	-54.7	-63.6	3.8	7.47e-01	0	42	104	0	80	10326
2026-01-29 23:14:23.87	301.40	43.67	-54.8	-63.6	3.8	7.44e-01	0	42	104	0	80	10374
2026-01-29 23:14:24.88	300.53	43.64	-54.7	-63.6	3.8	7.45e-01	0	42	104	0	80	10299
2026-01-29 23:14:25.89	299.66	43.60	-54.8	-63.6	3.8	7.45e-01	0	42	104	0	80	10338
2026-01-29 23:14:26.89	298.81	43.56	-54.8	-63.6	3.8	7.43e-01	0	42	104	0	80	10359
2026-01-29 23:14:27.90	297.94	43.51	-54.8	-63.6	3.8	7.45e-01	0	42	104	0	80	10377
2026-01-29 23:14:28.91	297.08	43.46	-54.8	-63.6	3.8	7.43e-01	0	42	104	0	80	10328
2026-01-29 23:14:29.92	296.23	43.39	-54.8	-63.6	3.8	7.47e-01	0	42	104	0	80	10369
2026-01-29 23:14:30.92	295.38	43.33	-54.8	-63.7	3.8	7.44e-01	0	42	104	0	80	10421
2026-01-29 23:14:31.93	294.53	43.25	-54.8	-63.6	3.8	7.45e-01	0	42	104	0	80	10398
2026-01-29 23:14:32.94	293.69	43.17	-54.8	-63.6	3.8	7.46e-01	0	42	104	0	80	10359
2026-01-29 23:14:33.94	292.86	43.08	-54.8	-63.6	3.8	7.45e-01	0	42	104	0	80	10404
2026-01-29 23:14:34.95	292.02	42.98	-54.8	-63.7	3.8	7.45e-01	0	42	104	0	80	10439
2026-01-29 23:14:35.96	291.19	42.88	-54.8	-63.6	3.8	7.45e-01	0	42	104	0	80	10405
2026-01-29 23:14:36.96	290.37	42.78	-54.8	-63.6	3.8	7.46e-01	0	42	104	0	80	10356
2026-01-29 23:14:37.97	289.56	42.66	-54.8	-63.6	3.8	7.45e-01	0	42	104	0	80	10388
2026-01-29 23:14:38.98	288.74	42.54	-54.8	-63.6	3.8	7.46e-01	0	42	104	0	80	10389
2026-01-29 23:14:39.99	287.94	42.42	-54.8	-63.7	3.8	7.45e-01	0	42	104	0	80	10429
2026-01-29 23:14:40.99	287.15	42.29	-54.8	-63.6	3.8	7.45e-01	0	42	104	0	80	10318
2026-01-29 23:14:41.99	286.36	42.15	-54.8	-63.6	3.8	7.46e-01	0	42	104	0	80	10361
2026-01-29 23:14:43.00	285.58	42.01	-54.8	-63.6	3.8	7.44e-01	0	42	104	0	80	10348
2026-01-29 23:14:44.01	284.80	41.86	-54.8	-63.6	3.8	7.45e-01	0	42	104	0	80	10397
2026-01-29 23:14:45.01	284.03	41.71	-54.7	-63.6	3.8	7.45e-01	0	42	104	0	80	10322
2026-01-29 23:14:46.02	283.27	41.56	-54.8	-63.6	3.8	7.47e-01	0	42	104	0	80	10343
2026-01-29 23:14:47.03	282.52	41.40	-54.8	-63.6	3.8	7.45e-01	0	42	104	0	80	10298
2026-01-29 23:14:48.04	281.77	41.23	-54.8	-63.6	3.8	7.46e-01	0	42	104	0	80	10352
2026-01-29 23:14:49.05	281.03	41.06	-54.7	-63.5	3.8	7.45e-01	0	42	104	0	80	10288
2026-01-29 23:14:50.05	280.31	40.89	-54.7	-63.6	3.8	7.45e-01	0	42	104	0	80	10322
2026-01-29 23:14:51.06	279.58	40.71	-54.7	-63.6	3.8	7.45e-01	0	42	104	0	80	10295
2026-01-29 23:14:52.07	278.87	40.53	-54.7	-63.5	3.8	7.45e-01	0	42	104	0	80	10282
2026-01-29 23:14:53.08	278.16	40.34	-54.7	-63.5	3.8	7.46e-01	0	42	104	0	80	10240
2026-01-29 23:14:54.08	277.47	40.15	-54.7	-63.5	3.8	7.45e-01	0	42	104	0	80	10272
2026-01-29 23:14:55.09	276.78	39.96	-54.7	-63.5	3.8	7.46e-01	0	42	104	0	80	10213
2026-01-29 23:14:56.10	276.10	39.76	-54.7	-63.5	3.8	7.45e-01	0	42	104	0	80	10276
2026-01-29 23:14:57.10	275.44	39.57	-54.6	-63.5	3.8	7.44e-01	0	42	104	0	80	10193
2026-01-29 23:14:58.10	274.78	39.37	-54.6	-63.5	3.8	7.45e-01	0	42	104	0	80	10254
2026-01-29 23:14:59.11	274.13	39.16	-54.6	-63.4	3.8	7.44e-01	0	42	104	0	80	10166
2026-01-29 23:15:00.11	273.49	38.96	-54.6	-63.5	3.8	7.45e-01	0	42	104	0	80	10200
2026-01-29 23:15:01.12	272.85	38.75	-54.6	-63.4	3.8	7.46e-01	0	42	104	0	80	10128
2026-01-29 23:15:02.13	272.22	38.54	-54.6	-63.4	3.8	7.45e-01	0	42	104	0	80	10145
2026-01-29 23:15:03.14	271.60	38.32	-54.6	-63.4	3.8	7.47e-01	0	42	104	0	80	10146
2026-01-29 23:15:04.15	270.99	38.10	-54.6	-63.4	3.8	7.45e-01	0	42	104	0	80	10115
2026-01-29 23:15:05.16	270.38	37.89	-54.5	-63.4	3.8	7.45e-01	0	42	104	0	80	10069
2026-01-29 23:15:06.17	269.79	37.67	-54.5	-63.4	3.8	7.46e-01	0	42	104	0	80	10064
2026-01-29 23:15:07.18	269.20	37.45	-54.5	-63.3	3.8	7.46e-01	0	42	104	0	80	10050
2026-01-29 23:15:08.19	268.63	37.22	-54.5	-63.3	3.8	7.45e-01	0	42	104	0	80	10043
2026-01-29 23:15:09.19	268.06	37.00	-54.5	-63.3	3.8	7.45e-01	0	42	104	0	80	9995
2026-01-29 23:15:10.20	267.50	36.77	-54.5	-63.3	3.8	7.45e-01	0	42	104	0	80	10030
2026-01-29 23:15:11.21	266.95	36.55	-54.5	-63.3	3.8	7.45e-01	0	42	104	0	80	10051
2026-01-29 23:15:12.21	266.41	36.32	-54.5	-63.3	3.8	7.47e-01	0	42	104	0	80	10019
2026-01-29 23:15:13.22	265.87	36.09	-54.4	-63.3	3.8	7.45e-01	0	42	104	0	80	9981
2026-01-29 23:15:14.23	265.34	35.86	-54.4	-63.3	3.8	7.47e-01	0	42	104	0	80	9987
2026-01-29 23:15:15.24	264.82	35.63	-54.4	-63.3	3.8	7.46e-01	0	42	104	0	80	9985
2026-01-29 23:15:16.25	264.31	35.40	-54.4	-63.3	3.8	7.46e-01	0	42	104	0	80	9958
2026-01-29 23:15:17.25	263.81	35.17	-54.4	-63.2	3.8	7.45e-01	0	42	104	0	80	9914
2026-01-29 23:15:18.26	263.31	34.94	-54.4	-63.3	3.8	7.46e-01	0	42	104	0	80	9966
2026-01-29 23:15:19.26	262.83	34.71	-54.4	-63.3	3.8	7.46e-01	0	42	104	0	80	9974
2026-01-29 23:15:20.27	262.34	34.48	-54.4	-63.2	3.8	7.45e-01	0	42	104	0	80	9944
2026-01-29 23:15:21.28	261.87	34.25	-54.4	-63.2	3.8	7.47e-01	0	42	104	0	80	9923
2026-01-29 23:15:22.29	261.40	34.01	-54.4	-63.2	3.8	7.44e-01	0	42	104	0	80	9914
2026-01-29 23:15:23.29	260.94	33.78	-54.4	-63.2	3.8	7.44e-01	0	42	104	0	80	9925
2026-01-29 23:15:24.30	260.49	33.55	-54.4	-63.2	3.8	7.45e-01	0	42	104	0	80	9899
2026-01-29 23:15:25.30	260.04	33.32	-54.3	-63.2	3.8	7.44e-01	0	42	104	0	80	9897
2026-01-29 23:15:26.31	259.60	33.09	-54.3	-63.2	3.8	7.45e-01	0	42	104	0	80	9834
2026-01-29 23:15:27.32	259.17	32.86	-54.3	-63.2	3.8	7.45e-01	0	42	104	0	80	9873
2026-01-29 23:15:28.33	258.74	32.63	-54.3	-63.2	3.8	7.48e-01	0	42	104	0	80	9860
2026-01-29 23:15:29.33	258.32	32.40	-54.3	-63.1	3.8	7.44e-01	0	42	104	0	80	9781
2026-01-29 23:15:30.34	257.91	32.17	-54.3	-63.2	3.8	7.45e-01	0	42	104	0	80	9839
2026-01-29 23:15:31.35	257.50	31.94	-54.3	-63.1	3.8	7.45e-01	0	42	104	0	80	9811
2026-01-29 23:15:32.35	257.10	31.71	-54.3	-63.1	3.8	7.47e-01	0	42	104	0	80	9827
2026-01-29 23:15:33.36	256.71	31.48	-54.3	-63.2	3.8	7.46e-01	0	42	104	0	80	9853
2026-01-29 23:15:34.37	256.32	31.25	-54.3	-63.1	3.8	7.45e-01	0	42	104	0	80	9821
2026-01-29 23:15:35.37	255.94	31.03	-54.3	-63.1	3.8	7.44e-01	0	42	104	0	80	9825
2026-01-29 23:15:36.38	255.56	30.80	-54.3	-63.2	3.8	7.46e-01	0	42	104	0	80	9851
2026-01-29 23:15:37.39	255.18	30.58	-54.3	-63.1	3.8	7.44e-01	0	42	104	0	80	9795
2026-01-29 23:15:38.39	254.82	30.35	-54.3	-63.1	3.8	7.44e-01	0	42	104	0	80	9818
2026-01-29 23:15:39.40	254.46	30.13	-54.3	-63.1	3.8	7.46e-01	0	42	104	0	80	9794
2026-01-29 23:15:40.40	254.11	29.91	-54.3	-63.1	3.8	7.45e-01	0	42	104	0	80	9782
2026-01-29 23:15:41.41	253.76	29.69	-54.2	-63.1	3.8	7.46e-01	0	42	104	0	80	9726
2026-01-29 23:15:42.42	253.41	29.46	-54.2	-63.1	3.8	7.45e-01	0	42	104	0	80	9748
2026-01-29 23:15:43.43	253.07	29.24	-54.2	-63.1	3.8	7.46e-01	0	42	104	0	80	9746
2026-01-29 23:15:44.44	252.73	29.02	-54.2	-63.0	3.8	7.47e-01	0	42	104	0	80	9693
2026-01-29 23:15:45.45	252.40	28.81	-54.2	-63.0	3.8	7.44e-01	0	42	104	0	80	9708
2026-01-29 23:15:46.46	252.08	28.59	-54.2	-63.0	3.8	7.46e-01	0	42	104	0	80	9713
2026-01-29 23:15:47.46	251.76	28.37	-54.2	-63.0	3.8	7.46e-01	0	42	104	0	80	9672
2026-01-29 23:15:48.47	251.44	28.16	-54.2	-63.0	3.8	7.45e-01	0	42	104	0	80	9696
2026-01-29 23:15:49.47	251.14	27.95	-54.1	-63.0	3.8	7.45e-01	0	42	104	0	80	9631
2026-01-29 23:15:50.48	250.83	27.73	-54.2	-63.0	3.8	7.46e-01	0	42	104	0	80	9647
2026-01-29 23:15:51.49	250.53	27.52	-54.1	-63.0	3.8	7.44e-01	0	42	104	0	80	9641
2026-01-29 23:15:52.50	250.23	27.31	-54.1	-63.0	3.8	7.45e-01	0	42	104	0	80	9626
2026-01-29 23:15:53.51	249.93	27.10	-54.1	-62.9	3.8	7.45e-01	0	42	104	0	80	9581
2026-01-29 23:15:54.51	249.65	26.90	-54.1	-63.0	3.8	7.47e-01	0	42	104	0	80	9635
2026-01-29 23:15:55.51	249.37	26.69	-54.1	-62.9	3.8	7.45e-01	0	42	104	0	80	9601
2026-01-29 23:15:56.52	249.08	26.48	-54.1	-62.9	3.8	7.45e-01	0	42	104	0	80	9593
2026-01-29 23:15:57.53	248.81	26.28	-54.1	-62.9	3.8	7.45e-01	0	42	104	0	80	9540
2026-01-29 23:15:58.53	248.54	26.08	-54.1	-62.9	3.8	7.45e-01	0	42	104	0	80	9586
2026-01-29 23:15:59.54	248.27	25.88	-54.1	-62.9	3.8	7.46e-01	0	42	104	0	80	9547
2026-01-29 23:16:00.54	248.00	25.68	-54.1	-62.9	3.8	7.45e-01	0	42	104	0	80	9547
2026-01-29 23:16:01.55	247.74	25.48	-54.0	-62.9	3.8	7.46e-01	0	42	104	0	80	9541
2026-01-29 23:16:02.56	247.48	25.28	-54.0	-62.9	3.8	7.46e-01	0	42	104	0	80	9544
2026-01-29 23:16:03.56	247.23	25.08	-54.0	-62.9	3.8	7.44e-01	0	42	104	0	80	9543
2026-01-29 23:16:04.57	246.98	24.89	-54.0	-62.9	3.8	7.44e-01	0	42	104	0	80	9519
2026-01-29 23:16:05.58	246.73	24.69	-54.0	-62.8	3.8	7.46e-01	0	42	104	0	80	9477
2026-01-29 23:16:06.58	246.49	24.50	-54.0	-62.8	3.8	7.45e-01	0	42	104	0	80	9494
2026-01-29 23:16:07.59	246.25	24.31	-54.0	-62.8	3.8	7.45e-01	0	42	104	0	80	9458
2026-01-29 23:16:08.59	246.01	24.12	-54.0	-62.8	3.8	7.45e-01	0	42	104	0	80	9485
2026-01-29 23:16:09.60	245.78	23.93	-54.0	-62.9	3.8	7.45e-01	0	42	104	0	79	10078
2026-01-29 23:16:10.61	245.55	23.74	-54.1	-62.9	3.8	7.45e-01	0	42	104	0	79	10131
2026-01-29 23:16:11.61	245.32	23.55	-54.0	-62.9	3.8	7.45e-01	0	42	104	0	79	10068
2026-01-29 23:16:12.62	245.10	23.36	-54.0	-62.9	3.8	7.45e-01	0	42	104	0	79	10080
2026-01-29 23:16:13.63	244.87	23.18	-54.0	-62.8	3.8	7.45e-01	0	42	104	0	79	10037
2026-01-29 23:16:14.64	244.65	23.00	-54.0	-62.9	3.8	7.47e-01	0	42	104	0	79	10073
2026-01-29 23:16:15.64	244.44	22.81	-54.0	-62.9	3.8	7.46e-01	0	42	104	0	79	10099
2026-01-29 23:16:16.65	244.23	22.63	-54.0	-62.8	3.8	7.47e-01	0	42	104	0	79	10041
2026-01-29 23:16:17.65	244.02	22.45	-54.0	-62.8	3.8	7.45e-01	0	42	104	0	79	10003
2026-01-29 23:16:18.66	243.81	22.27	-54.0	-62.8	3.8	7.44e-01	0	42	104	0	79	10033
2026-01-29 23:16:19.67	243.60	22.10	-54.0	-62.8	3.8	7.44e-01	0	42	104	0	79	10035
2026-01-29 23:16:20.68	243.40	21.92	-54.0	-62.8	3.8	7.45e-01	0	42	104	0	79	10001
2026-01-29 23:16:21.69	243.20	21.74	-53.9	-62.8	3.8	7.45e-01	0	42	104	0	79	9972
2026-01-29 23:16:22.70	243.00	21.57	-54.0	-62.8	3.8	7.45e-01	0	42	104	0	79	9993
2026-01-29 23:16:23.71	242.81	21.40	-53.9	-62.8	3.8	7.44e-01	0	42	104	0	79	9957
2026-01-29 23:16:24.71	242.62	21.23	-53.9	-62.7	3.8	7.45e-01	0	42	104	0	79	9943
2026-01-29 23:16:25.72	242.43	21.05	-53.9	-62.7	3.8	7.46e-01	0	42	104	0	79	9941
2026-01-29 23:16:26.73	242.24	20.88	-53.9	-62.8	3.8	7.46e-01	0	42	104	0	79	9970
2026-01-29 23:16:27.73	242.06	20.72	-53.9	-62.7	3.8	7.45e-01	0	42	104	0	79	9938
2026-01-29 23:16:28.74	241.88	20.55	-53.9	-62.7	3.8	7.44e-01	0	42	104	0	79	9903
2026-01-29 23:16:29.74	241.70	20.39	-53.9	-62.7	3.8	7.46e-01	0	42	104	0	79	9896
2026-01-29 23:16:30.74	241.52	20.22	-53.9	-62.7	3.8	7.46e-01	0	42	104	0	79	9910
2026-01-29 23:16:31.75	241.34	20.06	-53.9	-62.7	3.8	7.45e-01	0	42	104	0	79	9892
2026-01-29 23:16:32.76	241.17	19.89	-53.8	-62.7	3.8	7.46e-01	0	42	104	0	79	9853
2026-01-29 23:16:33.77	241.00	19.73	-53.8	-62.7	3.8	7.45e-01	0	42	104	0	79	9874
2026-01-29 23:16:34.77	240.83	19.57	-53.8	-62.7	3.8	7.44e-01	0	42	104	0	79	9847
2026-01-29 23:16:35.78	240.66	19.41	-53.8	-62.7	3.8	7.45e-01	0	42	104	0	79	9855
2026-01-29 23:16:36.79	240.50	19.25	-53.8	-62.6	3.8	7.46e-01	0	42	104	0	79	9827
2026-01-29 23:16:37.80	240.33	19.10	-53.8	-62.7	3.8	7.45e-01	0	42	104	0	79	9848
2026-01-29 23:16:38.81	240.17	18.94	-53.8	-62.6	3.8	7.46e-01	0	42	104	0	79	9798
2026-01-29 23:16:39.82	240.01	18.78	-53.8	-62.6	3.8	7.45e-01	0	42	104	0	79	9814
2026-01-29 23:16:40.82	239.86	18.63	-53.8	-62.6	3.8	7.45e-01	0	42	104	0	79	9785
2026-01-29 23:16:41.83	239.70	18.48	-53.8	-62.6	3.8	7.44e-01	0	42	104	0	79	9775
2026-01-29 23:16:42.84	239.55	18.32	-53.8	-62.6	3.8	7.46e-01	0	42	104	0	79	9797
2026-01-29 23:16:43.84	239.40	18.17	-53.8	-62.6	3.8	7.46e-01	0	42	104	0	79	9765
2026-01-29 23:16:44.85	239.25	18.02	-53.8	-62.6	3.8	7.46e-01	0	42	104	0	79	9734
2026-01-29 23:16:45.86	239.10	17.87	-53.5	-62.6	3.8	7.46e-01	0	42	104	0	79	9745
2026-01-29 23:16:46.87	238.95	17.72	-53.8	-62.6	3.8	7.45e-01	0	42	104	0	79	9757
2026-01-29 23:16:47.88	238.80	17.58	-53.7	-62.5	3.8	7.45e-01	0	42	104	0	79	9716
2026-01-29 23:16:48.89	238.66	17.43	-53.6	-62.5	3.8	7.45e-01	0	42	104	0	79	9696
2026-01-29 23:16:49.89	238.52	17.29	-53.7	-62.6	3.8	7.45e-01	0	42	104	0	79	9721
2026-01-29 23:16:50.90	238.38	17.14	-53.7	-62.6	3.8	7.45e-01	0	42	104	0	79	9753
2026-01-29 23:16:51.91	238.24	17.00	-53.7	-62.5	3.8	7.45e-01	0	42	104	0	79	9662
2026-01-29 23:16:52.91	238.10	16.86	-53.7	-62.5	3.8	7.46e-01	0	42	104	0	79	9690
2026-01-29 23:16:53.92	237.97	16.71	-53.7	-62.5	3.8	7.46e-01	0	42	104	0	79	9702
2026-01-29 23:16:54.93	237.83	16.57	-53.7	-62.5	3.8	7.47e-01	0	42	104	0	79	9709
2026-01-29 23:16:55.93	237.70	16.43	-53.6	-62.5	3.8	7.45e-01	0	42	104	0	79	9613
2026-01-29 23:16:56.93	237.57	16.30	-53.7	-62.5	3.8	7.44e-01	0	42	104	0	79	9657
2026-01-29 23:16:57.95	237.44	16.16	-53.7	-62.5	3.8	7.45e-01	0	42	104	0	79	9626
2026-01-29 23:16:58.95	237.32	16.02	-53.7	-62.5	3.8	7.45e-01	0	42	104	0	79	9675
2026-01-29 23:16:59.96	237.19	15.88	-53.6	-62.4	3.8	7.46e-01	0	42	104	0	79	9586
2026-01-29 23:17:00.97	237.06	15.75	-53.6	-62.4	3.8	7.46e-01	0	42	104	0	79	9600
2026-01-29 23:17:01.97	236.94	15.61	-53.6	-62.5	3.8	7.45e-01	0	42	104	0	79	9637
2026-01-29 23:17:02.98	236.82	15.48	-53.6	-62.4	3.8	7.45e-01	0	42	104	0	79	9592
2026-01-29 23:17:03.99	236.70	15.35	-53.6	-62.4	3.8	7.45e-01	0	42	104	0	79	9570
2026-01-29 23:17:05.00	236.58	15.21	-53.6	-62.4	3.8	7.46e-01	0	42	104	0	79	9583
2026-01-29 23:17:06.01	236.46	15.08	-53.6	-62.4	3.8	7.45e-01	0	42	104	0	79	9599
2026-01-29 23:17:07.02	236.34	14.95	-53.6	-62.4	3.8	7.44e-01	0	42	104	0	79	9529
2026-01-29 23:17:08.03	236.22	14.82	-53.5	-62.4	3.8	7.46e-01	0	42	104	0	79	9542
2026-01-29 23:17:09.03	236.11	14.69	-53.5	-62.4	3.8	7.46e-01	0	42	104	0	79	9524
2026-01-29 23:17:10.04	235.99	14.57	-53.5	-62.4	3.8	7.45e-01	0	42	104	0	79	9513
2026-01-29 23:17:11.04	235.88	14.44	-53.5	-62.3	3.8	7.45e-01	0	42	104	0	79	9463
2026-01-29 23:17:12.05	235.77	14.31	-53.5	-62.3	3.8	7.45e-01	0	42	104	0	79	9472
2026-01-29 23:17:13.05	235.66	14.19	-53.5	-62.3	3.8	7.44e-01	0	42	104	0	79	9452
2026-01-29 23:17:14.06	235.55	14.06	-53.5	-62.3	3.8	7.46e-01	0	42	104	0	79	9481
2026-01-29 23:17:15.07	235.44	13.94	-53.5	-62.3	3.8	7.45e-01	0	42	104	0	79	9465
2026-01-29 23:17:16.08	235.34	13.81	-53.5	-62.4	3.8	7.45e-01	0	42	104	0	79	9505
2026-01-29 23:17:17.09	235.23	13.69	-53.5	-62.3	3.8	7.44e-01	0	42	104	0	79	9450
2026-01-29 23:17:18.09	235.13	13.57	-53.5	-62.3	3.8	7.44e-01	0	42	104	0	79	9475
2026-01-29 23:17:19.10	235.02	13.45	-53.5	-62.3	3.8	7.46e-01	0	42	104	0	78	9991
2026-01-29 23:17:20.11	234.92	13.33	-53.5	-62.3	3.8	7.46e-01	0	42	104	0	78	9998
2026-01-29 23:17:21.11	234.82	13.21	-53.5	-62.3	3.8	7.43e-01	0	42	104	0	78	10005
2026-01-29 23:17:22.12	234.72	13.09	-53.5	-62.3	3.8	7.47e-01	0	42	104	0	78	10000
2026-01-29 23:17:23.12	234.62	12.97	-53.4	-62.3	3.8	7.45e-01	0	42	104	0	78	10015
2026-01-29 23:17:24.13	234.52	12.85	-53.4	-62.3	3.8	7.45e-01	0	42	104	0	78	10001
2026-01-29 23:17:25.14	234.42	12.73	-53.4	-62.3	3.8	7.45e-01	0	42	104	0	78	9974
2026-01-29 23:17:26.14	234.33	12.62	-53.4	-62.3	3.8	7.45e-01	0	42	104	0	78	9952
2026-01-29 23:17:27.14	234.23	12.50	-53.4	-62.2	3.8	7.46e-01	0	42	104	0	78	9922
2026-01-29 23:17:28.15	234.14	12.39	-53.4	-62.2	3.8	7.45e-01	0	42	104	0	78	9926
2026-01-29 23:17:29.16	234.04	12.27	-53.4	-62.2	3.8	7.45e-01	0	42	104	0	78	9903
2026-01-29 23:17:30.17	233.95	12.16	-53.4	-62.2	3.8	7.45e-01	0	42	104	0	78	9864
2026-01-29 23:17:31.17	233.86	12.05	-53.4	-62.2	3.8	7.44e-01	0	42	104	0	78	9882
2026-01-29 23:17:32.18	233.77	11.93	-53.3	-62.2	3.8	7.45e-01	0	42	104	0	78	9893
2026-01-29 23:17:33.19	233.68	11.82	-53.4	-62.2	3.8	7.45e-01	0	42	104	0	78	9877
2026-01-29 23:17:34.19	233.59	11.71	-53.4	-62.2	3.8	7.46e-01	0	42	104	0	78	9901
2026-01-29 23:17:35.19	233.50	11.60	-53.3	-62.1	3.8	7.45e-01	0	42	104	0	78	9823
2026-01-29 23:17:36.19	233.41	11.49	-53.3	-62.1	3.8	7.44e-01	0	42	104	0	78	9805
2026-01-29 23:17:37.20	233.33	11.38	-53.3	-62.2	3.8	7.46e-01	0	42	104	0	78	9852
2026-01-29 23:17:38.21	233.24	11.27	-53.3	-62.2	3.8	7.45e-01	0	42	104	0	78	9866
2026-01-29 23:17:39.21	233.16	11.16	-53.3	-62.1	3.8	7.44e-01	0	42	104	0	78	9756
2026-01-29 23:17:40.22	233.07	11.06	-53.3	-62.1	3.8	7.46e-01	0	42	104	0	78	9772
2026-01-29 23:17:41.23	232.99	10.95	-53.3	-62.2	3.8	7.44e-01	0	42	104	0	78	9837
2026-01-29 23:17:42.24	232.90	10.84	-53.3	-62.1	3.8	7.44e-01	0	42	104	0	78	9786
2026-01-29 23:17:43.25	232.82	10.74	-53.2	-62.1	3.8	7.45e-01	0	42	104	0	78	9757
2026-01-29 23:17:44.26	232.74	10.63	-53.2	-62.0	3.8	7.46e-01	0	42	104	0	78	9705
2026-01-29 23:17:45.27	232.66	10.52	-53.3	-62.1	3.8	7.45e-01	0	42	104	0	78	9733
2026-01-29 23:17:46.27	232.58	10.42	-53.2	-62.1	3.8	7.45e-01	0	42	104	0	78	9732
2026-01-29 23:17:47.28	232.50	10.32	-53.2	-62.0	3.8	7.46e-01	0	42	104	0	78	9675
2026-01-29 23:17:48.29	232.42	10.21	-53.2	-62.0	3.8	7.45e-01	0	42	104	0	78	9682
2026-01-29 23:17:49.30	232.34	10.11	-53.2	-62.0	3.8	7.46e-01	0	42	104	0	78	9714
2026-01-29 23:17:50.31	232.27	10.01	-53.2	-62.0	3.8	7.46e-01	0	42	104	0	78	9702
2026-01-29 23:17:51.31	232.19	9.91	-53.1	-62.0	3.8	7.46e-01	0	42	104	0	78	9609
2026-01-29 23:17:52.32	232.11	9.80	-53.1	-61.9	3.8	7.47e-01	0	42	104	0	78	9577
2026-01-29 23:17:53.33	232.04	9.70	-53.2	-62.0	3.8	7.43e-01	0	42	104	0	78	9656
2026-01-29 23:17:54.33	231.96	9.60	-53.1	-62.0	3.8	7.45e-01	0	42	104	0	78	9618
2026-01-29 23:17:55.34	231.89	9.50	-53.1	-61.9	3.8	7.45e-01	0	42	104	0	78	9598
2026-01-29 23:17:56.34	231.82	9.40	-53.1	-61.9	3.8	7.45e-01	0	42	104	0	78	9569
2026-01-29 23:17:57.35	231.75	9.31	-53.1	-62.0	3.8	7.45e-01	0	42	104	0	78	9625
2026-01-29 23:17:58.36	231.67	9.21	-53.1	-61.9	3.8	7.45e-01	0	42	104	0	78	9575
2026-01-29 23:17:59.37	231.60	9.11	-53.0	-61.9	3.8	7.45e-01	0	42	104	0	78	9529
2026-01-29 23:18:00.38	231.53	9.01	-53.1	-61.9	3.8	7.46e-01	0	42	104	0	78	9533
2026-01-29 23:18:01.38	231.46	8.92	-53.1	-61.9	3.8	7.45e-01	0	42	104	0	78	9563
2026-01-29 23:18:02.39	231.39	8.82	-53.0	-61.9	3.8	7.45e-01	0	42	104	0	78	9568
2026-01-29 23:18:03.40	231.32	8.72	-53.0	-61.8	3.8	7.45e-01	0	42	104	0	78	9482
2026-01-29 23:18:04.40	231.26	8.63	-53.0	-61.9	3.8	7.47e-01	0	42	104	0	78	9528
2026-01-29 23:18:05.41	231.19	8.53	-53.1	-61.9	3.8	7.46e-01	0	42	104	0	78	9525
2026-01-29 23:18:06.42	231.12	8.44	-53.0	-61.8	3.8	7.45e-01	0	42	104	0	78	9491
2026-01-29 23:18:07.43	231.05	8.34	-53.0	-61.8	3.8	7.44e-01	0	42	104	0	78	9455
2026-01-29 23:18:08.43	230.99	8.25	-53.0	-61.8	3.8	7.44e-01	0	42	104	0	77	10000
2026-01-29 23:18:09.44	230.92	8.16	-53.0	-61.8	3.8	7.45e-01	0	42	104	0	77	10035
2026-01-29 23:18:10.45	230.86	8.06	-52.9	-61.8	3.8	7.46e-01	0	42	104	0	77	9963
2026-01-29 23:18:11.45	230.79	7.97	-52.9	-61.7	3.8	7.46e-01	0	42	104	0	77	9932
2026-01-29 23:18:12.46	230.73	7.88	-52.9	-61.8	3.8	7.47e-01	0	42	104	0	77	9981
2026-01-29 23:18:13.47	230.67	7.79	-52.9	-61.8	3.8	7.45e-01	0	42	104	0	77	9956
2026-01-29 23:18:14.48	230.60	7.70	-52.9	-61.7	3.8	7.46e-01	0	42	104	0	77	9928
2026-01-29 23:18:15.48	230.54	7.61	-52.8	-61.7	3.8	7.46e-01	0	42	104	0	77	9860
2026-01-29 23:18:16.49	230.48	7.52	-52.9	-61.7	3.8	7.45e-01	0	42	104	0	77	9876
2026-01-29 23:18:17.50	230.42	7.42	-52.9	-61.7	3.8	7.45e-01	0	42	104	0	77	9925
2026-01-29 23:18:18.51	230.36	7.34	-52.8	-61.7	3.8	7.46e-01	0	42	104	0	77	9865
2026-01-29 23:18:19.51	230.30	7.25	-52.8	-61.6	3.8	7.45e-01	0	42	104	0	77	9806
2026-01-29 23:18:20.52	230.24	7.16	-52.8	-61.7	3.8	7.45e-01	0	42	104	0	77	9859
2026-01-29 23:18:21.52	230.18	7.07	-52.9	-61.7	3.8	7.45e-01	0	42	104	0	77	9898
2026-01-29 23:18:22.53	230.12	6.98	-52.8	-61.6	3.8	7.47e-01	0	42	104	0	77	9808
2026-01-29 23:18:23.54	230.06	6.89	-52.7	-61.6	3.8	7.47e-01	0	42	104	0	77	9775
2026-01-29 23:18:24.55	230.00	6.81	-52.8	-61.6	3.8	7.45e-01	0	42	104	0	77	9830
2026-01-29 23:18:25.55	229.95	6.72	-52.8	-61.6	3.8	7.46e-01	0	42	104	0	77	9816
2026-01-29 23:18:26.56	229.89	6.63	-52.7	-61.6	3.8	7.45e-01	0	42	104	0	77	9726
2026-01-29 23:18:27.57	229.83	6.55	-52.7	-61.5	3.8	7.45e-01	0	42	104	0	77	9667
2026-01-29 23:18:28.58	229.78	6.46	-52.7	-61.6	3.8	7.47e-01	0	42	104	0	77	9764
2026-01-29 23:18:29.59	229.72	6.38	-52.8	-61.6	3.8	7.45e-01	0	42	104	0	77	9768
2026-01-29 23:18:30.60	229.67	6.29	-52.7	-61.5	3.8	7.44e-01	0	42	104	0	77	9616
2026-01-29 23:18:31.61	229.61	6.21	-52.6	-61.5	3.8	7.44e-01	0	42	104	0	77	9629
2026-01-29 23:18:32.61	229.56	6.12	-52.7	-61.5	3.8	7.45e-01	0	42	104	0	77	9696
2026-01-29 23:18:33.62	229.50	6.04	-52.7	-61.6	3.8	7.45e-01	0	42	104	0	77	9727
2026-01-29 23:18:34.62	229.45	5.95	-52.6	-61.5	3.8	7.45e-01	0	42	104	0	77	9624
2026-01-29 23:18:35.63	229.40	5.87	-52.5	-61.4	3.8	7.45e-01	0	42	104	0	77	9564
2026-01-29 23:18:36.64	229.34	5.79	-52.7	-61.5	3.8	7.44e-01	0	42	104	0	77	9663
2026-01-29 23:18:37.64	229.29	5.71	-52.7	-61.5	3.8	7.46e-01	0	42	104	0	77	9667
2026-01-29 23:18:38.65	229.24	5.62	-52.5	-61.4	3.8	7.45e-01	0	42	104	0	77	9531
2026-01-29 23:18:39.65	229.19	5.54	-52.5	-61.3	3.8	7.47e-01	0	42	104	0	77	9441
2026-01-29 23:18:40.66	229.14	5.46	-52.7	-61.5	3.8	7.46e-01	0	42	104	0	77	9660
2026-01-29 23:18:41.67	229.09	5.38	-52.6	-61.5	3.8	7.44e-01	0	42	104	0	77	9657
2026-01-29 23:18:42.68	229.04	5.30	-52.5	-61.3	3.8	7.47e-01	0	42	104	0	77	9482
2026-01-29 23:18:43.68	228.99	5.22	-52.4	-61.3	3.8	7.47e-01	0	42	104	0	76	9996
2026-01-29 23:18:44.69	228.94	5.14	-52.6	-61.4	3.8	7.44e-01	0	42	104	0	76	10087
2026-01-29 23:18:45.70	228.89	5.06	-52.6	-61.4	3.8	7.46e-01	0	42	104	0	76	10093
2026-01-29 23:18:46.70	228.84	4.98	-52.7	-61.5	3.8	7.45e-01	0	42	104	0	76	10245
2026-01-29 23:18:47.71	228.79	4.90	-53.2	-62.0	3.8	7.45e-01	0	42	104	0	76	10862
2026-01-29 23:18:48.72	228.74	4.82	-53.5	-62.3	3.8	7.45e-01	0	42	104	0	77	10652
2026-01-29 23:18:49.73	228.70	4.74	-53.7	-62.6	3.8	7.45e-01	0	42	104	0	78	10314
2026-01-29 23:18:50.73	228.65	4.66	-53.9	-62.7	3.8	7.46e-01	0	42	104	0	78	10520
2026-01-29 23:18:51.74	228.60	4.58	-54.0	-62.9	3.8	7.44e-01	0	42	104	0	78	10695
2026-01-29 23:18:52.75	228.55	4.50	-54.1	-63.0	3.8	7.45e-01	0	42	104	0	78	10821
2026-01-29 23:18:53.76	228.51	4.43	-54.2	-63.1	3.8	7.46e-01	0	42	104	0	78	10924
2026-01-29 23:18:54.77	228.46	4.35	-54.3	-63.1	3.8	7.45e-01	0	42	104	0	79	10394
2026-01-29 23:18:55.77	228.42	4.27	-54.3	-63.2	3.8	7.45e-01	0	42	104	0	79	10420
2026-01-29 23:18:56.77	228.37	4.19	-54.3	-63.2	3.8	7.45e-01	0	42	104	0	79	10434
2026-01-29 23:18:57.79	228.33	4.12	-54.3	-63.2	3.8	7.45e-01	0	42	104	0	79	10470
2026-01-29 23:18:58.80	228.28	4.04	-54.3	-63.2	3.8	7.46e-01	0	42	104	0	79	10460
2026-01-29 23:18:59.80	228.24	3.97	-54.3	-63.2	3.8	7.47e-01	0	42	104	0	79	10462
2026-01-29 23:19:00.81	228.19	3.89	-54.3	-63.2	3.8	7.46e-01	0	42	104	0	79	10428
2026-01-29 23:19:01.82	228.15	3.81	-54.3	-63.1	3.8	7.46e-01	0	42	104	0	79	10383
2026-01-29 23:19:02.83	228.10	3.74	-54.3	-63.1	3.8	7.44e-01	0	42	104	0	79	10358
2026-01-29 23:19:03.83	228.06	3.66	-54.1	-63.0	3.8	7.46e-01	0	42	104	0	79	10244
2026-01-29 23:19:04.84	228.02	3.59	-54.0	-62.8	3.8	7.45e-01	0	42	104	0	79	10015
2026-01-29 23:19:05.85	227.98	3.51	-54.0	-62.8	3.8	7.46e-01	0	42	104	0	79	10051
2026-01-29 23:19:06.85	227.93	3.44	-54.0	-62.9	3.8	7.46e-01	0	42	104	0	79	10068
2026-01-29 23:19:07.86	227.89	3.37	-54.0	-62.9	3.8	7.45e-01	0	42	104	0	79	10117
2026-01-29 23:19:08.87	227.85	3.29	-54.1	-62.9	3.8	7.46e-01	0	42	104	0	79	10109
2026-01-29 23:19:09.87	227.81	3.22	-54.0	-62.9	3.8	7.46e-01	0	42	104	0	79	10070
2026-01-29 23:19:10.88	227.77	3.15	-54.0	-62.8	3.8	7.44e-01	0	42	104	0	79	10041
2026-01-29 23:19:11.89	227.73	3.07	-54.0	-62.8	3.8	7.46e-01	0	42	104	0	79	10020
2026-01-29 23:19:12.90	227.69	3.00	-54.0	-62.8	3.8	7.46e-01	0	42	104	0	79	10044
2026-01-29 23:19:13.91	227.65	2.93	-54.0	-62.8	3.8	7.45e-01	0	42	104	0	79	10024
2026-01-29 23:19:14.91	227.61	2.86	-54.0	-62.8	3.8	7.45e-01	0	42	104	0	79	10027
2026-01-29 23:19:15.92	227.57	2.78	-54.0	-62.8	3.8	7.45e-01	0	42	104	0	79	9976
2026-01-29 23:19:16.93	227.53	2.71	-53.9	-62.8	3.8	7.46e-01	0	42	104	0	79	9997
2026-01-29 23:19:17.94	227.49	2.64	-53.9	-62.8	3.8	7.45e-01	0	42	104	0	79	9975
2026-01-29 23:19:18.95	227.45	2.57	-53.9	-62.7	3.8	7.46e-01	0	42	104	0	79	9943
2026-01-29 23:19:19.95	227.41	2.50	-53.9	-62.7	3.8	7.45e-01	0	42	104	0	79	9920
2026-01-29 23:19:20.96	227.37	2.43	-53.9	-62.8	3.8	7.46e-01	0	42	104	0	79	9955
2026-01-29 23:19:21.97	227.33	2.36	-53.9	-62.8	3.8	7.44e-01	0	42	104	0	79	10006
2026-01-29 23:19:22.98	227.30	2.29	-53.9	-62.8	3.8	7.44e-01	0	42	104	0	79	9945
2026-01-29 23:19:23.99	227.26	2.21	-53.9	-62.7	3.8	7.44e-01	0	42	104	0	79	9917
2026-01-29 23:19:25.00	227.22	2.14	-53.9	-62.8	3.8	7.44e-01	0	42	104	0	79	9957
2026-01-29 23:19:26.00	227.18	2.08	-53.9	-62.7	3.8	7.46e-01	0	42	104	0	79	9939
2026-01-29 23:19:27.01	227.15	2.01	-53.9	-62.7	3.8	7.44e-01	0	42	104	0	79	9918

#Closed at: 2026-01-29 23:19:27
#Recorded file [0 MB]: D:/lorett/data/31041_260130_020913.dat