passes_logs/2026/01/29/R3.2S_Murmansk/R3.2S_Murmansk__20260129_060558_FENGYUN_3D_rec.log

#Pass ID: 20260129_060558_FENGYUN 3D
#Satellite: FENGYUN 3D
#Configuration: FENGYUN 3D
#almurnet v.1.7.20251203
#Start time: 2026-01-29 06:06:00

#Version: 2.2.20231116
#Station: R3.2S_Murmansk
#Location: 33.079688 lon 68.888172 lat
#TLE: 1 43010U 17072A   26027.97130493  .00000326  00000+0  17586-3 0  9998
#TLE: 2 43010  98.9960 359.9900 0002514  87.8428 272.3036 14.19701925425097

#Time	Az	El	Level	Level2	SNR	BER	BlckErr	Temp	State	Recorded	gain1	gain2
2026-01-29 06:06:00.36	47.66	2.13	-54.0	-66.0	3.8	8.45e-01	0	40	0	0	79	14382
2026-01-29 06:06:01.36	47.60	2.18	-53.9	-65.9	3.8	8.47e-01	0	40	104	0	78	15160
2026-01-29 06:06:02.37	47.54	2.24	-53.9	-65.9	3.8	8.46e-01	0	40	104	0	78	15111
2026-01-29 06:06:03.37	47.48	2.30	-53.9	-65.9	3.8	8.47e-01	0	40	104	0	78	15106
2026-01-29 06:06:04.38	47.42	2.36	-53.9	-65.9	3.8	8.45e-01	0	40	104	0	78	15069
2026-01-29 06:06:05.39	47.36	2.42	-53.9	-65.8	3.8	8.46e-01	0	40	104	0	78	15049
2026-01-29 06:06:06.40	47.30	2.48	-54.0	-65.9	3.8	8.46e-01	0	40	104	0	78	15188
2026-01-29 06:06:07.41	47.24	2.54	-54.1	-66.1	3.8	8.47e-01	0	40	104	0	78	15505
2026-01-29 06:06:08.42	47.18	2.60	-54.2	-66.2	3.8	8.47e-01	0	40	104	0	78	15597
2026-01-29 06:06:09.42	47.12	2.66	-54.2	-66.2	3.8	8.47e-01	0	40	104	0	79	14786
2026-01-29 06:06:10.43	47.06	2.72	-54.2	-66.2	3.8	8.46e-01	0	40	104	0	79	14809
2026-01-29 06:06:11.44	47.00	2.78	-54.2	-66.2	3.8	8.46e-01	0	40	104	0	79	14785
2026-01-29 06:06:12.45	46.94	2.84	-54.2	-66.1	3.8	8.47e-01	0	40	104	0	79	14696
2026-01-29 06:06:13.45	46.87	2.89	-54.1	-66.1	3.8	8.47e-01	0	40	104	0	79	14647
2026-01-29 06:06:14.46	46.81	2.95	-54.1	-66.1	3.8	8.46e-01	0	40	104	0	79	14574
2026-01-29 06:06:15.47	46.75	3.01	-54.1	-66.0	3.8	8.47e-01	0	41	104	0	79	14484
2026-01-29 06:06:16.48	46.69	3.07	-54.0	-65.9	3.8	8.47e-01	0	41	104	0	79	14365
2026-01-29 06:06:17.49	46.62	3.13	-53.8	-65.9	3.8	8.45e-01	0	40	104	0	79	14361
2026-01-29 06:06:18.50	46.56	3.20	-54.0	-65.9	3.8	8.46e-01	0	41	104	0	78	15152
2026-01-29 06:06:19.51	46.50	3.26	-54.0	-65.9	3.8	8.47e-01	0	40	104	0	78	15143
2026-01-29 06:06:20.51	46.43	3.32	-53.9	-65.8	3.8	8.47e-01	0	41	104	0	78	15022
2026-01-29 06:06:21.52	46.37	3.38	-53.8	-65.7	3.8	8.46e-01	0	40	104	0	78	14856
2026-01-29 06:06:22.53	46.30	3.44	-53.7	-65.6	3.8	8.46e-01	0	40	104	0	78	14639
2026-01-29 06:06:23.53	46.24	3.50	-53.6	-65.5	3.8	8.45e-01	0	41	104	0	78	14456
2026-01-29 06:06:24.54	46.17	3.56	-53.4	-65.3	3.8	8.46e-01	0	41	104	0	78	14200
2026-01-29 06:06:25.55	46.11	3.62	-53.2	-65.2	3.8	8.46e-01	0	41	104	0	78	13918
2026-01-29 06:06:26.56	46.04	3.68	-53.0	-64.8	3.8	8.47e-01	0	40	104	0	78	13361
2026-01-29 06:06:27.57	45.98	3.74	-52.7	-64.5	3.8	8.45e-01	0	41	104	0	77	13716
2026-01-29 06:06:28.57	45.91	3.80	-52.2	-63.7	3.8	8.46e-01	0	41	104	0	76	13113
2026-01-29 06:06:29.58	45.84	3.86	-51.8	-63.6	3.8	8.47e-01	0	41	104	0	75	13868
2026-01-29 06:06:30.59	45.78	3.93	-51.8	-63.7	3.8	8.46e-01	0	41	104	0	75	13951
2026-01-29 06:06:31.60	45.71	3.99	-51.8	-63.4	3.8	8.46e-01	0	41	104	0	75	13477
2026-01-29 06:06:32.60	45.64	4.05	-51.7	-62.6	3.8	8.47e-01	0	41	104	0	75	12336
2026-01-29 06:06:33.61	45.58	4.11	-51.5	-61.0	4.0	8.46e-01	0	41	104	0	75	10213
2026-01-29 06:06:34.62	45.51	4.17	-51.3	-59.5	4.4	8.31e-01	0	41	0	0	74	9093
2026-01-29 06:06:35.63	45.44	4.23	-51.0	-58.0	5.1	7.91e-01	0	41	0	0	74	7682
2026-01-29 06:06:36.64	45.37	4.30	-50.8	-56.9	5.8	5.83e-01	0	41	0	1048576	73	7188
2026-01-29 06:06:37.64	45.30	4.36	-50.5	-56.0	6.5	2.84e-01	0	41	0	6291456	73	6427
2026-01-29 06:06:38.65	45.23	4.42	-50.4	-55.6	6.9	1.72e-01	0	41	0	12582912	72	6544
2026-01-29 06:06:39.66	45.16	4.48	-50.3	-55.4	7.0	1.77e-01	0	41	0	17825792	72	6401
2026-01-29 06:06:40.67	45.09	4.55	-50.5	-56.2	6.3	2.64e-01	0	41	0	24117248	72	7009
2026-01-29 06:06:41.67	45.02	4.61	-50.7	-56.8	5.8	3.55e-01	0	41	0	29360128	72	7513
2026-01-29 06:06:42.68	44.95	4.67	-50.8	-57.2	5.6	5.33e-01	0	41	0	34603008	72	7880
2026-01-29 06:06:43.69	44.88	4.73	-50.7	-56.9	5.8	6.15e-01	0	41	0	37748736	72	7579
2026-01-29 06:06:44.70	44.81	4.80	-50.3	-55.5	6.9	3.01e-01	0	41	0	44040192	72	6452
2026-01-29 06:06:45.71	44.74	4.86	-49.9	-54.3	8.2	1.02e-01	0	41	0	49283072	71	5933
2026-01-29 06:06:46.72	44.67	4.92	-49.3	-53.0	9.5	3.69e-02	0	41	0	54525952	70	5422
2026-01-29 06:06:47.73	44.60	4.99	-48.7	-51.8	10.7	5.47e-03	0	41	0	60817408	69	4986
2026-01-29 06:06:48.74	44.52	5.05	-48.6	-51.5	11.3	1.60e-04	0	41	0	66060288	67	5459
2026-01-29 06:06:49.74	44.45	5.11	-46.0	-47.6	15.1	1.99e-04	0	41	0	72351744	64	4125
2026-01-29 06:06:50.75	44.38	5.18	-51.5	-61.4	4.0	7.32e-04	0	41	0	77594624	73	12015
2026-01-29 06:06:51.76	44.31	5.24	-49.6	-53.4	9.3	3.40e-01	0	41	104	77594624	70	5657
2026-01-29 06:06:52.77	44.23	5.30	-43.1	-44.1	18.9	1.20e-04	0	41	0	82837504	58	3908
2026-01-29 06:06:53.78	44.16	5.37	-43.3	-44.4	18.7	0.00e+00	0	41	0	88080384	58	4037
2026-01-29 06:06:54.79	44.08	5.43	-43.1	-44.1	19.0	0.00e+00	0	41	0	93323264	58	3902
2026-01-29 06:06:55.80	44.01	5.50	-43.4	-44.5	18.7	0.00e+00	0	41	0	99614720	58	4077
2026-01-29 06:06:56.81	43.93	5.56	-43.2	-44.3	18.9	0.00e+00	0	41	0	104857600	58	3986
2026-01-29 06:06:57.82	43.86	5.62	-43.3	-44.5	18.7	0.00e+00	0	41	0	110100480	58	4059
2026-01-29 06:06:58.83	43.78	5.69	-43.1	-44.3	18.9	0.00e+00	0	41	0	116391936	58	3965
2026-01-29 06:06:59.84	43.70	5.75	-43.1	-44.2	19.1	0.00e+00	0	41	0	121634816	58	3916
2026-01-29 06:07:00.85	43.63	5.82	-43.0	-44.0	19.2	0.00e+00	0	41	0	126877696	57	4092
2026-01-29 06:07:01.85	43.55	5.88	-43.0	-44.1	19.1	0.00e+00	0	41	0	133169152	57	4118
2026-01-29 06:07:02.86	43.47	5.95	-43.1	-44.1	19.1	0.00e+00	0	41	0	139460608	57	4144
2026-01-29 06:07:03.87	43.40	6.01	-43.0	-44.0	19.2	0.00e+00	0	41	0	144703488	57	4098
2026-01-29 06:07:04.88	43.32	6.08	-43.1	-44.2	19.1	0.00e+00	0	41	0	149946368	57	4191
2026-01-29 06:07:05.88	43.24	6.14	-43.0	-44.1	19.2	0.00e+00	0	41	0	156237824	57	4114
2026-01-29 06:07:06.89	43.16	6.21	-42.8	-43.9	19.4	0.00e+00	0	41	0	161480704	57	4015
2026-01-29 06:07:07.90	43.08	6.27	-42.9	-44.0	19.3	0.00e+00	0	41	0	167772160	57	4068
2026-01-29 06:07:08.91	43.00	6.34	-42.8	-43.9	19.5	0.00e+00	0	41	0	173015040	57	4015
2026-01-29 06:07:09.91	42.92	6.40	-43.1	-44.2	19.1	0.00e+00	0	41	0	178257920	57	4190
2026-01-29 06:07:10.92	42.84	6.47	-43.2	-44.3	19.1	0.00e+00	0	41	0	184549376	57	4221
2026-01-29 06:07:11.93	42.76	6.54	-43.1	-44.2	19.2	0.00e+00	0	41	0	189792256	57	4156
2026-01-29 06:07:12.93	42.68	6.60	-43.0	-44.0	19.3	0.00e+00	0	41	0	195035136	57	4096
2026-01-29 06:07:13.94	42.60	6.67	-42.9	-44.0	19.4	0.00e+00	0	41	0	201326592	57	4066
2026-01-29 06:07:14.95	42.52	6.73	-43.0	-44.1	19.4	0.00e+00	0	41	0	206569472	57	4099
2026-01-29 06:07:15.96	42.44	6.80	-43.0	-44.1	19.3	0.00e+00	0	41	0	211812352	57	4115
2026-01-29 06:07:16.96	42.36	6.87	-43.2	-44.3	19.1	0.00e+00	0	41	0	218103808	57	4207
2026-01-29 06:07:17.97	42.27	6.93	-42.9	-44.0	19.4	0.00e+00	0	41	0	224395264	57	4057
2026-01-29 06:07:18.98	42.19	7.00	-42.9	-44.0	19.4	0.00e+00	0	41	0	229638144	57	4061
2026-01-29 06:07:19.99	42.11	7.07	-42.9	-44.0	19.5	0.00e+00	0	41	0	234881024	57	4066
2026-01-29 06:07:21.00	42.02	7.13	-42.9	-44.0	19.4	0.00e+00	0	41	0	241172480	57	4079
2026-01-29 06:07:22.01	41.94	7.20	-42.9	-43.9	19.5	0.00e+00	0	41	0	246415360	57	4038
2026-01-29 06:07:23.01	41.85	7.27	-42.8	-43.9	19.6	0.00e+00	0	41	0	252706816	57	4021
2026-01-29 06:07:24.02	41.77	7.33	-42.7	-43.7	19.8	0.00e+00	0	41	0	257949696	57	3947
2026-01-29 06:07:25.03	41.68	7.40	-42.5	-43.5	20.0	0.00e+00	0	41	0	263192576	57	3836
2026-01-29 06:07:26.04	41.60	7.47	-42.5	-43.5	19.9	0.00e+00	0	41	0	269484032	56	4083
2026-01-29 06:07:27.05	41.51	7.54	-42.5	-43.5	20.0	0.00e+00	0	41	0	274726912	56	4082
2026-01-29 06:07:28.05	41.42	7.60	-42.5	-43.5	20.0	0.00e+00	0	41	0	279969792	56	4055
2026-01-29 06:07:29.06	41.34	7.67	-42.5	-43.5	20.0	0.00e+00	0	42	0	286261248	56	4083
2026-01-29 06:07:30.07	41.25	7.74	-42.5	-43.5	20.0	0.00e+00	0	41	0	292552704	56	4079
2026-01-29 06:07:31.08	41.16	7.81	-42.5	-43.5	20.0	0.00e+00	0	41	0	297795584	56	4074
2026-01-29 06:07:32.09	41.07	7.88	-42.3	-43.3	20.2	0.00e+00	0	41	0	303038464	56	3996
2026-01-29 06:07:33.09	40.98	7.94	-42.4	-43.4	20.2	0.00e+00	0	41	0	309329920	56	4009
2026-01-29 06:07:34.10	40.89	8.01	-42.4	-43.4	20.1	0.00e+00	0	42	0	314572800	56	4037
2026-01-29 06:07:35.11	40.80	8.08	-42.4	-43.4	20.2	0.00e+00	0	41	0	319815680	56	4029
2026-01-29 06:07:36.11	40.71	8.15	-42.5	-43.5	20.1	0.00e+00	0	41	0	326107136	56	4061
2026-01-29 06:07:37.12	40.62	8.22	-42.5	-43.5	20.0	0.00e+00	0	42	0	331350016	56	4087
2026-01-29 06:07:38.13	40.53	8.29	-42.5	-43.5	20.0	0.00e+00	0	41	0	337641472	56	4074
2026-01-29 06:07:39.14	40.44	8.36	-42.3	-43.3	20.3	0.00e+00	0	41	0	342884352	56	3961
2026-01-29 06:07:40.15	40.35	8.42	-42.3	-43.3	20.3	0.00e+00	0	42	0	348127232	56	3960
2026-01-29 06:07:41.15	40.25	8.49	-42.2	-43.2	20.4	0.00e+00	0	41	0	354418688	56	3940
2026-01-29 06:07:42.16	40.16	8.56	-42.3	-43.3	20.4	0.00e+00	0	41	0	360710144	56	3960
2026-01-29 06:07:43.17	40.07	8.63	-42.3	-43.3	20.3	0.00e+00	0	42	0	365953024	56	3994
2026-01-29 06:07:44.18	39.97	8.70	-42.4	-43.4	20.2	0.00e+00	0	41	0	371195904	56	4011
2026-01-29 06:07:45.19	39.88	8.77	-42.2	-43.2	20.4	0.00e+00	0	42	0	377487360	56	3914
2026-01-29 06:07:46.20	39.78	8.84	-42.4	-43.3	20.3	0.00e+00	0	42	0	382730240	56	4000
2026-01-29 06:07:47.21	39.69	8.91	-42.1	-43.1	20.5	0.00e+00	0	41	0	387973120	56	3889
2026-01-29 06:07:48.22	39.59	8.98	-42.1	-43.1	20.5	0.00e+00	0	42	0	394264576	56	3881
2026-01-29 06:07:49.23	39.50	9.05	-42.1	-43.0	20.6	0.00e+00	0	42	0	399507456	56	3855
2026-01-29 06:07:50.23	39.40	9.12	-42.1	-43.1	20.5	0.00e+00	0	41	0	404750336	56	3897
2026-01-29 06:07:51.24	39.30	9.19	-42.1	-43.1	20.6	0.00e+00	0	42	0	411041792	56	3880
2026-01-29 06:07:52.25	39.20	9.26	-42.3	-43.2	20.4	0.00e+00	0	41	0	416284672	56	3955
2026-01-29 06:07:53.26	39.11	9.33	-42.0	-43.0	20.7	0.00e+00	0	41	0	422576128	56	3831
2026-01-29 06:07:54.26	39.01	9.40	-41.9	-42.8	20.8	0.00e+00	0	42	0	427819008	55	3977
2026-01-29 06:07:55.27	38.91	9.47	-41.9	-42.8	20.7	0.00e+00	0	41	0	434110464	55	3978
2026-01-29 06:07:56.28	38.81	9.55	-41.9	-42.8	20.8	0.00e+00	0	42	0	439353344	55	3973
2026-01-29 06:07:57.29	38.71	9.62	-41.7	-42.6	20.9	0.00e+00	0	41	0	445644800	55	3892
2026-01-29 06:07:58.30	38.61	9.69	-41.9	-42.8	20.8	0.00e+00	0	42	0	450887680	55	3979
2026-01-29 06:07:59.31	38.50	9.76	-41.8	-42.7	20.9	0.00e+00	0	42	0	456130560	55	3945
2026-01-29 06:08:00.31	38.40	9.83	-41.8	-42.7	20.9	0.00e+00	0	42	0	462422016	55	3925
2026-01-29 06:08:01.33	38.30	9.90	-41.7	-42.6	21.0	0.00e+00	0	42	0	467664896	55	3904
2026-01-29 06:08:02.33	38.20	9.97	-41.7	-42.6	20.9	0.00e+00	0	41	0	472907776	55	3904
2026-01-29 06:08:03.34	38.09	10.05	-41.6	-42.4	21.1	0.00e+00	0	42	0	479199232	55	3824
2026-01-29 06:08:04.35	37.99	10.12	-41.6	-42.5	21.0	0.00e+00	0	42	0	484442112	55	3865
2026-01-29 06:08:05.35	37.89	10.19	-41.6	-42.5	21.1	0.00e+00	0	42	0	489684992	55	3861
2026-01-29 06:08:06.36	37.78	10.26	-41.8	-42.7	20.9	0.00e+00	0	42	0	495976448	55	3921
2026-01-29 06:08:07.37	37.68	10.33	-41.8	-42.7	20.9	0.00e+00	0	42	0	502267904	55	3942
2026-01-29 06:08:08.39	37.57	10.41	-41.8	-42.7	20.9	0.00e+00	0	42	0	507510784	55	3924
2026-01-29 06:08:09.39	37.46	10.48	-41.8	-42.7	20.9	0.00e+00	0	42	0	512753664	55	3946
2026-01-29 06:08:10.40	37.36	10.55	-41.8	-42.7	20.9	0.00e+00	0	42	0	519045120	55	3921
2026-01-29 06:08:11.41	37.25	10.62	-41.6	-42.5	21.1	0.00e+00	0	42	0	524288000	55	3835
2026-01-29 06:08:12.41	37.14	10.70	-41.8	-42.7	20.9	0.00e+00	0	42	0	530579456	55	3926
2026-01-29 06:08:13.43	37.03	10.77	-41.7	-42.6	21.0	0.00e+00	0	42	0	535822336	55	3903
2026-01-29 06:08:14.43	36.92	10.84	-41.6	-42.5	21.2	0.00e+00	0	42	0	541065216	55	3828
2026-01-29 06:08:15.44	36.81	10.92	-41.6	-42.5	21.1	0.00e+00	0	42	0	547356672	55	3841
2026-01-29 06:08:16.45	36.70	10.99	-41.7	-42.7	21.0	0.00e+00	0	42	0	552599552	55	3917
2026-01-29 06:08:17.46	36.59	11.06	-41.6	-42.5	21.1	0.00e+00	0	42	0	557842432	55	3867
2026-01-29 06:08:18.47	36.48	11.14	-41.6	-42.5	21.2	0.00e+00	0	42	0	564133888	55	3850
2026-01-29 06:08:19.47	36.37	11.21	-41.6	-42.5	21.1	0.00e+00	0	42	0	570425344	55	3864
2026-01-29 06:08:20.48	36.25	11.28	-41.6	-42.5	21.2	0.00e+00	0	42	0	575668224	55	3837
2026-01-29 06:08:21.49	36.14	11.36	-41.7	-42.6	21.1	0.00e+00	0	42	0	580911104	55	3884
2026-01-29 06:08:22.50	36.03	11.43	-41.6	-42.5	21.1	0.00e+00	0	42	0	587202560	55	3844
2026-01-29 06:08:23.51	35.91	11.50	-41.6	-42.5	21.1	0.00e+00	0	42	0	592445440	55	3866
2026-01-29 06:08:24.52	35.80	11.58	-41.6	-42.5	21.1	0.00e+00	0	42	0	597688320	55	3828
2026-01-29 06:08:25.52	35.68	11.65	-41.6	-42.5	21.0	0.00e+00	0	42	0	603979776	55	3851
2026-01-29 06:08:26.53	35.56	11.73	-41.8	-42.7	20.8	0.00e+00	0	42	0	609222656	55	3956
2026-01-29 06:08:27.54	35.45	11.80	-41.5	-42.4	21.0	0.00e+00	0	42	0	615514112	55	3816
2026-01-29 06:08:28.55	35.33	11.88	-41.5	-42.4	21.0	0.00e+00	0	42	0	620756992	55	3818
2026-01-29 06:08:29.56	35.21	11.95	-41.5	-42.3	21.1	0.00e+00	0	42	0	625999872	54	4001
2026-01-29 06:08:30.57	35.09	12.03	-41.4	-42.3	21.1	0.00e+00	0	42	0	632291328	54	3986
2026-01-29 06:08:31.57	34.97	12.10	-41.4	-42.3	21.2	0.00e+00	0	42	0	638582784	54	3977
2026-01-29 06:08:32.58	34.85	12.17	-41.4	-42.3	21.2	0.00e+00	0	42	0	643825664	54	3977
2026-01-29 06:08:33.58	34.73	12.25	-41.3	-42.2	21.3	0.00e+00	0	42	0	649068544	54	3946
2026-01-29 06:08:34.59	34.61	12.32	-41.5	-42.4	21.2	0.00e+00	0	42	0	655360000	54	4005
2026-01-29 06:08:35.59	34.49	12.40	-41.4	-42.3	21.3	0.00e+00	0	42	0	660602880	54	3962
2026-01-29 06:08:36.60	34.37	12.47	-41.5	-42.4	21.1	0.00e+00	0	42	0	665845760	54	4040
2026-01-29 06:08:37.61	34.24	12.55	-41.4	-42.3	21.2	0.00e+00	0	42	0	672137216	54	3980
2026-01-29 06:08:38.62	34.12	12.63	-41.3	-42.2	21.4	0.00e+00	0	42	0	677380096	54	3925
2026-01-29 06:08:39.63	34.00	12.70	-41.4	-42.2	21.4	0.00e+00	0	42	0	682622976	54	3956
2026-01-29 06:08:40.64	33.87	12.78	-41.3	-42.2	21.5	0.00e+00	0	42	0	688914432	54	3918
2026-01-29 06:08:41.65	33.74	12.85	-41.1	-42.0	21.7	0.00e+00	0	42	0	694157312	54	3830
2026-01-29 06:08:42.65	33.62	12.93	-41.0	-41.9	21.8	0.00e+00	0	42	0	700448768	54	3800
2026-01-29 06:08:43.67	33.49	13.01	-41.0	-41.9	21.7	0.00e+00	0	42	0	705691648	54	3792
2026-01-29 06:08:44.68	33.36	13.08	-41.0	-41.8	21.8	0.00e+00	0	42	0	711983104	54	3771
2026-01-29 06:08:45.69	33.23	13.16	-40.8	-41.6	21.9	0.00e+00	0	42	0	717225984	53	3901
2026-01-29 06:08:46.70	33.10	13.24	-40.7	-41.6	21.9	0.00e+00	0	42	0	723517440	53	3872
2026-01-29 06:08:47.71	32.97	13.31	-40.7	-41.6	21.7	0.00e+00	0	42	0	728760320	53	3873
2026-01-29 06:08:48.71	32.84	13.39	-40.7	-41.6	21.6	0.00e+00	0	42	0	734003200	53	3876
2026-01-29 06:08:49.73	32.71	13.46	-40.8	-41.6	21.4	0.00e+00	0	42	0	740294656	53	3902
2026-01-29 06:08:50.73	32.58	13.54	-40.8	-41.6	21.4	0.00e+00	0	42	0	745537536	53	3906
2026-01-29 06:08:51.74	32.45	13.62	-40.8	-41.6	21.6	0.00e+00	0	42	0	750780416	53	3910
2026-01-29 06:08:52.75	32.31	13.69	-40.7	-41.5	22.0	0.00e+00	0	42	0	757071872	53	3857
2026-01-29 06:08:53.75	32.18	13.77	-40.7	-41.5	22.0	0.00e+00	0	42	0	762314752	53	3838
2026-01-29 06:08:54.76	32.04	13.85	-40.8	-41.6	21.8	0.00e+00	0	42	0	768606208	53	3909
2026-01-29 06:08:55.77	31.91	13.93	-40.8	-41.7	21.6	0.00e+00	0	42	0	773849088	53	3922
2026-01-29 06:08:56.77	31.77	14.00	-40.8	-41.6	21.7	0.00e+00	0	42	0	780140544	53	3887
2026-01-29 06:08:57.78	31.64	14.08	-40.8	-41.6	22.1	0.00e+00	0	42	0	785383424	53	3899
2026-01-29 06:08:58.79	31.50	14.16	-40.6	-41.5	22.3	0.00e+00	0	42	0	790626304	53	3839
2026-01-29 06:08:59.80	31.36	14.23	-40.6	-41.4	22.3	0.00e+00	0	42	0	796917760	53	3804
2026-01-29 06:09:00.81	31.22	14.31	-40.6	-41.4	22.2	0.00e+00	0	42	0	802160640	53	3821
2026-01-29 06:09:01.82	31.08	14.39	-40.5	-41.4	22.3	0.00e+00	0	42	0	808452096	53	3786
2026-01-29 06:09:02.82	30.94	14.47	-40.5	-41.3	22.5	0.00e+00	0	42	0	813694976	52	3981
2026-01-29 06:09:03.83	30.80	14.55	-40.5	-41.4	22.3	0.00e+00	0	42	0	818937856	52	4008
2026-01-29 06:09:04.84	30.66	14.62	-40.5	-41.3	22.3	0.00e+00	0	42	0	825229312	52	3990
2026-01-29 06:09:05.84	30.51	14.70	-40.5	-41.3	22.5	0.00e+00	0	42	0	830472192	52	3976
2026-01-29 06:09:06.85	30.37	14.78	-40.5	-41.3	22.5	0.00e+00	0	42	0	835715072	52	3983
2026-01-29 06:09:07.86	30.23	14.86	-40.4	-41.2	22.5	0.00e+00	0	42	0	842006528	52	3943
2026-01-29 06:09:08.87	30.08	14.93	-40.3	-41.1	22.6	0.00e+00	0	42	0	848297984	52	3903
2026-01-29 06:09:09.88	29.93	15.01	-40.4	-41.2	22.6	0.00e+00	0	42	0	853540864	52	3935
2026-01-29 06:09:10.89	29.79	15.09	-40.4	-41.3	22.5	0.00e+00	0	42	0	858783744	52	3962
2026-01-29 06:09:11.90	29.64	15.17	-40.3	-41.1	22.7	0.00e+00	0	42	0	865075200	52	3897
2026-01-29 06:09:12.90	29.49	15.25	-40.3	-41.1	22.7	0.00e+00	0	42	0	870318080	52	3904
2026-01-29 06:09:13.91	29.34	15.33	-40.3	-41.0	22.7	0.00e+00	0	42	0	875560960	52	3867
2026-01-29 06:09:14.91	29.19	15.40	-40.4	-41.2	22.7	0.00e+00	0	42	0	881852416	52	3919
2026-01-29 06:09:15.92	29.04	15.48	-40.3	-41.1	22.7	0.00e+00	0	42	0	887095296	52	3892
2026-01-29 06:09:16.93	28.89	15.56	-40.4	-41.2	22.6	0.00e+00	0	42	0	893386752	52	3928
2026-01-29 06:09:17.94	28.74	15.64	-40.5	-41.3	22.5	0.00e+00	0	42	0	898629632	52	3981
2026-01-29 06:09:18.95	28.58	15.72	-40.4	-41.2	22.6	0.00e+00	0	42	0	903872512	52	3943
2026-01-29 06:09:19.96	28.43	15.80	-40.4	-41.2	22.6	0.00e+00	0	42	0	910163968	52	3958
2026-01-29 06:09:20.97	28.27	15.88	-40.4	-41.2	22.6	0.00e+00	0	42	0	916455424	52	3927
2026-01-29 06:09:21.98	28.12	15.95	-40.2	-41.0	22.8	0.00e+00	0	42	0	921698304	52	3831
2026-01-29 06:09:22.98	27.96	16.03	-40.1	-40.9	22.9	0.00e+00	0	42	0	926941184	52	3784
2026-01-29 06:09:23.99	27.80	16.11	-40.1	-40.9	22.9	0.00e+00	0	42	0	933232640	52	3806
2026-01-29 06:09:25.00	27.65	16.19	-40.0	-40.8	23.0	0.00e+00	0	42	0	938475520	52	3744
2026-01-29 06:09:26.01	27.49	16.27	-40.1	-40.9	23.0	0.00e+00	0	42	0	943718400	51	4024
2026-01-29 06:09:27.01	27.33	16.35	-40.2	-41.0	22.9	0.00e+00	0	42	0	950009856	51	4060
2026-01-29 06:09:28.02	27.17	16.43	-40.1	-40.9	23.0	0.00e+00	0	42	0	955252736	51	4017
2026-01-29 06:09:29.02	27.01	16.51	-40.1	-40.9	23.0	0.00e+00	0	42	0	960495616	51	4033
2026-01-29 06:09:30.03	26.84	16.58	-40.0	-40.8	23.0	0.00e+00	0	42	0	966787072	51	3985
2026-01-29 06:09:31.04	26.68	16.66	-40.0	-40.8	23.1	0.00e+00	0	42	0	972029952	51	3988
2026-01-29 06:09:32.05	26.51	16.74	-40.0	-40.8	23.1	0.00e+00	0	42	0	978321408	51	3990
2026-01-29 06:09:33.06	26.35	16.82	-40.0	-40.8	23.1	0.00e+00	0	42	0	983564288	51	3981
2026-01-29 06:09:34.07	26.18	16.90	-40.0	-40.8	23.1	0.00e+00	0	42	0	989855744	51	3999
2026-01-29 06:09:35.08	26.01	16.98	-40.0	-40.8	23.1	0.00e+00	0	42	0	995098624	51	3977
2026-01-29 06:09:36.09	25.85	17.06	-40.0	-40.8	23.2	0.00e+00	0	42	0	1001390080	51	3964
2026-01-29 06:09:37.09	25.68	17.14	-39.9	-40.7	23.2	0.00e+00	0	42	0	1006632960	51	3949
2026-01-29 06:09:38.10	25.51	17.22	-39.9	-40.6	23.3	0.00e+00	0	42	0	1011875840	51	3908
2026-01-29 06:09:39.11	25.34	17.30	-39.8	-40.6	23.3	0.00e+00	0	42	0	1018167296	51	3893
2026-01-29 06:09:40.12	25.17	17.37	-39.8	-40.6	23.3	0.00e+00	0	42	0	1023410176	51	3889
2026-01-29 06:09:41.12	24.99	17.45	-39.9	-40.6	23.2	0.00e+00	0	42	0	1028653056	51	3909
2026-01-29 06:09:42.13	24.82	17.53	-39.9	-40.6	23.2	0.00e+00	0	42	0	1034944512	51	3907
2026-01-29 06:09:43.14	24.65	17.61	-40.0	-40.8	23.1	0.00e+00	0	42	0	1040187392	51	3979
2026-01-29 06:09:44.15	24.47	17.69	-40.1	-40.9	23.0	0.00e+00	0	42	0	1045430272	51	4011
2026-01-29 06:09:45.15	24.30	17.77	-40.1	-40.9	23.0	0.00e+00	0	42	0	1051721728	51	4033
2026-01-29 06:09:46.15	24.12	17.85	-40.1	-40.9	23.1	0.00e+00	0	42	0	1056964608	51	4008
2026-01-29 06:09:47.16	23.94	17.93	-39.9	-40.7	23.2	0.00e+00	0	42	0	1063256064	51	3948
2026-01-29 06:09:48.17	23.76	18.00	-39.9	-40.7	23.3	0.00e+00	0	42	0	1068498944	51	3918
2026-01-29 06:09:49.17	23.58	18.08	-39.9	-40.7	23.3	0.00e+00	0	42	0	1074790400	51	3921
2026-01-29 06:09:50.18	23.40	18.16	-39.9	-40.7	23.2	0.00e+00	0	42	0	1080033280	51	3949
2026-01-29 06:09:51.19	23.22	18.24	-39.9	-40.7	23.3	0.00e+00	0	42	0	1086324736	51	3917
2026-01-29 06:09:52.20	23.04	18.32	-39.8	-40.5	23.4	0.00e+00	0	42	0	1091567616	51	3855
2026-01-29 06:09:53.21	22.85	18.40	-39.7	-40.5	23.5	0.00e+00	0	42	0	1096810496	51	3835
2026-01-29 06:09:54.21	22.67	18.48	-39.6	-40.4	23.6	0.00e+00	0	42	0	1103101952	51	3788
2026-01-29 06:09:55.22	22.48	18.55	-39.7	-40.5	23.5	0.00e+00	0	42	0	1108344832	51	3852
2026-01-29 06:09:56.23	22.30	18.63	-39.8	-40.5	23.5	0.00e+00	0	42	0	1113587712	51	3859
2026-01-29 06:09:57.24	22.11	18.71	-39.6	-40.4	23.6	0.00e+00	0	42	0	1119879168	51	3799
2026-01-29 06:09:58.25	21.92	18.79	-39.7	-40.5	23.4	0.00e+00	0	42	0	1125122048	51	3849
2026-01-29 06:09:59.25	21.73	18.87	-39.6	-40.3	23.6	0.00e+00	0	42	0	1130364928	51	3765
2026-01-29 06:10:00.26	21.54	18.94	-39.6	-40.4	23.6	0.00e+00	0	42	0	1136656384	51	3801
2026-01-29 06:10:01.27	21.35	19.02	-39.4	-40.2	23.8	0.00e+00	0	42	0	1142947840	50	3918
2026-01-29 06:10:02.28	21.16	19.10	-39.4	-40.1	23.8	0.00e+00	0	42	0	1148190720	50	3906
2026-01-29 06:10:03.29	20.96	19.18	-39.5	-40.3	23.7	0.00e+00	0	42	0	1153433600	50	3975
2026-01-29 06:10:04.29	20.77	19.26	-39.6	-40.4	23.6	0.00e+00	0	42	0	1159725056	50	4013
2026-01-29 06:10:05.30	20.57	19.33	-39.6	-40.3	23.6	0.00e+00	0	42	0	1164967936	50	3987
2026-01-29 06:10:06.30	20.38	19.41	-39.7	-40.4	23.5	0.00e+00	0	42	0	1171259392	50	4040
2026-01-29 06:10:07.31	20.18	19.49	-39.6	-40.4	23.6	0.00e+00	0	42	0	1176502272	50	4020
2026-01-29 06:10:08.32	19.98	19.56	-39.6	-40.4	23.6	0.00e+00	0	42	0	1181745152	50	4020
2026-01-29 06:10:09.33	19.78	19.64	-39.5	-40.3	23.7	0.00e+00	0	42	0	1188036608	50	3965
2026-01-29 06:10:10.34	19.58	19.72	-39.4	-40.1	23.9	0.00e+00	0	42	0	1193279488	50	3895
2026-01-29 06:10:11.35	19.38	19.80	-39.4	-40.2	23.8	0.00e+00	0	42	0	1198522368	50	3930
2026-01-29 06:10:12.36	19.17	19.87	-39.5	-40.3	23.7	0.00e+00	0	42	0	1204813824	50	3968
2026-01-29 06:10:13.37	18.97	19.95	-39.5	-40.2	23.7	0.00e+00	0	42	0	1211105280	50	3958
2026-01-29 06:10:14.38	18.77	20.03	-39.4	-40.1	23.9	0.00e+00	0	42	0	1216348160	50	3894
2026-01-29 06:10:15.39	18.56	20.10	-39.3	-40.1	23.9	0.00e+00	0	42	0	1221591040	50	3871
2026-01-29 06:10:16.39	18.35	20.18	-39.3	-40.0	23.9	0.00e+00	0	42	0	1227882496	50	3867
2026-01-29 06:10:17.40	18.15	20.25	-39.3	-40.0	24.0	0.00e+00	0	42	0	1233125376	50	3844
2026-01-29 06:10:18.41	17.94	20.33	-39.4	-40.1	23.9	0.00e+00	0	42	0	1238368256	50	3892
2026-01-29 06:10:19.41	17.73	20.40	-39.3	-40.0	24.0	0.00e+00	0	42	0	1244659712	50	3851
2026-01-29 06:10:20.42	17.52	20.48	-39.1	-39.9	24.1	0.00e+00	0	42	0	1249902592	50	3787
2026-01-29 06:10:21.42	17.31	20.55	-39.0	-39.7	24.3	0.00e+00	0	42	0	1256194048	50	3713
2026-01-29 06:10:22.43	17.09	20.63	-39.0	-39.8	24.2	0.00e+00	0	42	0	1261436928	50	3746
2026-01-29 06:10:23.44	16.88	20.70	-39.0	-39.7	24.3	0.00e+00	0	42	0	1266679808	50	3723
2026-01-29 06:10:24.45	16.66	20.78	-38.9	-39.6	24.3	0.00e+00	0	42	0	1272971264	49	3893
2026-01-29 06:10:25.46	16.45	20.85	-38.9	-39.6	24.4	0.00e+00	0	42	0	1279262720	49	3892
2026-01-29 06:10:26.46	16.23	20.93	-38.8	-39.5	24.4	0.00e+00	0	42	0	1284505600	49	3856
2026-01-29 06:10:27.47	16.01	21.00	-38.8	-39.6	24.4	0.00e+00	0	42	0	1289748480	49	3878
2026-01-29 06:10:28.48	15.79	21.07	-38.7	-39.4	24.5	0.00e+00	0	42	0	1296039936	49	3818
2026-01-29 06:10:29.49	15.57	21.15	-38.7	-39.5	24.5	0.00e+00	0	42	0	1301282816	49	3833
2026-01-29 06:10:30.49	15.35	21.22	-38.7	-39.5	24.5	0.00e+00	0	42	0	1306525696	49	3833
2026-01-29 06:10:31.50	15.13	21.29	-38.9	-39.6	24.4	0.00e+00	0	42	0	1312817152	49	3889
2026-01-29 06:10:32.51	14.90	21.37	-38.9	-39.7	24.3	0.00e+00	0	42	0	1318060032	49	3924
2026-01-29 06:10:33.51	14.68	21.44	-39.0	-39.7	24.3	0.00e+00	0	42	0	1324351488	49	3941
2026-01-29 06:10:34.53	14.45	21.51	-39.0	-39.7	24.3	0.00e+00	0	42	0	1329594368	49	3944
2026-01-29 06:10:35.53	14.23	21.58	-39.0	-39.7	24.3	0.00e+00	0	42	0	1334837248	49	3926
2026-01-29 06:10:36.54	14.00	21.65	-38.9	-39.6	24.4	0.00e+00	0	42	0	1341128704	49	3902
2026-01-29 06:10:37.54	13.77	21.73	-38.9	-39.6	24.3	0.00e+00	0	42	0	1346371584	49	3911
2026-01-29 06:10:38.55	13.54	21.80	-38.9	-39.6	24.4	0.00e+00	0	42	0	1351614464	49	3899
2026-01-29 06:10:39.56	13.31	21.87	-38.9	-39.6	24.4	0.00e+00	0	42	0	1357905920	49	3886
2026-01-29 06:10:40.57	13.08	21.94	-38.9	-39.7	24.4	0.00e+00	0	42	0	1364197376	49	3916
2026-01-29 06:10:41.58	12.84	22.01	-38.9	-39.6	24.4	0.00e+00	0	42	0	1369440256	49	3905
2026-01-29 06:10:42.59	12.61	22.08	-38.9	-39.6	24.3	0.00e+00	0	42	0	1374683136	49	3903
2026-01-29 06:10:43.59	12.37	22.15	-39.0	-39.7	24.3	0.00e+00	0	42	0	1380974592	49	3935
2026-01-29 06:10:44.61	12.13	22.22	-38.9	-39.6	24.4	0.00e+00	0	42	0	1386217472	49	3885
2026-01-29 06:10:45.61	11.90	22.29	-38.8	-39.5	24.5	0.00e+00	0	42	0	1391460352	49	3847
2026-01-29 06:10:46.61	11.66	22.35	-38.7	-39.4	24.6	0.00e+00	0	42	0	1397751808	49	3817
2026-01-29 06:10:47.62	11.42	22.42	-38.7	-39.5	24.5	0.00e+00	0	42	0	1402994688	49	3831
2026-01-29 06:10:48.63	11.18	22.49	-38.8	-39.5	24.5	0.00e+00	0	42	0	1409286144	49	3846
2026-01-29 06:10:49.64	10.94	22.56	-38.9	-39.6	24.4	0.00e+00	0	42	0	1414529024	49	3898
2026-01-29 06:10:50.65	10.69	22.62	-38.8	-39.6	24.4	0.00e+00	0	42	0	1419771904	49	3884
2026-01-29 06:10:51.65	10.45	22.69	-38.9	-39.6	24.4	0.00e+00	0	42	0	1426063360	49	3907
2026-01-29 06:10:52.66	10.21	22.76	-38.9	-39.6	24.4	0.00e+00	0	42	0	1431306240	49	3883
2026-01-29 06:10:53.67	9.96	22.82	-38.8	-39.5	24.5	0.00e+00	0	42	0	1437597696	49	3861
2026-01-29 06:10:54.67	9.72	22.89	-38.7	-39.4	24.6	0.00e+00	0	42	0	1442840576	49	3805
2026-01-29 06:10:55.68	9.47	22.95	-38.6	-39.3	24.7	0.00e+00	0	42	0	1449132032	49	3744
2026-01-29 06:10:56.69	9.22	23.02	-38.6	-39.3	24.7	0.00e+00	0	42	0	1454374912	49	3757
2026-01-29 06:10:57.69	8.97	23.08	-38.6	-39.4	24.6	0.00e+00	0	42	0	1459617792	49	3785
2026-01-29 06:10:58.70	8.72	23.14	-38.7	-39.4	24.6	0.00e+00	0	42	0	1465909248	49	3814
2026-01-29 06:10:59.71	8.46	23.21	-38.7	-39.5	24.6	0.00e+00	0	42	0	1471152128	49	3825
2026-01-29 06:11:00.72	8.21	23.27	-38.6	-39.3	24.7	0.00e+00	0	42	0	1476395008	49	3766
2026-01-29 06:11:01.73	7.96	23.33	-38.5	-39.2	24.8	0.00e+00	0	42	0	1482686464	49	3730
2026-01-29 06:11:02.74	7.70	23.39	-38.6	-39.3	24.7	0.00e+00	0	42	0	1487929344	49	3761
2026-01-29 06:11:03.75	7.44	23.46	-38.7	-39.4	24.6	0.00e+00	0	42	0	1494220800	49	3820
2026-01-29 06:11:04.75	7.19	23.52	-38.7	-39.4	24.6	0.00e+00	0	42	0	1499463680	49	3820
2026-01-29 06:11:05.76	6.93	23.58	-38.6	-39.3	24.7	0.00e+00	0	42	0	1504706560	49	3751
2026-01-29 06:11:06.77	6.67	23.64	-38.5	-39.2	24.8	0.00e+00	0	42	0	1510998016	49	3710
2026-01-29 06:11:07.77	6.41	23.70	-38.5	-39.2	24.8	0.00e+00	0	42	0	1517289472	48	3949
2026-01-29 06:11:08.78	6.15	23.76	-38.4	-39.1	24.9	0.00e+00	0	42	0	1522532352	48	3902
2026-01-29 06:11:09.79	5.89	23.81	-38.4	-39.1	24.9	0.00e+00	0	42	0	1527775232	48	3901
2026-01-29 06:11:10.79	5.62	23.87	-38.4	-39.1	24.9	0.00e+00	0	42	0	1534066688	48	3886
2026-01-29 06:11:11.80	5.36	23.93	-38.4	-39.1	24.9	0.00e+00	0	42	0	1539309568	48	3901
2026-01-29 06:11:12.81	5.09	23.99	-38.4	-39.2	24.8	0.00e+00	0	42	0	1544552448	48	3916
2026-01-29 06:11:13.81	4.83	24.04	-38.5	-39.2	24.8	0.00e+00	0	42	0	1550843904	48	3923
2026-01-29 06:11:14.82	4.56	24.10	-38.5	-39.2	24.8	0.00e+00	0	42	0	1556086784	48	3956
2026-01-29 06:11:15.83	4.29	24.15	-38.5	-39.2	24.8	0.00e+00	0	42	0	1561329664	48	3924
2026-01-29 06:11:16.84	4.02	24.21	-38.5	-39.3	24.8	0.00e+00	0	42	0	1567621120	48	3969
2026-01-29 06:11:17.84	3.75	24.26	-38.7	-39.4	24.7	0.00e+00	0	42	0	1572864000	48	4023
2026-01-29 06:11:18.85	3.48	24.31	-38.5	-39.2	24.8	0.00e+00	0	42	0	1579155456	48	3933
2026-01-29 06:11:19.86	3.21	24.37	-38.4	-39.1	24.9	0.00e+00	0	42	0	1584398336	48	3905
2026-01-29 06:11:20.86	2.94	24.42	-38.4	-39.1	24.9	0.00e+00	0	42	0	1590689792	48	3893
2026-01-29 06:11:21.87	2.67	24.47	-38.4	-39.1	24.9	0.00e+00	0	42	0	1595932672	48	3875
2026-01-29 06:11:22.88	2.39	24.52	-38.3	-39.0	25.1	0.00e+00	0	42	0	1602224128	48	3830
2026-01-29 06:11:23.89	2.11	24.57	-38.4	-39.1	24.9	0.00e+00	0	42	0	1607467008	48	3891
2026-01-29 06:11:24.90	1.84	24.62	-38.3	-39.0	25.0	0.00e+00	0	42	0	1612709888	48	3840
2026-01-29 06:11:25.90	1.56	24.67	-38.4	-39.1	25.0	0.00e+00	0	42	0	1619001344	48	3885
2026-01-29 06:11:26.91	1.28	24.72	-38.3	-39.0	25.0	0.00e+00	0	42	0	1624244224	48	3858
2026-01-29 06:11:27.92	1.00	24.77	-38.3	-39.0	25.0	0.00e+00	0	42	0	1629487104	48	3866
2026-01-29 06:11:28.92	0.73	24.81	-38.3	-39.0	25.0	0.00e+00	0	42	0	1635778560	48	3857
2026-01-29 06:11:29.92	0.45	24.86	-38.3	-39.0	25.1	0.00e+00	0	42	0	1641021440	48	3829
2026-01-29 06:11:30.93	0.16	24.91	-38.3	-39.0	25.1	0.00e+00	0	42	0	1646264320	48	3829
2026-01-29 06:11:31.94	359.88	24.95	-38.2	-38.9	25.1	0.00e+00	0	42	0	1652555776	48	3807
2026-01-29 06:11:32.95	359.60	25.00	-38.2	-38.9	25.1	0.00e+00	0	42	0	1657798656	48	3816
2026-01-29 06:11:33.95	359.32	25.04	-38.0	-38.7	25.3	0.00e+00	0	42	0	1664090112	48	3734
2026-01-29 06:11:34.96	359.03	25.08	-37.7	-38.4	25.1	0.00e+00	0	42	0	1669332992	47	3799
2026-01-29 06:11:35.97	358.74	25.13	-37.8	-38.5	25.0	0.00e+00	0	42	0	1675624448	47	3844
2026-01-29 06:11:36.98	358.46	25.17	-37.8	-38.5	25.0	0.00e+00	0	42	0	1680867328	47	3846
2026-01-29 06:11:37.98	358.17	25.21	-37.8	-38.6	24.9	0.00e+00	0	42	0	1687158784	47	3873
2026-01-29 06:11:38.99	357.88	25.25	-38.0	-38.7	24.8	0.00e+00	0	42	0	1692401664	47	3941
2026-01-29 06:11:40.00	357.59	25.29	-38.1	-38.9	24.7	0.00e+00	0	42	0	1697644544	47	4017
2026-01-29 06:11:41.01	357.30	25.33	-38.2	-39.0	24.6	0.00e+00	0	42	0	1703936000	47	4055
2026-01-29 06:11:42.02	357.01	25.36	-38.2	-38.9	24.7	0.00e+00	0	42	0	1709178880	47	4039
2026-01-29 06:11:43.02	356.73	25.40	-38.2	-39.0	24.6	0.00e+00	0	42	0	1714421760	47	4056
2026-01-29 06:11:44.03	356.43	25.44	-38.0	-38.7	24.8	0.00e+00	0	42	0	1720713216	47	3940
2026-01-29 06:11:45.04	356.14	25.47	-38.0	-38.7	24.8	0.00e+00	0	42	0	1725956096	47	3954
2026-01-29 06:11:46.05	355.85	25.51	-38.0	-38.7	24.8	0.00e+00	0	42	0	1731198976	47	3946
2026-01-29 06:11:47.06	355.55	25.54	-37.9	-38.6	24.9	0.00e+00	0	42	0	1737490432	47	3911
2026-01-29 06:11:48.07	355.26	25.58	-38.0	-38.7	24.9	0.00e+00	0	42	0	1743781888	47	3933
2026-01-29 06:11:49.07	354.97	25.61	-38.0	-38.8	24.8	0.00e+00	0	42	0	1749024768	47	3971
2026-01-29 06:11:50.08	354.67	25.64	-38.0	-38.7	24.8	0.00e+00	0	42	0	1754267648	47	3942
2026-01-29 06:11:51.09	354.37	25.67	-37.9	-38.7	24.9	0.00e+00	0	42	0	1760559104	47	3920
2026-01-29 06:11:52.09	354.08	25.70	-38.0	-38.7	24.8	0.00e+00	0	42	0	1765801984	47	3950
2026-01-29 06:11:53.10	353.78	25.73	-37.9	-38.7	24.9	0.00e+00	0	42	0	1772093440	47	3923
2026-01-29 06:11:54.11	353.48	25.76	-37.9	-38.7	24.9	0.00e+00	0	42	0	1777336320	47	3917
2026-01-29 06:11:55.11	353.19	25.79	-38.1	-38.8	24.7	0.00e+00	0	42	0	1782579200	47	3986
2026-01-29 06:11:56.12	352.89	25.81	-38.1	-38.8	24.8	0.00e+00	0	42	0	1788870656	47	3994
2026-01-29 06:11:57.13	352.59	25.84	-38.0	-38.8	24.8	0.00e+00	0	42	0	1794113536	47	3966
2026-01-29 06:11:58.14	352.29	25.87	-37.9	-38.6	24.9	0.00e+00	0	42	0	1799356416	47	3907
2026-01-29 06:11:59.14	351.99	25.89	-37.9	-38.6	25.0	0.00e+00	0	42	0	1805647872	47	3874
2026-01-29 06:12:00.15	351.69	25.91	-37.9	-38.6	24.9	0.00e+00	0	42	0	1810890752	47	3896
2026-01-29 06:12:01.16	351.39	25.94	-37.9	-38.6	24.9	0.00e+00	0	42	0	1816133632	47	3894
2026-01-29 06:12:02.17	351.09	25.96	-37.9	-38.7	24.9	0.00e+00	0	42	0	1822425088	47	3925
2026-01-29 06:12:03.17	350.79	25.98	-37.9	-38.6	25.0	0.00e+00	0	42	0	1828716544	47	3883
2026-01-29 06:12:04.18	350.48	26.00	-38.0	-38.7	24.9	0.00e+00	0	42	0	1833959424	47	3944
2026-01-29 06:12:05.19	350.18	26.02	-38.1	-38.8	24.8	0.00e+00	0	42	0	1839202304	47	3991
2026-01-29 06:12:06.20	349.88	26.04	-38.1	-38.9	24.7	0.00e+00	0	42	0	1845493760	47	4016
2026-01-29 06:12:07.21	349.57	26.05	-38.2	-39.0	24.6	0.00e+00	0	42	0	1850736640	47	4053
2026-01-29 06:12:08.22	349.27	26.07	-38.2	-38.9	24.7	0.00e+00	0	42	0	1857028096	47	4043
2026-01-29 06:12:09.23	348.97	26.09	-38.2	-39.0	24.6	0.00e+00	0	42	0	1862270976	47	4053
2026-01-29 06:12:10.23	348.66	26.10	-38.3	-39.1	24.5	0.00e+00	0	42	0	1867513856	47	4106
2026-01-29 06:12:11.24	348.36	26.12	-38.3	-39.0	24.6	0.00e+00	0	42	0	1873805312	47	4090
2026-01-29 06:12:12.25	348.05	26.13	-38.2	-38.9	24.7	0.00e+00	0	42	0	1879048192	47	4025
2026-01-29 06:12:13.26	347.75	26.14	-38.1	-38.9	24.7	0.00e+00	0	42	0	1884291072	47	4005
2026-01-29 06:12:14.26	347.44	26.15	-38.0	-38.7	24.9	0.00e+00	0	42	0	1890582528	47	3937
2026-01-29 06:12:15.27	347.14	26.16	-37.9	-38.6	24.9	0.00e+00	0	42	0	1896873984	47	3907
2026-01-29 06:12:16.28	346.83	26.17	-37.9	-38.6	25.0	0.00e+00	0	42	0	1902116864	47	3884
2026-01-29 06:12:17.29	346.53	26.18	-37.6	-38.3	25.2	0.00e+00	0	42	0	1907359744	47	3776
2026-01-29 06:12:18.31	346.22	26.19	-37.5	-38.2	25.3	0.00e+00	0	42	0	1913651200	47	3723
2026-01-29 06:12:19.31	345.91	26.20	-37.6	-38.3	25.3	0.00e+00	0	42	0	1918894080	47	3751
2026-01-29 06:12:20.32	345.60	26.20	-37.6	-38.3	25.2	0.00e+00	0	42	0	1924136960	47	3769
2026-01-29 06:12:21.32	345.30	26.21	-37.7	-38.4	25.2	0.00e+00	0	42	0	1930428416	47	3798
2026-01-29 06:12:22.33	344.99	26.21	-37.6	-38.3	25.2	0.00e+00	0	42	0	1935671296	47	3776
2026-01-29 06:12:23.34	344.69	26.21	-37.7	-38.4	25.1	0.00e+00	0	42	0	1941962752	47	3815
2026-01-29 06:12:24.35	344.38	26.22	-37.8	-38.5	25.1	0.00e+00	0	42	0	1947205632	47	3857
2026-01-29 06:12:25.36	344.07	26.22	-38.0	-38.7	24.9	0.00e+00	0	42	0	1952448512	47	3942
2026-01-29 06:12:26.37	343.76	26.22	-38.1	-38.9	24.8	0.00e+00	0	42	0	1958739968	47	4005
2026-01-29 06:12:27.37	343.46	26.22	-38.2	-38.9	24.7	0.00e+00	0	42	0	1965031424	47	4035
2026-01-29 06:12:28.38	343.15	26.22	-38.1	-38.9	24.7	0.00e+00	0	42	0	1970274304	47	4011
2026-01-29 06:12:29.39	342.85	26.22	-38.3	-39.0	24.6	0.00e+00	0	42	0	1975517184	47	4076
2026-01-29 06:12:30.40	342.54	26.21	-38.1	-38.9	24.8	0.00e+00	0	42	0	1981808640	47	4010
2026-01-29 06:12:31.41	342.23	26.21	-38.2	-38.9	24.7	0.00e+00	0	42	0	1987051520	47	4039
2026-01-29 06:12:32.42	341.92	26.20	-37.9	-38.7	25.0	0.00e+00	0	42	0	1992294400	47	3917
2026-01-29 06:12:33.42	341.62	26.20	-37.9	-38.6	25.0	0.00e+00	0	42	0	1998585856	47	3884
2026-01-29 06:12:34.43	341.31	26.19	-37.7	-38.4	25.1	0.00e+00	0	42	0	2003828736	47	3809
2026-01-29 06:12:35.44	341.01	26.18	-37.7	-38.4	25.1	0.00e+00	0	42	0	2009071616	47	3807
2026-01-29 06:12:36.45	340.70	26.17	-37.7	-38.4	25.2	0.00e+00	0	42	0	2015363072	47	3819
2026-01-29 06:12:37.45	340.40	26.17	-37.6	-38.3	25.2	0.00e+00	0	42	0	2020605952	47	3777
2026-01-29 06:12:38.46	340.09	26.16	-37.6	-38.3	25.3	0.00e+00	0	42	0	2026897408	47	3752
2026-01-29 06:12:39.46	339.79	26.14	-37.8	-38.5	25.1	0.00e+00	0	42	0	2032140288	47	3836
2026-01-29 06:12:40.47	339.48	26.13	-37.9	-38.7	25.0	0.00e+00	0	42	0	2038431744	47	3916
2026-01-29 06:12:41.48	339.18	26.12	-38.1	-38.8	24.8	0.00e+00	0	42	0	2043674624	47	3991
2026-01-29 06:12:42.50	338.87	26.11	-38.1	-38.8	24.8	0.00e+00	0	42	0	2049966080	47	3989
2026-01-29 06:12:43.50	338.57	26.09	-38.0	-38.7	24.9	0.00e+00	0	42	0	2055208960	47	3943
2026-01-29 06:12:44.51	338.26	26.07	-38.1	-38.8	24.8	0.00e+00	0	42	0	2060451840	47	3975
2026-01-29 06:12:45.52	337.96	26.06	-38.2	-38.9	24.7	0.00e+00	0	42	0	2066743296	47	4028
2026-01-29 06:12:46.53	337.65	26.04	-38.1	-38.9	24.8	0.00e+00	0	42	0	2071986176	47	4015
2026-01-29 06:12:47.53	337.35	26.02	-38.2	-38.9	24.8	0.00e+00	0	42	0	2077229056	47	4030
2026-01-29 06:12:48.54	337.05	26.00	-38.0	-38.8	24.9	0.00e+00	0	42	0	2083520512	47	3967
2026-01-29 06:12:49.55	336.75	25.98	-37.8	-38.5	25.1	0.00e+00	0	42	0	2088763392	47	3855
2026-01-29 06:12:50.56	336.44	25.96	-37.8	-38.6	25.0	0.00e+00	0	42	0	2095054848	47	3869
2026-01-29 06:12:51.57	336.14	25.94	-37.8	-38.5	25.1	0.00e+00	0	42	0	2100297728	47	3851
2026-01-29 06:12:52.58	335.84	25.92	-37.8	-38.5	25.1	0.00e+00	0	42	0	2106589184	47	3867
2026-01-29 06:12:53.59	335.54	25.90	-37.9	-38.6	25.0	0.00e+00	0	42	0	2111832064	47	3898
2026-01-29 06:12:54.59	335.24	25.87	-37.6	-38.3	25.3	0.00e+00	0	42	0	2117074944	47	3761
2026-01-29 06:12:55.60	334.94	25.85	-37.5	-38.2	25.3	0.00e+00	0	42	0	2123366400	47	3732
2026-01-29 06:12:56.61	334.64	25.82	-37.4	-38.1	25.4	0.00e+00	0	42	0	2128609280	46	3889
2026-01-29 06:12:57.61	334.34	25.79	-37.5	-38.1	25.4	0.00e+00	0	42	0	2134900736	46	3911
2026-01-29 06:12:58.62	334.04	25.77	-37.6	-38.3	25.3	0.00e+00	0	42	0	2140143616	46	3973
2026-01-29 06:12:59.63	333.75	25.74	-37.7	-38.4	25.1	0.00e+00	0	42	0	2145386496	46	4033
2026-01-29 06:13:00.63	333.45	25.71	-37.9	-38.6	25.0	0.00e+00	0	42	0	2151677952	46	4109
2026-01-29 06:13:01.64	333.15	25.68	-37.9	-38.7	24.9	0.00e+00	0	42	0	2156920832	46	4151
2026-01-29 06:13:02.65	332.86	25.65	-38.0	-38.8	24.9	0.00e+00	0	42	0	2162163712	46	4202
2026-01-29 06:13:03.65	332.56	25.62	-38.0	-38.7	24.9	0.00e+00	0	42	0	2168455168	46	4172
2026-01-29 06:13:04.66	332.27	25.58	-38.0	-38.7	24.9	0.00e+00	0	42	0	2174746624	46	4185
2026-01-29 06:13:05.67	331.97	25.55	-37.9	-38.6	25.0	0.00e+00	0	42	0	2179989504	46	4119
2026-01-29 06:13:06.68	331.68	25.52	-38.0	-38.7	24.9	0.00e+00	0	42	0	2185232384	46	4159
2026-01-29 06:13:07.69	331.39	25.48	-37.8	-38.6	25.0	0.00e+00	0	42	0	2191523840	46	4108
2026-01-29 06:13:08.70	331.09	25.45	-37.9	-38.6	25.0	0.00e+00	0	42	0	2196766720	46	4112
2026-01-29 06:13:09.71	330.80	25.41	-37.7	-38.4	25.2	0.00e+00	0	42	0	2202009600	46	4017
2026-01-29 06:13:10.71	330.51	25.37	-37.7	-38.4	25.1	0.00e+00	0	42	0	2208301056	46	4046
2026-01-29 06:13:11.72	330.22	25.34	-37.7	-38.4	25.2	0.00e+00	0	42	0	2213543936	46	4010
2026-01-29 06:13:12.73	329.93	25.30	-37.6	-38.3	25.3	0.00e+00	0	42	0	2219835392	46	3984
2026-01-29 06:13:13.74	329.64	25.26	-37.8	-38.5	25.1	0.00e+00	0	42	0	2225078272	46	4063
2026-01-29 06:13:14.75	329.35	25.22	-37.7	-38.4	25.2	0.00e+00	0	42	0	2230321152	46	4030
2026-01-29 06:13:15.76	329.06	25.18	-37.7	-38.5	25.1	0.00e+00	0	42	0	2236612608	46	4055
2026-01-29 06:13:16.77	328.78	25.14	-37.7	-38.4	25.2	0.00e+00	0	42	0	2242904064	46	4024
2026-01-29 06:13:17.77	328.49	25.09	-37.8	-38.5	25.1	0.00e+00	0	42	0	2248146944	46	4064
2026-01-29 06:13:18.78	328.21	25.05	-37.9	-38.7	25.0	0.00e+00	0	42	0	2253389824	46	4155
2026-01-29 06:13:19.79	327.92	25.01	-38.0	-38.8	24.8	0.00e+00	0	42	0	2259681280	46	4199
2026-01-29 06:13:20.79	327.64	24.96	-38.0	-38.8	24.8	0.00e+00	0	42	0	2264924160	46	4204
2026-01-29 06:13:21.80	327.36	24.92	-38.0	-38.7	24.9	0.00e+00	0	42	0	2270167040	46	4183
2026-01-29 06:13:22.81	327.07	24.87	-38.1	-38.8	24.8	0.00e+00	0	42	0	2276458496	46	4230
2026-01-29 06:13:23.82	326.79	24.83	-38.1	-38.8	24.8	0.00e+00	0	42	0	2281701376	46	4225
2026-01-29 06:13:24.83	326.51	24.78	-38.1	-38.8	24.8	0.00e+00	0	42	0	2286944256	46	4219
2026-01-29 06:13:25.83	326.23	24.73	-38.0	-38.8	24.9	0.00e+00	0	42	0	2293235712	46	4206
2026-01-29 06:13:26.84	325.96	24.68	-38.1	-38.8	24.9	0.00e+00	0	42	0	2298478592	46	4212
2026-01-29 06:13:27.85	325.68	24.63	-37.9	-38.6	25.0	0.00e+00	0	42	0	2304770048	46	4116
2026-01-29 06:13:28.86	325.40	24.58	-37.9	-38.6	25.0	0.00e+00	0	42	0	2310012928	46	4122
2026-01-29 06:13:29.87	325.12	24.53	-37.8	-38.5	25.1	0.00e+00	0	42	0	2316304384	46	4087
2026-01-29 06:13:30.87	324.85	24.48	-37.8	-38.5	25.1	0.00e+00	0	42	0	2321547264	46	4052
2026-01-29 06:13:31.87	324.58	24.43	-37.7	-38.5	25.2	0.00e+00	0	42	0	2327838720	46	4052
2026-01-29 06:13:32.88	324.30	24.38	-37.6	-38.3	25.2	0.00e+00	0	42	0	2333081600	46	4003
2026-01-29 06:13:33.89	324.03	24.33	-37.7	-38.4	25.2	0.00e+00	0	42	0	2338324480	46	4047
2026-01-29 06:13:34.89	323.76	24.27	-37.7	-38.4	25.2	0.00e+00	0	42	0	2344615936	46	4031
2026-01-29 06:13:35.89	323.49	24.22	-37.8	-38.6	25.0	0.00e+00	0	42	0	2349858816	46	4101
2026-01-29 06:13:36.89	323.23	24.17	-37.8	-38.5	25.1	0.00e+00	0	42	0	2355101696	46	4063
2026-01-29 06:13:37.90	322.96	24.11	-37.7	-38.4	25.1	0.00e+00	0	42	0	2361393152	46	4051
2026-01-29 06:13:38.91	322.69	24.06	-37.7	-38.4	25.1	0.00e+00	0	42	0	2366636032	46	4045
2026-01-29 06:13:39.92	322.42	24.00	-37.8	-38.5	25.1	0.00e+00	0	42	0	2371878912	46	4072
2026-01-29 06:13:40.93	322.16	23.94	-37.8	-38.5	25.1	0.00e+00	0	42	0	2378170368	46	4084
2026-01-29 06:13:41.93	321.89	23.89	-37.8	-38.5	25.0	0.00e+00	0	42	0	2383413248	46	4093
2026-01-29 06:13:42.94	321.63	23.83	-37.8	-38.6	25.0	0.00e+00	0	42	0	2389704704	46	4101
2026-01-29 06:13:43.95	321.36	23.77	-37.9	-38.6	25.0	0.00e+00	0	42	0	2394947584	46	4140
2026-01-29 06:13:44.96	321.10	23.71	-37.9	-38.6	25.0	0.00e+00	0	42	0	2400190464	46	4143
2026-01-29 06:13:45.97	320.84	23.65	-38.0	-38.8	24.8	0.00e+00	0	42	0	2406481920	46	4203
2026-01-29 06:13:46.97	320.58	23.59	-38.1	-38.8	24.8	0.00e+00	0	42	0	2412773376	46	4223
2026-01-29 06:13:47.97	320.33	23.53	-38.0	-38.7	24.9	0.00e+00	0	42	0	2418016256	46	4175
2026-01-29 06:13:48.98	320.07	23.47	-38.0	-38.7	24.9	0.00e+00	0	42	0	2423259136	46	4189
2026-01-29 06:13:49.99	319.81	23.41	-38.0	-38.8	24.9	0.00e+00	0	42	0	2429550592	46	4195
2026-01-29 06:13:50.99	319.56	23.35	-37.9	-38.7	25.0	0.00e+00	0	42	0	2434793472	46	4153
2026-01-29 06:13:52.00	319.30	23.28	-38.0	-38.8	24.9	0.00e+00	0	42	0	2440036352	46	4194
2026-01-29 06:13:53.01	319.05	23.22	-37.9	-38.6	25.0	0.00e+00	0	42	0	2446327808	46	4130
2026-01-29 06:13:54.02	318.79	23.16	-37.8	-38.6	25.0	0.00e+00	0	42	0	2451570688	46	4102
2026-01-29 06:13:55.03	318.54	23.09	-37.8	-38.5	25.0	0.00e+00	0	42	0	2456813568	46	4094
2026-01-29 06:13:56.04	318.29	23.03	-37.8	-38.5	25.0	0.00e+00	0	42	0	2463105024	46	4097
2026-01-29 06:13:57.05	318.04	22.97	-38.0	-38.7	24.9	0.00e+00	0	42	0	2468347904	46	4163
2026-01-29 06:13:58.05	317.79	22.90	-38.1	-38.8	24.8	0.00e+00	0	42	0	2474639360	46	4208
2026-01-29 06:13:59.06	317.55	22.84	-38.1	-38.8	24.8	0.00e+00	0	42	0	2479882240	46	4235
2026-01-29 06:14:00.07	317.30	22.77	-38.0	-38.8	24.8	0.00e+00	0	42	0	2486173696	46	4202
2026-01-29 06:14:01.07	317.06	22.70	-38.1	-38.8	24.8	0.00e+00	0	42	0	2491416576	46	4238
2026-01-29 06:14:02.08	316.81	22.64	-38.1	-38.8	24.7	0.00e+00	0	42	0	2497708032	46	4238
2026-01-29 06:14:03.08	316.57	22.57	-38.2	-38.9	24.7	0.00e+00	0	42	0	2502950912	46	4287
2026-01-29 06:14:04.09	316.33	22.50	-38.4	-39.1	24.5	0.00e+00	0	42	0	2508193792	47	4131
2026-01-29 06:14:05.09	316.09	22.44	-38.3	-39.1	24.6	0.00e+00	0	42	0	2514485248	47	4104
2026-01-29 06:14:06.10	315.85	22.37	-38.4	-39.2	24.5	0.00e+00	0	42	0	2519728128	47	4159
2026-01-29 06:14:07.11	315.61	22.30	-38.2	-38.9	24.2	0.00e+00	0	42	0	2524971008	47	4034
2026-01-29 06:14:08.12	315.37	22.23	-38.2	-38.9	24.5	0.00e+00	0	42	0	2531262464	47	4042
2026-01-29 06:14:09.13	315.13	22.16	-38.2	-38.9	24.3	0.00e+00	0	42	0	2536505344	47	4028
2026-01-29 06:14:10.13	314.90	22.09	-38.1	-38.8	24.4	0.00e+00	0	42	0	2541748224	47	3998
2026-01-29 06:14:11.14	314.66	22.02	-38.0	-38.8	24.3	0.00e+00	0	42	0	2548039680	47	3968
2026-01-29 06:14:12.15	314.43	21.95	-38.1	-38.8	24.1	0.00e+00	0	42	0	2553282560	47	3976
2026-01-29 06:14:13.15	314.20	21.88	-38.0	-38.8	24.8	0.00e+00	0	42	0	2559574016	47	3962
2026-01-29 06:14:14.16	313.96	21.81	-38.2	-38.9	24.7	0.00e+00	0	42	0	2564816896	47	4041
2026-01-29 06:14:15.17	313.73	21.74	-38.2	-39.0	24.6	0.00e+00	0	42	0	2571108352	47	4061
2026-01-29 06:14:16.18	313.50	21.67	-38.4	-39.2	24.4	0.00e+00	0	42	0	2576351232	47	4158
2026-01-29 06:14:17.19	313.27	21.60	-38.4	-39.1	24.5	0.00e+00	0	42	0	2582642688	47	4144
2026-01-29 06:14:18.19	313.05	21.53	-38.4	-39.1	24.5	0.00e+00	0	42	0	2587885568	47	4143
2026-01-29 06:14:19.20	312.82	21.45	-38.4	-39.1	24.5	0.00e+00	0	42	0	2593128448	47	4142
2026-01-29 06:14:20.21	312.60	21.38	-38.4	-39.1	24.5	0.00e+00	0	42	0	2599419904	47	4117
2026-01-29 06:14:21.22	312.37	21.31	-38.4	-39.2	24.4	0.00e+00	0	42	0	2604662784	47	4154
2026-01-29 06:14:22.23	312.15	21.24	-38.4	-39.1	24.5	0.00e+00	0	42	0	2609905664	47	4125
2026-01-29 06:14:23.23	311.93	21.16	-38.4	-39.1	24.5	0.00e+00	0	42	0	2616197120	47	4130
2026-01-29 06:14:24.24	311.71	21.09	-38.3	-39.0	24.6	0.00e+00	0	42	0	2621440000	47	4065
2026-01-29 06:14:25.25	311.48	21.02	-38.4	-39.1	24.4	0.00e+00	0	42	0	2626682880	47	4138
2026-01-29 06:14:26.25	311.27	20.94	-38.3	-39.1	24.5	0.00e+00	0	42	0	2632974336	47	4110
2026-01-29 06:14:27.26	311.05	20.87	-38.6	-39.3	24.3	0.00e+00	0	42	0	2639265792	47	4214
2026-01-29 06:14:28.27	310.83	20.79	-38.7	-39.4	24.2	0.00e+00	0	42	0	2644508672	47	4287
2026-01-29 06:14:29.29	310.61	20.72	-39.0	-39.7	24.3	0.00e+00	0	42	0	2649751552	48	4192
2026-01-29 06:14:30.29	310.40	20.64	-39.1	-39.8	24.3	0.00e+00	0	42	0	2656043008	48	4223
2026-01-29 06:14:31.30	310.19	20.57	-39.0	-39.7	24.4	0.00e+00	0	42	0	2661285888	48	4177
2026-01-29 06:14:32.30	309.98	20.50	-38.9	-39.6	24.5	0.00e+00	0	42	0	2667577344	48	4134
2026-01-29 06:14:33.31	309.76	20.42	-39.0	-39.8	24.4	0.00e+00	0	42	0	2672820224	48	4202
2026-01-29 06:14:34.31	309.55	20.34	-39.2	-39.9	24.2	0.00e+00	0	42	0	2678063104	48	4281
2026-01-29 06:14:35.32	309.35	20.27	-39.3	-40.0	24.1	0.00e+00	0	42	0	2684354560	49	4071
2026-01-29 06:14:36.33	309.14	20.19	-39.3	-40.0	24.1	0.00e+00	0	42	0	2689597440	49	4095
2026-01-29 06:14:37.33	308.93	20.12	-39.2	-40.0	24.2	0.00e+00	0	42	0	2694840320	49	4059
2026-01-29 06:14:38.34	308.72	20.04	-39.2	-39.9	24.2	0.00e+00	0	42	0	2701131776	49	4046
2026-01-29 06:14:39.34	308.52	19.97	-39.1	-39.9	24.3	0.00e+00	0	42	0	2706374656	49	4007
2026-01-29 06:14:40.35	308.32	19.89	-39.2	-39.9	24.2	0.00e+00	0	42	0	2711617536	49	4037
2026-01-29 06:14:41.36	308.11	19.81	-39.4	-40.1	24.1	0.00e+00	0	42	0	2717908992	49	4122
2026-01-29 06:14:42.37	307.91	19.73	-39.5	-40.3	23.9	0.00e+00	0	42	0	2724200448	49	4195
2026-01-29 06:14:43.37	307.71	19.66	-39.5	-40.2	23.9	0.00e+00	0	42	0	2729443328	49	4184
2026-01-29 06:14:44.38	307.51	19.58	-39.5	-40.2	24.0	0.00e+00	0	42	0	2734686208	49	4167
2026-01-29 06:14:45.39	307.31	19.50	-39.5	-40.2	24.0	0.00e+00	0	42	0	2740977664	49	4171
2026-01-29 06:14:46.40	307.11	19.43	-39.4	-40.1	24.0	0.00e+00	0	42	0	2746220544	49	4114
2026-01-29 06:14:47.41	306.91	19.35	-39.3	-40.0	24.1	0.00e+00	0	42	0	2752512000	49	4065
2026-01-29 06:14:48.41	306.72	19.27	-39.3	-40.0	24.1	0.00e+00	0	42	0	2757754880	49	4082
2026-01-29 06:14:49.42	306.52	19.19	-39.3	-40.0	24.1	0.00e+00	0	42	0	2762997760	49	4091
2026-01-29 06:14:50.43	306.33	19.12	-39.3	-40.0	24.1	0.00e+00	0	42	0	2769289216	49	4095
2026-01-29 06:14:51.44	306.14	19.04	-39.3	-40.1	24.1	0.00e+00	0	42	0	2774532096	49	4102
2026-01-29 06:14:52.45	305.94	18.96	-39.3	-40.0	24.1	0.00e+00	0	42	0	2779774976	49	4090
2026-01-29 06:14:53.45	305.75	18.88	-39.3	-40.0	24.1	0.00e+00	0	42	0	2786066432	49	4087
2026-01-29 06:14:54.45	305.56	18.81	-39.4	-40.2	24.0	0.00e+00	0	42	0	2791309312	49	4155
2026-01-29 06:14:55.47	305.37	18.73	-39.3	-40.1	24.0	0.00e+00	0	42	0	2797600768	49	4120
2026-01-29 06:14:56.48	305.18	18.65	-39.4	-40.1	24.0	0.00e+00	0	42	0	2802843648	49	4125
2026-01-29 06:14:57.48	305.00	18.57	-39.3	-40.1	24.0	0.00e+00	0	42	0	2809135104	49	4107
2026-01-29 06:14:58.49	304.81	18.49	-39.3	-40.0	24.1	0.00e+00	0	42	0	2814377984	49	4091
2026-01-29 06:14:59.50	304.63	18.41	-39.2	-39.9	24.2	0.00e+00	0	42	0	2819620864	49	4036
2026-01-29 06:15:00.51	304.44	18.33	-39.3	-40.0	24.1	0.00e+00	0	42	0	2825912320	49	4084
2026-01-29 06:15:01.52	304.26	18.25	-39.3	-40.0	24.1	0.00e+00	0	42	0	2831155200	49	4088
2026-01-29 06:15:02.52	304.08	18.18	-39.4	-40.1	24.0	0.00e+00	0	42	0	2837446656	49	4140
2026-01-29 06:15:03.54	303.89	18.10	-39.5	-40.2	23.9	0.00e+00	0	42	0	2842689536	49	4185
2026-01-29 06:15:04.55	303.71	18.02	-39.5	-40.3	23.8	0.00e+00	0	42	0	2847932416	49	4200
2026-01-29 06:15:05.55	303.54	17.94	-39.6	-40.3	23.8	0.00e+00	0	42	0	2854223872	49	4232
2026-01-29 06:15:06.56	303.36	17.86	-39.6	-40.4	23.8	0.00e+00	0	42	0	2859466752	49	4255
2026-01-29 06:15:07.56	303.18	17.78	-39.7	-40.5	23.7	0.00e+00	0	42	0	2865758208	49	4308
2026-01-29 06:15:08.57	303.00	17.70	-39.7	-40.5	23.6	0.00e+00	0	42	0	2871001088	50	4081
2026-01-29 06:15:09.58	302.83	17.62	-39.7	-40.5	23.7	0.00e+00	0	42	0	2877292544	50	4068
2026-01-29 06:15:10.58	302.65	17.55	-39.6	-40.4	23.7	0.00e+00	0	42	0	2882535424	50	4019
2026-01-29 06:15:11.59	302.48	17.47	-39.7	-40.4	23.7	0.00e+00	0	42	0	2887778304	50	4051
2026-01-29 06:15:12.60	302.31	17.39	-39.7	-40.5	23.7	0.00e+00	0	42	0	2894069760	50	4055
2026-01-29 06:15:13.61	302.13	17.31	-39.7	-40.4	23.7	0.00e+00	0	42	0	2899312640	50	4039
2026-01-29 06:15:14.61	301.96	17.23	-39.7	-40.4	23.7	0.00e+00	0	42	0	2904555520	50	4037
2026-01-29 06:15:15.62	301.79	17.15	-39.7	-40.4	23.7	0.00e+00	0	42	0	2910846976	50	4028
2026-01-29 06:15:16.63	301.62	17.07	-39.8	-40.5	23.6	0.00e+00	0	42	0	2916089856	50	4096
2026-01-29 06:15:17.64	301.46	16.99	-39.7	-40.5	23.6	0.00e+00	0	42	0	2922381312	50	4064
2026-01-29 06:15:18.65	301.29	16.91	-39.8	-40.6	23.5	0.00e+00	0	42	0	2927624192	50	4116
2026-01-29 06:15:19.66	301.12	16.83	-39.9	-40.6	23.5	0.00e+00	0	42	0	2932867072	50	4137
2026-01-29 06:15:20.67	300.95	16.76	-40.0	-40.8	23.4	0.00e+00	0	42	0	2939158528	50	4208
2026-01-29 06:15:21.68	300.79	16.68	-39.9	-40.7	23.5	0.00e+00	0	42	0	2945449984	50	4154
2026-01-29 06:15:22.68	300.63	16.60	-40.0	-40.8	23.4	0.00e+00	0	42	0	2950692864	50	4211
2026-01-29 06:15:23.69	300.46	16.52	-40.1	-40.9	23.3	0.00e+00	0	42	0	2955935744	50	4252
2026-01-29 06:15:24.70	300.30	16.44	-40.2	-41.0	23.2	0.00e+00	0	42	0	2962227200	50	4293
2026-01-29 06:15:25.71	300.14	16.36	-40.2	-40.9	23.2	0.00e+00	0	42	0	2967470080	50	4287
2026-01-29 06:15:26.71	299.98	16.28	-40.2	-40.9	23.2	0.00e+00	0	42	0	2972712960	50	4284
2026-01-29 06:15:27.72	299.82	16.20	-40.2	-41.0	23.2	0.00e+00	0	42	0	2979004416	50	4305
2026-01-29 06:15:28.73	299.66	16.12	-40.2	-41.0	23.1	0.00e+00	0	42	0	2984247296	51	4085
2026-01-29 06:15:29.73	299.50	16.05	-40.2	-41.0	23.1	0.00e+00	0	42	0	2989490176	51	4083
2026-01-29 06:15:30.74	299.35	15.97	-40.2	-41.0	23.1	0.00e+00	0	42	0	2995781632	51	4085
2026-01-29 06:15:31.75	299.19	15.89	-40.2	-41.0	23.2	0.00e+00	0	42	0	3001024512	51	4071
2026-01-29 06:15:32.75	299.04	15.81	-40.4	-41.1	23.0	0.00e+00	0	42	0	3007315968	51	4144
2026-01-29 06:15:33.76	298.88	15.73	-40.3	-41.1	23.1	0.00e+00	0	42	0	3012558848	51	4133
2026-01-29 06:15:34.77	298.73	15.65	-40.3	-41.1	23.0	0.00e+00	0	42	0	3018850304	51	4118
2026-01-29 06:15:35.78	298.57	15.57	-40.4	-41.2	22.9	0.00e+00	0	42	0	3024093184	51	4189
2026-01-29 06:15:36.79	298.42	15.49	-40.5	-41.2	22.9	0.00e+00	0	42	0	3030384640	51	4193
2026-01-29 06:15:37.80	298.27	15.42	-40.4	-41.2	22.9	0.00e+00	0	42	0	3035627520	51	4173
2026-01-29 06:15:38.80	298.12	15.34	-40.4	-41.2	22.9	0.00e+00	0	42	0	3040870400	51	4181
2026-01-29 06:15:39.81	297.97	15.26	-40.4	-41.2	22.9	0.00e+00	0	42	0	3047161856	51	4184
2026-01-29 06:15:40.82	297.82	15.18	-40.5	-41.3	22.9	0.00e+00	0	42	0	3052404736	51	4203
2026-01-29 06:15:41.83	297.67	15.10	-40.6	-41.4	22.8	0.00e+00	0	42	0	3057647616	51	4250
2026-01-29 06:15:42.83	297.53	15.02	-40.6	-41.4	22.7	0.00e+00	0	42	0	3063939072	51	4287
2026-01-29 06:15:43.84	297.38	14.95	-40.7	-41.5	22.5	0.00e+00	0	42	0	3069181952	52	4097
2026-01-29 06:15:44.85	297.23	14.87	-40.6	-41.4	22.7	0.00e+00	0	42	0	3074424832	52	4040
2026-01-29 06:15:45.86	297.09	14.79	-40.5	-41.3	22.8	0.00e+00	0	42	0	3080716288	52	3975
2026-01-29 06:15:46.87	296.94	14.71	-40.6	-41.4	22.7	0.00e+00	0	42	0	3087007744	52	4012
2026-01-29 06:15:47.87	296.80	14.63	-40.6	-41.4	22.6	0.00e+00	0	42	0	3092250624	52	4035
2026-01-29 06:15:48.89	296.66	14.56	-40.7	-41.5	22.6	0.00e+00	0	42	0	3097493504	52	4063
2026-01-29 06:15:49.89	296.52	14.48	-40.5	-41.3	22.7	0.00e+00	0	42	0	3103784960	52	3999
2026-01-29 06:15:50.90	296.38	14.40	-40.5	-41.3	22.8	0.00e+00	0	42	0	3109027840	52	3963
2026-01-29 06:15:51.91	296.23	14.32	-40.6	-41.4	22.6	0.00e+00	0	42	0	3115319296	52	4033
2026-01-29 06:15:52.92	296.09	14.24	-40.6	-41.5	22.6	0.00e+00	0	42	0	3120562176	52	4052
2026-01-29 06:15:53.93	295.96	14.17	-40.5	-41.3	22.7	0.00e+00	0	42	0	3125805056	52	3998
2026-01-29 06:15:54.94	295.82	14.09	-40.6	-41.4	22.7	0.00e+00	0	42	0	3132096512	52	4007
2026-01-29 06:15:55.95	295.68	14.01	-40.7	-41.5	22.6	0.00e+00	0	42	0	3137339392	52	4073
2026-01-29 06:15:56.95	295.54	13.94	-40.9	-41.7	22.4	0.00e+00	0	42	0	3142582272	52	4154
2026-01-29 06:15:57.96	295.41	13.86	-40.8	-41.7	22.4	0.00e+00	0	42	0	3148873728	52	4146
2026-01-29 06:15:58.97	295.27	13.78	-40.9	-41.7	22.3	0.00e+00	0	42	0	3155165184	52	4180
2026-01-29 06:15:59.97	295.14	13.70	-40.9	-41.7	22.4	0.00e+00	0	42	0	3160408064	52	4186
2026-01-29 06:16:00.99	295.00	13.63	-40.9	-41.7	22.4	0.00e+00	0	42	0	3165650944	52	4183
2026-01-29 06:16:01.99	294.87	13.55	-40.9	-41.7	22.3	0.00e+00	0	42	0	3171942400	52	4192
2026-01-29 06:16:03.00	294.74	13.47	-40.9	-41.8	22.4	0.00e+00	0	42	0	3177185280	52	4197
2026-01-29 06:16:04.01	294.61	13.40	-41.1	-42.0	22.2	0.00e+00	0	42	0	3182428160	52	4304
2026-01-29 06:16:05.02	294.47	13.32	-41.1	-41.9	22.2	0.00e+00	0	42	0	3188719616	52	4264
2026-01-29 06:16:06.03	294.34	13.24	-41.1	-42.0	22.1	0.00e+00	0	42	0	3193962496	52	4311
2026-01-29 06:16:07.04	294.21	13.17	-41.0	-41.9	22.3	0.00e+00	0	42	0	3200253952	52	4250
2026-01-29 06:16:08.05	294.09	13.09	-41.1	-41.9	22.2	0.00e+00	0	42	0	3205496832	52	4279
2026-01-29 06:16:09.06	293.96	13.01	-41.0	-41.9	22.2	0.00e+00	0	42	0	3210739712	52	4255
2026-01-29 06:16:10.07	293.83	12.94	-41.1	-41.9	22.2	0.00e+00	0	42	0	3217031168	52	4277
2026-01-29 06:16:11.07	293.70	12.86	-41.2	-42.0	22.1	0.00e+00	0	42	0	3223322624	53	4094
2026-01-29 06:16:12.08	293.58	12.79	-41.3	-42.1	22.0	0.00e+00	0	42	0	3228565504	53	4125
2026-01-29 06:16:13.09	293.45	12.71	-41.3	-42.2	22.0	0.00e+00	0	42	0	3233808384	53	4166
2026-01-29 06:16:14.10	293.33	12.63	-41.4	-42.2	21.9	0.00e+00	0	42	0	3240099840	53	4192
2026-01-29 06:16:15.11	293.20	12.56	-41.5	-42.4	21.8	0.00e+00	0	42	0	3245342720	53	4250
2026-01-29 06:16:16.12	293.08	12.48	-41.6	-42.4	21.7	0.00e+00	0	42	0	3250585600	53	4285
2026-01-29 06:16:17.13	292.95	12.41	-41.6	-42.5	21.7	0.00e+00	0	42	0	3256877056	53	4315
2026-01-29 06:16:18.13	292.83	12.33	-41.6	-42.5	21.6	0.00e+00	0	42	0	3262119936	53	4320
2026-01-29 06:16:19.14	292.71	12.26	-41.5	-42.4	21.8	0.00e+00	0	42	0	3267362816	53	4254
2026-01-29 06:16:20.15	292.59	12.18	-41.5	-42.4	21.8	0.00e+00	0	42	0	3273654272	53	4249
2026-01-29 06:16:21.16	292.47	12.11	-41.5	-42.4	21.7	0.00e+00	0	42	0	3278897152	53	4252
2026-01-29 06:16:22.17	292.35	12.03	-41.6	-42.4	21.7	0.00e+00	0	42	0	3285188608	53	4283
2026-01-29 06:16:23.17	292.23	11.96	-41.6	-42.4	21.7	0.00e+00	0	42	0	3290431488	53	4272
2026-01-29 06:16:24.18	292.11	11.88	-41.5	-42.4	21.7	0.00e+00	0	42	0	3296722944	53	4262
2026-01-29 06:16:25.19	291.99	11.81	-41.6	-42.4	21.7	0.00e+00	0	42	0	3301965824	53	4285
2026-01-29 06:16:26.20	291.88	11.73	-41.6	-42.4	21.7	0.00e+00	0	42	0	3308257280	53	4277
2026-01-29 06:16:27.21	291.76	11.66	-41.6	-42.4	21.7	0.00e+00	0	42	0	3313500160	53	4276
2026-01-29 06:16:28.22	291.64	11.58	-41.6	-42.4	21.7	0.00e+00	0	42	0	3318743040	53	4285
2026-01-29 06:16:29.22	291.53	11.51	-41.5	-42.4	21.7	0.00e+00	0	42	0	3325034496	53	4253
2026-01-29 06:16:30.23	291.41	11.44	-41.6	-42.5	21.7	0.00e+00	0	42	0	3330277376	53	4298
2026-01-29 06:16:31.24	291.30	11.36	-41.7	-42.5	21.6	0.00e+00	0	42	0	3335520256	53	4326
2026-01-29 06:16:32.25	291.18	11.29	-41.7	-42.6	21.6	0.00e+00	0	42	0	3341811712	53	4344
2026-01-29 06:16:33.26	291.07	11.21	-41.6	-42.4	21.7	0.00e+00	0	42	0	3347054592	53	4275
2026-01-29 06:16:34.27	290.96	11.14	-41.7	-42.5	21.6	0.00e+00	0	42	0	3353346048	53	4329
2026-01-29 06:16:35.27	290.85	11.07	-41.7	-42.6	21.5	0.00e+00	0	42	0	3358588928	54	4125
2026-01-29 06:16:36.28	290.74	10.99	-41.8	-42.6	21.5	0.00e+00	0	42	0	3364880384	54	4136
2026-01-29 06:16:37.29	290.62	10.92	-42.0	-42.9	21.2	0.00e+00	0	42	0	3370123264	54	4279
2026-01-29 06:16:38.30	290.51	10.85	-42.2	-43.1	21.0	0.00e+00	0	42	0	3375366144	54	4362
2026-01-29 06:16:39.31	290.40	10.77	-42.1	-43.1	21.1	0.00e+00	0	42	0	3381657600	55	4099
2026-01-29 06:16:40.31	290.30	10.70	-42.0	-42.9	21.3	0.00e+00	0	42	0	3386900480	55	4017
2026-01-29 06:16:41.32	290.19	10.63	-42.0	-42.9	21.2	0.00e+00	0	42	0	3393191936	55	4047
2026-01-29 06:16:42.33	290.08	10.56	-42.2	-43.1	21.1	0.00e+00	0	42	0	3398434816	55	4113
2026-01-29 06:16:43.34	289.97	10.48	-42.2	-43.1	21.0	0.00e+00	0	42	0	3403677696	55	4138
2026-01-29 06:16:44.35	289.86	10.41	-42.2	-43.2	21.0	0.00e+00	0	42	0	3409969152	55	4148
2026-01-29 06:16:45.35	289.76	10.34	-42.1	-43.0	21.1	0.00e+00	0	42	0	3415212032	55	4070
2026-01-29 06:16:46.36	289.65	10.27	-42.2	-43.1	21.0	0.00e+00	0	42	0	3421503488	55	4112
2026-01-29 06:16:47.37	289.55	10.19	-42.2	-43.1	21.0	0.00e+00	0	42	0	3426746368	55	4113
2026-01-29 06:16:48.38	289.44	10.12	-42.2	-43.2	20.9	0.00e+00	0	42	0	3433037824	55	4155
2026-01-29 06:16:49.39	289.34	10.05	-42.2	-43.1	20.9	0.00e+00	0	42	0	3438280704	55	4140
2026-01-29 06:16:50.39	289.23	9.98	-42.3	-43.2	20.9	0.00e+00	0	42	0	3443523584	55	4166
2026-01-29 06:16:51.40	289.13	9.91	-42.3	-43.2	20.8	0.00e+00	0	42	0	3449815040	55	4176
2026-01-29 06:16:52.41	289.03	9.83	-42.2	-43.2	20.8	0.00e+00	0	42	0	3455057920	55	4159
2026-01-29 06:16:53.42	288.93	9.76	-42.2	-43.2	20.8	0.00e+00	0	42	0	3460300800	55	4151
2026-01-29 06:16:54.43	288.82	9.69	-42.3	-43.2	20.7	0.00e+00	0	42	0	3466592256	55	4193
2026-01-29 06:16:55.43	288.72	9.62	-42.3	-43.2	20.8	0.00e+00	0	42	0	3471835136	55	4169
2026-01-29 06:16:56.44	288.62	9.55	-42.2	-43.1	20.9	0.00e+00	0	42	0	3478126592	55	4120
2026-01-29 06:16:57.45	288.52	9.48	-42.3	-43.3	20.7	0.00e+00	0	42	0	3483369472	55	4197
2026-01-29 06:16:58.45	288.42	9.41	-42.2	-43.2	20.8	0.00e+00	0	42	0	3488612352	55	4156
2026-01-29 06:16:59.46	288.32	9.34	-42.2	-43.2	20.7	0.00e+00	0	42	0	3494903808	55	4156
2026-01-29 06:17:00.47	288.22	9.27	-42.2	-43.2	20.8	0.00e+00	0	42	0	3501195264	55	4153
2026-01-29 06:17:01.48	288.13	9.20	-42.4	-43.3	20.6	0.00e+00	0	42	0	3506438144	55	4226
2026-01-29 06:17:02.49	288.03	9.12	-42.4	-43.3	20.6	0.00e+00	0	42	0	3511681024	55	4239
2026-01-29 06:17:03.49	287.93	9.05	-42.4	-43.3	20.6	0.00e+00	0	42	0	3517972480	55	4228
2026-01-29 06:17:04.50	287.84	8.98	-42.6	-43.6	20.3	0.00e+00	0	42	0	3523215360	55	4375
2026-01-29 06:17:05.51	287.74	8.91	-42.6	-43.6	20.3	0.00e+00	0	42	0	3528458240	55	4381
2026-01-29 06:17:06.52	287.64	8.84	-42.6	-43.6	20.3	0.00e+00	0	42	0	3534749696	55	4350
2026-01-29 06:17:07.53	287.55	8.77	-42.5	-43.5	20.3	0.00e+00	0	42	0	3539992576	55	4330
2026-01-29 06:17:08.53	287.45	8.71	-42.6	-43.6	20.3	0.00e+00	0	42	0	3545235456	55	4344
2026-01-29 06:17:09.54	287.36	8.64	-42.6	-43.6	20.2	0.00e+00	0	42	0	3551526912	55	4353
2026-01-29 06:17:10.55	287.26	8.57	-42.8	-43.8	20.1	0.00e+00	0	42	0	3556769792	56	4213
2026-01-29 06:17:11.55	287.17	8.50	-42.7	-43.7	20.2	0.00e+00	0	42	0	3563061248	56	4169
2026-01-29 06:17:12.56	287.08	8.43	-42.9	-43.9	20.0	0.00e+00	0	42	0	3568304128	56	4254
2026-01-29 06:17:13.57	286.99	8.36	-42.8	-43.8	20.0	0.00e+00	0	42	0	3574595584	56	4237
2026-01-29 06:17:14.58	286.89	8.29	-42.8	-43.7	20.1	0.00e+00	0	42	0	3579838464	56	4193
2026-01-29 06:17:15.58	286.80	8.22	-42.8	-43.8	20.1	0.00e+00	0	42	0	3586129920	56	4206
2026-01-29 06:17:16.59	286.71	8.15	-42.6	-43.6	20.2	0.00e+00	0	42	0	3591372800	56	4122
2026-01-29 06:17:17.60	286.62	8.08	-42.8	-43.8	20.1	0.00e+00	0	42	0	3596615680	56	4194
2026-01-29 06:17:18.61	286.53	8.01	-42.7	-43.7	20.1	0.00e+00	0	42	0	3602907136	56	4192
2026-01-29 06:17:19.62	286.44	7.95	-42.7	-43.7	20.1	0.00e+00	0	42	0	3608150016	56	4154
2026-01-29 06:17:20.63	286.35	7.88	-42.6	-43.6	20.2	0.00e+00	0	42	0	3613392896	56	4106
2026-01-29 06:17:21.64	286.26	7.81	-42.6	-43.6	20.2	0.00e+00	0	42	0	3619684352	56	4111
2026-01-29 06:17:22.65	286.17	7.74	-42.7	-43.7	20.1	0.00e+00	0	42	0	3624927232	56	4179
2026-01-29 06:17:23.66	286.08	7.67	-42.6	-43.6	20.2	0.00e+00	0	42	0	3630170112	56	4137
2026-01-29 06:17:24.67	286.00	7.60	-42.6	-43.6	20.1	0.00e+00	0	42	0	3636461568	56	4140
2026-01-29 06:17:25.67	285.91	7.54	-42.7	-43.6	20.1	0.00e+00	0	42	0	3642753024	56	4145
2026-01-29 06:17:26.68	285.82	7.47	-42.8	-43.8	20.0	0.00e+00	0	42	0	3647995904	56	4215
2026-01-29 06:17:27.69	285.74	7.40	-42.8	-43.8	19.9	0.00e+00	0	42	0	3653238784	56	4236
2026-01-29 06:17:28.70	285.65	7.33	-43.1	-44.1	19.6	0.00e+00	0	42	0	3659530240	56	4375
2026-01-29 06:17:29.71	285.56	7.27	-42.9	-43.9	19.8	0.00e+00	0	42	0	3664773120	56	4288
2026-01-29 06:17:30.72	285.48	7.20	-42.8	-43.9	19.8	0.00e+00	0	42	0	3671064576	56	4245
2026-01-29 06:17:31.73	285.39	7.13	-43.0	-44.1	19.6	0.00e+00	0	42	0	3676307456	56	4357
