passes_logs/2026/01/29/R3.2S_Murmansk/R3.2S_Murmansk__20260129_120926_NOAA_20_JPSS-1_rec.log

#Pass ID: 20260129_120926_NOAA 20 (JPSS-1)
#Satellite: NOAA 20 (JPSS-1)
#Configuration: NOAA 20
#almurnet v.1.7.20251203
#Start time: 2026-01-29 12:09:26

#Version: 2.2.20231116
#Station: R3.2S_Murmansk
#Location: 33.079688 lon 68.888172 lat
#TLE: 1 43013U 17073A   26028.86313978  .00000144  00000+0  89200-4 0  9993
#TLE: 2 43013  98.7648 329.6571 0000891  20.0014 340.1197 14.19541559424709

#Time	Az	El	Level	Level2	SNR	BER	BlckErr	Temp	State	Recorded	gain1	gain2
2026-01-29 12:09:26.29	218.61	1.99	-54.0	-69.0	3.8	1.49e+00	0	39	0	0	79	20470
2026-01-29 12:09:27.30	218.68	2.04	-54.0	-69.0	3.8	1.49e+00	0	39	104	0	78	21724
2026-01-29 12:09:28.31	218.76	2.10	-54.0	-69.0	3.8	1.49e+00	0	40	104	0	78	21674
2026-01-29 12:09:29.32	218.84	2.15	-54.0	-69.0	3.8	1.49e+00	0	40	104	0	78	21610
2026-01-29 12:09:30.32	218.92	2.20	-54.0	-69.0	3.8	1.49e+00	0	40	104	0	78	21507
2026-01-29 12:09:31.32	219.00	2.26	-54.0	-68.9	3.8	1.49e+00	0	40	104	0	78	21466
2026-01-29 12:09:32.33	219.08	2.31	-54.0	-69.0	3.8	1.49e+00	0	40	104	0	78	21514
2026-01-29 12:09:33.34	219.15	2.37	-54.0	-68.9	3.8	1.49e+00	0	40	104	0	78	21436
2026-01-29 12:09:34.35	219.23	2.42	-54.0	-68.9	3.8	1.49e+00	0	40	104	0	78	21479
2026-01-29 12:09:35.36	219.31	2.47	-54.0	-68.9	3.8	1.49e+00	0	40	104	0	78	21460
2026-01-29 12:09:36.37	219.39	2.53	-54.0	-69.0	3.8	1.49e+00	0	40	104	0	78	21567
2026-01-29 12:09:37.37	219.47	2.58	-54.2	-69.2	3.8	1.49e+00	0	40	104	0	78	22032
2026-01-29 12:09:38.38	219.55	2.64	-54.3	-69.3	3.8	1.49e+00	0	40	104	0	79	21027
2026-01-29 12:09:39.39	219.64	2.69	-54.4	-69.3	3.8	1.49e+00	0	40	104	0	79	21247
2026-01-29 12:09:40.40	219.72	2.75	-54.4	-69.4	3.8	1.49e+00	0	40	104	0	79	21300
2026-01-29 12:09:41.40	219.80	2.80	-54.4	-69.4	3.8	1.49e+00	0	40	104	0	79	21324
2026-01-29 12:09:42.41	219.88	2.85	-54.3	-69.4	3.8	1.49e+00	0	40	104	0	79	21285
2026-01-29 12:09:43.42	219.96	2.91	-54.3	-69.3	3.8	1.49e+00	0	40	104	0	79	21142
2026-01-29 12:09:44.43	220.04	2.96	-54.3	-69.2	3.8	1.49e+00	0	40	104	0	79	20989
2026-01-29 12:09:45.44	220.13	3.02	-54.2	-69.2	3.8	1.49e+00	0	40	104	0	79	20922
2026-01-29 12:09:46.44	220.21	3.07	-54.2	-69.2	3.8	1.49e+00	0	40	104	0	79	20844
2026-01-29 12:09:47.45	220.29	3.13	-54.1	-69.1	3.8	1.49e+00	0	40	104	0	79	20707
2026-01-29 12:09:48.46	220.38	3.18	-54.1	-69.1	3.8	1.49e+00	0	40	104	0	79	20548
2026-01-29 12:09:49.46	220.46	3.24	-54.0	-69.0	3.8	1.49e+00	0	40	104	0	79	20443
2026-01-29 12:09:50.47	220.54	3.29	-54.0	-69.0	3.8	1.49e+00	0	40	104	0	79	20382
2026-01-29 12:09:51.48	220.63	3.35	-53.9	-68.9	3.8	1.49e+00	0	40	104	0	79	20199
2026-01-29 12:09:52.49	220.71	3.40	-53.8	-68.8	3.8	1.49e+00	0	40	104	0	79	19960
2026-01-29 12:09:53.50	220.80	3.46	-53.8	-68.7	3.8	1.49e+00	0	40	104	0	79	19710
2026-01-29 12:09:54.51	220.88	3.51	-53.7	-68.7	3.8	1.49e+00	0	40	104	0	79	19636
2026-01-29 12:09:55.51	220.97	3.57	-53.6	-68.6	3.8	1.49e+00	0	40	104	0	79	19479
2026-01-29 12:09:56.52	221.05	3.63	-53.4	-68.4	3.8	1.49e+00	0	40	104	0	78	20199
2026-01-29 12:09:57.52	221.14	3.68	-53.2	-68.2	3.8	1.49e+00	0	40	104	0	78	19680
2026-01-29 12:09:58.53	221.23	3.74	-52.8	-67.8	3.8	1.49e+00	0	41	104	0	77	19928
2026-01-29 12:09:59.53	221.31	3.79	-52.5	-67.4	3.8	1.49e+00	0	40	104	0	77	18981
2026-01-29 12:10:00.54	221.40	3.85	-52.4	-67.3	3.8	1.49e+00	0	40	104	0	76	20025
2026-01-29 12:10:01.55	221.49	3.90	-52.4	-67.4	3.8	1.49e+00	0	41	104	0	76	20075
2026-01-29 12:10:02.56	221.57	3.96	-52.4	-67.3	3.8	1.49e+00	0	41	104	0	76	20039
2026-01-29 12:10:03.57	221.66	4.01	-52.4	-67.3	3.8	1.49e+00	0	41	104	0	76	20007
2026-01-29 12:10:04.57	221.75	4.07	-52.4	-67.3	3.8	1.49e+00	0	41	104	0	76	19981
2026-01-29 12:10:05.58	221.84	4.13	-52.4	-67.3	3.8	1.49e+00	0	41	104	0	76	20004
2026-01-29 12:10:06.59	221.93	4.18	-52.4	-67.3	3.8	1.49e+00	0	41	104	0	76	19909
2026-01-29 12:10:07.59	222.02	4.24	-52.4	-67.2	3.8	1.49e+00	0	41	104	0	76	19649
2026-01-29 12:10:08.60	222.11	4.29	-52.4	-67.0	3.8	1.49e+00	0	41	104	0	76	19174
2026-01-29 12:10:09.60	222.20	4.35	-52.4	-66.8	3.8	1.49e+00	0	41	104	0	76	18891
2026-01-29 12:10:10.61	222.29	4.41	-52.4	-66.8	3.8	1.49e+00	0	41	104	0	76	18758
2026-01-29 12:10:11.62	222.38	4.46	-52.3	-66.6	3.8	1.49e+00	0	41	104	0	76	18451
2026-01-29 12:10:12.62	222.47	4.52	-52.3	-66.3	3.8	1.49e+00	0	41	104	0	76	17873
2026-01-29 12:10:13.63	222.56	4.58	-52.3	-65.2	3.8	1.49e+00	0	41	104	0	76	15605
2026-01-29 12:10:14.64	222.65	4.63	-52.1	-62.7	4.6	1.31e+00	7	41	0	0	76	11689
2026-01-29 12:10:15.64	222.74	4.69	-51.8	-60.3	5.9	5.56e-01	0	41	0	2097152	75	9443
2026-01-29 12:10:16.65	222.83	4.75	-51.4	-58.4	7.6	2.05e-01	0	41	0	3145728	74	8008
2026-01-29 12:10:17.66	222.93	4.80	-50.8	-56.1	9.9	1.69e-02	0	41	0	5242880	73	6539
2026-01-29 12:10:18.67	223.02	4.86	-50.3	-54.7	11.4	2.57e-03	0	41	0	7340032	72	5862
2026-01-29 12:10:19.68	223.11	4.92	-49.9	-53.8	12.5	3.27e-04	0	41	0	9437184	71	5607
2026-01-29 12:10:20.69	223.21	4.97	-49.7	-53.4	12.9	5.11e-05	0	41	0	11534336	71	5368
2026-01-29 12:10:21.70	223.30	5.03	-49.5	-52.9	13.4	1.67e-05	0	41	0	13631488	71	5061
2026-01-29 12:10:22.71	223.40	5.09	-49.6	-53.3	13.0	1.37e-05	0	41	0	14680064	70	5593
2026-01-29 12:10:23.71	223.49	5.14	-52.2	-65.0	4.0	4.31e-01	59	41	0	16777216	74	17280
2026-01-29 12:10:24.72	223.59	5.20	-47.5	-49.5	16.2	1.28e+00	0	41	104	16777216	67	4340
2026-01-29 12:10:25.73	223.68	5.26	-49.6	-52.9	13.7	0.00e+00	0	41	0	17825792	69	5705
2026-01-29 12:10:26.73	223.78	5.32	-47.4	-49.5	16.9	8.46e-05	0	41	0	19922944	66	4561
2026-01-29 12:10:27.74	223.87	5.37	-47.4	-49.5	16.8	0.00e+00	0	41	0	22020096	66	4548
2026-01-29 12:10:28.75	223.97	5.43	-47.2	-49.2	17.1	0.00e+00	0	41	0	23068672	66	4430
2026-01-29 12:10:29.75	224.07	5.49	-47.2	-49.3	17.1	0.00e+00	0	41	0	25165824	66	4452
2026-01-29 12:10:30.76	224.16	5.54	-47.3	-49.4	16.9	0.00e+00	0	41	0	27262976	66	4510
2026-01-29 12:10:31.76	224.26	5.60	-47.2	-49.3	17.1	0.00e+00	0	41	0	29360128	66	4460
2026-01-29 12:10:32.77	224.36	5.66	-47.0	-49.0	17.3	0.00e+00	0	41	0	31457280	66	4314
2026-01-29 12:10:33.78	224.46	5.72	-47.1	-49.1	17.3	0.00e+00	0	41	0	32505856	66	4345
2026-01-29 12:10:34.79	224.56	5.78	-47.2	-49.2	17.2	0.00e+00	0	41	0	34603008	66	4409
2026-01-29 12:10:35.80	224.65	5.83	-47.2	-49.1	17.3	0.00e+00	0	41	0	36700160	66	4390
2026-01-29 12:10:36.80	224.75	5.89	-47.1	-49.1	17.3	0.00e+00	0	41	0	38797312	66	4359
2026-01-29 12:10:37.81	224.85	5.95	-47.0	-49.0	17.5	0.00e+00	0	41	0	40894464	66	4299
2026-01-29 12:10:38.82	224.95	6.01	-47.1	-49.1	17.4	0.00e+00	0	41	0	41943040	66	4347
2026-01-29 12:10:39.83	225.05	6.06	-47.1	-49.1	17.3	0.00e+00	0	41	0	44040192	66	4362
2026-01-29 12:10:40.83	225.15	6.12	-47.2	-49.2	17.2	0.00e+00	0	41	0	46137344	66	4440
2026-01-29 12:10:41.84	225.26	6.18	-47.3	-49.3	17.2	0.00e+00	0	41	0	48234496	66	4473
2026-01-29 12:10:42.85	225.36	6.24	-47.4	-49.4	17.1	0.00e+00	0	41	0	50331648	66	4511
2026-01-29 12:10:43.85	225.46	6.30	-47.1	-49.1	17.4	0.00e+00	0	41	0	51380224	66	4350
2026-01-29 12:10:44.86	225.56	6.36	-47.3	-49.3	17.2	0.00e+00	0	41	0	53477376	66	4471
2026-01-29 12:10:45.87	225.67	6.41	-47.2	-49.2	17.3	0.00e+00	0	41	0	55574528	66	4408
2026-01-29 12:10:46.87	225.77	6.47	-47.1	-49.1	17.4	0.00e+00	0	41	0	57671680	66	4357
2026-01-29 12:10:47.88	225.87	6.53	-47.1	-49.1	17.4	0.00e+00	0	41	0	59768832	66	4355
2026-01-29 12:10:48.89	225.98	6.59	-47.1	-49.0	17.5	0.00e+00	0	41	0	60817408	66	4332
2026-01-29 12:10:49.90	226.08	6.65	-47.0	-48.9	17.6	0.00e+00	0	41	0	62914560	66	4244
2026-01-29 12:10:50.91	226.19	6.71	-47.0	-48.9	17.6	0.00e+00	0	41	0	65011712	65	4540
2026-01-29 12:10:51.91	226.29	6.76	-47.1	-49.0	17.5	0.00e+00	0	41	0	67108864	65	4585
2026-01-29 12:10:52.92	226.40	6.82	-47.0	-48.9	17.6	0.00e+00	0	41	0	69206016	65	4527
2026-01-29 12:10:53.93	226.50	6.88	-46.9	-48.8	17.7	0.00e+00	0	41	0	70254592	65	4461
2026-01-29 12:10:54.93	226.61	6.94	-47.0	-48.9	17.7	0.00e+00	0	41	0	72351744	65	4513
2026-01-29 12:10:55.94	226.72	7.00	-47.0	-48.9	17.7	0.00e+00	0	41	0	74448896	65	4511
2026-01-29 12:10:56.94	226.82	7.06	-46.9	-48.7	17.9	0.00e+00	0	41	0	76546048	65	4407
2026-01-29 12:10:57.95	226.93	7.12	-46.9	-48.8	17.8	0.00e+00	0	41	0	78643200	65	4451
2026-01-29 12:10:58.95	227.04	7.18	-46.9	-48.8	17.8	0.00e+00	0	41	0	79691776	65	4472
2026-01-29 12:10:59.96	227.15	7.24	-47.0	-48.9	17.7	0.00e+00	0	41	0	81788928	65	4517
2026-01-29 12:11:00.97	227.26	7.29	-46.9	-48.7	17.9	0.00e+00	0	41	0	83886080	65	4419
2026-01-29 12:11:01.98	227.37	7.35	-46.9	-48.8	17.8	0.00e+00	0	41	0	85983232	65	4446
2026-01-29 12:11:02.99	227.48	7.41	-46.9	-48.7	17.9	0.00e+00	0	41	0	88080384	65	4429
2026-01-29 12:11:04.00	227.59	7.47	-46.9	-48.7	17.9	0.00e+00	0	41	0	89128960	65	4432
2026-01-29 12:11:05.00	227.70	7.53	-46.8	-48.7	17.9	0.00e+00	0	41	0	91226112	65	4397
2026-01-29 12:11:06.01	227.81	7.59	-46.8	-48.6	18.0	0.00e+00	0	41	0	93323264	65	4346
2026-01-29 12:11:07.02	227.92	7.65	-46.7	-48.5	18.1	0.00e+00	0	41	0	95420416	65	4320
2026-01-29 12:11:08.02	228.03	7.71	-46.8	-48.5	18.1	0.00e+00	0	41	0	97517568	65	4334
2026-01-29 12:11:09.03	228.14	7.77	-46.8	-48.5	18.1	0.00e+00	0	41	0	98566144	65	4338
2026-01-29 12:11:10.03	228.26	7.83	-46.7	-48.4	18.2	0.00e+00	0	41	0	100663296	65	4288
2026-01-29 12:11:11.04	228.37	7.89	-46.6	-48.3	18.2	0.00e+00	0	41	0	102760448	65	4238
2026-01-29 12:11:12.05	228.48	7.95	-46.7	-48.4	18.2	0.00e+00	0	41	0	104857600	65	4272
2026-01-29 12:11:13.05	228.60	8.01	-46.7	-48.4	18.2	0.00e+00	0	41	0	106954752	65	4271
2026-01-29 12:11:14.05	228.71	8.07	-46.6	-48.3	18.4	0.00e+00	0	41	0	108003328	65	4212
2026-01-29 12:11:15.06	228.83	8.13	-46.6	-48.3	18.4	0.00e+00	0	41	0	110100480	65	4195
2026-01-29 12:11:16.07	228.94	8.19	-46.5	-48.2	18.5	0.00e+00	0	41	0	112197632	65	4159
2026-01-29 12:11:17.08	229.06	8.25	-46.4	-48.0	18.6	0.00e+00	0	41	0	114294784	64	4332
2026-01-29 12:11:18.09	229.17	8.31	-46.3	-47.9	18.7	0.00e+00	0	41	0	116391936	64	4290
2026-01-29 12:11:19.09	229.29	8.37	-46.4	-48.0	18.7	0.00e+00	0	41	0	117440512	64	4322
2026-01-29 12:11:20.10	229.41	8.43	-46.3	-48.0	18.7	0.00e+00	0	41	0	119537664	64	4301
2026-01-29 12:11:21.11	229.53	8.49	-46.2	-47.8	18.9	0.00e+00	0	41	0	121634816	64	4210
2026-01-29 12:11:22.12	229.65	8.55	-46.2	-47.8	18.8	0.00e+00	0	41	0	123731968	64	4235
2026-01-29 12:11:23.13	229.76	8.61	-46.2	-47.8	18.8	0.00e+00	0	42	0	125829120	64	4233
2026-01-29 12:11:24.13	229.88	8.67	-46.3	-47.9	18.8	0.00e+00	0	41	0	126877696	64	4245
2026-01-29 12:11:25.14	230.00	8.73	-46.2	-47.7	18.9	0.00e+00	0	41	0	128974848	64	4190
2026-01-29 12:11:26.15	230.12	8.79	-46.2	-47.8	18.9	0.00e+00	0	41	0	131072000	64	4218
2026-01-29 12:11:27.16	230.24	8.85	-46.2	-47.7	18.9	0.00e+00	0	41	0	133169152	64	4189
2026-01-29 12:11:28.16	230.36	8.91	-46.1	-47.6	19.1	0.00e+00	0	41	0	135266304	64	4122
2026-01-29 12:11:29.17	230.49	8.97	-46.2	-47.7	19.0	0.00e+00	0	41	0	136314880	64	4187
2026-01-29 12:11:30.18	230.61	9.03	-46.1	-47.7	19.0	0.00e+00	0	41	0	138412032	64	4165
2026-01-29 12:11:31.19	230.73	9.09	-46.1	-47.7	19.0	0.00e+00	0	41	0	140509184	64	4164
2026-01-29 12:11:32.20	230.86	9.15	-46.2	-47.8	18.9	0.00e+00	0	41	0	142606336	64	4227
2026-01-29 12:11:33.20	230.98	9.21	-46.2	-47.8	18.9	0.00e+00	0	41	0	144703488	64	4210
2026-01-29 12:11:34.21	231.10	9.27	-46.2	-47.8	18.9	0.00e+00	0	41	0	145752064	64	4205
2026-01-29 12:11:35.22	231.23	9.33	-46.2	-47.7	19.0	0.00e+00	0	41	0	147849216	64	4184
2026-01-29 12:11:36.22	231.35	9.39	-46.2	-47.7	19.0	0.00e+00	0	41	0	149946368	64	4188
2026-01-29 12:11:37.23	231.48	9.45	-46.2	-47.8	19.0	0.00e+00	0	41	0	152043520	64	4195
2026-01-29 12:11:38.24	231.60	9.51	-46.2	-47.8	18.9	0.00e+00	0	41	0	154140672	64	4211
2026-01-29 12:11:39.25	231.73	9.57	-46.2	-47.8	18.9	0.00e+00	0	42	0	155189248	64	4207
2026-01-29 12:11:40.25	231.86	9.63	-46.2	-47.8	18.9	0.00e+00	0	41	0	157286400	64	4210
2026-01-29 12:11:41.26	231.98	9.69	-46.1	-47.7	19.1	0.00e+00	0	41	0	159383552	64	4159
2026-01-29 12:11:42.27	232.11	9.76	-46.2	-47.8	19.0	0.00e+00	0	41	0	161480704	64	4198
2026-01-29 12:11:43.28	232.24	9.82	-46.1	-47.7	19.1	0.00e+00	0	41	0	163577856	64	4163
2026-01-29 12:11:44.29	232.37	9.88	-46.1	-47.7	19.1	0.00e+00	0	41	0	165675008	64	4157
2026-01-29 12:11:45.29	232.50	9.94	-46.1	-47.6	19.2	0.00e+00	0	41	0	166723584	64	4116
2026-01-29 12:11:46.30	232.63	10.00	-46.0	-47.5	19.3	0.00e+00	0	41	0	168820736	64	4092
2026-01-29 12:11:47.31	232.76	10.06	-46.0	-47.5	19.3	0.00e+00	0	41	0	170917888	64	4082
2026-01-29 12:11:48.32	232.89	10.12	-46.0	-47.5	19.4	0.00e+00	0	41	0	173015040	63	4295
2026-01-29 12:11:49.33	233.03	10.18	-45.9	-47.4	19.5	0.00e+00	0	41	0	174063616	63	4267
2026-01-29 12:11:50.33	233.16	10.24	-46.0	-47.5	19.4	0.00e+00	0	41	0	176160768	63	4300
2026-01-29 12:11:51.34	233.29	10.30	-45.9	-47.3	19.5	0.00e+00	0	42	0	178257920	63	4227
2026-01-29 12:11:52.35	233.42	10.36	-45.9	-47.4	19.5	0.00e+00	0	41	0	180355072	63	4255
2026-01-29 12:11:53.36	233.56	10.43	-46.0	-47.5	19.4	0.00e+00	0	41	0	182452224	63	4314
2026-01-29 12:11:54.36	233.69	10.49	-45.8	-47.2	19.7	0.00e+00	0	41	0	183500800	63	4180
2026-01-29 12:11:55.37	233.83	10.55	-45.7	-47.2	19.7	0.00e+00	0	41	0	185597952	63	4153
2026-01-29 12:11:56.38	233.96	10.61	-45.7	-47.2	19.7	0.00e+00	0	41	0	187695104	63	4152
2026-01-29 12:11:57.39	234.10	10.67	-45.7	-47.1	19.7	0.00e+00	0	41	0	189792256	63	4142
2026-01-29 12:11:58.40	234.24	10.73	-45.7	-47.1	19.8	0.00e+00	0	41	0	191889408	63	4111
2026-01-29 12:11:59.40	234.37	10.79	-45.7	-47.1	19.8	0.00e+00	0	41	0	193986560	63	4114
2026-01-29 12:12:00.41	234.51	10.85	-45.7	-47.2	19.7	0.00e+00	0	41	0	195035136	63	4154
2026-01-29 12:12:01.42	234.65	10.91	-45.7	-47.1	19.8	0.00e+00	0	41	0	197132288	63	4107
2026-01-29 12:12:02.43	234.79	10.98	-45.7	-47.1	19.8	0.00e+00	0	42	0	199229440	63	4100
2026-01-29 12:12:03.43	234.93	11.04	-45.6	-47.0	19.9	0.00e+00	0	41	0	201326592	63	4086
2026-01-29 12:12:04.44	235.07	11.10	-45.6	-47.0	19.8	0.00e+00	0	41	0	202375168	63	4098
2026-01-29 12:12:05.45	235.21	11.16	-45.7	-47.2	19.8	0.00e+00	0	41	0	204472320	63	4150
2026-01-29 12:12:06.45	235.35	11.22	-45.7	-47.1	19.8	0.00e+00	0	42	0	206569472	63	4106
2026-01-29 12:12:07.46	235.49	11.28	-45.8	-47.2	19.7	0.00e+00	0	42	0	208666624	63	4185
2026-01-29 12:12:08.47	235.63	11.34	-45.7	-47.1	19.8	0.00e+00	0	42	0	210763776	63	4144
2026-01-29 12:12:09.48	235.78	11.40	-45.8	-47.2	19.7	0.00e+00	0	42	0	211812352	63	4163
2026-01-29 12:12:10.49	235.92	11.46	-45.9	-47.4	19.6	0.00e+00	0	41	0	213909504	63	4254
2026-01-29 12:12:11.50	236.06	11.53	-45.8	-47.3	19.7	0.00e+00	0	41	0	216006656	63	4214
2026-01-29 12:12:12.50	236.21	11.59	-45.9	-47.3	19.6	0.00e+00	0	41	0	218103808	63	4220
2026-01-29 12:12:13.51	236.35	11.65	-45.9	-47.4	19.6	0.00e+00	0	41	0	220200960	63	4249
2026-01-29 12:12:14.52	236.50	11.71	-45.9	-47.4	19.6	0.00e+00	0	41	0	222298112	63	4249
2026-01-29 12:12:15.53	236.64	11.77	-45.7	-47.1	19.8	0.00e+00	0	41	0	223346688	63	4135
2026-01-29 12:12:16.53	236.79	11.83	-45.8	-47.3	19.7	0.00e+00	0	41	0	225443840	63	4195
2026-01-29 12:12:17.53	236.94	11.89	-45.8	-47.3	19.6	0.00e+00	0	41	0	227540992	63	4212
2026-01-29 12:12:18.54	237.09	11.95	-45.6	-47.0	19.9	0.00e+00	0	41	0	229638144	63	4087
2026-01-29 12:12:19.55	237.23	12.01	-45.7	-47.1	19.8	0.00e+00	0	41	0	230686720	63	4145
2026-01-29 12:12:20.56	237.38	12.07	-45.8	-47.2	19.8	0.00e+00	0	41	0	232783872	63	4168
2026-01-29 12:12:21.57	237.53	12.13	-45.7	-47.1	19.8	0.00e+00	0	41	0	234881024	63	4123
2026-01-29 12:12:22.57	237.68	12.19	-45.7	-47.2	19.8	0.00e+00	0	41	0	236978176	63	4149
2026-01-29 12:12:23.58	237.83	12.26	-45.8	-47.2	19.7	0.00e+00	0	41	0	239075328	63	4192
2026-01-29 12:12:24.59	237.99	12.32	-45.7	-47.1	19.8	0.00e+00	0	41	0	241172480	63	4137
2026-01-29 12:12:25.60	238.14	12.38	-45.8	-47.2	19.7	0.00e+00	0	42	0	242221056	63	4154
2026-01-29 12:12:26.61	238.29	12.44	-45.8	-47.2	19.7	0.00e+00	0	41	0	244318208	63	4188
2026-01-29 12:12:27.61	238.44	12.50	-45.7	-47.1	19.8	0.00e+00	0	41	0	246415360	63	4120
2026-01-29 12:12:28.62	238.60	12.56	-45.6	-46.9	20.0	0.00e+00	0	42	0	248512512	63	4048
2026-01-29 12:12:29.63	238.75	12.62	-45.6	-46.9	20.0	0.00e+00	0	42	0	250609664	63	4051
2026-01-29 12:12:30.64	238.91	12.68	-45.5	-46.8	20.1	0.00e+00	0	42	0	251658240	63	3994
2026-01-29 12:12:31.65	239.07	12.74	-45.3	-46.6	20.3	0.00e+00	0	42	0	253755392	62	4139
2026-01-29 12:12:32.65	239.22	12.80	-45.4	-46.8	20.1	0.00e+00	0	42	0	255852544	62	4207
2026-01-29 12:12:33.66	239.38	12.86	-45.4	-46.7	20.3	0.00e+00	0	42	0	257949696	62	4163
2026-01-29 12:12:34.67	239.54	12.92	-45.4	-46.8	20.1	0.00e+00	0	41	0	260046848	62	4207
2026-01-29 12:12:35.68	239.70	12.98	-45.4	-46.8	20.2	0.00e+00	0	42	0	261095424	62	4219
2026-01-29 12:12:36.69	239.86	13.04	-45.4	-46.8	20.2	0.00e+00	0	41	0	263192576	62	4194
2026-01-29 12:12:37.69	240.01	13.10	-45.4	-46.8	20.2	0.00e+00	0	42	0	265289728	62	4204
2026-01-29 12:12:38.70	240.17	13.16	-45.5	-46.9	20.1	0.00e+00	0	41	0	267386880	62	4262
2026-01-29 12:12:39.71	240.34	13.23	-45.4	-46.8	20.2	0.00e+00	0	42	0	269484032	62	4203
2026-01-29 12:12:40.71	240.50	13.28	-45.4	-46.8	20.2	0.00e+00	0	41	0	270532608	62	4195
2026-01-29 12:12:41.72	240.66	13.35	-45.4	-46.7	20.2	0.00e+00	0	41	0	272629760	62	4178
2026-01-29 12:12:42.73	240.82	13.41	-45.5	-46.9	20.0	0.00e+00	0	41	0	274726912	62	4272
2026-01-29 12:12:43.74	240.99	13.47	-45.4	-46.7	20.2	0.00e+00	0	42	0	276824064	62	4181
2026-01-29 12:12:44.75	241.15	13.53	-45.4	-46.8	20.2	0.00e+00	0	41	0	278921216	62	4197
2026-01-29 12:12:45.75	241.31	13.58	-45.5	-46.8	20.1	0.00e+00	0	41	0	279969792	62	4238
2026-01-29 12:12:46.76	241.48	13.64	-45.5	-46.9	20.0	0.00e+00	0	42	0	282066944	62	4277
2026-01-29 12:12:47.77	241.65	13.70	-45.6	-47.0	19.9	0.00e+00	0	42	0	284164096	62	4299
2026-01-29 12:12:48.78	241.81	13.76	-45.5	-46.9	20.0	0.00e+00	0	42	0	286261248	62	4254
2026-01-29 12:12:49.79	241.98	13.82	-45.5	-46.9	20.0	0.00e+00	0	42	0	288358400	62	4263
2026-01-29 12:12:50.79	242.15	13.88	-45.6	-47.0	19.9	0.00e+00	0	41	0	289406976	62	4327
2026-01-29 12:12:51.80	242.32	13.94	-45.7	-47.1	19.9	0.00e+00	0	41	0	291504128	62	4345
2026-01-29 12:12:52.81	242.49	14.00	-45.5	-46.9	20.0	0.00e+00	0	42	0	293601280	62	4257
2026-01-29 12:12:53.81	242.65	14.06	-45.5	-46.9	20.0	0.00e+00	0	42	0	295698432	62	4247
2026-01-29 12:12:54.82	242.83	14.12	-45.6	-47.0	19.9	0.00e+00	0	41	0	297795584	62	4300
2026-01-29 12:12:55.83	243.00	14.18	-45.5	-46.9	20.0	0.00e+00	0	41	0	298844160	62	4245
2026-01-29 12:12:56.84	243.17	14.24	-45.6	-46.9	20.0	0.00e+00	0	42	0	300941312	62	4289
2026-01-29 12:12:57.84	243.34	14.30	-45.6	-47.0	19.9	0.00e+00	0	41	0	303038464	62	4300
2026-01-29 12:12:58.85	243.51	14.36	-45.4	-46.7	20.2	0.00e+00	0	42	0	305135616	62	4182
2026-01-29 12:12:59.85	243.69	14.41	-45.2	-46.6	20.3	0.00e+00	0	41	0	307232768	62	4101
2026-01-29 12:13:00.86	243.86	14.47	-45.3	-46.6	20.3	0.00e+00	0	41	0	308281344	62	4139
2026-01-29 12:13:01.87	244.04	14.53	-45.1	-46.4	20.5	0.00e+00	0	42	0	310378496	62	4031
2026-01-29 12:13:02.88	244.21	14.59	-44.9	-46.2	20.7	0.00e+00	0	42	0	312475648	61	4169
2026-01-29 12:13:03.88	244.39	14.65	-45.0	-46.3	20.6	0.00e+00	0	42	0	314572800	61	4204
2026-01-29 12:13:04.89	244.57	14.71	-44.9	-46.1	20.8	0.00e+00	0	42	0	316669952	61	4124
2026-01-29 12:13:05.89	244.74	14.76	-44.9	-46.1	20.8	0.00e+00	0	42	0	317718528	61	4122
2026-01-29 12:13:06.89	244.92	14.82	-44.9	-46.1	20.8	0.00e+00	0	42	0	319815680	61	4124
2026-01-29 12:13:07.90	245.10	14.88	-44.7	-46.0	21.0	0.00e+00	0	42	0	321912832	61	4058
2026-01-29 12:13:08.91	245.28	14.94	-44.6	-45.8	21.1	0.00e+00	0	42	0	324009984	61	4002
2026-01-29 12:13:09.91	245.46	14.99	-44.6	-45.8	21.1	0.00e+00	0	42	0	326107136	61	3978
2026-01-29 12:13:10.92	245.64	15.05	-44.7	-45.9	21.1	0.00e+00	0	42	0	327155712	61	4017
2026-01-29 12:13:11.92	245.82	15.11	-44.5	-45.7	21.3	0.00e+00	0	42	0	329252864	61	3933
2026-01-29 12:13:12.93	246.00	15.17	-44.5	-45.7	21.3	0.00e+00	0	41	0	331350016	60	4146
2026-01-29 12:13:13.94	246.19	15.22	-44.4	-45.6	21.3	0.00e+00	0	42	0	333447168	60	4124
2026-01-29 12:13:14.94	246.37	15.28	-44.3	-45.5	21.5	0.00e+00	0	41	0	335544320	60	4063
2026-01-29 12:13:15.95	246.56	15.34	-44.3	-45.4	21.5	0.00e+00	0	41	0	336592896	60	4026
2026-01-29 12:13:16.96	246.74	15.39	-44.3	-45.4	21.5	0.00e+00	0	41	0	338690048	60	4049
2026-01-29 12:13:17.97	246.93	15.45	-44.4	-45.6	21.4	0.00e+00	0	42	0	340787200	60	4107
2026-01-29 12:13:18.97	247.11	15.50	-44.3	-45.4	21.6	0.00e+00	0	41	0	342884352	60	4036
2026-01-29 12:13:19.98	247.30	15.56	-44.3	-45.4	21.6	0.00e+00	0	41	0	344981504	60	4039
2026-01-29 12:13:20.99	247.49	15.62	-44.3	-45.4	21.6	0.00e+00	0	41	0	346030080	60	4028
2026-01-29 12:13:22.00	247.68	15.67	-44.3	-45.5	21.5	0.00e+00	0	41	0	348127232	60	4066
2026-01-29 12:13:23.00	247.87	15.73	-44.4	-45.6	21.4	0.00e+00	0	42	0	350224384	60	4122
2026-01-29 12:13:24.02	248.06	15.78	-44.4	-45.6	21.4	0.00e+00	0	41	0	352321536	60	4116
2026-01-29 12:13:25.02	248.25	15.84	-44.5	-45.6	21.4	0.00e+00	0	42	0	354418688	60	4130
2026-01-29 12:13:26.03	248.44	15.89	-44.4	-45.6	21.4	0.00e+00	0	42	0	355467264	60	4106
2026-01-29 12:13:27.04	248.63	15.95	-44.5	-45.6	21.4	0.00e+00	0	42	0	357564416	60	4124
2026-01-29 12:13:28.05	248.83	16.00	-44.4	-45.5	21.4	0.00e+00	0	42	0	359661568	60	4095
2026-01-29 12:13:29.05	249.02	16.06	-44.5	-45.6	21.4	0.00e+00	0	42	0	361758720	60	4124
2026-01-29 12:13:30.06	249.21	16.11	-44.4	-45.5	21.4	0.00e+00	0	41	0	363855872	60	4098
2026-01-29 12:13:31.06	249.41	16.17	-44.3	-45.5	21.5	0.00e+00	0	42	0	364904448	60	4061
2026-01-29 12:13:32.07	249.60	16.22	-44.4	-45.6	21.4	0.00e+00	0	41	0	367001600	60	4109
2026-01-29 12:13:33.08	249.80	16.27	-44.4	-45.6	21.4	0.00e+00	0	42	0	369098752	60	4120
2026-01-29 12:13:34.09	250.00	16.33	-44.5	-45.7	21.3	0.00e+00	0	42	0	371195904	60	4180
2026-01-29 12:13:35.09	250.19	16.38	-44.6	-45.8	21.2	0.00e+00	0	41	0	373293056	60	4195
2026-01-29 12:13:36.10	250.39	16.43	-44.7	-45.9	21.1	0.00e+00	0	42	0	374341632	60	4278
2026-01-29 12:13:37.11	250.59	16.49	-44.7	-45.9	21.1	0.00e+00	0	42	0	376438784	60	4284
2026-01-29 12:13:38.12	250.79	16.54	-44.7	-45.9	21.1	0.00e+00	0	42	0	378535936	60	4272
2026-01-29 12:13:39.12	250.99	16.59	-44.8	-46.0	21.1	0.00e+00	0	41	0	380633088	60	4296
2026-01-29 12:13:40.13	251.19	16.65	-44.7	-45.9	21.1	0.00e+00	0	42	0	382730240	60	4287
2026-01-29 12:13:41.14	251.39	16.70	-44.7	-45.9	21.1	0.00e+00	0	42	0	383778816	60	4284
2026-01-29 12:13:42.15	251.59	16.75	-44.8	-46.0	21.1	0.00e+00	0	42	0	385875968	60	4308
2026-01-29 12:13:43.16	251.80	16.80	-44.9	-46.1	21.0	0.00e+00	0	42	0	387973120	60	4350
2026-01-29 12:13:44.17	252.00	16.85	-44.9	-46.1	21.0	0.00e+00	0	41	0	390070272	60	4353
2026-01-29 12:13:45.17	252.20	16.90	-45.0	-46.2	20.9	0.00e+00	0	41	0	392167424	60	4411
2026-01-29 12:13:46.18	252.41	16.96	-45.0	-46.3	20.8	0.00e+00	0	42	0	393216000	60	4456
2026-01-29 12:13:47.18	252.61	17.01	-45.0	-46.3	20.8	0.00e+00	0	42	0	395313152	60	4453
2026-01-29 12:13:48.19	252.82	17.06	-45.1	-46.4	20.7	0.00e+00	0	41	0	397410304	60	4499
2026-01-29 12:13:49.20	253.03	17.11	-45.1	-46.3	20.8	0.00e+00	0	42	0	399507456	60	4473
2026-01-29 12:13:50.21	253.24	17.16	-45.2	-46.5	20.6	0.00e+00	0	42	0	401604608	60	4548
2026-01-29 12:13:51.21	253.44	17.21	-45.2	-46.4	20.7	0.00e+00	0	42	0	402653184	60	4536
2026-01-29 12:13:52.22	253.65	17.26	-45.2	-46.4	20.6	0.00e+00	0	42	0	404750336	60	4539
2026-01-29 12:13:53.22	253.86	17.30	-45.2	-46.5	20.6	0.00e+00	0	42	0	406847488	60	4555
2026-01-29 12:13:54.23	254.07	17.35	-45.3	-46.6	20.5	0.00e+00	0	42	0	408944640	61	4366
2026-01-29 12:13:55.24	254.28	17.40	-45.3	-46.6	20.5	0.00e+00	0	42	0	411041792	61	4376
2026-01-29 12:13:56.25	254.50	17.45	-45.4	-46.7	20.4	0.00e+00	0	41	0	412090368	61	4408
2026-01-29 12:13:57.25	254.71	17.50	-45.5	-46.8	20.3	0.00e+00	0	42	0	414187520	61	4458
2026-01-29 12:13:58.26	254.92	17.55	-45.5	-46.8	20.3	0.00e+00	0	42	0	416284672	61	4492
2026-01-29 12:13:59.27	255.13	17.59	-45.5	-46.8	20.3	0.00e+00	0	42	0	418381824	61	4481
2026-01-29 12:14:00.28	255.35	17.64	-45.6	-47.0	20.1	0.00e+00	0	41	0	420478976	61	4549
2026-01-29 12:14:01.28	255.56	17.69	-45.7	-47.0	20.1	0.00e+00	0	42	0	421527552	61	4584
2026-01-29 12:14:02.29	255.78	17.73	-45.8	-47.2	19.9	0.00e+00	0	41	0	423624704	62	4432
2026-01-29 12:14:03.29	255.99	17.78	-45.9	-47.2	19.9	0.00e+00	0	41	0	425721856	62	4433
2026-01-29 12:14:04.30	256.21	17.83	-46.0	-47.4	19.8	0.00e+00	0	42	0	427819008	62	4509
2026-01-29 12:14:05.31	256.43	17.87	-46.0	-47.4	19.7	0.00e+00	0	42	0	429916160	62	4538
2026-01-29 12:14:06.31	256.64	17.92	-46.0	-47.5	19.7	0.00e+00	0	42	0	430964736	62	4554
2026-01-29 12:14:07.32	256.86	17.96	-46.2	-47.7	19.4	0.00e+00	0	41	0	433061888	63	4421
2026-01-29 12:14:08.33	257.08	18.01	-46.3	-47.8	19.3	0.00e+00	0	41	0	435159040	63	4485
2026-01-29 12:14:09.34	257.30	18.05	-46.4	-47.9	19.3	0.00e+00	0	42	0	437256192	63	4519
2026-01-29 12:14:10.34	257.52	18.10	-46.4	-47.9	19.2	0.00e+00	0	41	0	439353344	63	4535
2026-01-29 12:14:11.35	257.74	18.14	-46.4	-47.9	19.3	0.00e+00	0	41	0	440401920	63	4495
2026-01-29 12:14:12.36	257.97	18.18	-46.3	-47.8	19.4	0.00e+00	0	41	0	442499072	63	4462
2026-01-29 12:14:13.36	258.19	18.23	-46.2	-47.6	19.5	0.00e+00	0	42	0	444596224	63	4389
2026-01-29 12:14:14.36	258.41	18.27	-46.1	-47.5	19.6	0.00e+00	0	41	0	446693376	63	4320
2026-01-29 12:14:15.37	258.63	18.31	-46.1	-47.5	19.6	0.00e+00	0	41	0	448790528	63	4319
2026-01-29 12:14:16.38	258.86	18.35	-46.0	-47.5	19.7	0.00e+00	0	42	0	449839104	63	4294
2026-01-29 12:14:17.39	259.08	18.39	-46.0	-47.4	19.8	0.00e+00	0	42	0	451936256	63	4253
2026-01-29 12:14:18.40	259.31	18.44	-45.9	-47.3	19.9	0.00e+00	0	42	0	454033408	63	4215
2026-01-29 12:14:19.40	259.53	18.48	-45.9	-47.3	19.8	0.00e+00	0	42	0	456130560	63	4241
2026-01-29 12:14:20.41	259.76	18.52	-46.0	-47.4	19.7	0.00e+00	0	42	0	458227712	63	4287
2026-01-29 12:14:21.42	259.99	18.56	-46.1	-47.5	19.6	0.00e+00	0	42	0	459276288	63	4336
2026-01-29 12:14:22.42	260.21	18.60	-46.1	-47.5	19.6	0.00e+00	0	42	0	461373440	63	4327
2026-01-29 12:14:23.43	260.44	18.64	-46.2	-47.6	19.5	0.00e+00	0	42	0	463470592	63	4379
2026-01-29 12:14:24.44	260.67	18.68	-46.1	-47.6	19.6	0.00e+00	0	42	0	465567744	63	4341
2026-01-29 12:14:25.45	260.90	18.71	-46.0	-47.5	19.7	0.00e+00	0	41	0	467664896	63	4295
2026-01-29 12:14:26.45	261.13	18.75	-45.9	-47.3	19.9	0.00e+00	0	42	0	468713472	63	4199
2026-01-29 12:14:27.45	261.36	18.79	-45.7	-47.1	20.0	0.00e+00	0	42	0	470810624	63	4123
2026-01-29 12:14:28.46	261.59	18.83	-45.8	-47.1	20.1	0.00e+00	0	42	0	472907776	63	4125
2026-01-29 12:14:29.47	261.82	18.87	-45.7	-47.1	20.1	0.00e+00	0	42	0	475004928	63	4109
2026-01-29 12:14:30.47	262.05	18.90	-45.6	-46.9	20.2	0.00e+00	0	42	0	477102080	63	4049
2026-01-29 12:14:31.48	262.29	18.94	-45.6	-47.0	20.2	0.00e+00	0	42	0	478150656	63	4054
2026-01-29 12:14:32.49	262.52	18.97	-45.7	-47.0	20.1	0.00e+00	0	42	0	480247808	63	4084
2026-01-29 12:14:33.50	262.76	19.01	-45.7	-47.1	20.1	0.00e+00	0	42	0	482344960	63	4101
2026-01-29 12:14:34.50	262.99	19.04	-45.7	-47.1	20.1	0.00e+00	0	42	0	484442112	63	4111
2026-01-29 12:14:35.51	263.22	19.08	-45.7	-47.0	20.2	0.00e+00	0	42	0	486539264	63	4073
2026-01-29 12:14:36.51	263.46	19.11	-45.7	-47.0	20.1	0.00e+00	0	42	0	487587840	63	4089
2026-01-29 12:14:37.52	263.69	19.15	-45.6	-47.0	20.2	0.00e+00	0	41	0	489684992	63	4056
2026-01-29 12:14:38.53	263.93	19.18	-45.7	-47.0	20.1	0.00e+00	0	41	0	491782144	63	4094
2026-01-29 12:14:39.54	264.17	19.21	-45.7	-47.1	20.1	0.00e+00	0	41	0	493879296	63	4112
2026-01-29 12:14:40.55	264.41	19.25	-45.8	-47.1	20.0	0.00e+00	0	41	0	495976448	63	4130
2026-01-29 12:14:41.55	264.64	19.28	-45.8	-47.2	20.0	0.00e+00	0	41	0	497025024	63	4161
2026-01-29 12:14:42.56	264.88	19.31	-45.8	-47.2	19.9	0.00e+00	0	42	0	499122176	63	4171
2026-01-29 12:14:43.56	265.12	19.34	-45.7	-47.1	20.1	0.00e+00	0	41	0	501219328	63	4122
2026-01-29 12:14:44.57	265.36	19.37	-45.6	-46.9	20.2	0.00e+00	0	41	0	503316480	63	4039
2026-01-29 12:14:45.57	265.60	19.40	-45.6	-46.9	20.3	0.00e+00	0	42	0	505413632	63	4028
2026-01-29 12:14:46.58	265.84	19.43	-45.5	-46.8	20.3	0.00e+00	0	42	0	506462208	63	3993
2026-01-29 12:14:47.59	266.08	19.46	-45.4	-46.8	20.4	0.00e+00	0	42	0	508559360	62	4196
2026-01-29 12:14:48.59	266.32	19.49	-45.4	-46.7	20.5	0.00e+00	0	41	0	510656512	62	4148
2026-01-29 12:14:49.60	266.56	19.52	-45.5	-46.8	20.4	0.00e+00	0	42	0	512753664	62	4200
2026-01-29 12:14:50.61	266.80	19.55	-45.3	-46.6	20.5	0.00e+00	0	42	0	514850816	62	4140
2026-01-29 12:14:51.62	267.05	19.57	-45.4	-46.8	20.4	0.00e+00	0	42	0	515899392	62	4194
2026-01-29 12:14:52.63	267.29	19.60	-45.5	-46.8	20.4	0.00e+00	0	42	0	517996544	62	4212
2026-01-29 12:14:53.64	267.53	19.63	-45.5	-46.8	20.4	0.00e+00	0	42	0	520093696	62	4204
2026-01-29 12:14:54.64	267.77	19.65	-45.5	-46.9	20.3	0.00e+00	0	42	0	522190848	62	4243
2026-01-29 12:14:55.65	268.02	19.68	-45.5	-46.8	20.3	0.00e+00	0	42	0	524288000	62	4214
2026-01-29 12:14:56.66	268.26	19.71	-45.5	-46.9	20.3	0.00e+00	0	41	0	525336576	62	4246
2026-01-29 12:14:57.66	268.51	19.73	-45.5	-46.8	20.4	0.00e+00	0	41	0	527433728	62	4220
2026-01-29 12:14:58.67	268.75	19.75	-45.5	-46.8	20.4	0.00e+00	0	41	0	529530880	62	4214
2026-01-29 12:14:59.68	269.00	19.78	-45.4	-46.7	20.5	0.00e+00	0	42	0	531628032	62	4146
2026-01-29 12:15:00.69	269.25	19.80	-45.2	-46.5	20.6	0.00e+00	0	42	0	533725184	62	4080
2026-01-29 12:15:01.69	269.49	19.82	-45.2	-46.4	20.7	0.00e+00	0	42	0	535822336	62	4038
2026-01-29 12:15:02.70	269.74	19.85	-45.1	-46.3	20.8	0.00e+00	0	41	0	536870912	62	3997
2026-01-29 12:15:03.70	269.98	19.87	-45.2	-46.4	20.7	0.00e+00	0	42	0	538968064	62	4030
2026-01-29 12:15:04.71	270.23	19.89	-45.3	-46.5	20.6	0.00e+00	0	42	0	541065216	62	4092
2026-01-29 12:15:05.71	270.48	19.91	-45.4	-46.7	20.5	0.00e+00	0	41	0	543162368	62	4150
2026-01-29 12:15:06.72	270.72	19.93	-45.4	-46.7	20.5	0.00e+00	0	42	0	544210944	62	4159
2026-01-29 12:15:07.73	270.97	19.95	-45.4	-46.6	20.6	0.00e+00	0	42	0	546308096	62	4131
2026-01-29 12:15:08.74	271.22	19.97	-45.3	-46.5	20.6	0.00e+00	0	41	0	548405248	62	4093
2026-01-29 12:15:09.74	271.47	19.99	-45.2	-46.4	20.7	0.00e+00	0	42	0	550502400	62	4039
2026-01-29 12:15:10.74	271.72	20.00	-45.1	-46.4	20.8	0.00e+00	0	42	0	552599552	62	4020
2026-01-29 12:15:11.75	271.97	20.02	-45.0	-46.2	20.9	0.00e+00	0	42	0	553648128	62	3946
2026-01-29 12:15:12.76	272.22	20.04	-45.0	-46.3	20.9	0.00e+00	0	42	0	555745280	61	4199
2026-01-29 12:15:13.76	272.47	20.06	-45.1	-46.3	20.8	0.00e+00	0	42	0	557842432	61	4228
2026-01-29 12:15:14.77	272.72	20.07	-45.2	-46.4	20.8	0.00e+00	0	42	0	559939584	61	4279
2026-01-29 12:15:15.78	272.97	20.09	-45.3	-46.6	20.6	0.00e+00	0	42	0	562036736	61	4356
2026-01-29 12:15:16.79	273.22	20.10	-45.6	-46.9	20.3	0.00e+00	0	42	0	564133888	61	4528
2026-01-29 12:15:17.80	273.47	20.12	-45.8	-47.1	20.1	0.00e+00	0	42	0	565182464	62	4365
2026-01-29 12:15:18.80	273.72	20.13	-46.0	-47.4	19.8	0.00e+00	0	42	0	567279616	62	4527
2026-01-29 12:15:19.81	273.97	20.14	-46.1	-47.6	19.6	0.00e+00	0	42	0	569376768	62	4616
2026-01-29 12:15:20.82	274.22	20.16	-46.2	-47.7	19.6	0.00e+00	0	42	0	571473920	63	4398
2026-01-29 12:15:21.83	274.48	20.17	-46.1	-47.6	19.7	0.00e+00	0	42	0	572522496	63	4349
2026-01-29 12:15:22.84	274.73	20.18	-46.0	-47.4	19.9	0.00e+00	0	42	0	574619648	63	4253
2026-01-29 12:15:23.84	274.98	20.19	-45.8	-47.2	20.0	0.00e+00	0	42	0	576716800	63	4163
2026-01-29 12:15:24.85	275.23	20.20	-45.6	-46.9	20.4	0.00e+00	0	41	0	578813952	63	4010
2026-01-29 12:15:25.86	275.48	20.21	-45.5	-46.7	20.5	0.00e+00	0	42	0	580911104	62	4187
2026-01-29 12:15:26.87	275.74	20.22	-45.5	-46.8	20.5	0.00e+00	0	42	0	581959680	62	4196
2026-01-29 12:15:27.88	275.99	20.23	-45.4	-46.6	20.6	0.00e+00	0	42	0	584056832	62	4138
2026-01-29 12:15:28.88	276.24	20.24	-45.5	-46.8	20.4	0.00e+00	0	42	0	586153984	62	4223
2026-01-29 12:15:29.89	276.50	20.25	-45.7	-47.0	20.2	0.00e+00	0	42	0	588251136	62	4339
2026-01-29 12:15:30.90	276.75	20.25	-45.8	-47.2	20.1	0.00e+00	0	42	0	590348288	62	4421
2026-01-29 12:15:31.91	277.00	20.26	-46.0	-47.4	19.9	0.00e+00	0	42	0	592445440	62	4501
2026-01-29 12:15:32.91	277.25	20.27	-46.0	-47.4	19.8	0.00e+00	0	42	0	593494016	62	4533
2026-01-29 12:15:33.92	277.51	20.27	-46.0	-47.5	19.8	0.00e+00	0	42	0	595591168	62	4550
2026-01-29 12:15:34.93	277.76	20.28	-46.1	-47.5	19.8	0.00e+00	0	42	0	597688320	62	4559
2026-01-29 12:15:35.93	278.01	20.28	-46.1	-47.5	19.8	0.00e+00	0	42	0	599785472	62	4590
2026-01-29 12:15:36.94	278.27	20.29	-46.1	-47.5	19.8	0.00e+00	0	42	0	600834048	62	4571
2026-01-29 12:15:37.95	278.52	20.29	-46.1	-47.5	19.8	0.00e+00	0	42	0	602931200	62	4597
2026-01-29 12:15:38.96	278.78	20.29	-46.2	-47.7	19.7	0.00e+00	0	42	0	605028352	63	4397
2026-01-29 12:15:39.97	279.03	20.30	-46.3	-47.7	19.7	0.00e+00	0	42	0	607125504	63	4414
2026-01-29 12:15:40.97	279.28	20.30	-46.3	-47.8	19.5	0.00e+00	0	42	0	609222656	63	4464
2026-01-29 12:15:41.98	279.54	20.30	-46.4	-47.9	19.4	0.00e+00	0	42	0	610271232	63	4523
2026-01-29 12:15:42.99	279.79	20.30	-46.5	-48.0	19.3	0.00e+00	0	42	0	612368384	63	4574
2026-01-29 12:15:43.99	280.04	20.30	-46.5	-48.0	19.3	0.00e+00	0	42	0	614465536	63	4577
2026-01-29 12:15:45.00	280.30	20.30	-46.5	-48.0	19.4	0.00e+00	0	42	0	616562688	63	4574
2026-01-29 12:15:46.01	280.55	20.30	-46.5	-48.0	19.4	0.00e+00	0	42	0	618659840	63	4587
2026-01-29 12:15:47.01	280.80	20.30	-46.4	-47.9	19.5	0.00e+00	0	42	0	620756992	63	4503
2026-01-29 12:15:48.02	281.06	20.29	-46.4	-47.9	19.5	0.00e+00	0	42	0	621805568	63	4495
2026-01-29 12:15:49.02	281.31	20.29	-46.4	-47.8	19.6	0.00e+00	0	42	0	623902720	63	4474
2026-01-29 12:15:50.03	281.57	20.29	-46.4	-47.9	19.5	0.00e+00	0	42	0	625999872	63	4527
2026-01-29 12:15:51.03	281.82	20.29	-46.3	-47.8	19.6	0.00e+00	0	42	0	628097024	63	4463
2026-01-29 12:15:52.04	282.07	20.28	-46.3	-47.7	19.7	0.00e+00	0	42	0	629145600	63	4420
2026-01-29 12:15:53.04	282.32	20.28	-46.1	-47.5	19.9	0.00e+00	0	42	0	631242752	63	4310
2026-01-29 12:15:54.05	282.58	20.27	-45.9	-47.2	20.1	0.00e+00	0	42	0	633339904	63	4190
2026-01-29 12:15:55.06	282.83	20.27	-45.6	-46.9	20.4	0.00e+00	0	42	0	635437056	63	4021
2026-01-29 12:15:56.07	283.08	20.26	-45.5	-46.8	20.5	0.00e+00	0	42	0	637534208	63	3991
2026-01-29 12:15:57.07	283.34	20.25	-45.6	-46.9	20.5	0.00e+00	0	42	0	638582784	63	4022
2026-01-29 12:15:58.08	283.59	20.24	-45.5	-46.8	20.5	0.00e+00	0	42	0	640679936	63	3971
2026-01-29 12:15:59.08	283.84	20.24	-45.6	-46.9	20.5	0.00e+00	0	42	0	642777088	63	4015
2026-01-29 12:16:00.08	284.09	20.23	-45.7	-47.1	20.3	0.00e+00	0	42	0	644874240	63	4105
2026-01-29 12:16:01.09	284.34	20.22	-45.9	-47.2	20.2	0.00e+00	0	42	0	646971392	63	4183
2026-01-29 12:16:02.10	284.60	20.21	-46.0	-47.4	20.0	0.00e+00	0	42	0	649068544	63	4250
2026-01-29 12:16:03.10	284.85	20.20	-46.0	-47.4	20.0	0.00e+00	0	42	0	650117120	63	4258
2026-01-29 12:16:04.11	285.10	20.19	-46.0	-47.4	19.9	0.00e+00	0	42	0	652214272	63	4274
2026-01-29 12:16:05.12	285.35	20.18	-46.0	-47.4	20.0	0.00e+00	0	42	0	654311424	63	4266
2026-01-29 12:16:06.12	285.60	20.16	-46.0	-47.4	20.0	0.00e+00	0	42	0	656408576	63	4250
2026-01-29 12:16:07.13	285.85	20.15	-45.9	-47.3	20.1	0.00e+00	0	41	0	657457152	63	4214
2026-01-29 12:16:08.13	286.10	20.14	-46.0	-47.4	20.0	0.00e+00	0	42	0	659554304	63	4268
2026-01-29 12:16:09.14	286.35	20.12	-46.1	-47.4	20.0	0.00e+00	0	41	0	661651456	63	4284
2026-01-29 12:16:10.15	286.61	20.11	-46.1	-47.5	19.9	0.00e+00	0	42	0	663748608	63	4306
2026-01-29 12:16:11.15	286.85	20.10	-46.1	-47.5	19.9	0.00e+00	0	42	0	665845760	63	4325
2026-01-29 12:16:12.16	287.11	20.08	-46.1	-47.4	20.0	0.00e+00	0	42	0	666894336	63	4282
2026-01-29 12:16:13.17	287.36	20.07	-46.1	-47.5	19.9	0.00e+00	0	42	0	668991488	63	4307
2026-01-29 12:16:14.17	287.60	20.05	-46.1	-47.5	19.9	0.00e+00	0	42	0	671088640	63	4323
2026-01-29 12:16:15.18	287.85	20.03	-46.1	-47.5	19.9	0.00e+00	0	42	0	673185792	63	4335
2026-01-29 12:16:16.19	288.10	20.02	-46.2	-47.6	19.9	0.00e+00	0	42	0	675282944	63	4353
2026-01-29 12:16:17.19	288.35	20.00	-46.1	-47.5	19.9	0.00e+00	0	42	0	677380096	63	4312
2026-01-29 12:16:18.19	288.60	19.98	-46.0	-47.4	20.0	0.00e+00	0	41	0	678428672	63	4270
2026-01-29 12:16:19.20	288.85	19.96	-45.9	-47.2	20.2	0.00e+00	0	42	0	680525824	63	4186
2026-01-29 12:16:20.20	289.09	19.94	-45.7	-47.0	20.4	0.00e+00	0	42	0	682622976	63	4088
2026-01-29 12:16:21.21	289.34	19.92	-45.6	-46.9	20.5	0.00e+00	0	42	0	684720128	63	4015
2026-01-29 12:16:22.21	289.59	19.90	-45.6	-46.8	20.4	0.00e+00	0	42	0	685768704	62	4234
2026-01-29 12:16:23.22	289.84	19.88	-45.6	-46.9	20.3	0.00e+00	0	41	0	687865856	62	4247
2026-01-29 12:16:24.23	290.08	19.86	-45.6	-46.9	20.2	0.00e+00	0	42	0	689963008	62	4263
2026-01-29 12:16:25.23	290.33	19.84	-45.8	-47.1	20.1	0.00e+00	0	42	0	692060160	62	4367
2026-01-29 12:16:26.24	290.57	19.82	-46.0	-47.3	20.0	0.00e+00	0	42	0	694157312	62	4474
2026-01-29 12:16:27.25	290.82	19.79	-46.1	-47.4	19.9	0.00e+00	0	42	0	695205888	62	4541
2026-01-29 12:16:28.26	291.07	19.77	-46.0	-47.3	20.1	0.00e+00	0	42	0	697303040	62	4472
2026-01-29 12:16:29.27	291.31	19.75	-45.9	-47.3	20.1	0.00e+00	0	42	0	699400192	62	4443
2026-01-29 12:16:30.27	291.55	19.72	-45.8	-47.2	20.3	0.00e+00	0	42	0	701497344	62	4401
2026-01-29 12:16:31.28	291.80	19.70	-45.9	-47.3	20.1	0.00e+00	0	42	0	703594496	62	4453
2026-01-29 12:16:32.29	292.04	19.67	-45.6	-46.9	20.2	0.00e+00	0	42	0	705691648	62	4282
2026-01-29 12:16:33.29	292.29	19.65	-45.6	-46.9	20.3	0.00e+00	0	42	0	706740224	62	4257
2026-01-29 12:16:34.30	292.53	19.62	-45.6	-46.9	20.4	0.00e+00	0	42	0	708837376	62	4257
2026-01-29 12:16:35.30	292.77	19.59	-45.3	-46.5	20.7	0.00e+00	0	42	0	710934528	62	4077
2026-01-29 12:16:36.30	293.01	19.57	-45.2	-46.4	20.8	0.00e+00	0	42	0	713031680	62	4035
2026-01-29 12:16:37.31	293.25	19.54	-45.0	-46.1	21.2	0.00e+00	0	42	0	714080256	62	3911
2026-01-29 12:16:38.32	293.49	19.51	-44.8	-45.9	21.5	0.00e+00	0	42	0	716177408	61	4036
2026-01-29 12:16:39.33	293.74	19.48	-44.8	-46.0	21.4	0.00e+00	0	42	0	718274560	61	4065
2026-01-29 12:16:40.33	293.97	19.45	-44.6	-45.7	21.6	0.00e+00	0	42	0	720371712	61	3958
2026-01-29 12:16:41.34	294.22	19.42	-44.6	-45.8	21.6	0.00e+00	0	42	0	722468864	61	3964
2026-01-29 12:16:42.35	294.46	19.39	-44.8	-45.9	21.4	0.00e+00	0	42	0	723517440	61	4050
2026-01-29 12:16:43.35	294.69	19.36	-45.0	-46.2	21.1	0.00e+00	0	42	0	725614592	61	4167
2026-01-29 12:16:44.36	294.93	19.33	-45.1	-46.4	20.9	0.00e+00	0	42	0	727711744	61	4251
2026-01-29 12:16:45.37	295.17	19.30	-45.3	-46.5	20.8	0.00e+00	0	42	0	729808896	61	4332
2026-01-29 12:16:46.38	295.41	19.27	-45.3	-46.5	20.9	0.00e+00	0	42	0	731906048	61	4314
2026-01-29 12:16:47.38	295.64	19.24	-45.3	-46.5	20.9	0.00e+00	0	42	0	732954624	61	4324
2026-01-29 12:16:48.39	295.88	19.20	-45.1	-46.3	21.0	0.00e+00	0	42	0	735051776	61	4228
2026-01-29 12:16:49.40	296.12	19.17	-45.0	-46.3	21.1	0.00e+00	0	42	0	737148928	61	4195
2026-01-29 12:16:50.40	296.35	19.14	-45.0	-46.2	21.1	0.00e+00	0	42	0	739246080	61	4186
2026-01-29 12:16:51.41	296.59	19.10	-45.0	-46.2	21.1	0.00e+00	0	42	0	741343232	61	4165
2026-01-29 12:16:52.41	296.82	19.07	-44.9	-46.1	21.2	0.00e+00	0	42	0	742391808	61	4121
2026-01-29 12:16:53.42	297.05	19.04	-44.8	-46.0	21.4	0.00e+00	0	42	0	744488960	61	4057
2026-01-29 12:16:54.42	297.29	19.00	-44.5	-45.6	21.7	0.00e+00	0	42	0	746586112	61	3909
2026-01-29 12:16:55.43	297.52	18.96	-44.1	-45.2	22.0	0.00e+00	0	42	0	748683264	60	3944
2026-01-29 12:16:56.43	297.75	18.93	-44.1	-45.2	22.0	0.00e+00	0	42	0	750780416	60	3924
2026-01-29 12:16:57.44	297.98	18.89	-44.2	-45.3	22.0	0.00e+00	0	42	0	751828992	60	3966
2026-01-29 12:16:58.44	298.21	18.86	-44.2	-45.2	22.0	0.00e+00	0	42	0	753926144	60	3958
2026-01-29 12:16:59.44	298.44	18.82	-44.1	-45.1	22.1	0.00e+00	0	42	0	756023296	60	3909
2026-01-29 12:17:00.45	298.67	18.78	-44.1	-45.2	22.0	0.00e+00	0	42	0	758120448	60	3929
2026-01-29 12:17:01.46	298.90	18.74	-44.2	-45.3	22.0	0.00e+00	0	42	0	760217600	60	3960
2026-01-29 12:17:02.47	299.13	18.71	-44.2	-45.3	21.9	0.00e+00	0	42	0	761266176	60	3993
2026-01-29 12:17:03.47	299.36	18.67	-44.3	-45.5	21.8	0.00e+00	0	42	0	763363328	60	4053
2026-01-29 12:17:04.48	299.59	18.63	-44.4	-45.6	21.6	0.00e+00	0	42	0	765460480	60	4104
2026-01-29 12:17:05.49	299.82	18.59	-44.5	-45.6	21.6	0.00e+00	0	42	0	767557632	60	4118
2026-01-29 12:17:06.49	300.04	18.55	-44.4	-45.5	21.7	0.00e+00	0	41	0	769654784	60	4067
2026-01-29 12:17:07.50	300.27	18.51	-44.4	-45.5	21.7	0.00e+00	0	42	0	770703360	60	4075
2026-01-29 12:17:08.51	300.50	18.47	-44.4	-45.5	21.7	0.00e+00	0	42	0	772800512	60	4062
2026-01-29 12:17:09.51	300.72	18.43	-44.1	-45.2	22.0	0.00e+00	0	42	0	774897664	60	3943
2026-01-29 12:17:10.52	300.94	18.39	-44.1	-45.2	22.0	0.00e+00	0	42	0	776994816	60	3939
2026-01-29 12:17:11.53	301.17	18.34	-44.0	-45.0	22.1	0.00e+00	0	42	0	779091968	60	3865
2026-01-29 12:17:12.53	301.39	18.30	-44.3	-45.4	22.1	0.00e+00	0	42	0	780140544	59	4275
2026-01-29 12:17:13.54	301.61	18.26	-44.1	-45.1	22.3	0.00e+00	0	42	0	782237696	59	4142
2026-01-29 12:17:14.55	301.84	18.22	-44.0	-45.0	22.4	0.00e+00	0	42	0	784334848	59	4082
2026-01-29 12:17:15.55	302.06	18.17	-44.0	-45.1	22.4	0.00e+00	0	42	0	786432000	59	4122
2026-01-29 12:17:16.56	302.28	18.13	-44.0	-45.0	22.4	0.00e+00	0	42	0	788529152	59	4091
2026-01-29 12:17:17.57	302.50	18.09	-43.9	-44.9	22.5	0.00e+00	0	42	0	789577728	59	4040
2026-01-29 12:17:18.57	302.72	18.04	-43.9	-45.0	22.4	0.00e+00	0	42	0	791674880	59	4059
2026-01-29 12:17:19.58	302.94	18.00	-44.0	-45.0	22.4	0.00e+00	0	42	0	793772032	59	4094
2026-01-29 12:17:20.58	303.15	17.96	-44.0	-45.1	22.3	0.00e+00	0	42	0	795869184	59	4103
2026-01-29 12:17:21.58	303.37	17.91	-44.1	-45.2	22.2	0.00e+00	0	42	0	797966336	59	4159
2026-01-29 12:17:22.59	303.59	17.87	-44.2	-45.3	22.1	0.00e+00	0	42	0	799014912	59	4211
2026-01-29 12:17:23.60	303.80	17.82	-44.3	-45.4	22.0	0.00e+00	0	42	0	801112064	59	4282
2026-01-29 12:17:24.60	304.02	17.77	-44.4	-45.5	21.9	0.00e+00	0	42	0	803209216	59	4317
2026-01-29 12:17:25.61	304.23	17.73	-44.4	-45.6	21.9	0.00e+00	0	42	0	805306368	59	4352
2026-01-29 12:17:26.63	304.45	17.68	-44.5	-45.7	21.8	0.00e+00	0	42	0	807403520	59	4411
2026-01-29 12:17:27.63	304.66	17.63	-44.6	-45.7	21.7	0.00e+00	0	42	0	808452096	59	4418
2026-01-29 12:17:28.64	304.88	17.59	-44.5	-45.7	21.8	0.00e+00	0	42	0	810549248	59	4405
2026-01-29 12:17:29.65	305.09	17.54	-44.6	-45.7	21.7	0.00e+00	0	42	0	812646400	59	4427
2026-01-29 12:17:30.65	305.30	17.49	-44.6	-45.7	21.7	0.00e+00	0	42	0	814743552	59	4412
2026-01-29 12:17:31.66	305.51	17.44	-44.4	-45.5	21.4	0.00e+00	0	42	0	816840704	60	4081
2026-01-29 12:17:32.67	305.72	17.40	-44.5	-45.6	21.5	0.00e+00	0	42	0	817889280	60	4128
2026-01-29 12:17:33.68	305.93	17.35	-44.8	-46.0	21.2	0.00e+00	0	42	0	819986432	60	4301
2026-01-29 12:17:34.68	306.14	17.30	-44.9	-46.1	21.0	0.00e+00	0	42	0	822083584	60	4387
2026-01-29 12:17:35.69	306.35	17.25	-45.1	-46.3	20.8	0.00e+00	0	42	0	824180736	60	4483
2026-01-29 12:17:36.70	306.56	17.20	-45.1	-46.3	20.8	0.00e+00	0	42	0	826277888	60	4468
2026-01-29 12:17:37.71	306.77	17.15	-45.0	-46.2	20.9	0.00e+00	0	42	0	827326464	60	4436
2026-01-29 12:17:38.72	306.97	17.10	-45.0	-46.3	20.9	0.00e+00	0	41	0	829423616	60	4442
2026-01-29 12:17:39.73	307.18	17.05	-45.1	-46.3	20.9	0.00e+00	0	42	0	831520768	60	4464
2026-01-29 12:17:40.73	307.38	17.00	-45.2	-46.5	20.7	0.00e+00	0	42	0	833617920	60	4549
2026-01-29 12:17:41.74	307.59	16.95	-45.3	-46.6	20.6	0.00e+00	0	42	0	835715072	61	4360
2026-01-29 12:17:42.75	307.79	16.90	-45.5	-46.8	20.4	0.00e+00	0	42	0	836763648	61	4447
2026-01-29 12:17:43.76	308.00	16.85	-45.4	-46.7	20.5	0.00e+00	0	42	0	838860800	61	4418
2026-01-29 12:17:44.77	308.20	16.80	-45.4	-46.8	20.4	0.00e+00	0	42	0	840957952	61	4446
2026-01-29 12:17:45.77	308.40	16.75	-45.4	-46.7	20.4	0.00e+00	0	42	0	843055104	61	4441
2026-01-29 12:17:46.78	308.60	16.69	-45.4	-46.7	20.5	0.00e+00	0	42	0	845152256	61	4405
2026-01-29 12:17:47.79	308.80	16.64	-45.3	-46.5	20.6	0.00e+00	0	42	0	847249408	61	4330
2026-01-29 12:17:48.79	309.00	16.59	-45.3	-46.6	20.6	0.00e+00	0	42	0	848297984	61	4346
2026-01-29 12:17:49.80	309.20	16.54	-45.2	-46.4	20.8	0.00e+00	0	42	0	850395136	61	4275
2026-01-29 12:17:50.81	309.40	16.49	-45.3	-46.5	20.6	0.00e+00	0	42	0	852492288	61	4337
2026-01-29 12:17:51.81	309.60	16.43	-45.4	-46.7	20.4	0.00e+00	0	42	0	854589440	61	4410
2026-01-29 12:17:52.82	309.80	16.38	-45.5	-46.8	20.3	0.00e+00	0	42	0	855638016	61	4492
2026-01-29 12:17:53.83	309.99	16.33	-45.7	-47.1	20.1	0.00e+00	0	42	0	857735168	61	4608
2026-01-29 12:17:54.84	310.19	16.27	-45.9	-47.3	19.9	0.00e+00	0	42	0	859832320	62	4453
2026-01-29 12:17:55.85	310.38	16.22	-45.9	-47.3	19.8	0.00e+00	0	41	0	861929472	62	4492
2026-01-29 12:17:56.85	310.58	16.17	-45.9	-47.4	19.7	0.00e+00	0	42	0	864026624	62	4496
2026-01-29 12:17:57.85	310.77	16.11	-45.9	-47.3	19.9	0.00e+00	0	42	0	865075200	62	4476
2026-01-29 12:17:58.86	310.96	16.06	-45.9	-47.3	19.9	0.00e+00	0	42	0	867172352	62	4447
2026-01-29 12:17:59.87	311.16	16.00	-45.7	-47.1	20.1	0.00e+00	0	42	0	869269504	62	4360
2026-01-29 12:18:00.88	311.35	15.95	-45.7	-47.1	20.0	0.00e+00	0	42	0	871366656	62	4350
2026-01-29 12:18:01.88	311.54	15.90	-45.5	-46.9	20.2	0.00e+00	0	42	0	873463808	62	4257
2026-01-29 12:18:02.88	311.73	15.84	-45.6	-46.9	20.2	0.00e+00	0	41	0	874512384	62	4282
2026-01-29 12:18:03.89	311.92	15.79	-45.7	-47.0	20.1	0.00e+00	0	41	0	876609536	62	4325
2026-01-29 12:18:04.89	312.11	15.73	-45.6	-46.9	20.2	0.00e+00	0	42	0	878706688	62	4279
2026-01-29 12:18:05.89	312.29	15.68	-45.6	-47.0	20.2	0.00e+00	0	42	0	880803840	62	4295
2026-01-29 12:18:06.90	312.48	15.62	-45.6	-47.0	20.1	0.00e+00	0	42	0	882900992	62	4292
2026-01-29 12:18:07.91	312.67	15.57	-45.7	-47.0	20.1	0.00e+00	0	42	0	883949568	62	4324
2026-01-29 12:18:08.92	312.86	15.51	-45.7	-47.0	20.1	0.00e+00	0	42	0	886046720	62	4337
2026-01-29 12:18:09.93	313.04	15.45	-45.8	-47.2	19.9	0.00e+00	0	42	0	888143872	62	4435
2026-01-29 12:18:10.93	313.23	15.40	-46.0	-47.4	19.8	0.00e+00	0	42	0	890241024	62	4515
2026-01-29 12:18:11.93	313.41	15.34	-45.8	-47.1	20.0	0.00e+00	0	42	0	892338176	62	4388
2026-01-29 12:18:12.94	313.59	15.29	-45.7	-47.1	20.0	0.00e+00	0	42	0	893386752	62	4350
2026-01-29 12:18:13.95	313.78	15.23	-45.4	-46.7	20.3	0.00e+00	0	42	0	895483904	62	4182
2026-01-29 12:18:14.96	313.96	15.17	-45.4	-46.7	20.4	0.00e+00	0	42	0	897581056	62	4165
2026-01-29 12:18:15.97	314.14	15.12	-45.3	-46.6	20.4	0.00e+00	0	42	0	899678208	62	4132
2026-01-29 12:18:16.98	314.32	15.06	-45.1	-46.4	20.7	0.00e+00	0	42	0	901775360	62	4013
2026-01-29 12:18:17.99	314.50	15.00	-44.9	-46.1	20.9	0.00e+00	0	42	0	903872512	61	4125
2026-01-29 12:18:18.99	314.68	14.94	-44.9	-46.1	20.9	0.00e+00	0	42	0	904921088	61	4135
2026-01-29 12:18:20.00	314.86	14.89	-45.0	-46.3	20.8	0.00e+00	0	42	0	907018240	61	4206
2026-01-29 12:18:21.01	315.04	14.83	-44.9	-46.2	20.8	0.00e+00	0	42	0	909115392	61	4160
2026-01-29 12:18:22.02	315.22	14.77	-45.0	-46.2	20.8	0.00e+00	0	42	0	911212544	61	4188
2026-01-29 12:18:23.02	315.39	14.71	-45.0	-46.2	20.8	0.00e+00	0	42	0	912261120	61	4171
2026-01-29 12:18:24.03	315.57	14.66	-45.0	-46.3	20.7	0.00e+00	0	42	0	914358272	61	4199
2026-01-29 12:18:25.03	315.74	14.60	-45.1	-46.4	20.6	0.00e+00	0	42	0	916455424	61	4262
2026-01-29 12:18:26.04	315.92	14.54	-45.3	-46.6	20.4	0.00e+00	0	41	0	918552576	61	4361
2026-01-29 12:18:27.05	316.09	14.48	-45.5	-46.9	20.1	0.00e+00	0	42	0	920649728	61	4499
2026-01-29 12:18:28.05	316.27	14.43	-45.9	-47.3	19.7	0.00e+00	0	42	0	921698304	62	4455
2026-01-29 12:18:29.05	316.44	14.37	-46.0	-47.5	19.6	0.00e+00	0	42	0	923795456	62	4572
2026-01-29 12:18:30.05	316.61	14.31	-46.2	-47.8	19.2	0.00e+00	0	42	0	925892608	63	4453
2026-01-29 12:18:31.06	316.78	14.25	-46.3	-47.8	19.3	0.00e+00	0	42	0	927989760	63	4463
2026-01-29 12:18:32.07	316.95	14.19	-46.2	-47.7	19.3	0.00e+00	0	42	0	930086912	63	4439
2026-01-29 12:18:33.08	317.12	14.13	-46.0	-47.5	19.5	0.00e+00	0	41	0	931135488	63	4310
2026-01-29 12:18:34.08	317.29	14.08	-45.9	-47.4	19.7	0.00e+00	0	42	0	933232640	63	4260
2026-01-29 12:18:35.09	317.46	14.02	-45.8	-47.2	19.8	0.00e+00	0	42	0	935329792	63	4169
2026-01-29 12:18:36.10	317.63	13.96	-45.3	-46.6	20.4	0.00e+00	0	42	0	937426944	62	4100
2026-01-29 12:18:37.10	317.80	13.90	-45.2	-46.5	20.5	0.00e+00	0	42	0	939524096	62	4073
2026-01-29 12:18:38.11	317.97	13.84	-44.9	-46.1	20.8	0.00e+00	0	42	0	940572672	61	4141
2026-01-29 12:18:39.12	318.13	13.78	-44.9	-46.1	20.8	0.00e+00	0	42	0	942669824	61	4123
2026-01-29 12:18:40.13	318.30	13.72	-45.0	-46.3	20.6	0.00e+00	0	42	0	944766976	61	4217
2026-01-29 12:18:41.13	318.46	13.66	-45.1	-46.4	20.5	0.00e+00	0	42	0	946864128	61	4257
2026-01-29 12:18:42.14	318.63	13.60	-45.1	-46.4	20.5	0.00e+00	0	42	0	948961280	61	4271
2026-01-29 12:18:43.15	318.79	13.54	-45.2	-46.5	20.5	0.00e+00	0	42	0	950009856	61	4303
2026-01-29 12:18:44.16	318.96	13.48	-45.0	-46.3	20.6	0.00e+00	0	42	0	952107008	61	4202
2026-01-29 12:18:45.16	319.12	13.42	-45.0	-46.2	20.6	0.00e+00	0	42	0	954204160	61	4181
2026-01-29 12:18:46.17	319.28	13.37	-44.9	-46.1	20.8	0.00e+00	0	42	0	956301312	61	4128
2026-01-29 12:18:47.17	319.44	13.31	-44.8	-46.1	20.8	0.00e+00	0	42	0	958398464	61	4106
2026-01-29 12:18:48.18	319.60	13.25	-44.8	-46.0	20.8	0.00e+00	0	42	0	959447040	61	4096
2026-01-29 12:18:49.19	319.76	13.19	-44.9	-46.2	20.6	0.00e+00	0	42	0	961544192	61	4161
2026-01-29 12:18:50.20	319.92	13.13	-45.1	-46.3	20.5	0.00e+00	0	42	0	963641344	61	4241
2026-01-29 12:18:51.20	320.08	13.07	-45.1	-46.4	20.5	0.00e+00	0	42	0	965738496	61	4247
2026-01-29 12:18:52.21	320.24	13.01	-45.3	-46.6	20.3	0.00e+00	0	41	0	967835648	61	4361
2026-01-29 12:18:53.21	320.39	12.95	-45.3	-46.6	20.3	0.00e+00	0	42	0	968884224	61	4374
2026-01-29 12:18:54.22	320.55	12.89	-45.3	-46.6	20.3	0.00e+00	0	42	0	970981376	61	4386
2026-01-29 12:18:55.22	320.71	12.83	-44.9	-46.2	20.6	0.00e+00	0	42	0	973078528	61	4172
2026-01-29 12:18:56.23	320.86	12.77	-44.7	-45.9	20.8	0.00e+00	0	42	0	975175680	61	4048
2026-01-29 12:18:57.23	321.02	12.71	-44.6	-45.9	21.0	0.00e+00	0	42	0	977272832	61	4013
2026-01-29 12:18:58.24	321.17	12.65	-44.5	-45.7	21.1	0.00e+00	0	42	0	978321408	61	3939
2026-01-29 12:18:59.25	321.33	12.59	-44.4	-45.6	21.2	0.00e+00	0	42	0	980418560	60	4124
2026-01-29 12:19:00.25	321.48	12.53	-44.5	-45.7	21.0	0.00e+00	0	42	0	982515712	60	4192
2026-01-29 12:19:01.26	321.63	12.47	-44.6	-45.9	21.0	0.00e+00	0	42	0	984612864	60	4251
2026-01-29 12:19:02.27	321.78	12.41	-44.8	-46.0	20.8	0.00e+00	0	42	0	986710016	60	4332
2026-01-29 12:19:03.28	321.94	12.35	-44.9	-46.2	20.5	0.00e+00	0	42	0	987758592	60	4406
2026-01-29 12:19:04.29	322.09	12.29	-45.0	-46.3	20.4	0.00e+00	0	42	0	989855744	60	4481
2026-01-29 12:19:05.29	322.24	12.23	-45.1	-46.5	20.3	0.00e+00	0	42	0	991952896	60	4557
2026-01-29 12:19:06.30	322.39	12.16	-45.1	-46.4	20.4	0.00e+00	0	42	0	994050048	60	4503
2026-01-29 12:19:07.31	322.54	12.10	-44.9	-46.2	20.6	0.00e+00	0	42	0	996147200	60	4411
2026-01-29 12:19:08.32	322.69	12.04	-44.8	-46.1	20.7	0.00e+00	0	42	0	997195776	60	4353
2026-01-29 12:19:09.32	322.83	11.98	-44.7	-46.0	20.7	0.00e+00	0	42	0	999292928	60	4298
2026-01-29 12:19:10.33	322.98	11.92	-44.6	-45.9	20.8	0.00e+00	0	42	0	1001390080	60	4258
2026-01-29 12:19:11.34	323.13	11.86	-44.6	-45.8	20.8	0.00e+00	0	42	0	1003487232	60	4238
2026-01-29 12:19:12.35	323.27	11.80	-44.7	-46.0	20.7	0.00e+00	0	42	0	1005584384	60	4304
2026-01-29 12:19:13.36	323.42	11.74	-44.8	-46.1	20.6	0.00e+00	0	42	0	1006632960	60	4371
2026-01-29 12:19:14.36	323.56	11.68	-45.0	-46.3	20.4	0.00e+00	0	42	0	1008730112	60	4488
2026-01-29 12:19:15.37	323.71	11.62	-45.2	-46.6	20.2	0.00e+00	0	42	0	1010827264	61	4362
2026-01-29 12:19:16.38	323.85	11.56	-45.4	-46.8	20.0	0.00e+00	0	42	0	1012924416	61	4457
2026-01-29 12:19:17.39	324.00	11.50	-45.5	-47.0	19.8	0.00e+00	0	42	0	1015021568	61	4549
2026-01-29 12:19:18.39	324.14	11.44	-45.5	-46.9	19.9	0.00e+00	0	42	0	1017118720	61	4517
2026-01-29 12:19:19.40	324.28	11.38	-45.5	-46.9	19.8	0.00e+00	0	42	0	1018167296	61	4530
2026-01-29 12:19:20.41	324.42	11.32	-45.5	-47.0	19.8	0.00e+00	0	42	0	1020264448	61	4553
2026-01-29 12:19:21.42	324.57	11.26	-45.4	-46.8	19.9	0.00e+00	0	41	0	1022361600	61	4484
2026-01-29 12:19:22.42	324.70	11.20	-45.3	-46.7	20.0	0.00e+00	0	41	0	1024458752	61	4414
2026-01-29 12:19:23.43	324.85	11.14	-45.3	-46.7	20.0	0.00e+00	0	42	0	1026555904	61	4417
2026-01-29 12:19:24.43	324.98	11.08	-45.1	-46.5	20.2	0.00e+00	0	42	0	1027604480	61	4297
2026-01-29 12:19:25.44	325.12	11.01	-45.1	-46.5	20.3	0.00e+00	0	42	0	1029701632	61	4296
2026-01-29 12:19:26.45	325.26	10.95	-45.3	-46.6	20.1	0.00e+00	0	42	0	1031798784	61	4372
2026-01-29 12:19:27.45	325.40	10.89	-45.4	-46.8	19.9	0.00e+00	0	42	0	1033895936	61	4447
2026-01-29 12:19:28.46	325.54	10.83	-45.5	-46.9	19.8	0.00e+00	0	42	0	1034944512	61	4511
2026-01-29 12:19:29.46	325.67	10.77	-45.5	-47.0	19.8	0.00e+00	0	41	0	1037041664	61	4563
2026-01-29 12:19:30.47	325.81	10.71	-45.6	-47.0	19.7	0.00e+00	0	42	0	1039138816	61	4569
2026-01-29 12:19:31.48	325.94	10.65	-45.5	-46.9	19.7	0.00e+00	0	42	0	1041235968	61	4544
2026-01-29 12:19:32.49	326.08	10.59	-45.4	-46.9	19.9	0.00e+00	0	42	0	1043333120	61	4496
2026-01-29 12:19:33.49	326.21	10.53	-45.4	-46.8	19.9	0.00e+00	0	41	0	1045430272	61	4476
2026-01-29 12:19:34.50	326.35	10.47	-45.1	-46.5	20.1	0.00e+00	0	42	0	1046478848	61	4313
2026-01-29 12:19:35.51	326.48	10.41	-45.2	-46.5	20.1	0.00e+00	0	42	0	1048576000	61	4321
2026-01-29 12:19:36.52	326.61	10.35	-45.2	-46.5	20.1	0.00e+00	0	42	0	1050673152	61	4339
2026-01-29 12:19:37.53	326.75	10.29	-45.1	-46.4	20.2	0.00e+00	0	42	0	1052770304	61	4274
2026-01-29 12:19:38.53	326.88	10.23	-45.3	-46.6	20.0	0.00e+00	0	42	0	1054867456	61	4383
2026-01-29 12:19:39.54	327.01	10.17	-45.3	-46.7	20.0	0.00e+00	0	42	0	1055916032	61	4392
2026-01-29 12:19:40.55	327.14	10.11	-45.4	-46.8	19.8	0.00e+00	0	42	0	1058013184	61	4482
2026-01-29 12:19:41.56	327.27	10.05	-45.5	-47.0	19.6	0.00e+00	0	42	0	1060110336	61	4565
2026-01-29 12:19:42.57	327.40	9.99	-45.6	-47.1	19.5	0.00e+00	0	42	0	1062207488	62	4369
2026-01-29 12:19:43.57	327.53	9.93	-45.9	-47.4	19.3	0.00e+00	0	42	0	1063256064	62	4513
2026-01-29 12:19:44.58	327.66	9.87	-46.0	-47.5	19.1	0.00e+00	0	42	0	1065353216	62	4581
2026-01-29 12:19:45.59	327.79	9.81	-45.9	-47.5	19.1	0.00e+00	0	41	0	1067450368	62	4559
2026-01-29 12:19:46.60	327.92	9.75	-45.9	-47.5	19.2	0.00e+00	0	42	0	1069547520	62	4548
2026-01-29 12:19:47.61	328.04	9.68	-45.9	-47.4	19.2	0.00e+00	0	42	0	1071644672	62	4536
2026-01-29 12:19:48.61	328.17	9.63	-45.8	-47.3	19.3	0.00e+00	0	41	0	1073741824	62	4453
2026-01-29 12:19:49.62	328.30	9.56	-45.8	-47.3	19.3	0.00e+00	0	42	0	1074790400	62	4492
2026-01-29 12:19:50.63	328.42	9.50	-45.7	-47.2	19.4	0.00e+00	0	42	0	1076887552	62	4418
2026-01-29 12:19:51.63	328.55	9.44	-45.8	-47.4	19.2	0.00e+00	0	42	0	1078984704	62	4497
2026-01-29 12:19:52.64	328.67	9.38	-45.9	-47.4	19.2	0.00e+00	0	42	0	1081081856	62	4511
2026-01-29 12:19:53.65	328.80	9.32	-46.1	-47.6	19.0	0.00e+00	0	42	0	1083179008	62	4644
2026-01-29 12:19:54.65	328.92	9.26	-46.1	-47.6	19.0	0.00e+00	0	42	0	1084227584	62	4636
2026-01-29 12:19:55.66	329.04	9.20	-46.1	-47.6	18.9	0.00e+00	0	42	0	1086324736	62	4635
2026-01-29 12:19:56.67	329.17	9.14	-46.1	-47.7	18.9	0.00e+00	0	42	0	1088421888	62	4693
2026-01-29 12:19:57.68	329.29	9.08	-46.1	-47.7	18.8	0.00e+00	0	42	0	1090519040	63	4436
2026-01-29 12:19:58.68	329.41	9.02	-46.2	-47.9	18.7	0.00e+00	0	42	0	1091567616	63	4504
2026-01-29 12:19:59.69	329.53	8.96	-46.3	-48.0	18.6	0.00e+00	0	42	0	1093664768	63	4546
2026-01-29 12:20:00.69	329.65	8.91	-46.2	-47.8	18.8	0.00e+00	0	42	0	1095761920	63	4471
2026-01-29 12:20:01.70	329.77	8.85	-46.1	-47.7	18.9	0.00e+00	0	42	0	1097859072	63	4423
2026-01-29 12:20:02.71	329.89	8.79	-46.1	-47.7	18.9	0.00e+00	0	42	0	1099956224	63	4415
2026-01-29 12:20:03.72	330.01	8.73	-46.1	-47.7	18.9	0.00e+00	0	42	0	1102053376	63	4398
2026-01-29 12:20:04.73	330.13	8.67	-46.1	-47.6	18.9	0.00e+00	0	42	0	1103101952	63	4386
2026-01-29 12:20:05.73	330.25	8.61	-46.0	-47.5	19.0	0.00e+00	0	42	0	1105199104	63	4338
2026-01-29 12:20:06.74	330.37	8.55	-46.0	-47.6	19.0	0.00e+00	0	42	0	1107296256	63	4356
2026-01-29 12:20:07.75	330.48	8.49	-46.2	-47.8	18.7	0.00e+00	0	42	0	1109393408	63	4455
2026-01-29 12:20:08.76	330.60	8.43	-46.2	-47.8	18.7	0.00e+00	0	42	0	1111490560	63	4478
2026-01-29 12:20:09.76	330.72	8.37	-46.3	-47.9	18.6	0.00e+00	0	42	0	1112539136	63	4520
2026-01-29 12:20:10.77	330.83	8.31	-46.5	-48.2	18.3	0.00e+00	0	42	0	1114636288	63	4668
2026-01-29 12:20:11.78	330.95	8.25	-46.5	-48.2	18.3	0.00e+00	0	42	0	1116733440	63	4657
2026-01-29 12:20:12.79	331.07	8.19	-46.7	-48.4	18.0	0.00e+00	0	42	0	1118830592	63	4811
2026-01-29 12:20:13.79	331.18	8.13	-46.5	-48.3	18.1	0.00e+00	0	42	0	1120927744	64	4472
2026-01-29 12:20:14.80	331.29	8.07	-46.6	-48.3	18.1	0.00e+00	0	42	0	1121976320	64	4488
2026-01-29 12:20:15.81	331.41	8.01	-46.5	-48.2	18.1	0.00e+00	0	42	0	1124073472	64	4439
2026-01-29 12:20:16.82	331.52	7.95	-46.4	-48.1	18.3	0.00e+00	0	42	0	1126170624	64	4384
2026-01-29 12:20:17.83	331.64	7.89	-46.4	-48.2	18.2	0.00e+00	0	42	0	1128267776	64	4412
2026-01-29 12:20:18.83	331.75	7.84	-46.4	-48.1	18.3	0.00e+00	0	42	0	1130364928	64	4353
2026-01-29 12:20:19.84	331.86	7.78	-46.2	-47.9	18.5	0.00e+00	0	42	0	1131413504	64	4270
2026-01-29 12:20:20.85	331.97	7.72	-46.2	-47.9	18.5	0.00e+00	0	41	0	1133510656	64	4271
2026-01-29 12:20:21.86	332.08	7.66	-46.1	-47.7	18.7	0.00e+00	0	42	0	1135607808	64	4172
2026-01-29 12:20:22.87	332.20	7.60	-46.2	-47.9	18.5	0.00e+00	0	42	0	1137704960	64	4280
2026-01-29 12:20:23.87	332.31	7.54	-46.2	-47.9	18.5	0.00e+00	0	41	0	1139802112	64	4246
2026-01-29 12:20:24.88	332.42	7.48	-46.2	-47.9	18.4	0.00e+00	0	42	0	1140850688	64	4286
2026-01-29 12:20:25.89	332.53	7.42	-46.3	-48.0	18.3	0.00e+00	0	41	0	1142947840	64	4298
2026-01-29 12:20:26.89	332.63	7.36	-46.4	-48.1	18.2	0.00e+00	0	42	0	1145044992	64	4360
2026-01-29 12:20:27.90	332.74	7.31	-46.3	-48.0	18.3	0.00e+00	0	42	0	1147142144	64	4325
2026-01-29 12:20:28.91	332.85	7.25	-46.4	-48.2	18.1	0.00e+00	0	42	0	1149239296	64	4413
2026-01-29 12:20:29.92	332.96	7.19	-46.5	-48.3	18.0	0.00e+00	0	42	0	1150287872	64	4480
2026-01-29 12:20:30.93	333.07	7.13	-46.6	-48.4	17.9	0.00e+00	0	42	0	1152385024	64	4529
2026-01-29 12:20:31.93	333.17	7.07	-46.5	-48.3	18.0	0.00e+00	0	42	0	1154482176	64	4470
2026-01-29 12:20:32.94	333.28	7.01	-46.6	-48.4	17.9	0.00e+00	0	42	0	1156579328	64	4531
2026-01-29 12:20:33.95	333.39	6.95	-46.5	-48.3	18.0	0.00e+00	0	42	0	1158676480	64	4466
2026-01-29 12:20:34.95	333.49	6.90	-46.5	-48.3	18.0	0.00e+00	0	42	0	1159725056	64	4467
2026-01-29 12:20:35.96	333.60	6.84	-46.6	-48.5	17.8	0.00e+00	0	42	0	1161822208	64	4555
2026-01-29 12:20:36.97	333.70	6.78	-46.5	-48.3	17.9	0.00e+00	0	42	0	1163919360	64	4477
2026-01-29 12:20:37.97	333.81	6.72	-46.4	-48.2	18.0	0.00e+00	0	42	0	1166016512	64	4428
2026-01-29 12:20:38.98	333.91	6.66	-46.5	-48.3	17.9	0.00e+00	0	42	0	1168113664	64	4486
2026-01-29 12:20:39.99	334.02	6.61	-46.7	-48.5	17.7	0.00e+00	0	42	0	1169162240	64	4587
2026-01-29 12:20:40.99	334.12	6.55	-46.8	-48.7	17.5	0.00e+00	0	42	0	1171259392	64	4683
2026-01-29 12:20:42.00	334.22	6.49	-46.8	-48.7	17.5	0.00e+00	0	42	0	1173356544	64	4689
2026-01-29 12:20:43.01	334.33	6.43	-46.9	-48.9	17.4	0.00e+00	0	42	0	1175453696	64	4766
2026-01-29 12:20:44.01	334.43	6.38	-46.9	-48.9	17.3	0.00e+00	0	42	0	1177550848	64	4800
2026-01-29 12:20:45.02	334.53	6.32	-47.0	-49.1	17.1	0.00e+00	0	42	0	1178599424	64	4877
2026-01-29 12:20:46.03	334.63	6.26	-47.2	-49.2	17.0	0.00e+00	0	42	0	1180696576	64	4981
2026-01-29 12:20:47.04	334.73	6.20	-47.2	-49.3	16.9	0.00e+00	0	42	0	1182793728	64	4988
2026-01-29 12:20:48.05	334.84	6.14	-47.1	-49.2	17.0	0.00e+00	0	42	0	1184890880	64	4933
2026-01-29 12:20:49.05	334.94	6.09	-47.0	-49.0	17.1	0.00e+00	0	42	0	1186988032	64	4870
2026-01-29 12:20:50.06	335.04	6.03	-47.1	-49.2	16.9	0.00e+00	0	42	0	1188036608	64	4965
2026-01-29 12:20:51.06	335.14	5.97	-47.0	-49.0	17.1	0.00e+00	0	42	0	1190133760	64	4860
2026-01-29 12:20:52.07	335.23	5.91	-46.9	-48.9	17.2	0.00e+00	0	42	0	1192230912	64	4814
2026-01-29 12:20:53.08	335.33	5.86	-47.0	-49.0	17.2	0.00e+00	0	42	0	1194328064	64	4834
2026-01-29 12:20:54.09	335.43	5.80	-47.1	-49.2	16.9	0.00e+00	0	42	0	1196425216	64	4947
2026-01-29 12:20:55.09	335.53	5.74	-47.2	-49.3	16.8	0.00e+00	0	42	0	1197473792	64	5037
2026-01-29 12:20:56.10	335.63	5.69	-47.0	-49.1	17.0	0.00e+00	0	42	0	1199570944	65	4609
2026-01-29 12:20:57.11	335.73	5.63	-47.0	-49.0	17.1	0.00e+00	0	42	0	1201668096	65	4590
2026-01-29 12:20:58.12	335.82	5.57	-47.1	-49.1	17.0	0.00e+00	0	42	0	1203765248	65	4641
2026-01-29 12:20:59.12	335.92	5.52	-47.1	-49.2	16.9	0.00e+00	0	42	0	1205862400	65	4668
