passes_logs/2026/01/29/R3.2S_Murmansk/R3.2S_Murmansk__20260129_102710_NOAA_20_JPSS-1_rec.log

#Pass ID: 20260129_102710_NOAA 20 (JPSS-1)
#Satellite: NOAA 20 (JPSS-1)
#Configuration: NOAA 20
#almurnet v.1.7.20251203
#Start time: 2026-01-29 10:27:10

#Version: 2.2.20231116
#Station: R3.2S_Murmansk
#Location: 33.079688 lon 68.888172 lat
#TLE: 1 43013U 17073A   26028.86313978  .00000144  00000+0  89200-4 0  9993
#TLE: 2 43013  98.7648 329.6571 0000891  20.0014 340.1197 14.19541559424709

#Time	Az	El	Level	Level2	SNR	BER	BlckErr	Temp	State	Recorded	gain1	gain2
2026-01-29 10:27:10.16	174.26	2.00	-53.7	-68.7	3.8	1.49e+00	0	40	0	0	79	19731
2026-01-29 10:27:11.15	174.29	2.07	-53.3	-68.3	3.8	1.49e+00	0	40	104	0	77	21185
2026-01-29 10:27:12.16	174.32	2.13	-53.1	-68.1	3.8	1.49e+00	0	40	104	0	77	20720
2026-01-29 10:27:13.17	174.35	2.19	-52.8	-67.8	3.8	1.49e+00	0	40	104	0	77	19944
2026-01-29 10:27:14.18	174.38	2.26	-52.4	-67.3	3.8	1.49e+00	0	40	104	0	76	19865
2026-01-29 10:27:15.19	174.41	2.32	-52.3	-67.2	3.8	1.49e+00	0	40	104	0	76	19665
2026-01-29 10:27:16.19	174.44	2.38	-52.3	-67.1	3.8	1.49e+00	0	40	104	0	76	19595
2026-01-29 10:27:17.20	174.47	2.45	-52.3	-67.1	3.8	1.49e+00	0	40	104	0	76	19585
2026-01-29 10:27:18.21	174.50	2.51	-52.3	-67.1	3.8	1.49e+00	0	40	104	0	76	19537
2026-01-29 10:27:19.22	174.53	2.58	-52.3	-67.2	3.8	1.49e+00	0	40	104	0	76	19687
2026-01-29 10:27:20.23	174.56	2.64	-52.3	-67.2	3.8	1.49e+00	0	40	104	0	76	19700
2026-01-29 10:27:21.23	174.59	2.71	-52.3	-67.2	3.8	1.49e+00	0	40	104	0	76	19786
2026-01-29 10:27:22.24	174.62	2.77	-52.3	-67.3	3.8	1.49e+00	0	40	104	0	76	19855
2026-01-29 10:27:23.25	174.65	2.84	-52.3	-67.2	3.8	1.49e+00	0	40	104	0	76	19819
2026-01-29 10:27:24.25	174.68	2.90	-52.3	-67.3	3.8	1.49e+00	0	40	104	0	76	19862
2026-01-29 10:27:25.26	174.71	2.97	-52.3	-67.2	3.8	1.49e+00	0	40	104	0	76	19753
2026-01-29 10:27:26.27	174.74	3.03	-52.3	-67.2	3.8	1.49e+00	0	40	104	0	76	19831
2026-01-29 10:27:27.28	174.77	3.10	-52.3	-67.2	3.8	1.49e+00	0	40	104	0	76	19762
2026-01-29 10:27:28.29	174.80	3.17	-52.3	-67.2	3.8	1.49e+00	0	40	104	0	76	19830
2026-01-29 10:27:29.30	174.83	3.23	-52.3	-67.2	3.8	1.49e+00	0	40	104	0	76	19825
2026-01-29 10:27:30.31	174.86	3.30	-52.3	-67.2	3.8	1.49e+00	0	41	104	0	76	19745
2026-01-29 10:27:31.31	174.89	3.36	-52.3	-67.1	3.8	1.49e+00	0	40	104	0	76	19501
2026-01-29 10:27:32.32	174.92	3.43	-52.3	-67.0	3.8	1.49e+00	0	41	104	0	76	19229
2026-01-29 10:27:33.33	174.96	3.50	-52.3	-66.7	3.8	1.49e+00	0	40	104	0	76	18592
2026-01-29 10:27:34.33	174.99	3.56	-52.2	-66.4	3.8	1.49e+00	0	40	104	0	76	17914
2026-01-29 10:27:35.34	175.02	3.63	-52.2	-66.1	3.8	1.49e+00	0	40	104	0	76	17402
2026-01-29 10:27:36.35	175.05	3.70	-52.2	-66.2	3.8	1.49e+00	0	41	104	0	76	17515
2026-01-29 10:27:37.36	175.08	3.76	-52.2	-66.0	3.8	1.49e+00	0	41	104	0	76	17168
2026-01-29 10:27:38.37	175.12	3.83	-52.2	-66.2	3.8	1.49e+00	0	41	104	0	76	17682
2026-01-29 10:27:39.38	175.15	3.90	-52.2	-66.7	3.8	1.49e+00	0	41	104	0	76	18633
2026-01-29 10:27:40.39	175.18	3.97	-52.2	-66.7	3.8	1.49e+00	0	41	104	0	76	18721
2026-01-29 10:27:41.39	175.21	4.04	-52.2	-65.8	3.8	1.49e+00	0	41	104	0	76	16817
2026-01-29 10:27:42.40	175.25	4.10	-52.1	-63.7	4.2	1.48e+00	0	41	104	0	76	13238
2026-01-29 10:27:43.41	175.28	4.17	-51.9	-61.7	5.0	9.89e-01	0	41	0	1048576	75	11096
2026-01-29 10:27:44.42	175.31	4.24	-51.5	-59.3	6.7	5.21e-01	0	41	0	3145728	75	8388
2026-01-29 10:27:45.43	175.34	4.31	-51.0	-57.1	8.8	4.91e-02	0	41	0	4194304	74	6920
2026-01-29 10:27:46.43	175.38	4.38	-50.4	-55.2	10.7	9.30e-03	0	41	0	6291456	72	6254
2026-01-29 10:27:47.44	175.41	4.45	-49.9	-53.8	12.3	6.47e-04	0	40	0	8388608	71	5611
2026-01-29 10:27:48.45	175.44	4.52	-49.3	-52.6	13.6	2.44e-05	0	41	0	10485760	70	5184
2026-01-29 10:27:49.45	175.48	4.58	-48.6	-51.4	14.8	1.50e-06	0	41	0	12582912	69	4761
2026-01-29 10:27:50.46	175.51	4.65	-48.0	-50.5	15.7	0.00e+00	0	41	0	14680064	68	4547
2026-01-29 10:27:51.47	175.55	4.72	-47.4	-49.6	16.5	0.00e+00	0	41	0	15728640	66	4631
2026-01-29 10:27:52.48	175.58	4.79	-47.1	-49.2	16.9	0.00e+00	0	41	0	17825792	66	4409
2026-01-29 10:27:53.49	175.61	4.86	-47.0	-49.0	17.2	0.00e+00	0	41	0	19922944	65	4555
2026-01-29 10:27:54.50	175.65	4.93	-46.9	-48.9	17.2	0.00e+00	0	41	0	22020096	65	4538
2026-01-29 10:27:55.51	175.68	5.00	-46.9	-48.9	17.2	0.00e+00	0	41	0	23068672	65	4528
2026-01-29 10:27:56.52	175.72	5.08	-47.3	-49.4	17.0	0.00e+00	0	41	0	25165824	65	4803
2026-01-29 10:27:57.52	175.75	5.15	-47.9	-50.2	15.9	5.61e-03	0	41	0	27262976	67	4676
2026-01-29 10:27:58.53	175.79	5.22	-47.1	-49.1	16.9	5.41e-04	0	41	0	29360128	66	4367
2026-01-29 10:27:59.54	175.82	5.29	-47.9	-50.3	15.9	0.00e+00	0	41	0	31457280	66	5015
2026-01-29 10:28:00.54	175.86	5.36	-46.7	-48.6	17.6	0.00e+00	0	41	0	32505856	65	4341
2026-01-29 10:28:01.55	175.89	5.43	-48.0	-50.5	15.5	5.18e-04	0	41	0	34603008	68	4560
2026-01-29 10:28:02.56	175.93	5.50	-46.5	-48.4	17.7	0.00e+00	0	41	0	36700160	65	4253
2026-01-29 10:28:03.56	175.96	5.57	-46.6	-48.4	17.7	0.00e+00	0	41	0	38797312	65	4282
2026-01-29 10:28:04.57	176.00	5.64	-46.7	-48.6	17.5	0.00e+00	0	41	0	40894464	65	4374
2026-01-29 10:28:05.58	176.04	5.72	-46.8	-48.7	17.4	0.00e+00	0	41	0	42991616	65	4422
2026-01-29 10:28:06.59	176.07	5.79	-46.7	-48.5	17.6	0.00e+00	0	41	0	44040192	65	4332
2026-01-29 10:28:07.59	176.11	5.86	-46.6	-48.4	17.8	0.00e+00	0	41	0	46137344	65	4267
2026-01-29 10:28:08.60	176.14	5.93	-46.7	-48.5	17.7	0.00e+00	0	41	0	48234496	65	4327
2026-01-29 10:28:09.60	176.18	6.01	-46.6	-48.5	17.7	0.00e+00	0	41	0	50331648	65	4293
2026-01-29 10:28:10.61	176.22	6.08	-46.4	-48.2	18.1	0.00e+00	0	41	0	51380224	64	4392
2026-01-29 10:28:11.61	176.25	6.15	-46.3	-48.1	18.2	0.00e+00	0	41	0	53477376	64	4347
2026-01-29 10:28:12.62	176.29	6.23	-46.3	-48.1	18.2	0.00e+00	0	41	0	55574528	64	4353
2026-01-29 10:28:13.63	176.33	6.30	-46.5	-48.3	18.0	0.00e+00	0	41	0	57671680	64	4462
2026-01-29 10:28:14.64	176.37	6.37	-46.3	-48.1	18.2	0.00e+00	0	41	0	59768832	64	4347
2026-01-29 10:28:15.65	176.40	6.45	-46.4	-48.1	18.2	0.00e+00	0	41	0	60817408	64	4388
2026-01-29 10:28:16.65	176.44	6.52	-46.2	-47.9	18.4	0.00e+00	0	41	0	62914560	64	4272
2026-01-29 10:28:17.66	176.48	6.60	-46.2	-47.9	18.4	0.00e+00	0	41	0	65011712	64	4247
2026-01-29 10:28:18.67	176.52	6.67	-46.2	-47.9	18.4	0.00e+00	0	41	0	67108864	64	4243
2026-01-29 10:28:19.68	176.56	6.75	-46.1	-47.7	18.6	0.00e+00	0	41	0	69206016	64	4163
2026-01-29 10:28:20.69	176.60	6.82	-46.3	-47.9	18.3	0.00e+00	0	41	0	71303168	64	4291
2026-01-29 10:28:21.70	176.63	6.90	-46.3	-48.0	18.4	0.00e+00	0	41	0	72351744	64	4295
2026-01-29 10:28:22.69	176.67	6.97	-46.3	-47.9	18.4	0.00e+00	0	41	0	74448896	64	4284
2026-01-29 10:28:23.70	176.71	7.05	-46.3	-47.9	18.4	0.00e+00	0	41	0	76546048	64	4281
2026-01-29 10:28:24.71	176.75	7.12	-46.3	-48.0	18.5	0.00e+00	0	41	0	78643200	64	4292
2026-01-29 10:28:25.72	176.79	7.20	-46.1	-47.7	18.6	0.00e+00	0	41	0	79691776	64	4193
2026-01-29 10:28:26.73	176.83	7.28	-46.3	-47.9	18.4	0.00e+00	0	41	0	81788928	64	4286
2026-01-29 10:28:27.73	176.87	7.35	-46.0	-47.6	18.8	0.00e+00	0	41	0	83886080	64	4140
2026-01-29 10:28:28.74	176.91	7.43	-46.1	-47.6	18.8	0.00e+00	0	41	0	85983232	63	4385
2026-01-29 10:28:29.74	176.95	7.51	-46.0	-47.6	18.9	0.00e+00	0	41	0	88080384	63	4360
2026-01-29 10:28:30.75	176.99	7.58	-46.2	-47.8	18.7	0.00e+00	0	41	0	89128960	63	4472
2026-01-29 10:28:31.76	177.03	7.66	-45.9	-47.5	19.0	0.00e+00	0	41	0	91226112	63	4314
2026-01-29 10:28:32.76	177.07	7.74	-46.1	-47.6	18.9	0.00e+00	0	41	0	93323264	63	4389
2026-01-29 10:28:33.77	177.11	7.82	-46.0	-47.5	19.0	0.00e+00	0	41	0	95420416	63	4320
2026-01-29 10:28:34.78	177.16	7.90	-46.0	-47.6	19.0	0.00e+00	0	41	0	97517568	63	4344
2026-01-29 10:28:35.79	177.20	7.97	-46.1	-47.6	18.9	0.00e+00	0	41	0	99614720	63	4391
2026-01-29 10:28:36.80	177.24	8.05	-46.1	-47.6	18.9	0.00e+00	0	41	0	100663296	63	4378
2026-01-29 10:28:37.81	177.28	8.13	-46.0	-47.6	18.9	0.00e+00	0	41	0	102760448	63	4365
2026-01-29 10:28:38.82	177.32	8.21	-46.0	-47.5	19.0	0.00e+00	0	41	0	104857600	63	4329
2026-01-29 10:28:39.83	177.36	8.29	-45.9	-47.4	19.2	0.00e+00	0	41	0	106954752	63	4253
2026-01-29 10:28:40.83	177.41	8.37	-45.8	-47.3	19.3	0.00e+00	0	41	0	108003328	63	4228
2026-01-29 10:28:41.84	177.45	8.45	-45.9	-47.5	19.1	0.00e+00	0	41	0	110100480	63	4301
2026-01-29 10:28:42.85	177.49	8.53	-46.0	-47.6	19.0	0.00e+00	0	41	0	112197632	63	4348
2026-01-29 10:28:43.86	177.54	8.61	-45.8	-47.4	19.2	0.00e+00	0	41	0	114294784	63	4243
2026-01-29 10:28:44.86	177.58	8.69	-45.8	-47.3	19.3	0.00e+00	0	41	0	116391936	63	4204
2026-01-29 10:28:45.87	177.62	8.77	-45.8	-47.2	19.4	0.00e+00	0	41	0	118489088	63	4187
2026-01-29 10:28:46.88	177.67	8.85	-45.8	-47.3	19.4	0.00e+00	0	41	0	119537664	63	4194
2026-01-29 10:28:47.89	177.71	8.94	-45.7	-47.2	19.4	0.00e+00	0	41	0	121634816	63	4169
2026-01-29 10:28:48.89	177.75	9.02	-45.7	-47.2	19.5	0.00e+00	0	41	0	123731968	63	4155
2026-01-29 10:28:49.90	177.80	9.10	-45.8	-47.3	19.4	0.00e+00	0	41	0	125829120	63	4207
2026-01-29 10:28:50.90	177.84	9.18	-45.7	-47.1	19.5	0.00e+00	0	41	0	127926272	63	4144
2026-01-29 10:28:51.91	177.89	9.26	-45.7	-47.2	19.5	0.00e+00	0	41	0	128974848	63	4154
2026-01-29 10:28:52.92	177.93	9.35	-45.7	-47.2	19.5	0.00e+00	0	41	0	131072000	63	4163
2026-01-29 10:28:53.92	177.98	9.43	-45.7	-47.1	19.5	0.00e+00	0	41	0	133169152	63	4134
2026-01-29 10:28:54.93	178.02	9.51	-45.7	-47.1	19.6	0.00e+00	0	41	0	135266304	63	4123
2026-01-29 10:28:55.93	178.07	9.59	-45.6	-47.0	19.7	0.00e+00	0	41	0	136314880	63	4083
2026-01-29 10:28:56.94	178.12	9.68	-45.5	-47.0	19.7	0.00e+00	0	41	0	138412032	63	4061
2026-01-29 10:28:57.95	178.16	9.76	-45.6	-47.0	19.6	0.00e+00	0	41	0	140509184	63	4093
2026-01-29 10:28:58.96	178.21	9.85	-45.6	-47.0	19.6	0.00e+00	0	41	0	142606336	63	4098
2026-01-29 10:28:59.97	178.26	9.93	-45.5	-46.9	19.8	0.00e+00	0	41	0	144703488	63	4040
2026-01-29 10:29:00.97	178.30	10.01	-45.6	-47.0	19.6	0.00e+00	0	41	0	146800640	63	4098
2026-01-29 10:29:01.97	178.35	10.10	-45.6	-47.1	19.6	0.00e+00	0	41	0	147849216	63	4111
2026-01-29 10:29:02.98	178.40	10.18	-45.6	-47.0	19.7	0.00e+00	0	42	0	149946368	63	4067
2026-01-29 10:29:03.99	178.45	10.27	-45.5	-46.9	19.8	0.00e+00	0	41	0	152043520	63	4044
2026-01-29 10:29:05.00	178.49	10.36	-45.5	-46.9	19.8	0.00e+00	0	42	0	154140672	62	4271
2026-01-29 10:29:06.00	178.54	10.44	-45.6	-47.0	19.7	0.00e+00	0	41	0	156237824	62	4293
2026-01-29 10:29:07.01	178.59	10.53	-45.5	-46.9	19.8	0.00e+00	0	41	0	157286400	62	4288
2026-01-29 10:29:08.02	178.64	10.62	-45.6	-47.0	19.7	0.00e+00	0	42	0	159383552	62	4327
2026-01-29 10:29:09.03	178.69	10.70	-45.6	-47.1	19.7	0.00e+00	0	41	0	161480704	62	4351
2026-01-29 10:29:10.03	178.74	10.79	-45.5	-46.9	19.8	0.00e+00	0	41	0	163577856	62	4279
2026-01-29 10:29:11.04	178.79	10.88	-45.5	-46.9	19.9	0.00e+00	0	41	0	165675008	62	4254
2026-01-29 10:29:12.05	178.84	10.97	-45.6	-46.9	19.8	0.00e+00	0	41	0	166723584	62	4290
2026-01-29 10:29:13.06	178.89	11.05	-45.5	-46.9	19.8	0.00e+00	0	41	0	168820736	62	4282
2026-01-29 10:29:14.07	178.94	11.14	-45.5	-46.9	19.8	0.00e+00	0	41	0	170917888	62	4280
2026-01-29 10:29:15.08	178.99	11.23	-45.6	-47.0	19.8	0.00e+00	0	41	0	173015040	62	4299
2026-01-29 10:29:16.08	179.04	11.32	-45.5	-46.9	19.9	0.00e+00	0	42	0	175112192	62	4269
2026-01-29 10:29:17.09	179.09	11.41	-45.5	-46.9	19.9	0.00e+00	0	42	0	176160768	62	4272
2026-01-29 10:29:18.10	179.14	11.50	-45.5	-46.9	19.9	0.00e+00	0	41	0	178257920	62	4272
2026-01-29 10:29:19.11	179.20	11.59	-45.6	-46.9	19.8	0.00e+00	0	42	0	180355072	62	4283
2026-01-29 10:29:20.11	179.25	11.68	-45.6	-47.0	19.9	0.00e+00	0	41	0	182452224	62	4294
2026-01-29 10:29:21.12	179.30	11.77	-45.4	-46.8	20.0	0.00e+00	0	42	0	184549376	62	4220
2026-01-29 10:29:22.13	179.35	11.86	-45.5	-46.9	19.9	0.00e+00	0	41	0	185597952	62	4275
2026-01-29 10:29:23.14	179.41	11.95	-45.5	-46.9	19.9	0.00e+00	0	42	0	187695104	62	4274
2026-01-29 10:29:24.15	179.46	12.05	-45.5	-46.9	19.9	0.00e+00	0	41	0	189792256	62	4254
2026-01-29 10:29:25.15	179.51	12.14	-45.5	-46.9	19.9	0.00e+00	0	42	0	191889408	62	4260
2026-01-29 10:29:26.16	179.57	12.23	-45.4	-46.7	20.1	0.00e+00	0	42	0	193986560	62	4186
2026-01-29 10:29:27.17	179.62	12.32	-45.4	-46.8	20.0	0.00e+00	0	41	0	195035136	62	4227
2026-01-29 10:29:28.18	179.68	12.42	-45.4	-46.7	20.1	0.00e+00	0	42	0	197132288	62	4190
2026-01-29 10:29:29.18	179.73	12.51	-45.4	-46.8	20.0	0.00e+00	0	41	0	199229440	62	4221
2026-01-29 10:29:30.19	179.79	12.60	-45.3	-46.6	20.2	0.00e+00	0	41	0	201326592	62	4132
2026-01-29 10:29:31.20	179.84	12.70	-45.4	-46.7	20.1	0.00e+00	0	41	0	203423744	62	4175
2026-01-29 10:29:32.21	179.90	12.79	-45.3	-46.6	20.3	0.00e+00	0	41	0	204472320	62	4132
2026-01-29 10:29:33.21	179.96	12.88	-45.3	-46.7	20.2	0.00e+00	0	41	0	206569472	62	4148
2026-01-29 10:29:34.22	180.01	12.98	-45.4	-46.7	20.2	0.00e+00	0	42	0	208666624	62	4174
2026-01-29 10:29:35.23	180.07	13.07	-45.4	-46.7	20.1	0.00e+00	0	41	0	210763776	62	4175
2026-01-29 10:29:36.24	180.13	13.17	-45.3	-46.6	20.2	0.00e+00	0	41	0	212860928	62	4119
2026-01-29 10:29:37.24	180.18	13.27	-45.3	-46.6	20.2	0.00e+00	0	41	0	213909504	62	4143
2026-01-29 10:29:38.25	180.24	13.36	-45.2	-46.5	20.4	0.00e+00	0	41	0	216006656	62	4056
2026-01-29 10:29:39.26	180.30	13.46	-45.2	-46.5	20.4	0.00e+00	0	42	0	218103808	62	4068
2026-01-29 10:29:40.26	180.36	13.56	-45.2	-46.5	20.4	0.00e+00	0	41	0	220200960	62	4082
2026-01-29 10:29:41.27	180.42	13.65	-45.1	-46.4	20.5	0.00e+00	0	41	0	222298112	62	4028
2026-01-29 10:29:42.28	180.48	13.75	-45.2	-46.5	20.4	0.00e+00	0	42	0	223346688	62	4059
2026-01-29 10:29:43.29	180.54	13.85	-45.1	-46.4	20.5	0.00e+00	0	41	0	225443840	62	4038
2026-01-29 10:29:44.29	180.60	13.95	-45.2	-46.5	20.4	0.00e+00	0	42	0	227540992	62	4088
2026-01-29 10:29:45.30	180.66	14.05	-45.3	-46.6	20.3	0.00e+00	0	42	0	229638144	62	4107
2026-01-29 10:29:46.30	180.72	14.15	-45.2	-46.5	20.4	0.00e+00	0	41	0	231735296	62	4058
2026-01-29 10:29:47.31	180.78	14.25	-45.1	-46.4	20.5	0.00e+00	0	41	0	232783872	62	4027
2026-01-29 10:29:48.32	180.84	14.35	-45.1	-46.4	20.5	0.00e+00	0	42	0	234881024	62	4048
2026-01-29 10:29:49.33	180.91	14.45	-45.1	-46.4	20.5	0.00e+00	0	41	0	236978176	62	4007
2026-01-29 10:29:50.33	180.97	14.55	-45.2	-46.5	20.4	0.00e+00	0	42	0	239075328	62	4092
2026-01-29 10:29:51.34	181.03	14.65	-45.3	-46.6	20.3	0.00e+00	0	41	0	241172480	62	4125
2026-01-29 10:29:52.35	181.10	14.75	-45.1	-46.4	20.5	0.00e+00	0	41	0	242221056	62	4018
2026-01-29 10:29:53.36	181.16	14.85	-45.0	-46.3	20.6	0.00e+00	0	42	0	244318208	62	3979
2026-01-29 10:29:54.36	181.22	14.95	-45.1	-46.4	20.5	0.00e+00	0	42	0	246415360	62	4015
2026-01-29 10:29:55.37	181.29	15.06	-45.0	-46.2	20.7	0.00e+00	0	42	0	248512512	61	4176
2026-01-29 10:29:56.37	181.35	15.16	-45.0	-46.2	20.6	0.00e+00	0	41	0	250609664	61	4189
2026-01-29 10:29:57.38	181.42	15.26	-44.9	-46.1	20.8	0.00e+00	0	42	0	251658240	61	4131
2026-01-29 10:29:58.39	181.48	15.37	-44.9	-46.1	20.8	0.00e+00	0	42	0	253755392	61	4139
2026-01-29 10:29:59.40	181.55	15.47	-44.9	-46.2	20.8	0.00e+00	0	41	0	255852544	61	4151
2026-01-29 10:30:00.40	181.62	15.58	-44.8	-46.1	20.8	0.00e+00	0	42	0	257949696	61	4103
2026-01-29 10:30:01.42	181.69	15.68	-44.9	-46.1	20.8	0.00e+00	0	42	0	260046848	61	4141
2026-01-29 10:30:02.42	181.75	15.79	-44.9	-46.1	20.8	0.00e+00	0	42	0	261095424	61	4124
2026-01-29 10:30:03.43	181.82	15.90	-44.8	-46.0	20.9	0.00e+00	0	42	0	263192576	61	4064
2026-01-29 10:30:04.44	181.89	16.00	-44.7	-45.9	20.9	0.00e+00	0	42	0	265289728	61	4050
2026-01-29 10:30:05.45	181.96	16.11	-44.8	-46.0	20.9	0.00e+00	0	42	0	267386880	61	4076
2026-01-29 10:30:06.46	182.03	16.22	-44.7	-46.0	20.9	0.00e+00	0	42	0	269484032	61	4055
2026-01-29 10:30:07.47	182.10	16.33	-44.7	-45.9	21.0	0.00e+00	0	42	0	271581184	61	4017
2026-01-29 10:30:08.48	182.17	16.43	-44.8	-46.0	20.9	0.00e+00	0	41	0	272629760	61	4061
2026-01-29 10:30:09.48	182.24	16.54	-44.7	-45.9	21.0	0.00e+00	0	41	0	274726912	61	4029
2026-01-29 10:30:10.49	182.31	16.65	-44.6	-45.8	21.1	0.00e+00	0	41	0	276824064	61	3988
2026-01-29 10:30:11.50	182.38	16.76	-44.6	-45.8	21.2	0.00e+00	0	42	0	278921216	61	3961
2026-01-29 10:30:12.50	182.46	16.87	-44.7	-45.9	21.0	0.00e+00	0	42	0	279969792	61	4015
2026-01-29 10:30:13.51	182.53	16.98	-44.6	-45.8	21.1	0.00e+00	0	42	0	282066944	61	3993
2026-01-29 10:30:14.51	182.60	17.09	-44.6	-45.8	21.1	0.00e+00	0	42	0	284164096	61	3969
2026-01-29 10:30:15.52	182.68	17.20	-44.6	-45.7	21.2	0.00e+00	0	42	0	286261248	61	3954
2026-01-29 10:30:16.52	182.75	17.31	-44.6	-45.7	21.2	0.00e+00	0	42	0	288358400	61	3954
2026-01-29 10:30:17.53	182.82	17.43	-44.6	-45.8	21.1	0.00e+00	0	42	0	289406976	61	3995
2026-01-29 10:30:18.54	182.90	17.54	-44.6	-45.8	21.2	0.00e+00	0	42	0	291504128	61	3961
2026-01-29 10:30:19.55	182.98	17.65	-44.4	-45.6	21.4	0.00e+00	0	42	0	293601280	60	4112
2026-01-29 10:30:20.56	183.05	17.77	-44.5	-45.7	21.2	0.00e+00	0	42	0	295698432	60	4181
2026-01-29 10:30:21.56	183.13	17.88	-44.4	-45.6	21.3	0.00e+00	0	42	0	297795584	60	4127
2026-01-29 10:30:22.57	183.21	18.00	-44.5	-45.7	21.3	0.00e+00	0	42	0	299892736	60	4148
2026-01-29 10:30:23.57	183.29	18.11	-44.6	-45.8	21.2	0.00e+00	0	42	0	300941312	60	4197
2026-01-29 10:30:24.58	183.36	18.23	-44.4	-45.5	21.4	0.00e+00	0	42	0	303038464	60	4084
2026-01-29 10:30:25.59	183.44	18.34	-44.4	-45.5	21.3	0.00e+00	0	42	0	305135616	60	4095
2026-01-29 10:30:26.60	183.52	18.46	-44.4	-45.6	21.4	0.00e+00	0	42	0	307232768	60	4121
2026-01-29 10:30:27.61	183.60	18.58	-44.3	-45.5	21.5	0.00e+00	0	42	0	308281344	60	4073
2026-01-29 10:30:28.61	183.69	18.70	-44.3	-45.4	21.5	0.00e+00	0	41	0	310378496	60	4040
2026-01-29 10:30:29.62	183.77	18.82	-44.2	-45.4	21.5	0.00e+00	0	41	0	312475648	60	4020
2026-01-29 10:30:30.63	183.85	18.93	-44.2	-45.3	21.6	0.00e+00	0	42	0	314572800	60	4003
2026-01-29 10:30:31.63	183.93	19.05	-44.1	-45.2	21.7	0.00e+00	0	42	0	316669952	60	3940
2026-01-29 10:30:32.64	184.02	19.17	-44.1	-45.2	21.8	0.00e+00	0	42	0	317718528	60	3918
2026-01-29 10:30:33.65	184.10	19.29	-44.1	-45.2	21.7	0.00e+00	0	42	0	319815680	60	3933
2026-01-29 10:30:34.65	184.18	19.41	-44.1	-45.2	21.7	0.00e+00	0	42	0	321912832	60	3933
2026-01-29 10:30:35.66	184.27	19.54	-44.0	-45.1	21.9	0.00e+00	0	42	0	324009984	60	3876
2026-01-29 10:30:36.67	184.36	19.66	-44.2	-45.3	22.0	0.00e+00	0	42	0	326107136	59	4228
2026-01-29 10:30:37.67	184.44	19.78	-44.3	-45.4	21.9	0.00e+00	0	41	0	328204288	59	4268
2026-01-29 10:30:38.68	184.53	19.90	-44.3	-45.4	21.8	0.00e+00	0	42	0	329252864	59	4269
2026-01-29 10:30:39.69	184.62	20.03	-44.2	-45.3	22.0	0.00e+00	0	41	0	331350016	59	4217
2026-01-29 10:30:40.70	184.71	20.15	-44.3	-45.4	21.9	0.00e+00	0	42	0	333447168	59	4278
2026-01-29 10:30:41.71	184.80	20.28	-44.2	-45.3	22.0	0.00e+00	0	42	0	335544320	59	4222
2026-01-29 10:30:42.71	184.89	20.40	-44.1	-45.2	22.0	0.00e+00	0	42	0	336592896	59	4168
2026-01-29 10:30:43.72	184.98	20.53	-44.0	-45.1	22.2	0.00e+00	0	42	0	338690048	59	4123
2026-01-29 10:30:44.73	185.07	20.65	-44.1	-45.1	22.2	0.00e+00	0	42	0	340787200	59	4144
2026-01-29 10:30:45.74	185.16	20.78	-44.1	-45.2	22.1	0.00e+00	0	42	0	342884352	59	4191
2026-01-29 10:30:46.74	185.25	20.91	-44.0	-45.1	22.2	0.00e+00	0	42	0	344981504	59	4131
2026-01-29 10:30:47.76	185.35	21.04	-43.9	-45.0	22.3	0.00e+00	0	41	0	346030080	59	4071
2026-01-29 10:30:48.76	185.44	21.17	-44.0	-45.1	22.2	0.00e+00	0	42	0	348127232	59	4116
2026-01-29 10:30:49.77	185.54	21.30	-44.0	-45.0	22.2	0.00e+00	0	42	0	350224384	59	4094
2026-01-29 10:30:50.78	185.64	21.43	-44.0	-45.1	22.2	0.00e+00	0	42	0	352321536	59	4117
2026-01-29 10:30:51.79	185.73	21.56	-44.0	-45.1	22.2	0.00e+00	0	42	0	354418688	59	4135
2026-01-29 10:30:52.79	185.83	21.69	-44.0	-45.1	22.2	0.00e+00	0	42	0	356515840	59	4128
2026-01-29 10:30:53.80	185.93	21.82	-43.9	-45.0	22.3	0.00e+00	0	42	0	357564416	59	4069
2026-01-29 10:30:54.81	186.03	21.95	-43.8	-44.9	22.4	0.00e+00	0	42	0	359661568	59	4032
2026-01-29 10:30:55.81	186.13	22.08	-43.9	-44.9	22.3	0.00e+00	0	42	0	361758720	59	4050
2026-01-29 10:30:56.82	186.23	22.22	-43.9	-44.9	22.4	0.00e+00	0	42	0	363855872	59	4040
2026-01-29 10:30:57.82	186.33	22.35	-43.7	-44.8	22.5	0.00e+00	0	42	0	364904448	59	3963
2026-01-29 10:30:58.83	186.43	22.49	-43.5	-44.6	22.7	0.00e+00	0	42	0	367001600	59	3873
2026-01-29 10:30:59.84	186.54	22.62	-43.6	-44.7	22.6	0.00e+00	0	42	0	369098752	59	3922
2026-01-29 10:31:00.85	186.64	22.76	-43.5	-44.5	22.7	0.00e+00	0	42	0	371195904	59	3855
2026-01-29 10:31:01.86	186.75	22.90	-43.5	-44.5	22.7	0.00e+00	0	41	0	373293056	59	3852
2026-01-29 10:31:02.87	186.85	23.03	-43.4	-44.4	22.9	0.00e+00	0	42	0	375390208	58	4022
2026-01-29 10:31:03.87	186.96	23.17	-43.4	-44.5	22.8	0.00e+00	0	42	0	376438784	58	4055
2026-01-29 10:31:04.88	187.07	23.31	-43.3	-44.2	23.0	0.00e+00	0	42	0	378535936	58	3957
2026-01-29 10:31:05.89	187.18	23.45	-43.1	-44.1	23.1	0.00e+00	0	41	0	380633088	58	3885
2026-01-29 10:31:06.90	187.29	23.59	-43.2	-44.2	23.0	0.00e+00	0	42	0	382730240	58	3929
2026-01-29 10:31:07.90	187.40	23.73	-43.2	-44.2	23.0	0.00e+00	0	42	0	384827392	58	3933
2026-01-29 10:31:08.91	187.51	23.87	-43.2	-44.1	23.1	0.00e+00	0	41	0	385875968	58	3912
2026-01-29 10:31:09.92	187.62	24.01	-43.1	-44.1	23.1	0.00e+00	0	42	0	387973120	58	3898
2026-01-29 10:31:10.92	187.73	24.15	-43.2	-44.1	23.1	0.00e+00	0	42	0	390070272	58	3910
2026-01-29 10:31:11.93	187.85	24.30	-43.2	-44.2	23.0	0.00e+00	0	42	0	392167424	58	3942
2026-01-29 10:31:12.94	187.96	24.44	-43.2	-44.2	23.0	0.00e+00	0	42	0	393216000	58	3941
2026-01-29 10:31:13.94	188.08	24.58	-43.3	-44.3	23.0	0.00e+00	0	42	0	395313152	58	3962
2026-01-29 10:31:14.95	188.20	24.73	-43.4	-44.4	22.9	0.00e+00	0	42	0	397410304	58	4028
2026-01-29 10:31:15.96	188.32	24.88	-43.4	-44.4	22.9	0.00e+00	0	41	0	399507456	58	4035
2026-01-29 10:31:16.97	188.44	25.02	-43.5	-44.5	22.7	0.00e+00	0	42	0	401604608	58	4092
2026-01-29 10:31:17.98	188.56	25.17	-43.6	-44.6	22.7	0.00e+00	0	41	0	403701760	58	4131
2026-01-29 10:31:18.99	188.68	25.32	-43.7	-44.7	22.6	0.00e+00	0	41	0	404750336	58	4172
2026-01-29 10:31:19.99	188.80	25.47	-43.7	-44.7	22.6	0.00e+00	0	42	0	406847488	58	4171
2026-01-29 10:31:21.00	188.93	25.62	-43.8	-44.8	22.5	0.00e+00	0	42	0	408944640	58	4237
2026-01-29 10:31:22.01	189.05	25.77	-43.8	-44.8	22.5	0.00e+00	0	42	0	411041792	58	4221
2026-01-29 10:31:23.01	189.18	25.92	-43.8	-44.9	22.4	0.00e+00	0	42	0	413138944	58	4263
2026-01-29 10:31:24.02	189.30	26.07	-43.8	-44.9	22.4	0.00e+00	0	42	0	414187520	58	4266
2026-01-29 10:31:25.03	189.43	26.22	-44.0	-45.0	22.3	0.00e+00	0	42	0	416284672	58	4325
2026-01-29 10:31:26.03	189.56	26.37	-43.9	-45.0	22.3	0.00e+00	0	42	0	418381824	58	4321
2026-01-29 10:31:27.04	189.69	26.53	-43.9	-45.0	22.4	0.00e+00	0	42	0	420478976	58	4320
2026-01-29 10:31:28.05	189.83	26.68	-44.1	-45.2	22.2	0.00e+00	0	42	0	421527552	58	4394
2026-01-29 10:31:29.05	189.96	26.84	-44.2	-45.3	22.1	0.00e+00	0	42	0	423624704	58	4451
2026-01-29 10:31:30.06	190.10	26.99	-44.4	-45.5	21.9	0.00e+00	0	41	0	425721856	59	4312
2026-01-29 10:31:31.07	190.23	27.15	-44.5	-45.6	21.8	0.00e+00	0	42	0	427819008	59	4378
2026-01-29 10:31:32.08	190.37	27.31	-44.6	-45.7	21.7	0.00e+00	0	42	0	429916160	59	4430
2026-01-29 10:31:33.08	190.51	27.46	-44.4	-45.6	21.5	0.00e+00	0	42	0	432013312	60	4102
2026-01-29 10:31:34.09	190.65	27.62	-44.6	-45.8	21.4	0.00e+00	0	42	0	433061888	60	4196
2026-01-29 10:31:35.10	190.79	27.78	-44.7	-45.9	21.2	0.00e+00	0	41	0	435159040	60	4281
2026-01-29 10:31:36.11	190.93	27.94	-44.9	-46.1	21.1	0.00e+00	0	42	0	437256192	60	4362
2026-01-29 10:31:37.11	191.08	28.10	-45.0	-46.2	21.0	0.00e+00	0	42	0	439353344	60	4411
2026-01-29 10:31:38.12	191.22	28.27	-45.1	-46.4	20.8	0.00e+00	0	42	0	441450496	60	4516
2026-01-29 10:31:39.13	191.37	28.43	-45.2	-46.5	20.7	0.00e+00	0	42	0	442499072	60	4546
2026-01-29 10:31:40.13	191.52	28.59	-45.2	-46.5	20.7	0.00e+00	0	42	0	444596224	61	4311
2026-01-29 10:31:41.14	191.67	28.76	-45.3	-46.6	20.6	0.00e+00	0	42	0	446693376	61	4363
2026-01-29 10:31:42.15	191.82	28.92	-45.5	-46.8	20.4	0.00e+00	0	42	0	448790528	61	4485
2026-01-29 10:31:43.16	191.97	29.09	-45.7	-47.0	20.2	0.00e+00	0	42	0	449839104	61	4584
2026-01-29 10:31:44.16	192.13	29.25	-45.6	-46.9	20.3	0.00e+00	0	42	0	451936256	61	4538
2026-01-29 10:31:45.17	192.28	29.42	-45.8	-47.2	20.1	0.00e+00	0	42	0	454033408	62	4401
2026-01-29 10:31:46.18	192.44	29.59	-45.9	-47.3	20.0	0.00e+00	0	42	0	456130560	62	4459
2026-01-29 10:31:47.19	192.60	29.76	-46.0	-47.4	19.9	0.00e+00	0	42	0	458227712	62	4496
2026-01-29 10:31:48.20	192.76	29.93	-46.1	-47.5	19.8	0.00e+00	0	42	0	460324864	62	4584
2026-01-29 10:31:49.21	192.93	30.10	-46.2	-47.6	19.7	0.00e+00	0	42	0	461373440	62	4644
2026-01-29 10:31:50.21	193.09	30.27	-46.5	-47.9	19.3	0.00e+00	0	42	0	463470592	63	4544
2026-01-29 10:31:51.22	193.26	30.44	-46.6	-48.1	19.2	0.00e+00	0	42	0	465567744	63	4631
2026-01-29 10:31:52.23	193.42	30.61	-46.6	-48.1	19.2	0.00e+00	0	42	0	467664896	63	4639
2026-01-29 10:31:53.24	193.59	30.79	-46.7	-48.3	18.9	0.00e+00	0	42	0	469762048	64	4465
2026-01-29 10:31:54.25	193.77	30.96	-46.8	-48.4	18.8	0.00e+00	0	42	0	470810624	64	4511
2026-01-29 10:31:55.25	193.94	31.13	-47.0	-48.6	18.6	0.00e+00	0	42	0	472907776	64	4626
2026-01-29 10:31:56.26	194.11	31.31	-47.1	-48.7	18.5	0.00e+00	0	42	0	475004928	64	4699
2026-01-29 10:31:57.26	194.29	31.48	-47.0	-48.6	18.6	0.00e+00	0	42	0	477102080	64	4636
2026-01-29 10:31:58.27	194.47	31.66	-46.8	-48.4	18.8	0.00e+00	0	42	0	479199232	64	4507
2026-01-29 10:31:59.28	194.65	31.84	-46.8	-48.5	18.8	0.00e+00	0	42	0	480247808	64	4546
2026-01-29 10:32:00.27	194.83	32.02	-46.5	-48.0	19.2	0.00e+00	0	42	0	482344960	64	4335
2026-01-29 10:32:01.26	195.01	32.19	-46.4	-47.8	19.4	0.00e+00	0	42	0	484442112	64	4238
2026-01-29 10:32:02.26	195.19	32.37	-46.2	-47.7	19.5	0.00e+00	0	42	0	486539264	64	4169
2026-01-29 10:32:03.27	195.38	32.55	-46.4	-47.9	19.4	0.00e+00	0	41	0	488636416	64	4252
2026-01-29 10:32:04.28	195.57	32.73	-46.3	-47.8	19.5	0.00e+00	0	42	0	489684992	64	4199
2026-01-29 10:32:05.29	195.77	32.92	-46.3	-47.8	19.4	0.00e+00	0	42	0	491782144	64	4228
2026-01-29 10:32:06.29	195.96	33.10	-46.2	-47.7	19.5	0.00e+00	0	42	0	493879296	64	4158
2026-01-29 10:32:07.30	196.16	33.28	-46.3	-47.7	19.5	0.00e+00	0	42	0	495976448	64	4192
2026-01-29 10:32:08.31	196.36	33.47	-46.1	-47.6	19.7	0.00e+00	0	42	0	498073600	64	4101
2026-01-29 10:32:09.31	196.56	33.65	-46.1	-47.6	19.6	0.00e+00	0	42	0	499122176	64	4113
2026-01-29 10:32:10.32	196.76	33.84	-46.0	-47.5	19.8	0.00e+00	0	42	0	501219328	64	4057
2026-01-29 10:32:11.33	196.97	34.03	-46.1	-47.5	19.8	0.00e+00	0	42	0	503316480	63	4308
2026-01-29 10:32:12.33	197.17	34.21	-46.0	-47.4	19.9	0.00e+00	0	42	0	505413632	63	4256
2026-01-29 10:32:13.34	197.39	34.40	-45.9	-47.2	20.1	0.00e+00	0	42	0	506462208	63	4181
2026-01-29 10:32:14.34	197.60	34.59	-45.8	-47.1	20.2	0.00e+00	0	42	0	508559360	63	4112
2026-01-29 10:32:15.35	197.81	34.78	-45.7	-47.0	20.3	0.00e+00	0	42	0	510656512	63	4078
2026-01-29 10:32:16.36	198.03	34.97	-45.9	-47.3	20.0	0.00e+00	0	42	0	512753664	63	4207
2026-01-29 10:32:17.37	198.25	35.16	-45.9	-47.3	20.0	0.00e+00	0	42	0	514850816	63	4214
2026-01-29 10:32:18.37	198.47	35.35	-45.7	-47.0	20.3	0.00e+00	0	42	0	516947968	63	4091
2026-01-29 10:32:19.38	198.70	35.55	-45.6	-46.9	20.4	0.00e+00	0	42	0	517996544	63	4030
2026-01-29 10:32:20.39	198.93	35.74	-45.7	-47.0	20.3	0.00e+00	0	42	0	520093696	63	4084
2026-01-29 10:32:21.40	199.16	35.93	-45.5	-46.8	20.6	0.00e+00	0	42	0	522190848	62	4205
2026-01-29 10:32:22.40	199.39	36.13	-45.4	-46.7	20.6	0.00e+00	0	42	0	524288000	62	4174
2026-01-29 10:32:23.41	199.63	36.32	-45.4	-46.6	20.7	0.00e+00	0	42	0	526385152	62	4143
2026-01-29 10:32:24.42	199.87	36.52	-45.1	-46.3	21.0	0.00e+00	0	42	0	527433728	62	3986
2026-01-29 10:32:25.42	200.11	36.71	-44.9	-46.1	21.2	0.00e+00	0	42	0	529530880	61	4102
2026-01-29 10:32:26.43	200.35	36.91	-44.8	-46.0	21.3	0.00e+00	0	42	0	531628032	61	4054
2026-01-29 10:32:27.44	200.60	37.11	-44.7	-45.8	21.4	0.00e+00	0	42	0	533725184	61	3999
2026-01-29 10:32:28.45	200.85	37.31	-44.6	-45.8	21.5	0.00e+00	0	42	0	534773760	61	3959
2026-01-29 10:32:29.45	201.10	37.51	-44.7	-45.8	21.4	0.00e+00	0	42	0	536870912	61	3987
2026-01-29 10:32:30.46	201.36	37.71	-44.5	-45.6	21.6	0.00e+00	0	41	0	538968064	61	3910
2026-01-29 10:32:31.47	201.62	37.91	-44.4	-45.5	21.7	0.00e+00	0	42	0	541065216	60	4086
2026-01-29 10:32:32.48	201.88	38.11	-44.4	-45.5	21.8	0.00e+00	0	42	0	543162368	60	4064
2026-01-29 10:32:33.49	202.15	38.31	-44.2	-45.3	21.9	0.00e+00	0	42	0	545259520	60	3998
2026-01-29 10:32:34.49	202.42	38.51	-44.4	-45.5	21.8	0.00e+00	0	42	0	546308096	60	4073
2026-01-29 10:32:35.50	202.69	38.71	-44.2	-45.3	21.9	0.00e+00	0	42	0	548405248	60	3986
2026-01-29 10:32:36.51	202.97	38.92	-44.1	-45.2	22.1	0.00e+00	0	42	0	550502400	60	3922
2026-01-29 10:32:37.52	203.25	39.12	-44.1	-45.1	22.1	0.00e+00	0	42	0	552599552	60	3892
2026-01-29 10:32:38.53	203.53	39.32	-44.2	-45.3	21.9	0.00e+00	0	42	0	554696704	60	3974
2026-01-29 10:32:39.54	203.82	39.53	-44.3	-45.4	22.2	0.00e+00	0	42	0	555745280	59	4249
2026-01-29 10:32:40.55	204.11	39.73	-44.3	-45.3	22.2	0.00e+00	0	42	0	557842432	59	4237
2026-01-29 10:32:41.55	204.40	39.94	-44.4	-45.5	22.2	0.00e+00	0	42	0	559939584	59	4294
2026-01-29 10:32:42.56	204.70	40.14	-44.3	-45.4	22.1	0.00e+00	0	42	0	562036736	59	4257
2026-01-29 10:32:43.57	205.00	40.35	-44.6	-45.7	21.9	0.00e+00	0	42	0	564133888	59	4417
2026-01-29 10:32:44.57	205.30	40.55	-44.5	-45.7	21.9	0.00e+00	0	42	0	565182464	59	4398
2026-01-29 10:32:45.58	205.61	40.76	-44.3	-45.4	22.2	0.00e+00	0	42	0	567279616	59	4265
2026-01-29 10:32:46.59	205.93	40.97	-44.3	-45.3	22.2	0.00e+00	0	42	0	569376768	59	4230
2026-01-29 10:32:47.60	206.24	41.17	-44.3	-45.4	22.2	0.00e+00	0	42	0	571473920	59	4257
2026-01-29 10:32:48.61	206.56	41.38	-44.3	-45.4	22.1	0.00e+00	0	42	0	573571072	59	4275
2026-01-29 10:32:49.61	206.89	41.59	-44.6	-45.7	21.9	0.00e+00	0	42	0	574619648	59	4422
2026-01-29 10:32:50.62	207.21	41.79	-44.3	-45.4	21.9	0.00e+00	0	42	0	576716800	60	4033
2026-01-29 10:32:51.63	207.55	42.00	-44.4	-45.5	21.7	0.00e+00	0	42	0	578813952	60	4095
2026-01-29 10:32:52.63	207.88	42.21	-44.5	-45.7	21.6	0.00e+00	0	42	0	580911104	60	4152
2026-01-29 10:32:53.64	208.22	42.41	-44.7	-45.9	21.4	0.00e+00	0	42	0	583008256	60	4252
2026-01-29 10:32:54.65	208.57	42.62	-44.8	-46.0	21.3	0.00e+00	0	42	0	584056832	60	4325
2026-01-29 10:32:55.66	208.92	42.83	-44.9	-46.1	21.2	0.00e+00	0	42	0	586153984	60	4342
2026-01-29 10:32:56.67	209.28	43.04	-44.9	-46.1	21.3	0.00e+00	0	42	0	588251136	60	4358
2026-01-29 10:32:57.68	209.64	43.25	-44.8	-45.9	21.4	0.00e+00	0	42	0	590348288	60	4280
2026-01-29 10:32:58.68	210.00	43.45	-44.8	-45.9	21.4	0.00e+00	0	42	0	592445440	60	4262
2026-01-29 10:32:59.69	210.37	43.66	-44.8	-46.0	21.4	0.00e+00	0	42	0	593494016	60	4307
2026-01-29 10:33:00.70	210.74	43.87	-44.9	-46.1	21.2	0.00e+00	0	42	0	595591168	60	4362
2026-01-29 10:33:01.70	211.12	44.07	-45.4	-46.7	20.7	0.00e+00	0	42	0	597688320	61	4400
2026-01-29 10:33:02.71	211.50	44.28	-45.8	-47.1	20.3	0.00e+00	0	42	0	599785472	62	4387
2026-01-29 10:33:03.72	211.89	44.49	-46.1	-47.5	20.0	0.00e+00	0	42	0	601882624	62	4567
2026-01-29 10:33:04.73	212.28	44.69	-45.8	-47.2	20.3	0.00e+00	0	42	0	602931200	62	4397
2026-01-29 10:33:05.73	212.68	44.90	-45.6	-46.9	20.6	0.00e+00	0	42	0	605028352	62	4260
2026-01-29 10:33:06.74	213.08	45.10	-45.6	-46.9	20.6	0.00e+00	0	42	0	607125504	62	4247
2026-01-29 10:33:07.74	213.48	45.30	-45.4	-46.7	20.8	0.00e+00	0	42	0	609222656	62	4170
2026-01-29 10:33:08.75	213.90	45.51	-45.4	-46.7	20.8	0.00e+00	0	42	0	611319808	62	4170
2026-01-29 10:33:09.76	214.32	45.71	-45.9	-47.2	20.3	0.00e+00	0	42	0	613416960	62	4421
2026-01-29 10:33:10.77	214.74	45.92	-46.4	-47.8	19.6	0.00e+00	0	42	0	614465536	63	4490
2026-01-29 10:33:11.78	215.17	46.12	-46.8	-48.3	19.1	0.00e+00	0	42	0	616562688	64	4487
2026-01-29 10:33:12.78	215.60	46.32	-47.0	-48.6	18.8	0.00e+00	0	42	0	618659840	64	4634
2026-01-29 10:33:13.79	216.04	46.52	-47.1	-48.7	18.8	0.00e+00	0	42	0	620756992	64	4655
2026-01-29 10:33:14.80	216.49	46.72	-46.8	-48.3	19.0	0.00e+00	0	42	0	621805568	65	4234
2026-01-29 10:33:15.81	216.94	46.92	-46.7	-48.2	19.2	0.00e+00	0	42	0	623902720	65	4166
2026-01-29 10:33:16.82	217.40	47.12	-46.6	-48.2	19.3	0.00e+00	0	42	0	625999872	65	4147
2026-01-29 10:33:17.82	217.86	47.31	-46.9	-48.5	18.9	0.00e+00	0	42	0	628097024	65	4327
2026-01-29 10:33:18.83	218.33	47.51	-47.1	-48.7	18.8	0.00e+00	0	42	0	630194176	65	4397
2026-01-29 10:33:19.83	218.80	47.70	-47.0	-48.6	18.8	0.00e+00	0	42	0	631242752	65	4350
2026-01-29 10:33:20.84	219.28	47.89	-46.7	-48.2	19.3	0.00e+00	0	42	0	633339904	65	4154
2026-01-29 10:33:21.84	219.76	48.08	-46.6	-48.1	19.3	0.00e+00	0	42	0	635437056	65	4137
2026-01-29 10:33:22.85	220.26	48.27	-46.5	-47.9	19.5	0.00e+00	0	42	0	637534208	65	4038
2026-01-29 10:33:23.86	220.76	48.46	-46.4	-47.9	19.6	0.00e+00	0	42	0	639631360	64	4261
2026-01-29 10:33:24.86	221.26	48.65	-46.6	-48.1	19.4	0.00e+00	0	42	0	641728512	64	4350
2026-01-29 10:33:25.87	221.77	48.84	-46.8	-48.4	19.1	0.00e+00	0	42	0	642777088	64	4507
2026-01-29 10:33:26.88	222.28	49.02	-46.9	-48.5	18.9	0.00e+00	0	42	0	644874240	64	4575
2026-01-29 10:33:27.88	222.80	49.20	-46.7	-48.3	19.2	0.00e+00	0	42	0	646971392	64	4444
2026-01-29 10:33:28.89	223.33	49.38	-46.4	-47.9	19.5	0.00e+00	0	42	0	649068544	64	4256
2026-01-29 10:33:29.90	223.87	49.56	-46.2	-47.5	19.9	0.00e+00	0	42	0	650117120	64	4098
2026-01-29 10:33:30.91	224.41	49.74	-46.0	-47.4	20.1	0.00e+00	0	42	0	652214272	64	4030
2026-01-29 10:33:31.92	224.96	49.92	-45.9	-47.2	20.3	0.00e+00	0	42	0	654311424	63	4153
2026-01-29 10:33:32.92	225.51	50.09	-45.8	-47.0	20.5	0.00e+00	0	42	0	656408576	63	4091
2026-01-29 10:33:33.93	226.07	50.26	-46.1	-47.5	20.1	0.00e+00	0	42	0	658505728	63	4305
2026-01-29 10:33:34.94	226.64	50.43	-46.7	-48.2	19.5	0.00e+00	0	42	0	659554304	63	4668
2026-01-29 10:33:35.95	227.21	50.59	-46.5	-48.0	19.6	0.00e+00	0	41	0	661651456	63	4565
2026-01-29 10:33:36.95	227.78	50.76	-46.1	-47.5	20.0	0.00e+00	0	42	0	663748608	63	4316
2026-01-29 10:33:37.96	228.37	50.92	-45.8	-47.1	20.4	0.00e+00	0	42	0	665845760	63	4132
2026-01-29 10:33:38.97	228.96	51.08	-44.8	-46.0	21.5	0.00e+00	0	42	0	667942912	61	4068
2026-01-29 10:33:39.97	229.55	51.23	-44.6	-45.7	21.7	0.00e+00	0	42	0	670040064	61	3925
2026-01-29 10:33:40.98	230.16	51.39	-44.4	-45.5	21.9	0.00e+00	0	42	0	671088640	60	4087
2026-01-29 10:33:41.99	230.77	51.54	-44.6	-45.8	21.7	0.00e+00	0	42	0	673185792	60	4197
2026-01-29 10:33:43.00	231.38	51.69	-44.4	-45.5	21.9	0.00e+00	0	42	0	675282944	60	4086
2026-01-29 10:33:44.00	232.00	51.83	-44.4	-45.5	22.3	0.00e+00	0	42	0	677380096	59	4294
2026-01-29 10:33:45.01	232.63	51.97	-43.8	-44.7	22.9	0.00e+00	0	42	0	678428672	59	3955
2026-01-29 10:33:46.01	233.26	52.11	-43.8	-44.8	22.9	0.00e+00	0	42	0	680525824	59	3982
2026-01-29 10:33:47.02	233.90	52.25	-44.2	-45.2	22.5	0.00e+00	0	42	0	682622976	59	4174
2026-01-29 10:33:48.03	234.54	52.38	-44.7	-45.8	22.0	0.00e+00	0	42	0	684720128	59	4457
2026-01-29 10:33:49.03	235.19	52.51	-44.5	-45.7	21.8	0.00e+00	0	42	0	686817280	60	4147
2026-01-29 10:33:50.04	235.84	52.63	-44.4	-45.4	22.2	0.00e+00	0	42	0	687865856	59	4276
2026-01-29 10:33:51.05	236.51	52.75	-44.0	-45.0	22.7	0.00e+00	0	42	0	689963008	59	4086
2026-01-29 10:33:52.06	237.18	52.87	-43.9	-45.0	22.7	0.00e+00	0	42	0	692060160	59	4061
2026-01-29 10:33:53.06	237.84	52.99	-44.0	-45.0	22.7	0.00e+00	0	42	0	694157312	59	4089
2026-01-29 10:33:54.07	238.52	53.10	-44.2	-45.2	22.5	0.00e+00	0	42	0	696254464	59	4187
2026-01-29 10:33:55.08	239.20	53.21	-44.5	-45.5	22.3	0.00e+00	0	42	0	698351616	59	4339
2026-01-29 10:33:56.09	239.89	53.31	-44.2	-45.3	22.5	0.00e+00	0	42	0	699400192	59	4194
2026-01-29 10:33:57.10	240.59	53.41	-43.9	-44.9	22.8	0.00e+00	0	42	0	701497344	59	4051
2026-01-29 10:33:58.10	241.28	53.50	-43.7	-44.7	23.0	0.00e+00	0	42	0	703594496	59	3924
2026-01-29 10:33:59.11	241.98	53.59	-43.7	-44.7	23.0	0.00e+00	0	42	0	705691648	59	3933
2026-01-29 10:34:00.12	242.69	53.68	-44.1	-45.2	22.6	0.00e+00	0	42	0	706740224	59	4155
2026-01-29 10:34:01.12	243.39	53.76	-44.4	-45.5	22.2	0.00e+00	0	42	0	708837376	59	4326
2026-01-29 10:34:02.13	244.10	53.84	-44.3	-45.4	22.1	0.00e+00	0	42	0	710934528	60	4007
2026-01-29 10:34:03.13	244.81	53.92	-44.4	-45.5	21.9	0.00e+00	0	42	0	713031680	60	4083
2026-01-29 10:34:04.14	245.54	53.99	-44.1	-45.2	22.2	0.00e+00	0	42	0	715128832	60	3931
2026-01-29 10:34:05.15	246.26	54.05	-44.1	-45.2	22.3	0.00e+00	0	42	0	716177408	60	3915
2026-01-29 10:34:06.16	246.99	54.11	-44.1	-45.1	22.4	0.00e+00	0	42	0	718274560	60	3907
2026-01-29 10:34:07.17	247.72	54.17	-44.5	-45.6	21.9	0.00e+00	0	42	0	720371712	60	4127
2026-01-29 10:34:08.17	248.45	54.22	-44.8	-45.9	21.6	0.00e+00	0	42	0	722468864	60	4279
2026-01-29 10:34:09.18	249.18	54.27	-44.9	-46.0	21.5	0.00e+00	0	42	0	724566016	60	4326
2026-01-29 10:34:10.19	249.92	54.31	-44.6	-45.7	21.8	0.00e+00	0	42	0	726663168	60	4186
2026-01-29 10:34:11.20	250.66	54.35	-44.2	-45.2	22.3	0.00e+00	0	42	0	727711744	60	3952
2026-01-29 10:34:12.21	251.41	54.39	-44.5	-45.5	22.3	0.00e+00	0	42	0	729808896	59	4326
2026-01-29 10:34:13.22	252.15	54.41	-44.4	-45.5	22.3	0.00e+00	0	42	0	731906048	59	4312
2026-01-29 10:34:14.23	252.90	54.44	-44.7	-45.8	22.0	0.00e+00	0	42	0	734003200	59	4477
2026-01-29 10:34:15.24	253.64	54.46	-44.5	-45.6	21.9	0.00e+00	0	42	0	735051776	60	4129
2026-01-29 10:34:16.25	254.39	54.47	-44.2	-45.2	22.2	0.00e+00	0	42	0	737148928	60	3952
2026-01-29 10:34:17.26	255.14	54.48	-44.4	-45.4	22.4	0.00e+00	0	42	0	739246080	59	4285
2026-01-29 10:34:18.26	255.88	54.49	-44.6	-45.7	22.1	0.00e+00	0	42	0	741343232	59	4399
2026-01-29 10:34:19.27	256.63	54.49	-44.4	-45.5	22.0	0.00e+00	0	42	0	743440384	60	4082
2026-01-29 10:34:20.28	257.38	54.48	-44.4	-45.4	22.1	0.00e+00	0	42	0	745537536	60	4045
2026-01-29 10:34:21.28	258.12	54.47	-44.1	-45.1	22.4	0.00e+00	0	42	0	746586112	60	3898
2026-01-29 10:34:22.29	258.87	54.46	-44.3	-45.4	22.5	0.00e+00	0	42	0	748683264	59	4243
2026-01-29 10:34:23.30	259.61	54.44	-44.6	-45.7	22.1	0.00e+00	0	42	0	750780416	59	4427
2026-01-29 10:34:24.31	260.36	54.42	-44.6	-45.8	21.8	0.00e+00	0	42	0	752877568	60	4197
2026-01-29 10:34:25.32	261.10	54.39	-44.7	-45.9	21.6	0.00e+00	0	42	0	754974720	60	4263
2026-01-29 10:34:26.33	261.85	54.35	-44.7	-45.8	21.8	0.00e+00	0	42	0	756023296	60	4211
2026-01-29 10:34:27.33	262.58	54.32	-44.1	-45.2	22.3	0.00e+00	0	42	0	758120448	60	3930
2026-01-29 10:34:28.34	263.32	54.27	-44.0	-45.0	22.8	0.00e+00	0	42	0	760217600	59	4072
2026-01-29 10:34:29.35	264.05	54.23	-43.6	-44.5	23.1	0.00e+00	0	42	0	762314752	59	3864
2026-01-29 10:34:30.36	264.79	54.18	-43.4	-44.3	23.4	0.00e+00	0	42	0	764411904	58	3989
2026-01-29 10:34:31.37	265.52	54.12	-43.1	-44.1	23.5	0.00e+00	0	42	0	765460480	58	3874
2026-01-29 10:34:32.38	266.25	54.06	-43.2	-44.2	23.4	0.00e+00	0	42	0	767557632	58	3923
2026-01-29 10:34:33.39	266.97	53.99	-43.3	-44.2	23.5	0.00e+00	0	42	0	769654784	58	3954
2026-01-29 10:34:34.40	267.69	53.92	-43.5	-44.4	23.3	0.00e+00	0	42	0	771751936	58	4042
2026-01-29 10:34:35.41	268.41	53.85	-43.3	-44.3	23.3	0.00e+00	0	42	0	773849088	58	3965
2026-01-29 10:34:36.41	269.12	53.77	-43.2	-44.2	23.5	0.00e+00	0	42	0	774897664	58	3922
2026-01-29 10:34:37.42	269.83	53.69	-43.3	-44.3	23.4	0.00e+00	0	42	0	776994816	58	3970
2026-01-29 10:34:38.43	270.54	53.60	-43.2	-44.1	23.6	0.00e+00	0	42	0	779091968	58	3895
2026-01-29 10:34:39.44	271.24	53.51	-43.1	-44.1	23.6	0.00e+00	0	42	0	781189120	58	3871
2026-01-29 10:34:40.44	271.93	53.42	-43.6	-44.6	23.2	0.00e+00	0	42	0	783286272	58	4110
2026-01-29 10:34:41.45	272.62	53.32	-44.3	-45.4	22.5	0.00e+00	0	42	0	784334848	59	4260
2026-01-29 10:34:42.46	273.31	53.21	-44.6	-45.7	22.2	0.00e+00	0	42	0	786432000	59	4407
2026-01-29 10:34:43.47	273.99	53.11	-44.5	-45.6	22.3	0.00e+00	0	42	0	788529152	59	4366
2026-01-29 10:34:44.47	274.66	53.00	-44.6	-45.7	22.1	0.00e+00	0	42	0	790626304	59	4437
2026-01-29 10:34:45.48	275.34	52.88	-44.3	-45.4	22.1	0.00e+00	0	42	0	792723456	60	4034
2026-01-29 10:34:46.49	276.00	52.76	-44.1	-45.1	22.3	0.00e+00	0	42	0	793772032	60	3893
2026-01-29 10:34:47.49	276.66	52.64	-44.1	-45.2	22.2	0.00e+00	0	42	0	795869184	60	3914
2026-01-29 10:34:48.50	277.32	52.52	-44.4	-45.4	22.3	0.00e+00	0	42	0	797966336	59	4285
2026-01-29 10:34:49.51	277.97	52.39	-44.3	-45.4	22.4	0.00e+00	0	42	0	800063488	59	4248
2026-01-29 10:34:50.52	278.61	52.26	-44.6	-45.6	22.2	0.00e+00	0	42	0	802160640	59	4377
2026-01-29 10:34:51.52	279.25	52.12	-44.6	-45.7	22.2	0.00e+00	0	42	0	803209216	59	4421
2026-01-29 10:34:52.53	279.88	51.98	-44.4	-45.5	22.4	0.00e+00	0	42	0	805306368	59	4293
2026-01-29 10:34:53.54	280.51	51.84	-44.3	-45.4	22.5	0.00e+00	0	42	0	807403520	59	4252
2026-01-29 10:34:54.54	281.12	51.70	-44.2	-45.3	22.6	0.00e+00	0	42	0	809500672	59	4209
2026-01-29 10:34:55.55	281.74	51.55	-44.6	-45.6	22.3	0.00e+00	0	42	0	811597824	59	4384
2026-01-29 10:34:56.56	282.35	51.40	-44.4	-45.5	22.1	0.00e+00	0	42	0	812646400	60	4060
2026-01-29 10:34:57.56	282.95	51.25	-44.6	-45.7	21.9	0.00e+00	0	42	0	814743552	60	4159
2026-01-29 10:34:58.57	283.54	51.09	-44.3	-45.4	22.2	0.00e+00	0	42	0	816840704	60	4025
2026-01-29 10:34:59.58	284.14	50.94	-44.2	-45.2	22.3	0.00e+00	0	42	0	818937856	60	3951
2026-01-29 10:35:00.58	284.72	50.78	-44.3	-45.3	22.2	0.00e+00	0	42	0	821035008	60	3983
2026-01-29 10:35:01.59	285.29	50.61	-44.8	-45.9	21.7	0.00e+00	0	42	0	822083584	60	4288
2026-01-29 10:35:02.60	285.87	50.45	-45.3	-46.5	21.2	0.00e+00	0	42	0	824180736	61	4292
2026-01-29 10:35:03.61	286.43	50.28	-45.5	-46.7	21.0	0.00e+00	0	42	0	826277888	61	4431
2026-01-29 10:35:04.61	286.99	50.11	-46.1	-47.4	20.4	0.00e+00	0	42	0	828375040	62	4510
2026-01-29 10:35:05.62	287.54	49.94	-46.8	-48.3	19.4	0.00e+00	0	42	0	830472192	64	4475
2026-01-29 10:35:06.63	288.09	49.76	-47.6	-49.3	18.4	0.00e+00	0	42	0	831520768	65	4725
2026-01-29 10:35:07.63	288.63	49.59	-48.0	-49.8	17.9	0.00e+00	0	42	0	833617920	66	4730
2026-01-29 10:35:08.64	289.16	49.41	-48.0	-49.9	17.8	0.00e+00	0	42	0	835715072	66	4776
2026-01-29 10:35:09.65	289.69	49.23	-48.0	-49.8	17.9	0.00e+00	0	42	0	837812224	66	4756
2026-01-29 10:35:10.66	290.21	49.04	-47.9	-49.7	18.0	0.00e+00	0	42	0	839909376	66	4693
2026-01-29 10:35:11.66	290.73	48.86	-48.5	-50.4	17.3	0.00e+00	0	42	0	840957952	67	4811
2026-01-29 10:35:12.67	291.24	48.68	-49.4	-51.8	16.0	0.00e+00	0	42	0	843055104	69	5023
2026-01-29 10:35:13.68	291.74	48.49	-49.9	-52.5	15.3	0.00e+00	0	42	0	845152256	70	5154
2026-01-29 10:35:14.69	292.24	48.30	-49.3	-51.6	16.2	0.00e+00	0	42	0	847249408	70	4628
2026-01-29 10:35:15.70	292.73	48.11	-48.6	-50.6	17.2	0.00e+00	0	42	0	849346560	69	4373
2026-01-29 10:35:16.70	293.21	47.92	-48.4	-50.4	17.4	0.00e+00	0	42	0	850395136	68	4505
2026-01-29 10:35:17.71	293.70	47.73	-48.9	-51.0	16.9	0.00e+00	0	42	0	852492288	68	4826
2026-01-29 10:35:18.71	294.17	47.54	-50.1	-53.0	14.9	0.00e+00	0	42	0	854589440	70	5408
2026-01-29 10:35:19.72	294.63	47.34	-50.6	-53.9	13.9	1.50e-06	0	42	0	856686592	72	5348
2026-01-29 10:35:20.73	295.10	47.14	-49.2	-51.5	16.2	0.00e+00	0	42	0	858783744	70	4595
2026-01-29 10:35:21.73	295.55	46.95	-47.5	-49.2	18.5	0.00e+00	0	42	0	859832320	67	4158
2026-01-29 10:35:22.74	296.00	46.75	-46.9	-48.4	19.3	0.00e+00	0	42	0	861929472	65	4283
2026-01-29 10:35:23.74	296.44	46.55	-47.6	-49.2	18.5	0.00e+00	0	42	0	864026624	65	4686
2026-01-29 10:35:24.75	296.89	46.35	-48.3	-50.2	17.6	0.00e+00	0	42	0	866123776	67	4662
2026-01-29 10:35:25.76	297.32	46.15	-47.5	-49.2	18.5	0.00e+00	0	42	0	868220928	67	4180
2026-01-29 10:35:26.77	297.75	45.95	-46.0	-47.3	20.3	0.00e+00	0	42	0	869269504	64	3995
2026-01-29 10:35:27.77	298.17	45.75	-45.6	-46.8	20.9	0.00e+00	0	42	0	871366656	63	4000
2026-01-29 10:35:28.78	298.59	45.55	-45.6	-46.8	20.9	0.00e+00	0	42	0	873463808	63	3973
2026-01-29 10:35:29.79	299.00	45.34	-45.7	-47.0	20.8	0.00e+00	0	42	0	875560960	63	4058
2026-01-29 10:35:30.79	299.41	45.14	-46.4	-47.8	20.0	0.00e+00	0	42	0	877658112	63	4460
2026-01-29 10:35:31.80	299.81	44.94	-46.9	-48.4	19.3	0.00e+00	0	42	0	878706688	64	4529
2026-01-29 10:35:32.80	300.20	44.73	-47.2	-48.8	18.9	0.00e+00	0	42	0	880803840	65	4489
2026-01-29 10:35:33.81	300.60	44.53	-46.5	-48.0	19.8	0.00e+00	0	42	0	882900992	65	4056
2026-01-29 10:35:34.82	300.99	44.32	-46.0	-47.3	20.4	0.00e+00	0	42	0	884998144	64	3974
2026-01-29 10:35:35.82	301.37	44.12	-45.9	-47.1	20.6	0.00e+00	0	42	0	887095296	63	4130
2026-01-29 10:35:36.83	301.74	43.91	-45.9	-47.2	20.6	0.00e+00	0	42	0	888143872	63	4153
2026-01-29 10:35:37.84	302.12	43.71	-46.6	-48.0	19.7	0.00e+00	0	42	0	890241024	63	4591
2026-01-29 10:35:38.85	302.49	43.50	-47.4	-49.0	18.7	0.00e+00	0	42	0	892338176	65	4591
2026-01-29 10:35:39.85	302.85	43.29	-47.7	-49.5	18.3	0.00e+00	0	42	0	894435328	66	4549
2026-01-29 10:35:40.86	303.21	43.09	-47.4	-49.1	18.6	0.00e+00	0	42	0	896532480	66	4363
2026-01-29 10:35:41.86	303.56	42.88	-46.0	-47.3	20.3	0.00e+00	0	42	0	897581056	63	4216
2026-01-29 10:35:42.87	303.91	42.68	-45.4	-46.6	21.0	0.00e+00	0	42	0	899678208	62	4138
2026-01-29 10:35:43.88	304.26	42.47	-45.3	-46.5	21.2	0.00e+00	0	42	0	901775360	62	4069
2026-01-29 10:35:44.88	304.59	42.26	-46.2	-47.5	20.2	0.00e+00	0	42	0	903872512	62	4579
2026-01-29 10:35:45.89	304.93	42.06	-47.7	-49.5	18.3	0.00e+00	0	42	0	905969664	65	4823
2026-01-29 10:35:46.90	305.26	41.85	-49.6	-52.2	15.7	0.00e+00	0	42	0	907018240	69	5246
2026-01-29 10:35:47.91	305.59	41.64	-49.6	-52.1	15.6	0.00e+00	0	42	0	909115392	70	4914
2026-01-29 10:35:48.91	305.92	41.44	-48.6	-50.6	17.2	0.00e+00	0	42	0	911212544	69	4360
2026-01-29 10:35:49.92	306.24	41.23	-48.5	-50.4	17.3	0.00e+00	0	42	0	913309696	68	4528
2026-01-29 10:35:50.93	306.55	41.02	-48.1	-50.0	17.8	0.00e+00	0	42	0	915406848	68	4292
2026-01-29 10:35:51.93	306.86	40.82	-48.5	-50.5	17.2	0.00e+00	0	42	0	916455424	68	4596
2026-01-29 10:35:52.93	307.17	40.62	-49.5	-52.0	15.8	0.00e+00	0	42	0	918552576	69	5115
2026-01-29 10:35:53.94	307.47	40.41	-50.7	-54.2	13.5	2.20e-06	0	42	0	920649728	72	5567
2026-01-29 10:35:54.95	307.78	40.21	-50.4	-53.5	13.9	2.28e-05	0	42	0	922746880	72	5146
2026-01-29 10:35:55.96	308.07	40.00	-48.4	-50.3	17.2	0.00e+00	0	42	0	924844032	68	4487
2026-01-29 10:35:56.96	308.37	39.80	-46.6	-48.0	19.6	0.00e+00	0	42	0	925892608	65	4067
2026-01-29 10:35:57.97	308.66	39.60	-46.1	-47.4	20.1	0.00e+00	0	42	0	927989760	64	4014
2026-01-29 10:35:58.97	308.94	39.39	-46.5	-47.9	19.7	0.00e+00	0	42	0	930086912	63	4530
2026-01-29 10:35:59.98	309.22	39.19	-47.8	-49.6	18.0	0.00e+00	0	42	0	932184064	66	4620
2026-01-29 10:36:00.99	309.50	38.99	-50.2	-53.2	14.5	0.00e+00	0	42	0	934281216	70	5576
2026-01-29 10:36:02.00	309.78	38.79	-51.3	-55.7	11.8	5.79e-05	0	42	0	935329792	73	6215
2026-01-29 10:36:03.00	310.05	38.59	-49.7	-52.4	15.2	1.37e-05	0	42	0	937426944	71	4791
2026-01-29 10:36:04.01	310.32	38.38	-47.7	-49.4	18.0	0.00e+00	0	42	0	939524096	67	4291
2026-01-29 10:36:05.02	310.59	38.18	-46.7	-48.2	19.3	0.00e+00	0	42	0	941621248	65	4163
2026-01-29 10:36:06.03	310.85	37.98	-46.4	-47.8	19.7	0.00e+00	0	42	0	943718400	64	4222
2026-01-29 10:36:07.04	311.11	37.78	-46.6	-48.0	19.6	0.00e+00	0	42	0	944766976	64	4324
2026-01-29 10:36:08.04	311.37	37.59	-47.1	-48.6	18.9	0.00e+00	0	42	0	946864128	64	4650
2026-01-29 10:36:09.05	311.62	37.39	-48.0	-49.8	17.8	0.00e+00	0	42	0	948961280	66	4758
2026-01-29 10:36:10.06	311.87	37.19	-48.9	-51.2	16.6	0.00e+00	0	42	0	951058432	68	4945
2026-01-29 10:36:11.06	312.12	36.99	-48.6	-50.7	16.9	0.00e+00	0	42	0	953155584	68	4684
2026-01-29 10:36:12.06	312.36	36.80	-48.0	-49.9	17.7	0.00e+00	0	42	0	955252736	68	4256
2026-01-29 10:36:13.07	312.60	36.60	-47.1	-48.8	18.7	0.00e+00	0	42	0	956301312	66	4196
2026-01-29 10:36:14.08	312.84	36.41	-46.5	-47.9	19.6	0.00e+00	0	42	0	958398464	65	4023
2026-01-29 10:36:15.09	313.08	36.21	-46.0	-47.3	20.2	0.00e+00	0	42	0	960495616	63	4227
2026-01-29 10:36:16.09	313.31	36.02	-45.9	-47.2	20.4	0.00e+00	0	42	0	962592768	63	4166
2026-01-29 10:36:17.10	313.54	35.83	-46.4	-47.8	19.8	0.00e+00	0	42	0	963641344	63	4475
2026-01-29 10:36:18.10	313.77	35.63	-47.2	-48.9	18.6	0.00e+00	0	42	0	965738496	65	4524
2026-01-29 10:36:19.11	314.00	35.44	-48.1	-50.0	17.6	0.00e+00	0	42	0	967835648	66	4842
2026-01-29 10:36:20.11	314.22	35.25	-48.0	-49.9	17.7	0.00e+00	0	42	0	969932800	67	4544
2026-01-29 10:36:21.12	314.44	35.06	-47.5	-49.3	18.3	0.00e+00	0	42	0	972029952	67	4197
2026-01-29 10:36:22.13	314.66	34.87	-46.9	-48.4	19.1	0.00e+00	0	42	0	973078528	65	4284
2026-01-29 10:36:23.14	314.87	34.68	-46.8	-48.3	19.2	0.00e+00	0	42	0	975175680	65	4203
2026-01-29 10:36:24.14	315.08	34.50	-46.3	-47.7	19.8	0.00e+00	0	42	0	977272832	64	4152
2026-01-29 10:36:25.15	315.30	34.31	-46.3	-47.6	19.8	0.00e+00	0	42	0	979369984	64	4141
2026-01-29 10:36:26.16	315.50	34.12	-46.5	-47.9	19.5	0.00e+00	0	42	0	981467136	64	4290
2026-01-29 10:36:27.16	315.71	33.93	-46.8	-48.3	19.2	0.00e+00	0	42	0	983564288	64	4470
2026-01-29 10:36:28.17	315.91	33.75	-47.3	-49.0	18.5	0.00e+00	0	42	0	984612864	65	4586
2026-01-29 10:36:29.18	316.11	33.56	-47.9	-49.8	17.8	0.00e+00	0	42	0	986710016	66	4720
2026-01-29 10:36:30.19	316.31	33.38	-48.2	-50.2	17.4	0.00e+00	0	42	0	988807168	66	4927
2026-01-29 10:36:31.19	316.51	33.20	-48.1	-50.1	17.4	0.00e+00	0	42	0	990904320	67	4631
2026-01-29 10:36:32.20	316.71	33.01	-47.4	-49.1	18.4	0.00e+00	0	42	0	991952896	66	4378
2026-01-29 10:36:33.21	316.90	32.83	-46.7	-48.2	19.2	0.00e+00	0	42	0	994050048	65	4187
2026-01-29 10:36:34.21	317.09	32.65	-46.5	-48.0	19.5	0.00e+00	0	42	0	996147200	65	4075
2026-01-29 10:36:35.22	317.28	32.47	-46.4	-47.9	19.6	0.00e+00	0	42	0	998244352	64	4252
2026-01-29 10:36:36.23	317.46	32.29	-46.0	-47.4	20.1	0.00e+00	0	42	0	1000341504	63	4258
2026-01-29 10:36:37.24	317.65	32.11	-46.3	-47.7	19.8	0.00e+00	0	42	0	1001390080	63	4421
2026-01-29 10:36:38.24	317.83	31.94	-46.9	-48.5	18.9	0.00e+00	0	42	0	1003487232	64	4581
2026-01-29 10:36:39.25	318.01	31.76	-47.4	-49.1	18.4	0.00e+00	0	42	0	1005584384	65	4617
2026-01-29 10:36:40.26	318.19	31.58	-48.2	-50.2	17.3	0.00e+00	0	42	0	1007681536	66	4945
2026-01-29 10:36:41.26	318.37	31.41	-48.9	-51.2	16.4	0.00e+00	0	42	0	1009778688	68	4951
2026-01-29 10:36:42.26	318.54	31.23	-48.9	-51.3	16.4	0.00e+00	0	42	0	1011875840	68	4985
2026-01-29 10:36:43.27	318.71	31.06	-48.9	-51.2	16.4	0.00e+00	0	42	0	1012924416	68	4951
2026-01-29 10:36:44.28	318.89	30.89	-48.6	-50.7	16.8	0.00e+00	0	42	0	1015021568	68	4688
2026-01-29 10:36:45.29	319.06	30.71	-48.2	-50.2	17.3	0.00e+00	0	42	0	1017118720	68	4417
2026-01-29 10:36:46.29	319.22	30.54	-47.5	-49.2	18.2	0.00e+00	0	42	0	1019215872	67	4185
2026-01-29 10:36:47.30	319.39	30.37	-47.1	-48.7	18.7	0.00e+00	0	42	0	1020264448	66	4193
2026-01-29 10:36:48.31	319.56	30.20	-46.8	-48.3	19.1	0.00e+00	0	42	0	1022361600	65	4223
2026-01-29 10:36:49.32	319.72	30.03	-46.9	-48.4	19.0	0.00e+00	0	42	0	1024458752	65	4291
2026-01-29 10:36:50.32	319.88	29.86	-47.2	-48.8	18.6	0.00e+00	0	42	0	1026555904	65	4462
2026-01-29 10:36:51.33	320.04	29.69	-47.0	-48.6	18.8	0.00e+00	0	42	0	1028653056	65	4379
2026-01-29 10:36:52.34	320.20	29.53	-47.2	-48.9	18.6	0.00e+00	0	42	0	1029701632	65	4517
2026-01-29 10:36:53.35	320.35	29.36	-47.3	-48.9	18.5	0.00e+00	0	42	0	1031798784	65	4544
2026-01-29 10:36:54.35	320.51	29.20	-47.2	-48.9	18.5	0.00e+00	0	42	0	1033895936	65	4501
2026-01-29 10:36:55.36	320.66	29.03	-47.2	-48.9	18.5	0.00e+00	0	42	0	1035993088	65	4530
2026-01-29 10:36:56.37	320.81	28.87	-47.0	-48.6	18.8	0.00e+00	0	42	0	1038090240	65	4367
2026-01-29 10:36:57.37	320.96	28.70	-46.8	-48.3	19.1	0.00e+00	0	42	0	1040187392	65	4228
2026-01-29 10:36:58.38	321.11	28.54	-46.3	-47.7	19.7	0.00e+00	0	42	0	1041235968	64	4163
2026-01-29 10:36:59.39	321.26	28.38	-45.9	-47.2	20.2	0.00e+00	0	42	0	1043333120	63	4166
2026-01-29 10:37:00.39	321.40	28.22	-45.6	-46.9	20.5	0.00e+00	0	42	0	1045430272	63	4015
2026-01-29 10:37:01.40	321.55	28.06	-45.6	-46.8	20.5	0.00e+00	0	42	0	1047527424	62	4237
2026-01-29 10:37:02.41	321.69	27.90	-45.5	-46.7	20.7	0.00e+00	0	42	0	1048576000	62	4193
2026-01-29 10:37:03.42	321.83	27.74	-45.3	-46.5	20.9	0.00e+00	0	42	0	1050673152	62	4094
2026-01-29 10:37:04.43	321.98	27.58	-45.5	-46.7	20.7	0.00e+00	0	42	0	1052770304	62	4172
2026-01-29 10:37:05.43	322.11	27.42	-45.4	-46.6	20.8	0.00e+00	0	42	0	1054867456	62	4134
2026-01-29 10:37:06.44	322.25	27.26	-45.6	-46.8	20.6	0.00e+00	0	42	0	1056964608	62	4232
2026-01-29 10:37:07.45	322.39	27.11	-45.6	-46.9	20.5	0.00e+00	0	42	0	1058013184	62	4282
2026-01-29 10:37:08.45	322.52	26.95	-45.8	-47.2	20.2	0.00e+00	0	42	0	1060110336	62	4408
2026-01-29 10:37:09.46	322.66	26.80	-46.2	-47.6	19.8	0.00e+00	0	42	0	1062207488	62	4634
2026-01-29 10:37:10.47	322.79	26.65	-46.5	-48.0	19.5	0.00e+00	0	42	0	1064304640	63	4550
2026-01-29 10:37:11.47	322.92	26.49	-46.5	-48.0	19.4	0.00e+00	0	42	0	1066401792	63	4592
2026-01-29 10:37:12.48	323.05	26.34	-46.7	-48.3	19.2	0.00e+00	0	42	0	1068498944	63	4726
2026-01-29 10:37:13.49	323.18	26.19	-46.7	-48.2	19.2	0.00e+00	0	42	0	1069547520	64	4422
2026-01-29 10:37:14.49	323.31	26.04	-46.6	-48.1	19.2	0.00e+00	0	42	0	1071644672	64	4362
2026-01-29 10:37:15.50	323.43	25.89	-46.5	-48.1	19.3	0.00e+00	0	42	0	1073741824	64	4344
2026-01-29 10:37:16.51	323.56	25.74	-46.1	-47.6	19.7	0.00e+00	0	42	0	1075838976	64	4113
2026-01-29 10:37:17.52	323.69	25.59	-46.0	-47.3	20.0	0.00e+00	0	42	0	1076887552	63	4240
2026-01-29 10:37:18.52	323.81	25.44	-45.8	-47.2	20.3	0.00e+00	0	42	0	1078984704	63	4154
2026-01-29 10:37:19.53	323.93	25.29	-45.7	-47.0	20.3	0.00e+00	0	42	0	1081081856	63	4069
2026-01-29 10:37:20.53	324.05	25.15	-45.5	-46.8	20.5	0.00e+00	0	42	0	1083179008	63	3981
2026-01-29 10:37:21.54	324.17	25.00	-45.7	-47.0	20.3	0.00e+00	0	42	0	1085276160	62	4304
2026-01-29 10:37:22.54	324.29	24.86	-45.6	-46.9	20.4	0.00e+00	0	42	0	1086324736	62	4275
2026-01-29 10:37:23.55	324.41	24.71	-45.6	-46.8	20.5	0.00e+00	0	42	0	1088421888	62	4241
2026-01-29 10:37:24.56	324.52	24.57	-45.8	-47.1	20.2	0.00e+00	0	42	0	1090519040	62	4367
2026-01-29 10:37:25.57	324.64	24.42	-45.8	-47.1	20.2	0.00e+00	0	42	0	1092616192	62	4378
2026-01-29 10:37:26.57	324.75	24.28	-46.0	-47.4	19.9	0.00e+00	0	42	0	1094713344	62	4531
2026-01-29 10:37:27.58	324.87	24.14	-46.1	-47.5	19.7	0.00e+00	0	42	0	1096810496	62	4555
2026-01-29 10:37:28.59	324.98	24.00	-45.9	-47.3	20.0	0.00e+00	0	42	0	1097859072	62	4455
2026-01-29 10:37:29.59	325.09	23.86	-45.9	-47.3	20.0	0.00e+00	0	42	0	1099956224	62	4468
2026-01-29 10:37:30.60	325.20	23.72	-45.9	-47.2	20.1	0.00e+00	0	42	0	1102053376	62	4434
2026-01-29 10:37:31.61	325.31	23.58	-45.8	-47.1	20.2	0.00e+00	0	42	0	1104150528	62	4369
2026-01-29 10:37:32.61	325.42	23.44	-45.5	-46.8	20.3	0.00e+00	0	42	0	1105199104	62	4232
2026-01-29 10:37:33.62	325.53	23.30	-45.5	-46.8	20.4	0.00e+00	0	42	0	1107296256	62	4241
2026-01-29 10:37:34.63	325.64	23.16	-45.4	-46.7	20.6	0.00e+00	0	42	0	1109393408	62	4150
2026-01-29 10:37:35.64	325.75	23.03	-45.3	-46.5	20.8	0.00e+00	0	42	0	1111490560	62	4092
2026-01-29 10:37:36.64	325.85	22.89	-45.2	-46.4	20.8	0.00e+00	0	42	0	1113587712	62	4041
2026-01-29 10:37:37.65	325.96	22.76	-45.2	-46.5	20.8	0.00e+00	0	42	0	1114636288	62	4052
2026-01-29 10:37:38.65	326.06	22.62	-45.0	-46.3	20.9	0.00e+00	0	42	0	1116733440	62	3960
2026-01-29 10:37:39.66	326.16	22.49	-45.2	-46.4	20.9	0.00e+00	0	42	0	1118830592	62	4021
2026-01-29 10:37:40.67	326.26	22.35	-45.2	-46.5	20.8	0.00e+00	0	42	0	1120927744	62	4057
2026-01-29 10:37:41.67	326.36	22.22	-45.2	-46.4	20.8	0.00e+00	0	42	0	1123024896	62	4042
2026-01-29 10:37:42.68	326.47	22.09	-45.3	-46.5	20.7	0.00e+00	0	42	0	1125122048	62	4083
2026-01-29 10:37:43.69	326.56	21.96	-45.3	-46.6	20.6	0.00e+00	0	42	0	1126170624	62	4108
2026-01-29 10:37:44.69	326.66	21.83	-45.5	-46.8	20.5	0.00e+00	0	42	0	1128267776	62	4202
2026-01-29 10:37:45.70	326.76	21.69	-45.5	-46.8	20.4	0.00e+00	0	42	0	1130364928	62	4238
2026-01-29 10:37:46.70	326.86	21.57	-45.6	-46.9	20.3	0.00e+00	0	42	0	1132462080	62	4268
2026-01-29 10:37:47.71	326.95	21.44	-45.8	-47.2	20.0	0.00e+00	0	42	0	1133510656	62	4396
2026-01-29 10:37:48.72	327.05	21.31	-45.9	-47.3	19.9	0.00e+00	0	42	0	1135607808	62	4475
2026-01-29 10:37:49.73	327.15	21.18	-46.0	-47.5	19.7	0.00e+00	0	42	0	1137704960	62	4565
2026-01-29 10:37:50.73	327.24	21.05	-46.0	-47.5	19.7	0.00e+00	0	42	0	1139802112	62	4570
2026-01-29 10:37:51.74	327.33	20.92	-46.1	-47.6	19.6	0.00e+00	0	42	0	1141899264	62	4624
2026-01-29 10:37:52.75	327.43	20.80	-46.2	-47.7	19.5	0.00e+00	0	42	0	1142947840	62	4655
2026-01-29 10:37:53.76	327.52	20.67	-46.3	-47.8	19.4	0.00e+00	0	42	0	1145044992	63	4453
2026-01-29 10:37:54.77	327.61	20.54	-46.0	-47.4	19.8	0.00e+00	0	42	0	1147142144	63	4272
2026-01-29 10:37:55.78	327.70	20.42	-45.8	-47.1	20.0	0.00e+00	0	42	0	1149239296	63	4141
2026-01-29 10:37:56.79	327.79	20.29	-45.7	-47.1	20.1	0.00e+00	0	42	0	1151336448	63	4117
2026-01-29 10:37:57.79	327.88	20.17	-45.4	-46.7	20.4	0.00e+00	0	42	0	1153433600	62	4175
2026-01-29 10:37:58.80	327.97	20.05	-45.2	-46.5	20.6	0.00e+00	0	42	0	1154482176	62	4087
2026-01-29 10:37:59.81	328.06	19.92	-45.1	-46.4	20.6	0.00e+00	0	42	0	1156579328	62	4022
2026-01-29 10:38:00.81	328.14	19.80	-45.2	-46.5	20.6	0.00e+00	0	42	0	1158676480	62	4056
2026-01-29 10:38:01.82	328.23	19.68	-45.1	-46.4	20.7	0.00e+00	0	42	0	1160773632	62	4027
2026-01-29 10:38:02.83	328.32	19.56	-45.0	-46.2	20.9	0.00e+00	0	42	0	1161822208	61	4160
2026-01-29 10:38:03.84	328.40	19.44	-45.0	-46.2	20.8	0.00e+00	0	42	0	1163919360	61	4191
2026-01-29 10:38:04.85	328.49	19.32	-44.9	-46.1	21.0	0.00e+00	0	42	0	1166016512	61	4099
2026-01-29 10:38:05.86	328.57	19.20	-44.9	-46.1	20.9	0.00e+00	0	42	0	1168113664	61	4123
2026-01-29 10:38:06.87	328.65	19.08	-45.0	-46.2	20.9	0.00e+00	0	42	0	1170210816	61	4168
2026-01-29 10:38:07.87	328.74	18.96	-44.9	-46.2	20.8	0.00e+00	0	42	0	1172307968	61	4147
2026-01-29 10:38:08.88	328.82	18.84	-45.0	-46.3	20.8	0.00e+00	0	42	0	1173356544	61	4211
2026-01-29 10:38:09.88	328.90	18.73	-45.1	-46.3	20.7	0.00e+00	0	42	0	1175453696	61	4222
2026-01-29 10:38:10.89	328.98	18.61	-45.1	-46.4	20.7	0.00e+00	0	42	0	1177550848	61	4255
2026-01-29 10:38:11.90	329.06	18.49	-45.3	-46.6	20.4	0.00e+00	0	42	0	1179648000	61	4374
2026-01-29 10:38:12.91	329.14	18.38	-45.3	-46.7	20.4	0.00e+00	0	42	0	1181745152	61	4399
2026-01-29 10:38:13.91	329.22	18.26	-45.5	-46.8	20.2	0.00e+00	0	42	0	1182793728	61	4488
2026-01-29 10:38:14.92	329.30	18.15	-45.4	-46.7	20.3	0.00e+00	0	42	0	1184890880	61	4437
2026-01-29 10:38:15.93	329.38	18.03	-45.5	-46.8	20.2	0.00e+00	0	42	0	1186988032	61	4480
2026-01-29 10:38:16.93	329.45	17.92	-45.3	-46.6	20.3	0.00e+00	0	42	0	1189085184	61	4385
2026-01-29 10:38:17.94	329.53	17.80	-45.2	-46.5	20.4	0.00e+00	0	42	0	1190133760	61	4340
2026-01-29 10:38:18.94	329.61	17.69	-45.3	-46.7	20.4	0.00e+00	0	42	0	1192230912	61	4392
2026-01-29 10:38:19.95	329.68	17.58	-45.1	-46.4	20.5	0.00e+00	0	42	0	1194328064	61	4281
2026-01-29 10:38:20.96	329.76	17.47	-45.1	-46.4	20.6	0.00e+00	0	42	0	1196425216	61	4269
2026-01-29 10:38:21.97	329.83	17.35	-44.9	-46.1	20.9	0.00e+00	0	42	0	1198522368	61	4137
2026-01-29 10:38:22.97	329.91	17.24	-44.8	-46.1	20.9	0.00e+00	0	42	0	1200619520	61	4111
2026-01-29 10:38:23.97	329.98	17.13	-44.7	-45.9	21.0	0.00e+00	0	42	0	1201668096	61	4041
2026-01-29 10:38:24.98	330.06	17.02	-44.6	-45.9	21.1	0.00e+00	0	42	0	1203765248	61	4008
2026-01-29 10:38:25.99	330.13	16.91	-44.5	-45.7	21.2	2.20e-06	0	42	0	1205862400	60	4149
2026-01-29 10:38:26.99	330.20	16.81	-44.3	-45.4	21.5	0.00e+00	0	42	0	1207959552	60	4039
2026-01-29 10:38:28.00	330.27	16.70	-44.4	-45.5	21.4	0.00e+00	0	42	0	1210056704	60	4083
2026-01-29 10:38:29.01	330.34	16.59	-44.3	-45.4	21.5	0.00e+00	0	42	0	1211105280	60	4036
2026-01-29 10:38:30.01	330.41	16.48	-44.3	-45.4	21.4	0.00e+00	0	42	0	1213202432	60	4031
2026-01-29 10:38:31.02	330.49	16.37	-44.2	-45.3	21.6	7.00e-07	0	42	0	1215299584	60	3978
2026-01-29 10:38:32.02	330.55	16.27	-44.1	-45.2	21.6	0.00e+00	0	42	0	1217396736	60	3956
2026-01-29 10:38:33.03	330.62	16.16	-44.1	-45.3	21.6	0.00e+00	0	42	0	1218445312	60	3963
2026-01-29 10:38:34.04	330.69	16.05	-44.1	-45.2	21.6	0.00e+00	0	42	0	1220542464	60	3953
2026-01-29 10:38:35.04	330.76	15.95	-44.2	-45.3	21.5	0.00e+00	0	42	0	1222639616	60	3995
2026-01-29 10:38:36.05	330.83	15.84	-44.3	-45.4	21.4	0.00e+00	0	42	0	1224736768	60	4041
2026-01-29 10:38:37.06	330.90	15.74	-44.3	-45.4	21.4	0.00e+00	0	42	0	1226833920	60	4045
2026-01-29 10:38:38.07	330.97	15.63	-44.4	-45.6	21.3	3.80e-06	0	42	0	1228931072	60	4101
2026-01-29 10:38:39.07	331.03	15.53	-44.5	-45.7	21.2	0.00e+00	0	42	0	1229979648	60	4150
2026-01-29 10:38:40.08	331.10	15.42	-44.6	-45.8	21.1	0.00e+00	0	42	0	1232076800	60	4226
2026-01-29 10:38:41.09	331.16	15.32	-44.8	-46.0	20.9	0.00e+00	0	42	0	1234173952	60	4306
