passes_logs/2026/01/29/R3.2S_Murmansk/R3.2S_Murmansk__20260129_050841_SUOMI_NPP_rec.log

#Pass ID: 20260129_050841_SUOMI NPP
#Satellite: SUOMI NPP
#Configuration: NPP
#almurnet v.1.7.20251203
#Start time: 2026-01-29 05:08:43

#Version: 2.2.20231116
#Station: R3.2S_Murmansk
#Location: 33.079688 lon 68.888172 lat
#TLE: 1 37849U 11061A   26027.93236865  .00000148  00000+0  91411-4 0  9991
#TLE: 2 37849  98.7823 329.8704 0002085  41.3231 318.8102 14.19530777738546

#Time	Az	El	Level	Level2	SNR	BER	BlckErr	Temp	State	Recorded	gain1	gain2
2026-01-29 05:08:43.42	60.59	2.13	-54.0	-69.0	3.8	1.49e+00	0	40	0	0	79	20423
2026-01-29 05:08:44.41	60.53	2.18	-54.3	-69.3	3.8	1.49e+00	0	40	104	0	79	21178
2026-01-29 05:08:45.42	60.46	2.24	-54.3	-69.3	3.8	1.49e+00	0	40	104	0	79	21090
2026-01-29 05:08:46.43	60.40	2.30	-54.3	-69.3	3.8	1.49e+00	0	40	104	0	79	21143
2026-01-29 05:08:47.44	60.33	2.35	-54.2	-69.2	3.8	1.49e+00	0	40	104	0	79	20980
2026-01-29 05:08:48.44	60.27	2.41	-54.2	-69.2	3.8	1.49e+00	0	40	104	0	79	20901
2026-01-29 05:08:49.45	60.20	2.47	-54.1	-69.1	3.8	1.49e+00	0	40	104	0	79	20759
2026-01-29 05:08:50.46	60.13	2.53	-54.0	-69.0	3.8	1.49e+00	0	40	104	0	79	20490
2026-01-29 05:08:51.47	60.07	2.58	-53.9	-69.0	3.8	1.49e+00	0	40	104	0	79	20315
2026-01-29 05:08:52.48	60.00	2.64	-53.9	-68.9	3.8	1.49e+00	0	40	104	0	79	20198
2026-01-29 05:08:53.48	59.93	2.70	-53.9	-68.9	3.8	1.49e+00	0	40	104	0	79	20105
2026-01-29 05:08:54.49	59.87	2.76	-53.8	-68.8	3.8	1.49e+00	0	40	104	0	79	20008
2026-01-29 05:08:55.50	59.80	2.82	-53.8	-68.8	3.8	1.49e+00	0	40	104	0	79	19918
2026-01-29 05:08:56.51	59.73	2.88	-53.7	-68.7	3.8	1.49e+00	0	40	104	0	79	19817
2026-01-29 05:08:57.51	59.66	2.93	-53.6	-68.6	3.8	1.49e+00	0	40	104	0	79	19428
2026-01-29 05:08:58.53	59.59	2.99	-53.4	-68.5	3.8	1.49e+00	0	41	104	0	78	20318
2026-01-29 05:08:59.53	59.52	3.05	-53.3	-68.3	3.8	1.49e+00	0	40	104	0	78	19873
2026-01-29 05:09:00.54	59.45	3.11	-53.1	-68.1	3.8	1.49e+00	0	40	104	0	78	19509
2026-01-29 05:09:01.55	59.38	3.17	-52.9	-67.8	3.8	1.49e+00	0	40	104	0	77	20051
2026-01-29 05:09:02.56	59.31	3.23	-52.6	-67.5	3.8	1.49e+00	0	41	104	0	77	19382
2026-01-29 05:09:03.57	59.24	3.29	-52.1	-67.1	3.8	1.49e+00	0	41	104	0	76	19422
2026-01-29 05:09:04.57	59.17	3.34	-51.9	-66.8	3.8	1.49e+00	0	41	104	0	75	19936
2026-01-29 05:09:05.58	59.10	3.40	-51.8	-66.8	3.8	1.49e+00	0	41	104	0	75	19858
2026-01-29 05:09:06.59	59.03	3.46	-51.8	-66.7	3.8	1.49e+00	0	41	104	0	75	19773
2026-01-29 05:09:07.60	58.96	3.52	-51.8	-66.7	3.8	1.49e+00	0	41	104	0	75	19745
2026-01-29 05:09:08.61	58.89	3.58	-51.8	-66.7	3.8	1.49e+00	0	41	104	0	75	19768
2026-01-29 05:09:09.62	58.82	3.64	-51.8	-66.7	3.8	1.49e+00	0	41	104	0	75	19839
2026-01-29 05:09:10.63	58.74	3.70	-51.8	-66.8	3.8	1.49e+00	0	41	104	0	75	19940
2026-01-29 05:09:11.64	58.67	3.76	-51.8	-66.8	3.8	1.49e+00	0	41	104	0	75	19983
2026-01-29 05:09:12.64	58.60	3.82	-51.8	-66.8	3.8	1.49e+00	0	41	104	0	75	19844
2026-01-29 05:09:13.65	58.52	3.88	-51.8	-66.7	3.8	1.49e+00	0	41	104	0	75	19813
2026-01-29 05:09:14.66	58.45	3.94	-51.8	-66.7	3.8	1.49e+00	0	41	104	0	75	19798
2026-01-29 05:09:15.67	58.38	4.00	-51.8	-66.8	3.8	1.49e+00	0	41	104	0	75	19898
2026-01-29 05:09:16.68	58.30	4.06	-51.8	-66.8	3.8	1.49e+00	0	41	104	0	75	19924
2026-01-29 05:09:17.69	58.23	4.12	-51.8	-66.6	3.8	1.49e+00	0	41	104	0	75	19603
2026-01-29 05:09:18.70	58.15	4.18	-51.8	-66.3	3.8	1.49e+00	0	41	104	0	75	18860
2026-01-29 05:09:19.71	58.08	4.24	-51.7	-65.5	3.8	1.49e+00	0	41	104	0	75	17127
2026-01-29 05:09:20.72	58.00	4.30	-51.7	-64.2	3.8	1.49e+00	0	41	104	0	75	14802
2026-01-29 05:09:21.73	57.93	4.36	-51.6	-62.9	4.3	1.42e+00	0	41	0	0	75	12805
2026-01-29 05:09:22.74	57.85	4.42	-51.5	-62.0	4.6	1.17e+00	0	41	0	1048576	75	11505
2026-01-29 05:09:23.75	57.77	4.48	-51.5	-61.8	4.6	9.13e-01	0	41	0	3145728	74	11949
2026-01-29 05:09:24.75	57.70	4.54	-51.4	-61.2	5.0	6.79e-01	0	41	0	4194304	74	11088
2026-01-29 05:09:25.76	57.62	4.60	-51.4	-61.6	4.8	7.48e-01	0	41	0	6291456	74	11557
2026-01-29 05:09:26.77	57.54	4.66	-51.5	-62.1	4.6	9.05e-01	0	41	0	8388608	74	12365
2026-01-29 05:09:27.78	57.46	4.72	-51.6	-63.0	4.2	1.32e+00	0	41	0	9437184	74	13708
2026-01-29 05:09:28.79	57.39	4.79	-51.6	-63.5	4.1	1.42e+00	0	41	0	9437184	74	14453
2026-01-29 05:09:29.80	57.31	4.85	-51.6	-63.1	4.2	1.41e+00	0	41	0	9437184	74	13781
2026-01-29 05:09:30.81	57.23	4.91	-51.5	-61.8	4.7	1.21e+00	0	41	0	11534336	74	11947
2026-01-29 05:09:31.81	57.15	4.97	-51.3	-60.2	5.6	5.79e-01	0	41	0	12582912	74	9844
2026-01-29 05:09:32.82	57.07	5.03	-51.0	-58.6	6.9	2.60e-01	0	41	0	14680064	74	8189
2026-01-29 05:09:33.83	56.99	5.09	-51.0	-57.7	7.9	3.41e-02	0	41	0	16777216	72	8349
2026-01-29 05:09:34.84	56.91	5.15	-51.6	-62.4	4.5	3.06e-01	6	41	0	18874368	73	13564
2026-01-29 05:09:35.85	56.83	5.21	-50.5	-56.4	9.0	6.20e-01	0	41	0	19922944	72	7175
2026-01-29 05:09:36.86	56.75	5.28	-47.8	-50.5	15.1	1.67e-02	0	41	0	22020096	67	4858
2026-01-29 05:09:37.87	56.67	5.34	-51.7	-66.6	3.8	6.15e-01	0	41	104	23068672	73	21979
2026-01-29 05:09:38.88	56.58	5.40	-48.1	-51.0	14.4	9.63e-01	0	41	104	23068672	68	4834
2026-01-29 05:09:39.89	56.50	5.46	-47.4	-49.9	15.7	0.00e+00	0	41	0	24117248	66	4777
2026-01-29 05:09:40.90	56.42	5.52	-47.8	-50.5	15.1	0.00e+00	0	41	0	26214400	66	5154
2026-01-29 05:09:41.90	56.34	5.59	-47.6	-50.2	15.4	0.00e+00	0	41	0	28311552	66	4963
2026-01-29 05:09:42.91	56.25	5.65	-47.3	-49.7	16.0	0.00e+00	0	41	0	30408704	66	4675
2026-01-29 05:09:43.92	56.17	5.71	-47.3	-49.7	16.0	0.00e+00	0	41	0	32505856	66	4652
2026-01-29 05:09:44.93	56.09	5.77	-47.3	-49.7	16.0	0.00e+00	0	41	0	33554432	66	4687
2026-01-29 05:09:45.93	56.00	5.84	-47.1	-49.3	16.3	0.00e+00	0	41	0	35651584	66	4493
2026-01-29 05:09:46.94	55.92	5.90	-47.2	-49.6	16.2	0.00e+00	0	41	0	37748736	66	4606
2026-01-29 05:09:47.95	55.83	5.96	-47.4	-49.8	16.0	0.00e+00	0	41	0	39845888	66	4729
2026-01-29 05:09:48.96	55.75	6.02	-47.3	-49.7	16.1	0.00e+00	0	41	0	41943040	66	4654
2026-01-29 05:09:49.96	55.66	6.09	-47.4	-49.8	16.1	0.00e+00	0	41	0	42991616	66	4713
2026-01-29 05:09:50.97	55.58	6.15	-47.5	-49.9	15.9	0.00e+00	0	41	0	45088768	66	4804
2026-01-29 05:09:51.97	55.49	6.21	-47.5	-49.9	15.9	0.00e+00	0	41	0	47185920	66	4801
2026-01-29 05:09:52.98	55.40	6.27	-47.6	-50.2	15.6	0.00e+00	0	41	0	49283072	66	4970
2026-01-29 05:09:53.99	55.32	6.34	-47.6	-50.2	15.7	0.00e+00	0	41	0	51380224	66	4937
2026-01-29 05:09:54.99	55.23	6.40	-47.7	-50.4	15.5	0.00e+00	0	41	0	52428800	66	5052
2026-01-29 05:09:56.00	55.14	6.46	-47.6	-50.2	15.6	0.00e+00	0	41	0	54525952	66	4932
2026-01-29 05:09:57.01	55.05	6.53	-47.6	-50.1	15.7	0.00e+00	0	41	0	56623104	66	4904
2026-01-29 05:09:58.01	54.96	6.59	-47.7	-50.3	15.5	0.00e+00	0	41	0	58720256	66	5023
2026-01-29 05:09:59.02	54.87	6.65	-47.7	-50.3	15.6	0.00e+00	0	41	0	60817408	66	4986
2026-01-29 05:10:00.02	54.79	6.72	-47.7	-50.3	15.6	0.00e+00	0	42	0	61865984	66	5004
2026-01-29 05:10:01.03	54.69	6.78	-47.7	-50.2	15.6	0.00e+00	0	41	0	63963136	66	4979
2026-01-29 05:10:02.04	54.60	6.85	-47.7	-50.3	15.6	0.00e+00	0	41	0	66060288	66	4992
2026-01-29 05:10:03.05	54.51	6.91	-47.7	-50.2	15.7	0.00e+00	0	42	0	68157440	66	4980
2026-01-29 05:10:04.05	54.42	6.97	-47.6	-50.2	15.7	0.00e+00	0	41	0	70254592	66	4960
2026-01-29 05:10:05.06	54.33	7.04	-47.7	-50.3	15.5	0.00e+00	0	42	0	71303168	66	5033
2026-01-29 05:10:06.07	54.24	7.10	-47.8	-50.5	15.4	0.00e+00	0	41	0	73400320	66	5110
2026-01-29 05:10:07.07	54.15	7.17	-47.7	-50.4	15.5	0.00e+00	0	41	0	75497472	66	5058
2026-01-29 05:10:08.08	54.05	7.23	-47.7	-50.3	15.6	0.00e+00	0	41	0	77594624	66	5018
2026-01-29 05:10:09.09	53.96	7.30	-47.7	-50.2	15.6	0.00e+00	0	42	0	79691776	66	4975
2026-01-29 05:10:10.09	53.87	7.36	-47.5	-49.9	16.0	0.00e+00	0	41	0	80740352	66	4791
2026-01-29 05:10:11.10	53.77	7.42	-47.4	-49.8	16.2	0.00e+00	0	41	0	82837504	66	4738
2026-01-29 05:10:12.11	53.68	7.49	-47.5	-50.0	15.9	0.00e+00	0	41	0	84934656	66	4849
2026-01-29 05:10:13.11	53.58	7.55	-47.5	-49.9	16.0	0.00e+00	0	41	0	87031808	66	4814
2026-01-29 05:10:14.12	53.49	7.62	-47.3	-49.7	16.3	0.00e+00	0	41	0	89128960	66	4653
2026-01-29 05:10:15.13	53.39	7.68	-47.3	-49.6	16.3	0.00e+00	0	41	0	90177536	66	4645
2026-01-29 05:10:16.14	53.29	7.75	-47.2	-49.5	16.5	0.00e+00	0	41	0	92274688	66	4573
2026-01-29 05:10:17.15	53.20	7.81	-47.2	-49.5	16.5	0.00e+00	0	42	0	94371840	66	4559
2026-01-29 05:10:18.15	53.10	7.88	-47.2	-49.5	16.4	0.00e+00	0	41	0	96468992	66	4581
2026-01-29 05:10:19.16	53.00	7.95	-47.1	-49.4	16.5	0.00e+00	0	42	0	98566144	66	4519
2026-01-29 05:10:20.17	52.90	8.01	-47.2	-49.5	16.5	0.00e+00	0	42	0	99614720	66	4558
2026-01-29 05:10:21.17	52.81	8.08	-47.0	-49.2	16.7	0.00e+00	0	41	0	101711872	66	4435
2026-01-29 05:10:22.18	52.71	8.14	-47.0	-49.2	16.8	0.00e+00	0	42	0	103809024	65	4674
2026-01-29 05:10:23.19	52.61	8.21	-47.1	-49.3	16.7	0.00e+00	0	41	0	105906176	65	4745
2026-01-29 05:10:24.20	52.51	8.27	-46.8	-48.9	17.1	0.00e+00	0	41	0	108003328	65	4542
2026-01-29 05:10:25.20	52.41	8.34	-46.9	-49.0	17.0	0.00e+00	0	42	0	109051904	65	4567
2026-01-29 05:10:26.21	52.30	8.41	-46.9	-49.0	17.0	0.00e+00	0	41	0	111149056	65	4587
2026-01-29 05:10:27.22	52.20	8.47	-46.9	-49.0	17.0	0.00e+00	0	42	0	113246208	65	4574
2026-01-29 05:10:28.23	52.10	8.54	-47.0	-49.2	16.9	0.00e+00	0	42	0	115343360	65	4655
2026-01-29 05:10:29.23	52.00	8.60	-46.7	-48.7	17.3	0.00e+00	0	41	0	117440512	65	4436
2026-01-29 05:10:30.24	51.90	8.67	-46.7	-48.8	17.3	0.00e+00	0	42	0	118489088	65	4446
2026-01-29 05:10:31.25	51.79	8.74	-46.7	-48.7	17.4	0.00e+00	0	41	0	120586240	65	4395
2026-01-29 05:10:32.26	51.69	8.80	-46.6	-48.6	17.5	0.00e+00	0	41	0	122683392	65	4351
2026-01-29 05:10:33.27	51.58	8.87	-46.8	-48.9	17.2	0.00e+00	0	42	0	124780544	65	4503
2026-01-29 05:10:34.28	51.48	8.94	-46.6	-48.6	17.4	0.00e+00	0	41	0	126877696	65	4384
2026-01-29 05:10:35.29	51.37	9.00	-46.7	-48.7	17.4	0.00e+00	0	42	0	127926272	65	4423
2026-01-29 05:10:36.29	51.27	9.07	-46.9	-48.9	17.2	0.00e+00	0	42	0	130023424	65	4542
2026-01-29 05:10:37.30	51.16	9.14	-46.8	-48.8	17.3	0.00e+00	0	42	0	132120576	65	4466
2026-01-29 05:10:38.31	51.05	9.20	-46.8	-48.8	17.3	0.00e+00	0	41	0	134217728	65	4474
2026-01-29 05:10:39.31	50.95	9.27	-46.7	-48.7	17.3	0.00e+00	0	42	0	136314880	65	4436
2026-01-29 05:10:40.32	50.84	9.34	-46.9	-49.1	17.1	0.00e+00	0	41	0	138412032	65	4601
2026-01-29 05:10:41.33	50.73	9.41	-47.1	-49.2	16.9	0.00e+00	0	42	0	139460608	65	4692
2026-01-29 05:10:42.34	50.62	9.47	-46.9	-49.0	17.2	0.00e+00	0	42	0	141557760	65	4577
2026-01-29 05:10:43.34	50.51	9.54	-47.1	-49.3	16.8	0.00e+00	0	41	0	143654912	65	4744
2026-01-29 05:10:44.35	50.40	9.61	-47.1	-49.3	16.9	0.00e+00	0	42	0	145752064	65	4710
2026-01-29 05:10:45.36	50.29	9.68	-47.1	-49.3	16.9	0.00e+00	0	42	0	146800640	65	4741
2026-01-29 05:10:46.36	50.18	9.74	-47.2	-49.5	16.7	0.00e+00	0	42	0	148897792	65	4820
2026-01-29 05:10:47.37	50.07	9.81	-47.2	-49.4	16.8	0.00e+00	0	41	0	150994944	65	4769
2026-01-29 05:10:48.38	49.96	9.88	-47.0	-49.0	17.1	0.00e+00	0	42	0	153092096	65	4593
2026-01-29 05:10:49.38	49.84	9.95	-47.1	-49.2	16.9	0.00e+00	0	42	0	155189248	65	4695
2026-01-29 05:10:50.39	49.73	10.01	-47.2	-49.3	16.8	0.00e+00	0	41	0	156237824	65	4758
2026-01-29 05:10:51.40	49.62	10.08	-47.2	-49.4	16.8	0.00e+00	0	42	0	158334976	65	4777
2026-01-29 05:10:52.41	49.50	10.15	-47.3	-49.5	16.7	0.00e+00	0	42	0	160432128	65	4831
2026-01-29 05:10:53.42	49.39	10.22	-47.3	-49.5	16.7	0.00e+00	0	42	0	162529280	65	4829
2026-01-29 05:10:54.43	49.27	10.29	-47.3	-49.5	16.7	0.00e+00	0	42	0	164626432	65	4817
2026-01-29 05:10:55.43	49.16	10.35	-47.1	-49.2	17.0	0.00e+00	0	42	0	166723584	65	4675
2026-01-29 05:10:56.44	49.04	10.42	-47.2	-49.3	16.9	0.00e+00	0	42	0	167772160	65	4756
2026-01-29 05:10:57.45	48.92	10.49	-47.0	-49.0	17.2	0.00e+00	0	42	0	169869312	65	4589
2026-01-29 05:10:58.46	48.80	10.56	-47.0	-49.1	17.1	0.00e+00	0	42	0	171966464	65	4615
2026-01-29 05:10:59.46	48.69	10.63	-46.8	-48.8	17.4	0.00e+00	0	41	0	174063616	65	4465
2026-01-29 05:11:00.47	48.57	10.70	-46.9	-48.9	17.3	0.00e+00	0	41	0	175112192	65	4499
2026-01-29 05:11:01.48	48.45	10.77	-46.9	-49.0	17.2	0.00e+00	0	42	0	177209344	65	4561
2026-01-29 05:11:02.48	48.33	10.84	-46.9	-49.0	17.3	0.00e+00	0	42	0	179306496	65	4546
2026-01-29 05:11:03.50	48.21	10.90	-46.8	-48.8	17.4	0.00e+00	0	42	0	181403648	65	4452
2026-01-29 05:11:04.50	48.09	10.97	-46.9	-49.0	17.2	0.00e+00	0	42	0	183500800	65	4561
2026-01-29 05:11:05.51	47.97	11.04	-46.7	-48.6	17.6	0.00e+00	0	42	0	184549376	65	4366
2026-01-29 05:11:06.51	47.84	11.11	-46.4	-48.3	17.9	0.00e+00	0	42	0	186646528	64	4452
2026-01-29 05:11:07.52	47.72	11.18	-46.5	-48.3	17.8	0.00e+00	0	42	0	188743680	64	4490
2026-01-29 05:11:08.53	47.60	11.25	-46.5	-48.4	17.8	0.00e+00	0	42	0	190840832	64	4520
2026-01-29 05:11:09.54	47.47	11.32	-46.5	-48.4	17.8	0.00e+00	0	42	0	192937984	64	4540
2026-01-29 05:11:10.54	47.35	11.39	-46.5	-48.4	17.9	0.00e+00	0	42	0	195035136	64	4496
2026-01-29 05:11:11.55	47.22	11.46	-46.4	-48.3	17.9	0.00e+00	0	42	0	196083712	64	4451
2026-01-29 05:11:12.56	47.10	11.53	-46.6	-48.5	17.7	0.00e+00	0	42	0	198180864	64	4597
2026-01-29 05:11:13.56	46.97	11.60	-46.5	-48.4	17.8	0.00e+00	0	42	0	200278016	64	4517
2026-01-29 05:11:14.57	46.84	11.67	-46.6	-48.5	17.8	0.00e+00	0	42	0	202375168	64	4583
2026-01-29 05:11:15.58	46.72	11.74	-46.6	-48.5	17.8	0.00e+00	0	42	0	203423744	64	4579
2026-01-29 05:11:16.58	46.59	11.80	-46.4	-48.2	18.0	0.00e+00	0	42	0	205520896	64	4438
2026-01-29 05:11:17.59	46.46	11.87	-46.3	-48.2	18.1	0.00e+00	0	42	0	207618048	64	4402
2026-01-29 05:11:18.59	46.33	11.94	-46.3	-48.1	18.2	0.00e+00	0	42	0	209715200	64	4353
2026-01-29 05:11:19.60	46.20	12.01	-46.1	-47.8	18.4	0.00e+00	0	42	0	211812352	64	4240
2026-01-29 05:11:20.61	46.07	12.08	-46.4	-48.2	18.0	0.00e+00	0	42	0	212860928	64	4422
2026-01-29 05:11:21.62	45.94	12.15	-46.2	-47.9	18.3	0.00e+00	0	42	0	214958080	64	4288
2026-01-29 05:11:22.63	45.81	12.22	-46.1	-47.9	18.4	0.00e+00	0	42	0	217055232	64	4245
2026-01-29 05:11:23.63	45.67	12.29	-46.2	-47.9	18.4	0.00e+00	0	42	0	219152384	63	4533
2026-01-29 05:11:24.64	45.54	12.36	-46.2	-47.9	18.4	0.00e+00	0	42	0	221249536	63	4535
2026-01-29 05:11:25.65	45.41	12.43	-46.1	-47.8	18.5	0.00e+00	0	42	0	223346688	63	4483
2026-01-29 05:11:26.66	45.27	12.51	-46.3	-48.0	18.3	0.00e+00	0	42	0	224395264	63	4584
2026-01-29 05:11:27.66	45.14	12.57	-46.1	-47.8	18.5	0.00e+00	0	42	0	226492416	63	4479
2026-01-29 05:11:28.67	45.00	12.65	-46.1	-47.8	18.5	0.00e+00	0	42	0	228589568	63	4473
2026-01-29 05:11:29.67	44.86	12.72	-46.2	-47.9	18.4	0.00e+00	0	42	0	230686720	63	4531
2026-01-29 05:11:30.68	44.73	12.79	-46.1	-47.8	18.5	0.00e+00	0	42	0	231735296	63	4484
2026-01-29 05:11:31.69	44.59	12.86	-46.1	-47.9	18.5	0.00e+00	0	42	0	233832448	63	4508
2026-01-29 05:11:32.70	44.45	12.93	-46.4	-48.1	18.2	0.00e+00	0	42	0	235929600	63	4651
2026-01-29 05:11:33.71	44.31	13.00	-46.3	-48.1	18.2	0.00e+00	0	42	0	238026752	63	4646
2026-01-29 05:11:34.72	44.17	13.07	-46.3	-48.0	18.3	0.00e+00	0	42	0	240123904	63	4592
2026-01-29 05:11:35.73	44.03	13.14	-46.2	-48.0	18.4	0.00e+00	0	42	0	242221056	63	4566
2026-01-29 05:11:36.73	43.89	13.21	-46.1	-47.8	18.6	0.00e+00	0	42	0	243269632	63	4459
2026-01-29 05:11:37.74	43.75	13.28	-46.2	-47.9	18.4	0.00e+00	0	42	0	245366784	63	4544
2026-01-29 05:11:38.75	43.60	13.35	-46.2	-48.1	18.3	0.00e+00	0	42	0	247463936	63	4599
2026-01-29 05:11:39.75	43.46	13.42	-46.1	-47.9	18.5	0.00e+00	0	42	0	249561088	63	4499
2026-01-29 05:11:40.76	43.31	13.49	-46.1	-47.9	18.5	0.00e+00	0	42	0	251658240	63	4520
2026-01-29 05:11:41.77	43.17	13.56	-46.0	-47.8	18.5	0.00e+00	0	42	0	252706816	63	4455
2026-01-29 05:11:42.77	43.03	13.63	-46.2	-48.0	18.4	0.00e+00	0	42	0	254803968	63	4553
2026-01-29 05:11:43.78	42.88	13.70	-46.3	-48.1	18.3	0.00e+00	0	42	0	256901120	63	4621
2026-01-29 05:11:44.79	42.73	13.77	-46.2	-48.0	18.4	0.00e+00	0	42	0	258998272	63	4575
2026-01-29 05:11:45.80	42.58	13.85	-46.5	-48.4	18.0	0.00e+00	0	42	0	260046848	63	4762
2026-01-29 05:11:46.81	42.43	13.92	-46.4	-48.3	18.1	0.00e+00	0	42	0	262144000	63	4744
2026-01-29 05:11:47.82	42.28	13.99	-46.5	-48.4	18.0	0.00e+00	0	42	0	264241152	63	4788
2026-01-29 05:11:48.82	42.14	14.06	-46.5	-48.4	18.0	0.00e+00	0	42	0	266338304	63	4800
2026-01-29 05:11:49.83	41.98	14.13	-46.3	-48.2	18.2	0.00e+00	0	42	0	268435456	63	4677
2026-01-29 05:11:50.84	41.83	14.20	-46.4	-48.2	18.2	0.00e+00	0	42	0	270532608	63	4680
2026-01-29 05:11:51.84	41.68	14.27	-46.4	-48.2	18.2	0.00e+00	0	42	0	271581184	63	4681
2026-01-29 05:11:52.85	41.53	14.34	-46.2	-48.0	18.4	0.00e+00	0	42	0	273678336	63	4558
2026-01-29 05:11:53.86	41.37	14.41	-46.3	-48.1	18.3	0.00e+00	0	42	0	275775488	63	4608
2026-01-29 05:11:54.87	41.22	14.48	-46.2	-48.0	18.3	0.00e+00	0	42	0	277872640	63	4576
2026-01-29 05:11:55.87	41.07	14.55	-46.3	-48.1	18.3	0.00e+00	0	42	0	279969792	63	4627
2026-01-29 05:11:56.88	40.91	14.62	-46.2	-47.9	18.5	0.00e+00	0	42	0	281018368	63	4543
2026-01-29 05:11:57.89	40.75	14.69	-46.2	-47.9	18.4	0.00e+00	0	42	0	283115520	63	4541
2026-01-29 05:11:58.90	40.59	14.77	-46.4	-48.3	18.2	0.00e+00	0	42	0	285212672	63	4728
2026-01-29 05:11:59.91	40.44	14.84	-46.6	-48.5	18.0	0.00e+00	0	42	0	287309824	63	4858
2026-01-29 05:12:00.91	40.28	14.91	-46.5	-48.3	18.0	0.00e+00	0	42	0	288358400	64	4475
2026-01-29 05:12:01.92	40.12	14.98	-46.5	-48.3	18.0	0.00e+00	0	42	0	290455552	64	4488
2026-01-29 05:12:02.93	39.96	15.05	-46.6	-48.5	17.9	0.00e+00	0	42	0	292552704	64	4567
2026-01-29 05:12:03.94	39.80	15.12	-46.6	-48.4	17.9	0.00e+00	0	42	0	294649856	64	4536
2026-01-29 05:12:04.94	39.64	15.19	-46.8	-48.8	17.6	0.00e+00	0	42	0	296747008	64	4718
2026-01-29 05:12:05.95	39.47	15.26	-47.0	-49.0	17.3	0.00e+00	0	42	0	298844160	64	4859
2026-01-29 05:12:06.96	39.31	15.33	-47.0	-49.0	17.3	0.00e+00	0	42	0	299892736	64	4852
2026-01-29 05:12:07.96	39.14	15.40	-46.9	-49.0	17.4	0.00e+00	0	42	0	301989888	64	4815
2026-01-29 05:12:08.97	38.98	15.47	-46.7	-48.7	17.7	0.00e+00	0	42	0	304087040	64	4684
2026-01-29 05:12:09.98	38.81	15.54	-46.5	-48.3	18.0	0.00e+00	0	42	0	306184192	64	4461
2026-01-29 05:12:10.99	38.65	15.61	-46.5	-48.3	18.2	0.00e+00	0	42	0	308281344	64	4467
2026-01-29 05:12:11.99	38.48	15.68	-46.3	-48.1	18.2	0.00e+00	0	42	0	309329920	64	4384
2026-01-29 05:12:13.00	38.31	15.75	-46.4	-48.2	18.2	0.00e+00	0	42	0	311427072	64	4416
2026-01-29 05:12:14.01	38.14	15.82	-46.5	-48.4	18.0	0.00e+00	0	42	0	313524224	64	4521
2026-01-29 05:12:15.02	37.97	15.89	-46.6	-48.5	17.9	0.00e+00	0	42	0	315621376	64	4549
2026-01-29 05:12:16.02	37.80	15.96	-46.5	-48.3	18.0	0.00e+00	0	42	0	317718528	64	4490
2026-01-29 05:12:17.03	37.63	16.03	-46.5	-48.3	18.0	0.00e+00	0	42	0	318767104	64	4464
2026-01-29 05:12:18.03	37.46	16.10	-46.5	-48.3	18.0	0.00e+00	0	42	0	320864256	64	4485
2026-01-29 05:12:19.04	37.28	16.17	-46.3	-48.1	18.2	0.00e+00	0	42	0	322961408	64	4380
2026-01-29 05:12:20.05	37.11	16.24	-46.3	-48.1	18.3	0.00e+00	0	42	0	325058560	64	4350
2026-01-29 05:12:21.06	36.93	16.31	-46.5	-48.3	18.0	0.00e+00	0	42	0	327155712	64	4474
2026-01-29 05:12:22.07	36.76	16.38	-46.3	-48.1	18.3	0.00e+00	0	42	0	328204288	64	4361
2026-01-29 05:12:23.08	36.58	16.45	-46.3	-48.1	18.3	0.00e+00	0	42	0	330301440	64	4358
2026-01-29 05:12:24.09	36.40	16.52	-46.2	-47.9	18.4	0.00e+00	0	42	0	332398592	64	4289
2026-01-29 05:12:25.10	36.23	16.59	-46.3	-48.0	18.4	0.00e+00	0	42	0	334495744	63	4583
2026-01-29 05:12:26.10	36.05	16.66	-46.5	-48.4	18.1	0.00e+00	0	42	0	336592896	63	4762
2026-01-29 05:12:27.11	35.87	16.73	-46.5	-48.3	18.1	0.00e+00	0	42	0	337641472	63	4732
2026-01-29 05:12:28.12	35.69	16.80	-46.6	-48.4	18.1	0.00e+00	0	42	0	339738624	63	4771
2026-01-29 05:12:29.12	35.51	16.87	-46.7	-48.6	17.8	0.00e+00	0	42	0	341835776	64	4631
2026-01-29 05:12:30.13	35.32	16.94	-46.8	-48.7	17.7	0.00e+00	0	42	0	343932928	64	4680
2026-01-29 05:12:31.13	35.14	17.01	-46.7	-48.6	17.8	0.00e+00	0	42	0	346030080	64	4625
2026-01-29 05:12:32.14	34.96	17.08	-46.8	-48.7	17.8	0.00e+00	0	42	0	347078656	64	4682
2026-01-29 05:12:33.15	34.77	17.14	-46.9	-48.9	17.5	0.00e+00	0	42	0	349175808	64	4769
2026-01-29 05:12:34.16	34.58	17.21	-46.8	-48.7	17.7	0.00e+00	0	42	0	351272960	64	4698
2026-01-29 05:12:35.17	34.40	17.28	-46.6	-48.5	17.9	0.00e+00	0	42	0	353370112	64	4579
2026-01-29 05:12:36.17	34.21	17.35	-46.5	-48.4	18.0	0.00e+00	0	42	0	355467264	64	4525
2026-01-29 05:12:37.18	34.02	17.42	-46.1	-47.7	18.6	0.00e+00	0	42	0	356515840	64	4193
2026-01-29 05:12:38.19	33.83	17.49	-46.1	-47.7	18.6	0.00e+00	0	42	0	358612992	64	4190
2026-01-29 05:12:39.19	33.64	17.55	-45.7	-47.3	19.2	0.00e+00	0	42	0	360710144	63	4221
2026-01-29 05:12:40.20	33.45	17.62	-45.9	-47.5	19.0	0.00e+00	0	42	0	362807296	63	4306
2026-01-29 05:12:41.21	33.26	17.69	-46.1	-47.8	18.7	0.00e+00	0	42	0	364904448	63	4462
2026-01-29 05:12:42.22	33.07	17.76	-45.8	-47.4	19.0	0.00e+00	0	42	0	367001600	63	4289
2026-01-29 05:12:43.23	32.87	17.83	-45.9	-47.5	18.9	0.00e+00	0	42	0	368050176	63	4336
2026-01-29 05:12:44.23	32.68	17.89	-45.7	-47.3	19.2	0.00e+00	0	42	0	370147328	63	4230
2026-01-29 05:12:45.24	32.48	17.96	-45.7	-47.4	19.1	0.00e+00	0	42	0	372244480	63	4256
2026-01-29 05:12:46.24	32.29	18.03	-45.6	-47.2	19.3	0.00e+00	0	42	0	374341632	63	4193
2026-01-29 05:12:47.25	32.09	18.09	-45.7	-47.3	19.1	0.00e+00	0	42	0	375390208	63	4238
2026-01-29 05:12:48.26	31.89	18.16	-45.8	-47.5	19.0	0.00e+00	0	42	0	377487360	63	4292
2026-01-29 05:12:49.27	31.69	18.23	-45.7	-47.4	19.1	0.00e+00	0	42	0	379584512	63	4246
2026-01-29 05:12:50.28	31.49	18.29	-45.6	-47.2	19.3	0.00e+00	0	42	0	381681664	63	4153
2026-01-29 05:12:51.28	31.29	18.36	-45.3	-46.9	19.5	0.00e+00	0	42	0	383778816	62	4261
2026-01-29 05:12:52.28	31.09	18.42	-45.1	-46.6	19.7	0.00e+00	0	42	0	384827392	62	4144
2026-01-29 05:12:53.29	30.89	18.49	-45.1	-46.6	19.8	0.00e+00	0	42	0	386924544	62	4103
2026-01-29 05:12:54.30	30.69	18.55	-45.0	-46.5	19.9	0.00e+00	0	42	0	389021696	61	4303
2026-01-29 05:12:55.31	30.48	18.62	-45.1	-46.6	19.8	0.00e+00	0	42	0	391118848	61	4384
2026-01-29 05:12:56.32	30.28	18.68	-45.1	-46.6	19.8	0.00e+00	0	42	0	393216000	61	4379
2026-01-29 05:12:57.33	30.07	18.75	-45.1	-46.6	19.8	0.00e+00	0	42	0	395313152	61	4380
2026-01-29 05:12:58.33	29.87	18.81	-45.0	-46.5	19.8	0.00e+00	0	42	0	396361728	61	4324
2026-01-29 05:12:59.34	29.66	18.88	-45.0	-46.4	20.0	0.00e+00	0	42	0	398458880	61	4276
2026-01-29 05:13:00.35	29.45	18.94	-44.9	-46.4	20.0	0.00e+00	0	42	0	400556032	61	4263
2026-01-29 05:13:01.36	29.24	19.01	-44.9	-46.3	20.1	0.00e+00	0	42	0	402653184	61	4227
2026-01-29 05:13:02.37	29.03	19.07	-44.9	-46.4	20.0	0.00e+00	0	42	0	403701760	61	4259
2026-01-29 05:13:03.37	28.82	19.13	-44.7	-46.1	20.3	0.00e+00	0	42	0	405798912	61	4101
2026-01-29 05:13:04.38	28.61	19.20	-44.6	-45.9	20.5	0.00e+00	0	42	0	407896064	60	4271
2026-01-29 05:13:05.39	28.39	19.26	-44.4	-45.7	20.6	0.00e+00	0	42	0	409993216	60	4183
2026-01-29 05:13:06.39	28.18	19.32	-44.5	-45.8	20.6	0.00e+00	0	42	0	412090368	60	4207
2026-01-29 05:13:07.40	27.96	19.38	-44.6	-46.0	20.4	0.00e+00	0	42	0	413138944	60	4302
2026-01-29 05:13:08.41	27.75	19.45	-44.5	-45.8	20.5	0.00e+00	0	42	0	415236096	60	4235
2026-01-29 05:13:09.42	27.53	19.51	-44.6	-45.9	20.4	0.00e+00	0	42	0	417333248	60	4266
2026-01-29 05:13:10.42	27.32	19.57	-44.5	-45.8	20.6	0.00e+00	0	42	0	419430400	60	4207
2026-01-29 05:13:11.43	27.10	19.63	-44.6	-45.9	20.4	0.00e+00	0	42	0	421527552	60	4278
2026-01-29 05:13:12.44	26.88	19.69	-44.6	-46.0	20.4	0.00e+00	0	42	0	423624704	60	4307
2026-01-29 05:13:13.45	26.66	19.75	-44.9	-46.3	20.1	0.00e+00	0	42	0	424673280	60	4483
2026-01-29 05:13:14.46	26.43	19.81	-44.9	-46.3	20.0	0.00e+00	0	42	0	426770432	60	4493
2026-01-29 05:13:15.46	26.21	19.87	-44.8	-46.2	20.2	0.00e+00	0	42	0	428867584	60	4439
2026-01-29 05:13:16.47	25.99	19.93	-44.7	-46.1	20.3	0.00e+00	0	42	0	430964736	60	4349
2026-01-29 05:13:17.48	25.77	19.99	-44.5	-45.8	20.5	0.00e+00	0	42	0	432013312	60	4241
2026-01-29 05:13:18.49	25.54	20.05	-44.4	-45.7	20.6	0.00e+00	0	42	0	434110464	60	4193
2026-01-29 05:13:19.50	25.32	20.11	-44.4	-45.8	20.6	0.00e+00	0	42	0	436207616	60	4196
2026-01-29 05:13:20.50	25.09	20.17	-44.4	-45.8	20.6	0.00e+00	0	42	0	438304768	60	4212
2026-01-29 05:13:21.51	24.86	20.23	-44.4	-45.7	20.7	0.00e+00	0	42	0	440401920	60	4163
2026-01-29 05:13:22.52	24.63	20.28	-44.2	-45.5	20.9	0.00e+00	0	42	0	442499072	60	4060
2026-01-29 05:13:23.53	24.41	20.34	-44.3	-45.6	20.8	0.00e+00	0	42	0	443547648	60	4105
2026-01-29 05:13:24.54	24.17	20.40	-44.3	-45.6	20.8	0.00e+00	0	42	0	445644800	60	4105
2026-01-29 05:13:25.55	23.94	20.46	-44.3	-45.5	20.8	0.00e+00	0	42	0	447741952	60	4097
2026-01-29 05:13:26.55	23.71	20.51	-44.4	-45.7	20.7	0.00e+00	0	42	0	449839104	60	4184
2026-01-29 05:13:27.56	23.48	20.57	-44.4	-45.7	20.7	0.00e+00	0	42	0	451936256	60	4164
2026-01-29 05:13:28.57	23.25	20.62	-44.1	-45.4	21.0	0.00e+00	0	42	0	452984832	60	4008
2026-01-29 05:13:29.57	23.02	20.68	-44.2	-45.5	21.2	0.00e+00	0	42	0	455081984	59	4300
2026-01-29 05:13:30.58	22.78	20.73	-44.2	-45.5	21.2	0.00e+00	0	42	0	457179136	59	4312
2026-01-29 05:13:31.59	22.54	20.79	-44.3	-45.6	21.1	0.00e+00	0	42	0	459276288	59	4347
2026-01-29 05:13:32.60	22.31	20.84	-44.5	-45.8	20.9	0.00e+00	0	42	0	460324864	59	4481
2026-01-29 05:13:33.60	22.07	20.89	-44.5	-45.8	20.9	0.00e+00	0	42	0	462422016	59	4469
2026-01-29 05:13:34.61	21.83	20.95	-44.4	-45.6	21.1	0.00e+00	0	42	0	464519168	59	4382
2026-01-29 05:13:35.61	21.59	21.00	-44.1	-45.3	21.3	0.00e+00	0	42	0	466616320	59	4238
2026-01-29 05:13:36.62	21.35	21.05	-44.1	-45.3	21.4	0.00e+00	0	42	0	468713472	59	4204
2026-01-29 05:13:37.63	21.11	21.10	-44.2	-45.4	21.3	0.00e+00	0	42	0	470810624	59	4245
2026-01-29 05:13:38.64	20.87	21.16	-44.3	-45.6	21.1	0.00e+00	0	42	0	471859200	59	4361
2026-01-29 05:13:39.64	20.63	21.21	-44.5	-45.7	21.0	0.00e+00	0	42	0	473956352	59	4426
2026-01-29 05:13:40.65	20.39	21.26	-44.5	-45.7	21.1	0.00e+00	0	42	0	476053504	59	4437
2026-01-29 05:13:41.66	20.14	21.31	-44.4	-45.6	21.2	0.00e+00	0	42	0	478150656	59	4378
2026-01-29 05:13:42.67	19.90	21.36	-44.5	-45.8	21.0	0.00e+00	0	42	0	480247808	59	4465
2026-01-29 05:13:43.67	19.65	21.41	-44.2	-45.5	21.0	0.00e+00	0	42	0	481296384	60	4056
2026-01-29 05:13:44.68	19.41	21.46	-44.2	-45.4	21.1	0.00e+00	0	42	0	483393536	60	4022
2026-01-29 05:13:45.69	19.16	21.50	-44.1	-45.4	21.1	0.00e+00	0	42	0	485490688	60	4009
2026-01-29 05:13:46.69	18.91	21.55	-44.2	-45.4	21.0	0.00e+00	0	42	0	487587840	60	4029
2026-01-29 05:13:47.70	18.66	21.60	-44.0	-45.2	21.2	0.00e+00	0	42	0	488636416	60	3942
2026-01-29 05:13:48.71	18.41	21.65	-44.1	-45.3	21.2	0.00e+00	0	42	0	490733568	60	3976
2026-01-29 05:13:49.71	18.17	21.69	-44.1	-45.4	21.1	0.00e+00	0	42	0	492830720	60	4015
2026-01-29 05:13:50.72	17.91	21.74	-44.1	-45.4	21.1	0.00e+00	0	42	0	494927872	60	4020
2026-01-29 05:13:51.72	17.66	21.78	-44.2	-45.4	21.1	0.00e+00	0	42	0	497025024	60	4028
2026-01-29 05:13:52.73	17.41	21.83	-44.1	-45.4	21.1	0.00e+00	0	42	0	499122176	60	4006
2026-01-29 05:13:53.73	17.16	21.87	-44.2	-45.4	21.4	0.00e+00	0	42	0	500170752	59	4276
2026-01-29 05:13:54.74	16.91	21.92	-44.2	-45.4	21.3	0.00e+00	0	42	0	502267904	59	4287
2026-01-29 05:13:55.74	16.65	21.96	-44.2	-45.4	21.4	0.00e+00	0	42	0	504365056	59	4252
2026-01-29 05:13:56.75	16.40	22.00	-44.3	-45.5	21.3	0.00e+00	0	42	0	506462208	59	4308
2026-01-29 05:13:57.76	16.14	22.04	-44.3	-45.5	21.2	0.00e+00	0	42	0	508559360	59	4327
2026-01-29 05:13:58.77	15.88	22.09	-44.2	-45.4	21.4	0.00e+00	0	42	0	509607936	59	4278
2026-01-29 05:13:59.77	15.63	22.13	-44.1	-45.3	21.5	0.00e+00	0	42	0	511705088	59	4224
2026-01-29 05:14:00.78	15.37	22.17	-44.0	-45.2	21.6	0.00e+00	0	42	0	513802240	59	4169
2026-01-29 05:14:01.79	15.11	22.21	-44.1	-45.3	21.5	0.00e+00	0	42	0	515899392	59	4214
2026-01-29 05:14:02.80	14.85	22.25	-44.2	-45.4	21.4	0.00e+00	0	42	0	516947968	59	4276
2026-01-29 05:14:03.80	14.59	22.28	-44.4	-45.6	21.2	0.00e+00	0	42	0	519045120	59	4391
2026-01-29 05:14:04.80	14.33	22.32	-44.4	-45.6	21.2	0.00e+00	0	42	0	521142272	59	4379
2026-01-29 05:14:05.81	14.07	22.36	-44.6	-45.8	21.1	0.00e+00	0	42	0	523239424	59	4470
2026-01-29 05:14:06.82	13.81	22.40	-44.6	-45.9	21.0	0.00e+00	0	42	0	525336576	59	4495
2026-01-29 05:14:07.83	13.55	22.43	-44.6	-45.9	20.7	0.00e+00	0	42	0	527433728	60	4259
2026-01-29 05:14:08.83	13.29	22.47	-44.8	-46.1	20.5	0.00e+00	0	42	0	528482304	60	4387
2026-01-29 05:14:09.84	13.02	22.51	-44.8	-46.1	20.5	0.00e+00	0	42	0	530579456	60	4341
2026-01-29 05:14:10.85	12.76	22.54	-45.0	-46.4	20.3	0.00e+00	0	42	0	532676608	60	4511
2026-01-29 05:14:11.85	12.49	22.57	-45.2	-46.6	20.1	0.00e+00	0	42	0	534773760	60	4618
2026-01-29 05:14:12.86	12.23	22.61	-45.5	-47.0	19.7	0.00e+00	0	42	0	536870912	61	4566
2026-01-29 05:14:13.87	11.96	22.64	-45.7	-47.3	19.5	0.00e+00	0	42	0	537919488	62	4444
2026-01-29 05:14:14.87	11.70	22.67	-46.0	-47.6	19.1	0.00e+00	0	42	0	540016640	62	4618
2026-01-29 05:14:15.88	11.43	22.70	-45.9	-47.5	19.2	0.00e+00	0	42	0	542113792	62	4582
2026-01-29 05:14:16.89	11.16	22.74	-45.9	-47.5	19.2	0.00e+00	0	42	0	544210944	62	4583
2026-01-29 05:14:17.90	10.89	22.77	-45.7	-47.2	19.4	0.00e+00	0	42	0	545259520	62	4402
2026-01-29 05:14:18.91	10.62	22.80	-45.5	-47.0	19.7	0.00e+00	0	42	0	547356672	62	4297
2026-01-29 05:14:19.91	10.35	22.82	-45.3	-46.8	19.9	0.00e+00	0	42	0	549453824	62	4204
2026-01-29 05:14:20.92	10.08	22.85	-45.3	-46.7	19.9	0.00e+00	0	42	0	551550976	62	4189
2026-01-29 05:14:21.93	9.81	22.88	-45.2	-46.6	20.0	0.00e+00	0	42	0	553648128	62	4142
2026-01-29 05:14:22.94	9.54	22.91	-45.2	-46.6	20.0	0.00e+00	0	42	0	555745280	62	4112
2026-01-29 05:14:23.94	9.27	22.93	-45.2	-46.6	20.1	0.00e+00	0	42	0	556793856	62	4123
2026-01-29 05:14:24.95	9.00	22.96	-45.2	-46.6	20.1	0.00e+00	0	42	0	558891008	62	4116
2026-01-29 05:14:25.96	8.73	22.98	-44.9	-46.3	20.3	0.00e+00	0	42	0	560988160	61	4224
2026-01-29 05:14:26.97	8.45	23.01	-45.1	-46.5	20.1	0.00e+00	0	42	0	563085312	61	4314
2026-01-29 05:14:27.97	8.18	23.03	-45.1	-46.5	20.1	0.00e+00	0	42	0	565182464	61	4333
2026-01-29 05:14:28.98	7.91	23.06	-45.2	-46.7	20.0	0.00e+00	0	42	0	566231040	61	4394
2026-01-29 05:14:29.99	7.63	23.08	-45.6	-47.1	19.6	0.00e+00	0	42	0	568328192	61	4636
2026-01-29 05:14:31.00	7.36	23.10	-45.7	-47.2	19.5	0.00e+00	0	42	0	570425344	62	4429
2026-01-29 05:14:32.01	7.08	23.12	-45.8	-47.4	19.3	0.00e+00	0	42	0	572522496	62	4494
2026-01-29 05:14:33.01	6.81	23.14	-45.6	-47.1	19.5	0.00e+00	0	42	0	573571072	62	4391
2026-01-29 05:14:34.02	6.53	23.16	-45.8	-47.3	19.4	0.00e+00	0	42	0	575668224	62	4463
2026-01-29 05:14:35.03	6.26	23.18	-45.7	-47.2	19.5	0.00e+00	0	42	0	577765376	62	4432
2026-01-29 05:14:36.03	5.98	23.20	-45.9	-47.4	19.3	0.00e+00	0	42	0	579862528	62	4538
2026-01-29 05:14:37.04	5.71	23.22	-46.0	-47.6	19.1	0.00e+00	0	42	0	581959680	62	4602
2026-01-29 05:14:38.05	5.43	23.23	-46.1	-47.7	19.0	0.00e+00	0	42	0	584056832	63	4438
2026-01-29 05:14:39.06	5.15	23.25	-46.2	-47.9	18.9	0.00e+00	0	42	0	585105408	63	4501
2026-01-29 05:14:40.07	4.87	23.26	-46.3	-48.0	18.8	0.00e+00	0	42	0	587202560	63	4555
2026-01-29 05:14:41.07	4.60	23.28	-46.3	-47.9	18.7	0.00e+00	0	42	0	589299712	63	4535
2026-01-29 05:14:42.08	4.32	23.29	-46.1	-47.7	19.0	0.00e+00	0	42	0	591396864	63	4440
2026-01-29 05:14:43.09	4.04	23.31	-46.1	-47.7	19.1	0.00e+00	0	42	0	593494016	63	4414
2026-01-29 05:14:44.10	3.76	23.32	-46.1	-47.8	18.9	0.00e+00	0	42	0	594542592	63	4458
2026-01-29 05:14:45.10	3.49	23.33	-46.2	-47.8	19.0	0.00e+00	0	42	0	596639744	63	4464
2026-01-29 05:14:46.11	3.21	23.34	-46.3	-48.0	18.8	0.00e+00	0	42	0	598736896	63	4560
2026-01-29 05:14:47.12	2.93	23.35	-46.5	-48.3	18.5	0.00e+00	0	42	0	600834048	63	4719
2026-01-29 05:14:48.13	2.65	23.36	-46.7	-48.5	18.2	0.00e+00	0	42	0	602931200	64	4559
2026-01-29 05:14:49.14	2.37	23.37	-46.9	-48.8	18.0	0.00e+00	0	42	0	603979776	64	4727
2026-01-29 05:14:50.15	2.09	23.38	-46.9	-48.9	17.8	0.00e+00	0	42	0	606076928	64	4782
2026-01-29 05:14:51.15	1.81	23.38	-46.7	-48.6	18.1	0.00e+00	0	42	0	608174080	64	4638
2026-01-29 05:14:52.16	1.53	23.39	-46.6	-48.4	18.3	0.00e+00	0	42	0	610271232	64	4541
2026-01-29 05:14:53.17	1.25	23.40	-46.4	-48.2	18.4	0.00e+00	0	42	0	612368384	64	4438
2026-01-29 05:14:54.18	0.97	23.40	-46.3	-48.0	18.6	0.00e+00	0	42	0	613416960	64	4339
2026-01-29 05:14:55.18	0.69	23.41	-45.9	-47.5	19.2	0.00e+00	0	42	0	615514112	63	4307
2026-01-29 05:14:56.18	0.41	23.41	-45.6	-47.1	19.5	0.00e+00	0	42	0	617611264	63	4122
2026-01-29 05:14:57.19	0.13	23.41	-45.4	-46.8	19.8	0.00e+00	0	42	0	619708416	62	4231
2026-01-29 05:14:58.20	359.85	23.42	-45.1	-46.5	20.0	0.00e+00	0	42	0	621805568	62	4092
2026-01-29 05:14:59.20	359.58	23.42	-45.2	-46.6	20.0	0.00e+00	0	42	0	622854144	62	4117
2026-01-29 05:15:00.21	359.29	23.42	-45.4	-46.8	19.8	0.00e+00	0	42	0	624951296	62	4235
2026-01-29 05:15:01.22	359.01	23.42	-45.5	-47.0	19.6	0.00e+00	0	42	0	627048448	62	4329
2026-01-29 05:15:02.23	358.73	23.42	-45.7	-47.3	19.4	0.00e+00	0	42	0	629145600	62	4455
2026-01-29 05:15:03.23	358.46	23.42	-45.6	-47.2	19.5	0.00e+00	0	42	0	631242752	62	4410
2026-01-29 05:15:04.24	358.17	23.41	-45.5	-47.0	19.7	0.00e+00	0	42	0	632291328	62	4305
2026-01-29 05:15:05.25	357.89	23.41	-45.3	-46.7	19.8	0.00e+00	0	42	0	634388480	62	4193
2026-01-29 05:15:06.25	357.62	23.41	-45.4	-46.9	19.7	0.00e+00	0	42	0	636485632	62	4263
2026-01-29 05:15:07.26	357.34	23.40	-45.5	-47.0	19.7	0.00e+00	0	42	0	638582784	62	4295
2026-01-29 05:15:08.26	357.06	23.40	-45.4	-46.9	19.7	0.00e+00	0	42	0	640679936	62	4283
2026-01-29 05:15:09.27	356.78	23.39	-45.2	-46.7	20.0	0.00e+00	0	42	0	641728512	62	4147
2026-01-29 05:15:10.28	356.50	23.38	-45.2	-46.6	20.0	0.00e+00	0	42	0	643825664	62	4113
2026-01-29 05:15:11.29	356.22	23.38	-45.1	-46.6	20.1	0.00e+00	0	42	0	645922816	62	4101
2026-01-29 05:15:12.29	355.94	23.37	-45.0	-46.4	20.1	0.00e+00	0	42	0	648019968	62	4048
2026-01-29 05:15:13.30	355.66	23.36	-45.2	-46.6	20.0	0.00e+00	0	42	0	650117120	62	4138
2026-01-29 05:15:14.30	355.38	23.35	-45.3	-46.7	20.0	0.00e+00	0	42	0	651165696	62	4160
2026-01-29 05:15:15.31	355.10	23.34	-45.2	-46.6	20.0	0.00e+00	0	42	0	653262848	61	4356
2026-01-29 05:15:16.32	354.83	23.33	-44.8	-46.1	20.5	0.00e+00	0	42	0	655360000	61	4127
2026-01-29 05:15:17.32	354.55	23.32	-44.6	-45.9	20.7	0.00e+00	0	42	0	657457152	61	4037
2026-01-29 05:15:18.33	354.27	23.30	-44.7	-46.0	20.7	0.00e+00	0	42	0	659554304	61	4052
2026-01-29 05:15:19.34	353.99	23.29	-45.0	-46.3	20.3	0.00e+00	0	42	0	660602880	61	4230
2026-01-29 05:15:20.34	353.72	23.28	-45.0	-46.4	20.3	0.00e+00	0	42	0	662700032	61	4263
2026-01-29 05:15:21.35	353.44	23.26	-45.1	-46.5	20.1	0.00e+00	0	42	0	664797184	61	4337
2026-01-29 05:15:22.36	353.16	23.25	-44.9	-46.2	20.4	0.00e+00	0	42	0	666894336	61	4161
2026-01-29 05:15:23.37	352.88	23.23	-44.6	-45.9	20.8	0.00e+00	0	42	0	668991488	61	4012
2026-01-29 05:15:24.38	352.61	23.21	-44.3	-45.5	21.0	0.00e+00	0	42	0	670040064	60	4091
2026-01-29 05:15:25.38	352.33	23.20	-44.3	-45.5	21.0	0.00e+00	0	42	0	672137216	60	4083
2026-01-29 05:15:26.39	352.05	23.18	-44.6	-45.8	20.8	0.00e+00	0	42	0	674234368	60	4226
2026-01-29 05:15:27.40	351.78	23.16	-44.2	-45.4	21.1	0.00e+00	0	42	0	676331520	60	4044
2026-01-29 05:15:28.41	351.50	23.14	-44.4	-45.7	20.9	0.00e+00	0	42	0	678428672	60	4164
2026-01-29 05:15:29.42	351.23	23.12	-44.2	-45.4	21.1	0.00e+00	0	42	0	679477248	60	4039
2026-01-29 05:15:30.42	350.95	23.10	-44.2	-45.4	21.2	0.00e+00	0	42	0	681574400	60	4040
2026-01-29 05:15:31.43	350.68	23.08	-44.4	-45.6	21.3	0.00e+00	0	42	0	683671552	59	4350
2026-01-29 05:15:32.44	350.40	23.05	-44.4	-45.6	21.3	0.00e+00	0	42	0	685768704	59	4371
2026-01-29 05:15:33.44	350.13	23.03	-44.3	-45.5	21.4	0.00e+00	0	42	0	687865856	59	4317
2026-01-29 05:15:34.45	349.86	23.01	-44.2	-45.4	21.4	0.00e+00	0	42	0	688914432	59	4278
2026-01-29 05:15:35.46	349.59	22.98	-44.2	-45.4	21.5	0.00e+00	0	42	0	691011584	59	4256
2026-01-29 05:15:36.47	349.31	22.96	-44.4	-45.5	21.3	0.00e+00	0	42	0	693108736	59	4339
2026-01-29 05:15:37.48	349.04	22.93	-44.3	-45.5	21.5	0.00e+00	0	42	0	695205888	59	4294
2026-01-29 05:15:38.48	348.77	22.91	-44.5	-45.7	21.2	0.00e+00	0	42	0	697303040	59	4421
2026-01-29 05:15:39.48	348.50	22.88	-44.4	-45.6	21.0	0.00e+00	0	42	0	698351616	60	4127
2026-01-29 05:15:40.48	348.24	22.85	-44.5	-45.7	20.8	0.00e+00	0	42	0	700448768	60	4187
2026-01-29 05:15:41.49	347.97	22.82	-44.5	-45.8	20.8	0.00e+00	0	42	0	702545920	60	4219
2026-01-29 05:15:42.50	347.70	22.79	-44.4	-45.6	21.0	0.00e+00	0	42	0	704643072	60	4111
2026-01-29 05:15:43.51	347.43	22.76	-44.7	-46.0	20.6	0.00e+00	0	42	0	706740224	60	4331
2026-01-29 05:15:44.52	347.16	22.73	-44.5	-45.8	20.8	0.00e+00	0	42	0	707788800	60	4212
2026-01-29 05:15:45.52	346.89	22.70	-44.3	-45.6	21.1	0.00e+00	0	42	0	709885952	60	4101
2026-01-29 05:15:46.53	346.62	22.67	-44.3	-45.5	21.4	0.00e+00	0	42	0	711983104	59	4317
2026-01-29 05:15:47.54	346.36	22.64	-44.2	-45.4	21.5	0.00e+00	0	42	0	714080256	59	4253
2026-01-29 05:15:48.54	346.09	22.61	-44.0	-45.2	21.7	0.00e+00	0	42	0	716177408	59	4154
2026-01-29 05:15:49.55	345.83	22.57	-44.4	-45.6	21.3	0.00e+00	0	42	0	717225984	59	4382
2026-01-29 05:15:50.56	345.56	22.54	-44.5	-45.8	20.8	0.00e+00	0	42	0	719323136	60	4198
2026-01-29 05:15:51.56	345.30	22.50	-44.6	-45.9	20.8	0.00e+00	0	42	0	721420288	60	4245
2026-01-29 05:15:52.57	345.03	22.47	-44.7	-46.0	20.6	0.00e+00	0	42	0	723517440	60	4309
2026-01-29 05:15:53.58	344.77	22.43	-44.6	-45.8	20.7	0.00e+00	0	42	0	725614592	60	4242
2026-01-29 05:15:54.59	344.51	22.40	-44.4	-45.6	20.9	0.00e+00	0	42	0	726663168	60	4145
2026-01-29 05:15:55.60	344.24	22.36	-44.1	-45.3	21.2	0.00e+00	0	42	0	728760320	60	3959
2026-01-29 05:15:56.61	343.98	22.32	-44.3	-45.5	21.1	0.00e+00	0	42	0	730857472	60	4074
2026-01-29 05:15:57.61	343.72	22.28	-44.2	-45.4	21.1	0.00e+00	0	42	0	732954624	60	4046
2026-01-29 05:15:58.62	343.46	22.24	-44.2	-45.4	21.1	0.00e+00	0	42	0	735051776	60	4047
2026-01-29 05:15:59.63	343.20	22.21	-44.4	-45.6	20.9	0.00e+00	0	42	0	736100352	60	4139
2026-01-29 05:16:00.64	342.94	22.17	-44.8	-46.1	20.5	0.00e+00	0	42	0	738197504	60	4377
2026-01-29 05:16:01.64	342.69	22.13	-44.8	-46.1	20.5	0.00e+00	0	42	0	740294656	60	4361
2026-01-29 05:16:02.65	342.43	22.08	-45.2	-46.6	20.1	0.00e+00	0	42	0	742391808	60	4599
2026-01-29 05:16:03.66	342.17	22.04	-45.4	-46.8	19.9	0.00e+00	0	42	0	744488960	61	4462
2026-01-29 05:16:04.67	341.92	22.00	-45.8	-47.3	19.4	0.00e+00	0	42	0	745537536	62	4470
2026-01-29 05:16:05.67	341.66	21.96	-46.1	-47.7	19.0	0.00e+00	0	42	0	747634688	62	4685
2026-01-29 05:16:06.68	341.41	21.91	-46.3	-47.9	18.9	0.00e+00	0	42	0	749731840	63	4540
2026-01-29 05:16:07.69	341.15	21.87	-46.2	-47.8	18.9	0.00e+00	0	42	0	751828992	63	4484
2026-01-29 05:16:08.69	340.90	21.83	-46.0	-47.6	19.1	0.00e+00	0	42	0	753926144	63	4357
2026-01-29 05:16:09.70	340.65	21.78	-45.9	-47.4	19.3	0.00e+00	0	42	0	754974720	63	4271
2026-01-29 05:16:10.71	340.40	21.74	-45.8	-47.3	19.4	0.00e+00	0	42	0	757071872	63	4213
2026-01-29 05:16:11.72	340.15	21.69	-45.7	-47.2	19.4	0.00e+00	0	42	0	759169024	63	4192
2026-01-29 05:16:12.73	339.90	21.64	-45.6	-47.1	19.6	0.00e+00	0	42	0	761266176	62	4390
2026-01-29 05:16:13.74	339.65	21.60	-45.7	-47.2	19.5	0.00e+00	0	42	0	763363328	62	4427
2026-01-29 05:16:14.74	339.40	21.55	-45.7	-47.2	19.5	0.00e+00	0	42	0	765460480	62	4420
2026-01-29 05:16:15.75	339.15	21.50	-45.7	-47.2	19.5	0.00e+00	0	42	0	766509056	62	4405
2026-01-29 05:16:16.75	338.91	21.45	-45.7	-47.2	19.5	0.00e+00	0	42	0	768606208	62	4428
2026-01-29 05:16:17.76	338.66	21.40	-45.8	-47.3	19.4	0.00e+00	0	42	0	770703360	62	4477
2026-01-29 05:16:18.76	338.42	21.36	-45.7	-47.2	19.5	0.00e+00	0	42	0	772800512	62	4394
2026-01-29 05:16:19.77	338.17	21.31	-45.5	-47.0	19.6	0.00e+00	0	42	0	773849088	62	4301
2026-01-29 05:16:20.77	337.93	21.26	-45.3	-46.7	19.9	0.00e+00	0	42	0	775946240	62	4187
2026-01-29 05:16:21.78	337.69	21.21	-45.3	-46.7	19.9	0.00e+00	0	42	0	778043392	62	4188
2026-01-29 05:16:22.79	337.44	21.15	-45.3	-46.8	19.9	0.00e+00	0	42	0	780140544	62	4196
2026-01-29 05:16:23.79	337.20	21.10	-45.4	-46.8	19.9	0.00e+00	0	42	0	782237696	62	4214
2026-01-29 05:16:24.80	336.96	21.05	-45.4	-46.9	19.8	0.00e+00	0	42	0	783286272	62	4246
2026-01-29 05:16:25.80	336.72	21.00	-45.3	-46.7	19.9	0.00e+00	0	42	0	785383424	62	4169
2026-01-29 05:16:26.81	336.49	20.95	-45.0	-46.4	20.2	0.00e+00	0	42	0	787480576	62	4037
2026-01-29 05:16:27.82	336.25	20.89	-45.1	-46.5	20.2	0.00e+00	0	42	0	789577728	62	4052
2026-01-29 05:16:28.83	336.01	20.84	-45.2	-46.6	20.0	0.00e+00	0	42	0	791674880	62	4138
2026-01-29 05:16:29.83	335.77	20.79	-45.4	-46.9	19.8	0.00e+00	0	42	0	793772032	62	4269
2026-01-29 05:16:30.84	335.54	20.73	-45.8	-47.3	19.4	0.00e+00	0	42	0	794820608	62	4492
2026-01-29 05:16:31.85	335.30	20.68	-46.0	-47.6	19.1	0.00e+00	0	42	0	796917760	62	4633
2026-01-29 05:16:32.86	335.07	20.62	-46.0	-47.6	19.1	0.00e+00	0	42	0	799014912	62	4624
2026-01-29 05:16:33.87	334.83	20.57	-46.2	-47.9	18.8	0.00e+00	0	42	0	801112064	63	4502
2026-01-29 05:16:34.87	334.60	20.51	-46.2	-47.9	18.8	0.00e+00	0	42	0	802160640	63	4505
2026-01-29 05:16:35.88	334.37	20.45	-46.2	-47.9	18.9	0.00e+00	0	42	0	804257792	63	4509
2026-01-29 05:16:36.89	334.14	20.40	-46.0	-47.7	19.0	0.00e+00	0	42	0	806354944	63	4393
2026-01-29 05:16:37.89	333.91	20.34	-46.4	-48.2	18.5	0.00e+00	0	42	0	808452096	63	4696
2026-01-29 05:16:38.90	333.68	20.28	-46.4	-48.2	18.5	0.00e+00	0	42	0	810549248	63	4692
2026-01-29 05:16:39.91	333.46	20.22	-46.7	-48.7	17.9	0.00e+00	0	42	0	811597824	64	4687
2026-01-29 05:16:40.91	333.23	20.17	-47.1	-49.3	17.4	0.00e+00	0	42	0	813694976	65	4710
2026-01-29 05:16:41.91	333.01	20.11	-47.6	-49.9	16.8	0.00e+00	0	42	0	815792128	66	4804
2026-01-29 05:16:42.92	332.78	20.05	-47.6	-50.0	16.7	0.00e+00	0	42	0	817889280	66	4845
2026-01-29 05:16:43.93	332.56	19.99	-47.3	-49.5	17.1	0.00e+00	0	42	0	819986432	66	4579
2026-01-29 05:16:44.94	332.33	19.93	-46.9	-49.0	17.7	0.00e+00	0	42	0	822083584	65	4551
2026-01-29 05:16:45.95	332.11	19.87	-46.6	-48.5	18.2	0.00e+00	0	42	0	823132160	65	4293
2026-01-29 05:16:46.96	331.89	19.81	-46.0	-47.7	18.9	0.00e+00	0	42	0	825229312	64	4173
2026-01-29 05:16:47.96	331.67	19.75	-45.7	-47.3	19.4	0.00e+00	0	42	0	827326464	63	4207
2026-01-29 05:16:48.96	331.45	19.69	-45.6	-47.2	19.5	0.00e+00	0	42	0	829423616	63	4151
2026-01-29 05:16:49.97	331.23	19.63	-45.3	-46.8	19.8	0.00e+00	0	42	0	830472192	62	4204
2026-01-29 05:16:50.98	331.01	19.57	-45.0	-46.4	20.1	0.00e+00	0	42	0	832569344	62	4047
2026-01-29 05:16:51.99	330.79	19.51	-44.9	-46.3	20.2	0.00e+00	0	42	0	834666496	61	4210
2026-01-29 05:16:52.99	330.58	19.45	-44.8	-46.2	20.3	0.00e+00	0	42	0	836763648	61	4158
2026-01-29 05:16:54.00	330.36	19.38	-44.7	-46.1	20.4	0.00e+00	0	42	0	838860800	61	4102
2026-01-29 05:16:55.01	330.15	19.32	-44.8	-46.1	20.4	0.00e+00	0	42	0	839909376	61	4136
2026-01-29 05:16:56.01	329.93	19.26	-44.6	-46.0	20.5	0.00e+00	0	42	0	842006528	61	4062
2026-01-29 05:16:57.02	329.72	19.20	-44.6	-45.9	20.6	0.00e+00	0	42	0	844103680	61	4025
2026-01-29 05:16:58.02	329.51	19.13	-44.6	-46.0	20.5	0.00e+00	0	42	0	846200832	61	4053
2026-01-29 05:16:59.03	329.30	19.07	-44.6	-45.9	20.4	0.00e+00	0	42	0	848297984	61	4007
2026-01-29 05:17:00.04	329.09	19.01	-44.6	-45.9	20.6	0.00e+00	0	42	0	850395136	61	4023
2026-01-29 05:17:01.05	328.88	18.94	-44.5	-45.8	20.7	0.00e+00	0	42	0	851443712	60	4207
2026-01-29 05:17:02.06	328.67	18.88	-44.4	-45.7	20.7	0.00e+00	0	42	0	853540864	60	4168
2026-01-29 05:17:03.06	328.46	18.81	-44.2	-45.5	20.8	0.00e+00	0	42	0	855638016	60	4080
2026-01-29 05:17:04.07	328.25	18.75	-44.4	-45.7	20.7	0.00e+00	0	42	0	857735168	60	4187
2026-01-29 05:17:05.08	328.05	18.68	-44.7	-46.0	20.4	0.00e+00	0	42	0	858783744	60	4318
2026-01-29 05:17:06.08	327.84	18.62	-45.1	-46.5	20.0	0.00e+00	0	42	0	860880896	60	4574
2026-01-29 05:17:07.09	327.64	18.56	-45.5	-47.0	19.5	0.00e+00	0	42	0	862978048	61	4581
2026-01-29 05:17:08.10	327.44	18.49	-45.8	-47.4	19.2	0.00e+00	0	42	0	865075200	62	4533
2026-01-29 05:17:09.10	327.24	18.42	-46.3	-48.0	18.6	0.00e+00	0	42	0	867172352	63	4594
2026-01-29 05:17:10.11	327.03	18.36	-46.4	-48.2	18.4	0.00e+00	0	42	0	868220928	63	4690
2026-01-29 05:17:11.12	326.83	18.29	-46.5	-48.3	18.4	0.00e+00	0	42	0	870318080	63	4720
2026-01-29 05:17:12.13	326.63	18.23	-46.3	-48.1	18.5	0.00e+00	0	42	0	872415232	63	4613
2026-01-29 05:17:13.13	326.44	18.16	-46.1	-47.9	18.7	0.00e+00	0	42	0	874512384	63	4502
2026-01-29 05:17:14.14	326.24	18.09	-45.9	-47.6	19.0	0.00e+00	0	42	0	876609536	63	4347
2026-01-29 05:17:15.15	326.04	18.03	-45.7	-47.4	19.2	0.00e+00	0	42	0	878706688	63	4247
2026-01-29 05:17:16.16	325.84	17.96	-45.6	-47.1	19.4	0.00e+00	0	42	0	879755264	62	4391
2026-01-29 05:17:17.17	325.65	17.89	-45.3	-46.8	19.7	0.00e+00	0	42	0	881852416	62	4196
2026-01-29 05:17:18.17	325.45	17.83	-45.0	-46.4	20.1	0.00e+00	0	42	0	883949568	62	4035
2026-01-29 05:17:19.18	325.26	17.76	-45.0	-46.4	20.1	0.00e+00	0	41	0	886046720	61	4270
2026-01-29 05:17:20.19	325.07	17.69	-44.8	-46.2	20.2	0.00e+00	0	42	0	887095296	61	4165
2026-01-29 05:17:21.19	324.88	17.62	-44.7	-46.0	20.4	0.00e+00	0	42	0	889192448	61	4096
2026-01-29 05:17:22.20	324.69	17.56	-44.6	-46.0	20.5	0.00e+00	0	42	0	891289600	61	4054
2026-01-29 05:17:23.21	324.49	17.49	-44.4	-45.7	20.7	0.00e+00	0	42	0	893386752	60	4153
2026-01-29 05:17:24.21	324.31	17.42	-44.5	-45.8	20.6	0.00e+00	0	42	0	895483904	60	4206
2026-01-29 05:17:25.22	324.12	17.35	-44.7	-46.1	20.4	0.00e+00	0	42	0	897581056	60	4354
2026-01-29 05:17:26.23	323.93	17.28	-45.1	-46.6	19.9	0.00e+00	0	42	0	898629632	60	4622
2026-01-29 05:17:27.23	323.75	17.22	-45.3	-46.8	19.7	0.00e+00	0	42	0	900726784	61	4480
2026-01-29 05:17:28.24	323.56	17.15	-45.5	-47.1	19.4	0.00e+00	0	42	0	902823936	61	4628
2026-01-29 05:17:29.25	323.37	17.08	-45.7	-47.3	19.2	0.00e+00	0	42	0	904921088	62	4472
2026-01-29 05:17:30.25	323.19	17.01	-45.5	-47.1	19.4	0.00e+00	0	42	0	907018240	62	4359
2026-01-29 05:17:31.26	323.01	16.94	-45.3	-46.8	19.7	0.00e+00	0	42	0	908066816	62	4220
2026-01-29 05:17:32.27	322.82	16.87	-45.3	-46.8	19.7	0.00e+00	0	42	0	910163968	62	4210
2026-01-29 05:17:33.28	322.64	16.80	-45.2	-46.6	19.8	0.00e+00	0	42	0	912261120	62	4134
2026-01-29 05:17:34.29	322.46	16.73	-45.5	-47.0	19.6	0.00e+00	0	42	0	914358272	62	4307
2026-01-29 05:17:35.29	322.28	16.66	-45.7	-47.3	19.3	0.00e+00	0	42	0	915406848	62	4449
2026-01-29 05:17:36.30	322.10	16.59	-45.6	-47.2	19.3	0.00e+00	0	42	0	917504000	62	4441
2026-01-29 05:17:37.31	321.93	16.53	-45.7	-47.3	19.2	0.00e+00	0	42	0	919601152	62	4485
2026-01-29 05:17:38.32	321.75	16.46	-45.8	-47.4	19.1	0.00e+00	0	42	0	921698304	62	4544
2026-01-29 05:17:39.32	321.57	16.39	-45.6	-47.2	19.3	0.00e+00	0	42	0	923795456	62	4414
2026-01-29 05:17:40.33	321.40	16.32	-45.6	-47.1	19.4	0.00e+00	0	42	0	925892608	62	4376
2026-01-29 05:17:41.33	321.22	16.25	-45.5	-47.0	19.5	0.00e+00	0	42	0	926941184	62	4307
2026-01-29 05:17:42.34	321.05	16.18	-45.4	-46.9	19.6	0.00e+00	0	42	0	929038336	62	4280
2026-01-29 05:17:43.35	320.87	16.11	-45.4	-46.9	19.7	0.00e+00	0	42	0	931135488	62	4246
2026-01-29 05:17:44.35	320.70	16.04	-45.3	-46.8	19.8	0.00e+00	0	42	0	933232640	62	4215
2026-01-29 05:17:45.36	320.53	15.97	-45.1	-46.5	19.9	0.00e+00	0	42	0	935329792	62	4084
2026-01-29 05:17:46.37	320.36	15.90	-45.0	-46.4	20.0	0.00e+00	0	42	0	936378368	61	4255
2026-01-29 05:17:47.37	320.19	15.83	-44.9	-46.2	20.2	0.00e+00	0	42	0	938475520	61	4183
2026-01-29 05:17:48.38	320.02	15.76	-44.9	-46.3	20.1	0.00e+00	0	42	0	940572672	61	4202
2026-01-29 05:17:49.39	319.85	15.69	-45.0	-46.5	20.0	0.00e+00	0	42	0	942669824	61	4294
2026-01-29 05:17:50.39	319.69	15.62	-45.2	-46.6	19.9	0.00e+00	0	42	0	943718400	61	4360
2026-01-29 05:17:51.40	319.52	15.55	-45.1	-46.6	19.9	0.00e+00	0	42	0	945815552	61	4353
2026-01-29 05:17:52.41	319.35	15.48	-45.1	-46.5	19.9	0.00e+00	0	42	0	947912704	61	4338
2026-01-29 05:17:53.42	319.19	15.40	-44.8	-46.2	20.2	0.00e+00	0	42	0	950009856	61	4152
2026-01-29 05:17:54.42	319.03	15.33	-44.5	-45.8	20.6	0.00e+00	0	42	0	952107008	61	3978
2026-01-29 05:17:55.43	318.86	15.26	-44.6	-45.9	20.5	0.00e+00	0	42	0	954204160	61	4013
2026-01-29 05:17:56.44	318.70	15.19	-44.2	-45.4	20.9	0.00e+00	0	42	0	955252736	60	4031
2026-01-29 05:17:57.45	318.54	15.12	-44.2	-45.4	20.9	0.00e+00	0	42	0	957349888	60	4025
2026-01-29 05:17:58.45	318.38	15.05	-44.3	-45.5	20.9	0.00e+00	0	42	0	959447040	60	4066
2026-01-29 05:17:59.46	318.22	14.98	-44.2	-45.4	20.9	0.00e+00	0	42	0	961544192	60	4025
2026-01-29 05:18:00.47	318.06	14.91	-44.2	-45.4	20.9	0.00e+00	0	42	0	963641344	60	4020
2026-01-29 05:18:01.47	317.90	14.84	-44.3	-45.6	20.8	0.00e+00	0	42	0	964689920	60	4117
2026-01-29 05:18:02.48	317.74	14.77	-44.5	-45.7	20.6	0.00e+00	0	42	0	966787072	60	4188
2026-01-29 05:18:03.48	317.58	14.70	-44.5	-45.8	20.6	0.00e+00	0	42	0	968884224	60	4215
2026-01-29 05:18:04.49	317.43	14.63	-44.8	-46.2	20.2	0.00e+00	0	42	0	970981376	60	4410
2026-01-29 05:18:05.50	317.27	14.56	-45.0	-46.3	20.0	0.00e+00	0	42	0	972029952	60	4486
2026-01-29 05:18:06.50	317.12	14.49	-45.0	-46.4	20.0	0.00e+00	0	42	0	974127104	60	4497
2026-01-29 05:18:07.51	316.96	14.42	-45.0	-46.4	20.0	0.00e+00	0	42	0	976224256	60	4541
2026-01-29 05:18:08.51	316.81	14.35	-45.0	-46.4	20.0	0.00e+00	0	42	0	978321408	60	4542
2026-01-29 05:18:09.52	316.66	14.28	-44.9	-46.2	20.2	0.00e+00	0	42	0	980418560	60	4428
2026-01-29 05:18:10.53	316.50	14.20	-44.8	-46.1	20.3	0.00e+00	0	42	0	982515712	60	4363
2026-01-29 05:18:11.54	316.35	14.13	-44.7	-46.0	20.4	0.00e+00	0	42	0	983564288	60	4324
2026-01-29 05:18:12.55	316.20	14.06	-44.3	-45.5	20.8	0.00e+00	0	42	0	985661440	60	4073
2026-01-29 05:18:13.56	316.05	13.99	-44.4	-45.6	20.7	0.00e+00	0	42	0	987758592	60	4120
2026-01-29 05:18:14.56	315.90	13.92	-44.4	-45.6	20.8	0.00e+00	0	42	0	989855744	60	4139
2026-01-29 05:18:15.57	315.75	13.85	-44.5	-45.8	20.5	0.00e+00	0	42	0	991952896	60	4222
2026-01-29 05:18:16.58	315.61	13.78	-44.7	-46.0	20.4	0.00e+00	0	42	0	993001472	60	4312
2026-01-29 05:18:17.59	315.46	13.71	-44.8	-46.1	20.3	0.00e+00	0	42	0	995098624	60	4361
2026-01-29 05:18:18.60	315.31	13.64	-45.1	-46.5	20.0	0.00e+00	0	42	0	997195776	60	4548
2026-01-29 05:18:19.60	315.17	13.57	-45.1	-46.5	19.8	0.00e+00	0	42	0	999292928	60	4597
2026-01-29 05:18:20.61	315.02	13.50	-45.6	-47.1	19.4	0.00e+00	0	42	0	1000341504	61	4623
2026-01-29 05:18:21.62	314.88	13.43	-45.6	-47.1	19.3	0.00e+00	0	42	0	1002438656	61	4612
2026-01-29 05:18:22.63	314.73	13.36	-45.6	-47.1	19.4	0.00e+00	0	42	0	1004535808	61	4620
2026-01-29 05:18:23.64	314.59	13.28	-45.6	-47.1	19.3	0.00e+00	0	42	0	1006632960	61	4623
2026-01-29 05:18:24.65	314.45	13.21	-45.4	-46.9	19.5	0.00e+00	0	42	0	1008730112	61	4518
2026-01-29 05:18:25.66	314.31	13.14	-45.6	-47.2	19.3	0.00e+00	0	42	0	1010827264	61	4661
2026-01-29 05:18:26.66	314.17	13.07	-45.7	-47.2	19.2	0.00e+00	0	42	0	1011875840	61	4697
2026-01-29 05:18:27.66	314.03	13.00	-45.7	-47.3	19.2	0.00e+00	0	42	0	1013972992	62	4443
2026-01-29 05:18:28.67	313.89	12.93	-45.0	-46.4	20.0	0.00e+00	0	42	0	1016070144	62	4019
2026-01-29 05:18:29.68	313.75	12.86	-44.9	-46.3	20.1	0.00e+00	0	42	0	1018167296	61	4209
2026-01-29 05:18:30.68	313.61	12.79	-44.8	-46.2	20.1	0.00e+00	0	42	0	1020264448	61	4176
2026-01-29 05:18:31.69	313.47	12.72	-44.6	-46.0	20.3	0.00e+00	0	42	0	1021313024	61	4055
2026-01-29 05:18:32.70	313.34	12.65	-44.6	-46.0	20.3	0.00e+00	0	42	0	1023410176	61	4059
2026-01-29 05:18:33.71	313.20	12.58	-44.4	-45.7	20.5	0.00e+00	0	42	0	1025507328	60	4184
2026-01-29 05:18:34.72	313.07	12.51	-44.5	-45.8	20.4	0.00e+00	0	42	0	1027604480	60	4204
2026-01-29 05:18:35.73	312.93	12.44	-44.5	-45.8	20.5	0.00e+00	0	42	0	1029701632	60	4201
2026-01-29 05:18:36.73	312.80	12.37	-44.9	-46.2	20.0	0.00e+00	0	42	0	1030750208	60	4434
2026-01-29 05:18:37.74	312.66	12.30	-45.0	-46.4	19.8	0.00e+00	0	42	0	1032847360	60	4526
2026-01-29 05:18:38.74	312.53	12.23	-45.5	-47.0	19.4	0.00e+00	0	42	0	1034944512	61	4567
2026-01-29 05:18:39.75	312.40	12.16	-45.8	-47.5	19.0	0.00e+00	0	42	0	1037041664	62	4546
2026-01-29 05:18:40.76	312.27	12.09	-46.1	-47.8	18.7	0.00e+00	0	42	0	1039138816	62	4723
2026-01-29 05:18:41.76	312.14	12.02	-46.3	-48.1	18.4	0.00e+00	0	42	0	1040187392	63	4616
2026-01-29 05:18:42.77	312.01	11.95	-46.4	-48.1	18.3	0.00e+00	0	42	0	1042284544	63	4639
2026-01-29 05:18:43.78	311.88	11.88	-46.4	-48.1	18.3	0.00e+00	0	42	0	1044381696	63	4627
2026-01-29 05:18:44.79	311.75	11.81	-46.1	-47.8	18.6	0.00e+00	0	42	0	1046478848	63	4444
2026-01-29 05:18:45.79	311.62	11.74	-46.1	-47.8	18.6	0.00e+00	0	42	0	1048576000	63	4480
2026-01-29 05:18:46.80	311.49	11.67	-46.2	-47.9	18.5	0.00e+00	0	42	0	1049624576	63	4537
2026-01-29 05:18:47.81	311.37	11.60	-45.7	-47.2	19.1	0.00e+00	0	42	0	1051721728	63	4181
2026-01-29 05:18:48.81	311.24	11.53	-45.4	-46.9	19.4	0.00e+00	0	42	0	1053818880	62	4273
2026-01-29 05:18:49.82	311.11	11.46	-45.2	-46.6	19.7	0.00e+00	0	42	0	1055916032	62	4140
2026-01-29 05:18:50.83	310.99	11.39	-45.3	-46.8	19.5	0.00e+00	0	42	0	1058013184	62	4194
2026-01-29 05:18:51.84	310.86	11.33	-45.3	-46.8	19.6	0.00e+00	0	42	0	1059061760	62	4196
2026-01-29 05:18:52.84	310.74	11.26	-45.5	-47.0	19.3	0.00e+00	0	42	0	1061158912	62	4316
2026-01-29 05:18:53.85	310.62	11.19	-45.3	-46.7	19.5	0.00e+00	0	42	0	1063256064	62	4187
2026-01-29 05:18:54.86	310.49	11.12	-45.4	-46.9	19.4	0.00e+00	0	42	0	1065353216	62	4281
2026-01-29 05:18:55.87	310.37	11.05	-45.4	-46.9	19.4	0.00e+00	0	42	0	1067450368	62	4267
2026-01-29 05:18:56.87	310.25	10.98	-45.4	-46.8	19.5	0.00e+00	0	42	0	1068498944	62	4228
2026-01-29 05:18:57.88	310.13	10.91	-45.5	-47.0	19.3	0.00e+00	0	42	0	1070596096	62	4310
2026-01-29 05:18:58.88	310.01	10.84	-45.4	-46.9	19.3	0.00e+00	0	42	0	1072693248	62	4276
2026-01-29 05:18:59.89	309.89	10.77	-45.6	-47.1	19.2	0.00e+00	0	42	0	1074790400	62	4349
2026-01-29 05:19:00.90	309.77	10.70	-45.5	-47.1	19.2	0.00e+00	0	42	0	1076887552	62	4344
2026-01-29 05:19:01.90	309.65	10.64	-45.7	-47.3	19.0	0.00e+00	0	42	0	1077936128	62	4444
2026-01-29 05:19:02.91	309.53	10.57	-45.8	-47.4	18.8	0.00e+00	0	42	0	1080033280	62	4528
2026-01-29 05:19:03.91	309.42	10.50	-45.9	-47.6	18.7	0.00e+00	0	42	0	1082130432	62	4616
2026-01-29 05:19:04.92	309.30	10.43	-46.1	-47.8	18.4	0.00e+00	0	42	0	1084227584	62	4746
2026-01-29 05:19:05.93	309.18	10.36	-46.2	-47.9	18.4	0.00e+00	0	42	0	1086324736	62	4784
2026-01-29 05:19:06.93	309.07	10.30	-46.2	-47.9	18.4	0.00e+00	0	42	0	1087373312	63	4536
2026-01-29 05:19:07.94	308.95	10.23	-46.1	-47.8	18.4	0.00e+00	0	42	0	1089470464	63	4489
2026-01-29 05:19:08.95	308.84	10.16	-46.3	-48.0	18.3	0.00e+00	0	42	0	1091567616	63	4596
2026-01-29 05:19:09.96	308.72	10.09	-46.1	-47.8	18.5	0.00e+00	0	42	0	1093664768	63	4465
2026-01-29 05:19:10.96	308.61	10.02	-46.2	-48.0	18.3	0.00e+00	0	42	0	1095761920	63	4553
2026-01-29 05:19:11.97	308.50	9.95	-46.2	-47.9	18.3	0.00e+00	0	42	0	1096810496	63	4545
2026-01-29 05:19:12.98	308.38	9.89	-46.0	-47.8	18.5	0.00e+00	0	42	0	1098907648	63	4452
2026-01-29 05:19:13.99	308.27	9.82	-46.3	-48.2	18.1	0.00e+00	0	42	0	1101004800	63	4665
2026-01-29 05:19:15.00	308.16	9.75	-46.5	-48.3	17.9	0.00e+00	0	42	0	1103101952	63	4756
2026-01-29 05:19:16.01	308.05	9.68	-46.7	-48.6	17.7	0.00e+00	0	42	0	1105199104	63	4894
2026-01-29 05:19:17.01	307.94	9.62	-46.7	-48.7	17.6	0.00e+00	0	42	0	1106247680	63	4949
2026-01-29 05:19:18.01	307.83	9.55	-46.8	-48.8	17.3	0.00e+00	0	42	0	1108344832	64	4751
2026-01-29 05:19:19.02	307.72	9.48	-46.9	-48.9	17.3	0.00e+00	0	42	0	1110441984	64	4795
2026-01-29 05:19:20.03	307.61	9.41	-46.8	-48.8	17.4	0.00e+00	0	42	0	1112539136	64	4731
2026-01-29 05:19:21.04	307.50	9.35	-46.9	-48.9	17.3	0.00e+00	0	42	0	1114636288	64	4793
2026-01-29 05:19:22.04	307.40	9.28	-46.8	-48.8	17.4	0.00e+00	0	42	0	1115684864	64	4708
2026-01-29 05:19:23.05	307.29	9.21	-46.8	-48.8	17.4	0.00e+00	0	42	0	1117782016	64	4737
2026-01-29 05:19:24.05	307.18	9.15	-46.7	-48.7	17.5	0.00e+00	0	42	0	1119879168	64	4677
2026-01-29 05:19:25.06	307.08	9.08	-46.4	-48.2	17.9	0.00e+00	0	42	0	1121976320	64	4401
2026-01-29 05:19:26.07	306.97	9.01	-46.1	-47.9	18.2	0.00e+00	0	42	0	1124073472	64	4260
2026-01-29 05:19:27.07	306.86	8.95	-45.9	-47.6	18.6	0.00e+00	0	42	0	1125122048	63	4352
2026-01-29 05:19:28.08	306.76	8.88	-46.1	-47.8	18.4	0.00e+00	0	42	0	1127219200	63	4450
2026-01-29 05:19:29.09	306.65	8.81	-45.9	-47.5	18.7	0.00e+00	0	42	0	1129316352	63	4308
2026-01-29 05:19:30.09	306.55	8.75	-45.9	-47.5	18.6	0.00e+00	0	42	0	1131413504	63	4327
2026-01-29 05:19:31.10	306.45	8.68	-46.0	-47.6	18.6	0.00e+00	0	42	0	1133510656	63	4383
2026-01-29 05:19:32.11	306.34	8.61	-46.0	-47.7	18.4	0.00e+00	0	42	0	1134559232	63	4436
2026-01-29 05:19:33.12	306.24	8.55	-46.2	-47.9	18.3	0.00e+00	0	42	0	1136656384	63	4526
2026-01-29 05:19:34.12	306.14	8.48	-46.1	-47.9	18.3	0.00e+00	0	42	0	1138753536	63	4500
2026-01-29 05:19:35.13	306.04	8.42	-46.4	-48.2	18.0	0.00e+00	0	42	0	1140850688	63	4672
2026-01-29 05:19:36.14	305.94	8.35	-46.6	-48.5	17.7	0.00e+00	0	42	0	1142947840	63	4820
2026-01-29 05:19:37.15	305.84	8.28	-46.7	-48.6	17.6	0.00e+00	0	42	0	1143996416	63	4885
2026-01-29 05:19:38.16	305.74	8.22	-46.7	-48.6	17.6	0.00e+00	0	42	0	1146093568	63	4872
2026-01-29 05:19:39.17	305.64	8.15	-46.6	-48.6	17.5	0.00e+00	0	42	0	1148190720	64	4613
2026-01-29 05:19:40.17	305.54	8.09	-46.6	-48.5	17.5	0.00e+00	0	42	0	1150287872	64	4598
2026-01-29 05:19:41.18	305.44	8.02	-46.7	-48.7	17.4	0.00e+00	0	42	0	1152385024	64	4659
2026-01-29 05:19:42.19	305.34	7.95	-46.7	-48.7	17.3	0.00e+00	0	42	0	1153433600	64	4669
2026-01-29 05:19:43.20	305.24	7.89	-46.5	-48.4	17.6	0.00e+00	0	42	0	1155530752	64	4511
2026-01-29 05:19:44.20	305.15	7.82	-46.4	-48.3	17.7	0.00e+00	0	42	0	1157627904	64	4482
2026-01-29 05:19:45.21	305.05	7.76	-46.3	-48.1	18.0	0.00e+00	0	42	0	1159725056	64	4352
2026-01-29 05:19:46.22	304.95	7.69	-46.3	-48.2	17.8	0.00e+00	0	42	0	1161822208	64	4408
2026-01-29 05:19:47.23	304.86	7.63	-46.2	-48.0	18.0	0.00e+00	0	42	0	1162870784	64	4306
2026-01-29 05:19:48.24	304.76	7.56	-46.2	-48.1	17.9	0.00e+00	0	42	0	1164967936	64	4345
2026-01-29 05:19:49.24	304.67	7.50	-46.3	-48.2	17.8	0.00e+00	0	42	0	1167065088	64	4400
2026-01-29 05:19:50.25	304.57	7.43	-46.3	-48.1	17.9	0.00e+00	0	42	0	1169162240	64	4352
2026-01-29 05:19:51.26	304.48	7.37	-46.4	-48.3	17.6	0.00e+00	0	42	0	1171259392	64	4492
2026-01-29 05:19:52.26	304.38	7.31	-46.4	-48.4	17.6	0.00e+00	0	42	0	1172307968	64	4505
2026-01-29 05:19:53.27	304.29	7.24	-46.5	-48.5	17.5	0.00e+00	0	42	0	1174405120	64	4558
2026-01-29 05:19:54.28	304.20	7.18	-46.5	-48.4	17.5	0.00e+00	0	42	0	1176502272	64	4524
2026-01-29 05:19:55.29	304.10	7.11	-46.7	-48.8	17.2	0.00e+00	0	42	0	1178599424	64	4721
2026-01-29 05:19:56.30	304.01	7.05	-46.9	-49.0	17.0	0.00e+00	0	42	0	1180696576	64	4838
2026-01-29 05:19:57.31	303.92	6.98	-46.8	-48.9	17.0	0.00e+00	0	42	0	1181745152	64	4774
2026-01-29 05:19:58.31	303.83	6.92	-47.0	-49.1	16.8	0.00e+00	0	42	0	1183842304	64	4919
2026-01-29 05:19:59.32	303.74	6.86	-47.1	-49.3	16.6	0.00e+00	0	42	0	1185939456	64	5029
2026-01-29 05:20:00.32	303.65	6.79	-47.2	-49.4	16.5	0.00e+00	0	42	0	1188036608	65	4782
2026-01-29 05:20:01.33	303.56	6.73	-47.3	-49.6	16.3	0.00e+00	0	42	0	1190133760	65	4915
2026-01-29 05:20:02.33	303.47	6.67	-47.5	-49.9	16.0	0.00e+00	0	42	0	1191182336	65	5076
2026-01-29 05:20:03.34	303.38	6.60	-47.6	-50.1	15.8	0.00e+00	0	42	0	1193279488	65	5183
2026-01-29 05:20:04.35	303.29	6.54	-47.6	-50.1	15.8	0.00e+00	0	42	0	1195376640	65	5183
2026-01-29 05:20:05.36	303.20	6.47	-47.6	-50.2	15.7	0.00e+00	0	42	0	1197473792	65	5220
2026-01-29 05:20:06.37	303.11	6.41	-47.8	-50.4	15.5	0.00e+00	0	42	0	1199570944	66	5049
2026-01-29 05:20:07.37	303.03	6.35	-47.8	-50.4	15.4	0.00e+00	0	42	0	1200619520	66	5063
2026-01-29 05:20:08.38	302.94	6.28	-47.8	-50.4	15.3	0.00e+00	0	42	0	1202716672	66	5084
2026-01-29 05:20:09.39	302.85	6.22	-47.9	-50.5	15.4	0.00e+00	0	42	0	1204813824	66	5122
2026-01-29 05:20:10.39	302.77	6.16	-48.0	-50.7	15.1	0.00e+00	0	42	0	1206910976	66	5242
2026-01-29 05:20:11.40	302.68	6.10	-47.9	-50.5	15.3	0.00e+00	0	42	0	1209008128	66	5148
2026-01-29 05:20:12.41	302.59	6.03	-47.9	-50.5	15.3	0.00e+00	0	42	0	1210056704	66	5139
2026-01-29 05:20:13.42	302.51	5.97	-47.8	-50.4	15.4	0.00e+00	0	42	0	1212153856	66	5058
2026-01-29 05:20:14.43	302.42	5.91	-47.7	-50.2	15.6	0.00e+00	0	42	0	1214251008	66	4956
2026-01-29 05:20:15.43	302.34	5.85	-47.8	-50.5	15.3	0.00e+00	0	42	0	1216348160	66	5123
2026-01-29 05:20:16.44	302.26	5.78	-47.6	-50.1	15.6	0.00e+00	0	42	0	1218445312	66	4895
2026-01-29 05:20:17.45	302.17	5.72	-47.6	-50.1	15.6	0.00e+00	0	42	0	1219493888	66	4925
2026-01-29 05:20:18.45	302.09	5.66	-47.6	-50.0	15.7	0.00e+00	0	42	0	1221591040	66	4864
2026-01-29 05:20:19.46	302.00	5.60	-47.6	-50.1	15.7	0.00e+00	0	42	0	1223688192	66	4875
2026-01-29 05:20:20.47	301.92	5.53	-47.5	-49.9	15.8	0.00e+00	0	42	0	1225785344	66	4812
