passes_logs/2026/01/29/R3.2S_Murmansk/R3.2S_Murmansk__20260129_002933_NOAA_20_JPSS-1_rec.log

#Pass ID: 20260129_002933_NOAA 20 (JPSS-1)
#Satellite: NOAA 20 (JPSS-1)
#Configuration: NOAA 20
#almurnet v.1.7.20251203
#Start time: 2026-01-29 00:29:35

#Version: 2.2.20231116
#Station: R3.2S_Murmansk
#Location: 33.079688 lon 68.888172 lat
#TLE: 1 43013U 17073A   26027.94683596  .00000137  00000+0  85741-4 0  9995
#TLE: 2 43013  98.7648 328.7503 0000940  21.3928 338.7287 14.19541154424576

#Time	Az	El	Level	Level2	SNR	BER	BlckErr	Temp	State	Recorded	gain1	gain2
2026-01-29 00:29:35.23	23.80	2.09	-53.3	-68.2	3.8	1.49e+00	0	40	0	0	78	19827
2026-01-29 00:29:36.23	23.81	2.15	-51.9	-66.9	3.8	1.49e+00	0	40	104	0	75	20241
2026-01-29 00:29:37.24	23.82	2.22	-51.9	-66.9	3.8	1.49e+00	0	40	104	0	75	20170
2026-01-29 00:29:38.25	23.83	2.28	-51.9	-66.8	3.8	1.49e+00	0	40	104	0	75	20026
2026-01-29 00:29:39.26	23.84	2.35	-51.9	-66.8	3.8	1.49e+00	0	40	104	0	75	20063
2026-01-29 00:29:40.27	23.84	2.41	-51.9	-66.8	3.8	1.49e+00	0	40	104	0	75	19983
2026-01-29 00:29:41.28	23.85	2.48	-51.9	-66.8	3.8	1.49e+00	0	40	104	0	75	19957
2026-01-29 00:29:42.29	23.86	2.54	-51.9	-66.8	3.8	1.49e+00	0	40	104	0	75	19939
2026-01-29 00:29:43.29	23.87	2.61	-51.9	-66.8	3.8	1.49e+00	0	40	104	0	75	19891
2026-01-29 00:29:44.29	23.88	2.67	-51.9	-66.8	3.8	1.49e+00	0	40	104	0	75	19882
2026-01-29 00:29:45.30	23.89	2.74	-51.9	-66.7	3.8	1.49e+00	0	40	104	0	75	19822
2026-01-29 00:29:46.31	23.90	2.80	-51.9	-66.7	3.8	1.49e+00	0	41	104	0	75	19785
2026-01-29 00:29:47.32	23.91	2.87	-51.9	-66.7	3.8	1.49e+00	0	41	104	0	75	19727
2026-01-29 00:29:48.32	23.92	2.94	-51.9	-66.7	3.8	1.49e+00	0	40	104	0	75	19734
2026-01-29 00:29:49.33	23.93	3.00	-51.9	-66.7	3.8	1.49e+00	0	41	104	0	75	19719
2026-01-29 00:29:50.33	23.94	3.07	-51.9	-66.7	3.8	1.49e+00	0	41	104	0	75	19685
2026-01-29 00:29:51.34	23.95	3.14	-51.8	-66.7	3.8	1.49e+00	0	41	104	0	75	19662
2026-01-29 00:29:52.35	23.96	3.20	-51.8	-66.6	3.8	1.49e+00	0	41	104	0	75	19421
2026-01-29 00:29:53.36	23.97	3.27	-51.8	-66.6	3.8	1.49e+00	0	41	104	0	75	19422
2026-01-29 00:29:54.37	23.98	3.34	-51.8	-66.4	3.8	1.49e+00	0	41	104	0	75	19105
2026-01-29 00:29:55.38	23.99	3.41	-51.8	-66.2	3.8	1.49e+00	0	41	104	0	75	18599
2026-01-29 00:29:56.39	24.00	3.47	-51.8	-65.8	3.8	1.49e+00	0	41	104	0	75	17849
2026-01-29 00:29:57.39	24.00	3.54	-51.8	-65.6	3.8	1.49e+00	0	41	104	0	75	17333
2026-01-29 00:29:58.39	24.01	3.61	-51.8	-65.0	3.8	1.49e+00	0	41	104	0	75	16218
2026-01-29 00:29:59.40	24.02	3.68	-51.7	-63.8	4.0	1.49e+00	0	41	104	0	75	14202
2026-01-29 00:30:00.41	24.03	3.74	-51.6	-63.2	4.2	1.38e+00	0	41	0	0	75	13175
2026-01-29 00:30:01.41	24.04	3.81	-51.5	-61.5	4.8	1.08e+00	0	41	0	1048576	75	10859
2026-01-29 00:30:02.42	24.05	3.88	-51.4	-60.5	5.4	6.77e-01	0	41	0	3145728	74	10284
2026-01-29 00:30:03.43	24.06	3.95	-51.2	-59.5	6.1	4.29e-01	0	41	0	4194304	74	9146
2026-01-29 00:30:04.44	24.07	4.02	-51.0	-58.4	7.1	2.14e-01	0	41	0	6291456	74	8049
2026-01-29 00:30:05.45	24.08	4.09	-50.7	-57.0	8.4	8.06e-02	0	41	0	8388608	73	7261
2026-01-29 00:30:06.46	24.09	4.16	-50.4	-56.1	9.4	2.27e-02	0	41	0	10485760	72	6934
2026-01-29 00:30:07.47	24.10	4.23	-50.3	-55.7	9.9	1.31e-02	0	41	0	12582912	72	6595
2026-01-29 00:30:08.48	24.11	4.30	-50.0	-54.7	10.8	5.73e-03	0	41	0	13631488	72	5910
2026-01-29 00:30:09.49	24.12	4.37	-50.0	-54.6	11.1	2.34e-03	0	41	0	15728640	71	6180
2026-01-29 00:30:10.50	24.13	4.44	-49.9	-54.4	11.2	1.32e-03	0	41	0	17825792	71	6053
2026-01-29 00:30:11.50	24.14	4.51	-49.8	-54.1	11.5	6.29e-04	0	41	0	19922944	71	5847
2026-01-29 00:30:12.51	24.15	4.58	-49.8	-54.3	11.4	9.80e-04	0	41	0	22020096	71	5965
2026-01-29 00:30:13.52	24.16	4.65	-49.9	-54.5	11.2	1.43e-03	0	41	0	23068672	71	6069
2026-01-29 00:30:14.53	24.17	4.72	-50.0	-54.8	10.9	1.42e-03	0	41	0	25165824	71	6306
2026-01-29 00:30:15.53	24.18	4.79	-50.2	-55.3	10.4	4.29e-03	0	41	0	27262976	71	6656
2026-01-29 00:30:16.54	24.19	4.86	-50.4	-55.9	9.7	8.91e-03	0	41	0	29360128	71	7153
2026-01-29 00:30:17.54	24.20	4.93	-50.7	-56.9	8.6	2.71e-02	0	41	0	31457280	71	8050
2026-01-29 00:30:18.55	24.21	5.00	-51.0	-58.5	7.0	7.33e-02	0	41	0	32505856	72	9084
2026-01-29 00:30:19.56	24.22	5.07	-49.1	-52.6	12.9	7.14e-02	0	41	0	34603008	70	5206
2026-01-29 00:30:20.57	24.23	5.15	-48.6	-51.6	14.3	0.00e+00	0	41	0	36700160	67	5506
2026-01-29 00:30:21.57	24.24	5.22	-51.4	-60.8	5.8	3.39e-04	0	41	0	38797312	73	11167
2026-01-29 00:30:22.58	24.25	5.29	-50.5	-56.3	8.2	1.49e+00	1	41	104	38797312	73	6692
2026-01-29 00:30:23.59	24.26	5.36	-50.8	-55.4	11.0	1.50e-06	0	41	0	39845888	71	6795
2026-01-29 00:30:24.59	24.27	5.43	-49.6	-53.6	11.9	5.70e-01	0	41	0	41943040	71	5501
2026-01-29 00:30:25.60	24.28	5.51	-48.1	-50.7	15.2	0.00e+00	0	41	0	42991616	68	4695
2026-01-29 00:30:26.61	24.29	5.58	-48.1	-50.8	15.1	0.00e+00	0	41	0	45088768	68	4725
2026-01-29 00:30:27.62	24.30	5.65	-48.1	-50.8	15.1	0.00e+00	0	41	0	47185920	68	4732
2026-01-29 00:30:28.62	24.31	5.73	-47.9	-50.4	15.4	0.00e+00	0	41	0	49283072	67	4781
2026-01-29 00:30:29.63	24.33	5.80	-47.7	-50.2	15.7	0.00e+00	0	41	0	51380224	67	4680
2026-01-29 00:30:30.64	24.34	5.87	-47.7	-50.1	15.8	0.00e+00	0	41	0	53477376	67	4628
2026-01-29 00:30:31.64	24.35	5.95	-47.5	-49.8	16.2	0.00e+00	0	41	0	54525952	66	4724
2026-01-29 00:30:32.65	24.36	6.02	-47.4	-49.7	16.2	0.00e+00	0	41	0	56623104	66	4691
2026-01-29 00:30:33.66	24.37	6.10	-47.5	-49.9	16.1	0.00e+00	0	41	0	58720256	66	4772
2026-01-29 00:30:34.67	24.38	6.17	-47.4	-49.6	16.3	0.00e+00	0	42	0	60817408	66	4646
2026-01-29 00:30:35.68	24.39	6.25	-47.1	-49.3	16.7	0.00e+00	0	41	0	61865984	66	4473
2026-01-29 00:30:36.68	24.40	6.32	-47.4	-49.6	16.4	0.00e+00	0	41	0	63963136	66	4632
2026-01-29 00:30:37.69	24.41	6.40	-47.4	-49.6	16.4	0.00e+00	0	41	0	66060288	66	4650
2026-01-29 00:30:38.70	24.42	6.47	-47.5	-49.8	16.2	0.00e+00	0	41	0	68157440	66	4730
2026-01-29 00:30:39.71	24.43	6.55	-47.6	-49.9	16.1	0.00e+00	0	41	0	70254592	66	4805
2026-01-29 00:30:40.71	24.44	6.62	-47.4	-49.7	16.4	0.00e+00	0	41	0	71303168	66	4654
2026-01-29 00:30:41.72	24.45	6.70	-47.2	-49.4	16.7	0.00e+00	0	42	0	73400320	66	4524
2026-01-29 00:30:42.73	24.46	6.78	-47.2	-49.3	16.8	0.00e+00	0	41	0	75497472	66	4472
2026-01-29 00:30:43.74	24.47	6.85	-47.2	-49.3	16.8	0.00e+00	0	41	0	77594624	66	4483
2026-01-29 00:30:44.74	24.49	6.93	-47.2	-49.3	16.8	0.00e+00	0	42	0	79691776	66	4451
2026-01-29 00:30:45.75	24.50	7.01	-47.1	-49.2	16.9	0.00e+00	0	42	0	81788928	66	4397
2026-01-29 00:30:46.76	24.51	7.08	-47.0	-49.1	17.0	0.00e+00	0	41	0	82837504	66	4361
2026-01-29 00:30:47.77	24.52	7.16	-47.1	-49.2	16.9	0.00e+00	0	42	0	84934656	66	4426
2026-01-29 00:30:48.77	24.53	7.24	-47.0	-49.0	17.1	0.00e+00	0	41	0	87031808	65	4566
2026-01-29 00:30:49.78	24.54	7.32	-47.1	-49.1	17.0	0.00e+00	0	42	0	89128960	65	4632
2026-01-29 00:30:50.79	24.55	7.40	-46.9	-49.0	17.2	0.00e+00	0	42	0	90177536	65	4552
2026-01-29 00:30:51.80	24.56	7.47	-47.1	-49.2	17.0	0.00e+00	0	42	0	92274688	65	4673
2026-01-29 00:30:52.81	24.57	7.55	-47.1	-49.2	17.0	0.00e+00	0	41	0	94371840	65	4658
2026-01-29 00:30:53.81	24.59	7.63	-47.2	-49.3	16.8	0.00e+00	0	41	0	96468992	65	4735
2026-01-29 00:30:54.82	24.60	7.71	-47.3	-49.4	16.7	0.00e+00	0	42	0	98566144	65	4813
2026-01-29 00:30:55.83	24.61	7.79	-47.0	-49.1	17.1	0.00e+00	0	42	0	99614720	65	4614
2026-01-29 00:30:56.84	24.62	7.87	-47.1	-49.1	17.1	0.00e+00	0	42	0	101711872	65	4617
2026-01-29 00:30:57.84	24.63	7.95	-47.2	-49.3	17.0	0.00e+00	0	42	0	103809024	65	4712
2026-01-29 00:30:58.85	24.64	8.03	-46.9	-48.9	17.3	0.00e+00	0	42	0	105906176	65	4523
2026-01-29 00:30:59.86	24.65	8.11	-46.8	-48.7	17.5	0.00e+00	0	42	0	108003328	65	4410
2026-01-29 00:31:00.87	24.67	8.19	-46.7	-48.6	17.6	0.00e+00	0	42	0	110100480	65	4384
2026-01-29 00:31:01.88	24.68	8.27	-46.7	-48.6	17.6	0.00e+00	0	42	0	111149056	65	4381
2026-01-29 00:31:02.89	24.69	8.36	-46.7	-48.6	17.6	0.00e+00	0	42	0	113246208	65	4369
2026-01-29 00:31:03.89	24.70	8.44	-46.8	-48.7	17.5	0.00e+00	0	42	0	115343360	65	4424
2026-01-29 00:31:04.90	24.71	8.52	-46.8	-48.8	17.5	0.00e+00	0	42	0	117440512	65	4442
2026-01-29 00:31:05.91	24.72	8.60	-46.7	-48.6	17.6	0.00e+00	0	42	0	118489088	65	4363
2026-01-29 00:31:06.92	24.74	8.68	-46.7	-48.5	17.7	0.00e+00	0	42	0	120586240	65	4323
2026-01-29 00:31:07.92	24.75	8.76	-46.6	-48.4	17.8	0.00e+00	0	42	0	122683392	65	4289
2026-01-29 00:31:08.93	24.76	8.85	-46.6	-48.4	17.9	0.00e+00	0	42	0	124780544	65	4281
2026-01-29 00:31:09.94	24.77	8.93	-46.6	-48.4	17.9	0.00e+00	0	42	0	126877696	65	4261
2026-01-29 00:31:10.95	24.78	9.02	-46.5	-48.3	18.0	0.00e+00	0	42	0	128974848	64	4450
2026-01-29 00:31:11.96	24.79	9.10	-46.5	-48.3	18.0	0.00e+00	0	42	0	130023424	64	4460
2026-01-29 00:31:12.97	24.81	9.18	-46.5	-48.3	18.0	0.00e+00	0	42	0	132120576	64	4489
2026-01-29 00:31:13.97	24.82	9.27	-46.4	-48.2	18.1	0.00e+00	0	42	0	134217728	64	4408
2026-01-29 00:31:14.98	24.83	9.35	-46.5	-48.2	18.1	0.00e+00	0	42	0	136314880	64	4435
2026-01-29 00:31:15.99	24.84	9.44	-46.5	-48.2	18.1	0.00e+00	0	42	0	138412032	64	4438
2026-01-29 00:31:17.00	24.86	9.52	-46.4	-48.2	18.1	0.00e+00	0	42	0	139460608	64	4408
2026-01-29 00:31:18.01	24.87	9.61	-46.4	-48.2	18.2	0.00e+00	0	41	0	141557760	64	4396
2026-01-29 00:31:19.02	24.88	9.69	-46.2	-47.9	18.4	0.00e+00	0	42	0	143654912	64	4283
2026-01-29 00:31:20.02	24.89	9.78	-46.3	-48.0	18.4	0.00e+00	0	42	0	145752064	64	4292
2026-01-29 00:31:21.03	24.90	9.87	-46.3	-48.0	18.4	0.00e+00	0	42	0	147849216	64	4294
2026-01-29 00:31:22.04	24.92	9.95	-46.2	-47.9	18.5	0.00e+00	0	42	0	148897792	64	4253
2026-01-29 00:31:23.05	24.93	10.04	-46.2	-47.9	18.5	0.00e+00	0	42	0	150994944	64	4251
2026-01-29 00:31:24.05	24.94	10.13	-46.2	-47.9	18.4	0.00e+00	0	42	0	153092096	64	4287
2026-01-29 00:31:25.06	24.95	10.21	-46.2	-47.9	18.4	0.00e+00	0	42	0	155189248	64	4284
2026-01-29 00:31:26.07	24.97	10.30	-46.1	-47.7	18.7	0.00e+00	0	42	0	157286400	64	4182
2026-01-29 00:31:27.08	24.98	10.39	-46.1	-47.7	18.7	0.00e+00	0	42	0	158334976	64	4183
2026-01-29 00:31:28.09	24.99	10.48	-46.1	-47.7	18.7	0.00e+00	0	42	0	160432128	64	4162
2026-01-29 00:31:29.09	25.00	10.57	-46.1	-47.7	18.7	0.00e+00	0	42	0	162529280	64	4161
2026-01-29 00:31:30.10	25.02	10.66	-46.1	-47.7	18.7	0.00e+00	0	42	0	164626432	64	4179
2026-01-29 00:31:31.11	25.03	10.75	-46.0	-47.6	18.8	0.00e+00	0	42	0	166723584	64	4143
2026-01-29 00:31:32.12	25.04	10.84	-46.0	-47.6	18.9	0.00e+00	0	42	0	167772160	63	4371
2026-01-29 00:31:33.13	25.06	10.93	-46.1	-47.7	18.8	0.00e+00	0	42	0	169869312	63	4405
2026-01-29 00:31:34.13	25.07	11.02	-46.2	-47.8	18.7	0.00e+00	0	42	0	171966464	63	4476
2026-01-29 00:31:35.14	25.08	11.11	-46.2	-47.8	18.8	0.00e+00	0	42	0	174063616	63	4470
2026-01-29 00:31:36.14	25.10	11.20	-46.0	-47.6	18.9	0.00e+00	0	42	0	176160768	63	4376
2026-01-29 00:31:37.15	25.11	11.29	-46.0	-47.6	19.0	0.00e+00	0	42	0	177209344	63	4341
2026-01-29 00:31:38.16	25.12	11.38	-46.0	-47.6	19.0	0.00e+00	0	42	0	179306496	63	4342
2026-01-29 00:31:39.17	25.14	11.47	-45.9	-47.5	19.1	0.00e+00	0	42	0	181403648	63	4301
2026-01-29 00:31:40.18	25.15	11.57	-46.0	-47.6	19.0	0.00e+00	0	42	0	183500800	63	4355
2026-01-29 00:31:41.18	25.16	11.66	-46.0	-47.6	18.9	0.00e+00	0	42	0	185597952	63	4374
2026-01-29 00:31:42.19	25.18	11.75	-45.8	-47.3	19.2	0.00e+00	0	42	0	186646528	63	4234
2026-01-29 00:31:43.20	25.19	11.85	-45.8	-47.3	19.2	0.00e+00	0	42	0	188743680	63	4236
2026-01-29 00:31:44.21	25.20	11.94	-45.8	-47.3	19.3	0.00e+00	0	42	0	190840832	63	4217
2026-01-29 00:31:45.22	25.22	12.04	-45.8	-47.3	19.2	0.00e+00	0	42	0	192937984	63	4230
2026-01-29 00:31:46.23	25.23	12.13	-45.9	-47.4	19.2	0.00e+00	0	42	0	195035136	63	4254
2026-01-29 00:31:47.23	25.24	12.22	-45.8	-47.3	19.3	0.00e+00	0	42	0	196083712	63	4215
2026-01-29 00:31:48.24	25.26	12.32	-45.8	-47.3	19.3	0.00e+00	0	42	0	198180864	63	4224
2026-01-29 00:31:49.25	25.27	12.42	-45.8	-47.3	19.3	0.00e+00	0	42	0	200278016	63	4195
2026-01-29 00:31:50.26	25.28	12.51	-45.7	-47.2	19.4	0.00e+00	0	42	0	202375168	63	4176
2026-01-29 00:31:51.27	25.30	12.61	-45.8	-47.3	19.3	0.00e+00	0	42	0	204472320	63	4198
2026-01-29 00:31:52.28	25.31	12.71	-45.7	-47.2	19.4	0.00e+00	0	42	0	205520896	63	4166
2026-01-29 00:31:53.29	25.33	12.80	-45.7	-47.2	19.4	0.00e+00	0	42	0	207618048	63	4173
2026-01-29 00:31:54.29	25.34	12.90	-45.7	-47.2	19.4	0.00e+00	0	42	0	209715200	63	4175
2026-01-29 00:31:55.31	25.36	13.00	-45.8	-47.2	19.4	0.00e+00	0	42	0	211812352	63	4193
2026-01-29 00:31:56.31	25.37	13.10	-45.7	-47.2	19.4	0.00e+00	0	42	0	213909504	63	4182
2026-01-29 00:31:57.32	25.38	13.20	-45.7	-47.2	19.4	0.00e+00	0	42	0	214958080	63	4164
2026-01-29 00:31:58.33	25.40	13.30	-45.7	-47.1	19.5	0.00e+00	0	42	0	217055232	63	4138
2026-01-29 00:31:59.34	25.41	13.40	-45.7	-47.1	19.5	0.00e+00	0	42	0	219152384	63	4127
2026-01-29 00:32:00.35	25.43	13.50	-45.7	-47.1	19.5	0.00e+00	0	42	0	221249536	63	4135
2026-01-29 00:32:01.36	25.44	13.60	-45.6	-47.1	19.6	0.00e+00	0	42	0	223346688	63	4101
2026-01-29 00:32:02.36	25.46	13.70	-45.7	-47.1	19.5	0.00e+00	0	42	0	225443840	63	4131
2026-01-29 00:32:03.37	25.47	13.80	-45.6	-47.0	19.7	0.00e+00	0	42	0	226492416	63	4082
2026-01-29 00:32:04.38	25.49	13.90	-45.6	-47.1	19.6	0.00e+00	0	42	0	228589568	63	4120
2026-01-29 00:32:05.39	25.50	14.00	-45.7	-47.2	19.5	0.00e+00	0	42	0	230686720	63	4150
2026-01-29 00:32:06.39	25.52	14.11	-45.7	-47.1	19.6	0.00e+00	0	42	0	232783872	63	4124
2026-01-29 00:32:07.40	25.53	14.21	-45.7	-47.2	19.5	0.00e+00	0	42	0	233832448	63	4153
2026-01-29 00:32:08.41	25.55	14.31	-45.6	-47.0	19.7	0.00e+00	0	42	0	235929600	63	4072
2026-01-29 00:32:09.42	25.56	14.42	-45.6	-47.1	19.6	0.00e+00	0	42	0	238026752	63	4100
2026-01-29 00:32:10.43	25.58	14.52	-45.6	-47.1	19.6	0.00e+00	0	42	0	240123904	63	4101
2026-01-29 00:32:11.44	25.59	14.63	-45.6	-47.1	19.6	0.00e+00	0	42	0	242221056	63	4113
2026-01-29 00:32:12.44	25.61	14.73	-45.6	-47.1	19.6	0.00e+00	0	42	0	244318208	63	4116
2026-01-29 00:32:13.45	25.62	14.84	-45.6	-47.1	19.6	0.00e+00	0	42	0	245366784	63	4106
2026-01-29 00:32:14.46	25.64	14.94	-45.6	-47.1	19.6	0.00e+00	0	42	0	247463936	63	4111
2026-01-29 00:32:15.47	25.66	15.05	-45.7	-47.1	19.6	0.00e+00	0	42	0	249561088	63	4143
2026-01-29 00:32:16.48	25.67	15.16	-45.6	-47.1	19.7	0.00e+00	0	42	0	251658240	63	4099
2026-01-29 00:32:17.49	25.69	15.27	-45.6	-47.0	19.7	0.00e+00	0	42	0	253755392	63	4097
2026-01-29 00:32:18.49	25.70	15.37	-45.6	-47.0	19.7	0.00e+00	0	42	0	254803968	63	4074
2026-01-29 00:32:19.50	25.72	15.48	-45.6	-47.1	19.7	0.00e+00	0	42	0	256901120	63	4104
2026-01-29 00:32:20.51	25.73	15.59	-45.6	-47.1	19.7	0.00e+00	0	42	0	258998272	63	4102
2026-01-29 00:32:21.52	25.75	15.70	-45.6	-47.1	19.7	0.00e+00	0	42	0	261095424	63	4105
2026-01-29 00:32:22.53	25.77	15.81	-45.8	-47.2	19.5	0.00e+00	0	42	0	262144000	63	4192
2026-01-29 00:32:23.53	25.78	15.92	-45.6	-47.0	19.7	0.00e+00	0	42	0	264241152	63	4086
2026-01-29 00:32:24.54	25.80	16.03	-45.5	-46.9	19.8	0.00e+00	0	42	0	266338304	63	4045
2026-01-29 00:32:25.55	25.82	16.14	-45.5	-47.0	19.8	0.00e+00	0	42	0	268435456	63	4054
2026-01-29 00:32:26.55	25.83	16.26	-45.6	-47.0	19.7	0.00e+00	0	42	0	270532608	63	4088
2026-01-29 00:32:27.56	25.85	16.37	-45.6	-47.0	19.8	0.00e+00	0	42	0	272629760	63	4067
2026-01-29 00:32:28.57	25.87	16.48	-45.6	-47.0	19.8	0.00e+00	0	42	0	273678336	63	4079
2026-01-29 00:32:29.57	25.88	16.59	-45.6	-47.0	19.8	0.00e+00	0	42	0	275775488	63	4065
2026-01-29 00:32:30.58	25.90	16.71	-45.5	-46.9	19.9	0.00e+00	0	42	0	277872640	63	4009
2026-01-29 00:32:31.59	25.92	16.82	-45.5	-46.9	19.8	0.00e+00	0	42	0	279969792	62	4284
2026-01-29 00:32:32.60	25.93	16.94	-45.5	-46.9	19.8	0.00e+00	0	42	0	282066944	62	4285
2026-01-29 00:32:33.60	25.95	17.05	-45.6	-47.0	19.8	0.00e+00	0	42	0	283115520	62	4325
2026-01-29 00:32:34.61	25.97	17.17	-45.6	-47.0	19.8	0.00e+00	0	42	0	285212672	62	4307
2026-01-29 00:32:35.62	25.99	17.29	-45.6	-47.0	19.8	0.00e+00	0	42	0	287309824	62	4302
2026-01-29 00:32:36.63	26.00	17.41	-45.6	-47.0	19.8	0.00e+00	0	42	0	289406976	62	4311
2026-01-29 00:32:37.64	26.02	17.52	-45.6	-47.0	19.8	0.00e+00	0	42	0	291504128	62	4322
2026-01-29 00:32:38.64	26.04	17.64	-45.7	-47.1	19.8	0.00e+00	0	42	0	292552704	62	4353
2026-01-29 00:32:39.65	26.06	17.76	-45.6	-47.0	19.8	0.00e+00	0	42	0	294649856	62	4328
2026-01-29 00:32:40.66	26.08	17.88	-45.6	-47.0	19.8	0.00e+00	0	42	0	296747008	62	4339
2026-01-29 00:32:41.67	26.09	18.00	-45.7	-47.1	19.8	0.00e+00	0	42	0	298844160	62	4347
2026-01-29 00:32:42.67	26.11	18.12	-45.7	-47.1	19.7	0.00e+00	0	42	0	300941312	62	4391
2026-01-29 00:32:43.68	26.13	18.24	-45.6	-47.0	19.8	0.00e+00	0	42	0	301989888	62	4321
2026-01-29 00:32:44.69	26.15	18.37	-45.7	-47.1	19.7	0.00e+00	0	42	0	304087040	62	4391
2026-01-29 00:32:45.69	26.17	18.49	-45.7	-47.1	19.7	0.00e+00	0	42	0	306184192	62	4388
2026-01-29 00:32:46.70	26.19	18.61	-45.7	-47.1	19.8	0.00e+00	0	42	0	308281344	62	4346
2026-01-29 00:32:47.71	26.21	18.74	-45.7	-47.2	19.7	0.00e+00	0	42	0	310378496	62	4402
2026-01-29 00:32:48.72	26.22	18.86	-45.8	-47.2	19.6	0.00e+00	0	42	0	311427072	62	4438
2026-01-29 00:32:49.73	26.24	18.99	-45.7	-47.1	19.7	0.00e+00	0	42	0	313524224	62	4388
2026-01-29 00:32:50.74	26.26	19.11	-45.7	-47.1	19.7	0.00e+00	0	42	0	315621376	62	4386
2026-01-29 00:32:51.75	26.28	19.24	-45.8	-47.2	19.7	0.00e+00	0	42	0	317718528	62	4433
2026-01-29 00:32:52.76	26.30	19.37	-45.8	-47.3	19.6	0.00e+00	0	42	0	319815680	62	4451
2026-01-29 00:32:53.77	26.32	19.50	-45.8	-47.2	19.7	0.00e+00	0	42	0	320864256	62	4430
2026-01-29 00:32:54.77	26.34	19.62	-45.8	-47.2	19.7	0.00e+00	0	42	0	322961408	62	4425
2026-01-29 00:32:55.78	26.36	19.75	-45.8	-47.3	19.6	0.00e+00	0	42	0	325058560	62	4454
2026-01-29 00:32:56.79	26.38	19.88	-45.9	-47.4	19.6	0.00e+00	0	42	0	327155712	62	4494
2026-01-29 00:32:57.79	26.40	20.01	-45.9	-47.4	19.5	0.00e+00	0	42	0	329252864	62	4505
2026-01-29 00:32:58.80	26.42	20.14	-45.9	-47.3	19.6	0.00e+00	0	42	0	330301440	62	4481
2026-01-29 00:32:59.80	26.44	20.27	-45.9	-47.4	19.6	0.00e+00	0	42	0	332398592	62	4494
2026-01-29 00:33:00.81	26.46	20.41	-46.0	-47.5	19.4	0.00e+00	0	42	0	334495744	62	4572
2026-01-29 00:33:01.82	26.48	20.54	-46.0	-47.5	19.5	0.00e+00	0	42	0	336592896	62	4555
2026-01-29 00:33:02.82	26.50	20.67	-45.9	-47.4	19.5	0.00e+00	0	42	0	338690048	62	4517
2026-01-29 00:33:03.83	26.52	20.81	-46.0	-47.5	19.5	0.00e+00	0	42	0	339738624	62	4566
2026-01-29 00:33:04.83	26.54	20.94	-46.0	-47.5	19.5	0.00e+00	0	42	0	341835776	62	4571
2026-01-29 00:33:05.84	26.57	21.08	-46.0	-47.5	19.5	0.00e+00	0	42	0	343932928	62	4555
2026-01-29 00:33:06.85	26.59	21.22	-46.2	-47.7	19.3	0.00e+00	0	42	0	346030080	62	4668
2026-01-29 00:33:07.86	26.61	21.35	-46.1	-47.6	19.3	0.00e+00	0	42	0	348127232	62	4631
2026-01-29 00:33:08.87	26.63	21.49	-46.1	-47.6	19.4	0.00e+00	0	42	0	349175808	62	4633
2026-01-29 00:33:09.88	26.65	21.63	-46.1	-47.6	19.4	0.00e+00	0	42	0	351272960	62	4603
2026-01-29 00:33:10.88	26.67	21.77	-46.1	-47.6	19.4	0.00e+00	0	42	0	353370112	62	4617
2026-01-29 00:33:11.89	26.70	21.91	-46.1	-47.6	19.4	0.00e+00	0	42	0	355467264	62	4637
2026-01-29 00:33:12.89	26.72	22.05	-46.1	-47.6	19.4	0.00e+00	0	42	0	357564416	62	4621
2026-01-29 00:33:13.90	26.74	22.20	-46.1	-47.6	19.4	0.00e+00	0	42	0	358612992	62	4620
2026-01-29 00:33:14.91	26.76	22.34	-46.1	-47.6	19.4	0.00e+00	0	42	0	360710144	62	4613
2026-01-29 00:33:15.92	26.79	22.48	-46.3	-47.8	19.2	0.00e+00	0	42	0	362807296	63	4471
2026-01-29 00:33:16.93	26.81	22.63	-46.3	-47.8	19.2	0.00e+00	0	42	0	364904448	63	4485
2026-01-29 00:33:17.94	26.83	22.77	-46.2	-47.7	19.4	0.00e+00	0	42	0	367001600	63	4409
2026-01-29 00:33:18.95	26.86	22.92	-46.1	-47.6	19.4	0.00e+00	0	42	0	368050176	63	4376
2026-01-29 00:33:19.96	26.88	23.07	-46.1	-47.5	19.5	0.00e+00	0	42	0	370147328	63	4331
2026-01-29 00:33:20.97	26.90	23.22	-46.1	-47.6	19.4	0.00e+00	0	42	0	372244480	63	4382
2026-01-29 00:33:21.97	26.93	23.36	-46.1	-47.6	19.5	0.00e+00	0	42	0	374341632	63	4356
2026-01-29 00:33:22.98	26.95	23.51	-46.1	-47.6	19.5	0.00e+00	0	42	0	376438784	63	4372
2026-01-29 00:33:23.99	26.98	23.67	-46.2	-47.6	19.4	0.00e+00	0	42	0	377487360	63	4391
2026-01-29 00:33:25.00	27.00	23.82	-46.1	-47.6	19.5	0.00e+00	0	42	0	379584512	63	4358
2026-01-29 00:33:26.00	27.02	23.97	-46.2	-47.7	19.4	0.00e+00	0	42	0	381681664	63	4407
2026-01-29 00:33:27.01	27.05	24.12	-46.1	-47.6	19.5	0.00e+00	0	42	0	383778816	63	4344
2026-01-29 00:33:28.02	27.07	24.28	-46.1	-47.6	19.5	0.00e+00	0	42	0	385875968	63	4352
2026-01-29 00:33:29.03	27.10	24.43	-46.2	-47.7	19.4	0.00e+00	0	42	0	386924544	63	4410
2026-01-29 00:33:30.04	27.12	24.59	-46.2	-47.7	19.3	0.00e+00	0	42	0	389021696	63	4393
2026-01-29 00:33:31.05	27.15	24.75	-46.4	-47.9	19.2	0.00e+00	0	42	0	391118848	63	4518
2026-01-29 00:33:32.05	27.18	24.90	-46.4	-48.0	19.1	0.00e+00	0	42	0	393216000	63	4556
2026-01-29 00:33:33.06	27.20	25.06	-46.4	-48.0	19.1	0.00e+00	0	42	0	395313152	63	4550
2026-01-29 00:33:34.07	27.23	25.22	-46.3	-47.8	19.3	0.00e+00	0	42	0	396361728	63	4484
2026-01-29 00:33:35.07	27.26	25.38	-46.3	-47.9	19.3	0.00e+00	0	42	0	398458880	63	4502
2026-01-29 00:33:36.08	27.28	25.54	-46.1	-47.6	19.5	0.00e+00	0	42	0	400556032	63	4374
2026-01-29 00:33:37.08	27.31	25.71	-46.0	-47.5	19.6	0.00e+00	0	42	0	402653184	63	4308
2026-01-29 00:33:38.09	27.34	25.87	-46.1	-47.6	19.5	0.00e+00	0	42	0	404750336	63	4359
2026-01-29 00:33:39.10	27.36	26.03	-46.2	-47.7	19.4	0.00e+00	0	42	0	405798912	63	4415
2026-01-29 00:33:40.11	27.39	26.20	-46.0	-47.5	19.6	0.00e+00	0	42	0	407896064	63	4315
2026-01-29 00:33:41.12	27.42	26.37	-46.1	-47.6	19.6	0.00e+00	0	42	0	409993216	63	4351
2026-01-29 00:33:42.13	27.45	26.54	-46.1	-47.6	19.6	0.00e+00	0	42	0	412090368	63	4342
2026-01-29 00:33:43.13	27.48	26.70	-46.0	-47.4	19.7	0.00e+00	0	42	0	414187520	63	4266
2026-01-29 00:33:44.14	27.50	26.87	-46.0	-47.4	19.7	0.00e+00	0	42	0	416284672	63	4274
2026-01-29 00:33:45.15	27.53	27.04	-45.9	-47.3	19.8	0.00e+00	0	42	0	417333248	63	4242
2026-01-29 00:33:46.15	27.56	27.22	-46.0	-47.5	19.6	0.00e+00	0	42	0	419430400	63	4299
2026-01-29 00:33:47.16	27.59	27.39	-46.0	-47.5	19.6	0.00e+00	0	42	0	421527552	63	4301
2026-01-29 00:33:48.17	27.62	27.56	-46.0	-47.5	19.7	0.00e+00	0	42	0	423624704	63	4295
2026-01-29 00:33:49.18	27.65	27.74	-46.2	-47.7	19.5	0.00e+00	0	42	0	424673280	63	4394
2026-01-29 00:33:50.19	27.68	27.92	-46.2	-47.7	19.4	0.00e+00	0	42	0	426770432	63	4428
2026-01-29 00:33:51.20	27.71	28.09	-46.3	-47.8	19.4	0.00e+00	0	42	0	428867584	63	4452
2026-01-29 00:33:52.21	27.74	28.27	-46.4	-47.9	19.2	0.00e+00	0	42	0	430964736	63	4538
2026-01-29 00:33:53.21	27.78	28.45	-46.5	-48.1	19.1	0.00e+00	0	42	0	433061888	63	4619
2026-01-29 00:33:54.22	27.81	28.63	-46.7	-48.3	18.9	0.00e+00	0	42	0	434110464	63	4720
2026-01-29 00:33:55.23	27.84	28.82	-46.8	-48.4	18.7	0.00e+00	0	42	0	436207616	64	4522
2026-01-29 00:33:56.23	27.87	29.00	-46.9	-48.6	18.5	0.00e+00	0	42	0	438304768	64	4608
2026-01-29 00:33:57.24	27.90	29.18	-47.0	-48.7	18.4	0.00e+00	0	42	0	440401920	64	4694
2026-01-29 00:33:58.25	27.94	29.37	-46.9	-48.6	18.4	0.00e+00	0	42	0	442499072	64	4641
2026-01-29 00:33:59.26	27.97	29.56	-47.1	-48.8	18.3	0.00e+00	0	42	0	444596224	64	4723
2026-01-29 00:34:00.27	28.00	29.75	-47.0	-48.7	18.4	0.00e+00	0	42	0	445644800	64	4688
2026-01-29 00:34:01.28	28.04	29.94	-47.1	-48.8	18.3	0.00e+00	0	42	0	447741952	64	4744
2026-01-29 00:34:02.29	28.07	30.13	-47.1	-48.9	18.3	0.00e+00	0	42	0	449839104	64	4778
2026-01-29 00:34:03.29	28.11	30.32	-47.2	-48.9	18.2	0.00e+00	0	42	0	451936256	64	4790
2026-01-29 00:34:04.30	28.14	30.51	-47.4	-49.2	17.9	0.00e+00	0	42	0	452984832	65	4690
2026-01-29 00:34:05.31	28.18	30.71	-47.3	-49.1	18.0	0.00e+00	0	42	0	455081984	65	4639
2026-01-29 00:34:06.32	28.21	30.90	-47.4	-49.2	17.9	0.00e+00	0	42	0	457179136	65	4705
2026-01-29 00:34:07.33	28.25	31.10	-47.5	-49.4	17.8	0.00e+00	0	42	0	459276288	65	4772
2026-01-29 00:34:08.33	28.28	31.30	-47.6	-49.4	17.8	0.00e+00	0	42	0	461373440	65	4789
2026-01-29 00:34:09.34	28.32	31.50	-47.7	-49.6	17.7	0.00e+00	0	42	0	463470592	65	4872
2026-01-29 00:34:10.35	28.36	31.70	-47.8	-49.7	17.5	0.00e+00	0	42	0	464519168	66	4696
2026-01-29 00:34:11.36	28.40	31.90	-47.9	-49.9	17.3	0.00e+00	0	42	0	466616320	66	4792
2026-01-29 00:34:12.37	28.43	32.11	-48.0	-50.0	17.3	0.00e+00	0	42	0	468713472	66	4830
2026-01-29 00:34:13.38	28.47	32.31	-48.0	-49.9	17.3	0.00e+00	0	42	0	470810624	66	4811
2026-01-29 00:34:14.39	28.51	32.52	-47.8	-49.7	17.5	0.00e+00	0	42	0	472907776	66	4674
2026-01-29 00:34:15.40	28.55	32.73	-47.7	-49.7	17.6	0.00e+00	0	42	0	473956352	66	4658
2026-01-29 00:34:16.40	28.59	32.94	-47.6	-49.4	17.8	0.00e+00	0	42	0	476053504	66	4523
2026-01-29 00:34:17.41	28.63	33.15	-47.4	-49.2	18.0	0.00e+00	0	42	0	478150656	66	4426
2026-01-29 00:34:18.42	28.67	33.36	-47.2	-48.9	18.3	0.00e+00	0	42	0	480247808	66	4289
2026-01-29 00:34:19.43	28.71	33.58	-47.1	-48.8	18.4	0.00e+00	0	42	0	481296384	66	4214
2026-01-29 00:34:20.44	28.75	33.79	-47.0	-48.6	18.6	0.00e+00	0	42	0	483393536	65	4373
2026-01-29 00:34:21.45	28.80	34.01	-46.5	-48.0	19.2	0.00e+00	0	42	0	485490688	65	4074
2026-01-29 00:34:22.46	28.84	34.23	-46.5	-48.0	19.2	0.00e+00	0	42	0	487587840	64	4304
2026-01-29 00:34:23.46	28.88	34.45	-46.1	-47.6	19.6	0.00e+00	0	42	0	489684992	64	4104
2026-01-29 00:34:24.47	28.93	34.67	-45.9	-47.3	19.9	0.00e+00	0	42	0	491782144	63	4235
2026-01-29 00:34:25.48	28.97	34.90	-45.7	-47.1	20.2	0.00e+00	0	42	0	492830720	63	4118
2026-01-29 00:34:26.49	29.02	35.12	-45.8	-47.2	20.1	0.00e+00	0	42	0	494927872	63	4172
2026-01-29 00:34:27.50	29.06	35.35	-45.8	-47.1	20.1	0.00e+00	0	42	0	497025024	63	4128
2026-01-29 00:34:28.51	29.11	35.58	-45.6	-47.0	20.3	0.00e+00	0	42	0	499122176	63	4056
2026-01-29 00:34:29.52	29.16	35.81	-45.4	-46.7	20.5	0.00e+00	0	42	0	501219328	62	4186
2026-01-29 00:34:30.52	29.20	36.04	-45.4	-46.7	20.5	0.00e+00	0	42	0	502267904	62	4185
2026-01-29 00:34:31.52	29.25	36.27	-45.3	-46.6	20.7	0.00e+00	0	42	0	504365056	62	4130
2026-01-29 00:34:32.53	29.30	36.50	-45.4	-46.7	20.6	0.00e+00	0	42	0	506462208	62	4158
2026-01-29 00:34:33.54	29.35	36.74	-45.4	-46.7	20.6	0.00e+00	0	42	0	508559360	62	4159
2026-01-29 00:34:34.55	29.40	36.98	-45.5	-46.8	20.5	0.00e+00	0	42	0	510656512	62	4211
2026-01-29 00:34:35.56	29.45	37.22	-45.5	-46.8	20.6	0.00e+00	0	42	0	511705088	62	4196
2026-01-29 00:34:36.57	29.50	37.46	-45.5	-46.8	20.4	0.00e+00	0	42	0	513802240	62	4224
2026-01-29 00:34:37.57	29.55	37.70	-45.5	-46.8	20.5	0.00e+00	0	42	0	515899392	62	4232
2026-01-29 00:34:38.58	29.60	37.95	-45.5	-46.8	20.5	0.00e+00	0	42	0	517996544	62	4241
2026-01-29 00:34:39.59	29.66	38.20	-45.5	-46.8	20.5	0.00e+00	0	42	0	520093696	62	4208
2026-01-29 00:34:40.60	29.71	38.45	-45.5	-46.8	20.5	0.00e+00	0	42	0	521142272	62	4239
2026-01-29 00:34:41.61	29.77	38.70	-45.6	-46.9	20.4	0.00e+00	0	42	0	523239424	62	4269
2026-01-29 00:34:42.61	29.82	38.95	-45.5	-46.8	20.5	0.00e+00	0	42	0	525336576	62	4239
2026-01-29 00:34:43.62	29.88	39.20	-45.5	-46.8	20.5	0.00e+00	0	42	0	527433728	62	4230
2026-01-29 00:34:44.63	29.94	39.46	-45.5	-46.8	20.6	0.00e+00	0	42	0	529530880	62	4196
2026-01-29 00:34:45.63	29.99	39.72	-45.5	-46.8	20.5	0.00e+00	0	42	0	531628032	62	4223
2026-01-29 00:34:46.64	30.05	39.98	-45.6	-46.9	20.5	0.00e+00	0	42	0	532676608	62	4267
2026-01-29 00:34:47.65	30.11	40.24	-45.4	-46.6	20.7	0.00e+00	0	42	0	534773760	62	4127
2026-01-29 00:34:48.66	30.17	40.50	-45.6	-46.9	20.5	0.00e+00	0	42	0	536870912	62	4250
2026-01-29 00:34:49.67	30.23	40.77	-45.8	-47.1	20.3	0.00e+00	0	42	0	538968064	62	4360
2026-01-29 00:34:50.67	30.30	41.04	-46.0	-47.4	20.1	0.00e+00	0	42	0	540016640	62	4500
2026-01-29 00:34:51.68	30.36	41.31	-46.3	-47.8	19.6	0.00e+00	0	42	0	542113792	63	4460
2026-01-29 00:34:52.69	30.43	41.58	-46.6	-48.1	19.3	0.00e+00	0	42	0	544210944	63	4599
2026-01-29 00:34:53.70	30.49	41.85	-46.6	-48.2	19.2	0.00e+00	0	42	0	546308096	64	4392
2026-01-29 00:34:54.71	30.56	42.13	-46.8	-48.4	19.0	0.00e+00	0	42	0	548405248	64	4499
2026-01-29 00:34:55.72	30.63	42.41	-46.8	-48.4	18.9	0.00e+00	0	42	0	549453824	64	4513
2026-01-29 00:34:56.73	30.70	42.69	-46.8	-48.4	19.0	0.00e+00	0	42	0	551550976	64	4505
2026-01-29 00:34:57.74	30.77	42.97	-46.6	-48.1	19.2	0.00e+00	0	42	0	553648128	64	4371
2026-01-29 00:34:58.75	30.84	43.26	-46.3	-47.8	19.5	0.00e+00	0	42	0	555745280	64	4230
2026-01-29 00:34:59.76	30.91	43.54	-46.2	-47.6	19.7	0.00e+00	0	42	0	557842432	64	4131
2026-01-29 00:35:00.77	30.98	43.83	-46.2	-47.6	19.7	0.00e+00	0	42	0	559939584	64	4123
2026-01-29 00:35:01.77	31.06	44.12	-46.0	-47.4	19.9	0.00e+00	0	42	0	560988160	64	4021
2026-01-29 00:35:02.78	31.13	44.41	-46.1	-47.5	19.9	0.00e+00	0	42	0	563085312	63	4337
2026-01-29 00:35:03.78	31.21	44.70	-46.2	-47.6	19.8	0.00e+00	0	42	0	565182464	63	4380
2026-01-29 00:35:04.79	31.29	45.00	-46.3	-47.7	19.7	0.00e+00	0	42	0	567279616	63	4426
2026-01-29 00:35:05.80	31.37	45.30	-46.5	-48.0	19.4	0.00e+00	0	42	0	568328192	63	4551
2026-01-29 00:35:06.81	31.45	45.60	-46.6	-48.2	19.2	0.00e+00	0	42	0	570425344	64	4400
2026-01-29 00:35:07.82	31.54	45.91	-46.9	-48.4	18.9	0.00e+00	0	42	0	572522496	64	4542
2026-01-29 00:35:08.83	31.62	46.21	-47.2	-48.9	18.5	0.00e+00	0	42	0	574619648	65	4521
2026-01-29 00:35:09.83	31.71	46.52	-47.5	-49.3	18.1	0.00e+00	0	42	0	576716800	65	4724
2026-01-29 00:35:10.84	31.80	46.83	-47.8	-49.6	17.8	0.00e+00	0	42	0	578813952	66	4636
2026-01-29 00:35:11.85	31.89	47.14	-47.8	-49.7	17.7	0.00e+00	0	42	0	579862528	66	4654
2026-01-29 00:35:12.86	31.98	47.46	-47.8	-49.6	17.7	0.00e+00	0	42	0	581959680	66	4636
2026-01-29 00:35:13.87	32.07	47.78	-47.8	-49.6	17.9	0.00e+00	0	42	0	584056832	66	4646
2026-01-29 00:35:14.87	32.17	48.09	-47.5	-49.2	18.2	0.00e+00	0	42	0	586153984	66	4419
2026-01-29 00:35:15.88	32.26	48.41	-47.1	-48.7	18.6	0.00e+00	0	42	0	588251136	66	4174
2026-01-29 00:35:16.88	32.36	48.74	-46.7	-48.3	19.1	0.00e+00	0	42	0	589299712	65	4209
2026-01-29 00:35:17.89	32.46	49.06	-46.3	-47.7	19.6	0.00e+00	0	42	0	591396864	64	4163
2026-01-29 00:35:18.90	32.57	49.39	-46.2	-47.6	19.7	0.00e+00	0	42	0	593494016	64	4141
2026-01-29 00:35:19.91	32.67	49.72	-46.1	-47.5	19.8	0.00e+00	0	42	0	595591168	64	4075
2026-01-29 00:35:20.92	32.78	50.06	-46.1	-47.5	20.0	0.00e+00	0	42	0	596639744	63	4298
2026-01-29 00:35:21.93	32.89	50.39	-46.3	-47.7	19.8	0.00e+00	0	42	0	598736896	63	4404
2026-01-29 00:35:22.93	33.00	50.73	-46.2	-47.6	19.8	0.00e+00	0	42	0	600834048	63	4387
2026-01-29 00:35:23.95	33.12	51.07	-46.1	-47.5	20.0	0.00e+00	0	42	0	602931200	63	4319
2026-01-29 00:35:24.95	33.23	51.41	-45.8	-47.2	20.3	0.00e+00	0	42	0	605028352	63	4154
2026-01-29 00:35:25.96	33.35	51.76	-45.4	-46.6	20.9	0.00e+00	0	42	0	607125504	62	4118
2026-01-29 00:35:26.97	33.48	52.11	-44.9	-46.0	21.4	0.00e+00	0	42	0	608174080	61	4073
2026-01-29 00:35:27.97	33.60	52.45	-44.9	-46.1	21.3	0.00e+00	0	42	0	610271232	61	4112
2026-01-29 00:35:28.98	33.73	52.81	-44.2	-45.3	22.1	0.00e+00	0	42	0	612368384	60	3959
2026-01-29 00:35:29.99	33.86	53.16	-44.2	-45.2	22.5	0.00e+00	0	42	0	614465536	59	4178
2026-01-29 00:35:31.00	34.00	53.52	-43.8	-44.8	22.8	0.00e+00	0	42	0	616562688	59	4004
2026-01-29 00:35:32.01	34.13	53.88	-43.9	-44.9	22.8	0.00e+00	0	42	0	617611264	59	4014
2026-01-29 00:35:33.02	34.28	54.24	-43.8	-44.8	22.9	0.00e+00	0	42	0	619708416	59	3968
2026-01-29 00:35:34.03	34.42	54.61	-43.6	-44.6	23.0	0.00e+00	0	42	0	621805568	59	3912
2026-01-29 00:35:35.04	34.57	54.97	-43.6	-44.5	23.0	0.00e+00	0	42	0	623902720	59	3866
2026-01-29 00:35:36.04	34.72	55.34	-43.5	-44.5	23.1	0.00e+00	0	42	0	625999872	59	3860
2026-01-29 00:35:37.05	34.88	55.71	-43.7	-44.7	22.9	0.00e+00	0	42	0	627048448	59	3937
2026-01-29 00:35:38.05	35.04	56.08	-43.8	-44.8	22.8	0.00e+00	0	42	0	629145600	59	3987
2026-01-29 00:35:39.06	35.20	56.46	-44.0	-45.0	22.6	0.00e+00	0	42	0	631242752	59	4087
2026-01-29 00:35:40.07	35.37	56.84	-44.4	-45.5	22.2	0.00e+00	0	42	0	633339904	59	4330
2026-01-29 00:35:41.08	35.54	57.22	-44.6	-45.7	22.1	0.00e+00	0	42	0	635437056	59	4396
2026-01-29 00:35:42.09	35.72	57.60	-44.3	-45.4	22.0	0.00e+00	0	42	0	636485632	60	4008
2026-01-29 00:35:43.09	35.90	57.99	-44.4	-45.4	22.2	0.00e+00	0	42	0	638582784	59	4286
2026-01-29 00:35:44.10	36.09	58.38	-44.3	-45.4	22.3	0.00e+00	0	42	0	640679936	59	4247
2026-01-29 00:35:45.11	36.29	58.77	-44.3	-45.3	22.4	0.00e+00	0	42	0	642777088	59	4219
2026-01-29 00:35:46.12	36.49	59.16	-44.5	-45.5	22.2	0.00e+00	0	42	0	644874240	59	4338
2026-01-29 00:35:47.13	36.69	59.55	-44.4	-45.5	21.9	0.00e+00	0	42	0	645922816	60	4098
2026-01-29 00:35:48.13	36.90	59.95	-44.4	-45.5	21.9	0.00e+00	0	42	0	648019968	60	4069
2026-01-29 00:35:49.14	37.12	60.35	-44.4	-45.4	21.9	0.00e+00	0	42	0	650117120	60	4051
2026-01-29 00:35:50.15	37.35	60.75	-44.1	-45.1	22.2	0.00e+00	0	42	0	652214272	60	3909
2026-01-29 00:35:51.16	37.58	61.15	-44.1	-45.2	22.6	0.00e+00	0	42	0	654311424	59	4152
2026-01-29 00:35:52.17	37.82	61.56	-44.0	-45.0	22.7	0.00e+00	0	42	0	655360000	59	4066
2026-01-29 00:35:53.18	38.07	61.97	-43.7	-44.7	23.0	0.00e+00	0	42	0	657457152	59	3922
2026-01-29 00:35:54.18	38.32	62.37	-43.4	-44.3	23.3	0.00e+00	0	42	0	659554304	58	4003
2026-01-29 00:35:55.19	38.59	62.78	-43.4	-44.4	23.2	0.00e+00	0	42	0	661651456	58	4024
2026-01-29 00:35:56.21	38.86	63.20	-43.8	-44.8	22.9	0.00e+00	0	42	0	663748608	58	4217
2026-01-29 00:35:57.21	39.15	63.61	-44.1	-45.1	22.6	0.00e+00	0	42	0	664797184	58	4373
2026-01-29 00:35:58.23	39.44	64.04	-44.5	-45.6	22.2	0.00e+00	0	42	0	666894336	59	4341
2026-01-29 00:35:59.23	39.74	64.45	-45.1	-46.3	21.3	0.00e+00	0	42	0	668991488	60	4452
2026-01-29 00:36:00.24	40.06	64.87	-46.1	-47.4	20.2	0.00e+00	0	42	0	671088640	62	4532
2026-01-29 00:36:01.25	40.39	65.29	-46.3	-47.7	20.0	0.00e+00	0	42	0	673185792	63	4407
2026-01-29 00:36:02.26	40.73	65.72	-46.1	-47.4	20.2	0.00e+00	0	42	0	674234368	63	4257
2026-01-29 00:36:03.27	41.08	66.15	-45.9	-47.2	20.4	0.00e+00	0	42	0	676331520	63	4169
2026-01-29 00:36:04.28	41.45	66.57	-45.6	-46.9	20.7	0.00e+00	0	42	0	678428672	63	4025
2026-01-29 00:36:05.28	41.83	67.00	-45.8	-47.0	20.6	0.00e+00	0	42	0	680525824	63	4097
2026-01-29 00:36:06.29	42.23	67.43	-46.2	-47.5	20.1	0.00e+00	0	42	0	682622976	63	4336
2026-01-29 00:36:07.30	42.64	67.86	-46.4	-47.8	19.8	0.00e+00	0	42	0	683671552	63	4478
2026-01-29 00:36:08.31	43.07	68.29	-46.6	-48.0	19.5	0.00e+00	0	42	0	685768704	63	4583
2026-01-29 00:36:09.31	43.52	68.72	-46.4	-47.8	19.8	0.00e+00	0	42	0	687865856	63	4465
2026-01-29 00:36:10.32	43.99	69.15	-46.2	-47.5	20.1	0.00e+00	0	42	0	689963008	63	4333
2026-01-29 00:36:11.33	44.49	69.59	-46.0	-47.3	20.3	0.00e+00	0	42	0	692060160	63	4239
2026-01-29 00:36:12.34	45.00	70.02	-45.4	-46.6	20.9	0.00e+00	0	42	0	694157312	62	4104
2026-01-29 00:36:13.34	45.54	70.45	-45.3	-46.5	21.0	0.00e+00	0	42	0	695205888	62	4094
2026-01-29 00:36:14.35	46.10	70.89	-45.7	-47.0	20.6	0.00e+00	0	42	0	697303040	62	4317
2026-01-29 00:36:15.36	46.70	71.33	-46.5	-47.9	19.8	0.00e+00	0	42	0	699400192	63	4533
2026-01-29 00:36:16.37	47.32	71.76	-47.1	-48.7	18.9	0.00e+00	0	42	0	701497344	64	4674
2026-01-29 00:36:17.37	47.97	72.19	-47.4	-49.1	18.6	0.00e+00	0	42	0	702545920	65	4625
2026-01-29 00:36:18.38	48.66	72.63	-47.1	-48.8	18.8	0.00e+00	0	42	0	704643072	65	4444
2026-01-29 00:36:19.39	49.39	73.06	-46.7	-48.2	19.4	0.00e+00	0	42	0	706740224	65	4192
2026-01-29 00:36:20.40	50.16	73.50	-46.4	-47.8	19.7	0.00e+00	0	42	0	708837376	64	4234
2026-01-29 00:36:21.41	50.97	73.93	-46.4	-47.8	19.8	0.00e+00	0	42	0	710934528	64	4229
2026-01-29 00:36:22.41	51.82	74.35	-46.7	-48.2	19.3	0.00e+00	0	42	0	711983104	64	4425
2026-01-29 00:36:23.42	52.72	74.78	-47.3	-48.9	18.8	0.00e+00	0	42	0	714080256	65	4529
2026-01-29 00:36:24.43	53.69	75.21	-47.1	-48.7	18.9	0.00e+00	0	42	0	716177408	65	4422
2026-01-29 00:36:25.44	54.71	75.63	-47.0	-48.5	19.0	0.00e+00	0	42	0	718274560	65	4336
2026-01-29 00:36:26.45	55.79	76.05	-47.1	-48.6	18.9	0.00e+00	0	42	0	720371712	65	4374
2026-01-29 00:36:27.45	56.93	76.46	-47.6	-49.3	18.4	0.00e+00	0	42	0	722468864	65	4710
2026-01-29 00:36:28.46	58.16	76.87	-48.4	-50.4	17.2	0.00e+00	0	42	0	723517440	67	4805
2026-01-29 00:36:29.47	59.46	77.28	-49.2	-51.5	16.2	0.00e+00	0	42	0	725614592	68	5143
2026-01-29 00:36:30.48	60.86	77.68	-49.1	-51.4	16.4	0.00e+00	0	42	0	727711744	69	4760
2026-01-29 00:36:31.49	62.35	78.07	-48.7	-50.8	16.9	0.00e+00	0	42	0	729808896	69	4488
2026-01-29 00:36:32.49	63.93	78.45	-48.4	-50.3	17.3	0.00e+00	0	42	0	730857472	68	4483
2026-01-29 00:36:33.50	65.63	78.83	-48.4	-50.4	17.4	0.00e+00	0	42	0	732954624	68	4532
2026-01-29 00:36:34.51	67.45	79.20	-48.0	-49.8	17.9	0.00e+00	0	42	0	735051776	67	4488
2026-01-29 00:36:35.51	69.39	79.56	-48.5	-50.6	17.1	0.00e+00	0	42	0	737148928	67	4884
2026-01-29 00:36:36.52	71.48	79.90	-48.4	-50.4	17.3	0.00e+00	0	42	0	739246080	68	4535
2026-01-29 00:36:37.53	73.72	80.23	-47.0	-48.6	19.0	0.00e+00	0	42	0	740294656	66	4120
2026-01-29 00:36:38.53	76.09	80.55	-46.5	-47.9	19.7	0.00e+00	0	42	0	742391808	64	4277
2026-01-29 00:36:39.54	78.64	80.85	-46.1	-47.4	20.1	0.00e+00	0	42	0	744488960	64	4045
2026-01-29 00:36:40.55	81.37	81.13	-46.0	-47.2	20.4	0.00e+00	0	42	0	746586112	63	4190
2026-01-29 00:36:41.56	84.27	81.39	-45.8	-47.1	20.5	0.00e+00	0	42	0	748683264	63	4120
2026-01-29 00:36:42.56	87.32	81.63	-46.4	-47.8	19.9	0.00e+00	0	42	0	750780416	63	4469
2026-01-29 00:36:43.57	90.56	81.84	-46.3	-47.7	19.9	0.00e+00	0	42	0	751828992	63	4403
2026-01-29 00:36:44.58	93.98	82.03	-46.0	-47.3	20.4	0.00e+00	0	42	0	753926144	63	4201
2026-01-29 00:36:45.59	97.54	82.19	-46.1	-47.5	20.2	0.00e+00	0	42	0	756023296	63	4295
2026-01-29 00:36:46.60	101.24	82.31	-45.8	-47.1	20.6	0.00e+00	0	42	0	758120448	63	4104
2026-01-29 00:36:47.60	105.01	82.41	-45.5	-46.7	20.9	0.00e+00	0	42	0	759169024	62	4164
2026-01-29 00:36:48.61	108.90	82.47	-46.1	-47.5	20.2	0.00e+00	0	42	0	761266176	62	4546
2026-01-29 00:36:49.62	112.83	82.49	-46.2	-47.6	20.0	0.00e+00	0	42	0	763363328	63	4373
2026-01-29 00:36:50.63	116.77	82.48	-46.7	-48.1	19.5	0.00e+00	0	42	0	765460480	63	4629
2026-01-29 00:36:51.64	120.68	82.44	-47.5	-49.1	18.5	0.00e+00	0	42	0	767557632	65	4645
2026-01-29 00:36:52.65	124.53	82.36	-48.0	-49.9	17.8	0.00e+00	0	42	0	769654784	66	4770
2026-01-29 00:36:53.66	128.28	82.25	-48.5	-50.6	17.1	0.00e+00	0	42	0	770703360	67	4898
2026-01-29 00:36:54.66	131.88	82.11	-49.6	-52.2	15.5	0.00e+00	0	42	0	772800512	69	5232
2026-01-29 00:36:55.67	135.36	81.93	-49.4	-51.8	16.1	0.00e+00	0	42	0	774897664	69	4993
2026-01-29 00:36:56.68	138.69	81.73	-48.6	-50.7	17.0	0.00e+00	0	42	0	776994816	69	4407
2026-01-29 00:36:57.68	141.82	81.51	-48.4	-50.4	17.4	0.00e+00	0	42	0	779091968	68	4541
2026-01-29 00:36:58.69	144.81	81.26	-47.5	-49.2	18.5	0.00e+00	0	42	0	780140544	66	4395
2026-01-29 00:36:59.69	147.59	80.99	-46.6	-48.0	19.6	0.00e+00	0	42	0	782237696	65	4076
2026-01-29 00:37:00.70	150.23	80.70	-46.2	-47.6	19.9	0.00e+00	0	42	0	784334848	64	4113
2026-01-29 00:37:01.71	152.70	80.39	-45.8	-47.1	20.6	0.00e+00	0	42	0	786432000	63	4123
2026-01-29 00:37:02.72	155.01	80.06	-45.4	-46.6	21.1	0.00e+00	0	42	0	787480576	62	4116
2026-01-29 00:37:03.73	157.17	79.72	-44.4	-45.4	22.1	0.00e+00	0	42	0	789577728	60	4051
2026-01-29 00:37:04.73	159.17	79.37	-43.8	-44.8	23.0	0.00e+00	0	42	0	791674880	59	3972
2026-01-29 00:37:05.74	161.06	79.01	-44.1	-45.2	22.7	0.00e+00	0	42	0	793772032	59	4154
2026-01-29 00:37:06.75	162.82	78.63	-44.7	-45.8	21.7	0.00e+00	0	42	0	795869184	60	4227
2026-01-29 00:37:07.75	164.45	78.25	-45.6	-46.8	20.9	0.00e+00	0	42	0	797966336	61	4463
2026-01-29 00:37:08.76	165.99	77.86	-45.8	-47.0	20.7	0.00e+00	0	42	0	799014912	62	4332
2026-01-29 00:37:09.77	167.43	77.47	-46.4	-47.7	20.0	0.00e+00	0	42	0	801112064	63	4425
2026-01-29 00:37:10.78	168.77	77.06	-47.3	-48.9	18.8	0.00e+00	0	42	0	803209216	65	4526
2026-01-29 00:37:11.79	170.04	76.65	-48.1	-50.0	17.7	0.00e+00	0	42	0	805306368	66	4815
2026-01-29 00:37:12.79	171.21	76.24	-47.8	-49.5	18.2	0.00e+00	0	42	0	807403520	66	4564
2026-01-29 00:37:13.80	172.33	75.82	-48.4	-50.3	17.5	0.00e+00	0	42	0	808452096	67	4748
2026-01-29 00:37:14.80	173.37	75.41	-49.6	-52.1	15.8	0.00e+00	0	42	0	810549248	69	5192
2026-01-29 00:37:15.81	174.36	74.98	-49.3	-51.6	16.2	0.00e+00	0	42	0	812646400	70	4649
2026-01-29 00:37:16.81	175.28	74.56	-49.0	-51.2	16.6	0.00e+00	0	42	0	814743552	69	4677
2026-01-29 00:37:17.82	176.17	74.13	-49.6	-52.1	15.7	0.00e+00	0	42	0	815792128	69	5175
2026-01-29 00:37:18.83	177.00	73.70	-50.4	-53.4	14.4	0.00e+00	0	42	0	817889280	71	5344
2026-01-29 00:37:19.84	177.79	73.26	-50.2	-53.1	14.6	0.00e+00	0	42	0	819986432	71	5180
2026-01-29 00:37:20.85	178.53	72.83	-49.5	-51.8	15.8	0.00e+00	0	42	0	822083584	71	4492
2026-01-29 00:37:21.85	179.24	72.40	-47.8	-49.5	18.1	0.00e+00	0	42	0	824180736	67	4322
2026-01-29 00:37:22.86	179.91	71.96	-46.8	-48.3	19.4	0.00e+00	0	42	0	826277888	65	4197
2026-01-29 00:37:23.87	180.55	71.53	-47.5	-49.2	18.5	0.00e+00	0	42	0	827326464	65	4688
2026-01-29 00:37:24.88	181.16	71.09	-48.1	-50.0	17.7	0.00e+00	0	42	0	829423616	66	4861
2026-01-29 00:37:25.88	181.73	70.66	-47.6	-49.3	18.5	0.00e+00	0	42	0	831520768	66	4450
2026-01-29 00:37:26.89	182.28	70.22	-47.2	-48.8	18.9	0.00e+00	0	42	0	833617920	66	4195
2026-01-29 00:37:27.90	182.81	69.79	-47.1	-48.7	19.0	0.00e+00	0	42	0	835715072	65	4400
2026-01-29 00:37:28.91	183.32	69.35	-47.2	-48.9	18.8	0.00e+00	0	42	0	836763648	65	4505
2026-01-29 00:37:29.91	183.79	68.92	-47.3	-48.9	18.8	0.00e+00	0	42	0	838860800	65	4520
2026-01-29 00:37:30.92	184.25	68.49	-47.0	-48.5	19.2	0.00e+00	0	42	0	840957952	65	4319
2026-01-29 00:37:31.93	184.70	68.05	-46.5	-47.9	19.7	0.00e+00	0	42	0	843055104	64	4260
2026-01-29 00:37:32.94	185.12	67.62	-46.9	-48.4	19.2	0.00e+00	0	42	0	845152256	64	4543
2026-01-29 00:37:33.94	185.52	67.19	-49.2	-51.2	16.9	0.00e+00	0	42	0	846200832	68	4956
2026-01-29 00:37:34.95	185.91	66.76	-49.3	-51.7	16.2	0.00e+00	0	42	0	848297984	69	4944
2026-01-29 00:37:35.96	186.29	66.33	-48.8	-50.8	16.9	0.00e+00	0	42	0	850395136	69	4493
2026-01-29 00:37:36.97	186.65	65.91	-48.0	-49.8	17.9	0.00e+00	0	42	0	852492288	68	4233
2026-01-29 00:37:37.97	186.99	65.48	-47.4	-49.0	18.6	0.00e+00	0	42	0	854589440	66	4308
2026-01-29 00:37:38.98	187.32	65.06	-46.9	-48.4	19.2	0.00e+00	0	42	0	855638016	65	4289
2026-01-29 00:37:39.99	187.65	64.64	-47.2	-48.8	18.9	0.00e+00	0	42	0	857735168	65	4464
2026-01-29 00:37:40.99	187.95	64.22	-47.3	-49.0	18.6	0.00e+00	0	42	0	859832320	65	4577
2026-01-29 00:37:42.00	188.25	63.80	-46.4	-47.8	19.8	0.00e+00	0	42	0	861929472	64	4239
2026-01-29 00:37:43.01	188.54	63.38	-45.6	-46.8	20.9	0.00e+00	0	42	0	864026624	63	3985
2026-01-29 00:37:44.01	188.82	62.97	-45.5	-46.7	21.0	0.00e+00	0	42	0	865075200	62	4184
2026-01-29 00:37:45.02	189.09	62.56	-45.1	-46.2	21.4	0.00e+00	0	42	0	867172352	62	3958
2026-01-29 00:37:46.03	189.35	62.15	-45.1	-46.3	21.4	0.00e+00	0	42	0	869269504	61	4201
2026-01-29 00:37:47.04	189.60	61.74	-44.6	-45.7	21.9	0.00e+00	0	42	0	871366656	60	4154
2026-01-29 00:37:48.05	189.84	61.33	-44.7	-45.8	21.8	0.00e+00	0	42	0	873463808	60	4222
2026-01-29 00:37:49.06	190.08	60.92	-44.5	-45.6	21.9	0.00e+00	0	42	0	874512384	60	4139
2026-01-29 00:37:50.07	190.31	60.52	-44.6	-45.7	21.9	0.00e+00	0	42	0	876609536	60	4153
2026-01-29 00:37:51.08	190.53	60.12	-45.1	-46.3	21.3	0.00e+00	0	42	0	878706688	60	4475
2026-01-29 00:37:52.09	190.75	59.72	-46.4	-47.9	19.9	0.00e+00	0	42	0	880803840	63	4507
2026-01-29 00:37:53.10	190.96	59.32	-47.3	-49.0	18.6	0.00e+00	0	42	0	882900992	65	4584
2026-01-29 00:37:54.11	191.16	58.93	-47.2	-48.9	18.7	0.00e+00	0	42	0	883949568	65	4501
2026-01-29 00:37:55.11	191.35	58.54	-47.2	-48.8	18.9	0.00e+00	0	42	0	886046720	65	4470
2026-01-29 00:37:56.12	191.55	58.15	-47.5	-49.2	18.5	0.00e+00	0	42	0	888143872	65	4691
2026-01-29 00:37:57.13	191.73	57.76	-48.0	-49.8	17.8	0.00e+00	0	42	0	890241024	66	4754
2026-01-29 00:37:58.14	191.91	57.37	-48.1	-50.1	17.6	0.00e+00	0	42	0	892338176	67	4607
2026-01-29 00:37:59.14	192.09	56.99	-47.9	-49.8	17.8	0.00e+00	0	42	0	894435328	67	4484
2026-01-29 00:38:00.15	192.26	56.61	-47.5	-49.3	18.4	0.00e+00	0	42	0	895483904	67	4196
2026-01-29 00:38:01.16	192.43	56.23	-46.6	-48.1	19.5	0.00e+00	0	42	0	897581056	65	4103
2026-01-29 00:38:02.17	192.59	55.86	-45.6	-46.9	20.7	0.00e+00	0	42	0	899678208	63	4013
2026-01-29 00:38:03.18	192.75	55.48	-45.1	-46.2	21.3	0.00e+00	0	42	0	901775360	62	3951
2026-01-29 00:38:04.19	192.90	55.11	-45.1	-46.2	21.3	0.00e+00	0	42	0	902823936	61	4183
2026-01-29 00:38:05.19	193.05	54.75	-45.7	-47.0	20.7	0.00e+00	0	42	0	904921088	62	4305
2026-01-29 00:38:06.20	193.20	54.38	-45.4	-46.6	21.0	0.00e+00	0	42	0	907018240	62	4128
2026-01-29 00:38:07.21	193.34	54.02	-44.8	-46.0	21.6	0.00e+00	0	42	0	909115392	61	4061
2026-01-29 00:38:08.22	193.48	53.65	-44.7	-45.8	21.7	0.00e+00	0	42	0	911212544	61	3986
2026-01-29 00:38:09.23	193.62	53.29	-45.0	-46.2	21.4	0.00e+00	0	42	0	912261120	61	4176
2026-01-29 00:38:10.23	193.75	52.94	-45.3	-46.5	21.1	0.00e+00	0	42	0	914358272	61	4301
2026-01-29 00:38:11.24	193.88	52.59	-45.2	-46.3	21.2	0.00e+00	0	42	0	916455424	61	4235
2026-01-29 00:38:12.24	194.00	52.24	-45.1	-46.3	21.3	0.00e+00	0	42	0	918552576	61	4216
2026-01-29 00:38:13.25	194.13	51.89	-45.9	-47.2	20.4	0.00e+00	0	42	0	920649728	62	4402
2026-01-29 00:38:14.26	194.25	51.54	-46.7	-48.2	19.4	0.00e+00	0	42	0	922746880	63	4666
2026-01-29 00:38:15.27	194.37	51.19	-47.9	-49.7	17.9	0.00e+00	0	42	0	923795456	66	4670
2026-01-29 00:38:16.28	194.48	50.85	-48.9	-51.1	16.6	0.00e+00	0	42	0	925892608	68	4910
2026-01-29 00:38:17.29	194.60	50.51	-49.8	-52.5	15.2	0.00e+00	0	42	0	927989760	70	5121
2026-01-29 00:38:18.29	194.71	50.17	-50.2	-53.2	14.5	7.00e-07	0	42	0	930086912	71	5235
2026-01-29 00:38:19.30	194.82	49.84	-50.3	-53.4	14.3	7.00e-07	0	42	0	931135488	71	5345
2026-01-29 00:38:20.30	194.92	49.51	-49.8	-52.5	15.2	7.00e-07	0	42	0	933232640	71	4857
2026-01-29 00:38:21.31	195.03	49.18	-49.3	-51.7	16.0	0.00e+00	0	42	0	935329792	70	4658
2026-01-29 00:38:22.32	195.13	48.85	-49.5	-51.9	15.8	0.00e+00	0	42	0	937426944	70	4778
2026-01-29 00:38:23.33	195.23	48.52	-50.2	-53.1	14.6	0.00e+00	0	42	0	939524096	70	5521
2026-01-29 00:38:24.34	195.33	48.20	-51.7	-56.6	10.8	1.51e-04	0	42	0	941621248	73	6935
2026-01-29 00:38:25.35	195.42	47.88	-52.2	-58.1	9.2	1.58e-02	0	42	0	942669824	75	7297
2026-01-29 00:38:26.36	195.52	47.56	-50.6	-54.2	13.1	9.41e-04	0	42	0	944766976	73	5229
2026-01-29 00:38:27.37	195.61	47.24	-48.5	-50.6	17.0	0.00e+00	0	42	0	946864128	69	4342
2026-01-29 00:38:28.37	195.70	46.93	-47.4	-49.1	18.4	0.00e+00	0	42	0	948961280	66	4342
2026-01-29 00:38:29.38	195.79	46.61	-46.4	-47.8	19.6	0.00e+00	0	42	0	951058432	64	4195
2026-01-29 00:38:30.39	195.87	46.30	-45.9	-47.2	20.2	0.00e+00	0	42	0	952107008	63	4182
2026-01-29 00:38:31.40	195.96	46.00	-45.9	-47.2	20.4	0.00e+00	0	42	0	954204160	63	4160
2026-01-29 00:38:32.40	196.04	45.69	-46.4	-47.8	19.7	0.00e+00	0	42	0	956301312	63	4476
2026-01-29 00:38:33.41	196.13	45.39	-46.9	-48.4	19.0	0.00e+00	0	42	0	958398464	64	4539
2026-01-29 00:38:34.42	196.21	45.09	-47.1	-48.7	18.8	0.00e+00	0	42	0	959447040	64	4688
2026-01-29 00:38:35.43	196.29	44.79	-47.2	-48.9	18.7	0.00e+00	0	42	0	961544192	65	4498
2026-01-29 00:38:36.43	196.36	44.49	-47.1	-48.8	18.7	0.00e+00	0	42	0	963641344	65	4477
2026-01-29 00:38:37.44	196.44	44.20	-46.4	-47.9	19.5	0.00e+00	0	42	0	965738496	64	4282
2026-01-29 00:38:38.44	196.52	43.91	-46.0	-47.4	20.0	0.00e+00	0	42	0	967835648	64	4048
2026-01-29 00:38:39.45	196.59	43.62	-45.4	-46.6	20.8	0.00e+00	0	42	0	969932800	62	4141
2026-01-29 00:38:40.45	196.66	43.33	-44.5	-45.6	21.8	0.00e+00	0	42	0	970981376	61	3883
2026-01-29 00:38:41.46	196.74	43.05	-44.4	-45.4	22.3	0.00e+00	0	42	0	973078528	59	4276
2026-01-29 00:38:42.47	196.81	42.76	-44.2	-45.3	22.4	0.00e+00	0	42	0	975175680	59	4207
2026-01-29 00:38:43.47	196.87	42.48	-44.5	-45.6	22.1	0.00e+00	0	42	0	977272832	59	4368
2026-01-29 00:38:44.48	196.94	42.20	-44.8	-46.0	21.4	0.00e+00	0	42	0	979369984	60	4309
2026-01-29 00:38:45.50	197.01	41.92	-46.1	-47.6	20.0	0.00e+00	0	42	0	980418560	62	4614
2026-01-29 00:38:46.51	197.08	41.65	-47.1	-48.8	18.6	0.00e+00	0	42	0	982515712	64	4728
2026-01-29 00:38:47.51	197.14	41.38	-47.6	-49.6	17.9	0.00e+00	0	42	0	984612864	65	4875
2026-01-29 00:38:48.52	197.21	41.10	-47.8	-49.7	17.8	0.00e+00	0	42	0	986710016	66	4661
2026-01-29 00:38:49.53	197.27	40.83	-47.1	-48.8	18.6	0.00e+00	0	42	0	987758592	66	4223
2026-01-29 00:38:50.53	197.33	40.57	-46.3	-47.8	19.5	0.00e+00	0	42	0	989855744	64	4207
2026-01-29 00:38:51.54	197.39	40.30	-45.4	-46.6	20.8	0.00e+00	0	42	0	991952896	62	4119
2026-01-29 00:38:52.55	197.45	40.04	-45.0	-46.2	21.2	0.00e+00	0	42	0	994050048	62	3933
2026-01-29 00:38:53.56	197.51	39.78	-45.1	-46.2	21.1	0.00e+00	0	42	0	996147200	61	4179
2026-01-29 00:38:54.57	197.57	39.51	-45.2	-46.4	21.0	0.00e+00	0	42	0	998244352	61	4247
2026-01-29 00:38:55.57	197.63	39.26	-45.7	-47.0	20.4	0.00e+00	0	42	0	999292928	62	4318
2026-01-29 00:38:56.58	197.68	39.00	-46.7	-48.2	19.2	0.00e+00	0	42	0	1001390080	64	4409
2026-01-29 00:38:57.58	197.74	38.75	-47.5	-49.2	18.2	0.00e+00	0	42	0	1003487232	65	4682
2026-01-29 00:38:58.59	197.79	38.50	-48.6	-50.8	16.7	0.00e+00	0	42	0	1005584384	67	5015
2026-01-29 00:38:59.60	197.85	38.25	-49.5	-52.3	15.2	0.00e+00	0	42	0	1007681536	69	5303
2026-01-29 00:39:00.61	197.90	38.00	-50.1	-53.3	14.3	0.00e+00	0	42	0	1008730112	70	5597
2026-01-29 00:39:01.61	197.95	37.75	-50.4	-53.7	13.8	7.60e-06	0	42	0	1010827264	71	5587
2026-01-29 00:39:02.62	198.01	37.51	-49.6	-52.4	15.1	1.50e-06	0	42	0	1012924416	71	4767
2026-01-29 00:39:03.63	198.06	37.26	-48.9	-51.2	16.3	0.00e+00	0	42	0	1015021568	69	4680
2026-01-29 00:39:04.64	198.11	37.02	-48.3	-50.4	17.1	0.00e+00	0	42	0	1017118720	68	4525
2026-01-29 00:39:05.65	198.16	36.78	-47.8	-49.7	17.7	0.00e+00	0	42	0	1018167296	67	4398
2026-01-29 00:39:06.65	198.21	36.54	-47.3	-49.0	18.3	0.00e+00	0	42	0	1020264448	66	4322
2026-01-29 00:39:07.66	198.26	36.31	-47.1	-48.7	18.7	0.00e+00	0	42	0	1022361600	66	4170
2026-01-29 00:39:08.67	198.30	36.07	-47.1	-48.8	18.6	0.00e+00	0	42	0	1024458752	66	4211
2026-01-29 00:39:09.68	198.35	35.84	-46.9	-48.4	18.9	0.00e+00	0	42	0	1026555904	65	4284
2026-01-29 00:39:10.69	198.40	35.61	-47.0	-48.6	18.7	0.00e+00	0	42	0	1027604480	65	4359
2026-01-29 00:39:11.69	198.44	35.38	-47.1	-48.7	18.6	0.00e+00	0	42	0	1029701632	65	4414
2026-01-29 00:39:12.70	198.49	35.15	-47.5	-49.3	18.1	0.00e+00	0	42	0	1031798784	65	4729
2026-01-29 00:39:13.71	198.53	34.92	-48.2	-50.2	17.2	0.00e+00	0	42	0	1033895936	66	4953
2026-01-29 00:39:14.71	198.58	34.70	-48.9	-51.3	16.2	0.00e+00	0	42	0	1035993088	68	4999
2026-01-29 00:39:15.72	198.62	34.48	-49.6	-52.4	15.0	0.00e+00	0	42	0	1037041664	69	5355
2026-01-29 00:39:16.73	198.67	34.25	-50.2	-53.4	14.0	7.00e-07	0	42	0	1039138816	70	5658
2026-01-29 00:39:17.73	198.71	34.04	-50.8	-54.6	12.8	1.29e-05	0	42	0	1041235968	72	5797
2026-01-29 00:39:18.74	198.75	33.82	-51.0	-55.1	12.2	1.55e-04	0	42	0	1043333120	72	6137
2026-01-29 00:39:19.75	198.79	33.60	-50.8	-54.8	12.5	1.32e-04	0	42	0	1045430272	72	5936
2026-01-29 00:39:20.75	198.83	33.39	-50.5	-54.1	13.2	5.18e-05	0	42	0	1046478848	72	5494
2026-01-29 00:39:21.76	198.87	33.17	-50.1	-53.3	14.1	1.50e-06	0	42	0	1048576000	72	4992
2026-01-29 00:39:22.77	198.91	32.96	-49.8	-52.6	14.8	0.00e+00	0	42	0	1050673152	71	4898
2026-01-29 00:39:23.78	198.95	32.75	-49.4	-51.9	15.4	0.00e+00	0	42	0	1052770304	70	4808
2026-01-29 00:39:24.79	198.99	32.54	-48.8	-51.1	16.3	0.00e+00	0	42	0	1054867456	69	4618
2026-01-29 00:39:25.80	199.03	32.33	-48.4	-50.5	16.9	0.00e+00	0	42	0	1055916032	68	4556
2026-01-29 00:39:26.80	199.07	32.12	-48.2	-50.2	17.2	0.00e+00	0	42	0	1058013184	68	4417
2026-01-29 00:39:27.81	199.11	31.92	-48.1	-50.1	17.4	0.00e+00	0	42	0	1060110336	68	4345
2026-01-29 00:39:28.82	199.15	31.71	-48.2	-50.1	17.3	0.00e+00	0	42	0	1062207488	68	4384
2026-01-29 00:39:29.83	199.18	31.51	-48.2	-50.2	17.2	0.00e+00	0	42	0	1064304640	68	4436
2026-01-29 00:39:30.84	199.22	31.31	-48.5	-50.6	16.9	0.00e+00	0	42	0	1065353216	68	4621
2026-01-29 00:39:31.85	199.26	31.11	-48.5	-50.7	16.7	0.00e+00	0	42	0	1067450368	68	4689
2026-01-29 00:39:32.85	199.29	30.91	-48.6	-50.8	16.6	0.00e+00	0	42	0	1069547520	68	4707
2026-01-29 00:39:33.86	199.33	30.71	-48.7	-50.9	16.5	0.00e+00	0	42	0	1071644672	68	4797
2026-01-29 00:39:34.87	199.36	30.52	-48.7	-50.9	16.5	0.00e+00	0	42	0	1073741824	68	4792
2026-01-29 00:39:35.88	199.40	30.32	-48.7	-50.9	16.5	0.00e+00	0	42	0	1074790400	68	4810
2026-01-29 00:39:36.89	199.43	30.13	-48.7	-51.0	16.3	0.00e+00	0	42	0	1076887552	68	4837
2026-01-29 00:39:37.89	199.47	29.94	-48.7	-51.0	16.3	0.00e+00	0	42	0	1078984704	68	4846
2026-01-29 00:39:38.90	199.50	29.75	-48.8	-51.1	16.3	0.00e+00	0	42	0	1081081856	68	4881
2026-01-29 00:39:39.91	199.53	29.56	-48.5	-50.7	16.6	0.00e+00	0	42	0	1083179008	68	4683
2026-01-29 00:39:40.91	199.57	29.37	-48.6	-50.8	16.5	0.00e+00	0	42	0	1084227584	68	4740
2026-01-29 00:39:41.92	199.60	29.18	-48.3	-50.5	16.9	0.00e+00	0	42	0	1086324736	68	4549
2026-01-29 00:39:42.93	199.63	29.00	-48.3	-50.3	17.0	0.00e+00	0	42	0	1088421888	68	4490
2026-01-29 00:39:43.94	199.66	28.81	-48.1	-50.1	17.1	0.00e+00	0	42	0	1090519040	68	4390
2026-01-29 00:39:44.95	199.70	28.63	-47.7	-49.7	17.5	0.00e+00	0	42	0	1092616192	67	4404
2026-01-29 00:39:45.95	199.73	28.45	-47.7	-49.7	17.6	0.00e+00	0	42	0	1093664768	67	4393
2026-01-29 00:39:46.96	199.76	28.27	-47.4	-49.2	18.0	0.00e+00	0	42	0	1095761920	66	4420
2026-01-29 00:39:47.97	199.79	28.09	-47.1	-48.9	18.3	0.00e+00	0	42	0	1097859072	66	4250
2026-01-29 00:39:48.98	199.82	27.91	-47.1	-48.8	18.3	0.00e+00	0	42	0	1099956224	66	4242
2026-01-29 00:39:49.98	199.85	27.73	-46.9	-48.6	18.6	0.00e+00	0	42	0	1102053376	65	4355
2026-01-29 00:39:50.99	199.88	27.55	-46.5	-48.1	19.1	0.00e+00	0	42	0	1103101952	65	4103
2026-01-29 00:39:52.00	199.91	27.38	-46.4	-47.9	19.2	0.00e+00	0	42	0	1105199104	64	4266
2026-01-29 00:39:53.01	199.94	27.20	-46.2	-47.6	19.5	0.00e+00	0	42	0	1107296256	64	4126
2026-01-29 00:39:54.01	199.97	27.03	-46.0	-47.4	19.8	0.00e+00	0	42	0	1109393408	63	4285
2026-01-29 00:39:55.02	200.00	26.86	-46.0	-47.4	19.8	0.00e+00	0	42	0	1111490560	63	4291
2026-01-29 00:39:56.03	200.02	26.69	-45.9	-47.3	19.9	0.00e+00	0	42	0	1112539136	63	4214
2026-01-29 00:39:57.04	200.05	26.52	-45.9	-47.2	19.9	0.00e+00	0	42	0	1114636288	63	4185
2026-01-29 00:39:58.05	200.08	26.35	-46.0	-47.4	19.8	0.00e+00	0	42	0	1116733440	63	4253
2026-01-29 00:39:59.05	200.11	26.18	-45.9	-47.3	19.9	0.00e+00	0	42	0	1118830592	63	4211
2026-01-29 00:40:00.06	200.14	26.02	-46.0	-47.4	19.8	0.00e+00	0	42	0	1120927744	63	4263
2026-01-29 00:40:01.07	200.16	25.85	-45.9	-47.4	19.8	0.00e+00	0	42	0	1121976320	63	4243
2026-01-29 00:40:02.08	200.19	25.69	-46.0	-47.4	19.8	0.00e+00	0	42	0	1124073472	63	4263
2026-01-29 00:40:03.08	200.22	25.52	-46.0	-47.5	19.7	0.00e+00	0	42	0	1126170624	63	4301
2026-01-29 00:40:04.09	200.24	25.36	-46.1	-47.6	19.6	0.00e+00	0	42	0	1128267776	63	4346
2026-01-29 00:40:05.10	200.27	25.20	-45.9	-47.4	19.8	0.00e+00	0	42	0	1130364928	63	4247
2026-01-29 00:40:06.11	200.30	25.04	-45.9	-47.3	19.9	0.00e+00	0	42	0	1131413504	63	4209
2026-01-29 00:40:07.12	200.32	24.88	-45.8	-47.2	19.9	0.00e+00	0	42	0	1133510656	63	4162
2026-01-29 00:40:08.12	200.35	24.72	-45.7	-47.0	20.1	0.00e+00	0	42	0	1135607808	63	4082
2026-01-29 00:40:09.13	200.37	24.56	-45.6	-47.0	20.1	0.00e+00	0	42	0	1137704960	63	4057
2026-01-29 00:40:10.14	200.40	24.40	-45.8	-47.2	19.8	0.00e+00	0	42	0	1139802112	62	4417
2026-01-29 00:40:11.15	200.42	24.25	-47.4	-49.2	17.7	0.00e+00	0	42	0	1141899264	66	4402
2026-01-29 00:40:12.15	200.45	24.09	-48.5	-50.8	16.2	0.00e+00	0	42	0	1142947840	67	5014
2026-01-29 00:40:13.16	200.47	23.94	-47.9	-50.0	17.0	0.00e+00	0	42	0	1145044992	67	4584
2026-01-29 00:40:14.17	200.50	23.79	-47.7	-49.7	17.2	0.00e+00	0	42	0	1147142144	66	4700
2026-01-29 00:40:15.18	200.52	23.63	-47.6	-49.5	17.6	0.00e+00	0	42	0	1149239296	66	4560
2026-01-29 00:40:16.18	200.54	23.48	-47.1	-48.8	18.1	0.00e+00	0	42	0	1150287872	65	4491
2026-01-29 00:40:17.19	200.57	23.33	-47.0	-48.8	18.2	0.00e+00	0	42	0	1152385024	65	4456
2026-01-29 00:40:18.20	200.59	23.18	-46.6	-48.2	18.7	0.00e+00	0	42	0	1154482176	65	4168
2026-01-29 00:40:19.21	200.62	23.03	-45.7	-47.1	19.9	0.00e+00	0	42	0	1156579328	63	4103
2026-01-29 00:40:20.21	200.64	22.89	-45.1	-46.3	20.6	0.00e+00	0	42	0	1158676480	62	3992
2026-01-29 00:40:21.22	200.66	22.74	-44.9	-46.1	20.8	0.00e+00	0	42	0	1159725056	61	4126
2026-01-29 00:40:22.23	200.68	22.59	-44.8	-46.1	20.9	0.00e+00	0	42	0	1161822208	61	4106
2026-01-29 00:40:23.24	200.71	22.45	-44.9	-46.1	20.8	0.00e+00	0	42	0	1163919360	61	4135
2026-01-29 00:40:24.25	200.73	22.30	-44.7	-45.9	20.9	0.00e+00	0	42	0	1166016512	61	4050
2026-01-29 00:40:25.25	200.75	22.16	-44.7	-45.9	21.0	0.00e+00	0	42	0	1168113664	61	4021
2026-01-29 00:40:26.26	200.77	22.02	-44.8	-46.0	20.9	0.00e+00	0	42	0	1170210816	61	4072
2026-01-29 00:40:27.26	200.80	21.87	-44.7	-45.9	21.0	0.00e+00	0	42	0	1171259392	61	4022
2026-01-29 00:40:28.27	200.82	21.73	-44.8	-46.0	20.9	0.00e+00	0	42	0	1173356544	61	4081
2026-01-29 00:40:29.28	200.84	21.59	-44.9	-46.1	20.8	0.00e+00	0	42	0	1175453696	61	4128
2026-01-29 00:40:30.29	200.86	21.45	-44.9	-46.1	20.8	0.00e+00	0	42	0	1177550848	61	4143
2026-01-29 00:40:31.29	200.88	21.31	-45.0	-46.3	20.7	0.00e+00	0	42	0	1178599424	61	4203
2026-01-29 00:40:32.30	200.90	21.17	-45.1	-46.3	20.6	0.00e+00	0	42	0	1180696576	61	4239
2026-01-29 00:40:33.31	200.92	21.04	-45.0	-46.3	20.6	0.00e+00	0	42	0	1182793728	61	4216
2026-01-29 00:40:34.31	200.94	20.90	-45.1	-46.4	20.5	0.00e+00	0	42	0	1184890880	61	4268
2026-01-29 00:40:35.32	200.97	20.76	-45.2	-46.5	20.5	0.00e+00	0	42	0	1186988032	61	4310
2026-01-29 00:40:36.33	200.99	20.63	-45.2	-46.6	20.4	0.00e+00	0	42	0	1188036608	61	4343
2026-01-29 00:40:37.34	201.01	20.49	-45.2	-46.6	20.4	0.00e+00	0	42	0	1190133760	61	4350
2026-01-29 00:40:38.34	201.03	20.36	-45.3	-46.6	20.3	0.00e+00	0	42	0	1192230912	61	4368
2026-01-29 00:40:39.35	201.05	20.23	-45.3	-46.6	20.3	0.00e+00	0	42	0	1194328064	61	4354
2026-01-29 00:40:40.36	201.07	20.09	-45.3	-46.6	20.3	0.00e+00	0	42	0	1196425216	61	4382
2026-01-29 00:40:41.37	201.09	19.96	-45.4	-46.7	20.2	0.00e+00	0	42	0	1198522368	61	4419
2026-01-29 00:40:42.38	201.11	19.83	-45.4	-46.7	20.2	0.00e+00	0	42	0	1199570944	61	4417
2026-01-29 00:40:43.38	201.13	19.70	-45.4	-46.8	20.1	0.00e+00	0	42	0	1201668096	61	4446
2026-01-29 00:40:44.39	201.15	19.57	-45.3	-46.7	20.2	0.00e+00	0	42	0	1203765248	61	4397
2026-01-29 00:40:45.40	201.16	19.44	-45.4	-46.8	20.1	0.00e+00	0	42	0	1205862400	61	4457
2026-01-29 00:40:46.41	201.18	19.31	-45.3	-46.7	20.2	0.00e+00	0	42	0	1206910976	61	4394
2026-01-29 00:40:47.42	201.20	19.19	-45.4	-46.8	20.1	0.00e+00	0	42	0	1209008128	61	4461
2026-01-29 00:40:48.43	201.22	19.06	-45.4	-46.7	20.2	0.00e+00	0	42	0	1211105280	61	4435
2026-01-29 00:40:49.44	201.24	18.93	-45.4	-46.8	20.1	0.00e+00	0	42	0	1213202432	61	4443
2026-01-29 00:40:50.45	201.26	18.80	-45.4	-46.8	20.1	0.00e+00	0	42	0	1215299584	61	4451
2026-01-29 00:40:51.45	201.28	18.68	-45.5	-46.8	20.1	0.00e+00	0	42	0	1217396736	61	4478
2026-01-29 00:40:52.46	201.30	18.56	-45.4	-46.8	20.1	0.00e+00	0	42	0	1218445312	61	4448
2026-01-29 00:40:53.46	201.31	18.43	-45.5	-46.9	20.0	0.00e+00	0	42	0	1220542464	61	4523
2026-01-29 00:40:54.47	201.33	18.31	-45.4	-46.8	20.1	0.00e+00	0	42	0	1222639616	61	4459
2026-01-29 00:40:55.47	201.35	18.19	-45.4	-46.8	20.1	0.00e+00	0	42	0	1224736768	61	4464
2026-01-29 00:40:56.48	201.37	18.07	-45.4	-46.8	20.1	0.00e+00	0	42	0	1226833920	61	4447
2026-01-29 00:40:57.49	201.39	17.94	-45.4	-46.8	20.0	0.00e+00	0	42	0	1227882496	61	4470
2026-01-29 00:40:58.50	201.40	17.82	-45.4	-46.8	20.0	0.00e+00	0	42	0	1229979648	61	4467
2026-01-29 00:40:59.51	201.42	17.70	-45.4	-46.8	20.1	0.00e+00	0	42	0	1232076800	61	4448
2026-01-29 00:41:00.52	201.44	17.58	-45.5	-46.9	20.0	0.00e+00	0	42	0	1234173952	61	4523
2026-01-29 00:41:01.52	201.46	17.46	-45.4	-46.8	20.0	0.00e+00	0	42	0	1235222528	61	4475
2026-01-29 00:41:02.52	201.47	17.35	-45.4	-46.8	20.0	0.00e+00	0	42	0	1237319680	61	4461
2026-01-29 00:41:03.52	201.49	17.23	-45.5	-46.9	20.0	0.00e+00	0	42	0	1239416832	61	4497
2026-01-29 00:41:04.53	201.51	17.11	-45.4	-46.8	20.0	0.00e+00	0	42	0	1241513984	61	4463
2026-01-29 00:41:05.54	201.52	16.99	-45.5	-46.9	20.0	0.00e+00	0	42	0	1243611136	61	4498
2026-01-29 00:41:06.55	201.54	16.88	-45.5	-46.9	19.9	0.00e+00	0	42	0	1245708288	61	4504
2026-01-29 00:41:07.56	201.56	16.76	-45.5	-46.9	19.9	0.00e+00	0	42	0	1246756864	61	4508
2026-01-29 00:41:08.56	201.58	16.65	-45.5	-46.9	19.9	0.00e+00	0	42	0	1248854016	61	4510
2026-01-29 00:41:09.57	201.59	16.53	-45.5	-46.9	19.9	0.00e+00	0	42	0	1250951168	61	4524
2026-01-29 00:41:10.58	201.61	16.42	-45.6	-47.0	19.8	0.00e+00	0	42	0	1253048320	61	4555
