passes_logs/2026/01/29/R3.2S_Murmansk/R3.2S_Murmansk__20260129_223012_NOAA_20_JPSS-1_rec.log

#Pass ID: 20260129_223012_NOAA 20 (JPSS-1)
#Satellite: NOAA 20 (JPSS-1)
#Configuration: NOAA 20
#almurnet v.1.7.20251203
#Start time: 2026-01-29 22:30:12

#Version: 2.2.20231116
#Station: R3.2S_Murmansk
#Location: 33.079688 lon 68.888172 lat
#TLE: 1 43013U 17073A   26029.42702672  .00000137  00000+0  85918-4 0  9993
#TLE: 2 43013  98.7646 330.2153 0000804  19.9045 340.2162 14.19525092424781

#Time	Az	El	Level	Level2	SNR	BER	BlckErr	Temp	State	Recorded	gain1	gain2
2026-01-29 22:30:12.20	19.00	2.01	-54.0	-69.0	3.8	1.49e+00	0	39	0	0	79	20324
2026-01-29 22:30:13.18	19.06	2.06	-54.0	-69.0	3.8	1.49e+00	0	39	104	0	78	21508
2026-01-29 22:30:14.15	19.13	2.12	-53.9	-68.9	3.8	1.49e+00	0	40	104	0	78	21447
2026-01-29 22:30:15.12	19.19	2.17	-54.1	-69.1	3.8	1.49e+00	0	39	104	0	78	21823
2026-01-29 22:30:16.10	19.25	2.23	-54.1	-69.1	3.8	1.49e+00	0	40	104	0	78	21874
2026-01-29 22:30:17.07	19.32	2.28	-54.1	-69.1	3.8	1.49e+00	0	39	104	0	78	21945
2026-01-29 22:30:18.04	19.38	2.34	-54.2	-69.1	3.8	1.49e+00	0	39	104	0	78	21997
2026-01-29 22:30:19.01	19.45	2.39	-54.2	-69.2	3.8	1.49e+00	0	39	104	0	78	22029
2026-01-29 22:30:19.98	19.51	2.45	-54.2	-69.1	3.8	1.49e+00	0	40	104	0	78	22000
2026-01-29 22:30:20.95	19.58	2.50	-54.2	-69.1	3.8	1.49e+00	0	40	104	0	78	21919
2026-01-29 22:30:21.92	19.64	2.56	-54.1	-69.1	3.8	1.49e+00	0	40	104	0	78	21812
2026-01-29 22:30:22.89	19.71	2.61	-54.1	-69.1	3.8	1.49e+00	0	40	104	0	78	21823
2026-01-29 22:30:23.86	19.77	2.67	-54.0	-69.0	3.8	1.49e+00	0	40	104	0	78	21641
2026-01-29 22:30:24.83	19.84	2.72	-54.1	-69.0	3.8	1.49e+00	0	40	104	0	78	21649
2026-01-29 22:30:25.80	19.91	2.78	-54.1	-69.0	3.8	1.49e+00	0	40	104	0	78	21682
2026-01-29 22:30:26.77	19.97	2.83	-54.0	-69.0	3.8	1.49e+00	0	40	104	0	78	21664
2026-01-29 22:30:27.74	20.04	2.89	-54.0	-69.0	3.8	1.49e+00	0	40	104	0	78	21517
2026-01-29 22:30:28.71	20.11	2.94	-53.9	-68.9	3.8	1.49e+00	0	40	104	0	78	21383
2026-01-29 22:30:29.68	20.17	3.00	-53.9	-68.8	3.8	1.49e+00	0	40	104	0	78	21198
2026-01-29 22:30:30.65	20.24	3.05	-53.8	-68.7	3.8	1.49e+00	0	40	104	0	78	20960
2026-01-29 22:30:31.62	20.31	3.11	-53.7	-68.6	3.8	1.49e+00	0	40	104	0	78	20655
2026-01-29 22:30:32.59	20.38	3.17	-53.5	-68.5	3.8	1.49e+00	0	40	104	0	78	20410
2026-01-29 22:30:33.56	20.45	3.22	-53.4	-68.3	3.8	1.49e+00	0	40	104	0	78	20043
2026-01-29 22:30:34.53	20.51	3.28	-53.2	-68.2	3.8	1.49e+00	0	40	104	0	78	19669
2026-01-29 22:30:35.51	20.58	3.33	-52.9	-67.9	3.8	1.49e+00	0	40	104	0	77	20086
2026-01-29 22:30:36.48	20.65	3.39	-52.6	-67.6	3.8	1.49e+00	0	40	104	0	77	19428
2026-01-29 22:30:37.45	20.72	3.45	-52.1	-67.1	3.8	1.49e+00	0	40	104	0	76	19533
2026-01-29 22:30:38.42	20.79	3.50	-52.1	-67.0	3.8	1.49e+00	0	40	104	0	76	19268
2026-01-29 22:30:39.39	20.86	3.56	-52.1	-67.0	3.8	1.49e+00	0	40	104	0	76	19207
2026-01-29 22:30:40.36	20.93	3.62	-52.0	-67.0	3.8	1.49e+00	0	40	104	0	76	19177
2026-01-29 22:30:41.33	21.00	3.67	-52.1	-67.0	3.8	1.49e+00	0	40	104	0	76	19216
2026-01-29 22:30:42.30	21.07	3.73	-52.0	-67.0	3.8	1.49e+00	0	40	104	0	76	19240
2026-01-29 22:30:43.27	21.14	3.79	-52.0	-67.0	3.8	1.49e+00	0	40	104	0	76	19251
2026-01-29 22:30:44.24	21.21	3.84	-52.0	-66.9	3.8	1.49e+00	0	40	104	0	76	19039
2026-01-29 22:30:45.21	21.28	3.90	-52.0	-66.6	3.8	1.49e+00	0	40	104	0	76	18514
2026-01-29 22:30:46.18	21.35	3.96	-52.0	-66.4	3.8	1.49e+00	0	40	104	0	76	17969
2026-01-29 22:30:47.16	21.43	4.02	-52.0	-66.1	3.8	1.49e+00	0	40	104	0	76	17370
2026-01-29 22:30:48.13	21.50	4.07	-51.9	-66.0	3.8	1.49e+00	0	40	104	0	75	18224
2026-01-29 22:30:49.10	21.57	4.13	-52.0	-66.1	3.8	1.49e+00	0	40	104	0	75	18433
2026-01-29 22:30:50.07	21.64	4.19	-52.0	-66.1	3.8	1.49e+00	0	40	104	0	75	18428
2026-01-29 22:30:51.04	21.72	4.25	-51.9	-65.8	3.8	1.49e+00	0	40	104	0	75	17831
2026-01-29 22:30:52.01	21.79	4.30	-51.8	-64.2	3.9	1.49e+00	0	40	104	0	75	14817
2026-01-29 22:30:52.98	21.86	4.36	-51.6	-61.1	5.1	1.27e+00	0	41	0	0	75	10349
2026-01-29 22:30:53.95	21.94	4.42	-51.2	-58.7	6.9	2.41e-01	0	40	0	2097152	74	8308
2026-01-29 22:30:54.92	22.01	4.48	-50.6	-56.2	9.4	4.43e-02	0	41	0	4194304	73	6625
2026-01-29 22:30:55.90	22.09	4.54	-49.9	-54.3	11.4	3.82e-03	0	40	0	6291456	71	5974
2026-01-29 22:30:56.87	22.16	4.59	-49.2	-52.8	13.1	2.58e-04	0	41	0	7340032	70	5314
2026-01-29 22:30:57.84	22.23	4.65	-48.4	-51.2	14.7	3.80e-06	0	40	0	9437184	68	4968
2026-01-29 22:30:58.81	22.31	4.71	-47.4	-49.8	16.1	0.00e+00	0	41	0	11534336	66	4720
2026-01-29 22:30:59.78	22.38	4.77	-47.3	-49.6	16.3	0.00e+00	0	40	0	13631488	66	4601
2026-01-29 22:31:00.75	22.46	4.83	-46.9	-49.0	16.8	0.00e+00	0	40	0	14680064	65	4592
2026-01-29 22:31:01.72	22.54	4.89	-46.8	-48.8	17.0	0.00e+00	0	40	0	16777216	65	4493
2026-01-29 22:31:02.70	22.61	4.94	-46.9	-49.0	16.9	0.00e+00	0	41	0	18874368	65	4561
2026-01-29 22:31:03.67	22.69	5.00	-47.4	-49.7	16.1	0.00e+00	0	41	0	20971520	65	4964
2026-01-29 22:31:04.65	22.77	5.06	-50.3	-55.2	11.3	0.00e+00	0	41	0	22020096	71	6640
2026-01-29 22:31:05.62	22.84	5.12	-48.6	-51.5	14.3	2.61e-01	0	41	0	24117248	69	4829
2026-01-29 22:31:06.59	22.92	5.18	-47.6	-50.1	16.1	0.00e+00	0	41	0	26214400	65	5166
2026-01-29 22:31:07.56	23.00	5.24	-49.1	-52.5	13.2	1.98e-02	0	40	0	28311552	70	5146
2026-01-29 22:31:08.53	23.08	5.30	-46.9	-48.9	17.1	1.50e-06	0	41	0	29360128	65	4545
2026-01-29 22:31:09.51	23.15	5.36	-48.3	-51.0	14.7	1.95e-02	0	41	0	31457280	68	4851
2026-01-29 22:31:10.49	23.23	5.42	-46.8	-48.9	16.9	0.00e+00	0	41	0	33554432	65	4513
2026-01-29 22:31:11.46	23.31	5.48	-46.4	-48.3	17.5	0.00e+00	0	41	0	35651584	64	4478
2026-01-29 22:31:12.43	23.39	5.54	-46.6	-48.5	17.3	0.00e+00	0	41	0	36700160	64	4579
2026-01-29 22:31:13.40	23.47	5.60	-46.3	-48.1	17.7	0.00e+00	0	41	0	38797312	64	4380
2026-01-29 22:31:14.37	23.55	5.66	-46.2	-48.0	17.9	0.00e+00	0	41	0	40894464	64	4299
2026-01-29 22:31:15.34	23.63	5.72	-46.2	-48.0	17.8	0.00e+00	0	41	0	41943040	64	4333
2026-01-29 22:31:16.31	23.71	5.78	-46.2	-48.0	17.9	0.00e+00	0	41	0	44040192	64	4330
2026-01-29 22:31:17.28	23.79	5.84	-46.2	-48.0	17.9	0.00e+00	0	41	0	46137344	64	4317
2026-01-29 22:31:18.25	23.87	5.90	-46.1	-47.9	18.0	0.00e+00	0	41	0	48234496	64	4251
2026-01-29 22:31:19.22	23.95	5.96	-46.2	-48.0	18.0	0.00e+00	0	41	0	49283072	64	4299
2026-01-29 22:31:20.20	24.04	6.02	-46.2	-48.0	17.9	0.00e+00	0	41	0	51380224	64	4321
2026-01-29 22:31:21.17	24.12	6.08	-46.2	-48.0	17.9	0.00e+00	0	41	0	53477376	64	4311
2026-01-29 22:31:22.14	24.20	6.14	-46.4	-48.3	17.7	0.00e+00	0	41	0	55574528	64	4445
2026-01-29 22:31:23.11	24.28	6.20	-46.2	-48.0	17.9	0.00e+00	0	41	0	56623104	64	4327
2026-01-29 22:31:24.08	24.36	6.26	-45.9	-47.6	18.4	0.00e+00	0	41	0	58720256	63	4357
2026-01-29 22:31:25.06	24.45	6.32	-46.0	-47.7	18.3	0.00e+00	0	41	0	60817408	63	4426
2026-01-29 22:31:26.03	24.53	6.38	-46.1	-47.8	18.3	0.00e+00	0	41	0	62914560	63	4453
2026-01-29 22:31:27.00	24.62	6.44	-46.0	-47.7	18.4	0.00e+00	0	41	0	63963136	63	4417
2026-01-29 22:31:27.97	24.70	6.50	-45.9	-47.5	18.6	0.00e+00	0	41	0	66060288	63	4333
2026-01-29 22:31:28.94	24.78	6.56	-45.9	-47.6	18.5	0.00e+00	0	41	0	68157440	63	4370
2026-01-29 22:31:29.91	24.87	6.63	-45.7	-47.3	18.8	0.00e+00	0	41	0	70254592	63	4227
2026-01-29 22:31:30.88	24.95	6.69	-45.8	-47.4	18.7	0.00e+00	0	41	0	71303168	63	4265
2026-01-29 22:31:31.85	25.04	6.75	-46.0	-47.6	18.5	0.00e+00	0	41	0	73400320	63	4384
2026-01-29 22:31:32.82	25.13	6.81	-46.1	-47.8	18.3	0.00e+00	0	41	0	75497472	63	4465
2026-01-29 22:31:33.80	25.21	6.87	-46.1	-47.8	18.3	0.00e+00	0	41	0	76546048	63	4476
2026-01-29 22:31:34.77	25.30	6.93	-46.2	-47.9	18.2	0.00e+00	0	41	0	78643200	63	4534
2026-01-29 22:31:35.74	25.39	7.00	-46.0	-47.7	18.4	0.00e+00	0	41	0	80740352	63	4432
2026-01-29 22:31:36.71	25.47	7.06	-46.0	-47.7	18.5	0.00e+00	0	41	0	82837504	63	4424
2026-01-29 22:31:37.68	25.56	7.12	-46.1	-47.8	18.4	0.00e+00	0	41	0	83886080	63	4460
2026-01-29 22:31:38.65	25.65	7.18	-46.1	-47.8	18.4	0.00e+00	0	41	0	85983232	63	4462
2026-01-29 22:31:39.62	25.74	7.24	-46.1	-47.8	18.5	0.00e+00	0	41	0	88080384	63	4445
2026-01-29 22:31:40.59	25.83	7.31	-46.0	-47.7	18.5	0.00e+00	0	41	0	90177536	63	4410
2026-01-29 22:31:41.56	25.91	7.37	-46.0	-47.7	18.5	0.00e+00	0	41	0	91226112	63	4415
2026-01-29 22:31:42.53	26.00	7.43	-46.1	-47.8	18.4	0.00e+00	0	41	0	93323264	63	4468
2026-01-29 22:31:43.50	26.09	7.49	-46.0	-47.7	18.5	0.00e+00	0	41	0	95420416	63	4425
2026-01-29 22:31:44.47	26.18	7.56	-46.0	-47.7	18.6	0.00e+00	0	41	0	97517568	63	4392
2026-01-29 22:31:45.45	26.27	7.62	-46.0	-47.7	18.5	0.00e+00	0	41	0	98566144	63	4426
2026-01-29 22:31:46.42	26.36	7.68	-46.0	-47.7	18.5	0.00e+00	0	41	0	100663296	63	4408
2026-01-29 22:31:47.38	26.46	7.75	-46.1	-47.8	18.5	0.00e+00	0	41	0	102760448	63	4443
2026-01-29 22:31:48.36	26.55	7.81	-46.0	-47.6	18.7	0.00e+00	0	41	0	103809024	63	4359
2026-01-29 22:31:49.33	26.64	7.87	-45.9	-47.6	18.6	0.00e+00	0	41	0	105906176	63	4355
2026-01-29 22:31:50.29	26.73	7.93	-46.0	-47.7	18.5	0.00e+00	0	41	0	108003328	63	4419
2026-01-29 22:31:51.27	26.82	8.00	-45.8	-47.4	18.8	0.00e+00	0	41	0	110100480	63	4290
2026-01-29 22:31:52.25	26.92	8.06	-45.8	-47.4	18.9	0.00e+00	0	41	0	111149056	63	4270
2026-01-29 22:31:53.22	27.01	8.13	-45.8	-47.4	18.9	0.00e+00	0	41	0	113246208	63	4247
2026-01-29 22:31:54.19	27.11	8.19	-45.7	-47.3	19.0	0.00e+00	0	41	0	115343360	63	4195
2026-01-29 22:31:55.16	27.20	8.25	-45.7	-47.2	19.1	0.00e+00	0	41	0	117440512	63	4174
2026-01-29 22:31:56.14	27.30	8.32	-45.6	-47.1	19.2	0.00e+00	0	41	0	118489088	63	4136
2026-01-29 22:31:57.11	27.39	8.38	-45.6	-47.1	19.2	0.00e+00	0	41	0	120586240	63	4141
2026-01-29 22:31:58.08	27.49	8.45	-45.7	-47.2	19.1	0.00e+00	0	41	0	122683392	63	4170
2026-01-29 22:31:59.05	27.58	8.51	-45.6	-47.1	19.2	0.00e+00	0	41	0	124780544	63	4124
2026-01-29 22:32:00.02	27.68	8.57	-45.5	-47.0	19.3	0.00e+00	0	41	0	125829120	62	4308
2026-01-29 22:32:00.99	27.77	8.64	-45.4	-46.9	19.4	0.00e+00	0	41	0	127926272	62	4284
2026-01-29 22:32:01.96	27.87	8.70	-45.3	-46.8	19.5	0.00e+00	0	41	0	130023424	62	4214
2026-01-29 22:32:02.94	27.97	8.77	-45.3	-46.7	19.6	0.00e+00	0	41	0	132120576	62	4185
2026-01-29 22:32:03.91	28.07	8.83	-45.2	-46.6	19.7	0.00e+00	0	41	0	133169152	62	4138
2026-01-29 22:32:04.88	28.17	8.90	-45.3	-46.7	19.6	0.00e+00	0	41	0	135266304	62	4183
2026-01-29 22:32:05.85	28.26	8.96	-45.3	-46.7	19.6	0.00e+00	0	41	0	137363456	62	4186
2026-01-29 22:32:06.82	28.36	9.03	-45.3	-46.7	19.6	0.00e+00	0	41	0	139460608	62	4179
2026-01-29 22:32:07.79	28.46	9.09	-45.4	-46.8	19.5	0.00e+00	0	41	0	140509184	62	4225
2026-01-29 22:32:08.77	28.56	9.16	-45.4	-46.8	19.5	0.00e+00	0	41	0	142606336	62	4233
2026-01-29 22:32:09.74	28.66	9.22	-45.3	-46.8	19.5	0.00e+00	0	41	0	144703488	62	4218
2026-01-29 22:32:10.71	28.76	9.29	-45.4	-46.8	19.5	0.00e+00	0	41	0	146800640	62	4220
2026-01-29 22:32:11.68	28.87	9.35	-45.4	-46.9	19.5	0.00e+00	0	41	0	147849216	62	4254
2026-01-29 22:32:12.65	28.97	9.42	-45.4	-46.9	19.5	0.00e+00	0	41	0	149946368	62	4254
2026-01-29 22:32:13.63	29.07	9.49	-45.5	-47.0	19.4	0.00e+00	0	41	0	152043520	62	4294
2026-01-29 22:32:14.60	29.17	9.55	-45.3	-46.8	19.6	0.00e+00	0	41	0	153092096	62	4204
2026-01-29 22:32:15.57	29.28	9.62	-45.5	-46.9	19.4	0.00e+00	0	41	0	155189248	62	4286
2026-01-29 22:32:16.54	29.38	9.68	-45.3	-46.7	19.6	0.00e+00	0	41	0	157286400	62	4192
2026-01-29 22:32:17.51	29.48	9.75	-45.4	-46.9	19.5	0.00e+00	0	41	0	159383552	62	4251
2026-01-29 22:32:18.48	29.59	9.82	-45.3	-46.8	19.6	0.00e+00	0	41	0	160432128	62	4198
2026-01-29 22:32:19.45	29.69	9.88	-45.3	-46.8	19.6	0.00e+00	0	41	0	162529280	62	4210
2026-01-29 22:32:20.42	29.80	9.95	-45.4	-46.9	19.5	0.00e+00	0	41	0	164626432	62	4264
2026-01-29 22:32:21.39	29.90	10.01	-45.4	-46.8	19.6	0.00e+00	0	41	0	166723584	62	4231
2026-01-29 22:32:22.36	30.01	10.08	-45.3	-46.8	19.6	0.00e+00	0	41	0	167772160	62	4204
2026-01-29 22:32:23.33	30.12	10.15	-45.3	-46.7	19.7	0.00e+00	0	41	0	169869312	62	4165
2026-01-29 22:32:24.30	30.22	10.21	-45.4	-46.9	19.5	0.00e+00	0	41	0	171966464	62	4265
2026-01-29 22:32:25.27	30.33	10.28	-45.4	-46.9	19.5	0.00e+00	0	41	0	173015040	62	4269
2026-01-29 22:32:26.24	30.44	10.35	-45.4	-46.9	19.6	0.00e+00	0	41	0	175112192	62	4250
2026-01-29 22:32:27.22	30.55	10.42	-45.5	-46.9	19.5	0.00e+00	0	41	0	177209344	62	4275
2026-01-29 22:32:28.19	30.66	10.48	-45.5	-47.0	19.4	0.00e+00	0	41	0	179306496	62	4325
2026-01-29 22:32:29.16	30.77	10.55	-45.6	-47.0	19.4	0.00e+00	0	41	0	180355072	62	4335
2026-01-29 22:32:30.13	30.88	10.62	-45.5	-46.9	19.5	0.00e+00	0	41	0	182452224	62	4275
2026-01-29 22:32:31.10	30.99	10.68	-45.5	-46.9	19.5	0.00e+00	0	41	0	184549376	62	4283
2026-01-29 22:32:32.07	31.10	10.75	-45.4	-46.9	19.6	0.00e+00	0	41	0	186646528	62	4256
2026-01-29 22:32:33.04	31.21	10.82	-45.4	-46.9	19.6	0.00e+00	0	41	0	187695104	62	4261
2026-01-29 22:32:34.02	31.32	10.89	-45.5	-46.9	19.6	0.00e+00	0	41	0	189792256	62	4283
2026-01-29 22:32:34.99	31.43	10.96	-45.3	-46.7	19.7	0.00e+00	0	41	0	191889408	62	4188
2026-01-29 22:32:35.96	31.55	11.02	-45.3	-46.6	19.8	0.00e+00	0	41	0	193986560	62	4142
2026-01-29 22:32:36.93	31.66	11.09	-45.2	-46.5	19.9	0.00e+00	0	41	0	195035136	62	4093
2026-01-29 22:32:37.89	31.77	11.16	-45.1	-46.4	20.0	0.00e+00	0	41	0	197132288	62	4051
2026-01-29 22:32:38.86	31.89	11.23	-45.1	-46.5	19.9	0.00e+00	0	41	0	199229440	62	4086
2026-01-29 22:32:39.84	32.00	11.30	-45.1	-46.5	20.0	0.00e+00	0	41	0	201326592	62	4080
2026-01-29 22:32:40.81	32.12	11.36	-45.0	-46.4	20.1	0.00e+00	0	41	0	202375168	62	4009
2026-01-29 22:32:41.78	32.23	11.43	-45.0	-46.3	20.1	0.00e+00	0	41	0	204472320	61	4231
2026-01-29 22:32:42.75	32.35	11.50	-45.1	-46.4	20.0	0.00e+00	0	41	0	206569472	61	4291
2026-01-29 22:32:43.71	32.47	11.57	-44.9	-46.3	20.2	0.00e+00	0	41	0	208666624	61	4204
2026-01-29 22:32:44.69	32.58	11.64	-44.9	-46.3	20.2	0.00e+00	0	41	0	209715200	61	4209
2026-01-29 22:32:45.66	32.70	11.71	-45.0	-46.3	20.1	0.00e+00	0	41	0	211812352	61	4235
2026-01-29 22:32:46.63	32.82	11.77	-44.9	-46.2	20.3	0.00e+00	0	41	0	213909504	61	4182
2026-01-29 22:32:47.60	32.94	11.84	-44.9	-46.3	20.2	0.00e+00	0	41	0	214958080	61	4195
2026-01-29 22:32:48.57	33.06	11.91	-44.9	-46.3	20.2	0.00e+00	0	41	0	217055232	61	4211
2026-01-29 22:32:49.54	33.18	11.98	-44.8	-46.2	20.3	0.00e+00	0	41	0	219152384	61	4152
2026-01-29 22:32:50.52	33.30	12.05	-45.0	-46.3	20.2	0.00e+00	0	41	0	221249536	61	4224
2026-01-29 22:32:51.49	33.42	12.12	-45.0	-46.3	20.1	0.00e+00	0	41	0	222298112	61	4237
2026-01-29 22:32:52.46	33.54	12.19	-44.7	-46.0	20.4	0.00e+00	0	41	0	224395264	61	4096
2026-01-29 22:32:53.43	33.67	12.26	-44.7	-46.0	20.4	0.00e+00	0	41	0	226492416	61	4092
2026-01-29 22:32:54.40	33.79	12.33	-44.7	-46.0	20.5	0.00e+00	0	41	0	228589568	61	4070
2026-01-29 22:32:55.37	33.91	12.40	-44.7	-45.9	20.5	0.00e+00	0	41	0	229638144	61	4046
2026-01-29 22:32:56.34	34.04	12.47	-44.7	-46.0	20.5	0.00e+00	0	41	0	231735296	61	4062
2026-01-29 22:32:57.31	34.16	12.54	-44.7	-46.0	20.5	0.00e+00	0	41	0	233832448	61	4067
2026-01-29 22:32:58.28	34.29	12.61	-44.8	-46.1	20.5	0.00e+00	0	41	0	234881024	61	4101
2026-01-29 22:32:59.25	34.41	12.68	-44.7	-46.0	20.5	0.00e+00	0	41	0	236978176	61	4075
2026-01-29 22:33:00.22	34.54	12.75	-44.8	-46.1	20.5	0.00e+00	0	41	0	239075328	61	4108
2026-01-29 22:33:01.19	34.66	12.82	-44.8	-46.1	20.5	0.00e+00	0	41	0	241172480	61	4105
2026-01-29 22:33:02.15	34.79	12.89	-44.7	-46.0	20.5	0.00e+00	0	41	0	242221056	61	4078
2026-01-29 22:33:03.12	34.92	12.96	-44.7	-46.0	20.5	0.00e+00	0	41	0	244318208	61	4085
2026-01-29 22:33:04.09	35.05	13.03	-44.8	-46.0	20.5	0.00e+00	0	41	0	246415360	61	4097
2026-01-29 22:33:05.06	35.18	13.10	-44.7	-46.0	20.5	0.00e+00	0	41	0	248512512	61	4090
2026-01-29 22:33:06.03	35.31	13.17	-44.7	-46.0	20.5	0.00e+00	0	41	0	249561088	61	4095
2026-01-29 22:33:07.01	35.44	13.24	-44.7	-46.0	20.6	0.00e+00	0	41	0	251658240	61	4067
2026-01-29 22:33:07.98	35.57	13.31	-44.7	-46.0	20.6	0.00e+00	0	41	0	253755392	61	4053
2026-01-29 22:33:08.95	35.70	13.38	-44.7	-46.0	20.5	0.00e+00	0	41	0	255852544	61	4091
2026-01-29 22:33:09.92	35.83	13.45	-44.9	-46.2	20.4	0.00e+00	0	41	0	256901120	61	4159
2026-01-29 22:33:10.89	35.96	13.52	-44.7	-46.0	20.6	0.00e+00	0	41	0	258998272	61	4056
2026-01-29 22:33:11.86	36.10	13.59	-44.7	-46.0	20.5	0.00e+00	0	41	0	261095424	61	4077
2026-01-29 22:33:12.83	36.23	13.66	-44.8	-46.1	20.5	0.00e+00	0	41	0	263192576	61	4130
2026-01-29 22:33:13.80	36.37	13.73	-44.7	-45.9	20.6	0.00e+00	0	41	0	264241152	61	4046
2026-01-29 22:33:14.78	36.50	13.81	-44.7	-46.0	20.6	0.00e+00	0	41	0	266338304	61	4060
2026-01-29 22:33:15.75	36.64	13.88	-44.5	-45.8	20.8	0.00e+00	0	41	0	268435456	61	3974
2026-01-29 22:33:16.72	36.78	13.95	-44.6	-45.8	20.8	0.00e+00	0	41	0	270532608	61	3993
2026-01-29 22:33:17.69	36.91	14.02	-44.6	-45.9	20.6	0.00e+00	0	41	0	271581184	61	4035
2026-01-29 22:33:18.66	37.05	14.09	-44.5	-45.7	20.8	0.00e+00	0	41	0	273678336	61	3958
2026-01-29 22:33:19.63	37.19	14.16	-44.5	-45.7	20.8	0.00e+00	0	41	0	275775488	60	4181
2026-01-29 22:33:20.60	37.33	14.23	-44.4	-45.6	20.9	0.00e+00	0	41	0	276824064	60	4127
2026-01-29 22:33:21.57	37.47	14.31	-44.5	-45.8	20.8	0.00e+00	0	41	0	278921216	60	4195
2026-01-29 22:33:22.54	37.61	14.38	-44.5	-45.8	20.8	0.00e+00	0	41	0	281018368	60	4199
2026-01-29 22:33:23.51	37.75	14.45	-44.6	-45.9	20.7	0.00e+00	0	41	0	283115520	60	4249
2026-01-29 22:33:24.49	37.89	14.52	-44.6	-45.8	20.7	0.00e+00	0	41	0	284164096	60	4225
2026-01-29 22:33:25.46	38.03	14.59	-44.6	-45.9	20.7	0.00e+00	0	41	0	286261248	60	4247
2026-01-29 22:33:26.43	38.18	14.66	-44.7	-46.0	20.6	0.00e+00	0	41	0	288358400	60	4310
2026-01-29 22:33:27.40	38.32	14.74	-44.5	-45.8	20.8	0.00e+00	0	41	0	290455552	60	4203
2026-01-29 22:33:28.37	38.47	14.81	-44.6	-45.9	20.7	0.00e+00	0	41	0	291504128	60	4251
2026-01-29 22:33:29.34	38.61	14.88	-44.6	-45.9	20.7	0.00e+00	0	41	0	293601280	60	4261
2026-01-29 22:33:30.31	38.76	14.95	-44.5	-45.7	20.8	0.00e+00	0	41	0	295698432	60	4184
2026-01-29 22:33:31.28	38.90	15.02	-44.3	-45.5	21.0	0.00e+00	0	41	0	296747008	60	4089
2026-01-29 22:33:32.25	39.05	15.10	-44.3	-45.5	21.1	0.00e+00	0	41	0	298844160	60	4090
2026-01-29 22:33:33.23	39.20	15.17	-44.3	-45.5	21.1	0.00e+00	0	41	0	300941312	60	4068
2026-01-29 22:33:34.20	39.35	15.24	-44.1	-45.3	21.3	0.00e+00	0	41	0	303038464	60	3986
2026-01-29 22:33:35.17	39.50	15.31	-44.1	-45.3	21.3	0.00e+00	0	41	0	304087040	60	3965
2026-01-29 22:33:36.14	39.65	15.39	-44.2	-45.3	21.2	0.00e+00	0	41	0	306184192	60	3999
2026-01-29 22:33:37.11	39.80	15.46	-44.2	-45.4	21.2	0.00e+00	0	41	0	308281344	60	4017
2026-01-29 22:33:38.08	39.95	15.53	-44.2	-45.4	21.2	0.00e+00	0	41	0	310378496	60	4009
2026-01-29 22:33:39.05	40.10	15.60	-44.3	-45.5	21.1	0.00e+00	0	41	0	311427072	60	4053
2026-01-29 22:33:40.02	40.25	15.67	-44.2	-45.4	21.2	0.00e+00	0	41	0	313524224	60	4010
2026-01-29 22:33:40.99	40.41	15.75	-44.2	-45.4	21.2	0.00e+00	0	41	0	315621376	60	4011
2026-01-29 22:33:41.96	40.56	15.82	-44.3	-45.5	21.1	0.00e+00	0	41	0	317718528	60	4057
2026-01-29 22:33:42.93	40.71	15.89	-44.2	-45.3	21.2	0.00e+00	0	41	0	318767104	60	4001
2026-01-29 22:33:43.90	40.87	15.96	-44.2	-45.3	21.2	0.00e+00	0	41	0	320864256	60	3997
2026-01-29 22:33:44.87	41.03	16.04	-44.3	-45.4	21.2	0.00e+00	0	41	0	322961408	60	4043
2026-01-29 22:33:45.84	41.18	16.11	-44.3	-45.5	21.1	0.00e+00	0	41	0	325058560	60	4082
2026-01-29 22:33:46.81	41.34	16.18	-44.2	-45.3	21.2	0.00e+00	0	41	0	326107136	60	4003
2026-01-29 22:33:47.78	41.50	16.25	-44.1	-45.3	21.3	0.00e+00	0	41	0	328204288	60	3978
2026-01-29 22:33:48.75	41.66	16.33	-44.2	-45.4	21.2	0.00e+00	0	41	0	330301440	60	4031
2026-01-29 22:33:49.72	41.82	16.40	-44.2	-45.4	21.2	0.00e+00	0	41	0	332398592	60	4017
2026-01-29 22:33:50.69	41.98	16.47	-44.3	-45.5	21.1	0.00e+00	0	41	0	333447168	60	4071
2026-01-29 22:33:51.66	42.14	16.54	-44.4	-45.6	21.0	0.00e+00	0	41	0	335544320	60	4135
2026-01-29 22:33:52.63	42.30	16.62	-44.5	-45.7	21.0	0.00e+00	0	41	0	337641472	60	4170
2026-01-29 22:33:53.61	42.47	16.69	-44.6	-45.8	20.8	0.00e+00	0	41	0	339738624	60	4224
2026-01-29 22:33:54.58	42.63	16.76	-44.6	-45.8	20.9	0.00e+00	0	41	0	340787200	60	4214
2026-01-29 22:33:55.55	42.80	16.83	-44.6	-45.8	20.9	0.00e+00	0	41	0	342884352	60	4224
2026-01-29 22:33:56.52	42.96	16.91	-44.6	-45.8	20.9	0.00e+00	0	41	0	344981504	60	4235
2026-01-29 22:33:57.50	43.13	16.98	-44.6	-45.8	20.9	0.00e+00	0	41	0	346030080	60	4218
2026-01-29 22:33:58.46	43.29	17.05	-44.5	-45.8	20.9	0.00e+00	0	41	0	348127232	60	4206
2026-01-29 22:33:59.43	43.46	17.12	-44.5	-45.8	20.9	0.00e+00	0	41	0	350224384	60	4200
2026-01-29 22:34:00.40	43.63	17.20	-44.6	-45.8	20.9	0.00e+00	0	41	0	352321536	60	4217
2026-01-29 22:34:01.37	43.80	17.27	-44.5	-45.7	20.9	0.00e+00	0	41	0	353370112	60	4174
2026-01-29 22:34:02.35	43.97	17.34	-44.3	-45.6	21.1	0.00e+00	0	41	0	355467264	60	4099
2026-01-29 22:34:03.32	44.14	17.41	-44.3	-45.5	21.1	0.00e+00	0	41	0	357564416	60	4081
2026-01-29 22:34:04.29	44.31	17.49	-44.4	-45.6	21.1	0.00e+00	0	41	0	359661568	60	4107
2026-01-29 22:34:05.26	44.49	17.56	-44.2	-45.4	21.2	0.00e+00	0	41	0	360710144	60	4043
2026-01-29 22:34:06.23	44.66	17.63	-44.2	-45.4	21.3	0.00e+00	0	41	0	362807296	60	4027
2026-01-29 22:34:07.21	44.83	17.70	-44.2	-45.4	21.3	0.00e+00	0	41	0	364904448	60	4019
2026-01-29 22:34:08.18	45.01	17.78	-44.2	-45.4	21.3	0.00e+00	0	41	0	365953024	60	4024
2026-01-29 22:34:09.15	45.18	17.85	-44.1	-45.3	21.3	0.00e+00	0	41	0	368050176	60	3988
2026-01-29 22:34:10.12	45.36	17.92	-44.1	-45.3	21.4	0.00e+00	0	41	0	370147328	60	3987
2026-01-29 22:34:11.09	45.54	17.99	-44.0	-45.1	21.5	0.00e+00	0	41	0	372244480	60	3897
2026-01-29 22:34:12.06	45.72	18.06	-44.4	-45.6	21.4	0.00e+00	0	41	0	373293056	59	4371
2026-01-29 22:34:13.03	45.90	18.14	-44.2	-45.3	21.7	0.00e+00	0	41	0	375390208	59	4222
2026-01-29 22:34:14.00	46.08	18.21	-44.1	-45.2	21.8	0.00e+00	0	41	0	377487360	59	4179
2026-01-29 22:34:14.98	46.26	18.28	-44.1	-45.2	21.8	0.00e+00	0	41	0	379584512	59	4177
2026-01-29 22:34:15.94	46.44	18.35	-44.0	-45.1	21.8	0.00e+00	0	41	0	380633088	59	4143
2026-01-29 22:34:16.91	46.62	18.42	-44.0	-45.1	21.9	0.00e+00	0	41	0	382730240	59	4134
2026-01-29 22:34:17.88	46.80	18.50	-44.1	-45.2	21.8	0.00e+00	0	41	0	384827392	59	4159
2026-01-29 22:34:18.85	46.99	18.57	-44.0	-45.1	21.9	0.00e+00	0	41	0	386924544	59	4137
2026-01-29 22:34:19.83	47.17	18.64	-43.9	-45.0	21.9	0.00e+00	0	41	0	387973120	59	4076
2026-01-29 22:34:20.80	47.36	18.71	-43.9	-45.1	21.9	0.00e+00	0	41	0	390070272	59	4099
2026-01-29 22:34:21.77	47.54	18.78	-43.9	-45.0	22.0	0.00e+00	0	42	0	392167424	59	4079
2026-01-29 22:34:22.74	47.73	18.85	-43.9	-45.0	22.0	0.00e+00	0	41	0	394264576	59	4066
2026-01-29 22:34:23.71	47.92	18.92	-43.9	-45.0	21.9	0.00e+00	0	41	0	395313152	59	4095
2026-01-29 22:34:24.68	48.11	19.00	-43.8	-44.9	22.1	0.00e+00	0	41	0	397410304	59	4048
2026-01-29 22:34:25.65	48.30	19.07	-43.8	-44.8	22.1	0.00e+00	0	41	0	399507456	59	4001
2026-01-29 22:34:26.62	48.49	19.14	-43.8	-44.9	22.1	0.00e+00	0	41	0	401604608	59	4020
2026-01-29 22:34:27.59	48.68	19.21	-43.7	-44.8	22.2	0.00e+00	0	41	0	402653184	59	3977
2026-01-29 22:34:28.56	48.87	19.28	-43.8	-44.9	22.1	0.00e+00	0	41	0	404750336	59	4024
2026-01-29 22:34:29.53	49.07	19.35	-43.7	-44.8	22.2	0.00e+00	0	41	0	406847488	59	3980
2026-01-29 22:34:30.50	49.26	19.42	-43.7	-44.8	22.2	0.00e+00	0	41	0	407896064	59	3965
2026-01-29 22:34:31.47	49.46	19.49	-43.8	-44.9	22.1	0.00e+00	0	41	0	409993216	59	4039
2026-01-29 22:34:32.44	49.65	19.56	-43.8	-44.9	22.1	0.00e+00	0	41	0	412090368	59	4017
2026-01-29 22:34:33.42	49.85	19.63	-43.8	-44.9	22.2	0.00e+00	0	41	0	414187520	59	4008
2026-01-29 22:34:34.39	50.05	19.70	-43.7	-44.8	22.2	0.00e+00	0	41	0	415236096	59	3977
2026-01-29 22:34:35.36	50.25	19.77	-43.7	-44.8	22.1	0.00e+00	0	41	0	417333248	59	3959
2026-01-29 22:34:36.33	50.45	19.84	-43.7	-44.7	22.2	0.00e+00	0	41	0	419430400	59	3952
2026-01-29 22:34:37.30	50.65	19.91	-43.6	-44.7	22.3	0.00e+00	0	41	0	421527552	59	3930
2026-01-29 22:34:38.27	50.85	19.98	-43.6	-44.7	22.3	0.00e+00	0	41	0	422576128	59	3936
2026-01-29 22:34:39.23	51.05	20.05	-43.7	-44.8	21.9	0.00e+00	0	41	0	424673280	59	3988
2026-01-29 22:34:40.20	51.25	20.12	-43.9	-45.0	22.1	0.00e+00	0	41	0	426770432	59	4052
2026-01-29 22:34:41.18	51.46	20.19	-44.0	-45.1	21.9	0.00e+00	0	41	0	427819008	59	4141
2026-01-29 22:34:42.14	51.66	20.25	-44.0	-45.2	21.9	0.00e+00	0	42	0	429916160	59	4155
2026-01-29 22:34:43.11	51.87	20.32	-44.1	-45.3	21.8	0.00e+00	0	41	0	432013312	59	4204
2026-01-29 22:34:44.08	52.07	20.39	-44.1	-45.2	21.8	0.00e+00	0	42	0	434110464	59	4168
2026-01-29 22:34:45.05	52.28	20.46	-44.0	-45.2	21.9	0.00e+00	0	41	0	435159040	59	4154
2026-01-29 22:34:46.03	52.49	20.53	-44.0	-45.1	22.0	0.00e+00	0	41	0	437256192	59	4104
2026-01-29 22:34:47.00	52.70	20.60	-43.8	-44.8	22.2	0.00e+00	0	41	0	439353344	59	4003
2026-01-29 22:34:47.97	52.91	20.66	-43.7	-44.8	22.3	0.00e+00	0	41	0	441450496	59	3964
2026-01-29 22:34:48.95	53.12	20.73	-43.7	-44.7	22.3	0.00e+00	0	41	0	442499072	59	3954
2026-01-29 22:34:49.92	53.34	20.80	-43.8	-44.9	22.1	0.00e+00	0	41	0	444596224	59	4013
2026-01-29 22:34:50.89	53.55	20.87	-44.0	-45.1	22.0	0.00e+00	0	41	0	446693376	59	4119
2026-01-29 22:34:51.86	53.76	20.93	-44.2	-45.3	21.8	0.00e+00	0	41	0	448790528	59	4223
2026-01-29 22:34:52.84	53.98	21.00	-44.3	-45.5	21.6	0.00e+00	0	41	0	449839104	59	4315
2026-01-29 22:34:53.81	54.20	21.07	-44.5	-45.7	21.4	0.00e+00	0	41	0	451936256	59	4416
2026-01-29 22:34:54.78	54.41	21.13	-44.6	-45.8	21.3	0.00e+00	0	41	0	454033408	59	4453
2026-01-29 22:34:55.75	54.63	21.20	-44.6	-45.8	21.3	0.00e+00	0	42	0	456130560	59	4468
2026-01-29 22:34:56.72	54.85	21.26	-44.6	-45.8	21.2	0.00e+00	0	41	0	457179136	59	4492
2026-01-29 22:34:57.69	55.07	21.33	-44.5	-45.7	21.4	0.00e+00	0	41	0	459276288	59	4397
2026-01-29 22:34:58.66	55.29	21.39	-44.4	-45.6	21.5	0.00e+00	0	41	0	461373440	59	4376
2026-01-29 22:34:59.63	55.51	21.46	-44.4	-45.6	21.5	0.00e+00	0	41	0	463470592	59	4373
2026-01-29 22:35:00.60	55.73	21.52	-44.5	-45.6	21.5	0.00e+00	0	41	0	464519168	59	4387
2026-01-29 22:35:01.57	55.95	21.59	-44.6	-45.8	21.3	0.00e+00	0	41	0	466616320	59	4469
2026-01-29 22:35:02.54	56.18	21.65	-44.7	-45.9	21.2	0.00e+00	0	41	0	468713472	59	4509
2026-01-29 22:35:03.51	56.40	21.72	-44.5	-45.7	21.1	0.00e+00	0	41	0	470810624	60	4166
2026-01-29 22:35:04.48	56.63	21.78	-44.7	-45.9	20.9	0.00e+00	0	41	0	471859200	60	4262
2026-01-29 22:35:05.45	56.85	21.84	-44.8	-46.1	20.8	0.00e+00	0	41	0	473956352	60	4341
2026-01-29 22:35:06.42	57.08	21.91	-44.8	-46.0	20.8	0.00e+00	0	42	0	476053504	60	4323
2026-01-29 22:35:07.39	57.31	21.97	-44.8	-46.0	20.8	0.00e+00	0	41	0	477102080	60	4324
2026-01-29 22:35:08.36	57.54	22.03	-44.7	-45.9	20.9	0.00e+00	0	41	0	479199232	60	4281
2026-01-29 22:35:09.34	57.77	22.09	-44.5	-45.7	21.1	0.00e+00	0	41	0	481296384	60	4154
2026-01-29 22:35:10.31	58.00	22.15	-44.2	-45.3	21.4	0.00e+00	0	41	0	483393536	60	4004
2026-01-29 22:35:11.28	58.24	22.22	-44.1	-45.2	21.6	0.00e+00	0	41	0	484442112	60	3947
2026-01-29 22:35:12.25	58.47	22.28	-44.1	-45.3	21.6	0.00e+00	0	41	0	486539264	60	3963
2026-01-29 22:35:13.22	58.70	22.34	-44.2	-45.4	21.4	0.00e+00	0	41	0	488636416	60	4017
2026-01-29 22:35:14.19	58.94	22.40	-44.2	-45.4	21.4	0.00e+00	0	41	0	489684992	60	4011
2026-01-29 22:35:15.17	59.17	22.46	-44.3	-45.4	21.4	0.00e+00	0	41	0	491782144	60	4042
2026-01-29 22:35:16.13	59.41	22.52	-44.3	-45.5	21.3	0.00e+00	0	41	0	493879296	60	4070
2026-01-29 22:35:17.11	59.65	22.58	-44.4	-45.6	21.3	0.00e+00	0	41	0	495976448	60	4108
2026-01-29 22:35:18.07	59.88	22.64	-44.3	-45.4	21.3	0.00e+00	0	41	0	497025024	60	4048
2026-01-29 22:35:19.04	60.12	22.70	-44.3	-45.4	21.4	0.00e+00	0	41	0	499122176	60	4044
2026-01-29 22:35:20.01	60.36	22.75	-44.3	-45.5	21.3	0.00e+00	0	41	0	501219328	60	4065
2026-01-29 22:35:20.98	60.60	22.81	-44.4	-45.5	21.3	0.00e+00	0	41	0	503316480	60	4085
2026-01-29 22:35:21.95	60.85	22.87	-44.4	-45.6	21.2	0.00e+00	0	41	0	504365056	60	4122
2026-01-29 22:35:22.92	61.09	22.93	-44.6	-45.8	21.0	0.00e+00	0	41	0	506462208	60	4232
2026-01-29 22:35:23.90	61.33	22.98	-44.7	-45.9	20.9	0.00e+00	0	42	0	508559360	60	4280
2026-01-29 22:35:24.88	61.58	23.04	-44.9	-46.2	20.7	0.00e+00	0	41	0	510656512	60	4399
2026-01-29 22:35:25.85	61.83	23.10	-45.1	-46.4	20.5	0.00e+00	0	41	0	511705088	60	4504
2026-01-29 22:35:26.82	62.07	23.15	-45.0	-46.3	20.6	0.00e+00	0	41	0	513802240	60	4459
2026-01-29 22:35:27.79	62.32	23.21	-45.0	-46.2	20.6	0.00e+00	0	41	0	515899392	60	4436
2026-01-29 22:35:28.77	62.57	23.26	-44.9	-46.2	20.7	0.00e+00	0	41	0	517996544	60	4396
2026-01-29 22:35:29.74	62.82	23.32	-44.8	-46.1	20.8	0.00e+00	0	42	0	519045120	60	4346
2026-01-29 22:35:30.71	63.07	23.37	-44.8	-46.0	20.9	0.00e+00	0	42	0	521142272	60	4331
2026-01-29 22:35:31.68	63.32	23.42	-45.0	-46.3	20.6	0.00e+00	0	41	0	523239424	60	4451
2026-01-29 22:35:32.66	63.57	23.48	-45.3	-46.6	20.3	0.00e+00	0	41	0	525336576	61	4369
2026-01-29 22:35:33.62	63.82	23.53	-45.5	-46.9	20.0	0.00e+00	0	41	0	526385152	61	4524
2026-01-29 22:35:34.59	64.07	23.58	-45.7	-47.1	19.8	0.00e+00	0	41	0	528482304	61	4630
2026-01-29 22:35:35.57	64.33	23.63	-45.8	-47.2	19.8	0.00e+00	0	41	0	530579456	62	4430
2026-01-29 22:35:36.53	64.58	23.68	-45.8	-47.2	19.7	0.00e+00	0	41	0	532676608	62	4427
2026-01-29 22:35:37.50	64.84	23.73	-45.6	-47.0	19.9	0.00e+00	0	41	0	533725184	62	4323
2026-01-29 22:35:38.47	65.09	23.78	-45.5	-46.9	20.0	0.00e+00	0	41	0	535822336	62	4263
2026-01-29 22:35:39.44	65.35	23.83	-45.4	-46.7	20.3	0.00e+00	0	41	0	537919488	62	4173
2026-01-29 22:35:40.42	65.61	23.88	-45.1	-46.4	20.5	0.00e+00	0	41	0	540016640	62	4013
2026-01-29 22:35:41.39	65.87	23.93	-44.7	-45.9	20.9	0.00e+00	0	41	0	541065216	61	4035
2026-01-29 22:35:42.37	66.13	23.98	-44.6	-45.8	21.0	0.00e+00	0	41	0	543162368	61	4004
2026-01-29 22:35:43.33	66.39	24.03	-44.9	-46.2	20.8	0.00e+00	0	41	0	545259520	61	4157
2026-01-29 22:35:44.30	66.65	24.07	-45.2	-46.5	20.5	0.00e+00	0	41	0	546308096	61	4297
2026-01-29 22:35:45.28	66.92	24.12	-45.6	-47.0	20.0	0.00e+00	0	42	0	548405248	61	4547
2026-01-29 22:35:46.25	67.18	24.17	-45.9	-47.4	19.6	0.00e+00	0	41	0	550502400	62	4524
2026-01-29 22:35:47.22	67.44	24.21	-46.2	-47.7	19.3	0.00e+00	0	42	0	552599552	62	4674
2026-01-29 22:35:48.19	67.70	24.26	-46.2	-47.7	19.3	0.00e+00	0	41	0	553648128	63	4429
2026-01-29 22:35:49.16	67.97	24.30	-46.0	-47.5	19.4	0.00e+00	0	41	0	555745280	63	4331
2026-01-29 22:35:50.13	68.23	24.35	-46.0	-47.4	19.6	0.00e+00	0	41	0	557842432	63	4271
2026-01-29 22:35:51.10	68.50	24.39	-45.9	-47.3	19.6	0.00e+00	0	41	0	558891008	63	4225
2026-01-29 22:35:52.07	68.77	24.43	-45.7	-47.1	19.8	0.00e+00	0	41	0	560988160	63	4145
2026-01-29 22:35:53.05	69.04	24.47	-45.8	-47.3	19.7	0.00e+00	0	41	0	563085312	63	4207
2026-01-29 22:35:54.02	69.31	24.52	-45.8	-47.2	19.7	0.00e+00	0	41	0	565182464	63	4192
2026-01-29 22:35:54.99	69.57	24.56	-46.0	-47.5	19.5	0.00e+00	0	41	0	566231040	63	4308
2026-01-29 22:35:55.97	69.85	24.60	-46.3	-47.8	19.2	0.00e+00	0	41	0	568328192	63	4479
2026-01-29 22:35:56.94	70.12	24.64	-46.5	-48.1	18.9	0.00e+00	0	42	0	570425344	63	4635
2026-01-29 22:35:57.91	70.39	24.68	-46.4	-48.0	19.0	0.00e+00	0	41	0	572522496	63	4577
2026-01-29 22:35:58.88	70.66	24.72	-46.6	-48.2	18.8	0.00e+00	0	41	0	573571072	63	4675
2026-01-29 22:35:59.85	70.93	24.75	-46.4	-47.9	19.0	0.00e+00	0	41	0	575668224	63	4528
2026-01-29 22:36:00.82	71.21	24.79	-46.3	-47.8	19.2	0.00e+00	0	41	0	577765376	63	4470
2026-01-29 22:36:01.80	71.48	24.83	-46.1	-47.6	19.4	0.00e+00	0	41	0	579862528	63	4372
2026-01-29 22:36:02.77	71.76	24.86	-46.0	-47.4	19.5	0.00e+00	0	41	0	580911104	63	4287
2026-01-29 22:36:03.74	72.03	24.90	-45.8	-47.2	19.7	0.00e+00	0	41	0	583008256	63	4175
2026-01-29 22:36:04.71	72.31	24.93	-45.7	-47.1	19.9	0.00e+00	0	42	0	585105408	63	4129
2026-01-29 22:36:05.68	72.58	24.97	-45.7	-47.1	19.8	0.00e+00	0	41	0	587202560	63	4131
2026-01-29 22:36:06.66	72.86	25.00	-45.7	-47.1	19.8	0.00e+00	0	41	0	588251136	63	4140
2026-01-29 22:36:07.63	73.14	25.04	-45.7	-47.1	19.9	0.00e+00	0	41	0	590348288	63	4125
2026-01-29 22:36:08.60	73.42	25.07	-45.8	-47.2	19.8	0.00e+00	0	41	0	592445440	63	4173
2026-01-29 22:36:09.57	73.69	25.10	-45.9	-47.3	19.6	0.00e+00	0	42	0	594542592	63	4206
2026-01-29 22:36:10.54	73.97	25.13	-45.6	-46.9	20.0	0.00e+00	0	41	0	595591168	63	4042
2026-01-29 22:36:11.52	74.26	25.16	-45.4	-46.8	20.2	0.00e+00	0	41	0	597688320	62	4207
2026-01-29 22:36:12.49	74.54	25.19	-45.2	-46.5	20.4	0.00e+00	0	41	0	599785472	62	4092
2026-01-29 22:36:13.46	74.82	25.22	-44.9	-46.2	20.7	0.00e+00	0	42	0	601882624	61	4154
2026-01-29 22:36:14.43	75.10	25.25	-44.9	-46.1	20.8	0.00e+00	0	41	0	602931200	61	4133
2026-01-29 22:36:15.40	75.38	25.27	-44.7	-45.9	21.0	0.00e+00	0	42	0	605028352	61	4039
2026-01-29 22:36:16.37	75.66	25.30	-44.6	-45.8	21.1	0.00e+00	0	41	0	607125504	61	3962
2026-01-29 22:36:17.35	75.95	25.33	-44.6	-45.9	21.0	0.00e+00	0	41	0	609222656	61	4006
2026-01-29 22:36:18.32	76.23	25.35	-44.6	-45.8	21.1	0.00e+00	0	42	0	610271232	61	3980
2026-01-29 22:36:19.29	76.51	25.38	-44.7	-45.9	21.0	0.00e+00	0	41	0	612368384	61	4039
2026-01-29 22:36:20.25	76.79	25.40	-44.8	-46.0	20.9	0.00e+00	0	41	0	614465536	61	4075
2026-01-29 22:36:21.22	77.08	25.43	-44.6	-45.9	21.0	0.00e+00	0	42	0	615514112	61	4010
2026-01-29 22:36:22.20	77.36	25.45	-44.6	-45.8	21.1	0.00e+00	0	41	0	617611264	61	4004
2026-01-29 22:36:23.17	77.65	25.47	-44.6	-45.8	21.1	0.00e+00	0	42	0	619708416	61	3984
2026-01-29 22:36:24.14	77.93	25.49	-44.6	-45.8	21.1	0.00e+00	0	41	0	621805568	61	3969
2026-01-29 22:36:25.11	78.22	25.51	-44.6	-45.8	21.1	0.00e+00	0	42	0	622854144	61	3990
2026-01-29 22:36:26.08	78.51	25.53	-44.8	-46.0	20.9	0.00e+00	0	42	0	624951296	61	4077
2026-01-29 22:36:27.05	78.79	25.55	-45.0	-46.3	20.6	0.00e+00	0	42	0	627048448	61	4225
2026-01-29 22:36:28.02	79.08	25.57	-45.4	-46.7	20.2	0.00e+00	0	41	0	629145600	61	4430
2026-01-29 22:36:28.99	79.37	25.59	-45.7	-47.1	19.9	0.00e+00	0	42	0	630194176	61	4615
2026-01-29 22:36:29.96	79.65	25.60	-45.8	-47.2	19.8	0.00e+00	0	42	0	632291328	62	4415
2026-01-29 22:36:30.93	79.94	25.62	-45.8	-47.3	19.7	0.00e+00	0	41	0	634388480	62	4446
2026-01-29 22:36:31.90	80.23	25.63	-45.8	-47.2	19.8	0.00e+00	0	41	0	635437056	62	4404
2026-01-29 22:36:32.87	80.52	25.65	-45.9	-47.3	19.7	0.00e+00	0	42	0	637534208	62	4482
2026-01-29 22:36:33.85	80.81	25.66	-45.7	-47.0	19.9	0.00e+00	0	42	0	639631360	62	4337
2026-01-29 22:36:34.81	81.09	25.68	-45.3	-46.6	20.3	0.00e+00	0	41	0	641728512	62	4122
2026-01-29 22:36:35.78	81.38	25.69	-45.0	-46.2	20.7	0.00e+00	0	42	0	642777088	61	4185
2026-01-29 22:36:36.75	81.67	25.70	-44.9	-46.1	20.8	0.00e+00	0	41	0	644874240	61	4130
2026-01-29 22:36:37.73	81.97	25.71	-44.7	-46.0	20.9	0.00e+00	0	41	0	646971392	61	4059
2026-01-29 22:36:38.70	82.26	25.72	-44.8	-46.0	20.8	0.00e+00	0	41	0	649068544	61	4083
2026-01-29 22:36:39.67	82.54	25.73	-44.8	-46.0	20.9	0.00e+00	0	41	0	650117120	61	4072
2026-01-29 22:36:40.64	82.83	25.74	-44.9	-46.1	20.8	0.00e+00	0	41	0	652214272	61	4144
2026-01-29 22:36:41.62	83.13	25.75	-45.0	-46.2	20.7	0.00e+00	0	41	0	654311424	61	4185
2026-01-29 22:36:42.59	83.42	25.75	-45.1	-46.4	20.6	0.00e+00	0	41	0	656408576	61	4265
2026-01-29 22:36:43.56	83.71	25.76	-44.9	-46.2	20.7	0.00e+00	0	41	0	657457152	61	4170
2026-01-29 22:36:44.53	84.00	25.77	-44.9	-46.1	20.8	0.00e+00	0	41	0	659554304	61	4125
2026-01-29 22:36:45.49	84.29	25.77	-44.7	-46.0	21.0	0.00e+00	0	41	0	661651456	61	4060
2026-01-29 22:36:46.47	84.58	25.77	-44.4	-45.6	21.3	0.00e+00	0	41	0	663748608	60	4107
2026-01-29 22:36:47.44	84.87	25.78	-44.0	-45.1	21.7	0.00e+00	0	41	0	664797184	60	3908
2026-01-29 22:36:48.41	85.16	25.78	-44.3	-45.4	21.7	0.00e+00	0	41	0	666894336	59	4283
2026-01-29 22:36:49.38	85.45	25.78	-44.2	-45.3	21.8	0.00e+00	0	41	0	668991488	59	4231
2026-01-29 22:36:50.35	85.74	25.78	-44.1	-45.2	22.0	0.00e+00	0	41	0	671088640	59	4171
2026-01-29 22:36:51.32	86.03	25.78	-44.3	-45.4	21.8	0.00e+00	0	41	0	672137216	59	4272
2026-01-29 22:36:52.29	86.32	25.78	-44.6	-45.8	21.4	0.00e+00	0	42	0	674234368	59	4476
2026-01-29 22:36:53.26	86.62	25.78	-44.7	-45.9	21.1	0.00e+00	0	41	0	676331520	60	4259
2026-01-29 22:36:54.23	86.91	25.78	-45.0	-46.2	20.7	0.00e+00	0	41	0	677380096	60	4433
2026-01-29 22:36:55.20	87.20	25.77	-45.0	-46.3	20.6	0.00e+00	0	41	0	679477248	60	4464
2026-01-29 22:36:56.18	87.49	25.77	-45.0	-46.3	20.6	0.00e+00	0	41	0	681574400	60	4484
2026-01-29 22:36:57.15	87.78	25.77	-44.8	-46.1	20.8	0.00e+00	0	41	0	683671552	60	4350
2026-01-29 22:36:58.12	88.07	25.76	-44.6	-45.8	21.1	0.00e+00	0	41	0	684720128	60	4226
2026-01-29 22:36:59.09	88.36	25.76	-44.3	-45.5	21.4	0.00e+00	0	42	0	686817280	60	4069
2026-01-29 22:37:00.06	88.65	25.75	-44.1	-45.3	21.6	0.00e+00	0	41	0	688914432	60	3965
2026-01-29 22:37:01.03	88.94	25.74	-44.2	-45.4	21.5	0.00e+00	0	41	0	691011584	60	4011
2026-01-29 22:37:02.00	89.23	25.73	-44.4	-45.6	21.4	0.00e+00	0	42	0	692060160	60	4099
2026-01-29 22:37:02.97	89.52	25.72	-44.8	-46.0	20.9	0.00e+00	0	41	0	694157312	60	4314
2026-01-29 22:37:03.94	89.81	25.71	-45.2	-46.4	20.5	0.00e+00	0	41	0	696254464	60	4542
2026-01-29 22:37:04.91	90.10	25.70	-45.5	-46.8	20.1	0.00e+00	0	41	0	698351616	61	4476
2026-01-29 22:37:05.88	90.39	25.69	-45.5	-46.9	20.1	0.00e+00	0	42	0	699400192	61	4502
2026-01-29 22:37:06.85	90.68	25.68	-45.6	-47.0	20.0	0.00e+00	0	42	0	701497344	61	4556
2026-01-29 22:37:07.82	90.97	25.67	-45.5	-46.8	20.2	0.00e+00	0	41	0	703594496	61	4481
2026-01-29 22:37:08.79	91.26	25.65	-45.5	-46.8	20.2	0.00e+00	0	41	0	704643072	61	4492
2026-01-29 22:37:09.77	91.55	25.64	-45.4	-46.7	20.2	0.00e+00	0	41	0	706740224	61	4440
2026-01-29 22:37:10.74	91.84	25.62	-45.4	-46.7	20.2	0.00e+00	0	41	0	708837376	61	4426
2026-01-29 22:37:11.71	92.13	25.61	-45.3	-46.6	20.3	0.00e+00	0	41	0	710934528	61	4388
2026-01-29 22:37:12.69	92.42	25.59	-45.0	-46.3	20.6	0.00e+00	0	41	0	711983104	61	4220
2026-01-29 22:37:13.66	92.70	25.57	-44.9	-46.2	20.7	0.00e+00	0	42	0	714080256	61	4156
2026-01-29 22:37:14.63	92.99	25.56	-44.9	-46.1	20.8	0.00e+00	0	41	0	716177408	61	4134
2026-01-29 22:37:15.60	93.28	25.54	-44.9	-46.2	20.7	0.00e+00	0	42	0	718274560	61	4165
2026-01-29 22:37:16.57	93.57	25.52	-45.1	-46.3	20.6	0.00e+00	0	41	0	719323136	61	4234
2026-01-29 22:37:17.55	93.85	25.50	-45.0	-46.3	20.7	0.00e+00	0	42	0	721420288	61	4194
2026-01-29 22:37:18.52	94.14	25.48	-44.9	-46.2	20.7	0.00e+00	0	41	0	723517440	61	4156
2026-01-29 22:37:19.49	94.43	25.45	-44.9	-46.2	20.8	0.00e+00	0	41	0	725614592	61	4149
2026-01-29 22:37:20.46	94.71	25.43	-44.6	-45.8	21.1	0.00e+00	0	41	0	726663168	61	3975
2026-01-29 22:37:21.44	95.00	25.41	-44.6	-45.8	21.1	0.00e+00	0	42	0	728760320	61	3968
2026-01-29 22:37:22.40	95.28	25.38	-44.4	-45.5	21.3	0.00e+00	0	42	0	730857472	60	4092
2026-01-29 22:37:23.37	95.56	25.36	-44.3	-45.4	21.4	0.00e+00	0	42	0	732954624	60	4046
2026-01-29 22:37:24.34	95.85	25.33	-44.6	-45.7	21.2	0.00e+00	0	42	0	734003200	60	4187
2026-01-29 22:37:25.31	96.13	25.31	-44.9	-46.1	20.8	0.00e+00	0	41	0	736100352	60	4380
2026-01-29 22:37:26.28	96.41	25.28	-45.1	-46.4	20.6	0.00e+00	0	41	0	738197504	60	4505
2026-01-29 22:37:27.25	96.69	25.25	-45.1	-46.4	20.5	0.00e+00	0	41	0	740294656	60	4536
2026-01-29 22:37:28.22	96.97	25.23	-44.9	-46.1	20.8	0.00e+00	0	41	0	741343232	60	4358
2026-01-29 22:37:29.19	97.26	25.20	-44.8	-46.0	20.9	0.00e+00	0	41	0	743440384	60	4309
2026-01-29 22:37:30.16	97.54	25.17	-44.8	-46.1	20.9	0.00e+00	0	41	0	745537536	60	4360
2026-01-29 22:37:31.14	97.82	25.14	-44.5	-45.7	21.2	0.00e+00	0	42	0	746586112	60	4177
2026-01-29 22:37:32.11	98.10	25.11	-44.5	-45.7	21.2	0.00e+00	0	41	0	748683264	60	4170
2026-01-29 22:37:33.08	98.38	25.08	-44.6	-45.8	21.1	0.00e+00	0	41	0	750780416	60	4239
2026-01-29 22:37:34.06	98.66	25.04	-44.6	-45.8	21.2	0.00e+00	0	42	0	752877568	60	4197
2026-01-29 22:37:35.03	98.94	25.01	-44.4	-45.6	21.3	0.00e+00	0	41	0	753926144	60	4110
2026-01-29 22:37:36.00	99.21	24.98	-44.4	-45.5	21.4	0.00e+00	0	41	0	756023296	60	4079
2026-01-29 22:37:36.98	99.49	24.94	-44.4	-45.5	21.3	0.00e+00	0	41	0	758120448	60	4095
2026-01-29 22:37:37.95	99.77	24.91	-44.2	-45.3	21.5	0.00e+00	0	41	0	760217600	60	3984
2026-01-29 22:37:38.93	100.05	24.87	-44.0	-45.1	21.7	0.00e+00	0	42	0	761266176	60	3903
2026-01-29 22:37:39.89	100.32	24.84	-44.2	-45.3	21.9	0.00e+00	0	41	0	763363328	59	4206
2026-01-29 22:37:40.86	100.59	24.80	-44.1	-45.2	22.0	0.00e+00	0	41	0	765460480	59	4152
2026-01-29 22:37:41.83	100.87	24.76	-43.9	-45.0	22.2	0.00e+00	0	41	0	767557632	59	4055
2026-01-29 22:37:42.81	101.14	24.72	-43.8	-44.9	22.3	0.00e+00	0	41	0	768606208	59	4008
2026-01-29 22:37:43.78	101.42	24.68	-43.9	-45.0	22.2	0.00e+00	0	42	0	770703360	59	4056
2026-01-29 22:37:44.76	101.69	24.65	-43.8	-44.9	22.3	0.00e+00	0	41	0	772800512	59	4007
2026-01-29 22:37:45.73	101.96	24.61	-43.9	-45.0	22.2	0.00e+00	0	42	0	774897664	59	4064
2026-01-29 22:37:46.69	102.23	24.57	-43.9	-45.0	22.2	0.00e+00	0	41	0	775946240	59	4094
2026-01-29 22:37:47.67	102.50	24.52	-43.9	-45.0	22.2	0.00e+00	0	42	0	778043392	59	4082
2026-01-29 22:37:48.64	102.77	24.48	-43.9	-44.9	22.2	0.00e+00	0	41	0	780140544	59	4044
2026-01-29 22:37:49.61	103.04	24.44	-43.8	-44.9	22.3	0.00e+00	0	42	0	782237696	59	4037
2026-01-29 22:37:50.58	103.31	24.40	-43.9	-45.0	22.2	0.00e+00	0	42	0	783286272	59	4067
2026-01-29 22:37:51.55	103.57	24.35	-43.9	-44.9	22.2	0.00e+00	0	41	0	785383424	59	4045
2026-01-29 22:37:52.52	103.84	24.31	-44.0	-45.1	22.1	0.00e+00	0	41	0	787480576	59	4123
2026-01-29 22:37:53.50	104.11	24.27	-43.9	-45.0	22.1	0.00e+00	0	41	0	788529152	59	4080
2026-01-29 22:37:54.47	104.37	24.22	-43.9	-45.0	22.2	0.00e+00	0	42	0	790626304	59	4056
2026-01-29 22:37:55.44	104.64	24.18	-43.8	-44.9	22.3	0.00e+00	0	42	0	792723456	59	4020
2026-01-29 22:37:56.41	104.90	24.13	-43.6	-44.6	22.5	0.00e+00	0	42	0	794820608	59	3911
2026-01-29 22:37:57.38	105.16	24.08	-43.3	-44.3	22.8	0.00e+00	0	42	0	795869184	58	4001
2026-01-29 22:37:58.35	105.42	24.04	-43.2	-44.2	22.9	0.00e+00	0	41	0	797966336	58	3943
2026-01-29 22:37:59.33	105.69	23.99	-43.3	-44.3	22.7	0.00e+00	0	41	0	800063488	58	3992
2026-01-29 22:38:00.30	105.95	23.94	-43.5	-44.5	22.6	0.00e+00	0	42	0	802160640	58	4098
2026-01-29 22:38:01.27	106.21	23.89	-43.8	-44.9	22.3	0.00e+00	0	41	0	803209216	58	4248
2026-01-29 22:38:02.24	106.46	23.84	-44.0	-45.1	22.1	0.00e+00	0	42	0	805306368	58	4362
2026-01-29 22:38:03.21	106.72	23.79	-43.9	-45.0	22.2	0.00e+00	0	42	0	807403520	58	4309
2026-01-29 22:38:04.18	106.98	23.74	-43.8	-44.9	22.2	0.00e+00	0	41	0	808452096	58	4265
2026-01-29 22:38:05.15	107.23	23.69	-43.7	-44.7	22.4	0.00e+00	0	41	0	810549248	58	4173
2026-01-29 22:38:06.13	107.49	23.64	-43.3	-44.3	22.8	0.00e+00	0	42	0	812646400	58	3982
2026-01-29 22:38:07.10	107.75	23.59	-43.2	-44.2	22.9	0.00e+00	0	41	0	814743552	58	3942
2026-01-29 22:38:08.07	108.00	23.54	-43.2	-44.2	22.9	0.00e+00	0	41	0	815792128	58	3921
2026-01-29 22:38:09.04	108.25	23.48	-43.2	-44.2	22.8	0.00e+00	0	42	0	817889280	58	3918
2026-01-29 22:38:10.01	108.51	23.43	-43.3	-44.3	22.7	0.00e+00	0	41	0	819986432	58	3980
2026-01-29 22:38:10.99	108.76	23.38	-43.5	-44.6	22.6	0.00e+00	0	42	0	822083584	58	4103
2026-01-29 22:38:11.96	109.01	23.32	-43.7	-44.7	22.5	0.00e+00	0	42	0	823132160	58	4186
2026-01-29 22:38:12.93	109.26	23.27	-43.9	-44.9	22.2	0.00e+00	0	42	0	825229312	58	4287
2026-01-29 22:38:13.90	109.51	23.21	-44.0	-45.1	22.1	0.00e+00	0	42	0	827326464	58	4349
2026-01-29 22:38:14.87	109.76	23.16	-44.3	-45.4	21.7	0.00e+00	0	41	0	829423616	59	4258
2026-01-29 22:38:15.84	110.00	23.10	-44.5	-45.7	21.5	0.00e+00	0	42	0	830472192	59	4393
2026-01-29 22:38:16.81	110.25	23.05	-44.4	-45.6	21.3	0.00e+00	0	42	0	832569344	60	4111
2026-01-29 22:38:17.78	110.49	22.99	-44.5	-45.7	21.1	0.00e+00	0	42	0	834666496	60	4176
2026-01-29 22:38:18.75	110.74	22.93	-44.7	-45.9	21.1	0.00e+00	0	42	0	836763648	60	4254
2026-01-29 22:38:19.73	110.99	22.88	-44.5	-45.7	21.2	0.00e+00	0	42	0	837812224	60	4188
2026-01-29 22:38:20.70	111.23	22.82	-44.4	-45.6	21.2	0.00e+00	0	42	0	839909376	60	4125
2026-01-29 22:38:21.68	111.47	22.76	-44.3	-45.5	21.4	0.00e+00	0	41	0	842006528	60	4074
2026-01-29 22:38:22.65	111.71	22.70	-44.4	-45.6	21.4	0.00e+00	0	41	0	844103680	60	4102
2026-01-29 22:38:23.62	111.95	22.64	-44.3	-45.5	21.3	0.00e+00	0	42	0	845152256	60	4081
2026-01-29 22:38:24.59	112.19	22.58	-44.4	-45.6	21.3	0.00e+00	0	41	0	847249408	60	4106
2026-01-29 22:38:25.56	112.43	22.52	-44.3	-45.5	21.3	0.00e+00	0	41	0	849346560	60	4076
2026-01-29 22:38:26.54	112.67	22.46	-44.3	-45.4	21.3	0.00e+00	0	41	0	851443712	60	4041
2026-01-29 22:38:27.51	112.91	22.40	-44.3	-45.5	21.4	0.00e+00	0	41	0	852492288	60	4080
2026-01-29 22:38:28.48	113.14	22.34	-44.1	-45.3	21.5	0.00e+00	0	41	0	854589440	60	3972
2026-01-29 22:38:29.45	113.38	22.28	-44.2	-45.4	21.4	0.00e+00	0	42	0	856686592	60	4020
2026-01-29 22:38:30.43	113.61	22.22	-44.2	-45.3	21.5	0.00e+00	0	42	0	858783744	60	3999
2026-01-29 22:38:31.40	113.85	22.16	-44.3	-45.4	21.4	0.00e+00	0	42	0	859832320	60	4049
2026-01-29 22:38:32.37	114.08	22.09	-44.3	-45.4	21.4	0.00e+00	0	41	0	861929472	60	4035
2026-01-29 22:38:33.34	114.31	22.03	-44.4	-45.6	21.3	0.00e+00	0	42	0	864026624	60	4129
2026-01-29 22:38:34.31	114.54	21.97	-44.3	-45.5	21.4	0.00e+00	0	41	0	865075200	60	4076
2026-01-29 22:38:35.28	114.77	21.91	-44.5	-45.7	21.2	0.00e+00	0	42	0	867172352	60	4180
2026-01-29 22:38:36.25	115.00	21.84	-44.5	-45.7	21.2	0.00e+00	0	41	0	869269504	60	4183
2026-01-29 22:38:37.22	115.22	21.78	-44.5	-45.7	21.1	0.00e+00	0	41	0	871366656	60	4178
2026-01-29 22:38:38.20	115.45	21.72	-44.6	-45.8	21.1	0.00e+00	0	41	0	872415232	60	4225
2026-01-29 22:38:39.17	115.68	21.65	-44.6	-45.8	21.1	0.00e+00	0	41	0	874512384	60	4223
2026-01-29 22:38:40.14	115.90	21.59	-44.5	-45.8	21.1	0.00e+00	0	41	0	876609536	60	4195
2026-01-29 22:38:41.11	116.13	21.52	-44.2	-45.4	21.4	0.00e+00	0	42	0	878706688	60	4021
2026-01-29 22:38:42.08	116.35	21.46	-44.3	-45.4	21.3	0.00e+00	0	42	0	879755264	60	4050
2026-01-29 22:38:43.04	116.57	21.39	-44.1	-45.3	21.5	0.00e+00	0	42	0	881852416	60	3978
2026-01-29 22:38:44.01	116.79	21.33	-44.0	-45.1	21.7	0.00e+00	0	41	0	883949568	60	3900
2026-01-29 22:38:44.98	117.01	21.26	-44.5	-45.7	21.4	0.00e+00	0	42	0	884998144	59	4432
2026-01-29 22:38:45.95	117.23	21.20	-44.7	-45.9	21.3	0.00e+00	0	42	0	887095296	59	4512
2026-01-29 22:38:46.92	117.45	21.13	-44.4	-45.5	21.3	0.00e+00	0	41	0	889192448	60	4094
2026-01-29 22:38:47.89	117.67	21.06	-44.3	-45.5	21.2	0.00e+00	0	42	0	891289600	60	4083
2026-01-29 22:38:48.86	117.88	21.00	-44.3	-45.5	21.4	0.00e+00	0	41	0	892338176	60	4056
2026-01-29 22:38:49.84	118.10	20.93	-44.2	-45.3	21.4	0.00e+00	0	41	0	894435328	60	3981
2026-01-29 22:38:50.81	118.31	20.86	-44.3	-45.4	21.7	0.00e+00	0	42	0	896532480	59	4281
2026-01-29 22:38:51.78	118.53	20.79	-44.3	-45.4	21.7	0.00e+00	0	41	0	898629632	59	4267
2026-01-29 22:38:52.75	118.74	20.73	-44.5	-45.6	21.5	0.00e+00	0	41	0	899678208	59	4384
2026-01-29 22:38:53.72	118.95	20.66	-44.5	-45.7	21.4	0.00e+00	0	42	0	901775360	59	4422
2026-01-29 22:38:54.70	119.17	20.59	-44.4	-45.5	21.2	0.00e+00	0	42	0	903872512	60	4096
2026-01-29 22:38:55.67	119.38	20.52	-44.3	-45.4	21.3	0.00e+00	0	41	0	905969664	60	4039
2026-01-29 22:38:56.64	119.59	20.45	-44.3	-45.5	21.3	0.00e+00	0	42	0	907018240	60	4061
2026-01-29 22:38:57.62	119.80	20.38	-44.2	-45.4	21.3	0.00e+00	0	41	0	909115392	60	4028
2026-01-29 22:38:58.59	120.00	20.32	-44.3	-45.4	21.3	0.00e+00	0	42	0	911212544	60	4043
2026-01-29 22:38:59.56	120.21	20.25	-44.5	-45.7	21.0	0.00e+00	0	41	0	913309696	60	4165
2026-01-29 22:39:00.54	120.42	20.18	-44.8	-46.0	20.7	0.00e+00	0	41	0	914358272	60	4337
2026-01-29 22:39:01.51	120.62	20.11	-45.2	-46.5	20.3	0.00e+00	0	41	0	916455424	61	4333
2026-01-29 22:39:02.48	120.83	20.04	-45.7	-47.1	19.8	0.00e+00	0	42	0	918552576	61	4627
2026-01-29 22:39:03.45	121.03	19.97	-45.8	-47.3	19.6	0.00e+00	0	41	0	920649728	62	4459
2026-01-29 22:39:04.42	121.23	19.90	-45.7	-47.2	19.6	0.00e+00	0	41	0	921698304	62	4407
2026-01-29 22:39:05.39	121.43	19.83	-45.5	-46.9	19.9	0.00e+00	0	41	0	923795456	62	4271
2026-01-29 22:39:06.36	121.63	19.76	-45.3	-46.7	20.2	0.00e+00	0	41	0	925892608	62	4165
2026-01-29 22:39:07.34	121.83	19.69	-44.9	-46.2	20.7	0.00e+00	0	41	0	926941184	61	4148
2026-01-29 22:39:08.30	122.03	19.62	-44.7	-45.9	20.9	0.00e+00	0	42	0	929038336	61	4023
2026-01-29 22:39:09.28	122.23	19.55	-44.8	-46.0	20.7	0.00e+00	0	41	0	931135488	61	4090
2026-01-29 22:39:10.25	122.43	19.48	-45.0	-46.3	20.5	0.00e+00	0	41	0	933232640	61	4226
2026-01-29 22:39:11.22	122.62	19.41	-45.4	-46.8	20.0	0.00e+00	0	41	0	934281216	61	4468
2026-01-29 22:39:12.19	122.82	19.34	-45.6	-47.0	19.8	0.00e+00	0	41	0	936378368	61	4563
2026-01-29 22:39:13.16	123.01	19.26	-45.4	-46.8	20.0	0.00e+00	0	42	0	938475520	61	4474
2026-01-29 22:39:14.13	123.21	19.19	-45.3	-46.6	20.2	0.00e+00	0	41	0	940572672	61	4388
2026-01-29 22:39:15.10	123.40	19.12	-45.0	-46.3	20.5	0.00e+00	0	41	0	941621248	61	4195
2026-01-29 22:39:16.08	123.59	19.05	-44.7	-45.9	20.8	0.00e+00	0	42	0	943718400	61	4043
2026-01-29 22:39:17.05	123.78	18.98	-44.5	-45.7	21.0	0.00e+00	0	42	0	945815552	60	4150
2026-01-29 22:39:18.02	123.97	18.91	-44.4	-45.6	21.1	0.00e+00	0	42	0	947912704	60	4127
2026-01-29 22:39:18.99	124.16	18.84	-44.7	-46.0	20.7	0.00e+00	0	41	0	948961280	60	4301
2026-01-29 22:39:19.97	124.35	18.76	-45.0	-46.3	20.4	0.00e+00	0	41	0	951058432	60	4481
2026-01-29 22:39:20.94	124.54	18.69	-45.2	-46.5	20.2	0.00e+00	0	41	0	953155584	60	4573
2026-01-29 22:39:21.92	124.73	18.62	-45.2	-46.6	20.1	0.00e+00	0	41	0	955252736	61	4351
2026-01-29 22:39:22.89	124.91	18.55	-45.1	-46.4	20.2	0.00e+00	0	41	0	956301312	61	4274
2026-01-29 22:39:23.86	125.10	18.48	-44.9	-46.2	20.4	0.00e+00	0	42	0	958398464	61	4187
2026-01-29 22:39:24.84	125.28	18.40	-44.9	-46.2	20.4	0.00e+00	0	42	0	960495616	61	4185
2026-01-29 22:39:25.81	125.46	18.33	-44.8	-46.0	20.6	0.00e+00	0	42	0	962592768	61	4092
2026-01-29 22:39:26.79	125.65	18.26	-44.9	-46.2	20.4	0.00e+00	0	42	0	963641344	61	4165
2026-01-29 22:39:27.77	125.83	18.18	-45.2	-46.6	20.1	0.00e+00	0	42	0	965738496	61	4341
2026-01-29 22:39:28.74	126.01	18.11	-45.5	-47.0	19.7	0.00e+00	0	42	0	967835648	61	4546
2026-01-29 22:39:29.71	126.19	18.04	-45.6	-47.1	19.6	0.00e+00	0	41	0	969932800	61	4629
2026-01-29 22:39:30.69	126.37	17.97	-45.7	-47.2	19.5	0.00e+00	0	42	0	970981376	62	4402
2026-01-29 22:39:31.67	126.55	17.89	-45.3	-46.6	20.0	0.00e+00	0	42	0	973078528	62	4143
2026-01-29 22:39:32.64	126.73	17.82	-44.9	-46.2	20.4	0.00e+00	0	42	0	975175680	61	4176
2026-01-29 22:39:33.61	126.90	17.75	-44.8	-46.1	20.5	0.00e+00	0	42	0	977272832	61	4119
2026-01-29 22:39:34.58	127.08	17.68	-44.5	-45.7	20.8	0.00e+00	0	42	0	978321408	61	3947
2026-01-29 22:39:35.55	127.25	17.60	-44.0	-45.2	21.4	0.00e+00	0	42	0	980418560	60	3935
2026-01-29 22:39:36.53	127.43	17.53	-44.5	-45.7	21.1	0.00e+00	0	42	0	982515712	59	4415
2026-01-29 22:39:37.50	127.60	17.46	-44.4	-45.6	20.9	0.00e+00	0	42	0	983564288	60	4130
2026-01-29 22:39:38.48	127.78	17.38	-44.9	-46.2	20.4	0.00e+00	0	41	0	985661440	60	4423
2026-01-29 22:39:39.45	127.95	17.31	-45.6	-47.1	19.6	0.00e+00	0	41	0	987758592	61	4603
2026-01-29 22:39:40.42	128.12	17.24	-45.9	-47.5	19.2	0.00e+00	0	42	0	989855744	62	4551
2026-01-29 22:39:41.40	128.29	17.16	-45.9	-47.5	19.2	0.00e+00	0	42	0	990904320	62	4560
2026-01-29 22:39:42.38	128.46	17.09	-45.9	-47.5	19.2	0.00e+00	0	41	0	993001472	62	4547
2026-01-29 22:39:43.35	128.63	17.02	-45.5	-46.9	19.6	0.00e+00	0	41	0	995098624	62	4284
2026-01-29 22:39:44.32	128.80	16.94	-45.2	-46.6	19.9	0.00e+00	0	41	0	997195776	62	4122
2026-01-29 22:39:45.30	128.96	16.87	-44.9	-46.2	20.3	0.00e+00	0	41	0	998244352	61	4177
2026-01-29 22:39:46.27	129.13	16.80	-44.8	-46.0	20.5	0.00e+00	0	42	0	1000341504	61	4098
2026-01-29 22:39:47.24	129.30	16.72	-44.7	-46.0	20.5	0.00e+00	0	41	0	1002438656	61	4081
2026-01-29 22:39:48.22	129.46	16.65	-44.8	-46.1	20.4	0.00e+00	0	41	0	1004535808	61	4141
2026-01-29 22:39:49.19	129.62	16.58	-44.9	-46.3	20.3	0.00e+00	0	42	0	1005584384	61	4197
2026-01-29 22:39:50.17	129.79	16.50	-45.0	-46.4	20.1	0.00e+00	0	42	0	1007681536	61	4254
2026-01-29 22:39:51.15	129.95	16.43	-45.1	-46.5	20.0	0.00e+00	0	41	0	1009778688	61	4322
2026-01-29 22:39:52.12	130.11	16.36	-45.0	-46.4	20.1	0.00e+00	0	41	0	1011875840	61	4261
2026-01-29 22:39:53.10	130.28	16.28	-44.9	-46.2	20.3	0.00e+00	0	42	0	1012924416	61	4163
2026-01-29 22:39:54.07	130.44	16.21	-44.7	-46.0	20.4	0.00e+00	0	41	0	1015021568	61	4092
2026-01-29 22:39:55.05	130.60	16.14	-44.6	-45.8	20.6	0.00e+00	0	41	0	1017118720	61	3994
2026-01-29 22:39:56.03	130.76	16.06	-44.6	-45.9	20.6	0.00e+00	0	41	0	1019215872	61	4022
2026-01-29 22:39:57.00	130.91	15.99	-44.6	-45.9	20.6	0.00e+00	0	41	0	1020264448	61	4010
2026-01-29 22:39:57.98	131.07	15.92	-44.7	-46.0	20.4	0.00e+00	0	42	0	1022361600	61	4086
2026-01-29 22:39:58.96	131.23	15.84	-44.8	-46.1	20.4	0.00e+00	0	41	0	1024458752	61	4119
2026-01-29 22:39:59.93	131.38	15.77	-45.0	-46.4	20.0	0.00e+00	0	41	0	1026555904	61	4268
2026-01-29 22:40:00.91	131.54	15.70	-44.9	-46.3	20.2	0.00e+00	0	41	0	1027604480	61	4215
2026-01-29 22:40:01.89	131.69	15.62	-45.0	-46.4	20.0	0.00e+00	0	41	0	1029701632	61	4244
2026-01-29 22:40:02.87	131.85	15.55	-45.0	-46.3	20.1	0.00e+00	0	42	0	1031798784	61	4229
2026-01-29 22:40:03.85	132.00	15.48	-44.8	-46.1	20.3	0.00e+00	0	42	0	1033895936	61	4141
2026-01-29 22:40:04.83	132.16	15.40	-44.7	-46.0	20.4	0.00e+00	0	42	0	1034944512	61	4062
2026-01-29 22:40:05.81	132.31	15.33	-44.7	-46.0	20.4	0.00e+00	0	42	0	1037041664	61	4077
2026-01-29 22:40:06.80	132.46	15.25	-44.6	-45.9	20.5	0.00e+00	0	41	0	1039138816	61	4028
2026-01-29 22:40:07.78	132.61	15.18	-44.5	-45.8	20.6	0.00e+00	0	42	0	1041235968	61	3981
2026-01-29 22:40:08.76	132.76	15.11	-44.6	-45.9	20.6	0.00e+00	0	42	0	1042284544	61	4019
2026-01-29 22:40:09.75	132.91	15.03	-44.7	-46.0	20.4	0.00e+00	0	41	0	1044381696	61	4080
2026-01-29 22:40:10.73	133.06	14.96	-44.7	-46.0	20.4	0.00e+00	0	42	0	1046478848	61	4087
2026-01-29 22:40:11.72	133.21	14.89	-44.7	-46.0	20.4	0.00e+00	0	41	0	1048576000	61	4080
2026-01-29 22:40:12.70	133.36	14.81	-44.8	-46.1	20.3	0.00e+00	0	41	0	1049624576	61	4118
2026-01-29 22:40:13.69	133.51	14.74	-44.7	-46.0	20.3	0.00e+00	0	42	0	1051721728	61	4091
2026-01-29 22:40:14.67	133.65	14.67	-44.7	-46.1	20.4	0.00e+00	0	42	0	1053818880	61	4099
2026-01-29 22:40:15.65	133.80	14.59	-44.6	-45.9	20.5	0.00e+00	0	42	0	1055916032	61	4006
2026-01-29 22:40:16.65	133.95	14.52	-44.5	-45.8	20.5	0.00e+00	0	42	0	1056964608	61	3995
2026-01-29 22:40:17.64	134.09	14.45	-44.4	-45.7	20.7	0.00e+00	0	42	0	1059061760	60	4155
2026-01-29 22:40:18.63	134.24	14.37	-44.3	-45.6	20.8	0.00e+00	0	41	0	1061158912	60	4106
2026-01-29 22:40:19.63	134.38	14.30	-44.4	-45.7	20.6	0.00e+00	0	42	0	1063256064	60	4165
2026-01-29 22:40:20.62	134.53	14.22	-44.3	-45.5	20.8	0.00e+00	0	41	0	1065353216	60	4085
2026-01-29 22:40:21.61	134.67	14.15	-44.3	-45.6	20.8	0.00e+00	0	42	0	1066401792	60	4117
2026-01-29 22:40:22.60	134.81	14.08	-44.3	-45.6	20.7	0.00e+00	0	41	0	1068498944	60	4104
2026-01-29 22:40:23.59	134.95	14.00	-44.3	-45.6	20.8	0.00e+00	0	42	0	1070596096	60	4101
2026-01-29 22:40:24.58	135.09	13.93	-44.5	-45.8	20.5	0.00e+00	0	41	0	1072693248	60	4233
2026-01-29 22:40:25.57	135.23	13.86	-44.5	-45.8	20.5	0.00e+00	0	41	0	1073741824	60	4235
2026-01-29 22:40:26.56	135.37	13.78	-44.6	-45.9	20.4	0.00e+00	0	41	0	1075838976	60	4282
2026-01-29 22:40:27.54	135.51	13.71	-44.7	-46.1	20.2	0.00e+00	0	41	0	1077936128	60	4351
2026-01-29 22:40:28.52	135.64	13.64	-44.8	-46.2	20.1	0.00e+00	0	41	0	1080033280	60	4403
2026-01-29 22:40:29.50	135.78	13.57	-44.9	-46.2	20.1	0.00e+00	0	41	0	1081081856	60	4421
2026-01-29 22:40:30.49	135.92	13.50	-45.0	-46.4	19.9	0.00e+00	0	41	0	1083179008	60	4535
2026-01-29 22:40:31.48	136.05	13.42	-45.0	-46.3	19.9	0.00e+00	0	41	0	1085276160	60	4489
2026-01-29 22:40:32.46	136.19	13.35	-45.1	-46.4	19.9	0.00e+00	0	42	0	1087373312	60	4543
2026-01-29 22:40:33.45	136.32	13.28	-45.0	-46.3	19.9	0.00e+00	0	41	0	1088421888	60	4483
2026-01-29 22:40:34.43	136.45	13.21	-44.9	-46.3	20.0	0.00e+00	0	42	0	1090519040	60	4455
2026-01-29 22:40:35.42	136.59	13.13	-45.0	-46.4	19.8	0.00e+00	0	41	0	1092616192	60	4537
2026-01-29 22:40:36.40	136.72	13.06	-45.0	-46.4	19.9	0.00e+00	0	42	0	1094713344	60	4495
2026-01-29 22:40:37.39	136.85	12.99	-45.0	-46.4	19.9	0.00e+00	0	41	0	1095761920	60	4506
2026-01-29 22:40:38.38	136.98	12.92	-45.0	-46.4	19.9	0.00e+00	0	42	0	1097859072	60	4531
2026-01-29 22:40:39.36	137.11	12.85	-45.1	-46.5	19.8	0.00e+00	0	41	0	1099956224	60	4556
2026-01-29 22:40:40.35	137.24	12.77	-45.1	-46.5	19.8	0.00e+00	0	41	0	1102053376	60	4551
2026-01-29 22:40:41.34	137.37	12.70	-45.0	-46.4	19.8	0.00e+00	0	41	0	1104150528	60	4526
2026-01-29 22:40:42.34	137.50	12.63	-44.9	-46.3	19.9	0.00e+00	0	41	0	1105199104	60	4488
2026-01-29 22:40:43.34	137.63	12.56	-45.0	-46.4	19.9	0.00e+00	0	41	0	1107296256	60	4511
2026-01-29 22:40:44.34	137.76	12.48	-44.9	-46.3	20.0	0.00e+00	0	41	0	1109393408	60	4445
2026-01-29 22:40:45.34	137.89	12.41	-44.8	-46.2	20.1	0.00e+00	0	41	0	1111490560	60	4420
2026-01-29 22:40:46.34	138.02	12.34	-44.8	-46.2	20.0	0.00e+00	0	41	0	1113587712	60	4413
2026-01-29 22:40:47.35	138.15	12.27	-44.7	-46.0	20.1	0.00e+00	0	41	0	1114636288	60	4323
2026-01-29 22:40:48.35	138.27	12.19	-44.8	-46.2	20.0	0.00e+00	0	42	0	1116733440	60	4414
2026-01-29 22:40:49.36	138.40	12.12	-45.0	-46.4	19.8	0.00e+00	0	42	0	1118830592	60	4503
2026-01-29 22:40:50.36	138.53	12.05	-45.1	-46.5	19.7	0.00e+00	0	42	0	1120927744	60	4573
2026-01-29 22:40:51.37	138.65	11.98	-45.3	-46.7	19.5	0.00e+00	0	41	0	1121976320	61	4438
2026-01-29 22:40:52.38	138.78	11.90	-45.4	-46.9	19.3	0.00e+00	0	41	0	1124073472	61	4525
2026-01-29 22:40:53.38	138.90	11.83	-45.7	-47.2	19.1	0.00e+00	0	42	0	1126170624	61	4692
2026-01-29 22:40:54.39	139.03	11.76	-45.8	-47.4	18.8	0.00e+00	0	42	0	1128267776	62	4538
2026-01-29 22:40:55.40	139.15	11.69	-45.8	-47.4	18.8	0.00e+00	0	41	0	1130364928	62	4526
2026-01-29 22:40:56.41	139.27	11.62	-46.1	-47.8	18.5	0.00e+00	0	41	0	1132462080	62	4739
2026-01-29 22:40:57.41	139.40	11.55	-46.3	-48.0	18.3	0.00e+00	0	42	0	1133510656	63	4585
2026-01-29 22:40:58.42	139.52	11.47	-46.3	-48.0	18.3	0.00e+00	0	41	0	1135607808	63	4567
2026-01-29 22:40:59.42	139.64	11.40	-46.5	-48.3	18.0	0.00e+00	0	41	0	1137704960	63	4711
2026-01-29 22:41:00.41	139.76	11.33	-46.4	-48.1	18.1	0.00e+00	0	41	0	1139802112	63	4631
2026-01-29 22:41:01.42	139.88	11.26	-46.3	-48.1	18.2	0.00e+00	0	41	0	1141899264	63	4625
2026-01-29 22:41:02.43	140.00	11.19	-46.3	-48.1	18.2	0.00e+00	0	42	0	1142947840	63	4630
2026-01-29 22:41:03.44	140.12	11.12	-46.2	-48.0	18.2	0.00e+00	0	42	0	1145044992	63	4548
2026-01-29 22:41:04.44	140.23	11.05	-46.3	-48.1	18.2	0.00e+00	0	41	0	1147142144	63	4605
2026-01-29 22:41:05.44	140.35	10.98	-46.3	-48.0	18.2	0.00e+00	0	41	0	1149239296	63	4596
2026-01-29 22:41:06.45	140.47	10.91	-46.2	-47.9	18.3	0.00e+00	0	42	0	1150287872	63	4511
2026-01-29 22:41:07.46	140.59	10.83	-46.3	-48.0	18.2	0.00e+00	0	42	0	1152385024	63	4577
2026-01-29 22:41:08.47	140.70	10.76	-46.1	-47.8	18.3	0.00e+00	0	42	0	1154482176	63	4493
2026-01-29 22:41:09.47	140.82	10.69	-46.2	-48.0	18.3	0.00e+00	0	41	0	1156579328	63	4546
2026-01-29 22:41:10.48	140.93	10.62	-46.3	-48.1	18.1	0.00e+00	0	42	0	1158676480	63	4622
2026-01-29 22:41:11.48	141.05	10.55	-46.1	-47.9	18.3	0.00e+00	0	42	0	1159725056	63	4501
2026-01-29 22:41:12.49	141.16	10.48	-46.3	-48.0	18.2	0.00e+00	0	42	0	1161822208	63	4582
2026-01-29 22:41:13.50	141.28	10.41	-46.3	-48.1	18.1	0.00e+00	0	42	0	1163919360	63	4626
2026-01-29 22:41:14.50	141.39	10.34	-46.3	-48.1	18.1	0.00e+00	0	41	0	1166016512	63	4628
2026-01-29 22:41:15.51	141.50	10.27	-46.2	-47.9	18.3	0.00e+00	0	42	0	1168113664	63	4522
2026-01-29 22:41:16.52	141.61	10.20	-45.9	-47.6	18.6	0.00e+00	0	42	0	1170210816	63	4350
2026-01-29 22:41:17.52	141.72	10.13	-46.0	-47.6	18.5	0.00e+00	0	42	0	1171259392	63	4375
2026-01-29 22:41:18.53	141.84	10.06	-46.0	-47.7	18.4	0.00e+00	0	42	0	1173356544	63	4424
2026-01-29 22:41:19.53	141.94	9.99	-46.0	-47.6	18.5	0.00e+00	0	42	0	1175453696	63	4391
2026-01-29 22:41:20.54	142.06	9.92	-46.2	-47.9	18.3	0.00e+00	0	41	0	1177550848	63	4509
2026-01-29 22:41:21.54	142.16	9.86	-45.8	-47.4	18.8	0.00e+00	0	42	0	1178599424	63	4257
2026-01-29 22:41:22.55	142.27	9.79	-45.7	-47.3	18.9	0.00e+00	0	41	0	1180696576	63	4210
2026-01-29 22:41:23.55	142.38	9.72	-45.8	-47.5	18.6	0.00e+00	0	42	0	1182793728	63	4299
2026-01-29 22:41:24.55	142.49	9.65	-45.9	-47.5	18.6	0.00e+00	0	42	0	1184890880	63	4325
2026-01-29 22:41:25.56	142.60	9.58	-46.0	-47.7	18.4	0.00e+00	0	42	0	1186988032	63	4428
2026-01-29 22:41:26.56	142.70	9.51	-46.0	-47.6	18.5	0.00e+00	0	42	0	1188036608	63	4389
