passes_logs/2026/01/27/T1/T1__20260127_213252_NOAA_20_JPSS-1_rec.log

#Pass ID: 20260127_213252_NOAA 20 (JPSS-1)
#Satellite: NOAA 20 (JPSS-1)
#Configuration: NOAA 20
#almurnet v.1.7.20251203
#Start time: 2026-01-27 21:32:52

#Version: 2.0.20230620
#Station: T1
#Location: 37.570604 lon 55.790049 lat
#TLE: 1 43013U 17073A   26027.45344144  .00000161  00000+0  97205-4 0  9999
#TLE: 2 43013  98.7647 328.2621 0000962  21.7793 338.3424 14.19541101424503

#Time	Az	El	Level	Level2	SNR	BER	BlckErr	Temp	State	Recorded	gain1	gain2
2026-01-27 21:32:52.18	39.85	5.00	-50.0	-65.5	3.8	1.49e+00	0	37	0	0	71	21516
2026-01-27 21:32:53.17	39.97	5.04	-50.2	-65.5	3.8	1.49e+00	0	37	104	0	72	20398
2026-01-27 21:32:54.16	40.09	5.08	-50.3	-65.5	3.8	1.49e+00	0	37	104	0	72	20493
2026-01-27 21:32:55.15	40.21	5.12	-50.2	-65.5	3.8	1.49e+00	0	37	104	0	72	20512
2026-01-27 21:32:56.15	40.34	5.17	-50.4	-65.6	3.8	1.49e+00	0	38	104	0	72	20544
2026-01-27 21:32:57.14	40.46	5.21	-50.3	-65.6	3.8	1.49e+00	0	37	104	0	72	20553
2026-01-27 21:32:58.13	40.58	5.25	-50.3	-65.5	3.8	1.49e+00	0	37	104	0	72	20517
2026-01-27 21:32:59.13	40.70	5.29	-50.3	-65.5	3.8	1.49e+00	0	38	104	0	72	20525
2026-01-27 21:33:00.12	40.82	5.33	-50.3	-65.5	3.8	1.49e+00	0	38	104	0	72	20497
2026-01-27 21:33:01.11	40.95	5.38	-50.2	-65.5	3.8	1.49e+00	0	38	104	0	72	20376
2026-01-27 21:33:02.11	41.07	5.42	-50.2	-65.4	3.8	1.49e+00	0	38	104	0	72	20280
2026-01-27 21:33:03.10	41.19	5.46	-50.1	-65.4	3.8	1.49e+00	0	38	104	0	72	20279
2026-01-27 21:33:04.09	41.32	5.50	-50.1	-65.4	3.8	1.49e+00	0	38	104	0	72	20212
2026-01-27 21:33:05.09	41.44	5.54	-50.0	-65.4	3.8	1.49e+00	0	38	104	0	72	20133
2026-01-27 21:33:06.08	41.57	5.58	-50.0	-65.4	3.8	1.49e+00	0	38	104	0	72	20126
2026-01-27 21:33:07.07	41.69	5.63	-50.0	-65.3	3.8	1.49e+00	0	38	104	0	72	20033
2026-01-27 21:33:08.06	41.82	5.67	-50.0	-65.3	3.8	1.49e+00	0	38	104	0	71	21258
2026-01-27 21:33:09.06	41.94	5.71	-49.9	-65.3	3.8	1.49e+00	0	38	104	0	71	21035
2026-01-27 21:33:10.05	42.07	5.75	-49.8	-65.1	3.8	1.49e+00	0	38	104	0	71	20748
2026-01-27 21:33:11.04	42.19	5.79	-49.7	-65.0	3.8	1.49e+00	0	38	104	0	71	20447
2026-01-27 21:33:12.04	42.32	5.83	-49.5	-64.8	3.8	1.49e+00	0	38	104	0	71	19982
2026-01-27 21:33:13.03	42.45	5.87	-49.5	-64.8	3.8	1.49e+00	0	38	104	0	71	19942
2026-01-27 21:33:14.02	42.57	5.92	-49.5	-64.8	3.8	1.49e+00	0	38	104	0	71	19987
2026-01-27 21:33:15.02	42.70	5.96	-49.5	-64.8	3.8	1.49e+00	0	38	104	0	71	19974
2026-01-27 21:33:16.01	42.83	6.00	-49.5	-64.8	3.8	1.49e+00	0	38	104	0	71	19939
2026-01-27 21:33:17.00	42.96	6.04	-49.5	-64.8	3.8	1.49e+00	0	38	104	0	71	20004
2026-01-27 21:33:17.99	43.09	6.08	-49.5	-64.8	3.8	1.49e+00	0	38	104	0	71	19962
2026-01-27 21:33:18.99	43.22	6.12	-49.5	-64.8	3.8	1.49e+00	0	38	104	0	71	19953
2026-01-27 21:33:19.98	43.35	6.16	-49.5	-64.8	3.8	1.49e+00	0	38	104	0	71	19989
2026-01-27 21:33:20.97	43.48	6.20	-49.5	-64.8	3.8	1.49e+00	0	38	104	0	71	19888
2026-01-27 21:33:21.97	43.61	6.24	-49.5	-64.8	3.8	1.49e+00	0	38	104	0	71	19954
2026-01-27 21:33:22.96	43.74	6.28	-49.5	-64.8	3.8	1.49e+00	0	38	104	0	71	19894
2026-01-27 21:33:23.95	43.87	6.32	-49.5	-64.8	3.8	1.49e+00	0	39	104	0	71	19900
2026-01-27 21:33:24.95	44.00	6.37	-49.5	-64.8	3.8	1.49e+00	0	38	104	0	71	19886
2026-01-27 21:33:25.94	44.13	6.41	-49.5	-64.8	3.8	1.49e+00	0	39	104	0	71	19972
2026-01-27 21:33:26.93	44.26	6.45	-49.5	-64.8	3.8	1.49e+00	0	39	104	0	71	19868
2026-01-27 21:33:27.92	44.39	6.49	-49.5	-64.8	3.8	1.49e+00	0	39	104	0	71	19896
2026-01-27 21:33:28.92	44.53	6.53	-49.5	-64.8	3.8	1.49e+00	0	38	104	0	71	19867
2026-01-27 21:33:29.91	44.66	6.57	-49.5	-64.8	3.8	1.49e+00	0	39	104	0	71	19892
2026-01-27 21:33:30.90	44.79	6.61	-49.5	-64.8	3.8	1.49e+00	0	39	104	0	71	19879
2026-01-27 21:33:31.90	44.93	6.65	-49.5	-64.8	3.8	1.49e+00	0	39	104	0	71	19932
2026-01-27 21:33:32.89	45.06	6.69	-49.5	-64.8	3.8	1.49e+00	0	39	104	0	71	19946
2026-01-27 21:33:33.88	45.20	6.73	-49.5	-64.8	3.8	1.49e+00	0	39	104	0	71	19888
2026-01-27 21:33:34.88	45.33	6.77	-49.5	-64.8	3.8	1.49e+00	0	39	104	0	71	19933
2026-01-27 21:33:35.87	45.47	6.81	-49.5	-64.8	3.8	1.49e+00	0	39	104	0	71	19919
2026-01-27 21:33:36.86	45.60	6.85	-49.5	-64.8	3.8	1.49e+00	0	39	104	0	71	19885
2026-01-27 21:33:37.85	45.74	6.89	-49.5	-64.8	3.8	1.49e+00	0	39	104	0	71	19896
2026-01-27 21:33:38.85	45.87	6.93	-49.5	-64.8	3.8	1.49e+00	0	39	104	0	71	19857
2026-01-27 21:33:39.84	46.01	6.97	-49.5	-64.8	3.8	1.49e+00	0	39	104	0	71	19900
2026-01-27 21:33:40.83	46.15	7.01	-49.5	-64.8	3.8	1.49e+00	0	39	104	0	71	19872
2026-01-27 21:33:41.83	46.28	7.05	-49.5	-64.8	3.8	1.49e+00	0	39	104	0	71	19911
2026-01-27 21:33:42.82	46.42	7.09	-49.5	-64.7	3.8	1.49e+00	0	39	104	0	71	19818
2026-01-27 21:33:43.81	46.56	7.12	-49.5	-64.7	3.8	1.49e+00	0	39	104	0	71	19809
2026-01-27 21:33:44.81	46.70	7.16	-49.5	-64.8	3.8	1.49e+00	0	39	104	0	71	19846
2026-01-27 21:33:45.80	46.84	7.20	-49.5	-64.8	3.8	1.49e+00	0	39	104	0	71	19901
2026-01-27 21:33:46.79	46.98	7.24	-49.5	-64.7	3.8	1.49e+00	0	39	104	0	71	19793
2026-01-27 21:33:47.78	47.11	7.28	-49.5	-64.7	3.8	1.49e+00	0	39	104	0	71	19774
2026-01-27 21:33:48.78	47.26	7.32	-49.5	-64.7	3.8	1.49e+00	0	39	104	0	71	19789
2026-01-27 21:33:49.77	47.40	7.36	-49.5	-64.7	3.8	1.49e+00	0	39	104	0	71	19797
2026-01-27 21:33:50.76	47.54	7.40	-49.5	-64.7	3.8	1.49e+00	0	39	104	0	71	19780
2026-01-27 21:33:51.76	47.68	7.44	-49.5	-64.8	3.8	1.49e+00	0	39	104	0	71	19849
2026-01-27 21:33:52.75	47.82	7.47	-49.5	-64.8	3.8	1.49e+00	0	39	104	0	71	19872
2026-01-27 21:33:53.74	47.96	7.51	-49.5	-64.8	3.8	1.49e+00	0	39	104	0	71	19844
2026-01-27 21:33:54.74	48.10	7.55	-49.5	-64.8	3.8	1.49e+00	0	39	104	0	70	21034
2026-01-27 21:33:55.73	48.24	7.59	-49.5	-64.8	3.8	1.49e+00	0	39	104	0	70	21129
2026-01-27 21:33:56.72	48.39	7.63	-49.5	-64.8	3.8	1.49e+00	0	39	104	0	70	21130
2026-01-27 21:33:57.71	48.53	7.67	-49.5	-64.8	3.8	1.49e+00	0	39	104	0	70	21023
2026-01-27 21:33:58.71	48.67	7.70	-49.5	-64.8	3.8	1.49e+00	0	39	104	0	70	21024
2026-01-27 21:33:59.70	48.82	7.74	-49.5	-64.8	3.8	1.49e+00	0	39	104	0	70	21069
2026-01-27 21:34:00.69	48.96	7.78	-49.5	-64.7	3.8	1.49e+00	0	39	104	0	70	20975
2026-01-27 21:34:01.68	49.10	7.82	-49.5	-64.7	3.8	1.49e+00	0	39	104	0	70	20848
2026-01-27 21:34:02.68	49.25	7.86	-49.5	-64.7	3.8	1.49e+00	0	39	104	0	70	20803
2026-01-27 21:34:03.67	49.40	7.89	-49.5	-64.6	3.8	1.49e+00	0	39	104	0	70	20731
2026-01-27 21:34:04.66	49.54	7.93	-49.5	-64.6	3.8	1.49e+00	0	39	104	0	70	20608
2026-01-27 21:34:05.66	49.69	7.97	-49.5	-64.5	3.8	1.49e+00	0	39	104	0	70	20464
2026-01-27 21:34:06.65	49.83	8.00	-49.5	-64.5	3.8	1.49e+00	0	39	104	0	70	20372
2026-01-27 21:34:07.64	49.98	8.04	-49.5	-64.4	3.8	1.49e+00	0	39	104	0	70	20294
2026-01-27 21:34:08.64	50.13	8.08	-49.5	-64.4	3.8	1.49e+00	0	39	104	0	70	20181
2026-01-27 21:34:09.63	50.27	8.12	-49.5	-64.4	3.8	1.49e+00	0	39	104	0	70	20287
2026-01-27 21:34:10.62	50.42	8.15	-49.5	-64.6	3.8	1.49e+00	0	39	104	0	70	20548
2026-01-27 21:34:11.62	50.57	8.19	-49.5	-64.6	3.8	1.49e+00	0	39	104	0	70	20738
2026-01-27 21:34:12.61	50.72	8.23	-49.5	-64.7	3.8	1.49e+00	0	40	104	0	70	20959
2026-01-27 21:34:13.60	50.87	8.26	-49.5	-64.7	3.8	1.49e+00	0	39	104	0	70	20931
2026-01-27 21:34:14.60	51.02	8.30	-49.5	-64.8	3.8	1.49e+00	0	39	104	0	70	21020
2026-01-27 21:34:15.59	51.17	8.33	-49.5	-64.7	3.8	1.49e+00	0	40	104	0	70	20980
2026-01-27 21:34:16.58	51.32	8.37	-49.5	-64.7	3.8	1.49e+00	0	39	104	0	70	20995
2026-01-27 21:34:17.57	51.47	8.41	-49.5	-64.6	3.8	1.49e+00	0	39	104	0	70	20733
2026-01-27 21:34:18.57	51.62	8.44	-49.5	-64.5	3.8	1.49e+00	0	40	104	0	70	20529
2026-01-27 21:34:19.56	51.77	8.48	-49.5	-64.5	3.8	1.49e+00	0	39	104	0	70	20517
2026-01-27 21:34:20.55	51.92	8.51	-49.5	-64.6	3.8	1.49e+00	0	39	104	0	70	20576
2026-01-27 21:34:21.55	52.07	8.55	-49.5	-64.6	3.8	1.49e+00	0	40	104	0	70	20756
2026-01-27 21:34:22.54	52.22	8.59	-49.5	-64.7	3.8	1.49e+00	0	40	104	0	70	20915
2026-01-27 21:34:23.53	52.38	8.62	-49.5	-64.7	3.8	1.49e+00	0	40	104	0	70	21003
2026-01-27 21:34:24.52	52.53	8.66	-49.5	-64.7	3.8	1.49e+00	0	40	104	0	70	21008
2026-01-27 21:34:25.52	52.68	8.69	-49.5	-64.8	3.8	1.49e+00	0	39	104	0	70	21018
2026-01-27 21:34:26.51	52.84	8.73	-49.5	-64.8	3.8	1.49e+00	0	39	104	0	70	21019
2026-01-27 21:34:27.50	52.99	8.76	-49.5	-64.7	3.8	1.49e+00	0	40	104	0	70	20979
2026-01-27 21:34:28.50	53.15	8.80	-49.5	-64.7	3.8	1.49e+00	0	39	104	0	70	20980
2026-01-27 21:34:29.49	53.30	8.83	-49.5	-64.7	3.8	1.49e+00	0	39	104	0	70	20911
2026-01-27 21:34:30.48	53.45	8.86	-49.5	-64.7	3.8	1.49e+00	0	40	104	0	70	20790
2026-01-27 21:34:31.48	53.61	8.90	-49.5	-64.6	3.8	1.49e+00	0	40	104	0	70	20539
2026-01-27 21:34:32.47	53.77	8.93	-49.4	-64.3	3.8	1.49e+00	0	40	104	0	70	19919
2026-01-27 21:34:33.46	53.92	8.97	-49.4	-63.2	3.8	1.49e+00	0	40	104	0	70	17494
2026-01-27 21:34:34.46	54.08	9.00	-49.2	-60.9	4.3	1.48e+00	0	39	0	0	70	13432
2026-01-27 21:34:35.45	54.24	9.03	-48.1	-54.8	8.7	5.56e-01	0	40	0	1048576	68	7503
2026-01-27 21:34:36.44	54.39	9.07	-48.6	-56.6	5.7	1.49e+00	0	40	104	1048576	69	8727
2026-01-27 21:34:37.44	54.55	9.10	-49.2	-60.6	4.0	1.29e+00	0	40	104	1048576	69	13823
2026-01-27 21:34:38.43	54.71	9.13	-48.5	-56.0	7.6	3.53e-02	0	40	0	2097152	68	8625
2026-01-27 21:34:39.42	54.87	9.17	-48.7	-57.5	6.0	1.04e+00	0	40	0	3145728	69	9636
2026-01-27 21:34:40.41	55.02	9.20	-46.1	-50.2	13.3	3.43e-04	0	40	0	5242880	64	5558
2026-01-27 21:34:41.41	55.18	9.23	-46.1	-50.2	13.2	2.36e-05	0	40	0	7340032	64	5580
2026-01-27 21:34:42.40	55.34	9.27	-46.0	-50.1	13.3	2.13e-05	0	40	0	9437184	64	5469
2026-01-27 21:34:43.39	55.50	9.30	-46.0	-50.0	13.4	2.36e-05	0	40	0	11534336	64	5424
2026-01-27 21:34:44.39	55.66	9.33	-45.8	-49.6	14.0	8.30e-06	0	40	0	12582912	63	5489
2026-01-27 21:34:45.38	55.82	9.36	-45.5	-49.1	14.4	1.50e-06	0	40	0	14680064	63	5192
2026-01-27 21:34:46.37	55.98	9.40	-45.5	-49.2	14.4	7.00e-07	0	40	0	16777216	62	5543
2026-01-27 21:34:47.37	56.14	9.43	-45.3	-48.9	14.7	1.50e-06	0	40	0	18874368	62	5354
2026-01-27 21:34:48.36	56.31	9.46	-45.4	-48.9	14.7	0.00e+00	0	40	0	19922944	62	5356
2026-01-27 21:34:49.35	56.47	9.49	-45.3	-48.8	14.7	7.00e-07	0	40	0	22020096	62	5328
2026-01-27 21:34:50.35	56.63	9.52	-45.2	-48.7	14.9	0.00e+00	0	40	0	24117248	62	5240
2026-01-27 21:34:51.34	56.79	9.55	-45.2	-48.5	15.0	7.00e-07	0	40	0	26214400	62	5156
2026-01-27 21:34:52.33	56.95	9.58	-45.2	-48.7	15.0	0.00e+00	0	40	0	27262976	62	5222
2026-01-27 21:34:53.32	57.12	9.62	-45.2	-48.7	14.9	0.00e+00	0	40	0	29360128	62	5222
2026-01-27 21:34:54.32	57.28	9.65	-45.1	-48.4	15.2	0.00e+00	0	40	0	31457280	62	5081
2026-01-27 21:34:55.31	57.44	9.68	-45.1	-48.5	15.1	0.00e+00	0	40	0	33554432	62	5112
2026-01-27 21:34:56.30	57.61	9.71	-45.2	-48.6	15.0	0.00e+00	0	40	0	35651584	62	5198
2026-01-27 21:34:57.30	57.77	9.74	-45.2	-48.6	15.0	0.00e+00	0	40	0	36700160	62	5189
2026-01-27 21:34:58.29	57.94	9.77	-45.2	-48.6	15.0	0.00e+00	0	40	0	38797312	62	5185
2026-01-27 21:34:59.28	58.10	9.80	-45.2	-48.6	15.1	0.00e+00	0	40	0	40894464	62	5167
2026-01-27 21:35:00.27	58.27	9.83	-45.3	-48.7	14.9	0.00e+00	0	40	0	42991616	62	5231
2026-01-27 21:35:01.27	58.43	9.86	-45.3	-48.7	14.9	0.00e+00	0	40	0	44040192	62	5255
2026-01-27 21:35:02.26	58.60	9.89	-45.3	-48.8	14.8	0.00e+00	0	40	0	46137344	62	5292
2026-01-27 21:35:03.26	58.77	9.92	-45.4	-48.8	14.8	0.00e+00	0	40	0	48234496	62	5315
2026-01-27 21:35:04.25	58.93	9.95	-45.3	-48.8	14.9	0.00e+00	0	40	0	50331648	62	5288
2026-01-27 21:35:05.24	59.10	9.97	-45.3	-48.7	14.9	0.00e+00	0	40	0	52428800	62	5259
2026-01-27 21:35:06.23	59.27	10.00	-45.2	-48.5	15.1	0.00e+00	0	40	0	53477376	62	5153
2026-01-27 21:35:07.23	59.43	10.03	-45.2	-48.5	15.1	0.00e+00	0	40	0	55574528	62	5133
2026-01-27 21:35:08.22	59.60	10.06	-45.2	-48.5	15.2	0.00e+00	0	40	0	57671680	62	5118
2026-01-27 21:35:09.21	59.77	10.09	-45.2	-48.5	15.1	7.00e-07	0	40	0	59768832	62	5149
2026-01-27 21:35:10.20	59.94	10.12	-45.2	-48.6	15.1	0.00e+00	0	40	0	61865984	62	5167
2026-01-27 21:35:11.19	60.11	10.14	-45.0	-48.3	15.4	0.00e+00	0	40	0	62914560	62	5013
2026-01-27 21:35:12.19	60.28	10.17	-45.0	-48.3	15.4	7.00e-07	0	40	0	65011712	62	4999
2026-01-27 21:35:13.18	60.45	10.20	-45.1	-48.4	15.2	0.00e+00	0	40	0	67108864	62	5066
2026-01-27 21:35:14.17	60.61	10.23	-45.0	-48.3	15.3	0.00e+00	0	40	0	69206016	62	5018
2026-01-27 21:35:15.17	60.79	10.25	-45.1	-48.4	15.3	0.00e+00	0	40	0	70254592	62	5042
2026-01-27 21:35:16.16	60.96	10.28	-45.0	-48.3	15.4	0.00e+00	0	40	0	72351744	62	5011
2026-01-27 21:35:17.15	61.13	10.31	-45.0	-48.3	15.4	0.00e+00	0	40	0	74448896	62	4987
2026-01-27 21:35:18.14	61.30	10.33	-45.1	-48.4	15.2	7.00e-07	0	40	0	76546048	62	5068
2026-01-27 21:35:19.14	61.47	10.36	-44.9	-48.1	15.5	0.00e+00	0	40	0	78643200	61	5191
2026-01-27 21:35:20.13	61.64	10.39	-44.9	-48.2	15.5	0.00e+00	0	40	0	79691776	61	5230
2026-01-27 21:35:21.12	61.81	10.41	-45.0	-48.2	15.5	0.00e+00	0	40	0	81788928	61	5255
2026-01-27 21:35:22.12	61.99	10.44	-45.0	-48.2	15.4	0.00e+00	0	40	0	83886080	61	5277
2026-01-27 21:35:23.11	62.16	10.46	-44.9	-48.2	15.5	0.00e+00	0	40	0	85983232	61	5224
2026-01-27 21:35:24.10	62.33	10.49	-44.9	-48.1	15.5	0.00e+00	0	40	0	87031808	61	5194
2026-01-27 21:35:25.09	62.50	10.51	-44.9	-48.2	15.5	0.00e+00	0	40	0	89128960	61	5232
2026-01-27 21:35:26.09	62.68	10.54	-44.8	-48.0	15.7	0.00e+00	0	40	0	91226112	61	5118
2026-01-27 21:35:27.08	62.85	10.56	-44.8	-48.0	15.7	0.00e+00	0	40	0	93323264	61	5105
2026-01-27 21:35:28.07	63.02	10.59	-44.8	-47.9	15.7	0.00e+00	0	40	0	94371840	61	5082
2026-01-27 21:35:29.07	63.20	10.61	-44.7	-47.8	15.8	0.00e+00	0	40	0	96468992	61	5041
2026-01-27 21:35:30.06	63.37	10.64	-44.6	-47.7	16.0	0.00e+00	0	40	0	98566144	61	4943
2026-01-27 21:35:31.05	63.55	10.66	-44.6	-47.7	16.0	0.00e+00	0	40	0	100663296	61	4930
2026-01-27 21:35:32.05	63.72	10.69	-44.7	-47.7	15.9	0.00e+00	0	40	0	102760448	61	4975
2026-01-27 21:35:33.04	63.90	10.71	-44.7	-47.8	15.9	0.00e+00	0	40	0	103809024	61	4992
2026-01-27 21:35:34.03	64.07	10.73	-44.5	-47.6	16.1	0.00e+00	0	40	0	105906176	61	4886
2026-01-27 21:35:35.02	64.25	10.75	-44.7	-47.8	15.9	0.00e+00	0	40	0	108003328	61	4993
2026-01-27 21:35:36.02	64.43	10.78	-44.6	-47.6	16.0	0.00e+00	0	40	0	110100480	61	4922
2026-01-27 21:35:37.01	64.60	10.80	-44.6	-47.7	16.0	0.00e+00	0	40	0	111149056	61	4951
2026-01-27 21:35:38.00	64.78	10.82	-44.7	-47.8	15.9	0.00e+00	0	40	0	113246208	61	5026
2026-01-27 21:35:38.99	64.96	10.84	-44.8	-48.0	15.7	0.00e+00	0	40	0	115343360	61	5118
2026-01-27 21:35:39.99	65.14	10.87	-44.8	-48.0	15.6	0.00e+00	0	40	0	117440512	61	5135
2026-01-27 21:35:40.98	65.31	10.89	-44.9	-48.1	15.5	0.00e+00	0	40	0	118489088	61	5197
2026-01-27 21:35:41.97	65.49	10.91	-44.9	-48.1	15.6	0.00e+00	0	40	0	120586240	61	5173
2026-01-27 21:35:42.96	65.67	10.93	-44.9	-48.2	15.5	0.00e+00	0	40	0	122683392	61	5227
2026-01-27 21:35:43.96	65.85	10.95	-44.9	-48.1	15.6	7.00e-07	0	40	0	124780544	61	5175
2026-01-27 21:35:44.95	66.02	10.97	-45.0	-48.2	15.5	0.00e+00	0	40	0	126877696	61	5230
2026-01-27 21:35:45.94	66.20	10.99	-44.9	-48.1	15.5	0.00e+00	0	40	0	127926272	61	5210
2026-01-27 21:35:46.94	66.38	11.01	-44.9	-48.1	15.5	0.00e+00	0	40	0	130023424	61	5195
2026-01-27 21:35:47.93	66.56	11.03	-45.1	-48.4	15.3	0.00e+00	0	40	0	132120576	61	5344
2026-01-27 21:35:48.92	66.74	11.05	-45.0	-48.3	15.3	0.00e+00	0	40	0	134217728	61	5326
2026-01-27 21:35:49.92	66.92	11.07	-45.1	-48.4	15.3	0.00e+00	0	40	0	135266304	61	5357
2026-01-27 21:35:50.91	67.10	11.09	-45.1	-48.4	15.2	0.00e+00	0	40	0	137363456	61	5386
2026-01-27 21:35:51.90	67.28	11.11	-45.1	-48.5	15.2	0.00e+00	0	40	0	139460608	61	5445
2026-01-27 21:35:52.90	67.46	11.13	-45.1	-48.6	15.1	0.00e+00	0	40	0	141557760	61	5482
2026-01-27 21:35:53.89	67.64	11.15	-45.3	-48.9	14.8	0.00e+00	0	40	0	143654912	61	5682
2026-01-27 21:35:54.88	67.82	11.17	-45.3	-48.9	14.8	7.00e-07	0	40	0	144703488	61	5681
2026-01-27 21:35:55.88	68.01	11.19	-45.4	-49.0	14.6	0.00e+00	0	40	0	146800640	61	5783
2026-01-27 21:35:56.87	68.19	11.20	-45.6	-49.2	14.4	0.00e+00	0	40	0	148897792	61	5907
2026-01-27 21:35:57.86	68.37	11.22	-45.5	-49.1	14.6	0.00e+00	0	40	0	150994944	61	5803
2026-01-27 21:35:58.85	68.55	11.24	-45.5	-49.0	14.7	7.00e-07	0	40	0	152043520	61	5772
2026-01-27 21:35:59.85	68.73	11.26	-45.3	-48.8	14.9	0.00e+00	0	40	0	154140672	61	5603
2026-01-27 21:36:00.84	68.92	11.27	-45.3	-48.7	15.0	0.00e+00	0	40	0	156237824	61	5536
2026-01-27 21:36:01.83	69.10	11.29	-45.3	-48.7	14.9	0.00e+00	0	40	0	158334976	61	5572
2026-01-27 21:36:02.83	69.28	11.31	-45.4	-48.8	14.9	0.00e+00	0	40	0	160432128	61	5615
2026-01-27 21:36:03.82	69.46	11.32	-45.4	-48.8	14.8	0.00e+00	0	40	0	161480704	61	5633
2026-01-27 21:36:04.81	69.65	11.34	-45.4	-48.9	14.8	0.00e+00	0	40	0	163577856	61	5658
2026-01-27 21:36:05.81	69.83	11.36	-45.5	-49.0	14.7	1.50e-06	0	40	0	165675008	61	5746
2026-01-27 21:36:06.80	70.01	11.37	-45.4	-48.9	14.7	0.00e+00	0	40	0	167772160	61	5705
2026-01-27 21:36:07.79	70.20	11.39	-45.5	-49.0	14.7	0.00e+00	0	40	0	169869312	61	5741
2026-01-27 21:36:08.78	70.38	11.40	-45.4	-48.8	14.8	7.00e-07	0	40	0	170917888	61	5650
2026-01-27 21:36:09.78	70.57	11.42	-45.4	-48.9	14.8	0.00e+00	0	40	0	173015040	61	5709
2026-01-27 21:36:10.77	70.75	11.43	-45.5	-49.1	14.6	0.00e+00	0	40	0	175112192	61	5804
2026-01-27 21:36:11.76	70.93	11.45	-45.5	-49.1	14.6	7.00e-07	0	40	0	177209344	61	5798
2026-01-27 21:36:12.76	71.12	11.46	-45.5	-49.1	14.5	1.50e-06	0	40	0	178257920	61	5835
2026-01-27 21:36:13.75	71.30	11.47	-45.4	-48.8	14.8	0.00e+00	0	40	0	180355072	61	5655
2026-01-27 21:36:14.74	71.49	11.49	-45.4	-48.9	14.8	0.00e+00	0	40	0	182452224	61	5662
2026-01-27 21:36:15.74	71.67	11.50	-45.3	-48.7	14.9	0.00e+00	0	40	0	184549376	61	5583
2026-01-27 21:36:16.73	71.86	11.51	-45.2	-48.7	15.0	0.00e+00	0	40	0	185597952	61	5556
2026-01-27 21:36:17.72	72.04	11.53	-45.2	-48.6	15.1	0.00e+00	0	40	0	187695104	61	5497
2026-01-27 21:36:18.71	72.23	11.54	-45.2	-48.6	15.0	0.00e+00	0	40	0	189792256	61	5489
2026-01-27 21:36:19.71	72.42	11.55	-45.1	-48.5	15.2	0.00e+00	0	40	0	191889408	61	5441
2026-01-27 21:36:20.70	72.60	11.56	-45.2	-48.6	15.1	0.00e+00	0	40	0	193986560	61	5506
2026-01-27 21:36:21.69	72.79	11.57	-45.1	-48.5	15.2	0.00e+00	0	40	0	195035136	61	5417
2026-01-27 21:36:22.68	72.97	11.58	-45.2	-48.6	15.1	0.00e+00	0	40	0	197132288	61	5480
2026-01-27 21:36:23.68	73.16	11.60	-45.3	-48.6	15.0	0.00e+00	0	40	0	199229440	61	5524
2026-01-27 21:36:24.67	73.35	11.61	-45.3	-48.6	15.0	0.00e+00	0	40	0	201326592	61	5523
2026-01-27 21:36:25.66	73.53	11.62	-45.2	-48.6	15.0	0.00e+00	0	40	0	202375168	61	5503
2026-01-27 21:36:26.66	73.72	11.63	-45.2	-48.5	15.1	0.00e+00	0	40	0	204472320	61	5449
2026-01-27 21:36:27.65	73.91	11.64	-44.9	-48.1	15.5	0.00e+00	0	40	0	206569472	61	5196
2026-01-27 21:36:28.64	74.09	11.65	-44.9	-48.2	15.5	0.00e+00	0	40	0	208666624	61	5226
2026-01-27 21:36:29.63	74.28	11.66	-44.8	-47.9	15.7	0.00e+00	0	40	0	210763776	61	5096
2026-01-27 21:36:30.63	74.47	11.67	-44.8	-48.0	15.7	0.00e+00	0	40	0	211812352	61	5137
2026-01-27 21:36:31.62	74.65	11.68	-44.8	-47.9	15.7	0.00e+00	0	40	0	213909504	61	5094
2026-01-27 21:36:32.61	74.84	11.68	-44.8	-48.0	15.7	0.00e+00	0	40	0	216006656	61	5115
2026-01-27 21:36:33.61	75.03	11.69	-44.9	-48.1	15.6	0.00e+00	0	40	0	218103808	61	5187
2026-01-27 21:36:34.60	75.22	11.70	-44.9	-48.2	15.5	0.00e+00	0	40	0	219152384	61	5220
2026-01-27 21:36:35.59	75.40	11.71	-44.9	-48.1	15.5	0.00e+00	0	40	0	221249536	61	5206
2026-01-27 21:36:36.59	75.59	11.72	-44.9	-48.0	15.6	0.00e+00	0	40	0	223346688	61	5145
2026-01-27 21:36:37.58	75.78	11.72	-44.7	-47.8	15.8	0.00e+00	0	40	0	225443840	61	5028
2026-01-27 21:36:38.57	75.97	11.73	-44.8	-47.9	15.7	0.00e+00	0	40	0	226492416	61	5093
2026-01-27 21:36:39.56	76.16	11.74	-44.7	-47.9	15.8	0.00e+00	0	40	0	228589568	61	5043
2026-01-27 21:36:40.56	76.35	11.74	-44.8	-47.9	15.7	0.00e+00	0	40	0	230686720	61	5090
2026-01-27 21:36:41.55	76.53	11.75	-44.8	-48.0	15.7	0.00e+00	0	40	0	232783872	61	5117
2026-01-27 21:36:42.54	76.72	11.76	-44.7	-47.9	15.7	0.00e+00	0	40	0	234881024	61	5068
2026-01-27 21:36:43.53	76.91	11.76	-44.8	-48.0	15.7	0.00e+00	0	40	0	235929600	61	5111
2026-01-27 21:36:44.53	77.10	11.77	-44.7	-47.9	15.8	0.00e+00	0	40	0	238026752	61	5047
2026-01-27 21:36:45.52	77.29	11.77	-44.7	-47.9	15.8	0.00e+00	0	40	0	240123904	61	5049
2026-01-27 21:36:46.51	77.48	11.78	-44.7	-47.9	15.7	0.00e+00	0	40	0	242221056	61	5095
2026-01-27 21:36:47.51	77.67	11.78	-44.7	-47.8	15.9	0.00e+00	0	40	0	243269632	61	5008
2026-01-27 21:36:48.50	77.85	11.79	-44.6	-47.7	16.0	0.00e+00	0	40	0	245366784	61	4933
2026-01-27 21:36:49.49	78.04	11.79	-44.4	-47.5	16.2	0.00e+00	0	40	0	247463936	60	5109
2026-01-27 21:36:50.49	78.23	11.79	-44.4	-47.4	16.3	0.00e+00	0	40	0	249561088	60	5063
2026-01-27 21:36:51.48	78.42	11.80	-44.3	-47.2	16.5	0.00e+00	0	40	0	251658240	60	4953
2026-01-27 21:36:52.47	78.61	11.80	-44.1	-46.9	16.7	0.00e+00	0	40	0	252706816	60	4799
2026-01-27 21:36:53.46	78.80	11.80	-44.0	-46.9	16.8	0.00e+00	0	40	0	254803968	60	4781
2026-01-27 21:36:54.46	78.99	11.81	-44.0	-46.9	16.8	0.00e+00	0	40	0	256901120	59	5042
2026-01-27 21:36:55.45	79.18	11.81	-44.0	-46.8	16.7	0.00e+00	0	40	0	258998272	59	5027
2026-01-27 21:36:56.44	79.37	11.81	-44.0	-46.8	16.8	0.00e+00	0	40	0	260046848	59	5012
2026-01-27 21:36:57.43	79.55	11.81	-44.0	-46.8	16.8	0.00e+00	0	40	0	262144000	59	5002
2026-01-27 21:36:58.43	79.75	11.81	-44.0	-46.9	16.7	0.00e+00	0	40	0	264241152	59	5047
2026-01-27 21:36:59.42	79.93	11.81	-44.0	-46.8	16.8	0.00e+00	0	40	0	266338304	59	5013
2026-01-27 21:37:00.41	80.12	11.82	-44.0	-46.9	16.7	0.00e+00	0	40	0	268435456	59	5060
2026-01-27 21:37:01.41	80.31	11.82	-44.0	-46.8	16.8	0.00e+00	0	40	0	269484032	59	5031
2026-01-27 21:37:02.40	80.50	11.82	-44.0	-46.8	16.8	0.00e+00	0	40	0	271581184	59	5003
2026-01-27 21:37:03.39	80.69	11.82	-44.1	-47.0	16.6	0.00e+00	0	40	0	273678336	59	5114
2026-01-27 21:37:04.38	80.88	11.82	-43.8	-46.6	17.0	0.00e+00	0	40	0	275775488	59	4881
2026-01-27 21:37:05.38	81.07	11.82	-43.9	-46.7	16.9	0.00e+00	0	40	0	276824064	59	4951
2026-01-27 21:37:06.37	81.26	11.82	-43.7	-46.5	17.1	0.00e+00	0	40	0	278921216	59	4824
2026-01-27 21:37:07.36	81.45	11.81	-43.7	-46.5	17.1	0.00e+00	0	40	0	281018368	59	4845
2026-01-27 21:37:08.36	81.64	11.81	-43.7	-46.4	17.2	0.00e+00	0	40	0	283115520	59	4809
2026-01-27 21:37:09.35	81.83	11.81	-43.7	-46.5	17.1	0.00e+00	0	40	0	285212672	59	4829
2026-01-27 21:37:10.34	82.02	11.81	-43.7	-46.5	17.0	0.00e+00	0	40	0	286261248	59	4870
2026-01-27 21:37:11.34	82.21	11.81	-43.7	-46.5	17.1	0.00e+00	0	40	0	288358400	59	4847
2026-01-27 21:37:12.33	82.40	11.81	-43.8	-46.6	17.0	0.00e+00	0	40	0	290455552	59	4911
2026-01-27 21:37:13.32	82.58	11.80	-43.7	-46.5	17.1	0.00e+00	0	40	0	292552704	59	4857
2026-01-27 21:37:14.31	82.77	11.80	-43.8	-46.6	17.0	0.00e+00	0	40	0	293601280	59	4893
2026-01-27 21:37:15.31	82.96	11.80	-43.8	-46.6	16.9	0.00e+00	0	40	0	295698432	59	4913
2026-01-27 21:37:16.30	83.15	11.79	-43.8	-46.7	16.9	0.00e+00	0	40	0	297795584	59	4937
2026-01-27 21:37:17.29	83.34	11.79	-43.9	-46.7	16.9	0.00e+00	0	40	0	299892736	59	4949
2026-01-27 21:37:18.29	83.53	11.78	-43.8	-46.5	17.0	0.00e+00	0	40	0	301989888	59	4867
2026-01-27 21:37:19.28	83.72	11.78	-43.8	-46.6	17.0	0.00e+00	0	40	0	303038464	59	4881
2026-01-27 21:37:20.27	83.91	11.78	-43.6	-46.4	17.2	0.00e+00	0	40	0	305135616	59	4775
2026-01-27 21:37:21.27	84.10	11.77	-43.7	-46.5	17.1	0.00e+00	0	40	0	307232768	59	4836
2026-01-27 21:37:22.26	84.29	11.77	-43.6	-46.4	17.2	0.00e+00	0	40	0	309329920	59	4802
2026-01-27 21:37:23.25	84.47	11.76	-43.8	-46.6	17.0	0.00e+00	0	40	0	310378496	59	4924
2026-01-27 21:37:24.24	84.66	11.75	-43.8	-46.7	16.9	0.00e+00	0	40	0	312475648	59	4958
2026-01-27 21:37:25.24	84.85	11.75	-43.7	-46.6	17.0	0.00e+00	0	40	0	314572800	59	4873
2026-01-27 21:37:26.23	85.04	11.74	-43.8	-46.7	16.9	0.00e+00	0	40	0	316669952	59	4938
2026-01-27 21:37:27.22	85.23	11.74	-43.7	-46.6	17.0	0.00e+00	0	40	0	317718528	59	4900
2026-01-27 21:37:28.21	85.42	11.73	-43.8	-46.7	16.8	0.00e+00	0	40	0	319815680	59	4980
2026-01-27 21:37:29.21	85.60	11.72	-43.8	-46.6	16.9	0.00e+00	0	40	0	321912832	59	4923
2026-01-27 21:37:30.20	85.79	11.71	-43.9	-46.8	16.8	0.00e+00	0	40	0	324009984	59	5023
2026-01-27 21:37:31.19	85.98	11.71	-43.9	-46.8	16.8	0.00e+00	0	40	0	326107136	59	5017
2026-01-27 21:37:32.19	86.17	11.70	-43.9	-46.8	16.8	0.00e+00	0	40	0	327155712	59	4992
2026-01-27 21:37:33.18	86.36	11.69	-43.8	-46.7	16.9	0.00e+00	0	40	0	329252864	59	4934
2026-01-27 21:37:34.17	86.54	11.68	-43.7	-46.5	17.1	0.00e+00	0	40	0	331350016	59	4850
2026-01-27 21:37:35.17	86.73	11.67	-43.7	-46.5	17.1	0.00e+00	0	40	0	333447168	59	4837
2026-01-27 21:37:36.16	86.92	11.66	-43.8	-46.7	16.9	0.00e+00	0	40	0	334495744	59	4930
2026-01-27 21:37:37.15	87.11	11.65	-43.8	-46.6	17.0	0.00e+00	0	40	0	336592896	59	4885
2026-01-27 21:37:38.15	87.30	11.64	-43.7	-46.5	17.1	0.00e+00	0	40	0	338690048	59	4822
2026-01-27 21:37:39.14	87.48	11.63	-43.6	-46.4	17.2	0.00e+00	0	40	0	340787200	59	4797
2026-01-27 21:37:40.13	87.67	11.62	-43.7	-46.5	17.1	0.00e+00	0	40	0	342884352	59	4864
2026-01-27 21:37:41.12	87.86	11.61	-43.8	-46.5	17.0	0.00e+00	0	40	0	343932928	59	4865
2026-01-27 21:37:42.12	88.04	11.60	-44.0	-46.8	16.8	0.00e+00	0	40	0	346030080	59	5020
2026-01-27 21:37:43.11	88.23	11.59	-44.0	-46.8	16.7	0.00e+00	0	40	0	348127232	59	5031
2026-01-27 21:37:44.10	88.42	11.58	-44.0	-46.8	16.8	0.00e+00	0	40	0	350224384	59	5025
2026-01-27 21:37:45.09	88.60	11.57	-44.0	-46.9	16.7	0.00e+00	0	40	0	351272960	59	5065
2026-01-27 21:37:46.09	88.79	11.56	-44.2	-47.1	16.5	0.00e+00	0	40	0	353370112	59	5191
2026-01-27 21:37:47.08	88.98	11.55	-44.1	-47.0	16.6	0.00e+00	0	40	0	355467264	59	5143
2026-01-27 21:37:48.07	89.16	11.53	-44.2	-47.1	16.4	0.00e+00	0	40	0	357564416	59	5216
2026-01-27 21:37:49.07	89.35	11.52	-44.1	-47.0	16.6	0.00e+00	0	40	0	359661568	59	5147
2026-01-27 21:37:50.06	89.53	11.51	-44.1	-47.1	16.5	0.00e+00	0	40	0	360710144	59	5161
2026-01-27 21:37:51.05	89.72	11.50	-44.1	-47.0	16.6	0.00e+00	0	40	0	362807296	59	5108
2026-01-27 21:37:52.05	89.90	11.48	-44.0	-46.8	16.7	0.00e+00	0	40	0	364904448	59	5035
2026-01-27 21:37:53.04	90.09	11.47	-43.9	-46.7	16.8	0.00e+00	0	40	0	367001600	59	4971
2026-01-27 21:37:54.03	90.27	11.45	-43.8	-46.6	17.0	0.00e+00	0	40	0	368050176	59	4924
2026-01-27 21:37:55.03	90.46	11.44	-43.8	-46.6	17.0	0.00e+00	0	40	0	370147328	59	4905
2026-01-27 21:37:56.02	90.64	11.43	-43.7	-46.5	17.1	0.00e+00	0	40	0	372244480	59	4826
2026-01-27 21:37:57.01	90.83	11.41	-43.7	-46.5	17.0	0.00e+00	0	40	0	374341632	59	4841
2026-01-27 21:37:58.00	91.01	11.40	-43.7	-46.5	17.1	0.00e+00	0	40	0	376438784	59	4831
2026-01-27 21:37:59.00	91.20	11.38	-43.8	-46.6	17.0	0.00e+00	0	40	0	377487360	59	4910
2026-01-27 21:37:59.99	91.38	11.37	-43.8	-46.5	17.0	0.00e+00	0	40	0	379584512	59	4838
2026-01-27 21:38:00.98	91.56	11.35	-43.8	-46.6	17.0	0.00e+00	0	40	0	381681664	59	4904
2026-01-27 21:38:01.98	91.75	11.33	-43.8	-46.5	17.1	0.00e+00	0	40	0	383778816	59	4841
2026-01-27 21:38:02.97	91.93	11.32	-43.8	-46.5	17.1	0.00e+00	0	40	0	384827392	59	4853
2026-01-27 21:38:03.96	92.12	11.30	-43.6	-46.3	17.3	0.00e+00	0	40	0	386924544	59	4738
2026-01-27 21:38:04.96	92.30	11.28	-43.7	-46.4	17.2	0.00e+00	0	40	0	389021696	59	4800
2026-01-27 21:38:05.95	92.48	11.27	-43.9	-46.7	16.9	0.00e+00	0	40	0	391118848	59	4950
2026-01-27 21:38:06.94	92.66	11.25	-43.9	-46.6	17.0	0.00e+00	0	40	0	393216000	59	4918
2026-01-27 21:38:07.94	92.85	11.23	-43.9	-46.7	16.9	0.00e+00	0	40	0	394264576	59	4940
2026-01-27 21:38:08.93	93.03	11.22	-44.0	-46.8	16.8	0.00e+00	0	40	0	396361728	59	5028
2026-01-27 21:38:09.92	93.21	11.20	-44.1	-47.0	16.6	0.00e+00	0	40	0	398458880	59	5107
2026-01-27 21:38:10.91	93.39	11.18	-43.9	-46.7	16.8	0.00e+00	0	40	0	400556032	59	4967
2026-01-27 21:38:11.91	93.58	11.16	-44.0	-46.9	16.7	0.00e+00	0	40	0	401604608	59	5053
2026-01-27 21:38:12.90	93.76	11.14	-44.0	-46.9	16.7	0.00e+00	0	40	0	403701760	59	5043
2026-01-27 21:38:13.89	93.94	11.12	-44.1	-47.0	16.6	0.00e+00	0	40	0	405798912	59	5111
2026-01-27 21:38:14.88	94.12	11.10	-43.9	-46.7	16.9	0.00e+00	0	40	0	407896064	59	4937
2026-01-27 21:38:15.88	94.30	11.09	-43.8	-46.6	17.0	0.00e+00	0	40	0	408944640	59	4881
2026-01-27 21:38:16.87	94.48	11.07	-43.8	-46.5	17.1	0.00e+00	0	40	0	411041792	59	4832
2026-01-27 21:38:17.86	94.66	11.05	-43.8	-46.5	17.0	0.00e+00	0	40	0	413138944	59	4867
2026-01-27 21:38:18.86	94.84	11.03	-43.7	-46.4	17.2	0.00e+00	0	40	0	415236096	59	4783
2026-01-27 21:38:19.85	95.02	11.01	-43.8	-46.6	17.0	0.00e+00	0	40	0	417333248	59	4879
2026-01-27 21:38:20.84	95.20	10.98	-43.8	-46.5	17.0	0.00e+00	0	40	0	418381824	59	4860
2026-01-27 21:38:21.84	95.38	10.96	-43.9	-46.7	16.8	0.00e+00	0	40	0	420478976	59	4972
2026-01-27 21:38:22.83	95.56	10.94	-43.8	-46.6	17.0	0.00e+00	0	40	0	422576128	59	4897
2026-01-27 21:38:23.82	95.74	10.92	-43.8	-46.6	16.9	0.00e+00	0	40	0	424673280	59	4909
2026-01-27 21:38:24.81	95.91	10.90	-43.9	-46.7	16.9	0.00e+00	0	40	0	425721856	59	4933
2026-01-27 21:38:25.81	96.09	10.88	-43.8	-46.5	17.0	0.00e+00	0	40	0	427819008	59	4851
2026-01-27 21:38:26.80	96.27	10.86	-43.8	-46.5	17.0	0.00e+00	0	40	0	429916160	59	4848
2026-01-27 21:38:27.79	96.45	10.83	-43.9	-46.6	16.9	0.00e+00	0	40	0	432013312	59	4926
2026-01-27 21:38:28.79	96.63	10.81	-43.9	-46.7	16.8	0.00e+00	0	40	0	434110464	59	4961
2026-01-27 21:38:29.78	96.80	10.79	-43.9	-46.7	16.8	0.00e+00	0	40	0	435159040	59	4958
2026-01-27 21:38:30.77	96.98	10.77	-44.1	-47.0	16.6	0.00e+00	0	40	0	437256192	59	5104
2026-01-27 21:38:31.76	97.16	10.74	-44.0	-46.8	16.8	0.00e+00	0	40	0	439353344	59	4985
2026-01-27 21:38:32.76	97.34	10.72	-43.9	-46.7	16.7	0.00e+00	0	40	0	441450496	59	4975
2026-01-27 21:38:33.75	97.51	10.70	-43.8	-46.6	17.0	0.00e+00	0	40	0	442499072	59	4893
2026-01-27 21:38:34.74	97.69	10.67	-43.7	-46.5	17.0	0.00e+00	0	40	0	444596224	59	4826
2026-01-27 21:38:35.73	97.86	10.65	-43.8	-46.5	16.9	0.00e+00	0	40	0	446693376	59	4867
2026-01-27 21:38:36.73	98.04	10.63	-43.7	-46.4	17.1	0.00e+00	0	40	0	448790528	59	4773
2026-01-27 21:38:37.72	98.21	10.60	-43.7	-46.4	17.1	0.00e+00	0	40	0	450887680	59	4776
2026-01-27 21:38:38.71	98.39	10.58	-43.8	-46.5	17.0	0.00e+00	0	40	0	451936256	59	4847
2026-01-27 21:38:39.71	98.56	10.55	-43.8	-46.6	16.9	0.00e+00	0	40	0	454033408	59	4898
2026-01-27 21:38:40.70	98.74	10.53	-43.9	-46.6	16.9	0.00e+00	0	40	0	456130560	59	4921
2026-01-27 21:38:41.69	98.91	10.50	-43.9	-46.6	16.9	0.00e+00	0	40	0	458227712	59	4909
2026-01-27 21:38:42.68	99.08	10.48	-44.0	-46.8	16.7	0.00e+00	0	40	0	459276288	59	4986
2026-01-27 21:38:43.68	99.26	10.45	-44.0	-46.8	16.7	0.00e+00	0	40	0	461373440	59	5022
2026-01-27 21:38:44.67	99.43	10.42	-43.8	-46.6	16.9	0.00e+00	0	40	0	463470592	59	4895
2026-01-27 21:38:45.66	99.60	10.40	-43.9	-46.6	16.9	0.00e+00	0	40	0	465567744	59	4908
2026-01-27 21:38:46.66	99.78	10.37	-43.9	-46.7	16.9	0.00e+00	0	40	0	467664896	59	4932
2026-01-27 21:38:47.65	99.95	10.35	-43.9	-46.7	16.8	0.00e+00	0	40	0	468713472	59	4938
2026-01-27 21:38:48.64	100.12	10.32	-44.0	-46.8	16.8	0.00e+00	0	40	0	470810624	59	4997
2026-01-27 21:38:49.63	100.29	10.29	-43.9	-46.7	16.8	0.00e+00	0	40	0	472907776	59	4951
2026-01-27 21:38:50.63	100.46	10.27	-44.1	-47.0	16.5	0.00e+00	0	40	0	475004928	59	5115
2026-01-27 21:38:51.62	100.63	10.24	-44.1	-46.9	16.6	0.00e+00	0	40	0	476053504	59	5064
2026-01-27 21:38:52.61	100.80	10.21	-44.3	-47.2	16.3	0.00e+00	0	40	0	478150656	59	5229
2026-01-27 21:38:53.60	100.97	10.18	-44.3	-47.2	16.3	0.00e+00	0	40	0	480247808	59	5266
2026-01-27 21:38:54.60	101.15	10.16	-44.4	-47.4	16.1	0.00e+00	0	40	0	482344960	59	5362
2026-01-27 21:38:55.59	101.31	10.13	-44.5	-47.5	16.0	0.00e+00	0	40	0	484442112	59	5441
2026-01-27 21:38:56.58	101.48	10.10	-44.6	-47.6	15.9	0.00e+00	0	40	0	485490688	59	5519
2026-01-27 21:38:57.58	101.65	10.07	-44.6	-47.8	15.8	0.00e+00	0	40	0	487587840	60	5289
2026-01-27 21:38:58.57	101.82	10.04	-44.8	-48.0	15.6	0.00e+00	0	40	0	489684992	60	5417
2026-01-27 21:38:59.56	101.99	10.01	-44.9	-48.1	15.4	0.00e+00	0	40	0	491782144	60	5511
2026-01-27 21:39:00.55	102.16	9.99	-45.1	-48.5	15.0	0.00e+00	0	40	0	492830720	60	5764
2026-01-27 21:39:01.55	102.33	9.96	-45.2	-48.6	14.9	7.00e-07	0	40	0	494927872	61	5487
2026-01-27 21:39:02.54	102.49	9.93	-45.3	-48.8	14.7	0.00e+00	0	40	0	497025024	61	5632
2026-01-27 21:39:03.53	102.66	9.90	-45.4	-48.9	14.7	0.00e+00	0	40	0	499122176	61	5676
2026-01-27 21:39:04.53	102.83	9.87	-45.4	-48.9	14.6	7.00e-07	0	40	0	500170752	61	5688
2026-01-27 21:39:05.52	103.00	9.84	-45.4	-49.0	14.6	0.00e+00	0	40	0	502267904	61	5725
2026-01-27 21:39:06.51	103.16	9.81	-45.3	-48.8	14.7	0.00e+00	0	40	0	504365056	61	5638
2026-01-27 21:39:07.50	103.33	9.78	-45.1	-48.5	15.0	0.00e+00	0	40	0	506462208	61	5446
2026-01-27 21:39:08.50	103.49	9.75	-45.2	-48.7	14.8	0.00e+00	0	40	0	508559360	61	5542
2026-01-27 21:39:09.49	103.66	9.72	-45.1	-48.5	15.0	0.00e+00	0	40	0	509607936	61	5453
2026-01-27 21:39:10.48	103.82	9.69	-45.2	-48.6	14.9	0.00e+00	0	40	0	511705088	61	5490
2026-01-27 21:39:11.48	103.99	9.66	-45.3	-48.7	14.8	7.00e-07	0	40	0	513802240	61	5575
2026-01-27 21:39:12.47	104.15	9.62	-45.3	-48.8	14.7	7.00e-07	0	40	0	515899392	61	5625
2026-01-27 21:39:13.46	104.32	9.59	-45.4	-48.9	14.6	7.00e-07	0	40	0	516947968	61	5720
2026-01-27 21:39:14.45	104.48	9.56	-45.6	-49.2	14.3	0.00e+00	0	40	0	519045120	61	5891
2026-01-27 21:39:15.45	104.64	9.53	-45.5	-49.2	14.3	0.00e+00	0	40	0	521142272	61	5856
2026-01-27 21:39:16.44	104.81	9.50	-45.7	-49.4	14.1	1.50e-06	0	40	0	523239424	61	6018
2026-01-27 21:39:17.43	104.97	9.47	-45.6	-49.3	14.2	1.50e-06	0	40	0	525336576	61	5969
2026-01-27 21:39:18.43	105.13	9.43	-45.7	-49.5	14.0	3.00e-06	0	40	0	526385152	62	5750
2026-01-27 21:39:19.42	105.29	9.40	-45.8	-49.6	13.9	2.20e-06	0	40	0	528482304	62	5847
2026-01-27 21:39:20.41	105.45	9.37	-45.9	-49.8	13.6	9.90e-06	0	40	0	530579456	62	5982
2026-01-27 21:39:21.41	105.62	9.34	-46.1	-50.2	13.3	1.90e-05	0	40	0	532676608	62	6235
2026-01-27 21:39:22.40	105.78	9.31	-46.2	-50.3	13.1	2.36e-05	0	40	0	533725184	63	5989
2026-01-27 21:39:23.39	105.94	9.27	-46.5	-50.9	12.6	1.09e-04	0	40	0	535822336	63	6352
2026-01-27 21:39:24.39	106.10	9.24	-46.6	-51.1	12.3	1.50e-04	0	40	0	537919488	63	6532
2026-01-27 21:39:25.38	106.26	9.21	-46.6	-51.2	12.1	1.79e-04	0	40	0	540016640	64	6257
2026-01-27 21:39:26.37	106.42	9.17	-46.5	-51.1	12.2	1.79e-04	0	40	0	542113792	64	6186
2026-01-27 21:39:27.37	106.58	9.14	-46.5	-51.1	12.2	2.01e-04	0	40	0	543162368	64	6153
2026-01-27 21:39:28.36	106.73	9.11	-46.3	-50.8	12.6	1.56e-04	0	40	0	545259520	64	5960
2026-01-27 21:39:29.35	106.89	9.07	-46.2	-50.5	12.7	1.06e-04	0	40	0	547356672	64	5780
2026-01-27 21:39:30.35	107.05	9.04	-46.1	-50.4	12.9	6.17e-05	0	40	0	549453824	64	5705
2026-01-27 21:39:31.34	107.21	9.01	-46.2	-50.6	12.8	4.34e-05	0	40	0	550502400	64	5791
2026-01-27 21:39:32.33	107.37	8.97	-49.6	-64.7	3.8	1.32e+00	0	40	104	551550976	69	22247
2026-01-27 21:39:33.32	107.52	8.94	-49.8	-65.0	3.8	1.49e+00	0	40	104	551550976	70	21703
2026-01-27 21:39:34.32	107.68	8.90	-49.9	-65.2	3.8	1.49e+00	0	40	104	551550976	70	22142
2026-01-27 21:39:35.31	107.84	8.87	-50.0	-65.3	3.8	1.49e+00	0	40	104	551550976	70	22342
2026-01-27 21:39:36.30	107.99	8.83	-50.1	-65.3	3.8	1.49e+00	0	40	104	551550976	70	22472
2026-01-27 21:39:37.30	108.15	8.80	-50.0	-65.4	3.8	1.49e+00	0	40	104	551550976	70	22615
2026-01-27 21:39:38.29	108.30	8.76	-49.8	-65.4	3.8	1.49e+00	0	40	104	551550976	70	22663
2026-01-27 21:39:39.28	108.46	8.73	-49.8	-65.5	3.8	1.49e+00	0	40	104	551550976	70	22835
2026-01-27 21:39:40.28	108.61	8.69	-50.0	-65.5	3.8	1.49e+00	0	40	104	551550976	70	22955
2026-01-27 21:39:41.27	108.77	8.66	-50.2	-65.5	3.8	1.49e+00	0	40	104	551550976	71	21724
2026-01-27 21:39:42.26	108.92	8.62	-50.3	-65.6	3.8	1.49e+00	0	40	104	551550976	71	21771
2026-01-27 21:39:43.26	109.07	8.59	-50.4	-65.6	3.8	1.49e+00	0	40	104	551550976	71	21820
2026-01-27 21:39:44.25	109.23	8.55	-50.4	-65.5	3.8	1.49e+00	0	40	104	551550976	71	21735
2026-01-27 21:39:45.24	109.38	8.52	-50.4	-65.6	3.8	1.49e+00	0	40	104	551550976	71	21866
2026-01-27 21:39:46.23	109.53	8.48	-50.3	-65.6	3.8	1.49e+00	0	40	104	551550976	71	21964
2026-01-27 21:39:47.23	109.68	8.44	-50.4	-65.6	3.8	1.49e+00	0	40	104	551550976	71	21815
2026-01-27 21:39:48.22	109.83	8.41	-50.4	-65.6	3.8	1.49e+00	0	40	104	551550976	71	21909
2026-01-27 21:39:49.21	109.99	8.37	-50.4	-65.6	3.8	1.49e+00	0	40	104	551550976	71	21902
2026-01-27 21:39:50.21	110.14	8.33	-50.4	-65.6	3.8	1.49e+00	0	40	104	551550976	71	21944
2026-01-27 21:39:51.20	110.29	8.30	-50.4	-65.7	3.8	1.49e+00	0	40	104	551550976	71	22016
2026-01-27 21:39:52.19	110.44	8.26	-50.4	-65.7	3.8	1.49e+00	0	40	104	551550976	71	22070
2026-01-27 21:39:53.19	110.59	8.22	-50.4	-65.7	3.8	1.49e+00	0	40	104	551550976	71	22046
2026-01-27 21:39:54.18	110.74	8.19	-50.4	-65.7	3.8	1.49e+00	0	40	104	551550976	71	22098
2026-01-27 21:39:55.17	110.89	8.15	-50.4	-65.7	3.8	1.49e+00	0	40	104	551550976	71	22124
2026-01-27 21:39:56.17	111.04	8.11	-50.3	-65.7	3.8	1.49e+00	0	40	104	551550976	71	22044
2026-01-27 21:39:57.16	111.18	8.08	-50.3	-65.7	3.8	1.49e+00	0	40	104	551550976	71	22054
2026-01-27 21:39:58.15	111.33	8.04	-50.3	-65.7	3.8	1.49e+00	0	40	104	551550976	71	22013
2026-01-27 21:39:59.15	111.48	8.00	-50.2	-65.7	3.8	1.49e+00	0	40	104	551550976	71	22033
2026-01-27 21:40:00.14	111.63	7.96	-50.3	-65.7	3.8	1.49e+00	0	40	104	551550976	71	22167
2026-01-27 21:40:01.13	111.77	7.93	-50.3	-65.7	3.8	1.49e+00	0	40	104	551550976	71	22142
2026-01-27 21:40:02.12	111.92	7.89	-50.4	-65.7	3.8	1.49e+00	0	40	104	551550976	71	22098
2026-01-27 21:40:03.12	112.07	7.85	-50.4	-65.7	3.8	1.49e+00	0	40	104	551550976	71	22013
2026-01-27 21:40:04.11	112.21	7.81	-50.4	-65.6	3.8	1.49e+00	0	40	104	551550976	71	21971
2026-01-27 21:40:05.10	112.36	7.77	-50.3	-65.6	3.8	1.49e+00	0	40	104	551550976	71	21890
2026-01-27 21:40:06.10	112.50	7.74	-50.3	-65.6	3.8	1.49e+00	0	40	104	551550976	71	21809
2026-01-27 21:40:07.09	112.65	7.70	-50.3	-65.5	3.8	1.49e+00	0	40	104	551550976	71	21748
2026-01-27 21:40:08.08	112.79	7.66	-50.1	-65.6	3.8	1.49e+00	0	40	104	551550976	71	21772
2026-01-27 21:40:09.07	112.93	7.62	-50.0	-65.5	3.8	1.49e+00	0	40	104	551550976	71	21606
2026-01-27 21:40:10.07	113.08	7.58	-50.0	-65.5	3.8	1.49e+00	0	40	104	551550976	71	21599
2026-01-27 21:40:11.06	113.22	7.54	-50.1	-65.4	3.8	1.49e+00	0	40	104	551550976	71	21453
2026-01-27 21:40:12.05	113.36	7.51	-50.0	-65.3	3.8	1.49e+00	0	40	104	551550976	71	21214
2026-01-27 21:40:13.05	113.51	7.47	-49.9	-65.2	3.8	1.49e+00	0	40	104	551550976	71	20934
2026-01-27 21:40:14.04	113.65	7.43	-49.7	-65.0	3.8	1.49e+00	0	40	104	551550976	71	20406
2026-01-27 21:40:15.03	113.79	7.39	-49.6	-64.9	3.8	1.49e+00	0	40	104	551550976	71	20240
2026-01-27 21:40:16.03	113.93	7.35	-49.6	-64.9	3.8	1.49e+00	0	40	104	551550976	71	20174
2026-01-27 21:40:17.02	114.07	7.31	-49.6	-64.9	3.8	1.49e+00	0	40	104	551550976	71	20185
2026-01-27 21:40:18.01	114.21	7.27	-49.6	-64.9	3.8	1.49e+00	0	40	104	551550976	71	20184
2026-01-27 21:40:19.00	114.35	7.23	-49.5	-64.9	3.8	1.49e+00	0	40	104	551550976	71	20122
2026-01-27 21:40:20.00	114.49	7.19	-49.6	-64.9	3.8	1.49e+00	0	40	104	551550976	71	20221
2026-01-27 21:40:20.99	114.63	7.15	-49.6	-64.9	3.8	1.49e+00	0	40	104	551550976	71	20131
2026-01-27 21:40:21.98	114.77	7.11	-49.5	-64.9	3.8	1.49e+00	0	40	104	551550976	71	20133
2026-01-27 21:40:22.98	114.91	7.07	-49.5	-64.9	3.8	1.49e+00	0	40	104	551550976	71	20106
2026-01-27 21:40:23.97	115.05	7.03	-49.5	-64.9	3.8	1.49e+00	0	40	104	551550976	71	20091
2026-01-27 21:40:24.96	115.19	6.99	-49.5	-64.9	3.8	1.49e+00	0	40	104	551550976	71	20111
2026-01-27 21:40:25.96	115.33	6.95	-49.5	-64.8	3.8	1.49e+00	0	40	104	551550976	71	20013
2026-01-27 21:40:26.95	115.46	6.91	-49.5	-64.8	3.8	1.49e+00	0	40	104	551550976	71	20048
2026-01-27 21:40:27.94	115.60	6.87	-49.5	-64.9	3.8	1.49e+00	0	40	104	551550976	71	20101
2026-01-27 21:40:28.93	115.74	6.83	-49.5	-64.8	3.8	1.49e+00	0	40	104	551550976	71	20049
2026-01-27 21:40:29.93	115.87	6.79	-49.5	-64.8	3.8	1.49e+00	0	40	104	551550976	71	20030
2026-01-27 21:40:30.92	116.01	6.75	-49.5	-64.8	3.8	1.49e+00	0	40	104	551550976	71	20027
2026-01-27 21:40:31.91	116.14	6.71	-49.5	-64.8	3.8	1.49e+00	0	40	104	551550976	71	19999
2026-01-27 21:40:32.91	116.28	6.67	-49.5	-64.8	3.8	1.49e+00	0	40	104	551550976	71	20003
2026-01-27 21:40:33.90	116.41	6.63	-49.5	-64.8	3.8	1.49e+00	0	40	104	551550976	71	20055
2026-01-27 21:40:34.89	116.55	6.59	-49.5	-64.8	3.8	1.49e+00	0	40	104	551550976	71	19957
2026-01-27 21:40:35.89	116.68	6.55	-49.5	-64.8	3.8	1.49e+00	0	40	104	551550976	71	19997
2026-01-27 21:40:36.88	116.82	6.51	-49.5	-64.8	3.8	1.49e+00	0	40	104	551550976	70	21133
2026-01-27 21:40:37.87	116.95	6.47	-49.5	-64.8	3.8	1.49e+00	0	40	104	551550976	70	21240
2026-01-27 21:40:38.86	117.08	6.43	-49.5	-64.8	3.8	1.49e+00	0	40	104	551550976	70	21179
2026-01-27 21:40:39.86	117.22	6.39	-49.5	-64.8	3.8	1.49e+00	0	40	104	551550976	70	21220
2026-01-27 21:40:40.85	117.35	6.35	-49.5	-64.8	3.8	1.49e+00	0	40	104	551550976	70	21128
2026-01-27 21:40:41.84	117.48	6.31	-49.5	-64.8	3.8	1.49e+00	0	40	104	551550976	70	21099
2026-01-27 21:40:42.84	117.61	6.26	-49.5	-64.8	3.8	1.49e+00	0	40	104	551550976	70	21127
2026-01-27 21:40:43.83	117.74	6.22	-49.5	-64.8	3.8	1.49e+00	0	40	104	551550976	70	21224
2026-01-27 21:40:44.82	117.87	6.18	-49.5	-64.9	3.8	1.49e+00	0	40	104	551550976	70	21287
2026-01-27 21:40:45.82	118.00	6.14	-49.5	-64.8	3.8	1.49e+00	0	40	104	551550976	70	21092
2026-01-27 21:40:46.81	118.13	6.10	-49.5	-64.8	3.8	1.49e+00	0	40	104	551550976	70	21044
2026-01-27 21:40:47.80	118.26	6.06	-49.5	-64.8	3.8	1.49e+00	0	40	104	551550976	70	21155
2026-01-27 21:40:48.79	118.39	6.02	-49.5	-64.8	3.8	1.49e+00	0	40	104	551550976	70	21177
2026-01-27 21:40:49.79	118.52	5.97	-49.5	-64.8	3.8	1.49e+00	0	40	104	551550976	70	21153
2026-01-27 21:40:50.78	118.65	5.93	-49.5	-64.8	3.8	1.49e+00	0	40	104	551550976	70	21206
2026-01-27 21:40:51.77	118.78	5.89	-49.4	-64.8	3.8	1.49e+00	0	40	104	551550976	70	21156
2026-01-27 21:40:52.77	118.91	5.85	-49.4	-64.8	3.8	1.49e+00	0	40	104	551550976	70	21088
2026-01-27 21:40:53.76	119.03	5.81	-49.5	-64.8	3.8	1.49e+00	0	40	104	551550976	70	21067
2026-01-27 21:40:54.75	119.16	5.77	-49.4	-64.7	3.8	1.49e+00	0	40	104	551550976	70	21017
2026-01-27 21:40:55.75	119.29	5.72	-49.4	-64.8	3.8	1.49e+00	0	40	104	551550976	70	21075
2026-01-27 21:40:56.74	119.42	5.68	-49.4	-64.8	3.8	1.49e+00	0	40	104	551550976	70	21196
2026-01-27 21:40:57.73	119.54	5.64	-49.4	-64.8	3.8	1.49e+00	0	40	104	551550976	70	21058
2026-01-27 21:40:58.72	119.67	5.60	-49.4	-64.8	3.8	1.49e+00	0	40	104	551550976	70	21057
2026-01-27 21:40:59.72	119.79	5.56	-49.4	-64.8	3.8	1.49e+00	0	40	104	551550976	70	21101
2026-01-27 21:41:00.71	119.92	5.51	-49.4	-64.8	3.8	1.49e+00	0	40	104	551550976	70	21034
2026-01-27 21:41:01.70	120.04	5.47	-49.4	-64.7	3.8	1.49e+00	0	40	104	551550976	70	21012
2026-01-27 21:41:02.70	120.17	5.43	-49.4	-64.8	3.8	1.49e+00	0	40	104	551550976	70	21101
2026-01-27 21:41:03.69	120.29	5.39	-49.4	-64.8	3.8	1.49e+00	0	40	104	551550976	70	21102
2026-01-27 21:41:04.68	120.42	5.35	-49.4	-64.8	3.8	1.49e+00	0	40	104	551550976	70	21076
2026-01-27 21:41:05.67	120.54	5.30	-49.4	-64.8	3.8	1.49e+00	0	40	104	551550976	70	21091
2026-01-27 21:41:06.67	120.66	5.26	-49.4	-64.8	3.8	1.49e+00	0	40	104	551550976	70	21050
2026-01-27 21:41:07.66	120.78	5.22	-49.4	-64.8	3.8	1.49e+00	0	40	104	551550976	70	21076
2026-01-27 21:41:08.65	120.91	5.18	-49.4	-64.8	3.8	1.49e+00	0	40	104	551550976	70	21043
2026-01-27 21:41:09.65	121.03	5.13	-49.4	-64.8	3.8	1.49e+00	0	40	104	551550976	70	21047
2026-01-27 21:41:10.64	121.15	5.09	-49.4	-64.8	3.8	1.49e+00	0	40	104	551550976	70	21052
2026-01-27 21:41:11.63	121.27	5.05	-49.4	-64.8	3.8	1.49e+00	0	40	104	551550976	70	21065
2026-01-27 21:41:12.63	121.39	5.01	-49.4	-64.7	3.8	1.49e+00	0	40	104	551550976	70	20958
2026-01-27 21:41:13.62	121.51	4.96	-49.4	-64.8	3.8	1.49e+00	0	40	104	551550976	70	21046

#Closed at: 2026-01-27 21:41:14
#Recorded file [551 MB]: D:/Data/31040_260128_003252.dat