passes_logs/2026/01/27/T1/T1__20260127_083220_NOAA_21_JPSS-2_rec.log

#Pass ID: 20260127_083220_NOAA 21 (JPSS-2)
#Satellite: NOAA 21 (JPSS-2)
#Configuration: NOAA 21
#almurnet v.1.7.20251203
#Start time: 2026-01-27 08:32:22

#Version: 2.0.20230620
#Station: T1
#Location: 37.570604 lon 55.790049 lat
#TLE: 1 54234U 22150A   26026.78373243  .00000177  00000+0  10458-3 0  9996
#TLE: 2 54234  98.7509 327.5416 0000822 208.1870 151.9262 14.19539807166482

#Time	Az	El	Level	Level2	SNR	BER	BlckErr	Temp	State	Recorded	gain1	gain2
2026-01-27 08:32:22.77	116.26	5.14	-49.5	-62.6	3.8	1.49e+00	0	41	0	0	71	15532
2026-01-27 08:32:23.76	116.19	5.21	-49.5	-62.6	3.8	1.49e+00	0	41	104	0	71	15502
2026-01-27 08:32:24.76	116.11	5.27	-49.5	-62.6	3.8	1.49e+00	0	41	104	0	71	15471
2026-01-27 08:32:25.75	116.04	5.34	-49.5	-62.6	3.8	1.49e+00	0	41	104	0	71	15406
2026-01-27 08:32:26.75	115.97	5.40	-49.5	-62.6	3.8	1.49e+00	0	41	104	0	71	15433
2026-01-27 08:32:27.74	115.90	5.46	-49.5	-62.5	3.8	1.49e+00	0	41	104	0	71	15393
2026-01-27 08:32:28.74	115.83	5.53	-49.5	-62.5	3.8	1.49e+00	0	41	104	0	71	15367
2026-01-27 08:32:29.73	115.75	5.59	-49.5	-62.6	3.8	1.49e+00	0	41	104	0	71	15440
2026-01-27 08:32:30.73	115.68	5.66	-49.5	-62.6	3.8	1.49e+00	0	42	104	0	71	15414
2026-01-27 08:32:31.73	115.61	5.72	-49.5	-62.5	3.8	1.49e+00	0	41	104	0	71	15382
2026-01-27 08:32:32.72	115.53	5.79	-49.5	-62.6	3.8	1.49e+00	0	42	104	0	71	15454
2026-01-27 08:32:33.72	115.46	5.85	-49.5	-62.6	3.8	1.49e+00	0	42	104	0	71	15504
2026-01-27 08:32:34.72	115.38	5.92	-49.5	-62.6	3.8	1.49e+00	0	42	104	0	71	15458
2026-01-27 08:32:35.71	115.31	5.98	-49.5	-62.6	3.8	1.49e+00	0	42	104	0	71	15485
2026-01-27 08:32:36.71	115.24	6.05	-49.5	-62.6	3.8	1.49e+00	0	42	104	0	71	15449
2026-01-27 08:32:37.70	115.16	6.11	-49.5	-62.6	3.8	1.49e+00	0	42	104	0	71	15489
2026-01-27 08:32:38.70	115.08	6.18	-49.5	-62.6	3.8	1.49e+00	0	42	104	0	71	15502
2026-01-27 08:32:39.69	115.01	6.24	-49.5	-62.6	3.8	1.49e+00	0	42	104	0	71	15429
2026-01-27 08:32:40.69	114.93	6.31	-49.5	-62.5	3.8	1.49e+00	0	42	104	0	71	15262
2026-01-27 08:32:41.68	114.86	6.37	-49.5	-62.3	3.8	1.49e+00	0	42	104	0	71	15032
2026-01-27 08:32:42.68	114.78	6.44	-49.5	-62.2	3.8	1.49e+00	0	42	104	0	70	15667
2026-01-27 08:32:43.68	114.70	6.50	-49.4	-62.0	3.8	1.49e+00	0	42	104	0	70	15375
2026-01-27 08:32:44.67	114.62	6.57	-49.4	-61.9	3.8	1.49e+00	0	42	104	0	70	15066
2026-01-27 08:32:45.67	114.54	6.64	-49.4	-61.7	3.8	1.49e+00	0	42	104	0	70	14736
2026-01-27 08:32:46.66	114.47	6.70	-49.4	-61.6	3.8	1.49e+00	0	42	104	0	70	14546
2026-01-27 08:32:47.66	114.39	6.77	-49.4	-61.5	3.8	1.49e+00	0	42	104	0	70	14534
2026-01-27 08:32:48.65	114.31	6.84	-49.4	-61.5	3.8	1.49e+00	0	42	104	0	70	14478
2026-01-27 08:32:49.65	114.23	6.90	-49.4	-61.6	3.8	1.49e+00	0	42	104	0	70	14571
2026-01-27 08:32:50.65	114.15	6.97	-49.4	-61.7	3.8	1.49e+00	0	42	104	0	70	14803
2026-01-27 08:32:51.64	114.07	7.04	-49.4	-61.8	3.8	1.49e+00	0	42	104	0	70	14983
2026-01-27 08:32:52.64	113.99	7.10	-49.4	-61.9	3.8	1.49e+00	0	42	104	0	70	15111
2026-01-27 08:32:53.64	113.90	7.17	-49.4	-61.9	3.8	1.49e+00	0	42	104	0	70	15098
2026-01-27 08:32:54.63	113.82	7.24	-49.4	-61.9	3.8	1.49e+00	0	42	104	0	70	15123
2026-01-27 08:32:55.63	113.74	7.30	-49.4	-61.8	3.8	1.49e+00	0	42	104	0	70	14986
2026-01-27 08:32:56.62	113.66	7.37	-49.4	-61.8	3.8	1.49e+00	0	42	104	0	70	14911
2026-01-27 08:32:57.62	113.58	7.44	-49.4	-61.8	3.8	1.49e+00	0	42	104	0	70	14882
2026-01-27 08:32:58.62	113.49	7.51	-49.4	-61.8	3.8	1.49e+00	0	42	104	0	70	15035
2026-01-27 08:32:59.61	113.41	7.58	-49.4	-62.1	3.8	1.49e+00	0	42	104	0	70	15467
2026-01-27 08:33:00.61	113.32	7.64	-49.5	-62.4	3.8	1.49e+00	0	42	104	0	70	15966
2026-01-27 08:33:01.61	113.24	7.71	-49.5	-62.6	3.8	1.49e+00	0	43	104	0	70	16411
2026-01-27 08:33:02.60	113.16	7.78	-49.4	-61.7	3.8	1.49e+00	0	43	104	0	70	14858
2026-01-27 08:33:03.60	113.07	7.85	-49.2	-59.2	4.2	1.49e+00	0	42	104	0	70	11055
2026-01-27 08:33:04.59	112.98	7.92	-48.6	-56.0	5.7	6.75e-01	0	42	0	0	69	8090
2026-01-27 08:33:05.59	112.90	7.99	-47.6	-53.0	8.1	1.27e-01	0	43	0	0	67	6486
2026-01-27 08:33:06.58	112.81	8.05	-46.5	-50.7	10.5	8.48e-03	0	43	0	0	65	5532
2026-01-27 08:33:07.58	112.72	8.12	-45.4	-48.7	12.7	2.12e-04	0	42	0	0	62	5244
2026-01-27 08:33:08.58	112.64	8.19	-44.4	-47.3	14.0	3.80e-06	0	42	0	0	60	4989
2026-01-27 08:33:09.57	112.55	8.26	-43.6	-46.0	15.2	0.00e+00	0	43	0	0	59	4591
2026-01-27 08:33:10.57	112.46	8.33	-43.0	-45.3	16.0	0.00e+00	0	43	0	0	58	4485
2026-01-27 08:33:11.57	112.37	8.40	-42.6	-44.8	16.4	0.00e+00	0	42	0	0	57	4472
2026-01-27 08:33:12.56	112.28	8.47	-42.4	-44.6	16.7	0.00e+00	0	42	0	0	56	4601
2026-01-27 08:33:13.56	112.19	8.54	-42.7	-44.9	16.3	0.00e+00	0	42	0	0	56	4792
2026-01-27 08:33:14.55	112.10	8.61	-42.9	-45.2	16.0	0.00e+00	0	43	0	0	56	4979
2026-01-27 08:33:15.55	112.01	8.68	-43.7	-46.2	15.0	0.00e+00	0	43	0	0	58	4980
2026-01-27 08:33:16.55	111.92	8.75	-44.6	-47.4	13.8	3.80e-06	0	43	0	0	59	5399
2026-01-27 08:33:17.54	111.83	8.82	-45.5	-48.9	12.4	8.92e-05	0	43	0	0	61	5686
2026-01-27 08:33:18.54	111.74	8.89	-46.6	-50.9	10.2	1.70e-03	0	43	0	0	64	6053
2026-01-27 08:33:19.53	111.65	8.96	-47.6	-53.2	7.9	3.48e-02	0	43	0	0	65	7447
2026-01-27 08:33:20.53	111.56	9.03	-48.5	-56.3	5.4	3.64e-01	0	43	0	0	67	9414
2026-01-27 08:33:21.53	111.46	9.10	-46.9	-51.4	9.5	7.00e-01	0	43	0	0	65	5997
2026-01-27 08:33:22.53	111.37	9.17	-46.1	-49.7	11.8	5.95e-05	0	43	0	0	62	5918
2026-01-27 08:33:23.53	111.27	9.24	-48.9	-57.5	4.9	4.96e-01	0	43	0	0	68	10197
2026-01-27 08:33:24.53	111.18	9.31	-47.1	-52.5	4.7	1.49e+00	0	43	104	0	66	6487
2026-01-27 08:33:25.53	111.08	9.38	-47.0	-51.4	10.0	2.18e-04	0	43	0	0	64	6419
2026-01-27 08:33:26.66	110.98	9.47	-47.1	-51.6	9.4	1.48e+00	0	43	0	0	66	5823
2026-01-27 08:33:27.51	110.89	9.53	-45.3	-48.5	13.0	3.50e-05	0	43	0	0	62	5122
2026-01-27 08:33:28.65	110.78	9.61	-45.2	-48.3	13.1	2.21e-05	0	43	0	0	62	5012
2026-01-27 08:33:29.50	110.70	9.67	-44.8	-47.7	13.8	1.67e-05	0	43	0	0	61	4948
2026-01-27 08:33:30.64	110.59	9.75	-44.4	-47.1	14.3	3.00e-06	0	43	0	0	60	4882
2026-01-27 08:33:31.49	110.51	9.81	-43.9	-46.5	14.9	0.00e+00	0	43	0	0	59	4832
2026-01-27 08:33:32.63	110.39	9.90	-43.4	-45.8	15.6	0.00e+00	0	43	0	0	58	4707
2026-01-27 08:33:33.48	110.31	9.96	-43.5	-45.9	15.5	0.00e+00	0	43	0	0	58	4772
2026-01-27 08:33:34.62	110.19	10.04	-43.2	-45.5	15.9	0.00e+00	0	43	0	0	58	4554
2026-01-27 08:33:35.47	110.11	10.10	-42.7	-44.9	16.4	0.00e+00	0	43	0	0	57	4536
2026-01-27 08:33:36.61	109.99	10.18	-42.4	-44.5	16.9	0.00e+00	0	43	0	0	56	4570
2026-01-27 08:33:37.46	109.91	10.25	-42.3	-44.4	16.9	0.00e+00	0	43	0	0	56	4542
2026-01-27 08:33:38.60	109.79	10.33	-42.3	-44.4	17.0	0.00e+00	0	43	0	0	56	4527
2026-01-27 08:33:39.45	109.71	10.39	-42.0	-44.0	17.3	0.00e+00	0	43	0	0	56	4329
2026-01-27 08:33:40.59	109.59	10.48	-41.6	-43.6	17.6	0.00e+00	0	43	0	0	55	4362
2026-01-27 08:33:41.44	109.50	10.54	-41.6	-43.6	17.6	0.00e+00	0	43	0	0	55	4365
2026-01-27 08:33:42.58	109.38	10.62	-41.6	-43.6	17.6	0.00e+00	0	43	0	0	55	4355
2026-01-27 08:33:43.43	109.29	10.68	-41.3	-43.2	18.0	0.00e+00	0	43	0	0	54	4414
2026-01-27 08:33:44.57	109.17	10.77	-41.1	-43.0	18.2	0.00e+00	0	43	0	0	54	4318
2026-01-27 08:33:45.42	109.08	10.83	-41.1	-43.0	18.2	0.00e+00	0	43	0	0	54	4293
2026-01-27 08:33:46.56	108.96	10.92	-41.0	-42.8	18.3	0.00e+00	0	43	0	0	54	4232
2026-01-27 08:33:47.41	108.87	10.98	-41.0	-42.9	18.2	0.00e+00	0	43	0	0	53	4530
2026-01-27 08:33:48.55	108.75	11.06	-40.9	-42.8	18.4	0.00e+00	0	43	0	0	53	4479
2026-01-27 08:33:49.41	108.66	11.13	-40.8	-42.7	18.5	0.00e+00	0	43	0	0	53	4414
2026-01-27 08:33:50.54	108.54	11.21	-40.8	-42.6	18.5	0.00e+00	0	43	0	0	53	4379
2026-01-27 08:33:51.40	108.44	11.28	-40.8	-42.6	18.5	0.00e+00	0	43	0	0	53	4381
2026-01-27 08:33:52.53	108.32	11.36	-40.7	-42.6	18.5	0.00e+00	0	43	0	0	53	4354
2026-01-27 08:33:53.39	108.22	11.43	-40.8	-42.6	18.5	0.00e+00	0	43	0	0	53	4373
2026-01-27 08:33:54.52	108.10	11.51	-40.7	-42.6	18.5	0.00e+00	0	43	0	0	53	4347
2026-01-27 08:33:55.38	108.00	11.57	-40.9	-42.8	18.3	0.00e+00	0	43	0	0	53	4468
2026-01-27 08:33:56.51	107.88	11.66	-40.8	-42.7	18.4	0.00e+00	0	43	0	0	53	4418
2026-01-27 08:33:57.37	107.78	11.73	-40.8	-42.6	18.5	0.00e+00	0	43	0	0	53	4372
2026-01-27 08:33:58.51	107.65	11.81	-40.8	-42.6	18.5	0.00e+00	0	43	0	0	53	4391
2026-01-27 08:33:59.36	107.56	11.88	-40.7	-42.6	18.6	0.00e+00	0	43	0	0	53	4363
2026-01-27 08:34:00.49	107.43	11.96	-40.7	-42.6	18.6	0.00e+00	0	43	0	0	53	4354
2026-01-27 08:34:01.35	107.33	12.03	-40.7	-42.5	18.7	0.00e+00	0	43	0	0	53	4331
2026-01-27 08:34:02.48	107.20	12.11	-40.7	-42.5	18.6	0.00e+00	0	43	0	0	53	4336
2026-01-27 08:34:03.34	107.10	12.18	-40.7	-42.5	18.6	0.00e+00	0	43	0	0	53	4340
2026-01-27 08:34:04.47	106.97	12.26	-40.6	-42.4	18.8	0.00e+00	0	43	0	0	53	4249
2026-01-27 08:34:05.32	106.87	12.33	-40.6	-42.4	18.8	0.00e+00	0	43	0	0	53	4272
2026-01-27 08:34:06.46	106.73	12.42	-40.7	-42.5	18.7	0.00e+00	0	43	0	0	53	4331
2026-01-27 08:34:07.32	106.63	12.48	-40.8	-42.6	18.6	0.00e+00	0	43	0	0	53	4383
2026-01-27 08:34:08.61	106.48	12.58	-40.7	-42.5	18.7	0.00e+00	0	43	0	0	53	4324
2026-01-27 08:34:09.33	106.39	12.64	-40.7	-42.6	18.6	0.00e+00	0	43	0	0	53	4359
2026-01-27 08:34:10.61	106.24	12.74	-40.8	-42.6	18.6	0.00e+00	0	43	0	0	53	4391
2026-01-27 08:34:11.32	106.15	12.79	-40.8	-42.7	18.5	0.00e+00	0	43	0	0	53	4404
2026-01-27 08:34:12.60	106.00	12.89	-40.7	-42.5	18.7	0.00e+00	0	43	0	0	53	4330
2026-01-27 08:34:13.31	105.91	12.94	-40.8	-42.6	18.6	0.00e+00	0	43	0	0	53	4366
2026-01-27 08:34:14.59	105.75	13.04	-40.9	-42.7	18.5	0.00e+00	0	43	0	0	53	4427
2026-01-27 08:34:15.31	105.66	13.10	-40.9	-42.8	18.5	0.00e+00	0	43	0	0	53	4446
2026-01-27 08:34:16.58	105.51	13.20	-40.7	-42.6	18.7	0.00e+00	0	43	0	0	53	4346
2026-01-27 08:34:17.47	105.40	13.27	-40.7	-42.5	18.7	0.00e+00	0	43	0	0	53	4323
2026-01-27 08:34:18.61	105.25	13.36	-40.6	-42.4	18.9	0.00e+00	0	43	0	0	53	4248
2026-01-27 08:34:19.46	105.14	13.42	-40.7	-42.5	18.7	0.00e+00	0	43	0	0	53	4325
2026-01-27 08:34:20.60	105.00	13.51	-40.4	-42.2	19.0	0.00e+00	0	43	0	0	52	4434
2026-01-27 08:34:21.45	104.89	13.58	-40.5	-42.3	18.9	0.00e+00	0	43	0	0	52	4473
2026-01-27 08:34:22.59	104.75	13.67	-40.5	-42.3	18.9	0.00e+00	0	43	0	0	52	4463
2026-01-27 08:34:23.79	104.59	13.76	-40.5	-42.3	18.9	0.00e+00	0	43	0	0	52	4470
2026-01-27 08:34:24.82	104.46	13.84	-40.5	-42.3	18.9	0.00e+00	0	43	0	0	52	4476
2026-01-27 08:34:25.81	104.33	13.92	-40.6	-42.4	18.7	0.00e+00	0	43	0	0	52	4543
2026-01-27 08:34:26.81	104.20	14.00	-40.7	-42.5	18.7	0.00e+00	0	43	0	0	52	4567
2026-01-27 08:34:27.80	104.07	14.08	-40.8	-42.6	18.6	0.00e+00	0	43	0	0	52	4644
2026-01-27 08:34:28.80	103.93	14.16	-40.6	-42.5	18.8	0.00e+00	0	44	0	0	52	4549
2026-01-27 08:34:29.79	103.80	14.24	-40.6	-42.4	18.8	0.00e+00	0	43	0	0	52	4525
2026-01-27 08:34:30.79	103.67	14.31	-40.6	-42.4	18.8	0.00e+00	0	43	0	0	52	4532
2026-01-27 08:34:31.78	103.53	14.39	-40.6	-42.4	18.9	0.00e+00	0	44	0	0	52	4513
2026-01-27 08:34:32.78	103.40	14.47	-40.6	-42.4	18.9	0.00e+00	0	43	0	0	52	4537
2026-01-27 08:34:33.77	103.26	14.55	-40.6	-42.4	18.9	0.00e+00	0	43	0	0	52	4507
2026-01-27 08:34:34.77	103.13	14.63	-40.5	-42.3	19.0	0.00e+00	0	43	0	0	52	4480
2026-01-27 08:34:35.84	102.98	14.72	-40.5	-42.3	19.0	0.00e+00	0	43	0	0	52	4454
2026-01-27 08:34:36.73	102.86	14.79	-40.5	-42.3	19.0	0.00e+00	0	43	0	0	52	4443
2026-01-27 08:34:37.86	102.70	14.88	-40.4	-42.2	19.1	0.00e+00	0	44	0	0	52	4394
2026-01-27 08:34:38.80	102.57	14.95	-40.5	-42.3	18.9	0.00e+00	0	43	0	0	52	4468
2026-01-27 08:34:39.96	102.40	15.05	-40.5	-42.2	19.0	0.00e+00	0	44	0	0	52	4439
2026-01-27 08:34:40.85	102.28	15.12	-40.4	-42.2	19.0	0.00e+00	0	43	0	0	52	4396
2026-01-27 08:34:41.98	102.12	15.21	-40.4	-42.2	19.0	0.00e+00	0	43	0	0	52	4434
2026-01-27 08:34:42.84	101.99	15.28	-40.5	-42.3	18.9	0.00e+00	0	44	0	0	52	4488
2026-01-27 08:34:43.98	101.83	15.37	-40.7	-42.5	18.8	0.00e+00	0	44	0	0	52	4575
2026-01-27 08:34:44.83	101.71	15.44	-40.8	-42.6	18.7	0.00e+00	0	43	0	0	52	4627
2026-01-27 08:34:45.97	101.54	15.53	-40.7	-42.6	18.8	0.00e+00	0	44	0	0	52	4600
2026-01-27 08:34:46.82	101.42	15.60	-40.7	-42.5	18.8	0.00e+00	0	44	0	0	52	4585
2026-01-27 08:34:47.95	101.25	15.69	-40.8	-42.6	18.7	0.00e+00	0	44	0	0	52	4650
2026-01-27 08:34:48.81	101.12	15.76	-40.8	-42.6	18.8	0.00e+00	0	43	0	0	52	4611
2026-01-27 08:34:49.94	100.95	15.85	-40.7	-42.5	18.8	0.00e+00	0	44	0	0	52	4596
2026-01-27 08:34:50.80	100.83	15.92	-40.7	-42.6	18.7	0.00e+00	0	44	0	0	52	4604
2026-01-27 08:34:52.02	100.64	16.02	-40.8	-42.7	18.7	0.00e+00	0	44	0	0	52	4659
2026-01-27 08:34:52.87	100.51	16.09	-40.9	-42.7	18.6	0.00e+00	0	43	0	0	52	4681
2026-01-27 08:34:54.00	100.34	16.18	-40.9	-42.7	18.5	0.00e+00	0	44	0	0	52	4686
2026-01-27 08:34:54.86	100.21	16.25	-40.8	-42.7	18.6	0.00e+00	0	43	0	0	52	4679
2026-01-27 08:34:56.11	100.02	16.35	-40.9	-42.8	18.5	0.00e+00	0	44	0	0	52	4726
2026-01-27 08:34:56.96	99.89	16.42	-41.0	-42.9	18.4	0.00e+00	0	44	0	0	52	4760
2026-01-27 08:34:58.09	99.71	16.51	-41.0	-42.8	18.5	0.00e+00	0	43	0	0	52	4755
2026-01-27 08:34:58.95	99.58	16.58	-41.0	-42.9	18.4	0.00e+00	0	44	0	0	52	4769
2026-01-27 08:35:00.08	99.40	16.68	-40.9	-42.8	18.6	0.00e+00	0	44	0	0	52	4722
2026-01-27 08:35:01.00	99.25	16.75	-40.9	-42.8	18.5	0.00e+00	0	43	0	0	52	4722
2026-01-27 08:35:01.99	99.10	16.83	-41.0	-42.9	18.5	0.00e+00	0	44	0	0	52	4773
2026-01-27 08:35:02.99	98.94	16.91	-41.0	-42.8	18.5	0.00e+00	0	44	0	0	52	4753
2026-01-27 08:35:03.98	98.78	16.99	-41.0	-42.8	18.5	0.00e+00	0	44	0	0	52	4757
2026-01-27 08:35:04.97	98.62	17.08	-41.0	-42.9	18.5	0.00e+00	0	44	0	0	52	4766
2026-01-27 08:35:05.97	98.45	17.16	-41.1	-43.0	18.4	0.00e+00	0	44	0	0	52	4820
2026-01-27 08:35:06.97	98.29	17.24	-41.2	-43.1	18.2	0.00e+00	0	44	0	0	53	4634
2026-01-27 08:35:07.96	98.13	17.32	-41.0	-42.9	18.5	0.00e+00	0	44	0	0	53	4520
2026-01-27 08:35:08.96	97.96	17.40	-40.9	-42.7	18.6	0.00e+00	0	44	0	0	53	4421
2026-01-27 08:35:09.95	97.80	17.48	-40.7	-42.6	18.7	0.00e+00	0	44	0	0	53	4354
2026-01-27 08:35:10.95	97.63	17.57	-40.7	-42.6	18.7	0.00e+00	0	44	0	0	53	4349
2026-01-27 08:35:11.94	97.47	17.65	-40.6	-42.4	18.9	0.00e+00	0	44	0	0	53	4273
2026-01-27 08:35:12.93	97.30	17.73	-40.6	-42.4	18.9	0.00e+00	0	43	0	0	53	4257
2026-01-27 08:35:13.93	97.13	17.81	-40.7	-42.5	18.8	0.00e+00	0	43	0	0	53	4296
2026-01-27 08:35:14.92	96.96	17.89	-40.6	-42.4	18.9	0.00e+00	0	43	0	0	53	4284
2026-01-27 08:35:15.92	96.79	17.97	-40.6	-42.4	18.9	0.00e+00	0	44	0	0	53	4280
2026-01-27 08:35:16.92	96.62	18.06	-40.6	-42.4	19.0	0.00e+00	0	44	0	0	53	4248
2026-01-27 08:35:17.91	96.44	18.14	-40.6	-42.4	19.0	0.00e+00	0	44	0	0	53	4244
2026-01-27 08:35:18.91	96.27	18.22	-40.5	-42.3	19.0	0.00e+00	0	44	0	0	53	4229
2026-01-27 08:35:19.90	96.10	18.30	-40.4	-42.1	19.2	0.00e+00	0	44	0	0	52	4391
2026-01-27 08:35:20.89	95.92	18.38	-40.3	-42.1	19.2	0.00e+00	0	44	0	0	52	4376
2026-01-27 08:35:21.95	95.73	18.47	-40.4	-42.1	19.2	0.00e+00	0	44	0	0	52	4388
2026-01-27 08:35:22.85	95.57	18.54	-40.3	-42.1	19.3	0.00e+00	0	43	0	0	52	4343
2026-01-27 08:35:23.94	95.38	18.63	-40.3	-42.0	19.3	0.00e+00	0	44	0	0	52	4329
2026-01-27 08:35:24.79	95.22	18.70	-40.2	-42.0	19.3	0.00e+00	0	44	0	0	52	4317
2026-01-27 08:35:25.93	95.02	18.80	-40.1	-41.9	19.4	0.00e+00	0	43	0	0	52	4262
2026-01-27 08:35:26.78	94.86	18.86	-40.0	-41.7	19.5	0.00e+00	0	44	0	0	52	4193
2026-01-27 08:35:27.92	94.66	18.96	-40.1	-41.9	19.4	0.00e+00	0	44	0	0	52	4245
2026-01-27 08:35:28.77	94.50	19.03	-40.1	-41.9	19.4	0.00e+00	0	44	0	0	52	4247
2026-01-27 08:35:29.91	94.29	19.12	-40.1	-41.8	19.5	0.00e+00	0	44	0	0	52	4224
2026-01-27 08:35:30.77	94.13	19.19	-40.0	-41.7	19.6	0.00e+00	0	44	0	0	52	4193
2026-01-27 08:35:31.90	93.92	19.28	-40.0	-41.7	19.7	0.00e+00	0	44	0	0	51	4429
2026-01-27 08:35:32.76	93.75	19.35	-39.9	-41.6	19.8	0.00e+00	0	44	0	0	51	4347
2026-01-27 08:35:33.97	93.53	19.45	-39.8	-41.5	19.8	0.00e+00	0	44	0	0	51	4325
2026-01-27 08:35:34.83	93.36	19.52	-39.8	-41.5	19.8	0.00e+00	0	44	0	0	51	4304
2026-01-27 08:35:35.96	93.15	19.62	-39.9	-41.6	19.7	0.00e+00	0	44	0	0	51	4352
2026-01-27 08:35:36.82	92.98	19.69	-39.9	-41.6	19.6	0.00e+00	0	44	0	0	51	4384
2026-01-27 08:35:37.95	92.76	19.78	-40.0	-41.8	19.5	0.00e+00	0	44	0	0	51	4448
2026-01-27 08:35:38.80	92.60	19.85	-40.2	-42.0	19.3	0.00e+00	0	44	0	0	51	4546
2026-01-27 08:35:39.94	92.37	19.94	-40.2	-42.0	19.4	0.00e+00	0	44	0	0	51	4568
2026-01-27 08:35:40.80	92.21	20.01	-40.2	-41.9	19.4	0.00e+00	0	44	0	0	51	4536
2026-01-27 08:35:41.94	91.98	20.10	-40.1	-41.9	19.5	0.00e+00	0	44	0	0	51	4505
2026-01-27 08:35:42.79	91.81	20.17	-40.0	-41.7	19.6	0.00e+00	0	44	0	0	51	4440
2026-01-27 08:35:43.92	91.59	20.26	-40.2	-41.9	19.5	0.00e+00	0	44	0	0	51	4530
2026-01-27 08:35:44.78	91.41	20.33	-40.2	-41.9	19.4	0.00e+00	0	44	0	0	51	4530
2026-01-27 08:35:45.92	91.18	20.42	-40.0	-41.7	19.6	0.00e+00	0	44	0	0	51	4425
2026-01-27 08:35:46.77	91.01	20.49	-40.0	-41.8	19.6	0.00e+00	0	44	0	0	51	4443
2026-01-27 08:35:47.91	90.78	20.58	-40.1	-41.8	19.6	0.00e+00	0	44	0	0	51	4478
2026-01-27 08:35:48.76	90.61	20.65	-40.1	-41.9	19.6	0.00e+00	0	44	0	0	51	4504
2026-01-27 08:35:49.91	90.37	20.74	-40.0	-41.7	19.7	0.00e+00	0	44	0	0	51	4430
2026-01-27 08:35:50.77	90.19	20.81	-40.0	-41.7	19.8	0.00e+00	0	44	0	0	51	4418
2026-01-27 08:35:51.90	89.96	20.90	-40.1	-41.8	19.7	0.00e+00	0	44	0	0	51	4469
2026-01-27 08:35:52.75	89.78	20.97	-39.8	-41.5	19.9	0.00e+00	0	44	0	0	51	4339
2026-01-27 08:35:54.02	89.51	21.07	-39.7	-41.4	20.0	0.00e+00	0	44	0	0	51	4250
2026-01-27 08:35:54.82	89.34	21.13	-39.7	-41.4	20.0	0.00e+00	0	43	0	0	51	4253
2026-01-27 08:35:55.96	89.10	21.23	-39.6	-41.3	20.0	0.00e+00	0	44	0	0	51	4210
2026-01-27 08:35:56.81	88.92	21.29	-39.6	-41.3	20.1	0.00e+00	0	43	0	0	51	4195
2026-01-27 08:35:57.95	88.67	21.38	-39.5	-41.2	20.1	0.00e+00	0	44	0	0	50	4431
2026-01-27 08:35:58.80	88.49	21.45	-39.5	-41.2	20.2	0.00e+00	0	43	0	0	50	4419
2026-01-27 08:35:59.94	88.24	21.54	-39.4	-41.1	20.3	0.00e+00	0	44	0	0	50	4362
2026-01-27 08:36:00.79	88.06	21.61	-39.5	-41.2	20.2	0.00e+00	0	44	0	0	50	4409
2026-01-27 08:36:01.93	87.81	21.69	-39.7	-41.4	20.0	0.00e+00	0	44	0	0	50	4511
2026-01-27 08:36:02.78	87.62	21.76	-39.6	-41.3	20.0	0.00e+00	0	44	0	0	50	4493
2026-01-27 08:36:03.92	87.37	21.85	-39.6	-41.3	20.1	0.00e+00	0	44	0	0	50	4461
2026-01-27 08:36:04.77	87.18	21.91	-39.6	-41.4	20.0	0.00e+00	0	44	0	0	50	4508
2026-01-27 08:36:05.91	86.92	22.00	-39.6	-41.4	20.0	0.00e+00	0	44	0	0	50	4504
2026-01-27 08:36:06.76	86.73	22.07	-39.7	-41.4	20.0	0.00e+00	0	44	0	0	50	4516
2026-01-27 08:36:07.98	86.46	22.16	-39.7	-41.4	19.9	0.00e+00	0	44	0	0	50	4540
2026-01-27 08:36:08.83	86.27	22.23	-39.7	-41.4	20.0	0.00e+00	0	44	0	0	50	4543
2026-01-27 08:36:09.97	86.01	22.31	-39.7	-41.4	20.0	0.00e+00	0	43	0	0	50	4534
2026-01-27 08:36:10.82	85.81	22.38	-39.7	-41.4	20.0	0.00e+00	0	44	0	0	50	4530
2026-01-27 08:36:12.09	85.52	22.47	-39.8	-41.5	19.9	0.00e+00	0	44	0	0	50	4574
2026-01-27 08:36:12.89	85.33	22.53	-39.8	-41.5	19.9	0.00e+00	0	44	0	0	50	4569
2026-01-27 08:36:14.02	85.07	22.62	-39.8	-41.5	19.9	0.00e+00	0	44	0	0	50	4586
2026-01-27 08:36:14.88	84.87	22.68	-39.8	-41.6	19.8	0.00e+00	0	44	0	0	50	4611
2026-01-27 08:36:16.01	84.60	22.77	-39.9	-41.6	19.9	0.00e+00	0	44	0	0	50	4629
2026-01-27 08:36:16.87	84.40	22.83	-39.7	-41.4	20.0	0.00e+00	0	44	0	0	50	4524
2026-01-27 08:36:18.00	84.13	22.92	-39.6	-41.3	20.1	0.00e+00	0	44	0	0	50	4478
2026-01-27 08:36:18.85	83.93	22.98	-39.7	-41.5	19.9	0.00e+00	0	44	0	0	50	4564
2026-01-27 08:36:19.99	83.66	23.06	-39.7	-41.5	19.9	0.00e+00	0	44	0	0	50	4567
2026-01-27 08:36:20.84	83.45	23.12	-40.0	-41.7	19.7	0.00e+00	0	44	0	0	50	4684
2026-01-27 08:36:21.98	83.18	23.21	-40.0	-41.8	19.7	0.00e+00	0	44	0	0	50	4731
2026-01-27 08:36:22.83	82.97	23.27	-40.0	-41.8	19.7	0.00e+00	0	44	0	0	50	4716
2026-01-27 08:36:23.97	82.69	23.35	-39.9	-41.6	19.8	0.00e+00	0	44	0	0	50	4639
2026-01-27 08:36:24.82	82.49	23.41	-39.8	-41.5	19.9	0.00e+00	0	44	0	0	50	4567
2026-01-27 08:36:25.96	82.20	23.49	-39.9	-41.6	19.8	0.00e+00	0	44	0	0	50	4621
2026-01-27 08:36:26.85	81.98	23.55	-40.0	-41.8	19.7	0.00e+00	0	44	0	0	50	4723
2026-01-27 08:36:27.96	81.71	23.63	-40.0	-41.7	19.7	0.00e+00	0	44	0	0	50	4685
2026-01-27 08:36:28.81	81.50	23.69	-40.1	-41.9	19.6	0.00e+00	0	44	0	0	50	4774
2026-01-27 08:36:29.95	81.21	23.77	-40.1	-41.9	19.6	0.00e+00	0	44	0	0	50	4770
2026-01-27 08:36:30.80	81.00	23.83	-40.2	-41.9	19.6	0.00e+00	0	44	0	0	51	4537
2026-01-27 08:36:31.94	80.71	23.91	-40.2	-42.0	19.6	0.00e+00	0	44	0	0	51	4555
2026-01-27 08:36:32.79	80.49	23.97	-40.2	-41.9	19.6	0.00e+00	0	44	0	0	51	4530
2026-01-27 08:36:33.93	80.20	24.04	-40.1	-41.9	19.7	0.00e+00	0	44	0	0	51	4495
2026-01-27 08:36:34.78	79.99	24.10	-40.0	-41.7	19.8	0.00e+00	0	44	0	0	51	4431
2026-01-27 08:36:35.92	79.69	24.18	-40.0	-41.7	19.7	0.00e+00	0	44	0	0	51	4432
2026-01-27 08:36:36.77	79.47	24.24	-39.9	-41.6	19.8	0.00e+00	0	44	0	0	51	4370
2026-01-27 08:36:37.97	79.16	24.31	-39.9	-41.7	19.8	0.00e+00	0	44	0	0	51	4396
2026-01-27 08:36:38.83	78.94	24.37	-40.0	-41.8	19.7	0.00e+00	0	44	0	0	51	4449
2026-01-27 08:36:39.96	78.64	24.44	-40.1	-41.8	19.7	0.00e+00	0	44	0	0	51	4467
2026-01-27 08:36:40.82	78.42	24.50	-40.1	-41.8	19.7	0.00e+00	0	44	0	0	51	4481
2026-01-27 08:36:42.08	78.08	24.58	-39.9	-41.6	19.8	0.00e+00	0	43	0	0	51	4370
2026-01-27 08:36:42.87	77.87	24.63	-39.8	-41.5	19.9	0.00e+00	0	43	0	0	51	4328
2026-01-27 08:36:44.07	77.56	24.71	-39.9	-41.6	19.8	0.00e+00	0	44	0	0	51	4355
2026-01-27 08:36:44.92	77.33	24.76	-39.9	-41.6	19.8	0.00e+00	0	44	0	0	51	4376
2026-01-27 08:36:46.06	77.02	24.83	-40.1	-41.9	19.6	0.00e+00	0	44	0	0	51	4495
2026-01-27 08:36:46.91	76.79	24.88	-40.2	-42.0	19.4	0.00e+00	0	44	0	0	51	4562
2026-01-27 08:36:48.05	76.49	24.95	-40.4	-42.1	19.3	0.00e+00	0	44	0	0	51	4641
2026-01-27 08:36:48.90	76.26	25.00	-40.4	-42.1	19.4	0.00e+00	0	44	0	0	51	4637
2026-01-27 08:36:50.04	75.95	25.07	-40.4	-42.2	19.4	0.00e+00	0	44	0	0	51	4678
2026-01-27 08:36:50.89	75.71	25.12	-40.2	-42.0	19.5	0.00e+00	0	44	0	0	51	4560
2026-01-27 08:36:52.02	75.40	25.19	-40.2	-42.0	19.6	0.00e+00	0	44	0	0	51	4548
2026-01-27 08:36:52.88	75.17	25.24	-40.1	-41.9	19.6	0.00e+00	0	43	0	0	51	4503
2026-01-27 08:36:54.01	74.85	25.30	-40.1	-41.8	19.7	0.00e+00	0	44	0	0	51	4465
2026-01-27 08:36:54.87	74.62	25.35	-40.2	-41.9	19.7	0.00e+00	0	44	0	0	51	4511
2026-01-27 08:36:56.00	74.30	25.42	-40.0	-41.7	19.8	0.00e+00	0	44	0	0	51	4410
2026-01-27 08:36:56.86	74.06	25.46	-39.9	-41.6	19.9	0.00e+00	0	44	0	0	51	4388
2026-01-27 08:36:58.07	73.72	25.53	-39.8	-41.5	20.0	0.00e+00	0	44	0	0	51	4320
2026-01-27 08:36:58.92	73.48	25.58	-39.7	-41.4	20.1	0.00e+00	0	44	0	0	51	4253
2026-01-27 08:37:00.09	73.15	25.64	-39.7	-41.3	20.1	0.00e+00	0	44	0	0	51	4227
2026-01-27 08:37:00.95	72.91	25.69	-39.7	-41.4	20.1	0.00e+00	0	44	0	0	51	4267
2026-01-27 08:37:02.08	72.59	25.74	-39.5	-41.2	20.3	0.00e+00	0	44	0	0	51	4171
2026-01-27 08:37:02.94	72.34	25.79	-39.6	-41.3	20.2	0.00e+00	0	44	0	0	51	4214
2026-01-27 08:37:04.08	72.02	25.85	-39.7	-41.4	20.1	0.00e+00	0	44	0	0	51	4257
2026-01-27 08:37:04.93	71.77	25.89	-39.7	-41.4	20.1	0.00e+00	0	44	0	0	51	4275
2026-01-27 08:37:06.06	71.45	25.95	-39.7	-41.4	20.1	0.00e+00	0	44	0	0	51	4283
2026-01-27 08:37:07.01	71.17	25.99	-39.6	-41.3	20.2	0.00e+00	0	44	0	0	51	4212
2026-01-27 08:37:08.01	70.88	26.04	-39.6	-41.3	20.2	0.00e+00	0	44	0	0	51	4214
2026-01-27 08:37:09.00	70.60	26.09	-39.6	-41.3	20.1	0.00e+00	0	44	0	0	51	4213
2026-01-27 08:37:10.00	70.30	26.13	-39.7	-41.3	20.1	0.00e+00	0	44	0	0	51	4242
2026-01-27 08:37:10.99	70.02	26.18	-39.7	-41.3	20.2	0.00e+00	0	44	0	0	51	4228
2026-01-27 08:37:11.98	69.73	26.22	-39.6	-41.3	20.2	0.00e+00	0	44	0	0	51	4194
2026-01-27 08:37:12.98	69.43	26.27	-39.5	-41.1	20.3	0.00e+00	0	44	0	0	51	4143
2026-01-27 08:37:13.97	69.14	26.31	-39.4	-41.1	20.4	0.00e+00	0	44	0	0	50	4361
2026-01-27 08:37:14.97	68.84	26.36	-39.5	-41.2	20.3	0.00e+00	0	44	0	0	50	4395
2026-01-27 08:37:15.96	68.55	26.40	-39.5	-41.1	20.4	0.00e+00	0	44	0	0	50	4389
2026-01-27 08:37:16.96	68.25	26.44	-39.6	-41.2	20.3	0.00e+00	0	43	0	0	50	4425
2026-01-27 08:37:17.95	67.96	26.48	-39.5	-41.2	20.3	0.00e+00	0	44	0	0	50	4415
2026-01-27 08:37:18.95	67.66	26.52	-39.6	-41.3	20.2	0.00e+00	0	44	0	0	50	4445
2026-01-27 08:37:19.94	67.36	26.56	-39.6	-41.3	20.3	0.00e+00	0	44	0	0	50	4450
2026-01-27 08:37:20.93	67.07	26.60	-39.6	-41.3	20.2	0.00e+00	0	44	0	0	50	4464
2026-01-27 08:37:21.93	66.77	26.63	-39.7	-41.3	20.1	0.00e+00	0	44	0	0	50	4479
2026-01-27 08:37:22.92	66.47	26.67	-39.8	-41.5	20.0	0.00e+00	0	44	0	0	50	4567
2026-01-27 08:37:23.92	66.17	26.71	-39.9	-41.6	19.9	0.00e+00	0	44	0	0	50	4610
2026-01-27 08:37:24.91	65.87	26.74	-39.9	-41.6	19.9	0.00e+00	0	44	0	0	50	4638
2026-01-27 08:37:25.91	65.56	26.77	-40.0	-41.7	19.9	0.00e+00	0	44	0	0	50	4662
2026-01-27 08:37:26.90	65.26	26.81	-39.9	-41.6	19.9	0.00e+00	0	44	0	0	50	4643
2026-01-27 08:37:27.90	64.96	26.84	-39.8	-41.5	20.0	0.00e+00	0	44	0	0	50	4594
2026-01-27 08:37:28.90	64.65	26.87	-39.9	-41.5	20.0	0.00e+00	0	44	0	0	50	4594
2026-01-27 08:37:29.89	64.35	26.90	-39.8	-41.5	19.9	0.00e+00	0	44	0	0	50	4589
2026-01-27 08:37:30.97	64.02	26.93	-40.0	-41.7	19.7	0.00e+00	0	44	0	0	50	4666
2026-01-27 08:37:31.85	63.75	26.96	-40.0	-41.8	19.7	0.00e+00	0	43	0	0	50	4714
2026-01-27 08:37:32.99	63.40	26.99	-39.9	-41.7	19.9	0.00e+00	0	44	0	0	50	4652
2026-01-27 08:37:33.84	63.14	27.01	-40.0	-41.7	19.9	0.00e+00	0	44	0	0	50	4676
2026-01-27 08:37:34.98	62.78	27.05	-40.0	-41.7	19.8	0.00e+00	0	44	0	0	50	4705
2026-01-27 08:37:35.84	62.52	27.07	-40.0	-41.7	19.8	0.00e+00	0	44	0	0	50	4661
2026-01-27 08:37:36.97	62.17	27.09	-40.0	-41.7	19.9	0.00e+00	0	43	0	0	50	4677
2026-01-27 08:37:37.82	61.90	27.11	-40.0	-41.7	19.8	0.00e+00	0	44	0	0	50	4688
2026-01-27 08:37:38.96	61.55	27.14	-40.2	-41.9	19.6	0.00e+00	0	44	0	0	51	4533
2026-01-27 08:37:39.81	61.29	27.16	-40.4	-42.2	19.4	0.00e+00	0	44	0	0	51	4654
2026-01-27 08:37:40.96	60.93	27.18	-40.4	-42.1	19.4	0.00e+00	0	43	0	0	51	4635
2026-01-27 08:37:41.81	60.66	27.20	-40.2	-41.9	19.6	0.00e+00	0	43	0	0	51	4541
2026-01-27 08:37:42.95	60.31	27.22	-40.2	-41.9	19.5	0.00e+00	0	44	0	0	51	4538
2026-01-27 08:37:43.80	60.04	27.24	-40.1	-41.9	19.6	0.00e+00	0	44	0	0	51	4504
2026-01-27 08:37:44.94	59.69	27.26	-40.0	-41.7	19.7	0.00e+00	0	44	0	0	51	4428
2026-01-27 08:37:45.79	59.42	27.27	-39.9	-41.7	19.8	0.00e+00	0	44	0	0	51	4396
2026-01-27 08:37:46.93	59.06	27.29	-40.0	-41.7	19.8	0.00e+00	0	43	0	0	51	4424
2026-01-27 08:37:47.78	58.80	27.30	-39.9	-41.7	19.8	0.00e+00	0	44	0	0	51	4398
2026-01-27 08:37:48.92	58.44	27.32	-40.0	-41.7	19.7	0.00e+00	0	44	0	0	51	4425
2026-01-27 08:37:49.77	58.17	27.33	-40.0	-41.8	19.7	0.00e+00	0	44	0	0	51	4445
2026-01-27 08:37:50.91	57.81	27.34	-40.1	-41.9	19.6	0.00e+00	0	44	0	0	51	4504
2026-01-27 08:37:51.76	57.54	27.35	-40.1	-41.8	19.6	0.00e+00	0	44	0	0	51	4484
2026-01-27 08:37:52.90	57.19	27.36	-39.9	-41.6	19.8	0.00e+00	0	43	0	0	51	4355
2026-01-27 08:37:53.75	56.92	27.37	-39.9	-41.6	19.8	0.00e+00	0	44	0	0	51	4371
2026-01-27 08:37:54.89	56.56	27.38	-39.9	-41.6	19.8	0.00e+00	0	44	0	0	51	4378
2026-01-27 08:37:55.74	56.29	27.38	-39.9	-41.6	19.9	0.00e+00	0	44	0	0	51	4358
2026-01-27 08:37:56.88	55.93	27.39	-40.0	-41.7	19.8	0.00e+00	0	44	0	0	51	4403
2026-01-27 08:37:57.79	55.64	27.39	-40.1	-41.8	19.7	0.00e+00	0	44	0	0	51	4447
2026-01-27 08:37:58.96	55.27	27.40	-40.0	-41.7	19.7	0.00e+00	0	43	0	0	51	4440
2026-01-27 08:37:59.85	54.99	27.40	-40.1	-41.8	19.6	0.00e+00	0	44	0	0	51	4484
2026-01-27 08:38:00.98	54.64	27.40	-40.2	-41.9	19.6	0.00e+00	0	44	0	0	51	4526
2026-01-27 08:38:01.83	54.37	27.40	-40.1	-41.8	19.7	0.00e+00	0	43	0	0	51	4459
2026-01-27 08:38:02.97	54.01	27.41	-40.0	-41.7	19.8	0.00e+00	0	43	0	0	51	4395
2026-01-27 08:38:03.82	53.74	27.40	-39.8	-41.5	20.0	0.00e+00	0	44	0	0	51	4295
2026-01-27 08:38:04.96	53.38	27.40	-39.7	-41.3	20.0	0.00e+00	0	43	0	0	51	4240
2026-01-27 08:38:05.81	53.11	27.40	-39.5	-41.2	20.2	0.00e+00	0	44	0	0	51	4176
2026-01-27 08:38:06.95	52.75	27.40	-39.6	-41.3	20.2	0.00e+00	0	44	0	0	51	4205
2026-01-27 08:38:07.80	52.48	27.39	-39.7	-41.3	20.1	0.00e+00	0	44	0	0	51	4239
2026-01-27 08:38:08.94	52.12	27.39	-39.6	-41.3	20.1	0.00e+00	0	43	0	0	51	4229
2026-01-27 08:38:09.79	51.86	27.38	-39.7	-41.3	20.1	0.00e+00	0	43	0	0	51	4236
2026-01-27 08:38:10.93	51.50	27.37	-39.8	-41.5	19.9	0.00e+00	0	44	0	0	51	4320
2026-01-27 08:38:11.78	51.23	27.36	-39.9	-41.6	19.9	0.00e+00	0	44	0	0	51	4345
2026-01-27 08:38:12.92	50.87	27.35	-39.8	-41.5	20.0	0.00e+00	0	43	0	0	51	4327
2026-01-27 08:38:13.77	50.60	27.34	-39.8	-41.5	20.0	0.00e+00	0	44	0	0	51	4304
2026-01-27 08:38:15.10	50.18	27.33	-39.9	-41.6	19.8	0.00e+00	0	44	0	0	51	4383
2026-01-27 08:38:15.81	49.96	27.32	-40.0	-41.7	19.8	0.00e+00	0	44	0	0	51	4420
2026-01-27 08:38:17.09	49.56	27.30	-40.1	-41.8	19.7	0.00e+00	0	44	0	0	51	4463
2026-01-27 08:38:18.31	49.18	27.29	-40.2	-41.9	19.6	0.00e+00	0	44	0	0	51	4545
2026-01-27 08:38:19.16	48.91	27.27	-40.2	-42.0	19.6	0.00e+00	0	44	0	0	51	4580
2026-01-27 08:38:20.30	48.55	27.25	-40.2	-41.9	19.6	0.00e+00	0	43	0	0	51	4544
2026-01-27 08:38:21.15	48.29	27.24	-40.1	-41.9	19.7	0.00e+00	0	43	0	0	51	4504
2026-01-27 08:38:22.31	47.93	27.22	-40.1	-41.8	19.8	0.00e+00	0	44	0	0	51	4468
2026-01-27 08:38:23.16	47.66	27.20	-40.2	-41.9	19.7	0.00e+00	0	44	0	0	51	4519
2026-01-27 08:38:24.38	47.28	27.18	-40.2	-41.9	19.6	0.00e+00	0	44	0	0	51	4535
2026-01-27 08:38:25.23	47.02	27.16	-40.1	-41.8	19.7	0.00e+00	0	44	0	0	51	4456
2026-01-27 08:38:26.37	46.66	27.13	-40.0	-41.7	19.8	0.00e+00	0	44	0	0	51	4407
2026-01-27 08:38:27.22	46.40	27.11	-40.0	-41.7	19.8	0.00e+00	0	43	0	0	51	4402
2026-01-27 08:38:28.36	46.05	27.09	-40.0	-41.7	19.8	0.00e+00	0	43	0	0	51	4410
2026-01-27 08:38:29.21	45.78	27.07	-40.1	-41.9	19.7	0.00e+00	0	44	0	0	51	4494
2026-01-27 08:38:30.35	45.43	27.04	-40.1	-41.8	19.8	0.00e+00	0	44	0	0	51	4466
2026-01-27 08:38:31.29	45.14	27.01	-40.0	-41.7	19.9	0.00e+00	0	44	0	0	51	4405
2026-01-27 08:38:32.46	44.78	26.98	-40.0	-41.7	19.9	0.00e+00	0	44	0	0	51	4401
2026-01-27 08:38:33.35	44.51	26.95	-40.1	-41.8	19.7	0.00e+00	0	44	0	0	51	4466
2026-01-27 08:38:34.48	44.16	26.92	-40.1	-41.8	19.7	0.00e+00	0	44	0	0	51	4488
2026-01-27 08:38:35.33	43.90	26.90	-40.2	-41.9	19.7	0.00e+00	0	44	0	0	51	4531
2026-01-27 08:38:36.47	43.56	26.86	-40.0	-41.7	19.9	0.00e+00	0	43	0	0	51	4422
2026-01-27 08:38:37.32	43.30	26.83	-40.0	-41.7	19.9	0.00e+00	0	43	0	0	51	4401
2026-01-27 08:38:38.46	42.95	26.80	-40.1	-41.8	19.8	0.00e+00	0	44	0	0	51	4452
2026-01-27 08:38:39.31	42.69	26.77	-39.9	-41.5	20.0	0.00e+00	0	44	0	0	51	4339
2026-01-27 08:38:40.45	42.35	26.73	-39.9	-41.6	20.0	0.00e+00	0	43	0	0	51	4352
2026-01-27 08:38:41.30	42.09	26.70	-39.8	-41.5	20.1	0.00e+00	0	43	0	0	51	4300
2026-01-27 08:38:42.44	41.75	26.66	-39.9	-41.6	20.0	0.00e+00	0	44	0	0	51	4346
2026-01-27 08:38:43.29	41.49	26.63	-40.0	-41.7	19.9	0.00e+00	0	44	0	0	51	4402
2026-01-27 08:38:44.49	41.13	26.58	-40.2	-41.9	19.7	0.00e+00	0	43	0	0	51	4519
2026-01-27 08:38:45.34	40.88	26.55	-40.3	-42.0	19.6	0.00e+00	0	43	0	0	51	4565
2026-01-27 08:38:46.55	40.52	26.50	-40.3	-42.1	19.6	0.00e+00	0	44	0	0	51	4601
2026-01-27 08:38:47.40	40.26	26.47	-40.3	-42.0	19.6	0.00e+00	0	44	0	0	51	4590
2026-01-27 08:38:48.60	39.91	26.42	-40.3	-42.0	19.7	0.00e+00	0	44	0	0	51	4558
2026-01-27 08:38:49.45	39.66	26.38	-40.3	-42.0	19.6	0.00e+00	0	44	0	0	51	4592
2026-01-27 08:38:50.59	39.32	26.33	-40.5	-42.2	19.4	0.00e+00	0	43	0	0	51	4687
2026-01-27 08:38:51.44	39.07	26.30	-40.4	-42.1	19.5	0.00e+00	0	43	0	0	51	4648
2026-01-27 08:38:52.58	38.73	26.25	-40.3	-42.1	19.6	0.00e+00	0	44	0	0	51	4613
2026-01-27 08:38:53.43	38.48	26.21	-40.2	-42.0	19.7	0.00e+00	0	43	0	0	51	4553
2026-01-27 08:38:54.57	38.15	26.16	-40.2	-42.0	19.6	0.00e+00	0	44	0	0	51	4547
2026-01-27 08:38:55.42	37.90	26.12	-40.1	-41.8	19.7	0.00e+00	0	44	0	0	51	4475
2026-01-27 08:38:56.56	37.57	26.06	-40.2	-42.0	19.6	0.00e+00	0	44	0	0	51	4558
2026-01-27 08:38:57.41	37.33	26.02	-40.3	-42.0	19.6	0.00e+00	0	43	0	0	51	4595
2026-01-27 08:38:58.55	37.00	25.97	-40.4	-42.1	19.6	0.00e+00	0	44	0	0	51	4631
2026-01-27 08:38:59.40	36.75	25.92	-40.4	-42.2	19.6	0.00e+00	0	44	0	0	51	4655
2026-01-27 08:39:00.54	36.43	25.87	-40.5	-42.2	19.5	0.00e+00	0	43	0	0	51	4691
2026-01-27 08:39:01.39	36.18	25.83	-40.4	-42.2	19.5	0.00e+00	0	43	0	0	51	4671
2026-01-27 08:39:02.53	35.86	25.77	-40.3	-42.0	19.6	0.00e+00	0	44	0	0	51	4596
2026-01-27 08:39:03.38	35.62	25.72	-40.2	-42.0	19.7	0.00e+00	0	43	0	0	51	4552
2026-01-27 08:39:04.52	35.30	25.66	-40.1	-41.8	19.8	0.00e+00	0	43	0	0	51	4476
2026-01-27 08:39:05.37	35.06	25.62	-40.0	-41.7	19.9	0.00e+00	0	44	0	0	51	4405
2026-01-27 08:39:06.61	34.71	25.55	-39.9	-41.5	20.0	0.00e+00	0	43	0	0	51	4340
2026-01-27 08:39:07.47	34.47	25.50	-39.9	-41.6	20.0	0.00e+00	0	43	0	0	51	4352
2026-01-27 08:39:08.60	34.15	25.44	-40.0	-41.8	19.7	0.00e+00	0	43	0	0	51	4447
2026-01-27 08:39:09.46	33.91	25.39	-40.2	-41.9	19.6	0.00e+00	0	43	0	0	51	4518
2026-01-27 08:39:10.59	33.60	25.33	-40.1	-41.8	19.7	0.00e+00	0	43	0	0	51	4467
2026-01-27 08:39:11.45	33.36	25.28	-40.1	-41.8	19.7	0.00e+00	0	43	0	0	51	4480
2026-01-27 08:39:12.58	33.05	25.22	-39.9	-41.6	19.9	0.00e+00	0	43	0	0	51	4370
2026-01-27 08:39:13.43	32.82	25.17	-39.7	-41.4	20.1	0.00e+00	0	43	0	0	51	4262
2026-01-27 08:39:14.57	32.51	25.10	-39.7	-41.3	20.2	0.00e+00	0	43	0	0	51	4242
2026-01-27 08:39:15.42	32.28	25.05	-39.7	-41.4	20.1	0.00e+00	0	43	0	0	51	4285
2026-01-27 08:39:16.56	31.97	24.98	-39.9	-41.6	19.9	0.00e+00	0	43	0	0	51	4381
2026-01-27 08:39:17.41	31.74	24.93	-40.1	-41.8	19.8	0.00e+00	0	43	0	0	51	4465
2026-01-27 08:39:18.55	31.43	24.86	-40.2	-41.9	19.6	0.00e+00	0	43	0	0	51	4536
2026-01-27 08:39:19.40	31.20	24.81	-40.2	-41.9	19.5	0.00e+00	0	44	0	0	51	4524
2026-01-27 08:39:20.54	30.90	24.74	-40.0	-41.7	19.6	0.00e+00	0	43	0	0	51	4436
2026-01-27 08:39:21.39	30.67	24.68	-39.9	-41.6	19.8	0.00e+00	0	44	0	0	51	4344
2026-01-27 08:39:22.53	30.37	24.61	-39.8	-41.5	20.0	0.00e+00	0	43	0	0	51	4301
2026-01-27 08:39:23.38	30.15	24.56	-39.9	-41.5	20.0	0.00e+00	0	43	0	0	51	4327
2026-01-27 08:39:24.69	29.80	24.47	-39.5	-41.2	20.4	0.00e+00	0	44	0	0	51	4146
2026-01-27 08:39:25.40	29.62	24.43	-39.4	-41.0	20.5	0.00e+00	0	43	0	0	50	4337
2026-01-27 08:39:26.68	29.29	24.34	-39.5	-41.1	20.5	0.00e+00	0	43	0	0	50	4366
2026-01-27 08:39:27.39	29.10	24.30	-39.6	-41.2	20.3	0.00e+00	0	43	0	0	50	4436
2026-01-27 08:39:28.67	28.77	24.21	-39.7	-41.4	20.2	0.00e+00	0	43	0	0	50	4518
2026-01-27 08:39:29.38	28.59	24.17	-39.8	-41.5	20.1	0.00e+00	0	43	0	0	50	4557
2026-01-27 08:39:30.66	28.26	24.08	-39.7	-41.4	20.1	0.00e+00	0	43	0	0	50	4518
2026-01-27 08:39:31.46	28.06	24.03	-39.6	-41.3	20.2	0.00e+00	0	43	0	0	50	4450
2026-01-27 08:39:32.60	27.77	23.95	-39.7	-41.3	20.2	0.00e+00	0	43	0	0	50	4488
2026-01-27 08:39:33.64	27.51	23.88	-39.8	-41.5	20.0	0.00e+00	0	43	0	0	50	4580
2026-01-27 08:39:34.57	27.27	23.81	-40.0	-41.7	19.9	0.00e+00	0	44	0	0	50	4670
2026-01-27 08:39:35.57	27.02	23.74	-40.1	-41.8	19.8	0.00e+00	0	43	0	0	50	4759
2026-01-27 08:39:36.56	26.78	23.68	-40.2	-42.0	19.6	0.00e+00	0	43	0	0	51	4555
2026-01-27 08:39:37.56	26.53	23.61	-40.3	-42.1	19.5	0.00e+00	0	43	0	0	51	4600
2026-01-27 08:39:38.55	26.28	23.54	-40.2	-41.9	19.6	0.00e+00	0	43	0	0	51	4544
2026-01-27 08:39:39.55	26.04	23.46	-40.1	-41.8	19.7	0.00e+00	0	43	0	0	51	4476
2026-01-27 08:39:40.54	25.80	23.39	-39.8	-41.5	20.0	0.00e+00	0	43	0	0	51	4328
2026-01-27 08:39:41.54	25.55	23.32	-39.7	-41.4	20.1	0.00e+00	0	43	0	0	51	4278
2026-01-27 08:39:42.53	25.31	23.25	-39.7	-41.4	20.1	0.00e+00	0	43	0	0	51	4287
2026-01-27 08:39:43.53	25.07	23.18	-39.7	-41.4	20.1	0.00e+00	0	43	0	0	51	4286
2026-01-27 08:39:44.52	24.83	23.11	-39.6	-41.4	20.2	0.00e+00	0	43	0	0	51	4244
2026-01-27 08:39:45.52	24.60	23.04	-39.8	-41.6	20.0	0.00e+00	0	44	0	0	51	4349
2026-01-27 08:39:46.51	24.36	22.96	-40.0	-41.7	19.8	0.00e+00	0	43	0	0	51	4434
2026-01-27 08:39:47.51	24.12	22.89	-40.2	-42.0	19.5	0.00e+00	0	43	0	0	51	4586
2026-01-27 08:39:48.51	23.89	22.82	-40.4	-42.2	19.3	0.00e+00	0	43	0	0	51	4671
2026-01-27 08:39:49.50	23.66	22.74	-40.4	-42.2	19.3	0.00e+00	0	43	0	0	51	4661
2026-01-27 08:39:50.50	23.42	22.67	-40.3	-42.2	19.3	0.00e+00	0	43	0	0	51	4653
2026-01-27 08:39:51.49	23.19	22.59	-40.3	-42.2	19.3	0.00e+00	0	43	0	0	51	4652
2026-01-27 08:39:52.49	22.96	22.52	-40.1	-41.9	19.6	0.00e+00	0	43	0	0	51	4513
2026-01-27 08:39:53.48	22.73	22.44	-40.1	-41.8	19.7	0.00e+00	0	43	0	0	51	4486
2026-01-27 08:39:54.48	22.50	22.37	-40.1	-41.8	19.7	0.00e+00	0	43	0	0	51	4489
2026-01-27 08:39:55.47	22.28	22.29	-40.2	-41.9	19.6	0.00e+00	0	43	0	0	51	4540
2026-01-27 08:39:56.47	22.05	22.22	-40.3	-42.1	19.5	0.00e+00	0	43	0	0	51	4625
2026-01-27 08:39:57.46	21.83	22.14	-40.3	-42.1	19.5	0.00e+00	0	43	0	0	51	4619
2026-01-27 08:39:58.46	21.60	22.07	-40.3	-42.1	19.5	0.00e+00	0	43	0	0	51	4636
2026-01-27 08:39:59.46	21.38	21.99	-40.3	-42.1	19.6	0.00e+00	0	43	0	0	51	4599
2026-01-27 08:40:00.45	21.16	21.91	-40.2	-42.0	19.5	0.00e+00	0	43	0	0	51	4578
2026-01-27 08:40:01.51	20.93	21.83	-40.1	-41.8	19.8	0.00e+00	0	43	0	0	51	4474
2026-01-27 08:40:02.38	20.74	21.76	-40.1	-41.9	19.7	0.00e+00	0	43	0	0	51	4518
2026-01-27 08:40:03.71	20.45	21.66	-40.1	-41.9	19.7	0.00e+00	0	43	0	0	51	4502
2026-01-27 08:40:04.42	20.29	21.61	-40.1	-41.8	19.8	0.00e+00	0	43	0	0	51	4474
2026-01-27 08:40:05.70	20.01	21.51	-40.1	-41.9	19.7	0.00e+00	0	43	0	0	51	4495
2026-01-27 08:40:06.44	19.85	21.45	-40.1	-41.9	19.7	0.00e+00	0	43	0	0	51	4516
2026-01-27 08:40:07.72	19.58	21.35	-40.2	-42.0	19.5	0.00e+00	0	44	0	0	51	4571
2026-01-27 08:40:08.51	19.41	21.28	-40.2	-42.0	19.5	0.00e+00	0	43	0	0	51	4556
2026-01-27 08:40:09.71	19.16	21.19	-40.3	-42.1	19.3	0.00e+00	0	43	0	0	51	4632
2026-01-27 08:40:10.56	18.98	21.12	-40.4	-42.2	19.2	0.00e+00	0	43	0	0	51	4678
2026-01-27 08:40:11.70	18.74	21.03	-40.2	-42.0	19.5	0.00e+00	0	43	0	0	51	4555
2026-01-27 08:40:12.73	18.52	20.95	-40.1	-41.9	19.6	0.00e+00	0	43	0	0	51	4507
2026-01-27 08:40:13.72	18.32	20.87	-40.0	-41.7	19.8	0.00e+00	0	43	0	0	51	4430
2026-01-27 08:40:14.72	18.11	20.79	-40.1	-41.8	19.8	0.00e+00	0	43	0	0	51	4457
2026-01-27 08:40:15.71	17.91	20.71	-40.2	-41.9	19.7	0.00e+00	0	43	0	0	51	4529
2026-01-27 08:40:16.71	17.70	20.63	-40.2	-42.0	19.6	0.00e+00	0	43	0	0	51	4563
2026-01-27 08:40:17.70	17.50	20.55	-40.4	-42.1	19.5	0.00e+00	0	43	0	0	51	4646
2026-01-27 08:40:18.70	17.30	20.47	-40.5	-42.3	19.4	0.00e+00	0	43	0	0	51	4714
2026-01-27 08:40:19.69	17.10	20.40	-40.5	-42.3	19.4	0.00e+00	0	43	0	0	51	4720
2026-01-27 08:40:20.69	16.90	20.31	-40.5	-42.3	19.3	0.00e+00	0	43	0	0	51	4748
2026-01-27 08:40:21.68	16.71	20.24	-40.4	-42.2	19.4	0.00e+00	0	43	0	0	51	4703
2026-01-27 08:40:22.68	16.51	20.15	-40.3	-42.1	19.5	0.00e+00	0	43	0	0	51	4636
2026-01-27 08:40:23.67	16.31	20.07	-40.3	-42.1	19.5	0.00e+00	0	43	0	0	51	4613
2026-01-27 08:40:24.67	16.12	19.99	-40.3	-42.1	19.5	0.00e+00	0	43	0	0	51	4607
2026-01-27 08:40:25.66	15.92	19.91	-40.3	-42.1	19.4	0.00e+00	0	43	0	0	51	4611
2026-01-27 08:40:26.66	15.73	19.83	-40.3	-42.0	19.5	0.00e+00	0	43	0	0	51	4572
2026-01-27 08:40:27.65	15.54	19.75	-40.2	-41.9	19.6	0.00e+00	0	43	0	0	51	4505
2026-01-27 08:40:28.75	15.33	19.66	-40.1	-41.8	19.7	0.00e+00	0	43	0	0	51	4469
2026-01-27 08:40:29.64	15.16	19.59	-40.1	-41.8	19.7	0.00e+00	0	43	0	0	51	4492
2026-01-27 08:40:30.95	14.91	19.48	-40.1	-41.8	19.7	0.00e+00	0	43	0	0	51	4476
2026-01-27 08:40:31.66	14.78	19.43	-40.0	-41.7	19.8	0.00e+00	0	43	0	0	51	4411
2026-01-27 08:40:32.94	14.54	19.32	-40.0	-41.7	19.7	0.00e+00	0	43	0	0	51	4432
2026-01-27 08:40:33.66	14.40	19.26	-40.0	-41.7	19.8	0.00e+00	0	43	0	0	51	4404
2026-01-27 08:40:35.20	14.12	19.14	-40.0	-41.7	19.7	0.00e+00	0	43	0	0	51	4424
2026-01-27 08:40:36.16	13.94	19.06	-40.0	-41.7	19.8	0.00e+00	0	43	0	0	51	4420
2026-01-27 08:40:37.47	13.70	18.95	-40.1	-41.8	19.7	0.00e+00	0	43	0	0	51	4477
2026-01-27 08:40:38.18	13.57	18.90	-40.0	-41.8	19.8	0.00e+00	0	43	0	0	51	4447
2026-01-27 08:40:39.82	13.28	18.76	-40.0	-41.8	19.7	0.00e+00	0	43	0	0	51	4483
2026-01-27 08:40:40.39	13.17	18.72	-40.1	-41.9	19.7	0.00e+00	0	43	0	0	51	4504
2026-01-27 08:40:42.10	12.87	18.58	-40.2	-42.0	19.6	0.00e+00	0	43	0	0	51	4549
2026-01-27 08:40:42.74	12.75	18.52	-40.1	-41.9	19.7	0.00e+00	0	43	0	0	51	4511
2026-01-27 08:40:44.16	12.50	18.41	-40.2	-42.0	19.6	0.00e+00	0	43	0	0	51	4581
2026-01-27 08:40:44.96	12.36	18.34	-40.1	-41.9	19.6	0.00e+00	0	43	0	0	51	4538
2026-01-27 08:40:46.17	12.15	18.24	-40.3	-42.1	19.5	0.00e+00	0	43	0	0	51	4616
2026-01-27 08:40:47.02	12.01	18.17	-40.3	-42.1	19.5	0.00e+00	0	43	0	0	51	4643
2026-01-27 08:40:48.16	11.81	18.08	-40.5	-42.3	19.3	0.00e+00	0	43	0	0	51	4726
2026-01-27 08:40:49.01	11.66	18.01	-40.5	-42.4	19.2	0.00e+00	0	43	0	0	51	4785
2026-01-27 08:40:50.15	11.47	17.92	-40.6	-42.5	19.1	0.00e+00	0	43	0	0	51	4824
2026-01-27 08:40:51.30	11.27	17.82	-40.5	-42.4	19.2	0.00e+00	0	43	0	0	51	4794
2026-01-27 08:40:52.32	11.10	17.74	-40.5	-42.3	19.2	0.00e+00	0	43	0	0	51	4746
2026-01-27 08:40:53.49	10.91	17.64	-40.4	-42.2	19.3	0.00e+00	0	43	0	0	51	4683
2026-01-27 08:40:54.35	10.76	17.57	-40.3	-42.2	19.4	0.00e+00	0	43	0	0	51	4652
2026-01-27 08:40:55.69	10.54	17.47	-40.3	-42.1	19.4	0.00e+00	0	43	0	0	51	4643
2026-01-27 08:40:56.40	10.42	17.41	-40.3	-42.2	19.4	0.00e+00	0	43	0	0	51	4652
2026-01-27 08:40:57.68	10.22	17.30	-40.4	-42.2	19.4	0.00e+00	0	43	0	0	51	4696
2026-01-27 08:40:58.39	10.10	17.24	-40.4	-42.3	19.3	0.00e+00	0	43	0	0	51	4716
2026-01-27 08:40:59.67	9.89	17.14	-40.5	-42.4	19.3	0.00e+00	0	43	0	0	51	4797
2026-01-27 08:41:00.40	9.78	17.08	-40.6	-42.5	19.1	0.00e+00	0	43	0	0	51	4862
2026-01-27 08:41:01.67	9.57	16.98	-40.7	-42.7	18.9	0.00e+00	0	43	0	0	52	4654
2026-01-27 08:41:02.40	9.46	16.92	-40.8	-42.8	18.8	0.00e+00	0	43	0	0	52	4721
2026-01-27 08:41:03.68	9.25	16.81	-40.9	-42.9	18.7	0.00e+00	0	43	0	0	52	4776
2026-01-27 08:41:04.40	9.14	16.76	-40.8	-42.8	18.7	0.00e+00	0	43	0	0	52	4739
2026-01-27 08:41:05.68	8.94	16.65	-40.9	-42.8	18.6	0.00e+00	0	43	0	0	52	4749
2026-01-27 08:41:06.63	8.79	16.57	-40.9	-42.8	18.7	0.00e+00	0	43	0	0	52	4728
2026-01-27 08:41:07.62	8.64	16.49	-40.7	-42.6	18.8	0.00e+00	0	43	0	0	52	4638
2026-01-27 08:41:08.62	8.48	16.41	-40.6	-42.4	19.0	0.00e+00	0	43	0	0	52	4534
2026-01-27 08:41:09.61	8.33	16.33	-40.4	-42.3	19.2	0.00e+00	0	43	0	0	52	4458
2026-01-27 08:41:10.61	8.18	16.25	-40.3	-42.1	19.3	0.00e+00	0	43	0	0	52	4387
2026-01-27 08:41:11.60	8.03	16.17	-40.3	-42.1	19.3	0.00e+00	0	43	0	0	52	4387
2026-01-27 08:41:13.04	7.81	16.05	-40.6	-42.5	19.1	0.00e+00	0	43	0	0	52	4551
2026-01-27 08:41:13.75	7.71	16.00	-40.6	-42.6	19.0	0.00e+00	0	43	0	0	52	4613
2026-01-27 08:41:15.03	7.52	15.89	-40.8	-42.8	18.8	0.00e+00	0	43	0	0	52	4723
2026-01-27 08:41:15.75	7.41	15.84	-41.0	-43.0	18.6	0.00e+00	0	43	0	0	52	4844
2026-01-27 08:41:17.03	7.22	15.73	-41.1	-43.1	18.5	0.00e+00	0	43	0	0	52	4874
2026-01-27 08:41:17.74	7.12	15.68	-41.1	-43.1	18.5	0.00e+00	0	43	0	0	52	4878
2026-01-27 08:41:19.02	6.93	15.57	-41.0	-43.0	18.5	0.00e+00	0	43	0	0	52	4828
2026-01-27 08:41:19.73	6.83	15.52	-40.9	-42.9	18.6	0.00e+00	0	43	0	0	52	4793
2026-01-27 08:41:21.01	6.65	15.41	-40.7	-42.7	18.7	0.00e+00	0	43	0	0	52	4680
2026-01-27 08:41:21.75	6.54	15.35	-40.7	-42.7	18.7	0.00e+00	0	43	0	0	52	4663
2026-01-27 08:41:23.03	6.36	15.25	-40.4	-42.3	19.0	0.00e+00	0	43	0	0	52	4460
2026-01-27 08:41:23.76	6.25	15.19	-40.3	-42.2	19.2	0.00e+00	0	43	0	0	52	4401
2026-01-27 08:41:25.04	6.07	15.09	-40.3	-42.2	19.2	0.00e+00	0	43	0	0	52	4414
2026-01-27 08:41:25.75	5.97	15.03	-40.4	-42.3	19.2	0.00e+00	0	43	0	0	52	4449
2026-01-27 08:41:27.03	5.80	14.93	-40.3	-42.1	19.3	0.00e+00	0	43	0	0	52	4368
2026-01-27 08:41:27.75	5.70	14.87	-40.3	-42.2	19.3	0.00e+00	0	43	0	0	52	4406
2026-01-27 08:41:29.03	5.52	14.77	-40.5	-42.4	19.1	0.00e+00	0	43	0	0	52	4509
2026-01-27 08:41:29.74	5.42	14.72	-40.6	-42.5	19.0	0.00e+00	0	43	0	0	52	4590
2026-01-27 08:41:31.04	5.25	14.61	-40.7	-42.6	18.9	0.00e+00	0	43	0	0	52	4647
2026-01-27 08:41:31.75	5.15	14.56	-40.8	-42.8	18.7	0.00e+00	0	43	0	0	52	4737
2026-01-27 08:41:33.03	4.98	14.46	-40.9	-42.9	18.6	0.00e+00	0	43	0	0	52	4790
2026-01-27 08:41:33.78	4.88	14.40	-41.0	-43.0	18.5	0.00e+00	0	43	0	0	52	4847
2026-01-27 08:41:35.06	4.71	14.29	-40.9	-42.9	18.6	0.00e+00	0	43	0	0	52	4780
2026-01-27 08:41:35.77	4.61	14.24	-40.9	-42.9	18.5	0.00e+00	0	43	0	0	52	4788
2026-01-27 08:41:37.05	4.44	14.14	-40.8	-42.7	18.7	0.00e+00	0	43	0	0	52	4702
2026-01-27 08:41:37.76	4.35	14.08	-40.8	-42.7	18.7	0.00e+00	0	43	0	0	52	4668
2026-01-27 08:41:39.25	4.16	13.96	-40.6	-42.6	18.8	0.00e+00	0	43	0	0	52	4610
2026-01-27 08:41:39.95	4.07	13.91	-40.5	-42.4	18.9	0.00e+00	0	43	0	0	52	4537
2026-01-27 08:41:41.28	3.89	13.81	-40.5	-42.5	18.9	0.00e+00	0	43	0	0	52	4556
2026-01-27 08:41:41.99	3.80	13.75	-40.3	-42.3	19.1	0.00e+00	0	43	0	0	52	4443
2026-01-27 08:41:43.27	3.64	13.65	-40.2	-42.1	19.3	0.00e+00	0	43	0	0	52	4357
2026-01-27 08:41:43.98	3.55	13.59	-40.2	-42.0	19.4	0.00e+00	0	43	0	0	52	4328
2026-01-27 08:41:45.26	3.39	13.50	-40.3	-42.2	19.2	0.00e+00	0	43	0	0	52	4412
2026-01-27 08:41:45.97	3.30	13.44	-40.4	-42.2	19.2	0.00e+00	0	43	0	0	52	4429
2026-01-27 08:41:47.25	3.14	13.34	-40.6	-42.5	19.0	0.00e+00	0	43	0	0	52	4546
2026-01-27 08:41:47.96	3.05	13.29	-40.7	-42.5	19.0	0.00e+00	0	43	0	0	52	4571
2026-01-27 08:41:49.24	2.89	13.19	-40.9	-42.7	18.8	0.00e+00	0	43	0	0	52	4696
2026-01-27 08:41:49.95	2.81	13.13	-41.0	-42.9	18.6	0.00e+00	0	43	0	0	52	4787
2026-01-27 08:41:51.25	2.65	13.03	-41.0	-42.9	18.6	0.00e+00	0	43	0	0	52	4789
2026-01-27 08:41:51.97	2.56	12.98	-41.1	-43.1	18.4	0.00e+00	0	43	0	0	52	4874
2026-01-27 08:41:53.25	2.41	12.88	-41.2	-43.2	18.3	0.00e+00	0	43	0	0	53	4667
2026-01-27 08:41:53.97	2.32	12.82	-41.2	-43.2	18.3	0.00e+00	0	43	0	0	53	4677
2026-01-27 08:41:55.25	2.17	12.72	-41.2	-43.2	18.2	0.00e+00	0	43	0	0	53	4692
2026-01-27 08:41:55.97	2.08	12.67	-41.0	-43.0	18.4	0.00e+00	0	43	0	0	53	4589
2026-01-27 08:41:57.25	1.93	12.57	-40.8	-42.8	18.6	0.00e+00	0	43	0	0	53	4453
2026-01-27 08:41:57.98	1.84	12.51	-40.9	-42.8	18.5	0.00e+00	0	43	0	0	53	4484
2026-01-27 08:41:59.26	1.69	12.42	-40.7	-42.6	18.7	0.00e+00	0	43	0	0	53	4388
2026-01-27 08:41:59.98	1.61	12.36	-40.7	-42.6	18.8	0.00e+00	0	43	0	0	53	4345
2026-01-27 08:42:01.26	1.46	12.26	-40.6	-42.5	18.8	0.00e+00	0	43	0	0	53	4332
2026-01-27 08:42:01.99	1.38	12.21	-40.5	-42.4	19.0	0.00e+00	0	43	0	0	53	4274
2026-01-27 08:42:03.27	1.23	12.11	-40.5	-42.5	18.9	0.00e+00	0	43	0	0	52	4562
2026-01-27 08:42:04.00	1.15	12.06	-40.5	-42.6	18.9	0.00e+00	0	43	0	0	52	4612
2026-01-27 08:42:05.28	1.00	11.96	-40.7	-42.8	18.6	0.00e+00	0	43	0	0	52	4749
2026-01-27 08:42:05.99	0.92	11.91	-40.8	-43.0	18.5	0.00e+00	0	43	0	0	52	4823
2026-01-27 08:42:07.28	0.78	11.81	-40.9	-43.0	18.5	0.00e+00	0	43	0	0	52	4861
2026-01-27 08:42:07.99	0.70	11.76	-41.1	-43.2	18.3	0.00e+00	0	43	0	0	52	4972
2026-01-27 08:42:09.27	0.56	11.66	-41.4	-43.5	18.1	0.00e+00	0	43	0	0	53	4819
2026-01-27 08:42:10.02	0.48	11.60	-41.5	-43.5	18.0	0.00e+00	0	43	0	0	53	4864
2026-01-27 08:42:11.30	0.33	11.51	-41.6	-43.7	17.8	0.00e+00	0	43	0	0	53	4963
2026-01-27 08:42:12.02	0.26	11.45	-41.8	-43.9	17.7	0.00e+00	0	43	0	0	54	4771
2026-01-27 08:42:13.30	0.12	11.36	-41.9	-44.0	17.5	0.00e+00	0	43	0	0	54	4846
2026-01-27 08:42:14.02	0.04	11.30	-41.9	-44.0	17.5	0.00e+00	0	43	0	0	54	4837
2026-01-27 08:42:15.30	359.90	11.21	-41.8	-43.9	17.6	0.00e+00	0	43	0	0	54	4812
2026-01-27 08:42:16.02	359.83	11.16	-41.7	-43.8	17.7	0.00e+00	0	43	0	0	54	4713
2026-01-27 08:42:17.31	359.69	11.06	-41.7	-43.8	17.6	0.00e+00	0	43	0	0	54	4759
2026-01-27 08:42:18.02	359.61	11.01	-41.6	-43.7	17.7	0.00e+00	0	43	0	0	54	4680
2026-01-27 08:42:19.30	359.48	10.91	-41.6	-43.7	17.8	0.00e+00	0	43	0	0	54	4652
2026-01-27 08:42:20.03	359.40	10.86	-41.4	-43.5	17.9	0.00e+00	0	43	0	0	54	4558
2026-01-27 08:42:21.31	359.27	10.76	-41.5	-43.6	17.8	0.00e+00	0	43	0	0	54	4615
2026-01-27 08:42:22.02	359.20	10.71	-41.3	-43.4	18.0	0.00e+00	0	43	0	0	54	4543
2026-01-27 08:42:23.31	359.06	10.62	-41.3	-43.4	18.1	0.00e+00	0	43	0	0	54	4512
2026-01-27 08:42:24.03	358.99	10.57	-41.3	-43.4	18.0	0.00e+00	0	43	0	0	54	4534
2026-01-27 08:42:25.31	358.86	10.47	-41.3	-43.4	18.0	0.00e+00	0	43	0	0	54	4535
2026-01-27 08:42:26.04	358.78	10.42	-41.5	-43.6	17.9	0.00e+00	0	43	0	0	54	4608
2026-01-27 08:42:27.32	358.65	10.33	-41.6	-43.7	17.8	0.00e+00	0	43	0	0	54	4664
2026-01-27 08:42:28.05	358.58	10.27	-41.6	-43.7	17.8	0.00e+00	0	43	0	0	54	4683
2026-01-27 08:42:29.33	358.45	10.18	-41.8	-43.9	17.6	0.00e+00	0	43	0	0	54	4806
2026-01-27 08:42:30.06	358.38	10.13	-41.9	-44.0	17.5	0.00e+00	0	43	0	0	54	4834
2026-01-27 08:42:31.33	358.26	10.03	-42.1	-44.2	17.3	0.00e+00	0	43	0	0	54	4968
2026-01-27 08:42:32.08	358.18	9.98	-42.1	-44.3	17.2	0.00e+00	0	43	0	0	54	4990
2026-01-27 08:42:33.36	358.06	9.89	-42.2	-44.5	17.1	0.00e+00	0	43	0	0	55	4816
2026-01-27 08:42:34.07	357.99	9.84	-42.2	-44.5	17.0	0.00e+00	0	43	0	0	55	4841
2026-01-27 08:42:35.37	357.86	9.74	-42.3	-44.6	16.9	0.00e+00	0	43	0	0	55	4922
2026-01-27 08:42:36.08	357.79	9.69	-42.4	-44.7	16.8	0.00e+00	0	43	0	0	55	4952
2026-01-27 08:42:37.36	357.67	9.60	-42.4	-44.8	16.7	0.00e+00	0	43	0	0	55	5010
2026-01-27 08:42:38.07	357.60	9.55	-42.3	-44.7	16.8	0.00e+00	0	43	0	0	55	4965
2026-01-27 08:42:39.36	357.48	9.46	-42.4	-44.9	16.6	0.00e+00	0	43	0	0	55	5052
2026-01-27 08:42:40.07	357.41	9.41	-42.3	-44.8	16.7	0.00e+00	0	43	0	0	55	4998
2026-01-27 08:42:41.35	357.29	9.32	-42.0	-44.7	16.8	0.00e+00	0	43	0	0	55	4942
2026-01-27 08:42:42.07	357.23	9.27	-41.9	-44.8	16.7	0.00e+00	0	43	0	0	55	4986
2026-01-27 08:42:43.36	357.11	9.17	-41.6	-44.7	16.7	0.00e+00	0	43	0	0	55	4953
2026-01-27 08:42:44.08	357.04	9.12	-41.4	-44.5	16.9	0.00e+00	0	43	0	0	54	5121
2026-01-27 08:42:45.35	356.92	9.03	-41.2	-44.5	16.9	0.00e+00	0	43	0	0	54	5129
2026-01-27 08:42:46.08	356.86	8.98	-47.9	-57.5	5.1	3.00e-06	0	43	0	0	66	11529
2026-01-27 08:42:47.37	356.74	8.89	-49.8	-63.2	3.8	1.49e+00	0	43	104	0	70	17518
2026-01-27 08:42:48.08	356.67	8.84	-49.5	-63.2	3.8	1.49e+00	0	43	104	0	70	17661
2026-01-27 08:42:49.36	356.56	8.75	-49.6	-63.4	3.8	1.49e+00	0	43	104	0	70	17909
2026-01-27 08:42:50.10	356.49	8.70	-50.1	-63.4	3.8	1.49e+00	0	43	104	0	70	17914
2026-01-27 08:42:51.38	356.38	8.61	-50.0	-63.5	3.8	1.49e+00	0	43	104	0	70	18100
2026-01-27 08:42:52.12	356.31	8.56	-50.3	-63.5	3.8	1.49e+00	0	43	104	0	71	17137
2026-01-27 08:42:53.40	356.20	8.47	-50.4	-63.5	3.8	1.49e+00	0	43	104	0	71	17173
2026-01-27 08:42:54.13	356.13	8.42	-50.1	-63.5	3.8	1.49e+00	0	43	104	0	71	17182
2026-01-27 08:42:55.42	356.02	8.33	-50.2	-63.5	3.8	1.49e+00	0	43	104	0	71	17208
2026-01-27 08:42:56.16	355.96	8.28	-50.2	-63.6	3.8	1.49e+00	0	43	104	0	71	17291
2026-01-27 08:42:57.44	355.85	8.19	-50.3	-63.6	3.8	1.49e+00	0	43	104	0	71	17302
2026-01-27 08:42:58.16	355.78	8.14	-50.1	-63.6	3.8	1.49e+00	0	43	104	0	71	17318
2026-01-27 08:42:59.44	355.67	8.05	-50.5	-63.5	3.8	1.49e+00	0	43	104	0	71	17268
2026-01-27 08:43:00.16	355.61	8.00	-50.6	-63.6	3.8	1.49e+00	0	43	104	0	71	17284
2026-01-27 08:43:01.45	355.50	7.92	-50.1	-63.6	3.8	1.49e+00	0	43	104	0	71	17313
2026-01-27 08:43:02.16	355.44	7.87	-50.5	-63.5	3.8	1.49e+00	0	43	104	0	71	17258
2026-01-27 08:43:03.44	355.33	7.78	-50.0	-63.6	3.8	1.49e+00	0	43	104	0	71	17293
2026-01-27 08:43:04.16	355.27	7.73	-50.3	-63.6	3.8	1.49e+00	0	43	104	0	71	17301
2026-01-27 08:43:05.44	355.17	7.64	-50.5	-63.6	3.8	1.49e+00	0	43	104	0	71	17296
2026-01-27 08:43:06.15	355.11	7.60	-50.3	-63.6	3.8	1.49e+00	0	43	104	0	71	17341
2026-01-27 08:43:07.43	355.00	7.51	-50.5	-63.6	3.8	1.49e+00	0	43	104	0	71	17305
2026-01-27 08:43:08.15	354.94	7.46	-50.5	-63.6	3.8	1.49e+00	0	43	104	0	71	17370
2026-01-27 08:43:09.43	354.84	7.37	-50.5	-63.6	3.8	1.49e+00	0	43	104	0	71	17306
2026-01-27 08:43:10.16	354.78	7.32	-50.4	-63.5	3.8	1.49e+00	0	43	104	0	71	17250
2026-01-27 08:43:11.44	354.68	7.24	-50.5	-63.6	3.8	1.49e+00	0	43	104	0	71	17289
2026-01-27 08:43:12.15	354.62	7.19	-50.4	-63.5	3.8	1.49e+00	0	43	104	0	71	17239
2026-01-27 08:43:13.43	354.52	7.10	-50.4	-63.5	3.8	1.49e+00	0	43	104	0	71	17206
2026-01-27 08:43:14.15	354.46	7.06	-50.3	-63.5	3.8	1.49e+00	0	43	104	0	71	17205
2026-01-27 08:43:15.43	354.36	6.97	-50.3	-63.5	3.8	1.49e+00	0	43	104	0	71	17211
2026-01-27 08:43:16.17	354.30	6.92	-50.3	-63.5	3.8	1.49e+00	0	43	104	0	71	17203
2026-01-27 08:43:17.45	354.20	6.84	-50.3	-63.5	3.8	1.49e+00	0	43	104	0	71	17167
2026-01-27 08:43:18.18	354.14	6.79	-50.3	-63.5	3.8	1.49e+00	0	43	104	0	71	17144
2026-01-27 08:43:19.46	354.04	6.70	-50.3	-63.5	3.8	1.49e+00	0	43	104	0	71	17153
2026-01-27 08:43:20.21	353.98	6.65	-50.3	-63.5	3.8	1.49e+00	0	43	104	0	71	17167
2026-01-27 08:43:21.50	353.88	6.57	-50.3	-63.5	3.8	1.49e+00	0	43	104	0	71	17148
2026-01-27 08:43:22.21	353.83	6.52	-50.3	-63.5	3.8	1.49e+00	0	43	104	0	71	17100
2026-01-27 08:43:23.49	353.73	6.44	-50.3	-63.5	3.8	1.49e+00	0	43	104	0	71	17176
2026-01-27 08:43:24.22	353.68	6.39	-50.3	-63.5	3.8	1.49e+00	0	43	104	0	71	17224
2026-01-27 08:43:25.50	353.58	6.30	-50.3	-63.5	3.8	1.49e+00	0	43	104	0	71	17142
2026-01-27 08:43:26.22	353.52	6.26	-50.3	-63.5	3.8	1.49e+00	0	43	104	0	71	17226
2026-01-27 08:43:27.50	353.43	6.17	-50.3	-63.5	3.8	1.49e+00	0	43	104	0	71	17137
2026-01-27 08:43:28.23	353.37	6.13	-50.3	-63.5	3.8	1.49e+00	0	43	104	0	71	17179
2026-01-27 08:43:29.52	353.28	6.04	-50.3	-63.5	3.8	1.49e+00	0	43	104	0	71	17184
2026-01-27 08:43:30.23	353.23	6.00	-50.2	-63.4	3.8	1.49e+00	0	43	104	0	71	17083
2026-01-27 08:43:31.53	353.13	5.91	-50.3	-63.5	3.8	1.49e+00	0	43	104	0	71	17128
2026-01-27 08:43:32.24	353.08	5.87	-50.3	-63.5	3.8	1.49e+00	0	43	104	0	71	17088
2026-01-27 08:43:33.51	352.99	5.78	-50.2	-63.5	3.8	1.49e+00	0	43	104	0	71	17162
2026-01-27 08:43:34.25	352.93	5.74	-50.3	-63.5	3.8	1.49e+00	0	43	104	0	71	17134
2026-01-27 08:43:35.54	352.84	5.65	-50.3	-63.5	3.8	1.49e+00	0	43	104	0	71	17138
2026-01-27 08:43:36.28	352.79	5.60	-50.2	-63.5	3.8	1.49e+00	0	43	104	0	71	17123
2026-01-27 08:43:37.56	352.69	5.52	-50.3	-63.5	3.8	1.49e+00	0	43	104	0	71	17150
2026-01-27 08:43:38.27	352.64	5.48	-50.3	-63.5	3.8	1.49e+00	0	43	104	0	71	17130
2026-01-27 08:43:39.55	352.55	5.39	-50.3	-63.5	3.8	1.49e+00	0	43	104	0	71	17086
2026-01-27 08:43:40.27	352.50	5.35	-50.2	-63.5	3.8	1.49e+00	0	43	104	0	71	17133
2026-01-27 08:43:41.55	352.41	5.27	-50.3	-63.5	3.8	1.49e+00	0	43	104	0	71	17176
2026-01-27 08:43:42.26	352.36	5.22	-50.3	-63.5	3.8	1.49e+00	0	43	104	0	71	17140
2026-01-27 08:43:43.55	352.27	5.14	-50.3	-63.5	3.8	1.49e+00	0	43	104	0	71	17101
2026-01-27 08:43:44.29	352.22	5.09	-50.2	-63.4	3.8	1.49e+00	0	43	104	0	71	17065
2026-01-27 08:43:45.57	352.13	5.01	-50.3	-63.5	3.8	1.49e+00	0	43	104	0	71	17127
2026-01-27 08:43:46.28	352.09	4.97	-50.3	-63.5	3.8	1.49e+00	0	43	104	0	71	17111

#Closed at: 2026-01-27 08:43:47
#Recorded file [0 MB]: D:/Data/31040_260127_113222.dat