passes_logs/2026/01/27/T1/T1__20260127_100017_FENGYUN_3D_rec.log

#Pass ID: 20260127_100017_FENGYUN 3D
#Satellite: FENGYUN 3D
#Configuration: FENGYUN 3D
#almurnet v.1.7.20251203
#Start time: 2026-01-27 10:00:19

#Version: 2.0.20230620
#Station: T1
#Location: 37.570604 lon 55.790049 lat
#TLE: 1 43010U 17072A   26026.91415486  .00000072  00000+0  55983-4 0  9991
#TLE: 2 43010  98.9962 358.9161 0002508  89.0320 271.1142 14.19700283424949

#Time	Az	El	Level	Level2	SNR	BER	BlckErr	Temp	State	Recorded	gain1	gain2
2026-01-27 10:00:19.05	96.25	5.11	-50.3	-62.5	3.8	8.47e-01	0	39	0	0	71	15275
2026-01-27 10:00:20.05	96.15	5.17	-50.1	-62.5	3.8	8.47e-01	0	39	104	0	72	14421
2026-01-27 10:00:21.04	96.05	5.22	-50.1	-62.5	3.8	8.48e-01	0	39	104	0	72	14503
2026-01-27 10:00:22.04	95.95	5.28	-50.0	-62.5	3.8	8.47e-01	0	39	104	0	72	14531
2026-01-27 10:00:23.03	95.85	5.33	-50.0	-62.5	3.8	8.48e-01	0	39	104	0	72	14437
2026-01-27 10:00:24.03	95.76	5.39	-50.1	-62.5	3.8	8.47e-01	0	39	104	0	72	14471
2026-01-27 10:00:25.03	95.66	5.44	-50.2	-62.5	3.8	8.48e-01	0	39	104	0	72	14471
2026-01-27 10:00:26.02	95.56	5.50	-50.2	-62.5	3.8	8.46e-01	0	39	104	0	72	14447
2026-01-27 10:00:27.01	95.46	5.55	-50.2	-62.5	3.8	8.47e-01	0	39	104	0	72	14479
2026-01-27 10:00:28.01	95.36	5.61	-50.2	-62.5	3.8	8.46e-01	0	39	104	0	72	14395
2026-01-27 10:00:29.00	95.26	5.67	-50.2	-62.4	3.8	8.47e-01	0	39	104	0	72	14365
2026-01-27 10:00:30.00	95.16	5.72	-50.1	-62.4	3.8	8.48e-01	0	39	104	0	72	14298
2026-01-27 10:00:31.00	95.05	5.78	-50.0	-62.4	3.8	8.48e-01	0	39	104	0	72	14271
2026-01-27 10:00:31.99	94.95	5.83	-50.0	-62.4	3.8	8.48e-01	0	39	104	0	71	15072
2026-01-27 10:00:32.98	94.85	5.89	-50.0	-62.3	3.8	8.47e-01	0	39	104	0	71	14958
2026-01-27 10:00:33.98	94.75	5.94	-49.8	-62.3	3.8	8.46e-01	0	39	104	0	71	14901
2026-01-27 10:00:34.97	94.64	6.00	-49.7	-62.0	3.8	8.47e-01	0	39	104	0	71	14515
2026-01-27 10:00:35.97	94.54	6.05	-49.7	-61.8	3.8	8.47e-01	0	39	104	0	71	14091
2026-01-27 10:00:36.97	94.44	6.11	-49.6	-61.8	3.8	8.47e-01	0	40	104	0	71	14077
2026-01-27 10:00:37.96	94.33	6.17	-49.6	-61.8	3.8	8.47e-01	0	39	104	0	71	14082
2026-01-27 10:00:38.95	94.23	6.22	-49.6	-61.8	3.8	8.47e-01	0	39	104	0	71	14089
2026-01-27 10:00:39.95	94.12	6.28	-49.6	-61.8	3.8	8.47e-01	0	40	104	0	71	14053
2026-01-27 10:00:40.94	94.02	6.33	-49.6	-61.8	3.8	8.47e-01	0	40	104	0	71	14056
2026-01-27 10:00:41.94	93.91	6.39	-49.5	-61.7	3.8	8.48e-01	0	40	104	0	71	13984
2026-01-27 10:00:42.94	93.80	6.45	-49.6	-61.7	3.8	8.46e-01	0	40	104	0	71	14017
2026-01-27 10:00:43.93	93.70	6.50	-49.5	-61.7	3.8	8.47e-01	0	40	104	0	71	13902
2026-01-27 10:00:44.93	93.59	6.56	-49.5	-61.6	3.8	8.48e-01	0	40	104	0	71	13786
2026-01-27 10:00:45.92	93.48	6.61	-49.5	-61.5	3.8	8.47e-01	0	40	104	0	71	13657
2026-01-27 10:00:46.92	93.38	6.67	-49.5	-61.4	3.8	8.47e-01	0	40	104	0	71	13536
2026-01-27 10:00:47.91	93.27	6.73	-49.5	-61.4	3.8	8.47e-01	0	40	104	0	71	13420
2026-01-27 10:00:48.91	93.16	6.78	-49.5	-61.3	3.8	8.46e-01	0	40	104	0	71	13352
2026-01-27 10:00:49.90	93.05	6.84	-49.5	-61.3	3.8	8.46e-01	0	40	104	0	71	13350
2026-01-27 10:00:50.89	92.94	6.89	-49.5	-61.4	3.8	8.47e-01	0	40	104	0	71	13444
2026-01-27 10:00:51.89	92.83	6.95	-49.5	-61.3	3.8	8.47e-01	0	40	104	0	71	13380
2026-01-27 10:00:52.88	92.72	7.01	-49.5	-61.4	3.8	8.48e-01	0	40	104	0	71	13551
2026-01-27 10:00:53.88	92.61	7.06	-49.5	-61.4	3.8	8.47e-01	0	40	104	0	71	13512
2026-01-27 10:00:54.87	92.50	7.12	-49.5	-61.4	3.8	8.46e-01	0	40	104	0	71	13542
2026-01-27 10:00:55.87	92.38	7.17	-49.5	-61.3	3.8	8.47e-01	0	40	104	0	71	13276
2026-01-27 10:00:56.86	92.27	7.23	-49.5	-61.0	3.8	8.47e-01	0	40	104	0	70	13724
2026-01-27 10:00:57.86	92.16	7.29	-49.4	-60.8	3.8	8.48e-01	0	40	104	0	70	13378
2026-01-27 10:00:58.85	92.05	7.34	-49.4	-60.4	3.8	8.47e-01	0	40	104	0	70	12793
2026-01-27 10:00:59.84	91.93	7.40	-49.4	-60.1	3.8	8.46e-01	0	40	104	0	70	12285
2026-01-27 10:01:00.84	91.82	7.46	-49.3	-60.0	3.8	8.46e-01	0	40	104	0	70	12108
2026-01-27 10:01:01.83	91.71	7.51	-49.3	-59.9	3.8	8.46e-01	0	40	104	0	70	11969
2026-01-27 10:01:02.83	91.59	7.57	-49.3	-59.9	3.8	8.46e-01	0	40	104	0	70	11983
2026-01-27 10:01:03.82	91.48	7.62	-49.3	-60.0	3.8	8.46e-01	0	40	104	0	70	12098
2026-01-27 10:01:04.82	91.36	7.68	-49.4	-60.2	3.8	8.46e-01	0	40	104	0	70	12449
2026-01-27 10:01:05.81	91.24	7.74	-49.4	-60.3	3.8	8.47e-01	0	40	104	0	70	12622
2026-01-27 10:01:06.81	91.13	7.79	-49.4	-60.4	3.8	8.46e-01	0	40	104	0	70	12714
2026-01-27 10:01:07.80	91.01	7.85	-49.4	-60.3	3.8	8.47e-01	0	40	104	0	70	12602
2026-01-27 10:01:08.79	90.89	7.91	-49.3	-60.1	3.8	8.46e-01	0	40	104	0	70	12330
2026-01-27 10:01:09.79	90.77	7.96	-49.3	-59.8	3.8	8.47e-01	0	40	104	0	70	11867
2026-01-27 10:01:10.79	90.65	8.02	-49.2	-59.2	4.0	8.45e-01	0	40	104	0	70	11059
2026-01-27 10:01:11.78	90.54	8.07	-49.2	-58.7	4.1	8.43e-01	0	40	104	0	70	10507
2026-01-27 10:01:12.78	90.41	8.13	-49.2	-58.9	3.9	8.41e-01	0	40	104	0	70	10699
2026-01-27 10:01:13.77	90.30	8.19	-49.2	-59.4	3.8	8.44e-01	0	40	104	0	70	11409
2026-01-27 10:01:14.77	90.17	8.24	-49.2	-59.1	3.9	8.46e-01	0	40	104	0	70	10915
2026-01-27 10:01:15.76	90.05	8.30	-48.7	-56.3	4.9	8.08e-01	0	40	0	0	69	8396
2026-01-27 10:01:16.75	89.93	8.36	-47.4	-52.7	7.4	2.14e-01	0	41	0	3145728	66	6641
2026-01-27 10:01:17.75	89.81	8.41	-45.8	-49.5	10.8	1.82e-02	0	40	0	8388608	63	5460
2026-01-27 10:01:18.75	89.69	8.47	-44.3	-47.3	13.1	9.04e-05	0	41	0	14680064	60	5030
2026-01-27 10:01:19.74	89.56	8.53	-42.7	-45.2	15.2	1.10e-06	0	41	0	19922944	57	4657
2026-01-27 10:01:20.74	89.44	8.58	-41.7	-44.0	16.2	0.00e+00	0	41	0	25165824	55	4557
2026-01-27 10:01:21.73	89.32	8.64	-40.9	-43.1	17.0	0.00e+00	0	41	0	31457280	53	4620
2026-01-27 10:01:22.73	89.19	8.70	-40.9	-43.1	17.0	0.00e+00	0	41	0	36700160	53	4651
2026-01-27 10:01:23.72	89.07	8.75	-41.2	-43.5	16.7	0.00e+00	0	41	0	41943040	53	4820
2026-01-27 10:01:24.72	88.94	8.81	-41.9	-44.3	16.0	0.00e+00	0	40	0	48234496	54	4994
2026-01-27 10:01:25.71	88.82	8.87	-43.5	-46.2	14.2	0.00e+00	0	41	0	53477376	57	5250
2026-01-27 10:01:26.71	88.69	8.92	-45.0	-48.3	12.1	8.46e-05	0	41	0	59768832	60	5642
2026-01-27 10:01:27.70	88.56	8.98	-46.5	-50.8	9.6	3.41e-03	0	41	0	65011712	63	6281
2026-01-27 10:01:28.69	88.44	9.03	-48.0	-54.3	6.1	2.05e-01	0	40	0	70254592	66	7926
2026-01-27 10:01:29.69	88.31	9.09	-43.1	-45.7	14.8	3.15e-01	0	41	0	74448896	58	4654
2026-01-27 10:01:30.70	88.18	9.15	-45.1	-48.5	12.0	5.14e-05	0	41	0	79691776	60	5766
2026-01-27 10:01:31.69	88.05	9.20	-49.2	-59.6	3.9	2.73e-01	0	41	0	83886080	69	12363
2026-01-27 10:01:32.70	87.92	9.26	-44.7	-47.9	5.6	8.07e-01	0	40	104	83886080	61	5058
2026-01-27 10:01:33.69	87.79	9.32	-48.7	-55.1	5.8	1.05e-02	0	41	0	87031808	67	8206
2026-01-27 10:01:34.69	87.66	9.38	-45.2	-48.6	11.6	8.32e-01	0	41	0	89128960	62	5206
2026-01-27 10:01:35.69	87.53	9.43	-42.5	-45.0	15.4	0.00e+00	0	41	0	94371840	57	4559
2026-01-27 10:01:36.69	87.39	9.49	-41.5	-43.8	16.5	0.00e+00	0	41	0	99614720	54	4710
2026-01-27 10:01:37.69	87.26	9.55	-40.5	-42.7	17.5	0.00e+00	0	41	0	105906176	53	4426
2026-01-27 10:01:38.70	87.13	9.60	-40.5	-42.6	17.5	0.00e+00	0	41	0	111149056	53	4378
2026-01-27 10:01:39.70	86.99	9.66	-40.3	-42.4	17.8	0.00e+00	0	41	0	116391936	52	4512
2026-01-27 10:01:40.69	86.86	9.71	-40.2	-42.3	17.9	0.00e+00	0	41	0	122683392	52	4461
2026-01-27 10:01:41.70	86.72	9.77	-40.3	-42.5	17.7	0.00e+00	0	41	0	127926272	52	4559
2026-01-27 10:01:42.70	86.59	9.83	-40.2	-42.3	17.8	0.00e+00	0	41	0	133169152	52	4491
2026-01-27 10:01:43.69	86.45	9.88	-40.2	-42.3	17.8	0.00e+00	0	41	0	139460608	52	4489
2026-01-27 10:01:44.69	86.32	9.94	-40.1	-42.3	17.9	0.00e+00	0	41	0	144703488	52	4457
2026-01-27 10:01:45.69	86.18	10.00	-40.1	-42.2	18.0	0.00e+00	0	41	0	150994944	52	4414
2026-01-27 10:01:46.69	86.04	10.05	-40.0	-42.1	18.1	0.00e+00	0	41	0	156237824	52	4365
2026-01-27 10:01:47.69	85.91	10.11	-40.0	-42.1	18.1	0.00e+00	0	41	0	161480704	51	4623
2026-01-27 10:01:48.69	85.77	10.17	-40.0	-42.1	18.1	0.00e+00	0	41	0	167772160	51	4628
2026-01-27 10:01:49.69	85.63	10.22	-39.8	-41.9	18.3	0.00e+00	0	41	0	173015040	51	4529
2026-01-27 10:01:50.69	85.49	10.28	-39.8	-41.9	18.4	0.00e+00	0	41	0	178257920	51	4504
2026-01-27 10:01:51.69	85.35	10.34	-39.9	-42.0	18.2	0.00e+00	0	41	0	184549376	51	4578
2026-01-27 10:01:52.69	85.21	10.39	-39.9	-41.9	18.3	0.00e+00	0	41	0	189792256	51	4541
2026-01-27 10:01:53.69	85.07	10.45	-39.7	-41.8	18.4	0.00e+00	0	41	0	195035136	51	4483
2026-01-27 10:01:54.70	84.92	10.50	-39.7	-41.8	18.4	0.00e+00	0	41	0	201326592	51	4477
2026-01-27 10:01:55.70	84.78	10.56	-39.8	-41.9	18.4	0.00e+00	0	41	0	206569472	51	4520
2026-01-27 10:01:56.70	84.64	10.62	-39.9	-42.0	18.2	0.00e+00	0	41	0	212860928	51	4582
2026-01-27 10:01:57.70	84.49	10.67	-39.7	-41.8	18.4	0.00e+00	0	41	0	218103808	51	4476
2026-01-27 10:01:58.70	84.35	10.73	-39.6	-41.7	18.6	0.00e+00	0	41	0	223346688	51	4393
2026-01-27 10:01:59.70	84.21	10.78	-39.7	-41.7	18.5	0.00e+00	0	41	0	229638144	51	4438
2026-01-27 10:02:00.70	84.06	10.84	-39.8	-41.8	18.4	0.00e+00	0	41	0	234881024	51	4482
2026-01-27 10:02:01.71	83.91	10.90	-39.6	-41.6	18.6	0.00e+00	0	41	0	241172480	51	4391
2026-01-27 10:02:02.71	83.77	10.95	-39.6	-41.6	18.6	0.00e+00	0	41	0	246415360	51	4371
2026-01-27 10:02:03.71	83.62	11.01	-39.6	-41.6	18.6	0.00e+00	0	41	0	251658240	51	4361
2026-01-27 10:02:04.71	83.47	11.06	-39.5	-41.6	18.7	0.00e+00	0	41	0	257949696	51	4354
2026-01-27 10:02:05.71	83.33	11.12	-39.6	-41.7	18.6	0.00e+00	0	41	0	263192576	51	4398
2026-01-27 10:02:06.71	83.18	11.18	-39.6	-41.6	18.6	0.00e+00	0	41	0	268435456	51	4389
2026-01-27 10:02:07.71	83.03	11.23	-39.6	-41.6	18.6	0.00e+00	0	41	0	274726912	51	4375
2026-01-27 10:02:08.71	82.88	11.29	-39.6	-41.6	18.7	0.00e+00	0	41	0	279969792	51	4359
2026-01-27 10:02:09.71	82.73	11.34	-39.5	-41.4	18.8	0.00e+00	0	41	0	286261248	50	4544
2026-01-27 10:02:10.71	82.58	11.40	-39.5	-41.5	18.8	0.00e+00	0	41	0	291504128	50	4550
2026-01-27 10:02:11.71	82.43	11.45	-39.5	-41.5	18.8	0.00e+00	0	41	0	296747008	50	4569
2026-01-27 10:02:12.71	82.27	11.51	-39.4	-41.4	18.8	0.00e+00	0	41	0	303038464	50	4540
2026-01-27 10:02:13.70	82.12	11.56	-39.3	-41.3	18.9	0.00e+00	0	41	0	308281344	50	4491
2026-01-27 10:02:14.70	81.97	11.62	-39.2	-41.2	19.0	0.00e+00	0	41	0	313524224	50	4436
2026-01-27 10:02:15.71	81.81	11.67	-39.3	-41.3	18.9	0.00e+00	0	41	0	319815680	50	4487
2026-01-27 10:02:16.70	81.66	11.73	-39.3	-41.4	18.9	0.00e+00	0	41	0	325058560	50	4497
2026-01-27 10:02:17.70	81.51	11.78	-39.4	-41.4	18.9	0.00e+00	0	41	0	330301440	50	4518
2026-01-27 10:02:18.71	81.35	11.84	-39.4	-41.4	18.9	0.00e+00	0	41	0	336592896	50	4499
2026-01-27 10:02:19.70	81.19	11.89	-39.6	-41.6	18.7	0.00e+00	0	41	0	341835776	50	4648
2026-01-27 10:02:20.71	81.04	11.95	-39.4	-41.4	18.8	0.00e+00	0	41	0	348127232	50	4541
2026-01-27 10:02:21.71	80.88	12.00	-39.2	-41.2	19.0	0.00e+00	0	41	0	353370112	50	4403
2026-01-27 10:02:22.71	80.72	12.05	-39.2	-41.2	19.0	0.00e+00	0	41	0	358612992	50	4430
2026-01-27 10:02:23.71	80.56	12.11	-39.2	-41.2	19.0	0.00e+00	0	41	0	364904448	50	4421
2026-01-27 10:02:24.71	80.40	12.16	-39.0	-41.0	19.2	0.00e+00	0	41	0	370147328	50	4314
2026-01-27 10:02:25.71	80.24	12.22	-39.2	-41.2	19.1	0.00e+00	0	41	0	375390208	50	4407
2026-01-27 10:02:26.71	80.08	12.27	-39.0	-41.0	19.2	0.00e+00	0	41	0	381681664	50	4301
2026-01-27 10:02:27.71	79.92	12.32	-38.8	-40.8	19.4	0.00e+00	0	41	0	386924544	49	4461
2026-01-27 10:02:28.71	79.76	12.38	-38.9	-40.8	19.4	0.00e+00	0	41	0	392167424	49	4484
2026-01-27 10:02:29.71	79.60	12.43	-38.9	-40.9	19.3	0.00e+00	0	41	0	398458880	49	4511
2026-01-27 10:02:30.72	79.44	12.49	-38.8	-40.8	19.4	0.00e+00	0	41	0	403701760	49	4464
2026-01-27 10:02:31.72	79.27	12.54	-38.7	-40.6	19.5	0.00e+00	0	41	0	409993216	49	4387
2026-01-27 10:02:32.72	79.11	12.59	-38.8	-40.8	19.5	0.00e+00	0	41	0	415236096	49	4450
2026-01-27 10:02:33.72	78.94	12.65	-38.8	-40.7	19.5	0.00e+00	0	41	0	420478976	49	4426
2026-01-27 10:02:34.72	78.78	12.70	-38.9	-40.9	19.4	0.00e+00	0	41	0	426770432	49	4499
2026-01-27 10:02:35.72	78.61	12.75	-38.8	-40.7	19.5	0.00e+00	0	41	0	432013312	49	4425
2026-01-27 10:02:36.72	78.45	12.80	-38.9	-40.8	19.4	0.00e+00	0	41	0	437256192	49	4491
2026-01-27 10:02:37.73	78.28	12.86	-38.9	-40.9	19.3	0.00e+00	0	41	0	443547648	49	4516
2026-01-27 10:02:38.73	78.11	12.91	-39.0	-40.9	19.3	0.00e+00	0	41	0	448790528	49	4541
2026-01-27 10:02:39.73	77.94	12.96	-38.9	-40.8	19.4	0.00e+00	0	41	0	454033408	49	4479
2026-01-27 10:02:40.73	77.78	13.01	-38.8	-40.8	19.4	0.00e+00	0	41	0	460324864	49	4456
2026-01-27 10:02:41.73	77.61	13.07	-38.9	-40.9	19.3	0.00e+00	0	41	0	465567744	49	4497
2026-01-27 10:02:42.73	77.44	13.12	-38.7	-40.7	19.5	0.00e+00	0	41	0	471859200	49	4406
2026-01-27 10:02:43.73	77.27	13.17	-38.8	-40.7	19.5	0.00e+00	0	41	0	477102080	49	4437
2026-01-27 10:02:44.73	77.10	13.22	-38.7	-40.7	19.6	0.00e+00	0	41	0	482344960	49	4396
2026-01-27 10:02:45.73	76.92	13.27	-38.7	-40.6	19.6	0.00e+00	0	41	0	488636416	49	4370
2026-01-27 10:02:46.73	76.75	13.33	-38.6	-40.5	19.7	0.00e+00	0	41	0	493879296	49	4337
2026-01-27 10:02:47.73	76.58	13.38	-38.6	-40.5	19.7	0.00e+00	0	41	0	499122176	49	4322
2026-01-27 10:02:48.73	76.41	13.43	-38.8	-40.7	19.5	0.00e+00	0	41	0	505413632	49	4437
2026-01-27 10:02:49.73	76.23	13.48	-38.8	-40.7	19.5	0.00e+00	0	41	0	510656512	49	4435
2026-01-27 10:02:50.73	76.06	13.53	-38.9	-40.8	19.4	0.00e+00	0	41	0	515899392	49	4482
2026-01-27 10:02:51.72	75.88	13.58	-39.0	-40.9	19.3	0.00e+00	0	41	0	522190848	49	4538
2026-01-27 10:02:52.72	75.71	13.63	-38.9	-40.9	19.3	0.00e+00	0	41	0	527433728	49	4518
2026-01-27 10:02:53.72	75.53	13.68	-38.9	-40.9	19.3	0.00e+00	0	41	0	533725184	49	4499
2026-01-27 10:02:54.72	75.35	13.73	-38.8	-40.8	19.4	0.00e+00	0	41	0	538968064	49	4466
2026-01-27 10:02:55.72	75.18	13.78	-38.8	-40.7	19.5	0.00e+00	0	41	0	544210944	49	4435
2026-01-27 10:02:56.72	75.00	13.83	-38.7	-40.7	19.5	0.00e+00	0	41	0	550502400	49	4406
2026-01-27 10:02:57.73	74.82	13.88	-38.7	-40.6	19.6	0.00e+00	0	41	0	555745280	49	4367
2026-01-27 10:02:58.73	74.64	13.93	-38.7	-40.6	19.6	0.00e+00	0	41	0	560988160	49	4348
2026-01-27 10:02:59.73	74.46	13.98	-38.5	-40.4	19.8	0.00e+00	0	41	0	567279616	49	4256
2026-01-27 10:03:00.73	74.28	14.03	-38.7	-40.6	19.6	0.00e+00	0	41	0	572522496	49	4359
2026-01-27 10:03:01.73	74.10	14.08	-38.6	-40.5	19.7	0.00e+00	0	41	0	577765376	49	4330
2026-01-27 10:03:02.73	73.91	14.13	-38.6	-40.5	19.7	0.00e+00	0	41	0	584056832	49	4327
2026-01-27 10:03:03.73	73.73	14.18	-38.8	-40.7	19.5	0.00e+00	0	41	0	589299712	49	4416
2026-01-27 10:03:04.73	73.55	14.22	-38.8	-40.8	19.5	0.00e+00	0	41	0	595591168	49	4457
2026-01-27 10:03:05.73	73.36	14.27	-38.8	-40.8	19.5	0.00e+00	0	41	0	600834048	49	4451
2026-01-27 10:03:06.73	73.18	14.32	-39.0	-40.9	19.4	0.00e+00	0	41	0	606076928	49	4521
2026-01-27 10:03:07.74	72.99	14.37	-38.8	-40.7	19.5	0.00e+00	0	41	0	612368384	49	4428
2026-01-27 10:03:08.74	72.81	14.42	-38.7	-40.7	19.5	0.00e+00	0	41	0	617611264	49	4399
2026-01-27 10:03:09.74	72.62	14.46	-38.8	-40.8	19.5	0.00e+00	0	41	0	622854144	49	4450
2026-01-27 10:03:10.74	72.43	14.51	-38.6	-40.6	19.6	0.00e+00	0	41	0	629145600	49	4347
2026-01-27 10:03:11.74	72.25	14.56	-38.6	-40.5	19.7	0.00e+00	0	41	0	634388480	49	4318
2026-01-27 10:03:12.74	72.06	14.61	-38.5	-40.4	19.8	0.00e+00	0	41	0	639631360	48	4496
2026-01-27 10:03:13.74	71.87	14.65	-38.4	-40.3	19.9	0.00e+00	0	41	0	645922816	48	4451
2026-01-27 10:03:14.74	71.68	14.70	-38.4	-40.3	19.8	0.00e+00	0	41	0	651165696	48	4482
2026-01-27 10:03:15.74	71.49	14.74	-38.4	-40.3	19.9	0.00e+00	0	41	0	657457152	48	4471
2026-01-27 10:03:16.74	71.30	14.79	-38.5	-40.4	19.8	0.00e+00	0	41	0	662700032	48	4530
2026-01-27 10:03:17.74	71.11	14.84	-38.4	-40.3	19.9	0.00e+00	0	41	0	667942912	48	4473
2026-01-27 10:03:18.74	70.92	14.88	-38.3	-40.2	20.0	0.00e+00	0	41	0	674234368	48	4433
2026-01-27 10:03:19.75	70.73	14.93	-38.2	-40.1	20.1	0.00e+00	0	41	0	679477248	48	4369
2026-01-27 10:03:20.75	70.53	14.97	-38.3	-40.1	20.1	0.00e+00	0	41	0	684720128	48	4384
2026-01-27 10:03:21.75	70.34	15.02	-38.3	-40.1	20.0	0.00e+00	0	41	0	691011584	48	4390
2026-01-27 10:03:22.74	70.15	15.06	-38.2	-40.0	20.2	0.00e+00	0	41	0	696254464	48	4330
2026-01-27 10:03:23.75	69.95	15.11	-38.1	-39.9	20.3	0.00e+00	0	41	0	702545920	48	4274
2026-01-27 10:03:24.74	69.76	15.15	-38.0	-39.9	20.3	0.00e+00	0	41	0	707788800	48	4263
2026-01-27 10:03:25.74	69.56	15.19	-38.1	-39.9	20.3	0.00e+00	0	42	0	713031680	48	4289
2026-01-27 10:03:26.74	69.37	15.24	-37.8	-39.6	20.3	0.00e+00	0	41	0	719323136	47	4384
2026-01-27 10:03:27.74	69.17	15.28	-37.8	-39.6	20.3	0.00e+00	0	41	0	724566016	47	4384
2026-01-27 10:03:28.74	68.97	15.32	-37.7	-39.6	20.3	0.00e+00	0	41	0	729808896	47	4363
2026-01-27 10:03:29.74	68.78	15.36	-37.8	-39.7	20.3	0.00e+00	0	41	0	736100352	47	4402
2026-01-27 10:03:30.74	68.58	15.41	-37.6	-39.5	20.4	0.00e+00	0	42	0	741343232	47	4302
2026-01-27 10:03:31.74	68.38	15.45	-37.7	-39.6	20.3	0.00e+00	0	42	0	746586112	47	4369
2026-01-27 10:03:32.74	68.18	15.49	-37.8	-39.7	20.2	0.00e+00	0	41	0	752877568	47	4403
2026-01-27 10:03:33.74	67.98	15.53	-37.7	-39.5	20.4	0.00e+00	0	41	0	758120448	47	4327
2026-01-27 10:03:34.74	67.78	15.57	-37.6	-39.4	20.5	0.00e+00	0	41	0	764411904	47	4283
2026-01-27 10:03:35.74	67.58	15.61	-37.5	-39.4	20.5	0.00e+00	0	41	0	769654784	47	4253
2026-01-27 10:03:36.74	67.37	15.66	-37.5	-39.4	20.5	0.00e+00	0	41	0	774897664	47	4244
2026-01-27 10:03:37.74	67.17	15.70	-37.5	-39.3	20.6	0.00e+00	0	41	0	781189120	47	4236
2026-01-27 10:03:38.75	66.97	15.74	-37.6	-39.5	20.4	0.00e+00	0	42	0	786432000	47	4303
2026-01-27 10:03:39.75	66.76	15.78	-37.8	-39.6	20.3	0.00e+00	0	42	0	791674880	47	4391
2026-01-27 10:03:40.75	66.56	15.82	-37.6	-39.5	20.4	0.00e+00	0	41	0	797966336	47	4315
2026-01-27 10:03:41.75	66.36	15.85	-37.6	-39.5	20.4	0.00e+00	0	41	0	803209216	47	4300
2026-01-27 10:03:42.75	66.15	15.89	-37.6	-39.5	20.5	0.00e+00	0	41	0	808452096	47	4297
2026-01-27 10:03:43.75	65.95	15.93	-37.5	-39.3	20.6	0.00e+00	0	41	0	814743552	46	4459
2026-01-27 10:03:44.75	65.74	15.97	-37.3	-39.1	20.8	0.00e+00	0	41	0	819986432	46	4348
2026-01-27 10:03:45.75	65.53	16.01	-37.3	-39.1	20.9	0.00e+00	0	41	0	826277888	46	4365
2026-01-27 10:03:46.76	65.32	16.05	-37.4	-39.2	20.7	0.00e+00	0	41	0	831520768	46	4437
2026-01-27 10:03:47.75	65.12	16.08	-37.4	-39.2	20.7	0.00e+00	0	42	0	836763648	46	4416
2026-01-27 10:03:48.76	64.91	16.12	-37.5	-39.4	20.6	0.00e+00	0	42	0	843055104	46	4506
2026-01-27 10:03:49.76	64.70	16.16	-37.4	-39.3	20.6	0.00e+00	0	41	0	848297984	46	4460
2026-01-27 10:03:50.76	64.49	16.19	-37.6	-39.4	20.5	0.00e+00	0	41	0	854589440	46	4524
2026-01-27 10:03:51.76	64.28	16.23	-37.7	-39.6	20.4	0.00e+00	0	42	0	859832320	46	4626
2026-01-27 10:03:52.75	64.07	16.26	-37.6	-39.4	20.5	0.00e+00	0	42	0	865075200	46	4538
2026-01-27 10:03:53.75	63.86	16.30	-37.7	-39.5	20.4	0.00e+00	0	41	0	870318080	46	4581
2026-01-27 10:03:54.75	63.65	16.34	-37.8	-39.7	20.3	0.00e+00	0	42	0	876609536	46	4670
2026-01-27 10:03:55.75	63.44	16.37	-38.0	-39.8	20.1	0.00e+00	0	41	0	881852416	46	4757
2026-01-27 10:03:56.76	63.22	16.40	-37.8	-39.7	20.3	0.00e+00	0	41	0	888143872	46	4665
2026-01-27 10:03:57.76	63.01	16.44	-37.9	-39.8	20.2	0.00e+00	0	41	0	893386752	46	4708
2026-01-27 10:03:58.76	62.80	16.47	-37.9	-39.8	20.2	0.00e+00	0	41	0	899678208	46	4711
2026-01-27 10:03:59.75	62.59	16.50	-37.8	-39.7	20.3	0.00e+00	0	41	0	904921088	46	4666
2026-01-27 10:04:00.76	62.37	16.54	-37.8	-39.6	20.3	0.00e+00	0	42	0	910163968	46	4639
2026-01-27 10:04:01.76	62.16	16.57	-37.6	-39.5	20.4	0.00e+00	0	41	0	916455424	46	4558
2026-01-27 10:04:02.75	61.94	16.60	-37.6	-39.4	20.5	0.00e+00	0	42	0	921698304	46	4537
2026-01-27 10:04:03.75	61.73	16.63	-37.6	-39.5	20.4	0.00e+00	0	41	0	926941184	46	4561
2026-01-27 10:04:04.75	61.51	16.67	-37.7	-39.5	20.4	0.00e+00	0	41	0	932184064	46	4596
2026-01-27 10:04:05.75	61.30	16.70	-37.7	-39.5	20.4	0.00e+00	0	41	0	938475520	46	4586
2026-01-27 10:04:06.75	61.08	16.73	-37.8	-39.7	20.3	0.00e+00	0	42	0	943718400	46	4688
2026-01-27 10:04:07.75	60.86	16.76	-37.8	-39.6	20.3	0.00e+00	0	42	0	950009856	46	4647
2026-01-27 10:04:08.76	60.64	16.79	-37.8	-39.7	20.3	0.00e+00	0	41	0	955252736	46	4660
2026-01-27 10:04:09.75	60.43	16.82	-37.8	-39.7	20.3	0.00e+00	0	42	0	960495616	46	4671
2026-01-27 10:04:10.75	60.21	16.85	-37.7	-39.6	20.4	0.00e+00	0	42	0	966787072	46	4602
2026-01-27 10:04:11.76	59.99	16.87	-37.8	-39.6	20.4	0.00e+00	0	41	0	972029952	46	4631
2026-01-27 10:04:12.76	59.77	16.90	-37.8	-39.6	20.4	0.00e+00	0	41	0	978321408	46	4631
2026-01-27 10:04:13.77	59.54	16.93	-37.7	-39.5	20.4	0.00e+00	0	41	0	983564288	46	4575
2026-01-27 10:04:14.77	59.32	16.96	-37.8	-39.7	20.3	0.00e+00	0	42	0	988807168	46	4655
2026-01-27 10:04:15.77	59.10	16.99	-37.8	-39.6	20.3	0.00e+00	0	42	0	995098624	46	4649
2026-01-27 10:04:16.77	58.88	17.01	-37.6	-39.5	20.5	0.00e+00	0	41	0	1000341504	46	4565
2026-01-27 10:04:17.77	58.66	17.04	-37.4	-39.3	20.6	0.00e+00	0	42	0	1005584384	46	4457
2026-01-27 10:04:18.77	58.44	17.06	-37.6	-39.4	20.9	0.00e+00	0	41	0	1011875840	46	4515
2026-01-27 10:04:19.77	58.22	17.09	-37.7	-39.5	20.8	0.00e+00	0	41	0	1017118720	46	4565
2026-01-27 10:04:20.77	57.99	17.12	-37.6	-39.3	21.0	0.00e+00	0	41	0	1023410176	46	4480
2026-01-27 10:04:21.77	57.77	17.14	-37.6	-39.4	21.0	0.00e+00	0	42	0	1028653056	46	4499
2026-01-27 10:04:22.78	57.55	17.16	-37.7	-39.4	20.9	0.00e+00	0	41	0	1033895936	46	4521
2026-01-27 10:04:23.78	57.32	17.19	-37.5	-39.3	21.0	0.00e+00	0	42	0	1040187392	46	4450
2026-01-27 10:04:24.77	57.10	17.21	-37.4	-39.2	21.1	0.00e+00	0	41	0	1045430272	46	4408
2026-01-27 10:04:25.78	56.87	17.23	-37.4	-39.1	21.2	0.00e+00	0	42	0	1050673152	46	4380
2026-01-27 10:04:26.77	56.65	17.26	-37.4	-39.1	21.2	0.00e+00	0	42	0	1056964608	46	4365
2026-01-27 10:04:27.77	56.43	17.28	-37.4	-39.2	21.1	0.00e+00	0	42	0	1062207488	46	4406
2026-01-27 10:04:28.77	56.20	17.30	-37.4	-39.1	21.2	0.00e+00	0	42	0	1067450368	46	4390
2026-01-27 10:04:29.77	55.98	17.32	-37.5	-39.2	21.1	0.00e+00	0	42	0	1073741824	46	4440
2026-01-27 10:04:30.77	55.75	17.34	-37.5	-39.2	21.1	0.00e+00	0	42	0	1078984704	46	4441
2026-01-27 10:04:31.78	55.52	17.36	-37.4	-39.1	21.2	0.00e+00	0	42	0	1085276160	46	4389
2026-01-27 10:04:32.77	55.30	17.38	-37.3	-39.0	21.3	0.00e+00	0	42	0	1090519040	46	4311
2026-01-27 10:04:33.77	55.07	17.40	-37.2	-38.9	21.4	0.00e+00	0	42	0	1095761920	46	4250
2026-01-27 10:04:34.77	54.84	17.42	-37.2	-38.9	21.4	0.00e+00	0	41	0	1102053376	46	4275
2026-01-27 10:04:35.77	54.62	17.44	-37.3	-39.0	21.3	0.00e+00	0	41	0	1107296256	46	4321
2026-01-27 10:04:36.77	54.39	17.46	-37.3	-39.0	21.3	0.00e+00	0	41	0	1112539136	46	4318
2026-01-27 10:04:37.77	54.16	17.48	-37.3	-39.1	21.2	0.00e+00	0	42	0	1118830592	46	4348
2026-01-27 10:04:38.77	53.93	17.49	-37.3	-39.1	21.2	0.00e+00	0	42	0	1124073472	46	4360
2026-01-27 10:04:39.77	53.70	17.51	-37.6	-39.3	21.0	0.00e+00	0	42	0	1129316352	46	4484
2026-01-27 10:04:40.77	53.47	17.53	-37.3	-39.0	21.3	0.00e+00	0	42	0	1135607808	46	4328
2026-01-27 10:04:41.77	53.25	17.54	-37.3	-39.0	21.3	0.00e+00	0	42	0	1140850688	46	4306
2026-01-27 10:04:42.77	53.02	17.56	-37.4	-39.1	21.2	0.00e+00	0	42	0	1147142144	46	4372
2026-01-27 10:04:43.78	52.78	17.57	-37.4	-39.1	21.2	0.00e+00	0	42	0	1152385024	46	4384
2026-01-27 10:04:44.78	52.56	17.59	-37.5	-39.2	21.1	0.00e+00	0	41	0	1157627904	46	4434
2026-01-27 10:04:45.78	52.33	17.60	-37.5	-39.2	21.1	0.00e+00	0	42	0	1163919360	46	4441
2026-01-27 10:04:46.79	52.09	17.61	-37.5	-39.3	21.1	0.00e+00	0	41	0	1169162240	46	4450
2026-01-27 10:04:47.79	51.86	17.63	-37.6	-39.3	21.0	0.00e+00	0	42	0	1174405120	46	4484
2026-01-27 10:04:48.79	51.63	17.64	-37.4	-39.2	21.2	0.00e+00	0	42	0	1180696576	46	4394
2026-01-27 10:04:49.79	51.40	17.65	-37.3	-39.1	21.3	0.00e+00	0	42	0	1185939456	46	4344
2026-01-27 10:04:50.79	51.17	17.66	-37.3	-39.1	21.2	0.00e+00	0	42	0	1191182336	46	4359
2026-01-27 10:04:51.80	50.94	17.68	-37.4	-39.1	21.2	0.00e+00	0	42	0	1197473792	46	4378
2026-01-27 10:04:52.80	50.71	17.69	-37.2	-39.0	21.3	0.00e+00	0	42	0	1202716672	46	4305
2026-01-27 10:04:53.80	50.48	17.70	-37.2	-38.9	21.4	0.00e+00	0	42	0	1209008128	46	4284
2026-01-27 10:04:54.80	50.24	17.71	-37.2	-38.9	21.4	0.00e+00	0	42	0	1214251008	46	4291
2026-01-27 10:04:55.80	50.01	17.72	-37.1	-38.8	21.5	0.00e+00	0	42	0	1219493888	46	4210
2026-01-27 10:04:56.80	49.78	17.72	-36.9	-38.6	21.6	0.00e+00	0	42	0	1225785344	45	4379
2026-01-27 10:04:57.80	49.55	17.73	-37.0	-38.7	21.6	0.00e+00	0	41	0	1231028224	45	4417
2026-01-27 10:04:58.80	49.32	17.74	-36.8	-38.5	21.7	0.00e+00	0	42	0	1236271104	45	4319
2026-01-27 10:04:59.80	49.08	17.75	-36.9	-38.6	21.7	0.00e+00	0	41	0	1242562560	45	4362
2026-01-27 10:05:00.80	48.85	17.75	-37.0	-38.7	21.6	0.00e+00	0	42	0	1247805440	45	4402
2026-01-27 10:05:01.80	48.62	17.76	-37.0	-38.8	21.5	0.00e+00	0	41	0	1253048320	45	4446
2026-01-27 10:05:02.80	48.39	17.77	-37.1	-38.9	21.4	0.00e+00	0	42	0	1259339776	45	4503
2026-01-27 10:05:03.80	48.15	17.77	-37.1	-38.8	21.4	0.00e+00	0	42	0	1264582656	45	4487
2026-01-27 10:05:04.80	47.92	17.78	-37.1	-38.8	21.4	0.00e+00	0	42	0	1270874112	45	4480
2026-01-27 10:05:05.80	47.69	17.78	-37.1	-38.9	21.4	0.00e+00	0	42	0	1276116992	45	4502
2026-01-27 10:05:06.80	47.46	17.79	-37.2	-38.9	21.4	0.00e+00	0	42	0	1281359872	45	4545
2026-01-27 10:05:07.80	47.22	17.79	-37.2	-39.0	21.4	0.00e+00	0	42	0	1287651328	45	4548
2026-01-27 10:05:08.80	46.99	17.79	-37.2	-38.9	21.4	0.00e+00	0	42	0	1292894208	45	4543
2026-01-27 10:05:09.80	46.76	17.79	-37.3	-39.1	21.2	0.00e+00	0	42	0	1298137088	45	4624
2026-01-27 10:05:10.80	46.53	17.80	-37.4	-39.1	21.2	0.00e+00	0	42	0	1304428544	45	4651
2026-01-27 10:05:11.80	46.29	17.80	-37.5	-39.2	21.1	0.00e+00	0	42	0	1309671424	45	4684
2026-01-27 10:05:12.80	46.06	17.80	-37.5	-39.3	21.1	0.00e+00	0	42	0	1314914304	45	4724
2026-01-27 10:05:13.80	45.83	17.80	-37.5	-39.3	21.1	0.00e+00	0	42	0	1321205760	45	4721
2026-01-27 10:05:14.79	45.60	17.80	-37.6	-39.3	21.0	0.00e+00	0	42	0	1326448640	45	4751
2026-01-27 10:05:15.80	45.36	17.80	-37.5	-39.2	21.1	0.00e+00	0	42	0	1332740096	45	4705
2026-01-27 10:05:16.80	45.13	17.80	-37.5	-39.3	21.1	0.00e+00	0	42	0	1337982976	45	4728
2026-01-27 10:05:17.80	44.90	17.80	-37.4	-39.1	21.2	0.00e+00	0	42	0	1343225856	45	4623
2026-01-27 10:05:18.80	44.66	17.80	-37.3	-39.1	21.2	0.00e+00	0	42	0	1349517312	45	4619
2026-01-27 10:05:19.80	44.43	17.79	-37.3	-39.0	21.3	0.00e+00	0	42	0	1354760192	45	4589
2026-01-27 10:05:20.80	44.20	17.79	-37.1	-38.8	21.5	0.00e+00	0	42	0	1360003072	45	4471
2026-01-27 10:05:21.80	43.96	17.79	-37.0	-38.7	21.5	0.00e+00	0	42	0	1366294528	45	4400
2026-01-27 10:05:22.80	43.73	17.78	-36.9	-38.6	21.6	0.00e+00	0	42	0	1371537408	45	4376
2026-01-27 10:05:23.80	43.50	17.78	-37.0	-38.7	21.5	0.00e+00	0	42	0	1376780288	45	4432
2026-01-27 10:05:24.80	43.27	17.77	-37.0	-38.8	21.5	0.00e+00	0	42	0	1383071744	45	4449
2026-01-27 10:05:25.81	43.03	17.77	-37.1	-38.8	21.5	0.00e+00	0	42	0	1388314624	45	4464
2026-01-27 10:05:26.81	42.80	17.76	-37.0	-38.8	21.5	0.00e+00	0	42	0	1394606080	45	4444
2026-01-27 10:05:27.81	42.57	17.76	-37.0	-38.8	21.5	0.00e+00	0	42	0	1399848960	45	4445
2026-01-27 10:05:28.81	42.33	17.75	-37.0	-38.7	21.6	0.00e+00	0	42	0	1406140416	45	4417
2026-01-27 10:05:29.81	42.10	17.74	-37.0	-38.7	21.6	0.00e+00	0	42	0	1411383296	45	4396
2026-01-27 10:05:30.81	41.87	17.74	-37.2	-38.9	21.4	0.00e+00	0	42	0	1416626176	45	4538
2026-01-27 10:05:31.81	41.64	17.73	-37.1	-38.8	21.5	0.00e+00	0	42	0	1422917632	45	4483
2026-01-27 10:05:32.81	41.41	17.72	-37.1	-38.8	21.5	0.00e+00	0	42	0	1428160512	45	4473
2026-01-27 10:05:33.81	41.18	17.71	-37.2	-38.9	21.4	0.00e+00	0	42	0	1433403392	45	4513
2026-01-27 10:05:34.81	40.94	17.70	-37.2	-38.9	21.4	0.00e+00	0	41	0	1439694848	45	4534
2026-01-27 10:05:35.81	40.71	17.69	-37.2	-38.9	21.4	0.00e+00	0	42	0	1444937728	45	4543
2026-01-27 10:05:36.82	40.48	17.68	-37.3	-39.0	21.3	0.00e+00	0	42	0	1451229184	45	4581
2026-01-27 10:05:37.82	40.25	17.67	-37.4	-39.1	21.2	0.00e+00	0	42	0	1456472064	45	4623
2026-01-27 10:05:38.82	40.02	17.66	-37.3	-39.0	21.3	0.00e+00	0	42	0	1461714944	45	4588
2026-01-27 10:05:39.81	39.79	17.65	-37.3	-39.1	21.2	0.00e+00	0	42	0	1468006400	45	4600
2026-01-27 10:05:40.82	39.56	17.63	-37.3	-39.1	21.3	0.00e+00	0	42	0	1473249280	45	4600
2026-01-27 10:05:41.82	39.33	17.62	-37.3	-39.0	21.3	0.00e+00	0	41	0	1478492160	45	4591
2026-01-27 10:05:42.82	39.10	17.61	-37.4	-39.2	21.2	0.00e+00	0	42	0	1484783616	45	4657
2026-01-27 10:05:43.82	38.87	17.59	-37.3	-39.0	21.3	0.00e+00	0	42	0	1490026496	45	4578
2026-01-27 10:05:44.82	38.64	17.58	-37.3	-39.0	21.3	0.00e+00	0	42	0	1495269376	45	4590
2026-01-27 10:05:45.82	38.41	17.56	-37.2	-38.9	21.4	0.00e+00	0	42	0	1501560832	45	4510
2026-01-27 10:05:46.81	38.18	17.55	-37.2	-39.0	21.3	0.00e+00	0	42	0	1506803712	45	4556
2026-01-27 10:05:47.81	37.95	17.53	-37.3	-39.0	21.3	0.00e+00	0	42	0	1513095168	45	4567
2026-01-27 10:05:48.81	37.72	17.52	-37.3	-39.0	21.3	0.00e+00	0	42	0	1518338048	45	4563
2026-01-27 10:05:49.81	37.50	17.50	-37.4	-39.1	21.2	0.00e+00	0	42	0	1523580928	45	4647
2026-01-27 10:05:50.81	37.27	17.48	-37.4	-39.1	21.2	0.00e+00	0	42	0	1529872384	45	4620
2026-01-27 10:05:51.81	37.04	17.47	-37.5	-39.3	21.1	0.00e+00	0	42	0	1535115264	45	4715
2026-01-27 10:05:52.82	36.81	17.45	-37.4	-39.1	21.2	0.00e+00	0	42	0	1540358144	45	4635
2026-01-27 10:05:53.82	36.58	17.43	-37.3	-39.0	21.3	0.00e+00	0	42	0	1546649600	45	4580
2026-01-27 10:05:54.82	36.36	17.41	-37.3	-39.1	21.3	0.00e+00	0	42	0	1551892480	45	4609
2026-01-27 10:05:55.82	36.13	17.39	-37.4	-39.2	21.2	0.00e+00	0	42	0	1557135360	45	4658
2026-01-27 10:05:56.82	35.90	17.37	-37.3	-39.0	21.3	0.00e+00	0	42	0	1563426816	45	4584
2026-01-27 10:05:57.82	35.68	17.35	-37.3	-39.1	21.3	0.00e+00	0	42	0	1568669696	45	4603
2026-01-27 10:05:58.82	35.45	17.33	-37.4	-39.1	21.2	0.00e+00	0	42	0	1574961152	45	4648
2026-01-27 10:05:59.82	35.23	17.31	-37.5	-39.3	21.1	0.00e+00	0	42	0	1580204032	45	4717
2026-01-27 10:06:00.82	35.00	17.29	-37.4	-39.2	21.1	0.00e+00	0	42	0	1585446912	45	4688
2026-01-27 10:06:01.83	34.77	17.27	-37.5	-39.3	21.0	0.00e+00	0	41	0	1591738368	45	4714
2026-01-27 10:06:02.82	34.55	17.24	-37.5	-39.3	21.0	0.00e+00	0	42	0	1596981248	45	4747
2026-01-27 10:06:03.83	34.33	17.22	-37.6	-39.4	21.0	0.00e+00	0	42	0	1602224128	45	4760
2026-01-27 10:06:04.83	34.10	17.20	-37.5	-39.3	21.1	0.00e+00	0	42	0	1608515584	45	4711
2026-01-27 10:06:05.83	33.88	17.17	-37.4	-39.1	21.2	0.00e+00	0	42	0	1613758464	45	4641
2026-01-27 10:06:06.83	33.66	17.15	-37.4	-39.1	21.2	0.00e+00	0	42	0	1619001344	45	4621
2026-01-27 10:06:07.83	33.43	17.13	-37.3	-39.1	21.2	0.00e+00	0	42	0	1625292800	45	4603
2026-01-27 10:06:08.83	33.21	17.10	-37.3	-39.0	21.3	0.00e+00	0	42	0	1630535680	45	4575
2026-01-27 10:06:09.83	32.99	17.08	-37.3	-39.0	21.3	0.00e+00	0	42	0	1636827136	45	4581
2026-01-27 10:06:10.83	32.77	17.05	-37.4	-39.2	21.1	0.00e+00	0	42	0	1642070016	45	4669
2026-01-27 10:06:11.83	32.55	17.02	-37.3	-39.0	21.3	0.00e+00	0	42	0	1647312896	45	4577
2026-01-27 10:06:12.83	32.33	17.00	-37.2	-38.9	21.4	0.00e+00	0	42	0	1653604352	45	4540
2026-01-27 10:06:13.83	32.10	16.97	-37.2	-39.0	21.3	0.00e+00	0	42	0	1658847232	45	4561
2026-01-27 10:06:14.83	31.88	16.94	-37.2	-38.9	21.3	0.00e+00	0	42	0	1664090112	45	4537
2026-01-27 10:06:15.83	31.67	16.92	-37.4	-39.2	21.1	0.00e+00	0	42	0	1670381568	45	4662
2026-01-27 10:06:16.84	31.44	16.89	-37.5	-39.3	21.0	0.00e+00	0	42	0	1675624448	45	4724
2026-01-27 10:06:17.84	31.23	16.86	-37.5	-39.3	21.0	0.00e+00	0	42	0	1680867328	45	4746
2026-01-27 10:06:18.84	31.01	16.83	-37.7	-39.5	20.9	0.00e+00	0	42	0	1687158784	45	4818
2026-01-27 10:06:19.84	30.79	16.80	-37.5	-39.3	21.0	0.00e+00	0	42	0	1692401664	45	4731
2026-01-27 10:06:20.84	30.57	16.77	-37.6	-39.3	21.0	0.00e+00	0	42	0	1698693120	45	4748
2026-01-27 10:06:21.84	30.36	16.74	-37.6	-39.4	21.0	0.00e+00	0	42	0	1703936000	45	4767
2026-01-27 10:06:22.85	30.14	16.71	-37.6	-39.3	21.0	0.00e+00	0	42	0	1709178880	45	4750
2026-01-27 10:06:23.85	29.92	16.68	-37.6	-39.4	20.9	0.00e+00	0	42	0	1715470336	45	4788
2026-01-27 10:06:24.85	29.70	16.65	-37.7	-39.4	20.9	0.00e+00	0	42	0	1720713216	46	4541
2026-01-27 10:06:25.84	29.49	16.62	-37.5	-39.3	21.0	0.00e+00	0	42	0	1725956096	46	4457
2026-01-27 10:06:26.84	29.28	16.59	-37.5	-39.2	21.1	0.00e+00	0	42	0	1732247552	46	4436
2026-01-27 10:06:27.84	29.06	16.55	-37.5	-39.3	21.1	0.00e+00	0	42	0	1737490432	46	4449
2026-01-27 10:06:28.85	28.85	16.52	-37.6	-39.3	21.0	0.00e+00	0	42	0	1742733312	46	4487
2026-01-27 10:06:29.85	28.63	16.49	-37.5	-39.3	21.1	0.00e+00	0	42	0	1749024768	46	4447
2026-01-27 10:06:30.85	28.42	16.45	-37.6	-39.4	20.9	0.00e+00	0	42	0	1754267648	46	4519
2026-01-27 10:06:31.85	28.21	16.42	-37.7	-39.5	20.8	0.00e+00	0	42	0	1760559104	46	4582
2026-01-27 10:06:32.85	28.00	16.39	-37.6	-39.4	20.9	0.00e+00	0	42	0	1765801984	46	4534
2026-01-27 10:06:33.84	27.79	16.35	-37.5	-39.3	21.0	0.00e+00	0	42	0	1771044864	46	4477
2026-01-27 10:06:34.84	27.58	16.32	-37.6	-39.4	20.9	0.00e+00	0	42	0	1777336320	46	4521
2026-01-27 10:06:35.83	27.37	16.28	-37.6	-39.4	21.0	0.00e+00	0	42	0	1782579200	46	4496
2026-01-27 10:06:36.83	27.16	16.25	-37.7	-39.5	20.9	0.00e+00	0	42	0	1787822080	46	4558
2026-01-27 10:06:37.82	26.95	16.21	-37.6	-39.5	20.9	0.00e+00	0	42	0	1794113536	46	4552
2026-01-27 10:06:38.82	26.74	16.18	-37.7	-39.5	20.8	0.00e+00	0	42	0	1799356416	46	4580
2026-01-27 10:06:39.82	26.53	16.14	-37.8	-39.6	20.8	0.00e+00	0	42	0	1804599296	46	4606
2026-01-27 10:06:40.81	26.33	16.10	-37.7	-39.5	20.8	0.00e+00	0	42	0	1810890752	46	4583
2026-01-27 10:06:41.81	26.12	16.07	-37.8	-39.6	20.7	0.00e+00	0	42	0	1816133632	46	4642
2026-01-27 10:06:42.80	25.92	16.03	-37.9	-39.7	20.6	0.00e+00	0	42	0	1821376512	46	4688
2026-01-27 10:06:43.80	25.71	15.99	-37.9	-39.7	20.6	0.00e+00	0	42	0	1827667968	46	4689
2026-01-27 10:06:44.79	25.51	15.95	-37.9	-39.7	20.6	0.00e+00	0	42	0	1832910848	46	4700
2026-01-27 10:06:45.78	25.30	15.92	-38.0	-39.8	20.6	0.00e+00	0	42	0	1838153728	46	4712
2026-01-27 10:06:46.78	25.10	15.88	-37.9	-39.6	20.7	0.00e+00	0	42	0	1844445184	46	4644
2026-01-27 10:06:47.77	24.90	15.84	-37.9	-39.7	20.7	0.00e+00	0	42	0	1849688064	46	4674
2026-01-27 10:06:48.76	24.70	15.80	-37.9	-39.7	20.6	0.00e+00	0	42	0	1854930944	46	4679
2026-01-27 10:06:49.76	24.49	15.76	-37.9	-39.7	20.7	0.00e+00	0	42	0	1861222400	46	4674
2026-01-27 10:06:50.76	24.29	15.72	-38.0	-39.8	20.6	0.00e+00	0	42	0	1866465280	46	4736
2026-01-27 10:06:51.75	24.09	15.68	-37.9	-39.7	20.7	0.00e+00	0	42	0	1871708160	46	4670
2026-01-27 10:06:52.74	23.89	15.64	-37.8	-39.6	20.7	0.00e+00	0	42	0	1877999616	46	4615
2026-01-27 10:06:53.74	23.69	15.60	-37.9	-39.7	20.7	0.00e+00	0	42	0	1883242496	46	4666
2026-01-27 10:06:54.73	23.49	15.56	-37.8	-39.7	20.7	0.00e+00	0	42	0	1888485376	46	4654
2026-01-27 10:06:55.73	23.29	15.52	-37.9	-39.7	20.7	0.00e+00	0	42	0	1894776832	46	4654
2026-01-27 10:06:56.73	23.09	15.48	-37.9	-39.7	20.7	0.00e+00	0	42	0	1900019712	46	4669
2026-01-27 10:06:57.72	22.90	15.43	-37.9	-39.7	20.7	0.00e+00	0	42	0	1905262592	46	4669
2026-01-27 10:06:58.72	22.70	15.39	-38.0	-39.8	20.6	0.00e+00	0	42	0	1911554048	46	4712
2026-01-27 10:06:59.71	22.50	15.35	-38.0	-39.8	20.6	0.00e+00	0	42	0	1916796928	46	4707
2026-01-27 10:07:00.70	22.31	15.31	-38.0	-39.8	20.5	0.00e+00	0	42	0	1922039808	46	4738
2026-01-27 10:07:01.70	22.11	15.27	-38.1	-40.0	20.4	0.00e+00	0	42	0	1928331264	46	4821
2026-01-27 10:07:02.69	21.92	15.22	-38.3	-40.1	20.3	0.00e+00	0	42	0	1933574144	47	4619
2026-01-27 10:07:03.69	21.72	15.18	-38.2	-40.1	20.3	0.00e+00	0	42	0	1938817024	47	4608
2026-01-27 10:07:04.68	21.53	15.14	-38.2	-40.0	20.3	0.00e+00	0	42	0	1945108480	47	4598
2026-01-27 10:07:05.68	21.34	15.09	-38.1	-39.9	20.5	0.00e+00	0	42	0	1950351360	47	4503
2026-01-27 10:07:06.67	21.14	15.05	-38.1	-39.9	20.5	0.00e+00	0	42	0	1955594240	47	4508
2026-01-27 10:07:07.67	20.95	15.00	-38.2	-40.0	20.4	0.00e+00	0	42	0	1961885696	47	4571
2026-01-27 10:07:08.66	20.76	14.96	-38.1	-40.0	20.4	0.00e+00	0	42	0	1967128576	47	4551
2026-01-27 10:07:09.66	20.57	14.91	-38.2	-40.1	20.3	0.00e+00	0	42	0	1973420032	47	4604
2026-01-27 10:07:10.65	20.38	14.87	-38.3	-40.2	20.1	0.00e+00	0	42	0	1978662912	47	4693
2026-01-27 10:07:11.65	20.19	14.82	-38.4	-40.3	20.1	0.00e+00	0	42	0	1983905792	47	4721
2026-01-27 10:07:12.64	20.00	14.78	-38.3	-40.3	20.1	0.00e+00	0	42	0	1989148672	47	4709
2026-01-27 10:07:13.64	19.81	14.73	-38.3	-40.2	20.1	0.00e+00	0	42	0	1995440128	47	4703
2026-01-27 10:07:14.63	19.63	14.69	-38.3	-40.2	20.2	0.00e+00	0	42	0	2000683008	47	4676
2026-01-27 10:07:15.63	19.44	14.64	-38.3	-40.2	20.2	0.00e+00	0	42	0	2006974464	47	4655
2026-01-27 10:07:16.62	19.25	14.60	-38.2	-40.1	20.2	0.00e+00	0	42	0	2012217344	47	4623
2026-01-27 10:07:17.62	19.06	14.55	-38.3	-40.2	20.2	0.00e+00	0	42	0	2017460224	47	4666
2026-01-27 10:07:18.61	18.88	14.50	-38.3	-40.2	20.2	0.00e+00	0	42	0	2023751680	47	4669
2026-01-27 10:07:19.60	18.70	14.46	-38.4	-40.2	20.2	0.00e+00	0	42	0	2028994560	47	4687
2026-01-27 10:07:20.60	18.51	14.41	-38.5	-40.3	20.1	0.00e+00	0	42	0	2034237440	47	4733
2026-01-27 10:07:21.60	18.33	14.36	-38.5	-40.3	20.1	0.00e+00	0	42	0	2039480320	47	4722
2026-01-27 10:07:22.59	18.14	14.31	-38.5	-40.3	20.1	0.00e+00	0	42	0	2045771776	47	4734
2026-01-27 10:07:23.58	17.96	14.27	-38.5	-40.4	20.0	0.00e+00	0	42	0	2051014656	47	4760
2026-01-27 10:07:24.57	17.78	14.22	-38.6	-40.4	19.9	0.00e+00	0	42	0	2057306112	47	4798
2026-01-27 10:07:25.57	17.60	14.17	-38.6	-40.4	19.9	0.00e+00	0	42	0	2062548992	47	4796
2026-01-27 10:07:26.56	17.42	14.12	-38.7	-40.5	19.9	0.00e+00	0	42	0	2067791872	47	4849
2026-01-27 10:07:27.56	17.24	14.07	-38.8	-40.7	19.9	0.00e+00	0	42	0	2074083328	48	4663
2026-01-27 10:07:28.55	17.06	14.03	-38.6	-40.4	20.1	0.00e+00	0	42	0	2079326208	48	4540
2026-01-27 10:07:29.55	16.88	13.98	-38.6	-40.4	20.1	0.00e+00	0	42	0	2084569088	48	4527
2026-01-27 10:07:30.54	16.70	13.93	-38.4	-40.3	20.3	0.00e+00	0	42	0	2089811968	48	4448
2026-01-27 10:07:31.54	16.52	13.88	-38.4	-40.3	20.3	0.00e+00	0	42	0	2096103424	48	4449
2026-01-27 10:07:32.53	16.35	13.83	-38.5	-40.4	20.2	0.00e+00	0	42	0	2101346304	48	4507
2026-01-27 10:07:33.53	16.17	13.78	-38.6	-40.6	20.0	0.00e+00	0	42	0	2107637760	48	4599
2026-01-27 10:07:34.52	16.00	13.73	-38.6	-40.6	20.0	0.00e+00	0	42	0	2112880640	48	4600
2026-01-27 10:07:35.51	15.82	13.68	-38.5	-40.5	20.1	0.00e+00	0	42	0	2118123520	48	4561
2026-01-27 10:07:36.51	15.65	13.63	-38.7	-40.6	19.9	0.00e+00	0	42	0	2124414976	48	4647
2026-01-27 10:07:37.51	15.47	13.58	-38.3	-40.2	20.3	0.00e+00	0	42	0	2129657856	48	4420
2026-01-27 10:07:38.50	15.30	13.53	-38.2	-40.1	20.4	0.00e+00	0	42	0	2134900736	48	4383
2026-01-27 10:07:39.49	15.13	13.48	-38.4	-40.2	20.3	0.00e+00	0	42	0	2140143616	48	4440
2026-01-27 10:07:40.49	14.95	13.43	-38.5	-40.4	20.2	0.00e+00	0	42	0	2146435072	48	4517
2026-01-27 10:07:41.48	14.78	13.38	-38.6	-40.5	20.0	0.00e+00	0	42	0	2151677952	48	4591
2026-01-27 10:07:42.48	14.61	13.33	-38.6	-40.5	20.0	0.00e+00	0	42	0	2157969408	48	4581
2026-01-27 10:07:43.47	14.44	13.28	-38.6	-40.5	20.0	0.00e+00	0	42	0	2163212288	48	4568
2026-01-27 10:07:44.47	14.27	13.22	-38.5	-40.4	20.1	0.00e+00	0	42	0	2168455168	48	4539
2026-01-27 10:07:45.46	14.10	13.17	-38.5	-40.4	20.2	0.00e+00	0	42	0	2174746624	48	4511
2026-01-27 10:07:46.46	13.93	13.12	-38.6	-40.5	20.0	0.00e+00	0	42	0	2179989504	48	4560
2026-01-27 10:07:47.45	13.77	13.07	-38.6	-40.5	20.1	0.00e+00	0	42	0	2185232384	48	4552
2026-01-27 10:07:48.45	13.60	13.02	-38.6	-40.5	20.0	0.00e+00	0	42	0	2190475264	48	4555
2026-01-27 10:07:49.44	13.43	12.97	-38.7	-40.6	19.9	0.00e+00	0	42	0	2196766720	48	4623
2026-01-27 10:07:50.44	13.26	12.91	-38.9	-40.7	19.8	0.00e+00	0	42	0	2202009600	48	4696
2026-01-27 10:07:51.43	13.10	12.86	-38.8	-40.6	19.8	0.00e+00	0	42	0	2208301056	48	4644
2026-01-27 10:07:52.43	12.93	12.81	-38.9	-40.8	19.8	0.00e+00	0	42	0	2213543936	48	4710
2026-01-27 10:07:53.42	12.77	12.76	-38.9	-40.8	19.7	0.00e+00	0	42	0	2218786816	48	4730
2026-01-27 10:07:54.42	12.61	12.70	-38.8	-40.7	19.8	0.00e+00	0	42	0	2225078272	48	4676
2026-01-27 10:07:55.41	12.44	12.65	-38.9	-40.8	19.8	0.00e+00	0	42	0	2230321152	48	4711
2026-01-27 10:07:56.40	12.28	12.60	-38.9	-40.9	19.7	0.00e+00	0	42	0	2235564032	48	4763
2026-01-27 10:07:57.40	12.12	12.55	-38.9	-40.8	19.7	0.00e+00	0	42	0	2240806912	48	4736
2026-01-27 10:07:58.39	11.96	12.49	-39.0	-40.9	19.6	0.00e+00	0	42	0	2247098368	48	4785
2026-01-27 10:07:59.39	11.80	12.44	-39.0	-41.0	19.5	0.00e+00	0	42	0	2252341248	48	4853
2026-01-27 10:08:00.38	11.64	12.39	-39.1	-41.0	19.5	0.00e+00	0	42	0	2258632704	48	4865
2026-01-27 10:08:01.38	11.48	12.33	-39.2	-41.1	19.4	0.00e+00	0	42	0	2263875584	49	4631
2026-01-27 10:08:02.37	11.32	12.28	-39.1	-41.0	19.5	0.00e+00	0	42	0	2269118464	49	4584
2026-01-27 10:08:03.37	11.16	12.23	-39.0	-41.0	19.6	0.00e+00	0	42	0	2275409920	49	4547
2026-01-27 10:08:04.36	11.00	12.17	-39.1	-41.1	19.5	0.00e+00	0	42	0	2280652800	49	4615
2026-01-27 10:08:05.36	10.84	12.12	-39.0	-41.0	19.5	0.00e+00	0	42	0	2285895680	49	4585
2026-01-27 10:08:06.35	10.69	12.07	-39.1	-41.1	19.4	0.00e+00	0	42	0	2291138560	49	4625
2026-01-27 10:08:07.35	10.53	12.01	-39.1	-41.2	19.3	0.00e+00	0	42	0	2297430016	49	4687
2026-01-27 10:08:08.34	10.38	11.96	-39.3	-41.3	19.2	0.00e+00	0	42	0	2302672896	49	4744
2026-01-27 10:08:09.34	10.22	11.90	-39.3	-41.3	19.2	0.00e+00	0	42	0	2308964352	49	4751
2026-01-27 10:08:10.33	10.07	11.85	-39.3	-41.3	19.2	0.00e+00	0	42	0	2314207232	49	4755
2026-01-27 10:08:11.33	9.91	11.79	-39.3	-41.3	19.2	0.00e+00	0	42	0	2319450112	49	4730
2026-01-27 10:08:12.32	9.76	11.74	-39.2	-41.2	19.3	0.00e+00	0	42	0	2325741568	49	4677
2026-01-27 10:08:13.32	9.61	11.69	-39.0	-41.0	19.5	0.00e+00	0	42	0	2330984448	49	4580
2026-01-27 10:08:14.31	9.45	11.63	-39.0	-41.0	19.5	0.00e+00	0	42	0	2336227328	49	4595
2026-01-27 10:08:15.31	9.30	11.58	-39.0	-41.1	19.4	0.00e+00	0	42	0	2342518784	49	4612
2026-01-27 10:08:16.30	9.15	11.52	-39.0	-41.2	19.3	0.00e+00	0	42	0	2347761664	49	4670
2026-01-27 10:08:17.29	9.00	11.47	-39.1	-41.3	19.3	0.00e+00	0	42	0	2353004544	49	4716
2026-01-27 10:08:18.29	8.85	11.41	-39.1	-41.2	19.3	0.00e+00	0	42	0	2359296000	49	4701
2026-01-27 10:08:19.28	8.70	11.36	-39.2	-41.3	19.2	0.00e+00	0	42	0	2364538880	49	4731
2026-01-27 10:08:20.28	8.55	11.30	-39.3	-41.3	19.2	0.00e+00	0	42	0	2369781760	49	4752
2026-01-27 10:08:21.27	8.41	11.25	-39.2	-41.2	19.3	0.00e+00	0	42	0	2376073216	49	4680
2026-01-27 10:08:22.27	8.26	11.19	-39.3	-41.3	19.2	0.00e+00	0	42	0	2381316096	49	4723
2026-01-27 10:08:23.27	8.11	11.14	-39.3	-41.3	19.2	0.00e+00	0	42	0	2386558976	49	4755
2026-01-27 10:08:24.26	7.96	11.08	-39.3	-41.4	19.2	0.00e+00	0	42	0	2392850432	49	4775
2026-01-27 10:08:25.25	7.82	11.03	-39.5	-41.5	19.0	0.00e+00	0	42	0	2398093312	49	4843
2026-01-27 10:08:26.25	7.67	10.97	-39.4	-41.5	19.0	0.00e+00	0	42	0	2403336192	49	4825
2026-01-27 10:08:27.24	7.53	10.92	-39.4	-41.4	19.1	0.00e+00	0	42	0	2409627648	49	4812
2026-01-27 10:08:28.24	7.39	10.86	-39.5	-41.5	19.0	0.00e+00	0	42	0	2414870528	49	4851
2026-01-27 10:08:29.23	7.24	10.81	-39.5	-41.5	19.0	0.00e+00	0	42	0	2420113408	49	4832
2026-01-27 10:08:30.23	7.10	10.75	-39.5	-41.5	19.0	0.00e+00	0	42	0	2426404864	49	4819
2026-01-27 10:08:31.22	6.96	10.70	-39.3	-41.3	19.2	0.00e+00	0	42	0	2431647744	49	4742
2026-01-27 10:08:32.22	6.81	10.64	-39.3	-41.3	19.2	0.00e+00	0	42	0	2436890624	49	4736
2026-01-27 10:08:33.21	6.67	10.58	-39.3	-41.3	19.2	0.00e+00	0	42	0	2443182080	49	4732
2026-01-27 10:08:34.20	6.53	10.53	-39.5	-41.5	19.0	0.00e+00	0	42	0	2448424960	49	4857
2026-01-27 10:08:35.20	6.39	10.47	-39.4	-41.5	19.0	0.00e+00	0	42	0	2453667840	49	4821
2026-01-27 10:08:36.19	6.25	10.42	-39.3	-41.4	19.0	0.00e+00	0	42	0	2459959296	49	4803
2026-01-27 10:08:37.19	6.11	10.36	-39.5	-41.6	18.9	0.00e+00	0	42	0	2465202176	49	4900
2026-01-27 10:08:38.18	5.98	10.31	-39.5	-41.7	18.8	0.00e+00	0	42	0	2470445056	49	4930
2026-01-27 10:08:39.18	5.84	10.25	-39.5	-41.6	18.9	0.00e+00	0	42	0	2476736512	49	4914
2026-01-27 10:08:40.17	5.70	10.19	-39.4	-41.6	18.9	0.00e+00	0	42	0	2481979392	49	4881
2026-01-27 10:08:41.17	5.56	10.14	-39.2	-41.3	19.1	0.00e+00	0	42	0	2487222272	49	4743
2026-01-27 10:08:42.16	5.43	10.08	-39.4	-41.5	19.0	0.00e+00	0	42	0	2493513728	49	4850
2026-01-27 10:08:43.15	5.29	10.03	-39.4	-41.6	18.9	0.00e+00	0	42	0	2498756608	49	4906
2026-01-27 10:08:44.15	5.16	9.97	-39.4	-41.6	18.9	0.00e+00	0	42	0	2503999488	49	4916
2026-01-27 10:08:45.14	5.02	9.92	-39.6	-41.7	18.7	0.00e+00	0	42	0	2510290944	49	4983
2026-01-27 10:08:46.14	4.89	9.86	-39.5	-41.7	18.8	0.00e+00	0	42	0	2515533824	49	4937
2026-01-27 10:08:47.13	4.75	9.80	-39.6	-41.8	18.7	0.00e+00	0	42	0	2520776704	49	5014
2026-01-27 10:08:48.13	4.62	9.75	-39.7	-41.8	18.7	0.00e+00	0	42	0	2527068160	50	4735
2026-01-27 10:08:49.13	4.49	9.69	-39.8	-41.9	18.6	0.00e+00	0	42	0	2532311040	50	4771
2026-01-27 10:08:50.12	4.35	9.63	-39.7	-41.7	18.7	0.00e+00	0	42	0	2537553920	50	4700
2026-01-27 10:08:51.12	4.22	9.58	-39.9	-42.0	18.5	0.00e+00	0	42	0	2543845376	50	4817
2026-01-27 10:08:52.11	4.09	9.52	-39.9	-41.9	18.6	0.00e+00	0	42	0	2549088256	50	4777
2026-01-27 10:08:53.11	3.96	9.47	-39.9	-41.9	18.5	0.00e+00	0	42	0	2555379712	50	4806
2026-01-27 10:08:54.10	3.83	9.41	-40.0	-42.1	18.3	0.00e+00	0	42	0	2560622592	50	4908
2026-01-27 10:08:55.10	3.70	9.35	-39.8	-42.0	18.5	0.00e+00	0	42	0	2565865472	50	4836
2026-01-27 10:08:56.09	3.57	9.30	-39.9	-42.1	18.3	0.00e+00	0	42	0	2571108352	50	4907
2026-01-27 10:08:57.09	3.44	9.24	-40.1	-42.3	18.1	0.00e+00	0	42	0	2577399808	50	5038
2026-01-27 10:08:58.08	3.31	9.18	-39.9	-42.1	18.4	0.00e+00	0	42	0	2582642688	50	4901
2026-01-27 10:08:59.08	3.19	9.13	-40.0	-42.3	18.1	0.00e+00	0	42	0	2587885568	50	5008
2026-01-27 10:09:00.07	3.06	9.07	-40.0	-42.2	18.2	0.00e+00	0	42	0	2594177024	50	4970
2026-01-27 10:09:01.07	2.93	9.02	-39.9	-42.2	18.3	0.00e+00	0	42	0	2599419904	50	4935
2026-01-27 10:09:02.06	2.81	8.96	-48.1	-56.5	4.9	9.23e-02	0	42	0	2604662784	66	10267
2026-01-27 10:09:03.05	2.68	8.90	-49.0	-61.7	3.8	8.46e-01	0	42	104	2604662784	69	15660
2026-01-27 10:09:04.05	2.56	8.85	-49.5	-62.2	3.8	8.48e-01	0	42	104	2604662784	69	16515
2026-01-27 10:09:05.04	2.43	8.79	-49.2	-62.3	3.8	8.47e-01	0	42	104	2604662784	69	16768
2026-01-27 10:09:06.03	2.31	8.73	-49.8	-62.3	3.8	8.47e-01	0	42	104	2604662784	70	15894
2026-01-27 10:09:07.03	2.18	8.68	-50.1	-62.4	3.8	8.48e-01	0	42	104	2604662784	70	16045
2026-01-27 10:09:08.02	2.06	8.62	-50.1	-62.4	3.8	8.47e-01	0	42	104	2604662784	71	15194
2026-01-27 10:09:09.02	1.94	8.57	-50.1	-62.5	3.8	8.47e-01	0	42	104	2604662784	71	15233
2026-01-27 10:09:10.01	1.82	8.51	-50.3	-62.5	3.8	8.46e-01	0	42	104	2604662784	71	15339
2026-01-27 10:09:11.00	1.70	8.45	-49.8	-62.5	3.8	8.48e-01	0	42	104	2604662784	71	15336
2026-01-27 10:09:12.00	1.57	8.40	-50.4	-62.5	3.8	8.47e-01	0	42	104	2604662784	71	15315
2026-01-27 10:09:12.99	1.45	8.34	-50.3	-62.5	3.8	8.47e-01	0	42	104	2604662784	71	15376
2026-01-27 10:09:13.98	1.33	8.28	-50.0	-62.5	3.8	8.47e-01	0	42	104	2604662784	71	15366
2026-01-27 10:09:14.97	1.22	8.23	-50.3	-62.6	3.8	8.47e-01	0	42	104	2604662784	71	15404
2026-01-27 10:09:15.97	1.10	8.17	-50.4	-62.6	3.8	8.47e-01	0	42	104	2604662784	71	15407
2026-01-27 10:09:16.96	0.98	8.12	-49.8	-62.6	3.8	8.46e-01	0	42	104	2604662784	71	15407
2026-01-27 10:09:17.95	0.86	8.06	-50.4	-62.6	3.8	8.47e-01	0	42	104	2604662784	71	15444
2026-01-27 10:09:18.95	0.74	8.00	-50.2	-62.6	3.8	8.46e-01	0	42	104	2604662784	71	15424
2026-01-27 10:09:19.94	0.62	7.95	-50.0	-62.6	3.8	8.48e-01	0	42	104	2604662784	71	15415
2026-01-27 10:09:20.93	0.51	7.89	-50.1	-62.5	3.8	8.46e-01	0	42	104	2604662784	71	15348
2026-01-27 10:09:21.93	0.39	7.83	-50.3	-62.5	3.8	8.46e-01	0	42	104	2604662784	71	15349
2026-01-27 10:09:22.92	0.28	7.78	-50.4	-62.5	3.8	8.48e-01	0	42	104	2604662784	71	15298
2026-01-27 10:09:23.91	0.16	7.72	-50.3	-62.5	3.8	8.46e-01	0	42	104	2604662784	71	15281
2026-01-27 10:09:24.91	0.05	7.67	-50.3	-62.5	3.8	8.46e-01	0	42	104	2604662784	71	15261
2026-01-27 10:09:25.90	359.93	7.61	-50.3	-62.5	3.8	8.48e-01	0	42	104	2604662784	71	15232
2026-01-27 10:09:26.89	359.82	7.55	-50.1	-62.4	3.8	8.47e-01	0	42	104	2604662784	71	15166
2026-01-27 10:09:27.89	359.70	7.50	-49.9	-62.4	3.8	8.46e-01	0	42	104	2604662784	71	15075
2026-01-27 10:09:28.88	359.59	7.44	-50.1	-62.4	3.8	8.47e-01	0	42	104	2604662784	71	15110
2026-01-27 10:09:29.88	359.48	7.39	-50.1	-62.3	3.8	8.47e-01	0	42	104	2604662784	71	14949
2026-01-27 10:09:30.87	359.37	7.33	-50.0	-62.2	3.8	8.47e-01	0	42	104	2604662784	71	14730
2026-01-27 10:09:31.86	359.25	7.27	-49.9	-62.0	3.8	8.47e-01	0	42	104	2604662784	71	14474
2026-01-27 10:09:32.86	359.14	7.22	-49.7	-61.9	3.8	8.46e-01	0	42	104	2604662784	71	14282
2026-01-27 10:09:33.85	359.03	7.16	-49.7	-61.9	3.8	8.47e-01	0	42	104	2604662784	71	14215
2026-01-27 10:09:34.84	358.92	7.11	-49.7	-61.8	3.8	8.46e-01	0	42	104	2604662784	71	14144
2026-01-27 10:09:35.84	358.81	7.05	-49.7	-61.9	3.8	8.48e-01	0	42	104	2604662784	71	14219
2026-01-27 10:09:36.83	358.70	6.99	-49.7	-61.8	3.8	8.47e-01	0	42	104	2604662784	71	14192
2026-01-27 10:09:37.82	358.59	6.94	-49.6	-61.8	3.8	8.47e-01	0	42	104	2604662784	71	14087
2026-01-27 10:09:38.81	358.48	6.88	-49.6	-61.8	3.8	8.46e-01	0	42	104	2604662784	71	14163
2026-01-27 10:09:39.81	358.38	6.83	-49.6	-61.8	3.8	8.48e-01	0	42	104	2604662784	71	14088
2026-01-27 10:09:40.80	358.27	6.77	-49.6	-61.8	3.8	8.48e-01	0	42	104	2604662784	71	14132
2026-01-27 10:09:41.79	358.16	6.72	-49.6	-61.8	3.8	8.47e-01	0	42	104	2604662784	71	14141
2026-01-27 10:09:42.78	358.05	6.66	-49.6	-61.8	3.8	8.46e-01	0	42	104	2604662784	71	14140
2026-01-27 10:09:43.78	357.95	6.60	-49.6	-61.8	3.8	8.47e-01	0	42	104	2604662784	71	14095
2026-01-27 10:09:44.77	357.84	6.55	-49.6	-61.9	3.8	8.48e-01	0	42	104	2604662784	71	14214
2026-01-27 10:09:45.76	357.74	6.49	-49.6	-61.8	3.8	8.47e-01	0	42	104	2604662784	71	14108
2026-01-27 10:09:46.76	357.63	6.44	-49.6	-61.8	3.8	8.47e-01	0	42	104	2604662784	71	14072
2026-01-27 10:09:47.75	357.53	6.38	-49.6	-61.8	3.8	8.46e-01	0	42	104	2604662784	71	14111
2026-01-27 10:09:48.74	357.42	6.33	-49.6	-61.8	3.8	8.47e-01	0	42	104	2604662784	71	14112
2026-01-27 10:09:49.73	357.32	6.27	-49.6	-61.8	3.8	8.48e-01	0	42	104	2604662784	71	14085
2026-01-27 10:09:50.73	357.21	6.21	-49.6	-61.8	3.8	8.46e-01	0	42	104	2604662784	71	14112
2026-01-27 10:09:51.72	357.11	6.16	-49.6	-61.8	3.8	8.48e-01	0	42	104	2604662784	71	14123
2026-01-27 10:09:52.71	357.01	6.10	-49.6	-61.8	3.8	8.47e-01	0	42	104	2604662784	71	14160
2026-01-27 10:09:53.71	356.90	6.05	-49.6	-61.8	3.8	8.47e-01	0	42	104	2604662784	71	14120
2026-01-27 10:09:54.70	356.80	5.99	-49.6	-61.8	3.8	8.47e-01	0	42	104	2604662784	71	14081
2026-01-27 10:09:55.69	356.70	5.94	-49.6	-61.8	3.8	8.48e-01	0	42	104	2604662784	71	14139
2026-01-27 10:09:56.69	356.60	5.88	-49.6	-61.7	3.8	8.46e-01	0	42	104	2604662784	71	14001
2026-01-27 10:09:57.68	356.50	5.83	-49.6	-61.8	3.8	8.47e-01	0	42	104	2604662784	71	14144
2026-01-27 10:09:58.67	356.40	5.77	-49.6	-61.8	3.8	8.47e-01	0	42	104	2604662784	71	14128
2026-01-27 10:09:59.67	356.30	5.72	-49.6	-61.7	3.8	8.47e-01	0	42	104	2604662784	71	14037
2026-01-27 10:10:00.66	356.20	5.66	-49.6	-61.8	3.8	8.47e-01	0	42	104	2604662784	71	14136
2026-01-27 10:10:01.65	356.10	5.61	-49.6	-61.8	3.8	8.47e-01	0	42	104	2604662784	71	14106
2026-01-27 10:10:02.64	356.00	5.55	-49.6	-61.8	3.8	8.48e-01	0	42	104	2604662784	71	14097
2026-01-27 10:10:03.64	355.90	5.50	-49.6	-61.7	3.8	8.48e-01	0	42	104	2604662784	71	14033
2026-01-27 10:10:04.63	355.81	5.44	-49.6	-61.8	3.8	8.46e-01	0	42	104	2604662784	71	14099
2026-01-27 10:10:05.62	355.71	5.39	-49.6	-61.8	3.8	8.47e-01	0	42	104	2604662784	71	14085
2026-01-27 10:10:06.61	355.61	5.33	-49.6	-61.8	3.8	8.47e-01	0	42	104	2604662784	71	14090
2026-01-27 10:10:07.61	355.51	5.28	-49.6	-61.8	3.8	8.47e-01	0	42	104	2604662784	71	14069
2026-01-27 10:10:08.60	355.42	5.22	-49.6	-61.8	3.8	8.46e-01	0	42	104	2604662784	71	14107
2026-01-27 10:10:09.59	355.32	5.17	-49.6	-61.8	3.8	8.47e-01	0	42	104	2604662784	71	14115
2026-01-27 10:10:10.59	355.22	5.11	-49.6	-61.8	3.8	8.48e-01	0	42	104	2604662784	71	14087
2026-01-27 10:10:11.58	355.13	5.06	-49.6	-61.8	3.8	8.47e-01	0	42	104	2604662784	71	14130
2026-01-27 10:10:12.57	355.03	5.00	-49.6	-61.8	3.8	8.47e-01	0	42	104	2604662784	71	14047

#Closed at: 2026-01-27 10:10:13
#Recorded file [2604 MB]: D:/Data/31040_260127_130019.dat