passes_logs/2026/01/27/T1/T1__20260127_033014_FENGYUN_3E_rec.log

#Pass ID: 20260127_033014_FENGYUN 3E
#Satellite: FENGYUN 3E
#Configuration: FENGYUN 3E
#almurnet v.1.7.20251203
#Start time: 2026-01-27 03:30:14

#Version: 2.0.20230620
#Station: T1
#Location: 37.570604 lon 55.790049 lat
#TLE: 1 49008U 21062A   26026.49196073  .00000386  00000+0  20264-3 0  9990
#TLE: 2 49008  98.7499  31.4864 0002458 116.1468 243.9961 14.19888205236473

#Time	Az	El	Level	Level2	SNR	BER	BlckErr	Temp	State	Recorded	gain1	gain2
2026-01-27 03:30:14.43	19.63	4.96	-47.7	-60.2	3.8	8.46e-01	0	41	0	0	66	14542
2026-01-27 03:30:15.42	19.66	5.03	-47.6	-60.1	3.8	8.46e-01	0	41	104	0	64	16192
2026-01-27 03:30:16.41	19.69	5.10	-47.6	-60.1	3.8	8.47e-01	0	41	104	0	64	16262
2026-01-27 03:30:17.41	19.72	5.17	-47.6	-60.1	3.8	8.47e-01	0	41	104	0	64	16262
2026-01-27 03:30:18.40	19.75	5.24	-47.7	-60.0	3.8	8.46e-01	0	41	104	0	64	16115
2026-01-27 03:30:19.40	19.78	5.31	-47.7	-60.0	3.8	8.46e-01	0	41	104	0	64	16060
2026-01-27 03:30:20.40	19.81	5.38	-47.6	-60.0	3.8	8.46e-01	0	42	104	0	64	16109
2026-01-27 03:30:21.40	19.84	5.45	-47.6	-60.0	3.8	8.46e-01	0	42	104	0	64	16080
2026-01-27 03:30:22.39	19.87	5.52	-47.7	-60.0	3.8	8.46e-01	0	41	104	0	64	16044
2026-01-27 03:30:23.39	19.90	5.60	-47.7	-60.1	3.8	8.46e-01	0	42	104	0	64	16184
2026-01-27 03:30:24.38	19.93	5.67	-47.6	-60.1	3.8	8.46e-01	0	42	104	0	64	16149
2026-01-27 03:30:25.38	19.96	5.74	-47.7	-60.1	3.8	8.48e-01	0	42	104	0	64	16165
2026-01-27 03:30:26.38	19.99	5.81	-47.6	-60.1	3.8	8.47e-01	0	42	104	0	64	16227
2026-01-27 03:30:27.37	20.02	5.88	-47.6	-60.1	3.8	8.48e-01	0	42	104	0	64	16272
2026-01-27 03:30:28.37	20.05	5.95	-47.6	-60.1	3.8	8.48e-01	0	42	104	0	64	16243
2026-01-27 03:30:29.36	20.08	6.03	-47.6	-60.1	3.8	8.47e-01	0	42	104	0	64	16223
2026-01-27 03:30:30.36	20.11	6.10	-47.6	-60.2	3.8	8.47e-01	0	42	104	0	64	16410
2026-01-27 03:30:31.36	20.15	6.17	-47.6	-60.1	3.8	8.47e-01	0	42	104	0	64	16256
2026-01-27 03:30:32.35	20.18	6.24	-47.6	-60.1	3.8	8.47e-01	0	42	104	0	64	16257
2026-01-27 03:30:33.35	20.21	6.32	-47.7	-60.1	3.8	8.47e-01	0	42	104	0	64	16207
2026-01-27 03:30:34.34	20.24	6.39	-47.7	-60.1	3.8	8.47e-01	0	42	104	0	64	16164
2026-01-27 03:30:35.34	20.27	6.46	-47.6	-60.0	3.8	8.47e-01	0	42	104	0	64	15970
2026-01-27 03:30:36.33	20.30	6.54	-47.6	-59.9	3.8	8.46e-01	0	42	104	0	64	15808
2026-01-27 03:30:37.33	20.34	6.61	-47.6	-59.7	3.8	8.46e-01	0	42	104	0	64	15500
2026-01-27 03:30:38.33	20.37	6.68	-47.6	-59.5	3.8	8.48e-01	0	42	104	0	64	15184
2026-01-27 03:30:39.32	20.40	6.76	-47.6	-59.3	3.8	8.47e-01	0	42	104	0	64	14800
2026-01-27 03:30:40.32	20.43	6.83	-47.6	-59.0	3.8	8.47e-01	0	42	104	0	64	14300
2026-01-27 03:30:41.31	20.47	6.91	-47.5	-58.6	3.8	8.46e-01	0	42	104	0	64	13707
2026-01-27 03:30:42.31	20.50	6.98	-47.4	-58.3	3.9	8.47e-01	0	42	104	0	64	13147
2026-01-27 03:30:43.31	20.53	7.06	-47.4	-57.8	4.0	8.45e-01	0	42	104	0	64	12468
2026-01-27 03:30:44.30	20.57	7.13	-47.3	-57.6	3.8	8.45e-01	0	42	104	0	64	12120
2026-01-27 03:30:45.30	20.60	7.21	-47.3	-57.1	4.1	8.42e-01	0	43	0	0	64	11518
2026-01-27 03:30:46.30	20.63	7.28	-47.3	-56.9	4.1	8.39e-01	0	43	0	0	64	11283
2026-01-27 03:30:47.30	20.67	7.36	-47.3	-56.7	4.2	8.39e-01	0	43	0	0	64	10995
2026-01-27 03:30:48.30	20.70	7.43	-47.3	-56.6	4.2	8.39e-01	0	43	0	0	64	10860
2026-01-27 03:30:49.30	20.74	7.51	-47.3	-56.6	4.2	8.37e-01	0	43	0	0	64	10893
2026-01-27 03:30:50.30	20.77	7.59	-47.3	-56.7	4.2	8.38e-01	0	43	0	0	64	10930
2026-01-27 03:30:51.30	20.80	7.67	-47.3	-56.8	4.2	8.38e-01	0	43	0	0	64	11085
2026-01-27 03:30:52.29	20.84	7.74	-47.3	-57.0	4.1	8.39e-01	0	43	0	0	64	11318
2026-01-27 03:30:53.29	20.87	7.82	-47.3	-57.0	4.1	8.42e-01	0	43	0	0	64	11405
2026-01-27 03:30:54.28	20.91	7.90	-47.4	-57.6	4.0	8.45e-01	0	43	104	0	64	12198
2026-01-27 03:30:55.28	20.94	7.97	-47.4	-58.0	3.8	8.46e-01	0	43	104	0	64	12753
2026-01-27 03:30:56.28	20.98	8.05	-47.5	-58.1	3.8	8.46e-01	0	43	104	0	64	12938
2026-01-27 03:30:57.27	21.01	8.13	-47.5	-58.3	3.8	8.46e-01	0	43	104	0	64	13228
2026-01-27 03:30:58.27	21.05	8.21	-47.5	-58.2	3.8	8.47e-01	0	43	104	0	64	12990
2026-01-27 03:30:59.27	21.08	8.29	-47.5	-57.8	4.0	8.45e-01	0	43	104	0	64	12396
2026-01-27 03:31:00.26	21.12	8.37	-47.4	-57.2	4.1	8.44e-01	0	43	104	0	64	11582
2026-01-27 03:31:01.26	21.16	8.44	-47.3	-56.4	4.3	8.38e-01	0	43	0	0	64	10579
2026-01-27 03:31:02.25	21.19	8.52	-47.1	-55.5	4.6	8.24e-01	0	43	0	0	64	9597
2026-01-27 03:31:03.25	21.23	8.60	-46.9	-54.3	5.2	7.78e-01	0	43	0	0	64	8318
2026-01-27 03:31:04.25	21.26	8.68	-46.7	-53.3	5.9	5.81e-01	0	43	0	0	64	7416
2026-01-27 03:31:05.24	21.30	8.76	-46.6	-52.7	6.4	2.88e-01	0	43	0	7340032	63	7367
2026-01-27 03:31:06.24	21.34	8.84	-46.3	-51.7	7.3	1.57e-01	0	43	0	14680064	63	6534
2026-01-27 03:31:07.24	21.37	8.92	-46.0	-51.1	7.9	8.62e-02	0	43	0	22020096	62	6440
2026-01-27 03:31:08.24	21.41	9.01	-45.8	-50.4	8.5	4.70e-02	0	43	0	29360128	62	5958
2026-01-27 03:31:09.23	21.45	9.09	-45.6	-50.0	9.0	2.64e-02	0	43	0	36700160	61	6030
2026-01-27 03:31:10.23	21.49	9.17	-46.1	-51.3	7.7	8.09e-02	0	43	0	44040192	61	6960
2026-01-27 03:31:11.23	21.52	9.25	-46.5	-52.2	6.8	3.21e-01	0	43	0	50331648	63	6944
2026-01-27 03:31:12.22	21.56	9.33	-45.7	-50.1	8.9	1.64e-02	0	43	0	57671680	61	6097
2026-01-27 03:31:13.22	21.60	9.41	-47.6	-58.9	3.8	8.47e-01	0	43	104	59768832	64	14047
2026-01-27 03:31:14.22	21.64	9.50	-40.8	-42.4	16.6	0.00e+00	0	43	0	63963136	51	4467
2026-01-27 03:31:15.22	21.68	9.58	-40.3	-41.8	17.3	0.00e+00	0	43	0	70254592	51	4146
2026-01-27 03:31:16.22	21.72	9.66	-39.3	-40.6	18.4	0.00e+00	0	43	0	77594624	49	4074
2026-01-27 03:31:17.22	21.75	9.75	-38.6	-39.9	19.2	0.00e+00	0	43	0	84934656	48	3976
2026-01-27 03:31:18.21	21.79	9.83	-38.7	-39.9	19.1	0.00e+00	0	43	0	92274688	48	3981
2026-01-27 03:31:19.21	21.83	9.91	-38.3	-39.6	19.2	0.00e+00	0	43	0	99614720	47	4060
2026-01-27 03:31:20.21	21.87	10.00	-38.5	-39.8	19.0	0.00e+00	0	43	0	106954752	47	4164
2026-01-27 03:31:21.21	21.91	10.08	-38.5	-39.7	19.1	0.00e+00	0	43	0	114294784	47	4145
2026-01-27 03:31:22.21	21.95	10.17	-38.5	-39.8	19.1	0.00e+00	0	43	0	121634816	47	4148
2026-01-27 03:31:23.21	21.99	10.25	-38.4	-39.6	19.2	0.00e+00	0	43	0	128974848	47	4081
2026-01-27 03:31:24.20	22.03	10.34	-38.3	-39.5	19.3	0.00e+00	0	43	0	135266304	47	4018
2026-01-27 03:31:25.20	22.07	10.42	-38.4	-39.7	19.2	0.00e+00	0	43	0	142606336	46	4349
2026-01-27 03:31:26.21	22.11	10.51	-38.3	-39.5	19.4	0.00e+00	0	43	0	149946368	46	4267
2026-01-27 03:31:27.20	22.16	10.59	-38.5	-39.7	19.2	0.00e+00	0	43	0	157286400	46	4358
2026-01-27 03:31:28.20	22.20	10.68	-38.3	-39.5	19.3	0.00e+00	0	43	0	164626432	46	4270
2026-01-27 03:31:29.20	22.24	10.77	-38.3	-39.4	19.5	0.00e+00	0	43	0	171966464	46	4229
2026-01-27 03:31:30.20	22.28	10.85	-38.4	-39.5	19.4	0.00e+00	0	43	0	179306496	46	4286
2026-01-27 03:31:31.19	22.32	10.94	-38.2	-39.3	19.5	0.00e+00	0	43	0	186646528	46	4192
2026-01-27 03:31:32.19	22.36	11.03	-38.3	-39.4	19.5	0.00e+00	0	43	0	192937984	46	4236
2026-01-27 03:31:33.19	22.41	11.12	-38.3	-39.4	19.5	0.00e+00	0	43	0	200278016	46	4211
2026-01-27 03:31:34.18	22.45	11.20	-38.3	-39.4	19.5	0.00e+00	0	43	0	207618048	46	4226
2026-01-27 03:31:35.18	22.49	11.29	-38.3	-39.4	19.5	0.00e+00	0	43	0	214958080	46	4239
2026-01-27 03:31:36.18	22.53	11.38	-38.2	-39.2	19.7	0.00e+00	0	43	0	222298112	46	4143
2026-01-27 03:31:37.18	22.58	11.47	-38.2	-39.3	19.6	0.00e+00	0	43	0	229638144	46	4171
2026-01-27 03:31:38.18	22.62	11.56	-38.2	-39.3	19.6	0.00e+00	0	43	0	235929600	46	4161
2026-01-27 03:31:39.17	22.66	11.65	-38.2	-39.3	19.7	0.00e+00	0	44	0	243269632	46	4148
2026-01-27 03:31:40.17	22.71	11.74	-38.1	-39.1	19.8	0.00e+00	0	44	0	250609664	46	4092
2026-01-27 03:31:41.17	22.75	11.83	-38.1	-39.1	19.8	0.00e+00	0	43	0	257949696	46	4072
2026-01-27 03:31:42.17	22.80	11.92	-38.1	-39.2	19.7	0.00e+00	0	43	0	265289728	46	4118
2026-01-27 03:31:43.17	22.84	12.01	-38.1	-39.2	19.7	0.00e+00	0	43	0	272629760	46	4108
2026-01-27 03:31:44.16	22.89	12.10	-38.0	-39.0	20.0	0.00e+00	0	43	0	279969792	46	4017
2026-01-27 03:31:45.16	22.93	12.20	-38.1	-39.1	19.8	0.00e+00	0	44	0	287309824	46	4059
2026-01-27 03:31:46.16	22.98	12.29	-38.1	-39.2	19.8	0.00e+00	0	43	0	294649856	46	4100
2026-01-27 03:31:47.16	23.02	12.38	-38.0	-39.0	19.9	0.00e+00	0	43	0	300941312	46	4038
2026-01-27 03:31:48.15	23.07	12.47	-37.9	-38.9	20.0	0.00e+00	0	43	0	308281344	46	3971
2026-01-27 03:31:49.15	23.11	12.57	-37.9	-38.9	20.0	0.00e+00	0	44	0	315621376	46	3999
2026-01-27 03:31:50.15	23.16	12.66	-37.9	-38.9	20.1	0.00e+00	0	43	0	322961408	46	3967
2026-01-27 03:31:51.15	23.21	12.75	-37.9	-38.9	20.0	0.00e+00	0	43	0	330301440	46	3982
2026-01-27 03:31:52.14	23.25	12.85	-37.7	-38.7	20.2	0.00e+00	0	43	0	337641472	46	3884
2026-01-27 03:31:53.14	23.30	12.94	-37.8	-38.7	20.2	0.00e+00	0	44	0	344981504	46	3910
2026-01-27 03:31:54.14	23.35	13.04	-37.7	-38.6	20.3	0.00e+00	0	44	0	352321536	46	3863
2026-01-27 03:31:55.13	23.40	13.13	-37.7	-38.7	20.3	0.00e+00	0	43	0	358612992	46	3882
2026-01-27 03:31:56.14	23.45	13.23	-37.5	-38.5	20.5	0.00e+00	0	44	0	365953024	45	4016
2026-01-27 03:31:57.13	23.49	13.32	-37.6	-38.5	20.4	0.00e+00	0	44	0	373293056	45	4043
2026-01-27 03:31:58.13	23.54	13.42	-37.7	-38.7	20.2	0.00e+00	0	44	0	380633088	45	4131
2026-01-27 03:31:59.13	23.59	13.52	-37.8	-38.7	20.2	0.00e+00	0	44	0	387973120	45	4145
2026-01-27 03:32:00.12	23.64	13.61	-37.6	-38.6	20.4	0.00e+00	0	43	0	395313152	45	4062
2026-01-27 03:32:01.12	23.69	13.71	-37.6	-38.5	20.4	0.00e+00	0	43	0	401604608	45	4041
2026-01-27 03:32:02.12	23.74	13.81	-37.4	-38.3	20.6	0.00e+00	0	44	0	408944640	45	3951
2026-01-27 03:32:03.12	23.79	13.91	-37.5	-38.5	20.5	0.00e+00	0	43	0	416284672	45	4028
2026-01-27 03:32:04.11	23.84	14.00	-37.2	-38.2	20.8	0.00e+00	0	44	0	423624704	45	3878
2026-01-27 03:32:05.11	23.89	14.10	-37.2	-38.2	20.7	0.00e+00	0	43	0	430964736	45	3893
2026-01-27 03:32:06.10	23.94	14.20	-37.2	-38.2	20.8	0.00e+00	0	43	0	438304768	45	3886
2026-01-27 03:32:07.10	23.99	14.30	-37.3	-38.3	20.7	0.00e+00	0	44	0	445644800	45	3937
2026-01-27 03:32:08.10	24.05	14.40	-37.1	-38.1	20.9	0.00e+00	0	44	0	452984832	45	3835
2026-01-27 03:32:09.10	24.10	14.50	-37.1	-38.0	21.0	0.00e+00	0	44	0	460324864	44	4050
2026-01-27 03:32:10.10	24.15	14.60	-37.1	-38.1	20.9	0.00e+00	0	44	0	466616320	44	4066
2026-01-27 03:32:11.10	24.20	14.71	-37.1	-38.1	20.9	0.00e+00	0	44	0	473956352	44	4054
2026-01-27 03:32:12.09	24.26	14.81	-37.2	-38.2	20.8	0.00e+00	0	44	0	481296384	44	4119
2026-01-27 03:32:13.09	24.31	14.91	-37.0	-38.0	21.0	0.00e+00	0	44	0	488636416	44	4009
2026-01-27 03:32:14.09	24.36	15.01	-37.0	-38.0	20.9	0.00e+00	0	44	0	495976448	44	4034
2026-01-27 03:32:15.09	24.42	15.11	-37.0	-38.0	21.0	0.00e+00	0	44	0	503316480	44	4007
2026-01-27 03:32:16.08	24.47	15.22	-36.9	-37.9	21.1	0.00e+00	0	44	0	510656512	44	3966
2026-01-27 03:32:17.08	24.53	15.32	-37.1	-38.0	21.0	0.00e+00	0	44	0	517996544	44	4050
2026-01-27 03:32:18.08	24.58	15.43	-37.0	-37.9	21.1	0.00e+00	0	44	0	524288000	44	3991
2026-01-27 03:32:19.08	24.64	15.53	-36.9	-37.8	21.1	0.00e+00	0	44	0	531628032	44	3955
2026-01-27 03:32:20.08	24.69	15.64	-36.9	-37.8	21.1	0.00e+00	0	44	0	538968064	44	3954
2026-01-27 03:32:21.07	24.75	15.74	-36.9	-37.9	21.1	0.00e+00	0	44	0	546308096	44	3975
2026-01-27 03:32:22.07	24.81	15.85	-36.8	-37.7	21.3	0.00e+00	0	44	0	553648128	44	3906
2026-01-27 03:32:23.07	24.86	15.95	-36.9	-37.9	21.1	0.00e+00	0	44	0	560988160	44	3966
2026-01-27 03:32:24.07	24.92	16.06	-36.9	-37.9	21.1	0.00e+00	0	44	0	567279616	44	3971
2026-01-27 03:32:25.07	24.98	16.17	-36.9	-37.9	21.1	0.00e+00	0	44	0	574619648	44	3976
2026-01-27 03:32:26.07	25.04	16.27	-36.9	-37.9	21.1	0.00e+00	0	44	0	581959680	44	3963
2026-01-27 03:32:27.07	25.10	16.38	-37.0	-38.0	21.0	0.00e+00	0	43	0	589299712	44	4027
2026-01-27 03:32:28.07	25.15	16.49	-36.8	-37.7	21.1	0.00e+00	0	44	0	596639744	43	4126
2026-01-27 03:32:29.07	25.21	16.60	-36.7	-37.7	21.2	0.00e+00	0	43	0	603979776	43	4117
2026-01-27 03:32:30.06	25.27	16.71	-36.8	-37.7	21.1	0.00e+00	0	44	0	611319808	43	4141
2026-01-27 03:32:31.06	25.33	16.82	-36.7	-37.6	21.2	0.00e+00	0	44	0	618659840	43	4086
2026-01-27 03:32:32.06	25.39	16.93	-36.7	-37.7	21.2	0.00e+00	0	44	0	624951296	43	4124
2026-01-27 03:32:33.06	25.45	17.04	-36.6	-37.5	21.3	0.00e+00	0	44	0	632291328	43	4035
2026-01-27 03:32:34.06	25.52	17.15	-36.7	-37.7	21.1	0.00e+00	0	44	0	639631360	43	4121
2026-01-27 03:32:35.05	25.58	17.27	-36.7	-37.6	21.2	0.00e+00	0	44	0	646971392	43	4084
2026-01-27 03:32:36.05	25.64	17.38	-36.7	-37.6	21.2	0.00e+00	0	44	0	654311424	43	4096
2026-01-27 03:32:37.05	25.70	17.49	-36.6	-37.6	21.3	0.00e+00	0	44	0	661651456	43	4057
2026-01-27 03:32:38.05	25.77	17.60	-36.8	-37.8	21.0	0.00e+00	0	44	0	668991488	43	4177
2026-01-27 03:32:39.05	25.83	17.72	-36.6	-37.5	21.3	0.00e+00	0	44	0	676331520	43	4034
2026-01-27 03:32:40.05	25.89	17.83	-36.6	-37.6	21.3	0.00e+00	0	44	0	683671552	43	4053
2026-01-27 03:32:41.05	25.96	17.95	-36.5	-37.4	21.4	0.00e+00	0	44	0	689963008	43	4003
2026-01-27 03:32:42.05	26.02	18.06	-36.5	-37.4	21.4	0.00e+00	0	44	0	697303040	43	3991
2026-01-27 03:32:43.04	26.09	18.18	-36.4	-37.4	21.4	0.00e+00	0	44	0	704643072	43	3969
2026-01-27 03:32:44.04	26.15	18.30	-36.3	-37.2	21.6	0.00e+00	0	44	0	711983104	42	4127
2026-01-27 03:32:45.04	26.22	18.41	-36.3	-37.2	21.6	0.00e+00	0	44	0	719323136	42	4123
2026-01-27 03:32:46.04	26.29	18.53	-36.2	-37.2	21.6	0.00e+00	0	44	0	726663168	42	4114
2026-01-27 03:32:47.04	26.35	18.65	-36.2	-37.2	21.6	0.00e+00	0	44	0	734003200	42	4117
2026-01-27 03:32:48.03	26.42	18.77	-36.1	-37.0	21.8	0.00e+00	0	44	0	741343232	42	4025
2026-01-27 03:32:49.03	26.49	18.89	-36.0	-36.9	21.9	0.00e+00	0	44	0	748683264	42	3994
2026-01-27 03:32:50.02	26.56	19.00	-36.0	-37.0	21.7	0.00e+00	0	44	0	754974720	42	4010
2026-01-27 03:32:51.02	26.63	19.13	-36.0	-36.9	21.9	0.00e+00	0	44	0	762314752	42	3991
2026-01-27 03:32:52.02	26.70	19.25	-36.0	-37.0	21.9	0.00e+00	0	44	0	769654784	42	4007
2026-01-27 03:32:53.02	26.77	19.37	-36.0	-36.9	21.9	0.00e+00	0	44	0	776994816	42	3975
2026-01-27 03:32:54.01	26.84	19.49	-36.2	-37.1	21.7	0.00e+00	0	44	0	784334848	42	4071
2026-01-27 03:32:55.02	26.91	19.61	-35.8	-36.7	22.1	0.00e+00	0	44	0	790626304	42	3904
2026-01-27 03:32:56.01	26.98	19.73	-35.8	-36.7	22.0	0.00e+00	0	44	0	797966336	42	3908
2026-01-27 03:32:57.01	27.05	19.86	-35.7	-36.6	22.2	0.00e+00	0	44	0	805306368	42	3838
2026-01-27 03:32:58.01	27.13	19.98	-35.7	-36.6	22.1	0.00e+00	0	44	0	812646400	42	3864
2026-01-27 03:32:59.01	27.20	20.11	-35.6	-36.5	22.2	0.00e+00	0	44	0	819986432	41	4036
2026-01-27 03:33:00.00	27.28	20.23	-35.8	-36.7	22.0	0.00e+00	0	44	0	827326464	41	4122
2026-01-27 03:33:01.00	27.35	20.36	-35.7	-36.5	22.2	0.00e+00	0	44	0	834666496	41	4049
2026-01-27 03:33:02.00	27.43	20.49	-35.6	-36.5	22.2	0.00e+00	0	44	0	842006528	41	4021
2026-01-27 03:33:03.00	27.50	20.61	-35.6	-36.5	22.2	0.00e+00	0	44	0	849346560	41	4010
2026-01-27 03:33:04.00	27.58	20.74	-35.7	-36.6	22.2	0.00e+00	0	44	0	855638016	41	4066
2026-01-27 03:33:04.99	27.65	20.87	-35.6	-36.5	22.2	0.00e+00	0	44	0	862978048	41	4035
2026-01-27 03:33:05.99	27.73	21.00	-35.6	-36.5	22.2	0.00e+00	0	44	0	870318080	41	4028
2026-01-27 03:33:06.99	27.81	21.13	-35.7	-36.5	22.2	0.00e+00	0	44	0	877658112	41	4044
2026-01-27 03:33:07.99	27.89	21.26	-35.5	-36.4	22.4	0.00e+00	0	44	0	884998144	41	3977
2026-01-27 03:33:08.98	27.97	21.39	-35.6	-36.5	22.3	0.00e+00	0	44	0	892338176	41	4020
2026-01-27 03:33:09.98	28.05	21.52	-35.4	-36.3	22.4	0.00e+00	0	44	0	899678208	41	3932
2026-01-27 03:33:10.98	28.13	21.65	-35.6	-36.4	22.3	0.00e+00	0	44	0	907018240	41	4002
2026-01-27 03:33:11.98	28.21	21.78	-35.6	-36.4	22.3	0.00e+00	0	44	0	914358272	41	4004
2026-01-27 03:33:12.98	28.29	21.92	-35.5	-36.4	22.3	0.00e+00	0	44	0	920649728	41	3975
2026-01-27 03:33:13.97	28.38	22.05	-35.7	-36.6	22.2	0.00e+00	0	44	0	927989760	41	4070
2026-01-27 03:33:14.97	28.46	22.19	-35.8	-36.7	22.1	0.00e+00	0	44	0	935329792	41	4125
2026-01-27 03:33:15.96	28.54	22.32	-35.7	-36.6	22.2	0.00e+00	0	44	0	942669824	41	4056
2026-01-27 03:33:16.96	28.63	22.46	-35.7	-36.5	22.2	0.00e+00	0	44	0	950009856	41	4041
2026-01-27 03:33:17.95	28.71	22.59	-35.5	-36.3	22.4	0.00e+00	0	44	0	956301312	41	3954
2026-01-27 03:33:18.95	28.80	22.73	-35.5	-36.3	22.4	0.00e+00	0	44	0	963641344	41	3958
2026-01-27 03:33:19.95	28.89	22.87	-35.4	-36.2	22.5	0.00e+00	0	44	0	970981376	41	3904
2026-01-27 03:33:20.95	28.98	23.01	-35.4	-36.3	22.5	0.00e+00	0	44	0	978321408	41	3927
2026-01-27 03:33:21.94	29.06	23.15	-35.4	-36.3	22.5	0.00e+00	0	44	0	985661440	41	3941
2026-01-27 03:33:22.94	29.15	23.29	-35.3	-36.2	22.6	0.00e+00	0	44	0	993001472	41	3893
2026-01-27 03:33:23.94	29.24	23.43	-35.4	-36.3	22.5	0.00e+00	0	44	0	1000341504	41	3933
2026-01-27 03:33:24.94	29.33	23.57	-35.4	-36.3	22.5	0.00e+00	0	44	0	1007681536	41	3938
2026-01-27 03:33:25.94	29.43	23.71	-35.5	-36.3	22.5	0.00e+00	0	44	0	1015021568	40	4174
2026-01-27 03:33:26.95	29.52	23.86	-35.5	-36.3	22.5	0.00e+00	0	44	0	1021313024	40	4187
2026-01-27 03:33:27.95	29.61	24.00	-35.5	-36.3	22.5	0.00e+00	0	44	0	1028653056	40	4175
2026-01-27 03:33:28.94	29.71	24.14	-35.4	-36.2	22.6	0.00e+00	0	44	0	1035993088	40	4136
2026-01-27 03:33:29.94	29.80	24.29	-35.4	-36.2	22.6	0.00e+00	0	44	0	1043333120	40	4138
2026-01-27 03:33:30.94	29.90	24.43	-35.5	-36.4	22.4	0.00e+00	0	44	0	1050673152	40	4217
2026-01-27 03:33:31.94	29.99	24.58	-35.5	-36.3	22.5	0.00e+00	0	44	0	1058013184	40	4192
2026-01-27 03:33:32.94	30.09	24.73	-35.5	-36.4	22.5	0.00e+00	0	44	0	1065353216	40	4216
2026-01-27 03:33:33.93	30.19	24.88	-35.5	-36.3	22.5	0.00e+00	0	44	0	1072693248	40	4175
2026-01-27 03:33:34.93	30.29	25.03	-35.4	-36.2	22.6	0.00e+00	0	44	0	1080033280	40	4140
2026-01-27 03:33:35.93	30.39	25.18	-35.2	-36.0	22.8	0.00e+00	0	44	0	1086324736	40	4039
2026-01-27 03:33:36.92	30.49	25.32	-35.6	-36.4	22.4	0.00e+00	0	44	0	1093664768	40	4236
2026-01-27 03:33:37.92	30.59	25.48	-35.5	-36.4	22.5	0.00e+00	0	44	0	1101004800	40	4194
2026-01-27 03:33:38.92	30.70	25.63	-35.4	-36.2	22.6	0.00e+00	0	44	0	1108344832	40	4138
2026-01-27 03:33:39.91	30.80	25.78	-35.3	-36.1	22.7	0.00e+00	0	44	0	1115684864	40	4092
2026-01-27 03:33:40.91	30.90	25.93	-35.4	-36.3	22.6	0.00e+00	0	44	0	1121976320	40	4174
2026-01-27 03:33:41.91	31.01	26.09	-35.1	-35.9	22.9	0.00e+00	0	44	0	1129316352	40	3997
2026-01-27 03:33:42.91	31.12	26.24	-35.0	-35.8	23.0	0.00e+00	0	44	0	1136656384	40	3936
2026-01-27 03:33:43.91	31.23	26.40	-34.9	-35.7	23.1	0.00e+00	0	44	0	1143996416	40	3889
2026-01-27 03:33:44.90	31.33	26.56	-34.9	-35.7	23.1	0.00e+00	0	44	0	1151336448	40	3891
2026-01-27 03:33:45.90	31.44	26.71	-34.9	-35.7	23.1	0.00e+00	0	44	0	1158676480	40	3904
2026-01-27 03:33:46.90	31.55	26.87	-34.8	-35.6	23.2	0.00e+00	0	44	0	1166016512	39	4097
2026-01-27 03:33:47.89	31.67	27.03	-34.9	-35.7	23.1	0.00e+00	0	44	0	1173356544	39	4135
2026-01-27 03:33:48.89	31.78	27.19	-34.8	-35.6	23.2	0.00e+00	0	44	0	1180696576	39	4092
2026-01-27 03:33:49.89	31.89	27.35	-34.9	-35.7	23.1	0.00e+00	0	44	0	1186988032	39	4125
2026-01-27 03:33:50.89	32.01	27.51	-34.8	-35.7	23.2	0.00e+00	0	44	0	1194328064	39	4115
2026-01-27 03:33:51.89	32.13	27.68	-34.9	-35.7	23.1	0.00e+00	0	44	0	1201668096	40	3887
2026-01-27 03:33:52.89	32.24	27.84	-34.8	-35.7	23.1	0.00e+00	0	44	0	1209008128	40	3884
2026-01-27 03:33:53.89	32.36	28.01	-34.8	-35.7	23.1	0.00e+00	0	44	0	1216348160	40	3871
2026-01-27 03:33:54.89	32.48	28.17	-34.8	-35.6	23.2	0.00e+00	0	44	0	1223688192	40	3849
2026-01-27 03:33:55.88	32.60	28.34	-34.8	-35.7	23.1	0.00e+00	0	44	0	1231028224	40	3873
2026-01-27 03:33:56.88	32.73	28.50	-35.1	-35.9	22.9	0.00e+00	0	44	0	1238368256	40	3985
2026-01-27 03:33:57.88	32.85	28.67	-34.8	-35.7	23.2	0.00e+00	0	44	0	1244659712	39	4103
2026-01-27 03:33:58.87	32.97	28.84	-34.8	-35.6	23.3	0.00e+00	0	44	0	1251999744	39	4063
2026-01-27 03:33:59.87	33.10	29.01	-34.8	-35.6	23.2	0.00e+00	0	44	0	1259339776	39	4086
2026-01-27 03:34:00.87	33.23	29.18	-34.8	-35.6	23.2	0.00e+00	0	44	0	1266679808	39	4075
2026-01-27 03:34:01.87	33.36	29.35	-34.8	-35.6	23.3	0.00e+00	0	44	0	1274019840	39	4074
2026-01-27 03:34:02.87	33.49	29.52	-34.7	-35.5	23.3	0.00e+00	0	44	0	1281359872	39	4040
2026-01-27 03:34:03.86	33.62	29.69	-34.7	-35.5	23.3	0.00e+00	0	44	0	1287651328	39	4038
2026-01-27 03:34:04.85	33.75	29.87	-34.8	-35.6	23.2	0.00e+00	0	44	0	1294991360	39	4094
2026-01-27 03:34:05.86	33.89	30.04	-34.5	-35.4	23.5	0.00e+00	0	44	0	1302331392	39	3967
2026-01-27 03:34:06.85	34.02	30.22	-34.5	-35.3	23.5	0.00e+00	0	44	0	1309671424	39	3925
2026-01-27 03:34:07.85	34.16	30.40	-34.6	-35.5	23.4	0.00e+00	0	44	0	1317011456	39	4006
2026-01-27 03:34:08.86	34.30	30.58	-34.6	-35.4	23.4	0.00e+00	0	44	0	1324351488	39	3997
2026-01-27 03:34:09.85	34.44	30.75	-34.6	-35.4	23.4	0.00e+00	0	44	0	1331691520	39	3994
2026-01-27 03:34:10.85	34.58	30.93	-34.7	-35.6	23.3	0.00e+00	0	44	0	1339031552	39	4058
2026-01-27 03:34:11.85	34.72	31.11	-34.8	-35.6	23.2	0.00e+00	0	44	0	1346371584	39	4098
2026-01-27 03:34:12.84	34.87	31.29	-34.6	-35.4	23.4	0.00e+00	0	44	0	1352663040	39	3981
2026-01-27 03:34:13.84	35.01	31.48	-34.9	-35.7	23.2	0.00e+00	0	44	0	1360003072	39	4110
2026-01-27 03:34:14.84	35.16	31.66	-34.8	-35.6	23.2	0.00e+00	0	44	0	1367343104	39	4087
2026-01-27 03:34:15.84	35.31	31.84	-34.8	-35.6	23.2	0.00e+00	0	44	0	1374683136	39	4068
2026-01-27 03:34:16.83	35.46	32.03	-34.8	-35.7	23.2	0.00e+00	0	44	0	1382023168	39	4110
2026-01-27 03:34:17.83	35.62	32.21	-34.9	-35.7	23.2	0.00e+00	0	44	0	1389363200	39	4133
2026-01-27 03:34:18.83	35.77	32.40	-34.9	-35.7	23.1	0.00e+00	0	44	0	1396703232	39	4143
2026-01-27 03:34:19.83	35.93	32.59	-34.9	-35.8	23.1	0.00e+00	0	44	0	1404043264	39	4153
2026-01-27 03:34:20.83	36.09	32.78	-35.1	-35.9	23.0	0.00e+00	0	44	0	1411383296	39	4217
2026-01-27 03:34:21.82	36.25	32.97	-34.9	-35.8	23.1	0.00e+00	0	44	0	1417674752	39	4158
2026-01-27 03:34:22.82	36.41	33.16	-34.7	-35.5	23.4	0.00e+00	0	44	0	1425014784	39	4013
2026-01-27 03:34:23.82	36.57	33.35	-34.8	-35.6	23.3	0.00e+00	0	44	0	1432354816	39	4066
2026-01-27 03:34:24.82	36.74	33.55	-34.7	-35.5	23.3	0.00e+00	0	44	0	1439694848	39	4034
2026-01-27 03:34:25.82	36.91	33.74	-34.5	-35.3	23.5	0.00e+00	0	44	0	1447034880	39	3956
2026-01-27 03:34:26.82	37.08	33.94	-34.6	-35.5	23.4	0.00e+00	0	44	0	1453326336	39	4010
2026-01-27 03:34:27.82	37.25	34.13	-34.7	-35.5	23.3	0.00e+00	0	44	0	1460666368	39	4042
2026-01-27 03:34:28.81	37.42	34.33	-34.5	-35.3	23.5	0.00e+00	0	44	0	1468006400	39	3923
2026-01-27 03:34:29.81	37.60	34.52	-34.7	-35.5	23.4	0.00e+00	0	44	0	1475346432	39	4021
2026-01-27 03:34:30.81	37.77	34.72	-34.6	-35.4	23.4	0.00e+00	0	44	0	1482686464	39	4003
2026-01-27 03:34:31.81	37.95	34.92	-34.6	-35.4	23.4	0.00e+00	0	44	0	1490026496	39	3999
2026-01-27 03:34:32.80	38.14	35.12	-34.7	-35.5	23.4	0.00e+00	0	44	0	1497366528	39	4043
2026-01-27 03:34:33.80	38.32	35.33	-35.4	-36.3	22.7	0.00e+00	0	44	0	1504706560	40	4170
2026-01-27 03:34:34.80	38.51	35.53	-34.8	-35.7	23.3	0.00e+00	0	44	0	1512046592	39	4109
2026-01-27 03:34:35.79	38.69	35.73	-34.9	-35.8	23.2	0.00e+00	0	44	0	1518338048	39	4162
2026-01-27 03:34:36.79	38.89	35.94	-35.1	-35.9	23.0	0.00e+00	0	44	0	1525678080	39	4218
2026-01-27 03:34:37.79	39.08	36.14	-35.1	-36.0	23.0	0.00e+00	0	44	0	1533018112	39	4253
2026-01-27 03:34:38.79	39.28	36.35	-34.9	-35.7	23.2	0.00e+00	0	44	0	1540358144	39	4135
2026-01-27 03:34:39.79	39.48	36.56	-34.8	-35.6	23.2	0.00e+00	0	44	0	1547698176	40	3843
2026-01-27 03:34:40.78	39.67	36.76	-34.7	-35.5	23.3	0.00e+00	0	44	0	1555038208	40	3815
2026-01-27 03:34:41.78	39.88	36.97	-34.6	-35.5	23.4	0.00e+00	0	44	0	1562378240	40	3784
2026-01-27 03:34:42.78	40.09	37.18	-34.8	-35.6	23.3	0.00e+00	0	44	0	1569718272	39	4077
2026-01-27 03:34:43.78	40.29	37.40	-34.8	-35.6	23.2	0.00e+00	0	44	0	1577058304	39	4089
2026-01-27 03:34:44.78	40.51	37.61	-34.8	-35.7	23.2	0.00e+00	0	44	0	1583349760	39	4107
2026-01-27 03:34:45.78	40.72	37.82	-35.0	-35.8	23.1	0.00e+00	0	44	0	1590689792	39	4164
2026-01-27 03:34:46.77	40.94	38.03	-35.1	-35.9	23.0	0.00e+00	0	44	0	1598029824	39	4241
2026-01-27 03:34:47.77	41.16	38.25	-35.1	-36.0	22.9	0.00e+00	0	44	0	1605369856	39	4253
2026-01-27 03:34:48.77	41.38	38.47	-35.2	-36.0	22.9	0.00e+00	0	44	0	1612709888	40	4040
2026-01-27 03:34:49.77	41.60	38.68	-35.3	-36.2	22.8	0.00e+00	0	44	0	1619001344	40	4125
2026-01-27 03:34:50.77	41.83	38.90	-35.2	-36.0	22.9	0.00e+00	0	44	0	1626341376	40	4041
2026-01-27 03:34:51.77	42.07	39.12	-35.2	-36.0	22.9	0.00e+00	0	44	0	1633681408	40	4025
2026-01-27 03:34:52.77	42.30	39.34	-35.2	-36.0	22.9	0.00e+00	0	44	0	1641021440	40	4040
2026-01-27 03:34:53.77	42.54	39.56	-35.1	-35.9	23.0	0.00e+00	0	44	0	1648361472	40	3996
2026-01-27 03:34:54.76	42.78	39.78	-35.4	-36.3	22.7	0.00e+00	0	44	0	1655701504	40	4176
2026-01-27 03:34:55.76	43.02	40.01	-35.1	-36.0	22.9	0.00e+00	0	44	0	1663041536	40	4022
2026-01-27 03:34:56.76	43.27	40.23	-35.2	-36.1	22.9	0.00e+00	0	44	0	1670381568	40	4052
2026-01-27 03:34:57.75	43.52	40.45	-35.2	-36.1	22.8	0.00e+00	0	44	0	1677721600	40	4060
2026-01-27 03:34:58.75	43.77	40.68	-35.3	-36.1	22.8	0.00e+00	0	44	0	1684013056	40	4084
2026-01-27 03:34:59.75	44.03	40.90	-35.2	-36.0	22.9	0.00e+00	0	44	0	1691353088	40	4049
2026-01-27 03:35:00.75	44.30	41.13	-35.5	-36.4	22.6	0.00e+00	0	44	0	1698693120	40	4218
2026-01-27 03:35:01.75	44.56	41.36	-35.4	-36.3	22.7	0.00e+00	0	44	0	1706033152	40	4159
2026-01-27 03:35:02.75	44.83	41.58	-35.5	-36.4	22.6	0.00e+00	0	44	0	1713373184	40	4219
2026-01-27 03:35:03.75	45.10	41.81	-35.4	-36.2	22.7	0.00e+00	0	44	0	1720713216	40	4128
2026-01-27 03:35:04.75	45.38	42.04	-35.4	-36.2	22.7	0.00e+00	0	44	0	1728053248	40	4142
2026-01-27 03:35:05.74	45.66	42.27	-35.5	-36.4	22.6	0.00e+00	0	44	0	1735393280	41	3990
2026-01-27 03:35:06.74	45.94	42.50	-35.4	-36.2	22.7	0.00e+00	0	44	0	1742733312	41	3910
2026-01-27 03:35:07.73	46.23	42.73	-35.3	-36.1	22.8	0.00e+00	0	44	0	1749024768	41	3843
2026-01-27 03:35:08.73	46.52	42.97	-35.3	-36.1	22.8	0.00e+00	0	44	0	1756364800	41	3856
2026-01-27 03:35:09.73	46.82	43.20	-35.2	-36.1	22.9	0.00e+00	0	44	0	1763704832	40	4059
2026-01-27 03:35:10.73	47.12	43.43	-35.2	-36.1	22.9	0.00e+00	0	44	0	1771044864	40	4068
2026-01-27 03:35:11.72	47.42	43.66	-35.3	-36.1	22.8	0.00e+00	0	44	0	1778384896	40	4093
2026-01-27 03:35:12.72	47.73	43.90	-35.4	-36.2	22.7	0.00e+00	0	44	0	1784676352	40	4144
2026-01-27 03:35:13.72	48.05	44.13	-35.3	-36.1	22.9	0.00e+00	0	44	0	1792016384	40	4074
2026-01-27 03:35:14.72	48.37	44.37	-35.2	-36.1	22.9	0.00e+00	0	44	0	1799356416	40	4059
2026-01-27 03:35:15.72	48.69	44.61	-35.3	-36.1	22.8	0.00e+00	0	44	0	1806696448	40	4094
2026-01-27 03:35:16.72	49.02	44.84	-35.4	-36.3	22.7	0.00e+00	0	44	0	1814036480	40	4146
2026-01-27 03:35:17.72	49.36	45.08	-35.5	-36.4	22.6	0.00e+00	0	44	0	1821376512	40	4218
2026-01-27 03:35:18.72	49.70	45.32	-35.7	-36.6	22.4	0.00e+00	0	44	0	1828716544	40	4293
2026-01-27 03:35:19.72	50.04	45.56	-35.8	-36.7	22.3	0.00e+00	0	44	0	1836056576	41	4119
2026-01-27 03:35:20.72	50.39	45.79	-35.9	-36.8	22.2	0.00e+00	0	44	0	1843396608	41	4167
2026-01-27 03:35:21.72	50.74	46.03	-35.7	-36.5	22.5	0.00e+00	0	44	0	1849688064	41	4051
2026-01-27 03:35:22.72	51.10	46.27	-35.6	-36.5	22.5	0.00e+00	0	44	0	1857028096	41	4016
2026-01-27 03:35:23.71	51.46	46.51	-35.4	-36.2	22.7	0.00e+00	0	44	0	1864368128	41	3912
2026-01-27 03:35:24.71	51.84	46.75	-35.4	-36.3	22.7	0.00e+00	0	44	0	1871708160	41	3917
2026-01-27 03:35:25.71	52.21	46.98	-35.4	-36.2	22.7	0.00e+00	0	44	0	1879048192	41	3912
2026-01-27 03:35:26.71	52.59	47.22	-35.8	-36.6	22.4	0.00e+00	0	44	0	1886388224	41	4092
2026-01-27 03:35:27.71	52.98	47.46	-35.7	-36.6	22.4	0.00e+00	0	44	0	1893728256	41	4053
2026-01-27 03:35:28.71	53.38	47.70	-35.9	-36.8	22.2	0.00e+00	0	44	0	1901068288	41	4167
2026-01-27 03:35:29.71	53.78	47.94	-36.1	-37.0	22.1	0.00e+00	0	44	0	1908408320	41	4277
2026-01-27 03:35:30.72	54.19	48.18	-36.0	-36.8	22.1	0.00e+00	0	44	0	1914699776	42	3949
2026-01-27 03:35:31.72	54.60	48.42	-36.2	-37.0	22.0	0.00e+00	0	44	0	1922039808	42	4050
2026-01-27 03:35:32.72	55.02	48.66	-36.1	-36.9	22.1	0.00e+00	0	44	0	1929379840	42	3991
2026-01-27 03:35:33.72	55.44	48.90	-36.3	-37.2	21.9	0.00e+00	0	44	0	1936719872	42	4110
2026-01-27 03:35:34.72	55.87	49.13	-36.2	-37.1	22.0	0.00e+00	0	44	0	1944059904	42	4061
2026-01-27 03:35:35.72	56.31	49.37	-36.3	-37.2	21.9	0.00e+00	0	44	0	1951399936	42	4132
2026-01-27 03:35:36.72	56.76	49.61	-36.3	-37.2	21.9	0.00e+00	0	44	0	1958739968	42	4113
2026-01-27 03:35:37.72	57.21	49.84	-36.6	-37.6	21.6	0.00e+00	0	44	0	1966080000	43	4055
2026-01-27 03:35:38.72	57.67	50.08	-36.5	-37.4	21.7	0.00e+00	0	44	0	1972371456	43	3993
2026-01-27 03:35:39.72	58.14	50.31	-36.6	-37.5	21.6	0.00e+00	0	44	0	1979711488	43	4035
2026-01-27 03:35:40.72	58.61	50.55	-36.4	-37.3	21.7	0.00e+00	0	44	0	1987051520	43	3918
2026-01-27 03:35:41.72	59.09	50.78	-36.2	-37.1	22.0	0.00e+00	0	44	0	1994391552	43	3842
2026-01-27 03:35:42.72	59.58	51.01	-36.2	-37.0	22.0	0.00e+00	0	44	0	2001731584	43	3816
2026-01-27 03:35:43.72	60.07	51.24	-36.6	-37.5	21.6	0.00e+00	0	44	0	2009071616	43	4016
2026-01-27 03:35:44.72	60.58	51.47	-36.8	-37.7	21.5	0.00e+00	0	44	0	2016411648	43	4113
2026-01-27 03:35:45.72	61.09	51.70	-36.9	-37.8	21.3	0.00e+00	0	44	0	2023751680	43	4192
2026-01-27 03:35:46.71	61.60	51.93	-36.8	-37.7	21.4	0.00e+00	0	44	0	2031091712	43	4128
2026-01-27 03:35:47.71	62.13	52.15	-36.6	-37.4	21.7	0.00e+00	0	44	0	2037383168	43	4004
2026-01-27 03:35:48.71	62.66	52.38	-36.5	-37.4	21.7	0.00e+00	0	44	0	2044723200	43	3965
2026-01-27 03:35:49.72	63.21	52.60	-36.3	-37.2	21.9	0.00e+00	0	44	0	2052063232	43	3889
2026-01-27 03:35:50.72	63.76	52.82	-36.4	-37.2	21.8	0.00e+00	0	44	0	2059403264	43	3910
2026-01-27 03:35:51.72	64.32	53.04	-36.4	-37.3	21.8	0.00e+00	0	44	0	2066743296	43	3943
2026-01-27 03:35:52.71	64.89	53.26	-36.5	-37.4	21.8	0.00e+00	0	44	0	2074083328	43	3971
2026-01-27 03:35:53.71	65.46	53.48	-36.8	-37.7	21.3	0.00e+00	0	44	0	2081423360	43	4130
2026-01-27 03:35:54.72	66.05	53.69	-36.9	-37.8	21.4	0.00e+00	0	44	0	2088763392	43	4158
2026-01-27 03:35:55.72	66.65	53.90	-36.4	-37.3	21.8	0.00e+00	0	44	0	2095054848	43	3921
2026-01-27 03:35:56.72	67.25	54.11	-36.0	-36.9	22.2	0.00e+00	0	44	0	2102394880	42	3975
2026-01-27 03:35:57.72	67.86	54.32	-35.9	-36.7	22.3	0.00e+00	0	44	0	2109734912	42	3899
2026-01-27 03:35:58.72	68.48	54.53	-36.2	-37.0	22.1	0.00e+00	0	44	0	2117074944	42	4031
2026-01-27 03:35:59.72	69.11	54.73	-36.4	-37.3	21.8	0.00e+00	0	44	0	2124414976	42	4154
2026-01-27 03:36:00.71	69.74	54.93	-36.4	-37.3	21.8	0.00e+00	0	44	0	2131755008	42	4185
2026-01-27 03:36:01.72	70.39	55.12	-36.4	-37.3	21.8	0.00e+00	0	44	0	2139095040	42	4173
2026-01-27 03:36:02.72	71.05	55.32	-36.5	-37.3	21.8	0.00e+00	0	44	0	2146435072	42	4192
2026-01-27 03:36:03.72	71.71	55.51	-36.7	-37.6	21.6	0.00e+00	0	44	0	2153775104	42	4303
2026-01-27 03:36:04.72	72.39	55.70	-36.8	-37.7	21.4	0.00e+00	0	44	0	2160066560	43	4116
2026-01-27 03:36:05.72	73.07	55.88	-36.7	-37.6	21.6	0.00e+00	0	44	0	2167406592	43	4057
2026-01-27 03:36:06.71	73.75	56.06	-36.5	-37.4	21.6	0.00e+00	0	44	0	2174746624	43	3990
2026-01-27 03:36:07.72	74.46	56.24	-36.9	-37.8	21.3	0.00e+00	0	44	0	2182086656	43	4193
2026-01-27 03:36:08.72	75.17	56.42	-37.3	-38.3	21.1	0.00e+00	0	44	0	2189426688	44	4146
2026-01-27 03:36:09.72	75.89	56.59	-37.1	-38.0	21.3	0.00e+00	0	44	0	2196766720	44	4046
2026-01-27 03:36:10.73	76.62	56.76	-36.8	-37.7	21.6	0.00e+00	0	44	0	2204106752	44	3902
2026-01-27 03:36:11.73	77.36	56.92	-36.4	-37.3	21.8	0.00e+00	0	44	0	2211446784	43	3956
2026-01-27 03:36:12.72	78.10	57.08	-36.3	-37.2	21.9	0.00e+00	0	44	0	2218786816	43	3891
2026-01-27 03:36:13.73	78.86	57.23	-36.3	-37.2	21.9	0.00e+00	0	44	0	2226126848	43	3894
2026-01-27 03:36:14.73	79.62	57.38	-36.6	-37.5	21.7	0.00e+00	0	44	0	2233466880	43	4006
2026-01-27 03:36:15.73	80.39	57.53	-36.7	-37.6	21.6	0.00e+00	0	44	0	2240806912	43	4066
2026-01-27 03:36:16.73	81.17	57.67	-37.0	-38.0	21.2	0.00e+00	0	44	0	2247098368	43	4263
2026-01-27 03:36:17.73	81.95	57.81	-36.8	-37.8	21.3	0.00e+00	0	44	0	2254438400	43	4151
2026-01-27 03:36:18.73	82.75	57.94	-36.6	-37.5	21.6	0.00e+00	0	44	0	2261778432	43	4020
2026-01-27 03:36:19.73	83.55	58.07	-36.2	-37.1	22.0	0.00e+00	0	44	0	2269118464	43	3850
2026-01-27 03:36:20.73	84.36	58.19	-36.2	-37.1	22.0	0.00e+00	0	44	0	2276458496	42	4085
2026-01-27 03:36:21.73	85.17	58.31	-36.3	-37.2	21.9	0.00e+00	0	44	0	2283798528	42	4100
2026-01-27 03:36:22.73	86.00	58.42	-36.2	-37.1	22.0	0.00e+00	0	44	0	2291138560	42	4058
2026-01-27 03:36:23.73	86.83	58.53	-36.2	-37.1	22.0	0.00e+00	0	44	0	2298478592	42	4055
2026-01-27 03:36:24.73	87.66	58.63	-36.2	-37.1	22.0	0.00e+00	0	44	0	2304770048	42	4081
2026-01-27 03:36:25.74	88.51	58.72	-36.4	-37.3	21.9	0.00e+00	0	44	0	2312110080	42	4188
2026-01-27 03:36:26.73	89.35	58.81	-36.4	-37.3	21.8	0.00e+00	0	44	0	2319450112	43	3942
2026-01-27 03:36:27.73	90.21	58.90	-36.6	-37.5	21.6	0.00e+00	0	44	0	2326790144	43	4017
2026-01-27 03:36:28.73	91.07	58.98	-36.8	-37.7	21.4	0.00e+00	0	44	0	2334130176	43	4112
2026-01-27 03:36:29.73	91.93	59.05	-36.8	-37.7	21.3	0.00e+00	0	44	0	2341470208	43	4128
2026-01-27 03:36:30.73	92.80	59.12	-36.6	-37.5	21.5	0.00e+00	0	44	0	2348810240	43	4051
2026-01-27 03:36:31.73	93.68	59.18	-36.1	-37.0	22.1	0.00e+00	0	44	0	2356150272	43	3798
2026-01-27 03:36:32.73	94.55	59.24	-36.1	-37.0	22.1	0.00e+00	0	44	0	2363490304	42	4015
2026-01-27 03:36:33.74	95.45	59.28	-36.2	-37.1	22.0	0.00e+00	0	44	0	2369781760	42	4067
2026-01-27 03:36:34.74	96.33	59.33	-35.9	-36.8	22.2	0.00e+00	0	44	0	2377121792	42	3929
2026-01-27 03:36:35.74	97.22	59.37	-36.0	-36.9	22.1	0.00e+00	0	44	0	2384461824	42	3998
2026-01-27 03:36:36.74	98.11	59.40	-36.3	-37.1	22.0	0.00e+00	0	44	0	2391801856	42	4095
2026-01-27 03:36:37.74	99.00	59.42	-36.3	-37.2	21.9	0.00e+00	0	44	0	2399141888	42	4111
2026-01-27 03:36:38.74	99.89	59.44	-36.2	-37.1	22.0	0.00e+00	0	44	0	2406481920	42	4076
2026-01-27 03:36:39.74	100.78	59.45	-36.3	-37.2	21.7	0.00e+00	0	44	0	2413821952	42	4138
2026-01-27 03:36:40.74	101.68	59.46	-36.4	-37.3	21.8	0.00e+00	0	44	0	2421161984	42	4184
2026-01-27 03:36:41.75	102.58	59.46	-36.5	-37.5	21.6	0.00e+00	0	44	0	2428502016	42	4247
2026-01-27 03:36:42.75	103.48	59.45	-36.7	-37.6	21.6	0.00e+00	0	44	0	2434793472	42	4301
2026-01-27 03:36:43.75	104.37	59.44	-36.6	-37.5	21.5	0.00e+00	0	44	0	2442133504	42	4284
2026-01-27 03:36:44.75	105.26	59.42	-36.7	-37.6	21.5	0.00e+00	0	44	0	2449473536	42	4297
2026-01-27 03:36:45.74	106.15	59.39	-36.7	-37.6	21.5	0.00e+00	0	44	0	2456813568	43	4093
2026-01-27 03:36:46.74	107.04	59.36	-36.4	-37.2	21.7	0.00e+00	0	44	0	2464153600	43	3908
2026-01-27 03:36:47.74	107.92	59.32	-36.5	-37.4	21.7	0.00e+00	0	44	0	2471493632	43	3961
2026-01-27 03:36:48.74	108.81	59.28	-36.4	-37.3	21.8	0.00e+00	0	44	0	2478833664	43	3940
2026-01-27 03:36:49.74	109.69	59.23	-36.5	-37.4	21.7	0.00e+00	0	44	0	2486173696	43	3998
2026-01-27 03:36:50.75	110.58	59.17	-36.6	-37.5	21.6	0.00e+00	0	44	0	2492465152	43	4048
2026-01-27 03:36:51.75	111.45	59.11	-36.6	-37.5	21.6	0.00e+00	0	44	0	2499805184	43	4039
2026-01-27 03:36:52.75	112.32	59.04	-36.6	-37.5	21.6	0.00e+00	0	44	0	2507145216	43	4050
2026-01-27 03:36:53.75	113.18	58.97	-36.6	-37.5	21.5	0.00e+00	0	44	0	2514485248	43	4042
2026-01-27 03:36:54.75	114.04	58.89	-36.5	-37.4	21.6	0.00e+00	0	44	0	2521825280	43	4003
2026-01-27 03:36:55.75	114.90	58.80	-36.6	-37.6	21.6	0.00e+00	0	44	0	2529165312	43	4052
2026-01-27 03:36:56.75	115.75	58.71	-36.6	-37.5	21.6	0.00e+00	0	44	0	2536505344	43	4041
2026-01-27 03:36:57.75	116.59	58.62	-36.6	-37.5	21.6	0.00e+00	0	44	0	2543845376	43	4025
2026-01-27 03:36:58.74	117.42	58.52	-36.4	-37.3	21.8	0.00e+00	0	44	0	2551185408	43	3936
2026-01-27 03:36:59.74	118.25	58.41	-36.5	-37.4	21.8	0.00e+00	0	44	0	2557476864	43	3959
2026-01-27 03:37:00.74	119.07	58.30	-36.6	-37.5	21.7	0.00e+00	0	44	0	2564816896	43	4007
2026-01-27 03:37:01.74	119.89	58.18	-37.1	-38.0	21.1	0.00e+00	0	44	0	2572156928	43	4276
2026-01-27 03:37:02.74	120.70	58.05	-37.4	-38.4	20.8	0.00e+00	0	44	0	2579496960	44	4213
2026-01-27 03:37:03.74	121.50	57.93	-37.2	-38.1	21.2	0.00e+00	0	44	0	2586836992	44	4068
2026-01-27 03:37:04.74	122.30	57.79	-36.8	-37.7	21.5	0.00e+00	0	44	0	2594177024	44	3893
2026-01-27 03:37:05.74	123.08	57.66	-36.3	-37.2	21.9	0.00e+00	0	44	0	2601517056	43	3895
2026-01-27 03:37:06.74	123.86	57.51	-36.4	-37.3	21.9	0.00e+00	0	44	0	2608857088	43	3924
2026-01-27 03:37:07.74	124.63	57.37	-36.4	-37.3	21.8	0.00e+00	0	44	0	2616197120	43	3942
2026-01-27 03:37:08.74	125.39	57.22	-36.3	-37.1	22.0	0.00e+00	0	44	0	2622488576	43	3854
2026-01-27 03:37:09.74	126.15	57.06	-36.4	-37.3	21.7	0.00e+00	0	44	0	2629828608	43	3929
2026-01-27 03:37:10.74	126.89	56.90	-36.5	-37.4	21.7	0.00e+00	0	44	0	2637168640	43	3966
2026-01-27 03:37:11.74	127.63	56.74	-36.6	-37.5	21.7	0.00e+00	0	44	0	2644508672	43	4026
2026-01-27 03:37:12.74	128.35	56.57	-36.5	-37.4	21.7	0.00e+00	0	44	0	2651848704	43	3992
2026-01-27 03:37:13.74	129.07	56.40	-36.8	-37.7	21.5	0.00e+00	0	44	0	2659188736	43	4109
2026-01-27 03:37:14.74	129.78	56.22	-36.9	-37.8	21.4	0.00e+00	0	44	0	2666528768	43	4152
2026-01-27 03:37:15.74	130.48	56.04	-36.8	-37.7	21.5	0.00e+00	0	44	0	2673868800	43	4105
2026-01-27 03:37:16.74	131.18	55.86	-36.6	-37.5	21.6	0.00e+00	0	44	0	2680160256	43	4034
2026-01-27 03:37:17.74	131.86	55.68	-36.6	-37.5	21.6	0.00e+00	0	44	0	2687500288	43	4042
2026-01-27 03:37:18.74	132.53	55.49	-37.0	-38.0	21.1	0.00e+00	0	44	0	2694840320	43	4247
2026-01-27 03:37:19.74	133.20	55.29	-36.9	-37.8	21.2	0.00e+00	0	44	0	2702180352	43	4165
2026-01-27 03:37:20.75	133.86	55.10	-36.8	-37.7	21.5	0.00e+00	0	44	0	2709520384	43	4118
2026-01-27 03:37:21.74	134.50	54.90	-36.7	-37.6	21.5	0.00e+00	0	44	0	2716860416	43	4076
2026-01-27 03:37:22.74	135.14	54.70	-36.7	-37.6	21.5	0.00e+00	0	44	0	2724200448	43	4092
2026-01-27 03:37:23.74	135.77	54.50	-36.8	-37.7	21.4	0.00e+00	0	44	0	2731540480	43	4128
2026-01-27 03:37:24.75	136.39	54.29	-36.7	-37.6	21.5	0.00e+00	0	44	0	2738880512	43	4081
2026-01-27 03:37:25.75	137.01	54.08	-36.5	-37.4	21.7	0.00e+00	0	44	0	2745171968	43	3996
2026-01-27 03:37:26.75	137.61	53.87	-36.6	-37.5	21.7	0.00e+00	0	44	0	2752512000	43	4021
2026-01-27 03:37:27.75	138.20	53.66	-36.8	-37.7	21.5	0.00e+00	0	44	0	2759852032	43	4121
2026-01-27 03:37:28.75	138.79	53.44	-36.8	-37.7	21.4	0.00e+00	0	44	0	2767192064	43	4129
2026-01-27 03:37:29.75	139.36	53.23	-36.7	-37.6	21.5	0.00e+00	0	44	0	2774532096	43	4070
2026-01-27 03:37:30.74	139.93	53.01	-36.6	-37.5	21.6	0.00e+00	0	44	0	2781872128	43	4026
2026-01-27 03:37:31.74	140.49	52.79	-36.5	-37.4	21.7	0.00e+00	0	44	0	2789212160	43	3994
2026-01-27 03:37:32.74	141.04	52.57	-36.7	-37.6	21.1	0.00e+00	0	44	0	2796552192	43	4054
2026-01-27 03:37:33.75	141.59	52.34	-37.0	-37.9	21.2	0.00e+00	0	44	0	2802843648	43	4218
2026-01-27 03:37:34.74	142.12	52.12	-36.8	-37.8	21.4	0.00e+00	0	44	0	2810183680	43	4151
2026-01-27 03:37:35.74	142.64	51.89	-37.1	-38.0	21.0	0.00e+00	0	44	0	2817523712	43	4279
2026-01-27 03:37:36.74	143.16	51.66	-37.2	-38.1	21.0	0.00e+00	0	44	0	2824863744	43	4331
2026-01-27 03:37:37.74	143.68	51.43	-37.3	-38.3	21.0	0.00e+00	0	44	0	2832203776	44	4160
2026-01-27 03:37:38.74	144.18	51.20	-37.3	-38.2	21.1	0.00e+00	0	44	0	2839543808	44	4144
2026-01-27 03:37:39.74	144.68	50.97	-37.0	-37.9	21.1	0.00e+00	0	44	0	2846883840	44	3986
2026-01-27 03:37:40.74	145.16	50.74	-36.9	-37.8	21.4	0.00e+00	0	44	0	2854223872	44	3952
2026-01-27 03:37:41.74	145.64	50.50	-36.9	-37.8	21.5	0.00e+00	0	44	0	2861563904	44	3948
2026-01-27 03:37:42.73	146.11	50.27	-36.8	-37.7	21.5	0.00e+00	0	44	0	2867855360	44	3903
2026-01-27 03:37:43.73	146.58	50.03	-36.9	-37.8	21.5	0.00e+00	0	44	0	2875195392	44	3915
2026-01-27 03:37:44.73	147.04	49.80	-36.4	-37.3	21.8	0.00e+00	0	44	0	2882535424	43	3916
2026-01-27 03:37:45.72	147.49	49.56	-36.2	-37.1	21.9	0.00e+00	0	44	0	2889875456	43	3845
2026-01-27 03:37:46.72	147.93	49.32	-36.3	-37.2	21.9	0.00e+00	0	44	0	2897215488	43	3878
2026-01-27 03:37:47.72	148.37	49.09	-36.4	-37.3	21.8	0.00e+00	0	44	0	2904555520	43	3944
2026-01-27 03:37:48.72	148.80	48.85	-36.5	-37.4	21.7	0.00e+00	0	44	0	2910846976	43	4000
2026-01-27 03:37:49.71	149.23	48.61	-36.5	-37.4	21.7	0.00e+00	0	44	0	2918187008	43	3981
2026-01-27 03:37:50.71	149.64	48.37	-36.7	-37.6	21.4	0.00e+00	0	44	0	2925527040	43	4083
2026-01-27 03:37:51.71	150.06	48.13	-36.7	-37.6	21.5	0.00e+00	0	44	0	2932867072	43	4066
2026-01-27 03:37:52.70	150.46	47.90	-36.6	-37.5	21.6	0.00e+00	0	44	0	2940207104	43	4021
2026-01-27 03:37:53.70	150.86	47.66	-36.4	-37.3	21.8	0.00e+00	0	44	0	2947547136	43	3932
2026-01-27 03:37:54.70	151.25	47.42	-36.1	-37.0	22.1	0.00e+00	0	44	0	2954887168	43	3803
2026-01-27 03:37:55.70	151.64	47.18	-35.8	-36.7	22.4	0.00e+00	0	44	0	2962227200	42	3880
2026-01-27 03:37:56.69	152.02	46.94	-35.7	-36.5	22.5	0.00e+00	0	44	0	2968518656	42	3818
2026-01-27 03:37:57.69	152.40	46.70	-35.7	-36.5	22.5	0.00e+00	0	44	0	2975858688	42	3808
2026-01-27 03:37:58.69	152.77	46.46	-35.7	-36.6	22.4	0.00e+00	0	44	0	2983198720	42	3826
2026-01-27 03:37:59.69	153.14	46.22	-35.7	-36.5	22.4	0.00e+00	0	44	0	2990538752	41	4050
2026-01-27 03:38:00.69	153.50	45.98	-35.8	-36.7	22.2	0.00e+00	0	44	0	2997878784	41	4113
2026-01-27 03:38:01.68	153.85	45.74	-35.8	-36.6	22.4	0.00e+00	0	44	0	3005218816	41	4094
2026-01-27 03:38:02.68	154.20	45.50	-35.7	-36.6	22.4	0.00e+00	0	44	0	3012558848	41	4082
2026-01-27 03:38:03.68	154.54	45.26	-35.5	-36.4	22.6	0.00e+00	0	44	0	3019898880	41	3976
2026-01-27 03:38:04.68	154.88	45.02	-35.4	-36.2	22.8	0.00e+00	0	44	0	3027238912	41	3891
2026-01-27 03:38:05.68	155.21	44.79	-35.1	-35.9	23.0	0.00e+00	0	44	0	3033530368	41	3773
2026-01-27 03:38:06.68	155.54	44.55	-34.8	-35.6	23.1	0.00e+00	0	44	0	3040870400	40	3867
2026-01-27 03:38:07.68	155.87	44.31	-34.9	-35.7	23.3	0.00e+00	0	44	0	3048210432	40	3896
2026-01-27 03:38:08.68	156.19	44.07	-35.0	-35.8	23.0	0.00e+00	0	44	0	3055550464	40	3956
2026-01-27 03:38:09.67	156.50	43.84	-35.2	-36.1	22.2	0.00e+00	0	44	0	3062890496	40	4067
2026-01-27 03:38:10.67	156.81	43.60	-35.5	-36.4	22.6	0.00e+00	0	44	0	3070230528	40	4214
2026-01-27 03:38:11.67	157.12	43.37	-35.6	-36.5	22.3	0.00e+00	0	44	0	3076521984	40	4243
2026-01-27 03:38:12.67	157.42	43.13	-35.7	-36.6	22.4	0.00e+00	0	44	0	3083862016	40	4317
2026-01-27 03:38:13.66	157.71	42.90	-35.6	-36.4	22.6	0.00e+00	0	44	0	3091202048	41	3994
2026-01-27 03:38:14.66	158.01	42.67	-35.3	-36.1	22.3	0.00e+00	0	44	0	3098542080	41	3865
2026-01-27 03:38:15.66	158.30	42.43	-35.2	-36.1	22.9	0.00e+00	0	44	0	3105882112	41	3834
2026-01-27 03:38:16.66	158.58	42.20	-35.1	-35.9	23.0	0.00e+00	0	44	0	3113222144	40	3977
2026-01-27 03:38:17.65	158.86	41.97	-35.0	-35.8	23.1	0.00e+00	0	44	0	3120562176	40	3952
2026-01-27 03:38:18.65	159.14	41.74	-35.1	-36.0	23.0	0.00e+00	0	44	0	3127902208	40	4018
2026-01-27 03:38:19.64	159.41	41.51	-35.2	-36.1	22.9	0.00e+00	0	44	0	3134193664	40	4053
2026-01-27 03:38:20.64	159.68	41.28	-35.2	-36.1	22.8	0.00e+00	0	44	0	3141533696	40	4074
2026-01-27 03:38:21.64	159.94	41.06	-35.2	-36.0	22.9	0.00e+00	0	44	0	3148873728	40	4051
2026-01-27 03:38:22.63	160.20	40.83	-35.1	-35.9	23.0	0.00e+00	0	44	0	3156213760	40	3999
2026-01-27 03:38:23.63	160.46	40.60	-35.1	-35.9	23.0	0.00e+00	0	44	0	3163553792	40	3970
2026-01-27 03:38:24.63	160.72	40.38	-35.1	-35.9	22.9	0.00e+00	0	44	0	3170893824	40	3985
2026-01-27 03:38:25.63	160.97	40.15	-35.1	-36.0	23.0	0.00e+00	0	44	0	3178233856	40	4005
2026-01-27 03:38:26.62	161.21	39.93	-35.2	-36.0	22.9	0.00e+00	0	44	0	3184525312	40	4034
2026-01-27 03:38:27.62	161.46	39.70	-35.3	-36.1	22.8	0.00e+00	0	44	0	3191865344	40	4073
2026-01-27 03:38:28.62	161.70	39.48	-35.4	-36.2	22.7	0.00e+00	0	44	0	3199205376	40	4134
2026-01-27 03:38:29.62	161.94	39.26	-35.4	-36.2	22.7	0.00e+00	0	44	0	3206545408	40	4145
2026-01-27 03:38:30.61	162.17	39.04	-35.3	-36.2	22.4	0.00e+00	0	44	0	3213885440	40	4117
2026-01-27 03:38:31.61	162.40	38.82	-35.3	-36.2	22.7	0.00e+00	0	44	0	3221225472	40	4111
2026-01-27 03:38:32.60	162.63	38.60	-35.2	-36.1	22.8	0.00e+00	0	44	0	3228565504	40	4068
2026-01-27 03:38:33.60	162.86	38.38	-35.2	-36.1	22.9	0.00e+00	0	44	0	3235905536	40	4054
2026-01-27 03:38:34.59	163.08	38.17	-35.1	-36.0	22.9	0.00e+00	0	44	0	3242196992	40	4019
2026-01-27 03:38:35.59	163.30	37.95	-35.1	-35.9	22.9	0.00e+00	0	44	0	3249537024	40	3995
2026-01-27 03:38:36.59	163.51	37.74	-35.3	-36.1	22.8	0.00e+00	0	44	0	3256877056	40	4086
2026-01-27 03:38:37.59	163.73	37.52	-35.2	-36.1	22.9	0.00e+00	0	44	0	3264217088	40	4063
2026-01-27 03:38:38.59	163.94	37.31	-35.3	-36.1	22.8	0.00e+00	0	44	0	3271557120	40	4079
2026-01-27 03:38:39.59	164.15	37.10	-35.2	-36.1	22.8	0.00e+00	0	44	0	3278897152	40	4069
2026-01-27 03:38:40.58	164.35	36.89	-35.1	-35.9	22.9	0.00e+00	0	44	0	3286237184	40	3992
2026-01-27 03:38:41.58	164.56	36.67	-35.2	-36.1	22.9	0.00e+00	0	44	0	3293577216	40	4068
2026-01-27 03:38:42.58	164.76	36.46	-35.1	-36.0	22.8	0.00e+00	0	44	0	3299868672	40	4020
2026-01-27 03:38:43.57	164.96	36.26	-35.1	-35.9	23.0	0.00e+00	0	44	0	3307208704	40	3995
2026-01-27 03:38:44.57	165.15	36.05	-35.1	-36.0	22.9	0.00e+00	0	44	0	3314548736	40	4015
2026-01-27 03:38:45.57	165.35	35.84	-35.2	-36.1	22.9	0.00e+00	0	44	0	3321888768	40	4079
2026-01-27 03:38:46.57	165.54	35.64	-35.2	-36.1	22.9	0.00e+00	0	44	0	3329228800	40	4054
2026-01-27 03:38:47.57	165.73	35.43	-35.2	-36.0	22.9	0.00e+00	0	44	0	3336568832	40	4039
2026-01-27 03:38:48.56	165.91	35.23	-35.2	-36.0	22.9	0.00e+00	0	44	0	3342860288	40	4042
2026-01-27 03:38:49.56	166.10	35.03	-35.1	-35.9	23.0	0.00e+00	0	44	0	3350200320	40	4003
2026-01-27 03:38:50.55	166.28	34.83	-35.0	-35.8	23.0	0.00e+00	0	44	0	3357540352	40	3952
2026-01-27 03:38:51.55	166.46	34.62	-34.9	-35.7	23.2	0.00e+00	0	44	0	3364880384	40	3901
2026-01-27 03:38:52.54	166.63	34.43	-34.9	-35.7	23.2	0.00e+00	0	44	0	3372220416	40	3907
2026-01-27 03:38:53.54	166.81	34.23	-34.9	-35.8	23.1	0.00e+00	0	44	0	3379560448	40	3914
2026-01-27 03:38:54.53	166.98	34.03	-34.8	-35.6	23.3	0.00e+00	0	44	0	3386900480	40	3841
2026-01-27 03:38:55.53	167.15	33.83	-35.0	-35.8	23.1	0.00e+00	0	44	0	3394240512	40	3952
2026-01-27 03:38:56.52	167.32	33.64	-34.9	-35.7	23.2	0.00e+00	0	44	0	3400531968	40	3893
2026-01-27 03:38:57.53	167.49	33.44	-35.0	-35.8	23.1	0.00e+00	0	44	0	3407872000	40	3944
2026-01-27 03:38:58.52	167.66	33.25	-34.9	-35.7	23.1	0.00e+00	0	44	0	3415212032	40	3911
2026-01-27 03:38:59.52	167.82	33.06	-34.9	-35.7	23.1	0.00e+00	0	44	0	3422552064	40	3905
2026-01-27 03:39:00.52	167.98	32.86	-35.0	-35.9	23.0	0.00e+00	0	44	0	3429892096	40	3976
2026-01-27 03:39:01.52	168.14	32.67	-35.1	-36.0	23.0	0.00e+00	0	44	0	3437232128	40	4013
2026-01-27 03:39:02.51	168.30	32.48	-35.1	-36.0	22.7	0.00e+00	0	44	0	3443523584	40	4024
2026-01-27 03:39:03.51	168.46	32.29	-35.2	-36.0	22.9	0.00e+00	0	44	0	3450863616	40	4034
2026-01-27 03:39:04.51	168.61	32.11	-35.2	-36.1	22.9	0.00e+00	0	44	0	3458203648	40	4063
2026-01-27 03:39:05.51	168.76	31.92	-35.2	-36.0	22.8	0.00e+00	0	44	0	3465543680	40	4047
2026-01-27 03:39:06.51	168.92	31.73	-35.2	-36.0	22.9	0.00e+00	0	44	0	3472883712	40	4051
2026-01-27 03:39:07.50	169.06	31.55	-35.2	-36.0	22.9	0.00e+00	0	44	0	3480223744	40	4037
2026-01-27 03:39:08.50	169.21	31.36	-35.1	-35.9	23.0	0.00e+00	0	44	0	3487563776	40	3981
2026-01-27 03:39:09.49	169.36	31.18	-35.0	-35.9	23.0	0.00e+00	0	44	0	3494903808	40	3978
2026-01-27 03:39:10.49	169.50	31.00	-35.0	-35.9	23.0	0.00e+00	0	44	0	3502243840	40	3964
2026-01-27 03:39:11.48	169.64	30.82	-34.9	-35.7	23.2	0.00e+00	0	44	0	3508535296	40	3904
2026-01-27 03:39:12.48	169.79	30.64	-35.0	-35.8	23.1	0.00e+00	0	44	0	3515875328	40	3935
2026-01-27 03:39:13.48	169.93	30.46	-35.1	-35.9	23.0	0.00e+00	0	44	0	3523215360	40	3987
2026-01-27 03:39:14.48	170.07	30.28	-34.9	-35.8	23.1	0.00e+00	0	44	0	3530555392	40	3930
2026-01-27 03:39:15.48	170.20	30.10	-35.0	-35.9	23.0	0.00e+00	0	44	0	3537895424	40	3967
2026-01-27 03:39:16.47	170.34	29.93	-35.0	-35.9	23.0	0.00e+00	0	44	0	3544186880	40	3969
2026-01-27 03:39:17.47	170.47	29.75	-35.0	-35.9	23.0	0.00e+00	0	44	0	3551526912	40	3975
2026-01-27 03:39:18.47	170.60	29.58	-35.1	-36.0	22.9	0.00e+00	0	44	0	3558866944	40	4018
2026-01-27 03:39:19.47	170.74	29.40	-35.2	-36.0	22.9	0.00e+00	0	44	0	3566206976	40	4029
2026-01-27 03:39:20.46	170.86	29.23	-35.2	-36.1	22.8	0.00e+00	0	44	0	3573547008	40	4059
2026-01-27 03:39:21.46	170.99	29.06	-35.3	-36.1	22.8	0.00e+00	0	44	0	3580887040	40	4091
2026-01-27 03:39:22.46	171.12	28.88	-35.4	-36.2	22.7	0.00e+00	0	44	0	3588227072	40	4125
2026-01-27 03:39:23.45	171.25	28.72	-35.4	-36.2	22.7	0.00e+00	0	44	0	3595567104	40	4145
2026-01-27 03:39:24.45	171.37	28.55	-35.4	-36.2	22.7	0.00e+00	0	44	0	3602907136	40	4122
2026-01-27 03:39:25.45	171.50	28.38	-35.4	-36.3	22.7	0.00e+00	0	44	0	3609198592	40	4171
2026-01-27 03:39:26.45	171.62	28.21	-35.5	-36.4	22.6	0.00e+00	0	44	0	3616538624	40	4200
2026-01-27 03:39:27.45	171.74	28.04	-35.5	-36.3	22.6	0.00e+00	0	44	0	3623878656	40	4184
2026-01-27 03:39:28.44	171.86	27.88	-35.5	-36.3	22.6	0.00e+00	0	44	0	3631218688	40	4183
2026-01-27 03:39:29.44	171.98	27.71	-35.4	-36.2	22.7	0.00e+00	0	44	0	3638558720	40	4119
2026-01-27 03:39:30.44	172.09	27.55	-35.3	-36.1	22.8	0.00e+00	0	44	0	3645898752	40	4095
2026-01-27 03:39:31.44	172.21	27.38	-35.3	-36.1	22.8	0.00e+00	0	44	0	3653238784	40	4073
2026-01-27 03:39:32.44	172.33	27.22	-35.3	-36.2	22.7	0.00e+00	0	44	0	3660578816	40	4099
2026-01-27 03:39:33.43	172.44	27.06	-35.3	-36.1	22.8	0.00e+00	0	44	0	3667918848	40	4076
2026-01-27 03:39:34.42	172.55	26.90	-35.3	-36.2	22.7	0.00e+00	0	44	0	3674210304	40	4103
2026-01-27 03:39:35.43	172.66	26.74	-35.3	-36.1	22.8	0.00e+00	0	44	0	3681550336	40	4097
2026-01-27 03:39:36.42	172.77	26.58	-35.3	-36.2	22.7	0.00e+00	0	44	0	3688890368	40	4118
2026-01-27 03:39:37.42	172.88	26.42	-35.4	-36.2	22.7	0.00e+00	0	44	0	3696230400	40	4137
2026-01-27 03:39:38.41	172.99	26.27	-35.4	-36.2	22.7	0.00e+00	0	44	0	3703570432	40	4125
2026-01-27 03:39:39.41	173.10	26.11	-35.4	-36.3	22.6	0.00e+00	0	44	0	3709861888	40	4162
2026-01-27 03:39:40.41	173.21	25.95	-35.5	-36.4	22.6	0.00e+00	0	44	0	3717201920	40	4195
2026-01-27 03:39:41.41	173.31	25.80	-35.5	-36.4	22.6	0.00e+00	0	44	0	3724541952	40	4195
2026-01-27 03:39:42.41	173.42	25.64	-35.5	-36.4	22.6	0.00e+00	0	44	0	3731881984	40	4194
2026-01-27 03:39:43.41	173.52	25.49	-35.6	-36.4	22.5	0.00e+00	0	44	0	3739222016	40	4240
2026-01-27 03:39:44.41	173.62	25.34	-35.5	-36.4	22.5	0.00e+00	0	44	0	3746562048	40	4198
2026-01-27 03:39:45.40	173.72	25.19	-35.4	-36.3	22.6	0.00e+00	0	44	0	3753902080	40	4148
2026-01-27 03:39:46.40	173.82	25.03	-35.4	-36.2	22.6	0.00e+00	0	44	0	3761242112	40	4137
2026-01-27 03:39:47.39	173.92	24.88	-35.4	-36.2	22.7	0.00e+00	0	44	0	3768582144	40	4128
2026-01-27 03:39:48.39	174.02	24.73	-35.3	-36.1	22.8	0.00e+00	0	44	0	3774873600	40	4079
2026-01-27 03:39:49.39	174.12	24.59	-35.3	-36.1	22.8	0.00e+00	0	44	0	3782213632	40	4088
2026-01-27 03:39:50.39	174.22	24.44	-35.2	-36.0	22.8	0.00e+00	0	44	0	3789553664	40	4046
2026-01-27 03:39:51.39	174.31	24.29	-35.2	-36.1	22.8	0.00e+00	0	44	0	3796893696	40	4058
2026-01-27 03:39:52.38	174.41	24.14	-35.3	-36.1	22.8	0.00e+00	0	44	0	3804233728	40	4092
2026-01-27 03:39:53.38	174.50	24.00	-35.3	-36.1	22.8	0.00e+00	0	44	0	3811573760	40	4075
2026-01-27 03:39:54.38	174.60	23.85	-35.2	-36.1	22.8	0.00e+00	0	44	0	3818913792	40	4060
2026-01-27 03:39:55.37	174.69	23.71	-35.2	-36.1	22.6	0.00e+00	0	44	0	3825205248	40	4066
2026-01-27 03:39:56.37	174.78	23.57	-35.2	-36.1	22.8	0.00e+00	0	44	0	3832545280	40	4068
2026-01-27 03:39:57.37	174.87	23.42	-35.3	-36.2	22.7	0.00e+00	0	44	0	3839885312	40	4111
2026-01-27 03:39:58.37	174.96	23.28	-35.3	-36.2	22.7	0.00e+00	0	44	0	3847225344	40	4111
2026-01-27 03:39:59.36	175.05	23.14	-35.4	-36.3	22.6	0.00e+00	0	44	0	3854565376	40	4147
2026-01-27 03:40:00.36	175.14	23.00	-35.5	-36.3	22.6	0.00e+00	0	44	0	3861905408	40	4186
2026-01-27 03:40:01.35	175.23	22.86	-35.5	-36.3	22.6	0.00e+00	0	44	0	3869245440	40	4184
2026-01-27 03:40:02.36	175.32	22.72	-35.6	-36.4	22.5	0.00e+00	0	44	0	3875536896	40	4242
2026-01-27 03:40:03.36	175.40	22.58	-35.6	-36.5	22.4	0.00e+00	0	44	0	3882876928	40	4271
2026-01-27 03:40:04.35	175.49	22.44	-35.7	-36.5	22.4	0.00e+00	0	44	0	3890216960	40	4284
2026-01-27 03:40:05.36	175.58	22.30	-35.7	-36.6	22.3	0.00e+00	0	44	0	3897556992	40	4333
2026-01-27 03:40:06.36	175.66	22.17	-35.8	-36.7	22.3	0.00e+00	0	44	0	3904897024	41	4104
2026-01-27 03:40:07.36	175.74	22.03	-35.9	-36.8	22.1	0.00e+00	0	44	0	3912237056	41	4167
2026-01-27 03:40:08.36	175.83	21.89	-35.9	-36.8	22.1	0.00e+00	0	44	0	3919577088	41	4191
2026-01-27 03:40:09.36	175.91	21.76	-35.9	-36.8	22.1	0.00e+00	0	44	0	3926917120	41	4183
2026-01-27 03:40:10.37	175.99	21.62	-36.0	-36.9	22.0	0.00e+00	0	44	0	3934257152	41	4224
2026-01-27 03:40:11.37	176.07	21.49	-36.1	-37.0	22.0	0.00e+00	0	44	0	3940548608	41	4252
2026-01-27 03:40:12.37	176.15	21.36	-36.1	-37.1	21.9	0.00e+00	0	44	0	3947888640	41	4293
2026-01-27 03:40:13.37	176.23	21.23	-36.2	-37.1	21.9	0.00e+00	0	44	0	3955228672	41	4301
2026-01-27 03:40:14.38	176.31	21.09	-36.1	-37.0	21.9	0.00e+00	0	44	0	3962568704	41	4282
2026-01-27 03:40:15.38	176.39	20.96	-36.1	-37.0	22.0	0.00e+00	0	44	0	3969908736	41	4256
2026-01-27 03:40:16.38	176.47	20.83	-36.2	-37.2	21.8	0.00e+00	0	44	0	3977248768	41	4344
2026-01-27 03:40:17.38	176.55	20.70	-36.2	-37.1	21.9	0.00e+00	0	44	0	3984588800	41	4300
2026-01-27 03:40:18.38	176.62	20.57	-36.0	-36.9	22.0	0.00e+00	0	44	0	3991928832	41	4237
2026-01-27 03:40:19.38	176.70	20.44	-36.1	-37.0	21.9	0.00e+00	0	44	0	3999268864	41	4270
2026-01-27 03:40:20.39	176.78	20.31	-36.3	-37.2	21.8	0.00e+00	0	44	0	4006608896	41	4354
2026-01-27 03:40:21.39	176.85	20.19	-36.1	-37.0	22.0	0.00e+00	0	44	0	4013948928	42	4023
2026-01-27 03:40:22.39	176.93	20.06	-36.2	-37.1	21.9	0.00e+00	0	44	0	4020240384	42	4062
2026-01-27 03:40:23.39	177.00	19.93	-36.1	-37.0	21.9	0.00e+00	0	44	0	4027580416	42	4026
2026-01-27 03:40:24.39	177.07	19.81	-36.1	-37.0	21.9	0.00e+00	0	44	0	4034920448	42	4028
2026-01-27 03:40:25.39	177.14	19.68	-36.1	-37.0	22.0	0.00e+00	0	44	0	4042260480	42	4014
2026-01-27 03:40:26.39	177.22	19.56	-36.1	-37.0	22.0	0.00e+00	0	44	0	4049600512	42	4023
2026-01-27 03:40:27.39	177.29	19.44	-36.3	-37.1	21.8	0.00e+00	0	44	0	4056940544	42	4096
2026-01-27 03:40:28.40	177.36	19.31	-36.2	-37.0	21.9	0.00e+00	0	44	0	4064280576	42	4048
2026-01-27 03:40:29.40	177.43	19.19	-36.1	-37.0	22.0	0.00e+00	0	44	0	4071620608	42	4023
2026-01-27 03:40:30.40	177.50	19.07	-36.2	-37.1	21.9	0.00e+00	0	44	0	4078960640	42	4075
2026-01-27 03:40:31.40	177.57	18.95	-36.2	-37.1	21.9	0.00e+00	0	44	0	4085252096	42	4068
2026-01-27 03:40:32.40	177.64	18.82	-36.3	-37.1	21.8	0.00e+00	0	44	0	4092592128	42	4094
2026-01-27 03:40:33.40	177.71	18.70	-36.3	-37.2	21.7	0.00e+00	0	44	0	4099932160	42	4112
2026-01-27 03:40:34.40	177.77	18.58	-36.4	-37.3	21.7	0.00e+00	0	44	0	4107272192	42	4152
2026-01-27 03:40:35.41	177.84	18.46	-36.3	-37.2	21.7	0.00e+00	0	44	0	4114612224	42	4134
2026-01-27 03:40:36.41	177.91	18.34	-36.4	-37.4	21.6	0.00e+00	0	44	0	4121952256	42	4194
2026-01-27 03:40:37.41	177.97	18.23	-36.5	-37.4	21.6	0.00e+00	0	44	0	4129292288	42	4199
2026-01-27 03:40:38.41	178.04	18.11	-36.5	-37.4	21.6	0.00e+00	0	44	0	4136632320	42	4217
2026-01-27 03:40:39.41	178.11	17.99	-36.5	-37.4	21.5	0.00e+00	0	44	0	4143972352	42	4226
2026-01-27 03:40:40.41	178.17	17.88	-36.6	-37.5	21.5	0.00e+00	0	44	0	4150263808	42	4270
2026-01-27 03:40:41.41	178.23	17.76	-36.7	-37.6	21.3	0.00e+00	0	44	0	4157603840	42	4321
2026-01-27 03:40:42.41	178.30	17.64	-36.7	-37.7	21.3	0.00e+00	0	44	0	4164943872	43	4106
2026-01-27 03:40:43.41	178.36	17.53	-36.7	-37.7	21.3	0.00e+00	0	44	0	4172283904	43	4099
2026-01-27 03:40:44.41	178.42	17.41	-36.7	-37.7	21.3	0.00e+00	0	44	0	4179623936	43	4114
2026-01-27 03:40:45.41	178.49	17.30	-36.8	-37.8	21.2	0.00e+00	0	44	0	4186963968	43	4152
2026-01-27 03:40:46.41	178.55	17.19	-36.8	-37.7	21.3	0.00e+00	0	44	0	4194304000	43	4136
2026-01-27 03:40:47.41	178.61	17.07	-36.9	-37.8	21.1	0.00e+00	0	44	0	4201644032	43	4186
2026-01-27 03:40:48.42	178.67	16.96	-36.8	-37.8	21.2	0.00e+00	0	44	0	4207935488	43	4149
2026-01-27 03:40:49.42	178.73	16.85	-36.9	-37.8	21.1	0.00e+00	0	44	0	4215275520	43	4171
2026-01-27 03:40:50.42	178.79	16.74	-36.8	-37.8	21.2	0.00e+00	0	44	0	4222615552	43	4156
2026-01-27 03:40:51.42	178.85	16.62	-36.8	-37.8	21.2	0.00e+00	0	44	0	4229955584	43	4154
2026-01-27 03:40:52.42	178.91	16.51	-36.9	-37.8	21.1	0.00e+00	0	44	0	4237295616	43	4176
2026-01-27 03:40:53.42	178.97	16.40	-36.8	-37.8	21.2	0.00e+00	0	44	0	4244635648	43	4150
2026-01-27 03:40:54.42	179.03	16.29	-37.0	-37.9	21.0	0.00e+00	0	44	0	4251975680	43	4223
2026-01-27 03:40:55.42	179.09	16.19	-36.9	-37.9	21.1	0.00e+00	0	44	0	4259315712	43	4209
2026-01-27 03:40:56.42	179.15	16.08	-36.9	-37.9	21.1	0.00e+00	0	44	0	4266655744	43	4207
2026-01-27 03:40:57.42	179.20	15.97	-36.9	-37.8	21.1	0.00e+00	0	44	0	4272947200	43	4192
2026-01-27 03:40:58.42	179.26	15.86	-36.9	-37.8	21.1	0.00e+00	0	44	0	4280287232	43	4182
2026-01-27 03:40:59.42	179.32	15.75	-37.0	-38.0	21.0	0.00e+00	0	44	0	4287627264	43	4251
2026-01-27 03:41:00.41	179.37	15.65	-36.9	-37.8	21.1	0.00e+00	0	44	0	4294967296	43	4183
2026-01-27 03:41:01.42	179.43	15.54	-36.9	-37.9	21.1	0.00e+00	0	44	0	4302307328	43	4194
2026-01-27 03:41:02.41	179.48	15.43	-36.9	-37.9	21.0	0.00e+00	0	44	0	4309647360	43	4209
2026-01-27 03:41:03.41	179.54	15.33	-37.0	-38.0	21.0	0.00e+00	0	44	0	4316987392	43	4252
2026-01-27 03:41:04.41	179.59	15.22	-37.0	-38.0	21.0	0.00e+00	0	44	0	4324327424	43	4265
2026-01-27 03:41:05.41	179.65	15.12	-36.9	-37.9	21.1	0.00e+00	0	44	0	4331667456	43	4208
2026-01-27 03:41:06.42	179.70	15.01	-37.1	-38.1	20.8	0.00e+00	0	44	0	4337958912	43	4311
2026-01-27 03:41:07.42	179.76	14.91	-37.1	-38.1	20.9	0.00e+00	0	44	0	4345298944	43	4305
2026-01-27 03:41:08.42	179.81	14.81	-37.2	-38.2	20.8	0.00e+00	0	44	0	4352638976	43	4373
2026-01-27 03:41:09.42	179.86	14.70	-37.3	-38.3	20.8	0.00e+00	0	44	0	4359979008	44	4182
2026-01-27 03:41:10.42	179.92	14.60	-37.4	-38.4	20.7	0.00e+00	0	44	0	4367319040	44	4221
2026-01-27 03:41:11.42	179.97	14.50	-37.4	-38.4	20.7	0.00e+00	0	44	0	4374659072	44	4199
2026-01-27 03:41:12.42	180.02	14.40	-37.4	-38.4	20.7	0.00e+00	0	44	0	4381999104	44	4225
2026-01-27 03:41:13.42	180.07	14.30	-37.4	-38.4	20.7	0.00e+00	0	44	0	4389339136	44	4226
2026-01-27 03:41:14.42	180.12	14.19	-37.5	-38.5	20.6	0.00e+00	0	44	0	4395630592	44	4291
2026-01-27 03:41:15.42	180.17	14.09	-37.6	-38.6	20.5	0.00e+00	0	44	0	4402970624	44	4317
2026-01-27 03:41:16.42	180.22	13.99	-37.7	-38.7	20.4	0.00e+00	0	44	0	4410310656	44	4373
2026-01-27 03:41:17.41	180.27	13.89	-37.7	-38.7	20.4	0.00e+00	0	44	0	4417650688	45	4126
2026-01-27 03:41:18.42	180.32	13.79	-37.7	-38.8	20.4	0.00e+00	0	44	0	4424990720	45	4153
2026-01-27 03:41:19.42	180.37	13.69	-37.7	-38.7	20.3	0.00e+00	0	44	0	4432330752	45	4144
2026-01-27 03:41:20.42	180.42	13.60	-37.7	-38.7	20.4	0.00e+00	0	44	0	4439670784	45	4144
2026-01-27 03:41:21.42	180.47	13.50	-37.8	-38.8	20.3	0.00e+00	0	44	0	4447010816	45	4175
2026-01-27 03:41:22.42	180.52	13.40	-37.7	-38.7	20.4	0.00e+00	0	44	0	4454350848	45	4143
2026-01-27 03:41:23.42	180.57	13.30	-37.7	-38.8	20.3	0.00e+00	0	44	0	4460642304	45	4150
2026-01-27 03:41:24.42	180.62	13.21	-37.8	-38.9	20.2	0.00e+00	0	44	0	4467982336	45	4207
2026-01-27 03:41:25.42	180.67	13.11	-37.8	-38.9	20.2	0.00e+00	0	44	0	4475322368	45	4216
2026-01-27 03:41:26.42	180.71	13.01	-37.8	-38.9	20.2	0.00e+00	0	44	0	4482662400	45	4220
2026-01-27 03:41:27.42	180.76	12.92	-37.9	-38.9	20.1	0.00e+00	0	44	0	4490002432	45	4240
2026-01-27 03:41:28.42	180.81	12.82	-37.8	-38.9	20.2	0.00e+00	0	44	0	4497342464	45	4202
2026-01-27 03:41:29.42	180.86	12.73	-37.8	-38.9	20.2	0.00e+00	0	44	0	4504682496	45	4209
2026-01-27 03:41:30.43	180.90	12.63	-37.9	-38.9	20.0	0.00e+00	0	44	0	4512022528	45	4229
2026-01-27 03:41:31.43	180.95	12.53	-38.0	-39.1	20.0	0.00e+00	0	44	0	4519362560	45	4292
2026-01-27 03:41:32.43	180.99	12.44	-38.0	-39.1	20.0	0.00e+00	0	44	0	4526702592	45	4314
2026-01-27 03:41:33.43	181.04	12.35	-38.0	-39.0	20.0	0.00e+00	0	44	0	4534042624	45	4291
2026-01-27 03:41:34.43	181.09	12.25	-37.9	-39.0	20.1	0.00e+00	0	44	0	4540334080	45	4271
2026-01-27 03:41:35.43	181.13	12.16	-38.0	-39.1	20.0	0.00e+00	0	44	0	4547674112	45	4328
2026-01-27 03:41:36.43	181.18	12.07	-38.1	-39.2	19.9	0.00e+00	0	44	0	4555014144	45	4344
2026-01-27 03:41:37.43	181.22	11.97	-38.2	-39.3	19.8	0.00e+00	0	44	0	4562354176	45	4392
2026-01-27 03:41:38.42	181.26	11.88	-38.2	-39.2	19.8	0.00e+00	0	44	0	4569694208	45	4386
2026-01-27 03:41:39.43	181.31	11.79	-38.3	-39.4	19.7	0.00e+00	0	44	0	4577034240	46	4200
2026-01-27 03:41:40.43	181.35	11.70	-38.1	-39.2	19.8	0.00e+00	0	44	0	4584374272	46	4134
