passes_logs/2026/01/27/T1/T1__20260127_104122_SUOMI_NPP_rec.log

#Pass ID: 20260127_104122_SUOMI NPP
#Satellite: SUOMI NPP
#Configuration: NPP
#almurnet v.1.7.20251203
#Start time: 2026-01-27 10:41:23

#Version: 2.0.20230620
#Station: T1
#Location: 37.570604 lon 55.790049 lat
#TLE: 1 37849U 11061A   26026.87508736  .00000176  00000+0  10464-3 0  9991
#TLE: 2 37849  98.7822 328.8221 0002127  43.3055 316.8288 14.19530452738397

#Time	Az	El	Level	Level2	SNR	BER	BlckErr	Temp	State	Recorded	gain1	gain2
2026-01-27 10:41:23.70	181.96	5.07	-50.4	-65.7	3.8	1.49e+00	0	40	0	0	71	22200
2026-01-27 10:41:24.69	182.00	5.14	-50.3	-65.7	3.8	1.49e+00	0	40	104	0	72	21015
2026-01-27 10:41:25.69	182.04	5.21	-50.5	-65.7	3.8	1.49e+00	0	40	104	0	72	20965
2026-01-27 10:41:26.68	182.08	5.28	-50.6	-65.7	3.8	1.49e+00	0	40	104	0	72	20924
2026-01-27 10:41:27.67	182.12	5.35	-50.2	-65.7	3.8	1.49e+00	0	40	104	0	72	20918
2026-01-27 10:41:28.67	182.16	5.42	-50.4	-65.7	3.8	1.49e+00	0	41	104	0	72	20995
2026-01-27 10:41:29.66	182.20	5.49	-50.5	-65.8	3.8	1.49e+00	0	41	104	0	72	21045
2026-01-27 10:41:30.65	182.24	5.56	-50.4	-65.7	3.8	1.49e+00	0	41	104	0	72	20804
2026-01-27 10:41:31.65	182.28	5.63	-50.1	-65.7	3.8	1.49e+00	0	40	104	0	72	20864
2026-01-27 10:41:32.64	182.32	5.70	-50.3	-65.7	3.8	1.49e+00	0	41	104	0	72	20822
2026-01-27 10:41:33.63	182.36	5.77	-50.4	-65.7	3.8	1.49e+00	0	41	104	0	72	20905
2026-01-27 10:41:34.63	182.40	5.85	-50.2	-65.6	3.8	1.49e+00	0	40	104	0	72	20659
2026-01-27 10:41:35.62	182.44	5.92	-50.4	-65.6	3.8	1.49e+00	0	41	104	0	72	20565
2026-01-27 10:41:36.61	182.49	5.99	-50.3	-65.6	3.8	1.49e+00	0	41	104	0	72	20589
2026-01-27 10:41:37.60	182.53	6.06	-50.3	-65.6	3.8	1.49e+00	0	41	104	0	72	20614
2026-01-27 10:41:38.60	182.57	6.13	-50.3	-65.6	3.8	1.49e+00	0	41	104	0	72	20586
2026-01-27 10:41:39.59	182.61	6.20	-50.3	-65.5	3.8	1.49e+00	0	41	104	0	72	20439
2026-01-27 10:41:40.58	182.65	6.28	-50.1	-65.5	3.8	1.49e+00	0	41	104	0	72	20376
2026-01-27 10:41:41.57	182.70	6.35	-49.7	-65.4	3.8	1.49e+00	0	41	104	0	71	21505
2026-01-27 10:41:42.57	182.74	6.42	-49.6	-65.2	3.8	1.49e+00	0	41	104	0	70	22042
2026-01-27 10:41:43.56	182.78	6.49	-49.5	-65.3	3.8	1.49e+00	0	41	104	0	70	22373
2026-01-27 10:41:44.55	182.83	6.57	-49.0	-65.3	3.8	1.49e+00	0	41	104	0	70	22367
2026-01-27 10:41:45.55	182.87	6.64	-49.4	-65.2	3.8	1.49e+00	0	41	104	0	70	22053
2026-01-27 10:41:46.54	182.91	6.71	-49.1	-65.0	3.8	1.49e+00	0	41	104	0	70	21526
2026-01-27 10:41:47.53	182.96	6.79	-49.0	-63.1	3.8	1.49e+00	0	41	104	0	69	18324
2026-01-27 10:41:48.52	183.00	6.86	-48.9	-62.5	4.0	1.49e+00	0	41	104	0	69	17137
2026-01-27 10:41:49.52	183.04	6.93	-48.9	-62.3	4.0	1.48e+00	0	41	104	0	69	16785
2026-01-27 10:41:50.51	183.09	7.01	-48.9	-62.3	4.0	1.47e+00	0	41	104	0	69	16844
2026-01-27 10:41:51.50	183.13	7.08	-48.9	-62.5	4.0	1.48e+00	0	41	104	0	69	17208
2026-01-27 10:41:52.50	183.18	7.16	-48.9	-62.8	3.8	1.48e+00	0	41	104	0	69	17819
2026-01-27 10:41:53.49	183.22	7.23	-48.9	-62.4	3.9	1.48e+00	0	41	104	0	69	17055
2026-01-27 10:41:54.49	183.27	7.31	-48.8	-60.9	4.3	1.41e+00	0	41	0	0	69	14359
2026-01-27 10:41:55.48	183.31	7.38	-48.6	-59.1	5.1	9.25e-01	0	41	0	1048576	69	11637
2026-01-27 10:41:56.47	183.36	7.46	-48.2	-56.8	6.9	4.57e-01	0	41	0	3145728	68	9452
2026-01-27 10:41:57.47	183.41	7.53	-47.7	-54.8	8.7	7.45e-02	0	42	0	5242880	67	7928
2026-01-27 10:41:58.46	183.45	7.61	-47.2	-53.2	10.3	1.44e-02	0	41	0	7340032	66	6982
2026-01-27 10:41:59.45	183.50	7.68	-46.6	-51.8	11.7	2.36e-03	0	41	0	8388608	65	6302
2026-01-27 10:42:00.44	183.55	7.76	-46.2	-50.9	12.7	1.23e-04	0	41	0	10485760	64	6009
2026-01-27 10:42:01.44	183.59	7.84	-45.8	-50.1	13.5	2.44e-05	0	42	0	12582912	63	5843
2026-01-27 10:42:02.43	183.64	7.91	-45.4	-49.3	14.4	1.50e-06	0	41	0	14680064	62	5617
2026-01-27 10:42:03.42	183.69	7.99	-45.1	-48.8	14.9	0.00e+00	0	42	0	16777216	61	5620
2026-01-27 10:42:04.41	183.73	8.06	-44.9	-48.5	15.1	0.00e+00	0	42	0	17825792	61	5463
2026-01-27 10:42:05.41	183.78	8.14	-44.9	-48.5	15.1	0.00e+00	0	41	0	19922944	61	5448
2026-01-27 10:42:06.40	183.83	8.22	-44.9	-48.5	15.1	0.00e+00	0	42	0	22020096	61	5444
2026-01-27 10:42:07.39	183.88	8.30	-45.3	-49.1	14.5	7.00e-07	0	42	0	24117248	61	5833
2026-01-27 10:42:08.39	183.93	8.38	-45.4	-49.3	14.3	7.00e-07	0	42	0	25165824	61	5952
2026-01-27 10:42:09.38	183.98	8.45	-45.9	-50.2	13.4	1.50e-06	0	42	0	27262976	62	6267
2026-01-27 10:42:10.37	184.02	8.53	-46.3	-51.0	12.6	2.28e-05	0	42	0	29360128	63	6466
2026-01-27 10:42:11.36	184.07	8.61	-46.6	-51.8	11.7	3.27e-04	0	42	0	31457280	64	6705
2026-01-27 10:42:12.36	184.12	8.69	-47.1	-53.1	10.4	2.08e-03	0	42	0	33554432	64	7738
2026-01-27 10:42:13.35	184.17	8.77	-47.5	-54.1	9.4	9.35e-03	0	42	0	34603008	65	8208
2026-01-27 10:42:14.34	184.22	8.85	-47.9	-55.7	7.8	3.45e-02	0	42	0	36700160	66	9288
2026-01-27 10:42:15.34	184.27	8.93	-48.2	-57.0	6.6	1.57e-01	0	42	0	38797312	66	10859
2026-01-27 10:42:16.33	184.32	9.01	-48.3	-58.1	5.8	3.09e-01	0	42	0	40894464	67	11555
2026-01-27 10:42:17.32	184.38	9.09	-48.5	-59.2	5.0	5.98e-01	0	42	0	41943040	67	13201
2026-01-27 10:42:18.32	184.43	9.17	-48.4	-58.3	5.5	6.90e-01	0	42	0	44040192	67	11855
2026-01-27 10:42:19.31	184.48	9.25	-47.9	-55.9	7.8	1.06e-02	0	42	0	46137344	66	9555
2026-01-27 10:42:20.31	184.53	9.33	-48.8	-61.9	3.9	1.47e+00	0	42	104	47185920	68	17035
2026-01-27 10:42:21.30	184.58	9.41	-48.0	-56.3	7.1	4.84e-01	0	42	0	47185920	68	8955
2026-01-27 10:42:22.29	184.63	9.49	-47.4	-54.2	9.2	1.74e-02	0	42	0	49283072	66	7846
2026-01-27 10:42:23.29	184.69	9.57	-47.2	-53.5	9.9	8.44e-03	0	42	0	51380224	66	7274
2026-01-27 10:42:24.29	184.74	9.65	-47.2	-53.6	10.0	9.52e-03	0	42	0	53477376	66	7347
2026-01-27 10:42:25.28	184.79	9.74	-47.0	-53.0	10.5	6.63e-03	0	42	0	55574528	66	6867
2026-01-27 10:42:26.28	184.85	9.82	-46.6	-52.0	11.5	9.68e-04	0	42	0	56623104	65	6467
2026-01-27 10:42:27.27	184.90	9.90	-46.6	-51.9	11.7	7.80e-04	0	42	0	58720256	65	6398
2026-01-27 10:42:28.26	184.95	9.98	-46.1	-50.6	13.2	9.76e-05	0	42	0	60817408	63	6137
2026-01-27 10:42:29.26	185.01	10.07	-45.6	-49.6	14.1	5.30e-06	0	42	0	62914560	63	5509
2026-01-27 10:42:30.26	185.06	10.15	-45.5	-49.3	14.4	7.00e-07	0	42	0	63963136	62	5643
2026-01-27 10:42:31.25	185.12	10.23	-45.4	-49.2	14.5	7.00e-07	0	42	0	66060288	62	5581
2026-01-27 10:42:32.24	185.17	10.32	-45.5	-49.4	14.3	0.00e+00	0	42	0	68157440	62	5687
2026-01-27 10:42:33.24	185.23	10.40	-45.4	-49.1	14.6	0.00e+00	0	42	0	70254592	62	5504
2026-01-27 10:42:34.23	185.28	10.49	-44.8	-48.1	15.6	0.00e+00	0	42	0	72351744	61	5216
2026-01-27 10:42:35.23	185.34	10.57	-44.7	-48.0	15.8	0.00e+00	0	42	0	73400320	61	5101
2026-01-27 10:42:36.22	185.39	10.66	-44.5	-47.7	16.0	0.00e+00	0	42	0	75497472	61	4974
2026-01-27 10:42:37.21	185.45	10.74	-44.4	-47.5	16.2	0.00e+00	0	42	0	77594624	60	5126
2026-01-27 10:42:38.21	185.51	10.83	-44.4	-47.6	16.2	0.00e+00	0	42	0	79691776	60	5165
2026-01-27 10:42:39.21	185.57	10.91	-44.3	-47.4	16.4	0.00e+00	0	42	0	80740352	60	5055
2026-01-27 10:42:40.20	185.62	11.00	-44.2	-47.2	16.5	0.00e+00	0	42	0	82837504	60	4977
2026-01-27 10:42:41.20	185.68	11.08	-44.3	-47.4	16.4	0.00e+00	0	42	0	84934656	60	5057
2026-01-27 10:42:42.19	185.74	11.17	-44.1	-47.1	16.7	0.00e+00	0	42	0	87031808	60	4898
2026-01-27 10:42:43.19	185.80	11.26	-44.1	-47.0	16.7	0.00e+00	0	42	0	89128960	60	4862
2026-01-27 10:42:44.18	185.86	11.35	-44.0	-46.9	16.9	0.00e+00	0	42	0	90177536	60	4796
2026-01-27 10:42:45.17	185.92	11.43	-43.9	-46.7	17.0	0.00e+00	0	42	0	92274688	59	4968
2026-01-27 10:42:46.17	185.98	11.52	-43.8	-46.6	17.1	0.00e+00	0	42	0	94371840	59	4901
2026-01-27 10:42:47.16	186.04	11.61	-43.7	-46.5	17.2	0.00e+00	0	42	0	96468992	59	4834
2026-01-27 10:42:48.16	186.10	11.70	-43.6	-46.3	17.4	0.00e+00	0	42	0	97517568	59	4729
2026-01-27 10:42:49.15	186.16	11.78	-43.6	-46.2	17.4	0.00e+00	0	42	0	99614720	59	4703
2026-01-27 10:42:50.15	186.22	11.87	-43.7	-46.4	17.2	0.00e+00	0	42	0	101711872	59	4809
2026-01-27 10:42:51.14	186.28	11.96	-43.4	-46.0	17.7	0.00e+00	0	42	0	103809024	58	4867
2026-01-27 10:42:52.14	186.34	12.05	-43.6	-46.3	17.5	0.00e+00	0	42	0	105906176	58	4988
2026-01-27 10:42:53.13	186.40	12.14	-43.5	-46.2	17.5	0.00e+00	0	42	0	106954752	58	4947
2026-01-27 10:42:54.13	186.46	12.23	-43.5	-46.2	17.5	0.00e+00	0	42	0	109051904	58	4951
2026-01-27 10:42:55.12	186.53	12.32	-43.4	-46.0	17.7	0.00e+00	0	42	0	111149056	58	4849
2026-01-27 10:42:56.11	186.59	12.41	-43.5	-46.2	17.5	0.00e+00	0	43	0	113246208	58	4937
2026-01-27 10:42:57.11	186.65	12.50	-43.4	-46.0	17.7	0.00e+00	0	42	0	114294784	58	4832
2026-01-27 10:42:58.11	186.72	12.60	-43.4	-46.0	17.6	0.00e+00	0	42	0	116391936	58	4863
2026-01-27 10:42:59.10	186.78	12.69	-43.5	-46.2	17.5	0.00e+00	0	42	0	118489088	58	4936
2026-01-27 10:43:00.09	186.85	12.78	-43.5	-46.1	17.6	0.00e+00	0	42	0	120586240	58	4902
2026-01-27 10:43:01.09	186.91	12.87	-43.6	-46.3	17.4	0.00e+00	0	42	0	122683392	58	4987
2026-01-27 10:43:02.09	186.98	12.97	-43.5	-46.2	17.5	0.00e+00	0	42	0	123731968	58	4983
2026-01-27 10:43:03.08	187.04	13.06	-43.4	-46.1	17.7	0.00e+00	0	42	0	125829120	58	4901
2026-01-27 10:43:04.07	187.11	13.15	-43.6	-46.3	17.5	0.00e+00	0	42	0	127926272	58	5003
2026-01-27 10:43:05.07	187.18	13.24	-43.5	-46.1	17.6	0.00e+00	0	42	0	130023424	58	4920
2026-01-27 10:43:06.07	187.24	13.34	-43.5	-46.2	17.6	0.00e+00	0	42	0	131072000	58	4939
2026-01-27 10:43:07.06	187.31	13.43	-43.4	-46.1	17.7	0.00e+00	0	42	0	133169152	58	4890
2026-01-27 10:43:08.06	187.38	13.53	-43.5	-46.1	17.6	0.00e+00	0	42	0	135266304	58	4906
2026-01-27 10:43:09.05	187.45	13.62	-43.6	-46.3	17.4	0.00e+00	0	42	0	137363456	58	5040
2026-01-27 10:43:10.05	187.51	13.72	-43.4	-46.0	17.7	0.00e+00	0	42	0	139460608	58	4854
2026-01-27 10:43:11.04	187.58	13.81	-43.3	-45.9	17.8	0.00e+00	0	43	0	140509184	58	4814
2026-01-27 10:43:12.04	187.65	13.91	-43.4	-46.0	17.7	0.00e+00	0	43	0	142606336	58	4866
2026-01-27 10:43:13.03	187.72	14.01	-43.3	-46.0	17.8	0.00e+00	0	42	0	144703488	58	4817
2026-01-27 10:43:14.03	187.79	14.10	-43.4	-46.2	17.6	0.00e+00	0	42	0	146800640	58	4929
2026-01-27 10:43:15.02	187.86	14.20	-43.6	-46.4	17.3	0.00e+00	0	43	0	147849216	58	5077
2026-01-27 10:43:16.02	187.93	14.30	-43.5	-46.2	17.5	0.00e+00	0	42	0	149946368	58	4979
2026-01-27 10:43:17.01	188.01	14.39	-43.5	-46.4	17.5	0.00e+00	0	42	0	152043520	58	5045
2026-01-27 10:43:18.00	188.08	14.49	-43.4	-46.2	17.6	0.00e+00	0	43	0	154140672	58	4933
2026-01-27 10:43:19.00	188.15	14.59	-43.5	-46.3	17.5	0.00e+00	0	42	0	156237824	58	5018
2026-01-27 10:43:19.99	188.22	14.69	-43.3	-46.1	17.7	0.00e+00	0	42	0	157286400	58	4905
2026-01-27 10:43:20.99	188.30	14.79	-43.6	-46.4	17.4	0.00e+00	0	43	0	159383552	58	5077
2026-01-27 10:43:21.99	188.37	14.89	-43.6	-46.4	17.4	0.00e+00	0	42	0	161480704	58	5055
2026-01-27 10:43:22.98	188.45	14.99	-43.4	-46.2	17.6	0.00e+00	0	42	0	163577856	58	4963
2026-01-27 10:43:23.98	188.52	15.09	-43.6	-46.5	17.4	0.00e+00	0	42	0	164626432	58	5106
2026-01-27 10:43:24.97	188.60	15.19	-43.6	-46.4	17.4	0.00e+00	0	42	0	166723584	58	5076
2026-01-27 10:43:25.96	188.67	15.29	-43.6	-46.4	17.4	0.00e+00	0	42	0	168820736	58	5053
2026-01-27 10:43:26.96	188.75	15.39	-43.7	-46.5	17.3	0.00e+00	0	42	0	170917888	58	5116
2026-01-27 10:43:27.96	188.83	15.49	-43.6	-46.3	17.5	0.00e+00	0	42	0	173015040	58	5040
2026-01-27 10:43:28.95	188.90	15.59	-43.6	-46.3	17.5	0.00e+00	0	43	0	174063616	58	5018
2026-01-27 10:43:29.95	188.98	15.70	-43.6	-46.4	17.5	0.00e+00	0	43	0	176160768	58	5051
2026-01-27 10:43:30.94	189.06	15.80	-43.4	-46.1	17.7	0.00e+00	0	42	0	178257920	58	4902
2026-01-27 10:43:31.93	189.14	15.90	-43.4	-46.0	17.8	0.00e+00	0	42	0	180355072	58	4870
2026-01-27 10:43:32.93	189.22	16.01	-43.4	-46.0	17.8	0.00e+00	0	43	0	181403648	58	4868
2026-01-27 10:43:33.92	189.30	16.11	-43.1	-45.7	18.1	0.00e+00	0	42	0	183500800	58	4666
2026-01-27 10:43:34.92	189.38	16.22	-43.1	-45.6	18.1	0.00e+00	0	42	0	185597952	58	4651
2026-01-27 10:43:35.91	189.46	16.32	-43.2	-45.7	18.1	0.00e+00	0	43	0	187695104	58	4660
2026-01-27 10:43:36.91	189.54	16.43	-43.0	-45.4	18.3	0.00e+00	0	42	0	189792256	58	4535
2026-01-27 10:43:37.90	189.62	16.53	-43.0	-45.5	18.3	0.00e+00	0	43	0	190840832	57	4816
2026-01-27 10:43:38.90	189.71	16.64	-42.9	-45.4	18.4	0.00e+00	0	43	0	192937984	57	4771
2026-01-27 10:43:39.89	189.79	16.74	-42.8	-45.2	18.5	0.00e+00	0	42	0	195035136	57	4679
2026-01-27 10:43:40.89	189.87	16.85	-42.6	-45.0	18.7	0.00e+00	0	43	0	197132288	57	4571
2026-01-27 10:43:41.88	189.96	16.96	-42.5	-45.0	18.7	0.00e+00	0	42	0	198180864	57	4550
2026-01-27 10:43:42.88	190.04	17.07	-42.6	-45.1	18.6	0.00e+00	0	42	0	200278016	57	4615
2026-01-27 10:43:43.87	190.13	17.17	-42.7	-45.1	18.6	0.00e+00	0	43	0	202375168	57	4644
2026-01-27 10:43:44.87	190.21	17.28	-42.7	-45.2	18.5	0.00e+00	0	43	0	204472320	57	4701
2026-01-27 10:43:45.87	190.30	17.39	-42.8	-45.3	18.5	0.00e+00	0	43	0	206569472	57	4750
2026-01-27 10:43:46.86	190.39	17.50	-42.8	-45.3	18.4	0.00e+00	0	43	0	207618048	57	4756
2026-01-27 10:43:47.86	190.48	17.61	-43.0	-45.5	18.2	0.00e+00	0	43	0	209715200	57	4861
2026-01-27 10:43:48.85	190.56	17.72	-42.8	-45.4	18.4	0.00e+00	0	43	0	211812352	57	4763
2026-01-27 10:43:49.85	190.65	17.83	-43.0	-45.5	18.2	0.00e+00	0	43	0	213909504	57	4860
2026-01-27 10:43:50.84	190.74	17.94	-43.0	-45.6	18.1	0.00e+00	0	43	0	216006656	57	4879
2026-01-27 10:43:51.83	190.83	18.05	-43.0	-45.5	18.1	0.00e+00	0	42	0	217055232	57	4847
2026-01-27 10:43:52.83	190.92	18.17	-43.0	-45.5	18.2	0.00e+00	0	43	0	219152384	57	4863
2026-01-27 10:43:53.83	191.02	18.28	-43.0	-45.5	18.2	0.00e+00	0	43	0	221249536	57	4860
2026-01-27 10:43:54.82	191.11	18.39	-42.8	-45.3	18.3	0.00e+00	0	43	0	223346688	57	4713
2026-01-27 10:43:55.81	191.20	18.50	-42.8	-45.3	18.4	0.00e+00	0	43	0	224395264	57	4732
2026-01-27 10:43:56.81	191.30	18.62	-42.6	-45.0	18.7	0.00e+00	0	43	0	226492416	57	4564
2026-01-27 10:43:57.80	191.39	18.73	-42.7	-45.1	18.6	0.00e+00	0	43	0	228589568	57	4617
2026-01-27 10:43:58.80	191.48	18.85	-42.6	-45.0	18.7	0.00e+00	0	43	0	230686720	57	4558
2026-01-27 10:43:59.79	191.58	18.96	-42.4	-44.7	19.0	0.00e+00	0	43	0	232783872	56	4682
2026-01-27 10:44:00.79	191.68	19.08	-42.7	-45.0	18.7	0.00e+00	0	43	0	233832448	56	4862
2026-01-27 10:44:01.78	191.77	19.19	-42.5	-44.9	18.8	0.00e+00	0	43	0	235929600	56	4780
2026-01-27 10:44:02.77	191.87	19.31	-42.4	-44.7	19.0	0.00e+00	0	43	0	238026752	56	4698
2026-01-27 10:44:03.77	191.97	19.43	-42.5	-44.8	18.9	0.00e+00	0	43	0	240123904	56	4759
2026-01-27 10:44:04.76	192.07	19.54	-42.5	-44.9	18.9	0.00e+00	0	43	0	241172480	56	4768
2026-01-27 10:44:05.75	192.17	19.66	-42.3	-44.6	19.2	0.00e+00	0	43	0	243269632	56	4615
2026-01-27 10:44:06.75	192.27	19.78	-42.4	-44.7	19.1	0.00e+00	0	43	0	245366784	56	4698
2026-01-27 10:44:07.74	192.37	19.90	-42.5	-44.8	19.0	0.00e+00	0	43	0	247463936	56	4757
2026-01-27 10:44:08.74	192.47	20.02	-42.6	-45.0	18.9	0.00e+00	0	43	0	249561088	56	4825
2026-01-27 10:44:09.73	192.58	20.14	-42.4	-44.8	19.1	0.00e+00	0	43	0	250609664	56	4717
2026-01-27 10:44:10.73	192.68	20.26	-42.7	-45.1	18.8	0.00e+00	0	43	0	252706816	56	4873
2026-01-27 10:44:11.72	192.79	20.38	-42.6	-45.0	18.9	0.00e+00	0	43	0	254803968	56	4825
2026-01-27 10:44:12.72	192.89	20.50	-42.5	-44.9	19.0	0.00e+00	0	43	0	256901120	56	4784
2026-01-27 10:44:13.71	193.00	20.62	-42.8	-45.2	18.7	0.00e+00	0	43	0	257949696	56	4966
2026-01-27 10:44:14.71	193.11	20.75	-42.6	-45.0	18.8	0.00e+00	0	43	0	260046848	56	4854
2026-01-27 10:44:15.71	193.21	20.87	-42.6	-44.9	18.9	0.00e+00	0	42	0	262144000	56	4806
2026-01-27 10:44:16.70	193.32	20.99	-42.8	-45.1	18.7	0.00e+00	0	43	0	264241152	56	4926
2026-01-27 10:44:17.70	193.43	21.12	-42.5	-44.8	19.0	0.00e+00	0	42	0	266338304	56	4735
2026-01-27 10:44:18.70	193.54	21.24	-42.6	-44.9	18.9	0.00e+00	0	42	0	267386880	56	4804
2026-01-27 10:44:19.69	193.65	21.37	-42.6	-44.9	18.9	0.00e+00	0	43	0	269484032	56	4804
2026-01-27 10:44:20.69	193.77	21.49	-42.4	-44.7	19.2	0.00e+00	0	43	0	271581184	56	4660
2026-01-27 10:44:21.68	193.88	21.62	-42.2	-44.4	19.4	0.00e+00	0	43	0	273678336	56	4520
2026-01-27 10:44:22.68	193.99	21.75	-42.3	-44.6	19.3	0.00e+00	0	43	0	274726912	56	4612
2026-01-27 10:44:23.67	194.11	21.87	-42.2	-44.4	19.4	0.00e+00	0	43	0	276824064	56	4498
2026-01-27 10:44:24.67	194.22	22.00	-42.2	-44.4	19.4	0.00e+00	0	43	0	278921216	56	4515
2026-01-27 10:44:25.66	194.34	22.13	-42.2	-44.4	19.3	0.00e+00	0	43	0	281018368	56	4534
2026-01-27 10:44:26.66	194.46	22.26	-42.2	-44.4	19.0	0.00e+00	0	43	0	283115520	56	4528
2026-01-27 10:44:27.66	194.58	22.39	-42.2	-44.5	19.3	0.00e+00	0	43	0	284164096	56	4546
2026-01-27 10:44:28.65	194.70	22.52	-42.3	-44.5	19.3	0.00e+00	0	43	0	286261248	56	4567
2026-01-27 10:44:29.65	194.82	22.65	-42.3	-44.5	19.3	0.00e+00	0	43	0	288358400	56	4574
2026-01-27 10:44:30.64	194.94	22.78	-42.2	-44.4	19.4	0.00e+00	0	43	0	290455552	56	4499
2026-01-27 10:44:31.64	195.06	22.91	-42.0	-44.2	19.6	0.00e+00	0	43	0	291504128	56	4418
2026-01-27 10:44:32.63	195.19	23.04	-42.4	-44.7	19.2	0.00e+00	0	43	0	293601280	56	4656
2026-01-27 10:44:33.63	195.31	23.17	-42.1	-44.3	19.5	0.00e+00	0	43	0	295698432	56	4459
2026-01-27 10:44:34.63	195.44	23.31	-42.2	-44.4	19.4	0.00e+00	0	43	0	297795584	56	4525
2026-01-27 10:44:35.62	195.56	23.44	-42.4	-44.6	19.2	0.00e+00	0	43	0	299892736	56	4636
2026-01-27 10:44:36.62	195.69	23.57	-42.2	-44.5	19.4	0.00e+00	0	43	0	300941312	56	4551
2026-01-27 10:44:37.61	195.82	23.71	-42.4	-44.6	19.2	0.00e+00	0	43	0	303038464	56	4635
2026-01-27 10:44:38.61	195.95	23.84	-42.6	-44.9	18.9	0.00e+00	0	43	0	305135616	56	4810
2026-01-27 10:44:39.60	196.08	23.98	-42.6	-44.9	19.0	0.00e+00	0	43	0	307232768	56	4807
2026-01-27 10:44:40.60	196.21	24.12	-42.6	-44.8	19.0	0.00e+00	0	43	0	308281344	56	4747
2026-01-27 10:44:41.59	196.35	24.25	-42.8	-45.1	18.8	0.00e+00	0	43	0	310378496	56	4881
2026-01-27 10:44:42.58	196.48	24.39	-42.7	-44.9	18.9	0.00e+00	0	43	0	312475648	56	4800
2026-01-27 10:44:43.58	196.62	24.53	-42.8	-45.1	18.8	0.00e+00	0	43	0	314572800	56	4926
2026-01-27 10:44:44.58	196.75	24.67	-42.9	-45.2	18.8	0.00e+00	0	43	0	316669952	56	4940
2026-01-27 10:44:45.57	196.89	24.80	-42.8	-45.1	18.8	0.00e+00	0	43	0	317718528	56	4924
2026-01-27 10:44:46.57	197.03	24.94	-43.0	-45.4	18.6	0.00e+00	0	43	0	319815680	56	5046
2026-01-27 10:44:47.56	197.17	25.08	-43.1	-45.5	18.5	0.00e+00	0	43	0	321912832	56	5113
2026-01-27 10:44:48.56	197.31	25.23	-43.0	-45.3	18.6	0.00e+00	0	43	0	324009984	56	5022
2026-01-27 10:44:49.55	197.45	25.37	-43.1	-45.5	18.5	0.00e+00	0	43	0	325058560	56	5114
2026-01-27 10:44:50.55	197.60	25.51	-43.2	-45.5	18.4	0.00e+00	0	43	0	327155712	56	5142
2026-01-27 10:44:51.54	197.74	25.65	-43.1	-45.5	18.5	0.00e+00	0	43	0	329252864	57	4835
2026-01-27 10:44:52.54	197.89	25.79	-42.8	-45.1	18.8	0.00e+00	0	43	0	331350016	57	4632
2026-01-27 10:44:53.53	198.04	25.94	-43.1	-45.5	18.5	0.00e+00	0	43	0	333447168	57	4831
2026-01-27 10:44:54.53	198.19	26.08	-43.1	-45.4	18.5	0.00e+00	0	43	0	334495744	57	4790
2026-01-27 10:44:55.52	198.34	26.23	-43.1	-45.5	18.4	0.00e+00	0	43	0	336592896	57	4833
2026-01-27 10:44:56.52	198.49	26.37	-43.2	-45.5	18.4	0.00e+00	0	43	0	338690048	57	4868
2026-01-27 10:44:57.52	198.64	26.52	-43.1	-45.5	18.4	0.00e+00	0	43	0	340787200	57	4851
2026-01-27 10:44:58.51	198.80	26.66	-43.4	-45.8	18.2	0.00e+00	0	43	0	342884352	57	5033
2026-01-27 10:44:59.51	198.95	26.81	-43.3	-45.8	18.2	0.00e+00	0	43	0	343932928	57	4992
2026-01-27 10:45:00.50	199.11	26.96	-43.5	-45.9	18.1	0.00e+00	0	43	0	346030080	57	5096
2026-01-27 10:45:01.50	199.27	27.11	-43.4	-45.8	18.1	0.00e+00	0	43	0	348127232	57	5035
2026-01-27 10:45:02.49	199.43	27.26	-43.5	-46.1	17.9	0.00e+00	0	43	0	350224384	57	5160
2026-01-27 10:45:03.49	199.59	27.41	-43.4	-45.8	18.1	0.00e+00	0	43	0	351272960	57	5024
2026-01-27 10:45:04.48	199.75	27.56	-43.5	-46.0	18.0	0.00e+00	0	43	0	353370112	57	5125
2026-01-27 10:45:05.48	199.92	27.71	-43.5	-46.0	18.1	0.00e+00	0	43	0	355467264	58	4840
2026-01-27 10:45:06.47	200.08	27.86	-43.4	-45.9	18.1	0.00e+00	0	43	0	357564416	58	4772
2026-01-27 10:45:07.47	200.25	28.01	-43.7	-46.2	17.8	0.00e+00	0	43	0	359661568	58	4971
2026-01-27 10:45:08.46	200.42	28.16	-44.0	-46.6	17.5	0.00e+00	0	43	0	360710144	58	5175
2026-01-27 10:45:09.46	200.59	28.32	-44.0	-46.6	17.5	0.00e+00	0	43	0	362807296	59	4897
2026-01-27 10:45:10.45	200.76	28.47	-44.2	-46.8	17.2	0.00e+00	0	43	0	364904448	59	5039
2026-01-27 10:45:11.45	200.94	28.62	-44.2	-46.9	17.2	0.00e+00	0	43	0	367001600	59	5079
2026-01-27 10:45:12.44	201.11	28.78	-44.4	-47.1	17.0	0.00e+00	0	43	0	368050176	59	5193
2026-01-27 10:45:13.44	201.29	28.93	-44.7	-47.6	16.6	0.00e+00	0	43	0	370147328	60	5177
2026-01-27 10:45:14.43	201.47	29.09	-45.1	-48.2	16.0	0.00e+00	0	43	0	372244480	60	5537
2026-01-27 10:45:15.43	201.65	29.24	-45.1	-48.1	16.1	0.00e+00	0	43	0	374341632	60	5479
2026-01-27 10:45:16.42	201.83	29.40	-45.2	-48.2	16.0	0.00e+00	0	42	0	376438784	61	5276
2026-01-27 10:45:17.42	202.02	29.56	-45.5	-48.7	15.5	0.00e+00	0	43	0	377487360	61	5533
2026-01-27 10:45:18.41	202.20	29.72	-45.6	-48.8	15.5	0.00e+00	0	43	0	379584512	62	5308
2026-01-27 10:45:19.40	202.39	29.87	-45.7	-48.9	15.3	0.00e+00	0	43	0	381681664	62	5394
2026-01-27 10:45:20.40	202.58	30.03	-45.8	-49.1	15.2	0.00e+00	0	43	0	383778816	62	5479
2026-01-27 10:45:21.39	202.77	30.19	-45.6	-48.8	15.4	0.00e+00	0	43	0	384827392	62	5333
2026-01-27 10:45:22.39	202.96	30.35	-45.3	-48.4	15.8	0.00e+00	0	43	0	386924544	62	5074
2026-01-27 10:45:23.38	203.16	30.51	-45.6	-48.8	15.4	0.00e+00	0	43	0	389021696	62	5306
2026-01-27 10:45:24.38	203.36	30.68	-45.4	-48.6	15.6	0.00e+00	0	43	0	391118848	62	5184
2026-01-27 10:45:25.37	203.55	30.84	-45.5	-48.7	15.6	0.00e+00	0	43	0	393216000	62	5236
2026-01-27 10:45:26.37	203.76	31.00	-45.4	-48.5	15.7	0.00e+00	0	43	0	394264576	62	5137
2026-01-27 10:45:27.36	203.96	31.16	-45.1	-48.1	16.2	0.00e+00	0	43	0	396361728	62	4888
2026-01-27 10:45:28.35	204.16	31.32	-45.1	-48.1	16.1	0.00e+00	0	43	0	398458880	62	4880
2026-01-27 10:45:29.35	204.37	31.49	-44.9	-47.7	16.5	0.00e+00	0	43	0	400556032	61	4973
2026-01-27 10:45:30.35	204.58	31.65	-44.6	-47.4	16.8	0.00e+00	0	43	0	401604608	61	4811
2026-01-27 10:45:31.34	204.79	31.82	-44.6	-47.4	16.9	0.00e+00	0	43	0	403701760	60	5086
2026-01-27 10:45:32.34	205.01	31.98	-44.6	-47.4	16.8	0.00e+00	0	43	0	405798912	60	5053
2026-01-27 10:45:33.33	205.22	32.15	-44.6	-47.4	16.9	0.00e+00	0	43	0	407896064	60	5060
2026-01-27 10:45:34.33	205.44	32.32	-44.7	-47.6	16.6	0.00e+00	0	43	0	409993216	60	5162
2026-01-27 10:45:35.32	205.66	32.48	-44.7	-47.5	16.7	0.00e+00	0	43	0	411041792	60	5130
2026-01-27 10:45:36.32	205.88	32.65	-44.9	-47.8	16.4	0.00e+00	0	43	0	413138944	60	5337
2026-01-27 10:45:37.31	206.10	32.82	-44.8	-47.7	16.5	0.00e+00	0	43	0	415236096	60	5265
2026-01-27 10:45:38.30	206.33	32.99	-44.5	-47.3	17.0	0.00e+00	0	43	0	417333248	60	4989
2026-01-27 10:45:39.30	206.56	33.16	-44.3	-46.9	17.3	0.00e+00	0	43	0	418381824	60	4798
2026-01-27 10:45:40.29	206.79	33.32	-43.9	-46.4	17.8	0.00e+00	0	43	0	420478976	59	4803
2026-01-27 10:45:41.29	207.02	33.49	-44.0	-46.5	17.6	0.00e+00	0	43	0	422576128	59	4851
2026-01-27 10:45:42.28	207.26	33.66	-43.7	-46.1	18.1	0.00e+00	0	43	0	424673280	58	4885
2026-01-27 10:45:43.27	207.49	33.83	-43.7	-46.2	17.9	0.00e+00	0	43	0	426770432	58	4948
2026-01-27 10:45:44.27	207.74	34.00	-43.7	-46.2	17.9	0.00e+00	0	43	0	427819008	58	4944
2026-01-27 10:45:45.26	207.98	34.18	-44.2	-46.8	17.4	0.00e+00	0	43	0	429916160	58	5291
2026-01-27 10:45:46.26	208.23	34.35	-44.0	-46.6	17.5	0.00e+00	0	43	0	432013312	59	4892
2026-01-27 10:45:47.25	208.47	34.52	-44.2	-46.8	17.3	0.00e+00	0	43	0	434110464	59	5029
2026-01-27 10:45:48.25	208.72	34.69	-44.3	-47.0	17.2	0.00e+00	0	43	0	435159040	59	5139
2026-01-27 10:45:49.24	208.98	34.86	-44.1	-46.8	17.3	0.00e+00	0	43	0	437256192	59	5032
2026-01-27 10:45:50.24	209.23	35.04	-44.3	-47.0	17.2	0.00e+00	0	43	0	439353344	59	5134
2026-01-27 10:45:51.23	209.49	35.21	-44.6	-47.4	16.8	0.00e+00	0	43	0	441450496	59	5369
2026-01-27 10:45:52.23	209.76	35.38	-44.3	-47.0	17.1	0.00e+00	0	43	0	443547648	59	5156
2026-01-27 10:45:53.22	210.02	35.56	-44.2	-46.8	17.3	0.00e+00	0	43	0	444596224	59	5032
2026-01-27 10:45:54.22	210.29	35.73	-43.9	-46.5	17.6	0.00e+00	0	43	0	446693376	59	4855
2026-01-27 10:45:55.21	210.56	35.91	-44.0	-46.6	17.5	0.00e+00	0	43	0	448790528	59	4901
2026-01-27 10:45:56.21	210.83	36.08	-44.2	-46.8	17.4	0.00e+00	0	43	0	450887680	59	5006
2026-01-27 10:45:57.20	211.10	36.26	-44.4	-47.1	17.1	0.00e+00	0	43	0	451936256	59	5179
2026-01-27 10:45:58.19	211.38	36.43	-44.3	-46.9	17.3	0.00e+00	0	43	0	454033408	59	5069
2026-01-27 10:45:59.19	211.66	36.61	-44.4	-47.1	17.1	0.00e+00	0	43	0	456130560	59	5195
2026-01-27 10:46:00.18	211.95	36.78	-44.1	-46.6	17.5	0.00e+00	0	43	0	458227712	59	4909
2026-01-27 10:46:01.18	212.24	36.96	-43.8	-46.3	17.8	0.00e+00	0	43	0	460324864	59	4753
2026-01-27 10:46:02.17	212.53	37.13	-43.7	-46.2	18.0	0.00e+00	0	43	0	461373440	58	4980
2026-01-27 10:46:03.17	212.82	37.31	-43.4	-45.8	18.3	0.00e+00	0	43	0	463470592	58	4733
2026-01-27 10:46:04.16	213.12	37.49	-43.5	-46.0	18.1	0.00e+00	0	43	0	465567744	58	4818
2026-01-27 10:46:05.15	213.41	37.66	-43.5	-46.0	18.1	0.00e+00	0	43	0	467664896	58	4852
2026-01-27 10:46:06.15	213.72	37.84	-43.4	-45.8	18.2	0.00e+00	0	43	0	468713472	58	4756
2026-01-27 10:46:07.14	214.02	38.01	-43.4	-45.9	18.3	0.00e+00	0	43	0	470810624	58	4783
2026-01-27 10:46:08.14	214.34	38.19	-43.1	-45.5	18.5	0.00e+00	0	43	0	472907776	58	4587
2026-01-27 10:46:09.13	214.65	38.37	-43.1	-45.6	18.5	0.00e+00	0	43	0	475004928	57	4873
2026-01-27 10:46:10.13	214.97	38.54	-43.2	-45.6	18.4	0.00e+00	0	43	0	477102080	57	4903
2026-01-27 10:46:11.12	215.28	38.72	-43.3	-45.8	18.2	0.00e+00	0	43	0	478150656	57	5004
2026-01-27 10:46:12.12	215.61	38.89	-43.0	-45.4	18.6	0.00e+00	0	43	0	480247808	57	4791
2026-01-27 10:46:13.11	215.93	39.07	-42.5	-44.7	19.2	0.00e+00	0	43	0	482344960	57	4432
2026-01-27 10:46:14.10	216.26	39.24	-42.8	-45.1	19.0	0.00e+00	0	43	0	484442112	57	4602
2026-01-27 10:46:15.10	216.60	39.42	-42.8	-45.0	19.0	0.00e+00	0	43	0	485490688	57	4593
2026-01-27 10:46:16.09	216.93	39.60	-43.0	-45.3	18.6	0.00e+00	0	43	0	487587840	57	4745
2026-01-27 10:46:17.09	217.28	39.77	-42.9	-45.2	18.8	0.00e+00	0	43	0	489684992	57	4685
2026-01-27 10:46:18.08	217.62	39.95	-43.1	-45.4	18.6	0.00e+00	0	43	0	491782144	57	4804
2026-01-27 10:46:19.08	217.97	40.12	-43.3	-45.8	18.3	0.00e+00	0	43	0	493879296	57	4989
2026-01-27 10:46:20.07	218.32	40.30	-43.4	-45.8	18.2	0.00e+00	0	43	0	494927872	57	5035
2026-01-27 10:46:21.07	218.68	40.47	-43.4	-45.9	18.2	0.00e+00	0	43	0	497025024	57	5072
2026-01-27 10:46:22.06	219.03	40.64	-43.6	-46.1	18.0	0.00e+00	0	43	0	499122176	58	4901
2026-01-27 10:46:23.06	219.40	40.82	-43.6	-46.1	18.1	0.00e+00	0	43	0	501219328	58	4891
2026-01-27 10:46:24.05	219.77	40.99	-43.5	-46.0	18.2	0.00e+00	0	43	0	502267904	58	4826
2026-01-27 10:46:25.05	220.14	41.16	-43.4	-45.8	18.3	0.00e+00	0	43	0	504365056	58	4725
2026-01-27 10:46:26.04	220.51	41.33	-43.5	-45.9	18.2	0.00e+00	0	43	0	506462208	58	4790
2026-01-27 10:46:27.04	220.89	41.51	-43.7	-46.3	17.9	0.00e+00	0	43	0	508559360	58	4987
2026-01-27 10:46:28.03	221.27	41.67	-43.8	-46.4	17.7	0.00e+00	0	43	0	510656512	58	5061
2026-01-27 10:46:29.03	221.66	41.85	-43.4	-45.8	18.3	0.00e+00	0	43	0	511705088	58	4754
2026-01-27 10:46:30.02	222.05	42.01	-43.1	-45.4	18.7	0.00e+00	0	43	0	513802240	58	4510
2026-01-27 10:46:31.02	222.45	42.18	-42.8	-45.1	18.9	0.00e+00	0	43	0	515899392	57	4618
2026-01-27 10:46:32.01	222.84	42.35	-42.9	-45.2	18.9	0.00e+00	0	43	0	517996544	57	4670
2026-01-27 10:46:33.01	223.25	42.52	-43.3	-45.7	18.4	0.00e+00	0	43	0	520093696	57	4963
2026-01-27 10:46:34.00	223.66	42.68	-43.7	-46.2	17.9	0.00e+00	0	43	0	521142272	58	4943
2026-01-27 10:46:34.99	224.06	42.85	-43.5	-46.0	18.1	0.00e+00	0	43	0	523239424	58	4835
2026-01-27 10:46:35.99	224.48	43.01	-43.3	-45.7	18.3	0.00e+00	0	43	0	525336576	58	4699
2026-01-27 10:46:36.98	224.90	43.18	-42.6	-44.8	19.3	0.00e+00	0	43	0	527433728	56	4726
2026-01-27 10:46:37.98	225.33	43.34	-42.4	-44.5	19.4	0.00e+00	0	43	0	528482304	56	4590
2026-01-27 10:46:38.97	225.75	43.50	-42.4	-44.5	19.4	0.00e+00	0	43	0	530579456	56	4582
2026-01-27 10:46:39.97	226.19	43.66	-42.8	-45.1	19.0	0.00e+00	0	43	0	532676608	56	4880
2026-01-27 10:46:40.96	226.62	43.82	-43.2	-45.5	18.6	0.00e+00	0	43	0	534773760	57	4833
2026-01-27 10:46:41.96	227.07	43.98	-43.7	-46.2	17.9	0.00e+00	0	43	0	536870912	58	4945
2026-01-27 10:46:42.95	227.51	44.14	-43.8	-46.3	17.9	0.00e+00	0	43	0	537919488	58	4985
2026-01-27 10:46:43.95	227.96	44.29	-43.9	-46.4	17.8	0.00e+00	0	43	0	540016640	58	5093
2026-01-27 10:46:44.94	228.41	44.45	-43.5	-45.9	18.2	0.00e+00	0	43	0	542113792	58	4795
2026-01-27 10:46:45.94	228.87	44.60	-43.1	-45.5	18.6	0.00e+00	0	43	0	544210944	58	4558
2026-01-27 10:46:46.93	229.33	44.75	-42.9	-45.2	18.8	0.00e+00	0	43	0	545259520	57	4679
2026-01-27 10:46:47.92	229.80	44.90	-43.1	-45.5	18.6	0.00e+00	0	43	0	547356672	57	4867
2026-01-27 10:46:48.92	230.27	45.05	-43.7	-46.2	18.0	0.00e+00	0	43	0	549453824	58	4944
2026-01-27 10:46:49.91	230.75	45.20	-44.0	-46.7	17.6	0.00e+00	0	43	0	551550976	58	5224
2026-01-27 10:46:50.91	231.23	45.34	-43.9	-46.4	17.7	0.00e+00	0	43	0	553648128	59	4797
2026-01-27 10:46:51.90	231.71	45.49	-44.0	-46.5	17.6	0.00e+00	0	43	0	554696704	59	4866
2026-01-27 10:46:52.90	232.20	45.63	-43.9	-46.4	17.8	0.00e+00	0	43	0	556793856	59	4777
2026-01-27 10:46:53.89	232.69	45.77	-43.7	-46.1	18.0	0.00e+00	0	43	0	558891008	59	4644
2026-01-27 10:46:54.88	233.19	45.90	-43.9	-46.4	17.8	0.00e+00	0	43	0	560988160	59	4779
2026-01-27 10:46:55.88	233.69	46.04	-44.3	-47.0	17.3	0.00e+00	0	43	0	562036736	59	5101
2026-01-27 10:46:56.87	234.20	46.18	-45.0	-47.9	16.5	0.00e+00	0	43	0	564133888	60	5371
2026-01-27 10:46:57.87	234.71	46.31	-45.1	-48.0	16.3	0.00e+00	0	43	0	566231040	61	5154
2026-01-27 10:46:58.86	235.22	46.44	-44.4	-47.0	17.3	0.00e+00	0	43	0	568328192	60	4835
2026-01-27 10:46:59.86	235.74	46.57	-44.0	-46.6	17.6	0.00e+00	0	43	0	570425344	60	4603
2026-01-27 10:47:00.82	236.25	46.69	-44.0	-46.5	17.6	0.00e+00	0	43	0	571473920	59	4862
2026-01-27 10:47:01.82	236.78	46.81	-45.0	-47.8	16.5	0.00e+00	0	43	0	573571072	60	5333
2026-01-27 10:47:02.81	237.31	46.94	-45.4	-48.5	15.9	0.00e+00	0	43	0	575668224	61	5435
2026-01-27 10:47:03.80	237.84	47.05	-45.6	-48.7	15.7	0.00e+00	0	43	0	577765376	62	5229
2026-01-27 10:47:04.80	238.38	47.17	-45.6	-48.8	15.6	0.00e+00	0	43	0	578813952	62	5289
2026-01-27 10:47:05.79	238.92	47.29	-45.9	-49.2	15.2	0.00e+00	0	43	0	580911104	62	5574
2026-01-27 10:47:06.79	239.47	47.40	-45.8	-49.1	15.3	0.00e+00	0	43	0	583008256	62	5497
2026-01-27 10:47:07.78	240.02	47.51	-45.4	-48.5	15.8	0.00e+00	0	43	0	585105408	62	5145
2026-01-27 10:47:08.78	240.58	47.62	-44.6	-47.4	16.8	0.00e+00	0	43	0	586153984	61	4791
2026-01-27 10:47:09.77	241.13	47.72	-44.5	-47.2	17.1	0.00e+00	0	43	0	588251136	60	4982
2026-01-27 10:47:10.77	241.70	47.82	-44.4	-47.1	17.2	0.00e+00	0	43	0	590348288	60	4882
2026-01-27 10:47:11.76	242.26	47.92	-44.5	-47.2	17.0	0.00e+00	0	43	0	592445440	60	4959
2026-01-27 10:47:12.76	242.84	48.02	-45.4	-48.5	15.8	0.00e+00	0	43	0	594542592	61	5453
2026-01-27 10:47:13.75	243.41	48.11	-45.5	-48.6	15.7	0.00e+00	0	43	0	595591168	61	5515
2026-01-27 10:47:14.75	243.98	48.20	-46.0	-49.3	15.2	0.00e+00	0	43	0	597688320	62	5634
2026-01-27 10:47:15.74	244.56	48.29	-46.0	-49.3	15.0	0.00e+00	0	43	0	599785472	63	5340
2026-01-27 10:47:16.74	245.15	48.38	-45.8	-49.1	15.4	0.00e+00	0	43	0	601882624	63	5166
2026-01-27 10:47:17.73	245.73	48.46	-45.3	-48.4	15.9	0.00e+00	0	43	0	602931200	62	5061
2026-01-27 10:47:18.73	246.32	48.54	-45.3	-48.4	16.0	0.00e+00	0	43	0	605028352	62	5072
2026-01-27 10:47:19.72	246.91	48.61	-45.0	-47.9	16.4	0.00e+00	0	43	0	607125504	62	4797
2026-01-27 10:47:20.72	247.51	48.69	-44.7	-47.6	16.7	0.00e+00	0	43	0	609222656	61	4897
2026-01-27 10:47:21.71	248.10	48.75	-44.6	-47.3	16.9	0.00e+00	0	43	0	611319808	60	5040
2026-01-27 10:47:22.70	248.70	48.82	-44.2	-46.8	17.4	0.00e+00	0	43	0	612368384	60	4743
2026-01-27 10:47:23.70	249.30	48.88	-44.0	-46.6	17.7	0.00e+00	0	43	0	614465536	59	4879
2026-01-27 10:47:24.69	249.91	48.94	-43.3	-45.7	18.4	0.00e+00	0	43	0	616562688	58	4682
2026-01-27 10:47:25.69	250.52	49.00	-42.7	-44.9	19.1	0.00e+00	0	43	0	618659840	57	4532
2026-01-27 10:47:26.68	251.12	49.05	-43.1	-45.5	18.7	0.00e+00	0	43	0	619708416	57	4829
2026-01-27 10:47:27.68	251.74	49.10	-43.6	-46.0	18.2	0.00e+00	0	43	0	621805568	58	4846
2026-01-27 10:47:28.67	252.35	49.15	-43.7	-46.1	18.1	0.00e+00	0	43	0	623902720	58	4898
2026-01-27 10:47:29.67	252.97	49.19	-43.1	-45.4	18.6	0.00e+00	0	43	0	625999872	58	4534
2026-01-27 10:47:30.66	253.58	49.23	-42.7	-45.0	19.1	0.00e+00	0	43	0	628097024	57	4562
2026-01-27 10:47:31.66	254.20	49.27	-43.0	-45.4	18.8	0.00e+00	0	43	0	629145600	57	4771
2026-01-27 10:47:32.65	254.82	49.30	-43.1	-45.4	18.7	0.00e+00	0	43	0	631242752	57	4788
2026-01-27 10:47:33.65	255.44	49.33	-42.8	-45.0	19.0	0.00e+00	0	43	0	633339904	57	4593
2026-01-27 10:47:34.64	256.06	49.36	-42.9	-45.2	18.9	0.00e+00	0	43	0	635437056	57	4689
2026-01-27 10:47:35.64	256.68	49.38	-42.6	-44.8	19.3	0.00e+00	0	43	0	636485632	57	4467
2026-01-27 10:47:36.63	257.30	49.40	-42.7	-45.0	19.0	0.00e+00	0	43	0	638582784	57	4576
2026-01-27 10:47:37.63	257.93	49.41	-42.7	-45.0	19.1	0.00e+00	0	43	0	640679936	56	4838
2026-01-27 10:47:38.62	258.55	49.42	-42.5	-44.7	19.3	0.00e+00	0	43	0	642777088	56	4663
2026-01-27 10:47:39.62	259.18	49.43	-42.3	-44.5	19.5	0.00e+00	0	43	0	644874240	56	4568
2026-01-27 10:47:40.61	259.80	49.44	-42.7	-45.0	19.1	0.00e+00	0	43	0	645922816	56	4820
2026-01-27 10:47:41.61	260.43	49.44	-43.4	-45.8	18.3	0.00e+00	0	43	0	648019968	57	5016
2026-01-27 10:47:42.60	261.05	49.43	-43.9	-46.5	17.7	0.00e+00	0	43	0	650117120	58	5122
2026-01-27 10:47:43.60	261.68	49.43	-43.8	-46.4	17.9	0.00e+00	0	43	0	652214272	58	5054
2026-01-27 10:47:44.59	262.30	49.42	-43.7	-46.2	18.0	0.00e+00	0	43	0	653262848	58	4971
2026-01-27 10:47:45.59	262.93	49.40	-44.1	-46.8	17.5	0.00e+00	0	43	0	655360000	58	5307
2026-01-27 10:47:46.58	263.55	49.39	-43.7	-46.2	18.1	0.00e+00	0	43	0	657457152	59	4683
2026-01-27 10:47:47.57	264.17	49.37	-42.9	-45.2	18.9	0.00e+00	0	43	0	659554304	57	4675
2026-01-27 10:47:48.57	264.80	49.34	-42.2	-44.3	19.7	0.00e+00	0	43	0	661651456	56	4487
2026-01-27 10:47:49.56	265.41	49.32	-42.6	-44.7	19.3	0.00e+00	0	43	0	662700032	56	4699
2026-01-27 10:47:50.56	266.04	49.28	-43.4	-45.7	18.4	0.00e+00	0	43	0	664797184	57	4983
2026-01-27 10:47:51.55	266.65	49.25	-43.9	-46.4	17.8	0.00e+00	0	43	0	666894336	58	5084
2026-01-27 10:47:52.54	267.27	49.21	-44.3	-46.9	17.3	0.00e+00	0	43	0	668991488	59	5097
2026-01-27 10:47:53.54	267.88	49.17	-44.9	-47.8	16.6	0.00e+00	0	43	0	670040064	60	5313
2026-01-27 10:47:54.54	268.50	49.12	-45.5	-48.7	15.7	0.00e+00	0	43	0	672137216	61	5533
2026-01-27 10:47:55.53	269.11	49.08	-46.0	-49.4	15.0	0.00e+00	0	43	0	674234368	62	5713
2026-01-27 10:47:56.52	269.72	49.03	-46.0	-49.5	14.9	0.00e+00	0	43	0	676331520	63	5462
2026-01-27 10:47:57.52	270.33	48.97	-45.7	-49.0	15.5	0.00e+00	0	43	0	678428672	63	5135
2026-01-27 10:47:58.51	270.93	48.91	-45.8	-49.2	15.4	0.00e+00	0	43	0	679477248	63	5247
2026-01-27 10:47:59.51	271.53	48.85	-45.6	-48.8	15.4	0.00e+00	0	43	0	681574400	63	5020
2026-01-27 10:48:00.50	272.13	48.79	-44.9	-47.7	16.7	0.00e+00	0	43	0	683671552	61	4946
2026-01-27 10:48:01.50	272.73	48.72	-44.5	-47.2	17.2	0.00e+00	0	43	0	685768704	60	4928
2026-01-27 10:48:02.49	273.32	48.65	-44.6	-47.3	17.1	0.00e+00	0	43	0	686817280	60	4991
2026-01-27 10:48:03.48	273.91	48.57	-44.0	-46.5	17.8	0.00e+00	0	43	0	688914432	59	4825
2026-01-27 10:48:04.48	274.51	48.49	-43.4	-45.7	18.5	0.00e+00	0	43	0	691011584	58	4703
2026-01-27 10:48:05.48	275.10	48.41	-44.0	-46.5	17.8	0.00e+00	0	43	0	693108736	58	5117
2026-01-27 10:48:06.47	275.68	48.33	-44.7	-47.4	16.9	0.00e+00	0	43	0	695205888	60	5069
2026-01-27 10:48:07.47	276.26	48.24	-46.0	-49.2	15.1	0.00e+00	0	43	0	696254464	62	5578
2026-01-27 10:48:08.46	276.83	48.16	-46.5	-50.2	14.2	3.00e-06	0	43	0	698351616	64	5544
2026-01-27 10:48:09.46	277.41	48.06	-46.1	-49.4	14.9	1.50e-06	0	43	0	700448768	64	5090
2026-01-27 10:48:10.45	277.98	47.97	-46.5	-50.1	14.1	0.00e+00	0	43	0	702545920	64	5528
2026-01-27 10:48:11.44	278.54	47.87	-46.6	-50.3	14.0	1.50e-06	0	43	0	703594496	64	5651
2026-01-27 10:48:12.44	279.11	47.77	-46.6	-50.4	14.0	2.20e-06	0	43	0	705691648	64	5699
2026-01-27 10:48:13.43	279.66	47.67	-46.7	-50.5	13.8	2.20e-06	0	43	0	707788800	64	5773
2026-01-27 10:48:14.43	280.22	47.56	-47.4	-51.7	12.8	5.34e-05	0	43	0	709885952	65	6233
2026-01-27 10:48:15.42	280.77	47.45	-47.4	-51.7	12.7	2.97e-05	0	43	0	711983104	65	6223
2026-01-27 10:48:16.41	281.31	47.34	-47.1	-51.1	13.0	1.76e-04	0	43	0	713031680	66	5494
2026-01-27 10:48:17.41	281.86	47.23	-46.8	-50.6	13.7	9.90e-06	0	43	0	715128832	65	5511
2026-01-27 10:48:18.41	282.40	47.11	-46.3	-49.8	14.5	0.00e+00	0	43	0	717225984	64	5305
2026-01-27 10:48:19.40	282.94	47.00	-46.0	-49.3	15.0	7.00e-07	0	43	0	719323136	63	5340
2026-01-27 10:48:20.40	283.47	46.87	-45.3	-48.3	16.1	0.00e+00	0	43	0	720371712	62	5029
2026-01-27 10:48:21.39	284.00	46.75	-44.4	-47.1	17.2	0.00e+00	0	43	0	722468864	60	4876
2026-01-27 10:48:22.38	284.52	46.63	-44.3	-46.9	17.5	0.00e+00	0	43	0	724566016	60	4782
2026-01-27 10:48:23.38	285.04	46.50	-45.2	-48.1	16.3	0.00e+00	0	43	0	726663168	61	5195
2026-01-27 10:48:24.37	285.55	46.37	-46.3	-49.9	14.6	0.00e+00	0	43	0	728760320	63	5719
2026-01-27 10:48:25.37	286.07	46.24	-46.3	-50.0	14.4	2.20e-06	0	43	0	729808896	64	5416
2026-01-27 10:48:26.36	286.57	46.11	-45.8	-49.0	15.4	0.00e+00	0	43	0	731906048	63	5128
2026-01-27 10:48:27.35	287.07	45.97	-44.5	-47.2	17.1	0.00e+00	0	43	0	734003200	61	4656
2026-01-27 10:48:28.34	287.57	45.84	-44.6	-47.3	17.1	0.00e+00	0	43	0	736100352	60	5016
2026-01-27 10:48:29.34	288.06	45.70	-44.6	-47.4	17.0	0.00e+00	0	43	0	737148928	60	5045
2026-01-27 10:48:30.33	288.55	45.56	-44.3	-46.9	17.4	0.00e+00	0	43	0	739246080	60	4798
2026-01-27 10:48:31.33	289.04	45.42	-44.1	-46.7	17.5	0.00e+00	0	43	0	741343232	60	4705
2026-01-27 10:48:32.32	289.52	45.27	-43.9	-46.4	17.9	0.00e+00	0	43	0	743440384	59	4770
2026-01-27 10:48:33.32	290.00	45.13	-43.7	-46.2	18.1	0.00e+00	0	43	0	745537536	59	4667
2026-01-27 10:48:34.31	290.47	44.98	-44.2	-46.7	17.6	0.00e+00	0	43	0	746586112	59	4982
2026-01-27 10:48:35.30	290.93	44.83	-44.5	-47.2	17.1	0.00e+00	0	43	0	748683264	59	5220
2026-01-27 10:48:36.30	291.40	44.68	-44.3	-47.0	17.4	0.00e+00	0	43	0	750780416	60	4832
2026-01-27 10:48:37.29	291.86	44.53	-43.6	-46.1	18.1	0.00e+00	0	43	0	752877568	59	4604
2026-01-27 10:48:38.28	292.31	44.38	-43.0	-45.3	18.8	0.00e+00	0	43	0	754974720	58	4467
2026-01-27 10:48:39.28	292.76	44.22	-43.2	-45.5	18.6	0.00e+00	0	43	0	756023296	58	4591
2026-01-27 10:48:40.28	293.21	44.07	-43.3	-45.7	18.5	0.00e+00	0	43	0	758120448	58	4658
2026-01-27 10:48:41.27	293.65	43.91	-42.9	-45.1	18.9	0.00e+00	0	43	0	760217600	57	4642
2026-01-27 10:48:42.27	294.09	43.75	-42.3	-44.5	19.7	0.00e+00	0	43	0	762314752	56	4551
2026-01-27 10:48:43.26	294.52	43.59	-42.2	-44.4	19.7	0.00e+00	0	43	0	763363328	56	4495
2026-01-27 10:48:44.26	294.95	43.43	-42.6	-44.8	19.3	0.00e+00	0	43	0	765460480	56	4733
2026-01-27 10:48:45.25	295.38	43.27	-43.0	-45.3	18.9	0.00e+00	0	43	0	767557632	56	4998
2026-01-27 10:48:46.25	295.80	43.11	-43.2	-45.6	18.5	0.00e+00	0	43	0	769654784	57	4896
2026-01-27 10:48:47.24	296.21	42.94	-42.6	-44.9	19.2	0.00e+00	0	43	0	771751936	57	4512
2026-01-27 10:48:48.24	296.63	42.78	-42.1	-44.2	19.8	0.00e+00	0	43	0	772800512	56	4429
2026-01-27 10:48:49.23	297.03	42.61	-41.5	-43.6	20.2	0.00e+00	0	43	0	774897664	54	4634
2026-01-27 10:48:50.23	297.44	42.45	-41.8	-43.9	19.9	0.00e+00	0	43	0	776994816	54	4777
2026-01-27 10:48:51.22	297.84	42.28	-42.6	-44.8	19.2	0.00e+00	0	43	0	779091968	55	5025
2026-01-27 10:48:52.22	298.23	42.11	-42.4	-44.6	19.3	0.00e+00	0	43	0	780140544	55	4901
2026-01-27 10:48:53.21	298.62	41.95	-42.1	-44.2	19.6	0.00e+00	0	43	0	782237696	55	4689
2026-01-27 10:48:54.21	299.01	41.78	-41.6	-43.6	20.1	0.00e+00	0	43	0	784334848	55	4383
2026-01-27 10:48:55.20	299.39	41.61	-42.1	-44.3	19.6	0.00e+00	0	43	0	786432000	55	4706
2026-01-27 10:48:56.20	299.78	41.44	-43.3	-45.7	18.5	0.00e+00	0	43	0	788529152	57	4957
2026-01-27 10:48:57.19	300.15	41.27	-43.3	-45.7	18.5	0.00e+00	0	43	0	789577728	57	4932
2026-01-27 10:48:58.18	300.52	41.10	-41.6	-43.6	20.0	0.00e+00	0	43	0	791674880	55	4386
2026-01-27 10:48:59.18	300.89	40.92	-40.6	-42.6	21.0	0.00e+00	0	43	0	793772032	53	4342
2026-01-27 10:49:00.17	301.25	40.75	-41.1	-43.1	20.6	0.00e+00	0	43	0	795869184	52	4884
2026-01-27 10:49:01.16	301.61	40.58	-42.6	-44.9	19.1	0.00e+00	0	43	0	796917760	55	5065
2026-01-27 10:49:02.16	301.97	40.41	-44.6	-47.3	16.9	0.00e+00	0	43	0	799014912	59	5337
2026-01-27 10:49:03.15	302.32	40.24	-45.2	-48.2	16.1	0.00e+00	0	43	0	801112064	61	5235
2026-01-27 10:49:04.14	302.67	40.06	-44.5	-47.3	17.0	0.00e+00	0	43	0	803209216	61	4732
2026-01-27 10:49:05.14	303.01	39.89	-43.9	-46.5	17.7	0.00e+00	0	43	0	805306368	59	4829
2026-01-27 10:49:06.13	303.35	39.72	-43.9	-46.4	17.8	0.00e+00	0	43	0	806354944	59	4797
2026-01-27 10:49:07.13	303.69	39.54	-45.2	-48.3	16.1	0.00e+00	0	43	0	808452096	61	5309
2026-01-27 10:49:08.12	304.03	39.37	-47.1	-51.4	13.0	0.00e+00	0	43	0	810549248	64	6410
2026-01-27 10:49:09.12	304.36	39.19	-48.2	-53.9	10.5	8.87e-04	0	43	0	812646400	67	7169
2026-01-27 10:49:10.11	304.69	39.02	-48.1	-53.7	10.6	2.31e-03	0	43	0	813694976	67	6979
2026-01-27 10:49:11.11	305.01	38.84	-46.9	-51.3	13.3	1.17e-04	0	43	0	815792128	65	5924
2026-01-27 10:49:12.10	305.33	38.67	-45.6	-49.0	15.4	0.00e+00	0	43	0	817889280	63	5151
2026-01-27 10:49:13.10	305.65	38.49	-45.7	-49.2	15.2	0.00e+00	0	43	0	819986432	62	5533
2026-01-27 10:49:14.09	305.96	38.32	-47.0	-51.3	13.1	8.30e-06	0	43	0	822083584	64	6347
2026-01-27 10:49:15.09	306.27	38.14	-48.2	-54.0	10.3	1.16e-03	0	43	0	823132160	66	7658
2026-01-27 10:49:16.08	306.58	37.97	-48.9	-56.1	8.2	3.67e-02	0	43	0	825229312	68	8743
2026-01-27 10:49:17.08	306.88	37.79	-48.8	-55.6	8.7	1.06e-01	0	43	0	827326464	69	7763
2026-01-27 10:49:18.07	307.18	37.62	-46.9	-51.0	13.0	1.14e-03	0	43	0	829423616	65	5760
2026-01-27 10:49:19.07	307.48	37.44	-45.4	-48.6	15.7	0.00e+00	0	43	0	830472192	62	5181
2026-01-27 10:49:20.06	307.78	37.27	-45.1	-48.1	16.2	0.00e+00	0	43	0	832569344	62	4898
2026-01-27 10:49:21.06	308.07	37.09	-45.4	-48.5	15.9	0.00e+00	0	43	0	834666496	62	5121
2026-01-27 10:49:22.05	308.36	36.92	-46.5	-50.1	14.3	0.00e+00	0	43	0	836763648	63	5828
2026-01-27 10:49:23.05	308.64	36.74	-47.8	-52.7	11.5	5.95e-05	0	43	0	838860800	66	6583
2026-01-27 10:49:24.05	308.93	36.57	-49.0	-55.7	8.5	7.55e-03	0	43	0	839909376	68	8339
2026-01-27 10:49:25.04	309.20	36.39	-48.5	-54.3	10.0	2.11e-02	0	43	0	842006528	68	7041
2026-01-27 10:49:26.03	309.48	36.22	-47.0	-51.2	13.0	3.00e-04	0	43	0	844103680	66	5561
2026-01-27 10:49:27.03	309.75	36.04	-46.7	-50.7	13.6	1.06e-05	0	43	0	846200832	65	5550
2026-01-27 10:49:28.02	310.02	35.87	-46.2	-49.7	14.6	1.50e-06	0	43	0	847249408	64	5265
2026-01-27 10:49:29.02	310.29	35.70	-46.7	-50.6	13.7	1.50e-06	0	43	0	849346560	64	5813
2026-01-27 10:49:30.01	310.56	35.53	-47.3	-51.8	12.4	1.05e-04	0	43	0	851443712	65	6319
2026-01-27 10:49:31.01	310.82	35.35	-47.8	-52.9	11.2	4.63e-04	0	43	0	853540864	66	6793
2026-01-27 10:49:32.00	311.08	35.18	-48.0	-53.4	10.8	1.57e-03	0	43	0	855638016	66	7199
2026-01-27 10:49:33.00	311.34	35.01	-47.2	-51.7	12.5	1.14e-03	0	43	0	856686592	66	5915
2026-01-27 10:49:33.99	311.59	34.84	-45.9	-49.3	15.0	9.10e-06	0	43	0	858783744	63	5318
2026-01-27 10:49:34.99	311.84	34.66	-44.3	-47.1	17.2	0.00e+00	0	43	0	860880896	60	4876
2026-01-27 10:49:35.98	312.09	34.49	-43.8	-46.3	17.9	0.00e+00	0	43	0	862978048	59	4712
2026-01-27 10:49:36.97	312.34	34.32	-43.7	-46.1	18.0	0.00e+00	0	43	0	864026624	58	4917
2026-01-27 10:49:37.97	312.58	34.15	-44.0	-46.6	17.7	0.00e+00	0	43	0	866123776	58	5173
2026-01-27 10:49:38.96	312.82	33.98	-44.5	-47.2	17.0	0.00e+00	0	43	0	868220928	59	5227
2026-01-27 10:49:39.96	313.06	33.81	-45.4	-48.5	15.8	0.00e+00	0	43	0	870318080	61	5408
2026-01-27 10:49:40.95	313.30	33.64	-45.3	-48.5	15.9	0.00e+00	0	43	0	872415232	61	5405
2026-01-27 10:49:41.95	313.53	33.48	-44.5	-47.3	16.9	0.00e+00	0	43	0	873463808	61	4737
2026-01-27 10:49:42.94	313.76	33.31	-43.2	-45.6	18.4	0.00e+00	0	43	0	875560960	58	4620
2026-01-27 10:49:43.93	313.99	33.14	-42.7	-45.0	19.0	0.00e+00	0	43	0	877658112	57	4555
2026-01-27 10:49:44.93	314.22	32.97	-42.4	-44.6	19.3	0.00e+00	0	43	0	879755264	56	4644
2026-01-27 10:49:45.92	314.44	32.81	-43.1	-45.4	18.7	0.00e+00	0	43	0	880803840	56	5051
2026-01-27 10:49:46.92	314.67	32.64	-44.0	-46.6	17.6	0.00e+00	0	43	0	882900992	58	5185
2026-01-27 10:49:47.91	314.89	32.47	-44.9	-47.9	16.4	0.00e+00	0	43	0	884998144	60	5347
2026-01-27 10:49:48.91	315.11	32.31	-45.6	-48.9	15.5	0.00e+00	0	43	0	887095296	61	5659
2026-01-27 10:49:49.90	315.32	32.14	-45.6	-48.9	15.4	0.00e+00	0	43	0	889192448	62	5375
2026-01-27 10:49:50.90	315.53	31.98	-45.0	-48.2	16.1	0.00e+00	0	43	0	890241024	62	4980
2026-01-27 10:49:51.89	315.75	31.81	-44.0	-46.9	17.3	0.00e+00	0	43	0	892338176	60	4777
2026-01-27 10:49:52.89	315.96	31.65	-43.2	-45.7	18.3	0.00e+00	0	43	0	894435328	58	4703
2026-01-27 10:49:53.88	316.16	31.49	-42.8	-45.3	18.7	0.00e+00	0	43	0	896532480	57	4746
2026-01-27 10:49:54.88	316.37	31.32	-42.9	-45.4	18.7	0.00e+00	0	43	0	897581056	57	4777
2026-01-27 10:49:55.87	316.57	31.16	-43.5	-46.2	17.9	0.00e+00	0	43	0	899678208	57	5278
2026-01-27 10:49:56.86	316.77	31.00	-44.5	-47.6	16.6	0.00e+00	0	43	0	901775360	59	5523
2026-01-27 10:49:57.86	316.97	30.84	-45.0	-48.3	16.1	0.00e+00	0	43	0	903872512	60	5623
2026-01-27 10:49:58.86	317.17	30.68	-44.8	-48.0	16.3	0.00e+00	0	43	0	905969664	60	5441
2026-01-27 10:49:59.85	317.37	30.52	-44.4	-47.3	16.9	0.00e+00	0	43	0	907018240	60	5041
2026-01-27 10:50:00.85	317.56	30.36	-44.0	-46.8	17.4	0.00e+00	0	43	0	909115392	60	4729
2026-01-27 10:50:01.84	317.75	30.20	-43.7	-46.3	17.9	0.00e+00	0	43	0	911212544	59	4709
2026-01-27 10:50:02.84	317.94	30.04	-43.2	-45.6	18.4	0.00e+00	0	43	0	913309696	58	4625
2026-01-27 10:50:03.83	318.13	29.89	-42.7	-45.0	19.0	0.00e+00	0	43	0	914358272	57	4552
2026-01-27 10:50:04.83	318.32	29.73	-42.5	-44.8	19.2	0.00e+00	0	43	0	916455424	57	4445
2026-01-27 10:50:05.82	318.50	29.57	-42.9	-45.2	18.8	0.00e+00	0	43	0	918552576	57	4679
2026-01-27 10:50:06.81	318.69	29.42	-43.7	-46.2	17.8	0.00e+00	0	43	0	920649728	58	4966
2026-01-27 10:50:07.81	318.87	29.26	-44.6	-47.4	16.8	0.00e+00	0	43	0	922746880	59	5352
2026-01-27 10:50:08.80	319.05	29.11	-45.1	-48.3	16.1	0.00e+00	0	43	0	923795456	60	5603
2026-01-27 10:50:09.80	319.23	28.95	-45.9	-49.5	14.9	0.00e+00	0	43	0	925892608	62	5749
2026-01-27 10:50:10.79	319.40	28.80	-45.9	-49.6	14.7	0.00e+00	0	43	0	927989760	62	5793
2026-01-27 10:50:11.79	319.58	28.64	-45.6	-49.2	15.1	0.00e+00	0	43	0	930086912	62	5568
2026-01-27 10:50:12.78	319.75	28.49	-45.2	-48.4	15.7	0.00e+00	0	43	0	931135488	62	5096
2026-01-27 10:50:13.77	319.92	28.34	-44.7	-47.8	16.4	0.00e+00	0	43	0	933232640	61	5022
2026-01-27 10:50:14.77	320.09	28.19	-44.4	-47.3	17.0	0.00e+00	0	43	0	935329792	60	4997
2026-01-27 10:50:15.77	320.26	28.04	-44.0	-46.7	17.5	0.00e+00	0	43	0	937426944	59	4947
2026-01-27 10:50:16.76	320.42	27.89	-44.1	-46.9	17.2	0.00e+00	0	43	0	939524096	59	5056
2026-01-27 10:50:17.75	320.59	27.74	-43.8	-46.4	17.7	0.00e+00	0	43	0	940572672	59	4784
2026-01-27 10:50:18.75	320.75	27.59	-44.1	-46.9	17.2	0.00e+00	0	43	0	942669824	59	5053
2026-01-27 10:50:19.74	320.92	27.44	-44.1	-46.8	17.3	0.00e+00	0	43	0	944766976	59	5030
2026-01-27 10:50:20.74	321.08	27.29	-44.3	-47.1	17.0	0.00e+00	0	43	0	946864128	59	5180
2026-01-27 10:50:21.73	321.24	27.14	-44.5	-47.3	16.8	0.00e+00	0	43	0	947912704	59	5325
2026-01-27 10:50:22.73	321.39	26.99	-43.9	-46.6	17.5	0.00e+00	0	43	0	950009856	59	4884
2026-01-27 10:50:23.72	321.55	26.85	-43.7	-46.3	17.8	0.00e+00	0	43	0	952107008	59	4739
2026-01-27 10:50:24.72	321.71	26.70	-43.1	-45.6	18.4	0.00e+00	0	43	0	954204160	58	4618
2026-01-27 10:50:25.71	321.86	26.56	-42.8	-45.3	18.7	0.00e+00	0	43	0	956301312	57	4726
2026-01-27 10:50:26.70	322.01	26.41	-42.7	-45.1	18.9	0.00e+00	0	43	0	957349888	57	4632
2026-01-27 10:50:27.70	322.16	26.27	-42.4	-44.8	19.1	0.00e+00	0	43	0	959447040	56	4741
2026-01-27 10:50:28.69	322.31	26.13	-42.4	-44.7	19.2	0.00e+00	0	43	0	961544192	56	4701
2026-01-27 10:50:29.69	322.46	25.98	-42.7	-45.1	18.8	0.00e+00	0	43	0	963641344	56	4924
2026-01-27 10:50:30.68	322.61	25.84	-42.8	-45.3	18.6	0.00e+00	0	43	0	964689920	56	5013
2026-01-27 10:50:31.68	322.75	25.70	-43.2	-45.7	18.4	0.00e+00	0	43	0	966787072	57	4976
2026-01-27 10:50:32.67	322.90	25.56	-43.5	-46.1	17.9	0.00e+00	0	43	0	968884224	57	5208
2026-01-27 10:50:33.67	323.04	25.42	-44.2	-46.9	17.2	0.00e+00	0	43	0	970981376	59	5098
2026-01-27 10:50:34.66	323.18	25.28	-44.3	-47.1	17.0	0.00e+00	0	43	0	973078528	59	5211
2026-01-27 10:50:35.66	323.32	25.14	-44.6	-47.5	16.6	0.00e+00	0	43	0	974127104	59	5455
2026-01-27 10:50:36.65	323.46	25.00	-44.8	-47.8	16.5	0.00e+00	0	43	0	976224256	60	5297
2026-01-27 10:50:37.65	323.60	24.86	-44.7	-47.6	16.6	0.00e+00	0	43	0	978321408	60	5217
2026-01-27 10:50:38.64	323.74	24.72	-45.1	-48.3	15.9	0.00e+00	0	43	0	980418560	60	5625
2026-01-27 10:50:39.64	323.88	24.58	-45.3	-48.5	15.8	0.00e+00	0	43	0	981467136	61	5441
2026-01-27 10:50:40.63	324.01	24.45	-45.2	-48.4	15.8	0.00e+00	0	43	0	983564288	61	5383
2026-01-27 10:50:41.62	324.14	24.31	-45.6	-49.0	15.3	0.00e+00	0	43	0	985661440	62	5439
2026-01-27 10:50:42.62	324.28	24.18	-45.5	-48.9	15.3	0.00e+00	0	43	0	987758592	62	5373
2026-01-27 10:50:43.61	324.41	24.04	-45.5	-48.9	15.4	0.00e+00	0	43	0	989855744	62	5387
2026-01-27 10:50:44.61	324.54	23.91	-45.2	-48.6	15.6	0.00e+00	0	43	0	990904320	62	5212
2026-01-27 10:50:45.60	324.67	23.77	-44.6	-47.7	16.5	0.00e+00	0	43	0	993001472	61	4950
2026-01-27 10:50:46.60	324.80	23.64	-44.4	-47.5	16.7	0.00e+00	0	43	0	995098624	60	5120
2026-01-27 10:50:47.59	324.92	23.51	-44.2	-47.1	17.1	0.00e+00	0	43	0	997195776	60	4897
2026-01-27 10:50:48.58	325.05	23.37	-44.0	-46.8	17.3	0.00e+00	0	43	0	998244352	59	4987
2026-01-27 10:50:49.58	325.18	23.24	-44.4	-47.3	16.9	0.00e+00	0	43	0	1000341504	59	5291
2026-01-27 10:50:50.58	325.30	23.11	-44.6	-47.6	16.6	0.00e+00	0	43	0	1002438656	59	5480
2026-01-27 10:50:51.57	325.42	22.98	-44.7	-47.7	16.5	0.00e+00	0	43	0	1004535808	60	5263
2026-01-27 10:50:52.56	325.55	22.85	-45.0	-48.3	15.9	0.00e+00	0	43	0	1006632960	60	5606
2026-01-27 10:50:53.56	325.67	22.72	-45.0	-48.4	15.8	0.00e+00	0	43	0	1007681536	61	5368
2026-01-27 10:50:54.55	325.79	22.59	-45.3	-49.0	15.3	0.00e+00	0	43	0	1009778688	61	5723
2026-01-27 10:50:55.55	325.91	22.46	-45.5	-49.2	15.0	0.00e+00	0	43	0	1011875840	61	5919
2026-01-27 10:50:56.54	326.03	22.33	-45.5	-49.3	15.0	0.00e+00	0	43	0	1013972992	61	5959
2026-01-27 10:50:57.54	326.14	22.21	-45.2	-48.9	15.3	0.00e+00	0	43	0	1015021568	61	5692
2026-01-27 10:50:58.54	326.26	22.08	-45.3	-49.0	15.1	0.00e+00	0	43	0	1017118720	61	5787
2026-01-27 10:50:59.53	326.38	21.95	-44.8	-48.1	16.1	0.00e+00	0	43	0	1019215872	61	5189
2026-01-27 10:51:00.53	326.49	21.83	-44.3	-47.4	16.8	0.00e+00	0	43	0	1021313024	60	5049
2026-01-27 10:51:01.52	326.61	21.70	-43.9	-46.7	17.4	0.00e+00	0	43	0	1023410176	59	4936
2026-01-27 10:51:02.51	326.72	21.58	-43.3	-45.8	18.2	0.00e+00	0	43	0	1024458752	58	4751
2026-01-27 10:51:03.51	326.83	21.45	-42.9	-45.2	18.8	0.00e+00	0	43	0	1026555904	57	4679
2026-01-27 10:51:04.51	326.94	21.33	-42.7	-45.0	18.8	0.00e+00	0	43	0	1028653056	57	4592
2026-01-27 10:51:05.50	327.05	21.20	-42.3	-44.5	19.3	0.00e+00	0	43	0	1030750208	56	4587
2026-01-27 10:51:06.50	327.16	21.08	-42.4	-44.7	19.2	0.00e+00	0	43	0	1032847360	56	4653
2026-01-27 10:51:07.49	327.27	20.96	-42.5	-44.8	19.1	0.00e+00	0	43	0	1033895936	56	4709
2026-01-27 10:51:08.49	327.38	20.84	-42.6	-44.9	19.0	0.00e+00	0	43	0	1035993088	56	4774
2026-01-27 10:51:09.49	327.49	20.71	-43.0	-45.5	18.5	0.00e+00	0	43	0	1038090240	56	5101
2026-01-27 10:51:10.48	327.59	20.59	-43.1	-45.6	18.3	0.00e+00	0	43	0	1040187392	57	4913
2026-01-27 10:51:11.48	327.70	20.47	-43.5	-46.2	17.7	0.00e+00	0	43	0	1041235968	57	5278
2026-01-27 10:51:12.47	327.80	20.35	-44.1	-47.2	16.9	0.00e+00	0	43	0	1043333120	58	5544
2026-01-27 10:51:13.47	327.91	20.23	-44.0	-47.0	17.1	0.00e+00	0	43	0	1045430272	58	5450
2026-01-27 10:51:14.46	328.01	20.12	-44.4	-47.6	16.5	0.00e+00	0	43	0	1047527424	59	5472
2026-01-27 10:51:15.46	328.11	20.00	-44.6	-47.9	16.2	0.00e+00	0	43	0	1049624576	60	5390
2026-01-27 10:51:16.45	328.21	19.88	-44.9	-48.4	15.8	0.00e+00	0	43	0	1050673152	60	5690
2026-01-27 10:51:17.45	328.32	19.76	-45.4	-49.3	15.0	0.00e+00	0	43	0	1052770304	61	5935
2026-01-27 10:51:18.44	328.42	19.64	-45.2	-48.9	15.3	0.00e+00	0	43	0	1054867456	61	5704
2026-01-27 10:51:19.44	328.52	19.53	-45.3	-48.9	15.2	0.00e+00	0	43	0	1056964608	61	5714
2026-01-27 10:51:20.43	328.61	19.41	-45.4	-49.2	15.0	0.00e+00	0	43	0	1058013184	61	5919
2026-01-27 10:51:21.42	328.71	19.30	-45.1	-48.8	15.4	0.00e+00	0	43	0	1060110336	61	5622
2026-01-27 10:51:22.42	328.81	19.18	-45.1	-48.7	15.5	0.00e+00	0	43	0	1062207488	61	5563
2026-01-27 10:51:23.41	328.90	19.07	-44.8	-48.3	15.8	0.00e+00	0	43	0	1064304640	61	5280
2026-01-27 10:51:24.41	329.00	18.95	-44.6	-48.0	15.9	0.00e+00	0	43	0	1066401792	61	5159
2026-01-27 10:51:25.40	329.10	18.84	-44.7	-48.1	16.1	0.00e+00	0	43	0	1067450368	61	5183
2026-01-27 10:51:26.40	329.19	18.72	-44.2	-47.3	16.8	0.00e+00	0	43	0	1069547520	60	5020
2026-01-27 10:51:27.39	329.28	18.61	-44.1	-47.2	16.9	0.00e+00	0	43	0	1071644672	60	4930
2026-01-27 10:51:28.38	329.38	18.50	-44.2	-47.3	16.9	0.00e+00	0	43	0	1073741824	60	4991
2026-01-27 10:51:29.38	329.47	18.39	-44.2	-47.2	16.9	0.00e+00	0	43	0	1074790400	60	4931
2026-01-27 10:51:30.37	329.56	18.28	-44.1	-46.9	17.1	0.00e+00	0	43	0	1076887552	60	4810
2026-01-27 10:51:31.37	329.65	18.16	-44.1	-46.9	17.1	0.00e+00	0	43	0	1078984704	60	4792
2026-01-27 10:51:32.37	329.74	18.05	-44.1	-46.9	17.2	0.00e+00	0	43	0	1081081856	60	4779
2026-01-27 10:51:33.36	329.83	17.94	-44.3	-47.1	17.0	0.00e+00	0	43	0	1083179008	60	4895
2026-01-27 10:51:34.36	329.92	17.83	-44.4	-47.2	16.8	0.00e+00	0	43	0	1084227584	60	4973
2026-01-27 10:51:35.35	330.01	17.72	-44.5	-47.5	16.6	0.00e+00	0	43	0	1086324736	60	5112
2026-01-27 10:51:36.35	330.10	17.61	-44.7	-47.7	16.3	0.00e+00	0	43	0	1088421888	60	5271
2026-01-27 10:51:37.35	330.19	17.51	-44.7	-47.8	16.3	0.00e+00	0	43	0	1090519040	60	5308
2026-01-27 10:51:38.34	330.28	17.40	-44.8	-47.9	16.2	0.00e+00	0	43	0	1091567616	60	5367
2026-01-27 10:51:39.33	330.36	17.29	-44.9	-48.1	16.0	0.00e+00	0	43	0	1093664768	60	5481
2026-01-27 10:51:40.33	330.45	17.18	-44.9	-48.1	15.9	0.00e+00	0	43	0	1095761920	60	5511
2026-01-27 10:51:41.32	330.53	17.08	-45.1	-48.3	15.7	0.00e+00	0	43	0	1097859072	60	5646
2026-01-27 10:51:42.32	330.62	16.97	-45.1	-48.4	15.7	0.00e+00	0	43	0	1099956224	61	5343
2026-01-27 10:51:43.31	330.70	16.86	-45.2	-48.6	15.5	0.00e+00	0	43	0	1101004800	61	5483
2026-01-27 10:51:44.31	330.79	16.76	-45.4	-48.9	15.2	0.00e+00	0	43	0	1103101952	61	5705
2026-01-27 10:51:45.30	330.87	16.65	-45.4	-48.9	15.1	0.00e+00	0	43	0	1105199104	61	5701
2026-01-27 10:51:46.29	330.95	16.55	-45.3	-48.7	15.4	0.00e+00	0	43	0	1107296256	61	5584
2026-01-27 10:51:47.29	331.03	16.44	-45.1	-48.5	15.5	0.00e+00	0	43	0	1108344832	61	5433
2026-01-27 10:51:48.28	331.11	16.34	-45.0	-48.4	15.6	0.00e+00	0	43	0	1110441984	61	5372
2026-01-27 10:51:49.28	331.19	16.24	-44.8	-48.1	16.0	0.00e+00	0	43	0	1112539136	61	5163
2026-01-27 10:51:50.27	331.27	16.13	-44.9	-48.2	15.9	0.00e+00	0	43	0	1114636288	61	5244
2026-01-27 10:51:51.27	331.35	16.03	-44.8	-48.1	16.0	0.00e+00	0	43	0	1116733440	61	5205
2026-01-27 10:51:52.26	331.43	15.93	-44.5	-47.7	16.4	0.00e+00	0	43	0	1117782016	60	5256
2026-01-27 10:51:53.25	331.51	15.83	-44.6	-47.9	16.2	0.00e+00	0	43	0	1119879168	60	5341
2026-01-27 10:51:54.25	331.59	15.72	-44.3	-47.4	16.6	0.00e+00	0	43	0	1121976320	60	5077
2026-01-27 10:51:55.24	331.67	15.62	-44.3	-47.3	16.7	0.00e+00	0	43	0	1124073472	60	5038
2026-01-27 10:51:56.24	331.75	15.52	-44.4	-47.4	16.6	0.00e+00	0	43	0	1125122048	60	5095
2026-01-27 10:51:57.24	331.82	15.42	-44.1	-47.0	17.0	0.00e+00	0	43	0	1127219200	60	4864
2026-01-27 10:51:58.23	331.90	15.32	-44.1	-47.1	17.0	0.00e+00	0	43	0	1129316352	60	4881
2026-01-27 10:51:59.23	331.97	15.22	-44.2	-47.2	16.8	0.00e+00	0	43	0	1131413504	60	4932
2026-01-27 10:52:00.22	332.05	15.12	-44.3	-47.2	16.8	0.00e+00	0	43	0	1133510656	60	4958
2026-01-27 10:52:01.22	332.13	15.02	-44.1	-47.0	17.0	0.00e+00	0	43	0	1134559232	60	4853
2026-01-27 10:52:02.21	332.20	14.92	-44.1	-47.0	17.0	0.00e+00	0	43	0	1136656384	60	4834
2026-01-27 10:52:03.21	332.27	14.82	-44.0	-46.8	17.2	0.00e+00	0	43	0	1138753536	59	5001
2026-01-27 10:52:04.20	332.35	14.73	-44.2	-47.1	16.9	0.00e+00	0	43	0	1140850688	59	5182
2026-01-27 10:52:05.19	332.42	14.63	-44.1	-46.9	17.0	0.00e+00	0	43	0	1142947840	59	5094
2026-01-27 10:52:06.19	332.49	14.53	-44.3	-47.2	16.7	0.00e+00	0	43	0	1143996416	59	5273
2026-01-27 10:52:07.19	332.56	14.43	-44.3	-47.3	16.7	0.00e+00	0	43	0	1146093568	59	5280
2026-01-27 10:52:08.18	332.64	14.34	-44.3	-47.1	16.8	0.00e+00	0	43	0	1148190720	59	5211
2026-01-27 10:52:09.18	332.71	14.24	-44.3	-47.2	16.7	0.00e+00	0	43	0	1150287872	59	5268
2026-01-27 10:52:10.17	332.78	14.15	-44.5	-47.4	16.5	0.00e+00	0	43	0	1151336448	59	5378
2026-01-27 10:52:11.16	332.85	14.05	-44.4	-47.3	16.7	0.00e+00	0	43	0	1153433600	59	5320
2026-01-27 10:52:12.16	332.92	13.95	-44.5	-47.5	16.5	0.00e+00	0	43	0	1155530752	59	5426
2026-01-27 10:52:13.16	332.99	13.86	-44.3	-47.2	16.8	0.00e+00	0	43	0	1157627904	59	5225
2026-01-27 10:52:14.15	333.06	13.77	-44.4	-47.3	16.6	0.00e+00	0	43	0	1159725056	59	5323
2026-01-27 10:52:15.15	333.13	13.67	-44.4	-47.3	16.6	0.00e+00	0	43	0	1160773632	59	5323
2026-01-27 10:52:16.14	333.19	13.58	-44.3	-47.1	16.8	0.00e+00	0	43	0	1162870784	59	5216
2026-01-27 10:52:17.14	333.26	13.48	-44.2	-47.0	16.9	0.00e+00	0	43	0	1164967936	59	5122
2026-01-27 10:52:18.14	333.33	13.39	-44.2	-47.1	16.8	0.00e+00	0	43	0	1167065088	59	5171
2026-01-27 10:52:19.13	333.40	13.30	-44.2	-47.0	16.9	0.00e+00	0	43	0	1168113664	59	5150
2026-01-27 10:52:20.12	333.46	13.20	-44.3	-47.2	16.7	0.00e+00	0	43	0	1170210816	59	5234
2026-01-27 10:52:21.12	333.53	13.11	-43.8	-46.5	17.3	0.00e+00	0	43	0	1172307968	59	4853
2026-01-27 10:52:22.11	333.60	13.02	-43.8	-46.5	17.3	0.00e+00	0	43	0	1174405120	59	4854
2026-01-27 10:52:23.11	333.66	12.93	-43.8	-46.4	17.4	0.00e+00	0	43	0	1176502272	59	4812
2026-01-27 10:52:24.10	333.73	12.84	-43.8	-46.5	17.3	0.00e+00	0	43	0	1177550848	59	4843
2026-01-27 10:52:25.09	333.79	12.75	-43.8	-46.5	17.3	0.00e+00	0	43	0	1179648000	59	4856
2026-01-27 10:52:26.09	333.86	12.66	-43.8	-46.5	17.4	0.00e+00	0	43	0	1181745152	59	4822
2026-01-27 10:52:27.08	333.92	12.57	-44.0	-46.8	17.0	0.00e+00	0	43	0	1183842304	59	5015
2026-01-27 10:52:28.08	333.98	12.47	-44.0	-46.8	17.0	0.00e+00	0	43	0	1184890880	59	5013
2026-01-27 10:52:29.07	334.05	12.39	-44.0	-46.8	17.1	0.00e+00	0	43	0	1186988032	59	4995
2026-01-27 10:52:30.06	334.11	12.30	-44.2	-47.0	16.9	0.00e+00	0	43	0	1189085184	59	5129
2026-01-27 10:52:31.06	334.17	12.21	-44.2	-47.1	16.7	0.00e+00	0	43	0	1191182336	59	5205
2026-01-27 10:52:32.05	334.23	12.12	-44.4	-47.3	16.5	0.00e+00	0	43	0	1193279488	59	5326
2026-01-27 10:52:33.05	334.30	12.03	-44.4	-47.4	16.5	0.00e+00	0	43	0	1194328064	59	5364
2026-01-27 10:52:34.04	334.36	11.94	-44.6	-47.6	16.2	0.00e+00	0	43	0	1196425216	59	5507
2026-01-27 10:52:35.03	334.42	11.85	-44.6	-47.7	16.2	0.00e+00	0	43	0	1198522368	60	5278
2026-01-27 10:52:36.03	334.48	11.77	-44.7	-47.8	16.1	0.00e+00	0	43	0	1200619520	60	5319
2026-01-27 10:52:37.02	334.54	11.68	-44.8	-48.0	15.9	0.00e+00	0	43	0	1201668096	60	5447
2026-01-27 10:52:38.02	334.60	11.59	-44.9	-48.2	15.7	0.00e+00	0	43	0	1203765248	60	5568
2026-01-27 10:52:39.01	334.66	11.50	-45.0	-48.3	15.6	0.00e+00	0	43	0	1205862400	60	5629
2026-01-27 10:52:40.01	334.72	11.42	-45.0	-48.4	15.5	0.00e+00	0	43	0	1207959552	60	5682
2026-01-27 10:52:41.00	334.78	11.33	-45.2	-48.7	15.2	0.00e+00	0	43	0	1210056704	61	5567
2026-01-27 10:52:42.00	334.84	11.24	-45.4	-48.9	15.0	0.00e+00	0	43	0	1211105280	61	5715
2026-01-27 10:52:42.99	334.90	11.16	-45.5	-49.1	14.8	0.00e+00	0	43	0	1213202432	61	5852
2026-01-27 10:52:43.99	334.95	11.07	-45.5	-49.2	14.7	7.00e-07	0	43	0	1215299584	61	5876
2026-01-27 10:52:44.99	335.01	10.99	-45.5	-49.2	14.7	0.00e+00	0	43	0	1217396736	61	5923
2026-01-27 10:52:45.98	335.07	10.90	-45.4	-49.1	14.7	0.00e+00	0	43	0	1218445312	61	5855
