passes_logs/2026/01/27/T1/T1__20260127_132110_FENGYUN_3E_rec.log

#Pass ID: 20260127_132110_FENGYUN 3E
#Satellite: FENGYUN 3E
#Configuration: FENGYUN 3E
#almurnet v.1.7.20251203
#Start time: 2026-01-27 13:21:11

#Version: 2.0.20230620
#Station: T1
#Location: 37.570604 lon 55.790049 lat
#TLE: 1 49008U 21062A   26026.84429991  .00000247  00000+0  13693-3 0  9991
#TLE: 2 49008  98.7501  31.8345 0002501 116.3456 243.7977 14.19887781236522

#Time	Az	El	Level	Level2	SNR	BER	BlckErr	Temp	State	Recorded	gain1	gain2
2026-01-27 13:21:11.86	133.29	5.11	-51.2	-62.0	3.8	8.46e-01	0	42	0	0	72	12799
2026-01-27 13:21:12.85	133.25	5.18	-51.4	-62.0	3.8	8.46e-01	0	42	104	0	72	12754
2026-01-27 13:21:13.85	133.21	5.25	-51.3	-62.1	3.8	8.47e-01	0	42	104	0	72	12820
2026-01-27 13:21:14.84	133.16	5.31	-51.2	-62.1	3.8	8.46e-01	0	42	104	0	72	12813
2026-01-27 13:21:15.83	133.12	5.38	-51.3	-62.0	3.8	8.46e-01	0	42	104	0	72	12777
2026-01-27 13:21:16.82	133.07	5.45	-51.2	-62.0	3.8	8.46e-01	0	42	104	0	72	12706
2026-01-27 13:21:17.82	133.03	5.52	-51.1	-62.0	3.8	8.46e-01	0	42	104	0	72	12743
2026-01-27 13:21:18.81	132.98	5.59	-51.1	-61.9	3.8	8.47e-01	0	42	104	0	72	12660
2026-01-27 13:21:19.80	132.93	5.66	-51.1	-61.9	3.8	8.46e-01	0	42	104	0	72	12663
2026-01-27 13:21:20.80	132.89	5.73	-50.8	-61.9	3.8	8.49e-01	0	42	104	0	72	12641
2026-01-27 13:21:21.79	132.84	5.80	-51.1	-61.8	3.8	8.47e-01	0	42	104	0	72	12461
2026-01-27 13:21:22.78	132.80	5.87	-51.0	-61.7	3.8	8.46e-01	0	42	104	0	72	12320
2026-01-27 13:21:23.78	132.75	5.94	-50.9	-61.7	3.8	8.48e-01	0	42	104	0	72	12261
2026-01-27 13:21:24.77	132.70	6.01	-50.9	-61.7	3.8	8.47e-01	0	42	104	0	72	12278
2026-01-27 13:21:25.76	132.65	6.08	-50.8	-61.6	3.8	8.47e-01	0	42	104	0	72	12137
2026-01-27 13:21:26.76	132.61	6.15	-50.7	-61.5	3.8	8.46e-01	0	42	104	0	72	11975
2026-01-27 13:21:27.75	132.56	6.23	-50.4	-60.3	3.8	8.46e-01	0	42	104	0	71	11133
2026-01-27 13:21:28.74	132.51	6.30	-50.2	-60.2	3.8	8.46e-01	0	43	104	0	71	10926
2026-01-27 13:21:29.73	132.46	6.37	-50.3	-60.3	3.8	8.48e-01	0	42	104	0	71	11114
2026-01-27 13:21:30.73	132.41	6.44	-50.3	-60.5	3.8	8.47e-01	0	42	104	0	71	11387
2026-01-27 13:21:31.72	132.37	6.51	-50.3	-60.7	3.8	8.48e-01	0	42	104	0	71	11611
2026-01-27 13:21:32.71	132.32	6.58	-50.3	-60.8	3.8	8.47e-01	0	42	104	0	71	11773
2026-01-27 13:21:33.70	132.27	6.65	-50.3	-60.9	3.8	8.46e-01	0	43	104	0	71	11903
2026-01-27 13:21:34.70	132.22	6.73	-50.3	-61.0	3.8	8.46e-01	0	42	104	0	71	11973
2026-01-27 13:21:35.69	132.17	6.80	-50.3	-60.9	3.8	8.47e-01	0	42	104	0	71	11922
2026-01-27 13:21:36.68	132.12	6.87	-50.3	-60.8	3.8	8.46e-01	0	43	104	0	71	11768
2026-01-27 13:21:37.68	132.07	6.95	-50.3	-60.6	3.8	8.46e-01	0	43	104	0	71	11498
2026-01-27 13:21:38.67	132.02	7.02	-50.3	-60.5	3.8	8.48e-01	0	42	104	0	71	11295
2026-01-27 13:21:39.66	131.97	7.09	-50.3	-60.4	3.8	8.47e-01	0	43	104	0	71	11158
2026-01-27 13:21:40.65	131.92	7.16	-50.2	-60.2	3.8	8.47e-01	0	43	104	0	71	10965
2026-01-27 13:21:41.65	131.86	7.24	-50.2	-59.9	3.8	8.47e-01	0	43	104	0	71	10630
2026-01-27 13:21:42.64	131.81	7.31	-50.1	-59.2	3.8	8.48e-01	0	43	104	0	71	9751
2026-01-27 13:21:43.63	131.76	7.39	-49.9	-57.8	4.0	8.44e-01	0	43	104	0	70	8862
2026-01-27 13:21:44.63	131.71	7.46	-49.4	-55.8	4.9	8.01e-01	0	43	0	0	69	7437
2026-01-27 13:21:45.62	131.66	7.53	-48.7	-53.7	6.4	3.54e-01	0	43	0	3145728	68	6156
2026-01-27 13:21:46.61	131.60	7.61	-47.6	-51.6	8.2	9.63e-02	0	43	0	9437184	66	5433
2026-01-27 13:21:47.60	131.55	7.68	-46.6	-49.8	10.0	1.20e-02	0	43	0	16777216	64	4945
2026-01-27 13:21:48.60	131.50	7.76	-45.5	-48.0	11.9	8.98e-04	0	43	0	24117248	61	4812
2026-01-27 13:21:49.59	131.44	7.83	-44.2	-46.4	13.4	3.31e-05	0	43	0	31457280	59	4468
2026-01-27 13:21:50.58	131.39	7.91	-43.3	-45.2	14.6	0.00e+00	0	43	0	38797312	57	4374
2026-01-27 13:21:51.58	131.34	7.99	-42.6	-44.5	15.4	1.10e-06	0	43	0	46137344	56	4244
2026-01-27 13:21:52.57	131.28	8.06	-41.7	-43.4	16.3	0.00e+00	0	43	0	53477376	54	4197
2026-01-27 13:21:53.56	131.23	8.14	-41.2	-42.8	16.7	0.00e+00	0	43	0	59768832	53	4178
2026-01-27 13:21:54.56	131.17	8.21	-40.9	-42.4	17.1	0.00e+00	0	43	0	67108864	52	4238
2026-01-27 13:21:55.55	131.12	8.29	-40.9	-42.4	17.1	0.00e+00	0	43	0	74448896	52	4230
2026-01-27 13:21:56.54	131.06	8.37	-40.8	-42.3	17.2	0.00e+00	0	43	0	81788928	52	4189
2026-01-27 13:21:57.53	131.00	8.44	-41.3	-42.9	16.7	0.00e+00	0	43	0	89128960	52	4451
2026-01-27 13:21:58.53	130.95	8.52	-41.8	-43.5	16.1	0.00e+00	0	43	0	96468992	52	4777
2026-01-27 13:21:59.52	130.89	8.60	-42.7	-44.5	15.2	0.00e+00	0	43	0	102760448	54	4799
2026-01-27 13:22:00.51	130.83	8.67	-43.7	-45.7	14.1	1.10e-06	0	43	0	110100480	56	4902
2026-01-27 13:22:01.51	130.78	8.75	-44.8	-47.1	12.8	4.80e-05	0	43	0	117440512	58	5111
2026-01-27 13:22:02.50	130.72	8.83	-46.0	-48.9	11.0	8.30e-04	0	43	0	124780544	61	5284
2026-01-27 13:22:03.49	130.66	8.91	-47.3	-51.0	8.8	2.43e-02	0	43	0	132120576	64	5663
2026-01-27 13:22:04.49	130.60	8.99	-48.4	-53.2	6.6	1.60e-01	0	43	0	138412032	66	6561
2026-01-27 13:22:05.48	130.55	9.07	-48.2	-52.7	7.0	7.07e-01	0	43	0	143654912	67	5834
2026-01-27 13:22:06.47	130.49	9.14	-47.8	-51.9	8.0	3.45e-02	0	43	0	150994944	64	6283
2026-01-27 13:22:07.47	130.43	9.22	-48.8	-54.2	5.8	4.40e-01	0	43	0	158334976	67	6913
2026-01-27 13:22:08.46	130.37	9.30	-48.7	-53.8	6.1	8.44e-01	0	43	104	159383552	68	6239
2026-01-27 13:22:09.46	130.31	9.38	-47.9	-52.3	7.6	3.05e-03	0	43	0	164626432	65	6251
2026-01-27 13:22:10.45	130.25	9.46	-50.3	-60.9	3.8	8.48e-01	0	43	104	165675008	70	12574
2026-01-27 13:22:11.45	130.19	9.54	-50.2	-60.4	3.8	8.46e-01	0	43	104	165675008	70	11940
2026-01-27 13:22:12.44	130.13	9.62	-50.3	-60.8	3.8	8.47e-01	0	43	104	165675008	70	12518
2026-01-27 13:22:13.43	130.06	9.70	-50.3	-60.9	3.8	8.47e-01	0	43	104	165675008	70	12636
2026-01-27 13:22:14.43	130.00	9.78	-50.3	-60.9	3.8	8.47e-01	0	43	104	165675008	70	12619
2026-01-27 13:22:15.42	129.94	9.86	-50.3	-61.1	3.8	8.47e-01	0	43	104	165675008	70	12813
2026-01-27 13:22:16.41	129.88	9.94	-50.3	-61.1	3.8	8.47e-01	0	44	104	165675008	70	12854
2026-01-27 13:22:17.41	129.82	10.03	-50.3	-61.1	3.8	8.47e-01	0	44	104	165675008	70	12947
2026-01-27 13:22:18.40	129.75	10.11	-50.3	-61.0	3.8	8.47e-01	0	43	104	165675008	70	12784
2026-01-27 13:22:19.39	129.69	10.19	-50.3	-60.9	3.8	8.47e-01	0	44	104	165675008	70	12578
2026-01-27 13:22:20.38	129.63	10.27	-50.3	-60.8	3.8	8.46e-01	0	44	104	165675008	70	12398
2026-01-27 13:22:21.38	129.56	10.35	-50.3	-60.8	3.8	8.47e-01	0	44	104	165675008	70	12417
2026-01-27 13:22:22.37	129.50	10.44	-50.3	-60.7	3.8	8.46e-01	0	44	104	165675008	70	12375
2026-01-27 13:22:23.36	129.43	10.52	-50.3	-60.8	3.8	8.48e-01	0	44	104	165675008	70	12464
2026-01-27 13:22:24.35	129.37	10.60	-50.3	-60.9	3.8	8.46e-01	0	44	104	165675008	70	12584
2026-01-27 13:22:25.35	129.30	10.68	-50.3	-60.9	3.8	8.47e-01	0	44	104	165675008	70	12655
2026-01-27 13:22:26.34	129.24	10.77	-50.3	-60.9	3.8	8.47e-01	0	44	104	165675008	70	12645
2026-01-27 13:22:27.33	129.17	10.85	-50.3	-60.9	3.8	8.47e-01	0	44	104	165675008	70	12632
2026-01-27 13:22:28.33	129.10	10.93	-50.3	-60.9	3.8	8.49e-01	0	44	104	165675008	70	12587
2026-01-27 13:22:29.32	129.04	11.02	-50.3	-61.0	3.8	8.46e-01	0	44	104	165675008	70	12670
2026-01-27 13:22:30.31	128.97	11.10	-50.3	-61.0	3.8	8.46e-01	0	44	104	165675008	70	12807
2026-01-27 13:22:31.30	128.90	11.19	-50.3	-61.0	3.8	8.48e-01	0	44	104	165675008	70	12745
2026-01-27 13:22:32.30	128.83	11.27	-50.3	-61.0	3.8	8.46e-01	0	44	104	165675008	70	12766
2026-01-27 13:22:33.29	128.76	11.36	-50.3	-61.0	3.8	8.47e-01	0	44	104	165675008	70	12809
2026-01-27 13:22:34.28	128.69	11.44	-50.3	-61.1	3.8	8.47e-01	0	44	104	165675008	70	12913
2026-01-27 13:22:35.28	128.62	11.53	-50.3	-61.1	3.8	8.47e-01	0	44	104	165675008	70	12826
2026-01-27 13:22:36.27	128.55	11.61	-50.3	-61.1	3.8	8.47e-01	0	44	104	165675008	70	12875
2026-01-27 13:22:37.26	128.48	11.70	-50.3	-61.0	3.8	8.46e-01	0	44	104	165675008	70	12727
2026-01-27 13:22:38.26	128.41	11.79	-50.3	-60.9	3.8	8.47e-01	0	44	104	165675008	70	12597
2026-01-27 13:22:39.25	128.34	11.87	-50.3	-60.8	3.8	8.49e-01	0	44	104	165675008	70	12512
2026-01-27 13:22:40.24	128.27	11.96	-50.3	-60.9	3.8	8.47e-01	0	44	104	165675008	70	12614
2026-01-27 13:22:41.23	128.20	12.05	-50.3	-60.9	3.8	8.46e-01	0	44	104	165675008	70	12611
2026-01-27 13:22:42.23	128.12	12.14	-50.3	-61.1	3.8	8.46e-01	0	44	104	165675008	70	12812
2026-01-27 13:22:43.22	128.05	12.22	-50.3	-61.1	3.8	8.46e-01	0	44	104	165675008	70	12857
2026-01-27 13:22:44.21	127.98	12.31	-50.3	-61.1	3.8	8.48e-01	0	44	104	165675008	70	12943
2026-01-27 13:22:45.20	127.90	12.40	-50.3	-61.1	3.8	8.47e-01	0	44	104	165675008	70	12900
2026-01-27 13:22:46.20	127.83	12.49	-50.3	-61.0	3.8	8.47e-01	0	44	104	165675008	70	12696
2026-01-27 13:22:47.19	127.75	12.58	-50.3	-61.0	3.8	8.47e-01	0	44	104	165675008	70	12714
2026-01-27 13:22:48.18	127.68	12.67	-50.3	-61.0	3.8	8.47e-01	0	44	104	165675008	70	12721
2026-01-27 13:22:49.18	127.60	12.76	-50.3	-61.0	3.8	8.47e-01	0	44	104	165675008	70	12676
2026-01-27 13:22:50.17	127.53	12.84	-50.3	-61.0	3.8	8.47e-01	0	44	104	165675008	70	12734
2026-01-27 13:22:51.16	127.45	12.93	-50.3	-61.0	3.8	8.47e-01	0	44	104	165675008	70	12721
2026-01-27 13:22:52.16	127.37	13.03	-50.3	-61.0	3.8	8.46e-01	0	44	104	165675008	70	12665
2026-01-27 13:22:53.15	127.29	13.12	-50.3	-61.0	3.8	8.47e-01	0	44	104	165675008	70	12765
2026-01-27 13:22:54.14	127.22	13.21	-50.3	-61.0	3.8	8.45e-01	0	44	104	165675008	70	12778
2026-01-27 13:22:55.14	127.14	13.30	-50.3	-61.0	3.8	8.47e-01	0	44	104	165675008	70	12724
2026-01-27 13:22:56.13	127.06	13.39	-50.3	-61.1	3.8	8.47e-01	0	44	104	165675008	70	12844
2026-01-27 13:22:57.12	126.98	13.48	-50.3	-61.1	3.8	8.46e-01	0	44	104	165675008	70	12911
2026-01-27 13:22:58.11	126.90	13.57	-50.3	-61.1	3.8	8.47e-01	0	44	104	165675008	70	12924
2026-01-27 13:22:59.11	126.82	13.66	-50.3	-61.0	3.8	8.46e-01	0	44	104	165675008	70	12798
2026-01-27 13:23:00.10	126.73	13.76	-50.3	-61.0	3.8	8.47e-01	0	44	104	165675008	70	12770
2026-01-27 13:23:01.09	126.65	13.85	-50.3	-61.0	3.8	8.47e-01	0	44	104	165675008	70	12771
2026-01-27 13:23:02.09	126.57	13.94	-50.3	-61.0	3.8	8.47e-01	0	44	104	165675008	70	12778
2026-01-27 13:23:03.08	126.49	14.04	-50.3	-61.0	3.8	8.48e-01	0	44	104	165675008	70	12736
2026-01-27 13:23:04.07	126.40	14.13	-50.3	-61.0	3.8	8.46e-01	0	44	104	165675008	70	12692
2026-01-27 13:23:05.07	126.32	14.22	-50.3	-61.0	3.8	8.47e-01	0	44	104	165675008	70	12676
2026-01-27 13:23:06.06	126.24	14.32	-50.3	-61.0	3.8	8.47e-01	0	44	104	165675008	70	12772
2026-01-27 13:23:07.05	126.15	14.41	-50.3	-61.0	3.8	8.46e-01	0	44	104	165675008	70	12670
2026-01-27 13:23:08.05	126.06	14.51	-50.3	-61.1	3.8	8.47e-01	0	44	104	165675008	70	12812
2026-01-27 13:23:09.04	125.98	14.60	-50.3	-61.1	3.8	8.47e-01	0	44	104	165675008	70	12817
2026-01-27 13:23:10.03	125.89	14.70	-50.3	-61.0	3.8	8.47e-01	0	44	104	165675008	70	12721
2026-01-27 13:23:11.02	125.80	14.79	-50.3	-61.0	3.8	8.47e-01	0	44	104	165675008	70	12732
2026-01-27 13:23:12.02	125.72	14.89	-50.3	-61.0	3.8	8.47e-01	0	44	104	165675008	70	12767
2026-01-27 13:23:13.01	125.63	14.99	-50.3	-61.0	3.8	8.46e-01	0	44	104	165675008	70	12725
2026-01-27 13:23:14.00	125.54	15.08	-50.3	-61.0	3.8	8.46e-01	0	44	104	165675008	70	12704
2026-01-27 13:23:14.99	125.45	15.18	-50.3	-61.0	3.8	8.46e-01	0	44	104	165675008	70	12694
2026-01-27 13:23:15.99	125.36	15.28	-50.3	-61.0	3.8	8.47e-01	0	44	104	165675008	70	12777
2026-01-27 13:23:16.98	125.27	15.38	-50.3	-61.0	3.8	8.46e-01	0	44	104	165675008	70	12807
2026-01-27 13:23:17.98	125.17	15.47	-50.3	-61.0	3.8	8.47e-01	0	44	104	165675008	70	12778
2026-01-27 13:23:18.97	125.08	15.57	-50.3	-61.0	3.8	8.47e-01	0	44	104	165675008	70	12767
2026-01-27 13:23:19.96	124.99	15.67	-50.3	-61.1	3.8	8.45e-01	0	44	104	165675008	70	12843
2026-01-27 13:23:20.95	124.90	15.77	-50.3	-61.1	3.8	8.46e-01	0	44	104	165675008	70	12837
2026-01-27 13:23:21.95	124.80	15.87	-50.3	-61.1	3.8	8.47e-01	0	44	104	165675008	70	12861
2026-01-27 13:23:22.94	124.71	15.97	-50.3	-61.1	3.8	8.47e-01	0	44	104	165675008	70	12928
2026-01-27 13:23:23.93	124.61	16.07	-50.3	-61.1	3.8	8.47e-01	0	44	104	165675008	70	12823
2026-01-27 13:23:24.92	124.52	16.17	-50.3	-61.1	3.8	8.46e-01	0	44	104	165675008	70	12860
2026-01-27 13:23:25.92	124.42	16.27	-50.3	-61.1	3.8	8.46e-01	0	44	104	165675008	70	12823
2026-01-27 13:23:26.91	124.32	16.37	-50.3	-61.1	3.8	8.47e-01	0	44	104	165675008	70	12869
2026-01-27 13:23:27.90	124.22	16.47	-50.3	-61.1	3.8	8.46e-01	0	44	104	165675008	70	12845
2026-01-27 13:23:28.90	124.12	16.57	-50.3	-61.1	3.8	8.47e-01	0	44	104	165675008	70	12816
2026-01-27 13:23:29.89	124.03	16.68	-50.3	-61.0	3.8	8.47e-01	0	44	104	165675008	70	12720
2026-01-27 13:23:30.88	123.93	16.78	-50.3	-61.1	3.8	8.47e-01	0	44	104	165675008	70	12811
2026-01-27 13:23:31.88	123.82	16.88	-50.3	-61.0	3.8	8.48e-01	0	44	104	165675008	70	12732
2026-01-27 13:23:32.87	123.72	16.98	-50.3	-61.0	3.8	8.47e-01	0	44	104	165675008	70	12807
2026-01-27 13:23:33.86	123.62	17.09	-50.3	-61.0	3.8	8.47e-01	0	44	104	165675008	70	12770
2026-01-27 13:23:34.85	123.52	17.19	-50.3	-61.0	3.8	8.46e-01	0	44	104	165675008	70	12774
2026-01-27 13:23:35.85	123.41	17.30	-50.3	-61.0	3.8	8.46e-01	0	44	104	165675008	70	12756
2026-01-27 13:23:36.84	123.31	17.40	-50.3	-61.1	3.8	8.47e-01	0	44	104	165675008	70	12925
2026-01-27 13:23:37.83	123.20	17.50	-50.3	-61.1	3.8	8.46e-01	0	44	104	165675008	70	12870
2026-01-27 13:23:38.83	123.10	17.61	-50.3	-61.1	3.8	8.46e-01	0	44	104	165675008	70	12885
2026-01-27 13:23:39.82	122.99	17.71	-50.3	-61.1	3.8	8.48e-01	0	44	104	165675008	70	12879
2026-01-27 13:23:40.81	122.88	17.82	-50.3	-61.1	3.8	8.47e-01	0	44	104	165675008	70	12842
2026-01-27 13:23:41.80	122.78	17.93	-50.3	-61.0	3.8	8.48e-01	0	44	104	165675008	70	12809
2026-01-27 13:23:42.80	122.67	18.03	-50.3	-61.0	3.8	8.47e-01	0	44	104	165675008	70	12774
2026-01-27 13:23:43.79	122.56	18.14	-50.3	-61.1	3.8	8.47e-01	0	44	104	165675008	70	12885
2026-01-27 13:23:44.78	122.45	18.25	-50.3	-61.1	3.8	8.46e-01	0	44	104	165675008	70	12846
2026-01-27 13:23:45.78	122.34	18.36	-50.3	-61.1	3.8	8.48e-01	0	44	104	165675008	70	12820
2026-01-27 13:23:46.77	122.22	18.46	-50.3	-61.1	3.8	8.47e-01	0	44	104	165675008	70	12894
2026-01-27 13:23:47.76	122.11	18.57	-50.3	-61.1	3.8	8.46e-01	0	44	104	165675008	70	12871
2026-01-27 13:23:48.75	122.00	18.68	-50.3	-61.1	3.8	8.47e-01	0	44	104	165675008	70	12873
2026-01-27 13:23:49.75	121.88	18.79	-50.3	-61.1	3.8	8.47e-01	0	44	104	165675008	70	12811
2026-01-27 13:23:50.74	121.77	18.90	-50.3	-61.1	3.8	8.47e-01	0	44	104	165675008	70	12893
2026-01-27 13:23:51.73	121.65	19.01	-50.3	-61.1	3.8	8.47e-01	0	44	104	165675008	70	12852
2026-01-27 13:23:52.73	121.53	19.12	-50.3	-61.0	3.8	8.47e-01	0	44	104	165675008	70	12808
2026-01-27 13:23:53.72	121.41	19.23	-50.3	-61.1	3.8	8.47e-01	0	44	104	165675008	70	12940
2026-01-27 13:23:54.71	121.30	19.34	-50.3	-61.1	3.8	8.46e-01	0	44	104	165675008	70	12844
2026-01-27 13:23:55.71	121.18	19.45	-50.3	-61.1	3.8	8.48e-01	0	44	104	165675008	70	12914
2026-01-27 13:23:56.70	121.06	19.56	-50.3	-61.1	3.8	8.48e-01	0	44	104	165675008	70	12823
2026-01-27 13:23:57.69	120.93	19.67	-50.3	-61.1	3.8	8.48e-01	0	44	104	165675008	70	12849
2026-01-27 13:23:58.69	120.81	19.79	-50.3	-61.1	3.8	8.48e-01	0	44	104	165675008	70	12856
2026-01-27 13:23:59.68	120.69	19.90	-50.3	-61.1	3.8	8.47e-01	0	44	104	165675008	70	12924
2026-01-27 13:24:00.67	120.56	20.01	-50.3	-61.1	3.8	8.47e-01	0	44	104	165675008	70	12875
2026-01-27 13:24:01.66	120.44	20.12	-50.3	-61.1	3.8	8.47e-01	0	44	104	165675008	70	12829
2026-01-27 13:24:02.66	120.31	20.24	-50.3	-61.1	3.8	8.47e-01	0	44	104	165675008	70	12827
2026-01-27 13:24:03.65	120.18	20.35	-50.3	-61.1	3.8	8.46e-01	0	44	104	165675008	70	12833
2026-01-27 13:24:04.64	120.06	20.47	-50.3	-61.1	3.8	8.47e-01	0	44	104	165675008	70	12862
2026-01-27 13:24:05.64	119.93	20.58	-50.3	-61.1	3.8	8.47e-01	0	44	104	165675008	70	12831
2026-01-27 13:24:06.63	119.80	20.70	-50.3	-61.1	3.8	8.47e-01	0	44	104	165675008	70	12880
2026-01-27 13:24:07.62	119.67	20.81	-50.3	-61.1	3.8	8.47e-01	0	44	104	165675008	70	12816
2026-01-27 13:24:08.62	119.53	20.93	-50.3	-61.0	3.8	8.48e-01	0	44	104	165675008	70	12770
2026-01-27 13:24:09.61	119.40	21.05	-50.3	-61.1	3.8	8.48e-01	0	44	104	165675008	70	12867
2026-01-27 13:24:10.60	119.27	21.16	-50.3	-61.1	3.8	8.48e-01	0	44	104	165675008	70	12899
2026-01-27 13:24:11.59	119.13	21.28	-50.3	-61.0	3.8	8.47e-01	0	44	104	165675008	70	12809
2026-01-27 13:24:12.59	118.99	21.40	-50.3	-61.1	3.8	8.48e-01	0	44	104	165675008	70	12834
2026-01-27 13:24:13.58	118.86	21.51	-50.3	-61.1	3.8	8.47e-01	0	44	104	165675008	70	12820
2026-01-27 13:24:14.57	118.72	21.63	-50.3	-61.1	3.8	8.47e-01	0	44	104	165675008	70	12835
2026-01-27 13:24:15.57	118.58	21.75	-50.3	-61.0	3.8	8.47e-01	0	44	104	165675008	70	12808
2026-01-27 13:24:16.56	118.44	21.87	-50.3	-61.1	3.8	8.47e-01	0	44	104	165675008	70	12908
2026-01-27 13:24:17.55	118.30	21.99	-50.3	-61.0	3.8	8.47e-01	0	44	104	165675008	70	12700
2026-01-27 13:24:18.54	118.16	22.11	-50.3	-61.1	3.8	8.46e-01	0	44	104	165675008	70	12847
2026-01-27 13:24:19.54	118.01	22.23	-50.3	-61.1	3.8	8.46e-01	0	44	104	165675008	70	12890
2026-01-27 13:24:20.53	117.87	22.35	-50.3	-61.0	3.8	8.47e-01	0	44	104	165675008	70	12808
2026-01-27 13:24:21.52	117.72	22.47	-50.3	-61.1	3.8	8.47e-01	0	44	104	165675008	70	12841
2026-01-27 13:24:22.52	117.57	22.59	-50.3	-61.1	3.8	8.47e-01	0	44	104	165675008	70	12851
2026-01-27 13:24:23.51	117.42	22.71	-50.2	-61.0	3.8	8.46e-01	0	44	104	165675008	70	12757
2026-01-27 13:24:24.50	117.28	22.83	-50.3	-61.1	3.8	8.47e-01	0	44	104	165675008	70	12899
2026-01-27 13:24:25.50	117.12	22.96	-50.3	-61.1	3.8	8.46e-01	0	44	104	165675008	70	12873
2026-01-27 13:24:26.49	116.97	23.08	-50.2	-61.0	3.8	8.48e-01	0	44	104	165675008	70	12778
2026-01-27 13:24:27.48	116.82	23.20	-50.2	-61.1	3.8	8.46e-01	0	44	104	165675008	70	12823
2026-01-27 13:24:28.48	116.66	23.33	-50.3	-61.1	3.8	8.46e-01	0	44	104	165675008	70	12852
2026-01-27 13:24:29.47	116.51	23.45	-50.2	-61.1	3.8	8.46e-01	0	44	104	165675008	70	12845
2026-01-27 13:24:30.46	116.35	23.57	-50.2	-61.0	3.8	8.48e-01	0	44	104	165675008	70	12810
2026-01-27 13:24:31.46	116.19	23.70	-50.3	-61.0	3.8	8.48e-01	0	44	104	165675008	70	12769
2026-01-27 13:24:32.45	116.03	23.82	-50.2	-61.0	3.8	8.46e-01	0	44	104	165675008	70	12766
2026-01-27 13:24:33.44	115.87	23.95	-50.2	-61.0	3.8	8.46e-01	0	44	104	165675008	70	12793
2026-01-27 13:24:34.44	115.71	24.07	-50.3	-61.0	3.8	8.47e-01	0	44	104	165675008	70	12799
2026-01-27 13:24:35.43	115.55	24.20	-50.2	-61.0	3.8	8.47e-01	0	44	104	165675008	70	12752
2026-01-27 13:24:36.42	115.38	24.33	-50.2	-61.0	3.8	8.47e-01	0	44	104	165675008	70	12779
2026-01-27 13:24:37.41	115.22	24.45	-50.2	-61.0	3.8	8.47e-01	0	44	104	165675008	70	12735
2026-01-27 13:24:38.41	115.05	24.58	-50.2	-61.0	3.8	8.47e-01	0	44	104	165675008	70	12769
2026-01-27 13:24:39.40	114.88	24.71	-50.2	-61.0	3.8	8.47e-01	0	44	104	165675008	70	12753
2026-01-27 13:24:40.39	114.71	24.83	-50.2	-61.0	3.8	8.47e-01	0	44	104	165675008	70	12778
2026-01-27 13:24:41.39	114.54	24.96	-50.2	-61.0	3.8	8.46e-01	0	44	104	165675008	70	12789
2026-01-27 13:24:42.38	114.36	25.09	-50.2	-61.0	3.8	8.45e-01	0	44	104	165675008	70	12783
2026-01-27 13:24:43.37	114.19	25.22	-50.2	-61.0	3.8	8.46e-01	0	44	104	165675008	70	12800
2026-01-27 13:24:44.37	114.01	25.35	-50.2	-61.0	3.8	8.46e-01	0	44	104	165675008	70	12759
2026-01-27 13:24:45.36	113.84	25.48	-50.2	-61.0	3.8	8.47e-01	0	44	104	165675008	70	12761
2026-01-27 13:24:46.35	113.66	25.61	-50.2	-61.0	3.8	8.46e-01	0	44	104	165675008	70	12756
2026-01-27 13:24:47.34	113.48	25.74	-50.2	-61.0	3.8	8.45e-01	0	44	104	165675008	70	12768
2026-01-27 13:24:48.34	113.29	25.87	-50.2	-61.0	3.8	8.47e-01	0	44	104	165675008	70	12796
2026-01-27 13:24:49.33	113.11	26.00	-50.2	-61.0	3.8	8.47e-01	0	44	104	165675008	70	12729
2026-01-27 13:24:50.32	112.93	26.13	-50.2	-61.0	3.8	8.47e-01	0	44	104	165675008	70	12700
2026-01-27 13:24:51.32	112.74	26.26	-50.2	-61.1	3.8	8.47e-01	0	44	104	165675008	70	12826
2026-01-27 13:24:52.31	112.55	26.39	-50.2	-61.0	3.8	8.48e-01	0	44	104	165675008	70	12758
2026-01-27 13:24:53.30	112.36	26.52	-50.2	-61.0	3.8	8.47e-01	0	44	104	165675008	70	12778
2026-01-27 13:24:54.29	112.17	26.65	-50.2	-61.0	3.8	8.48e-01	0	44	104	165675008	70	12732
2026-01-27 13:24:55.29	111.98	26.79	-50.2	-61.0	3.8	8.48e-01	0	44	104	165675008	70	12766
2026-01-27 13:24:56.28	111.78	26.92	-50.2	-61.0	3.8	8.46e-01	0	44	104	165675008	70	12722
2026-01-27 13:24:57.27	111.59	27.05	-50.2	-61.1	3.8	8.47e-01	0	44	104	165675008	70	12818
2026-01-27 13:24:58.26	111.39	27.19	-50.2	-61.0	3.8	8.47e-01	0	44	104	165675008	70	12800
2026-01-27 13:24:59.26	111.19	27.32	-50.2	-61.0	3.8	8.47e-01	0	44	104	165675008	70	12786
2026-01-27 13:25:00.25	110.99	27.45	-50.2	-61.0	3.8	8.46e-01	0	44	104	165675008	70	12704
2026-01-27 13:25:01.24	110.79	27.59	-50.2	-61.0	3.8	8.46e-01	0	44	104	165675008	70	12742
2026-01-27 13:25:02.24	110.58	27.72	-50.2	-61.0	3.8	8.46e-01	0	44	104	165675008	70	12732
2026-01-27 13:25:03.23	110.38	27.86	-50.2	-61.0	3.8	8.48e-01	0	44	104	165675008	70	12738
2026-01-27 13:25:04.22	110.17	27.99	-50.2	-61.0	3.8	8.47e-01	0	44	104	165675008	70	12744
2026-01-27 13:25:05.21	109.96	28.12	-50.2	-61.1	3.8	8.46e-01	0	44	104	165675008	70	12820
2026-01-27 13:25:06.21	109.75	28.26	-50.2	-61.0	3.8	8.46e-01	0	44	104	165675008	70	12743
2026-01-27 13:25:07.20	109.53	28.40	-50.2	-61.0	3.8	8.47e-01	0	44	104	165675008	70	12746
2026-01-27 13:25:08.19	109.32	28.53	-50.2	-61.0	3.8	8.46e-01	0	44	104	165675008	70	12692
2026-01-27 13:25:09.18	109.10	28.67	-50.2	-61.1	3.8	8.47e-01	0	44	104	165675008	70	12837
2026-01-27 13:25:10.18	108.88	28.80	-50.2	-61.0	3.8	8.47e-01	0	44	104	165675008	70	12771
2026-01-27 13:25:11.17	108.66	28.94	-50.2	-61.0	3.8	8.47e-01	0	44	104	165675008	70	12778
2026-01-27 13:25:12.16	108.44	29.08	-50.2	-61.0	3.8	8.46e-01	0	44	104	165675008	70	12732
2026-01-27 13:25:13.16	108.21	29.21	-50.2	-61.0	3.8	8.47e-01	0	44	104	165675008	70	12751
2026-01-27 13:25:14.15	107.99	29.35	-50.2	-61.1	3.8	8.46e-01	0	44	104	165675008	70	12821
2026-01-27 13:25:15.14	107.76	29.49	-50.2	-61.1	3.8	8.47e-01	0	44	104	165675008	70	12819
2026-01-27 13:25:16.14	107.53	29.62	-50.2	-61.0	3.8	8.46e-01	0	44	104	165675008	70	12728
2026-01-27 13:25:17.13	107.30	29.76	-50.2	-61.0	3.8	8.47e-01	0	44	104	165675008	70	12703
2026-01-27 13:25:18.12	107.06	29.90	-50.2	-61.0	3.8	8.47e-01	0	44	104	165675008	70	12714
2026-01-27 13:25:19.12	106.82	30.04	-50.2	-61.0	3.8	8.48e-01	0	44	104	165675008	70	12697
2026-01-27 13:25:20.11	106.59	30.17	-50.2	-61.0	3.8	8.47e-01	0	44	104	165675008	70	12708
2026-01-27 13:25:21.10	106.35	30.31	-50.2	-61.0	3.8	8.46e-01	0	45	104	165675008	70	12704
2026-01-27 13:25:22.09	106.10	30.45	-50.2	-61.0	3.8	8.48e-01	0	44	104	165675008	70	12742
2026-01-27 13:25:23.09	105.86	30.59	-50.2	-61.0	3.8	8.47e-01	0	44	104	165675008	70	12753
2026-01-27 13:25:24.08	105.61	30.72	-50.2	-61.0	3.8	8.46e-01	0	45	104	165675008	70	12672
2026-01-27 13:25:25.07	105.36	30.86	-50.2	-61.0	3.8	8.46e-01	0	44	104	165675008	70	12727
2026-01-27 13:25:26.07	105.11	31.00	-50.2	-60.9	3.8	8.46e-01	0	44	104	165675008	70	12656
2026-01-27 13:25:27.06	104.86	31.14	-50.2	-61.0	3.8	8.47e-01	0	44	104	165675008	70	12727
2026-01-27 13:25:28.05	104.60	31.27	-50.2	-61.0	3.8	8.46e-01	0	44	104	165675008	70	12741
2026-01-27 13:25:29.04	104.35	31.41	-50.2	-61.0	3.8	8.47e-01	0	44	104	165675008	70	12741
2026-01-27 13:25:30.04	104.09	31.55	-50.2	-61.0	3.8	8.46e-01	0	44	104	165675008	70	12705
2026-01-27 13:25:31.03	103.82	31.69	-50.2	-61.0	3.8	8.46e-01	0	44	104	165675008	70	12757
2026-01-27 13:25:32.02	103.56	31.83	-50.2	-60.9	3.8	8.48e-01	0	44	104	165675008	70	12642
2026-01-27 13:25:33.02	103.29	31.96	-50.2	-61.0	3.8	8.46e-01	0	44	104	165675008	70	12692
2026-01-27 13:25:34.01	103.02	32.10	-50.2	-61.0	3.8	8.47e-01	0	44	104	165675008	70	12732
2026-01-27 13:25:35.00	102.75	32.24	-50.2	-61.0	3.8	8.47e-01	0	45	104	165675008	70	12772
2026-01-27 13:25:36.00	102.48	32.38	-50.2	-60.9	3.8	8.46e-01	0	44	104	165675008	70	12660
2026-01-27 13:25:36.99	102.20	32.51	-50.2	-61.0	3.8	8.47e-01	0	44	104	165675008	70	12770
2026-01-27 13:25:37.98	101.93	32.65	-50.2	-60.9	3.8	8.46e-01	0	45	104	165675008	70	12650
2026-01-27 13:25:38.98	101.64	32.79	-50.2	-61.0	3.8	8.47e-01	0	44	104	165675008	70	12718
2026-01-27 13:25:39.97	101.36	32.93	-50.2	-61.0	3.8	8.47e-01	0	44	104	165675008	70	12693
2026-01-27 13:25:40.96	101.08	33.06	-50.2	-61.0	3.8	8.47e-01	0	44	104	165675008	70	12754
2026-01-27 13:25:41.95	100.79	33.20	-50.2	-61.0	3.8	8.48e-01	0	44	104	165675008	70	12706
2026-01-27 13:25:42.95	100.50	33.33	-50.2	-61.0	3.8	8.48e-01	0	45	104	165675008	70	12728
2026-01-27 13:25:43.94	100.21	33.47	-50.2	-61.0	3.8	8.47e-01	0	44	104	165675008	70	12766
2026-01-27 13:25:44.93	99.91	33.61	-50.2	-60.9	3.8	8.47e-01	0	44	104	165675008	70	12652
2026-01-27 13:25:45.93	99.61	33.74	-50.2	-61.0	3.8	8.48e-01	0	44	104	165675008	70	12697
2026-01-27 13:25:46.92	99.31	33.88	-50.2	-61.0	3.8	8.47e-01	0	44	104	165675008	70	12683
2026-01-27 13:25:47.91	99.01	34.01	-50.2	-60.9	3.8	8.47e-01	0	45	104	165675008	70	12615
2026-01-27 13:25:48.90	98.71	34.15	-50.2	-61.0	3.8	8.47e-01	0	44	104	165675008	70	12724
2026-01-27 13:25:49.90	98.40	34.28	-50.2	-61.0	3.8	8.47e-01	0	44	104	165675008	70	12699
2026-01-27 13:25:50.89	98.09	34.42	-50.2	-61.0	3.8	8.46e-01	0	44	104	165675008	70	12726
2026-01-27 13:25:51.88	97.77	34.55	-50.2	-61.0	3.8	8.48e-01	0	44	104	165675008	70	12717
2026-01-27 13:25:52.87	97.46	34.68	-50.2	-61.0	3.8	8.47e-01	0	44	104	165675008	70	12738
2026-01-27 13:25:53.87	97.14	34.81	-50.2	-61.0	3.8	8.47e-01	0	44	104	165675008	70	12707
2026-01-27 13:25:54.86	96.82	34.95	-50.2	-61.0	3.8	8.45e-01	0	44	104	165675008	70	12688
2026-01-27 13:25:55.85	96.50	35.08	-50.2	-61.0	3.8	8.45e-01	0	44	104	165675008	70	12724
2026-01-27 13:25:56.85	96.17	35.21	-50.2	-61.0	3.8	8.47e-01	0	44	104	165675008	70	12745
2026-01-27 13:25:57.84	95.84	35.34	-50.2	-61.0	3.8	8.46e-01	0	44	104	165675008	70	12675
2026-01-27 13:25:58.83	95.51	35.47	-50.2	-61.0	3.8	8.49e-01	0	45	104	165675008	70	12695
2026-01-27 13:25:59.83	95.18	35.60	-50.2	-61.0	3.8	8.47e-01	0	44	104	165675008	70	12707
2026-01-27 13:26:00.82	94.84	35.73	-50.2	-60.9	3.8	8.47e-01	0	44	104	165675008	70	12639
2026-01-27 13:26:01.81	94.50	35.86	-50.2	-61.0	3.8	8.48e-01	0	44	104	165675008	70	12710
2026-01-27 13:26:02.80	94.16	35.98	-50.2	-61.0	3.8	8.47e-01	0	44	104	165675008	70	12685
2026-01-27 13:26:03.80	93.81	36.11	-50.2	-61.0	3.8	8.47e-01	0	44	104	165675008	70	12769
2026-01-27 13:26:04.79	93.47	36.24	-50.2	-61.0	3.8	8.47e-01	0	44	104	165675008	70	12703
2026-01-27 13:26:05.78	93.12	36.36	-50.2	-61.0	3.8	8.46e-01	0	44	104	165675008	70	12689
2026-01-27 13:26:06.78	92.76	36.49	-50.2	-61.0	3.8	8.48e-01	0	44	104	165675008	70	12676
2026-01-27 13:26:07.77	92.41	36.61	-50.2	-60.9	3.8	8.47e-01	0	44	104	165675008	70	12651
2026-01-27 13:26:08.76	92.05	36.74	-50.2	-61.0	3.8	8.47e-01	0	44	104	165675008	70	12731
2026-01-27 13:26:09.75	91.69	36.86	-50.2	-61.0	3.8	8.47e-01	0	44	104	165675008	70	12718
2026-01-27 13:26:10.75	91.33	36.98	-50.2	-61.0	3.8	8.46e-01	0	45	104	165675008	70	12670
2026-01-27 13:26:11.74	90.96	37.10	-50.2	-61.0	3.8	8.47e-01	0	45	104	165675008	70	12670
2026-01-27 13:26:12.73	90.59	37.22	-50.2	-61.0	3.8	8.46e-01	0	44	104	165675008	70	12697
2026-01-27 13:26:13.73	90.22	37.34	-50.2	-60.9	3.8	8.48e-01	0	44	104	165675008	70	12645
2026-01-27 13:26:14.72	89.85	37.46	-50.2	-61.0	3.8	8.47e-01	0	45	104	165675008	70	12679
2026-01-27 13:26:15.71	89.47	37.58	-50.2	-61.0	3.8	8.47e-01	0	44	104	165675008	70	12706
2026-01-27 13:26:16.71	89.09	37.69	-50.2	-61.0	3.8	8.46e-01	0	44	104	165675008	70	12695
2026-01-27 13:26:17.70	88.71	37.81	-50.2	-61.0	3.8	8.47e-01	0	44	104	165675008	70	12675
2026-01-27 13:26:18.69	88.32	37.92	-50.2	-61.0	3.8	8.47e-01	0	44	104	165675008	70	12716
2026-01-27 13:26:19.69	87.93	38.03	-50.2	-61.0	3.8	8.47e-01	0	44	104	165675008	70	12686
2026-01-27 13:26:20.68	87.54	38.14	-50.2	-61.0	3.8	8.46e-01	0	45	104	165675008	70	12752
2026-01-27 13:26:21.67	87.15	38.26	-50.2	-61.0	3.8	8.46e-01	0	44	104	165675008	70	12707
2026-01-27 13:26:22.66	86.76	38.36	-50.2	-61.0	3.8	8.45e-01	0	44	104	165675008	70	12666
2026-01-27 13:26:23.66	86.35	38.47	-50.2	-61.0	3.8	8.46e-01	0	45	104	165675008	70	12738
2026-01-27 13:26:24.65	85.95	38.58	-50.2	-60.9	3.8	8.46e-01	0	44	104	165675008	70	12623
2026-01-27 13:26:25.64	85.55	38.68	-50.2	-60.9	3.8	8.47e-01	0	44	104	165675008	70	12603
2026-01-27 13:26:26.64	85.14	38.79	-50.2	-61.0	3.8	8.47e-01	0	45	104	165675008	70	12706
2026-01-27 13:26:27.63	84.73	38.89	-50.2	-60.9	3.8	8.47e-01	0	44	104	165675008	70	12654
2026-01-27 13:26:28.62	84.32	38.99	-50.2	-60.9	3.8	8.45e-01	0	44	104	165675008	70	12655
2026-01-27 13:26:29.61	83.91	39.09	-50.2	-61.0	3.8	8.45e-01	0	44	104	165675008	70	12698
2026-01-27 13:26:30.61	83.49	39.19	-50.2	-61.0	3.8	8.47e-01	0	44	104	165675008	70	12698
2026-01-27 13:26:31.60	83.07	39.29	-50.2	-61.0	3.8	8.47e-01	0	44	104	165675008	70	12730
2026-01-27 13:26:32.59	82.65	39.38	-50.2	-61.0	3.8	8.46e-01	0	44	104	165675008	70	12722
2026-01-27 13:26:33.59	82.22	39.48	-50.2	-60.9	3.8	8.47e-01	0	44	104	165675008	70	12638
2026-01-27 13:26:34.58	81.80	39.57	-50.2	-61.0	3.8	8.47e-01	0	44	104	165675008	70	12705
2026-01-27 13:26:35.57	81.37	39.66	-50.2	-60.9	3.8	8.46e-01	0	44	104	165675008	70	12644
2026-01-27 13:26:36.57	80.94	39.75	-50.2	-60.9	3.8	8.47e-01	0	44	104	165675008	70	12585
2026-01-27 13:26:37.56	80.50	39.84	-50.2	-61.0	3.8	8.47e-01	0	44	104	165675008	70	12754
2026-01-27 13:26:38.55	80.07	39.93	-50.2	-60.9	3.8	8.46e-01	0	44	104	165675008	70	12595
2026-01-27 13:26:39.55	79.63	40.01	-50.2	-61.0	3.8	8.47e-01	0	44	104	165675008	70	12731
2026-01-27 13:26:40.54	79.19	40.09	-50.2	-61.0	3.8	8.47e-01	0	44	104	165675008	70	12694
2026-01-27 13:26:41.53	78.75	40.17	-50.2	-61.0	3.8	8.47e-01	0	45	104	165675008	70	12684
2026-01-27 13:26:42.52	78.30	40.25	-50.2	-60.9	3.8	8.47e-01	0	44	104	165675008	70	12633
2026-01-27 13:26:43.52	77.85	40.33	-50.2	-60.9	3.8	8.47e-01	0	44	104	165675008	70	12623
2026-01-27 13:26:44.51	77.40	40.41	-50.2	-60.9	3.8	8.48e-01	0	45	104	165675008	70	12640
2026-01-27 13:26:45.50	76.95	40.48	-50.2	-61.0	3.8	8.47e-01	0	44	104	165675008	70	12667
2026-01-27 13:26:46.50	76.50	40.55	-50.2	-61.0	3.8	8.47e-01	0	44	104	165675008	70	12668
2026-01-27 13:26:47.49	76.04	40.62	-50.2	-61.0	3.8	8.48e-01	0	44	104	165675008	70	12699
2026-01-27 13:26:48.48	75.59	40.69	-50.2	-61.0	3.8	8.46e-01	0	44	104	165675008	70	12745
2026-01-27 13:26:49.47	75.13	40.76	-50.2	-60.9	3.8	8.46e-01	0	44	104	165675008	70	12616
2026-01-27 13:26:50.47	74.66	40.82	-50.2	-61.0	3.8	8.48e-01	0	44	104	165675008	70	12762
2026-01-27 13:26:51.46	74.20	40.88	-50.2	-61.0	3.8	8.47e-01	0	44	104	165675008	70	12719
2026-01-27 13:26:52.46	73.73	40.94	-50.2	-60.9	3.8	8.48e-01	0	44	104	165675008	70	12613
2026-01-27 13:26:53.45	73.27	41.00	-50.2	-60.9	3.8	8.48e-01	0	44	104	165675008	70	12664
2026-01-27 13:26:54.44	72.80	41.06	-50.2	-61.0	3.8	8.47e-01	0	44	104	165675008	70	12669
2026-01-27 13:26:55.43	72.33	41.11	-50.2	-61.0	3.8	8.48e-01	0	44	104	165675008	70	12676
2026-01-27 13:26:56.43	71.86	41.16	-50.1	-60.9	3.8	8.46e-01	0	45	104	165675008	70	12650
2026-01-27 13:26:57.42	71.39	41.21	-50.2	-60.9	3.8	8.47e-01	0	45	104	165675008	70	12579
2026-01-27 13:26:58.41	70.91	41.26	-50.2	-60.9	3.8	8.47e-01	0	44	104	165675008	70	12653
2026-01-27 13:26:59.41	70.44	41.31	-50.2	-61.0	3.8	8.46e-01	0	44	104	165675008	70	12699
2026-01-27 13:27:00.40	69.96	41.35	-50.2	-61.0	3.8	8.47e-01	0	44	104	165675008	70	12729
2026-01-27 13:27:01.39	69.48	41.39	-50.2	-60.9	3.8	8.48e-01	0	44	104	165675008	70	12635
2026-01-27 13:27:02.38	69.01	41.43	-50.1	-60.9	3.8	8.46e-01	0	44	104	165675008	70	12643
2026-01-27 13:27:03.38	68.52	41.46	-50.2	-60.9	3.8	8.48e-01	0	44	104	165675008	70	12645
2026-01-27 13:27:04.37	68.04	41.50	-50.2	-60.9	3.8	8.47e-01	0	44	104	165675008	70	12659
2026-01-27 13:27:05.36	67.56	41.53	-50.2	-61.0	3.8	8.48e-01	0	44	104	165675008	70	12676
2026-01-27 13:27:06.35	67.08	41.56	-50.2	-60.9	3.8	8.46e-01	0	44	104	165675008	70	12646
2026-01-27 13:27:07.35	66.59	41.59	-50.2	-61.0	3.8	8.46e-01	0	44	104	165675008	70	12685
2026-01-27 13:27:08.34	66.11	41.61	-50.2	-61.0	3.8	8.47e-01	0	44	104	165675008	70	12721
2026-01-27 13:27:09.33	65.62	41.64	-50.2	-60.9	3.8	8.47e-01	0	44	104	165675008	70	12619
2026-01-27 13:27:10.33	65.13	41.66	-50.1	-61.0	3.8	8.46e-01	0	44	104	165675008	70	12709
2026-01-27 13:27:11.32	64.65	41.67	-50.1	-61.0	3.8	8.48e-01	0	44	104	165675008	70	12667
2026-01-27 13:27:12.31	64.16	41.69	-50.1	-61.0	3.8	8.48e-01	0	44	104	165675008	70	12674
2026-01-27 13:27:13.31	63.67	41.70	-50.2	-60.9	3.8	8.47e-01	0	44	104	165675008	70	12620
2026-01-27 13:27:14.30	63.19	41.71	-50.1	-61.0	3.8	8.46e-01	0	44	104	165675008	70	12729
2026-01-27 13:27:15.29	62.70	41.72	-50.2	-60.9	3.8	8.46e-01	0	44	104	165675008	70	12627
2026-01-27 13:27:16.29	62.21	41.73	-50.2	-60.9	3.8	8.48e-01	0	44	104	165675008	70	12625
2026-01-27 13:27:17.28	61.72	41.73	-50.2	-60.9	3.8	8.47e-01	0	44	104	165675008	70	12644
2026-01-27 13:27:18.27	61.23	41.74	-50.1	-61.0	3.8	8.47e-01	0	44	104	165675008	70	12684
2026-01-27 13:27:19.27	60.74	41.74	-50.1	-60.9	3.8	8.46e-01	0	44	104	165675008	70	12655
2026-01-27 13:27:20.26	60.25	41.73	-50.2	-60.9	3.8	8.47e-01	0	44	104	165675008	70	12625
2026-01-27 13:27:21.25	59.76	41.73	-50.1	-60.9	3.8	8.47e-01	0	45	104	165675008	70	12647
2026-01-27 13:27:22.24	59.28	41.72	-50.1	-60.9	3.8	8.46e-01	0	44	104	165675008	70	12619
2026-01-27 13:27:23.24	58.79	41.71	-50.1	-60.9	3.8	8.48e-01	0	44	104	165675008	70	12658
2026-01-27 13:27:24.23	58.30	41.70	-50.2	-61.0	3.8	8.46e-01	0	44	104	165675008	70	12672
2026-01-27 13:27:25.22	57.81	41.68	-50.1	-61.0	3.8	8.48e-01	0	44	104	165675008	70	12683
2026-01-27 13:27:26.22	57.32	41.67	-50.1	-61.0	3.8	8.47e-01	0	44	104	165675008	70	12731
2026-01-27 13:27:27.21	56.84	41.65	-50.2	-60.9	3.8	8.46e-01	0	45	104	165675008	70	12634
2026-01-27 13:27:28.20	56.35	41.62	-50.2	-60.9	3.8	8.46e-01	0	44	104	165675008	70	12654
2026-01-27 13:27:29.20	55.87	41.60	-50.2	-61.0	3.8	8.48e-01	0	45	104	165675008	70	12688
2026-01-27 13:27:30.19	55.38	41.57	-50.1	-61.0	3.8	8.47e-01	0	45	104	165675008	70	12686
2026-01-27 13:27:31.18	54.90	41.55	-50.2	-61.0	3.8	8.47e-01	0	44	104	165675008	70	12755
2026-01-27 13:27:32.17	54.42	41.51	-50.2	-61.0	3.8	8.45e-01	0	44	104	165675008	70	12672
2026-01-27 13:27:33.17	53.93	41.48	-50.2	-60.9	3.8	8.47e-01	0	44	104	165675008	70	12616
2026-01-27 13:27:34.16	53.46	41.45	-50.2	-60.9	3.8	8.47e-01	0	44	104	165675008	70	12662
2026-01-27 13:27:35.15	52.98	41.41	-50.2	-61.0	3.8	8.46e-01	0	44	104	165675008	70	12673
2026-01-27 13:27:36.15	52.50	41.37	-50.2	-61.0	3.8	8.47e-01	0	44	104	165675008	70	12674
2026-01-27 13:27:37.14	52.02	41.33	-50.2	-60.9	3.8	8.47e-01	0	44	104	165675008	70	12640
2026-01-27 13:27:38.13	51.55	41.28	-50.2	-60.9	3.8	8.47e-01	0	44	104	165675008	70	12660
2026-01-27 13:27:39.12	51.07	41.24	-50.2	-60.9	3.8	8.48e-01	0	44	104	165675008	70	12621
2026-01-27 13:27:40.12	50.60	41.19	-50.2	-61.0	3.8	8.45e-01	0	44	104	165675008	70	12703
2026-01-27 13:27:41.11	50.13	41.14	-50.2	-61.0	3.8	8.48e-01	0	45	104	165675008	70	12702
2026-01-27 13:27:42.10	49.66	41.08	-50.2	-61.0	3.8	8.46e-01	0	44	104	165675008	70	12698
2026-01-27 13:27:43.10	49.19	41.03	-50.2	-61.0	3.8	8.47e-01	0	45	104	165675008	70	12684
2026-01-27 13:27:44.09	48.72	40.97	-50.2	-60.9	3.8	8.47e-01	0	44	104	165675008	70	12658
2026-01-27 13:27:45.08	48.26	40.91	-50.2	-61.0	3.8	8.47e-01	0	44	104	165675008	70	12690
2026-01-27 13:27:46.08	47.79	40.85	-50.2	-60.9	3.8	8.46e-01	0	44	104	165675008	70	12624
2026-01-27 13:27:47.07	47.33	40.79	-50.2	-60.9	3.8	8.47e-01	0	44	104	165675008	70	12649
2026-01-27 13:27:48.06	46.87	40.72	-50.2	-61.0	3.8	8.47e-01	0	44	104	165675008	70	12666
2026-01-27 13:27:49.06	46.41	40.66	-50.2	-60.9	3.8	8.47e-01	0	44	104	165675008	70	12624
2026-01-27 13:27:50.05	45.96	40.59	-50.2	-61.0	3.8	8.46e-01	0	45	104	165675008	70	12669
2026-01-27 13:27:51.04	45.50	40.52	-50.2	-61.0	3.8	8.47e-01	0	44	104	165675008	70	12718
2026-01-27 13:27:52.03	45.05	40.44	-50.2	-61.0	3.8	8.46e-01	0	44	104	165675008	70	12716
2026-01-27 13:27:53.03	44.60	40.37	-50.2	-60.9	3.8	8.47e-01	0	44	104	165675008	70	12647
2026-01-27 13:27:54.02	44.15	40.29	-50.2	-61.0	3.8	8.47e-01	0	44	104	165675008	70	12666
2026-01-27 13:27:55.01	43.71	40.22	-50.2	-61.0	3.8	8.47e-01	0	44	104	165675008	70	12671
2026-01-27 13:27:56.01	43.26	40.13	-50.2	-60.9	3.8	8.48e-01	0	44	104	165675008	70	12648
2026-01-27 13:27:57.00	42.82	40.05	-50.2	-61.0	3.8	8.47e-01	0	45	104	165675008	70	12755
2026-01-27 13:27:57.99	42.39	39.97	-50.2	-60.9	3.8	8.46e-01	0	45	104	165675008	70	12586
2026-01-27 13:27:58.98	41.95	39.89	-50.2	-61.0	3.8	8.46e-01	0	44	104	165675008	70	12686
2026-01-27 13:27:59.98	41.51	39.80	-50.2	-60.9	3.8	8.47e-01	0	44	104	165675008	70	12648
2026-01-27 13:28:00.97	41.08	39.71	-50.2	-60.9	3.8	8.48e-01	0	45	104	165675008	70	12629
2026-01-27 13:28:01.96	40.65	39.62	-50.2	-60.9	3.8	8.47e-01	0	45	104	165675008	70	12642
2026-01-27 13:28:02.96	40.22	39.53	-50.2	-61.0	3.8	8.46e-01	0	44	104	165675008	70	12667
2026-01-27 13:28:03.95	39.80	39.43	-50.1	-60.9	3.8	8.48e-01	0	44	104	165675008	70	12624
2026-01-27 13:28:04.94	39.38	39.34	-50.2	-61.0	3.8	8.46e-01	0	44	104	165675008	70	12702
2026-01-27 13:28:05.94	38.96	39.24	-50.2	-60.9	3.8	8.47e-01	0	44	104	165675008	70	12649
2026-01-27 13:28:06.93	38.54	39.15	-50.2	-61.0	3.8	8.46e-01	0	44	104	165675008	70	12667
2026-01-27 13:28:07.92	38.13	39.05	-50.1	-60.9	3.8	8.47e-01	0	44	104	165675008	70	12634
2026-01-27 13:28:08.92	37.71	38.95	-50.2	-61.0	3.8	8.48e-01	0	44	104	165675008	70	12691
2026-01-27 13:28:09.91	37.30	38.84	-50.2	-60.9	3.8	8.48e-01	0	44	104	165675008	70	12627
2026-01-27 13:28:10.90	36.90	38.74	-50.2	-60.9	3.8	8.46e-01	0	44	104	165675008	70	12629
2026-01-27 13:28:11.89	36.50	38.64	-50.2	-60.9	3.8	8.48e-01	0	44	104	165675008	70	12649
2026-01-27 13:28:12.89	36.09	38.53	-50.2	-60.9	3.8	8.47e-01	0	44	104	165675008	70	12654
2026-01-27 13:28:13.88	35.69	38.42	-50.2	-60.9	3.8	8.47e-01	0	44	104	165675008	70	12622
2026-01-27 13:28:14.87	35.30	38.32	-50.1	-60.9	3.8	8.46e-01	0	44	104	165675008	70	12577
2026-01-27 13:28:15.87	34.90	38.21	-50.2	-60.9	3.8	8.47e-01	0	44	104	165675008	70	12643
2026-01-27 13:28:16.86	34.51	38.09	-50.2	-60.9	3.8	8.47e-01	0	44	104	165675008	70	12629
2026-01-27 13:28:17.85	34.12	37.98	-50.2	-61.0	3.8	8.47e-01	0	45	104	165675008	70	12699
2026-01-27 13:28:18.84	33.74	37.87	-50.1	-61.0	3.8	8.47e-01	0	44	104	165675008	70	12684
2026-01-27 13:28:19.84	33.35	37.76	-50.2	-61.0	3.8	8.47e-01	0	44	104	165675008	70	12701
2026-01-27 13:28:20.83	32.98	37.64	-50.1	-60.9	3.8	8.46e-01	0	44	104	165675008	70	12632
2026-01-27 13:28:21.82	32.60	37.53	-50.1	-61.0	3.8	8.47e-01	0	44	104	165675008	70	12712
2026-01-27 13:28:22.81	32.23	37.41	-50.2	-60.9	3.8	8.46e-01	0	44	104	165675008	70	12604
2026-01-27 13:28:23.81	31.85	37.29	-50.1	-61.0	3.8	8.47e-01	0	44	104	165675008	70	12682
2026-01-27 13:28:24.80	31.48	37.17	-50.2	-60.9	3.8	8.47e-01	0	44	104	165675008	70	12646
2026-01-27 13:28:25.79	31.12	37.05	-50.1	-60.9	3.8	8.48e-01	0	44	104	165675008	70	12623
2026-01-27 13:28:26.79	30.75	36.93	-50.1	-61.0	3.8	8.47e-01	0	44	104	165675008	70	12687
2026-01-27 13:28:27.78	30.39	36.81	-50.1	-60.9	3.8	8.48e-01	0	45	104	165675008	70	12583
2026-01-27 13:28:28.77	30.03	36.69	-50.1	-60.9	3.8	8.48e-01	0	44	104	165675008	70	12661
2026-01-27 13:28:29.77	29.68	36.56	-50.1	-60.9	3.8	8.47e-01	0	44	104	165675008	70	12649
2026-01-27 13:28:30.76	29.32	36.44	-50.1	-61.0	3.8	8.46e-01	0	45	104	165675008	70	12666
2026-01-27 13:28:31.75	28.97	36.31	-50.1	-60.9	3.8	8.46e-01	0	44	104	165675008	70	12649
2026-01-27 13:28:32.74	28.63	36.19	-50.1	-61.0	3.8	8.48e-01	0	44	104	165675008	70	12667
2026-01-27 13:28:33.74	28.28	36.06	-50.1	-61.0	3.8	8.48e-01	0	44	104	165675008	70	12698
2026-01-27 13:28:34.73	27.94	35.93	-50.2	-60.9	3.8	8.48e-01	0	44	104	165675008	70	12627
2026-01-27 13:28:35.72	27.60	35.81	-50.2	-60.9	3.8	8.46e-01	0	44	104	165675008	70	12591
2026-01-27 13:28:36.72	27.26	35.68	-50.1	-61.0	3.8	8.47e-01	0	44	104	165675008	70	12670
2026-01-27 13:28:37.71	26.93	35.55	-50.1	-60.9	3.8	8.46e-01	0	44	104	165675008	70	12641
2026-01-27 13:28:38.70	26.60	35.42	-50.1	-60.9	3.8	8.46e-01	0	44	104	165675008	70	12559
2026-01-27 13:28:39.70	26.27	35.29	-50.1	-60.9	3.8	8.48e-01	0	44	104	165675008	70	12582
2026-01-27 13:28:40.69	25.94	35.16	-50.2	-61.0	3.8	8.47e-01	0	44	104	165675008	70	12687
2026-01-27 13:28:41.68	25.62	35.03	-50.1	-61.0	3.8	8.48e-01	0	44	104	165675008	70	12665
2026-01-27 13:28:42.67	25.30	34.90	-50.2	-60.9	3.8	8.46e-01	0	44	104	165675008	70	12659
2026-01-27 13:28:43.67	24.98	34.76	-50.1	-60.9	3.8	8.48e-01	0	45	104	165675008	70	12649
2026-01-27 13:28:44.66	24.66	34.63	-50.2	-60.9	3.8	8.47e-01	0	44	104	165675008	70	12580
2026-01-27 13:28:45.65	24.35	34.50	-50.2	-60.9	3.8	8.46e-01	0	44	104	165675008	70	12660
2026-01-27 13:28:46.65	24.04	34.37	-50.2	-60.9	3.8	8.47e-01	0	44	104	165675008	70	12609
2026-01-27 13:28:47.64	23.73	34.23	-50.2	-60.9	3.8	8.46e-01	0	44	104	165675008	70	12614
2026-01-27 13:28:48.63	23.43	34.10	-50.2	-60.9	3.8	8.48e-01	0	44	104	165675008	70	12646
2026-01-27 13:28:49.63	23.12	33.96	-50.2	-61.0	3.8	8.47e-01	0	44	104	165675008	70	12669
2026-01-27 13:28:50.62	22.82	33.83	-50.1	-60.9	3.8	8.47e-01	0	44	104	165675008	70	12590
2026-01-27 13:28:51.61	22.53	33.70	-50.1	-60.9	3.8	8.47e-01	0	44	104	165675008	70	12588
2026-01-27 13:28:52.60	22.23	33.56	-50.1	-60.9	3.8	8.46e-01	0	45	104	165675008	70	12618
2026-01-27 13:28:53.60	21.94	33.42	-50.2	-60.9	3.8	8.47e-01	0	44	104	165675008	70	12662
2026-01-27 13:28:54.59	21.65	33.29	-50.1	-60.9	3.8	8.47e-01	0	45	104	165675008	70	12617
2026-01-27 13:28:55.58	21.36	33.15	-50.1	-60.9	3.8	8.48e-01	0	44	104	165675008	70	12649
2026-01-27 13:28:56.58	21.07	33.02	-50.1	-60.9	3.8	8.46e-01	0	45	104	165675008	70	12641
2026-01-27 13:28:57.57	20.79	32.88	-50.1	-60.9	3.8	8.47e-01	0	44	104	165675008	70	12656
2026-01-27 13:28:58.56	20.51	32.74	-50.1	-61.0	3.8	8.46e-01	0	44	104	165675008	70	12676
2026-01-27 13:28:59.56	20.23	32.61	-50.1	-61.0	3.8	8.47e-01	0	44	104	165675008	70	12701
2026-01-27 13:29:00.55	19.95	32.47	-50.1	-60.9	3.8	8.47e-01	0	44	104	165675008	70	12620
2026-01-27 13:29:01.54	19.68	32.33	-50.1	-60.9	3.8	8.47e-01	0	44	104	165675008	70	12626
2026-01-27 13:29:02.53	19.41	32.20	-50.1	-60.9	3.8	8.48e-01	0	44	104	165675008	70	12633
2026-01-27 13:29:03.53	19.14	32.06	-50.1	-60.9	3.8	8.47e-01	0	44	104	165675008	70	12588
2026-01-27 13:29:04.52	18.87	31.92	-50.1	-60.9	3.8	8.47e-01	0	45	104	165675008	70	12660
2026-01-27 13:29:05.51	18.61	31.79	-50.1	-60.9	3.8	8.47e-01	0	44	104	165675008	70	12609
2026-01-27 13:29:06.51	18.35	31.65	-50.1	-60.9	3.8	8.47e-01	0	44	104	165675008	70	12625
2026-01-27 13:29:07.50	18.09	31.51	-50.1	-60.9	3.8	8.46e-01	0	44	104	165675008	70	12657
2026-01-27 13:29:08.49	17.83	31.37	-50.1	-60.9	3.8	8.47e-01	0	44	104	165675008	70	12630
2026-01-27 13:29:09.49	17.57	31.23	-50.1	-61.0	3.8	8.47e-01	0	44	104	165675008	70	12683
2026-01-27 13:29:10.48	17.32	31.10	-50.1	-60.9	3.8	8.47e-01	0	44	104	165675008	70	12597
2026-01-27 13:29:11.47	17.07	30.96	-50.1	-60.9	3.8	8.47e-01	0	44	104	165675008	70	12606
2026-01-27 13:29:12.46	16.82	30.82	-50.1	-60.9	3.8	8.46e-01	0	44	104	165675008	70	12652
2026-01-27 13:29:13.46	16.57	30.69	-50.1	-60.9	3.8	8.47e-01	0	44	104	165675008	70	12628
2026-01-27 13:29:14.45	16.33	30.55	-50.1	-60.9	3.8	8.47e-01	0	45	104	165675008	70	12635
2026-01-27 13:29:15.44	16.09	30.41	-50.1	-61.0	3.8	8.46e-01	0	44	104	165675008	70	12720
2026-01-27 13:29:16.44	15.84	30.27	-50.1	-60.9	3.8	8.47e-01	0	44	104	165675008	70	12615
2026-01-27 13:29:17.43	15.61	30.14	-50.1	-60.9	3.8	8.47e-01	0	45	104	165675008	70	12549
2026-01-27 13:29:18.42	15.37	30.00	-50.1	-60.9	3.8	8.46e-01	0	44	104	165675008	70	12630
2026-01-27 13:29:19.41	15.14	29.86	-50.1	-60.9	3.8	8.47e-01	0	44	104	165675008	70	12625
2026-01-27 13:29:20.41	14.90	29.73	-50.1	-60.9	3.8	8.47e-01	0	44	104	165675008	70	12596
2026-01-27 13:29:21.40	14.67	29.59	-50.1	-60.9	3.8	8.47e-01	0	45	104	165675008	70	12582
2026-01-27 13:29:22.39	14.44	29.46	-50.1	-61.0	3.8	8.47e-01	0	44	104	165675008	70	12683
2026-01-27 13:29:23.38	14.22	29.32	-50.1	-60.9	3.8	8.46e-01	0	44	104	165675008	70	12561
2026-01-27 13:29:24.38	13.99	29.18	-50.1	-60.9	3.8	8.46e-01	0	44	104	165675008	70	12638
2026-01-27 13:29:25.37	13.77	29.05	-50.1	-60.9	3.8	8.47e-01	0	44	104	165675008	70	12614
2026-01-27 13:29:26.36	13.55	28.91	-50.1	-60.9	3.8	8.46e-01	0	44	104	165675008	70	12595
2026-01-27 13:29:27.36	13.33	28.78	-50.1	-60.9	3.8	8.47e-01	0	44	104	165675008	70	12611
2026-01-27 13:29:28.35	13.11	28.64	-50.1	-60.9	3.8	8.47e-01	0	44	104	165675008	70	12553
2026-01-27 13:29:29.34	12.90	28.51	-50.1	-60.9	3.8	8.45e-01	0	44	104	165675008	70	12573
2026-01-27 13:29:30.33	12.68	28.37	-50.1	-60.9	3.8	8.47e-01	0	44	104	165675008	70	12606
2026-01-27 13:29:31.33	12.47	28.24	-50.1	-60.9	3.8	8.48e-01	0	44	104	165675008	70	12623
2026-01-27 13:29:32.32	12.26	28.10	-50.1	-60.9	3.8	8.48e-01	0	44	104	165675008	70	12599
2026-01-27 13:29:33.31	12.06	27.97	-50.1	-60.9	3.8	8.47e-01	0	44	104	165675008	70	12533
2026-01-27 13:29:34.31	11.85	27.83	-50.1	-60.9	3.8	8.47e-01	0	44	104	165675008	70	12662
2026-01-27 13:29:35.30	11.64	27.70	-50.1	-60.9	3.8	8.46e-01	0	44	104	165675008	70	12602
2026-01-27 13:29:36.29	11.44	27.57	-50.1	-60.9	3.8	8.47e-01	0	44	104	165675008	70	12575
2026-01-27 13:29:37.29	11.24	27.43	-50.1	-60.9	3.8	8.46e-01	0	44	104	165675008	70	12561
2026-01-27 13:29:38.28	11.04	27.30	-50.1	-60.9	3.8	8.47e-01	0	44	104	165675008	70	12554
2026-01-27 13:29:39.27	10.84	27.17	-50.1	-60.9	3.8	8.47e-01	0	44	104	165675008	70	12558
2026-01-27 13:29:40.26	10.65	27.03	-50.1	-60.9	3.8	8.48e-01	0	44	104	165675008	70	12558
2026-01-27 13:29:41.26	10.45	26.90	-50.1	-60.9	3.8	8.47e-01	0	44	104	165675008	70	12586
2026-01-27 13:29:42.25	10.26	26.77	-50.1	-60.9	3.8	8.47e-01	0	45	104	165675008	70	12576
2026-01-27 13:29:43.24	10.07	26.64	-50.1	-60.9	3.8	8.47e-01	0	45	104	165675008	70	12596
2026-01-27 13:29:44.24	9.88	26.51	-50.1	-60.9	3.8	8.46e-01	0	45	104	165675008	70	12642
2026-01-27 13:29:45.23	9.69	26.38	-50.1	-60.9	3.8	8.46e-01	0	44	104	165675008	70	12622
2026-01-27 13:29:46.22	9.50	26.24	-50.1	-60.9	3.8	8.48e-01	0	45	104	165675008	70	12602
2026-01-27 13:29:47.21	9.32	26.11	-50.1	-60.9	3.8	8.47e-01	0	44	104	165675008	70	12618
2026-01-27 13:29:48.21	9.14	25.98	-50.1	-60.9	3.8	8.47e-01	0	44	104	165675008	70	12569
2026-01-27 13:29:49.20	8.95	25.85	-50.1	-60.9	3.8	8.47e-01	0	44	104	165675008	70	12582
2026-01-27 13:29:50.19	8.78	25.72	-50.1	-60.9	3.8	8.46e-01	0	44	104	165675008	70	12599
2026-01-27 13:29:51.18	8.60	25.60	-50.1	-60.9	3.8	8.45e-01	0	44	104	165675008	70	12601
2026-01-27 13:29:52.18	8.42	25.47	-50.1	-60.9	3.8	8.48e-01	0	44	104	165675008	70	12560
2026-01-27 13:29:53.17	8.24	25.34	-50.1	-60.9	3.8	8.47e-01	0	44	104	165675008	70	12582
2026-01-27 13:29:54.16	8.07	25.21	-50.1	-60.9	3.8	8.46e-01	0	44	104	165675008	70	12563
2026-01-27 13:29:55.16	7.90	25.08	-50.1	-60.9	3.8	8.47e-01	0	44	104	165675008	70	12564
2026-01-27 13:29:56.15	7.72	24.95	-50.1	-60.9	3.8	8.47e-01	0	44	104	165675008	70	12604
2026-01-27 13:29:57.14	7.55	24.83	-50.1	-60.9	3.8	8.47e-01	0	45	104	165675008	70	12565
2026-01-27 13:29:58.14	7.38	24.70	-50.1	-60.9	3.8	8.47e-01	0	44	104	165675008	70	12525
2026-01-27 13:29:59.13	7.22	24.57	-50.1	-60.9	3.8	8.48e-01	0	44	104	165675008	70	12640
2026-01-27 13:30:00.12	7.05	24.45	-50.1	-60.9	3.8	8.47e-01	0	44	104	165675008	70	12534
2026-01-27 13:30:01.12	6.89	24.32	-50.1	-60.8	3.8	8.47e-01	0	44	104	165675008	70	12512
2026-01-27 13:30:02.11	6.72	24.20	-50.1	-60.9	3.8	8.46e-01	0	44	104	165675008	70	12576
2026-01-27 13:30:03.10	6.56	24.07	-50.1	-60.9	3.8	8.47e-01	0	44	104	165675008	70	12582
2026-01-27 13:30:04.09	6.40	23.95	-50.1	-60.9	3.8	8.47e-01	0	44	104	165675008	70	12547
2026-01-27 13:30:05.09	6.24	23.82	-50.1	-60.9	3.8	8.47e-01	0	44	104	165675008	70	12572
2026-01-27 13:30:06.08	6.08	23.70	-50.1	-60.9	3.8	8.47e-01	0	44	104	165675008	70	12557
2026-01-27 13:30:07.07	5.93	23.57	-50.1	-60.8	3.8	8.47e-01	0	44	104	165675008	70	12504
2026-01-27 13:30:08.06	5.77	23.45	-50.1	-60.9	3.8	8.47e-01	0	45	104	165675008	70	12555
2026-01-27 13:30:09.06	5.62	23.33	-50.1	-60.9	3.8	8.47e-01	0	45	104	165675008	70	12601
2026-01-27 13:30:10.05	5.46	23.20	-50.1	-60.9	3.8	8.46e-01	0	44	104	165675008	70	12547
2026-01-27 13:30:11.04	5.31	23.08	-50.1	-60.9	3.8	8.47e-01	0	45	104	165675008	70	12652
2026-01-27 13:30:12.04	5.16	22.96	-50.1	-60.8	3.8	8.47e-01	0	44	104	165675008	70	12512
2026-01-27 13:30:13.03	5.01	22.84	-50.1	-60.9	3.8	8.47e-01	0	44	104	165675008	70	12578
2026-01-27 13:30:14.02	4.87	22.72	-50.1	-60.9	3.8	8.47e-01	0	44	104	165675008	70	12570
2026-01-27 13:30:15.01	4.72	22.60	-50.1	-60.9	3.8	8.47e-01	0	44	104	165675008	70	12574
2026-01-27 13:30:16.01	4.57	22.48	-50.1	-60.9	3.8	8.47e-01	0	44	104	165675008	70	12622
2026-01-27 13:30:17.00	4.43	22.36	-50.1	-60.9	3.8	8.47e-01	0	44	104	165675008	70	12527
2026-01-27 13:30:17.99	4.28	22.24	-50.1	-60.9	3.8	8.46e-01	0	44	104	165675008	70	12566
2026-01-27 13:30:18.99	4.14	22.12	-50.1	-60.8	3.8	8.46e-01	0	44	104	165675008	70	12503
2026-01-27 13:30:19.98	4.00	22.00	-50.1	-60.9	3.8	8.47e-01	0	44	104	165675008	70	12580
2026-01-27 13:30:20.97	3.86	21.88	-50.1	-60.9	3.8	8.47e-01	0	45	104	165675008	70	12634
2026-01-27 13:30:21.97	3.72	21.76	-50.1	-60.9	3.8	8.46e-01	0	44	104	165675008	70	12591
2026-01-27 13:30:22.96	3.58	21.64	-50.1	-60.8	3.8	8.47e-01	0	44	104	165675008	70	12484
2026-01-27 13:30:23.95	3.45	21.53	-50.1	-60.8	3.8	8.48e-01	0	44	104	165675008	70	12497
2026-01-27 13:30:24.94	3.31	21.41	-50.1	-60.9	3.8	8.46e-01	0	44	104	165675008	70	12597
2026-01-27 13:30:25.94	3.17	21.29	-50.1	-60.9	3.8	8.46e-01	0	44	104	165675008	70	12523
2026-01-27 13:30:26.93	3.04	21.17	-50.1	-60.9	3.8	8.47e-01	0	45	104	165675008	70	12552
2026-01-27 13:30:27.92	2.91	21.06	-50.1	-60.8	3.8	8.47e-01	0	45	104	165675008	70	12499
2026-01-27 13:30:28.91	2.78	20.94	-50.1	-60.9	3.8	8.47e-01	0	44	104	165675008	70	12549
2026-01-27 13:30:29.91	2.65	20.83	-50.1	-60.9	3.8	8.47e-01	0	44	104	165675008	70	12551
2026-01-27 13:30:30.90	2.52	20.71	-50.1	-60.9	3.8	8.47e-01	0	44	104	165675008	70	12553
2026-01-27 13:30:31.89	2.39	20.60	-50.1	-60.9	3.8	8.47e-01	0	44	104	165675008	70	12552
2026-01-27 13:30:32.89	2.26	20.48	-50.1	-60.8	3.8	8.47e-01	0	44	104	165675008	70	12507
2026-01-27 13:30:33.88	2.13	20.37	-50.1	-60.9	3.8	8.47e-01	0	44	104	165675008	70	12525
2026-01-27 13:30:34.87	2.01	20.26	-50.1	-60.8	3.8	8.47e-01	0	44	104	165675008	70	12507
2026-01-27 13:30:35.87	1.88	20.14	-50.1	-60.8	3.8	8.46e-01	0	45	104	165675008	70	12499
2026-01-27 13:30:36.86	1.76	20.03	-50.1	-60.8	3.8	8.48e-01	0	44	104	165675008	70	12518
2026-01-27 13:30:37.85	1.63	19.92	-50.1	-60.9	3.8	8.47e-01	0	44	104	165675008	70	12546
2026-01-27 13:30:38.84	1.51	19.81	-50.1	-60.9	3.8	8.47e-01	0	44	104	165675008	70	12528
2026-01-27 13:30:39.84	1.39	19.69	-50.1	-60.8	3.8	8.48e-01	0	45	104	165675008	70	12500
2026-01-27 13:30:40.83	1.27	19.58	-50.1	-60.8	3.8	8.46e-01	0	44	104	165675008	70	12494
2026-01-27 13:30:41.82	1.15	19.47	-50.1	-60.8	3.8	8.48e-01	0	44	104	165675008	70	12461
2026-01-27 13:30:42.81	1.03	19.36	-50.1	-60.9	3.8	8.48e-01	0	44	104	165675008	70	12554
2026-01-27 13:30:43.81	0.91	19.25	-50.1	-60.8	3.8	8.46e-01	0	44	104	165675008	70	12479
2026-01-27 13:30:44.80	0.80	19.14	-50.1	-60.8	3.8	8.47e-01	0	44	104	165675008	70	12506
2026-01-27 13:30:45.79	0.68	19.03	-50.1	-60.8	3.8	8.47e-01	0	44	104	165675008	70	12487
2026-01-27 13:30:46.79	0.57	18.92	-50.1	-60.8	3.8	8.47e-01	0	45	104	165675008	70	12479
2026-01-27 13:30:47.78	0.45	18.81	-50.1	-60.9	3.8	8.47e-01	0	44	104	165675008	70	12539
2026-01-27 13:30:48.77	0.34	18.71	-50.1	-60.9	3.8	8.47e-01	0	44	104	165675008	70	12534
2026-01-27 13:30:49.76	0.23	18.60	-50.1	-60.9	3.8	8.48e-01	0	44	104	165675008	70	12551
2026-01-27 13:30:50.76	0.12	18.49	-50.1	-60.9	3.8	8.47e-01	0	45	104	165675008	70	12546
2026-01-27 13:30:51.75	0.00	18.38	-50.0	-60.8	3.8	8.48e-01	0	44	104	165675008	70	12501
2026-01-27 13:30:52.74	359.89	18.28	-50.1	-60.9	3.8	8.46e-01	0	44	104	165675008	70	12523
2026-01-27 13:30:53.74	359.78	18.17	-50.1	-60.8	3.8	8.47e-01	0	44	104	165675008	70	12519
2026-01-27 13:30:54.73	359.68	18.06	-50.1	-60.8	3.8	8.47e-01	0	44	104	165675008	70	12512
2026-01-27 13:30:55.72	359.57	17.96	-50.1	-60.9	3.8	8.47e-01	0	44	104	165675008	70	12524
2026-01-27 13:30:56.71	359.46	17.85	-50.0	-60.8	3.8	8.46e-01	0	44	104	165675008	70	12506
2026-01-27 13:30:57.71	359.36	17.75	-50.0	-60.8	3.8	8.47e-01	0	45	104	165675008	70	12496
2026-01-27 13:30:58.70	359.25	17.64	-50.0	-60.8	3.8	8.47e-01	0	44	104	165675008	70	12422
2026-01-27 13:30:59.69	359.15	17.54	-50.1	-60.9	3.8	8.47e-01	0	45	104	165675008	70	12543
2026-01-27 13:31:00.69	359.04	17.43	-50.1	-60.8	3.8	8.48e-01	0	45	104	165675008	70	12510
2026-01-27 13:31:01.68	358.94	17.33	-50.1	-60.9	3.8	8.47e-01	0	45	104	165675008	70	12531
2026-01-27 13:31:02.67	358.84	17.23	-50.0	-60.8	3.8	8.47e-01	0	44	104	165675008	70	12517
2026-01-27 13:31:03.67	358.73	17.12	-50.0	-60.9	3.8	8.46e-01	0	44	104	165675008	70	12535
2026-01-27 13:31:04.66	358.63	17.02	-50.0	-60.9	3.8	8.47e-01	0	45	104	165675008	70	12632
2026-01-27 13:31:05.65	358.53	16.92	-50.0	-60.9	3.8	8.46e-01	0	44	104	165675008	70	12565
2026-01-27 13:31:06.65	358.43	16.81	-50.0	-60.8	3.8	8.47e-01	0	44	104	165675008	70	12519
2026-01-27 13:31:07.64	358.33	16.71	-50.0	-60.8	3.8	8.47e-01	0	44	104	165675008	70	12481
2026-01-27 13:31:08.63	358.24	16.61	-50.0	-60.8	3.8	8.48e-01	0	45	104	165675008	70	12505
2026-01-27 13:31:09.62	358.14	16.51	-50.0	-60.9	3.8	8.48e-01	0	45	104	165675008	70	12522
2026-01-27 13:31:10.62	358.04	16.41	-50.0	-60.9	3.8	8.47e-01	0	45	104	165675008	70	12570
2026-01-27 13:31:11.61	357.94	16.31	-50.0	-60.9	3.8	8.47e-01	0	44	104	165675008	70	12610
2026-01-27 13:31:12.60	357.85	16.21	-50.0	-60.8	3.8	8.46e-01	0	45	104	165675008	70	12434
2026-01-27 13:31:13.60	357.75	16.11	-50.0	-60.8	3.8	8.47e-01	0	44	104	165675008	70	12494
2026-01-27 13:31:14.59	357.66	16.01	-50.0	-60.8	3.8	8.46e-01	0	45	104	165675008	70	12492
2026-01-27 13:31:15.58	357.57	15.91	-50.0	-60.8	3.8	8.47e-01	0	45	104	165675008	70	12485
2026-01-27 13:31:16.57	357.47	15.81	-50.0	-60.8	3.8	8.47e-01	0	45	104	165675008	70	12475
2026-01-27 13:31:17.57	357.38	15.71	-50.0	-60.9	3.8	8.48e-01	0	44	104	165675008	70	12552
2026-01-27 13:31:18.56	357.29	15.61	-50.0	-60.8	3.8	8.47e-01	0	44	104	165675008	70	12450
2026-01-27 13:31:19.55	357.20	15.52	-50.0	-60.8	3.8	8.47e-01	0	45	104	165675008	70	12481
2026-01-27 13:31:20.54	357.11	15.42	-50.0	-60.8	3.8	8.46e-01	0	44	104	165675008	70	12508
2026-01-27 13:31:21.54	357.02	15.32	-50.0	-60.8	3.8	8.47e-01	0	45	104	165675008	70	12485
2026-01-27 13:31:22.53	356.93	15.22	-50.0	-60.8	3.8	8.48e-01	0	44	104	165675008	70	12406
2026-01-27 13:31:23.52	356.84	15.13	-50.0	-60.8	3.8	8.47e-01	0	44	104	165675008	70	12509
2026-01-27 13:31:24.52	356.75	15.03	-50.0	-60.8	3.8	8.47e-01	0	45	104	165675008	70	12510
2026-01-27 13:31:25.51	356.67	14.94	-50.0	-60.8	3.8	8.46e-01	0	44	104	165675008	70	12501
2026-01-27 13:31:26.50	356.58	14.84	-50.0	-60.8	3.8	8.46e-01	0	44	104	165675008	70	12510
2026-01-27 13:31:27.50	356.49	14.74	-50.0	-60.8	3.8	8.46e-01	0	45	104	165675008	70	12506
2026-01-27 13:31:28.49	356.41	14.65	-50.0	-60.9	3.8	8.48e-01	0	45	104	165675008	70	12536
2026-01-27 13:31:29.48	356.32	14.55	-50.0	-60.8	3.8	8.47e-01	0	45	104	165675008	70	12461
2026-01-27 13:31:30.48	356.24	14.46	-50.0	-60.8	3.8	8.46e-01	0	44	104	165675008	70	12505
2026-01-27 13:31:31.47	356.15	14.37	-50.0	-60.8	3.8	8.47e-01	0	44	104	165675008	70	12517
2026-01-27 13:31:32.46	356.07	14.27	-50.0	-60.8	3.8	8.47e-01	0	45	104	165675008	70	12466
2026-01-27 13:31:33.46	355.99	14.18	-50.0	-60.8	3.8	8.47e-01	0	44	104	165675008	70	12498
2026-01-27 13:31:34.45	355.90	14.08	-50.0	-60.8	3.8	8.47e-01	0	44	104	165675008	70	12460
2026-01-27 13:31:35.44	355.82	13.99	-50.0	-60.8	3.8	8.47e-01	0	44	104	165675008	70	12505
2026-01-27 13:31:36.44	355.74	13.90	-50.0	-60.8	3.8	8.46e-01	0	45	104	165675008	70	12441
2026-01-27 13:31:37.43	355.66	13.81	-50.0	-60.8	3.8	8.48e-01	0	44	104	165675008	70	12501
2026-01-27 13:31:38.42	355.58	13.72	-50.0	-60.8	3.8	8.46e-01	0	44	104	165675008	70	12455
2026-01-27 13:31:39.42	355.50	13.62	-50.0	-60.8	3.8	8.47e-01	0	45	104	165675008	70	12465
2026-01-27 13:31:40.41	355.42	13.53	-50.0	-60.8	3.8	8.47e-01	0	44	104	165675008	70	12412
2026-01-27 13:31:41.40	355.34	13.44	-50.0	-60.8	3.8	8.46e-01	0	44	104	165675008	70	12457
2026-01-27 13:31:42.40	355.26	13.35	-50.0	-60.8	3.8	8.47e-01	0	44	104	165675008	70	12414
2026-01-27 13:31:43.39	355.19	13.26	-50.0	-60.8	3.8	8.46e-01	0	44	104	165675008	70	12517
2026-01-27 13:31:44.38	355.11	13.17	-50.0	-60.8	3.8	8.46e-01	0	44	104	165675008	70	12388
2026-01-27 13:31:45.37	355.03	13.08	-50.0	-60.8	3.8	8.47e-01	0	45	104	165675008	70	12464
2026-01-27 13:31:46.37	354.96	12.99	-50.0	-60.8	3.8	8.48e-01	0	44	104	165675008	70	12447
2026-01-27 13:31:47.36	354.88	12.90	-50.0	-60.9	3.8	8.46e-01	0	45	104	165675008	70	12523
2026-01-27 13:31:48.35	354.81	12.81	-50.0	-60.8	3.8	8.48e-01	0	44	104	165675008	70	12492
2026-01-27 13:31:49.34	354.73	12.72	-50.0	-60.8	3.8	8.48e-01	0	44	104	165675008	70	12498
2026-01-27 13:31:50.34	354.66	12.63	-50.0	-60.8	3.8	8.47e-01	0	45	104	165675008	70	12495
2026-01-27 13:31:51.33	354.58	12.54	-50.0	-60.8	3.8	8.46e-01	0	44	104	165675008	70	12478
2026-01-27 13:31:52.32	354.51	12.46	-50.0	-60.8	3.8	8.47e-01	0	44	104	165675008	70	12471
2026-01-27 13:31:53.32	354.44	12.37	-50.0	-60.9	3.8	8.48e-01	0	45	104	165675008	70	12549
2026-01-27 13:31:54.31	354.36	12.28	-50.0	-60.9	3.8	8.47e-01	0	45	104	165675008	70	12537
2026-01-27 13:31:55.30	354.29	12.19	-50.0	-60.8	3.8	8.45e-01	0	44	104	165675008	70	12496
2026-01-27 13:31:56.30	354.22	12.10	-50.0	-60.8	3.8	8.47e-01	0	45	104	165675008	70	12431
2026-01-27 13:31:57.29	354.15	12.02	-50.0	-60.8	3.8	8.48e-01	0	45	104	165675008	70	12483
2026-01-27 13:31:58.28	354.08	11.93	-50.0	-60.8	3.8	8.47e-01	0	44	104	165675008	70	12468
2026-01-27 13:31:59.28	354.01	11.85	-50.0	-60.9	3.8	8.48e-01	0	45	104	165675008	70	12542
2026-01-27 13:32:00.27	353.94	11.76	-50.0	-60.8	3.8	8.47e-01	0	44	104	165675008	70	12479
2026-01-27 13:32:01.26	353.87	11.67	-50.0	-60.8	3.8	8.47e-01	0	44	104	165675008	70	12512
2026-01-27 13:32:02.26	353.80	11.59	-50.0	-60.8	3.8	8.48e-01	0	44	104	165675008	70	12423
2026-01-27 13:32:03.25	353.73	11.50	-50.0	-60.8	3.8	8.46e-01	0	45	104	165675008	70	12491
2026-01-27 13:32:04.24	353.66	11.42	-50.0	-60.8	3.8	8.47e-01	0	44	104	165675008	70	12479
2026-01-27 13:32:05.23	353.60	11.33	-50.0	-60.8	3.8	8.46e-01	0	44	104	165675008	70	12478
2026-01-27 13:32:06.23	353.53	11.25	-50.0	-60.8	3.8	8.46e-01	0	44	104	165675008	70	12446
2026-01-27 13:32:07.22	353.46	11.16	-50.0	-60.8	3.8	8.48e-01	0	45	104	165675008	70	12408
2026-01-27 13:32:08.21	353.39	11.08	-50.0	-60.8	3.8	8.47e-01	0	44	104	165675008	70	12444
2026-01-27 13:32:09.21	353.33	11.00	-50.0	-60.8	3.8	8.48e-01	0	44	104	165675008	70	12469
2026-01-27 13:32:10.20	353.26	10.91	-50.0	-60.8	3.8	8.48e-01	0	44	104	165675008	70	12484
2026-01-27 13:32:11.19	353.20	10.83	-50.0	-60.9	3.8	8.46e-01	0	44	104	165675008	70	12536
2026-01-27 13:32:12.18	353.13	10.75	-50.0	-60.8	3.8	8.46e-01	0	44	104	165675008	70	12462
2026-01-27 13:32:13.18	353.07	10.66	-50.0	-60.8	3.8	8.47e-01	0	44	104	165675008	70	12462
2026-01-27 13:32:14.17	353.00	10.58	-50.0	-60.8	3.8	8.47e-01	0	44	104	165675008	70	12516
2026-01-27 13:32:15.16	352.94	10.50	-50.0	-60.9	3.8	8.46e-01	0	45	104	165675008	70	12526
2026-01-27 13:32:16.15	352.88	10.42	-50.0	-60.8	3.8	8.47e-01	0	45	104	165675008	70	12479
2026-01-27 13:32:17.15	352.81	10.34	-50.0	-60.8	3.8	8.47e-01	0	44	104	165675008	70	12445
2026-01-27 13:32:18.14	352.75	10.25	-50.0	-60.8	3.8	8.46e-01	0	44	104	165675008	70	12504
2026-01-27 13:32:19.13	352.69	10.17	-50.0	-60.8	3.8	8.47e-01	0	44	104	165675008	70	12464
2026-01-27 13:32:20.12	352.63	10.09	-50.0	-60.8	3.8	8.48e-01	0	44	104	165675008	70	12488
2026-01-27 13:32:21.12	352.57	10.01	-50.0	-60.8	3.8	8.47e-01	0	45	104	165675008	70	12446
2026-01-27 13:32:22.11	352.51	9.93	-50.0	-60.8	3.8	8.47e-01	0	44	104	165675008	70	12479
2026-01-27 13:32:23.10	352.44	9.85	-50.0	-60.8	3.8	8.48e-01	0	44	104	165675008	70	12507
2026-01-27 13:32:24.10	352.38	9.77	-50.0	-60.8	3.8	8.46e-01	0	44	104	165675008	70	12475
