passes_logs/2026/01/27/T1/T1__20260127_115414_NOAA_21_JPSS-2_rec.log

#Pass ID: 20260127_115414_NOAA 21 (JPSS-2)
#Satellite: NOAA 21 (JPSS-2)
#Configuration: NOAA 21
#almurnet v.1.7.20251203
#Start time: 2026-01-27 11:54:13

#Version: 2.0.20230620
#Station: T1
#Location: 37.570604 lon 55.790049 lat
#TLE: 1 54234U 22150A   26026.78373243  .00000177  00000+0  10458-3 0  9996
#TLE: 2 54234  98.7509 327.5416 0000822 208.1870 151.9262 14.19539807166482

#Time	Az	El	Level	Level2	SNR	BER	BlckErr	Temp	State	Recorded	gain1	gain2
2026-01-27 11:54:13.94	227.28	4.98	-50.4	-63.6	3.8	1.49e+00	0	42	0	0	72	16429
2026-01-27 11:54:14.92	227.39	5.03	-50.6	-63.6	3.8	1.49e+00	0	42	104	0	72	16446
2026-01-27 11:54:15.92	227.50	5.08	-50.6	-63.7	3.8	1.49e+00	0	42	104	0	72	16568
2026-01-27 11:54:16.91	227.61	5.13	-50.7	-63.7	3.8	1.49e+00	0	42	104	0	72	16551
2026-01-27 11:54:17.90	227.71	5.18	-50.5	-63.7	3.8	1.49e+00	0	42	104	0	72	16520
2026-01-27 11:54:18.90	227.82	5.23	-50.7	-63.7	3.8	1.49e+00	0	42	104	0	72	16506
2026-01-27 11:54:19.89	227.93	5.28	-50.7	-63.7	3.8	1.49e+00	0	42	104	0	72	16564
2026-01-27 11:54:20.88	228.04	5.33	-50.4	-63.6	3.8	1.49e+00	0	42	104	0	72	16481
2026-01-27 11:54:21.87	228.15	5.38	-50.7	-63.7	3.8	1.49e+00	0	42	104	0	72	16518
2026-01-27 11:54:22.87	228.26	5.43	-50.5	-63.6	3.8	1.49e+00	0	42	104	0	72	16401
2026-01-27 11:54:23.86	228.37	5.48	-50.5	-63.6	3.8	1.49e+00	0	42	104	0	72	16466
2026-01-27 11:54:24.85	228.49	5.53	-50.5	-63.6	3.8	1.49e+00	0	42	104	0	72	16495
2026-01-27 11:54:25.85	228.60	5.58	-50.2	-63.6	3.8	1.49e+00	0	42	104	0	72	16322
2026-01-27 11:54:26.84	228.71	5.63	-50.1	-63.6	3.8	1.49e+00	0	42	104	0	72	16317
2026-01-27 11:54:27.83	228.82	5.68	-50.5	-63.6	3.8	1.49e+00	0	42	104	0	72	16315
2026-01-27 11:54:28.83	228.94	5.73	-50.4	-63.5	3.8	1.49e+00	0	42	104	0	72	16191
2026-01-27 11:54:29.82	229.05	5.78	-50.3	-63.5	3.8	1.49e+00	0	42	104	0	72	16170
2026-01-27 11:54:30.81	229.16	5.83	-50.3	-63.4	3.8	1.49e+00	0	42	104	0	72	16012
2026-01-27 11:54:31.81	229.28	5.88	-50.0	-63.3	3.8	1.49e+00	0	42	104	0	72	15804
2026-01-27 11:54:32.80	229.39	5.93	-50.1	-63.2	3.8	1.49e+00	0	42	104	0	71	16618
2026-01-27 11:54:33.79	229.50	5.98	-50.0	-63.0	3.8	1.49e+00	0	42	104	0	71	16274
2026-01-27 11:54:34.79	229.62	6.03	-50.0	-62.9	3.8	1.49e+00	0	43	104	0	71	16115
2026-01-27 11:54:35.78	229.74	6.08	-50.0	-62.9	3.8	1.49e+00	0	42	104	0	71	16070
2026-01-27 11:54:36.77	229.85	6.13	-50.0	-62.9	3.8	1.49e+00	0	42	104	0	71	16099
2026-01-27 11:54:37.76	229.97	6.18	-50.0	-62.9	3.8	1.49e+00	0	42	104	0	71	16093
2026-01-27 11:54:38.76	230.08	6.23	-50.0	-62.9	3.8	1.49e+00	0	42	104	0	71	16098
2026-01-27 11:54:39.75	230.20	6.28	-50.0	-62.9	3.8	1.49e+00	0	42	104	0	71	16093
2026-01-27 11:54:40.74	230.32	6.33	-50.0	-62.9	3.8	1.49e+00	0	43	104	0	71	16068
2026-01-27 11:54:41.74	230.44	6.38	-50.0	-62.9	3.8	1.49e+00	0	42	104	0	71	16066
2026-01-27 11:54:42.73	230.55	6.43	-50.0	-63.0	3.8	1.49e+00	0	43	104	0	71	16159
2026-01-27 11:54:43.72	230.67	6.48	-50.0	-63.0	3.8	1.49e+00	0	43	104	0	71	16130
2026-01-27 11:54:44.71	230.79	6.53	-50.0	-62.9	3.8	1.49e+00	0	43	104	0	71	16096
2026-01-27 11:54:45.71	230.91	6.58	-50.0	-62.9	3.8	1.49e+00	0	43	104	0	71	16113
2026-01-27 11:54:46.70	231.03	6.63	-50.0	-62.9	3.8	1.49e+00	0	43	104	0	71	16062
2026-01-27 11:54:47.69	231.15	6.68	-50.0	-63.0	3.8	1.49e+00	0	43	104	0	71	16142
2026-01-27 11:54:48.69	231.27	6.73	-50.0	-62.9	3.8	1.49e+00	0	43	104	0	71	16057
2026-01-27 11:54:49.68	231.39	6.78	-50.0	-62.9	3.8	1.49e+00	0	43	104	0	71	16061
2026-01-27 11:54:50.68	231.51	6.83	-50.0	-62.9	3.8	1.49e+00	0	43	104	0	71	16040
2026-01-27 11:54:51.67	231.64	6.88	-49.9	-62.9	3.8	1.49e+00	0	43	104	0	71	16087
2026-01-27 11:54:52.66	231.76	6.93	-50.0	-62.9	3.8	1.49e+00	0	43	104	0	71	16023
2026-01-27 11:54:53.65	231.88	6.98	-50.0	-62.9	3.8	1.49e+00	0	43	104	0	71	16091
2026-01-27 11:54:54.65	232.00	7.03	-50.0	-62.9	3.8	1.49e+00	0	43	104	0	71	16055
2026-01-27 11:54:55.64	232.13	7.08	-49.9	-62.8	3.8	1.49e+00	0	43	104	0	71	15866
2026-01-27 11:54:56.63	232.25	7.13	-49.9	-62.8	3.8	1.49e+00	0	43	104	0	71	15767
2026-01-27 11:54:57.62	232.37	7.18	-49.9	-62.6	3.8	1.49e+00	0	43	104	0	71	15554
2026-01-27 11:54:58.62	232.50	7.23	-49.9	-62.6	3.8	1.49e+00	0	43	104	0	71	15404
2026-01-27 11:54:59.61	232.62	7.28	-49.9	-62.6	3.8	1.49e+00	0	43	104	0	71	15560
2026-01-27 11:55:00.60	232.75	7.33	-49.9	-62.7	3.8	1.49e+00	0	43	104	0	71	15702
2026-01-27 11:55:01.60	232.88	7.38	-49.9	-62.9	3.8	1.49e+00	0	43	104	0	71	15976
2026-01-27 11:55:02.59	233.00	7.43	-49.9	-62.9	3.8	1.49e+00	0	43	104	0	71	16057
2026-01-27 11:55:03.58	233.13	7.48	-50.0	-62.9	3.8	1.49e+00	0	43	104	0	71	16031
2026-01-27 11:55:04.58	233.26	7.53	-49.9	-62.8	3.8	1.49e+00	0	43	104	0	71	15838
2026-01-27 11:55:05.57	233.38	7.58	-49.9	-62.6	3.8	1.49e+00	0	43	104	0	71	15570
2026-01-27 11:55:06.56	233.51	7.63	-49.9	-62.6	3.8	1.49e+00	0	43	104	0	71	15406
2026-01-27 11:55:07.56	233.64	7.68	-49.9	-62.5	3.8	1.49e+00	0	43	104	0	71	15311
2026-01-27 11:55:08.55	233.77	7.73	-49.9	-62.5	3.8	1.49e+00	0	43	104	0	71	15339
2026-01-27 11:55:09.54	233.90	7.78	-49.9	-62.5	3.8	1.49e+00	0	43	104	0	71	15358
2026-01-27 11:55:10.54	234.03	7.83	-49.9	-62.5	3.8	1.49e+00	0	43	104	0	71	15383
2026-01-27 11:55:11.53	234.16	7.87	-49.9	-62.4	3.8	1.49e+00	0	43	104	0	71	15219
2026-01-27 11:55:12.52	234.29	7.92	-49.9	-62.3	3.8	1.49e+00	0	43	104	0	71	14961
2026-01-27 11:55:13.51	234.42	7.97	-49.9	-62.3	3.8	1.49e+00	0	43	104	0	71	14928
2026-01-27 11:55:14.51	234.55	8.02	-49.9	-62.4	3.8	1.49e+00	0	43	104	0	71	15147
2026-01-27 11:55:15.50	234.68	8.07	-49.9	-62.6	3.8	1.49e+00	0	43	104	0	71	15517
2026-01-27 11:55:16.49	234.81	8.12	-49.9	-62.4	3.8	1.49e+00	0	43	104	0	71	15215
2026-01-27 11:55:17.48	234.95	8.17	-49.8	-61.7	3.8	1.49e+00	0	43	104	0	71	13937
2026-01-27 11:55:18.48	235.08	8.22	-49.7	-60.2	4.0	1.48e+00	0	43	104	0	71	11730
2026-01-27 11:55:19.47	235.21	8.27	-49.6	-59.3	4.2	1.46e+00	0	43	104	0	71	10584
2026-01-27 11:55:20.46	235.35	8.32	-49.5	-59.2	4.2	1.46e+00	0	43	104	0	71	10531
2026-01-27 11:55:21.46	235.48	8.37	-49.7	-59.9	4.1	1.47e+00	0	43	104	0	71	11387
2026-01-27 11:55:22.45	235.62	8.42	-49.5	-58.9	4.2	1.46e+00	0	43	104	0	71	10065
2026-01-27 11:55:23.44	235.75	8.47	-48.7	-55.3	6.3	4.00e-01	0	43	0	0	69	7495
2026-01-27 11:55:24.44	235.89	8.52	-47.3	-51.7	9.7	1.97e-02	0	43	0	0	66	5864
2026-01-27 11:55:25.43	236.02	8.56	-45.8	-49.0	12.6	6.54e-04	0	43	0	0	63	5130
2026-01-27 11:55:26.42	236.16	8.61	-44.4	-47.0	14.7	3.00e-06	0	43	0	0	60	4826
2026-01-27 11:55:27.42	236.30	8.66	-43.5	-45.8	15.8	0.00e+00	0	43	0	0	59	4473
2026-01-27 11:55:28.41	236.43	8.71	-42.9	-45.0	16.5	0.00e+00	0	43	0	0	57	4589
2026-01-27 11:55:29.40	236.57	8.76	-42.9	-45.0	16.5	0.00e+00	0	43	0	0	57	4596
2026-01-27 11:55:30.39	236.71	8.81	-43.2	-45.4	16.1	0.00e+00	0	43	0	0	57	4798
2026-01-27 11:55:31.39	236.85	8.86	-43.8	-46.3	15.3	0.00e+00	0	43	0	0	58	5007
2026-01-27 11:55:32.38	236.99	8.91	-44.8	-47.6	14.0	0.00e+00	0	43	0	0	60	5214
2026-01-27 11:55:33.38	237.13	8.96	-45.9	-49.2	12.5	6.86e-05	0	43	0	0	62	5545
2026-01-27 11:55:34.37	237.27	9.00	-46.8	-50.9	10.6	1.16e-03	0	43	0	0	64	6000
2026-01-27 11:55:35.36	237.41	9.05	-47.0	-51.1	10.3	1.94e-02	0	43	0	0	65	5823
2026-01-27 11:55:36.36	237.55	9.10	-45.5	-48.6	13.1	0.00e+00	0	43	0	0	61	5511
2026-01-27 11:55:37.35	237.69	9.15	-48.4	-54.3	7.2	4.31e-01	0	43	0	0	68	7066
2026-01-27 11:55:38.35	237.83	9.20	-47.4	-52.0	9.3	4.88e-02	0	43	0	0	66	6118
2026-01-27 11:55:39.34	237.98	9.25	-45.9	-49.2	12.5	2.28e-05	0	43	0	0	62	5568
2026-01-27 11:55:40.34	238.12	9.29	-48.8	-55.4	6.2	5.29e-01	0	43	0	0	69	7604
2026-01-27 11:55:41.33	238.26	9.34	-44.4	-47.0	14.6	0.00e+00	0	43	0	0	60	4868
2026-01-27 11:55:42.33	238.41	9.39	-43.8	-46.2	15.4	0.00e+00	0	43	0	0	59	4676
2026-01-27 11:55:43.32	238.55	9.44	-43.9	-46.3	15.3	0.00e+00	0	43	0	0	59	4737
2026-01-27 11:55:44.32	238.70	9.49	-43.6	-45.9	15.7	0.00e+00	0	43	0	0	59	4531
2026-01-27 11:55:45.32	238.84	9.54	-43.2	-45.4	16.2	0.00e+00	0	43	0	0	58	4521
2026-01-27 11:55:46.31	238.99	9.58	-43.0	-45.2	16.4	0.00e+00	0	43	0	0	58	4403
2026-01-27 11:55:47.30	239.13	9.63	-43.0	-45.1	16.4	0.00e+00	0	43	0	0	57	4648
2026-01-27 11:55:48.30	239.28	9.68	-43.0	-45.2	16.3	0.00e+00	0	43	0	0	57	4700
2026-01-27 11:55:49.29	239.43	9.73	-42.9	-45.1	16.5	0.00e+00	0	43	0	0	57	4605
2026-01-27 11:55:50.29	239.58	9.77	-42.4	-44.5	17.0	0.00e+00	0	43	0	0	56	4590
2026-01-27 11:55:51.29	239.73	9.82	-42.3	-44.4	17.2	0.00e+00	0	43	0	0	56	4503
2026-01-27 11:55:52.28	239.87	9.87	-42.3	-44.4	17.1	0.00e+00	0	43	0	0	56	4520
2026-01-27 11:55:53.27	240.02	9.92	-42.0	-44.0	17.5	0.00e+00	0	43	0	0	56	4335
2026-01-27 11:55:54.27	240.17	9.96	-42.0	-44.0	17.5	0.00e+00	0	43	0	0	56	4336
2026-01-27 11:55:55.27	240.32	10.01	-41.9	-43.9	17.5	0.00e+00	0	43	0	0	55	4512
2026-01-27 11:55:56.26	240.47	10.06	-41.8	-43.8	17.6	0.00e+00	0	43	0	0	55	4470
2026-01-27 11:55:57.25	240.62	10.11	-41.9	-43.9	17.5	0.00e+00	0	43	0	0	55	4506
2026-01-27 11:55:58.25	240.78	10.15	-42.0	-44.0	17.4	0.00e+00	0	43	0	0	55	4576
2026-01-27 11:55:59.25	240.93	10.20	-41.9	-44.0	17.5	0.00e+00	0	43	0	0	55	4549
2026-01-27 11:56:00.24	241.08	10.25	-41.9	-43.8	17.6	0.00e+00	0	43	0	0	55	4485
2026-01-27 11:56:01.24	241.23	10.29	-42.0	-44.0	17.5	0.00e+00	0	43	0	0	55	4549
2026-01-27 11:56:02.23	241.39	10.34	-42.1	-44.1	17.3	0.00e+00	0	43	0	0	55	4640
2026-01-27 11:56:03.23	241.54	10.39	-42.1	-44.2	17.3	0.00e+00	0	43	0	0	55	4675
2026-01-27 11:56:04.22	241.70	10.43	-41.9	-43.9	17.5	0.00e+00	0	43	0	0	55	4525
2026-01-27 11:56:05.22	241.85	10.48	-41.8	-43.9	17.6	0.00e+00	0	43	0	0	55	4502
2026-01-27 11:56:06.21	242.01	10.53	-41.7	-43.7	17.7	0.00e+00	0	43	0	0	55	4439
2026-01-27 11:56:07.21	242.16	10.57	-41.8	-43.9	17.6	0.00e+00	0	43	0	0	55	4513
2026-01-27 11:56:08.20	242.32	10.62	-41.7	-43.8	17.7	0.00e+00	0	43	0	0	55	4456
2026-01-27 11:56:09.20	242.48	10.66	-41.4	-43.5	18.0	0.00e+00	0	43	0	0	54	4551
2026-01-27 11:56:10.20	242.63	10.71	-41.5	-43.5	17.9	0.00e+00	0	43	0	0	54	4578
2026-01-27 11:56:11.19	242.79	10.76	-41.3	-43.3	18.1	0.00e+00	0	43	0	0	54	4450
2026-01-27 11:56:12.18	242.95	10.80	-41.5	-43.5	18.0	0.00e+00	0	43	0	0	54	4548
2026-01-27 11:56:13.18	243.11	10.85	-41.6	-43.5	17.9	0.00e+00	0	44	0	0	54	4581
2026-01-27 11:56:14.17	243.27	10.89	-41.5	-43.4	18.0	0.00e+00	0	43	0	0	54	4530
2026-01-27 11:56:15.17	243.43	10.94	-41.6	-43.5	17.9	0.00e+00	0	43	0	0	54	4564
2026-01-27 11:56:16.16	243.59	10.98	-41.4	-43.3	18.1	0.00e+00	0	43	0	0	54	4466
2026-01-27 11:56:17.16	243.75	11.03	-41.4	-43.3	18.1	0.00e+00	0	43	0	0	54	4478
2026-01-27 11:56:18.16	243.91	11.07	-41.4	-43.3	18.1	0.00e+00	0	43	0	0	54	4475
2026-01-27 11:56:19.15	244.07	11.12	-41.5	-43.4	18.0	0.00e+00	0	43	0	0	54	4497
2026-01-27 11:56:20.15	244.23	11.16	-41.4	-43.2	18.2	0.00e+00	0	43	0	0	54	4438
2026-01-27 11:56:21.14	244.39	11.21	-41.5	-43.4	18.0	0.00e+00	0	43	0	0	54	4519
2026-01-27 11:56:22.14	244.56	11.25	-41.3	-43.2	18.2	0.00e+00	0	43	0	0	54	4435
2026-01-27 11:56:23.13	244.72	11.30	-41.5	-43.4	18.1	0.00e+00	0	43	0	0	54	4515
2026-01-27 11:56:24.13	244.88	11.34	-41.5	-43.4	18.1	0.00e+00	0	43	0	0	54	4499
2026-01-27 11:56:25.12	245.05	11.38	-41.4	-43.3	18.1	0.00e+00	0	43	0	0	54	4470
2026-01-27 11:56:26.12	245.21	11.43	-41.6	-43.6	17.9	0.00e+00	0	43	0	0	54	4599
2026-01-27 11:56:27.11	245.38	11.47	-41.7	-43.7	17.8	0.00e+00	0	43	0	0	54	4667
2026-01-27 11:56:28.10	245.54	11.52	-41.6	-43.5	18.0	0.00e+00	0	43	0	0	54	4583
2026-01-27 11:56:29.10	245.71	11.56	-41.4	-43.3	18.1	0.00e+00	0	43	0	0	54	4485
2026-01-27 11:56:30.09	245.88	11.60	-41.4	-43.4	18.1	0.00e+00	0	43	0	0	54	4494
2026-01-27 11:56:31.09	246.04	11.65	-41.4	-43.4	18.1	0.00e+00	0	43	0	0	54	4502
2026-01-27 11:56:32.08	246.21	11.69	-41.4	-43.3	18.1	0.00e+00	0	43	0	0	54	4490
2026-01-27 11:56:33.08	246.38	11.73	-41.4	-43.3	18.1	0.00e+00	0	43	0	0	54	4492
2026-01-27 11:56:34.07	246.55	11.77	-41.5	-43.4	18.0	0.00e+00	0	43	0	0	54	4544
2026-01-27 11:56:35.07	246.72	11.82	-41.5	-43.5	18.0	0.00e+00	0	43	0	0	54	4554
2026-01-27 11:56:36.06	246.89	11.86	-41.5	-43.5	18.0	0.00e+00	0	43	0	0	54	4554
2026-01-27 11:56:37.06	247.06	11.90	-41.6	-43.6	17.9	0.00e+00	0	43	0	0	54	4605
2026-01-27 11:56:38.06	247.23	11.94	-41.8	-43.8	17.8	0.00e+00	0	43	0	0	54	4710
2026-01-27 11:56:39.05	247.40	11.99	-41.7	-43.6	17.8	0.00e+00	0	43	0	0	54	4648
2026-01-27 11:56:40.04	247.57	12.03	-41.7	-43.7	17.8	0.00e+00	0	43	0	0	54	4672
2026-01-27 11:56:41.04	247.74	12.07	-41.7	-43.7	17.7	0.00e+00	0	43	0	0	54	4691
2026-01-27 11:56:42.03	247.91	12.11	-41.9	-43.9	17.6	0.00e+00	0	43	0	0	54	4803
2026-01-27 11:56:43.03	248.09	12.15	-41.8	-43.8	17.7	0.00e+00	0	43	0	0	54	4708
2026-01-27 11:56:44.02	248.26	12.19	-41.8	-43.8	17.7	0.00e+00	0	44	0	0	54	4719
2026-01-27 11:56:45.02	248.44	12.24	-41.8	-43.8	17.7	0.00e+00	0	43	0	0	54	4731
2026-01-27 11:56:46.01	248.61	12.28	-41.8	-43.7	17.8	0.00e+00	0	43	0	0	54	4692
2026-01-27 11:56:47.01	248.78	12.32	-41.6	-43.6	18.0	0.00e+00	0	43	0	0	54	4621
2026-01-27 11:56:48.00	248.96	12.36	-41.6	-43.6	18.0	0.00e+00	0	43	0	0	54	4619
2026-01-27 11:56:49.00	249.14	12.40	-41.7	-43.7	17.9	0.00e+00	0	43	0	0	54	4660
2026-01-27 11:56:49.99	249.31	12.44	-41.5	-43.5	18.1	0.00e+00	0	43	0	0	54	4558
2026-01-27 11:56:50.98	249.49	12.48	-41.5	-43.4	18.2	0.00e+00	0	44	0	0	54	4514
2026-01-27 11:56:51.98	249.66	12.52	-41.5	-43.4	18.1	0.00e+00	0	44	0	0	54	4528
2026-01-27 11:56:52.97	249.84	12.56	-41.5	-43.4	18.1	0.00e+00	0	44	0	0	54	4539
2026-01-27 11:56:53.96	250.02	12.60	-41.5	-43.5	18.1	0.00e+00	0	43	0	0	54	4564
2026-01-27 11:56:54.96	250.20	12.64	-41.4	-43.4	18.2	0.00e+00	0	43	0	0	54	4500
2026-01-27 11:56:55.95	250.38	12.67	-41.5	-43.5	18.1	0.00e+00	0	43	0	0	54	4547
2026-01-27 11:56:56.95	250.56	12.71	-41.6	-43.6	18.0	0.00e+00	0	44	0	0	54	4601
2026-01-27 11:56:57.94	250.74	12.75	-41.6	-43.6	18.0	0.00e+00	0	43	0	0	54	4619
2026-01-27 11:56:58.93	250.91	12.79	-41.7	-43.7	17.9	0.00e+00	0	43	0	0	54	4688
2026-01-27 11:56:59.93	251.10	12.83	-41.6	-43.6	18.0	0.00e+00	0	44	0	0	54	4610
2026-01-27 11:57:00.92	251.28	12.87	-41.5	-43.4	18.1	0.00e+00	0	43	0	0	54	4529
2026-01-27 11:57:01.92	251.46	12.91	-41.5	-43.5	18.1	0.00e+00	0	43	0	0	54	4561
2026-01-27 11:57:02.91	251.64	12.94	-41.7	-43.6	18.0	0.00e+00	0	44	0	0	54	4639
2026-01-27 11:57:03.91	251.82	12.98	-41.5	-43.5	18.1	0.00e+00	0	43	0	0	54	4548
2026-01-27 11:57:04.90	252.01	13.02	-41.5	-43.4	18.2	0.00e+00	0	43	0	0	54	4519
2026-01-27 11:57:05.90	252.19	13.06	-41.6	-43.5	18.1	0.00e+00	0	43	0	0	54	4557
2026-01-27 11:57:06.89	252.37	13.09	-41.7	-43.6	18.0	0.00e+00	0	43	0	0	54	4636
2026-01-27 11:57:07.89	252.56	13.13	-41.7	-43.7	17.9	0.00e+00	0	43	0	0	54	4660
2026-01-27 11:57:08.88	252.74	13.16	-41.7	-43.6	18.0	0.00e+00	0	43	0	0	54	4624
2026-01-27 11:57:09.88	252.93	13.20	-41.7	-43.6	18.0	0.00e+00	0	43	0	0	54	4615
2026-01-27 11:57:10.88	253.12	13.24	-41.6	-43.5	18.0	0.00e+00	0	44	0	0	54	4592
2026-01-27 11:57:11.87	253.30	13.27	-41.6	-43.5	18.0	0.00e+00	0	43	0	0	54	4565
2026-01-27 11:57:12.87	253.49	13.31	-41.5	-43.4	18.1	0.00e+00	0	43	0	0	54	4535
2026-01-27 11:57:13.86	253.67	13.34	-41.5	-43.4	18.2	0.00e+00	0	43	0	0	54	4511
2026-01-27 11:57:14.85	253.86	13.38	-41.5	-43.5	18.1	0.00e+00	0	43	0	0	54	4564
2026-01-27 11:57:15.85	254.05	13.41	-41.6	-43.5	18.1	0.00e+00	0	43	0	0	54	4580
2026-01-27 11:57:16.84	254.24	13.45	-41.6	-43.5	18.1	0.00e+00	0	43	0	0	54	4593
2026-01-27 11:57:17.84	254.43	13.48	-41.6	-43.5	18.1	0.00e+00	0	43	0	0	54	4593
2026-01-27 11:57:18.83	254.62	13.52	-41.4	-43.4	18.2	0.00e+00	0	43	0	0	54	4510
2026-01-27 11:57:19.82	254.80	13.55	-41.2	-43.1	18.4	0.00e+00	0	44	0	0	54	4386
2026-01-27 11:57:20.82	254.99	13.58	-41.3	-43.2	18.4	0.00e+00	0	43	0	0	54	4418
2026-01-27 11:57:21.82	255.19	13.62	-41.3	-43.2	18.3	0.00e+00	0	43	0	0	54	4407
2026-01-27 11:57:22.81	255.38	13.65	-41.4	-43.3	18.3	0.00e+00	0	43	0	0	54	4465
2026-01-27 11:57:23.81	255.57	13.68	-41.3	-43.2	18.3	0.00e+00	0	43	0	0	54	4438
2026-01-27 11:57:24.80	255.76	13.72	-41.3	-43.2	18.4	0.00e+00	0	43	0	0	54	4403
2026-01-27 11:57:25.80	255.95	13.75	-41.3	-43.1	18.4	0.00e+00	0	43	0	0	54	4384
2026-01-27 11:57:26.79	256.14	13.78	-41.3	-43.3	18.3	0.00e+00	0	43	0	0	54	4443
2026-01-27 11:57:27.78	256.33	13.81	-41.3	-43.2	18.3	0.00e+00	0	43	0	0	54	4415
2026-01-27 11:57:28.78	256.53	13.85	-41.4	-43.3	18.2	0.00e+00	0	43	0	0	54	4486
2026-01-27 11:57:29.77	256.72	13.88	-41.4	-43.3	18.3	0.00e+00	0	43	0	0	54	4453
2026-01-27 11:57:30.77	256.92	13.91	-41.2	-43.0	18.5	0.00e+00	0	44	0	0	54	4321
2026-01-27 11:57:31.76	257.11	13.94	-41.1	-43.0	18.6	0.00e+00	0	44	0	0	54	4312
2026-01-27 11:57:32.76	257.31	13.97	-41.2	-43.1	18.5	0.00e+00	0	44	0	0	54	4346
2026-01-27 11:57:33.75	257.50	14.00	-41.0	-42.9	18.6	0.00e+00	0	43	0	0	54	4257
2026-01-27 11:57:34.74	257.69	14.03	-41.0	-42.9	18.6	0.00e+00	0	43	0	0	54	4246
2026-01-27 11:57:35.74	257.89	14.06	-41.1	-42.9	18.6	0.00e+00	0	44	0	0	54	4256
2026-01-27 11:57:36.73	258.09	14.09	-41.1	-43.0	18.5	0.00e+00	0	43	0	0	54	4311
2026-01-27 11:57:37.73	258.28	14.12	-41.3	-43.2	18.4	0.00e+00	0	43	0	0	54	4393
2026-01-27 11:57:38.72	258.48	14.15	-41.2	-43.1	18.5	0.00e+00	0	43	0	0	54	4348
2026-01-27 11:57:39.72	258.68	14.18	-41.2	-43.1	18.4	0.00e+00	0	43	0	0	54	4378
2026-01-27 11:57:40.71	258.88	14.20	-41.3	-43.2	18.4	0.00e+00	0	43	0	0	54	4423
2026-01-27 11:57:41.71	259.08	14.23	-41.2	-43.1	18.5	0.00e+00	0	43	0	0	54	4374
2026-01-27 11:57:42.70	259.27	14.26	-41.3	-43.2	18.4	0.00e+00	0	43	0	0	54	4404
2026-01-27 11:57:43.70	259.47	14.29	-41.3	-43.1	18.4	0.00e+00	0	44	0	0	54	4388
2026-01-27 11:57:44.69	259.67	14.31	-41.2	-43.0	18.5	0.00e+00	0	43	0	0	54	4336
2026-01-27 11:57:45.68	259.87	14.34	-41.2	-43.1	18.4	0.00e+00	0	43	0	0	54	4368
2026-01-27 11:57:46.68	260.07	14.37	-41.3	-43.1	18.4	0.00e+00	0	43	0	0	54	4389
2026-01-27 11:57:47.67	260.27	14.39	-41.2	-43.0	18.5	0.00e+00	0	43	0	0	54	4327
2026-01-27 11:57:48.67	260.47	14.42	-41.1	-43.0	18.5	0.00e+00	0	44	0	0	54	4320
2026-01-27 11:57:49.66	260.67	14.45	-41.1	-42.9	18.6	0.00e+00	0	44	0	0	54	4273
2026-01-27 11:57:50.66	260.87	14.47	-41.1	-42.9	18.6	0.00e+00	0	44	0	0	54	4284
2026-01-27 11:57:51.65	261.07	14.50	-41.0	-42.9	18.6	0.00e+00	0	43	0	0	54	4266
2026-01-27 11:57:52.64	261.28	14.52	-40.9	-42.7	18.8	0.00e+00	0	43	0	0	53	4401
2026-01-27 11:57:53.64	261.48	14.55	-40.8	-42.6	18.9	0.00e+00	0	44	0	0	53	4372
2026-01-27 11:57:54.63	261.68	14.57	-40.9	-42.8	18.8	0.00e+00	0	43	0	0	53	4450
2026-01-27 11:57:55.63	261.88	14.60	-40.9	-42.7	18.9	0.00e+00	0	43	0	0	53	4404
2026-01-27 11:57:56.62	262.09	14.62	-40.9	-42.7	18.8	0.00e+00	0	44	0	0	53	4417
2026-01-27 11:57:57.62	262.29	14.64	-40.9	-42.8	18.8	0.00e+00	0	43	0	0	53	4467
2026-01-27 11:57:58.61	262.49	14.67	-41.0	-42.8	18.7	0.00e+00	0	43	0	0	53	4462
2026-01-27 11:57:59.61	262.70	14.69	-41.1	-43.0	18.6	0.00e+00	0	43	0	0	53	4552
2026-01-27 11:58:00.60	262.90	14.71	-41.1	-43.0	18.5	0.00e+00	0	43	0	0	53	4589
2026-01-27 11:58:01.60	263.11	14.73	-41.2	-43.1	18.4	0.00e+00	0	44	0	0	53	4627
2026-01-27 11:58:02.59	263.31	14.75	-41.2	-43.1	18.5	0.00e+00	0	44	0	0	53	4604
2026-01-27 11:58:03.59	263.52	14.78	-41.2	-43.1	18.5	0.00e+00	0	43	0	0	53	4635
2026-01-27 11:58:04.58	263.72	14.80	-41.2	-43.0	18.5	0.00e+00	0	43	0	0	53	4586
2026-01-27 11:58:05.57	263.93	14.82	-41.2	-43.0	18.5	0.00e+00	0	44	0	0	53	4581
2026-01-27 11:58:06.57	264.14	14.84	-41.0	-42.8	18.7	0.00e+00	0	44	0	0	53	4485
2026-01-27 11:58:07.56	264.34	14.86	-41.0	-42.8	18.7	0.00e+00	0	43	0	0	53	4469
2026-01-27 11:58:08.56	264.55	14.88	-41.0	-42.8	18.6	0.00e+00	0	43	0	0	53	4455
2026-01-27 11:58:09.55	264.75	14.90	-40.8	-42.6	18.9	0.00e+00	0	43	0	0	53	4387
2026-01-27 11:58:10.54	264.96	14.92	-40.8	-42.6	18.9	0.00e+00	0	43	0	0	53	4359
2026-01-27 11:58:11.54	265.17	14.93	-40.7	-42.5	19.0	0.00e+00	0	43	0	0	53	4331
2026-01-27 11:58:12.53	265.38	14.95	-43.3	-45.5	16.8	0.00e+00	0	43	0	0	56	5110
2026-01-27 11:58:13.53	265.58	14.97	-41.2	-43.1	18.5	0.00e+00	0	43	0	0	53	4627
2026-01-27 11:58:14.52	265.79	14.99	-40.9	-42.8	18.9	0.00e+00	0	44	0	0	53	4453
2026-01-27 11:58:15.52	266.00	15.01	-40.8	-42.6	18.9	0.00e+00	0	43	0	0	53	4389
2026-01-27 11:58:16.51	266.21	15.02	-40.9	-42.7	18.8	0.00e+00	0	43	0	0	53	4427
2026-01-27 11:58:17.51	266.42	15.04	-40.9	-42.7	18.8	0.00e+00	0	44	0	0	53	4434
2026-01-27 11:58:18.50	266.63	15.06	-41.0	-42.8	18.7	0.00e+00	0	44	0	0	53	4482
2026-01-27 11:58:19.49	266.84	15.07	-41.0	-42.8	18.7	0.00e+00	0	43	0	0	53	4491
2026-01-27 11:58:20.49	267.05	15.09	-41.1	-42.9	18.6	0.00e+00	0	43	0	0	53	4536
2026-01-27 11:58:21.48	267.25	15.10	-41.2	-43.1	18.5	0.00e+00	0	43	0	0	53	4602
2026-01-27 11:58:22.48	267.47	15.12	-40.9	-42.8	18.7	0.00e+00	0	43	0	0	53	4470
2026-01-27 11:58:23.47	267.67	15.13	-41.0	-42.8	18.7	0.00e+00	0	44	0	0	53	4481
2026-01-27 11:58:24.47	267.89	15.15	-40.8	-42.6	18.8	0.00e+00	0	44	0	0	53	4384
2026-01-27 11:58:25.46	268.10	15.16	-40.8	-42.6	18.9	0.00e+00	0	43	0	0	53	4373
2026-01-27 11:58:26.46	268.31	15.18	-40.7	-42.5	18.9	0.00e+00	0	44	0	0	53	4316
2026-01-27 11:58:27.45	268.52	15.19	-40.7	-42.5	19.0	0.00e+00	0	44	0	0	53	4297
2026-01-27 11:58:28.45	268.73	15.20	-40.8	-42.6	18.8	0.00e+00	0	44	0	0	53	4377
2026-01-27 11:58:29.44	268.94	15.21	-40.7	-42.6	18.9	0.00e+00	0	43	0	0	53	4342
2026-01-27 11:58:30.44	269.15	15.23	-40.9	-42.7	18.8	0.00e+00	0	43	0	0	53	4411
2026-01-27 11:58:31.43	269.36	15.24	-40.7	-42.5	19.0	0.00e+00	0	43	0	0	53	4312
2026-01-27 11:58:32.43	269.58	15.25	-40.8	-42.6	18.9	0.00e+00	0	43	0	0	53	4380
2026-01-27 11:58:33.42	269.79	15.26	-40.8	-42.6	18.9	0.00e+00	0	43	0	0	53	4376
2026-01-27 11:58:34.42	270.00	15.27	-40.8	-42.6	18.9	0.00e+00	0	43	0	0	53	4351
2026-01-27 11:58:35.41	270.21	15.28	-40.8	-42.6	18.8	0.00e+00	0	43	0	0	53	4391
2026-01-27 11:58:36.40	270.42	15.29	-40.9	-42.8	18.7	0.00e+00	0	44	0	0	53	4460
2026-01-27 11:58:37.40	270.64	15.30	-40.9	-42.8	18.7	0.00e+00	0	43	0	0	53	4463
2026-01-27 11:58:38.39	270.85	15.31	-41.0	-42.8	18.7	0.00e+00	0	43	0	0	53	4473
2026-01-27 11:58:39.39	271.06	15.32	-41.0	-42.9	18.6	0.00e+00	0	43	0	0	53	4505
2026-01-27 11:58:40.38	271.27	15.33	-40.9	-42.8	18.8	0.00e+00	0	44	0	0	53	4457
2026-01-27 11:58:41.38	271.49	15.34	-41.0	-42.9	18.8	0.00e+00	0	43	0	0	53	4494
2026-01-27 11:58:42.37	271.70	15.34	-41.0	-42.9	18.7	0.00e+00	0	44	0	0	53	4504
2026-01-27 11:58:43.36	271.91	15.35	-40.9	-42.7	18.8	0.00e+00	0	43	0	0	53	4431
2026-01-27 11:58:44.36	272.12	15.36	-40.9	-42.7	18.8	0.00e+00	0	43	0	0	53	4417
2026-01-27 11:58:45.35	272.34	15.37	-40.9	-42.8	18.7	0.00e+00	0	43	0	0	53	4448
2026-01-27 11:58:46.35	272.55	15.37	-41.1	-42.9	18.6	0.00e+00	0	43	0	0	53	4526
2026-01-27 11:58:47.34	272.76	15.38	-41.1	-43.0	18.4	0.00e+00	0	43	0	0	53	4578
2026-01-27 11:58:48.34	272.98	15.38	-41.2	-43.1	18.4	0.00e+00	0	43	0	0	53	4621
2026-01-27 11:58:49.33	273.19	15.39	-41.2	-43.1	18.4	0.00e+00	0	44	0	0	53	4610
2026-01-27 11:58:50.32	273.40	15.39	-41.3	-43.2	18.3	0.00e+00	0	44	0	0	53	4682
2026-01-27 11:58:51.32	273.62	15.40	-41.2	-43.1	18.4	0.00e+00	0	43	0	0	53	4641
2026-01-27 11:58:52.31	273.83	15.40	-41.3	-43.1	18.4	0.00e+00	0	44	0	0	53	4650
2026-01-27 11:58:53.31	274.05	15.41	-40.9	-42.7	18.7	0.00e+00	0	43	0	0	53	4436
2026-01-27 11:58:54.30	274.26	15.41	-40.9	-42.7	18.7	0.00e+00	0	43	0	0	53	4435
2026-01-27 11:58:55.30	274.47	15.41	-41.0	-42.8	18.7	0.00e+00	0	44	0	0	53	4481
2026-01-27 11:58:56.29	274.69	15.41	-41.1	-42.9	18.6	0.00e+00	0	44	0	0	53	4537
2026-01-27 11:58:57.29	274.90	15.42	-41.0	-42.9	18.7	0.00e+00	0	43	0	0	53	4512
2026-01-27 11:58:58.28	275.11	15.42	-41.1	-43.0	18.6	0.00e+00	0	44	0	0	53	4549
2026-01-27 11:58:59.27	275.33	15.42	-41.1	-43.0	18.6	0.00e+00	0	43	0	0	53	4571
2026-01-27 11:59:00.27	275.54	15.42	-41.2	-43.1	18.5	0.00e+00	0	43	0	0	53	4605
2026-01-27 11:59:01.27	275.76	15.42	-41.1	-43.0	18.5	0.00e+00	0	43	0	0	53	4564
2026-01-27 11:59:02.26	275.97	15.42	-41.3	-43.2	18.4	0.00e+00	0	43	0	0	53	4668
2026-01-27 11:59:03.26	276.19	15.42	-41.2	-43.0	18.5	0.00e+00	0	43	0	0	53	4589
2026-01-27 11:59:04.25	276.40	15.42	-41.1	-43.0	18.6	0.00e+00	0	43	0	0	53	4568
2026-01-27 11:59:05.25	276.61	15.42	-41.1	-43.0	18.6	0.00e+00	0	44	0	0	53	4563
2026-01-27 11:59:06.24	276.83	15.42	-41.2	-43.0	18.5	0.00e+00	0	44	0	0	53	4585
2026-01-27 11:59:07.24	277.04	15.42	-41.2	-43.0	18.5	0.00e+00	0	44	0	0	53	4580
2026-01-27 11:59:08.23	277.25	15.42	-41.2	-43.1	18.5	0.00e+00	0	44	0	0	53	4621
2026-01-27 11:59:09.23	277.47	15.41	-41.1	-43.0	18.5	0.00e+00	0	43	0	0	53	4573
2026-01-27 11:59:10.22	277.68	15.41	-41.1	-42.9	18.6	0.00e+00	0	44	0	0	53	4527
2026-01-27 11:59:11.21	277.90	15.41	-41.0	-42.9	18.6	0.00e+00	0	43	0	0	53	4530
2026-01-27 11:59:12.21	278.11	15.41	-41.2	-43.1	18.5	0.00e+00	0	43	0	0	53	4602
2026-01-27 11:59:13.21	278.32	15.40	-41.1	-43.0	18.5	0.00e+00	0	44	0	0	53	4572
2026-01-27 11:59:14.20	278.54	15.40	-41.2	-43.1	18.5	0.00e+00	0	44	0	0	53	4608
2026-01-27 11:59:15.20	278.75	15.39	-41.3	-43.1	18.4	0.00e+00	0	44	0	0	53	4647
2026-01-27 11:59:16.19	278.96	15.39	-41.3	-43.1	18.4	0.00e+00	0	44	0	0	53	4642
2026-01-27 11:59:17.19	279.18	15.38	-41.1	-42.9	18.6	0.00e+00	0	44	0	0	53	4530
2026-01-27 11:59:18.18	279.39	15.38	-41.0	-42.8	18.6	0.00e+00	0	44	0	0	53	4491
2026-01-27 11:59:19.18	279.61	15.37	-41.2	-43.1	18.5	0.00e+00	0	44	0	0	53	4601
2026-01-27 11:59:20.17	279.82	15.36	-41.1	-42.9	18.6	0.00e+00	0	44	0	0	53	4535
2026-01-27 11:59:21.17	280.03	15.36	-41.1	-42.9	18.6	0.00e+00	0	43	0	0	53	4522
2026-01-27 11:59:22.16	280.24	15.35	-40.9	-42.8	18.8	0.00e+00	0	44	0	0	53	4450
2026-01-27 11:59:23.16	280.46	15.34	-40.9	-42.7	18.9	0.00e+00	0	44	0	0	53	4395
2026-01-27 11:59:24.15	280.67	15.34	-40.8	-42.6	19.0	0.00e+00	0	44	0	0	53	4342
2026-01-27 11:59:25.14	280.88	15.33	-40.9	-42.7	18.9	0.00e+00	0	43	0	0	53	4401
2026-01-27 11:59:26.14	281.09	15.32	-40.8	-42.6	18.9	0.00e+00	0	44	0	0	53	4373
2026-01-27 11:59:27.14	281.31	15.31	-40.9	-42.6	18.9	0.00e+00	0	44	0	0	53	4391
2026-01-27 11:59:28.13	281.52	15.30	-41.0	-42.8	18.8	0.00e+00	0	44	0	0	53	4454
2026-01-27 11:59:29.12	281.73	15.29	-41.0	-42.8	18.8	0.00e+00	0	44	0	0	53	4472
2026-01-27 11:59:30.12	281.94	15.28	-41.0	-42.9	18.7	0.00e+00	0	44	0	0	53	4505
2026-01-27 11:59:31.11	282.15	15.27	-41.1	-43.0	18.6	0.00e+00	0	43	0	0	53	4553
2026-01-27 11:59:32.11	282.37	15.26	-41.1	-42.9	18.7	0.00e+00	0	44	0	0	53	4528
2026-01-27 11:59:33.10	282.58	15.25	-41.0	-42.8	18.7	0.00e+00	0	43	0	0	53	4491
2026-01-27 11:59:34.09	282.79	15.24	-41.1	-43.0	18.6	0.00e+00	0	44	0	0	53	4546
2026-01-27 11:59:35.09	283.00	15.22	-41.0	-42.8	18.8	0.00e+00	0	43	0	0	53	4446
2026-01-27 11:59:36.08	283.21	15.21	-41.1	-42.9	18.6	0.00e+00	0	44	0	0	53	4539
2026-01-27 11:59:37.08	283.42	15.20	-41.2	-43.1	18.5	0.00e+00	0	43	0	0	53	4615
2026-01-27 11:59:38.07	283.63	15.19	-41.2	-43.1	18.5	0.00e+00	0	44	0	0	53	4601
2026-01-27 11:59:39.07	283.84	15.17	-41.2	-43.1	18.5	0.00e+00	0	43	0	0	53	4626
2026-01-27 11:59:40.06	284.05	15.16	-41.3	-43.2	18.4	0.00e+00	0	43	0	0	53	4660
2026-01-27 11:59:41.06	284.26	15.15	-41.3	-43.2	18.4	0.00e+00	0	44	0	0	53	4688
2026-01-27 11:59:42.05	284.47	15.13	-41.1	-43.0	18.6	0.00e+00	0	44	0	0	53	4549
2026-01-27 11:59:43.05	284.68	15.12	-41.1	-43.0	18.6	0.00e+00	0	44	0	0	53	4555
2026-01-27 11:59:44.04	284.89	15.10	-41.2	-43.0	18.5	0.00e+00	0	44	0	0	53	4581
2026-01-27 11:59:45.04	285.10	15.09	-41.2	-43.0	18.5	0.00e+00	0	43	0	0	53	4582
2026-01-27 11:59:46.03	285.31	15.07	-41.2	-43.0	18.5	0.00e+00	0	44	0	0	53	4579
2026-01-27 11:59:47.03	285.52	15.06	-41.3	-43.1	18.4	0.00e+00	0	43	0	0	53	4646
2026-01-27 11:59:48.02	285.73	15.04	-41.3	-43.2	18.4	0.00e+00	0	44	0	0	53	4672
2026-01-27 11:59:49.02	285.94	15.02	-41.3	-43.2	18.4	0.00e+00	0	44	0	0	53	4672
2026-01-27 11:59:50.01	286.14	15.01	-41.4	-43.3	18.3	0.00e+00	0	44	0	0	53	4723
2026-01-27 11:59:51.00	286.35	14.99	-41.4	-43.3	18.2	0.00e+00	0	44	0	0	53	4748
2026-01-27 11:59:52.00	286.56	14.97	-41.4	-43.3	18.3	0.00e+00	0	43	0	0	53	4724
2026-01-27 11:59:52.99	286.77	14.95	-41.3	-43.2	18.4	0.00e+00	0	43	0	0	53	4686
2026-01-27 11:59:53.99	286.97	14.93	-41.4	-43.2	18.4	0.00e+00	0	44	0	0	53	4685
2026-01-27 11:59:54.98	287.18	14.91	-41.2	-43.1	18.5	0.00e+00	0	44	0	0	53	4615
2026-01-27 11:59:55.98	287.39	14.90	-41.2	-43.0	18.5	0.00e+00	0	44	0	0	53	4598
2026-01-27 11:59:56.97	287.59	14.88	-41.1	-43.0	18.6	0.00e+00	0	43	0	0	53	4549
2026-01-27 11:59:57.96	287.80	14.86	-41.2	-43.1	18.6	0.00e+00	0	43	0	0	53	4611
2026-01-27 11:59:58.96	288.01	14.84	-41.3	-43.2	18.5	0.00e+00	0	43	0	0	53	4657
2026-01-27 11:59:59.95	288.21	14.82	-41.2	-43.0	18.6	0.00e+00	0	44	0	0	53	4572
2026-01-27 12:00:00.95	288.42	14.80	-41.2	-43.1	18.5	0.00e+00	0	43	0	0	53	4611
2026-01-27 12:00:01.94	288.62	14.77	-41.4	-43.3	18.3	0.00e+00	0	43	0	0	53	4743
2026-01-27 12:00:02.94	288.83	14.75	-41.4	-43.3	18.3	0.00e+00	0	44	0	0	53	4706
2026-01-27 12:00:03.93	289.03	14.73	-41.5	-43.3	18.2	0.00e+00	0	43	0	0	53	4756
2026-01-27 12:00:04.92	289.23	14.71	-41.5	-43.4	18.3	0.00e+00	0	43	0	0	53	4773
2026-01-27 12:00:05.92	289.44	14.69	-41.5	-43.4	18.2	0.00e+00	0	44	0	0	53	4808
2026-01-27 12:00:06.91	289.64	14.66	-41.6	-43.5	18.2	0.00e+00	0	44	0	0	53	4820
2026-01-27 12:00:07.91	289.84	14.64	-41.5	-43.5	18.2	0.00e+00	0	44	0	0	53	4815
2026-01-27 12:00:08.90	290.05	14.62	-41.4	-43.2	18.4	0.00e+00	0	44	0	0	53	4702
2026-01-27 12:00:09.90	290.25	14.59	-41.4	-43.3	18.3	0.00e+00	0	44	0	0	53	4727
2026-01-27 12:00:10.89	290.45	14.57	-41.4	-43.3	18.4	0.00e+00	0	44	0	0	53	4706
2026-01-27 12:00:11.89	290.65	14.55	-41.5	-43.4	18.2	0.00e+00	0	43	0	0	53	4768
2026-01-27 12:00:12.88	290.85	14.52	-41.5	-43.4	18.3	0.00e+00	0	44	0	0	53	4760
2026-01-27 12:00:13.88	291.06	14.50	-41.5	-43.4	18.2	0.00e+00	0	44	0	0	53	4771
2026-01-27 12:00:14.87	291.26	14.47	-41.5	-43.4	18.3	0.00e+00	0	44	0	0	53	4767
2026-01-27 12:00:15.86	291.46	14.45	-41.7	-43.6	18.0	0.00e+00	0	44	0	0	54	4625
2026-01-27 12:00:16.86	291.66	14.42	-41.5	-43.4	18.3	0.00e+00	0	44	0	0	54	4524
2026-01-27 12:00:17.86	291.86	14.39	-41.3	-43.1	18.5	0.00e+00	0	44	0	0	54	4390
2026-01-27 12:00:18.85	292.06	14.37	-41.2	-43.0	18.6	0.00e+00	0	44	0	0	54	4336
2026-01-27 12:00:19.85	292.26	14.34	-41.4	-43.2	18.4	0.00e+00	0	44	0	0	54	4440
2026-01-27 12:00:20.84	292.46	14.32	-41.3	-43.2	18.4	0.00e+00	0	44	0	0	54	4419
2026-01-27 12:00:21.83	292.65	14.29	-41.4	-43.3	18.3	0.00e+00	0	44	0	0	54	4481
2026-01-27 12:00:22.83	292.85	14.26	-41.6	-43.5	18.2	0.00e+00	0	44	0	0	54	4569
2026-01-27 12:00:23.83	293.05	14.23	-41.5	-43.4	18.2	0.00e+00	0	43	0	0	54	4515
2026-01-27 12:00:24.82	293.25	14.21	-41.6	-43.5	18.2	0.00e+00	0	44	0	0	54	4564
2026-01-27 12:00:25.81	293.44	14.18	-41.5	-43.4	18.2	0.00e+00	0	43	0	0	54	4518
2026-01-27 12:00:26.81	293.64	14.15	-41.4	-43.3	18.3	0.00e+00	0	44	0	0	54	4477
2026-01-27 12:00:27.80	293.84	14.12	-41.4	-43.3	18.3	0.00e+00	0	44	0	0	54	4483
2026-01-27 12:00:28.80	294.03	14.09	-41.5	-43.4	18.3	0.00e+00	0	44	0	0	54	4497
2026-01-27 12:00:29.79	294.23	14.06	-41.4	-43.3	18.3	0.00e+00	0	44	0	0	54	4457
2026-01-27 12:00:30.79	294.42	14.03	-41.5	-43.4	18.2	0.00e+00	0	43	0	0	54	4506
2026-01-27 12:00:31.78	294.62	14.00	-41.5	-43.4	18.3	0.00e+00	0	44	0	0	54	4526
2026-01-27 12:00:32.78	294.81	13.97	-41.5	-43.4	18.2	0.00e+00	0	43	0	0	54	4536
2026-01-27 12:00:33.77	295.01	13.94	-41.5	-43.4	18.3	0.00e+00	0	43	0	0	54	4514
2026-01-27 12:00:34.77	295.20	13.91	-41.6	-43.5	18.2	0.00e+00	0	44	0	0	54	4570
2026-01-27 12:00:35.76	295.39	13.88	-41.6	-43.5	18.1	0.00e+00	0	43	0	0	54	4567
2026-01-27 12:00:36.75	295.59	13.85	-41.6	-43.5	18.1	0.00e+00	0	44	0	0	54	4598
2026-01-27 12:00:37.75	295.78	13.82	-41.6	-43.5	18.1	0.00e+00	0	43	0	0	54	4584
2026-01-27 12:00:38.74	295.97	13.78	-41.8	-43.7	17.9	0.00e+00	0	43	0	0	54	4694
2026-01-27 12:00:39.74	296.16	13.75	-41.7	-43.7	17.9	0.00e+00	0	44	0	0	54	4674
2026-01-27 12:00:40.73	296.35	13.72	-41.7	-43.6	18.0	0.00e+00	0	44	0	0	54	4651
2026-01-27 12:00:41.73	296.54	13.69	-41.7	-43.6	18.0	0.00e+00	0	44	0	0	54	4613
2026-01-27 12:00:42.72	296.73	13.66	-41.7	-43.6	18.0	0.00e+00	0	44	0	0	54	4616
2026-01-27 12:00:43.72	296.93	13.62	-41.7	-43.6	18.0	0.00e+00	0	44	0	0	54	4649
2026-01-27 12:00:44.71	297.11	13.59	-41.9	-43.8	17.8	0.00e+00	0	43	0	0	54	4743
2026-01-27 12:00:45.71	297.30	13.56	-41.8	-43.7	17.9	0.00e+00	0	43	0	0	54	4685
2026-01-27 12:00:46.70	297.49	13.52	-42.0	-43.9	17.7	0.00e+00	0	44	0	0	54	4801
2026-01-27 12:00:47.70	297.68	13.49	-42.0	-44.0	17.7	0.00e+00	0	44	0	0	54	4815
2026-01-27 12:00:48.69	297.87	13.45	-41.9	-43.9	17.8	0.00e+00	0	44	0	0	54	4768
2026-01-27 12:00:49.68	298.05	13.42	-41.9	-43.8	17.7	0.00e+00	0	44	0	0	54	4759
2026-01-27 12:00:50.68	298.24	13.38	-42.0	-43.9	17.7	0.00e+00	0	44	0	0	54	4801
2026-01-27 12:00:51.67	298.43	13.35	-41.9	-43.9	17.7	0.00e+00	0	44	0	0	54	4763
2026-01-27 12:00:52.67	298.62	13.31	-41.8	-43.7	17.8	0.00e+00	0	43	0	0	54	4692
2026-01-27 12:00:53.67	298.80	13.28	-41.8	-43.7	17.8	0.00e+00	0	43	0	0	54	4696
2026-01-27 12:00:54.66	298.99	13.24	-41.9	-43.8	17.8	0.00e+00	0	43	0	0	54	4732
2026-01-27 12:00:55.66	299.17	13.21	-41.8	-43.8	17.8	0.00e+00	0	44	0	0	54	4717
2026-01-27 12:00:56.65	299.36	13.17	-41.9	-43.8	17.7	0.00e+00	0	43	0	0	54	4735
2026-01-27 12:00:57.65	299.54	13.14	-41.9	-43.9	17.7	0.00e+00	0	43	0	0	54	4793
2026-01-27 12:00:58.64	299.72	13.10	-41.7	-43.6	17.9	0.00e+00	0	43	0	0	54	4649
2026-01-27 12:00:59.63	299.91	13.06	-41.8	-43.8	17.8	0.00e+00	0	43	0	0	54	4722
2026-01-27 12:01:00.63	300.09	13.03	-41.9	-43.8	17.7	0.00e+00	0	44	0	0	54	4743
2026-01-27 12:01:01.62	300.27	12.99	-41.9	-43.8	17.7	0.00e+00	0	44	0	0	54	4742
2026-01-27 12:01:02.62	300.45	12.95	-41.9	-43.9	17.7	0.00e+00	0	44	0	0	54	4774
2026-01-27 12:01:03.61	300.63	12.91	-41.8	-43.8	17.8	0.00e+00	0	44	0	0	54	4730
2026-01-27 12:01:04.60	300.81	12.88	-42.0	-43.9	17.6	0.00e+00	0	43	0	0	54	4799
2026-01-27 12:01:05.60	300.99	12.84	-41.7	-43.7	17.8	0.00e+00	0	44	0	0	54	4658
2026-01-27 12:01:06.59	301.17	12.80	-41.7	-43.6	17.9	0.00e+00	0	44	0	0	54	4607
2026-01-27 12:01:07.59	301.35	12.76	-41.7	-43.6	17.8	0.00e+00	0	44	0	0	54	4622
2026-01-27 12:01:08.58	301.53	12.73	-41.6	-43.5	17.9	0.00e+00	0	44	0	0	54	4568
2026-01-27 12:01:09.58	301.71	12.69	-41.7	-43.6	17.8	0.00e+00	0	44	0	0	54	4648
2026-01-27 12:01:10.57	301.89	12.65	-41.7	-43.6	17.9	0.00e+00	0	44	0	0	54	4617
2026-01-27 12:01:11.56	302.07	12.61	-41.6	-43.5	18.0	0.00e+00	0	44	0	0	54	4586
2026-01-27 12:01:12.56	302.24	12.57	-41.7	-43.6	17.9	0.00e+00	0	44	0	0	54	4612
2026-01-27 12:01:13.56	302.42	12.53	-41.6	-43.6	18.0	0.00e+00	0	44	0	0	54	4603
2026-01-27 12:01:14.55	302.60	12.49	-41.8	-43.7	17.8	0.00e+00	0	44	0	0	54	4693
2026-01-27 12:01:15.54	302.77	12.45	-41.8	-43.8	17.8	0.00e+00	0	44	0	0	54	4719
2026-01-27 12:01:16.54	302.95	12.41	-41.9	-43.9	17.7	0.00e+00	0	44	0	0	54	4800
2026-01-27 12:01:17.53	303.12	12.37	-42.0	-43.9	17.7	0.00e+00	0	44	0	0	54	4802
2026-01-27 12:01:18.53	303.30	12.33	-42.1	-44.1	17.5	0.00e+00	0	44	0	0	54	4898
2026-01-27 12:01:19.52	303.47	12.29	-41.8	-43.7	17.8	0.00e+00	0	43	0	0	54	4699
2026-01-27 12:01:20.52	303.64	12.25	-42.0	-44.0	17.6	0.00e+00	0	44	0	0	54	4838
2026-01-27 12:01:21.51	303.82	12.21	-41.9	-43.9	17.6	0.00e+00	0	44	0	0	54	4787
2026-01-27 12:01:22.50	303.99	12.17	-41.9	-43.9	17.6	0.00e+00	0	43	0	0	54	4795
2026-01-27 12:01:23.50	304.16	12.13	-42.1	-44.1	17.4	0.00e+00	0	43	0	0	54	4908
2026-01-27 12:01:24.49	304.33	12.09	-42.3	-44.3	17.2	0.00e+00	0	43	0	0	55	4753
2026-01-27 12:01:25.49	304.50	12.04	-42.1	-44.1	17.4	0.00e+00	0	44	0	0	55	4628
2026-01-27 12:01:26.48	304.67	12.00	-42.2	-44.2	17.4	0.00e+00	0	44	0	0	55	4667
2026-01-27 12:01:27.48	304.84	11.96	-41.9	-43.9	17.7	0.00e+00	0	44	0	0	55	4515
2026-01-27 12:01:28.48	305.02	11.92	-41.8	-43.8	17.7	0.00e+00	0	44	0	0	55	4473
2026-01-27 12:01:29.47	305.18	11.88	-42.0	-44.0	17.6	0.00e+00	0	43	0	0	55	4554
2026-01-27 12:01:30.46	305.35	11.84	-42.0	-44.0	17.6	0.00e+00	0	43	0	0	55	4580
2026-01-27 12:01:31.46	305.52	11.79	-42.1	-44.1	17.4	0.00e+00	0	43	0	0	55	4632
2026-01-27 12:01:32.45	305.69	11.75	-42.2	-44.2	17.4	0.00e+00	0	44	0	0	55	4658
2026-01-27 12:01:33.44	305.85	11.71	-42.2	-44.3	17.3	0.00e+00	0	43	0	0	55	4709
2026-01-27 12:01:34.44	306.02	11.67	-42.1	-44.2	17.4	0.00e+00	0	44	0	0	55	4653
2026-01-27 12:01:35.43	306.19	11.62	-42.3	-44.4	17.2	0.00e+00	0	44	0	0	55	4771
2026-01-27 12:01:36.43	306.35	11.58	-42.3	-44.4	17.2	0.00e+00	0	44	0	0	55	4760
2026-01-27 12:01:37.42	306.52	11.54	-42.4	-44.5	17.0	0.00e+00	0	43	0	0	55	4850
2026-01-27 12:01:38.42	306.69	11.49	-42.2	-44.3	17.2	0.00e+00	0	44	0	0	55	4734
2026-01-27 12:01:39.41	306.85	11.45	-42.3	-44.4	17.1	0.00e+00	0	44	0	0	55	4783
2026-01-27 12:01:40.41	307.01	11.41	-42.3	-44.4	17.1	0.00e+00	0	44	0	0	55	4788
2026-01-27 12:01:41.40	307.18	11.36	-42.4	-44.5	17.0	0.00e+00	0	43	0	0	55	4824
2026-01-27 12:01:42.39	307.34	11.32	-42.4	-44.4	17.0	0.00e+00	0	44	0	0	55	4811
2026-01-27 12:01:43.39	307.50	11.28	-42.3	-44.4	17.1	0.00e+00	0	44	0	0	55	4789
2026-01-27 12:01:44.38	307.66	11.23	-42.2	-44.3	17.2	0.00e+00	0	44	0	0	55	4727
2026-01-27 12:01:45.38	307.83	11.19	-42.4	-44.5	17.0	0.00e+00	0	43	0	0	55	4847
2026-01-27 12:01:46.37	307.99	11.14	-42.6	-44.8	16.7	0.00e+00	0	43	0	0	55	5030
2026-01-27 12:01:47.37	308.15	11.10	-42.8	-45.0	16.7	0.00e+00	0	44	0	0	56	4857
2026-01-27 12:01:48.36	308.31	11.05	-42.8	-45.0	16.7	0.00e+00	0	44	0	0	56	4850
2026-01-27 12:01:49.36	308.47	11.01	-42.6	-44.8	16.9	0.00e+00	0	44	0	0	56	4742
2026-01-27 12:01:50.35	308.63	10.97	-42.5	-44.7	17.0	0.00e+00	0	44	0	0	56	4674
2026-01-27 12:01:51.35	308.79	10.92	-42.7	-44.9	16.8	0.00e+00	0	44	0	0	56	4762
2026-01-27 12:01:52.34	308.94	10.88	-42.8	-45.0	16.7	0.00e+00	0	44	0	0	56	4850
2026-01-27 12:01:53.34	309.10	10.83	-42.8	-45.0	16.6	0.00e+00	0	44	0	0	56	4847
2026-01-27 12:01:54.33	309.26	10.79	-42.9	-45.1	16.6	0.00e+00	0	44	0	0	56	4879
2026-01-27 12:01:55.33	309.42	10.74	-42.9	-45.2	16.5	0.00e+00	0	43	0	0	56	4934
2026-01-27 12:01:56.32	309.57	10.69	-42.8	-45.1	16.6	0.00e+00	0	43	0	0	56	4872
2026-01-27 12:01:57.31	309.73	10.65	-42.7	-44.9	16.8	0.00e+00	0	44	0	0	56	4761
2026-01-27 12:01:58.31	309.88	10.60	-42.8	-45.0	16.7	0.00e+00	0	44	0	0	56	4818
2026-01-27 12:01:59.30	310.04	10.56	-42.9	-45.1	16.5	0.00e+00	0	44	0	0	56	4892
2026-01-27 12:02:00.30	310.19	10.51	-42.9	-45.1	16.6	0.00e+00	0	44	0	0	56	4882
2026-01-27 12:02:01.29	310.35	10.47	-42.8	-44.9	16.7	0.00e+00	0	44	0	0	56	4803
2026-01-27 12:02:02.29	310.50	10.42	-42.7	-44.9	16.8	0.00e+00	0	44	0	0	56	4772
2026-01-27 12:02:03.28	310.65	10.37	-42.9	-45.0	16.7	0.00e+00	0	43	0	0	56	4842
2026-01-27 12:02:04.28	310.81	10.33	-42.8	-45.0	16.7	0.00e+00	0	44	0	0	56	4832
2026-01-27 12:02:05.27	310.96	10.28	-42.8	-44.9	16.8	0.00e+00	0	44	0	0	56	4802
2026-01-27 12:02:06.27	311.11	10.24	-42.7	-44.8	16.9	0.00e+00	0	44	0	0	56	4738
2026-01-27 12:02:07.26	311.26	10.19	-42.8	-44.9	16.8	0.00e+00	0	44	0	0	56	4799
2026-01-27 12:02:08.26	311.41	10.14	-42.6	-44.7	17.0	0.00e+00	0	43	0	0	56	4683
2026-01-27 12:02:09.25	311.56	10.10	-42.7	-44.9	16.8	0.00e+00	0	44	0	0	56	4775
2026-01-27 12:02:10.24	311.71	10.05	-42.7	-44.8	16.8	0.00e+00	0	44	0	0	56	4749
2026-01-27 12:02:11.24	311.86	10.00	-42.8	-45.0	16.6	0.00e+00	0	44	0	0	56	4867
2026-01-27 12:02:12.23	312.01	9.96	-42.9	-45.1	16.6	0.00e+00	0	44	0	0	56	4889
2026-01-27 12:02:13.23	312.16	9.91	-42.9	-45.1	16.5	0.00e+00	0	44	0	0	56	4923
2026-01-27 12:02:14.22	312.31	9.86	-42.7	-45.0	16.7	0.00e+00	0	44	0	0	56	4817
2026-01-27 12:02:15.22	312.46	9.81	-42.7	-45.0	16.6	0.00e+00	0	44	0	0	56	4855
2026-01-27 12:02:16.21	312.60	9.77	-42.8	-45.0	16.6	0.00e+00	0	43	0	0	56	4861
2026-01-27 12:02:17.21	312.75	9.72	-42.8	-45.1	16.5	0.00e+00	0	43	0	0	56	4903
2026-01-27 12:02:18.20	312.90	9.67	-42.8	-45.0	16.6	0.00e+00	0	44	0	0	56	4866
2026-01-27 12:02:19.20	313.04	9.63	-42.8	-45.0	16.6	0.00e+00	0	44	0	0	56	4860
2026-01-27 12:02:20.19	313.19	9.58	-42.8	-45.0	16.6	0.00e+00	0	44	0	0	56	4849
2026-01-27 12:02:21.19	313.33	9.53	-42.8	-45.0	16.6	0.00e+00	0	44	0	0	56	4847
2026-01-27 12:02:22.18	313.48	9.48	-43.0	-45.3	16.4	0.00e+00	0	44	0	0	56	4991
2026-01-27 12:02:23.18	313.62	9.44	-42.8	-45.0	16.6	0.00e+00	0	44	0	0	56	4839
2026-01-27 12:02:24.17	313.76	9.39	-42.8	-45.0	16.7	0.00e+00	0	44	0	0	56	4824
2026-01-27 12:02:25.17	313.91	9.34	-43.1	-45.3	16.3	0.00e+00	0	44	0	0	56	5015
2026-01-27 12:02:26.17	314.05	9.29	-43.2	-45.5	16.2	0.00e+00	0	44	0	0	57	4816
2026-01-27 12:02:27.16	314.19	9.24	-42.9	-45.2	16.4	0.00e+00	0	44	0	0	57	4670
2026-01-27 12:02:28.16	314.33	9.20	-43.1	-45.3	16.3	0.00e+00	0	43	0	0	57	4755
2026-01-27 12:02:29.15	314.47	9.15	-43.1	-45.4	16.2	0.00e+00	0	44	0	0	57	4805
2026-01-27 12:02:30.15	314.62	9.10	-43.0	-45.3	16.4	0.00e+00	0	44	0	0	57	4730
2026-01-27 12:02:31.15	314.76	9.05	-43.1	-45.4	16.2	0.00e+00	0	44	0	0	57	4797
2026-01-27 12:02:32.14	314.90	9.00	-43.0	-45.4	16.3	0.00e+00	0	43	0	0	57	4766
2026-01-27 12:02:33.13	315.03	8.96	-49.2	-60.1	3.9	1.91e-01	0	43	104	0	69	13040
2026-01-27 12:02:34.13	315.17	8.91	-49.4	-62.7	3.8	1.49e+00	0	44	104	0	69	17615
2026-01-27 12:02:35.12	315.31	8.86	-49.6	-62.8	3.8	1.49e+00	0	43	104	0	70	16815
2026-01-27 12:02:36.11	315.45	8.81	-49.8	-62.9	3.8	1.49e+00	0	44	104	0	70	16895
2026-01-27 12:02:37.11	315.59	8.76	-49.9	-62.9	3.8	1.49e+00	0	44	104	0	70	16949
2026-01-27 12:02:38.10	315.72	8.71	-49.9	-62.9	3.8	1.49e+00	0	43	104	0	70	16946
2026-01-27 12:02:39.09	315.86	8.67	-49.9	-62.9	3.8	1.49e+00	0	44	104	0	70	17030
2026-01-27 12:02:40.09	316.00	8.62	-49.9	-63.0	3.8	1.49e+00	0	43	104	0	70	17107
2026-01-27 12:02:41.08	316.13	8.57	-50.0	-62.9	3.8	1.49e+00	0	44	104	0	70	17068
2026-01-27 12:02:42.07	316.27	8.52	-49.9	-63.0	3.8	1.49e+00	0	44	104	0	70	17106
2026-01-27 12:02:43.07	316.40	8.47	-49.9	-63.0	3.8	1.49e+00	0	44	104	0	70	17122
2026-01-27 12:02:44.06	316.54	8.42	-49.9	-62.9	3.8	1.49e+00	0	44	104	0	70	17048
2026-01-27 12:02:45.05	316.67	8.38	-49.9	-63.0	3.8	1.49e+00	0	44	104	0	70	17119
2026-01-27 12:02:46.05	316.81	8.33	-49.9	-63.0	3.8	1.49e+00	0	44	104	0	70	17113
2026-01-27 12:02:47.04	316.94	8.28	-49.9	-63.0	3.8	1.49e+00	0	44	104	0	70	17128
2026-01-27 12:02:48.03	317.07	8.23	-49.9	-63.0	3.8	1.49e+00	0	44	104	0	70	17114
2026-01-27 12:02:49.02	317.20	8.18	-49.9	-63.0	3.8	1.49e+00	0	44	104	0	70	17108
2026-01-27 12:02:50.02	317.33	8.13	-49.9	-63.0	3.8	1.49e+00	0	44	104	0	70	17089
2026-01-27 12:02:51.01	317.47	8.08	-49.9	-63.0	3.8	1.49e+00	0	44	104	0	70	17165
2026-01-27 12:02:52.00	317.60	8.03	-49.9	-62.9	3.8	1.49e+00	0	44	104	0	70	17060
2026-01-27 12:02:53.00	317.73	7.98	-49.9	-63.0	3.8	1.49e+00	0	44	104	0	70	17094
2026-01-27 12:02:53.99	317.86	7.94	-49.9	-63.0	3.8	1.49e+00	0	44	104	0	70	17119
2026-01-27 12:02:54.98	317.99	7.89	-49.9	-63.0	3.8	1.49e+00	0	44	104	0	70	17112
2026-01-27 12:02:55.97	318.12	7.84	-49.9	-63.0	3.8	1.49e+00	0	44	104	0	70	17098
2026-01-27 12:02:56.97	318.24	7.79	-49.9	-62.9	3.8	1.49e+00	0	44	104	0	70	17078
2026-01-27 12:02:57.96	318.37	7.74	-49.9	-62.9	3.8	1.49e+00	0	44	104	0	70	17074
2026-01-27 12:02:58.95	318.50	7.69	-49.9	-63.0	3.8	1.49e+00	0	44	104	0	70	17134
2026-01-27 12:02:59.95	318.63	7.64	-49.9	-63.0	3.8	1.49e+00	0	44	104	0	70	17129
2026-01-27 12:03:00.94	318.76	7.59	-49.9	-63.0	3.8	1.49e+00	0	44	104	0	70	17150
2026-01-27 12:03:01.93	318.88	7.54	-49.9	-62.9	3.8	1.49e+00	0	44	104	0	70	17068
2026-01-27 12:03:02.93	319.01	7.49	-49.9	-63.0	3.8	1.49e+00	0	44	104	0	70	17197
2026-01-27 12:03:03.92	319.13	7.45	-49.9	-62.9	3.8	1.49e+00	0	44	104	0	70	17055
2026-01-27 12:03:04.91	319.26	7.40	-49.8	-63.0	3.8	1.49e+00	0	44	104	0	70	17087
2026-01-27 12:03:05.90	319.38	7.35	-49.9	-63.0	3.8	1.49e+00	0	44	104	0	70	17102
2026-01-27 12:03:06.90	319.51	7.30	-49.9	-63.0	3.8	1.49e+00	0	44	104	0	70	17128
2026-01-27 12:03:07.89	319.63	7.25	-49.9	-62.9	3.8	1.49e+00	0	44	104	0	70	17037
2026-01-27 12:03:08.88	319.76	7.20	-49.9	-63.0	3.8	1.49e+00	0	44	104	0	70	17086
2026-01-27 12:03:09.87	319.88	7.15	-49.9	-63.0	3.8	1.49e+00	0	44	104	0	70	17104
2026-01-27 12:03:10.87	320.00	7.10	-49.9	-63.0	3.8	1.49e+00	0	44	104	0	70	17143
2026-01-27 12:03:11.86	320.13	7.05	-49.9	-63.0	3.8	1.49e+00	0	44	104	0	70	17088
2026-01-27 12:03:12.85	320.25	7.00	-49.9	-63.0	3.8	1.49e+00	0	44	104	0	70	17095
2026-01-27 12:03:13.85	320.37	6.95	-49.9	-63.0	3.8	1.49e+00	0	44	104	0	70	17084
2026-01-27 12:03:14.84	320.49	6.90	-49.9	-63.0	3.8	1.49e+00	0	44	104	0	70	17097
2026-01-27 12:03:15.83	320.61	6.85	-49.9	-63.0	3.8	1.49e+00	0	44	104	0	70	17103
2026-01-27 12:03:16.82	320.73	6.81	-49.9	-62.9	3.8	1.49e+00	0	44	104	0	70	17074
2026-01-27 12:03:17.82	320.85	6.76	-49.9	-63.0	3.8	1.49e+00	0	44	104	0	70	17093
2026-01-27 12:03:18.81	320.97	6.71	-49.9	-63.0	3.8	1.49e+00	0	44	104	0	70	17095
2026-01-27 12:03:19.80	321.09	6.66	-49.9	-63.0	3.8	1.49e+00	0	44	104	0	70	17095
2026-01-27 12:03:20.80	321.21	6.61	-49.8	-62.9	3.8	1.49e+00	0	44	104	0	70	17033
2026-01-27 12:03:21.79	321.33	6.56	-49.9	-62.9	3.8	1.49e+00	0	44	104	0	70	17032
2026-01-27 12:03:22.78	321.45	6.51	-49.9	-62.9	3.8	1.49e+00	0	44	104	0	70	17076
2026-01-27 12:03:23.77	321.57	6.46	-49.9	-63.0	3.8	1.49e+00	0	44	104	0	70	17104
2026-01-27 12:03:24.77	321.69	6.41	-49.9	-63.0	3.8	1.49e+00	0	44	104	0	70	17123
2026-01-27 12:03:25.76	321.80	6.36	-49.9	-63.0	3.8	1.49e+00	0	44	104	0	70	17103
2026-01-27 12:03:26.75	321.92	6.31	-49.9	-63.0	3.8	1.49e+00	0	44	104	0	70	17105
2026-01-27 12:03:27.75	322.04	6.26	-49.8	-63.0	3.8	1.49e+00	0	43	104	0	70	17093
2026-01-27 12:03:28.74	322.15	6.21	-49.9	-63.0	3.8	1.49e+00	0	44	104	0	70	17086
2026-01-27 12:03:29.73	322.27	6.16	-49.9	-63.0	3.8	1.49e+00	0	44	104	0	70	17100
2026-01-27 12:03:30.72	322.38	6.11	-49.9	-63.0	3.8	1.49e+00	0	44	104	0	70	17106
2026-01-27 12:03:31.72	322.50	6.06	-49.9	-63.0	3.8	1.49e+00	0	44	104	0	70	17115
2026-01-27 12:03:32.71	322.61	6.01	-49.9	-63.0	3.8	1.49e+00	0	44	104	0	70	17085
2026-01-27 12:03:33.70	322.73	5.97	-49.9	-62.9	3.8	1.49e+00	0	44	104	0	70	17055
2026-01-27 12:03:34.70	322.84	5.92	-49.9	-62.9	3.8	1.49e+00	0	44	104	0	70	17015
2026-01-27 12:03:35.69	322.95	5.87	-49.9	-63.0	3.8	1.49e+00	0	44	104	0	70	17138
2026-01-27 12:03:36.68	323.07	5.82	-49.9	-63.0	3.8	1.49e+00	0	44	104	0	70	17107
2026-01-27 12:03:37.67	323.18	5.77	-49.9	-63.0	3.8	1.49e+00	0	43	104	0	70	17122
2026-01-27 12:03:38.67	323.29	5.72	-49.9	-63.0	3.8	1.49e+00	0	44	104	0	70	17155
2026-01-27 12:03:39.66	323.40	5.67	-49.9	-63.0	3.8	1.49e+00	0	44	104	0	70	17130
2026-01-27 12:03:40.65	323.51	5.62	-49.9	-63.0	3.8	1.49e+00	0	44	104	0	70	17156
2026-01-27 12:03:41.64	323.63	5.57	-49.9	-63.0	3.8	1.49e+00	0	44	104	0	70	17119
2026-01-27 12:03:42.64	323.74	5.52	-49.9	-63.0	3.8	1.49e+00	0	44	104	0	70	17092
2026-01-27 12:03:43.63	323.85	5.47	-49.9	-62.9	3.8	1.49e+00	0	44	104	0	70	17017
2026-01-27 12:03:44.62	323.96	5.42	-49.9	-63.0	3.8	1.49e+00	0	44	104	0	70	17130
2026-01-27 12:03:45.62	324.07	5.37	-49.9	-62.9	3.8	1.49e+00	0	44	104	0	70	17073
2026-01-27 12:03:46.61	324.18	5.32	-49.9	-63.0	3.8	1.49e+00	0	43	104	0	70	17122
2026-01-27 12:03:47.60	324.29	5.27	-49.9	-63.0	3.8	1.49e+00	0	44	104	0	70	17134
2026-01-27 12:03:48.60	324.40	5.22	-49.9	-63.0	3.8	1.49e+00	0	44	104	0	70	17121
2026-01-27 12:03:49.59	324.50	5.17	-49.9	-63.0	3.8	1.49e+00	0	44	104	0	70	17121
2026-01-27 12:03:50.58	324.61	5.13	-49.9	-63.0	3.8	1.49e+00	0	44	104	0	70	17124
2026-01-27 12:03:51.58	324.72	5.08	-49.8	-63.0	3.8	1.49e+00	0	44	104	0	70	17101
2026-01-27 12:03:52.57	324.83	5.03	-49.9	-63.0	3.8	1.49e+00	0	44	104	0	70	17169
2026-01-27 12:03:53.56	324.93	4.98	-49.9	-63.0	3.8	1.49e+00	0	44	104	0	70	17107

#Closed at: 2026-01-27 12:03:54
#Recorded file [0 MB]: D:/Data/31040_260127_145413.dat