passes_logs/2026/01/27/T1/T1__20260127_074407_NOAA_20_JPSS-1_rec.log

#Pass ID: 20260127_074407_NOAA 20 (JPSS-1)
#Satellite: NOAA 20 (JPSS-1)
#Configuration: NOAA 20
#almurnet v.1.7.20251203
#Start time: 2026-01-27 07:44:07

#Version: 2.0.20230620
#Station: T1
#Location: 37.570604 lon 55.790049 lat
#TLE: 1 43013U 17073A   26026.81907703  .00000149  00000+0  91399-4 0  9998
#TLE: 2 43013  98.7647 327.6343 0000991  22.4130 337.7089 14.19540778424411

#Time	Az	El	Level	Level2	SNR	BER	BlckErr	Temp	State	Recorded	gain1	gain2
2026-01-27 07:44:07.31	89.39	4.99	-50.0	-65.4	3.8	1.49e+00	0	41	0	0	71	21428
2026-01-27 07:44:08.30	89.29	5.04	-50.0	-65.4	3.8	1.49e+00	0	41	104	0	71	21351
2026-01-27 07:44:09.29	89.18	5.10	-50.0	-65.4	3.8	1.49e+00	0	41	104	0	71	21328
2026-01-27 07:44:10.28	89.08	5.15	-50.1	-65.4	3.8	1.49e+00	0	41	104	0	71	21340
2026-01-27 07:44:11.28	88.97	5.20	-50.3	-65.4	3.8	1.49e+00	0	41	104	0	71	21392
2026-01-27 07:44:12.27	88.87	5.25	-50.1	-65.4	3.8	1.49e+00	0	41	104	0	71	21418
2026-01-27 07:44:13.26	88.76	5.30	-50.2	-65.4	3.8	1.49e+00	0	41	104	0	71	21454
2026-01-27 07:44:14.25	88.65	5.35	-50.3	-65.4	3.8	1.49e+00	0	41	104	0	71	21394
2026-01-27 07:44:15.25	88.54	5.40	-50.3	-65.4	3.8	1.49e+00	0	41	104	0	71	21362
2026-01-27 07:44:16.24	88.44	5.45	-50.2	-65.4	3.8	1.49e+00	0	41	104	0	71	21461
2026-01-27 07:44:17.23	88.33	5.50	-50.2	-65.4	3.8	1.49e+00	0	41	104	0	71	21485
2026-01-27 07:44:18.22	88.22	5.55	-50.2	-65.4	3.8	1.49e+00	0	42	104	0	71	21443
2026-01-27 07:44:19.22	88.11	5.61	-50.2	-65.4	3.8	1.49e+00	0	41	104	0	71	21374
2026-01-27 07:44:20.21	88.00	5.66	-50.2	-65.4	3.8	1.49e+00	0	41	104	0	71	21417
2026-01-27 07:44:21.20	87.89	5.71	-50.1	-65.4	3.8	1.49e+00	0	42	104	0	71	21454
2026-01-27 07:44:22.20	87.78	5.76	-50.2	-65.4	3.8	1.49e+00	0	42	104	0	71	21312
2026-01-27 07:44:23.19	87.67	5.81	-50.0	-65.4	3.8	1.49e+00	0	41	104	0	71	21425
2026-01-27 07:44:24.18	87.56	5.86	-50.1	-65.4	3.8	1.49e+00	0	42	104	0	71	21367
2026-01-27 07:44:25.18	87.45	5.91	-50.0	-65.4	3.8	1.49e+00	0	42	104	0	71	21285
2026-01-27 07:44:26.17	87.33	5.96	-50.0	-65.3	3.8	1.49e+00	0	42	104	0	71	21115
2026-01-27 07:44:27.16	87.22	6.01	-49.9	-65.3	3.8	1.49e+00	0	42	104	0	71	21069
2026-01-27 07:44:28.16	87.11	6.07	-49.9	-65.2	3.8	1.49e+00	0	42	104	0	71	20945
2026-01-27 07:44:29.15	87.00	6.12	-49.8	-65.1	3.8	1.49e+00	0	42	104	0	71	20749
2026-01-27 07:44:30.14	86.88	6.17	-49.6	-65.0	3.8	1.49e+00	0	42	104	0	71	20478
2026-01-27 07:44:31.13	86.77	6.22	-49.6	-64.8	3.8	1.49e+00	0	42	104	0	71	19947
2026-01-27 07:44:32.13	86.65	6.27	-49.5	-64.8	3.8	1.49e+00	0	42	104	0	70	21086
2026-01-27 07:44:33.12	86.54	6.32	-49.5	-64.8	3.8	1.49e+00	0	42	104	0	70	21036
2026-01-27 07:44:34.11	86.42	6.37	-49.5	-64.7	3.8	1.49e+00	0	42	104	0	70	21013
2026-01-27 07:44:35.10	86.31	6.42	-49.4	-64.8	3.8	1.49e+00	0	42	104	0	70	21073
2026-01-27 07:44:36.10	86.19	6.47	-49.4	-64.7	3.8	1.49e+00	0	42	104	0	70	20985
2026-01-27 07:44:37.09	86.08	6.53	-49.4	-64.7	3.8	1.49e+00	0	42	104	0	70	20919
2026-01-27 07:44:38.08	85.96	6.58	-49.4	-64.7	3.8	1.49e+00	0	42	104	0	70	20966
2026-01-27 07:44:39.08	85.84	6.63	-49.4	-64.8	3.8	1.49e+00	0	42	104	0	70	21035
2026-01-27 07:44:40.07	85.72	6.68	-49.4	-64.7	3.8	1.49e+00	0	42	104	0	70	20988
2026-01-27 07:44:41.06	85.61	6.73	-49.4	-64.7	3.8	1.49e+00	0	42	104	0	70	21009
2026-01-27 07:44:42.06	85.49	6.78	-49.4	-64.7	3.8	1.49e+00	0	42	104	0	70	20946
2026-01-27 07:44:43.05	85.37	6.83	-49.4	-64.7	3.8	1.49e+00	0	42	104	0	70	20934
2026-01-27 07:44:44.04	85.25	6.88	-49.4	-64.7	3.8	1.49e+00	0	42	104	0	70	20826
2026-01-27 07:44:45.04	85.13	6.93	-49.4	-64.6	3.8	1.49e+00	0	42	104	0	70	20764
2026-01-27 07:44:46.03	85.01	6.98	-49.4	-64.5	3.8	1.49e+00	0	42	104	0	70	20527
2026-01-27 07:44:47.02	84.89	7.03	-49.4	-64.5	3.8	1.49e+00	0	42	104	0	70	20515
2026-01-27 07:44:48.01	84.77	7.09	-49.4	-64.4	3.8	1.49e+00	0	42	104	0	70	20269
2026-01-27 07:44:49.01	84.64	7.14	-49.4	-64.5	3.8	1.49e+00	0	42	104	0	70	20394
2026-01-27 07:44:50.00	84.52	7.19	-49.4	-64.5	3.8	1.49e+00	0	42	104	0	70	20477
2026-01-27 07:44:50.99	84.40	7.24	-49.4	-64.6	3.8	1.49e+00	0	42	104	0	70	20635
2026-01-27 07:44:51.99	84.28	7.29	-49.4	-64.6	3.8	1.49e+00	0	42	104	0	70	20713
2026-01-27 07:44:52.98	84.15	7.34	-49.4	-64.7	3.8	1.49e+00	0	42	104	0	70	20781
2026-01-27 07:44:53.97	84.03	7.39	-49.4	-64.7	3.8	1.49e+00	0	43	104	0	70	20854
2026-01-27 07:44:54.96	83.91	7.44	-49.4	-64.6	3.8	1.49e+00	0	43	104	0	70	20691
2026-01-27 07:44:55.96	83.78	7.49	-49.4	-64.5	3.8	1.49e+00	0	43	104	0	70	20500
2026-01-27 07:44:56.95	83.66	7.54	-49.4	-64.4	3.8	1.49e+00	0	43	104	0	70	20280
2026-01-27 07:44:57.94	83.53	7.59	-49.4	-64.2	3.8	1.49e+00	0	43	104	0	70	19771
2026-01-27 07:44:58.94	83.40	7.64	-49.4	-64.0	3.8	1.49e+00	0	43	104	0	70	19334
2026-01-27 07:44:59.93	83.28	7.69	-49.4	-63.9	3.8	1.49e+00	0	43	104	0	70	19096
2026-01-27 07:45:00.93	83.15	7.74	-49.4	-63.9	3.8	1.49e+00	0	43	104	0	70	19068
2026-01-27 07:45:01.92	83.02	7.80	-49.4	-64.0	3.8	1.49e+00	0	43	104	0	70	19213
2026-01-27 07:45:02.91	82.90	7.85	-49.4	-64.1	3.8	1.49e+00	0	43	104	0	70	19443
2026-01-27 07:45:03.91	82.77	7.90	-49.4	-64.2	3.8	1.49e+00	0	43	104	0	70	19677
2026-01-27 07:45:04.90	82.64	7.95	-49.4	-64.2	3.8	1.49e+00	0	43	104	0	70	19764
2026-01-27 07:45:05.89	82.51	8.00	-49.4	-64.3	3.8	1.49e+00	0	43	104	0	70	19843
2026-01-27 07:45:06.88	82.38	8.05	-49.4	-64.2	3.8	1.49e+00	0	43	104	0	70	19628
2026-01-27 07:45:07.88	82.25	8.10	-49.4	-63.9	3.8	1.49e+00	0	43	104	0	70	19018
2026-01-27 07:45:08.87	82.12	8.15	-49.3	-63.4	3.8	1.49e+00	0	43	104	0	70	17940
2026-01-27 07:45:09.87	81.99	8.20	-49.3	-63.0	3.8	1.49e+00	0	43	104	0	70	17155
2026-01-27 07:45:10.86	81.86	8.25	-49.3	-62.9	3.8	1.49e+00	0	43	104	0	70	16893
2026-01-27 07:45:11.85	81.73	8.30	-49.3	-63.3	3.8	1.49e+00	0	43	104	0	70	17822
2026-01-27 07:45:12.85	81.59	8.35	-49.3	-63.6	3.8	1.49e+00	0	43	104	0	70	18320
2026-01-27 07:45:13.84	81.46	8.40	-49.2	-62.1	3.9	1.48e+00	0	43	104	0	70	15453
2026-01-27 07:45:14.83	81.33	8.45	-48.9	-58.7	5.3	1.03e+00	0	43	0	1048576	69	11102
2026-01-27 07:45:15.82	81.19	8.50	-48.3	-55.6	7.7	2.75e-01	0	43	0	2097152	68	8255
2026-01-27 07:45:16.82	81.06	8.55	-47.3	-52.9	10.5	9.65e-03	0	43	0	4194304	66	6740
2026-01-27 07:45:17.81	80.92	8.60	-46.5	-51.0	12.3	5.96e-04	0	43	0	6291456	65	5780
2026-01-27 07:45:18.80	80.79	8.65	-46.0	-50.1	13.3	4.73e-05	0	43	0	8388608	64	5492
2026-01-27 07:45:19.80	80.65	8.70	-45.8	-49.7	13.8	7.60e-06	0	43	0	9437184	63	5574
2026-01-27 07:45:20.79	80.52	8.75	-46.0	-50.0	13.5	9.90e-06	0	43	0	11534336	63	5788
2026-01-27 07:45:21.78	80.38	8.80	-46.4	-50.8	12.7	3.05e-05	0	43	0	13631488	63	6291
2026-01-27 07:45:22.78	80.24	8.85	-46.9	-52.0	11.4	2.91e-04	0	43	0	15728640	64	6838
2026-01-27 07:45:23.77	80.11	8.90	-47.7	-54.0	9.3	3.13e-03	0	43	0	17825792	66	7706
2026-01-27 07:45:24.77	79.97	8.95	-48.4	-56.5	6.9	9.55e-02	0	43	0	18874368	67	9676
2026-01-27 07:45:25.76	79.83	8.99	-49.0	-59.7	4.8	4.88e-01	0	43	0	20971520	68	13209
2026-01-27 07:45:26.75	79.69	9.04	-47.5	-53.4	9.7	1.25e+00	0	43	0	22020096	67	6734
2026-01-27 07:45:27.97	79.52	9.10	-48.7	-57.2	6.2	2.22e-02	0	43	0	25165824	67	10513
2026-01-27 07:45:28.82	79.40	9.15	-49.3	-64.5	3.8	9.46e-01	0	43	104	26214400	69	21680
2026-01-27 07:45:29.96	79.24	9.20	-46.8	-51.5	11.9	4.03e-01	0	43	0	26214400	65	6123
2026-01-27 07:45:30.81	79.12	9.25	-49.4	-62.5	4.0	5.48e-01	0	43	0	27262976	69	17099
2026-01-27 07:45:31.95	78.96	9.30	-47.0	-52.0	11.3	1.15e+00	0	43	0	27262976	66	6095
2026-01-27 07:45:32.80	78.84	9.34	-47.0	-52.0	11.3	8.09e-04	0	43	0	28311552	65	6473
2026-01-27 07:45:33.94	78.67	9.40	-46.6	-51.2	12.2	4.23e-04	0	43	0	30408704	65	5919
2026-01-27 07:45:34.79	78.55	9.44	-46.2	-50.4	13.0	5.26e-05	0	43	0	32505856	64	5707
2026-01-27 07:45:35.93	78.39	9.50	-46.1	-50.1	13.4	7.60e-06	0	43	0	34603008	63	5831
2026-01-27 07:45:36.78	78.26	9.54	-46.0	-50.0	13.6	9.90e-06	0	43	0	35651584	63	5729
2026-01-27 07:45:37.91	78.10	9.59	-46.2	-50.2	13.3	6.10e-06	0	43	0	37748736	63	5905
2026-01-27 07:45:38.77	77.97	9.64	-45.8	-49.6	14.0	7.60e-06	0	43	0	39845888	63	5487
2026-01-27 07:45:39.92	77.80	9.69	-45.4	-49.0	14.7	7.00e-07	0	43	0	41943040	62	5406
2026-01-27 07:45:40.77	77.68	9.73	-45.1	-48.5	15.2	0.00e+00	0	43	0	42991616	62	5115
2026-01-27 07:45:41.91	77.51	9.79	-45.0	-48.4	15.2	0.00e+00	0	43	0	45088768	61	5376
2026-01-27 07:45:42.76	77.39	9.83	-44.9	-48.2	15.4	0.00e+00	0	43	0	47185920	61	5261
2026-01-27 07:45:43.90	77.22	9.88	-44.7	-48.0	15.6	0.00e+00	0	43	0	49283072	61	5117
2026-01-27 07:45:44.76	77.09	9.93	-44.6	-47.7	15.9	0.00e+00	0	43	0	51380224	61	4953
2026-01-27 07:45:45.89	76.92	9.98	-44.4	-47.5	16.1	0.00e+00	0	43	0	53477376	60	5141
2026-01-27 07:45:46.75	76.79	10.02	-44.5	-47.6	16.1	0.00e+00	0	43	0	54525952	60	5168
2026-01-27 07:45:47.88	76.62	10.08	-44.3	-47.3	16.3	0.00e+00	0	43	0	56623104	60	5029
2026-01-27 07:45:48.73	76.49	10.12	-44.2	-47.2	16.4	0.00e+00	0	44	0	58720256	60	4950
2026-01-27 07:45:49.87	76.32	10.17	-44.2	-47.1	16.6	0.00e+00	0	43	0	60817408	60	4887
2026-01-27 07:45:50.72	76.19	10.21	-44.2	-47.1	16.5	0.00e+00	0	43	0	61865984	60	4925
2026-01-27 07:45:51.86	76.02	10.27	-44.2	-47.1	16.6	0.00e+00	0	43	0	63963136	60	4891
2026-01-27 07:45:52.71	75.89	10.31	-44.1	-47.0	16.6	0.00e+00	0	43	0	66060288	60	4847
2026-01-27 07:45:53.85	75.72	10.36	-44.1	-47.0	16.7	0.00e+00	0	43	0	68157440	60	4832
2026-01-27 07:45:54.70	75.58	10.40	-44.1	-47.0	16.6	0.00e+00	0	43	0	69206016	60	4868
2026-01-27 07:45:55.84	75.41	10.45	-44.1	-47.0	16.6	0.00e+00	0	43	0	71303168	60	4853
2026-01-27 07:45:56.69	75.28	10.49	-44.1	-47.0	16.6	0.00e+00	0	43	0	73400320	60	4831
2026-01-27 07:45:57.83	75.10	10.55	-44.0	-46.8	16.8	0.00e+00	0	43	0	75497472	60	4759
2026-01-27 07:45:58.68	74.97	10.59	-44.1	-46.9	16.7	0.00e+00	0	43	0	76546048	60	4802
2026-01-27 07:45:59.82	74.79	10.64	-43.9	-46.7	16.9	0.00e+00	0	43	0	79691776	59	4968
2026-01-27 07:46:00.67	74.66	10.68	-44.0	-46.8	16.8	0.00e+00	0	43	0	80740352	59	4990
2026-01-27 07:46:01.81	74.48	10.73	-43.9	-46.7	16.9	0.00e+00	0	43	0	82837504	59	4979
2026-01-27 07:46:02.67	74.34	10.77	-43.9	-46.7	16.9	0.00e+00	0	43	0	84934656	59	4972
2026-01-27 07:46:03.80	74.16	10.83	-43.9	-46.6	17.0	0.00e+00	0	43	0	87031808	59	4915
2026-01-27 07:46:04.66	74.03	10.87	-43.9	-46.6	16.9	0.00e+00	0	44	0	88080384	59	4915
2026-01-27 07:46:05.92	73.83	10.92	-43.9	-46.7	16.9	0.00e+00	0	43	0	90177536	59	4977
2026-01-27 07:46:06.71	73.70	10.96	-43.9	-46.7	16.9	0.00e+00	0	43	0	92274688	59	4939
2026-01-27 07:46:08.05	73.49	11.02	-43.9	-46.6	17.0	0.00e+00	0	43	0	94371840	59	4889
2026-01-27 07:46:08.77	73.37	11.05	-43.8	-46.6	17.0	0.00e+00	0	43	0	96468992	59	4887
2026-01-27 07:46:10.04	73.16	11.11	-43.8	-46.5	17.1	0.00e+00	0	43	0	98566144	59	4856
2026-01-27 07:46:10.77	73.05	11.14	-43.7	-46.5	17.2	0.00e+00	0	43	0	99614720	59	4817
2026-01-27 07:46:12.05	72.84	11.20	-43.8	-46.5	17.2	0.00e+00	0	43	0	101711872	59	4834
2026-01-27 07:46:12.76	72.72	11.23	-43.8	-46.5	17.1	0.00e+00	0	43	0	103809024	59	4848
2026-01-27 07:46:14.04	72.51	11.29	-43.7	-46.3	17.3	0.00e+00	0	43	0	105906176	59	4749
2026-01-27 07:46:14.75	72.40	11.32	-43.6	-46.3	17.3	0.00e+00	0	43	0	106954752	59	4729
2026-01-27 07:46:16.03	72.19	11.38	-43.6	-46.3	17.3	0.00e+00	0	43	0	110100480	59	4729
2026-01-27 07:46:16.74	72.07	11.41	-43.6	-46.2	17.4	0.00e+00	0	43	0	111149056	59	4701
2026-01-27 07:46:18.02	71.86	11.47	-43.4	-46.0	17.6	0.00e+00	0	43	0	113246208	58	4855
2026-01-27 07:46:18.73	71.74	11.50	-43.4	-46.0	17.6	0.00e+00	0	44	0	114294784	58	4856
2026-01-27 07:46:20.07	71.52	11.56	-43.5	-46.1	17.6	0.00e+00	0	43	0	117440512	58	4876
2026-01-27 07:46:21.06	71.35	11.60	-43.4	-46.0	17.7	0.00e+00	0	43	0	119537664	58	4821
2026-01-27 07:46:22.38	71.13	11.66	-43.4	-46.0	17.7	0.00e+00	0	43	0	121634816	58	4822
2026-01-27 07:46:23.09	71.01	11.69	-43.4	-46.0	17.7	0.00e+00	0	43	0	122683392	58	4832
2026-01-27 07:46:24.71	70.74	11.76	-43.5	-46.2	17.5	0.00e+00	0	44	0	125829120	58	4931
2026-01-27 07:46:25.29	70.64	11.79	-43.5	-46.2	17.5	0.00e+00	0	44	0	126877696	58	4943
2026-01-27 07:46:26.99	70.35	11.86	-43.7	-46.4	17.3	0.00e+00	0	43	0	130023424	58	5044
2026-01-27 07:46:27.56	70.26	11.88	-43.6	-46.2	17.5	0.00e+00	0	44	0	131072000	58	4965
2026-01-27 07:46:29.27	69.96	11.96	-43.7	-46.4	17.3	0.00e+00	0	43	0	134217728	58	5076
2026-01-27 07:46:29.84	69.87	11.98	-43.7	-46.4	17.3	0.00e+00	0	43	0	135266304	58	5067
2026-01-27 07:46:31.54	69.57	12.05	-43.7	-46.4	17.3	0.00e+00	0	44	0	138412032	58	5043
2026-01-27 07:46:32.11	69.48	12.08	-43.7	-46.3	17.4	0.00e+00	0	43	0	139460608	58	5019
2026-01-27 07:46:33.81	69.18	12.15	-43.8	-46.4	17.2	0.00e+00	0	44	0	142606336	58	5100
2026-01-27 07:46:34.38	69.08	12.17	-43.8	-46.4	17.2	0.00e+00	0	44	0	143654912	58	5096
2026-01-27 07:46:36.09	68.78	12.24	-43.8	-46.4	17.3	0.00e+00	0	44	0	146800640	58	5090
2026-01-27 07:46:36.94	68.64	12.28	-43.8	-46.5	17.2	0.00e+00	0	43	0	148897792	58	5131
2026-01-27 07:46:38.08	68.44	12.32	-43.9	-46.6	17.1	0.00e+00	0	44	0	150994944	58	5205
2026-01-27 07:46:39.29	68.22	12.37	-43.9	-46.7	17.1	0.00e+00	0	44	0	153092096	58	5219
2026-01-27 07:46:40.32	68.04	12.41	-43.9	-46.7	17.0	0.00e+00	0	44	0	155189248	58	5268
2026-01-27 07:46:41.31	67.87	12.45	-44.0	-46.8	16.9	0.00e+00	0	43	0	157286400	58	5319
2026-01-27 07:46:42.31	67.69	12.49	-43.9	-46.6	17.1	0.00e+00	0	43	0	158334976	58	5204
2026-01-27 07:46:43.30	67.51	12.53	-43.8	-46.6	17.1	0.00e+00	0	43	0	160432128	58	5195
2026-01-27 07:46:44.30	67.33	12.57	-43.8	-46.6	17.1	0.00e+00	0	43	0	162529280	58	5200
2026-01-27 07:46:45.30	67.15	12.61	-43.9	-46.7	17.1	0.00e+00	0	43	0	164626432	58	5220
2026-01-27 07:46:46.29	66.98	12.65	-43.8	-46.5	17.2	0.00e+00	0	44	0	166723584	58	5105
2026-01-27 07:46:47.29	66.80	12.69	-43.7	-46.3	17.4	0.00e+00	0	43	0	167772160	58	5027
2026-01-27 07:46:48.28	66.62	12.73	-43.7	-46.3	17.4	0.00e+00	0	43	0	169869312	58	5040
2026-01-27 07:46:49.28	66.44	12.77	-43.7	-46.3	17.4	0.00e+00	0	43	0	171966464	58	5033
2026-01-27 07:46:50.27	66.26	12.80	-43.8	-46.5	17.2	0.00e+00	0	43	0	174063616	58	5111
2026-01-27 07:46:51.26	66.08	12.84	-43.8	-46.4	17.3	0.00e+00	0	44	0	176160768	58	5086
2026-01-27 07:46:52.29	65.89	12.88	-43.9	-46.6	17.1	0.00e+00	0	43	0	177209344	58	5172
2026-01-27 07:46:53.29	65.71	12.92	-43.9	-46.6	17.1	0.00e+00	0	44	0	179306496	58	5181
2026-01-27 07:46:54.34	65.52	12.96	-43.8	-46.5	17.2	0.00e+00	0	44	0	181403648	58	5144
2026-01-27 07:46:55.23	65.35	12.99	-43.8	-46.5	17.2	0.00e+00	0	43	0	183500800	58	5131
2026-01-27 07:46:56.37	65.14	13.03	-43.8	-46.5	17.2	0.00e+00	0	43	0	185597952	58	5124
2026-01-27 07:46:57.22	64.99	13.06	-43.9	-46.6	17.1	0.00e+00	0	44	0	186646528	58	5185
2026-01-27 07:46:58.59	64.73	13.11	-43.7	-46.3	17.5	0.00e+00	0	44	0	189792256	58	5009
2026-01-27 07:46:59.30	64.60	13.14	-43.5	-46.1	17.6	0.00e+00	0	44	0	190840832	58	4892
2026-01-27 07:47:00.61	64.36	13.19	-43.5	-46.1	17.6	0.00e+00	0	44	0	192937984	58	4890
2026-01-27 07:47:01.33	64.22	13.21	-43.5	-46.1	17.6	0.00e+00	0	44	0	195035136	58	4925
2026-01-27 07:47:02.61	63.98	13.26	-43.6	-46.3	17.5	0.00e+00	0	44	0	197132288	58	4984
2026-01-27 07:47:03.32	63.85	13.28	-43.6	-46.3	17.5	0.00e+00	0	43	0	198180864	58	4989
2026-01-27 07:47:04.60	63.61	13.33	-43.5	-46.1	17.6	0.00e+00	0	44	0	200278016	58	4885
2026-01-27 07:47:05.32	63.47	13.35	-43.5	-46.1	17.6	0.00e+00	0	43	0	202375168	58	4905
2026-01-27 07:47:06.60	63.23	13.40	-43.6	-46.2	17.5	0.00e+00	0	44	0	204472320	58	4950
2026-01-27 07:47:07.31	63.10	13.42	-43.5	-46.1	17.6	0.00e+00	0	43	0	205520896	58	4923
2026-01-27 07:47:08.59	62.86	13.46	-43.4	-46.0	17.7	0.00e+00	0	44	0	207618048	58	4846
2026-01-27 07:47:09.31	62.72	13.49	-43.5	-46.1	17.7	0.00e+00	0	43	0	209715200	58	4881
2026-01-27 07:47:10.59	62.48	13.53	-43.4	-45.9	17.8	0.00e+00	0	44	0	211812352	58	4809
2026-01-27 07:47:11.30	62.34	13.55	-43.3	-45.9	17.8	0.00e+00	0	44	0	212860928	58	4780
2026-01-27 07:47:12.69	62.07	13.60	-43.4	-46.0	17.8	0.00e+00	0	44	0	216006656	58	4830
2026-01-27 07:47:13.40	61.94	13.62	-43.4	-45.9	17.8	0.00e+00	0	44	0	217055232	58	4792
2026-01-27 07:47:14.68	61.69	13.66	-43.3	-45.8	17.9	0.00e+00	0	44	0	219152384	58	4758
2026-01-27 07:47:15.40	61.55	13.69	-43.4	-45.9	17.8	0.00e+00	0	44	0	221249536	58	4800
2026-01-27 07:47:16.68	61.31	13.73	-43.3	-45.9	17.9	0.00e+00	0	43	0	223346688	58	4775
2026-01-27 07:47:17.39	61.17	13.75	-43.4	-45.9	17.8	0.00e+00	0	44	0	224395264	58	4812
2026-01-27 07:47:18.67	60.92	13.79	-43.4	-46.0	17.7	0.00e+00	0	43	0	227540992	58	4846
2026-01-27 07:47:19.38	60.78	13.81	-43.4	-46.1	17.7	0.00e+00	0	44	0	228589568	58	4871
2026-01-27 07:47:20.66	60.53	13.85	-43.4	-46.0	17.7	0.00e+00	0	44	0	230686720	58	4843
2026-01-27 07:47:21.37	60.40	13.87	-43.4	-46.0	17.7	0.00e+00	0	44	0	231735296	58	4864
2026-01-27 07:47:22.65	60.15	13.91	-43.5	-46.1	17.7	0.00e+00	0	44	0	234881024	58	4903
2026-01-27 07:47:23.48	59.98	13.94	-43.4	-45.9	17.8	0.00e+00	0	43	0	235929600	58	4788
2026-01-27 07:47:24.62	59.76	13.97	-43.4	-46.0	17.8	0.00e+00	0	44	0	238026752	58	4836
2026-01-27 07:47:25.65	59.56	14.00	-43.3	-45.8	17.9	0.00e+00	0	44	0	240123904	58	4757
2026-01-27 07:47:26.64	59.36	14.03	-43.4	-45.9	17.9	0.00e+00	0	44	0	242221056	58	4791
2026-01-27 07:47:27.64	59.16	14.06	-43.4	-46.0	17.8	0.00e+00	0	43	0	244318208	58	4833
2026-01-27 07:47:28.63	58.97	14.08	-43.5	-46.0	17.7	0.00e+00	0	44	0	245366784	58	4857
2026-01-27 07:47:29.63	58.77	14.11	-43.5	-46.1	17.7	0.00e+00	0	44	0	247463936	58	4909
2026-01-27 07:47:30.62	58.57	14.14	-43.6	-46.3	17.5	0.00e+00	0	44	0	249561088	58	4995
2026-01-27 07:47:31.62	58.38	14.17	-43.5	-46.1	17.7	0.00e+00	0	44	0	251658240	58	4900
2026-01-27 07:47:32.61	58.18	14.19	-43.4	-46.0	17.8	0.00e+00	0	44	0	252706816	58	4842
2026-01-27 07:47:33.61	57.98	14.22	-43.6	-46.1	17.6	0.00e+00	0	43	0	254803968	58	4926
2026-01-27 07:47:34.60	57.78	14.25	-43.6	-46.3	17.5	0.00e+00	0	44	0	256901120	58	4989
2026-01-27 07:47:35.60	57.58	14.27	-43.8	-46.4	17.4	0.00e+00	0	44	0	258998272	58	5063
2026-01-27 07:47:36.60	57.38	14.30	-43.7	-46.3	17.4	0.00e+00	0	44	0	261095424	58	5036
2026-01-27 07:47:37.59	57.18	14.32	-43.6	-46.2	17.6	0.00e+00	0	44	0	262144000	58	4945
2026-01-27 07:47:38.67	56.96	14.35	-43.6	-46.2	17.6	0.00e+00	0	44	0	264241152	58	4958
2026-01-27 07:47:39.52	56.79	14.37	-43.8	-46.4	17.4	0.00e+00	0	43	0	266338304	58	5078
2026-01-27 07:47:40.66	56.56	14.40	-43.9	-46.5	17.3	0.00e+00	0	44	0	268435456	58	5153
2026-01-27 07:47:41.61	56.37	14.42	-43.9	-46.5	17.3	7.00e-07	0	44	0	269484032	58	5143
2026-01-27 07:47:42.78	56.13	14.45	-43.9	-46.6	17.2	0.00e+00	0	44	0	272629760	58	5168
2026-01-27 07:47:43.63	55.96	14.47	-43.8	-46.5	17.3	0.00e+00	0	44	0	273678336	58	5116
2026-01-27 07:47:44.76	55.73	14.49	-43.9	-46.5	17.3	0.00e+00	0	44	0	275775488	58	5155
2026-01-27 07:47:45.62	55.55	14.51	-43.9	-46.6	17.2	0.00e+00	0	44	0	277872640	58	5207
2026-01-27 07:47:46.75	55.32	14.54	-44.0	-46.8	17.1	0.00e+00	0	44	0	279969792	58	5285
2026-01-27 07:47:47.60	55.15	14.56	-44.1	-46.9	17.0	0.00e+00	0	44	0	281018368	59	5043
2026-01-27 07:47:48.74	54.92	14.58	-44.1	-46.8	17.0	0.00e+00	0	44	0	283115520	59	5014
2026-01-27 07:47:49.59	54.74	14.60	-44.1	-46.9	17.0	0.00e+00	0	44	0	285212672	59	5047
2026-01-27 07:47:50.73	54.51	14.62	-43.9	-46.6	17.2	0.00e+00	0	44	0	287309824	59	4903
2026-01-27 07:47:51.58	54.34	14.64	-43.8	-46.4	17.4	0.00e+00	0	44	0	288358400	59	4790
2026-01-27 07:47:52.72	54.10	14.66	-43.7	-46.4	17.4	0.00e+00	0	44	0	290455552	59	4771
2026-01-27 07:47:53.57	53.93	14.68	-43.7	-46.3	17.5	0.00e+00	0	44	0	292552704	59	4741
2026-01-27 07:47:54.71	53.69	14.70	-43.6	-46.2	17.6	0.00e+00	0	44	0	294649856	59	4687
2026-01-27 07:47:55.56	53.51	14.72	-43.5	-46.1	17.7	0.00e+00	0	44	0	296747008	59	4611
2026-01-27 07:47:56.70	53.28	14.74	-43.5	-46.1	17.7	0.00e+00	0	44	0	297795584	58	4911
2026-01-27 07:47:57.55	53.10	14.76	-43.6	-46.2	17.5	0.00e+00	0	44	0	299892736	58	4982
2026-01-27 07:47:58.69	52.87	14.78	-43.4	-46.0	17.8	0.00e+00	0	44	0	301989888	58	4835
2026-01-27 07:47:59.54	52.69	14.79	-43.4	-45.9	17.9	0.00e+00	0	44	0	304087040	58	4781
2026-01-27 07:48:00.68	52.45	14.81	-43.4	-45.9	17.8	0.00e+00	0	44	0	306184192	58	4808
2026-01-27 07:48:01.53	52.28	14.83	-43.4	-45.9	17.8	0.00e+00	0	44	0	307232768	58	4806
2026-01-27 07:48:02.67	52.04	14.85	-43.4	-45.9	17.8	0.00e+00	0	44	0	309329920	58	4806
2026-01-27 07:48:03.81	51.80	14.86	-43.5	-46.0	17.8	0.00e+00	0	44	0	311427072	58	4852
2026-01-27 07:48:04.84	51.59	14.88	-43.6	-46.1	17.6	0.00e+00	0	44	0	313524224	58	4925
2026-01-27 07:48:05.83	51.38	14.90	-43.5	-46.1	17.7	0.00e+00	0	44	0	315621376	58	4904
2026-01-27 07:48:06.82	51.17	14.91	-43.6	-46.3	17.5	0.00e+00	0	44	0	317718528	58	4995
2026-01-27 07:48:07.82	50.96	14.93	-43.6	-46.2	17.5	0.00e+00	0	44	0	318767104	58	4976
2026-01-27 07:48:08.81	50.76	14.94	-43.6	-46.3	17.5	0.00e+00	0	44	0	320864256	58	4992
2026-01-27 07:48:09.81	50.55	14.95	-43.7	-46.4	17.5	0.00e+00	0	44	0	322961408	58	5046
2026-01-27 07:48:10.81	50.34	14.97	-43.7	-46.4	17.4	0.00e+00	0	44	0	325058560	58	5080
2026-01-27 07:48:11.80	50.13	14.98	-43.8	-46.4	17.4	0.00e+00	0	44	0	326107136	58	5087
2026-01-27 07:48:12.79	49.92	14.99	-43.6	-46.2	17.5	0.00e+00	0	44	0	328204288	58	4976
2026-01-27 07:48:13.79	49.71	15.01	-43.6	-46.2	17.6	0.00e+00	0	44	0	330301440	58	4954
2026-01-27 07:48:14.79	49.50	15.02	-43.7	-46.3	17.5	0.00e+00	0	44	0	332398592	58	5000
2026-01-27 07:48:15.83	49.28	15.03	-43.6	-46.3	17.5	0.00e+00	0	44	0	334495744	58	4994
2026-01-27 07:48:16.85	49.06	15.04	-43.6	-46.2	17.5	0.00e+00	0	44	0	336592896	58	4983
2026-01-27 07:48:17.88	48.85	15.05	-43.7	-46.4	17.4	0.00e+00	0	44	0	337641472	58	5063
2026-01-27 07:48:18.87	48.64	15.06	-43.6	-46.3	17.5	0.00e+00	0	44	0	339738624	58	4987
2026-01-27 07:48:19.87	48.43	15.07	-43.6	-46.2	17.6	0.00e+00	0	44	0	341835776	58	4937
2026-01-27 07:48:20.94	48.20	15.08	-43.6	-46.2	17.6	0.00e+00	0	43	0	343932928	58	4958
2026-01-27 07:48:21.83	48.01	15.09	-43.6	-46.2	17.6	0.00e+00	0	44	0	344981504	58	4968
2026-01-27 07:48:22.96	47.77	15.10	-43.7	-46.4	17.4	0.00e+00	0	44	0	348127232	58	5082
2026-01-27 07:48:23.82	47.59	15.11	-43.7	-46.4	17.4	0.00e+00	0	43	0	349175808	58	5059
2026-01-27 07:48:24.96	47.35	15.12	-43.6	-46.2	17.6	0.00e+00	0	44	0	351272960	58	4952
2026-01-27 07:48:25.81	47.17	15.12	-43.5	-46.2	17.7	0.00e+00	0	44	0	353370112	58	4927
2026-01-27 07:48:26.93	46.93	15.13	-43.4	-46.0	17.8	0.00e+00	0	44	0	355467264	58	4822
2026-01-27 07:48:27.78	46.75	15.14	-43.4	-46.0	17.8	0.00e+00	0	44	0	356515840	58	4859
2026-01-27 07:48:28.92	46.51	15.15	-43.6	-46.2	17.7	0.00e+00	0	44	0	358612992	58	4937
2026-01-27 07:48:29.77	46.33	15.15	-43.6	-46.2	17.5	0.00e+00	0	44	0	360710144	58	4976
2026-01-27 07:48:30.90	46.09	15.16	-43.7	-46.4	17.4	0.00e+00	0	44	0	362807296	58	5062
2026-01-27 07:48:31.76	45.90	15.16	-43.9	-46.5	17.3	0.00e+00	0	44	0	363855872	58	5154
2026-01-27 07:48:32.91	45.66	15.17	-43.7	-46.4	17.4	0.00e+00	0	44	0	365953024	58	5065
2026-01-27 07:48:33.76	45.48	15.17	-43.7	-46.4	17.5	0.00e+00	0	44	0	368050176	58	5054
2026-01-27 07:48:34.96	45.22	15.18	-43.7	-46.3	17.5	0.00e+00	0	44	0	370147328	58	5025
2026-01-27 07:48:35.82	45.04	15.18	-43.7	-46.3	17.5	0.00e+00	0	44	0	371195904	58	5029
2026-01-27 07:48:36.95	44.80	15.19	-43.7	-46.4	17.4	0.00e+00	0	44	0	374341632	58	5061
2026-01-27 07:48:37.80	44.62	15.19	-43.7	-46.3	17.5	0.00e+00	0	44	0	375390208	58	4996
2026-01-27 07:48:38.94	44.37	15.19	-43.7	-46.3	17.5	0.00e+00	0	44	0	377487360	58	4994
2026-01-27 07:48:39.80	44.19	15.19	-43.6	-46.2	17.6	0.00e+00	0	44	0	379584512	58	4970
2026-01-27 07:48:40.93	43.95	15.19	-43.6	-46.2	17.6	0.00e+00	0	43	0	381681664	58	4932
2026-01-27 07:48:41.78	43.77	15.20	-43.6	-46.3	17.5	0.00e+00	0	44	0	382730240	58	4989
2026-01-27 07:48:42.92	43.53	15.20	-43.6	-46.2	17.6	0.00e+00	0	44	0	384827392	58	4974
2026-01-27 07:48:43.78	43.34	15.20	-43.7	-46.3	17.5	0.00e+00	0	44	0	386924544	58	5022
2026-01-27 07:48:44.91	43.10	15.20	-43.6	-46.2	17.6	0.00e+00	0	44	0	389021696	58	4937
2026-01-27 07:48:45.77	42.92	15.20	-43.5	-46.1	17.5	0.00e+00	0	44	0	390070272	58	4921
2026-01-27 07:48:46.91	42.67	15.20	-43.5	-46.1	17.7	0.00e+00	0	44	0	392167424	58	4898
2026-01-27 07:48:47.76	42.49	15.20	-43.5	-46.1	17.7	0.00e+00	0	44	0	394264576	58	4918
2026-01-27 07:48:48.89	42.25	15.20	-43.6	-46.1	17.7	0.00e+00	0	44	0	396361728	58	4924
2026-01-27 07:48:49.75	42.07	15.19	-43.6	-46.3	17.5	0.00e+00	0	44	0	397410304	58	5001
2026-01-27 07:48:51.06	41.79	15.19	-43.7	-46.4	17.4	0.00e+00	0	44	0	400556032	58	5057
2026-01-27 07:48:51.77	41.64	15.19	-43.8	-46.5	17.3	0.00e+00	0	44	0	401604608	58	5112
2026-01-27 07:48:53.25	41.32	15.18	-43.8	-46.4	17.4	0.00e+00	0	43	0	404750336	58	5099
2026-01-27 07:48:53.96	41.17	15.18	-43.8	-46.4	17.4	0.00e+00	0	43	0	405798912	58	5095
2026-01-27 07:48:55.25	40.90	15.18	-43.8	-46.4	17.4	0.00e+00	0	44	0	407896064	58	5063
2026-01-27 07:48:55.97	40.74	15.17	-43.8	-46.4	17.5	0.00e+00	0	44	0	409993216	58	5061
2026-01-27 07:48:57.25	40.47	15.17	-43.8	-46.4	17.4	0.00e+00	0	44	0	412090368	58	5048
2026-01-27 07:48:57.98	40.32	15.16	-43.8	-46.4	17.4	0.00e+00	0	44	0	413138944	58	5072
2026-01-27 07:48:59.26	40.04	15.16	-43.8	-46.5	17.4	0.00e+00	0	44	0	415236096	58	5103
2026-01-27 07:48:59.97	39.89	15.15	-43.8	-46.4	17.4	0.00e+00	0	44	0	417333248	58	5099
2026-01-27 07:49:01.26	39.62	15.15	-43.7	-46.4	17.4	0.00e+00	0	44	0	419430400	58	5055
2026-01-27 07:49:01.98	39.47	15.14	-43.6	-46.2	17.6	0.00e+00	0	44	0	420478976	58	4977
2026-01-27 07:49:03.27	39.19	15.13	-43.7	-46.3	17.6	0.00e+00	0	44	0	423624704	58	4988
2026-01-27 07:49:03.98	39.04	15.13	-43.6	-46.2	17.6	0.00e+00	0	44	0	424673280	58	4944
2026-01-27 07:49:05.27	38.77	15.12	-43.7	-46.3	17.5	0.00e+00	0	44	0	426770432	58	5038
2026-01-27 07:49:05.98	38.62	15.11	-43.8	-46.4	17.4	0.00e+00	0	44	0	427819008	58	5089
2026-01-27 07:49:07.26	38.35	15.10	-43.9	-46.6	17.3	0.00e+00	0	44	0	430964736	58	5178
2026-01-27 07:49:07.99	38.19	15.09	-43.9	-46.6	17.2	0.00e+00	0	44	0	432013312	58	5197
2026-01-27 07:49:09.27	37.92	15.08	-43.9	-46.6	17.2	0.00e+00	0	44	0	434110464	58	5176
2026-01-27 07:49:09.99	37.77	15.07	-43.8	-46.5	17.3	0.00e+00	0	44	0	436207616	58	5145
2026-01-27 07:49:11.27	37.50	15.06	-43.6	-46.2	17.6	0.00e+00	0	44	0	438304768	58	4959
2026-01-27 07:49:11.98	37.35	15.05	-43.6	-46.2	17.6	0.00e+00	0	44	0	439353344	58	4938
2026-01-27 07:49:13.26	37.08	15.04	-43.4	-46.0	17.8	0.00e+00	0	44	0	441450496	58	4821
2026-01-27 07:49:13.98	36.93	15.03	-43.4	-46.0	17.8	0.00e+00	0	44	0	443547648	58	4833
2026-01-27 07:49:15.26	36.66	15.02	-43.4	-46.0	17.8	0.00e+00	0	44	0	445644800	58	4834
2026-01-27 07:49:15.97	36.51	15.01	-43.5	-46.0	17.8	0.00e+00	0	44	0	446693376	58	4866
2026-01-27 07:49:17.26	36.24	14.99	-43.5	-46.1	17.7	0.00e+00	0	44	0	449839104	58	4922
2026-01-27 07:49:17.99	36.08	14.98	-43.5	-46.2	17.6	0.00e+00	0	44	0	450887680	58	4955
2026-01-27 07:49:19.27	35.82	14.97	-43.4	-46.1	17.7	0.00e+00	0	44	0	452984832	58	4896
2026-01-27 07:49:19.98	35.67	14.96	-43.5	-46.1	17.7	0.00e+00	0	44	0	454033408	58	4919
2026-01-27 07:49:21.26	35.40	14.94	-43.3	-46.0	17.9	0.00e+00	0	44	0	457179136	58	4824
2026-01-27 07:49:22.00	35.24	14.93	-43.3	-45.9	17.9	0.00e+00	0	44	0	458227712	58	4788
2026-01-27 07:49:23.28	34.98	14.91	-43.2	-45.8	18.0	0.00e+00	0	44	0	460324864	58	4732
2026-01-27 07:49:24.00	34.83	14.90	-43.2	-45.7	18.1	0.00e+00	0	44	0	462422016	58	4687
2026-01-27 07:49:25.28	34.56	14.88	-43.3	-45.8	18.0	0.00e+00	0	44	0	464519168	58	4755
2026-01-27 07:49:25.99	34.41	14.87	-43.3	-45.9	17.9	0.00e+00	0	44	0	465567744	58	4776
2026-01-27 07:49:27.27	34.14	14.85	-43.5	-46.1	17.7	0.00e+00	0	44	0	468713472	58	4898
2026-01-27 07:49:28.02	33.99	14.84	-43.4	-46.0	17.8	0.00e+00	0	44	0	469762048	58	4836
2026-01-27 07:49:29.31	33.72	14.81	-43.4	-46.0	17.9	0.00e+00	0	44	0	471859200	58	4816
2026-01-27 07:49:30.02	33.57	14.80	-43.4	-46.0	17.9	0.00e+00	0	44	0	472907776	58	4819
2026-01-27 07:49:31.32	33.30	14.78	-43.4	-46.0	17.8	0.00e+00	0	44	0	476053504	58	4856
2026-01-27 07:49:32.05	33.15	14.77	-43.3	-45.9	17.9	0.00e+00	0	44	0	477102080	58	4793
2026-01-27 07:49:33.33	32.89	14.74	-43.4	-46.0	17.8	0.00e+00	0	44	0	479199232	58	4825
2026-01-27 07:49:34.07	32.73	14.73	-43.4	-46.0	17.8	0.00e+00	0	44	0	481296384	58	4839
2026-01-27 07:49:35.35	32.47	14.70	-43.5	-46.2	17.6	0.00e+00	0	44	0	483393536	58	4983
2026-01-27 07:49:36.08	32.32	14.69	-43.5	-46.3	17.6	0.00e+00	0	44	0	484442112	58	4991
2026-01-27 07:49:37.36	32.06	14.66	-43.7	-46.4	17.4	0.00e+00	0	44	0	487587840	58	5094
2026-01-27 07:49:38.09	31.91	14.65	-43.6	-46.3	17.5	0.00e+00	0	44	0	488636416	58	5009
2026-01-27 07:49:39.37	31.64	14.62	-43.6	-46.4	17.4	0.00e+00	0	44	0	490733568	58	5058
2026-01-27 07:49:40.08	31.50	14.61	-43.6	-46.3	17.6	0.00e+00	0	44	0	491782144	58	4984
2026-01-27 07:49:41.37	31.24	14.58	-43.5	-46.1	17.7	0.00e+00	0	44	0	494927872	58	4921
2026-01-27 07:49:42.09	31.09	14.57	-43.5	-46.1	17.7	0.00e+00	0	44	0	495976448	58	4909
2026-01-27 07:49:43.37	30.83	14.54	-43.6	-46.2	17.6	0.00e+00	0	44	0	498073600	58	4951
2026-01-27 07:49:44.10	30.68	14.52	-43.5	-46.1	17.7	0.00e+00	0	44	0	500170752	58	4913
2026-01-27 07:49:45.39	30.42	14.49	-43.6	-46.2	17.6	0.00e+00	0	44	0	502267904	58	4957
2026-01-27 07:49:46.10	30.27	14.48	-43.6	-46.2	17.6	0.00e+00	0	44	0	503316480	58	4969
2026-01-27 07:49:47.38	30.01	14.45	-43.7	-46.3	17.4	0.00e+00	0	44	0	505413632	58	5037
2026-01-27 07:49:48.10	29.87	14.43	-43.7	-46.4	17.4	0.00e+00	0	44	0	507510784	58	5060
2026-01-27 07:49:49.39	29.61	14.40	-43.9	-46.5	17.2	0.00e+00	0	44	0	509607936	58	5157
2026-01-27 07:49:50.11	29.46	14.38	-43.8	-46.5	17.3	0.00e+00	0	44	0	510656512	58	5137
2026-01-27 07:49:51.39	29.20	14.35	-43.9	-46.6	17.2	0.00e+00	0	44	0	513802240	58	5207
2026-01-27 07:49:52.15	29.05	14.33	-43.9	-46.7	17.2	0.00e+00	0	44	0	514850816	58	5228
2026-01-27 07:49:53.43	28.79	14.30	-43.9	-46.8	17.0	0.00e+00	0	44	0	516947968	58	5309
2026-01-27 07:49:54.16	28.65	14.28	-43.8	-46.7	17.1	0.00e+00	0	43	0	519045120	58	5233
2026-01-27 07:49:55.44	28.39	14.25	-43.5	-46.3	17.5	0.00e+00	0	44	0	521142272	58	5008
2026-01-27 07:49:56.15	28.25	14.23	-43.5	-46.3	17.5	0.00e+00	0	44	0	522190848	58	5030
2026-01-27 07:49:57.43	28.00	14.19	-43.6	-46.4	17.4	0.00e+00	0	44	0	524288000	58	5080
2026-01-27 07:49:58.16	27.85	14.17	-43.6	-46.5	17.3	0.00e+00	0	44	0	526385152	58	5119
2026-01-27 07:49:59.43	27.60	14.14	-43.6	-46.4	17.4	0.00e+00	0	44	0	528482304	58	5088
2026-01-27 07:50:00.14	27.46	14.12	-43.6	-46.4	17.4	0.00e+00	0	44	0	529530880	58	5099
2026-01-27 07:50:01.45	27.20	14.08	-43.6	-46.4	17.4	0.00e+00	0	44	0	532676608	58	5051
2026-01-27 07:50:02.16	27.06	14.06	-43.6	-46.4	17.4	0.00e+00	0	44	0	533725184	58	5069
2026-01-27 07:50:03.45	26.81	14.03	-43.5	-46.2	17.6	0.00e+00	0	44	0	535822336	58	4944
2026-01-27 07:50:04.20	26.66	14.01	-43.5	-46.1	17.7	0.00e+00	0	44	0	537919488	58	4914
2026-01-27 07:50:05.48	26.41	13.97	-43.5	-46.1	17.7	0.00e+00	0	44	0	540016640	58	4912
2026-01-27 07:50:06.20	26.27	13.95	-43.4	-46.1	17.7	0.00e+00	0	44	0	541065216	58	4894
2026-01-27 07:50:07.48	26.02	13.91	-43.4	-46.1	17.7	0.00e+00	0	44	0	543162368	58	4881
2026-01-27 07:50:08.22	25.87	13.89	-43.3	-45.9	17.8	0.00e+00	0	44	0	545259520	58	4792
2026-01-27 07:50:09.50	25.62	13.85	-43.4	-46.0	17.8	0.00e+00	0	44	0	547356672	58	4857
2026-01-27 07:50:10.22	25.48	13.83	-43.3	-46.0	17.8	0.00e+00	0	44	0	548405248	58	4840
2026-01-27 07:50:11.50	25.24	13.79	-43.3	-46.0	17.8	0.00e+00	0	44	0	551550976	58	4839
2026-01-27 07:50:12.21	25.10	13.77	-43.4	-46.1	17.7	0.00e+00	0	44	0	552599552	58	4886
2026-01-27 07:50:13.50	24.85	13.73	-43.4	-46.1	17.7	0.00e+00	0	44	0	554696704	58	4902
2026-01-27 07:50:14.21	24.71	13.70	-43.4	-46.2	17.6	0.00e+00	0	44	0	555745280	58	4928
2026-01-27 07:50:15.49	24.47	13.66	-43.2	-46.0	17.8	0.00e+00	0	44	0	558891008	58	4819
2026-01-27 07:50:16.22	24.33	13.64	-43.3	-46.1	17.7	0.00e+00	0	44	0	559939584	58	4898
2026-01-27 07:50:17.50	24.08	13.60	-43.3	-46.0	17.8	0.00e+00	0	44	0	562036736	58	4854
2026-01-27 07:50:18.24	23.94	13.57	-43.3	-46.0	17.8	0.00e+00	0	44	0	564133888	58	4853
2026-01-27 07:50:19.52	23.70	13.53	-43.4	-46.0	17.8	0.00e+00	0	44	0	566231040	58	4868
2026-01-27 07:50:20.24	23.56	13.51	-43.4	-46.1	17.7	0.00e+00	0	44	0	567279616	58	4878
2026-01-27 07:50:21.52	23.32	13.46	-43.5	-46.1	17.7	0.00e+00	0	44	0	570425344	58	4923
2026-01-27 07:50:22.23	23.18	13.44	-43.5	-46.2	17.6	0.00e+00	0	44	0	571473920	58	4929
2026-01-27 07:50:23.52	22.94	13.40	-43.5	-46.1	17.7	0.00e+00	0	44	0	573571072	58	4878
2026-01-27 07:50:24.23	22.81	13.37	-43.6	-46.2	17.6	0.00e+00	0	44	0	574619648	58	4954
2026-01-27 07:50:25.52	22.57	13.33	-43.4	-46.0	17.8	0.00e+00	0	44	0	577765376	58	4820
2026-01-27 07:50:26.23	22.43	13.30	-43.4	-45.9	17.9	0.00e+00	0	44	0	578813952	58	4793
2026-01-27 07:50:27.51	22.19	13.26	-43.2	-45.8	18.0	0.00e+00	0	44	0	580911104	58	4740
2026-01-27 07:50:28.23	22.06	13.23	-43.2	-45.8	18.0	0.00e+00	0	44	0	581959680	58	4726
2026-01-27 07:50:29.51	21.82	13.19	-43.2	-45.9	17.9	0.00e+00	0	44	0	585105408	58	4771
2026-01-27 07:50:30.26	21.68	13.16	-43.3	-45.9	17.9	0.00e+00	0	44	0	586153984	58	4808
2026-01-27 07:50:31.54	21.45	13.11	-43.2	-45.9	17.8	0.00e+00	0	44	0	588251136	58	4809
2026-01-27 07:50:32.27	21.31	13.09	-43.3	-46.0	17.7	0.00e+00	0	44	0	590348288	58	4869
2026-01-27 07:50:33.55	21.08	13.04	-43.3	-46.1	17.6	0.00e+00	0	44	0	592445440	58	4907
2026-01-27 07:50:34.26	20.95	13.02	-43.2	-46.1	17.7	0.00e+00	0	44	0	593494016	58	4882
2026-01-27 07:50:35.54	20.71	12.97	-43.3	-46.1	17.6	0.00e+00	0	44	0	596639744	58	4926
2026-01-27 07:50:36.26	20.58	12.94	-43.3	-46.1	17.6	0.00e+00	0	44	0	597688320	58	4926
2026-01-27 07:50:37.54	20.35	12.89	-43.2	-46.0	17.7	0.00e+00	0	44	0	599785472	58	4867
2026-01-27 07:50:38.25	20.22	12.87	-43.3	-46.1	17.7	0.00e+00	0	44	0	600834048	58	4918
2026-01-27 07:50:39.54	19.98	12.82	-43.3	-46.2	17.6	0.00e+00	0	44	0	603979776	58	4930
2026-01-27 07:50:40.27	19.85	12.79	-43.4	-46.3	17.5	0.00e+00	0	44	0	605028352	58	5027
2026-01-27 07:50:41.55	19.62	12.74	-43.5	-46.4	17.3	0.00e+00	0	44	0	607125504	58	5091
2026-01-27 07:50:42.29	19.49	12.71	-43.5	-46.4	17.3	0.00e+00	0	44	0	609222656	58	5095
2026-01-27 07:50:43.57	19.26	12.66	-43.7	-46.6	17.2	0.00e+00	0	44	0	611319808	58	5172
2026-01-27 07:50:44.30	19.13	12.63	-43.8	-46.7	17.1	0.00e+00	0	44	0	612368384	58	5226
2026-01-27 07:50:45.58	18.90	12.58	-44.0	-46.7	17.0	0.00e+00	0	44	0	615514112	58	5276
2026-01-27 07:50:46.29	18.77	12.56	-44.0	-46.8	17.0	0.00e+00	0	44	0	616562688	58	5309
2026-01-27 07:50:47.57	18.55	12.51	-44.2	-46.9	16.8	0.00e+00	0	44	0	618659840	59	5098
2026-01-27 07:50:48.31	18.42	12.48	-44.1	-46.9	16.9	0.00e+00	0	44	0	619708416	59	5062
2026-01-27 07:50:49.58	18.19	12.43	-44.2	-47.1	16.7	0.00e+00	0	44	0	622854144	59	5178
2026-01-27 07:50:50.31	18.06	12.40	-44.3	-47.1	16.7	0.00e+00	0	44	0	623902720	59	5192
2026-01-27 07:50:51.59	17.84	12.34	-44.3	-47.2	16.6	0.00e+00	0	44	0	625999872	59	5260
2026-01-27 07:50:52.36	17.70	12.31	-44.3	-47.3	16.5	0.00e+00	0	44	0	628097024	59	5283
2026-01-27 07:50:53.64	17.48	12.26	-44.3	-47.3	16.5	0.00e+00	0	44	0	630194176	59	5307
2026-01-27 07:50:54.36	17.36	12.23	-44.3	-47.4	16.4	0.00e+00	0	44	0	631242752	59	5344
2026-01-27 07:50:55.64	17.13	12.18	-44.3	-47.4	16.4	0.00e+00	0	44	0	633339904	59	5360
2026-01-27 07:50:56.35	17.01	12.15	-44.3	-47.5	16.3	0.00e+00	0	44	0	635437056	59	5406
2026-01-27 07:50:57.64	16.79	12.10	-44.2	-47.6	16.2	0.00e+00	0	44	0	637534208	59	5470
2026-01-27 07:50:58.35	16.67	12.07	-44.3	-47.7	16.0	0.00e+00	0	44	0	638582784	59	5588
2026-01-27 07:50:59.63	16.45	12.01	-44.3	-47.9	15.9	0.00e+00	0	44	0	641728512	59	5657
2026-01-27 07:51:00.35	16.32	11.98	-44.3	-48.0	15.8	0.00e+00	0	44	0	642777088	59	5731
2026-01-27 07:51:01.63	16.11	11.93	-44.3	-48.0	15.8	0.00e+00	0	44	0	644874240	59	5747
2026-01-27 07:51:02.35	15.98	11.90	-44.3	-48.1	15.7	0.00e+00	0	44	0	646971392	59	5838
2026-01-27 07:51:03.63	15.77	11.84	-44.4	-48.2	15.6	0.00e+00	0	44	0	649068544	59	5899
2026-01-27 07:51:04.35	15.65	11.81	-44.4	-48.3	15.4	0.00e+00	0	44	0	650117120	59	5984
2026-01-27 07:51:05.64	15.43	11.76	-44.4	-48.3	15.4	0.00e+00	0	44	0	652214272	59	5990
2026-01-27 07:51:06.35	15.31	11.73	-44.4	-48.3	15.4	0.00e+00	0	44	0	654311424	59	5979
2026-01-27 07:51:07.63	15.10	11.67	-44.5	-48.5	15.2	0.00e+00	0	44	0	656408576	59	6078
2026-01-27 07:51:08.36	14.97	11.64	-44.6	-48.5	15.1	0.00e+00	0	44	0	657457152	59	6125
2026-01-27 07:51:09.65	14.76	11.58	-44.6	-48.5	15.1	0.00e+00	0	44	0	660602880	60	5765
2026-01-27 07:51:10.36	14.64	11.55	-44.7	-48.5	15.2	0.00e+00	0	44	0	661651456	60	5740
2026-01-27 07:51:11.64	14.43	11.50	-44.7	-48.4	15.3	0.00e+00	0	44	0	663748608	60	5682
2026-01-27 07:51:12.35	14.31	11.46	-44.7	-48.2	15.4	0.00e+00	0	44	0	664797184	60	5591
2026-01-27 07:51:13.63	14.10	11.41	-44.8	-48.4	15.3	0.00e+00	0	44	0	667942912	60	5685
2026-01-27 07:51:14.38	13.98	11.37	-44.9	-48.5	15.1	0.00e+00	0	44	0	668991488	60	5774
2026-01-27 07:51:15.66	13.77	11.32	-45.1	-48.7	14.9	0.00e+00	0	44	0	671088640	60	5892
2026-01-27 07:51:16.37	13.65	11.29	-45.2	-48.8	14.8	0.00e+00	0	44	0	673185792	61	5644
2026-01-27 07:51:17.65	13.45	11.23	-45.3	-49.0	14.6	0.00e+00	0	44	0	675282944	61	5740
2026-01-27 07:51:18.38	13.33	11.20	-45.3	-49.1	14.4	7.00e-07	0	44	0	676331520	61	5845
2026-01-27 07:51:19.66	13.12	11.14	-45.3	-49.2	14.3	7.00e-07	0	44	0	678428672	61	5888
2026-01-27 07:51:20.39	13.00	11.10	-45.3	-49.2	14.4	0.00e+00	0	44	0	680525824	61	5873
2026-01-27 07:51:21.67	12.80	11.05	-45.2	-49.1	14.5	7.00e-07	0	44	0	682622976	61	5846
2026-01-27 07:51:22.38	12.69	11.01	-45.1	-49.1	14.5	7.00e-07	0	44	0	683671552	61	5833
2026-01-27 07:51:23.67	12.48	10.96	-45.1	-49.0	14.6	0.00e+00	0	44	0	686817280	61	5775
2026-01-27 07:51:24.38	12.37	10.92	-45.1	-49.2	14.5	0.00e+00	0	44	0	687865856	61	5857
2026-01-27 07:51:25.66	12.17	10.86	-45.2	-49.2	14.5	1.50e-06	0	44	0	689963008	61	5872
2026-01-27 07:51:26.37	12.05	10.83	-45.2	-49.2	14.4	1.50e-06	0	44	0	691011584	61	5922
2026-01-27 07:51:27.65	11.85	10.77	-45.1	-49.3	14.5	0.00e+00	0	44	0	694157312	61	5925
2026-01-27 07:51:28.36	11.74	10.74	-45.1	-49.4	14.4	0.00e+00	0	44	0	695205888	61	5997
2026-01-27 07:51:29.65	11.54	10.68	-45.0	-49.4	14.3	7.00e-07	0	44	0	697303040	61	6021
2026-01-27 07:51:30.37	11.43	10.65	-44.9	-49.4	14.4	7.00e-07	0	44	0	699400192	61	6006
2026-01-27 07:51:31.66	11.23	10.59	-44.9	-49.6	14.1	1.50e-06	0	44	0	701497344	61	6163
2026-01-27 07:51:32.37	11.12	10.55	-44.8	-49.4	14.2	2.20e-06	0	44	0	702545920	61	6054
2026-01-27 07:51:33.65	10.92	10.49	-44.8	-49.5	14.2	2.20e-06	0	44	0	705691648	61	6077
2026-01-27 07:51:34.38	10.81	10.46	-44.9	-49.6	14.2	0.00e+00	0	44	0	706740224	61	6133
2026-01-27 07:51:35.66	10.61	10.40	-44.8	-49.3	14.4	1.50e-06	0	44	0	708837376	61	5956
2026-01-27 07:51:36.37	10.50	10.36	-44.7	-49.3	14.4	0.00e+00	0	44	0	709885952	61	5972
2026-01-27 07:51:37.66	10.31	10.30	-44.6	-49.2	14.6	0.00e+00	0	44	0	713031680	61	5862
2026-01-27 07:51:38.37	10.20	10.27	-44.4	-49.1	14.7	0.00e+00	0	44	0	714080256	60	6151
2026-01-27 07:51:39.65	10.01	10.21	-44.2	-49.2	14.6	0.00e+00	0	44	0	716177408	60	6219
2026-01-27 07:51:40.37	9.90	10.18	-44.2	-49.3	14.5	0.00e+00	0	44	0	718274560	60	6278
2026-01-27 07:51:41.65	9.71	10.11	-44.1	-49.2	14.6	0.00e+00	0	44	0	720371712	60	6224
2026-01-27 07:51:42.39	9.59	10.08	-44.2	-49.2	14.6	7.00e-07	0	44	0	721420288	60	6236
2026-01-27 07:51:43.67	9.40	10.02	-44.3	-49.2	14.5	7.00e-07	0	44	0	723517440	60	6267
2026-01-27 07:51:44.39	9.30	9.98	-44.3	-49.3	14.5	0.00e+00	0	44	0	725614592	60	6296
2026-01-27 07:51:45.67	9.11	9.92	-44.5	-49.4	14.3	0.00e+00	0	44	0	727711744	60	6390
2026-01-27 07:51:46.41	9.00	9.89	-44.5	-49.1	14.5	0.00e+00	0	44	0	728760320	60	6195
2026-01-27 07:51:47.70	8.81	9.82	-44.5	-48.9	14.9	0.00e+00	0	44	0	731906048	60	5999
2026-01-27 07:51:48.41	8.70	9.79	-44.6	-48.8	14.9	0.00e+00	0	44	0	732954624	60	5971
2026-01-27 07:51:49.69	8.52	9.73	-44.8	-49.0	14.8	0.00e+00	0	44	0	735051776	60	6085
2026-01-27 07:51:50.41	8.41	9.69	-44.8	-48.9	14.8	0.00e+00	0	44	0	736100352	60	6060
2026-01-27 07:51:51.69	8.23	9.63	-44.9	-48.8	15.0	7.00e-07	0	44	0	739246080	60	5976
2026-01-27 07:51:52.42	8.12	9.59	-44.9	-48.8	15.0	0.00e+00	0	44	0	740294656	60	5944
2026-01-27 07:51:53.70	7.94	9.53	-44.9	-48.7	15.1	0.00e+00	0	44	0	742391808	60	5860
2026-01-27 07:51:54.42	7.83	9.50	-44.9	-48.7	15.0	0.00e+00	0	44	0	744488960	60	5884
2026-01-27 07:51:55.71	7.65	9.43	-44.9	-48.6	15.0	0.00e+00	0	44	0	746586112	60	5847
2026-01-27 07:51:56.42	7.55	9.40	-45.0	-48.8	15.0	0.00e+00	0	44	0	747634688	60	5933
2026-01-27 07:51:57.70	7.36	9.34	-44.7	-48.4	15.3	0.00e+00	0	44	0	750780416	60	5707
2026-01-27 07:51:58.42	7.26	9.30	-44.8	-48.5	15.2	0.00e+00	0	44	0	751828992	60	5754
2026-01-27 07:51:59.70	7.08	9.24	-44.6	-48.4	15.4	0.00e+00	0	44	0	753926144	60	5658
2026-01-27 07:52:00.43	6.98	9.20	-44.6	-48.4	15.2	0.00e+00	0	44	0	754974720	60	5719
2026-01-27 07:52:01.71	6.80	9.14	-44.4	-48.3	15.4	0.00e+00	0	44	0	758120448	60	5612
2026-01-27 07:52:02.42	6.70	9.10	-44.3	-48.4	15.3	0.00e+00	0	44	0	759169024	60	5678
2026-01-27 07:52:03.70	6.52	9.04	-44.1	-48.2	15.5	0.00e+00	0	44	0	761266176	60	5551
2026-01-27 07:52:04.42	6.42	9.00	-44.3	-48.5	15.3	0.00e+00	0	44	0	763363328	60	5773
2026-01-27 07:52:05.70	6.24	8.94	-48.3	-64.5	3.8	1.49e+00	0	44	104	764411904	67	24388
2026-01-27 07:52:06.44	6.14	8.90	-48.7	-65.1	3.8	1.49e+00	0	44	104	764411904	68	24454
2026-01-27 07:52:07.72	5.97	8.84	-49.3	-65.2	3.8	1.49e+00	0	44	104	764411904	69	23505
2026-01-27 07:52:08.43	5.87	8.81	-49.6	-65.3	3.8	1.49e+00	0	44	104	764411904	69	23815
2026-01-27 07:52:09.72	5.69	8.74	-50.2	-65.4	3.8	1.49e+00	0	44	104	764411904	71	21411
2026-01-27 07:52:10.43	5.60	8.71	-49.9	-65.4	3.8	1.49e+00	0	44	104	764411904	71	21506
2026-01-27 07:52:11.71	5.42	8.64	-50.2	-65.5	3.8	1.49e+00	0	44	104	764411904	71	21609
2026-01-27 07:52:12.43	5.33	8.61	-49.6	-65.5	3.8	1.49e+00	0	44	104	764411904	71	21692
2026-01-27 07:52:13.71	5.15	8.54	-50.2	-65.5	3.8	1.49e+00	0	44	104	764411904	71	21726
2026-01-27 07:52:14.42	5.06	8.51	-50.0	-65.6	3.8	1.49e+00	0	44	104	764411904	71	21799
2026-01-27 07:52:15.70	4.89	8.44	-50.1	-65.6	3.8	1.49e+00	0	44	104	764411904	71	21825
2026-01-27 07:52:16.42	4.79	8.41	-50.3	-65.6	3.8	1.49e+00	0	44	104	764411904	71	21907
2026-01-27 07:52:17.70	4.62	8.34	-50.3	-65.6	3.8	1.49e+00	0	44	104	764411904	71	21840
2026-01-27 07:52:18.42	4.53	8.31	-50.1	-65.6	3.8	1.49e+00	0	44	104	764411904	71	21981
2026-01-27 07:52:19.70	4.36	8.24	-50.3	-65.6	3.8	1.49e+00	0	44	104	764411904	71	21841
2026-01-27 07:52:20.42	4.26	8.20	-50.1	-65.6	3.8	1.49e+00	0	44	104	764411904	71	21830
2026-01-27 07:52:21.70	4.10	8.14	-50.3	-65.6	3.8	1.49e+00	0	44	104	764411904	71	21831
2026-01-27 07:52:22.41	4.00	8.10	-50.1	-65.6	3.8	1.49e+00	0	44	104	764411904	71	21841
2026-01-27 07:52:23.70	3.84	8.04	-50.3	-65.6	3.8	1.49e+00	0	44	104	764411904	71	21761
2026-01-27 07:52:24.41	3.75	8.00	-50.3	-65.6	3.8	1.49e+00	0	44	104	764411904	71	21779
2026-01-27 07:52:25.69	3.58	7.94	-50.4	-65.6	3.8	1.49e+00	0	44	104	764411904	71	21845
2026-01-27 07:52:26.40	3.49	7.90	-50.3	-65.6	3.8	1.49e+00	0	44	104	764411904	71	21829
2026-01-27 07:52:27.69	3.32	7.84	-50.2	-65.6	3.8	1.49e+00	0	44	104	764411904	71	21812
2026-01-27 07:52:28.40	3.23	7.80	-50.4	-65.6	3.8	1.49e+00	0	44	104	764411904	71	21794
2026-01-27 07:52:29.68	3.07	7.74	-50.2	-65.6	3.8	1.49e+00	0	44	104	764411904	71	21758
2026-01-27 07:52:30.40	2.98	7.70	-50.4	-65.5	3.8	1.49e+00	0	44	104	764411904	
