passes_logs/2026/01/27/T1/T1__20260127_114414_FENGYUN_3E_rec.log

#Pass ID: 20260127_114414_FENGYUN 3E
#Satellite: FENGYUN 3E
#Configuration: FENGYUN 3E
#almurnet v.1.7.20251203
#Start time: 2026-01-27 11:44:13

#Version: 2.0.20230620
#Station: T1
#Location: 37.570604 lon 55.790049 lat
#TLE: 1 49008U 21062A   26026.84429991  .00000247  00000+0  13693-3 0  9991
#TLE: 2 49008  98.7501  31.8345 0002501 116.3456 243.7977 14.19887781236522

#Time	Az	El	Level	Level2	SNR	BER	BlckErr	Temp	State	Recorded	gain1	gain2
2026-01-27 11:44:13.66	79.54	4.97	-50.8	-61.8	3.8	8.46e-01	0	41	0	0	71	13153
2026-01-27 11:44:14.65	79.42	5.02	-50.9	-61.8	3.8	8.47e-01	0	41	104	0	72	12414
2026-01-27 11:44:15.64	79.31	5.06	-51.1	-61.8	3.8	8.47e-01	0	41	104	0	72	12429
2026-01-27 11:44:16.64	79.19	5.11	-51.1	-61.8	3.8	8.46e-01	0	41	104	0	72	12435
2026-01-27 11:44:17.63	79.08	5.15	-51.1	-61.8	3.8	8.47e-01	0	41	104	0	72	12501
2026-01-27 11:44:18.62	78.96	5.20	-51.1	-61.9	3.8	8.47e-01	0	41	104	0	72	12577
2026-01-27 11:44:19.62	78.84	5.24	-51.1	-61.8	3.8	8.46e-01	0	42	104	0	72	12445
2026-01-27 11:44:20.61	78.72	5.29	-51.1	-61.8	3.8	8.46e-01	0	41	104	0	72	12437
2026-01-27 11:44:21.60	78.60	5.33	-51.1	-61.8	3.8	8.47e-01	0	41	104	0	72	12490
2026-01-27 11:44:22.60	78.48	5.38	-51.1	-61.8	3.8	8.46e-01	0	42	104	0	72	12405
2026-01-27 11:44:23.59	78.37	5.42	-51.1	-61.7	3.8	8.46e-01	0	42	104	0	72	12374
2026-01-27 11:44:24.58	78.25	5.47	-51.1	-61.8	3.8	8.47e-01	0	42	104	0	72	12476
2026-01-27 11:44:25.57	78.13	5.51	-51.0	-61.8	3.8	8.47e-01	0	42	104	0	72	12379
2026-01-27 11:44:26.57	78.01	5.56	-51.0	-61.7	3.8	8.47e-01	0	42	104	0	72	12355
2026-01-27 11:44:27.56	77.89	5.60	-51.0	-61.7	3.8	8.46e-01	0	42	104	0	72	12360
2026-01-27 11:44:28.55	77.77	5.65	-51.0	-61.7	3.8	8.48e-01	0	42	104	0	72	12284
2026-01-27 11:44:29.55	77.64	5.69	-50.9	-61.6	3.8	8.47e-01	0	42	104	0	72	12230
2026-01-27 11:44:30.54	77.52	5.74	-50.8	-61.5	3.8	8.46e-01	0	42	104	0	72	12093
2026-01-27 11:44:31.53	77.40	5.78	-50.7	-61.5	3.8	8.47e-01	0	42	104	0	72	12026
2026-01-27 11:44:32.52	77.28	5.83	-50.6	-61.4	3.8	8.48e-01	0	42	104	0	72	11881
2026-01-27 11:44:33.52	77.15	5.87	-50.4	-61.2	3.8	8.48e-01	0	42	104	0	71	12252
2026-01-27 11:44:34.51	77.03	5.92	-50.1	-60.9	3.8	8.48e-01	0	42	104	0	71	11868
2026-01-27 11:44:35.50	76.91	5.96	-50.1	-60.9	3.8	8.47e-01	0	42	104	0	71	11945
2026-01-27 11:44:36.50	76.78	6.01	-50.1	-61.0	3.8	8.46e-01	0	42	104	0	71	12024
2026-01-27 11:44:37.49	76.66	6.05	-50.1	-60.9	3.8	8.46e-01	0	42	104	0	71	11923
2026-01-27 11:44:38.48	76.54	6.10	-50.1	-60.9	3.8	8.47e-01	0	42	104	0	71	11950
2026-01-27 11:44:39.48	76.41	6.14	-50.1	-60.9	3.8	8.47e-01	0	42	104	0	71	11866
2026-01-27 11:44:40.47	76.28	6.18	-50.1	-60.9	3.8	8.47e-01	0	42	104	0	71	11876
2026-01-27 11:44:41.46	76.16	6.23	-50.1	-60.9	3.8	8.46e-01	0	42	104	0	71	11885
2026-01-27 11:44:42.45	76.03	6.27	-50.1	-60.8	3.8	8.48e-01	0	42	104	0	71	11769
2026-01-27 11:44:43.45	75.90	6.32	-50.1	-60.8	3.8	8.47e-01	0	42	104	0	71	11782
2026-01-27 11:44:44.44	75.78	6.36	-50.1	-60.8	3.8	8.47e-01	0	42	104	0	71	11799
2026-01-27 11:44:45.43	75.65	6.41	-50.1	-60.8	3.8	8.47e-01	0	42	104	0	71	11797
2026-01-27 11:44:46.42	75.52	6.45	-50.1	-60.9	3.8	8.48e-01	0	42	104	0	71	11836
2026-01-27 11:44:47.42	75.39	6.49	-50.1	-60.9	3.8	8.47e-01	0	42	104	0	71	11900
2026-01-27 11:44:48.41	75.27	6.54	-50.1	-60.9	3.8	8.47e-01	0	42	104	0	71	11945
2026-01-27 11:44:49.40	75.14	6.58	-50.1	-61.0	3.8	8.47e-01	0	42	104	0	71	11982
2026-01-27 11:44:50.40	75.01	6.63	-50.1	-60.9	3.8	8.47e-01	0	43	104	0	71	11944
2026-01-27 11:44:51.39	74.88	6.67	-50.1	-61.0	3.8	8.46e-01	0	43	104	0	71	12006
2026-01-27 11:44:52.38	74.75	6.71	-50.1	-61.0	3.8	8.46e-01	0	43	104	0	71	12055
2026-01-27 11:44:53.38	74.62	6.76	-50.1	-61.0	3.8	8.47e-01	0	43	104	0	71	11990
2026-01-27 11:44:54.37	74.49	6.80	-50.1	-60.9	3.8	8.48e-01	0	43	104	0	71	11827
2026-01-27 11:44:55.36	74.35	6.84	-50.1	-60.9	3.8	8.46e-01	0	43	104	0	70	12581
2026-01-27 11:44:56.36	74.22	6.89	-50.1	-60.9	3.8	8.47e-01	0	43	104	0	70	12599
2026-01-27 11:44:57.35	74.09	6.93	-50.1	-61.0	3.8	8.46e-01	0	43	104	0	70	12673
2026-01-27 11:44:58.34	73.96	6.97	-50.1	-60.9	3.8	8.46e-01	0	43	104	0	70	12565
2026-01-27 11:44:59.33	73.82	7.02	-50.1	-60.9	3.8	8.47e-01	0	43	104	0	70	12595
2026-01-27 11:45:00.33	73.69	7.06	-50.1	-60.9	3.8	8.46e-01	0	43	104	0	70	12606
2026-01-27 11:45:01.32	73.56	7.10	-50.1	-60.9	3.8	8.47e-01	0	43	104	0	70	12602
2026-01-27 11:45:02.31	73.42	7.15	-50.1	-60.9	3.8	8.46e-01	0	43	104	0	70	12631
2026-01-27 11:45:03.31	73.29	7.19	-50.1	-60.9	3.8	8.46e-01	0	43	104	0	70	12548
2026-01-27 11:45:04.30	73.15	7.23	-50.1	-60.9	3.8	8.48e-01	0	43	104	0	70	12559
2026-01-27 11:45:05.29	73.02	7.27	-50.1	-60.9	3.8	8.47e-01	0	43	104	0	70	12622
2026-01-27 11:45:06.28	72.88	7.32	-50.1	-60.8	3.8	8.48e-01	0	43	104	0	70	12455
2026-01-27 11:45:07.28	72.74	7.36	-50.1	-60.8	3.8	8.47e-01	0	43	104	0	70	12390
2026-01-27 11:45:08.27	72.61	7.40	-50.1	-60.7	3.8	8.48e-01	0	43	104	0	70	12276
2026-01-27 11:45:09.26	72.47	7.44	-50.1	-60.6	3.8	8.47e-01	0	43	104	0	70	12216
2026-01-27 11:45:10.26	72.33	7.49	-50.1	-60.5	3.8	8.45e-01	0	43	104	0	70	12077
2026-01-27 11:45:11.25	72.20	7.53	-50.1	-60.6	3.8	8.48e-01	0	43	104	0	70	12232
2026-01-27 11:45:12.24	72.06	7.57	-50.1	-60.6	3.8	8.46e-01	0	43	104	0	70	12176
2026-01-27 11:45:13.24	71.92	7.61	-50.1	-60.6	3.8	8.48e-01	0	43	104	0	70	12210
2026-01-27 11:45:14.23	71.78	7.66	-50.1	-60.6	3.8	8.46e-01	0	43	104	0	70	12219
2026-01-27 11:45:15.22	71.64	7.70	-50.1	-60.7	3.8	8.47e-01	0	43	104	0	70	12292
2026-01-27 11:45:16.22	71.50	7.74	-50.1	-60.7	3.8	8.47e-01	0	43	104	0	70	12287
2026-01-27 11:45:17.21	71.36	7.78	-50.1	-60.7	3.8	8.46e-01	0	43	104	0	70	12326
2026-01-27 11:45:18.20	71.22	7.82	-50.1	-60.6	3.8	8.47e-01	0	43	104	0	70	12154
2026-01-27 11:45:19.19	71.08	7.86	-50.1	-60.6	3.8	8.46e-01	0	43	104	0	70	12103
2026-01-27 11:45:20.19	70.94	7.91	-50.0	-60.4	3.8	8.47e-01	0	43	104	0	70	11889
2026-01-27 11:45:21.18	70.79	7.95	-50.0	-60.3	3.8	8.47e-01	0	43	104	0	70	11715
2026-01-27 11:45:22.17	70.65	7.99	-50.0	-60.1	3.8	8.47e-01	0	43	104	0	70	11500
2026-01-27 11:45:23.17	70.51	8.03	-50.0	-60.0	3.8	8.47e-01	0	43	104	0	70	11412
2026-01-27 11:45:24.16	70.36	8.07	-50.0	-60.1	3.8	8.47e-01	0	43	104	0	70	11426
2026-01-27 11:45:25.15	70.22	8.11	-50.0	-60.3	3.8	8.47e-01	0	43	104	0	70	11731
2026-01-27 11:45:26.14	70.08	8.15	-50.0	-60.3	3.8	8.47e-01	0	43	104	0	70	11791
2026-01-27 11:45:27.14	69.93	8.19	-50.0	-60.4	3.8	8.47e-01	0	43	104	0	70	11944
2026-01-27 11:45:28.13	69.79	8.23	-50.0	-60.4	3.8	8.47e-01	0	43	104	0	70	11875
2026-01-27 11:45:29.12	69.64	8.27	-50.0	-60.4	3.8	8.46e-01	0	43	104	0	70	11953
2026-01-27 11:45:30.12	69.50	8.32	-50.0	-60.3	3.8	8.48e-01	0	43	104	0	70	11734
2026-01-27 11:45:31.11	69.35	8.36	-50.0	-59.9	3.8	8.49e-01	0	43	104	0	70	11164
2026-01-27 11:45:32.10	69.20	8.40	-49.8	-59.0	3.8	8.46e-01	0	43	104	0	70	10162
2026-01-27 11:45:33.10	69.06	8.44	-49.7	-58.1	3.9	8.44e-01	0	43	104	0	70	9089
2026-01-27 11:45:34.09	68.91	8.48	-49.6	-57.5	4.2	8.38e-01	0	43	0	0	70	8494
2026-01-27 11:45:35.08	68.76	8.52	-49.6	-57.8	4.1	8.39e-01	0	43	0	0	70	8775
2026-01-27 11:45:36.08	68.61	8.56	-49.7	-58.2	4.0	8.44e-01	0	43	104	0	70	9244
2026-01-27 11:45:37.07	68.47	8.60	-49.2	-55.8	4.8	8.16e-01	0	43	0	0	69	7452
2026-01-27 11:45:38.06	68.32	8.63	-47.8	-51.8	7.7	1.53e-01	0	43	0	4194304	66	5587
2026-01-27 11:45:39.06	68.17	8.67	-46.0	-48.5	11.2	5.35e-03	0	43	0	10485760	62	4802
2026-01-27 11:45:40.05	68.02	8.71	-44.0	-45.7	14.0	8.00e-06	0	43	0	17825792	58	4388
2026-01-27 11:45:41.04	67.87	8.75	-42.8	-44.2	15.5	0.00e+00	0	43	0	25165824	56	4136
2026-01-27 11:45:42.03	67.72	8.79	-41.8	-43.1	16.5	0.00e+00	0	43	0	32505856	54	4079
2026-01-27 11:45:43.03	67.57	8.83	-41.8	-43.2	16.4	0.00e+00	0	43	0	39845888	54	4109
2026-01-27 11:45:44.02	67.41	8.87	-42.2	-43.6	16.0	0.00e+00	0	43	0	47185920	54	4308
2026-01-27 11:45:45.01	67.26	8.91	-43.7	-45.3	14.4	0.00e+00	0	43	0	53477376	56	4694
2026-01-27 11:45:46.01	67.11	8.95	-45.3	-47.5	12.2	7.09e-05	0	43	0	60817408	59	5051
2026-01-27 11:45:47.00	66.96	8.98	-47.2	-50.6	9.1	7.44e-03	0	43	0	68157440	63	5762
2026-01-27 11:45:47.99	66.80	9.02	-48.8	-54.6	5.4	4.64e-01	0	43	0	75497472	67	7239
2026-01-27 11:45:48.98	66.65	9.06	-49.9	-57.8	4.2	6.14e-01	0	43	0	78643200	69	9282
2026-01-27 11:45:49.98	66.50	9.10	-47.0	-50.1	9.7	1.46e-03	0	44	0	83886080	63	5439
2026-01-27 11:45:50.97	66.34	9.14	-50.1	-60.8	3.8	8.46e-01	0	44	104	88080384	69	13219
2026-01-27 11:45:51.97	66.19	9.17	-44.3	-46.0	13.8	3.54e-01	0	43	0	88080384	59	4282
2026-01-27 11:45:52.96	66.03	9.21	-50.0	-59.4	3.8	4.99e-01	0	44	104	92274688	69	11176
2026-01-27 11:45:53.96	65.88	9.25	-44.2	-45.9	13.8	8.66e-04	0	43	0	93323264	59	4205
2026-01-27 11:45:54.95	65.72	9.29	-43.1	-44.5	15.2	0.00e+00	0	43	0	100663296	56	4284
2026-01-27 11:45:55.95	65.56	9.32	-41.8	-43.1	16.6	0.00e+00	0	43	0	108003328	54	4068
2026-01-27 11:45:56.94	65.41	9.36	-41.0	-42.2	17.5	0.00e+00	0	44	0	114294784	52	4112
2026-01-27 11:45:57.94	65.25	9.40	-40.6	-41.8	17.8	0.00e+00	0	44	0	121634816	52	3928
2026-01-27 11:45:58.93	65.09	9.43	-40.5	-41.7	18.0	0.00e+00	0	44	0	128974848	51	4103
2026-01-27 11:45:59.93	64.93	9.47	-40.3	-41.4	18.3	0.00e+00	0	44	0	136314880	51	3978
2026-01-27 11:46:00.92	64.77	9.51	-40.3	-41.4	18.3	0.00e+00	0	44	0	143654912	51	3959
2026-01-27 11:46:01.92	64.61	9.54	-40.1	-41.2	18.5	0.00e+00	0	44	0	150994944	51	3871
2026-01-27 11:46:02.91	64.46	9.58	-40.2	-41.2	18.4	0.00e+00	0	44	0	157286400	51	3913
2026-01-27 11:46:03.91	64.30	9.62	-40.1	-41.1	18.6	0.00e+00	0	44	0	164626432	50	4092
2026-01-27 11:46:04.90	64.14	9.65	-40.3	-41.4	18.4	0.00e+00	0	44	0	171966464	50	4194
2026-01-27 11:46:05.90	63.97	9.69	-40.1	-41.2	18.5	0.00e+00	0	44	0	179306496	50	4124
2026-01-27 11:46:06.89	63.81	9.72	-40.2	-41.3	18.4	0.00e+00	0	43	0	186646528	50	4188
2026-01-27 11:46:07.89	63.65	9.76	-40.3	-41.4	18.3	0.00e+00	0	44	0	193986560	50	4237
2026-01-27 11:46:08.89	63.49	9.79	-40.4	-41.5	18.3	0.00e+00	0	43	0	201326592	50	4258
2026-01-27 11:46:09.88	63.33	9.83	-40.4	-41.5	18.3	0.00e+00	0	44	0	208666624	50	4256
2026-01-27 11:46:10.87	63.17	9.86	-40.4	-41.5	18.3	0.00e+00	0	44	0	214958080	50	4276
2026-01-27 11:46:11.87	63.00	9.90	-40.5	-41.6	18.1	0.00e+00	0	44	0	222298112	50	4328
2026-01-27 11:46:12.86	62.84	9.93	-40.6	-41.8	18.0	0.00e+00	0	44	0	229638144	50	4396
2026-01-27 11:46:13.86	62.68	9.97	-40.6	-41.8	18.0	0.00e+00	0	44	0	236978176	50	4393
2026-01-27 11:46:14.85	62.51	10.00	-40.6	-41.8	18.0	0.00e+00	0	44	0	244318208	50	4414
2026-01-27 11:46:15.85	62.35	10.03	-40.6	-41.7	18.1	0.00e+00	0	44	0	251658240	50	4372
2026-01-27 11:46:16.84	62.18	10.07	-40.7	-41.9	17.9	0.00e+00	0	44	0	257949696	50	4449
2026-01-27 11:46:17.84	62.02	10.10	-40.5	-41.6	18.2	0.00e+00	0	44	0	265289728	50	4332
2026-01-27 11:46:18.83	61.85	10.13	-40.4	-41.5	18.3	0.00e+00	0	44	0	272629760	50	4264
2026-01-27 11:46:19.83	61.69	10.17	-40.4	-41.5	18.3	0.00e+00	0	44	0	279969792	50	4264
2026-01-27 11:46:20.82	61.52	10.20	-40.3	-41.4	18.4	0.00e+00	0	44	0	287309824	50	4217
2026-01-27 11:46:21.81	61.35	10.23	-40.2	-41.2	18.5	0.00e+00	0	44	0	294649856	50	4143
2026-01-27 11:46:22.81	61.19	10.27	-40.3	-41.4	18.4	0.00e+00	0	44	0	300941312	50	4199
2026-01-27 11:46:23.80	61.02	10.30	-40.2	-41.2	18.5	0.00e+00	0	43	0	308281344	50	4144
2026-01-27 11:46:24.79	60.85	10.33	-40.1	-41.2	18.6	0.00e+00	0	44	0	315621376	50	4125
2026-01-27 11:46:25.79	60.68	10.36	-40.1	-41.2	18.6	0.00e+00	0	44	0	322961408	50	4100
2026-01-27 11:46:26.78	60.51	10.39	-40.0	-41.1	18.7	0.00e+00	0	44	0	330301440	50	4063
2026-01-27 11:46:27.78	60.34	10.43	-40.0	-41.0	18.8	0.00e+00	0	44	0	337641472	50	4048
2026-01-27 11:46:28.77	60.18	10.46	-40.0	-41.1	18.7	0.00e+00	0	44	0	344981504	50	4080
2026-01-27 11:46:29.77	60.01	10.49	-39.8	-40.9	18.9	0.00e+00	0	44	0	352321536	50	3980
2026-01-27 11:46:30.76	59.84	10.52	-39.9	-40.9	18.9	0.00e+00	0	44	0	358612992	50	3989
2026-01-27 11:46:31.76	59.67	10.55	-39.9	-41.0	18.8	0.00e+00	0	44	0	365953024	50	4013
2026-01-27 11:46:32.75	59.50	10.58	-39.9	-41.0	18.8	0.00e+00	0	44	0	373293056	50	4017
2026-01-27 11:46:33.75	59.32	10.61	-39.9	-41.0	18.8	0.00e+00	0	43	0	380633088	50	4011
2026-01-27 11:46:34.74	59.15	10.64	-39.9	-41.0	18.8	0.00e+00	0	44	0	387973120	50	4016
2026-01-27 11:46:35.74	58.98	10.67	-39.7	-40.8	19.0	0.00e+00	0	44	0	395313152	50	3923
2026-01-27 11:46:36.73	58.81	10.70	-39.8	-40.8	19.0	0.00e+00	0	44	0	401604608	50	3947
2026-01-27 11:46:37.73	58.63	10.73	-39.9	-40.9	18.9	0.00e+00	0	44	0	408944640	50	3984
2026-01-27 11:46:38.72	58.46	10.76	-39.9	-40.9	18.9	0.00e+00	0	44	0	416284672	50	3996
2026-01-27 11:46:39.71	58.29	10.79	-40.1	-41.2	18.6	0.00e+00	0	44	0	423624704	50	4118
2026-01-27 11:46:40.71	58.12	10.82	-40.1	-41.1	18.7	0.00e+00	0	43	0	430964736	50	4090
2026-01-27 11:46:41.70	57.94	10.85	-40.1	-41.2	18.6	0.00e+00	0	44	0	438304768	50	4128
2026-01-27 11:46:42.70	57.77	10.88	-39.8	-40.9	19.0	0.00e+00	0	44	0	444596224	50	3964
2026-01-27 11:46:43.70	57.59	10.90	-39.9	-40.9	18.9	0.00e+00	0	44	0	451936256	50	3986
2026-01-27 11:46:44.69	57.42	10.93	-39.9	-41.0	18.8	0.00e+00	0	44	0	459276288	50	4026
2026-01-27 11:46:45.69	57.24	10.96	-39.9	-41.0	18.8	0.00e+00	0	44	0	466616320	50	4011
2026-01-27 11:46:46.68	57.07	10.99	-39.9	-40.9	18.9	0.00e+00	0	44	0	473956352	50	3992
2026-01-27 11:46:47.68	56.89	11.01	-39.9	-41.0	18.8	0.00e+00	0	44	0	481296384	50	4029
2026-01-27 11:46:48.67	56.71	11.04	-40.0	-41.1	18.7	0.00e+00	0	44	0	488636416	50	4072
2026-01-27 11:46:49.67	56.54	11.07	-40.1	-41.2	18.6	0.00e+00	0	44	0	495976448	50	4109
2026-01-27 11:46:50.66	56.36	11.09	-40.2	-41.3	18.6	0.00e+00	0	44	0	502267904	50	4161
2026-01-27 11:46:51.66	56.18	11.12	-40.2	-41.3	18.6	0.00e+00	0	44	0	509607936	50	4160
2026-01-27 11:46:52.65	56.00	11.15	-40.1	-41.2	18.7	0.00e+00	0	44	0	516947968	50	4127
2026-01-27 11:46:53.65	55.83	11.17	-40.3	-41.4	18.4	0.00e+00	0	44	0	524288000	50	4239
2026-01-27 11:46:54.64	55.65	11.20	-40.3	-41.3	18.5	0.00e+00	0	44	0	531628032	50	4186
2026-01-27 11:46:55.63	55.47	11.22	-40.4	-41.5	18.4	0.00e+00	0	44	0	538968064	50	4249
2026-01-27 11:46:56.63	55.29	11.25	-40.2	-41.3	18.6	0.00e+00	0	44	0	545259520	50	4151
2026-01-27 11:46:57.62	55.11	11.27	-40.1	-41.2	18.7	0.00e+00	0	44	0	552599552	50	4118
2026-01-27 11:46:58.62	54.93	11.30	-40.2	-41.3	18.5	0.00e+00	0	44	0	559939584	50	4172
2026-01-27 11:46:59.61	54.75	11.32	-40.2	-41.3	18.6	0.00e+00	0	44	0	567279616	50	4179
2026-01-27 11:47:00.58	54.58	11.35	-40.1	-41.2	18.7	0.00e+00	0	44	0	574619648	50	4105
2026-01-27 11:47:01.58	54.40	11.37	-40.0	-41.0	18.8	0.00e+00	0	44	0	581959680	50	4037
2026-01-27 11:47:02.57	54.22	11.39	-39.9	-40.9	18.9	0.00e+00	0	44	0	588251136	50	3990
2026-01-27 11:47:03.57	54.03	11.42	-39.8	-40.8	19.0	0.00e+00	0	44	0	595591168	49	4168
2026-01-27 11:47:04.56	53.85	11.44	-39.7	-40.7	19.0	0.00e+00	0	44	0	602931200	49	4144
2026-01-27 11:47:05.56	53.67	11.46	-39.5	-40.5	19.3	0.00e+00	0	44	0	610271232	49	4035
2026-01-27 11:47:06.55	53.49	11.49	-39.7	-40.8	19.0	0.00e+00	0	44	0	617611264	49	4162
2026-01-27 11:47:07.54	53.31	11.51	-39.7	-40.8	19.0	0.00e+00	0	44	0	623902720	49	4149
2026-01-27 11:47:08.54	53.13	11.53	-39.7	-40.7	19.1	0.00e+00	0	44	0	631242752	49	4141
2026-01-27 11:47:09.54	52.94	11.55	-39.7	-40.7	19.0	0.00e+00	0	44	0	638582784	49	4139
2026-01-27 11:47:10.53	52.76	11.58	-39.6	-40.6	19.2	0.00e+00	0	44	0	645922816	49	4079
2026-01-27 11:47:11.53	52.58	11.60	-39.6	-40.6	19.2	0.00e+00	0	44	0	653262848	49	4065
2026-01-27 11:47:12.52	52.39	11.62	-39.7	-40.8	19.1	0.00e+00	0	44	0	660602880	49	4155
2026-01-27 11:47:13.52	52.21	11.64	-39.8	-40.9	19.0	0.00e+00	0	44	0	667942912	49	4202
2026-01-27 11:47:14.51	52.03	11.66	-39.8	-40.9	19.0	0.00e+00	0	44	0	674234368	49	4194
2026-01-27 11:47:15.51	51.84	11.68	-39.7	-40.7	19.1	0.00e+00	0	44	0	681574400	49	4143
2026-01-27 11:47:16.51	51.65	11.70	-39.9	-41.0	18.8	0.00e+00	0	44	0	688914432	49	4248
2026-01-27 11:47:17.50	51.47	11.72	-39.9	-41.0	18.8	0.00e+00	0	44	0	696254464	49	4267
2026-01-27 11:47:18.50	51.28	11.74	-39.8	-40.9	18.9	0.00e+00	0	44	0	703594496	49	4197
2026-01-27 11:47:19.49	51.10	11.76	-39.9	-40.9	18.9	0.00e+00	0	44	0	710934528	49	4241
2026-01-27 11:47:20.49	50.91	11.78	-39.8	-40.8	19.0	0.00e+00	0	44	0	718274560	49	4169
2026-01-27 11:47:21.48	50.73	11.80	-39.8	-40.8	19.0	0.00e+00	0	44	0	725614592	49	4190
2026-01-27 11:47:22.48	50.54	11.81	-39.9	-41.0	18.9	0.00e+00	0	44	0	731906048	49	4249
2026-01-27 11:47:23.47	50.36	11.83	-39.9	-40.9	18.9	0.00e+00	0	44	0	739246080	49	4225
2026-01-27 11:47:24.47	50.17	11.85	-39.8	-40.9	19.0	0.00e+00	0	44	0	746586112	49	4202
2026-01-27 11:47:25.46	49.98	11.87	-39.9	-41.0	18.8	0.00e+00	0	44	0	753926144	49	4275
2026-01-27 11:47:26.46	49.80	11.88	-40.0	-41.1	18.7	0.00e+00	0	44	0	761266176	49	4309
2026-01-27 11:47:27.45	49.61	11.90	-40.0	-41.0	18.8	0.00e+00	0	44	0	767557632	49	4281
2026-01-27 11:47:28.45	49.42	11.92	-40.1	-41.1	18.7	0.00e+00	0	44	0	774897664	49	4340
2026-01-27 11:47:29.44	49.23	11.93	-39.9	-40.9	18.9	0.00e+00	0	44	0	782237696	49	4234
2026-01-27 11:47:30.44	49.05	11.95	-39.8	-40.9	19.0	0.00e+00	0	44	0	789577728	49	4194
2026-01-27 11:47:31.43	48.86	11.97	-39.9	-40.9	18.9	0.00e+00	0	44	0	796917760	49	4239
2026-01-27 11:47:32.43	48.67	11.98	-39.8	-40.9	18.9	0.00e+00	0	44	0	804257792	49	4218
2026-01-27 11:47:33.42	48.48	12.00	-39.8	-40.8	19.0	0.00e+00	0	44	0	811597824	49	4178
2026-01-27 11:47:34.42	48.29	12.01	-39.7	-40.8	19.1	0.00e+00	0	44	0	818937856	49	4156
2026-01-27 11:47:35.41	48.10	12.03	-39.6	-40.6	19.2	0.00e+00	0	44	0	825229312	49	4092
2026-01-27 11:47:36.40	47.92	12.04	-39.6	-40.6	19.3	0.00e+00	0	44	0	832569344	49	4068
2026-01-27 11:47:37.40	47.73	12.06	-39.6	-40.6	19.2	0.00e+00	0	44	0	839909376	49	4090
2026-01-27 11:47:38.39	47.54	12.07	-39.6	-40.7	19.2	0.00e+00	0	44	0	847249408	49	4102
2026-01-27 11:47:39.39	47.35	12.08	-39.7	-40.7	19.2	0.00e+00	0	44	0	854589440	49	4121
2026-01-27 11:47:40.38	47.16	12.10	-39.5	-40.5	19.3	0.00e+00	0	44	0	861929472	49	4036
2026-01-27 11:47:41.38	46.97	12.11	-39.5	-40.6	19.3	0.00e+00	0	44	0	869269504	49	4053
2026-01-27 11:47:42.38	46.78	12.12	-39.7	-40.7	19.2	0.00e+00	0	44	0	875560960	49	4116
2026-01-27 11:47:43.37	46.59	12.13	-39.6	-40.7	19.2	0.00e+00	0	44	0	882900992	49	4112
2026-01-27 11:47:44.37	46.40	12.15	-39.7	-40.7	19.2	0.00e+00	0	44	0	890241024	49	4134
2026-01-27 11:47:45.36	46.21	12.16	-39.7	-40.7	19.2	0.00e+00	0	44	0	897581056	49	4121
2026-01-27 11:47:46.36	46.02	12.17	-39.7	-40.7	19.1	0.00e+00	0	44	0	904921088	49	4126
2026-01-27 11:47:47.35	45.83	12.18	-39.5	-40.6	19.3	0.00e+00	0	44	0	911212544	49	4052
2026-01-27 11:47:48.35	45.63	12.19	-39.5	-40.5	19.3	0.00e+00	0	44	0	918552576	49	4031
2026-01-27 11:47:49.34	45.44	12.20	-39.4	-40.4	19.4	0.00e+00	0	44	0	925892608	49	4001
2026-01-27 11:47:50.34	45.25	12.21	-39.4	-40.4	19.4	0.00e+00	0	44	0	933232640	49	3973
2026-01-27 11:47:51.34	45.06	12.22	-39.4	-40.4	19.3	0.00e+00	0	44	0	940572672	49	4000
2026-01-27 11:47:52.33	44.87	12.23	-39.4	-40.4	19.4	0.00e+00	0	44	0	947912704	49	3964
2026-01-27 11:47:53.33	44.68	12.24	-39.5	-40.5	19.4	0.00e+00	0	44	0	955252736	49	4012
2026-01-27 11:47:54.32	44.49	12.25	-39.5	-40.5	19.3	0.00e+00	0	44	0	962592768	49	4029
2026-01-27 11:47:55.31	44.29	12.26	-39.5	-40.5	19.2	0.00e+00	0	44	0	969932800	49	4049
2026-01-27 11:47:56.31	44.10	12.26	-39.5	-40.5	19.4	0.00e+00	0	44	0	976224256	49	4020
2026-01-27 11:47:57.31	43.91	12.27	-39.6	-40.6	19.2	0.00e+00	0	44	0	983564288	49	4094
2026-01-27 11:47:58.30	43.72	12.28	-39.5	-40.5	19.3	0.00e+00	0	44	0	990904320	49	4047
2026-01-27 11:47:59.29	43.53	12.29	-39.5	-40.5	19.4	0.00e+00	0	44	0	998244352	49	4021
2026-01-27 11:48:00.29	43.33	12.29	-39.5	-40.5	19.3	0.00e+00	0	44	0	1005584384	49	4050
2026-01-27 11:48:01.28	43.14	12.30	-39.5	-40.5	19.3	0.00e+00	0	44	0	1012924416	49	4027
2026-01-27 11:48:02.28	42.95	12.31	-39.4	-40.5	19.3	0.00e+00	0	44	0	1019215872	49	4017
2026-01-27 11:48:03.27	42.76	12.31	-39.5	-40.6	19.2	0.00e+00	0	44	0	1026555904	49	4057
2026-01-27 11:48:04.27	42.56	12.32	-39.4	-40.5	19.3	0.00e+00	0	44	0	1033895936	49	4015
2026-01-27 11:48:05.27	42.37	12.33	-39.5	-40.5	19.2	0.00e+00	0	44	0	1041235968	49	4047
2026-01-27 11:48:06.26	42.18	12.33	-39.5	-40.5	19.3	0.00e+00	0	44	0	1048576000	49	4046
2026-01-27 11:48:07.25	41.99	12.34	-39.5	-40.5	19.3	0.00e+00	0	44	0	1054867456	49	4040
2026-01-27 11:48:08.25	41.79	12.34	-39.4	-40.4	19.3	0.00e+00	0	44	0	1062207488	49	4003
2026-01-27 11:48:09.24	41.60	12.34	-39.4	-40.4	19.3	0.00e+00	0	44	0	1069547520	49	3997
2026-01-27 11:48:10.24	41.41	12.35	-39.4	-40.4	19.4	0.00e+00	0	44	0	1076887552	49	3976
2026-01-27 11:48:11.23	41.21	12.35	-39.3	-40.4	19.4	0.00e+00	0	44	0	1084227584	49	3960
2026-01-27 11:48:12.23	41.02	12.35	-39.2	-40.2	19.6	0.00e+00	0	44	0	1091567616	49	3878
2026-01-27 11:48:13.23	40.83	12.36	-39.3	-40.3	19.5	0.00e+00	0	44	0	1098907648	49	3914
2026-01-27 11:48:14.22	40.63	12.36	-39.3	-40.3	19.5	0.00e+00	0	44	0	1106247680	49	3944
2026-01-27 11:48:15.22	40.44	12.36	-39.3	-40.3	19.5	0.00e+00	0	44	0	1113587712	49	3937
2026-01-27 11:48:16.21	40.25	12.36	-39.3	-40.3	19.5	0.00e+00	0	44	0	1119879168	49	3958
2026-01-27 11:48:17.21	40.05	12.37	-39.3	-40.3	19.5	0.00e+00	0	44	0	1127219200	49	3948
2026-01-27 11:48:18.20	39.86	12.37	-39.1	-40.1	19.7	0.00e+00	0	44	0	1134559232	49	3849
2026-01-27 11:48:19.20	39.67	12.37	-39.1	-40.1	19.6	0.00e+00	0	44	0	1141899264	48	4083
2026-01-27 11:48:20.19	39.47	12.37	-39.2	-40.2	19.5	0.00e+00	0	44	0	1149239296	48	4133
2026-01-27 11:48:21.19	39.28	12.37	-39.2	-40.2	19.4	0.00e+00	0	44	0	1155530752	48	4124
2026-01-27 11:48:22.18	39.09	12.37	-39.1	-40.1	19.5	0.00e+00	0	44	0	1162870784	48	4087
2026-01-27 11:48:23.18	38.89	12.37	-39.3	-40.3	19.2	0.00e+00	0	44	0	1170210816	48	4173
2026-01-27 11:48:24.17	38.70	12.37	-39.3	-40.3	19.2	0.00e+00	0	44	0	1177550848	48	4163
2026-01-27 11:48:25.17	38.51	12.37	-39.4	-40.5	19.0	0.00e+00	0	44	0	1184890880	48	4243
2026-01-27 11:48:26.16	38.31	12.37	-39.3	-40.4	19.0	0.00e+00	0	44	0	1192230912	48	4215
2026-01-27 11:48:27.15	38.12	12.37	-39.5	-40.5	18.8	0.00e+00	0	44	0	1198522368	48	4287
2026-01-27 11:48:28.15	37.93	12.36	-39.6	-40.7	18.6	0.00e+00	0	44	0	1205862400	48	4378
2026-01-27 11:48:29.14	37.74	12.36	-39.5	-40.6	18.7	0.00e+00	0	44	0	1213202432	48	4326
2026-01-27 11:48:30.13	37.54	12.36	-39.4	-40.4	18.9	0.00e+00	0	44	0	1220542464	48	4240
2026-01-27 11:48:31.13	37.35	12.36	-39.4	-40.5	19.0	0.00e+00	0	44	0	1227882496	48	4246
2026-01-27 11:48:32.12	37.16	12.35	-39.4	-40.4	19.2	0.00e+00	0	44	0	1235222528	48	4214
2026-01-27 11:48:33.12	36.96	12.35	-39.4	-40.4	19.3	0.00e+00	0	44	0	1242562560	48	4239
2026-01-27 11:48:34.11	36.77	12.35	-39.4	-40.4	19.4	0.00e+00	0	44	0	1249902592	48	4211
2026-01-27 11:48:35.11	36.58	12.34	-39.5	-40.5	19.3	0.00e+00	0	44	0	1257242624	48	4261
2026-01-27 11:48:36.10	36.39	12.34	-39.4	-40.5	19.4	0.00e+00	0	44	0	1263534080	48	4254
2026-01-27 11:48:37.10	36.19	12.33	-39.5	-40.6	19.3	0.00e+00	0	44	0	1270874112	48	4294
2026-01-27 11:48:38.09	36.00	12.33	-39.5	-40.6	19.2	0.00e+00	0	44	0	1278214144	48	4304
2026-01-27 11:48:39.08	35.81	12.32	-39.5	-40.6	19.2	0.00e+00	0	44	0	1285554176	48	4296
2026-01-27 11:48:40.07	35.62	12.32	-39.5	-40.6	19.1	0.00e+00	0	44	0	1292894208	48	4305
2026-01-27 11:48:41.07	35.42	12.31	-39.6	-40.7	19.0	0.00e+00	0	44	0	1299185664	48	4373
2026-01-27 11:48:42.06	35.23	12.30	-39.5	-40.5	19.2	0.00e+00	0	44	0	1306525696	48	4279
2026-01-27 11:48:43.06	35.04	12.30	-39.5	-40.6	19.2	0.00e+00	0	44	0	1313865728	48	4307
2026-01-27 11:48:44.05	34.85	12.29	-39.5	-40.6	19.3	0.00e+00	0	44	0	1321205760	48	4298
2026-01-27 11:48:45.05	34.66	12.28	-39.5	-40.5	19.4	0.00e+00	0	44	0	1328545792	48	4248
2026-01-27 11:48:46.04	34.46	12.28	-39.3	-40.3	19.5	0.00e+00	0	44	0	1335885824	48	4184
2026-01-27 11:48:47.04	34.27	12.27	-39.6	-40.7	19.2	0.00e+00	0	44	0	1342177280	48	4344
2026-01-27 11:48:48.03	34.08	12.26	-39.7	-40.7	19.1	0.00e+00	0	44	0	1349517312	48	4391
2026-01-27 11:48:49.02	33.89	12.25	-39.7	-40.7	19.1	0.00e+00	0	44	0	1356857344	48	4362
2026-01-27 11:48:50.02	33.70	12.24	-39.8	-40.9	19.0	0.00e+00	0	44	0	1364197376	49	4200
2026-01-27 11:48:51.01	33.51	12.23	-39.5	-40.6	19.2	0.00e+00	0	44	0	1371537408	49	4068
2026-01-27 11:48:52.01	33.31	12.22	-39.7	-40.8	19.1	0.00e+00	0	44	0	1378877440	49	4147
2026-01-27 11:48:53.00	33.12	12.21	-39.6	-40.6	19.2	0.00e+00	0	44	0	1385168896	49	4096
2026-01-27 11:48:54.00	32.93	12.20	-39.4	-40.5	19.3	0.00e+00	0	44	0	1392508928	49	4030
2026-01-27 11:48:54.99	32.74	12.19	-39.5	-40.5	19.3	0.00e+00	0	44	0	1399848960	49	4038
2026-01-27 11:48:55.99	32.55	12.18	-39.6	-40.7	19.2	0.00e+00	0	44	0	1407188992	49	4104
2026-01-27 11:48:56.98	32.36	12.17	-39.6	-40.7	19.2	0.00e+00	0	44	0	1414529024	49	4104
2026-01-27 11:48:57.98	32.17	12.16	-39.7	-40.8	19.1	0.00e+00	0	44	0	1421869056	49	4153
2026-01-27 11:48:58.98	31.98	12.15	-39.4	-40.5	19.3	0.00e+00	0	44	0	1429209088	49	4020
2026-01-27 11:48:59.97	31.79	12.14	-39.3	-40.3	19.5	0.00e+00	0	44	0	1436549120	49	3950
2026-01-27 11:49:00.96	31.60	12.13	-39.4	-40.4	19.4	0.00e+00	0	44	0	1442840576	49	3982
2026-01-27 11:49:01.96	31.41	12.11	-39.5	-40.5	19.3	0.00e+00	0	44	0	1450180608	49	4031
2026-01-27 11:49:02.95	31.22	12.10	-39.5	-40.5	19.3	0.00e+00	0	44	0	1457520640	49	4043
2026-01-27 11:49:03.95	31.03	12.09	-39.4	-40.4	19.4	0.00e+00	0	44	0	1464860672	49	3995
2026-01-27 11:49:04.94	30.84	12.07	-39.4	-40.5	19.4	0.00e+00	0	44	0	1472200704	49	4009
2026-01-27 11:49:05.94	30.65	12.06	-39.5	-40.5	19.3	0.00e+00	0	44	0	1479540736	49	4033
2026-01-27 11:49:06.94	30.46	12.05	-39.6	-40.7	19.2	0.00e+00	0	44	0	1485832192	49	4107
2026-01-27 11:49:07.93	30.27	12.03	-39.5	-40.6	19.3	0.00e+00	0	44	0	1493172224	49	4052
2026-01-27 11:49:08.92	30.09	12.02	-39.6	-40.6	19.2	0.00e+00	0	44	0	1500512256	49	4083
2026-01-27 11:49:09.92	29.90	12.00	-39.4	-40.4	19.4	0.00e+00	0	44	0	1507852288	49	3991
2026-01-27 11:49:10.91	29.71	11.99	-39.4	-40.5	19.4	0.00e+00	0	44	0	1515192320	49	4007
2026-01-27 11:49:11.91	29.52	11.97	-39.2	-40.2	19.6	0.00e+00	0	44	0	1522532352	49	3888
2026-01-27 11:49:12.90	29.33	11.96	-39.3	-40.3	19.5	0.00e+00	0	44	0	1528823808	49	3936
2026-01-27 11:49:13.89	29.15	11.94	-39.3	-40.3	19.5	0.00e+00	0	44	0	1536163840	48	4171
2026-01-27 11:49:14.89	28.96	11.93	-39.4	-40.4	19.4	0.00e+00	0	44	0	1543503872	48	4230
2026-01-27 11:49:15.88	28.77	11.91	-39.3	-40.3	19.5	0.00e+00	0	44	0	1550843904	48	4186
2026-01-27 11:49:16.88	28.58	11.89	-39.2	-40.3	19.6	0.00e+00	0	44	0	1558183936	48	4151
2026-01-27 11:49:17.87	28.40	11.87	-39.3	-40.3	19.5	0.00e+00	0	44	0	1565523968	48	4180
2026-01-27 11:49:18.87	28.21	11.86	-39.2	-40.3	19.5	0.00e+00	0	44	0	1572864000	48	4147
2026-01-27 11:49:19.86	28.02	11.84	-39.3	-40.3	19.5	0.00e+00	0	44	0	1580204032	48	4171
2026-01-27 11:49:20.85	27.84	11.82	-39.3	-40.4	19.5	0.00e+00	0	44	0	1586495488	48	4195
2026-01-27 11:49:21.85	27.65	11.80	-39.2	-40.2	19.6	0.00e+00	0	44	0	1593835520	48	4113
2026-01-27 11:49:22.84	27.47	11.79	-39.2	-40.3	19.5	0.00e+00	0	44	0	1601175552	48	4159
2026-01-27 11:49:23.84	27.28	11.77	-39.2	-40.3	19.5	0.00e+00	0	44	0	1608515584	48	4152
2026-01-27 11:49:24.83	27.10	11.75	-39.2	-40.3	19.6	0.00e+00	0	44	0	1615855616	48	4147
2026-01-27 11:49:25.83	26.91	11.73	-39.2	-40.2	19.6	0.00e+00	0	44	0	1623195648	48	4133
2026-01-27 11:49:26.82	26.73	11.71	-39.1	-40.1	19.7	0.00e+00	0	44	0	1629487104	48	4084
2026-01-27 11:49:27.81	26.54	11.69	-39.1	-40.1	19.7	0.00e+00	0	44	0	1636827136	48	4063
2026-01-27 11:49:28.81	26.36	11.67	-39.2	-40.2	19.6	0.00e+00	0	44	0	1644167168	48	4122
2026-01-27 11:49:29.80	26.18	11.65	-39.1	-40.1	19.7	0.00e+00	0	44	0	1651507200	48	4098
2026-01-27 11:49:30.80	25.99	11.63	-39.1	-40.2	19.6	0.00e+00	0	44	0	1658847232	48	4104
2026-01-27 11:49:31.79	25.81	11.61	-39.1	-40.2	19.6	0.00e+00	0	44	0	1666187264	48	4130
2026-01-27 11:49:32.79	25.63	11.58	-39.2	-40.3	19.5	0.00e+00	0	44	0	1672478720	48	4156
2026-01-27 11:49:33.78	25.44	11.56	-39.1	-40.2	19.6	0.00e+00	0	44	0	1679818752	48	4129
2026-01-27 11:49:34.78	25.26	11.54	-39.2	-40.2	19.5	0.00e+00	0	44	0	1687158784	48	4145
2026-01-27 11:49:35.77	25.08	11.52	-39.2	-40.2	19.6	0.00e+00	0	44	0	1694498816	48	4124
2026-01-27 11:49:36.77	24.90	11.50	-39.3	-40.4	19.4	0.00e+00	0	44	0	1701838848	48	4200
2026-01-27 11:49:37.76	24.72	11.47	-39.3	-40.3	19.5	0.00e+00	0	44	0	1709178880	48	4188
2026-01-27 11:49:38.76	24.53	11.45	-39.4	-40.4	19.4	0.00e+00	0	44	0	1715470336	48	4236
2026-01-27 11:49:39.75	24.35	11.43	-39.2	-40.2	19.6	0.00e+00	0	44	0	1722810368	48	4138
2026-01-27 11:49:40.75	24.17	11.41	-39.1	-40.1	19.6	0.00e+00	0	44	0	1730150400	48	4097
2026-01-27 11:49:41.74	23.99	11.38	-39.4	-40.4	19.4	0.00e+00	0	44	0	1737490432	48	4241
2026-01-27 11:49:42.73	23.81	11.36	-39.3	-40.4	19.4	0.00e+00	0	44	0	1744830464	48	4204
2026-01-27 11:49:43.73	23.63	11.33	-39.2	-40.2	19.6	0.00e+00	0	44	0	1752170496	48	4106
2026-01-27 11:49:44.72	23.45	11.31	-39.3	-40.4	19.4	0.00e+00	0	44	0	1759510528	48	4199
2026-01-27 11:49:45.72	23.27	11.29	-39.6	-40.7	19.2	0.00e+00	0	44	0	1766850560	48	4348
2026-01-27 11:49:46.71	23.09	11.26	-39.5	-40.5	19.3	0.00e+00	0	44	0	1773142016	48	4269
2026-01-27 11:49:47.71	22.92	11.24	-39.3	-40.3	19.5	0.00e+00	0	44	0	1780482048	48	4185
2026-01-27 11:49:48.70	22.74	11.21	-39.4	-40.4	19.4	0.00e+00	0	44	0	1787822080	48	4226
2026-01-27 11:49:49.70	22.56	11.18	-39.2	-40.3	19.5	0.00e+00	0	44	0	1795162112	48	4163
2026-01-27 11:49:50.69	22.38	11.16	-39.4	-40.5	19.3	0.00e+00	0	44	0	1802502144	48	4286
2026-01-27 11:49:51.68	22.21	11.13	-39.3	-40.4	19.3	0.00e+00	0	44	0	1809842176	48	4221
2026-01-27 11:49:52.68	22.03	11.11	-39.3	-40.4	19.4	0.00e+00	0	44	0	1816133632	48	4212
2026-01-27 11:49:53.67	21.85	11.08	-39.2	-40.4	19.4	0.00e+00	0	44	0	1823473664	48	4213
2026-01-27 11:49:54.67	21.67	11.05	-39.2	-40.4	19.3	0.00e+00	0	44	0	1830813696	48	4210
2026-01-27 11:49:55.66	21.50	11.03	-39.3	-40.5	19.3	0.00e+00	0	44	0	1838153728	48	4247
2026-01-27 11:49:56.66	21.32	11.00	-39.3	-40.4	19.3	0.00e+00	0	44	0	1845493760	48	4231
2026-01-27 11:49:57.65	21.15	10.97	-39.5	-40.7	19.1	0.00e+00	0	44	0	1851785216	48	4352
2026-01-27 11:49:58.65	20.97	10.94	-39.4	-40.5	19.3	0.00e+00	0	44	0	1859125248	48	4271
2026-01-27 11:49:59.65	20.80	10.92	-39.5	-40.7	19.1	0.00e+00	0	44	0	1866465280	48	4350
2026-01-27 11:50:00.64	20.62	10.89	-39.5	-40.7	19.1	0.00e+00	0	44	0	1873805312	48	4354
2026-01-27 11:50:01.64	20.45	10.86	-39.6	-40.8	19.0	0.00e+00	0	44	0	1881145344	48	4402
2026-01-27 11:50:02.63	20.27	10.83	-39.5	-40.7	19.1	0.00e+00	0	44	0	1888485376	48	4353
2026-01-27 11:50:03.63	20.10	10.80	-39.7	-40.9	18.9	0.00e+00	0	44	0	1895825408	48	4449
2026-01-27 11:50:04.62	19.93	10.77	-39.7	-40.8	19.0	0.00e+00	0	44	0	1903165440	48	4435
2026-01-27 11:50:05.61	19.76	10.74	-39.7	-40.8	19.0	0.00e+00	0	44	0	1910505472	49	4154
2026-01-27 11:50:06.61	19.58	10.71	-39.8	-40.9	18.9	0.00e+00	0	44	0	1916796928	49	4201
2026-01-27 11:50:07.61	19.41	10.68	-39.9	-41.0	18.8	0.00e+00	0	44	0	1924136960	49	4264
2026-01-27 11:50:08.60	19.24	10.66	-39.8	-40.9	18.9	0.00e+00	0	44	0	1931476992	49	4196
2026-01-27 11:50:09.60	19.07	10.62	-39.7	-40.7	19.1	0.00e+00	0	44	0	1938817024	49	4129
2026-01-27 11:50:10.60	18.90	10.59	-39.7	-40.8	19.0	0.00e+00	0	44	0	1946157056	49	4170
2026-01-27 11:50:11.59	18.73	10.56	-39.7	-40.7	19.1	0.00e+00	0	44	0	1953497088	49	4123
2026-01-27 11:50:12.59	18.56	10.53	-39.7	-40.7	19.1	0.00e+00	0	44	0	1959788544	49	4129
2026-01-27 11:50:13.59	18.38	10.50	-39.8	-40.9	18.9	0.00e+00	0	44	0	1967128576	49	4200
2026-01-27 11:50:14.58	18.22	10.47	-39.5	-40.5	19.2	0.00e+00	0	44	0	1974468608	49	4041
2026-01-27 11:50:15.57	18.05	10.44	-39.5	-40.5	19.3	0.00e+00	0	44	0	1981808640	49	4028
2026-01-27 11:50:16.57	17.88	10.41	-39.5	-40.6	19.2	0.00e+00	0	44	0	1989148672	49	4069
2026-01-27 11:50:17.57	17.71	10.38	-39.6	-40.6	19.2	0.00e+00	0	44	0	1996488704	49	4093
2026-01-27 11:50:18.56	17.54	10.34	-39.3	-40.4	19.4	0.00e+00	0	44	0	2003828736	49	3988
2026-01-27 11:50:19.55	17.38	10.31	-39.5	-40.6	19.2	0.00e+00	0	44	0	2010120192	49	4084
2026-01-27 11:50:20.55	17.21	10.28	-39.4	-40.5	19.3	0.00e+00	0	44	0	2017460224	49	4037
2026-01-27 11:50:21.54	17.04	10.25	-39.4	-40.6	19.1	0.00e+00	0	44	0	2024800256	49	4069
2026-01-27 11:50:22.54	16.87	10.22	-39.4	-40.6	19.2	0.00e+00	0	44	0	2032140288	49	4052
2026-01-27 11:50:23.53	16.71	10.18	-39.4	-40.6	19.1	0.00e+00	0	44	0	2039480320	49	4093
2026-01-27 11:50:24.53	16.54	10.15	-39.5	-40.7	19.1	0.00e+00	0	44	0	2046820352	49	4114
2026-01-27 11:50:25.52	16.38	10.12	-39.6	-40.8	18.9	0.00e+00	0	44	0	2054160384	49	4185
2026-01-27 11:50:26.51	16.21	10.08	-39.5	-40.8	19.0	0.00e+00	0	44	0	2060451840	49	4148
2026-01-27 11:50:27.51	16.05	10.05	-39.5	-40.7	19.0	0.00e+00	0	44	0	2067791872	49	4125
2026-01-27 11:50:28.51	15.88	10.02	-39.6	-40.8	18.9	0.00e+00	0	44	0	2075131904	49	4186
2026-01-27 11:50:29.50	15.72	9.98	-39.4	-40.6	19.1	0.00e+00	0	44	0	2082471936	49	4090
2026-01-27 11:50:30.50	15.56	9.95	-39.5	-40.7	19.1	0.00e+00	0	44	0	2089811968	49	4123
2026-01-27 11:50:31.49	15.39	9.91	-39.7	-40.9	18.8	0.00e+00	0	44	0	2097152000	49	4237
2026-01-27 11:50:32.49	15.23	9.88	-39.7	-40.9	18.9	0.00e+00	0	44	0	2103443456	49	4228
2026-01-27 11:50:33.48	15.07	9.84	-40.0	-41.2	18.6	0.00e+00	0	44	0	2110783488	49	4356
2026-01-27 11:50:34.47	14.91	9.81	-40.0	-41.2	18.6	0.00e+00	0	44	0	2118123520	49	4350
2026-01-27 11:50:35.47	14.75	9.77	-39.8	-41.0	18.8	0.00e+00	0	44	0	2125463552	49	4269
2026-01-27 11:50:36.46	14.59	9.74	-40.1	-41.2	18.6	0.00e+00	0	44	0	2132803584	49	4381
2026-01-27 11:50:37.46	14.42	9.70	-39.9	-41.1	18.7	0.00e+00	0	44	0	2140143616	49	4310
2026-01-27 11:50:38.45	14.27	9.67	-39.8	-40.9	18.9	0.00e+00	0	44	0	2146435072	49	4208
2026-01-27 11:50:39.45	14.10	9.63	-39.9	-41.0	18.7	0.00e+00	0	44	0	2153775104	49	4280
2026-01-27 11:50:40.44	13.95	9.60	-39.9	-41.1	18.7	0.00e+00	0	44	0	2161115136	49	4293
2026-01-27 11:50:41.44	13.79	9.56	-40.0	-41.1	18.7	0.00e+00	0	44	0	2168455168	49	4318
2026-01-27 11:50:42.43	13.63	9.52	-40.0	-41.1	18.6	0.00e+00	0	44	0	2175795200	49	4334
2026-01-27 11:50:43.43	13.47	9.49	-39.9	-41.0	18.7	0.00e+00	0	44	0	2183135232	49	4277
2026-01-27 11:50:44.43	13.31	9.45	-39.9	-41.1	18.7	0.00e+00	0	44	0	2190475264	49	4304
2026-01-27 11:50:45.42	13.15	9.42	-40.0	-41.1	18.6	0.00e+00	0	44	0	2197815296	49	4339
2026-01-27 11:50:46.42	13.00	9.38	-40.1	-41.2	18.5	0.00e+00	0	44	0	2204106752	49	4391
2026-01-27 11:50:47.41	12.84	9.34	-40.1	-41.3	18.4	0.00e+00	0	44	0	2211446784	49	4439
2026-01-27 11:50:48.41	12.68	9.30	-40.2	-41.4	18.3	0.00e+00	0	44	0	2218786816	49	4485
2026-01-27 11:50:49.40	12.53	9.27	-40.1	-41.3	18.5	0.00e+00	0	44	0	2226126848	49	4404
2026-01-27 11:50:50.40	12.37	9.23	-40.0	-41.2	18.6	0.00e+00	0	44	0	2233466880	50	4109
2026-01-27 11:50:51.39	12.22	9.19	-40.3	-41.6	18.2	0.00e+00	0	44	0	2240806912	50	4307
2026-01-27 11:50:52.39	12.06	9.15	-40.0	-41.3	18.5	0.00e+00	0	44	0	2247098368	50	4156
2026-01-27 11:50:53.38	11.91	9.12	-40.1	-41.4	18.4	0.00e+00	0	44	0	2254438400	50	4226
2026-01-27 11:50:54.38	11.75	9.08	-40.1	-41.4	18.4	0.00e+00	0	44	0	2261778432	50	4217
2026-01-27 11:50:55.37	11.60	9.04	-40.1	-41.4	18.3	0.00e+00	0	44	0	2269118464	50	4237
2026-01-27 11:50:56.36	11.45	9.00	-40.2	-41.6	18.2	0.00e+00	0	44	0	2276458496	50	4299
2026-01-27 11:50:57.36	11.30	8.96	-49.2	-59.4	3.8	7.70e-01	0	44	104	2281701376	67	12527
2026-01-27 11:50:58.35	11.15	8.93	-49.4	-61.3	3.8	8.47e-01	0	44	104	2281701376	69	14025
2026-01-27 11:50:59.34	10.99	8.89	-50.6	-61.5	3.8	8.47e-01	0	44	104	2281701376	70	13510
2026-01-27 11:51:00.34	10.84	8.85	-50.4	-61.6	3.8	8.46e-01	0	44	104	2281701376	71	12886
2026-01-27 11:51:01.33	10.69	8.81	-50.4	-61.6	3.8	8.46e-01	0	44	104	2281701376	71	12858
2026-01-27 11:51:02.32	10.54	8.77	-50.6	-61.7	3.8	8.46e-01	0	44	104	2281701376	71	13005
2026-01-27 11:51:03.32	10.39	8.73	-50.6	-61.8	3.8	8.48e-01	0	44	104	2281701376	71	13127
2026-01-27 11:51:04.31	10.24	8.69	-50.9	-61.8	3.8	8.46e-01	0	44	104	2281701376	71	13168
2026-01-27 11:51:05.30	10.09	8.65	-50.8	-61.8	3.8	8.47e-01	0	44	104	2281701376	71	13213
2026-01-27 11:51:06.30	9.95	8.61	-50.9	-61.9	3.8	8.46e-01	0	44	104	2281701376	71	13270
2026-01-27 11:51:07.29	9.80	8.58	-51.2	-61.9	3.8	8.48e-01	0	44	104	2281701376	71	13318
2026-01-27 11:51:08.28	9.65	8.54	-51.2	-61.9	3.8	8.47e-01	0	44	104	2281701376	71	13402
2026-01-27 11:51:09.28	9.50	8.50	-51.0	-61.9	3.8	8.45e-01	0	44	104	2281701376	71	13330
2026-01-27 11:51:10.27	9.36	8.46	-51.0	-61.9	3.8	8.47e-01	0	44	104	2281701376	71	13349
2026-01-27 11:51:11.26	9.21	8.42	-50.7	-61.9	3.8	8.47e-01	0	44	104	2281701376	71	13381
2026-01-27 11:51:12.26	9.06	8.38	-51.1	-62.0	3.8	8.47e-01	0	44	104	2281701376	71	13456
2026-01-27 11:51:13.25	8.92	8.34	-51.2	-62.0	3.8	8.46e-01	0	44	104	2281701376	71	13456
2026-01-27 11:51:14.24	8.77	8.30	-51.0	-61.9	3.8	8.46e-01	0	44	104	2281701376	72	12554
2026-01-27 11:51:15.24	8.63	8.25	-51.1	-61.9	3.8	8.46e-01	0	44	104	2281701376	72	12633
2026-01-27 11:51:16.23	8.48	8.21	-51.0	-61.9	3.8	8.46e-01	0	44	104	2281701376	72	12629
2026-01-27 11:51:17.22	8.34	8.17	-51.0	-61.9	3.8	8.48e-01	0	44	104	2281701376	72	12559
2026-01-27 11:51:18.22	8.19	8.13	-51.0	-62.0	3.8	8.48e-01	0	44	104	2281701376	72	12710
2026-01-27 11:51:19.21	8.05	8.09	-50.9	-61.4	3.8	8.46e-01	0	44	104	2281701376	72	11872
2026-01-27 11:51:20.20	7.91	8.05	-50.8	-61.3	3.8	8.47e-01	0	44	104	2281701376	72	11695
2026-01-27 11:51:21.19	7.77	8.01	-51.0	-61.9	3.8	8.46e-01	0	44	104	2281701376	72	12663
2026-01-27 11:51:22.19	7.62	7.97	-51.1	-61.9	3.8	8.47e-01	0	44	104	2281701376	72	12622
2026-01-27 11:51:23.18	7.48	7.93	-51.1	-61.9	3.8	8.46e-01	0	44	104	2281701376	72	12600
2026-01-27 11:51:24.17	7.34	7.89	-51.1	-61.9	3.8	8.47e-01	0	44	104	2281701376	72	12632
2026-01-27 11:51:25.17	7.20	7.84	-51.1	-61.9	3.8	8.46e-01	0	44	104	2281701376	72	12541
2026-01-27 11:51:26.16	7.06	7.80	-51.1	-61.9	3.8	8.47e-01	0	44	104	2281701376	72	12523
2026-01-27 11:51:27.15	6.92	7.76	-50.9	-61.8	3.8	8.47e-01	0	44	104	2281701376	72	12493
2026-01-27 11:51:28.15	6.78	7.72	-50.8	-61.8	3.8	8.46e-01	0	44	104	2281701376	72	12388
2026-01-27 11:51:29.14	6.64	7.68	-50.7	-61.8	3.8	8.46e-01	0	44	104	2281701376	72	12414
2026-01-27 11:51:30.13	6.50	7.64	-50.8	-61.7	3.8	8.47e-01	0	44	104	2281701376	72	12322
2026-01-27 11:51:31.12	6.37	7.59	-50.8	-61.6	3.8	8.46e-01	0	44	104	2281701376	72	12223
2026-01-27 11:51:32.12	6.23	7.55	-50.8	-61.5	3.8	8.46e-01	0	44	104	2281701376	72	12093
2026-01-27 11:51:33.11	6.09	7.51	-50.6	-61.4	3.8	8.47e-01	0	44	104	2281701376	72	11898
2026-01-27 11:51:34.10	5.95	7.47	-50.5	-61.3	3.8	8.47e-01	0	44	104	2281701376	71	12395
2026-01-27 11:51:35.10	5.82	7.42	-50.5	-61.3	3.8	8.47e-01	0	44	104	2281701376	71	12376
2026-01-27 11:51:36.09	5.68	7.38	-50.5	-61.2	3.8	8.47e-01	0	44	104	2281701376	71	12335
2026-01-27 11:51:37.08	5.55	7.34	-50.4	-61.2	3.8	8.46e-01	0	44	104	2281701376	71	12304
2026-01-27 11:51:38.08	5.41	7.30	-50.4	-61.3	3.8	8.46e-01	0	44	104	2281701376	71	12396
2026-01-27 11:51:39.07	5.28	7.25	-50.4	-61.2	3.8	8.47e-01	0	44	104	2281701376	71	12277
2026-01-27 11:51:40.06	5.14	7.21	-50.4	-61.2	3.8	8.47e-01	0	44	104	2281701376	71	12308
2026-01-27 11:51:41.06	5.01	7.17	-50.4	-61.2	3.8	8.47e-01	0	44	104	2281701376	71	12260
2026-01-27 11:51:42.05	4.87	7.13	-50.4	-61.2	3.8	8.46e-01	0	44	104	2281701376	71	12297
2026-01-27 11:51:43.04	4.74	7.08	-50.4	-61.2	3.8	8.47e-01	0	44	104	2281701376	71	12269
2026-01-27 11:51:44.04	4.61	7.04	-50.4	-61.1	3.8	8.46e-01	0	44	104	2281701376	71	12228
2026-01-27 11:51:45.03	4.47	7.00	-50.4	-61.2	3.8	8.46e-01	0	44	104	2281701376	71	12304
2026-01-27 11:51:46.02	4.34	6.95	-50.4	-61.2	3.8	8.46e-01	0	44	104	2281701376	71	12272
2026-01-27 11:51:47.02	4.21	6.91	-50.4	-61.2	3.8	8.49e-01	0	44	104	2281701376	71	12268
2026-01-27 11:51:48.01	4.08	6.87	-50.4	-61.2	3.8	8.46e-01	0	44	104	2281701376	71	12266
2026-01-27 11:51:49.00	3.95	6.82	-50.4	-61.1	3.8	8.47e-01	0	44	104	2281701376	71	12195
2026-01-27 11:51:50.00	3.82	6.78	-50.4	-61.2	3.8	8.45e-01	0	44	104	2281701376	71	12310
2026-01-27 11:51:50.99	3.69	6.74	-50.4	-61.3	3.8	8.47e-01	0	44	104	2281701376	71	12385
2026-01-27 11:51:51.98	3.56	6.69	-50.4	-61.2	3.8	8.46e-01	0	44	104	2281701376	71	12289
2026-01-27 11:51:52.97	3.43	6.65	-50.4	-61.2	3.8	8.47e-01	0	44	104	2281701376	71	12309
2026-01-27 11:51:53.97	3.30	6.61	-50.4	-61.2	3.8	8.47e-01	0	44	104	2281701376	71	12285
2026-01-27 11:51:54.96	3.17	6.56	-50.4	-61.2	3.8	8.47e-01	0	44	104	2281701376	71	12271
2026-01-27 11:51:55.95	3.04	6.52	-50.4	-61.2	3.8	8.46e-01	0	44	104	2281701376	71	12241
2026-01-27 11:51:56.95	2.91	6.47	-50.4	-61.1	3.8	8.47e-01	0	44	104	2281701376	71	12228
2026-01-27 11:51:57.94	2.79	6.43	-50.4	-61.1	3.8	8.47e-01	0	44	104	2281701376	71	12203
2026-01-27 11:51:58.93	2.66	6.39	-50.4	-61.1	3.8	8.48e-01	0	44	104	2281701376	71	12205
2026-01-27 11:51:59.92	2.53	6.34	-50.3	-61.2	3.8	8.48e-01	0	44	104	2281701376	71	12254
2026-01-27 11:52:00.92	2.41	6.30	-50.4	-61.1	3.8	8.46e-01	0	44	104	2281701376	71	12195
2026-01-27 11:52:01.91	2.28	6.25	-50.4	-61.1	3.8	8.47e-01	0	44	104	2281701376	71	12174
2026-01-27 11:52:02.90	2.16	6.21	-50.4	-61.2	3.8	8.47e-01	0	44	104	2281701376	71	12258
2026-01-27 11:52:03.89	2.03	6.17	-50.4	-61.1	3.8	8.47e-01	0	44	104	2281701376	71	12186
2026-01-27 11:52:04.89	1.91	6.12	-50.4	-61.2	3.8	8.47e-01	0	44	104	2281701376	71	12250
2026-01-27 11:52:05.88	1.78	6.08	-50.4	-61.1	3.8	8.46e-01	0	44	104	2281701376	71	12225
2026-01-27 11:52:06.87	1.66	6.03	-50.4	-61.1	3.8	8.46e-01	0	44	104	2281701376	71	12163
2026-01-27 11:52:07.87	1.54	5.99	-50.4	-61.1	3.8	8.47e-01	0	44	104	2281701376	71	12170
2026-01-27 11:52:08.86	1.41	5.94	-50.4	-61.2	3.8	8.47e-01	0	44	104	2281701376	71	12263
2026-01-27 11:52:09.85	1.29	5.90	-50.4	-61.1	3.8	8.48e-01	0	44	104	2281701376	71	12219
2026-01-27 11:52:10.84	1.17	5.85	-50.4	-61.2	3.8	8.47e-01	0	44	104	2281701376	71	12247
2026-01-27 11:52:11.84	1.05	5.81	-50.4	-61.1	3.8	8.47e-01	0	44	104	2281701376	71	12181
2026-01-27 11:52:12.83	0.92	5.76	-50.3	-61.2	3.8	8.47e-01	0	44	104	2281701376	71	12303
2026-01-27 11:52:13.82	0.80	5.72	-50.4	-61.1	3.8	8.47e-01	0	44	104	2281701376	71	12231
2026-01-27 11:52:14.82	0.68	5.67	-50.4	-61.2	3.8	8.48e-01	0	44	104	2281701376	71	12254
2026-01-27 11:52:15.81	0.56	5.63	-50.4	-61.1	3.8	8.47e-01	0	44	104	2281701376	71	12147
2026-01-27 11:52:16.80	0.44	5.58	-50.4	-61.1	3.8	8.46e-01	0	44	104	2281701376	71	12216
2026-01-27 11:52:17.80	0.32	5.54	-50.3	-61.1	3.8	8.48e-01	0	44	104	2281701376	71	12231
2026-01-27 11:52:18.79	0.20	5.49	-50.4	-61.1	3.8	8.46e-01	0	44	104	2281701376	71	12126
2026-01-27 11:52:19.78	0.08	5.45	-50.4	-61.1	3.8	8.47e-01	0	44	104	2281701376	71	12139
2026-01-27 11:52:20.78	359.97	5.40	-50.3	-61.1	3.8	8.47e-01	0	44	104	2281701376	71	12203
2026-01-27 11:52:21.77	359.85	5.36	-50.3	-61.1	3.8	8.46e-01	0	44	104	2281701376	71	12204
2026-01-27 11:52:22.76	359.73	5.31	-50.3	-61.2	3.8	8.48e-01	0	44	104	2281701376	71	12298
2026-01-27 11:52:23.75	359.61	5.27	-50.3	-61.1	3.8	8.47e-01	0	44	104	2281701376	71	12228
2026-01-27 11:52:24.75	359.50	5.22	-50.3	-61.1	3.8	8.47e-01	0	44	104	2281701376	71	12206
2026-01-27 11:52:25.74	359.38	5.18	-50.4	-61.2	3.8	8.48e-01	0	44	104	2281701376	71	12279
2026-01-27 11:52:26.73	359.26	5.13	-50.3	-61.2	3.8	8.47e-01	0	44	104	2281701376	71	12274
2026-01-27 11:52:27.73	359.15	5.09	-50.3	-61.1	3.8	8.47e-01	0	44	104	2281701376	71	12142
2026-01-27 11:52:28.72	359.03	5.04	-50.3	-61.2	3.8	8.47e-01	0	44	104	2281701376	71	12256
2026-01-27 11:52:29.71	358.92	5.00	-50.3	-61.1	3.8	8.46e-01	0	44	104	2281701376	71	12226

#Closed at: 2026-01-27 11:52:30
#Recorded file [2281 MB]: D:/Data/31040_260127_144413.dat