passes_logs/2026/01/27/T1/T1__20260127_231201_NOAA_20_JPSS-1_rec.log

#Pass ID: 20260127_231201_NOAA 20 (JPSS-1)
#Satellite: NOAA 20 (JPSS-1)
#Configuration: NOAA 20
#almurnet v.1.7.20251203
#Start time: 2026-01-27 23:12:02

#Version: 2.0.20230620
#Station: T1
#Location: 37.570604 lon 55.790049 lat
#TLE: 1 43013U 17073A   26027.45344144  .00000161  00000+0  97205-4 0  9999
#TLE: 2 43013  98.7647 328.2621 0000962  21.7793 338.3424 14.19541101424503

#Time	Az	El	Level	Level2	SNR	BER	BlckErr	Temp	State	Recorded	gain1	gain2
2026-01-27 23:12:02.82	19.90	5.09	-50.3	-65.6	3.8	1.49e+00	0	41	0	0	71	21939
2026-01-27 23:12:03.81	19.93	5.16	-50.5	-65.6	3.8	1.49e+00	0	41	104	0	72	20622
2026-01-27 23:12:04.80	19.96	5.23	-50.4	-65.6	3.8	1.49e+00	0	41	104	0	72	20693
2026-01-27 23:12:05.79	19.99	5.30	-50.4	-65.7	3.8	1.49e+00	0	41	104	0	72	20806
2026-01-27 23:12:06.79	20.02	5.37	-50.4	-65.6	3.8	1.49e+00	0	41	104	0	72	20735
2026-01-27 23:12:07.78	20.05	5.44	-50.3	-65.6	3.8	1.49e+00	0	41	104	0	72	20699
2026-01-27 23:12:08.77	20.08	5.51	-50.2	-65.6	3.8	1.49e+00	0	41	104	0	72	20637
2026-01-27 23:12:09.77	20.11	5.58	-50.3	-65.6	3.8	1.49e+00	0	41	104	0	72	20587
2026-01-27 23:12:10.76	20.15	5.65	-50.3	-65.5	3.8	1.49e+00	0	41	104	0	72	20517
2026-01-27 23:12:11.75	20.18	5.72	-50.2	-65.5	3.8	1.49e+00	0	41	104	0	72	20457
2026-01-27 23:12:12.74	20.21	5.79	-50.3	-65.5	3.8	1.49e+00	0	41	104	0	72	20346
2026-01-27 23:12:13.74	20.24	5.86	-50.1	-65.4	3.8	1.49e+00	0	41	104	0	72	20152
2026-01-27 23:12:14.73	20.27	5.93	-50.1	-65.3	3.8	1.49e+00	0	41	104	0	72	20060
2026-01-27 23:12:15.72	20.31	6.00	-49.8	-65.3	3.8	1.49e+00	0	41	104	0	71	21153
2026-01-27 23:12:16.72	20.34	6.08	-49.9	-65.2	3.8	1.49e+00	0	41	104	0	71	20958
2026-01-27 23:12:17.71	20.37	6.15	-49.6	-65.1	3.8	1.49e+00	0	41	104	0	70	21759
2026-01-27 23:12:18.70	20.40	6.22	-49.4	-65.0	3.8	1.49e+00	0	41	104	0	70	21717
2026-01-27 23:12:19.70	20.44	6.29	-48.7	-64.9	3.8	1.49e+00	0	42	104	0	69	22774
2026-01-27 23:12:20.69	20.47	6.37	-49.2	-64.7	3.8	1.49e+00	0	42	104	0	69	22238
2026-01-27 23:12:21.68	20.50	6.44	-48.3	-64.9	3.8	1.49e+00	0	42	104	0	68	23975
2026-01-27 23:12:22.67	20.54	6.51	-48.3	-64.8	3.8	1.49e+00	0	42	104	0	68	23802
2026-01-27 23:12:23.67	20.57	6.58	-48.3	-64.8	3.8	1.49e+00	0	42	104	0	68	23694
2026-01-27 23:12:24.66	20.60	6.66	-48.3	-64.7	3.8	1.49e+00	0	42	104	0	68	23528
2026-01-27 23:12:25.65	20.64	6.73	-48.3	-64.6	3.8	1.49e+00	0	42	104	0	68	23119
2026-01-27 23:12:26.65	20.67	6.81	-48.3	-64.5	3.8	1.49e+00	0	42	104	0	68	22910
2026-01-27 23:12:27.64	20.71	6.88	-48.3	-64.2	3.8	1.49e+00	0	42	104	0	68	22061
2026-01-27 23:12:28.63	20.74	6.95	-48.2	-64.0	3.8	1.49e+00	0	42	104	0	68	21591
2026-01-27 23:12:29.62	20.77	7.03	-48.2	-63.8	3.8	1.49e+00	0	42	104	0	68	21096
2026-01-27 23:12:30.62	20.81	7.10	-48.2	-63.6	3.8	1.49e+00	0	42	104	0	68	20683
2026-01-27 23:12:31.61	20.84	7.18	-48.2	-63.4	3.8	1.49e+00	0	42	104	0	68	20125
2026-01-27 23:12:32.60	20.88	7.25	-48.2	-63.2	3.8	1.49e+00	0	42	104	0	68	19733
2026-01-27 23:12:33.60	20.91	7.33	-48.2	-63.1	3.8	1.49e+00	0	42	104	0	68	19476
2026-01-27 23:12:34.59	20.95	7.40	-48.2	-62.9	3.8	1.49e+00	0	42	104	0	68	19122
2026-01-27 23:12:35.58	20.98	7.48	-48.2	-62.8	3.8	1.49e+00	0	42	104	0	68	18820
2026-01-27 23:12:36.58	21.02	7.55	-48.2	-62.6	4.0	1.48e+00	0	42	104	0	68	18369
2026-01-27 23:12:37.57	21.06	7.63	-48.2	-62.7	3.8	1.49e+00	0	42	104	0	68	18701
2026-01-27 23:12:38.56	21.09	7.71	-48.2	-62.6	3.8	1.49e+00	0	42	104	0	68	18330
2026-01-27 23:12:39.56	21.13	7.78	-48.2	-62.7	3.8	1.49e+00	0	42	104	0	68	18593
2026-01-27 23:12:40.55	21.16	7.86	-48.2	-62.5	3.8	1.49e+00	0	42	104	0	68	18284
2026-01-27 23:12:41.54	21.20	7.94	-48.2	-62.5	3.8	1.48e+00	0	42	104	0	68	18273
2026-01-27 23:12:42.54	21.24	8.01	-48.2	-62.5	3.8	1.48e+00	0	42	104	0	68	18299
2026-01-27 23:12:43.53	21.27	8.09	-48.2	-62.3	3.9	1.47e+00	0	42	104	0	68	17814
2026-01-27 23:12:44.52	21.31	8.17	-48.2	-62.0	4.0	1.48e+00	0	42	104	0	68	17239
2026-01-27 23:12:45.51	21.35	8.25	-48.2	-61.6	4.1	1.44e+00	0	42	0	0	68	16485
2026-01-27 23:12:46.51	21.38	8.33	-48.1	-61.3	4.2	1.42e+00	0	42	0	0	68	15809
2026-01-27 23:12:47.50	21.42	8.40	-48.1	-60.7	4.4	1.34e+00	0	42	0	0	68	14865
2026-01-27 23:12:48.49	21.46	8.48	-48.1	-60.3	4.5	1.15e+00	0	42	0	2097152	68	14060
2026-01-27 23:12:49.49	21.50	8.56	-48.0	-59.6	4.9	8.78e-01	0	42	0	3145728	68	13033
2026-01-27 23:12:50.48	21.54	8.64	-47.8	-58.8	5.2	6.33e-01	0	42	0	5242880	67	12546
2026-01-27 23:12:51.47	21.57	8.72	-47.7	-58.2	5.6	5.15e-01	0	42	0	7340032	67	11777
2026-01-27 23:12:52.47	21.61	8.80	-47.6	-57.6	6.0	3.86e-01	0	42	0	9437184	67	10914
2026-01-27 23:12:53.46	21.65	8.88	-47.6	-57.0	6.4	2.88e-01	0	42	0	10485760	67	10281
2026-01-27 23:12:54.45	21.69	8.96	-47.5	-56.6	6.8	1.97e-01	0	42	0	12582912	67	9801
2026-01-27 23:12:55.45	21.73	9.04	-47.5	-56.6	6.8	1.54e-01	0	42	0	14680064	66	10363
2026-01-27 23:12:56.44	21.77	9.12	-48.0	-59.7	4.8	2.19e-01	0	42	0	16777216	66	14843
2026-01-27 23:12:57.43	21.81	9.20	-47.9	-58.5	5.1	1.49e+00	0	43	104	16777216	67	12226
2026-01-27 23:12:58.42	21.85	9.28	-46.0	-51.5	12.2	5.03e-05	0	42	0	17825792	63	6846
2026-01-27 23:12:59.42	21.89	9.36	-46.0	-51.5	12.1	2.23e-02	0	42	0	19922944	63	6804
2026-01-27 23:13:00.41	21.92	9.45	-45.5	-50.0	13.6	1.14e-05	0	43	0	22020096	62	6109
2026-01-27 23:13:01.40	21.96	9.53	-45.5	-50.1	13.5	8.30e-06	0	42	0	23068672	62	6144
2026-01-27 23:13:02.40	22.01	9.61	-45.1	-49.5	14.1	3.00e-06	0	42	0	25165824	62	5766
2026-01-27 23:13:03.39	22.05	9.69	-45.1	-49.5	14.1	1.50e-06	0	43	0	27262976	62	5723
2026-01-27 23:13:04.38	22.09	9.77	-44.9	-49.1	14.5	1.50e-06	0	43	0	29360128	61	5852
2026-01-27 23:13:05.38	22.13	9.86	-44.7	-48.8	14.8	7.00e-07	0	43	0	31457280	61	5654
2026-01-27 23:13:06.37	22.17	9.94	-44.7	-48.8	14.8	0.00e+00	0	42	0	32505856	61	5615
2026-01-27 23:13:07.36	22.21	10.02	-44.3	-48.2	15.5	0.00e+00	0	42	0	34603008	60	5565
2026-01-27 23:13:08.35	22.25	10.11	-44.1	-47.7	16.0	0.00e+00	0	43	0	36700160	60	5260
2026-01-27 23:13:09.35	22.29	10.19	-44.1	-47.6	16.1	0.00e+00	0	43	0	38797312	60	5191
2026-01-27 23:13:10.34	22.33	10.28	-44.1	-47.5	16.2	0.00e+00	0	43	0	39845888	60	5145
2026-01-27 23:13:11.33	22.38	10.36	-44.2	-47.5	16.2	0.00e+00	0	43	0	41943040	60	5143
2026-01-27 23:13:12.33	22.42	10.45	-44.2	-47.5	16.2	0.00e+00	0	43	0	44040192	60	5146
2026-01-27 23:13:13.32	22.46	10.53	-44.1	-47.4	16.3	0.00e+00	0	43	0	46137344	60	5089
2026-01-27 23:13:14.31	22.50	10.62	-44.1	-47.4	16.4	0.00e+00	0	43	0	47185920	60	5048
2026-01-27 23:13:15.30	22.55	10.70	-44.1	-47.3	16.4	0.00e+00	0	43	0	49283072	60	4992
2026-01-27 23:13:16.30	22.59	10.79	-44.1	-47.3	16.4	0.00e+00	0	43	0	51380224	60	5002
2026-01-27 23:13:17.29	22.63	10.87	-44.1	-47.3	16.5	0.00e+00	0	43	0	53477376	60	4989
2026-01-27 23:13:18.28	22.68	10.96	-44.1	-47.2	16.6	0.00e+00	0	43	0	55574528	60	4928
2026-01-27 23:13:19.28	22.72	11.05	-44.1	-47.1	16.6	0.00e+00	0	43	0	56623104	60	4900
2026-01-27 23:13:20.27	22.77	11.14	-44.1	-47.1	16.6	0.00e+00	0	43	0	58720256	60	4921
2026-01-27 23:13:21.26	22.81	11.22	-44.2	-47.2	16.6	0.00e+00	0	43	0	60817408	60	4961
2026-01-27 23:13:22.26	22.86	11.31	-44.1	-47.0	16.7	0.00e+00	0	43	0	62914560	60	4863
2026-01-27 23:13:23.25	22.90	11.40	-44.1	-47.1	16.7	0.00e+00	0	43	0	63963136	60	4896
2026-01-27 23:13:24.24	22.94	11.49	-44.0	-46.9	16.8	0.00e+00	0	43	0	66060288	60	4795
2026-01-27 23:13:25.23	22.99	11.57	-44.1	-46.9	16.8	0.00e+00	0	43	0	68157440	60	4810
2026-01-27 23:13:26.23	23.04	11.66	-44.0	-46.8	16.9	0.00e+00	0	43	0	70254592	60	4725
2026-01-27 23:13:27.22	23.08	11.75	-44.1	-47.0	16.7	0.00e+00	0	43	0	72351744	60	4842
2026-01-27 23:13:28.21	23.13	11.84	-44.1	-47.0	16.7	0.00e+00	0	43	0	73400320	60	4829
2026-01-27 23:13:29.21	23.17	11.93	-44.0	-46.8	16.9	0.00e+00	0	43	0	75497472	59	5028
2026-01-27 23:13:30.20	23.22	12.02	-44.0	-46.8	17.0	0.00e+00	0	43	0	77594624	59	4993
2026-01-27 23:13:31.19	23.27	12.11	-44.0	-46.8	16.9	0.00e+00	0	43	0	79691776	59	5036
2026-01-27 23:13:32.18	23.31	12.20	-44.0	-46.8	16.9	0.00e+00	0	43	0	80740352	59	5016
2026-01-27 23:13:33.17	23.36	12.30	-44.0	-46.8	16.9	0.00e+00	0	43	0	82837504	59	5012
2026-01-27 23:13:34.17	23.41	12.39	-44.1	-46.9	16.8	0.00e+00	0	43	0	84934656	59	5084
2026-01-27 23:13:35.16	23.46	12.48	-43.8	-46.5	17.2	0.00e+00	0	43	0	87031808	59	4867
2026-01-27 23:13:36.15	23.51	12.57	-43.8	-46.6	17.1	0.00e+00	0	43	0	89128960	59	4891
2026-01-27 23:13:37.15	23.55	12.66	-43.8	-46.5	17.2	0.00e+00	0	43	0	90177536	59	4864
2026-01-27 23:13:38.14	23.60	12.76	-43.8	-46.5	17.2	0.00e+00	0	43	0	92274688	59	4852
2026-01-27 23:13:39.13	23.65	12.85	-43.7	-46.4	17.3	0.00e+00	0	43	0	94371840	59	4806
2026-01-27 23:13:40.13	23.70	12.94	-43.7	-46.4	17.4	0.00e+00	0	43	0	96468992	59	4779
2026-01-27 23:13:41.12	23.75	13.04	-43.8	-46.5	17.2	0.00e+00	0	43	0	97517568	59	4846
2026-01-27 23:13:42.11	23.80	13.13	-43.8	-46.5	17.3	0.00e+00	0	43	0	99614720	59	4858
2026-01-27 23:13:43.10	23.85	13.23	-43.7	-46.4	17.3	0.00e+00	0	43	0	101711872	59	4800
2026-01-27 23:13:44.09	23.90	13.32	-43.7	-46.5	17.3	0.00e+00	0	43	0	103809024	59	4830
2026-01-27 23:13:45.09	23.95	13.42	-43.7	-46.4	17.3	0.00e+00	0	43	0	105906176	59	4805
2026-01-27 23:13:46.08	24.00	13.51	-43.6	-46.4	17.4	0.00e+00	0	43	0	106954752	59	4771
2026-01-27 23:13:47.07	24.06	13.61	-43.5	-46.3	17.5	0.00e+00	0	43	0	109051904	59	4711
2026-01-27 23:13:48.07	24.11	13.70	-43.5	-46.3	17.5	0.00e+00	0	43	0	111149056	59	4729
2026-01-27 23:13:49.06	24.16	13.80	-43.5	-46.3	17.5	0.00e+00	0	43	0	113246208	58	4997
2026-01-27 23:13:50.05	24.21	13.90	-43.6	-46.4	17.5	0.00e+00	0	43	0	114294784	58	5053
2026-01-27 23:13:51.05	24.26	14.00	-43.4	-46.2	17.6	0.00e+00	0	43	0	116391936	58	4942
2026-01-27 23:13:52.04	24.32	14.09	-43.5	-46.2	17.6	0.00e+00	0	43	0	118489088	58	4966
2026-01-27 23:13:53.03	24.37	14.19	-43.4	-46.1	17.7	0.00e+00	0	43	0	120586240	58	4911
2026-01-27 23:13:54.02	24.42	14.29	-43.5	-46.2	17.6	0.00e+00	0	43	0	122683392	58	4983
2026-01-27 23:13:55.02	24.48	14.39	-43.3	-46.0	17.8	0.00e+00	0	43	0	123731968	58	4860
2026-01-27 23:13:56.01	24.53	14.49	-43.3	-45.9	17.9	0.00e+00	0	43	0	125829120	58	4808
2026-01-27 23:13:57.00	24.59	14.59	-43.3	-46.0	17.9	0.00e+00	0	43	0	127926272	58	4821
2026-01-27 23:13:57.99	24.64	14.69	-43.3	-46.0	17.8	0.00e+00	0	43	0	130023424	58	4835
2026-01-27 23:13:58.99	24.70	14.79	-43.2	-45.9	17.9	0.00e+00	0	43	0	131072000	58	4774
2026-01-27 23:13:59.98	24.75	14.89	-43.3	-46.0	17.8	0.00e+00	0	43	0	133169152	58	4839
2026-01-27 23:14:00.97	24.81	14.99	-43.3	-45.9	18.0	0.00e+00	0	43	0	135266304	58	4772
2026-01-27 23:14:01.97	24.87	15.09	-43.3	-45.9	18.0	0.00e+00	0	43	0	137363456	58	4764
2026-01-27 23:14:02.96	24.92	15.20	-43.3	-45.9	17.9	0.00e+00	0	43	0	138412032	58	4779
2026-01-27 23:14:03.95	24.98	15.30	-43.4	-46.0	17.8	0.00e+00	0	43	0	140509184	58	4866
2026-01-27 23:14:04.94	25.04	15.40	-43.3	-45.9	17.9	0.00e+00	0	43	0	142606336	58	4799
2026-01-27 23:14:05.94	25.09	15.50	-43.4	-46.0	17.8	0.00e+00	0	43	0	144703488	58	4845
2026-01-27 23:14:06.93	25.15	15.61	-43.3	-45.8	18.0	0.00e+00	0	43	0	146800640	58	4748
2026-01-27 23:14:07.92	25.21	15.71	-43.2	-45.7	18.1	0.00e+00	0	43	0	147849216	58	4680
2026-01-27 23:14:08.92	25.27	15.82	-43.2	-45.7	18.2	0.00e+00	0	43	0	149946368	58	4672
2026-01-27 23:14:09.91	25.33	15.92	-43.2	-45.7	18.1	0.00e+00	0	43	0	152043520	58	4692
2026-01-27 23:14:10.90	25.39	16.03	-43.2	-45.7	18.2	0.00e+00	0	43	0	154140672	58	4656
2026-01-27 23:14:11.89	25.45	16.13	-43.1	-45.6	18.3	0.00e+00	0	43	0	155189248	58	4622
2026-01-27 23:14:12.89	25.51	16.24	-43.0	-45.5	18.4	0.00e+00	0	43	0	157286400	58	4572
2026-01-27 23:14:13.88	25.57	16.35	-43.1	-45.6	18.2	0.00e+00	0	43	0	159383552	58	4635
2026-01-27 23:14:14.87	25.63	16.45	-42.9	-45.4	18.4	0.00e+00	0	43	0	161480704	57	4811
2026-01-27 23:14:15.87	25.69	16.56	-43.0	-45.6	18.3	0.00e+00	0	43	0	162529280	57	4902
2026-01-27 23:14:16.86	25.76	16.67	-42.9	-45.4	18.4	0.00e+00	0	43	0	164626432	57	4812
2026-01-27 23:14:17.85	25.82	16.78	-42.8	-45.4	18.5	0.00e+00	0	43	0	166723584	57	4776
2026-01-27 23:14:18.84	25.88	16.89	-42.9	-45.5	18.4	0.00e+00	0	43	0	168820736	57	4828
2026-01-27 23:14:19.84	25.95	17.00	-42.9	-45.5	18.4	0.00e+00	0	43	0	170917888	57	4824
2026-01-27 23:14:20.83	26.01	17.11	-42.7	-45.3	18.5	0.00e+00	0	43	0	171966464	57	4738
2026-01-27 23:14:21.82	26.07	17.22	-42.9	-45.5	18.4	0.00e+00	0	43	0	174063616	57	4827
2026-01-27 23:14:22.81	26.14	17.33	-42.8	-45.4	18.5	0.00e+00	0	43	0	176160768	57	4789
2026-01-27 23:14:23.81	26.20	17.44	-42.8	-45.4	18.5	0.00e+00	0	43	0	178257920	57	4791
2026-01-27 23:14:24.80	26.27	17.55	-42.9	-45.5	18.4	0.00e+00	0	43	0	179306496	57	4831
2026-01-27 23:14:25.79	26.33	17.66	-42.7	-45.2	18.7	0.00e+00	0	43	0	181403648	57	4685
2026-01-27 23:14:26.79	26.40	17.78	-42.7	-45.3	18.6	0.00e+00	0	43	0	183500800	57	4720
2026-01-27 23:14:27.78	26.47	17.89	-42.8	-45.3	18.6	0.00e+00	0	43	0	185597952	57	4745
2026-01-27 23:14:28.77	26.54	18.00	-42.8	-45.3	18.6	0.00e+00	0	43	0	187695104	57	4748
2026-01-27 23:14:29.76	26.60	18.12	-42.7	-45.2	18.7	0.00e+00	0	43	0	188743680	57	4679
2026-01-27 23:14:30.76	26.67	18.23	-42.5	-45.0	18.9	0.00e+00	0	43	0	190840832	57	4569
2026-01-27 23:14:31.75	26.74	18.35	-42.5	-45.0	18.9	0.00e+00	0	43	0	192937984	57	4567
2026-01-27 23:14:32.74	26.81	18.46	-42.5	-44.9	19.0	0.00e+00	0	43	0	195035136	56	4807
2026-01-27 23:14:33.74	26.88	18.58	-42.5	-45.0	18.9	0.00e+00	0	43	0	197132288	56	4823
2026-01-27 23:14:34.73	26.95	18.70	-42.4	-44.8	19.1	0.00e+00	0	43	0	198180864	56	4749
2026-01-27 23:14:35.72	27.02	18.82	-42.5	-45.0	18.9	0.00e+00	0	43	0	200278016	56	4827
2026-01-27 23:14:36.71	27.09	18.93	-42.5	-44.9	19.0	0.00e+00	0	43	0	202375168	56	4799
2026-01-27 23:14:37.71	27.17	19.05	-42.5	-44.9	19.0	0.00e+00	0	43	0	204472320	56	4788
2026-01-27 23:14:38.70	27.24	19.17	-42.4	-44.7	19.2	0.00e+00	0	43	0	205520896	56	4705
2026-01-27 23:14:39.69	27.31	19.29	-42.4	-44.8	19.2	0.00e+00	0	43	0	207618048	56	4708
2026-01-27 23:14:40.69	27.39	19.41	-42.3	-44.7	19.2	0.00e+00	0	43	0	209715200	56	4671
2026-01-27 23:14:41.68	27.46	19.53	-42.4	-44.8	19.1	0.00e+00	0	43	0	211812352	56	4732
2026-01-27 23:14:42.67	27.53	19.65	-42.3	-44.7	19.2	0.00e+00	0	43	0	213909504	56	4659
2026-01-27 23:14:43.66	27.61	19.77	-42.4	-44.7	19.2	0.00e+00	0	43	0	214958080	56	4669
2026-01-27 23:14:44.66	27.68	19.90	-42.5	-44.8	19.1	0.00e+00	0	43	0	217055232	56	4747
2026-01-27 23:14:45.65	27.76	20.02	-42.4	-44.7	19.2	0.00e+00	0	43	0	219152384	56	4701
2026-01-27 23:14:46.64	27.84	20.14	-42.4	-44.6	19.3	0.00e+00	0	43	0	221249536	56	4645
2026-01-27 23:14:47.64	27.92	20.27	-42.4	-44.7	19.2	0.00e+00	0	43	0	222298112	56	4652
2026-01-27 23:14:48.63	27.99	20.39	-42.3	-44.6	19.3	0.00e+00	0	43	0	224395264	56	4611
2026-01-27 23:14:49.62	28.07	20.52	-42.2	-44.5	19.4	0.00e+00	0	43	0	226492416	56	4552
2026-01-27 23:14:50.62	28.15	20.64	-42.2	-44.5	19.4	0.00e+00	0	43	0	228589568	56	4557
2026-01-27 23:14:51.61	28.23	20.77	-42.3	-44.5	19.4	0.00e+00	0	43	0	229638144	56	4571
2026-01-27 23:14:52.60	28.31	20.89	-42.3	-44.6	19.3	0.00e+00	0	43	0	231735296	56	4626
2026-01-27 23:14:53.59	28.39	21.02	-42.3	-44.5	19.4	0.00e+00	0	44	0	233832448	56	4569
2026-01-27 23:14:54.59	28.48	21.15	-42.3	-44.5	19.4	0.00e+00	0	43	0	235929600	56	4575
2026-01-27 23:14:55.58	28.56	21.28	-42.2	-44.4	19.5	0.00e+00	0	43	0	238026752	56	4538
2026-01-27 23:14:56.57	28.64	21.41	-42.3	-44.5	19.4	0.00e+00	0	43	0	239075328	56	4575
2026-01-27 23:14:57.57	28.73	21.54	-42.2	-44.4	19.5	0.00e+00	0	43	0	241172480	56	4536
2026-01-27 23:14:58.56	28.81	21.67	-42.2	-44.4	19.5	0.00e+00	0	43	0	243269632	56	4519
2026-01-27 23:14:59.55	28.90	21.80	-42.1	-44.3	19.6	0.00e+00	0	43	0	245366784	56	4464
2026-01-27 23:15:00.54	28.98	21.93	-42.1	-44.4	19.5	0.00e+00	0	43	0	246415360	56	4494
2026-01-27 23:15:01.54	29.07	22.06	-42.1	-44.3	19.6	0.00e+00	0	43	0	248512512	56	4470
2026-01-27 23:15:02.53	29.16	22.20	-42.1	-44.3	19.5	0.00e+00	0	43	0	250609664	56	4482
2026-01-27 23:15:03.52	29.24	22.33	-42.1	-44.3	19.6	0.00e+00	0	43	0	252706816	56	4462
2026-01-27 23:15:04.52	29.33	22.47	-42.2	-44.4	19.5	0.00e+00	0	43	0	253755392	56	4526
2026-01-27 23:15:05.51	29.42	22.60	-42.0	-44.2	19.4	0.00e+00	0	43	0	255852544	56	4420
2026-01-27 23:15:06.50	29.51	22.73	-41.8	-44.0	19.7	0.00e+00	0	43	0	257949696	55	4573
2026-01-27 23:15:07.50	29.60	22.87	-41.8	-44.0	19.7	0.00e+00	0	43	0	260046848	55	4577
2026-01-27 23:15:08.49	29.69	23.01	-41.8	-44.0	19.7	0.00e+00	0	43	0	262144000	55	4579
2026-01-27 23:15:09.48	29.79	23.15	-41.9	-44.1	19.7	0.00e+00	0	43	0	263192576	55	4611
2026-01-27 23:15:10.47	29.88	23.28	-41.8	-44.0	19.7	0.00e+00	0	43	0	265289728	55	4566
2026-01-27 23:15:11.47	29.97	23.42	-41.8	-44.0	19.8	0.00e+00	0	44	0	267386880	55	4554
2026-01-27 23:15:12.46	30.07	23.56	-41.8	-44.0	19.8	0.00e+00	0	43	0	269484032	55	4550
2026-01-27 23:15:13.45	30.16	23.70	-41.9	-44.1	19.7	0.00e+00	0	43	0	270532608	55	4601
2026-01-27 23:15:14.45	30.26	23.84	-41.9	-44.0	19.7	0.00e+00	0	43	0	272629760	55	4589
2026-01-27 23:15:15.44	30.36	23.99	-41.9	-44.1	19.6	0.00e+00	0	43	0	274726912	55	4633
2026-01-27 23:15:16.43	30.46	24.13	-41.9	-44.1	19.7	0.00e+00	0	43	0	276824064	55	4611
2026-01-27 23:15:17.42	30.56	24.27	-41.9	-44.1	19.6	0.00e+00	0	43	0	278921216	55	4642
2026-01-27 23:15:18.42	30.66	24.41	-41.9	-44.1	19.6	0.00e+00	0	43	0	279969792	55	4632
2026-01-27 23:15:19.41	30.76	24.56	-42.0	-44.2	19.5	0.00e+00	0	43	0	282066944	55	4703
2026-01-27 23:15:20.40	30.86	24.70	-41.9	-44.2	19.6	0.00e+00	0	43	0	284164096	55	4671
2026-01-27 23:15:21.39	30.96	24.85	-42.0	-44.3	19.5	0.00e+00	0	43	0	286261248	55	4744
2026-01-27 23:15:22.39	31.07	25.00	-42.0	-44.3	19.5	0.00e+00	0	43	0	287309824	55	4719
2026-01-27 23:15:23.38	31.17	25.14	-42.0	-44.2	19.5	0.00e+00	0	43	0	289406976	55	4702
2026-01-27 23:15:24.37	31.27	25.29	-42.1	-44.3	19.5	0.00e+00	0	43	0	291504128	55	4748
2026-01-27 23:15:25.37	31.38	25.44	-42.2	-44.4	19.3	0.00e+00	0	43	0	293601280	55	4811
2026-01-27 23:15:26.36	31.49	25.59	-42.1	-44.3	19.4	0.00e+00	0	43	0	295698432	55	4757
2026-01-27 23:15:27.35	31.60	25.74	-42.2	-44.4	19.4	0.00e+00	0	43	0	296747008	55	4800
2026-01-27 23:15:28.35	31.71	25.89	-42.3	-44.6	19.2	0.00e+00	0	43	0	298844160	55	4901
2026-01-27 23:15:29.34	31.82	26.04	-42.4	-44.7	19.1	0.00e+00	0	43	0	300941312	55	4941
2026-01-27 23:15:30.33	31.93	26.19	-42.4	-44.8	19.0	0.00e+00	0	43	0	303038464	55	4990
2026-01-27 23:15:31.33	32.04	26.35	-42.5	-44.9	18.9	0.00e+00	0	43	0	305135616	55	5070
2026-01-27 23:15:32.32	32.15	26.50	-42.6	-45.0	18.8	0.00e+00	0	43	0	306184192	55	5148
2026-01-27 23:15:33.31	32.27	26.66	-42.8	-45.2	18.8	0.00e+00	0	43	0	308281344	56	4965
2026-01-27 23:15:34.30	32.38	26.81	-42.9	-45.3	18.7	0.00e+00	0	43	0	310378496	56	5028
2026-01-27 23:15:35.30	32.50	26.97	-43.0	-45.5	18.5	0.00e+00	0	43	0	312475648	56	5111
2026-01-27 23:15:36.29	32.62	27.13	-43.1	-45.5	18.5	0.00e+00	0	43	0	313524224	56	5146
2026-01-27 23:15:37.28	32.74	27.28	-43.3	-45.8	18.2	0.00e+00	0	43	0	315621376	57	5038
2026-01-27 23:15:38.28	32.86	27.44	-43.4	-45.9	18.1	0.00e+00	0	43	0	317718528	57	5070
2026-01-27 23:15:39.27	32.98	27.60	-43.5	-46.1	18.0	0.00e+00	0	43	0	319815680	57	5161
2026-01-27 23:15:40.26	33.10	27.76	-43.6	-46.1	17.9	0.00e+00	0	43	0	320864256	57	5210
2026-01-27 23:15:41.25	33.22	27.92	-43.7	-46.3	17.8	0.00e+00	0	43	0	322961408	58	5006
2026-01-27 23:15:42.25	33.35	28.09	-43.8	-46.4	17.7	0.00e+00	0	43	0	325058560	58	5052
2026-01-27 23:15:43.24	33.48	28.25	-43.9	-46.5	17.6	0.00e+00	0	43	0	327155712	58	5142
2026-01-27 23:15:44.23	33.60	28.41	-44.0	-46.6	17.4	0.00e+00	0	43	0	329252864	58	5203
2026-01-27 23:15:45.23	33.73	28.58	-44.1	-46.7	17.3	0.00e+00	0	43	0	330301440	58	5275
2026-01-27 23:15:46.22	33.86	28.74	-44.2	-46.9	17.2	0.00e+00	0	43	0	332398592	59	5072
2026-01-27 23:15:47.21	33.99	28.91	-44.3	-47.0	17.1	0.00e+00	0	43	0	334495744	59	5131
2026-01-27 23:15:48.20	34.12	29.07	-44.3	-47.1	17.0	0.00e+00	0	43	0	336592896	59	5179
2026-01-27 23:15:49.20	34.26	29.24	-44.3	-47.0	17.0	0.00e+00	0	43	0	337641472	59	5157
2026-01-27 23:15:50.19	34.39	29.41	-44.4	-47.2	16.9	0.00e+00	0	43	0	339738624	59	5233
2026-01-27 23:15:51.18	34.53	29.58	-44.5	-47.3	16.8	0.00e+00	0	43	0	341835776	59	5316
2026-01-27 23:15:52.18	34.67	29.75	-44.6	-47.4	16.7	0.00e+00	0	43	0	343932928	59	5388
2026-01-27 23:15:53.17	34.81	29.92	-44.7	-47.6	16.6	0.00e+00	0	43	0	346030080	60	5170
2026-01-27 23:15:54.16	34.95	30.09	-44.8	-47.8	16.4	0.00e+00	0	43	0	347078656	60	5306
2026-01-27 23:15:55.16	35.09	30.27	-45.0	-48.0	16.1	0.00e+00	0	43	0	349175808	60	5464
2026-01-27 23:15:56.15	35.23	30.44	-45.2	-48.3	15.8	0.00e+00	0	43	0	351272960	61	5336
2026-01-27 23:15:57.14	35.38	30.62	-45.4	-48.6	15.5	0.00e+00	0	43	0	353370112	61	5512
2026-01-27 23:15:58.13	35.53	30.79	-45.6	-48.9	15.3	0.00e+00	0	43	0	354418688	61	5682
2026-01-27 23:15:59.13	35.68	30.97	-45.6	-48.9	15.3	0.00e+00	0	43	0	356515840	61	5686
2026-01-27 23:16:00.12	35.83	31.15	-45.6	-48.9	15.3	0.00e+00	0	43	0	358612992	61	5671
2026-01-27 23:16:01.11	35.98	31.32	-45.6	-48.9	15.3	0.00e+00	0	43	0	360710144	62	5397
2026-01-27 23:16:02.11	36.13	31.50	-45.5	-48.7	15.6	0.00e+00	0	43	0	361758720	62	5225
2026-01-27 23:16:03.10	36.29	31.68	-45.5	-48.6	15.6	0.00e+00	0	43	0	363855872	62	5218
2026-01-27 23:16:04.09	36.44	31.86	-45.2	-48.3	15.9	0.00e+00	0	43	0	365953024	62	4992
2026-01-27 23:16:05.08	36.60	32.04	-45.0	-48.1	16.2	0.00e+00	0	43	0	368050176	62	4873
2026-01-27 23:16:06.08	36.76	32.23	-45.0	-48.0	16.2	0.00e+00	0	43	0	370147328	62	4856
2026-01-27 23:16:07.07	36.92	32.41	-45.1	-48.1	16.1	0.00e+00	0	43	0	371195904	62	4903
2026-01-27 23:16:08.06	37.08	32.59	-45.1	-48.1	16.1	0.00e+00	0	43	0	373293056	62	4906
2026-01-27 23:16:09.06	37.25	32.78	-45.1	-48.2	16.1	0.00e+00	0	43	0	375390208	62	4939
2026-01-27 23:16:10.05	37.42	32.97	-45.2	-48.3	16.0	0.00e+00	0	43	0	377487360	62	4989
2026-01-27 23:16:11.04	37.59	33.15	-45.1	-48.1	16.1	0.00e+00	0	43	0	378535936	62	4895
2026-01-27 23:16:12.03	37.76	33.34	-44.9	-47.9	16.3	0.00e+00	0	43	0	380633088	61	5089
2026-01-27 23:16:13.03	37.93	33.53	-44.9	-47.8	16.4	0.00e+00	0	43	0	382730240	61	5030
2026-01-27 23:16:14.02	38.11	33.72	-44.8	-47.8	16.4	0.00e+00	0	43	0	384827392	61	4985
2026-01-27 23:16:15.01	38.28	33.91	-44.8	-47.7	16.5	0.00e+00	0	43	0	386924544	61	4945
2026-01-27 23:16:16.00	38.46	34.10	-44.8	-47.7	16.5	0.00e+00	0	43	0	387973120	61	4932
2026-01-27 23:16:17.00	38.64	34.29	-44.7	-47.6	16.5	0.00e+00	0	43	0	390070272	61	4923
2026-01-27 23:16:17.99	38.83	34.49	-44.7	-47.5	16.6	0.00e+00	0	43	0	392167424	61	4865
2026-01-27 23:16:18.98	39.01	34.68	-44.7	-47.5	16.7	0.00e+00	0	43	0	394264576	61	4865
2026-01-27 23:16:19.98	39.20	34.88	-44.6	-47.4	16.7	0.00e+00	0	43	0	395313152	61	4798
2026-01-27 23:16:20.97	39.39	35.07	-44.4	-47.2	17.0	0.00e+00	0	43	0	397410304	60	4940
2026-01-27 23:16:21.96	39.58	35.27	-44.4	-47.1	17.0	0.00e+00	0	43	0	399507456	60	4918
2026-01-27 23:16:22.96	39.78	35.47	-44.3	-47.0	17.1	0.00e+00	0	43	0	401604608	60	4869
2026-01-27 23:16:23.95	39.97	35.67	-44.3	-47.0	17.2	0.00e+00	0	43	0	403701760	60	4864
2026-01-27 23:16:24.94	40.17	35.87	-44.3	-47.0	17.2	0.00e+00	0	43	0	404750336	60	4837
2026-01-27 23:16:25.93	40.37	36.06	-44.1	-46.8	17.4	0.00e+00	0	43	0	406847488	60	4716
2026-01-27 23:16:26.93	40.58	36.27	-44.0	-46.6	17.5	0.00e+00	0	43	0	408944640	59	4908
2026-01-27 23:16:27.92	40.78	36.47	-43.9	-46.5	17.6	0.00e+00	0	43	0	411041792	59	4847
2026-01-27 23:16:28.91	40.99	36.67	-43.8	-46.4	17.8	0.00e+00	0	43	0	412090368	59	4778
2026-01-27 23:16:29.91	41.20	36.88	-44.0	-46.6	17.5	0.00e+00	0	43	0	414187520	59	4915
2026-01-27 23:16:30.90	41.42	37.08	-43.8	-46.3	17.8	0.00e+00	0	43	0	416284672	59	4754
2026-01-27 23:16:31.89	41.63	37.29	-43.7	-46.2	17.9	0.00e+00	0	43	0	418381824	59	4661
2026-01-27 23:16:32.88	41.85	37.49	-43.5	-46.0	18.1	0.00e+00	0	43	0	420478976	59	4549
2026-01-27 23:16:33.88	42.08	37.70	-43.5	-45.9	18.1	0.00e+00	0	44	0	421527552	58	4808
2026-01-27 23:16:34.87	42.30	37.91	-43.2	-45.6	18.4	0.00e+00	0	43	0	423624704	58	4646
2026-01-27 23:16:35.86	42.53	38.12	-43.3	-45.7	18.4	0.00e+00	0	43	0	425721856	58	4672
2026-01-27 23:16:36.86	42.76	38.33	-43.2	-45.7	18.4	0.00e+00	0	43	0	427819008	58	4662
2026-01-27 23:16:37.85	42.99	38.54	-43.4	-45.9	18.2	0.00e+00	0	43	0	428867584	58	4785
2026-01-27 23:16:38.84	43.23	38.75	-43.6	-46.1	18.0	0.00e+00	0	43	0	430964736	58	4911
2026-01-27 23:16:39.83	43.47	38.96	-43.7	-46.2	17.9	0.00e+00	0	43	0	433061888	58	4979
2026-01-27 23:16:40.83	43.71	39.17	-43.7	-46.2	17.9	0.00e+00	0	43	0	435159040	58	4981
2026-01-27 23:16:41.82	43.96	39.39	-43.7	-46.2	17.9	0.00e+00	0	43	0	437256192	58	4957
2026-01-27 23:16:42.81	44.21	39.60	-43.6	-46.0	18.1	0.00e+00	0	43	0	438304768	58	4859
2026-01-27 23:16:43.81	44.46	39.82	-43.5	-45.9	18.2	0.00e+00	0	43	0	440401920	58	4794
2026-01-27 23:16:44.80	44.71	40.03	-43.3	-45.7	18.4	0.00e+00	0	43	0	442499072	58	4696
2026-01-27 23:16:45.79	44.97	40.25	-43.3	-45.7	18.4	0.00e+00	0	44	0	444596224	58	4666
2026-01-27 23:16:46.78	45.23	40.46	-43.1	-45.5	18.6	0.00e+00	0	43	0	445644800	58	4571
2026-01-27 23:16:47.78	45.50	40.68	-43.2	-45.7	18.4	0.00e+00	0	43	0	447741952	58	4669
2026-01-27 23:16:48.77	45.77	40.90	-43.0	-45.4	18.6	0.00e+00	0	43	0	449839104	58	4540
2026-01-27 23:16:49.76	46.04	41.12	-43.0	-45.4	18.5	0.00e+00	0	43	0	451936256	58	4538
2026-01-27 23:16:50.76	46.32	41.34	-43.1	-45.5	18.6	0.00e+00	0	43	0	452984832	58	4588
2026-01-27 23:16:51.75	46.60	41.56	-43.2	-45.7	18.4	0.00e+00	0	44	0	455081984	58	4662
2026-01-27 23:16:52.74	46.89	41.78	-43.4	-45.8	18.3	0.00e+00	0	43	0	457179136	58	4738
2026-01-27 23:16:53.73	47.17	42.00	-43.6	-46.2	18.0	0.00e+00	0	43	0	459276288	58	4933
2026-01-27 23:16:54.73	47.47	42.23	-43.6	-46.2	18.0	0.00e+00	0	43	0	461373440	58	4948
2026-01-27 23:16:55.72	47.76	42.45	-43.7	-46.2	17.9	0.00e+00	0	43	0	462422016	58	4951
2026-01-27 23:16:56.71	48.06	42.67	-43.6	-46.2	18.0	0.00e+00	0	43	0	464519168	58	4939
2026-01-27 23:16:57.71	48.37	42.89	-43.7	-46.3	17.9	0.00e+00	0	43	0	466616320	58	4999
2026-01-27 23:16:58.70	48.68	43.12	-43.8	-46.3	17.9	0.00e+00	0	43	0	468713472	58	5003
2026-01-27 23:16:59.69	48.99	43.34	-43.9	-46.5	17.7	0.00e+00	0	44	0	469762048	58	5108
2026-01-27 23:17:00.69	49.31	43.57	-44.2	-46.9	17.3	0.00e+00	0	43	0	471859200	58	5347
2026-01-27 23:17:01.68	49.63	43.79	-44.4	-47.2	17.0	0.00e+00	0	43	0	473956352	59	5249
2026-01-27 23:17:02.67	49.95	44.02	-44.7	-47.6	16.6	0.00e+00	0	43	0	476053504	60	5177
2026-01-27 23:17:03.66	50.28	44.24	-44.8	-47.8	16.5	0.00e+00	0	44	0	478150656	60	5282
2026-01-27 23:17:04.66	50.62	44.47	-44.6	-47.5	16.7	0.00e+00	0	43	0	479199232	60	5149
2026-01-27 23:17:05.65	50.96	44.70	-44.4	-47.2	17.1	0.00e+00	0	43	0	481296384	60	4928
2026-01-27 23:17:06.64	51.31	44.92	-44.3	-47.1	17.1	0.00e+00	0	43	0	483393536	60	4872
2026-01-27 23:17:07.64	51.66	45.15	-44.6	-47.4	16.8	0.00e+00	0	43	0	485490688	60	5091
2026-01-27 23:17:08.63	52.01	45.38	-45.1	-48.2	16.0	0.00e+00	0	43	0	486539264	60	5557
2026-01-27 23:17:09.62	52.37	45.60	-45.5	-48.7	15.5	0.00e+00	0	43	0	488636416	61	5592
2026-01-27 23:17:10.61	52.74	45.83	-45.7	-49.0	15.2	0.00e+00	0	43	0	490733568	61	5746
2026-01-27 23:17:11.61	53.11	46.06	-45.7	-49.1	15.2	0.00e+00	0	43	0	492830720	62	5500
2026-01-27 23:17:12.60	53.48	46.28	-45.6	-48.8	15.4	0.00e+00	0	44	0	494927872	62	5334
2026-01-27 23:17:13.59	53.86	46.51	-45.5	-48.8	15.5	0.00e+00	0	44	0	495976448	62	5280
2026-01-27 23:17:14.59	54.25	46.74	-45.6	-48.9	15.3	0.00e+00	0	43	0	498073600	62	5365
2026-01-27 23:17:15.58	54.64	46.96	-45.9	-49.4	14.8	0.00e+00	0	43	0	500170752	62	5680
2026-01-27 23:17:16.57	55.04	47.19	-46.3	-50.0	14.2	0.00e+00	0	43	0	502267904	63	5740
2026-01-27 23:17:17.56	55.44	47.41	-46.8	-50.8	13.3	9.10e-06	0	43	0	503316480	64	5964
2026-01-27 23:17:18.56	55.85	47.64	-46.9	-51.0	13.1	4.27e-05	0	43	0	505413632	64	6098
2026-01-27 23:17:19.55	56.27	47.87	-46.8	-50.9	13.2	4.04e-05	0	43	0	507510784	64	6042
2026-01-27 23:17:20.54	56.69	48.09	-46.5	-50.4	13.8	1.44e-05	0	43	0	509607936	64	5663
2026-01-27 23:17:21.54	57.12	48.32	-46.3	-50.0	14.2	2.20e-06	0	43	0	511705088	64	5417
2026-01-27 23:17:22.53	57.55	48.54	-46.3	-49.9	14.2	7.00e-07	0	43	0	512753664	64	5396
2026-01-27 23:17:23.52	57.99	48.76	-46.1	-49.7	14.4	1.50e-06	0	43	0	514850816	64	5274
2026-01-27 23:17:24.51	58.44	48.98	-46.3	-49.9	14.2	7.00e-07	0	43	0	516947968	64	5390
2026-01-27 23:17:25.51	58.89	49.21	-46.4	-50.1	14.1	3.00e-06	0	43	0	519045120	64	5490
2026-01-27 23:17:26.50	59.35	49.43	-46.3	-50.0	14.2	7.00e-07	0	43	0	520093696	64	5416
2026-01-27 23:17:27.49	59.82	49.65	-46.0	-49.6	14.6	7.00e-07	0	43	0	522190848	64	5170
2026-01-27 23:17:28.48	60.29	49.87	-45.6	-48.9	15.3	0.00e+00	0	43	0	524288000	63	5085
2026-01-27 23:17:29.48	60.77	50.09	-45.2	-48.4	15.8	0.00e+00	0	43	0	526385152	62	5067
2026-01-27 23:17:30.47	61.25	50.30	-44.8	-47.7	16.5	0.00e+00	0	43	0	528482304	61	4977
2026-01-27 23:17:31.46	61.75	50.52	-44.6	-47.5	16.8	0.00e+00	0	43	0	529530880	61	4815
2026-01-27 23:17:32.46	62.25	50.74	-44.4	-47.1	17.0	0.00e+00	0	43	0	531628032	60	4905
2026-01-27 23:17:33.45	62.76	50.95	-44.3	-47.0	17.1	0.00e+00	0	43	0	533725184	60	4867
2026-01-27 23:17:34.44	63.27	51.16	-44.2	-46.8	17.3	0.00e+00	0	43	0	535822336	60	4744
2026-01-27 23:17:35.43	63.79	51.37	-43.8	-46.3	17.8	0.00e+00	0	43	0	536870912	59	4758
2026-01-27 23:17:36.43	64.32	51.58	-43.5	-45.9	18.2	0.00e+00	0	43	0	538968064	58	4797
2026-01-27 23:17:37.42	64.86	51.79	-43.1	-45.5	18.6	0.00e+00	0	43	0	541065216	58	4578
2026-01-27 23:17:38.41	65.40	51.99	-43.0	-45.4	18.7	0.00e+00	0	43	0	543162368	57	4766
2026-01-27 23:17:39.41	65.96	52.20	-43.1	-45.5	18.5	0.00e+00	0	44	0	544210944	57	4862
2026-01-27 23:17:40.40	66.51	52.40	-43.1	-45.5	18.6	0.00e+00	0	43	0	546308096	57	4833
2026-01-27 23:17:41.39	67.08	52.60	-43.0	-45.4	18.7	0.00e+00	0	44	0	548405248	57	4760
2026-01-27 23:17:42.38	67.65	52.80	-42.9	-45.2	18.8	0.00e+00	0	44	0	550502400	57	4698
2026-01-27 23:17:43.38	68.24	53.00	-42.5	-44.7	19.2	0.00e+00	0	43	0	552599552	56	4695
2026-01-27 23:17:44.37	68.83	53.19	-42.5	-44.7	19.3	0.00e+00	0	43	0	553648128	56	4695
2026-01-27 23:17:45.36	69.42	53.38	-42.8	-45.2	18.9	0.00e+00	0	44	0	555745280	56	4946
2026-01-27 23:17:46.36	70.03	53.57	-43.2	-45.7	18.4	0.00e+00	0	43	0	557842432	57	4940
2026-01-27 23:17:47.35	70.65	53.76	-43.6	-46.1	18.0	0.00e+00	0	43	0	559939584	57	5195
2026-01-27 23:17:48.34	71.27	53.94	-43.6	-46.1	18.0	0.00e+00	0	43	0	560988160	57	5195
2026-01-27 23:17:49.33	71.89	54.12	-43.4	-45.8	18.2	0.00e+00	0	44	0	563085312	57	5038
2026-01-27 23:17:50.33	72.54	54.30	-42.9	-45.2	18.8	0.00e+00	0	43	0	565182464	57	4697
2026-01-27 23:17:51.32	73.18	54.48	-42.8	-45.1	18.9	0.00e+00	0	43	0	567279616	57	4628
2026-01-27 23:17:52.31	73.83	54.65	-42.8	-45.2	18.9	0.00e+00	0	44	0	569376768	57	4661
2026-01-27 23:17:53.31	74.50	54.82	-43.2	-45.6	18.4	0.00e+00	0	43	0	570425344	57	4926
2026-01-27 23:17:54.30	75.16	54.98	-43.4	-45.9	18.2	0.00e+00	0	44	0	572522496	57	5071
2026-01-27 23:17:55.29	75.84	55.15	-43.4	-45.9	18.2	0.00e+00	0	44	0	574619648	57	5076
2026-01-27 23:17:56.29	76.53	55.31	-43.1	-45.4	18.6	0.00e+00	0	44	0	576716800	57	4801
2026-01-27 23:17:57.28	77.22	55.46	-42.8	-45.1	18.9	0.00e+00	0	43	0	577765376	57	4630
2026-01-27 23:17:58.27	77.91	55.61	-42.9	-45.2	18.8	0.00e+00	0	44	0	579862528	57	4677
2026-01-27 23:17:59.26	78.62	55.76	-43.2	-45.6	18.5	0.00e+00	0	43	0	581959680	57	4891
2026-01-27 23:18:00.26	79.34	55.91	-43.2	-45.7	18.4	0.00e+00	0	44	0	584056832	57	4951
2026-01-27 23:18:01.25	80.06	56.05	-43.1	-45.6	18.6	0.00e+00	0	43	0	586153984	57	4875
2026-01-27 23:18:02.24	80.78	56.18	-43.1	-45.5	18.6	0.00e+00	0	43	0	587202560	57	4839
2026-01-27 23:18:03.24	81.52	56.32	-43.0	-45.4	18.7	0.00e+00	0	43	0	589299712	57	4772
2026-01-27 23:18:04.23	82.27	56.45	-43.5	-46.0	18.0	0.00e+00	0	44	0	591396864	57	5143
2026-01-27 23:18:05.22	83.01	56.57	-43.8	-46.5	17.6	0.00e+00	0	44	0	593494016	58	5122
2026-01-27 23:18:06.21	83.77	56.69	-43.6	-46.2	17.8	0.00e+00	0	43	0	594542592	58	4973
2026-01-27 23:18:07.21	84.53	56.80	-43.5	-46.1	18.1	0.00e+00	0	44	0	596639744	58	4872
2026-01-27 23:18:08.20	85.30	56.91	-43.9	-46.5	17.6	0.00e+00	0	43	0	598736896	58	5154
2026-01-27 23:18:09.19	86.07	57.02	-44.5	-47.5	16.7	0.00e+00	0	43	0	600834048	59	5436
2026-01-27 23:18:10.19	86.86	57.12	-44.6	-47.6	16.6	0.00e+00	0	43	0	602931200	60	5166
2026-01-27 23:18:11.18	87.64	57.22	-45.1	-48.3	15.9	0.00e+00	0	43	0	603979776	60	5619
2026-01-27 23:18:12.17	88.43	57.31	-46.3	-50.2	14.0	0.00e+00	0	43	0	606076928	63	5886
2026-01-27 23:18:13.17	89.24	57.39	-46.8	-51.1	13.1	1.67e-05	0	44	0	608174080	64	6169
2026-01-27 23:18:14.16	90.04	57.47	-46.2	-50.1	14.0	2.89e-05	0	43	0	610271232	64	5514
2026-01-27 23:18:15.15	90.84	57.55	-45.7	-49.3	14.9	7.00e-07	0	44	0	611319808	63	5317
2026-01-27 23:18:16.14	91.65	57.62	-45.5	-48.9	15.3	0.00e+00	0	44	0	613416960	63	5067
2026-01-27 23:18:17.14	92.47	57.69	-45.4	-48.7	15.5	0.00e+00	0	43	0	615514112	62	5255
2026-01-27 23:18:18.13	93.29	57.74	-45.7	-49.0	15.2	0.00e+00	0	43	0	617611264	62	5412
2026-01-27 23:18:19.12	94.11	57.80	-46.5	-50.2	14.0	0.00e+00	0	44	0	619708416	63	5888
2026-01-27 23:18:20.12	94.94	57.85	-46.4	-50.1	14.0	3.00e-06	0	43	0	620756992	64	5521
2026-01-27 23:18:21.11	95.76	57.89	-45.7	-49.1	15.1	0.00e+00	0	44	0	622854144	63	5191
2026-01-27 23:18:22.10	96.59	57.93	-45.3	-48.7	15.5	0.00e+00	0	43	0	624951296	62	5241
2026-01-27 23:18:23.09	97.42	57.96	-45.8	-49.4	14.9	0.00e+00	0	43	0	627048448	62	5675
2026-01-27 23:18:24.09	98.26	57.99	-45.7	-49.1	15.1	0.00e+00	0	43	0	628097024	62	5480
2026-01-27 23:18:25.08	99.10	58.01	-45.6	-48.8	15.5	0.00e+00	0	44	0	630194176	62	5292
2026-01-27 23:18:26.07	99.93	58.02	-45.7	-49.0	15.4	0.00e+00	0	43	0	632291328	62	5416
2026-01-27 23:18:27.07	100.78	58.03	-45.9	-49.4	14.8	0.00e+00	0	44	0	634388480	62	5717
2026-01-27 23:18:28.04	101.60	58.04	-45.4	-48.6	15.6	0.00e+00	0	43	0	635437056	62	5188
2026-01-27 23:18:29.04	102.44	58.04	-45.1	-48.1	16.1	0.00e+00	0	43	0	637534208	62	4916
2026-01-27 23:18:30.03	103.28	58.03	-44.7	-47.5	16.7	0.00e+00	0	44	0	639631360	61	4838
2026-01-27 23:18:31.02	104.11	58.02	-43.7	-46.3	17.8	0.00e+00	0	44	0	641728512	59	4715
2026-01-27 23:18:32.02	104.95	58.00	-43.5	-46.0	18.2	0.00e+00	0	43	0	643825664	58	4833
2026-01-27 23:18:33.01	105.79	57.97	-44.4	-47.1	17.0	0.00e+00	0	44	0	644874240	59	5209
2026-01-27 23:18:34.00	106.62	57.94	-45.1	-48.1	16.2	0.00e+00	0	43	0	646971392	60	5500
2026-01-27 23:18:34.99	107.45	57.91	-44.9	-47.9	16.3	0.00e+00	0	43	0	649068544	60	5387
2026-01-27 23:18:35.99	108.28	57.87	-44.8	-47.8	16.4	0.00e+00	0	43	0	651165696	60	5323
2026-01-27 23:18:36.98	109.11	57.82	-45.3	-48.6	15.6	0.00e+00	0	44	0	652214272	61	5519
2026-01-27 23:18:37.97	109.93	57.77	-46.0	-49.8	14.5	0.00e+00	0	43	0	654311424	62	5983
2026-01-27 23:18:38.96	110.75	57.71	-46.2	-50.1	14.3	7.00e-07	0	43	0	656408576	63	5806
2026-01-27 23:18:39.96	111.57	57.65	-46.3	-50.1	14.1	7.00e-07	0	43	0	658505728	63	5819
2026-01-27 23:18:40.95	112.38	57.58	-46.6	-50.8	13.4	5.30e-06	0	44	0	660602880	64	5941
2026-01-27 23:18:41.94	113.19	57.51	-47.2	-51.9	12.2	1.69e-04	0	44	0	661651456	65	6420
2026-01-27 23:18:42.94	114.00	57.43	-47.3	-52.2	11.9	3.81e-04	0	44	0	663748608	65	6585
2026-01-27 23:18:43.93	114.80	57.34	-46.5	-50.4	13.6	1.53e-04	0	44	0	665845760	65	5372
2026-01-27 23:18:44.92	115.59	57.25	-46.1	-49.7	14.5	2.20e-06	0	44	0	667942912	64	5245
2026-01-27 23:18:45.91	116.38	57.16	-46.6	-50.4	13.8	2.20e-06	0	44	0	668991488	64	5695
2026-01-27 23:18:46.91	117.17	57.06	-47.0	-51.2	12.9	2.05e-05	0	44	0	671088640	64	6225
2026-01-27 23:18:47.90	117.94	56.96	-46.6	-50.5	13.5	2.44e-05	0	44	0	673185792	64	5739
2026-01-27 23:18:48.89	118.71	56.85	-45.9	-49.3	15.0	0.00e+00	0	43	0	675282944	63	5288
2026-01-27 23:18:49.89	119.48	56.74	-45.5	-48.7	15.5	0.00e+00	0	44	0	677380096	62	5277
2026-01-27 23:18:50.88	120.24	56.62	-45.3	-48.4	15.7	0.00e+00	0	43	0	678428672	62	5092
2026-01-27 23:18:51.87	120.99	56.50	-45.3	-48.5	15.7	0.00e+00	0	44	0	680525824	62	5101
2026-01-27 23:18:52.87	121.75	56.37	-44.5	-47.3	16.9	0.00e+00	0	43	0	682622976	61	4737
2026-01-27 23:18:53.86	122.48	56.24	-44.0	-46.6	17.5	0.00e+00	0	44	0	684720128	59	4884
2026-01-27 23:18:54.85	123.21	56.10	-43.7	-46.2	17.9	0.00e+00	0	44	0	685768704	59	4676
2026-01-27 23:18:55.84	123.94	55.96	-43.6	-46.2	18.0	0.00e+00	0	44	0	687865856	59	4657
2026-01-27 23:18:56.84	124.66	55.82	-43.2	-45.6	18.5	0.00e+00	0	43	0	689963008	58	4650
2026-01-27 23:18:57.83	125.37	55.67	-42.9	-45.3	18.8	0.00e+00	0	43	0	692060160	57	4732
2026-01-27 23:18:58.82	126.07	55.52	-42.5	-44.8	19.2	0.00e+00	0	44	0	694157312	57	4453
2026-01-27 23:18:59.82	126.77	55.37	-42.3	-44.5	19.5	0.00e+00	0	44	0	695205888	56	4596
2026-01-27 23:19:00.81	127.46	55.21	-41.4	-43.6	20.2	0.00e+00	0	44	0	697303040	54	4602
2026-01-27 23:19:01.80	128.14	55.05	-41.0	-43.1	20.7	0.00e+00	0	43	0	699400192	54	4344
2026-01-27 23:19:02.80	128.82	54.88	-41.0	-43.0	20.7	0.00e+00	0	43	0	701497344	53	4582
2026-01-27 23:19:03.79	129.48	54.71	-40.7	-42.7	21.0	0.00e+00	0	43	0	702545920	53	4436
2026-01-27 23:19:04.78	130.13	54.54	-41.1	-43.2	20.5	0.00e+00	0	44	0	704643072	53	4693
2026-01-27 23:19:05.77	130.78	54.37	-40.8	-42.9	20.9	0.00e+00	0	44	0	706740224	53	4502
2026-01-27 23:19:06.77	131.43	54.19	-40.4	-42.4	21.3	0.00e+00	0	43	0	708837376	52	4527
2026-01-27 23:19:07.76	132.06	54.01	-40.7	-42.7	21.0	0.00e+00	0	43	0	710934528	52	4691
2026-01-27 23:19:08.75	132.68	53.83	-41.5	-43.6	20.2	0.00e+00	0	43	0	711983104	53	4921
2026-01-27 23:19:09.75	133.31	53.64	-42.0	-44.3	19.6	0.00e+00	0	44	0	714080256	54	4991
2026-01-27 23:19:10.74	133.92	53.45	-41.6	-43.7	20.1	0.00e+00	0	44	0	716177408	54	4675
2026-01-27 23:19:11.73	134.52	53.26	-41.4	-43.5	20.3	0.00e+00	0	44	0	718274560	54	4584
2026-01-27 23:19:12.73	135.11	53.06	-41.8	-44.0	19.9	0.00e+00	0	43	0	719323136	54	4817
2026-01-27 23:19:13.72	135.70	52.87	-42.5	-44.8	19.1	0.00e+00	0	44	0	721420288	55	5030
2026-01-27 23:19:14.71	136.28	52.67	-43.0	-45.4	18.7	0.00e+00	0	43	0	723517440	56	5081
2026-01-27 23:19:15.70	136.85	52.47	-43.0	-45.4	18.7	0.00e+00	0	43	0	725614592	56	5080
2026-01-27 23:19:16.70	137.41	52.27	-42.6	-44.8	19.2	0.00e+00	0	43	0	726663168	56	4753
2026-01-27 23:19:17.69	137.97	52.06	-42.4	-44.6	19.5	0.00e+00	0	44	0	728760320	56	4601
2026-01-27 23:19:18.68	138.52	51.86	-42.5	-44.7	19.4	0.00e+00	0	43	0	730857472	56	4689
2026-01-27 23:19:19.68	139.06	51.65	-43.2	-45.7	18.5	0.00e+00	0	44	0	732954624	57	4929
2026-01-27 23:19:20.67	139.59	51.44	-44.0	-46.7	17.5	0.00e+00	0	43	0	735051776	58	5262
2026-01-27 23:19:21.66	140.12	51.23	-44.0	-46.6	17.4	0.00e+00	0	43	0	736100352	58	5218
2026-01-27 23:19:22.66	140.64	51.02	-43.8	-46.4	17.7	0.00e+00	0	44	0	738197504	58	5078
2026-01-27 23:19:23.65	141.15	50.80	-43.8	-46.3	17.9	0.00e+00	0	44	0	740294656	58	4999
2026-01-27 23:19:24.64	141.65	50.59	-44.4	-47.2	17.0	0.00e+00	0	43	0	742391808	59	5237
2026-01-27 23:19:25.63	142.15	50.37	-44.8	-47.8	16.5	0.00e+00	0	44	0	743440384	60	5304
2026-01-27 23:19:26.63	142.64	50.15	-44.6	-47.5	16.7	0.00e+00	0	43	0	745537536	60	5151
2026-01-27 23:19:27.62	143.12	49.94	-44.4	-47.2	17.0	0.00e+00	0	43	0	747634688	60	4955
2026-01-27 23:19:28.61	143.60	49.72	-44.2	-46.8	17.3	0.00e+00	0	44	0	749731840	60	4746
2026-01-27 23:19:29.61	144.07	49.49	-44.2	-46.8	17.3	0.00e+00	0	43	0	751828992	59	5015
2026-01-27 23:19:30.60	144.53	49.27	-45.5	-48.7	15.5	0.00e+00	0	44	0	752877568	61	5591
2026-01-27 23:19:31.59	144.99	49.05	-46.6	-50.6	13.6	1.50e-06	0	44	0	754974720	63	6164
2026-01-27 23:19:32.59	145.44	48.83	-46.0	-49.6	14.5	1.06e-05	0	44	0	757071872	64	5175
2026-01-27 23:19:33.58	145.88	48.60	-44.8	-47.8	16.4	0.00e+00	0	43	0	759169024	61	4987
2026-01-27 23:19:34.57	146.32	48.38	-44.7	-47.6	16.6	0.00e+00	0	44	0	760217600	61	4905
2026-01-27 23:19:35.56	146.75	48.15	-45.1	-48.1	16.1	0.00e+00	0	43	0	762314752	61	5194
2026-01-27 23:19:36.56	147.18	47.93	-45.9	-49.2	15.0	0.00e+00	0	43	0	764411904	62	5573
2026-01-27 23:19:37.55	147.59	47.70	-46.0	-49.5	14.7	0.00e+00	0	43	0	766509056	62	5739
2026-01-27 23:19:38.54	148.00	47.48	-46.4	-50.1	14.2	7.00e-07	0	44	0	768606208	63	5805
2026-01-27 23:19:39.54	148.41	47.25	-46.6	-50.6	13.6	3.80e-06	0	43	0	769654784	63	6140
2026-01-27 23:19:40.53	148.81	47.02	-46.2	-49.9	14.1	3.80e-06	0	43	0	771751936	64	5375
2026-01-27 23:19:41.52	149.21	46.79	-45.4	-48.6	15.6	0.00e+00	0	44	0	773849088	62	5176
2026-01-27 23:19:42.51	149.60	46.57	-45.2	-48.3	15.9	0.00e+00	0	43	0	775946240	62	5001
2026-01-27 23:19:43.51	149.98	46.34	-45.5	-48.6	15.6	0.00e+00	0	43	0	776994816	62	5209
2026-01-27 23:19:44.50	150.36	46.11	-46.3	-50.0	14.2	1.50e-06	0	44	0	779091968	63	5732
2026-01-27 23:19:45.49	150.73	45.88	-46.2	-49.8	14.4	0.00e+00	0	44	0	781189120	63	5622
2026-01-27 23:19:46.49	151.10	45.65	-45.7	-48.9	15.3	0.00e+00	0	43	0	783286272	63	5080
2026-01-27 23:19:47.48	151.46	45.43	-45.5	-48.7	15.5	0.00e+00	0	43	0	785383424	63	4949
2026-01-27 23:19:48.47	151.82	45.20	-45.1	-48.1	16.0	0.00e+00	0	43	0	786432000	62	4919
2026-01-27 23:19:49.46	152.17	44.97	-44.8	-47.8	16.4	0.00e+00	0	44	0	788529152	61	4987
2026-01-27 23:19:50.46	152.52	44.74	-44.9	-47.8	16.3	0.00e+00	0	44	0	790626304	61	5024
2026-01-27 23:19:51.45	152.86	44.52	-45.3	-48.4	15.7	0.00e+00	0	44	0	792723456	61	5395
2026-01-27 23:19:52.44	153.20	44.29	-45.8	-49.2	14.9	0.00e+00	0	44	0	793772032	62	5580
2026-01-27 23:19:53.44	153.54	44.06	-46.2	-49.9	14.3	0.00e+00	0	43	0	795869184	63	5695
2026-01-27 23:19:54.43	153.86	43.83	-45.6	-48.8	15.3	0.00e+00	0	43	0	797966336	63	5028
2026-01-27 23:19:55.42	154.19	43.61	-44.3	-47.1	17.0	0.00e+00	0	43	0	800063488	60	4887
2026-01-27 23:19:56.41	154.51	43.38	-44.1	-46.7	17.5	0.00e+00	0	43	0	802160640	60	4667
2026-01-27 23:19:57.41	154.82	43.16	-44.6	-47.5	16.7	0.00e+00	0	43	0	803209216	60	5115
2026-01-27 23:19:58.40	155.13	42.93	-45.3	-48.6	15.6	0.00e+00	0	43	0	805306368	61	5486
2026-01-27 23:19:59.39	155.44	42.71	-45.3	-48.6	15.5	0.00e+00	0	43	0	807403520	61	5472
2026-01-27 23:20:00.39	155.74	42.48	-44.5	-47.3	16.8	0.00e+00	0	44	0	809500672	61	4740
2026-01-27 23:20:01.38	156.04	42.26	-43.8	-46.4	17.6	0.00e+00	0	44	0	810549248	59	4786
2026-01-27 23:20:02.37	156.33	42.04	-43.5	-45.9	18.1	0.00e+00	0	43	0	812646400	59	4542
2026-01-27 23:20:03.37	156.63	41.81	-44.1	-46.7	17.4	0.00e+00	0	43	0	814743552	59	4952
2026-01-27 23:20:04.36	156.91	41.59	-44.7	-47.6	16.5	0.00e+00	0	43	0	816840704	60	5199
2026-01-27 23:20:05.35	157.19	41.37	-44.8	-47.8	16.4	0.00e+00	0	43	0	818937856	60	5294
2026-01-27 23:20:06.35	157.47	41.15	-44.8	-47.8	16.4	0.00e+00	0	43	0	819986432	60	5289
2026-01-27 23:20:07.34	157.75	40.93	-44.6	-47.5	16.6	0.00e+00	0	43	0	822083584	60	5138
2026-01-27 23:20:08.33	158.02	40.71	-44.8	-47.8	16.3	0.00e+00	0	43	0	824180736	60	5290
2026-01-27 23:20:09.32	158.29	40.49	-44.7	-47.6	16.5	0.00e+00	0	44	0	826277888	60	5173
2026-01-27 23:20:10.32	158.55	40.27	-44.3	-47.0	17.1	0.00e+00	0	43	0	827326464	60	4855
2026-01-27 23:20:11.31	158.81	40.05	-43.9	-46.5	17.5	0.00e+00	0	43	0	829423616	59	4865
2026-01-27 23:20:12.30	159.07	39.83	-43.8	-46.3	17.7	0.00e+00	0	43	0	831520768	59	4750
2026-01-27 23:20:13.29	159.32	39.62	-43.9	-46.5	17.6	0.00e+00	0	43	0	833617920	59	4821
2026-01-27 23:20:14.29	159.57	39.40	-44.6	-47.4	16.6	0.00e+00	0	43	0	834666496	59	5400
2026-01-27 23:20:15.28	159.82	39.19	-45.2	-48.4	15.7	0.00e+00	0	44	0	836763648	61	5387
2026-01-27 23:20:16.27	160.06	38.97	-45.3	-48.6	15.5	0.00e+00	0	43	0	838860800	61	5499
2026-01-27 23:20:17.27	160.31	38.76	-44.6	-47.5	16.6	0.00e+00	0	43	0	840957952	61	4826
2026-01-27 23:20:18.26	160.54	38.55	-43.9	-46.5	17.5	0.00e+00	0	43	0	843055104	59	4853
2026-01-27 23:20:19.25	160.78	38.34	-43.4	-45.9	18.1	0.00e+00	0	43	0	844103680	58	4784
2026-01-27 23:20:20.25	161.01	38.12	-43.0	-45.4	18.6	0.00e+00	0	43	0	846200832	58	4521
2026-01-27 23:20:21.24	161.24	37.91	-43.0	-45.4	18.6	0.00e+00	0	43	0	848297984	58	4496
2026-01-27 23:20:22.23	161.47	37.70	-42.9	-45.3	18.7	0.00e+00	0	43	0	850395136	57	4718
2026-01-27 23:20:23.22	161.69	37.50	-43.2	-45.7	18.3	0.00e+00	0	43	0	851443712	57	4935
2026-01-27 23:20:24.22	161.91	37.29	-44.0	-46.7	17.4	0.00e+00	0	44	0	853540864	58	5226
2026-01-27 23:20:25.21	162.13	37.08	-44.7	-47.7	16.4	0.00e+00	0	43	0	855638016	60	5221
2026-01-27 23:20:26.20	162.34	36.88	-44.9	-47.9	16.2	0.00e+00	0	44	0	857735168	60	5389
2026-01-27 23:20:27.20	162.56	36.67	-44.5	-47.4	16.7	0.00e+00	0	43	0	859832320	60	5054
2026-01-27 23:20:28.19	162.77	36.46	-44.0	-46.6	17.4	0.00e+00	0	43	0	860880896	59	4914
2026-01-27 23:20:29.18	162.97	36.26	-43.5	-46.0	18.0	0.00e+00	0	44	0	862978048	58	4815
2026-01-27 23:20:30.17	163.18	36.06	-43.3	-45.8	18.1	0.00e+00	0	44	0	865075200	58	4747
2026-01-27 23:20:31.17	163.38	35.86	-43.2	-45.6	18.3	0.00e+00	0	43	0	867172352	58	4637
2026-01-27 23:20:32.16	163.58	35.66	-43.3	-45.8	18.2	0.00e+00	0	43	0	868220928	58	4752
2026-01-27 23:20:33.15	163.78	35.46	-44.0	-46.7	17.3	0.00e+00	0	43	0	870318080	58	5250
2026-01-27 23:20:34.15	163.97	35.26	-44.7	-47.6	16.5	0.00e+00	0	43	0	872415232	60	5188
2026-01-27 23:20:35.14	164.17	35.06	-45.3	-48.5	15.6	0.00e+00	0	44	0	874512384	61	5441
2026-01-27 23:20:36.13	164.36	34.86	-45.4	-48.7	15.4	0.00e+00	0	43	0	876609536	61	5531
2026-01-27 23:20:37.12	164.54	34.67	-45.0	-48.1	15.9	0.00e+00	0	44	0	877658112	61	5180
2026-01-27 23:20:38.12	164.73	34.47	-44.6	-47.5	16.6	0.00e+00	0	43	0	879755264	61	4821
2026-01-27 23:20:39.11	164.92	34.28	-44.3	-47.0	17.0	0.00e+00	0	44	0	881852416	60	4869
2026-01-27 23:20:40.10	165.10	34.08	-44.2	-47.0	17.0	0.00e+00	0	44	0	883949568	60	4849
2026-01-27 23:20:41.10	165.28	33.89	-43.8	-46.5	17.5	0.00e+00	0	44	0	884998144	59	4829
2026-01-27 23:20:42.09	165.45	33.70	-44.0	-46.7	17.3	0.00e+00	0	43	0	887095296	59	4951
2026-01-27 23:20:43.08	165.63	33.51	-44.0	-46.6	17.5	0.00e+00	0	43	0	889192448	59	4891
2026-01-27 23:20:44.07	165.80	33.32	-44.4	-47.2	16.9	0.00e+00	0	43	0	891289600	59	5223
2026-01-27 23:20:45.07	165.98	33.13	-44.7	-47.7	16.4	0.00e+00	0	43	0	893386752	60	5253
2026-01-27 23:20:46.06	166.15	32.94	-44.7	-47.7	16.4	0.00e+00	0	43	0	894435328	60	5221
2026-01-27 23:20:47.05	166.31	32.75	-44.8	-47.8	16.3	0.00e+00	0	43	0	896532480	60	5285
2026-01-27 23:20:48.05	166.48	32.56	-44.8	-47.7	16.4	0.00e+00	0	43	0	898629632	60	5251
2026-01-27 23:20:49.04	166.64	32.38	-44.7	-47.6	16.5	0.00e+00	0	44	0	900726784	60	5170
2026-01-27 23:20:50.03	166.81	32.19	-44.7	-47.6	16.4	0.00e+00	0	44	0	901775360	60	5197
2026-01-27 23:20:51.02	166.97	32.01	-44.7	-47.6	16.4	0.00e+00	0	43	0	903872512	60	5196
2026-01-27 23:20:52.02	167.13	31.83	-44.8	-47.7	16.3	0.00e+00	0	43	0	905969664	60	5259
2026-01-27 23:20:53.01	167.28	31.65	-44.7	-47.7	16.4	0.00e+00	0	43	0	908066816	60	5244
2026-01-27 23:20:54.00	167.44	31.46	-44.9	-48.0	16.1	0.00e+00	0	43	0	910163968	60	5426
2026-01-27 23:20:55.00	167.59	31.28	-44.9	-47.9	16.1	0.00e+00	0	43	0	911212544	60	5389
2026-01-27 23:20:55.99	167.74	31.10	-44.8	-47.8	16.2	0.00e+00	0	43	0	913309696	60	5317
2026-01-27 23:20:56.98	167.89	30.93	-44.8	-47.8	16.2	0.00e+00	0	44	0	915406848	60	5314
2026-01-27 23:20:57.98	168.04	30.75	-44.6	-47.5	16.5	0.00e+00	0	43	0	917504000	60	5147
2026-01-27 23:20:58.97	168.19	30.57	-44.6	-47.5	16.5	0.00e+00	0	43	0	918552576	60	5148
2026-01-27 23:20:59.96	168.34	30.40	-44.4	-47.2	16.9	0.00e+00	0	44	0	920649728	60	4938
2026-01-27 23:21:00.95	168.48	30.22	-44.4	-47.2	16.8	0.00e+00	0	43	0	922746880	60	4956
2026-01-27 23:21:01.95	168.62	30.05	-44.4	-47.3	16.7	0.00e+00	0	44	0	924844032	60	5034
2026-01-27 23:21:02.94	168.76	29.87	-44.6	-47.6	16.5	0.00e+00	0	43	0	925892608	60	5161
2026-01-27 23:21:03.93	168.90	29.70	-44.8	-47.8	16.3	0.00e+00	0	43	0	927989760	60	5293
2026-01-27 23:21:04.92	169.04	29.53	-45.0	-48.1	16.0	0.00e+00	0	43	0	930086912	60	5495
2026-01-27 23:21:05.92	169.18	29.36	-45.3	-48.5	15.6	0.00e+00	0	44	0	932184064	61	5452
2026-01-27 23:21:06.91	169.31	29.19	-45.4	-48.7	15.3	0.00e+00	0	44	0	934281216	61	5546
2026-01-27 23:21:07.90	169.45	29.02	-45.4	-48.7	15.3	0.00e+00	0	44	0	935329792	61	5564
2026-01-27 23:21:08.90	169.58	28.85	-45.4	-48.7	15.3	0.00e+00	0	43	0	937426944	61	5542
2026-01-27 23:21:09.89	169.71	28.68	-45.1	-48.3	15.7	0.00e+00	0	43	0	939524096	61	5317
2026-01-27 23:21:10.88	169.84	28.52	-45.0	-48.2	15.9	0.00e+00	0	43	0	941621248	61	5224
2026-01-27 23:21:11.88	169.97	28.35	-44.9	-47.9	16.1	0.00e+00	0	43	0	942669824	61	5089
2026-01-27 23:21:12.87	170.10	28.19	-44.7	-47.8	16.3	0.00e+00	0	43	0	944766976	61	4995
2026-01-27 23:21:13.86	170.22	28.02	-44.6	-47.5	16.5	0.00e+00	0	43	0	946864128	61	4865
2026-01-27 23:21:14.85	170.35	27.86	-44.5	-47.4	16.6	0.00e+00	0	44	0	948961280	60	5060
2026-01-27 23:21:15.85	170.47	27.70	-44.4	-47.3	16.7	0.00e+00	0	43	0	951058432	60	5011
2026-01-27 23:21:16.84	170.60	27.54	-44.4	-47.2	16.8	0.00e+00	0	43	0	952107008	60	4967
2026-01-27 23:21:17.83	170.72	27.38	-44.4	-47.2	16.8	0.00e+00	0	43	0	954204160	60	4957
2026-01-27 23:21:18.83	170.84	27.22	-44.4	-47.2	16.8	0.00e+00	0	43	0	956301312	60	4983
2026-01-27 23:21:19.82	170.96	27.06	-44.3	-47.1	16.9	0.00e+00	0	43	0	958398464	60	4924
2026-01-27 23:21:20.81	171.07	26.90	-44.2	-47.0	17.0	0.00e+00	0	43	0	959447040	60	4831
2026-01-27 23:21:21.80	171.19	26.74	-44.1	-46.9	17.1	0.00e+00	0	43	0	961544192	60	4778
2026-01-27 23:21:22.80	171.31	26.59	-44.2	-46.9	17.1	0.00e+00	0	43	0	963641344	60	4789
2026-01-27 23:21:23.79	171.42	26.43	-44.1	-46.8	17.2	0.00e+00	0	44	0	965738496	60	4726
2026-01-27 23:21:24.78	171.53	26.28	-43.9	-46.6	17.3	0.00e+00	0	43	0	967835648	59	4903
2026-01-27 23:21:25.77	171.65	26.12	-44.0	-46.6	17.3	0.00e+00	0	44	0	968884224	59	4926
2026-01-27 23:21:26.77	171.76	25.97	-43.9	-46.5	17.4	0.00e+00	0	43	0	970981376	59	4857
2026-01-27 23:21:27.76	171.87	25.81	-43.8	-46.4	17.5	0.00e+00	0	44	0	973078528	59	4784
2026-01-27 23:21:28.75	171.98	25.66	-43.7	-46.4	17.6	0.00e+00	0	44	0	975175680	59	4761
2026-01-27 23:21:29.75	172.09	25.51	-43.7	-46.3	17.7	0.00e+00	0	44	0	976224256	59	4707
2026-01-27 23:21:30.74	172.19	25.36	-43.5	-46.1	17.8	0.00e+00	0	44	0	978321408	59	4624
2026-01-27 23:21:31.73	172.30	25.21	-43.4	-45.9	18.0	0.00e+00	0	44	0	980418560	58	4788
2026-01-27 23:21:32.73	172.41	25.06	-43.5	-46.0	17.9	0.00e+00	0	43	0	982515712	58	4851
2026-01-27 23:21:33.72	172.51	24.91	-43.4	-45.9	18.0	0.00e+00	0	43	0	984612864	58	4789
2026-01-27 23:21:34.71	172.61	24.77	-43.2	-45.7	18.2	0.00e+00	0	43	0	985661440	58	4669
2026-01-27 23:21:35.70	172.72	24.62	-43.1	-45.6	18.3	0.00e+00	0	43	0	987758592	58	4621
2026-01-27 23:21:36.70	172.82	24.47	-43.2	-45.7	18.2	0.00e+00	0	44	0	989855744	58	4678
2026-01-27 23:21:37.69	172.92	24.33	-43.3	-45.7	18.2	0.00e+00	0	44	0	991952896	58	4689
2026-01-27 23:21:38.68	173.02	24.18	-43.5	-46.1	17.8	0.00e+00	0	43	0	993001472	58	4874
2026-01-27 23:21:39.67	173.12	24.04	-43.7	-46.2	17.7	0.00e+00	0	43	0	995098624	58	4982
2026-01-27 23:21:40.67	173.22	23.90	-43.8	-46.4	17.5	0.00e+00	0	43	0	997195776	58	5086
2026-01-27 23:21:41.66	173.31	23.75	-43.8	-46.5	17.4	0.00e+00	0	44	0	999292928	58	5127
2026-01-27 23:21:42.65	173.41	23.61	-43.8	-46.5	17.4	0.00e+00	0	43	0	1001390080	58	5142
2026-01-27 23:21:43.65	173.50	23.47	-43.9	-46.6	17.3	0.00e+00	0	43	0	1002438656	58	5179
2026-01-27 23:21:44.64	173.60	23.33	-43.8	-46.5	17.4	0.00e+00	0	44	0	1004535808	58	5134
2026-01-27 23:21:45.63	173.69	23.19	-43.7	-46.4	17.5	0.00e+00	0	44	0	1006632960	58	5044
2026-01-27 23:21:46.62	173.79	23.05	-43.7	-46.3	17.6	0.00e+00	0	44	0	1008730112	58	5009
2026-01-27 23:21:47.62	173.88	22.91	-43.3	-45.9	18.0	0.00e+00	0	43	0	1009778688	58	4796
2026-01-27 23:21:48.61	173.97	22.78	-43.1	-45.6	18.2	0.00e+00	0	44	0	1011875840	58	4625
2026-01-27 23:21:49.60	174.06	22.64	-43.0	-45.5	18.3	0.00e+00	0	43	0	1013972992	58	4571
2026-01-27 23:21:50.60	174.15	22.50	-42.7	-45.2	18.6	0.00e+00	0	43	0	1016070144	57	4661
2026-01-27 23:21:51.59	174.24	22.37	-42.5	-44.9	18.9	0.00e+00	0	44	0	1017118720	57	4524
2026-01-27 23:21:52.58	174.33	22.23	-42.5	-44.8	19.0	0.00e+00	0	43	0	1019215872	56	4730
2026-01-27 23:21:53.57	174.42	22.10	-42.4	-44.8	19.0	0.00e+00	0	43	0	1021313024	56	4711
2026-01-27 23:21:54.57	174.50	21.96	-42.3	-44.6	19.2	0.00e+00	0	43	0	1023410176	56	4622
2026-01-27 23:21:55.56	174.59	21.83	-42.2	-44.5	19.3	0.00e+00	0	43	0	1025507328	56	4572
2026-01-27 23:21:56.55	174.68	21.70	-42.2	-44.5	19.2	0.00e+00	0	44	0	1026555904	56	4595
2026-01-27 23:21:57.55	174.76	21.56	-42.1	-44.4	19.3	0.00e+00	0	43	0	1028653056	56	4532
2026-01-27 23:21:58.54	174.84	21.43	-42.2	-44.5	19.2	0.00e+00	0	43	0	1030750208	56	4593
2026-01-27 23:21:59.53	174.93	21.30	-42.3	-44.6	19.2	0.00e+00	0	43	0	1032847360	56	4636
2026-01-27 23:22:00.53	175.01	21.17	-42.3	-44.7	18.8	0.00e+00	0	44	0	1033895936	56	4663
2026-01-27 23:22:01.52	175.09	21.04	-42.4	-44.7	19.1	0.00e+00	0	44	0	1035993088	56	4684
2026-01-27 23:22:02.51	175.18	20.91	-42.4	-44.8	19.0	0.00e+00	0	43	0	1038090240	56	4718
2026-01-27 23:22:03.50	175.26	20.79	-42.5	-44.8	18.9	0.00e+00	0	44	0	1040187392	56	4751
2026-01-27 23:22:04.50	175.34	20.66	-42.5	-44.9	18.9	0.00e+00	0	44	0	1042284544	56	4774
2026-01-27 23:22:05.49	175.42	20.53	-42.6	-45.0	18.8	0.00e+00	0	43	0	1043333120	56	4844
2026-01-27 23:22:06.48	175.49	20.41	-42.7	-45.1	18.7	0.00e+00	0	44	0	1045430272	56	4874
2026-01-27 23:22:07.48	175.57	20.28	-42.6	-45.0	18.8	0.00e+00	0	44	0	1047527424	56	4866
2026-01-27 23:22:08.47	175.65	20.15	-42.7	-45.1	18.7	0.00e+00	0	44	0	1049624576	56	4904
2026-01-27 23:22:09.46	175.73	20.03	-42.7	-45.1	18.7	0.00e+00	0	44	0	1050673152	56	4873
2026-01-27 23:22:10.45	175.80	19.91	-42.7	-45.1	18.7	0.00e+00	0	43	0	1052770304	56	4895
2026-01-27 23:22:11.45	175.88	19.78	-42.8	-45.2	18.5	0.00e+00	0	43	0	1054867456	56	4975
2026-01-27 23:22:12.44	175.96	19.66	-42.7	-45.2	18.6	0.00e+00	0	44	0	1056964608	56	4938
2026-01-27 23:22:13.43	176.03	19.54	-42.6	-45.0	18.7	0.00e+00	0	43	0	1059061760	56	4856
2026-01-27 23:22:14.43	176.11	19.41	-42.7	-45.1	18.7	0.00e+00	0	44	0	1060110336	56	4903
2026-01-27 23:22:15.42	176.18	19.29	-42.7	-45.2	18.6	0.00e+00	0	43	0	1062207488	56	4936
2026-01-27 23:22:16.41	176.25	19.17	-42.5	-44.9	18.9	0.00e+00	0	43	0	1064304640	56	4784
2026-01-27 23:22:17.41	176.33	19.05	-42.5	-44.8	19.0	0.00e+00	0	43	0	1066401792	56	4746
2026-01-27 23:22:18.40	176.40	18.93	-42.5	-44.9	18.9	0.00e+00	0	43	0	1067450368	56	4763
2026-01-27 23:22:19.39	176.47	18.81	-42.4	-44.8	19.0	0.00e+00	0	44	0	1069547520	56	4707
2026-01-27 23:22:20.38	176.54	18.70	-42.3	-44.7	19.1	0.00e+00	0	44	0	1071644672	56	4657
2026-01-27 23:22:21.38	176.61	18.58	-42.3	-44.6	19.1	0.00e+00	0	43	0	1073741824	56	4640
2026-01-27 23:22:22.37	176.68	18.46	-42.3	-44.7	19.0	0.00e+00	0	43	0	1075838976	56	4663
2026-01-27 23:22:23.36	176.75	18.34	-42.2	-44.6	19.1	0.00e+00	0	44	0	1076887552	56	4601
2026-01-27 23:22:24.36	176.82	18.22	-42.4	-44.7	19.0	0.00e+00	0	44	0	1078984704	56	4694
2026-01-27 23:22:25.35	176.89	18.11	-42.4	-44.7	19.0	0.00e+00	0	43	0	1081081856	56	4682
2026-01-27 23:22:26.34	176.96	17.99	-42.5	-44.8	18.9	0.00e+00	0	43	0	1083179008	56	4741
2026-01-27 23:22:27.33	177.02	17.88	-42.6	-45.0	18.7	0.00e+00	0	43	0	1084227584	56	4833
2026-01-27 23:22:28.33	177.09	17.76	-42.6	-45.0	18.7	0.00e+00	0	43	0	1086324736	56	4830
2026-01-27 23:22:29.32	177.16	17.65	-42.6	-45.0	18.7	0.00e+00	0	43	0	1088421888	56	4833
2026-01-27 23:22:30.31	177.22	17.54	-42.7	-45.1	18.6	0.00e+00	0	44	0	1090519040	56	4925
2026-01-27 23:22:31.31	177.29	17.42	-42.7	-45.2	18.4	0.00e+00	0	43	0	1092616192	56	4933
2026-01-27 23:22:32.30	177.35	17.31	-42.9	-45.3	18.4	0.00e+00	0	44	0	1093664768	56	5027
2026-01-27 23:22:33.29	177.42	17.20	-42.9	-45.4	18.3	0.00e+00	0	43	0	1095761920	56	5077
2026-01-27 23:22:34.28	177.48	17.09	-42.9	-45.4	18.3	0.00e+00	0	43	0	1097859072	56	5083
2026-01-27 23:22:35.28	177.55	16.98	-43.1	-45.6	18.2	0.00e+00	0	43	0	1099956224	56	5190
2026-01-27 23:22:36.27	177.61	16.87	-43.0	-45.6	18.2	0.00e+00	0	43	0	1101004800	56	5168
2026-01-27 23:22:37.26	177.67	16.76	-43.0	-45.5	18.2	0.00e+00	0	43	0	1103101952	56	5152
2026-01-27 23:22:38.25	177.73	16.65	-43.1	-45.6	18.1	0.00e+00	0	43	0	1105199104	56	5198
2026-01-27 23:22:39.25	177.80	16.54	-43.2	-45.7	18.0	0.00e+00	0	43	0	1107296256	57	4976
2026-01-27 23:22:40.24	177.86	16.43	-43.2	-45.8	17.9	0.00e+00	0	43	0	1108344832	57	4997
2026-01-27 23:22:41.23	177.92	16.32	-43.1	-45.7	18.0	0.00e+00	0	43	0	1110441984	57	4943
2026-01-27 23:22:42.23	177.98	16.21	-42.9	-45.5	18.2	0.00e+00	0	43	0	1112539136	57	4827
2026-01-27 23:22:43.22	178.04	16.10	-43.0	-45.6	18.1	0.00e+00	0	43	0	1114636288	57	4906
2026-01-27 23:22:44.21	178.10	16.00	-43.0	-45.6	18.1	0.00e+00	0	43	0	1116733440	57	4877
2026-01-27 23:22:45.20	178.16	15.89	-43.0	-45.6	18.1	0.00e+00	0	44	0	1117782016	57	4908
2026-01-27 23:22:46.20	178.22	15.78	-43.0	-45.6	18.1	0.00e+00	0	43	0	1119879168	57	4914
2026-01-27 23:22:47.19	178.28	15.68	-43.0	-45.6	18.1	0.00e+00	0	44	0	1121976320	57	4902
2026-01-27 23:22:48.18	178.34	15.57	-43.0	-45.7	18.0	0.00e+00	0	43	0	1124073472	57	4950
2026-01-27 23:22:49.18	178.39	15.47	-43.1	-45.7	18.0	0.00e+00	0	43	0	1125122048	57	4983
2026-01-27 23:22:50.17	178.45	15.36	-43.1	-45.7	18.0	0.00e+00	0	43	0	1127219200	57	4975
2026-01-27 23:22:51.16	178.51	15.26	-43.1	-45.8	17.9	0.00e+00	0	43	0	1129316352	57	5013
2026-01-27 23:22:52.16	178.57	15.16	-43.0	-45.7	18.0	0.00e+00	0	43	0	1131413504	57	4939
2026-01-27 23:22:53.15	178.62	15.05	-43.1	-45.7	18.0	0.00e+00	0	44	0	1133510656	57	4982
2026-01-27 23:22:54.14	178.68	14.95	-43.2	-45.9	17.8	0.00e+00	0	43	0	1134559232	57	5060
2026-01-27 23:22:55.14	178.73	14.85	-43.3	-45.9	17.8	0.00e+00	0	43	0	1136656384	57	5085
2026-01-27 23:22:56.13	178.79	14.75	-43.2	-45.8	17.9	0.00e+00	0	43	0	1138753536	57	5035
2026-01-27 23:22:57.12	178.84	14.64	-43.4	-46.1	17.6	0.00e+00	0	43	0	1140850688	57	5168
2026-01-27 23:22:58.11	178.90	14.54	-43.3	-46.0	17.7	0.00e+00	0	44	0	1141899264	57	5147
2026-01-27 23:22:59.11	178.95	14.44	-43.4	-46.1	17.6	0.00e+00	0	43	0	1143996416	57	5214
2026-01-27 23:23:00.10	179.01	14.34	-43.6	-46.4	17.3	0.00e+00	0	44	0	1146093568	57	5346
2026-01-27 23:23:01.09	179.06	14.24	-43.6	-46.4	17.3	0.00e+00	0	43	0	1148190720	57	5360
2026-01-27 23:23:02.09	179.11	14.14	-43.6	-46.4	17.3	0.00e+00	0	43	0	1150287872	58	5081
2026-01-27 23:23:03.08	179.17	14.04	-43.6	-46.4	17.4	0.00e+00	0	43	0	1151336448	58	5044
2026-01-27 23:23:04.07	179.22	13.95	-43.6	-46.4	17.3	0.00e+00	0	44	0	1153433600	58	5053
2026-01-27 23:23:05.06	179.27	13.85	-43.6	-46.5	17.2	0.00e+00	0	43	0	1155530752	58	5131
2026-01-27 23:23:06.06	179.32	13.75	-43.7	-46.6	17.1	0.00e+00	0	43	0	1157627904	58	5168
2026-01-27 23:23:07.05	179.38	13.65	-43.7	-46.6	17.1	0.00e+00	0	43	0	1158676480	58	5203
2026-01-27 23:23:08.04	179.43	13.55	-43.7	-46.6	17.1	0.00e+00	0	43	0	1160773632	58	5189
2026-01-27 23:23:09.03	179.48	13.46	-43.7	-46.7	17.0	0.00e+00	0	44	0	1162870784	58	5229
2026-01-27 23:23:10.03	179.53	13.36	-43.7	-46.7	17.0	0.00e+00	0	43	0	1164967936	58	5221
2026-01-27 23:23:11.02	179.58	13.26	-43.8	-46.8	17.0	0.00e+00	0	43	0	1167065088	58	5288
2026-01-27 23:23:12.01	179.63	13.17	-43.7	-46.7	17.0	0.00e+00	0	44	0	1168113664	58	5247
2026-01-27 23:23:13.01	179.68	13.07	-43.8	-46.8	17.0	0.00e+00	0	44	0	1170210816	58	5285
2026-01-27 23:23:14.00	179.73	12.98	-43.8	-46.8	16.9	0.00e+00	0	43	0	1172307968	58	5292
2026-01-27 23:23:14.99	179.78	12.88	-43.8	-46.9	16.9	0.00e+00	0	43	0	1174405120	58	5347
2026-01-27 23:23:15.99	179.83	12.79	-43.9	-46.9	16.9	0.00e+00	0	44	0	1175453696	58	5344
2026-01-27 23:23:16.98	179.88	12.69	-43.9	-46.9	16.9	0.00e+00	0	43	0	1177550848	58	5345
2026-01-27 23:23:17.97	179.92	12.60	-43.8	-46.8	16.9	0.00e+00	0	43	0	1179648000	58	5307
2026-01-27 23:23:18.96	179.97	12.51	-43.9	-46.9	16.8	0.00e+00	0	43	0	1181745152	58	5374
2026-01-27 23:23:19.96	180.02	12.41	-44.0	-47.0	16.7	0.00e+00	0	43	0	1183842304	58	5416
2026-01-27 23:23:20.95	180.07	12.32	-44.0	-47.0	16.7	0.00e+00	0	44	0	1184890880	58	5431
2026-01-27 23:23:21.94	180.11	12.23	-44.1	-47.1	16.6	0.00e+00	0	44	0	1186988032	58	5508
2026-01-27 23:23:22.94	180.16	12.14	-44.0	-47.0	16.7	0.00e+00	0	43	0	1189085184	58	5458
2026-01-27 23:23:23.93	180.21	12.05	-44.1	-47.2	16.6	0.00e+00	0	43	0	1191182336	58	5536
2026-01-27 23:23:24.92	180.25	11.95	-44.0	-47.0	16.7	0.00e+00	0	43	0	1192230912	58	5418
2026-01-27 23:23:25.92	180.30	11.86	-44.2	-47.3	16.4	0.00e+00	0	43	0	1194328064	58	5597
2026-01-27 23:23:26.91	180.35	11.77	-44.0	-47.0	16.6	0.00e+00	0	44	0	1196425216	59	5148
2026-01-27 23:23:27.90	180.39	11.68	-44.0	-47.0	16.7	0.00e+00	0	44	0	1198522368	59	5147
2026-01-27 23:23:28.89	180.44	11.59	-44.1	-47.1	16.6	0.00e+00	0	43	0	1199570944	59	5174
