passes_logs/2026/01/27/T1/T1__20260127_150116_FENGYUN_3E_rec.log

#Pass ID: 20260127_150116_FENGYUN 3E
#Satellite: FENGYUN 3E
#Configuration: FENGYUN 3E
#almurnet v.1.7.20251203
#Start time: 2026-01-27 15:01:16

#Version: 2.0.20230620
#Station: T1
#Location: 37.570604 lon 55.790049 lat
#TLE: 1 49008U 21062A   26026.84429991  .00000247  00000+0  13693-3 0  9991
#TLE: 2 49008  98.7501  31.8345 0002501 116.3456 243.7977 14.19887781236522

#Time	Az	El	Level	Level2	SNR	BER	BlckErr	Temp	State	Recorded	gain1	gain2
2026-01-27 15:01:16.39	186.03	4.96	-50.1	-61.6	3.8	8.46e-01	0	41	0	0	70	13640
2026-01-27 15:01:17.38	186.08	5.03	-50.1	-61.6	3.8	8.47e-01	0	41	104	0	70	13573
2026-01-27 15:01:18.37	186.12	5.10	-50.2	-61.4	3.8	8.47e-01	0	42	104	0	70	13396
2026-01-27 15:01:19.36	186.17	5.17	-50.0	-61.5	3.8	8.47e-01	0	42	104	0	70	13430
2026-01-27 15:01:20.36	186.22	5.23	-50.0	-61.3	3.8	8.46e-01	0	42	104	0	70	13235
2026-01-27 15:01:21.35	186.26	5.30	-49.9	-61.1	3.8	8.47e-01	0	42	104	0	70	12936
2026-01-27 15:01:22.35	186.31	5.37	-49.8	-61.0	3.8	8.47e-01	0	42	104	0	70	12737
2026-01-27 15:01:23.34	186.36	5.44	-49.7	-61.1	3.8	8.47e-01	0	42	104	0	70	12852
2026-01-27 15:01:24.33	186.40	5.51	-49.4	-59.8	3.8	8.47e-01	0	42	104	0	69	11810
2026-01-27 15:01:25.32	186.45	5.58	-49.3	-60.2	3.8	8.46e-01	0	42	104	0	69	12344
2026-01-27 15:01:26.32	186.50	5.65	-49.3	-60.1	3.8	8.46e-01	0	42	104	0	69	12203
2026-01-27 15:01:27.31	186.55	5.72	-49.3	-60.2	3.8	8.48e-01	0	42	104	0	69	12298
2026-01-27 15:01:28.30	186.60	5.79	-49.4	-60.4	3.8	8.47e-01	0	42	104	0	69	12568
2026-01-27 15:01:29.30	186.65	5.86	-49.4	-60.5	3.8	8.47e-01	0	42	104	0	69	12791
2026-01-27 15:01:30.29	186.69	5.93	-49.4	-60.7	3.8	8.48e-01	0	42	104	0	69	13052
2026-01-27 15:01:31.28	186.74	6.00	-49.4	-60.9	3.8	8.48e-01	0	42	104	0	69	13309
2026-01-27 15:01:32.27	186.79	6.07	-49.4	-61.0	3.8	8.47e-01	0	42	104	0	69	13554
2026-01-27 15:01:33.27	186.84	6.14	-49.4	-61.1	3.8	8.48e-01	0	42	104	0	69	13644
2026-01-27 15:01:34.26	186.89	6.21	-49.5	-61.2	3.8	8.47e-01	0	42	104	0	69	13763
2026-01-27 15:01:35.25	186.94	6.28	-49.5	-61.2	3.8	8.47e-01	0	42	104	0	69	13762
2026-01-27 15:01:36.25	186.99	6.35	-49.5	-61.1	3.8	8.46e-01	0	42	104	0	69	13706
2026-01-27 15:01:37.24	187.04	6.42	-49.5	-61.1	3.8	8.46e-01	0	42	104	0	69	13666
2026-01-27 15:01:38.23	187.09	6.49	-49.5	-61.2	3.8	8.45e-01	0	42	104	0	69	13729
2026-01-27 15:01:39.23	187.14	6.57	-49.4	-61.0	3.8	8.46e-01	0	42	104	0	69	13473
2026-01-27 15:01:40.22	187.20	6.64	-49.4	-60.7	3.8	8.46e-01	0	42	104	0	69	13001
2026-01-27 15:01:41.21	187.25	6.71	-49.3	-60.1	3.8	8.46e-01	0	43	104	0	69	12190
2026-01-27 15:01:42.21	187.30	6.78	-49.3	-59.3	3.8	8.46e-01	0	43	104	0	69	11090
2026-01-27 15:01:43.20	187.35	6.85	-49.1	-58.4	4.0	8.44e-01	0	42	104	0	69	9962
2026-01-27 15:01:44.19	187.40	6.93	-49.0	-57.4	4.3	8.35e-01	0	43	0	0	68	9432
2026-01-27 15:01:45.18	187.45	7.00	-48.8	-56.7	4.5	8.23e-01	0	43	0	0	68	8714
2026-01-27 15:01:46.18	187.51	7.07	-48.8	-56.4	4.6	8.11e-01	0	43	0	0	68	8417
2026-01-27 15:01:47.17	187.56	7.15	-48.7	-56.3	4.7	8.08e-01	0	43	0	0	68	8331
2026-01-27 15:01:48.16	187.61	7.22	-48.9	-56.8	4.5	8.19e-01	0	43	0	0	68	8824
2026-01-27 15:01:49.16	187.67	7.29	-48.9	-57.0	4.4	8.29e-01	0	43	0	0	68	8975
2026-01-27 15:01:50.15	187.72	7.37	-48.8	-56.5	4.6	8.20e-01	0	43	0	0	68	8519
2026-01-27 15:01:51.14	187.77	7.44	-48.2	-54.3	5.7	7.31e-01	0	43	0	0	67	7004
2026-01-27 15:01:52.13	187.83	7.51	-47.4	-52.1	7.6	1.14e-01	0	43	0	6291456	65	6119
2026-01-27 15:01:53.13	187.88	7.59	-46.1	-49.6	10.3	9.36e-03	0	43	0	13631488	63	5109
2026-01-27 15:01:54.12	187.94	7.66	-44.7	-47.3	12.6	4.24e-04	0	43	0	20971520	60	4699
2026-01-27 15:01:55.11	187.99	7.74	-43.4	-45.6	14.3	0.00e+00	0	43	0	28311552	57	4552
2026-01-27 15:01:56.11	188.05	7.81	-42.1	-44.0	15.7	0.00e+00	0	43	0	35651584	55	4257
2026-01-27 15:01:57.10	188.10	7.89	-41.2	-42.9	16.6	0.00e+00	0	43	0	42991616	53	4238
2026-01-27 15:01:58.09	188.16	7.96	-40.5	-42.2	17.4	0.00e+00	0	43	0	49283072	51	4343
2026-01-27 15:01:59.08	188.21	8.04	-40.2	-41.8	17.8	0.00e+00	0	43	0	56623104	50	4403
2026-01-27 15:02:00.08	188.27	8.12	-39.6	-41.2	18.3	0.00e+00	0	43	0	63963136	50	4107
2026-01-27 15:02:01.07	188.33	8.19	-39.6	-41.1	18.4	0.00e+00	0	43	0	71303168	49	4316
2026-01-27 15:02:02.06	188.38	8.27	-39.8	-41.4	18.1	0.00e+00	0	43	0	78643200	49	4453
2026-01-27 15:02:03.05	188.44	8.34	-40.0	-41.5	18.0	0.00e+00	0	43	0	85983232	49	4541
2026-01-27 15:02:04.05	188.50	8.42	-40.4	-42.0	17.6	0.00e+00	0	43	0	93323264	50	4542
2026-01-27 15:02:05.04	188.56	8.50	-41.2	-43.0	16.7	0.00e+00	0	43	0	99614720	51	4765
2026-01-27 15:02:06.03	188.61	8.57	-41.8	-43.7	16.0	0.00e+00	0	43	0	106954752	53	4599
2026-01-27 15:02:07.03	188.67	8.65	-42.8	-44.9	14.8	0.00e+00	0	43	0	114294784	55	4718
2026-01-27 15:02:08.02	188.73	8.73	-43.9	-46.2	13.6	2.20e-06	0	43	0	121634816	57	4893
2026-01-27 15:02:09.01	188.79	8.81	-44.9	-47.6	12.2	6.17e-05	0	43	0	128974848	59	5125
2026-01-27 15:02:10.00	188.85	8.88	-45.8	-49.1	10.8	5.93e-04	0	43	0	135266304	61	5439
2026-01-27 15:02:11.00	188.91	8.96	-46.6	-50.4	9.5	1.01e-02	0	43	0	142606336	62	5933
2026-01-27 15:02:11.99	188.97	9.04	-47.2	-51.6	8.2	4.09e-02	0	43	0	149946368	63	6444
2026-01-27 15:02:12.98	189.03	9.12	-45.3	-48.2	11.7	2.77e-03	0	43	0	157286400	61	4918
2026-01-27 15:02:13.98	189.09	9.20	-43.5	-45.8	14.1	3.40e-06	0	43	0	164626432	57	4655
2026-01-27 15:02:14.97	189.15	9.28	-48.5	-55.6	4.9	4.16e-01	0	43	0	169869312	66	8598
2026-01-27 15:02:15.97	189.21	9.36	-46.3	-50.2	9.7	2.15e-02	0	43	0	175112192	63	5471
2026-01-27 15:02:16.96	189.27	9.44	-44.8	-47.5	12.4	2.86e-05	0	43	0	182452224	59	5045
2026-01-27 15:02:17.96	189.33	9.52	-44.0	-46.4	13.5	1.83e-05	0	44	0	189792256	58	4722
2026-01-27 15:02:18.95	189.39	9.60	-43.1	-45.2	14.7	0.00e+00	0	43	0	196083712	56	4636
2026-01-27 15:02:19.95	189.46	9.68	-42.8	-44.7	15.1	0.00e+00	0	43	0	203423744	56	4390
2026-01-27 15:02:20.94	189.52	9.76	-42.7	-44.7	15.2	0.00e+00	0	43	0	210763776	56	4351
2026-01-27 15:02:21.94	189.58	9.84	-42.2	-44.1	15.6	0.00e+00	0	44	0	218103808	55	4305
2026-01-27 15:02:22.93	189.65	9.92	-41.9	-43.8	16.0	0.00e+00	0	43	0	225443840	54	4404
2026-01-27 15:02:23.92	189.71	10.00	-41.1	-42.8	16.8	0.00e+00	0	43	0	232783872	53	4182
2026-01-27 15:02:24.92	189.77	10.08	-41.1	-42.8	16.8	0.00e+00	0	43	0	239075328	52	4423
2026-01-27 15:02:25.91	189.84	10.16	-40.8	-42.6	17.1	0.00e+00	0	43	0	246415360	52	4292
2026-01-27 15:02:26.91	189.90	10.24	-40.6	-42.2	17.4	0.00e+00	0	43	0	253755392	51	4391
2026-01-27 15:02:27.90	189.97	10.33	-40.7	-42.3	17.3	0.00e+00	0	44	0	261095424	51	4433
2026-01-27 15:02:28.90	190.03	10.41	-40.7	-42.4	17.3	0.00e+00	0	44	0	268435456	51	4453
2026-01-27 15:02:29.89	190.10	10.49	-40.7	-42.4	17.3	0.00e+00	0	44	0	275775488	51	4467
2026-01-27 15:02:30.89	190.17	10.57	-40.7	-42.5	17.3	0.00e+00	0	44	0	282066944	51	4494
2026-01-27 15:02:31.88	190.23	10.66	-40.5	-42.2	17.5	0.00e+00	0	44	0	289406976	51	4374
2026-01-27 15:02:32.88	190.30	10.74	-40.1	-41.7	17.9	0.00e+00	0	44	0	296747008	51	4128
2026-01-27 15:02:33.87	190.37	10.82	-39.9	-41.5	18.1	0.00e+00	0	44	0	304087040	50	4266
2026-01-27 15:02:34.87	190.43	10.91	-39.6	-41.1	18.4	0.00e+00	0	44	0	311427072	50	4089
2026-01-27 15:02:35.87	190.50	10.99	-39.4	-41.0	18.6	0.00e+00	0	44	0	318767104	49	4244
2026-01-27 15:02:36.86	190.57	11.08	-39.4	-41.0	18.5	0.00e+00	0	44	0	326107136	49	4275
2026-01-27 15:02:37.85	190.64	11.16	-39.2	-40.8	18.8	0.00e+00	0	44	0	333447168	49	4150
2026-01-27 15:02:38.85	190.71	11.25	-39.1	-40.6	18.9	0.00e+00	0	44	0	339738624	48	4334
2026-01-27 15:02:39.84	190.78	11.33	-38.9	-40.5	19.0	0.00e+00	0	44	0	347078656	48	4275
2026-01-27 15:02:40.84	190.85	11.42	-38.9	-40.5	19.0	0.00e+00	0	44	0	354418688	48	4257
2026-01-27 15:02:41.83	190.92	11.50	-38.8	-40.3	19.2	0.00e+00	0	44	0	361758720	48	4181
2026-01-27 15:02:42.83	190.99	11.59	-38.8	-40.4	19.1	0.00e+00	0	44	0	369098752	48	4195
2026-01-27 15:02:43.83	191.06	11.68	-38.6	-40.2	19.3	0.00e+00	0	44	0	376438784	48	4102
2026-01-27 15:02:44.82	191.13	11.76	-38.6	-40.2	19.3	0.00e+00	0	44	0	382730240	48	4104
2026-01-27 15:02:45.82	191.20	11.85	-38.6	-40.2	19.3	0.00e+00	0	44	0	390070272	48	4110
2026-01-27 15:02:46.81	191.27	11.94	-38.5	-40.0	19.1	0.00e+00	0	44	0	397410304	47	4291
2026-01-27 15:02:47.80	191.35	12.02	-38.5	-40.1	19.1	0.00e+00	0	44	0	404750336	47	4301
2026-01-27 15:02:48.80	191.42	12.11	-38.5	-40.1	19.1	0.00e+00	0	44	0	412090368	47	4300
2026-01-27 15:02:49.79	191.49	12.20	-38.4	-40.0	19.2	0.00e+00	0	44	0	419430400	47	4260
2026-01-27 15:02:50.79	191.57	12.29	-38.4	-40.0	19.2	0.00e+00	0	44	0	425721856	47	4270
2026-01-27 15:02:51.78	191.64	12.38	-38.4	-39.9	19.3	0.00e+00	0	44	0	433061888	47	4237
2026-01-27 15:02:52.78	191.72	12.46	-38.5	-40.1	19.1	0.00e+00	0	44	0	440401920	47	4300
2026-01-27 15:02:53.77	191.79	12.55	-38.4	-39.9	19.2	0.00e+00	0	44	0	447741952	47	4237
2026-01-27 15:02:54.77	191.87	12.64	-38.4	-40.0	19.2	0.00e+00	0	44	0	455081984	47	4272
2026-01-27 15:02:55.77	191.94	12.73	-38.6	-40.2	19.0	0.00e+00	0	44	0	462422016	47	4364
2026-01-27 15:02:56.76	192.02	12.82	-38.7	-40.3	19.0	0.00e+00	0	44	0	469762048	47	4411
2026-01-27 15:02:57.75	192.10	12.91	-38.4	-39.9	19.3	0.00e+00	0	44	0	477102080	47	4228
2026-01-27 15:02:58.75	192.18	13.00	-38.3	-39.9	19.3	0.00e+00	0	44	0	483393536	47	4216
2026-01-27 15:02:59.74	192.25	13.09	-38.4	-40.0	19.2	0.00e+00	0	44	0	490733568	47	4264
2026-01-27 15:03:00.74	192.33	13.18	-38.5	-40.1	19.2	0.00e+00	0	44	0	498073600	47	4316
2026-01-27 15:03:01.73	192.41	13.28	-38.6	-40.2	19.1	0.00e+00	0	44	0	505413632	47	4386
2026-01-27 15:03:02.73	192.49	13.37	-38.6	-40.2	19.0	0.00e+00	0	44	0	512753664	47	4380
2026-01-27 15:03:03.72	192.57	13.46	-38.3	-39.9	19.3	0.00e+00	0	44	0	520093696	47	4220
2026-01-27 15:03:04.72	192.65	13.55	-38.2	-39.8	19.4	0.00e+00	0	44	0	526385152	47	4173
2026-01-27 15:03:05.71	192.73	13.64	-37.9	-39.5	19.7	0.00e+00	0	44	0	533725184	46	4267
2026-01-27 15:03:06.71	192.81	13.74	-37.9	-39.4	19.8	0.00e+00	0	44	0	541065216	46	4213
2026-01-27 15:03:07.70	192.89	13.83	-37.9	-39.5	19.8	0.00e+00	0	44	0	548405248	46	4243
2026-01-27 15:03:08.70	192.98	13.92	-38.0	-39.6	19.7	0.00e+00	0	44	0	555745280	46	4295
2026-01-27 15:03:09.69	193.06	14.02	-38.0	-39.5	19.7	0.00e+00	0	44	0	562036736	46	4289
2026-01-27 15:03:10.69	193.14	14.11	-37.8	-39.3	19.9	0.00e+00	0	44	0	569376768	46	4152
2026-01-27 15:03:11.68	193.22	14.21	-37.9	-39.4	19.8	0.00e+00	0	44	0	576716800	46	4213
2026-01-27 15:03:12.68	193.31	14.30	-37.9	-39.4	19.8	0.00e+00	0	44	0	584056832	46	4216
2026-01-27 15:03:13.67	193.39	14.40	-37.8	-39.3	19.9	0.00e+00	0	44	0	591396864	46	4167
2026-01-27 15:03:14.67	193.48	14.49	-38.0	-39.5	19.8	0.00e+00	0	44	0	598736896	46	4247
2026-01-27 15:03:15.66	193.56	14.59	-37.8	-39.2	20.0	0.00e+00	0	44	0	606076928	46	4141
2026-01-27 15:03:16.66	193.65	14.68	-37.7	-39.2	20.0	0.00e+00	0	44	0	613416960	46	4123
2026-01-27 15:03:17.66	193.74	14.78	-37.8	-39.3	19.9	0.00e+00	0	44	0	620756992	46	4150
2026-01-27 15:03:18.65	193.83	14.88	-37.6	-39.1	20.1	0.00e+00	0	44	0	627048448	45	4311
2026-01-27 15:03:19.64	193.91	14.97	-37.7	-39.2	20.0	0.00e+00	0	44	0	634388480	45	4350
2026-01-27 15:03:20.64	194.00	15.07	-37.7	-39.1	20.0	0.00e+00	0	44	0	641728512	45	4339
2026-01-27 15:03:21.63	194.09	15.17	-37.7	-39.1	20.0	0.00e+00	0	44	0	649068544	45	4330
2026-01-27 15:03:22.63	194.18	15.27	-37.7	-39.1	20.0	0.00e+00	0	44	0	656408576	45	4338
2026-01-27 15:03:23.62	194.27	15.36	-37.6	-39.0	20.1	0.00e+00	0	44	0	663748608	45	4276
2026-01-27 15:03:24.62	194.36	15.46	-37.7	-39.2	20.1	0.00e+00	0	44	0	670040064	45	4342
2026-01-27 15:03:25.61	194.45	15.56	-37.7	-39.2	20.0	0.00e+00	0	44	0	677380096	45	4357
2026-01-27 15:03:26.61	194.54	15.66	-37.8	-39.2	20.0	0.00e+00	0	44	0	684720128	45	4380
2026-01-27 15:03:27.60	194.64	15.76	-37.6	-39.1	20.1	0.00e+00	0	44	0	692060160	45	4304
2026-01-27 15:03:28.59	194.73	15.86	-37.6	-39.1	20.1	0.00e+00	0	44	0	699400192	45	4295
2026-01-27 15:03:29.59	194.82	15.96	-37.7	-39.1	20.1	0.00e+00	0	44	0	705691648	45	4323
2026-01-27 15:03:30.58	194.92	16.06	-37.6	-39.0	20.2	0.00e+00	0	44	0	713031680	45	4276
2026-01-27 15:03:31.58	195.01	16.16	-37.6	-39.0	20.2	0.00e+00	0	44	0	720371712	45	4279
2026-01-27 15:03:32.57	195.11	16.26	-37.6	-39.0	20.2	0.00e+00	0	44	0	727711744	45	4278
2026-01-27 15:03:33.57	195.20	16.36	-37.3	-38.7	20.5	0.00e+00	0	44	0	735051776	45	4126
2026-01-27 15:03:34.56	195.30	16.47	-37.5	-39.0	20.2	0.00e+00	0	44	0	742391808	45	4259
2026-01-27 15:03:35.56	195.40	16.57	-37.5	-38.9	20.3	0.00e+00	0	44	0	749731840	45	4241
2026-01-27 15:03:36.55	195.50	16.67	-37.6	-39.1	20.2	0.00e+00	0	44	0	757071872	45	4305
2026-01-27 15:03:37.55	195.60	16.77	-37.4	-38.8	20.4	0.00e+00	0	44	0	764411904	45	4186
2026-01-27 15:03:38.54	195.69	16.88	-37.3	-38.7	20.4	0.00e+00	0	44	0	770703360	45	4143
2026-01-27 15:03:39.54	195.79	16.98	-37.3	-38.7	20.5	0.00e+00	0	44	0	778043392	45	4124
2026-01-27 15:03:40.53	195.89	17.09	-37.3	-38.7	20.5	0.00e+00	0	44	0	785383424	45	4131
2026-01-27 15:03:41.53	196.00	17.19	-37.2	-38.7	20.5	0.00e+00	0	44	0	792723456	45	4102
2026-01-27 15:03:42.52	196.10	17.30	-37.2	-38.6	20.6	0.00e+00	0	44	0	800063488	45	4071
2026-01-27 15:03:43.52	196.20	17.40	-37.1	-38.5	20.6	0.00e+00	0	44	0	807403520	44	4272
2026-01-27 15:03:44.51	196.30	17.51	-37.1	-38.5	20.6	0.00e+00	0	44	0	813694976	44	4279
2026-01-27 15:03:45.51	196.41	17.61	-37.1	-38.5	20.6	0.00e+00	0	44	0	821035008	44	4273
2026-01-27 15:03:46.50	196.51	17.72	-37.0	-38.4	20.7	0.00e+00	0	44	0	828375040	44	4207
2026-01-27 15:03:47.50	196.62	17.83	-36.9	-38.2	20.8	0.00e+00	0	44	0	835715072	44	4144
2026-01-27 15:03:48.49	196.73	17.93	-36.8	-38.1	20.9	0.00e+00	0	44	0	843055104	44	4075
2026-01-27 15:03:49.49	196.83	18.04	-36.6	-37.9	21.1	0.00e+00	0	44	0	849346560	44	3977
2026-01-27 15:03:50.48	196.94	18.15	-36.7	-38.0	20.8	0.00e+00	0	44	0	856686592	43	4289
2026-01-27 15:03:51.48	197.05	18.26	-36.7	-38.0	20.9	0.00e+00	0	44	0	864026624	43	4266
2026-01-27 15:03:52.47	197.16	18.36	-36.6	-37.9	21.0	0.00e+00	0	44	0	871366656	43	4214
2026-01-27 15:03:53.47	197.27	18.47	-36.6	-37.9	20.9	0.00e+00	0	44	0	878706688	43	4230
2026-01-27 15:03:54.46	197.38	18.58	-36.5	-37.8	21.0	0.00e+00	0	44	0	886046720	43	4193
2026-01-27 15:03:55.46	197.49	18.69	-36.5	-37.8	21.0	0.00e+00	0	44	0	893386752	43	4168
2026-01-27 15:03:56.45	197.60	18.80	-36.5	-37.8	21.0	0.00e+00	0	44	0	900726784	43	4174
2026-01-27 15:03:57.45	197.72	18.91	-36.4	-37.7	21.1	0.00e+00	0	44	0	908066816	43	4131
2026-01-27 15:03:58.44	197.83	19.02	-36.4	-37.7	21.1	0.00e+00	0	44	0	914358272	43	4121
2026-01-27 15:03:59.43	197.94	19.14	-36.4	-37.8	21.0	0.00e+00	0	44	0	921698304	43	4148
2026-01-27 15:04:00.43	198.06	19.25	-36.4	-37.7	21.1	0.00e+00	0	44	0	929038336	43	4108
2026-01-27 15:04:01.42	198.18	19.36	-36.5	-37.8	21.0	0.00e+00	0	44	0	936378368	43	4170
2026-01-27 15:04:02.42	198.29	19.47	-36.5	-37.8	21.0	0.00e+00	0	44	0	943718400	43	4185
2026-01-27 15:04:03.41	198.41	19.58	-36.6	-37.9	20.8	0.00e+00	0	44	0	951058432	43	4236
2026-01-27 15:04:04.41	198.53	19.70	-36.6	-38.0	20.8	0.00e+00	0	44	0	957349888	43	4266
2026-01-27 15:04:05.40	198.65	19.81	-36.4	-37.8	21.0	0.00e+00	0	44	0	964689920	43	4168
2026-01-27 15:04:06.39	198.77	19.93	-36.5	-37.9	20.9	0.00e+00	0	44	0	972029952	43	4213
2026-01-27 15:04:07.39	198.89	20.04	-36.6	-37.9	20.9	0.00e+00	0	44	0	979369984	43	4235
2026-01-27 15:04:08.38	199.01	20.15	-36.5	-37.9	20.9	0.00e+00	0	44	0	986710016	43	4219
2026-01-27 15:04:09.38	199.14	20.27	-36.5	-37.9	20.9	0.00e+00	0	44	0	993001472	43	4227
2026-01-27 15:04:10.37	199.26	20.39	-36.7	-38.1	20.7	0.00e+00	0	44	0	1000341504	43	4330
2026-01-27 15:04:11.37	199.39	20.50	-36.5	-37.9	20.9	0.00e+00	0	44	0	1007681536	43	4224
2026-01-27 15:04:12.36	199.51	20.62	-36.6	-38.0	20.8	0.00e+00	0	44	0	1015021568	43	4269
2026-01-27 15:04:13.36	199.64	20.74	-36.4	-37.8	21.0	0.00e+00	0	44	0	1022361600	43	4160
2026-01-27 15:04:14.35	199.77	20.85	-36.4	-37.7	21.1	0.00e+00	0	44	0	1029701632	43	4139
2026-01-27 15:04:15.35	199.90	20.97	-36.4	-37.8	21.1	0.00e+00	0	44	0	1037041664	43	4156
2026-01-27 15:04:16.34	200.02	21.09	-36.3	-37.7	21.2	0.00e+00	0	44	0	1044381696	43	4109
2026-01-27 15:04:17.34	200.16	21.21	-36.3	-37.7	21.2	0.00e+00	0	44	0	1050673152	43	4101
2026-01-27 15:04:18.33	200.29	21.33	-36.3	-37.7	21.2	0.00e+00	0	44	0	1058013184	43	4106
2026-01-27 15:04:19.32	200.42	21.45	-36.4	-37.8	21.1	0.00e+00	0	44	0	1065353216	43	4153
2026-01-27 15:04:20.32	200.55	21.57	-36.3	-37.6	21.2	0.00e+00	0	44	0	1072693248	43	4068
2026-01-27 15:04:21.32	200.69	21.69	-36.2	-37.5	21.3	0.00e+00	0	44	0	1080033280	43	4036
2026-01-27 15:04:22.31	200.82	21.81	-36.3	-37.6	21.2	0.00e+00	0	44	0	1087373312	43	4075
2026-01-27 15:04:23.30	200.96	21.93	-36.3	-37.6	21.3	0.00e+00	0	44	0	1094713344	43	4069
2026-01-27 15:04:24.30	201.10	22.05	-36.4	-37.7	21.1	0.00e+00	0	44	0	1101004800	43	4143
2026-01-27 15:04:25.30	201.24	22.17	-36.3	-37.7	21.2	0.00e+00	0	44	0	1108344832	43	4108
2026-01-27 15:04:26.29	201.38	22.29	-36.3	-37.6	21.2	0.00e+00	0	45	0	1115684864	43	4080
2026-01-27 15:04:27.29	201.52	22.42	-36.4	-37.7	21.1	0.00e+00	0	45	0	1123024896	43	4143
2026-01-27 15:04:28.28	201.66	22.54	-36.5	-37.9	21.0	0.00e+00	0	44	0	1130364928	43	4218
2026-01-27 15:04:29.28	201.80	22.66	-36.4	-37.7	21.1	0.00e+00	0	44	0	1136656384	43	4137
2026-01-27 15:04:30.27	201.95	22.79	-36.3	-37.7	21.2	0.00e+00	0	44	0	1143996416	43	4114
2026-01-27 15:04:31.27	202.09	22.91	-36.1	-37.5	21.4	0.00e+00	0	44	0	1151336448	43	4009
2026-01-27 15:04:32.26	202.24	23.04	-36.3	-37.7	21.2	0.00e+00	0	44	0	1158676480	43	4102
2026-01-27 15:04:33.26	202.39	23.16	-36.3	-37.6	21.2	0.00e+00	0	44	0	1166016512	43	4082
2026-01-27 15:04:34.25	202.54	23.29	-36.3	-37.6	21.2	0.00e+00	0	44	0	1173356544	43	4073
2026-01-27 15:04:35.24	202.69	23.41	-36.3	-37.6	21.2	0.00e+00	0	44	0	1180696576	43	4083
2026-01-27 15:04:36.24	202.84	23.54	-36.2	-37.6	21.2	0.00e+00	0	44	0	1186988032	43	4064
2026-01-27 15:04:37.23	202.99	23.67	-36.3	-37.7	21.1	0.00e+00	0	44	0	1194328064	42	4351
2026-01-27 15:04:38.23	203.14	23.79	-36.3	-37.6	21.2	0.00e+00	0	44	0	1201668096	42	4340
2026-01-27 15:04:39.22	203.30	23.92	-36.3	-37.7	21.1	0.00e+00	0	44	0	1209008128	42	4361
2026-01-27 15:04:40.22	203.45	24.05	-36.3	-37.7	21.1	0.00e+00	0	44	0	1216348160	42	4370
2026-01-27 15:04:41.21	203.61	24.18	-36.2	-37.6	21.3	0.00e+00	0	44	0	1223688192	42	4293
2026-01-27 15:04:42.21	203.77	24.31	-36.2	-37.6	21.2	0.00e+00	0	44	0	1231028224	42	4300
2026-01-27 15:04:43.20	203.93	24.44	-36.2	-37.6	21.2	0.00e+00	0	44	0	1238368256	42	4304
2026-01-27 15:04:44.19	204.09	24.57	-36.3	-37.7	21.1	0.00e+00	0	44	0	1244659712	42	4356
2026-01-27 15:04:45.19	204.25	24.70	-36.2	-37.6	21.2	0.00e+00	0	44	0	1251999744	42	4316
2026-01-27 15:04:46.18	204.42	24.83	-36.3	-37.6	21.1	0.00e+00	0	44	0	1259339776	42	4338
2026-01-27 15:04:47.18	204.58	24.96	-36.0	-37.4	21.4	0.00e+00	0	44	0	1266679808	42	4198
2026-01-27 15:04:48.17	204.75	25.09	-36.2	-37.5	21.2	0.00e+00	0	44	0	1274019840	42	4281
2026-01-27 15:04:49.17	204.92	25.22	-36.1	-37.5	21.2	0.00e+00	0	44	0	1280311296	42	4261
2026-01-27 15:04:50.16	205.08	25.35	-36.1	-37.5	21.2	0.00e+00	0	44	0	1287651328	42	4268
2026-01-27 15:04:51.15	205.25	25.49	-36.0	-37.3	21.4	0.00e+00	0	44	0	1294991360	42	4166
2026-01-27 15:04:52.15	205.43	25.62	-35.9	-37.3	21.4	0.00e+00	0	44	0	1302331392	42	4174
2026-01-27 15:04:53.14	205.60	25.75	-35.9	-37.3	21.5	0.00e+00	0	44	0	1309671424	42	4148
2026-01-27 15:04:54.14	205.77	25.89	-35.9	-37.3	21.5	0.00e+00	0	44	0	1317011456	42	4148
2026-01-27 15:04:55.13	205.95	26.02	-36.0	-37.3	21.5	0.00e+00	0	44	0	1323302912	42	4180
2026-01-27 15:04:56.13	206.13	26.16	-36.0	-37.4	21.4	0.00e+00	0	44	0	1330642944	42	4216
2026-01-27 15:04:57.12	206.31	26.29	-36.0	-37.3	21.4	0.00e+00	0	44	0	1337982976	42	4188
2026-01-27 15:04:58.11	206.49	26.43	-36.0	-37.4	21.5	0.00e+00	0	44	0	1345323008	42	4197
2026-01-27 15:04:59.11	206.67	26.56	-35.9	-37.3	21.5	0.00e+00	0	44	0	1352663040	42	4164
2026-01-27 15:05:00.10	206.85	26.70	-36.1	-37.4	21.4	0.00e+00	0	44	0	1360003072	42	4235
2026-01-27 15:05:01.10	207.04	26.84	-35.9	-37.3	21.5	0.00e+00	0	44	0	1367343104	42	4162
2026-01-27 15:05:02.10	207.23	26.97	-35.8	-37.1	21.7	0.00e+00	0	45	0	1374683136	42	4084
2026-01-27 15:05:03.09	207.41	27.11	-35.7	-37.1	21.7	0.00e+00	0	44	0	1380974592	42	4061
2026-01-27 15:05:04.09	207.60	27.25	-35.5	-36.8	22.0	0.00e+00	0	44	0	1388314624	41	4177
2026-01-27 15:05:05.08	207.80	27.39	-35.5	-36.7	22.1	0.00e+00	0	44	0	1395654656	41	4144
2026-01-27 15:05:06.08	207.99	27.52	-35.4	-36.6	22.1	0.00e+00	0	44	0	1402994688	41	4079
2026-01-27 15:05:07.07	208.18	27.66	-35.4	-36.6	22.2	0.00e+00	0	44	0	1410334720	41	4092
2026-01-27 15:05:08.07	208.38	27.80	-35.3	-36.5	22.2	0.00e+00	0	44	0	1417674752	41	4036
2026-01-27 15:05:09.06	208.58	27.94	-35.4	-36.6	22.1	0.00e+00	0	44	0	1423966208	41	4094
2026-01-27 15:05:10.05	208.78	28.08	-35.4	-36.7	22.1	0.00e+00	0	45	0	1431306240	41	4129
2026-01-27 15:05:11.04	208.98	28.22	-35.4	-36.7	22.1	0.00e+00	0	44	0	1438646272	41	4100
2026-01-27 15:05:12.04	209.18	28.36	-35.4	-36.7	22.1	0.00e+00	0	44	0	1445986304	41	4110
2026-01-27 15:05:13.03	209.39	28.50	-35.5	-36.8	21.9	0.00e+00	0	44	0	1453326336	41	4178
2026-01-27 15:05:14.03	209.59	28.64	-35.4	-36.7	22.0	0.00e+00	0	44	0	1460666368	41	4125
2026-01-27 15:05:15.02	209.80	28.78	-35.5	-36.8	21.9	0.00e+00	0	44	0	1466957824	41	4170
2026-01-27 15:05:16.02	210.01	28.93	-35.5	-36.8	21.8	0.00e+00	0	44	0	1474297856	41	4192
2026-01-27 15:05:17.01	210.22	29.07	-35.5	-36.9	21.8	0.00e+00	0	44	0	1481637888	41	4216
2026-01-27 15:05:18.01	210.44	29.21	-35.7	-37.1	21.7	0.00e+00	0	44	0	1488977920	41	4300
2026-01-27 15:05:19.00	210.65	29.35	-35.6	-37.0	21.7	0.00e+00	0	44	0	1496317952	41	4268
2026-01-27 15:05:20.00	210.87	29.50	-35.7	-37.1	21.6	0.00e+00	0	44	0	1503657984	41	4318
2026-01-27 15:05:20.99	211.09	29.64	-35.8	-37.2	21.5	0.00e+00	0	44	0	1509949440	41	4385
2026-01-27 15:05:21.99	211.32	29.78	-35.7	-37.1	21.5	0.00e+00	0	44	0	1517289472	41	4330
2026-01-27 15:05:22.98	211.54	29.93	-35.8	-37.2	21.4	0.00e+00	0	44	0	1524629504	41	4377
2026-01-27 15:05:23.98	211.76	30.07	-35.9	-37.3	21.4	0.00e+00	0	44	0	1531969536	41	4422
2026-01-27 15:05:24.97	211.99	30.22	-35.9	-37.3	21.4	0.00e+00	0	44	0	1539309568	41	4402
2026-01-27 15:05:25.97	212.22	30.36	-35.9	-37.3	21.4	0.00e+00	0	44	0	1546649600	41	4419
2026-01-27 15:05:26.96	212.45	30.51	-35.9	-37.2	21.5	0.00e+00	0	44	0	1553989632	41	4370
2026-01-27 15:05:27.95	212.68	30.65	-35.7	-37.0	21.6	0.00e+00	0	44	0	1561329664	41	4286
2026-01-27 15:05:28.95	212.92	30.80	-35.7	-37.0	21.7	0.00e+00	0	44	0	1567621120	41	4258
2026-01-27 15:05:29.94	213.16	30.94	-35.7	-37.0	21.7	0.00e+00	0	44	0	1574961152	41	4244
2026-01-27 15:05:30.94	213.40	31.09	-35.6	-36.9	21.8	0.00e+00	0	44	0	1582301184	41	4218
2026-01-27 15:05:31.93	213.64	31.23	-35.7	-36.9	21.8	0.00e+00	0	44	0	1589641216	41	4240
2026-01-27 15:05:32.93	213.89	31.38	-35.6	-36.9	21.8	0.00e+00	0	44	0	1596981248	41	4230
2026-01-27 15:05:33.93	214.13	31.53	-35.5	-36.8	22.0	0.00e+00	0	44	0	1604321280	41	4151
2026-01-27 15:05:34.92	214.38	31.67	-35.7	-36.9	21.8	0.00e+00	0	44	0	1610612736	41	4242
2026-01-27 15:05:35.92	214.63	31.82	-35.6	-36.9	21.9	0.00e+00	0	44	0	1617952768	41	4209
2026-01-27 15:05:36.91	214.88	31.96	-35.5	-36.7	22.0	0.00e+00	0	44	0	1625292800	41	4139
2026-01-27 15:05:37.91	215.14	32.11	-35.5	-36.8	22.0	0.00e+00	0	44	0	1632632832	41	4151
2026-01-27 15:05:38.90	215.40	32.26	-35.5	-36.7	22.1	0.00e+00	0	44	0	1639972864	41	4131
2026-01-27 15:05:39.90	215.66	32.41	-35.2	-36.5	22.2	0.00e+00	0	44	0	1647312896	41	4006
2026-01-27 15:05:40.89	215.92	32.55	-35.2	-36.4	22.3	0.00e+00	0	44	0	1654652928	41	4001
2026-01-27 15:05:41.89	216.19	32.70	-35.3	-36.5	22.2	0.00e+00	0	44	0	1660944384	41	4036
2026-01-27 15:05:42.88	216.45	32.85	-35.2	-36.5	22.2	0.00e+00	0	44	0	1668284416	41	4036
2026-01-27 15:05:43.88	216.72	32.99	-35.2	-36.5	22.2	0.00e+00	0	44	0	1675624448	41	4022
2026-01-27 15:05:44.87	216.99	33.14	-35.3	-36.6	22.1	0.00e+00	0	44	0	1682964480	41	4092
2026-01-27 15:05:45.87	217.27	33.29	-35.3	-36.6	22.1	0.00e+00	0	44	0	1690304512	41	4098
2026-01-27 15:05:46.86	217.54	33.43	-35.4	-36.7	22.0	0.00e+00	0	44	0	1697644544	41	4135
2026-01-27 15:05:47.85	217.82	33.58	-35.4	-36.7	22.0	0.00e+00	0	44	0	1704984576	41	4138
2026-01-27 15:05:48.85	218.10	33.73	-35.5	-36.8	21.9	0.00e+00	0	45	0	1711276032	41	4166
2026-01-27 15:05:49.84	218.39	33.87	-35.4	-36.7	22.0	0.00e+00	0	44	0	1718616064	41	4138
2026-01-27 15:05:50.84	218.67	34.02	-35.3	-36.6	22.1	0.00e+00	0	44	0	1725956096	41	4093
2026-01-27 15:05:51.83	218.96	34.17	-35.3	-36.7	22.0	0.00e+00	0	44	0	1733296128	41	4105
2026-01-27 15:05:52.83	219.25	34.32	-35.4	-36.7	21.9	0.00e+00	0	44	0	1740636160	41	4134
2026-01-27 15:05:53.82	219.55	34.46	-35.5	-36.8	21.8	0.00e+00	0	44	0	1747976192	41	4182
2026-01-27 15:05:54.81	219.84	34.61	-35.3	-36.7	21.9	0.00e+00	0	44	0	1754267648	41	4108
2026-01-27 15:05:55.81	220.14	34.75	-35.3	-36.6	21.9	0.00e+00	0	44	0	1761607680	41	4089
2026-01-27 15:05:56.80	220.44	34.90	-35.3	-36.5	22.0	0.00e+00	0	44	0	1768947712	41	4050
2026-01-27 15:05:57.80	220.75	35.05	-35.2	-36.5	22.0	0.00e+00	0	44	0	1776287744	41	4051
2026-01-27 15:05:58.79	221.06	35.19	-35.3	-36.6	22.0	0.00e+00	0	44	0	1783627776	41	4081
2026-01-27 15:05:59.79	221.37	35.34	-35.3	-36.6	22.0	0.00e+00	0	44	0	1790967808	41	4067
2026-01-27 15:06:00.78	221.68	35.48	-35.4	-36.6	22.0	0.00e+00	0	44	0	1797259264	41	4089
2026-01-27 15:06:01.78	222.00	35.63	-35.4	-36.7	22.0	0.00e+00	0	44	0	1804599296	41	4101
2026-01-27 15:06:02.77	222.31	35.77	-35.3	-36.6	22.1	0.00e+00	0	44	0	1811939328	41	4069
2026-01-27 15:06:03.77	222.64	35.92	-35.5	-36.8	22.0	0.00e+00	0	44	0	1819279360	41	4169
2026-01-27 15:06:04.76	222.96	36.06	-35.5	-36.7	22.0	0.00e+00	0	44	0	1826619392	41	4129
2026-01-27 15:06:05.76	223.29	36.20	-35.5	-36.7	22.1	0.00e+00	0	44	0	1833959424	41	4110
2026-01-27 15:06:06.75	223.62	36.35	-35.5	-36.7	22.1	0.00e+00	0	44	0	1841299456	41	4131
2026-01-27 15:06:07.75	223.95	36.49	-35.4	-36.6	22.2	0.00e+00	0	44	0	1848639488	41	4060
2026-01-27 15:06:08.74	224.28	36.63	-35.5	-36.8	22.1	0.00e+00	0	44	0	1854930944	41	4151
2026-01-27 15:06:09.73	224.62	36.77	-35.5	-36.7	22.1	0.00e+00	0	44	0	1862270976	41	4144
2026-01-27 15:06:10.73	224.96	36.92	-35.4	-36.7	22.1	0.00e+00	0	44	0	1869611008	41	4113
2026-01-27 15:06:11.72	225.31	37.06	-35.5	-36.7	22.1	0.00e+00	0	44	0	1876951040	41	4136
2026-01-27 15:06:12.72	225.65	37.20	-35.4	-36.7	22.0	0.00e+00	0	44	0	1884291072	41	4126
2026-01-27 15:06:13.71	226.00	37.34	-35.4	-36.6	22.1	0.00e+00	0	44	0	1891631104	41	4088
2026-01-27 15:06:14.71	226.36	37.48	-35.5	-36.7	22.0	0.00e+00	0	44	0	1897922560	41	4138
2026-01-27 15:06:15.71	226.72	37.61	-35.5	-36.8	21.9	0.00e+00	0	44	0	1905262592	41	4180
2026-01-27 15:06:16.70	227.07	37.75	-35.5	-36.8	21.9	0.00e+00	0	44	0	1912602624	41	4186
2026-01-27 15:06:17.70	227.44	37.89	-35.7	-37.0	21.7	0.00e+00	0	44	0	1919942656	41	4267
2026-01-27 15:06:18.69	227.80	38.02	-35.8	-37.1	21.7	0.00e+00	0	44	0	1927282688	41	4313
2026-01-27 15:06:19.69	228.17	38.16	-35.9	-37.2	21.6	0.00e+00	0	44	0	1933574144	41	4364
2026-01-27 15:06:20.68	228.54	38.30	-35.8	-37.1	21.6	0.00e+00	0	44	0	1940914176	41	4327
2026-01-27 15:06:21.68	228.91	38.43	-35.7	-37.0	21.7	0.00e+00	0	44	0	1948254208	41	4283
2026-01-27 15:06:22.67	229.29	38.56	-35.8	-37.1	21.7	0.00e+00	0	44	0	1955594240	41	4296
2026-01-27 15:06:23.66	229.67	38.69	-35.7	-37.0	21.8	0.00e+00	0	44	0	1962934272	41	4257
2026-01-27 15:06:24.66	230.05	38.83	-35.8	-37.1	21.7	0.00e+00	0	45	0	1970274304	41	4305
2026-01-27 15:06:25.65	230.44	38.96	-35.8	-37.1	21.7	0.00e+00	0	44	0	1977614336	41	4323
2026-01-27 15:06:26.65	230.83	39.09	-35.8	-37.1	21.8	0.00e+00	0	44	0	1984954368	41	4303
2026-01-27 15:06:27.64	231.22	39.22	-35.6	-36.9	21.9	0.00e+00	0	44	0	1991245824	41	4222
2026-01-27 15:06:28.63	231.61	39.34	-35.5	-36.7	22.2	0.00e+00	0	45	0	1998585856	41	4112
2026-01-27 15:06:29.63	232.01	39.47	-35.4	-36.6	22.2	0.00e+00	0	44	0	2005925888	41	4081
2026-01-27 15:06:30.63	232.42	39.60	-35.4	-36.6	22.2	0.00e+00	0	44	0	2013265920	41	4082
2026-01-27 15:06:31.62	232.82	39.72	-35.5	-36.8	22.0	0.00e+00	0	44	0	2020605952	41	4175
2026-01-27 15:06:32.61	233.22	39.84	-35.7	-37.1	21.7	0.00e+00	0	44	0	2027945984	41	4308
2026-01-27 15:06:33.61	233.64	39.96	-35.8	-37.1	21.7	0.00e+00	0	44	0	2035286016	41	4324
2026-01-27 15:06:34.60	234.05	40.09	-35.8	-37.2	21.6	0.00e+00	0	44	0	2041577472	41	4366
2026-01-27 15:06:35.60	234.47	40.21	-35.6	-36.9	21.8	0.00e+00	0	44	0	2048917504	41	4242
2026-01-27 15:06:36.59	234.88	40.32	-35.6	-36.9	21.8	0.00e+00	0	44	0	2056257536	41	4208
2026-01-27 15:06:37.59	235.31	40.44	-35.5	-36.8	21.9	0.00e+00	0	44	0	2063597568	41	4185
2026-01-27 15:06:38.58	235.73	40.56	-35.6	-36.9	21.8	0.00e+00	0	44	0	2070937600	41	4216
2026-01-27 15:06:39.58	236.16	40.67	-35.7	-37.0	21.7	0.00e+00	0	45	0	2077229056	41	4276
2026-01-27 15:06:40.58	236.60	40.78	-35.8	-37.1	21.7	0.00e+00	0	44	0	2084569088	41	4317
2026-01-27 15:06:41.57	237.03	40.90	-35.9	-37.2	21.7	0.00e+00	0	44	0	2091909120	41	4344
2026-01-27 15:06:42.57	237.47	41.01	-35.8	-37.0	21.7	0.00e+00	0	44	0	2099249152	41	4267
2026-01-27 15:06:43.56	237.91	41.11	-35.8	-37.1	21.7	0.00e+00	0	44	0	2106589184	41	4307
2026-01-27 15:06:44.56	238.35	41.22	-35.8	-37.1	21.8	0.00e+00	0	44	0	2113929216	41	4306
2026-01-27 15:06:45.55	238.80	41.33	-35.8	-37.1	21.9	0.00e+00	0	44	0	2121269248	41	4297
2026-01-27 15:06:46.55	239.25	41.43	-35.9	-37.1	21.9	0.00e+00	0	44	0	2128609280	41	4318
2026-01-27 15:06:47.54	239.70	41.53	-35.6	-36.8	22.2	0.00e+00	0	44	0	2134900736	41	4182
2026-01-27 15:06:48.53	240.15	41.63	-35.5	-36.7	22.2	0.00e+00	0	44	0	2142240768	41	4145
2026-01-27 15:06:49.53	240.61	41.73	-35.9	-36.7	22.8	0.00e+00	0	44	0	2149580800	41	4132
2026-01-27 15:06:50.52	241.07	41.83	-36.0	-36.9	22.7	0.00e+00	0	44	0	2156920832	41	4207
2026-01-27 15:06:51.52	241.54	41.92	-36.0	-36.8	22.7	0.00e+00	0	44	0	2164260864	41	4183
2026-01-27 15:06:52.51	242.00	42.02	-36.0	-36.9	22.7	0.00e+00	0	44	0	2171600896	41	4209
2026-01-27 15:06:53.51	242.47	42.11	-36.0	-36.8	22.7	0.00e+00	0	44	0	2178940928	41	4177
2026-01-27 15:06:54.50	242.94	42.20	-36.0	-36.8	22.8	0.00e+00	0	44	0	2185232384	41	4167
2026-01-27 15:06:55.50	243.41	42.28	-36.1	-36.9	22.6	0.00e+00	0	44	0	2192572416	41	4242
2026-01-27 15:06:56.49	243.89	42.37	-36.3	-37.1	22.5	0.00e+00	0	44	0	2199912448	42	4080
2026-01-27 15:06:57.49	244.37	42.45	-36.4	-37.2	22.4	0.00e+00	0	45	0	2207252480	42	4132
2026-01-27 15:06:58.48	244.85	42.53	-36.4	-37.2	22.4	0.00e+00	0	44	0	2214592512	42	4145
2026-01-27 15:06:59.48	245.33	42.61	-36.3	-37.1	22.5	0.00e+00	0	44	0	2220883968	42	4092
2026-01-27 15:07:00.47	245.82	42.69	-36.4	-37.3	22.4	0.00e+00	0	44	0	2228224000	42	4158
2026-01-27 15:07:01.47	246.31	42.77	-36.2	-37.1	22.5	0.00e+00	0	44	0	2235564032	42	4053
2026-01-27 15:07:02.46	246.79	42.84	-36.3	-37.1	22.5	0.00e+00	0	44	0	2242904064	42	4078
2026-01-27 15:07:03.46	247.29	42.91	-36.3	-37.2	22.4	0.00e+00	0	45	0	2250244096	42	4105
2026-01-27 15:07:04.45	247.78	42.98	-36.4	-37.3	22.4	0.00e+00	0	44	0	2257584128	42	4149
2026-01-27 15:07:05.44	248.27	43.05	-36.2	-37.0	22.6	0.00e+00	0	44	0	2264924160	42	4049
2026-01-27 15:07:06.44	248.78	43.11	-36.1	-37.0	22.6	0.00e+00	0	44	0	2271215616	42	4006
2026-01-27 15:07:07.43	249.27	43.17	-36.2	-37.0	22.6	0.00e+00	0	44	0	2278555648	42	4039
2026-01-27 15:07:08.43	249.78	43.23	-36.4	-37.3	22.4	0.00e+00	0	44	0	2285895680	42	4149
2026-01-27 15:07:09.42	250.28	43.29	-36.5	-37.3	22.3	0.00e+00	0	44	0	2293235712	42	4187
2026-01-27 15:07:10.42	250.79	43.35	-36.7	-37.6	22.0	0.00e+00	0	44	0	2300575744	42	4311
2026-01-27 15:07:11.41	251.29	43.40	-36.7	-37.6	22.1	0.00e+00	0	44	0	2307915776	42	4329
2026-01-27 15:07:12.41	251.80	43.45	-36.7	-37.6	22.1	0.00e+00	0	44	0	2315255808	43	4057
2026-01-27 15:07:13.40	252.31	43.50	-36.7	-37.6	22.1	0.00e+00	0	45	0	2322595840	43	4069
2026-01-27 15:07:14.40	252.83	43.54	-36.7	-37.6	22.1	0.00e+00	0	44	0	2328887296	43	4059
2026-01-27 15:07:15.40	253.34	43.59	-36.7	-37.6	22.1	0.00e+00	0	44	0	2336227328	43	4062
2026-01-27 15:07:16.39	253.86	43.63	-36.7	-37.6	22.1	0.00e+00	0	44	0	2343567360	43	4062
2026-01-27 15:07:17.38	254.37	43.66	-36.6	-37.5	22.2	0.00e+00	0	44	0	2350907392	43	4035
2026-01-27 15:07:18.38	254.89	43.70	-36.6	-37.5	22.2	0.00e+00	0	45	0	2358247424	43	4006
2026-01-27 15:07:19.37	255.40	43.73	-36.5	-37.4	22.3	0.00e+00	0	44	0	2364538880	43	3974
2026-01-27 15:07:20.37	255.93	43.76	-36.4	-37.3	22.4	0.00e+00	0	44	0	2371878912	43	3917
2026-01-27 15:07:21.36	256.44	43.79	-36.4	-37.3	22.4	0.00e+00	0	45	0	2379218944	43	3933
2026-01-27 15:07:22.36	256.97	43.82	-36.5	-37.3	22.3	0.00e+00	0	45	0	2386558976	43	3947
2026-01-27 15:07:23.35	257.49	43.84	-36.5	-37.4	22.3	0.00e+00	0	44	0	2393899008	43	3985
2026-01-27 15:07:24.35	258.01	43.86	-36.7	-37.5	22.1	0.00e+00	0	44	0	2401239040	43	4045
2026-01-27 15:07:25.34	258.53	43.88	-36.7	-37.6	22.1	0.00e+00	0	44	0	2407530496	43	4081
2026-01-27 15:07:26.33	259.05	43.89	-36.6	-37.4	22.2	0.00e+00	0	44	0	2414870528	43	4004
2026-01-27 15:07:27.33	259.58	43.91	-36.5	-37.4	22.3	0.00e+00	0	44	0	2422210560	43	3976
2026-01-27 15:07:28.32	260.10	43.92	-36.6	-37.4	22.2	0.00e+00	0	45	0	2429550592	43	3995
2026-01-27 15:07:29.32	260.63	43.92	-36.4	-37.3	22.3	0.00e+00	0	44	0	2436890624	43	3936
2026-01-27 15:07:30.31	261.15	43.93	-36.3	-37.2	22.5	0.00e+00	0	45	0	2444230656	43	3886
2026-01-27 15:07:31.31	261.68	43.93	-36.4	-37.2	22.4	0.00e+00	0	44	0	2451570688	43	3911
2026-01-27 15:07:32.30	262.20	43.93	-36.4	-37.3	22.4	0.00e+00	0	44	0	2458910720	43	3927
2026-01-27 15:07:33.29	262.72	43.93	-36.7	-37.5	22.1	0.00e+00	0	44	0	2466250752	43	4031
2026-01-27 15:07:34.29	263.25	43.92	-36.8	-37.7	22.0	0.00e+00	0	44	0	2472542208	43	4134
2026-01-27 15:07:35.28	263.77	43.91	-36.8	-37.7	21.9	0.00e+00	0	44	0	2479882240	43	4124
2026-01-27 15:07:36.28	264.30	43.90	-36.9	-37.8	21.9	0.00e+00	0	44	0	2487222272	43	4186
2026-01-27 15:07:37.28	264.83	43.89	-36.8	-37.7	22.0	0.00e+00	0	44	0	2494562304	43	4119
2026-01-27 15:07:38.27	265.35	43.87	-36.8	-37.7	22.0	0.00e+00	0	44	0	2501902336	43	4103
2026-01-27 15:07:39.26	265.87	43.85	-36.7	-37.5	22.2	0.00e+00	0	45	0	2508193792	43	4041
2026-01-27 15:07:40.26	266.39	43.83	-36.7	-37.5	22.2	0.00e+00	0	44	0	2515533824	43	4048
2026-01-27 15:07:41.25	266.91	43.81	-36.8	-37.7	22.0	0.00e+00	0	44	0	2522873856	43	4116
2026-01-27 15:07:42.25	267.43	43.78	-36.8	-37.7	22.0	0.00e+00	0	44	0	2530213888	43	4119
2026-01-27 15:07:43.24	267.95	43.75	-36.5	-37.4	22.3	0.00e+00	0	44	0	2537553920	43	3970
2026-01-27 15:07:44.24	268.47	43.72	-36.3	-37.2	22.5	0.00e+00	0	44	0	2544893952	43	3870
2026-01-27 15:07:45.23	268.99	43.69	-36.2	-37.1	22.5	0.00e+00	0	44	0	2551185408	43	3837
2026-01-27 15:07:46.23	269.51	43.65	-36.3	-37.1	22.5	0.00e+00	0	44	0	2558525440	42	4076
2026-01-27 15:07:47.22	270.02	43.61	-36.4	-37.2	22.4	0.00e+00	0	44	0	2565865472	42	4134
2026-01-27 15:07:48.22	270.54	43.57	-36.6	-37.5	22.2	0.00e+00	0	45	0	2573205504	42	4255
2026-01-27 15:07:49.21	271.05	43.52	-36.8	-37.7	22.0	0.00e+00	0	44	0	2580545536	43	4116
2026-01-27 15:07:50.21	271.56	43.48	-36.8	-37.7	22.0	0.00e+00	0	45	0	2587885568	43	4127
2026-01-27 15:07:51.20	272.07	43.43	-36.8	-37.7	22.0	0.00e+00	0	45	0	2595225600	43	4134
2026-01-27 15:07:52.20	272.58	43.38	-36.8	-37.7	22.0	0.00e+00	0	44	0	2602565632	43	4136
2026-01-27 15:07:53.19	273.08	43.32	-36.7	-37.6	22.1	0.00e+00	0	44	0	2609905664	43	4088
2026-01-27 15:07:54.19	273.59	43.27	-36.8	-37.7	22.0	0.00e+00	0	44	0	2616197120	43	4110
2026-01-27 15:07:55.18	274.09	43.21	-36.7	-37.5	22.2	0.00e+00	0	44	0	2623537152	43	4051
2026-01-27 15:07:56.18	274.59	43.15	-36.7	-37.5	22.2	0.00e+00	0	44	0	2630877184	43	4031
2026-01-27 15:07:57.17	275.09	43.09	-36.6	-37.5	22.2	0.00e+00	0	44	0	2638217216	43	4033
2026-01-27 15:07:58.17	275.59	43.02	-36.7	-37.6	22.1	0.00e+00	0	45	0	2645557248	43	4085
2026-01-27 15:07:59.16	276.08	42.95	-36.9	-37.8	21.9	0.00e+00	0	44	0	2651848704	43	4169
2026-01-27 15:08:00.16	276.57	42.88	-36.7	-37.6	22.1	0.00e+00	0	44	0	2659188736	43	4070
2026-01-27 15:08:01.15	277.06	42.81	-36.5	-37.4	22.2	0.00e+00	0	44	0	2666528768	43	3985
2026-01-27 15:08:02.15	277.55	42.74	-36.5	-37.3	22.3	0.00e+00	0	44	0	2673868800	43	3945
2026-01-27 15:08:03.14	278.04	42.66	-36.4	-37.3	22.4	0.00e+00	0	44	0	2681208832	43	3933
2026-01-27 15:08:04.14	278.52	42.58	-36.3	-37.2	22.5	0.00e+00	0	44	0	2688548864	43	3893
2026-01-27 15:08:05.13	279.00	42.50	-36.4	-37.2	22.4	0.00e+00	0	44	0	2694840320	43	3907
2026-01-27 15:08:06.13	279.48	42.42	-36.4	-37.2	22.4	0.00e+00	0	44	0	2702180352	43	3913
2026-01-27 15:08:07.12	279.96	42.34	-36.4	-37.2	22.4	0.00e+00	0	44	0	2709520384	43	3902
2026-01-27 15:08:08.12	280.44	42.25	-36.3	-37.2	22.4	0.00e+00	0	44	0	2716860416	43	3897
2026-01-27 15:08:09.11	280.90	42.16	-36.2	-37.0	22.6	0.00e+00	0	44	0	2724200448	43	3805
2026-01-27 15:08:10.11	281.38	42.07	-36.2	-37.0	22.6	0.00e+00	0	44	0	2731540480	43	3802
2026-01-27 15:08:11.10	281.84	41.98	-36.2	-37.1	22.6	0.00e+00	0	44	0	2738880512	43	3831
2026-01-27 15:08:12.09	282.30	41.89	-36.4	-37.2	22.3	0.00e+00	0	44	0	2746220544	43	3910
2026-01-27 15:08:13.09	282.76	41.79	-36.6	-37.4	22.2	0.00e+00	0	45	0	2752512000	43	3988
2026-01-27 15:08:14.09	283.23	41.69	-36.7	-37.6	22.1	0.00e+00	0	44	0	2759852032	43	4067
2026-01-27 15:08:15.08	283.68	41.60	-36.7	-37.5	22.1	0.00e+00	0	44	0	2767192064	43	4046
2026-01-27 15:08:16.08	284.13	41.49	-36.6	-37.4	22.3	0.00e+00	0	44	0	2774532096	43	3989
2026-01-27 15:08:17.07	284.58	41.39	-36.2	-37.0	22.6	0.00e+00	0	44	0	2781872128	43	3821
2026-01-27 15:08:18.07	285.03	41.29	-36.0	-36.8	22.8	0.00e+00	0	44	0	2789212160	42	3929
2026-01-27 15:08:19.06	285.47	41.18	-35.9	-36.7	22.8	0.00e+00	0	44	0	2795503616	42	3912
2026-01-27 15:08:20.06	285.92	41.08	-35.9	-36.7	22.9	0.00e+00	0	44	0	2802843648	42	3903
2026-01-27 15:08:21.05	286.35	40.97	-35.9	-36.7	22.8	0.00e+00	0	44	0	2810183680	42	3912
2026-01-27 15:08:22.05	286.79	40.86	-36.0	-36.8	22.7	0.00e+00	0	44	0	2817523712	42	3949
2026-01-27 15:08:23.04	287.22	40.75	-36.0	-36.8	22.8	0.00e+00	0	44	0	2824863744	42	3936
2026-01-27 15:08:24.04	287.65	40.63	-36.0	-36.8	22.7	0.00e+00	0	44	0	2832203776	42	3951
2026-01-27 15:08:25.04	288.08	40.52	-35.9	-36.7	22.8	0.00e+00	0	44	0	2838495232	42	3910
2026-01-27 15:08:26.03	288.50	40.40	-36.0	-36.9	22.7	0.00e+00	0	44	0	2845835264	42	3977
2026-01-27 15:08:27.03	288.92	40.28	-36.1	-37.0	22.6	0.00e+00	0	44	0	2853175296	42	4023
2026-01-27 15:08:28.02	289.34	40.17	-36.3	-37.1	22.4	0.00e+00	0	44	0	2860515328	42	4097
2026-01-27 15:08:29.02	289.76	40.05	-36.5	-37.3	22.3	0.00e+00	0	44	0	2867855360	42	4185
2026-01-27 15:08:30.01	290.17	39.93	-36.5	-37.4	22.3	0.00e+00	0	44	0	2875195392	42	4196
2026-01-27 15:08:31.01	290.58	39.80	-36.5	-37.3	22.3	0.00e+00	0	45	0	2882535424	42	4178
2026-01-27 15:08:32.00	290.98	39.68	-36.3	-37.2	22.4	0.00e+00	0	44	0	2889875456	42	4114
2026-01-27 15:08:33.00	291.38	39.56	-36.3	-37.2	22.3	0.00e+00	0	44	0	2897215488	42	4126
2026-01-27 15:08:33.99	291.78	39.43	-36.3	-37.2	22.4	0.00e+00	0	44	0	2903506944	42	4122
2026-01-27 15:08:34.99	292.18	39.30	-36.3	-37.2	22.5	0.00e+00	0	45	0	2910846976	42	4116
2026-01-27 15:08:35.98	292.57	39.18	-36.3	-37.1	22.5	0.00e+00	0	44	0	2918187008	42	4097
2026-01-27 15:08:36.98	292.96	39.05	-36.4	-37.2	22.4	0.00e+00	0	45	0	2925527040	42	4144
2026-01-27 15:08:37.97	293.35	38.92	-36.4	-37.3	22.3	0.00e+00	0	44	0	2932867072	42	4165
2026-01-27 15:08:38.96	293.73	38.79	-36.3	-37.2	22.5	0.00e+00	0	45	0	2939158528	42	4109
2026-01-27 15:08:39.96	294.11	38.66	-36.4	-37.2	22.4	0.00e+00	0	44	0	2946498560	42	4136
2026-01-27 15:08:40.95	294.49	38.53	-36.1	-37.0	22.6	0.00e+00	0	44	0	2953838592	42	4015
2026-01-27 15:08:41.95	294.87	38.39	-36.1	-36.9	22.7	0.00e+00	0	44	0	2961178624	42	3992
2026-01-27 15:08:42.95	295.24	38.26	-36.2	-37.0	22.6	0.00e+00	0	45	0	2968518656	42	4023
2026-01-27 15:08:43.94	295.61	38.12	-36.3	-37.1	22.5	0.00e+00	0	45	0	2975858688	42	4076
2026-01-27 15:08:44.94	295.97	37.99	-36.1	-36.9	22.7	0.00e+00	0	44	0	2982150144	42	3990
2026-01-27 15:08:45.93	296.33	37.85	-36.1	-37.0	22.6	0.00e+00	0	45	0	2989490176	42	4013
2026-01-27 15:08:46.93	296.70	37.71	-36.1	-37.0	22.6	0.00e+00	0	44	0	2996830208	42	4016
2026-01-27 15:08:47.92	297.05	37.58	-36.2	-37.0	22.6	0.00e+00	0	44	0	3004170240	42	4033
2026-01-27 15:08:48.92	297.41	37.44	-36.2	-37.1	22.5	0.00e+00	0	44	0	3011510272	42	4064
2026-01-27 15:08:49.91	297.76	37.30	-36.1	-36.9	22.6	0.00e+00	0	44	0	3018850304	42	4002
2026-01-27 15:08:50.91	298.11	37.16	-36.0	-36.8	22.8	0.00e+00	0	44	0	3026190336	42	3940
2026-01-27 15:08:51.90	298.45	37.02	-36.0	-36.8	22.8	0.00e+00	0	45	0	3033530368	42	3931
2026-01-27 15:08:52.90	298.79	36.88	-36.0	-36.8	22.8	0.00e+00	0	45	0	3040870400	42	3937
2026-01-27 15:08:53.89	299.13	36.74	-35.8	-36.6	22.9	0.00e+00	0	44	0	3047161856	42	3835
2026-01-27 15:08:54.89	299.47	36.60	-35.8	-36.6	22.9	0.00e+00	0	44	0	3054501888	42	3838
2026-01-27 15:08:55.88	299.80	36.46	-35.8	-36.6	22.9	0.00e+00	0	44	0	3061841920	42	3865
2026-01-27 15:08:56.88	300.13	36.32	-35.7	-36.6	23.0	0.00e+00	0	44	0	3069181952	42	3837
2026-01-27 15:08:57.87	300.46	36.17	-35.8	-36.7	22.8	0.00e+00	0	44	0	3076521984	42	3886
2026-01-27 15:08:58.87	300.79	36.03	-35.9	-36.8	22.8	0.00e+00	0	44	0	3082813440	42	3926
2026-01-27 15:08:59.86	301.11	35.89	-36.0	-36.8	22.8	0.00e+00	0	44	0	3090153472	42	3945
2026-01-27 15:09:00.86	301.43	35.74	-36.0	-36.8	22.7	0.00e+00	0	44	0	3097493504	42	3955
2026-01-27 15:09:01.85	301.74	35.60	-36.0	-36.9	22.7	0.00e+00	0	45	0	3104833536	42	3976
2026-01-27 15:09:02.85	302.06	35.45	-36.0	-36.8	22.8	0.00e+00	0	44	0	3112173568	42	3940
2026-01-27 15:09:03.85	302.37	35.31	-36.1	-36.9	22.7	0.00e+00	0	44	0	3119513600	42	3981
2026-01-27 15:09:04.84	302.68	35.17	-36.1	-36.9	22.5	0.00e+00	0	45	0	3126853632	42	3994
2026-01-27 15:09:05.84	302.98	35.02	-36.0	-36.8	22.7	0.00e+00	0	44	0	3133145088	42	3950
2026-01-27 15:09:06.83	303.28	34.88	-35.8	-36.7	22.9	0.00e+00	0	44	0	3140485120	42	3879
2026-01-27 15:09:07.83	303.59	34.73	-35.8	-36.6	22.9	0.00e+00	0	45	0	3147825152	42	3863
2026-01-27 15:09:08.82	303.88	34.58	-35.7	-36.6	23.0	0.00e+00	0	44	0	3155165184	42	3838
2026-01-27 15:09:09.82	304.18	34.44	-35.7	-36.5	22.9	0.00e+00	0	44	0	3162505216	42	3824
2026-01-27 15:09:10.81	304.47	34.29	-35.8	-36.6	22.9	0.00e+00	0	44	0	3169845248	42	3856
2026-01-27 15:09:11.81	304.76	34.15	-35.8	-36.7	22.8	0.00e+00	0	44	0	3177185280	42	3890
2026-01-27 15:09:12.80	305.05	34.00	-35.9	-36.8	22.8	0.00e+00	0	45	0	3183476736	42	3928
2026-01-27 15:09:13.79	305.33	33.86	-36.1	-37.0	22.6	0.00e+00	0	44	0	3190816768	42	4025
2026-01-27 15:09:14.79	305.61	33.71	-36.2	-37.0	22.5	0.00e+00	0	44	0	3198156800	42	4038
2026-01-27 15:09:15.78	305.89	33.56	-36.4	-37.2	22.3	0.00e+00	0	44	0	3205496832	42	4138
2026-01-27 15:09:16.78	306.17	33.42	-36.4	-37.3	22.3	0.00e+00	0	44	0	3212836864	42	4174
2026-01-27 15:09:17.77	306.45	33.27	-36.5	-37.4	22.3	0.00e+00	0	44	0	3220176896	42	4194
2026-01-27 15:09:18.77	306.72	33.12	-36.6	-37.4	22.2	0.00e+00	0	44	0	3226468352	42	4231
2026-01-27 15:09:19.76	306.99	32.98	-36.5	-37.4	22.3	0.00e+00	0	44	0	3233808384	42	4205
2026-01-27 15:09:20.76	307.26	32.83	-36.3	-37.2	22.4	0.00e+00	0	45	0	3241148416	42	4112
2026-01-27 15:09:21.75	307.52	32.69	-36.1	-37.0	22.6	0.00e+00	0	44	0	3248488448	42	4017
2026-01-27 15:09:22.75	307.79	32.54	-36.0	-36.9	22.7	0.00e+00	0	44	0	3255828480	42	3966
2026-01-27 15:09:23.74	308.04	32.39	-35.9	-36.7	22.8	0.00e+00	0	44	0	3263168512	42	3909
2026-01-27 15:09:24.73	308.30	32.25	-35.9	-36.7	22.9	0.00e+00	0	44	0	3269459968	42	3889
2026-01-27 15:09:25.73	308.56	32.10	-35.9	-36.8	22.6	0.00e+00	0	44	0	3276800000	42	3920
2026-01-27 15:09:26.72	308.81	31.96	-35.9	-36.8	22.8	0.00e+00	0	44	0	3284140032	42	3920
2026-01-27 15:09:27.72	309.06	31.81	-36.0	-36.9	22.7	0.00e+00	0	44	0	3291480064	42	3971
2026-01-27 15:09:28.71	309.31	31.67	-36.2	-37.0	22.5	0.00e+00	0	45	0	3298820096	42	4030
2026-01-27 15:09:29.71	309.56	31.52	-36.2	-37.1	22.5	0.00e+00	0	44	0	3306160128	42	4060
2026-01-27 15:09:30.70	309.80	31.37	-36.2	-37.1	22.5	0.00e+00	0	44	0	3313500160	42	4078
2026-01-27 15:09:31.70	310.05	31.23	-36.3	-37.2	22.4	0.00e+00	0	44	0	3320840192	42	4105
2026-01-27 15:09:32.70	310.29	31.08	-36.2	-37.1	22.4	0.00e+00	0	44	0	3327131648	42	4072
2026-01-27 15:09:33.69	310.53	30.94	-36.2	-37.1	22.5	0.00e+00	0	44	0	3334471680	42	4075
2026-01-27 15:09:34.69	310.77	30.79	-36.2	-37.1	22.5	0.00e+00	0	44	0	3341811712	42	4058
2026-01-27 15:09:35.68	311.00	30.65	-36.2	-37.0	22.5	0.00e+00	0	44	0	3349151744	42	4049
2026-01-27 15:09:36.67	311.23	30.51	-36.2	-37.0	22.6	0.00e+00	0	44	0	3356491776	42	4018
2026-01-27 15:09:37.67	311.46	30.36	-36.2	-37.0	22.5	0.00e+00	0	45	0	3363831808	42	4042
2026-01-27 15:09:38.67	311.69	30.22	-36.2	-37.0	22.6	0.00e+00	0	45	0	3370123264	42	4036
2026-01-27 15:09:39.66	311.92	30.08	-36.2	-37.1	22.5	0.00e+00	0	44	0	3377463296	42	4059
2026-01-27 15:09:40.66	312.14	29.93	-36.3	-37.2	22.4	0.00e+00	0	44	0	3384803328	42	4099
2026-01-27 15:09:41.65	312.36	29.79	-36.3	-37.1	22.5	0.00e+00	0	44	0	3392143360	42	4076
2026-01-27 15:09:42.64	312.58	29.65	-36.3	-37.2	22.4	0.00e+00	0	45	0	3399483392	42	4111
2026-01-27 15:09:43.64	312.80	29.50	-36.3	-37.2	22.4	0.00e+00	0	44	0	3406823424	42	4101
2026-01-27 15:09:44.63	313.02	29.36	-36.2	-37.1	22.5	0.00e+00	0	44	0	3413114880	42	4073
2026-01-27 15:09:45.63	313.24	29.22	-36.3	-37.2	22.4	0.00e+00	0	44	0	3420454912	42	4112
2026-01-27 15:09:46.62	313.45	29.08	-36.2	-37.1	22.5	0.00e+00	0	45	0	3427794944	42	4077
2026-01-27 15:09:47.62	313.66	28.94	-36.2	-37.1	22.5	0.00e+00	0	44	0	3435134976	42	4065
2026-01-27 15:09:48.61	313.87	28.80	-36.3	-37.1	22.4	0.00e+00	0	44	0	3442475008	42	4095
2026-01-27 15:09:49.61	314.08	28.66	-36.2	-37.1	22.5	0.00e+00	0	45	0	3449815040	42	4065
2026-01-27 15:09:50.60	314.28	28.52	-36.3	-37.1	22.4	0.00e+00	0	44	0	3457155072	42	4093
2026-01-27 15:09:51.60	314.49	28.38	-36.3	-37.2	22.4	0.00e+00	0	45	0	3464495104	42	4104
2026-01-27 15:09:52.59	314.69	28.24	-36.3	-37.2	22.4	0.00e+00	0	44	0	3470786560	42	4115
2026-01-27 15:09:53.59	314.89	28.10	-36.4	-37.3	22.3	0.00e+00	0	44	0	3478126592	42	4153
2026-01-27 15:09:54.58	315.09	27.96	-36.5	-37.4	22.1	0.00e+00	0	44	0	3485466624	42	4204
2026-01-27 15:09:55.57	315.28	27.82	-36.5	-37.4	22.2	0.00e+00	0	44	0	3492806656	42	4222
2026-01-27 15:09:56.57	315.48	27.68	-36.5	-37.4	22.2	0.00e+00	0	44	0	3500146688	42	4229
2026-01-27 15:09:57.56	315.67	27.55	-36.7	-37.6	22.0	0.00e+00	0	44	0	3507486720	42	4307
2026-01-27 15:09:58.56	315.87	27.41	-36.6	-37.5	22.1	0.00e+00	0	44	0	3513778176	42	4262
2026-01-27 15:09:59.56	316.06	27.27	-36.6	-37.5	22.1	0.00e+00	0	44	0	3521118208	42	4255
2026-01-27 15:10:00.55	316.25	27.13	-36.5	-37.4	22.2	0.00e+00	0	44	0	3528458240	42	4218
2026-01-27 15:10:01.55	316.44	27.00	-36.4	-37.3	22.3	0.00e+00	0	45	0	3535798272	42	4152
2026-01-27 15:10:02.54	316.62	26.86	-36.3	-37.2	22.4	0.00e+00	0	44	0	3543138304	42	4130
2026-01-27 15:10:03.53	316.80	26.73	-36.4	-37.3	22.3	0.00e+00	0	44	0	3550478336	42	4147
2026-01-27 15:10:04.53	316.99	26.59	-36.2	-37.1	22.5	0.00e+00	0	44	0	3556769792	42	4055
2026-01-27 15:10:05.52	317.17	26.46	-36.1	-36.9	22.6	0.00e+00	0	44	0	3564109824	42	3989
2026-01-27 15:10:06.52	317.35	26.32	-36.1	-36.9	22.6	0.00e+00	0	44	0	3571449856	42	4002
2026-01-27 15:10:07.51	317.53	26.19	-36.1	-37.0	22.5	0.00e+00	0	45	0	3578789888	42	4010
2026-01-27 15:10:08.51	317.71	26.05	-36.2	-37.0	22.5	0.00e+00	0	45	0	3586129920	42	4038
2026-01-27 15:10:09.50	317.88	25.92	-36.2	-37.1	22.4	0.00e+00	0	44	0	3593469952	42	4065
2026-01-27 15:10:10.50	318.05	25.79	-36.2	-37.1	22.4	0.00e+00	0	44	0	3600809984	42	4080
2026-01-27 15:10:11.50	318.23	25.65	-36.4	-37.3	22.3	0.00e+00	0	44	0	3608150016	42	4162
2026-01-27 15:10:12.49	318.40	25.52	-36.4	-37.3	22.2	0.00e+00	0	44	0	3614441472	42	4169
2026-01-27 15:10:13.49	318.57	25.39	-36.6	-37.4	22.1	0.00e+00	0	45	0	3621781504	42	4235
2026-01-27 15:10:14.48	318.74	25.26	-36.5	-37.4	22.2	0.00e+00	0	44	0	3629121536	42	4227
2026-01-27 15:10:15.48	318.91	25.13	-36.6	-37.5	22.1	0.00e+00	0	44	0	3636461568	42	4254
2026-01-27 15:10:16.47	319.07	25.00	-36.6	-37.5	22.0	0.00e+00	0	44	0	3643801600	42	4286
2026-01-27 15:10:17.46	319.23	24.87	-36.6	-37.5	22.1	0.00e+00	0	44	0	3651141632	42	4256
2026-01-27 15:10:18.45	319.40	24.74	-36.7	-37.6	21.8	0.00e+00	0	44	0	3657433088	42	4308
2026-01-27 15:10:19.45	319.56	24.61	-36.5	-37.4	22.1	0.00e+00	0	45	0	3664773120	42	4222
2026-01-27 15:10:20.44	319.72	24.48	-36.5	-37.4	22.2	0.00e+00	0	44	0	3672113152	42	4220
2026-01-27 15:10:21.44	319.88	24.35	-36.6	-37.4	22.1	0.00e+00	0	44	0	3679453184	42	4242
2026-01-27 15:10:22.43	320.04	24.22	-36.4	-37.3	22.2	0.00e+00	0	44	0	3686793216	42	4181
2026-01-27 15:10:23.42	320.19	24.10	-36.4	-37.3	22.2	0.00e+00	0	44	0	3694133248	42	4173
2026-01-27 15:10:24.42	320.35	23.97	-36.4	-37.3	22.3	0.00e+00	0	44	0	3700424704	42	4152
2026-01-27 15:10:25.42	320.50	23.84	-36.3	-37.2	22.4	0.00e+00	0	45	0	3707764736	42	4104
2026-01-27 15:10:26.41	320.66	23.72	-36.3	-37.2	22.3	0.00e+00	0	44	0	3715104768	42	4144
2026-01-27 15:10:27.41	320.81	23.59	-36.3	-37.2	22.2	0.00e+00	0	44	0	3722444800	42	4137
2026-01-27 15:10:28.40	320.96	23.46	-36.4	-37.3	22.3	0.00e+00	0	45	0	3729784832	42	4152
2026-01-27 15:10:29.40	321.11	23.34	-36.4	-37.3	22.2	0.00e+00	0	45	0	3737124864	42	4193
2026-01-27 15:10:30.39	321.26	23.21	-36.5	-37.4	22.1	0.00e+00	0	44	0	3744464896	42	4214
2026-01-27 15:10:31.39	321.41	23.09	-36.6	-37.5	22.1	0.00e+00	0	44	0	3750756352	42	4268
2026-01-27 15:10:32.39	321.55	22.96	-36.6	-37.5	22.1	0.00e+00	0	44	0	3758096384	42	4247
2026-01-27 15:10:33.38	321.70	22.84	-36.7	-37.6	21.9	0.00e+00	0	44	0	3765436416	42	4321
2026-01-27 15:10:34.38	321.84	22.72	-36.7	-37.6	22.0	0.00e+00	0	44	0	3772776448	43	4059
2026-01-27 15:10:35.37	321.98	22.60	-36.7	-37.6	21.9	0.00e+00	0	44	0	3780116480	43	4094
2026-01-27 15:10:36.36	322.12	22.47	-36.8	-37.7	21.9	0.00e+00	0	45	0	3787456512	43	4126
2026-01-27 15:10:37.36	322.27	22.35	-36.7	-37.6	21.9	0.00e+00	0	45	0	3794796544	43	4081
2026-01-27 15:10:38.35	322.40	22.23	-36.8	-37.7	21.9	0.00e+00	0	44	0	3801088000	43	4117
2026-01-27 15:10:39.35	322.54	22.11	-36.9	-37.8	21.8	0.00e+00	0	45	0	3808428032	43	4153
2026-01-27 15:10:40.34	322.68	21.99	-36.7	-37.6	22.0	0.00e+00	0	44	0	3815768064	43	4055
2026-01-27 15:10:41.34	322.82	21.87	-36.5	-37.4	22.1	0.00e+00	0	44	0	3823108096	43	4001
2026-01-27 15:10:42.33	322.95	21.75	-36.6	-37.5	22.0	0.00e+00	0	44	0	3830448128	43	4035
2026-01-27 15:10:43.33	323.09	21.63	-36.6	-37.5	22.0	0.00e+00	0	44	0	3837788160	43	4050
2026-01-27 15:10:44.32	323.22	21.51	-36.7	-37.6	21.9	0.00e+00	0	44	0	3844079616	43	4087
2026-01-27 15:10:45.31	323.35	21.39	-36.7	-37.6	21.9	0.00e+00	0	44	0	3851419648	43	4064
2026-01-27 15:10:46.31	323.48	21.27	-36.8	-37.7	21.7	0.00e+00	0	44	0	3858759680	43	4141
2026-01-27 15:10:47.31	323.62	21.16	-36.9	-37.8	21.7	0.00e+00	0	44	0	3866099712	43	4191
2026-01-27 15:10:48.30	323.74	21.04	-36.9	-37.8	21.6	0.00e+00	0	44	0	3873439744	43	4175
2026-01-27 15:10:49.29	323.87	20.92	-36.9	-37.8	21.7	0.00e+00	0	44	0	3880779776	43	4168
2026-01-27 15:10:50.29	324.00	20.81	-37.0	-37.9	21.6	0.00e+00	0	44	0	3887071232	43	4241
2026-01-27 15:10:51.28	324.13	20.69	-37.1	-38.0	21.5	0.00e+00	0	45	0	3894411264	43	4279
2026-01-27 15:10:52.28	324.25	20.57	-37.1	-38.1	21.5	0.00e+00	0	44	0	3901751296	43	4297
2026-01-27 15:10:53.27	324.38	20.46	-37.2	-38.2	21.4	0.00e+00	0	44	0	3909091328	43	4359
2026-01-27 15:10:54.27	324.50	20.34	-37.4	-38.3	21.4	0.00e+00	0	44	0	3916431360	44	4182
2026-01-27 15:10:55.26	324.63	20.23	-37.4	-38.3	21.5	0.00e+00	0	44	0	3923771392	44	4178
2026-01-27 15:10:56.26	324.75	20.11	-37.5	-38.4	21.3	0.00e+00	0	44	0	3931111424	44	4224
2026-01-27 15:10:57.25	324.87	20.00	-37.4	-38.4	21.4	0.00e+00	0	44	0	3938451456	44	4201
2026-01-27 15:10:58.25	324.99	19.89	-37.5	-38.4	21.3	0.00e+00	0	44	0	3944742912	44	4222
2026-01-27 15:10:59.24	325.11	19.78	-37.5	-38.4	21.3	0.00e+00	0	44	0	3952082944	44	4224
2026-01-27 15:11:00.23	325.23	19.66	-37.4	-38.3	21.4	0.00e+00	0	44	0	3959422976	44	4171
2026-01-27 15:11:01.23	325.35	19.55	-37.4	-38.3	21.4	0.00e+00	0	44	0	3966763008	44	4180
2026-01-27 15:11:02.23	325.46	19.44	-37.4	-38.3	21.4	0.00e+00	0	44	0	3974103040	44	4180
2026-01-27 15:11:03.22	325.58	19.33	-37.4	-38.3	21.4	0.00e+00	0	44	0	3981443072	44	4189
2026-01-27 15:11:04.22	325.70	19.22	-37.5	-38.4	21.3	0.00e+00	0	45	0	3987734528	44	4241
2026-01-27 15:11:05.21	325.81	19.11	-37.5	-38.4	21.3	0.00e+00	0	44	0	3995074560	44	4218
2026-01-27 15:11:06.20	325.92	19.00	-37.5	-38.4	21.2	0.00e+00	0	44	0	4002414592	44	4240
2026-01-27 15:11:07.20	326.04	18.89	-37.6	-38.5	21.2	0.00e+00	0	45	0	4009754624	44	4265
2026-01-27 15:11:08.20	326.15	18.78	-37.6	-38.5	21.3	0.00e+00	0	44	0	4017094656	44	4269
2026-01-27 15:11:09.19	326.26	18.67	-37.5	-38.5	21.3	0.00e+00	0	44	0	4023386112	44	4245
2026-01-27 15:11:10.18	326.37	18.56	-37.6	-38.5	21.2	0.00e+00	0	44	0	4030726144	44	4284
2026-01-27 15:11:11.18	326.48	18.45	-37.6	-38.5	21.2	0.00e+00	0	45	0	4038066176	44	4291
2026-01-27 15:11:12.18	326.59	18.34	-37.6	-38.6	21.1	0.00e+00	0	44	0	4045406208	44	4334
2026-01-27 15:11:13.17	326.70	18.24	-37.7	-38.7	21.0	0.00e+00	0	44	0	4052746240	44	4377
2026-01-27 15:11:14.17	326.81	18.13	-37.6	-38.7	21.1	0.00e+00	0	45	0	4060086272	44	4346
2026-01-27 15:11:15.16	326.91	18.02	-37.8	-38.8	20.9	0.00e+00	0	44	0	4067426304	44	4428
2026-01-27 15:11:16.16	327.02	17.91	-37.8	-38.8	20.9	0.00e+00	0	44	0	4074766336	45	4180
2026-01-27 15:11:17.15	327.13	17.81	-37.8	-38.8	20.9	0.00e+00	0	44	0	4082106368	45	4168
2026-01-27 15:11:18.15	327.23	17.70	-37.8	-38.7	21.0	0.00e+00	0	44	0	4088397824	45	4145
2026-01-27 15:11:19.14	327.34	17.60	-37.8	-38.8	21.0	0.00e+00	0	45	0	4095737856	45	4174
2026-01-27 15:11:20.14	327.44	17.49	-37.9	-38.9	20.8	0.00e+00	0	44	0	4103077888	45	4229
2026-01-27 15:11:21.13	327.54	17.39	-37.9	-38.9	20.8	0.00e+00	0	44	0	4110417920	45	4204
2026-01-27 15:11:22.13	327.65	17.28	-37.9	-38.9	20.9	0.00e+00	0	44	0	4117757952	45	4199
2026-01-27 15:11:23.12	327.75	17.18	-37.9	-38.9	20.8	0.00e+00	0	44	0	4125097984	45	4223
2026-01-27 15:11:24.12	327.85	17.08	-38.1	-39.1	20.7	0.00e+00	0	44	0	4131389440	45	4308
2026-01-27 15:11:25.11	327.95	16.97	-38.0	-39.0	20.8	0.00e+00	0	44	0	4138729472	45	4265
2026-01-27 15:11:26.10	328.05	16.87	-38.0	-39.0	20.8	0.00e+00	0	45	0	4146069504	45	4243
2026-01-27 15:11:27.10	328.15	16.77	-38.0	-39.0	20.7	0.00e+00	0	44	0	4153409536	45	4274
2026-01-27 15:11:28.09	328.24	16.67	-38.0	-39.0	20.7	0.00e+00	0	44	0	4160749568	45	4262
2026-01-27 15:11:29.09	328.34	16.57	-38.0	-39.0	20.7	0.00e+00	0	44	0	4167041024	45	4285
2026-01-27 15:11:30.09	328.44	16.46	-38.1	-39.1	20.7	0.00e+00	0	44	0	4174381056	45	4296
2026-01-27 15:11:31.08	328.54	16.36	-38.1	-39.1	20.7	0.00e+00	0	44	0	4181721088	45	4294
2026-01-27 15:11:32.07	328.63	16.26	-38.1	-39.0	20.7	0.00e+00	0	44	0	4189061120	45	4273
2026-01-27 15:11:33.07	328.73	16.16	-38.2	-39.1	20.6	0.00e+00	0	45	0	4196401152	45	4318
2026-01-27 15:11:34.06	328.82	16.06	-38.1	-39.0	20.7	0.00e+00	0	44	0	4203741184	45	4266
2026-01-27 15:11:35.06	328.92	15.96	-38.2	-39.1	20.6	0.00e+00	0	44	0	4211081216	45	4320
2026-01-27 15:11:36.05	329.01	15.86	-38.2	-39.2	20.6	0.00e+00	0	44	0	4218421248	45	4348
2026-01-27 15:11:37.05	329.10	15.76	-38.2	-39.2	20.5	0.00e+00	0	44	0	4225761280	46	4108
2026-01-27 15:11:38.04	329.19	15.67	-38.2	-39.2	20.6	0.00e+00	0	44	0	4232052736	46	4111
2026-01-27 15:11:39.04	329.29	15.57	-38.1	-39.1	20.6	0.00e+00	0	44	0	4239392768	46	4074
2026-01-27 15:11:40.03	329.38	15.47	-38.2	-39.2	20.5	0.00e+00	0	44	0	4246732800	46	4128
2026-01-27 15:11:41.02	329.47	15.37	-38.2	-39.2	20.6	0.00e+00	0	44	0	4254072832	46	4113
2026-01-27 15:11:42.02	329.56	15.28	-38.3	-39.3	20.4	0.00e+00	0	44	0	4261412864	46	4186
2026-01-27 15:11:43.01	329.65	15.18	-38.3	-39.3	20.4	0.00e+00	0	44	0	4267704320	46	4181
2026-01-27 15:11:44.01	329.73	15.08	-38.4	-39.4	20.3	0.00e+00	0	44	0	4275044352	46	4206
2026-01-27 15:11:45.00	329.82	14.99	-38.5	-39.5	20.2	0.00e+00	0	44	0	4282384384	46	4270
2026-01-27 15:11:46.00	329.91	14.89	-38.5	-39.5	20.2	0.00e+00	0	44	0	4289724416	46	4282
2026-01-27 15:11:46.99	330.00	14.79	-38.7	-39.7	20.0	0.00e+00	0	44	0	4297064448	46	4363
2026-01-27 15:11:47.99	330.08	14.70	-38.7	-39.7	20.0	0.00e+00	0	44	0	4304404480	46	4364
2026-01-27 15:11:48.98	330.17	14.60	-38.7	-39.7	20.0	0.00e+00	0	44	0	4310695936	46	4360
2026-01-27 15:11:49.97	330.26	14.51	-38.8	-39.8	20.0	0.00e+00	0	44	0	4318035968	46	4416
2026-01-27 15:11:50.97	330.34	14.42	-38.9	-40.0	19.8	0.00e+00	0	44	0	4325376000	47	4252
2026-01-27 15:11:51.96	330.43	14.32	-38.8	-39.9	19.9	0.00e+00	0	44	0	4332716032	47	4196
2026-01-27 15:11:52.96	330.51	14.23	-38.9	-39.9	19.8	0.00e+00	0	44	0	4340056064	47	4229
2026-01-27 15:11:53.95	330.59	14.13	-39.0	-40.0	19.7	0.00e+00	0	44	0	4347396096	47	4274
2026-01-27 15:11:54.95	330.68	14.04	-38.9	-40.0	19.8	0.00e+00	0	44	0	4354736128	47	4246
2026-01-27 15:11:55.94	330.76	13.95	-39.0	-40.1	19.7	0.00e+00	0	44	0	4362076160	47	4306
2026-01-27 15:11:56.94	330.84	13.86	-39.0	-40.0	19.7	0.00e+00	0	45	0	4368367616	47	4288
2026-01-27 15:11:57.93	330.92	13.76	-39.0	-40.1	19.7	0.00e+00	0	44	0	4375707648	47	4300
2026-01-27 15:11:58.93	331.00	13.67	-39.0	-40.1	19.6	0.00e+00	0	44	0	4383047680	47	4314
2026-01-27 15:11:59.93	331.09	13.58	-39.1	-40.1	19.6	0.00e+00	0	44	0	4390387712	47	4332
2026-01-27 15:12:00.92	331.16	13.49	-39.2	-40.3	19.5	0.00e+00	0	44	0	4397727744	47	4393
2026-01-27 15:12:01.91	331.24	13.40	-39.2	-40.3	19.4	0.00e+00	0	44	0	4405067776	47	4408
2026-01-27 15:12:02.91	331.32	13.31	-39.1	-40.2	19.5	0.00e+00	0	44	0	4411359232	47	4353
2026-01-27 15:12:03.90	331.40	13.22	-39.2	-40.2	19.5	0.00e+00	0	44	0	4418699264	47	4372
2026-01-27 15:12:04.90	331.48	13.13	-39.2	-40.2	19.5	0.00e+00	0	44	0	4426039296	47	4369
2026-01-27 15:12:05.89	331.56	13.04	-39.1	-40.1	19.6	0.00e+00	0	44	0	4433379328	47	4328
2026-01-27 15:12:06.89	331.64	12.95	-39.3	-40.3	19.4	0.00e+00	0	44	0	4440719360	47	4414
2026-01-27 15:12:07.88	331.71	12.86	-39.3	-40.3	19.4	0.00e+00	0	44	0	4448059392	47	4420
2026-01-27 15:12:08.87	331.79	12.77	-39.3	-40.3	19.7	0.00e+00	0	44	0	4454350848	48	4168
2026-01-27 15:12:09.87	331.87	12.68	-39.3	-40.3	19.6	0.00e+00	0	44	0	4461690880	48	4190
2026-01-27 15:12:10.86	331.94	12.59	-39.3	-40.3	19.7	0.00e+00	0	44	0	4469030912	48	4152
2026-01-27 15:12:11.86	332.02	12.50	-39.3	-40.3	19.7	0.00e+00	0	45	0	4476370944	48	4166
2026-01-27 15:12:12.85	332.09	12.42	-39.1	-40.1	19.8	0.00e+00	0	44	0	4483710976	48	4098
2026-01-27 15:12:13.85	332.17	12.33	-39.2	-40.2	19.7	0.00e+00	0	44	0	4491051008	48	4131
2026-01-27 15:12:14.84	332.24	12.24	-39.2	-40.3	19.7	0.00e+00	0	44	0	4498391040	48	4158
2026-01-27 15:12:15.84	332.31	12.15	-39.3	-40.4	19.6	0.00e+00	0	44	0	4504682496	48	4201
2026-01-27 15:12:16.83	332.39	12.07	-39.4	-40.4	19.5	0.00e+00	0	44	0	4512022528	48	4235
2026-01-27 15:12:17.83	332.46	11.98	-39.2	-40.3	19.7	0.00e+00	0	44	0	4519362560	48	4160
2026-01-27 15:12:18.82	332.53	11.89	-39.3	-40.3	19.6	0.00e+00	0	44	0	4526702592	48	4186
2026-01-27 15:12:19.82	332.60	11.81	-39.2	-40.3	19.7	0.00e+00	0	44	0	4534042624	48	4158
2026-01-27 15:12:20.81	332.68	11.72	-39.3	-40.3	19.6	0.00e+00	0	44	0	4541382656	48	4192
2026-01-27 15:12:21.80	332.75	11.64	-39.3	-40.4	19.6	0.00e+00	0	44	0	4548722688	48	4210
2026-01-27 15:12:22.80	332.82	11.55	-39.5	-40.5	19.4	0.00e+00	0	44	0	4555014144	48	4291
2026-01-27 15:12:23.79	332.89	11.47	-39.5	-40.5	19.4	0.00e+00	0	44	0	4560257024	48	4282
2026-01-27 15:12:24.95	332.97	11.37	-39.4	-40.4	19.4	0.00e+00	0	44	0	4570742784	48	4238
2026-01-27 15:12:25.80	333.03	11.30	-39.4	-40.4	19.5	0.00e+00	0	44	0	4577034240	48	4242
2026-01-27 15:12:26.93	333.11	11.20	-39.5	-40.5	19.4	0.00e+00	0	44	0	4585422848	48	4288
2026-01-27 15:12:27.78	333.17	11.13	-39.6	-40.6	19.3	0.00e+00	0	44	0	4591714304	48	4337
2026-01-27 15:12:28.92	333.25	11.03	-39.6	-40.6	19.3	0.00e+00	0	44	0	4599054336	48	4336
2026-01-27 15:12:29.78	333.30	10.96	-39.6	-40.7	19.2	0.00e+00	0	44	0	4605345792	48	4354
2026-01-27 15:12:30.92	333.38	10.87	-39.7	-40.8	19.2	0.00e+00	0	45	0	4613734400	48	4409
2026-01-27 15:12:31.78	333.44	10.79	-39.8	-40.9	19.1	0.00e+00	0	44	0	4620025856	49	4202
2026-01-27 15:12:32.92	333.52	10.70	-39.8	-41.0	19.0	0.00e+00	0	44	0	4628414464	49	4247
2026-01-27 15:12:33.77	333.58	10.63	-39.7	-40.8	19.2	0.00e+00	0	44	0	4634705920	49	4149
