passes_logs/2026/01/27/T1/T1__20260127_014733_FENGYUN_3D_rec.log

#Pass ID: 20260127_014733_FENGYUN 3D
#Satellite: FENGYUN 3D
#Configuration: FENGYUN 3D
#almurnet v.1.7.20251203
#Start time: 2026-01-27 01:47:32

#Version: 2.0.20230620
#Station: T1
#Location: 37.570604 lon 55.790049 lat
#TLE: 1 43010U 17072A   26026.49129444  .00000151  00000+0  93391-4 0  9993
#TLE: 2 43010  98.9962 358.4866 0002525  88.1664 271.9801 14.19700337424889

#Time	Az	El	Level	Level2	SNR	BER	BlckErr	Temp	State	Recorded	gain1	gain2
2026-01-27 01:47:32.96	16.80	4.96	-48.3	-61.0	3.8	8.46e-01	0	41	0	0	67	16304
2026-01-27 01:47:33.95	16.80	5.03	-48.3	-61.1	3.8	8.46e-01	0	41	104	0	67	16487
2026-01-27 01:47:34.94	16.81	5.10	-48.3	-61.1	3.8	8.47e-01	0	41	104	0	67	16470
2026-01-27 01:47:35.93	16.81	5.17	-48.3	-61.1	3.8	8.47e-01	0	41	104	0	67	16392
2026-01-27 01:47:36.93	16.82	5.24	-48.2	-61.1	3.8	8.46e-01	0	41	104	0	67	16337
2026-01-27 01:47:37.92	16.82	5.31	-48.3	-61.1	3.8	8.46e-01	0	41	104	0	67	16435
2026-01-27 01:47:38.91	16.82	5.39	-48.3	-61.1	3.8	8.46e-01	0	41	104	0	67	16436
2026-01-27 01:47:39.91	16.83	5.46	-48.3	-61.1	3.8	8.47e-01	0	41	104	0	67	16320
2026-01-27 01:47:40.90	16.83	5.53	-48.3	-61.0	3.8	8.46e-01	0	41	104	0	67	16260
2026-01-27 01:47:41.89	16.84	5.60	-48.2	-61.0	3.8	8.48e-01	0	41	104	0	67	16208
2026-01-27 01:47:42.89	16.84	5.67	-48.2	-61.0	3.8	8.46e-01	0	41	104	0	67	16139
2026-01-27 01:47:43.88	16.85	5.75	-48.2	-60.9	3.8	8.46e-01	0	42	104	0	67	16090
2026-01-27 01:47:44.87	16.85	5.82	-48.2	-61.0	3.8	8.47e-01	0	41	104	0	67	16178
2026-01-27 01:47:45.87	16.85	5.89	-48.2	-61.0	3.8	8.48e-01	0	42	104	0	67	16188
2026-01-27 01:47:46.86	16.86	5.97	-48.2	-61.0	3.8	8.47e-01	0	41	104	0	67	16168
2026-01-27 01:47:47.85	16.86	6.04	-48.2	-61.0	3.8	8.48e-01	0	42	104	0	67	16241
2026-01-27 01:47:48.85	16.87	6.11	-48.2	-61.1	3.8	8.47e-01	0	42	104	0	67	16332
2026-01-27 01:47:49.84	16.87	6.19	-48.2	-61.1	3.8	8.46e-01	0	42	104	0	67	16353
2026-01-27 01:47:50.83	16.87	6.26	-48.2	-61.1	3.8	8.47e-01	0	42	104	0	67	16356
2026-01-27 01:47:51.82	16.88	6.33	-48.2	-61.0	3.8	8.47e-01	0	42	104	0	67	16311
2026-01-27 01:47:52.82	16.88	6.41	-48.2	-60.9	3.8	8.46e-01	0	42	104	0	67	16088
2026-01-27 01:47:53.81	16.89	6.48	-48.2	-60.8	3.8	8.47e-01	0	42	104	0	67	15907
2026-01-27 01:47:54.80	16.89	6.56	-48.2	-60.7	3.8	8.47e-01	0	42	104	0	67	15632
2026-01-27 01:47:55.80	16.89	6.63	-48.2	-60.4	3.8	8.46e-01	0	42	104	0	67	15169
2026-01-27 01:47:56.79	16.90	6.71	-48.2	-60.2	3.8	8.47e-01	0	42	104	0	67	14795
2026-01-27 01:47:57.78	16.90	6.78	-48.1	-59.8	3.8	8.46e-01	0	42	104	0	67	14192
2026-01-27 01:47:58.78	16.91	6.86	-48.1	-59.5	3.8	8.47e-01	0	42	104	0	67	13622
2026-01-27 01:47:59.77	16.91	6.94	-48.0	-59.1	3.8	8.47e-01	0	42	104	0	67	13011
2026-01-27 01:48:00.77	16.91	7.01	-48.0	-58.7	4.0	8.46e-01	0	42	104	0	67	12514
2026-01-27 01:48:01.76	16.92	7.09	-47.9	-58.4	3.9	8.44e-01	0	42	104	0	67	11994
2026-01-27 01:48:02.75	16.92	7.17	-47.9	-57.9	4.1	8.44e-01	0	42	104	0	67	11404
2026-01-27 01:48:03.74	16.93	7.24	-47.8	-57.5	4.2	8.39e-01	0	42	0	0	67	10877
2026-01-27 01:48:04.74	16.93	7.32	-47.8	-57.2	4.3	8.35e-01	0	42	0	0	67	10496
2026-01-27 01:48:05.73	16.94	7.40	-47.7	-56.8	4.4	8.31e-01	0	42	0	0	67	10040
2026-01-27 01:48:06.72	16.94	7.48	-47.7	-56.6	4.5	8.23e-01	0	42	0	0	67	9784
2026-01-27 01:48:07.72	16.94	7.55	-47.6	-56.3	4.6	8.16e-01	0	42	0	0	67	9420
2026-01-27 01:48:08.71	16.95	7.63	-47.6	-55.9	4.8	7.96e-01	0	42	0	0	67	9013
2026-01-27 01:48:09.70	16.95	7.71	-47.5	-55.6	5.0	7.84e-01	0	42	0	0	67	8683
2026-01-27 01:48:10.70	16.96	7.79	-47.4	-55.1	5.2	7.49e-01	0	42	0	0	66	8729
2026-01-27 01:48:11.69	16.96	7.87	-47.3	-54.6	5.6	6.93e-01	0	42	0	0	66	8224
2026-01-27 01:48:12.68	16.96	7.95	-47.1	-53.9	6.1	3.89e-01	0	42	0	4194304	66	7630
2026-01-27 01:48:13.68	16.97	8.03	-46.9	-53.3	6.5	2.69e-01	0	42	0	10485760	65	7521
2026-01-27 01:48:14.67	16.97	8.11	-46.7	-52.7	7.1	1.73e-01	0	42	0	15728640	65	6976
2026-01-27 01:48:15.66	16.98	8.18	-46.3	-51.8	7.9	1.17e-01	0	42	0	22020096	64	6719
2026-01-27 01:48:16.66	16.98	8.27	-46.2	-51.4	8.4	5.64e-02	0	42	0	27262976	64	6365
2026-01-27 01:48:17.65	16.98	8.35	-46.0	-50.9	9.0	3.94e-02	0	42	0	32505856	63	6369
2026-01-27 01:48:18.64	16.99	8.43	-45.7	-50.3	9.6	1.82e-02	0	42	0	37748736	63	5935
2026-01-27 01:48:19.64	16.99	8.51	-45.3	-49.5	10.4	7.85e-03	0	43	0	44040192	62	5758
2026-01-27 01:48:20.63	17.00	8.59	-45.0	-49.0	10.9	3.84e-03	0	42	0	49283072	62	5425
2026-01-27 01:48:21.62	17.00	8.67	-44.7	-48.4	11.5	1.51e-03	0	43	0	54525952	61	5364
2026-01-27 01:48:22.62	17.00	8.75	-44.4	-47.9	12.1	6.76e-04	0	43	0	60817408	60	5388
2026-01-27 01:48:23.61	17.01	8.83	-44.1	-47.5	12.5	1.85e-04	0	43	0	66060288	60	5138
2026-01-27 01:48:24.60	17.01	8.91	-44.1	-47.5	12.5	2.00e-04	0	43	0	71303168	60	5109
2026-01-27 01:48:25.60	17.02	9.00	-44.2	-47.6	12.4	1.61e-04	0	43	0	77594624	60	5170
2026-01-27 01:48:26.57	17.02	9.08	-42.9	-45.7	14.5	5.60e-05	0	43	0	82837504	57	4946
2026-01-27 01:48:27.57	17.03	9.16	-44.4	-47.7	12.3	3.75e-04	0	43	0	88080384	59	5588
2026-01-27 01:48:28.56	17.03	9.25	-44.3	-47.7	12.4	1.50e-04	0	43	0	94371840	59	5534
2026-01-27 01:48:29.56	17.03	9.33	-46.9	-52.9	7.0	6.53e-02	0	43	0	99614720	64	7612
2026-01-27 01:48:30.55	17.04	9.41	-43.4	-46.3	13.6	6.53e-02	0	43	0	102760448	59	4720
2026-01-27 01:48:31.55	17.04	9.50	-40.0	-42.2	17.8	0.00e+00	0	43	0	108003328	51	4661
2026-01-27 01:48:32.54	17.05	9.58	-39.5	-41.6	18.4	0.00e+00	0	43	0	113246208	51	4342
2026-01-27 01:48:33.54	17.05	9.67	-38.9	-40.9	19.0	0.00e+00	0	43	0	119537664	49	4531
2026-01-27 01:48:34.54	17.05	9.75	-38.7	-40.7	19.2	0.00e+00	0	43	0	124780544	49	4425
2026-01-27 01:48:35.53	17.06	9.84	-38.8	-40.8	19.1	0.00e+00	0	43	0	130023424	49	4484
2026-01-27 01:48:36.53	17.06	9.92	-38.6	-40.6	19.4	0.00e+00	0	43	0	136314880	49	4349
2026-01-27 01:48:37.52	17.07	10.01	-38.6	-40.6	19.3	0.00e+00	0	43	0	141557760	49	4369
2026-01-27 01:48:38.52	17.07	10.10	-38.6	-40.6	19.4	0.00e+00	0	43	0	146800640	49	4359
2026-01-27 01:48:39.51	17.07	10.18	-38.7	-40.7	19.3	0.00e+00	0	43	0	153092096	49	4400
2026-01-27 01:48:40.51	17.08	10.27	-38.6	-40.6	19.3	0.00e+00	0	43	0	158334976	49	4374
2026-01-27 01:48:41.50	17.08	10.36	-38.6	-40.6	19.4	0.00e+00	0	43	0	163577856	49	4373
2026-01-27 01:48:42.50	17.09	10.44	-38.5	-40.5	19.5	0.00e+00	0	43	0	169869312	49	4320
2026-01-27 01:48:43.50	17.09	10.53	-38.6	-40.5	19.4	0.00e+00	0	43	0	175112192	49	4335
2026-01-27 01:48:44.49	17.09	10.62	-38.5	-40.4	19.5	0.00e+00	0	43	0	180355072	49	4277
2026-01-27 01:48:45.49	17.10	10.71	-38.5	-40.5	19.5	0.00e+00	0	43	0	186646528	48	4562
2026-01-27 01:48:46.49	17.10	10.80	-38.6	-40.6	19.4	0.00e+00	0	43	0	191889408	48	4616
2026-01-27 01:48:47.54	17.11	10.89	-38.6	-40.5	19.5	0.00e+00	0	43	0	198180864	48	4577
2026-01-27 01:48:48.40	17.11	10.97	-38.4	-40.3	19.7	0.00e+00	0	43	0	202375168	48	4459
2026-01-27 01:48:49.54	17.12	11.07	-38.5	-40.4	19.6	0.00e+00	0	43	0	208666624	48	4525
2026-01-27 01:48:50.39	17.12	11.15	-38.5	-40.5	19.5	0.00e+00	0	43	0	213909504	48	4546
2026-01-27 01:48:51.53	17.12	11.25	-38.4	-40.3	19.7	0.00e+00	0	43	0	220200960	48	4466
2026-01-27 01:48:52.38	17.13	11.33	-38.3	-40.3	19.8	0.00e+00	0	43	0	225443840	48	4444
2026-01-27 01:48:53.52	17.13	11.44	-38.5	-40.4	19.6	0.00e+00	0	43	0	231735296	48	4505
2026-01-27 01:48:54.37	17.13	11.51	-38.4	-40.3	19.7	0.00e+00	0	43	0	235929600	48	4473
2026-01-27 01:48:55.51	17.14	11.62	-38.4	-40.3	19.7	0.00e+00	0	43	0	243269632	48	4471
2026-01-27 01:48:56.36	17.14	11.70	-38.4	-40.3	19.7	0.00e+00	0	43	0	247463936	48	4487
2026-01-27 01:48:57.50	17.15	11.80	-38.3	-40.2	19.8	0.00e+00	0	43	0	253755392	48	4428
2026-01-27 01:48:58.36	17.15	11.89	-38.3	-40.2	19.9	0.00e+00	0	43	0	258998272	48	4392
2026-01-27 01:48:59.57	17.16	12.00	-38.3	-40.2	19.8	0.00e+00	0	43	0	265289728	48	4428
2026-01-27 01:49:00.42	17.16	12.08	-38.3	-40.2	19.8	0.00e+00	0	43	0	270532608	48	4431
2026-01-27 01:49:01.56	17.16	12.19	-38.3	-40.2	19.8	0.00e+00	0	43	0	276824064	48	4423
2026-01-27 01:49:02.41	17.17	12.27	-38.4	-40.3	19.7	0.00e+00	0	43	0	282066944	48	4466
2026-01-27 01:49:03.55	17.17	12.38	-38.4	-40.3	19.8	0.00e+00	0	43	0	288358400	48	4467
2026-01-27 01:49:04.40	17.18	12.46	-38.5	-40.3	19.7	0.00e+00	0	43	0	292552704	48	4485
2026-01-27 01:49:05.54	17.18	12.57	-38.3	-40.2	19.9	0.00e+00	0	43	0	298844160	48	4404
2026-01-27 01:49:06.39	17.18	12.65	-38.2	-40.1	20.0	0.00e+00	0	43	0	304087040	48	4356
2026-01-27 01:49:07.53	17.19	12.76	-38.3	-40.2	19.9	0.00e+00	0	43	0	310378496	48	4412
2026-01-27 01:49:08.38	17.19	12.84	-38.2	-40.0	20.1	0.00e+00	0	43	0	315621376	48	4317
2026-01-27 01:49:09.52	17.20	12.95	-38.1	-40.0	20.1	0.00e+00	0	43	0	321912832	48	4293
2026-01-27 01:49:10.37	17.20	13.04	-38.2	-40.0	20.0	0.00e+00	0	43	0	326107136	48	4336
2026-01-27 01:49:11.51	17.20	13.15	-38.2	-40.0	20.1	0.00e+00	0	43	0	332398592	48	4330
2026-01-27 01:49:12.36	17.21	13.23	-38.2	-40.0	20.0	0.00e+00	0	43	0	337641472	48	4325
2026-01-27 01:49:13.50	17.21	13.34	-38.1	-40.0	20.1	0.00e+00	0	43	0	343932928	48	4293
2026-01-27 01:49:14.35	17.22	13.43	-38.1	-39.9	20.1	0.00e+00	0	43	0	349175808	48	4282
2026-01-27 01:49:15.52	17.22	13.55	-38.1	-39.9	20.2	0.00e+00	0	43	0	355467264	48	4270
2026-01-27 01:49:16.37	17.22	13.63	-38.1	-39.9	20.2	0.00e+00	0	43	0	359661568	48	4259
2026-01-27 01:49:17.57	17.23	13.75	-38.1	-39.9	20.2	0.00e+00	0	43	0	367001600	48	4263
2026-01-27 01:49:18.42	17.23	13.84	-38.1	-39.9	20.2	0.00e+00	0	43	0	371195904	48	4262
2026-01-27 01:49:19.62	17.24	13.96	-38.1	-39.9	20.2	0.00e+00	0	43	0	378535936	48	4263
2026-01-27 01:49:20.47	17.24	14.05	-38.1	-39.9	20.2	0.00e+00	0	43	0	382730240	48	4255
2026-01-27 01:49:21.61	17.25	14.16	-37.8	-39.6	20.3	0.00e+00	0	43	0	390070272	47	4363
2026-01-27 01:49:22.46	17.25	14.25	-37.9	-39.7	20.2	0.00e+00	0	43	0	394264576	47	4413
2026-01-27 01:49:23.60	17.25	14.37	-37.8	-39.6	20.3	0.00e+00	0	43	0	400556032	47	4384
2026-01-27 01:49:24.45	17.26	14.46	-37.7	-39.6	20.3	0.00e+00	0	43	0	405798912	47	4341
2026-01-27 01:49:25.59	17.26	14.58	-37.6	-39.4	20.5	0.00e+00	0	43	0	412090368	47	4265
2026-01-27 01:49:26.44	17.27	14.66	-37.6	-39.4	20.5	0.00e+00	0	43	0	416284672	47	4278
2026-01-27 01:49:27.58	17.27	14.78	-37.6	-39.4	20.5	0.00e+00	0	43	0	423624704	47	4276
2026-01-27 01:49:28.43	17.27	14.87	-37.7	-39.5	20.4	0.00e+00	0	43	0	427819008	47	4303
2026-01-27 01:49:29.57	17.28	15.00	-37.5	-39.3	20.6	0.00e+00	0	43	0	434110464	47	4216
2026-01-27 01:49:30.69	17.28	15.11	-37.5	-39.3	20.6	0.00e+00	0	43	0	440401920	46	4466
2026-01-27 01:49:31.72	17.29	15.23	-37.5	-39.3	20.6	0.00e+00	0	43	0	446693376	46	4467
2026-01-27 01:49:32.71	17.29	15.33	-37.5	-39.2	20.7	0.00e+00	0	43	0	451936256	46	4437
2026-01-27 01:49:33.70	17.29	15.44	-37.5	-39.3	20.6	0.00e+00	0	43	0	458227712	46	4488
2026-01-27 01:49:34.70	17.30	15.55	-37.6	-39.4	20.5	0.00e+00	0	43	0	463470592	46	4512
2026-01-27 01:49:35.69	17.30	15.66	-37.4	-39.2	20.7	0.00e+00	0	43	0	468713472	46	4411
2026-01-27 01:49:36.69	17.31	15.76	-37.4	-39.1	20.7	0.00e+00	0	43	0	473956352	46	4386
2026-01-27 01:49:37.68	17.31	15.87	-37.4	-39.2	20.7	0.00e+00	0	43	0	480247808	46	4431
2026-01-27 01:49:38.68	17.32	15.98	-37.4	-39.2	20.7	0.00e+00	0	43	0	485490688	46	4392
2026-01-27 01:49:39.67	17.32	16.09	-37.4	-39.2	20.7	0.00e+00	0	43	0	490733568	46	4413
2026-01-27 01:49:40.67	17.32	16.21	-37.5	-39.3	20.6	0.00e+00	0	43	0	497025024	46	4467
2026-01-27 01:49:41.66	17.33	16.32	-37.4	-39.2	20.7	0.00e+00	0	43	0	502267904	46	4418
2026-01-27 01:49:42.65	17.33	16.43	-37.2	-39.0	20.9	0.00e+00	0	43	0	508559360	46	4294
2026-01-27 01:49:43.65	17.34	16.54	-37.1	-38.9	21.0	0.00e+00	0	44	0	513802240	46	4272
2026-01-27 01:49:44.72	17.34	16.66	-37.2	-39.0	20.9	0.00e+00	0	43	0	520093696	46	4296
2026-01-27 01:49:45.60	17.34	16.76	-37.1	-38.8	21.0	0.00e+00	0	43	0	524288000	46	4241
2026-01-27 01:49:46.91	17.35	16.91	-37.1	-38.9	21.0	0.00e+00	0	43	0	531628032	46	4262
2026-01-27 01:49:47.62	17.35	17.00	-37.2	-39.0	20.9	0.00e+00	0	43	0	535822336	46	4304
2026-01-27 01:49:48.90	17.36	17.14	-37.1	-38.9	21.0	0.00e+00	0	43	0	543162368	46	4263
2026-01-27 01:49:49.61	17.36	17.23	-37.1	-38.9	21.0	0.00e+00	0	43	0	547356672	46	4271
2026-01-27 01:49:50.89	17.36	17.38	-36.9	-38.7	21.2	0.00e+00	0	43	0	554696704	45	4435
2026-01-27 01:49:51.62	17.37	17.46	-36.9	-38.7	21.1	0.00e+00	0	43	0	558891008	45	4425
2026-01-27 01:49:53.23	17.37	17.65	-36.8	-38.6	21.3	0.00e+00	0	43	0	567279616	45	4345
2026-01-27 01:49:53.80	17.38	17.72	-36.9	-38.7	21.2	0.00e+00	0	43	0	570425344	45	4398
2026-01-27 01:49:55.50	17.38	17.92	-36.7	-38.5	21.4	0.00e+00	0	43	0	579862528	45	4323
2026-01-27 01:49:56.07	17.39	17.99	-36.8	-38.6	21.3	0.00e+00	0	44	0	583008256	45	4347
2026-01-27 01:49:57.78	17.39	18.20	-36.6	-38.4	21.5	0.00e+00	0	44	0	593494016	45	4248
2026-01-27 01:49:58.35	17.40	18.27	-36.7	-38.4	21.4	0.00e+00	0	43	0	596639744	45	4279
2026-01-27 01:50:00.06	17.40	18.48	-36.4	-38.2	21.7	0.00e+00	0	44	0	606076928	44	4414
2026-01-27 01:50:00.62	17.40	18.54	-36.4	-38.1	21.7	0.00e+00	0	44	0	609222656	44	4371
2026-01-27 01:50:02.43	17.41	18.77	-36.3	-38.0	21.8	0.00e+00	0	43	0	618659840	44	4314
2026-01-27 01:50:02.99	17.41	18.84	-36.3	-38.0	21.8	0.00e+00	0	43	0	622854144	44	4336
2026-01-27 01:50:04.70	17.42	19.05	-36.1	-37.8	22.0	0.00e+00	0	43	0	632291328	44	4231
2026-01-27 01:50:05.27	17.42	19.12	-36.0	-37.7	22.1	0.00e+00	0	43	0	635437056	44	4190
2026-01-27 01:50:07.07	17.43	19.35	-36.0	-37.7	22.1	0.00e+00	0	43	0	644874240	44	4166
2026-01-27 01:50:07.64	17.43	19.42	-36.1	-37.8	22.1	0.00e+00	0	43	0	648019968	44	4201
2026-01-27 01:50:09.62	17.44	19.68	-35.7	-37.4	22.2	0.00e+00	0	44	0	659554304	43	4260
2026-01-27 01:50:10.19	17.44	19.75	-35.8	-37.5	22.2	0.00e+00	0	43	0	662700032	43	4299
2026-01-27 01:50:11.90	17.45	19.97	-35.6	-37.3	22.3	0.00e+00	0	43	0	672137216	43	4226
2026-01-27 01:50:12.47	17.45	20.05	-35.6	-37.3	22.3	0.00e+00	0	43	0	675282944	43	4225
2026-01-27 01:50:14.17	17.46	20.27	-35.7	-37.4	22.3	0.00e+00	0	43	0	685768704	43	4246
2026-01-27 01:50:14.74	17.46	20.35	-35.6	-37.3	22.3	0.00e+00	0	44	0	687865856	43	4221
2026-01-27 01:50:16.44	17.47	20.57	-35.5	-37.2	22.4	0.00e+00	0	43	0	698351616	43	4173
2026-01-27 01:50:17.01	17.47	20.65	-35.6	-37.2	22.4	0.00e+00	0	43	0	701497344	43	4188
2026-01-27 01:50:18.72	17.48	20.88	-35.6	-37.2	22.4	0.00e+00	0	43	0	710934528	43	4192
2026-01-27 01:50:19.40	17.48	20.97	-35.5	-37.2	22.4	0.00e+00	0	43	0	715128832	43	4172
2026-01-27 01:50:20.82	17.49	21.16	-35.5	-37.1	22.5	0.00e+00	0	43	0	722468864	43	4140
2026-01-27 01:50:21.57	17.49	21.27	-35.5	-37.2	22.4	0.00e+00	0	44	0	726663168	42	4396
2026-01-27 01:50:23.15	17.50	21.49	-35.6	-37.3	22.4	0.00e+00	0	43	0	736100352	42	4446
2026-01-27 01:50:23.78	17.50	21.57	-35.6	-37.3	22.4	0.00e+00	0	44	0	739246080	42	4446
2026-01-27 01:50:25.44	17.51	21.80	-35.5	-37.2	22.4	0.00e+00	0	43	0	748683264	42	4421
2026-01-27 01:50:26.01	17.51	21.88	-35.6	-37.2	22.4	0.00e+00	0	43	0	751828992	42	4440
2026-01-27 01:50:27.72	17.51	22.13	-35.5	-37.2	22.5	0.00e+00	0	44	0	761266176	42	4404
2026-01-27 01:50:28.29	17.52	22.21	-35.5	-37.2	22.4	0.00e+00	0	43	0	764411904	42	4423
2026-01-27 01:50:29.98	17.52	22.45	-35.5	-37.2	22.4	0.00e+00	0	44	0	773849088	42	4428
2026-01-27 01:50:30.55	17.53	22.53	-35.4	-37.1	22.5	0.00e+00	0	43	0	776994816	42	4386
2026-01-27 01:50:32.24	17.53	22.78	-35.3	-37.0	22.6	0.00e+00	0	44	0	786432000	42	4325
2026-01-27 01:50:32.81	17.54	22.86	-35.3	-37.0	22.7	0.00e+00	0	43	0	790626304	42	4301
2026-01-27 01:50:34.51	17.54	23.11	-35.1	-36.8	22.8	0.00e+00	0	44	0	800063488	42	4239
2026-01-27 01:50:35.08	17.54	23.19	-35.1	-36.8	22.8	0.00e+00	0	43	0	803209216	42	4228
2026-01-27 01:50:36.79	17.55	23.45	-35.1	-36.8	22.8	0.00e+00	0	43	0	812646400	42	4200
2026-01-27 01:50:37.41	17.55	23.54	-35.1	-36.8	22.8	0.00e+00	0	43	0	815792128	42	4206
2026-01-27 01:50:38.97	17.56	23.78	-35.2	-36.8	22.8	0.00e+00	0	43	0	825229312	42	4241
2026-01-27 01:50:39.59	17.56	23.87	-35.1	-36.8	22.8	0.00e+00	0	43	0	828375040	42	4226
2026-01-27 01:50:41.48	17.57	24.16	-35.1	-36.8	22.8	0.00e+00	0	43	0	838860800	42	4211
2026-01-27 01:50:42.05	17.57	24.25	-35.2	-36.9	22.8	0.00e+00	0	44	0	842006528	42	4244
2026-01-27 01:50:43.76	17.58	24.51	-35.1	-36.8	22.8	0.00e+00	0	44	0	851443712	42	4229
2026-01-27 01:50:44.33	17.58	24.60	-35.1	-36.8	22.8	0.00e+00	0	43	0	854589440	42	4210
2026-01-27 01:50:46.03	17.59	24.87	-35.0	-36.7	22.9	0.00e+00	0	44	0	864026624	42	4179
2026-01-27 01:50:46.60	17.59	24.96	-34.9	-36.6	23.0	0.00e+00	0	43	0	868220928	41	4343
2026-01-27 01:50:48.31	17.60	25.23	-34.8	-36.5	23.1	0.00e+00	0	43	0	877658112	41	4301
2026-01-27 01:50:48.88	17.60	25.32	-34.7	-36.4	23.2	0.00e+00	0	43	0	880803840	41	4260
2026-01-27 01:50:50.58	17.61	25.60	-34.9	-36.5	23.1	0.00e+00	0	44	0	890241024	41	4325
2026-01-27 01:50:51.15	17.61	25.69	-34.8	-36.4	23.1	0.00e+00	0	44	0	893386752	41	4290
2026-01-27 01:50:52.86	17.62	25.97	-34.7	-36.4	23.2	0.00e+00	0	43	0	902823936	41	4249
2026-01-27 01:50:53.43	17.62	26.07	-34.7	-36.4	23.2	0.00e+00	0	44	0	905969664	41	4265
2026-01-27 01:50:55.14	17.63	26.35	-34.8	-36.5	23.1	0.00e+00	0	44	0	915406848	41	4306
2026-01-27 01:50:55.70	17.63	26.44	-34.7	-36.4	23.2	0.00e+00	0	44	0	918552576	41	4267
2026-01-27 01:50:57.59	17.64	26.76	-34.7	-36.4	23.2	0.00e+00	0	44	0	929038336	41	4250
2026-01-27 01:50:58.15	17.64	26.86	-34.7	-36.4	23.2	0.00e+00	0	44	0	933232640	41	4251
2026-01-27 01:50:59.86	17.65	27.15	-34.6	-36.2	23.4	0.00e+00	0	44	0	942669824	41	4185
2026-01-27 01:51:00.43	17.65	27.25	-34.6	-36.2	23.3	0.00e+00	0	44	0	945815552	41	4172
2026-01-27 01:51:02.12	17.66	27.54	-34.5	-36.2	23.4	0.00e+00	0	44	0	955252736	41	4150
2026-01-27 01:51:02.69	17.66	27.64	-34.5	-36.1	23.4	0.00e+00	0	44	0	958398464	41	4126
2026-01-27 01:51:04.38	17.67	27.94	-34.4	-36.1	23.5	0.00e+00	0	44	0	967835648	40	4341
2026-01-27 01:51:04.95	17.67	28.04	-34.4	-36.0	23.5	0.00e+00	0	43	0	970981376	40	4317
2026-01-27 01:51:06.66	17.68	28.35	-34.4	-36.0	23.5	0.00e+00	0	43	0	980418560	40	4320
2026-01-27 01:51:07.29	17.68	28.46	-34.4	-36.1	23.5	0.00e+00	0	44	0	983564288	40	4346
2026-01-27 01:51:08.82	17.68	28.74	-34.6	-36.2	23.4	0.00e+00	0	44	0	993001472	40	4424
2026-01-27 01:51:09.53	17.69	28.87	-34.7	-36.3	23.3	0.00e+00	0	44	0	996147200	40	4482
2026-01-27 01:51:10.81	17.69	29.10	-34.8	-36.5	23.1	0.00e+00	0	44	0	1003487232	40	4558
2026-01-27 01:51:11.54	17.70	29.24	-34.8	-36.5	23.1	0.00e+00	0	44	0	1007681536	40	4586
2026-01-27 01:51:12.82	17.70	29.48	-34.8	-36.5	23.1	0.00e+00	0	44	0	1015021568	40	4577
2026-01-27 01:51:13.53	17.70	29.61	-34.8	-36.5	23.2	0.00e+00	0	44	0	1019215872	40	4557
2026-01-27 01:51:14.81	17.71	29.85	-34.9	-36.6	23.1	0.00e+00	0	44	0	1026555904	40	4604
2026-01-27 01:51:15.52	17.71	29.99	-34.9	-36.6	23.0	0.00e+00	0	44	0	1030750208	40	4625
2026-01-27 01:51:16.80	17.72	30.23	-34.8	-36.5	23.1	0.00e+00	0	43	0	1038090240	40	4580
2026-01-27 01:51:17.51	17.72	30.37	-34.9	-36.5	23.1	0.00e+00	0	44	0	1041235968	40	4593
2026-01-27 01:51:18.79	17.73	30.62	-34.9	-36.6	23.1	0.00e+00	0	44	0	1048576000	40	4611
2026-01-27 01:51:19.50	17.73	30.76	-34.9	-36.6	23.1	0.00e+00	0	44	0	1052770304	40	4638
2026-01-27 01:51:20.77	17.73	31.01	-34.9	-36.6	23.0	0.00e+00	0	44	0	1060110336	40	4625
2026-01-27 01:51:21.49	17.74	31.15	-35.0	-36.6	23.0	0.00e+00	0	43	0	1064304640	40	4641
2026-01-27 01:51:22.76	17.74	31.40	-34.9	-36.6	23.1	0.00e+00	0	44	0	1071644672	40	4605
2026-01-27 01:51:23.48	17.75	31.55	-34.9	-36.5	23.1	0.00e+00	0	44	0	1074790400	40	4580
2026-01-27 01:51:24.75	17.75	31.81	-34.7	-36.4	23.3	0.00e+00	0	44	0	1082130432	40	4511
2026-01-27 01:51:25.56	17.75	31.97	-34.7	-36.4	23.2	0.00e+00	0	44	0	1087373312	40	4511
2026-01-27 01:51:26.69	17.76	32.20	-34.5	-36.2	23.4	0.00e+00	0	44	0	1092616192	40	4407
2026-01-27 01:51:27.70	17.76	32.41	-34.3	-35.9	23.6	0.00e+00	0	44	0	1098907648	40	4290
2026-01-27 01:51:28.86	17.77	32.65	-34.1	-35.7	23.8	0.00e+00	0	44	0	1105199104	40	4189
2026-01-27 01:51:29.71	17.77	32.83	-34.0	-35.6	23.9	0.00e+00	0	44	0	1110441984	40	4130
2026-01-27 01:51:30.85	17.78	33.07	-34.1	-35.7	23.9	0.00e+00	0	44	0	1116733440	40	4165
2026-01-27 01:51:31.70	17.78	33.25	-34.2	-35.8	23.7	0.00e+00	0	43	0	1121976320	40	4233
2026-01-27 01:51:32.84	17.79	33.50	-34.3	-35.9	23.7	0.00e+00	0	43	0	1127219200	40	4282
2026-01-27 01:51:33.69	17.79	33.68	-34.4	-36.0	23.5	0.00e+00	0	44	0	1132462080	40	4338
2026-01-27 01:51:34.83	17.79	33.93	-34.4	-36.0	23.6	0.00e+00	0	44	0	1138753536	40	4340
2026-01-27 01:51:35.68	17.80	34.11	-34.3	-36.0	23.6	0.00e+00	0	43	0	1143996416	40	4302
2026-01-27 01:51:36.82	17.80	34.36	-34.4	-36.0	23.5	0.00e+00	0	43	0	1150287872	40	4339
2026-01-27 01:51:37.67	17.81	34.55	-34.4	-36.0	23.6	0.00e+00	0	44	0	1154482176	40	4320
2026-01-27 01:51:38.85	17.81	34.81	-34.3	-35.9	23.7	0.00e+00	0	44	0	1161822208	40	4270
2026-01-27 01:51:39.71	17.82	35.01	-34.3	-36.0	23.7	0.00e+00	0	44	0	1166016512	40	4293
2026-01-27 01:51:40.91	17.82	35.28	-34.3	-35.9	23.7	0.00e+00	0	43	0	1173356544	40	4274
2026-01-27 01:51:41.76	17.82	35.47	-34.3	-36.0	23.6	0.00e+00	0	44	0	1177550848	40	4293
2026-01-27 01:51:42.96	17.83	35.75	-34.3	-35.9	23.7	0.00e+00	0	44	0	1184890880	40	4282
2026-01-27 01:51:43.81	17.83	35.95	-34.3	-35.9	23.7	0.00e+00	0	44	0	1189085184	40	4269
2026-01-27 01:51:44.95	17.84	36.21	-34.3	-35.9	23.6	0.00e+00	0	43	0	1196425216	40	4289
2026-01-27 01:51:45.80	17.84	36.41	-34.3	-35.9	23.7	0.00e+00	0	43	0	1200619520	40	4267
2026-01-27 01:51:47.10	17.85	36.72	-34.0	-35.6	23.9	0.00e+00	0	44	0	1207959552	40	4134
2026-01-27 01:51:47.81	17.85	36.89	-33.9	-35.5	24.1	0.00e+00	0	44	0	1212153856	39	4340
2026-01-27 01:51:49.09	17.86	37.20	-33.9	-35.5	24.1	0.00e+00	0	44	0	1219493888	39	4332
2026-01-27 01:51:49.82	17.86	37.38	-34.0	-35.7	23.9	0.00e+00	0	44	0	1223688192	39	4404
2026-01-27 01:51:51.10	17.87	37.69	-34.1	-35.7	23.9	0.00e+00	0	44	0	1231028224	39	4409
2026-01-27 01:51:51.87	17.87	37.88	-34.1	-35.8	23.9	0.00e+00	0	44	0	1235222528	39	4449
2026-01-27 01:51:53.15	17.87	38.19	-34.3	-36.0	23.7	0.00e+00	0	44	0	1242562560	39	4561
2026-01-27 01:51:53.87	17.88	38.37	-34.3	-35.9	23.7	0.00e+00	0	44	0	1245708288	39	4539
2026-01-27 01:51:55.15	17.88	38.70	-34.3	-36.0	23.7	0.00e+00	0	44	0	1253048320	39	4547
2026-01-27 01:51:55.87	17.89	38.88	-34.4	-36.1	23.6	0.00e+00	0	43	0	1257242624	39	4614
2026-01-27 01:51:57.14	17.89	39.20	-34.1	-35.7	23.9	0.00e+00	0	44	0	1264582656	39	4418
2026-01-27 01:51:57.88	17.90	39.39	-34.0	-35.6	24.0	0.00e+00	0	44	0	1268776960	39	4381
2026-01-27 01:51:59.16	17.90	39.73	-34.1	-35.7	23.9	0.00e+00	0	44	0	1276116992	39	4430
2026-01-27 01:51:59.87	17.90	39.91	-34.2	-35.9	23.8	0.00e+00	0	44	0	1280311296	39	4509
2026-01-27 01:52:01.15	17.91	40.25	-34.5	-36.2	23.6	0.00e+00	0	44	0	1287651328	39	4655
2026-01-27 01:52:01.86	17.91	40.44	-34.5	-36.2	23.5	0.00e+00	0	44	0	1290797056	39	4660
2026-01-27 01:52:03.23	17.92	40.80	-34.6	-36.2	23.5	0.00e+00	0	44	0	1298137088	39	4672
2026-01-27 01:52:03.94	17.92	40.99	-34.5	-36.1	23.6	0.00e+00	0	44	0	1302331392	39	4615
2026-01-27 01:52:05.25	17.93	41.35	-34.5	-36.1	23.6	0.00e+00	0	44	0	1310720000	39	4633
2026-01-27 01:52:05.96	17.93	41.54	-34.5	-36.1	23.6	0.00e+00	0	44	0	1313865728	39	4631
2026-01-27 01:52:07.24	17.94	41.89	-34.4	-36.1	23.6	0.00e+00	0	44	0	1321205760	39	4610
2026-01-27 01:52:07.95	17.94	42.09	-34.4	-36.1	23.6	0.00e+00	0	44	0	1325400064	39	4616
2026-01-27 01:52:09.23	17.95	42.45	-34.6	-36.3	23.5	0.00e+00	0	44	0	1332740096	39	4721
2026-01-27 01:52:09.96	17.95	42.65	-34.6	-36.3	23.4	0.00e+00	0	44	0	1336934400	40	4461
2026-01-27 01:52:11.24	17.96	43.02	-34.8	-36.5	23.2	0.00e+00	0	44	0	1343225856	40	4561
2026-01-27 01:52:11.95	17.96	43.22	-34.9	-36.5	23.2	0.00e+00	0	44	0	1347420160	40	4570
2026-01-27 01:52:13.23	17.97	43.59	-35.0	-36.6	22.9	0.00e+00	0	44	0	1354760192	40	4644
2026-01-27 01:52:13.94	17.97	43.80	-34.8	-36.5	23.2	0.00e+00	0	44	0	1358954496	40	4553
2026-01-27 01:52:15.25	17.98	44.18	-34.7	-36.3	23.4	0.00e+00	0	44	0	1366294528	40	4461
2026-01-27 01:52:15.96	17.98	44.39	-34.7	-36.4	23.3	0.00e+00	0	44	0	1370488832	40	4507
2026-01-27 01:52:17.27	17.99	44.78	-34.9	-36.5	23.2	0.00e+00	0	44	0	1377828864	40	4579
2026-01-27 01:52:17.98	17.99	44.99	-35.0	-36.6	23.1	0.00e+00	0	44	0	1382023168	40	4628
2026-01-27 01:52:19.26	18.00	45.38	-35.2	-36.9	22.9	0.00e+00	0	44	0	1389363200	41	4521
2026-01-27 01:52:19.97	18.00	45.59	-35.2	-36.8	22.9	0.00e+00	0	44	0	1392508928	41	4489
2026-01-27 01:52:21.25	18.01	45.98	-34.9	-36.5	23.2	0.00e+00	0	44	0	1399848960	41	4332
2026-01-27 01:52:21.98	18.01	46.21	-34.9	-36.6	23.1	0.00e+00	0	44	0	1404043264	41	4349
2026-01-27 01:52:23.26	18.02	46.61	-34.9	-36.5	23.2	0.00e+00	0	43	0	1411383296	41	4340
2026-01-27 01:52:23.97	18.02	46.83	-34.8	-36.4	23.3	0.00e+00	0	44	0	1415577600	41	4271
2026-01-27 01:52:25.25	18.03	47.23	-34.7	-36.4	22.8	0.00e+00	0	44	0	1422917632	41	4272
2026-01-27 01:52:25.96	18.03	47.46	-34.6	-36.3	22.9	0.00e+00	0	44	0	1427111936	41	4218
2026-01-27 01:52:27.24	18.04	47.87	-34.5	-36.3	22.9	0.00e+00	0	44	0	1433403392	41	4209
2026-01-27 01:52:27.96	18.04	48.10	-34.5	-36.2	22.9	0.00e+00	0	44	0	1437597696	40	4414
2026-01-27 01:52:29.24	18.05	48.52	-34.4	-36.1	23.0	0.00e+00	0	44	0	1444937728	40	4390
2026-01-27 01:52:30.18	18.05	48.83	-34.5	-36.2	22.9	0.00e+00	0	44	0	1450180608	40	4415
2026-01-27 01:52:31.17	18.06	49.15	-34.5	-36.2	23.0	0.00e+00	0	44	0	1455423488	40	4407
2026-01-27 01:52:32.17	18.06	49.49	-34.5	-36.2	23.0	0.00e+00	0	44	0	1461714944	40	4441
2026-01-27 01:52:33.16	18.07	49.82	-34.7	-36.4	22.8	0.00e+00	0	44	0	1466957824	40	4542
2026-01-27 01:52:34.16	18.07	50.16	-35.0	-36.8	22.5	0.00e+00	0	44	0	1473249280	40	4716
2026-01-27 01:52:35.15	18.08	50.49	-35.3	-37.1	22.2	0.00e+00	0	44	0	1478492160	41	4620
2026-01-27 01:52:36.16	18.08	50.84	-35.4	-37.1	22.2	0.00e+00	0	44	0	1483735040	41	4629
2026-01-27 01:52:37.16	18.09	51.19	-35.3	-37.0	22.3	0.00e+00	0	44	0	1490026496	41	4580
2026-01-27 01:52:38.15	18.09	51.53	-35.2	-36.9	22.4	0.00e+00	0	44	0	1495269376	41	4535
2026-01-27 01:52:39.15	18.10	51.88	-35.4	-37.2	22.1	0.00e+00	0	44	0	1500512256	41	4678
2026-01-27 01:52:40.14	18.10	52.23	-35.8	-37.6	21.8	0.00e+00	0	44	0	1505755136	42	4602
2026-01-27 01:52:41.14	18.11	52.59	-35.8	-37.6	21.8	0.00e+00	0	44	0	1512046592	42	4611
2026-01-27 01:52:42.13	18.12	52.94	-35.8	-37.6	21.8	0.00e+00	0	44	0	1517289472	42	4622
2026-01-27 01:52:43.33	18.12	53.37	-35.7	-37.5	21.9	0.00e+00	0	44	0	1524629504	42	4547
2026-01-27 01:52:44.22	18.13	53.70	-35.8	-37.5	21.9	0.00e+00	0	44	0	1528823808	42	4598
2026-01-27 01:52:45.53	18.14	54.18	-35.7	-37.5	21.9	0.00e+00	0	44	0	1536163840	42	4562
2026-01-27 01:52:46.24	18.14	54.44	-35.8	-37.6	21.8	0.00e+00	0	44	0	1540358144	42	4603
2026-01-27 01:52:47.53	18.15	54.92	-35.6	-37.4	21.9	0.00e+00	0	44	0	1547698176	42	4518
2026-01-27 01:52:48.24	18.15	55.19	-35.5	-37.2	22.1	0.00e+00	0	44	0	1551892480	42	4434
2026-01-27 01:52:49.52	18.16	55.67	-35.2	-36.9	22.4	0.00e+00	0	44	0	1559232512	42	4277
2026-01-27 01:52:50.23	18.16	55.94	-35.3	-37.0	22.4	0.00e+00	0	44	0	1563426816	42	4318
2026-01-27 01:52:51.83	18.17	56.55	-35.8	-37.5	21.9	0.00e+00	0	44	0	1571815424	42	4595
2026-01-27 01:52:52.41	18.18	56.78	-35.8	-37.7	21.8	0.00e+00	0	44	0	1574961152	42	4652
2026-01-27 01:52:53.98	18.19	57.39	-35.7	-37.5	21.8	0.00e+00	0	44	0	1584398336	42	4593
2026-01-27 01:52:54.62	18.19	57.64	-35.7	-37.5	21.8	0.00e+00	0	44	0	1587544064	42	4574
2026-01-27 01:52:56.05	18.20	58.20	-35.5	-37.2	22.1	0.00e+00	0	44	0	1595932672	42	4428
2026-01-27 01:52:56.93	18.21	58.55	-35.4	-37.1	22.2	0.00e+00	0	44	0	1601175552	42	4387
2026-01-27 01:52:58.07	18.21	59.01	-35.4	-37.2	22.1	0.00e+00	0	44	0	1607467008	42	4413
2026-01-27 01:52:59.17	18.22	59.45	-35.2	-36.9	22.3	0.00e+00	0	44	0	1613758464	42	4291
2026-01-27 01:53:00.21	18.23	59.88	-34.5	-36.2	23.0	0.00e+00	0	44	0	1619001344	41	4164
2026-01-27 01:53:01.18	18.24	60.27	-34.3	-36.0	23.1	0.00e+00	0	44	0	1624244224	40	4328
2026-01-27 01:53:02.17	18.24	60.68	-34.6	-36.3	22.9	0.00e+00	0	43	0	1630535680	40	4469
2026-01-27 01:53:03.17	18.25	61.10	-34.9	-36.7	22.6	0.00e+00	0	44	0	1635778560	40	4669
2026-01-27 01:53:04.16	18.26	61.51	-34.8	-36.5	22.8	0.00e+00	0	44	0	1641021440	40	4569
2026-01-27 01:53:05.16	18.26	61.93	-34.3	-36.0	23.2	0.00e+00	0	44	0	1647312896	40	4311
2026-01-27 01:53:06.15	18.27	62.35	-34.3	-36.0	23.2	0.00e+00	0	44	0	1652555776	40	4305
2026-01-27 01:53:07.15	18.28	62.77	-34.5	-36.2	23.0	0.00e+00	0	44	0	1658847232	40	4412
2026-01-27 01:53:08.14	18.29	63.19	-34.4	-36.1	23.1	0.00e+00	0	44	0	1664090112	40	4363
2026-01-27 01:53:09.13	18.30	63.62	-34.3	-36.0	23.2	0.00e+00	0	44	0	1669332992	40	4313
2026-01-27 01:53:10.13	18.30	64.05	-34.3	-36.0	23.2	0.00e+00	0	44	0	1674575872	40	4313
2026-01-27 01:53:11.15	18.31	64.50	-34.2	-35.9	23.2	0.00e+00	0	44	0	1680867328	40	4280
2026-01-27 01:53:12.18	18.32	64.95	-34.0	-35.7	23.5	0.00e+00	0	44	0	1686110208	39	4394
2026-01-27 01:53:13.18	18.33	65.39	-33.9	-35.6	23.5	0.00e+00	0	44	0	1692401664	39	4379
2026-01-27 01:53:14.23	18.34	65.85	-33.9	-35.6	23.5	0.00e+00	0	44	0	1697644544	39	4361
2026-01-27 01:53:15.09	18.35	66.24	-33.9	-35.5	23.6	0.00e+00	0	44	0	1702887424	39	4336
2026-01-27 01:53:16.22	18.36	66.74	-33.8	-35.5	23.5	0.00e+00	0	43	0	1709178880	39	4334
2026-01-27 01:53:17.08	18.37	67.13	-33.7	-35.4	23.6	0.00e+00	0	44	0	1714421760	39	4259
2026-01-27 01:53:18.58	18.38	67.81	-33.9	-35.7	23.4	0.00e+00	0	44	0	1722810368	39	4393
2026-01-27 01:53:19.29	18.39	68.13	-33.9	-35.6	23.5	0.00e+00	0	44	0	1725956096	39	4355
2026-01-27 01:53:20.57	18.40	68.72	-33.8	-35.5	23.6	0.00e+00	0	44	0	1733296128	39	4313
2026-01-27 01:53:21.28	18.41	69.05	-33.6	-35.3	23.7	0.00e+00	0	44	0	1737490432	39	4209
2026-01-27 01:53:22.84	18.43	69.77	-33.5	-35.2	23.8	0.00e+00	0	44	0	1746927616	39	4180
2026-01-27 01:53:23.55	18.44	70.10	-33.3	-35.0	23.9	0.00e+00	0	44	0	1751121920	38	4322
2026-01-27 01:53:24.83	18.46	70.70	-33.2	-34.9	24.0	0.00e+00	0	44	0	1757413376	38	4255
2026-01-27 01:53:25.56	18.47	71.04	-33.3	-35.0	23.9	0.00e+00	0	43	0	1761607680	38	4311
2026-01-27 01:53:26.84	18.48	71.65	-33.3	-34.9	24.0	0.00e+00	0	44	0	1768947712	38	4276
2026-01-27 01:53:27.56	18.49	71.99	-33.3	-35.0	24.0	0.00e+00	0	43	0	1773142016	38	4299
2026-01-27 01:53:28.84	18.51	72.60	-33.3	-35.0	23.9	0.00e+00	0	44	0	1780482048	38	4306
2026-01-27 01:53:29.55	18.52	72.94	-33.1	-34.8	24.0	0.00e+00	0	44	0	1784676352	38	4206
2026-01-27 01:53:30.83	18.54	73.56	-33.0	-34.6	24.1	0.00e+00	0	44	0	1790967808	37	4391
2026-01-27 01:53:31.57	18.56	73.91	-33.0	-34.7	24.1	0.00e+00	0	44	0	1795162112	37	4414
2026-01-27 01:53:33.15	18.58	74.68	-33.0	-34.6	24.1	0.00e+00	0	44	0	1804599296	37	4378
2026-01-27 01:53:33.77	18.60	74.98	-33.1	-34.7	24.0	0.00e+00	0	43	0	1807745024	37	4435
2026-01-27 01:53:35.51	18.63	75.83	-33.1	-34.8	24.0	0.00e+00	0	44	0	1818230784	37	4451
2026-01-27 01:53:36.08	18.64	76.11	-33.0	-34.7	24.0	0.00e+00	0	44	0	1821376512	37	4424
2026-01-27 01:53:37.78	18.68	76.95	-32.6	-34.3	24.5	0.00e+00	0	44	0	1830813696	37	4213
2026-01-27 01:53:38.35	18.70	77.23	-32.7	-34.4	24.3	0.00e+00	0	44	0	1833959424	37	4262
2026-01-27 01:53:40.05	18.74	78.08	-32.7	-34.3	24.3	0.00e+00	0	44	0	1843396608	37	4237
2026-01-27 01:53:40.62	18.76	78.36	-32.6	-34.3	24.4	0.00e+00	0	44	0	1846542336	37	4202
2026-01-27 01:53:42.33	18.82	79.22	-32.3	-34.0	24.5	0.00e+00	0	44	0	1855979520	36	4313
2026-01-27 01:53:42.89	18.84	79.50	-32.3	-34.0	24.5	0.00e+00	0	44	0	1859125248	36	4293
2026-01-27 01:53:44.60	18.90	80.36	-32.1	-33.8	24.7	0.00e+00	0	44	0	1868562432	36	4196
2026-01-27 01:53:45.17	18.93	80.65	-32.0	-33.7	24.9	0.00e+00	0	44	0	1871708160	36	4146
2026-01-27 01:53:46.94	19.02	81.55	-32.5	-34.2	24.4	0.00e+00	0	44	0	1882193920	36	4434
2026-01-27 01:53:47.50	19.05	81.83	-32.5	-34.2	24.4	0.00e+00	0	44	0	1885339648	36	4411
2026-01-27 01:53:49.21	19.16	82.70	-31.1	-32.7	24.6	0.00e+00	0	44	0	1894776832	34	4173
2026-01-27 01:53:49.94	19.21	83.07	-31.2	-32.8	24.6	0.00e+00	0	44	0	1898971136	34	4226
2026-01-27 01:53:51.22	19.33	83.73	-31.0	-32.7	24.7	0.00e+00	0	44	0	1906311168	34	4173
2026-01-27 01:53:51.93	19.40	84.09	-31.2	-32.8	24.5	0.00e+00	0	44	0	1910505472	34	4235
2026-01-27 01:53:53.22	19.56	84.75	-31.5	-33.2	24.2	0.00e+00	0	44	0	1917845504	34	4408
2026-01-27 01:53:53.93	19.66	85.12	-31.4	-33.1	24.1	0.00e+00	0	44	0	1920991232	34	4363
2026-01-27 01:53:55.21	19.90	85.78	-31.5	-33.2	24.2	0.00e+00	0	44	0	1928331264	34	4415
2026-01-27 01:53:55.92	20.06	86.14	-31.5	-33.2	24.3	0.00e+00	0	44	0	1932525568	34	4414
2026-01-27 01:53:57.20	20.45	86.80	-31.6	-33.3	24.2	0.00e+00	0	44	0	1939865600	34	4446
2026-01-27 01:53:57.91	20.74	87.17	-31.6	-33.3	24.2	0.00e+00	0	44	0	1944059904	34	4451
2026-01-27 01:53:59.19	21.51	87.83	-31.7	-33.4	24.1	0.00e+00	0	44	0	1951399936	34	4527
2026-01-27 01:53:59.92	22.21	88.20	-31.5	-33.2	24.2	0.00e+00	0	44	0	1955594240	34	4397
2026-01-27 01:54:01.20	24.54	88.86	-31.9	-33.6	23.7	0.00e+00	0	44	0	1962934272	34	4623
2026-01-27 01:54:01.93	27.66	89.24	-32.2	-34.0	23.3	0.00e+00	0	44	0	1966080000	35	4549
2026-01-27 01:54:03.20	70.63	89.84	-33.6	-35.3	23.6	0.00e+00	0	44	0	1973420032	37	4746
2026-01-27 01:54:03.91	173.44	89.70	-48.4	-55.2	4.5	8.34e-01	0	44	104	1975517184	68	7840
2026-01-27 01:54:05.19	190.60	89.06	-48.4	-55.3	5.6	7.40e-01	0	44	0	1977614336	68	7921
2026-01-27 01:54:05.91	192.76	88.69	-48.3	-55.0	5.8	5.35e-01	0	44	0	1980760064	68	7684
2026-01-27 01:54:07.18	194.60	88.03	-48.1	-54.3	6.3	3.00e-01	0	44	0	1988100096	68	7091
2026-01-27 01:54:07.90	195.18	87.66	-47.8	-54.0	6.4	2.65e-01	0	44	0	1992294400	67	7267
2026-01-27 01:54:09.17	195.86	87.01	-47.8	-53.6	6.7	1.95e-01	0	44	0	1999634432	67	6949
2026-01-27 01:54:09.88	196.12	86.64	-49.1	-58.2	4.2	6.57e-01	0	44	0	2001731584	68	11084
2026-01-27 01:54:11.16	196.48	85.98	-48.9	-57.1	4.6	8.25e-01	0	44	0	2001731584	68	9719
2026-01-27 01:54:11.89	196.63	85.61	-47.5	-52.8	7.5	1.07e-01	0	44	0	2004877312	66	6722
2026-01-27 01:54:13.17	196.85	84.95	-47.3	-52.6	7.7	1.02e-01	0	44	0	2012217344	66	6516
2026-01-27 01:54:13.90	196.95	84.57	-47.2	-52.6	7.7	9.45e-02	0	44	0	2016411648	66	6530
2026-01-27 01:54:15.18	197.10	83.92	-47.3	-52.5	7.8	9.77e-02	0	44	0	2023751680	66	6475
2026-01-27 01:54:15.89	197.17	83.55	-47.3	-52.3	8.0	8.11e-02	0	44	0	2026897408	66	6327
2026-01-27 01:54:17.17	197.27	82.90	-47.4	-52.7	7.7	9.72e-02	0	44	0	2034237440	66	6581
2026-01-27 01:54:17.88	197.32	82.54	-47.5	-52.9	7.5	1.15e-01	0	44	0	2038431744	66	6753
2026-01-27 01:54:19.16	197.41	81.88	-49.1	-57.5	4.4	8.36e-01	0	44	0	2042626048	69	9707
2026-01-27 01:54:19.87	197.45	81.52	-48.8	-56.1	5.1	7.54e-01	0	44	0	2042626048	69	8216
2026-01-27 01:54:21.14	197.51	80.88	-49.5	-59.5	4.0	8.43e-01	0	44	104	2043674624	70	11509
2026-01-27 01:54:21.87	197.54	80.51	-49.7	-61.6	3.8	8.47e-01	0	44	104	2043674624	70	14573
2026-01-27 01:54:23.16	197.60	79.86	-49.6	-60.9	3.8	8.47e-01	0	44	104	2043674624	70	13520
2026-01-27 01:54:23.88	197.62	79.50	-49.7	-61.3	3.8	8.47e-01	0	44	104	2043674624	70	14183
2026-01-27 01:54:25.26	197.67	78.80	-49.7	-60.9	3.8	8.47e-01	0	44	104	2043674624	70	13487
2026-01-27 01:54:25.98	197.69	78.44	-49.4	-58.9	3.9	8.47e-01	0	44	104	2043674624	70	10757
2026-01-27 01:54:27.26	197.73	77.80	-49.3	-58.4	4.1	8.46e-01	0	44	104	2043674624	70	10118
2026-01-27 01:54:27.97	197.75	77.45	-47.7	-53.1	7.2	3.52e-01	0	44	0	2045771776	67	6552
2026-01-27 01:54:29.25	197.78	76.82	-48.8	-56.2	5.0	7.94e-01	0	44	0	2048917504	68	8835
2026-01-27 01:54:29.97	197.80	76.46	-48.1	-54.3	6.2	1.87e-01	0	44	0	2053111808	67	7481
2026-01-27 01:54:31.25	197.83	75.83	-49.1	-57.4	4.5	7.78e-01	0	44	0	2057306112	68	10116
2026-01-27 01:54:31.96	197.84	75.48	-49.0	-57.3	4.5	8.15e-01	0	44	0	2057306112	68	10002
2026-01-27 01:54:33.24	197.87	74.85	-48.7	-56.3	5.0	7.90e-01	0	44	0	2057306112	68	8911
2026-01-27 01:54:34.00	197.88	74.48	-48.5	-56.0	5.1	7.54e-01	0	44	0	2058354688	68	8637
2026-01-27 01:54:35.27	197.90	73.87	-48.3	-55.4	5.6	7.27e-01	0	44	0	2059403264	68	7993
2026-01-27 01:54:35.99	197.92	73.52	-48.0	-54.3	6.3	3.71e-01	0	44	0	2063597568	68	7103
2026-01-27 01:54:37.26	197.94	72.91	-49.4	-59.6	3.8	8.47e-01	0	44	104	2065694720	69	12247
2026-01-27 01:54:38.10	197.95	72.50	-49.1	-57.6	4.4	8.21e-01	0	44	0	2065694720	69	9773
2026-01-27 01:54:39.54	197.97	71.82	-49.0	-57.0	4.7	8.28e-01	0	44	0	2065694720	69	9072
2026-01-27 01:54:40.25	197.98	71.48	-48.7	-55.9	5.2	7.81e-01	0	44	0	2065694720	69	8028
2026-01-27 01:54:41.53	198.00	70.87	-48.3	-54.4	6.2	3.24e-01	0	44	0	2069889024	68	7183
2026-01-27 01:54:42.24	198.01	70.54	-48.2	-54.3	6.4	2.84e-01	0	44	0	2074083328	68	7059
2026-01-27 01:54:43.52	198.02	69.94	-48.3	-54.4	6.2	3.15e-01	0	44	0	2081423360	68	7178
2026-01-27 01:54:44.24	198.03	69.61	-48.2	-54.2	6.4	3.10e-01	0	44	0	2085617664	68	7026
2026-01-27 01:54:45.52	198.05	69.01	-49.0	-56.7	4.9	2.82e-01	0	44	0	2092957696	68	9299
2026-01-27 01:54:46.25	198.05	68.67	-49.7	-60.3	3.8	8.47e-01	0	44	104	2092957696	70	12608
2026-01-27 01:54:47.53	198.07	68.09	-48.5	-54.8	5.9	8.15e-01	0	44	0	2092957696	69	7106
2026-01-27 01:54:48.24	198.07	67.76	-49.0	-56.7	4.7	8.26e-01	0	44	0	2094006272	69	8856
2026-01-27 01:54:49.52	198.09	67.18	-49.3	-58.3	4.2	8.29e-01	0	44	0	2095054848	69	10538
2026-01-27 01:54:50.24	198.09	66.86	-49.3	-58.3	4.2	8.40e-01	0	44	0	2095054848	69	10646
2026-01-27 01:54:51.54	198.11	66.27	-48.9	-57.2	4.6	8.22e-01	0	44	0	2095054848	69	9306
2026-01-27 01:54:52.25	198.11	65.95	-48.6	-56.4	4.9	8.00e-01	0	44	0	2096103424	69	8521
2026-01-27 01:54:53.53	198.13	65.38	-48.2	-55.0	5.8	6.26e-01	0	44	0	2097152000	68	7679
2026-01-27 01:54:54.24	198.13	65.07	-48.1	-54.7	6.1	3.63e-01	0	44	0	2101346304	68	7414
2026-01-27 01:54:55.52	198.14	64.51	-49.1	-57.7	4.0	8.45e-01	0	44	104	2102394880	70	9374
2026-01-27 01:54:56.23	198.15	64.20	-48.8	-56.7	4.8	8.22e-01	0	44	0	2102394880	69	8767
2026-01-27 01:54:57.82	198.16	63.51	-48.4	-55.0	5.8	7.33e-01	0	44	0	2104492032	68	7686
2026-01-27 01:54:58.39	198.17	63.26	-48.3	-54.6	6.1	3.70e-01	0	44	0	2107637760	68	7331
2026-01-27 01:55:00.10	198.18	62.53	-48.3	-54.6	6.2	3.35e-01	0	44	0	2118123520	68	7289
2026-01-27 01:55:00.67	198.18	62.29	-48.4	-54.8	6.0	3.45e-01	0	44	0	2121269248	68	7530
2026-01-27 01:55:02.37	198.20	61.57	-48.6	-55.7	5.3	7.94e-01	0	44	0	2126512128	68	8342
2026-01-27 01:55:02.94	198.20	61.33	-48.3	-54.8	5.9	6.23e-01	0	44	0	2128609280	68	7536
2026-01-27 01:55:04.65	198.21	60.62	-49.0	-57.0	4.6	8.46e-01	0	44	104	2130706432	70	8637
2026-01-27 01:55:05.36	198.22	60.32	-48.6	-55.6	5.4	8.13e-01	0	44	0	2130706432	69	7751
2026-01-27 01:55:06.64	198.23	59.80	-48.8	-55.9	5.2	8.00e-01	0	44	0	2130706432	69	8027
2026-01-27 01:55:07.56	198.23	59.42	-48.6	-55.2	5.7	6.18e-01	0	44	0	2132803584	69	7409
2026-01-27 01:55:08.55	198.24	59.02	-48.4	-54.9	5.9	4.17e-01	0	44	0	2138046464	68	7558
2026-01-27 01:55:09.55	198.25	58.62	-48.5	-55.0	5.8	4.11e-01	0	44	0	2143289344	68	7656
2026-01-27 01:55:10.54	198.25	58.23	-48.5	-55.2	5.6	4.65e-01	0	44	0	2148532224	68	7888
2026-01-27 01:55:11.54	198.26	57.83	-48.6	-55.4	5.5	5.57e-01	0	44	0	2152726528	68	8047
2026-01-27 01:55:12.53	198.26	57.44	-49.6	-60.7	3.8	7.87e-01	0	44	104	2152726528	69	13976
2026-01-27 01:55:13.52	198.27	57.05	-49.5	-59.8	3.8	8.47e-01	0	44	104	2152726528	70	11869
2026-01-27 01:55:14.52	198.28	56.66	-48.8	-56.4	4.9	8.04e-01	0	44	0	2152726528	69	8536
2026-01-27 01:55:15.51	198.28	56.28	-49.2	-57.9	4.3	8.45e-01	0	44	104	2152726528	69	10159
2026-01-27 01:55:16.51	198.29	55.90	-48.9	-56.2	5.0	7.70e-01	0	44	0	2152726528	69	8347
2026-01-27 01:55:17.50	198.29	55.52	-48.8	-56.2	5.1	7.66e-01	0	44	0	2152726528	69	8284
2026-01-27 01:55:18.50	198.30	55.14	-48.8	-55.9	5.2	7.53e-01	0	44	0	2152726528	69	8064
2026-01-27 01:55:19.49	198.31	54.77	-48.7	-55.8	5.2	7.40e-01	0	44	0	2152726528	69	7958
2026-01-27 01:55:20.49	198.31	54.39	-48.8	-56.0	5.2	7.48e-01	0	44	0	2152726528	69	8116
2026-01-27 01:55:21.48	198.32	54.03	-49.6	-60.1	3.9	8.00e-01	0	44	0	2152726528	69	12998
2026-01-27 01:55:22.47	198.32	53.66	-49.8	-61.3	3.8	8.46e-01	0	44	104	2152726528	70	14132
2026-01-27 01:55:23.47	198.33	53.30	-48.9	-56.3	5.0	8.18e-01	0	44	0	2152726528	69	8441
2026-01-27 01:55:24.46	198.33	52.94	-49.5	-59.4	3.8	8.48e-01	0	44	104	2152726528	69	12090
2026-01-27 01:55:25.46	198.34	52.58	-49.0	-56.9	4.6	8.16e-01	0	44	0	2152726528	69	9067
2026-01-27 01:55:26.45	198.34	52.23	-48.9	-56.3	5.0	7.86e-01	0	44	0	2152726528	69	8382
2026-01-27 01:55:27.45	198.35	51.87	-48.7	-55.6	5.4	7.38e-01	0	44	0	2152726528	69	7763
2026-01-27 01:55:28.44	198.36	51.52	-48.6	-55.3	5.5	6.91e-01	0	44	0	2152726528	69	7543
2026-01-27 01:55:29.44	198.36	51.17	-48.5	-55.4	5.5	7.08e-01	0	44	0	2152726528	69	7580
2026-01-27 01:55:30.43	198.37	50.83	-49.2	-60.5	3.8	7.79e-01	0	44	104	2152726528	69	13670
2026-01-27 01:55:31.42	198.37	50.49	-49.4	-61.8	3.8	8.45e-01	0	44	104	2152726528	69	15806
2026-01-27 01:55:32.42	198.38	50.15	-48.4	-55.6	5.4	7.88e-01	0	44	0	2152726528	68	8208
2026-01-27 01:55:33.41	198.38	49.81	-49.0	-59.4	3.8	8.45e-01	0	44	104	2152726528	68	12773
2026-01-27 01:55:34.41	198.39	49.47	-48.5	-56.1	5.1	7.66e-01	0	44	0	2152726528	68	8681
2026-01-27 01:55:35.41	198.39	49.14	-48.6	-56.2	5.0	7.92e-01	0	44	0	2152726528	68	8841
2026-01-27 01:55:36.40	198.40	48.81	-48.6	-56.2	5.0	7.77e-01	0	44	0	2152726528	68	8860
2026-01-27 01:55:37.40	198.40	48.48	-48.6	-56.2	5.1	7.56e-01	0	44	0	2152726528	68	8765
2026-01-27 01:55:38.39	198.41	48.16	-48.8	-56.6	4.8	8.06e-01	0	44	0	2152726528	68	9219
2026-01-27 01:55:39.38	198.41	47.84	-49.4	-60.0	3.8	7.80e-01	0	44	104	2152726528	69	12939
2026-01-27 01:55:40.38	198.41	47.51	-49.4	-59.1	4.0	7.79e-01	0	44	0	2152726528	69	11661
2026-01-27 01:55:41.38	198.42	47.19	-49.7	-61.2	3.8	8.46e-01	0	44	104	2152726528	70	13991
2026-01-27 01:55:42.37	198.42	46.88	-41.3	-43.5	16.9	0.00e+00	0	44	0	2154823680	54	4576
2026-01-27 01:55:43.37	198.43	46.57	-40.1	-42.2	18.1	0.00e+00	0	44	0	2160066560	52	4416
2026-01-27 01:55:44.36	198.43	46.26	-37.1	-38.9	20.9	0.00e+00	0	44	0	2165309440	46	4290
2026-01-27 01:55:45.36	198.44	45.95	-35.4	-37.1	22.2	0.00e+00	0	44	0	2171600896	42	4387
2026-01-27 01:55:46.35	198.44	45.64	-34.5	-36.3	22.9	0.00e+00	0	44	0	2176843776	41	4199
2026-01-27 01:55:47.35	198.45	45.34	-34.4	-36.2	23.0	0.00e+00	0	44	0	2182086656	40	4400
2026-01-27 01:55:48.34	198.45	45.04	-34.4	-36.1	23.0	0.00e+00	0	44	0	2187329536	40	4373
2026-01-27 01:55:49.34	198.46	44.73	-34.3	-36.0	23.1	0.00e+00	0	44	0	2193620992	40	4317
2026-01-27 01:55:50.33	198.46	44.44	-34.2	-35.9	23.2	0.00e+00	0	44	0	2198863872	40	4261
2026-01-27 01:55:51.33	198.47	44.14	-34.3	-36.0	23.0	0.00e+00	0	44	0	2205155328	40	4310
2026-01-27 01:55:52.32	198.47	43.85	-34.2	-35.9	23.1	0.00e+00	0	44	0	2210398208	40	4259
2026-01-27 01:55:53.32	198.47	43.56	-34.3	-36.0	23.0	0.00e+00	0	44	0	2215641088	40	4320
2026-01-27 01:55:54.31	198.48	43.27	-34.4	-36.2	22.9	0.00e+00	0	44	0	2221932544	40	4396
2026-01-27 01:55:55.31	198.48	42.98	-34.6	-36.3	22.7	0.00e+00	0	44	0	2227175424	40	4481
2026-01-27 01:55:56.30	198.49	42.70	-34.6	-36.4	22.7	0.00e+00	0	44	0	2232418304	40	4495
2026-01-27 01:55:57.38	198.49	42.40	-34.6	-36.3	22.7	0.00e+00	0	44	0	2238709760	40	4492
2026-01-27 01:55:58.23	198.50	42.16	-34.5	-36.2	22.8	0.00e+00	0	44	0	2243952640	40	4413
2026-01-27 01:55:59.37	198.50	41.84	-34.4	-36.1	22.9	0.00e+00	0	44	0	2250244096	40	4341
2026-01-27 01:56:00.22	198.50	41.60	-34.1	-35.8	23.2	0.00e+00	0	44	0	2254438400	40	4204
2026-01-27 01:56:01.36	198.51	41.29	-34.1	-35.8	23.2	0.00e+00	0	44	0	2261778432	40	4212
2026-01-27 01:56:02.21	198.51	41.06	-34.0	-35.7	23.3	0.00e+00	0	44	0	2265972736	39	4414
2026-01-27 01:56:03.34	198.52	40.75	-34.0	-35.7	23.3	0.00e+00	0	44	0	2272264192	39	4405
2026-01-27 01:56:04.20	198.52	40.52	-33.9	-35.6	23.3	0.00e+00	0	44	0	2277507072	39	4367
2026-01-27 01:56:05.34	198.53	40.22	-34.0	-35.7	23.3	0.00e+00	0	44	0	2283798528	39	4403
2026-01-27 01:56:06.19	198.53	39.99	-33.9	-35.6	23.3	0.00e+00	0	44	0	2287992832	39	4353
2026-01-27 01:56:07.40	198.53	39.67	-33.8	-35.5	23.4	0.00e+00	0	44	0	2295332864	39	4313
2026-01-27 01:56:08.26	198.54	39.45	-33.8	-35.5	23.4	0.00e+00	0	44	0	2300575744	39	4328
2026-01-27 01:56:09.39	198.54	39.16	-33.7	-35.4	23.4	0.00e+00	0	44	0	2305818624	39	4252
2026-01-27 01:56:10.25	198.55	38.93	-33.6	-35.3	23.5	0.00e+00	0	44	0	2311061504	39	4227
2026-01-27 01:56:11.51	198.55	38.61	-33.5	-35.1	23.6	0.00e+00	0	44	0	2318401536	38	4389
2026-01-27 01:56:12.30	198.55	38.41	-33.5	-35.2	23.6	0.00e+00	0	44	0	2322595840	38	4409
2026-01-27 01:56:13.48	198.56	38.12	-33.4	-35.0	23.7	0.00e+00	0	44	0	2328887296	38	4337
2026-01-27 01:56:14.33	198.56	37.90	-33.4	-35.0	23.8	0.00e+00	0	44	0	2334130176	38	4333
2026-01-27 01:56:15.47	198.57	37.62	-33.4	-35.0	23.8	0.00e+00	0	44	0	2340421632	38	4325
2026-01-27 01:56:16.33	198.57	37.41	-33.5	-35.2	23.6	0.00e+00	0	44	0	2345664512	38	4404
2026-01-27 01:56:17.68	198.58	37.08	-33.7	-35.4	23.5	0.00e+00	0	44	0	2353004544	38	4496
2026-01-27 01:56:18.39	198.58	36.91	-33.8	-35.5	23.3	0.00e+00	0	44	0	2357198848	38	4593
2026-01-27 01:56:19.68	198.58	36.60	-34.1	-35.8	23.2	0.00e+00	0	44	0	2364538880	38	4731
2026-01-27 01:56:20.40	198.59	36.43	-34.1	-35.9	23.1	0.00e+00	0	44	0	2368733184	38	4768
2026-01-27 01:56:21.68	198.59	36.13	-34.2	-35.9	23.0	0.00e+00	0	44	0	2375024640	39	4539
2026-01-27 01:56:22.39	198.60	35.96	-34.1	-35.9	23.0	0.00e+00	0	44	0	2379218944	39	4514
2026-01-27 01:56:23.67	198.60	35.66	-34.0	-35.8	23.1	0.00e+00	0	44	0	2386558976	39	4453
2026-01-27 01:56:24.48	198.60	35.47	-34.0	-35.7	23.2	0.00e+00	0	44	0	2390753280	39	4409
2026-01-27 01:56:25.62	198.61	35.21	-34.0	-35.7	23.2	0.00e+00	0	44	0	2398093312	39	4408
2026-01-27 01:56:26.47	198.61	35.02	-33.8	-35.5	23.3	0.00e+00	0	44	0	2402287616	39	4325
2026-01-27 01:56:27.61	198.62	34.76	-33.8	-35.5	23.3	0.00e+00	0	44	0	2408579072	39	4336
2026-01-27 01:56:28.46	198.62	34.57	-33.8	-35.5	23.3	0.00e+00	0	44	0	2413821952	39	4326
2026-01-27 01:56:29.60	198.62	34.32	-33.7	-35.4	23.4	0.00e+00	0	44	0	2420113408	39	4268
2026-01-27 01:56:30.45	198.63	34.13	-33.8	-35.5	23.4	0.00e+00	0	44	0	2425356288	39	4296
2026-01-27 01:56:31.59	198.63	33.88	-33.8	-35.5	23.3	0.00e+00	0	44	0	2431647744	39	4325
2026-01-27 01:56:32.44	198.63	33.69	-33.9	-35.6	23.3	0.00e+00	0	44	0	2435842048	39	4351
2026-01-27 01:56:33.58	198.64	33.44	-34.0	-35.7	23.2	0.00e+00	0	44	0	2442133504	39	4412
2026-01-27 01:56:34.58	198.64	33.23	-34.1	-35.8	23.1	0.00e+00	0	44	0	2448424960	39	4464
2026-01-27 01:56:35.73	198.65	32.98	-34.2	-35.9	23.0	0.00e+00	0	44	0	2454716416	39	4532
2026-01-27 01:56:36.60	198.65	32.80	-34.3	-36.0	23.0	0.00e+00	0	44	0	2459959296	39	4566
2026-01-27 01:56:37.91	198.66	32.52	-34.4	-36.2	22.9	0.00e+00	0	44	0	2467299328	39	4655
2026-01-27 01:56:38.62	198.66	32.37	-34.5	-36.2	22.8	0.00e+00	0	44	0	2470445056	39	4671
2026-01-27 01:56:39.90	198.66	32.11	-34.6	-36.4	22.7	0.00e+00	0	44	0	2477785088	39	4767
2026-01-27 01:56:40.61	198.67	31.96	-34.6	-36.4	22.6	0.00e+00	0	44	0	2481979392	39	4782
2026-01-27 01:56:41.89	198.67	31.70	-34.6	-36.4	22.6	0.00e+00	0	44	0	2489319424	40	4520
2026-01-27 01:56:42.62	198.67	31.55	-34.7	-36.5	22.5	0.00e+00	0	44	0	2493513728	40	4580
2026-01-27 01:56:43.89	198.68	31.29	-34.7	-36.5	22.5	0.00e+00	0	44	0	2500853760	40	4578
2026-01-27 01:56:44.61	198.68	31.15	-34.8	-36.5	22.5	0.00e+00	0	44	0	2505048064	40	4592
2026-01-27 01:56:45.89	198.69	30.89	-34.8	-36.5	22.5	0.00e+00	0	44	0	2511339520	40	4594
2026-01-27 01:56:46.61	198.69	30.75	-34.8	-36.6	22.5	0.00e+00	0	44	0	2515533824	40	4602
2026-01-27 01:56:47.89	198.69	30.50	-34.8	-36.6	22.4	0.00e+00	0	44	0	2522873856	40	4623
2026-01-27 01:56:48.60	198.70	30.36	-34.7	-36.5	22.5	0.00e+00	0	44	0	2527068160	40	4553
2026-01-27 01:56:49.88	198.70	30.11	-34.7	-36.4	22.5	0.00e+00	0	44	0	2534408192	40	4545
2026-01-27 01:56:50.59	198.70	29.98	-34.7	-36.4	22.6	0.00e+00	0	44	0	2538602496	40	4541
2026-01-27 01:56:51.88	198.71	29.73	-34.6	-36.4	22.6	0.00e+00	0	44	0	2544893952	40	4527
2026-01-27 01:56:52.59	198.71	29.60	-34.6	-36.4	22.6	0.00e+00	0	44	0	2549088256	40	4522
2026-01-27 01:56:54.13	198.72	29.30	-34.6	-36.4	22.6	0.00e+00	0	44	0	2557476864	40	4498
2026-01-27 01:56:54.84	198.72	29.17	-34.5	-36.2	22.7	0.00e+00	0	44	0	2561671168	40	4441
2026-01-27 01:56:56.12	198.72	28.93	-34.4	-36.2	22.8	0.00e+00	0	44	0	2569011200	40	4399
2026-01-27 01:56:57.18	198.73	28.74	-34.3	-36.1	22.8	0.00e+00	0	44	0	2575302656	40	4354
2026-01-27 01:56:58.04	198.73	28.58	-34.3	-36.0	23.0	0.00e+00	0	44	0	2579496960	40	4315
2026-01-27 01:56:59.17	198.73	28.37	-34.3	-36.0	23.0	0.00e+00	0	44	0	2586836992	40	4310
2026-01-27 01:57:00.02	198.74	28.22	-34.1	-35.8	23.1	0.00e+00	0	44	0	2591031296	40	4231
2026-01-27 01:57:01.16	198.74	28.02	-34.0	-35.7	23.2	0.00e+00	0	44	0	2597322752	40	4164
2026-01-27 01:57:02.01	198.74	27.86	-34.0	-35.7	23.2	0.00e+00	0	44	0	2602565632	39	4426
2026-01-27 01:57:03.15	198.75	27.66	-34.0	-35.7	23.2	0.00e+00	0	44	0	2608857088	39	4435
2026-01-27 01:57:04.00	198.75	27.51	-34.0	-35.7	23.3	0.00e+00	0	44	0	2614099968	39	4416
2026-01-27 01:57:05.14	198.76	27.31	-33.9	-35.6	23.3	0.00e+00	0	44	0	2619342848	39	4385
2026-01-27 01:57:05.99	198.76	27.16	-33.9	-35.6	23.3	0.00e+00	0	44	0	2624585728	39	4382
2026-01-27 01:57:07.13	198.76	26.97	-34.0	-35.7	23.3	0.00e+00	0	44	0	2630877184	39	4415
2026-01-27 01:57:08.09	198.77	26.80	-34.1	-35.8	23.2	0.00e+00	0	44	0	2636120064	39	4485
2026-01-27 01:57:09.27	198.77	26.60	-34.1	-35.8	23.1	0.00e+00	0	44	0	2643460096	39	4491
2026-01-27 01:57:10.13	198.77	26.45	-34.1	-35.8	23.2	0.00e+00	0	44	0	2647654400	39	4459
2026-01-27 01:57:11.27	198.78	26.26	-34.2	-35.9	23.1	0.00e+00	0	44	0	2653945856	39	4503
2026-01-27 01:57:12.29	198.78	26.09	-34.2	-36.0	23.0	0.00e+00	0	44	0	2660237312	39	4549
2026-01-27 01:57:13.46	198.79	25.90	-34.3	-36.1	23.0	0.00e+00	0	44	0	2666528768	39	4606
2026-01-27 01:57:14.34	198.79	25.75	-34.3	-36.1	22.9	0.00e+00	0	44	0	2671771648	39	4608
2026-01-27 01:57:15.48	198.79	25.56	-34.5	-36.2	22.8	0.00e+00	0	44	0	2678063104	39	4703
2026-01-27 01:57:16.33	198.80	25.42	-34.4	-36.2	22.8	0.00e+00	0	44	0	2683305984	39	4671
2026-01-27 01:57:17.47	198.80	25.24	-34.5	-36.2	22.8	0.00e+00	0	44	0	2689597440	39	4682
2026-01-27 01:57:18.32	198.80	25.10	-34.6	-36.3	22.6	0.00e+00	0	44	0	2693791744	39	4759
2026-01-27 01:57:19.46	198.81	24.92	-34.5	-36.3	22.7	0.00e+00	0	44	0	2700083200	39	4724
2026-01-27 01:57:20.31	198.81	24.78	-34.6	-36.4	22.6	0.00e+00	0	44	0	2705326080	39	4762
2026-01-27 01:57:21.45	198.81	24.60	-34.6	-36.4	22.6	0.00e+00	0	44	0	2711617536	39	4760
2026-01-27 01:57:22.31	198.82	24.47	-34.6	-36.4	22.6	0.00e+00	0	44	0	2716860416	39	4792
2026-01-27 01:57:23.44	198.82	24.29	-34.6	-36.3	22.6	0.00e+00	0	44	0	2723151872	40	4474
2026-01-27 01:57:24.30	198.82	24.16	-34.6	-36.4	22.6	0.00e+00	0	44	0	2727346176	40	4499
2026-01-27 01:57:25.44	198.83	23.98	-34.7	-36.4	22.6	0.00e+00	0	44	0	2733637632	40	4535
2026-01-27 01:57:26.29	198.83	23.85	-34.7	-36.5	22.5	0.00e+00	0	44	0	2738880512	40	4558
2026-01-27 01:57:27.42	198.83	23.68	-34.8	-36.6	22.4	0.00e+00	0	44	0	2745171968	40	4611
2026-01-27 01:57:28.28	198.84	23.55	-34.7	-36.5	22.5	0.00e+00	0	44	0	2750414848	40	4555
2026-01-27 01:57:29.41	198.84	23.38	-34.8	-36.6	22.4	0.00e+00	0	44	0	2756706304	40	4614
2026-01-27 01:57:30.28	198.84	23.25	-34.9	-36.7	22.3	0.00e+00	0	44	0	2760900608	40	4672
2026-01-27 01:57:31.61	198.85	23.05	-35.0	-36.8	22.2	0.00e+00	0	44	0	2769289216	40	4712
2026-01-27 01:57:32.32	198.85	22.94	-35.2	-36.9	22.1	0.00e+00	0	44	0	2772434944	41	4545
2026-01-27 01:57:33.60	198.86	22.75	-34.9	-36.7	22.3	0.00e+00	0	44	0	2779774976	41	4411
2026-01-27 01:57:34.31	198.86	22.65	-34.9	-36.7	22.3	0.00e+00	0	44	0	2783969280	41	4410
2026-01-27 01:57:35.59	198.86	22.46	-35.0	-36.7	22.3	0.00e+00	0	44	0	2791309312	41	4433
2026-01-27 01:57:36.30	198.86	22.36	-35.0	-36.8	22.2	0.00e+00	0	44	0	2795503616	41	4453
2026-01-27 01:57:37.58	198.87	22.18	-35.1	-36.9	22.2	0.00e+00	0	44	0	2802843648	41	4499
2026-01-27 01:57:38.30	198.87	22.07	-35.1	-36.9	22.1	0.00e+00	0	44	0	2807037952	41	4507
2026-01-27 01:57:39.58	198.88	21.89	-35.2	-37.0	22.0	0.00e+00	0	44	0	2813329408	41	4581
2026-01-27 01:57:40.29	198.88	21.79	-35.2	-37.0	22.1	0.00e+00	0	44	0	2817523712	41	4548
2026-01-27 01:57:41.57	198.88	21.61	-35.3	-37.1	22.0	0.00e+00	0	44	0	2824863744	41	4623
2026-01-27 01:57:42.28	198.89	21.51	-35.4	-37.1	21.9	0.00e+00	0	44	0	2829058048	41	4646
2026-01-27 01:57:43.56	198.89	21.33	-35.4	-37.1	22.0	0.00e+00	0	44	0	2836398080	41	4641
2026-01-27 01:57:44.29	198.89	21.23	-35.4	-37.2	21.9	0.00e+00	0	44	0	2839543808	41	4678
2026-01-27 01:57:45.65	198.90	21.04	-35.6	-37.4	21.8	0.00e+00	0	44	0	2847932416	41	4762
2026-01-27 01:57:46.36	198.90	20.95	-35.5	-37.3	21.8	0.00e+00	0	44	0	2852126720	41	4750
2026-01-27 01:57:47.63	198.90	20.77	-35.5	-37.3	21.8	0.00e+00	0	44	0	2858418176	41	4738
2026-01-27 01:57:48.36	198.91	20.67	-35.6	-37.4	21.8	0.00e+00	0	44	0	2862612480	41	4767
2026-01-27 01:57:49.64	198.91	20.50	-35.6	-37.4	21.7	0.00e+00	0	44	0	2869952512	41	4813
2026-01-27 01:57:50.36	198.91	20.40	-35.6	-37.5	21.7	0.00e+00	0	44	0	2874146816	41	4816
2026-01-27 01:57:51.64	198.92	20.23	-35.8	-37.6	21.6	0.00e+00	0	44	0	2881486848	42	4641
2026-01-27 01:57:52.38	198.92	20.13	-35.8	-37.6	21.5	0.00e+00	0	44	0	2885681152	42	4641
2026-01-27 01:57:53.66	198.92	19.97	-35.9	-37.7	21.5	0.00e+00	0	44	0	2893021184	42	4683
2026-01-27 01:57:54.39	198.93	19.87	-35.8	-37.7	21.5	0.00e+00	0	44	0	2897215488	42	4653
2026-01-27 01:57:55.66	198.93	19.70	-35.9	-37.7	21.4	0.00e+00	0	44	0	2904555520	42	4689
2026-01-27 01:57:56.51	198.93	19.59	-35.8	-37.6	21.5	0.00e+00	0	44	0	2908749824	42	4642
2026-01-27 01:57:57.65	198.94	19.45	-35.9	-37.7	21.5	0.00e+00	0	44	0	2915041280	42	4687
2026-01-27 01:57:58.50	198.94	19.34	-35.9	-37.7	21.4	0.00e+00	0	44	0	2920284160	42	4696
2026-01-27 01:57:59.64	198.94	19.19	-35.9	-37.7	21.5	0.00e+00	0	44	0	2926575616	42	4685
2026-01-27 01:58:00.50	198.95	19.08	-36.0	-37.8	21.4	0.00e+00	0	44	0	2931818496	42	4739
2026-01-27 01:58:01.63	198.95	18.94	-36.0	-37.9	21.3	0.00e+00	0	44	0	2938109952	42	4772
2026-01-27 01:58:02.78	198.95	18.79	-36.1	-37.9	21.3	0.00e+00	0	44	0	2944401408	42	4779
2026-01-27 01:58:03.81	198.96	18.67	-36.0	-37.9	21.3	0.00e+00	0	44	0	2949644288	42	4771
2026-01-27 01:58:04.81	198.96	18.54	-36.2	-38.0	21.2	0.00e+00	0	44	0	2955935744	43	4582
2026-01-27 01:58:05.80	198.96	18.42	-36.2	-38.0	21.2	0.00e+00	0	44	0	2961178624	43	4580
2026-01-27 01:58:06.80	198.97	18.29	-36.2	-38.0	21.2	0.00e+00	0	44	0	2966421504	43	4582
2026-01-27 01:58:07.79	198.97	18.17	-36.2	-38.0	21.2	0.00e+00	0	44	0	2972712960	43	4589
2026-01-27 01:58:08.78	198.97	18.05	-36.2	-38.0	21.1	0.00e+00	0	44	0	2977955840	43	4598
2026-01-27 01:58:09.78	198.98	17.93	-36.3	-38.1	21.1	0.00e+00	0	44	0	2983198720	43	4625
2026-01-27 01:58:10.77	198.98	17.81	-36.3	-38.2	21.1	0.00e+00	0	44	0	2989490176	43	4663
2026-01-27 01:58:11.77	198.98	17.69	-36.3	-38.1	21.1	0.00e+00	0	44	0	2994733056	43	4646
2026-01-27 01:58:12.76	198.99	17.57	-36.4	-38.3	21.0	0.00e+00	0	44	0	2999975936	43	4730
2026-01-27 01:58:13.83	198.99	17.45	-36.5	-38.4	20.9	0.00e+00	0	44	0	3006267392	43	4769
2026-01-27 01:58:14.72	198.99	17.34	-36.5	-38.4	20.9	0.00e+00	0	44	0	3011510272	43	4771
2026-01-27 01:58:15.86	199.00	17.21	-36.5	-38.3	20.9	0.00e+00	0	44	0	3017801728	43	4759
2026-01-27 01:58:16.71	199.00	17.11	-36.5	-38.3	20.9	0.00e+00	0	44	0	3023044608	43	4756
2026-01-27 01:58:17.84	199.00	16.97	-36.5	-38.3	20.9	0.00e+00	0	44	0	3029336064	43	4747
2026-01-27 01:58:18.70	199.01	16.87	-36.6	-38.5	20.8	0.00e+00	0	44	0	3033530368	43	4816
2026-01-27 01:58:19.83	199.01	16.74	-36.6	-38.5	20.8	0.00e+00	0	44	0	3039821824	43	4820
2026-01-27 01:58:20.69	199.01	16.64	-36.6	-38.5	20.8	0.00e+00	0	44	0	3045064704	43	4816
2026-01-27 01:58:21.82	199.02	16.51	-36.8	-38.7	20.7	0.00e+00	0	44	0	3051356160	44	4686
2026-01-27 01:58:22.67	199.02	16.42	-36.8	-38.7	20.7	0.00e+00	0	44	0	3055550464	44	4674
2026-01-27 01:58:23.81	199.02	16.29	-36.9	-38.8	20.7	0.00e+00	0	44	0	3062890496	44	4727
2026-01-27 01:58:24.66	199.03	16.19	-36.9	-38.8	20.7	0.00e+00	0	44	0	3067084800	44	4715
2026-01-27 01:58:25.91	199.03	16.05	-36.8	-38.7	20.7	0.00e+00	0	44	0	3074424832	44	4682
2026-01-27 01:58:26.76	199.03	15.96	-36.9	-38.8	20.7	0.00e+00	0	44	0	3078619136	44	4708
2026-01-27 01:58:27.90	199.04	15.83	-36.9	-38.8	20.7	0.00e+00	0	44	0	3085959168	44	4732
2026-01-27 01:58:28.75	199.04	15.73	-37.0	-38.8	20.6	0.00e+00	0	44	0	3090153472	44	4758
2026-01-27 01:58:29.98	199.04	15.60	-37.0	-38.9	20.6	0.00e+00	0	44	0	3097493504	44	4763
2026-01-27 01:58:30.84	199.05	15.50	-37.1	-39.0	20.4	0.00e+00	0	44	0	3101687808	44	4870
2026-01-27 01:58:32.07	199.05	15.37	-37.1	-38.9	20.5	0.00e+00	0	44	0	3109027840	44	4812
2026-01-27 01:58:32.92	199.05	15.28	-37.1	-39.0	20.5	0.00e+00	0	44	0	3113222144	44	4831
2026-01-27 01:58:34.06	199.06	15.15	-37.0	-38.9	20.6	0.00e+00	0	44	0	3120562176	44	4769
2026-01-27 01:58:34.91	199.06	15.06	-37.1	-39.0	20.5	0.00e+00	0	44	0	3124756480	44	4829
2026-01-27 01:58:36.05	199.06	14.94	-37.1	-39.0	20.4	0.00e+00	0	44	0	3131047936	45	4582
2026-01-27 01:58:36.91	199.07	14.85	-37.1	-39.0	20.5	0.00e+00	0	44	0	3136290816	45	4567
2026-01-27 01:58:38.05	199.07	14.73	-37.1	-38.9	20.5	0.00e+00	0	44	0	3142582272	45	4539
2026-01-27 01:58:38.90	199.07	14.64	-37.1	-38.9	20.5	0.00e+00	0	44	0	3147825152	45	4541
2026-01-27 01:58:40.04	199.08	14.52	-37.1	-39.0	20.5	0.00e+00	0	44	0	3154116608	45	4560
2026-01-27 01:58:40.89	199.08	14.43	-37.1	-38.9	20.5	0.00e+00	0	44	0	3158310912	45	4538
2026-01-27 01:58:42.03	199.08	14.31	-37.1	-39.0	20.5	0.00e+00	0	44	0	3164602368	45	4569
2026-01-27 01:58:42.88	199.08	14.22	-37.2	-39.0	20.4	0.00e+00	0	44	0	3169845248	45	4593
2026-01-27 01:58:44.02	199.09	14.10	-37.1	-39.0	20.4	0.00e+00	0	44	0	3176136704	45	4589
2026-01-27 01:58:44.87	199.09	14.01	-37.1	-39.0	20.4	0.00e+00	0	44	0	3181379584	45	4588
2026-01-27 01:58:46.00	199.09	13.90	-37.2	-39.0	20.4	0.00e+00	0	44	0	3187671040	45	4596
2026-01-27 01:58:46.86	199.10	13.81	-37.2	-39.1	20.4	0.00e+00	0	44	0	3191865344	45	4630
2026-01-27 01:58:48.07	199.10	13.69	-37.2	-39.1	20.3	0.00e+00	0	44	0	3199205376	45	4636
2026-01-27 01:58:48.93	199.10	13.60	-37.3	-39.2	20.3	0.00e+00	0	44	0	3203399680	45	4698
2026-01-27 01:58:50.06	199.11	13.48	-37.4	-39.3	20.2	0.00e+00	0	44	0	3209691136	45	4725
2026-01-27 01:58:50.91	199.11	13.40	-37.3	-39.2	20.3	0.00e+00	0	44	0	3214934016	45	4676
2026-01-27 01:58:52.05	199.11	13.28	-37.2	-39.1	20.3	0.00e+00	0	44	0	3221225472	45	4650
2026-01-27 01:58:52.91	199.12	13.20	-37.3	-39.2	20.3	0.00e+00	0	44	0	3226468352	45	4682
2026-01-27 01:58:54.05	199.12	13.08	-37.3	-39.2	20.3	0.00e+00	0	44	0	3232759808	45	4682
2026-01-27 01:58:54.90	199.12	13.00	-37.3	-39.2	20.2	0.00e+00	0	44	0	3236954112	45	4690
2026-01-27 01:58:56.03	199.13	12.89	-37.4	-39.3	20.2	0.00e+00	0	44	0	3243245568	45	4732
2026-01-27 01:58:56.89	199.13	12.80	-37.4	-39.3	20.1	0.00e+00	0	44	0	3248488448	45	4741
2026-01-27 01:58:58.02	199.13	12.69	-37.3	-39.2	20.2	0.00e+00	0	44	0	3254779904	45	4702
2026-01-27 01:58:58.88	199.14	12.61	-37.3	-39.2	20.3	0.00e+00	0	44	0	3260022784	45	4683
2026-01-27 01:59:00.01	199.14	12.50	-37.4	-39.3	20.2	0.00e+00	0	44	0	3266314240	45	4716
2026-01-27 01:59:00.86	199.14	12.42	-37.3	-39.2	20.2	0.00e+00	0	44	0	3270508544	45	4704
2026-01-27 01:59:02.00	199.15	12.31	-37.4	-39.4	20.1	0.00e+00	0	44	0	3277848576	45	4768
2026-01-27 01:59:02.86	199.15	12.23	-37.4	-39.4	20.1	0.00e+00	0	44	0	3282042880	45	4766
2026-01-27 01:59:04.00	199.15	12.12	-37.4	-39.4	20.1	0.00e+00	0	44	0	3288334336	45	4772
2026-01-27 01:59:04.85	199.15	12.04	-37.4	-39.4	20.1	0.00e+00	0	44	0	3293577216	45	4772
2026-01-27 01:59:05.99	199.16	11.93	-37.5	-39.4	20.1	0.00e+00	0	44	0	3299868672	45	4794
2026-01-27 01:59:06.84	199.16	11.85	-37.5	-39.4	20.0	0.00e+00	0	44	0	3305111552	45	4813
2026-01-27 01:59:07.98	199.16	11.74	-37.5	-39.5	20.0	0.00e+00	0	44	0	3310354432	45	4838
2026-01-27 01:59:08.83	199.17	11.66	-37.5	-39.4	20.0	0.00e+00	0	44	0	3315597312	45	4813
2026-01-27 01:59:09.97	199.17	11.55	-37.6	-39.6	19.9	0.00e+00	0	44	0	3321888768	45	4872
2026-01-27 01:59:10.82	199.17	11.47	-37.5	-39.5	20.0	0.00e+00	0	44	0	3327131648	45	4839
2026-01-27 01:59:11.97	199.18	11.37	-37.6	-39.6	19.9	0.00e+00	0	44	0	3333423104	45	4878
2026-01-27 01:59:12.83	199.18	11.29	-37.7	-39.7	19.8	0.00e+00	0	44	0	3337617408	46	4674
2026-01-27 01:59:13.96	199.18	11.18	-37.6	-39.5	19.9	0.00e+00	0	44	0	3344957440	46	4598
2026-01-27 01:59:14.82	199.19	11.11	-37.7	-39.7	19.8	0.00e+00	0	44	0	3349151744	46	4687
2026-01-27 01:59:16.11	199.19	10.99	-37.7	-39.7	19.8	0.00e+00	0	44	0	3356491776	46	4667
