passes_logs/2026/01/27/T1/T1__20260127_072445_SUOMI_NPP_rec.log

#Pass ID: 20260127_072445_SUOMI NPP
#Satellite: SUOMI NPP
#Configuration: NPP
#almurnet v.1.7.20251203
#Start time: 2026-01-27 07:24:47

#Version: 2.0.20230620
#Station: T1
#Location: 37.570604 lon 55.790049 lat
#TLE: 1 37849U 11061A   26026.87508736  .00000176  00000+0  10464-3 0  9991
#TLE: 2 37849  98.7822 328.8221 0002127  43.3055 316.8288 14.19530452738397

#Time	Az	El	Level	Level2	SNR	BER	BlckErr	Temp	State	Recorded	gain1	gain2
2026-01-27 07:24:47.87	74.93	5.08	-50.0	-65.3	3.8	1.49e+00	0	41	0	0	71	21205
2026-01-27 07:24:48.86	74.80	5.13	-50.2	-65.4	3.8	1.49e+00	0	41	104	0	72	20095
2026-01-27 07:24:49.86	74.68	5.17	-50.2	-65.4	3.8	1.49e+00	0	42	104	0	72	20168
2026-01-27 07:24:50.85	74.56	5.21	-50.2	-65.3	3.8	1.49e+00	0	41	104	0	72	20056
2026-01-27 07:24:51.85	74.44	5.26	-50.0	-65.4	3.8	1.49e+00	0	42	104	0	72	20074
2026-01-27 07:24:52.85	74.32	5.30	-50.0	-65.3	3.8	1.49e+00	0	42	104	0	72	20028
2026-01-27 07:24:53.85	74.19	5.34	-50.1	-65.3	3.8	1.49e+00	0	42	104	0	72	20004
2026-01-27 07:24:54.84	74.07	5.38	-50.1	-65.3	3.8	1.49e+00	0	42	104	0	72	20049
2026-01-27 07:24:55.84	73.95	5.43	-50.1	-65.3	3.8	1.49e+00	0	42	104	0	72	19969
2026-01-27 07:24:56.83	73.82	5.47	-50.1	-65.3	3.8	1.49e+00	0	42	104	0	72	19916
2026-01-27 07:24:57.83	73.70	5.51	-50.0	-65.3	3.8	1.49e+00	0	42	104	0	72	19867
2026-01-27 07:24:58.82	73.57	5.55	-50.0	-65.2	3.8	1.49e+00	0	42	104	0	72	19803
2026-01-27 07:24:59.82	73.45	5.60	-49.9	-65.2	3.8	1.49e+00	0	42	104	0	71	21007
2026-01-27 07:25:00.81	73.32	5.64	-49.8	-65.2	3.8	1.49e+00	0	42	104	0	71	20913
2026-01-27 07:25:01.81	73.20	5.68	-49.7	-65.1	3.8	1.49e+00	0	42	104	0	71	20769
2026-01-27 07:25:02.81	73.07	5.72	-49.7	-65.1	3.8	1.49e+00	0	42	104	0	71	20548
2026-01-27 07:25:03.81	72.94	5.77	-49.5	-64.9	3.8	1.49e+00	0	42	104	0	71	20171
2026-01-27 07:25:04.80	72.82	5.81	-49.4	-64.8	3.8	1.49e+00	0	42	104	0	70	21131
2026-01-27 07:25:05.80	72.69	5.85	-49.4	-64.8	3.8	1.49e+00	0	42	104	0	70	21126
2026-01-27 07:25:06.79	72.56	5.89	-49.4	-64.8	3.8	1.49e+00	0	42	104	0	70	21126
2026-01-27 07:25:07.79	72.43	5.93	-49.4	-64.8	3.8	1.49e+00	0	42	104	0	70	21085
2026-01-27 07:25:08.79	72.30	5.98	-49.4	-64.8	3.8	1.49e+00	0	42	104	0	70	21098
2026-01-27 07:25:09.78	72.18	6.02	-49.4	-64.8	3.8	1.49e+00	0	42	104	0	70	21109
2026-01-27 07:25:10.78	72.05	6.06	-49.4	-64.8	3.8	1.49e+00	0	42	104	0	70	21024
2026-01-27 07:25:11.78	71.92	6.10	-49.4	-64.8	3.8	1.49e+00	0	43	104	0	70	21081
2026-01-27 07:25:12.78	71.79	6.14	-49.4	-64.8	3.8	1.49e+00	0	42	104	0	70	21027
2026-01-27 07:25:13.77	71.66	6.18	-49.4	-64.8	3.8	1.49e+00	0	42	104	0	70	21058
2026-01-27 07:25:14.77	71.52	6.23	-49.4	-64.8	3.8	1.49e+00	0	42	104	0	70	21058
2026-01-27 07:25:15.77	71.39	6.27	-49.4	-64.7	3.8	1.49e+00	0	42	104	0	70	21001
2026-01-27 07:25:16.76	71.26	6.31	-49.4	-64.7	3.8	1.49e+00	0	43	104	0	70	20979
2026-01-27 07:25:17.76	71.13	6.35	-49.4	-64.7	3.8	1.49e+00	0	42	104	0	70	20954
2026-01-27 07:25:18.75	71.00	6.39	-49.4	-64.7	3.8	1.49e+00	0	42	104	0	70	20980
2026-01-27 07:25:19.75	70.87	6.43	-49.4	-64.7	3.8	1.49e+00	0	42	104	0	70	20875
2026-01-27 07:25:20.75	70.73	6.47	-49.4	-64.7	3.8	1.49e+00	0	43	104	0	70	20954
2026-01-27 07:25:21.74	70.60	6.51	-49.4	-64.8	3.8	1.49e+00	0	43	104	0	70	21026
2026-01-27 07:25:22.74	70.46	6.56	-49.4	-64.8	3.8	1.49e+00	0	43	104	0	70	21024
2026-01-27 07:25:23.73	70.33	6.60	-49.3	-64.8	3.8	1.49e+00	0	43	104	0	70	21031
2026-01-27 07:25:24.73	70.20	6.64	-49.3	-64.7	3.8	1.49e+00	0	43	104	0	70	20938
2026-01-27 07:25:25.73	70.06	6.68	-49.3	-64.7	3.8	1.49e+00	0	43	104	0	70	20927
2026-01-27 07:25:26.72	69.93	6.72	-49.3	-64.7	3.8	1.49e+00	0	43	104	0	70	20968
2026-01-27 07:25:27.72	69.79	6.76	-49.3	-64.7	3.8	1.49e+00	0	43	104	0	70	20979
2026-01-27 07:25:28.72	69.65	6.80	-49.3	-64.8	3.8	1.49e+00	0	43	104	0	70	21018
2026-01-27 07:25:29.71	69.52	6.84	-49.3	-64.7	3.8	1.49e+00	0	43	104	0	70	20889
2026-01-27 07:25:30.71	69.38	6.88	-49.3	-64.7	3.8	1.49e+00	0	43	104	0	70	20833
2026-01-27 07:25:31.71	69.24	6.92	-49.3	-64.6	3.8	1.49e+00	0	43	104	0	70	20761
2026-01-27 07:25:32.71	69.10	6.96	-49.3	-64.6	3.8	1.49e+00	0	43	104	0	70	20759
2026-01-27 07:25:33.70	68.97	7.00	-49.3	-64.7	3.8	1.49e+00	0	43	104	0	70	20781
2026-01-27 07:25:34.70	68.83	7.04	-49.3	-64.7	3.8	1.49e+00	0	43	104	0	70	20844
2026-01-27 07:25:35.69	68.69	7.08	-49.3	-64.7	3.8	1.49e+00	0	43	104	0	70	20813
2026-01-27 07:25:36.69	68.55	7.12	-49.3	-64.6	3.8	1.49e+00	0	43	104	0	70	20721
2026-01-27 07:25:37.69	68.41	7.16	-49.3	-64.7	3.8	1.49e+00	0	43	104	0	70	20845
2026-01-27 07:25:38.69	68.27	7.20	-49.3	-64.7	3.8	1.49e+00	0	43	104	0	70	20825
2026-01-27 07:25:39.68	68.13	7.24	-49.3	-64.6	3.8	1.49e+00	0	43	104	0	70	20765
2026-01-27 07:25:40.68	67.99	7.28	-49.3	-64.7	3.8	1.49e+00	0	43	104	0	70	20784
2026-01-27 07:25:41.68	67.85	7.31	-49.3	-64.6	3.8	1.49e+00	0	43	104	0	70	20747
2026-01-27 07:25:42.67	67.71	7.35	-49.3	-64.6	3.8	1.49e+00	0	43	104	0	70	20762
2026-01-27 07:25:43.67	67.57	7.39	-49.3	-64.6	3.8	1.49e+00	0	43	104	0	70	20644
2026-01-27 07:25:44.67	67.42	7.43	-49.3	-64.6	3.8	1.49e+00	0	43	104	0	70	20607
2026-01-27 07:25:45.66	67.28	7.47	-49.3	-64.6	3.8	1.49e+00	0	43	104	0	70	20542
2026-01-27 07:25:46.66	67.14	7.51	-49.3	-64.6	3.8	1.49e+00	0	43	104	0	70	20613
2026-01-27 07:25:47.66	66.99	7.55	-49.3	-64.6	3.8	1.49e+00	0	43	104	0	70	20587
2026-01-27 07:25:48.65	66.85	7.58	-49.3	-64.6	3.8	1.49e+00	0	43	104	0	70	20622
2026-01-27 07:25:49.65	66.71	7.62	-49.3	-64.6	3.8	1.49e+00	0	43	104	0	70	20620
2026-01-27 07:25:50.64	66.56	7.66	-49.3	-64.6	3.8	1.49e+00	0	43	104	0	70	20663
2026-01-27 07:25:51.64	66.42	7.70	-49.3	-64.6	3.8	1.49e+00	0	43	104	0	70	20607
2026-01-27 07:25:52.64	66.27	7.74	-49.3	-64.5	3.8	1.49e+00	0	43	104	0	70	20482
2026-01-27 07:25:53.63	66.13	7.77	-49.3	-64.5	3.8	1.49e+00	0	43	104	0	70	20368
2026-01-27 07:25:54.63	65.98	7.81	-49.3	-64.4	3.8	1.49e+00	0	43	104	0	70	20186
2026-01-27 07:25:55.62	65.83	7.85	-49.3	-64.3	3.8	1.49e+00	0	43	104	0	70	19991
2026-01-27 07:25:56.62	65.69	7.89	-49.3	-64.4	3.8	1.49e+00	0	43	104	0	70	20089
2026-01-27 07:25:57.62	65.54	7.92	-49.3	-64.4	3.8	1.49e+00	0	43	104	0	70	20118
2026-01-27 07:25:58.61	65.39	7.96	-49.3	-64.5	3.8	1.49e+00	0	43	104	0	70	20330
2026-01-27 07:25:59.61	65.24	8.00	-49.3	-64.5	3.8	1.49e+00	0	43	104	0	70	20520
2026-01-27 07:26:00.60	65.10	8.04	-49.3	-64.5	3.8	1.49e+00	0	43	104	0	70	20532
2026-01-27 07:26:01.60	64.95	8.07	-49.3	-64.6	3.8	1.49e+00	0	43	104	0	70	20718
2026-01-27 07:26:02.60	64.80	8.11	-49.3	-64.5	3.8	1.49e+00	0	43	104	0	70	20538
2026-01-27 07:26:03.59	64.65	8.15	-49.3	-64.4	3.8	1.49e+00	0	43	104	0	70	20242
2026-01-27 07:26:04.59	64.50	8.18	-49.3	-64.2	3.8	1.49e+00	0	43	104	0	70	19824
2026-01-27 07:26:05.58	64.35	8.22	-49.3	-64.1	3.8	1.49e+00	0	44	104	0	70	19501
2026-01-27 07:26:06.58	64.20	8.25	-49.3	-64.1	3.8	1.49e+00	0	43	104	0	70	19563
2026-01-27 07:26:07.58	64.05	8.29	-49.3	-64.2	3.8	1.49e+00	0	43	104	0	70	19716
2026-01-27 07:26:08.57	63.90	8.33	-49.3	-64.3	3.8	1.49e+00	0	44	104	0	70	19914
2026-01-27 07:26:09.57	63.74	8.36	-49.3	-64.3	3.8	1.49e+00	0	44	104	0	70	19984
2026-01-27 07:26:10.57	63.59	8.40	-49.3	-64.2	3.8	1.49e+00	0	43	104	0	70	19826
2026-01-27 07:26:11.57	63.44	8.43	-49.3	-64.3	3.8	1.49e+00	0	44	104	0	70	19940
2026-01-27 07:26:12.56	63.29	8.47	-49.3	-64.1	3.8	1.49e+00	0	44	104	0	70	19412
2026-01-27 07:26:13.56	63.13	8.50	-49.2	-63.2	3.8	1.49e+00	0	43	104	0	70	17588
2026-01-27 07:26:14.55	62.98	8.54	-49.2	-62.3	3.9	1.49e+00	0	43	104	0	70	15786
2026-01-27 07:26:15.55	62.82	8.57	-49.1	-61.6	4.1	1.45e+00	0	43	0	0	70	14611
2026-01-27 07:26:16.55	62.67	8.61	-49.2	-62.2	3.9	1.45e+00	0	43	104	0	70	15582
2026-01-27 07:26:17.54	62.52	8.64	-49.2	-62.9	3.8	1.49e+00	0	44	104	0	70	16958
2026-01-27 07:26:18.54	62.36	8.68	-49.0	-60.6	4.3	1.46e+00	0	44	0	0	70	13041
2026-01-27 07:26:19.53	62.21	8.71	-48.4	-56.3	7.0	5.88e-01	0	43	0	1048576	68	8911
2026-01-27 07:26:20.53	62.05	8.75	-47.2	-52.8	10.4	1.18e-02	0	44	0	3145728	66	6709
2026-01-27 07:26:21.53	61.89	8.78	-46.1	-50.4	12.8	2.90e-04	0	44	0	5242880	64	5708
2026-01-27 07:26:22.52	61.74	8.81	-45.2	-48.9	14.4	5.30e-06	0	44	0	7340032	62	5395
2026-01-27 07:26:23.52	61.58	8.85	-44.7	-48.2	15.1	0.00e+00	0	43	0	9437184	61	5231
2026-01-27 07:26:24.52	61.42	8.88	-44.9	-48.4	14.9	0.00e+00	0	43	0	10485760	61	5401
2026-01-27 07:26:25.51	61.26	8.91	-45.5	-49.3	14.1	0.00e+00	0	43	0	12582912	61	5979
2026-01-27 07:26:26.51	61.11	8.95	-46.4	-50.9	12.5	1.67e-05	0	44	0	14680064	63	6412
2026-01-27 07:26:27.51	60.95	8.98	-47.4	-53.4	9.9	7.99e-04	0	44	0	16777216	65	7548
2026-01-27 07:26:28.50	60.79	9.01	-48.3	-56.5	6.8	8.14e-02	0	44	0	17825792	67	9648
2026-01-27 07:26:29.50	60.63	9.05	-48.0	-54.7	8.9	5.07e-01	0	44	0	19922944	67	7853
2026-01-27 07:26:30.50	60.47	9.08	-49.2	-60.7	4.0	1.49e+00	0	44	104	19922944	69	13924
2026-01-27 07:26:31.50	60.31	9.11	-48.8	-58.9	5.4	2.43e-01	0	44	0	19922944	68	12023
2026-01-27 07:26:32.51	60.15	9.14	-48.5	-57.2	4.5	1.49e+00	0	44	104	20971520	69	9385
2026-01-27 07:26:33.51	59.99	9.17	-47.8	-54.6	9.1	9.00e-05	0	44	0	20971520	66	8219
2026-01-27 07:26:34.51	59.82	9.21	-48.7	-57.8	4.5	1.25e+00	0	44	104	22020096	69	9955
2026-01-27 07:26:35.51	59.66	9.24	-46.2	-50.7	12.6	2.05e-04	0	44	0	23068672	64	5885
2026-01-27 07:26:36.51	59.50	9.27	-45.3	-49.0	14.3	6.10e-06	0	44	0	25165824	62	5457
2026-01-27 07:26:37.51	59.34	9.30	-45.2	-48.9	14.6	7.00e-07	0	44	0	26214400	62	5349
2026-01-27 07:26:38.51	59.17	9.33	-45.4	-49.1	14.3	7.00e-07	0	43	0	28311552	62	5493
2026-01-27 07:26:39.51	59.01	9.36	-45.5	-49.2	14.2	1.50e-06	0	44	0	30408704	62	5592
2026-01-27 07:26:40.52	58.85	9.39	-45.3	-48.9	14.5	1.50e-06	0	43	0	32505856	62	5388
2026-01-27 07:26:41.52	58.68	9.43	-45.1	-48.6	14.8	0.00e+00	0	44	0	34603008	62	5203
2026-01-27 07:26:42.52	58.52	9.46	-45.0	-48.6	14.8	0.00e+00	0	44	0	35651584	62	5178
2026-01-27 07:26:43.52	58.35	9.49	-45.1	-48.7	14.7	0.00e+00	0	44	0	37748736	62	5223
2026-01-27 07:26:44.52	58.19	9.52	-45.2	-48.8	14.6	7.00e-07	0	44	0	39845888	62	5320
2026-01-27 07:26:45.52	58.02	9.55	-45.3	-49.0	14.4	0.00e+00	0	44	0	41943040	62	5458
2026-01-27 07:26:46.52	57.86	9.58	-45.3	-48.9	14.5	0.00e+00	0	44	0	42991616	62	5389
2026-01-27 07:26:47.52	57.69	9.61	-45.4	-49.2	14.3	1.50e-06	0	44	0	45088768	62	5571
2026-01-27 07:26:48.52	57.52	9.63	-45.2	-48.8	14.6	7.00e-07	0	44	0	47185920	62	5280
2026-01-27 07:26:49.52	57.36	9.66	-45.3	-49.0	14.4	0.00e+00	0	44	0	49283072	62	5403
2026-01-27 07:26:50.52	57.19	9.69	-45.2	-48.8	14.6	0.00e+00	0	44	0	51380224	62	5296
2026-01-27 07:26:51.52	57.02	9.72	-44.9	-48.5	14.9	7.00e-07	0	44	0	52428800	61	5405
2026-01-27 07:26:52.52	56.85	9.75	-44.5	-47.8	15.6	0.00e+00	0	44	0	54525952	61	5037
2026-01-27 07:26:53.53	56.69	9.78	-44.4	-47.6	15.8	0.00e+00	0	44	0	56623104	60	5192
2026-01-27 07:26:54.53	56.52	9.81	-44.2	-47.3	16.1	0.00e+00	0	44	0	58720256	60	4988
2026-01-27 07:26:55.53	56.35	9.83	-44.0	-47.1	16.3	0.00e+00	0	44	0	60817408	60	4871
2026-01-27 07:26:56.53	56.18	9.86	-44.0	-47.1	16.3	0.00e+00	0	44	0	61865984	60	4888
2026-01-27 07:26:57.53	56.01	9.89	-44.0	-47.0	16.4	0.00e+00	0	44	0	63963136	59	5118
2026-01-27 07:26:58.54	55.84	9.92	-44.0	-47.0	16.4	0.00e+00	0	44	0	66060288	59	5118
2026-01-27 07:26:59.54	55.67	9.94	-43.9	-46.9	16.5	0.00e+00	0	44	0	68157440	59	5059
2026-01-27 07:27:00.54	55.50	9.97	-43.9	-46.8	16.5	0.00e+00	0	44	0	70254592	59	5008
2026-01-27 07:27:01.54	55.33	10.00	-43.8	-46.7	16.6	0.00e+00	0	44	0	71303168	59	4941
2026-01-27 07:27:02.54	55.16	10.02	-43.8	-46.8	16.6	0.00e+00	0	44	0	73400320	59	4993
2026-01-27 07:27:03.54	54.99	10.05	-43.8	-46.8	16.6	0.00e+00	0	44	0	75497472	59	4988
2026-01-27 07:27:04.55	54.81	10.08	-43.9	-46.9	16.4	0.00e+00	0	44	0	77594624	59	5051
2026-01-27 07:27:05.55	54.64	10.10	-43.9	-46.8	16.6	0.00e+00	0	44	0	78643200	59	5010
2026-01-27 07:27:06.55	54.47	10.13	-44.0	-47.0	16.4	0.00e+00	0	44	0	80740352	59	5109
2026-01-27 07:27:07.55	54.30	10.15	-43.8	-46.8	16.6	0.00e+00	0	44	0	82837504	59	4985
2026-01-27 07:27:08.56	54.12	10.18	-43.7	-46.7	16.7	0.00e+00	0	44	0	84934656	59	4928
2026-01-27 07:27:09.55	53.95	10.20	-43.8	-46.7	16.7	0.00e+00	0	44	0	87031808	59	4952
2026-01-27 07:27:10.55	53.78	10.23	-43.9	-46.8	16.5	0.00e+00	0	44	0	88080384	59	5016
2026-01-27 07:27:11.56	53.60	10.25	-43.9	-46.9	16.4	0.00e+00	0	44	0	90177536	59	5051
2026-01-27 07:27:12.56	53.43	10.28	-44.2	-47.3	16.1	0.00e+00	0	44	0	92274688	59	5326
2026-01-27 07:27:13.56	53.25	10.30	-44.3	-47.5	15.9	0.00e+00	0	44	0	94371840	59	5413
2026-01-27 07:27:14.56	53.08	10.32	-44.3	-47.5	15.9	0.00e+00	0	44	0	96468992	59	5417
2026-01-27 07:27:15.56	52.90	10.35	-44.5	-47.8	15.6	0.00e+00	0	44	0	97517568	59	5601
2026-01-27 07:27:16.55	52.73	10.37	-44.6	-47.9	15.5	0.00e+00	0	44	0	99614720	59	5671
2026-01-27 07:27:17.56	52.55	10.39	-44.6	-48.0	15.5	0.00e+00	0	44	0	101711872	60	5418
2026-01-27 07:27:18.56	52.38	10.42	-44.7	-48.1	15.4	0.00e+00	0	44	0	103809024	60	5471
2026-01-27 07:27:19.56	52.20	10.44	-44.5	-47.8	15.6	0.00e+00	0	44	0	104857600	60	5326
2026-01-27 07:27:20.57	52.02	10.46	-44.5	-47.7	15.7	0.00e+00	0	44	0	106954752	60	5262
2026-01-27 07:27:21.57	51.85	10.48	-44.4	-47.7	15.7	0.00e+00	0	44	0	109051904	60	5233
2026-01-27 07:27:22.57	51.67	10.51	-44.5	-47.8	15.7	0.00e+00	0	44	0	111149056	60	5283
2026-01-27 07:27:23.57	51.49	10.53	-44.5	-47.8	15.7	0.00e+00	0	44	0	113246208	60	5281
2026-01-27 07:27:24.57	51.32	10.55	-44.6	-47.9	15.6	0.00e+00	0	44	0	115343360	60	5370
2026-01-27 07:27:25.57	51.14	10.57	-44.6	-48.0	15.5	0.00e+00	0	44	0	116391936	60	5407
2026-01-27 07:27:26.57	50.96	10.59	-44.6	-47.9	15.5	0.00e+00	0	44	0	118489088	60	5400
2026-01-27 07:27:27.57	50.78	10.61	-44.7	-48.0	15.5	0.00e+00	0	44	0	120586240	60	5462
2026-01-27 07:27:28.58	50.60	10.63	-44.7	-48.1	15.4	0.00e+00	0	44	0	122683392	60	5500
2026-01-27 07:27:29.58	50.42	10.65	-44.7	-48.1	15.4	0.00e+00	0	44	0	123731968	60	5477
2026-01-27 07:27:30.58	50.25	10.67	-44.8	-48.2	15.3	0.00e+00	0	44	0	125829120	60	5539
2026-01-27 07:27:31.58	50.07	10.69	-44.7	-48.0	15.4	0.00e+00	0	44	0	127926272	60	5450
2026-01-27 07:27:32.58	49.89	10.71	-44.6	-47.9	15.5	0.00e+00	0	44	0	130023424	60	5400
2026-01-27 07:27:33.58	49.71	10.73	-44.6	-47.9	15.5	0.00e+00	0	44	0	132120576	60	5382
2026-01-27 07:27:34.58	49.53	10.75	-44.4	-47.6	15.8	0.00e+00	0	44	0	133169152	60	5217
2026-01-27 07:27:35.58	49.35	10.77	-44.4	-47.6	15.8	0.00e+00	0	44	0	135266304	60	5209
2026-01-27 07:27:36.58	49.17	10.79	-44.3	-47.5	16.0	0.00e+00	0	44	0	137363456	60	5131
2026-01-27 07:27:37.58	48.99	10.80	-44.3	-47.4	16.0	0.00e+00	0	44	0	139460608	60	5085
2026-01-27 07:27:38.58	48.81	10.82	-44.1	-47.3	16.2	0.00e+00	0	44	0	141557760	60	4991
2026-01-27 07:27:39.58	48.63	10.84	-44.1	-47.2	16.2	0.00e+00	0	44	0	142606336	60	4953
2026-01-27 07:27:40.58	48.45	10.86	-44.1	-47.2	16.3	0.00e+00	0	44	0	144703488	60	4938
2026-01-27 07:27:41.59	48.26	10.87	-44.4	-47.6	15.9	0.00e+00	0	44	0	146800640	60	5177
2026-01-27 07:27:42.59	48.08	10.89	-44.5	-47.8	15.7	0.00e+00	0	44	0	148897792	60	5283
2026-01-27 07:27:43.59	47.90	10.91	-44.4	-47.7	15.8	0.00e+00	0	44	0	150994944	60	5251
2026-01-27 07:27:44.60	47.72	10.92	-44.4	-47.7	15.7	0.00e+00	0	44	0	152043520	60	5242
2026-01-27 07:27:45.60	47.53	10.94	-44.1	-47.2	16.2	0.00e+00	0	44	0	154140672	60	4979
2026-01-27 07:27:46.60	47.35	10.95	-44.0	-47.0	16.4	0.00e+00	0	44	0	156237824	59	5120
2026-01-27 07:27:47.60	47.17	10.97	-44.1	-47.1	16.3	0.00e+00	0	44	0	158334976	59	5183
2026-01-27 07:27:48.60	46.99	10.99	-44.1	-47.1	16.3	0.00e+00	0	44	0	159383552	59	5181
2026-01-27 07:27:49.60	46.80	11.00	-44.1	-47.1	16.3	0.00e+00	0	44	0	161480704	59	5188
2026-01-27 07:27:50.60	46.62	11.01	-44.2	-47.3	16.1	0.00e+00	0	44	0	163577856	59	5311
2026-01-27 07:27:51.60	46.44	11.03	-44.2	-47.2	16.1	0.00e+00	0	44	0	165675008	59	5279
2026-01-27 07:27:52.60	46.25	11.04	-44.3	-47.4	16.1	0.00e+00	0	44	0	167772160	59	5342
2026-01-27 07:27:53.60	46.07	11.06	-44.2	-47.3	16.1	0.00e+00	0	44	0	168820736	59	5300
2026-01-27 07:27:54.60	45.89	11.07	-44.2	-47.3	16.2	0.00e+00	0	44	0	170917888	59	5298
2026-01-27 07:27:55.60	45.70	11.08	-44.0	-47.0	16.4	0.00e+00	0	44	0	173015040	59	5128
2026-01-27 07:27:56.60	45.52	11.10	-44.0	-47.0	16.4	0.00e+00	0	44	0	175112192	59	5112
2026-01-27 07:27:57.60	45.33	11.11	-43.9	-46.9	16.5	0.00e+00	0	44	0	177209344	59	5044
2026-01-27 07:27:58.60	45.15	11.12	-44.0	-46.9	16.4	0.00e+00	0	44	0	178257920	59	5099
2026-01-27 07:27:59.60	44.96	11.13	-43.8	-46.8	16.7	0.00e+00	0	44	0	180355072	59	4988
2026-01-27 07:28:00.60	44.78	11.15	-43.6	-46.5	16.9	0.00e+00	0	44	0	182452224	59	4843
2026-01-27 07:28:01.60	44.60	11.16	-43.6	-46.5	16.9	0.00e+00	0	44	0	184549376	59	4840
2026-01-27 07:28:02.61	44.41	11.17	-43.7	-46.6	16.7	0.00e+00	0	44	0	185597952	59	4924
2026-01-27 07:28:03.61	44.22	11.18	-43.9	-46.9	16.5	0.00e+00	0	44	0	187695104	59	5050
2026-01-27 07:28:04.61	44.04	11.19	-44.0	-47.1	16.4	0.00e+00	0	44	0	189792256	59	5174
2026-01-27 07:28:05.61	43.85	11.20	-44.1	-47.2	16.2	0.00e+00	0	44	0	191889408	59	5236
2026-01-27 07:28:06.61	43.67	11.21	-43.9	-46.9	16.5	0.00e+00	0	44	0	193986560	59	5090
2026-01-27 07:28:07.61	43.48	11.22	-43.7	-46.7	16.6	0.00e+00	0	44	0	195035136	59	4945
2026-01-27 07:28:08.61	43.30	11.23	-43.8	-46.7	16.6	0.00e+00	0	44	0	197132288	59	4982
2026-01-27 07:28:09.61	43.11	11.24	-43.7	-46.6	16.8	0.00e+00	0	44	0	199229440	59	4900
2026-01-27 07:28:10.62	42.92	11.25	-43.7	-46.6	16.8	0.00e+00	0	44	0	201326592	59	4907
2026-01-27 07:28:11.62	42.74	11.26	-43.5	-46.4	17.0	0.00e+00	0	44	0	203423744	59	4802
2026-01-27 07:28:12.62	42.55	11.26	-43.5	-46.4	17.0	0.00e+00	0	44	0	204472320	59	4800
2026-01-27 07:28:13.62	42.36	11.27	-43.5	-46.3	17.1	0.00e+00	0	44	0	206569472	58	5000
2026-01-27 07:28:14.62	42.18	11.28	-43.4	-46.2	17.2	0.00e+00	0	44	0	208666624	58	4973
2026-01-27 07:28:15.62	41.99	11.29	-43.4	-46.1	17.3	0.00e+00	0	44	0	210763776	58	4917
2026-01-27 07:28:16.62	41.80	11.30	-43.4	-46.2	17.2	0.00e+00	0	44	0	212860928	58	4929
2026-01-27 07:28:17.62	41.62	11.30	-43.3	-46.1	17.3	0.00e+00	0	44	0	213909504	58	4874
2026-01-27 07:28:18.62	41.43	11.31	-43.3	-46.0	17.4	0.00e+00	0	44	0	216006656	58	4856
2026-01-27 07:28:19.63	41.24	11.31	-43.4	-46.1	17.3	0.00e+00	0	44	0	218103808	58	4907
2026-01-27 07:28:20.63	41.06	11.32	-43.3	-45.9	17.4	0.00e+00	0	44	0	220200960	58	4803
2026-01-27 07:28:21.63	40.87	11.33	-43.2	-45.9	17.5	0.00e+00	0	44	0	222298112	58	4799
2026-01-27 07:28:22.63	40.68	11.33	-43.2	-45.9	17.4	0.00e+00	0	44	0	223346688	58	4787
2026-01-27 07:28:23.63	40.49	11.34	-43.3	-46.0	17.4	0.00e+00	0	44	0	225443840	58	4829
2026-01-27 07:28:24.63	40.31	11.34	-43.3	-46.1	17.2	0.00e+00	0	44	0	227540992	58	4895
2026-01-27 07:28:25.63	40.12	11.35	-43.6	-46.5	16.9	0.00e+00	0	44	0	229638144	58	5104
2026-01-27 07:28:26.64	39.93	11.35	-43.7	-46.6	16.8	0.00e+00	0	44	0	230686720	58	5209
2026-01-27 07:28:27.64	39.74	11.35	-43.8	-46.8	16.6	0.00e+00	0	44	0	232783872	58	5286
2026-01-27 07:28:28.64	39.56	11.36	-43.8	-46.7	16.7	0.00e+00	0	44	0	234881024	58	5258
2026-01-27 07:28:29.64	39.37	11.36	-43.6	-46.6	16.8	0.00e+00	0	44	0	236978176	58	5161
2026-01-27 07:28:30.64	39.18	11.36	-43.6	-46.5	16.9	0.00e+00	0	44	0	239075328	58	5105
2026-01-27 07:28:31.64	38.99	11.37	-43.4	-46.3	17.1	0.00e+00	0	44	0	240123904	58	5026
2026-01-27 07:28:32.65	38.80	11.37	-43.4	-46.3	17.1	0.00e+00	0	44	0	242221056	58	5010
2026-01-27 07:28:33.65	38.62	11.37	-43.4	-46.3	17.1	0.00e+00	0	44	0	244318208	58	4991
2026-01-27 07:28:34.65	38.43	11.37	-43.5	-46.4	17.0	0.00e+00	0	44	0	246415360	58	5048
2026-01-27 07:28:35.65	38.24	11.38	-43.4	-46.3	17.1	0.00e+00	0	44	0	248512512	58	4997
2026-01-27 07:28:36.65	38.05	11.38	-43.5	-46.3	17.0	0.00e+00	0	44	0	249561088	58	5039
2026-01-27 07:28:37.65	37.87	11.38	-43.5	-46.4	17.0	0.00e+00	0	44	0	251658240	58	5061
2026-01-27 07:28:38.65	37.68	11.38	-43.7	-46.6	16.8	0.00e+00	0	44	0	253755392	58	5191
2026-01-27 07:28:39.65	37.49	11.38	-43.6	-46.5	16.8	0.00e+00	0	44	0	255852544	58	5155
2026-01-27 07:28:40.66	37.30	11.38	-43.6	-46.6	16.8	0.00e+00	0	44	0	257949696	58	5167
2026-01-27 07:28:41.66	37.11	11.38	-43.7	-46.7	16.7	0.00e+00	0	44	0	258998272	58	5231
2026-01-27 07:28:42.66	36.93	11.38	-43.6	-46.7	16.7	0.00e+00	0	44	0	261095424	58	5233
2026-01-27 07:28:43.66	36.74	11.38	-43.6	-46.6	16.8	0.00e+00	0	44	0	263192576	58	5198
2026-01-27 07:28:44.66	36.55	11.38	-43.5	-46.4	17.0	0.00e+00	0	44	0	265289728	58	5081
2026-01-27 07:28:45.66	36.36	11.38	-43.4	-46.4	17.0	0.00e+00	0	44	0	266338304	58	5074
2026-01-27 07:28:46.66	36.18	11.37	-43.5	-46.5	16.9	0.00e+00	0	44	0	268435456	58	5105
2026-01-27 07:28:47.66	35.99	11.37	-43.5	-46.5	16.8	0.00e+00	0	44	0	270532608	58	5149
2026-01-27 07:28:48.66	35.80	11.37	-43.5	-46.5	16.9	0.00e+00	0	44	0	272629760	58	5133
2026-01-27 07:28:49.66	35.61	11.37	-43.8	-46.8	16.5	0.00e+00	0	44	0	274726912	58	5337
2026-01-27 07:28:50.67	35.42	11.36	-43.9	-46.9	16.5	0.00e+00	0	44	0	275775488	58	5357
2026-01-27 07:28:51.67	35.24	11.36	-44.0	-47.1	16.3	0.00e+00	0	44	0	277872640	58	5491
2026-01-27 07:28:52.66	35.05	11.36	-44.0	-47.1	16.3	0.00e+00	0	44	0	279969792	58	5501
2026-01-27 07:28:53.67	34.86	11.35	-44.0	-47.0	16.4	0.00e+00	0	44	0	282066944	58	5431
2026-01-27 07:28:54.67	34.67	11.35	-44.0	-47.0	16.4	0.00e+00	0	44	0	284164096	58	5457
2026-01-27 07:28:55.67	34.49	11.34	-43.8	-46.8	16.6	0.00e+00	0	44	0	285212672	58	5324
2026-01-27 07:28:56.67	34.30	11.34	-43.6	-46.4	17.0	0.00e+00	0	44	0	287309824	58	5088
2026-01-27 07:28:57.66	34.12	11.34	-43.4	-46.2	17.1	0.00e+00	0	44	0	289406976	58	4983
2026-01-27 07:28:58.66	33.93	11.33	-43.4	-46.2	17.2	0.00e+00	0	44	0	291504128	58	4940
2026-01-27 07:28:59.66	33.74	11.32	-43.4	-46.2	17.1	0.00e+00	0	44	0	292552704	58	4952
2026-01-27 07:29:00.66	33.55	11.32	-43.4	-46.3	17.1	0.00e+00	0	44	0	294649856	58	5027
2026-01-27 07:29:01.66	33.37	11.31	-43.6	-46.6	16.8	0.00e+00	0	44	0	296747008	58	5164
2026-01-27 07:29:02.66	33.18	11.31	-43.7	-46.8	16.6	0.00e+00	0	44	0	298844160	58	5287
2026-01-27 07:29:03.66	32.99	11.30	-43.7	-46.8	16.5	0.00e+00	0	44	0	300941312	58	5324
2026-01-27 07:29:04.67	32.81	11.29	-43.8	-47.0	16.4	0.00e+00	0	44	0	301989888	58	5450
2026-01-27 07:29:05.67	32.62	11.28	-43.8	-47.0	16.3	0.00e+00	0	44	0	304087040	58	5464
2026-01-27 07:29:06.67	32.43	11.28	-43.8	-47.0	16.4	0.00e+00	0	44	0	306184192	58	5429
2026-01-27 07:29:07.67	32.25	11.27	-43.8	-47.0	16.5	0.00e+00	0	44	0	308281344	58	5409
2026-01-27 07:29:08.68	32.06	11.26	-43.8	-46.9	16.6	0.00e+00	0	44	0	310378496	58	5380
2026-01-27 07:29:09.68	31.87	11.25	-43.9	-47.0	16.5	0.00e+00	0	44	0	311427072	58	5427
2026-01-27 07:29:10.68	31.69	11.24	-44.1	-47.2	16.3	0.00e+00	0	44	0	313524224	58	5550
2026-01-27 07:29:11.68	31.50	11.23	-44.2	-47.3	16.1	0.00e+00	0	44	0	315621376	59	5339
2026-01-27 07:29:12.69	31.31	11.23	-44.3	-47.5	16.0	0.00e+00	0	44	0	317718528	59	5422
2026-01-27 07:29:13.69	31.13	11.22	-44.2	-47.3	16.1	0.00e+00	0	44	0	319815680	59	5326
2026-01-27 07:29:14.69	30.94	11.21	-44.3	-47.3	16.1	0.00e+00	0	44	0	320864256	59	5323
2026-01-27 07:29:15.69	30.76	11.20	-44.2	-47.3	16.2	0.00e+00	0	44	0	322961408	59	5283
2026-01-27 07:29:16.69	30.57	11.19	-44.1	-47.1	16.4	0.00e+00	0	44	0	325058560	59	5160
2026-01-27 07:29:17.70	30.39	11.17	-44.2	-47.2	16.2	0.00e+00	0	44	0	327155712	59	5248
2026-01-27 07:29:18.70	30.20	11.16	-43.9	-46.9	16.6	0.00e+00	0	44	0	329252864	59	5044
2026-01-27 07:29:19.70	30.02	11.15	-43.9	-46.8	16.5	0.00e+00	0	44	0	330301440	59	5030
2026-01-27 07:29:20.70	29.83	11.14	-43.7	-46.6	16.8	0.00e+00	0	44	0	332398592	59	4919
2026-01-27 07:29:21.70	29.65	11.13	-43.7	-46.7	16.7	0.00e+00	0	44	0	334495744	59	4961
2026-01-27 07:29:22.70	29.46	11.12	-43.6	-46.6	16.8	0.00e+00	0	44	0	336592896	59	4897
2026-01-27 07:29:23.70	29.28	11.10	-43.6	-46.5	16.9	0.00e+00	0	44	0	337641472	59	4864
2026-01-27 07:29:24.70	29.10	11.09	-43.8	-46.8	16.6	0.00e+00	0	44	0	339738624	59	5007
2026-01-27 07:29:25.70	28.91	11.08	-43.7	-46.7	16.7	0.00e+00	0	44	0	341835776	59	4978
2026-01-27 07:29:26.70	28.73	11.06	-43.8	-46.8	16.6	0.00e+00	0	44	0	343932928	59	4987
2026-01-27 07:29:27.70	28.55	11.05	-43.7	-46.7	16.7	0.00e+00	0	44	0	346030080	59	4955
2026-01-27 07:29:28.71	28.36	11.04	-43.7	-46.7	16.7	0.00e+00	0	44	0	347078656	59	4953
2026-01-27 07:29:29.71	28.18	11.02	-43.7	-46.6	16.8	0.00e+00	0	44	0	349175808	59	4901
2026-01-27 07:29:30.71	27.99	11.01	-43.7	-46.6	16.8	0.00e+00	0	44	0	351272960	59	4911
2026-01-27 07:29:31.71	27.81	10.99	-43.7	-46.6	16.9	0.00e+00	0	44	0	353370112	59	4874
2026-01-27 07:29:32.71	27.63	10.98	-43.6	-46.5	16.9	0.00e+00	0	44	0	355467264	59	4860
2026-01-27 07:29:33.71	27.45	10.96	-43.7	-46.6	16.8	0.00e+00	0	44	0	356515840	59	4922
2026-01-27 07:29:34.71	27.26	10.95	-43.8	-46.8	16.6	0.00e+00	0	44	0	358612992	59	5013
2026-01-27 07:29:35.71	27.08	10.93	-43.7	-46.7	16.8	0.00e+00	0	44	0	360710144	59	4948
2026-01-27 07:29:36.71	26.90	10.92	-43.5	-46.4	17.0	0.00e+00	0	44	0	362807296	59	4808
2026-01-27 07:29:37.71	26.72	10.90	-43.5	-46.3	17.1	0.00e+00	0	44	0	364904448	58	5029
2026-01-27 07:29:38.71	26.54	10.88	-43.3	-46.2	17.2	0.00e+00	0	44	0	365953024	58	4958
2026-01-27 07:29:39.71	26.36	10.87	-43.5	-46.6	16.9	0.00e+00	0	44	0	368050176	58	5161
2026-01-27 07:29:40.71	26.18	10.85	-43.7	-46.9	16.5	0.00e+00	0	44	0	370147328	58	5374
2026-01-27 07:29:41.71	26.00	10.83	-43.7	-46.9	16.6	0.00e+00	0	44	0	372244480	58	5385
2026-01-27 07:29:42.71	25.82	10.81	-44.0	-47.3	16.2	0.00e+00	0	44	0	373293056	58	5647
2026-01-27 07:29:43.71	25.64	10.80	-44.0	-47.4	16.1	0.00e+00	0	44	0	375390208	58	5679
2026-01-27 07:29:44.72	25.45	10.78	-44.2	-47.7	15.8	0.00e+00	0	44	0	377487360	59	5555
2026-01-27 07:29:45.72	25.27	10.76	-44.1	-47.4	16.0	0.00e+00	0	44	0	379584512	59	5393
2026-01-27 07:29:46.72	25.09	10.74	-44.1	-47.4	16.0	0.00e+00	0	44	0	381681664	59	5386
2026-01-27 07:29:47.72	24.92	10.72	-43.8	-47.0	16.5	0.00e+00	0	44	0	382730240	59	5123
2026-01-27 07:29:48.72	24.74	10.70	-43.8	-46.9	16.6	0.00e+00	0	44	0	384827392	59	5046
2026-01-27 07:29:49.72	24.56	10.68	-43.7	-46.7	16.7	0.00e+00	0	44	0	386924544	59	4933
2026-01-27 07:29:50.72	24.38	10.66	-43.7	-46.7	16.8	0.00e+00	0	44	0	389021696	59	4930
2026-01-27 07:29:51.72	24.20	10.64	-43.7	-46.7	16.7	0.00e+00	0	44	0	391118848	59	4979
2026-01-27 07:29:52.72	24.02	10.62	-43.7	-46.7	16.7	0.00e+00	0	44	0	392167424	59	4953
2026-01-27 07:29:53.72	23.85	10.60	-43.8	-46.8	16.6	0.00e+00	0	44	0	394264576	59	5002
2026-01-27 07:29:54.73	23.67	10.58	-43.7	-46.6	16.8	0.00e+00	0	44	0	396361728	59	4899
2026-01-27 07:29:55.73	23.49	10.56	-43.8	-46.8	16.6	0.00e+00	0	44	0	398458880	59	5004
2026-01-27 07:29:56.73	23.31	10.54	-43.9	-46.9	16.5	0.00e+00	0	44	0	400556032	59	5087
2026-01-27 07:29:57.73	23.13	10.52	-43.8	-46.7	16.6	0.00e+00	0	44	0	401604608	59	4983
2026-01-27 07:29:58.74	22.96	10.50	-43.8	-46.8	16.6	0.00e+00	0	44	0	403701760	59	5004
2026-01-27 07:29:59.73	22.78	10.48	-43.8	-46.9	16.6	0.00e+00	0	44	0	405798912	59	5042
2026-01-27 07:30:00.73	22.61	10.45	-43.6	-46.8	16.7	0.00e+00	0	44	0	407896064	59	4985
2026-01-27 07:30:01.74	22.43	10.43	-43.5	-46.8	16.7	0.00e+00	0	44	0	409993216	59	4991
2026-01-27 07:30:02.74	22.25	10.41	-43.5	-46.9	16.5	0.00e+00	0	44	0	411041792	58	5368
2026-01-27 07:30:03.74	22.08	10.39	-43.4	-46.7	16.6	0.00e+00	0	44	0	413138944	58	5265
2026-01-27 07:30:04.74	21.90	10.36	-43.4	-46.8	16.4	0.00e+00	0	44	0	415236096	58	5295
2026-01-27 07:30:05.74	21.73	10.34	-43.3	-46.8	16.4	0.00e+00	0	44	0	417333248	58	5287
2026-01-27 07:30:06.74	21.55	10.32	-43.4	-46.8	16.4	0.00e+00	0	44	0	418381824	58	5294
2026-01-27 07:30:07.74	21.38	10.29	-43.3	-46.7	16.6	0.00e+00	0	44	0	420478976	58	5249
2026-01-27 07:30:08.74	21.21	10.27	-43.3	-46.8	16.6	0.00e+00	0	44	0	422576128	58	5287
2026-01-27 07:30:09.74	21.03	10.24	-43.3	-46.7	16.6	0.00e+00	0	44	0	424673280	58	5257
2026-01-27 07:30:10.74	20.86	10.22	-43.3	-46.7	16.7	0.00e+00	0	44	0	426770432	58	5242
2026-01-27 07:30:11.74	20.69	10.19	-43.4	-46.9	16.5	0.00e+00	0	44	0	427819008	58	5392
2026-01-27 07:30:12.74	20.52	10.17	-43.2	-46.7	16.7	0.00e+00	0	44	0	429916160	58	5225
2026-01-27 07:30:13.75	20.34	10.14	-43.3	-46.7	16.5	0.00e+00	0	44	0	432013312	58	5249
2026-01-27 07:30:14.74	20.17	10.12	-43.3	-46.7	16.4	0.00e+00	0	44	0	434110464	58	5234
2026-01-27 07:30:15.74	20.00	10.09	-43.2	-46.4	16.3	0.00e+00	0	44	0	436207616	58	5073
2026-01-27 07:30:16.74	19.83	10.07	-43.4	-46.4	16.3	0.00e+00	0	44	0	437256192	58	5100
2026-01-27 07:30:17.75	19.66	10.04	-43.3	-46.4	16.2	0.00e+00	0	44	0	439353344	58	5045
2026-01-27 07:30:18.75	19.49	10.02	-43.4	-46.4	16.1	0.00e+00	0	44	0	441450496	58	5083
2026-01-27 07:30:19.75	19.32	9.99	-43.6	-46.6	15.8	0.00e+00	0	44	0	443547648	58	5174
2026-01-27 07:30:20.75	19.15	9.96	-43.6	-46.7	15.3	0.00e+00	0	44	0	445644800	58	5238
2026-01-27 07:30:21.75	18.98	9.94	-43.6	-46.7	14.9	0.00e+00	0	44	0	446693376	58	5265
2026-01-27 07:30:22.76	18.80	9.91	-43.6	-46.8	14.8	0.00e+00	0	44	0	448790528	58	5286
2026-01-27 07:30:23.76	18.64	9.88	-43.6	-46.7	15.1	7.00e-07	0	44	0	450887680	58	5262
2026-01-27 07:30:24.76	18.47	9.85	-43.6	-46.6	15.9	0.00e+00	0	44	0	452984832	58	5199
2026-01-27 07:30:25.76	18.30	9.83	-43.6	-46.5	16.6	0.00e+00	0	44	0	454033408	58	5143
2026-01-27 07:30:26.76	18.13	9.80	-43.5	-46.4	17.0	0.00e+00	0	44	0	456130560	58	5047
2026-01-27 07:30:27.76	17.96	9.77	-43.5	-46.4	16.8	0.00e+00	0	44	0	458227712	58	5100
2026-01-27 07:30:28.77	17.79	9.74	-43.5	-46.5	16.8	0.00e+00	0	44	0	460324864	58	5146
2026-01-27 07:30:29.77	17.63	9.71	-43.4	-46.5	16.7	0.00e+00	0	44	0	462422016	58	5126
2026-01-27 07:30:30.77	17.46	9.68	-43.3	-46.4	16.7	0.00e+00	0	44	0	463470592	58	5082
2026-01-27 07:30:31.77	17.29	9.65	-43.3	-46.4	16.6	0.00e+00	0	44	0	465567744	58	5100
2026-01-27 07:30:32.78	17.13	9.63	-43.3	-46.6	16.3	0.00e+00	0	44	0	467664896	58	5171
2026-01-27 07:30:33.77	16.96	9.60	-43.3	-46.7	15.9	0.00e+00	0	44	0	469762048	58	5242
2026-01-27 07:30:34.77	16.80	9.57	-43.2	-46.6	15.5	0.00e+00	0	44	0	471859200	58	5202
2026-01-27 07:30:35.78	16.63	9.54	-43.2	-46.7	15.4	0.00e+00	0	44	0	472907776	58	5231
2026-01-27 07:30:36.78	16.47	9.51	-43.2	-46.7	15.6	0.00e+00	0	44	0	475004928	58	5243
2026-01-27 07:30:37.78	16.30	9.48	-43.0	-46.4	16.2	0.00e+00	0	44	0	477102080	58	5088
2026-01-27 07:30:38.78	16.14	9.45	-43.1	-46.5	16.4	0.00e+00	0	44	0	479199232	58	5144
2026-01-27 07:30:39.78	15.97	9.42	-43.1	-46.5	16.7	0.00e+00	0	44	0	481296384	57	5450
2026-01-27 07:30:40.78	15.81	9.39	-42.9	-46.2	17.0	0.00e+00	0	44	0	482344960	57	5239
2026-01-27 07:30:41.79	15.65	9.35	-43.0	-46.3	16.9	0.00e+00	0	44	0	484442112	57	5311
2026-01-27 07:30:42.79	15.48	9.32	-43.2	-46.5	16.7	0.00e+00	0	44	0	486539264	57	5404
2026-01-27 07:30:43.79	15.32	9.29	-43.3	-46.6	16.5	0.00e+00	0	44	0	488636416	57	5465
2026-01-27 07:30:44.79	15.16	9.26	-43.5	-46.7	16.4	0.00e+00	0	44	0	490733568	57	5572
2026-01-27 07:30:45.79	15.00	9.23	-43.6	-46.9	16.2	0.00e+00	0	44	0	491782144	57	5700
2026-01-27 07:30:46.80	14.83	9.20	-43.8	-47.0	16.2	0.00e+00	0	44	0	493879296	58	5452
2026-01-27 07:30:47.80	14.67	9.16	-43.7	-46.9	16.4	0.00e+00	0	44	0	495976448	58	5397
2026-01-27 07:30:48.80	14.51	9.13	-43.9	-47.1	16.2	0.00e+00	0	44	0	498073600	58	5517
2026-01-27 07:30:49.80	14.35	9.10	-43.9	-47.0	16.3	0.00e+00	0	44	0	499122176	58	5461
2026-01-27 07:30:50.80	14.19	9.07	-44.0	-47.1	16.2	0.00e+00	0	44	0	501219328	58	5513
2026-01-27 07:30:51.80	14.03	9.04	-44.1	-47.2	16.0	0.00e+00	0	44	0	503316480	58	5581
2026-01-27 07:30:52.80	13.88	9.00	-44.1	-47.2	16.0	0.00e+00	0	44	0	505413632	58	5588
2026-01-27 07:30:53.80	13.72	8.97	-44.6	-48.0	15.3	0.00e+00	0	44	0	507510784	59	5750
2026-01-27 07:30:54.79	13.56	8.94	-45.4	-49.4	14.1	0.00e+00	0	44	0	508559360	61	6007
2026-01-27 07:30:55.79	13.40	8.90	-46.4	-51.3	12.1	1.83e-05	0	44	0	510656512	63	6712
2026-01-27 07:30:56.79	13.25	8.87	-47.3	-53.6	9.7	5.45e-03	0	44	0	512753664	65	7774
2026-01-27 07:30:57.79	13.09	8.84	-48.2	-56.9	6.5	9.84e-02	0	44	0	514850816	67	10106
2026-01-27 07:30:58.78	12.93	8.80	-49.2	-60.9	4.4	6.45e-01	0	44	0	516947968	68	15199
2026-01-27 07:30:59.78	12.78	8.77	-49.0	-63.4	3.8	1.45e+00	0	44	104	516947968	68	20137
2026-01-27 07:31:00.77	12.62	8.74	-49.1	-64.4	3.8	1.49e+00	0	44	104	516947968	68	22682
2026-01-27 07:31:01.77	12.47	8.70	-49.1	-64.6	3.8	1.49e+00	0	44	104	516947968	68	23294
2026-01-27 07:31:02.77	12.31	8.67	-49.1	-64.7	3.8	1.49e+00	0	44	104	516947968	68	23573
2026-01-27 07:31:03.77	12.16	8.63	-49.1	-64.8	3.8	1.49e+00	0	44	104	516947968	68	23638
2026-01-27 07:31:04.76	12.00	8.60	-49.1	-64.8	3.8	1.49e+00	0	44	104	516947968	68	23820
2026-01-27 07:31:05.76	11.85	8.56	-49.1	-64.8	3.8	1.49e+00	0	44	104	516947968	68	23852
2026-01-27 07:31:06.76	11.70	8.53	-49.1	-64.9	3.8	1.49e+00	0	44	104	516947968	68	23935
2026-01-27 07:31:07.75	11.54	8.49	-49.1	-64.8	3.8	1.49e+00	0	44	104	516947968	68	23806
2026-01-27 07:31:08.75	11.39	8.46	-49.1	-64.8	3.8	1.49e+00	0	44	104	516947968	68	23694
2026-01-27 07:31:09.74	11.24	8.42	-49.1	-64.7	3.8	1.49e+00	0	44	104	516947968	68	23513
2026-01-27 07:31:10.74	11.09	8.39	-49.1	-64.7	3.8	1.49e+00	0	44	104	516947968	68	23446
2026-01-27 07:31:11.74	10.94	8.35	-49.1	-64.7	3.8	1.49e+00	0	44	104	516947968	68	23433
2026-01-27 07:31:12.74	10.78	8.32	-49.1	-64.7	3.8	1.49e+00	0	44	104	516947968	68	23443
2026-01-27 07:31:13.73	10.63	8.28	-49.1	-64.7	3.8	1.49e+00	0	44	104	516947968	68	23488
2026-01-27 07:31:14.73	10.48	8.24	-49.1	-64.8	3.8	1.49e+00	0	44	104	516947968	68	23658
2026-01-27 07:31:15.72	10.33	8.21	-49.1	-64.8	3.8	1.49e+00	0	44	104	516947968	68	23807
2026-01-27 07:31:16.72	10.18	8.17	-49.1	-64.8	3.8	1.49e+00	0	44	104	516947968	68	23699
2026-01-27 07:31:17.71	10.04	8.14	-49.1	-64.8	3.8	1.49e+00	0	44	104	516947968	68	23706
2026-01-27 07:31:18.71	9.89	8.10	-49.1	-64.8	3.8	1.49e+00	0	44	104	516947968	68	23731
2026-01-27 07:31:19.70	9.74	8.06	-49.1	-64.8	3.8	1.49e+00	0	44	104	516947968	68	23754
2026-01-27 07:31:20.70	9.59	8.03	-49.1	-64.8	3.8	1.49e+00	0	44	104	516947968	68	23748
2026-01-27 07:31:21.70	9.44	7.99	-49.1	-64.8	3.8	1.49e+00	0	44	104	516947968	68	23748
2026-01-27 07:31:22.69	9.30	7.95	-49.1	-64.8	3.8	1.49e+00	0	44	104	516947968	68	23679
2026-01-27 07:31:23.69	9.15	7.92	-49.1	-64.8	3.8	1.49e+00	0	44	104	516947968	68	23712
2026-01-27 07:31:24.69	9.00	7.88	-49.1	-64.8	3.8	1.49e+00	0	44	104	516947968	68	23687
2026-01-27 07:31:25.68	8.86	7.84	-49.1	-64.8	3.8	1.49e+00	0	44	104	516947968	68	23784
2026-01-27 07:31:26.68	8.71	7.80	-49.1	-64.8	3.8	1.49e+00	0	44	104	516947968	68	23799
2026-01-27 07:31:27.67	8.57	7.77	-49.1	-64.8	3.8	1.49e+00	0	44	104	516947968	68	23740
2026-01-27 07:31:28.67	8.42	7.73	-49.1	-64.8	3.8	1.49e+00	0	44	104	516947968	68	23795
2026-01-27 07:31:29.67	8.28	7.69	-49.1	-64.8	3.8	1.49e+00	0	44	104	516947968	68	23839
2026-01-27 07:31:30.66	8.13	7.65	-49.1	-64.8	3.8	1.49e+00	0	44	104	516947968	68	23813
2026-01-27 07:31:31.66	7.99	7.61	-49.1	-64.8	3.8	1.49e+00	0	44	104	516947968	68	23836
2026-01-27 07:31:32.66	7.85	7.58	-49.1	-64.9	3.8	1.49e+00	0	44	104	516947968	68	23861
2026-01-27 07:31:33.65	7.70	7.54	-49.1	-64.8	3.8	1.49e+00	0	44	104	516947968	68	23800
2026-01-27 07:31:34.65	7.56	7.50	-49.1	-64.9	3.8	1.49e+00	0	44	104	516947968	68	23895
2026-01-27 07:31:35.64	7.42	7.46	-49.1	-64.8	3.8	1.49e+00	0	44	104	516947968	68	23699
2026-01-27 07:31:36.64	7.28	7.42	-49.1	-64.8	3.8	1.49e+00	0	44	104	516947968	68	23800
2026-01-27 07:31:37.63	7.14	7.38	-49.1	-64.8	3.8	1.49e+00	0	44	104	516947968	68	23642
2026-01-27 07:31:38.63	7.00	7.34	-49.1	-64.8	3.8	1.49e+00	0	44	104	516947968	68	23721
2026-01-27 07:31:39.63	6.85	7.31	-49.1	-64.8	3.8	1.49e+00	0	44	104	516947968	68	23699
2026-01-27 07:31:40.62	6.72	7.27	-49.1	-64.8	3.8	1.49e+00	0	44	104	516947968	68	23836
2026-01-27 07:31:41.62	6.58	7.23	-49.1	-64.8	3.8	1.49e+00	0	44	104	516947968	68	23774
2026-01-27 07:31:42.62	6.44	7.19	-49.1	-64.8	3.8	1.49e+00	0	44	104	516947968	68	23785
2026-01-27 07:31:43.61	6.30	7.15	-49.1	-64.8	3.8	1.49e+00	0	44	104	516947968	68	23723
2026-01-27 07:31:44.61	6.16	7.11	-49.1	-64.8	3.8	1.49e+00	0	44	104	516947968	68	23755
2026-01-27 07:31:45.61	6.02	7.07	-49.1	-64.8	3.8	1.49e+00	0	44	104	516947968	68	23782
2026-01-27 07:31:46.60	5.88	7.03	-49.1	-64.8	3.8	1.49e+00	0	44	104	516947968	68	23772
2026-01-27 07:31:47.60	5.74	6.99	-49.1	-64.8	3.8	1.49e+00	0	44	104	516947968	68	23842
2026-01-27 07:31:48.60	5.61	6.95	-49.1	-64.8	3.8	1.49e+00	0	44	104	516947968	68	23842
2026-01-27 07:31:49.59	5.47	6.91	-49.1	-64.9	3.8	1.49e+00	0	44	104	516947968	68	23912
2026-01-27 07:31:50.59	5.33	6.87	-49.1	-64.8	3.8	1.49e+00	0	44	104	516947968	68	23847
2026-01-27 07:31:51.59	5.20	6.83	-49.1	-64.8	3.8	1.49e+00	0	44	104	516947968	68	23787
2026-01-27 07:31:52.58	5.06	6.79	-49.1	-64.9	3.8	1.49e+00	0	44	104	516947968	68	23856
2026-01-27 07:31:53.58	4.93	6.75	-49.1	-64.9	3.8	1.49e+00	0	44	104	516947968	68	23865
2026-01-27 07:31:54.57	4.79	6.71	-49.1	-64.8	3.8	1.49e+00	0	44	104	516947968	68	23804
2026-01-27 07:31:55.57	4.66	6.67	-49.1	-64.8	3.8	1.49e+00	0	44	104	516947968	68	23761
2026-01-27 07:31:56.57	4.52	6.63	-49.1	-64.8	3.8	1.49e+00	0	44	104	516947968	68	23780
2026-01-27 07:31:57.57	4.39	6.59	-49.1	-64.8	3.8	1.49e+00	0	44	104	516947968	68	23782
2026-01-27 07:31:58.56	4.26	6.55	-49.1	-64.8	3.8	1.49e+00	0	44	104	516947968	68	23683
2026-01-27 07:31:59.56	4.12	6.51	-49.1	-64.8	3.8	1.49e+00	0	44	104	516947968	68	23829
2026-01-27 07:32:00.55	3.99	6.47	-49.1	-64.8	3.8	1.49e+00	0	44	104	516947968	68	23764
2026-01-27 07:32:01.55	3.86	6.42	-49.1	-64.8	3.8	1.49e+00	0	44	104	516947968	68	23777
2026-01-27 07:32:02.54	3.73	6.38	-49.1	-64.8	3.8	1.49e+00	0	44	104	516947968	68	23844
2026-01-27 07:32:03.54	3.60	6.34	-49.1	-64.9	3.8	1.49e+00	0	44	104	516947968	68	23860
2026-01-27 07:32:04.54	3.47	6.30	-49.1	-64.8	3.8	1.49e+00	0	44	104	516947968	68	23736
2026-01-27 07:32:05.53	3.34	6.26	-49.1	-64.9	3.8	1.49e+00	0	44	104	516947968	68	23962
2026-01-27 07:32:06.53	3.20	6.22	-49.1	-64.8	3.8	1.49e+00	0	44	104	516947968	68	23759
2026-01-27 07:32:07.52	3.08	6.18	-49.1	-64.9	3.8	1.49e+00	0	44	104	516947968	68	23856
2026-01-27 07:32:08.52	2.95	6.14	-49.1	-64.8	3.8	1.49e+00	0	44	104	516947968	68	23825
2026-01-27 07:32:09.52	2.82	6.09	-49.1	-64.8	3.8	1.49e+00	0	44	104	516947968	68	23782
2026-01-27 07:32:10.51	2.69	6.05	-49.1	-64.9	3.8	1.49e+00	0	44	104	516947968	68	23867
2026-01-27 07:32:11.51	2.56	6.01	-49.1	-64.8	3.8	1.49e+00	0	44	104	516947968	68	23830
2026-01-27 07:32:12.51	2.43	5.97	-49.1	-64.9	3.8	1.49e+00	0	44	104	516947968	68	23865
2026-01-27 07:32:13.50	2.30	5.93	-49.1	-64.8	3.8	1.49e+00	0	44	104	516947968	68	23819
2026-01-27 07:32:14.50	2.18	5.89	-49.1	-64.8	3.8	1.49e+00	0	44	104	516947968	68	23787
2026-01-27 07:32:15.49	2.05	5.84	-49.1	-64.8	3.8	1.49e+00	0	44	104	516947968	68	23789
2026-01-27 07:32:16.49	1.92	5.80	-49.1	-64.8	3.8	1.49e+00	0	44	104	516947968	68	23789
2026-01-27 07:32:17.49	1.80	5.76	-49.1	-64.8	3.8	1.49e+00	0	44	104	516947968	68	23811
2026-01-27 07:32:18.48	1.67	5.72	-49.1	-64.8	3.8	1.49e+00	0	44	104	516947968	68	23828
2026-01-27 07:32:19.48	1.55	5.68	-49.1	-64.8	3.8	1.49e+00	0	44	104	516947968	68	23805
2026-01-27 07:32:20.47	1.42	5.63	-49.1	-64.9	3.8	1.49e+00	0	44	104	516947968	68	23896
2026-01-27 07:32:21.47	1.30	5.59	-49.1	-64.8	3.8	1.49e+00	0	44	104	516947968	68	23807
2026-01-27 07:32:22.47	1.17	5.55	-49.1	-64.8	3.8	1.49e+00	0	44	104	516947968	68	23774
2026-01-27 07:32:23.47	1.05	5.51	-49.1	-64.8	3.8	1.49e+00	0	44	104	516947968	68	23834
2026-01-27 07:32:24.46	0.93	5.46	-49.1	-64.8	3.8	1.49e+00	0	44	104	516947968	68	23777
2026-01-27 07:32:25.46	0.80	5.42	-49.1	-64.8	3.8	1.49e+00	0	44	104	516947968	68	23833
2026-01-27 07:32:26.46	0.68	5.38	-49.1	-64.8	3.8	1.49e+00	0	44	104	516947968	68	23822
2026-01-27 07:32:27.45	0.56	5.34	-49.1	-64.8	3.8	1.49e+00	0	44	104	516947968	68	23828
2026-01-27 07:32:28.45	0.44	5.29	-49.1	-64.8	3.8	1.49e+00	0	44	104	516947968	68	23831
2026-01-27 07:32:29.44	0.31	5.25	-49.1	-64.9	3.8	1.49e+00	0	44	104	516947968	68	23893
2026-01-27 07:32:30.44	0.19	5.21	-49.1	-64.9	3.8	1.49e+00	0	44	104	516947968	68	23862
2026-01-27 07:32:31.44	0.07	5.17	-49.1	-64.8	3.8	1.49e+00	0	44	104	516947968	68	23786
2026-01-27 07:32:32.43	359.95	5.12	-49.1	-64.8	3.8	1.49e+00	0	44	104	516947968	68	23827
2026-01-27 07:32:33.43	359.83	5.08	-49.1	-64.8	3.8	1.49e+00	0	44	104	516947968	68	23805
2026-01-27 07:32:34.43	359.71	5.04	-49.1	-64.8	3.8	1.49e+00	0	44	104	516947968	68	23813
2026-01-27 07:32:35.42	359.59	4.99	-49.1	-64.9	3.8	1.49e+00	0	44	104	516947968	68	23950

#Closed at: 2026-01-27 07:32:36
#Recorded file [516 MB]: D:/Data/31040_260127_102447.dat