passes_logs/2026/01/27/T1/T1__20260127_130527_AQUA_rec.log

#Pass ID: 20260127_130527_AQUA
#Satellite: AQUA
#Configuration: AQUA
#almurnet v.1.7.20251203
#Start time: 2026-01-27 13:05:28

#Version: 2.0.20230620
#Station: T1
#Location: 37.570604 lon 55.790049 lat
#TLE: 1 27424U 02022A   26026.85810808  .00001813  00000+0  37258-3 0  9999
#TLE: 2 27424  98.4101 353.4861 0001866  64.3332 317.5249 14.61864179262622

#Time	Az	El	Level	Level2	SNR	BER	BlckErr	Temp	State	Recorded	gain1	gain2
2026-01-27 13:05:28.31	209.98	5.03	-51.7	-72.3	3.8	7.45e-01	0	41	0	0	75	37535
2026-01-27 13:05:29.30	210.07	5.09	-52.4	-72.3	3.8	7.46e-01	0	41	104	0	75	37806
2026-01-27 13:05:30.29	210.17	5.15	-52.4	-72.4	3.8	7.48e-01	0	41	104	0	75	37866
2026-01-27 13:05:31.29	210.26	5.22	-52.0	-72.4	3.8	7.44e-01	0	41	104	0	75	37866
2026-01-27 13:05:32.28	210.36	5.28	-52.2	-72.4	3.8	7.44e-01	0	41	104	0	75	37921
2026-01-27 13:05:33.27	210.46	5.34	-52.5	-72.4	3.8	7.45e-01	0	41	104	0	75	37874
2026-01-27 13:05:34.26	210.56	5.40	-52.3	-72.3	3.8	7.42e-01	0	41	104	0	75	37778
2026-01-27 13:05:35.26	210.66	5.47	-52.1	-72.4	3.8	7.46e-01	0	41	104	0	75	37822
2026-01-27 13:05:36.25	210.76	5.53	-52.3	-72.3	3.8	7.45e-01	0	41	104	0	75	37675
2026-01-27 13:05:37.24	210.85	5.59	-52.3	-72.3	3.8	7.48e-01	0	41	104	0	75	37544
2026-01-27 13:05:38.23	210.95	5.66	-52.2	-72.2	3.8	7.48e-01	0	41	104	0	75	37258
2026-01-27 13:05:39.23	211.06	5.72	-52.1	-72.2	3.8	7.46e-01	0	41	104	0	75	37373
2026-01-27 13:05:40.22	211.16	5.78	-52.0	-72.2	3.8	7.47e-01	0	41	104	0	75	37179
2026-01-27 13:05:41.21	211.26	5.85	-52.0	-72.1	3.8	7.48e-01	0	41	104	0	75	36913
2026-01-27 13:05:42.21	211.36	5.91	-52.1	-72.1	3.8	7.47e-01	0	41	104	0	75	36794
2026-01-27 13:05:43.20	211.46	5.97	-51.4	-72.0	3.8	7.47e-01	0	41	104	0	74	38449
2026-01-27 13:05:44.19	211.56	6.04	-51.8	-71.9	3.8	7.48e-01	0	41	104	0	74	37955
2026-01-27 13:05:45.18	211.67	6.10	-51.6	-71.5	3.8	7.46e-01	0	41	104	0	74	36233
2026-01-27 13:05:46.18	211.77	6.16	-51.3	-71.5	3.8	7.51e-01	0	42	104	0	74	36470
2026-01-27 13:05:47.17	211.88	6.23	-51.0	-71.4	3.8	7.49e-01	0	42	104	0	74	36100
2026-01-27 13:05:48.16	211.98	6.29	-51.0	-71.5	3.8	7.44e-01	0	42	104	0	74	36369
2026-01-27 13:05:49.16	212.09	6.36	-51.0	-71.5	3.8	7.44e-01	0	42	104	0	74	36139
2026-01-27 13:05:50.15	212.19	6.42	-51.0	-71.4	3.8	7.47e-01	0	42	104	0	74	35925
2026-01-27 13:05:51.14	212.30	6.49	-51.0	-71.4	3.8	7.46e-01	0	42	104	0	73	38083
2026-01-27 13:05:52.14	212.40	6.55	-51.0	-71.4	3.8	7.45e-01	0	42	104	0	73	37965
2026-01-27 13:05:53.13	212.51	6.61	-51.0	-71.4	3.8	7.43e-01	0	42	104	0	73	38239
2026-01-27 13:05:54.12	212.62	6.68	-50.9	-71.3	3.8	7.46e-01	0	42	104	0	73	37509
2026-01-27 13:05:55.12	212.73	6.74	-51.0	-70.9	3.8	7.47e-01	0	42	104	0	73	35928
2026-01-27 13:05:56.11	212.84	6.81	-50.9	-70.3	3.8	7.45e-01	0	42	104	0	73	33500
2026-01-27 13:05:57.10	212.94	6.87	-50.9	-69.5	3.9	7.38e-01	0	42	104	0	73	30601
2026-01-27 13:05:58.10	213.05	6.94	-50.9	-69.2	3.8	7.46e-01	0	42	104	0	73	29657
2026-01-27 13:05:59.09	213.16	7.00	-50.9	-69.1	3.8	7.42e-01	0	42	104	0	73	29115
2026-01-27 13:06:00.08	213.28	7.07	-50.9	-69.6	3.8	7.44e-01	0	42	104	0	73	31023
2026-01-27 13:06:01.07	213.39	7.13	-50.9	-70.4	3.8	7.46e-01	0	42	104	0	73	33757
2026-01-27 13:06:02.07	213.50	7.20	-50.9	-70.8	3.8	7.46e-01	0	42	104	0	73	35486
2026-01-27 13:06:03.06	213.61	7.27	-51.0	-71.3	3.8	7.47e-01	0	42	104	0	73	37413
2026-01-27 13:06:04.05	213.72	7.33	-51.0	-71.5	3.8	7.44e-01	0	42	104	0	73	38274
2026-01-27 13:06:05.05	213.84	7.40	-50.9	-71.3	3.8	7.44e-01	0	42	104	0	73	37660
2026-01-27 13:06:06.04	213.95	7.46	-50.9	-71.0	3.8	7.43e-01	0	42	104	0	73	36341
2026-01-27 13:06:07.03	214.07	7.53	-50.9	-71.0	3.8	7.44e-01	0	42	104	0	73	36327
2026-01-27 13:06:08.02	214.18	7.60	-50.9	-71.2	3.8	7.47e-01	0	42	104	0	73	37180
2026-01-27 13:06:09.02	214.30	7.66	-50.9	-71.1	3.8	7.43e-01	0	42	104	0	73	36684
2026-01-27 13:06:10.01	214.41	7.73	-50.9	-69.4	3.8	7.46e-01	0	42	104	0	73	30259
2026-01-27 13:06:11.01	214.53	7.80	-50.8	-66.4	4.7	7.20e-01	0	42	104	0	73	21394
2026-01-27 13:06:12.00	214.65	7.86	-50.7	-63.9	6.3	6.77e-01	0	42	0	524288	73	16041
2026-01-27 13:06:12.99	214.76	7.93	-50.6	-63.1	7.1	6.62e-01	0	42	0	2621440	73	14607
2026-01-27 13:06:13.98	214.88	7.99	-50.6	-63.0	7.2	6.61e-01	0	42	0	4194304	73	14484
2026-01-27 13:06:14.98	215.00	8.06	-50.7	-64.1	6.2	6.83e-01	0	42	0	6291456	73	16467
2026-01-27 13:06:15.97	215.12	8.13	-50.6	-63.4	6.7	6.69e-01	0	42	0	7864320	73	15106
2026-01-27 13:06:16.96	215.24	8.20	-50.1	-59.2	10.8	6.17e-01	0	42	0	9961472	72	9936
2026-01-27 13:06:17.96	215.36	8.26	-49.2	-55.6	14.7	6.08e-01	0	42	0	11534336	70	7354
2026-01-27 13:06:18.95	215.48	8.33	-48.0	-52.6	17.7	6.08e-01	0	42	0	13631488	68	5838
2026-01-27 13:06:19.94	215.60	8.40	-46.7	-50.6	19.7	6.03e-01	0	42	0	15204352	65	5466
2026-01-27 13:06:20.94	215.73	8.47	-46.0	-49.4	20.8	6.09e-01	0	42	0	17301504	63	5343
2026-01-27 13:06:21.93	215.85	8.53	-45.4	-48.5	21.7	6.06e-01	0	43	0	18874368	62	5142
2026-01-27 13:06:22.92	215.97	8.60	-45.5	-48.7	21.6	6.06e-01	0	42	0	20971520	62	5220
2026-01-27 13:06:23.92	216.10	8.67	-46.0	-49.3	21.0	6.07e-01	0	42	0	23068672	62	5639
2026-01-27 13:06:24.91	216.22	8.74	-46.5	-50.1	20.3	6.06e-01	0	42	0	24641536	63	5832
2026-01-27 13:06:25.90	216.35	8.80	-47.5	-51.8	18.6	6.09e-01	0	43	0	26738688	65	6286
2026-01-27 13:06:26.90	216.48	8.87	-48.3	-53.4	16.9	6.07e-01	0	42	0	28311552	67	6800
2026-01-27 13:06:27.89	216.60	8.94	-49.3	-55.8	14.6	6.07e-01	0	43	0	30408704	69	7944
2026-01-27 13:06:28.88	216.73	9.01	-49.9	-57.7	12.8	6.11e-01	0	43	0	31981568	70	9348
2026-01-27 13:06:29.88	216.86	9.08	-47.4	-51.6	18.7	6.05e-01	0	43	0	34078720	66	5831
2026-01-27 13:06:30.87	216.99	9.14	-50.1	-61.2	9.1	6.33e-01	0	43	0	35651584	70	13933
2026-01-27 13:06:31.87	217.12	9.21	-50.2	-58.3	12.3	6.11e-01	0	43	0	37748736	71	9429
2026-01-27 13:06:32.86	217.25	9.28	-48.2	-52.8	17.6	6.05e-01	0	43	0	39845888	68	5982
2026-01-27 13:06:33.85	217.38	9.35	-50.8	-63.3	7.3	6.64e-01	0	42	0	41418752	72	15864
2026-01-27 13:06:34.85	217.51	9.42	-48.6	-53.7	16.3	6.06e-01	0	43	0	42991616	69	6242
2026-01-27 13:06:35.84	217.64	9.49	-47.2	-51.2	19.1	6.06e-01	0	43	0	45088768	66	5586
2026-01-27 13:06:36.84	217.77	9.56	-46.4	-49.9	20.4	6.06e-01	0	43	0	46661632	64	5374
2026-01-27 13:06:37.83	217.91	9.63	-46.0	-49.4	21.0	6.08e-01	0	43	0	48758784	63	5350
2026-01-27 13:06:38.83	218.04	9.70	-45.9	-49.3	21.1	6.08e-01	0	43	0	50855936	63	5284
2026-01-27 13:06:39.82	218.17	9.76	-45.9	-49.3	21.1	6.07e-01	0	43	0	52428800	63	5313
2026-01-27 13:06:40.82	218.31	9.83	-45.6	-48.9	21.6	6.06e-01	0	43	0	54525952	62	5345
2026-01-27 13:06:41.81	218.45	9.90	-45.5	-48.8	21.6	6.05e-01	0	43	0	56098816	62	5282
2026-01-27 13:06:42.80	218.58	9.97	-45.2	-48.4	21.9	6.07e-01	0	43	0	58195968	62	5092
2026-01-27 13:06:43.80	218.72	10.04	-45.2	-48.4	22.0	6.07e-01	0	43	0	59768832	62	5055
2026-01-27 13:06:44.79	218.86	10.11	-45.0	-48.2	22.2	6.05e-01	0	43	0	61865984	62	4956
2026-01-27 13:06:45.79	219.00	10.18	-45.0	-48.2	21.1	6.09e-01	0	43	0	63438848	62	4976
2026-01-27 13:06:46.79	219.14	10.25	-44.8	-48.0	22.3	6.05e-01	0	43	0	65536000	61	5122
2026-01-27 13:06:47.78	219.28	10.32	-44.7	-48.0	22.3	6.08e-01	0	43	0	67633152	61	5157
2026-01-27 13:06:48.77	219.42	10.39	-44.7	-48.2	22.1	6.08e-01	0	43	0	69206016	61	5221
2026-01-27 13:06:49.77	219.56	10.46	-44.5	-48.1	22.2	6.07e-01	0	43	0	71303168	61	5161
2026-01-27 13:06:50.76	219.70	10.53	-44.5	-48.0	22.3	6.06e-01	0	43	0	72876032	60	5455
2026-01-27 13:06:51.76	219.84	10.60	-44.5	-47.9	22.3	6.06e-01	0	43	0	74973184	60	5387
2026-01-27 13:06:52.75	219.99	10.67	-44.5	-47.9	22.3	6.08e-01	0	43	0	76546048	60	5370
2026-01-27 13:06:53.75	220.13	10.74	-44.6	-47.7	22.6	6.07e-01	0	43	0	78643200	60	5260
2026-01-27 13:06:54.74	220.28	10.81	-44.8	-47.9	22.4	6.07e-01	0	43	0	80216064	60	5369
2026-01-27 13:06:55.74	220.42	10.88	-44.8	-47.8	22.5	6.09e-01	0	43	0	82313216	60	5335
2026-01-27 13:06:56.73	220.57	10.95	-44.8	-47.7	22.6	6.06e-01	0	43	0	84410368	60	5250
2026-01-27 13:06:57.73	220.72	11.03	-44.8	-47.7	22.6	6.08e-01	0	43	0	85983232	60	5237
2026-01-27 13:06:58.73	220.87	11.10	-44.8	-47.6	22.7	6.07e-01	0	43	0	88080384	60	5210
2026-01-27 13:06:59.72	221.02	11.17	-44.8	-47.6	22.8	6.07e-01	0	43	0	89653248	60	5166
2026-01-27 13:07:00.71	221.16	11.24	-44.8	-47.5	22.8	6.07e-01	0	43	0	91750400	60	5150
2026-01-27 13:07:01.71	221.32	11.31	-44.8	-47.5	22.8	6.04e-01	0	43	0	93323264	60	5149
2026-01-27 13:07:02.70	221.47	11.38	-44.8	-47.6	22.8	6.06e-01	0	43	0	95420416	60	5192
2026-01-27 13:07:03.70	221.62	11.45	-44.7	-47.4	22.9	6.05e-01	0	43	0	96993280	60	5096
2026-01-27 13:07:04.69	221.77	11.52	-44.7	-47.5	22.9	6.08e-01	0	43	0	99090432	60	5122
2026-01-27 13:07:05.69	221.93	11.59	-44.7	-47.5	22.9	6.07e-01	0	43	0	101187584	60	5124
2026-01-27 13:07:06.68	222.08	11.66	-44.8	-47.6	22.8	6.08e-01	0	43	0	102760448	60	5207
2026-01-27 13:07:07.68	222.23	11.74	-44.7	-47.4	22.9	6.05e-01	0	43	0	104857600	60	5089
2026-01-27 13:07:08.67	222.39	11.81	-44.6	-47.4	23.0	6.07e-01	0	43	0	106430464	60	5054
2026-01-27 13:07:09.67	222.55	11.88	-44.8	-47.5	22.9	6.09e-01	0	43	0	108527616	60	5142
2026-01-27 13:07:10.66	222.70	11.95	-44.8	-47.6	22.9	6.04e-01	0	43	0	110100480	60	5186
2026-01-27 13:07:11.66	222.86	12.02	-44.9	-47.6	22.8	6.04e-01	0	43	0	112197632	60	5209
2026-01-27 13:07:12.65	223.02	12.09	-44.7	-47.4	22.9	6.07e-01	0	43	0	113770496	60	5088
2026-01-27 13:07:13.65	223.18	12.16	-44.8	-47.5	22.9	6.07e-01	0	43	0	115867648	60	5109
2026-01-27 13:07:14.64	223.34	12.24	-44.6	-47.2	23.1	6.07e-01	0	43	0	117964800	60	4976
2026-01-27 13:07:15.64	223.50	12.31	-44.6	-47.2	23.1	6.09e-01	0	43	0	119537664	60	4973
2026-01-27 13:07:16.63	223.67	12.38	-44.7	-47.3	23.1	6.09e-01	0	43	0	121634816	60	5023
2026-01-27 13:07:17.62	223.83	12.45	-44.7	-47.4	23.0	6.06e-01	0	43	0	123207680	60	5057
2026-01-27 13:07:18.62	223.99	12.52	-44.8	-47.5	23.0	6.06e-01	0	43	0	125304832	60	5112
2026-01-27 13:07:19.61	224.16	12.59	-44.6	-47.3	23.1	6.07e-01	0	43	0	126877696	60	4991
2026-01-27 13:07:20.61	224.32	12.67	-44.6	-47.3	23.1	6.10e-01	0	43	0	128974848	60	4990
2026-01-27 13:07:21.60	224.49	12.74	-44.5	-47.2	23.2	6.08e-01	0	43	0	130547712	60	4965
2026-01-27 13:07:22.60	224.66	12.81	-44.5	-47.2	23.2	6.06e-01	0	43	0	132644864	60	4941
2026-01-27 13:07:23.59	224.83	12.88	-44.4	-47.1	23.3	6.05e-01	0	43	0	134742016	60	4888
2026-01-27 13:07:24.59	225.00	12.95	-44.4	-47.1	23.3	6.06e-01	0	43	0	136314880	60	4882
2026-01-27 13:07:25.58	225.16	13.03	-44.5	-47.2	23.2	6.07e-01	0	43	0	138412032	60	4951
2026-01-27 13:07:26.58	225.34	13.10	-44.5	-47.2	23.2	6.05e-01	0	43	0	139984896	60	4973
2026-01-27 13:07:27.57	225.51	13.17	-44.5	-47.2	23.2	6.07e-01	0	43	0	142082048	60	4946
2026-01-27 13:07:28.57	225.68	13.24	-44.4	-47.1	23.3	6.09e-01	0	43	0	143654912	60	4881
2026-01-27 13:07:29.56	225.85	13.31	-44.4	-47.1	23.3	6.04e-01	0	43	0	145752064	60	4896
2026-01-27 13:07:30.56	226.03	13.39	-44.5	-47.1	23.3	6.06e-01	0	43	0	147324928	60	4908
2026-01-27 13:07:31.55	226.20	13.46	-44.4	-47.1	23.4	6.08e-01	0	43	0	149422080	60	4872
2026-01-27 13:07:32.55	226.38	13.53	-44.5	-47.1	23.3	6.10e-01	0	43	0	151519232	60	4918
2026-01-27 13:07:33.54	226.56	13.60	-44.4	-47.0	23.4	6.07e-01	0	43	0	153092096	60	4833
2026-01-27 13:07:34.54	226.74	13.67	-44.3	-46.9	23.5	6.07e-01	0	43	0	155189248	60	4787
2026-01-27 13:07:35.53	226.91	13.75	-44.3	-46.9	23.5	6.05e-01	0	43	0	156762112	60	4773
2026-01-27 13:07:36.53	227.09	13.82	-44.4	-47.0	23.5	6.07e-01	0	43	0	158859264	60	4817
2026-01-27 13:07:37.52	227.27	13.89	-44.4	-47.0	23.4	6.06e-01	0	43	0	160432128	60	4870
2026-01-27 13:07:38.52	227.46	13.96	-44.5	-47.1	23.3	6.05e-01	0	43	0	162529280	60	4885
2026-01-27 13:07:39.51	227.64	14.03	-44.3	-46.9	23.5	6.06e-01	0	43	0	164626432	60	4771
2026-01-27 13:07:40.51	227.82	14.11	-44.3	-46.9	23.6	6.06e-01	0	43	0	166199296	60	4762
2026-01-27 13:07:41.50	228.01	14.18	-44.3	-46.9	23.5	6.05e-01	0	43	0	168296448	60	4774
2026-01-27 13:07:42.50	228.19	14.25	-44.3	-46.9	23.5	6.03e-01	0	43	0	169869312	60	4786
2026-01-27 13:07:43.49	228.38	14.32	-44.3	-46.9	23.6	6.07e-01	0	43	0	171966464	60	4785
2026-01-27 13:07:44.48	228.56	14.39	-44.3	-46.9	23.5	6.08e-01	0	43	0	173539328	60	4798
2026-01-27 13:07:45.48	228.75	14.46	-44.3	-47.0	23.5	6.07e-01	0	43	0	175636480	60	4821
2026-01-27 13:07:46.48	228.94	14.54	-44.4	-47.1	23.4	6.06e-01	0	43	0	177209344	60	4889
2026-01-27 13:07:47.47	229.13	14.61	-44.4	-47.0	23.5	6.07e-01	0	43	0	179306496	60	4828
2026-01-27 13:07:48.47	229.32	14.68	-44.3	-46.9	23.6	6.07e-01	0	43	0	181403648	60	4787
2026-01-27 13:07:49.46	229.51	14.75	-44.3	-46.8	23.6	6.07e-01	0	43	0	182976512	60	4737
2026-01-27 13:07:50.46	229.71	14.82	-44.3	-46.9	23.6	6.07e-01	0	43	0	185073664	60	4792
2026-01-27 13:07:51.45	229.90	14.89	-44.3	-46.9	23.6	6.08e-01	0	43	0	186646528	60	4761
2026-01-27 13:07:52.45	230.10	14.97	-44.3	-46.9	23.6	6.05e-01	0	43	0	188743680	60	4772
2026-01-27 13:07:53.44	230.29	15.04	-44.2	-46.8	23.7	6.04e-01	0	43	0	190316544	60	4730
2026-01-27 13:07:54.44	230.49	15.11	-44.2	-46.8	23.6	6.06e-01	0	43	0	192413696	60	4756
2026-01-27 13:07:55.43	230.69	15.18	-44.2	-46.8	23.6	6.07e-01	0	43	0	193986560	60	4739
2026-01-27 13:07:56.43	230.89	15.25	-44.3	-46.9	23.5	6.08e-01	0	43	0	196083712	60	4796
2026-01-27 13:07:57.42	231.08	15.32	-44.3	-46.9	23.6	6.05e-01	0	43	0	198180864	60	4764
2026-01-27 13:07:58.42	231.29	15.39	-44.2	-46.7	23.7	6.07e-01	0	43	0	199753728	60	4684
2026-01-27 13:07:59.41	231.49	15.46	-44.2	-46.8	23.7	6.05e-01	0	43	0	201850880	60	4725
2026-01-27 13:08:00.41	231.69	15.53	-44.2	-46.7	23.7	6.04e-01	0	43	0	203423744	60	4700
2026-01-27 13:08:01.40	231.89	15.60	-44.2	-46.8	23.7	6.08e-01	0	43	0	205520896	60	4730
2026-01-27 13:08:02.40	232.10	15.68	-44.2	-46.8	23.7	6.06e-01	0	43	0	207093760	60	4735
2026-01-27 13:08:03.39	232.30	15.75	-44.2	-46.7	23.8	6.06e-01	0	43	0	209190912	60	4704
2026-01-27 13:08:04.39	232.51	15.82	-44.1	-46.7	23.8	6.06e-01	0	43	0	210763776	60	4659
2026-01-27 13:08:05.39	232.72	15.89	-44.1	-46.6	23.9	6.05e-01	0	43	0	212860928	60	4634
2026-01-27 13:08:06.38	232.93	15.96	-44.1	-46.7	23.8	6.05e-01	0	43	0	214958080	60	4673
2026-01-27 13:08:07.37	233.14	16.03	-44.1	-46.7	23.8	6.06e-01	0	43	0	216530944	60	4668
2026-01-27 13:08:08.37	233.35	16.10	-44.1	-46.7	23.8	6.06e-01	0	43	0	218628096	60	4668
2026-01-27 13:08:09.37	233.56	16.17	-44.1	-46.7	23.8	6.07e-01	0	43	0	220200960	60	4653
2026-01-27 13:08:10.37	233.77	16.24	-44.1	-46.7	23.8	6.06e-01	0	43	0	222298112	60	4686
2026-01-27 13:08:11.36	233.99	16.31	-44.1	-46.7	23.8	6.07e-01	0	43	0	223870976	60	4667
2026-01-27 13:08:12.36	234.20	16.38	-44.1	-46.7	23.8	6.05e-01	0	43	0	225968128	60	4686
2026-01-27 13:08:13.35	234.42	16.44	-44.2	-46.8	23.8	6.07e-01	0	43	0	227540992	60	4717
2026-01-27 13:08:14.34	234.63	16.51	-44.2	-46.7	23.7	6.05e-01	0	43	0	229638144	60	4704
2026-01-27 13:08:15.34	234.85	16.58	-44.1	-46.6	23.9	6.08e-01	0	43	0	231735296	60	4620
2026-01-27 13:08:16.33	235.07	16.65	-44.1	-46.7	23.9	6.05e-01	0	43	0	233308160	60	4674
2026-01-27 13:08:17.33	235.29	16.72	-44.3	-46.8	23.7	6.05e-01	0	43	0	235405312	60	4756
2026-01-27 13:08:18.32	235.51	16.79	-44.3	-46.9	23.6	6.05e-01	0	43	0	236978176	60	4798
2026-01-27 13:08:19.32	235.74	16.86	-44.1	-46.6	23.9	6.06e-01	0	43	0	239075328	60	4641
2026-01-27 13:08:20.31	235.96	16.92	-44.1	-46.7	23.8	6.08e-01	0	43	0	240648192	60	4668
2026-01-27 13:08:21.31	236.18	16.99	-44.1	-46.7	23.8	6.05e-01	0	43	0	242745344	60	4700
2026-01-27 13:08:22.30	236.41	17.06	-44.1	-46.8	23.8	6.08e-01	0	43	0	244318208	60	4709
2026-01-27 13:08:23.30	236.63	17.13	-44.2	-46.8	23.8	6.07e-01	0	43	0	246415360	60	4725
2026-01-27 13:08:24.29	236.86	17.19	-44.0	-46.6	23.9	6.06e-01	0	43	0	248512512	60	4634
2026-01-27 13:08:25.29	237.09	17.26	-44.1	-46.6	23.9	6.05e-01	0	44	0	250085376	60	4628
2026-01-27 13:08:26.28	237.32	17.33	-44.1	-46.7	23.8	6.08e-01	0	43	0	252182528	60	4676
2026-01-27 13:08:27.28	237.55	17.39	-44.2	-46.8	23.8	6.06e-01	0	43	0	253755392	60	4709
2026-01-27 13:08:28.27	237.78	17.46	-44.2	-46.7	23.9	6.07e-01	0	43	0	255852544	60	4686
2026-01-27 13:08:29.27	238.01	17.53	-44.1	-46.7	23.8	6.05e-01	0	43	0	257949696	60	4675
2026-01-27 13:08:30.26	238.25	17.59	-44.2	-46.8	23.8	6.08e-01	0	43	0	259522560	60	4734
2026-01-27 13:08:31.26	238.48	17.66	-44.1	-46.7	23.9	6.07e-01	0	43	0	261095424	60	4657
2026-01-27 13:08:32.25	238.72	17.72	-44.0	-46.6	24.0	6.07e-01	0	43	0	263192576	60	4603
2026-01-27 13:08:33.25	238.96	17.79	-44.0	-46.6	23.9	6.07e-01	0	43	0	265289728	60	4631
2026-01-27 13:08:34.24	239.19	17.85	-44.1	-46.7	23.9	6.07e-01	0	43	0	266862592	60	4664
2026-01-27 13:08:35.24	239.43	17.92	-44.2	-46.7	23.9	6.06e-01	0	43	0	268959744	60	4675
2026-01-27 13:08:36.23	239.67	17.98	-44.1	-46.7	23.9	6.05e-01	0	43	0	270532608	60	4659
2026-01-27 13:08:37.23	239.91	18.05	-44.2	-46.7	23.8	6.05e-01	0	43	0	272629760	60	4673
2026-01-27 13:08:38.22	240.15	18.11	-44.2	-46.7	23.8	6.05e-01	0	43	0	274726912	60	4694
2026-01-27 13:08:39.21	240.40	18.17	-44.3	-46.8	23.8	6.06e-01	0	43	0	276299776	60	4729
2026-01-27 13:08:40.21	240.64	18.24	-44.2	-46.8	23.8	6.07e-01	0	43	0	278396928	60	4716
2026-01-27 13:08:41.20	240.89	18.30	-44.2	-46.7	23.9	6.06e-01	0	43	0	279969792	60	4698
2026-01-27 13:08:42.20	241.13	18.36	-44.2	-46.7	23.9	6.05e-01	0	43	0	282066944	60	4659
2026-01-27 13:08:43.20	241.38	18.42	-44.1	-46.6	24.0	6.04e-01	0	43	0	283639808	60	4609
2026-01-27 13:08:44.19	241.63	18.49	-44.2	-46.7	23.9	6.07e-01	0	43	0	285736960	60	4669
2026-01-27 13:08:45.19	241.88	18.55	-44.2	-46.7	23.9	6.08e-01	0	43	0	287309824	60	4657
2026-01-27 13:08:46.18	242.13	18.61	-44.2	-46.8	23.8	6.06e-01	0	43	0	289406976	60	4727
2026-01-27 13:08:47.17	242.38	18.67	-44.2	-46.8	23.8	6.07e-01	0	43	0	291504128	60	4714
2026-01-27 13:08:48.17	242.63	18.73	-44.2	-46.7	23.9	6.07e-01	0	44	0	293076992	60	4700
2026-01-27 13:08:49.16	242.88	18.79	-44.2	-46.8	23.8	6.04e-01	0	44	0	295174144	60	4720
2026-01-27 13:08:50.16	243.14	18.85	-44.2	-46.8	23.8	6.04e-01	0	43	0	296747008	60	4728
2026-01-27 13:08:51.15	243.39	18.91	-44.3	-46.9	23.8	6.08e-01	0	44	0	298844160	60	4765
2026-01-27 13:08:52.15	243.65	18.97	-44.2	-46.8	23.8	6.07e-01	0	43	0	300417024	60	4722
2026-01-27 13:08:53.14	243.91	19.03	-44.3	-46.8	23.8	6.06e-01	0	44	0	302514176	60	4751
2026-01-27 13:08:54.13	244.17	19.08	-44.2	-46.7	23.8	6.07e-01	0	44	0	304087040	60	4695
2026-01-27 13:08:55.13	244.43	19.14	-44.3	-46.9	23.7	6.06e-01	0	43	0	306184192	60	4776
2026-01-27 13:08:56.13	244.69	19.20	-44.2	-46.7	23.9	6.07e-01	0	43	0	308281344	60	4682
2026-01-27 13:08:57.12	244.95	19.26	-44.2	-46.7	23.9	6.05e-01	0	43	0	309854208	60	4686
2026-01-27 13:08:58.11	245.21	19.31	-44.1	-46.6	23.9	6.06e-01	0	43	0	311951360	60	4631
2026-01-27 13:08:59.11	245.48	19.37	-44.1	-46.6	23.9	6.05e-01	0	43	0	313524224	60	4644
2026-01-27 13:09:00.10	245.74	19.42	-44.1	-46.7	23.9	6.07e-01	0	44	0	315621376	60	4674
2026-01-27 13:09:01.10	246.01	19.48	-44.2	-46.8	23.8	6.07e-01	0	43	0	317194240	60	4713
2026-01-27 13:09:02.09	246.27	19.53	-44.1	-46.7	23.9	6.08e-01	0	44	0	319291392	60	4653
2026-01-27 13:09:03.09	246.54	19.59	-44.1	-46.7	23.9	6.05e-01	0	43	0	320864256	60	4671
2026-01-27 13:09:04.08	246.81	19.64	-44.2	-46.7	23.9	6.05e-01	0	43	0	322961408	60	4689
2026-01-27 13:09:05.08	247.08	19.69	-44.2	-46.8	23.8	6.06e-01	0	43	0	325058560	60	4709
2026-01-27 13:09:06.07	247.35	19.75	-44.1	-46.6	24.0	6.06e-01	0	43	0	326631424	60	4606
2026-01-27 13:09:07.07	247.62	19.80	-44.2	-46.8	23.8	6.06e-01	0	43	0	328728576	60	4730
2026-01-27 13:09:08.06	247.89	19.85	-44.3	-46.9	23.7	6.07e-01	0	44	0	330301440	60	4773
2026-01-27 13:09:09.05	248.16	19.90	-44.3	-46.9	23.7	6.07e-01	0	43	0	332398592	60	4791
2026-01-27 13:09:10.05	248.44	19.95	-44.3	-47.0	23.6	6.07e-01	0	43	0	333971456	60	4817
2026-01-27 13:09:11.05	248.72	20.00	-44.3	-46.9	23.7	6.08e-01	0	43	0	336068608	60	4782
2026-01-27 13:09:12.04	248.99	20.05	-44.3	-46.9	23.6	6.04e-01	0	43	0	337641472	60	4802
2026-01-27 13:09:13.04	249.27	20.10	-44.2	-46.7	23.8	6.06e-01	0	43	0	339738624	60	4684
2026-01-27 13:09:14.03	249.55	20.15	-44.2	-46.8	23.7	6.08e-01	0	43	0	341835776	60	4710
2026-01-27 13:09:15.03	249.83	20.20	-44.2	-46.7	23.9	6.06e-01	0	43	0	343408640	60	4679
2026-01-27 13:09:16.02	250.10	20.25	-44.2	-46.8	23.8	6.05e-01	0	43	0	345505792	60	4711
2026-01-27 13:09:17.02	250.39	20.29	-44.2	-46.8	23.8	6.06e-01	0	43	0	347078656	60	4710
2026-01-27 13:09:18.01	250.67	20.34	-44.2	-46.8	23.7	6.08e-01	0	43	0	349175808	60	4740
2026-01-27 13:09:19.01	250.95	20.39	-44.2	-46.8	23.7	6.04e-01	0	43	0	350748672	60	4759
2026-01-27 13:09:20.01	251.24	20.43	-44.3	-46.9	23.7	6.05e-01	0	43	0	352845824	60	4791
2026-01-27 13:09:21.00	251.52	20.48	-44.3	-46.9	23.7	6.07e-01	0	43	0	354418688	60	4812
2026-01-27 13:09:21.99	251.80	20.52	-44.3	-47.0	23.6	6.08e-01	0	43	0	356515840	60	4815
2026-01-27 13:09:22.99	252.09	20.56	-44.1	-46.7	23.8	6.07e-01	0	43	0	358612992	60	4667
2026-01-27 13:09:23.98	252.37	20.61	-44.2	-46.7	23.7	6.06e-01	0	43	0	360185856	60	4698
2026-01-27 13:09:24.97	252.66	20.65	-44.3	-46.9	23.7	6.05e-01	0	43	0	362283008	60	4767
2026-01-27 13:09:25.97	252.95	20.69	-44.4	-47.0	23.6	6.05e-01	0	43	0	363855872	60	4834
2026-01-27 13:09:26.96	253.24	20.73	-44.3	-46.9	23.6	6.06e-01	0	43	0	365953024	60	4811
2026-01-27 13:09:27.96	253.53	20.77	-44.3	-46.9	23.7	6.08e-01	0	44	0	367525888	60	4776
2026-01-27 13:09:28.95	253.82	20.81	-44.2	-46.9	23.7	6.09e-01	0	43	0	369623040	60	4773
2026-01-27 13:09:29.95	254.11	20.85	-44.2	-46.8	23.7	6.05e-01	0	43	0	371195904	60	4756
2026-01-27 13:09:30.94	254.40	20.89	-44.2	-46.9	23.8	6.08e-01	0	43	0	373293056	60	4760
2026-01-27 13:09:31.94	254.70	20.93	-44.4	-47.1	23.6	6.05e-01	0	43	0	375390208	60	4879
2026-01-27 13:09:32.94	254.99	20.97	-44.5	-47.1	23.6	6.08e-01	0	43	0	376963072	60	4903
2026-01-27 13:09:33.93	255.28	21.00	-44.4	-46.9	23.7	6.08e-01	0	43	0	379060224	60	4801
2026-01-27 13:09:34.93	255.58	21.04	-44.4	-46.9	23.7	6.05e-01	0	43	0	380633088	60	4809
2026-01-27 13:09:35.92	255.87	21.07	-44.4	-47.0	23.7	6.06e-01	0	43	0	382730240	60	4853
2026-01-27 13:09:36.92	256.17	21.11	-44.4	-47.0	23.6	6.06e-01	0	43	0	384303104	60	4857
2026-01-27 13:09:37.91	256.47	21.14	-44.4	-47.0	23.7	6.06e-01	0	43	0	386400256	60	4847
2026-01-27 13:09:38.91	256.77	21.17	-44.3	-46.9	23.7	6.06e-01	0	43	0	387973120	60	4801
2026-01-27 13:09:39.90	257.06	21.21	-44.2	-46.8	23.8	6.07e-01	0	43	0	390070272	60	4712
2026-01-27 13:09:40.90	257.36	21.24	-44.3	-46.9	23.7	6.06e-01	0	43	0	392167424	60	4789
2026-01-27 13:09:41.89	257.66	21.27	-44.3	-46.9	23.8	6.08e-01	0	43	0	393740288	60	4770
2026-01-27 13:09:42.89	257.96	21.30	-44.3	-46.9	23.8	6.06e-01	0	43	0	395837440	60	4771
2026-01-27 13:09:43.88	258.26	21.33	-44.2	-46.7	23.9	6.06e-01	0	43	0	397410304	60	4695
2026-01-27 13:09:44.88	258.57	21.36	-44.4	-47.0	23.7	6.04e-01	0	43	0	399507456	60	4830
2026-01-27 13:09:45.87	258.87	21.39	-44.4	-47.0	23.7	6.07e-01	0	43	0	401080320	60	4852
2026-01-27 13:09:46.87	259.17	21.41	-44.3	-46.8	23.8	6.06e-01	0	43	0	403177472	60	4744
2026-01-27 13:09:47.87	259.47	21.44	-44.3	-46.8	23.8	6.02e-01	0	43	0	405274624	60	4753
2026-01-27 13:09:48.86	259.78	21.47	-44.3	-46.8	23.9	6.05e-01	0	43	0	406847488	60	4731
2026-01-27 13:09:49.85	260.08	21.49	-44.3	-46.9	23.8	6.07e-01	0	43	0	408944640	60	4771
2026-01-27 13:09:50.85	260.39	21.52	-44.5	-47.1	23.5	6.08e-01	0	43	0	410517504	60	4909
2026-01-27 13:09:51.85	260.69	21.54	-44.5	-47.1	23.6	6.05e-01	0	43	0	412614656	60	4883
2026-01-27 13:09:52.84	261.00	21.56	-44.3	-46.9	23.7	6.05e-01	0	43	0	414187520	60	4793
2026-01-27 13:09:53.84	261.30	21.58	-44.3	-46.9	23.8	6.07e-01	0	43	0	416284672	60	4787
2026-01-27 13:09:54.84	261.61	21.61	-44.4	-47.0	23.7	6.08e-01	0	43	0	417857536	60	4819
2026-01-27 13:09:55.83	261.92	21.63	-44.3	-46.8	23.8	6.06e-01	0	43	0	419954688	60	4737
2026-01-27 13:09:56.83	262.23	21.65	-44.3	-46.9	23.7	6.09e-01	0	43	0	422051840	60	4774
2026-01-27 13:09:57.82	262.53	21.66	-44.4	-47.0	23.7	6.05e-01	0	44	0	423624704	60	4815
2026-01-27 13:09:58.81	262.84	21.68	-44.4	-47.0	23.6	6.05e-01	0	43	0	425721856	60	4846
2026-01-27 13:09:59.81	263.15	21.70	-44.4	-47.0	23.6	6.07e-01	0	43	0	427294720	60	4848
2026-01-27 13:10:00.80	263.45	21.72	-44.2	-46.8	23.8	6.07e-01	0	43	0	429391872	60	4723
2026-01-27 13:10:01.80	263.77	21.73	-44.2	-46.8	23.7	6.06e-01	0	43	0	430964736	60	4744
2026-01-27 13:10:02.79	264.07	21.75	-44.3	-46.8	23.7	6.09e-01	0	43	0	433061888	60	4727
2026-01-27 13:10:03.79	264.38	21.76	-44.3	-46.8	23.7	6.06e-01	0	44	0	434634752	60	4746
2026-01-27 13:10:04.78	264.69	21.77	-44.4	-46.9	23.7	6.05e-01	0	43	0	436731904	60	4803
2026-01-27 13:10:05.78	265.00	21.79	-44.4	-47.0	23.7	6.07e-01	0	43	0	438829056	60	4819
2026-01-27 13:10:06.77	265.31	21.80	-44.4	-47.0	23.8	6.07e-01	0	43	0	440401920	60	4819
2026-01-27 13:10:07.76	265.62	21.81	-44.1	-46.7	23.9	6.08e-01	0	43	0	442499072	60	4678
2026-01-27 13:10:08.76	265.93	21.82	-44.2	-46.8	23.8	6.07e-01	0	43	0	444071936	60	4743
2026-01-27 13:10:09.75	266.24	21.83	-44.2	-46.8	23.8	6.07e-01	0	43	0	446169088	60	4751
2026-01-27 13:10:10.75	266.56	21.84	-44.4	-46.9	23.7	6.05e-01	0	43	0	447741952	60	4809
2026-01-27 13:10:11.74	266.87	21.85	-44.3	-46.8	23.7	6.07e-01	0	43	0	449839104	60	4753
2026-01-27 13:10:12.74	267.18	21.85	-44.2	-46.8	23.8	6.09e-01	0	43	0	451411968	60	4706
2026-01-27 13:10:13.73	267.49	21.86	-44.4	-46.9	23.6	6.08e-01	0	43	0	453509120	60	4809
2026-01-27 13:10:14.73	267.80	21.86	-44.3	-46.8	23.7	6.08e-01	0	43	0	455606272	60	4755
2026-01-27 13:10:15.72	268.11	21.87	-44.2	-46.8	23.7	6.06e-01	0	43	0	457179136	60	4713
2026-01-27 13:10:16.71	268.42	21.87	-44.2	-46.9	23.6	6.07e-01	0	43	0	459276288	60	4761
2026-01-27 13:10:17.71	268.74	21.87	-44.2	-46.9	23.6	6.05e-01	0	43	0	460849152	60	4765
2026-01-27 13:10:18.70	269.05	21.88	-44.4	-47.1	23.4	6.08e-01	0	43	0	462946304	60	4889
2026-01-27 13:10:19.70	269.36	21.88	-44.5	-47.1	23.4	6.07e-01	0	43	0	464519168	60	4913
2026-01-27 13:10:20.69	269.67	21.88	-44.4	-47.0	23.6	6.07e-01	0	43	0	466616320	60	4839
2026-01-27 13:10:21.69	269.98	21.88	-44.3	-46.8	23.7	6.07e-01	0	43	0	468189184	60	4759
2026-01-27 13:10:22.68	270.29	21.87	-44.5	-47.0	23.7	6.06e-01	0	44	0	470286336	59	5146
2026-01-27 13:10:23.68	270.61	21.87	-44.6	-47.2	23.5	6.05e-01	0	43	0	472383488	59	5238
2026-01-27 13:10:24.67	270.92	21.87	-44.2	-47.0	23.7	6.08e-01	0	43	0	473956352	59	5143
2026-01-27 13:10:25.67	271.23	21.87	-44.4	-47.0	23.8	6.05e-01	0	44	0	476053504	59	5107
2026-01-27 13:10:26.66	271.54	21.86	-44.3	-46.9	23.9	6.06e-01	0	43	0	477626368	59	5043
2026-01-27 13:10:27.66	271.85	21.85	-44.4	-46.9	23.8	6.05e-01	0	43	0	479723520	59	5070
2026-01-27 13:10:28.66	272.17	21.85	-43.5	-47.0	23.8	6.06e-01	0	43	0	481296384	59	5108
2026-01-27 13:10:29.65	272.48	21.84	-44.3	-46.9	23.7	6.05e-01	0	43	0	483393536	59	5097
2026-01-27 13:10:30.65	272.79	21.83	-44.4	-47.0	23.7	6.08e-01	0	43	0	484966400	59	5108
2026-01-27 13:10:31.64	273.10	21.82	-44.4	-46.9	23.8	6.09e-01	0	43	0	487063552	59	5069
2026-01-27 13:10:32.63	273.41	21.81	-44.3	-46.9	23.8	6.05e-01	0	44	0	489160704	59	5065
2026-01-27 13:10:33.63	273.72	21.80	-44.4	-47.0	23.7	6.07e-01	0	43	0	490733568	59	5121
2026-01-27 13:10:34.63	274.03	21.79	-44.2	-47.1	23.6	6.07e-01	0	43	0	492830720	59	5163
2026-01-27 13:10:35.62	274.34	21.78	-44.3	-46.9	23.6	6.07e-01	0	43	0	494403584	59	5054
2026-01-27 13:10:36.62	274.65	21.77	-44.4	-46.9	23.7	6.08e-01	0	43	0	496500736	59	5079
2026-01-27 13:10:37.61	274.96	21.75	-44.4	-46.9	23.7	6.06e-01	0	44	0	498597888	59	5073
2026-01-27 13:10:38.61	275.27	21.74	-44.3	-46.9	23.7	6.07e-01	0	43	0	500170752	59	5088
2026-01-27 13:10:39.60	275.58	21.72	-44.4	-46.9	23.7	6.06e-01	0	43	0	501743616	59	5080
2026-01-27 13:10:40.60	275.89	21.71	-44.3	-46.8	23.8	6.06e-01	0	43	0	503840768	59	5034
2026-01-27 13:10:41.59	276.19	21.69	-44.3	-46.9	23.8	6.06e-01	0	44	0	505937920	59	5056
2026-01-27 13:10:42.59	276.50	21.67	-44.4	-46.9	23.6	6.05e-01	0	43	0	507510784	59	5095
2026-01-27 13:10:43.58	276.81	21.65	-44.2	-46.8	23.9	6.08e-01	0	44	0	509607936	59	4998
2026-01-27 13:10:44.58	277.12	21.64	-44.3	-46.8	23.9	6.06e-01	0	43	0	511180800	59	5023
2026-01-27 13:10:45.57	277.42	21.62	-44.4	-46.9	23.7	6.07e-01	0	44	0	513277952	59	5098
2026-01-27 13:10:46.57	277.73	21.59	-44.3	-46.8	23.9	6.08e-01	0	43	0	515375104	59	5019
2026-01-27 13:10:47.56	278.03	21.57	-42.9	-46.8	23.8	6.07e-01	0	43	0	516947968	59	4999
2026-01-27 13:10:48.56	278.34	21.55	-44.2	-46.7	23.7	6.06e-01	0	43	0	519045120	59	4963
2026-01-27 13:10:49.55	278.64	21.53	-44.3	-46.8	23.8	6.07e-01	0	43	0	520617984	59	5031
2026-01-27 13:10:50.54	278.94	21.50	-44.2	-46.8	23.8	6.07e-01	0	43	0	522715136	59	5019
2026-01-27 13:10:51.54	279.25	21.48	-44.3	-46.7	23.8	6.05e-01	0	44	0	524288000	59	4982
2026-01-27 13:10:52.53	279.55	21.45	-44.2	-46.6	24.0	6.06e-01	0	43	0	526385152	59	4924
2026-01-27 13:10:53.53	279.86	21.43	-44.4	-46.8	23.9	6.07e-01	0	43	0	527958016	59	5040
2026-01-27 13:10:54.52	280.16	21.40	-44.3	-46.8	23.8	6.05e-01	0	43	0	530055168	59	5038
2026-01-27 13:10:55.52	280.46	21.37	-44.3	-46.8	23.9	6.06e-01	0	43	0	532152320	59	5006
2026-01-27 13:10:56.51	280.76	21.34	-44.2	-46.8	23.9	6.05e-01	0	43	0	533725184	59	4994
2026-01-27 13:10:57.51	281.06	21.31	-44.2	-46.7	23.9	6.06e-01	0	43	0	535822336	59	4959
2026-01-27 13:10:58.50	281.36	21.28	-44.2	-46.7	24.0	6.07e-01	0	44	0	537395200	59	4943
2026-01-27 13:10:59.50	281.66	21.25	-44.3	-46.8	23.9	6.06e-01	0	44	0	539492352	59	5015
2026-01-27 13:11:00.49	281.96	21.22	-44.4	-46.9	23.6	6.07e-01	0	44	0	541065216	59	5060
2026-01-27 13:11:01.48	282.25	21.19	-44.2	-46.7	23.8	6.04e-01	0	43	0	543162368	59	4950
2026-01-27 13:11:02.48	282.55	21.16	-44.2	-46.7	24.0	6.07e-01	0	44	0	544735232	58	5231
2026-01-27 13:11:03.47	282.85	21.13	-44.2	-46.7	24.0	6.08e-01	0	43	0	546832384	59	4936
2026-01-27 13:11:04.47	283.14	21.09	-44.3	-46.8	23.9	6.06e-01	0	43	0	548929536	59	5012
2026-01-27 13:11:05.46	283.44	21.06	-44.3	-46.8	23.9	6.04e-01	0	43	0	550502400	59	5011
2026-01-27 13:11:06.46	283.73	21.02	-44.5	-47.0	23.8	6.07e-01	0	43	0	552599552	59	5108
2026-01-27 13:11:07.45	284.03	20.99	-44.4	-47.0	23.7	6.06e-01	0	43	0	554172416	59	5124
2026-01-27 13:11:08.45	284.32	20.95	-44.5	-47.1	23.4	6.07e-01	0	43	0	556269568	60	4884
2026-01-27 13:11:09.44	284.61	20.91	-44.2	-46.8	23.8	6.07e-01	0	43	0	557842432	60	4721
2026-01-27 13:11:10.44	284.90	20.87	-44.2	-46.7	24.0	6.07e-01	0	44	0	559939584	59	4947
2026-01-27 13:11:11.43	285.19	20.83	-44.1	-46.6	24.0	6.07e-01	0	44	0	561512448	59	4921
2026-01-27 13:11:12.43	285.48	20.79	-44.1	-46.7	23.9	6.06e-01	0	43	0	563609600	59	4965
2026-01-27 13:11:13.42	285.77	20.75	-44.2	-46.7	24.0	6.08e-01	0	43	0	565706752	59	4927
2026-01-27 13:11:14.42	286.06	20.71	-44.1	-46.5	24.0	6.07e-01	0	43	0	567279616	58	5155
2026-01-27 13:11:15.41	286.35	20.67	-44.0	-46.5	23.4	6.08e-01	0	44	0	569376768	58	5117
2026-01-27 13:11:16.41	286.64	20.63	-44.1	-46.5	24.1	6.09e-01	0	43	0	570949632	58	5155
2026-01-27 13:11:17.40	286.92	20.59	-44.2	-46.7	24.0	6.07e-01	0	44	0	573046784	59	4953
2026-01-27 13:11:18.39	287.21	20.55	-44.2	-46.8	23.9	6.06e-01	0	43	0	574619648	59	5007
2026-01-27 13:11:19.39	287.49	20.50	-44.2	-46.7	24.0	6.08e-01	0	43	0	576716800	59	4942
2026-01-27 13:11:20.39	287.78	20.46	-44.0	-46.4	24.2	6.04e-01	0	44	0	578289664	58	5089
2026-01-27 13:11:21.38	288.06	20.41	-44.0	-46.5	24.1	6.04e-01	0	43	0	580386816	58	5156
2026-01-27 13:11:22.37	288.34	20.37	-44.1	-46.6	24.1	6.05e-01	0	43	0	582483968	58	5164
2026-01-27 13:11:23.37	288.62	20.32	-44.0	-46.5	24.1	6.09e-01	0	43	0	584056832	58	5129
2026-01-27 13:11:24.36	288.90	20.28	-44.1	-46.6	24.1	6.06e-01	0	44	0	586153984	58	5185
2026-01-27 13:11:25.36	289.18	20.23	-44.0	-46.6	19.5	6.07e-01	0	43	0	587726848	58	5172
2026-01-27 13:11:26.35	289.46	20.18	-44.1	-46.6	24.0	6.04e-01	0	44	0	589824000	58	5196
2026-01-27 13:11:27.35	289.74	20.13	-43.8	-46.5	24.2	6.06e-01	0	43	0	591396864	58	5125
2026-01-27 13:11:28.34	290.01	20.08	-44.0	-46.5	24.2	6.05e-01	0	44	0	593494016	58	5141
2026-01-27 13:11:29.34	290.29	20.03	-44.1	-46.6	24.1	6.06e-01	0	43	0	595066880	58	5176
2026-01-27 13:11:30.33	290.56	19.98	-44.1	-46.6	24.1	6.07e-01	0	44	0	597164032	59	4925
2026-01-27 13:11:31.33	290.84	19.93	-44.2	-46.7	24.0	6.08e-01	0	44	0	599261184	59	4952
2026-01-27 13:11:32.32	291.11	19.88	-44.1	-46.6	24.1	6.05e-01	0	44	0	600834048	58	5164
2026-01-27 13:11:33.32	291.38	19.83	-44.0	-46.5	24.0	6.05e-01	0	43	0	602931200	58	5142
2026-01-27 13:11:34.32	291.65	19.78	-35.0	-46.9	23.4	6.07e-01	0	43	0	604504064	58	5388
2026-01-27 13:11:35.31	291.92	19.73	-43.8	-46.5	24.2	6.05e-01	0	43	0	606601216	58	5108
2026-01-27 13:11:36.30	292.19	19.68	-43.8	-46.4	24.3	6.06e-01	0	44	0	608174080	58	5061
2026-01-27 13:11:37.30	292.46	19.62	-43.8	-46.3	24.3	6.06e-01	0	43	0	610271232	58	5039
2026-01-27 13:11:38.29	292.72	19.57	-43.8	-46.4	24.3	6.06e-01	0	43	0	611844096	58	5055
2026-01-27 13:11:39.29	292.99	19.51	-44.0	-46.5	24.2	6.06e-01	0	43	0	613941248	58	5157
2026-01-27 13:11:40.28	293.25	19.46	-44.0	-46.6	24.1	6.06e-01	0	44	0	616038400	58	5175
2026-01-27 13:11:41.28	293.52	19.41	-44.0	-46.5	24.0	6.08e-01	0	44	0	617611264	58	5115
2026-01-27 13:11:42.27	293.78	19.35	-44.5	-46.8	24.0	6.07e-01	0	43	0	619708416	58	5338
2026-01-27 13:11:43.26	294.04	19.29	-43.9	-46.4	24.3	6.06e-01	0	43	0	621281280	58	5068
2026-01-27 13:11:44.26	294.30	19.24	-44.1	-46.6	24.1	6.08e-01	0	44	0	623378432	58	5165
2026-01-27 13:11:45.26	294.56	19.18	-44.0	-46.5	24.2	6.05e-01	0	43	0	624951296	58	5133
2026-01-27 13:11:46.25	294.82	19.12	-44.1	-46.6	24.1	6.09e-01	0	44	0	627048448	58	5165
2026-01-27 13:11:47.24	295.08	19.07	-44.0	-46.5	24.2	6.06e-01	0	44	0	628621312	58	5135
2026-01-27 13:11:48.24	295.34	19.01	-43.9	-46.4	24.3	6.06e-01	0	44	0	630718464	58	5058
2026-01-27 13:11:49.24	295.59	18.95	-44.0	-46.5	24.0	6.07e-01	0	44	0	632815616	58	5133
2026-01-27 13:11:50.23	295.85	18.89	-43.6	-46.5	24.2	6.05e-01	0	44	0	634388480	58	5101
2026-01-27 13:11:51.23	296.10	18.83	-44.0	-46.6	24.1	6.04e-01	0	44	0	636485632	58	5167
2026-01-27 13:11:52.22	296.36	18.77	-44.1	-46.6	23.1	6.08e-01	0	43	0	638058496	58	5202
2026-01-27 13:11:53.22	296.61	18.71	-44.0	-46.5	24.2	6.07e-01	0	44	0	640155648	58	5128
2026-01-27 13:11:54.21	296.86	18.65	-44.1	-46.6	23.7	6.05e-01	0	44	0	641728512	58	5190
2026-01-27 13:11:55.21	297.11	18.59	-44.0	-46.5	24.1	6.07e-01	0	44	0	643825664	58	5156
2026-01-27 13:11:56.20	297.36	18.53	-44.0	-46.5	24.0	6.05e-01	0	44	0	645398528	58	5117
2026-01-27 13:11:57.20	297.61	18.47	-44.0	-46.5	24.2	6.06e-01	0	43	0	647495680	58	5109
2026-01-27 13:11:58.19	297.85	18.41	-43.9	-46.4	24.2	6.05e-01	0	43	0	649592832	58	5059
2026-01-27 13:11:59.19	298.10	18.35	-43.9	-46.4	24.2	6.08e-01	0	43	0	651165696	58	5078
2026-01-27 13:12:00.18	298.34	18.29	-43.9	-46.4	24.2	6.06e-01	0	44	0	653262848	58	5071
2026-01-27 13:12:01.17	298.58	18.22	-44.0	-46.5	24.1	6.05e-01	0	44	0	654835712	58	5155
2026-01-27 13:12:02.17	298.83	18.16	-44.0	-46.5	24.1	6.05e-01	0	44	0	656932864	57	5421
2026-01-27 13:12:03.16	299.07	18.10	-43.9	-46.5	24.1	6.06e-01	0	44	0	658505728	58	5112
2026-01-27 13:12:04.16	299.31	18.03	-43.9	-46.5	24.0	6.08e-01	0	44	0	660602880	58	5137
2026-01-27 13:12:05.16	299.55	17.97	-44.1	-46.6	24.0	6.06e-01	0	44	0	662175744	58	5175
2026-01-27 13:12:06.15	299.79	17.91	-43.8	-46.5	24.1	6.07e-01	0	44	0	664272896	58	5133
2026-01-27 13:12:07.15	300.02	17.84	-44.1	-46.6	24.0	6.06e-01	0	44	0	666370048	58	5191
2026-01-27 13:12:08.14	300.26	17.78	-44.1	-46.6	24.1	6.06e-01	0	44	0	667942912	58	5183
2026-01-27 13:12:09.14	300.50	17.71	-44.0	-46.5	24.1	6.08e-01	0	44	0	670040064	58	5145
2026-01-27 13:12:10.13	300.73	17.65	-43.9	-46.4	24.2	6.07e-01	0	43	0	671612928	58	5061
2026-01-27 13:12:11.13	300.96	17.58	-43.9	-46.4	24.2	6.06e-01	0	43	0	673710080	58	5074
2026-01-27 13:12:12.12	301.19	17.52	-44.0	-46.5	24.1	6.06e-01	0	43	0	675282944	58	5152
2026-01-27 13:12:13.11	301.42	17.45	-44.0	-46.5	24.0	6.07e-01	0	43	0	677380096	58	5155
2026-01-27 13:12:14.11	301.65	17.39	-44.2	-46.7	23.9	6.07e-01	0	43	0	678952960	58	5241
2026-01-27 13:12:15.10	301.88	17.32	-44.0	-46.5	23.9	6.04e-01	0	43	0	681050112	58	5156
2026-01-27 13:12:16.10	302.11	17.25	-44.0	-46.5	24.1	6.10e-01	0	43	0	683147264	58	5139
2026-01-27 13:12:17.09	302.34	17.19	-44.5	-56.1	3.9	7.43e-01	0	43	104	683147264	59	14703
2026-01-27 13:12:18.09	302.56	17.12	-44.5	-56.2	3.7	7.48e-01	0	43	104	683147264	59	14863
2026-01-27 13:12:19.08	302.79	17.05	-44.5	-56.0	3.9	7.44e-01	0	43	104	683147264	59	14523
2026-01-27 13:12:20.08	303.01	16.99	-44.5	-56.4	3.7	7.51e-01	0	43	104	683147264	59	15131
2026-01-27 13:12:21.07	303.23	16.92	-45.3	-57.3	3.7	7.45e-01	0	43	104	683147264	61	15039
2026-01-27 13:12:22.06	303.45	16.85	-51.1	-68.2	3.7	7.47e-01	0	44	104	683147264	72	27909
2026-01-27 13:12:23.06	303.68	16.78	-48.3	-61.9	3.8	7.50e-01	0	44	104	683147264	67	18051
2026-01-27 13:12:24.05	303.89	16.72	-47.9	-60.7	3.7	7.45e-01	0	43	104	683147264	66	16689
2026-01-27 13:12:25.05	304.11	16.65	-47.6	-60.5	3.9	7.41e-01	0	44	104	683147264	65	17119
2026-01-27 13:12:26.04	304.33	16.58	-47.8	-60.9	3.9	7.46e-01	0	43	104	683147264	66	16903
2026-01-27 13:12:27.04	304.55	16.51	-47.9	-61.0	3.8	7.46e-01	0	44	104	683147264	66	17243
2026-01-27 13:12:28.03	304.76	16.44	-47.4	-60.3	3.8	7.43e-01	0	43	104	683147264	65	16838
2026-01-27 13:12:29.03	304.98	16.38	-47.8	-60.7	3.9	7.40e-01	0	43	104	683147264	66	16645
2026-01-27 13:12:30.02	305.19	16.31	-45.4	-57.3	3.4	7.61e-01	0	43	104	683147264	62	14181
2026-01-27 13:12:31.02	305.40	16.24	-51.0	-68.1	3.7	7.48e-01	0	43	104	683147264	72	27611
2026-01-27 13:12:32.01	305.61	16.17	-48.2	-61.4	3.8	7.34e-01	0	44	104	683147264	67	16912
2026-01-27 13:12:33.01	305.82	16.10	-47.0	-59.5	3.9	7.47e-01	0	43	104	683147264	64	16307
2026-01-27 13:12:34.00	306.03	16.03	-46.0	-57.9	4.1	7.38e-01	0	43	104	683147264	61	16023
2026-01-27 13:12:35.00	306.24	15.96	-46.0	-58.1	4.1	7.35e-01	0	43	104	683147264	62	15446
2026-01-27 13:12:36.00	306.45	15.89	-45.3	-57.1	3.5	7.44e-01	0	43	104	683147264	61	14691
2026-01-27 13:12:36.99	306.65	15.82	-45.1	-57.0	3.9	7.44e-01	0	43	104	683147264	61	14475
2026-01-27 13:12:37.98	306.86	15.75	-44.8	-56.8	3.8	7.48e-01	0	43	104	683147264	60	14934
2026-01-27 13:12:38.98	307.06	15.68	-45.4	-57.6	3.8	7.42e-01	0	43	104	683147264	61	15509
2026-01-27 13:12:39.98	307.27	15.61	-49.7	-67.8	3.8	7.46e-01	0	43	104	683147264	72	26484
2026-01-27 13:12:40.97	307.47	15.54	-50.1	-65.4	3.8	7.49e-01	0	44	104	683147264	70	22532
2026-01-27 13:12:41.97	307.67	15.47	-51.2	-69.9	3.8	7.51e-01	0	43	104	683147264	73	32079
2026-01-27 13:12:42.96	307.87	15.40	-47.6	-65.3	3.8	7.42e-01	0	44	104	683147264	70	22492
2026-01-27 13:12:43.96	308.07	15.33	-49.8	-64.5	3.8	7.46e-01	0	43	104	683147264	70	20380
2026-01-27 13:12:44.95	308.27	15.26	-49.9	-64.9	3.9	7.51e-01	0	43	104	683147264	70	21289
2026-01-27 13:12:45.95	308.47	15.19	-49.9	-64.4	3.8	7.46e-01	0	43	104	683147264	70	20232
2026-01-27 13:12:46.94	308.66	15.12	-50.0	-64.5	3.8	7.43e-01	0	43	104	683147264	70	20437
2026-01-27 13:12:47.93	308.86	15.05	-51.1	-67.9	3.8	7.46e-01	0	44	104	683147264	72	27047
2026-01-27 13:12:48.93	309.05	14.98	-45.6	-58.0	3.8	7.48e-01	0	44	104	683147264	63	14513
2026-01-27 13:12:49.92	309.24	14.91	-47.6	-61.4	3.8	7.45e-01	0	44	104	683147264	66	17986
2026-01-27 13:12:50.92	309.44	14.84	-46.5	-59.3	3.8	7.46e-01	0	43	104	683147264	63	16815
2026-01-27 13:12:51.91	309.63	14.77	-45.1	-57.4	3.8	7.46e-01	0	44	104	683147264	60	15977
2026-01-27 13:12:52.91	309.82	14.69	-45.5	-58.0	3.8	7.48e-01	0	44	104	683147264	61	16253
2026-01-27 13:12:53.90	310.01	14.62	-44.9	-57.1	3.8	7.47e-01	0	43	104	683147264	60	15498
2026-01-27 13:12:54.89	310.20	14.55	-44.7	-56.7	3.8	7.43e-01	0	44	104	683147264	60	14812
2026-01-27 13:12:55.89	310.39	14.48	-44.9	-57.0	3.8	7.48e-01	0	43	104	683147264	60	15254
2026-01-27 13:12:56.88	310.57	14.41	-44.9	-57.1	3.8	7.47e-01	0	43	104	683147264	60	15514
2026-01-27 13:12:57.88	310.76	14.34	-50.0	-67.2	3.8	7.47e-01	0	44	104	683147264	70	27823
2026-01-27 13:12:58.87	310.94	14.27	-47.9	-61.6	3.8	7.47e-01	0	43	104	683147264	66	18363
2026-01-27 13:12:59.87	311.13	14.20	-47.0	-59.7	3.8	7.46e-01	0	44	104	683147264	64	16622
2026-01-27 13:13:00.86	311.31	14.13	-45.6	-57.9	3.8	7.45e-01	0	43	104	683147264	61	16058
2026-01-27 13:13:01.86	311.49	14.06	-45.5	-57.9	3.8	7.47e-01	0	43	104	683147264	61	16085
2026-01-27 13:13:02.85	311.67	13.98	-45.9	-58.4	3.8	7.46e-01	0	44	104	683147264	62	16098
2026-01-27 13:13:03.85	311.85	13.91	-45.8	-58.2	3.8	7.47e-01	0	44	104	683147264	62	15630
2026-01-27 13:13:04.84	312.03	13.84	-45.3	-57.6	3.8	7.45e-01	0	44	104	683147264	61	15411
2026-01-27 13:13:05.83	312.21	13.77	-44.9	-57.2	3.8	7.46e-01	0	44	104	683147264	60	15637
2026-01-27 13:13:06.83	312.39	13.70	-50.3	-66.7	3.7	7.44e-01	0	43	104	683147264	71	24755
2026-01-27 13:13:07.82	312.56	13.63	-47.5	-61.4	3.8	7.45e-01	0	44	104	683147264	67	16997
2026-01-27 13:13:08.82	312.74	13.56	-46.2	-58.8	3.8	7.46e-01	0	44	104	683147264	62	16780
2026-01-27 13:13:09.81	312.92	13.49	-43.5	-57.1	3.8	7.47e-01	0	43	104	683147264	60	15561
2026-01-27 13:13:10.81	313.09	13.41	-45.2	-57.4	3.8	7.43e-01	0	44	104	683147264	61	15072
2026-01-27 13:13:11.80	313.26	13.34	-45.6	-57.9	3.8	7.48e-01	0	43	104	683147264	61	16024
2026-01-27 13:13:12.80	313.44	13.27	-45.3	-58.1	3.9	7.41e-01	0	43	104	683147264	61	16336
2026-01-27 13:13:13.79	313.61	13.20	-45.2	-57.5	3.8	7.42e-01	0	44	104	683147264	61	15280
2026-01-27 13:13:14.78	313.78	13.13	-45.1	-57.3	3.8	7.50e-01	0	43	104	683147264	60	15833
2026-01-27 13:13:15.78	313.95	13.06	-50.2	-66.5	3.8	7.49e-01	0	43	104	683147264	71	24172
2026-01-27 13:13:16.77	314.11	12.99	-48.0	-61.7	3.8	7.47e-01	0	44	104	683147264	67	17630
2026-01-27 13:13:17.77	314.28	12.92	-46.5	-60.3	3.8	7.47e-01	0	43	104	683147264	64	17765
2026-01-27 13:13:18.76	314.45	12.84	-45.2	-58.8	3.8	7.44e-01	0	44	104	683147264	62	16762
2026-01-27 13:13:19.76	314.62	12.77	-46.2	-58.7	3.8	7.48e-01	0	43	104	683147264	63	15614
2026-01-27 13:13:20.75	314.78	12.70	-46.2	-58.8	3.8	7.45e-01	0	43	104	683147264	63	15883
2026-01-27 13:13:21.74	314.95	12.63	-46.2	-58.7	3.8	7.44e-01	0	44	104	683147264	62	16682
2026-01-27 13:13:22.74	315.11	12.56	-37.1	-59.2	3.8	7.43e-01	0	44	104	683147264	63	16663
2026-01-27 13:13:23.74	315.27	12.49	-45.6	-57.8	3.9	7.46e-01	0	43	104	683147264	61	15831
2026-01-27 13:13:24.73	315.44	12.42	-49.8	-65.4	3.8	7.47e-01	0	43	104	683147264	70	22523
2026-01-27 13:13:25.73	315.60	12.35	-47.9	-61.2	3.9	7.46e-01	0	44	104	683147264	66	17657
2026-01-27 13:13:26.72	315.76	12.28	-45.9	-58.5	3.8	7.43e-01	0	43	104	683147264	62	16310
2026-01-27 13:13:27.71	315.92	12.21	-45.4	-58.0	3.8	7.44e-01	0	44	104	683147264	62	15368
2026-01-27 13:13:28.71	316.08	12.13	-45.3	-57.6	3.8	7.48e-01	0	44	104	683147264	60	16315
2026-01-27 13:13:29.70	316.23	12.06	-45.1	-57.6	3.8	7.46e-01	0	43	104	683147264	60	16324
2026-01-27 13:13:30.70	316.39	11.99	-44.8	-57.4	3.8	7.42e-01	0	44	104	683147264	60	16061
2026-01-27 13:13:31.69	316.55	11.92	-44.5	-56.8	3.8	7.44e-01	0	44	104	683147264	59	15847
2026-01-27 13:13:32.68	316.70	11.85	-44.5	-57.0	3.8	7.46e-01	0	43	104	683147264	59	16196
2026-01-27 13:13:33.68	316.86	11.78	-46.5	-60.5	3.8	7.46e-01	0	43	104	683147264	63	19311
2026-01-27 13:13:34.67	317.01	11.71	-47.4	-61.7	4.0	7.43e-01	0	44	104	683147264	65	19636
2026-01-27 13:13:35.67	317.17	11.64	-49.7	-67.2	3.8	7.54e-01	0	44	104	683147264	69	29571
2026-01-27 13:13:36.66	317.32	11.57	-50.4	-70.2	3.8	7.42e-01	0	43	104	683147264	71	37271
2026-01-27 13:13:37.66	317.47	11.50	-50.8	-70.7	3.8	7.46e-01	0	43	104	683147264	72	37373
2026-01-27 13:13:38.66	317.62	11.43	-51.2	-70.6	4.0	7.47e-01	0	44	104	683147264	72	36881
2026-01-27 13:13:39.65	317.77	11.36	-51.3	-70.6	3.9	7.44e-01	0	44	104	683147264	73	34584
2026-01-27 13:13:40.65	317.92	11.29	-51.2	-69.5	3.8	7.44e-01	0	44	104	683147264	72	32406
2026-01-27 13:13:41.64	318.07	11.22	-51.0	-68.9	3.9	7.45e-01	0	44	104	683147264	72	30057
2026-01-27 13:13:42.64	318.22	11.15	-48.2	-61.8	3.9	7.46e-01	0	44	104	683147264	66	18877
2026-01-27 13:13:43.63	318.37	11.08	-47.0	-60.3	3.8	7.45e-01	0	44	104	683147264	66	15768
2026-01-27 13:13:44.63	318.52	11.01	-48.6	-63.2	3.7	7.42e-01	0	44	104	683147264	68	19720
2026-01-27 13:13:45.62	318.66	10.94	-47.6	-61.2	3.9	7.45e-01	0	44	104	683147264	66	17558
2026-01-27 13:13:46.62	318.81	10.87	-45.9	-58.7	3.8	7.45e-01	0	43	104	683147264	62	16629
2026-01-27 13:13:47.61	318.95	10.80	-45.8	-58.3	3.8	7.47e-01	0	44	104	683147264	61	16856
2026-01-27 13:13:48.61	319.09	10.73	-45.6	-58.4	3.8	7.43e-01	0	44	104	683147264	61	17033
2026-01-27 13:13:49.60	319.24	10.66	-45.7	-58.6	3.8	7.42e-01	0	44	104	683147264	62	16433
2026-01-27 13:13:50.60	319.38	10.59	-45.6	-58.4	3.8	7.47e-01	0	44	104	683147264	62	16085
2026-01-27 13:13:51.59	319.52	10.52	-46.4	-62.7	3.8	7.45e-01	0	44	104	683147264	66	20938
2026-01-27 13:13:52.59	319.66	10.45	-48.4	-65.8	3.9	7.52e-01	0	44	104	683147264	68	26691
2026-01-27 13:13:53.59	319.80	10.38	-49.5	-68.6	3.8	7.49e-01	0	44	104	683147264	70	32909
2026-01-27 13:13:54.58	319.94	10.31	-49.5	-68.3	4.0	7.44e-01	0	44	104	683147264	69	33602
2026-01-27 13:13:55.57	320.08	10.24	-49.1	-66.2	3.8	7.48e-01	0	43	104	683147264	69	26451
2026-01-27 13:13:56.57	320.22	10.17	-46.4	-66.1	3.8	7.41e-01	0	44	104	683147264	68	27698
2026-01-27 13:13:57.56	320.36	10.11	-48.4	-65.9	3.8	7.44e-01	0	44	104	683147264	68	27003
2026-01-27 13:13:58.56	320.49	10.04	-48.7	-66.6	3.9	7.45e-01	0	44	104	683147264	68	29025
2026-01-27 13:13:59.56	320.63	9.97	-48.4	-65.3	3.9	7.40e-01	0	44	104	683147264	67	26643
2026-01-27 13:14:00.55	320.77	9.90	-47.7	-62.8	3.9	7.45e-01	0	44	104	683147264	67	19970
2026-01-27 13:14:01.55	320.90	9.83	-46.7	-60.1	3.8	7.45e-01	0	44	104	683147264	64	17378
2026-01-27 13:14:02.54	321.04	9.76	-45.8	-58.6	3.8	7.48e-01	0	44	104	683147264	63	15447
2026-01-27 13:14:03.53	321.17	9.69	-44.8	-58.8	3.9	7.42e-01	0	44	104	683147264	63	15876
2026-01-27 13:14:04.53	321.30	9.63	-44.6	-58.3	3.8	7.48e-01	0	44	104	683147264	62	15764
2026-01-27 13:14:05.53	321.43	9.56	-45.6	-58.4	3.8	7.47e-01	0	44	104	683147264	62	15951
2026-01-27 13:14:06.52	321.57	9.49	-45.5	-58.3	3.8	7.43e-01	0	44	104	683147264	62	15767
2026-01-27 13:14:07.52	321.70	9.42	-46.0	-58.7	3.8	7.45e-01	0	44	104	683147264	62	16617
2026-01-27 13:14:08.51	321.83	9.35	-45.8	-58.7	4.0	7.48e-01	0	44	104	683147264	62	16658
2026-01-27 13:14:09.50	321.96	9.29	-47.6	-61.1	3.7	7.47e-01	0	44	104	683147264	65	18450
2026-01-27 13:14:10.50	322.09	9.22	-48.9	-64.2	3.9	7.44e-01	0	44	104	683147264	68	22013
2026-01-27 13:14:11.49	322.21	9.15	-46.0	-58.8	3.9	7.42e-01	0	44	104	683147264	63	15881
2026-01-27 13:14:12.49	322.34	9.08	-46.4	-59.5	3.8	7.45e-01	0	44	104	683147264	63	17096
2026-01-27 13:14:13.48	322.47	9.01	-47.1	-60.4	3.8	7.48e-01	0	44	104	683147264	64	18020
2026-01-27 13:14:14.48	322.60	8.95	-49.8	-71.5	3.8	7.43e-01	0	44	104	683147264	70	45945
2026-01-27 13:14:15.47	322.72	8.88	-50.6	-71.5	3.8	7.42e-01	0	44	104	683147264	71	43040
2026-01-27 13:14:16.46	322.85	8.81	-50.5	-72.5	3.6	7.37e-01	0	44	104	683147264	72	45964
2026-01-27 13:14:17.46	322.97	8.74	-50.5	-71.4	3.9	7.45e-01	0	44	104	683147264	71	42730
2026-01-27 13:14:18.45	323.09	8.68	-50.4	-68.6	3.9	7.45e-01	0	44	104	683147264	72	29028
2026-01-27 13:14:19.44	323.22	8.61	-50.7	-71.1	3.8	7.46e-01	0	44	104	683147264	73	36616
2026-01-27 13:14:20.44	323.34	8.54	-51.2	-71.0	3.7	7.44e-01	0	44	104	683147264	72	38352
2026-01-27 13:14:21.43	323.46	8.48	-51.3	-70.5	3.8	7.50e-01	0	44	104	683147264	70	40805
2026-01-27 13:14:22.42	323.58	8.41	-50.2	-71.5	3.8	7.48e-01	0	44	104	683147264	72	40662
2026-01-27 13:14:23.41	323.70	8.34	-51.1	-71.5	3.8	7.46e-01	0	44	104	683147264	73	38561
2026-01-27 13:14:24.41	323.83	8.28	-51.3	-71.5	3.8	7.44e-01	0	44	104	683147264	73	38655
2026-01-27 13:14:25.40	323.94	8.21	-50.8	-71.6	3.8	7.47e-01	0	44	104	683147264	72	41107
2026-01-27 13:14:26.39	324.06	8.15	-49.9	-71.3	3.8	7.45e-01	0	44	104	683147264	71	42270
2026-01-27 13:14:27.38	324.18	8.08	-50.7	-71.2	4.0	7.44e-01	0	44	104	683147264	71	41811
2026-01-27 13:14:28.38	324.30	8.01	-50.6	-71.5	3.8	7.50e-01	0	44	104	683147264	72	40957
2026-01-27 13:14:29.37	324.42	7.95	-50.7	-71.6	3.8	7.47e-01	0	44	104	683147264	72	41048
2026-01-27 13:14:30.36	324.53	7.88	-50.5	-71.6	3.8	7.46e-01	0	44	104	683147264	72	41057
2026-01-27 13:14:31.36	324.65	7.82	-50.7	-71.6	3.8	7.48e-01	0	44	104	683147264	72	41054
2026-01-27 13:14:32.35	324.77	7.75	-48.7	-71.0	3.9	7.50e-01	0	44	104	683147264	69	45494
2026-01-27 13:14:33.34	324.88	7.68	-50.6	-71.4	3.7	7.59e-01	0	44	104	683147264	64	63959
2026-01-27 13:14:34.34	325.00	7.62	-50.7	-71.6	3.8	7.47e-01	0	44	104	683147264	72	41015
2026-01-27 13:14:35.33	325.11	7.55	-50.5	-71.5	3.9	7.47e-01	0	44	104	683147264	72	40951
2026-01-27 13:14:36.32	325.23	7.49	-50.6	-71.6	3.8	7.50e-01	0	44	104	683147264	72	41100
2026-01-27 13:14:37.31	325.34	7.42	-50.3	-71.4	3.8	7.46e-01	0	44	104	683147264	71	42607
2026-01-27 13:14:38.31	325.45	7.36	-44.1	-70.8	3.8	7.48e-01	0	44	104	683147264	70	42057
2026-01-27 13:14:39.30	325.56	7.29	-50.7	-71.6	3.8	7.47e-01	0	44	104	683147264	72	41098
2026-01-27 13:14:40.29	325.68	7.23	-48.1	-71.7	3.8	7.48e-01	0	44	104	683147264	72	41892
2026-01-27 13:14:41.28	325.79	7.16	-50.5	-71.6	3.8	7.43e-01	0	44	104	683147264	72	41037
2026-01-27 13:14:42.28	325.90	7.10	-50.7	-71.6	3.9	7.45e-01	0	44	104	683147264	72	41084
2026-01-27 13:14:43.27	326.01	7.03	-48.8	-71.1	3.7	7.44e-01	0	44	104	683147264	71	41324
2026-01-27 13:14:44.26	326.12	6.97	-50.6	-71.7	3.9	7.43e-01	0	44	104	683147264	72	41524
2026-01-27 13:14:45.26	326.23	6.91	-50.4	-71.3	3.9	7.48e-01	0	44	104	683147264	71	42312
2026-01-27 13:14:46.25	326.33	6.84	-50.4	-71.6	3.8	7.46e-01	0	44	104	683147264	72	41122
2026-01-27 13:14:47.24	326.44	6.78	-50.6	-71.6	3.8	7.42e-01	0	44	104	683147264	72	41043
2026-01-27 13:14:48.23	326.55	6.71	-50.7	-71.3	3.8	7.43e-01	0	44	104	683147264	71	42017
2026-01-27 13:14:49.23	326.66	6.65	-47.9	-71.5	3.7	7.45e-01	0	44	104	683147264	71	43165
2026-01-27 13:14:50.22	326.76	6.59	-50.6	-71.8	3.7	7.43e-01	0	44	104	683147264	72	42375
2026-01-27 13:14:51.21	326.87	6.52	-50.6	-71.5	3.8	7.48e-01	0	44	104	683147264	72	40922
2026-01-27 13:14:52.21	326.98	6.46	-50.7	-71.5	3.8	7.46e-01	0	44	104	683147264	72	40945
2026-01-27 13:14:53.20	327.08	6.39	-49.7	-71.5	3.8	7.47e-01	0	44	104	683147264	72	40910
2026-01-27 13:14:54.19	327.19	6.33	-48.7	-71.7	3.9	7.51e-01	0	44	104	683147264	71	44411
2026-01-27 13:14:55.19	327.29	6.27	-49.9	-71.5	3.8	7.44e-01	0	44	104	683147264	72	40874
2026-01-27 13:14:56.18	327.39	6.20	-50.6	-71.6	3.8	7.45e-01	0	44	104	683147264	72	41004
2026-01-27 13:14:57.17	327.50	6.14	-50.6	-71.5	3.8	7.46e-01	0	44	104	683147264	72	40957
2026-01-27 13:14:58.16	327.60	6.08	-50.3	-71.5	3.8	7.47e-01	0	44	104	683147264	72	40879
2026-01-27 13:14:59.16	327.70	6.02	-47.9	-72.1	3.9	7.52e-01	0	43	104	683147264	71	46380
2026-01-27 13:15:00.15	327.80	5.95	-49.3	-71.9	3.8	7.50e-01	0	44	104	683147264	70	47618
2026-01-27 13:15:01.14	327.90	5.89	-50.3	-71.5	3.8	7.48e-01	0	44	104	683147264	72	40805
2026-01-27 13:15:02.13	328.01	5.83	-50.5	-71.5	3.8	7.49e-01	0	44	104	683147264	72	40957
2026-01-27 13:15:03.13	328.11	5.76	-50.7	-71.0	3.8	7.45e-01	0	44	104	683147264	70	43064
2026-01-27 13:15:04.12	328.21	5.70	-50.5	-71.5	3.8	7.44e-01	0	44	104	683147264	72	40896
2026-01-27 13:15:05.11	328.31	5.64	-50.3	-71.6	3.9	7.44e-01	0	44	104	683147264	72	40991
2026-01-27 13:15:06.11	328.41	5.58	-50.7	-71.9	3.9	7.50e-01	0	44	104	683147264	72	42514
2026-01-27 13:15:07.10	328.50	5.52	-50.6	-71.5	3.9	7.46e-01	0	44	104	683147264	72	40888
2026-01-27 13:15:08.09	328.60	5.45	-50.7	-71.5	3.8	7.48e-01	0	44	104	683147264	72	40781
2026-01-27 13:15:09.09	328.70	5.39	-50.4	-71.5	3.8	7.46e-01	0	44	104	683147264	72	40919
2026-01-27 13:15:10.08	328.80	5.33	-50.5	-71.6	3.7	7.42e-01	0	44	104	683147264	72	41185
2026-01-27 13:15:11.07	328.89	5.27	-49.2	-71.1	3.7	7.46e-01	0	44	104	683147264	70	43636
2026-01-27 13:15:12.06	328.99	5.21	-50.5	-71.5	3.8	7.48e-01	0	44	104	683147264	72	40917
2026-01-27 13:15:13.06	329.09	5.14	-50.7	-71.6	3.8	7.45e-01	0	44	104	683147264	72	40996
2026-01-27 13:15:14.05	329.18	5.08	-50.6	-71.5	3.8	7.45e-01	0	44	104	683147264	72	40871
2026-01-27 13:15:15.04	329.28	5.02	-50.5	-71.6	3.6	7.44e-01	0	44	104	683147264	71	43829
2026-01-27 13:15:16.03	329.37	4.96	-50.6	-71.5	3.8	7.46e-01	0	44	104	683147264	72	40845

#Closed at: 2026-01-27 13:15:17
#Recorded file [683 MB]: D:/Data/31040_260127_160528.dat