passes_logs/2026/01/27/T1/T1__20260127_204211_FENGYUN_3G_rec.log

#Pass ID: 20260127_204211_FENGYUN 3G
#Satellite: FENGYUN 3G
#Configuration: FENGYUN 3G
#almurnet v.1.7.20251203
#Start time: 2026-01-27 20:42:12

#Version: 2.0.20230620
#Station: T1
#Location: 37.570604 lon 55.790049 lat
#TLE: 1 56232U 23055A   26026.81668957  .00042566  00000+0  63804-3 0  9995
#TLE: 2 56232  49.9949 354.9274 0004068  91.1881 268.9553 15.54453119158037

#Time	Az	El	Level	Level2	SNR	BER	BlckErr	Temp	State	Recorded	gain1	gain2
2026-01-27 20:42:12.36	255.85	5.07	-50.4	-69.5	3.8	8.48e-01	0	40	0	0	71	34428
2026-01-27 20:42:13.35	255.69	5.13	-50.5	-69.5	3.8	8.38e-01	0	40	104	0	72	32534
2026-01-27 20:42:14.34	255.53	5.19	-50.7	-69.5	3.8	8.47e-01	0	40	104	0	72	32449
2026-01-27 20:42:15.33	255.37	5.25	-50.5	-69.5	3.8	8.46e-01	0	40	104	0	72	32287
2026-01-27 20:42:16.32	255.21	5.31	-50.5	-69.5	3.8	8.46e-01	0	40	104	0	72	32334
2026-01-27 20:42:17.32	255.05	5.37	-50.5	-69.5	3.8	8.48e-01	0	40	104	0	72	32287
2026-01-27 20:42:18.31	254.89	5.43	-50.6	-69.4	3.8	8.48e-01	0	40	104	0	72	32134
2026-01-27 20:42:19.30	254.73	5.49	-50.6	-69.4	3.8	8.48e-01	0	40	104	0	72	32119
2026-01-27 20:42:20.30	254.56	5.55	-50.5	-69.4	3.8	8.47e-01	0	40	104	0	72	32169
2026-01-27 20:42:21.29	254.40	5.61	-50.5	-69.4	3.8	8.47e-01	0	40	104	0	72	32069
2026-01-27 20:42:22.28	254.23	5.66	-50.2	-69.4	3.8	8.47e-01	0	40	104	0	72	31887
2026-01-27 20:42:23.27	254.07	5.72	-50.4	-69.3	3.8	8.46e-01	0	40	104	0	72	31772
2026-01-27 20:42:24.27	253.90	5.78	-50.3	-69.3	3.8	8.46e-01	0	40	104	0	72	31612
2026-01-27 20:42:25.26	253.73	5.84	-50.3	-69.2	3.8	8.46e-01	0	40	104	0	72	31358
2026-01-27 20:42:26.25	253.56	5.90	-50.3	-69.2	3.8	8.46e-01	0	40	104	0	72	31137
2026-01-27 20:42:27.25	253.39	5.96	-50.1	-69.1	3.8	8.48e-01	0	40	104	0	72	30906
2026-01-27 20:42:28.24	253.22	6.02	-49.5	-69.0	3.8	8.48e-01	0	40	104	0	71	32349
2026-01-27 20:42:29.23	253.04	6.08	-49.9	-68.9	3.8	8.47e-01	0	40	104	0	70	33738
2026-01-27 20:42:30.22	252.87	6.14	-49.9	-68.8	3.8	8.46e-01	0	40	104	0	70	33565
2026-01-27 20:42:31.22	252.69	6.20	-49.9	-68.9	3.8	8.46e-01	0	40	104	0	70	33714
2026-01-27 20:42:32.21	252.52	6.26	-49.9	-68.8	3.8	8.46e-01	0	40	104	0	70	33636
2026-01-27 20:42:33.20	252.34	6.32	-49.9	-68.8	3.8	8.46e-01	0	40	104	0	70	33625
2026-01-27 20:42:34.20	252.16	6.38	-49.9	-68.8	3.8	8.46e-01	0	40	104	0	70	33554
2026-01-27 20:42:35.19	251.98	6.44	-49.9	-68.9	3.8	8.46e-01	0	41	104	0	70	33704
2026-01-27 20:42:36.18	251.81	6.50	-49.9	-68.8	3.8	8.46e-01	0	41	104	0	70	33581
2026-01-27 20:42:37.17	251.62	6.56	-49.9	-68.8	3.8	8.46e-01	0	40	104	0	70	33613
2026-01-27 20:42:38.17	251.44	6.62	-49.9	-68.8	3.8	8.46e-01	0	41	104	0	70	33559
2026-01-27 20:42:39.16	251.26	6.68	-49.9	-68.8	3.8	8.47e-01	0	41	104	0	70	33585
2026-01-27 20:42:40.15	251.08	6.74	-49.9	-68.8	3.8	8.47e-01	0	41	104	0	70	33562
2026-01-27 20:42:41.15	250.89	6.80	-49.9	-68.8	3.8	8.47e-01	0	40	104	0	70	33603
2026-01-27 20:42:42.14	250.70	6.86	-49.9	-68.8	3.8	8.47e-01	0	40	104	0	70	33528
2026-01-27 20:42:43.13	250.52	6.92	-49.9	-68.8	3.8	8.46e-01	0	41	104	0	70	33576
2026-01-27 20:42:44.12	250.33	6.98	-49.9	-68.8	3.8	8.46e-01	0	41	104	0	70	33536
2026-01-27 20:42:45.12	250.14	7.04	-49.9	-68.8	3.8	8.47e-01	0	41	104	0	70	33525
2026-01-27 20:42:46.11	249.95	7.10	-49.9	-68.8	3.8	8.46e-01	0	41	104	0	70	33551
2026-01-27 20:42:47.10	249.76	7.16	-49.9	-68.8	3.8	8.46e-01	0	41	104	0	70	33547
2026-01-27 20:42:48.10	249.56	7.22	-49.8	-68.8	3.8	8.46e-01	0	41	104	0	70	33508
2026-01-27 20:42:49.09	249.37	7.28	-49.9	-68.8	3.8	8.47e-01	0	41	104	0	70	33486
2026-01-27 20:42:50.08	249.17	7.34	-49.9	-68.8	3.8	8.47e-01	0	41	104	0	70	33441
2026-01-27 20:42:51.08	248.97	7.40	-49.9	-68.8	3.8	8.46e-01	0	41	104	0	70	33522
2026-01-27 20:42:52.07	248.78	7.46	-49.8	-68.8	3.8	8.47e-01	0	41	104	0	70	33534
2026-01-27 20:42:53.06	248.58	7.52	-49.9	-68.8	3.8	8.46e-01	0	41	104	0	70	33447
2026-01-27 20:42:54.06	248.38	7.58	-49.9	-68.8	3.8	8.46e-01	0	41	104	0	70	33442
2026-01-27 20:42:55.05	248.18	7.64	-49.8	-68.8	3.8	8.47e-01	0	41	104	0	70	33471
2026-01-27 20:42:56.04	247.98	7.70	-49.8	-68.8	3.8	8.48e-01	0	41	104	0	70	33466
2026-01-27 20:42:57.03	247.77	7.76	-49.9	-68.8	3.8	8.48e-01	0	41	104	0	70	33508
2026-01-27 20:42:58.03	247.57	7.82	-49.8	-68.8	3.8	8.46e-01	0	41	104	0	70	33445
2026-01-27 20:42:59.02	247.36	7.88	-49.8	-68.8	3.8	8.46e-01	0	41	104	0	70	33435
2026-01-27 20:43:00.01	247.16	7.94	-49.9	-68.8	3.8	8.46e-01	0	41	104	0	70	33420
2026-01-27 20:43:01.01	246.95	8.00	-49.9	-68.8	3.8	8.47e-01	0	41	104	0	70	33364
2026-01-27 20:43:02.00	246.74	8.06	-49.8	-68.8	3.8	8.47e-01	0	41	104	0	70	33474
2026-01-27 20:43:02.99	246.53	8.12	-49.8	-68.8	3.8	8.47e-01	0	41	104	0	70	33389
2026-01-27 20:43:03.99	246.32	8.18	-49.8	-68.8	3.8	8.46e-01	0	41	104	0	70	33361
2026-01-27 20:43:04.98	246.10	8.24	-49.8	-68.8	3.8	8.46e-01	0	41	104	0	70	33482
2026-01-27 20:43:05.97	245.89	8.30	-49.9	-68.8	3.8	8.46e-01	0	41	104	0	70	33415
2026-01-27 20:43:06.97	245.67	8.36	-49.9	-68.8	3.8	8.46e-01	0	41	104	0	70	33407
2026-01-27 20:43:07.96	245.46	8.42	-49.8	-68.8	3.8	8.47e-01	0	41	104	0	70	33451
2026-01-27 20:43:08.95	245.24	8.47	-49.8	-68.8	3.8	8.47e-01	0	41	104	0	70	33420
2026-01-27 20:43:09.94	245.02	8.53	-49.9	-68.8	3.8	8.47e-01	0	41	104	0	70	33352
2026-01-27 20:43:10.94	244.80	8.59	-49.9	-68.8	3.8	8.46e-01	0	41	104	0	70	33354
2026-01-27 20:43:11.93	244.58	8.65	-49.8	-68.8	3.8	8.46e-01	0	41	104	0	70	33444
2026-01-27 20:43:12.92	244.36	8.71	-49.8	-68.8	3.8	8.48e-01	0	41	104	0	70	33330
2026-01-27 20:43:13.92	244.13	8.77	-49.8	-68.8	3.8	8.47e-01	0	41	104	0	70	33418
2026-01-27 20:43:14.91	243.91	8.83	-49.8	-68.8	3.8	8.47e-01	0	41	104	0	70	33382
2026-01-27 20:43:15.90	243.68	8.88	-49.8	-68.8	3.8	8.47e-01	0	41	104	0	70	33340
2026-01-27 20:43:16.89	243.46	8.94	-49.8	-68.8	3.8	8.47e-01	0	41	104	0	70	33329
2026-01-27 20:43:17.89	243.23	9.00	-49.8	-68.8	3.8	8.47e-01	0	41	104	0	70	33360
2026-01-27 20:43:18.88	243.00	9.06	-49.8	-68.8	3.8	8.47e-01	0	41	104	0	70	33496
2026-01-27 20:43:19.87	242.77	9.12	-49.8	-68.8	3.8	8.48e-01	0	41	104	0	70	33469
2026-01-27 20:43:20.87	242.53	9.17	-49.8	-68.8	3.8	8.48e-01	0	41	104	0	70	33443
2026-01-27 20:43:21.86	242.30	9.23	-49.8	-68.8	3.8	8.48e-01	0	41	104	0	70	33425
2026-01-27 20:43:22.85	242.06	9.29	-49.6	-68.8	3.8	8.48e-01	0	41	104	0	70	33460
2026-01-27 20:43:23.84	241.83	9.34	-49.7	-68.8	3.8	8.47e-01	0	41	104	0	70	33486
2026-01-27 20:43:24.84	241.59	9.40	-49.7	-68.8	3.8	8.47e-01	0	41	104	0	70	33368
2026-01-27 20:43:25.83	241.35	9.46	-49.6	-68.8	3.8	8.47e-01	0	41	104	0	70	33512
2026-01-27 20:43:26.82	241.11	9.51	-49.6	-68.8	3.8	8.47e-01	0	41	104	0	70	33439
2026-01-27 20:43:27.81	240.87	9.57	-49.7	-68.8	3.8	8.47e-01	0	41	104	0	70	33593
2026-01-27 20:43:28.81	240.63	9.63	-49.6	-68.8	3.8	8.47e-01	0	41	104	0	70	33364
2026-01-27 20:43:29.80	240.38	9.68	-49.8	-68.8	3.8	8.48e-01	0	41	104	0	70	33568
2026-01-27 20:43:30.79	240.14	9.74	-49.8	-68.8	3.8	8.48e-01	0	41	104	0	70	33499
2026-01-27 20:43:31.79	239.89	9.79	-49.9	-68.8	3.8	8.46e-01	0	41	104	0	70	33477
2026-01-27 20:43:32.78	239.64	9.85	-49.9	-68.8	3.8	8.46e-01	0	41	104	0	70	33471
2026-01-27 20:43:33.77	239.40	9.91	-49.9	-68.8	3.8	8.46e-01	0	41	104	0	70	33660
2026-01-27 20:43:34.76	239.15	9.96	-49.9	-68.8	3.8	8.47e-01	0	41	104	0	70	33529
2026-01-27 20:43:35.76	238.89	10.02	-49.7	-68.8	3.8	8.48e-01	0	41	104	0	70	33530
2026-01-27 20:43:36.75	238.64	10.07	-49.7	-68.8	3.8	8.48e-01	0	41	104	0	70	33407
2026-01-27 20:43:37.74	238.39	10.12	-49.7	-68.8	3.8	8.47e-01	0	41	104	0	70	33611
2026-01-27 20:43:38.74	238.13	10.18	-49.8	-68.8	3.8	8.46e-01	0	41	104	0	70	33596
2026-01-27 20:43:39.73	237.87	10.23	-49.7	-68.8	3.8	8.46e-01	0	41	104	0	70	33545
2026-01-27 20:43:40.72	237.62	10.28	-49.8	-68.8	3.8	8.46e-01	0	41	104	0	70	33483
2026-01-27 20:43:41.71	237.36	10.34	-49.7	-68.8	3.8	8.46e-01	0	41	104	0	70	33675
2026-01-27 20:43:42.71	237.10	10.39	-49.8	-68.8	3.8	8.48e-01	0	41	104	0	70	33654
2026-01-27 20:43:43.70	236.83	10.44	-49.8	-68.8	3.8	8.48e-01	0	41	104	0	70	33593
2026-01-27 20:43:44.69	236.57	10.50	-49.8	-68.8	3.8	8.47e-01	0	41	104	0	70	33600
2026-01-27 20:43:45.69	236.31	10.55	-49.8	-68.9	3.8	8.47e-01	0	41	104	0	70	33806
2026-01-27 20:43:46.68	236.04	10.60	-49.8	-68.8	3.8	8.47e-01	0	41	104	0	70	33677
2026-01-27 20:43:47.67	235.77	10.65	-49.7	-68.8	3.8	8.47e-01	0	41	104	0	70	33661
2026-01-27 20:43:48.66	235.51	10.70	-49.7	-68.8	3.8	8.48e-01	0	42	104	0	70	33591
2026-01-27 20:43:49.66	235.24	10.75	-49.7	-68.9	3.8	8.48e-01	0	41	104	0	70	33850
2026-01-27 20:43:50.65	234.97	10.80	-49.8	-68.9	3.8	8.48e-01	0	41	104	0	70	33728
2026-01-27 20:43:51.64	234.69	10.85	-49.7	-68.9	3.8	8.46e-01	0	41	104	0	70	33785
2026-01-27 20:43:52.64	234.42	10.91	-49.7	-68.8	3.8	8.46e-01	0	41	104	0	70	33686
2026-01-27 20:43:53.63	234.14	10.95	-49.6	-68.9	3.8	8.46e-01	0	41	104	0	70	33754
2026-01-27 20:43:54.62	233.87	11.00	-49.6	-68.9	3.8	8.48e-01	0	41	104	0	70	33735
2026-01-27 20:43:55.61	233.59	11.05	-49.6	-68.8	3.8	8.48e-01	0	41	104	0	70	33676
2026-01-27 20:43:56.61	233.31	11.10	-49.6	-68.9	3.8	8.47e-01	0	41	104	0	70	33707
2026-01-27 20:43:57.60	233.03	11.15	-49.7	-68.8	3.8	8.47e-01	0	42	104	0	70	33691
2026-01-27 20:43:58.60	232.75	11.20	-49.7	-68.9	3.8	8.47e-01	0	41	104	0	70	33806
2026-01-27 20:43:59.59	232.47	11.24	-49.8	-68.9	3.8	8.47e-01	0	41	104	0	70	33794
2026-01-27 20:44:00.58	232.19	11.29	-49.7	-68.9	3.8	8.46e-01	0	41	104	0	70	33708
2026-01-27 20:44:01.57	231.90	11.34	-49.7	-68.9	3.8	8.46e-01	0	41	104	0	70	33706
2026-01-27 20:44:02.57	231.62	11.38	-49.7	-68.9	3.8	8.46e-01	0	42	104	0	70	33708
2026-01-27 20:44:03.56	231.33	11.43	-49.9	-68.9	3.8	8.46e-01	0	41	104	0	70	33751
2026-01-27 20:44:04.55	231.04	11.48	-49.7	-68.9	3.8	8.47e-01	0	41	104	0	70	33696
2026-01-27 20:44:05.55	230.75	11.52	-49.7	-68.9	3.8	8.47e-01	0	41	104	0	70	33874
2026-01-27 20:44:06.54	230.46	11.56	-49.8	-68.9	3.8	8.46e-01	0	42	104	0	70	33767
2026-01-27 20:44:07.53	230.17	11.61	-49.9	-68.9	3.8	8.47e-01	0	41	104	0	70	33744
2026-01-27 20:44:08.53	229.88	11.65	-49.9	-68.9	3.8	8.47e-01	0	42	104	0	70	33733
2026-01-27 20:44:09.52	229.58	11.70	-49.9	-68.9	3.8	8.47e-01	0	41	104	0	70	33861
2026-01-27 20:44:10.51	229.29	11.74	-50.0	-68.9	3.8	8.46e-01	0	42	104	0	70	33864
2026-01-27 20:44:11.51	228.99	11.78	-49.8	-68.9	3.8	8.46e-01	0	42	104	0	70	33811
2026-01-27 20:44:12.50	228.69	11.82	-49.8	-68.9	3.8	8.46e-01	0	42	104	0	70	33861
2026-01-27 20:44:13.49	228.40	11.86	-49.9	-68.9	3.8	8.47e-01	0	42	104	0	70	33813
2026-01-27 20:44:14.49	228.10	11.90	-49.7	-68.9	3.8	8.47e-01	0	42	104	0	70	33917
2026-01-27 20:44:15.48	227.80	11.94	-49.6	-68.9	3.8	8.47e-01	0	42	104	0	70	33838
2026-01-27 20:44:16.47	227.49	11.98	-49.8	-68.9	3.8	8.47e-01	0	41	104	0	70	33822
2026-01-27 20:44:17.46	227.19	12.02	-49.8	-68.9	3.8	8.47e-01	0	41	104	0	70	33881
2026-01-27 20:44:18.46	226.89	12.06	-49.8	-68.9	3.8	8.47e-01	0	42	104	0	70	33922
2026-01-27 20:44:19.45	226.58	12.10	-50.0	-68.9	3.8	8.47e-01	0	41	104	0	70	33785
2026-01-27 20:44:20.44	226.28	12.14	-49.9	-68.9	3.8	8.47e-01	0	42	104	0	70	33943
2026-01-27 20:44:21.44	225.97	12.17	-50.0	-68.9	3.8	8.48e-01	0	41	104	0	70	33983
2026-01-27 20:44:22.43	225.66	12.21	-49.9	-68.9	3.8	8.48e-01	0	41	104	0	70	33906
2026-01-27 20:44:23.42	225.35	12.25	-49.9	-68.9	3.8	8.48e-01	0	41	104	0	70	33842
2026-01-27 20:44:24.42	225.04	12.28	-50.0	-68.9	3.8	8.48e-01	0	41	104	0	70	33901
2026-01-27 20:44:25.41	224.73	12.32	-50.0	-68.9	3.8	8.46e-01	0	41	104	0	70	33816
2026-01-27 20:44:26.40	224.42	12.35	-50.0	-68.9	3.8	8.46e-01	0	41	104	0	70	34018
2026-01-27 20:44:27.39	224.11	12.38	-49.9	-68.9	3.8	8.46e-01	0	41	104	0	70	33719
2026-01-27 20:44:28.39	223.79	12.42	-50.0	-68.9	3.8	8.48e-01	0	41	104	0	70	33959
2026-01-27 20:44:29.38	223.48	12.45	-50.0	-68.9	3.8	8.46e-01	0	42	104	0	70	33789
2026-01-27 20:44:30.37	223.16	12.48	-49.9	-68.9	3.8	8.46e-01	0	42	104	0	70	34010
2026-01-27 20:44:31.37	222.84	12.51	-49.8	-68.9	3.8	8.47e-01	0	42	104	0	70	33886
2026-01-27 20:44:32.36	222.53	12.54	-49.8	-68.9	3.8	8.47e-01	0	42	104	0	70	33948
2026-01-27 20:44:33.35	222.21	12.57	-49.8	-68.9	3.8	8.47e-01	0	42	104	0	70	33872
2026-01-27 20:44:34.34	221.89	12.60	-49.9	-68.9	3.8	8.47e-01	0	41	104	0	70	33988
2026-01-27 20:44:35.34	221.57	12.63	-49.8	-68.9	3.8	8.47e-01	0	41	104	0	70	33897
2026-01-27 20:44:36.33	221.25	12.66	-49.8	-68.9	3.8	8.47e-01	0	42	104	0	70	33889
2026-01-27 20:44:37.32	220.93	12.69	-49.8	-68.9	3.8	8.47e-01	0	41	104	0	70	34016
2026-01-27 20:44:38.31	220.60	12.71	-49.9	-68.9	3.8	8.46e-01	0	42	104	0	70	33954
2026-01-27 20:44:39.31	220.28	12.74	-49.9	-68.9	3.8	8.46e-01	0	41	104	0	70	33953
2026-01-27 20:44:40.30	219.96	12.77	-49.9	-68.9	3.8	8.47e-01	0	42	104	0	70	33970
2026-01-27 20:44:41.29	219.63	12.79	-49.9	-68.9	3.8	8.45e-01	0	42	104	0	70	33959
2026-01-27 20:44:42.29	219.30	12.81	-49.9	-68.9	3.8	8.45e-01	0	42	104	0	70	34006
2026-01-27 20:44:43.28	218.98	12.84	-49.9	-68.9	3.8	8.47e-01	0	42	104	0	70	33978
2026-01-27 20:44:44.27	218.65	12.86	-49.7	-68.9	3.8	8.47e-01	0	42	104	0	70	33981
2026-01-27 20:44:45.27	218.32	12.88	-49.8	-68.9	3.8	8.47e-01	0	42	104	0	70	33977
2026-01-27 20:44:46.26	218.00	12.90	-49.7	-68.9	3.8	8.47e-01	0	42	104	0	70	34025
2026-01-27 20:44:47.25	217.67	12.92	-49.7	-68.9	3.8	8.46e-01	0	42	104	0	70	34017
2026-01-27 20:44:48.25	217.34	12.94	-49.8	-68.9	3.8	8.46e-01	0	42	104	0	70	34004
2026-01-27 20:44:49.24	217.01	12.96	-49.7	-68.9	3.8	8.46e-01	0	41	104	0	70	33899
2026-01-27 20:44:50.23	216.68	12.98	-49.8	-68.9	3.8	8.46e-01	0	42	104	0	70	34080
2026-01-27 20:44:51.23	216.34	13.00	-49.9	-68.9	3.8	8.45e-01	0	42	104	0	70	33955
2026-01-27 20:44:52.22	216.01	13.02	-49.9	-68.9	3.8	8.45e-01	0	42	104	0	70	33968
2026-01-27 20:44:53.21	215.68	13.03	-49.9	-68.9	3.8	8.46e-01	0	42	104	0	70	34014
2026-01-27 20:44:54.20	215.35	13.05	-49.9	-68.9	3.8	8.47e-01	0	42	104	0	70	33960
2026-01-27 20:44:55.20	215.02	13.06	-49.8	-68.9	3.8	8.47e-01	0	42	104	0	70	33897
2026-01-27 20:44:56.19	214.68	13.08	-49.7	-68.9	3.8	8.47e-01	0	41	104	0	70	33851
2026-01-27 20:44:57.18	214.35	13.09	-49.8	-68.9	3.8	8.46e-01	0	42	104	0	70	34026
2026-01-27 20:44:58.18	214.01	13.10	-49.7	-68.9	3.8	8.46e-01	0	42	104	0	70	33921
2026-01-27 20:44:59.17	213.68	13.11	-49.7	-68.9	3.8	8.46e-01	0	41	104	0	70	33996
2026-01-27 20:45:00.16	213.35	13.12	-49.9	-68.9	3.8	8.47e-01	0	41	104	0	70	33846
2026-01-27 20:45:01.15	213.01	13.13	-49.8	-68.9	3.8	8.47e-01	0	42	104	0	70	34003
2026-01-27 20:45:02.15	212.67	13.14	-49.8	-68.9	3.8	8.47e-01	0	42	104	0	70	33948
2026-01-27 20:45:03.14	212.34	13.15	-49.9	-68.9	3.8	8.47e-01	0	42	104	0	70	33865
2026-01-27 20:45:04.13	212.00	13.16	-49.7	-68.9	3.8	8.47e-01	0	42	104	0	70	33894
2026-01-27 20:45:05.13	211.67	13.17	-49.8	-68.9	3.8	8.47e-01	0	42	104	0	70	33803
2026-01-27 20:45:06.12	211.33	13.17	-49.8	-68.9	3.8	8.47e-01	0	42	104	0	70	34050
2026-01-27 20:45:07.11	210.99	13.18	-49.9	-68.9	3.8	8.48e-01	0	42	104	0	70	33724
2026-01-27 20:45:08.11	210.66	13.18	-49.6	-68.9	3.8	8.48e-01	0	42	104	0	70	33931
2026-01-27 20:45:09.10	210.32	13.19	-49.7	-68.9	3.8	8.47e-01	0	42	104	0	70	33800
2026-01-27 20:45:10.09	209.98	13.19	-49.8	-68.9	3.8	8.47e-01	0	41	104	0	70	33993
2026-01-27 20:45:11.08	209.65	13.19	-49.8	-68.9	3.8	8.47e-01	0	42	104	0	70	33804
2026-01-27 20:45:12.08	209.31	13.19	-49.9	-68.9	3.8	8.48e-01	0	42	104	0	70	33979
2026-01-27 20:45:13.07	208.97	13.20	-49.9	-68.9	3.8	8.47e-01	0	42	104	0	70	33940
2026-01-27 20:45:14.06	208.63	13.20	-50.0	-68.9	3.8	8.47e-01	0	42	104	0	70	34036
2026-01-27 20:45:15.05	208.30	13.19	-49.8	-68.9	3.8	8.48e-01	0	42	104	0	70	33976
2026-01-27 20:45:16.05	207.96	13.19	-49.7	-68.9	3.8	8.47e-01	0	42	104	0	70	33928
2026-01-27 20:45:17.04	207.62	13.19	-49.7	-68.9	3.8	8.47e-01	0	42	104	0	70	33913
2026-01-27 20:45:18.03	207.29	13.19	-49.9	-68.9	3.8	8.47e-01	0	42	104	0	70	34017
2026-01-27 20:45:19.03	206.95	13.18	-49.5	-68.9	3.8	8.48e-01	0	42	104	0	70	33955
2026-01-27 20:45:20.02	206.61	13.18	-49.4	-68.9	3.8	8.48e-01	0	42	104	0	70	34013
2026-01-27 20:45:21.01	206.27	13.17	-49.5	-68.9	3.8	8.47e-01	0	42	104	0	70	33945
2026-01-27 20:45:22.01	205.94	13.17	-49.6	-68.9	3.8	8.47e-01	0	42	104	0	70	34066
2026-01-27 20:45:23.00	205.60	13.16	-49.5	-68.9	3.8	8.47e-01	0	42	104	0	70	33946
2026-01-27 20:45:23.99	205.26	13.15	-49.6	-68.9	3.8	8.47e-01	0	42	104	0	70	34027
2026-01-27 20:45:24.98	204.93	13.15	-49.7	-68.9	3.8	8.46e-01	0	41	104	0	70	34013
2026-01-27 20:45:25.98	204.59	13.14	-49.7	-69.0	3.8	8.46e-01	0	42	104	0	70	34094
2026-01-27 20:45:26.97	204.26	13.13	-49.5	-68.9	3.8	8.47e-01	0	42	104	0	70	33916
2026-01-27 20:45:27.96	203.92	13.12	-49.5	-68.9	3.8	8.47e-01	0	42	104	0	70	34025
2026-01-27 20:45:28.96	203.59	13.10	-49.5	-68.9	3.8	8.47e-01	0	42	104	0	70	34010
2026-01-27 20:45:29.95	203.25	13.09	-49.6	-69.0	3.8	8.46e-01	0	42	104	0	70	34232
2026-01-27 20:45:30.94	202.92	13.08	-49.4	-68.9	3.8	8.47e-01	0	42	104	0	70	33971
2026-01-27 20:45:31.94	202.58	13.06	-49.4	-68.9	3.8	8.48e-01	0	42	104	0	70	33958
2026-01-27 20:45:32.93	202.25	13.05	-49.5	-68.9	3.8	8.48e-01	0	42	104	0	70	34022
2026-01-27 20:45:33.92	201.92	13.04	-49.6	-69.0	3.8	8.47e-01	0	42	104	0	70	34100
2026-01-27 20:45:34.91	201.59	13.02	-49.4	-68.9	3.8	8.47e-01	0	42	104	0	70	33959
2026-01-27 20:45:35.91	201.25	13.00	-49.5	-68.9	3.8	8.47e-01	0	42	104	0	70	34003
2026-01-27 20:45:36.90	200.92	12.99	-49.6	-68.9	3.8	8.47e-01	0	42	104	0	70	33956
2026-01-27 20:45:37.89	200.59	12.97	-49.7	-69.0	3.8	8.47e-01	0	41	104	0	70	34137
2026-01-27 20:45:38.88	200.26	12.95	-49.3	-68.9	3.8	8.47e-01	0	42	104	0	70	33857
2026-01-27 20:45:39.88	199.93	12.93	-49.5	-68.9	3.8	8.46e-01	0	41	104	0	70	33964
2026-01-27 20:45:40.87	199.60	12.91	-49.5	-68.9	3.8	8.47e-01	0	42	104	0	70	33906
2026-01-27 20:45:41.86	199.27	12.89	-49.5	-69.0	3.8	8.47e-01	0	42	104	0	70	34176
2026-01-27 20:45:42.86	198.94	12.87	-49.2	-68.9	3.8	8.47e-01	0	42	104	0	70	34015
2026-01-27 20:45:43.85	198.62	12.84	-49.2	-68.9	3.8	8.48e-01	0	42	104	0	70	33929
2026-01-27 20:45:44.84	198.29	12.82	-49.2	-68.9	3.8	8.48e-01	0	42	104	0	70	33989
2026-01-27 20:45:45.84	197.96	12.80	-49.5	-69.0	3.8	8.47e-01	0	41	104	0	70	34096
2026-01-27 20:45:46.83	197.64	12.77	-49.2	-68.9	3.8	8.47e-01	0	41	104	0	70	33945
2026-01-27 20:45:47.82	197.31	12.75	-49.5	-68.9	3.8	8.47e-01	0	41	104	0	70	34037
2026-01-27 20:45:48.81	196.99	12.72	-49.5	-68.9	3.8	8.47e-01	0	41	104	0	70	33904
2026-01-27 20:45:49.81	196.67	12.69	-49.6	-68.9	3.8	8.48e-01	0	41	104	0	70	34000
2026-01-27 20:45:50.80	196.34	12.67	-49.5	-68.9	3.8	8.48e-01	0	42	104	0	70	33970
2026-01-27 20:45:51.79	196.02	12.64	-49.4	-68.9	3.8	8.47e-01	0	41	104	0	70	33993
2026-01-27 20:45:52.78	195.70	12.61	-49.5	-68.9	3.8	8.46e-01	0	42	104	0	70	33938
2026-01-27 20:45:53.78	195.38	12.58	-49.4	-68.9	3.8	8.47e-01	0	41	104	0	70	33739
2026-01-27 20:45:54.77	195.06	12.55	-49.2	-68.9	3.8	8.47e-01	0	41	104	0	70	33881
2026-01-27 20:45:55.76	194.74	12.52	-49.2	-68.8	3.8	8.46e-01	0	42	104	0	70	33629
2026-01-27 20:45:56.76	194.42	12.49	-49.2	-68.9	3.8	8.46e-01	0	42	104	0	70	33706
2026-01-27 20:45:57.75	194.11	12.46	-49.2	-68.9	3.8	8.46e-01	0	42	104	0	70	33718
2026-01-27 20:45:58.74	193.79	12.43	-49.3	-68.9	3.8	8.46e-01	0	42	104	0	70	33808
2026-01-27 20:45:59.74	193.48	12.39	-49.3	-68.8	3.8	8.46e-01	0	42	104	0	70	33589
2026-01-27 20:46:00.73	193.16	12.36	-49.2	-68.8	3.8	8.46e-01	0	42	104	0	70	33425
2026-01-27 20:46:01.72	192.85	12.32	-49.4	-68.9	3.8	8.47e-01	0	42	104	0	70	33701
2026-01-27 20:46:02.72	192.54	12.29	-49.3	-68.8	3.8	8.47e-01	0	42	104	0	70	33495
2026-01-27 20:46:03.71	192.23	12.25	-49.1	-68.8	3.8	8.47e-01	0	42	104	0	70	33642
2026-01-27 20:46:04.70	191.92	12.22	-49.2	-68.8	3.8	8.47e-01	0	42	104	0	70	33630
2026-01-27 20:46:05.69	191.61	12.18	-49.2	-68.9	3.8	8.47e-01	0	42	104	0	70	33958
2026-01-27 20:46:06.69	191.30	12.15	-48.9	-68.8	3.8	8.47e-01	0	42	104	0	69	35549
2026-01-27 20:46:07.68	190.99	12.11	-49.1	-68.8	3.8	8.46e-01	0	42	104	0	69	35624
2026-01-27 20:46:08.67	190.69	12.07	-49.0	-68.9	3.8	8.48e-01	0	42	104	0	69	35695
2026-01-27 20:46:09.67	190.38	12.03	-49.0	-68.9	3.8	8.48e-01	0	42	104	0	69	35938
2026-01-27 20:46:10.66	190.08	11.99	-49.1	-68.8	3.8	8.47e-01	0	42	104	0	69	35655
2026-01-27 20:46:11.65	189.78	11.95	-49.2	-68.9	3.8	8.47e-01	0	42	104	0	69	35724
2026-01-27 20:46:12.64	189.48	11.91	-49.2	-68.9	3.8	8.47e-01	0	42	104	0	69	35772
2026-01-27 20:46:13.64	189.17	11.87	-49.3	-68.9	3.8	8.48e-01	0	42	104	0	69	35946
2026-01-27 20:46:14.63	188.87	11.83	-49.4	-68.9	3.8	8.48e-01	0	42	104	0	69	35734
2026-01-27 20:46:15.62	188.58	11.79	-49.4	-68.8	3.8	8.46e-01	0	42	104	0	69	35651
2026-01-27 20:46:16.62	188.28	11.75	-49.4	-68.9	3.8	8.46e-01	0	42	104	0	69	35720
2026-01-27 20:46:17.61	187.98	11.70	-49.4	-68.9	3.8	8.47e-01	0	41	104	0	69	35783
2026-01-27 20:46:18.60	187.69	11.66	-49.4	-68.9	3.8	8.46e-01	0	42	104	0	69	35703
2026-01-27 20:46:19.59	187.39	11.62	-49.5	-68.8	3.8	8.46e-01	0	42	104	0	69	35642
2026-01-27 20:46:20.59	187.10	11.57	-49.4	-68.8	3.8	8.46e-01	0	42	104	0	69	35638
2026-01-27 20:46:21.58	186.81	11.53	-49.4	-68.9	3.8	8.47e-01	0	42	104	0	69	35743
2026-01-27 20:46:22.57	186.52	11.48	-49.5	-68.8	3.8	8.47e-01	0	42	104	0	69	35592
2026-01-27 20:46:23.56	186.23	11.44	-49.4	-68.8	3.8	8.46e-01	0	41	104	0	69	35676
2026-01-27 20:46:24.56	185.94	11.39	-49.4	-68.8	3.8	8.48e-01	0	41	104	0	69	35601
2026-01-27 20:46:25.55	185.65	11.35	-49.4	-68.8	3.8	8.48e-01	0	42	104	0	69	35609
2026-01-27 20:46:26.54	185.37	11.30	-49.3	-68.9	3.8	8.48e-01	0	42	104	0	69	35712
2026-01-27 20:46:27.54	185.08	11.25	-48.9	-68.8	3.8	8.47e-01	0	42	104	0	69	35578
2026-01-27 20:46:28.53	184.80	11.21	-48.9	-68.8	3.8	8.47e-01	0	42	104	0	69	35584
2026-01-27 20:46:29.52	184.52	11.16	-49.1	-68.8	3.8	8.47e-01	0	42	104	0	69	35516
2026-01-27 20:46:30.52	184.24	11.11	-49.0	-68.8	3.8	8.46e-01	0	42	104	0	69	35490
2026-01-27 20:46:31.51	183.96	11.06	-49.0	-68.8	3.8	8.46e-01	0	41	104	0	69	35315
2026-01-27 20:46:32.50	183.68	11.01	-49.1	-68.8	3.8	8.47e-01	0	42	104	0	69	35554
2026-01-27 20:46:33.49	183.40	10.96	-49.1	-68.8	3.8	8.47e-01	0	42	104	0	69	35631
2026-01-27 20:46:34.49	183.13	10.91	-49.1	-68.8	3.8	8.47e-01	0	41	104	0	69	35576
2026-01-27 20:46:35.48	182.85	10.86	-49.3	-68.8	3.8	8.46e-01	0	42	104	0	69	35449
2026-01-27 20:46:36.47	182.58	10.81	-49.4	-68.8	3.8	8.47e-01	0	42	104	0	69	35460
2026-01-27 20:46:37.46	182.31	10.76	-49.3	-68.8	3.8	8.48e-01	0	42	104	0	69	35472
2026-01-27 20:46:38.46	182.04	10.71	-49.4	-68.9	3.8	8.48e-01	0	42	104	0	69	35719
2026-01-27 20:46:39.45	181.77	10.66	-48.9	-68.8	3.8	8.47e-01	0	42	104	0	69	35432
2026-01-27 20:46:40.44	181.50	10.61	-49.1	-68.8	3.8	8.47e-01	0	41	104	0	69	35576
2026-01-27 20:46:41.44	181.23	10.56	-49.3	-68.8	3.8	8.47e-01	0	41	104	0	69	35521
2026-01-27 20:46:42.43	180.97	10.50	-48.9	-68.8	3.8	8.46e-01	0	42	104	0	69	35690
2026-01-27 20:46:43.42	180.70	10.45	-48.6	-68.8	3.8	8.45e-01	0	41	104	0	69	35451
2026-01-27 20:46:44.42	180.44	10.40	-48.7	-68.8	3.8	8.45e-01	0	42	104	0	69	35667
2026-01-27 20:46:45.41	180.18	10.34	-48.7	-68.8	3.8	8.47e-01	0	42	104	0	69	35555
2026-01-27 20:46:46.40	179.92	10.29	-48.6	-68.8	3.8	8.47e-01	0	42	104	0	69	35647
2026-01-27 20:46:47.39	179.66	10.24	-48.5	-68.8	3.8	8.47e-01	0	41	104	0	69	35446
2026-01-27 20:46:48.39	179.40	10.18	-48.6	-68.8	3.8	8.46e-01	0	41	104	0	69	35532
2026-01-27 20:46:49.38	179.14	10.13	-48.6	-68.8	3.8	8.47e-01	0	42	104	0	69	35549
2026-01-27 20:46:50.37	178.89	10.08	-48.6	-68.8	3.8	8.47e-01	0	41	104	0	69	35453
2026-01-27 20:46:51.37	178.63	10.02	-49.1	-68.7	3.8	8.47e-01	0	42	104	0	69	35272
2026-01-27 20:46:52.36	178.38	9.97	-49.3	-68.8	3.8	8.46e-01	0	41	104	0	69	35375
2026-01-27 20:46:53.35	178.13	9.91	-48.9	-68.8	3.8	8.46e-01	0	42	104	0	69	35445
2026-01-27 20:46:54.35	177.88	9.86	-49.2	-68.8	3.8	8.46e-01	0	42	104	0	69	35581
2026-01-27 20:46:55.34	177.63	9.80	-49.1	-68.8	3.8	8.47e-01	0	41	104	0	69	35326
2026-01-27 20:46:56.33	177.38	9.74	-49.3	-68.8	3.8	8.47e-01	0	42	104	0	69	35430
2026-01-27 20:46:57.32	177.13	9.69	-49.5	-68.8	3.8	8.47e-01	0	42	104	0	69	35484
2026-01-27 20:46:58.32	176.89	9.63	-49.2	-68.8	3.8	8.47e-01	0	41	104	0	69	35455
2026-01-27 20:46:59.31	176.64	9.58	-47.0	-68.6	3.8	8.47e-01	0	42	104	0	66	41099
2026-01-27 20:47:00.30	176.40	9.52	-46.7	-68.6	3.8	8.47e-01	0	42	104	0	65	43624
2026-01-27 20:47:01.30	176.16	9.46	-46.5	-68.5	3.8	8.46e-01	0	42	104	0	64	45714
2026-01-27 20:47:02.29	175.92	9.41	-46.6	-68.6	3.8	8.46e-01	0	42	104	0	64	46293
2026-01-27 20:47:03.28	175.68	9.35	-46.7	-68.6	3.8	8.46e-01	0	42	104	0	64	46325
2026-01-27 20:47:04.28	175.44	9.29	-46.9	-68.6	3.8	8.48e-01	0	41	104	0	64	46094
2026-01-27 20:47:05.27	175.21	9.23	-46.6	-68.6	3.8	8.47e-01	0	42	104	0	64	46066
2026-01-27 20:47:06.26	174.97	9.18	-46.4	-68.6	3.8	8.47e-01	0	42	104	0	64	46395
2026-01-27 20:47:07.26	174.74	9.12	-46.4	-68.5	3.8	8.47e-01	0	42	104	0	64	45931
2026-01-27 20:47:08.25	174.51	9.06	-46.5	-68.6	3.8	8.47e-01	0	42	104	0	64	46248
2026-01-27 20:47:09.24	174.27	9.00	-46.4	-68.5	3.8	8.47e-01	0	42	104	0	64	45836
2026-01-27 20:47:10.23	174.05	8.95	-48.0	-68.7	3.8	8.46e-01	0	41	104	0	66	41699
2026-01-27 20:47:11.23	173.81	8.89	-50.0	-69.0	3.8	8.48e-01	0	41	104	0	70	34424
2026-01-27 20:47:12.22	173.59	8.83	-49.6	-69.1	3.8	8.48e-01	0	41	104	0	70	34739
2026-01-27 20:47:13.21	173.36	8.77	-50.2	-69.5	3.8	8.48e-01	0	42	104	0	71	34373
2026-01-27 20:47:14.21	173.14	8.71	-50.2	-69.2	3.8	8.47e-01	0	42	104	0	71	33295
2026-01-27 20:47:15.20	172.91	8.65	-50.2	-69.3	3.8	8.47e-01	0	42	104	0	71	33418
2026-01-27 20:47:16.19	172.69	8.59	-50.4	-69.2	3.8	8.47e-01	0	41	104	0	71	33119
2026-01-27 20:47:17.18	172.47	8.54	-50.4	-69.3	3.8	8.48e-01	0	42	104	0	71	33667
2026-01-27 20:47:18.18	172.25	8.48	-50.4	-69.3	3.8	8.48e-01	0	42	104	0	71	33612
2026-01-27 20:47:19.17	172.03	8.42	-50.5	-69.4	3.8	8.47e-01	0	42	104	0	71	33795
2026-01-27 20:47:20.16	171.81	8.36	-50.5	-69.4	3.8	8.47e-01	0	41	104	0	71	33871
2026-01-27 20:47:21.16	171.60	8.30	-50.4	-69.4	3.8	8.47e-01	0	41	104	0	71	33875
2026-01-27 20:47:22.15	171.38	8.24	-50.5	-69.4	3.8	8.48e-01	0	42	104	0	71	33848
2026-01-27 20:47:23.14	171.17	8.18	-50.3	-69.4	3.8	8.47e-01	0	42	104	0	71	33898
2026-01-27 20:47:24.13	170.95	8.12	-50.5	-69.4	3.8	8.47e-01	0	42	104	0	71	33841
2026-01-27 20:47:25.13	170.74	8.06	-50.4	-69.4	3.8	8.47e-01	0	41	104	0	71	33858
2026-01-27 20:47:26.12	170.53	8.00	-50.3	-69.3	3.8	8.46e-01	0	41	104	0	71	33401
2026-01-27 20:47:27.11	170.32	7.94	-50.4	-69.4	3.8	8.47e-01	0	41	104	0	71	33843
2026-01-27 20:47:28.11	170.11	7.88	-50.3	-69.3	3.8	8.47e-01	0	41	104	0	71	33667
2026-01-27 20:47:29.10	169.91	7.82	-50.4	-69.3	3.8	8.47e-01	0	42	104	0	71	33598
2026-01-27 20:47:30.09	169.70	7.76	-50.3	-69.3	3.8	8.46e-01	0	42	104	0	71	33524
2026-01-27 20:47:31.08	169.50	7.70	-50.3	-69.2	3.8	8.46e-01	0	41	104	0	71	33310
2026-01-27 20:47:32.08	169.29	7.64	-50.0	-69.2	3.8	8.46e-01	0	42	104	0	71	33011
2026-01-27 20:47:33.07	169.09	7.58	-49.8	-69.1	3.8	8.48e-01	0	41	104	0	71	32627
2026-01-27 20:47:34.06	168.89	7.52	-49.7	-68.9	3.8	8.48e-01	0	42	104	0	71	32080
2026-01-27 20:47:35.06	168.69	7.46	-49.7	-68.9	3.8	8.47e-01	0	41	104	0	71	32014
2026-01-27 20:47:36.05	168.49	7.40	-49.7	-68.9	3.8	8.48e-01	0	41	104	0	71	32005
2026-01-27 20:47:37.04	168.30	7.34	-49.6	-68.9	3.8	8.48e-01	0	41	104	0	71	32075
2026-01-27 20:47:38.03	168.10	7.28	-49.7	-68.9	3.8	8.46e-01	0	42	104	0	71	32044
2026-01-27 20:47:39.03	167.90	7.22	-49.7	-68.9	3.8	8.48e-01	0	41	104	0	71	32050
2026-01-27 20:47:40.02	167.71	7.16	-49.8	-68.9	3.8	8.48e-01	0	42	104	0	71	31923
2026-01-27 20:47:41.01	167.52	7.10	-49.8	-68.9	3.8	8.48e-01	0	41	104	0	70	33752
2026-01-27 20:47:42.01	167.32	7.04	-49.8	-68.8	3.8	8.46e-01	0	41	104	0	70	33671
2026-01-27 20:47:43.00	167.13	6.98	-49.8	-68.8	3.8	8.46e-01	0	42	104	0	70	33592
2026-01-27 20:47:43.99	166.94	6.92	-49.8	-68.8	3.8	8.47e-01	0	41	104	0	70	33599
2026-01-27 20:47:44.98	166.76	6.86	-49.9	-68.8	3.8	8.47e-01	0	41	104	0	70	33471
2026-01-27 20:47:45.98	166.57	6.80	-49.8	-68.8	3.8	8.47e-01	0	41	104	0	70	33375
2026-01-27 20:47:46.97	166.38	6.74	-49.7	-68.7	3.8	8.47e-01	0	41	104	0	70	33104
2026-01-27 20:47:47.96	166.20	6.68	-49.7	-68.7	3.8	8.47e-01	0	41	104	0	70	33075
2026-01-27 20:47:48.96	166.01	6.62	-49.7	-68.7	3.8	8.47e-01	0	42	104	0	70	33173
2026-01-27 20:47:49.95	165.83	6.56	-49.7	-68.7	3.8	8.47e-01	0	42	104	0	70	33095
2026-01-27 20:47:50.94	165.65	6.50	-49.7	-68.7	3.8	8.47e-01	0	41	104	0	70	33129
2026-01-27 20:47:51.94	165.46	6.44	-49.7	-68.7	3.8	8.47e-01	0	42	104	0	70	33137
2026-01-27 20:47:52.93	165.28	6.38	-49.7	-68.7	3.8	8.47e-01	0	42	104	0	70	33122
2026-01-27 20:47:53.92	165.11	6.32	-49.7	-68.7	3.8	8.47e-01	0	42	104	0	70	33128
2026-01-27 20:47:54.91	164.93	6.26	-49.7	-68.7	3.8	8.47e-01	0	42	104	0	70	33101
2026-01-27 20:47:55.91	164.75	6.20	-49.7	-68.7	3.8	8.47e-01	0	42	104	0	70	33118
2026-01-27 20:47:56.90	164.57	6.14	-49.7	-68.7	3.8	8.47e-01	0	42	104	0	70	33203
2026-01-27 20:47:57.89	164.40	6.08	-49.7	-68.7	3.8	8.47e-01	0	42	104	0	70	33112
2026-01-27 20:47:58.89	164.22	6.02	-49.7	-68.7	3.8	8.47e-01	0	42	104	0	70	33082
2026-01-27 20:47:59.88	164.05	5.96	-49.7	-68.7	3.8	8.48e-01	0	41	104	0	70	33193
2026-01-27 20:48:00.85	163.88	5.90	-49.7	-68.7	3.8	8.47e-01	0	42	104	0	70	33223
2026-01-27 20:48:01.84	163.71	5.84	-49.7	-68.7	3.8	8.47e-01	0	41	104	0	70	33075
2026-01-27 20:48:02.84	163.54	5.78	-49.6	-68.7	3.8	8.46e-01	0	41	104	0	70	33061
2026-01-27 20:48:03.83	163.37	5.72	-49.7	-68.7	3.8	8.47e-01	0	42	104	0	70	33122
2026-01-27 20:48:04.82	163.21	5.66	-49.7	-68.7	3.8	8.47e-01	0	41	104	0	70	33100
2026-01-27 20:48:05.82	163.04	5.60	-49.7	-68.7	3.8	8.47e-01	0	41	104	0	70	33173
2026-01-27 20:48:06.81	162.87	5.54	-49.7	-68.7	3.8	8.47e-01	0	41	104	0	70	33137
2026-01-27 20:48:07.80	162.71	5.48	-49.7	-68.7	3.8	8.47e-01	0	42	104	0	70	33127
2026-01-27 20:48:08.79	162.54	5.42	-49.7	-68.7	3.8	8.46e-01	0	41	104	0	70	33087
2026-01-27 20:48:09.79	162.38	5.36	-49.7	-68.7	3.8	8.47e-01	0	41	104	0	70	33241
2026-01-27 20:48:10.78	162.22	5.30	-49.7	-68.7	3.8	8.47e-01	0	42	104	0	70	33124
2026-01-27 20:48:11.77	162.06	5.24	-49.7	-68.7	3.8	8.47e-01	0	42	104	0	70	33149
2026-01-27 20:48:12.77	161.90	5.18	-49.7	-68.7	3.8	8.47e-01	0	42	104	0	70	33164
2026-01-27 20:48:13.76	161.74	5.12	-49.7	-68.7	3.8	8.47e-01	0	42	104	0	70	33155
2026-01-27 20:48:14.75	161.58	5.06	-49.7	-68.7	3.8	8.47e-01	0	41	104	0	70	33091
2026-01-27 20:48:15.75	161.42	5.00	-49.7	-68.7	3.8	8.46e-01	0	41	104	0	70	33095

#Closed at: 2026-01-27 20:48:16
#Recorded file [0 MB]: D:/Data/31040_260127_234212.dat