passes_logs/2026/01/27/T1/T1__20260127_002054_NOAA_21_JPSS-2_rec.log

#Pass ID: 20260127_002054_NOAA 21 (JPSS-2)
#Satellite: NOAA 21 (JPSS-2)
#Configuration: NOAA 21
#almurnet v.1.7.20251203
#Start time: 2026-01-27 00:20:55

#Version: 2.0.20230620
#Station: T1
#Location: 37.570604 lon 55.790049 lat
#TLE: 1 54234U 22150A   26026.43130734  .00000179  00000+0  10559-3 0  9998
#TLE: 2 54234  98.7509 327.1934 0000805 209.8356 150.2774 14.19539635166435

#Time	Az	El	Level	Level2	SNR	BER	BlckErr	Temp	State	Recorded	gain1	gain2
2026-01-27 00:20:55.22	12.21	5.08	-46.3	-62.2	3.8	1.49e+00	0	41	0	0	64	22107
2026-01-27 00:20:56.20	12.18	5.15	-46.5	-62.2	3.8	1.49e+00	0	42	104	0	63	23549
2026-01-27 00:20:57.20	12.15	5.22	-46.4	-62.2	3.8	1.49e+00	0	41	104	0	63	23531
2026-01-27 00:20:58.19	12.12	5.29	-46.4	-62.2	3.8	1.49e+00	0	42	104	0	63	23502
2026-01-27 00:20:59.18	12.08	5.36	-46.4	-62.2	3.8	1.49e+00	0	42	104	0	63	23382
2026-01-27 00:21:00.18	12.05	5.43	-46.5	-62.2	3.8	1.49e+00	0	42	104	0	63	23501
2026-01-27 00:21:01.17	12.02	5.50	-46.5	-62.2	3.8	1.49e+00	0	42	104	0	63	23432
2026-01-27 00:21:02.16	11.99	5.57	-46.4	-62.2	3.8	1.49e+00	0	42	104	0	63	23485
2026-01-27 00:21:03.15	11.96	5.64	-46.4	-62.2	3.8	1.49e+00	0	42	104	0	63	23567
2026-01-27 00:21:04.15	11.93	5.71	-46.4	-62.2	3.8	1.49e+00	0	42	104	0	63	23581
2026-01-27 00:21:05.14	11.89	5.78	-46.5	-62.2	3.8	1.49e+00	0	42	104	0	63	23480
2026-01-27 00:21:06.13	11.86	5.85	-46.4	-62.2	3.8	1.49e+00	0	42	104	0	63	23555
2026-01-27 00:21:07.12	11.83	5.92	-46.5	-62.3	3.8	1.49e+00	0	42	104	0	63	23629
2026-01-27 00:21:08.12	11.79	5.99	-46.4	-62.2	3.8	1.49e+00	0	42	104	0	63	23570
2026-01-27 00:21:09.11	11.76	6.07	-46.4	-62.2	3.8	1.49e+00	0	42	104	0	63	23535
2026-01-27 00:21:10.10	11.73	6.14	-46.5	-62.2	3.8	1.49e+00	0	42	104	0	63	23479
2026-01-27 00:21:11.10	11.69	6.21	-46.5	-62.1	3.8	1.49e+00	0	42	104	0	63	23240
2026-01-27 00:21:12.09	11.66	6.28	-46.5	-62.1	3.8	1.49e+00	0	42	104	0	63	23075
2026-01-27 00:21:13.08	11.63	6.35	-46.5	-61.9	3.8	1.49e+00	0	42	104	0	63	22770
2026-01-27 00:21:14.08	11.59	6.43	-46.5	-61.7	3.8	1.49e+00	0	42	104	0	63	22208
2026-01-27 00:21:15.07	11.56	6.50	-46.4	-61.4	3.8	1.49e+00	0	42	104	0	63	21504
2026-01-27 00:21:16.06	11.52	6.57	-46.3	-61.2	3.8	1.49e+00	0	42	104	0	63	21011
2026-01-27 00:21:17.05	11.49	6.65	-46.3	-61.0	3.8	1.49e+00	0	42	104	0	63	20462
2026-01-27 00:21:18.05	11.45	6.72	-46.3	-60.7	3.8	1.49e+00	0	42	104	0	63	19815
2026-01-27 00:21:19.04	11.42	6.79	-46.2	-60.6	3.8	1.49e+00	0	42	104	0	63	19461
2026-01-27 00:21:20.03	11.38	6.87	-46.2	-60.5	3.8	1.48e+00	0	42	104	0	63	19240
2026-01-27 00:21:21.03	11.35	6.94	-46.3	-60.5	3.8	1.49e+00	0	42	104	0	63	19261
2026-01-27 00:21:22.02	11.31	7.02	-46.3	-60.3	3.9	1.49e+00	0	42	104	0	63	18834
2026-01-27 00:21:23.01	11.28	7.09	-46.3	-60.5	3.9	1.49e+00	0	42	104	0	63	19237
2026-01-27 00:21:24.01	11.24	7.16	-46.3	-60.9	3.8	1.49e+00	0	42	104	0	63	20296
2026-01-27 00:21:25.00	11.20	7.24	-46.3	-61.2	3.8	1.49e+00	0	42	104	0	63	20995
2026-01-27 00:21:25.99	11.17	7.31	-46.3	-61.4	3.8	1.49e+00	0	42	104	0	63	21447
2026-01-27 00:21:26.99	11.13	7.39	-46.3	-61.8	3.8	1.49e+00	0	42	104	0	63	22343
2026-01-27 00:21:27.98	11.09	7.46	-46.4	-62.0	3.8	1.49e+00	0	43	104	0	63	22902
2026-01-27 00:21:28.97	11.06	7.54	-46.4	-62.1	3.8	1.49e+00	0	42	104	0	63	23252
2026-01-27 00:21:29.97	11.02	7.62	-46.4	-62.1	3.8	1.49e+00	0	43	104	0	63	23210
2026-01-27 00:21:30.96	10.98	7.69	-46.3	-61.8	3.8	1.49e+00	0	43	104	0	63	22422
2026-01-27 00:21:31.95	10.94	7.77	-46.3	-61.1	3.8	1.49e+00	0	43	104	0	63	20746
2026-01-27 00:21:32.95	10.91	7.85	-46.2	-59.9	3.9	1.49e+00	0	43	104	0	63	18003
2026-01-27 00:21:33.94	10.87	7.92	-46.1	-58.0	4.4	1.45e+00	0	43	104	0	63	14477
2026-01-27 00:21:34.93	10.83	8.00	-46.0	-56.3	5.2	8.90e-01	0	43	0	0	63	11942
2026-01-27 00:21:35.93	10.79	8.08	-45.7	-54.6	6.4	2.94e-01	0	43	0	0	63	9801
2026-01-27 00:21:36.92	10.75	8.15	-45.4	-52.9	8.0	9.71e-02	0	43	0	0	62	8495
2026-01-27 00:21:37.91	10.71	8.23	-45.1	-51.9	9.0	2.52e-02	0	43	0	0	62	7586
2026-01-27 00:21:38.90	10.67	8.31	-44.6	-50.4	10.5	8.25e-03	0	43	0	0	61	6801
2026-01-27 00:21:39.90	10.63	8.39	-44.3	-49.5	11.4	1.46e-03	0	43	0	0	60	6490
2026-01-27 00:21:40.89	10.59	8.47	-44.1	-48.7	12.2	2.61e-04	0	43	0	0	59	6245
2026-01-27 00:21:41.88	10.55	8.54	-43.8	-48.1	12.8	6.40e-05	0	43	0	0	59	5844
2026-01-27 00:21:42.88	10.51	8.62	-43.6	-47.6	13.4	2.05e-05	0	43	0	0	59	5523
2026-01-27 00:21:43.87	10.47	8.70	-43.5	-47.5	13.5	1.67e-05	0	43	0	0	59	5430
2026-01-27 00:21:44.86	10.43	8.78	-43.5	-47.5	13.5	8.30e-06	0	43	0	0	58	5766
2026-01-27 00:21:45.86	10.39	8.86	-43.6	-47.7	13.3	2.36e-05	0	43	0	0	58	5890
2026-01-27 00:21:46.85	10.35	8.94	-43.7	-47.9	13.1	3.20e-05	0	43	0	0	58	6046
2026-01-27 00:21:47.84	10.31	9.02	-43.9	-48.2	12.7	4.11e-05	0	43	0	0	58	6272
2026-01-27 00:21:48.84	10.27	9.10	-44.8	-50.7	10.2	1.08e-03	0	43	0	0	60	7440
2026-01-27 00:21:49.83	10.22	9.18	-46.3	-55.8	5.6	1.43e-01	0	43	0	0	63	11168
2026-01-27 00:21:50.83	10.18	9.26	-41.9	-45.2	15.8	8.23e-05	0	43	0	0	56	4934
2026-01-27 00:21:51.82	10.14	9.34	-40.5	-43.3	17.5	0.00e+00	0	43	0	0	53	4719
2026-01-27 00:21:52.82	10.10	9.42	-44.6	-50.6	10.5	7.61e-04	0	43	0	0	59	7782
2026-01-27 00:21:53.81	10.05	9.51	-40.5	-43.3	17.5	3.66e-05	0	43	0	0	53	4707
2026-01-27 00:21:54.81	10.01	9.59	-40.4	-43.1	17.6	0.00e+00	0	43	0	0	52	4908
2026-01-27 00:21:55.87	9.96	9.68	-40.2	-42.8	17.9	0.00e+00	0	43	0	0	52	4755
2026-01-27 00:21:56.72	9.93	9.75	-40.1	-42.7	18.1	0.00e+00	0	43	0	0	52	4658
2026-01-27 00:21:57.86	9.87	9.84	-40.1	-42.7	18.0	0.00e+00	0	43	0	0	52	4683
2026-01-27 00:21:58.71	9.84	9.91	-40.2	-42.8	17.9	0.00e+00	0	43	0	0	52	4739
2026-01-27 00:21:59.85	9.79	10.01	-40.0	-42.6	18.1	0.00e+00	0	43	0	0	52	4648
2026-01-27 00:22:00.70	9.75	10.08	-40.0	-42.6	18.1	0.00e+00	0	43	0	0	52	4623
2026-01-27 00:22:01.84	9.69	10.17	-40.1	-42.7	18.0	0.00e+00	0	43	0	0	52	4699
2026-01-27 00:22:02.69	9.66	10.25	-40.1	-42.7	18.0	0.00e+00	0	43	0	0	52	4705
2026-01-27 00:22:03.83	9.60	10.34	-40.0	-42.5	18.3	0.00e+00	0	43	0	0	51	4865
2026-01-27 00:22:04.68	9.56	10.41	-40.0	-42.6	18.3	0.00e+00	0	43	0	0	51	4885
2026-01-27 00:22:05.82	9.51	10.51	-39.9	-42.5	18.4	0.00e+00	0	43	0	0	51	4820
2026-01-27 00:22:06.67	9.47	10.58	-40.0	-42.5	18.3	0.00e+00	0	43	0	0	51	4851
2026-01-27 00:22:07.87	9.41	10.69	-40.0	-42.5	18.4	0.00e+00	0	43	0	0	51	4837
2026-01-27 00:22:08.72	9.37	10.76	-40.0	-42.5	18.4	0.00e+00	0	43	0	0	51	4844
2026-01-27 00:22:09.92	9.32	10.86	-40.0	-42.4	18.5	0.00e+00	0	43	0	0	51	4783
2026-01-27 00:22:10.77	9.27	10.94	-40.0	-42.4	18.4	0.00e+00	0	43	0	0	51	4798
2026-01-27 00:22:11.97	9.22	11.04	-40.0	-42.4	18.5	0.00e+00	0	43	0	0	51	4786
2026-01-27 00:22:12.82	9.18	11.11	-40.0	-42.4	18.5	0.00e+00	0	43	0	0	51	4767
2026-01-27 00:22:14.02	9.12	11.22	-39.9	-42.2	18.7	0.00e+00	0	43	0	0	51	4678
2026-01-27 00:22:14.88	9.07	11.30	-39.9	-42.1	18.7	0.00e+00	0	43	0	0	51	4649
2026-01-27 00:22:16.08	9.01	11.40	-39.9	-42.2	18.7	0.00e+00	0	43	0	0	51	4662
2026-01-27 00:22:16.93	8.97	11.48	-39.8	-42.0	18.8	0.00e+00	0	43	0	0	51	4584
2026-01-27 00:22:18.11	8.91	11.58	-39.8	-42.0	18.9	0.00e+00	0	43	0	0	51	4566
2026-01-27 00:22:18.97	8.87	11.66	-39.8	-42.1	18.8	0.00e+00	0	43	0	0	51	4604
2026-01-27 00:22:20.10	8.81	11.76	-39.8	-42.0	18.9	0.00e+00	0	43	0	0	51	4557
2026-01-27 00:22:20.95	8.77	11.83	-39.6	-41.8	19.1	0.00e+00	0	43	0	0	51	4471
2026-01-27 00:22:22.09	8.71	11.94	-39.6	-41.8	19.0	0.00e+00	0	43	0	0	51	4493
2026-01-27 00:22:22.94	8.66	12.01	-39.6	-41.8	19.1	0.00e+00	0	43	0	0	51	4446
2026-01-27 00:22:24.08	8.60	12.12	-39.6	-41.7	19.2	0.00e+00	0	43	0	0	51	4426
2026-01-27 00:22:24.95	8.56	12.20	-39.5	-41.6	19.3	0.00e+00	0	43	0	0	51	4377
2026-01-27 00:22:26.09	8.50	12.30	-39.6	-41.7	19.2	0.00e+00	0	43	0	0	51	4392
2026-01-27 00:22:26.94	8.45	12.38	-39.6	-41.7	19.2	0.00e+00	0	43	0	0	51	4400
2026-01-27 00:22:28.08	8.39	12.48	-39.6	-41.6	19.3	0.00e+00	0	43	0	0	50	4644
2026-01-27 00:22:28.93	8.34	12.56	-39.5	-41.5	19.3	0.00e+00	0	43	0	0	50	4597
2026-01-27 00:22:30.07	8.28	12.66	-39.5	-41.5	19.4	0.00e+00	0	43	0	0	50	4573
2026-01-27 00:22:30.92	8.23	12.74	-39.5	-41.5	19.3	0.00e+00	0	43	0	0	50	4591
2026-01-27 00:22:32.06	8.17	12.85	-39.4	-41.5	19.4	0.00e+00	0	43	0	0	50	4557
2026-01-27 00:22:32.91	8.12	12.93	-39.5	-41.5	19.4	0.00e+00	0	43	0	0	50	4568
2026-01-27 00:22:34.05	8.06	13.04	-39.5	-41.5	19.4	0.00e+00	0	43	0	0	50	4554
2026-01-27 00:22:34.90	8.01	13.12	-39.5	-41.5	19.3	0.00e+00	0	43	0	0	50	4588
2026-01-27 00:22:36.04	7.95	13.22	-39.5	-41.5	19.3	0.00e+00	0	43	0	0	50	4570
2026-01-27 00:22:36.89	7.90	13.30	-39.5	-41.5	19.3	0.00e+00	0	43	0	0	50	4577
2026-01-27 00:22:38.03	7.83	13.41	-39.5	-41.5	19.4	0.00e+00	0	43	0	0	50	4571
2026-01-27 00:22:38.88	7.78	13.49	-39.5	-41.5	19.3	0.00e+00	0	43	0	0	50	4581
2026-01-27 00:22:40.02	7.71	13.60	-39.6	-41.6	19.3	0.00e+00	0	43	0	0	50	4615
2026-01-27 00:22:40.87	7.66	13.68	-39.6	-41.6	19.3	0.00e+00	0	43	0	0	50	4620
2026-01-27 00:22:42.01	7.60	13.79	-39.6	-41.5	19.3	0.00e+00	0	43	0	0	50	4590
2026-01-27 00:22:42.86	7.55	13.88	-39.6	-41.6	19.2	0.00e+00	0	43	0	0	50	4648
2026-01-27 00:22:43.99	7.48	13.98	-39.6	-41.6	19.2	0.00e+00	0	43	0	0	50	4650
2026-01-27 00:22:44.84	7.43	14.07	-39.7	-41.7	19.2	0.00e+00	0	43	0	0	50	4670
2026-01-27 00:22:45.98	7.36	14.18	-39.6	-41.6	19.2	0.00e+00	0	43	0	0	50	4637
2026-01-27 00:22:46.83	7.30	14.26	-39.7	-41.6	19.2	0.00e+00	0	43	0	0	50	4650
2026-01-27 00:22:47.97	7.23	14.37	-39.7	-41.7	19.2	0.00e+00	0	43	0	0	50	4670
2026-01-27 00:22:48.82	7.18	14.46	-39.7	-41.7	19.2	0.00e+00	0	43	0	0	50	4677
2026-01-27 00:22:49.96	7.11	14.57	-39.7	-41.7	19.2	0.00e+00	0	43	0	0	50	4666
2026-01-27 00:22:50.81	7.06	14.66	-39.9	-41.9	19.0	0.00e+00	0	43	0	0	50	4762
2026-01-27 00:22:51.95	6.98	14.77	-39.8	-41.8	19.1	0.00e+00	0	43	0	0	50	4737
2026-01-27 00:22:52.80	6.93	14.86	-39.9	-41.8	19.1	0.00e+00	0	44	0	0	50	4759
2026-01-27 00:22:54.13	6.84	14.99	-39.8	-41.8	19.1	0.00e+00	0	43	0	0	50	4726
2026-01-27 00:22:54.84	6.80	15.06	-39.9	-41.9	19.1	0.00e+00	0	43	0	0	50	4768
2026-01-27 00:22:56.12	6.71	15.19	-39.9	-41.9	19.1	0.00e+00	0	44	0	0	50	4774
2026-01-27 00:22:56.83	6.67	15.26	-39.9	-41.9	19.1	0.00e+00	0	43	0	0	50	4780
2026-01-27 00:22:58.12	6.58	15.40	-39.9	-41.9	19.1	0.00e+00	0	43	0	0	50	4763
2026-01-27 00:22:58.83	6.53	15.47	-40.0	-42.0	19.0	0.00e+00	0	43	0	0	50	4831
2026-01-27 00:23:00.11	6.45	15.60	-40.0	-41.9	19.0	0.00e+00	0	43	0	0	50	4814
2026-01-27 00:23:00.89	6.39	15.68	-39.9	-41.8	19.1	0.00e+00	0	43	0	0	50	4758
2026-01-27 00:23:02.17	6.31	15.81	-39.9	-41.8	19.2	0.00e+00	0	44	0	0	50	4730
2026-01-27 00:23:02.88	6.26	15.89	-39.8	-41.8	19.2	0.00e+00	0	44	0	0	50	4711
2026-01-27 00:23:04.15	6.17	16.02	-39.8	-41.8	19.2	0.00e+00	0	43	0	0	50	4725
2026-01-27 00:23:05.04	6.11	16.11	-39.9	-41.8	19.2	0.00e+00	0	43	0	0	50	4740
2026-01-27 00:23:06.17	6.03	16.23	-39.8	-41.7	19.2	0.00e+00	0	44	0	0	50	4698
2026-01-27 00:23:07.03	5.97	16.33	-39.8	-41.7	19.2	0.00e+00	0	44	0	0	50	4701
2026-01-27 00:23:08.17	5.88	16.45	-39.9	-41.8	19.2	0.00e+00	0	43	0	0	50	4751
2026-01-27 00:23:09.29	5.80	16.57	-39.9	-41.8	19.2	0.00e+00	0	44	0	0	50	4722
2026-01-27 00:23:10.33	5.73	16.68	-39.8	-41.7	19.3	0.00e+00	0	43	0	0	50	4681
2026-01-27 00:23:11.27	5.66	16.78	-39.8	-41.7	19.3	0.00e+00	0	43	0	0	50	4661
2026-01-27 00:23:12.27	5.58	16.89	-39.9	-41.8	19.2	0.00e+00	0	43	0	0	50	4712
2026-01-27 00:23:13.26	5.51	16.99	-39.9	-41.8	19.2	0.00e+00	0	43	0	0	50	4721
2026-01-27 00:23:14.26	5.44	17.10	-40.0	-41.9	19.1	0.00e+00	0	43	0	0	50	4794
2026-01-27 00:23:15.26	5.36	17.21	-40.0	-41.9	19.1	0.00e+00	0	43	0	0	50	4791
2026-01-27 00:23:16.25	5.29	17.32	-40.0	-41.9	19.1	0.00e+00	0	43	0	0	50	4800
2026-01-27 00:23:17.24	5.21	17.43	-40.0	-41.9	19.1	0.00e+00	0	43	0	0	50	4803
2026-01-27 00:23:18.24	5.13	17.54	-40.0	-41.9	19.2	0.00e+00	0	44	0	0	50	4765
2026-01-27 00:23:19.23	5.05	17.65	-40.1	-42.1	19.0	0.00e+00	0	43	0	0	50	4873
2026-01-27 00:23:20.29	4.97	17.77	-40.2	-42.1	18.9	0.00e+00	0	43	0	0	51	4622
2026-01-27 00:23:21.16	4.90	17.87	-40.0	-41.9	19.1	0.00e+00	0	44	0	0	51	4543
2026-01-27 00:23:22.29	4.81	17.99	-40.1	-42.0	19.0	0.00e+00	0	43	0	0	51	4579
2026-01-27 00:23:23.26	4.73	18.10	-40.1	-42.0	19.0	0.00e+00	0	43	0	0	51	4551
2026-01-27 00:23:24.44	4.64	18.24	-40.1	-42.0	19.1	0.00e+00	0	43	0	0	51	4554
2026-01-27 00:23:25.32	4.57	18.34	-40.0	-41.9	19.1	0.00e+00	0	43	0	0	51	4517
2026-01-27 00:23:26.46	4.47	18.47	-40.0	-41.9	19.1	0.00e+00	0	43	0	0	51	4538
2026-01-27 00:23:27.31	4.40	18.57	-39.9	-41.8	19.2	0.00e+00	0	44	0	0	51	4463
2026-01-27 00:23:28.45	4.31	18.70	-40.0	-41.8	19.2	0.00e+00	0	44	0	0	51	4479
2026-01-27 00:23:29.30	4.24	18.80	-40.0	-41.9	19.1	0.00e+00	0	44	0	0	51	4516
2026-01-27 00:23:30.44	4.14	18.93	-40.2	-42.1	19.0	0.00e+00	0	43	0	0	51	4600
2026-01-27 00:23:31.29	4.07	19.03	-40.0	-41.9	19.2	0.00e+00	0	44	0	0	51	4500
2026-01-27 00:23:32.43	3.97	19.16	-40.0	-41.9	19.1	0.00e+00	0	44	0	0	51	4515
2026-01-27 00:23:33.28	3.89	19.26	-39.9	-41.8	19.3	0.00e+00	0	43	0	0	51	4471
2026-01-27 00:23:34.42	3.79	19.40	-39.7	-41.5	19.5	0.00e+00	0	44	0	0	51	4317
2026-01-27 00:23:35.27	3.72	19.50	-39.7	-41.6	19.4	0.00e+00	0	44	0	0	51	4348
2026-01-27 00:23:36.41	3.62	19.63	-39.5	-41.3	19.6	0.00e+00	0	43	0	0	51	4242
2026-01-27 00:23:37.26	3.54	19.74	-39.6	-41.5	19.5	0.00e+00	0	43	0	0	51	4295
2026-01-27 00:23:38.40	3.44	19.87	-39.8	-41.6	19.4	0.00e+00	0	43	0	0	51	4369
2026-01-27 00:23:39.25	3.36	19.98	-39.6	-41.4	19.5	0.00e+00	0	43	0	0	51	4273
2026-01-27 00:23:40.50	3.24	20.13	-39.6	-41.4	19.6	0.00e+00	0	43	0	0	51	4254
2026-01-27 00:23:41.35	3.17	20.23	-39.5	-41.2	19.7	0.00e+00	0	43	0	0	50	4440
2026-01-27 00:23:42.49	3.06	20.37	-39.3	-41.1	19.8	0.00e+00	0	44	0	0	50	4359
2026-01-27 00:23:43.34	2.98	20.47	-39.3	-41.1	19.8	0.00e+00	0	44	0	0	50	4344
2026-01-27 00:23:44.48	2.87	20.61	-39.3	-41.0	19.8	0.00e+00	0	44	0	0	50	4338
2026-01-27 00:23:45.33	2.79	20.72	-39.3	-41.0	19.8	0.00e+00	0	43	0	0	50	4319
2026-01-27 00:23:46.47	2.68	20.86	-39.3	-41.0	19.9	0.00e+00	0	43	0	0	50	4310
2026-01-27 00:23:47.33	2.59	20.97	-39.3	-41.0	19.9	0.00e+00	0	44	0	0	50	4321
2026-01-27 00:23:48.46	2.48	21.11	-39.2	-41.0	19.8	0.00e+00	0	43	0	0	50	4310
2026-01-27 00:23:49.31	2.40	21.22	-39.2	-40.9	19.9	0.00e+00	0	43	0	0	50	4271
2026-01-27 00:23:50.45	2.28	21.36	-38.8	-40.5	20.3	0.00e+00	0	43	0	0	49	4337
2026-01-27 00:23:51.30	2.20	21.47	-38.7	-40.4	20.4	0.00e+00	0	44	0	0	49	4284
2026-01-27 00:23:52.44	2.08	21.62	-38.7	-40.3	20.4	0.00e+00	0	43	0	0	49	4237
2026-01-27 00:23:53.29	1.99	21.72	-38.7	-40.4	20.5	0.00e+00	0	43	0	0	49	4248
2026-01-27 00:23:54.43	1.88	21.87	-38.8	-40.5	20.4	0.00e+00	0	44	0	0	49	4305
2026-01-27 00:23:55.28	1.79	21.98	-38.5	-40.2	20.6	0.00e+00	0	43	0	0	49	4175
2026-01-27 00:23:56.48	1.66	22.14	-38.6	-40.2	20.6	0.00e+00	0	44	0	0	49	4193
2026-01-27 00:23:57.33	1.57	22.25	-38.6	-40.3	20.6	0.00e+00	0	43	0	0	49	4202
2026-01-27 00:23:58.53	1.44	22.40	-38.5	-40.3	20.6	0.00e+00	0	43	0	0	49	4194
2026-01-27 00:23:59.38	1.35	22.52	-38.6	-40.3	20.5	0.00e+00	0	43	0	0	49	4208
2026-01-27 00:24:00.52	1.22	22.67	-38.3	-40.0	20.8	0.00e+00	0	44	0	0	48	4305
2026-01-27 00:24:01.37	1.13	22.78	-38.3	-39.9	20.8	0.00e+00	0	43	0	0	48	4286
2026-01-27 00:24:02.62	0.99	22.95	-38.3	-40.0	20.8	0.00e+00	0	43	0	0	48	4318
2026-01-27 00:24:03.47	0.90	23.06	-38.3	-40.0	20.8	0.00e+00	0	43	0	0	48	4301
2026-01-27 00:24:04.67	0.76	23.22	-38.5	-40.1	20.7	0.00e+00	0	43	0	0	48	4387
2026-01-27 00:24:05.52	0.66	23.34	-38.4	-40.0	20.9	0.00e+00	0	43	0	0	48	4327
2026-01-27 00:24:06.71	0.53	23.50	-38.3	-40.0	20.9	0.00e+00	0	44	0	0	48	4306
2026-01-27 00:24:07.56	0.43	23.61	-38.4	-40.0	20.9	0.00e+00	0	43	0	0	48	4324
2026-01-27 00:24:08.70	0.29	23.77	-38.5	-40.1	20.8	0.00e+00	0	43	0	0	48	4376
2026-01-27 00:24:09.55	0.19	23.89	-38.5	-40.2	20.8	0.00e+00	0	43	0	0	48	4418
2026-01-27 00:24:10.69	0.06	24.04	-38.5	-40.2	20.8	0.00e+00	0	44	0	0	48	4402
2026-01-27 00:24:11.54	359.95	24.16	-38.5	-40.1	20.8	0.00e+00	0	44	0	0	48	4370
2026-01-27 00:24:12.68	359.81	24.32	-38.5	-40.2	20.7	0.00e+00	0	43	0	0	48	4399
2026-01-27 00:24:13.53	359.71	24.44	-38.4	-40.1	20.7	0.00e+00	0	43	0	0	48	4357
2026-01-27 00:24:14.67	359.57	24.60	-38.6	-40.3	20.6	0.00e+00	0	43	0	0	48	4443
2026-01-27 00:24:15.52	359.46	24.72	-38.7	-40.3	20.5	0.00e+00	0	44	0	0	48	4477
2026-01-27 00:24:16.65	359.32	24.88	-38.7	-40.4	20.4	0.00e+00	0	43	0	0	48	4516
2026-01-27 00:24:17.73	359.18	25.03	-38.9	-40.6	20.2	0.00e+00	0	43	0	0	48	4633
2026-01-27 00:24:18.75	359.05	25.18	-39.1	-40.8	20.1	0.00e+00	0	43	0	0	48	4734
2026-01-27 00:24:19.94	358.90	25.35	-39.2	-40.9	20.0	0.00e+00	0	43	0	0	48	4785
2026-01-27 00:24:20.82	358.78	25.48	-39.2	-41.0	19.9	0.00e+00	0	44	0	0	49	4555
2026-01-27 00:24:21.95	358.63	25.64	-39.3	-41.0	19.9	0.00e+00	0	44	0	0	49	4583
2026-01-27 00:24:22.87	358.51	25.77	-39.3	-41.0	19.9	0.00e+00	0	44	0	0	49	4595
2026-01-27 00:24:23.86	358.37	25.92	-39.4	-41.1	19.9	0.00e+00	0	43	0	0	49	4646
2026-01-27 00:24:24.86	358.24	26.06	-39.4	-41.1	19.9	0.00e+00	0	44	0	0	49	4623
2026-01-27 00:24:25.85	358.10	26.21	-39.3	-41.0	20.0	0.00e+00	0	43	0	0	49	4587
2026-01-27 00:24:26.85	357.96	26.36	-39.4	-41.1	20.0	0.00e+00	0	43	0	0	49	4644
2026-01-27 00:24:27.84	357.82	26.51	-39.5	-41.2	19.9	0.00e+00	0	43	0	0	49	4698
2026-01-27 00:24:28.83	357.68	26.65	-39.6	-41.3	19.8	0.00e+00	0	43	0	0	49	4748
2026-01-27 00:24:29.83	357.54	26.80	-39.6	-41.3	19.8	0.00e+00	0	44	0	0	49	4726
2026-01-27 00:24:30.82	357.39	26.95	-39.6	-41.3	19.8	0.00e+00	0	43	0	0	49	4729
2026-01-27 00:24:31.82	357.25	27.10	-39.6	-41.3	19.7	0.00e+00	0	44	0	0	49	4743
2026-01-27 00:24:32.81	357.10	27.25	-39.7	-41.4	19.7	0.00e+00	0	43	0	0	49	4792
2026-01-27 00:24:33.89	356.94	27.42	-39.7	-41.5	19.6	0.00e+00	0	43	0	0	50	4546
2026-01-27 00:24:34.74	356.81	27.55	-39.9	-41.7	19.4	0.00e+00	0	43	0	0	50	4668
2026-01-27 00:24:35.88	356.64	27.72	-39.9	-41.7	19.4	0.00e+00	0	43	0	0	50	4665
2026-01-27 00:24:36.73	356.51	27.85	-40.0	-41.8	19.3	0.00e+00	0	43	0	0	50	4744
2026-01-27 00:24:37.87	356.34	28.03	-40.1	-41.9	19.3	0.00e+00	0	43	0	0	50	4779
2026-01-27 00:24:38.72	356.20	28.16	-40.1	-42.0	19.2	0.00e+00	0	43	0	0	50	4818
2026-01-27 00:24:39.85	356.02	28.34	-40.1	-42.0	19.2	0.00e+00	0	43	0	0	51	4546
2026-01-27 00:24:40.71	355.89	28.47	-40.2	-42.0	19.2	0.00e+00	0	44	0	0	51	4546
2026-01-27 00:24:41.85	355.70	28.65	-40.1	-41.9	19.2	0.00e+00	0	43	0	0	51	4503
2026-01-27 00:24:42.70	355.57	28.79	-40.1	-41.9	19.2	0.00e+00	0	43	0	0	51	4523
2026-01-27 00:24:43.84	355.38	28.97	-40.0	-41.8	19.3	0.00e+00	0	44	0	0	51	4442
2026-01-27 00:24:44.69	355.24	29.10	-39.8	-41.5	19.5	0.00e+00	0	43	0	0	51	4340
2026-01-27 00:24:45.87	355.04	29.29	-39.7	-41.4	19.6	0.00e+00	0	43	0	0	51	4274
2026-01-27 00:24:46.73	354.89	29.43	-39.6	-41.3	19.7	0.00e+00	0	43	0	0	51	4236
2026-01-27 00:24:47.87	354.70	29.61	-39.5	-41.2	19.7	0.00e+00	0	43	0	0	51	4189
2026-01-27 00:24:48.72	354.55	29.75	-39.6	-41.3	19.7	0.00e+00	0	44	0	0	51	4225
2026-01-27 00:24:50.00	354.33	29.96	-39.7	-41.4	19.5	0.00e+00	0	44	0	0	51	4275
2026-01-27 00:24:50.73	354.20	30.08	-39.7	-41.5	19.5	0.00e+00	0	44	0	0	51	4319
2026-01-27 00:24:52.01	353.97	30.29	-39.6	-41.4	19.6	0.00e+00	0	44	0	0	51	4272
2026-01-27 00:24:52.72	353.84	30.40	-39.7	-41.4	19.6	0.00e+00	0	43	0	0	51	4276
2026-01-27 00:24:54.00	353.61	30.62	-39.7	-41.5	19.6	0.00e+00	0	44	0	0	51	4293
2026-01-27 00:24:54.72	353.48	30.74	-39.5	-41.3	19.8	0.00e+00	0	43	0	0	51	4195
2026-01-27 00:24:56.00	353.24	30.95	-39.4	-41.1	19.9	0.00e+00	0	43	0	0	50	4368
2026-01-27 00:24:56.72	353.10	31.07	-39.3	-41.0	20.0	0.00e+00	0	43	0	0	50	4323
2026-01-27 00:24:58.00	352.86	31.28	-39.2	-40.8	20.1	0.00e+00	0	43	0	0	50	4225
2026-01-27 00:24:58.75	352.72	31.41	-39.2	-40.9	20.1	0.00e+00	0	44	0	0	50	4267
2026-01-27 00:25:00.02	352.47	31.62	-39.3	-41.0	19.8	0.00e+00	0	44	0	0	50	4335
2026-01-27 00:25:00.75	352.33	31.75	-39.2	-40.9	19.9	0.00e+00	0	44	0	0	50	4277
2026-01-27 00:25:02.05	352.07	31.97	-39.5	-41.2	19.6	0.00e+00	0	43	0	0	50	4426
2026-01-27 00:25:02.76	351.93	32.09	-39.5	-41.2	19.6	0.00e+00	0	44	0	0	50	4441
2026-01-27 00:25:04.03	351.67	32.30	-39.7	-41.5	19.5	0.00e+00	0	43	0	0	50	4557
2026-01-27 00:25:04.74	351.53	32.43	-39.8	-41.6	19.4	0.00e+00	0	43	0	0	50	4611
2026-01-27 00:25:06.15	351.23	32.67	-39.7	-41.5	19.6	0.00e+00	0	43	0	0	50	4559
2026-01-27 00:25:06.86	351.09	32.79	-39.6	-41.4	19.8	0.00e+00	0	44	0	0	50	4509
2026-01-27 00:25:08.21	350.80	33.03	-39.7	-41.5	19.6	0.00e+00	0	43	0	0	50	4571
2026-01-27 00:25:08.92	350.65	33.15	-39.7	-41.5	19.6	0.00e+00	0	43	0	0	50	4586
2026-01-27 00:25:10.23	350.36	33.38	-39.7	-41.5	19.6	0.00e+00	0	44	0	0	50	4594
2026-01-27 00:25:10.94	350.21	33.50	-39.7	-41.5	19.6	0.00e+00	0	44	0	0	50	4574
2026-01-27 00:25:12.25	349.92	33.73	-39.8	-41.7	19.4	0.00e+00	0	43	0	0	50	4657
2026-01-27 00:25:12.97	349.76	33.86	-39.9	-41.7	19.4	0.00e+00	0	44	0	0	50	4701
2026-01-27 00:25:14.24	349.47	34.08	-40.3	-42.2	19.0	0.00e+00	0	43	0	0	51	4687
2026-01-27 00:25:14.95	349.31	34.21	-40.4	-42.3	18.9	0.00e+00	0	44	0	0	51	4736
2026-01-27 00:25:16.23	349.01	34.43	-40.7	-42.7	18.6	0.00e+00	0	43	0	0	52	4659
2026-01-27 00:25:16.96	348.84	34.56	-40.7	-42.6	18.6	0.00e+00	0	43	0	0	52	4639
2026-01-27 00:25:18.24	348.54	34.79	-40.8	-42.7	18.5	0.00e+00	0	43	0	0	52	4668
2026-01-27 00:25:18.96	348.37	34.92	-40.7	-42.5	18.7	0.00e+00	0	43	0	0	52	4593
2026-01-27 00:25:20.24	348.06	35.15	-40.8	-42.7	18.5	0.00e+00	0	44	0	0	52	4653
2026-01-27 00:25:20.97	347.88	35.28	-40.8	-42.7	18.5	0.00e+00	0	43	0	0	52	4684
2026-01-27 00:25:22.25	347.56	35.51	-40.8	-42.7	18.5	0.00e+00	0	43	0	0	52	4689
2026-01-27 00:25:22.98	347.38	35.64	-40.8	-42.7	18.5	0.00e+00	0	44	0	0	52	4671
2026-01-27 00:25:24.26	347.06	35.88	-40.9	-42.8	18.4	0.00e+00	0	43	0	0	52	4727
2026-01-27 00:25:25.09	346.85	36.03	-41.0	-43.0	18.2	0.00e+00	0	44	0	0	52	4822
2026-01-27 00:25:26.23	346.55	36.23	-41.1	-43.1	18.1	0.00e+00	0	44	0	0	52	4893
2026-01-27 00:25:27.08	346.33	36.39	-41.2	-43.2	18.0	0.00e+00	0	44	0	0	52	4963
2026-01-27 00:25:28.22	346.03	36.60	-41.1	-43.2	18.1	0.00e+00	0	44	0	0	52	4947
2026-01-27 00:25:29.07	345.80	36.75	-41.3	-43.4	17.9	0.00e+00	0	44	0	0	53	4796
2026-01-27 00:25:30.21	345.49	36.96	-41.4	-43.5	17.8	0.00e+00	0	44	0	0	53	4825
2026-01-27 00:25:31.06	345.26	37.12	-41.4	-43.5	17.7	0.00e+00	0	44	0	0	53	4858
2026-01-27 00:25:32.20	344.94	37.32	-41.6	-43.8	17.5	0.00e+00	0	44	0	0	53	4996
2026-01-27 00:25:33.05	344.71	37.48	-41.8	-43.9	17.5	0.00e+00	0	43	0	0	54	4788
2026-01-27 00:25:34.19	344.38	37.69	-41.6	-43.7	17.6	0.00e+00	0	43	0	0	54	4685
2026-01-27 00:25:35.04	344.14	37.85	-41.7	-43.7	17.6	0.00e+00	0	44	0	0	54	4697
2026-01-27 00:25:36.18	343.81	38.06	-41.6	-43.6	17.7	0.00e+00	0	44	0	0	54	4627
2026-01-27 00:25:37.09	343.54	38.23	-41.6	-43.6	17.8	0.00e+00	0	43	0	0	54	4630
2026-01-27 00:25:38.26	343.20	38.44	-41.4	-43.4	17.9	0.00e+00	0	44	0	0	54	4511
2026-01-27 00:25:39.15	342.93	38.61	-41.3	-43.2	18.1	0.00e+00	0	43	0	0	54	4438
2026-01-27 00:25:40.28	342.58	38.81	-41.3	-43.3	18.0	0.00e+00	0	44	0	0	54	4448
2026-01-27 00:25:41.20	342.30	38.99	-41.3	-43.2	18.1	0.00e+00	0	44	0	0	54	4409
2026-01-27 00:25:42.36	341.94	39.20	-41.2	-43.1	18.2	0.00e+00	0	44	0	0	54	4371
2026-01-27 00:25:43.25	341.66	39.36	-41.1	-42.9	18.4	0.00e+00	0	43	0	0	54	4281
2026-01-27 00:25:44.39	341.30	39.58	-40.9	-42.8	18.4	0.00e+00	0	43	0	0	53	4474
2026-01-27 00:25:45.30	341.01	39.74	-40.8	-42.6	18.5	0.00e+00	0	44	0	0	53	4379
2026-01-27 00:25:46.47	340.62	39.96	-41.1	-43.1	18.0	0.00e+00	0	44	0	0	53	4647
2026-01-27 00:25:47.35	340.33	40.12	-41.2	-43.3	17.9	0.00e+00	0	44	0	0	53	4708
2026-01-27 00:25:48.49	339.95	40.33	-41.4	-43.4	17.8	0.00e+00	0	43	0	0	53	4809
2026-01-27 00:25:49.35	339.66	40.49	-41.3	-43.4	17.8	0.00e+00	0	43	0	0	53	4786
2026-01-27 00:25:50.48	339.28	40.70	-41.4	-43.4	17.7	0.00e+00	0	44	0	0	53	4809
2026-01-27 00:25:51.33	338.98	40.86	-41.5	-43.6	17.6	0.00e+00	0	44	0	0	53	4872
2026-01-27 00:25:52.47	338.59	41.07	-41.8	-43.8	17.4	0.00e+00	0	44	0	0	54	4744
2026-01-27 00:25:53.32	338.29	41.22	-42.0	-44.1	17.1	0.00e+00	0	44	0	0	54	4919
2026-01-27 00:25:54.46	337.88	41.43	-42.3	-44.5	16.7	0.00e+00	0	43	0	0	55	4837
2026-01-27 00:25:55.31	337.57	41.59	-42.7	-45.0	16.3	0.00e+00	0	44	0	0	55	5129
2026-01-27 00:25:56.45	337.15	41.80	-42.8	-45.1	16.4	0.00e+00	0	44	0	0	56	4901
2026-01-27 00:25:57.30	336.84	41.95	-42.6	-44.8	16.7	0.00e+00	0	44	0	0	56	4756
2026-01-27 00:25:58.47	336.40	42.16	-42.5	-44.7	16.8	0.00e+00	0	44	0	0	56	4670
2026-01-27 00:25:59.33	336.08	42.32	-42.4	-44.6	16.8	0.00e+00	0	44	0	0	56	4628
2026-01-27 00:26:00.46	335.64	42.52	-42.3	-44.6	16.9	0.00e+00	0	44	0	0	56	4604
2026-01-27 00:26:01.32	335.31	42.68	-42.4	-44.7	16.7	0.00e+00	0	44	0	0	56	4690
2026-01-27 00:26:02.45	334.87	42.88	-42.4	-44.7	16.7	0.00e+00	0	44	0	0	56	4695
2026-01-27 00:26:03.31	334.53	43.03	-42.3	-44.6	16.9	0.00e+00	0	44	0	0	56	4636
2026-01-27 00:26:04.45	334.07	43.24	-42.5	-44.8	16.8	0.00e+00	0	44	0	0	56	4720
2026-01-27 00:26:05.39	333.69	43.40	-42.0	-44.1	17.4	0.00e+00	0	44	0	0	56	4386
2026-01-27 00:26:06.39	333.28	43.58	-41.7	-43.7	17.7	0.00e+00	0	44	0	0	55	4412
2026-01-27 00:26:07.38	332.87	43.75	-41.9	-43.9	17.5	0.00e+00	0	44	0	0	55	4507
2026-01-27 00:26:08.38	332.46	43.93	-42.1	-44.1	17.1	0.00e+00	0	43	0	0	55	4645
2026-01-27 00:26:09.37	332.04	44.10	-42.3	-44.4	17.0	0.00e+00	0	44	0	0	55	4785
2026-01-27 00:26:10.37	331.61	44.27	-42.4	-44.5	16.9	0.00e+00	0	44	0	0	55	4858
2026-01-27 00:26:11.36	331.18	44.44	-42.3	-44.4	16.9	0.00e+00	0	44	0	0	55	4798
2026-01-27 00:26:12.35	330.75	44.61	-42.3	-44.4	16.9	0.00e+00	0	44	0	0	55	4802
2026-01-27 00:26:13.35	330.31	44.78	-42.2	-44.3	17.0	0.00e+00	0	44	0	0	55	4737
2026-01-27 00:26:14.34	329.86	44.95	-42.1	-44.2	17.0	0.00e+00	0	44	0	0	55	4694
2026-01-27 00:26:15.34	329.41	45.12	-42.3	-44.5	16.8	0.00e+00	0	44	0	0	55	4822
2026-01-27 00:26:16.34	328.96	45.28	-42.3	-44.5	16.9	0.00e+00	0	44	0	0	55	4837
2026-01-27 00:26:17.37	328.48	45.45	-42.2	-44.3	17.0	0.00e+00	0	44	0	0	55	4754
2026-01-27 00:26:18.37	328.02	45.61	-42.3	-44.5	16.9	0.00e+00	0	44	0	0	55	4817
2026-01-27 00:26:19.36	327.55	45.77	-42.4	-44.6	16.7	0.00e+00	0	44	0	0	55	4924
2026-01-27 00:26:20.35	327.08	45.93	-42.4	-44.6	16.8	0.00e+00	0	44	0	0	55	4905
2026-01-27 00:26:21.35	326.60	46.09	-42.1	-44.2	17.2	0.00e+00	0	44	0	0	55	4699
2026-01-27 00:26:22.34	326.12	46.25	-42.0	-44.1	17.2	0.00e+00	0	44	0	0	55	4625
2026-01-27 00:26:23.34	325.63	46.40	-41.7	-43.8	17.5	0.00e+00	0	44	0	0	55	4451
2026-01-27 00:26:24.54	325.04	46.58	-41.8	-43.9	17.5	0.00e+00	0	44	0	0	55	4515
2026-01-27 00:26:25.41	324.60	46.72	-41.6	-43.6	17.8	0.00e+00	0	43	0	0	55	4379
2026-01-27 00:26:26.70	323.95	46.91	-41.1	-43.1	18.2	0.00e+00	0	44	0	0	54	4344
2026-01-27 00:26:27.41	323.59	47.01	-41.0	-42.9	18.3	0.00e+00	0	44	0	0	54	4287
2026-01-27 00:26:28.69	322.93	47.20	-41.4	-43.3	17.9	0.00e+00	0	44	0	0	54	4463
2026-01-27 00:26:29.43	322.54	47.31	-41.7	-43.7	17.4	0.00e+00	0	44	0	0	54	4696
2026-01-27 00:26:30.71	321.87	47.49	-42.2	-44.4	16.8	0.00e+00	0	43	0	0	55	4775
2026-01-27 00:26:31.42	321.49	47.58	-42.2	-44.4	16.9	0.00e+00	0	43	0	0	55	4771
2026-01-27 00:26:32.70	320.81	47.76	-42.2	-44.3	17.0	0.00e+00	0	44	0	0	55	4724
2026-01-27 00:26:33.44	320.41	47.86	-42.2	-44.3	16.9	0.00e+00	0	44	0	0	55	4754
2026-01-27 00:26:34.72	319.71	48.03	-42.5	-44.7	16.5	0.00e+00	0	44	0	0	55	4929
2026-01-27 00:26:35.48	319.30	48.13	-42.9	-45.1	16.2	0.00e+00	0	44	0	0	56	4922
2026-01-27 00:26:36.76	318.59	48.29	-42.5	-44.6	16.9	0.00e+00	0	44	0	0	56	4636
2026-01-27 00:26:37.58	318.13	48.39	-42.4	-44.6	16.8	0.00e+00	0	44	0	0	56	4628
2026-01-27 00:26:38.72	317.49	48.53	-42.6	-44.9	16.7	0.00e+00	0	44	0	0	56	4781
2026-01-27 00:26:39.57	317.01	48.63	-42.6	-44.8	16.7	0.00e+00	0	44	0	0	56	4738
2026-01-27 00:26:40.71	316.36	48.76	-42.7	-44.9	16.7	0.00e+00	0	44	0	0	56	4782
2026-01-27 00:26:41.80	315.73	48.89	-42.5	-44.6	16.9	0.00e+00	0	44	0	0	56	4634
2026-01-27 00:26:42.83	315.13	49.00	-41.8	-43.8	17.5	0.00e+00	0	44	0	0	55	4464
2026-01-27 00:26:43.82	314.55	49.11	-41.6	-43.6	17.6	0.00e+00	0	44	0	0	55	4381
2026-01-27 00:26:44.81	313.97	49.21	-41.6	-43.7	17.6	0.00e+00	0	44	0	0	55	4413
2026-01-27 00:26:45.81	313.38	49.31	-41.9	-44.0	17.3	0.00e+00	0	44	0	0	55	4598
2026-01-27 00:26:46.80	312.78	49.41	-42.0	-44.1	17.2	0.00e+00	0	44	0	0	55	4615
2026-01-27 00:26:47.80	312.18	49.50	-42.0	-44.1	17.3	0.00e+00	0	44	0	0	55	4612
2026-01-27 00:26:48.79	311.59	49.59	-42.1	-44.2	17.1	0.00e+00	0	44	0	0	55	4681
2026-01-27 00:26:49.79	310.98	49.68	-41.9	-44.1	17.2	0.00e+00	0	44	0	0	55	4611
2026-01-27 00:26:50.78	310.37	49.77	-41.8	-43.9	17.4	0.00e+00	0	44	0	0	55	4527
2026-01-27 00:26:51.79	309.75	49.85	-41.6	-43.6	17.7	0.00e+00	0	44	0	0	55	4366
2026-01-27 00:26:52.79	309.13	49.93	-41.5	-43.5	17.8	0.00e+00	0	44	0	0	54	4557
2026-01-27 00:26:53.78	308.52	50.00	-41.2	-43.2	17.9	0.00e+00	0	44	0	0	54	4404
2026-01-27 00:26:54.78	307.89	50.07	-41.2	-43.2	17.9	0.00e+00	0	44	0	0	54	4428
2026-01-27 00:26:55.87	307.21	50.15	-41.1	-43.0	18.2	0.00e+00	0	44	0	0	54	4327
2026-01-27 00:26:56.75	306.66	50.20	-41.2	-43.2	18.0	0.00e+00	0	44	0	0	54	4425
2026-01-27 00:26:58.14	305.78	50.29	-41.6	-43.7	17.7	0.00e+00	0	44	0	0	54	4664
2026-01-27 00:26:58.85	305.33	50.33	-41.4	-43.4	17.9	0.00e+00	0	44	0	0	54	4520
2026-01-27 00:27:00.13	304.51	50.40	-41.7	-43.7	17.6	0.00e+00	0	44	0	0	54	4702
2026-01-27 00:27:00.84	304.05	50.43	-41.8	-43.9	17.4	0.00e+00	0	44	0	0	54	4764
2026-01-27 00:27:02.12	303.23	50.49	-41.8	-43.9	17.5	0.00e+00	0	44	0	0	54	4775
2026-01-27 00:27:02.85	302.76	50.52	-41.7	-43.8	17.6	0.00e+00	0	44	0	0	54	4706
2026-01-27 00:27:04.13	301.94	50.57	-41.2	-43.1	18.1	0.00e+00	0	44	0	0	54	4373
2026-01-27 00:27:04.84	301.48	50.59	-41.2	-43.1	18.1	0.00e+00	0	44	0	0	54	4373
2026-01-27 00:27:06.12	300.65	50.63	-41.1	-43.0	18.2	0.00e+00	0	44	0	0	54	4317
2026-01-27 00:27:06.94	300.11	50.65	-41.1	-43.0	18.1	0.00e+00	0	44	0	0	54	4308
2026-01-27 00:27:08.08	299.37	50.68	-41.3	-43.2	17.9	0.00e+00	0	44	0	0	54	4429
2026-01-27 00:27:09.12	298.69	50.70	-41.1	-43.0	18.1	0.00e+00	0	44	0	0	54	4313
2026-01-27 00:27:10.29	297.93	50.71	-41.3	-43.2	17.9	0.00e+00	0	44	0	0	54	4418
2026-01-27 00:27:11.14	297.37	50.72	-41.4	-43.3	17.9	0.00e+00	0	44	0	0	54	4484
2026-01-27 00:27:12.48	296.50	50.73	-41.2	-43.2	17.9	0.00e+00	0	44	0	0	54	4403
2026-01-27 00:27:13.19	296.03	50.73	-41.4	-43.4	17.7	0.00e+00	0	44	0	0	54	4503
2026-01-27 00:27:14.47	295.20	50.73	-41.5	-43.5	17.7	0.00e+00	0	44	0	0	54	4576
2026-01-27 00:27:15.21	294.71	50.72	-41.8	-43.8	17.4	0.00e+00	0	44	0	0	54	4751
2026-01-27 00:27:16.49	293.88	50.71	-41.5	-43.6	17.7	0.00e+00	0	44	0	0	54	4601
2026-01-27 00:27:17.22	293.40	50.70	-41.5	-43.5	17.8	0.00e+00	0	44	0	0	54	4549
2026-01-27 00:27:18.49	292.57	50.67	-41.7	-43.7	17.4	0.00e+00	0	44	0	0	54	4670
2026-01-27 00:27:19.21	292.10	50.66	-41.4	-43.4	17.7	0.00e+00	0	44	0	0	54	4502
2026-01-27 00:27:20.48	291.28	50.62	-41.4	-43.4	17.6	0.00e+00	0	44	0	0	54	4523
2026-01-27 00:27:21.21	290.80	50.60	-41.6	-43.6	17.5	0.00e+00	0	44	0	0	54	4611
2026-01-27 00:27:22.49	289.97	50.56	-41.1	-43.1	18.0	0.00e+00	0	44	0	0	54	4350
2026-01-27 00:27:23.20	289.52	50.53	-41.2	-43.1	17.9	0.00e+00	0	44	0	0	54	4371
2026-01-27 00:27:24.48	288.69	50.48	-41.4	-43.4	17.7	0.00e+00	0	44	0	0	54	4510
2026-01-27 00:27:25.20	288.23	50.45	-41.6	-43.6	17.5	0.00e+00	0	44	0	0	54	4634
2026-01-27 00:27:26.48	287.41	50.38	-42.0	-44.2	17.1	0.00e+00	0	44	0	0	54	4928
2026-01-27 00:27:27.20	286.95	50.35	-42.0	-44.1	17.1	0.00e+00	0	44	0	0	54	4908
2026-01-27 00:27:28.56	286.08	50.27	-42.0	-44.1	16.9	0.00e+00	0	44	0	0	54	4920
2026-01-27 00:27:29.27	285.63	50.23	-41.9	-44.0	17.1	0.00e+00	0	44	0	0	54	4820
2026-01-27 00:27:30.64	284.77	50.14	-41.5	-43.5	17.5	0.00e+00	0	44	0	0	54	4578
2026-01-27 00:27:31.35	284.32	50.09	-41.4	-43.4	17.7	0.00e+00	0	44	0	0	54	4527
2026-01-27 00:27:32.66	283.50	50.00	-41.2	-43.1	18.1	0.00e+00	0	44	0	0	54	4377
2026-01-27 00:27:33.37	283.06	49.94	-41.4	-43.3	17.8	0.00e+00	0	43	0	0	54	4476
2026-01-27 00:27:34.65	282.27	49.84	-41.4	-43.3	17.9	0.00e+00	0	44	0	0	54	4472
2026-01-27 00:27:35.36	281.83	49.78	-41.0	-42.9	18.2	0.00e+00	0	44	0	0	54	4271
2026-01-27 00:27:36.77	280.97	49.66	-40.7	-42.6	18.4	0.00e+00	0	44	0	0	53	4347
2026-01-27 00:27:37.48	280.54	49.60	-40.6	-42.4	18.5	0.00e+00	0	44	0	0	53	4281
2026-01-27 00:27:38.76	279.76	49.48	-40.8	-42.6	18.2	0.00e+00	0	44	0	0	52	4641
2026-01-27 00:27:39.47	279.34	49.42	-41.3	-43.3	17.8	0.00e+00	0	44	0	0	53	4722
2026-01-27 00:27:40.75	278.57	49.29	-41.7	-43.7	17.5	0.00e+00	0	44	0	0	54	4685
2026-01-27 00:27:41.47	278.14	49.22	-42.0	-44.1	17.2	0.00e+00	0	44	0	0	54	4907
2026-01-27 00:27:42.74	277.40	49.08	-41.3	-43.3	17.9	0.00e+00	0	44	0	0	54	4468
2026-01-27 00:27:43.47	276.97	49.01	-41.0	-43.0	18.0	0.00e+00	0	43	0	0	54	4309
2026-01-27 00:27:44.75	276.22	48.86	-41.1	-43.1	17.9	0.00e+00	0	44	0	0	54	4351
2026-01-27 00:27:45.46	275.81	48.78	-41.2	-43.2	17.9	0.00e+00	0	44	0	0	54	4397
2026-01-27 00:27:46.74	275.08	48.63	-41.5	-43.5	17.7	0.00e+00	0	43	0	0	54	4590
2026-01-27 00:27:47.48	274.66	48.55	-41.7	-43.8	17.5	0.00e+00	0	44	0	0	54	4716
2026-01-27 00:27:48.76	273.94	48.39	-41.4	-43.3	18.0	0.00e+00	0	44	0	0	54	4460
2026-01-27 00:27:49.47	273.54	48.30	-41.2	-43.1	18.1	0.00e+00	0	44	0	0	54	4383
2026-01-27 00:27:50.75	272.83	48.14	-40.6	-42.4	18.8	0.00e+00	0	44	0	0	53	4260
2026-01-27 00:27:51.48	272.43	48.05	-40.1	-41.8	19.3	0.00e+00	0	44	0	0	52	4238
2026-01-27 00:27:52.76	271.73	47.88	-40.5	-42.4	18.8	0.00e+00	0	44	0	0	52	4516
2026-01-27 00:27:53.47	271.35	47.78	-41.1	-43.0	18.2	0.00e+00	0	44	0	0	52	4866
2026-01-27 00:27:54.74	270.66	47.61	-42.0	-44.1	17.0	0.00e+00	0	44	0	0	54	4885
2026-01-27 00:27:55.46	270.28	47.51	-42.2	-44.4	16.5	0.00e+00	0	44	0	0	55	4814
2026-01-27 00:27:56.74	269.61	47.33	-42.1	-44.3	16.8	0.00e+00	0	44	0	0	55	4715
2026-01-27 00:27:57.45	269.24	47.23	-41.5	-43.6	17.5	0.00e+00	0	44	0	0	55	4349
2026-01-27 00:27:58.72	268.58	47.04	-41.0	-42.9	18.3	0.00e+00	0	43	0	0	53	4517
2026-01-27 00:27:59.44	268.21	46.93	-40.9	-42.7	18.5	0.00e+00	0	44	0	0	53	4441
2026-01-27 00:28:00.71	267.56	46.74	-41.4	-43.3	18.0	0.00e+00	0	44	0	0	53	4745
2026-01-27 00:28:01.43	267.20	46.64	-41.8	-43.9	17.4	0.00e+00	0	44	0	0	54	4793
2026-01-27 00:28:02.71	266.56	46.44	-42.3	-44.5	16.8	0.00e+00	0	44	0	0	55	4820
2026-01-27 00:28:03.43	266.21	46.33	-42.0	-44.1	16.9	0.00e+00	0	44	0	0	55	4604
2026-01-27 00:28:04.71	265.58	46.13	-40.7	-42.6	18.1	0.00e+00	0	44	0	0	53	4356
2026-01-27 00:28:05.44	265.23	46.01	-40.1	-41.9	18.8	0.00e+00	0	44	0	0	52	4249
2026-01-27 00:28:06.72	264.62	45.81	-40.3	-42.0	19.1	0.00e+00	0	44	0	0	51	4587
2026-01-27 00:28:07.44	264.28	45.69	-40.8	-42.7	18.5	0.00e+00	0	44	0	0	52	4675
2026-01-27 00:28:08.74	263.67	45.48	-42.9	-45.2	16.4	0.00e+00	0	44	0	0	56	4945
2026-01-27 00:28:09.45	263.34	45.36	-43.8	-46.5	15.2	0.00e+00	0	44	0	0	58	5111
2026-01-27 00:28:10.73	262.75	45.15	-43.4	-45.8	15.1	0.00e+00	0	43	0	0	58	4747
2026-01-27 00:28:11.45	262.42	45.03	-42.5	-44.8	15.8	0.00e+00	0	44	0	0	57	4443
2026-01-27 00:28:12.73	261.85	44.81	-41.4	-43.4	17.1	0.00e+00	0	44	0	0	54	4532
2026-01-27 00:28:13.44	261.53	44.69	-41.0	-42.9	17.8	0.00e+00	0	44	0	0	54	4275
2026-01-27 00:28:14.72	260.97	44.48	-40.5	-42.3	18.6	0.00e+00	0	44	0	0	52	4485
2026-01-27 00:28:15.43	260.66	44.35	-40.6	-42.5	18.5	0.00e+00	0	44	0	0	52	4589
2026-01-27 00:28:16.71	260.11	44.13	-41.8	-43.9	17.4	0.00e+00	0	44	0	0	54	4796
2026-01-27 00:28:17.43	259.80	44.01	-42.9	-45.2	16.4	0.00e+00	0	44	0	0	56	4935
2026-01-27 00:28:18.70	259.26	43.78	-44.0	-46.6	14.8	0.00e+00	0	44	0	0	58	5181
2026-01-27 00:28:19.51	258.93	43.64	-43.6	-46.1	14.8	0.00e+00	0	43	0	0	58	4894
2026-01-27 00:28:20.65	258.46	43.44	-42.5	-44.8	15.8	0.00e+00	0	44	0	0	57	4457
2026-01-27 00:28:21.69	258.03	43.26	-42.1	-44.3	16.5	0.00e+00	0	44	0	0	56	4457
2026-01-27 00:28:22.83	257.57	43.05	-42.4	-44.6	16.6	0.00e+00	0	44	0	0	56	4642
2026-01-27 00:28:23.68	257.24	42.90	-42.7	-45.0	16.3	0.00e+00	0	44	0	0	56	4836
2026-01-27 00:28:24.82	256.79	42.69	-42.6	-44.8	16.5	0.00e+00	0	44	0	0	56	4736
2026-01-27 00:28:25.80	256.41	42.52	-43.0	-45.2	16.2	0.00e+00	0	44	0	0	56	4966
2026-01-27 00:28:26.96	255.96	42.31	-43.1	-45.4	16.1	0.00e+00	0	44	0	0	56	5057
2026-01-27 00:28:27.85	255.62	42.15	-42.6	-44.7	16.7	0.00e+00	0	44	0	0	56	4694
2026-01-27 00:28:28.98	255.20	41.94	-41.4	-43.3	17.7	0.00e+00	0	44	0	0	54	4476
2026-01-27 00:28:29.84	254.88	41.78	-40.8	-42.7	18.2	0.00e+00	0	44	0	0	53	4423
2026-01-27 00:28:30.97	254.46	41.57	-40.9	-42.8	18.1	0.00e+00	0	44	0	0	53	4483
2026-01-27 00:28:31.83	254.15	41.42	-41.1	-43.0	18.1	0.00e+00	0	44	0	0	53	4561
2026-01-27 00:28:32.96	253.75	41.21	-41.4	-43.3	17.9	0.00e+00	0	44	0	0	53	4740
2026-01-27 00:28:33.81	253.45	41.05	-42.1	-44.1	17.1	0.00e+00	0	44	0	0	54	4914
2026-01-27 00:28:34.95	253.05	40.84	-43.1	-45.4	16.1	0.00e+00	0	44	0	0	56	5055
2026-01-27 00:28:35.80	252.75	40.68	-43.2	-45.5	15.9	0.00e+00	0	43	0	0	57	4854
2026-01-27 00:28:36.94	252.36	40.47	-42.8	-45.0	16.3	0.00e+00	0	44	0	0	57	4582
2026-01-27 00:28:37.79	252.07	40.32	-42.3	-44.5	16.9	0.00e+00	0	44	0	0	56	4561
2026-01-27 00:28:39.02	251.66	40.09	-41.7	-43.8	17.5	0.00e+00	0	43	0	0	55	4446
2026-01-27 00:28:39.88	251.38	39.93	-41.5	-43.5	17.8	0.00e+00	0	44	0	0	55	4301
2026-01-27 00:28:41.01	251.01	39.72	-41.3	-43.3	18.0	0.00e+00	0	44	0	0	54	4449
2026-01-27 00:28:41.86	250.73	39.56	-41.4	-43.4	17.9	0.00e+00	0	43	0	0	54	4496
2026-01-27 00:28:43.00	250.37	39.35	-41.7	-43.8	17.5	0.00e+00	0	43	0	0	54	4708
2026-01-27 00:28:43.86	250.09	39.19	-42.0	-44.2	17.1	0.00e+00	0	44	0	0	54	4932
2026-01-27 00:28:44.99	249.74	38.98	-42.5	-44.7	16.6	0.00e+00	0	44	0	0	55	4970
2026-01-27 00:28:45.84	249.48	38.82	-42.5	-44.8	16.4	0.00e+00	0	44	0	0	55	4987
2026-01-27 00:28:46.98	249.13	38.61	-42.1	-44.3	16.7	0.00e+00	0	44	0	0	55	4735
2026-01-27 00:28:47.83	248.87	38.45	-41.7	-43.7	17.2	0.00e+00	0	44	0	0	55	4429
2026-01-27 00:28:48.97	248.53	38.24	-41.1	-43.1	18.0	0.00e+00	0	44	0	0	54	4347
2026-01-27 00:28:49.83	248.28	38.08	-41.1	-43.0	18.2	0.00e+00	0	44	0	0	54	4307
2026-01-27 00:28:50.96	247.95	37.87	-40.8	-42.7	18.5	0.00e+00	0	44	0	0	53	4425
2026-01-27 00:28:51.82	247.70	37.71	-41.2	-43.1	18.2	0.00e+00	0	44	0	0	53	4623
2026-01-27 00:28:52.95	247.38	37.50	-41.8	-43.9	17.4	0.00e+00	0	44	0	0	54	4767
2026-01-27 00:28:53.81	247.14	37.34	-42.2	-44.4	16.9	0.00e+00	0	44	0	0	55	4794
2026-01-27 00:28:55.01	246.80	37.12	-42.3	-44.4	16.9	0.00e+00	0	44	0	0	55	4806
2026-01-27 00:28:55.86	246.57	36.97	-41.9	-44.0	17.3	0.00e+00	0	44	0	0	55	4581
2026-01-27 00:28:57.06	246.24	36.74	-41.7	-43.7	17.6	0.00e+00	0	44	0	0	55	4431
2026-01-27 00:28:57.91	246.01	36.59	-41.4	-43.4	17.9	0.00e+00	0	44	0	0	54	4516
2026-01-27 00:28:59.11	245.69	36.37	-41.2	-43.2	18.0	0.00e+00	0	44	0	0	54	4399
2026-01-27 00:28:59.96	245.47	36.21	-40.5	-42.4	18.7	0.00e+00	0	44	0	0	53	4248
2026-01-27 00:29:01.10	245.17	36.00	-40.1	-41.9	19.1	0.00e+00	0	44	0	0	52	4269
2026-01-27 00:29:01.95	244.95	35.85	-39.9	-41.7	19.4	0.00e+00	0	44	0	0	51	4414
2026-01-27 00:29:03.09	244.66	35.64	-39.6	-41.3	19.7	0.00e+00	0	44	0	0	51	4241
2026-01-27 00:29:04.00	244.44	35.48	-39.5	-41.2	19.9	0.00e+00	0	44	0	0	51	4179
2026-01-27 00:29:05.00	244.19	35.30	-39.6	-41.4	19.7	0.00e+00	0	44	0	0	50	4518
2026-01-27 00:29:05.99	243.94	35.12	-40.1	-41.9	19.3	0.00e+00	0	44	0	0	50	4762
2026-01-27 00:29:06.99	243.70	34.94	-40.2	-42.0	19.0	0.00e+00	0	44	0	0	51	4591
2026-01-27 00:29:07.98	243.46	34.76	-40.1	-41.9	19.1	0.00e+00	0	44	0	0	51	4498
2026-01-27 00:29:08.98	243.22	34.58	-39.9	-41.7	19.3	0.00e+00	0	44	0	0	51	4400
2026-01-27 00:29:09.97	242.99	34.40	-39.8	-41.6	19.4	0.00e+00	0	44	0	0	51	4355
2026-01-27 00:29:10.97	242.76	34.22	-40.0	-41.8	19.2	0.00e+00	0	43	0	0	51	4450
2026-01-27 00:29:11.96	242.53	34.05	-40.4	-42.2	18.8	0.00e+00	0	44	0	0	51	4671
2026-01-27 00:29:12.95	242.30	33.87	-40.7	-42.6	18.4	0.00e+00	0	44	0	0	52	4602
2026-01-27 00:29:13.95	242.08	33.70	-40.9	-42.9	18.1	0.00e+00	0	44	0	0	52	4781
2026-01-27 00:29:14.94	241.86	33.52	-40.7	-42.6	18.4	0.00e+00	0	44	0	0	52	4639
2026-01-27 00:29:16.01	241.62	33.33	-40.4	-42.2	18.8	0.00e+00	0	44	0	0	52	4417
2026-01-27 00:29:16.87	241.43	33.18	-40.2	-42.0	19.0	0.00e+00	0	43	0	0	52	4332
2026-01-27 00:29:18.01	241.19	32.98	-39.9	-41.7	19.3	0.00e+00	0	44	0	0	51	4399
2026-01-27 00:29:18.86	241.01	32.83	-39.6	-41.4	19.6	0.00e+00	0	43	0	0	51	4249
2026-01-27 00:29:20.00	240.77	32.64	-39.8	-41.5	19.5	0.00e+00	0	44	0	0	51	4332
2026-01-27 00:29:20.86	240.59	32.49	-39.7	-41.5	19.6	0.00e+00	0	43	0	0	51	4292
2026-01-27 00:29:21.99	240.35	32.29	-39.8	-41.5	19.6	0.00e+00	0	44	0	0	51	4322
2026-01-27 00:29:22.85	240.18	32.14	-39.7	-41.5	19.6	0.00e+00	0	44	0	0	51	4302
2026-01-27 00:29:23.99	239.95	31.95	-39.7	-41.5	19.5	0.00e+00	0	44	0	0	51	4295
2026-01-27 00:29:24.84	239.78	31.80	-39.7	-41.5	19.5	0.00e+00	0	44	0	0	51	4314
2026-01-27 00:29:25.98	239.55	31.61	-39.6	-41.4	19.7	0.00e+00	0	44	0	0	51	4260
2026-01-27 00:29:26.83	239.38	31.47	-39.7	-41.5	19.6	0.00e+00	0	44	0	0	51	4303
2026-01-27 00:29:27.97	239.16	31.27	-39.7	-41.5	19.7	0.00e+00	0	44	0	0	51	4300
2026-01-27 00:29:28.82	239.00	31.13	-39.4	-41.2	20.0	0.00e+00	0	43	0	0	50	4392
2026-01-27 00:29:29.96	238.78	30.94	-39.4	-41.1	20.0	0.00e+00	0	44	0	0	50	4368
2026-01-27 00:29:30.81	238.62	30.80	-39.4	-41.1	19.8	0.00e+00	0	44	0	0	50	4376
2026-01-27 00:29:31.95	238.41	30.61	-39.4	-41.2	19.7	0.00e+00	0	44	0	0	50	4398
2026-01-27 00:29:32.81	238.25	30.46	-39.4	-41.2	19.7	0.00e+00	0	44	0	0	50	4406
2026-01-27 00:29:34.12	238.02	30.25	-39.5	-41.3	19.8	0.00e+00	0	44	0	0	50	4470
2026-01-27 00:29:34.84	237.89	30.13	-39.4	-41.2	19.9	0.00e+00	0	44	0	0	50	4403
2026-01-27 00:29:36.12	237.66	29.92	-39.4	-41.1	19.9	0.00e+00	0	44	0	0	50	4379
2026-01-27 00:29:36.84	237.53	29.80	-39.4	-41.1	20.0	0.00e+00	0	44	0	0	50	4364
2026-01-27 00:29:38.12	237.31	29.59	-39.6	-41.3	19.8	0.00e+00	0	44	0	0	50	4481
2026-01-27 00:29:38.85	237.18	29.47	-39.7	-41.5	19.6	0.00e+00	0	44	0	0	50	4584
2026-01-27 00:29:40.12	236.96	29.27	-39.8	-41.6	19.6	0.00e+00	0	44	0	0	50	4611
2026-01-27 00:29:40.89	236.83	29.14	-39.8	-41.6	19.5	0.00e+00	0	43	0	0	50	4639
2026-01-27 00:29:42.17	236.62	28.94	-39.8	-41.6	19.5	0.00e+00	0	44	0	0	50	4599
2026-01-27 00:29:42.88	236.50	28.82	-39.6	-41.3	19.6	0.00e+00	0	43	0	0	50	4478
2026-01-27 00:29:44.16	236.29	28.62	-39.6	-41.3	19.5	0.00e+00	0	44	0	0	50	4482
2026-01-27 00:29:44.88	236.17	28.51	-39.6	-41.4	19.4	0.00e+00	0	44	0	0	50	4513
2026-01-27 00:29:46.15	235.97	28.31	-39.7	-41.5	19.3	0.00e+00	0	44	0	0	50	4566
2026-01-27 00:29:47.09	235.82	28.16	-39.7	-41.5	19.3	0.00e+00	0	43	0	0	50	4588
2026-01-27 00:29:48.38	235.62	27.96	-39.5	-41.3	19.5	0.00e+00	0	44	0	0	50	4473
2026-01-27 00:29:49.09	235.50	27.85	-39.4	-41.2	19.7	0.00e+00	0	44	0	0	50	4410
2026-01-27 00:29:50.37	235.31	27.65	-39.2	-41.0	19.9	0.00e+00	0	44	0	0	50	4299
2026-01-27 00:29:51.08	235.20	27.54	-39.2	-40.9	20.0	0.00e+00	0	43	0	0	50	4272
2026-01-27 00:29:52.36	235.00	27.34	-39.2	-40.9	20.0	0.00e+00	0	44	0	0	50	4289
2026-01-27 00:29:53.07	234.90	27.23	-39.2	-41.0	19.9	0.00e+00	0	44	0	0	50	4293
2026-01-27 00:29:54.35	234.71	27.04	-39.1	-40.8	20.1	0.00e+00	0	44	0	0	50	4229
2026-01-27 00:29:55.06	234.60	26.93	-39.1	-40.9	20.0	0.00e+00	0	44	0	0	50	4250
2026-01-27 00:29:56.34	234.42	26.74	-38.9	-40.6	20.2	0.00e+00	0	44	0	0	49	4371
2026-01-27 00:29:57.06	234.31	26.63	-39.0	-40.7	20.2	0.00e+00	0	44	0	0	49	4403
2026-01-27 00:29:58.34	234.13	26.44	-39.2	-41.0	20.0	0.00e+00	0	44	0	0	49	4550
2026-01-27 00:29:59.05	234.03	26.33	-39.3	-41.0	19.9	0.00e+00	0	44	0	0	49	4595
2026-01-27 00:30:00.32	233.85	26.14	-39.3	-41.0	20.0	0.00e+00	0	44	0	0	49	4582
2026-01-27 00:30:01.05	233.75	26.03	-39.3	-41.1	20.0	0.00e+00	0	44	0	0	49	4600
2026-01-27 00:30:02.33	233.57	25.84	-39.3	-41.1	19.9	0.00e+00	0	44	0	0	49	4609
2026-01-27 00:30:03.04	233.48	25.74	-39.4	-41.2	19.8	0.00e+00	0	44	0	0	49	4679
2026-01-27 00:30:04.32	233.30	25.55	-39.5	-41.3	19.8	0.00e+00	0	44	0	0	49	4707
2026-01-27 00:30:05.03	233.21	25.45	-39.7	-41.4	19.6	0.00e+00	0	44	0	0	49	4807
2026-01-27 00:30:06.31	233.04	25.26	-39.8	-41.6	19.5	0.00e+00	0	44	0	0	50	4622
2026-01-27 00:30:07.02	232.95	25.16	-39.9	-41.7	19.4	0.00e+00	0	44	0	0	50	4679
2026-01-27 00:30:08.30	232.78	24.98	-40.0	-41.8	19.3	0.00e+00	0	44	0	0	50	4744
2026-01-27 00:30:09.01	232.69	24.87	-40.0	-41.8	19.3	0.00e+00	0	44	0	0	50	4748
2026-01-27 00:30:10.29	232.52	24.69	-40.0	-41.8	19.3	0.00e+00	0	44	0	0	50	4750
2026-01-27 00:30:11.00	232.43	24.59	-39.9	-41.7	19.5	0.00e+00	0	44	0	0	50	4672
2026-01-27 00:30:12.28	232.27	24.41	-39.7	-41.5	19.6	0.00e+00	0	44	0	0	50	4549
2026-01-27 00:30:12.99	232.18	24.31	-39.6	-41.4	19.7	0.00e+00	0	44	0	0	50	4535
2026-01-27 00:30:14.27	232.03	24.13	-39.6	-41.4	19.7	0.00e+00	0	44	0	0	50	4524
2026-01-27 00:30:14.98	231.94	24.03	-39.5	-41.2	19.8	0.00e+00	0	44	0	0	50	4416
2026-01-27 00:30:16.26	231.79	23.85	-39.4	-41.1	19.9	0.00e+00	0	44	0	0	50	4389
2026-01-27 00:30:16.99	231.70	23.75	-39.5	-41.2	19.8	0.00e+00	0	44	0	0	50	4425
2026-01-27 00:30:18.26	231.55	23.58	-39.4	-41.2	19.8	0.00e+00	0	44	0	0	50	4403
2026-01-27 00:30:19.01	231.46	23.48	-39.5	-41.2	19.8	0.00e+00	0	43	0	0	50	4438
2026-01-27 00:30:20.29	231.31	23.30	-39.5	-41.3	19.7	0.00e+00	0	44	0	0	50	4444
2026-01-27 00:30:21.01	231.23	23.20	-39.3	-41.0	20.0	0.00e+00	0	44	0	0	50	4305
2026-01-27 00:30:22.29	231.08	23.03	-39.0	-40.7	20.1	0.00e+00	0	44	0	0	50	4184
2026-01-27 00:30:23.11	230.99	22.92	-39.0	-40.7	20.1	0.00e+00	0	44	0	0	50	4177
2026-01-27 00:30:24.25	230.86	22.77	-39.0	-40.7	20.1	0.00e+00	0	44	0	0	50	4170
2026-01-27 00:30:25.10	230.76	22.65	-39.0	-40.7	20.1	0.00e+00	0	44	0	0	50	4179
2026-01-27 00:30:26.24	230.64	22.50	-39.2	-40.9	19.9	0.00e+00	0	43	0	0	50	4256
2026-01-27 00:30:27.09	230.54	22.39	-39.2	-40.9	20.0	0.00e+00	0	43	0	0	50	4247
2026-01-27 00:30:28.23	230.42	22.24	-39.4	-41.1	19.8	0.00e+00	0	44	0	0	50	4365
2026-01-27 00:30:29.08	230.33	22.13	-39.2	-41.0	20.0	0.00e+00	0	44	0	0	50	4293
2026-01-27 00:30:30.22	230.20	21.98	-39.3	-41.0	20.0	0.00e+00	0	44	0	0	50	4317
2026-01-27 00:30:31.07	230.11	21.87	-39.4	-41.1	19.9	0.00e+00	0	43	0	0	50	4357
2026-01-27 00:30:32.21	229.99	21.72	-39.3	-41.0	20.0	0.00e+00	0	44	0	0	50	4331
2026-01-27 00:30:33.06	229.91	21.61	-39.3	-41.1	19.9	0.00e+00	0	43	0	0	50	4341
2026-01-27 00:30:34.20	229.79	21.46	-39.4	-41.1	19.9	0.00e+00	0	43	0	0	50	4376
2026-01-27 00:30:35.05	229.70	21.35	-39.5	-41.2	19.7	0.00e+00	0	44	0	0	50	4425
2026-01-27 00:30:36.19	229.58	21.21	-39.5	-41.2	19.7	0.00e+00	0	44	0	0	50	4437
2026-01-27 00:30:37.04	229.50	21.10	-39.5	-41.2	19.7	0.00e+00	0	44	0	0	50	4439
2026-01-27 00:30:38.18	229.39	20.96	-39.5	-41.3	19.6	0.00e+00	0	44	0	0	50	4468
2026-01-27 00:30:39.03	229.30	20.85	-39.5	-41.3	19.6	0.00e+00	0	44	0	0	50	4446
2026-01-27 00:30:40.17	229.19	20.71	-39.4	-41.1	19.7	0.00e+00	0	44	0	0	50	4376
2026-01-27 00:30:41.31	229.08	20.56	-39.3	-41.1	19.8	0.00e+00	0	44	0	0	50	4343
2026-01-27 00:30:42.33	228.98	20.44	-39.1	-40.8	20.0	0.00e+00	0	44	0	0	50	4224
2026-01-27 00:30:43.33	228.88	20.31	-39.1	-40.8	19.9	0.00e+00	0	44	0	0	50	4233
2026-01-27 00:30:44.32	228.79	20.19	-39.0	-40.7	20.1	0.00e+00	0	44	0	0	50	4164
2026-01-27 00:30:45.31	228.70	20.07	-38.9	-40.5	20.2	0.00e+00	0	44	0	0	49	4332
2026-01-27 00:30:46.31	228.60	19.95	-38.8	-40.4	20.3	0.00e+00	0	44	0	0	49	4272
2026-01-27 00:30:47.30	228.51	19.83	-38.8	-40.5	20.2	0.00e+00	0	44	0	0	49	4318
2026-01-27 00:30:48.30	228.42	19.71	-38.8	-40.5	20.3	0.00e+00	0	44	0	0	49	4295
2026-01-27 00:30:49.29	228.33	19.59	-38.8	-40.5	20.3	0.00e+00	0	44	0	0	49	4308
2026-01-27 00:30:50.29	228.24	19.47	-38.9	-40.5	20.2	0.00e+00	0	44	0	0	49	4330
2026-01-27 00:30:51.28	228.15	19.35	-39.0	-40.7	20.1	0.00e+00	0	44	0	0	49	4398
2026-01-27 00:30:52.28	228.06	19.23	-39.1	-40.8	20.1	0.00e+00	0	44	0	0	49	4448
2026-01-27 00:30:53.27	227.97	19.11	-39.1	-40.8	20.0	0.00e+00	0	44	0	0	49	4491
2026-01-27 00:30:54.27	227.88	18.99	-39.3	-41.0	19.9	0.00e+00	0	43	0	0	49	4556
2026-01-27 00:30:55.26	227.80	18.88	-39.3	-41.0	19.9	0.00e+00	0	44	0	0	49	4583
2026-01-27 00:30:56.26	227.71	18.76	-39.4	-41.1	19.8	0.00e+00	0	44	0	0	49	4637
2026-01-27 00:30:57.25	227.63	18.64	-39.5	-41.2	19.7	0.00e+00	0	44	0	0	49	4699
2026-01-27 00:30:58.24	227.54	18.53	-39.7	-41.4	19.5	0.00e+00	0	44	0	0	49	4807
2026-01-27 00:30:59.24	227.46	18.41	-39.7	-41.4	19.5	0.00e+00	0	44	0	0	50	4527
2026-01-27 00:31:00.24	227.38	18.30	-39.7	-41.5	19.5	0.00e+00	0	44	0	0	50	4548
2026-01-27 00:31:01.23	227.29	18.19	-39.7	-41.5	19.4	0.00e+00	0	44	0	0	50	4581
2026-01-27 00:31:02.23	227.21	18.07	-39.8	-41.5	19.4	0.00e+00	0	44	0	0	50	4588
2026-01-27 00:31:03.22	227.13	17.96	-39.9	-41.6	19.3	0.00e+00	0	44	0	0	50	4651
2026-01-27 00:31:04.22	227.05	17.85	-39.9	-41.6	19.3	0.00e+00	0	43	0	0	50	4651
2026-01-27 00:31:05.56	226.94	17.69	-40.0	-41.8	19.1	0.00e+00	0	44	0	0	50	4724
2026-01-27 00:31:06.27	226.88	17.61	-40.0	-41.8	19.1	0.00e+00	0	44	0	0	50	4747
2026-01-27 00:31:07.56	226.78	17.47	-40.0	-41.8	19.1	0.00e+00	0	43	0	0	50	4740
2026-01-27 00:31:08.27	226.73	17.39	-40.1	-41.9	19.1	0.00e+00	0	44	0	0	50	4770
2026-01-27 00:31:09.55	226.63	17.25	-40.1	-41.9	19.0	0.00e+00	0	44	0	0	50	4795
2026-01-27 00:31:10.27	226.57	17.17	-40.1	-41.9	19.0	0.00e+00	0	44	0	0	50	4809
2026-01-27 00:31:11.54	226.47	17.03	-40.2	-42.0	18.9	0.00e+00	0	44	0	0	51	4574
2026-01-27 00:31:12.25	226.42	16.95	-40.1	-41.9	19.0	0.00e+00	0	44	0	0	51	4542
2026-01-27 00:31:13.53	226.32	16.81	-40.2	-42.0	18.9	0.00e+00	0	44	0	0	51	4592
2026-01-27 00:31:14.25	226.27	16.73	-40.3	-42.1	18.8	0.00e+00	0	44	0	0	51	4625
2026-01-27 00:31:15.67	226.16	16.58	-40.1	-41.9	19.0	0.00e+00	0	44	0	0	51	4538
2026-01-27 00:31:16.38	226.11	16.50	-40.2	-42.0	18.9	0.00e+00	0	44	0	0	51	4590
2026-01-27 00:31:17.66	226.02	16.37	-40.3	-42.1	18.8	0.00e+00	0	44	0	0	51	4635
2026-01-27 00:31:18.37	225.96	16.29	-40.2	-42.1	18.8	0.00e+00	0	44	0	0	51	4614
2026-01-27 00:31:19.78	225.86	16.14	-40.0	-41.8	19.1	0.00e+00	0	44	0	0	51	4485
2026-01-27 00:31:20.49	225.81	16.06	-40.0	-41.8	19.1	0.00e+00	0	44	0	0	51	4475
2026-01-27 00:31:21.77	225.72	15.93	-40.0	-41.8	19.1	0.00e+00	0	44	0	0	51	4462
2026-01-27 00:31:22.48	225.67	15.85	-39.9	-41.7	19.2	0.00e+00	0	44	0	0	51	4406
2026-01-27 00:31:23.76	225.58	15.72	-39.8	-41.6	19.3	0.00e+00	0	44	0	0	51	4373
2026-01-27 00:31:24.50	225.53	15.64	-39.9	-41.7	19.1	0.00e+00	0	44	0	0	51	4432
2026-01-27 00:31:25.78	225.44	15.51	-40.0	-41.8	19.1	0.00e+00	0	44	0	0	51	4473
2026-01-27 00:31:26.49	225.39	15.43	-40.0	-41.8	19.1	0.00e+00	0	44	0	0	51	4483
2026-01-27 00:31:27.77	225.30	15.30	-39.8	-41.6	19.3	0.00e+00	0	44	0	0	51	4361
2026-01-27 00:31:28.50	225.26	15.23	-39.8	-41.5	19.3	0.00e+00	0	44	0	0	51	4340
2026-01-27 00:31:29.78	225.17	15.10	-39.7	-41.5	19.3	0.00e+00	0	44	0	0	51	4333
2026-01-27 00:31:30.49	225.12	15.02	-39.8	-41.6	19.2	0.00e+00	0	44	0	0	51	4372
2026-01-27 00:31:31.77	225.04	14.89	-39.8	-41.6	19.2	0.00e+00	0	44	0	0	51	4373
2026-01-27 00:31:32.48	224.99	14.82	-39.8	-41.6	19.3	0.00e+00	0	44	0	0	51	4351
2026-01-27 00:31:33.76	224.91	14.69	-39.9	-41.7	19.2	0.00e+00	0	44	0	0	51	4428
2026-01-27 00:31:34.71	224.85	14.60	-39.9	-41.8	19.1	0.00e+00	0	44	0	0	51	4444
2026-01-27 00:31:36.00	224.76	14.47	-40.0	-41.8	19.1	0.00e+00	0	44	0	0	51	4473
2026-01-27 00:31:36.72	224.72	14.40	-40.0	-41.8	19.1	0.00e+00	0	44	0	0	51	4459
2026-01-27 00:31:38.00	224.64	14.27	-40.1	-41.9	19.0	0.00e+00	0	44	0	0	51	4509
2026-01-27 00:31:38.71	224.59	14.20	-40.1	-42.0	18.9	0.00e+00	0	44	0	0	51	4563
2026-01-27 00:31:39.99	224.51	14.07	-40.2	-42.0	18.9	0.00e+00	0	44	0	0	51	4592
2026-01-27 00:31:40.73	224.46	14.00	-40.3	-42.1	18.8	0.00e+00	0	44	0	0	51	4628
2026-01-27 00:31:42.01	224.39	13.87	-40.3	-42.2	18.7	0.00e+00	0	44	0	0	51	4658
2026-01-27 00:31:42.75	224.34	13.80	-40.3	-42.1	18.8	0.00e+00	0	44	0	0	51	4633
2026-01-27 00:31:44.03	224.26	13.68	-40.3	-42.2	18.7	0.00e+00	0	44	0	0	51	4676
2026-01-27 00:31:44.74	224.22	13.61	-40.4	-42.3	18.6	0.00e+00	0	44	0	0	51	4725
2026-01-27 00:31:46.02	224.14	13.48	-40.5	-42.3	18.5	0.00e+00	0	44	0	0	51	4748
2026-01-27 00:31:46.76	224.10	13.41	-40.4	-42.3	18.6	0.00e+00	0	44	0	0	51	4750
2026-01-27 00:31:48.15	224.02	13.28	-40.6	-42.5	18.4	0.00e+00	0	44	0	0	51	4827
2026-01-27 00:31:48.86	223.97	13.21	-40.6	-42.6	18.3	0.00e+00	0	44	0	0	51	4872
2026-01-27 00:31:50.14	223.90	13.09	-40.6	-42.5	18.3	0.00e+00	0	44	0	0	52	4584
2026-01-27 00:31:51.20	223.84	12.99	-40.6	-42.5	18.2	0.00e+00	0	44	0	0	52	4595
2026-01-27 00:31:52.38	223.77	12.88	-40.5	-42.5	18.2	0.00e+00	0	44	0	0	52	4586
2026-01-27 00:31:53.23	223.72	12.80	-40.6	-42.6	18.2	0.00e+00	0	44	0	0	52	4618
2026-01-27 00:31:54.37	223.66	12.69	-40.7	-42.7	18.1	0.00e+00	0	44	0	0	52	4654
2026-01-27 00:31:55.22	223.61	12.61	-40.7	-42.7	18.1	0.00e+00	0	44	0	0	52	4659
2026-01-27 00:31:56.36	223.55	12.51	-40.8	-42.8	17.9	0.00e+00	0	44	0	0	52	4734
2026-01-27 00:31:57.21	223.50	12.43	-40.8	-42.9	17.9	0.00e+00	0	44	0	0	52	4761
2026-01-27 00:31:58.35	223.43	12.32	-40.7	-42.7	18.0	0.00e+00	0	44	0	0	52	4655
2026-01-27 00:31:59.20	223.39	12.25	-40.7	-42.7	18.0	0.00e+00	0	44	0	0	52	4672
2026-01-27 00:32:00.34	223.33	12.14	-40.6	-42.6	18.1	0.00e+00	0	44	0	0	52	4609
2026-01-27 00:32:01.19	223.28	12.06	-40.6	-42.6	18.1	0.00e+00	0	44	0	0	52	4609
2026-01-27 00:32:02.33	223.22	11.96	-40.7	-42.7	18.0	0.00e+00	0	44	0	0	52	4672
2026-01-27 00:32:03.18	223.17	11.88	-40.7	-42.7	18.0	0.00e+00	0	44	0	0	52	4667
2026-01-27 00:32:04.45	223.11	11.77	-40.6	-42.5	18.1	0.00e+00	0	44	0	0	52	4586
2026-01-27 00:32:05.26	223.06	11.69	-40.6	-42.5	18.1	0.00e+00	0	44	0	0	52	4587
2026-01-27 00:32:06.40	223.00	11.59	-40.6	-42.5	18.1	0.00e+00	0	44	0	0	52	4584
2026-01-27 00:32:07.25	222.96	11.52	-40.6	-42.5	18.1	0.00e+00	0	44	0	0	52	4573
2026-01-27 00:32:08.39	222.90	11.41	-40.6	-42.5	18.1	0.00e+00	0	44	0	0	52	4575
2026-01-27 00:32:09.24	222.86	11.34	-40.4	-42.4	18.1	0.00e+00	0	44	0	0	52	4515
2026-01-27 00:32:10.38	222.80	11.24	-40.5	-42.5	18.1	0.00e+00	0	44	0	0	52	4570
2026-01-27 00:32:11.23	222.75	11.16	-40.5	-42.5	18.1	0.00e+00	0	44	0	0	52	4557
2026-01-27 00:32:12.37	222.70	11.06	-40.5	-42.5	18.1	0.00e+00	0	44	0	0	52	4578
2026-01-27 00:32:13.22	222.65	10.99	-40.4	-42.4	18.1	0.00e+00	0	44	0	0	52	4526
2026-01-27 00:32:14.36	222.60	10.89	-40.5	-42.5	18.0	0.00e+00	0	44	0	0	52	4590
2026-01-27 00:32:15.21	222.55	10.81	-40.5	-42.4	18.1	0.00e+00	0	44	0	0	52	4534
2026-01-27 00:32:16.35	222.50	10.71	-40.5	-42.5	18.1	0.00e+00	0	44	0	0	52	4552
2026-01-27 00:32:17.20	222.46	10.64	-40.5	-42.5	18.1	0.00e+00	0	44	0	0	52	4547
2026-01-27 00:32:18.34	222.40	10.54	-40.5	-42.5	18.1	0.00e+00	0	44	0	0	52	4561
2026-01-27 00:32:19.19	222.36	10.47	-40.7	-42.6	17.9	0.00e+00	0	44	0	0	52	4647
2026-01-27 00:32:20.37	222.30	10.37	-40.7	-42.7	17.9	0.00e+00	0	44	0	0	52	4663
2026-01-27 00:32:21.22	222.26	10.30	-40.7	-42.8	17.8	0.00e+00	0	44	0	0	52	4719
2026-01-27 00:32:22.40	222.21	10.20	-40.7	-42.7	17.9	0.00e+00	0	44	0	0	52	4698
2026-01-27 00:32:23.25	222.17	10.12	-40.5	-42.6	18.0	0.00e+00	0	44	0	0	52	4604
2026-01-27 00:32:24.39	222.11	10.03	-40.6	-42.7	18.0	0.00e+00	0	44	0	0	52	4654
2026-01-27 00:32:25.24	222.07	9.96	-40.6	-42.7	18.0	0.00e+00	0	44	0	0	52	4661
2026-01-27 00:32:26.38	222.02	9.86	-40.7	-42.7	17.9	0.00e+00	0	44	0	0	52	4688
2026-01-27 00:32:27.23	221.98	9.79	-40.6	-42.8	17.9	0.00e+00	0	44	0	0	52	4721
2026-01-27 00:32:28.37	221.93	9.69	-40.8	-42.8	17.8	0.00e+00	0	44	0	0	52	4748
2026-01-27 00:32:29.30	221.89	9.62	-40.8	-42.9	17.7	0.00e+00	0	44	0	0	52	4784
2026-01-27 00:32:30.47	221.83	9.52	-40.7	-42.9	17.8	0.00e+00	0	44	0	0	52	4764
2026-01-27 00:32:31.36	221.79	9.44	-40.8	-42.9	17.7	0.00e+00	0	44	0	0	52	4788
2026-01-27 00:32:32.49	221.74	9.35	-40.8	-43.1	17.6	0.00e+00	0	44	0	0	52	4882
2026-01-27 00:32:33.34	221.71	9.28	-40.8	-43.0	17.6	0.00e+00	0	44	0	0	52	4853
2026-01-27 00:32:34.48	221.66	9.19	-41.0	-43.2	17.4	0.00e+00	0	44	0	0	52	4947
2026-01-27 00:32:35.33	221.62	9.12	-40.9	-43.3	17.4	0.00e+00	0	44	0	0	52	4984
2026-01-27 00:32:36.47	221.57	9.03	-41.1	-43.4	17.3	0.00e+00	0	44	0	0	52	5074
2026-01-27 00:32:37.32	221.53	8.96	-49.1	-62.1	3.8	1.49e+00	0	44	104	0	69	16459
2026-01-27 00:32:38.46	221.48	8.86	-49.1	-62.5	3.8	1.49e+00	0	44	104	0	69	17266
2026-01-27 00:32:39.31	221.45	8.80	-49.5	-62.6	3.8	1.49e+00	0	44	104	0	69	17479
2026-01-27 00:32:40.45	221.40	8.70	-49.6	-62.7	3.8	1.49e+00	0	44	104	0	69	17582
2026-01-27 00:32:41.30	221.36	8.64	-49.5	-62.8	3.8	1.49e+00	0	44	104	0	69	17785
2026-01-27 00:32:42.44	221.31	8.54	-49.4	-62.8	3.8	1.49e+00	0	44	104	0	69	17857
2026-01-27 00:32:43.29	221.28	8.48	-49.3	-62.9	3.8	1.49e+00	0	44	104	0	69	17921
2026-01-27 00:32:44.48	221.23	8.38	-49.7	-62.9	3.8	1.49e+00	0	44	104	0	70	17000
2026-01-27 00:32:45.34	221.19	8.31	-49.9	-62.9	3.8	1.49e+00	0	44	104	0	70	17024
2026-01-27 00:32:46.53	221.14	8.22	-49.7	-62.9	3.8	1.49e+00	0	44	104	0	70	17030
2026-01-27 00:32:47.39	221.11	8.15	-49.9	-62.9	3.8	1.49e+00	0	44	104	0	70	17027
2026-01-27 00:32:48.58	221.06	8.06	-49.8	-62.9	3.8	1.49e+00	0	44	104	0	70	17035
2026-01-27 00:32:49.44	221.03	7.99	-49.9	-63.0	3.8	1.49e+00	0	44	104	0	70	17123
2026-01-27 00:32:50.63	220.98	7.90	-49.8	-63.0	3.8	1.49e+00	0	44	104	0	70	17136
2026-01-27 00:32:51.49	220.94	7.83	-49.6	-63.0	3.8	1.49e+00	0	44	104	0	70	17150
2026-01-27 00:32:52.68	220.90	7.74	-49.9	-63.0	3.8	1.49e+00	0	44	104	0	70	17121
2026-01-27 00:32:53.54	220.86	7.67	-49.8	-62.9	3.8	1.49e+00	0	44	104	0	70	17078
2026-01-27 00:32:54.67	220.82	7.58	-49.7	-62.9	3.8	1.49e+00	0	44	104	0	70	17031
2026-01-27 00:32:55.52	220.78	7.52	-49.7	-62.9	3.8	1.49e+00	0	44	104	0	70	17025
2026-01-27 00:32:56.66	220.74	7.43	-49.5	-62.9	3.8	1.49e+00	0	44	104	0	70	16991
2026-01-27 00:32:57.51	220.71	7.37	-49.5	-62.9	3.8	1.49e+00	0	44	104	0	70	16972
2026-01-27 00:32:58.64	220.66	7.28	-49.5	-62.9	3.8	1.49e+00	0	44	104	0	70	16946
2026-01-27 00:32:59.50	220.63	7.21	-49.5	-62.9	3.8	1.49e+00	0	44	104	0	70	16906
2026-01-27 00:33:00.63	220.59	7.13	-49.5	-62.9	3.8	1.49e+00	0	44	104	0	70	16891
2026-01-27 00:33:01.48	220.56	7.06	-49.5	-62.9	3.8	1.49e+00	0	44	104	0	70	16909
2026-01-27 00:33:02.62	220.51	6.98	-49.5	-62.8	3.8	1.49e+00	0	44	104	0	70	16878
2026-01-27 00:33:03.47	220.48	6.91	-49.5	-62.9	3.8	1.49e+00	0	44	104	0	70	16911
2026-01-27 00:33:04.61	220.44	6.83	-49.5	-62.8	3.8	1.49e+00	0	44	104	0	70	16803
2026-01-27 00:33:05.46	220.41	6.77	-49.5	-62.8	3.8	1.49e+00	0	44	104	0	70	16878
2026-01-27 00:33:06.59	220.37	6.68	-49.5	-62.9	3.8	1.49e+00	0	44	104	0	70	16901
2026-01-27 00:33:07.44	220.33	6.62	-49.5	-62.9	3.8	1.49e+00	0	44	104	0	70	16914
2026-01-27 00:33:08.58	220.29	6.53	-49.5	-62.8	3.8	1.49e+00	0	44	104	0	70	16829
2026-01-27 00:33:09.43	220.26	6.47	-49.5	-62.9	3.8	1.49e+00	0	44	104	0	70	16891
2026-01-27 00:33:10.57	220.22	6.39	-49.5	-62.8	3.8	1.49e+00	0	44	104	0	70	16833
2026-01-27 00:33:11.42	220.19	6.32	-49.5	-62.8	3.8	1.49e+00	0	44	104	0	70	16863
2026-01-27 00:33:12.55	220.15	6.24	-49.5	-62.8	3.8	1.49e+00	0	44	104	0	70	16850
2026-01-27 00:33:13.40	220.12	6.18	-49.5	-62.9	3.8	1.49e+00	0	44	104	0	70	16915
2026-01-27 00:33:14.54	220.08	6.09	-49.5	-62.8	3.8	1.49e+00	0	44	104	0	70	16856
2026-01-27 00:33:15.39	220.05	6.03	-49.5	-62.8	3.8	1.49e+00	0	44	104	0	70	16852
2026-01-27 00:33:16.53	220.01	5.95	-49.5	-62.8	3.8	1.49e+00	0	44	104	0	70	16875
2026-01-27 00:33:17.38	219.98	5.89	-49.5	-62.8	3.8	1.49e+00	0	44	104	0	70	16875
2026-01-27 00:33:18.51	219.94	5.81	-49.5	-62.9	3.8	1.49e+00	0	44	104	0	70	16888
2026-01-27 00:33:19.37	219.91	5.74	-49.5	-62.9	3.8	1.49e+00	0	44	104	0	70	16902
2026-01-27 00:33:20.50	219.87	5.66	-49.5	-62.8	3.8	1.49e+00	0	44	104	0	70	16864
2026-01-27 00:33:21.35	219.85	5.60	-49.5	-62.8	3.8	1.49e+00	0	44	104	0	70	16836
2026-01-27 00:33:22.49	219.81	5.52	-49.5	-62.8	3.8	1.49e+00	0	44	104	0	70	16882
2026-01-27 00:33:23.34	219.78	5.46	-49.5	-62.8	3.8	1.49e+00	0	44	104	0	70	16879
2026-01-27 00:33:24.47	219.74	5.38	-49.5	-62.8	3.8	1.49e+00	0	44	104	0	70	16782
2026-01-27 00:33:25.32	219.71	5.32	-49.5	-62.8	3.8	1.49e+00	0	44	104	0	70	16843
2026-01-27 00:33:26.46	219.67	5.24	-49.5	-62.8	3.8	1.49e+00	0	44	104	0	70	16836
2026-01-27 00:33:27.31	219.65	5.18	-49.5	-62.8	3.8	1.49e+00	0	44	104	0	70	16842
2026-01-27 00:33:28.45	219.61	5.10	-49.5	-62.8	3.8	1.49e+00	0	44	104	0	70	16816
2026-01-27 00:33:29.30	219.58	5.04	-49.5	-62.8	3.8	1.49e+00	0	44	104	0	70	16884
2026-01-27 00:33:30.43	219.54	4.96	-49.5	-62.8	3.8	1.49e+00	0	44	104	0	70	16873

#Closed at: 2026-01-27 00:33:31
#Recorded file [0 MB]: D:/Data/31040_260127_032055.dat