passes_logs/2026/01/27/T1/T1__20260127_155421_FENGYUN_3G_rec.log

#Pass ID: 20260127_155421_FENGYUN 3G
#Satellite: FENGYUN 3G
#Configuration: FENGYUN 3G
#almurnet v.1.7.20251203
#Start time: 2026-01-27 15:54:20

#Version: 2.0.20230620
#Station: T1
#Location: 37.570604 lon 55.790049 lat
#TLE: 1 56232U 23055A   26026.81668957  .00042566  00000+0  63804-3 0  9995
#TLE: 2 56232  49.9949 354.9274 0004068  91.1881 268.9553 15.54453119158037

#Time	Az	El	Level	Level2	SNR	BER	BlckErr	Temp	State	Recorded	gain1	gain2
2026-01-27 15:54:20.70	198.30	4.98	-50.4	-69.5	3.8	8.48e-01	0	38	0	0	72	32437
2026-01-27 15:54:21.69	198.14	5.04	-50.7	-69.6	3.8	8.38e-01	0	38	104	0	73	30887
2026-01-27 15:54:22.68	197.98	5.10	-50.7	-69.6	3.8	8.46e-01	0	38	104	0	73	31023
2026-01-27 15:54:23.68	197.82	5.16	-50.5	-69.6	3.8	8.46e-01	0	38	104	0	73	31023
2026-01-27 15:54:24.67	197.66	5.21	-50.7	-69.6	3.8	8.46e-01	0	38	104	0	72	32845
2026-01-27 15:54:25.66	197.50	5.27	-50.7	-69.6	3.8	8.48e-01	0	38	104	0	72	32756
2026-01-27 15:54:26.66	197.34	5.33	-50.4	-69.6	3.8	8.47e-01	0	38	104	0	72	32755
2026-01-27 15:54:27.65	197.18	5.39	-50.6	-69.6	3.8	8.47e-01	0	38	104	0	72	32709
2026-01-27 15:54:28.64	197.01	5.45	-50.6	-69.6	3.8	8.47e-01	0	38	104	0	72	32754
2026-01-27 15:54:29.63	196.85	5.51	-50.5	-69.5	3.8	8.47e-01	0	38	104	0	72	32508
2026-01-27 15:54:30.63	196.68	5.57	-50.6	-69.5	3.8	8.47e-01	0	38	104	0	72	32532
2026-01-27 15:54:31.62	196.51	5.63	-50.3	-69.5	3.8	8.47e-01	0	38	104	0	72	32418
2026-01-27 15:54:32.61	196.35	5.69	-50.6	-69.5	3.8	8.47e-01	0	38	104	0	72	32325
2026-01-27 15:54:33.60	196.18	5.75	-50.4	-69.5	3.8	8.47e-01	0	38	104	0	72	32263
2026-01-27 15:54:34.60	196.01	5.81	-50.4	-69.4	3.8	8.46e-01	0	38	104	0	72	32123
2026-01-27 15:54:35.59	195.84	5.87	-50.4	-69.5	3.8	8.46e-01	0	38	104	0	72	32220
2026-01-27 15:54:36.58	195.66	5.93	-50.5	-69.4	3.8	8.46e-01	0	38	104	0	72	32091
2026-01-27 15:54:37.58	195.49	5.99	-50.4	-69.4	3.8	8.47e-01	0	39	104	0	72	31898
2026-01-27 15:54:38.57	195.32	6.05	-50.4	-69.4	3.8	8.47e-01	0	39	104	0	72	31880
2026-01-27 15:54:39.56	195.14	6.11	-50.1	-69.4	3.8	8.46e-01	0	39	104	0	71	33858
2026-01-27 15:54:40.56	194.96	6.17	-50.0	-69.4	3.8	8.46e-01	0	39	104	0	71	33724
2026-01-27 15:54:41.55	194.79	6.23	-50.0	-69.3	3.8	8.48e-01	0	39	104	0	71	33590
2026-01-27 15:54:42.54	194.61	6.29	-49.5	-69.3	3.8	8.46e-01	0	39	104	0	70	35400
2026-01-27 15:54:43.53	194.43	6.35	-49.2	-69.2	3.8	8.46e-01	0	39	104	0	70	35029
2026-01-27 15:54:44.53	194.25	6.41	-49.4	-69.2	3.8	8.47e-01	0	39	104	0	70	34884
2026-01-27 15:54:45.52	194.07	6.47	-49.2	-69.1	3.8	8.47e-01	0	39	104	0	70	34498
2026-01-27 15:54:46.51	193.89	6.53	-49.0	-68.9	3.8	8.47e-01	0	39	104	0	69	36005
2026-01-27 15:54:47.51	193.70	6.59	-49.0	-68.9	3.8	8.47e-01	0	39	104	0	69	36058
2026-01-27 15:54:48.50	193.52	6.65	-49.0	-68.9	3.8	8.46e-01	0	39	104	0	69	36052
2026-01-27 15:54:49.49	193.33	6.71	-49.0	-69.0	3.8	8.46e-01	0	39	104	0	69	36133
2026-01-27 15:54:50.48	193.15	6.77	-49.0	-68.9	3.8	8.47e-01	0	39	104	0	69	36082
2026-01-27 15:54:51.48	192.96	6.83	-49.0	-68.9	3.8	8.47e-01	0	39	104	0	69	35930
2026-01-27 15:54:52.47	192.77	6.89	-49.0	-68.9	3.8	8.47e-01	0	39	104	0	69	35970
2026-01-27 15:54:53.46	192.58	6.95	-49.0	-68.9	3.8	8.47e-01	0	39	104	0	69	36053
2026-01-27 15:54:54.46	192.39	7.01	-49.0	-68.9	3.8	8.46e-01	0	39	104	0	69	35950
2026-01-27 15:54:55.45	192.20	7.07	-49.0	-68.9	3.8	8.46e-01	0	39	104	0	69	35929
2026-01-27 15:54:56.44	192.01	7.13	-49.0	-68.9	3.8	8.47e-01	0	39	104	0	69	36072
2026-01-27 15:54:57.44	191.81	7.19	-49.0	-68.9	3.8	8.47e-01	0	39	104	0	69	36048
2026-01-27 15:54:58.43	191.62	7.25	-48.9	-68.9	3.8	8.47e-01	0	39	104	0	69	36044
2026-01-27 15:54:59.42	191.42	7.31	-49.0	-68.9	3.8	8.48e-01	0	39	104	0	69	35987
2026-01-27 15:55:00.42	191.22	7.37	-49.0	-68.9	3.8	8.48e-01	0	39	104	0	69	36021
2026-01-27 15:55:01.41	191.02	7.43	-49.0	-68.9	3.8	8.46e-01	0	39	104	0	69	35964
2026-01-27 15:55:02.40	190.82	7.49	-49.0	-68.9	3.8	8.46e-01	0	39	104	0	69	35925
2026-01-27 15:55:03.39	190.62	7.55	-48.9	-68.9	3.8	8.46e-01	0	39	104	0	69	35890
2026-01-27 15:55:04.39	190.42	7.61	-48.9	-68.9	3.8	8.48e-01	0	39	104	0	69	35902
2026-01-27 15:55:05.38	190.22	7.67	-48.9	-68.9	3.8	8.48e-01	0	39	104	0	69	36015
2026-01-27 15:55:06.37	190.01	7.72	-48.9	-68.9	3.8	8.47e-01	0	39	104	0	69	36026
2026-01-27 15:55:07.36	189.81	7.78	-49.0	-68.9	3.8	8.47e-01	0	39	104	0	69	35977
2026-01-27 15:55:08.36	189.60	7.84	-48.9	-68.9	3.8	8.47e-01	0	39	104	0	69	35931
2026-01-27 15:55:09.35	189.39	7.90	-48.9	-68.9	3.8	8.46e-01	0	39	104	0	69	35908
2026-01-27 15:55:10.34	189.18	7.96	-48.9	-68.9	3.8	8.47e-01	0	39	104	0	69	35893
2026-01-27 15:55:11.34	188.97	8.02	-48.9	-68.9	3.8	8.47e-01	0	39	104	0	69	35947
2026-01-27 15:55:12.33	188.76	8.08	-48.9	-68.9	3.8	8.47e-01	0	39	104	0	69	36007
2026-01-27 15:55:13.32	188.55	8.14	-48.9	-68.9	3.8	8.47e-01	0	39	104	0	69	35995
2026-01-27 15:55:14.32	188.33	8.20	-48.9	-68.9	3.8	8.47e-01	0	40	104	0	69	35956
2026-01-27 15:55:15.31	188.12	8.26	-48.9	-68.9	3.8	8.47e-01	0	40	104	0	69	35990
2026-01-27 15:55:16.30	187.90	8.32	-48.9	-68.9	3.8	8.47e-01	0	40	104	0	69	35978
2026-01-27 15:55:17.30	187.68	8.38	-48.9	-68.9	3.8	8.47e-01	0	40	104	0	69	35955
2026-01-27 15:55:18.29	187.46	8.43	-49.0	-68.9	3.8	8.46e-01	0	39	104	0	69	35933
2026-01-27 15:55:19.28	187.25	8.49	-48.9	-68.9	3.8	8.48e-01	0	40	104	0	69	35884
2026-01-27 15:55:20.27	187.02	8.55	-48.9	-68.9	3.8	8.48e-01	0	40	104	0	69	35967
2026-01-27 15:55:21.27	186.80	8.61	-48.9	-68.9	3.8	8.47e-01	0	40	104	0	69	35923
2026-01-27 15:55:22.26	186.58	8.67	-48.9	-68.9	3.8	8.47e-01	0	40	104	0	69	35838
2026-01-27 15:55:23.25	186.35	8.73	-48.9	-68.9	3.8	8.48e-01	0	40	104	0	69	35762
2026-01-27 15:55:24.24	186.13	8.78	-48.9	-68.9	3.8	8.48e-01	0	40	104	0	69	35942
2026-01-27 15:55:25.24	185.90	8.84	-49.0	-68.9	3.8	8.46e-01	0	40	104	0	69	35853
2026-01-27 15:55:26.23	185.67	8.90	-48.9	-68.9	3.8	8.46e-01	0	40	104	0	69	35908
2026-01-27 15:55:27.22	185.44	8.96	-48.9	-68.9	3.8	8.46e-01	0	40	104	0	69	35887
2026-01-27 15:55:28.22	185.21	9.02	-49.0	-68.9	3.8	8.47e-01	0	40	104	0	69	35926
2026-01-27 15:55:29.21	184.98	9.07	-49.0	-69.0	3.8	8.47e-01	0	40	104	0	69	36177
2026-01-27 15:55:30.21	184.74	9.13	-49.0	-69.0	3.8	8.47e-01	0	40	104	0	69	36289
2026-01-27 15:55:31.20	184.51	9.19	-49.1	-68.9	3.8	8.48e-01	0	40	104	0	69	35873
2026-01-27 15:55:32.20	184.27	9.25	-49.2	-69.0	3.8	8.47e-01	0	40	104	0	69	36162
2026-01-27 15:55:33.19	184.03	9.30	-49.2	-68.9	3.8	8.47e-01	0	40	104	0	69	35984
2026-01-27 15:55:34.18	183.80	9.36	-49.3	-69.0	3.8	8.48e-01	0	40	104	0	69	36226
2026-01-27 15:55:35.18	183.55	9.42	-48.8	-68.9	3.8	8.47e-01	0	40	104	0	69	35814
2026-01-27 15:55:36.17	183.31	9.47	-49.0	-69.0	3.8	8.47e-01	0	40	104	0	69	36196
2026-01-27 15:55:37.17	183.07	9.53	-49.3	-68.9	3.8	8.47e-01	0	40	104	0	69	36096
2026-01-27 15:55:38.16	182.83	9.58	-49.4	-69.0	3.8	8.47e-01	0	40	104	0	69	36292
2026-01-27 15:55:39.16	182.58	9.64	-48.9	-68.9	3.8	8.47e-01	0	40	104	0	69	36005
2026-01-27 15:55:40.15	182.33	9.69	-48.9	-69.0	3.8	8.47e-01	0	40	104	0	69	36259
2026-01-27 15:55:41.15	182.08	9.75	-48.9	-68.9	3.8	8.47e-01	0	40	104	0	69	36018
2026-01-27 15:55:42.14	181.84	9.81	-49.1	-69.0	3.8	8.47e-01	0	40	104	0	69	36489
2026-01-27 15:55:43.14	181.58	9.86	-48.8	-68.9	3.8	8.46e-01	0	40	104	0	69	35973
2026-01-27 15:55:44.13	181.33	9.92	-48.8	-69.0	3.8	8.46e-01	0	40	104	0	69	36438
2026-01-27 15:55:45.12	181.08	9.97	-48.8	-69.0	3.8	8.46e-01	0	40	104	0	69	36308
2026-01-27 15:55:46.12	180.83	10.02	-48.8	-69.1	3.8	8.46e-01	0	40	104	0	69	36575
2026-01-27 15:55:47.11	180.57	10.08	-48.5	-69.0	3.8	8.47e-01	0	40	104	0	69	36182
2026-01-27 15:55:48.11	180.31	10.13	-48.6	-69.0	3.8	8.48e-01	0	40	104	0	69	36420
2026-01-27 15:55:49.10	180.06	10.19	-48.6	-69.0	3.8	8.48e-01	0	40	104	0	69	36381
2026-01-27 15:55:50.10	179.80	10.24	-48.6	-69.1	3.8	8.47e-01	0	40	104	0	69	36529
2026-01-27 15:55:51.09	179.54	10.29	-48.7	-69.0	3.8	8.48e-01	0	40	104	0	69	36201
2026-01-27 15:55:52.09	179.27	10.34	-48.6	-69.0	3.8	8.48e-01	0	40	104	0	69	36517
2026-01-27 15:55:53.09	179.01	10.40	-48.5	-69.0	3.8	8.47e-01	0	40	104	0	69	36216
2026-01-27 15:55:54.08	178.75	10.45	-48.6	-69.0	3.8	8.48e-01	0	40	104	0	68	38677
2026-01-27 15:55:55.08	178.48	10.50	-49.0	-69.0	3.8	8.48e-01	0	40	104	0	68	38379
2026-01-27 15:55:56.07	178.21	10.55	-48.8	-69.0	3.8	8.47e-01	0	40	104	0	68	38616
2026-01-27 15:55:57.06	177.95	10.60	-48.8	-69.0	3.8	8.47e-01	0	40	104	0	68	38548
2026-01-27 15:55:58.06	177.67	10.65	-48.3	-69.0	3.8	8.47e-01	0	40	104	0	68	38366
2026-01-27 15:55:59.05	177.40	10.70	-49.4	-69.0	3.8	8.47e-01	0	40	104	0	69	36271
2026-01-27 15:56:00.05	177.13	10.76	-48.9	-69.0	3.8	8.48e-01	0	40	104	0	69	36401
2026-01-27 15:56:01.04	176.86	10.81	-48.9	-69.0	3.8	8.48e-01	0	40	104	0	69	36252
2026-01-27 15:56:02.03	176.59	10.85	-48.2	-69.1	3.8	8.46e-01	0	40	104	0	68	38798
2026-01-27 15:56:03.03	176.31	10.90	-49.1	-69.0	3.8	8.47e-01	0	40	104	0	68	38390
2026-01-27 15:56:04.03	176.03	10.95	-48.5	-69.0	3.8	8.47e-01	0	40	104	0	68	38513
2026-01-27 15:56:05.02	175.75	11.00	-48.7	-69.0	3.8	8.47e-01	0	40	104	0	68	38597
2026-01-27 15:56:06.01	175.48	11.05	-48.0	-69.0	3.8	8.47e-01	0	40	104	0	68	38664
2026-01-27 15:56:07.01	175.19	11.10	-48.6	-69.0	3.8	8.47e-01	0	40	104	0	68	38366
2026-01-27 15:56:08.00	174.91	11.14	-48.2	-69.1	3.8	8.47e-01	0	40	104	0	68	38741
2026-01-27 15:56:09.00	174.63	11.19	-48.4	-69.0	3.8	8.47e-01	0	40	104	0	68	38489
2026-01-27 15:56:09.99	174.34	11.24	-47.7	-68.9	3.8	8.47e-01	0	40	104	0	67	40168
2026-01-27 15:56:10.99	174.06	11.28	-48.1	-68.8	3.8	8.47e-01	0	40	104	0	67	40027
2026-01-27 15:56:11.98	173.77	11.33	-47.6	-68.9	3.8	8.46e-01	0	40	104	0	67	40221
2026-01-27 15:56:12.98	173.48	11.38	-47.8	-68.9	3.8	8.47e-01	0	40	104	0	67	40049
2026-01-27 15:56:13.97	173.19	11.42	-47.6	-68.8	3.8	8.47e-01	0	40	104	0	67	39908
2026-01-27 15:56:14.97	172.90	11.47	-47.6	-68.8	3.8	8.46e-01	0	40	104	0	67	39869
2026-01-27 15:56:15.96	172.61	11.51	-47.8	-68.8	3.8	8.47e-01	0	40	104	0	67	39817
2026-01-27 15:56:16.96	172.32	11.55	-47.6	-68.7	3.8	8.47e-01	0	40	104	0	67	39563
2026-01-27 15:56:17.95	172.03	11.60	-47.6	-68.8	3.8	8.46e-01	0	40	104	0	67	39971
2026-01-27 15:56:18.95	171.73	11.64	-47.6	-68.8	3.8	8.46e-01	0	40	104	0	67	40002
2026-01-27 15:56:19.94	171.44	11.68	-47.6	-68.8	3.8	8.46e-01	0	40	104	0	67	39822
2026-01-27 15:56:20.94	171.14	11.72	-47.5	-68.9	3.8	8.47e-01	0	41	104	0	66	42563
2026-01-27 15:56:21.93	170.84	11.76	-47.8	-68.8	3.8	8.47e-01	0	40	104	0	66	42386
2026-01-27 15:56:22.93	170.54	11.81	-47.7	-68.8	3.8	8.47e-01	0	40	104	0	66	42269
2026-01-27 15:56:23.92	170.24	11.85	-47.8	-68.8	3.8	8.48e-01	0	40	104	0	66	42329
2026-01-27 15:56:24.92	169.94	11.89	-47.5	-68.8	3.8	8.47e-01	0	40	104	0	66	42242
2026-01-27 15:56:25.91	169.64	11.92	-48.5	-68.9	3.8	8.47e-01	0	40	104	0	67	40142
2026-01-27 15:56:26.91	169.33	11.96	-47.6	-68.9	3.8	8.48e-01	0	40	104	0	67	40052
2026-01-27 15:56:27.90	169.03	12.00	-48.3	-68.9	3.8	8.47e-01	0	40	104	0	67	40051
2026-01-27 15:56:28.90	168.72	12.04	-48.0	-68.8	3.8	8.47e-01	0	40	104	0	67	40026
2026-01-27 15:56:29.89	168.41	12.08	-49.3	-69.1	3.9	8.47e-01	0	40	104	0	69	36589
2026-01-27 15:56:30.89	168.10	12.11	-48.4	-69.0	3.8	8.47e-01	0	40	104	0	68	38581
2026-01-27 15:56:31.88	167.80	12.15	-49.0	-69.0	3.8	8.47e-01	0	40	104	0	68	38551
2026-01-27 15:56:32.88	167.49	12.18	-49.0	-69.0	3.8	8.47e-01	0	40	104	0	68	38628
2026-01-27 15:56:33.87	167.18	12.22	-49.7	-69.1	3.9	8.47e-01	0	41	104	0	70	34520
2026-01-27 15:56:34.87	166.86	12.25	-48.9	-68.9	3.8	8.47e-01	0	40	104	0	69	36055
2026-01-27 15:56:35.86	166.55	12.29	-50.2	-69.5	3.8	8.47e-01	0	40	104	0	70	36459
2026-01-27 15:56:36.85	166.24	12.32	-49.6	-69.0	3.8	8.47e-01	0	41	104	0	70	34448
2026-01-27 15:56:37.84	165.93	12.35	-49.9	-69.0	3.8	8.47e-01	0	40	104	0	70	34392
2026-01-27 15:56:38.84	165.61	12.38	-49.7	-69.1	3.8	8.47e-01	0	40	104	0	70	34524
2026-01-27 15:56:39.83	165.30	12.42	-49.9	-69.0	3.8	8.47e-01	0	40	104	0	70	34412
2026-01-27 15:56:40.83	164.98	12.45	-49.9	-69.0	3.8	8.47e-01	0	40	104	0	70	34216
2026-01-27 15:56:41.83	164.66	12.48	-49.7	-69.0	3.8	8.47e-01	0	40	104	0	70	34180
2026-01-27 15:56:42.82	164.34	12.51	-49.8	-69.0	3.8	8.48e-01	0	40	104	0	70	34273
2026-01-27 15:56:43.81	164.02	12.53	-49.8	-69.1	3.8	8.47e-01	0	40	104	0	70	34612
2026-01-27 15:56:44.81	163.70	12.56	-49.7	-69.0	3.8	8.47e-01	0	40	104	0	70	34298
2026-01-27 15:56:45.80	163.38	12.59	-49.8	-69.1	3.8	8.47e-01	0	40	104	0	70	34566
2026-01-27 15:56:46.80	163.06	12.62	-49.8	-69.1	3.8	8.47e-01	0	41	104	0	70	34481
2026-01-27 15:56:47.79	162.73	12.64	-49.7	-69.1	3.8	8.47e-01	0	40	104	0	70	34486
2026-01-27 15:56:48.79	162.41	12.67	-49.7	-69.1	3.8	8.46e-01	0	40	104	0	70	34487
2026-01-27 15:56:49.78	162.09	12.69	-49.9	-69.0	3.8	8.47e-01	0	40	104	0	70	34438
2026-01-27 15:56:50.78	161.76	12.72	-49.8	-69.1	3.8	8.47e-01	0	40	104	0	70	34564
2026-01-27 15:56:51.77	161.44	12.74	-50.0	-69.1	3.8	8.47e-01	0	40	104	0	70	34509
2026-01-27 15:56:52.77	161.11	12.76	-50.0	-69.0	3.8	8.47e-01	0	40	104	0	70	34367
2026-01-27 15:56:53.77	160.78	12.79	-49.9	-69.1	3.8	8.47e-01	0	40	104	0	70	34571
2026-01-27 15:56:54.76	160.45	12.81	-50.0	-69.1	3.8	8.47e-01	0	40	104	0	70	34525
2026-01-27 15:56:55.76	160.12	12.83	-50.0	-69.1	3.8	8.47e-01	0	40	104	0	70	34633
2026-01-27 15:56:56.75	159.80	12.85	-49.9	-69.1	3.8	8.47e-01	0	40	104	0	70	34535
2026-01-27 15:56:57.75	159.46	12.87	-50.0	-69.1	3.8	8.47e-01	0	40	104	0	70	34598
2026-01-27 15:56:58.74	159.14	12.89	-50.0	-69.1	3.8	8.47e-01	0	40	104	0	70	34618
2026-01-27 15:56:59.74	158.80	12.90	-50.0	-69.1	3.8	8.47e-01	0	40	104	0	70	34587
2026-01-27 15:57:00.73	158.47	12.92	-49.9	-69.1	3.8	8.47e-01	0	41	104	0	70	34545
2026-01-27 15:57:01.73	158.14	12.94	-50.0	-69.1	3.8	8.47e-01	0	41	104	0	70	34582
2026-01-27 15:57:02.72	157.81	12.95	-50.0	-69.1	3.8	8.47e-01	0	40	104	0	71	32645
2026-01-27 15:57:03.72	157.48	12.97	-50.2	-69.1	3.8	8.47e-01	0	41	104	0	71	32592
2026-01-27 15:57:04.71	157.15	12.98	-50.1	-69.1	3.8	8.46e-01	0	41	104	0	71	32692
2026-01-27 15:57:05.71	156.81	12.99	-50.0	-69.1	3.8	8.46e-01	0	40	104	0	71	32585
2026-01-27 15:57:06.70	156.48	13.01	-49.9	-69.1	3.8	8.46e-01	0	40	104	0	71	32596
2026-01-27 15:57:07.70	156.14	13.02	-49.9	-69.0	3.8	8.47e-01	0	40	104	0	71	32546
2026-01-27 15:57:08.69	155.81	13.03	-49.8	-69.1	3.8	8.48e-01	0	40	104	0	71	32596
2026-01-27 15:57:09.69	155.47	13.04	-49.9	-69.0	3.8	8.47e-01	0	40	104	0	71	32549
2026-01-27 15:57:10.68	155.14	13.05	-50.0	-69.1	3.8	8.47e-01	0	40	104	0	71	32561
2026-01-27 15:57:11.68	154.80	13.06	-49.7	-69.0	3.8	8.47e-01	0	41	104	0	71	32476
2026-01-27 15:57:12.67	154.47	13.07	-49.6	-69.1	3.8	8.47e-01	0	40	104	0	70	34528
2026-01-27 15:57:13.67	154.13	13.07	-49.5	-69.1	3.8	8.47e-01	0	41	104	0	70	34594
2026-01-27 15:57:14.67	153.80	13.08	-49.5	-69.1	3.8	8.47e-01	0	40	104	0	70	34538
2026-01-27 15:57:15.66	153.46	13.09	-49.8	-69.1	3.8	8.47e-01	0	40	104	0	70	34509
2026-01-27 15:57:16.65	153.13	13.09	-49.8	-69.1	3.8	8.47e-01	0	40	104	0	70	34540
2026-01-27 15:57:17.65	152.79	13.10	-49.9	-69.1	3.8	8.47e-01	0	41	104	0	70	34626
2026-01-27 15:57:18.64	152.46	13.10	-49.9	-69.1	3.8	8.48e-01	0	41	104	0	70	34589
2026-01-27 15:57:19.64	152.12	13.10	-49.6	-69.1	3.8	8.48e-01	0	40	104	0	70	34564
2026-01-27 15:57:20.63	151.78	13.10	-49.6	-69.1	3.8	8.46e-01	0	40	104	0	70	34582
2026-01-27 15:57:21.63	151.44	13.11	-49.8	-69.1	3.8	8.46e-01	0	40	104	0	70	34602
2026-01-27 15:57:22.62	151.11	13.11	-49.9	-69.1	3.8	8.46e-01	0	41	104	0	70	34522
2026-01-27 15:57:23.62	150.77	13.11	-49.7	-69.1	3.8	8.46e-01	0	40	104	0	70	34546
2026-01-27 15:57:24.61	150.44	13.10	-49.8	-69.1	3.8	8.47e-01	0	40	104	0	70	34553
2026-01-27 15:57:25.61	150.10	13.10	-49.6	-69.1	3.8	8.47e-01	0	41	104	0	70	34602
2026-01-27 15:57:26.60	149.76	13.10	-49.7	-69.1	3.8	8.47e-01	0	41	104	0	70	34680
2026-01-27 15:57:27.59	149.43	13.10	-49.9	-69.1	3.8	8.48e-01	0	40	104	0	70	34492
2026-01-27 15:57:28.59	149.09	13.09	-50.0	-69.1	3.8	8.48e-01	0	40	104	0	70	34615
2026-01-27 15:57:29.58	148.76	13.09	-50.0	-69.1	3.8	8.47e-01	0	40	104	0	70	34524
2026-01-27 15:57:30.58	148.42	13.08	-49.9	-69.1	3.8	8.47e-01	0	40	104	0	70	34622
2026-01-27 15:57:31.57	148.08	13.07	-49.8	-69.1	3.8	8.46e-01	0	40	104	0	70	34487
2026-01-27 15:57:32.57	147.75	13.07	-49.7	-69.1	3.8	8.46e-01	0	41	104	0	70	34569
2026-01-27 15:57:33.56	147.41	13.06	-49.8	-69.1	3.8	8.46e-01	0	40	104	0	70	34494
2026-01-27 15:57:34.56	147.08	13.05	-50.0	-69.1	3.8	8.47e-01	0	40	104	0	70	34522
2026-01-27 15:57:35.55	146.74	13.04	-49.9	-69.0	3.8	8.47e-01	0	40	104	0	70	34391
2026-01-27 15:57:36.55	146.41	13.03	-49.9	-69.0	3.8	8.48e-01	0	41	104	0	70	34426
2026-01-27 15:57:37.54	146.08	13.02	-49.8	-69.1	3.8	8.48e-01	0	40	104	0	70	34495
2026-01-27 15:57:38.54	145.74	13.01	-49.6	-69.1	3.8	8.48e-01	0	41	104	0	70	34492
2026-01-27 15:57:39.53	145.41	12.99	-49.7	-69.0	3.8	8.46e-01	0	41	104	0	70	34352
2026-01-27 15:57:40.53	145.07	12.98	-49.8	-69.1	3.8	8.47e-01	0	41	104	0	70	34504
2026-01-27 15:57:41.52	144.74	12.97	-50.0	-69.0	3.8	8.47e-01	0	40	104	0	70	34473
2026-01-27 15:57:42.52	144.41	12.95	-50.1	-69.1	3.8	8.47e-01	0	40	104	0	70	34520
2026-01-27 15:57:43.51	144.08	12.94	-50.0	-69.0	3.8	8.46e-01	0	40	104	0	70	34393
2026-01-27 15:57:44.51	143.75	12.92	-50.0	-69.0	3.8	8.46e-01	0	40	104	0	70	34361
2026-01-27 15:57:45.50	143.42	12.90	-50.0	-69.0	3.8	8.47e-01	0	41	104	0	70	34349
2026-01-27 15:57:46.50	143.09	12.88	-50.1	-69.1	3.8	8.46e-01	0	41	104	0	70	34481
2026-01-27 15:57:47.49	142.76	12.87	-50.1	-69.0	3.8	8.46e-01	0	40	104	0	70	34430
2026-01-27 15:57:48.49	142.43	12.85	-50.1	-69.0	3.8	8.47e-01	0	41	104	0	70	34348
2026-01-27 15:57:49.49	142.10	12.83	-50.1	-69.0	3.8	8.46e-01	0	40	104	0	70	34322
2026-01-27 15:57:50.48	141.77	12.81	-49.9	-69.0	3.8	8.47e-01	0	40	104	0	70	34367
2026-01-27 15:57:51.48	141.44	12.78	-49.9	-69.0	3.8	8.47e-01	0	40	104	0	70	34212
2026-01-27 15:57:52.47	141.12	12.76	-49.8	-69.0	3.8	8.48e-01	0	40	104	0	70	34250
2026-01-27 15:57:53.46	140.79	12.74	-49.8	-69.0	3.8	8.46e-01	0	41	104	0	70	34311
2026-01-27 15:57:54.46	140.47	12.72	-50.0	-69.0	3.8	8.46e-01	0	41	104	0	70	34343
2026-01-27 15:57:55.46	140.14	12.69	-50.0	-69.0	3.8	8.47e-01	0	41	104	0	70	34223
2026-01-27 15:57:56.45	139.82	12.67	-50.0	-69.0	3.8	8.46e-01	0	40	104	0	70	34302
2026-01-27 15:57:57.45	139.49	12.64	-50.0	-69.0	3.8	8.46e-01	0	40	104	0	70	34248
2026-01-27 15:57:58.44	139.17	12.62	-50.1	-69.0	3.8	8.46e-01	0	40	104	0	70	34248
2026-01-27 15:57:59.44	138.85	12.59	-50.1	-69.0	3.8	8.47e-01	0	41	104	0	70	34151
2026-01-27 15:58:00.43	138.53	12.56	-50.1	-69.0	3.8	8.47e-01	0	40	104	0	70	34286
2026-01-27 15:58:01.43	138.21	12.53	-50.1	-69.0	3.8	8.46e-01	0	40	104	0	70	34313
2026-01-27 15:58:02.42	137.89	12.51	-50.1	-69.0	3.8	8.47e-01	0	40	104	0	70	34348
2026-01-27 15:58:03.42	137.57	12.48	-50.1	-69.0	3.8	8.47e-01	0	40	104	0	70	34185
2026-01-27 15:58:04.42	137.25	12.45	-50.1	-69.0	3.8	8.46e-01	0	40	104	0	70	34298
2026-01-27 15:58:05.41	136.94	12.41	-50.1	-69.0	3.8	8.45e-01	0	41	104	0	70	34349
2026-01-27 15:58:06.40	136.62	12.38	-50.1	-69.0	3.8	8.45e-01	0	41	104	0	70	34297
2026-01-27 15:58:07.40	136.31	12.35	-50.1	-69.0	3.8	8.47e-01	0	41	104	0	70	34152
2026-01-27 15:58:08.39	135.99	12.32	-50.0	-69.0	3.8	8.46e-01	0	40	104	0	70	34299
2026-01-27 15:58:09.39	135.68	12.29	-50.0	-69.0	3.8	8.46e-01	0	40	104	0	70	34239
2026-01-27 15:58:10.39	135.37	12.25	-50.0	-69.0	3.8	8.49e-01	0	40	104	0	70	34302
2026-01-27 15:58:11.38	135.06	12.22	-50.0	-69.0	3.8	8.47e-01	0	40	104	0	70	34109
2026-01-27 15:58:12.37	134.75	12.18	-49.9	-69.0	3.8	8.47e-01	0	40	104	0	70	34160
2026-01-27 15:58:13.37	134.44	12.15	-49.9	-69.0	3.8	8.47e-01	0	40	104	0	70	34145
2026-01-27 15:58:14.36	134.13	12.11	-50.1	-69.0	3.8	8.47e-01	0	41	104	0	70	34230
2026-01-27 15:58:15.36	133.82	12.08	-50.0	-69.0	3.8	8.47e-01	0	40	104	0	70	34166
2026-01-27 15:58:16.35	133.52	12.04	-50.0	-69.0	3.8	8.47e-01	0	40	104	0	70	34132
2026-01-27 15:58:17.35	133.21	12.00	-49.9	-69.0	3.8	8.48e-01	0	41	104	0	70	34158
2026-01-27 15:58:18.34	132.91	11.96	-50.0	-69.0	3.8	8.47e-01	0	41	104	0	70	34121
2026-01-27 15:58:19.34	132.60	11.92	-50.0	-68.9	3.8	8.47e-01	0	40	104	0	70	34054
2026-01-27 15:58:20.33	132.30	11.89	-50.0	-68.9	3.8	8.47e-01	0	40	104	0	70	34022
2026-01-27 15:58:21.33	132.00	11.85	-50.0	-68.9	3.8	8.47e-01	0	41	104	0	70	34047
2026-01-27 15:58:22.32	131.70	11.81	-49.9	-69.0	3.8	8.47e-01	0	40	104	0	70	34088
2026-01-27 15:58:23.31	131.40	11.76	-49.9	-68.9	3.8	8.47e-01	0	41	104	0	70	33945
2026-01-27 15:58:24.31	131.11	11.72	-50.0	-68.9	3.8	8.48e-01	0	40	104	0	70	33956
2026-01-27 15:58:25.31	130.81	11.68	-49.9	-68.9	3.8	8.48e-01	0	41	104	0	70	33985
2026-01-27 15:58:26.30	130.51	11.64	-50.0	-69.0	3.8	8.47e-01	0	40	104	0	70	34164
2026-01-27 15:58:27.30	130.22	11.60	-49.9	-68.9	3.8	8.47e-01	0	41	104	0	70	33869
2026-01-27 15:58:28.29	129.93	11.55	-50.0	-68.9	3.8	8.47e-01	0	40	104	0	70	34053
2026-01-27 15:58:29.29	129.63	11.51	-50.0	-68.9	3.8	8.48e-01	0	40	104	0	70	33898
2026-01-27 15:58:30.28	129.34	11.47	-50.0	-68.9	3.8	8.47e-01	0	41	104	0	70	34046
2026-01-27 15:58:31.28	129.05	11.42	-50.0	-68.9	3.8	8.47e-01	0	41	104	0	70	33779
2026-01-27 15:58:32.27	128.77	11.38	-49.9	-68.9	3.8	8.47e-01	0	40	104	0	70	33957
2026-01-27 15:58:33.27	128.48	11.33	-49.9	-68.9	3.8	8.47e-01	0	41	104	0	70	33887
2026-01-27 15:58:34.27	128.19	11.29	-49.8	-68.9	3.8	8.46e-01	0	41	104	0	70	33956
2026-01-27 15:58:35.26	127.91	11.24	-49.7	-68.9	3.8	8.46e-01	0	41	104	0	70	33897
2026-01-27 15:58:36.26	127.62	11.19	-49.7	-68.9	3.8	8.47e-01	0	40	104	0	70	33882
2026-01-27 15:58:37.25	127.34	11.15	-49.7	-68.9	3.8	8.46e-01	0	41	104	0	70	33890
2026-01-27 15:58:38.24	127.06	11.10	-49.9	-68.9	3.8	8.46e-01	0	40	104	0	70	33944
2026-01-27 15:58:39.24	126.78	11.05	-49.9	-68.9	3.8	8.48e-01	0	40	104	0	70	33889
2026-01-27 15:58:40.23	126.50	11.00	-50.0	-68.9	3.8	8.47e-01	0	40	104	0	70	33780
2026-01-27 15:58:41.23	126.22	10.95	-50.0	-68.9	3.8	8.47e-01	0	41	104	0	70	33737
2026-01-27 15:58:42.22	125.95	10.91	-50.0	-68.9	3.8	8.47e-01	0	41	104	0	70	33868
2026-01-27 15:58:43.22	125.67	10.86	-50.0	-68.9	3.8	8.47e-01	0	41	104	0	70	33785
2026-01-27 15:58:44.21	125.40	10.81	-49.9	-68.9	3.8	8.47e-01	0	41	104	0	70	33830
2026-01-27 15:58:45.21	125.13	10.76	-50.0	-68.9	3.8	8.47e-01	0	41	104	0	70	33776
2026-01-27 15:58:46.20	124.86	10.71	-49.9	-68.9	3.8	8.47e-01	0	40	104	0	70	33860
2026-01-27 15:58:47.19	124.59	10.66	-49.9	-68.8	3.8	8.47e-01	0	41	104	0	70	33690
2026-01-27 15:58:48.19	124.32	10.61	-49.9	-68.9	3.8	8.47e-01	0	41	104	0	70	33712
2026-01-27 15:58:49.18	124.05	10.56	-49.9	-68.8	3.8	8.46e-01	0	40	104	0	70	33652
2026-01-27 15:58:50.18	123.78	10.50	-50.0	-68.9	3.8	8.46e-01	0	40	104	0	70	33925
2026-01-27 15:58:51.17	123.52	10.45	-49.9	-68.7	3.8	8.47e-01	0	41	104	0	70	33248
2026-01-27 15:58:52.17	123.25	10.40	-50.0	-68.8	3.8	8.47e-01	0	41	104	0	70	33533
2026-01-27 15:58:53.16	122.99	10.35	-50.0	-68.8	3.8	8.47e-01	0	41	104	0	70	33545
2026-01-27 15:58:54.16	122.73	10.30	-50.0	-68.9	3.8	8.47e-01	0	41	104	0	70	33768
2026-01-27 15:58:55.15	122.47	10.24	-49.9	-68.7	3.8	8.46e-01	0	40	104	0	70	33236
2026-01-27 15:58:56.15	122.21	10.19	-49.9	-68.8	3.8	8.47e-01	0	41	104	0	70	33411
2026-01-27 15:58:57.14	121.96	10.14	-50.0	-68.8	3.8	8.47e-01	0	40	104	0	70	33436
2026-01-27 15:58:58.13	121.70	10.08	-50.0	-68.8	3.8	8.48e-01	0	40	104	0	70	33578
2026-01-27 15:58:59.13	121.45	10.03	-49.8	-68.7	3.8	8.47e-01	0	41	104	0	70	32979
2026-01-27 15:59:00.12	121.19	9.97	-49.8	-68.8	3.8	8.47e-01	0	41	104	0	70	33372
2026-01-27 15:59:01.12	120.94	9.92	-49.9	-68.7	3.8	8.47e-01	0	41	104	0	70	33143
2026-01-27 15:59:02.11	120.69	9.87	-49.9	-68.8	3.8	8.47e-01	0	40	104	0	70	33506
2026-01-27 15:59:03.11	120.44	9.81	-49.8	-68.7	3.8	8.47e-01	0	40	104	0	70	33173
2026-01-27 15:59:04.10	120.19	9.76	-49.8	-68.8	3.8	8.47e-01	0	41	104	0	70	33356
2026-01-27 15:59:05.10	119.94	9.70	-49.8	-68.7	3.8	8.47e-01	0	40	104	0	70	33189
2026-01-27 15:59:06.09	119.70	9.65	-49.9	-68.8	3.8	8.47e-01	0	40	104	0	70	33589
2026-01-27 15:59:07.09	119.45	9.59	-49.8	-68.7	3.8	8.47e-01	0	40	104	0	70	33118
2026-01-27 15:59:08.08	119.21	9.53	-49.7	-68.7	3.8	8.46e-01	0	41	104	0	70	33305
2026-01-27 15:59:09.08	118.97	9.48	-49.8	-68.8	3.8	8.46e-01	0	41	104	0	70	33316
2026-01-27 15:59:10.07	118.73	9.42	-49.8	-68.8	3.8	8.47e-01	0	41	104	0	70	33372
2026-01-27 15:59:11.06	118.49	9.37	-49.6	-68.7	3.8	8.47e-01	0	41	104	0	70	33070
2026-01-27 15:59:12.06	118.25	9.31	-49.6	-68.7	3.8	8.46e-01	0	41	104	0	70	32984
2026-01-27 15:59:13.05	118.02	9.25	-49.7	-68.7	3.8	8.46e-01	0	41	104	0	70	33145
2026-01-27 15:59:14.05	117.78	9.19	-49.7	-68.8	3.8	8.48e-01	0	41	104	0	70	33392
2026-01-27 15:59:15.04	117.54	9.14	-49.4	-68.7	3.8	8.46e-01	0	41	104	0	70	33003
2026-01-27 15:59:16.04	117.31	9.08	-49.5	-68.7	3.8	8.46e-01	0	40	104	0	70	33220
2026-01-27 15:59:17.03	117.08	9.02	-49.4	-68.7	3.8	8.48e-01	0	40	104	0	70	33242
2026-01-27 15:59:18.02	116.85	8.97	-49.9	-68.8	3.8	8.46e-01	0	40	104	0	70	33634
2026-01-27 15:59:19.01	116.62	8.91	-50.2	-69.1	3.8	8.46e-01	0	41	104	0	71	32683
2026-01-27 15:59:20.01	116.39	8.85	-50.2	-69.2	3.8	8.47e-01	0	41	104	0	71	33095
2026-01-27 15:59:21.00	116.17	8.79	-50.4	-69.3	3.8	8.47e-01	0	41	104	0	71	33404
2026-01-27 15:59:22.00	115.94	8.74	-50.3	-69.3	3.8	8.47e-01	0	41	104	0	71	33519
2026-01-27 15:59:22.99	115.72	8.68	-50.5	-69.4	3.8	8.47e-01	0	40	104	0	71	33777
2026-01-27 15:59:23.98	115.49	8.62	-50.5	-69.4	3.8	8.46e-01	0	41	104	0	71	33986
2026-01-27 15:59:24.98	115.27	8.56	-50.5	-69.4	3.8	8.46e-01	0	41	104	0	71	34040
2026-01-27 15:59:25.97	115.05	8.50	-50.6	-69.5	3.8	8.46e-01	0	40	104	0	71	34248
2026-01-27 15:59:26.96	114.83	8.44	-50.4	-69.5	3.8	8.47e-01	0	40	104	0	71	34360
2026-01-27 15:59:27.96	114.61	8.39	-50.3	-69.5	3.8	8.47e-01	0	40	104	0	71	34451
2026-01-27 15:59:28.95	114.40	8.33	-50.3	-69.6	3.8	8.47e-01	0	40	104	0	71	34670
2026-01-27 15:59:29.94	114.18	8.27	-50.6	-69.6	3.8	8.48e-01	0	40	104	0	71	34570
2026-01-27 15:59:30.93	113.97	8.21	-50.6	-69.6	3.8	8.48e-01	0	40	104	0	71	34497
2026-01-27 15:59:31.93	113.76	8.15	-50.7	-69.5	3.9	8.48e-01	0	41	104	0	72	32542
2026-01-27 15:59:32.92	113.54	8.09	-50.7	-69.6	3.8	8.47e-01	0	41	104	0	72	32574
2026-01-27 15:59:33.91	113.33	8.03	-50.7	-69.5	3.8	8.46e-01	0	41	104	0	72	32523
2026-01-27 15:59:34.91	113.12	7.97	-50.7	-69.5	3.8	8.46e-01	0	40	104	0	72	32544
2026-01-27 15:59:35.90	112.92	7.91	-50.6	-69.6	3.8	8.47e-01	0	41	104	0	72	32682
2026-01-27 15:59:36.89	112.71	7.86	-50.6	-69.6	3.8	8.46e-01	0	41	104	0	72	32560
2026-01-27 15:59:37.89	112.50	7.80	-50.6	-69.6	3.8	8.46e-01	0	40	104	0	72	32725
2026-01-27 15:59:38.88	112.30	7.74	-50.7	-69.6	3.8	8.47e-01	0	41	104	0	72	32726
2026-01-27 15:59:39.88	112.09	7.68	-50.7	-69.6	3.8	8.47e-01	0	40	104	0	72	32735
2026-01-27 15:59:40.87	111.89	7.62	-50.7	-69.6	3.8	8.47e-01	0	40	104	0	72	32791
2026-01-27 15:59:41.86	111.69	7.56	-50.6	-69.6	3.8	8.47e-01	0	41	104	0	72	32874
2026-01-27 15:59:42.86	111.49	7.50	-50.6	-69.6	3.8	8.47e-01	0	41	104	0	72	32841
2026-01-27 15:59:43.85	111.29	7.44	-50.6	-69.6	3.8	8.47e-01	0	41	104	0	72	32899
2026-01-27 15:59:44.84	111.09	7.38	-50.5	-69.6	3.8	8.47e-01	0	40	104	0	72	32867
2026-01-27 15:59:45.83	110.90	7.32	-50.5	-69.6	3.8	8.47e-01	0	41	104	0	72	32859
2026-01-27 15:59:46.83	110.70	7.26	-50.4	-69.6	3.8	8.47e-01	0	40	104	0	72	32890
2026-01-27 15:59:47.82	110.51	7.20	-50.5	-69.6	3.8	8.47e-01	0	41	104	0	72	32824
2026-01-27 15:59:48.81	110.31	7.14	-50.6	-69.6	3.8	8.48e-01	0	40	104	0	72	32738
2026-01-27 15:59:49.81	110.12	7.08	-50.6	-69.6	3.8	8.48e-01	0	41	104	0	72	32845
2026-01-27 15:59:50.80	109.93	7.02	-50.6	-69.6	3.8	8.47e-01	0	41	104	0	72	32761
2026-01-27 15:59:51.79	109.74	6.96	-50.6	-69.6	3.8	8.47e-01	0	41	104	0	72	32730
2026-01-27 15:59:52.78	109.55	6.90	-50.6	-69.6	3.8	8.47e-01	0	41	104	0	72	32681
2026-01-27 15:59:53.78	109.36	6.84	-50.5	-69.6	3.8	8.48e-01	0	41	104	0	72	32622
2026-01-27 15:59:54.77	109.18	6.78	-50.4	-69.6	3.8	8.48e-01	0	40	104	0	72	32602
2026-01-27 15:59:55.76	108.99	6.72	-50.3	-69.5	3.8	8.48e-01	0	41	104	0	72	32459
2026-01-27 15:59:56.76	108.80	6.66	-50.4	-69.5	3.8	8.48e-01	0	40	104	0	72	32318
2026-01-27 15:59:57.75	108.62	6.60	-50.4	-69.4	3.8	8.47e-01	0	41	104	0	72	32084
2026-01-27 15:59:58.74	108.44	6.54	-50.4	-69.3	3.8	8.46e-01	0	40	104	0	72	31807
2026-01-27 15:59:59.73	108.26	6.48	-50.3	-69.2	3.8	8.46e-01	0	40	104	0	72	31350
2026-01-27 16:00:00.73	108.08	6.42	-50.1	-69.1	3.8	8.46e-01	0	41	104	0	72	30912
2026-01-27 16:00:01.72	107.90	6.36	-50.1	-69.1	3.8	8.46e-01	0	40	104	0	72	30813
2026-01-27 16:00:02.71	107.72	6.30	-50.1	-69.1	3.8	8.46e-01	0	40	104	0	72	30738
2026-01-27 16:00:03.71	107.54	6.24	-50.1	-69.0	3.8	8.46e-01	0	40	104	0	72	30678
2026-01-27 16:00:04.70	107.37	6.19	-50.0	-69.0	3.8	8.46e-01	0	41	104	0	72	30629
2026-01-27 16:00:05.69	107.19	6.13	-50.0	-69.0	3.8	8.46e-01	0	40	104	0	72	30664
2026-01-27 16:00:06.69	107.02	6.07	-50.0	-69.1	3.8	8.47e-01	0	40	104	0	72	30731
2026-01-27 16:00:07.68	106.84	6.01	-50.0	-69.0	3.8	8.46e-01	0	41	104	0	72	30631
2026-01-27 16:00:08.67	106.67	5.95	-50.0	-69.0	3.8	8.46e-01	0	41	104	0	72	30637
2026-01-27 16:00:09.67	106.50	5.89	-50.0	-69.0	3.8	8.47e-01	0	41	104	0	72	30607
2026-01-27 16:00:10.66	106.33	5.83	-50.0	-69.0	3.8	8.47e-01	0	40	104	0	72	30539
2026-01-27 16:00:11.65	106.16	5.77	-50.0	-69.0	3.8	8.47e-01	0	41	104	0	72	30656
2026-01-27 16:00:12.64	105.99	5.71	-50.0	-69.0	3.8	8.46e-01	0	41	104	0	72	30598
2026-01-27 16:00:13.64	105.83	5.65	-50.0	-69.0	3.8	8.47e-01	0	40	104	0	72	30565
2026-01-27 16:00:14.63	105.66	5.59	-50.0	-69.0	3.8	8.47e-01	0	40	104	0	72	30625
2026-01-27 16:00:15.62	105.49	5.53	-50.0	-69.0	3.8	8.48e-01	0	40	104	0	72	30530
2026-01-27 16:00:16.62	105.33	5.47	-50.0	-69.0	3.8	8.47e-01	0	41	104	0	72	30488
2026-01-27 16:00:17.61	105.17	5.41	-50.0	-69.0	3.8	8.47e-01	0	41	104	0	72	30524
2026-01-27 16:00:18.60	105.00	5.35	-50.0	-69.0	3.8	8.47e-01	0	40	104	0	72	30504
2026-01-27 16:00:19.59	104.84	5.29	-50.0	-69.0	3.8	8.46e-01	0	41	104	0	72	30454
2026-01-27 16:00:20.59	104.68	5.23	-50.0	-69.0	3.8	8.46e-01	0	41	104	0	71	32546
2026-01-27 16:00:21.58	104.52	5.17	-50.0	-69.0	3.8	8.46e-01	0	40	104	0	71	32388
2026-01-27 16:00:22.57	104.36	5.12	-50.0	-69.0	3.8	8.46e-01	0	40	104	0	71	32369
2026-01-27 16:00:23.57	104.21	5.06	-50.0	-69.0	3.8	8.46e-01	0	41	104	0	71	32328
2026-01-27 16:00:24.56	104.05	5.00	-50.0	-69.0	3.8	8.46e-01	0	41	104	0	71	32388

#Closed at: 2026-01-27 16:00:25
#Recorded file [0 MB]: D:/Data/31040_260127_185420.dat