passes_logs/2026/01/27/T1/T1__20260127_092137_NOAA_20_JPSS-1_rec.log

#Pass ID: 20260127_092137_NOAA 20 (JPSS-1)
#Satellite: NOAA 20 (JPSS-1)
#Configuration: NOAA 20
#almurnet v.1.7.20251203
#Start time: 2026-01-27 09:21:38

#Version: 2.0.20230620
#Station: T1
#Location: 37.570604 lon 55.790049 lat
#TLE: 1 43013U 17073A   26026.81907703  .00000149  00000+0  91399-4 0  9998
#TLE: 2 43013  98.7647 327.6343 0000991  22.4130 337.7089 14.19540778424411

#Time	Az	El	Level	Level2	SNR	BER	BlckErr	Temp	State	Recorded	gain1	gain2
2026-01-27 09:21:38.77	142.35	5.10	-49.4	-64.5	3.8	1.49e+00	0	38	0	0	70	20492
2026-01-27 09:21:39.77	142.32	5.18	-49.4	-64.2	3.8	1.49e+00	0	38	104	0	70	19733
2026-01-27 09:21:40.77	142.29	5.25	-49.4	-64.2	3.8	1.49e+00	0	38	104	0	70	19674
2026-01-27 09:21:41.76	142.26	5.32	-49.4	-64.1	3.8	1.49e+00	0	38	104	0	70	19499
2026-01-27 09:21:42.76	142.23	5.39	-49.4	-64.0	3.8	1.49e+00	0	38	104	0	70	19343
2026-01-27 09:21:43.75	142.20	5.46	-49.4	-64.0	3.8	1.49e+00	0	38	104	0	70	19200
2026-01-27 09:21:44.74	142.17	5.53	-49.4	-63.9	3.8	1.49e+00	0	38	104	0	70	19088
2026-01-27 09:21:45.73	142.14	5.60	-49.4	-63.9	3.8	1.49e+00	0	38	104	0	70	18977
2026-01-27 09:21:46.73	142.11	5.67	-49.4	-63.8	3.8	1.49e+00	0	38	104	0	70	18876
2026-01-27 09:21:47.73	142.08	5.75	-49.4	-63.8	3.8	1.49e+00	0	38	104	0	70	18793
2026-01-27 09:21:48.72	142.05	5.82	-49.4	-63.7	3.8	1.49e+00	0	38	104	0	70	18723
2026-01-27 09:21:49.72	142.02	5.89	-49.4	-63.8	3.8	1.49e+00	0	38	104	0	70	18779
2026-01-27 09:21:50.71	141.98	5.96	-49.4	-63.8	3.8	1.49e+00	0	38	104	0	70	18826
2026-01-27 09:21:51.71	141.95	6.04	-49.4	-63.8	3.8	1.49e+00	0	38	104	0	70	18932
2026-01-27 09:21:52.71	141.92	6.11	-49.4	-63.9	3.8	1.49e+00	0	38	104	0	70	19161
2026-01-27 09:21:53.71	141.89	6.18	-49.4	-64.1	3.8	1.49e+00	0	38	104	0	70	19484
2026-01-27 09:21:54.70	141.86	6.26	-49.4	-64.2	3.8	1.49e+00	0	38	104	0	70	19793
2026-01-27 09:21:55.70	141.83	6.33	-49.4	-64.4	3.8	1.49e+00	0	38	104	0	70	20111
2026-01-27 09:21:56.70	141.79	6.40	-49.4	-64.5	3.8	1.49e+00	0	38	104	0	70	20537
2026-01-27 09:21:57.70	141.76	6.48	-49.4	-64.6	3.8	1.49e+00	0	38	104	0	70	20738
2026-01-27 09:21:58.69	141.73	6.55	-49.4	-64.7	3.8	1.49e+00	0	38	104	0	70	20929
2026-01-27 09:21:59.69	141.70	6.63	-49.4	-64.7	3.8	1.49e+00	0	38	104	0	70	20886
2026-01-27 09:22:00.68	141.66	6.70	-49.4	-64.7	3.8	1.49e+00	0	39	104	0	70	20819
2026-01-27 09:22:01.68	141.63	6.78	-49.4	-64.6	3.8	1.49e+00	0	39	104	0	70	20709
2026-01-27 09:22:02.67	141.60	6.85	-49.4	-64.5	3.8	1.49e+00	0	39	104	0	70	20432
2026-01-27 09:22:03.66	141.56	6.92	-49.4	-64.4	3.8	1.49e+00	0	39	104	0	70	20293
2026-01-27 09:22:04.66	141.53	7.00	-49.4	-64.3	3.8	1.49e+00	0	39	104	0	70	20055
2026-01-27 09:22:05.66	141.50	7.08	-49.4	-64.2	3.8	1.49e+00	0	39	104	0	70	19819
2026-01-27 09:22:06.66	141.46	7.15	-49.4	-63.9	3.8	1.49e+00	0	39	104	0	70	18956
2026-01-27 09:22:07.66	141.43	7.23	-49.3	-63.2	3.8	1.49e+00	0	39	104	0	70	17543
2026-01-27 09:22:08.66	141.39	7.31	-49.2	-61.9	3.9	1.48e+00	0	39	104	0	70	15175
2026-01-27 09:22:09.65	141.36	7.38	-49.1	-60.2	4.5	1.36e+00	0	39	0	0	70	12482
2026-01-27 09:22:10.65	141.33	7.46	-48.9	-58.4	5.5	8.03e-01	0	39	0	2097152	69	10698
2026-01-27 09:22:11.65	141.29	7.54	-48.5	-56.7	6.8	2.57e-01	0	39	0	4194304	69	8804
2026-01-27 09:22:12.64	141.26	7.61	-48.2	-55.1	8.3	9.66e-02	0	39	0	6291456	68	7787
2026-01-27 09:22:13.64	141.22	7.69	-47.6	-53.6	9.8	2.50e-02	0	39	0	7340032	67	6890
2026-01-27 09:22:14.64	141.18	7.77	-47.1	-52.4	10.9	3.11e-03	0	39	0	9437184	66	6407
2026-01-27 09:22:15.64	141.15	7.85	-46.6	-51.2	12.2	5.32e-04	0	39	0	11534336	65	5916
2026-01-27 09:22:16.63	141.11	7.92	-46.2	-50.5	13.0	1.04e-04	0	39	0	13631488	64	5725
2026-01-27 09:22:17.63	141.08	8.00	-45.9	-49.8	13.8	1.83e-05	0	39	0	14680064	63	5623
2026-01-27 09:22:18.63	141.04	8.08	-45.6	-49.3	14.2	7.00e-07	0	39	0	16777216	63	5336
2026-01-27 09:22:19.62	141.00	8.16	-45.4	-49.0	14.6	1.50e-06	0	39	0	18874368	62	5434
2026-01-27 09:22:20.62	140.97	8.24	-45.3	-48.8	14.8	0.00e+00	0	39	0	20971520	62	5291
2026-01-27 09:22:21.62	140.93	8.32	-45.3	-48.8	14.8	7.00e-07	0	39	0	23068672	62	5302
2026-01-27 09:22:22.62	140.89	8.40	-45.4	-49.0	14.6	0.00e+00	0	39	0	24117248	62	5444
2026-01-27 09:22:23.62	140.86	8.48	-45.6	-49.3	14.3	7.00e-07	0	39	0	26214400	62	5639
2026-01-27 09:22:24.62	140.82	8.56	-46.0	-50.0	13.6	2.20e-06	0	39	0	28311552	62	6082
2026-01-27 09:22:25.61	140.78	8.64	-46.4	-50.8	12.8	4.95e-05	0	39	0	30408704	63	6296
2026-01-27 09:22:26.61	140.74	8.72	-46.8	-51.7	11.7	2.43e-04	0	39	0	31457280	64	6595
2026-01-27 09:22:27.60	140.70	8.80	-47.3	-52.9	10.5	1.51e-03	0	39	0	33554432	65	7170
2026-01-27 09:22:28.60	140.67	8.88	-47.9	-54.5	8.9	2.16e-02	0	39	0	35651584	66	8092
2026-01-27 09:22:29.60	140.63	8.96	-48.3	-56.3	7.1	8.73e-02	0	39	0	37748736	67	9429
2026-01-27 09:22:30.59	140.59	9.04	-48.9	-58.5	5.5	3.05e-01	0	39	0	39845888	68	11485
2026-01-27 09:22:31.60	140.55	9.13	-47.0	-52.2	10.9	7.01e-01	0	39	0	40894464	66	6243
2026-01-27 09:22:32.60	140.51	9.21	-48.0	-54.6	9.2	8.07e-04	0	39	0	42991616	66	8219
2026-01-27 09:22:33.60	140.47	9.29	-49.0	-59.3	5.0	9.75e-01	0	39	0	45088768	68	12596
2026-01-27 09:22:34.59	140.43	9.37	-47.6	-53.6	9.5	1.34e+00	0	39	0	46137344	67	6900
2026-01-27 09:22:35.59	140.39	9.46	-49.2	-61.8	4.2	2.10e-01	0	39	0	48234496	69	15898
2026-01-27 09:22:36.59	140.35	9.54	-48.8	-58.0	4.4	1.49e+00	0	39	104	48234496	69	10244
2026-01-27 09:22:37.59	140.31	9.62	-46.1	-50.0	13.5	2.09e-04	0	39	0	48234496	64	5441
2026-01-27 09:22:38.58	140.27	9.71	-45.0	-48.3	15.4	1.50e-06	0	39	0	50331648	62	5025
2026-01-27 09:22:39.58	140.23	9.79	-44.5	-47.5	16.3	0.00e+00	0	39	0	52428800	61	4817
2026-01-27 09:22:40.58	140.18	9.88	-44.5	-47.6	16.2	0.00e+00	0	39	0	54525952	60	5168
2026-01-27 09:22:41.58	140.14	9.96	-44.4	-47.4	16.4	0.00e+00	0	39	0	56623104	60	5051
2026-01-27 09:22:42.57	140.10	10.04	-44.2	-47.1	16.6	0.00e+00	0	39	0	57671680	60	4901
2026-01-27 09:22:43.57	140.06	10.13	-44.1	-47.0	16.7	0.00e+00	0	39	0	59768832	60	4846
2026-01-27 09:22:44.56	140.02	10.21	-44.1	-46.9	16.8	0.00e+00	0	39	0	61865984	60	4789
2026-01-27 09:22:45.56	139.97	10.30	-43.9	-46.6	17.1	0.00e+00	0	39	0	63963136	59	4887
2026-01-27 09:22:46.56	139.93	10.39	-43.8	-46.5	17.2	0.00e+00	0	39	0	65011712	59	4857
2026-01-27 09:22:47.56	139.89	10.47	-43.9	-46.6	17.1	0.00e+00	0	40	0	67108864	59	4881
2026-01-27 09:22:48.56	139.84	10.56	-43.9	-46.6	17.1	0.00e+00	0	39	0	69206016	59	4891
2026-01-27 09:22:49.55	139.80	10.65	-43.9	-46.6	17.1	0.00e+00	0	39	0	71303168	59	4897
2026-01-27 09:22:50.56	139.76	10.73	-43.9	-46.6	17.1	0.00e+00	0	39	0	73400320	59	4899
2026-01-27 09:22:51.55	139.71	10.82	-43.9	-46.6	17.1	0.00e+00	0	39	0	74448896	59	4911
2026-01-27 09:22:52.55	139.67	10.91	-43.9	-46.7	17.1	0.00e+00	0	40	0	76546048	59	4947
2026-01-27 09:22:53.55	139.62	11.00	-44.0	-46.7	17.0	0.00e+00	0	40	0	78643200	59	4973
2026-01-27 09:22:54.55	139.58	11.08	-43.9	-46.7	17.1	0.00e+00	0	40	0	80740352	59	4941
2026-01-27 09:22:55.54	139.53	11.17	-44.0	-46.8	17.0	0.00e+00	0	40	0	82837504	59	5016
2026-01-27 09:22:56.54	139.49	11.26	-44.2	-47.0	16.8	0.00e+00	0	40	0	83886080	59	5105
2026-01-27 09:22:57.54	139.44	11.35	-44.0	-46.7	17.0	0.00e+00	0	40	0	85983232	59	4974
2026-01-27 09:22:58.54	139.39	11.44	-43.8	-46.5	17.3	0.00e+00	0	40	0	88080384	59	4852
2026-01-27 09:22:59.54	139.35	11.53	-43.9	-46.6	17.2	0.00e+00	0	40	0	90177536	59	4897
2026-01-27 09:23:00.53	139.30	11.62	-43.9	-46.5	17.2	0.00e+00	0	39	0	92274688	59	4869
2026-01-27 09:23:01.53	139.25	11.71	-43.9	-46.5	17.2	0.00e+00	0	40	0	93323264	59	4862
2026-01-27 09:23:02.53	139.20	11.80	-43.9	-46.6	17.2	0.00e+00	0	40	0	95420416	59	4892
2026-01-27 09:23:03.52	139.16	11.89	-43.9	-46.5	17.3	0.00e+00	0	39	0	97517568	59	4861
2026-01-27 09:23:04.52	139.11	11.98	-43.9	-46.6	17.2	0.00e+00	0	40	0	99614720	59	4901
2026-01-27 09:23:05.52	139.06	12.08	-43.8	-46.4	17.4	0.00e+00	0	40	0	100663296	59	4798
2026-01-27 09:23:06.52	139.01	12.17	-43.9	-46.6	17.2	0.00e+00	0	40	0	102760448	59	4898
2026-01-27 09:23:07.52	138.96	12.26	-43.8	-46.4	17.4	0.00e+00	0	40	0	104857600	59	4801
2026-01-27 09:23:08.52	138.91	12.35	-43.7	-46.2	17.6	0.00e+00	0	40	0	106954752	59	4694
2026-01-27 09:23:09.52	138.86	12.45	-43.5	-46.1	17.7	0.00e+00	0	40	0	109051904	59	4602
2026-01-27 09:23:10.51	138.81	12.54	-43.6	-46.1	17.6	0.00e+00	0	40	0	110100480	59	4643
2026-01-27 09:23:11.52	138.76	12.63	-43.6	-46.1	17.7	0.00e+00	0	40	0	112197632	59	4651
2026-01-27 09:23:12.51	138.71	12.73	-43.6	-46.2	17.6	0.00e+00	0	40	0	114294784	59	4675
2026-01-27 09:23:13.51	138.66	12.82	-43.6	-46.2	17.6	0.00e+00	0	40	0	116391936	59	4667
2026-01-27 09:23:14.51	138.61	12.92	-43.6	-46.2	17.6	0.00e+00	0	40	0	117440512	59	4665
2026-01-27 09:23:15.50	138.56	13.01	-43.7	-46.3	17.6	0.00e+00	0	40	0	119537664	59	4717
2026-01-27 09:23:16.50	138.50	13.11	-43.7	-46.3	17.5	0.00e+00	0	40	0	121634816	59	4735
2026-01-27 09:23:17.50	138.45	13.20	-43.6	-46.2	17.6	0.00e+00	0	39	0	123731968	59	4679
2026-01-27 09:23:18.50	138.40	13.30	-43.6	-46.2	17.6	0.00e+00	0	40	0	125829120	59	4683
2026-01-27 09:23:19.49	138.35	13.39	-43.6	-46.2	17.6	0.00e+00	0	40	0	126877696	59	4680
2026-01-27 09:23:20.50	138.29	13.49	-43.7	-46.2	17.6	0.00e+00	0	40	0	128974848	59	4697
2026-01-27 09:23:21.49	138.24	13.59	-43.5	-46.0	17.8	0.00e+00	0	40	0	131072000	58	4842
2026-01-27 09:23:22.48	138.18	13.69	-43.4	-45.9	17.9	0.00e+00	0	40	0	133169152	58	4796
2026-01-27 09:23:23.49	138.13	13.78	-43.3	-45.8	18.0	0.00e+00	0	40	0	135266304	58	4726
2026-01-27 09:23:24.49	138.07	13.88	-43.3	-45.8	18.0	0.00e+00	0	40	0	136314880	58	4731
2026-01-27 09:23:25.49	138.02	13.98	-43.3	-45.8	18.0	0.00e+00	0	39	0	138412032	58	4755
2026-01-27 09:23:26.48	137.96	14.08	-43.4	-46.0	17.9	0.00e+00	0	40	0	140509184	58	4831
2026-01-27 09:23:27.48	137.91	14.18	-43.4	-45.8	18.0	0.00e+00	0	40	0	142606336	58	4758
2026-01-27 09:23:28.47	137.85	14.28	-43.5	-46.0	17.9	0.00e+00	0	40	0	143654912	58	4844
2026-01-27 09:23:29.47	137.79	14.38	-43.5	-46.1	17.8	0.00e+00	0	40	0	145752064	58	4875
2026-01-27 09:23:30.46	137.73	14.48	-43.6	-46.2	17.7	0.00e+00	0	40	0	147849216	58	4963
2026-01-27 09:23:31.44	137.68	14.58	-43.5	-46.1	17.7	0.00e+00	0	40	0	149946368	58	4920
2026-01-27 09:23:32.44	137.62	14.68	-43.6	-46.2	17.7	0.00e+00	0	40	0	152043520	58	4948
2026-01-27 09:23:33.43	137.56	14.78	-43.6	-46.2	17.7	0.00e+00	0	40	0	153092096	58	4945
2026-01-27 09:23:34.42	137.50	14.88	-43.3	-45.9	18.0	0.00e+00	0	40	0	155189248	58	4769
2026-01-27 09:23:35.41	137.44	14.98	-43.2	-45.7	18.2	0.00e+00	0	40	0	157286400	58	4652
2026-01-27 09:23:36.40	137.38	15.09	-43.1	-45.5	18.3	0.00e+00	0	40	0	159383552	58	4583
2026-01-27 09:23:37.39	137.32	15.19	-42.9	-45.2	18.6	0.00e+00	0	40	0	160432128	57	4699
2026-01-27 09:23:38.39	137.26	15.29	-42.8	-45.2	18.6	0.00e+00	0	40	0	162529280	57	4668
2026-01-27 09:23:39.37	137.20	15.39	-42.8	-45.2	18.6	0.00e+00	0	40	0	164626432	57	4677
2026-01-27 09:23:40.37	137.14	15.50	-42.9	-45.3	18.6	0.00e+00	0	40	0	166723584	57	4729
2026-01-27 09:23:41.37	137.08	15.60	-43.0	-45.4	18.5	0.00e+00	0	40	0	167772160	57	4780
2026-01-27 09:23:42.36	137.02	15.71	-43.1	-45.6	18.3	0.00e+00	0	40	0	169869312	57	4896
2026-01-27 09:23:43.36	136.95	15.81	-43.3	-45.8	18.1	0.00e+00	0	40	0	171966464	57	5003
2026-01-27 09:23:44.36	136.89	15.92	-43.4	-45.9	18.0	0.00e+00	0	40	0	174063616	57	5090
2026-01-27 09:23:45.35	136.83	16.03	-43.4	-45.9	18.0	0.00e+00	0	40	0	176160768	57	5091
2026-01-27 09:23:46.35	136.76	16.13	-43.4	-45.9	18.0	0.00e+00	0	40	0	177209344	57	5099
2026-01-27 09:23:47.35	136.70	16.24	-43.3	-45.9	18.0	0.00e+00	0	40	0	179306496	57	5081
2026-01-27 09:23:48.34	136.63	16.35	-43.3	-45.9	18.0	0.00e+00	0	40	0	181403648	57	5054
2026-01-27 09:23:49.34	136.57	16.46	-43.3	-45.8	18.1	0.00e+00	0	40	0	183500800	57	5041
2026-01-27 09:23:50.34	136.50	16.57	-43.3	-45.8	18.1	0.00e+00	0	40	0	185597952	57	5039
2026-01-27 09:23:51.33	136.43	16.67	-43.3	-45.8	18.1	0.00e+00	0	40	0	186646528	57	4995
2026-01-27 09:23:52.33	136.36	16.78	-43.3	-45.8	18.1	0.00e+00	0	40	0	188743680	57	5013
2026-01-27 09:23:53.32	136.30	16.89	-43.3	-45.8	18.1	0.00e+00	0	40	0	190840832	57	5007
2026-01-27 09:23:54.32	136.23	17.00	-43.2	-45.7	18.2	0.00e+00	0	40	0	192937984	57	4944
2026-01-27 09:23:55.32	136.16	17.12	-43.2	-45.6	18.3	0.00e+00	0	40	0	193986560	57	4908
2026-01-27 09:23:56.32	136.09	17.23	-43.1	-45.6	18.3	0.00e+00	0	40	0	196083712	57	4882
2026-01-27 09:23:57.31	136.02	17.34	-43.1	-45.5	18.4	0.00e+00	0	40	0	198180864	57	4825
2026-01-27 09:23:58.30	135.95	17.45	-42.9	-45.3	18.6	0.00e+00	0	40	0	200278016	57	4735
2026-01-27 09:23:59.30	135.88	17.56	-43.0	-45.3	18.5	0.00e+00	0	40	0	202375168	57	4744
2026-01-27 09:24:00.30	135.81	17.68	-43.0	-45.4	18.5	0.00e+00	0	40	0	203423744	57	4794
2026-01-27 09:24:01.30	135.73	17.79	-42.9	-45.3	18.5	0.00e+00	0	40	0	205520896	57	4740
2026-01-27 09:24:02.29	135.66	17.90	-43.0	-45.4	18.5	0.00e+00	0	40	0	207618048	57	4776
2026-01-27 09:24:03.29	135.59	18.02	-43.0	-45.4	18.5	0.00e+00	0	40	0	209715200	57	4766
2026-01-27 09:24:04.28	135.52	18.13	-42.9	-45.3	18.5	0.00e+00	0	40	0	210763776	57	4754
2026-01-27 09:24:05.28	135.44	18.25	-43.0	-45.4	18.5	0.00e+00	0	40	0	212860928	57	4796
2026-01-27 09:24:06.28	135.37	18.37	-43.0	-45.5	18.4	0.00e+00	0	40	0	214958080	57	4815
2026-01-27 09:24:07.28	135.29	18.48	-43.1	-45.6	18.3	0.00e+00	0	40	0	217055232	57	4895
2026-01-27 09:24:08.27	135.21	18.60	-43.1	-45.5	18.4	0.00e+00	0	40	0	219152384	57	4826
2026-01-27 09:24:09.27	135.14	18.72	-43.1	-45.5	18.4	0.00e+00	0	40	0	220200960	57	4849
2026-01-27 09:24:10.27	135.06	18.84	-43.1	-45.6	18.3	0.00e+00	0	40	0	222298112	57	4886
2026-01-27 09:24:11.27	134.98	18.96	-43.2	-45.6	18.3	0.00e+00	0	40	0	224395264	57	4905
2026-01-27 09:24:12.27	134.90	19.08	-43.2	-45.7	18.3	0.00e+00	0	40	0	226492416	57	4935
2026-01-27 09:24:13.27	134.82	19.20	-43.2	-45.6	18.3	0.00e+00	0	40	0	228589568	57	4924
2026-01-27 09:24:14.26	134.74	19.31	-43.3	-45.7	18.2	0.00e+00	0	40	0	229638144	57	4982
2026-01-27 09:24:15.26	134.66	19.44	-43.2	-45.7	18.2	0.00e+00	0	40	0	231735296	57	4951
2026-01-27 09:24:16.26	134.58	19.56	-43.2	-45.6	18.3	0.00e+00	0	40	0	233832448	57	4922
2026-01-27 09:24:17.26	134.50	19.68	-43.2	-45.7	18.2	0.00e+00	0	40	0	235929600	57	4936
2026-01-27 09:24:18.25	134.42	19.80	-43.3	-45.8	18.1	0.00e+00	0	40	0	236978176	57	5035
2026-01-27 09:24:19.25	134.33	19.92	-43.5	-46.0	17.9	0.00e+00	0	40	0	239075328	57	5138
2026-01-27 09:24:20.25	134.25	20.05	-43.5	-46.1	17.9	0.00e+00	0	40	0	241172480	57	5167
2026-01-27 09:24:21.24	134.16	20.17	-43.6	-46.2	17.8	0.00e+00	0	40	0	243269632	57	5220
2026-01-27 09:24:22.24	134.08	20.30	-43.7	-46.3	17.7	0.00e+00	0	40	0	245366784	57	5307
2026-01-27 09:24:23.23	133.99	20.42	-43.6	-46.3	17.7	0.00e+00	0	40	0	246415360	57	5281
2026-01-27 09:24:24.23	133.90	20.55	-43.6	-46.2	17.7	0.00e+00	0	40	0	248512512	57	5254
2026-01-27 09:24:25.22	133.82	20.67	-43.7	-46.3	17.7	0.00e+00	0	40	0	250609664	58	4987
2026-01-27 09:24:26.22	133.73	20.80	-43.6	-46.2	17.8	0.00e+00	0	40	0	252706816	58	4945
2026-01-27 09:24:27.22	133.64	20.93	-43.7	-46.3	17.7	0.00e+00	0	40	0	253755392	58	5016
2026-01-27 09:24:28.22	133.55	21.06	-43.9	-46.5	17.5	0.00e+00	0	40	0	255852544	58	5129
2026-01-27 09:24:29.21	133.46	21.18	-44.1	-46.8	17.2	0.00e+00	0	40	0	257949696	58	5297
2026-01-27 09:24:30.21	133.37	21.31	-44.1	-46.8	17.2	0.00e+00	0	40	0	260046848	58	5340
2026-01-27 09:24:31.21	133.28	21.44	-44.1	-46.8	17.2	0.00e+00	0	40	0	262144000	58	5295
2026-01-27 09:24:32.21	133.18	21.57	-44.1	-46.8	17.2	0.00e+00	0	40	0	263192576	58	5292
2026-01-27 09:24:33.20	133.09	21.70	-44.0	-46.7	17.3	0.00e+00	0	40	0	265289728	59	4960
2026-01-27 09:24:34.19	132.99	21.83	-43.9	-46.5	17.5	0.00e+00	0	40	0	267386880	59	4825
2026-01-27 09:24:35.19	132.90	21.97	-43.8	-46.4	17.5	0.00e+00	0	40	0	269484032	59	4800
2026-01-27 09:24:36.19	132.80	22.10	-43.8	-46.4	17.6	0.00e+00	0	40	0	271581184	59	4781
2026-01-27 09:24:37.18	132.71	22.23	-44.0	-46.6	17.3	0.00e+00	0	40	0	272629760	59	4924
2026-01-27 09:24:38.19	132.61	22.37	-44.1	-46.8	17.2	0.00e+00	0	40	0	274726912	59	5041
2026-01-27 09:24:39.19	132.51	22.50	-44.2	-47.0	17.1	0.00e+00	0	40	0	276824064	59	5110
2026-01-27 09:24:40.19	132.41	22.64	-44.1	-46.7	17.2	0.00e+00	0	40	0	278921216	59	4983
2026-01-27 09:24:41.19	132.31	22.77	-44.0	-46.7	17.3	0.00e+00	0	40	0	279969792	59	4927
2026-01-27 09:24:42.19	132.20	22.91	-43.8	-46.4	17.5	0.00e+00	0	40	0	282066944	59	4813
2026-01-27 09:24:43.18	132.10	23.05	-43.7	-46.3	17.7	0.00e+00	0	40	0	284164096	59	4712
2026-01-27 09:24:44.18	132.00	23.18	-43.9	-46.5	17.5	0.00e+00	0	40	0	286261248	59	4823
2026-01-27 09:24:45.17	131.90	23.32	-44.0	-46.7	17.3	0.00e+00	0	40	0	288358400	59	4971
2026-01-27 09:24:46.17	131.79	23.46	-44.2	-46.9	17.1	0.00e+00	0	40	0	289406976	59	5086
2026-01-27 09:24:47.17	131.68	23.60	-44.4	-47.2	16.9	0.00e+00	0	40	0	291504128	59	5226
2026-01-27 09:24:48.17	131.58	23.74	-44.4	-47.3	16.8	0.00e+00	0	40	0	293601280	59	5292
2026-01-27 09:24:49.16	131.47	23.88	-44.4	-47.2	16.8	0.00e+00	0	40	0	295698432	59	5276
2026-01-27 09:24:50.16	131.36	24.02	-44.4	-47.3	16.8	0.00e+00	0	40	0	296747008	59	5283
2026-01-27 09:24:51.16	131.25	24.17	-44.5	-47.3	16.8	0.00e+00	0	40	0	298844160	59	5280
2026-01-27 09:24:52.15	131.14	24.31	-44.5	-47.2	16.8	0.00e+00	0	40	0	300941312	59	5276
2026-01-27 09:24:53.15	131.02	24.45	-44.5	-47.3	16.7	0.00e+00	0	40	0	303038464	59	5311
2026-01-27 09:24:54.14	130.91	24.59	-44.6	-47.5	16.6	0.00e+00	0	40	0	305135616	59	5405
2026-01-27 09:24:55.14	130.80	24.74	-44.7	-47.6	16.5	0.00e+00	0	40	0	306184192	60	5175
2026-01-27 09:24:56.14	130.68	24.89	-44.8	-47.8	16.3	0.00e+00	0	40	0	308281344	60	5309
2026-01-27 09:24:57.13	130.57	25.03	-44.6	-47.5	16.6	0.00e+00	0	40	0	310378496	60	5120
2026-01-27 09:24:58.13	130.45	25.18	-44.6	-47.4	16.6	0.00e+00	0	40	0	312475648	60	5087
2026-01-27 09:24:59.12	130.33	25.32	-44.7	-47.6	16.5	0.00e+00	0	40	0	314572800	60	5167
2026-01-27 09:25:00.12	130.21	25.47	-44.8	-47.8	16.2	0.00e+00	0	40	0	315621376	60	5312
2026-01-27 09:25:01.11	130.09	25.62	-44.7	-47.6	16.5	0.00e+00	0	40	0	317718528	60	5203
2026-01-27 09:25:02.12	129.97	25.77	-45.0	-48.1	16.1	0.00e+00	0	40	0	319815680	60	5466
2026-01-27 09:25:03.11	129.84	25.92	-45.1	-48.3	15.8	0.00e+00	0	40	0	321912832	60	5627
2026-01-27 09:25:04.11	129.72	26.07	-45.0	-48.2	15.9	0.00e+00	0	40	0	322961408	60	5544
2026-01-27 09:25:05.11	129.59	26.22	-44.9	-48.1	16.0	0.00e+00	0	40	0	325058560	60	5490
2026-01-27 09:25:06.11	129.46	26.38	-44.8	-47.9	16.2	0.00e+00	0	40	0	327155712	60	5347
2026-01-27 09:25:07.11	129.34	26.53	-44.8	-47.9	16.2	0.00e+00	0	40	0	329252864	60	5358
2026-01-27 09:25:08.11	129.21	26.68	-44.9	-48.0	16.1	0.00e+00	0	40	0	331350016	60	5427
2026-01-27 09:25:09.11	129.07	26.84	-44.9	-48.1	16.0	0.00e+00	0	40	0	332398592	60	5482
2026-01-27 09:25:10.11	128.94	27.00	-44.9	-48.0	16.1	0.00e+00	0	40	0	334495744	60	5430
2026-01-27 09:25:11.11	128.81	27.15	-44.9	-48.0	16.2	0.00e+00	0	40	0	336592896	60	5410
2026-01-27 09:25:12.10	128.67	27.31	-44.9	-47.9	16.2	0.00e+00	0	40	0	338690048	60	5393
2026-01-27 09:25:13.10	128.54	27.46	-44.9	-47.9	16.2	0.00e+00	0	40	0	340787200	60	5363
2026-01-27 09:25:14.10	128.40	27.62	-44.9	-47.9	16.3	0.00e+00	0	40	0	341835776	60	5354
2026-01-27 09:25:15.10	128.26	27.78	-45.0	-48.1	16.1	0.00e+00	0	40	0	343932928	60	5494
2026-01-27 09:25:16.10	128.12	27.94	-45.0	-48.0	16.1	0.00e+00	0	40	0	346030080	60	5418
2026-01-27 09:25:17.10	127.98	28.10	-44.8	-47.7	16.4	0.00e+00	0	40	0	348127232	60	5261
2026-01-27 09:25:18.09	127.83	28.26	-44.8	-47.7	16.4	0.00e+00	0	40	0	349175808	60	5232
2026-01-27 09:25:19.09	127.69	28.42	-44.8	-47.8	16.3	0.00e+00	0	40	0	351272960	60	5307
2026-01-27 09:25:20.09	127.54	28.59	-44.8	-47.8	16.3	0.00e+00	0	40	0	353370112	60	5298
2026-01-27 09:25:21.08	127.40	28.75	-44.7	-47.7	16.4	0.00e+00	0	40	0	355467264	60	5235
2026-01-27 09:25:22.07	127.25	28.91	-44.8	-47.7	16.4	0.00e+00	0	40	0	357564416	60	5279
2026-01-27 09:25:23.07	127.10	29.08	-44.8	-47.8	16.3	0.00e+00	0	40	0	358612992	60	5316
2026-01-27 09:25:24.06	126.95	29.24	-44.9	-47.8	16.3	0.00e+00	0	40	0	360710144	60	5338
2026-01-27 09:25:25.06	126.79	29.41	-44.8	-47.7	16.4	0.00e+00	0	40	0	362807296	60	5229
2026-01-27 09:25:26.06	126.63	29.58	-44.7	-47.6	16.5	0.00e+00	0	40	0	364904448	60	5193
2026-01-27 09:25:27.06	126.48	29.74	-44.6	-47.5	16.6	0.00e+00	0	40	0	365953024	60	5118
2026-01-27 09:25:28.05	126.32	29.91	-44.7	-47.6	16.5	0.00e+00	0	40	0	368050176	60	5173
2026-01-27 09:25:29.05	126.16	30.08	-44.8	-47.7	16.4	0.00e+00	0	40	0	370147328	60	5271
2026-01-27 09:25:30.05	126.00	30.25	-44.9	-47.9	16.2	0.00e+00	0	40	0	372244480	60	5365
2026-01-27 09:25:31.05	125.83	30.42	-44.9	-47.8	16.4	0.00e+00	0	40	0	374341632	60	5303
2026-01-27 09:25:32.05	125.66	30.59	-45.0	-47.9	16.2	0.00e+00	0	40	0	375390208	60	5387
2026-01-27 09:25:33.05	125.50	30.77	-45.0	-48.0	16.1	0.00e+00	0	40	0	377487360	60	5455
2026-01-27 09:25:34.04	125.33	30.94	-45.0	-47.9	16.2	0.00e+00	0	40	0	379584512	60	5398
2026-01-27 09:25:35.04	125.16	31.11	-45.1	-48.1	16.0	0.00e+00	0	40	0	381681664	60	5506
2026-01-27 09:25:36.03	124.98	31.28	-45.1	-48.1	16.0	0.00e+00	0	40	0	383778816	60	5504
2026-01-27 09:25:37.03	124.81	31.46	-45.1	-48.1	16.0	0.00e+00	0	40	0	384827392	60	5528
2026-01-27 09:25:38.03	124.63	31.64	-45.0	-48.1	16.1	0.00e+00	0	40	0	386924544	60	5466
2026-01-27 09:25:39.02	124.45	31.81	-45.1	-48.2	16.0	0.00e+00	0	40	0	389021696	61	5225
2026-01-27 09:25:40.01	124.27	31.99	-45.3	-48.4	15.8	0.00e+00	0	40	0	391118848	61	5368
2026-01-27 09:25:41.01	124.09	32.17	-45.5	-48.7	15.5	0.00e+00	0	40	0	392167424	61	5542
2026-01-27 09:25:42.00	123.91	32.34	-45.6	-48.9	15.3	0.00e+00	0	40	0	394264576	61	5658
2026-01-27 09:25:43.00	123.72	32.52	-45.5	-48.8	15.4	0.00e+00	0	40	0	396361728	61	5596
2026-01-27 09:25:44.00	123.53	32.70	-45.5	-48.7	15.5	0.00e+00	0	40	0	398458880	61	5564
2026-01-27 09:25:44.99	123.34	32.88	-45.5	-48.8	15.4	0.00e+00	0	40	0	400556032	61	5601
2026-01-27 09:25:45.98	123.15	33.06	-45.5	-48.8	15.4	0.00e+00	0	40	0	401604608	61	5654
2026-01-27 09:25:46.97	122.95	33.24	-45.7	-49.1	15.1	0.00e+00	0	40	0	403701760	62	5500
2026-01-27 09:25:47.97	122.75	33.43	-45.9	-49.5	14.7	0.00e+00	0	40	0	405798912	62	5764
2026-01-27 09:25:48.96	122.56	33.61	-45.9	-49.6	14.7	0.00e+00	0	40	0	407896064	62	5793
2026-01-27 09:25:49.96	122.35	33.79	-46.0	-49.7	14.5	0.00e+00	0	40	0	408944640	62	5856
2026-01-27 09:25:50.95	122.15	33.98	-45.7	-49.1	15.0	0.00e+00	0	40	0	411041792	62	5528
2026-01-27 09:25:51.95	121.94	34.16	-45.7	-49.1	15.1	7.00e-07	0	40	0	413138944	62	5466
2026-01-27 09:25:52.95	121.73	34.35	-45.6	-48.9	15.3	0.00e+00	0	40	0	415236096	62	5354
2026-01-27 09:25:53.94	121.52	34.54	-45.5	-48.7	15.4	0.00e+00	0	40	0	417333248	62	5265
2026-01-27 09:25:54.94	121.31	34.73	-45.5	-48.8	15.4	0.00e+00	0	40	0	418381824	62	5292
2026-01-27 09:25:55.93	121.09	34.91	-45.4	-48.6	15.6	0.00e+00	0	40	0	420478976	62	5206
2026-01-27 09:25:56.93	120.87	35.10	-45.2	-48.3	15.9	0.00e+00	0	40	0	422576128	62	5012
2026-01-27 09:25:57.92	120.65	35.29	-45.3	-48.3	15.8	0.00e+00	0	40	0	424673280	62	5040
2026-01-27 09:25:58.92	120.42	35.48	-45.0	-48.0	16.2	0.00e+00	0	40	0	425721856	62	4853
2026-01-27 09:25:59.91	120.20	35.67	-45.0	-48.0	16.1	0.00e+00	0	40	0	427819008	62	4868
2026-01-27 09:26:00.91	119.97	35.86	-44.9	-47.9	16.3	0.00e+00	0	40	0	429916160	61	5045
2026-01-27 09:26:01.91	119.73	36.06	-44.8	-47.8	16.4	0.00e+00	0	40	0	432013312	61	4995
2026-01-27 09:26:02.90	119.50	36.25	-44.9	-47.8	16.3	0.00e+00	0	40	0	434110464	61	5017
2026-01-27 09:26:03.90	119.26	36.44	-44.9	-47.9	16.2	0.00e+00	0	40	0	435159040	61	5078
2026-01-27 09:26:04.90	119.02	36.64	-45.1	-48.1	16.0	0.00e+00	0	40	0	437256192	61	5194
2026-01-27 09:26:05.89	118.78	36.83	-45.0	-48.1	16.1	0.00e+00	0	40	0	439353344	61	5179
2026-01-27 09:26:06.88	118.53	37.02	-45.0	-48.0	16.2	0.00e+00	0	40	0	441450496	61	5142
2026-01-27 09:26:07.88	118.28	37.22	-45.0	-48.0	16.2	0.00e+00	0	40	0	443547648	61	5129
2026-01-27 09:26:08.87	118.03	37.41	-44.8	-47.8	16.4	0.00e+00	0	40	0	444596224	61	5001
2026-01-27 09:26:09.86	117.78	37.61	-45.0	-48.0	16.1	0.00e+00	0	40	0	446693376	61	5146
2026-01-27 09:26:10.86	117.52	37.81	-44.9	-47.8	16.4	0.00e+00	0	40	0	448790528	61	5020
2026-01-27 09:26:11.85	117.26	38.00	-44.9	-47.9	16.3	0.00e+00	0	40	0	450887680	61	5049
2026-01-27 09:26:12.84	116.99	38.20	-44.9	-47.8	16.3	0.00e+00	0	40	0	451936256	61	5021
2026-01-27 09:26:13.83	116.72	38.40	-45.0	-47.9	16.3	0.00e+00	0	40	0	454033408	61	5069
2026-01-27 09:26:14.83	116.45	38.60	-45.2	-48.2	16.0	0.00e+00	0	40	0	456130560	61	5272
2026-01-27 09:26:15.82	116.18	38.79	-45.4	-48.6	15.6	0.00e+00	0	40	0	458227712	61	5471
2026-01-27 09:26:16.81	115.90	38.99	-45.5	-48.8	15.4	0.00e+00	0	40	0	459276288	61	5605
2026-01-27 09:26:17.80	115.62	39.19	-45.4	-48.6	15.6	0.00e+00	0	40	0	461373440	61	5510
2026-01-27 09:26:18.79	115.34	39.39	-45.4	-48.6	15.5	0.00e+00	0	40	0	463470592	61	5508
2026-01-27 09:26:19.79	115.05	39.59	-45.4	-48.5	15.7	0.00e+00	0	40	0	465567744	61	5433
2026-01-27 09:26:20.79	114.75	39.79	-45.2	-48.3	15.8	0.00e+00	0	40	0	467664896	61	5284
2026-01-27 09:26:21.78	114.46	39.99	-45.2	-48.3	15.9	0.00e+00	0	40	0	468713472	61	5315
2026-01-27 09:26:22.77	114.16	40.19	-45.4	-48.5	15.7	0.00e+00	0	40	0	470810624	61	5416
2026-01-27 09:26:23.77	113.85	40.39	-45.5	-48.6	15.5	0.00e+00	0	40	0	472907776	61	5526
2026-01-27 09:26:24.76	113.55	40.59	-45.2	-48.2	16.0	0.00e+00	0	40	0	475004928	61	5264
2026-01-27 09:26:25.75	113.24	40.80	-45.1	-48.0	16.1	0.00e+00	0	40	0	476053504	61	5155
2026-01-27 09:26:26.75	112.92	41.00	-45.0	-47.9	16.1	0.00e+00	0	40	0	478150656	61	5099
2026-01-27 09:26:27.74	112.60	41.20	-45.0	-48.0	16.1	0.00e+00	0	40	0	480247808	61	5139
2026-01-27 09:26:28.74	112.28	41.40	-44.9	-47.9	16.3	0.00e+00	0	40	0	482344960	61	5060
2026-01-27 09:26:29.74	111.95	41.61	-45.0	-47.9	16.2	0.00e+00	0	40	0	484442112	61	5089
2026-01-27 09:26:30.73	111.62	41.81	-45.1	-48.1	16.1	0.00e+00	0	40	0	485490688	61	5180
2026-01-27 09:26:31.73	111.28	42.01	-45.5	-48.6	15.6	0.00e+00	0	40	0	487587840	61	5500
2026-01-27 09:26:32.72	110.94	42.21	-45.9	-49.4	14.9	0.00e+00	0	40	0	489684992	62	5673
2026-01-27 09:26:33.71	110.60	42.41	-46.1	-49.6	14.6	0.00e+00	0	40	0	491782144	62	5833
2026-01-27 09:26:34.71	110.25	42.62	-46.2	-49.7	14.5	0.00e+00	0	40	0	492830720	63	5574
2026-01-27 09:26:35.71	109.90	42.82	-46.3	-49.9	14.3	7.00e-07	0	40	0	494927872	63	5664
2026-01-27 09:26:36.70	109.54	43.02	-46.3	-49.9	14.4	1.50e-06	0	40	0	497025024	63	5669
2026-01-27 09:26:37.70	109.18	43.22	-45.9	-49.2	15.0	0.00e+00	0	40	0	499122176	63	5268
2026-01-27 09:26:38.69	108.81	43.42	-45.6	-48.8	15.5	0.00e+00	0	40	0	501219328	63	5001
2026-01-27 09:26:39.68	108.44	43.62	-45.5	-48.7	15.6	0.00e+00	0	40	0	502267904	62	5231
2026-01-27 09:26:40.68	108.06	43.83	-45.4	-48.5	15.8	0.00e+00	0	40	0	504365056	62	5113
2026-01-27 09:26:41.67	107.69	44.02	-45.3	-48.4	15.8	0.00e+00	0	40	0	506462208	62	5079
2026-01-27 09:26:42.67	107.30	44.23	-45.4	-48.6	15.7	0.00e+00	0	40	0	508559360	62	5173
2026-01-27 09:26:43.66	106.91	44.42	-45.6	-48.8	15.4	0.00e+00	0	40	0	509607936	62	5322
2026-01-27 09:26:44.65	106.52	44.62	-45.6	-48.9	15.4	0.00e+00	0	40	0	511705088	62	5374
2026-01-27 09:26:45.65	106.11	44.82	-45.6	-49.0	15.3	0.00e+00	0	40	0	513802240	62	5419
2026-01-27 09:26:46.64	105.71	45.02	-45.7	-49.1	15.2	0.00e+00	0	40	0	515899392	62	5496
2026-01-27 09:26:47.63	105.30	45.21	-46.0	-49.6	14.6	0.00e+00	0	40	0	517996544	62	5822
2026-01-27 09:26:48.63	104.88	45.41	-46.3	-50.1	14.1	1.50e-06	0	40	0	519045120	63	5845
2026-01-27 09:26:49.62	104.47	45.61	-46.2	-49.9	14.3	0.00e+00	0	40	0	521142272	63	5704
2026-01-27 09:26:50.61	104.04	45.80	-45.8	-49.2	15.0	7.00e-07	0	40	0	523239424	63	5279
2026-01-27 09:26:51.60	103.61	45.99	-45.6	-48.8	15.4	0.00e+00	0	40	0	525336576	63	5041
2026-01-27 09:26:52.60	103.17	46.19	-45.5	-48.7	15.5	0.00e+00	0	40	0	526385152	62	5245
2026-01-27 09:26:53.60	102.73	46.38	-45.3	-48.4	15.8	0.00e+00	0	40	0	528482304	62	5065
2026-01-27 09:26:54.59	102.28	46.57	-45.2	-48.2	16.0	0.00e+00	0	40	0	530579456	62	4978
2026-01-27 09:26:55.59	101.83	46.76	-45.0	-48.0	16.2	0.00e+00	0	40	0	532676608	62	4844
2026-01-27 09:26:56.58	101.37	46.95	-44.8	-47.7	16.6	0.00e+00	0	40	0	534773760	61	4936
2026-01-27 09:26:57.58	100.90	47.14	-44.6	-47.5	16.7	0.00e+00	0	40	0	535822336	61	4828
2026-01-27 09:26:58.58	100.43	47.33	-44.7	-47.6	16.7	0.00e+00	0	40	0	537919488	61	4889
2026-01-27 09:26:59.58	99.95	47.51	-45.1	-48.2	16.1	0.00e+00	0	40	0	540016640	61	5232
2026-01-27 09:27:00.58	99.47	47.70	-45.1	-48.2	16.1	0.00e+00	0	40	0	542113792	61	5230
2026-01-27 09:27:01.57	98.99	47.88	-45.1	-48.2	16.0	0.00e+00	0	40	0	543162368	61	5226
2026-01-27 09:27:02.57	98.49	48.06	-44.8	-47.7	16.5	0.00e+00	0	40	0	545259520	61	4936
2026-01-27 09:27:03.56	97.99	48.24	-44.5	-47.4	16.9	0.00e+00	0	40	0	547356672	61	4767
2026-01-27 09:27:04.56	97.49	48.42	-44.4	-47.2	17.0	0.00e+00	0	40	0	549453824	60	4930
2026-01-27 09:27:05.55	96.98	48.59	-44.3	-47.1	17.1	0.00e+00	0	40	0	551550976	60	4906
2026-01-27 09:27:06.54	96.47	48.77	-44.5	-47.3	16.9	0.00e+00	0	40	0	552599552	60	5031
2026-01-27 09:27:07.54	95.94	48.94	-44.5	-47.4	16.9	0.00e+00	0	40	0	554696704	60	5044
2026-01-27 09:27:08.54	95.41	49.11	-44.5	-47.3	17.0	0.00e+00	0	40	0	556793856	60	4988
2026-01-27 09:27:09.53	94.88	49.28	-44.7	-47.6	16.6	0.00e+00	0	40	0	558891008	60	5206
2026-01-27 09:27:10.53	94.34	49.45	-45.1	-48.3	15.9	0.00e+00	0	40	0	560988160	60	5618
2026-01-27 09:27:11.52	93.80	49.61	-45.3	-48.5	15.7	0.00e+00	0	40	0	562036736	61	5452
2026-01-27 09:27:12.52	93.24	49.77	-45.2	-48.3	15.8	0.00e+00	0	40	0	564133888	61	5328
2026-01-27 09:27:13.51	92.69	49.93	-45.2	-48.3	16.0	0.00e+00	0	40	0	566231040	61	5327
2026-01-27 09:27:14.50	92.13	50.09	-45.1	-48.2	16.0	0.00e+00	0	40	0	568328192	61	5234
2026-01-27 09:27:15.49	91.56	50.24	-45.3	-48.4	15.9	0.00e+00	0	40	0	569376768	61	5381
2026-01-27 09:27:16.49	90.98	50.40	-45.3	-48.5	15.8	0.00e+00	0	40	0	571473920	61	5414
2026-01-27 09:27:17.49	90.40	50.55	-45.1	-48.3	15.9	0.00e+00	0	40	0	573571072	61	5338
2026-01-27 09:27:18.48	89.82	50.69	-45.0	-48.1	16.2	0.00e+00	0	40	0	575668224	61	5174
2026-01-27 09:27:19.47	89.23	50.84	-44.8	-47.8	16.5	0.00e+00	0	40	0	576716800	61	5015
2026-01-27 09:27:20.48	88.62	50.98	-44.8	-47.8	16.4	0.00e+00	0	40	0	578813952	61	5026
2026-01-27 09:27:21.47	88.02	51.12	-44.8	-47.7	16.5	0.00e+00	0	40	0	580911104	61	4963
2026-01-27 09:27:22.47	87.41	51.25	-44.8	-47.8	16.4	0.00e+00	0	40	0	583008256	61	5005
2026-01-27 09:27:23.47	86.79	51.39	-44.9	-47.9	16.3	0.00e+00	0	40	0	585105408	61	5074
2026-01-27 09:27:24.47	86.17	51.52	-44.9	-48.0	16.3	0.00e+00	0	40	0	586153984	61	5113
2026-01-27 09:27:25.46	85.55	51.64	-44.8	-47.8	16.5	0.00e+00	0	40	0	588251136	61	5005
2026-01-27 09:27:26.45	84.92	51.77	-44.4	-47.3	17.0	0.00e+00	0	40	0	590348288	60	4990
2026-01-27 09:27:27.45	84.28	51.89	-44.0	-46.7	17.5	0.00e+00	0	40	0	592445440	60	4671
2026-01-27 09:27:28.44	83.65	52.00	-43.6	-46.2	18.0	0.00e+00	0	40	0	594542592	59	4652
2026-01-27 09:27:29.43	83.01	52.11	-43.7	-46.3	17.9	0.00e+00	0	40	0	595591168	59	4732
2026-01-27 09:27:30.43	82.35	52.22	-43.8	-46.4	17.8	0.00e+00	0	40	0	597688320	59	4788
2026-01-27 09:27:31.43	81.69	52.33	-43.5	-46.0	18.2	0.00e+00	0	40	0	599785472	58	4825
2026-01-27 09:27:32.42	81.04	52.43	-43.1	-45.5	18.6	0.00e+00	0	40	0	601882624	58	4566
2026-01-27 09:27:33.41	80.38	52.53	-42.5	-44.8	19.3	0.00e+00	0	40	0	602931200	57	4444
2026-01-27 09:27:34.41	79.71	52.62	-41.4	-43.8	19.9	0.00e+00	0	40	0	605028352	55	4453
2026-01-27 09:27:35.41	79.03	52.71	-41.3	-43.4	20.4	0.00e+00	0	40	0	607125504	54	4538
2026-01-27 09:27:36.40	78.36	52.80	-41.0	-43.1	20.7	0.00e+00	0	40	0	609222656	54	4350
2026-01-27 09:27:37.40	77.67	52.88	-40.9	-42.9	20.8	0.00e+00	0	40	0	611319808	53	4543
2026-01-27 09:27:38.40	76.99	52.96	-40.8	-42.8	20.9	0.00e+00	0	40	0	612368384	53	4482
2026-01-27 09:27:39.40	76.29	53.04	-40.7	-42.7	21.0	0.00e+00	0	40	0	614465536	53	4410
2026-01-27 09:27:40.39	75.61	53.11	-40.7	-42.6	21.1	0.00e+00	0	40	0	616562688	53	4385
2026-01-27 09:27:41.39	74.91	53.17	-40.6	-42.6	21.2	0.00e+00	0	40	0	618659840	53	4349
2026-01-27 09:27:42.38	74.21	53.23	-40.6	-42.6	21.2	0.00e+00	0	40	0	619708416	53	4345
2026-01-27 09:27:43.38	73.51	53.29	-40.6	-42.6	21.1	0.00e+00	0	40	0	621805568	53	4374
2026-01-27 09:27:44.38	72.80	53.35	-40.4	-42.4	21.3	0.00e+00	0	40	0	623902720	52	4510
2026-01-27 09:27:45.38	72.10	53.39	-40.6	-42.6	21.1	0.00e+00	0	40	0	625999872	52	4643
2026-01-27 09:27:46.37	71.39	53.44	-40.9	-43.0	20.8	0.00e+00	0	40	0	628097024	52	4823
2026-01-27 09:27:47.37	70.68	53.48	-40.5	-42.5	21.3	0.00e+00	0	40	0	629145600	52	4548
2026-01-27 09:27:48.36	69.97	53.51	-40.4	-42.3	21.4	0.00e+00	0	40	0	631242752	52	4486
2026-01-27 09:27:49.35	69.26	53.54	-40.5	-42.5	21.2	0.00e+00	0	40	0	633339904	52	4576
2026-01-27 09:27:50.35	68.54	53.57	-40.6	-42.6	21.1	0.00e+00	0	40	0	635437056	52	4637
2026-01-27 09:27:51.35	67.82	53.59	-40.7	-42.7	21.0	0.00e+00	0	40	0	637534208	52	4674
2026-01-27 09:27:52.34	67.11	53.61	-40.9	-43.0	20.8	0.00e+00	0	40	0	638582784	52	4825
2026-01-27 09:27:53.34	66.39	53.62	-41.0	-43.1	20.8	0.00e+00	0	40	0	640679936	52	4881
2026-01-27 09:27:54.33	65.67	53.63	-41.2	-43.2	20.6	0.00e+00	0	40	0	642777088	52	4954
2026-01-27 09:27:55.33	64.95	53.64	-41.1	-43.2	20.7	0.00e+00	0	40	0	644874240	52	4933
2026-01-27 09:27:56.33	64.23	53.63	-41.2	-43.3	20.6	0.00e+00	0	40	0	645922816	53	4713
2026-01-27 09:27:57.32	63.52	53.63	-41.1	-43.2	20.6	0.00e+00	0	40	0	648019968	53	4678
2026-01-27 09:27:58.31	62.80	53.62	-41.0	-43.0	20.8	0.00e+00	0	40	0	650117120	53	4586
2026-01-27 09:27:59.31	62.08	53.60	-41.0	-43.0	20.7	0.00e+00	0	40	0	652214272	53	4576
2026-01-27 09:28:00.31	61.36	53.58	-40.9	-42.9	20.9	0.00e+00	0	40	0	654311424	53	4536
2026-01-27 09:28:01.30	60.65	53.56	-40.9	-43.0	20.8	0.00e+00	0	40	0	655360000	53	4548
2026-01-27 09:28:02.30	59.93	53.53	-41.0	-43.0	20.8	0.00e+00	0	40	0	657457152	53	4565
2026-01-27 09:28:03.30	59.22	53.50	-41.0	-43.0	20.8	0.00e+00	0	40	0	659554304	53	4591
2026-01-27 09:28:04.29	58.51	53.46	-40.8	-42.8	21.0	0.00e+00	0	40	0	661651456	53	4446
2026-01-27 09:28:05.29	57.80	53.42	-40.4	-42.4	21.4	0.00e+00	0	40	0	662700032	52	4500
2026-01-27 09:28:06.29	57.09	53.37	-40.2	-42.1	21.6	0.00e+00	0	40	0	664797184	52	4362
2026-01-27 09:28:07.28	56.39	53.32	-40.4	-42.3	21.4	0.00e+00	0	40	0	666894336	52	4467
2026-01-27 09:28:08.28	55.68	53.27	-40.6	-42.5	21.2	0.00e+00	0	40	0	668991488	52	4589
2026-01-27 09:28:09.28	54.98	53.21	-40.6	-42.5	21.2	0.00e+00	0	40	0	671088640	52	4590
2026-01-27 09:28:10.27	54.29	53.15	-40.5	-42.5	21.2	0.00e+00	0	40	0	672137216	52	4555
2026-01-27 09:28:11.27	53.59	53.08	-40.4	-42.3	21.4	0.00e+00	0	40	0	674234368	52	4478
2026-01-27 09:28:12.27	52.90	53.01	-40.3	-42.2	21.5	0.00e+00	0	40	0	676331520	52	4433
2026-01-27 09:28:13.26	52.22	52.93	-40.3	-42.2	21.5	0.00e+00	0	40	0	678428672	52	4426
2026-01-27 09:28:14.26	51.53	52.85	-40.4	-42.4	21.4	0.00e+00	0	40	0	679477248	52	4503
2026-01-27 09:28:15.25	50.86	52.77	-40.6	-42.6	21.2	0.00e+00	0	40	0	681574400	52	4615
2026-01-27 09:28:16.25	50.18	52.68	-40.8	-42.8	21.0	0.00e+00	0	40	0	683671552	52	4734
2026-01-27 09:28:17.24	49.51	52.59	-41.1	-43.2	20.6	0.00e+00	0	40	0	685768704	52	4952
2026-01-27 09:28:18.23	48.85	52.49	-41.6	-43.7	20.2	0.00e+00	0	40	0	687865856	53	4938
2026-01-27 09:28:19.23	48.19	52.39	-41.6	-43.7	20.2	0.00e+00	0	40	0	688914432	53	4968
2026-01-27 09:28:20.22	47.53	52.29	-41.6	-43.7	20.2	0.00e+00	0	40	0	691011584	53	4953
2026-01-27 09:28:21.22	46.88	52.18	-41.9	-44.1	19.8	0.00e+00	0	40	0	693108736	54	4893
2026-01-27 09:28:22.21	46.23	52.07	-42.3	-44.6	19.4	0.00e+00	0	40	0	695205888	55	4874
2026-01-27 09:28:23.20	45.60	51.96	-42.7	-45.0	19.0	0.00e+00	0	40	0	696254464	55	5134
2026-01-27 09:28:24.19	44.96	51.84	-43.2	-45.6	18.5	0.00e+00	0	40	0	698351616	57	4885
2026-01-27 09:28:25.18	44.33	51.72	-43.5	-46.0	18.1	0.00e+00	0	40	0	700448768	57	5151
2026-01-27 09:28:26.18	43.70	51.60	-43.7	-46.2	18.0	0.00e+00	0	40	0	702545920	58	4934
2026-01-27 09:28:27.17	43.08	51.47	-43.6	-46.1	18.1	0.00e+00	0	40	0	704643072	58	4886
2026-01-27 09:28:28.17	42.46	51.34	-43.7	-46.2	18.0	0.00e+00	0	40	0	705691648	58	4931
2026-01-27 09:28:29.17	41.85	51.21	-43.9	-46.5	17.8	0.00e+00	0	40	0	707788800	58	5104
2026-01-27 09:28:30.16	41.25	51.07	-44.0	-46.6	17.6	0.00e+00	0	40	0	709885952	58	5178
2026-01-27 09:28:31.15	40.65	50.93	-44.0	-46.6	17.6	0.00e+00	0	40	0	711983104	58	5175
2026-01-27 09:28:32.15	40.05	50.79	-44.2	-46.8	17.5	0.00e+00	0	40	0	713031680	58	5311
2026-01-27 09:28:33.14	39.47	50.64	-44.1	-46.7	17.5	0.00e+00	0	40	0	715128832	59	4972
2026-01-27 09:28:34.14	38.88	50.50	-44.1	-46.7	17.5	0.00e+00	0	40	0	717225984	59	4957
2026-01-27 09:28:35.13	38.31	50.35	-44.1	-46.7	17.5	0.00e+00	0	40	0	719323136	59	4978
2026-01-27 09:28:36.13	37.73	50.19	-44.2	-46.9	17.4	0.00e+00	0	40	0	721420288	59	5058
2026-01-27 09:28:37.12	37.17	50.04	-44.2	-46.9	17.3	0.00e+00	0	40	0	722468864	59	5062
2026-01-27 09:28:38.11	36.62	49.88	-44.2	-46.8	17.4	0.00e+00	0	40	0	724566016	59	5011
2026-01-27 09:28:39.10	36.06	49.72	-44.3	-47.0	17.2	0.00e+00	0	40	0	726663168	59	5122
2026-01-27 09:28:40.10	35.51	49.56	-44.6	-47.4	16.8	0.00e+00	0	40	0	728760320	59	5361
2026-01-27 09:28:41.10	34.97	49.39	-44.6	-47.4	16.9	0.00e+00	0	40	0	729808896	60	5075
2026-01-27 09:28:42.09	34.44	49.23	-44.5	-47.2	17.0	0.00e+00	0	40	0	731906048	60	4974
2026-01-27 09:28:43.08	33.91	49.06	-44.5	-47.2	17.1	0.00e+00	0	40	0	734003200	60	4956
2026-01-27 09:28:44.08	33.38	48.89	-44.6	-47.4	16.8	0.00e+00	0	40	0	736100352	60	5093
2026-01-27 09:28:45.07	32.87	48.72	-44.8	-47.7	16.5	0.00e+00	0	40	0	738197504	60	5237
2026-01-27 09:28:46.07	32.35	48.54	-44.9	-47.9	16.4	0.00e+00	0	40	0	739246080	60	5378
2026-01-27 09:28:47.07	31.84	48.36	-45.3	-48.6	15.6	0.00e+00	0	40	0	741343232	61	5498
2026-01-27 09:28:48.06	31.34	48.19	-45.8	-49.3	15.1	0.00e+00	0	40	0	743440384	62	5600
2026-01-27 09:28:49.05	30.85	48.01	-46.0	-49.5	14.8	0.00e+00	0	40	0	745537536	62	5751
2026-01-27 09:28:50.05	30.36	47.83	-46.0	-49.4	14.9	1.50e-06	0	40	0	746586112	62	5692
2026-01-27 09:28:51.05	29.87	47.64	-46.3	-50.0	14.3	0.00e+00	0	40	0	748683264	63	5727
2026-01-27 09:28:52.04	29.40	47.46	-46.6	-50.5	13.8	3.00e-06	0	40	0	750780416	63	6103
2026-01-27 09:28:53.04	28.92	47.28	-46.9	-51.0	13.2	9.90e-06	0	40	0	752877568	64	6090
2026-01-27 09:28:54.03	28.46	47.09	-46.8	-50.8	13.3	2.74e-05	0	40	0	754974720	64	5991
2026-01-27 09:28:55.01	28.00	46.90	-46.8	-50.9	13.3	2.13e-05	0	40	0	756023296	64	6020
2026-01-27 09:28:56.01	27.55	46.72	-46.5	-50.3	13.8	7.60e-06	0	40	0	758120448	64	5655
2026-01-27 09:28:57.00	27.10	46.53	-46.5	-50.3	13.9	3.00e-06	0	40	0	760217600	64	5632
2026-01-27 09:28:57.99	26.65	46.34	-46.6	-50.6	13.6	7.00e-07	0	40	0	762314752	64	5789
2026-01-27 09:28:58.99	26.21	46.14	-46.7	-50.7	13.5	1.60e-05	0	40	0	763363328	64	5896
2026-01-27 09:28:59.99	25.78	45.95	-46.4	-50.2	14.0	3.80e-06	0	40	0	765460480	64	5530
2026-01-27 09:29:00.98	25.35	45.76	-46.2	-49.9	14.2	7.00e-07	0	40	0	767557632	64	5400
2026-01-27 09:29:01.98	24.93	45.56	-46.2	-50.1	14.1	2.20e-06	0	40	0	769654784	64	5472
2026-01-27 09:29:02.97	24.51	45.37	-46.0	-49.8	14.3	7.00e-07	0	40	0	771751936	64	5336
2026-01-27 09:29:03.97	24.10	45.17	-46.0	-49.7	14.6	2.20e-06	0	40	0	772800512	63	5536
2026-01-27 09:29:04.97	23.69	44.97	-45.9	-49.6	14.7	7.00e-07	0	40	0	774897664	63	5470
2026-01-27 09:29:05.96	23.29	44.78	-46.0	-49.6	14.7	0.00e+00	0	40	0	776994816	63	5477
2026-01-27 09:29:06.96	22.89	44.58	-45.8	-49.2	15.0	0.00e+00	0	40	0	779091968	63	5251
2026-01-27 09:29:07.96	22.49	44.38	-45.3	-48.4	15.8	0.00e+00	0	40	0	780140544	62	5073
2026-01-27 09:29:08.95	22.11	44.18	-45.2	-48.2	16.0	0.00e+00	0	40	0	782237696	62	4969
2026-01-27 09:29:09.95	21.72	43.98	-45.3	-48.4	15.9	0.00e+00	0	40	0	784334848	62	5089
2026-01-27 09:29:10.95	21.34	43.78	-45.5	-48.6	15.6	0.00e+00	0	40	0	786432000	62	5202
2026-01-27 09:29:11.94	20.97	43.58	-45.5	-48.7	15.7	0.00e+00	0	40	0	788529152	62	5228
2026-01-27 09:29:12.93	20.60	43.38	-45.6	-48.9	15.4	0.00e+00	0	40	0	789577728	62	5368
2026-01-27 09:29:13.93	20.24	43.18	-45.5	-48.7	15.5	0.00e+00	0	40	0	791674880	62	5261
2026-01-27 09:29:14.92	19.88	42.98	-45.2	-48.3	16.0	0.00e+00	0	40	0	793772032	62	4995
2026-01-27 09:29:15.91	19.53	42.78	-45.2	-48.2	16.1	0.00e+00	0	40	0	795869184	62	4940
2026-01-27 09:29:16.90	19.18	42.58	-45.3	-48.4	15.9	0.00e+00	0	40	0	796917760	62	5062
2026-01-27 09:29:17.90	18.83	42.38	-45.5	-48.7	15.5	0.00e+00	0	40	0	799014912	62	5254
2026-01-27 09:29:18.89	18.49	42.18	-45.7	-49.0	15.2	0.00e+00	0	40	0	801112064	62	5451
2026-01-27 09:29:19.89	18.15	41.97	-45.8	-49.2	15.1	0.00e+00	0	40	0	803209216	62	5559
2026-01-27 09:29:20.89	17.82	41.77	-46.1	-49.7	14.6	0.00e+00	0	40	0	805306368	62	5878
2026-01-27 09:29:21.88	17.49	41.57	-46.1	-49.7	14.5	7.00e-07	0	40	0	806354944	62	5900
2026-01-27 09:29:22.87	17.17	41.37	-46.1	-49.8	14.5	7.00e-07	0	40	0	808452096	63	5607
2026-01-27 09:29:23.87	16.84	41.17	-46.1	-49.8	14.5	1.50e-06	0	40	0	810549248	63	5620
2026-01-27 09:29:24.85	16.53	40.97	-46.3	-50.1	14.2	7.00e-07	0	40	0	812646400	63	5798
2026-01-27 09:29:25.85	16.22	40.77	-46.3	-50.1	14.0	1.50e-06	0	40	0	813694976	63	5855
2026-01-27 09:29:26.85	15.91	40.57	-46.2	-49.9	14.3	7.00e-07	0	40	0	815792128	63	5692
2026-01-27 09:29:27.84	15.60	40.37	-46.0	-49.7	14.6	7.00e-07	0	40	0	817889280	63	5570
2026-01-27 09:29:28.84	15.30	40.16	-46.1	-49.8	14.5	0.00e+00	0	40	0	819986432	63	5631
2026-01-27 09:29:29.83	15.00	39.97	-46.0	-49.7	14.5	7.00e-07	0	40	0	822083584	63	5578
2026-01-27 09:29:30.83	14.71	39.76	-46.0	-49.7	14.6	7.00e-07	0	40	0	823132160	63	5584
2026-01-27 09:29:31.83	14.42	39.56	-46.0	-49.7	14.6	0.00e+00	0	40	0	825229312	63	5537
2026-01-27 09:29:32.82	14.13	39.37	-46.1	-49.9	14.4	7.00e-07	0	40	0	827326464	63	5681
2026-01-27 09:29:33.82	13.85	39.17	-46.2	-49.9	14.3	3.00e-06	0	40	0	829423616	63	5722
2026-01-27 09:29:34.82	13.57	38.97	-46.4	-50.2	14.1	3.00e-06	0	40	0	830472192	63	5887
2026-01-27 09:29:35.81	13.29	38.77	-46.3	-50.0	14.3	2.20e-06	0	40	0	832569344	63	5740
2026-01-27 09:29:36.80	13.02	38.57	-46.1	-49.8	14.5	7.00e-07	0	40	0	834666496	63	5608
2026-01-27 09:29:37.80	12.75	38.37	-45.8	-49.3	15.0	7.00e-07	0	40	0	836763648	63	5292
2026-01-27 09:29:38.79	12.48	38.18	-45.8	-49.2	15.0	0.00e+00	0	40	0	838860800	63	5264
2026-01-27 09:29:39.79	12.22	37.98	-45.9	-49.5	14.8	0.00e+00	0	40	0	839909376	63	5426
2026-01-27 09:29:40.78	11.96	37.79	-45.9	-49.5	14.8	0.00e+00	0	40	0	842006528	63	5442
2026-01-27 09:29:41.78	11.70	37.59	-45.9	-49.4	14.8	0.00e+00	0	40	0	844103680	63	5376
2026-01-27 09:29:42.77	11.45	37.39	-46.0	-49.6	14.7	0.00e+00	0	40	0	846200832	63	5505
2026-01-27 09:29:43.77	11.20	37.20	-46.1	-49.7	14.5	0.00e+00	0	40	0	847249408	63	5572
2026-01-27 09:29:44.76	10.95	37.01	-46.1	-49.7	14.6	0.00e+00	0	40	0	849346560	63	5566
2026-01-27 09:29:45.76	10.71	36.81	-46.0	-49.5	14.7	0.00e+00	0	40	0	851443712	63	5443
2026-01-27 09:29:46.75	10.47	36.62	-45.8	-49.2	15.1	0.00e+00	0	40	0	853540864	63	5242
2026-01-27 09:29:47.75	10.23	36.43	-45.6	-48.9	15.3	0.00e+00	0	40	0	855638016	63	5099
2026-01-27 09:29:48.75	9.99	36.23	-45.5	-48.7	15.6	0.00e+00	0	40	0	856686592	63	4945
2026-01-27 09:29:49.74	9.76	36.04	-45.5	-48.7	15.5	0.00e+00	0	40	0	858783744	62	5274
2026-01-27 09:29:50.74	9.53	35.85	-45.5	-48.7	15.5	0.00e+00	0	40	0	860880896	62	5257
2026-01-27 09:29:51.73	9.30	35.66	-45.4	-48.7	15.5	0.00e+00	0	40	0	862978048	62	5258
2026-01-27 09:29:52.73	9.07	35.47	-45.3	-48.5	15.7	0.00e+00	0	40	0	865075200	62	5152
2026-01-27 09:29:53.72	8.85	35.28	-45.3	-48.6	15.7	0.00e+00	0	40	0	866123776	62	5198
2026-01-27 09:29:54.72	8.63	35.10	-45.2	-48.4	16.0	0.00e+00	0	40	0	868220928	62	5043
2026-01-27 09:29:55.72	8.41	34.91	-45.4	-48.7	15.6	0.00e+00	0	40	0	870318080	62	5225
2026-01-27 09:29:56.72	8.20	34.72	-45.3	-48.6	15.7	0.00e+00	0	40	0	872415232	62	5191
2026-01-27 09:29:57.72	7.98	34.53	-45.3	-48.6	15.7	0.00e+00	0	40	0	873463808	62	5195
2026-01-27 09:29:58.71	7.78	34.35	-45.4	-48.7	15.6	0.00e+00	0	40	0	875560960	62	5265
2026-01-27 09:29:59.71	7.57	34.16	-45.6	-49.1	15.2	0.00e+00	0	40	0	877658112	62	5489
2026-01-27 09:30:00.71	7.36	33.98	-45.6	-49.2	15.0	0.00e+00	0	40	0	879755264	62	5536
2026-01-27 09:30:01.71	7.16	33.79	-45.7	-49.3	15.0	0.00e+00	0	40	0	881852416	62	5615
2026-01-27 09:30:02.71	6.96	33.61	-45.7	-49.1	15.1	0.00e+00	0	40	0	882900992	62	5502
2026-01-27 09:30:03.71	6.76	33.43	-45.7	-49.1	15.1	0.00e+00	0	40	0	884998144	62	5517
2026-01-27 09:30:04.71	6.56	33.24	-45.6	-49.0	15.3	0.00e+00	0	40	0	887095296	62	5422
2026-01-27 09:30:05.70	6.37	33.06	-45.8	-49.2	15.0	0.00e+00	0	40	0	889192448	62	5581
2026-01-27 09:30:06.70	6.18	32.88	-45.8	-49.2	15.1	0.00e+00	0	40	0	891289600	62	5547
2026-01-27 09:30:07.70	5.99	32.70	-46.0	-49.5	14.8	0.00e+00	0	40	0	892338176	62	5727
2026-01-27 09:30:08.70	5.80	32.52	-46.1	-49.6	14.6	7.00e-07	0	40	0	894435328	62	5835
2026-01-27 09:30:09.70	5.61	32.34	-46.1	-49.6	14.6	0.00e+00	0	40	0	896532480	62	5848
2026-01-27 09:30:10.69	5.43	32.17	-46.1	-49.7	14.5	7.00e-07	0	40	0	898629632	62	5897
2026-01-27 09:30:11.69	5.25	31.99	-46.1	-49.9	14.4	7.00e-07	0	40	0	899678208	62	6003
2026-01-27 09:30:12.69	5.07	31.81	-45.9	-49.5	14.8	7.00e-07	0	40	0	901775360	62	5736
2026-01-27 09:30:13.69	4.89	31.64	-45.8	-49.5	14.8	0.00e+00	0	40	0	903872512	62	5728
2026-01-27 09:30:14.69	4.71	31.46	-45.7	-49.3	15.0	7.00e-07	0	40	0	905969664	62	5624
2026-01-27 09:30:15.68	4.54	31.29	-45.9	-49.6	14.7	0.00e+00	0	40	0	908066816	62	5794
2026-01-27 09:30:16.68	4.37	31.12	-46.1	-49.9	14.3	1.50e-06	0	40	0	909115392	62	6048
2026-01-27 09:30:17.67	4.20	30.95	-46.3	-50.1	14.1	7.00e-07	0	40	0	911212544	63	5844
2026-01-27 09:30:18.67	4.03	30.77	-46.5	-50.5	13.8	3.80e-06	0	40	0	913309696	63	6074
2026-01-27 09:30:19.67	3.87	30.60	-46.5	-50.5	13.8	7.60e-06	0	40	0	915406848	63	6074
2026-01-27 09:30:20.66	3.70	30.43	-46.4	-50.2	14.0	3.80e-06	0	40	0	916455424	63	5919
2026-01-27 09:30:21.66	3.54	30.26	-46.0	-49.5	14.7	0.00e+00	0	40	0	918552576	63	5464
2026-01-27 09:30:22.66	3.38	30.09	-46.0	-49.6	14.7	0.00e+00	0	40	0	920649728	63	5499
2026-01-27 09:30:23.65	3.22	29.93	-45.7	-49.1	15.1	0.00e+00	0	40	0	922746880	63	5194
2026-01-27 09:30:24.65	3.06	29.76	-45.5	-48.7	15.5	0.00e+00	0	40	0	924844032	63	4965
2026-01-27 09:30:25.65	2.91	29.59	-45.6	-48.8	15.4	0.00e+00	0	40	0	925892608	62	5319
2026-01-27 09:30:26.65	2.75	29.43	-45.6	-48.9	15.3	0.00e+00	0	40	0	927989760	62	5383
2026-01-27 09:30:27.64	2.60	29.26	-45.7	-49.1	15.2	0.00e+00	0	40	0	930086912	62	5481
2026-01-27 09:30:28.63	2.45	29.10	-45.7	-49.1	15.2	0.00e+00	0	40	0	932184064	62	5490
2026-01-27 09:30:29.63	2.30	28.93	-45.4	-48.7	15.5	0.00e+00	0	40	0	934281216	62	5234
2026-01-27 09:30:30.63	2.15	28.77	-45.4	-48.5	15.7	0.00e+00	0	40	0	935329792	62	5159
2026-01-27 09:30:31.63	2.01	28.61	-45.1	-48.2	16.1	0.00e+00	0	40	0	937426944	62	4928
2026-01-27 09:30:32.62	1.86	28.45	-44.9	-47.9	16.3	0.00e+00	0	40	0	939524096	61	5075
2026-01-27 09:30:33.62	1.72	28.29	-44.8	-47.8	16.4	0.00e+00	0	40	0	941621248	61	5031
2026-01-27 09:30:34.62	1.58	28.13	-44.7	-47.7	16.5	0.00e+00	0	40	0	942669824	61	4935
2026-01-27 09:30:35.62	1.44	27.97	-44.8	-47.7	16.5	0.00e+00	0	40	0	944766976	61	4967
2026-01-27 09:30:36.62	1.30	27.81	-44.8	-47.7	16.5	0.00e+00	0	40	0	946864128	61	4969
2026-01-27 09:30:37.61	1.16	27.65	-44.8	-47.8	16.4	0.00e+00	0	40	0	948961280	61	5001
2026-01-27 09:30:38.61	1.02	27.49	-44.9	-47.8	16.4	0.00e+00	0	40	0	951058432	61	5038
2026-01-27 09:30:39.61	0.89	27.34	-44.9	-47.9	16.3	0.00e+00	0	40	0	952107008	61	5071
2026-01-27 09:30:40.61	0.75	27.18	-45.0	-48.0	16.2	0.00e+00	0	40	0	954204160	61	5134
2026-01-27 09:30:41.61	0.62	27.03	-44.9	-48.0	16.3	0.00e+00	0	40	0	956301312	61	5102
2026-01-27 09:30:42.60	0.49	26.87	-44.9	-47.9	16.3	0.00e+00	0	40	0	958398464	61	5044
2026-01-27 09:30:43.60	0.36	26.72	-44.8	-47.8	16.4	0.00e+00	0	40	0	960495616	61	5033
2026-01-27 09:30:44.60	0.23	26.57	-44.5	-47.3	16.8	0.00e+00	0	40	0	961544192	61	4759
2026-01-27 09:30:45.60	0.11	26.41	-44.4	-47.2	17.0	0.00e+00	0	40	0	963641344	60	4968
2026-01-27 09:30:46.59	359.98	26.26	-44.3	-47.1	17.0	0.00e+00	0	40	0	965738496	60	4916
2026-01-27 09:30:47.59	359.86	26.11	-44.2	-47.0	17.2	0.00e+00	0	40	0	967835648	60	4823
2026-01-27 09:30:48.59	359.73	25.96	-44.2	-47.0	17.2	0.00e+00	0	40	0	968884224	60	4821
2026-01-27 09:30:49.58	359.61	25.81	-44.2	-47.0	17.1	0.00e+00	0	40	0	970981376	60	4846
2026-01-27 09:30:50.58	359.49	25.66	-44.2	-47.0	17.2	0.00e+00	0	40	0	973078528	60	4840
2026-01-27 09:30:51.58	359.37	25.52	-44.3	-47.1	17.1	0.00e+00	0	40	0	975175680	60	4902
2026-01-27 09:30:52.58	359.25	25.37	-44.4	-47.2	16.9	0.00e+00	0	40	0	977272832	60	4982
2026-01-27 09:30:53.58	359.13	25.22	-44.3	-47.0	17.1	0.00e+00	0	40	0	978321408	60	4869
2026-01-27 09:30:54.58	359.01	25.08	-44.2	-47.0	17.1	0.00e+00	0	40	0	980418560	60	4867
2026-01-27 09:30:55.57	358.90	24.93	-44.3	-47.1	17.0	0.00e+00	0	40	0	982515712	60	4895
2026-01-27 09:30:56.57	358.79	24.79	-44.0	-46.8	17.4	0.00e+00	0	40	0	984612864	60	4716
2026-01-27 09:30:57.57	358.67	24.64	-44.1	-46.9	17.3	0.00e+00	0	40	0	985661440	60	4771
2026-01-27 09:30:58.57	358.56	24.50	-43.9	-46.5	17.5	0.00e+00	0	40	0	987758592	59	4860
2026-01-27 09:30:59.57	358.45	24.36	-43.7	-46.4	17.7	0.00e+00	0	40	0	989855744	59	4768
2026-01-27 09:31:00.57	358.34	24.21	-43.8	-46.5	17.6	0.00e+00	0	40	0	991952896	59	4858
2026-01-27 09:31:01.57	358.23	24.07	-43.9	-46.6	17.5	0.00e+00	0	40	0	994050048	59	4904
2026-01-27 09:31:02.56	358.12	23.93	-44.0	-46.7	17.4	0.00e+00	0	40	0	995098624	59	4974
2026-01-27 09:31:03.57	358.01	23.79	-43.9	-46.7	17.4	0.00e+00	0	40	0	997195776	59	4951
2026-01-27 09:31:04.57	357.91	23.65	-44.0	-46.9	17.2	0.00e+00	0	40	0	999292928	59	5062
2026-01-27 09:31:05.57	357.80	23.51	-44.2	-47.1	17.0	0.00e+00	0	40	0	1001390080	59	5202
2026-01-27 09:31:06.56	357.70	23.37	-44.3	-47.3	16.8	0.00e+00	0	40	0	1003487232	59	5302
2026-01-27 09:31:07.56	357.59	23.24	-44.5	-47.4	16.7	0.00e+00	0	40	0	1004535808	59	5402
2026-01-27 09:31:08.56	357.49	23.10	-44.5	-47.5	16.6	0.00e+00	0	40	0	1006632960	59	5462
2026-01-27 09:31:09.56	357.39	22.96	-44.6	-47.5	16.6	0.00e+00	0	40	0	1008730112	59	5461
2026-01-27 09:31:10.56	357.29	22.83	-44.6	-47.5	16.6	0.00e+00	0	40	0	1010827264	59	5451
2026-01-27 09:31:11.56	357.19	22.69	-44.6	-47.5	16.6	0.00e+00	0	40	0	1011875840	59	5454
2026-01-27 09:31:12.56	357.09	22.56	-44.5	-47.4	16.7	0.00e+00	0	40	0	1013972992	59	5379
2026-01-27 09:31:13.56	356.99	22.42	-44.4	-47.3	16.8	0.00e+00	0	40	0	1016070144	59	5302
2026-01-27 09:31:14.55	356.90	22.29	-44.3	-47.2	16.9	0.00e+00	0	40	0	1018167296	59	5259
2026-01-27 09:31:15.55	356.80	22.16	-44.3	-47.2	16.9	0.00e+00	0	40	0	1020264448	59	5253
2026-01-27 09:31:16.55	356.70	22.03	-44.3	-47.2	16.9	0.00e+00	0	40	0	1021313024	59	5249
2026-01-27 09:31:17.55	356.61	21.89	-44.4	-47.4	16.7	0.00e+00	0	40	0	1023410176	59	5355
2026-01-27 09:31:18.55	356.52	21.76	-44.4	-47.4	16.7	0.00e+00	0	40	0	1025507328	59	5382
2026-01-27 09:31:19.55	356.42	21.63	-44.5	-47.4	16.7	0.00e+00	0	40	0	1027604480	59	5389
2026-01-27 09:31:20.55	356.33	21.50	-44.5	-47.4	16.7	0.00e+00	0	40	0	1029701632	59	5375
2026-01-27 09:31:21.54	356.24	21.38	-44.6	-47.5	16.6	0.00e+00	0	40	0	1030750208	59	5461
2026-01-27 09:31:22.54	356.15	21.25	-44.6	-47.5	16.5	0.00e+00	0	40	0	1032847360	59	5457
2026-01-27 09:31:23.54	356.06	21.12	-44.5	-47.4	16.7	0.00e+00	0	40	0	1034944512	59	5362
2026-01-27 09:31:24.54	355.97	20.99	-44.4	-47.2	16.9	0.00e+00	0	40	0	1037041664	59	5253
2026-01-27 09:31:25.53	355.88	20.87	-44.3	-47.2	16.9	0.00e+00	0	40	0	1039138816	59	5224
2026-01-27 09:31:26.53	355.80	20.74	-44.4	-47.3	16.8	0.00e+00	0	40	0	1040187392	59	5282
2026-01-27 09:31:27.53	355.71	20.61	-44.4	-47.2	16.9	0.00e+00	0	40	0	1042284544	59	5248
2026-01-27 09:31:28.53	355.62	20.49	-44.2	-47.0	17.1	0.00e+00	0	40	0	1044381696	59	5107
2026-01-27 09:31:29.52	355.54	20.36	-44.3	-47.0	17.0	0.00e+00	0	40	0	1046478848	59	5156
2026-01-27 09:31:30.52	355.45	20.24	-44.4	-47.2	16.9	0.00e+00	0	40	0	1047527424	59	5248
2026-01-27 09:31:31.52	355.37	20.12	-44.2	-47.0	17.1	0.00e+00	0	40	0	1049624576	59	5111
2026-01-27 09:31:32.52	355.29	19.99	-44.1	-46.9	17.2	0.00e+00	0	40	0	1051721728	59	5054
2026-01-27 09:31:33.51	355.21	19.87	-44.2	-47.0	17.0	0.00e+00	0	40	0	1053818880	59	5133
2026-01-27 09:31:34.51	355.12	19.75	-44.0	-46.8	17.2	0.00e+00	0	40	0	1055916032	59	5014
2026-01-27 09:31:35.51	355.04	19.63	-44.0	-46.9	17.2	0.00e+00	0	40	0	1056964608	59	5044
2026-01-27 09:31:36.51	354.96	19.51	-44.0	-46.9	17.2	0.00e+00	0	40	0	1059061760	59	5045
2026-01-27 09:31:37.51	354.88	19.39	-43.9	-46.9	17.1	0.00e+00	0	40	0	1061158912	59	5064
2026-01-27 09:31:38.51	354.80	19.27	-44.0	-47.0	17.0	0.00e+00	0	40	0	1063256064	59	5151
2026-01-27 09:31:39.51	354.72	19.15	-44.0	-47.0	17.1	0.00e+00	0	40	0	1064304640	59	5125
2026-01-27 09:31:40.50	354.65	19.03	-43.9	-46.9	17.1	0.00e+00	0	40	0	1066401792	59	5070
2026-01-27 09:31:41.50	354.57	18.91	-43.9	-46.9	17.2	0.00e+00	0	40	0	1068498944	59	5077
2026-01-27 09:31:42.50	354.49	18.79	-44.0	-46.9	17.1	0.00e+00	0	40	0	1070596096	59	5081
2026-01-27 09:31:43.49	354.42	18.68	-44.0	-47.0	17.1	0.00e+00	0	40	0	1072693248	59	5129
2026-01-27 09:31:44.49	354.34	18.56	-44.1	-47.1	16.9	0.00e+00	0	40	0	1073741824	59	5185
2026-01-27 09:31:45.49	354.27	18.44	-44.3	-47.4	16.7	0.00e+00	0	40	0	1075838976	59	5350
2026-01-27 09:31:46.49	354.19	18.33	-44.3	-47.4	16.7	0.00e+00	0	40	0	1077936128	59	5347
2026-01-27 09:31:47.49	354.12	18.21	-44.2	-47.2	16.9	0.00e+00	0	40	0	1080033280	59	5230
2026-01-27 09:31:48.49	354.05	18.10	-44.1	-47.2	16.9	0.00e+00	0	40	0	1082130432	59	5222
2026-01-27 09:31:49.49	353.97	17.98	-44.2	-47.2	16.8	0.00e+00	0	40	0	1083179008	59	5259
2026-01-27 09:31:50.48	353.90	17.87	-44.1	-47.2	16.8	0.00e+00	0	40	0	1085276160	59	5234
2026-01-27 09:31:51.48	353.83	17.76	-44.1	-47.2	16.9	0.00e+00	0	40	0	1087373312	59	5223
2026-01-27 09:31:52.48	353.76	17.64	-44.1	-47.1	16.9	0.00e+00	0	40	0	1089470464	59	5189
2026-01-27 09:31:53.48	353.69	17.53	-44.1	-47.1	16.9	0.00e+00	0	40	0	1090519040	59	5194
2026-01-27 09:31:54.48	353.62	17.42	-44.2	-47.2	16.9	0.00e+00	0	40	0	1092616192	59	5236
2026-01-27 09:31:55.48	353.55	17.31	-44.2	-47.2	16.9	0.00e+00	0	40	0	1094713344	59	5234
2026-01-27 09:31:56.48	353.48	17.20	-44.2	-47.2	16.8	0.00e+00	0	40	0	1096810496	59	5235
2026-01-27 09:31:57.47	353.42	17.09	-44.3	-47.3	16.8	0.00e+00	0	40	0	1098907648	59	5291
2026-01-27 09:31:58.47	353.35	16.98	-44.3	-47.3	16.7	0.00e+00	0	40	0	1099956224	59	5294
2026-01-27 09:31:59.47	353.28	16.87	-44.4	-47.3	16.7	0.00e+00	0	40	0	1102053376	59	5313
2026-01-27 09:32:00.47	353.22	16.76	-44.4	-47.4	16.6	0.00e+00	0	40	0	1104150528	59	5361
2026-01-27 09:32:01.47	353.15	16.65	-44.3	-47.2	16.8	0.00e+00	0	40	0	1106247680	59	5259
2026-01-27 09:32:02.47	353.08	16.54	-44.3	-47.3	16.8	0.00e+00	0	40	0	1108344832	59	5299
2026-01-27 09:32:03.47	353.02	16.43	-44.4	-47.4	16.6	0.00e+00	0	40	0	1109393408	59	5392
2026-01-27 09:32:04.47	352.95	16.33	-44.2	-47.3	16.7	0.00e+00	0	40	0	1111490560	59	5296
2026-01-27 09:32:05.47	352.89	16.22	-44.2	-47.4	16.7	0.00e+00	0	40	0	1113587712	59	5342
2026-01-27 09:32:06.47	352.83	16.11	-44.3	-47.5	16.5	0.00e+00	0	40	0	1115684864	59	5436
2026-01-27 09:32:07.46	352.76	16.01	-44.4	-47.6	16.4	0.00e+00	0	40	0	1116733440	59	5503
2026-01-27 09:32:08.46	352.70	15.90	-44.4	-47.6	16.4	0.00e+00	0	40	0	1118830592	59	5495
2026-01-27 09:32:09.46	352.64	15.80	-44.5	-47.6	16.4	0.00e+00	0	40	0	1120927744	59	5519
2026-01-27 09:32:10.47	352.58	15.69	-44.4	-47.6	16.4	0.00e+00	0	40	0	1123024896	59	5465
2026-01-27 09:32:11.46	352.52	15.59	-44.4	-47.6	16.4	0.00e+00	0	40	0	1125122048	59	5474
2026-01-27 09:32:12.46	352.46	15.48	-44.4	-47.5	16.5	0.00e+00	0	40	0	1126170624	59	5427
2026-01-27 09:32:13.46	352.40	15.38	-44.3	-47.5	16.4	0.00e+00	0	40	0	1128267776	59	5445
2026-01-27 09:32:14.46	352.34	15.27	-44.3	-47.5	16.5	0.00e+00	0	40	0	1130364928	59	5409
2026-01-27 09:32:15.46	352.28	15.17	-44.4	-47.6	16.4	0.00e+00	0	40	0	1132462080	59	5485
2026-01-27 09:32:16.46	352.22	15.07	-44.1	-47.4	16.6	0.00e+00	0	40	0	1134559232	59	5355
2026-01-27 09:32:17.45	352.16	14.97	-44.1	-47.4	16.5	0.00e+00	0	40	0	1135607808	59	5386
2026-01-27 09:32:18.45	352.10	14.87	-44.2	-47.5	16.4	0.00e+00	0	40	0	1137704960	59	5437
2026-01-27 09:32:19.45	352.04	14.76	-44.1	-47.3	16.7	0.00e+00	0	40	0	1139802112	59	5306
2026-01-27 09:32:20.44	351.99	14.66	-44.2	-47.4	16.6	0.00e+00	0	40	0	1141899264	59	5351
2026-01-27 09:32:21.44	351.93	14.56	-44.3	-47.5	16.5	0.00e+00	0	40	0	1142947840	59	5408
2026-01-27 09:32:22.44	351.87	14.46	-44.3	-47.4	16.6	0.00e+00	0	40	0	1145044992	59	5348
2026-01-27 09:32:23.44	351.82	14.36	-44.4	-47.5	16.4	0.00e+00	0	40	0	1147142144	59	5434
2026-01-27 09:32:24.44	351.76	14.26	-44.4	-47.5	16.5	0.00e+00	0	40	0	1149239296	59	5425
2026-01-27 09:32:25.44	351.71	14.17	-44.3	-47.5	16.4	0.00e+00	0	40	0	1151336448	59	5426
2026-01-27 09:32:26.43	351.65	14.07	-44.3	-47.6	16.3	0.00e+00	0	40	0	1152385024	59	5523
2026-01-27 09:32:27.43	351.60	13.97	-44.3	-47.6	16.3	0.00e+00	0	40	0	1154482176	59	5521
2026-01-27 09:32:28.42	351.54	13.87	-44.4	-47.7	16.2	0.00e+00	0	40	0	1156579328	59	5565
2026-01-27 09:32:29.42	351.49	13.78	-44.5	-47.8	16.2	0.00e+00	0	40	0	1158676480	59	5604
2026-01-27 09:32:30.42	351.44	13.68	-44.7	-47.9	16.0	0.00e+00	0	40	0	1159725056	59	5719
2026-01-27 09:32:31.42	351.38	13.58	-44.6	-47.8	16.1	0.00e+00	0	40	0	1161822208	59	5646
2026-01-27 09:32:32.42	351.33	13.48	-44.7	-47.9	16.0	0.00e+00	0	40	0	1163919360	60	5386
2026-01-27 09:32:33.42	351.28	13.39	-44.7	-48.0	16.0	0.00e+00	0	40	0	1166016512	60	5451
2026-01-27 09:32:34.41	351.23	13.29	-44.7	-48.1	15.8	0.00e+00	0	40	0	1168113664	60	5513
2026-01-27 09:32:35.41	351.18	13.20	-44.6	-48.2	15.8	0.00e+00	0	40	0	1169162240	60	5544
2026-01-27 09:32:36.41	351.12	13.10	-44.6	-48.2	15.7	0.00e+00	0	40	0	1171259392	60	5570
2026-01-27 09:32:37.41	351.07	13.01	-44.4	-48.2	15.7	0.00e+00	0	40	0	1173356544	60	5569
2026-01-27 09:32:38.41	351.02	12.91	-44.2	-48.1	15.8	0.00e+00	0	40	0	1175453696	60	5514
2026-01-27 09:32:39.41	350.97	12.82	-44.0	-48.1	15.8	0.00e+00	0	40	0	1177550848	60	5519
2026-01-27 09:32:40.41	350.92	12.73	-44.1	-48.1	15.8	0.00e+00	0	40	0	1178599424	59	5834
2026-01-27 09:32:41.40	350.87	12.63	-44.0	-48.1	15.8	0.00e+00	0	40	0	1180696576	59	5803
2026-01-27 09:32:42.40	350.83	12.54	-44.0	-48.0	15.8	0.00e+00	0	40	0	1182793728	59	5750
2026-01-27 09:32:43.40	350.78	12.45	-44.1	-48.0	15.8	0.00e+00	0	40	0	1184890880	59	5773
2026-01-27 09:32:44.40	350.73	12.36	-44.1	-48.1	15.7	0.00e+00	0	40	0	1186988032	59	5816
2026-01-27 09:32:45.39	350.68	12.26	-44.2	-47.9	15.9	0.00e+00	0	40	0	1188036608	59	5658
2026-01-27 09:32:46.39	350.63	12.17	-44.2	-47.8	16.0	0.00e+00	0	40	0	1190133760	59	5649
2026-01-27 09:32:47.39	350.59	12.08	-44.4	-48.0	15.8	0.00e+00	0	40	0	1192230912	59	5731
2026-01-27 09:32:48.39	350.54	11.99	-44.3	-47.8	16.1	0.00e+00	0	40	0	1194328064	59	5608
2026-01-27 09:32:49.39	350.49	11.90	-44.3	-47.9	16.0	0.00e+00	0	40	0	1195376640	59	5660
2026-01-27 09:32:50.39	350.44	11.81	-44.4	-48.0	15.8	0.00e+00	0	40	0	1197473792	59	5747
2026-01-27 09:32:51.38	350.40	11.72	-44.3	-47.9	15.9	0.00e+00	0	40	0	1199570944	59	5689
2026-01-27 09:32:52.38	350.35	11.63	-44.3	-48.0	15.8	0.00e+00	0	40	0	1201668096	59	5771
2026-01-27 09:32:53.38	350.31	11.54	-44.3	-48.0	15.8	0.00e+00	0	40	0	1203765248	59	5745
2026-01-27 09:32:54.38	350.26	11.45	-44.2	-47.9	15.9	0.00e+00	0	40	0	1204813824	59	5680
2026-01-27 09:32:55.38	350.22	11.36	-44.4	-48.2	15.6	0.00e+00	0	40	0	1206910976	59	5890
2026-01-27 09:32:56.37	350.17	11.27	-44.3	-48.1	15.7	0.00e+00	0	40	0	1209008128	59	5792
2026-01-27 09:32:57.38	350.13	11.19	-44.3	-48.2	15.6	0.00e+00	0	40	0	1211105280	59	5899
2026-01-27 09:32:58.38	350.08	11.10	-44.2	-48.2	15.6	0.00e+00	0	40	0	1213202432	59	5877
2026-01-27 09:32:59.37	350.04	11.01	-44.1	-48.3	15.5	0.00e+00	0	40	0	1214251008	59	5971
2026-01-27 09:33:00.37	350.00	10.92	-44.1	-48.2	15.6	0.00e+00	0	40	0	1216348160	59	5882
2026-01-27 09:33:01.36	349.95	10.84	-44.0	-48.3	15.4	0.00e+00	0	40	0	1218445312	59	5968
2026-01-27 09:33:02.36	349.91	10.75	-44.0	-48.4	15.4	0.00e+00	0	40	0	1220542464	59	6020
2026-01-27 09:33:03.36	349.87	10.66	-43.8	-48.5	15.3	0.00e+00	0	40	0	1221591040	59	6066
2026-01-27 09:33:04.35	349.83	10.58	-43.9	-48.6	15.1	0.00e+00	0	40	0	1223688192	59	6193
2026-01-27 09:33:05.34	349.78	10.49	-43.9	-48.8	14.9	0.00e+00	0	40	0	1225785344	59	6295
