passes_logs/2026/01/27/T1/T1__20260127_112649_AQUA_rec.log

#Pass ID: 20260127_112649_AQUA
#Satellite: AQUA
#Configuration: AQUA
#almurnet v.1.7.20251203
#Start time: 2026-01-27 11:26:50

#Version: 2.0.20230620
#Station: T1
#Location: 37.570604 lon 55.790049 lat
#TLE: 1 27424U 02022A   26026.85810808  .00001813  00000+0  37258-3 0  9999
#TLE: 2 27424  98.4101 353.4861 0001866  64.3332 317.5249 14.61864179262622

#Time	Az	El	Level	Level2	SNR	BER	BlckErr	Temp	State	Recorded	gain1	gain2
2026-01-27 11:26:50.98	152.43	5.13	-51.9	-72.1	3.8	7.45e-01	0	41	0	0	74	38917
2026-01-27 11:26:51.97	152.41	5.20	-52.2	-72.1	3.8	7.45e-01	0	41	104	0	75	36610
2026-01-27 11:26:52.96	152.40	5.28	-51.8	-72.1	3.8	7.49e-01	0	41	104	0	75	36705
2026-01-27 11:26:53.96	152.38	5.35	-52.1	-72.1	3.8	7.43e-01	0	41	104	0	74	38868
2026-01-27 11:26:54.95	152.36	5.43	-51.8	-72.1	3.8	7.45e-01	0	41	104	0	74	38693
2026-01-27 11:26:55.94	152.35	5.50	-51.7	-72.0	3.8	7.45e-01	0	41	104	0	74	38626
2026-01-27 11:26:56.94	152.33	5.58	-51.8	-72.0	3.8	7.47e-01	0	41	104	0	74	38466
2026-01-27 11:26:57.93	152.31	5.66	-51.9	-72.0	3.8	7.46e-01	0	41	104	0	74	38422
2026-01-27 11:26:58.92	152.30	5.73	-50.9	-71.9	3.7	7.44e-01	0	41	104	0	73	40485
2026-01-27 11:26:59.91	152.28	5.81	-51.5	-71.9	3.8	7.47e-01	0	41	104	0	74	37911
2026-01-27 11:27:00.91	152.26	5.89	-51.6	-71.9	3.8	7.46e-01	0	41	104	0	74	37815
2026-01-27 11:27:01.90	152.25	5.96	-51.7	-71.8	3.8	7.47e-01	0	41	104	0	74	37539
2026-01-27 11:27:02.89	152.23	6.04	-51.5	-71.7	3.8	7.47e-01	0	41	104	0	73	39228
2026-01-27 11:27:03.88	152.21	6.12	-51.2	-71.6	3.8	7.49e-01	0	41	104	0	73	38838
2026-01-27 11:27:04.88	152.19	6.20	-51.5	-71.5	3.8	7.43e-01	0	41	104	0	73	38305
2026-01-27 11:27:05.87	152.18	6.28	-50.4	-71.2	3.7	7.46e-01	0	41	104	0	72	39188
2026-01-27 11:27:06.86	152.16	6.35	-51.2	-71.2	3.8	7.45e-01	0	41	104	0	72	39150
2026-01-27 11:27:07.86	152.14	6.43	-50.7	-69.0	3.9	7.41e-01	0	41	104	0	72	30550
2026-01-27 11:27:08.85	152.12	6.51	-50.6	-69.9	3.8	7.42e-01	0	41	104	0	72	33864
2026-01-27 11:27:09.84	152.10	6.59	-50.6	-70.2	3.8	7.46e-01	0	41	104	0	72	35126
2026-01-27 11:27:10.84	152.08	6.67	-50.6	-70.5	3.8	7.46e-01	0	41	104	0	72	36391
2026-01-27 11:27:11.83	152.07	6.75	-50.6	-70.8	3.8	7.45e-01	0	41	104	0	72	37419
2026-01-27 11:27:12.82	152.05	6.83	-50.6	-70.9	3.8	7.43e-01	0	42	104	0	72	38059
2026-01-27 11:27:13.81	152.03	6.91	-50.6	-70.9	3.8	7.45e-01	0	41	104	0	72	38225
2026-01-27 11:27:14.81	152.01	7.00	-50.6	-70.8	3.8	7.44e-01	0	41	104	0	72	37482
2026-01-27 11:27:15.80	151.99	7.08	-50.6	-70.2	3.8	7.45e-01	0	42	104	0	72	35225
2026-01-27 11:27:16.79	151.97	7.16	-50.5	-69.0	3.9	7.41e-01	0	41	104	0	72	30669
2026-01-27 11:27:17.79	151.95	7.24	-50.5	-67.0	4.0	7.39e-01	0	42	104	0	72	24317
2026-01-27 11:27:18.78	151.93	7.32	-50.4	-64.5	5.7	6.91e-01	0	41	0	0	72	18206
2026-01-27 11:27:19.77	151.91	7.40	-50.2	-62.3	7.6	6.54e-01	0	42	0	1572864	72	14051
2026-01-27 11:27:20.76	151.90	7.49	-50.0	-59.8	10.2	6.25e-01	0	42	0	3670016	71	11185
2026-01-27 11:27:21.76	151.88	7.57	-49.7	-58.1	11.9	6.13e-01	0	42	0	5242880	71	9253
2026-01-27 11:27:22.75	151.86	7.65	-49.2	-56.3	13.8	6.10e-01	0	42	0	7340032	70	7955
2026-01-27 11:27:23.74	151.84	7.74	-48.8	-55.1	14.9	6.08e-01	0	42	0	8912896	69	7363
2026-01-27 11:27:24.74	151.82	7.82	-48.2	-53.6	16.6	6.08e-01	0	42	0	11010048	68	6499
2026-01-27 11:27:25.73	151.80	7.90	-47.7	-52.6	17.4	6.06e-01	0	42	0	12582912	67	6191
2026-01-27 11:27:26.72	151.78	7.99	-47.3	-51.7	18.2	6.07e-01	0	42	0	14680064	66	5912
2026-01-27 11:27:27.71	151.75	8.07	-47.0	-51.3	18.7	6.03e-01	0	42	0	16252928	66	5631
2026-01-27 11:27:28.71	151.73	8.16	-46.8	-50.9	19.1	6.05e-01	0	42	0	18350080	65	5693
2026-01-27 11:27:29.70	151.71	8.24	-46.8	-51.0	19.0	6.06e-01	0	42	0	20447232	65	5729
2026-01-27 11:27:30.69	151.69	8.33	-46.8	-51.0	19.0	6.05e-01	0	42	0	22020096	65	5744
2026-01-27 11:27:31.69	151.67	8.42	-47.0	-51.2	18.9	6.07e-01	0	42	0	24117248	65	5887
2026-01-27 11:27:32.68	151.65	8.50	-47.4	-52.0	18.0	6.04e-01	0	42	0	25690112	65	6480
2026-01-27 11:27:33.67	151.63	8.59	-47.8	-52.7	17.4	6.05e-01	0	42	0	27787264	66	6593
2026-01-27 11:27:34.67	151.61	8.68	-48.3	-53.9	16.2	6.06e-01	0	42	0	29360128	67	7168
2026-01-27 11:27:35.66	151.58	8.76	-48.9	-55.3	14.9	6.07e-01	0	42	0	31457280	68	7911
2026-01-27 11:27:36.65	151.56	8.85	-49.4	-57.1	13.1	6.12e-01	0	42	0	33030144	69	9221
2026-01-27 11:27:37.64	151.54	8.94	-49.9	-59.2	10.8	6.18e-01	0	42	0	35127296	70	11109
2026-01-27 11:27:38.64	151.52	9.03	-50.2	-61.7	8.3	6.45e-01	0	42	0	37224448	71	13942
2026-01-27 11:27:39.63	151.50	9.12	-48.0	-52.8	16.3	6.05e-01	0	42	0	38797312	68	5942
2026-01-27 11:27:40.63	151.47	9.21	-46.9	-50.9	19.3	6.05e-01	0	42	0	40894464	64	6036
2026-01-27 11:27:41.63	151.45	9.30	-50.5	-65.9	5.8	7.16e-01	0	42	0	42467328	71	22568
2026-01-27 11:27:42.62	151.43	9.39	-50.3	-63.1	4.4	7.23e-01	0	42	104	42467328	71	16330
2026-01-27 11:27:43.62	151.40	9.48	-47.6	-52.2	16.8	6.06e-01	0	42	0	43515904	67	5897
2026-01-27 11:27:44.62	151.38	9.57	-46.9	-51.2	18.9	6.06e-01	0	42	0	45088768	65	5864
2026-01-27 11:27:45.61	151.36	9.66	-46.9	-51.1	19.0	6.06e-01	0	42	0	47185920	65	5840
2026-01-27 11:27:46.61	151.33	9.75	-46.4	-50.2	19.8	6.09e-01	0	42	0	49283072	64	5586
2026-01-27 11:27:47.60	151.31	9.84	-46.2	-49.9	20.3	6.06e-01	0	42	0	50855936	63	5685
2026-01-27 11:27:48.60	151.29	9.94	-45.5	-48.9	21.1	6.06e-01	0	42	0	52953088	63	5085
2026-01-27 11:27:49.59	151.26	10.03	-44.9	-48.0	22.1	6.06e-01	0	42	0	54525952	61	5104
2026-01-27 11:27:50.59	151.24	10.12	-44.9	-48.0	22.0	6.07e-01	0	42	0	56623104	61	5118
2026-01-27 11:27:51.58	151.21	10.21	-44.8	-47.8	22.2	6.07e-01	0	42	0	58195968	61	5018
2026-01-27 11:27:52.58	151.19	10.31	-44.3	-47.2	22.8	6.07e-01	0	42	0	60293120	60	4951
2026-01-27 11:27:53.57	151.16	10.40	-44.0	-46.7	23.3	6.07e-01	0	42	0	61865984	60	4691
2026-01-27 11:27:54.56	151.14	10.50	-44.2	-47.0	23.2	6.07e-01	0	42	0	63963136	59	5140
2026-01-27 11:27:55.56	151.11	10.59	-44.1	-46.9	23.3	6.05e-01	0	42	0	66060288	59	5066
2026-01-27 11:27:56.55	151.09	10.69	-44.1	-46.9	23.3	6.08e-01	0	42	0	67633152	59	5052
2026-01-27 11:27:57.55	151.06	10.78	-44.0	-46.8	23.4	6.06e-01	0	42	0	69730304	59	4988
2026-01-27 11:27:58.55	151.03	10.88	-44.1	-46.9	23.3	6.04e-01	0	42	0	71303168	59	5067
2026-01-27 11:27:59.54	151.01	10.98	-44.1	-46.9	23.3	6.08e-01	0	42	0	73400320	59	5066
2026-01-27 11:28:00.54	150.98	11.07	-43.9	-46.6	23.6	6.07e-01	0	42	0	74973184	59	4885
2026-01-27 11:28:01.53	150.96	11.17	-44.0	-46.7	23.5	6.08e-01	0	42	0	77070336	59	4938
2026-01-27 11:28:02.53	150.93	11.27	-44.1	-46.8	23.4	6.06e-01	0	42	0	78643200	59	4997
2026-01-27 11:28:03.52	150.90	11.37	-44.1	-46.8	23.4	6.07e-01	0	42	0	80740352	59	5030
2026-01-27 11:28:04.52	150.87	11.47	-44.0	-46.7	23.5	6.07e-01	0	43	0	82837504	59	4939
2026-01-27 11:28:05.51	150.85	11.57	-44.1	-46.8	23.4	6.07e-01	0	42	0	84410368	59	5019
2026-01-27 11:28:06.51	150.82	11.67	-44.2	-47.0	23.3	6.06e-01	0	42	0	86507520	59	5104
2026-01-27 11:28:07.50	150.79	11.77	-44.0	-46.7	23.4	6.07e-01	0	42	0	88080384	59	4967
2026-01-27 11:28:08.50	150.76	11.87	-44.1	-46.9	23.3	6.07e-01	0	42	0	90177536	59	5086
2026-01-27 11:28:09.49	150.74	11.97	-44.0	-46.8	22.6	6.08e-01	0	42	0	91750400	59	5003
2026-01-27 11:28:10.48	150.71	12.07	-43.8	-46.6	23.6	6.09e-01	0	42	0	93847552	59	4914
2026-01-27 11:28:11.48	150.68	12.17	-43.9	-46.8	23.4	6.05e-01	0	43	0	95420416	59	5012
2026-01-27 11:28:12.47	150.65	12.27	-43.9	-46.7	23.5	6.07e-01	0	42	0	97517568	59	4967
2026-01-27 11:28:13.47	150.62	12.38	-43.8	-46.6	23.7	6.09e-01	0	42	0	99614720	59	4900
2026-01-27 11:28:14.47	150.59	12.48	-44.0	-46.8	23.5	6.08e-01	0	43	0	101187584	59	4985
2026-01-27 11:28:15.46	150.56	12.58	-43.8	-46.5	23.7	6.09e-01	0	42	0	103284736	59	4870
2026-01-27 11:28:16.46	150.53	12.69	-44.1	-46.9	23.4	6.08e-01	0	42	0	104857600	59	5060
2026-01-27 11:28:17.45	150.50	12.79	-44.0	-46.8	23.5	6.05e-01	0	42	0	106954752	59	4992
2026-01-27 11:28:18.45	150.47	12.90	-44.0	-46.7	23.6	6.08e-01	0	43	0	108527616	59	4971
2026-01-27 11:28:19.44	150.44	13.00	-44.2	-46.9	23.4	6.06e-01	0	43	0	110624768	59	5066
2026-01-27 11:28:20.44	150.41	13.11	-44.3	-47.0	23.3	6.08e-01	0	42	0	112721920	59	5107
2026-01-27 11:28:21.43	150.38	13.22	-44.1	-46.7	23.5	6.06e-01	0	43	0	114294784	59	4982
2026-01-27 11:28:22.43	150.35	13.32	-44.1	-46.7	23.5	6.07e-01	0	43	0	116391936	59	4976
2026-01-27 11:28:23.43	150.31	13.43	-44.0	-46.6	23.6	6.08e-01	0	43	0	117964800	59	4915
2026-01-27 11:28:24.42	150.28	13.54	-44.0	-46.6	23.7	6.06e-01	0	43	0	120061952	59	4873
2026-01-27 11:28:25.42	150.25	13.65	-43.9	-46.5	23.8	6.07e-01	0	43	0	121634816	59	4851
2026-01-27 11:28:26.41	150.22	13.76	-43.8	-46.3	23.9	6.08e-01	0	43	0	123731968	59	4745
2026-01-27 11:28:27.40	150.18	13.87	-43.8	-46.4	23.9	6.09e-01	0	43	0	125304832	59	4781
2026-01-27 11:28:28.40	150.15	13.98	-43.8	-46.3	23.9	6.05e-01	0	43	0	127401984	59	4738
2026-01-27 11:28:29.39	150.12	14.09	-43.9	-46.5	23.8	6.09e-01	0	43	0	129499136	59	4826
2026-01-27 11:28:30.39	150.08	14.20	-43.7	-46.3	23.9	6.07e-01	0	43	0	131072000	59	4739
2026-01-27 11:28:31.38	150.05	14.31	-43.6	-46.1	24.1	6.06e-01	0	43	0	133169152	59	4651
2026-01-27 11:28:32.37	150.02	14.43	-43.6	-46.3	24.0	6.07e-01	0	43	0	134742016	59	4707
2026-01-27 11:28:33.37	149.98	14.54	-43.6	-46.3	24.0	6.06e-01	0	43	0	136839168	59	4716
2026-01-27 11:28:34.36	149.95	14.65	-43.6	-46.3	24.0	6.06e-01	0	43	0	138412032	59	4720
2026-01-27 11:28:35.36	149.91	14.77	-43.6	-46.2	24.0	6.06e-01	0	43	0	140509184	59	4695
2026-01-27 11:28:36.35	149.87	14.88	-43.5	-46.2	24.1	6.06e-01	0	43	0	142082048	59	4664
2026-01-27 11:28:37.35	149.84	15.00	-43.3	-45.9	24.3	6.06e-01	0	43	0	144179200	58	4798
2026-01-27 11:28:38.34	149.80	15.12	-43.4	-46.0	24.2	6.06e-01	0	43	0	146276352	58	4847
2026-01-27 11:28:39.34	149.77	15.23	-43.4	-46.0	24.2	6.07e-01	0	43	0	147849216	58	4855
2026-01-27 11:28:40.33	149.73	15.35	-43.3	-45.9	24.3	6.07e-01	0	43	0	149946368	58	4799
2026-01-27 11:28:41.33	149.69	15.47	-43.5	-46.0	24.3	6.05e-01	0	43	0	151519232	58	4862
2026-01-27 11:28:42.32	149.65	15.59	-43.4	-45.9	24.4	6.08e-01	0	43	0	153616384	58	4783
2026-01-27 11:28:43.32	149.62	15.71	-43.3	-45.8	24.4	6.09e-01	0	43	0	155189248	58	4754
2026-01-27 11:28:44.31	149.58	15.83	-43.5	-46.0	24.2	6.07e-01	0	43	0	157286400	58	4856
2026-01-27 11:28:45.31	149.54	15.95	-43.3	-45.8	24.4	6.10e-01	0	43	0	158859264	58	4731
2026-01-27 11:28:46.30	149.50	16.07	-43.4	-45.9	24.4	6.07e-01	0	43	0	160956416	58	4768
2026-01-27 11:28:47.30	149.46	16.19	-43.5	-46.0	24.3	6.08e-01	0	43	0	163053568	58	4827
2026-01-27 11:28:48.29	149.42	16.31	-43.4	-45.9	24.4	6.05e-01	0	43	0	164626432	58	4766
2026-01-27 11:28:49.29	149.38	16.44	-43.5	-45.9	24.3	6.04e-01	0	43	0	166723584	58	4810
2026-01-27 11:28:50.29	149.34	16.56	-43.5	-45.9	24.4	6.06e-01	0	42	0	168296448	58	4797
2026-01-27 11:28:51.28	149.30	16.69	-43.5	-46.0	24.3	6.06e-01	0	43	0	170393600	58	4819
2026-01-27 11:28:52.28	149.26	16.81	-43.6	-46.1	24.2	6.08e-01	0	43	0	171966464	58	4883
2026-01-27 11:28:53.27	149.22	16.94	-43.5	-46.0	24.3	6.07e-01	0	43	0	174063616	58	4857
2026-01-27 11:28:54.27	149.18	17.06	-43.7	-46.3	24.1	6.06e-01	0	43	0	175636480	58	4988
2026-01-27 11:28:55.26	149.13	17.19	-43.6	-46.2	24.1	6.06e-01	0	43	0	177733632	58	4982
2026-01-27 11:28:56.26	149.09	17.32	-43.7	-46.3	24.0	6.08e-01	0	43	0	179830784	58	5021
2026-01-27 11:28:57.26	149.05	17.45	-43.7	-46.4	23.9	6.05e-01	0	43	0	181403648	58	5052
2026-01-27 11:28:58.25	149.00	17.58	-43.7	-46.3	23.9	6.06e-01	0	43	0	183500800	58	5031
2026-01-27 11:28:59.24	148.96	17.71	-43.7	-46.3	24.0	6.05e-01	0	43	0	185073664	58	5039
2026-01-27 11:29:00.24	148.91	17.84	-43.7	-46.3	23.9	6.06e-01	0	43	0	187170816	58	5024
2026-01-27 11:29:01.24	148.87	17.97	-43.7	-46.3	24.0	6.07e-01	0	43	0	188743680	58	5018
2026-01-27 11:29:02.23	148.82	18.11	-43.7	-46.3	24.0	6.05e-01	0	43	0	190840832	58	4997
2026-01-27 11:29:03.22	148.78	18.24	-43.6	-46.1	24.2	6.06e-01	0	43	0	192413696	58	4897
2026-01-27 11:29:04.22	148.73	18.37	-43.5	-46.0	24.0	6.06e-01	0	43	0	194510848	58	4853
2026-01-27 11:29:05.21	148.69	18.51	-43.4	-45.9	24.4	6.06e-01	0	43	0	196608000	58	4772
2026-01-27 11:29:06.21	148.64	18.64	-43.4	-45.8	24.5	6.06e-01	0	43	0	198180864	58	4747
2026-01-27 11:29:07.20	148.59	18.78	-43.3	-45.8	24.5	6.07e-01	0	43	0	200278016	58	4721
2026-01-27 11:29:08.20	148.54	18.92	-43.3	-45.7	24.6	6.07e-01	0	43	0	201850880	58	4663
2026-01-27 11:29:09.19	148.49	19.06	-43.3	-45.7	24.6	6.08e-01	0	43	0	203948032	58	4696
2026-01-27 11:29:10.19	148.45	19.20	-43.3	-45.7	24.6	6.06e-01	0	43	0	205520896	58	4683
2026-01-27 11:29:11.18	148.40	19.33	-43.4	-45.8	24.5	6.07e-01	0	43	0	207618048	58	4750
2026-01-27 11:29:12.18	148.35	19.48	-43.4	-45.8	24.5	6.07e-01	0	43	0	209190912	58	4745
2026-01-27 11:29:13.17	148.30	19.62	-43.5	-45.9	24.4	6.07e-01	0	43	0	211288064	58	4807
2026-01-27 11:29:14.16	148.24	19.76	-43.6	-46.0	24.3	6.07e-01	0	43	0	213385216	58	4865
2026-01-27 11:29:15.16	148.19	19.90	-43.6	-46.1	24.3	6.07e-01	0	43	0	214958080	58	4881
2026-01-27 11:29:16.15	148.14	20.05	-43.7	-46.1	24.2	6.07e-01	0	43	0	217055232	58	4921
2026-01-27 11:29:17.15	148.09	20.19	-43.8	-46.3	24.1	6.06e-01	0	43	0	218628096	58	4992
2026-01-27 11:29:18.14	148.03	20.34	-43.8	-46.3	24.1	6.08e-01	0	43	0	220725248	58	5006
2026-01-27 11:29:19.14	147.98	20.49	-43.7	-46.2	24.2	6.07e-01	0	43	0	222822400	58	4945
2026-01-27 11:29:20.13	147.93	20.63	-43.8	-46.3	24.2	6.06e-01	0	43	0	224395264	58	4995
2026-01-27 11:29:21.13	147.87	20.78	-43.8	-46.4	24.0	6.07e-01	0	43	0	225968128	58	5053
2026-01-27 11:29:22.12	147.82	20.93	-43.8	-46.3	24.1	6.08e-01	0	43	0	228065280	58	5015
2026-01-27 11:29:23.12	147.76	21.08	-43.9	-46.4	24.0	6.07e-01	0	43	0	230162432	58	5072
2026-01-27 11:29:24.11	147.70	21.23	-43.8	-46.3	24.1	6.05e-01	0	43	0	231735296	58	5034
2026-01-27 11:29:25.11	147.64	21.39	-43.8	-46.3	24.1	6.07e-01	0	43	0	233832448	58	5035
2026-01-27 11:29:26.10	147.59	21.54	-43.9	-46.5	23.9	6.07e-01	0	43	0	235405312	58	5135
2026-01-27 11:29:27.10	147.53	21.70	-43.8	-46.4	24.0	6.08e-01	0	43	0	237502464	58	5078
2026-01-27 11:29:28.10	147.47	21.85	-43.8	-46.4	24.0	6.09e-01	0	43	0	239599616	58	5089
2026-01-27 11:29:29.09	147.41	22.01	-43.8	-46.4	24.1	6.09e-01	0	43	0	241172480	58	5045
2026-01-27 11:29:30.09	147.35	22.17	-43.8	-46.4	23.8	6.06e-01	0	43	0	243269632	58	5082
2026-01-27 11:29:31.08	147.29	22.32	-43.7	-46.4	24.0	6.06e-01	0	43	0	244842496	58	5068
2026-01-27 11:29:32.07	147.22	22.48	-43.6	-46.3	24.2	6.05e-01	0	43	0	246939648	58	4989
2026-01-27 11:29:33.07	147.16	22.65	-43.6	-46.3	24.1	6.04e-01	0	43	0	248512512	58	5036
2026-01-27 11:29:34.06	147.10	22.81	-43.6	-46.3	24.1	6.09e-01	0	43	0	250609664	58	5033
2026-01-27 11:29:35.06	147.03	22.97	-43.7	-46.4	24.1	6.07e-01	0	43	0	252182528	58	5066
2026-01-27 11:29:36.05	146.97	23.13	-43.8	-46.5	24.0	6.04e-01	0	43	0	254279680	58	5137
2026-01-27 11:29:37.05	146.90	23.30	-44.0	-46.7	23.8	6.05e-01	0	43	0	256376832	58	5237
2026-01-27 11:29:38.04	146.84	23.46	-44.0	-46.7	23.8	6.07e-01	0	43	0	257949696	58	5251
2026-01-27 11:29:39.04	146.77	23.63	-44.1	-46.8	23.7	6.06e-01	0	43	0	260046848	58	5283
2026-01-27 11:29:40.03	146.70	23.80	-44.2	-46.8	23.7	6.06e-01	0	43	0	261619712	59	5014
2026-01-27 11:29:41.03	146.63	23.97	-44.3	-46.9	23.6	6.06e-01	0	43	0	263716864	59	5077
2026-01-27 11:29:42.02	146.56	24.14	-44.1	-46.7	23.8	6.08e-01	0	43	0	265289728	59	4958
2026-01-27 11:29:43.01	146.49	24.31	-44.1	-46.7	23.8	6.07e-01	0	43	0	267386880	59	4935
2026-01-27 11:29:44.01	146.42	24.49	-44.0	-46.5	23.9	6.07e-01	0	43	0	268959744	59	4867
2026-01-27 11:29:45.01	146.35	24.66	-44.0	-46.5	24.0	6.07e-01	0	43	0	271056896	59	4847
2026-01-27 11:29:46.00	146.28	24.84	-44.0	-46.5	24.0	6.06e-01	0	43	0	273154048	59	4834
2026-01-27 11:29:46.99	146.20	25.01	-43.8	-46.3	24.1	6.06e-01	0	43	0	274726912	59	4743
2026-01-27 11:29:47.99	146.13	25.19	-43.6	-46.1	24.4	6.05e-01	0	43	0	276824064	59	4620
2026-01-27 11:29:48.98	146.05	25.37	-43.6	-46.1	24.3	6.08e-01	0	43	0	278396928	59	4625
2026-01-27 11:29:49.98	145.97	25.55	-43.7	-46.2	24.2	6.09e-01	0	43	0	280494080	59	4673
2026-01-27 11:29:50.97	145.90	25.73	-43.8	-46.3	24.2	6.09e-01	0	43	0	282066944	59	4734
2026-01-27 11:29:51.97	145.82	25.92	-43.8	-46.4	24.1	6.06e-01	0	43	0	284164096	59	4784
2026-01-27 11:29:52.96	145.74	26.10	-43.9	-46.4	24.1	6.07e-01	0	43	0	285736960	59	4792
2026-01-27 11:29:53.96	145.66	26.29	-43.9	-46.4	24.1	6.06e-01	0	43	0	287834112	59	4806
2026-01-27 11:29:54.95	145.58	26.47	-43.8	-46.4	24.2	6.07e-01	0	43	0	289931264	59	4761
2026-01-27 11:29:55.95	145.49	26.66	-43.8	-46.4	24.1	6.05e-01	0	43	0	291504128	59	4767
2026-01-27 11:29:56.94	145.41	26.85	-43.9	-46.5	24.0	6.07e-01	0	43	0	293601280	59	4849
2026-01-27 11:29:57.94	145.32	27.04	-43.8	-46.3	24.2	6.05e-01	0	43	0	295174144	59	4725
2026-01-27 11:29:58.93	145.24	27.24	-43.5	-46.0	24.4	6.08e-01	0	43	0	297271296	59	4581
2026-01-27 11:29:59.93	145.15	27.43	-43.5	-46.0	24.4	6.06e-01	0	43	0	298844160	59	4593
2026-01-27 11:30:00.92	145.06	27.62	-43.3	-45.8	24.6	6.06e-01	0	43	0	300941312	58	4741
2026-01-27 11:30:01.92	144.97	27.82	-43.1	-45.6	24.8	6.07e-01	0	43	0	302514176	58	4606
2026-01-27 11:30:02.91	144.88	28.02	-43.2	-45.6	24.8	6.07e-01	0	43	0	304611328	58	4651
2026-01-27 11:30:03.91	144.79	28.22	-43.5	-45.9	24.6	6.02e-01	0	43	0	306708480	58	4784
2026-01-27 11:30:04.90	144.70	28.42	-43.6	-46.0	24.4	6.06e-01	0	43	0	308281344	58	4846
2026-01-27 11:30:05.90	144.61	28.62	-43.6	-46.1	24.4	6.06e-01	0	43	0	310378496	58	4896
2026-01-27 11:30:06.89	144.51	28.83	-43.8	-46.3	24.2	6.07e-01	0	43	0	311951360	58	5015
2026-01-27 11:30:07.89	144.41	29.03	-43.8	-46.2	24.3	6.06e-01	0	43	0	314048512	58	4981
2026-01-27 11:30:08.88	144.32	29.24	-43.7	-46.2	24.3	6.04e-01	0	43	0	315621376	58	4968
2026-01-27 11:30:09.88	144.22	29.45	-43.6	-46.0	24.4	6.06e-01	0	43	0	317718528	58	4839
2026-01-27 11:30:10.87	144.12	29.66	-43.4	-45.8	24.6	6.06e-01	0	43	0	319291392	58	4746
2026-01-27 11:30:11.87	144.01	29.87	-43.3	-45.7	24.7	6.05e-01	0	43	0	321388544	58	4703
2026-01-27 11:30:12.86	143.91	30.09	-43.2	-45.6	24.8	6.06e-01	0	43	0	323485696	58	4618
2026-01-27 11:30:13.86	143.80	30.30	-43.2	-45.6	24.8	6.06e-01	0	43	0	325058560	58	4635
2026-01-27 11:30:14.85	143.70	30.52	-43.4	-45.8	24.7	6.09e-01	0	43	0	327155712	58	4733
2026-01-27 11:30:15.85	143.59	30.74	-43.4	-45.7	24.6	6.05e-01	0	43	0	328728576	58	4693
2026-01-27 11:30:16.84	143.48	30.96	-43.3	-45.6	24.6	6.08e-01	0	43	0	330825728	58	4640
2026-01-27 11:30:17.84	143.37	31.18	-43.2	-45.5	24.6	6.07e-01	0	43	0	332398592	58	4563
2026-01-27 11:30:18.83	143.26	31.40	-43.2	-45.6	24.7	6.05e-01	0	43	0	334495744	58	4611
2026-01-27 11:30:19.82	143.14	31.62	-43.3	-45.7	24.7	6.06e-01	0	43	0	336068608	58	4659
2026-01-27 11:30:20.82	143.02	31.85	-43.4	-45.8	24.7	6.06e-01	0	43	0	338165760	58	4743
2026-01-27 11:30:21.81	142.91	32.08	-43.6	-46.0	24.5	6.07e-01	0	43	0	340262912	58	4819
2026-01-27 11:30:22.81	142.79	32.31	-43.5	-45.9	24.5	6.06e-01	0	43	0	341835776	58	4770
2026-01-27 11:30:23.80	142.67	32.54	-43.4	-45.7	24.6	6.08e-01	0	43	0	343932928	58	4704
2026-01-27 11:30:24.80	142.54	32.78	-43.5	-45.9	24.4	6.04e-01	0	43	0	345505792	58	4765
2026-01-27 11:30:25.79	142.42	33.01	-43.3	-45.7	24.7	6.07e-01	0	43	0	347602944	58	4675
2026-01-27 11:30:26.79	142.29	33.25	-43.4	-45.8	24.7	6.05e-01	0	43	0	349175808	58	4711
2026-01-27 11:30:27.78	142.16	33.49	-43.6	-46.0	24.5	6.05e-01	0	43	0	351272960	58	4857
2026-01-27 11:30:28.78	142.03	33.73	-43.9	-46.4	24.2	6.06e-01	0	43	0	352845824	58	5051
2026-01-27 11:30:29.77	141.90	33.97	-44.0	-46.5	23.2	6.08e-01	0	43	0	354942976	58	5120
2026-01-27 11:30:30.77	141.76	34.22	-44.1	-46.6	23.8	6.07e-01	0	43	0	357040128	58	5207
2026-01-27 11:30:31.76	141.62	34.46	-44.2	-46.7	23.8	6.07e-01	0	43	0	358612992	59	4962
2026-01-27 11:30:32.76	141.48	34.71	-44.2	-46.8	23.8	6.06e-01	0	43	0	360710144	59	4984
2026-01-27 11:30:33.75	141.34	34.96	-44.2	-46.7	23.9	6.09e-01	0	43	0	362283008	59	4961
2026-01-27 11:30:34.75	141.20	35.22	-44.2	-46.7	23.9	6.06e-01	0	43	0	364380160	59	4969
2026-01-27 11:30:35.74	141.05	35.47	-44.4	-47.1	23.6	6.09e-01	0	43	0	365953024	59	5160
2026-01-27 11:30:36.74	140.90	35.73	-44.8	-47.5	23.1	6.10e-01	0	43	0	368050176	60	5103
2026-01-27 11:30:37.73	140.75	35.99	-44.9	-47.6	22.9	6.09e-01	0	43	0	370147328	60	5218
2026-01-27 11:30:38.73	140.59	36.25	-44.9	-47.6	22.9	6.05e-01	0	43	0	371720192	60	5208
2026-01-27 11:30:39.72	140.44	36.51	-44.7	-47.3	23.2	6.07e-01	0	43	0	373817344	60	5024
2026-01-27 11:30:40.72	140.28	36.77	-44.6	-47.3	23.2	6.08e-01	0	43	0	375390208	60	5027
2026-01-27 11:30:41.71	140.12	37.04	-44.8	-47.5	23.1	6.06e-01	0	43	0	377487360	60	5124
2026-01-27 11:30:42.71	139.95	37.31	-45.2	-47.9	22.6	6.07e-01	0	43	0	379060224	60	5386
2026-01-27 11:30:43.70	139.79	37.58	-45.2	-48.0	22.7	6.06e-01	0	43	0	381157376	61	5115
2026-01-27 11:30:44.69	139.62	37.85	-45.0	-47.8	22.8	6.08e-01	0	43	0	382730240	61	5033
2026-01-27 11:30:45.69	139.44	38.13	-45.0	-47.9	22.7	6.06e-01	0	43	0	384827392	61	5073
2026-01-27 11:30:46.68	139.27	38.40	-45.1	-47.9	22.7	6.05e-01	0	43	0	386924544	61	5083
2026-01-27 11:30:47.68	139.08	38.68	-45.1	-47.8	22.7	6.07e-01	0	43	0	388497408	61	5041
2026-01-27 11:30:48.67	138.90	38.96	-45.2	-48.0	22.7	6.06e-01	0	43	0	390594560	61	5149
2026-01-27 11:30:49.67	138.72	39.24	-45.4	-48.2	22.4	6.06e-01	0	43	0	392167424	61	5242
2026-01-27 11:30:50.66	138.53	39.53	-45.3	-48.2	22.5	6.08e-01	0	43	0	394264576	61	5224
2026-01-27 11:30:51.66	138.33	39.82	-45.2	-48.0	22.6	6.07e-01	0	43	0	395837440	61	5142
2026-01-27 11:30:52.65	138.14	40.10	-44.9	-47.7	22.9	6.06e-01	0	43	0	397934592	61	4946
2026-01-27 11:30:53.65	137.94	40.40	-44.9	-47.6	23.0	6.06e-01	0	43	0	399507456	61	4902
2026-01-27 11:30:54.64	137.73	40.69	-44.9	-47.7	22.9	6.06e-01	0	43	0	401604608	61	4944
2026-01-27 11:30:55.64	137.52	40.99	-44.9	-47.7	22.9	6.07e-01	0	43	0	403701760	61	4955
2026-01-27 11:30:56.63	137.31	41.28	-44.9	-47.6	23.0	6.07e-01	0	43	0	405274624	61	4910
2026-01-27 11:30:57.63	137.10	41.58	-44.7	-47.3	23.2	6.05e-01	0	43	0	407371776	61	4753
2026-01-27 11:30:58.62	136.88	41.89	-44.6	-47.2	23.3	6.08e-01	0	43	0	408944640	61	4683
2026-01-27 11:30:59.61	136.65	42.19	-44.6	-47.3	23.3	6.06e-01	0	43	0	411041792	61	4721
2026-01-27 11:31:00.61	136.42	42.50	-44.4	-47.0	23.6	6.08e-01	0	43	0	412614656	60	4815
2026-01-27 11:31:01.60	136.19	42.80	-44.3	-46.9	23.7	6.06e-01	0	43	0	414711808	60	4777
2026-01-27 11:31:02.60	135.95	43.11	-44.4	-47.0	23.5	6.06e-01	0	43	0	416284672	60	4844
2026-01-27 11:31:03.59	135.71	43.43	-44.3	-46.8	23.7	6.07e-01	0	43	0	418381824	60	4757
2026-01-27 11:31:04.58	135.46	43.74	-44.0	-46.5	24.0	6.07e-01	0	43	0	419954688	59	4855
2026-01-27 11:31:05.58	135.21	44.06	-43.9	-46.4	24.2	6.06e-01	0	43	0	422051840	59	4796
2026-01-27 11:31:06.57	134.95	44.37	-44.4	-47.0	23.7	6.06e-01	0	43	0	424148992	59	5119
2026-01-27 11:31:07.57	134.69	44.70	-44.5	-47.1	23.5	6.08e-01	0	43	0	425721856	59	5209
2026-01-27 11:31:08.56	134.42	45.02	-44.3	-46.9	23.8	6.07e-01	0	43	0	427819008	59	5077
2026-01-27 11:31:09.56	134.14	45.35	-44.2	-46.7	23.9	6.05e-01	0	43	0	429391872	59	4973
2026-01-27 11:31:10.55	133.86	45.67	-44.6	-47.2	23.5	6.06e-01	0	43	0	431489024	59	5258
2026-01-27 11:31:11.55	133.58	46.00	-44.6	-47.3	23.4	6.06e-01	0	43	0	433061888	60	4988
2026-01-27 11:31:12.54	133.28	46.33	-44.5	-47.2	23.4	6.07e-01	0	43	0	435159040	60	4955
2026-01-27 11:31:13.54	132.98	46.67	-44.4	-47.1	23.5	6.04e-01	0	43	0	437256192	60	4877
2026-01-27 11:31:14.53	132.68	47.00	-44.1	-46.6	24.0	6.09e-01	0	43	0	438829056	59	4878
2026-01-27 11:31:15.53	132.37	47.34	-44.3	-46.9	23.8	6.06e-01	0	43	0	440926208	59	5075
2026-01-27 11:31:16.52	132.05	47.68	-44.4	-46.9	23.7	6.08e-01	0	43	0	442499072	59	5095
2026-01-27 11:31:17.52	131.72	48.02	-44.2	-46.7	24.0	6.05e-01	0	43	0	444596224	59	4939
2026-01-27 11:31:18.51	131.39	48.36	-44.4	-47.0	23.7	6.06e-01	0	43	0	446169088	59	5111
2026-01-27 11:31:19.50	131.05	48.70	-44.1	-46.6	24.0	6.05e-01	0	43	0	448266240	59	4921
2026-01-27 11:31:20.50	130.70	49.05	-44.1	-46.6	24.0	6.09e-01	0	43	0	449839104	59	4910
2026-01-27 11:31:21.49	130.34	49.40	-44.5	-47.1	23.6	6.09e-01	0	43	0	451936256	59	5162
2026-01-27 11:31:22.49	129.97	49.75	-44.1	-46.5	24.1	6.06e-01	0	43	0	454033408	59	4856
2026-01-27 11:31:23.48	129.60	50.10	-44.0	-46.5	24.1	6.06e-01	0	43	0	455606272	59	4830
2026-01-27 11:31:24.48	129.21	50.45	-43.9	-46.3	24.2	6.07e-01	0	43	0	457703424	59	4750
2026-01-27 11:31:25.47	128.82	50.80	-43.9	-46.4	24.3	6.07e-01	0	43	0	459276288	59	4764
2026-01-27 11:31:26.47	128.42	51.16	-43.9	-46.3	24.3	6.07e-01	0	43	0	461373440	59	4717
2026-01-27 11:31:27.46	128.01	51.51	-43.5	-45.9	24.6	6.08e-01	0	43	0	462946304	59	4523
2026-01-27 11:31:28.46	127.58	51.87	-43.6	-46.0	24.6	6.07e-01	0	43	0	465043456	59	4559
2026-01-27 11:31:29.45	127.15	52.23	-43.4	-45.9	24.6	6.05e-01	0	43	0	466616320	58	4789
2026-01-27 11:31:30.45	126.71	52.59	-43.3	-45.8	24.8	6.06e-01	0	43	0	468713472	58	4718
2026-01-27 11:31:31.44	126.26	52.95	-43.6	-46.1	24.5	6.08e-01	0	43	0	470810624	58	4879
2026-01-27 11:31:32.44	125.79	53.31	-43.1	-45.4	25.0	6.05e-01	0	43	0	472383488	58	4533
2026-01-27 11:31:33.43	125.31	53.67	-43.5	-45.9	24.7	6.07e-01	0	43	0	474480640	58	4768
2026-01-27 11:31:34.43	124.82	54.04	-43.3	-45.7	24.8	6.08e-01	0	43	0	476053504	58	4676
2026-01-27 11:31:35.42	124.32	54.40	-43.4	-45.8	24.8	6.06e-01	0	43	0	478150656	58	4724
2026-01-27 11:31:36.42	123.80	54.76	-43.2	-45.6	25.0	6.05e-01	0	43	0	479723520	58	4600
2026-01-27 11:31:37.41	123.27	55.12	-43.5	-45.9	24.7	6.05e-01	0	43	0	481820672	58	4779
2026-01-27 11:31:38.41	122.73	55.49	-43.6	-46.1	24.5	6.09e-01	0	43	0	483917824	58	4871
2026-01-27 11:31:39.40	122.17	55.85	-43.4	-45.7	24.8	6.07e-01	0	43	0	485490688	58	4698
2026-01-27 11:31:40.40	121.60	56.22	-43.8	-46.2	24.4	6.07e-01	0	43	0	487587840	58	4981
2026-01-27 11:31:41.39	121.01	56.58	-44.1	-46.5	24.2	6.06e-01	0	43	0	489160704	58	5126
2026-01-27 11:31:42.39	120.40	56.94	-44.2	-46.7	23.9	6.07e-01	0	43	0	491257856	59	4957
2026-01-27 11:31:43.39	119.78	57.31	-44.0	-46.4	24.2	6.05e-01	0	43	0	492830720	59	4786
2026-01-27 11:31:44.38	119.15	57.67	-44.5	-47.1	23.6	6.07e-01	0	43	0	494927872	60	4891
2026-01-27 11:31:45.38	118.49	58.03	-44.6	-47.2	23.4	6.07e-01	0	43	0	496500736	60	4928
2026-01-27 11:31:46.37	117.82	58.38	-44.4	-46.9	23.7	6.05e-01	0	43	0	498597888	60	4801
2026-01-27 11:31:47.37	117.12	58.74	-44.6	-47.1	23.5	6.06e-01	0	43	0	500695040	60	4909
2026-01-27 11:31:48.36	116.42	59.10	-44.9	-47.6	23.1	6.06e-01	0	43	0	502267904	60	5171
2026-01-27 11:31:49.36	115.68	59.45	-44.3	-46.9	23.7	6.06e-01	0	43	0	504365056	60	4776
2026-01-27 11:31:50.35	114.94	59.80	-44.6	-47.3	23.3	6.06e-01	0	43	0	505937920	60	5033
2026-01-27 11:31:51.35	114.16	60.15	-45.0	-47.8	22.9	6.06e-01	0	43	0	508035072	60	5330
2026-01-27 11:31:52.34	113.38	60.49	-44.7	-47.4	23.1	6.06e-01	0	43	0	509607936	61	4813
2026-01-27 11:31:53.34	112.56	60.84	-44.3	-47.0	23.6	6.06e-01	0	43	0	511705088	60	4823
2026-01-27 11:31:54.33	111.73	61.18	-44.9	-47.7	23.0	6.06e-01	0	43	0	513277952	60	5237
2026-01-27 11:31:55.32	110.87	61.51	-45.2	-48.0	22.7	6.07e-01	0	43	0	515375104	61	5101
2026-01-27 11:31:56.32	109.99	61.84	-45.1	-47.7	23.0	6.07e-01	0	43	0	517472256	61	4962
2026-01-27 11:31:57.31	109.08	62.17	-45.4	-48.1	22.6	6.07e-01	0	43	0	519045120	61	5212
2026-01-27 11:31:58.31	108.15	62.49	-45.5	-48.3	22.4	6.04e-01	0	43	0	521142272	62	4992
2026-01-27 11:31:59.30	107.20	62.81	-45.3	-48.1	22.6	6.07e-01	0	43	0	522715136	62	4891
2026-01-27 11:32:00.29	106.22	63.12	-45.4	-48.1	22.7	6.05e-01	0	43	0	524812288	62	4890
2026-01-27 11:32:01.29	105.21	63.43	-46.2	-49.3	21.5	6.05e-01	0	43	0	526385152	63	5323
2026-01-27 11:32:02.28	104.18	63.73	-45.7	-48.7	22.0	6.07e-01	0	43	0	528482304	63	4941
2026-01-27 11:32:03.27	103.12	64.02	-46.1	-49.2	21.6	6.07e-01	0	43	0	530055168	63	5230
2026-01-27 11:32:04.27	102.03	64.31	-46.4	-49.5	21.4	6.09e-01	0	43	0	532152320	63	5403
2026-01-27 11:32:05.26	100.92	64.58	-45.8	-48.9	21.9	6.06e-01	0	43	0	534249472	63	5063
2026-01-27 11:32:06.26	99.77	64.86	-46.0	-49.3	21.6	6.06e-01	0	43	0	535822336	63	5280
2026-01-27 11:32:07.25	98.61	65.12	-46.4	-49.8	21.1	6.07e-01	0	43	0	537919488	63	5599
2026-01-27 11:32:08.25	97.40	65.37	-46.7	-49.9	20.9	6.07e-01	0	43	0	539492352	64	5384
2026-01-27 11:32:09.24	96.18	65.62	-46.2	-49.3	21.4	6.07e-01	0	43	0	541589504	64	5031
2026-01-27 11:32:10.24	94.92	65.85	-46.7	-50.3	20.5	6.09e-01	0	43	0	543162368	64	5626
2026-01-27 11:32:11.23	93.65	66.08	-46.6	-50.3	20.5	6.07e-01	0	43	0	545259520	64	5621
2026-01-27 11:32:12.23	92.34	66.30	-46.8	-50.3	20.5	6.07e-01	0	43	0	546832384	64	5633
2026-01-27 11:32:13.22	91.02	66.50	-47.3	-51.0	19.8	6.06e-01	0	43	0	548929536	65	5749
2026-01-27 11:32:14.22	89.65	66.69	-46.7	-50.1	20.7	6.07e-01	0	43	0	551026688	65	5216
2026-01-27 11:32:15.22	88.27	66.88	-46.8	-50.5	20.3	6.07e-01	0	43	0	552599552	65	5458
2026-01-27 11:32:16.21	86.87	67.04	-46.7	-50.4	20.5	6.09e-01	0	43	0	554696704	64	5671
2026-01-27 11:32:17.21	85.44	67.20	-46.9	-50.6	20.2	6.08e-01	0	43	0	556269568	64	5832
2026-01-27 11:32:18.20	84.00	67.34	-46.5	-50.0	20.8	6.09e-01	0	43	0	558366720	64	5416
2026-01-27 11:32:19.19	82.54	67.48	-46.8	-50.4	20.4	6.06e-01	0	43	0	559939584	64	5712
2026-01-27 11:32:20.19	81.05	67.59	-46.7	-50.2	20.5	6.08e-01	0	43	0	562036736	64	5573
2026-01-27 11:32:21.18	79.56	67.70	-47.0	-50.6	20.3	6.05e-01	0	43	0	563609600	64	5802
2026-01-27 11:32:22.18	78.04	67.79	-47.1	-50.7	20.1	6.07e-01	0	43	0	565706752	65	5530
2026-01-27 11:32:23.17	76.52	67.86	-46.7	-49.9	20.8	6.07e-01	0	43	0	567803904	65	5096
2026-01-27 11:32:24.17	74.97	67.92	-47.4	-50.9	19.9	6.07e-01	0	43	0	569376768	65	5709
2026-01-27 11:32:25.16	73.44	67.97	-47.2	-50.6	20.2	6.06e-01	0	43	0	571473920	65	5513
2026-01-27 11:32:26.15	71.90	68.00	-47.3	-50.9	20.0	6.08e-01	0	43	0	573046784	65	5687
2026-01-27 11:32:27.15	70.33	68.02	-47.5	-51.1	19.7	6.08e-01	0	43	0	575143936	65	5807
2026-01-27 11:32:28.14	68.79	68.02	-47.2	-50.7	20.0	6.07e-01	0	43	0	576716800	65	5573
2026-01-27 11:32:29.14	67.23	68.00	-47.2	-50.9	19.9	6.05e-01	0	43	0	578813952	65	5718
2026-01-27 11:32:30.13	65.68	67.98	-47.2	-50.8	19.9	6.07e-01	0	43	0	580911104	65	5638
2026-01-27 11:32:31.13	64.13	67.93	-47.6	-51.3	19.5	6.07e-01	0	43	0	582483968	65	5926
2026-01-27 11:32:32.12	62.60	67.87	-47.1	-50.5	20.3	6.07e-01	0	43	0	584581120	65	5444
2026-01-27 11:32:33.12	61.06	67.80	-47.4	-50.9	19.9	6.08e-01	0	43	0	586153984	65	5717
2026-01-27 11:32:34.11	59.56	67.72	-47.4	-51.1	19.7	6.05e-01	0	43	0	588251136	66	5513
2026-01-27 11:32:35.11	58.05	67.61	-47.0	-50.3	20.6	6.06e-01	0	43	0	589824000	65	5309
2026-01-27 11:32:36.10	56.57	67.50	-47.9	-51.7	19.2	6.06e-01	0	43	0	591921152	66	5905
2026-01-27 11:32:37.10	55.09	67.37	-47.7	-51.5	19.3	6.07e-01	0	43	0	593494016	66	5750
2026-01-27 11:32:38.09	53.65	67.23	-47.4	-51.2	19.7	6.08e-01	0	43	0	595591168	66	5569
2026-01-27 11:32:39.09	52.22	67.08	-47.7	-51.7	19.1	6.08e-01	0	43	0	597688320	66	5899
2026-01-27 11:32:40.08	50.82	66.91	-48.0	-52.1	18.8	6.04e-01	0	43	0	599261184	66	6164
2026-01-27 11:32:41.08	49.42	66.73	-47.9	-51.9	19.0	6.08e-01	0	43	0	601358336	66	6002
2026-01-27 11:32:42.07	48.07	66.54	-47.6	-51.3	19.5	6.06e-01	0	43	0	602931200	66	5650
2026-01-27 11:32:43.07	46.73	66.34	-48.0	-52.1	18.6	6.05e-01	0	43	0	605028352	66	6144
2026-01-27 11:32:44.06	45.43	66.13	-47.8	-51.6	19.3	6.08e-01	0	43	0	606601216	66	5805
2026-01-27 11:32:45.06	44.14	65.90	-47.5	-51.1	19.7	6.07e-01	0	43	0	608698368	66	5515
2026-01-27 11:32:46.05	42.89	65.67	-47.5	-51.2	19.7	6.07e-01	0	43	0	610271232	66	5538
2026-01-27 11:32:47.05	41.65	65.43	-47.9	-51.7	19.1	6.05e-01	0	43	0	612368384	66	5904
2026-01-27 11:32:48.04	40.46	65.17	-47.5	-51.1	19.7	6.05e-01	0	43	0	614465536	66	5482
2026-01-27 11:32:49.03	39.29	64.91	-46.7	-50.0	20.8	6.05e-01	0	43	0	616038400	65	5116
2026-01-27 11:32:50.03	38.14	64.64	-47.3	-50.9	19.9	6.07e-01	0	43	0	618135552	65	5677
2026-01-27 11:32:51.03	37.01	64.37	-46.6	-49.8	21.0	6.06e-01	0	43	0	619708416	65	5022
2026-01-27 11:32:52.02	35.93	64.08	-46.6	-49.9	20.9	6.05e-01	0	43	0	621805568	64	5362
2026-01-27 11:32:53.01	34.87	63.79	-46.8	-50.2	20.7	6.07e-01	0	43	0	623378432	64	5532
2026-01-27 11:32:54.01	33.82	63.49	-46.2	-49.4	21.3	6.07e-01	0	43	0	625475584	64	5054
2026-01-27 11:32:55.00	32.82	63.19	-46.3	-49.4	21.4	6.09e-01	0	43	0	627048448	64	5052
2026-01-27 11:32:56.00	31.82	62.88	-46.1	-49.1	21.7	6.06e-01	0	43	0	629145600	63	5193
2026-01-27 11:32:56.99	30.87	62.57	-46.6	-49.8	20.9	6.07e-01	0	43	0	631242752	64	5317
2026-01-27 11:32:57.99	29.93	62.24	-46.1	-49.1	21.6	6.06e-01	0	43	0	632815616	64	4888
2026-01-27 11:32:58.98	29.02	61.92	-45.4	-48.2	22.6	6.07e-01	0	43	0	634912768	62	4933
2026-01-27 11:32:59.98	28.13	61.59	-45.9	-48.9	21.9	6.06e-01	0	43	0	636485632	62	5371
2026-01-27 11:33:00.97	27.28	61.26	-45.7	-48.7	22.1	6.06e-01	0	43	0	638582784	62	5235
2026-01-27 11:33:01.97	26.43	60.92	-45.0	-47.8	22.9	6.08e-01	0	43	0	640155648	61	5008
2026-01-27 11:33:02.96	25.62	60.58	-45.1	-47.9	23.0	6.09e-01	0	43	0	642252800	61	5060
2026-01-27 11:33:03.95	24.83	60.24	-45.4	-48.2	22.5	6.07e-01	0	43	0	643825664	61	5276
2026-01-27 11:33:04.95	24.05	59.89	-45.4	-48.2	22.5	6.07e-01	0	43	0	645922816	61	5271
2026-01-27 11:33:05.94	23.30	59.54	-44.9	-47.6	23.2	6.06e-01	0	43	0	648019968	61	4878
2026-01-27 11:33:06.94	22.57	59.19	-44.8	-47.5	23.2	6.07e-01	0	43	0	649592832	61	4869
2026-01-27 11:33:07.93	21.86	58.83	-45.0	-47.8	23.0	6.06e-01	0	43	0	651689984	61	5022
2026-01-27 11:33:08.93	21.16	58.48	-45.0	-47.8	22.9	6.04e-01	0	43	0	653262848	61	5018
2026-01-27 11:33:09.92	20.49	58.12	-44.8	-47.4	23.2	6.09e-01	0	43	0	655360000	61	4785
2026-01-27 11:33:10.91	19.84	57.76	-44.2	-46.7	24.0	6.05e-01	0	43	0	656932864	60	4654
2026-01-27 11:33:11.91	19.19	57.40	-44.3	-46.9	23.8	6.06e-01	0	43	0	659030016	60	4788
2026-01-27 11:33:12.90	18.57	57.04	-44.4	-47.0	23.7	6.07e-01	0	43	0	660602880	60	4843
2026-01-27 11:33:13.90	17.96	56.68	-43.9	-46.4	24.3	6.05e-01	0	43	0	662700032	59	4773
2026-01-27 11:33:14.89	17.38	56.32	-44.1	-46.6	24.1	6.08e-01	0	43	0	664797184	59	4921
2026-01-27 11:33:15.89	16.80	55.96	-43.3	-45.8	24.7	6.04e-01	0	43	0	666370048	58	4728
2026-01-27 11:33:16.88	16.24	55.60	-43.1	-45.5	25.0	6.06e-01	0	43	0	668467200	58	4586
2026-01-27 11:33:17.88	15.69	55.23	-43.5	-46.0	24.6	6.08e-01	0	43	0	670040064	58	4864
2026-01-27 11:33:18.87	15.16	54.87	-43.5	-45.9	24.8	6.07e-01	0	43	0	672137216	58	4763
2026-01-27 11:33:19.86	14.65	54.51	-43.0	-45.3	25.2	6.06e-01	0	43	0	673710080	58	4458
2026-01-27 11:33:20.86	14.14	54.15	-43.1	-45.4	25.2	6.05e-01	0	43	0	675807232	57	4778
2026-01-27 11:33:21.85	13.65	53.79	-43.0	-45.3	25.2	6.06e-01	0	43	0	677380096	57	4747
2026-01-27 11:33:22.85	13.17	53.42	-43.1	-45.4	25.2	6.06e-01	0	43	0	679477248	57	4775
2026-01-27 11:33:23.84	12.70	53.07	-43.0	-45.3	25.2	6.07e-01	0	43	0	681574400	57	4716
2026-01-27 11:33:24.84	12.24	52.70	-43.0	-45.3	25.2	6.08e-01	0	43	0	683147264	57	4727
2026-01-27 11:33:25.83	11.80	52.35	-43.1	-45.4	25.1	6.05e-01	0	43	0	685244416	57	4772
2026-01-27 11:33:26.83	11.36	51.99	-43.1	-45.5	25.1	6.06e-01	0	43	0	686817280	57	4820
2026-01-27 11:33:27.82	10.94	51.63	-43.2	-45.6	25.0	6.04e-01	0	43	0	688914432	57	4875
2026-01-27 11:33:28.82	10.53	51.28	-43.0	-45.4	25.1	6.05e-01	0	43	0	690487296	57	4807
2026-01-27 11:33:29.81	10.13	50.93	-43.3	-45.8	24.8	6.06e-01	0	43	0	692584448	57	4986
2026-01-27 11:33:30.81	9.73	50.57	-43.0	-45.4	25.1	6.05e-01	0	43	0	694157312	57	4808
2026-01-27 11:33:31.80	9.35	50.22	-44.0	-56.0	3.8	7.48e-01	0	43	104	695205888	58	15284
2026-01-27 11:33:32.80	8.97	49.87	-44.2	-56.0	3.9	7.45e-01	0	43	104	695205888	59	14452
2026-01-27 11:33:33.79	8.60	49.52	-44.2	-56.1	3.7	7.47e-01	0	43	104	695205888	59	14585
2026-01-27 11:33:34.79	8.24	49.18	-44.3	-56.0	3.7	7.49e-01	0	43	104	695205888	59	14535
2026-01-27 11:33:35.79	7.89	48.83	-44.5	-56.1	3.8	7.48e-01	0	43	104	695205888	59	14677
2026-01-27 11:33:36.78	7.55	48.49	-51.3	-68.5	3.7	7.47e-01	0	43	104	695205888	73	27337
2026-01-27 11:33:37.78	7.21	48.14	-46.8	-59.4	3.8	7.47e-01	0	43	104	695205888	65	15158
2026-01-27 11:33:38.77	6.89	47.81	-46.4	-58.8	3.9	7.40e-01	0	43	104	695205888	63	15904
2026-01-27 11:33:39.77	6.56	47.47	-44.8	-56.9	3.8	7.45e-01	0	43	104	695205888	61	14265
2026-01-27 11:33:40.76	6.25	47.13	-44.7	-56.5	3.8	7.48e-01	0	43	104	695205888	61	13646
2026-01-27 11:33:41.76	5.95	46.80	-44.1	-55.8	3.9	7.43e-01	0	43	104	695205888	60	13381
2026-01-27 11:33:42.76	5.64	46.46	-44.2	-55.9	3.7	7.67e-01	0	43	104	695205888	60	13427
2026-01-27 11:33:43.75	5.35	46.13	-44.7	-56.3	4.2	7.35e-01	0	43	104	695205888	60	14156
2026-01-27 11:33:44.75	5.06	45.80	-44.1	-55.6	4.0	7.39e-01	0	43	104	695205888	59	13805
2026-01-27 11:33:45.74	4.78	45.48	-51.2	-68.4	3.7	7.49e-01	0	43	104	695205888	72	28568
2026-01-27 11:33:46.73	4.51	45.16	-46.3	-58.9	4.1	7.38e-01	0	43	104	695205888	64	15090
2026-01-27 11:33:47.73	4.24	44.83	-45.3	-57.8	3.4	7.58e-01	0	43	104	695205888	61	15787
2026-01-27 11:33:48.73	3.97	44.51	-44.4	-56.4	3.9	7.42e-01	0	43	104	695205888	61	13477
2026-01-27 11:33:49.72	3.72	44.19	-44.4	-56.3	3.8	7.46e-01	0	43	104	695205888	60	14069
2026-01-27 11:33:50.72	3.46	43.88	-44.0	-55.8	3.8	7.48e-01	0	43	104	695205888	60	13339
2026-01-27 11:33:51.71	3.21	43.56	-44.3	-56.3	3.8	7.50e-01	0	43	104	695205888	59	14923
2026-01-27 11:33:52.71	2.97	43.25	-44.7	-56.8	3.8	7.45e-01	0	43	104	695205888	59	15924
2026-01-27 11:33:53.70	2.73	42.94	-44.4	-56.6	3.8	7.45e-01	0	43	104	695205888	60	14614
2026-01-27 11:33:54.70	2.50	42.63	-50.4	-68.0	3.7	7.52e-01	0	43	104	695205888	71	28865
2026-01-27 11:33:55.69	2.27	42.33	-47.0	-59.7	3.9	7.46e-01	0	43	104	695205888	66	14746
2026-01-27 11:33:56.69	2.04	42.02	-45.9	-57.9	3.8	7.49e-01	0	43	104	695205888	62	15087
2026-01-27 11:33:57.68	1.82	41.72	-45.3	-57.3	3.9	7.49e-01	0	43	104	695205888	62	14060
2026-01-27 11:33:58.67	1.61	41.43	-45.2	-57.2	3.8	7.45e-01	0	43	104	695205888	62	14004
2026-01-27 11:33:59.67	1.40	41.13	-45.0	-57.1	3.8	7.44e-01	0	43	104	695205888	62	13770
2026-01-27 11:34:00.67	1.19	40.83	-45.3	-57.7	3.8	7.48e-01	0	43	104	695205888	62	14739
2026-01-27 11:34:01.66	0.98	40.54	-45.8	-58.1	3.8	7.45e-01	0	43	104	695205888	62	15443
2026-01-27 11:34:02.66	0.78	40.25	-45.5	-57.7	3.8	7.46e-01	0	43	104	695205888	62	14750
2026-01-27 11:34:03.65	0.58	39.96	-50.7	-67.6	3.7	7.51e-01	0	43	104	695205888	72	25946
2026-01-27 11:34:04.64	0.39	39.68	-48.5	-62.4	3.9	7.44e-01	0	43	104	695205888	69	17024
2026-01-27 11:34:05.64	0.20	39.39	-46.5	-58.9	3.8	7.43e-01	0	43	104	695205888	64	15094
2026-01-27 11:34:06.63	0.02	39.11	-46.0	-58.0	3.8	7.49e-01	0	43	104	695205888	64	13677
2026-01-27 11:34:07.63	359.83	38.83	-47.7	-60.2	3.8	7.44e-01	0	43	104	695205888	65	16590
2026-01-27 11:34:08.62	359.65	38.55	-47.8	-60.5	3.8	7.48e-01	0	43	104	695205888	66	16313
2026-01-27 11:34:09.62	359.48	38.27	-47.0	-59.9	3.8	7.44e-01	0	43	104	695205888	66	15133
2026-01-27 11:34:10.61	359.30	38.00	-46.9	-59.9	3.8	7.45e-01	0	43	104	695205888	65	16022
2026-01-27 11:34:11.61	359.13	37.73	-45.7	-58.1	3.8	7.46e-01	0	43	104	695205888	63	14609
2026-01-27 11:34:12.60	358.96	37.46	-49.9	-65.4	3.8	7.49e-01	0	43	104	695205888	70	22573
2026-01-27 11:34:13.60	358.80	37.19	-50.0	-66.3	3.8	7.39e-01	0	43	104	695205888	71	23672
2026-01-27 11:34:14.59	358.64	36.93	-48.4	-62.9	3.8	7.46e-01	0	43	104	695205888	68	19046
2026-01-27 11:34:15.59	358.48	36.66	-48.4	-62.9	3.9	7.46e-01	0	43	104	695205888	68	19042
2026-01-27 11:34:16.58	358.32	36.40	-48.2	-62.3	3.8	7.46e-01	0	43	104	695205888	68	17700
2026-01-27 11:34:17.58	358.17	36.14	-48.0	-61.6	3.8	7.44e-01	0	43	104	695205888	68	16440
2026-01-27 11:34:18.57	358.02	35.88	-47.0	-59.9	3.8	7.46e-01	0	43	104	695205888	66	15223
2026-01-27 11:34:19.56	357.87	35.63	-46.7	-59.5	3.8	7.47e-01	0	43	104	695205888	65	15280
2026-01-27 11:34:20.56	357.72	35.37	-45.4	-57.5	3.8	7.45e-01	0	43	104	695205888	62	14536
2026-01-27 11:34:21.56	357.58	35.12	-48.4	-62.3	3.8	7.47e-01	0	43	104	695205888	67	18914
2026-01-27 11:34:22.55	357.43	34.87	-48.4	-63.6	3.9	7.43e-01	0	43	104	695205888	69	19559
2026-01-27 11:34:23.55	357.29	34.62	-45.1	-57.1	3.8	7.49e-01	0	43	104	695205888	62	13868
2026-01-27 11:34:24.54	357.16	34.38	-45.8	-58.1	3.8	7.47e-01	0	43	104	695205888	63	14613
2026-01-27 11:34:25.54	357.02	34.13	-45.1	-57.4	3.8	7.45e-01	0	43	104	695205888	62	14218
2026-01-27 11:34:26.53	356.89	33.89	-44.9	-57.2	3.8	7.49e-01	0	43	104	695205888	61	14776
2026-01-27 11:34:27.53	356.76	33.65	-44.7	-57.0	3.8	7.45e-01	0	43	104	695205888	61	14391
2026-01-27 11:34:28.52	356.63	33.41	-44.1	-56.4	3.8	7.46e-01	0	43	104	695205888	60	14358
2026-01-27 11:34:29.52	356.50	33.17	-44.1	-56.3	3.8	7.46e-01	0	43	104	695205888	59	14886
2026-01-27 11:34:30.51	356.38	32.94	-47.3	-60.3	3.8	7.48e-01	0	43	104	695205888	64	17787
2026-01-27 11:34:31.51	356.25	32.70	-49.8	-67.3	3.9	7.40e-01	0	43	104	695205888	71	26582
2026-01-27 11:34:32.50	356.13	32.47	-47.0	-60.2	3.8	7.44e-01	0	43	104	695205888	66	15756
2026-01-27 11:34:33.50	356.01	32.24	-47.7	-61.0	3.8	7.47e-01	0	43	104	695205888	67	16306
2026-01-27 11:34:34.49	355.89	32.02	-47.2	-60.1	3.8	7.46e-01	0	43	104	695205888	65	16461
2026-01-27 11:34:35.49	355.78	31.79	-47.2	-60.0	3.8	7.44e-01	0	43	104	695205888	65	16303
2026-01-27 11:34:36.48	355.66	31.57	-46.6	-59.2	3.8	7.44e-01	0	43	104	695205888	65	14735
2026-01-27 11:34:37.48	355.55	31.34	-45.0	-57.0	3.8	7.44e-01	0	43	104	695205888	62	13712
2026-01-27 11:34:38.47	355.44	31.12	-44.0	-55.8	3.8	7.45e-01	0	43	104	695205888	60	13299
2026-01-27 11:34:39.47	355.33	30.90	-45.9	-58.1	3.8	7.48e-01	0	43	104	695205888	62	15439
2026-01-27 11:34:40.46	355.22	30.68	-49.5	-64.2	3.9	7.39e-01	0	43	104	695205888	71	18601
2026-01-27 11:34:41.46	355.11	30.47	-44.1	-56.0	3.8	7.43e-01	0	43	104	695205888	60	13654
2026-01-27 11:34:42.45	355.01	30.25	-44.2	-56.2	3.8	7.45e-01	0	43	104	695205888	60	14036
2026-01-27 11:34:43.45	354.91	30.04	-43.8	-55.8	3.8	7.45e-01	0	43	104	695205888	59	14093
2026-01-27 11:34:44.44	354.80	29.83	-43.7	-55.6	3.8	7.45e-01	0	43	104	695205888	59	13841
2026-01-27 11:34:45.44	354.70	29.62	-43.7	-55.6	3.8	7.44e-01	0	43	104	695205888	59	13857
2026-01-27 11:34:46.43	354.60	29.41	-43.7	-55.6	3.8	7.49e-01	0	43	104	695205888	59	13764
2026-01-27 11:34:47.43	354.51	29.20	-43.8	-55.6	3.8	7.45e-01	0	43	104	695205888	59	13776
2026-01-27 11:34:48.42	354.41	29.00	-45.5	-57.6	3.8	7.43e-01	0	43	104	695205888	61	15511
2026-01-27 11:34:49.42	354.31	28.79	-50.7	-69.9	3.8	7.44e-01	0	43	104	695205888	72	33975
2026-01-27 11:34:50.41	354.22	28.59	-50.3	-66.6	3.8	7.44e-01	0	43	104	695205888	72	23298
2026-01-27 11:34:51.41	354.13	28.39	-51.2	-68.5	3.8	7.46e-01	0	43	104	695205888	73	27096
2026-01-27 11:34:52.41	354.04	28.19	-50.7	-66.9	3.8	7.43e-01	0	43	104	695205888	73	22723
2026-01-27 11:34:53.40	353.95	27.99	-50.6	-67.0	3.8	7.46e-01	0	43	104	695205888	73	22907
2026-01-27 11:34:54.39	353.86	27.80	-50.1	-66.0	3.8	7.49e-01	0	43	104	695205888	71	22796
2026-01-27 11:34:55.39	353.77	27.60	-49.0	-63.4	3.8	7.45e-01	0	43	104	695205888	70	18014
2026-01-27 11:34:56.38	353.68	27.41	-47.8	-61.1	3.8	7.48e-01	0	43	104	695205888	67	16345
2026-01-27 11:34:57.38	353.60	27.22	-47.8	-60.8	3.9	7.45e-01	0	43	104	695205888	67	15936
2026-01-27 11:34:58.37	353.51	27.03	-47.8	-60.8	3.9	7.43e-01	0	43	104	695205888	67	15871
2026-01-27 11:34:59.37	353.43	26.84	-45.1	-56.7	3.8	7.47e-01	0	43	104	695205888	60	14867
2026-01-27 11:35:00.37	353.35	26.65	-50.6	-67.6	3.9	7.43e-01	0	43	104	695205888	72	26124
2026-01-27 11:35:01.36	353.27	26.46	-44.0	-55.8	3.8	7.47e-01	0	43	104	695205888	60	13318
2026-01-27 11:35:02.35	353.19	26.28	-44.3	-56.2	3.8	7.45e-01	0	43	104	695205888	59	14744
2026-01-27 11:35:03.35	353.11	26.09	-44.2	-56.1	3.8	7.44e-01	0	43	104	695205888	59	14636
2026-01-27 11:35:04.35	353.03	25.91	-44.1	-56.1	3.8	7.40e-01	0	43	104	695205888	59	14652
2026-01-27 11:35:05.34	352.95	25.73	-44.1	-56.2	3.8	7.46e-01	0	43	104	695205888	59	14760
2026-01-27 11:35:06.34	352.87	25.55	-45.0	-57.3	3.8	7.45e-01	0	43	104	695205888	60	15855
2026-01-27 11:35:07.33	352.80	25.37	-50.7	-69.7	3.9	7.46e-01	0	43	104	695205888	72	33016
2026-01-27 11:35:08.33	352.72	25.19	-48.0	-62.2	3.8	7.44e-01	0	43	104	695205888	68	17640
2026-01-27 11:35:09.32	352.65	25.01	-47.7	-61.2	3.8	7.41e-01	0	43	104	695205888	66	17531
2026-01-27 11:35:10.32	352.58	24.84	-47.1	-60.1	3.8	7.50e-01	0	43	104	695205888	65	16391
2026-01-27 11:35:11.31	352.51	24.66	-46.0	-58.7	3.8	7.46e-01	0	43	104	695205888	64	14715
2026-01-27 11:35:12.31	352.44	24.49	-46.0	-58.7	3.8	7.47e-01	0	43	104	695205888	63	15650
2026-01-27 11:35:13.30	352.37	24.32	-46.1	-58.9	3.8	7.47e-01	0	43	104	695205888	63	16047
2026-01-27 11:35:14.30	352.30	24.15	-46.1	-59.2	3.8	7.46e-01	0	43	104	695205888	63	16577
2026-01-27 11:35:15.29	352.23	23.98	-47.3	-61.4	3.8	7.42e-01	0	43	104	695205888	65	19066
2026-01-27 11:35:16.29	352.16	23.81	-48.1	-62.7	3.9	7.42e-01	0	43	104	695205888	68	18662
2026-01-27 11:35:17.28	352.09	23.64	-44.5	-56.9	3.8	7.48e-01	0	43	104	695205888	59	16062
2026-01-27 11:35:18.28	352.03	23.48	-49.9	-70.7	3.8	7.42e-01	0	43	104	695205888	70	41808
2026-01-27 11:35:19.27	351.96	23.31	-45.4	-58.2	3.8	7.45e-01	0	43	104	695205888	62	15664
2026-01-27 11:35:20.27	351.90	23.15	-45.3	-58.0	3.8	7.46e-01	0	43	104	695205888	62	15300
2026-01-27 11:35:21.26	351.83	22.99	-45.5	-58.0	3.8	7.48e-01	0	43	104	695205888	62	15248
2026-01-27 11:35:22.26	351.77	22.82	-44.9	-56.9	3.8	7.45e-01	0	43	104	695205888	61	14287
2026-01-27 11:35:23.25	351.71	22.67	-45.0	-57.0	3.8	7.43e-01	0	43	104	695205888	61	14374
2026-01-27 11:35:24.25	351.65	22.50	-45.0	-57.1	3.8	7.49e-01	0	43	104	695205888	61	14647
2026-01-27 11:35:25.24	351.59	22.35	-50.0	-69.7	3.8	7.43e-01	0	43	104	695205888	70	37259
2026-01-27 11:35:26.24	351.53	22.19	-46.7	-59.8	3.9	7.43e-01	0	43	104	695205888	65	15855
2026-01-27 11:35:27.24	351.47	22.03	-44.6	-57.1	3.8	7.48e-01	0	43	104	695205888	60	15476
2026-01-27 11:35:28.23	351.41	21.88	-44.0	-56.4	3.8	7.47e-01	0	43	104	695205888	60	14213
2026-01-27 11:35:29.22	351.35	21.72	-44.3	-56.5	3.8	7.46e-01	0	43	104	695205888	59	15331
2026-01-27 11:35:30.22	351.29	21.57	-44.4	-56.5	3.8	7.44e-01	0	43	104	695205888	59	15347
2026-01-27 11:35:31.21	351.23	21.42	-44.4	-56.5	3.8	7.46e-01	0	43	104	695205888	59	15328
2026-01-27 11:35:32.21	351.18	21.27	-44.5	-56.6	3.8	7.44e-01	0	43	104	695205888	59	15501
2026-01-27 11:35:33.20	351.12	21.12	-44.9	-57.2	3.8	7.41e-01	0	43	104	695205888	60	15635
2026-01-27 11:35:34.20	351.07	20.97	-50.0	-70.5	3.8	7.47e-01	0	43	104	695205888	70	40731
2026-01-27 11:35:35.19	351.01	20.82	-49.9	-69.7	3.8	7.48e-01	0	43	104	695205888	70	36983
2026-01-27 11:35:36.19	350.96	20.67	-50.5	-68.9	3.8	7.46e-01	0	43	104	695205888	71	31931
2026-01-27 11:35:37.18	350.91	20.52	-50.6	-68.4	3.8	7.49e-01	0	43	104	695205888	71	30113
2026-01-27 11:35:38.18	350.85	20.38	-50.7	-68.5	3.8	7.52e-01	0	43	104	695205888	72	28768
2026-01-27 11:35:39.17	350.80	20.23	-50.4	-66.7	3.8	7.44e-01	0	43	104	695205888	72	23395
2026-01-27 11:35:40.17	350.75	20.09	-50.2	-66.1	3.8	7.44e-01	0	43	104	695205888	72	21816
2026-01-27 11:35:41.16	350.70	19.95	-50.4	-66.8	3.8	7.48e-01	0	43	104	695205888	72	23761
2026-01-27 11:35:42.16	350.65	19.80	-47.1	-60.1	3.8	7.43e-01	0	43	104	695205888	66	15534
2026-01-27 11:35:43.16	350.60	19.66	-49.6	-64.4	3.8	7.44e-01	0	43	104	695205888	70	20164
2026-01-27 11:35:44.15	350.55	19.52	-44.3	-56.5	3.8	7.46e-01	0	43	104	695205888	59	15307
2026-01-27 11:35:45.15	350.50	19.38	-51.0	-70.1	3.8	7.45e-01	0	43	104	695205888	72	34746
2026-01-27 11:35:46.14	350.45	19.24	-44.2	-56.6	3.8	7.46e-01	0	43	104	695205888	60	14666
2026-01-27 11:35:47.13	350.40	19.11	-44.3	-56.5	3.8	7.45e-01	0	43	104	695205888	59	15230
2026-01-27 11:35:48.13	350.35	18.97	-44.2	-56.5	3.8	7.44e-01	0	43	104	695205888	59	15249
2026-01-27 11:35:49.12	350.31	18.83	-44.0	-56.3	3.8	7.47e-01	0	43	104	695205888	59	15027
2026-01-27 11:35:50.12	350.26	18.70	-45.3	-58.9	3.9	7.44e-01	0	43	104	695205888	61	17897
2026-01-27 11:35:51.11	350.21	18.56	-44.5	-57.0	3.8	7.43e-01	0	43	104	695205888	59	16262
2026-01-27 11:35:52.11	350.17	18.43	-50.4	-70.5	3.8	7.44e-01	0	43	104	695205888	71	38342
2026-01-27 11:35:53.10	350.12	18.29	-46.6	-60.9	3.8	7.44e-01	0	43	104	695205888	64	18965
2026-01-27 11:35:54.10	350.08	18.16	-44.0	-56.4	3.8	7.48e-01	0	43	104	695205888	59	15202
2026-01-27 11:35:55.09	350.03	18.03	-43.9	-56.2	3.8	7.43e-01	0	43	104	695205888	59	14802
2026-01-27 11:35:56.09	349.99	17.90	-43.9	-56.2	3.8	7.42e-01	0	43	104	695205888	59	14789
2026-01-27 11:35:57.08	349.95	17.77	-44.0	-56.2	3.8	7.48e-01	0	43	104	695205888	59	14718
2026-01-27 11:35:58.08	349.90	17.64	-44.1	-56.2	3.8	7.45e-01	0	43	104	695205888	59	14738
2026-01-27 11:35:59.08	349.86	17.51	-44.5	-56.7	3.8	7.49e-01	0	43	104	695205888	59	15594
2026-01-27 11:36:00.07	349.82	17.38	-44.5	-56.9	3.8	7.44e-01	0	43	104	695205888	60	15094
2026-01-27 11:36:01.06	349.78	17.25	-48.5	-70.1	3.8	7.49e-01	0	43	104	695205888	67	46178
2026-01-27 11:36:02.06	349.74	17.13	-47.1	-61.0	3.8	7.47e-01	0	43	104	695205888	65	18195
2026-01-27 11:36:03.05	349.69	17.00	-44.3	-56.3	3.8	7.45e-01	0	43	104	695205888	59	14932
2026-01-27 11:36:04.05	349.65	16.88	-44.2	-56.1	3.8	7.45e-01	0	43	104	695205888	59	14673
2026-01-27 11:36:05.04	349.61	16.75	-44.2	-56.1	3.8	7.46e-01	0	43	104	695205888	59	14651
2026-01-27 11:36:06.04	349.57	16.63	-44.2	-56.2	3.8	7.48e-01	0	43	104	695205888	59	14712
2026-01-27 11:36:07.04	349.53	16.50	-44.1	-56.1	3.8	7.48e-01	0	43	104	695205888	59	14658
2026-01-27 11:36:08.03	349.50	16.38	-44.2	-56.2	3.8	7.43e-01	0	43	104	695205888	59	14857
2026-01-27 11:36:09.03	349.46	16.26	-44.7	-57.0	3.8	7.44e-01	0	43	104	695205888	60	15318
2026-01-27 11:36:10.02	349.42	16.14	-50.4	-69.8	3.7	7.49e-01	0	43	104	695205888	71	35686
2026-01-27 11:36:11.01	349.38	16.02	-48.1	-62.3	3.8	7.46e-01	0	43	104	695205888	68	17814
2026-01-27 11:36:12.01	349.34	15.90	-44.4	-56.7	3.8	7.45e-01	0	43	104	695205888	60	14774
2026-01-27 11:36:13.00	349.31	15.78	-44.4	-56.7	3.8	7.42e-01	0	43	104	695205888	60	14766
2026-01-27 11:36:14.00	349.27	15.66	-44.6	-56.9	3.8	7.47e-01	0	43	104	695205888	60	15155
2026-01-27 11:36:15.00	349.23	15.54	-44.6	-56.8	3.8	7.45e-01	0	43	104	695205888	60	14995
2026-01-27 11:36:15.99	349.20	15.43	-44.6	-56.9	3.8	7.45e-01	0	43	104	695205888	60	15162
2026-01-27 11:36:16.99	349.16	15.31	-44.2	-56.3	3.9	7.42e-01	0	43	104	695205888	60	14119
2026-01-27 11:36:17.98	349.13	15.19	-45.7	-58.6	3.8	7.43e-01	0	43	104	695205888	62	16395
2026-01-27 11:36:18.98	349.09	15.08	-48.6	-64.3	3.8	7.46e-01	0	43	104	695205888	67	23662
2026-01-27 11:36:19.97	349.05	14.96	-44.2	-56.4	3.7	7.43e-01	0	43	104	695205888	59	15180
2026-01-27 11:36:20.97	349.02	14.85	-49.9	-67.6	3.8	7.49e-01	0	43	104	695205888	70	29161
2026-01-27 11:36:21.96	348.99	14.73	-44.1	-56.5	3.9	7.48e-01	0	43	104	695205888	59	15242
2026-01-27 11:36:22.96	348.95	14.62	-44.0	-56.5	3.8	7.46e-01	0	43	104	695205888	59	15278
2026-01-27 11:36:23.95	348.92	14.51	-43.8	-56.4	3.8	7.47e-01	0	43	104	695205888	59	15172
2026-01-27 11:36:24.94	348.89	14.40	-43.7	-56.3	3.8	7.44e-01	0	43	104	695205888	59	15044
2026-01-27 11:36:25.94	348.85	14.29	-43.8	-56.5	3.8	7.46e-01	0	43	104	695205888	59	15227
2026-01-27 11:36:26.93	348.82	14.18	-44.5	-57.8	3.8	7.46e-01	0	43	104	695205888	60	16776
2026-01-27 11:36:27.93	348.79	14.06	-50.3	-68.9	3.7	7.48e-01	0	43	104	695205888	71	32160
2026-01-27 11:36:28.92	348.75	13.95	-46.9	-62.1	3.8	7.44e-01	0	43	104	695205888	65	20546
2026-01-27 11:36:29.92	348.72	13.85	-44.0	-56.5	3.8	7.43e-01	0	43	104	695205888	59	15301
2026-01-27 11:36:30.91	348.69	13.74	-44.0	-56.4	3.8	7.47e-01	0	43	104	695205888	59	15132
2026-01-27 11:36:31.91	348.66	13.63	-44.2	-56.5	3.8	7.46e-01	0	43	104	695205888	59	15328
2026-01-27 11:36:32.90	348.63	13.52	-44.1	-56.3	3.8	7.43e-01	0	43	104	695205888	59	14985
2026-01-27 11:36:33.89	348.60	13.41	-44.2	-56.3	3.8	7.47e-01	0	43	104	695205888	59	15013
2026-01-27 11:36:34.89	348.57	13.31	-44.3	-56.4	3.8	7.46e-01	0	43	104	695205888	59	15138
2026-01-27 11:36:35.89	348.54	13.20	-45.0	-57.6	3.8	7.46e-01	0	43	104	695205888	60	16432
2026-01-27 11:36:36.88	348.51	13.10	-47.4	-63.7	3.8	7.42e-01	0	43	104	695205888	65	24776
2026-01-27 11:36:37.87	348.48	12.99	-44.0	-56.4	3.8	7.46e-01	0	43	104	695205888	60	14332
2026-01-27 11:36:38.87	348.45	12.89	-47.8	-64.8	3.7	7.44e-01	0	43	104	695205888	66	26492
2026-01-27 11:36:39.86	348.42	12.78	-43.5	-56.3	3.9	7.48e-01	0	43	104	695205888	59	15027
2026-01-27 11:36:40.86	348.39	12.68	-43.8	-57.1	3.8	7.47e-01	0	43	104	695205888	58	17474
2026-01-27 11:36:41.85	348.36	12.57	-43.5	-56.7	3.8	7.46e-01	0	43	104	695205888	58	16594
2026-01-27 11:36:42.85	348.33	12.47	-43.3	-56.7	3.8	7.47e-01	0	43	104	695205888	58	16621
2026-01-27 11:36:43.84	348.30	12.37	-43.4	-57.4	3.8	7.42e-01	0	43	104	695205888	58	17990
2026-01-27 11:36:44.83	348.28	12.27	-43.9	-57.3	3.9	7.43e-01	0	43	104	695205888	58	17886
2026-01-27 11:36:45.83	348.25	12.17	-47.8	-63.5	3.9	7.44e-01	0	43	104	695205888	66	22976
2026-01-27 11:36:46.82	348.22	12.07	-43.2	-57.1	3.8	7.48e-01	0	43	104	695205888	58	17304
2026-01-27 11:36:47.82	348.19	11.97	-46.8	-63.8	3.8	7.46e-01	0	43	104	695205888	64	26629
2026-01-27 11:36:48.82	348.17	11.86	-42.9	-56.7	3.8	7.42e-01	0	43	104	695205888	57	17679
2026-01-27 11:36:49.81	348.14	11.77	-42.7	-56.8	3.8	7.47e-01	0	43	104	695205888	57	17831
2026-01-27 11:36:50.81	348.11	11.67	-43.1	-56.7	3.8	7.45e-01	0	43	104	695205888	57	17660
2026-01-27 11:36:51.80	348.09	11.57	-43.1	-56.5	3.8	7.43e-01	0	43	104	695205888	57	17200
2026-01-27 11:36:52.80	348.06	11.47	-43.2	-56.7	3.8	7.48e-01	0	43	104	695205888	57	17614
2026-01-27 11:36:53.79	348.03	11.37	-43.7	-57.8	3.8	7.49e-01	0	43	104	695205888	57	19881
2026-01-27 11:36:54.79	348.01	11.27	-45.5	-64.0	3.8	7.46e-01	0	43	104	695205888	61	32540
2026-01-27 11:36:55.78	347.98	11.18	-43.5	-57.6	3.9	7.42e-01	0	43	104	695205888	59	17365
2026-01-27 11:36:56.78	347.96	11.08	-45.1	-62.1	3.8	7.50e-01	0	43	104	695205888	60	27619
2026-01-27 11:36:57.77	347.93	10.99	-43.7	-57.8	3.8	7.44e-01	0	43	104	695205888	59	17808
2026-01-27 11:36:58.77	347.91	10.89	-43.1	-57.0	3.8	7.48e-01	0	43	104	695205888	58	17216
2026-01-27 11:36:59.76	347.88	10.79	-43.1	-57.2	3.8	7.44e-01	0	43	104	695205888	58	17516
2026-01-27 11:37:00.76	347.86	10.70	-43.0	-57.0	3.8	7.45e-01	0	43	104	695205888	58	17265
2026-01-27 11:37:01.75	347.83	10.60	-43.8	-58.7	3.8	7.45e-01	0	43	104	695205888	58	20813
2026-01-27 11:37:02.75	347.81	10.51	-42.9	-57.2	3.8	7.46e-01	0	43	104	695205888	57	18666
2026-01-27 11:37:03.74	347.79	10.42	-45.1	-63.8	3.7	7.49e-01	0	43	104	695205888	60	33500
2026-01-27 11:37:04.74	347.76	10.32	-43.5	-57.9	3.9	7.52e-01	0	43	104	695205888	58	18954
2026-01-27 11:37:05.73	347.74	10.23	-44.6	-61.2	3.8	7.48e-01	0	43	104	695205888	59	26374
2026-01-27 11:37:06.72	347.72	10.14	-43.5	-58.0	3.9	7.43e-01	0	43	104	695205888	59	18232
2026-01-27 11:37:07.72	347.69	10.05	-43.3	-57.3	3.9	7.44e-01	0	43	104	695205888	58	17741
2026-01-27 11:37:08.71	347.67	9.95	-43.4	-57.3	3.8	7.48e-01	0	43	104	695205888	58	17777
2026-01-27 11:37:09.71	347.65	9.86	-43.5	-57.4	3.8	7.45e-01	0	43	104	695205888	58	17973
2026-01-27 11:37:10.71	347.62	9.77	-43.9	-58.3	3.8	7.47e-01	0	43	104	695205888	58	19866
2026-01-27 11:37:11.70	347.60	9.68	-43.9	-58.2	3.8	7.48e-01	0	43	104	695205888	58	19833
2026-01-27 11:37:12.70	347.58	9.59	-45.0	-62.7	3.8	7.50e-01	0	43	104	695205888	60	29586
2026-01-27 11:37:13.69	347.56	9.50	-44.0	-58.3	3.9	7.42e-01	0	43	104	695205888	60	17753
2026-01-27 11:37:14.69	347.54	9.41	-44.8	-60.9	3.8	7.49e-01	0	43	104	695205888	60	23961
2026-01-27 11:37:15.68	347.51	9.32	-44.1	-58.2	3.9	7.48e-01	0	43	104	695205888	59	18655
2026-01-27 11:37:16.68	347.49	9.23	-44.0	-57.2	3.8	7.45e-01	0	43	104	695205888	59	16581
2026-01-27 11:37:17.67	347.47	9.14	-44.0	-57.0	3.9	7.43e-01	0	43	104	695205888	59	16209
2026-01-27 11:37:18.66	347.45	9.06	-44.3	-57.4	3.8	7.43e-01	0	43	104	695205888	59	16913
2026-01-27 11:37:19.66	347.43	8.97	-45.1	-60.7	3.8	7.44e-01	0	43	104	695205888	60	23501
2026-01-27 11:37:20.65	347.41	8.88	-45.3	-70.6	3.7	7.51e-01	0	43	104	695205888	62	65535
2026-01-27 11:37:21.64	347.39	8.80	-49.2	-71.5	3.8	7.46e-01	0	43	104	695205888	69	48523
2026-01-27 11:37:22.64	347.37	8.71	-50.0	-69.4	4.1	7.47e-01	0	43	104	695205888	71	34018
2026-01-27 11:37:23.63	347.35	8.62	-49.2	-56.0	15.9	6.02e-01	0	43	0	695205888	68	8600
2026-01-27 11:37:24.62	347.33	8.54	-50.8	-71.5	3.7	7.44e-01	0	43	104	695730176	72	40698
2026-01-27 11:37:25.62	347.31	8.45	-50.4	-71.6	3.8	7.46e-01	0	43	104	695730176	72	41059
2026-01-27 11:37:26.61	347.29	8.36	-49.0	-71.5	3.8	7.46e-01	0	43	104	695730176	70	45793
2026-01-27 11:37:27.60	347.27	8.28	-50.7	-71.5	3.8	7.45e-01	0	43	104	695730176	72	40932
2026-01-27 11:37:28.60	347.25	8.19	-49.6	-71.4	3.8	7.45e-01	0	43	104	695730176	69	48036
2026-01-27 11:37:29.59	347.23	8.11	-50.6	-71.2	3.8	7.48e-01	0	43	104	695730176	72	39435
2026-01-27 11:37:30.58	347.21	8.03	-50.7	-71.2	3.8	7.46e-01	0	43	104	695730176	72	39516
2026-01-27 11:37:31.58	347.19	7.94	-50.4	-71.3	3.8	7.49e-01	0	43	104	695730176	71	42144
2026-01-27 11:37:32.57	347.17	7.86	-50.5	-71.3	3.8	7.47e-01	0	43	104	695730176	71	42378
2026-01-27 11:37:33.56	347.15	7.78	-50.9	-71.3	3.8	7.44e-01	0	43	104	695730176	72	39830
2026-01-27 11:37:34.56	347.13	7.69	-51.2	-71.3	3.8	7.45e-01	0	43	104	695730176	73	37691
2026-01-27 11:37:35.55	347.11	7.61	-51.2	-71.4	3.8	7.51e-01	0	43	104	695730176	73	37959
2026-01-27 11:37:36.54	347.09	7.53	-51.2	-71.4	3.8	7.46e-01	0	43	104	695730176	73	38120
2026-01-27 11:37:37.54	347.08	7.45	-51.1	-71.5	3.8	7.45e-01	0	43	104	695730176	73	38303
2026-01-27 11:37:38.53	347.06	7.36	-51.0	-71.5	3.8	7.48e-01	0	43	104	695730176	73	38286
2026-01-27 11:37:39.52	347.04	7.28	-50.6	-71.5	3.8	7.47e-01	0	43	104	695730176	73	38329
2026-01-27 11:37:40.52	347.02	7.20	-50.6	-71.5	3.8	7.44e-01	0	43	104	695730176	73	38351
2026-01-27 11:37:41.51	347.00	7.12	-50.6	-71.5	3.8	7.46e-01	0	43	104	695730176	73	38413
2026-01-27 11:37:42.50	346.99	7.04	-50.6	-71.5	3.8	7.44e-01	0	43	104	695730176	73	38294
2026-01-27 11:37:43.49	346.97	6.96	-50.6	-71.5	3.8	7.49e-01	0	43	104	695730176	73	38297
2026-01-27 11:37:44.49	346.95	6.88	-50.6	-71.5	3.8	7.42e-01	0	43	104	695730176	73	38289
2026-01-27 11:37:45.48	346.93	6.80	-50.6	-71.5	3.8	7.43e-01	0	43	104	695730176	73	38285
2026-01-27 11:37:46.47	346.92	6.72	-50.6	-71.5	3.8	7.45e-01	0	43	104	695730176	73	38254
2026-01-27 11:37:47.46	346.90	6.64	-50.6	-71.4	3.8	7.46e-01	0	43	104	695730176	73	38242
2026-01-27 11:37:48.46	346.88	6.56	-50.6	-71.5	3.8	7.46e-01	0	43	104	695730176	73	38273
2026-01-27 11:37:49.45	346.87	6.48	-50.6	-71.4	3.8	7.49e-01	0	43	104	695730176	73	38129
2026-01-27 11:37:50.45	346.85	6.41	-50.6	-71.4	3.8	7.46e-01	0	43	104	695730176	73	38242
2026-01-27 11:37:51.44	346.83	6.33	-50.6	-71.4	3.8	7.46e-01	0	43	104	695730176	73	38196
2026-01-27 11:37:52.43	346.82	6.25	-50.6	-71.4	3.8	7.44e-01	0	43	104	695730176	73	38143
2026-01-27 11:37:53.42	346.80	6.17	-50.6	-71.4	3.8	7.45e-01	0	44	104	695730176	73	38186
2026-01-27 11:37:54.42	346.78	6.09	-50.6	-71.5	3.8	7.47e-01	0	43	104	695730176	73	38268
2026-01-27 11:37:55.41	346.77	6.02	-50.6	-71.5	3.8	7.48e-01	0	43	104	695730176	73	38284
2026-01-27 11:37:56.40	346.75	5.94	-50.5	-71.4	3.8	7.49e-01	0	43	104	695730176	73	38174
2026-01-27 11:37:57.40	346.74	5.86	-50.6	-71.4	3.8	7.51e-01	0	43	104	695730176	73	38192
2026-01-27 11:37:58.39	346.72	5.79	-50.6	-71.4	3.8	7.47e-01	0	43	104	695730176	73	38147
2026-01-27 11:37:59.38	346.71	5.71	-50.5	-71.4	3.8	7.46e-01	0	43	104	695730176	73	38157
2026-01-27 11:38:00.38	346.69	5.64	-50.6	-71.5	3.8	7.50e-01	0	43	104	695730176	73	38253
2026-01-27 11:38:01.37	346.67	5.56	-50.6	-71.4	3.8	7.46e-01	0	43	104	695730176	73	38224
2026-01-27 11:38:02.36	346.66	5.48	-50.6	-71.4	3.8	7.47e-01	0	43	104	695730176	73	38209
2026-01-27 11:38:03.35	346.64	5.41	-50.6	-71.5	3.8	7.45e-01	0	43	104	695730176	73	38296
2026-01-27 11:38:04.35	346.63	5.33	-50.5	-71.4	3.8	7.47e-01	0	43	104	695730176	73	38197
2026-01-27 11:38:05.34	346.61	5.26	-50.5	-71.5	3.8	7.46e-01	0	43	104	695730176	73	38273
2026-01-27 11:38:06.33	346.60	5.19	-50.5	-71.5	3.8	7.46e-01	0	44	104	695730176	73	38306
2026-01-27 11:38:07.33	346.58	5.11	-50.6	-71.4	3.8	7.45e-01	0	43	104	695730176	73	38234
2026-01-27 11:38:08.32	346.57	5.04	-50.5	-71.5	3.8	7.48e-01	0	43	104	695730176	73	38247
2026-01-27 11:38:09.31	346.56	4.96	-50.5	-71.5	3.8	7.47e-01	0	43	104	695730176	73	38266

#Closed at: 2026-01-27 11:38:10
#Recorded file [695 MB]: D:/Data/31040_260127_142650.dat