passes_logs/2026/01/27/T1/T1__20260127_172927_FENGYUN_3G_rec.log

#Pass ID: 20260127_172927_FENGYUN 3G
#Satellite: FENGYUN 3G
#Configuration: FENGYUN 3G
#almurnet v.1.7.20251203
#Start time: 2026-01-27 17:29:29

#Version: 2.0.20230620
#Station: T1
#Location: 37.570604 lon 55.790049 lat
#TLE: 1 56232U 23055A   26026.81668957  .00042566  00000+0  63804-3 0  9995
#TLE: 2 56232  49.9949 354.9274 0004068  91.1881 268.9553 15.54453119158037

#Time	Az	El	Level	Level2	SNR	BER	BlckErr	Temp	State	Recorded	gain1	gain2
2026-01-27 17:29:29.13	236.26	5.11	-50.6	-69.5	3.8	8.48e-01	0	40	0	0	72	32474
2026-01-27 17:29:30.12	236.17	5.18	-50.7	-69.6	3.8	8.38e-01	0	41	104	0	73	30801
2026-01-27 17:29:31.13	236.07	5.26	-50.7	-69.6	3.8	8.47e-01	0	40	104	0	73	30773
2026-01-27 17:29:32.16	235.98	5.34	-50.5	-69.5	3.8	8.48e-01	0	41	104	0	72	32535
2026-01-27 17:29:33.18	235.88	5.41	-50.7	-69.5	3.8	8.48e-01	0	41	104	0	72	32515
2026-01-27 17:29:34.20	235.78	5.49	-50.6	-69.5	3.8	8.48e-01	0	41	104	0	72	32481
2026-01-27 17:29:35.21	235.69	5.57	-50.6	-69.5	3.8	8.47e-01	0	41	104	0	72	32429
2026-01-27 17:29:36.25	235.58	5.65	-50.4	-69.5	3.8	8.47e-01	0	41	104	0	72	32265
2026-01-27 17:29:37.28	235.48	5.73	-50.4	-69.5	3.8	8.46e-01	0	41	104	0	72	32201
2026-01-27 17:29:38.30	235.38	5.81	-50.4	-69.4	3.8	8.47e-01	0	41	104	0	72	32077
2026-01-27 17:29:39.33	235.28	5.89	-50.3	-69.4	3.8	8.47e-01	0	41	104	0	72	31976
2026-01-27 17:29:40.35	235.18	5.97	-50.3	-69.4	3.8	8.47e-01	0	41	104	0	72	31976
2026-01-27 17:29:41.38	235.07	6.05	-50.3	-69.3	3.8	8.46e-01	0	41	104	0	72	31677
2026-01-27 17:29:42.40	234.97	6.13	-50.2	-69.3	3.8	8.46e-01	0	41	104	0	72	31456
2026-01-27 17:29:43.43	234.87	6.21	-50.3	-69.1	3.8	8.46e-01	0	41	104	0	72	31013
2026-01-27 17:29:44.45	234.76	6.29	-50.0	-69.1	3.8	8.47e-01	0	41	104	0	71	32553
2026-01-27 17:29:45.48	234.65	6.37	-50.0	-69.0	3.8	8.48e-01	0	41	104	0	71	32264
2026-01-27 17:29:46.50	234.55	6.45	-49.9	-69.0	3.8	8.48e-01	0	41	104	0	71	32191
2026-01-27 17:29:47.53	234.44	6.54	-49.8	-69.0	3.8	8.46e-01	0	41	104	0	71	32235
2026-01-27 17:29:48.55	234.33	6.62	-49.8	-69.0	3.8	8.47e-01	0	41	104	0	71	32186
2026-01-27 17:29:49.58	234.22	6.70	-49.9	-68.9	3.8	8.47e-01	0	41	104	0	71	32161
2026-01-27 17:29:50.57	234.11	6.78	-49.9	-68.9	3.8	8.47e-01	0	41	104	0	71	32154
2026-01-27 17:29:51.56	234.00	6.86	-49.8	-69.0	3.8	8.47e-01	0	41	104	0	71	32217
2026-01-27 17:29:52.56	233.89	6.95	-50.0	-68.9	3.8	8.47e-01	0	41	104	0	71	32068
2026-01-27 17:29:53.55	233.78	7.03	-50.0	-68.9	3.8	8.47e-01	0	41	104	0	71	31993
2026-01-27 17:29:54.54	233.67	7.11	-49.8	-68.9	3.8	8.46e-01	0	41	104	0	71	32137
2026-01-27 17:29:55.54	233.56	7.19	-50.0	-68.9	3.8	8.48e-01	0	41	104	0	71	32113
2026-01-27 17:29:56.53	233.44	7.27	-49.9	-68.9	3.8	8.48e-01	0	42	104	0	71	32079
2026-01-27 17:29:57.52	233.33	7.36	-49.8	-68.9	3.8	8.46e-01	0	42	104	0	71	32053
2026-01-27 17:29:58.52	233.22	7.44	-49.8	-68.9	3.8	8.47e-01	0	42	104	0	71	32131
2026-01-27 17:29:59.51	233.10	7.52	-49.9	-68.9	3.8	8.47e-01	0	41	104	0	71	32004
2026-01-27 17:30:00.50	232.98	7.61	-49.9	-68.9	3.8	8.47e-01	0	42	104	0	71	31984
2026-01-27 17:30:01.50	232.86	7.69	-49.8	-68.9	3.8	8.47e-01	0	41	104	0	71	31996
2026-01-27 17:30:02.49	232.75	7.78	-49.9	-68.9	3.8	8.47e-01	0	42	104	0	71	31917
2026-01-27 17:30:03.48	232.63	7.86	-49.8	-68.9	3.8	8.47e-01	0	42	104	0	71	31931
2026-01-27 17:30:04.48	232.51	7.95	-49.8	-68.9	3.8	8.46e-01	0	41	104	0	71	31972
2026-01-27 17:30:05.49	232.38	8.03	-49.9	-68.9	3.8	8.46e-01	0	42	104	0	71	31932
2026-01-27 17:30:06.51	232.26	8.12	-49.8	-68.9	3.8	8.46e-01	0	42	104	0	71	31921
2026-01-27 17:30:07.54	232.13	8.21	-49.7	-68.9	3.8	8.48e-01	0	42	104	0	71	31918
2026-01-27 17:30:08.56	232.00	8.30	-49.8	-68.9	3.8	8.48e-01	0	42	104	0	71	32008
2026-01-27 17:30:09.56	231.87	8.39	-49.8	-68.9	3.8	8.48e-01	0	42	104	0	71	31947
2026-01-27 17:30:10.55	231.75	8.48	-49.9	-68.9	3.8	8.46e-01	0	42	104	0	71	31998
2026-01-27 17:30:11.54	231.62	8.56	-49.8	-68.9	3.8	8.47e-01	0	42	104	0	71	32084
2026-01-27 17:30:12.54	231.49	8.65	-49.8	-68.9	3.8	8.47e-01	0	42	104	0	71	32022
2026-01-27 17:30:13.53	231.36	8.74	-49.9	-68.9	3.8	8.47e-01	0	42	104	0	71	31947
2026-01-27 17:30:14.52	231.23	8.83	-49.8	-68.9	3.8	8.47e-01	0	42	104	0	71	31874
2026-01-27 17:30:15.52	231.10	8.92	-49.8	-68.9	3.8	8.47e-01	0	42	104	0	71	31847
2026-01-27 17:30:16.51	230.96	9.01	-49.9	-68.9	3.8	8.46e-01	0	42	104	0	71	31963
2026-01-27 17:30:17.50	230.83	9.10	-49.9	-68.9	3.8	8.47e-01	0	42	104	0	71	31955
2026-01-27 17:30:18.50	230.69	9.19	-49.9	-68.9	3.8	8.47e-01	0	42	104	0	71	32171
2026-01-27 17:30:19.49	230.56	9.28	-49.9	-68.9	3.8	8.47e-01	0	42	104	0	71	32046
2026-01-27 17:30:20.49	230.42	9.37	-49.8	-68.9	3.8	8.47e-01	0	42	104	0	71	31945
2026-01-27 17:30:21.48	230.28	9.46	-49.9	-68.9	3.8	8.47e-01	0	42	104	0	71	32138
2026-01-27 17:30:22.48	230.14	9.55	-49.8	-68.9	3.8	8.47e-01	0	42	104	0	71	32138
2026-01-27 17:30:23.47	229.99	9.65	-49.7	-68.9	3.8	8.49e-01	0	42	104	0	71	32136
2026-01-27 17:30:24.47	229.85	9.74	-49.7	-68.9	3.8	8.47e-01	0	42	104	0	71	32110
2026-01-27 17:30:25.47	229.71	9.83	-49.6	-69.0	3.8	8.47e-01	0	42	104	0	71	32203
2026-01-27 17:30:26.46	229.56	9.93	-49.7	-68.9	3.8	8.46e-01	0	42	104	0	70	34009
2026-01-27 17:30:27.46	229.41	10.02	-49.8	-69.0	3.8	8.47e-01	0	42	104	0	70	34141
2026-01-27 17:30:28.45	229.26	10.11	-49.9	-68.9	3.8	8.47e-01	0	42	104	0	70	34076
2026-01-27 17:30:29.45	229.11	10.21	-49.8	-69.0	3.8	8.46e-01	0	42	104	0	70	34163
2026-01-27 17:30:30.44	228.96	10.30	-49.9	-68.9	3.8	8.46e-01	0	42	104	0	70	33845
2026-01-27 17:30:31.44	228.81	10.40	-49.9	-68.9	3.8	8.46e-01	0	42	104	0	70	33978
2026-01-27 17:30:32.44	228.66	10.50	-49.9	-69.0	3.8	8.47e-01	0	42	104	0	70	34101
2026-01-27 17:30:33.43	228.50	10.59	-50.0	-69.0	3.8	8.48e-01	0	42	104	0	70	34109
2026-01-27 17:30:34.42	228.35	10.69	-49.9	-68.9	3.8	8.48e-01	0	42	104	0	70	33974
2026-01-27 17:30:35.42	228.19	10.79	-50.0	-68.9	3.8	8.47e-01	0	42	104	0	70	34073
2026-01-27 17:30:36.41	228.03	10.88	-49.9	-69.0	3.8	8.48e-01	0	42	104	0	70	34120
2026-01-27 17:30:37.41	227.87	10.98	-49.9	-68.9	3.8	8.48e-01	0	42	104	0	70	33954
2026-01-27 17:30:38.45	227.70	11.09	-50.0	-68.9	3.8	8.48e-01	0	42	104	0	70	34075
2026-01-27 17:30:39.40	227.54	11.18	-49.9	-68.9	3.8	8.46e-01	0	42	104	0	70	34078
2026-01-27 17:30:40.39	227.38	11.28	-49.9	-68.9	3.8	8.46e-01	0	42	104	0	70	33943
2026-01-27 17:30:41.39	227.21	11.38	-49.9	-68.9	3.8	8.48e-01	0	42	104	0	70	34065
2026-01-27 17:30:42.39	227.04	11.48	-49.9	-69.0	3.8	8.47e-01	0	42	104	0	70	34249
2026-01-27 17:30:43.38	226.87	11.58	-49.9	-69.0	3.8	8.46e-01	0	42	104	0	70	34172
2026-01-27 17:30:44.37	226.70	11.68	-50.0	-69.0	3.8	8.46e-01	0	42	104	0	70	34098
2026-01-27 17:30:45.37	226.53	11.78	-50.0	-69.0	3.8	8.46e-01	0	42	104	0	70	34213
2026-01-27 17:30:46.36	226.35	11.88	-50.0	-69.0	3.8	8.47e-01	0	42	104	0	70	34171
2026-01-27 17:30:47.36	226.18	11.99	-50.1	-69.0	3.8	8.47e-01	0	42	104	0	70	34245
2026-01-27 17:30:48.35	226.00	12.09	-50.1	-69.0	3.8	8.46e-01	0	42	104	0	70	34217
2026-01-27 17:30:49.35	225.82	12.19	-50.1	-69.0	3.8	8.47e-01	0	42	104	0	70	34355
2026-01-27 17:30:50.34	225.64	12.30	-50.0	-69.0	3.8	8.47e-01	0	42	104	0	70	34184
2026-01-27 17:30:51.34	225.45	12.40	-50.1	-69.0	3.8	8.48e-01	0	42	104	0	70	34273
2026-01-27 17:30:52.33	225.27	12.50	-50.0	-69.0	3.8	8.48e-01	0	42	104	0	70	34211
2026-01-27 17:30:53.33	225.08	12.61	-50.1	-69.0	3.8	8.48e-01	0	42	104	0	70	34471
2026-01-27 17:30:54.32	224.90	12.72	-50.1	-69.0	3.8	8.47e-01	0	43	104	0	70	34259
2026-01-27 17:30:55.32	224.71	12.82	-50.1	-69.0	3.8	8.47e-01	0	43	104	0	70	34433
2026-01-27 17:30:56.31	224.51	12.93	-50.1	-69.0	3.8	8.47e-01	0	42	104	0	70	34259
2026-01-27 17:30:57.31	224.32	13.03	-50.0	-69.0	3.8	8.47e-01	0	42	104	0	70	34455
2026-01-27 17:30:58.30	224.13	13.14	-50.1	-69.0	3.8	8.47e-01	0	43	104	0	70	34274
2026-01-27 17:30:59.30	223.93	13.25	-50.1	-69.0	3.8	8.47e-01	0	43	104	0	70	34322
2026-01-27 17:31:00.29	223.73	13.36	-50.0	-69.1	3.8	8.47e-01	0	43	104	0	70	34501
2026-01-27 17:31:01.29	223.53	13.47	-50.1	-69.0	3.8	8.48e-01	0	43	104	0	70	34436
2026-01-27 17:31:02.28	223.32	13.57	-50.0	-69.0	3.8	8.48e-01	0	43	104	0	70	34350
2026-01-27 17:31:03.28	223.12	13.68	-49.9	-69.1	3.8	8.47e-01	0	43	104	0	70	34496
2026-01-27 17:31:04.27	222.91	13.79	-50.1	-69.0	3.8	8.47e-01	0	43	104	0	70	34332
2026-01-27 17:31:05.27	222.70	13.90	-50.0	-69.0	3.8	8.46e-01	0	43	104	0	70	34465
2026-01-27 17:31:06.34	222.48	14.02	-49.9	-69.1	3.8	8.46e-01	0	43	104	0	70	34601
2026-01-27 17:31:07.23	222.28	14.12	-49.9	-69.1	3.8	8.47e-01	0	43	104	0	70	34621
2026-01-27 17:31:08.37	222.04	14.25	-49.9	-69.1	3.8	8.47e-01	0	43	104	0	70	34562
2026-01-27 17:31:09.30	221.83	14.35	-50.0	-69.1	3.8	8.47e-01	0	43	104	0	70	34605
2026-01-27 17:31:10.47	221.58	14.49	-50.0	-69.1	3.8	8.47e-01	0	43	104	0	70	34619
2026-01-27 17:31:11.32	221.39	14.58	-50.1	-69.1	3.8	8.46e-01	0	43	104	0	70	34642
2026-01-27 17:31:12.46	221.13	14.71	-50.0	-69.1	3.8	8.46e-01	0	43	104	0	70	34546
2026-01-27 17:31:13.31	220.94	14.81	-50.1	-69.1	3.8	8.46e-01	0	43	104	0	70	34749
2026-01-27 17:31:14.45	220.67	14.94	-50.1	-69.1	3.8	8.47e-01	0	43	104	0	70	34661
2026-01-27 17:31:15.30	220.48	15.04	-50.1	-69.1	3.8	8.47e-01	0	43	104	0	70	34633
2026-01-27 17:31:16.44	220.21	15.17	-50.1	-69.1	3.8	8.47e-01	0	43	104	0	70	34674
2026-01-27 17:31:17.29	220.01	15.27	-50.0	-69.1	3.8	8.46e-01	0	43	104	0	70	34760
2026-01-27 17:31:18.43	219.74	15.40	-50.1	-69.1	3.8	8.48e-01	0	43	104	0	70	34610
2026-01-27 17:31:19.28	219.53	15.50	-50.2	-69.1	3.8	8.48e-01	0	43	104	0	70	34656
2026-01-27 17:31:20.42	219.25	15.63	-50.1	-69.1	3.8	8.48e-01	0	43	104	0	70	34782
2026-01-27 17:31:21.27	219.04	15.73	-50.2	-69.1	3.8	8.47e-01	0	43	104	0	71	32816
2026-01-27 17:31:22.47	218.75	15.87	-50.0	-69.0	3.8	8.47e-01	0	43	104	0	71	32479
2026-01-27 17:31:23.32	218.53	15.97	-50.1	-69.1	3.8	8.46e-01	0	43	104	0	71	32586
2026-01-27 17:31:24.46	218.24	16.11	-50.1	-69.1	3.8	8.48e-01	0	43	104	0	71	32789
2026-01-27 17:31:25.31	218.03	16.21	-50.1	-69.1	3.8	8.48e-01	0	43	104	0	71	32822
2026-01-27 17:31:26.59	217.69	16.36	-50.0	-69.1	3.8	8.47e-01	0	43	104	0	71	32721
2026-01-27 17:31:27.31	217.51	16.45	-50.0	-69.1	3.8	8.47e-01	0	43	104	0	71	32820
2026-01-27 17:31:28.60	217.16	16.60	-50.1	-69.1	3.8	8.45e-01	0	43	104	0	71	32824
2026-01-27 17:31:29.32	216.97	16.69	-50.1	-69.2	3.8	8.45e-01	0	43	104	0	71	33028
2026-01-27 17:31:30.60	216.63	16.84	-49.9	-69.1	3.8	8.46e-01	0	43	104	0	71	32808
2026-01-27 17:31:31.31	216.43	16.93	-49.9	-69.1	3.8	8.46e-01	0	43	104	0	71	32877
2026-01-27 17:31:32.59	216.08	17.08	-50.0	-69.1	3.8	8.46e-01	0	43	104	0	71	32914
2026-01-27 17:31:33.30	215.88	17.17	-50.0	-69.2	3.8	8.46e-01	0	43	104	0	71	33016
2026-01-27 17:31:34.58	215.52	17.32	-50.1	-69.1	3.8	8.48e-01	0	43	104	0	71	32889
2026-01-27 17:31:35.47	215.27	17.43	-50.1	-69.2	3.8	8.48e-01	0	43	104	0	71	33116
2026-01-27 17:31:36.60	214.95	17.57	-50.0	-69.2	3.8	8.47e-01	0	43	104	0	71	32996
2026-01-27 17:31:37.64	214.65	17.70	-50.2	-69.1	3.8	8.47e-01	0	43	104	0	71	32920
2026-01-27 17:31:38.59	214.37	17.81	-50.2	-69.2	3.8	8.47e-01	0	43	104	0	71	33014
2026-01-27 17:31:39.58	214.08	17.93	-50.2	-69.2	3.8	8.46e-01	0	43	104	0	71	33048
2026-01-27 17:31:40.93	213.67	18.10	-50.1	-69.2	3.8	8.47e-01	0	43	104	0	71	32972
2026-01-27 17:31:41.67	213.45	18.19	-50.1	-69.1	3.8	8.47e-01	0	43	104	0	71	32869
2026-01-27 17:31:43.26	212.96	18.39	-50.1	-69.1	3.8	8.47e-01	0	43	104	0	71	32748
2026-01-27 17:31:43.85	212.78	18.46	-50.1	-69.1	3.8	8.47e-01	0	43	104	0	71	32787
2026-01-27 17:31:45.41	212.29	18.65	-50.1	-69.2	3.8	8.47e-01	0	43	104	0	71	32946
2026-01-27 17:31:46.04	212.09	18.73	-50.2	-69.1	3.8	8.46e-01	0	43	104	0	71	32701
2026-01-27 17:31:47.56	211.61	18.92	-50.2	-69.1	3.8	8.46e-01	0	43	104	0	71	32799
2026-01-27 17:31:48.27	211.38	19.01	-50.2	-69.1	3.8	8.46e-01	0	43	104	0	71	32817
2026-01-27 17:31:49.55	210.96	19.17	-50.2	-69.1	3.8	8.48e-01	0	43	104	0	71	32888
2026-01-27 17:31:50.26	210.72	19.26	-50.2	-69.1	3.8	8.48e-01	0	43	104	0	71	32655
2026-01-27 17:31:51.54	210.30	19.42	-50.2	-69.1	3.8	8.46e-01	0	43	104	0	71	32822
2026-01-27 17:31:52.26	210.06	19.50	-50.2	-69.1	3.8	8.46e-01	0	43	104	0	71	32863
2026-01-27 17:31:53.61	209.60	19.67	-50.2	-69.2	3.8	8.46e-01	0	43	104	0	71	32983
2026-01-27 17:31:54.32	209.35	19.76	-50.1	-69.1	3.8	8.46e-01	0	43	104	0	71	32858
2026-01-27 17:31:55.60	208.91	19.92	-50.2	-69.2	3.8	8.47e-01	0	43	104	0	71	32932
2026-01-27 17:31:56.31	208.66	20.01	-50.2	-69.1	3.8	8.47e-01	0	43	104	0	71	32832
2026-01-27 17:31:57.75	208.15	20.19	-50.1	-69.1	3.8	8.48e-01	0	43	104	0	71	32857
2026-01-27 17:31:58.46	207.90	20.27	-50.1	-69.1	3.8	8.48e-01	0	43	104	0	71	32688
2026-01-27 17:31:59.74	207.44	20.43	-50.1	-69.1	3.8	8.47e-01	0	43	104	0	71	32791
2026-01-27 17:32:00.45	207.18	20.52	-50.1	-69.1	3.8	8.47e-01	0	43	104	0	71	32854
2026-01-27 17:32:01.73	206.71	20.68	-50.1	-69.1	3.8	8.47e-01	0	43	104	0	71	32816
2026-01-27 17:32:02.45	206.44	20.77	-50.1	-69.1	3.8	8.46e-01	0	43	104	0	71	32825
2026-01-27 17:32:03.73	205.96	20.92	-50.1	-69.2	3.8	8.48e-01	0	43	104	0	71	33023
2026-01-27 17:32:04.44	205.69	21.01	-50.1	-69.2	3.8	8.48e-01	0	43	104	0	71	33186
2026-01-27 17:32:05.72	205.20	21.17	-50.2	-69.2	3.8	8.48e-01	0	43	104	0	71	32946
2026-01-27 17:32:06.45	204.92	21.26	-50.1	-69.2	3.8	8.47e-01	0	43	104	0	71	32976
2026-01-27 17:32:07.73	204.42	21.41	-50.1	-69.2	3.8	8.47e-01	0	43	104	0	71	33250
2026-01-27 17:32:08.44	204.14	21.50	-50.1	-69.2	3.8	8.48e-01	0	43	104	0	71	33188
2026-01-27 17:32:09.73	203.63	21.65	-50.1	-69.2	3.8	8.47e-01	0	43	104	0	71	33196
2026-01-27 17:32:10.44	203.35	21.74	-50.1	-69.2	3.8	8.47e-01	0	43	104	0	71	33130
2026-01-27 17:32:11.72	202.83	21.89	-50.2	-69.2	3.8	8.46e-01	0	43	104	0	71	33080
2026-01-27 17:32:12.43	202.54	21.97	-50.3	-69.2	3.8	8.47e-01	0	43	104	0	71	33122
2026-01-27 17:32:13.71	202.01	22.13	-50.3	-69.2	3.8	8.46e-01	0	43	104	0	71	33206
2026-01-27 17:32:14.42	201.72	22.21	-50.3	-69.2	3.8	8.46e-01	0	43	104	0	71	33191
2026-01-27 17:32:15.70	201.18	22.36	-50.2	-69.2	3.8	8.48e-01	0	43	104	0	71	33219
2026-01-27 17:32:16.41	200.88	22.44	-50.2	-69.2	3.8	8.48e-01	0	43	104	0	71	33184
2026-01-27 17:32:17.69	200.33	22.59	-50.2	-69.2	3.8	8.46e-01	0	43	104	0	71	33012
2026-01-27 17:32:18.42	200.02	22.67	-50.2	-69.1	3.8	8.47e-01	0	43	104	0	71	32919
2026-01-27 17:32:19.70	199.46	22.82	-50.2	-69.2	3.8	8.47e-01	0	43	104	0	71	33142
2026-01-27 17:32:20.47	199.13	22.91	-50.2	-69.2	3.8	8.47e-01	0	43	104	0	71	33220
2026-01-27 17:32:21.75	198.56	23.05	-50.1	-69.2	3.8	8.47e-01	0	43	104	0	71	33149
2026-01-27 17:32:22.52	198.22	23.14	-50.1	-69.2	3.8	8.47e-01	0	43	104	0	71	33118
2026-01-27 17:32:23.80	197.64	23.28	-50.1	-69.2	3.8	8.47e-01	0	43	104	0	71	33145
2026-01-27 17:32:24.58	197.29	23.36	-50.2	-69.2	3.8	8.47e-01	0	43	104	0	71	33276
2026-01-27 17:32:26.14	196.57	23.53	-50.3	-69.2	3.8	8.46e-01	0	43	104	0	71	33307
2026-01-27 17:32:26.77	196.28	23.60	-50.3	-69.3	3.8	8.46e-01	0	43	104	0	71	33377
2026-01-27 17:32:28.43	195.51	23.77	-50.3	-69.3	3.8	8.47e-01	0	43	104	0	71	33351
2026-01-27 17:32:29.00	195.24	23.83	-50.3	-69.3	3.8	8.47e-01	0	43	104	0	71	33526
2026-01-27 17:32:30.71	194.43	24.01	-50.3	-69.3	3.8	8.46e-01	0	43	104	0	71	33419
2026-01-27 17:32:31.28	194.16	24.06	-50.3	-69.3	3.8	8.46e-01	0	43	104	0	71	33342
2026-01-27 17:32:32.98	193.34	24.23	-50.3	-69.3	3.8	8.48e-01	0	43	104	0	71	33416
2026-01-27 17:32:33.55	193.06	24.29	-50.3	-69.3	3.8	8.48e-01	0	43	104	0	71	33461
2026-01-27 17:32:35.26	192.22	24.45	-50.3	-69.3	3.8	8.46e-01	0	43	104	0	71	33510
2026-01-27 17:32:35.83	191.94	24.51	-50.2	-69.3	3.8	8.47e-01	0	43	104	0	71	33567
2026-01-27 17:32:37.54	191.09	24.67	-50.2	-69.3	3.8	8.47e-01	0	43	104	0	71	33508
2026-01-27 17:32:38.10	190.81	24.72	-50.2	-69.3	3.8	8.47e-01	0	43	104	0	71	33420
2026-01-27 17:32:39.81	189.94	24.87	-50.3	-69.3	3.8	8.48e-01	0	43	104	0	71	33382
2026-01-27 17:32:40.41	189.64	24.92	-50.3	-69.3	3.8	8.47e-01	0	43	104	0	71	33495
2026-01-27 17:32:41.98	188.83	25.05	-50.2	-69.3	3.8	8.46e-01	0	43	104	0	71	33470
2026-01-27 17:32:42.62	188.50	25.11	-50.3	-69.3	3.8	8.46e-01	0	43	104	0	71	33538
2026-01-27 17:32:44.04	187.76	25.22	-50.3	-69.3	3.8	8.47e-01	0	43	104	0	71	33553
2026-01-27 17:32:44.75	187.39	25.28	-50.3	-69.3	3.8	8.47e-01	0	43	104	0	71	33537
2026-01-27 17:32:46.03	186.72	25.37	-50.4	-69.3	3.8	8.46e-01	0	43	104	0	71	33445
2026-01-27 17:32:46.74	186.34	25.43	-50.3	-69.3	3.8	8.46e-01	0	43	104	0	71	33476
2026-01-27 17:32:48.02	185.66	25.52	-50.4	-69.3	3.8	8.47e-01	0	43	104	0	71	33391
2026-01-27 17:32:48.73	185.28	25.57	-50.3	-69.3	3.8	8.46e-01	0	43	104	0	71	33559
2026-01-27 17:32:50.01	184.59	25.66	-50.3	-69.3	3.8	8.46e-01	0	43	104	0	71	33516
2026-01-27 17:32:50.72	184.21	25.70	-50.3	-69.3	3.8	8.47e-01	0	43	104	0	71	33556
2026-01-27 17:32:52.00	183.52	25.78	-50.3	-69.3	3.8	8.47e-01	0	43	104	0	71	33552
2026-01-27 17:32:52.71	183.13	25.83	-50.4	-69.3	3.8	8.47e-01	0	43	104	0	71	33535
2026-01-27 17:32:53.99	182.43	25.90	-50.2	-69.3	3.8	8.47e-01	0	43	104	0	71	33526
2026-01-27 17:32:54.70	182.04	25.94	-50.3	-69.2	3.8	8.46e-01	0	43	104	0	71	33280
2026-01-27 17:32:55.98	181.33	26.01	-50.3	-69.3	3.8	8.46e-01	0	43	104	0	71	33553
2026-01-27 17:32:56.71	180.93	26.05	-50.3	-69.3	3.8	8.46e-01	0	43	104	0	71	33523
2026-01-27 17:32:57.99	180.22	26.11	-50.2	-69.3	3.8	8.48e-01	0	43	104	0	71	33498
2026-01-27 17:32:58.70	179.82	26.15	-50.2	-69.3	3.8	8.48e-01	0	43	104	0	71	33553
2026-01-27 17:32:59.98	179.10	26.20	-50.2	-69.3	3.8	8.47e-01	0	43	104	0	71	33547
2026-01-27 17:33:00.73	178.68	26.24	-50.3	-69.3	3.8	8.46e-01	0	43	104	0	71	33425
2026-01-27 17:33:02.01	177.96	26.29	-50.3	-69.2	3.8	8.46e-01	0	43	104	0	71	33190
2026-01-27 17:33:02.72	177.56	26.31	-50.3	-69.2	3.8	8.46e-01	0	43	104	0	71	33181
2026-01-27 17:33:04.00	176.84	26.36	-50.3	-69.2	3.8	8.47e-01	0	43	104	0	71	33094
2026-01-27 17:33:04.72	176.43	26.38	-50.3	-69.2	3.8	8.47e-01	0	43	104	0	71	33308
2026-01-27 17:33:05.99	175.71	26.41	-50.3	-69.2	3.8	8.47e-01	0	43	104	0	71	33252
2026-01-27 17:33:06.70	175.30	26.43	-50.3	-69.3	3.8	8.47e-01	0	43	104	0	71	33496
2026-01-27 17:33:07.98	174.57	26.46	-50.3	-69.2	3.8	8.47e-01	0	43	104	0	71	33241
2026-01-27 17:33:08.69	174.16	26.48	-50.3	-69.3	3.8	8.47e-01	0	43	104	0	71	33321
2026-01-27 17:33:09.97	173.43	26.50	-50.3	-69.3	3.8	8.47e-01	0	43	104	0	71	33333
2026-01-27 17:33:10.68	173.03	26.51	-50.3	-69.3	3.8	8.49e-01	0	43	104	0	71	33387
2026-01-27 17:33:11.96	172.29	26.53	-50.3	-69.2	3.8	8.49e-01	0	43	104	0	71	33258
2026-01-27 17:33:12.69	171.87	26.53	-50.3	-69.3	3.8	8.47e-01	0	43	104	0	71	33336
2026-01-27 17:33:13.97	171.14	26.54	-50.3	-69.3	3.8	8.46e-01	0	43	104	0	71	33431
2026-01-27 17:33:14.68	170.73	26.54	-50.3	-69.2	3.8	8.46e-01	0	43	104	0	71	33170
2026-01-27 17:33:15.96	169.99	26.54	-50.3	-69.2	3.8	8.47e-01	0	43	104	0	71	33201
2026-01-27 17:33:16.67	169.59	26.54	-50.2	-69.2	3.8	8.48e-01	0	43	104	0	71	33117
2026-01-27 17:33:17.95	168.85	26.54	-50.3	-69.2	3.8	8.48e-01	0	43	104	0	71	33232
2026-01-27 17:33:18.66	168.44	26.53	-50.3	-69.3	3.8	8.48e-01	0	43	104	0	71	33345
2026-01-27 17:33:19.93	167.71	26.52	-50.3	-69.3	3.8	8.47e-01	0	43	104	0	71	33324
2026-01-27 17:33:20.66	167.29	26.51	-50.3	-69.3	3.8	8.47e-01	0	43	104	0	71	33409
2026-01-27 17:33:21.94	166.56	26.49	-50.3	-69.3	3.8	8.48e-01	0	43	104	0	71	33357
2026-01-27 17:33:22.66	166.15	26.48	-50.3	-69.3	3.8	8.47e-01	0	43	104	0	71	33390
2026-01-27 17:33:23.94	165.42	26.45	-50.3	-69.3	3.8	8.47e-01	0	43	104	0	71	33373
2026-01-27 17:33:24.67	165.00	26.43	-50.4	-69.3	3.8	8.47e-01	0	43	104	0	71	33448
2026-01-27 17:33:26.15	164.16	26.39	-50.3	-69.3	3.8	8.47e-01	0	43	104	0	71	33317
2026-01-27 17:33:26.86	163.76	26.37	-50.4	-69.3	3.8	8.48e-01	0	43	104	0	71	33445
2026-01-27 17:33:28.14	163.03	26.33	-50.4	-69.3	3.8	8.47e-01	0	43	104	0	71	33317
2026-01-27 17:33:28.86	162.62	26.30	-50.4	-69.2	3.8	8.47e-01	0	43	104	0	71	33245
2026-01-27 17:33:30.26	161.84	26.25	-50.4	-69.2	3.8	8.46e-01	0	43	104	0	71	33193
2026-01-27 17:33:30.97	161.44	26.22	-50.4	-69.3	3.8	8.47e-01	0	43	104	0	71	33403
2026-01-27 17:33:32.25	160.72	26.16	-50.4	-69.2	3.8	8.47e-01	0	43	104	0	71	33258
2026-01-27 17:33:32.96	160.32	26.13	-50.3	-69.3	3.8	8.47e-01	0	43	104	0	71	33313
2026-01-27 17:33:34.24	159.61	26.07	-50.4	-69.2	3.8	8.47e-01	0	43	104	0	71	33206
2026-01-27 17:33:34.95	159.22	26.03	-50.3	-69.2	3.8	8.47e-01	0	43	104	0	71	33169
2026-01-27 17:33:36.23	158.51	25.97	-50.3	-69.2	3.8	8.47e-01	0	44	104	0	71	33117
2026-01-27 17:33:36.96	158.11	25.93	-50.2	-69.1	3.8	8.47e-01	0	43	104	0	71	32824
2026-01-27 17:33:38.24	157.41	25.85	-50.3	-69.0	3.8	8.47e-01	0	43	104	0	71	32498
2026-01-27 17:33:38.95	157.02	25.81	-50.3	-69.0	3.8	8.47e-01	0	43	104	0	71	32320
2026-01-27 17:33:40.22	156.33	25.73	-50.3	-69.0	3.8	8.46e-01	0	43	104	0	71	32389
2026-01-27 17:33:40.95	155.93	25.68	-50.2	-69.0	3.8	8.46e-01	0	43	104	0	71	32255
2026-01-27 17:33:42.23	155.25	25.59	-50.2	-69.0	3.8	8.47e-01	0	43	104	0	71	32387
2026-01-27 17:33:43.10	154.78	25.53	-50.2	-69.2	3.8	8.46e-01	0	43	104	0	71	33225
2026-01-27 17:33:44.52	154.03	25.43	-50.1	-69.1	3.8	8.47e-01	0	43	104	0	71	32787
2026-01-27 17:33:45.23	153.65	25.38	-49.9	-69.2	3.8	8.47e-01	0	43	104	0	71	33292
2026-01-27 17:33:46.71	152.87	25.27	-50.1	-69.3	3.8	8.47e-01	0	43	104	0	71	33315
2026-01-27 17:33:47.43	152.50	25.21	-50.1	-69.2	3.8	8.47e-01	0	43	104	0	71	33252
2026-01-27 17:33:48.77	151.80	25.10	-50.2	-69.3	3.8	8.46e-01	0	43	104	0	71	33370
2026-01-27 17:33:49.48	151.43	25.04	-50.1	-69.3	3.8	8.46e-01	0	43	104	0	71	33391
2026-01-27 17:33:50.76	150.78	24.93	-50.3	-69.3	3.8	8.47e-01	0	43	104	0	71	33356
2026-01-27 17:33:51.47	150.41	24.87	-50.3	-69.3	3.8	8.47e-01	0	43	104	0	71	33412
2026-01-27 17:33:52.75	149.77	24.76	-50.2	-69.3	3.8	8.47e-01	0	43	104	0	71	33322
2026-01-27 17:33:53.47	149.40	24.69	-50.1	-69.3	3.8	8.47e-01	0	43	104	0	71	33351
2026-01-27 17:33:54.75	148.76	24.58	-50.1	-69.2	3.8	8.47e-01	0	43	104	0	71	33295
2026-01-27 17:33:55.46	148.41	24.51	-50.0	-69.2	3.8	8.47e-01	0	43	104	0	71	33228
2026-01-27 17:33:56.74	147.78	24.39	-49.9	-69.2	3.8	8.47e-01	0	43	104	0	71	33225
2026-01-27 17:33:57.48	147.42	24.32	-49.9	-69.2	3.8	8.48e-01	0	44	104	0	71	33029
2026-01-27 17:33:58.76	146.80	24.19	-50.0	-69.2	3.8	8.47e-01	0	43	104	0	71	33303
2026-01-27 17:33:59.50	146.44	24.12	-50.0	-69.2	3.8	8.47e-01	0	43	104	0	71	33142
2026-01-27 17:34:00.78	145.83	23.99	-50.2	-69.2	3.8	8.49e-01	0	43	104	0	71	33169
2026-01-27 17:34:01.51	145.48	23.92	-50.2	-69.2	3.8	8.49e-01	0	43	104	0	71	33266
2026-01-27 17:34:02.79	144.88	23.78	-50.3	-69.2	3.8	8.47e-01	0	43	104	0	71	33253
2026-01-27 17:34:03.62	144.49	23.70	-50.3	-69.2	3.8	8.48e-01	0	43	104	0	71	33152
2026-01-27 17:34:05.04	143.83	23.55	-50.3	-69.2	3.8	8.48e-01	0	43	104	0	71	33305
2026-01-27 17:34:05.75	143.50	23.47	-50.4	-69.2	3.8	8.48e-01	0	43	104	0	71	33309
2026-01-27 17:34:07.05	142.91	23.33	-50.2	-69.2	3.8	8.47e-01	0	43	104	0	71	33202
2026-01-27 17:34:07.76	142.59	23.25	-50.2	-69.2	3.8	8.46e-01	0	43	104	0	71	33275
2026-01-27 17:34:09.29	141.91	23.08	-50.1	-69.2	3.8	8.47e-01	0	43	104	0	71	33214
2026-01-27 17:34:10.00	141.59	23.00	-50.3	-69.2	3.8	8.47e-01	0	43	104	0	71	33290
2026-01-27 17:34:11.28	141.03	22.86	-50.1	-69.2	3.8	8.47e-01	0	43	104	0	71	33170
2026-01-27 17:34:11.99	140.72	22.78	-50.1	-69.2	3.8	8.47e-01	0	44	104	0	71	33182
2026-01-27 17:34:13.27	140.16	22.63	-50.1	-69.2	3.8	8.47e-01	0	43	104	0	71	33231
2026-01-27 17:34:13.98	139.86	22.55	-50.1	-69.2	3.8	8.47e-01	0	43	104	0	71	33254
2026-01-27 17:34:15.26	139.32	22.40	-50.1	-69.2	3.8	8.47e-01	0	43	104	0	71	33253
2026-01-27 17:34:15.98	139.01	22.32	-50.1	-69.2	3.8	8.47e-01	0	43	104	0	71	33259
2026-01-27 17:34:17.26	138.48	22.17	-50.3	-69.2	3.8	8.46e-01	0	43	104	0	71	33032
2026-01-27 17:34:17.97	138.18	22.09	-50.2	-69.2	3.8	8.47e-01	0	43	104	0	71	33235
2026-01-27 17:34:19.25	137.66	21.93	-50.3	-69.2	3.8	8.46e-01	0	43	104	0	71	33017
2026-01-27 17:34:20.09	137.32	21.83	-50.3	-69.2	3.8	8.46e-01	0	44	104	0	71	33047
2026-01-27 17:34:21.52	136.74	21.66	-50.3	-69.2	3.8	8.48e-01	0	43	104	0	71	32973
2026-01-27 17:34:22.23	136.46	21.58	-50.3	-69.2	3.8	8.47e-01	0	43	104	0	71	33064
2026-01-27 17:34:23.73	135.87	21.40	-50.3	-69.2	3.8	8.48e-01	0	43	104	0	71	33107
2026-01-27 17:34:24.45	135.59	21.31	-50.3	-69.2	3.8	8.48e-01	0	43	104	0	71	32958
2026-01-27 17:34:25.73	135.10	21.15	-50.3	-69.2	3.8	8.46e-01	0	43	104	0	71	33041
2026-01-27 17:34:26.44	134.82	21.07	-50.3	-69.2	3.8	8.46e-01	0	43	104	0	71	32982
2026-01-27 17:34:27.72	134.34	20.91	-50.3	-69.2	3.8	8.46e-01	0	43	104	0	71	32995
2026-01-27 17:34:28.43	134.07	20.82	-50.3	-69.2	3.8	8.47e-01	0	43	104	0	71	33061
2026-01-27 17:34:29.70	133.60	20.67	-50.2	-69.2	3.8	8.47e-01	0	43	104	0	71	33055
2026-01-27 17:34:30.43	133.33	20.58	-50.2	-69.2	3.8	8.47e-01	0	43	104	0	71	32976
2026-01-27 17:34:31.71	132.86	20.42	-50.2	-69.2	3.8	8.47e-01	0	43	104	0	71	32988
2026-01-27 17:34:32.42	132.61	20.33	-50.2	-69.2	3.8	8.46e-01	0	43	104	0	71	32966
2026-01-27 17:34:33.70	132.15	20.17	-50.3	-69.2	3.8	8.47e-01	0	43	104	0	71	33072
2026-01-27 17:34:34.50	131.87	20.08	-50.3	-69.2	3.8	8.47e-01	0	43	104	0	71	33080
2026-01-27 17:34:35.64	131.47	19.93	-50.3	-69.2	3.8	8.46e-01	0	43	104	0	71	32965
2026-01-27 17:34:36.49	131.17	19.83	-50.3	-69.2	3.8	8.46e-01	0	43	104	0	71	32930
2026-01-27 17:34:37.63	130.78	19.69	-50.3	-69.2	3.8	8.48e-01	0	43	104	0	71	32983
2026-01-27 17:34:38.48	130.49	19.58	-50.2	-69.2	3.8	8.45e-01	0	43	104	0	71	32959
2026-01-27 17:34:39.62	130.11	19.44	-50.2	-69.1	3.8	8.48e-01	0	43	104	0	71	32805
2026-01-27 17:34:40.47	129.82	19.33	-50.2	-69.2	3.8	8.48e-01	0	43	104	0	71	32973
2026-01-27 17:34:41.61	129.45	19.19	-50.2	-69.1	3.8	8.47e-01	0	43	104	0	71	32760
2026-01-27 17:34:42.46	129.17	19.09	-50.2	-69.1	3.8	8.47e-01	0	43	104	0	71	32833
2026-01-27 17:34:43.60	128.80	18.95	-50.3	-69.1	3.8	8.47e-01	0	43	104	0	71	32776
2026-01-27 17:34:44.45	128.53	18.84	-50.3	-69.1	3.8	8.47e-01	0	43	104	0	71	32795
2026-01-27 17:34:45.59	128.16	18.70	-50.3	-69.1	3.8	8.47e-01	0	43	104	0	71	32807
2026-01-27 17:34:46.44	127.90	18.59	-50.3	-69.1	3.8	8.47e-01	0	43	104	0	71	32809
2026-01-27 17:34:47.58	127.54	18.45	-50.3	-69.1	3.8	8.48e-01	0	43	104	0	71	32641
2026-01-27 17:34:48.43	127.28	18.35	-50.3	-69.0	3.8	8.47e-01	0	43	104	0	71	32427
2026-01-27 17:34:49.57	126.93	18.21	-50.3	-69.1	3.8	8.47e-01	0	43	104	0	71	32631
2026-01-27 17:34:50.42	126.67	18.10	-50.3	-69.1	3.8	8.46e-01	0	43	104	0	71	32594
2026-01-27 17:34:51.56	126.33	17.96	-50.3	-69.1	3.8	8.47e-01	0	43	104	0	71	32574
2026-01-27 17:34:52.41	126.08	17.86	-50.3	-69.1	3.8	8.47e-01	0	43	104	0	71	32680
2026-01-27 17:34:53.55	125.75	17.72	-50.2	-69.1	3.8	8.48e-01	0	44	104	0	71	32646
2026-01-27 17:34:54.40	125.50	17.62	-50.2	-69.1	3.8	8.47e-01	0	43	104	0	71	32625
2026-01-27 17:34:55.54	125.17	17.48	-50.2	-69.1	3.8	8.46e-01	0	44	104	0	71	32748
2026-01-27 17:34:56.39	124.93	17.37	-50.2	-69.1	3.8	8.46e-01	0	44	104	0	71	32709
2026-01-27 17:34:57.53	124.61	17.23	-50.2	-69.1	3.8	8.49e-01	0	43	104	0	71	32665
2026-01-27 17:34:58.38	124.37	17.13	-50.2	-69.1	3.8	8.49e-01	0	43	104	0	71	32656
2026-01-27 17:34:59.61	124.03	16.98	-50.2	-69.1	3.8	8.46e-01	0	43	104	0	71	32654
2026-01-27 17:35:00.46	123.80	16.88	-50.2	-69.1	3.8	8.46e-01	0	43	104	0	71	32569
2026-01-27 17:35:01.60	123.49	16.74	-50.2	-69.1	3.8	8.46e-01	0	43	104	0	71	32643
2026-01-27 17:35:02.45	123.27	16.64	-50.2	-69.1	3.8	8.46e-01	0	43	104	0	71	32580
2026-01-27 17:35:03.59	122.96	16.50	-50.3	-69.1	3.8	8.46e-01	0	43	104	0	71	32625
2026-01-27 17:35:04.44	122.74	16.40	-50.2	-69.0	3.8	8.46e-01	0	43	104	0	71	32548
2026-01-27 17:35:05.58	122.44	16.27	-50.2	-69.1	3.8	8.46e-01	0	43	104	0	71	32611
2026-01-27 17:35:06.43	122.23	16.17	-50.2	-69.1	3.8	8.47e-01	0	43	104	0	71	32570
2026-01-27 17:35:07.57	121.94	16.03	-50.2	-69.1	3.8	8.47e-01	0	43	104	0	71	32658
2026-01-27 17:35:08.42	121.72	15.93	-50.2	-69.1	3.8	8.47e-01	0	43	104	0	71	32590
2026-01-27 17:35:09.56	121.44	15.80	-50.1	-69.1	3.8	8.47e-01	0	43	104	0	71	32593
2026-01-27 17:35:10.41	121.23	15.70	-50.1	-69.0	3.8	8.46e-01	0	43	104	0	71	32482
2026-01-27 17:35:11.55	120.95	15.56	-50.1	-69.0	3.8	8.45e-01	0	43	104	0	71	32511
2026-01-27 17:35:12.40	120.74	15.46	-50.1	-69.1	3.8	8.45e-01	0	43	104	0	71	32603
2026-01-27 17:35:13.57	120.46	15.33	-50.2	-69.0	3.8	8.46e-01	0	43	104	0	71	32453
2026-01-27 17:35:14.42	120.26	15.23	-50.1	-69.0	3.8	8.47e-01	0	43	104	0	71	32504
2026-01-27 17:35:15.64	119.97	15.09	-50.2	-69.1	3.8	8.47e-01	0	43	104	0	71	32573
2026-01-27 17:35:16.49	119.78	14.99	-50.2	-69.0	3.8	8.48e-01	0	43	104	0	71	32501
2026-01-27 17:35:17.69	119.50	14.85	-50.2	-69.0	3.8	8.47e-01	0	43	104	0	71	32415
2026-01-27 17:35:18.54	119.30	14.76	-50.2	-69.0	3.8	8.47e-01	0	44	104	0	71	32414
2026-01-27 17:35:19.68	119.05	14.63	-50.2	-69.0	3.8	8.47e-01	0	43	104	0	71	32398
2026-01-27 17:35:20.53	118.86	14.53	-50.2	-69.0	3.8	8.46e-01	0	43	104	0	71	32400
2026-01-27 17:35:21.67	118.61	14.40	-50.1	-69.0	3.8	8.46e-01	0	44	104	0	71	32291
2026-01-27 17:35:22.52	118.42	14.31	-50.1	-69.0	3.8	8.46e-01	0	43	104	0	71	32352
2026-01-27 17:35:23.66	118.17	14.18	-50.1	-69.0	3.8	8.47e-01	0	43	104	0	71	32286
2026-01-27 17:35:24.62	117.97	14.07	-50.1	-68.9	3.8	8.47e-01	0	43	104	0	71	32160
2026-01-27 17:35:25.62	117.75	13.96	-50.1	-69.0	3.8	8.47e-01	0	43	104	0	71	32357
2026-01-27 17:35:26.83	117.50	13.83	-50.0	-69.0	3.8	8.47e-01	0	43	104	0	71	32222
2026-01-27 17:35:27.72	117.31	13.73	-50.0	-68.9	3.8	8.48e-01	0	43	104	0	71	32011
2026-01-27 17:35:29.03	117.04	13.59	-50.0	-68.9	3.8	8.47e-01	0	43	104	0	71	32102
2026-01-27 17:35:29.74	116.90	13.51	-50.0	-68.9	3.8	8.47e-01	0	43	104	0	71	31998
2026-01-27 17:35:31.23	116.60	13.35	-50.0	-68.9	3.8	8.47e-01	0	43	104	0	71	31926
2026-01-27 17:35:31.94	116.45	13.27	-50.0	-68.9	3.8	8.46e-01	0	43	104	0	71	32108
2026-01-27 17:35:33.27	116.19	13.13	-50.1	-68.9	3.8	8.46e-01	0	43	104	0	71	31925
2026-01-27 17:35:33.98	116.05	13.05	-50.0	-68.9	3.8	8.47e-01	0	44	104	0	71	31997
2026-01-27 17:35:35.27	115.80	12.91	-50.0	-68.9	3.8	8.48e-01	0	43	104	0	71	31849
2026-01-27 17:35:35.98	115.66	12.84	-50.0	-68.9	3.8	8.48e-01	0	43	104	0	71	31914
2026-01-27 17:35:37.26	115.42	12.70	-50.0	-68.8	3.8	8.46e-01	0	44	104	0	71	31762
2026-01-27 17:35:37.97	115.29	12.62	-50.0	-68.9	3.8	8.47e-01	0	43	104	0	71	31876
2026-01-27 17:35:39.25	115.05	12.49	-50.0	-68.8	3.8	8.47e-01	0	43	104	0	71	31784
2026-01-27 17:35:39.97	114.91	12.41	-50.1	-68.9	3.8	8.47e-01	0	44	104	0	71	32042
2026-01-27 17:35:41.25	114.68	12.28	-50.0	-68.9	3.8	8.48e-01	0	43	104	0	71	32101
2026-01-27 17:35:41.96	114.55	12.21	-50.0	-68.9	3.8	8.48e-01	0	43	104	0	71	31961
2026-01-27 17:35:43.24	114.32	12.07	-50.0	-68.9	3.8	8.48e-01	0	44	104	0	71	31980
2026-01-27 17:35:43.96	114.19	12.00	-50.0	-68.9	3.8	8.47e-01	0	43	104	0	71	32033
2026-01-27 17:35:45.24	113.97	11.87	-50.0	-68.9	3.8	8.47e-01	0	44	104	0	71	31915
2026-01-27 17:35:45.96	113.84	11.79	-50.0	-68.9	3.8	8.47e-01	0	43	104	0	71	31896
2026-01-27 17:35:47.24	113.62	11.66	-50.0	-68.9	3.8	8.48e-01	0	43	104	0	71	31915
2026-01-27 17:35:47.95	113.50	11.59	-50.0	-68.9	3.8	8.47e-01	0	43	104	0	71	31824
2026-01-27 17:35:49.26	113.27	11.46	-50.0	-68.9	3.8	8.47e-01	0	43	104	0	71	31832
2026-01-27 17:35:49.97	113.15	11.39	-50.0	-68.8	3.8	8.47e-01	0	43	104	0	71	31705
2026-01-27 17:35:51.25	112.94	11.26	-49.9	-68.8	3.8	8.47e-01	0	43	104	0	71	31607
2026-01-27 17:35:51.98	112.82	11.19	-50.0	-68.8	3.8	8.47e-01	0	43	104	0	71	31665
2026-01-27 17:35:53.26	112.61	11.06	-49.9	-68.8	3.8	8.48e-01	0	43	104	0	71	31770
2026-01-27 17:35:53.97	112.49	10.99	-49.9	-68.8	3.8	8.47e-01	0	43	104	0	71	31498
2026-01-27 17:35:55.25	112.29	10.86	-49.8	-68.8	3.8	8.47e-01	0	43	104	0	71	31624
2026-01-27 17:35:55.96	112.17	10.80	-49.9	-68.8	3.8	8.47e-01	0	43	104	0	71	31713
2026-01-27 17:35:57.24	111.97	10.67	-49.9	-68.8	3.8	8.46e-01	0	44	104	0	71	31658
2026-01-27 17:35:57.96	111.86	10.60	-49.9	-68.8	3.8	8.46e-01	0	43	104	0	71	31448
2026-01-27 17:35:59.24	111.66	10.48	-49.9	-68.7	3.8	8.47e-01	0	44	104	0	71	31413
2026-01-27 17:35:59.95	111.55	10.41	-49.9	-68.8	3.8	8.49e-01	0	43	104	0	71	31484
2026-01-27 17:36:01.23	111.35	10.29	-49.9	-68.7	3.8	8.47e-01	0	44	104	0	71	31422
2026-01-27 17:36:01.94	111.25	10.22	-49.9	-68.8	3.8	8.47e-01	0	44	104	0	71	31498
2026-01-27 17:36:03.22	111.05	10.10	-49.8	-68.7	3.8	8.47e-01	0	43	104	0	71	31313
2026-01-27 17:36:04.17	110.91	10.01	-49.9	-68.8	3.8	8.47e-01	0	44	104	0	71	31617
2026-01-27 17:36:05.46	110.72	9.88	-49.9	-68.7	3.8	8.47e-01	0	44	104	0	71	31386
2026-01-27 17:36:06.20	110.62	9.81	-49.8	-68.7	3.8	8.47e-01	0	44	104	0	71	31388
2026-01-27 17:36:07.48	110.43	9.70	-49.8	-68.7	3.8	8.48e-01	0	43	104	0	71	31399
2026-01-27 17:36:08.19	110.33	9.63	-49.8	-68.7	3.8	8.48e-01	0	44	104	0	71	31230
2026-01-27 17:36:09.85	110.09	9.48	-49.7	-68.7	3.8	8.47e-01	0	44	104	0	71	31189
2026-01-27 17:36:10.42	110.01	9.42	-49.7	-68.7	3.8	8.47e-01	0	43	104	0	71	31226
2026-01-27 17:36:12.12	109.78	9.27	-49.8	-68.7	3.8	8.46e-01	0	44	104	0	71	31301
2026-01-27 17:36:12.72	109.70	9.21	-49.8	-68.7	3.8	8.47e-01	0	43	104	0	71	31119
2026-01-27 17:36:14.29	109.48	9.07	-49.7	-68.7	3.8	8.47e-01	0	43	104	0	71	31133
2026-01-27 17:36:14.92	109.40	9.01	-49.6	-68.7	3.8	8.47e-01	0	43	104	0	71	31107
2026-01-27 17:36:16.45	109.19	8.88	-50.0	-68.9	3.8	8.47e-01	0	44	104	0	71	32128
2026-01-27 17:36:17.16	109.10	8.81	-50.1	-69.0	3.8	8.47e-01	0	44	104	0	71	32420
2026-01-27 17:36:18.43	108.93	8.70	-50.3	-69.2	3.8	8.47e-01	0	44	104	0	71	33056
2026-01-27 17:36:19.14	108.84	8.64	-50.3	-69.2	3.8	8.47e-01	0	44	104	0	71	33165
2026-01-27 17:36:20.48	108.67	8.52	-50.4	-69.3	3.8	8.47e-01	0	44	104	0	71	33444
2026-01-27 17:36:21.19	108.57	8.45	-50.4	-69.4	3.8	8.47e-01	0	43	104	0	71	33704
2026-01-27 17:36:22.55	108.40	8.33	-50.5	-69.4	3.8	8.48e-01	0	44	104	0	71	33980
2026-01-27 17:36:23.26	108.31	8.27	-50.2	-69.4	3.8	8.48e-01	0	44	104	0	71	33910
2026-01-27 17:36:24.60	108.15	8.16	-50.1	-69.5	3.8	8.47e-01	0	44	104	0	71	34202
2026-01-27 17:36:25.31	108.06	8.09	-50.4	-69.5	3.8	8.47e-01	0	43	104	0	71	34220
2026-01-27 17:36:26.65	107.89	7.98	-50.6	-69.5	3.8	8.47e-01	0	43	104	0	71	34373
2026-01-27 17:36:27.36	107.81	7.92	-50.6	-69.5	3.8	8.46e-01	0	44	104	0	71	34398
2026-01-27 17:36:28.70	107.65	7.80	-50.6	-69.5	3.8	8.46e-01	0	44	104	0	72	32417
2026-01-27 17:36:29.41	107.56	7.74	-50.5	-69.5	3.8	8.46e-01	0	44	104	0	72	32320
2026-01-27 17:36:30.76	107.40	7.63	-50.6	-69.5	3.8	8.47e-01	0	44	104	0	72	32494
2026-01-27 17:36:31.47	107.32	7.57	-50.6	-69.5	3.8	8.47e-01	0	43	104	0	72	32440
2026-01-27 17:36:32.80	107.16	7.46	-50.6	-69.5	3.8	8.46e-01	0	44	104	0	72	32417
2026-01-27 17:36:33.51	107.08	7.40	-50.6	-69.5	3.8	8.48e-01	0	43	104	0	72	32471
2026-01-27 17:36:34.85	106.93	7.29	-50.6	-69.5	3.8	8.46e-01	0	44	104	0	72	32506
2026-01-27 17:36:35.56	106.85	7.23	-50.6	-69.6	3.8	8.46e-01	0	44	104	0	72	32576
2026-01-27 17:36:36.83	106.70	7.12	-50.6	-69.6	3.8	8.46e-01	0	43	104	0	72	32658
2026-01-27 17:36:37.54	106.62	7.06	-50.7	-69.6	3.8	8.47e-01	0	44	104	0	72	32626
2026-01-27 17:36:38.82	106.48	6.96	-50.6	-69.6	3.8	8.47e-01	0	44	104	0	72	32785
2026-01-27 17:36:39.53	106.40	6.90	-50.6	-69.6	3.8	8.48e-01	0	44	104	0	72	32598
2026-01-27 17:36:40.81	106.26	6.80	-50.5	-69.6	3.8	8.46e-01	0	43	104	0	72	32701
2026-01-27 17:36:41.53	106.19	6.74	-50.5	-69.6	3.8	8.46e-01	0	44	104	0	72	32657
2026-01-27 17:36:42.81	106.05	6.63	-50.5	-69.6	3.8	8.47e-01	0	44	104	0	72	32759
2026-01-27 17:36:43.52	105.97	6.58	-50.5	-69.6	3.8	8.46e-01	0	43	104	0	72	32784
2026-01-27 17:36:44.79	105.84	6.47	-50.4	-69.6	3.8	8.45e-01	0	44	104	0	72	32719
2026-01-27 17:36:45.50	105.76	6.42	-50.5	-69.6	3.8	8.45e-01	0	43	104	0	72	32727
2026-01-27 17:36:46.78	105.63	6.32	-50.5	-69.6	3.8	8.47e-01	0	43	104	0	72	32696
2026-01-27 17:36:47.49	105.56	6.26	-50.6	-69.6	3.8	8.47e-01	0	43	104	0	72	32706
2026-01-27 17:36:48.77	105.43	6.16	-50.6	-69.6	3.8	8.48e-01	0	43	104	0	72	32725
2026-01-27 17:36:49.48	105.35	6.10	-50.6	-69.6	3.8	8.47e-01	0	44	104	0	72	32673
2026-01-27 17:36:50.79	105.22	6.00	-50.6	-69.5	3.8	8.45e-01	0	44	104	0	72	32456
2026-01-27 17:36:51.50	105.15	5.94	-50.5	-69.5	3.8	8.45e-01	0	44	104	0	72	32519
2026-01-27 17:36:52.85	105.02	5.84	-50.4	-69.5	3.8	8.48e-01	0	43	104	0	72	32458
2026-01-27 17:36:53.56	104.95	5.78	-50.2	-69.5	3.8	8.47e-01	0	43	104	0	72	32417
2026-01-27 17:36:54.84	104.82	5.68	-50.3	-69.4	3.8	8.47e-01	0	43	104	0	72	32125
2026-01-27 17:36:55.55	104.75	5.63	-50.3	-69.4	3.8	8.46e-01	0	44	104	0	72	31916
2026-01-27 17:36:56.83	104.63	5.53	-50.3	-69.3	3.8	8.47e-01	0	44	104	0	72	31660
2026-01-27 17:36:57.54	104.56	5.48	-50.2	-69.2	3.8	8.47e-01	0	44	104	0	72	31230
2026-01-27 17:36:58.81	104.44	5.38	-50.0	-68.7	3.8	8.48e-01	0	44	104	0	71	31134
2026-01-27 17:36:59.52	104.37	5.33	-50.0	-69.0	3.8	8.46e-01	0	43	104	0	71	32401
2026-01-27 17:37:00.80	104.25	5.23	-50.0	-69.0	3.8	8.46e-01	0	44	104	0	71	32354
2026-01-27 17:37:01.53	104.18	5.18	-50.0	-69.0	3.8	8.46e-01	0	43	104	0	71	32293
2026-01-27 17:37:02.80	104.07	5.08	-50.0	-69.0	3.8	8.47e-01	0	43	104	0	71	32366
2026-01-27 17:37:03.51	104.00	5.03	-49.9	-69.0	3.8	8.47e-01	0	43	104	0	71	32270
2026-01-27 17:37:04.79	103.89	4.93	-49.9	-69.0	3.8	8.46e-01	0	43	104	0	71	32197

#Closed at: 2026-01-27 17:37:05
#Recorded file [0 MB]: D:/Data/31040_260127_202929.dat