passes_logs/2026/01/27/T1/T1__20260127_090129_SUOMI_NPP_rec.log

#Pass ID: 20260127_090129_SUOMI NPP
#Satellite: SUOMI NPP
#Configuration: NPP
#almurnet v.1.7.20251203
#Start time: 2026-01-27 09:01:30

#Version: 2.0.20230620
#Station: T1
#Location: 37.570604 lon 55.790049 lat
#TLE: 1 37849U 11061A   26026.87508736  .00000176  00000+0  10464-3 0  9991
#TLE: 2 37849  98.7822 328.8221 0002127  43.3055 316.8288 14.19530452738397

#Time	Az	El	Level	Level2	SNR	BER	BlckErr	Temp	State	Recorded	gain1	gain2
2026-01-27 09:01:30.59	129.42	5.05	-49.6	-64.8	3.8	1.49e+00	0	39	0	0	71	19918
2026-01-27 09:01:31.58	129.37	5.12	-49.6	-64.7	3.8	1.49e+00	0	40	104	0	71	19751
2026-01-27 09:01:32.58	129.32	5.19	-49.6	-64.7	3.8	1.49e+00	0	40	104	0	71	19685
2026-01-27 09:01:33.58	129.27	5.26	-49.6	-64.7	3.8	1.49e+00	0	40	104	0	71	19658
2026-01-27 09:01:34.58	129.21	5.33	-49.6	-64.7	3.8	1.49e+00	0	40	104	0	71	19780
2026-01-27 09:01:35.58	129.16	5.39	-49.6	-64.7	3.8	1.49e+00	0	40	104	0	71	19731
2026-01-27 09:01:36.57	129.11	5.46	-49.6	-64.8	3.8	1.49e+00	0	39	104	0	71	19852
2026-01-27 09:01:37.57	129.06	5.53	-49.6	-64.8	3.8	1.49e+00	0	40	104	0	71	19848
2026-01-27 09:01:38.56	129.01	5.60	-49.6	-64.8	3.8	1.49e+00	0	40	104	0	71	19897
2026-01-27 09:01:39.56	128.96	5.67	-49.6	-64.8	3.8	1.49e+00	0	40	104	0	71	19873
2026-01-27 09:01:40.56	128.90	5.74	-49.6	-64.7	3.8	1.49e+00	0	40	104	0	71	19775
2026-01-27 09:01:41.56	128.85	5.81	-49.6	-64.7	3.8	1.49e+00	0	40	104	0	71	19749
2026-01-27 09:01:42.56	128.80	5.88	-49.6	-64.7	3.8	1.49e+00	0	40	104	0	71	19774
2026-01-27 09:01:43.56	128.74	5.95	-49.6	-64.7	3.8	1.49e+00	0	40	104	0	71	19627
2026-01-27 09:01:44.55	128.69	6.02	-49.6	-64.6	3.8	1.49e+00	0	40	104	0	71	19611
2026-01-27 09:01:45.55	128.63	6.09	-49.6	-64.6	3.8	1.49e+00	0	40	104	0	71	19572
2026-01-27 09:01:46.55	128.58	6.16	-49.6	-64.6	3.8	1.49e+00	0	40	104	0	71	19511
2026-01-27 09:01:47.55	128.53	6.23	-49.6	-64.6	3.8	1.49e+00	0	40	104	0	71	19589
2026-01-27 09:01:48.55	128.47	6.30	-49.6	-64.6	3.8	1.49e+00	0	40	104	0	71	19553
2026-01-27 09:01:49.55	128.41	6.37	-49.6	-64.6	3.8	1.49e+00	0	40	104	0	71	19530
2026-01-27 09:01:50.54	128.36	6.44	-49.6	-64.6	3.8	1.49e+00	0	40	104	0	71	19489
2026-01-27 09:01:51.55	128.30	6.51	-49.6	-64.6	3.8	1.49e+00	0	40	104	0	71	19442
2026-01-27 09:01:52.55	128.25	6.58	-49.6	-64.6	3.8	1.49e+00	0	40	104	0	71	19422
2026-01-27 09:01:53.55	128.19	6.65	-49.6	-64.6	3.8	1.49e+00	0	41	104	0	71	19422
2026-01-27 09:01:54.54	128.13	6.73	-49.6	-64.6	3.8	1.49e+00	0	40	104	0	71	19391
2026-01-27 09:01:55.54	128.08	6.80	-49.6	-64.5	3.8	1.49e+00	0	40	104	0	71	19339
2026-01-27 09:01:56.54	128.02	6.87	-49.6	-64.4	3.8	1.49e+00	0	40	104	0	71	19138
2026-01-27 09:01:57.54	127.96	6.94	-49.6	-64.4	3.8	1.49e+00	0	40	104	0	71	18999
2026-01-27 09:01:58.54	127.90	7.01	-49.6	-64.3	3.8	1.49e+00	0	40	104	0	71	18791
2026-01-27 09:01:59.53	127.85	7.09	-49.6	-64.1	3.8	1.49e+00	0	40	104	0	71	18510
2026-01-27 09:02:00.53	127.79	7.16	-49.6	-64.2	3.8	1.49e+00	0	40	104	0	71	18604
2026-01-27 09:02:01.52	127.73	7.23	-49.6	-64.3	3.8	1.49e+00	0	40	104	0	71	18850
2026-01-27 09:02:02.52	127.67	7.30	-49.6	-64.4	3.8	1.49e+00	0	40	104	0	71	19049
2026-01-27 09:02:03.52	127.61	7.38	-49.6	-64.4	3.8	1.49e+00	0	40	104	0	71	19057
2026-01-27 09:02:04.52	127.55	7.45	-49.6	-64.2	3.8	1.49e+00	0	41	104	0	71	18535
2026-01-27 09:02:05.52	127.49	7.52	-49.5	-63.3	3.8	1.49e+00	0	41	104	0	71	16874
2026-01-27 09:02:06.52	127.43	7.60	-49.4	-61.9	4.0	1.49e+00	0	40	104	0	70	15136
2026-01-27 09:02:07.52	127.37	7.67	-49.2	-59.9	4.6	1.35e+00	0	40	0	0	70	12034
2026-01-27 09:02:08.51	127.31	7.75	-48.9	-57.6	6.1	5.97e-01	0	40	0	2097152	69	9760
2026-01-27 09:02:09.51	127.25	7.82	-48.2	-55.0	8.4	8.02e-02	0	40	0	4194304	68	7650
2026-01-27 09:02:10.51	127.19	7.89	-47.2	-52.2	11.2	7.62e-03	0	41	0	5242880	66	6230
2026-01-27 09:02:11.51	127.12	7.97	-46.2	-50.3	13.1	3.82e-04	0	41	0	7340032	64	5616
2026-01-27 09:02:12.51	127.06	8.04	-45.4	-48.8	14.6	9.90e-06	0	40	0	9437184	62	5336
2026-01-27 09:02:13.50	127.00	8.12	-44.8	-47.8	15.6	0.00e+00	0	41	0	11534336	61	5037
2026-01-27 09:02:14.50	126.94	8.19	-44.4	-47.4	16.1	0.00e+00	0	40	0	13631488	60	5060
2026-01-27 09:02:15.50	126.87	8.27	-44.2	-47.1	16.3	0.00e+00	0	41	0	14680064	60	4876
2026-01-27 09:02:16.49	126.81	8.34	-44.5	-47.6	15.8	0.00e+00	0	41	0	16777216	60	5165
2026-01-27 09:02:17.49	126.75	8.42	-45.0	-48.4	15.1	0.00e+00	0	41	0	18874368	60	5676
2026-01-27 09:02:18.49	126.68	8.50	-45.7	-49.4	14.0	7.00e-07	0	41	0	20971520	61	6046
2026-01-27 09:02:19.49	126.62	8.57	-46.5	-51.0	12.5	2.13e-05	0	41	0	23068672	63	6429
2026-01-27 09:02:20.49	126.55	8.65	-47.2	-52.6	10.7	1.59e-03	0	41	0	24117248	65	6892
2026-01-27 09:02:21.49	126.49	8.73	-47.8	-54.2	9.2	7.80e-03	0	41	0	26214400	66	7813
2026-01-27 09:02:22.48	126.42	8.80	-48.3	-56.0	7.4	5.23e-02	0	41	0	28311552	67	9123
2026-01-27 09:02:23.48	126.36	8.88	-48.7	-57.3	6.1	2.72e-01	0	41	0	30408704	67	10646
2026-01-27 09:02:24.48	126.29	8.96	-49.1	-59.0	5.2	4.93e-01	0	41	0	31457280	68	12119
2026-01-27 09:02:25.48	126.22	9.03	-49.3	-60.7	4.4	8.79e-01	0	41	0	33554432	69	13916
2026-01-27 09:02:26.47	126.16	9.11	-49.3	-60.9	4.3	1.40e+00	0	41	0	33554432	69	14363
2026-01-27 09:02:27.47	126.09	9.19	-49.2	-59.6	4.8	8.55e-01	0	41	0	35651584	69	12256
2026-01-27 09:02:28.47	126.02	9.27	-49.3	-59.9	4.7	7.46e-01	0	41	0	37748736	69	12669
2026-01-27 09:02:29.47	125.95	9.34	-48.7	-56.6	6.4	1.48e+00	0	41	0	37748736	69	8747
2026-01-27 09:02:30.47	125.88	9.42	-48.4	-55.7	8.1	7.84e-03	0	41	0	38797312	67	8818
2026-01-27 09:02:31.47	125.81	9.50	-49.4	-61.5	4.0	1.49e+00	0	41	104	39845888	69	15300
2026-01-27 09:02:32.47	125.74	9.58	-47.2	-52.3	11.1	2.03e-03	0	41	0	40894464	66	6347
2026-01-27 09:02:33.47	125.67	9.66	-47.6	-53.2	10.2	3.26e-03	0	41	0	42991616	66	6985
2026-01-27 09:02:34.47	125.60	9.74	-47.8	-53.8	9.6	1.18e-02	0	41	0	44040192	66	7517
2026-01-27 09:02:35.46	125.53	9.82	-48.1	-54.9	8.6	3.21e-02	0	41	0	46137344	66	8477
2026-01-27 09:02:36.46	125.46	9.90	-48.2	-55.4	8.1	5.36e-02	0	41	0	48234496	67	8472
2026-01-27 09:02:37.46	125.39	9.98	-48.1	-55.0	8.3	4.09e-02	0	41	0	50331648	67	8134
2026-01-27 09:02:38.46	125.32	10.06	-47.6	-53.3	10.0	1.42e-02	0	41	0	52428800	67	6719
2026-01-27 09:02:39.45	125.25	10.14	-46.7	-51.3	12.0	1.63e-03	0	41	0	53477376	65	5987
2026-01-27 09:02:40.45	125.18	10.22	-46.3	-50.3	13.2	4.88e-05	0	41	0	55574528	64	5655
2026-01-27 09:02:41.45	125.10	10.30	-46.1	-50.0	13.6	9.90e-06	0	41	0	57671680	63	5750
2026-01-27 09:02:42.45	125.03	10.38	-45.5	-49.0	14.6	3.00e-06	0	41	0	59768832	62	5411
2026-01-27 09:02:43.45	124.95	10.46	-45.3	-48.7	14.9	0.00e+00	0	41	0	61865984	62	5225
2026-01-27 09:02:44.45	124.88	10.54	-45.2	-48.5	15.1	0.00e+00	0	41	0	62914560	62	5151
2026-01-27 09:02:45.45	124.81	10.62	-45.5	-48.9	14.7	7.00e-07	0	41	0	65011712	62	5370
2026-01-27 09:02:46.45	124.73	10.71	-46.0	-49.8	13.9	7.00e-07	0	41	0	67108864	62	5942
2026-01-27 09:02:47.45	124.65	10.79	-46.2	-50.3	13.3	2.20e-06	0	41	0	69206016	63	5938
2026-01-27 09:02:48.45	124.58	10.87	-46.6	-51.0	12.5	6.86e-05	0	41	0	71303168	63	6477
2026-01-27 09:02:49.45	124.50	10.95	-46.9	-51.8	11.8	3.91e-04	0	41	0	72351744	64	6694
2026-01-27 09:02:50.45	124.42	11.04	-46.6	-51.1	12.6	4.56e-04	0	41	0	74448896	64	6155
2026-01-27 09:02:51.45	124.35	11.12	-46.1	-50.2	13.4	4.04e-05	0	41	0	76546048	64	5584
2026-01-27 09:02:52.44	124.27	11.20	-45.8	-49.5	14.1	2.20e-06	0	41	0	78643200	63	5449
2026-01-27 09:02:53.44	124.19	11.29	-45.5	-48.8	14.8	1.50e-06	0	41	0	79691776	62	5332
2026-01-27 09:02:54.44	124.11	11.37	-44.9	-47.9	15.7	0.00e+00	0	41	0	81788928	61	5092
2026-01-27 09:02:55.44	124.03	11.45	-44.4	-47.3	16.4	0.00e+00	0	41	0	83886080	60	4989
2026-01-27 09:02:56.44	123.95	11.54	-44.4	-47.3	16.3	0.00e+00	0	41	0	85983232	60	5023
2026-01-27 09:02:57.44	123.87	11.62	-44.6	-47.6	16.0	0.00e+00	0	41	0	88080384	60	5211
2026-01-27 09:02:58.43	123.79	11.71	-45.0	-48.3	15.4	0.00e+00	0	41	0	89128960	60	5595
2026-01-27 09:02:59.43	123.71	11.79	-45.7	-49.4	14.3	0.00e+00	0	41	0	91226112	62	5672
2026-01-27 09:03:00.43	123.63	11.88	-45.9	-49.7	14.1	2.20e-06	0	41	0	93323264	62	5872
2026-01-27 09:03:01.43	123.55	11.96	-45.4	-48.9	14.8	0.00e+00	0	41	0	95420416	62	5373
2026-01-27 09:03:02.43	123.47	12.05	-44.9	-48.1	15.6	0.00e+00	0	41	0	96468992	61	5183
2026-01-27 09:03:03.43	123.38	12.13	-44.4	-47.2	16.5	0.00e+00	0	41	0	98566144	60	4964
2026-01-27 09:03:04.43	123.30	12.22	-44.1	-46.8	16.8	0.00e+00	0	41	0	100663296	60	4758
2026-01-27 09:03:05.43	123.21	12.31	-43.5	-46.0	17.5	0.00e+00	0	41	0	102760448	59	4567
2026-01-27 09:03:06.43	123.13	12.39	-43.3	-45.7	17.8	0.00e+00	0	41	0	104857600	58	4690
2026-01-27 09:03:07.43	123.04	12.48	-43.7	-46.3	17.3	0.00e+00	0	41	0	105906176	58	5026
2026-01-27 09:03:08.43	122.96	12.57	-44.1	-46.9	16.7	0.00e+00	0	41	0	108003328	59	5060
2026-01-27 09:03:09.43	122.87	12.65	-44.6	-47.5	16.1	0.00e+00	0	41	0	110100480	59	5458
2026-01-27 09:03:10.43	122.79	12.74	-45.1	-48.4	15.4	0.00e+00	0	41	0	112197632	60	5676
2026-01-27 09:03:11.42	122.70	12.83	-45.0	-48.2	15.5	0.00e+00	0	41	0	114294784	61	5274
2026-01-27 09:03:12.42	122.61	12.92	-44.7	-47.7	16.0	0.00e+00	0	41	0	115343360	61	4961
2026-01-27 09:03:13.41	122.52	13.00	-44.3	-47.2	16.5	0.00e+00	0	41	0	117440512	60	4941
2026-01-27 09:03:14.41	122.43	13.09	-43.6	-46.2	17.4	0.00e+00	0	41	0	119537664	59	4659
2026-01-27 09:03:15.41	122.35	13.18	-43.2	-45.7	17.9	0.00e+00	0	41	0	121634816	58	4672
2026-01-27 09:03:16.40	122.26	13.27	-43.4	-45.9	17.7	0.00e+00	0	41	0	122683392	58	4788
2026-01-27 09:03:17.40	122.17	13.36	-43.5	-46.0	17.6	0.00e+00	0	41	0	124780544	58	4854
2026-01-27 09:03:18.40	122.07	13.45	-44.1	-46.9	16.8	0.00e+00	0	41	0	126877696	58	5357
2026-01-27 09:03:19.39	121.98	13.54	-44.6	-47.6	16.1	0.00e+00	0	41	0	128974848	59	5519
2026-01-27 09:03:20.40	121.89	13.63	-45.1	-48.4	15.4	0.00e+00	0	41	0	131072000	60	5694
2026-01-27 09:03:21.40	121.80	13.72	-45.1	-48.4	15.4	0.00e+00	0	41	0	132120576	61	5394
2026-01-27 09:03:22.39	121.70	13.81	-44.8	-48.0	15.8	0.00e+00	0	41	0	134217728	61	5129
2026-01-27 09:03:23.39	121.61	13.90	-44.3	-47.2	16.6	0.00e+00	0	41	0	136314880	60	4953
2026-01-27 09:03:24.39	121.52	13.99	-43.8	-46.4	17.3	0.00e+00	0	41	0	138412032	59	4766
2026-01-27 09:03:25.39	121.42	14.08	-43.4	-45.8	17.8	0.00e+00	0	41	0	140509184	58	4757
2026-01-27 09:03:26.40	121.32	14.18	-43.6	-46.1	17.6	0.00e+00	0	41	0	141557760	58	4892
2026-01-27 09:03:27.39	121.23	14.27	-44.1	-46.8	16.9	0.00e+00	0	41	0	143654912	58	5284
2026-01-27 09:03:28.39	121.13	14.36	-44.4	-47.3	16.4	0.00e+00	0	41	0	145752064	59	5292
2026-01-27 09:03:29.39	121.03	14.45	-44.8	-47.9	15.9	0.00e+00	0	41	0	147849216	60	5363
2026-01-27 09:03:30.39	120.94	14.55	-44.9	-48.0	15.8	0.00e+00	0	41	0	149946368	60	5459
2026-01-27 09:03:31.38	120.84	14.64	-44.7	-47.8	16.0	0.00e+00	0	41	0	150994944	60	5303
2026-01-27 09:03:32.38	120.74	14.73	-44.5	-47.5	16.3	0.00e+00	0	41	0	153092096	60	5119
2026-01-27 09:03:33.38	120.64	14.82	-44.0	-46.8	17.0	0.00e+00	0	41	0	155189248	60	4718
2026-01-27 09:03:34.38	120.54	14.92	-43.8	-46.5	17.2	0.00e+00	0	41	0	157286400	59	4821
2026-01-27 09:03:35.38	120.44	15.01	-43.9	-46.6	17.1	0.00e+00	0	41	0	158334976	59	4898
2026-01-27 09:03:36.38	120.33	15.11	-43.8	-46.4	17.4	0.00e+00	0	41	0	160432128	59	4770
2026-01-27 09:03:37.38	120.23	15.20	-43.9	-46.6	17.2	0.00e+00	0	41	0	162529280	59	4875
2026-01-27 09:03:38.38	120.13	15.30	-44.2	-47.0	16.8	0.00e+00	0	41	0	164626432	59	5101
2026-01-27 09:03:39.38	120.02	15.39	-44.0	-46.7	17.0	0.00e+00	0	41	0	166723584	59	4976
2026-01-27 09:03:40.38	119.92	15.49	-43.8	-46.4	17.3	0.00e+00	0	41	0	167772160	59	4767
2026-01-27 09:03:41.38	119.81	15.58	-43.4	-45.8	17.8	0.00e+00	0	41	0	169869312	58	4737
2026-01-27 09:03:42.38	119.71	15.68	-43.3	-45.7	18.0	0.00e+00	0	41	0	171966464	58	4700
2026-01-27 09:03:43.37	119.60	15.77	-43.2	-45.6	18.1	0.00e+00	0	41	0	174063616	58	4599
2026-01-27 09:03:44.37	119.49	15.87	-43.3	-45.8	17.9	0.00e+00	0	41	0	175112192	58	4748
2026-01-27 09:03:45.37	119.38	15.97	-43.6	-46.2	17.5	0.00e+00	0	41	0	177209344	58	4973
2026-01-27 09:03:46.37	119.28	16.07	-43.8	-46.4	17.3	0.00e+00	0	41	0	179306496	58	5094
2026-01-27 09:03:47.37	119.17	16.16	-43.7	-46.2	17.5	0.00e+00	0	41	0	181403648	58	4983
2026-01-27 09:03:48.37	119.06	16.26	-43.3	-45.8	17.9	0.00e+00	0	41	0	183500800	58	4710
2026-01-27 09:03:49.37	118.94	16.36	-42.8	-45.1	18.5	0.00e+00	0	41	0	184549376	57	4604
2026-01-27 09:03:50.37	118.83	16.46	-42.7	-45.0	18.7	0.00e+00	0	41	0	186646528	57	4562
2026-01-27 09:03:51.38	118.72	16.56	-42.8	-45.1	18.5	0.00e+00	0	41	0	188743680	57	4629
2026-01-27 09:03:52.38	118.60	16.66	-43.1	-45.4	18.2	0.00e+00	0	41	0	190840832	57	4812
2026-01-27 09:03:53.38	118.49	16.76	-43.4	-45.9	17.8	0.00e+00	0	41	0	192937984	57	5093
2026-01-27 09:03:54.38	118.38	16.85	-43.9	-46.6	17.2	0.00e+00	0	41	0	193986560	58	5191
2026-01-27 09:03:55.38	118.26	16.95	-44.0	-46.7	17.1	0.00e+00	0	41	0	196083712	58	5268
2026-01-27 09:03:56.38	118.14	17.05	-43.9	-46.6	17.1	0.00e+00	0	41	0	198180864	58	5206
2026-01-27 09:03:57.37	118.03	17.15	-43.6	-46.2	17.5	0.00e+00	0	41	0	200278016	58	4946
2026-01-27 09:03:58.37	117.91	17.25	-43.5	-46.0	17.8	0.00e+00	0	41	0	202375168	58	4829
2026-01-27 09:03:59.37	117.79	17.36	-43.5	-46.0	17.7	0.00e+00	0	41	0	203423744	58	4868
2026-01-27 09:04:00.37	117.67	17.46	-43.7	-46.3	17.5	0.00e+00	0	41	0	205520896	58	5020
2026-01-27 09:04:01.37	117.55	17.56	-43.9	-46.6	17.2	0.00e+00	0	41	0	207618048	58	5199
2026-01-27 09:04:02.37	117.43	17.66	-44.4	-47.3	16.6	0.00e+00	0	41	0	209715200	59	5280
2026-01-27 09:04:03.37	117.31	17.76	-44.2	-47.0	16.8	0.00e+00	0	41	0	210763776	59	5126
2026-01-27 09:04:04.36	117.18	17.86	-43.7	-46.3	17.4	0.00e+00	0	41	0	212860928	59	4759
2026-01-27 09:04:05.36	117.06	17.97	-43.4	-45.9	17.8	0.00e+00	0	41	0	214958080	58	4779
2026-01-27 09:04:06.35	116.94	18.07	-43.3	-45.8	17.9	0.00e+00	0	41	0	217055232	58	4723
2026-01-27 09:04:07.35	116.81	18.17	-43.4	-45.9	17.8	0.00e+00	0	41	0	219152384	58	4804
2026-01-27 09:04:08.35	116.68	18.28	-43.5	-46.0	17.7	0.00e+00	0	41	0	220200960	58	4862
2026-01-27 09:04:09.35	116.56	18.38	-43.8	-46.5	17.3	0.00e+00	0	41	0	222298112	58	5107
2026-01-27 09:04:10.34	116.43	18.48	-44.0	-46.8	17.0	0.00e+00	0	41	0	224395264	58	5293
2026-01-27 09:04:11.34	116.30	18.59	-43.9	-46.5	17.3	0.00e+00	0	41	0	226492416	58	5150
2026-01-27 09:04:12.34	116.17	18.69	-43.6	-46.2	17.6	0.00e+00	0	41	0	228589568	58	4932
2026-01-27 09:04:13.34	116.04	18.80	-43.7	-46.3	17.5	0.00e+00	0	41	0	229638144	58	4997
2026-01-27 09:04:14.33	115.91	18.90	-43.8	-46.5	17.3	0.00e+00	0	41	0	231735296	58	5124
2026-01-27 09:04:15.33	115.78	19.01	-44.1	-46.9	16.9	0.00e+00	0	41	0	233832448	58	5368
2026-01-27 09:04:16.33	115.64	19.11	-44.5	-47.4	16.4	0.00e+00	0	41	0	235929600	59	5369
2026-01-27 09:04:17.33	115.51	19.22	-44.4	-47.2	16.6	0.00e+00	0	41	0	236978176	59	5257
2026-01-27 09:04:18.33	115.37	19.32	-44.4	-47.2	16.6	0.00e+00	0	41	0	239075328	59	5269
2026-01-27 09:04:19.33	115.23	19.43	-43.9	-46.5	17.3	0.00e+00	0	41	0	241172480	59	4817
2026-01-27 09:04:20.33	115.10	19.54	-43.8	-46.3	17.4	0.00e+00	0	41	0	243269632	59	4757
2026-01-27 09:04:21.33	114.96	19.65	-44.1	-46.8	17.0	0.00e+00	0	41	0	245366784	59	5034
2026-01-27 09:04:22.33	114.82	19.75	-44.4	-47.3	16.6	0.00e+00	0	41	0	246415360	59	5321
2026-01-27 09:04:23.33	114.68	19.86	-44.8	-47.8	16.1	0.00e+00	0	41	0	248512512	60	5315
2026-01-27 09:04:24.33	114.54	19.97	-44.9	-48.0	15.9	0.00e+00	0	41	0	250609664	61	5124
2026-01-27 09:04:25.33	114.39	20.08	-44.4	-47.2	16.6	0.00e+00	0	41	0	252706816	60	4978
2026-01-27 09:04:26.33	114.25	20.19	-44.4	-47.2	16.6	0.00e+00	0	41	0	253755392	60	4952
2026-01-27 09:04:27.33	114.10	20.29	-43.6	-46.1	17.6	0.00e+00	0	41	0	255852544	59	4642
2026-01-27 09:04:28.32	113.96	20.40	-43.8	-46.4	17.3	0.00e+00	0	41	0	257949696	59	4803
2026-01-27 09:04:29.32	113.81	20.51	-44.2	-47.0	16.9	0.00e+00	0	41	0	260046848	59	5108
2026-01-27 09:04:30.31	113.67	20.62	-44.6	-47.6	16.4	0.00e+00	0	41	0	262144000	60	5185
2026-01-27 09:04:31.29	113.52	20.73	-44.8	-47.9	16.0	0.00e+00	0	41	0	263192576	60	5369
2026-01-27 09:04:32.28	113.37	20.84	-44.6	-47.6	16.3	0.00e+00	0	41	0	265289728	61	4886
2026-01-27 09:04:33.26	113.22	20.95	-44.2	-46.9	16.9	0.00e+00	0	41	0	267386880	60	4800
2026-01-27 09:04:34.26	113.07	21.06	-44.3	-47.1	16.8	0.00e+00	0	41	0	269484032	59	5189
2026-01-27 09:04:35.24	112.92	21.17	-43.9	-46.6	17.2	0.00e+00	0	41	0	270532608	59	4916
2026-01-27 09:04:36.24	112.77	21.28	-44.0	-46.8	17.1	0.00e+00	0	41	0	272629760	59	4998
2026-01-27 09:04:37.23	112.61	21.39	-44.4	-47.3	16.6	0.00e+00	0	41	0	274726912	59	5288
2026-01-27 09:04:38.22	112.46	21.50	-44.1	-46.9	16.9	0.00e+00	0	41	0	276824064	59	5073
2026-01-27 09:04:39.21	112.30	21.61	-44.1	-46.9	16.9	0.00e+00	0	41	0	278921216	59	5088
2026-01-27 09:04:40.20	112.15	21.72	-44.0	-46.8	17.0	0.00e+00	0	41	0	279969792	59	5012
2026-01-27 09:04:41.19	111.99	21.83	-43.7	-46.3	17.4	0.00e+00	0	41	0	282066944	59	4755
2026-01-27 09:04:42.18	111.83	21.95	-43.7	-46.4	17.4	0.00e+00	0	41	0	284164096	59	4760
2026-01-27 09:04:43.18	111.66	22.06	-43.4	-45.9	17.8	0.00e+00	0	41	0	286261248	58	4794
2026-01-27 09:04:44.17	111.50	22.17	-43.1	-45.6	18.2	0.00e+00	0	41	0	287309824	58	4602
2026-01-27 09:04:45.17	111.34	22.28	-43.5	-46.1	17.7	0.00e+00	0	41	0	289406976	58	4878
2026-01-27 09:04:46.17	111.17	22.40	-43.6	-46.2	17.5	0.00e+00	0	41	0	291504128	58	4976
2026-01-27 09:04:47.17	111.00	22.51	-44.0	-46.6	17.2	0.00e+00	0	41	0	293601280	58	5216
2026-01-27 09:04:48.16	110.84	22.63	-43.8	-46.4	17.4	0.00e+00	0	41	0	295698432	59	4770
2026-01-27 09:04:49.16	110.67	22.74	-43.7	-46.3	17.5	0.00e+00	0	41	0	296747008	59	4726
2026-01-27 09:04:50.16	110.50	22.86	-43.6	-46.1	17.6	0.00e+00	0	41	0	298844160	59	4618
2026-01-27 09:04:51.16	110.32	22.97	-43.6	-46.1	17.7	0.00e+00	0	41	0	300941312	58	4887
2026-01-27 09:04:52.15	110.15	23.09	-43.7	-46.3	17.5	0.00e+00	0	41	0	303038464	58	4998
2026-01-27 09:04:53.15	109.98	23.20	-44.2	-46.9	16.9	0.00e+00	0	41	0	305135616	59	5090
2026-01-27 09:04:54.15	109.80	23.32	-44.4	-47.2	16.6	0.00e+00	0	41	0	306184192	59	5262
2026-01-27 09:04:55.15	109.62	23.43	-44.5	-47.3	16.5	0.00e+00	0	41	0	308281344	59	5337
2026-01-27 09:04:56.15	109.44	23.55	-44.2	-46.9	17.0	0.00e+00	0	41	0	310378496	60	4814
2026-01-27 09:04:57.14	109.27	23.67	-44.2	-46.9	17.0	0.00e+00	0	41	0	312475648	59	5081
2026-01-27 09:04:58.13	109.09	23.78	-44.3	-47.1	16.8	0.00e+00	0	41	0	313524224	59	5162
2026-01-27 09:04:59.13	108.90	23.90	-44.7	-47.6	16.3	0.00e+00	0	41	0	315621376	59	5479
2026-01-27 09:05:00.13	108.72	24.02	-45.0	-48.0	15.9	0.00e+00	0	41	0	317718528	60	5463
2026-01-27 09:05:01.12	108.54	24.13	-45.4	-48.6	15.3	0.00e+00	0	41	0	319815680	61	5526
2026-01-27 09:05:02.12	108.35	24.25	-45.1	-48.2	15.7	0.00e+00	0	41	0	321912832	61	5249
2026-01-27 09:05:03.12	108.16	24.37	-44.8	-47.8	16.1	0.00e+00	0	41	0	322961408	61	5010
2026-01-27 09:05:04.12	107.97	24.48	-44.9	-47.9	16.1	0.00e+00	0	41	0	325058560	61	5095
2026-01-27 09:05:05.11	107.78	24.60	-45.2	-48.4	15.5	0.00e+00	0	41	0	327155712	61	5388
2026-01-27 09:05:06.11	107.59	24.72	-45.7	-49.1	14.7	0.00e+00	0	41	0	329252864	62	5524
2026-01-27 09:05:07.11	107.39	24.84	-45.6	-49.1	14.8	0.00e+00	0	41	0	330301440	62	5501
2026-01-27 09:05:08.10	107.20	24.96	-45.1	-48.3	15.7	0.00e+00	0	41	0	332398592	62	4989
2026-01-27 09:05:09.10	107.00	25.08	-45.0	-48.1	15.9	0.00e+00	0	41	0	334495744	61	5198
2026-01-27 09:05:10.10	106.80	25.19	-45.1	-48.3	15.7	0.00e+00	0	41	0	336592896	61	5310
2026-01-27 09:05:11.09	106.60	25.31	-45.1	-48.2	15.7	0.00e+00	0	41	0	338690048	61	5273
2026-01-27 09:05:12.09	106.40	25.43	-45.3	-48.6	15.4	0.00e+00	0	41	0	339738624	61	5486
2026-01-27 09:05:13.09	106.20	25.55	-45.2	-48.5	15.5	0.00e+00	0	41	0	341835776	61	5405
2026-01-27 09:05:14.08	106.00	25.67	-44.9	-48.0	16.0	0.00e+00	0	41	0	343932928	61	5138
2026-01-27 09:05:15.08	105.79	25.79	-45.1	-48.3	15.7	0.00e+00	0	41	0	346030080	61	5303
2026-01-27 09:05:16.08	105.58	25.91	-45.2	-48.5	15.6	0.00e+00	0	41	0	347078656	61	5407
2026-01-27 09:05:17.07	105.37	26.03	-45.1	-48.2	15.7	0.00e+00	0	41	0	349175808	61	5248
2026-01-27 09:05:18.07	105.16	26.15	-44.9	-47.9	16.1	0.00e+00	0	41	0	351272960	61	5056
2026-01-27 09:05:19.07	104.95	26.27	-44.8	-47.7	16.2	0.00e+00	0	41	0	353370112	61	4976
2026-01-27 09:05:20.06	104.74	26.39	-44.6	-47.5	16.5	0.00e+00	0	41	0	355467264	61	4822
2026-01-27 09:05:21.06	104.52	26.51	-44.8	-47.8	16.2	0.00e+00	0	41	0	356515840	61	5005
2026-01-27 09:05:22.06	104.30	26.63	-44.6	-47.5	16.5	0.00e+00	0	41	0	358612992	60	5109
2026-01-27 09:05:23.05	104.09	26.75	-44.5	-47.4	16.6	0.00e+00	0	41	0	360710144	60	5057
2026-01-27 09:05:24.05	103.87	26.87	-44.6	-47.6	16.4	0.00e+00	0	41	0	362807296	60	5161
2026-01-27 09:05:25.05	103.64	26.99	-44.3	-47.1	16.8	0.00e+00	0	41	0	364904448	60	4882
2026-01-27 09:05:26.05	103.42	27.11	-44.5	-47.3	16.6	0.00e+00	0	41	0	365953024	60	5039
2026-01-27 09:05:27.04	103.19	27.23	-44.6	-47.5	16.4	0.00e+00	0	41	0	368050176	60	5154
2026-01-27 09:05:28.04	102.97	27.35	-44.8	-47.8	16.1	0.00e+00	0	41	0	370147328	60	5317
2026-01-27 09:05:29.03	102.74	27.47	-44.9	-47.9	16.1	0.00e+00	0	41	0	372244480	60	5396
2026-01-27 09:05:30.03	102.51	27.59	-44.6	-47.6	16.4	0.00e+00	0	41	0	373293056	60	5176
2026-01-27 09:05:31.02	102.28	27.71	-44.7	-47.6	16.3	0.00e+00	0	41	0	375390208	60	5184
2026-01-27 09:05:32.02	102.04	27.83	-44.7	-47.7	16.3	0.00e+00	0	41	0	377487360	60	5237
2026-01-27 09:05:33.02	101.81	27.95	-44.5	-47.3	16.6	0.00e+00	0	41	0	379584512	60	5020
2026-01-27 09:05:34.01	101.57	28.07	-44.6	-47.6	16.4	0.00e+00	0	41	0	381681664	60	5175
2026-01-27 09:05:35.01	101.33	28.19	-44.6	-47.5	16.5	0.00e+00	0	41	0	382730240	60	5118
2026-01-27 09:05:36.01	101.09	28.31	-44.6	-47.5	16.5	0.00e+00	0	41	0	384827392	60	5117
2026-01-27 09:05:37.01	100.84	28.43	-44.5	-47.3	16.6	0.00e+00	0	41	0	386924544	60	5028
2026-01-27 09:05:38.00	100.60	28.55	-44.7	-47.8	16.2	0.00e+00	0	41	0	389021696	60	5283
2026-01-27 09:05:39.00	100.35	28.67	-45.2	-48.5	15.5	0.00e+00	0	41	0	390070272	61	5429
2026-01-27 09:05:40.00	100.10	28.79	-45.1	-48.2	15.8	0.00e+00	0	41	0	392167424	61	5266
2026-01-27 09:05:40.99	99.85	28.91	-45.0	-48.0	16.0	0.00e+00	0	41	0	394264576	61	5157
2026-01-27 09:05:41.99	99.60	29.03	-44.8	-47.8	16.1	0.00e+00	0	41	0	396361728	61	5022
2026-01-27 09:05:42.99	99.34	29.15	-44.9	-47.8	16.1	0.00e+00	0	41	0	398458880	61	5034
2026-01-27 09:05:43.99	99.09	29.27	-45.2	-48.4	15.6	0.00e+00	0	41	0	399507456	61	5356
2026-01-27 09:05:44.98	98.83	29.39	-45.2	-48.3	15.7	0.00e+00	0	41	0	401604608	61	5317
2026-01-27 09:05:45.98	98.57	29.51	-45.1	-48.3	15.7	0.00e+00	0	41	0	403701760	61	5291
2026-01-27 09:05:46.97	98.31	29.63	-44.7	-47.6	16.3	0.00e+00	0	41	0	405798912	61	4914
2026-01-27 09:05:47.98	98.04	29.75	-44.6	-47.4	16.5	0.00e+00	0	41	0	406847488	60	5092
2026-01-27 09:05:48.97	97.78	29.87	-44.6	-47.5	16.5	0.00e+00	0	41	0	408944640	60	5131
2026-01-27 09:05:49.97	97.51	29.99	-44.9	-48.0	16.1	0.00e+00	0	41	0	411041792	60	5413
2026-01-27 09:05:50.97	97.24	30.11	-45.2	-48.4	15.7	0.00e+00	0	41	0	413138944	60	5658
2026-01-27 09:05:51.97	96.96	30.22	-44.8	-47.9	16.1	0.00e+00	0	41	0	415236096	61	5057
2026-01-27 09:05:52.96	96.69	30.34	-45.2	-48.4	15.6	0.00e+00	0	41	0	416284672	61	5387
2026-01-27 09:05:53.96	96.42	30.46	-45.1	-48.2	15.8	0.00e+00	0	41	0	418381824	61	5237
2026-01-27 09:05:54.96	96.14	30.58	-45.2	-48.4	15.6	0.00e+00	0	41	0	420478976	61	5388
2026-01-27 09:05:55.96	95.86	30.69	-45.3	-48.5	15.5	0.00e+00	0	41	0	422576128	61	5445
2026-01-27 09:05:56.95	95.58	30.81	-45.7	-49.0	15.0	0.00e+00	0	41	0	424673280	62	5461
2026-01-27 09:05:57.95	95.29	30.93	-46.0	-49.5	14.6	7.00e-07	0	41	0	425721856	62	5750
2026-01-27 09:05:58.95	95.00	31.04	-46.1	-49.8	14.2	0.00e+00	0	41	0	427819008	62	5955
2026-01-27 09:05:59.95	94.71	31.16	-46.5	-50.5	13.5	4.50e-06	0	41	0	429916160	63	6092
2026-01-27 09:06:00.95	94.42	31.27	-46.5	-50.5	13.5	7.60e-06	0	41	0	432013312	63	6108
2026-01-27 09:06:01.94	94.13	31.39	-46.5	-50.5	13.6	1.44e-05	0	41	0	434110464	63	6124
2026-01-27 09:06:02.94	93.84	31.50	-46.0	-49.6	14.4	6.80e-06	0	41	0	435159040	63	5498
2026-01-27 09:06:03.93	93.54	31.62	-45.9	-49.5	14.5	1.50e-06	0	41	0	437256192	63	5443
2026-01-27 09:06:04.93	93.24	31.73	-45.7	-49.1	14.9	0.00e+00	0	41	0	439353344	63	5209
2026-01-27 09:06:05.93	92.94	31.84	-45.8	-49.3	14.8	0.00e+00	0	41	0	441450496	63	5295
2026-01-27 09:06:06.93	92.64	31.96	-45.7	-49.2	14.9	7.00e-07	0	41	0	442499072	63	5219
2026-01-27 09:06:07.93	92.33	32.07	-45.7	-49.1	15.0	0.00e+00	0	41	0	444596224	63	5202
2026-01-27 09:06:08.93	92.02	32.18	-46.2	-50.0	14.0	0.00e+00	0	41	0	446693376	63	5765
2026-01-27 09:06:09.93	91.71	32.29	-46.6	-50.6	13.5	2.13e-05	0	41	0	448790528	64	5852
2026-01-27 09:06:10.92	91.40	32.40	-47.1	-51.6	12.4	5.11e-05	0	41	0	450887680	64	6552
2026-01-27 09:06:11.92	91.09	32.51	-47.2	-52.0	12.0	4.76e-04	0	41	0	451936256	65	6464
2026-01-27 09:06:12.92	90.77	32.62	-46.9	-51.3	12.7	2.11e-04	0	41	0	454033408	65	5956
2026-01-27 09:06:13.92	90.45	32.73	-46.8	-51.0	13.0	7.01e-05	0	41	0	456130560	65	5764
2026-01-27 09:06:14.92	90.13	32.84	-46.5	-50.4	13.6	1.98e-05	0	41	0	458227712	64	5690
2026-01-27 09:06:15.91	89.81	32.95	-46.0	-50.3	13.5	1.22e-05	0	41	0	459276288	63	5954
2026-01-27 09:06:16.91	89.49	33.06	-45.5	-49.5	14.3	7.00e-07	0	41	0	461373440	62	5767
2026-01-27 09:06:17.91	89.16	33.16	-45.4	-49.4	14.4	1.50e-06	0	41	0	463470592	62	5668
2026-01-27 09:06:18.90	88.83	33.27	-45.8	-50.2	13.7	3.00e-06	0	41	0	465567744	62	6225
2026-01-27 09:06:19.90	88.50	33.37	-45.9	-50.4	13.4	1.44e-05	0	41	0	467664896	62	6420
2026-01-27 09:06:20.89	88.17	33.48	-46.0	-50.6	13.4	2.82e-05	0	41	0	468713472	63	6190
2026-01-27 09:06:21.89	87.83	33.58	-46.5	-51.9	11.9	3.22e-04	0	41	0	470810624	64	6745
2026-01-27 09:06:22.89	87.50	33.68	-46.5	-51.9	11.8	4.67e-04	0	41	0	472907776	64	6737
2026-01-27 09:06:23.88	87.16	33.79	-46.1	-50.9	13.0	2.55e-04	0	41	0	475004928	63	6366
2026-01-27 09:06:24.88	86.82	33.89	-46.0	-50.7	13.2	5.72e-05	0	41	0	476053504	63	6209
2026-01-27 09:06:25.88	86.47	33.99	-45.9	-50.6	13.2	2.28e-05	0	41	0	478150656	63	6191
2026-01-27 09:06:26.88	86.12	34.09	-46.1	-51.0	12.9	2.36e-05	0	41	0	480247808	63	6431
2026-01-27 09:06:27.88	85.78	34.19	-46.0	-50.8	13.0	1.10e-04	0	41	0	482344960	63	6342
2026-01-27 09:06:28.88	85.42	34.28	-46.1	-51.1	12.7	7.62e-05	0	41	0	484442112	63	6548
2026-01-27 09:06:29.87	85.07	34.38	-46.1	-50.9	12.9	3.96e-05	0	41	0	485490688	63	6401
2026-01-27 09:06:30.87	84.72	34.48	-46.3	-51.1	12.6	6.79e-05	0	41	0	487587840	63	6548
2026-01-27 09:06:31.87	84.36	34.57	-46.1	-50.7	13.0	7.01e-05	0	41	0	489684992	63	6259
2026-01-27 09:06:32.87	84.00	34.66	-45.6	-49.9	14.0	6.10e-06	0	41	0	491782144	63	5664
2026-01-27 09:06:33.87	83.64	34.76	-44.9	-48.6	15.1	0.00e+00	0	41	0	493879296	61	5509
2026-01-27 09:06:34.86	83.28	34.85	-44.9	-48.6	15.1	0.00e+00	0	41	0	494927872	61	5499
2026-01-27 09:06:35.86	82.92	34.94	-44.7	-48.4	15.3	0.00e+00	0	41	0	497025024	61	5386
2026-01-27 09:06:36.86	82.55	35.03	-44.9	-48.8	14.8	0.00e+00	0	41	0	499122176	61	5629
2026-01-27 09:06:37.86	82.18	35.12	-45.0	-48.9	14.8	0.00e+00	0	41	0	501219328	61	5674
2026-01-27 09:06:38.86	81.81	35.21	-44.7	-48.3	15.3	0.00e+00	0	41	0	503316480	61	5340
2026-01-27 09:06:39.86	81.43	35.29	-44.7	-48.4	15.3	0.00e+00	0	41	0	504365056	61	5357
2026-01-27 09:06:40.85	81.06	35.38	-44.8	-48.4	15.3	0.00e+00	0	41	0	506462208	61	5386
2026-01-27 09:06:41.85	80.68	35.46	-44.6	-48.2	15.5	0.00e+00	0	41	0	508559360	61	5245
2026-01-27 09:06:42.85	80.31	35.55	-44.5	-48.0	15.8	0.00e+00	0	41	0	510656512	60	5460
2026-01-27 09:06:43.84	79.93	35.63	-44.7	-48.4	15.4	0.00e+00	0	41	0	511705088	60	5707
2026-01-27 09:06:44.84	79.54	35.71	-44.9	-48.8	15.2	0.00e+00	0	41	0	513802240	60	5945
2026-01-27 09:06:45.84	79.16	35.79	-44.7	-48.4	15.5	0.00e+00	0	41	0	515899392	60	5694
2026-01-27 09:06:46.83	78.78	35.86	-44.5	-47.9	15.9	0.00e+00	0	41	0	517996544	60	5397
2026-01-27 09:06:47.83	78.39	35.94	-44.1	-47.2	16.5	0.00e+00	0	41	0	520093696	59	5266
2026-01-27 09:06:48.83	78.00	36.02	-43.8	-46.7	17.0	0.00e+00	0	41	0	521142272	59	4955
2026-01-27 09:06:49.82	77.61	36.09	-43.1	-45.9	17.7	0.00e+00	0	41	0	523239424	58	4790
2026-01-27 09:06:50.81	77.22	36.16	-42.8	-45.5	18.0	0.00e+00	0	41	0	525336576	57	4838
2026-01-27 09:06:51.81	76.82	36.23	-42.9	-45.6	18.0	0.00e+00	0	41	0	527433728	57	4892
2026-01-27 09:06:52.81	76.43	36.30	-43.2	-45.9	17.8	0.00e+00	0	41	0	528482304	57	5071
2026-01-27 09:06:53.81	76.03	36.37	-43.1	-45.9	17.7	0.00e+00	0	41	0	530579456	57	5084
2026-01-27 09:06:54.81	75.62	36.44	-43.0	-45.8	17.9	0.00e+00	0	41	0	532676608	57	4986
2026-01-27 09:06:55.80	75.23	36.50	-42.9	-45.6	18.0	0.00e+00	0	41	0	534773760	57	4913
2026-01-27 09:06:56.80	74.82	36.57	-43.3	-46.1	17.5	0.00e+00	0	41	0	536870912	57	5198
2026-01-27 09:06:57.80	74.42	36.63	-43.0	-45.7	17.9	0.00e+00	0	41	0	537919488	57	4976
2026-01-27 09:06:58.79	74.01	36.69	-42.7	-45.3	18.3	0.00e+00	0	41	0	540016640	57	4711
2026-01-27 09:06:59.79	73.60	36.75	-42.2	-44.6	19.0	0.00e+00	0	41	0	542113792	56	4606
2026-01-27 09:07:00.78	73.20	36.81	-41.8	-44.1	19.2	0.00e+00	0	41	0	544210944	55	4621
2026-01-27 09:07:01.78	72.79	36.86	-42.0	-44.3	19.1	0.00e+00	0	41	0	545259520	55	4752
2026-01-27 09:07:02.78	72.37	36.92	-42.0	-44.4	19.0	0.00e+00	0	41	0	547356672	55	4771
2026-01-27 09:07:03.78	71.96	36.97	-42.1	-44.5	19.0	0.00e+00	0	41	0	549453824	55	4853
2026-01-27 09:07:04.77	71.55	37.02	-42.3	-44.7	18.8	0.00e+00	0	41	0	551550976	55	4964
2026-01-27 09:07:05.77	71.13	37.07	-42.5	-45.0	18.5	0.00e+00	0	41	0	553648128	55	5127
2026-01-27 09:07:06.76	70.72	37.12	-42.9	-45.5	18.2	0.00e+00	0	41	0	554696704	56	5102
2026-01-27 09:07:07.76	70.30	37.17	-43.7	-46.5	17.3	0.00e+00	0	41	0	556793856	57	5436
2026-01-27 09:07:08.76	69.88	37.21	-43.8	-46.7	17.2	0.00e+00	0	41	0	558891008	58	5246
2026-01-27 09:07:09.76	69.45	37.25	-43.3	-46.0	17.8	0.00e+00	0	41	0	560988160	58	4815
2026-01-27 09:07:10.76	69.03	37.30	-43.0	-45.6	18.1	0.00e+00	0	41	0	563085312	58	4622
2026-01-27 09:07:11.75	68.61	37.34	-42.8	-45.2	18.4	0.00e+00	0	41	0	564133888	57	4700
2026-01-27 09:07:12.75	68.19	37.37	-42.5	-44.9	18.7	0.00e+00	0	41	0	566231040	57	4544
2026-01-27 09:07:13.75	67.76	37.41	-42.4	-44.7	18.9	0.00e+00	0	41	0	568328192	56	4700
2026-01-27 09:07:14.75	67.33	37.44	-42.1	-44.4	19.2	0.00e+00	0	41	0	570425344	56	4519
2026-01-27 09:07:15.74	66.91	37.48	-42.3	-44.6	19.1	0.00e+00	0	41	0	571473920	56	4625
2026-01-27 09:07:16.74	66.48	37.51	-42.4	-44.8	18.8	0.00e+00	0	41	0	573571072	56	4740
2026-01-27 09:07:17.74	66.05	37.54	-42.8	-45.3	18.5	0.00e+00	0	41	0	575668224	56	4994
2026-01-27 09:07:18.73	65.63	37.56	-43.2	-45.8	18.0	0.00e+00	0	41	0	577765376	57	4995
2026-01-27 09:07:19.73	65.20	37.59	-43.4	-46.0	17.8	0.00e+00	0	41	0	579862528	57	5128
2026-01-27 09:07:20.72	64.77	37.61	-43.7	-46.3	17.5	0.00e+00	0	41	0	580911104	57	5340
2026-01-27 09:07:21.72	64.34	37.63	-43.6	-46.3	17.6	0.00e+00	0	41	0	583008256	58	4990
2026-01-27 09:07:22.72	63.91	37.65	-43.8	-46.6	17.2	0.00e+00	0	41	0	585105408	58	5177
2026-01-27 09:07:23.72	63.47	37.67	-44.0	-46.9	16.9	0.00e+00	0	41	0	587202560	58	5373
2026-01-27 09:07:24.71	63.04	37.69	-44.2	-47.1	16.7	0.00e+00	0	41	0	588251136	59	5201
2026-01-27 09:07:25.71	62.61	37.70	-44.8	-48.1	15.8	0.00e+00	0	41	0	590348288	60	5517
2026-01-27 09:07:26.71	62.18	37.72	-45.0	-48.4	15.5	0.00e+00	0	41	0	592445440	60	5703
2026-01-27 09:07:27.70	61.75	37.73	-44.9	-48.3	15.6	0.00e+00	0	41	0	594542592	60	5655
2026-01-27 09:07:28.70	61.31	37.74	-44.7	-48.0	16.0	0.00e+00	0	41	0	596639744	60	5416
2026-01-27 09:07:29.70	60.88	37.74	-44.5	-47.7	16.3	0.00e+00	0	41	0	597688320	60	5236
2026-01-27 09:07:30.69	60.45	37.75	-44.8	-48.1	15.9	0.00e+00	0	41	0	599785472	60	5478
2026-01-27 09:07:31.69	60.01	37.75	-44.9	-48.2	15.8	0.00e+00	0	41	0	601882624	60	5586
2026-01-27 09:07:32.68	59.58	37.75	-44.5	-47.7	16.2	0.00e+00	0	41	0	603979776	60	5226
2026-01-27 09:07:33.68	59.14	37.75	-44.7	-47.8	16.2	0.00e+00	0	41	0	605028352	60	5301
2026-01-27 09:07:34.68	58.71	37.75	-44.6	-47.7	16.3	0.00e+00	0	41	0	607125504	60	5247
2026-01-27 09:07:35.68	58.27	37.75	-44.2	-47.2	16.7	0.00e+00	0	41	0	609222656	60	4945
2026-01-27 09:07:36.67	57.84	37.74	-44.4	-47.4	16.5	0.00e+00	0	41	0	611319808	60	5060
2026-01-27 09:07:37.67	57.41	37.73	-44.3	-47.3	16.5	0.00e+00	0	41	0	613416960	60	5039
2026-01-27 09:07:38.67	56.97	37.72	-44.2	-47.3	16.6	0.00e+00	0	41	0	614465536	60	4986
2026-01-27 09:07:39.66	56.54	37.71	-44.2	-47.2	16.6	0.00e+00	0	41	0	616562688	60	4965
2026-01-27 09:07:40.66	56.11	37.70	-44.5	-47.7	16.2	0.00e+00	0	41	0	618659840	60	5252
2026-01-27 09:07:41.66	55.68	37.68	-44.7	-48.1	15.7	0.00e+00	0	41	0	620756992	60	5511
2026-01-27 09:07:42.66	55.24	37.66	-45.4	-49.3	14.6	0.00e+00	0	41	0	622854144	61	5945
2026-01-27 09:07:43.66	54.81	37.64	-46.0	-50.3	13.5	1.50e-06	0	41	0	623902720	62	6285
2026-01-27 09:07:44.65	54.38	37.62	-45.9	-50.2	13.8	1.14e-05	0	41	0	625999872	63	5856
2026-01-27 09:07:45.65	53.95	37.60	-45.3	-49.1	14.8	1.50e-06	0	41	0	628097024	62	5501
2026-01-27 09:07:46.65	53.52	37.58	-44.9	-48.5	15.3	7.00e-07	0	41	0	630194176	61	5411
2026-01-27 09:07:47.64	53.10	37.55	-45.2	-49.1	14.8	0.00e+00	0	41	0	632291328	61	5798
2026-01-27 09:07:48.64	52.67	37.52	-45.2	-49.0	14.7	0.00e+00	0	41	0	633339904	61	5788
2026-01-27 09:07:49.64	52.24	37.49	-45.4	-49.4	14.4	0.00e+00	0	41	0	635437056	61	6020
2026-01-27 09:07:50.63	51.81	37.46	-45.2	-49.1	14.7	7.00e-07	0	41	0	637534208	61	5826
2026-01-27 09:07:51.63	51.39	37.43	-45.4	-49.4	14.3	0.00e+00	0	41	0	639631360	61	6044
2026-01-27 09:07:52.63	50.96	37.39	-45.0	-48.7	14.9	0.00e+00	0	41	0	640679936	61	5538
2026-01-27 09:07:53.63	50.54	37.35	-45.2	-49.1	14.7	0.00e+00	0	41	0	642777088	61	5801
2026-01-27 09:07:54.63	50.11	37.32	-45.1	-48.8	15.0	0.00e+00	0	41	0	644874240	61	5640
2026-01-27 09:07:55.63	49.69	37.28	-44.9	-48.6	15.2	0.00e+00	0	41	0	646971392	61	5485
2026-01-27 09:07:56.63	49.27	37.23	-44.7	-48.4	15.3	0.00e+00	0	41	0	649068544	61	5348
2026-01-27 09:07:57.63	48.85	37.19	-44.6	-48.2	15.5	0.00e+00	0	41	0	650117120	60	5585
2026-01-27 09:07:58.62	48.43	37.14	-44.7	-48.4	15.4	0.00e+00	0	41	0	652214272	60	5687
2026-01-27 09:07:59.62	48.01	37.10	-45.3	-49.4	14.3	0.00e+00	0	41	0	654311424	61	6057
2026-01-27 09:08:00.62	47.60	37.05	-45.2	-49.3	14.5	7.00e-07	0	41	0	656408576	61	5964
2026-01-27 09:08:01.61	47.19	37.00	-45.9	-50.7	13.0	9.90e-06	0	41	0	657457152	62	6602
2026-01-27 09:08:02.61	46.77	36.94	-46.5	-52.2	11.5	1.68e-04	0	41	0	659554304	63	7419
2026-01-27 09:08:03.60	46.36	36.89	-46.4	-52.1	11.5	1.56e-03	0	41	0	661651456	64	6924
2026-01-27 09:08:04.60	45.95	36.84	-46.1	-51.1	12.5	2.33e-04	0	41	0	663748608	64	6186
2026-01-27 09:08:05.60	45.54	36.78	-45.0	-49.0	14.8	7.60e-06	0	41	0	665845760	62	5406
2026-01-27 09:08:06.60	45.13	36.72	-44.9	-48.7	15.0	0.00e+00	0	41	0	666894336	61	5561
2026-01-27 09:08:07.60	44.72	36.66	-44.5	-48.2	15.4	7.00e-07	0	41	0	668991488	60	5533
2026-01-27 09:08:08.59	44.32	36.60	-43.9	-47.1	16.4	0.00e+00	0	41	0	671088640	59	5187
2026-01-27 09:08:09.59	43.92	36.54	-43.7	-46.8	16.8	0.00e+00	0	41	0	673185792	59	5003
2026-01-27 09:08:10.59	43.52	36.47	-44.4	-47.8	16.0	0.00e+00	0	41	0	675282944	59	5623
2026-01-27 09:08:11.59	43.12	36.40	-44.8	-48.6	15.2	0.00e+00	0	41	0	676331520	60	5814
2026-01-27 09:08:12.58	42.72	36.34	-44.3	-47.7	16.1	0.00e+00	0	41	0	678428672	60	5229
2026-01-27 09:08:13.58	42.32	36.27	-43.4	-46.2	17.4	0.00e+00	0	41	0	680525824	58	4983
2026-01-27 09:08:14.57	41.93	36.20	-42.9	-45.5	18.2	0.00e+00	0	41	0	682622976	57	4823
2026-01-27 09:08:15.57	41.54	36.13	-42.6	-45.1	18.7	0.00e+00	0	41	0	683671552	56	4899
2026-01-27 09:08:16.57	41.14	36.05	-42.7	-45.3	18.3	0.00e+00	0	41	0	685768704	56	5003
2026-01-27 09:08:17.57	40.75	35.98	-42.9	-45.5	18.2	0.00e+00	0	41	0	687865856	56	5113
2026-01-27 09:08:18.56	40.37	35.90	-43.2	-46.0	17.7	0.00e+00	0	41	0	689963008	57	5118
2026-01-27 09:08:19.56	39.98	35.83	-43.6	-46.5	17.2	0.00e+00	0	41	0	692060160	57	5438
2026-01-27 09:08:20.56	39.60	35.75	-43.2	-46.1	17.6	0.00e+00	0	41	0	693108736	57	5172
2026-01-27 09:08:21.55	39.22	35.67	-43.6	-46.6	17.1	0.00e+00	0	41	0	695205888	57	5514
2026-01-27 09:08:22.55	38.84	35.59	-44.0	-47.2	16.6	0.00e+00	0	41	0	697303040	58	5571
2026-01-27 09:08:23.55	38.46	35.51	-44.3	-47.6	16.1	0.00e+00	0	41	0	699400192	59	5494
2026-01-27 09:08:24.55	38.08	35.42	-44.0	-47.1	16.6	0.00e+00	0	41	0	701497344	59	5168
2026-01-27 09:08:25.55	37.70	35.34	-43.5	-46.3	17.4	0.00e+00	0	41	0	702545920	58	5016
2026-01-27 09:08:26.55	37.33	35.25	-43.6	-46.5	17.3	0.00e+00	0	41	0	704643072	58	5107
2026-01-27 09:08:27.54	36.96	35.17	-44.0	-47.0	16.8	0.00e+00	0	41	0	706740224	58	5452
2026-01-27 09:08:28.54	36.59	35.08	-44.5	-47.8	16.0	0.00e+00	0	41	0	708837376	59	5641
2026-01-27 09:08:29.54	36.23	34.99	-44.4	-47.7	16.1	0.00e+00	0	41	0	709885952	59	5562
2026-01-27 09:08:30.54	35.86	34.90	-44.4	-47.6	16.1	0.00e+00	0	41	0	711983104	59	5502
2026-01-27 09:08:31.53	35.50	34.81	-44.6	-48.1	15.7	0.00e+00	0	41	0	714080256	60	5465
2026-01-27 09:08:32.53	35.14	34.72	-44.7	-48.1	15.7	0.00e+00	0	41	0	716177408	60	5493
2026-01-27 09:08:33.53	34.78	34.62	-44.5	-47.8	16.0	0.00e+00	0	41	0	718274560	60	5297
2026-01-27 09:08:34.52	34.43	34.53	-44.4	-47.6	16.3	0.00e+00	0	41	0	719323136	60	5200
2026-01-27 09:08:35.52	34.07	34.43	-43.9	-46.9	16.9	0.00e+00	0	41	0	721420288	59	5043
2026-01-27 09:08:36.52	33.72	34.34	-44.0	-46.9	16.8	0.00e+00	0	41	0	723517440	59	5054
2026-01-27 09:08:37.51	33.37	34.24	-44.0	-46.9	16.9	0.00e+00	0	41	0	725614592	59	5066
2026-01-27 09:08:38.51	33.02	34.14	-43.6	-46.4	17.4	0.00e+00	0	41	0	726663168	59	4775
2026-01-27 09:08:39.50	32.68	34.05	-43.5	-46.3	17.4	0.00e+00	0	41	0	728760320	59	4706
2026-01-27 09:08:40.50	32.33	33.95	-44.3	-47.4	16.4	0.00e+00	0	41	0	730857472	59	5370
2026-01-27 09:08:41.50	31.99	33.85	-44.6	-47.9	16.0	0.00e+00	0	41	0	732954624	60	5352
2026-01-27 09:08:42.50	31.65	33.74	-44.2	-47.2	16.6	0.00e+00	0	41	0	735051776	60	4943
2026-01-27 09:08:43.50	31.31	33.64	-43.3	-45.9	17.8	0.00e+00	0	41	0	736100352	58	4777
2026-01-27 09:08:44.50	30.98	33.54	-43.3	-45.9	17.8	0.00e+00	0	41	0	738197504	58	4789
2026-01-27 09:08:45.49	30.65	33.44	-44.0	-46.8	17.0	0.00e+00	0	41	0	740294656	58	5333
2026-01-27 09:08:46.49	30.31	33.33	-44.3	-47.3	16.5	0.00e+00	0	41	0	742391808	59	5337
2026-01-27 09:08:47.49	29.99	33.23	-44.4	-47.5	16.1	0.00e+00	0	41	0	744488960	59	5457
2026-01-27 09:08:48.48	29.66	33.12	-44.4	-47.5	16.3	0.00e+00	0	41	0	745537536	59	5446
2026-01-27 09:08:49.48	29.34	33.01	-44.5	-47.6	16.2	0.00e+00	0	41	0	747634688	59	5501
2026-01-27 09:08:50.48	29.01	32.91	-44.5	-47.7	16.1	0.00e+00	0	41	0	749731840	59	5555
2026-01-27 09:08:51.48	28.69	32.80	-44.2	-47.2	16.6	0.00e+00	0	41	0	751828992	59	5224
2026-01-27 09:08:52.48	28.37	32.69	-43.8	-46.7	17.0	0.00e+00	0	41	0	752877568	59	4955
2026-01-27 09:08:53.47	28.06	32.58	-44.2	-47.2	16.6	0.00e+00	0	41	0	754974720	59	5231
2026-01-27 09:08:54.47	27.75	32.47	-44.7	-48.0	15.9	0.00e+00	0	41	0	757071872	60	5425
2026-01-27 09:08:55.47	27.43	32.36	-45.4	-49.1	14.9	0.00e+00	0	41	0	759169024	61	5814
2026-01-27 09:08:56.46	27.13	32.25	-45.2	-48.8	15.1	0.00e+00	0	41	0	761266176	61	5641
2026-01-27 09:08:57.46	26.82	32.14	-45.1	-48.7	15.2	0.00e+00	0	41	0	762314752	61	5539
2026-01-27 09:08:58.46	26.51	32.03	-45.4	-49.2	14.8	0.00e+00	0	41	0	764411904	61	5872
2026-01-27 09:08:59.46	26.21	31.92	-45.7	-49.8	14.2	0.00e+00	0	41	0	766509056	62	5956
2026-01-27 09:09:00.46	25.91	31.80	-46.1	-50.5	13.5	5.30e-06	0	41	0	768606208	62	6483
2026-01-27 09:09:01.45	25.61	31.69	-46.2	-50.7	13.3	3.05e-05	0	41	0	769654784	63	6232
2026-01-27 09:09:02.44	25.31	31.58	-45.6	-49.5	14.4	3.00e-06	0	41	0	771751936	63	5445
2026-01-27 09:09:03.44	25.02	31.47	-45.4	-49.1	14.8	0.00e+00	0	41	0	773849088	62	5466
2026-01-27 09:09:04.44	24.73	31.35	-45.2	-48.7	15.2	0.00e+00	0	41	0	775946240	62	5231
2026-01-27 09:09:05.43	24.44	31.24	-45.6	-49.3	14.6	0.00e+00	0	41	0	778043392	62	5612
2026-01-27 09:09:06.43	24.15	31.12	-45.6	-49.3	14.6	0.00e+00	0	41	0	779091968	62	5632
2026-01-27 09:09:07.43	23.86	31.01	-45.4	-48.9	15.0	0.00e+00	0	41	0	781189120	62	5369
2026-01-27 09:09:08.42	23.58	30.89	-44.9	-48.1	15.8	0.00e+00	0	41	0	783286272	61	5180
2026-01-27 09:09:09.42	23.30	30.77	-44.6	-47.7	16.2	0.00e+00	0	41	0	785383424	60	5256
2026-01-27 09:09:10.42	23.02	30.66	-43.9	-46.7	17.2	0.00e+00	0	41	0	786432000	59	4928
2026-01-27 09:09:11.42	22.74	30.54	-43.7	-46.4	17.4	0.00e+00	0	41	0	788529152	59	4769
2026-01-27 09:09:12.42	22.46	30.42	-43.5	-46.2	17.6	0.00e+00	0	41	0	790626304	59	4670
2026-01-27 09:09:13.42	22.19	30.31	-43.5	-46.1	17.6	0.00e+00	0	41	0	792723456	58	4922
2026-01-27 09:09:14.42	21.91	30.19	-43.3	-45.9	17.9	0.00e+00	0	41	0	794820608	58	4787
2026-01-27 09:09:15.42	21.64	30.07	-43.0	-45.4	18.3	0.00e+00	0	41	0	795869184	57	4814
2026-01-27 09:09:16.42	21.37	29.95	-43.3	-45.8	18.0	0.00e+00	0	41	0	797966336	57	5040
2026-01-27 09:09:17.41	21.11	29.83	-43.8	-46.6	17.2	0.00e+00	0	41	0	800063488	58	5193
2026-01-27 09:09:18.41	20.84	29.72	-44.1	-47.0	16.9	0.00e+00	0	41	0	802160640	59	5135
2026-01-27 09:09:19.42	20.58	29.60	-44.5	-47.6	16.3	0.00e+00	0	41	0	804257792	59	5466
2026-01-27 09:09:20.41	20.32	29.48	-45.0	-48.3	15.6	0.00e+00	0	41	0	805306368	61	5319
2026-01-27 09:09:21.41	20.06	29.36	-45.5	-49.3	14.7	0.00e+00	0	41	0	807403520	61	5942
2026-01-27 09:09:22.41	19.80	29.24	-45.8	-49.9	14.1	0.00e+00	0	41	0	809500672	62	6005
2026-01-27 09:09:23.41	19.55	29.12	-45.5	-49.3	14.7	0.00e+00	0	41	0	811597824	62	5611
2026-01-27 09:09:24.40	19.30	29.00	-45.2	-48.9	15.1	0.00e+00	0	41	0	813694976	62	5390
2026-01-27 09:09:25.40	19.05	28.88	-44.7	-48.0	15.9	0.00e+00	0	41	0	814743552	61	5126
2026-01-27 09:09:26.39	18.80	28.76	-44.4	-47.7	16.2	0.00e+00	0	41	0	816840704	60	5231
2026-01-27 09:09:27.39	18.55	28.64	-44.4	-47.6	16.3	0.00e+00	0	41	0	818937856	60	5169
2026-01-27 09:09:28.40	18.31	28.52	-44.2	-47.4	16.5	0.00e+00	0	41	0	821035008	60	5044
2026-01-27 09:09:29.39	18.06	28.40	-44.3	-47.5	16.4	0.00e+00	0	41	0	822083584	60	5153
2026-01-27 09:09:30.39	17.82	28.28	-44.0	-47.0	16.9	0.00e+00	0	41	0	824180736	60	4848
2026-01-27 09:09:31.39	17.58	28.16	-43.6	-46.5	17.3	0.00e+00	0	41	0	826277888	59	4859
2026-01-27 09:09:32.38	17.35	28.04	-43.5	-46.3	17.5	0.00e+00	0	41	0	828375040	59	4735
2026-01-27 09:09:33.38	17.11	27.92	-43.6	-46.5	17.3	0.00e+00	0	41	0	830472192	58	5106
2026-01-27 09:09:34.38	16.88	27.80	-43.7	-46.5	17.3	0.00e+00	0	41	0	831520768	58	5134
2026-01-27 09:09:35.37	16.64	27.68	-43.7	-46.5	17.3	0.00e+00	0	41	0	833617920	58	5146
2026-01-27 09:09:36.37	16.41	27.56	-43.4	-46.1	17.7	0.00e+00	0	41	0	835715072	58	4893
2026-01-27 09:09:37.37	16.18	27.44	-43.1	-45.7	18.0	0.00e+00	0	41	0	837812224	58	4690
2026-01-27 09:09:38.37	15.96	27.32	-43.0	-45.6	18.1	0.00e+00	0	41	0	838860800	57	4882
2026-01-27 09:09:39.37	15.73	27.20	-43.3	-45.9	17.8	0.00e+00	0	41	0	840957952	57	5072
2026-01-27 09:09:40.37	15.51	27.08	-43.7	-46.5	17.4	0.00e+00	0	41	0	843055104	57	5417
2026-01-27 09:09:41.36	15.29	26.97	-44.3	-47.3	16.6	0.00e+00	0	41	0	845152256	59	5310
2026-01-27 09:09:42.36	15.07	26.85	-44.4	-47.5	16.4	0.00e+00	0	41	0	847249408	59	5431
2026-01-27 09:09:43.36	14.85	26.73	-44.6	-47.8	16.2	0.00e+00	0	41	0	848297984	59	5602
2026-01-27 09:09:44.35	14.63	26.61	-44.7	-48.1	15.9	0.00e+00	0	41	0	850395136	60	5472
2026-01-27 09:09:45.35	14.41	26.49	-44.6	-48.0	16.0	0.00e+00	0	41	0	852492288	60	5438
2026-01-27 09:09:46.35	14.20	26.37	-44.3	-47.5	16.5	0.00e+00	0	41	0	854589440	60	5103
2026-01-27 09:09:47.34	13.99	26.25	-44.1	-47.2	16.7	0.00e+00	0	41	0	856686592	60	4952
2026-01-27 09:09:48.33	13.78	26.13	-44.0	-47.0	16.9	0.00e+00	0	41	0	857735168	59	5113
2026-01-27 09:09:49.33	13.57	26.01	-43.8	-46.7	17.2	0.00e+00	0	41	0	859832320	59	4961
2026-01-27 09:09:50.33	13.36	25.89	-43.7	-46.4	17.4	0.00e+00	0	41	0	861929472	58	5082
2026-01-27 09:09:51.33	13.16	25.77	-43.6	-46.3	17.5	0.00e+00	0	41	0	864026624	58	5009
2026-01-27 09:09:52.33	12.95	25.65	-43.6	-46.3	17.5	0.00e+00	0	41	0	865075200	58	5022
2026-01-27 09:09:53.33	12.75	25.53	-43.4	-46.1	17.7	0.00e+00	0	41	0	867172352	58	4913
2026-01-27 09:09:54.33	12.55	25.42	-43.8	-46.6	17.2	0.00e+00	0	41	0	869269504	58	5217
2026-01-27 09:09:55.32	12.35	25.30	-43.8	-46.6	17.2	0.00e+00	0	41	0	871366656	58	5208
2026-01-27 09:09:56.31	12.15	25.18	-43.8	-46.7	17.2	0.00e+00	0	41	0	873463808	58	5231
2026-01-27 09:09:57.31	11.96	25.06	-43.8	-46.6	17.2	0.00e+00	0	41	0	874512384	58	5176
2026-01-27 09:09:58.31	11.76	24.94	-44.2	-47.2	16.8	0.00e+00	0	41	0	876609536	58	5540
2026-01-27 09:09:59.31	11.57	24.83	-44.1	-47.0	16.9	0.00e+00	0	41	0	878706688	59	5130
2026-01-27 09:10:00.30	11.38	24.71	-44.3	-47.2	16.6	0.00e+00	0	41	0	880803840	59	5277
2026-01-27 09:10:01.30	11.19	24.59	-44.1	-47.0	16.9	0.00e+00	0	41	0	882900992	59	5121
2026-01-27 09:10:02.29	11.00	24.48	-44.6	-47.7	16.2	0.00e+00	0	41	0	883949568	59	5583
2026-01-27 09:10:03.29	10.81	24.36	-44.4	-47.5	16.5	0.00e+00	0	41	0	886046720	60	5118
2026-01-27 09:10:04.29	10.62	24.24	-44.4	-47.5	16.4	0.00e+00	0	41	0	888143872	60	5118
2026-01-27 09:10:05.28	10.44	24.13	-44.7	-47.9	16.0	0.00e+00	0	41	0	890241024	60	5370
2026-01-27 09:10:06.28	10.26	24.01	-44.7	-47.9	16.0	0.00e+00	0	41	0	891289600	60	5357
2026-01-27 09:10:07.28	10.07	23.89	-44.8	-48.0	15.9	0.00e+00	0	41	0	893386752	60	5420
2026-01-27 09:10:08.27	9.89	23.78	-44.6	-47.8	16.2	0.00e+00	0	41	0	895483904	60	5292
2026-01-27 09:10:09.27	9.71	23.66	-45.0	-48.3	15.5	0.00e+00	0	41	0	897581056	60	5594
2026-01-27 09:10:10.27	9.54	23.55	-44.9	-48.1	15.8	0.00e+00	0	41	0	899678208	60	5497
2026-01-27 09:10:11.27	9.36	23.43	-45.0	-48.4	15.6	0.00e+00	0	41	0	900726784	60	5687
2026-01-27 09:10:12.26	9.18	23.32	-45.0	-48.4	15.5	0.00e+00	0	41	0	902823936	61	5375
2026-01-27 09:10:13.26	9.01	23.20	-44.8	-48.3	15.7	0.00e+00	0	41	0	904921088	61	5284
2026-01-27 09:10:14.25	8.84	23.09	-44.7	-48.1	15.9	0.00e+00	0	41	0	907018240	61	5183
2026-01-27 09:10:15.25	8.67	22.97	-44.3	-47.5	16.4	0.00e+00	0	41	0	908066816	60	5143
2026-01-27 09:10:16.25	8.50	22.86	-43.9	-46.8	17.1	0.00e+00	0	41	0	910163968	59	4994
2026-01-27 09:10:17.24	8.33	22.74	-43.6	-46.4	17.4	0.00e+00	0	41	0	912261120	59	4803
2026-01-27 09:10:18.24	8.16	22.63	-43.5	-46.2	17.6	0.00e+00	0	41	0	914358272	58	4966
2026-01-27 09:10:19.23	7.99	22.52	-43.4	-46.0	17.8	0.00e+00	0	41	0	916455424	58	4861
2026-01-27 09:10:20.23	7.83	22.40	-43.8	-46.6	17.3	0.00e+00	0	41	0	917504000	58	5161
2026-01-27 09:10:21.23	7.66	22.29	-43.7	-46.5	17.4	0.00e+00	0	41	0	919601152	58	5104
2026-01-27 09:10:22.23	7.50	22.18	-44.1	-47.1	16.8	0.00e+00	0	41	0	921698304	58	5474
2026-01-27 09:10:23.23	7.34	22.06	-44.1	-47.1	16.8	0.00e+00	0	41	0	923795456	58	5480
2026-01-27 09:10:24.22	7.18	21.95	-43.9	-46.8	17.0	0.00e+00	0	41	0	924844032	59	5017
2026-01-27 09:10:25.22	7.02	21.84	-43.8	-46.6	17.2	0.00e+00	0	41	0	926941184	59	4912
2026-01-27 09:10:26.22	6.86	21.73	-43.6	-46.4	17.5	0.00e+00	0	41	0	929038336	58	5085
2026-01-27 09:10:27.22	6.70	21.62	-43.3	-46.0	17.7	0.00e+00	0	41	0	931135488	58	4844
2026-01-27 09:10:28.22	6.55	21.50	-43.2	-45.8	18.0	0.00e+00	0	41	0	933232640	58	4739
2026-01-27 09:10:29.21	6.40	21.39	-43.7	-46.4	17.4	0.00e+00	0	41	0	934281216	58	5093
2026-01-27 09:10:30.21	6.24	21.28	-43.5	-46.3	17.5	0.00e+00	0	41	0	936378368	58	4991
2026-01-27 09:10:31.21	6.09	21.17	-43.9	-47.0	16.9	0.00e+00	0	41	0	938475520	58	5409
2026-01-27 09:10:32.20	5.94	21.06	-44.3	-47.6	16.3	0.00e+00	0	41	0	940572672	59	5502
2026-01-27 09:10:33.20	5.79	20.95	-44.7	-48.5	15.5	0.00e+00	0	41	0	942669824	60	5745
2026-01-27 09:10:34.20	5.64	20.84	-45.0	-49.0	14.7	0.00e+00	0	41	0	943718400	60	6116
2026-01-27 09:10:35.19	5.49	20.73	-45.3	-49.6	14.3	7.00e-07	0	41	0	945815552	61	6185
2026-01-27 09:10:36.19	5.34	20.63	-45.5	-50.0	14.0	1.50e-06	0	41	0	947912704	61	6435
2026-01-27 09:10:37.18	5.20	20.52	-45.4	-49.5	14.4	0.00e+00	0	41	0	950009856	61	6130
2026-01-27 09:10:38.18	5.05	20.41	-45.4	-49.5	14.5	1.50e-06	0	41	0	951058432	61	6065
2026-01-27 09:10:39.18	4.91	20.30	-45.2	-49.0	14.9	0.00e+00	0	41	0	953155584	61	5746
2026-01-27 09:10:40.17	4.77	20.19	-45.5	-49.2	14.7	0.00e+00	0	41	0	955252736	61	5913
2026-01-27 09:10:41.17	4.63	20.08	-45.1	-48.7	15.2	0.00e+00	0	41	0	957349888	61	5536
2026-01-27 09:10:42.17	4.49	19.98	-44.6	-47.9	16.0	0.00e+00	0	41	0	959447040	61	5055
2026-01-27 09:10:43.16	4.35	19.87	-44.4	-47.6	16.2	0.00e+00	0	41	0	960495616	60	5213
2026-01-27 09:10:44.16	4.21	19.76	-44.2	-47.4	16.5	0.00e+00	0	41	0	962592768	60	5094
2026-01-27 09:10:45.16	4.07	19.66	-44.0	-47.1	16.7	0.00e+00	0	41	0	964689920	60	4922
2026-01-27 09:10:46.16	3.93	19.55	-44.0	-47.2	16.6	0.00e+00	0	40	0	966787072	60	4959
2026-01-27 09:10:47.15	3.80	19.44	-44.2	-47.5	16.4	0.00e+00	0	41	0	967835648	60	5111
2026-01-27 09:10:48.15	3.66	19.34	-44.2	-47.4	16.4	0.00e+00	0	41	0	969932800	60	5084
2026-01-27 09:10:49.15	3.53	19.23	-44.5	-47.8	16.1	0.00e+00	0	41	0	972029952	60	5292
2026-01-27 09:10:50.14	3.40	19.13	-44.7	-48.0	15.9	0.00e+00	0	41	0	974127104	60	5458
2026-01-27 09:10:51.13	3.27	19.02	-44.8	-48.2	15.7	0.00e+00	0	41	0	976224256	60	5555
2026-01-27 09:10:52.13	3.13	18.92	-44.7	-48.0	15.8	0.00e+00	0	41	0	977272832	60	5458
2026-01-27 09:10:53.13	3.00	18.81	-44.5	-47.7	16.1	0.00e+00	0	40	0	979369984	60	5262
2026-01-27 09:10:54.12	2.88	18.71	-44.1	-47.1	16.7	0.00e+00	0	41	0	981467136	60	4903
2026-01-27 09:10:55.12	2.75	18.61	-44.0	-47.0	16.8	0.00e+00	0	40	0	983564288	59	5106
2026-01-27 09:10:56.12	2.62	18.50	-43.7	-46.6	17.1	0.00e+00	0	41	0	984612864	59	4908
2026-01-27 09:10:57.12	2.49	18.40	-43.4	-46.2	17.5	0.00e+00	0	41	0	986710016	58	4957
2026-01-27 09:10:58.11	2.37	18.30	-43.4	-46.2	17.5	0.00e+00	0	41	0	988807168	58	4938
2026-01-27 09:10:59.11	2.24	18.20	-43.3	-46.1	17.6	0.00e+00	0	41	0	990904320	58	4891
2026-01-27 09:11:00.11	2.12	18.09	-43.4	-46.2	17.5	0.00e+00	0	41	0	993001472	58	4958
2026-01-27 09:11:01.11	1.99	17.99	-43.6	-46.4	17.4	0.00e+00	0	41	0	994050048	58	5051
2026-01-27 09:11:02.11	1.87	17.89	-43.9	-46.7	17.1	0.00e+00	0	41	0	996147200	58	5270
2026-01-27 09:11:03.10	1.75	17.79	-44.1	-47.1	16.6	0.00e+00	0	41	0	998244352	59	5206
2026-01-27 09:11:04.10	1.63	17.69	-44.2	-47.2	16.5	0.00e+00	0	41	0	1000341504	59	5262
2026-01-27 09:11:05.10	1.51	17.58	-44.3	-47.5	16.3	0.00e+00	0	41	0	1002438656	59	5408
2026-01-27 09:11:06.09	1.39	17.49	-44.3	-47.6	16.3	0.00e+00	0	41	0	1003487232	59	5472
2026-01-27 09:11:07.09	1.27	17.38	-44.2	-47.4	16.3	0.00e+00	0	41	0	1005584384	59	5393
2026-01-27 09:11:08.09	1.16	17.28	-44.1	-47.3	16.4	0.00e+00	0	41	0	1007681536	59	5314
2026-01-27 09:11:09.08	1.04	17.19	-44.0	-47.2	16.5	0.00e+00	0	41	0	1009778688	59	5263
2026-01-27 09:11:10.08	0.93	17.09	-44.0	-47.2	16.6	0.00e+00	0	41	0	1010827264	59	5235
2026-01-27 09:11:11.08	0.81	16.99	-43.9	-47.0	16.8	0.00e+00	0	41	0	1012924416	59	5114
2026-01-27 09:11:12.08	0.70	16.89	-44.1	-47.2	16.5	0.00e+00	0	41	0	1015021568	59	5242
2026-01-27 09:11:13.08	0.58	16.79	-44.1	-47.1	16.6	0.00e+00	0	41	0	1017118720	59	5192
2026-01-27 09:11:14.08	0.47	16.69	-44.3	-47.4	16.4	0.00e+00	0	41	0	1019215872	59	5359
2026-01-27 09:11:15.08	0.36	16.59	-44.2	-47.3	16.5	0.00e+00	0	41	0	1020264448	59	5288
2026-01-27 09:11:16.08	0.25	16.49	-44.2	-47.5	16.3	0.00e+00	0	41	0	1022361600	59	5411
2026-01-27 09:11:17.07	0.14	16.40	-44.1	-47.4	16.3	0.00e+00	0	41	0	1024458752	59	5383
2026-01-27 09:11:18.07	0.03	16.30	-44.1	-47.4	16.4	0.00e+00	0	41	0	1026555904	59	5350
2026-01-27 09:11:19.07	359.92	16.20	-44.1	-47.5	16.2	0.00e+00	0	40	0	1028653056	59	5423
2026-01-27 09:11:20.06	359.81	16.11	-44.2	-47.6	16.1	0.00e+00	0	41	0	1029701632	59	5491
2026-01-27 09:11:21.06	359.70	16.01	-44.4	-47.7	16.0	0.00e+00	0	41	0	1031798784	59	5574
2026-01-27 09:11:22.06	359.59	15.91	-44.4	-47.6	16.0	0.00e+00	0	41	0	1033895936	59	5484
2026-01-27 09:11:23.05	359.49	15.82	-44.6	-47.8	15.9	0.00e+00	0	41	0	1035993088	59	5634
2026-01-27 09:11:24.05	359.38	15.72	-44.8	-48.2	15.5	0.00e+00	0	41	0	1037041664	60	5556
2026-01-27 09:11:25.05	359.28	15.63	-44.8	-48.2	15.6	0.00e+00	0	41	0	1039138816	60	5554
2026-01-27 09:11:26.05	359.18	15.53	-45.1	-48.6	15.2	0.00e+00	0	41	0	1041235968	60	5851
2026-01-27 09:11:27.04	359.07	15.44	-45.1	-48.6	15.2	0.00e+00	0	41	0	1043333120	60	5847
2026-01-27 09:11:28.04	358.97	15.34	-45.2	-48.8	15.0	0.00e+00	0	41	0	1045430272	61	5646
2026-01-27 09:11:29.04	358.87	15.25	-45.1	-48.7	15.1	0.00e+00	0	41	0	1046478848	61	5539
2026-01-27 09:11:30.04	358.77	15.15	-45.0	-48.7	15.1	0.00e+00	0	41	0	1048576000	61	5535
2026-01-27 09:11:31.03	358.67	15.06	-44.8	-48.4	15.4	0.00e+00	0	41	0	1050673152	61	5343
2026-01-27 09:11:32.03	358.57	14.97	-44.5	-47.9	15.8	0.00e+00	0	41	0	1052770304	61	5089
2026-01-27 09:11:33.02	358.47	14.87	-44.4	-47.6	16.0	0.00e+00	0	41	0	1053818880	60	5206
2026-01-27 09:11:34.02	358.37	14.78	-44.1	-47.2	16.4	0.00e+00	0	41	0	1055916032	60	4928
2026-01-27 09:11:35.01	358.27	14.69	-44.0	-47.1	16.5	0.00e+00	0	40	0	1058013184	60	4875
2026-01-27 09:11:36.01	358.17	14.60	-43.9	-46.8	16.7	0.00e+00	0	40	0	1060110336	59	5037
2026-01-27 09:11:37.00	358.08	14.50	-43.7	-46.5	17.0	0.00e+00	0	41	0	1062207488	59	4861
2026-01-27 09:11:38.00	357.98	14.41	-43.7	-46.5	16.9	0.00e+00	0	41	0	1063256064	59	4866
2026-01-27 09:11:39.00	357.89	14.32	-43.6	-46.5	17.0	0.00e+00	0	41	0	1065353216	59	4849
2026-01-27 09:11:40.00	357.79	14.23	-43.5	-46.4	17.1	0.00e+00	0	40	0	1067450368	59	4785
2026-01-27 09:11:41.00	357.70	14.14	-43.6	-46.5	17.0	0.00e+00	0	40	0	1069547520	58	5151
2026-01-27 09:11:42.00	357.60	14.05	-43.5	-46.5	17.1	0.00e+00	0	41	0	1071644672	58	5157
2026-01-27 09:11:42.99	357.51	13.96	-43.7	-46.8	16.8	0.00e+00	0	41	0	1072693248	58	5304
2026-01-27 09:11:43.99	357.42	13.87	-44.0	-47.1	16.5	0.00e+00	0	41	0	1074790400	58	5505
2026-01-27 09:11:44.98	357.33	13.78	-43.9	-47.0	16.6	0.00e+00	0	41	0	1076887552	58	5418
2026-01-27 09:11:45.98	357.23	13.69	-44.0	-47.0	16.4	0.00e+00	0	41	0	1078984704	58	5438
2026-01-27 09:11:46.98	357.14	13.60	-44.2	-47.3	16.0	0.00e+00	0	41	0	1080033280	59	5289
2026-01-27 09:11:47.98	357.05	13.51	-44.1	-47.1	15.8	0.00e+00	0	40	0	1082130432	59	5168
2026-01-27 09:11:48.97	356.96	13.42	-43.9	-47.0	15.6	0.00e+00	0	41	0	1084227584	59	5103
2026-01-27 09:11:49.97	356.87	13.33	-44.1	-47.3	14.9	0.00e+00	0	41	0	1086324736	59	5288
2026-01-27 09:11:50.97	356.78	13.24	-44.0	-47.2	14.5	0.00e+00	0	41	0	1088421888	59	5258
2026-01-27 09:11:51.97	356.70	13.15	-44.0	-47.2	14.2	0.00e+00	0	40	0	1089470464	59	5266
2026-01-27 09:11:52.97	356.61	13.07	-44.1	-47.4	13.7	0.00e+00	0	41	0	1091567616	59	5358
2026-01-27 09:11:53.97	356.52	12.98	-44.3	-47.6	13.2	2.20e-06	0	41	0	1093664768	59	5526
2026-01-27 09:11:54.96	356.44	12.89	-44.2	-47.5	13.2	3.00e-06	0	40	0	1095761920	59	5443
2026-01-27 09:11:55.96	356.35	12.80	-44.5	-47.9	13.4	4.50e-06	0	41	0	1097859072	59	5715
2026-01-27 09:11:56.96	356.26	12.72	-44.3	-47.7	14.6	7.00e-07	0	41	0	1098907648	59	5583
2026-01-27 09:11:57.96	356.18	12.63	-44.5	-48.1	15.1	0.00e+00	0	40	0	1101004800	59	5846
2026-01-27 09:11:58.96	356.09	12.54	-44.5	-48.4	15.2	0.00e+00	0	40	0	1103101952	59	6016
2026-01-27 09:11:59.95	356.01	12.46	-44.6	-48.6	15.0	0.00e+00	0	41	0	1105199104	59	6159
2026-01-27 09:12:00.95	355.93	12.37	-44.5	-48.5	15.1	0.00e+00	0	41	0	1106247680	59	6080
2026-01-27 09:12:01.95	355.85	12.29	-44.6	-48.8	14.7	0.00e+00	0	40	0	1108344832	59	6296
2026-01-27 09:12:02.94	355.76	12.20	-44.6	-48.8	14.6	0.00e+00	0	41	0	1110441984	59	6288
2026-01-27 09:12:03.94	355.68	12.11	-44.6	-48.7	14.4	0.00e+00	0	40	0	1112539136	59	6246
2026-01-27 09:12:04.94	355.60	12.03	-44.7	-49.0	14.0	0.00e+00	0	41	0	1114636288	60	6080
2026-01-27 09:12:05.93	355.52	11.95	-44.7	-48.8	14.0	1.50e-06	0	41	0	1115684864	60	5971
2026-01-27 09:12:06.93	355.44	11.86	-44.9	-49.0	13.6	3.00e-06	0	41	0	1117782016	60	6092
2026-01-27 09:12:07.93	355.36	11.78	-44.8	-48.9	13.6	2.20e-06	0	41	0	1119879168	60	6042
2026-01-27 09:12:08.93	355.28	11.69	-44.7	-48.7	13.6	8.30e-06	0	41	0	1121976320	60	5912
2026-01-27 09:12:09.92	355.20	11.61	-44.7	-48.7	13.5	3.80e-06	0	41	0	1123024896	60	5904
2026-01-27 09:12:10.92	355.12	11.52	-44.7	-48.7	13.5	1.44e-05	0	41	0	1125122048	60	5896
2026-01-27 09:12:11.92	355.05	11.44	-44.7	-48.9	13.4	4.50e-06	0	41	0	1127219200	60	6000
2026-01-27 09:12:12.91	354.97	11.36	-44.7	-48.9	13.4	1.14e-05	0	41	0	1129316352	60	6041
2026-01-27 09:12:13.91	354.89	11.28	-44.8	-49.1	13.5	5.30e-06	0	41	0	1131413504	60	6171
2026-01-27 09:12:14.91	354.81	11.19	-44.5	-48.9	14.0	3.00e-06	0	41	0	1132462080	60	6035
2026-01-27 09:12:15.91	354.74	11.11	-44.4	-49.2	14.1	3.00e-06	0	41	0	1134559232	60	6215
2026-01-27 09:12:16.90	354.66	11.03	-44.4	-49.8	13.6	6.10e-06	0	41	0	1136656384	60	6658
2026-01-27 09:12:17.89	354.59	10.95	-44.2	-49.7	13.8	6.10e-06	0	41	0	1138753536	60	6604
2026-01-27 09:12:18.89	354.51	10.86	-44.1	-49.6	13.8	3.00e-06	0	41	0	1140850688	59	6905
2026-01-27 09:12:19.89	354.44	10.78	-44.2	-49.7	13.6	4.50e-06	0	41	0	1141899264	59	7001
2026-01-27 09:12:20.88	354.37	10.70	-44.2	-50.0	13.4	1.06e-05	0	40	0	1143996416	59	7205
2026-01-27 09:12:21.88	354.29	10.62	-44.2	-49.6	13.6	9.10e-06	0	40	0	1146093568	59	6945
2026-01-27 09:12:22.88	354.22	10.54	-44.4	-50.0	13.3	1.29e-05	0	41	0	1148190720	59	7222
2026-01-27 09:12:23.88	354.15	10.46	-44.5	-49.8	13.6	1.52e-05	0	41	0	1149239296	60	6704
2026-01-27 09:12:24.88	354.07	10.38	-44.7	-49.8	13.7	7.60e-06	0	41	0	1151336448	60	6650
2026-01-27 09:12:25.87	354.00	10.30	-44.7	-49.7	13.9	1.50e-06	0	41	0	1153433600	60	6589
2026-01-27 09:12:26.87	353.93	10.22	-44.7	-49.5	14.1	3.00e-06	0	41	0	1155530752	60	6443
2026-01-27 09:12:27.86	353.86	10.14	-44.7	-49.2	14.4	2.20e-06	0	41	0	1157627904	60	6236
2026-01-27 09:12:28.86	353.79	10.06	-44.5	-49.1	14.5	7.00e-07	0	40	0	1158676480	60	6163
2026-01-27 09:12:29.85	353.72	9.98	-44.2	-49.0	14.4	0.00e+00	0	41	0	1160773632	60	6131
2026-01-27 09:12:30.85	353.65	9.90	-43.7	-48.8	14.6	1.50e-06	0	41	0	1162870784	59	6321
2026-01-27 09:12:31.84	353.58	9.82	-43.6	-49.0	14.5	0.00e+00	0	41	0	1164967936	59	6434
2026-01-27 09:12:32.84	353.51	9.74	-43.4	-48.7	14.7	0.00e+00	0	40	0	1166016512	58	6634
2026-01-27 09:12:33.84	353.44	9.66	-43.3	-48.6	14.9	0.00e+00	0	41	0	1168113664	58	6502
2026-01-27 09:12:34.83	353.38	9.59	-43.2	-48.5	15.0	0.00e+00	0	41	0	1170210816	58	6470
2026-01-27 09:12:35.83	353.31	9.51	-43.3	-48.5	15.0	0.00e+00	0	41	0	1172307968	58	6493
2026-01-27 09:12:36.83	353.24	9.43	-43.2	-48.4	15.1	0.00e+00	0	41	0	1174405120	58	6406
2026-01-27 09:12:37.83	353.17	9.35	-43.4	-48.7	14.8	0.00e+00	0	41	0	1175453696	58	6580
2026-01-27 09:12:38.82	353.11	9.28	-43.4	-48.4	15.1	7.00e-07	0	41	0	1177550848	58	6372
2026-01-27 09:12:39.82	353.04	9.20	-43.7	-48.6	14.8	0.00e+00	0	41	0	1179648000	58	6556
2026-01-27 09:12:40.82	352.97	9.12	-43.8	-48.5	15.0	0.00e+00	0	41	0	1181745152	58	6444
2026-01-27 09:12:41.82	352.91	9.04	-43.8	-48.6	14.9	0.00e+00	0	41	0	1182793728	58	6517
2026-01-27 09:12:42.82	352.84	8.97	-44.7	-52.9	11.0	0.00e+00	0	41	0	1184890880	59	10124
2026-01-27 09:12:43.82	352.78	8.89	-48.2	-64.7	3.8	1.49e+00	0	41	104	1185939456	67	24972
2026-01-27 09:12:44.82	352.71	8.81	-48.9	-65.0	3.8	1.49e+00	0	41	104	1185939456	69	22883
2026-01-27 09:12:45.82	352.65	8.74	-49.1	-65.1	3.8	1.49e+00	0	41	104	1185939456	69	23159
2026-01-27 09:12:46.81	352.59	8.66	-50.0	-65.3	3.8	1.49e+00	0	41	104	1185939456	70	22369
2026-01-27 09:12:47.81	352.52	8.59	-49.3	-65.5	3.8	1.49e+00	0	40	104	1185939456	70	22790
2026-01-27 09:12:48.81	352.46	8.51	-50.1	-65.5	3.8	1.49e+00	0	41	104	1185939456	70	22941
2026-01-27 09:12:49.81	352.40	8.43	-49.9	-65.5	3.8	1.49e+00	0	41	104	1185939456	71	21537
2026-01-27 09:12:50.81	352.33	8.36	-50.1	-65.6	3.8	1.49e+00	0	40	104	1185939456	71	21761
2026-01-27 09:12:51.80	352.27	8.28	-50.2	-65.6	3.8	1.49e+00	0	41	104	1185939456	71	21770
2026-01-27 09:12:52.80	352.21	8.21	-49.9	-65.5	3.8	1.49e+00	0	41	104	1185939456	71	21754
2026-01-27 09:12:53.80	352.15	8.13	-50.3	-65.6	3.8	1.49e+00	0	41	104	1185939456	71	21922
2026-01-27 09:12:54.79	352.09	8.06	-50.1	-65.6	3.8	1.49e+00	0	41	104	1185939456	71	21940
2026-01-27 09:12:55.79	352.03	7.99	-50.3	-65.6	3.8	1.49e+00	0	41	104	1185939456	71	21901
2026-01-27 09:12:56.79	351.97	7.91	-50.5	-65.6	3.8	1.49e+00	0	40	104	1185939456	71	21845
2026-01-27 09:12:57.79	351.91	7.84	-50.3	-65.6	3.8	1.49e+00	0	41	104	1185939456	71	21849
2026-01-27 09:12:58.79	351.85	7.76	-50.4	-65.6	3.8	1.49e+00	0	41	104	1185939456	71	21946
2026-01-27 09:12:59.79	351.79	7.69	-50.2	-65.6	3.8	1.49e+00	0	40	104	1185939456	71	21805
