passes_logs/2026/01/27/T1/T1__20260127_190532_FENGYUN_3G_rec.log

#Pass ID: 20260127_190532_FENGYUN 3G
#Satellite: FENGYUN 3G
#Configuration: FENGYUN 3G
#almurnet v.1.7.20251203
#Start time: 2026-01-27 19:05:34

#Version: 2.0.20230620
#Station: T1
#Location: 37.570604 lon 55.790049 lat
#TLE: 1 56232U 23055A   26026.81668957  .00042566  00000+0  63804-3 0  9995
#TLE: 2 56232  49.9949 354.9274 0004068  91.1881 268.9553 15.54453119158037

#Time	Az	El	Level	Level2	SNR	BER	BlckErr	Temp	State	Recorded	gain1	gain2
2026-01-27 19:05:34.26	255.77	5.15	-50.5	-69.5	3.8	8.47e-01	0	41	0	0	72	32364
2026-01-27 19:05:35.25	255.68	5.23	-50.3	-69.6	3.8	8.38e-01	0	41	104	0	72	32624
2026-01-27 19:05:36.24	255.58	5.30	-50.3	-69.5	3.8	8.48e-01	0	41	104	0	72	32548
2026-01-27 19:05:37.24	255.49	5.38	-50.2	-69.5	3.8	8.46e-01	0	41	104	0	72	32472
2026-01-27 19:05:38.23	255.40	5.45	-50.4	-69.5	3.8	8.46e-01	0	41	104	0	72	32481
2026-01-27 19:05:39.22	255.30	5.53	-50.5	-69.5	3.8	8.47e-01	0	41	104	0	72	32349
2026-01-27 19:05:40.22	255.21	5.61	-50.5	-69.5	3.8	8.46e-01	0	41	104	0	72	32317
2026-01-27 19:05:41.24	255.11	5.69	-50.5	-69.5	3.8	8.46e-01	0	41	104	0	72	32318
2026-01-27 19:05:42.27	255.01	5.77	-50.5	-69.5	3.8	8.46e-01	0	41	104	0	72	32249
2026-01-27 19:05:43.29	254.91	5.84	-50.4	-69.5	3.8	8.48e-01	0	41	104	0	72	32231
2026-01-27 19:05:44.32	254.80	5.92	-50.3	-69.4	3.8	8.48e-01	0	41	104	0	72	32087
2026-01-27 19:05:45.34	254.70	6.00	-50.2	-69.4	3.8	8.48e-01	0	41	104	0	72	31983
2026-01-27 19:05:46.37	254.60	6.08	-50.2	-69.3	3.8	8.47e-01	0	41	104	0	72	31671
2026-01-27 19:05:47.39	254.50	6.17	-50.1	-69.3	3.8	8.48e-01	0	41	104	0	72	31471
2026-01-27 19:05:48.41	254.39	6.25	-50.0	-69.1	3.8	8.48e-01	0	41	104	0	72	31061
2026-01-27 19:05:49.44	254.28	6.33	-50.1	-69.1	3.8	8.47e-01	0	41	104	0	71	32702
2026-01-27 19:05:50.46	254.18	6.41	-49.6	-69.0	3.8	8.47e-01	0	41	104	0	71	32196
2026-01-27 19:05:51.49	254.07	6.49	-49.6	-68.9	3.8	8.47e-01	0	41	104	0	71	32051
2026-01-27 19:05:52.51	253.96	6.57	-49.5	-68.9	3.8	8.46e-01	0	41	104	0	71	32080
2026-01-27 19:05:53.54	253.85	6.66	-49.6	-68.9	3.8	8.48e-01	0	41	104	0	71	32076
2026-01-27 19:05:54.56	253.74	6.74	-49.6	-68.9	3.8	8.47e-01	0	41	104	0	71	31974
2026-01-27 19:05:55.56	253.64	6.82	-49.6	-68.9	3.8	8.47e-01	0	42	104	0	71	32049
2026-01-27 19:05:56.55	253.53	6.90	-49.6	-68.9	3.8	8.47e-01	0	42	104	0	71	32035
2026-01-27 19:05:57.54	253.42	6.98	-49.6	-68.9	3.8	8.47e-01	0	42	104	0	71	31997
2026-01-27 19:05:58.54	253.31	7.06	-49.6	-68.9	3.8	8.47e-01	0	42	104	0	71	32091
2026-01-27 19:05:59.53	253.20	7.15	-49.6	-68.9	3.8	8.47e-01	0	42	104	0	71	31954
2026-01-27 19:06:00.52	253.09	7.23	-49.6	-68.9	3.8	8.47e-01	0	41	104	0	71	31997
2026-01-27 19:06:01.52	252.97	7.31	-49.5	-68.9	3.8	8.47e-01	0	42	104	0	71	31997
2026-01-27 19:06:02.51	252.86	7.39	-49.5	-68.9	3.8	8.47e-01	0	42	104	0	71	31998
2026-01-27 19:06:03.50	252.75	7.48	-49.6	-68.9	3.8	8.47e-01	0	42	104	0	71	32007
2026-01-27 19:06:04.50	252.63	7.56	-49.6	-68.9	3.8	8.47e-01	0	42	104	0	71	31943
2026-01-27 19:06:05.49	252.51	7.64	-49.6	-68.9	3.8	8.46e-01	0	42	104	0	71	32019
2026-01-27 19:06:06.49	252.39	7.73	-49.6	-68.9	3.8	8.47e-01	0	42	104	0	71	32026
2026-01-27 19:06:07.48	252.28	7.81	-49.6	-68.9	3.8	8.47e-01	0	42	104	0	71	31993
2026-01-27 19:06:08.47	252.16	7.90	-49.6	-68.9	3.8	8.47e-01	0	42	104	0	71	31963
2026-01-27 19:06:09.46	252.04	7.98	-49.5	-68.9	3.8	8.48e-01	0	42	104	0	71	31978
2026-01-27 19:06:10.47	251.91	8.07	-49.6	-68.9	3.8	8.48e-01	0	42	104	0	71	31985
2026-01-27 19:06:11.50	251.79	8.16	-49.6	-68.9	3.8	8.47e-01	0	42	104	0	71	32048
2026-01-27 19:06:12.52	251.66	8.25	-49.5	-68.9	3.8	8.47e-01	0	42	104	0	71	31924
2026-01-27 19:06:13.55	251.53	8.34	-49.5	-68.9	3.8	8.47e-01	0	42	104	0	71	32026
2026-01-27 19:06:14.54	251.41	8.43	-49.5	-68.9	3.8	8.47e-01	0	42	104	0	71	31948
2026-01-27 19:06:15.54	251.28	8.51	-49.6	-68.9	3.8	8.47e-01	0	42	104	0	71	31989
2026-01-27 19:06:16.53	251.15	8.60	-49.6	-68.9	3.8	8.48e-01	0	42	104	0	71	31960
2026-01-27 19:06:17.52	251.02	8.69	-49.6	-68.9	3.8	8.48e-01	0	42	104	0	71	31936
2026-01-27 19:06:18.52	250.89	8.78	-49.5	-68.9	3.8	8.48e-01	0	42	104	0	71	31898
2026-01-27 19:06:19.51	250.76	8.87	-49.6	-68.9	3.8	8.47e-01	0	42	104	0	71	31829
2026-01-27 19:06:20.50	250.63	8.96	-49.6	-68.9	3.8	8.47e-01	0	42	104	0	71	31910
2026-01-27 19:06:21.50	250.50	9.05	-49.7	-68.9	3.8	8.47e-01	0	42	104	0	71	31933
2026-01-27 19:06:22.49	250.36	9.14	-49.9	-68.9	3.8	8.47e-01	0	42	104	0	71	31924
2026-01-27 19:06:23.49	250.23	9.23	-49.8	-68.9	3.8	8.47e-01	0	42	104	0	71	31914
2026-01-27 19:06:24.48	250.09	9.32	-49.7	-68.9	3.8	8.47e-01	0	42	104	0	71	32096
2026-01-27 19:06:25.48	249.95	9.41	-49.9	-68.9	3.8	8.47e-01	0	42	104	0	71	32118
2026-01-27 19:06:26.47	249.81	9.50	-49.9	-68.9	3.8	8.47e-01	0	42	104	0	71	31977
2026-01-27 19:06:27.46	249.67	9.59	-49.9	-68.9	3.8	8.47e-01	0	42	104	0	71	31992
2026-01-27 19:06:28.46	249.53	9.69	-49.9	-68.9	3.8	8.47e-01	0	42	104	0	71	31973
2026-01-27 19:06:29.45	249.39	9.78	-49.8	-69.0	3.8	8.47e-01	0	42	104	0	71	32230
2026-01-27 19:06:30.45	249.24	9.87	-49.7	-68.9	3.8	8.46e-01	0	42	104	0	71	31979
2026-01-27 19:06:31.44	249.10	9.96	-49.6	-68.9	3.8	8.47e-01	0	42	104	0	71	32050
2026-01-27 19:06:32.44	248.95	10.06	-49.7	-68.9	3.8	8.47e-01	0	42	104	0	71	32023
2026-01-27 19:06:33.43	248.80	10.15	-49.6	-68.9	3.8	8.47e-01	0	42	104	0	71	32085
2026-01-27 19:06:34.43	248.65	10.25	-49.3	-68.9	3.8	8.48e-01	0	42	104	0	70	34005
2026-01-27 19:06:35.42	248.50	10.34	-49.4	-68.9	3.8	8.47e-01	0	42	104	0	70	33921
2026-01-27 19:06:36.42	248.35	10.44	-49.5	-68.9	3.8	8.47e-01	0	42	104	0	70	34049
2026-01-27 19:06:37.41	248.20	10.54	-49.5	-69.0	3.8	8.47e-01	0	42	104	0	70	34096
2026-01-27 19:06:38.41	248.04	10.63	-49.2	-68.9	3.8	8.47e-01	0	42	104	0	70	33800
2026-01-27 19:06:39.40	247.89	10.73	-49.5	-68.9	3.8	8.47e-01	0	43	104	0	70	33976
2026-01-27 19:06:40.40	247.73	10.83	-49.4	-68.9	3.8	8.47e-01	0	42	104	0	70	34025
2026-01-27 19:06:41.39	247.57	10.92	-49.8	-68.9	3.8	8.46e-01	0	43	104	0	70	34051
2026-01-27 19:06:42.39	247.41	11.02	-49.8	-68.9	3.8	8.46e-01	0	42	104	0	70	33918
2026-01-27 19:06:43.44	247.24	11.13	-50.0	-68.9	3.8	8.46e-01	0	43	104	0	70	34067
2026-01-27 19:06:44.35	247.09	11.22	-49.9	-68.9	3.8	8.48e-01	0	42	104	0	70	34066
2026-01-27 19:06:45.48	246.90	11.33	-50.0	-69.0	3.8	8.48e-01	0	43	104	0	70	34178
2026-01-27 19:06:46.33	246.76	11.42	-49.9	-68.9	3.8	8.46e-01	0	43	104	0	70	34072
2026-01-27 19:06:47.46	246.57	11.53	-49.9	-69.0	3.8	8.47e-01	0	42	104	0	70	34136
2026-01-27 19:06:48.32	246.42	11.62	-49.9	-69.0	3.8	8.47e-01	0	43	104	0	70	34131
2026-01-27 19:06:49.45	246.23	11.73	-49.8	-69.0	3.8	8.47e-01	0	43	104	0	70	34384
2026-01-27 19:06:50.31	246.08	11.82	-50.1	-69.0	3.8	8.47e-01	0	42	104	0	70	34232
2026-01-27 19:06:51.44	245.88	11.94	-50.0	-69.0	3.8	8.46e-01	0	42	104	0	70	34336
2026-01-27 19:06:52.30	245.73	12.02	-49.9	-69.0	3.8	8.46e-01	0	42	104	0	70	34270
2026-01-27 19:06:53.43	245.52	12.14	-49.9	-69.0	3.8	8.47e-01	0	42	104	0	70	34371
2026-01-27 19:06:54.28	245.37	12.23	-50.1	-69.0	3.8	8.47e-01	0	43	104	0	70	34257
2026-01-27 19:06:55.42	245.16	12.35	-49.9	-69.0	3.8	8.48e-01	0	43	104	0	70	34329
2026-01-27 19:06:56.28	245.01	12.44	-50.0	-69.0	3.8	8.47e-01	0	43	104	0	70	34298
2026-01-27 19:06:57.41	244.80	12.56	-49.9	-69.0	3.8	8.47e-01	0	43	104	0	70	34426
2026-01-27 19:06:58.27	244.64	12.65	-50.1	-69.0	3.8	8.47e-01	0	43	104	0	70	34171
2026-01-27 19:06:59.40	244.42	12.77	-49.9	-69.0	3.8	8.47e-01	0	43	104	0	70	34322
2026-01-27 19:07:00.25	244.26	12.86	-50.0	-69.0	3.8	8.46e-01	0	43	104	0	70	34377
2026-01-27 19:07:01.61	244.00	13.00	-49.9	-69.0	3.8	8.46e-01	0	43	104	0	70	34233
2026-01-27 19:07:02.32	243.86	13.08	-49.9	-68.9	3.8	8.47e-01	0	42	104	0	70	34025
2026-01-27 19:07:03.60	243.61	13.22	-49.9	-69.0	3.8	8.46e-01	0	43	104	0	70	34355
2026-01-27 19:07:04.33	243.46	13.30	-49.9	-69.0	3.8	8.46e-01	0	43	104	0	70	34300
2026-01-27 19:07:05.62	243.20	13.44	-50.0	-69.0	3.8	8.47e-01	0	43	104	0	70	34187
2026-01-27 19:07:06.33	243.06	13.51	-50.1	-69.0	3.8	8.48e-01	0	43	104	0	70	34129
2026-01-27 19:07:07.61	242.80	13.65	-50.1	-69.0	3.8	8.47e-01	0	43	104	0	70	34331
2026-01-27 19:07:08.33	242.65	13.73	-50.1	-69.0	3.8	8.47e-01	0	43	104	0	70	34351
2026-01-27 19:07:09.61	242.38	13.88	-50.0	-69.0	3.8	8.47e-01	0	43	104	0	71	32381
2026-01-27 19:07:10.32	242.24	13.95	-49.8	-69.0	3.8	8.47e-01	0	43	104	0	71	32268
2026-01-27 19:07:11.60	241.96	14.10	-49.8	-69.0	3.8	8.47e-01	0	43	104	0	71	32369
2026-01-27 19:07:12.32	241.81	14.18	-49.9	-69.0	3.8	8.47e-01	0	43	104	0	71	32483
2026-01-27 19:07:13.61	241.53	14.32	-49.7	-69.0	3.8	8.47e-01	0	43	104	0	70	34361
2026-01-27 19:07:14.34	241.37	14.40	-49.8	-69.0	3.8	8.47e-01	0	43	104	0	70	34339
2026-01-27 19:07:15.62	241.09	14.55	-49.6	-69.0	3.8	8.47e-01	0	43	104	0	70	34446
2026-01-27 19:07:16.37	240.92	14.63	-49.6	-69.0	3.8	8.46e-01	0	43	104	0	70	34426
2026-01-27 19:07:17.66	240.63	14.78	-49.9	-69.0	3.8	8.46e-01	0	43	104	0	70	34376
2026-01-27 19:07:18.37	240.47	14.86	-50.0	-69.1	3.8	8.46e-01	0	43	104	0	70	34505
2026-01-27 19:07:19.65	240.17	15.01	-50.0	-69.0	3.8	8.46e-01	0	43	104	0	70	34395
2026-01-27 19:07:20.38	240.00	15.09	-49.9	-69.0	3.8	8.46e-01	0	43	104	0	70	34361
2026-01-27 19:07:21.66	239.70	15.24	-50.1	-69.1	3.8	8.47e-01	0	43	104	0	70	34532
2026-01-27 19:07:22.38	239.53	15.32	-50.1	-69.1	3.8	8.47e-01	0	43	104	0	70	34555
2026-01-27 19:07:23.66	239.23	15.47	-50.1	-69.1	3.8	8.46e-01	0	43	104	0	70	34680
2026-01-27 19:07:24.37	239.05	15.56	-50.1	-69.1	3.8	8.46e-01	0	43	104	0	70	34668
2026-01-27 19:07:25.65	238.74	15.71	-50.2	-69.1	3.8	8.47e-01	0	43	104	0	70	34671
2026-01-27 19:07:26.36	238.57	15.79	-50.2	-69.1	3.8	8.47e-01	0	43	104	0	71	32775
2026-01-27 19:07:27.65	238.25	15.94	-50.2	-69.1	3.8	8.47e-01	0	43	104	0	71	32680
2026-01-27 19:07:28.37	238.07	16.03	-50.2	-69.1	3.8	8.46e-01	0	43	104	0	71	32674
2026-01-27 19:07:29.65	237.74	16.18	-50.1	-69.1	3.8	8.47e-01	0	43	104	0	71	32761
2026-01-27 19:07:30.37	237.56	16.26	-50.1	-69.1	3.8	8.47e-01	0	43	104	0	71	32712
2026-01-27 19:07:31.65	237.22	16.42	-50.1	-69.1	3.8	8.47e-01	0	43	104	0	71	32680
2026-01-27 19:07:32.36	237.04	16.50	-50.1	-69.1	3.8	8.47e-01	0	43	104	0	71	32614
2026-01-27 19:07:33.65	236.70	16.66	-49.9	-69.1	3.8	8.47e-01	0	43	104	0	71	32661
2026-01-27 19:07:34.38	236.50	16.74	-49.9	-69.1	3.8	8.47e-01	0	43	104	0	71	32730
2026-01-27 19:07:35.66	236.16	16.90	-49.9	-69.1	3.8	8.47e-01	0	43	104	0	71	32714
2026-01-27 19:07:36.38	235.96	16.99	-49.9	-69.1	3.8	8.47e-01	0	43	104	0	71	32703
2026-01-27 19:07:37.66	235.61	17.14	-50.0	-69.1	3.8	8.47e-01	0	43	104	0	71	32796
2026-01-27 19:07:38.37	235.41	17.23	-50.0	-69.1	3.8	8.47e-01	0	43	104	0	71	32851
2026-01-27 19:07:39.66	235.05	17.38	-50.0	-69.1	3.8	8.47e-01	0	43	104	0	71	32793
2026-01-27 19:07:40.38	234.84	17.47	-50.1	-69.1	3.8	8.47e-01	0	43	104	0	71	32862
2026-01-27 19:07:41.66	234.48	17.63	-49.9	-69.1	3.8	8.47e-01	0	43	104	0	71	32829
2026-01-27 19:07:42.41	234.26	17.72	-49.9	-69.1	3.8	8.47e-01	0	43	104	0	71	32895
2026-01-27 19:07:43.70	233.88	17.88	-49.9	-69.1	3.8	8.47e-01	0	43	104	0	71	32886
2026-01-27 19:07:44.41	233.67	17.97	-49.9	-69.1	3.8	8.47e-01	0	43	104	0	71	32811
2026-01-27 19:07:45.70	233.29	18.13	-50.0	-69.2	3.8	8.46e-01	0	43	104	0	71	32995
2026-01-27 19:07:46.41	233.07	18.21	-50.0	-69.2	3.8	8.46e-01	0	43	104	0	71	32997
2026-01-27 19:07:47.70	232.68	18.37	-50.1	-69.2	3.8	8.48e-01	0	43	104	0	71	32949
2026-01-27 19:07:48.41	232.46	18.46	-50.1	-69.1	3.8	8.47e-01	0	43	104	0	71	32857
2026-01-27 19:07:49.70	232.06	18.62	-50.2	-69.1	3.8	8.47e-01	0	43	104	0	71	32864
2026-01-27 19:07:50.41	231.84	18.71	-50.1	-69.2	3.8	8.46e-01	0	43	104	0	71	32930
2026-01-27 19:07:51.69	231.43	18.87	-50.2	-69.2	3.8	8.47e-01	0	43	104	0	71	32983
2026-01-27 19:07:52.42	231.20	18.96	-50.1	-69.1	3.8	8.47e-01	0	43	104	0	71	32891
2026-01-27 19:07:53.71	230.78	19.12	-50.1	-69.1	3.8	8.47e-01	0	43	104	0	71	32925
2026-01-27 19:07:54.43	230.54	19.21	-50.2	-69.1	3.8	8.47e-01	0	43	104	0	71	32785
2026-01-27 19:07:55.71	230.12	19.37	-50.2	-69.1	3.8	8.46e-01	0	43	104	0	71	32862
2026-01-27 19:07:56.42	229.88	19.46	-50.1	-69.1	3.8	8.46e-01	0	43	104	0	71	32866
2026-01-27 19:07:57.71	229.45	19.62	-50.1	-69.1	3.8	8.47e-01	0	43	104	0	71	32873
2026-01-27 19:07:58.43	229.20	19.71	-50.1	-69.1	3.8	8.48e-01	0	43	104	0	71	32766
2026-01-27 19:07:59.71	228.76	19.87	-50.1	-69.1	3.8	8.48e-01	0	43	104	0	71	32783
2026-01-27 19:08:00.42	228.52	19.95	-50.1	-69.1	3.8	8.47e-01	0	43	104	0	71	32721
2026-01-27 19:08:01.71	228.06	20.12	-50.2	-69.2	3.8	8.46e-01	0	43	104	0	71	32943
2026-01-27 19:08:02.42	227.81	20.20	-50.2	-69.1	3.8	8.46e-01	0	43	104	0	71	32882
2026-01-27 19:08:03.70	227.35	20.36	-50.2	-69.1	3.8	8.47e-01	0	43	104	0	71	32882
2026-01-27 19:08:04.41	227.10	20.45	-50.2	-69.1	3.8	8.47e-01	0	43	104	0	71	32867
2026-01-27 19:08:05.69	226.63	20.61	-50.2	-69.1	3.8	8.47e-01	0	43	104	0	71	32893
2026-01-27 19:08:06.42	226.36	20.70	-50.2	-69.2	3.8	8.47e-01	0	43	104	0	71	33048
2026-01-27 19:08:07.70	225.89	20.86	-50.2	-69.2	3.8	8.47e-01	0	43	104	0	71	32974
2026-01-27 19:08:08.41	225.62	20.94	-50.2	-69.2	3.8	8.47e-01	0	43	104	0	71	32988
2026-01-27 19:08:09.70	225.13	21.10	-50.2	-69.2	3.8	8.47e-01	0	43	104	0	71	33178
2026-01-27 19:08:10.42	224.86	21.19	-50.3	-69.2	3.8	8.48e-01	0	43	104	0	71	33097
2026-01-27 19:08:11.71	224.36	21.35	-50.3	-69.2	3.8	8.48e-01	0	43	104	0	71	33038
2026-01-27 19:08:12.42	224.08	21.43	-50.3	-69.2	3.8	8.48e-01	0	43	104	0	71	33042
2026-01-27 19:08:13.71	223.57	21.59	-50.3	-69.2	3.8	8.47e-01	0	43	104	0	71	33060
2026-01-27 19:08:14.42	223.29	21.68	-50.3	-69.2	3.8	8.47e-01	0	43	104	0	71	32995
2026-01-27 19:08:15.70	222.78	21.83	-50.2	-69.2	3.8	8.48e-01	0	43	104	0	71	33007
2026-01-27 19:08:16.42	222.49	21.92	-50.2	-69.2	3.8	8.46e-01	0	43	104	0	71	33055
2026-01-27 19:08:17.70	221.96	22.07	-50.1	-69.2	3.8	8.48e-01	0	43	104	0	71	33044
2026-01-27 19:08:18.42	221.67	22.16	-50.1	-69.2	3.8	8.48e-01	0	43	104	0	71	32996
2026-01-27 19:08:19.71	221.13	22.31	-50.2	-69.2	3.8	8.47e-01	0	43	104	0	71	33149
2026-01-27 19:08:20.42	220.83	22.39	-50.1	-69.2	3.8	8.46e-01	0	43	104	0	71	33094
2026-01-27 19:08:21.70	220.29	22.54	-50.2	-69.2	3.8	8.46e-01	0	43	104	0	71	33164
2026-01-27 19:08:22.44	219.97	22.63	-50.2	-69.2	3.8	8.47e-01	0	43	104	0	71	33157
2026-01-27 19:08:23.73	219.42	22.77	-50.2	-69.2	3.8	8.47e-01	0	43	104	0	71	33107
2026-01-27 19:08:24.45	219.10	22.86	-50.2	-69.2	3.8	8.47e-01	0	43	104	0	71	33154
2026-01-27 19:08:25.74	218.54	23.00	-50.2	-69.2	3.8	8.47e-01	0	43	104	0	71	33130
2026-01-27 19:08:26.45	218.22	23.08	-50.1	-69.2	3.8	8.47e-01	0	43	104	0	71	33051
2026-01-27 19:08:27.74	217.65	23.23	-50.1	-69.2	3.8	8.47e-01	0	43	104	0	71	33215
2026-01-27 19:08:28.44	217.33	23.30	-50.1	-69.2	3.8	8.47e-01	0	43	104	0	71	33254
2026-01-27 19:08:29.73	216.75	23.45	-50.3	-69.2	3.8	8.46e-01	0	43	104	0	71	33151
2026-01-27 19:08:30.44	216.42	23.52	-50.3	-69.2	3.8	8.46e-01	0	43	104	0	71	33156
2026-01-27 19:08:31.73	215.83	23.66	-50.3	-69.2	3.8	8.47e-01	0	43	104	0	71	33142
2026-01-27 19:08:32.44	215.50	23.74	-50.2	-69.2	3.8	8.47e-01	0	43	104	0	71	33090
2026-01-27 19:08:33.73	214.89	23.87	-50.1	-69.2	3.8	8.47e-01	0	43	104	0	71	33142
2026-01-27 19:08:34.44	214.56	23.95	-50.1	-69.2	3.8	8.47e-01	0	43	104	0	71	33083
2026-01-27 19:08:35.72	213.95	24.08	-50.1	-69.2	3.8	8.46e-01	0	43	104	0	71	33072
2026-01-27 19:08:36.44	213.60	24.15	-50.1	-69.2	3.8	8.47e-01	0	43	104	0	71	33091
2026-01-27 19:08:37.73	212.98	24.28	-50.1	-69.2	3.8	8.47e-01	0	43	104	0	71	33042
2026-01-27 19:08:38.44	212.63	24.35	-50.1	-69.2	3.8	8.48e-01	0	43	104	0	71	33018
2026-01-27 19:08:39.73	212.00	24.47	-50.1	-69.2	3.8	8.48e-01	0	43	104	0	71	33186
2026-01-27 19:08:40.45	211.65	24.54	-50.2	-69.2	3.8	8.48e-01	0	43	104	0	71	33305
2026-01-27 19:08:41.73	211.01	24.66	-50.2	-69.2	3.8	8.47e-01	0	43	104	0	71	33246
2026-01-27 19:08:42.44	210.65	24.73	-50.2	-69.2	3.8	8.46e-01	0	43	104	0	71	33244
2026-01-27 19:08:43.73	210.00	24.84	-50.1	-69.2	3.8	8.46e-01	0	43	104	0	71	33275
2026-01-27 19:08:44.44	209.64	24.91	-50.2	-69.2	3.8	8.46e-01	0	43	104	0	71	33272
2026-01-27 19:08:45.76	208.97	25.02	-50.2	-69.3	3.8	8.46e-01	0	43	104	0	71	33311
2026-01-27 19:08:46.47	208.60	25.08	-50.2	-69.2	3.8	8.46e-01	0	43	104	0	71	33285
2026-01-27 19:08:47.76	207.94	25.19	-50.3	-69.2	3.8	8.47e-01	0	43	104	0	71	33223
2026-01-27 19:08:48.48	207.56	25.25	-50.3	-69.2	3.8	8.47e-01	0	43	104	0	71	33138
2026-01-27 19:08:49.76	206.89	25.35	-50.2	-69.2	3.8	8.46e-01	0	43	104	0	71	33149
2026-01-27 19:08:50.47	206.52	25.40	-50.1	-69.2	3.8	8.46e-01	0	43	104	0	71	33288
2026-01-27 19:08:51.76	205.84	25.50	-50.2	-69.2	3.8	8.48e-01	0	43	104	0	71	33309
2026-01-27 19:08:52.47	205.46	25.55	-50.2	-69.3	3.8	8.46e-01	0	43	104	0	71	33317
2026-01-27 19:08:53.75	204.77	25.64	-50.1	-69.3	3.8	8.46e-01	0	43	104	0	71	33396
2026-01-27 19:08:54.49	204.37	25.69	-50.2	-69.3	3.8	8.47e-01	0	43	104	0	71	33334
2026-01-27 19:08:55.77	203.68	25.78	-50.2	-69.3	3.8	8.47e-01	0	43	104	0	71	33411
2026-01-27 19:08:56.49	203.29	25.82	-50.2	-69.3	3.8	8.47e-01	0	43	104	0	71	33453
2026-01-27 19:08:57.77	202.59	25.90	-50.3	-69.3	3.8	8.47e-01	0	43	104	0	71	33346
2026-01-27 19:08:58.48	202.20	25.95	-50.3	-69.3	3.8	8.46e-01	0	43	104	0	71	33412
2026-01-27 19:08:59.79	201.48	26.02	-50.3	-69.3	3.8	8.47e-01	0	43	104	0	71	33414
2026-01-27 19:09:00.50	201.09	26.06	-50.4	-69.3	3.8	8.47e-01	0	43	104	0	71	33341
2026-01-27 19:09:01.78	200.38	26.13	-50.2	-69.3	3.8	8.47e-01	0	43	104	0	71	33358
2026-01-27 19:09:02.53	199.96	26.16	-50.2	-69.2	3.8	8.47e-01	0	43	104	0	71	33278
2026-01-27 19:09:03.81	199.25	26.23	-50.3	-69.2	3.8	8.47e-01	0	43	104	0	71	33282
2026-01-27 19:09:04.55	198.83	26.26	-50.3	-69.3	3.8	8.47e-01	0	43	104	0	71	33394
2026-01-27 19:09:05.83	198.11	26.31	-50.3	-69.2	3.8	8.48e-01	0	43	104	0	71	33268
2026-01-27 19:09:06.55	197.71	26.34	-50.3	-69.3	3.8	8.48e-01	0	43	104	0	71	33345
2026-01-27 19:09:07.83	196.98	26.39	-50.4	-69.3	3.8	8.47e-01	0	43	104	0	71	33330
2026-01-27 19:09:08.56	196.57	26.41	-50.4	-69.3	3.8	8.47e-01	0	43	104	0	71	33508
2026-01-27 19:09:09.84	195.84	26.45	-50.2	-69.3	3.8	8.47e-01	0	43	104	0	71	33390
2026-01-27 19:09:10.55	195.43	26.47	-50.3	-69.2	3.8	8.47e-01	0	43	104	0	71	33309
2026-01-27 19:09:11.84	194.70	26.51	-50.3	-69.2	3.8	8.47e-01	0	43	104	0	71	33305
2026-01-27 19:09:12.55	194.29	26.52	-50.3	-69.3	3.8	8.47e-01	0	43	104	0	71	33523
2026-01-27 19:09:13.83	193.56	26.55	-50.3	-69.3	3.8	8.47e-01	0	43	104	0	71	33322
2026-01-27 19:09:14.55	193.14	26.56	-50.3	-69.3	3.8	8.46e-01	0	43	104	0	71	33483
2026-01-27 19:09:15.83	192.41	26.58	-50.4	-69.3	3.8	8.47e-01	0	43	104	0	71	33479
2026-01-27 19:09:16.54	192.00	26.59	-50.4	-69.3	3.8	8.47e-01	0	43	104	0	71	33511
2026-01-27 19:09:17.83	191.26	26.60	-50.3	-69.3	3.8	8.48e-01	0	43	104	0	71	33393
2026-01-27 19:09:18.55	190.84	26.61	-50.3	-69.3	3.8	8.48e-01	0	44	104	0	71	33453
2026-01-27 19:09:19.83	190.11	26.61	-50.3	-69.3	3.8	8.47e-01	0	43	104	0	71	33613
2026-01-27 19:09:20.56	189.69	26.61	-50.4	-69.3	3.8	8.47e-01	0	43	104	0	71	33492
2026-01-27 19:09:21.84	188.95	26.61	-50.3	-69.3	3.8	8.47e-01	0	43	104	0	71	33413
2026-01-27 19:09:22.57	188.53	26.61	-50.4	-69.3	3.8	8.47e-01	0	43	104	0	71	33557
2026-01-27 19:09:23.84	187.80	26.60	-50.3	-69.3	3.8	8.48e-01	0	43	104	0	71	33569
2026-01-27 19:09:24.61	187.35	26.59	-50.4	-69.3	3.8	8.47e-01	0	43	104	0	71	33545
2026-01-27 19:09:25.89	186.62	26.57	-50.3	-69.3	3.8	8.48e-01	0	43	104	0	71	33456
2026-01-27 19:09:26.62	186.20	26.56	-50.3	-69.3	3.8	8.48e-01	0	43	104	0	71	33626
2026-01-27 19:09:27.91	185.46	26.54	-50.2	-69.3	3.8	8.47e-01	0	43	104	0	71	33514
2026-01-27 19:09:28.62	185.05	26.52	-50.3	-69.4	3.8	8.47e-01	0	43	104	0	71	33705
2026-01-27 19:09:29.90	184.32	26.49	-50.3	-69.3	3.8	8.46e-01	0	43	104	0	71	33452
2026-01-27 19:09:30.61	183.91	26.47	-50.4	-69.3	3.8	8.47e-01	0	43	104	0	71	33531
2026-01-27 19:09:31.89	183.19	26.43	-50.4	-69.3	3.8	8.47e-01	0	43	104	0	71	33554
2026-01-27 19:09:32.62	182.77	26.41	-50.4	-69.3	3.8	8.47e-01	0	43	104	0	71	33659
2026-01-27 19:09:33.90	182.04	26.36	-50.3	-69.3	3.8	8.47e-01	0	43	104	0	71	33379
2026-01-27 19:09:34.64	181.63	26.34	-50.3	-69.3	3.8	8.47e-01	0	43	104	0	71	33498
2026-01-27 19:09:35.92	180.90	26.28	-50.3	-69.3	3.8	8.47e-01	0	43	104	0	71	33473
2026-01-27 19:09:36.64	180.50	26.25	-50.4	-69.3	3.8	8.47e-01	0	43	104	0	71	33434
2026-01-27 19:09:37.93	179.78	26.19	-50.2	-69.3	3.8	8.47e-01	0	43	104	0	71	33315
2026-01-27 19:09:38.65	179.38	26.16	-50.3	-69.3	3.8	8.47e-01	0	43	104	0	71	33533
2026-01-27 19:09:39.94	178.66	26.09	-50.3	-69.3	3.8	8.47e-01	0	43	104	0	71	33468
2026-01-27 19:09:40.71	178.23	26.05	-50.3	-69.3	3.8	8.47e-01	0	43	104	0	71	33396
2026-01-27 19:09:41.99	177.52	25.98	-50.3	-69.2	3.8	8.48e-01	0	43	104	0	71	33304
2026-01-27 19:09:42.71	177.13	25.94	-50.3	-69.3	3.8	8.48e-01	0	43	104	0	71	33356
2026-01-27 19:09:44.00	176.42	25.86	-50.3	-69.3	3.8	8.47e-01	0	43	104	0	71	33396
2026-01-27 19:09:44.72	176.03	25.82	-50.3	-69.3	3.8	8.47e-01	0	43	104	0	71	33420
2026-01-27 19:09:46.00	175.34	25.73	-50.3	-69.2	3.8	8.47e-01	0	43	104	0	71	33251
2026-01-27 19:09:46.73	174.94	25.68	-50.3	-69.2	3.8	8.46e-01	0	43	104	0	71	33281
2026-01-27 19:09:48.01	174.25	25.59	-50.3	-69.2	3.8	8.46e-01	0	43	104	0	71	33134
2026-01-27 19:09:48.73	173.87	25.54	-50.3	-69.2	3.8	8.46e-01	0	43	104	0	71	33111
2026-01-27 19:09:50.01	173.19	25.45	-50.2	-69.1	3.8	8.47e-01	0	43	104	0	71	32642
2026-01-27 19:09:50.74	172.80	25.39	-50.3	-69.3	3.8	8.46e-01	0	43	104	0	71	33324
2026-01-27 19:09:52.02	172.13	25.29	-50.3	-69.2	3.8	8.46e-01	0	43	104	0	71	33193
2026-01-27 19:09:52.73	171.76	25.23	-50.3	-69.3	3.8	8.46e-01	0	43	104	0	71	33324
2026-01-27 19:09:54.02	171.09	25.13	-50.2	-69.2	3.8	8.49e-01	0	43	104	0	71	33274
2026-01-27 19:09:54.76	170.71	25.07	-50.3	-69.2	3.8	8.49e-01	0	43	104	0	71	33299
2026-01-27 19:09:56.04	170.05	24.96	-50.3	-69.2	3.8	8.46e-01	0	43	104	0	71	33235
2026-01-27 19:09:56.77	169.68	24.89	-50.3	-69.3	3.8	8.47e-01	0	43	104	0	71	33350
2026-01-27 19:09:58.05	169.03	24.78	-50.3	-69.2	3.8	8.47e-01	0	43	104	0	71	33277
2026-01-27 19:09:58.77	168.67	24.71	-50.4	-69.3	3.8	8.47e-01	0	43	104	0	71	33357
2026-01-27 19:10:00.06	168.02	24.59	-50.3	-69.2	3.8	8.47e-01	0	43	104	0	71	33247
2026-01-27 19:10:00.78	167.67	24.53	-50.2	-69.2	3.8	8.47e-01	0	43	104	0	71	33259
2026-01-27 19:10:02.06	167.04	24.40	-50.3	-69.2	3.8	8.48e-01	0	43	104	0	71	33241
2026-01-27 19:10:02.79	166.68	24.33	-50.3	-69.2	3.8	8.46e-01	0	43	104	0	71	33240
2026-01-27 19:10:04.08	166.05	24.20	-50.3	-69.2	3.8	8.47e-01	0	43	104	0	71	33190
2026-01-27 19:10:04.79	165.71	24.13	-50.1	-69.2	3.8	8.47e-01	0	43	104	0	71	33163
2026-01-27 19:10:06.07	165.10	24.00	-50.3	-69.2	3.8	8.47e-01	0	43	104	0	71	33074
2026-01-27 19:10:06.79	164.76	23.93	-50.2	-69.2	3.8	8.47e-01	0	43	104	0	71	33192
2026-01-27 19:10:08.07	164.15	23.79	-50.2	-69.2	3.8	8.47e-01	0	43	104	0	71	33102
2026-01-27 19:10:08.80	163.81	23.72	-50.1	-69.2	3.8	8.47e-01	0	43	104	0	71	33169
2026-01-27 19:10:10.08	163.22	23.58	-50.3	-69.2	3.8	8.47e-01	0	43	104	0	71	33302
2026-01-27 19:10:10.80	162.89	23.50	-50.1	-69.2	3.8	8.47e-01	0	43	104	0	71	33243
2026-01-27 19:10:12.08	162.30	23.36	-50.1	-69.2	3.8	8.47e-01	0	43	104	0	71	33091
2026-01-27 19:10:12.79	161.98	23.28	-50.2	-69.2	3.8	8.46e-01	0	43	104	0	71	33192
2026-01-27 19:10:14.07	161.41	23.14	-50.1	-69.2	3.8	8.47e-01	0	43	104	0	71	33310
2026-01-27 19:10:14.83	161.07	23.06	-50.1	-69.2	3.8	8.47e-01	0	43	104	0	71	33138
2026-01-27 19:10:16.11	160.50	22.91	-50.0	-69.2	3.8	8.46e-01	0	43	104	0	71	33170
2026-01-27 19:10:16.84	160.19	22.83	-50.3	-69.2	3.8	8.46e-01	0	43	104	0	71	33211
2026-01-27 19:10:18.12	159.63	22.68	-50.1	-69.2	3.8	8.47e-01	0	44	104	0	71	33083
2026-01-27 19:10:18.84	159.32	22.60	-50.2	-69.2	3.8	8.45e-01	0	44	104	0	71	33089
2026-01-27 19:10:20.12	158.78	22.45	-50.1	-69.2	3.8	8.46e-01	0	43	104	0	71	33092
2026-01-27 19:10:20.84	158.47	22.37	-50.2	-69.2	3.8	8.46e-01	0	43	104	0	71	33141
2026-01-27 19:10:22.12	157.94	22.21	-50.1	-69.2	3.8	8.46e-01	0	43	104	0	71	33145
2026-01-27 19:10:22.85	157.63	22.13	-50.2	-69.2	3.8	8.46e-01	0	43	104	0	71	33093
2026-01-27 19:10:24.13	157.11	21.98	-50.2	-69.2	3.8	8.46e-01	0	43	104	0	71	33135
2026-01-27 19:10:24.86	156.81	21.89	-50.3	-69.2	3.8	8.46e-01	0	43	104	0	71	33038
2026-01-27 19:10:26.14	156.29	21.73	-50.1	-69.1	3.8	8.47e-01	0	43	104	0	71	32628
2026-01-27 19:10:26.86	156.01	21.65	-50.3	-69.2	3.8	8.47e-01	0	43	104	0	71	33042
2026-01-27 19:10:28.15	155.50	21.49	-50.3	-69.1	3.8	8.47e-01	0	43	104	0	71	32845
2026-01-27 19:10:28.87	155.21	21.40	-50.2	-69.1	3.8	8.47e-01	0	43	104	0	71	32920
2026-01-27 19:10:30.15	154.72	21.25	-50.2	-69.2	3.8	8.48e-01	0	43	104	0	71	32947
2026-01-27 19:10:30.87	154.44	21.16	-50.1	-69.1	3.8	8.48e-01	0	43	104	0	71	32617
2026-01-27 19:10:32.15	153.95	21.00	-50.2	-69.2	3.8	8.47e-01	0	43	104	0	71	32930
2026-01-27 19:10:32.89	153.67	20.91	-50.0	-69.1	3.8	8.47e-01	0	43	104	0	71	32676
2026-01-27 19:10:34.17	153.19	20.75	-50.2	-69.1	3.8	8.47e-01	0	44	104	0	71	32574
2026-01-27 19:10:34.89	152.93	20.66	-50.0	-68.9	3.8	8.47e-01	0	43	104	0	71	32177
2026-01-27 19:10:36.17	152.46	20.51	-49.9	-69.0	3.8	8.47e-01	0	43	104	0	71	32534
2026-01-27 19:10:36.89	152.20	20.42	-50.0	-68.9	3.8	8.47e-01	0	43	104	0	71	31945
2026-01-27 19:10:38.17	151.74	20.26	-50.0	-68.9	3.8	8.46e-01	0	44	104	0	71	32037
2026-01-27 19:10:38.88	151.48	20.17	-50.1	-69.0	3.8	8.47e-01	0	43	104	0	71	32497
2026-01-27 19:10:40.16	151.03	20.01	-50.0	-69.0	3.8	8.47e-01	0	43	104	0	71	32191
2026-01-27 19:10:40.88	150.78	19.92	-50.1	-69.1	3.8	8.46e-01	0	43	104	0	71	32636
2026-01-27 19:10:42.16	150.34	19.76	-50.1	-69.0	3.8	8.47e-01	0	43	104	0	71	32361
2026-01-27 19:10:42.87	150.09	19.67	-50.1	-69.1	3.8	8.47e-01	0	43	104	0	71	32778
2026-01-27 19:10:44.15	149.66	19.51	-50.1	-69.1	3.8	8.47e-01	0	43	104	0	71	32789
2026-01-27 19:10:44.89	149.41	19.42	-50.0	-69.1	3.8	8.48e-01	0	43	104	0	71	32699
2026-01-27 19:10:46.18	148.98	19.26	-50.0	-69.1	3.8	8.46e-01	0	43	104	0	71	32742
2026-01-27 19:10:46.89	148.75	19.17	-50.0	-69.0	3.8	8.46e-01	0	43	104	0	71	32549
2026-01-27 19:10:48.18	148.33	19.01	-50.0	-69.1	3.8	8.47e-01	0	43	104	0	71	32866
2026-01-27 19:10:48.89	148.10	18.92	-50.1	-69.1	3.8	8.47e-01	0	43	104	0	71	32728
2026-01-27 19:10:50.18	147.69	18.76	-50.0	-69.1	3.8	8.48e-01	0	43	104	0	71	32807
2026-01-27 19:10:50.89	147.46	18.67	-50.1	-69.1	3.8	8.48e-01	0	43	104	0	71	32853
2026-01-27 19:10:52.17	147.06	18.51	-50.1	-69.1	3.8	8.46e-01	0	43	104	0	71	32630
2026-01-27 19:10:52.89	146.84	18.42	-50.0	-69.1	3.8	8.46e-01	0	43	104	0	71	32720
2026-01-27 19:10:54.17	146.45	18.27	-50.0	-69.1	3.8	8.47e-01	0	43	104	0	71	32734
2026-01-27 19:10:54.91	146.22	18.17	-50.0	-69.1	3.8	8.47e-01	0	43	104	0	71	32841
2026-01-27 19:10:56.19	145.84	18.02	-50.0	-69.0	3.8	8.47e-01	0	43	104	0	71	32524
2026-01-27 19:10:56.90	145.63	17.93	-50.1	-69.1	3.8	8.47e-01	0	43	104	0	71	32752
2026-01-27 19:10:58.19	145.25	17.77	-50.0	-69.1	3.8	8.46e-01	0	43	104	0	71	32786
2026-01-27 19:10:58.90	145.04	17.68	-50.2	-69.0	3.8	8.46e-01	0	43	104	0	71	32504
2026-01-27 19:11:00.20	144.67	17.52	-50.1	-69.1	3.8	8.48e-01	0	44	104	0	71	32715
2026-01-27 19:11:00.92	144.46	17.43	-50.1	-69.1	3.8	8.47e-01	0	43	104	0	71	32719
2026-01-27 19:11:02.20	144.10	17.28	-50.2	-69.1	3.8	8.47e-01	0	43	104	0	71	32582
2026-01-27 19:11:02.91	143.90	17.19	-49.9	-69.1	3.8	8.47e-01	0	44	104	0	71	32651
2026-01-27 19:11:04.19	143.54	17.04	-50.0	-69.1	3.8	8.47e-01	0	43	104	0	71	32878
2026-01-27 19:11:04.91	143.35	16.95	-49.8	-69.1	3.8	8.47e-01	0	43	104	0	71	32713
2026-01-27 19:11:06.18	143.00	16.79	-49.9	-69.1	3.8	8.45e-01	0	43	104	0	71	32636
2026-01-27 19:11:06.91	142.81	16.71	-49.8	-69.0	3.8	8.47e-01	0	44	104	0	71	32543
2026-01-27 19:11:08.19	142.47	16.55	-49.8	-69.0	3.8	8.47e-01	0	43	104	0	71	32493
2026-01-27 19:11:08.93	142.27	16.46	-49.7	-69.0	3.8	8.47e-01	0	43	104	0	71	32430
2026-01-27 19:11:10.21	141.94	16.31	-49.8	-69.0	3.8	8.46e-01	0	44	104	0	71	32359
2026-01-27 19:11:10.92	141.75	16.23	-49.9	-69.0	3.8	8.48e-01	0	43	104	0	71	32265
2026-01-27 19:11:12.22	141.42	16.07	-49.8	-69.0	3.8	8.48e-01	0	43	104	0	71	32457
2026-01-27 19:11:12.94	141.24	15.99	-49.9	-69.0	3.8	8.48e-01	0	43	104	0	71	32373
2026-01-27 19:11:14.22	140.92	15.83	-49.8	-69.0	3.8	8.47e-01	0	43	104	0	71	32466
2026-01-27 19:11:14.96	140.73	15.75	-49.9	-69.0	3.8	8.47e-01	0	43	104	0	71	32292
2026-01-27 19:11:16.24	140.42	15.60	-49.9	-69.0	3.8	8.47e-01	0	43	104	0	71	32521
2026-01-27 19:11:16.95	140.25	15.51	-50.0	-69.0	3.8	8.48e-01	0	43	104	0	71	32495
2026-01-27 19:11:18.23	139.94	15.36	-50.0	-69.0	3.8	8.47e-01	0	43	104	0	71	32399
2026-01-27 19:11:18.95	139.77	15.28	-50.1	-69.0	3.8	8.47e-01	0	43	104	0	71	32388
2026-01-27 19:11:20.23	139.47	15.13	-50.1	-69.0	3.8	8.47e-01	0	43	104	0	71	32313
2026-01-27 19:11:20.95	139.30	15.05	-50.1	-69.0	3.8	8.47e-01	0	43	104	0	71	32378
2026-01-27 19:11:22.23	139.00	14.90	-50.1	-69.0	3.8	8.47e-01	0	44	104	0	71	32360
2026-01-27 19:11:22.94	138.84	14.82	-50.1	-69.0	3.8	8.48e-01	0	43	104	0	71	32313
2026-01-27 19:11:24.23	138.55	14.67	-50.1	-68.9	3.8	8.47e-01	0	43	104	0	71	32064
2026-01-27 19:11:24.94	138.39	14.59	-50.1	-69.0	3.8	8.47e-01	0	43	104	0	71	32220
2026-01-27 19:11:26.22	138.10	14.45	-50.1	-68.9	3.8	8.47e-01	0	44	104	0	71	32008
2026-01-27 19:11:26.95	137.94	14.37	-50.1	-69.0	3.8	8.47e-01	0	43	104	0	71	32193
2026-01-27 19:11:28.23	137.66	14.22	-50.1	-68.9	3.8	8.47e-01	0	43	104	0	71	31949
2026-01-27 19:11:28.96	137.51	14.14	-50.1	-69.0	3.8	8.48e-01	0	43	104	0	71	32233
2026-01-27 19:11:30.24	137.23	14.00	-50.1	-68.9	3.8	8.46e-01	0	43	104	0	71	32114
2026-01-27 19:11:30.95	137.08	13.92	-50.0	-69.0	3.8	8.46e-01	0	43	104	0	71	32232
2026-01-27 19:11:32.23	136.81	13.78	-50.1	-68.9	3.8	8.49e-01	0	43	104	0	71	31913
2026-01-27 19:11:32.97	136.66	13.69	-50.0	-69.0	3.8	8.46e-01	0	43	104	0	71	32200
2026-01-27 19:11:34.25	136.40	13.55	-50.0	-68.9	3.8	8.47e-01	0	43	104	0	71	31826
2026-01-27 19:11:34.97	136.25	13.47	-50.0	-68.9	3.8	8.47e-01	0	43	104	0	71	32056
2026-01-27 19:11:36.25	135.99	13.33	-50.0	-68.9	3.8	8.46e-01	0	43	104	0	71	32044
2026-01-27 19:11:36.99	135.84	13.25	-49.9	-68.9	3.8	8.46e-01	0	43	104	0	71	32169
2026-01-27 19:11:38.27	135.59	13.12	-50.0	-68.9	3.8	8.48e-01	0	43	104	0	71	32037
2026-01-27 19:11:38.98	135.45	13.04	-49.9	-68.9	3.8	8.46e-01	0	43	104	0	71	32175
2026-01-27 19:11:40.28	135.20	12.90	-50.0	-68.9	3.8	8.48e-01	0	43	104	0	71	32043
2026-01-27 19:11:40.99	135.06	12.82	-49.9	-68.9	3.8	8.48e-01	0	43	104	0	71	31928
2026-01-27 19:11:42.29	134.82	12.69	-49.8	-68.9	3.8	8.48e-01	0	43	104	0	71	31838
2026-01-27 19:11:43.01	134.68	12.61	-50.0	-68.9	3.8	8.47e-01	0	43	104	0	71	31977
2026-01-27 19:11:44.29	134.44	12.47	-49.9	-68.9	3.8	8.47e-01	0	43	104	0	71	31911
2026-01-27 19:11:45.00	134.31	12.40	-50.0	-68.9	3.8	8.47e-01	0	43	104	0	71	32121
2026-01-27 19:11:46.28	134.08	12.27	-49.9	-68.8	3.8	8.47e-01	0	43	104	0	71	31804
2026-01-27 19:11:47.00	133.95	12.19	-49.9	-68.9	3.8	8.47e-01	0	43	104	0	71	31934
2026-01-27 19:11:48.29	133.71	12.06	-50.0	-68.9	3.8	8.48e-01	0	43	104	0	71	31886
2026-01-27 19:11:49.01	133.59	11.98	-49.9	-68.9	3.8	8.47e-01	0	43	104	0	71	31864
2026-01-27 19:11:50.30	133.36	11.85	-49.9	-68.8	3.8	8.46e-01	0	43	104	0	71	31698
2026-01-27 19:11:51.01	133.23	11.78	-49.9	-68.9	3.8	8.46e-01	0	44	104	0	71	31853
2026-01-27 19:11:52.30	133.01	11.65	-49.9	-68.8	3.8	8.46e-01	0	43	104	0	71	31778
2026-01-27 19:11:53.02	132.89	11.57	-49.9	-68.9	3.8	8.46e-01	0	44	104	0	71	31899
2026-01-27 19:11:54.31	132.67	11.44	-49.8	-68.8	3.8	8.46e-01	0	43	104	0	71	31487
2026-01-27 19:11:55.02	132.55	11.37	-49.9	-68.9	3.8	8.46e-01	0	43	104	0	71	31872
2026-01-27 19:11:56.30	132.33	11.24	-49.9	-68.8	3.8	8.46e-01	0	43	104	0	71	31483
2026-01-27 19:11:57.03	132.21	11.17	-49.9	-68.8	3.8	8.46e-01	0	43	104	0	71	31602
2026-01-27 19:11:58.32	132.00	11.04	-49.9	-68.7	3.8	8.47e-01	0	43	104	0	71	31320
2026-01-27 19:11:59.03	131.89	10.97	-49.8	-68.7	3.8	8.47e-01	0	43	104	0	71	31416
2026-01-27 19:12:00.31	131.68	10.84	-49.9	-68.7	3.8	8.47e-01	0	43	104	0	71	31411
2026-01-27 19:12:01.04	131.56	10.77	-49.9	-68.8	3.8	8.46e-01	0	43	104	0	71	31680
2026-01-27 19:12:02.32	131.36	10.65	-49.8	-68.7	3.8	8.48e-01	0	43	104	0	71	31088
2026-01-27 19:12:03.05	131.25	10.58	-49.7	-68.8	3.8	8.48e-01	0	43	104	0	71	31524
2026-01-27 19:12:04.33	131.05	10.45	-49.8	-68.6	3.8	8.46e-01	0	43	104	0	71	31071
2026-01-27 19:12:05.07	130.94	10.38	-49.8	-68.8	3.8	8.47e-01	0	43	104	0	71	31560
2026-01-27 19:12:06.35	130.74	10.26	-49.7	-68.6	3.8	8.48e-01	0	43	104	0	71	30809
2026-01-27 19:12:07.06	130.63	10.19	-49.7	-68.7	3.8	8.48e-01	0	43	104	0	71	31130
2026-01-27 19:12:08.34	130.44	10.07	-49.7	-68.7	3.8	8.47e-01	0	44	104	0	71	31217
2026-01-27 19:12:09.09	130.33	10.00	-49.8	-68.8	3.8	8.48e-01	0	43	104	0	71	31551
2026-01-27 19:12:10.37	130.14	9.88	-49.7	-68.6	3.8	8.48e-01	0	43	104	0	71	30945
2026-01-27 19:12:11.08	130.04	9.81	-49.7	-68.7	3.8	8.47e-01	0	43	104	0	71	31152
2026-01-27 19:12:12.36	129.85	9.69	-49.7	-68.7	3.8	8.47e-01	0	43	104	0	71	31219
2026-01-27 19:12:13.08	129.75	9.62	-49.8	-68.7	3.8	8.47e-01	0	43	104	0	71	31390
2026-01-27 19:12:14.35	129.57	9.50	-49.6	-68.5	3.8	8.46e-01	0	43	104	0	71	30586
2026-01-27 19:12:15.08	129.47	9.44	-49.7	-68.6	3.8	8.48e-01	0	43	104	0	71	30842
2026-01-27 19:12:16.37	129.29	9.32	-49.7	-68.7	3.8	8.47e-01	0	43	104	0	71	31176
2026-01-27 19:12:17.07	129.19	9.25	-49.7	-68.7	3.8	8.47e-01	0	43	104	0	71	31109
2026-01-27 19:12:18.36	129.01	9.14	-49.6	-68.6	3.8	8.46e-01	0	43	104	0	71	30774
2026-01-27 19:12:19.07	128.92	9.07	-49.6	-68.6	3.8	8.46e-01	0	43	104	0	71	30976
2026-01-27 19:12:20.35	128.75	8.96	-49.8	-68.8	3.8	8.47e-01	0	43	104	0	71	31755
2026-01-27 19:12:21.07	128.65	8.89	-50.2	-69.0	3.8	8.48e-01	0	43	104	0	71	32473
2026-01-27 19:12:22.35	128.48	8.78	-50.3	-69.1	3.8	8.47e-01	0	43	104	0	71	32887
2026-01-27 19:12:23.07	128.39	8.71	-50.3	-69.2	3.8	8.47e-01	0	43	104	0	71	33222
2026-01-27 19:12:24.35	128.22	8.60	-50.2	-69.3	3.8	8.48e-01	0	43	104	0	71	33679
2026-01-27 19:12:25.07	128.13	8.53	-50.4	-69.3	3.8	8.48e-01	0	43	104	0	71	33602
2026-01-27 19:12:26.35	127.96	8.42	-50.4	-69.4	3.8	8.46e-01	0	43	104	0	71	33890
2026-01-27 19:12:27.09	127.87	8.36	-50.5	-69.4	3.8	8.47e-01	0	43	104	0	71	33885
2026-01-27 19:12:28.37	127.71	8.24	-50.6	-69.4	3.8	8.47e-01	0	43	104	0	71	34073
2026-01-27 19:12:29.10	127.62	8.18	-50.6	-69.5	3.8	8.47e-01	0	43	104	0	71	34223
2026-01-27 19:12:30.38	127.46	8.07	-50.4	-69.5	3.8	8.48e-01	0	44	104	0	71	34444
2026-01-27 19:12:31.11	127.37	8.01	-50.7	-69.6	3.8	8.47e-01	0	44	104	0	71	34487
2026-01-27 19:12:32.39	127.21	7.90	-50.6	-69.5	3.8	8.47e-01	0	44	104	0	72	32268
2026-01-27 19:12:33.15	127.12	7.83	-50.6	-69.5	3.8	8.47e-01	0	44	104	0	72	32371
2026-01-27 19:12:34.43	126.97	7.72	-50.3	-69.5	3.8	8.47e-01	0	44	104	0	72	32374
2026-01-27 19:12:35.16	126.88	7.66	-50.3	-69.5	3.8	8.47e-01	0	44	104	0	72	32355
2026-01-27 19:12:36.44	126.73	7.55	-50.7	-69.5	3.8	8.46e-01	0	44	104	0	72	32417
2026-01-27 19:12:37.16	126.65	7.49	-50.4	-69.5	3.8	8.46e-01	0	43	104	0	72	32478
2026-01-27 19:12:38.44	126.50	7.38	-50.7	-69.5	3.8	8.47e-01	0	44	104	0	72	32537
2026-01-27 19:12:39.15	126.42	7.32	-50.5	-69.5	3.8	8.47e-01	0	43	104	0	72	32453
2026-01-27 19:12:40.43	126.27	7.22	-50.6	-69.6	3.8	8.48e-01	0	44	104	0	72	32695
2026-01-27 19:12:41.15	126.19	7.16	-50.6	-69.6	3.8	8.48e-01	0	44	104	0	72	32728
2026-01-27 19:12:42.43	126.05	7.05	-50.7	-69.6	3.8	8.47e-01	0	43	104	0	72	32674
2026-01-27 19:12:43.15	125.96	6.99	-50.5	-69.5	3.8	8.47e-01	0	44	104	0	72	32526
2026-01-27 19:12:44.44	125.82	6.88	-50.5	-69.6	3.8	8.47e-01	0	44	104	0	72	32718
2026-01-27 19:12:45.16	125.74	6.83	-50.6	-69.6	3.8	8.47e-01	0	43	104	0	72	32681
2026-01-27 19:12:46.45	125.60	6.72	-50.5	-69.6	3.8	8.47e-01	0	43	104	0	72	32602
2026-01-27 19:12:47.16	125.53	6.66	-50.6	-69.6	3.8	8.47e-01	0	44	104	0	72	32829
2026-01-27 19:12:48.44	125.39	6.56	-50.5	-69.6	3.8	8.46e-01	0	44	104	0	72	32792
2026-01-27 19:12:49.16	125.31	6.50	-50.5	-69.6	3.8	8.46e-01	0	43	104	0	72	32708
2026-01-27 19:12:50.44	125.18	6.40	-50.6	-69.6	3.8	8.48e-01	0	43	104	0	72	32668
2026-01-27 19:12:51.15	125.11	6.34	-50.6	-69.6	3.8	8.48e-01	0	43	104	0	72	32723
2026-01-27 19:12:52.44	124.97	6.24	-50.5	-69.6	3.8	8.46e-01	0	43	104	0	72	32687
2026-01-27 19:12:53.19	124.89	6.18	-50.6	-69.6	3.8	8.46e-01	0	43	104	0	72	32582
2026-01-27 19:12:54.47	124.76	6.08	-50.6	-69.6	3.8	8.46e-01	0	43	104	0	72	32582
2026-01-27 19:12:55.19	124.69	6.02	-50.5	-69.6	3.8	8.46e-01	0	43	104	0	72	32599
2026-01-27 19:12:56.48	124.56	5.92	-50.3	-69.5	3.8	8.46e-01	0	43	104	0	72	32455
2026-01-27 19:12:57.23	124.49	5.86	-50.2	-69.5	3.8	8.46e-01	0	43	104	0	72	32373
2026-01-27 19:12:58.51	124.36	5.76	-50.3	-69.4	3.8	8.46e-01	0	43	104	0	72	32095
2026-01-27 19:12:59.25	124.29	5.71	-50.3	-69.4	3.8	8.47e-01	0	44	104	0	72	31919
2026-01-27 19:13:00.53	124.16	5.61	-50.3	-69.3	3.8	8.47e-01	0	43	104	0	72	31508
2026-01-27 19:13:01.25	124.09	5.55	-50.2	-69.1	3.8	8.47e-01	0	43	104	0	72	31063
2026-01-27 19:13:02.53	123.97	5.46	-50.0	-69.0	3.8	8.48e-01	0	43	104	0	71	32339
2026-01-27 19:13:03.26	123.90	5.40	-50.0	-69.0	3.8	8.47e-01	0	43	104	0	71	32321
2026-01-27 19:13:04.54	123.78	5.30	-49.9	-69.0	3.8	8.48e-01	0	44	104	0	71	32241
2026-01-27 19:13:05.25	123.71	5.25	-49.9	-69.0	3.8	8.48e-01	0	44	104	0	71	32222
2026-01-27 19:13:06.54	123.59	5.15	-49.9	-69.0	3.8	8.48e-01	0	43	104	0	71	32247
2026-01-27 19:13:07.26	123.53	5.10	-49.9	-68.9	3.8	8.48e-01	0	43	104	0	71	32160
2026-01-27 19:13:08.54	123.41	5.00	-49.9	-68.9	3.8	8.47e-01	0	43	104	0	71	32095

#Closed at: 2026-01-27 19:13:09
#Recorded file [0 MB]: D:/Data/31040_260127_220534.dat