passes_logs/2026/01/27/T1/T1__20260127_051044_FENGYUN_3E_rec.log

#Pass ID: 20260127_051044_FENGYUN 3E
#Satellite: FENGYUN 3E
#Configuration: FENGYUN 3E
#almurnet v.1.7.20251203
#Start time: 2026-01-27 05:10:45

#Version: 2.0.20230620
#Station: T1
#Location: 37.570604 lon 55.790049 lat
#TLE: 1 49008U 21062A   26026.84429991  .00000247  00000+0  13693-3 0  9991
#TLE: 2 49008  98.7501  31.8345 0002501 116.3456 243.7977 14.19887781236522

#Time	Az	El	Level	Level2	SNR	BER	BlckErr	Temp	State	Recorded	gain1	gain2
2026-01-27 05:10:45.93	8.98	5.11	-50.1	-61.1	3.8	8.47e-01	0	41	0	0	70	12842
2026-01-27 05:10:46.92	8.92	5.18	-50.1	-61.0	3.8	8.47e-01	0	41	104	0	70	12780
2026-01-27 05:10:47.91	8.87	5.25	-50.1	-61.0	3.8	8.48e-01	0	41	104	0	70	12750
2026-01-27 05:10:48.90	8.81	5.31	-50.2	-61.1	3.8	8.47e-01	0	41	104	0	70	12867
2026-01-27 05:10:49.90	8.75	5.38	-50.2	-61.1	3.8	8.47e-01	0	41	104	0	70	12954
2026-01-27 05:10:50.89	8.69	5.44	-50.2	-61.1	3.8	8.47e-01	0	42	104	0	70	12884
2026-01-27 05:10:51.88	8.63	5.51	-50.3	-61.1	3.8	8.46e-01	0	42	104	0	70	12958
2026-01-27 05:10:52.88	8.57	5.58	-50.4	-61.2	3.8	8.47e-01	0	42	104	0	70	12997
2026-01-27 05:10:53.87	8.51	5.64	-50.3	-61.1	3.8	8.45e-01	0	41	104	0	70	12886
2026-01-27 05:10:54.86	8.45	5.71	-50.5	-61.2	3.8	8.48e-01	0	41	104	0	70	12991
2026-01-27 05:10:55.86	8.38	5.78	-50.5	-61.2	3.8	8.49e-01	0	42	104	0	70	13020
2026-01-27 05:10:56.85	8.32	5.84	-50.3	-61.1	3.8	8.47e-01	0	42	104	0	70	12878
2026-01-27 05:10:57.84	8.26	5.91	-50.2	-61.1	3.8	8.47e-01	0	42	104	0	70	12914
2026-01-27 05:10:58.84	8.20	5.98	-50.2	-61.1	3.8	8.46e-01	0	42	104	0	70	12901
2026-01-27 05:10:59.83	8.14	6.04	-50.3	-61.1	3.8	8.46e-01	0	42	104	0	70	12863
2026-01-27 05:11:00.82	8.07	6.11	-50.1	-61.1	3.8	8.47e-01	0	42	104	0	70	12814
2026-01-27 05:11:01.81	8.01	6.18	-50.2	-61.0	3.8	8.48e-01	0	42	104	0	70	12722
2026-01-27 05:11:02.81	7.95	6.25	-50.3	-61.1	3.8	8.46e-01	0	42	104	0	70	12851
2026-01-27 05:11:03.80	7.88	6.31	-50.1	-61.1	3.8	8.48e-01	0	42	104	0	70	12821
2026-01-27 05:11:04.79	7.82	6.38	-50.1	-61.0	3.8	8.47e-01	0	42	104	0	70	12770
2026-01-27 05:11:05.79	7.76	6.45	-50.0	-61.0	3.8	8.47e-01	0	42	104	0	70	12733
2026-01-27 05:11:06.78	7.69	6.52	-49.3	-60.9	3.8	8.47e-01	0	42	104	0	69	13273
2026-01-27 05:11:07.77	7.63	6.59	-49.7	-60.9	3.8	8.48e-01	0	42	104	0	69	13399
2026-01-27 05:11:08.77	7.56	6.65	-49.6	-60.9	3.8	8.46e-01	0	42	104	0	69	13406
2026-01-27 05:11:09.76	7.50	6.72	-49.5	-60.9	3.8	8.47e-01	0	42	104	0	69	13340
2026-01-27 05:11:10.76	7.43	6.79	-49.7	-60.9	3.8	8.48e-01	0	42	104	0	69	13312
2026-01-27 05:11:11.75	7.36	6.86	-49.0	-60.9	3.8	8.46e-01	0	42	104	0	68	14061
2026-01-27 05:11:12.74	7.30	6.93	-48.7	-60.7	3.8	8.48e-01	0	42	104	0	67	14575
2026-01-27 05:11:13.74	7.23	7.00	-47.8	-60.6	3.8	8.47e-01	0	42	104	0	65	16275
2026-01-27 05:11:14.73	7.16	7.07	-47.7	-60.5	3.8	8.48e-01	0	42	104	0	66	15083
2026-01-27 05:11:15.72	7.10	7.14	-46.6	-59.4	3.8	8.47e-01	0	42	104	0	64	14976
2026-01-27 05:11:16.72	7.03	7.21	-46.6	-59.0	3.8	8.47e-01	0	43	104	0	63	15131
2026-01-27 05:11:17.71	6.96	7.28	-46.6	-58.5	3.8	8.45e-01	0	42	104	0	63	14328
2026-01-27 05:11:18.70	6.89	7.35	-46.6	-58.1	4.0	8.46e-01	0	42	104	0	63	13585
2026-01-27 05:11:19.69	6.82	7.42	-46.5	-57.8	3.9	8.43e-01	0	43	104	0	63	13220
2026-01-27 05:11:20.69	6.75	7.49	-46.5	-57.4	4.1	8.43e-01	0	43	0	0	63	12587
2026-01-27 05:11:21.68	6.68	7.56	-46.6	-57.4	4.1	8.42e-01	0	43	0	0	63	12562
2026-01-27 05:11:22.67	6.61	7.63	-46.5	-57.1	4.2	8.39e-01	0	43	0	0	63	12179
2026-01-27 05:11:23.67	6.54	7.70	-46.5	-56.8	4.2	8.36e-01	0	43	0	0	63	11815
2026-01-27 05:11:24.66	6.47	7.77	-46.4	-56.6	4.3	8.34e-01	0	43	0	0	63	11518
2026-01-27 05:11:25.66	6.40	7.84	-46.4	-56.3	4.4	8.30e-01	0	43	0	0	63	11121
2026-01-27 05:11:26.65	6.33	7.91	-46.4	-56.3	4.4	8.29e-01	0	43	0	0	63	11044
2026-01-27 05:11:27.64	6.26	7.99	-46.4	-56.0	4.5	8.22e-01	0	43	0	0	63	10658
2026-01-27 05:11:28.64	6.19	8.06	-46.3	-55.3	4.8	7.98e-01	0	43	0	0	63	9847
2026-01-27 05:11:29.63	6.11	8.13	-46.1	-54.2	5.5	7.21e-01	0	43	0	0	63	8683
2026-01-27 05:11:30.62	6.04	8.20	-45.9	-52.9	6.4	2.90e-01	0	43	0	4194304	62	7971
2026-01-27 05:11:31.62	5.97	8.27	-45.3	-51.0	8.2	8.69e-02	0	43	0	11534336	61	6739
2026-01-27 05:11:32.61	5.89	8.35	-44.7	-49.3	10.0	9.91e-03	0	43	0	18874368	60	5894
2026-01-27 05:11:33.60	5.82	8.42	-44.0	-47.5	11.7	1.68e-03	0	43	0	26214400	58	5391
2026-01-27 05:11:34.60	5.74	8.49	-43.3	-46.2	13.1	4.00e-05	0	43	0	33554432	57	4914
2026-01-27 05:11:35.59	5.67	8.56	-42.6	-45.1	14.2	1.10e-06	0	43	0	40894464	56	4590
2026-01-27 05:11:36.59	5.59	8.64	-41.9	-44.2	15.0	0.00e+00	0	43	0	48234496	54	4612
2026-01-27 05:11:37.58	5.52	8.71	-41.5	-43.7	15.5	0.00e+00	0	43	0	54525952	53	4604
2026-01-27 05:11:38.57	5.44	8.78	-41.6	-43.7	15.5	0.00e+00	0	43	0	61865984	53	4627
2026-01-27 05:11:39.57	5.37	8.86	-41.8	-44.0	15.2	0.00e+00	0	43	0	69206016	53	4810
2026-01-27 05:11:40.56	5.29	8.93	-42.3	-44.7	14.5	0.00e+00	0	43	0	76546048	53	5197
2026-01-27 05:11:41.55	5.21	9.00	-42.6	-45.2	14.0	2.20e-06	0	43	0	83886080	54	5201
2026-01-27 05:11:42.55	5.13	9.08	-42.8	-45.5	13.6	8.00e-06	0	43	0	91226112	55	5099
2026-01-27 05:11:43.54	5.06	9.15	-44.7	-48.8	10.5	1.97e-04	0	43	0	98566144	58	6241
2026-01-27 05:11:44.54	4.98	9.23	-42.7	-45.3	14.0	6.74e-02	0	43	0	104857600	56	4682
2026-01-27 05:11:45.53	4.90	9.30	-39.8	-41.4	17.9	0.00e+00	0	43	0	112197632	50	4196
2026-01-27 05:11:46.53	4.82	9.37	-41.0	-42.8	16.6	0.00e+00	0	43	0	119537664	51	4688
2026-01-27 05:11:47.52	4.74	9.45	-42.1	-44.4	14.7	8.19e-02	0	43	0	126877696	55	4456
2026-01-27 05:11:48.52	4.66	9.52	-39.3	-40.7	18.5	0.00e+00	0	43	0	134217728	49	4106
2026-01-27 05:11:49.51	4.58	9.60	-39.2	-40.6	18.7	0.00e+00	0	43	0	141557760	49	4064
2026-01-27 05:11:50.50	4.50	9.67	-39.0	-40.4	18.9	0.00e+00	0	43	0	147849216	48	4197
2026-01-27 05:11:51.50	4.42	9.75	-39.1	-40.4	18.8	0.00e+00	0	43	0	155189248	48	4223
2026-01-27 05:11:52.50	4.33	9.83	-39.0	-40.3	18.9	0.00e+00	0	43	0	162529280	48	4169
2026-01-27 05:11:53.49	4.25	9.90	-38.9	-40.2	19.1	0.00e+00	0	43	0	169869312	48	4104
2026-01-27 05:11:54.49	4.17	9.98	-38.7	-39.9	19.3	0.00e+00	0	43	0	177209344	48	3977
2026-01-27 05:11:55.48	4.08	10.05	-38.8	-40.0	19.2	0.00e+00	0	43	0	184549376	48	4049
2026-01-27 05:11:56.48	4.00	10.13	-38.7	-39.9	19.1	0.00e+00	0	43	0	190840832	47	4212
2026-01-27 05:11:57.47	3.92	10.21	-38.5	-39.6	19.3	0.00e+00	0	43	0	198180864	47	4092
2026-01-27 05:11:58.46	3.83	10.28	-38.5	-39.6	19.4	0.00e+00	0	43	0	205520896	47	4078
2026-01-27 05:11:59.52	3.74	10.36	-38.5	-39.6	19.4	0.00e+00	0	43	0	212860928	47	4070
2026-01-27 05:12:00.45	3.66	10.44	-38.3	-39.4	19.6	0.00e+00	0	43	0	220200960	47	3998
2026-01-27 05:12:01.45	3.57	10.51	-38.6	-39.7	19.3	0.00e+00	0	43	0	227540992	47	4117
2026-01-27 05:12:02.44	3.49	10.59	-38.5	-39.6	19.4	0.00e+00	0	43	0	234881024	47	4064
2026-01-27 05:12:03.44	3.40	10.67	-38.4	-39.5	19.5	0.00e+00	0	43	0	242221056	47	4026
2026-01-27 05:12:04.43	3.31	10.75	-38.4	-39.4	19.6	0.00e+00	0	43	0	248512512	47	3985
2026-01-27 05:12:05.42	3.22	10.82	-38.2	-39.3	19.1	0.00e+00	0	43	0	255852544	47	3926
2026-01-27 05:12:06.42	3.14	10.90	-38.3	-39.4	19.6	0.00e+00	0	43	0	263192576	46	4204
2026-01-27 05:12:07.41	3.05	10.98	-38.5	-39.5	19.5	0.00e+00	0	43	0	270532608	46	4263
2026-01-27 05:12:08.41	2.96	11.06	-38.5	-39.5	19.5	0.00e+00	0	43	0	277872640	46	4291
2026-01-27 05:12:09.40	2.87	11.14	-38.4	-39.4	19.6	0.00e+00	0	43	0	285212672	46	4224
2026-01-27 05:12:10.40	2.78	11.22	-38.4	-39.5	19.5	0.00e+00	0	44	0	291504128	46	4271
2026-01-27 05:12:11.45	2.68	11.30	-38.3	-39.3	19.7	0.00e+00	0	43	0	299892736	46	4183
2026-01-27 05:12:12.35	2.60	11.37	-38.4	-39.5	19.6	0.00e+00	0	43	0	306184192	46	4257
2026-01-27 05:12:13.46	2.49	11.46	-38.3	-39.4	19.6	0.00e+00	0	43	0	313524224	46	4213
2026-01-27 05:12:14.31	2.41	11.53	-38.4	-39.4	19.6	0.00e+00	0	43	0	319815680	46	4232
2026-01-27 05:12:15.45	2.31	11.62	-38.3	-39.4	19.7	0.00e+00	0	43	0	328204288	46	4198
2026-01-27 05:12:16.30	2.23	11.69	-38.5	-39.6	19.4	0.00e+00	0	43	0	334495744	46	4325
2026-01-27 05:12:17.43	2.12	11.78	-38.3	-39.3	19.7	0.00e+00	0	43	0	342884352	47	3948
2026-01-27 05:12:18.29	2.04	11.85	-38.3	-39.4	19.7	0.00e+00	0	43	0	349175808	47	3965
2026-01-27 05:12:19.49	1.92	11.95	-38.4	-39.4	19.6	0.00e+00	0	43	0	357564416	47	4001
2026-01-27 05:12:20.34	1.84	12.02	-38.4	-39.5	19.6	0.00e+00	0	43	0	363855872	47	4023
2026-01-27 05:12:21.48	1.73	12.11	-38.5	-39.6	19.5	0.00e+00	0	44	0	371195904	47	4078
2026-01-27 05:12:22.33	1.65	12.18	-38.4	-39.5	19.6	0.00e+00	0	43	0	378535936	46	4249
2026-01-27 05:12:23.47	1.54	12.27	-38.2	-39.3	19.8	0.00e+00	0	43	0	385875968	46	4162
2026-01-27 05:12:24.32	1.45	12.34	-38.3	-39.4	19.7	0.00e+00	0	43	0	392167424	46	4211
2026-01-27 05:12:25.46	1.34	12.43	-38.2	-39.3	19.8	0.00e+00	0	44	0	400556032	46	4163
2026-01-27 05:12:26.31	1.25	12.50	-38.2	-39.2	19.9	0.00e+00	0	44	0	406847488	46	4115
2026-01-27 05:12:27.45	1.14	12.60	-38.2	-39.2	19.8	0.00e+00	0	43	0	415236096	46	4144
2026-01-27 05:12:28.31	1.05	12.67	-38.3	-39.3	19.8	0.00e+00	0	43	0	421527552	46	4174
2026-01-27 05:12:29.44	0.94	12.76	-38.1	-39.1	20.0	0.00e+00	0	43	0	429916160	46	4073
2026-01-27 05:12:30.30	0.85	12.83	-38.1	-39.1	20.0	0.00e+00	0	43	0	435159040	46	4071
2026-01-27 05:12:31.43	0.73	12.93	-38.2	-39.2	19.9	0.00e+00	0	43	0	443547648	46	4122
2026-01-27 05:12:32.29	0.65	13.00	-38.2	-39.2	19.9	0.00e+00	0	44	0	449839104	46	4123
2026-01-27 05:12:33.42	0.53	13.09	-38.1	-39.2	19.9	0.00e+00	0	44	0	458227712	46	4101
2026-01-27 05:12:34.27	0.44	13.16	-38.2	-39.2	19.7	0.00e+00	0	44	0	464519168	46	4125
2026-01-27 05:12:35.41	0.32	13.26	-38.1	-39.1	19.8	0.00e+00	0	44	0	472907776	46	4086
2026-01-27 05:12:36.27	0.23	13.33	-38.3	-39.4	19.6	0.00e+00	0	44	0	478150656	46	4210
2026-01-27 05:12:37.40	0.11	13.43	-38.0	-39.0	20.1	0.00e+00	0	43	0	486539264	46	4011
2026-01-27 05:12:38.25	0.02	13.50	-38.3	-39.4	19.7	0.00e+00	0	43	0	492830720	46	4219
2026-01-27 05:12:39.39	359.89	13.60	-38.5	-39.5	19.5	0.00e+00	0	44	0	501219328	46	4275
2026-01-27 05:12:40.29	359.80	13.67	-38.5	-39.5	19.5	0.00e+00	0	43	0	507510784	46	4277
2026-01-27 05:12:41.56	359.66	13.78	-38.5	-39.6	19.5	0.00e+00	0	43	0	516947968	46	4307
2026-01-27 05:12:42.29	359.58	13.84	-38.6	-39.6	19.5	0.00e+00	0	44	0	522190848	46	4321
2026-01-27 05:12:43.57	359.44	13.95	-38.7	-39.7	19.3	0.00e+00	0	44	0	531628032	47	4140
2026-01-27 05:12:44.29	359.36	14.01	-38.5	-39.6	19.5	0.00e+00	0	44	0	536870912	47	4061
2026-01-27 05:12:45.57	359.21	14.12	-38.5	-39.6	19.5	0.00e+00	0	44	0	545259520	47	4053
2026-01-27 05:12:46.28	359.13	14.19	-38.5	-39.6	19.5	0.00e+00	0	44	0	551550976	47	4057
2026-01-27 05:12:47.57	358.99	14.30	-38.3	-39.4	19.6	0.00e+00	0	44	0	559939584	47	3982
2026-01-27 05:12:48.29	358.91	14.36	-38.1	-39.2	19.9	0.00e+00	0	43	0	565182464	46	4102
2026-01-27 05:12:49.57	358.76	14.47	-38.2	-39.2	19.9	0.00e+00	0	44	0	574619648	46	4128
2026-01-27 05:12:50.29	358.68	14.53	-38.2	-39.3	19.8	0.00e+00	0	44	0	579862528	46	4148
2026-01-27 05:12:51.57	358.53	14.64	-38.0	-39.0	20.0	0.00e+00	0	43	0	589299712	46	4047
2026-01-27 05:12:52.29	358.44	14.71	-38.0	-39.1	20.0	0.00e+00	0	44	0	594542592	46	4054
2026-01-27 05:12:53.56	358.30	14.82	-38.0	-39.0	20.0	0.00e+00	0	44	0	602931200	46	4045
2026-01-27 05:12:54.28	358.21	14.88	-38.0	-39.1	20.0	0.00e+00	0	44	0	608174080	46	4058
2026-01-27 05:12:55.56	358.06	14.99	-37.9	-38.9	20.1	0.00e+00	0	44	0	617611264	46	3999
2026-01-27 05:12:56.30	357.97	15.06	-37.9	-38.9	20.1	0.00e+00	0	44	0	622854144	46	3994
2026-01-27 05:12:57.58	357.82	15.17	-37.9	-38.9	19.8	0.00e+00	0	44	0	632291328	46	4001
2026-01-27 05:12:58.30	357.73	15.24	-37.5	-38.5	20.2	0.00e+00	0	44	0	637534208	45	4016
2026-01-27 05:12:59.67	357.56	15.36	-37.7	-38.7	20.0	0.00e+00	0	44	0	646971392	45	4139
2026-01-27 05:13:00.67	357.44	15.45	-37.7	-38.7	20.0	0.00e+00	0	44	0	654311424	45	4140
2026-01-27 05:13:01.98	357.28	15.56	-37.5	-38.5	20.4	0.00e+00	0	44	0	663748608	45	4028
2026-01-27 05:13:02.69	357.19	15.63	-37.5	-38.6	20.3	0.00e+00	0	44	0	668991488	45	4059
2026-01-27 05:13:03.97	357.03	15.74	-37.5	-38.5	20.4	0.00e+00	0	44	0	678428672	45	4045
2026-01-27 05:13:04.69	356.94	15.81	-37.5	-38.5	20.4	0.00e+00	0	44	0	683671552	45	4034
2026-01-27 05:13:05.98	356.78	15.92	-37.4	-38.4	20.4	0.00e+00	0	43	0	693108736	45	4001
2026-01-27 05:13:06.70	356.69	15.99	-37.5	-38.5	20.4	0.00e+00	0	44	0	698351616	45	4012
2026-01-27 05:13:07.98	356.52	16.10	-37.5	-38.5	20.4	0.00e+00	0	44	0	707788800	45	4009
2026-01-27 05:13:08.69	356.43	16.17	-37.4	-38.4	20.3	0.00e+00	0	44	0	713031680	45	3998
2026-01-27 05:13:10.03	356.26	16.29	-37.5	-38.5	20.4	0.00e+00	0	44	0	722468864	44	4259
2026-01-27 05:13:10.74	356.16	16.35	-37.5	-38.5	20.4	0.00e+00	0	44	0	727711744	44	4273
2026-01-27 05:13:12.02	356.00	16.47	-37.5	-38.5	20.3	0.00e+00	0	44	0	736100352	44	4243
2026-01-27 05:13:12.73	355.90	16.53	-37.4	-38.3	20.6	0.00e+00	0	44	0	742391808	44	4187
2026-01-27 05:13:14.01	355.73	16.65	-37.5	-38.5	20.5	0.00e+00	0	44	0	750780416	44	4286
2026-01-27 05:13:14.72	355.64	16.71	-37.4	-38.3	20.7	0.00e+00	0	44	0	756023296	44	4188
2026-01-27 05:13:16.22	355.44	16.85	-37.3	-38.3	20.7	0.00e+00	0	44	0	766509056	44	4158
2026-01-27 05:13:16.93	355.34	16.92	-37.3	-38.3	20.7	0.00e+00	0	44	0	772800512	44	4170
2026-01-27 05:13:18.21	355.16	17.04	-37.3	-38.3	20.7	0.00e+00	0	44	0	781189120	44	4149
2026-01-27 05:13:18.94	355.06	17.10	-37.3	-38.3	20.7	0.00e+00	0	44	0	786432000	44	4168
2026-01-27 05:13:20.22	354.89	17.22	-37.2	-38.2	20.3	0.00e+00	0	44	0	795869184	44	4128
2026-01-27 05:13:20.94	354.79	17.29	-37.2	-38.2	20.9	0.00e+00	0	44	0	801112064	44	4099
2026-01-27 05:13:22.22	354.61	17.41	-37.3	-38.3	20.7	0.00e+00	0	44	0	810549248	44	4159
2026-01-27 05:13:22.96	354.50	17.48	-37.2	-38.2	20.9	0.00e+00	0	44	0	815792128	44	4106
2026-01-27 05:13:24.24	354.32	17.59	-37.1	-38.1	21.0	0.00e+00	0	44	0	825229312	44	4055
2026-01-27 05:13:24.97	354.22	17.66	-37.0	-38.0	21.0	0.00e+00	0	44	0	830472192	44	4045
2026-01-27 05:13:26.25	354.03	17.78	-37.0	-37.9	21.1	0.00e+00	0	44	0	839909376	44	4003
2026-01-27 05:13:26.97	353.93	17.85	-36.8	-37.8	21.2	0.00e+00	0	44	0	844103680	44	3944
2026-01-27 05:13:28.25	353.74	17.97	-36.8	-37.8	21.2	0.00e+00	0	44	0	853540864	44	3934
2026-01-27 05:13:28.99	353.64	18.04	-36.7	-37.7	21.3	0.00e+00	0	44	0	859832320	44	3893
2026-01-27 05:13:30.27	353.45	18.16	-36.6	-37.5	21.3	0.00e+00	0	44	0	868220928	43	4046
2026-01-27 05:13:30.98	353.34	18.23	-36.5	-37.5	21.3	0.00e+00	0	44	0	873463808	43	4013
2026-01-27 05:13:32.26	353.15	18.35	-36.5	-37.4	21.4	0.00e+00	0	44	0	882900992	43	4000
2026-01-27 05:13:32.97	353.05	18.42	-36.5	-37.5	21.3	0.00e+00	0	44	0	888143872	43	4034
2026-01-27 05:13:34.25	352.85	18.54	-36.5	-37.5	21.3	0.00e+00	0	44	0	897581056	43	4038
2026-01-27 05:13:35.23	352.70	18.63	-36.6	-37.6	21.2	0.00e+00	0	44	0	903872512	43	4070
2026-01-27 05:13:36.50	352.51	18.75	-36.7	-37.7	21.1	0.00e+00	0	44	0	913309696	43	4116
2026-01-27 05:13:37.26	352.39	18.82	-36.6	-37.6	21.2	0.00e+00	0	44	0	918552576	43	4086
2026-01-27 05:13:38.54	352.19	18.94	-36.9	-37.9	21.0	0.00e+00	0	44	0	927989760	43	4217
2026-01-27 05:13:39.25	352.08	19.01	-36.8	-37.8	21.1	0.00e+00	0	44	0	933232640	43	4174
2026-01-27 05:13:40.54	351.88	19.14	-36.8	-37.8	21.1	0.00e+00	0	44	0	942669824	43	4152
2026-01-27 05:13:41.26	351.76	19.21	-36.8	-37.8	21.0	0.00e+00	0	44	0	947912704	43	4183
2026-01-27 05:13:42.54	351.56	19.33	-36.7	-37.7	21.2	0.00e+00	0	44	0	957349888	43	4130
2026-01-27 05:13:43.27	351.44	19.40	-36.7	-37.7	21.2	0.00e+00	0	44	0	962592768	43	4111
2026-01-27 05:13:44.54	351.24	19.52	-36.5	-37.5	21.4	0.00e+00	0	44	0	972029952	43	4024
2026-01-27 05:13:45.25	351.12	19.59	-36.4	-37.3	21.5	0.00e+00	0	44	0	976224256	43	3933
2026-01-27 05:13:46.53	350.91	19.71	-36.6	-37.5	21.4	0.00e+00	0	44	0	985661440	43	4045
2026-01-27 05:13:47.26	350.79	19.78	-36.6	-37.5	21.4	0.00e+00	0	44	0	990904320	43	4035
2026-01-27 05:13:48.62	350.57	19.92	-36.6	-37.5	21.4	0.00e+00	0	44	0	1000341504	43	4033
2026-01-27 05:13:49.33	350.45	19.98	-36.6	-37.5	21.4	0.00e+00	0	44	0	1005584384	43	4025
2026-01-27 05:13:50.67	350.23	20.11	-36.4	-37.3	21.6	0.00e+00	0	44	0	1016070144	43	3941
2026-01-27 05:13:51.38	350.11	20.18	-36.6	-37.5	21.4	0.00e+00	0	44	0	1021313024	43	4038
2026-01-27 05:13:52.72	349.88	20.31	-36.4	-37.3	21.6	0.00e+00	0	44	0	1030750208	43	3922
2026-01-27 05:13:53.43	349.76	20.38	-36.4	-37.3	21.6	0.00e+00	0	44	0	1035993088	43	3928
2026-01-27 05:13:54.77	349.53	20.51	-36.5	-37.4	21.5	0.00e+00	0	44	0	1045430272	43	3989
2026-01-27 05:13:55.48	349.40	20.58	-36.6	-37.5	21.4	0.00e+00	0	44	0	1050673152	43	4026
2026-01-27 05:13:56.83	349.17	20.71	-36.7	-37.6	21.4	0.00e+00	0	44	0	1060110336	43	4082
2026-01-27 05:13:57.54	349.04	20.78	-36.7	-37.6	21.4	0.00e+00	0	44	0	1065353216	43	4064
2026-01-27 05:13:58.82	348.82	20.91	-36.7	-37.7	21.3	0.00e+00	0	44	0	1074790400	43	4100
2026-01-27 05:13:59.55	348.69	20.98	-36.7	-37.6	21.3	0.00e+00	0	44	0	1080033280	43	4087
2026-01-27 05:14:00.82	348.46	21.11	-36.6	-37.5	21.4	0.00e+00	0	44	0	1088421888	43	4044
2026-01-27 05:14:01.54	348.33	21.18	-36.4	-37.3	21.6	0.00e+00	0	44	0	1094713344	43	3956
2026-01-27 05:14:02.82	348.10	21.30	-36.4	-37.4	21.6	0.00e+00	0	44	0	1103101952	43	3979
2026-01-27 05:14:03.54	347.96	21.37	-36.4	-37.3	21.7	0.00e+00	0	44	0	1108344832	43	3935
2026-01-27 05:14:04.82	347.73	21.50	-36.5	-37.4	21.5	0.00e+00	0	44	0	1117782016	43	3987
2026-01-27 05:14:05.55	347.59	21.57	-36.4	-37.4	21.6	0.00e+00	0	44	0	1123024896	43	3959
2026-01-27 05:14:06.82	347.36	21.70	-36.3	-37.3	21.7	0.00e+00	0	44	0	1132462080	43	3914
2026-01-27 05:14:07.66	347.20	21.78	-36.3	-37.3	21.7	0.00e+00	0	44	0	1138753536	43	3917
2026-01-27 05:14:09.11	346.92	21.92	-36.3	-37.2	21.4	0.00e+00	0	44	0	1149239296	43	3884
2026-01-27 05:14:09.82	346.79	21.99	-36.4	-37.3	21.7	0.00e+00	0	44	0	1153433600	43	3935
2026-01-27 05:14:11.10	346.54	22.12	-36.4	-37.3	21.7	0.00e+00	0	44	0	1162870784	43	3933
2026-01-27 05:14:11.81	346.41	22.19	-36.2	-37.1	21.9	0.00e+00	0	44	0	1168113664	43	3855
2026-01-27 05:14:13.09	346.16	22.32	-36.2	-37.2	21.8	0.00e+00	0	44	0	1177550848	43	3878
2026-01-27 05:14:13.89	346.00	22.39	-36.2	-37.2	21.8	0.00e+00	0	44	0	1183842304	43	3871
2026-01-27 05:14:15.03	345.78	22.51	-36.1	-37.1	21.8	0.00e+00	0	44	0	1191182336	43	3845
2026-01-27 05:14:15.88	345.61	22.59	-36.1	-37.1	21.9	0.00e+00	0	44	0	1197473792	42	4059
2026-01-27 05:14:17.02	345.38	22.70	-36.1	-37.1	21.9	0.00e+00	0	44	0	1205862400	42	4065
2026-01-27 05:14:17.87	345.21	22.79	-36.2	-37.1	21.8	0.00e+00	0	44	0	1212153856	42	4098
2026-01-27 05:14:19.01	344.98	22.90	-36.3	-37.2	21.7	0.00e+00	0	44	0	1220542464	42	4139
2026-01-27 05:14:19.86	344.81	22.98	-36.3	-37.3	21.7	0.00e+00	0	44	0	1226833920	42	4158
2026-01-27 05:14:21.00	344.58	23.10	-36.3	-37.3	21.7	0.00e+00	0	44	0	1235222528	42	4159
2026-01-27 05:14:21.85	344.40	23.18	-36.3	-37.2	21.7	0.00e+00	0	44	0	1240465408	42	4135
2026-01-27 05:14:22.99	344.17	23.29	-36.4	-37.3	21.6	0.00e+00	0	44	0	1248854016	42	4167
2026-01-27 05:14:23.84	343.99	23.38	-36.3	-37.2	21.7	0.00e+00	0	44	0	1255145472	42	4132
2026-01-27 05:14:24.97	343.75	23.49	-36.3	-37.3	21.7	0.00e+00	0	44	0	1263534080	42	4146
2026-01-27 05:14:25.83	343.57	23.58	-36.1	-37.1	21.9	0.00e+00	0	44	0	1269825536	42	4061
2026-01-27 05:14:26.96	343.33	23.69	-36.0	-37.0	21.9	0.00e+00	0	44	0	1277165568	42	4007
2026-01-27 05:14:27.81	343.15	23.77	-36.0	-36.9	22.0	0.00e+00	0	44	0	1283457024	42	3995
2026-01-27 05:14:28.95	342.90	23.88	-36.0	-36.9	22.0	0.00e+00	0	44	0	1291845632	42	3980
2026-01-27 05:14:29.80	342.72	23.97	-35.8	-36.7	22.2	0.00e+00	0	44	0	1298137088	42	3884
2026-01-27 05:14:30.94	342.47	24.08	-35.7	-36.6	22.3	0.00e+00	0	44	0	1306525696	42	3839
2026-01-27 05:14:31.79	342.29	24.16	-35.7	-36.5	22.4	0.00e+00	0	44	0	1312817152	42	3819
2026-01-27 05:14:32.93	342.03	24.27	-35.6	-36.5	22.4	0.00e+00	0	44	0	1320157184	42	3793
2026-01-27 05:14:33.78	341.85	24.36	-35.7	-36.6	22.3	0.00e+00	0	44	0	1327497216	42	3837
2026-01-27 05:14:34.92	341.59	24.47	-35.6	-36.5	22.4	0.00e+00	0	44	0	1334837248	42	3790
2026-01-27 05:14:35.77	341.40	24.55	-35.7	-36.6	22.3	0.00e+00	0	44	0	1341128704	42	3829
2026-01-27 05:14:36.91	341.14	24.66	-35.7	-36.6	22.3	0.00e+00	0	44	0	1349517312	42	3860
2026-01-27 05:14:37.79	340.94	24.75	-35.8	-36.7	22.2	0.00e+00	0	44	0	1355808768	41	4138
2026-01-27 05:14:39.10	340.64	24.88	-35.7	-36.6	22.3	0.00e+00	0	44	0	1365245952	41	4079
2026-01-27 05:14:39.81	340.48	24.95	-35.6	-36.5	22.4	0.00e+00	0	44	0	1370488832	41	4036
2026-01-27 05:14:41.09	340.18	25.07	-35.5	-36.4	22.5	0.00e+00	0	44	0	1379926016	41	4001
2026-01-27 05:14:42.29	339.90	25.19	-35.4	-36.3	22.6	0.00e+00	0	44	0	1388314624	41	3923
2026-01-27 05:14:43.14	339.70	25.27	-35.4	-36.3	22.6	0.00e+00	0	44	0	1394606080	41	3918
2026-01-27 05:14:44.28	339.43	25.38	-35.2	-36.1	22.7	0.00e+00	0	44	0	1402994688	41	3847
2026-01-27 05:14:45.13	339.23	25.46	-35.3	-36.1	22.7	0.00e+00	0	44	0	1409286144	41	3860
2026-01-27 05:14:46.30	338.95	25.58	-35.2	-36.0	22.8	0.00e+00	0	44	0	1417674752	41	3816
2026-01-27 05:14:47.16	338.74	25.66	-35.1	-36.0	22.8	0.00e+00	0	44	0	1423966208	41	3786
2026-01-27 05:14:48.30	338.46	25.77	-35.1	-35.9	22.9	0.00e+00	0	44	0	1431306240	40	3997
2026-01-27 05:14:49.15	338.25	25.85	-35.2	-36.1	22.7	0.00e+00	0	44	0	1437597696	40	4071
2026-01-27 05:14:50.29	337.97	25.96	-35.3	-36.1	22.7	0.00e+00	0	44	0	1445986304	40	4092
2026-01-27 05:14:51.17	337.76	26.04	-35.3	-36.2	22.6	0.00e+00	0	44	0	1452277760	40	4135
2026-01-27 05:14:52.31	337.47	26.15	-35.4	-36.4	22.5	0.00e+00	0	44	0	1460666368	40	4203
2026-01-27 05:14:53.22	337.24	26.24	-35.6	-36.5	22.4	0.00e+00	0	44	0	1466957824	40	4280
2026-01-27 05:14:54.22	336.99	26.33	-35.5	-36.4	22.4	0.00e+00	0	44	0	1474297856	40	4216
2026-01-27 05:14:55.43	336.69	26.45	-35.5	-36.4	22.5	0.00e+00	0	44	0	1483735040	40	4241
2026-01-27 05:14:56.32	336.46	26.53	-35.7	-36.6	22.3	0.00e+00	0	44	0	1490026496	40	4311
2026-01-27 05:14:57.63	336.12	26.65	-35.6	-36.5	22.4	0.00e+00	0	44	0	1498415104	40	4253
2026-01-27 05:14:58.34	335.94	26.72	-35.7	-36.6	22.3	0.00e+00	0	44	0	1504706560	40	4304
2026-01-27 05:14:59.62	335.61	26.84	-35.7	-36.5	22.4	0.00e+00	0	44	0	1513095168	40	4284
2026-01-27 05:15:00.34	335.42	26.90	-35.7	-36.6	22.3	0.00e+00	0	44	0	1518338048	40	4293
2026-01-27 05:15:01.62	335.08	27.02	-35.6	-36.5	22.4	0.00e+00	0	44	0	1527775232	40	4254
2026-01-27 05:15:02.36	334.88	27.09	-35.7	-36.6	22.3	0.00e+00	0	44	0	1533018112	40	4303
2026-01-27 05:15:03.64	334.54	27.21	-35.6	-36.5	22.4	0.00e+00	0	44	0	1542455296	41	4027
2026-01-27 05:15:04.40	334.34	27.28	-35.7	-36.6	22.3	0.00e+00	0	44	0	1547698176	41	4064
2026-01-27 05:15:05.68	334.00	27.39	-35.8	-36.7	22.2	0.00e+00	0	44	0	1557135360	41	4113
2026-01-27 05:15:06.40	333.80	27.46	-35.7	-36.6	22.3	0.00e+00	0	44	0	1562378240	41	4064
2026-01-27 05:15:07.68	333.45	27.57	-35.7	-36.6	22.3	0.00e+00	0	44	0	1571815424	41	4059
2026-01-27 05:15:08.39	333.26	27.64	-35.7	-36.6	22.3	0.00e+00	0	44	0	1577058304	41	4075
2026-01-27 05:15:09.68	332.90	27.75	-35.9	-36.8	22.1	0.00e+00	0	44	0	1586495488	41	4169
2026-01-27 05:15:10.39	332.71	27.81	-35.8	-36.8	22.2	0.00e+00	0	44	0	1591738368	41	4156
2026-01-27 05:15:11.75	332.33	27.93	-35.6	-36.5	22.4	0.00e+00	0	44	0	1601175552	41	4040
2026-01-27 05:15:12.46	332.13	27.99	-35.6	-36.5	22.4	0.00e+00	0	44	0	1606418432	41	4047
2026-01-27 05:15:13.74	331.77	28.11	-35.7	-36.6	22.3	0.00e+00	0	44	0	1615855616	41	4066
2026-01-27 05:15:14.46	331.56	28.17	-35.6	-36.6	22.3	0.00e+00	0	44	0	1620049920	41	4055
2026-01-27 05:15:15.74	331.20	28.28	-35.6	-36.5	22.4	0.00e+00	0	44	0	1629487104	41	4007
2026-01-27 05:15:16.47	330.99	28.34	-35.4	-36.3	22.6	0.00e+00	0	44	0	1634729984	41	3930
2026-01-27 05:15:17.75	330.62	28.45	-35.2	-36.0	22.8	0.00e+00	0	44	0	1644167168	41	3823
2026-01-27 05:15:18.47	330.41	28.51	-35.1	-36.0	22.9	0.00e+00	0	44	0	1649410048	41	3801
2026-01-27 05:15:19.75	330.04	28.62	-35.1	-35.9	22.9	0.00e+00	0	44	0	1658847232	40	4003
2026-01-27 05:15:20.49	329.82	28.68	-35.1	-35.9	22.9	0.00e+00	0	44	0	1664090112	40	3986
2026-01-27 05:15:21.77	329.45	28.79	-35.0	-35.9	23.0	0.00e+00	0	44	0	1673527296	40	3964
2026-01-27 05:15:22.48	329.24	28.84	-35.0	-35.8	23.0	0.00e+00	0	44	0	1678770176	40	3954
2026-01-27 05:15:23.76	328.86	28.95	-35.2	-36.1	22.8	0.00e+00	0	44	0	1688207360	40	4073
2026-01-27 05:15:24.47	328.64	29.00	-35.4	-36.3	22.6	0.00e+00	0	44	0	1692401664	40	4155
2026-01-27 05:15:25.77	328.25	29.11	-35.4	-36.3	22.6	0.00e+00	0	44	0	1701838848	40	4166
2026-01-27 05:15:26.48	328.04	29.17	-35.5	-36.4	22.5	0.00e+00	0	44	0	1707081728	40	4214
2026-01-27 05:15:27.76	327.65	29.27	-35.5	-36.4	22.5	0.00e+00	0	44	0	1716518912	40	4217
2026-01-27 05:15:28.48	327.43	29.32	-35.5	-36.4	22.5	0.00e+00	0	44	0	1721761792	40	4210
2026-01-27 05:15:29.76	327.04	29.42	-35.6	-36.4	22.4	0.00e+00	0	44	0	1731198976	40	4242
2026-01-27 05:15:30.48	326.82	29.48	-35.4	-36.2	22.6	0.00e+00	0	44	0	1736441856	40	4142
2026-01-27 05:15:31.76	326.42	29.57	-35.4	-36.3	22.5	0.00e+00	0	44	0	1745879040	40	4180
2026-01-27 05:15:32.49	326.20	29.63	-35.5	-36.4	22.5	0.00e+00	0	44	0	1751121920	40	4200
2026-01-27 05:15:33.76	325.80	29.72	-35.5	-36.4	22.5	0.00e+00	0	44	0	1759510528	40	4225
2026-01-27 05:15:34.47	325.58	29.78	-35.5	-36.4	22.5	0.00e+00	0	44	0	1764753408	40	4211
2026-01-27 05:15:35.77	325.17	29.87	-35.5	-36.4	22.6	0.00e+00	0	44	0	1774190592	40	4210
2026-01-27 05:15:36.48	324.94	29.92	-35.5	-36.4	22.5	0.00e+00	0	44	0	1779433472	40	4198
2026-01-27 05:15:37.76	324.53	30.01	-35.4	-36.3	22.6	0.00e+00	0	44	0	1788870656	40	4171
2026-01-27 05:15:38.48	324.30	30.06	-35.4	-36.3	22.6	0.00e+00	0	44	0	1794113536	40	4153
2026-01-27 05:15:39.76	323.89	30.15	-35.2	-36.0	22.8	0.00e+00	0	44	0	1803550720	40	4051
2026-01-27 05:15:40.47	323.66	30.20	-35.1	-35.9	22.9	0.00e+00	0	44	0	1807745024	40	3993
2026-01-27 05:15:41.75	323.25	30.29	-35.2	-36.1	22.8	0.00e+00	0	44	0	1817182208	40	4060
2026-01-27 05:15:42.57	322.98	30.35	-35.2	-36.1	22.8	0.00e+00	0	44	0	1823473664	40	4073
2026-01-27 05:15:43.71	322.61	30.42	-35.2	-36.1	22.8	0.00e+00	0	44	0	1831862272	40	4067
2026-01-27 05:15:44.72	322.28	30.49	-35.2	-36.1	22.8	0.00e+00	0	44	0	1839202304	40	4074
2026-01-27 05:15:45.89	321.90	30.56	-35.2	-36.0	22.8	0.00e+00	0	44	0	1847590912	40	4046
2026-01-27 05:15:46.76	321.61	30.62	-35.2	-36.1	22.8	0.00e+00	0	44	0	1853882368	40	4079
2026-01-27 05:15:47.89	321.23	30.69	-35.1	-36.0	22.9	0.00e+00	0	44	0	1862270976	40	4005
2026-01-27 05:15:48.81	320.93	30.74	-35.1	-36.0	22.9	0.00e+00	0	44	0	1868562432	40	4028
2026-01-27 05:15:49.96	320.54	30.81	-35.0	-35.9	22.9	0.00e+00	0	44	0	1876951040	40	3983
2026-01-27 05:15:50.82	320.25	30.87	-35.2	-36.0	22.9	0.00e+00	0	44	0	1883242496	40	4035
2026-01-27 05:15:51.95	319.87	30.93	-35.0	-35.9	23.0	0.00e+00	0	44	0	1891631104	40	3963
2026-01-27 05:15:52.80	319.58	30.98	-35.1	-36.0	22.9	0.00e+00	0	44	0	1896873984	40	4022
2026-01-27 05:15:53.94	319.20	31.04	-34.9	-35.8	23.0	0.00e+00	0	44	0	1905262592	40	3930
2026-01-27 05:15:54.79	318.91	31.09	-34.9	-35.8	23.0	0.00e+00	0	44	0	1911554048	40	3920
2026-01-27 05:15:55.93	318.52	31.15	-35.0	-35.8	23.0	0.00e+00	0	44	0	1919942656	40	3940
2026-01-27 05:15:56.78	318.23	31.20	-35.0	-35.8	23.0	0.00e+00	0	44	0	1926234112	40	3958
2026-01-27 05:15:57.92	317.83	31.26	-35.0	-35.9	22.9	0.00e+00	0	44	0	1934622720	40	3979
2026-01-27 05:15:58.77	317.54	31.30	-35.0	-35.9	23.0	0.00e+00	0	44	0	1939865600	40	3974
2026-01-27 05:15:59.91	317.15	31.36	-35.0	-35.9	22.9	0.00e+00	0	44	0	1948254208	40	3995
2026-01-27 05:16:00.76	316.85	31.40	-35.0	-35.9	22.9	0.00e+00	0	44	0	1954545664	40	3989
2026-01-27 05:16:02.01	316.41	31.46	-35.1	-36.0	22.8	0.00e+00	0	44	0	1963982848	40	4042
2026-01-27 05:16:02.86	316.12	31.50	-35.1	-36.0	22.8	0.00e+00	0	44	0	1970274304	40	4017
2026-01-27 05:16:04.00	315.72	31.55	-35.1	-35.9	22.9	0.00e+00	0	44	0	1978662912	40	3997
2026-01-27 05:16:04.85	315.42	31.59	-35.0	-35.8	23.0	0.00e+00	0	44	0	1983905792	40	3937
2026-01-27 05:16:05.99	315.02	31.64	-35.2	-36.1	22.8	0.00e+00	0	44	0	1992294400	40	4058
2026-01-27 05:16:06.84	314.72	31.68	-35.3	-36.1	22.8	0.00e+00	0	44	0	1998585856	40	4078
2026-01-27 05:16:07.98	314.31	31.72	-35.2	-36.0	22.8	0.00e+00	0	44	0	2006974464	40	4047
2026-01-27 05:16:08.83	314.01	31.76	-35.2	-36.1	22.8	0.00e+00	0	44	0	2013265920	40	4053
2026-01-27 05:16:09.96	313.61	31.80	-35.1	-36.0	22.8	0.00e+00	0	44	0	2021654528	40	4023
2026-01-27 05:16:10.82	313.30	31.83	-35.2	-36.0	22.8	0.00e+00	0	44	0	2026897408	40	4025
2026-01-27 05:16:11.95	312.90	31.87	-34.9	-35.8	23.0	0.00e+00	0	44	0	2035286016	40	3925
2026-01-27 05:16:12.80	312.59	31.90	-34.9	-35.7	23.1	0.00e+00	0	44	0	2041577472	40	3911
2026-01-27 05:16:13.99	312.16	31.94	-34.7	-35.5	23.2	0.00e+00	0	44	0	2049966080	40	3809
2026-01-27 05:16:14.84	311.86	31.97	-34.8	-35.6	23.2	0.00e+00	0	44	0	2056257536	40	3845
2026-01-27 05:16:16.02	311.43	32.01	-34.8	-35.7	23.1	0.00e+00	0	44	0	2064646144	40	3878
2026-01-27 05:16:16.88	311.12	32.03	-35.0	-35.9	22.9	0.00e+00	0	44	0	2070937600	40	3978
2026-01-27 05:16:18.08	310.69	32.07	-35.0	-35.9	23.0	0.00e+00	0	44	0	2079326208	40	3966
2026-01-27 05:16:18.93	310.38	32.09	-35.1	-36.0	22.9	0.00e+00	0	44	0	2085617664	40	4026
2026-01-27 05:16:20.13	309.94	32.12	-35.1	-36.0	22.9	0.00e+00	0	44	0	2094006272	40	4020
2026-01-27 05:16:20.98	309.63	32.14	-35.1	-35.9	22.9	0.00e+00	0	44	0	2101346304	40	3992
2026-01-27 05:16:22.12	309.21	32.17	-35.0	-35.8	23.0	0.00e+00	0	44	0	2108686336	40	3957
2026-01-27 05:16:22.97	308.90	32.19	-35.1	-35.9	22.9	0.00e+00	0	44	0	2114977792	40	3996
2026-01-27 05:16:24.11	308.49	32.21	-34.8	-35.6	23.1	0.00e+00	0	44	0	2123366400	40	3865
2026-01-27 05:16:24.96	308.18	32.23	-34.8	-35.6	23.2	0.00e+00	0	44	0	2129657856	40	3853
2026-01-27 05:16:26.10	307.76	32.25	-34.8	-35.7	23.1	0.00e+00	0	44	0	2138046464	40	3870
2026-01-27 05:16:27.03	307.42	32.27	-34.9	-35.7	23.0	0.00e+00	0	44	0	2144337920	40	3913
2026-01-27 05:16:28.02	307.05	32.28	-34.9	-35.7	23.0	0.00e+00	0	44	0	2151677952	40	3910
2026-01-27 05:16:29.01	306.69	32.30	-34.9	-35.8	23.0	0.00e+00	0	44	0	2159017984	40	3914
2026-01-27 05:16:30.01	306.32	32.31	-34.8	-35.6	23.2	0.00e+00	0	44	0	2166358016	40	3854
2026-01-27 05:16:31.00	305.96	32.32	-34.8	-35.7	23.1	0.00e+00	0	44	0	2172649472	40	3877
2026-01-27 05:16:32.00	305.59	32.33	-34.7	-35.5	23.2	0.00e+00	0	44	0	2179989504	40	3812
2026-01-27 05:16:33.00	305.22	32.34	-34.6	-35.5	23.3	0.00e+00	0	44	0	2187329536	39	4008
2026-01-27 05:16:33.99	304.85	32.35	-34.8	-35.6	23.2	0.00e+00	0	44	0	2194669568	39	4079
2026-01-27 05:16:34.99	304.48	32.35	-34.8	-35.7	23.1	0.00e+00	0	44	0	2202009600	39	4100
2026-01-27 05:16:35.98	304.12	32.36	-34.9	-35.8	23.1	0.00e+00	0	44	0	2209349632	39	4149
2026-01-27 05:16:36.97	303.75	32.36	-34.9	-35.7	23.1	0.00e+00	0	44	0	2215641088	39	4134
2026-01-27 05:16:37.97	303.38	32.36	-34.9	-35.8	23.1	0.00e+00	0	44	0	2222981120	39	4150
2026-01-27 05:16:38.96	303.02	32.36	-34.9	-35.8	23.1	0.00e+00	0	44	0	2230321152	39	4158
2026-01-27 05:16:39.96	302.65	32.36	-34.8	-35.7	23.2	0.00e+00	0	44	0	2237661184	39	4102
2026-01-27 05:16:40.95	302.28	32.36	-34.9	-35.7	23.1	0.00e+00	0	44	0	2245001216	39	4120
2026-01-27 05:16:41.95	301.91	32.36	-34.9	-35.7	23.1	0.00e+00	0	44	0	2252341248	39	4127
2026-01-27 05:16:42.94	301.54	32.36	-34.8	-35.7	23.2	0.00e+00	0	44	0	2259681280	39	4107
2026-01-27 05:16:43.94	301.18	32.35	-34.8	-35.6	23.2	0.00e+00	0	44	0	2267021312	39	4068
2026-01-27 05:16:44.93	300.81	32.34	-34.7	-35.6	23.2	0.00e+00	0	44	0	2274361344	39	4065
2026-01-27 05:16:45.92	300.44	32.33	-34.8	-35.7	23.1	0.00e+00	0	44	0	2280652800	39	4112
2026-01-27 05:16:46.92	300.08	32.32	-34.8	-35.7	23.2	0.00e+00	0	44	0	2287992832	39	4112
2026-01-27 05:16:47.92	299.71	32.31	-34.7	-35.6	23.2	0.00e+00	0	44	0	2295332864	39	4055
2026-01-27 05:16:48.91	299.34	32.30	-34.7	-35.6	23.2	0.00e+00	0	44	0	2302672896	39	4052
2026-01-27 05:16:49.95	298.96	32.29	-34.8	-35.7	23.2	0.00e+00	0	44	0	2310012928	39	4103
2026-01-27 05:16:50.94	298.60	32.27	-34.8	-35.7	23.1	0.00e+00	0	44	0	2317352960	39	4110
2026-01-27 05:16:51.94	298.23	32.26	-34.9	-35.7	23.1	0.00e+00	0	44	0	2324692992	39	4127
2026-01-27 05:16:52.94	297.86	32.24	-34.8	-35.7	23.1	0.00e+00	0	44	0	2332033024	39	4104
2026-01-27 05:16:53.93	297.50	32.22	-34.9	-35.7	23.1	0.00e+00	0	44	0	2338324480	39	4127
2026-01-27 05:16:54.92	297.13	32.20	-34.7	-35.5	23.2	0.00e+00	0	44	0	2345664512	39	4046
2026-01-27 05:16:55.92	296.77	32.18	-34.6	-35.5	23.3	0.00e+00	0	44	0	2353004544	39	4006
2026-01-27 05:16:56.91	296.41	32.15	-34.7	-35.6	23.2	0.00e+00	0	44	0	2360344576	39	4055
2026-01-27 05:16:57.91	296.04	32.13	-34.8	-35.6	23.2	0.00e+00	0	44	0	2367684608	39	4086
2026-01-27 05:16:58.90	295.68	32.10	-34.9	-35.8	23.1	0.00e+00	0	44	0	2375024640	39	4167
2026-01-27 05:16:59.90	295.32	32.08	-35.0	-35.8	23.0	0.00e+00	0	44	0	2381316096	39	4176
2026-01-27 05:17:00.90	294.96	32.05	-34.9	-35.8	23.1	0.00e+00	0	44	0	2388656128	39	4154
2026-01-27 05:17:01.89	294.60	32.02	-34.9	-35.8	23.0	0.00e+00	0	44	0	2395996160	39	4151
2026-01-27 05:17:02.94	294.22	31.99	-35.0	-35.8	23.0	0.00e+00	0	44	0	2403336192	39	4172
2026-01-27 05:17:03.94	293.86	31.96	-35.0	-35.9	22.9	0.00e+00	0	44	0	2410676224	39	4198
2026-01-27 05:17:04.94	293.50	31.92	-35.1	-35.9	22.8	0.00e+00	0	44	0	2418016256	39	4236
2026-01-27 05:17:05.93	293.14	31.89	-35.1	-35.9	22.9	0.00e+00	0	44	0	2425356288	39	4220
2026-01-27 05:17:06.93	292.78	31.85	-35.1	-35.9	22.9	0.00e+00	0	44	0	2432696320	39	4217
2026-01-27 05:17:07.92	292.43	31.82	-35.1	-35.9	22.9	0.00e+00	0	44	0	2438987776	39	4239
2026-01-27 05:17:08.92	292.07	31.78	-35.1	-35.9	22.9	0.00e+00	0	44	0	2446327808	39	4235
2026-01-27 05:17:09.91	291.72	31.74	-34.8	-35.7	23.1	0.00e+00	0	44	0	2453667840	39	4112
2026-01-27 05:17:10.91	291.36	31.70	-34.8	-35.6	23.1	0.00e+00	0	44	0	2461007872	39	4088
2026-01-27 05:17:11.90	291.01	31.66	-34.7	-35.6	23.2	0.00e+00	0	44	0	2468347904	39	4065
2026-01-27 05:17:12.90	290.66	31.62	-34.8	-35.6	23.2	0.00e+00	0	44	0	2475687936	39	4085
2026-01-27 05:17:13.90	290.30	31.57	-34.9	-35.7	23.1	0.00e+00	0	44	0	2483027968	39	4123
2026-01-27 05:17:14.89	289.96	31.53	-35.0	-35.8	23.0	0.00e+00	0	44	0	2490368000	39	4161
2026-01-27 05:17:15.89	289.60	31.48	-35.1	-35.9	22.9	0.00e+00	0	44	0	2497708032	39	4226
2026-01-27 05:17:16.88	289.26	31.43	-35.1	-35.9	22.9	0.00e+00	0	44	0	2503999488	39	4217
2026-01-27 05:17:17.94	288.89	31.38	-35.0	-35.9	23.0	0.00e+00	0	44	0	2512388096	39	4208
2026-01-27 05:17:18.87	288.56	31.34	-34.9	-35.7	23.1	0.00e+00	0	44	0	2518679552	39	4137
2026-01-27 05:17:19.87	288.22	31.29	-35.0	-35.8	23.0	0.00e+00	0	44	0	2526019584	39	4185
2026-01-27 05:17:20.86	287.88	31.23	-34.9	-35.8	23.1	0.00e+00	0	44	0	2533359616	39	4151
2026-01-27 05:17:21.86	287.53	31.18	-35.0	-35.9	23.0	0.00e+00	0	44	0	2540699648	39	4201
2026-01-27 05:17:22.86	287.19	31.13	-35.0	-35.8	23.0	0.00e+00	0	44	0	2546991104	39	4166
2026-01-27 05:17:23.85	286.85	31.07	-35.1	-36.0	22.9	0.00e+00	0	44	0	2554331136	39	4257
2026-01-27 05:17:24.84	286.51	31.02	-35.2	-36.0	22.8	0.00e+00	0	44	0	2561671168	39	4289
2026-01-27 05:17:25.84	286.17	30.96	-35.1	-36.0	22.9	0.00e+00	0	44	0	2569011200	39	4259
2026-01-27 05:17:26.83	285.84	30.90	-35.2	-36.1	22.8	0.00e+00	0	44	0	2576351232	39	4309
2026-01-27 05:17:27.83	285.50	30.84	-35.2	-36.1	22.8	0.00e+00	0	44	0	2582642688	39	4302
2026-01-27 05:17:28.82	285.17	30.79	-35.1	-35.9	22.8	0.00e+00	0	44	0	2589982720	40	3994
2026-01-27 05:17:29.81	284.84	30.73	-35.0	-35.8	23.0	0.00e+00	0	44	0	2597322752	40	3933
2026-01-27 05:17:30.81	284.50	30.66	-34.9	-35.8	23.0	0.00e+00	0	44	0	2604662784	40	3921
2026-01-27 05:17:31.80	284.17	30.60	-34.9	-35.7	23.0	0.00e+00	0	44	0	2612002816	40	3884
2026-01-27 05:17:32.86	283.82	30.53	-35.0	-35.8	23.0	0.00e+00	0	44	0	2619342848	40	3929
2026-01-27 05:17:33.71	283.54	30.48	-35.0	-35.8	22.9	0.00e+00	0	44	0	2625634304	40	3944
2026-01-27 05:17:35.10	283.08	30.39	-35.1	-35.9	22.8	0.00e+00	0	44	0	2636120064	40	3993
2026-01-27 05:17:35.81	282.85	30.34	-35.1	-36.0	22.8	0.00e+00	0	44	0	2641362944	40	4008
2026-01-27 05:17:37.09	282.44	30.25	-35.2	-36.0	22.8	0.00e+00	0	44	0	2650800128	40	4039
2026-01-27 05:17:37.82	282.20	30.20	-35.1	-35.9	22.9	0.00e+00	0	44	0	2654994432	40	3998
2026-01-27 05:17:39.09	281.79	30.12	-35.0	-35.8	22.9	0.00e+00	0	44	0	2664431616	40	3946
2026-01-27 05:17:39.81	281.56	30.06	-35.0	-35.8	23.0	0.00e+00	0	44	0	2669674496	40	3926
2026-01-27 05:17:41.08	281.15	29.97	-35.0	-35.8	23.0	0.00e+00	0	44	0	2679111680	40	3927
2026-01-27 05:17:41.79	280.93	29.92	-35.0	-35.8	22.9	0.00e+00	0	44	0	2684354560	40	3953
2026-01-27 05:17:43.07	280.52	29.83	-35.2	-36.0	22.8	0.00e+00	0	44	0	2692743168	40	4048
2026-01-27 05:17:44.00	280.23	29.76	-35.3	-36.1	22.7	0.00e+00	0	44	0	2700083200	40	4083
2026-01-27 05:17:45.00	279.91	29.69	-35.4	-36.2	22.6	0.00e+00	0	44	0	2707423232	40	4127
2026-01-27 05:17:45.99	279.60	29.61	-35.5	-36.4	22.4	0.00e+00	0	44	0	2714763264	40	4220
2026-01-27 05:17:46.98	279.29	29.54	-35.4	-36.3	22.6	0.00e+00	0	44	0	2722103296	40	4148
2026-01-27 05:17:47.98	278.98	29.46	-35.3	-36.2	22.7	0.00e+00	0	44	0	2728394752	40	4106
2026-01-27 05:17:48.97	278.68	29.39	-35.2	-36.1	22.7	0.00e+00	0	44	0	2735734784	40	4071
2026-01-27 05:17:49.97	278.37	29.31	-34.9	-35.8	23.0	0.00e+00	0	44	0	2743074816	40	3916
2026-01-27 05:17:50.96	278.07	29.23	-34.9	-35.7	23.0	0.00e+00	0	44	0	2750414848	40	3896
2026-01-27 05:17:51.96	277.77	29.15	-34.7	-35.5	23.3	0.00e+00	0	44	0	2757754880	40	3792
2026-01-27 05:17:52.95	277.47	29.07	-34.7	-35.5	23.2	0.00e+00	0	44	0	2765094912	40	3822
2026-01-27 05:17:53.94	277.17	28.99	-34.8	-35.6	23.1	0.00e+00	0	44	0	2772434944	40	3857
2026-01-27 05:17:54.94	276.87	28.91	-34.8	-35.6	23.1	0.00e+00	0	44	0	2778726400	40	3860
2026-01-27 05:17:55.93	276.57	28.83	-35.0	-35.9	22.9	0.00e+00	0	44	0	2786066432	40	3978
2026-01-27 05:17:56.92	276.28	28.75	-35.1	-35.9	22.8	0.00e+00	0	44	0	2793406464	40	4001
2026-01-27 05:17:57.92	275.98	28.66	-35.3	-36.1	22.7	0.00e+00	0	44	0	2800746496	40	4087
2026-01-27 05:17:58.92	275.69	28.58	-35.3	-36.2	22.6	0.00e+00	0	44	0	2808086528	40	4120
2026-01-27 05:17:59.91	275.40	28.50	-35.4	-36.2	22.6	0.00e+00	0	44	0	2814377984	40	4127
2026-01-27 05:18:00.91	275.11	28.41	-35.3	-36.1	22.6	0.00e+00	0	44	0	2821718016	40	4077
2026-01-27 05:18:01.90	274.83	28.33	-35.1	-36.0	22.8	0.00e+00	0	44	0	2829058048	40	4014
2026-01-27 05:18:02.90	274.54	28.24	-35.1	-36.0	22.8	0.00e+00	0	44	0	2836398080	40	4011
2026-01-27 05:18:03.89	274.26	28.16	-35.2	-36.0	22.8	0.00e+00	0	44	0	2843738112	40	4038
2026-01-27 05:18:04.89	273.97	28.07	-35.1	-36.0	22.7	0.00e+00	0	44	0	2851078144	40	4028
2026-01-27 05:18:05.98	273.66	27.97	-35.2	-36.0	22.7	0.00e+00	0	44	0	2858418176	40	4051
2026-01-27 05:18:06.83	273.43	27.90	-35.1	-36.0	22.8	0.00e+00	0	44	0	2864709632	40	4015
2026-01-27 05:18:07.97	273.11	27.80	-35.2	-36.1	22.7	0.00e+00	0	44	0	2873098240	40	4056
2026-01-27 05:18:08.82	272.87	27.72	-35.2	-36.1	22.7	0.00e+00	0	44	0	2879389696	40	4060
2026-01-27 05:18:09.96	272.56	27.62	-35.4	-36.2	22.6	0.00e+00	0	44	0	2887778304	40	4124
2026-01-27 05:18:10.81	272.32	27.55	-35.3	-36.1	22.6	0.00e+00	0	44	0	2894069760	40	4077
2026-01-27 05:18:11.95	272.01	27.44	-35.3	-36.2	22.6	0.00e+00	0	44	0	2901409792	40	4116
2026-01-27 05:18:12.80	271.78	27.37	-35.2	-36.1	22.7	0.00e+00	0	44	0	2907701248	40	4067
2026-01-27 05:18:13.94	271.47	27.26	-35.3	-36.2	22.6	0.00e+00	0	44	0	2916089856	40	4110
2026-01-27 05:18:14.79	271.24	27.18	-35.3	-36.1	22.7	0.00e+00	0	44	0	2922381312	40	4077
2026-01-27 05:18:15.93	270.94	27.08	-35.2	-36.0	22.8	0.00e+00	0	44	0	2930769920	40	4040
2026-01-27 05:18:16.78	270.71	27.00	-35.2	-36.1	22.7	0.00e+00	0	44	0	2937061376	40	4062
2026-01-27 05:18:18.01	270.39	26.89	-35.2	-36.1	22.7	0.00e+00	0	44	0	2945449984	40	4058
2026-01-27 05:18:18.87	270.16	26.81	-35.2	-36.1	22.7	0.00e+00	0	44	0	2951741440	40	4059
2026-01-27 05:18:20.00	269.87	26.70	-35.3	-36.1	22.7	0.00e+00	0	44	0	2960130048	40	4083
2026-01-27 05:18:20.86	269.64	26.62	-35.3	-36.2	22.6	0.00e+00	0	44	0	2966421504	40	4106
2026-01-27 05:18:21.99	269.35	26.52	-35.3	-36.2	22.5	0.00e+00	0	44	0	2974810112	40	4114
2026-01-27 05:18:22.85	269.13	26.43	-35.3	-36.2	22.6	0.00e+00	0	44	0	2980052992	40	4116
2026-01-27 05:18:23.98	268.84	26.33	-35.4	-36.2	22.6	0.00e+00	0	44	0	2988441600	40	4143
2026-01-27 05:18:24.83	268.63	26.25	-35.4	-36.3	22.5	0.00e+00	0	44	0	2994733056	40	4151
2026-01-27 05:18:25.97	268.34	26.14	-35.5	-36.3	22.4	0.00e+00	0	44	0	3003121664	40	4189
2026-01-27 05:18:26.81	268.13	26.06	-35.4	-36.3	22.5	0.00e+00	0	44	0	3009413120	40	4170
2026-01-27 05:18:27.94	267.85	25.95	-35.2	-36.1	22.6	0.00e+00	0	44	0	3017801728	40	4071
2026-01-27 05:18:28.79	267.64	25.87	-35.3	-36.1	22.7	0.00e+00	0	44	0	3023044608	40	4081
2026-01-27 05:18:29.93	267.36	25.76	-35.4	-36.3	22.5	0.00e+00	0	44	0	3031433216	40	4152
2026-01-27 05:18:30.78	267.15	25.68	-35.3	-36.2	22.6	0.00e+00	0	44	0	3037724672	40	4122
2026-01-27 05:18:32.00	266.86	25.56	-35.2	-36.0	22.8	0.00e+00	0	44	0	3046113280	40	4031
2026-01-27 05:18:32.85	266.65	25.48	-35.2	-36.0	22.7	0.00e+00	0	44	0	3052404736	40	4051
2026-01-27 05:18:34.07	266.36	25.36	-35.2	-36.1	22.7	0.00e+00	0	44	0	3061841920	40	4070
2026-01-27 05:18:34.92	266.16	25.28	-35.3	-36.1	22.7	0.00e+00	0	44	0	3068133376	40	4086
2026-01-27 05:18:36.08	265.88	25.16	-35.3	-36.1	22.7	0.00e+00	0	44	0	3076521984	40	4093
2026-01-27 05:18:36.94	265.68	25.08	-35.3	-36.1	22.7	0.00e+00	0	44	0	3082813440	40	4079
2026-01-27 05:18:38.08	265.41	24.97	-35.2	-36.0	22.8	0.00e+00	0	44	0	3090153472	40	4027
2026-01-27 05:18:39.42	265.10	24.84	-35.2	-36.0	22.8	0.00e+00	0	44	0	3100639232	40	4040
2026-01-27 05:18:40.13	264.94	24.77	-35.2	-36.1	22.7	0.00e+00	0	44	0	3105882112	40	4054
2026-01-27 05:18:41.41	264.64	24.64	-35.2	-36.1	22.8	0.00e+00	0	44	0	3114270720	40	4053
2026-01-27 05:18:42.12	264.48	24.57	-35.3	-36.1	22.7	0.00e+00	0	44	0	3119513600	40	4085
2026-01-27 05:18:43.43	264.19	24.44	-35.5	-36.3	22.5	0.00e+00	0	44	0	3128950784	40	4178
2026-01-27 05:18:44.14	264.03	24.37	-35.5	-36.4	22.5	0.00e+00	0	44	0	3134193664	40	4200
2026-01-27 05:18:45.42	263.74	24.25	-35.7	-36.6	22.3	0.00e+00	0	44	0	3143630848	40	4295
2026-01-27 05:18:46.15	263.58	24.17	-35.6	-36.5	22.4	0.00e+00	0	44	0	3148873728	40	4248
2026-01-27 05:18:47.58	263.26	24.03	-35.5	-36.4	22.4	0.00e+00	0	44	0	3159359488	40	4226
2026-01-27 05:18:48.54	263.05	23.94	-35.4	-36.3	22.5	0.00e+00	0	44	0	3165650944	40	4168
2026-01-27 05:18:49.54	262.84	23.84	-35.4	-36.3	22.6	0.00e+00	0	44	0	3172990976	40	4148
2026-01-27 05:18:50.54	262.62	23.74	-35.5	-36.4	22.4	0.00e+00	0	44	0	3180331008	40	4208
2026-01-27 05:18:51.53	262.41	23.64	-35.5	-36.4	22.5	0.00e+00	0	44	0	3187671040	40	4195
2026-01-27 05:18:52.53	262.19	23.54	-35.4	-36.2	22.6	0.00e+00	0	44	0	3195011072	40	4145
2026-01-27 05:18:53.52	261.99	23.44	-35.5	-36.4	22.3	0.00e+00	0	44	0	3202351104	40	4205
2026-01-27 05:18:54.52	261.77	23.35	-35.7	-36.6	22.2	0.00e+00	0	44	0	3209691136	40	4320
2026-01-27 05:18:55.51	261.57	23.25	-35.8	-36.7	22.2	0.00e+00	0	44	0	3217031168	41	4119
2026-01-27 05:18:56.51	261.36	23.15	-35.8	-36.7	22.2	0.00e+00	0	44	0	3223322624	41	4118
2026-01-27 05:18:57.50	261.15	23.05	-35.9	-36.8	22.1	0.00e+00	0	44	0	3230662656	41	4149
2026-01-27 05:18:58.50	260.95	22.95	-35.8	-36.6	22.2	0.00e+00	0	44	0	3238002688	41	4092
2026-01-27 05:18:59.49	260.75	22.85	-35.7	-36.5	22.3	0.00e+00	0	44	0	3245342720	41	4045
2026-01-27 05:19:00.49	260.54	22.75	-35.6	-36.4	22.4	0.00e+00	0	44	0	3252682752	41	3997
2026-01-27 05:19:01.48	260.35	22.65	-35.6	-36.5	22.3	0.00e+00	0	44	0	3260022784	41	4025
2026-01-27 05:19:02.48	260.15	22.55	-35.5	-36.4	22.5	0.00e+00	0	44	0	3266314240	41	3975
2026-01-27 05:19:03.48	259.95	22.46	-35.6	-36.5	22.3	0.00e+00	0	44	0	3273654272	41	4029
2026-01-27 05:19:04.47	259.75	22.36	-35.6	-36.5	22.3	0.00e+00	0	44	0	3280994304	41	4033
2026-01-27 05:19:05.47	259.55	22.26	-35.7	-36.5	22.3	0.00e+00	0	44	0	3288334336	41	4035
2026-01-27 05:19:06.46	259.36	22.16	-35.8	-36.6	22.2	0.00e+00	0	44	0	3295674368	41	4095
2026-01-27 05:19:07.46	259.17	22.06	-35.8	-36.6	22.1	0.00e+00	0	44	0	3301965824	41	4096
2026-01-27 05:19:08.45	258.98	21.96	-35.7	-36.6	22.2	0.00e+00	0	44	0	3309305856	41	4069
2026-01-27 05:19:09.46	258.78	21.86	-35.6	-36.5	22.3	0.00e+00	0	44	0	3316645888	41	4033
2026-01-27 05:19:10.49	258.59	21.76	-35.7	-36.6	22.3	0.00e+00	0	44	0	3323985920	41	4052
2026-01-27 05:19:11.48	258.40	21.66	-35.6	-36.4	22.3	0.00e+00	0	44	0	3331325952	41	4001
2026-01-27 05:19:12.56	258.20	21.55	-35.7	-36.6	22.2	0.00e+00	0	44	0	3339714560	41	4073
2026-01-27 05:19:13.41	258.04	21.47	-36.0	-36.9	22.0	0.00e+00	0	44	0	3344957440	41	4201
2026-01-27 05:19:14.55	257.83	21.36	-35.9	-36.8	22.1	0.00e+00	0	44	0	3353346048	41	4159
2026-01-27 05:19:15.40	257.67	21.27	-35.9	-36.8	22.0	0.00e+00	0	44	0	3359637504	41	4170
2026-01-27 05:19:16.54	257.46	21.16	-35.9	-36.8	22.0	0.00e+00	0	44	0	3368026112	41	4146
2026-01-27 05:19:17.39	257.31	21.08	-35.9	-36.8	22.0	0.00e+00	0	44	0	3374317568	41	4164
2026-01-27 05:19:18.53	257.10	20.96	-36.0	-36.9	21.9	0.00e+00	0	44	0	3382706176	41	4230
2026-01-27 05:19:19.38	256.95	20.88	-36.0	-36.9	21.9	0.00e+00	0	44	0	3388997632	41	4228
2026-01-27 05:19:20.52	256.75	20.77	-36.0	-36.8	22.0	0.00e+00	0	44	0	3397386240	41	4185
2026-01-27 05:19:21.37	256.60	20.68	-36.0	-36.9	21.9	0.00e+00	0	44	0	3403677696	41	4203
2026-01-27 05:19:22.51	256.40	20.57	-36.1	-37.0	21.8	0.00e+00	0	44	0	3411017728	41	4271
2026-01-27 05:19:23.36	256.25	20.49	-36.0	-36.9	21.9	0.00e+00	0	44	0	3417309184	41	4230
2026-01-27 05:19:24.50	256.05	20.38	-36.0	-36.9	21.8	0.00e+00	0	44	0	3425697792	41	4225
2026-01-27 05:19:25.35	255.90	20.29	-36.0	-36.9	21.9	0.00e+00	0	44	0	3431989248	41	4209
2026-01-27 05:19:26.49	255.71	20.18	-36.1	-37.0	21.9	0.00e+00	0	44	0	3440377856	41	4254
2026-01-27 05:19:27.34	255.56	20.10	-36.1	-37.0	21.8	0.00e+00	0	44	0	3445620736	41	4277
2026-01-27 05:19:28.48	255.37	19.99	-36.0	-36.9	21.8	0.00e+00	0	44	0	3454009344	41	4236
2026-01-27 05:19:29.33	255.23	19.91	-36.1	-36.9	21.8	0.00e+00	0	44	0	3460300800	41	4239
2026-01-27 05:19:30.47	255.04	19.80	-36.0	-36.9	21.8	0.00e+00	0	44	0	3468689408	41	4200
2026-01-27 05:19:31.32	254.90	19.71	-35.9	-36.7	22.0	0.00e+00	0	44	0	3474980864	41	4144
2026-01-27 05:19:32.46	254.71	19.60	-36.0	-36.9	21.9	0.00e+00	0	44	0	3483369472	41	4203
2026-01-27 05:19:33.31	254.57	19.52	-36.0	-36.9	21.9	0.00e+00	0	44	0	3488612352	41	4207
2026-01-27 05:19:34.45	254.38	19.41	-35.9	-36.8	21.9	0.00e+00	0	44	0	3497000960	41	4187
2026-01-27 05:19:35.30	254.24	19.33	-35.9	-36.8	21.9	0.00e+00	0	44	0	3503292416	41	4162
2026-01-27 05:19:36.44	254.06	19.22	-36.0	-36.9	21.8	0.00e+00	0	44	0	3511681024	41	4231
2026-01-27 05:19:37.29	253.93	19.13	-36.1	-37.0	21.7	0.00e+00	0	44	0	3517972480	41	4289
2026-01-27 05:19:38.47	253.74	19.02	-36.3	-37.2	21.5	0.00e+00	0	44	0	3526361088	41	4369
2026-01-27 05:19:39.32	253.60	18.94	-36.3	-37.3	21.5	0.00e+00	0	44	0	3532652544	42	4161
2026-01-27 05:19:40.52	253.42	18.82	-36.4	-37.4	21.4	0.00e+00	0	44	0	3541041152	42	4204
2026-01-27 05:19:41.38	253.28	18.74	-36.5	-37.4	21.4	0.00e+00	0	44	0	3547332608	42	4208
2026-01-27 05:19:42.51	253.11	18.63	-36.4	-37.4	21.4	0.00e+00	0	44	0	3555721216	42	4197
2026-01-27 05:19:43.36	252.98	18.55	-36.5	-37.4	21.3	0.00e+00	0	44	0	3562012672	42	4223
2026-01-27 05:19:44.61	252.79	18.43	-36.5	-37.4	21.4	0.00e+00	0	44	0	3570401280	42	4218
2026-01-27 05:19:45.46	252.66	18.35	-36.6	-37.5	21.3	0.00e+00	0	44	0	3576692736	42	4281
2026-01-27 05:19:46.60	252.48	18.24	-36.5	-37.4	21.4	0.00e+00	0	44	0	3585081344	42	4214
2026-01-27 05:19:47.45	252.36	18.16	-36.5	-37.4	21.3	0.00e+00	0	44	0	3591372800	42	4240
2026-01-27 05:19:48.59	252.19	18.06	-36.7	-37.6	21.2	0.00e+00	0	44	0	3599761408	42	4319
2026-01-27 05:19:49.44	252.06	17.98	-36.7	-37.6	21.2	0.00e+00	0	44	0	3606052864	42	4319
2026-01-27 05:19:50.58	251.89	17.87	-36.8	-37.8	21.0	0.00e+00	0	44	0	3614441472	43	4159
2026-01-27 05:19:51.43	251.77	17.79	-36.9	-37.8	21.0	0.00e+00	0	44	0	3619684352	43	4182
2026-01-27 05:19:52.57	251.60	17.68	-37.0	-37.9	20.9	0.00e+00	0	44	0	3628072960	43	4234
2026-01-27 05:19:53.43	251.48	17.60	-37.0	-37.9	20.8	0.00e+00	0	44	0	3634364416	43	4229
2026-01-27 05:19:54.56	251.32	17.49	-37.0	-37.9	20.8	0.00e+00	0	44	0	3642753024	43	4230
2026-01-27 05:19:55.42	251.20	17.41	-36.9	-37.8	20.7	0.00e+00	0	44	0	3649044480	43	4179
2026-01-27 05:19:56.55	251.04	17.31	-36.8	-37.7	20.9	0.00e+00	0	44	0	3657433088	43	4137
2026-01-27 05:19:57.40	250.92	17.23	-36.8	-37.8	21.0	0.00e+00	0	44	0	3662675968	43	4158
2026-01-27 05:19:58.54	250.76	17.12	-37.0	-38.0	20.8	0.00e+00	0	44	0	3671064576	43	4263
2026-01-27 05:19:59.39	250.64	17.04	-36.9	-37.9	20.9	0.00e+00	0	44	0	3677356032	43	4205
2026-01-27 05:20:00.53	250.48	16.94	-37.0	-38.0	20.8	0.00e+00	0	44	0	3685744640	43	4253
2026-01-27 05:20:01.38	250.36	16.86	-37.1	-38.0	20.8	0.00e+00	0	44	0	3692036096	43	4278
2026-01-27 05:20:02.61	250.20	16.75	-37.2	-38.1	20.6	0.00e+00	0	44	0	3701473280	43	4339
2026-01-27 05:20:03.47	250.08	16.67	-37.2	-38.2	20.6	0.00e+00	0	44	0	3706716160	43	4352
2026-01-27 05:20:04.60	249.93	16.56	-37.6	-38.6	20.4	0.00e+00	0	44	0	3715104768	44	4292
2026-01-27 05:20:05.46	249.81	16.48	-37.5	-38.5	20.4	0.00e+00	0	44	0	3721396224	44	4273
2026-01-27 05:20:06.59	249.66	16.38	-37.6	-38.5	20.4	0.00e+00	0	44	0	3729784832	44	4290
2026-01-27 05:20:07.44	249.55	16.30	-37.5	-38.5	20.4	0.00e+00	0	44	0	3736076288	44	4273
2026-01-27 05:20:08.58	249.40	16.20	-37.6	-38.6	20.3	0.00e+00	0	44	0	3743416320	44	4318
2026-01-27 05:20:09.43	249.29	16.12	-37.5	-38.4	20.4	0.00e+00	0	44	0	3749707776	44	4241
2026-01-27 05:20:10.57	249.14	16.02	-37.3	-38.3	20.5	0.00e+00	0	44	0	3758096384	44	4179
2026-01-27 05:20:11.42	249.03	15.94	-37.4	-38.4	20.5	0.00e+00	0	44	0	3764387840	44	4210
2026-01-27 05:20:12.56	248.88	15.84	-37.3	-38.3	20.6	0.00e+00	0	44	0	3772776448	44	4179
2026-01-27 05:20:13.41	248.78	15.76	-37.4	-38.4	20.5	0.00e+00	0	44	0	3779067904	44	4213
2026-01-27 05:20:14.55	248.63	15.66	-37.3	-38.3	20.6	0.00e+00	0	44	0	3786407936	44	4150
2026-01-27 05:20:15.40	248.52	15.58	-37.3	-38.2	20.6	0.00e+00	0	44	0	3792699392	44	4145
2026-01-27 05:20:16.54	248.38	15.48	-37.2	-38.2	20.7	0.00e+00	0	44	0	3801088000	44	4122
2026-01-27 05:20:17.39	248.28	15.40	-37.3	-38.3	20.6	0.00e+00	0	44	0	3807379456	44	4167
2026-01-27 05:20:18.52	248.14	15.30	-37.4	-38.4	20.5	0.00e+00	0	44	0	3815768064	44	4197
2026-01-27 05:20:19.38	248.03	15.23	-37.2	-38.2	20.7	0.00e+00	0	44	0	3822059520	44	4110
2026-01-27 05:20:20.52	247.89	15.13	-37.3	-38.3	20.6	0.00e+00	0	44	0	3830448128	44	4160
2026-01-27 05:20:21.37	247.79	15.05	-37.4	-38.3	20.6	0.00e+00	0	44	0	3836739584	44	4184
2026-01-27 05:20:22.51	247.65	14.95	-37.5	-38.5	20.4	0.00e+00	0	44	0	3844079616	44	4250
2026-01-27 05:20:23.36	247.55	14.87	-37.5	-38.5	20.4	0.00e+00	0	44	0	3850371072	44	4269
2026-01-27 05:20:24.62	247.40	14.76	-37.7	-38.6	20.3	0.00e+00	0	44	0	3859808256	44	4334
2026-01-27 05:20:25.78	247.26	14.66	-37.8	-38.8	20.0	0.00e+00	0	44	0	3868196864	45	4189
2026-01-27 05:20:26.63	247.16	14.59	-37.9	-38.9	20.0	0.00e+00	0	44	0	3874488320	45	4201
2026-01-27 05:20:27.77	247.03	14.49	-37.9	-38.9	20.0	0.00e+00	0	44	0	3882876928	45	4237
2026-01-27 05:20:28.62	246.93	14.41	-38.0	-39.0	19.9	0.00e+00	0	44	0	3888119808	45	4267
2026-01-27 05:20:29.76	246.80	14.31	-38.0	-39.0	19.9	0.00e+00	0	44	0	3896508416	45	4269
2026-01-27 05:20:30.61	246.70	14.24	-38.0	-39.0	19.9	0.00e+00	0	44	0	3902799872	45	4252
2026-01-27 05:20:31.75	246.57	14.14	-37.9	-38.9	20.0	0.00e+00	0	44	0	3911188480	45	4231
2026-01-27 05:20:32.60	246.47	14.07	-37.9	-38.9	20.0	0.00e+00	0	44	0	3917479936	45	4201
2026-01-27 05:20:33.74	246.34	13.97	-37.9	-38.9	20.0	0.00e+00	0	44	0	3925868544	45	4223
2026-01-27 05:20:34.59	246.25	13.90	-37.8	-38.9	20.0	0.00e+00	0	44	0	3931111424	45	4198
2026-01-27 05:20:35.87	246.11	13.79	-37.8	-38.9	20.0	0.00e+00	0	44	0	3940548608	45	4204
2026-01-27 05:20:36.60	246.03	13.72	-37.8	-38.8	20.1	0.00e+00	0	44	0	3945791488	45	4167
2026-01-27 05:20:37.88	245.88	13.61	-37.8	-38.9	20.0	0.00e+00	0	44	0	3955228672	45	4202
2026-01-27 05:20:38.59	245.81	13.55	-37.8	-38.8	20.0	0.00e+00	0	44	0	3960471552	45	4185
2026-01-27 05:20:40.14	245.64	13.42	-37.6	-38.6	20.2	0.00e+00	0	44	0	3972005888	45	4090
2026-01-27 05:20:40.85	245.56	13.36	-37.7	-38.7	20.1	0.00e+00	0	44	0	3976200192	45	4141
2026-01-27 05:20:42.12	245.42	13.25	-37.8	-38.9	20.0	0.00e+00	0	44	0	3985637376	45	4197
2026-01-27 05:20:42.85	245.35	13.19	-38.0	-39.0	19.8	0.00e+00	0	44	0	3990880256	45	4262
2026-01-27 05:20:44.24	245.20	13.07	-38.1	-39.2	19.7	0.00e+00	0	44	0	4001366016	45	4342
2026-01-27 05:20:44.95	245.12	13.01	-38.1	-39.2	19.7	0.00e+00	0	44	0	4006608896	45	4353
2026-01-27 05:20:46.23	244.99	12.91	-38.3	-39.3	19.6	0.00e+00	0	44	0	4016046080	46	4173
2026-01-27 05:20:46.96	244.91	12.85	-38.5	-39.5	19.4	0.00e+00	0	44	0	4020240384	46	4270
2026-01-27 05:20:48.24	244.78	12.74	-38.3	-39.3	19.6	0.00e+00	0	44	0	4029677568	46	4167
2026-01-27 05:20:48.96	244.71	12.68	-38.3	-39.3	19.6	0.00e+00	0	44	0	4034920448	46	4185
2026-01-27 05:20:50.24	244.58	12.57	-38.3	-39.3	19.5	0.00e+00	0	44	0	4044357632	46	4168
2026-01-27 05:20:50.95	244.50	12.51	-38.3	-39.3	19.5	0.00e+00	0	44	0	4049600512	46	4185
2026-01-27 05:20:52.23	244.37	12.41	-38.2	-39.2	19.6	0.00e+00	0	44	0	4059037696	46	4137
2026-01-27 05:20:52.96	244.30	12.35	-38.3	-39.3	19.5	0.00e+00	0	44	0	4064280576	46	4181
2026-01-27 05:20:54.23	244.17	12.24	-38.2	-39.3	19.6	0.00e+00	0	44	0	4073717760	46	4151
2026-01-27 05:20:54.96	244.10	12.18	-38.3	-39.3	19.6	0.00e+00	0	44	0	4078960640	46	4165
2026-01-27 05:20:56.24	243.97	12.08	-38.3	-39.3	19.6	0.00e+00	0	44	0	4087349248	46	4167
2026-01-27 05:20:56.98	243.90	12.02	-38.4	-39.4	19.5	0.00e+00	0	44	0	4093640704	46	4205
2026-01-27 05:20:58.25	243.78	11.91	-38.5	-39.5	19.3	0.00e+00	0	44	0	4102029312	46	4282
2026-01-27 05:20:59.15	243.69	11.84	-38.6	-39.7	19.2	0.00e+00	0	44	0	4108320768	46	4343
2026-01-27 05:21:00.57	243.55	11.73	-38.7	-39.8	19.1	0.00e+00	0	44	0	4118806528	46	4392
2026-01-27 05:21:01.28	243.48	11.67	-38.8	-39.8	19.0	0.00e+00	0	44	0	4124049408	47	4189
2026-01-27 05:21:02.79	243.34	11.55	-38.9	-40.0	18.9	0.00e+00	0	44	0	4135583744	47	4272
2026-01-27 05:21:03.50	243.27	11.49	-38.9	-40.0	18.9	0.00e+00	0	44	0	4139778048	47	4274
2026-01-27 05:21:04.84	243.15	11.38	-39.1	-40.2	18.7	0.00e+00	0	44	0	4150263808	47	4366
2026-01-27 05:21:05.55	243.08	11.32	-39.0	-40.2	18.7	0.00e+00	0	44	0	4155506688	47	4348
2026-01-27 05:21:06.83	242.96	11.22	-38.9	-40.1	18.8	0.00e+00	0	44	0	4163895296	47	4330
2026-01-27 05:21:07.54	242.89	11.17	-38.9	-40.1	18.7	0.00e+00	0	44	0	4169138176	47	4318
2026-01-27 05:21:08.82	242.78	11.06	-38.9	-40.1	18.7	0.00e+00	0	44	0	4178575360	47	4340
2026-01-27 05:21:09.58	242.71	11.00	-38.8	-40.0	18.8	0.00e+00	0	44	0	4183818240	47	4289
2026-01-27 05:21:11.02	242.57	10.89	-38.7	-40.0	18.8	0.00e+00	0	44	0	4194304000	47	4286
2026-01-27 05:21:11.73	242.51	10.83	-38.8	-40.1	18.8	0.00e+00	0	44	0	4199546880	47	4320
2026-01-27 05:21:13.00	242.40	10.73	-38.7	-40.0	18.9	0.00e+00	0	44	0	4208984064	47	4251
2026-01-27 05:21:13.73	242.33	10.68	-38.6	-40.0	18.8	0.00e+00	0	44	0	4214226944	47	4260
2026-01-27 05:21:15.01	242.22	10.57	-38.7	-40.0	18.8	0.00e+00	0	44	0	4223664128	47	4269
2026-01-27 05:21:15.75	242.15	10.52	-38.6	-39.9	18.9	0.00e+00	0	44	0	4228907008	47	4224
2026-01-27 05:21:17.02	242.04	10.42	-38.5	-39.8	19.0	0.00e+00	0	44	0	4238344192	47	4171
2026-01-27 05:21:17.75	241.97	10.36	-38.6	-39.8	19.0	0.00e+00	0	44	0	4242538496	47	4188
2026-01-27 05:21:19.03	241.86	10.26	-38.6	-39.8	19.0	0.00e+00	0	44	0	4251975680	47	4174
2026-01-27 05:21:19.76	241.80	10.20	-38.6	-39.7	19.1	0.00e+00	0	44	0	4257218560	47	4133
2026-01-27 05:21:21.03	241.69	10.11	-38.6	-39.8	19.0	0.00e+00	0	44	0	4266655744	47	4156
2026-01-27 05:21:21.76	241.63	10.05	-38.6	-39.8	19.1	0.00e+00	0	44	0	4271898624	47	4153
2026-01-27 05:21:23.03	241.52	9.95	-38.7	-39.8	19.0	0.00e+00	0	44	0	4281335808	47	4175
2026-01-27 05:21:23.74	241.46	9.90	-38.8	-39.9	18.9	0.00e+00	0	44	0	4286578688	47	4239
2026-01-27 05:21:25.02	241.35	9.80	-38.8	-39.9	18.9	0.00e+00	0	44	0	4296015872	47	4226
2026-01-27 05:21:25.75	241.29	9.74	-38.9	-40.0	18.9	0.00e+00	0	44	0	4301258752	47	4255
2026-01-27 05:21:27.03	241.18	9.65	-38.9	-40.0	18.8	0.00e+00	0	44	0	4310695936	47	4282
2026-01-27 05:21:27.75	241.12	9.59	-38.9	-40.1	18.8	0.00e+00	0	44	0	4314890240	47	4292
2026-01-27 05:21:29.03	241.02	9.49	-38.9	-40.0	18.9	0.00e+00	0	44	0	4324327424	47	4259
2026-01-27 05:21:29.76	240.96	9.44	-38.9	-40.0	18.8	0.00e+00	0	44	0	4329570304	47	4276
2026-01-27 05:21:31.04	240.85	9.34	-38.9	-40.0	18.8	0.00e+00	0	44	0	4339007488	47	4277
2026-01-27 05:21:31.79	240.79	9.29	-38.8	-39.9	18.9	0.00e+00	0	44	0	4344250368	47	4227
2026-01-27 05:21:33.08	240.69	9.19	-39.1	-40.2	18.6	0.00e+00	0	44	0	4353687552	47	4383
2026-01-27 05:21:33.82	240.63	9.13	-39.5	-40.6	18.5	0.00e+00	0	44	0	4358930432	48	4308
2026-01-27 05:21:35.10	240.52	9.04	-39.4	-40.5	18.6	0.00e+00	0	44	0	4368367616	48	4271
2026-01-27 05:21:35.81	240.47	8.98	-39.6	-40.7	18.4	0.00e+00	0	44	0	4373610496	48	4368
2026-01-27 05:21:37.10	240.37	8.89	-40.4	-41.6	17.5	0.00e+00	0	44	0	4383047680	50	4324
2026-01-27 05:21:37.82	240.31	8.83	-41.1	-42.4	16.7	0.00e+00	0	44	0	4388290560	51	4468
2026-01-27 05:21:39.10	240.21	8.74	-42.7	-44.4	14.6	0.00e+00	0	44	0	4396679168	54	4730
2026-01-27 05:21:39.85	240.15	8.68	-44.0	-46.1	13.1	1.25e-05	0	44	0	4402970624	57	4819
2026-01-27 05:21:41.13	240.05	8.59	-45.9	-48.8	10.3	3.49e-03	0	44	0	4412407808	61	5279
2026-01-27 05:21:41.85	240.00	8.54	-47.1	-51.2	7.8	4.84e-02	0	44	0	4416602112	63	6201
2026-01-27 05:21:43.14	239.90	8.44	-48.3	-54.8	4.9	6.95e-01	0	44	0	4423942144	66	7898
2026-01-27 05:21:43.88	239.84	8.39	-48.5	-55.8	4.5	8.16e-01	0	44	0	4423942144	66	8802
2026-01-27 05:21:45.17	239.74	8.29	-48.5	-55.3	4.7	8.07e-01	0	44	0	4423942144	66	8275
2026-01-27 05:21:45.88	239.69	8.24	-48.3	-54.7	5.0	7.72e-01	0	44	0	4423942144	66	7744
2026-01-27 05:21:47.16	239.59	8.15	-48.1	-54.1	5.4	7.13e-01	0	44	0	4426039296	66	7264
2026-01-27 05:21:47.88	239.54	8.09	-48.2	-54.2	5.3	7.32e-01	0	44	0	4427087872	66	7351
2026-01-27 05: