passes_logs/2026/01/27/T1/T1__20260127_225134_SUOMI_NPP_rec.log

#Pass ID: 20260127_225134_SUOMI NPP
#Satellite: SUOMI NPP
#Configuration: NPP
#almurnet v.1.7.20251203
#Start time: 2026-01-27 22:51:35

#Version: 2.0.20230620
#Station: T1
#Location: 37.570604 lon 55.790049 lat
#TLE: 1 37849U 11061A   26027.50945616  .00000185  00000+0  10897-3 0  9994
#TLE: 2 37849  98.7823 329.4511 0002105  42.1421 317.9917 14.19530771738482

#Time	Az	El	Level	Level2	SNR	BER	BlckErr	Temp	State	Recorded	gain1	gain2
2026-01-27 22:51:35.63	23.42	5.08	-50.5	-65.7	3.8	1.49e+00	0	40	0	0	71	22209
2026-01-27 22:51:36.62	23.47	5.15	-50.5	-65.8	3.8	1.49e+00	0	41	104	0	72	21076
2026-01-27 22:51:37.61	23.52	5.21	-50.6	-65.8	3.8	1.49e+00	0	41	104	0	72	21089
2026-01-27 22:51:38.61	23.58	5.28	-50.5	-65.7	3.8	1.49e+00	0	40	104	0	72	20982
2026-01-27 22:51:39.60	23.63	5.34	-50.4	-65.7	3.8	1.49e+00	0	41	104	0	72	20880
2026-01-27 22:51:40.59	23.69	5.41	-50.4	-65.8	3.8	1.49e+00	0	41	104	0	72	21027
2026-01-27 22:51:41.59	23.74	5.48	-50.4	-65.7	3.8	1.49e+00	0	41	104	0	72	20833
2026-01-27 22:51:42.58	23.80	5.55	-50.3	-65.6	3.8	1.49e+00	0	41	104	0	72	20775
2026-01-27 22:51:43.57	23.85	5.61	-50.4	-65.6	3.8	1.49e+00	0	41	104	0	72	20653
2026-01-27 22:51:44.57	23.91	5.68	-50.4	-65.6	3.8	1.49e+00	0	41	104	0	72	20665
2026-01-27 22:51:45.56	23.97	5.75	-50.2	-65.5	3.8	1.49e+00	0	41	104	0	72	20481
2026-01-27 22:51:46.55	24.02	5.82	-50.2	-65.5	3.8	1.49e+00	0	41	104	0	72	20310
2026-01-27 22:51:47.54	24.08	5.88	-50.2	-65.4	3.8	1.49e+00	0	41	104	0	72	20176
2026-01-27 22:51:48.54	24.14	5.95	-50.1	-65.4	3.8	1.49e+00	0	41	104	0	71	21283
2026-01-27 22:51:49.53	24.19	6.02	-49.5	-65.2	3.8	1.49e+00	0	41	104	0	70	22044
2026-01-27 22:51:50.52	24.25	6.09	-49.5	-64.9	3.8	1.49e+00	0	41	104	0	70	21464
2026-01-27 22:51:51.52	24.31	6.16	-49.4	-64.9	3.8	1.49e+00	0	41	104	0	70	21278
2026-01-27 22:51:52.51	24.37	6.22	-49.4	-64.9	3.8	1.49e+00	0	41	104	0	70	21289
2026-01-27 22:51:53.50	24.42	6.29	-49.4	-64.8	3.8	1.49e+00	0	41	104	0	70	21215
2026-01-27 22:51:54.50	24.48	6.36	-49.4	-64.9	3.8	1.49e+00	0	41	104	0	70	21335
2026-01-27 22:51:55.49	24.54	6.43	-49.4	-64.8	3.8	1.49e+00	0	41	104	0	70	21234
2026-01-27 22:51:56.48	24.60	6.50	-49.4	-64.8	3.8	1.49e+00	0	41	104	0	70	21146
2026-01-27 22:51:57.48	24.66	6.57	-49.4	-64.8	3.8	1.49e+00	0	41	104	0	70	21110
2026-01-27 22:51:58.47	24.72	6.64	-49.4	-64.8	3.8	1.49e+00	0	41	104	0	70	21055
2026-01-27 22:51:59.46	24.78	6.71	-49.4	-64.7	3.8	1.49e+00	0	41	104	0	70	20968
2026-01-27 22:52:00.45	24.84	6.78	-49.4	-64.7	3.8	1.49e+00	0	41	104	0	70	20925
2026-01-27 22:52:01.45	24.90	6.85	-49.4	-64.7	3.8	1.49e+00	0	41	104	0	70	20938
2026-01-27 22:52:02.44	24.96	6.92	-49.4	-64.7	3.8	1.49e+00	0	41	104	0	70	20911
2026-01-27 22:52:03.43	25.02	6.99	-49.4	-64.8	3.8	1.49e+00	0	42	104	0	70	21109
2026-01-27 22:52:04.43	25.08	7.06	-49.4	-64.8	3.8	1.49e+00	0	41	104	0	70	21211
2026-01-27 22:52:05.42	25.14	7.13	-49.4	-64.9	3.8	1.49e+00	0	42	104	0	70	21318
2026-01-27 22:52:06.41	25.20	7.20	-49.4	-64.9	3.8	1.49e+00	0	42	104	0	70	21381
2026-01-27 22:52:07.41	25.26	7.27	-49.4	-64.9	3.8	1.49e+00	0	42	104	0	70	21328
2026-01-27 22:52:08.40	25.32	7.35	-49.4	-64.9	3.8	1.49e+00	0	42	104	0	70	21353
2026-01-27 22:52:09.39	25.39	7.42	-49.4	-64.9	3.8	1.49e+00	0	42	104	0	70	21280
2026-01-27 22:52:10.38	25.45	7.49	-49.3	-64.7	3.8	1.49e+00	0	42	104	0	70	21006
2026-01-27 22:52:11.38	25.51	7.56	-49.3	-64.7	3.8	1.49e+00	0	42	104	0	70	20818
2026-01-27 22:52:12.37	25.57	7.63	-49.3	-64.6	3.8	1.49e+00	0	42	104	0	70	20741
2026-01-27 22:52:13.36	25.64	7.70	-49.3	-64.6	3.8	1.49e+00	0	42	104	0	70	20619
2026-01-27 22:52:14.36	25.70	7.78	-49.3	-64.6	3.8	1.49e+00	0	42	104	0	70	20549
2026-01-27 22:52:15.35	25.77	7.85	-49.3	-64.5	3.8	1.49e+00	0	42	104	0	70	20366
2026-01-27 22:52:16.34	25.83	7.92	-49.3	-64.5	3.8	1.49e+00	0	42	104	0	70	20472
2026-01-27 22:52:17.34	25.90	8.00	-49.3	-64.5	3.8	1.49e+00	0	42	104	0	70	20332
2026-01-27 22:52:18.33	25.96	8.07	-49.3	-64.5	3.8	1.49e+00	0	42	104	0	70	20445
2026-01-27 22:52:19.32	26.02	8.14	-49.3	-64.5	3.8	1.49e+00	0	42	104	0	70	20425
2026-01-27 22:52:20.31	26.09	8.21	-49.3	-64.5	3.8	1.49e+00	0	42	104	0	70	20335
2026-01-27 22:52:21.31	26.16	8.29	-49.3	-64.3	3.8	1.49e+00	0	42	104	0	70	19876
2026-01-27 22:52:22.30	26.22	8.36	-49.3	-64.1	3.8	1.49e+00	0	42	104	0	70	19484
2026-01-27 22:52:23.29	26.29	8.44	-49.3	-63.8	3.8	1.49e+00	0	42	104	0	70	18791
2026-01-27 22:52:24.28	26.36	8.51	-49.3	-63.3	3.8	1.49e+00	0	42	104	0	70	17799
2026-01-27 22:52:25.28	26.42	8.58	-49.2	-62.8	3.8	1.49e+00	0	42	104	0	70	16886
2026-01-27 22:52:26.27	26.49	8.66	-49.2	-62.0	4.0	1.48e+00	0	42	104	0	70	15371
2026-01-27 22:52:27.26	26.56	8.73	-49.1	-60.8	4.3	1.36e+00	0	42	0	0	70	13303
2026-01-27 22:52:28.26	26.63	8.81	-49.0	-59.9	4.7	9.41e-01	0	42	0	1048576	70	12028
2026-01-27 22:52:29.25	26.69	8.88	-48.8	-58.8	5.3	7.21e-01	0	42	0	3145728	69	11239
2026-01-27 22:52:30.24	26.76	8.96	-48.7	-57.7	6.1	4.48e-01	0	42	0	5242880	69	9909
2026-01-27 22:52:31.23	26.83	9.03	-48.5	-57.0	6.6	2.20e-01	0	42	0	7340032	69	9168
2026-01-27 22:52:32.23	26.90	9.11	-48.7	-58.2	5.8	3.12e-01	0	42	0	8388608	69	10442
2026-01-27 22:52:33.22	26.97	9.19	-49.4	-64.1	3.8	1.47e+00	0	42	104	9437184	69	20724
2026-01-27 22:52:34.21	27.04	9.26	-47.1	-52.2	11.4	1.25e-03	0	42	0	9437184	65	6637
2026-01-27 22:52:35.21	27.11	9.34	-48.3	-55.9	7.5	1.40e-01	0	43	0	11534336	67	9030
2026-01-27 22:52:36.20	27.18	9.42	-45.6	-49.3	14.4	2.14e-04	0	42	0	13631488	63	5283
2026-01-27 22:52:37.19	27.25	9.49	-45.5	-49.1	14.6	0.00e+00	0	43	0	14680064	62	5472
2026-01-27 22:52:38.19	27.32	9.57	-45.5	-49.1	14.5	0.00e+00	0	42	0	16777216	62	5481
2026-01-27 22:52:39.18	27.40	9.65	-45.4	-48.9	14.7	7.00e-07	0	42	0	18874368	62	5385
2026-01-27 22:52:40.17	27.47	9.72	-45.2	-48.7	14.9	0.00e+00	0	43	0	20971520	62	5253
2026-01-27 22:52:41.17	27.54	9.80	-45.1	-48.4	15.2	0.00e+00	0	42	0	23068672	62	5095
2026-01-27 22:52:42.16	27.61	9.88	-45.1	-48.5	15.2	0.00e+00	0	42	0	24117248	62	5140
2026-01-27 22:52:43.15	27.69	9.96	-45.1	-48.5	15.2	0.00e+00	0	42	0	26214400	62	5104
2026-01-27 22:52:44.15	27.76	10.04	-44.8	-48.1	15.6	0.00e+00	0	42	0	28311552	61	5166
2026-01-27 22:52:45.14	27.83	10.11	-44.7	-47.9	15.7	0.00e+00	0	43	0	30408704	61	5073
2026-01-27 22:52:46.13	27.91	10.19	-44.8	-48.1	15.6	0.00e+00	0	42	0	31457280	61	5174
2026-01-27 22:52:47.12	27.98	10.27	-44.7	-47.9	15.7	0.00e+00	0	43	0	33554432	61	5079
2026-01-27 22:52:48.12	28.06	10.35	-44.8	-48.1	15.6	0.00e+00	0	43	0	35651584	61	5174
2026-01-27 22:52:49.11	28.13	10.43	-44.5	-47.6	16.1	0.00e+00	0	43	0	37748736	61	4891
2026-01-27 22:52:50.10	28.21	10.51	-44.4	-47.4	16.2	0.00e+00	0	42	0	39845888	60	5076
2026-01-27 22:52:51.09	28.29	10.59	-44.4	-47.6	16.1	0.00e+00	0	42	0	40894464	60	5160
2026-01-27 22:52:52.09	28.36	10.67	-44.2	-47.3	16.5	0.00e+00	0	42	0	42991616	60	4989
2026-01-27 22:52:53.08	28.44	10.75	-44.1	-47.1	16.6	0.00e+00	0	43	0	45088768	60	4895
2026-01-27 22:52:54.07	28.52	10.83	-44.3	-47.3	16.3	0.00e+00	0	42	0	47185920	60	5027
2026-01-27 22:52:55.07	28.59	10.91	-44.2	-47.2	16.4	0.00e+00	0	42	0	48234496	60	4980
2026-01-27 22:52:56.06	28.67	10.99	-44.1	-47.1	16.6	0.00e+00	0	43	0	50331648	60	4890
2026-01-27 22:52:57.05	28.75	11.07	-44.2	-47.3	16.4	0.00e+00	0	43	0	52428800	60	4985
2026-01-27 22:52:58.05	28.83	11.15	-44.2	-47.3	16.4	0.00e+00	0	43	0	54525952	60	5007
2026-01-27 22:52:59.04	28.91	11.23	-44.3	-47.3	16.4	0.00e+00	0	42	0	56623104	60	5024
2026-01-27 22:53:00.03	28.99	11.32	-44.1	-47.1	16.6	0.00e+00	0	42	0	57671680	59	5161
2026-01-27 22:53:01.02	29.07	11.40	-44.2	-47.2	16.4	0.00e+00	0	42	0	59768832	59	5272
2026-01-27 22:53:02.02	29.15	11.48	-44.2	-47.2	16.4	0.00e+00	0	43	0	61865984	59	5245
2026-01-27 22:53:03.01	29.23	11.56	-44.2	-47.1	16.5	0.00e+00	0	43	0	63963136	59	5192
2026-01-27 22:53:04.00	29.31	11.64	-44.3	-47.3	16.3	0.00e+00	0	43	0	65011712	59	5324
2026-01-27 22:53:04.99	29.40	11.73	-44.1	-47.0	16.6	0.00e+00	0	43	0	67108864	59	5112
2026-01-27 22:53:05.99	29.48	11.81	-44.1	-47.1	16.6	0.00e+00	0	43	0	69206016	59	5171
2026-01-27 22:53:06.98	29.56	11.89	-44.2	-47.2	16.5	0.00e+00	0	43	0	71303168	59	5233
2026-01-27 22:53:07.97	29.64	11.98	-44.2	-47.2	16.5	0.00e+00	0	42	0	72351744	59	5226
2026-01-27 22:53:08.97	29.73	12.06	-44.1	-47.0	16.6	0.00e+00	0	43	0	74448896	59	5150
2026-01-27 22:53:09.96	29.81	12.14	-44.2	-47.1	16.6	0.00e+00	0	43	0	76546048	59	5201
2026-01-27 22:53:10.95	29.90	12.23	-44.2	-47.0	16.7	0.00e+00	0	42	0	78643200	59	5136
2026-01-27 22:53:11.95	29.98	12.31	-44.2	-47.0	16.7	0.00e+00	0	43	0	80740352	59	5135
2026-01-27 22:53:12.94	30.07	12.40	-44.3	-47.1	16.6	0.00e+00	0	43	0	81788928	59	5214
2026-01-27 22:53:13.93	30.15	12.48	-44.0	-46.8	16.9	0.00e+00	0	43	0	83886080	59	5005
2026-01-27 22:53:14.92	30.24	12.57	-44.1	-46.9	16.8	0.00e+00	0	43	0	85983232	59	5085
2026-01-27 22:53:15.92	30.33	12.65	-44.0	-46.8	16.8	0.00e+00	0	43	0	88080384	59	5041
2026-01-27 22:53:16.91	30.41	12.74	-44.1	-46.8	16.9	0.00e+00	0	43	0	89128960	59	5039
2026-01-27 22:53:17.90	30.50	12.83	-44.0	-46.8	16.9	0.00e+00	0	43	0	91226112	59	5016
2026-01-27 22:53:18.89	30.59	12.91	-43.9	-46.6	17.1	0.00e+00	0	43	0	93323264	59	4900
2026-01-27 22:53:19.89	30.68	13.00	-43.9	-46.6	17.1	0.00e+00	0	43	0	95420416	59	4901
2026-01-27 22:53:20.88	30.77	13.08	-43.9	-46.6	17.1	0.00e+00	0	43	0	97517568	59	4911
2026-01-27 22:53:21.87	30.86	13.17	-43.9	-46.6	17.1	0.00e+00	0	43	0	98566144	59	4902
2026-01-27 22:53:22.86	30.95	13.26	-43.9	-46.7	17.0	0.00e+00	0	43	0	100663296	59	4949
2026-01-27 22:53:23.86	31.04	13.35	-43.9	-46.6	17.1	0.00e+00	0	43	0	102760448	59	4901
2026-01-27 22:53:24.85	31.13	13.43	-44.1	-46.8	16.9	0.00e+00	0	43	0	104857600	59	5019
2026-01-27 22:53:25.84	31.22	13.52	-44.0	-46.8	16.9	0.00e+00	0	43	0	105906176	59	4984
2026-01-27 22:53:26.84	31.32	13.61	-43.7	-46.3	17.4	0.00e+00	0	43	0	108003328	59	4755
2026-01-27 22:53:27.83	31.41	13.70	-43.6	-46.3	17.4	0.00e+00	0	43	0	110100480	59	4724
2026-01-27 22:53:28.82	31.50	13.79	-43.5	-46.2	17.4	0.00e+00	0	43	0	112197632	59	4678
2026-01-27 22:53:29.82	31.60	13.88	-43.5	-46.1	17.5	0.00e+00	0	43	0	114294784	59	4634
2026-01-27 22:53:30.81	31.69	13.97	-43.6	-46.3	17.4	0.00e+00	0	43	0	115343360	58	5005
2026-01-27 22:53:31.80	31.79	14.05	-43.4	-46.0	17.6	0.00e+00	0	43	0	117440512	58	4864
2026-01-27 22:53:32.79	31.88	14.14	-43.3	-46.0	17.8	0.00e+00	0	43	0	119537664	58	4823
2026-01-27 22:53:33.79	31.98	14.23	-43.3	-46.0	17.7	0.00e+00	0	43	0	121634816	58	4829
2026-01-27 22:53:34.78	32.08	14.32	-43.4	-46.1	17.6	0.00e+00	0	43	0	122683392	58	4902
2026-01-27 22:53:35.77	32.17	14.41	-43.4	-46.1	17.6	0.00e+00	0	43	0	124780544	58	4909
2026-01-27 22:53:36.77	32.27	14.51	-43.4	-46.1	17.6	0.00e+00	0	43	0	126877696	58	4892
2026-01-27 22:53:37.76	32.37	14.60	-43.5	-46.1	17.7	0.00e+00	0	43	0	128974848	58	4897
2026-01-27 22:53:38.75	32.47	14.69	-43.7	-46.4	17.4	0.00e+00	0	43	0	131072000	58	5045
2026-01-27 22:53:39.74	32.57	14.78	-43.7	-46.3	17.4	0.00e+00	0	43	0	132120576	58	5040
2026-01-27 22:53:40.74	32.67	14.87	-43.8	-46.5	17.3	0.00e+00	0	43	0	134217728	58	5158
2026-01-27 22:53:41.73	32.77	14.96	-43.8	-46.6	17.3	0.00e+00	0	43	0	136314880	58	5164
2026-01-27 22:53:42.72	32.87	15.06	-43.9	-46.6	17.2	0.00e+00	0	43	0	138412032	58	5190
2026-01-27 22:53:43.71	32.97	15.15	-43.9	-46.7	17.1	0.00e+00	0	43	0	139460608	58	5239
2026-01-27 22:53:44.71	33.08	15.24	-43.9	-46.7	17.1	0.00e+00	0	43	0	141557760	58	5240
2026-01-27 22:53:45.70	33.18	15.33	-43.9	-46.6	17.2	0.00e+00	0	43	0	143654912	58	5185
2026-01-27 22:53:46.69	33.28	15.43	-43.9	-46.5	17.3	0.00e+00	0	43	0	145752064	58	5157
2026-01-27 22:53:47.69	33.39	15.52	-43.9	-46.6	17.3	0.00e+00	0	43	0	147849216	58	5171
2026-01-27 22:53:48.68	33.50	15.62	-43.8	-46.5	17.3	0.00e+00	0	43	0	148897792	58	5113
2026-01-27 22:53:49.67	33.60	15.71	-43.9	-46.6	17.2	0.00e+00	0	43	0	150994944	58	5192
2026-01-27 22:53:50.66	33.71	15.80	-43.9	-46.5	17.3	0.00e+00	0	43	0	153092096	58	5145
2026-01-27 22:53:51.66	33.81	15.90	-43.8	-46.4	17.4	0.00e+00	0	43	0	155189248	58	5054
2026-01-27 22:53:52.65	33.92	16.00	-43.6	-46.2	17.6	0.00e+00	0	43	0	156237824	58	4962
2026-01-27 22:53:53.64	34.03	16.09	-43.6	-46.2	17.6	0.00e+00	0	43	0	158334976	58	4941
2026-01-27 22:53:54.64	34.14	16.19	-43.5	-46.0	17.5	0.00e+00	0	43	0	160432128	58	4853
2026-01-27 22:53:55.63	34.25	16.28	-43.5	-46.1	17.7	0.00e+00	0	43	0	162529280	58	4890
2026-01-27 22:53:56.62	34.36	16.38	-43.5	-46.1	17.7	0.00e+00	0	43	0	163577856	58	4878
2026-01-27 22:53:57.62	34.47	16.48	-43.3	-45.9	17.8	0.00e+00	0	43	0	165675008	58	4802
2026-01-27 22:53:58.61	34.58	16.57	-43.4	-46.0	17.7	0.00e+00	0	43	0	167772160	58	4861
2026-01-27 22:53:59.60	34.70	16.67	-43.6	-46.3	17.5	0.00e+00	0	43	0	169869312	58	5029
2026-01-27 22:54:00.59	34.81	16.77	-43.5	-46.2	17.6	0.00e+00	0	43	0	171966464	58	4942
2026-01-27 22:54:01.59	34.92	16.87	-43.7	-46.5	17.4	0.00e+00	0	43	0	173015040	58	5107
2026-01-27 22:54:02.58	35.04	16.96	-43.6	-46.3	17.4	0.00e+00	0	43	0	175112192	58	5041
2026-01-27 22:54:03.57	35.15	17.06	-43.8	-46.5	17.3	0.00e+00	0	43	0	177209344	58	5145
2026-01-27 22:54:04.57	35.27	17.16	-43.8	-46.5	17.4	0.00e+00	0	43	0	179306496	58	5118
2026-01-27 22:54:05.56	35.39	17.26	-43.8	-46.5	17.4	0.00e+00	0	43	0	180355072	58	5116
2026-01-27 22:54:06.55	35.50	17.36	-44.0	-46.7	17.2	0.00e+00	0	43	0	182452224	58	5233
2026-01-27 22:54:07.54	35.62	17.46	-43.9	-46.7	17.3	0.00e+00	0	43	0	184549376	58	5224
2026-01-27 22:54:08.54	35.74	17.56	-44.1	-46.8	16.8	0.00e+00	0	43	0	186646528	58	5326
2026-01-27 22:54:09.53	35.86	17.66	-44.1	-46.9	17.0	0.00e+00	0	43	0	188743680	59	5046
2026-01-27 22:54:10.52	35.98	17.76	-44.2	-46.9	16.9	0.00e+00	0	43	0	189792256	59	5086
2026-01-27 22:54:11.52	36.10	17.86	-44.2	-46.9	16.9	0.00e+00	0	43	0	191889408	59	5100
2026-01-27 22:54:12.51	36.23	17.96	-44.2	-47.0	16.9	0.00e+00	0	43	0	193986560	59	5140
2026-01-27 22:54:13.50	36.35	18.06	-44.3	-47.1	16.7	0.00e+00	0	43	0	196083712	59	5213
2026-01-27 22:54:14.49	36.47	18.16	-44.3	-47.2	16.7	0.00e+00	0	43	0	197132288	59	5245
2026-01-27 22:54:15.49	36.60	18.26	-44.3	-47.1	16.8	0.00e+00	0	43	0	199229440	59	5204
2026-01-27 22:54:16.48	36.72	18.37	-44.2	-47.0	16.8	0.00e+00	0	43	0	201326592	59	5154
2026-01-27 22:54:17.47	36.85	18.47	-44.3	-47.1	16.8	0.00e+00	0	43	0	203423744	59	5215
2026-01-27 22:54:18.47	36.98	18.57	-44.3	-47.0	16.8	0.00e+00	0	43	0	205520896	59	5153
2026-01-27 22:54:19.46	37.10	18.67	-44.0	-46.7	17.1	0.00e+00	0	43	0	206569472	59	4983
2026-01-27 22:54:20.45	37.23	18.78	-44.1	-46.9	17.0	0.00e+00	0	43	0	208666624	59	5054
2026-01-27 22:54:21.44	37.36	18.88	-44.1	-46.8	17.1	0.00e+00	0	43	0	210763776	59	5014
2026-01-27 22:54:22.44	37.49	18.99	-44.1	-46.8	17.0	0.00e+00	0	43	0	212860928	59	5018
2026-01-27 22:54:23.43	37.62	19.09	-44.2	-46.9	17.0	0.00e+00	0	43	0	213909504	59	5056
2026-01-27 22:54:24.42	37.76	19.19	-44.1	-46.8	17.1	0.00e+00	0	43	0	216006656	59	4992
2026-01-27 22:54:25.41	37.89	19.30	-44.1	-46.8	17.0	0.00e+00	0	43	0	218103808	59	5016
2026-01-27 22:54:26.41	38.02	19.40	-44.2	-46.9	17.0	0.00e+00	0	43	0	220200960	59	5088
2026-01-27 22:54:27.40	38.16	19.51	-44.2	-47.0	16.9	0.00e+00	0	43	0	222298112	59	5129
2026-01-27 22:54:28.39	38.29	19.61	-44.1	-46.8	17.1	0.00e+00	0	43	0	223346688	59	5021
2026-01-27 22:54:29.39	38.43	19.72	-44.2	-47.0	16.9	0.00e+00	0	43	0	225443840	59	5102
2026-01-27 22:54:30.38	38.57	19.83	-44.2	-47.0	16.9	0.00e+00	0	43	0	227540992	59	5112
2026-01-27 22:54:31.37	38.71	19.93	-44.3	-47.1	16.8	0.00e+00	0	43	0	229638144	59	5160
2026-01-27 22:54:32.37	38.85	20.04	-44.3	-47.1	16.8	0.00e+00	0	43	0	230686720	59	5164
2026-01-27 22:54:33.36	38.99	20.15	-44.4	-47.2	16.7	0.00e+00	0	43	0	232783872	59	5221
2026-01-27 22:54:34.35	39.13	20.26	-44.1	-46.8	17.0	0.00e+00	0	43	0	234881024	59	5038
2026-01-27 22:54:35.34	39.27	20.36	-44.3	-47.1	16.8	0.00e+00	0	43	0	236978176	59	5170
2026-01-27 22:54:36.34	39.41	20.47	-44.4	-47.3	16.6	0.00e+00	0	43	0	239075328	59	5305
2026-01-27 22:54:37.33	39.56	20.58	-44.2	-47.0	16.9	0.00e+00	0	43	0	240123904	59	5143
2026-01-27 22:54:38.32	39.70	20.69	-44.4	-47.2	16.7	0.00e+00	0	43	0	242221056	59	5240
2026-01-27 22:54:39.32	39.85	20.80	-44.3	-47.1	16.8	0.00e+00	0	43	0	244318208	59	5164
2026-01-27 22:54:40.31	40.00	20.91	-44.0	-46.7	17.1	0.00e+00	0	43	0	246415360	59	4965
2026-01-27 22:54:41.30	40.14	21.02	-44.1	-46.8	17.1	0.00e+00	0	43	0	247463936	59	5005
2026-01-27 22:54:42.29	40.29	21.13	-44.2	-47.0	16.9	0.00e+00	0	43	0	249561088	59	5141
2026-01-27 22:54:43.29	40.44	21.24	-44.2	-47.0	16.9	0.00e+00	0	43	0	251658240	59	5115
2026-01-27 22:54:44.28	40.60	21.35	-44.0	-46.7	17.2	0.00e+00	0	43	0	253755392	59	4939
2026-01-27 22:54:45.27	40.75	21.46	-44.0	-46.7	17.1	0.00e+00	0	43	0	254803968	59	4971
2026-01-27 22:54:46.27	40.90	21.57	-43.8	-46.4	17.4	0.00e+00	0	43	0	256901120	59	4791
2026-01-27 22:54:47.26	41.06	21.68	-43.8	-46.4	17.5	0.00e+00	0	43	0	258998272	59	4776
2026-01-27 22:54:48.25	41.21	21.79	-43.9	-46.5	17.3	0.00e+00	0	43	0	261095424	59	4848
2026-01-27 22:54:49.25	41.37	21.90	-43.9	-46.5	17.4	0.00e+00	0	43	0	263192576	59	4842
2026-01-27 22:54:50.24	41.53	22.02	-43.7	-46.3	17.5	0.00e+00	0	43	0	264241152	59	4738
2026-01-27 22:54:51.23	41.69	22.13	-43.9	-46.5	17.3	0.00e+00	0	43	0	266338304	59	4844
2026-01-27 22:54:52.22	41.85	22.24	-44.0	-46.7	17.1	0.00e+00	0	43	0	268435456	59	4959
2026-01-27 22:54:53.22	42.01	22.35	-43.9	-46.5	17.4	0.00e+00	0	43	0	270532608	59	4821
2026-01-27 22:54:54.21	42.17	22.47	-44.0	-46.6	17.2	0.00e+00	0	43	0	271581184	59	4916
2026-01-27 22:54:55.20	42.33	22.58	-44.1	-46.8	17.1	0.00e+00	0	43	0	273678336	59	4994
2026-01-27 22:54:56.20	42.50	22.69	-43.9	-46.5	17.4	0.00e+00	0	43	0	275775488	59	4847
2026-01-27 22:54:57.19	42.66	22.81	-43.9	-46.5	17.3	0.00e+00	0	43	0	277872640	59	4845
2026-01-27 22:54:58.18	42.83	22.92	-43.8	-46.4	17.4	0.00e+00	0	43	0	279969792	59	4781
2026-01-27 22:54:59.18	43.00	23.04	-43.6	-46.1	17.7	0.00e+00	0	43	0	281018368	59	4648
2026-01-27 22:55:00.17	43.17	23.15	-43.6	-46.1	17.7	0.00e+00	0	43	0	283115520	59	4630
2026-01-27 22:55:01.16	43.34	23.27	-43.3	-45.7	18.1	0.00e+00	0	43	0	285212672	58	4690
2026-01-27 22:55:02.15	43.51	23.38	-43.4	-45.9	17.9	0.00e+00	0	43	0	287309824	58	4811
2026-01-27 22:55:03.15	43.68	23.50	-43.4	-46.0	17.9	0.00e+00	0	43	0	288358400	58	4817
2026-01-27 22:55:04.14	43.86	23.61	-43.6	-46.2	17.7	0.00e+00	0	43	0	290455552	58	4971
2026-01-27 22:55:05.13	44.03	23.73	-43.8	-46.5	17.4	0.00e+00	0	43	0	292552704	58	5118
2026-01-27 22:55:06.13	44.21	23.85	-43.9	-46.6	16.8	0.00e+00	0	43	0	294649856	58	5177
2026-01-27 22:55:07.12	44.39	23.96	-44.3	-47.1	16.8	0.00e+00	0	43	0	296747008	59	5205
2026-01-27 22:55:08.11	44.57	24.08	-44.1	-46.9	17.0	0.00e+00	0	43	0	297795584	59	5087
2026-01-27 22:55:09.11	44.75	24.20	-44.3	-47.1	16.8	0.00e+00	0	43	0	299892736	59	5217
2026-01-27 22:55:10.10	44.93	24.32	-44.3	-47.1	16.8	0.00e+00	0	43	0	301989888	59	5215
2026-01-27 22:55:11.09	45.12	24.43	-44.1	-46.8	17.2	0.00e+00	0	43	0	304087040	59	5017
2026-01-27 22:55:12.09	45.30	24.55	-44.0	-46.7	17.2	0.00e+00	0	43	0	305135616	59	4968
2026-01-27 22:55:13.08	45.49	24.67	-43.7	-46.3	17.5	0.00e+00	0	43	0	307232768	59	4757
2026-01-27 22:55:14.07	45.67	24.79	-43.7	-46.3	17.6	0.00e+00	0	43	0	309329920	59	4732
2026-01-27 22:55:15.06	45.86	24.91	-43.4	-45.9	17.9	0.00e+00	0	43	0	311427072	58	4803
2026-01-27 22:55:16.06	46.06	25.03	-43.3	-45.8	18.1	0.00e+00	0	43	0	313524224	58	4739
2026-01-27 22:55:17.05	46.25	25.14	-43.3	-45.8	18.1	0.00e+00	0	43	0	314572800	58	4715
2026-01-27 22:55:18.04	46.44	25.26	-43.3	-45.8	18.0	0.00e+00	0	43	0	316669952	58	4747
2026-01-27 22:55:19.04	46.64	25.38	-43.2	-45.7	18.2	0.00e+00	0	43	0	318767104	58	4681
2026-01-27 22:55:20.03	46.83	25.50	-43.6	-46.1	17.7	0.00e+00	0	43	0	320864256	58	4913
2026-01-27 22:55:21.02	47.03	25.62	-43.4	-45.9	17.9	0.00e+00	0	43	0	321912832	58	4799
2026-01-27 22:55:22.01	47.23	25.74	-43.4	-45.9	18.0	0.00e+00	0	43	0	324009984	58	4766
2026-01-27 22:55:23.01	47.43	25.86	-43.5	-46.0	17.9	0.00e+00	0	43	0	326107136	58	4838
2026-01-27 22:55:24.00	47.63	25.98	-43.4	-46.0	17.8	0.00e+00	0	43	0	328204288	58	4820
2026-01-27 22:55:24.99	47.83	26.10	-43.6	-46.1	17.8	0.00e+00	0	43	0	330301440	58	4895
2026-01-27 22:55:25.99	48.04	26.22	-43.3	-45.7	18.2	0.00e+00	0	43	0	331350016	58	4691
2026-01-27 22:55:26.98	48.24	26.35	-43.3	-45.8	18.1	0.00e+00	0	43	0	333447168	58	4733
2026-01-27 22:55:27.97	48.45	26.47	-43.3	-45.8	18.1	0.00e+00	0	43	0	335544320	58	4718
2026-01-27 22:55:28.96	48.66	26.59	-43.3	-45.8	18.1	0.00e+00	0	43	0	337641472	58	4726
2026-01-27 22:55:29.96	48.87	26.71	-43.4	-45.9	18.0	0.00e+00	0	43	0	338690048	58	4763
2026-01-27 22:55:30.95	49.09	26.83	-43.3	-45.8	18.1	0.00e+00	0	43	0	340787200	58	4755
2026-01-27 22:55:31.94	49.30	26.95	-43.2	-45.7	18.1	0.00e+00	0	43	0	342884352	58	4687
2026-01-27 22:55:32.94	49.52	27.07	-43.2	-45.6	18.2	0.00e+00	0	43	0	344981504	58	4645
2026-01-27 22:55:33.93	49.73	27.20	-43.2	-45.6	18.3	0.00e+00	0	43	0	346030080	58	4606
2026-01-27 22:55:34.92	49.95	27.32	-43.2	-45.6	18.3	0.00e+00	0	43	0	348127232	58	4645
2026-01-27 22:55:35.91	50.17	27.44	-43.0	-45.4	18.4	0.00e+00	0	43	0	350224384	57	4800
2026-01-27 22:55:36.91	50.40	27.56	-42.9	-45.2	18.6	0.00e+00	0	43	0	352321536	57	4694
2026-01-27 22:55:37.90	50.62	27.68	-43.1	-45.4	18.4	0.00e+00	0	43	0	354418688	57	4805
2026-01-27 22:55:38.89	50.85	27.81	-42.9	-45.3	18.6	0.00e+00	0	43	0	355467264	57	4734
2026-01-27 22:55:39.89	51.08	27.93	-43.3	-45.7	18.2	0.00e+00	0	43	0	357564416	57	4958
2026-01-27 22:55:40.88	51.31	28.05	-43.3	-45.7	18.1	0.00e+00	0	43	0	359661568	57	4979
2026-01-27 22:55:41.87	51.54	28.17	-43.4	-45.9	18.1	0.00e+00	0	43	0	361758720	57	5044
2026-01-27 22:55:42.86	51.77	28.30	-43.5	-46.1	17.8	0.00e+00	0	43	0	362807296	57	5170
2026-01-27 22:55:43.86	52.00	28.42	-43.6	-46.1	17.8	0.00e+00	0	43	0	364904448	57	5195
2026-01-27 22:55:44.85	52.24	28.54	-43.5	-46.1	17.9	0.00e+00	0	43	0	367001600	57	5178
2026-01-27 22:55:45.84	52.48	28.66	-43.5	-46.1	17.9	0.00e+00	0	43	0	369098752	57	5160
2026-01-27 22:55:46.84	52.72	28.79	-43.7	-46.3	17.7	0.00e+00	0	43	0	371195904	57	5287
2026-01-27 22:55:47.83	52.96	28.91	-43.7	-46.3	17.6	0.00e+00	0	43	0	372244480	58	5017
2026-01-27 22:55:48.82	53.20	29.03	-43.9	-46.6	17.4	0.00e+00	0	43	0	374341632	58	5195
2026-01-27 22:55:49.82	53.45	29.16	-44.0	-46.7	17.3	0.00e+00	0	43	0	376438784	58	5225
2026-01-27 22:55:50.81	53.70	29.28	-44.0	-46.7	17.3	0.00e+00	0	43	0	378535936	59	4930
2026-01-27 22:55:51.80	53.95	29.40	-44.3	-47.0	17.0	0.00e+00	0	43	0	379584512	59	5117
2026-01-27 22:55:52.79	54.20	29.52	-44.3	-47.0	17.1	0.00e+00	0	43	0	381681664	59	5115
2026-01-27 22:55:53.79	54.45	29.65	-44.5	-47.2	16.8	0.00e+00	0	43	0	383778816	59	5274
2026-01-27 22:55:54.78	54.70	29.77	-44.6	-47.4	16.7	0.00e+00	0	43	0	385875968	60	5058
2026-01-27 22:55:55.77	54.96	29.89	-44.7	-47.6	16.4	0.00e+00	0	43	0	387973120	60	5192
2026-01-27 22:55:56.76	55.22	30.01	-44.7	-47.6	16.5	0.00e+00	0	43	0	389021696	60	5189
2026-01-27 22:55:57.76	55.48	30.14	-44.9	-47.9	16.1	0.00e+00	0	43	0	391118848	60	5387
2026-01-27 22:55:58.75	55.74	30.26	-44.6	-47.4	16.6	0.00e+00	0	43	0	393216000	60	5092
2026-01-27 22:55:59.74	56.01	30.38	-44.7	-47.7	16.4	0.00e+00	0	43	0	395313152	60	5226
2026-01-27 22:56:00.74	56.27	30.50	-44.9	-47.9	16.2	0.00e+00	0	43	0	396361728	60	5380
2026-01-27 22:56:01.73	56.54	30.62	-45.4	-48.6	15.6	0.00e+00	0	43	0	398458880	61	5465
2026-01-27 22:56:02.72	56.81	30.74	-45.8	-49.2	15.0	0.00e+00	0	43	0	400556032	62	5588
2026-01-27 22:56:03.72	57.09	30.87	-45.8	-49.2	15.0	0.00e+00	0	43	0	402653184	62	5532
2026-01-27 22:56:04.71	57.36	30.99	-46.2	-49.9	14.3	0.00e+00	0	43	0	404750336	63	5662
2026-01-27 22:56:05.70	57.64	31.11	-46.4	-50.2	14.0	1.50e-06	0	43	0	405798912	63	5883
2026-01-27 22:56:06.69	57.91	31.23	-46.3	-50.1	14.1	6.10e-06	0	43	0	407896064	63	5812
2026-01-27 22:56:07.69	58.20	31.35	-46.4	-50.1	14.1	2.20e-06	0	43	0	409993216	63	5821
2026-01-27 22:56:08.68	58.48	31.47	-46.6	-50.5	13.6	9.90e-06	0	43	0	412090368	63	6125
2026-01-27 22:56:09.67	58.76	31.59	-46.3	-50.0	14.0	2.20e-06	0	43	0	413138944	63	5783
2026-01-27 22:56:10.67	59.05	31.71	-46.1	-49.6	14.6	0.00e+00	0	43	0	415236096	63	5468
2026-01-27 22:56:11.66	59.34	31.83	-46.4	-50.1	14.1	0.00e+00	0	43	0	417333248	63	5817
2026-01-27 22:56:12.65	59.63	31.95	-46.4	-50.1	14.1	4.50e-06	0	43	0	419430400	63	5827
2026-01-27 22:56:13.65	59.92	32.07	-46.5	-50.4	13.7	7.60e-06	0	43	0	421527552	64	5696
2026-01-27 22:56:14.64	60.22	32.19	-46.7	-50.7	13.5	2.13e-05	0	43	0	422576128	64	5866
2026-01-27 22:56:15.63	60.52	32.30	-47.0	-51.2	12.8	1.67e-05	0	43	0	424673280	64	6254
2026-01-27 22:56:16.63	60.82	32.42	-46.9	-51.0	13.0	4.50e-05	0	43	0	426770432	64	6116
2026-01-27 22:56:17.62	61.12	32.54	-46.3	-50.1	13.9	1.14e-05	0	43	0	428867584	64	5480
2026-01-27 22:56:18.61	61.42	32.66	-46.2	-49.9	14.2	7.00e-07	0	43	0	429916160	64	5366
2026-01-27 22:56:19.60	61.73	32.77	-46.4	-50.2	13.9	3.80e-06	0	43	0	432013312	64	5544
2026-01-27 22:56:20.60	62.04	32.89	-46.4	-50.2	13.9	0.00e+00	0	43	0	434110464	64	5542
2026-01-27 22:56:21.59	62.35	33.00	-46.7	-50.8	13.3	1.06e-05	0	43	0	436207616	64	5926
2026-01-27 22:56:22.58	62.66	33.12	-46.8	-50.9	13.2	4.19e-05	0	43	0	437256192	64	6053
2026-01-27 22:56:23.58	62.97	33.23	-47.3	-51.7	12.4	2.67e-05	0	43	0	439353344	65	6255
2026-01-27 22:56:24.57	63.29	33.35	-47.0	-51.3	12.8	7.93e-05	0	43	0	441450496	65	5950
2026-01-27 22:56:25.56	63.61	33.46	-47.2	-51.5	12.5	1.88e-04	0	43	0	443547648	65	6106
2026-01-27 22:56:26.55	63.93	33.57	-47.3	-51.7	12.4	2.25e-04	0	43	0	445644800	65	6230
2026-01-27 22:56:27.54	64.25	33.69	-47.1	-51.4	12.6	9.53e-05	0	43	0	446693376	65	6061
2026-01-27 22:56:28.54	64.58	33.80	-46.7	-50.7	13.4	1.14e-05	0	43	0	448790528	65	5565
2026-01-27 22:56:29.53	64.91	33.91	-46.7	-50.7	13.4	1.22e-05	0	43	0	450887680	64	5885
2026-01-27 22:56:30.52	65.24	34.02	-46.4	-50.3	13.8	7.60e-06	0	43	0	452984832	64	5604
2026-01-27 22:56:31.52	65.57	34.13	-46.4	-50.2	13.9	0.00e+00	0	43	0	454033408	64	5550
2026-01-27 22:56:32.51	65.90	34.24	-46.5	-50.3	13.7	6.80e-06	0	43	0	456130560	64	5636
2026-01-27 22:56:33.50	66.24	34.35	-46.9	-51.0	13.0	1.90e-05	0	43	0	458227712	64	6113
2026-01-27 22:56:34.49	66.58	34.46	-47.4	-51.9	12.1	6.33e-05	0	43	0	460324864	65	6419
2026-01-27 22:56:35.49	66.92	34.56	-47.3	-51.9	12.3	3.10e-04	0	43	0	462422016	65	6368
2026-01-27 22:56:36.48	67.26	34.67	-47.4	-52.0	11.8	3.62e-04	0	43	0	463470592	65	6474
2026-01-27 22:56:37.47	67.61	34.77	-47.1	-51.4	12.7	1.59e-04	0	43	0	465567744	65	5993
2026-01-27 22:56:38.47	67.96	34.88	-46.3	-49.9	14.2	1.29e-05	0	43	0	467664896	64	5363
2026-01-27 22:56:39.46	68.31	34.98	-45.5	-48.6	15.6	0.00e+00	0	43	0	469762048	62	5203
2026-01-27 22:56:40.45	68.66	35.09	-45.0	-47.9	16.3	0.00e+00	0	43	0	470810624	62	4780
2026-01-27 22:56:41.44	69.01	35.19	-45.3	-48.4	15.8	0.00e+00	0	43	0	472907776	61	5354
2026-01-27 22:56:42.44	69.37	35.29	-45.8	-49.2	15.0	0.00e+00	0	43	0	475004928	62	5541
2026-01-27 22:56:43.43	69.73	35.39	-46.5	-50.2	14.0	0.00e+00	0	43	0	477102080	63	5861
2026-01-27 22:56:44.42	70.09	35.49	-46.6	-50.4	13.7	6.80e-06	0	43	0	478150656	64	5705
2026-01-27 22:56:45.42	70.46	35.59	-46.3	-50.0	14.1	4.50e-06	0	43	0	480247808	64	5434
2026-01-27 22:56:46.41	70.82	35.69	-45.6	-48.8	15.3	0.00e+00	0	43	0	482344960	63	5021
2026-01-27 22:56:47.40	71.19	35.78	-44.6	-47.5	16.6	0.00e+00	0	43	0	484442112	61	4818
2026-01-27 22:56:48.40	71.56	35.88	-44.2	-47.0	17.0	0.00e+00	0	43	0	486539264	60	4836
2026-01-27 22:56:49.39	71.93	35.98	-44.1	-46.8	17.3	0.00e+00	0	43	0	487587840	60	4737
2026-01-27 22:56:50.38	72.30	36.07	-43.9	-46.5	17.4	0.00e+00	0	43	0	489684992	59	4859
2026-01-27 22:56:51.38	72.68	36.16	-44.2	-46.8	17.2	0.00e+00	0	43	0	491782144	59	5035
2026-01-27 22:56:52.37	73.06	36.25	-44.2	-46.9	17.2	0.00e+00	0	43	0	493879296	59	5046
2026-01-27 22:56:53.36	73.44	36.34	-44.4	-47.1	16.9	0.00e+00	0	43	0	495976448	59	5201
2026-01-27 22:56:54.35	73.82	36.43	-44.4	-47.1	16.9	0.00e+00	0	43	0	497025024	59	5194
2026-01-27 22:56:55.34	74.20	36.52	-44.1	-46.7	17.3	0.00e+00	0	43	0	499122176	59	4959
2026-01-27 22:56:56.34	74.59	36.61	-43.7	-46.2	17.7	0.00e+00	0	43	0	501219328	59	4684
2026-01-27 22:56:57.33	74.98	36.69	-43.2	-45.5	18.4	0.00e+00	0	43	0	503316480	58	4595
2026-01-27 22:56:58.32	75.37	36.78	-42.8	-45.1	18.8	0.00e+00	0	43	0	504365056	57	4603
2026-01-27 22:56:59.32	75.77	36.86	-42.9	-45.2	18.7	0.00e+00	0	43	0	506462208	57	4697
2026-01-27 22:57:00.31	76.16	36.94	-43.4	-45.9	18.0	0.00e+00	0	43	0	508559360	57	5082
2026-01-27 22:57:01.30	76.56	37.02	-44.0	-46.6	17.4	0.00e+00	0	43	0	510656512	58	5205
2026-01-27 22:57:02.30	76.96	37.10	-44.3	-47.1	17.0	0.00e+00	0	43	0	512753664	59	5172
2026-01-27 22:57:03.29	77.36	37.18	-44.3	-47.0	17.1	0.00e+00	0	43	0	513802240	59	5123
2026-01-27 22:57:04.28	77.76	37.26	-44.3	-47.0	17.0	0.00e+00	0	43	0	515899392	59	5157
2026-01-27 22:57:05.28	78.16	37.33	-44.2	-46.9	17.2	0.00e+00	0	43	0	517996544	59	5059
2026-01-27 22:57:06.27	78.57	37.41	-44.5	-47.4	16.7	0.00e+00	0	43	0	520093696	59	5351
2026-01-27 22:57:07.26	78.98	37.48	-44.7	-47.7	16.4	0.00e+00	0	43	0	521142272	60	5262
2026-01-27 22:57:08.26	79.39	37.55	-44.8	-47.8	16.2	0.00e+00	0	43	0	523239424	60	5321
2026-01-27 22:57:09.25	79.80	37.62	-44.0	-46.7	17.4	0.00e+00	0	43	0	525336576	60	4654
2026-01-27 22:57:10.24	80.21	37.69	-43.5	-46.0	18.0	0.00e+00	0	43	0	527433728	58	4837
2026-01-27 22:57:11.23	80.62	37.75	-43.3	-45.8	18.1	0.00e+00	0	43	0	529530880	58	4735
2026-01-27 22:57:12.23	81.04	37.82	-43.5	-46.0	17.9	0.00e+00	0	43	0	530579456	58	4864
2026-01-27 22:57:13.22	81.46	37.88	-43.8	-46.4	17.5	0.00e+00	0	43	0	532676608	58	5097
2026-01-27 22:57:14.21	81.88	37.94	-44.1	-46.9	17.1	0.00e+00	0	43	0	534773760	58	5369
2026-01-27 22:57:15.21	82.30	38.01	-44.6	-47.6	16.5	0.00e+00	0	43	0	536870912	60	5208
2026-01-27 22:57:16.20	82.73	38.06	-44.8	-47.9	16.2	0.00e+00	0	43	0	537919488	60	5363
2026-01-27 22:57:17.19	83.15	38.12	-44.8	-48.0	16.2	0.00e+00	0	43	0	540016640	60	5421
2026-01-27 22:57:18.19	83.58	38.18	-45.0	-48.2	16.0	0.00e+00	0	43	0	542113792	60	5576
2026-01-27 22:57:19.18	84.00	38.23	-45.0	-48.3	15.8	0.00e+00	0	43	0	544210944	61	5320
2026-01-27 22:57:20.17	84.43	38.28	-44.7	-47.8	16.3	0.00e+00	0	43	0	545259520	61	5016
2026-01-27 22:57:21.16	84.86	38.33	-44.3	-47.1	17.0	0.00e+00	0	43	0	547356672	60	4920
2026-01-27 22:57:22.16	85.29	38.38	-43.7	-46.3	17.6	0.00e+00	0	43	0	549453824	59	4738
2026-01-27 22:57:23.15	85.73	38.43	-43.6	-46.3	17.7	0.00e+00	0	43	0	551550976	58	4987
2026-01-27 22:57:24.14	86.16	38.47	-43.7	-46.4	17.6	0.00e+00	0	43	0	553648128	58	5063
2026-01-27 22:57:25.14	86.60	38.52	-43.7	-46.4	17.5	0.00e+00	0	43	0	554696704	58	5078
2026-01-27 22:57:26.13	87.03	38.56	-44.0	-46.7	17.2	0.00e+00	0	43	0	556793856	58	5279
2026-01-27 22:57:27.12	87.47	38.60	-44.1	-47.0	17.0	0.00e+00	0	43	0	558891008	59	5116
2026-01-27 22:57:28.11	87.90	38.64	-44.7	-47.7	16.4	0.00e+00	0	43	0	560988160	59	5587
2026-01-27 22:57:29.11	88.35	38.67	-45.0	-48.3	15.8	0.00e+00	0	43	0	562036736	60	5655
2026-01-27 22:57:30.10	88.79	38.71	-45.3	-48.7	15.4	0.00e+00	0	43	0	564133888	61	5581
2026-01-27 22:57:31.09	89.23	38.74	-44.9	-48.0	16.1	7.00e-07	0	43	0	566231040	61	5129
2026-01-27 22:57:32.09	89.67	38.77	-44.5	-47.4	16.6	0.00e+00	0	43	0	568328192	61	4807
2026-01-27 22:57:33.08	90.11	38.80	-44.3	-47.1	17.0	0.00e+00	0	43	0	569376768	60	4906
2026-01-27 22:57:34.07	90.55	38.83	-44.4	-47.2	16.9	0.00e+00	0	43	0	571473920	60	4946
2026-01-27 22:57:35.06	91.00	38.85	-44.5	-47.3	16.8	0.00e+00	0	43	0	573571072	60	5031
2026-01-27 22:57:36.06	91.45	38.87	-44.3	-47.1	16.9	0.00e+00	0	43	0	575668224	60	4900
2026-01-27 22:57:37.05	91.89	38.89	-44.3	-47.1	17.0	0.00e+00	0	43	0	577765376	59	5166
2026-01-27 22:57:38.04	92.33	38.91	-45.2	-48.3	15.9	0.00e+00	0	43	0	578813952	60	5648
2026-01-27 22:57:39.03	92.78	38.93	-46.4	-50.3	13.9	0.00e+00	0	43	0	580911104	63	5924
2026-01-27 22:57:40.03	93.23	38.95	-46.9	-51.3	12.8	2.36e-05	0	43	0	583008256	64	6337
2026-01-27 22:57:41.02	93.68	38.96	-46.3	-50.2	13.8	5.18e-05	0	44	0	585105408	64	5565
2026-01-27 22:57:42.01	94.12	38.97	-45.3	-48.5	15.7	0.00e+00	0	43	0	586153984	62	5103
2026-01-27 22:57:43.01	94.57	38.98	-44.8	-47.8	16.3	0.00e+00	0	43	0	588251136	61	5016
2026-01-27 22:57:44.00	95.02	38.99	-44.3	-47.0	17.0	0.00e+00	0	43	0	590348288	60	4852
2026-01-27 22:57:44.99	95.47	39.00	-44.1	-46.8	17.3	0.00e+00	0	43	0	592445440	60	4718
2026-01-27 22:57:45.98	95.92	39.00	-43.7	-46.2	17.7	0.00e+00	0	43	0	594542592	59	4702
2026-01-27 22:57:46.97	96.36	39.00	-43.3	-45.8	18.2	0.00e+00	0	43	0	595591168	58	4717
2026-01-27 22:57:47.97	96.82	39.00	-43.1	-45.4	18.5	0.00e+00	0	43	0	597688320	58	4544
2026-01-27 22:57:48.96	97.26	39.00	-43.3	-45.8	18.2	0.00e+00	0	43	0	599785472	57	4984
2026-01-27 22:57:49.95	97.71	39.00	-43.8	-46.4	17.6	0.00e+00	0	43	0	601882624	58	5050
2026-01-27 22:57:50.94	98.16	38.99	-43.9	-46.5	17.5	0.00e+00	0	43	0	602931200	58	5102
2026-01-27 22:57:51.94	98.61	38.98	-43.8	-46.3	17.7	0.00e+00	0	43	0	605028352	58	5039
2026-01-27 22:57:52.93	99.06	38.97	-43.8	-46.4	17.6	0.00e+00	0	43	0	607125504	58	5057
2026-01-27 22:57:53.92	99.50	38.96	-43.9	-46.5	17.5	0.00e+00	0	43	0	609222656	58	5132
2026-01-27 22:57:54.92	99.95	38.95	-44.5	-47.3	16.8	0.00e+00	0	43	0	611319808	59	5293
2026-01-27 22:57:55.91	100.40	38.93	-44.7	-47.5	16.6	0.00e+00	0	43	0	612368384	60	5153
2026-01-27 22:57:56.90	100.85	38.92	-44.3	-47.0	17.0	0.00e+00	0	43	0	614465536	60	4861
2026-01-27 22:57:57.90	101.30	38.90	-43.9	-46.6	17.4	0.00e+00	0	43	0	616562688	59	4877
2026-01-27 22:57:58.89	101.74	38.88	-43.5	-46.0	18.0	0.00e+00	0	43	0	618659840	59	4577
2026-01-27 22:57:59.88	102.18	38.85	-43.5	-46.0	18.0	0.00e+00	0	43	0	619708416	58	4831
2026-01-27 22:58:00.87	102.63	38.83	-43.2	-45.6	18.3	0.00e+00	0	43	0	621805568	58	4636
2026-01-27 22:58:01.87	103.07	38.80	-43.7	-46.3	17.7	0.00e+00	0	43	0	623902720	58	5025
2026-01-27 22:58:02.86	103.52	38.77	-44.3	-47.0	16.9	0.00e+00	0	43	0	625999872	59	5154
2026-01-27 22:58:03.85	103.96	38.74	-44.6	-47.5	16.6	0.00e+00	0	43	0	628097024	59	5409
2026-01-27 22:58:04.85	104.40	38.71	-44.6	-47.5	16.6	0.00e+00	0	43	0	629145600	60	5107
2026-01-27 22:58:05.84	104.84	38.68	-44.1	-46.8	17.2	0.00e+00	0	43	0	631242752	60	4752
2026-01-27 22:58:06.83	105.28	38.64	-44.1	-46.7	17.3	0.00e+00	0	43	0	633339904	59	4959
2026-01-27 22:58:07.82	105.72	38.60	-43.5	-46.1	17.9	0.00e+00	0	43	0	635437056	59	4605
2026-01-27 22:58:08.82	106.16	38.56	-43.4	-45.9	18.1	0.00e+00	0	43	0	636485632	58	4774
2026-01-27 22:58:09.81	106.59	38.52	-43.3	-45.8	18.2	0.00e+00	0	43	0	638582784	58	4711
2026-01-27 22:58:10.80	107.03	38.48	-43.2	-45.6	18.3	0.00e+00	0	43	0	640679936	58	4632
2026-01-27 22:58:11.80	107.47	38.43	-43.4	-45.9	18.1	0.00e+00	0	43	0	642777088	58	4784
2026-01-27 22:58:12.79	107.90	38.39	-43.8	-46.3	17.7	0.00e+00	0	43	0	644874240	58	5021
2026-01-27 22:58:13.78	108.33	38.34	-44.2	-46.9	17.1	0.00e+00	0	43	0	645922816	59	5055
2026-01-27 22:58:14.77	108.76	38.29	-44.7	-47.7	16.4	0.00e+00	0	43	0	648019968	60	5235
2026-01-27 22:58:15.77	109.19	38.24	-44.1	-46.8	17.3	0.00e+00	0	43	0	650117120	60	4737
2026-01-27 22:58:16.76	109.62	38.18	-43.2	-45.6	18.3	0.00e+00	0	43	0	652214272	58	4641
2026-01-27 22:58:17.75	110.04	38.13	-42.9	-45.3	18.6	0.00e+00	0	43	0	653262848	57	4707
2026-01-27 22:58:18.75	110.47	38.07	-43.3	-45.7	18.2	0.00e+00	0	43	0	655360000	57	4970
2026-01-27 22:58:19.74	110.90	38.01	-44.0	-46.6	17.4	0.00e+00	0	43	0	657457152	58	5180
2026-01-27 22:58:20.73	111.32	37.95	-43.6	-46.1	17.9	0.00e+00	0	43	0	659554304	58	4907
2026-01-27 22:58:21.72	111.74	37.89	-42.9	-45.3	18.6	0.00e+00	0	43	0	660602880	57	4714
2026-01-27 22:58:22.72	112.16	37.83	-42.6	-44.9	19.0	0.00e+00	0	43	0	662700032	57	4521
2026-01-27 22:58:23.71	112.57	37.76	-43.2	-45.6	18.3	0.00e+00	0	43	0	664797184	57	4888
2026-01-27 22:58:24.70	112.99	37.70	-44.2	-46.9	17.2	0.00e+00	0	43	0	666894336	58	5351
2026-01-27 22:58:25.70	113.41	37.63	-44.8	-47.7	16.5	0.00e+00	0	43	0	668991488	60	5254
2026-01-27 22:58:26.69	113.82	37.56	-44.8	-47.8	16.4	0.00e+00	0	43	0	670040064	60	5318
2026-01-27 22:58:27.68	114.23	37.49	-44.1	-46.9	17.2	0.00e+00	0	43	0	672137216	60	4770
2026-01-27 22:58:28.67	114.64	37.42	-43.5	-46.1	17.9	0.00e+00	0	43	0	674234368	59	4621
2026-01-27 22:58:29.67	115.05	37.34	-43.5	-46.1	17.9	0.00e+00	0	43	0	676331520	58	4894
2026-01-27 22:58:30.66	115.45	37.27	-43.7	-46.3	17.7	0.00e+00	0	43	0	677380096	58	5003
2026-01-27 22:58:31.65	115.85	37.19	-43.1	-45.6	18.3	0.00e+00	0	43	0	679477248	58	4602
2026-01-27 22:58:32.65	116.26	37.11	-42.5	-44.8	19.1	0.00e+00	0	43	0	681574400	57	4462
2026-01-27 22:58:33.64	116.66	37.03	-41.1	-43.2	20.3	0.00e+00	0	43	0	683671552	54	4399
2026-01-27 22:58:34.63	117.05	36.95	-41.1	-43.1	20.3	0.00e+00	0	43	0	685768704	53	4647
2026-01-27 22:58:35.62	117.45	36.87	-42.1	-44.3	19.4	0.00e+00	0	43	0	686817280	54	5002
2026-01-27 22:58:36.62	117.84	36.79	-43.5	-45.9	18.0	0.00e+00	0	43	0	688914432	57	5098
2026-01-27 22:58:37.61	118.23	36.70	-44.1	-46.8	17.2	0.00e+00	0	43	0	691011584	58	5322
2026-01-27 22:58:38.60	118.62	36.62	-43.7	-46.2	17.7	0.00e+00	0	43	0	693108736	58	4981
2026-01-27 22:58:39.60	119.01	36.53	-42.9	-45.2	18.6	0.00e+00	0	43	0	694157312	57	4698
2026-01-27 22:58:40.59	119.40	36.44	-42.6	-44.9	19.0	0.00e+00	0	43	0	696254464	57	4519
2026-01-27 22:58:41.58	119.78	36.35	-42.6	-44.9	18.9	0.00e+00	0	43	0	698351616	56	4789
2026-01-27 22:58:42.57	120.16	36.26	-42.0	-44.1	19.6	0.00e+00	0	43	0	700448768	56	4384
2026-01-27 22:58:43.57	120.54	36.17	-40.8	-42.8	20.5	0.00e+00	0	43	0	702545920	53	4489
2026-01-27 22:58:44.56	120.92	36.08	-40.5	-42.4	20.9	0.00e+00	0	43	0	703594496	52	4542
2026-01-27 22:58:45.55	121.30	35.98	-40.5	-42.5	20.9	0.00e+00	0	43	0	705691648	52	4563
2026-01-27 22:58:46.55	121.67	35.89	-41.3	-43.3	20.2	0.00e+00	0	43	0	707788800	53	4758
2026-01-27 22:58:47.54	122.04	35.79	-42.2	-44.4	19.3	0.00e+00	0	43	0	709885952	54	5093
2026-01-27 22:58:48.53	122.41	35.70	-43.0	-45.4	18.5	0.00e+00	0	43	0	710934528	56	5075
2026-01-27 22:58:49.53	122.78	35.60	-43.0	-45.4	18.4	0.00e+00	0	43	0	713031680	57	4809
2026-01-27 22:58:50.52	123.14	35.50	-42.8	-45.2	18.6	0.00e+00	0	43	0	715128832	57	4684
2026-01-27 22:58:51.51	123.50	35.40	-43.2	-45.7	18.3	0.00e+00	0	43	0	717225984	57	4931
2026-01-27 22:58:52.51	123.87	35.30	-43.6	-46.2	17.8	0.00e+00	0	44	0	719323136	57	5240
2026-01-27 22:58:53.50	124.22	35.20	-44.4	-47.2	16.9	0.00e+00	0	43	0	720371712	59	5222
2026-01-27 22:58:54.49	124.58	35.09	-44.7	-47.6	16.4	0.00e+00	0	43	0	722468864	60	5214
2026-01-27 22:58:55.48	124.93	34.99	-44.1	-46.8	17.2	0.00e+00	0	43	0	724566016	60	4758
2026-01-27 22:58:56.48	125.29	34.89	-43.4	-45.9	18.0	0.00e+00	0	43	0	726663168	58	4771
2026-01-27 22:58:57.47	125.63	34.78	-43.3	-45.7	18.2	0.00e+00	0	43	0	727711744	58	4696
2026-01-27 22:58:58.46	125.98	34.67	-44.2	-46.8	17.2	0.00e+00	0	43	0	729808896	58	5317
2026-01-27 22:58:59.46	126.33	34.57	-44.9	-47.8	16.3	0.00e+00	0	43	0	731906048	60	5335
2026-01-27 22:59:00.45	126.67	34.46	-45.7	-49.0	15.0	0.00e+00	0	43	0	734003200	62	5430
2026-01-27 22:59:01.44	127.01	34.35	-45.8	-49.1	15.0	0.00e+00	0	44	0	736100352	62	5527
2026-01-27 22:59:02.43	127.35	34.24	-45.6	-48.8	15.3	0.00e+00	0	43	0	737148928	62	5311
2026-01-27 22:59:03.43	127.68	34.13	-45.9	-49.3	14.8	0.00e+00	0	43	0	739246080	62	5626
2026-01-27 22:59:04.42	128.02	34.02	-46.2	-49.9	14.2	0.00e+00	0	43	0	741343232	63	5675
2026-01-27 22:59:05.41	128.35	33.91	-46.8	-50.8	13.2	3.80e-06	0	43	0	743440384	64	5976
2026-01-27 22:59:06.40	128.67	33.80	-47.2	-51.7	12.4	1.94e-04	0	43	0	744488960	65	6221
2026-01-27 22:59:07.40	129.00	33.69	-47.0	-51.3	12.7	1.54e-04	0	43	0	746586112	65	5992
2026-01-27 22:59:08.39	129.33	33.57	-45.9	-49.5	14.6	1.60e-05	0	43	0	748683264	63	5405
2026-01-27 22:59:09.38	129.65	33.46	-45.4	-48.5	15.5	0.00e+00	0	43	0	750780416	62	5155
2026-01-27 22:59:10.37	129.97	33.35	-45.3	-48.4	15.7	0.00e+00	0	43	0	751828992	62	5070
2026-01-27 22:59:11.37	130.29	33.23	-45.4	-48.5	15.6	0.00e+00	0	43	0	753926144	62	5119
2026-01-27 22:59:12.36	130.60	33.12	-46.1	-49.5	14.7	0.00e+00	0	43	0	756023296	62	5780
2026-01-27 22:59:13.35	130.92	33.00	-46.4	-50.1	14.0	7.00e-07	0	43	0	758120448	63	5841
2026-01-27 22:59:14.35	131.23	32.88	-46.6	-50.6	13.4	1.14e-05	0	43	0	760217600	64	5825
2026-01-27 22:59:15.34	131.54	32.77	-46.4	-50.2	13.8	1.06e-05	0	43	0	761266176	64	5542
2026-01-27 22:59:16.33	131.85	32.65	-46.8	-51.0	13.0	2.05e-05	0	43	0	763363328	64	6102
2026-01-27 22:59:17.33	132.15	32.53	-47.7	-53.0	11.1	9.38e-04	0	43	0	765460480	65	7233
2026-01-27 22:59:18.32	132.46	32.41	-48.2	-54.6	9.4	6.29e-03	0	43	0	767557632	66	8229
2026-01-27 22:59:19.31	132.76	32.30	-48.2	-55.0	8.7	2.96e-02	0	43	0	768606208	67	8134
2026-01-27 22:59:20.30	133.05	32.18	-47.0	-51.9	12.0	3.38e-03	0	43	0	770703360	66	6032
2026-01-27 22:59:21.30	133.35	32.06	-45.7	-49.3	14.8	1.44e-05	0	43	0	772800512	63	5331
2026-01-27 22:59:22.29	133.65	31.94	-45.1	-48.3	15.8	0.00e+00	0	43	0	774897664	62	4990
2026-01-27 22:59:23.28	133.94	31.82	-45.0	-48.1	15.9	0.00e+00	0	43	0	776994816	62	4926
2026-01-27 22:59:24.27	134.23	31.70	-45.6	-49.0	15.1	0.00e+00	0	43	0	778043392	62	5429
2026-01-27 22:59:25.27	134.52	31.58	-46.6	-50.7	13.4	7.00e-07	0	43	0	780140544	64	5858
2026-01-27 22:59:26.26	134.80	31.46	-46.6	-50.6	13.4	3.05e-05	0	43	0	782237696	64	5790
2026-01-27 22:59:27.25	135.08	31.34	-46.0	-49.5	14.6	3.80e-06	0	43	0	784334848	63	5432
2026-01-27 22:59:28.25	135.37	31.22	-45.6	-48.9	15.2	0.00e+00	0	43	0	785383424	63	5071
2026-01-27 22:59:29.24	135.65	31.09	-45.3	-48.5	15.6	0.00e+00	0	43	0	787480576	62	5109
2026-01-27 22:59:30.23	135.92	30.97	-45.6	-48.9	15.2	0.00e+00	0	43	0	789577728	62	5402
2026-01-27 22:59:31.22	136.20	30.85	-46.2	-49.9	14.2	7.00e-07	0	43	0	791674880	63	5671
2026-01-27 22:59:32.22	136.47	30.73	-46.6	-50.7	13.4	5.30e-06	0	43	0	793772032	63	6206
2026-01-27 22:59:33.21	136.74	30.61	-46.6	-50.8	13.3	2.21e-05	0	43	0	794820608	64	5925
2026-01-27 22:59:34.20	137.01	30.49	-45.4	-48.6	15.4	1.50e-06	0	43	0	796917760	62	5197
2026-01-27 22:59:35.20	137.28	30.36	-43.8	-46.4	17.5	0.00e+00	0	43	0	799014912	59	4785
2026-01-27 22:59:36.19	137.55	30.24	-43.0	-45.4	18.5	0.00e+00	0	43	0	801112064	58	4495
2026-01-27 22:59:37.18	137.81	30.12	-43.1	-45.4	18.4	0.00e+00	0	43	0	802160640	57	4804
2026-01-27 22:59:38.17	138.07	29.99	-44.2	-46.4	17.7	0.00e+00	0	43	0	804257792	58	5077
2026-01-27 22:59:39.17	138.33	29.87	-44.6	-47.4	16.5	0.00e+00	0	43	0	806354944	59	5382
2026-01-27 22:59:40.16	138.59	29.75	-45.4	-48.7	15.3	0.00e+00	0	43	0	808452096	61	5544
2026-01-27 22:59:41.15	138.84	29.62	-45.4	-48.6	15.4	0.00e+00	0	44	0	810549248	62	5202
2026-01-27 22:59:42.15	139.10	29.50	-44.4	-47.2	16.7	0.00e+00	0	43	0	811597824	60	4978
2026-01-27 22:59:43.14	139.35	29.38	-43.7	-46.3	17.6	0.00e+00	0	43	0	813694976	59	4708
2026-01-27 22:59:44.13	139.60	29.25	-43.5	-46.1	17.8	0.00e+00	0	43	0	815792128	59	4603
2026-01-27 22:59:45.13	139.85	29.13	-43.7	-46.2	17.6	0.00e+00	0	43	0	817889280	58	4969
2026-01-27 22:59:46.12	140.10	29.01	-44.1	-46.8	17.1	0.00e+00	0	43	0	818937856	58	5335
2026-01-27 22:59:47.11	140.34	28.88	-44.9	-48.0	16.1	0.00e+00	0	43	0	821035008	60	5417
2026-01-27 22:59:48.10	140.58	28.76	-44.6	-47.6	16.5	0.00e+00	0	43	0	823132160	60	5164
2026-01-27 22:59:49.10	140.83	28.64	-44.1	-46.8	17.1	0.00e+00	0	43	0	825229312	60	4724
2026-01-27 22:59:50.09	141.06	28.51	-43.1	-45.5	18.3	0.00e+00	0	43	0	827326464	58	4579
2026-01-27 22:59:51.08	141.30	28.39	-42.4	-44.7	19.1	0.00e+00	0	43	0	828375040	56	4657
2026-01-27 22:59:52.08	141.54	28.27	-42.2	-44.4	19.3	0.00e+00	0	43	0	830472192	56	4527
2026-01-27 22:59:53.07	141.77	28.14	-42.0	-44.2	19.3	0.00e+00	0	43	0	832569344	55	4665
2026-01-27 22:59:54.06	142.00	28.02	-42.1	-44.4	19.2	0.00e+00	0	43	0	834666496	55	4776
2026-01-27 22:59:55.06	142.23	27.90	-42.4	-44.8	18.8	0.00e+00	0	43	0	835715072	55	4984
2026-01-27 22:59:56.05	142.46	27.77	-43.3	-45.8	18.0	0.00e+00	0	43	0	837812224	57	5018
2026-01-27 22:59:57.04	142.69	27.65	-43.5	-46.2	17.7	0.00e+00	0	43	0	839909376	57	5219
2026-01-27 22:59:58.03	142.91	27.53	-43.0	-45.5	18.3	0.00e+00	0	43	0	842006528	57	4847
2026-01-27 22:59:59.03	143.14	27.40	-42.2	-44.5	19.2	0.00e+00	0	43	0	843055104	56	4581
2026-01-27 23:00:00.02	143.36	27.28	-41.2	-43.3	20.1	0.00e+00	0	43	0	845152256	54	4472
2026-01-27 23:00:01.01	143.58	27.16	-40.8	-42.8	20.4	0.00e+00	0	43	0	847249408	53	4490
2026-01-27 23:00:02.00	143.80	27.04	-40.8	-42.8	20.5	0.00e+00	0	43	0	849346560	53	4473
2026-01-27 23:00:03.00	144.01	26.91	-41.1	-43.3	20.1	0.00e+00	0	43	0	851443712	53	4717
2026-01-27 23:00:03.99	144.23	26.79	-41.9	-44.2	19.3	0.00e+00	0	43	0	852492288	54	4936
2026-01-27 23:00:04.98	144.44	26.67	-42.5	-45.0	18.6	0.00e+00	0	43	0	854589440	55	5115
2026-01-27 23:00:05.98	144.65	26.54	-42.9	-45.4	18.4	0.00e+00	0	43	0	856686592	56	5056
2026-01-27 23:00:06.97	144.86	26.42	-42.6	-45.0	18.7	0.00e+00	0	43	0	858783744	56	4846
2026-01-27 23:00:07.96	145.07	26.30	-42.0	-44.3	19.4	0.00e+00	0	43	0	859832320	56	4452
2026-01-27 23:00:08.95	145.28	26.18	-41.3	-43.5	19.9	0.00e+00	0	43	0	861929472	54	4575
2026-01-27 23:00:09.95	145.49	26.06	-41.1	-43.3	20.1	0.00e+00	0	43	0	864026624	54	4450
2026-01-27 23:00:10.94	145.69	25.94	-41.0	-43.1	20.3	0.00e+00	0	43	0	866123776	53	4615
2026-01-27 23:00:11.93	145.89	25.82	-41.1	-43.2	20.1	0.00e+00	0	43	0	868220928	53	4704
2026-01-27 23:00:12.93	146.09	25.69	-41.7	-43.9	19.5	0.00e+00	0	43	0	869269504	53	5066
2026-01-27 23:00:13.92	146.29	25.57	-42.0	-44.3	19.1	0.00e+00	0	43	0	871366656	54	5033
2026-01-27 23:00:14.91	146.49	25.45	-42.2	-44.5	19.0	0.00e+00	0	43	0	873463808	55	4854
2026-01-27 23:00:15.90	146.69	25.33	-42.2	-44.6	18.9	0.00e+00	0	43	0	875560960	55	4884
2026-01-27 23:00:16.89	146.88	25.21	-42.1	-44.3	19.1	0.00e+00	0	43	0	876609536	55	4758
2026-01-27 23:00:17.89	147.08	25.09	-41.6	-43.8	19.7	0.00e+00	0	43	0	878706688	55	4446
2026-01-27 23:00:18.88	147.27	24.97	-41.5	-43.6	19.8	0.00e+00	0	43	0	880803840	54	4641
2026-01-27 23:00:19.87	147.46	24.85	-41.2	-43.3	20.0	0.00e+00	0	43	0	882900992	54	4461
2026-01-27 23:00:20.87	147.65	24.73	-40.6	-42.7	20.5	0.00e+00	0	43	0	884998144	53	4413
2026-01-27 23:00:21.86	147.84	24.61	-40.9	-43.0	20.3	0.00e+00	0	43	0	886046720	53	4550
2026-01-27 23:00:22.85	148.02	24.50	-41.0	-43.1	20.3	0.00e+00	0	43	0	888143872	53	4609
2026-01-27 23:00:23.84	148.21	24.38	-41.1	-43.2	20.1	0.00e+00	0	43	0	890241024	53	4704
2026-01-27 23:00:24.84	148.39	24.26	-41.3	-43.5	19.9	0.00e+00	0	43	0	892338176	53	4826
2026-01-27 23:00:25.83	148.58	24.14	-41.5	-43.7	19.7	0.00e+00	0	43	0	893386752	53	4971
2026-01-27 23:00:26.82	148.76	24.02	-41.4	-43.7	19.7	0.00e+00	0	44	0	895483904	53	4937
2026-01-27 23:00:27.82	148.94	23.90	-41.4	-43.7	19.7	0.00e+00	0	43	0	897581056	53	4937
2026-01-27 23:00:28.81	149.12	23.79	-41.5	-43.7	19.6	0.00e+00	0	43	0	899678208	53	4942
2026-01-27 23:00:29.80	149.29	23.67	-41.6	-43.8	19.6	0.00e+00	0	43	0	901775360	53	5002
2026-01-27 23:00:30.80	149.47	23.55	-41.8	-44.0	19.4	0.00e+00	0	43	0	902823936	54	4856
2026-01-27 23:00:31.79	149.64	23.44	-41.9	-44.2	19.3	0.00e+00	0	43	0	904921088	54	4941
2026-01-27 23:00:32.78	149.82	23.32	-42.0	-44.3	19.2	0.00e+00	0	43	0	907018240	54	4997
2026-01-27 23:00:33.77	149.99	23.20	-42.0	-44.3	19.1	0.00e+00	0	43	0	909115392	54	5020
2026-01-27 23:00:34.77	150.16	23.09	-42.0	-44.2	19.2	0.00e+00	0	43	0	910163968	54	4981
2026-01-27 23:00:35.76	150.33	22.97	-42.0	-44.3	19.2	0.00e+00	0	43	0	912261120	54	4988
2026-01-27 23:00:36.75	150.50	22.86	-42.2	-44.5	19.0	0.00e+00	0	43	0	914358272	54	5158
2026-01-27 23:00:37.75	150.67	22.74	-41.7	-44.0	19.4	0.00e+00	0	43	0	916455424	55	4567
2026-01-27 23:00:38.74	150.83	22.63	-41.7	-44.0	19.4	0.00e+00	0	43	0	918552576	55	4557
2026-01-27 23:00:39.73	151.00	22.51	-41.8	-44.0	19.4	0.00e+00	0	43	0	919601152	55	4596
2026-01-27 23:00:40.73	151.16	22.40	-41.8	-44.1	19.3	0.00e+00	0	43	0	921698304	55	4626
2026-01-27 23:00:41.72	151.32	22.28	-42.2	-44.6	18.9	0.00e+00	0	43	0	923795456	55	4880
2026-01-27 23:00:42.71	151.49	22.17	-42.1	-44.4	19.0	0.00e+00	0	43	0	925892608	55	4796
2026-01-27 23:00:43.71	151.65	22.05	-42.1	-44.4	19.0	0.00e+00	0	43	0	926941184	55	4807
2026-01-27 23:00:44.70	151.81	21.94	-42.1	-44.4	19.0	0.00e+00	0	43	0	929038336	55	4782
2026-01-27 23:00:45.69	151.96	21.83	-42.1	-44.4	19.0	0.00e+00	0	43	0	931135488	55	4813
2026-01-27 23:00:46.68	152.12	21.72	-42.1	-44.4	19.0	0.00e+00	0	43	0	933232640	55	4791
2026-01-27 23:00:47.68	152.28	21.60	-42.1	-44.4	19.0	0.00e+00	0	43	0	934281216	55	4799
2026-01-27 23:00:48.67	152.43	21.49	-42.1	-44.4	19.0	0.00e+00	0	43	0	936378368	55	4776
2026-01-27 23:00:49.66	152.58	21.38	-42.2	-44.5	19.0	0.00e+00	0	43	0	938475520	55	4841
2026-01-27 23:00:50.66	152.74	21.27	-42.3	-44.7	18.8	0.00e+00	0	43	0	940572672	55	4928
2026-01-27 23:00:51.65	152.89	21.16	-42.6	-45.0	18.5	0.00e+00	0	43	0	942669824	55	5121
2026-01-27 23:00:52.64	153.04	21.05	-43.2	-45.7	18.0	0.00e+00	0	43	0	943718400	56	5241
2026-01-27 23:00:53.64	153.19	20.93	-43.2	-45.7	18.0	0.00e+00	0	43	0	945815552	57	4968
2026-01-27 23:00:54.63	153.34	20.82	-43.6	-46.2	17.5	0.00e+00	0	43	0	947912704	57	5264
2026-01-27 23:00:55.62	153.48	20.71	-43.8	-46.5	17.2	0.00e+00	0	43	0	950009856	58	5149
2026-01-27 23:00:56.62	153.63	20.60	-43.7	-46.4	17.3	0.00e+00	0	43	0	951058432	58	5096
2026-01-27 23:00:57.61	153.78	20.50	-43.9	-46.7	17.0	0.00e+00	0	43	0	953155584	58	5231
2026-01-27 23:00:58.60	153.92	20.39	-43.9	-46.6	17.1	0.00e+00	0	43	0	955252736	58	5205
2026-01-27 23:00:59.59	154.06	20.28	-43.7	-46.4	17.3	0.00e+00	0	43	0	957349888	58	5070
2026-01-27 23:01:00.59	154.21	20.17	-43.5	-46.2	17.5	0.00e+00	0	43	0	959447040	58	4939
2026-01-27 23:01:01.58	154.35	20.06	-43.2	-45.8	17.9	0.00e+00	0	44	0	960495616	58	4714
2026-01-27 23:01:02.57	154.49	19.95	-43.4	-46.0	17.7	0.00e+00	0	43	0	962592768	58	4816
2026-01-27 23:01:03.57	154.63	19.84	-43.4	-45.9	17.7	0.00e+00	0	43	0	964689920	58	4811
2026-01-27 23:01:04.56	154.77	19.74	-43.6	-46.2	17.5	0.00e+00	0	43	0	966787072	58	4931
2026-01-27 23:01:05.55	154.90	19.63	-43.5	-46.1	17.6	0.00e+00	0	43	0	967835648	58	4893
2026-01-27 23:01:06.55	155.04	19.52	-43.7	-46.4	17.2	0.00e+00	0	43	0	969932800	58	5046
2026-01-27 23:01:07.54	155.18	19.42	-43.8	-46.5	17.1	0.00e+00	0	43	0	972029952	58	5153
2026-01-27 23:01:08.53	155.31	19.31	-44.0	-46.8	16.9	0.00e+00	0	44	0	974127104	58	5308
2026-01-27 23:01:09.53	155.45	19.20	-43.8	-46.6	17.0	0.00e+00	0	43	0	976224256	58	5165
2026-01-27 23:01:10.52	155.58	19.10	-43.8	-46.6	17.0	0.00e+00	0	43	0	977272832	58	5193
2026-01-27 23:01:11.51	155.71	18.99	-43.6	-46.3	17.3	0.00e+00	0	43	0	979369984	58	4986
2026-01-27 23:01:12.50	155.84	18.89	-43.3	-45.9	17.7	0.00e+00	0	43	0	981467136	58	4778
2026-01-27 23:01:13.50	155.97	18.78	-43.5	-46.1	17.5	0.00e+00	0	43	0	983564288	58	4918
2026-01-27 23:01:14.49	156.10	18.68	-43.3	-45.9	17.7	0.00e+00	0	43	0	984612864	58	4789
2026-01-27 23:01:15.48	156.23	18.58	-43.1	-45.6	17.9	0.00e+00	0	43	0	986710016	57	4901
2026-01-27 23:01:16.48	156.36	18.47	-43.2	-45.8	17.8	0.00e+00	0	43	0	988807168	57	4991
2026-01-27 23:01:17.47	156.49	18.37	-43.1	-45.7	17.9	0.00e+00	0	43	0	990904320	57	4942
2026-01-27 23:01:18.46	156.61	18.27	-43.1	-45.7	17.8	0.00e+00	0	43	0	993001472	57	4978
2026-01-27 23:01:19.46	156.74	18.16	-43.3	-45.9	17.7	0.00e+00	0	43	0	994050048	57	5062
2026-01-27 23:01:20.45	156.86	18.06	-43.3	-46.0	17.7	0.00e+00	0	43	0	996147200	57	5116
2026-01-27 23:01:21.44	156.99	17.96	-43.3	-45.9	17.6	0.00e+00	0	43	0	998244352	57	5086
2026-01-27 23:01:22.43	157.11	17.86	-43.6	-46.4	17.2	0.00e+00	0	44	0	1000341504	58	5045
2026-01-27 23:01:23.43	157.23	17.75	-43.6	-46.3	17.3	0.00e+00	0	43	0	1001390080	58	5039
2026-01-27 23:01:24.42	157.35	17.65	-43.7	-46.4	17.2	0.00e+00	0	43	0	1003487232	58	5086
2026-01-27 23:01:25.41	157.47	17.55	-43.8	-46.6	17.0	0.00e+00	0	43	0	1005584384	58	5199
2026-01-27 23:01:26.41	157.59	17.45	-43.7	-46.4	17.2	0.00e+00	0	43	0	1007681536	58	5100
2026-01-27 23:01:27.40	157.71	17.35	-43.6	-46.3	17.3	0.00e+00	0	43	0	1009778688	58	5008
2026-01-27 23:01:28.39	157.83	17.25	-43.3	-45.9	17.7	0.00e+00	0	43	0	1010827264	58	4807
2026-01-27 23:01:29.39	157.95	17.15	-43.3	-45.9	17.6	0.00e+00	0	43	0	1012924416	58	4796
2026-01-27 23:01:30.38	158.06	17.05	-43.2	-45.8	17.8	0.00e+00	0	43	0	1015021568	58	4717
2026-01-27 23:01:31.37	158.18	16.95	-43.3	-45.9	17.7	0.00e+00	0	43	0	1017118720	58	4771
2026-01-27 23:01:32.36	158.29	16.85	-42.8	-45.3	18.2	0.00e+00	0	43	0	1018167296	57	4748
2026-01-27 23:01:33.36	158.41	16.75	-43.1	-45.6	17.9	0.00e+00	0	43	0	1020264448	57	4926
2026-01-27 23:01:34.35	158.52	16.66	-43.0	-45.6	17.9	0.00e+00	0	43	0	1022361600	57	4921
2026-01-27 23:01:35.34	158.64	16.56	-42.9	-45.5	18.0	0.00e+00	0	43	0	1024458752	57	4849
2026-01-27 23:01:36.34	158.75	16.46	-43.1	-45.7	17.8	0.00e+00	0	43	0	1026555904	57	4961
2026-01-27 23:01:37.33	158.86	16.36	-43.2	-45.8	17.7	0.00e+00	0	43	0	1027604480	57	5031
2026-01-27 23:01:38.32	158.97	16.26	-43.6	-46.4	17.2	0.00e+00	0	43	0	1029701632	57	5363
2026-01-27 23:01:39.31	159.08	16.17	-43.9	-46.7	16.9	0.00e+00	0	43	0	1031798784	58	5235
2026-01-27 23:01:40.31	159.19	16.07	-44.0	-46.8	16.8	0.00e+00	0	43	0	1033895936	58	5299
2026-01-27 23:01:41.30	159.30	15.97	-44.3	-47.2	16.5	0.00e+00	0	43	0	1034944512	59	5257
2026-01-27 23:01:42.29	159.41	15.88	-44.2	-47.1	16.5	0.00e+00	0	43	0	1037041664	59	5205
2026-01-27 23:01:43.29	159.52	15.78	-44.2	-47.1	16.5	0.00e+00	0	43	0	1039138816	59	5173
2026-01-27 23:01:44.28	159.62	15.69	-44.2	-47.2	16.4	0.00e+00	0	43	0	1041235968	59	5239
2026-01-27 23:01:45.27	159.73	15.59	-44.2	-47.1	16.5	0.00e+00	0	43	0	1042284544	59	5202
2026-01-27 23:01:46.26	159.83	15.50	-44.2	-47.1	16.5	0.00e+00	0	43	0	1044381696	59	5198
2026-01-27 23:01:47.26	159.94	15.40	-44.2	-47.2	16.4	0.00e+00	0	43	0	1046478848	59	5219
2026-01-27 23:01:48.25	160.04	15.31	-44.0	-46.8	16.8	0.00e+00	0	43	0	1048576000	59	5018
2026-01-27 23:01:49.24	160.15	15.21	-44.1	-46.9	16.6	0.00e+00	0	44	0	1050673152	59	5093
2026-01-27 23:01:50.24	160.25	15.12	-44.0	-46.8	16.7	0.00e+00	0	43	0	1051721728	59	5030
2026-01-27 23:01:51.23	160.35	15.03	-44.1	-47.0	16.5	0.00e+00	0	43	0	1053818880	59	5159
2026-01-27 23:01:52.22	160.45	14.93	-44.3	-47.3	16.3	0.00e+00	0	43	0	1055916032	59	5307
2026-01-27 23:01:53.21	160.55	14.84	-44.2	-47.1	16.4	0.00e+00	0	43	0	1058013184	59	5216
2026-01-27 23:01:54.21	160.66	14.75	-44.3	-47.3	16.3	0.00e+00	0	43	0	1059061760	59	5337
2026-01-27 23:01:55.20	160.76	14.65	-44.4	-47.5	16.1	0.00e+00	0	43	0	1061158912	59	5412
2026-01-27 23:01:56.19	160.85	14.56	-44.5	-47.6	16.0	0.00e+00	0	43	0	1063256064	59	5475
2026-01-27 23:01:57.19	160.95	14.47	-44.7	-47.9	15.8	0.00e+00	0	43	0	1065353216	59	5660
2026-01-27 23:01:58.18	161.05	14.38	-44.6	-47.9	15.8	0.00e+00	0	43	0	1067450368	60	5348
2026-01-27 23:01:59.17	161.15	14.29	-44.5	-47.6	16.0	0.00e+00	0	43	0	1068498944	60	5215
2026-01-27 23:02:00.16	161.25	14.20	-44.6	-47.8	15.8	0.00e+00	0	43	0	1070596096	60	5335
2026-01-27 23:02:01.16	161.34	14.11	-44.5	-47.7	15.9	0.00e+00	0	43	0	1072693248	60	5237
2026-01-27 23:02:02.15	161.44	14.01	-44.4	-47.5	16.1	0.00e+00	0	43	0	1074790400	60	5146
2026-01-27 23:02:03.14	161.53	13.92	-44.4	-47.6	16.0	0.00e+00	0	43	0	1075838976	60	5190
2026-01-27 23:02:04.14	161.63	13.83	-44.2	-47.2	16.4	0.00e+00	0	43	0	1077936128	60	4955
2026-01-27 23:02:05.13	161.72	13.74	-44.2	-47.1	16.5	0.00e+00	0	43	0	1080033280	60	4915
2026-01-27 23:02:06.12	161.82	13.66	-43.9	-46.7	16.7	0.00e+00	0	43	0	1082130432	59	4971
2026-01-27 23:02:07.11	161.91	13.57	-43.7	-46.5	17.0	0.00e+00	0	43	0	1084227584	59	4832
2026-01-27 23:02:08.11	162.00	13.48	-43.9	-46.7	16.8	0.00e+00	0	43	0	1085276160	59	4963
2026-01-27 23:02:09.10	162.10	13.39	-43.9	-46.7	16.9	0.00e+00	0	43	0	1087373312	59	4941
2026-01-27 23:02:10.09	162.19	13.30	-43.8	-46.6	16.9	0.00e+00	0	43	0	1089470464	59	4882
2026-01-27 23:02:11.09	162.28	13.21	-43.6	-46.4	17.1	0.00e+00	0	43	0	1091567616	59	4788
2026-01-27 23:02:12.08	162.37	13.12	-43.4	-46.1	17.2	0.00e+00	0	43	0	1092616192	58	4898
2026-01-27 23:02:13.07	162.46	13.04	-43.4	-46.0	17.3	0.00e+00	0	43	0	1094713344	58	4843
2026-01-27 23:02:14.07	162.55	12.95	-43.4	-46.0	17.5	0.00e+00	0	43	0	1096810496	58	4831
2026-01-27 23:02:15.06	162.64	12.86	-43.4	-46.0	17.5	0.00e+00	0	43	0	1098907648	58	4846
2026-01-27 23:02:16.05	162.73	12.77	-43.4	-46.0	17.4	0.00e+00	0	43	0	1101004800	58	4866
2026-01-27 23:02:17.04	162.81	12.69	-43.2	-45.7	17.7	0.00e+00	0	43	0	1102053376	58	4691
2026-01-27 23:02:18.04	162.90	12.60	-43.1	-45.6	17.8	0.00e+00	0	43	0	1104150528	58	4634
2026-01-27 23:02:19.03	162.99	12.51	-43.1	-45.6	17.8	0.00e+00	0	43	0	1106247680	58	4651
2026-01-27 23:02:20.02	163.07	12.43	-43.2	-45.8	17.7	0.00e+00	0	43	0	1108344832	58	4713
2026-01-27 23:02:21.02	163.16	12.34	-43.2	-45.8	17.6	0.00e+00	0	44	0	1109393408	58	4728
2026-01-27 23:02:22.01	163.25	12.26	-43.2	-45.9	17.5	0.00e+00	0	43	0	1111490560	58	4777
2026-01-27 23:02:23.00	163.33	12.17	-43.4	-46.1	17.3	0.00e+00	0	44	0	1113587712	58	4901
2026-01-27 23:02:23.99	163.41	12.09	-43.6	-46.5	17.0	0.00e+00	0	43	0	1115684864	58	5111
2026-01-27 23:02:24.99	163.50	12.00	-43.6	-46.4	17.0	0.00e+00	0	43	0	1117782016	58	5091
2026-01-27 23:02:25.98	163.58	11.92	-43.8	-46.7	16.8	0.00e+00	0	43	0	1118830592	58	5227
2026-01-27 23:02:26.97	163.67	11.83	-44.0	-47.0	16.5	0.00e+00	0	43	0	1120927744	58	5407
2026-01-27 23:02:27.97	163.75	11.75	-44.0	-47.0	16.5	0.00e+00	0	43	0	1123024896	58	5420
2026-01-27 23:02:28.96	163.83	11.67	-44.3	-47.3	16.2	0.00e+00	0	43	0	1125122048	59	5331
2026-01-27 23:02:29.95	163.91	11.58	-44.4	-47.5	16.0	0.00e+00	0	43	0	1126170624	59	5422
2026-01-27 23:02:30.94	163.99	11.50	-44.4	-47.5	16.0	0.00e+00	0	43	0	1128267776	59	5439
2026-01-27 23:02:31.94	164.08	11.42	-44.7	-48.1	15.5	0.00e+00	0	43	0	1130364928	60	5471
2026-01-27 23:02:32.93	164.16	11.33	-44.8	-48.3	15.3	0.00e+00	0	43	0	1132462080	60	5598
2026-01-27 23:02:33.92	164.24	11.25	-44.9	-48.3	15.2	0.00e+00	0	43	0	1133510656	60	5629
2026-01-27 23:02:34.91	164.32	11.17	-44.9	-48.4	15.1	0.00e+00	0	43	0	1135607808	60	5694
2026-01-27 23:02:35.91	164.40	11.09	-44.9	-48.4	15.2	0.00e+00	0	43	0	1137704960	60	5658
2026-01-27 23:02:36.90	164.47	11.00	-45.1	-48.6	14.9	0.00e+00	0	43	0	1139802112	60	5801
2026-01-27 23:02:37.89	164.55	10.92	-45.1	-48.7	14.8	1.50e-06	0	43	0	1141899264	60	5868
2026-01-27 23:02:38.89	164.63	10.84	-45.3	-48.9	14.7	0.00e+00	0	43	0	1142947840	61	5678
2026-01-27 23:02:39.88	164.71	10.76	-45.3	-49.0	14.5	0.00e+00	0	43	0	1145044992	61	5771
2026-01-27 23:02:40.87	164.78	10.68	-45.3	-49.0	14.5	1.50e-06	0	43	0	1147142144	61	5733
2026-01-27 23:02:41.87	164.86	10.60	-45.3	-49.1	14.4	7.00e-07	0	43	0	1149239296	61	5805
2026-01-27 23:02:42.86	164.94	10.52	-45.1	-48.8	14.7	0.00e+00	0	43	0	1150287872	61	5651
2026-01-27 23:02:43.85	165.01	10.44	-45.0	-48.8	14.7	0.00e+00	0	43	0	1152385024	61	5593
2026-01-27 23:02:44.84	165.09	10.36	-45.0	-48.8	14.8	0.00e+00	0	43	0	1154482176	61	5612
2026-01-27 23:02:45.84	165.16	10.28	-45.0	-48.8	14.7	0.00e+00	0	43	0	1156579328	61	5623
2026-01-27 23:02:46.83	165.24	10.20	-44.8	-48.6	14.9	4.07e-03	0	43	0	1158676480	61	5482
2026-01-27 23:02:47.82	165.31	10.12	-44.7	-48.6	14.8	0.00e+00	0	43	0	1159725056	61	5496
2026-01-27 23:02:48.82	165.39	10.04	-44.5	-48.2	15.2	0.00e+00	0	44	0	1161822208	61	5269
2026-01-27 23:02:49.81	165.46	9.96	-44.6	-48.4	15.1	0.00e+00	0	43	0	1163919360	60	5691
2026-01-27 23:02:50.80	165.53	9.88	-44.3	-48.2	15.2	0.00e+00	0	44	0	1166016512	60	5566
2026-01-27 23:02:51.80	165.61	9.80	-44.3	-48.3	15.1	0.00e+00	0	43	0	1167065088	60	5620
2026-01-27 23:02:52.79	165.68	9.72	-44.1	-48.2	15.2	0.00e+00	0	43	0	1169162240	60	5553
2026-01-27 23:02:53.78	165.75	9.64	-44.1	-48.3	15.2	0.00e+00	0	43	0	1171259392	60	5606
2026-01-27 23:02:54.77	165.82	9.57	-44.0	-48.2	15.2	7.00e-07	0	43	0	1173356544	60	5588
2026-01-27 23:02:55.77	165.90	9.49	-44.0	-48.2	15.2	9.06e-03	0	44	0	1175453696	59	5896
2026-01-27 23:02:56.76	165.97	9.41	-43.9	-47.9	15.4	0.00e+00	0	43	0	1176502272	59	5713
2026-01-27 23:02:57.75	166.04	9.33	-43.9	-47.9	15.4	0.00e+00	0	43	0	1178599424	59	5691
2026-01-27 23:02:58.75	166.11	9.26	-44.0	-48.0	15.4	8.69e-03	0	44	0	1180696576	59	5727
2026-01-27 23:02:59.74	166.18	9.18	-44.0	-47.9	15.4	0.00e+00	0	44	0	1182793728	59	5696
2026-01-27 23:03:00.73	166.25	9.10	-44.1	-48.1	15.2	0.00e+00	0	43	0	1183842304	59	5845
2026-01-27 23:03:01.72	166.32	9.03	-44.1	-48.0	15.3	0.00e+00	0	43	0	1185939456	59	5760
2026-01-27 23:03:02.72	166.38	8.95	-45.1	-50.5	13.3	0.00e+00	0	43	0	1188036608	60	7242
