passes_logs/2026/01/27/T1/T1__20260127_110222_NOAA_20_JPSS-1_rec.log

#Pass ID: 20260127_110222_NOAA 20 (JPSS-1)
#Satellite: NOAA 20 (JPSS-1)
#Configuration: NOAA 20
#almurnet v.1.7.20251203
#Start time: 2026-01-27 11:02:23

#Version: 2.0.20230620
#Station: T1
#Location: 37.570604 lon 55.790049 lat
#TLE: 1 43013U 17073A   26026.81907703  .00000149  00000+0  91399-4 0  9998
#TLE: 2 43013  98.7647 327.6343 0000991  22.4130 337.7089 14.19540778424411

#Time	Az	El	Level	Level2	SNR	BER	BlckErr	Temp	State	Recorded	gain1	gain2
2026-01-27 11:02:23.40	195.94	5.06	-50.6	-65.8	3.8	1.49e+00	0	41	0	0	72	21219
2026-01-27 11:02:24.39	196.01	5.12	-50.7	-65.8	3.8	1.49e+00	0	41	104	0	73	20048
2026-01-27 11:02:25.38	196.07	5.19	-50.5	-65.8	3.8	1.49e+00	0	40	104	0	73	19987
2026-01-27 11:02:26.38	196.13	5.26	-50.6	-65.8	3.8	1.49e+00	0	41	104	0	72	21140
2026-01-27 11:02:27.37	196.20	5.32	-50.5	-65.8	3.8	1.49e+00	0	41	104	0	72	21135
2026-01-27 11:02:28.36	196.26	5.39	-50.5	-65.8	3.8	1.49e+00	0	41	104	0	72	21095
2026-01-27 11:02:29.35	196.32	5.45	-50.5	-65.8	3.8	1.49e+00	0	41	104	0	72	21030
2026-01-27 11:02:30.35	196.39	5.52	-50.5	-65.7	3.8	1.49e+00	0	41	104	0	72	20942
2026-01-27 11:02:31.34	196.45	5.59	-50.5	-65.7	3.8	1.49e+00	0	41	104	0	72	20916
2026-01-27 11:02:32.33	196.52	5.65	-50.4	-65.7	3.8	1.49e+00	0	41	104	0	72	20944
2026-01-27 11:02:33.33	196.58	5.72	-50.4	-65.6	3.8	1.49e+00	0	41	104	0	72	20694
2026-01-27 11:02:34.32	196.65	5.78	-50.1	-65.5	3.8	1.49e+00	0	41	104	0	72	20534
2026-01-27 11:02:35.31	196.71	5.85	-50.0	-65.5	3.8	1.49e+00	0	41	104	0	72	20350
2026-01-27 11:02:36.31	196.78	5.92	-50.0	-65.4	3.8	1.49e+00	0	41	104	0	71	21384
2026-01-27 11:02:37.30	196.85	5.99	-49.5	-65.3	3.8	1.49e+00	0	41	104	0	71	21159
2026-01-27 11:02:38.29	196.91	6.05	-49.7	-65.3	3.8	1.49e+00	0	41	104	0	71	21025
2026-01-27 11:02:39.28	196.98	6.12	-49.5	-65.1	3.8	1.49e+00	0	41	104	0	70	21929
2026-01-27 11:02:40.28	197.05	6.19	-49.3	-65.0	3.8	1.49e+00	0	41	104	0	70	21518
2026-01-27 11:02:41.27	197.11	6.25	-49.4	-64.8	3.8	1.49e+00	0	41	104	0	70	21098
2026-01-27 11:02:42.26	197.18	6.32	-49.4	-64.7	3.8	1.49e+00	0	41	104	0	70	21001
2026-01-27 11:02:43.25	197.25	6.39	-49.4	-64.8	3.8	1.49e+00	0	41	104	0	70	21259
2026-01-27 11:02:44.25	197.32	6.46	-49.4	-64.9	3.8	1.49e+00	0	41	104	0	70	21326
2026-01-27 11:02:45.24	197.39	6.53	-49.4	-65.0	3.8	1.49e+00	0	41	104	0	70	21556
2026-01-27 11:02:46.23	197.46	6.59	-49.4	-65.0	3.8	1.49e+00	0	41	104	0	70	21741
2026-01-27 11:02:47.23	197.53	6.66	-49.4	-65.1	3.8	1.49e+00	0	41	104	0	70	21811
2026-01-27 11:02:48.22	197.60	6.73	-49.4	-65.1	3.8	1.49e+00	0	41	104	0	70	21863
2026-01-27 11:02:49.21	197.66	6.80	-49.4	-65.1	3.8	1.49e+00	0	41	104	0	70	21936
2026-01-27 11:02:50.21	197.74	6.87	-49.4	-65.1	3.8	1.49e+00	0	41	104	0	70	21891
2026-01-27 11:02:51.20	197.81	6.94	-49.3	-65.0	3.8	1.49e+00	0	42	104	0	70	21613
2026-01-27 11:02:52.19	197.88	7.01	-49.4	-64.8	3.8	1.49e+00	0	41	104	0	70	21207
2026-01-27 11:02:53.19	197.95	7.08	-49.3	-64.4	3.8	1.49e+00	0	42	104	0	70	20221
2026-01-27 11:02:54.18	198.02	7.15	-49.3	-63.8	3.8	1.49e+00	0	41	104	0	70	18913
2026-01-27 11:02:55.17	198.09	7.22	-49.3	-63.2	3.8	1.49e+00	0	42	104	0	70	17507
2026-01-27 11:02:56.17	198.16	7.29	-49.2	-62.7	3.8	1.49e+00	0	42	104	0	70	16535
2026-01-27 11:02:57.16	198.24	7.36	-49.2	-62.4	3.8	1.48e+00	0	42	104	0	70	16123
2026-01-27 11:02:58.15	198.31	7.43	-49.2	-62.4	4.0	1.48e+00	0	42	104	0	70	15985
2026-01-27 11:02:59.15	198.38	7.50	-49.2	-62.7	4.0	1.47e+00	0	42	104	0	70	16632
2026-01-27 11:03:00.14	198.46	7.57	-49.3	-63.1	3.8	1.49e+00	0	42	104	0	70	17395
2026-01-27 11:03:01.13	198.53	7.64	-49.2	-62.8	3.9	1.49e+00	0	42	104	0	70	16699
2026-01-27 11:03:02.13	198.60	7.71	-49.1	-61.0	4.3	1.44e+00	0	42	0	0	70	13725
2026-01-27 11:03:03.12	198.68	7.78	-48.8	-58.4	5.7	8.39e-01	0	42	0	1048576	69	10708
2026-01-27 11:03:04.11	198.75	7.85	-48.4	-56.1	7.6	1.63e-01	0	42	0	3145728	68	8726
2026-01-27 11:03:05.11	198.83	7.92	-47.6	-54.0	9.6	2.52e-02	0	42	0	5242880	67	7223
2026-01-27 11:03:06.10	198.91	7.99	-47.0	-52.3	11.3	4.10e-03	0	42	0	7340032	66	6339
2026-01-27 11:03:07.09	198.98	8.06	-46.2	-50.6	13.1	4.37e-04	0	42	0	8388608	64	5842
2026-01-27 11:03:08.09	199.06	8.14	-46.0	-50.0	13.7	1.67e-05	0	42	0	10485760	63	5784
2026-01-27 11:03:09.08	199.13	8.21	-45.5	-49.3	14.5	1.50e-06	0	42	0	12582912	63	5299
2026-01-27 11:03:10.07	199.21	8.28	-45.4	-49.1	14.7	0.00e+00	0	42	0	14680064	62	5486
2026-01-27 11:03:11.06	199.29	8.35	-45.4	-49.0	14.8	0.00e+00	0	42	0	16777216	62	5447
2026-01-27 11:03:12.06	199.37	8.42	-45.4	-49.1	14.8	0.00e+00	0	42	0	17825792	62	5474
2026-01-27 11:03:13.05	199.44	8.50	-45.6	-49.4	14.4	1.50e-06	0	42	0	19922944	62	5707
2026-01-27 11:03:14.04	199.52	8.57	-46.1	-50.3	13.5	7.00e-07	0	42	0	22020096	62	6326
2026-01-27 11:03:15.04	199.60	8.64	-46.5	-51.0	12.8	3.43e-05	0	42	0	24117248	63	6446
2026-01-27 11:03:16.03	199.68	8.71	-46.9	-52.1	11.6	2.67e-04	0	42	0	25165824	64	6920
2026-01-27 11:03:17.02	199.76	8.79	-47.4	-53.3	10.4	2.09e-03	0	42	0	27262976	65	7487
2026-01-27 11:03:18.02	199.84	8.86	-47.8	-54.5	9.1	9.31e-03	0	42	0	29360128	66	8148
2026-01-27 11:03:19.01	199.92	8.94	-48.2	-56.0	7.6	6.72e-02	0	42	0	31457280	67	9085
2026-01-27 11:03:20.00	200.00	9.01	-48.4	-57.1	6.5	1.74e-01	0	42	0	32505856	67	10399
2026-01-27 11:03:20.99	200.08	9.08	-48.5	-57.3	6.4	2.53e-01	0	42	0	34603008	67	10654
2026-01-27 11:03:21.99	200.17	9.16	-49.0	-60.4	4.6	7.10e-01	0	42	0	36700160	68	14280
2026-01-27 11:03:22.99	200.25	9.23	-48.8	-58.5	5.7	2.26e-01	0	42	0	38797312	68	11459
2026-01-27 11:03:23.98	200.33	9.31	-47.0	-52.3	11.4	8.36e-02	0	42	0	40894464	66	6286
2026-01-27 11:03:24.98	200.41	9.38	-49.1	-61.7	4.1	6.14e-02	0	42	0	41943040	68	16623
2026-01-27 11:03:25.97	200.50	9.46	-46.9	-52.1	11.6	7.93e-02	0	42	0	42991616	65	6534
2026-01-27 11:03:26.96	200.58	9.53	-46.4	-50.9	12.8	1.43e-04	0	42	0	45088768	64	6046
2026-01-27 11:03:27.96	200.67	9.61	-46.3	-50.7	13.0	8.46e-05	0	42	0	47185920	64	5895
2026-01-27 11:03:28.95	200.75	9.68	-46.1	-50.3	13.5	1.90e-05	0	42	0	49283072	64	5634
2026-01-27 11:03:29.95	200.83	9.76	-46.3	-50.5	13.3	1.83e-05	0	42	0	51380224	64	5778
2026-01-27 11:03:30.94	200.92	9.83	-46.1	-50.2	13.6	1.37e-05	0	42	0	52428800	64	5544
2026-01-27 11:03:31.94	201.01	9.91	-45.7	-49.5	14.4	3.80e-06	0	42	0	54525952	63	5409
2026-01-27 11:03:32.93	201.09	9.98	-45.3	-48.7	15.1	0.00e+00	0	42	0	56623104	62	5275
2026-01-27 11:03:33.93	201.18	10.06	-45.2	-48.5	15.4	0.00e+00	0	42	0	58720256	62	5106
2026-01-27 11:03:34.92	201.27	10.14	-45.0	-48.3	15.6	0.00e+00	0	42	0	59768832	62	4989
2026-01-27 11:03:35.92	201.35	10.21	-45.0	-48.3	15.6	0.00e+00	0	42	0	61865984	62	4991
2026-01-27 11:03:36.91	201.44	10.29	-44.8	-47.9	16.0	0.00e+00	0	42	0	63963136	61	5089
2026-01-27 11:03:37.91	201.53	10.37	-44.7	-47.8	16.2	0.00e+00	0	43	0	66060288	61	4985
2026-01-27 11:03:38.90	201.62	10.44	-44.6	-47.6	16.3	0.00e+00	0	43	0	68157440	61	4918
2026-01-27 11:03:39.90	201.71	10.52	-44.5	-47.5	16.4	0.00e+00	0	42	0	69206016	61	4833
2026-01-27 11:03:40.89	201.80	10.60	-44.6	-47.7	16.3	0.00e+00	0	43	0	71303168	61	4929
2026-01-27 11:03:41.89	201.89	10.68	-44.5	-47.5	16.4	0.00e+00	0	43	0	73400320	61	4836
2026-01-27 11:03:42.88	201.98	10.75	-44.5	-47.5	16.4	0.00e+00	0	42	0	75497472	60	5127
2026-01-27 11:03:43.88	202.07	10.83	-44.5	-47.6	16.3	0.00e+00	0	42	0	76546048	60	5193
2026-01-27 11:03:44.87	202.16	10.91	-44.5	-47.6	16.3	0.00e+00	0	42	0	78643200	60	5192
2026-01-27 11:03:45.87	202.26	10.99	-44.4	-47.5	16.4	0.00e+00	0	42	0	80740352	60	5125
2026-01-27 11:03:46.86	202.35	11.07	-44.4	-47.5	16.4	0.00e+00	0	42	0	82837504	60	5115
2026-01-27 11:03:47.86	202.44	11.15	-44.3	-47.4	16.4	0.00e+00	0	43	0	84934656	60	5089
2026-01-27 11:03:48.85	202.54	11.23	-44.4	-47.5	16.3	0.00e+00	0	43	0	85983232	60	5149
2026-01-27 11:03:49.84	202.63	11.30	-44.3	-47.5	16.2	0.00e+00	0	42	0	88080384	60	5113
2026-01-27 11:03:50.84	202.72	11.38	-44.2	-47.4	16.2	0.00e+00	0	43	0	90177536	60	5084
2026-01-27 11:03:51.83	202.82	11.46	-44.3	-47.5	16.2	0.00e+00	0	43	0	92274688	60	5115
2026-01-27 11:03:52.83	202.92	11.54	-44.2	-47.4	16.3	0.00e+00	0	42	0	94371840	60	5050
2026-01-27 11:03:53.82	203.01	11.62	-44.3	-47.5	16.1	0.00e+00	0	43	0	95420416	60	5141
2026-01-27 11:03:54.82	203.11	11.70	-44.2	-47.3	16.4	0.00e+00	0	43	0	97517568	60	5019
2026-01-27 11:03:55.81	203.20	11.78	-44.1	-47.1	16.8	0.00e+00	0	42	0	99614720	60	4886
2026-01-27 11:03:56.81	203.30	11.87	-44.1	-47.1	16.8	0.00e+00	0	43	0	101711872	60	4895
2026-01-27 11:03:57.80	203.40	11.95	-44.1	-47.0	16.9	0.00e+00	0	43	0	102760448	60	4868
2026-01-27 11:03:58.80	203.50	12.03	-44.0	-46.9	17.0	0.00e+00	0	43	0	104857600	59	5044
2026-01-27 11:03:59.79	203.60	12.11	-43.9	-46.8	17.1	0.00e+00	0	43	0	106954752	59	4989
2026-01-27 11:04:00.79	203.70	12.19	-43.8	-46.6	17.3	0.00e+00	0	43	0	109051904	59	4892
2026-01-27 11:04:01.78	203.80	12.27	-43.8	-46.6	17.2	0.00e+00	0	43	0	111149056	59	4915
2026-01-27 11:04:02.78	203.90	12.35	-43.7	-46.4	17.4	0.00e+00	0	43	0	112197632	59	4790
2026-01-27 11:04:03.77	204.00	12.43	-43.6	-46.3	17.5	0.00e+00	0	43	0	114294784	59	4735
2026-01-27 11:04:04.76	204.10	12.52	-43.6	-46.3	17.5	0.00e+00	0	43	0	116391936	59	4732
2026-01-27 11:04:05.76	204.21	12.60	-43.6	-46.3	17.5	0.00e+00	0	43	0	118489088	59	4744
2026-01-27 11:04:06.75	204.31	12.68	-43.6	-46.3	17.6	0.00e+00	0	43	0	119537664	59	4710
2026-01-27 11:04:07.75	204.41	12.76	-43.6	-46.2	17.7	0.00e+00	0	43	0	121634816	59	4687
2026-01-27 11:04:08.74	204.52	12.85	-43.6	-46.2	17.7	0.00e+00	0	43	0	123731968	59	4685
2026-01-27 11:04:09.74	204.62	12.93	-43.6	-46.2	17.7	0.00e+00	0	43	0	125829120	59	4680
2026-01-27 11:04:10.73	204.73	13.01	-43.5	-46.1	17.8	0.00e+00	0	43	0	127926272	59	4624
2026-01-27 11:04:11.73	204.83	13.10	-43.6	-46.2	17.7	0.00e+00	0	43	0	128974848	59	4704
2026-01-27 11:04:12.72	204.94	13.18	-43.6	-46.2	17.7	0.00e+00	0	43	0	131072000	59	4681
2026-01-27 11:04:13.72	205.05	13.26	-43.7	-46.3	17.6	0.00e+00	0	43	0	133169152	59	4740
2026-01-27 11:04:14.71	205.15	13.35	-43.7	-46.3	17.6	0.00e+00	0	43	0	135266304	59	4759
2026-01-27 11:04:15.71	205.26	13.43	-43.6	-46.2	17.7	0.00e+00	0	43	0	136314880	59	4700
2026-01-27 11:04:16.70	205.37	13.52	-43.7	-46.3	17.7	0.00e+00	0	43	0	138412032	59	4713
2026-01-27 11:04:17.69	205.48	13.60	-43.6	-46.2	17.8	0.00e+00	0	43	0	140509184	59	4687
2026-01-27 11:04:18.69	205.59	13.69	-43.7	-46.3	17.7	0.00e+00	0	43	0	142606336	59	4725
2026-01-27 11:04:19.68	205.70	13.77	-43.7	-46.2	17.7	0.00e+00	0	43	0	144703488	59	4692
2026-01-27 11:04:20.68	205.81	13.86	-43.7	-46.3	17.7	0.00e+00	0	43	0	145752064	59	4724
2026-01-27 11:04:21.67	205.92	13.94	-43.7	-46.2	17.7	0.00e+00	0	43	0	147849216	59	4690
2026-01-27 11:04:22.66	206.03	14.03	-43.7	-46.3	17.6	0.00e+00	0	43	0	149946368	59	4748
2026-01-27 11:04:23.66	206.15	14.11	-43.8	-46.4	17.6	0.00e+00	0	43	0	152043520	59	4784
2026-01-27 11:04:24.65	206.26	14.20	-43.7	-46.3	17.7	0.00e+00	0	43	0	153092096	59	4747
2026-01-27 11:04:25.65	206.38	14.29	-43.8	-46.4	17.5	0.00e+00	0	43	0	155189248	59	4814
2026-01-27 11:04:26.64	206.49	14.37	-43.8	-46.4	17.6	0.00e+00	0	43	0	157286400	59	4794
2026-01-27 11:04:27.64	206.61	14.46	-43.8	-46.5	17.5	0.00e+00	0	43	0	159383552	59	4833
2026-01-27 11:04:28.63	206.72	14.55	-43.9	-46.6	17.4	0.00e+00	0	43	0	161480704	59	4894
2026-01-27 11:04:29.63	206.84	14.63	-44.0	-46.6	17.4	0.00e+00	0	43	0	162529280	59	4908
2026-01-27 11:04:30.62	206.96	14.72	-43.8	-46.4	17.5	0.00e+00	0	43	0	164626432	59	4800
2026-01-27 11:04:31.62	207.08	14.81	-43.7	-46.3	17.7	0.00e+00	0	43	0	166723584	59	4740
2026-01-27 11:04:32.61	207.20	14.90	-43.7	-46.3	17.7	0.00e+00	0	43	0	168820736	59	4721
2026-01-27 11:04:33.61	207.32	14.98	-43.7	-46.3	17.6	0.00e+00	0	43	0	169869312	59	4732
2026-01-27 11:04:34.60	207.44	15.07	-43.6	-46.2	17.7	0.00e+00	0	43	0	171966464	59	4683
2026-01-27 11:04:35.60	207.56	15.16	-43.6	-46.1	17.8	0.00e+00	0	43	0	174063616	59	4644
2026-01-27 11:04:36.59	207.68	15.25	-43.6	-46.2	17.8	0.00e+00	0	43	0	176160768	59	4660
2026-01-27 11:04:37.59	207.80	15.34	-43.6	-46.1	17.9	0.00e+00	0	43	0	178257920	59	4641
2026-01-27 11:04:38.58	207.92	15.43	-43.5	-46.0	18.0	0.00e+00	0	43	0	179306496	59	4550
2026-01-27 11:04:39.58	208.05	15.52	-43.5	-46.1	17.9	0.00e+00	0	43	0	181403648	59	4611
2026-01-27 11:04:40.57	208.17	15.60	-43.6	-46.1	18.0	0.00e+00	0	43	0	183500800	59	4601
2026-01-27 11:04:41.57	208.30	15.69	-43.7	-46.2	17.8	0.00e+00	0	43	0	185597952	59	4689
2026-01-27 11:04:42.56	208.42	15.78	-43.6	-46.2	17.9	0.00e+00	0	43	0	186646528	59	4660
2026-01-27 11:04:43.55	208.55	15.87	-43.7	-46.3	17.7	0.00e+00	0	43	0	188743680	59	4734
2026-01-27 11:04:44.55	208.68	15.96	-43.7	-46.3	17.7	0.00e+00	0	43	0	190840832	59	4741
2026-01-27 11:04:45.54	208.81	16.05	-43.8	-46.4	17.7	0.00e+00	0	43	0	192937984	59	4765
2026-01-27 11:04:46.54	208.94	16.14	-43.9	-46.6	17.5	0.00e+00	0	43	0	195035136	59	4877
2026-01-27 11:04:47.53	209.07	16.24	-44.0	-46.6	17.5	0.00e+00	0	43	0	196083712	59	4895
2026-01-27 11:04:48.53	209.20	16.33	-44.0	-46.6	17.4	0.00e+00	0	43	0	198180864	59	4921
2026-01-27 11:04:49.52	209.33	16.42	-44.1	-46.7	17.4	0.00e+00	0	43	0	200278016	59	4950
2026-01-27 11:04:50.52	209.46	16.51	-44.1	-46.7	17.3	0.00e+00	0	43	0	202375168	59	4969
2026-01-27 11:04:51.51	209.59	16.60	-44.2	-46.9	17.2	0.00e+00	0	43	0	203423744	59	5046
2026-01-27 11:04:52.51	209.73	16.69	-44.3	-47.0	17.1	0.00e+00	0	43	0	205520896	59	5125
2026-01-27 11:04:53.50	209.86	16.78	-44.4	-47.1	17.0	0.00e+00	0	43	0	207618048	59	5182
2026-01-27 11:04:54.49	210.00	16.88	-44.4	-47.2	16.9	0.00e+00	0	43	0	209715200	59	5254
2026-01-27 11:04:55.49	210.13	16.97	-44.6	-47.4	16.7	0.00e+00	0	43	0	211812352	59	5346
2026-01-27 11:04:56.48	210.27	17.06	-44.5	-47.3	16.8	0.00e+00	0	43	0	212860928	59	5330
2026-01-27 11:04:57.48	210.41	17.15	-44.7	-47.6	16.6	0.00e+00	0	43	0	214958080	60	5165
2026-01-27 11:04:58.47	210.54	17.25	-44.7	-47.6	16.6	0.00e+00	0	43	0	217055232	60	5167
2026-01-27 11:04:59.47	210.68	17.34	-44.7	-47.6	16.5	0.00e+00	0	43	0	219152384	60	5207
2026-01-27 11:05:00.47	210.83	17.43	-44.8	-47.7	16.4	0.00e+00	0	43	0	220200960	60	5277
2026-01-27 11:05:01.46	210.97	17.53	-44.8	-47.7	16.4	0.00e+00	0	43	0	222298112	60	5272
2026-01-27 11:05:02.46	211.11	17.62	-44.8	-47.7	16.5	0.00e+00	0	43	0	224395264	60	5247
2026-01-27 11:05:03.45	211.25	17.71	-44.7	-47.6	16.6	0.00e+00	0	43	0	226492416	60	5183
2026-01-27 11:05:04.45	211.40	17.81	-44.6	-47.5	16.7	0.00e+00	0	43	0	228589568	60	5127
2026-01-27 11:05:05.44	211.54	17.90	-44.5	-47.3	16.8	0.00e+00	0	43	0	229638144	60	5041
2026-01-27 11:05:06.44	211.68	18.00	-44.4	-47.3	16.9	0.00e+00	0	43	0	231735296	60	4997
2026-01-27 11:05:07.43	211.83	18.09	-44.5	-47.4	16.8	0.00e+00	0	43	0	233832448	60	5054
2026-01-27 11:05:08.43	211.98	18.19	-44.5	-47.4	16.8	0.00e+00	0	43	0	235929600	60	5050
2026-01-27 11:05:09.42	212.13	18.28	-44.6	-47.4	16.8	0.00e+00	0	43	0	236978176	60	5082
2026-01-27 11:05:10.41	212.27	18.38	-44.6	-47.4	16.8	0.00e+00	0	43	0	239075328	60	5096
2026-01-27 11:05:11.41	212.42	18.47	-44.6	-47.5	16.7	0.00e+00	0	43	0	241172480	60	5124
2026-01-27 11:05:12.40	212.57	18.57	-44.7	-47.6	16.7	0.00e+00	0	43	0	243269632	60	5162
2026-01-27 11:05:13.40	212.73	18.66	-44.8	-47.7	16.5	0.00e+00	0	43	0	245366784	60	5278
2026-01-27 11:05:14.39	212.88	18.76	-44.7	-47.5	16.7	0.00e+00	0	43	0	246415360	60	5148
2026-01-27 11:05:15.39	213.03	18.86	-44.6	-47.5	16.7	0.00e+00	0	43	0	248512512	60	5106
2026-01-27 11:05:16.38	213.19	18.95	-44.6	-47.4	16.8	0.00e+00	0	43	0	250609664	60	5085
2026-01-27 11:05:17.38	213.34	19.05	-44.5	-47.4	16.8	0.00e+00	0	43	0	252706816	60	5073
2026-01-27 11:05:18.37	213.50	19.14	-44.5	-47.4	16.8	0.00e+00	0	43	0	253755392	60	5060
2026-01-27 11:05:19.36	213.66	19.24	-44.6	-47.5	16.7	0.00e+00	0	43	0	255852544	60	5148
2026-01-27 11:05:20.36	213.81	19.34	-44.6	-47.5	16.7	0.00e+00	0	43	0	257949696	60	5139
2026-01-27 11:05:21.36	213.98	19.44	-44.6	-47.5	16.7	0.00e+00	0	43	0	260046848	60	5128
2026-01-27 11:05:22.35	214.13	19.53	-44.7	-47.7	16.5	0.00e+00	0	43	0	262144000	60	5246
2026-01-27 11:05:23.35	214.30	19.63	-44.6	-47.5	16.7	0.00e+00	0	43	0	263192576	60	5146
2026-01-27 11:05:24.34	214.46	19.73	-44.6	-47.6	16.6	0.00e+00	0	43	0	265289728	60	5191
2026-01-27 11:05:25.34	214.62	19.83	-44.6	-47.6	16.6	0.00e+00	0	43	0	267386880	60	5174
2026-01-27 11:05:26.33	214.79	19.92	-44.6	-47.5	16.7	0.00e+00	0	43	0	269484032	60	5146
2026-01-27 11:05:27.32	214.95	20.02	-44.4	-47.3	16.9	0.00e+00	0	43	0	270532608	60	4994
2026-01-27 11:05:28.32	215.12	20.12	-44.3	-47.1	17.1	0.00e+00	0	43	0	272629760	60	4903
2026-01-27 11:05:29.31	215.28	20.22	-44.2	-47.0	17.2	0.00e+00	0	43	0	274726912	60	4837
2026-01-27 11:05:30.31	215.45	20.32	-44.2	-47.0	17.3	0.00e+00	0	43	0	276824064	60	4816
2026-01-27 11:05:31.30	215.62	20.42	-44.1	-46.9	17.3	0.00e+00	0	43	0	278921216	60	4767
2026-01-27 11:05:32.30	215.79	20.51	-44.1	-46.8	17.5	0.00e+00	0	43	0	279969792	60	4718
2026-01-27 11:05:33.29	215.96	20.61	-44.1	-46.8	17.4	0.00e+00	0	43	0	282066944	60	4716
2026-01-27 11:05:34.29	216.14	20.71	-44.1	-46.8	17.4	0.00e+00	0	43	0	284164096	60	4726
2026-01-27 11:05:35.28	216.31	20.81	-44.1	-46.8	17.4	0.00e+00	0	43	0	286261248	60	4706
2026-01-27 11:05:36.28	216.49	20.91	-44.0	-46.7	17.5	0.00e+00	0	43	0	287309824	60	4664
2026-01-27 11:05:37.27	216.66	21.01	-44.1	-46.7	17.5	0.00e+00	0	43	0	289406976	60	4687
2026-01-27 11:05:38.27	216.84	21.11	-44.1	-46.7	17.5	0.00e+00	0	43	0	291504128	60	4666
2026-01-27 11:05:39.26	217.02	21.21	-44.1	-46.7	17.5	0.00e+00	0	43	0	293601280	60	4668
2026-01-27 11:05:40.26	217.20	21.31	-43.9	-46.5	17.6	0.00e+00	0	43	0	295698432	59	4859
2026-01-27 11:05:41.25	217.38	21.41	-43.8	-46.4	17.8	0.00e+00	0	43	0	296747008	59	4787
2026-01-27 11:05:42.25	217.56	21.51	-43.7	-46.2	18.0	0.00e+00	0	43	0	298844160	59	4676
2026-01-27 11:05:43.24	217.74	21.61	-43.6	-46.1	18.0	0.00e+00	0	43	0	300941312	59	4616
2026-01-27 11:05:44.24	217.93	21.71	-43.6	-46.1	18.1	0.00e+00	0	43	0	303038464	59	4606
2026-01-27 11:05:45.23	218.11	21.81	-43.5	-45.9	18.2	0.00e+00	0	43	0	304087040	58	4813
2026-01-27 11:05:46.23	218.30	21.91	-43.4	-45.9	18.2	0.00e+00	0	43	0	306184192	58	4799
2026-01-27 11:05:47.22	218.49	22.01	-43.3	-45.8	18.4	0.00e+00	0	43	0	308281344	58	4706
2026-01-27 11:05:48.21	218.67	22.11	-43.4	-45.8	18.4	0.00e+00	0	43	0	310378496	58	4730
2026-01-27 11:05:49.21	218.86	22.21	-43.5	-45.9	18.2	0.00e+00	0	43	0	312475648	58	4791
2026-01-27 11:05:50.20	219.05	22.31	-43.2	-45.5	18.6	0.00e+00	0	43	0	313524224	58	4597
2026-01-27 11:05:51.20	219.25	22.41	-43.2	-45.5	18.6	0.00e+00	0	43	0	315621376	58	4584
2026-01-27 11:05:52.19	219.44	22.52	-43.2	-45.6	18.5	0.00e+00	0	43	0	317718528	58	4629
2026-01-27 11:05:53.19	219.64	22.62	-43.1	-45.5	18.6	0.00e+00	0	43	0	319815680	58	4581
2026-01-27 11:05:54.18	219.83	22.72	-43.2	-45.6	18.6	0.00e+00	0	43	0	320864256	58	4623
2026-01-27 11:05:55.18	220.03	22.82	-43.2	-45.6	18.5	0.00e+00	0	43	0	322961408	58	4649
2026-01-27 11:05:56.17	220.23	22.92	-43.2	-45.7	18.5	0.00e+00	0	43	0	325058560	58	4652
2026-01-27 11:05:57.16	220.43	23.02	-43.2	-45.6	18.6	0.00e+00	0	43	0	327155712	58	4624
2026-01-27 11:05:58.16	220.63	23.12	-43.1	-45.4	18.7	0.00e+00	0	43	0	329252864	58	4539
2026-01-27 11:05:59.15	220.83	23.22	-43.0	-45.4	18.7	0.00e+00	0	43	0	330301440	58	4523
2026-01-27 11:06:00.15	221.03	23.32	-42.8	-45.2	19.0	0.00e+00	0	43	0	332398592	57	4653
2026-01-27 11:06:01.14	221.24	23.43	-42.7	-45.0	19.1	0.00e+00	0	43	0	334495744	57	4572
2026-01-27 11:06:02.13	221.44	23.53	-42.7	-45.0	19.1	0.00e+00	0	43	0	336592896	57	4562
2026-01-27 11:06:03.13	221.65	23.63	-42.8	-45.1	19.1	0.00e+00	0	43	0	338690048	57	4620
2026-01-27 11:06:04.12	221.86	23.73	-42.8	-45.1	19.0	0.00e+00	0	43	0	339738624	57	4646
2026-01-27 11:06:05.12	222.07	23.83	-42.8	-45.1	19.1	0.00e+00	0	43	0	341835776	57	4601
2026-01-27 11:06:06.12	222.28	23.93	-42.7	-45.0	19.2	0.00e+00	0	43	0	343932928	57	4558
2026-01-27 11:06:07.11	222.49	24.03	-42.5	-44.7	19.4	0.00e+00	0	43	0	346030080	57	4441
2026-01-27 11:06:08.10	222.71	24.14	-42.5	-44.7	19.4	0.00e+00	0	43	0	347078656	56	4678
2026-01-27 11:06:09.10	222.92	24.24	-42.3	-44.5	19.6	0.00e+00	0	43	0	349175808	56	4568
2026-01-27 11:06:10.09	223.14	24.34	-42.3	-44.5	19.6	0.00e+00	0	43	0	351272960	56	4569
2026-01-27 11:06:11.09	223.36	24.44	-42.4	-44.6	19.5	0.00e+00	0	43	0	353370112	56	4611
2026-01-27 11:06:12.08	223.58	24.54	-42.3	-44.5	19.6	0.00e+00	0	43	0	355467264	56	4554
2026-01-27 11:06:13.08	223.80	24.64	-42.4	-44.6	19.5	0.00e+00	0	43	0	356515840	56	4633
2026-01-27 11:06:14.07	224.02	24.74	-42.5	-44.7	19.5	0.00e+00	0	43	0	358612992	56	4678
2026-01-27 11:06:15.07	224.25	24.84	-42.6	-44.9	19.2	0.00e+00	0	43	0	360710144	56	4785
2026-01-27 11:06:16.06	224.47	24.95	-42.8	-45.1	19.1	0.00e+00	0	43	0	362807296	56	4889
2026-01-27 11:06:17.05	224.70	25.05	-42.9	-45.3	18.9	0.00e+00	0	43	0	363855872	56	4988
2026-01-27 11:06:18.05	224.92	25.15	-43.0	-45.3	18.9	0.00e+00	0	43	0	365953024	56	5012
2026-01-27 11:06:19.04	225.15	25.25	-42.9	-45.2	18.9	0.00e+00	0	43	0	368050176	56	4983
2026-01-27 11:06:20.04	225.39	25.35	-42.8	-45.1	19.1	0.00e+00	0	43	0	370147328	56	4877
2026-01-27 11:06:21.03	225.62	25.45	-42.6	-44.9	19.2	0.00e+00	0	43	0	372244480	56	4809
2026-01-27 11:06:22.03	225.85	25.55	-42.7	-44.9	19.2	0.00e+00	0	43	0	373293056	56	4811
2026-01-27 11:06:23.02	226.09	25.65	-42.7	-45.0	19.2	0.00e+00	0	43	0	375390208	56	4855
2026-01-27 11:06:24.01	226.32	25.75	-42.8	-45.2	19.0	0.00e+00	0	43	0	377487360	56	4940
2026-01-27 11:06:25.01	226.56	25.85	-43.0	-45.4	18.7	0.00e+00	0	43	0	379584512	56	5087
2026-01-27 11:06:26.00	226.80	25.95	-43.2	-45.7	18.5	0.00e+00	0	43	0	380633088	57	4940
2026-01-27 11:06:27.00	227.04	26.05	-43.2	-45.7	18.5	0.00e+00	0	43	0	382730240	57	4934
2026-01-27 11:06:27.99	227.28	26.15	-43.3	-45.8	18.4	0.00e+00	0	43	0	384827392	57	4987
2026-01-27 11:06:28.99	227.53	26.25	-43.4	-45.8	18.4	0.00e+00	0	43	0	386924544	57	5013
2026-01-27 11:06:29.98	227.77	26.35	-43.5	-45.9	18.3	0.00e+00	0	43	0	389021696	57	5083
2026-01-27 11:06:30.98	228.02	26.45	-43.5	-45.9	18.3	0.00e+00	0	43	0	390070272	57	5075
2026-01-27 11:06:31.97	228.27	26.55	-43.7	-46.2	18.0	0.00e+00	0	43	0	392167424	57	5233
2026-01-27 11:06:32.97	228.52	26.65	-43.9	-46.4	17.8	0.00e+00	0	43	0	394264576	58	5093
2026-01-27 11:06:33.96	228.77	26.74	-44.1	-46.8	17.5	0.00e+00	0	43	0	396361728	58	5284
2026-01-27 11:06:34.96	229.02	26.84	-44.2	-46.9	17.4	0.00e+00	0	43	0	397410304	59	5065
2026-01-27 11:06:35.95	229.28	26.94	-44.3	-47.0	17.3	0.00e+00	0	43	0	399507456	59	5118
2026-01-27 11:06:36.94	229.53	27.04	-44.3	-47.0	17.2	0.00e+00	0	43	0	401604608	59	5130
2026-01-27 11:06:37.94	229.79	27.14	-44.4	-47.1	17.2	0.00e+00	0	43	0	403701760	59	5160
2026-01-27 11:06:38.93	230.05	27.23	-44.3	-47.0	17.3	0.00e+00	0	43	0	405798912	59	5131
2026-01-27 11:06:39.93	230.31	27.33	-44.5	-47.2	17.0	0.00e+00	0	43	0	406847488	59	5259
2026-01-27 11:06:40.93	230.58	27.43	-44.6	-47.4	16.8	0.00e+00	0	43	0	408944640	59	5385
2026-01-27 11:06:41.92	230.84	27.52	-44.8	-47.7	16.7	0.00e+00	0	43	0	411041792	60	5238
2026-01-27 11:06:42.91	231.10	27.62	-45.0	-47.9	16.4	0.00e+00	0	43	0	413138944	60	5392
2026-01-27 11:06:43.91	231.37	27.72	-45.1	-48.1	16.2	0.00e+00	0	43	0	414187520	60	5521
2026-01-27 11:06:44.91	231.64	27.81	-45.0	-48.1	16.3	0.00e+00	0	43	0	416284672	60	5467
2026-01-27 11:06:45.90	231.91	27.91	-44.9	-47.9	16.4	0.00e+00	0	43	0	418381824	60	5395
2026-01-27 11:06:46.90	232.18	28.00	-44.7	-47.6	16.7	0.00e+00	0	43	0	420478976	60	5213
2026-01-27 11:06:47.89	232.45	28.10	-44.7	-47.6	16.7	0.00e+00	0	43	0	422576128	60	5187
2026-01-27 11:06:48.89	232.73	28.19	-44.7	-47.5	16.8	0.00e+00	0	43	0	423624704	60	5140
2026-01-27 11:06:49.89	233.01	28.28	-44.8	-47.6	16.7	0.00e+00	0	43	0	425721856	60	5198
2026-01-27 11:06:50.88	233.29	28.38	-44.8	-47.7	16.6	0.00e+00	0	43	0	427819008	60	5266
2026-01-27 11:06:51.88	233.57	28.47	-45.1	-48.1	16.3	0.00e+00	0	43	0	429916160	60	5467
2026-01-27 11:06:52.87	233.85	28.56	-45.3	-48.4	15.9	0.00e+00	0	43	0	430964736	61	5371
2026-01-27 11:06:53.86	234.13	28.65	-45.5	-48.7	15.6	0.00e+00	0	43	0	433061888	61	5579
2026-01-27 11:06:54.86	234.41	28.75	-45.9	-49.2	15.1	0.00e+00	0	43	0	435159040	62	5590
2026-01-27 11:06:55.85	234.70	28.84	-46.1	-49.6	14.8	0.00e+00	0	43	0	437256192	62	5805
2026-01-27 11:06:56.85	234.99	28.93	-46.3	-49.8	14.5	0.00e+00	0	43	0	439353344	63	5647
2026-01-27 11:06:57.84	235.28	29.02	-46.3	-49.9	14.5	1.50e-06	0	43	0	440401920	63	5661
2026-01-27 11:06:58.84	235.57	29.11	-46.3	-49.8	14.5	7.00e-07	0	43	0	442499072	63	5654
2026-01-27 11:06:59.83	235.86	29.20	-46.2	-49.8	14.5	0.00e+00	0	43	0	444596224	63	5625
2026-01-27 11:07:00.83	236.15	29.28	-46.2	-49.8	14.6	0.00e+00	0	43	0	446693376	63	5611
2026-01-27 11:07:01.82	236.45	29.37	-46.2	-49.8	14.5	0.00e+00	0	43	0	447741952	63	5651
2026-01-27 11:07:02.82	236.75	29.46	-46.5	-50.3	14.1	2.20e-06	0	43	0	449839104	63	5926
2026-01-27 11:07:03.81	237.04	29.55	-46.7	-50.6	13.8	5.30e-06	0	43	0	451936256	63	6143
2026-01-27 11:07:04.81	237.35	29.63	-46.9	-51.0	13.3	8.30e-06	0	43	0	454033408	64	6077
2026-01-27 11:07:05.80	237.65	29.72	-47.0	-51.1	13.1	1.22e-05	0	43	0	456130560	64	6185
2026-01-27 11:07:06.80	237.95	29.80	-47.1	-51.3	12.9	5.18e-05	0	43	0	457179136	64	6335
2026-01-27 11:07:07.79	238.26	29.89	-47.0	-51.2	13.0	5.03e-05	0	43	0	459276288	64	6244
2026-01-27 11:07:08.78	238.56	29.97	-46.9	-51.1	13.1	3.73e-05	0	43	0	461373440	64	6161
2026-01-27 11:07:09.78	238.87	30.06	-46.8	-50.9	13.3	2.13e-05	0	43	0	463470592	64	6036
2026-01-27 11:07:10.77	239.18	30.14	-46.7	-50.7	13.5	1.22e-05	0	43	0	464519168	64	5893
2026-01-27 11:07:11.77	239.49	30.22	-46.8	-50.7	13.5	8.30e-06	0	43	0	466616320	64	5912
2026-01-27 11:07:12.76	239.80	30.30	-46.8	-50.9	13.3	8.30e-06	0	43	0	468713472	64	6043
2026-01-27 11:07:13.76	240.12	30.38	-46.9	-51.2	13.1	1.52e-05	0	43	0	470810624	64	6222
2026-01-27 11:07:14.76	240.44	30.46	-46.9	-51.3	13.0	4.57e-05	0	43	0	472907776	64	6278
2026-01-27 11:07:15.75	240.75	30.54	-46.9	-51.1	13.1	5.34e-05	0	43	0	473956352	64	6179
2026-01-27 11:07:16.74	241.07	30.62	-46.8	-50.9	13.3	2.67e-05	0	43	0	476053504	64	6031
2026-01-27 11:07:17.74	241.39	30.70	-46.7	-50.6	13.7	9.10e-06	0	43	0	478150656	64	5817
2026-01-27 11:07:18.73	241.71	30.77	-46.4	-50.1	14.2	3.80e-06	0	43	0	480247808	64	5490
2026-01-27 11:07:19.73	242.04	30.85	-46.2	-49.7	14.6	0.00e+00	0	43	0	481296384	64	5262
2026-01-27 11:07:20.72	242.36	30.93	-46.0	-49.4	15.0	0.00e+00	0	43	0	483393536	63	5346
2026-01-27 11:07:21.72	242.69	31.00	-45.9	-49.2	15.2	0.00e+00	0	43	0	485490688	63	5224
2026-01-27 11:07:22.71	243.01	31.07	-45.6	-48.8	15.6	0.00e+00	0	43	0	487587840	63	5017
2026-01-27 11:07:23.71	243.35	31.15	-45.5	-48.6	15.7	0.00e+00	0	43	0	489684992	63	4903
2026-01-27 11:07:24.70	243.67	31.22	-45.5	-48.6	15.7	0.00e+00	0	43	0	490733568	63	4888
2026-01-27 11:07:25.70	244.01	31.29	-45.6	-48.7	15.6	0.00e+00	0	43	0	492830720	62	5272
2026-01-27 11:07:26.69	244.34	31.36	-45.7	-48.9	15.5	0.00e+00	0	43	0	494927872	62	5373
2026-01-27 11:07:27.69	244.68	31.43	-45.7	-49.0	15.4	0.00e+00	0	43	0	497025024	62	5406
2026-01-27 11:07:28.68	245.01	31.50	-45.5	-48.7	15.6	0.00e+00	0	43	0	498073600	62	5251
2026-01-27 11:07:29.68	245.35	31.57	-45.5	-48.8	15.6	0.00e+00	0	43	0	500170752	62	5281
2026-01-27 11:07:30.67	245.69	31.63	-45.4	-48.5	15.8	0.00e+00	0	43	0	502267904	62	5152
2026-01-27 11:07:31.67	246.03	31.70	-45.3	-48.4	16.0	0.00e+00	0	43	0	504365056	62	5049
2026-01-27 11:07:32.66	246.37	31.76	-45.2	-48.2	16.1	0.00e+00	0	43	0	506462208	62	4973
2026-01-27 11:07:33.66	246.72	31.83	-45.3	-48.3	16.1	0.00e+00	0	43	0	507510784	62	5027
2026-01-27 11:07:34.65	247.06	31.89	-45.5	-48.7	15.7	0.00e+00	0	43	0	509607936	62	5246
2026-01-27 11:07:35.65	247.41	31.95	-45.7	-49.0	15.4	0.00e+00	0	43	0	511705088	62	5423
2026-01-27 11:07:36.64	247.75	32.01	-45.9	-49.4	15.0	7.00e-07	0	43	0	513802240	62	5664
2026-01-27 11:07:37.63	248.10	32.07	-45.9	-49.3	15.1	0.00e+00	0	43	0	514850816	62	5645
2026-01-27 11:07:38.63	248.45	32.13	-45.8	-49.0	15.3	0.00e+00	0	43	0	516947968	62	5452
2026-01-27 11:07:39.62	248.80	32.19	-45.5	-48.6	15.7	0.00e+00	0	43	0	519045120	62	5185
2026-01-27 11:07:40.62	249.15	32.24	-45.1	-48.1	16.3	0.00e+00	0	43	0	521142272	62	4896
2026-01-27 11:07:41.61	249.50	32.30	-45.0	-48.0	16.4	0.00e+00	0	43	0	523239424	62	4831
2026-01-27 11:07:42.61	249.86	32.35	-45.1	-48.1	16.3	0.00e+00	0	43	0	524288000	62	4885
2026-01-27 11:07:43.60	250.21	32.41	-45.3	-48.4	16.0	0.00e+00	0	43	0	526385152	62	5082
2026-01-27 11:07:44.60	250.57	32.46	-45.5	-48.6	15.8	0.00e+00	0	43	0	528482304	62	5196
2026-01-27 11:07:45.59	250.93	32.51	-45.4	-48.5	15.8	0.00e+00	0	43	0	530579456	62	5139
2026-01-27 11:07:46.59	251.29	32.56	-45.5	-48.5	15.9	0.00e+00	0	43	0	531628032	62	5138
2026-01-27 11:07:47.58	251.65	32.61	-45.5	-48.6	15.8	0.00e+00	0	43	0	533725184	62	5205
2026-01-27 11:07:48.58	252.01	32.66	-45.5	-48.6	15.8	0.00e+00	0	43	0	535822336	62	5215
2026-01-27 11:07:49.57	252.37	32.70	-45.7	-48.9	15.4	0.00e+00	0	43	0	537919488	62	5376
2026-01-27 11:07:50.57	252.74	32.75	-45.7	-49.0	15.4	0.00e+00	0	43	0	540016640	62	5412
2026-01-27 11:07:51.56	253.10	32.79	-45.9	-49.4	15.0	0.00e+00	0	43	0	541065216	62	5680
2026-01-27 11:07:52.56	253.47	32.84	-46.1	-49.6	14.8	0.00e+00	0	43	0	543162368	62	5800
2026-01-27 11:07:53.56	253.83	32.88	-46.1	-49.6	14.8	0.00e+00	0	43	0	545259520	63	5478
2026-01-27 11:07:54.55	254.20	32.92	-46.0	-49.4	14.9	0.00e+00	0	43	0	547356672	63	5399
2026-01-27 11:07:55.55	254.57	32.96	-46.0	-49.3	15.1	0.00e+00	0	43	0	548405248	63	5313
2026-01-27 11:07:56.54	254.93	32.99	-45.8	-49.0	15.4	0.00e+00	0	43	0	550502400	63	5127
2026-01-27 11:07:57.54	255.31	33.03	-45.7	-48.9	15.5	0.00e+00	0	43	0	552599552	63	5065
2026-01-27 11:07:58.53	255.67	33.07	-45.7	-48.8	15.5	0.00e+00	0	43	0	554696704	63	5034
2026-01-27 11:07:59.53	256.05	33.10	-45.9	-49.2	15.1	0.00e+00	0	43	0	556793856	63	5239
2026-01-27 11:08:00.53	256.42	33.13	-46.1	-49.5	14.9	0.00e+00	0	43	0	557842432	63	5440
2026-01-27 11:08:01.52	256.79	33.17	-46.1	-49.5	14.9	0.00e+00	0	43	0	559939584	63	5418
2026-01-27 11:08:02.52	257.17	33.20	-45.9	-49.2	15.1	0.00e+00	0	43	0	562036736	63	5271
2026-01-27 11:08:03.51	257.54	33.23	-45.8	-49.0	15.3	0.00e+00	0	43	0	564133888	63	5156
2026-01-27 11:08:04.51	257.91	33.25	-45.5	-48.6	15.8	0.00e+00	0	43	0	566231040	62	5160
2026-01-27 11:08:05.50	258.29	33.28	-45.3	-48.4	16.0	0.00e+00	0	43	0	567279616	62	5094
2026-01-27 11:08:06.50	258.66	33.30	-45.4	-48.6	15.8	0.00e+00	0	43	0	569376768	62	5177
2026-01-27 11:08:07.49	259.04	33.33	-45.7	-49.0	15.4	0.00e+00	0	43	0	571473920	62	5431
2026-01-27 11:08:08.49	259.42	33.35	-46.1	-49.5	14.9	0.00e+00	0	43	0	573571072	62	5736
2026-01-27 11:08:09.48	259.79	33.37	-46.2	-49.7	14.7	7.00e-07	0	43	0	574619648	63	5532
2026-01-27 11:08:10.47	260.17	33.39	-46.2	-49.7	14.6	0.00e+00	0	43	0	576716800	63	5564
2026-01-27 11:08:11.47	260.55	33.41	-46.0	-49.6	14.8	0.00e+00	0	43	0	578813952	63	5477
2026-01-27 11:08:12.46	260.92	33.43	-46.0	-49.5	15.0	0.00e+00	0	43	0	580911104	63	5410
2026-01-27 11:08:13.46	261.30	33.44	-46.0	-49.4	15.0	7.00e-07	0	43	0	583008256	63	5344
2026-01-27 11:08:14.45	261.68	33.46	-46.1	-49.6	14.7	0.00e+00	0	43	0	584056832	63	5508
2026-01-27 11:08:15.45	262.06	33.47	-46.0	-49.5	14.9	0.00e+00	0	43	0	586153984	63	5449
2026-01-27 11:08:16.45	262.44	33.48	-45.9	-49.3	15.0	0.00e+00	0	43	0	588251136	63	5329
2026-01-27 11:08:17.44	262.82	33.49	-45.9	-49.3	15.1	0.00e+00	0	43	0	590348288	63	5305
2026-01-27 11:08:18.44	263.20	33.50	-45.8	-49.2	15.3	0.00e+00	0	43	0	591396864	63	5233
2026-01-27 11:08:19.43	263.58	33.51	-45.6	-48.9	15.5	0.00e+00	0	43	0	593494016	63	5067
2026-01-27 11:08:20.43	263.97	33.51	-45.6	-48.8	15.6	0.00e+00	0	43	0	595591168	63	5027
2026-01-27 11:08:21.42	264.34	33.52	-45.4	-48.6	15.8	0.00e+00	0	43	0	597688320	62	5186
2026-01-27 11:08:22.42	264.73	33.52	-45.4	-48.5	15.9	0.00e+00	0	43	0	599785472	62	5135
2026-01-27 11:08:23.41	265.11	33.52	-45.4	-48.5	15.8	0.00e+00	0	43	0	600834048	62	5150
2026-01-27 11:08:24.41	265.49	33.52	-45.6	-48.8	15.6	0.00e+00	0	43	0	602931200	62	5311
2026-01-27 11:08:25.40	265.87	33.52	-45.8	-49.1	15.3	0.00e+00	0	43	0	605028352	62	5492
2026-01-27 11:08:26.40	266.25	33.52	-45.8	-49.2	15.3	0.00e+00	0	43	0	607125504	62	5537
2026-01-27 11:08:27.39	266.63	33.52	-45.8	-49.0	15.4	0.00e+00	0	43	0	608174080	62	5463
2026-01-27 11:08:28.39	267.01	33.51	-45.9	-49.3	15.1	0.00e+00	0	43	0	610271232	62	5605
2026-01-27 11:08:29.38	267.39	33.51	-45.9	-49.1	15.2	0.00e+00	0	43	0	612368384	62	5525
2026-01-27 11:08:30.38	267.77	33.50	-45.8	-49.1	15.3	0.00e+00	0	43	0	614465536	62	5503
2026-01-27 11:08:31.37	268.15	33.49	-45.7	-48.9	15.5	0.00e+00	0	43	0	616562688	62	5389
2026-01-27 11:08:32.37	268.53	33.48	-45.9	-49.2	15.2	0.00e+00	0	43	0	617611264	62	5585
2026-01-27 11:08:33.36	268.91	33.47	-46.0	-49.4	15.0	0.00e+00	0	43	0	619708416	62	5689
2026-01-27 11:08:34.36	269.29	33.45	-46.0	-49.5	15.0	0.00e+00	0	43	0	621805568	62	5743
2026-01-27 11:08:35.35	269.67	33.44	-45.8	-49.1	15.3	0.00e+00	0	43	0	623902720	62	5501
2026-01-27 11:08:36.35	270.05	33.42	-45.5	-48.7	15.7	0.00e+00	0	43	0	624951296	62	5258
2026-01-27 11:08:37.34	270.42	33.41	-45.1	-48.1	16.3	0.00e+00	0	43	0	627048448	62	4901
2026-01-27 11:08:38.33	270.80	33.39	-45.0	-47.9	16.4	0.00e+00	0	43	0	629145600	62	4794
2026-01-27 11:08:39.33	271.18	33.37	-44.9	-47.8	16.6	0.00e+00	0	43	0	631242752	61	4994
2026-01-27 11:08:40.32	271.55	33.35	-44.7	-47.5	16.8	0.00e+00	0	43	0	633339904	61	4860
2026-01-27 11:08:41.32	271.93	33.32	-44.6	-47.4	17.0	0.00e+00	0	43	0	634388480	61	4796
2026-01-27 11:08:42.31	272.30	33.30	-44.8	-47.7	16.7	0.00e+00	0	43	0	636485632	61	4935
2026-01-27 11:08:43.30	272.68	33.27	-45.3	-48.4	15.9	0.00e+00	0	43	0	638582784	61	5398
2026-01-27 11:08:44.30	273.05	33.25	-45.7	-48.9	15.4	0.00e+00	0	43	0	640679936	62	5399
2026-01-27 11:08:45.29	273.42	33.22	-46.1	-49.5	14.9	0.00e+00	0	43	0	641728512	62	5749
2026-01-27 11:08:46.29	273.80	33.19	-46.0	-49.3	15.1	0.00e+00	0	43	0	643825664	62	5628
2026-01-27 11:08:47.29	274.17	33.16	-46.0	-49.4	15.1	0.00e+00	0	43	0	645922816	62	5669
2026-01-27 11:08:48.28	274.54	33.13	-46.1	-49.5	14.9	0.00e+00	0	43	0	648019968	62	5760
2026-01-27 11:08:49.28	274.92	33.10	-46.2	-49.7	14.7	0.00e+00	0	43	0	650117120	63	5544
2026-01-27 11:08:50.27	275.29	33.06	-46.2	-49.8	14.7	0.00e+00	0	43	0	651165696	63	5594
2026-01-27 11:08:51.27	275.66	33.03	-46.1	-49.6	14.7	0.00e+00	0	43	0	653262848	63	5483
2026-01-27 11:08:52.26	276.02	32.99	-46.2	-49.6	14.7	7.00e-07	0	43	0	655360000	63	5508
2026-01-27 11:08:53.25	276.39	32.95	-46.2	-49.7	14.7	7.00e-07	0	43	0	657457152	63	5587
2026-01-27 11:08:54.25	276.76	32.91	-46.2	-49.7	14.7	0.00e+00	0	43	0	658505728	63	5591
2026-01-27 11:08:55.24	277.12	32.87	-46.0	-49.3	15.0	0.00e+00	0	43	0	660602880	63	5329
2026-01-27 11:08:56.24	277.49	32.83	-46.2	-49.6	14.9	7.00e-07	0	43	0	662700032	63	5465
2026-01-27 11:08:57.23	277.85	32.79	-46.2	-49.6	14.8	0.00e+00	0	43	0	664797184	63	5500
2026-01-27 11:08:58.23	278.22	32.74	-46.3	-49.9	14.5	0.00e+00	0	43	0	666894336	63	5657
2026-01-27 11:08:59.22	278.58	32.70	-46.4	-50.0	14.3	0.00e+00	0	43	0	667942912	63	5783
2026-01-27 11:09:00.21	278.94	32.65	-46.4	-50.0	14.4	0.00e+00	0	43	0	670040064	63	5729
2026-01-27 11:09:01.21	279.30	32.60	-46.4	-50.0	14.3	7.00e-07	0	43	0	672137216	63	5772
2026-01-27 11:09:02.20	279.66	32.55	-46.5	-50.1	14.3	7.00e-07	0	43	0	674234368	63	5820
2026-01-27 11:09:03.20	280.02	32.50	-46.5	-50.1	14.3	7.00e-07	0	43	0	675282944	63	5809
2026-01-27 11:09:04.19	280.37	32.45	-46.5	-50.2	14.2	7.00e-07	0	43	0	677380096	63	5887
2026-01-27 11:09:05.19	280.73	32.40	-46.6	-50.5	13.9	3.80e-06	0	43	0	679477248	64	5726
2026-01-27 11:09:06.19	281.08	32.35	-46.6	-50.5	13.8	5.30e-06	0	43	0	681574400	64	5755
2026-01-27 11:09:07.18	281.44	32.29	-46.6	-50.5	13.8	7.60e-06	0	43	0	683671552	64	5724
2026-01-27 11:09:08.18	281.79	32.24	-46.6	-50.5	13.9	5.30e-06	0	43	0	684720128	64	5741
2026-01-27 11:09:09.17	282.14	32.18	-46.3	-49.9	14.3	2.20e-06	0	43	0	686817280	64	5390
2026-01-27 11:09:10.17	282.49	32.12	-46.0	-49.4	14.9	0.00e+00	0	43	0	688914432	64	5096
2026-01-27 11:09:11.16	282.84	32.06	-45.8	-49.0	15.4	0.00e+00	0	43	0	691011584	63	5117
2026-01-27 11:09:12.16	283.19	32.00	-45.6	-48.7	15.7	0.00e+00	0	43	0	693108736	63	4983
2026-01-27 11:09:13.15	283.53	31.94	-45.6	-48.7	15.7	0.00e+00	0	43	0	694157312	63	4949
2026-01-27 11:09:14.15	283.88	31.88	-45.6	-48.8	15.6	0.00e+00	0	43	0	696254464	63	5017
2026-01-27 11:09:15.14	284.22	31.82	-45.7	-48.9	15.5	0.00e+00	0	43	0	698351616	63	5053
2026-01-27 11:09:16.13	284.56	31.76	-45.8	-49.1	15.3	0.00e+00	0	43	0	700448768	63	5212
2026-01-27 11:09:17.13	284.90	31.69	-45.8	-49.0	15.3	0.00e+00	0	43	0	701497344	63	5149
2026-01-27 11:09:18.12	285.24	31.63	-45.9	-49.1	15.2	0.00e+00	0	43	0	703594496	63	5214
2026-01-27 11:09:19.11	285.58	31.56	-45.9	-49.2	15.2	0.00e+00	0	43	0	705691648	63	5236
2026-01-27 11:09:20.11	285.91	31.49	-45.9	-49.2	15.1	0.00e+00	0	43	0	707788800	63	5277
2026-01-27 11:09:21.11	286.25	31.42	-45.9	-49.2	15.1	0.00e+00	0	43	0	709885952	63	5278
2026-01-27 11:09:22.10	286.58	31.35	-46.0	-49.3	15.0	0.00e+00	0	43	0	710934528	63	5334
2026-01-27 11:09:23.09	286.91	31.29	-45.8	-49.1	15.2	0.00e+00	0	43	0	713031680	63	5218
2026-01-27 11:09:24.09	287.25	31.21	-45.7	-49.0	15.4	0.00e+00	0	43	0	715128832	63	5113
2026-01-27 11:09:25.09	287.58	31.14	-45.7	-48.9	15.5	0.00e+00	0	43	0	717225984	63	5056
2026-01-27 11:09:26.08	287.90	31.07	-45.6	-48.8	15.6	0.00e+00	0	43	0	718274560	63	4996
2026-01-27 11:09:27.08	288.23	31.00	-45.5	-48.6	15.8	0.00e+00	0	43	0	720371712	63	4897
2026-01-27 11:09:28.07	288.56	30.92	-45.5	-48.6	15.8	0.00e+00	0	43	0	722468864	62	5188
2026-01-27 11:09:29.06	288.88	30.85	-45.3	-48.4	16.0	0.00e+00	0	43	0	724566016	62	5070
2026-01-27 11:09:30.06	289.20	30.77	-45.3	-48.3	16.0	0.00e+00	0	43	0	726663168	62	5041
2026-01-27 11:09:31.05	289.52	30.69	-45.4	-48.6	15.8	0.00e+00	0	43	0	727711744	62	5168
2026-01-27 11:09:32.05	289.84	30.62	-45.6	-48.8	15.5	0.00e+00	0	43	0	729808896	62	5317
2026-01-27 11:09:33.04	290.16	30.54	-46.0	-49.4	15.0	0.00e+00	0	43	0	731906048	62	5687
2026-01-27 11:09:34.04	290.47	30.46	-46.3	-49.9	14.5	0.00e+00	0	43	0	734003200	63	5664
2026-01-27 11:09:35.04	290.79	30.38	-46.4	-50.0	14.3	7.00e-07	0	43	0	735051776	63	5784
2026-01-27 11:09:36.03	291.10	30.30	-46.4	-50.0	14.3	7.00e-07	0	43	0	737148928	63	5761
2026-01-27 11:09:37.03	291.42	30.22	-46.1	-49.6	14.8	0.00e+00	0	43	0	739246080	63	5490
2026-01-27 11:09:38.02	291.72	30.14	-45.9	-49.3	15.1	0.00e+00	0	43	0	741343232	63	5308
2026-01-27 11:09:39.01	292.03	30.06	-45.7	-49.1	15.3	0.00e+00	0	43	0	743440384	63	5186
2026-01-27 11:09:40.01	292.34	29.97	-45.6	-48.8	15.6	0.00e+00	0	43	0	744488960	63	5036
2026-01-27 11:09:41.01	292.65	29.89	-45.5	-48.7	15.6	0.00e+00	0	44	0	746586112	63	4979
2026-01-27 11:09:42.00	292.95	29.80	-45.5	-48.8	15.6	0.00e+00	0	43	0	748683264	63	4991
2026-01-27 11:09:42.99	293.25	29.72	-45.6	-48.9	15.5	0.00e+00	0	43	0	750780416	63	5061
2026-01-27 11:09:43.99	293.55	29.63	-45.7	-49.0	15.4	0.00e+00	0	43	0	751828992	63	5139
2026-01-27 11:09:44.99	293.85	29.55	-45.8	-49.2	15.2	0.00e+00	0	43	0	753926144	63	5232
2026-01-27 11:09:45.98	294.15	29.46	-45.9	-49.3	15.1	0.00e+00	0	43	0	756023296	63	5309
2026-01-27 11:09:46.97	294.44	29.38	-45.9	-49.3	15.1	0.00e+00	0	43	0	758120448	63	5299
2026-01-27 11:09:47.97	294.74	29.29	-46.1	-49.5	14.8	0.00e+00	0	43	0	760217600	63	5464
2026-01-27 11:09:48.96	295.03	29.20	-46.2	-49.8	14.6	0.00e+00	0	43	0	761266176	63	5626
2026-01-27 11:09:49.96	295.32	29.11	-46.4	-50.0	14.4	7.00e-07	0	43	0	763363328	63	5747
2026-01-27 11:09:50.95	295.61	29.02	-46.4	-50.1	14.3	7.00e-07	0	43	0	765460480	63	5843
2026-01-27 11:09:51.95	295.90	28.93	-46.3	-49.9	14.5	7.00e-07	0	43	0	767557632	63	5716
2026-01-27 11:09:52.94	296.18	28.84	-46.2	-49.6	14.8	0.00e+00	0	43	0	768606208	63	5506
2026-01-27 11:09:53.94	296.47	28.75	-46.2	-49.7	14.7	0.00e+00	0	43	0	770703360	63	5542
2026-01-27 11:09:54.93	296.75	28.66	-46.2	-49.6	14.8	0.00e+00	0	43	0	772800512	63	5494
2026-01-27 11:09:55.92	297.03	28.57	-45.9	-49.2	15.1	0.00e+00	0	43	0	774897664	63	5278
2026-01-27 11:09:56.92	297.31	28.48	-45.5	-48.7	15.7	0.00e+00	0	43	0	776994816	63	4945
2026-01-27 11:09:57.92	297.59	28.39	-45.2	-48.3	16.1	0.00e+00	0	43	0	778043392	62	5003
2026-01-27 11:09:58.91	297.87	28.29	-45.0	-48.0	16.4	0.00e+00	0	43	0	780140544	62	4816
2026-01-27 11:09:59.90	298.14	28.20	-44.7	-47.6	16.7	0.00e+00	0	43	0	782237696	61	4923
2026-01-27 11:10:00.90	298.42	28.11	-44.6	-47.5	16.9	0.00e+00	0	43	0	784334848	61	4828
2026-01-27 11:10:01.89	298.69	28.01	-44.6	-47.4	16.9	0.00e+00	0	43	0	785383424	61	4796
2026-01-27 11:10:02.89	298.96	27.92	-44.7	-47.5	16.8	0.00e+00	0	43	0	787480576	61	4868
2026-01-27 11:10:03.88	299.23	27.82	-44.7	-47.6	16.7	0.00e+00	0	43	0	789577728	61	4913
2026-01-27 11:10:04.88	299.50	27.73	-44.8	-47.8	16.5	0.00e+00	0	43	0	791674880	61	5033
2026-01-27 11:10:05.87	299.76	27.63	-45.0	-48.0	16.4	0.00e+00	0	43	0	793772032	61	5141
2026-01-27 11:10:06.87	300.03	27.54	-45.1	-48.3	16.1	0.00e+00	0	43	0	794820608	61	5284
2026-01-27 11:10:07.86	300.29	27.44	-45.3	-48.5	15.8	0.00e+00	0	43	0	796917760	61	5433
2026-01-27 11:10:08.86	300.55	27.35	-45.5	-48.8	15.6	0.00e+00	0	43	0	799014912	61	5601
2026-01-27 11:10:09.85	300.81	27.25	-45.7	-49.0	15.3	0.00e+00	0	43	0	801112064	62	5462
2026-01-27 11:10:10.84	301.07	27.15	-45.7	-49.1	15.3	0.00e+00	0	43	0	802160640	62	5496
2026-01-27 11:10:11.84	301.32	27.06	-45.5	-48.7	15.6	0.00e+00	0	43	0	804257792	62	5269
2026-01-27 11:10:12.83	301.58	26.96	-45.0	-48.0	16.3	0.00e+00	0	43	0	806354944	62	4845
2026-01-27 11:10:13.83	301.83	26.86	-44.6	-47.4	16.9	0.00e+00	0	43	0	808452096	61	4783
2026-01-27 11:10:14.83	302.09	26.76	-44.5	-47.3	17.0	0.00e+00	0	43	0	810549248	61	4736
2026-01-27 11:10:15.82	302.33	26.67	-44.3	-47.1	17.2	0.00e+00	0	43	0	811597824	60	4883
2026-01-27 11:10:16.81	302.58	26.57	-44.6	-47.4	16.9	0.00e+00	0	43	0	813694976	60	5092
2026-01-27 11:10:17.81	302.83	26.47	-44.8	-47.7	16.7	0.00e+00	0	43	0	815792128	60	5234
2026-01-27 11:10:18.81	303.08	26.37	-44.9	-47.8	16.6	0.00e+00	0	43	0	817889280	60	5299
2026-01-27 11:10:19.80	303.32	26.27	-44.6	-47.4	16.9	0.00e+00	0	43	0	818937856	60	5059
2026-01-27 11:10:20.80	303.57	26.17	-44.2	-46.8	17.5	0.00e+00	0	43	0	821035008	60	4740
2026-01-27 11:10:21.79	303.81	26.08	-44.0	-46.6	17.7	0.00e+00	0	43	0	823132160	60	4616
2026-01-27 11:10:22.78	304.04	25.98	-44.1	-46.6	17.6	0.00e+00	0	43	0	825229312	60	4644
2026-01-27 11:10:23.78	304.28	25.88	-44.4	-47.1	17.2	0.00e+00	0	43	0	827326464	60	4917
2026-01-27 11:10:24.77	304.52	25.78	-44.9	-47.8	16.5	0.00e+00	0	43	0	828375040	60	5307
2026-01-27 11:10:25.76	304.75	25.68	-45.6	-48.8	15.5	0.00e+00	0	43	0	830472192	61	5656
2026-01-27 11:10:26.76	304.99	25.58	-46.2	-49.7	14.7	0.00e+00	0	43	0	832569344	62	5878
2026-01-27 11:10:27.75	305.22	25.48	-46.1	-49.6	14.7	0.00e+00	0	43	0	834666496	63	5506
2026-01-27 11:10:28.75	305.45	25.38	-45.7	-49.0	15.3	7.00e-07	0	43	0	835715072	63	5116
2026-01-27 11:10:29.74	305.68	25.28	-45.0	-48.0	16.4	0.00e+00	0	43	0	837812224	62	4819
2026-01-27 11:10:30.74	305.91	25.18	-44.5	-47.3	17.0	0.00e+00	0	43	0	839909376	61	4713
2026-01-27 11:10:31.73	306.14	25.08	-44.4	-47.1	17.2	0.00e+00	0	43	0	842006528	60	4917
2026-01-27 11:10:32.73	306.36	24.98	-44.6	-47.4	17.0	0.00e+00	0	43	0	844103680	60	5060
2026-01-27 11:10:33.72	306.59	24.88	-44.9	-47.9	16.4	0.00e+00	0	43	0	845152256	60	5354
2026-01-27 11:10:34.71	306.81	24.78	-45.2	-48.2	16.1	0.00e+00	0	43	0	847249408	60	5567
2026-01-27 11:10:35.71	307.03	24.68	-45.1	-48.1	16.2	0.00e+00	0	43	0	849346560	61	5211
2026-01-27 11:10:36.70	307.25	24.58	-44.6	-47.5	16.8	0.00e+00	0	43	0	851443712	61	4829
2026-01-27 11:10:37.70	307.47	24.48	-44.3	-46.9	17.3	0.00e+00	0	43	0	852492288	60	4810
2026-01-27 11:10:38.69	307.69	24.38	-44.1	-46.7	17.6	0.00e+00	0	43	0	854589440	60	4693
2026-01-27 11:10:39.69	307.90	24.28	-43.9	-46.5	17.7	0.00e+00	0	43	0	856686592	59	4832
2026-01-27 11:10:40.68	308.12	24.18	-44.2	-46.8	17.5	0.00e+00	0	43	0	858783744	59	5001
2026-01-27 11:10:41.68	308.33	24.08	-44.4	-47.1	17.1	0.00e+00	0	43	0	860880896	59	5218
2026-01-27 11:10:42.67	308.54	23.98	-44.8	-47.6	16.7	0.00e+00	0	43	0	861929472	60	5206
2026-01-27 11:10:43.67	308.75	23.87	-44.8	-47.7	16.6	0.00e+00	0	43	0	864026624	60	5274
2026-01-27 11:10:44.66	308.96	23.77	-44.7	-47.5	16.7	0.00e+00	0	43	0	866123776	60	5123
2026-01-27 11:10:45.66	309.17	23.67	-44.4	-47.1	17.2	0.00e+00	0	43	0	868220928	60	4887
2026-01-27 11:10:46.65	309.38	23.57	-43.9	-46.5	17.7	0.00e+00	0	43	0	869269504	59	4822
2026-01-27 11:10:47.65	309.58	23.47	-43.7	-46.2	18.0	0.00e+00	0	43	0	871366656	59	4659
2026-01-27 11:10:48.64	309.79	23.37	-43.8	-46.4	17.8	0.00e+00	0	43	0	873463808	59	4778
2026-01-27 11:10:49.64	309.99	23.27	-44.3	-47.0	17.3	0.00e+00	0	43	0	875560960	59	5109
2026-01-27 11:10:50.63	310.19	23.17	-44.6	-47.4	16.8	0.00e+00	0	43	0	877658112	59	5362
2026-01-27 11:10:51.63	310.39	23.07	-44.8	-47.7	16.6	0.00e+00	0	43	0	878706688	60	5266
2026-01-27 11:10:52.62	310.59	22.97	-44.7	-47.7	16.6	0.00e+00	0	43	0	880803840	60	5243
2026-01-27 11:10:53.62	310.79	22.87	-44.6	-47.6	16.7	0.00e+00	0	43	0	882900992	60	5180
2026-01-27 11:10:54.61	310.98	22.77	-44.3	-47.1	17.1	0.00e+00	0	43	0	884998144	60	4913
2026-01-27 11:10:55.60	311.18	22.67	-44.1	-47.0	17.2	0.00e+00	0	43	0	887095296	60	4847
2026-01-27 11:10:56.60	311.37	22.57	-43.9	-46.7	17.5	0.00e+00	0	43	0	888143872	59	4945
2026-01-27 11:10:57.59	311.56	22.47	-43.9	-46.7	17.5	0.00e+00	0	43	0	890241024	59	4955
2026-01-27 11:10:58.59	311.76	22.37	-43.8	-46.5	17.7	0.00e+00	0	43	0	892338176	59	4843
2026-01-27 11:10:59.58	311.95	22.27	-43.6	-46.3	17.9	0.00e+00	0	43	0	894435328	59	4723
2026-01-27 11:11:00.58	312.14	22.17	-43.7	-46.4	17.7	0.00e+00	0	43	0	895483904	59	4811
2026-01-27 11:11:01.57	312.32	22.07	-43.7	-46.4	17.8	0.00e+00	0	43	0	897581056	59	4784
2026-01-27 11:11:02.56	312.51	21.97	-43.6	-46.2	17.9	0.00e+00	0	43	0	899678208	59	4674
2026-01-27 11:11:03.56	312.70	21.87	-43.6	-46.1	18.0	0.00e+00	0	43	0	901775360	59	4633
2026-01-27 11:11:04.55	312.88	21.77	-43.5	-46.1	18.1	0.00e+00	0	43	0	903872512	59	4605
2026-01-27 11:11:05.55	313.06	21.67	-43.3	-45.7	18.4	0.00e+00	0	43	0	904921088	58	4701
2026-01-27 11:11:06.55	313.25	21.57	-43.3	-45.7	18.5	0.00e+00	0	43	0	907018240	58	4689
2026-01-27 11:11:07.54	313.43	21.47	-43.4	-45.8	18.3	0.00e+00	0	43	0	909115392	58	4755
2026-01-27 11:11:08.53	313.61	21.37	-43.6	-46.1	18.0	0.00e+00	0	44	0	911212544	58	4919
2026-01-27 11:11:09.53	313.79	21.28	-43.8	-46.4	17.8	0.00e+00	0	43	0	912261120	58	5078
2026-01-27 11:11:10.52	313.96	21.18	-43.9	-46.4	17.7	0.00e+00	0	43	0	914358272	58	5095
2026-01-27 11:11:11.52	314.14	21.08	-43.6	-46.1	18.0	0.00e+00	0	43	0	916455424	58	4926
2026-01-27 11:11:12.51	314.32	20.98	-43.5	-46.0	18.1	0.00e+00	0	43	0	918552576	58	4843
2026-01-27 11:11:13.50	314.49	20.88	-43.4	-45.9	18.2	0.00e+00	0	43	0	920649728	58	4793
2026-01-27 11:11:14.50	314.66	20.78	-43.2	-45.7	18.5	0.00e+00	0	43	0	921698304	58	4661
2026-01-27 11:11:15.50	314.84	20.68	-43.1	-45.6	18.5	0.00e+00	0	43	0	923795456	58	4634
2026-01-27 11:11:16.49	315.01	20.59	-42.9	-45.4	18.7	0.00e+00	0	43	0	925892608	57	4777
2026-01-27 11:11:17.49	315.18	20.49	-43.0	-45.4	18.7	0.00e+00	0	43	0	927989760	57	4801
2026-01-27 11:11:18.48	315.35	20.39	-43.0	-45.4	18.7	0.00e+00	0	43	0	929038336	57	4800
2026-01-27 11:11:19.48	315.51	20.29	-42.9	-45.4	18.7	0.00e+00	0	43	0	931135488	57	4783
2026-01-27 11:11:20.47	315.68	20.20	-42.9	-45.3	18.7	0.00e+00	0	43	0	933232640	57	4758
2026-01-27 11:11:21.46	315.85	20.10	-42.9	-45.3	18.8	0.00e+00	0	43	0	935329792	57	4734
2026-01-27 11:11:22.46	316.01	20.00	-42.9	-45.3	18.7	0.00e+00	0	43	0	937426944	57	4752
2026-01-27 11:11:23.45	316.17	19.90	-43.0	-45.4	18.7	0.00e+00	0	43	0	938475520	57	4774
2026-01-27 11:11:24.45	316.34	19.81	-42.7	-45.0	19.0	0.00e+00	0	43	0	940572672	57	4598
2026-01-27 11:11:25.44	316.50	19.71	-42.7	-45.0	19.0	0.00e+00	0	43	0	942669824	57	4560
2026-01-27 11:11:26.44	316.66	19.61	-42.7	-45.0	19.0	0.00e+00	0	43	0	944766976	57	4561
2026-01-27 11:11:27.43	316.82	19.52	-42.7	-45.0	19.0	0.00e+00	0	43	0	945815552	57	4589
2026-01-27 11:11:28.43	316.98	19.42	-42.6	-45.0	19.0	0.00e+00	0	43	0	947912704	57	4552
2026-01-27 11:11:29.42	317.14	19.32	-42.7	-45.1	18.9	0.00e+00	0	43	0	950009856	57	4628
2026-01-27 11:11:30.42	317.30	19.23	-42.8	-45.3	18.7	0.00e+00	0	43	0	952107008	57	4711
2026-01-27 11:11:31.41	317.45	19.13	-42.9	-45.3	18.7	0.00e+00	0	43	0	954204160	57	4759
2026-01-27 11:11:32.41	317.61	19.04	-42.9	-45.4	18.6	0.00e+00	0	43	0	955252736	57	4793
2026-01-27 11:11:33.40	317.76	18.94	-42.9	-45.6	18.5	0.00e+00	0	43	0	957349888	57	4873
2026-01-27 11:11:34.39	317.91	18.85	-42.9	-45.5	18.5	0.00e+00	0	43	0	959447040	57	4853
2026-01-27 11:11:35.39	318.07	18.75	-43.0	-45.7	18.4	0.00e+00	0	43	0	961544192	57	4934
2026-01-27 11:11:36.38	318.22	18.66	-42.9	-45.6	18.5	0.00e+00	0	43	0	962592768	57	4871
2026-01-27 11:11:37.38	318.37	18.56	-42.9	-45.5	18.5	0.00e+00	0	43	0	964689920	57	4863
2026-01-27 11:11:38.37	318.52	18.47	-42.9	-45.4	18.6	0.00e+00	0	43	0	966787072	57	4814
2026-01-27 11:11:39.37	318.67	18.37	-42.9	-45.5	18.6	0.00e+00	0	43	0	968884224	57	4827
2026-01-27 11:11:40.36	318.81	18.28	-42.9	-45.4	18.6	0.00e+00	0	43	0	970981376	57	4806
2026-01-27 11:11:41.36	318.96	18.18	-42.9	-45.4	18.7	0.00e+00	0	43	0	972029952	57	4765
2026-01-27 11:11:42.35	319.11	18.09	-42.8	-45.2	18.8	0.00e+00	0	43	0	974127104	57	4673
2026-01-27 11:11:43.35	319.25	18.00	-42.9	-45.4	18.6	0.00e+00	0	43	0	976224256	57	4766
2026-01-27 11:11:44.34	319.40	17.90	-42.9	-45.3	18.6	0.00e+00	0	43	0	978321408	57	4758
2026-01-27 11:11:45.33	319.54	17.81	-43.0	-45.4	18.6	0.00e+00	0	43	0	979369984	57	4808
2026-01-27 11:11:46.33	319.68	17.72	-43.1	-45.7	18.3	0.00e+00	0	43	0	981467136	57	4947
2026-01-27 11:11:47.32	319.82	17.63	-43.2	-45.8	18.3	0.00e+00	0	43	0	983564288	57	4999
2026-01-27 11:11:48.32	319.96	17.53	-43.3	-46.0	18.1	0.00e+00	0	43	0	985661440	57	5108
2026-01-27 11:11:49.31	320.10	17.44	-43.4	-46.1	18.0	0.00e+00	0	43	0	987758592	57	5161
2026-01-27 11:11:50.31	320.24	17.35	-43.4	-46.1	17.9	0.00e+00	0	43	0	988807168	57	5169
2026-01-27 11:11:51.30	320.38	17.26	-43.4	-46.1	17.9	0.00e+00	0	43	0	990904320	57	5175
2026-01-27 11:11:52.30	320.52	17.16	-43.3	-46.0	18.0	0.00e+00	0	43	0	993001472	57	5105
2026-01-27 11:11:53.29	320.66	17.07	-43.3	-46.0	18.0	0.00e+00	0	43	0	995098624	57	5129
2026-01-27 11:11:54.29	320.79	16.98	-43.3	-45.9	18.1	0.00e+00	0	43	0	996147200	57	5091
2026-01-27 11:11:55.28	320.93	16.89	-43.3	-46.0	18.0	0.00e+00	0	43	0	998244352	57	5115
2026-01-27 11:11:56.28	321.06	16.80	-43.4	-46.1	17.9	0.00e+00	0	43	0	1000341504	57	5175
2026-01-27 11:11:57.27	321.19	16.71	-43.3	-46.0	18.0	0.00e+00	0	43	0	1002438656	57	5133
2026-01-27 11:11:58.27	321.33	16.62	-43.5	-46.2	17.8	0.00e+00	0	43	0	1004535808	57	5268
2026-01-27 11:11:59.26	321.46	16.53	-43.6	-46.3	17.7	0.00e+00	0	43	0	1005584384	57	5331
2026-01-27 11:12:00.25	321.59	16.44	-43.7	-46.5	17.6	0.00e+00	0	43	0	1007681536	58	5101
2026-01-27 11:12:01.25	321.72	16.34	-43.8	-46.6	17.5	0.00e+00	0	43	0	1009778688	58	5161
2026-01-27 11:12:02.24	321.85	16.26	-43.8	-46.6	17.4	0.00e+00	0	43	0	1011875840	58	5206
2026-01-27 11:12:03.24	321.98	16.16	-43.9	-46.8	17.3	0.00e+00	0	43	0	1012924416	58	5307
2026-01-27 11:12:04.23	322.11	16.08	-43.9	-46.7	17.2	0.00e+00	0	43	0	1015021568	58	5271
2026-01-27 11:12:05.22	322.23	15.99	-43.7	-46.5	17.5	0.00e+00	0	43	0	1017118720	58	5124
2026-01-27 11:12:06.22	322.36	15.90	-43.8	-46.6	17.4	0.00e+00	0	43	0	1019215872	58	5178
2026-01-27 11:12:07.21	322.49	15.81	-43.8	-46.6	17.4	0.00e+00	0	43	0	1021313024	58	5188
2026-01-27 11:12:08.21	322.61	15.72	-43.9	-46.7	17.4	0.00e+00	0	43	0	1022361600	58	5220
2026-01-27 11:12:09.20	322.74	15.63	-44.1	-46.8	17.1	0.00e+00	0	43	0	1024458752	59	5039
2026-01-27 11:12:10.20	322.86	15.54	-44.2	-46.9	17.1	0.00e+00	0	43	0	1026555904	59	5060
2026-01-27 11:12:11.19	322.98	15.45	-44.3	-47.0	17.0	0.00e+00	0	43	0	1028653056	59	5148
2026-01-27 11:12:12.18	323.11	15.37	-44.4	-47.2	16.8	0.00e+00	0	43	0	1029701632	59	5259
2026-01-27 11:12:13.18	323.23	15.28	-44.4	-47.2	16.8	0.00e+00	0	43	0	1031798784	59	5260
2026-01-27 11:12:14.18	323.35	15.19	-44.6	-47.4	16.6	0.00e+00	0	43	0	1033895936	59	5399
2026-01-27 11:12:15.17	323.47	15.10	-44.5	-47.4	16.6	0.00e+00	0	43	0	1035993088	59	5360
2026-01-27 11:12:16.16	323.59	15.02	-44.6	-47.5	16.5	0.00e+00	0	43	0	1038090240	59	5457
2026-01-27 11:12:17.16	323.71	14.93	-44.8	-47.9	16.2	0.00e+00	0	43	0	1039138816	60	5373
2026-01-27 11:12:18.15	323.83	14.84	-44.7	-47.8	16.3	0.00e+00	0	43	0	1041235968	60	5295
2026-01-27 11:12:19.15	323.95	14.76	-44.6	-47.7	16.4	0.00e+00	0	43	0	1043333120	60	5238
2026-01-27 11:12:20.14	324.06	14.67	-44.5	-47.6	16.4	0.00e+00	0	43	0	1045430272	60	5204
2026-01-27 11:12:21.13	324.18	14.58	-44.4	-47.6	16.4	0.00e+00	0	43	0	1046478848	60	5186
2026-01-27 11:12:22.13	324.29	14.50	-44.4	-47.7	16.3	0.00e+00	0	43	0	1048576000	60	5247
2026-01-27 11:12:23.12	324.41	14.41	-44.3	-47.6	16.4	0.00e+00	0	43	0	1050673152	60	5201
2026-01-27 11:12:24.12	324.52	14.33	-44.2	-47.6	16.4	0.00e+00	0	43	0	1052770304	60	5188
2026-01-27 11:12:25.11	324.64	14.24	-44.1	-47.5	16.5	0.00e+00	0	43	0	1054867456	60	5127
2026-01-27 11:12:26.11	324.75	14.16	-44.0	-47.3	16.7	0.00e+00	0	43	0	1055916032	59	5303
2026-01-27 11:12:27.10	324.86	14.07	-44.0	-47.4	16.6	0.00e+00	0	43	0	1058013184	59	5346
2026-01-27 11:12:28.10	324.98	13.99	-43.9	-47.2	16.7	0.00e+00	0	43	0	1060110336	59	5246
2026-01-27 11:12:29.09	325.09	13.90	-43.8	-47.1	16.9	0.00e+00	0	43	0	1062207488	59	5161
2026-01-27 11:12:30.09	325.20	13.82	-43.8	-47.0	17.0	0.00e+00	0	43	0	1063256064	59	5110
2026-01-27 11:12:31.08	325.31	13.73	-43.7	-46.8	17.2	0.00e+00	0	43	0	1065353216	59	5009
2026-01-27 11:12:32.08	325.42	13.65	-43.8	-46.9	17.0	0.00e+00	0	43	0	1067450368	59	5082
2026-01-27 11:12:33.07	325.53	13.57	-43.9	-47.0	17.0	0.00e+00	0	43	0	1069547520	59	5114
2026-01-27 11:12:34.07	325.64	13.48	-44.0	-47.1	16.8	0.00e+00	0	43	0	1071644672	59	5177
2026-01-27 11:12:35.06	325.74	13.40	-44.0	-47.1	16.8	0.00e+00	0	43	0	1072693248	59	5191
2026-01-27 11:12:36.06	325.85	13.32	-44.2	-47.4	16.6	0.00e+00	0	43	0	1074790400	59	5352
2026-01-27 11:12:37.05	325.96	13.23	-44.2	-47.4	16.5	0.00e+00	0	43	0	1076887552	59	5390
2026-01-27 11:12:38.05	326.06	13.15	-44.4	-47.6	16.3	0.00e+00	0	43	0	1078984704	59	5528
2026-01-27 11:12:39.04	326.17	13.07	-44.5	-47.8	16.1	0.00e+00	0	43	0	1080033280	59	5642
2026-01-27 11:12:40.03	326.27	12.99	-44.4	-47.7	16.2	0.00e+00	0	43	0	1082130432	59	5556
2026-01-27 11:12:41.03	326.38	12.90	-44.5	-47.8	16.1	0.00e+00	0	43	0	1084227584	59	5645
2026-01-27 11:12:42.02	326.48	12.82	-44.4	-47.6	16.3	0.00e+00	0	43	0	1086324736	59	5517
2026-01-27 11:12:43.02	326.59	12.74	-44.5	-47.7	16.2	0.00e+00	0	43	0	1088421888	59	5537
2026-01-27 11:12:44.01	326.69	12.66	-44.4	-47.6	16.4	0.00e+00	0	43	0	1089470464	59	5466
2026-01-27 11:12:45.01	326.79	12.58	-44.1	-47.1	16.8	0.00e+00	0	43	0	1091567616	59	5216
2026-01-27 11:12:46.00	326.89	12.49	-44.2	-47.2	16.7	0.00e+00	0	43	0	1093664768	59	5246
2026-01-27 11:12:47.00	326.99	12.41	-44.1	-47.1	16.8	0.00e+00	0	43	0	1095761920	59	5169
2026-01-27 11:12:47.99	327.09	12.33	-44.1	-46.9	16.9	0.00e+00	0	43	0	1096810496	59	5090
2026-01-27 11:12:48.99	327.19	12.25	-44.1	-46.9	16.9	0.00e+00	0	43	0	1098907648	59	5092
2026-01-27 11:12:49.98	327.29	12.17	-43.9	-46.7	17.2	0.00e+00	0	43	0	1101004800	59	4945
2026-01-27 11:12:50.98	327.39	12.09	-43.9	-46.6	17.3	0.00e+00	0	43	0	1103101952	59	4908
2026-01-27 11:12:51.97	327.49	12.01	-43.9	-46.6	17.3	0.00e+00	0	43	0	1105199104	59	4911
2026-01-27 11:12:52.97	327.59	11.93	-43.9	-46.7	17.2	0.00e+00	0	43	0	1106247680	59	4958
2026-01-27 11:12:53.96	327.69	11.85	-44.0	-46.8	17.1	0.00e+00	0	43	0	1108344832	59	5005
2026-01-27 11:12:54.96	327.78	11.77	-43.9	-46.7	17.1	0.00e+00	0	43	0	1110441984	59	4981
2026-01-27 11:12:55.95	327.88	11.69	-44.1	-46.9	16.9	0.00e+00	0	43	0	1112539136	59	5098
2026-01-27 11:12:56.94	327.98	11.61	-44.2	-47.2	16.7	0.00e+00	0	43	0	1113587712	59	5256
2026-01-27 11:12:57.94	328.07	11.53	-44.2	-47.2	16.7	0.00e+00	0	43	0	1115684864	59	5255
2026-01-27 11:12:58.93	328.17	11.46	-44.2	-47.2	16.6	0.00e+00	0	43	0	1117782016	59	5261
2026-01-27 11:12:59.93	328.26	11.38	-44.3	-47.3	16.5	0.00e+00	0	43	0	1119879168	59	5320
2026-01-27 11:13:00.93	328.36	11.30	-44.3	-47.4	16.5	0.00e+00	0	43	0	1121976320	59	5371
2026-01-27 11:13:01.92	328.45	11.22	-44.4	-47.5	16.4	0.00e+00	0	43	0	1123024896	59	5434
2026-01-27 11:13:02.91	328.54	11.14	-44.3	-47.4	16.4	0.00e+00	0	43	0	1125122048	59	5383
2026-01-27 11:13:03.91	328.64	11.07	-44.3	-47.4	16.5	0.00e+00	0	43	0	1127219200	59	5355
2026-01-27 11:13:04.90	328.73	10.99	-44.3	-47.4	16.5	0.00e+00	0	43	0	1129316352	59	5368
2026-01-27 11:13:05.90	328.82	10.91	-44.2	-47.2	16.7	0.00e+00	0	43	0	1130364928	59	5232
2026-01-27 11:13:06.89	328.91	10.83	-44.0	-47.0	16.9	0.00e+00	0	43	0	1132462080	59	5114
2026-01-27 11:13:07.88	329.00	10.76	-44.1	-47.1	16.8	0.00e+00	0	43	0	1134559232	59	5182
2026-01-27 11:13:08.88	329.09	10.68	-44.0	-46.9	16.9	0.00e+00	0	44	0	1136656384	59	5081
2026-01-27 11:13:09.87	329.18	10.60	-44.1	-47.1	16.8	0.00e+00	0	43	0	1138753536	59	5169
2026-01-27 11:13:10.87	329.27	10.53	-44.1	-47.0	16.8	0.00e+00	0	43	0	1139802112	59	5138
2026-01-27 11:13:11.86	329.36	10.45	-44.1	-47.0	16.8	0.00e+00	0	43	0	1141899264	59	5135
2026-01-27 11:13:12.85	329.45	10.37	-44.1	-47.1	16.7	0.00e+00	0	43	0	1143996416	59	5200
2026-01-27 11:13:13.85	329.54	10.30	-44.2	-47.1	16.7	0.00e+00	0	43	0	1146093568	59	5210
2026-01-27 11:13:14.84	329.62	10.22	-44.2	-47.2	16.6	0.00e+00	0	43	0	1147142144	59	5255
2026-01-27 11:13:15.83	329.71	10.15	-44.2	-47.3	16.6	0.00e+00	0	43	0	1149239296	59	5281
2026-01-27 11:13:16.83	329.80	10.07	-44.3	-47.5	16.3	0.00e+00	0	43	0	1151336448	59	5410
2026-01-27 11:13:17.82	329.88	10.00	-44.3	-47.4	16.4	0.00e+00	0	43	0	1153433600	59	5364
2026-01-27 11:13:18.82	329.97	9.92	-44.4	-47.6	16.2	0.00e+00	0	43	0	1155530752	59	5496
2026-01-27 11:13:19.81	330.06	9.85	-44.3	-47.4	16.4	0.00e+00	0	43	0	1156579328	59	5375
2026-01-27 11:13:20.80	330.14	9.77	-44.5	-47.6	16.2	0.00e+00	0	43	0	1158676480	59	5514
2026-01-27 11:13:21.80	330.23	9.70	-44.5	-47.6	16.2	0.00e+00	0	43	0	1160773632	59	5510
2026-01-27 11:13:22.79	330.31	9.62	-44.4	-47.5	16.3	0.00e+00	0	43	0	1162870784	59	5441
2026-01-27 11:13:23.78	330.39	9.55	-44.5	-47.5	16.2	0.00e+00	0	43	0	1163919360	59	5450
2026-01-27 11:13:24.78	330.48	9.47	-44.5	-47.5	16.3	0.00e+00	0	43	0	1166016512	59	5451
2026-01-27 11:13:25.77	330.56	9.40	-44.5	-47.6	16.2	0.00e+00	0	43	0	1168113664	59	5477
2026-01-27 11:13:26.76	330.64	9.33	-44.5	-47.5	16.3	0.00e+00	0	43	0	1170210816	59	5429
2026-01-27 11:13:27.76	330.73	9.25	-44.4	-47.4	16.3	0.00e+00	0	43	0	1172307968	59	5385
2026-01-27 11:13:28.75	330.81	9.18	-44.5	-47.5	16.2	0.00e+00	0	43	0	1173356544	59	5418
2026-01-27 11:13:29.75	330.89	9.11	-44.3	-47.3	16.4	0.00e+00	0	43	0	1175453696	59	5327
2026-01-27 11:13:30.74	330.97	9.03	-44.4	-47.4	16.3	0.00e+00	0	43	0	1177550848	59	5375
2026-01-27 11:13:31.74	331.05	8.96	-46.6	-51.1	13.1	0.00e+00	0	43	0	1179648000	63	6521
2026-01-27 11:13:32.73	331.13	8.89	-48.7	-64.8	3.8	1.48e+00	0	43	104	1179648000	68	23850
2026-01-27 11:13:33.72	331.21	8.82	-48.5	-64.9	3.8	1.49e+00	0	43	104	1179648000	68	23874
2026-01-27 11:13:34.72	331.29	8.74	-48.7	-64.7	3.8	1.49e+00	0	43	104	1179648000	68	23494
2026-01-27 11:13:35.71	331.37	8.67	-48.4	-64.8	3.8	1.49e+00	0	43	104	1179648000	68	23638
2026-01-27 11:13:36.70	331.45	8.60	-49.4	-64.7	3.8	1.49e+00	0	43	104	1179648000	69	22225
2026-01-27 11:13:37.70	331.53	8.53	-49.5	-64.9	3.8	1.49e+00	0	43	104	1179648000	69	22521
2026-01-27 11:13:38.69	331.61	8.46	-49.4	-64.9	3.8	1.49e+00	0	43	104	1179648000	69	22660
2026-01-27 11:13:39.68	331.68	8.38	-49.5	-64.9	3.8	1.49e+00	0	43	104	1179648000	69	22747
2026-01-27 11:13:40.68	331.76	8.31	-49.7	-65.0	3.8	1.49e+00	0	43	104	1179648000	70	21664
2026-01-27 11:13:41.67	331.84	8.24	-49.8	-65.0	3.8	1.49e+00	0	43	104	1179648000	70	21583
2026-01-27 11:13:42.66	331.91	8.17	-49.8	-65.0	3.8	1.49e+00	0	43	104	1179648000	70	21675
2026-01-27 11:13:43.65	331.99	8.10	-49.8	-65.1	3.8	1.49e+00	0	43	104	1179648000	70	21793
2026-01-27 11:13:44.65	332.07	8.03	-49.9	-65.1	3.8	1.49e+00	0	43	104	1179648000	70	21781
2026-01-27 11:13:45.64	332.14	7.96	-49.9	-65.1	3.8	1.49e+00	0	44	104	1179648000	70	21906
