passes_logs/2026/01/27/T1/T1__20260127_214315_KHAYYAM_rec.log

#Pass ID: 20260127_214315_KHAYYAM
#Satellite: KHAYYAM
#Configuration: KHAYYAM_480M
#almurnet v.1.7.20251203
#Start time: 2026-01-27 21:43:16

#Version: 2.0.20230620
#Station: T1
#Location: 37.570604 lon 55.790049 lat
#TLE: 1 53370U 22096A   26027.55771354  .00009208  00000+0  37400-3 0  9996
#TLE: 2 53370  97.3550 294.3423 0002118 106.5993 253.5477 15.24791124193159

#Time	Az	El	Level	Level2	SNR	BER	BlckErr	Temp	State	Recorded	gain1	gain2
2026-01-27 21:43:16.72	8.60	5.09	-53.2	-57.8	3.6	0.00e+00	0	42	0	0	77	25119
2026-01-27 21:43:17.71	8.56	5.17	-53.5	-57.8	3.7	0.00e+00	0	43	104	0	78	23756
2026-01-27 21:43:18.70	8.52	5.25	-53.7	-58.2	3.7	0.00e+00	0	43	104	0	78	24960
2026-01-27 21:43:19.70	8.48	5.33	-53.7	-58.2	3.7	0.00e+00	0	43	104	0	78	24869
2026-01-27 21:43:20.69	8.45	5.41	-53.6	-58.1	3.7	0.00e+00	0	43	104	0	78	24790
2026-01-27 21:43:21.68	8.41	5.49	-53.3	-57.9	3.7	0.00e+00	0	43	104	0	78	24047
2026-01-27 21:43:22.68	8.37	5.57	-53.3	-57.9	3.7	0.00e+00	0	43	104	0	78	24075
2026-01-27 21:43:23.67	8.33	5.66	-53.5	-58.0	3.7	0.00e+00	0	43	104	0	78	24512
2026-01-27 21:43:24.66	8.29	5.74	-53.3	-57.8	3.7	0.00e+00	0	43	104	0	78	23931
2026-01-27 21:43:25.65	8.25	5.82	-53.3	-57.6	3.7	0.00e+00	0	43	104	0	78	23359
2026-01-27 21:43:26.65	8.21	5.90	-53.2	-57.6	3.7	0.00e+00	0	44	104	0	78	23345
2026-01-27 21:43:27.64	8.17	5.98	-52.2	-56.2	3.7	0.00e+00	0	43	104	0	76	22120
2026-01-27 21:43:28.63	8.13	6.07	-52.8	-57.1	3.7	0.00e+00	0	44	104	0	77	23347
2026-01-27 21:43:29.63	8.09	6.15	-52.6	-56.9	3.7	0.00e+00	0	44	104	0	76	24239
2026-01-27 21:43:30.62	8.05	6.24	-53.3	-57.7	3.7	0.00e+00	0	44	104	0	77	25052
2026-01-27 21:43:31.61	8.01	6.32	-51.9	-55.8	3.7	0.00e+00	0	44	104	0	75	22548
2026-01-27 21:43:32.61	7.97	6.40	-51.6	-56.2	3.7	0.00e+00	0	44	104	0	74	24899
2026-01-27 21:43:33.60	7.92	6.49	-52.3	-57.1	3.7	0.00e+00	0	44	104	0	75	26071
2026-01-27 21:43:34.59	7.88	6.57	-51.8	-56.6	3.7	0.00e+00	0	44	104	0	75	24775
2026-01-27 21:43:35.58	7.84	6.66	-53.0	-57.6	3.7	0.00e+00	0	44	104	0	77	24567
2026-01-27 21:43:36.58	7.80	6.75	-50.5	-56.1	3.7	0.00e+00	0	44	104	0	71	29283
2026-01-27 21:43:37.57	7.75	6.83	-50.4	-55.9	3.7	0.00e+00	0	44	104	0	72	27148
2026-01-27 21:43:38.56	7.71	6.92	-48.3	-54.7	3.8	0.00e+00	0	44	104	0	68	29565
2026-01-27 21:43:39.56	7.66	7.01	-50.8	-56.1	3.7	0.00e+00	0	44	104	0	72	27723
2026-01-27 21:43:40.55	7.62	7.09	-50.1	-55.7	3.7	0.00e+00	0	44	104	0	72	26417
2026-01-27 21:43:41.54	7.58	7.18	-50.1	-55.7	3.7	0.00e+00	0	44	104	0	72	26399
2026-01-27 21:43:42.54	7.53	7.27	-50.1	-55.6	3.7	0.00e+00	0	44	104	0	72	26266
2026-01-27 21:43:43.53	7.48	7.36	-50.1	-55.7	3.7	0.00e+00	0	44	104	0	72	26364
2026-01-27 21:43:44.52	7.44	7.45	-50.1	-55.7	3.7	0.00e+00	0	45	104	0	72	26447
2026-01-27 21:43:45.52	7.39	7.54	-50.1	-55.7	3.7	0.00e+00	0	44	104	0	72	26408
2026-01-27 21:43:46.51	7.34	7.63	-50.1	-55.7	3.7	0.00e+00	0	45	104	0	72	26453
2026-01-27 21:43:47.50	7.30	7.72	-50.1	-55.7	3.7	0.00e+00	0	45	104	0	72	26465
2026-01-27 21:43:48.50	7.25	7.81	-50.1	-55.7	3.7	0.00e+00	0	45	104	0	72	26326
2026-01-27 21:43:49.49	7.20	7.90	-50.1	-55.7	3.7	0.00e+00	0	45	104	0	72	26349
2026-01-27 21:43:50.48	7.15	7.99	-50.1	-55.7	3.7	0.00e+00	0	45	104	0	72	26393
2026-01-27 21:43:51.47	7.10	8.08	-50.1	-55.7	3.7	0.00e+00	0	45	104	0	72	26357
2026-01-27 21:43:52.47	7.06	8.18	-50.1	-55.7	3.7	0.00e+00	0	45	104	0	72	26339
2026-01-27 21:43:53.46	7.01	8.27	-50.1	-55.7	3.7	0.00e+00	0	45	104	0	72	26325
2026-01-27 21:43:54.45	6.96	8.36	-50.0	-55.7	3.7	0.00e+00	0	45	104	0	72	26303
2026-01-27 21:43:55.45	6.90	8.46	-50.1	-55.7	3.7	0.00e+00	0	45	104	0	72	26292
2026-01-27 21:43:56.44	6.85	8.55	-50.1	-55.6	3.7	0.00e+00	0	45	104	0	72	26276
2026-01-27 21:43:57.43	6.80	8.64	-50.0	-55.6	3.7	0.00e+00	0	45	104	0	72	26125
2026-01-27 21:43:58.42	6.75	8.74	-50.0	-55.6	3.7	0.00e+00	0	45	104	0	72	26082
2026-01-27 21:43:59.42	6.70	8.84	-50.1	-55.7	3.7	0.00e+00	0	45	104	0	72	26357
2026-01-27 21:44:00.41	6.65	8.93	-50.1	-55.7	3.7	0.00e+00	0	46	104	0	72	26448
2026-01-27 21:44:01.40	6.59	9.03	-50.1	-55.7	3.7	0.00e+00	0	46	104	0	72	26321
2026-01-27 21:44:02.40	6.54	9.13	-50.2	-55.7	3.7	0.00e+00	0	46	104	0	72	26431
2026-01-27 21:44:03.39	6.48	9.22	-50.4	-55.9	3.7	0.00e+00	0	45	104	0	72	26999
2026-01-27 21:44:04.38	6.43	9.32	-50.0	-55.7	3.7	0.00e+00	0	46	104	0	72	26394
2026-01-27 21:44:05.37	6.37	9.42	-50.4	-55.8	3.7	0.00e+00	0	46	104	0	72	26862
2026-01-27 21:44:06.37	6.32	9.52	-50.5	-56.1	3.7	0.00e+00	0	46	104	0	72	27520
2026-01-27 21:44:07.36	6.26	9.62	-49.1	-55.2	3.7	0.00e+00	0	46	104	0	70	27921
2026-01-27 21:44:08.35	6.20	9.72	-49.0	-55.1	3.7	0.00e+00	0	46	104	0	70	27641
2026-01-27 21:44:09.35	6.15	9.82	-48.3	-54.5	3.7	0.00e+00	0	46	104	0	68	28976
2026-01-27 21:44:10.34	6.09	9.92	-47.7	-54.1	3.8	0.00e+00	0	46	104	0	67	29283
2026-01-27 21:44:11.33	6.03	10.02	-47.9	-54.2	3.8	0.00e+00	0	46	104	0	67	29664
2026-01-27 21:44:12.33	5.97	10.13	-47.7	-54.1	3.7	0.00e+00	0	46	104	0	67	29240
2026-01-27 21:44:13.32	5.91	10.23	-48.8	-54.9	3.8	0.00e+00	0	46	104	0	68	30499
2026-01-27 21:44:14.31	5.85	10.33	-50.3	-56.1	3.7	0.00e+00	0	46	104	0	71	29219
2026-01-27 21:44:15.31	5.79	10.44	-48.9	-55.1	3.7	0.00e+00	0	46	104	0	69	29188
2026-01-27 21:44:16.30	5.73	10.54	-48.5	-54.7	3.7	0.00e+00	0	46	104	0	69	27990
2026-01-27 21:44:17.29	5.67	10.65	-48.9	-55.0	3.7	0.00e+00	0	46	104	0	69	29061
2026-01-27 21:44:18.28	5.61	10.75	-48.8	-55.0	3.7	0.00e+00	0	46	104	0	69	28881
2026-01-27 21:44:19.28	5.54	10.86	-48.9	-55.1	3.7	0.00e+00	0	46	104	0	69	29274
2026-01-27 21:44:20.27	5.48	10.96	-49.1	-55.2	3.7	0.00e+00	0	46	104	0	69	29803
2026-01-27 21:44:21.26	5.42	11.07	-49.4	-55.4	3.7	0.00e+00	0	46	104	0	69	30454
2026-01-27 21:44:22.25	5.35	11.18	-49.2	-55.2	3.7	0.00e+00	0	46	104	0	69	29559
2026-01-27 21:44:23.25	5.29	11.29	-50.4	-55.9	3.7	0.00e+00	0	46	104	0	71	28613
2026-01-27 21:44:24.24	5.22	11.40	-49.8	-55.7	3.7	0.00e+00	0	46	104	0	71	27836
2026-01-27 21:44:25.23	5.15	11.51	-49.2	-55.2	3.7	0.00e+00	0	46	104	0	70	28127
2026-01-27 21:44:26.23	5.09	11.62	-49.6	-55.5	3.7	0.00e+00	0	46	104	0	70	29052
2026-01-27 21:44:27.22	5.02	11.73	-49.7	-55.6	3.7	0.00e+00	0	46	104	0	70	29356
2026-01-27 21:44:28.21	4.95	11.84	-49.3	-55.3	3.7	0.00e+00	0	46	104	0	70	28205
2026-01-27 21:44:29.20	4.88	11.95	-49.5	-55.5	3.7	0.00e+00	0	46	104	0	70	29063
2026-01-27 21:44:30.19	4.81	12.07	-49.7	-55.5	3.7	0.00e+00	0	46	104	0	70	28994
2026-01-27 21:44:31.19	4.74	12.18	-49.7	-55.6	3.7	0.00e+00	0	46	104	0	70	29387
2026-01-27 21:44:32.18	4.67	12.30	-50.9	-56.3	3.7	0.00e+00	0	46	104	0	72	28423
2026-01-27 21:44:33.17	4.60	12.41	-49.7	-55.5	3.7	0.00e+00	0	46	104	0	71	27250
2026-01-27 21:44:34.16	4.52	12.53	-49.6	-55.5	3.7	0.00e+00	0	46	104	0	71	27506
2026-01-27 21:44:35.16	4.45	12.64	-49.6	-55.3	3.7	0.00e+00	0	46	104	0	71	26627
2026-01-27 21:44:36.15	4.38	12.76	-49.7	-55.4	3.7	0.00e+00	0	47	104	0	71	26954
2026-01-27 21:44:37.14	4.30	12.88	-49.8	-55.5	3.7	0.00e+00	0	46	104	0	71	27509
2026-01-27 21:44:38.14	4.22	13.00	-49.9	-55.6	3.7	0.00e+00	0	47	104	0	71	27795
2026-01-27 21:44:39.13	4.15	13.12	-50.4	-56.0	3.7	0.00e+00	0	46	104	0	71	28933
2026-01-27 21:44:40.12	4.07	13.24	-50.2	-55.9	3.7	0.00e+00	0	46	104	0	71	28621
2026-01-27 21:44:41.12	3.99	13.36	-50.8	-56.3	3.7	0.00e+00	0	47	104	0	72	28393
2026-01-27 21:44:42.11	3.91	13.48	-50.2	-55.7	3.7	0.00e+00	0	46	104	0	72	26406
2026-01-27 21:44:43.10	3.83	13.60	-50.2	-55.8	3.7	0.00e+00	0	46	104	0	71	28468
2026-01-27 21:44:44.09	3.75	13.72	-50.0	-55.6	3.7	0.00e+00	0	47	104	0	71	27671
2026-01-27 21:44:45.08	3.67	13.85	-50.2	-55.7	3.7	0.00e+00	0	46	104	0	71	28020
2026-01-27 21:44:46.08	3.59	13.97	-50.0	-55.6	3.7	0.00e+00	0	46	104	0	71	27561
2026-01-27 21:44:47.07	3.51	14.10	-49.9	-55.5	3.7	0.00e+00	0	47	104	0	71	27266
2026-01-27 21:44:48.06	3.42	14.22	-50.4	-56.0	3.7	0.00e+00	0	47	104	0	71	29032
2026-01-27 21:44:49.06	3.34	14.35	-50.4	-56.0	3.7	0.00e+00	0	47	104	0	71	28815
2026-01-27 21:44:50.05	3.25	14.48	-50.7	-56.2	3.7	0.00e+00	0	46	104	0	73	26385
2026-01-27 21:44:51.04	3.16	14.61	-51.7	-56.9	3.7	0.00e+00	0	47	104	0	74	26893
2026-01-27 21:44:52.04	3.08	14.74	-50.4	-56.0	3.7	0.00e+00	0	47	104	0	72	27264
2026-01-27 21:44:53.03	2.99	14.87	-50.7	-56.2	3.7	0.00e+00	0	47	104	0	72	27927
2026-01-27 21:44:54.02	2.90	15.00	-50.5	-55.9	3.7	0.00e+00	0	47	104	0	72	27039
2026-01-27 21:44:55.02	2.81	15.13	-50.3	-55.8	3.7	0.00e+00	0	47	104	0	72	26645
2026-01-27 21:44:56.01	2.71	15.27	-50.3	-55.8	3.7	0.00e+00	0	47	104	0	72	26715
2026-01-27 21:44:57.00	2.62	15.40	-50.4	-56.0	3.7	0.00e+00	0	47	104	0	72	27324
2026-01-27 21:44:57.99	2.53	15.54	-52.0	-57.2	3.7	0.00e+00	0	47	104	0	74	27872
2026-01-27 21:44:58.99	2.43	15.67	-51.1	-56.4	3.7	0.00e+00	0	47	104	0	73	26936
2026-01-27 21:44:59.98	2.34	15.81	-51.0	-55.8	3.7	0.00e+00	0	47	104	0	73	25132
2026-01-27 21:45:00.97	2.24	15.95	-51.1	-56.4	3.7	0.00e+00	0	47	104	0	73	27127
2026-01-27 21:45:01.96	2.14	16.08	-51.4	-56.0	3.7	0.00e+00	0	47	104	0	73	25804
2026-01-27 21:45:02.96	2.04	16.23	-51.8	-56.2	3.7	0.00e+00	0	47	104	0	74	24999
2026-01-27 21:45:03.95	1.94	16.37	-51.9	-56.2	3.7	0.00e+00	0	47	104	0	74	25087
2026-01-27 21:45:04.94	1.84	16.51	-51.8	-56.2	3.7	0.00e+00	0	47	104	0	74	24942
2026-01-27 21:45:05.94	1.74	16.65	-52.8	-57.6	3.7	0.00e+00	0	47	104	0	76	26000
2026-01-27 21:45:06.93	1.63	16.79	-52.3	-56.7	3.7	0.00e+00	0	47	104	0	76	23588
2026-01-27 21:45:07.92	1.53	16.94	-50.6	-56.0	3.7	0.00e+00	0	47	104	0	73	25884
2026-01-27 21:45:08.92	1.42	17.09	-51.0	-56.5	3.7	0.00e+00	0	47	104	0	72	28821
2026-01-27 21:45:09.91	1.31	17.23	-50.5	-56.0	3.7	0.00e+00	0	47	104	0	72	27256
2026-01-27 21:45:10.90	1.20	17.38	-50.5	-56.1	3.7	0.00e+00	0	47	104	0	72	27584
2026-01-27 21:45:11.89	1.09	17.53	-50.5	-56.1	3.7	0.00e+00	0	47	104	0	72	27825
2026-01-27 21:45:12.89	0.98	17.68	-50.6	-56.2	3.7	0.00e+00	0	47	104	0	72	27997
2026-01-27 21:45:13.88	0.87	17.83	-50.8	-56.3	3.7	0.00e+00	0	47	104	0	72	28353
2026-01-27 21:45:14.87	0.76	17.98	-51.3	-56.6	3.7	0.00e+00	0	47	104	0	73	27594
2026-01-27 21:45:15.87	0.64	18.14	-52.8	-57.5	3.7	0.00e+00	0	47	104	0	76	25850
2026-01-27 21:45:16.86	0.52	18.29	-51.9	-56.9	3.7	0.00e+00	0	47	104	0	75	25604
2026-01-27 21:45:17.85	0.40	18.44	-51.9	-57.0	3.7	0.00e+00	0	47	104	0	74	27262
2026-01-27 21:45:18.85	0.28	18.60	-52.3	-57.2	3.7	0.00e+00	0	47	104	0	75	26556
2026-01-27 21:45:19.84	0.16	18.76	-51.7	-56.9	3.7	0.00e+00	0	47	104	0	75	25502
2026-01-27 21:45:20.83	0.04	18.92	-51.9	-57.0	3.7	0.00e+00	0	47	104	0	75	25790
2026-01-27 21:45:21.82	359.91	19.08	-51.9	-57.0	3.7	0.00e+00	0	47	104	0	75	25840
2026-01-27 21:45:22.82	359.79	19.24	-52.1	-57.1	3.7	0.00e+00	0	47	104	0	75	26161
2026-01-27 21:45:23.81	359.66	19.40	-52.8	-57.6	3.7	0.00e+00	0	47	104	0	76	26050
2026-01-27 21:45:24.80	359.53	19.57	-52.9	-57.6	3.6	0.00e+00	0	47	104	0	76	26254
2026-01-27 21:45:25.80	359.40	19.73	-52.2	-57.2	3.7	0.00e+00	0	47	104	0	76	24824
2026-01-27 21:45:26.79	359.27	19.90	-52.7	-57.5	3.7	0.00e+00	0	47	104	0	76	25865
2026-01-27 21:45:27.78	359.13	20.07	-52.1	-57.1	3.7	0.00e+00	0	47	104	0	76	24635
2026-01-27 21:45:28.78	358.99	20.24	-52.7	-57.5	3.7	0.00e+00	0	47	104	0	76	25916
2026-01-27 21:45:29.77	358.86	20.41	-52.8	-57.6	3.7	0.00e+00	0	47	104	0	76	26236
2026-01-27 21:45:30.76	358.72	20.58	-52.5	-57.5	3.7	0.00e+00	0	47	104	0	76	25746
2026-01-27 21:45:31.76	358.57	20.75	-52.1	-57.2	3.7	0.00e+00	0	47	104	0	76	24916
2026-01-27 21:45:32.75	358.43	20.93	-52.0	-57.1	3.7	0.00e+00	0	47	104	0	75	26211
2026-01-27 21:45:33.74	358.28	21.10	-51.7	-57.0	3.7	0.00e+00	0	47	104	0	75	25861
2026-01-27 21:45:34.74	358.14	21.28	-52.1	-57.2	3.7	0.00e+00	0	47	104	0	75	26279
2026-01-27 21:45:35.73	357.99	21.46	-52.6	-57.4	3.7	0.00e+00	0	47	104	0	75	27047
2026-01-27 21:45:36.72	357.84	21.64	-52.0	-57.1	3.7	0.00e+00	0	47	104	0	75	26220
2026-01-27 21:45:37.71	357.68	21.82	-52.8	-57.7	3.7	0.00e+00	0	47	104	0	76	26373
2026-01-27 21:45:38.71	357.53	22.00	-52.6	-57.5	3.7	0.00e+00	0	47	104	0	76	25814
2026-01-27 21:45:39.70	357.37	22.19	-52.4	-57.4	3.7	0.00e+00	0	47	104	0	76	25607
2026-01-27 21:45:40.69	357.21	22.37	-52.7	-57.6	3.7	0.00e+00	0	47	104	0	76	26040
2026-01-27 21:45:41.69	357.04	22.56	-51.9	-57.1	3.7	0.00e+00	0	47	104	0	75	25996
2026-01-27 21:45:42.68	356.88	22.75	-52.2	-57.2	3.7	0.00e+00	0	47	104	0	75	26406
2026-01-27 21:45:43.67	356.71	22.94	-51.5	-56.7	3.7	0.00e+00	0	47	104	0	75	25023
2026-01-27 21:45:44.66	356.54	23.13	-51.5	-56.9	3.7	0.00e+00	0	47	104	0	74	26899
2026-01-27 21:45:45.66	356.37	23.33	-51.2	-56.6	3.7	0.00e+00	0	47	104	0	74	26202
2026-01-27 21:45:46.65	356.20	23.52	-51.2	-56.6	3.7	0.00e+00	0	47	104	0	74	26108
2026-01-27 21:45:47.64	356.02	23.72	-51.6	-56.8	3.7	0.00e+00	0	47	104	0	74	26827
2026-01-27 21:45:48.64	355.84	23.92	-51.5	-56.8	3.7	0.00e+00	0	47	104	0	74	26649
2026-01-27 21:45:49.63	355.66	24.11	-52.0	-57.1	3.7	0.00e+00	0	47	104	0	74	27573
2026-01-27 21:45:50.62	355.47	24.32	-52.0	-57.1	3.7	0.00e+00	0	47	104	0	74	27676
2026-01-27 21:45:51.61	355.29	24.52	-52.2	-57.2	3.7	0.00e+00	0	47	104	0	75	26545
2026-01-27 21:45:52.61	355.10	24.72	-52.1	-57.2	3.7	0.00e+00	0	47	104	0	75	26285
2026-01-27 21:45:53.60	354.90	24.93	-51.8	-57.0	3.7	0.00e+00	0	47	104	0	75	25844
2026-01-27 21:45:54.59	354.71	25.14	-51.8	-57.0	3.7	0.00e+00	0	47	104	0	75	25751
2026-01-27 21:45:55.59	354.51	25.35	-51.9	-57.0	3.7	0.00e+00	0	47	104	0	75	25877
2026-01-27 21:45:56.58	354.31	25.56	-51.9	-57.0	3.7	0.00e+00	0	47	104	0	75	25932
2026-01-27 21:45:57.57	354.10	25.77	-52.6	-57.5	3.7	0.00e+00	0	47	104	0	75	27297
2026-01-27 21:45:58.57	353.89	25.99	-52.8	-57.6	3.7	0.00e+00	0	47	104	0	76	26011
2026-01-27 21:45:59.56	353.68	26.20	-53.0	-57.7	3.7	0.00e+00	0	47	104	0	76	26479
2026-01-27 21:46:00.55	353.47	26.42	-53.0	-57.7	3.7	0.00e+00	0	47	104	0	76	26380
2026-01-27 21:46:01.54	353.25	26.64	-53.0	-57.7	3.7	0.00e+00	0	47	104	0	76	26392
2026-01-27 21:46:02.54	353.03	26.86	-52.8	-57.6	3.7	0.00e+00	0	47	104	0	76	26080
2026-01-27 21:46:03.53	352.80	27.09	-52.4	-57.3	3.7	0.00e+00	0	47	104	0	76	25327
2026-01-27 21:46:04.52	352.57	27.31	-52.2	-57.2	3.7	0.00e+00	0	47	104	0	76	24973
2026-01-27 21:46:05.52	352.34	27.54	-52.3	-57.3	3.7	0.00e+00	0	47	104	0	76	25095
2026-01-27 21:46:06.51	352.11	27.77	-52.4	-57.3	3.7	0.00e+00	0	47	104	0	76	25166
2026-01-27 21:46:07.50	351.87	28.00	-52.5	-57.3	3.7	0.00e+00	0	47	104	0	76	25354
2026-01-27 21:46:08.50	351.62	28.23	-53.0	-57.7	3.7	0.00e+00	0	47	104	0	76	26484
2026-01-27 21:46:09.49	351.37	28.47	-53.1	-57.9	3.7	0.00e+00	0	47	104	0	76	26982
2026-01-27 21:46:10.48	351.12	28.70	-52.7	-57.6	3.7	0.00e+00	0	48	104	0	76	26265
2026-01-27 21:46:11.48	350.87	28.94	-52.3	-57.4	3.7	0.00e+00	0	47	104	0	76	25476
2026-01-27 21:46:12.47	350.61	29.18	-52.0	-57.1	3.7	0.00e+00	0	47	104	0	76	24630
2026-01-27 21:46:13.46	350.34	29.42	-51.9	-57.0	3.7	0.00e+00	0	47	104	0	75	25928
2026-01-27 21:46:14.46	350.07	29.67	-52.4	-57.3	3.7	0.00e+00	0	47	104	0	76	25265
2026-01-27 21:46:15.45	349.80	29.91	-52.6	-57.4	3.7	0.00e+00	0	47	104	0	76	25508
2026-01-27 21:46:16.44	349.52	30.16	-53.2	-57.8	3.7	0.00e+00	0	47	104	0	77	25361
2026-01-27 21:46:17.43	349.24	30.41	-53.1	-57.8	3.7	0.00e+00	0	47	104	0	77	25322
2026-01-27 21:46:18.43	348.95	30.66	-52.4	-57.4	3.7	0.00e+00	0	48	104	0	76	25403
2026-01-27 21:46:19.42	348.66	30.91	-52.4	-57.4	3.7	0.00e+00	0	47	104	0	76	25434
2026-01-27 21:46:20.41	348.36	31.17	-52.3	-57.2	3.7	0.00e+00	0	47	104	0	76	24845
2026-01-27 21:46:21.41	348.06	31.43	-52.3	-57.2	3.7	0.00e+00	0	47	104	0	76	24813
2026-01-27 21:46:22.40	347.75	31.69	-52.2	-57.1	3.7	0.00e+00	0	47	104	0	76	24785
2026-01-27 21:46:23.39	347.43	31.95	-52.2	-57.1	3.7	0.00e+00	0	48	104	0	76	24691
2026-01-27 21:46:24.39	347.11	32.21	-51.3	-56.8	3.7	0.00e+00	0	48	104	0	74	26582
2026-01-27 21:46:25.38	346.79	32.47	-51.5	-56.9	3.7	0.00e+00	0	48	104	0	74	26939
2026-01-27 21:46:26.37	346.46	32.74	-51.3	-56.7	3.7	0.00e+00	0	48	104	0	74	26427
2026-01-27 21:46:27.36	346.12	33.00	-51.2	-56.6	3.7	0.00e+00	0	48	104	0	74	26148
2026-01-27 21:46:28.36	345.78	33.28	-52.3	-57.2	3.7	0.00e+00	0	47	104	0	75	26389
2026-01-27 21:46:29.35	345.43	33.55	-52.1	-57.1	3.7	0.00e+00	0	47	104	0	75	26194
2026-01-27 21:46:30.34	345.08	33.82	-52.8	-57.6	3.7	0.00e+00	0	48	104	0	76	26089
2026-01-27 21:46:31.33	344.72	34.09	-52.8	-57.6	3.7	0.00e+00	0	48	104	0	76	25996
2026-01-27 21:46:32.33	344.34	34.37	-52.8	-57.6	3.7	0.00e+00	0	48	104	0	76	26069
2026-01-27 21:46:33.32	343.97	34.65	-52.8	-57.6	3.7	0.00e+00	0	48	104	0	76	26063
2026-01-27 21:46:34.31	343.59	34.92	-52.7	-57.6	3.7	0.00e+00	0	48	104	0	76	26178
2026-01-27 21:46:35.31	343.20	35.21	-52.8	-57.6	3.7	0.00e+00	0	48	104	0	76	26101
2026-01-27 21:46:36.30	342.80	35.49	-51.7	-56.9	3.7	0.00e+00	0	48	104	0	75	25642
2026-01-27 21:46:37.29	342.40	35.77	-51.7	-56.9	3.7	0.00e+00	0	48	104	0	75	25471
2026-01-27 21:46:38.28	341.99	36.05	-51.7	-56.9	3.7	0.00e+00	0	48	104	0	74	27108
2026-01-27 21:46:39.28	341.56	36.34	-51.5	-56.8	3.7	0.00e+00	0	48	104	0	74	26672
2026-01-27 21:46:40.27	341.14	36.63	-52.7	-57.5	3.7	0.00e+00	0	48	104	0	76	25969
2026-01-27 21:46:41.26	340.70	36.92	-52.5	-57.4	3.7	0.00e+00	0	48	104	0	76	25451
2026-01-27 21:46:42.26	340.26	37.21	-53.3	-57.9	3.7	0.00e+00	0	48	104	0	77	25429
2026-01-27 21:46:43.25	339.80	37.50	-53.2	-57.8	3.7	0.00e+00	0	48	104	0	77	25311
2026-01-27 21:46:44.24	339.34	37.79	-53.2	-57.8	3.7	0.00e+00	0	47	104	0	77	25118
2026-01-27 21:46:45.24	338.87	38.08	-53.2	-57.9	3.7	0.00e+00	0	48	104	0	77	25412
2026-01-27 21:46:46.23	338.39	38.38	-52.7	-57.6	3.7	0.00e+00	0	47	104	0	77	24605
2026-01-27 21:46:47.22	337.91	38.67	-52.9	-57.7	3.7	0.00e+00	0	48	104	0	77	24877
2026-01-27 21:46:48.21	337.41	38.96	-52.2	-57.3	3.7	0.00e+00	0	48	104	0	76	25172
2026-01-27 21:46:49.21	336.90	39.26	-52.1	-57.2	3.7	0.00e+00	0	47	104	0	76	24936
2026-01-27 21:46:50.20	336.38	39.56	-52.5	-57.4	3.7	0.00e+00	0	48	104	0	76	25599
2026-01-27 21:46:51.19	335.85	39.85	-52.5	-57.4	3.7	0.00e+00	0	48	104	0	76	25410
2026-01-27 21:46:52.18	335.32	40.15	-52.3	-57.3	3.7	0.00e+00	0	48	104	0	76	25177
2026-01-27 21:46:53.18	334.77	40.45	-52.1	-57.2	3.7	0.00e+00	0	48	104	0	76	24911
2026-01-27 21:46:54.17	334.21	40.74	-52.3	-57.3	3.7	0.00e+00	0	48	104	0	76	25372
2026-01-27 21:46:55.16	333.64	41.04	-52.2	-57.3	3.7	0.00e+00	0	48	104	0	76	25175
2026-01-27 21:46:56.16	333.05	41.33	-52.2	-57.3	3.7	0.00e+00	0	48	104	0	76	25315
2026-01-27 21:46:57.15	332.46	41.63	-52.2	-57.3	3.6	0.00e+00	0	48	104	0	76	25220
2026-01-27 21:46:58.14	331.86	41.92	-51.7	-57.0	3.7	0.00e+00	0	48	104	0	75	25731
2026-01-27 21:46:59.14	331.24	42.22	-51.6	-56.9	3.7	0.00e+00	0	48	104	0	75	25549
2026-01-27 21:47:00.13	330.62	42.51	-52.3	-57.3	3.7	0.00e+00	0	48	104	0	75	26696
2026-01-27 21:47:01.12	329.98	42.80	-52.5	-57.4	3.7	0.00e+00	0	48	104	0	75	27012
2026-01-27 21:47:02.12	329.32	43.09	-52.9	-57.7	3.7	0.00e+00	0	48	104	0	76	26414
2026-01-27 21:47:03.11	328.66	43.38	-52.7	-57.6	3.7	0.00e+00	0	48	104	0	76	26133
2026-01-27 21:47:04.10	327.98	43.67	-53.2	-57.8	3.7	0.00e+00	0	48	104	0	76	26681
2026-01-27 21:47:05.10	327.29	43.95	-53.3	-57.8	3.7	0.00e+00	0	48	104	0	77	25288
2026-01-27 21:47:06.09	326.59	44.23	-53.3	-57.7	3.7	0.00e+00	0	48	104	0	77	25073
2026-01-27 21:47:07.08	325.88	44.51	-53.3	-57.8	3.7	0.00e+00	0	48	104	0	77	25281
2026-01-27 21:47:08.07	325.15	44.79	-53.0	-57.6	3.7	0.00e+00	0	48	104	0	77	24698
2026-01-27 21:47:09.07	324.40	45.07	-53.1	-57.6	3.7	0.00e+00	0	48	104	0	77	24784
2026-01-27 21:47:10.06	323.65	45.34	-52.4	-57.3	3.7	0.00e+00	0	48	104	0	76	25343
2026-01-27 21:47:11.05	322.88	45.60	-52.5	-57.3	3.7	0.00e+00	0	48	104	0	76	25314
2026-01-27 21:47:12.04	322.10	45.87	-52.8	-57.5	3.7	0.00e+00	0	48	104	0	76	25784
2026-01-27 21:47:13.04	321.30	46.13	-52.8	-57.4	3.7	0.00e+00	0	48	104	0	76	25671
2026-01-27 21:47:14.03	320.49	46.38	-53.0	-57.5	3.7	0.00e+00	0	48	104	0	76	25831
2026-01-27 21:47:15.02	319.67	46.64	-53.1	-57.5	3.7	0.00e+00	0	48	104	0	76	25873
2026-01-27 21:47:16.02	318.83	46.88	-52.8	-57.3	3.7	0.00e+00	0	48	104	0	76	25239
2026-01-27 21:47:17.01	317.98	47.13	-52.8	-57.3	3.7	0.00e+00	0	48	104	0	76	25196
2026-01-27 21:47:18.00	317.12	47.36	-52.2	-57.0	3.7	0.00e+00	0	48	104	0	76	24409
2026-01-27 21:47:19.00	316.23	47.59	-52.2	-57.0	3.7	0.00e+00	0	48	104	0	76	24408
2026-01-27 21:47:19.99	315.34	47.82	-52.7	-57.3	3.7	0.00e+00	0	48	104	0	76	25199
2026-01-27 21:47:20.98	314.44	48.04	-52.7	-57.4	3.7	0.00e+00	0	48	104	0	76	25587
2026-01-27 21:47:21.97	313.52	48.25	-53.0	-57.5	3.7	0.00e+00	0	48	104	0	76	25803
2026-01-27 21:47:22.97	312.59	48.46	-52.9	-57.5	3.7	0.00e+00	0	48	104	0	76	25781
2026-01-27 21:47:23.96	311.64	48.66	-52.4	-57.3	3.7	0.00e+00	0	48	104	0	76	25202
2026-01-27 21:47:24.95	310.69	48.85	-52.6	-57.4	3.7	0.00e+00	0	48	104	0	76	25591
2026-01-27 21:47:25.95	309.72	49.03	-53.2	-57.7	3.6	0.00e+00	0	48	104	0	77	25057
2026-01-27 21:47:26.94	308.74	49.21	-53.2	-57.7	3.7	0.00e+00	0	48	104	0	77	25003
2026-01-27 21:47:27.93	307.75	49.38	-52.2	-57.2	3.7	0.00e+00	0	48	104	0	76	24919
2026-01-27 21:47:28.93	306.74	49.54	-52.4	-57.3	3.7	0.00e+00	0	48	104	0	76	25213
2026-01-27 21:47:29.92	305.73	49.69	-53.1	-57.6	3.7	0.00e+00	0	48	104	0	76	26041
2026-01-27 21:47:30.91	304.71	49.83	-53.1	-57.5	3.7	0.00e+00	0	48	104	0	76	25821
2026-01-27 21:47:31.90	303.68	49.96	-53.1	-57.6	3.7	0.00e+00	0	48	104	0	77	24565
2026-01-27 21:47:32.90	302.63	50.09	-53.0	-57.5	3.7	0.00e+00	0	48	104	0	77	24403
2026-01-27 21:47:33.89	301.58	50.20	-53.0	-57.4	3.7	0.00e+00	0	48	104	0	77	24178
2026-01-27 21:47:34.88	300.52	50.30	-52.9	-57.4	3.7	0.00e+00	0	48	104	0	77	24045
2026-01-27 21:47:35.88	299.45	50.40	-53.4	-57.7	3.7	0.00e+00	0	48	104	0	77	24977
2026-01-27 21:47:36.87	298.38	50.48	-53.3	-57.8	3.7	0.00e+00	0	48	104	0	77	25220
2026-01-27 21:47:37.86	297.30	50.56	-53.1	-57.4	3.7	0.00e+00	0	48	104	0	77	24185
2026-01-27 21:47:38.86	296.21	50.62	-53.1	-57.4	3.7	0.00e+00	0	48	104	0	77	24071
2026-01-27 21:47:39.85	295.13	50.67	-53.0	-57.6	3.7	0.00e+00	0	48	104	0	77	24712
2026-01-27 21:47:40.84	294.04	50.72	-52.9	-57.5	3.7	0.00e+00	0	48	104	0	77	24381
2026-01-27 21:47:41.84	292.93	50.75	-53.4	-57.8	3.7	0.00e+00	0	48	104	0	77	25294
2026-01-27 21:47:42.83	291.84	50.77	-53.4	-57.8	3.6	0.00e+00	0	48	104	0	77	25159
2026-01-27 21:47:43.82	290.75	50.78	-53.4	-57.9	3.7	0.00e+00	0	48	104	0	77	25556
2026-01-27 21:47:44.81	289.65	50.78	-53.3	-57.8	3.7	0.00e+00	0	48	104	0	77	25341
2026-01-27 21:47:45.81	288.55	50.77	-53.3	-57.8	3.7	0.00e+00	0	48	104	0	77	25195
2026-01-27 21:47:46.80	287.45	50.74	-53.2	-57.8	3.7	0.00e+00	0	48	104	0	77	25135
2026-01-27 21:47:47.79	286.36	50.71	-53.2	-57.8	3.7	0.00e+00	0	48	104	0	77	25198
2026-01-27 21:47:48.78	285.27	50.67	-53.2	-57.8	3.7	0.00e+00	0	48	104	0	77	25307
2026-01-27 21:47:49.78	284.18	50.61	-53.6	-58.0	3.7	0.00e+00	0	48	104	0	77	25797
2026-01-27 21:47:50.77	283.10	50.55	-53.5	-58.0	3.7	0.00e+00	0	48	104	0	77	25800
2026-01-27 21:47:51.76	282.02	50.47	-52.7	-57.5	3.7	0.00e+00	0	48	104	0	77	24437
2026-01-27 21:47:52.76	280.94	50.39	-52.7	-57.5	3.7	0.00e+00	0	48	104	0	77	24402
2026-01-27 21:47:53.75	279.88	50.29	-53.1	-57.7	3.6	0.00e+00	0	48	104	0	77	24969
2026-01-27 21:47:54.74	278.82	50.19	-53.2	-57.8	3.7	0.00e+00	0	48	104	0	77	25101
2026-01-27 21:47:55.73	277.77	50.07	-53.4	-57.8	3.7	0.00e+00	0	48	104	0	77	25384
2026-01-27 21:47:56.73	276.72	49.95	-53.3	-57.8	3.7	0.00e+00	0	48	104	0	77	25314
2026-01-27 21:47:57.72	275.69	49.81	-53.4	-57.9	3.7	0.00e+00	0	48	104	0	77	25553
2026-01-27 21:47:58.71	274.67	49.67	-53.5	-57.9	3.7	0.00e+00	0	48	104	0	77	25561
2026-01-27 21:47:59.71	273.65	49.52	-53.3	-57.8	3.7	0.00e+00	0	48	104	0	77	25349
2026-01-27 21:48:00.68	272.67	49.36	-53.0	-57.7	3.7	0.00e+00	0	48	104	0	77	25007
2026-01-27 21:48:01.67	271.68	49.19	-53.0	-57.7	3.7	0.00e+00	0	48	104	0	77	24957
2026-01-27 21:48:02.66	270.70	49.01	-53.1	-57.8	3.7	0.00e+00	0	48	104	0	77	25154
2026-01-27 21:48:03.66	269.72	48.83	-53.4	-57.9	3.7	0.00e+00	0	48	104	0	77	25460
2026-01-27 21:48:04.65	268.77	48.63	-53.3	-57.9	3.7	0.00e+00	0	48	104	0	77	25479
2026-01-27 21:48:05.64	267.83	48.43	-53.2	-57.8	3.7	0.00e+00	0	48	104	0	77	25196
2026-01-27 21:48:06.63	266.90	48.23	-53.2	-57.9	3.7	0.00e+00	0	48	104	0	77	25404
2026-01-27 21:48:07.63	265.97	48.01	-53.3	-57.9	3.7	0.00e+00	0	48	104	0	77	25587
2026-01-27 21:48:08.62	265.07	47.79	-53.1	-57.8	3.7	0.00e+00	0	48	104	0	77	25251
2026-01-27 21:48:09.61	264.18	47.57	-53.0	-57.7	3.7	0.00e+00	0	48	104	0	77	25081
2026-01-27 21:48:10.61	263.29	47.33	-53.2	-57.8	3.7	0.00e+00	0	48	104	0	77	25291
2026-01-27 21:48:11.60	262.43	47.09	-53.0	-57.7	3.7	0.00e+00	0	48	104	0	77	25023
2026-01-27 21:48:12.59	261.58	46.85	-52.7	-57.6	3.7	0.00e+00	0	48	104	0	77	24601
2026-01-27 21:48:13.59	260.74	46.60	-53.1	-57.8	3.7	0.00e+00	0	48	104	0	77	25241
2026-01-27 21:48:14.58	259.92	46.35	-53.2	-57.8	3.7	0.00e+00	0	48	104	0	77	25372
2026-01-27 21:48:15.57	259.11	46.09	-53.1	-57.7	3.7	0.00e+00	0	48	104	0	77	25002
2026-01-27 21:48:16.57	258.31	45.83	-53.1	-57.8	3.7	0.00e+00	0	48	104	0	77	25111
2026-01-27 21:48:17.56	257.52	45.56	-53.3	-57.9	3.7	0.00e+00	0	48	104	0	77	25621
2026-01-27 21:48:18.55	256.76	45.30	-53.2	-57.9	3.7	0.00e+00	0	48	104	0	77	25419
2026-01-27 21:48:19.54	256.00	45.02	-53.1	-57.8	3.7	0.00e+00	0	48	104	0	77	25351
2026-01-27 21:48:20.54	255.25	44.75	-53.2	-57.8	3.7	0.00e+00	0	48	104	0	77	25152
2026-01-27 21:48:21.53	254.53	44.47	-53.5	-58.0	3.7	0.00e+00	0	48	104	0	77	25708
2026-01-27 21:48:22.52	253.81	44.19	-53.4	-58.0	3.7	0.00e+00	0	48	104	0	77	25708
2026-01-27 21:48:23.52	253.11	43.90	-53.2	-57.9	3.7	0.00e+00	0	48	104	0	77	25446
2026-01-27 21:48:24.51	252.42	43.62	-53.0	-57.7	3.7	0.00e+00	0	48	104	0	77	25003
2026-01-27 21:48:25.50	251.74	43.33	-53.3	-57.9	3.7	0.00e+00	0	48	104	0	77	25416
2026-01-27 21:48:26.50	251.07	43.04	-53.5	-58.0	3.7	0.00e+00	0	48	104	0	77	25960
2026-01-27 21:48:27.49	250.42	42.75	-53.4	-58.0	3.7	0.00e+00	0	48	104	0	77	25706
2026-01-27 21:48:28.46	249.80	42.46	-53.1	-57.7	3.7	0.00e+00	0	48	104	0	77	25036
2026-01-27 21:48:29.46	249.16	42.16	-53.0	-57.7	3.7	0.00e+00	0	48	104	0	77	24834
2026-01-27 21:48:30.45	248.55	41.87	-53.2	-57.7	3.7	0.00e+00	0	48	104	0	77	25037
2026-01-27 21:48:31.44	247.95	41.58	-53.3	-57.7	3.7	0.00e+00	0	48	104	0	77	25030
2026-01-27 21:48:32.44	247.35	41.28	-53.0	-57.6	3.7	0.00e+00	0	48	104	0	77	24630
2026-01-27 21:48:33.43	246.77	40.98	-52.9	-57.5	3.7	0.00e+00	0	48	104	0	77	24444
2026-01-27 21:48:34.42	246.20	40.68	-52.9	-57.6	3.7	0.00e+00	0	48	104	0	77	24773
2026-01-27 21:48:35.41	245.64	40.39	-53.0	-57.7	3.7	0.00e+00	0	48	104	0	77	24897
2026-01-27 21:48:36.41	245.09	40.09	-53.0	-57.7	3.7	0.00e+00	0	48	104	0	77	24865
2026-01-27 21:48:37.40	244.55	39.79	-52.8	-57.5	3.7	0.00e+00	0	48	104	0	77	24349
2026-01-27 21:48:38.39	244.02	39.49	-52.9	-57.6	3.7	0.00e+00	0	48	104	0	77	24745
2026-01-27 21:48:39.39	243.50	39.19	-52.9	-57.6	3.7	0.00e+00	0	48	104	0	77	24607
2026-01-27 21:48:40.38	242.99	38.90	-53.4	-57.8	3.7	0.00e+00	0	48	104	0	77	25354
2026-01-27 21:48:41.37	242.50	38.60	-53.3	-57.9	3.7	0.00e+00	0	48	104	0	77	25406
2026-01-27 21:48:42.37	242.00	38.31	-53.3	-57.9	3.7	0.00e+00	0	48	104	0	77	25574
2026-01-27 21:48:43.36	241.53	38.01	-53.3	-57.9	3.7	0.00e+00	0	48	104	0	77	25538
2026-01-27 21:48:44.35	241.06	37.72	-53.4	-57.9	3.7	0.00e+00	0	48	104	0	77	25535
2026-01-27 21:48:45.34	240.59	37.43	-53.4	-57.9	3.7	0.00e+00	0	48	104	0	77	25477
2026-01-27 21:48:46.34	240.14	37.13	-53.4	-57.8	3.7	0.00e+00	0	48	104	0	77	25336
2026-01-27 21:48:47.33	239.69	36.84	-53.4	-57.9	3.7	0.00e+00	0	48	104	0	77	25477
2026-01-27 21:48:48.32	239.26	36.55	-53.4	-57.7	3.7	0.00e+00	0	48	104	0	77	25076
2026-01-27 21:48:49.32	238.83	36.26	-53.2	-57.5	3.7	0.00e+00	0	48	104	0	77	24274
2026-01-27 21:48:50.31	238.41	35.97	-53.1	-57.5	3.7	0.00e+00	0	48	104	0	77	24381
2026-01-27 21:48:51.30	238.00	35.69	-53.2	-57.5	3.7	0.00e+00	0	48	104	0	77	24384
2026-01-27 21:48:52.30	237.59	35.40	-53.3	-57.7	3.7	0.00e+00	0	48	104	0	77	24951
2026-01-27 21:48:53.29	237.19	35.12	-53.2	-57.6	3.7	0.00e+00	0	48	104	0	77	24551
2026-01-27 21:48:54.28	236.80	34.84	-52.7	-57.3	3.7	0.00e+00	0	48	104	0	77	23933
2026-01-27 21:48:55.27	236.42	34.56	-52.8	-57.4	3.7	0.00e+00	0	48	104	0	77	24165
2026-01-27 21:48:56.27	236.04	34.28	-52.3	-57.3	3.7	0.00e+00	0	48	104	0	76	25164
2026-01-27 21:48:57.26	235.68	34.00	-52.4	-57.3	3.7	0.00e+00	0	48	104	0	76	25334
2026-01-27 21:48:58.25	235.31	33.73	-52.9	-57.7	3.7	0.00e+00	0	48	104	0	76	26424
2026-01-27 21:48:59.25	234.96	33.45	-52.7	-57.6	3.7	0.00e+00	0	48	104	0	76	26008
2026-01-27 21:49:00.24	234.61	33.18	-53.0	-57.7	3.7	0.00e+00	0	48	104	0	76	26426
2026-01-27 21:49:01.23	234.26	32.91	-53.1	-57.8	3.7	0.00e+00	0	48	104	0	76	26672
2026-01-27 21:49:02.22	233.93	32.64	-53.1	-57.8	3.7	0.00e+00	0	48	104	0	76	26613
2026-01-27 21:49:03.22	233.59	32.37	-53.1	-57.8	3.7	0.00e+00	0	48	104	0	76	26679
2026-01-27 21:49:04.21	233.27	32.11	-53.0	-57.7	3.7	0.00e+00	0	48	104	0	76	26522
2026-01-27 21:49:05.20	232.95	31.85	-53.0	-57.8	3.7	0.00e+00	0	48	104	0	76	26595
2026-01-27 21:49:06.20	232.63	31.58	-52.6	-57.6	3.7	0.00e+00	0	48	104	0	76	26045
2026-01-27 21:49:07.19	232.33	31.32	-52.7	-57.6	3.7	0.00e+00	0	48	104	0	76	26211
2026-01-27 21:49:08.18	232.02	31.07	-52.6	-57.6	3.7	0.00e+00	0	48	104	0	76	26089
2026-01-27 21:49:09.17	231.73	30.81	-52.8	-57.7	3.7	0.00e+00	0	48	104	0	76	26369
2026-01-27 21:49:10.17	231.43	30.56	-53.1	-57.8	3.7	0.00e+00	0	48	104	0	76	26859
2026-01-27 21:49:11.16	231.14	30.30	-53.0	-57.8	3.7	0.00e+00	0	48	104	0	76	26726
2026-01-27 21:49:12.15	230.86	30.05	-53.1	-57.9	3.7	0.00e+00	0	48	104	0	76	26905
2026-01-27 21:49:13.14	230.58	29.81	-53.2	-57.7	3.7	0.00e+00	0	48	104	0	77	24944
2026-01-27 21:49:14.14	230.31	29.56	-53.1	-57.6	3.7	0.00e+00	0	48	104	0	77	24704
2026-01-27 21:49:15.13	230.04	29.31	-53.2	-57.7	3.7	0.00e+00	0	48	104	0	77	25053
2026-01-27 21:49:16.12	229.77	29.07	-53.0	-57.5	3.7	0.00e+00	0	48	104	0	77	24409
2026-01-27 21:49:17.12	229.51	28.83	-53.0	-57.8	3.7	0.00e+00	0	48	104	0	77	25102
2026-01-27 21:49:18.11	229.26	28.59	-52.6	-57.5	3.7	0.00e+00	0	48	104	0	77	24411
2026-01-27 21:49:19.10	229.00	28.35	-52.9	-57.6	3.7	0.00e+00	0	48	104	0	77	24678
2026-01-27 21:49:20.09	228.76	28.12	-52.5	-57.4	3.7	0.00e+00	0	48	104	0	77	24099
2026-01-27 21:49:21.09	228.51	27.88	-52.8	-57.6	3.7	0.00e+00	0	48	104	0	77	24580
2026-01-27 21:49:22.08	228.27	27.65	-53.0	-57.6	3.7	0.00e+00	0	48	104	0	77	24641
2026-01-27 21:49:23.07	228.04	27.42	-52.6	-57.5	3.7	0.00e+00	0	48	104	0	77	24268
2026-01-27 21:49:24.07	227.80	27.19	-52.8	-57.6	3.7	0.00e+00	0	48	104	0	77	24644
2026-01-27 21:49:25.06	227.57	26.97	-53.1	-57.7	3.7	0.00e+00	0	48	104	0	77	24827
2026-01-27 21:49:26.05	227.35	26.74	-52.9	-57.5	3.7	0.00e+00	0	48	104	0	77	24491
2026-01-27 21:49:27.05	227.12	26.52	-52.9	-57.5	3.7	0.00e+00	0	48	104	0	77	24465
2026-01-27 21:49:28.04	226.91	26.30	-52.7	-57.4	3.7	0.00e+00	0	48	104	0	77	24130
2026-01-27 21:49:29.03	226.69	26.08	-52.7	-57.4	3.7	0.00e+00	0	48	104	0	77	23986
2026-01-27 21:49:30.03	226.48	25.86	-53.1	-57.6	3.7	0.00e+00	0	48	104	0	77	24695
2026-01-27 21:49:31.02	226.27	25.65	-52.8	-57.5	3.7	0.00e+00	0	48	104	0	77	24294
2026-01-27 21:49:32.01	226.06	25.43	-53.1	-57.6	3.7	0.00e+00	0	48	104	0	77	24784
2026-01-27 21:49:33.01	225.86	25.22	-53.0	-57.7	3.7	0.00e+00	0	48	104	0	77	24884
2026-01-27 21:49:34.00	225.66	25.01	-53.0	-57.6	3.7	0.00e+00	0	48	104	0	77	24773
2026-01-27 21:49:34.99	225.47	24.80	-53.1	-57.7	3.7	0.00e+00	0	48	104	0	77	25054
2026-01-27 21:49:35.98	225.27	24.59	-53.0	-57.6	3.7	0.00e+00	0	48	104	0	77	24595
2026-01-27 21:49:36.98	225.08	24.39	-53.0	-57.7	3.7	0.00e+00	0	48	104	0	77	24899
2026-01-27 21:49:37.97	224.89	24.18	-53.0	-57.7	3.7	0.00e+00	0	48	104	0	77	24815
2026-01-27 21:49:38.96	224.71	23.98	-53.0	-57.6	3.7	0.00e+00	0	48	104	0	77	24765
2026-01-27 21:49:39.96	224.52	23.78	-53.0	-57.5	3.7	0.00e+00	0	48	104	0	77	24515
2026-01-27 21:49:40.95	224.35	23.58	-53.0	-57.6	3.7	0.00e+00	0	48	104	0	77	24635
2026-01-27 21:49:41.94	224.17	23.39	-53.2	-57.7	3.7	0.00e+00	0	48	104	0	77	24993
2026-01-27 21:49:42.93	223.99	23.19	-53.0	-57.6	3.7	0.00e+00	0	48	104	0	77	24547
2026-01-27 21:49:43.93	223.82	23.00	-53.2	-57.7	3.7	0.00e+00	0	48	104	0	77	25004
2026-01-27 21:49:44.92	223.65	22.80	-53.3	-57.8	3.7	0.00e+00	0	48	104	0	77	25149
2026-01-27 21:49:45.91	223.48	22.61	-53.3	-57.7	3.7	0.00e+00	0	48	104	0	77	25074
2026-01-27 21:49:46.91	223.32	22.42	-53.3	-57.7	3.7	0.00e+00	0	48	104	0	77	25090
2026-01-27 21:49:47.90	223.15	22.23	-53.3	-57.8	3.7	0.00e+00	0	48	104	0	77	25132
2026-01-27 21:49:48.89	222.99	22.05	-53.2	-57.7	3.7	0.00e+00	0	48	104	0	77	24916
2026-01-27 21:49:49.88	222.84	21.86	-53.0	-57.6	3.7	0.00e+00	0	48	104	0	77	24608
2026-01-27 21:49:50.88	222.68	21.68	-53.2	-57.7	3.7	0.00e+00	0	48	104	0	77	25016
2026-01-27 21:49:51.87	222.53	21.50	-53.0	-57.6	3.7	0.00e+00	0	48	104	0	77	24582
2026-01-27 21:49:52.86	222.37	21.32	-53.1	-57.5	3.7	0.00e+00	0	48	104	0	77	24416
2026-01-27 21:49:53.86	222.22	21.14	-52.9	-57.3	3.7	0.00e+00	0	48	104	0	77	23932
2026-01-27 21:49:54.85	222.07	20.96	-52.9	-57.4	3.7	0.00e+00	0	48	104	0	77	24162
2026-01-27 21:49:55.84	221.93	20.78	-52.7	-57.3	3.7	0.00e+00	0	48	104	0	77	23693
2026-01-27 21:49:56.83	221.78	20.61	-52.9	-57.3	3.7	0.00e+00	0	48	104	0	77	23913
2026-01-27 21:49:57.83	221.64	20.43	-52.8	-57.3	3.7	0.00e+00	0	48	104	0	77	23912
2026-01-27 21:49:58.82	221.50	20.26	-52.8	-57.3	3.7	0.00e+00	0	48	104	0	77	23939
2026-01-27 21:49:59.81	221.36	20.09	-52.8	-57.3	3.7	0.00e+00	0	48	104	0	77	23889
2026-01-27 21:50:00.80	221.23	19.92	-52.7	-57.4	3.7	0.00e+00	0	48	104	0	77	23994
2026-01-27 21:50:01.79	221.09	19.75	-52.6	-57.3	3.7	0.00e+00	0	48	104	0	77	23768
2026-01-27 21:50:02.79	220.96	19.59	-52.7	-57.4	3.7	0.00e+00	0	48	104	0	77	24011
2026-01-27 21:50:03.78	220.83	19.42	-52.6	-57.3	3.7	0.00e+00	0	48	104	0	77	23755
2026-01-27 21:50:04.77	220.70	19.26	-52.6	-57.3	3.7	0.00e+00	0	48	104	0	77	23814
2026-01-27 21:50:05.77	220.57	19.09	-52.5	-57.2	3.7	0.00e+00	0	48	104	0	77	23567
2026-01-27 21:50:06.76	220.44	18.93	-52.6	-57.3	3.7	0.00e+00	0	48	104	0	77	23695
2026-01-27 21:50:07.75	220.31	18.77	-52.7	-57.2	3.7	0.00e+00	0	48	104	0	77	23490
2026-01-27 21:50:08.74	220.19	18.61	-52.5	-57.2	3.7	0.00e+00	0	48	104	0	77	23509
2026-01-27 21:50:09.74	220.07	18.45	-52.6	-57.1	3.7	0.00e+00	0	48	104	0	77	23365
2026-01-27 21:50:10.73	219.95	18.29	-52.6	-57.2	3.7	0.00e+00	0	48	104	0	77	23573
2026-01-27 21:50:11.72	219.83	18.14	-52.6	-57.2	3.7	0.00e+00	0	48	104	0	77	23604
2026-01-27 21:50:12.72	219.71	17.98	-52.5	-57.1	3.6	0.00e+00	0	48	104	0	77	23178
2026-01-27 21:50:13.71	219.59	17.83	-52.7	-57.2	3.7	0.00e+00	0	48	104	0	76	24992
2026-01-27 21:50:14.70	219.48	17.68	-52.6	-57.1	3.7	0.00e+00	0	48	104	0	76	24718
2026-01-27 21:50:15.70	219.37	17.52	-52.8	-57.3	3.7	0.00e+00	0	48	104	0	76	25282
2026-01-27 21:50:16.69	219.25	17.37	-52.8	-57.3	3.7	0.00e+00	0	48	104	0	76	25229
2026-01-27 21:50:17.68	219.14	17.23	-52.8	-57.4	3.7	0.00e+00	0	48	104	0	76	25631
2026-01-27 21:50:18.68	219.03	17.08	-52.8	-57.4	3.7	0.00e+00	0	48	104	0	76	25495
2026-01-27 21:50:19.67	218.92	16.93	-52.9	-57.4	3.7	0.00e+00	0	48	104	0	76	25605
2026-01-27 21:50:20.66	218.82	16.78	-52.9	-57.5	3.7	0.00e+00	0	48	104	0	76	25686
2026-01-27 21:50:21.65	218.71	16.64	-52.8	-57.3	3.7	0.00e+00	0	48	104	0	76	25301
2026-01-27 21:50:22.65	218.61	16.49	-52.8	-57.4	3.7	0.00e+00	0	48	104	0	76	25576
2026-01-27 21:50:23.64	218.50	16.35	-52.6	-57.3	3.7	0.00e+00	0	48	104	0	76	25362
2026-01-27 21:50:24.63	218.40	16.21	-52.6	-57.2	3.7	0.00e+00	0	48	104	0	76	24996
2026-01-27 21:50:25.63	218.30	16.07	-52.6	-57.2	3.7	0.00e+00	0	48	104	0	76	24907
2026-01-27 21:50:26.62	218.20	15.93	-52.6	-57.2	3.7	0.00e+00	0	48	104	0	76	24968
2026-01-27 21:50:27.61	218.10	15.79	-52.4	-57.2	3.7	0.00e+00	0	48	104	0	76	24885
2026-01-27 21:50:28.60	218.00	15.65	-52.7	-57.2	3.7	0.00e+00	0	48	104	0	76	25094
2026-01-27 21:50:29.60	217.91	15.51	-52.7	-57.4	3.7	0.00e+00	0	48	104	0	76	25389
2026-01-27 21:50:30.59	217.81	15.38	-52.7	-57.3	3.7	0.00e+00	0	48	104	0	76	25303
2026-01-27 21:50:31.58	217.72	15.24	-52.6	-57.3	3.7	0.00e+00	0	48	104	0	76	25235
2026-01-27 21:50:32.58	217.62	15.11	-52.7	-57.3	3.7	0.00e+00	0	48	104	0	76	25154
2026-01-27 21:50:33.57	217.53	14.97	-52.5	-57.1	3.7	0.00e+00	0	48	104	0	76	24768
2026-01-27 21:50:34.56	217.44	14.84	-52.5	-57.2	3.7	0.00e+00	0	48	104	0	76	24944
2026-01-27 21:50:35.55	217.35	14.71	-52.5	-57.2	3.7	0.00e+00	0	48	104	0	76	24840
2026-01-27 21:50:36.55	217.26	14.58	-52.3	-57.0	3.7	0.00e+00	0	48	104	0	76	24503
2026-01-27 21:50:37.54	217.17	14.45	-52.1	-56.9	3.7	0.00e+00	0	48	104	0	76	24003
2026-01-27 21:50:38.53	217.08	14.32	-52.1	-56.9	3.7	0.00e+00	0	48	104	0	76	24191
2026-01-27 21:50:39.53	217.00	14.19	-52.2	-57.0	3.7	0.00e+00	0	48	104	0	76	24294
2026-01-27 21:50:40.52	216.91	14.06	-52.1	-56.9	3.7	0.00e+00	0	48	104	0	76	23981
2026-01-27 21:50:41.51	216.83	13.94	-52.2	-57.0	3.7	0.00e+00	0	48	104	0	76	24279
2026-01-27 21:50:42.51	216.74	13.81	-52.2	-56.9	3.7	0.00e+00	0	48	104	0	76	24137
2026-01-27 21:50:43.50	216.66	13.68	-52.2	-56.8	3.7	0.00e+00	0	48	104	0	76	23924
2026-01-27 21:50:44.49	216.58	13.56	-52.4	-57.0	3.7	0.00e+00	0	48	104	0	76	24480
2026-01-27 21:50:45.48	216.50	13.44	-52.5	-57.0	3.7	0.00e+00	0	48	104	0	76	24508
2026-01-27 21:50:46.48	216.41	13.31	-52.6	-57.1	3.7	0.00e+00	0	48	104	0	76	24766
2026-01-27 21:50:47.47	216.34	13.19	-52.5	-57.1	3.7	0.00e+00	0	48	104	0	76	24606
2026-01-27 21:50:48.47	216.26	13.07	-52.6	-57.1	3.7	0.00e+00	0	48	104	0	76	24649
2026-01-27 21:50:49.46	216.18	12.95	-52.5	-57.2	3.7	0.00e+00	0	48	104	0	76	24892
2026-01-27 21:50:50.45	216.10	12.83	-52.5	-57.1	3.7	0.00e+00	0	48	104	0	76	24762
2026-01-27 21:50:51.44	216.02	12.71	-52.6	-57.1	3.7	0.00e+00	0	48	104	0	76	24740
2026-01-27 21:50:52.44	215.95	12.59	-52.5	-57.1	3.7	0.00e+00	0	48	104	0	76	24689
2026-01-27 21:50:53.43	215.87	12.47	-52.4	-56.9	3.7	0.00e+00	0	48	104	0	76	23979
2026-01-27 21:50:54.42	215.80	12.36	-52.5	-56.9	3.7	0.00e+00	0	48	104	0	76	24104
2026-01-27 21:50:55.42	215.73	12.24	-52.5	-57.1	3.7	0.00e+00	0	48	104	0	76	24708
2026-01-27 21:50:56.41	215.65	12.13	-52.5	-56.9	3.7	0.00e+00	0	48	104	0	76	24102
2026-01-27 21:50:57.40	215.58	12.01	-52.4	-56.8	3.7	0.00e+00	0	48	104	0	76	23931
2026-01-27 21:50:58.39	215.51	11.90	-52.5	-56.9	3.7	0.00e+00	0	48	104	0	76	24175
2026-01-27 21:50:59.39	215.44	11.78	-52.5	-56.9	3.7	0.00e+00	0	48	104	0	76	24006
2026-01-27 21:51:00.38	215.37	11.67	-52.5	-57.0	3.7	0.00e+00	0	48	104	0	76	24424
2026-01-27 21:51:01.37	215.30	11.56	-52.2	-56.9	3.7	0.00e+00	0	48	104	0	76	24157
2026-01-27 21:51:02.37	215.23	11.45	-52.3	-57.0	3.7	0.00e+00	0	48	104	0	76	24316
2026-01-27 21:51:03.36	215.16	11.34	-52.5	-57.0	3.7	0.00e+00	0	48	104	0	76	24312
2026-01-27 21:51:04.35	215.10	11.23	-52.3	-57.0	3.7	0.00e+00	0	49	104	0	76	24361
2026-01-27 21:51:05.34	215.03	11.12	-52.3	-57.0	3.6	0.00e+00	0	48	104	0	76	24476
2026-01-27 21:51:06.34	214.96	11.01	-52.4	-57.0	3.7	0.00e+00	0	48	104	0	76	24475
2026-01-27 21:51:07.33	214.90	10.90	-52.3	-56.9	3.7	0.00e+00	0	48	104	0	76	24222
2026-01-27 21:51:08.32	214.83	10.79	-52.4	-57.0	3.7	0.00e+00	0	48	104	0	76	24460
2026-01-27 21:51:09.32	214.77	10.68	-52.4	-57.0	3.7	0.00e+00	0	48	104	0	76	24401
2026-01-27 21:51:10.31	214.71	10.58	-52.3	-57.0	3.7	0.00e+00	0	48	104	0	76	24363
2026-01-27 21:51:11.30	214.64	10.47	-52.4	-57.0	3.7	0.00e+00	0	48	104	0	76	24412
2026-01-27 21:51:12.29	214.58	10.37	-52.3	-57.0	3.7	0.00e+00	0	48	104	0	76	24379
2026-01-27 21:51:13.29	214.52	10.26	-52.3	-56.9	3.7	0.00e+00	0	48	104	0	76	24157
2026-01-27 21:51:14.28	214.46	10.16	-52.3	-57.0	3.7	0.00e+00	0	48	104	0	76	24314
2026-01-27 21:51:15.27	214.40	10.05	-52.3	-57.0	3.7	0.00e+00	0	48	104	0	76	24335
2026-01-27 21:51:16.27	214.34	9.95	-52.3	-57.0	3.7	0.00e+00	0	49	104	0	76	24344
2026-01-27 21:51:17.26	214.28	9.85	-52.3	-56.9	3.7	0.00e+00	0	48	104	0	76	24032
2026-01-27 21:51:18.25	214.22	9.75	-52.2	-56.9	3.7	0.00e+00	0	48	104	0	76	24079
2026-01-27 21:51:19.25	214.16	9.64	-52.3	-56.9	3.7	0.00e+00	0	48	104	0	76	24228
2026-01-27 21:51:20.24	214.10	9.54	-52.4	-57.0	3.7	0.00e+00	0	48	104	0	76	24397
2026-01-27 21:51:21.23	214.04	9.44	-51.8	-56.5	3.7	0.00e+00	0	48	104	0	75	24519
2026-01-27 21:51:22.22	213.99	9.34	-52.0	-56.8	3.7	0.00e+00	0	48	104	0	75	25196
2026-01-27 21:51:23.22	213.93	9.24	-52.3	-56.9	3.7	0.00e+00	0	48	104	0	75	25627
2026-01-27 21:51:24.21	213.87	9.14	-52.3	-57.0	3.7	0.00e+00	0	49	104	0	75	25767
2026-01-27 21:51:25.20	213.82	9.05	-51.7	-56.5	3.7	0.00e+00	0	48	104	0	75	24438
2026-01-27 21:51:26.20	213.76	8.95	-50.2	-53.5	3.7	0.00e+00	0	48	104	0	72	20568
2026-01-27 21:51:27.19	213.71	8.85	-50.6	-54.3	3.7	0.00e+00	0	49	104	0	71	23862
2026-01-27 21:51:28.18	213.65	8.75	-45.2	-51.2	3.7	0.00e+00	0	48	104	0	60	31313
2026-01-27 21:51:29.18	213.60	8.66	-49.8	-54.5	3.7	0.00e+00	0	48	104	0	70	25786
2026-01-27 21:51:30.17	213.55	8.56	-51.6	-56.6	3.7	0.00e+00	0	48	104	0	73	27523
2026-01-27 21:51:31.16	213.49	8.47	-52.3	-56.8	3.7	0.00e+00	0	48	104	0	75	25353
2026-01-27 21:51:32.15	213.44	8.37	-52.6	-57.2	3.7	0.00e+00	0	49	104	0	75	26393
2026-01-27 21:51:33.15	213.39	8.28	-52.2	-57.0	3.7	0.00e+00	0	48	104	0	75	25959
2026-01-27 21:51:34.14	213.34	8.18	-52.7	-57.2	3.7	0.00e+00	0	48	104	0	76	25020
2026-01-27 21:51:35.13	213.29	8.09	-52.2	-57.3	3.7	0.00e+00	0	48	104	0	76	25121
2026-01-27 21:51:36.13	213.24	8.00	-52.1	-57.4	3.7	0.00e+00	0	48	104	0	76	25394
2026-01-27 21:51:37.12	213.19	7.90	-52.5	-57.4	3.7	0.00e+00	0	49	104	0	76	25581
2026-01-27 21:51:38.11	213.14	7.81	-52.9	-57.4	3.7	0.00e+00	0	49	104	0	76	25653
2026-01-27 21:51:39.11	213.09	7.72	-52.4	-57.3	3.7	0.00e+00	0	49	104	0	76	25141
2026-01-27 21:51:40.10	213.04	7.63	-52.3	-57.1	3.7	0.00e+00	0	49	104	0	76	24764
2026-01-27 21:51:41.09	212.99	7.54	-52.4	-57.1	3.7	0.00e+00	0	49	104	0	76	24789
2026-01-27 21:51:42.09	212.94	7.45	-52.1	-57.0	3.7	0.00e+00	0	49	104	0	76	24334
2026-01-27 21:51:43.08	212.90	7.36	-52.4	-57.2	3.7	0.00e+00	0	49	104	0	76	25088
2026-01-27 21:51:44.07	212.85	7.27	-52.5	-57.2	3.7	0.00e+00	0	48	104	0	76	24928
2026-01-27 21:51:45.06	212.80	7.18	-52.5	-57.0	3.7	0.00e+00	0	49	104	0	76	24520
2026-01-27 21:51:46.06	212.75	7.09	-51.6	-57.1	3.7	0.00e+00	0	48	104	0	75	26195
2026-01-27 21:51:47.05	212.71	7.00	-51.9	-56.4	3.7	0.00e+00	0	49	104	0	75	24087
2026-01-27 21:51:48.04	212.66	6.91	-52.0	-56.9	3.7	0.00e+00	0	49	104	0	75	25565
2026-01-27 21:51:49.04	212.62	6.82	-52.3	-56.6	3.7	0.00e+00	0	48	104	0	75	24569
2026-01-27 21:51:50.03	212.57	6.74	-52.5	-56.8	3.7	0.00e+00	0	49	104	0	76	23745
2026-01-27 21:51:51.02	212.53	6.65	-52.1	-56.1	3.7	0.00e+00	0	48	104	0	75	23161
2026-01-27 21:51:52.01	212.48	6.56	-51.5	-55.3	3.7	0.00e+00	0	49	104	0	75	21239
2026-01-27 21:51:53.01	212.44	6.48	-51.5	-55.3	3.7	0.00e+00	0	48	104	0	75	21166
2026-01-27 21:51:54.00	212.40	6.39	-51.5	-55.2	3.7	0.00e+00	0	48	104	0	75	21068
2026-01-27 21:51:54.99	212.35	6.31	-51.5	-55.2	3.7	0.00e+00	0	48	104	0	75	21028
2026-01-27 21:51:55.98	212.31	6.22	-51.5	-55.2	3.7	0.00e+00	0	48	104	0	75	21089
2026-01-27 21:51:56.98	212.27	6.14	-51.5	-55.2	3.7	0.00e+00	0	49	104	0	75	21032
2026-01-27 21:51:57.97	212.23	6.05	-51.5	-55.2	3.7	0.00e+00	0	48	104	0	75	21025
2026-01-27 21:51:58.96	212.18	5.97	-51.5	-55.3	3.7	0.00e+00	0	48	104	0	75	21116
2026-01-27 21:51:59.96	212.14	5.88	-51.5	-55.2	3.7	0.00e+00	0	48	104	0	75	21076
2026-01-27 21:52:00.95	212.10	5.80	-51.5	-55.2	3.7	0.00e+00	0	49	104	0	75	21045
2026-01-27 21:52:01.94	212.06	5.72	-51.5	-55.2	3.7	0.00e+00	0	49	104	0	75	21112
2026-01-27 21:52:02.94	212.02	5.64	-51.5	-55.2	3.7	0.00e+00	0	48	104	0	75	21057
2026-01-27 21:52:03.93	211.98	5.55	-51.5	-55.2	3.7	0.00e+00	0	48	104	0	75	21013
2026-01-27 21:52:04.92	211.94	5.47	-51.5	-55.2	3.7	0.00e+00	0	49	104	0	75	21028
2026-01-27 21:52:05.92	211.90	5.39	-51.5	-55.2	3.7	0.00e+00	0	48	104	0	75	21006
2026-01-27 21:52:06.91	211.86	5.31	-51.5	-55.2	3.7	0.00e+00	0	48	104	0	75	21080
2026-01-27 21:52:07.90	211.82	5.23	-51.5	-55.2	3.7	0.00e+00	0	48	104	0	75	21070
2026-01-27 21:52:08.89	211.78	5.15	-51.5	-55.2	3.7	0.00e+00	0	48	104	0	75	21011
2026-01-27 21:52:09.89	211.74	5.07	-51.5	-55.2	3.7	0.00e+00	0	48	104	0	75	21039
2026-01-27 21:52:10.88	211.70	4.99	-51.5	-55.2	3.7	0.00e+00	0	49	104	0	75	21081

#Closed at: 2026-01-27 21:52:11
#Recorded file [0 MB]: D:/Data/31040_260128_004316.dat