passes_logs/2026/01/27/T1/T1__20260127_084958_KHAYYAM_rec.log

#Pass ID: 20260127_084958_KHAYYAM
#Satellite: KHAYYAM
#Configuration: KHAYYAM_480M
#almurnet v.1.7.20251203
#Start time: 2026-01-27 08:50:00

#Version: 2.0.20230620
#Station: T1
#Location: 37.570604 lon 55.790049 lat
#TLE: 1 53370U 22096A   26026.90146174  .00008867  00000+0  36041-3 0  9990
#TLE: 2 53370  97.3549 293.6979 0002070 107.3099 252.8365 15.24778957193054

#Time	Az	El	Level	Level2	SNR	BER	BlckErr	Temp	State	Recorded	gain1	gain2
2026-01-27 08:50:00.19	202.92	5.15	-52.1	-56.8	3.5	0.00e+00	0	44	0	0	76	23949
2026-01-27 08:50:01.18	203.03	5.22	-52.1	-56.8	3.7	0.00e+00	0	45	104	0	74	26651
2026-01-27 08:50:02.18	203.13	5.30	-52.1	-56.8	3.7	0.00e+00	0	45	104	0	74	26606
2026-01-27 08:50:03.18	203.24	5.37	-52.1	-56.8	3.7	0.00e+00	0	45	104	0	74	26635
2026-01-27 08:50:04.17	203.34	5.44	-52.1	-56.8	3.7	0.00e+00	0	45	104	0	74	26673
2026-01-27 08:50:05.17	203.45	5.52	-52.1	-56.8	3.7	0.00e+00	0	45	104	0	74	26642
2026-01-27 08:50:06.16	203.55	5.59	-52.1	-56.8	3.7	0.00e+00	0	45	104	0	74	26656
2026-01-27 08:50:07.16	203.66	5.66	-52.1	-56.8	3.7	0.00e+00	0	45	104	0	74	26667
2026-01-27 08:50:08.16	203.77	5.73	-52.1	-56.8	3.7	0.00e+00	0	45	104	0	74	26654
2026-01-27 08:50:09.16	203.88	5.81	-52.1	-56.7	3.7	0.00e+00	0	45	104	0	74	26545
2026-01-27 08:50:10.15	203.99	5.88	-52.1	-56.7	3.7	0.00e+00	0	45	104	0	74	26556
2026-01-27 08:50:11.15	204.10	5.96	-52.1	-56.8	3.7	0.00e+00	0	46	104	0	74	26773
2026-01-27 08:50:12.15	204.21	6.03	-52.1	-56.8	3.7	0.00e+00	0	46	104	0	74	26699
2026-01-27 08:50:13.15	204.32	6.11	-52.1	-56.8	3.7	0.00e+00	0	46	104	0	74	26652
2026-01-27 08:50:14.15	204.44	6.18	-52.1	-56.8	3.7	0.00e+00	0	46	104	0	74	26721
2026-01-27 08:50:15.14	204.55	6.26	-52.1	-56.7	3.7	0.00e+00	0	46	104	0	74	26522
2026-01-27 08:50:16.14	204.66	6.33	-52.0	-56.8	3.7	0.00e+00	0	46	104	0	74	26592
2026-01-27 08:50:17.14	204.78	6.41	-52.0	-56.7	3.7	0.00e+00	0	46	104	0	74	26499
2026-01-27 08:50:18.14	204.90	6.48	-52.0	-56.8	3.7	0.00e+00	0	46	104	0	74	26596
2026-01-27 08:50:19.14	205.01	6.56	-52.0	-56.7	3.7	0.00e+00	0	46	104	0	74	26521
2026-01-27 08:50:20.14	205.13	6.63	-52.0	-56.7	3.7	0.00e+00	0	46	104	0	74	26488
2026-01-27 08:50:21.13	205.25	6.71	-52.0	-56.7	3.7	0.00e+00	0	46	104	0	74	26404
2026-01-27 08:50:22.13	205.37	6.79	-52.0	-56.7	3.7	0.00e+00	0	46	104	0	74	26487
2026-01-27 08:50:23.13	205.49	6.86	-52.0	-56.7	3.7	0.00e+00	0	46	104	0	74	26380
2026-01-27 08:50:24.12	205.60	6.94	-52.0	-56.8	3.7	0.00e+00	0	47	104	0	74	26648
2026-01-27 08:50:25.13	205.73	7.02	-52.0	-56.7	3.7	0.00e+00	0	46	104	0	74	26546
2026-01-27 08:50:26.12	205.85	7.10	-52.0	-56.7	3.7	0.00e+00	0	46	104	0	74	26493
2026-01-27 08:50:27.13	205.97	7.17	-52.0	-56.7	3.7	0.00e+00	0	46	104	0	74	26570
2026-01-27 08:50:28.13	206.10	7.25	-52.1	-56.8	3.7	0.00e+00	0	47	104	0	74	26618
2026-01-27 08:50:29.13	206.22	7.33	-52.0	-56.8	3.7	0.00e+00	0	47	104	0	74	26589
2026-01-27 08:50:30.13	206.35	7.41	-52.0	-56.7	3.7	0.00e+00	0	47	104	0	74	26516
2026-01-27 08:50:31.12	206.47	7.49	-52.0	-56.7	3.7	0.00e+00	0	47	104	0	74	26537
2026-01-27 08:50:32.12	206.60	7.57	-52.0	-56.7	3.6	0.00e+00	0	47	104	0	74	26467
2026-01-27 08:50:33.12	206.73	7.65	-52.0	-56.7	3.7	0.00e+00	0	47	104	0	74	26473
2026-01-27 08:50:34.12	206.85	7.73	-52.0	-56.7	3.7	0.00e+00	0	47	104	0	74	26494
2026-01-27 08:50:35.11	206.98	7.80	-52.0	-56.7	3.7	0.00e+00	0	47	104	0	74	26510
2026-01-27 08:50:36.11	207.11	7.88	-52.0	-56.7	3.7	0.00e+00	0	47	104	0	74	26461
2026-01-27 08:50:37.11	207.24	7.96	-52.0	-56.7	3.7	0.00e+00	0	47	104	0	74	26500
2026-01-27 08:50:38.11	207.38	8.05	-52.0	-56.7	3.7	0.00e+00	0	47	104	0	74	26415
2026-01-27 08:50:39.10	207.51	8.13	-52.1	-56.7	3.7	0.00e+00	0	47	104	0	74	26533
2026-01-27 08:50:40.10	207.64	8.21	-52.0	-56.7	3.7	0.00e+00	0	47	104	0	74	26497
2026-01-27 08:50:41.10	207.78	8.29	-52.0	-56.7	3.7	0.00e+00	0	47	104	0	74	26503
2026-01-27 08:50:42.10	207.91	8.37	-52.1	-56.8	3.7	0.00e+00	0	47	104	0	74	26610
2026-01-27 08:50:43.09	208.05	8.45	-52.0	-56.7	3.7	0.00e+00	0	47	104	0	74	26463
2026-01-27 08:50:44.09	208.18	8.53	-52.0	-56.7	3.7	0.00e+00	0	47	104	0	74	26473
2026-01-27 08:50:45.09	208.32	8.61	-52.0	-56.7	3.7	0.00e+00	0	47	104	0	74	26463
2026-01-27 08:50:46.09	208.46	8.70	-52.0	-56.7	3.7	0.00e+00	0	47	104	0	74	26424
2026-01-27 08:50:47.08	208.60	8.78	-52.0	-56.7	3.7	0.00e+00	0	47	104	0	74	26578
2026-01-27 08:50:48.09	208.74	8.86	-52.0	-56.7	3.7	0.00e+00	0	47	104	0	74	26392
2026-01-27 08:50:49.08	208.89	8.94	-52.0	-56.7	3.7	0.00e+00	0	48	104	0	74	26560
2026-01-27 08:50:50.08	209.03	9.03	-52.0	-56.7	3.7	0.00e+00	0	47	104	0	74	26385
2026-01-27 08:50:51.08	209.17	9.11	-52.3	-57.0	3.7	0.00e+00	0	47	104	0	75	25767
2026-01-27 08:50:52.07	209.32	9.19	-52.3	-57.0	3.7	0.00e+00	0	48	104	0	75	25698
2026-01-27 08:50:53.07	209.46	9.28	-52.1	-56.8	3.7	0.00e+00	0	48	104	0	75	25236
2026-01-27 08:50:54.07	209.61	9.36	-52.3	-56.9	3.7	0.00e+00	0	48	104	0	75	25661
2026-01-27 08:50:55.06	209.76	9.45	-52.4	-57.1	3.7	0.00e+00	0	48	104	0	75	26275
2026-01-27 08:50:56.06	209.91	9.53	-52.5	-57.2	3.7	0.00e+00	0	48	104	0	75	26471
2026-01-27 08:50:57.06	210.06	9.62	-52.3	-57.0	3.7	0.00e+00	0	48	104	0	75	25797
2026-01-27 08:50:58.06	210.21	9.70	-52.5	-57.1	3.7	0.00e+00	0	48	104	0	75	26062
2026-01-27 08:50:59.05	210.36	9.79	-52.8	-57.5	3.7	0.00e+00	0	48	104	0	76	25733
2026-01-27 08:51:00.05	210.52	9.87	-52.7	-57.5	3.7	0.00e+00	0	48	104	0	76	25690
2026-01-27 08:51:01.05	210.67	9.96	-52.5	-57.3	3.7	0.00e+00	0	48	104	0	76	25141
2026-01-27 08:51:02.05	210.83	10.04	-47.1	-48.9	4.7	0.00e+00	301	48	104	0	66	17077
2026-01-27 08:51:03.05	210.98	10.13	-45.8	-47.2	8.6	3.10e-02	0	48	0	33554432	62	17586
2026-01-27 08:51:04.04	211.14	10.22	-44.0	-45.2	10.6	1.03e-02	0	48	0	92274688	59	16639
2026-01-27 08:51:05.04	211.30	10.30	-43.4	-44.6	11.2	4.02e-03	0	49	0	150994944	58	16505
2026-01-27 08:51:06.04	211.46	10.39	-42.8	-43.9	11.8	1.53e-03	0	49	0	209715200	57	16159
2026-01-27 08:51:07.03	211.62	10.48	-42.0	-43.1	12.5	6.02e-04	0	49	0	268435456	56	15565
2026-01-27 08:51:08.03	211.78	10.56	-40.5	-41.6	13.8	1.19e-04	0	49	0	327155712	53	15528
2026-01-27 08:51:09.03	211.95	10.65	-39.2	-40.2	15.0	0.00e+00	0	49	0	394264576	50	15762
2026-01-27 08:51:10.03	212.11	10.74	-38.2	-39.2	15.7	0.00e+00	0	49	0	452984832	48	15742
2026-01-27 08:51:11.03	212.28	10.83	-37.8	-38.7	15.4	0.00e+00	0	49	0	511705088	47	15785
2026-01-27 08:51:12.03	212.45	10.92	-37.0	-37.9	16.0	0.00e+00	0	49	0	570425344	46	15245
2026-01-27 08:51:13.02	212.61	11.01	-35.9	-36.8	16.6	0.00e+00	0	49	0	629145600	43	15909
2026-01-27 08:51:14.02	212.78	11.10	-35.2	-36.1	17.0	0.00e+00	0	49	0	687865856	42	15550
2026-01-27 08:51:15.02	212.95	11.18	-34.6	-35.5	17.4	0.00e+00	0	49	0	754974720	41	15352
2026-01-27 08:51:16.01	213.13	11.27	-34.0	-34.9	17.8	0.00e+00	0	49	0	813694976	40	15200
2026-01-27 08:51:17.01	213.30	11.36	-33.7	-34.6	18.1	0.00e+00	0	49	0	872415232	39	15539
2026-01-27 08:51:18.02	213.48	11.45	-33.5	-34.3	18.1	0.00e+00	0	49	0	931135488	38	16007
2026-01-27 08:51:19.01	213.65	11.54	-33.5	-34.4	18.1	0.00e+00	0	49	0	989855744	38	16168
2026-01-27 08:51:20.01	213.83	11.63	-33.4	-34.3	18.2	0.00e+00	0	49	0	1048576000	38	15974
2026-01-27 08:51:21.01	214.01	11.73	-33.4	-34.3	18.1	0.00e+00	0	49	0	1107296256	38	15879
2026-01-27 08:51:22.00	214.19	11.82	-33.2	-34.1	18.2	0.00e+00	0	49	0	1174405120	38	15572
2026-01-27 08:51:23.00	214.37	11.91	-33.1	-34.0	18.3	0.00e+00	0	49	0	1233125376	38	15421
2026-01-27 08:51:24.00	214.55	12.00	-33.1	-34.0	18.3	0.00e+00	0	49	0	1291845632	38	15300
2026-01-27 08:51:24.99	214.73	12.09	-33.0	-33.9	18.3	0.00e+00	0	49	0	1350565888	38	15267
2026-01-27 08:51:25.99	214.92	12.18	-32.9	-33.8	18.4	0.00e+00	0	49	0	1409286144	37	15975
2026-01-27 08:51:26.99	215.11	12.27	-33.1	-34.0	18.3	0.00e+00	0	49	0	1468006400	37	16317
2026-01-27 08:51:27.98	215.29	12.37	-32.9	-33.8	18.5	0.00e+00	0	50	0	1526726656	37	15912
2026-01-27 08:51:28.99	215.48	12.46	-33.0	-33.9	18.4	0.00e+00	0	49	0	1585446912	37	16093
2026-01-27 08:51:29.99	215.68	12.55	-32.9	-33.8	18.4	0.00e+00	0	49	0	1644167168	37	15923
2026-01-27 08:51:30.99	215.87	12.65	-32.6	-33.5	18.6	0.00e+00	0	49	0	1711276032	37	15396
2026-01-27 08:51:31.98	216.06	12.74	-32.8	-33.7	18.3	0.00e+00	0	49	0	1769996288	37	15674
2026-01-27 08:51:32.98	216.26	12.83	-32.6	-33.5	18.3	0.00e+00	0	49	0	1828716544	37	15439
2026-01-27 08:51:33.98	216.45	12.93	-32.5	-33.3	18.4	0.00e+00	0	49	0	1887436800	37	15120
2026-01-27 08:51:34.98	216.65	13.02	-32.6	-33.5	18.4	0.00e+00	0	50	0	1946157056	37	15318
2026-01-27 08:51:35.98	216.85	13.11	-32.7	-33.6	18.4	0.00e+00	0	50	0	2004877312	37	15488
2026-01-27 08:51:36.97	217.05	13.21	-32.5	-33.4	18.5	0.00e+00	0	50	0	2071986176	37	15133
2026-01-27 08:51:37.97	217.25	13.30	-32.3	-33.2	18.6	0.00e+00	0	50	0	2130706432	36	15811
2026-01-27 08:51:38.97	217.46	13.40	-32.4	-33.3	18.7	0.00e+00	0	50	0	2189426688	36	15866
2026-01-27 08:51:39.97	217.67	13.49	-32.3	-33.2	18.7	0.00e+00	0	50	0	2248146944	36	15745
2026-01-27 08:51:40.97	217.87	13.59	-32.5	-33.4	18.5	0.00e+00	0	50	0	2306867200	36	16081
2026-01-27 08:51:41.96	218.08	13.68	-32.6	-33.4	18.4	0.00e+00	0	50	0	2365587456	36	16169
2026-01-27 08:51:42.96	218.29	13.78	-32.1	-33.0	18.7	0.00e+00	0	50	0	2424307712	36	15424
2026-01-27 08:51:43.96	218.50	13.87	-32.2	-33.0	18.7	0.00e+00	0	50	0	2491416576	36	15462
2026-01-27 08:51:44.95	218.72	13.97	-32.1	-33.0	18.7	0.00e+00	0	50	0	2550136832	36	15320
2026-01-27 08:51:45.95	218.93	14.06	-32.0	-32.9	18.8	0.00e+00	0	50	0	2608857088	36	15232
2026-01-27 08:51:46.95	219.15	14.16	-32.0	-32.8	18.8	0.00e+00	0	50	0	2667577344	36	15113
2026-01-27 08:51:47.95	219.37	14.26	-30.7	-31.6	18.6	0.00e+00	0	50	0	2726297600	33	15509
2026-01-27 08:51:48.94	219.59	14.35	-30.8	-31.7	18.5	0.00e+00	0	50	0	2785017856	33	15683
2026-01-27 08:51:49.95	219.81	14.45	-30.7	-31.5	18.6	0.00e+00	0	50	0	2852126720	33	15457
2026-01-27 08:51:50.95	220.04	14.55	-30.8	-31.6	18.5	0.00e+00	0	50	0	2910846976	33	15617
2026-01-27 08:51:51.95	220.26	14.64	-30.6	-31.5	18.5	0.00e+00	0	50	0	2969567232	33	15394
2026-01-27 08:51:52.94	220.49	14.74	-30.5	-31.3	18.7	0.00e+00	0	50	0	3028287488	32	15953
2026-01-27 08:51:53.94	220.72	14.84	-30.5	-31.3	18.6	0.00e+00	0	50	0	3087007744	32	16014
2026-01-27 08:51:54.94	220.95	14.94	-30.4	-31.2	18.8	0.00e+00	0	50	0	3145728000	32	15771
2026-01-27 08:51:55.94	221.18	15.03	-30.4	-31.3	18.7	0.00e+00	0	50	0	3204448256	32	15933
2026-01-27 08:51:56.94	221.42	15.13	-30.4	-31.3	18.5	0.00e+00	0	50	0	3271557120	32	15943
2026-01-27 08:51:57.94	221.65	15.23	-30.6	-31.5	18.5	0.00e+00	0	50	0	3321888768	32	16290
2026-01-27 08:51:58.93	221.89	15.33	-30.3	-31.2	18.7	0.00e+00	0	50	0	3388997632	32	15669
2026-01-27 08:51:59.93	222.13	15.42	-30.2	-31.0	18.8	0.00e+00	0	50	0	3447717888	32	15431
2026-01-27 08:52:00.93	222.37	15.52	-30.2	-31.1	18.8	0.00e+00	0	50	0	3506438144	32	15560
2026-01-27 08:52:01.93	222.62	15.62	-30.4	-31.3	18.8	0.00e+00	0	50	0	3565158400	32	15931
2026-01-27 08:52:02.93	222.86	15.72	-30.5	-31.3	18.8	0.00e+00	0	50	0	3623878656	32	15982
2026-01-27 08:52:03.93	223.11	15.82	-30.1	-31.0	18.9	0.00e+00	0	50	0	3682598912	32	15361
2026-01-27 08:52:04.92	223.36	15.92	-30.0	-30.8	19.0	0.00e+00	0	50	0	3741319168	32	15108
2026-01-27 08:52:05.92	223.61	16.01	-29.9	-30.7	18.9	0.00e+00	0	50	0	3808428032	31	15810
2026-01-27 08:52:06.92	223.86	16.11	-30.0	-30.8	18.9	0.00e+00	0	50	0	3867148288	31	15947
2026-01-27 08:52:07.92	224.12	16.21	-29.7	-30.6	19.1	0.00e+00	0	50	0	3925868544	31	15507
2026-01-27 08:52:08.91	224.37	16.31	-29.8	-30.6	19.0	0.00e+00	0	50	0	3984588800	31	15604
2026-01-27 08:52:09.91	224.63	16.41	-29.8	-30.6	18.9	0.00e+00	0	50	0	4043309056	31	15606
2026-01-27 08:52:10.91	224.89	16.51	-29.9	-30.8	18.9	0.00e+00	0	50	0	4102029312	31	15835
2026-01-27 08:52:11.91	225.15	16.61	-30.0	-30.8	18.9	0.00e+00	0	50	0	4169138176	31	15976
2026-01-27 08:52:12.91	225.42	16.70	-29.6	-30.5	19.1	0.00e+00	0	50	0	4227858432	31	15374
2026-01-27 08:52:13.91	225.69	16.80	-29.6	-30.4	19.2	0.00e+00	0	50	0	4286578688	31	15225
2026-01-27 08:52:14.90	225.95	16.90	-29.5	-30.4	19.1	0.00e+00	0	50	0	4345298944	31	15201
2026-01-27 08:52:15.90	226.23	17.00	-29.7	-30.5	18.9	0.00e+00	0	50	0	4404019200	31	15467
2026-01-27 08:52:16.90	226.50	17.10	-30.0	-30.9	18.6	0.00e+00	0	50	0	4462739456	31	16146
2026-01-27 08:52:17.90	226.77	17.20	-29.6	-30.5	18.9	0.00e+00	0	50	0	4521459712	31	15335
2026-01-27 08:52:18.90	227.05	17.30	-29.6	-30.5	18.9	0.00e+00	0	50	0	4588568576	31	15350
2026-01-27 08:52:19.89	227.33	17.39	-29.5	-30.4	19.1	0.00e+00	0	50	0	4647288832	31	15156
2026-01-27 08:52:20.89	227.61	17.49	-29.5	-30.4	18.9	0.00e+00	0	50	0	4706009088	30	16097
2026-01-27 08:52:21.89	227.89	17.59	-29.3	-30.2	19.2	0.00e+00	0	50	0	4764729344	30	15727
2026-01-27 08:52:22.89	228.18	17.69	-29.2	-30.1	19.3	0.00e+00	0	50	0	4823449600	30	15496
2026-01-27 08:52:23.89	228.47	17.79	-29.1	-30.0	19.3	0.00e+00	0	50	0	4882169856	30	15375
2026-01-27 08:52:24.88	228.75	17.88	-29.3	-30.1	19.3	0.00e+00	0	50	0	4940890112	30	15607
2026-01-27 08:52:25.89	229.05	17.98	-29.2	-30.1	19.2	0.00e+00	0	50	0	4999610368	30	15498
2026-01-27 08:52:26.89	229.34	18.08	-29.3	-30.1	19.2	0.00e+00	0	50	0	5058330624	30	15614
2026-01-27 08:52:27.88	229.64	18.18	-29.1	-30.0	19.3	0.00e+00	0	50	0	5125439488	30	15363
2026-01-27 08:52:28.88	229.94	18.28	-29.2	-30.1	19.3	0.00e+00	0	50	0	5184159744	30	15500
2026-01-27 08:52:29.88	230.24	18.37	-29.1	-30.0	19.3	0.00e+00	0	50	0	5242880000	30	15401
2026-01-27 08:52:30.88	230.54	18.47	-29.0	-29.9	19.2	0.00e+00	0	50	0	5301600256	29	16049
2026-01-27 08:52:31.88	230.85	18.57	-28.9	-29.8	19.3	0.00e+00	0	50	0	5360320512	29	15888
2026-01-27 08:52:32.87	231.15	18.66	-29.0	-29.9	19.4	0.00e+00	0	50	0	5419040768	29	16079
2026-01-27 08:52:33.87	231.46	18.76	-29.0	-29.9	19.4	0.00e+00	0	50	0	5486149632	29	16105
2026-01-27 08:52:34.87	231.77	18.86	-29.0	-29.8	19.5	0.00e+00	0	50	0	5544869888	29	15942
2026-01-27 08:52:35.87	232.09	18.95	-29.0	-29.8	19.4	0.00e+00	0	51	0	5603590144	29	16014
2026-01-27 08:52:36.86	232.40	19.05	-29.0	-29.8	19.4	0.00e+00	0	51	0	5662310400	29	16001
2026-01-27 08:52:37.87	232.72	19.14	-28.9	-29.8	19.5	0.00e+00	0	50	0	5721030656	29	15913
2026-01-27 08:52:38.87	233.04	19.24	-28.7	-29.5	19.7	0.00e+00	0	50	0	5779750912	29	15413
2026-01-27 08:52:39.87	233.37	19.33	-28.7	-29.5	19.5	0.00e+00	0	50	0	5838471168	29	15447
2026-01-27 08:52:40.86	233.69	19.43	-28.8	-29.6	19.4	0.00e+00	0	50	0	5905580032	29	15615
2026-01-27 08:52:41.86	234.02	19.52	-28.7	-29.6	19.5	0.00e+00	0	50	0	5964300288	29	15552
2026-01-27 08:52:42.86	234.35	19.61	-28.4	-29.2	19.9	0.00e+00	0	50	0	6023020544	28	15770
2026-01-27 08:52:43.86	234.68	19.71	-28.5	-29.3	19.6	0.00e+00	0	50	0	6081740800	28	15971
2026-01-27 08:52:44.86	235.02	19.80	-28.5	-29.3	19.7	0.00e+00	0	50	0	6140461056	28	15966
2026-01-27 08:52:45.86	235.35	19.89	-28.3	-29.2	19.8	0.00e+00	0	50	0	6199181312	28	15745
2026-01-27 08:52:46.85	235.69	19.98	-28.4	-29.2	19.8	0.00e+00	0	50	0	6257901568	28	15766
2026-01-27 08:52:47.85	236.03	20.07	-28.5	-29.4	19.5	0.00e+00	0	50	0	6325010432	28	16020
2026-01-27 08:52:48.85	236.37	20.16	-28.5	-29.4	19.6	0.00e+00	0	51	0	6383730688	28	16082
2026-01-27 08:52:49.85	236.72	20.25	-28.2	-29.1	19.9	0.00e+00	0	50	0	6442450944	28	15546
2026-01-27 08:52:50.85	237.07	20.34	-28.2	-29.0	20.0	0.00e+00	0	50	0	6501171200	28	15440
2026-01-27 08:52:51.84	237.42	20.43	-28.2	-29.1	19.7	0.00e+00	0	51	0	6559891456	28	15588
2026-01-27 08:52:52.84	237.77	20.52	-28.3	-29.1	19.7	0.00e+00	0	51	0	6618611712	28	15612
2026-01-27 08:52:53.84	238.12	20.61	-28.0	-28.9	19.9	0.00e+00	0	51	0	6677331968	28	15180
2026-01-27 08:52:54.84	238.48	20.70	-28.1	-28.9	19.9	0.00e+00	0	51	0	6736052224	28	15268
2026-01-27 08:52:55.82	238.83	20.78	-28.2	-29.1	19.7	0.00e+00	0	51	0	6803161088	28	15561
2026-01-27 08:52:56.82	239.20	20.87	-28.3	-29.2	19.7	0.00e+00	0	51	0	6861881344	28	15714
2026-01-27 08:52:57.82	239.56	20.95	-28.1	-28.9	20.0	0.00e+00	0	51	0	6920601600	27	16134
2026-01-27 08:52:58.82	239.93	21.04	-28.2	-29.0	20.0	0.00e+00	0	51	0	6979321856	27	16322
2026-01-27 08:52:59.82	240.30	21.12	-28.3	-29.2	19.7	0.00e+00	0	51	0	7038042112	27	16623
2026-01-27 08:53:00.82	240.67	21.21	-28.0	-28.8	20.0	0.00e+00	0	51	0	7096762368	27	15989
2026-01-27 08:53:01.81	241.04	21.29	-27.8	-28.7	20.2	0.00e+00	0	50	0	7155482624	27	15724
2026-01-27 08:53:02.81	241.41	21.37	-28.0	-28.9	19.9	0.00e+00	0	51	0	7222591488	27	16037
2026-01-27 08:53:03.81	241.79	21.45	-28.1	-28.9	19.9	0.00e+00	0	50	0	7281311744	27	16174
2026-01-27 08:53:04.80	242.17	21.53	-27.8	-28.6	20.2	0.00e+00	0	51	0	7340032000	27	15612
2026-01-27 08:53:05.80	242.55	21.61	-27.8	-28.7	20.3	0.00e+00	0	50	0	7398752256	27	15675
2026-01-27 08:53:06.80	242.93	21.69	-28.0	-28.9	20.1	0.00e+00	0	51	0	7457472512	27	16044
2026-01-27 08:53:07.80	243.32	21.77	-27.7	-28.5	20.4	0.00e+00	0	51	0	7516192768	27	15408
2026-01-27 08:53:08.80	243.71	21.84	-27.7	-28.5	20.4	0.00e+00	0	51	0	7574913024	27	15469
2026-01-27 08:53:09.80	244.10	21.92	-27.9	-28.8	20.1	0.00e+00	0	51	0	7642021888	27	15872
2026-01-27 08:53:10.79	244.49	21.99	-28.0	-28.8	20.2	0.00e+00	0	51	0	7700742144	27	15947
2026-01-27 08:53:11.79	244.88	22.07	-27.6	-28.4	20.4	0.00e+00	0	51	0	7759462400	27	15274
2026-01-27 08:53:12.80	245.29	22.14	-27.7	-28.5	20.4	0.00e+00	0	51	0	7818182656	27	15466
2026-01-27 08:53:13.79	245.68	22.21	-27.9	-28.8	20.1	0.00e+00	0	50	0	7876902912	27	15900
2026-01-27 08:53:14.79	246.08	22.28	-27.5	-28.4	20.5	0.00e+00	0	51	0	7935623168	27	15131
2026-01-27 08:53:15.79	246.49	22.35	-27.5	-28.4	20.5	0.00e+00	0	51	0	8002732032	26	16064
2026-01-27 08:53:16.79	246.89	22.42	-27.7	-28.6	20.2	0.00e+00	0	50	0	8053063680	26	16444
2026-01-27 08:53:17.79	247.30	22.49	-27.5	-28.4	20.4	0.00e+00	0	50	0	8120172544	26	16075
2026-01-27 08:53:18.79	247.71	22.56	-27.6	-28.4	20.4	0.00e+00	0	51	0	8178892800	26	16177
2026-01-27 08:53:19.78	248.11	22.62	-27.5	-28.4	20.2	0.00e+00	0	51	0	8237613056	26	16058
2026-01-27 08:53:20.78	248.53	22.68	-27.7	-28.5	20.2	0.00e+00	0	51	0	8296333312	26	16362
2026-01-27 08:53:21.78	248.94	22.75	-27.6	-28.5	20.3	0.00e+00	0	51	0	8355053568	26	16275
2026-01-27 08:53:22.78	249.36	22.81	-27.6	-28.5	20.2	0.00e+00	0	50	0	8413773824	26	16287
2026-01-27 08:53:23.77	249.77	22.87	-27.8	-28.7	20.1	0.00e+00	0	51	0	8472494080	26	16647
2026-01-27 08:53:24.77	250.19	22.93	-27.5	-28.3	20.5	0.00e+00	0	51	0	8539602944	26	15920
2026-01-27 08:53:25.77	250.62	22.99	-27.6	-28.4	20.3	0.00e+00	0	51	0	8598323200	26	16158
2026-01-27 08:53:26.77	251.04	23.04	-27.6	-28.4	20.4	0.00e+00	0	51	0	8657043456	26	16136
2026-01-27 08:53:27.77	251.46	23.10	-27.3	-28.1	20.5	0.00e+00	0	51	0	8715763712	26	15610
2026-01-27 08:53:28.77	251.89	23.15	-27.4	-28.3	20.4	0.00e+00	0	50	0	8774483968	26	15896
2026-01-27 08:53:29.77	252.32	23.20	-27.4	-28.3	20.4	0.00e+00	0	51	0	8833204224	26	15851
2026-01-27 08:53:30.77	252.75	23.26	-27.6	-28.4	20.3	0.00e+00	0	51	0	8891924480	26	16119
2026-01-27 08:53:31.76	253.18	23.30	-27.2	-28.1	20.3	0.00e+00	0	51	0	8959033344	26	15549
2026-01-27 08:53:32.76	253.61	23.35	-27.3	-28.2	20.3	0.00e+00	0	51	0	9017753600	26	15658
2026-01-27 08:53:33.76	254.05	23.40	-27.3	-28.2	20.3	0.00e+00	0	51	0	9076473856	26	15668
2026-01-27 08:53:34.75	254.48	23.45	-27.2	-28.0	20.4	0.00e+00	0	51	0	9135194112	26	15436
2026-01-27 08:53:35.75	254.92	23.49	-27.3	-28.2	20.5	0.00e+00	0	51	0	9193914368	26	15704
2026-01-27 08:53:36.74	255.35	23.53	-27.3	-28.1	20.5	0.00e+00	0	51	0	9252634624	26	15614
2026-01-27 08:53:37.74	255.79	23.57	-27.2	-28.0	20.5	0.00e+00	0	51	0	9319743488	26	15392
2026-01-27 08:53:38.74	256.23	23.61	-27.3	-28.1	20.4	0.00e+00	0	51	0	9370075136	26	15593
2026-01-27 08:53:39.73	256.67	23.65	-27.4	-28.2	20.4	0.00e+00	0	51	0	9437184000	26	15741
2026-01-27 08:53:40.73	257.11	23.69	-27.5	-28.3	20.4	0.00e+00	0	51	0	9495904256	26	15980
2026-01-27 08:53:41.73	257.56	23.72	-27.2	-28.0	20.8	0.00e+00	0	51	0	9554624512	26	15445
2026-01-27 08:53:42.73	258.00	23.76	-27.3	-28.2	20.7	0.00e+00	0	51	0	9613344768	26	15718
2026-01-27 08:53:43.72	258.45	23.79	-27.4	-28.3	20.5	0.00e+00	0	51	0	9672065024	26	15869
2026-01-27 08:53:44.72	258.89	23.82	-27.1	-28.0	20.8	0.00e+00	0	50	0	9730785280	26	15333
2026-01-27 08:53:45.72	259.34	23.85	-27.1	-28.0	20.8	0.00e+00	0	51	0	9789505536	26	15344
2026-01-27 08:53:46.72	259.79	23.87	-27.4	-28.2	20.5	0.00e+00	0	50	0	9856614400	26	15776
2026-01-27 08:53:47.71	260.24	23.90	-27.0	-27.9	20.8	0.00e+00	0	51	0	9915334656	26	15180
2026-01-27 08:53:48.71	260.69	23.92	-27.1	-28.0	20.7	0.00e+00	0	51	0	9974054912	26	15350
2026-01-27 08:53:49.71	261.14	23.94	-27.2	-28.0	20.5	0.00e+00	0	51	0	10032775168	26	15462
2026-01-27 08:53:50.71	261.59	23.96	-26.9	-27.8	20.8	0.00e+00	0	51	0	10091495424	25	15856
2026-01-27 08:53:51.71	262.05	23.98	-27.0	-27.8	20.8	0.00e+00	0	51	0	10150215680	25	16012
2026-01-27 08:53:52.71	262.50	24.00	-53.1	-57.7	3.7	0.00e+00	0	51	104	10200547328	76	26512
2026-01-27 08:53:53.70	262.95	24.02	-53.0	-57.7	3.7	0.00e+00	0	50	104	10200547328	76	26392
2026-01-27 08:53:54.70	263.40	24.03	-53.0	-57.8	3.7	0.00e+00	0	50	104	10200547328	76	26584
2026-01-27 08:53:55.70	263.86	24.04	-53.1	-57.8	3.7	0.00e+00	0	50	104	10200547328	76	26740
2026-01-27 08:53:56.70	264.31	24.05	-53.2	-57.8	3.7	0.00e+00	0	50	104	10200547328	76	26613
2026-01-27 08:53:57.69	264.77	24.06	-53.0	-57.8	3.7	0.00e+00	0	50	104	10200547328	76	26611
2026-01-27 08:53:58.69	265.22	24.07	-53.2	-57.7	3.7	0.00e+00	0	50	104	10200547328	77	25084
2026-01-27 08:53:59.69	265.68	24.07	-53.3	-57.8	3.7	0.00e+00	0	50	104	10200547328	77	25224
2026-01-27 08:54:00.69	266.13	24.07	-53.2	-57.8	3.7	0.00e+00	0	50	104	10200547328	77	25346
2026-01-27 08:54:01.69	266.59	24.08	-53.1	-57.7	3.7	0.00e+00	0	50	104	10200547328	77	25060
2026-01-27 08:54:02.69	267.05	24.08	-53.2	-57.8	3.7	0.00e+00	0	50	104	10200547328	77	25225
2026-01-27 08:54:03.68	267.50	24.07	-53.6	-58.1	3.7	0.00e+00	0	50	104	10200547328	77	26097
2026-01-27 08:54:04.68	267.95	24.07	-53.4	-58.0	3.7	0.00e+00	0	50	104	10200547328	77	25689
2026-01-27 08:54:05.68	268.41	24.07	-53.4	-58.0	3.7	0.00e+00	0	50	104	10200547328	77	25703
2026-01-27 08:54:06.68	268.86	24.06	-53.2	-57.9	3.7	0.00e+00	0	50	104	10200547328	77	25418
2026-01-27 08:54:07.68	269.32	24.05	-53.2	-57.9	3.7	0.00e+00	0	50	104	10200547328	77	25602
2026-01-27 08:54:08.67	269.77	24.04	-53.2	-57.9	3.7	0.00e+00	0	50	104	10200547328	77	25577
2026-01-27 08:54:09.67	270.23	24.03	-53.2	-57.9	3.7	0.00e+00	0	50	104	10200547328	77	25623
2026-01-27 08:54:10.66	270.68	24.01	-53.1	-57.9	3.7	0.00e+00	0	50	104	10200547328	77	25550
2026-01-27 08:54:11.66	271.13	24.00	-53.3	-58.0	3.7	0.00e+00	0	50	104	10200547328	77	25689
2026-01-27 08:54:12.66	271.58	23.98	-53.3	-58.0	3.6	0.00e+00	0	50	104	10200547328	77	25746
2026-01-27 08:54:13.66	272.03	23.96	-53.3	-58.0	3.7	0.00e+00	0	50	104	10200547328	77	25775
2026-01-27 08:54:14.65	272.48	23.94	-53.4	-58.0	3.7	0.00e+00	0	50	104	10200547328	77	25853
2026-01-27 08:54:15.65	272.93	23.92	-53.6	-58.1	3.7	0.00e+00	0	50	104	10200547328	77	26143
2026-01-27 08:54:16.65	273.38	23.90	-53.5	-58.0	3.7	0.00e+00	0	50	104	10200547328	77	25964
2026-01-27 08:54:17.65	273.83	23.87	-53.5	-58.1	3.7	0.00e+00	0	50	104	10200547328	77	25995
2026-01-27 08:54:18.64	274.28	23.85	-53.3	-57.9	3.7	0.00e+00	0	50	104	10200547328	77	25462
2026-01-27 08:54:19.64	274.73	23.82	-53.3	-58.0	3.7	0.00e+00	0	50	104	10200547328	77	25690
2026-01-27 08:54:20.64	275.17	23.79	-53.2	-58.0	3.7	0.00e+00	0	50	104	10200547328	77	25687
2026-01-27 08:54:21.64	275.62	23.76	-53.2	-57.9	3.7	0.00e+00	0	50	104	10200547328	77	25645
2026-01-27 08:54:22.64	276.06	23.72	-53.3	-58.0	3.7	0.00e+00	0	50	104	10200547328	77	25693
2026-01-27 08:54:23.64	276.51	23.69	-53.4	-58.0	3.7	0.00e+00	0	50	104	10200547328	77	25856
2026-01-27 08:54:24.64	276.95	23.65	-53.4	-57.8	3.7	0.00e+00	0	50	104	10200547328	77	25296
2026-01-27 08:54:25.64	277.39	23.61	-53.3	-57.7	3.7	0.00e+00	0	50	104	10200547328	77	24941
2026-01-27 08:54:26.64	277.83	23.57	-53.3	-57.7	3.7	0.00e+00	0	50	104	10200547328	77	25043
2026-01-27 08:54:27.64	278.27	23.53	-53.3	-57.7	3.7	0.00e+00	0	50	104	10200547328	77	24958
2026-01-27 08:54:28.64	278.71	23.49	-53.4	-57.9	3.7	0.00e+00	0	50	104	10200547328	77	25476
2026-01-27 08:54:29.64	279.15	23.45	-53.4	-57.9	3.7	0.00e+00	0	50	104	10200547328	77	25468
2026-01-27 08:54:30.64	279.58	23.40	-53.4	-57.9	3.7	0.00e+00	0	50	104	10200547328	77	25635
2026-01-27 08:54:31.64	280.01	23.35	-53.5	-58.0	3.7	0.00e+00	0	50	104	10200547328	77	25754
2026-01-27 08:54:32.64	280.45	23.30	-53.4	-58.0	3.7	0.00e+00	0	50	104	10200547328	77	25770
2026-01-27 08:54:33.64	280.88	23.25	-53.4	-58.0	3.7	0.00e+00	0	50	104	10200547328	77	25934
2026-01-27 08:54:34.64	281.31	23.20	-53.5	-58.0	3.7	0.00e+00	0	50	104	10200547328	77	25899
2026-01-27 08:54:35.64	281.73	23.15	-53.6	-58.0	3.7	0.00e+00	0	50	104	10200547328	77	25971
2026-01-27 08:54:36.64	282.16	23.10	-53.7	-58.1	3.7	0.00e+00	0	50	104	10200547328	77	25998
2026-01-27 08:54:37.64	282.58	23.04	-53.6	-58.0	3.7	0.00e+00	0	50	104	10200547328	77	25962
2026-01-27 08:54:38.64	283.01	22.99	-53.4	-57.9	3.7	0.00e+00	0	50	104	10200547328	77	25446
2026-01-27 08:54:39.64	283.43	22.93	-53.3	-57.9	3.7	0.00e+00	0	50	104	10200547328	77	25418
2026-01-27 08:54:40.64	283.85	22.87	-53.5	-58.1	3.7	0.00e+00	0	50	104	10200547328	77	26140
2026-01-27 08:54:41.65	284.27	22.81	-53.5	-58.1	3.7	0.00e+00	0	50	104	10200547328	77	26041
2026-01-27 08:54:42.65	284.68	22.75	-53.6	-58.1	3.7	0.00e+00	0	50	104	10200547328	77	26125
2026-01-27 08:54:43.65	285.09	22.68	-53.4	-57.9	3.7	0.00e+00	0	50	104	10200547328	77	25522
2026-01-27 08:54:44.65	285.51	22.62	-53.1	-57.7	3.7	0.00e+00	0	50	104	10200547328	77	24811
2026-01-27 08:54:45.64	285.91	22.56	-53.1	-57.6	3.7	0.00e+00	0	50	104	10200547328	77	24799
2026-01-27 08:54:46.64	286.32	22.49	-53.0	-57.6	3.7	0.00e+00	0	50	104	10200547328	77	24694
2026-01-27 08:54:47.64	286.72	22.42	-53.1	-57.8	3.7	0.00e+00	0	50	104	10200547328	77	25290
2026-01-27 08:54:48.64	287.13	22.35	-53.3	-57.9	3.7	0.00e+00	0	49	104	10200547328	77	25637
2026-01-27 08:54:49.63	287.53	22.28	-53.3	-57.9	3.7	0.00e+00	0	50	104	10200547328	77	25576
2026-01-27 08:54:50.63	287.93	22.21	-53.2	-57.9	3.7	0.00e+00	0	50	104	10200547328	77	25434
2026-01-27 08:54:51.63	288.32	22.14	-53.3	-57.9	3.7	0.00e+00	0	50	104	10200547328	77	25489
2026-01-27 08:54:52.62	288.71	22.07	-53.5	-58.0	3.7	0.00e+00	0	50	104	10200547328	77	25712
2026-01-27 08:54:53.62	289.11	22.00	-53.5	-58.0	3.7	0.00e+00	0	49	104	10200547328	77	25759
2026-01-27 08:54:54.62	289.50	21.92	-53.5	-58.0	3.6	0.00e+00	0	50	104	10200547328	77	25883
2026-01-27 08:54:55.62	289.89	21.85	-53.3	-57.8	3.7	0.00e+00	0	50	104	10200547328	77	25102
2026-01-27 08:54:56.61	290.27	21.77	-53.0	-57.5	3.7	0.00e+00	0	50	104	10200547328	77	24367
2026-01-27 08:54:57.62	290.66	21.69	-53.0	-57.4	3.7	0.00e+00	0	50	104	10200547328	77	24207
2026-01-27 08:54:58.61	291.04	21.62	-53.0	-57.4	3.7	0.00e+00	0	50	104	10200547328	77	24017
2026-01-27 08:54:59.61	291.42	21.54	-53.2	-57.5	3.7	0.00e+00	0	50	104	10200547328	77	24440
2026-01-27 08:55:00.60	291.79	21.46	-53.1	-57.2	3.7	0.00e+00	0	50	104	10200547328	77	23510
2026-01-27 08:55:01.60	292.17	21.38	-53.0	-57.0	3.7	0.00e+00	0	50	104	10200547328	77	22954
2026-01-27 08:55:02.60	292.54	21.30	-52.9	-56.9	3.7	0.00e+00	0	50	104	10200547328	77	22686
2026-01-27 08:55:03.60	292.92	21.21	-53.1	-57.1	3.7	0.00e+00	0	50	104	10200547328	77	23376
2026-01-27 08:55:04.60	293.29	21.13	-53.4	-57.6	3.7	0.00e+00	0	50	104	10200547328	77	24717
2026-01-27 08:55:05.60	293.65	21.05	-53.3	-57.4	3.7	0.00e+00	0	50	104	10200547328	77	24222
2026-01-27 08:55:06.60	294.02	20.96	-53.0	-56.9	3.7	0.00e+00	0	50	104	10200547328	77	22673
2026-01-27 08:55:07.59	294.38	20.88	-53.2	-57.2	3.7	0.00e+00	0	50	104	10200547328	77	23639
2026-01-27 08:55:08.59	294.74	20.79	-53.2	-57.2	3.7	0.00e+00	0	50	104	10200547328	77	23657
2026-01-27 08:55:09.58	295.09	20.71	-53.2	-57.4	3.7	0.00e+00	0	50	104	10200547328	77	24178
2026-01-27 08:55:10.58	295.45	20.62	-53.3	-57.8	3.7	0.00e+00	0	50	104	10200547328	77	25209
2026-01-27 08:55:11.58	295.80	20.53	-53.4	-58.0	3.7	0.00e+00	0	50	104	10200547328	77	25719
2026-01-27 08:55:12.58	296.15	20.45	-53.4	-57.9	3.7	0.00e+00	0	50	104	10200547328	77	25611
2026-01-27 08:55:13.58	296.50	20.36	-53.4	-57.9	3.7	0.00e+00	0	50	104	10200547328	77	25444
2026-01-27 08:55:14.57	296.84	20.27	-53.3	-57.7	3.7	0.00e+00	0	50	104	10200547328	77	24987
2026-01-27 08:55:15.57	297.19	20.18	-53.1	-57.6	3.7	0.00e+00	0	50	104	10200547328	77	24600
2026-01-27 08:55:16.56	297.53	20.09	-53.1	-57.5	3.7	0.00e+00	0	50	104	10200547328	77	24403
2026-01-27 08:55:17.56	297.87	20.00	-52.9	-57.4	3.7	0.00e+00	0	50	104	10200547328	77	24201
2026-01-27 08:55:18.56	298.21	19.91	-52.9	-57.4	3.7	0.00e+00	0	50	104	10200547328	77	24208
2026-01-27 08:55:19.56	298.54	19.82	-53.0	-57.6	3.7	0.00e+00	0	50	104	10200547328	77	24667
2026-01-27 08:55:20.56	298.87	19.73	-53.1	-57.6	3.7	0.00e+00	0	50	104	10200547328	77	24671
2026-01-27 08:55:21.55	299.20	19.63	-53.1	-57.6	3.7	0.00e+00	0	50	104	10200547328	77	24625
2026-01-27 08:55:22.55	299.53	19.54	-53.1	-57.2	3.7	0.00e+00	0	50	104	10200547328	77	23549
2026-01-27 08:55:23.54	299.85	19.45	-53.1	-57.3	3.7	0.00e+00	0	50	104	10200547328	77	23700
2026-01-27 08:55:24.54	300.18	19.35	-53.1	-57.2	3.7	0.00e+00	0	50	104	10200547328	77	23514
2026-01-27 08:55:25.54	300.50	19.26	-53.0	-57.1	3.7	0.00e+00	0	50	104	10200547328	77	23159
2026-01-27 08:55:26.54	300.82	19.17	-53.1	-57.1	3.7	0.00e+00	0	50	104	10200547328	77	23293
2026-01-27 08:55:27.54	301.13	19.07	-53.3	-57.4	3.7	0.00e+00	0	50	104	10200547328	77	24162
2026-01-27 08:55:28.54	301.45	18.98	-53.2	-57.4	3.7	0.00e+00	0	50	104	10200547328	77	24230
2026-01-27 08:55:29.54	301.76	18.88	-53.2	-57.4	3.7	0.00e+00	0	50	104	10200547328	77	24152
2026-01-27 08:55:30.53	302.07	18.79	-53.0	-57.0	3.7	0.00e+00	0	50	104	10200547328	77	23077
2026-01-27 08:55:31.53	302.38	18.69	-52.7	-56.5	3.7	0.00e+00	0	50	104	10200547328	77	21657
2026-01-27 08:55:32.53	302.68	18.60	-52.7	-56.5	3.7	0.00e+00	0	50	104	10200547328	77	21653
2026-01-27 08:55:33.53	302.99	18.50	-52.7	-56.5	3.7	0.00e+00	0	50	104	10200547328	77	21849
2026-01-27 08:55:34.52	303.29	18.40	-52.9	-57.1	3.7	0.00e+00	0	50	104	10200547328	77	23229
2026-01-27 08:55:35.52	303.59	18.31	-53.0	-57.3	3.7	0.00e+00	0	50	104	10200547328	77	23743
2026-01-27 08:55:36.52	303.88	18.21	-53.0	-57.3	3.7	0.00e+00	0	50	104	10200547328	77	23860
2026-01-27 08:55:37.52	304.18	18.11	-53.0	-57.3	3.7	0.00e+00	0	50	104	10200547328	77	23817
2026-01-27 08:55:38.52	304.47	18.02	-53.2	-57.6	3.7	0.00e+00	0	50	104	10200547328	77	24745
2026-01-27 08:55:39.52	304.76	17.92	-53.1	-57.4	3.7	0.00e+00	0	50	104	10200547328	77	24078
2026-01-27 08:55:40.52	305.05	17.82	-53.1	-57.5	3.7	0.00e+00	0	50	104	10200547328	77	24285
2026-01-27 08:55:41.52	305.34	17.73	-53.2	-57.6	3.7	0.00e+00	0	50	104	10200547328	77	24784
2026-01-27 08:55:42.52	305.62	17.63	-53.0	-57.4	3.7	0.00e+00	0	50	104	10200547328	77	24002
2026-01-27 08:55:43.51	305.90	17.53	-53.0	-57.3	3.7	0.00e+00	0	50	104	10200547328	77	23935
2026-01-27 08:55:44.51	306.18	17.43	-53.0	-57.4	3.7	0.00e+00	0	50	104	10200547328	77	23996
2026-01-27 08:55:45.51	306.46	17.34	-53.0	-57.4	3.7	0.00e+00	0	50	104	10200547328	77	24124
2026-01-27 08:55:46.50	306.73	17.24	-53.1	-57.6	3.7	0.00e+00	0	50	104	10200547328	77	24589
2026-01-27 08:55:47.50	307.01	17.14	-53.3	-57.8	3.7	0.00e+00	0	50	104	10200547328	77	25240
2026-01-27 08:55:48.50	307.28	17.04	-53.4	-57.9	3.7	0.00e+00	0	50	104	10200547328	77	25385
2026-01-27 08:55:49.50	307.55	16.95	-53.3	-57.8	3.7	0.00e+00	0	50	104	10200547328	77	25297
2026-01-27 08:55:50.50	307.82	16.85	-53.4	-57.8	3.7	0.00e+00	0	50	104	10200547328	77	25315
2026-01-27 08:55:51.50	308.08	16.75	-53.2	-57.6	3.7	0.00e+00	0	50	104	10200547328	77	24783
2026-01-27 08:55:52.50	308.34	16.65	-53.3	-57.7	3.7	0.00e+00	0	50	104	10200547328	77	24863
2026-01-27 08:55:53.50	308.61	16.55	-53.3	-57.7	3.6	0.00e+00	0	50	104	10200547328	77	24951
2026-01-27 08:55:54.50	308.87	16.46	-53.2	-57.5	3.7	0.00e+00	0	50	104	10200547328	77	24480
2026-01-27 08:55:55.49	309.12	16.36	-52.8	-57.2	3.7	0.00e+00	0	50	104	10200547328	77	23624
2026-01-27 08:55:56.49	309.38	16.26	-52.9	-57.4	3.7	0.00e+00	0	50	104	10200547328	77	24033
2026-01-27 08:55:57.49	309.63	16.16	-53.0	-57.5	3.7	0.00e+00	0	50	104	10200547328	77	24327
2026-01-27 08:55:58.49	309.88	16.06	-52.3	-57.1	3.7	0.00e+00	0	50	104	10200547328	76	24674
2026-01-27 08:55:59.49	310.13	15.97	-52.1	-57.0	3.7	0.00e+00	0	50	104	10200547328	76	24297
2026-01-27 08:56:00.50	310.38	15.87	-52.2	-57.1	3.7	0.00e+00	0	50	104	10200547328	76	24553
2026-01-27 08:56:01.49	310.63	15.77	-52.1	-57.0	3.7	0.00e+00	0	50	104	10200547328	76	24407
2026-01-27 08:56:02.49	310.87	15.67	-52.1	-57.0	3.7	0.00e+00	0	50	104	10200547328	76	24330
2026-01-27 08:56:03.49	311.12	15.58	-52.5	-57.1	3.7	0.00e+00	0	50	104	10200547328	76	24637
2026-01-27 08:56:04.49	311.36	15.48	-52.7	-57.4	3.7	0.00e+00	0	50	104	10200547328	76	25418
2026-01-27 08:56:05.49	311.60	15.38	-52.5	-57.3	3.7	0.00e+00	0	50	104	10200547328	76	25190
2026-01-27 08:56:06.48	311.83	15.29	-53.1	-57.6	3.7	0.00e+00	0	50	104	10200547328	76	26225
2026-01-27 08:56:07.48	312.07	15.19	-53.1	-57.6	3.7	0.00e+00	0	50	104	10200547328	76	26230
2026-01-27 08:56:08.48	312.30	15.09	-53.1	-57.7	3.7	0.00e+00	0	50	104	10200547328	76	26325
2026-01-27 08:56:09.48	312.53	14.99	-53.1	-57.7	3.7	0.00e+00	0	50	104	10200547328	76	26376
2026-01-27 08:56:10.47	312.76	14.90	-52.9	-57.5	3.7	0.00e+00	0	50	104	10200547328	76	25723
2026-01-27 08:56:11.47	312.99	14.80	-52.8	-57.5	3.7	0.00e+00	0	50	104	10200547328	76	25777
2026-01-27 08:56:12.47	313.21	14.71	-52.4	-57.3	3.7	0.00e+00	0	50	104	10200547328	76	25104
2026-01-27 08:56:13.46	313.44	14.61	-52.4	-57.2	3.7	0.00e+00	0	50	104	10200547328	76	25070
2026-01-27 08:56:14.46	313.66	14.51	-52.4	-57.3	3.7	0.00e+00	0	50	104	10200547328	76	25133
2026-01-27 08:56:15.46	313.88	14.42	-52.3	-57.1	3.7	0.00e+00	0	50	104	10200547328	76	24607
2026-01-27 08:56:16.45	314.10	14.32	-51.9	-56.9	3.7	0.00e+00	0	50	104	10200547328	75	25498
2026-01-27 08:56:17.45	314.32	14.23	-51.9	-57.0	3.7	0.00e+00	0	50	104	10200547328	75	25713
2026-01-27 08:56:18.45	314.53	14.13	-52.2	-57.1	3.7	0.00e+00	0	50	104	10200547328	75	26014
2026-01-27 08:56:19.44	314.75	14.04	-52.4	-57.2	3.7	0.00e+00	0	50	104	10200547328	75	26296
2026-01-27 08:56:20.44	314.96	13.94	-52.5	-57.3	3.7	0.00e+00	0	50	104	10200547328	75	26709
2026-01-27 08:56:21.44	315.17	13.85	-52.4	-57.3	3.7	0.00e+00	0	50	104	10200547328	75	26613
2026-01-27 08:56:22.44	315.38	13.75	-52.6	-57.4	3.7	0.00e+00	0	50	104	10200547328	75	26971
2026-01-27 08:56:23.43	315.59	13.66	-52.9	-57.5	3.7	0.00e+00	0	50	104	10200547328	76	25843
2026-01-27 08:56:24.43	315.80	13.57	-52.7	-57.5	3.7	0.00e+00	0	50	104	10200547328	76	25847
2026-01-27 08:56:25.42	316.00	13.47	-52.8	-57.5	3.7	0.00e+00	0	50	104	10200547328	76	25871
2026-01-27 08:56:26.42	316.20	13.38	-52.3	-57.3	3.7	0.00e+00	0	50	104	10200547328	76	25128
2026-01-27 08:56:27.42	316.41	13.28	-51.6	-56.8	3.7	0.00e+00	0	50	104	10200547328	75	25382
2026-01-27 08:56:28.41	316.60	13.19	-51.4	-56.7	3.7	0.00e+00	0	50	104	10200547328	74	26354
2026-01-27 08:56:29.41	316.80	13.10	-51.7	-56.9	3.7	0.00e+00	0	50	104	10200547328	74	27041
2026-01-27 08:56:30.41	317.00	13.01	-51.7	-56.8	3.7	0.00e+00	0	50	104	10200547328	74	26648
2026-01-27 08:56:31.41	317.20	12.91	-52.1	-57.1	3.7	0.00e+00	0	50	104	10200547328	74	27569
2026-01-27 08:56:32.41	317.39	12.82	-52.7	-57.4	3.7	0.00e+00	0	50	104	10200547328	76	25650
2026-01-27 08:56:33.41	317.59	12.73	-52.1	-57.0	3.7	0.00e+00	0	50	104	10200547328	76	24412
2026-01-27 08:56:34.41	317.78	12.63	-52.4	-57.2	3.7	0.00e+00	0	50	104	10200547328	76	25094
2026-01-27 08:56:35.41	317.97	12.54	-52.9	-57.5	3.7	0.00e+00	0	50	104	10200547328	76	25906
2026-01-27 08:56:36.40	318.16	12.45	-53.1	-57.7	3.7	0.00e+00	0	50	104	10200547328	76	26509
2026-01-27 08:56:37.41	318.35	12.36	-53.1	-57.7	3.7	0.00e+00	0	50	104	10200547328	76	26516
2026-01-27 08:56:38.40	318.53	12.27	-52.9	-57.6	3.7	0.00e+00	0	50	104	10200547328	76	26272
2026-01-27 08:56:39.40	318.72	12.18	-52.8	-57.6	3.7	0.00e+00	0	50	104	10200547328	76	26135
2026-01-27 08:56:40.40	318.90	12.09	-52.5	-57.4	3.7	0.00e+00	0	50	104	10200547328	76	25455
2026-01-27 08:56:41.39	319.08	12.00	-52.6	-57.4	3.7	0.00e+00	0	50	104	10200547328	76	25614
2026-01-27 08:56:42.39	319.26	11.91	-52.1	-57.1	3.7	0.00e+00	0	50	104	10200547328	76	24755
2026-01-27 08:56:43.39	319.44	11.82	-51.9	-57.0	3.7	0.00e+00	0	50	104	10200547328	75	25710
2026-01-27 08:56:44.38	319.62	11.73	-52.3	-57.2	3.7	0.00e+00	0	50	104	10200547328	75	26437
2026-01-27 08:56:45.38	319.79	11.64	-51.4	-56.7	3.7	0.00e+00	0	50	104	10200547328	74	26577
2026-01-27 08:56:46.38	319.97	11.55	-51.2	-56.6	3.7	0.00e+00	0	50	104	10200547328	74	26115
2026-01-27 08:56:47.38	320.14	11.46	-50.8	-56.3	3.7	0.00e+00	0	50	104	10200547328	73	26733
2026-01-27 08:56:48.38	320.32	11.37	-51.0	-56.4	3.7	0.00e+00	0	50	104	10200547328	73	27026
2026-01-27 08:56:49.38	320.49	11.28	-51.0	-56.6	3.7	0.00e+00	0	50	104	10200547328	73	27541
2026-01-27 08:56:50.38	320.66	11.19	-50.9	-56.4	3.7	0.00e+00	0	50	104	10200547328	73	26929
2026-01-27 08:56:51.37	320.83	11.10	-51.4	-56.8	3.7	0.00e+00	0	50	104	10200547328	73	28199
2026-01-27 08:56:52.37	321.00	11.01	-51.0	-56.5	3.7	0.00e+00	0	50	104	10200547328	73	27331
2026-01-27 08:56:53.37	321.16	10.93	-51.9	-57.1	3.7	0.00e+00	0	50	104	10200547328	74	27521
2026-01-27 08:56:54.37	321.33	10.84	-51.9	-57.0	3.7	0.00e+00	0	50	104	10200547328	74	27432
2026-01-27 08:56:55.37	321.49	10.75	-52.1	-57.1	3.7	0.00e+00	0	50	104	10200547328	74	27718
2026-01-27 08:56:56.36	321.66	10.66	-52.1	-57.1	3.7	0.00e+00	0	50	104	10200547328	74	27784
2026-01-27 08:56:57.36	321.82	10.58	-52.1	-57.2	3.7	0.00e+00	0	50	104	10200547328	75	26366
2026-01-27 08:56:58.36	321.98	10.49	-51.4	-56.7	3.7	0.00e+00	0	50	104	10200547328	74	26336
2026-01-27 08:56:59.36	322.14	10.40	-51.9	-57.0	3.7	0.00e+00	0	50	104	10200547328	74	27320
2026-01-27 08:57:00.36	322.30	10.32	-51.9	-57.0	3.7	0.00e+00	0	50	104	10200547328	74	27308
2026-01-27 08:57:01.35	322.46	10.23	-52.2	-57.2	3.7	0.00e+00	0	50	104	10200547328	75	26375
2026-01-27 08:57:02.35	322.61	10.15	-52.4	-57.3	3.7	0.00e+00	0	50	104	10200547328	75	26654
2026-01-27 08:57:03.34	322.77	10.06	-52.4	-57.3	3.7	0.00e+00	0	50	104	10200547328	75	26659
2026-01-27 08:57:04.34	322.92	9.98	-52.4	-57.3	3.7	0.00e+00	0	50	104	10200547328	75	26673
2026-01-27 08:57:05.34	323.07	9.89	-52.1	-57.1	3.7	0.00e+00	0	50	104	10200547328	75	25991
2026-01-27 08:57:06.34	323.23	9.81	-51.5	-56.8	3.7	0.00e+00	0	50	104	10200547328	75	25110
2026-01-27 08:57:07.34	323.38	9.72	-50.9	-56.3	3.7	0.00e+00	0	50	104	10200547328	73	26782
2026-01-27 08:57:08.34	323.53	9.64	-51.7	-56.8	3.7	0.00e+00	0	50	104	10200547328	74	26845
2026-01-27 08:57:09.33	323.68	9.56	-51.0	-56.5	3.7	0.00e+00	0	50	104	10200547328	74	25785
2026-01-27 08:57:10.33	323.82	9.47	-50.2	-55.9	3.7	0.00e+00	0	50	104	10200547328	72	26963
2026-01-27 08:57:11.33	323.97	9.39	-50.1	-55.7	3.7	0.00e+00	0	51	104	10200547328	72	26581
2026-01-27 08:57:12.32	324.12	9.31	-50.0	-55.7	3.7	0.00e+00	0	50	104	10200547328	71	28013
2026-01-27 08:57:13.33	324.26	9.22	-50.0	-55.7	3.7	0.00e+00	0	50	104	10200547328	71	28020
2026-01-27 08:57:14.32	324.41	9.14	-49.9	-55.6	3.7	0.00e+00	0	50	104	10200547328	71	27819
2026-01-27 08:57:15.32	324.55	9.06	-49.8	-55.6	3.7	0.00e+00	0	50	104	10200547328	71	27735
2026-01-27 08:57:16.32	324.69	8.97	-49.9	-55.7	3.7	0.00e+00	0	50	104	10200547328	71	27942
2026-01-27 08:57:17.32	324.83	8.89	-52.3	-57.3	3.7	0.00e+00	0	50	104	10200547328	75	26610
2026-01-27 08:57:18.31	324.97	8.81	-52.1	-57.1	3.7	0.00e+00	0	50	104	10200547328	75	26171
2026-01-27 08:57:19.31	325.11	8.73	-52.6	-57.5	3.7	0.00e+00	0	50	104	10200547328	75	27308
2026-01-27 08:57:20.31	325.25	8.65	-52.8	-57.4	3.7	0.00e+00	0	50	104	10200547328	76	25640
2026-01-27 08:57:21.30	325.39	8.57	-53.2	-57.6	3.7	0.00e+00	0	50	104	10200547328	76	26060
2026-01-27 08:57:22.30	325.52	8.49	-51.5	-56.9	3.7	0.00e+00	0	50	104	10200547328	75	25615
2026-01-27 08:57:23.30	325.66	8.41	-53.5	-57.9	3.7	0.00e+00	0	50	104	10200547328	77	25617
2026-01-27 08:57:24.30	325.79	8.32	-53.2	-57.9	3.7	0.00e+00	0	50	104	10200547328	77	25451
2026-01-27 08:57:25.31	325.93	8.24	-53.1	-57.7	3.7	0.00e+00	0	50	104	10200547328	77	25035
2026-01-27 08:57:26.30	326.06	8.16	-52.9	-57.7	3.7	0.00e+00	0	50	104	10200547328	76	26383
2026-01-27 08:57:27.30	326.19	8.08	-53.0	-57.8	3.7	0.00e+00	0	50	104	10200547328	77	25131
2026-01-27 08:57:28.30	326.32	8.01	-53.2	-57.7	3.7	0.00e+00	0	50	104	10200547328	77	25084
2026-01-27 08:57:29.30	326.45	7.93	-53.4	-58.0	3.7	0.00e+00	0	50	104	10200547328	77	25747
2026-01-27 08:57:30.30	326.58	7.85	-53.8	-58.1	3.7	0.00e+00	0	50	104	10200547328	78	24704
2026-01-27 08:57:31.30	326.71	7.77	-53.7	-57.9	3.7	0.00e+00	0	50	104	10200547328	78	24109
2026-01-27 08:57:32.29	326.84	7.69	-53.5	-57.8	3.7	0.00e+00	0	50	104	10200547328	78	23763
2026-01-27 08:57:33.29	326.96	7.61	-53.2	-57.6	3.7	0.00e+00	0	50	104	10200547328	78	23412
2026-01-27 08:57:34.29	327.09	7.53	-53.6	-57.8	3.7	0.00e+00	0	50	104	10200547328	78	23857
2026-01-27 08:57:35.29	327.22	7.46	-53.2	-57.6	3.7	0.00e+00	0	50	104	10200547328	78	23308
2026-01-27 08:57:36.29	327.34	7.38	-53.4	-57.7	3.7	0.00e+00	0	50	104	10200547328	78	23619
2026-01-27 08:57:37.29	327.46	7.30	-53.0	-57.5	3.7	0.00e+00	0	51	104	10200547328	77	24294
2026-01-27 08:57:38.28	327.59	7.22	-53.0	-57.5	3.7	0.00e+00	0	50	104	10200547328	77	24327
2026-01-27 08:57:39.28	327.71	7.15	-53.0	-57.5	3.7	0.00e+00	0	51	104	10200547328	77	24246
2026-01-27 08:57:40.28	327.83	7.07	-53.0	-57.5	3.7	0.00e+00	0	50	104	10200547328	77	24352
2026-01-27 08:57:41.28	327.95	6.99	-53.0	-57.5	3.7	0.00e+00	0	50	104	10200547328	77	24268
2026-01-27 08:57:42.29	328.07	6.92	-53.0	-57.4	3.7	0.00e+00	0	50	104	10200547328	77	24220
2026-01-27 08:57:43.29	328.19	6.84	-53.0	-57.5	3.7	0.00e+00	0	50	104	10200547328	77	24245
2026-01-27 08:57:44.29	328.31	6.76	-52.9	-57.5	3.7	0.00e+00	0	50	104	10200547328	77	24286
2026-01-27 08:57:45.28	328.42	6.69	-53.0	-57.4	3.7	0.00e+00	0	50	104	10200547328	77	24223
2026-01-27 08:57:46.28	328.54	6.61	-52.9	-57.5	3.7	0.00e+00	0	50	104	10200547328	77	24254
2026-01-27 08:57:47.28	328.66	6.54	-52.9	-57.5	3.7	0.00e+00	0	50	104	10200547328	77	24270
2026-01-27 08:57:48.27	328.77	6.46	-52.9	-57.5	3.7	0.00e+00	0	50	104	10200547328	77	24243
2026-01-27 08:57:49.27	328.89	6.39	-52.9	-57.4	3.7	0.00e+00	0	50	104	10200547328	77	24206
2026-01-27 08:57:50.27	329.00	6.31	-53.0	-57.5	3.7	0.00e+00	0	50	104	10200547328	77	24295
2026-01-27 08:57:51.27	329.11	6.24	-53.0	-57.4	3.7	0.00e+00	0	50	104	10200547328	77	24237
2026-01-27 08:57:52.26	329.22	6.17	-53.0	-57.4	3.7	0.00e+00	0	50	104	10200547328	77	24190
2026-01-27 08:57:53.26	329.34	6.09	-52.9	-57.5	3.7	0.00e+00	0	50	104	10200547328	77	24252
2026-01-27 08:57:54.26	329.45	6.02	-53.0	-57.4	3.7	0.00e+00	0	50	104	10200547328	77	24225
2026-01-27 08:57:55.25	329.56	5.95	-53.0	-57.4	3.7	0.00e+00	0	50	104	10200547328	77	24227
2026-01-27 08:57:56.25	329.67	5.87	-52.9	-57.4	3.7	0.00e+00	0	50	104	10200547328	77	24227
2026-01-27 08:57:57.25	329.78	5.80	-53.0	-57.5	3.7	0.00e+00	0	51	104	10200547328	77	24247
2026-01-27 08:57:58.24	329.88	5.73	-52.9	-57.4	3.7	0.00e+00	0	51	104	10200547328	77	24199
2026-01-27 08:57:59.24	329.99	5.65	-53.0	-57.5	3.7	0.00e+00	0	50	104	10200547328	77	24261
2026-01-27 08:58:00.24	330.10	5.58	-52.9	-57.5	3.7	0.00e+00	0	51	104	10200547328	77	24246
2026-01-27 08:58:01.24	330.20	5.51	-52.9	-57.4	3.7	0.00e+00	0	50	104	10200547328	77	24199
2026-01-27 08:58:02.23	330.31	5.44	-52.9	-57.4	3.7	0.00e+00	0	50	104	10200547328	77	24149
2026-01-27 08:58:03.23	330.41	5.37	-53.0	-57.4	3.7	0.00e+00	0	51	104	10200547328	77	24185
2026-01-27 08:58:04.23	330.52	5.29	-53.0	-57.5	3.7	0.00e+00	0	51	104	10200547328	77	24263
2026-01-27 08:58:05.22	330.62	5.22	-53.0	-57.4	3.7	0.00e+00	0	50	104	10200547328	77	24124
2026-01-27 08:58:06.22	330.72	5.15	-52.9	-57.5	3.7	0.00e+00	0	50	104	10200547328	77	24243
2026-01-27 08:58:07.22	330.83	5.08	-53.0	-57.5	3.7	0.00e+00	0	50	104	10200547328	77	24254
2026-01-27 08:58:08.21	330.93	5.01	-52.9	-57.4	3.7	0.00e+00	0	50	104	10200547328	77	24236
2026-01-27 08:58:09.21	331.03	4.94	-52.9	-57.4	3.7	0.00e+00	0	50	104	10200547328	77	24117

#Closed at: 2026-01-27 08:58:10
#Recorded file [10200 MB]: D:/Data/31040_260127_115000.dat