passes_logs/2026/01/27/T1/T1__20260127_005044_SUOMI_NPP_rec.log

#Pass ID: 20260127_005044_SUOMI NPP
#Satellite: SUOMI NPP
#Configuration: NPP
#almurnet v.1.7.20251203
#Start time: 2026-01-27 00:50:46

#Version: 2.0.20230620
#Station: T1
#Location: 37.570604 lon 55.790049 lat
#TLE: 1 37849U 11061A   26026.52266023  .00000173  00000+0  10323-3 0  9994
#TLE: 2 37849  98.7822 328.4727 0002140  43.9411 316.1934 14.19530258738341

#Time	Az	El	Level	Level2	SNR	BER	BlckErr	Temp	State	Recorded	gain1	gain2
2026-01-27 00:50:46.01	9.86	5.09	-47.7	-64.3	3.8	1.49e+00	0	41	0	0	66	25162
2026-01-27 00:50:47.00	9.81	5.16	-47.6	-64.3	3.8	1.49e+00	0	41	104	0	65	26468
2026-01-27 00:50:47.99	9.76	5.22	-47.6	-64.2	3.8	1.49e+00	0	41	104	0	65	26349
2026-01-27 00:50:48.98	9.70	5.29	-47.6	-64.2	3.8	1.49e+00	0	41	104	0	65	26450
2026-01-27 00:50:49.98	9.65	5.36	-47.6	-64.2	3.8	1.49e+00	0	41	104	0	65	26411
2026-01-27 00:50:50.97	9.60	5.42	-47.6	-64.2	3.8	1.49e+00	0	41	104	0	65	26382
2026-01-27 00:50:51.97	9.55	5.49	-47.6	-64.2	3.8	1.49e+00	0	41	104	0	65	26317
2026-01-27 00:50:52.96	9.49	5.56	-47.6	-64.2	3.8	1.49e+00	0	41	104	0	65	26311
2026-01-27 00:50:53.95	9.44	5.63	-47.6	-64.2	3.8	1.49e+00	0	41	104	0	65	26371
2026-01-27 00:50:54.95	9.38	5.69	-47.6	-64.3	3.8	1.49e+00	0	41	104	0	65	26483
2026-01-27 00:50:55.94	9.33	5.76	-47.7	-64.2	3.8	1.49e+00	0	41	104	0	65	26399
2026-01-27 00:50:56.93	9.28	5.83	-47.7	-64.3	3.8	1.49e+00	0	41	104	0	66	24989
2026-01-27 00:50:57.93	9.22	5.90	-47.7	-64.3	3.8	1.49e+00	0	41	104	0	66	25021
2026-01-27 00:50:58.92	9.17	5.97	-47.7	-64.3	3.8	1.49e+00	0	42	104	0	66	25040
2026-01-27 00:50:59.91	9.11	6.04	-47.7	-64.3	3.8	1.49e+00	0	41	104	0	66	25070
2026-01-27 00:51:00.91	9.06	6.10	-47.7	-64.3	3.8	1.49e+00	0	41	104	0	66	25150
2026-01-27 00:51:01.90	9.00	6.17	-47.7	-64.3	3.8	1.49e+00	0	42	104	0	66	25087
2026-01-27 00:51:02.89	8.94	6.24	-47.7	-64.3	3.8	1.49e+00	0	41	104	0	66	25073
2026-01-27 00:51:03.89	8.89	6.31	-47.7	-64.3	3.8	1.49e+00	0	41	104	0	66	25059
2026-01-27 00:51:04.88	8.83	6.38	-47.7	-64.3	3.8	1.49e+00	0	41	104	0	66	25083
2026-01-27 00:51:05.87	8.77	6.45	-47.7	-64.3	3.8	1.49e+00	0	42	104	0	66	25053
2026-01-27 00:51:06.86	8.72	6.52	-47.7	-64.2	3.8	1.49e+00	0	42	104	0	66	24927
2026-01-27 00:51:07.86	8.66	6.59	-47.7	-64.2	3.8	1.49e+00	0	42	104	0	66	24788
2026-01-27 00:51:08.85	8.60	6.66	-47.6	-64.1	3.8	1.49e+00	0	42	104	0	66	24445
2026-01-27 00:51:09.84	8.54	6.73	-47.6	-64.0	3.8	1.49e+00	0	42	104	0	66	24190
2026-01-27 00:51:10.84	8.49	6.80	-47.6	-63.8	3.8	1.49e+00	0	42	104	0	66	23621
2026-01-27 00:51:11.83	8.43	6.87	-47.6	-63.6	3.8	1.49e+00	0	42	104	0	66	23118
2026-01-27 00:51:12.82	8.37	6.94	-47.7	-63.3	3.8	1.49e+00	0	42	104	0	66	22348
2026-01-27 00:51:13.82	8.31	7.01	-47.7	-63.0	3.8	1.49e+00	0	42	104	0	66	21509
2026-01-27 00:51:14.81	8.25	7.08	-47.6	-62.8	3.8	1.49e+00	0	42	104	0	66	21108
2026-01-27 00:51:15.80	8.19	7.15	-47.6	-62.6	3.8	1.49e+00	0	42	104	0	66	20580
2026-01-27 00:51:16.80	8.13	7.23	-47.6	-62.3	3.8	1.49e+00	0	42	104	0	66	19986
2026-01-27 00:51:17.79	8.07	7.30	-47.6	-62.3	3.8	1.49e+00	0	42	104	0	66	19852
2026-01-27 00:51:18.78	8.01	7.37	-47.6	-62.3	3.8	1.49e+00	0	42	104	0	66	19949
2026-01-27 00:51:19.77	7.95	7.44	-47.6	-62.5	3.8	1.49e+00	0	42	104	0	66	20442
2026-01-27 00:51:20.77	7.88	7.51	-47.6	-62.5	3.9	1.49e+00	0	42	104	0	66	20320
2026-01-27 00:51:21.76	7.82	7.58	-47.6	-62.7	3.8	1.49e+00	0	42	104	0	66	20872
2026-01-27 00:51:22.75	7.76	7.66	-47.6	-62.9	3.8	1.49e+00	0	42	104	0	66	21427
2026-01-27 00:51:23.75	7.70	7.73	-47.7	-63.1	3.8	1.49e+00	0	42	104	0	66	21929
2026-01-27 00:51:24.74	7.63	7.80	-47.7	-63.5	3.8	1.49e+00	0	42	104	0	66	22849
2026-01-27 00:51:25.73	7.57	7.87	-47.7	-63.7	3.8	1.49e+00	0	42	104	0	66	23501
2026-01-27 00:51:26.73	7.51	7.95	-47.7	-63.8	3.8	1.49e+00	0	43	104	0	66	23597
2026-01-27 00:51:27.72	7.44	8.02	-47.6	-63.2	3.8	1.49e+00	0	42	104	0	66	22213
2026-01-27 00:51:28.72	7.38	8.09	-47.6	-62.0	3.8	1.49e+00	0	42	104	0	66	19233
2026-01-27 00:51:29.71	7.32	8.17	-47.4	-59.7	4.5	1.26e+00	0	42	0	0	66	14836
2026-01-27 00:51:30.70	7.25	8.24	-47.2	-57.5	5.8	5.50e-01	0	42	0	2097152	66	11446
2026-01-27 00:51:31.70	7.19	8.32	-46.9	-55.9	7.0	2.14e-01	0	42	0	3145728	65	10094
2026-01-27 00:51:32.69	7.12	8.39	-46.6	-54.4	8.5	9.71e-02	0	42	0	5242880	65	8543
2026-01-27 00:51:33.68	7.05	8.46	-46.1	-52.8	10.2	1.00e-02	0	43	0	7340032	64	7458
2026-01-27 00:51:34.68	6.99	8.54	-46.0	-52.2	10.9	2.47e-03	0	42	0	9437184	63	7417
2026-01-27 00:51:35.67	6.92	8.61	-45.7	-51.3	11.8	1.00e-03	0	42	0	10485760	63	6702
2026-01-27 00:51:36.66	6.85	8.69	-45.5	-50.9	12.3	4.32e-04	0	43	0	12582912	63	6348
2026-01-27 00:51:37.66	6.79	8.76	-45.5	-50.8	12.3	2.04e-04	0	42	0	14680064	63	6346
2026-01-27 00:51:38.65	6.72	8.84	-45.6	-51.1	12.0	2.51e-04	0	42	0	16777216	62	6954
2026-01-27 00:51:39.64	6.65	8.91	-45.7	-51.4	11.8	4.18e-04	0	43	0	18874368	62	7128
2026-01-27 00:51:40.64	6.58	8.99	-45.9	-52.0	11.0	8.30e-04	0	42	0	19922944	62	7695
2026-01-27 00:51:41.63	6.51	9.06	-45.0	-50.2	12.9	2.18e-03	0	42	0	22020096	62	6273
2026-01-27 00:51:42.63	6.44	9.14	-46.8	-55.7	7.6	1.14e-04	0	43	0	24117248	64	10415
2026-01-27 00:51:43.62	6.37	9.22	-45.4	-51.0	12.0	1.11e+00	0	43	0	25165824	62	6805
2026-01-27 00:51:44.62	6.30	9.29	-44.9	-49.9	13.4	1.50e-06	0	42	0	27262976	60	6791
2026-01-27 00:51:45.61	6.23	9.37	-46.9	-55.8	7.5	8.05e-03	0	43	0	29360128	64	10542
2026-01-27 00:51:46.61	6.16	9.45	-46.7	-54.0	8.8	7.29e-01	0	43	0	31457280	65	8155
2026-01-27 00:51:47.60	6.09	9.52	-46.2	-53.1	10.0	7.20e-03	0	43	0	33554432	64	7798
2026-01-27 00:51:48.60	6.02	9.60	-45.6	-51.8	11.3	3.02e-03	0	43	0	34603008	63	7118
2026-01-27 00:51:49.59	5.95	9.68	-45.4	-51.5	11.7	3.80e-04	0	43	0	36700160	62	7207
2026-01-27 00:51:50.67	5.87	9.76	-45.2	-50.8	12.3	3.25e-04	0	43	0	38797312	62	6661
2026-01-27 00:51:51.52	5.81	9.83	-44.6	-49.7	13.5	7.85e-05	0	43	0	40894464	61	6222
2026-01-27 00:51:52.66	5.72	9.92	-44.6	-49.7	13.6	1.22e-05	0	43	0	42991616	61	6244
2026-01-27 00:51:53.51	5.66	9.99	-44.5	-49.5	13.7	1.06e-05	0	43	0	44040192	60	6460
2026-01-27 00:51:54.65	5.57	10.08	-44.6	-49.6	13.6	6.80e-06	0	43	0	46137344	60	6555
2026-01-27 00:51:55.50	5.51	10.14	-44.6	-49.6	13.5	1.06e-05	0	43	0	48234496	60	6516
2026-01-27 00:51:56.64	5.42	10.23	-44.2	-48.8	14.4	3.00e-06	0	42	0	50331648	60	5987
2026-01-27 00:51:57.69	5.34	10.32	-43.9	-48.2	14.9	1.50e-06	0	43	0	52428800	59	5922
2026-01-27 00:51:58.75	5.26	10.40	-43.7	-47.7	15.5	0.00e+00	0	43	0	53477376	59	5559
2026-01-27 00:51:59.61	5.20	10.47	-43.4	-47.2	16.0	0.00e+00	0	43	0	55574528	58	5563
2026-01-27 00:52:00.74	5.11	10.56	-43.6	-47.4	15.8	0.00e+00	0	43	0	57671680	58	5659
2026-01-27 00:52:01.60	5.04	10.63	-43.6	-47.4	15.9	0.00e+00	0	43	0	59768832	58	5660
2026-01-27 00:52:02.74	4.96	10.72	-43.7	-47.4	15.8	0.00e+00	0	43	0	61865984	58	5678
2026-01-27 00:52:03.59	4.89	10.79	-43.7	-47.4	15.8	0.00e+00	0	43	0	62914560	58	5692
2026-01-27 00:52:04.73	4.80	10.88	-43.7	-47.2	16.0	0.00e+00	0	43	0	65011712	58	5582
2026-01-27 00:52:05.58	4.73	10.95	-43.7	-47.2	16.0	0.00e+00	0	43	0	67108864	58	5561
2026-01-27 00:52:06.72	4.64	11.04	-43.7	-47.2	16.0	0.00e+00	0	43	0	69206016	58	5569
2026-01-27 00:52:07.57	4.57	11.11	-43.5	-46.8	16.3	0.00e+00	0	43	0	70254592	58	5322
2026-01-27 00:52:08.71	4.48	11.20	-43.7	-47.1	16.1	0.00e+00	0	43	0	72351744	58	5473
2026-01-27 00:52:09.56	4.41	11.27	-43.8	-47.2	16.0	0.00e+00	0	43	0	74448896	58	5544
2026-01-27 00:52:10.70	4.32	11.37	-43.6	-46.7	16.5	0.00e+00	0	43	0	76546048	58	5264
2026-01-27 00:52:11.63	4.24	11.44	-43.5	-46.6	16.6	0.00e+00	0	43	0	78643200	58	5181
2026-01-27 00:52:12.79	4.14	11.54	-43.4	-46.5	16.7	0.00e+00	0	43	0	80740352	58	5122
2026-01-27 00:52:13.64	4.07	11.61	-43.6	-46.7	16.5	0.00e+00	0	43	0	81788928	58	5278
2026-01-27 00:52:14.78	3.98	11.71	-43.4	-46.4	16.8	0.00e+00	0	43	0	83886080	58	5090
2026-01-27 00:52:15.63	3.91	11.78	-43.3	-46.2	17.0	0.00e+00	0	43	0	85983232	58	4972
2026-01-27 00:52:16.76	3.81	11.87	-43.6	-46.7	16.5	0.00e+00	0	43	0	88080384	58	5236
2026-01-27 00:52:17.62	3.74	11.94	-43.6	-46.7	16.5	0.00e+00	0	43	0	89128960	58	5225
2026-01-27 00:52:19.07	3.61	12.06	-43.6	-46.6	16.6	0.00e+00	0	43	0	92274688	58	5183
2026-01-27 00:52:19.78	3.55	12.12	-43.6	-46.7	16.5	0.00e+00	0	43	0	93323264	58	5274
2026-01-27 00:52:21.06	3.44	12.23	-43.3	-46.3	16.9	0.00e+00	0	43	0	95420416	58	5004
2026-01-27 00:52:21.77	3.38	12.29	-43.5	-46.6	16.7	0.00e+00	0	43	0	97517568	58	5188
2026-01-27 00:52:23.05	3.27	12.40	-43.6	-46.7	16.5	0.00e+00	0	43	0	99614720	58	5246
2026-01-27 00:52:23.78	3.20	12.46	-43.4	-46.4	16.9	0.00e+00	0	43	0	100663296	58	5043
2026-01-27 00:52:25.06	3.09	12.57	-43.5	-46.5	16.7	0.00e+00	0	43	0	102760448	58	5124
2026-01-27 00:52:25.78	3.02	12.63	-43.5	-46.4	16.9	0.00e+00	0	43	0	104857600	58	5054
2026-01-27 00:52:27.06	2.91	12.74	-43.6	-46.6	16.7	0.00e+00	0	43	0	106954752	58	5161
2026-01-27 00:52:27.77	2.84	12.80	-43.5	-46.5	16.8	0.00e+00	0	43	0	108003328	58	5109
2026-01-27 00:52:29.05	2.73	12.91	-43.1	-45.8	17.3	0.00e+00	0	43	0	111149056	58	4758
2026-01-27 00:52:29.78	2.66	12.98	-43.5	-46.4	16.9	0.00e+00	0	43	0	112197632	58	5062
2026-01-27 00:52:31.06	2.54	13.09	-43.3	-46.1	17.2	0.00e+00	0	43	0	114294784	58	4915
2026-01-27 00:52:32.07	2.45	13.18	-43.1	-46.0	17.3	0.00e+00	0	43	0	116391936	57	5110
2026-01-27 00:52:33.37	2.33	13.29	-43.0	-45.7	17.4	0.00e+00	0	43	0	118489088	57	4976
2026-01-27 00:52:34.08	2.26	13.35	-43.0	-45.7	17.5	0.00e+00	0	43	0	120586240	57	4958
2026-01-27 00:52:35.73	2.10	13.50	-43.1	-45.8	17.5	0.00e+00	0	43	0	123731968	57	4989
2026-01-27 00:52:36.30	2.05	13.55	-43.0	-45.7	17.5	0.00e+00	0	43	0	124780544	57	4957
2026-01-27 00:52:38.20	1.87	13.72	-43.0	-45.7	17.5	0.00e+00	0	43	0	127926272	57	4952
2026-01-27 00:52:38.77	1.81	13.77	-42.9	-45.6	17.7	0.00e+00	0	43	0	128974848	57	4877
2026-01-27 00:52:40.47	1.64	13.92	-42.9	-45.6	17.6	0.00e+00	0	43	0	132120576	57	4912
2026-01-27 00:52:41.04	1.59	13.97	-42.9	-45.6	17.6	0.00e+00	0	43	0	133169152	57	4902
2026-01-27 00:52:42.75	1.42	14.12	-42.8	-45.5	17.8	0.00e+00	0	43	0	136314880	57	4823
2026-01-27 00:52:43.31	1.36	14.17	-42.9	-45.6	17.7	0.00e+00	0	43	0	137363456	57	4884
2026-01-27 00:52:45.02	1.19	14.32	-42.6	-45.1	18.1	0.00e+00	0	43	0	140509184	57	4637
2026-01-27 00:52:45.59	1.13	14.38	-42.9	-45.5	17.7	0.00e+00	0	43	0	141557760	57	4865
2026-01-27 00:52:47.50	0.94	14.55	-42.8	-45.5	17.7	0.00e+00	0	43	0	145752064	57	4831
2026-01-27 00:52:48.07	0.88	14.60	-43.0	-45.7	17.6	0.00e+00	0	43	0	146800640	57	4966
2026-01-27 00:52:49.77	0.70	14.76	-42.9	-45.6	17.6	0.00e+00	0	43	0	149946368	57	4903
2026-01-27 00:52:50.34	0.64	14.81	-42.7	-45.3	17.9	0.00e+00	0	43	0	150994944	57	4730
2026-01-27 00:52:52.11	0.46	14.97	-43.2	-46.0	17.3	0.00e+00	0	43	0	154140672	57	5109
2026-01-27 00:52:52.68	0.40	15.02	-43.1	-45.9	17.4	0.00e+00	0	43	0	155189248	57	5071
2026-01-27 00:52:54.67	0.19	15.21	-43.4	-46.3	17.1	0.00e+00	0	43	0	158334976	57	5289
2026-01-27 00:52:55.24	0.12	15.26	-43.4	-46.2	17.1	0.00e+00	0	43	0	159383552	57	5250
2026-01-27 00:52:56.94	359.94	15.42	-43.5	-46.4	16.9	0.00e+00	0	43	0	163577856	57	5366
2026-01-27 00:52:57.51	359.88	15.47	-43.5	-46.5	16.9	0.00e+00	0	43	0	164626432	57	5407
2026-01-27 00:52:59.20	359.69	15.63	-43.8	-46.9	16.6	0.00e+00	0	43	0	167772160	58	5342
2026-01-27 00:52:59.80	359.63	15.68	-43.8	-46.9	16.6	0.00e+00	0	43	0	168820736	58	5351
2026-01-27 00:53:01.37	359.45	15.83	-43.7	-46.8	16.6	0.00e+00	0	43	0	170917888	58	5280
2026-01-27 00:53:02.08	359.37	15.90	-43.8	-46.8	16.5	0.00e+00	0	43	0	173015040	58	5332
2026-01-27 00:53:03.64	359.19	16.05	-43.4	-46.3	17.0	0.00e+00	0	43	0	175112192	58	5041
2026-01-27 00:53:04.26	359.12	16.10	-43.6	-46.6	16.8	0.00e+00	0	43	0	177209344	58	5162
2026-01-27 00:53:05.82	358.94	16.25	-43.6	-46.7	16.7	0.00e+00	0	43	0	179306496	58	5263
2026-01-27 00:53:06.53	358.86	16.32	-43.6	-46.6	16.8	0.00e+00	0	43	0	181403648	58	5213
2026-01-27 00:53:07.81	358.71	16.44	-43.3	-46.4	17.0	0.00e+00	0	43	0	183500800	58	5054
2026-01-27 00:53:08.52	358.63	16.51	-43.2	-46.3	17.1	0.00e+00	0	43	0	184549376	58	5006
2026-01-27 00:53:09.80	358.48	16.63	-43.1	-46.2	17.1	0.00e+00	0	43	0	186646528	58	4981
2026-01-27 00:53:10.51	358.39	16.70	-42.8	-45.9	17.4	0.00e+00	0	43	0	188743680	57	5055
2026-01-27 00:53:11.83	358.24	16.83	-42.7	-45.6	17.7	0.00e+00	0	43	0	190840832	57	4924
2026-01-27 00:53:12.55	358.15	16.90	-42.7	-45.7	17.7	0.00e+00	0	43	0	191889408	57	4947
2026-01-27 00:53:13.83	357.99	17.03	-42.5	-45.4	17.9	0.00e+00	0	43	0	195035136	56	5073
2026-01-27 00:53:14.54	357.91	17.09	-42.5	-45.4	17.9	0.00e+00	0	43	0	196083712	56	5074
2026-01-27 00:53:15.82	357.75	17.22	-42.4	-45.3	18.0	0.00e+00	0	43	0	198180864	56	5004
2026-01-27 00:53:16.53	357.66	17.29	-42.4	-45.3	18.1	0.00e+00	0	43	0	200278016	56	4991
2026-01-27 00:53:17.80	357.50	17.41	-42.4	-45.1	18.2	0.00e+00	0	43	0	202375168	56	4926
2026-01-27 00:53:18.52	357.41	17.48	-42.4	-45.1	18.2	0.00e+00	0	43	0	203423744	56	4891
2026-01-27 00:53:19.79	357.25	17.61	-42.6	-45.3	18.1	0.00e+00	0	43	0	205520896	56	5006
2026-01-27 00:53:20.52	357.16	17.68	-42.6	-45.3	18.0	0.00e+00	0	43	0	207618048	56	5034
2026-01-27 00:53:21.80	357.00	17.81	-42.6	-45.3	18.0	0.00e+00	0	43	0	209715200	56	5015
2026-01-27 00:53:22.53	356.90	17.88	-42.9	-45.6	17.7	0.00e+00	0	43	0	210763776	56	5201
2026-01-27 00:53:23.80	356.74	18.01	-42.8	-45.4	17.9	0.00e+00	0	43	0	213909504	56	5099
2026-01-27 00:53:24.59	356.64	18.09	-42.8	-45.4	17.9	0.00e+00	0	43	0	214958080	56	5098
2026-01-27 00:53:26.09	356.44	18.24	-43.0	-45.8	17.6	0.00e+00	0	43	0	218103808	56	5306
2026-01-27 00:53:27.12	356.30	18.34	-43.0	-45.8	17.6	0.00e+00	0	43	0	220200960	56	5301
2026-01-27 00:53:28.12	356.17	18.44	-43.0	-45.8	17.6	0.00e+00	0	43	0	221249536	56	5281
2026-01-27 00:53:29.46	355.99	18.58	-42.8	-45.6	17.8	0.00e+00	0	43	0	224395264	56	5208
2026-01-27 00:53:30.17	355.89	18.65	-42.7	-45.5	17.9	0.00e+00	0	43	0	225443840	56	5108
2026-01-27 00:53:31.45	355.72	18.78	-42.8	-45.7	17.7	0.00e+00	0	43	0	227540992	56	5243
2026-01-27 00:53:32.16	355.62	18.85	-42.7	-45.5	17.9	0.00e+00	0	43	0	229638144	56	5124
2026-01-27 00:53:33.44	355.44	18.98	-42.7	-45.6	17.8	0.00e+00	0	43	0	231735296	56	5207
2026-01-27 00:53:34.17	355.34	19.06	-42.8	-45.6	17.8	0.00e+00	0	43	0	232783872	56	5210
2026-01-27 00:53:35.44	355.16	19.19	-42.7	-45.5	17.9	0.00e+00	0	43	0	234881024	56	5134
2026-01-27 00:53:36.16	355.06	19.26	-42.7	-45.5	17.8	0.00e+00	0	43	0	236978176	56	5159
2026-01-27 00:53:37.44	354.88	19.39	-42.9	-45.8	17.6	0.00e+00	0	43	0	239075328	56	5330
2026-01-27 00:53:38.15	354.78	19.47	-43.0	-45.9	17.4	0.00e+00	0	43	0	240123904	56	5396
2026-01-27 00:53:39.43	354.59	19.60	-43.2	-46.1	17.3	0.00e+00	0	43	0	243269632	57	5192
2026-01-27 00:53:40.15	354.49	19.67	-43.3	-46.2	17.3	0.00e+00	0	43	0	244318208	57	5239
2026-01-27 00:53:41.43	354.30	19.81	-43.4	-46.3	17.1	0.00e+00	0	43	0	246415360	57	5294
2026-01-27 00:53:42.16	354.19	19.88	-43.4	-46.2	17.2	0.00e+00	0	43	0	247463936	57	5254
2026-01-27 00:53:43.44	354.00	20.02	-43.5	-46.3	17.2	0.00e+00	0	43	0	250609664	57	5303
2026-01-27 00:53:44.16	353.90	20.09	-43.5	-46.3	17.2	0.00e+00	0	43	0	251658240	58	4995
2026-01-27 00:53:45.44	353.70	20.23	-43.5	-46.2	17.3	0.00e+00	0	43	0	253755392	58	4953
2026-01-27 00:53:46.17	353.59	20.30	-43.5	-46.3	17.2	0.00e+00	0	43	0	255852544	58	4992
2026-01-27 00:53:47.45	353.40	20.44	-43.6	-46.3	17.2	0.00e+00	0	43	0	257949696	58	5038
2026-01-27 00:53:48.16	353.29	20.51	-43.6	-46.3	17.2	0.00e+00	0	43	0	258998272	58	5040
2026-01-27 00:53:49.44	353.09	20.65	-43.6	-46.4	17.1	0.00e+00	0	43	0	261095424	58	5057
2026-01-27 00:53:50.18	352.98	20.73	-43.7	-46.5	17.0	0.00e+00	0	43	0	263192576	58	5124
2026-01-27 00:53:51.46	352.77	20.86	-43.8	-46.6	16.9	0.00e+00	0	43	0	265289728	58	5211
2026-01-27 00:53:52.18	352.66	20.94	-43.8	-46.8	16.7	0.00e+00	0	43	0	266338304	58	5284
2026-01-27 00:53:53.46	352.46	21.08	-44.0	-47.0	16.6	0.00e+00	0	43	0	269484032	58	5429
2026-01-27 00:53:54.17	352.34	21.15	-44.2	-47.3	16.3	0.00e+00	0	43	0	270532608	58	5609
2026-01-27 00:53:55.45	352.14	21.29	-44.2	-47.3	16.3	0.00e+00	0	43	0	272629760	59	5305
2026-01-27 00:53:56.18	352.02	21.37	-44.1	-47.2	16.4	0.00e+00	0	43	0	273678336	59	5222
2026-01-27 00:53:57.46	351.81	21.51	-43.9	-46.8	16.7	0.00e+00	0	43	0	276824064	59	4987
2026-01-27 00:53:58.17	351.69	21.58	-43.9	-46.8	16.8	0.00e+00	0	43	0	277872640	59	5009
2026-01-27 00:53:59.45	351.48	21.72	-43.9	-46.9	16.8	0.00e+00	0	43	0	279969792	59	5067
2026-01-27 00:54:00.16	351.36	21.80	-43.6	-46.4	17.1	0.00e+00	0	43	0	282066944	59	4801
2026-01-27 00:54:01.44	351.15	21.94	-43.4	-46.1	17.3	0.00e+00	0	43	0	284164096	58	4921
2026-01-27 00:54:02.16	351.02	22.02	-43.4	-46.2	17.4	0.00e+00	0	43	0	285212672	58	4940
2026-01-27 00:54:03.79	350.74	22.19	-43.1	-45.8	17.7	0.00e+00	0	43	0	288358400	58	4710
2026-01-27 00:54:04.36	350.65	22.26	-43.1	-45.7	17.8	0.00e+00	0	43	0	289406976	58	4693
2026-01-27 00:54:06.27	350.31	22.46	-43.2	-45.8	17.7	0.00e+00	0	43	0	293601280	57	5020
2026-01-27 00:54:06.84	350.21	22.53	-43.1	-45.7	17.8	0.00e+00	0	43	0	294649856	57	4962
2026-01-27 00:54:08.55	349.91	22.71	-42.9	-45.4	18.1	0.00e+00	0	43	0	297795584	57	4793
2026-01-27 00:54:09.11	349.81	22.78	-42.9	-45.5	18.0	0.00e+00	0	43	0	298844160	57	4820
2026-01-27 00:54:10.82	349.50	22.96	-42.8	-45.5	18.0	0.00e+00	0	43	0	301989888	57	4818
2026-01-27 00:54:11.38	349.40	23.03	-43.0	-45.7	17.9	0.00e+00	0	43	0	303038464	57	4938
2026-01-27 00:54:13.09	349.09	23.21	-42.8	-45.5	17.9	0.00e+00	0	43	0	306184192	57	4865
2026-01-27 00:54:13.66	348.99	23.28	-42.5	-45.2	18.2	0.00e+00	0	43	0	307232768	56	4960
2026-01-27 00:54:15.57	348.63	23.49	-42.4	-45.1	18.4	0.00e+00	0	43	0	310378496	56	4893
2026-01-27 00:54:16.14	348.52	23.55	-42.1	-44.8	18.7	0.00e+00	0	43	0	311427072	56	4707
2026-01-27 00:54:18.14	348.14	23.77	-42.4	-45.0	18.4	0.00e+00	0	43	0	315621376	56	4864
2026-01-27 00:54:19.06	347.97	23.88	-42.7	-45.4	18.0	0.00e+00	0	43	0	316669952	56	5072
2026-01-27 00:54:20.06	347.78	23.99	-43.0	-45.8	17.8	0.00e+00	0	44	0	318767104	56	5280
2026-01-27 00:54:21.05	347.58	24.10	-43.5	-46.3	17.2	0.00e+00	0	43	0	320864256	57	5334
2026-01-27 00:54:22.05	347.39	24.21	-43.8	-46.6	17.0	0.00e+00	0	43	0	322961408	58	5212
2026-01-27 00:54:23.05	347.19	24.32	-43.7	-46.4	17.2	0.00e+00	0	43	0	324009984	58	5089
2026-01-27 00:54:24.04	347.00	24.43	-43.6	-46.4	17.1	0.00e+00	0	43	0	326107136	58	5094
2026-01-27 00:54:25.03	346.80	24.54	-43.8	-46.7	17.0	0.00e+00	0	43	0	328204288	58	5225
2026-01-27 00:54:26.03	346.60	24.66	-43.7	-46.5	17.0	0.00e+00	0	43	0	330301440	58	5146
2026-01-27 00:54:27.02	346.40	24.77	-43.8	-46.7	16.8	0.00e+00	0	43	0	332398592	58	5274
2026-01-27 00:54:28.02	346.19	24.88	-43.8	-46.8	16.7	0.00e+00	0	43	0	333447168	58	5328
2026-01-27 00:54:29.01	345.99	24.99	-43.9	-47.0	16.6	0.00e+00	0	43	0	335544320	58	5413
2026-01-27 00:54:30.01	345.78	25.10	-44.2	-47.4	16.2	0.00e+00	0	44	0	337641472	59	5381
2026-01-27 00:54:31.01	345.57	25.22	-44.3	-47.5	16.1	0.00e+00	0	43	0	339738624	59	5436
2026-01-27 00:54:32.00	345.37	25.33	-44.4	-47.5	16.0	0.00e+00	0	43	0	340787200	59	5457
2026-01-27 00:54:33.00	345.15	25.44	-44.6	-47.9	15.8	0.00e+00	0	43	0	342884352	60	5342
2026-01-27 00:54:33.99	344.94	25.55	-44.8	-48.1	15.6	0.00e+00	0	43	0	344981504	60	5479
2026-01-27 00:54:34.99	344.73	25.67	-44.7	-47.9	15.7	0.00e+00	0	43	0	347078656	60	5398
2026-01-27 00:54:35.98	344.51	25.78	-44.6	-47.8	15.8	0.00e+00	0	43	0	349175808	60	5307
2026-01-27 00:54:36.98	344.30	25.89	-44.6	-47.9	15.7	0.00e+00	0	43	0	350224384	60	5380
2026-01-27 00:54:37.97	344.08	26.00	-44.4	-47.8	15.9	0.00e+00	0	43	0	352321536	60	5302
2026-01-27 00:54:38.97	343.86	26.11	-44.2	-47.5	16.2	0.00e+00	0	43	0	354418688	60	5132
2026-01-27 00:54:39.97	343.64	26.23	-44.1	-47.4	16.1	0.00e+00	0	43	0	356515840	59	5378
2026-01-27 00:54:40.96	343.41	26.34	-44.0	-47.3	16.3	0.00e+00	0	43	0	358612992	59	5301
2026-01-27 00:54:41.95	343.19	26.45	-43.9	-47.2	16.4	0.00e+00	0	43	0	359661568	59	5246
2026-01-27 00:54:42.95	342.96	26.56	-43.8	-46.8	16.7	0.00e+00	0	43	0	361758720	59	5030
2026-01-27 00:54:43.94	342.74	26.67	-43.8	-46.8	16.8	0.00e+00	0	43	0	363855872	59	5011
2026-01-27 00:54:44.94	342.51	26.79	-43.8	-46.7	16.7	0.00e+00	0	43	0	365953024	59	4977
2026-01-27 00:54:45.93	342.28	26.90	-43.7	-46.4	17.2	0.00e+00	0	43	0	367001600	59	4805
2026-01-27 00:54:46.93	342.04	27.01	-43.9	-46.7	16.9	0.00e+00	0	43	0	369098752	59	4960
2026-01-27 00:54:47.92	341.81	27.12	-44.1	-46.9	16.8	0.00e+00	0	43	0	371195904	59	5075
2026-01-27 00:54:48.92	341.57	27.24	-44.1	-46.9	16.7	0.00e+00	0	43	0	373293056	59	5089
2026-01-27 00:54:49.91	341.34	27.35	-43.9	-46.8	16.8	0.00e+00	0	43	0	375390208	59	4988
2026-01-27 00:54:50.94	341.09	27.46	-43.6	-46.5	17.0	0.00e+00	0	43	0	376438784	58	5154
2026-01-27 00:54:51.96	340.84	27.58	-43.5	-46.4	17.2	0.00e+00	0	43	0	378535936	58	5068
2026-01-27 00:54:52.99	340.59	27.69	-43.2	-46.0	17.5	0.00e+00	0	43	0	380633088	58	4865
2026-01-27 00:54:53.98	340.34	27.80	-43.5	-46.5	17.1	0.00e+00	0	43	0	382730240	58	5109
2026-01-27 00:54:54.98	340.10	27.91	-43.7	-46.8	16.8	0.00e+00	0	43	0	384827392	58	5290
2026-01-27 00:54:55.97	339.85	28.03	-44.0	-47.1	16.5	0.00e+00	0	43	0	385875968	58	5522
2026-01-27 00:54:56.96	339.60	28.14	-44.1	-47.1	16.5	0.00e+00	0	43	0	387973120	58	5506
2026-01-27 00:54:57.96	339.35	28.25	-44.1	-47.0	16.6	0.00e+00	0	44	0	390070272	59	5137
2026-01-27 00:54:58.96	339.09	28.36	-44.3	-47.3	16.3	0.00e+00	0	43	0	392167424	59	5295
2026-01-27 00:54:59.95	338.84	28.47	-43.9	-46.8	16.8	0.00e+00	0	43	0	393216000	59	4991
2026-01-27 00:55:00.94	338.58	28.58	-43.7	-46.5	17.0	0.00e+00	0	43	0	395313152	59	4823
2026-01-27 00:55:01.94	338.32	28.69	-43.9	-46.8	16.8	0.00e+00	0	44	0	397410304	59	5001
2026-01-27 00:55:02.93	338.06	28.80	-43.8	-46.7	16.9	0.00e+00	0	43	0	399507456	59	4953
2026-01-27 00:55:03.93	337.80	28.91	-44.0	-47.1	16.4	0.00e+00	0	43	0	401604608	59	5193
2026-01-27 00:55:04.93	337.54	29.02	-44.0	-47.0	16.5	0.00e+00	0	43	0	402653184	59	5157
2026-01-27 00:55:05.92	337.27	29.13	-43.9	-47.0	16.6	0.00e+00	0	43	0	404750336	59	5106
2026-01-27 00:55:06.92	337.00	29.23	-44.3	-47.5	16.2	0.00e+00	0	43	0	406847488	59	5404
2026-01-27 00:55:07.91	336.73	29.34	-44.6	-47.9	15.7	0.00e+00	0	43	0	408944640	59	5699
2026-01-27 00:55:08.90	336.46	29.45	-44.3	-47.6	15.7	0.00e+00	0	43	0	409993216	59	5504
2026-01-27 00:55:09.93	336.18	29.56	-44.2	-47.6	16.0	0.00e+00	0	43	0	412090368	59	5489
2026-01-27 00:55:10.96	335.89	29.67	-43.9	-47.2	16.4	0.00e+00	0	43	0	414187520	59	5263
2026-01-27 00:55:11.95	335.62	29.78	-43.2	-46.2	17.3	0.00e+00	0	43	0	416284672	58	4970
2026-01-27 00:55:12.95	335.34	29.89	-43.4	-46.7	17.0	0.00e+00	0	44	0	418381824	58	5231
2026-01-27 00:55:13.95	335.06	29.99	-43.6	-46.8	16.8	0.00e+00	0	43	0	419430400	58	5318
2026-01-27 00:55:14.94	334.77	30.10	-43.6	-46.8	16.8	0.00e+00	0	44	0	421527552	58	5317
2026-01-27 00:55:15.94	334.49	30.21	-44.1	-47.3	16.3	0.00e+00	0	44	0	423624704	58	5642
2026-01-27 00:55:16.93	334.20	30.31	-44.3	-47.5	16.2	0.00e+00	0	44	0	425721856	59	5417
2026-01-27 00:55:17.93	333.91	30.42	-44.7	-48.0	15.7	0.00e+00	0	44	0	427819008	60	5440
2026-01-27 00:55:18.92	333.62	30.52	-44.7	-48.0	15.6	0.00e+00	0	43	0	428867584	60	5433
2026-01-27 00:55:19.91	333.33	30.62	-44.8	-48.2	15.5	0.00e+00	0	43	0	430964736	60	5563
2026-01-27 00:55:20.91	333.04	30.73	-44.9	-48.2	15.3	0.00e+00	0	44	0	433061888	60	5587
2026-01-27 00:55:21.90	332.74	30.83	-45.0	-48.6	15.1	0.00e+00	0	43	0	435159040	60	5813
2026-01-27 00:55:22.90	332.44	30.93	-45.2	-49.0	14.6	0.00e+00	0	44	0	436207616	61	5765
2026-01-27 00:55:23.94	332.13	31.04	-45.1	-48.9	14.9	7.00e-07	0	43	0	438304768	61	5697
2026-01-27 00:55:24.93	331.83	31.14	-45.1	-49.2	14.6	0.00e+00	0	44	0	440401920	61	5869
2026-01-27 00:55:25.99	331.51	31.25	-45.0	-49.0	14.7	0.00e+00	0	44	0	442499072	61	5787
2026-01-27 00:55:26.87	331.24	31.33	-45.1	-49.1	14.5	0.00e+00	0	44	0	444596224	61	5853
2026-01-27 00:55:28.00	330.89	31.45	-45.1	-49.0	14.7	0.00e+00	0	43	0	446693376	61	5754
2026-01-27 00:55:28.86	330.62	31.53	-45.1	-48.9	14.8	0.00e+00	0	44	0	447741952	61	5664
2026-01-27 00:55:30.00	330.26	31.65	-45.3	-49.1	14.7	7.00e-07	0	44	0	449839104	61	5795
2026-01-27 00:55:30.85	329.99	31.73	-45.1	-48.8	14.9	0.00e+00	0	43	0	451936256	61	5601
2026-01-27 00:55:31.98	329.64	31.84	-45.3	-49.1	14.6	0.00e+00	0	43	0	454033408	61	5844
2026-01-27 00:55:32.84	329.36	31.92	-45.3	-49.1	14.4	1.50e-06	0	43	0	455081984	61	5854
2026-01-27 00:55:33.97	329.00	32.03	-45.6	-49.6	14.1	0.00e+00	0	44	0	457179136	62	5810
2026-01-27 00:55:34.83	328.72	32.11	-45.9	-50.1	13.7	2.20e-06	0	43	0	459276288	62	6158
2026-01-27 00:55:35.96	328.35	32.22	-46.4	-50.8	12.9	4.27e-05	0	43	0	461373440	63	6313
2026-01-27 00:55:36.82	328.07	32.30	-46.4	-50.7	13.0	4.57e-05	0	43	0	462422016	63	6248
2026-01-27 00:55:37.95	327.70	32.41	-46.4	-50.6	13.2	5.26e-05	0	43	0	464519168	63	6135
2026-01-27 00:55:38.81	327.42	32.49	-46.4	-50.6	12.9	1.06e-04	0	43	0	466616320	64	5849
2026-01-27 00:55:40.01	327.02	32.60	-46.0	-49.9	13.8	6.80e-06	0	43	0	468713472	63	5704
2026-01-27 00:55:40.86	326.74	32.67	-45.9	-49.8	13.9	0.00e+00	0	44	0	470810624	63	5646
2026-01-27 00:55:42.00	326.35	32.78	-45.7	-49.7	14.0	1.50e-06	0	43	0	472907776	63	5555
2026-01-27 00:55:42.85	326.07	32.85	-45.7	-50.0	13.7	6.80e-06	0	43	0	473956352	63	5746
2026-01-27 00:55:44.15	325.62	32.97	-45.9	-50.8	12.9	1.83e-05	0	43	0	476053504	63	6318
2026-01-27 00:55:44.86	325.38	33.03	-45.9	-51.0	12.7	9.53e-05	0	43	0	478150656	63	6468
2026-01-27 00:55:46.14	324.94	33.14	-46.2	-51.5	12.5	3.14e-04	0	43	0	480247808	63	6811
2026-01-27 00:55:46.88	324.69	33.20	-46.1	-51.3	12.4	4.11e-05	0	44	0	481296384	63	6661
2026-01-27 00:55:48.16	324.24	33.31	-45.8	-50.3	13.5	1.37e-05	0	44	0	484442112	63	5941
2026-01-27 00:55:48.87	323.99	33.37	-45.8	-50.0	13.7	8.30e-06	0	44	0	485490688	63	5748
2026-01-27 00:55:50.15	323.54	33.48	-45.7	-49.5	14.2	4.50e-06	0	43	0	487587840	63	5454
2026-01-27 00:55:50.86	323.29	33.53	-45.8	-49.6	14.2	7.00e-07	0	44	0	489684992	62	5796
2026-01-27 00:55:52.14	322.84	33.64	-45.2	-48.5	15.2	2.20e-06	0	44	0	491782144	62	5130
2026-01-27 00:55:52.85	322.59	33.69	-45.7	-49.4	14.3	0.00e+00	0	44	0	492830720	62	5690
2026-01-27 00:55:54.13	322.13	33.79	-45.8	-49.5	13.9	2.20e-06	0	44	0	494927872	62	5758
2026-01-27 00:55:55.09	321.78	33.87	-45.4	-49.1	14.6	1.50e-06	0	43	0	497025024	62	5480
2026-01-27 00:55:56.09	321.42	33.94	-45.2	-48.8	14.9	0.00e+00	0	44	0	499122176	62	5307
2026-01-27 00:55:57.08	321.06	34.02	-44.7	-48.3	15.4	0.00e+00	0	44	0	501219328	61	5298
2026-01-27 00:55:58.44	320.57	34.12	-44.7	-48.5	15.1	0.00e+00	0	43	0	503316480	61	5456
2026-01-27 00:55:59.18	320.29	34.17	-44.8	-49.0	14.8	0.00e+00	0	44	0	504365056	61	5724
2026-01-27 00:56:00.78	319.70	34.28	-44.5	-48.3	15.4	0.00e+00	0	44	0	507510784	61	5324
2026-01-27 00:56:01.34	319.50	34.32	-44.4	-48.1	15.6	0.00e+00	0	44	0	508559360	60	5502
2026-01-27 00:56:03.05	318.86	34.44	-44.7	-48.2	15.5	0.00e+00	0	44	0	511705088	60	5573
2026-01-27 00:56:03.62	318.65	34.48	-45.0	-48.5	15.2	0.00e+00	0	44	0	512753664	60	5786
2026-01-27 00:56:05.32	318.01	34.59	-45.5	-49.2	14.4	0.00e+00	0	44	0	515899392	62	5586
2026-01-27 00:56:05.89	317.79	34.63	-45.8	-49.7	14.0	0.00e+00	0	44	0	516947968	62	5903
2026-01-27 00:56:07.60	317.14	34.73	-45.2	-48.6	15.1	0.00e+00	0	43	0	520093696	62	5167
2026-01-27 00:56:08.32	316.87	34.78	-44.8	-48.0	15.7	0.00e+00	0	44	0	522190848	61	5127
2026-01-27 00:56:09.60	316.38	34.85	-44.3	-47.3	16.4	0.00e+00	0	43	0	524288000	60	4992
2026-01-27 00:56:10.32	316.10	34.90	-43.5	-46.2	17.4	0.00e+00	0	44	0	525336576	58	4960
2026-01-27 00:56:11.60	315.61	34.97	-42.7	-45.1	18.4	0.00e+00	0	43	0	528482304	57	4637
2026-01-27 00:56:12.32	315.33	35.01	-42.5	-44.9	18.6	0.00e+00	0	44	0	529530880	57	4500
2026-01-27 00:56:13.66	314.81	35.08	-42.7	-45.1	18.4	0.00e+00	0	44	0	531628032	57	4639
2026-01-27 00:56:14.38	314.53	35.12	-42.8	-45.2	18.3	0.00e+00	0	44	0	533725184	57	4703
2026-01-27 00:56:15.72	314.01	35.19	-42.4	-44.7	18.8	0.00e+00	0	44	0	535822336	56	4685
2026-01-27 00:56:16.43	313.73	35.22	-42.5	-44.8	18.6	0.00e+00	0	44	0	536870912	56	4754
2026-01-27 00:56:17.71	313.22	35.29	-41.6	-43.8	19.4	0.00e+00	0	44	0	540016640	55	4490
2026-01-27 00:56:18.42	312.94	35.32	-41.9	-44.2	19.1	0.00e+00	0	44	0	541065216	55	4681
2026-01-27 00:56:19.70	312.44	35.38	-42.2	-44.6	18.7	0.00e+00	0	43	0	543162368	55	4913
2026-01-27 00:56:20.41	312.16	35.41	-42.6	-45.2	18.2	0.00e+00	0	43	0	544210944	55	5227
2026-01-27 00:56:21.70	311.64	35.46	-43.0	-45.7	17.8	0.00e+00	0	44	0	547356672	57	4936
2026-01-27 00:56:22.41	311.36	35.49	-43.3	-46.0	17.6	0.00e+00	0	44	0	548405248	57	5143
2026-01-27 00:56:23.69	310.85	35.54	-43.2	-45.9	17.7	0.00e+00	0	44	0	550502400	57	5051
2026-01-27 00:56:24.40	310.56	35.57	-43.0	-45.7	17.9	0.00e+00	0	44	0	551550976	57	4930
2026-01-27 00:56:25.67	310.05	35.62	-42.5	-45.0	18.5	0.00e+00	0	44	0	554696704	56	4829
2026-01-27 00:56:26.50	309.72	35.64	-42.5	-45.0	18.5	0.00e+00	0	43	0	555745280	56	4852
2026-01-27 00:56:27.63	309.26	35.68	-42.7	-45.3	18.3	0.00e+00	0	43	0	557842432	56	4992
2026-01-27 00:56:28.69	308.84	35.72	-42.5	-44.9	18.5	0.00e+00	0	43	0	559939584	56	4799
2026-01-27 00:56:29.78	308.39	35.75	-42.6	-45.0	18.5	0.00e+00	0	43	0	562036736	56	4825
2026-01-27 00:56:30.64	308.05	35.77	-43.0	-45.5	18.2	0.00e+00	0	44	0	564133888	56	5105
2026-01-27 00:56:31.77	307.59	35.80	-43.5	-46.2	17.4	0.00e+00	0	43	0	566231040	57	5221
2026-01-27 00:56:32.80	307.17	35.83	-43.7	-46.4	17.2	0.00e+00	0	44	0	567279616	58	5094
2026-01-27 00:56:33.97	306.69	35.85	-42.7	-45.1	18.4	0.00e+00	0	44	0	570425344	57	4621
2026-01-27 00:56:34.82	306.34	35.87	-41.9	-44.2	19.2	0.00e+00	0	43	0	571473920	56	4420
2026-01-27 00:56:35.96	305.88	35.89	-41.1	-43.2	20.0	0.00e+00	0	44	0	573571072	54	4412
2026-01-27 00:56:36.81	305.53	35.91	-40.9	-43.0	20.1	0.00e+00	0	44	0	575668224	53	4578
2026-01-27 00:56:37.95	305.06	35.93	-41.3	-43.5	19.7	0.00e+00	0	43	0	577765376	53	4856
2026-01-27 00:56:38.80	304.71	35.94	-42.0	-44.4	18.8	0.00e+00	0	43	0	578813952	54	5094
2026-01-27 00:56:39.93	304.25	35.96	-42.9	-45.5	18.0	0.00e+00	0	43	0	580911104	56	5130
2026-01-27 00:56:40.78	303.90	35.97	-43.0	-45.6	17.9	0.00e+00	0	44	0	583008256	56	5202
2026-01-27 00:56:41.92	303.43	35.98	-43.3	-46.0	17.6	0.00e+00	0	43	0	585105408	57	5113
2026-01-27 00:56:42.77	303.08	35.98	-43.6	-46.3	17.2	0.00e+00	0	43	0	586153984	57	5338
2026-01-27 00:56:43.91	302.61	35.99	-43.4	-46.1	17.5	0.00e+00	0	44	0	588251136	57	5187
2026-01-27 00:56:44.76	302.26	35.99	-43.1	-45.7	17.7	0.00e+00	0	44	0	590348288	57	4982
2026-01-27 00:56:45.90	301.79	36.00	-43.2	-45.9	17.7	0.00e+00	0	44	0	592445440	57	5057
2026-01-27 00:56:46.75	301.44	36.00	-43.1	-45.8	17.7	0.00e+00	0	43	0	593494016	57	5001
2026-01-27 00:56:47.89	300.97	36.00	-43.4	-46.1	17.5	0.00e+00	0	44	0	595591168	57	5209
2026-01-27 00:56:48.74	300.62	36.00	-43.3	-46.0	17.6	0.00e+00	0	44	0	597688320	57	5102
2026-01-27 00:56:50.10	300.06	35.99	-43.4	-46.1	17.4	0.00e+00	0	43	0	599785472	57	5209
2026-01-27 00:56:50.81	299.77	35.99	-43.5	-46.2	17.4	0.00e+00	0	43	0	601882624	58	4936
2026-01-27 00:56:52.09	299.24	35.98	-43.4	-46.1	17.5	0.00e+00	0	43	0	603979776	58	4875
2026-01-27 00:56:52.80	298.95	35.97	-42.9	-45.4	17.9	0.00e+00	0	43	0	605028352	58	4524
2026-01-27 00:56:54.09	298.42	35.96	-42.7	-45.1	18.4	0.00e+00	0	44	0	608174080	57	4639
2026-01-27 00:56:54.87	298.10	35.95	-42.8	-45.4	18.1	0.00e+00	0	43	0	609222656	57	4766
2026-01-27 00:56:56.08	297.60	35.93	-43.4	-46.1	17.4	0.00e+00	0	44	0	611319808	57	5182
2026-01-27 00:56:57.07	297.20	35.92	-43.5	-46.2	17.3	0.00e+00	0	43	0	613416960	57	5265
2026-01-27 00:56:58.06	296.79	35.90	-43.4	-46.1	17.4	0.00e+00	0	44	0	615514112	57	5188
2026-01-27 00:56:59.06	296.38	35.88	-43.3	-46.0	17.5	0.00e+00	0	43	0	617611264	57	5107
2026-01-27 00:57:00.05	295.98	35.86	-43.7	-46.5	17.1	0.00e+00	0	43	0	618659840	58	5133
2026-01-27 00:57:01.05	295.57	35.84	-43.9	-46.7	16.8	0.00e+00	0	43	0	620756992	59	4977
2026-01-27 00:57:02.04	295.17	35.81	-44.0	-47.0	16.6	0.00e+00	0	43	0	622854144	59	5118
2026-01-27 00:57:03.04	294.76	35.79	-43.9	-46.8	16.9	0.00e+00	0	44	0	624951296	59	4993
2026-01-27 00:57:04.03	294.36	35.76	-43.9	-46.7	17.0	0.00e+00	0	44	0	625999872	59	4959
2026-01-27 00:57:05.03	293.95	35.73	-43.8	-46.6	17.0	0.00e+00	0	43	0	628097024	59	4885
2026-01-27 00:57:06.02	293.55	35.70	-44.0	-46.8	16.8	0.00e+00	0	43	0	630194176	59	5033
2026-01-27 00:57:07.01	293.15	35.67	-44.6	-47.7	15.9	0.00e+00	0	44	0	632291328	59	5543
2026-01-27 00:57:08.01	292.75	35.64	-45.1	-48.5	15.3	0.00e+00	0	44	0	634388480	60	5750
2026-01-27 00:57:09.01	292.35	35.60	-45.1	-48.5	15.3	0.00e+00	0	43	0	635437056	61	5406
2026-01-27 00:57:10.00	291.95	35.56	-44.7	-47.9	15.8	7.00e-07	0	44	0	637534208	61	5060
2026-01-27 00:57:11.00	291.55	35.53	-44.3	-47.3	16.4	0.00e+00	0	43	0	639631360	60	4986
2026-01-27 00:57:11.99	291.15	35.49	-44.2	-47.0	16.5	0.00e+00	0	43	0	641728512	59	5159
2026-01-27 00:57:12.98	290.76	35.44	-43.6	-46.1	17.4	0.00e+00	0	43	0	642777088	59	4648
2026-01-27 00:57:13.98	290.36	35.40	-43.5	-46.1	17.4	0.00e+00	0	43	0	644874240	58	4913
2026-01-27 00:57:14.97	289.97	35.36	-43.6	-46.2	17.4	0.00e+00	0	43	0	646971392	58	4942
2026-01-27 00:57:15.96	289.57	35.31	-43.9	-46.6	16.9	0.00e+00	0	44	0	649068544	58	5207
2026-01-27 00:57:16.96	289.18	35.27	-44.1	-46.8	16.7	0.00e+00	0	44	0	651165696	59	5038
2026-01-27 00:57:17.95	288.79	35.22	-44.8	-47.9	15.8	0.00e+00	0	44	0	652214272	60	5349
2026-01-27 00:57:18.95	288.40	35.17	-44.8	-48.0	15.6	0.00e+00	0	44	0	654311424	60	5418
2026-01-27 00:57:19.94	288.01	35.12	-45.0	-48.2	15.5	0.00e+00	0	44	0	656408576	61	5250
2026-01-27 00:57:20.94	287.62	35.06	-44.4	-47.3	16.3	0.00e+00	0	43	0	658505728	60	5021
2026-01-27 00:57:21.95	287.23	35.01	-44.1	-47.0	16.7	0.00e+00	0	44	0	659554304	60	4815
2026-01-27 00:57:22.96	286.84	34.95	-44.2	-47.1	16.5	0.00e+00	0	44	0	661651456	59	5169
2026-01-27 00:57:23.96	286.45	34.89	-44.1	-47.0	16.6	0.00e+00	0	43	0	663748608	59	5126
2026-01-27 00:57:24.95	286.07	34.83	-43.1	-45.6	17.9	0.00e+00	0	44	0	665845760	58	4629
2026-01-27 00:57:25.95	285.69	34.77	-43.1	-45.6	17.9	0.00e+00	0	44	0	667942912	57	4922
2026-01-27 00:57:26.94	285.31	34.71	-43.6	-46.3	17.3	0.00e+00	0	44	0	668991488	57	5283
2026-01-27 00:57:27.94	284.93	34.65	-44.2	-47.1	16.4	0.00e+00	0	44	0	671088640	59	5212
2026-01-27 00:57:28.93	284.56	34.59	-44.5	-47.6	16.1	0.00e+00	0	43	0	673185792	59	5478
2026-01-27 00:57:29.93	284.18	34.52	-44.2	-47.1	16.5	0.00e+00	0	43	0	675282944	59	5186
2026-01-27 00:57:30.92	283.81	34.46	-44.2	-47.1	16.5	0.00e+00	0	44	0	676331520	60	4925
2026-01-27 00:57:31.92	283.43	34.39	-43.8	-46.5	17.1	0.00e+00	0	43	0	678428672	59	4838
2026-01-27 00:57:32.91	283.06	34.32	-43.2	-45.7	17.8	0.00e+00	0	43	0	680525824	58	4700
2026-01-27 00:57:33.91	282.69	34.25	-42.8	-45.3	18.3	0.00e+00	0	43	0	682622976	57	4708
2026-01-27 00:57:34.90	282.33	34.18	-42.8	-45.3	18.2	0.00e+00	0	44	0	684720128	57	4706
2026-01-27 00:57:35.90	281.96	34.11	-43.2	-45.7	17.8	0.00e+00	0	43	0	685768704	57	4954
2026-01-27 00:57:36.94	281.58	34.03	-43.6	-46.3	17.3	0.00e+00	0	44	0	687865856	58	5014
2026-01-27 00:57:37.93	281.22	33.96	-44.7	-47.8	15.8	0.00e+00	0	44	0	689963008	60	5333
2026-01-27 00:57:38.99	280.83	33.88	-45.1	-48.5	15.2	0.00e+00	0	43	0	692060160	61	5427
2026-01-27 00:57:39.85	280.52	33.81	-44.9	-48.2	15.5	0.00e+00	0	43	0	693108736	61	5227
2026-01-27 00:57:40.99	280.11	33.72	-44.2	-47.0	16.6	0.00e+00	0	44	0	695205888	60	4856
2026-01-27 00:57:41.84	279.81	33.65	-43.8	-46.6	17.0	0.00e+00	0	44	0	697303040	59	4876
2026-01-27 00:57:42.98	279.40	33.56	-43.5	-46.1	17.4	0.00e+00	0	44	0	699400192	58	4923
2026-01-27 00:57:43.83	279.10	33.49	-43.6	-46.3	17.3	0.00e+00	0	43	0	701497344	58	5032
2026-01-27 00:57:44.97	278.70	33.40	-44.2	-47.1	16.5	0.00e+00	0	43	0	703594496	59	5173
2026-01-27 00:57:45.82	278.40	33.33	-44.2	-47.1	16.5	0.00e+00	0	43	0	704643072	59	5175
2026-01-27 00:57:46.96	278.00	33.23	-44.3	-47.1	16.5	0.00e+00	0	43	0	706740224	59	5218
2026-01-27 00:57:47.81	277.71	33.16	-44.5	-47.5	16.1	0.00e+00	0	43	0	708837376	59	5455
2026-01-27 00:57:48.95	277.32	33.06	-45.4	-49.0	14.7	0.00e+00	0	44	0	710934528	61	5737
2026-01-27 00:57:49.80	277.02	32.99	-45.6	-49.3	14.4	0.00e+00	0	44	0	711983104	61	5973
2026-01-27 00:57:50.94	276.64	32.89	-45.7	-49.6	14.2	7.00e-07	0	44	0	714080256	62	5822
2026-01-27 00:57:51.79	276.35	32.81	-45.4	-49.0	14.8	0.00e+00	0	44	0	716177408	62	5406
2026-01-27 00:57:52.93	275.96	32.71	-45.3	-48.9	14.8	0.00e+00	0	44	0	718274560	62	5370
2026-01-27 00:57:53.78	275.68	32.63	-45.4	-48.9	14.8	0.00e+00	0	44	0	719323136	62	5396
2026-01-27 00:57:55.01	275.27	32.52	-45.5	-49.1	14.6	0.00e+00	0	44	0	722468864	62	5494
2026-01-27 00:57:55.87	274.98	32.44	-45.4	-49.0	14.7	0.00e+00	0	44	0	723517440	62	5410
2026-01-27 00:57:57.00	274.61	32.33	-45.7	-49.7	13.9	0.00e+00	0	44	0	725614592	62	5915
2026-01-27 00:57:57.86	274.32	32.25	-45.5	-49.3	14.4	3.00e-06	0	44	0	727711744	62	5644
2026-01-27 00:57:58.99	273.96	32.15	-45.4	-49.2	14.5	1.50e-06	0	44	0	729808896	62	5532
2026-01-27 00:57:59.85	273.68	32.06	-44.6	-47.8	15.8	0.00e+00	0	44	0	730857472	61	4989
2026-01-27 00:58:00.98	273.31	31.95	-44.3	-47.4	16.3	0.00e+00	0	44	0	732954624	60	5053
2026-01-27 00:58:01.84	273.04	31.87	-44.3	-47.2	16.4	0.00e+00	0	44	0	735051776	60	4972
2026-01-27 00:58:02.97	272.68	31.76	-44.3	-47.2	16.4	0.00e+00	0	44	0	737148928	59	5271
2026-01-27 00:58:03.82	272.41	31.68	-44.1	-46.9	16.6	0.00e+00	0	44	0	738197504	59	5081
2026-01-27 00:58:04.96	272.05	31.56	-43.9	-46.6	17.0	0.00e+00	0	43	0	740294656	59	4918
2026-01-27 00:58:05.81	271.78	31.48	-43.6	-46.3	17.2	0.00e+00	0	44	0	742391808	59	4740
2026-01-27 00:58:06.95	271.43	31.37	-43.5	-46.1	17.5	0.00e+00	0	43	0	744488960	58	4895
2026-01-27 00:58:07.80	271.17	31.28	-44.0	-46.8	16.8	0.00e+00	0	44	0	745537536	58	5293
2026-01-27 00:58:08.94	270.82	31.16	-44.9	-48.1	15.7	0.00e+00	0	43	0	747634688	60	5496
2026-01-27 00:58:09.79	270.56	31.08	-45.3	-48.8	14.8	0.00e+00	0	43	0	749731840	61	5638
2026-01-27 00:58:10.93	270.21	30.96	-45.3	-48.7	15.0	7.00e-07	0	44	0	751828992	61	5583
2026-01-27 00:58:11.78	269.95	30.87	-45.3	-48.8	14.9	0.00e+00	0	43	0	753926144	61	5617
2026-01-27 00:58:12.92	269.61	30.76	-44.4	-47.4	16.3	0.00e+00	0	44	0	756023296	60	5092
2026-01-27 00:58:13.77	269.36	30.67	-43.8	-46.5	17.0	0.00e+00	0	44	0	757071872	59	4854
2026-01-27 00:58:14.90	269.03	30.55	-43.4	-46.1	17.5	0.00e+00	0	44	0	759169024	58	4874
2026-01-27 00:58:15.76	268.77	30.46	-43.5	-46.2	17.3	0.00e+00	0	44	0	761266176	58	4967
2026-01-27 00:58:16.89	268.44	30.34	-44.1	-46.9	16.6	0.00e+00	0	44	0	763363328	58	5399
2026-01-27 00:58:17.75	268.19	30.25	-44.8	-48.1	15.6	0.00e+00	0	43	0	764411904	60	5504
2026-01-27 00:58:18.89	267.86	30.13	-45.5	-49.2	14.5	7.00e-07	0	44	0	766509056	61	5904
2026-01-27 00:58:19.74	267.62	30.04	-46.1	-50.3	13.4	9.90e-06	0	44	0	768606208	62	6285
2026-01-27 00:58:20.87	267.30	29.92	-45.7	-49.4	14.6	6.10e-06	0	43	0	770703360	62	5707
2026-01-27 00:58:21.73	267.06	29.82	-45.1	-48.5	15.2	0.00e+00	0	44	0	771751936	62	5155
2026-01-27 00:58:22.86	266.74	29.70	-44.6	-47.8	15.9	0.00e+00	0	43	0	773849088	60	5304
2026-01-27 00:58:23.72	266.50	29.61	-44.8	-48.1	15.5	0.00e+00	0	44	0	775946240	60	5473
2026-01-27 00:58:24.86	266.19	29.48	-44.4	-47.6	16.0	0.00e+00	0	44	0	778043392	60	5197
2026-01-27 00:58:25.71	265.95	29.39	-44.4	-47.5	16.1	0.00e+00	0	43	0	779091968	60	5147
2026-01-27 00:58:26.84	265.64	29.27	-44.6	-47.9	15.8	0.00e+00	0	44	0	781189120	60	5367
2026-01-27 00:58:27.70	265.41	29.17	-45.0	-48.4	15.2	0.00e+00	0	43	0	783286272	60	5718
2026-01-27 00:58:28.84	265.10	29.05	-45.7	-49.4	14.0	9.10e-06	0	44	0	785383424	63	5363
2026-01-27 00:58:29.82	264.84	28.94	-46.1	-50.2	13.6	3.00e-06	0	43	0	787480576	62	6245
2026-01-27 00:58:30.98	264.53	28.81	-45.5	-49.3	14.3	2.20e-06	0	44	0	789577728	62	5655
2026-01-27 00:58:31.85	264.30	28.72	-45.1	-48.6	15.1	0.00e+00	0	44	0	790626304	62	5178
2026-01-27 00:58:32.99	264.00	28.59	-44.4	-47.5	16.1	0.00e+00	0	44	0	792723456	60	5130
2026-01-27 00:58:33.84	263.78	28.50	-44.1	-47.1	16.5	0.00e+00	0	44	0	794820608	60	4905
2026-01-27 00:58:34.98	263.49	28.37	-43.9	-46.8	16.7	0.00e+00	0	43	0	796917760	59	5014
2026-01-27 00:58:35.83	263.27	28.27	-43.8	-46.8	16.8	0.00e+00	0	44	0	799014912	59	4993
2026-01-27 00:58:36.97	262.98	28.15	-43.7	-46.5	17.0	0.00e+00	0	43	0	801112064	59	4869
2026-01-27 00:58:37.82	262.77	28.05	-43.7	-46.6	17.0	0.00e+00	0	44	0	802160640	59	4883
2026-01-27 00:58:38.96	262.48	27.92	-44.1	-47.1	16.5	0.00e+00	0	43	0	804257792	59	5177
2026-01-27 00:58:39.81	262.27	27.83	-44.2	-47.2	16.3	0.00e+00	0	44	0	806354944	59	5276
2026-01-27 00:58:40.95	261.99	27.70	-44.3	-47.4	16.2	0.00e+00	0	43	0	808452096	59	5349
2026-01-27 00:58:41.81	261.77	27.60	-44.3	-47.3	16.3	0.00e+00	0	44	0	809500672	59	5295
2026-01-27 00:58:42.94	261.50	27.48	-43.6	-46.4	17.2	0.00e+00	0	44	0	811597824	59	4768
2026-01-27 00:58:43.80	261.29	27.38	-43.2	-45.9	17.7	0.00e+00	0	44	0	813694976	58	4770
2026-01-27 00:58:45.01	261.00	27.24	-42.6	-45.1	18.3	0.00e+00	0	44	0	815792128	57	4623
2026-01-27 00:58:45.87	260.79	27.15	-42.5	-45.0	18.5	0.00e+00	0	43	0	816840704	56	4816
2026-01-27 00:58:47.08	260.51	27.01	-42.7	-45.3	18.2	0.00e+00	0	44	0	819986432	56	5002
2026-01-27 00:58:47.93	260.31	26.91	-42.9	-45.5	17.9	0.00e+00	0	44	0	821035008	56	5146
2026-01-27 00:58:49.13	260.03	26.78	-43.0	-45.6	17.9	0.00e+00	0	44	0	823132160	56	5171
2026-01-27 00:58:49.98	259.83	26.68	-42.9	-45.5	18.0	0.00e+00	0	44	0	825229312	56	5133
2026-01-27 00:58:51.12	259.57	26.55	-42.9	-45.5	18.0	0.00e+00	0	44	0	827326464	56	5119
2026-01-27 00:58:51.97	259.37	26.46	-42.8	-45.3	18.2	0.00e+00	0	43	0	828375040	56	5008
2026-01-27 00:58:53.11	259.11	26.33	-42.4	-44.8	18.6	0.00e+00	0	44	0	830472192	56	4730
2026-01-27 00:58:54.01	258.91	26.23	-42.2	-44.5	18.9	0.00e+00	0	44	0	832569344	56	4583
2026-01-27 00:58:55.11	258.66	26.10	-41.7	-44.0	19.2	0.00e+00	0	43	0	834666496	55	4567
2026-01-27 00:58:55.97	258.47	26.00	-41.7	-44.0	19.2	0.00e+00	0	44	0	836763648	55	4555
2026-01-27 00:58:57.10	258.22	25.88	-41.6	-43.8	19.3	0.00e+00	0	44	0	838860800	55	4485
2026-01-27 00:58:57.96	258.04	25.78	-41.7	-44.0	19.2	0.00e+00	0	43	0	839909376	54	4846
2026-01-27 00:58:59.10	257.79	25.65	-42.0	-44.4	18.8	0.00e+00	0	44	0	842006528	54	5071
2026-01-27 00:58:59.95	257.60	25.55	-42.3	-44.7	18.5	0.00e+00	0	43	0	844103680	55	4963
2026-01-27 00:59:01.08	257.36	25.43	-42.6	-45.2	18.1	0.00e+00	0	44	0	846200832	55	5239
2026-01-27 00:59:02.25	257.11	25.29	-42.5	-45.1	18.2	0.00e+00	0	44	0	848297984	55	5194
2026-01-27 00:59:03.10	256.93	25.20	-42.4	-44.9	18.4	0.00e+00	0	44	0	849346560	55	5083
2026-01-27 00:59:04.24	256.70	25.07	-41.9	-44.3	18.9	0.00e+00	0	43	0	851443712	55	4755
2026-01-27 00:59:05.35	256.46	24.94	-41.9	-44.3	18.9	0.00e+00	0	43	0	853540864	55	4740
2026-01-27 00:59:06.20	256.29	24.85	-41.9	-44.3	18.9	0.00e+00	0	43	0	855638016	55	4735
2026-01-27 00:59:07.34	256.06	24.72	-41.5	-43.8	19.3	0.00e+00	0	43	0	857735168	55	4468
2026-01-27 00:59:08.20	255.88	24.62	-41.6	-43.8	19.3	0.00e+00	0	43	0	858783744	54	4748
2026-01-27 00:59:09.33	255.65	24.49	-41.8	-44.2	19.0	0.00e+00	0	44	0	860880896	54	4940
2026-01-27 00:59:10.18	255.48	24.40	-41.7	-43.9	19.2	0.00e+00	0	44	0	862978048	54	4801
2026-01-27 00:59:11.32	255.25	24.27	-41.7	-43.9	19.2	0.00e+00	0	44	0	865075200	54	4811
2026-01-27 00:59:12.18	255.08	24.17	-41.5	-43.7	19.5	0.00e+00	0	43	0	867172352	54	4662
2026-01-27 00:59:13.31	254.86	24.05	-41.7	-44.0	19.2	0.00e+00	0	43	0	869269504	54	4821
2026-01-27 00:59:14.17	254.70	23.95	-41.6	-43.8	19.2	0.00e+00	0	44	0	870318080	54	4714
2026-01-27 00:59:15.41	254.46	23.81	-41.8	-44.0	19.1	0.00e+00	0	43	0	872415232	54	4861
2026-01-27 00:59:16.27	254.29	23.72	-41.7	-43.9	19.2	0.00e+00	0	43	0	874512384	54	4799
2026-01-27 00:59:17.48	254.06	23.58	-41.5	-43.8	19.4	0.00e+00	0	43	0	876609536	54	4743
2026-01-27 00:59:18.34	253.90	23.48	-41.4	-43.7	19.4	0.00e+00	0	44	0	878706688	54	4694
2026-01-27 00:59:19.47	253.68	23.36	-41.2	-43.5	19.6	0.00e+00	0	44	0	880803840	54	4597
2026-01-27 00:59:20.33	253.52	23.26	-41.5	-43.8	19.3	0.00e+00	0	43	0	881852416	54	4756
2026-01-27 00:59:21.46	253.32	23.14	-41.4	-43.8	19.3	0.00e+00	0	43	0	883949568	54	4752
2026-01-27 00:59:22.31	253.16	23.04	-41.7	-44.2	19.0	0.00e+00	0	43	0	886046720	54	4952
2026-01-27 00:59:23.45	252.95	22.92	-41.8	-44.3	18.9	0.00e+00	0	44	0	888143872	54	4987
2026-01-27 00:59:24.30	252.80	22.82	-41.9	-44.3	18.9	0.00e+00	0	44	0	889192448	54	5014
2026-01-27 00:59:25.44	252.59	22.70	-41.8	-44.2	19.0	0.00e+00	0	44	0	891289600	54	4956
2026-01-27 00:59:26.29	252.44	22.60	-42.0	-44.3	18.9	0.00e+00	0	44	0	893386752	54	5040
2026-01-27 00:59:27.43	252.24	22.48	-41.9	-44.2	18.9	0.00e+00	0	43	0	895483904	54	4971
2026-01-27 00:59:28.28	252.09	22.38	-41.8	-44.2	19.0	0.00e+00	0	44	0	896532480	54	4956
2026-01-27 00:59:29.41	251.89	22.26	-42.2	-44.7	18.5	0.00e+00	0	43	0	898629632	55	4960
2026-01-27 00:59:30.27	251.74	22.17	-42.6	-45.2	18.1	0.00e+00	0	43	0	900726784	55	5246
2026-01-27 00:59:31.40	251.55	22.04	-42.5	-45.2	18.1	0.00e+00	0	44	0	902823936	55	5237
2026-01-27 00:59:32.25	251.40	21.95	-42.8	-45.5	18.0	0.00e+00	0	44	0	903872512	56	5106
2026-01-27 00:59:33.39	251.21	21.83	-43.2	-46.0	17.5	0.00e+00	0	43	0	905969664	56	5428
2026-01-27 00:59:34.24	251.06	21.73	-43.1	-45.8	17.7	0.00e+00	0	44	0	908066816	57	5022
2026-01-27 00:59:35.58	250.84	21.59	-42.8	-45.4	18.1	0.00e+00	0	43	0	910163968	57	4811
2026-01-27 00:59:36.30	250.72	21.51	-42.9	-45.5	17.9	0.00e+00	0	44	0	912261120	57	4832
2026-01-27 00:59:37.76	250.48	21.35	-42.9	-45.5	18.0	0.00e+00	0	44	0	914358272	57	4828
2026-01-27 00:59:38.48	250.36	21.27	-42.7	-45.2	18.2	0.00e+00	0	44	0	916455424	57	4677
2026-01-27 00:59:39.75	250.15	21.14	-43.3	-45.9	17.6	0.00e+00	0	43	0	918552576	57	5089
2026-01-27 00:59:40.47	250.04	21.06	-43.6	-46.3	17.1	0.00e+00	0	44	0	919601152	57	5318
2026-01-27 00:59:41.75	249.83	20.92	-43.5	-46.3	17.2	0.00e+00	0	44	0	921698304	57	5303
2026-01-27 00:59:42.47	249.72	20.85	-43.5	-46.3	17.1	0.00e+00	0	44	0	923795456	57	5312
2026-01-27 00:59:43.75	249.52	20.71	-43.5	-46.2	17.2	0.00e+00	0	43	0	925892608	57	5273
2026-01-27 00:59:44.49	249.40	20.63	-43.3	-46.0	17.4	0.00e+00	0	44	0	926941184	57	5146
2026-01-27 00:59:45.77	249.20	20.49	-43.1	-45.7	17.6	0.00e+00	0	44	0	930086912	57	4975
2026-01-27 00:59:46.55	249.08	20.41	-43.2	-45.9	17.6	0.00e+00	0	43	0	931135488	57	5055
2026-01-27 00:59:47.83	248.88	20.28	-42.8	-45.4	18.0	0.00e+00	0	43	0	933232640	57	4785
2026-01-27 00:59:48.60	248.76	20.19	-43.0	-45.7	17.8	0.00e+00	0	43	0	935329792	57	4932
2026-01-27 00:59:49.88	248.57	20.06	-43.1	-45.7	17.7	0.00e+00	0	43	0	937426944	57	4971
2026-01-27 00:59:50.59	248.46	19.98	-43.2	-45.9	17.5	0.00e+00	0	43	0	938475520	57	5077
2026-01-27 00:59:52.23	248.22	19.81	-43.1	-45.8	17.6	0.00e+00	0	43	0	941621248	57	4994
2026-01-27 00:59:52.80	248.13	19.75	-43.3	-46.0	17.4	0.00e+00	0	43	0	942669824	57	5130
2026-01-27 00:59:54.50	247.89	19.58	-42.8	-45.4	17.9	0.00e+00	0	43	0	945815552	57	4794
2026-01-27 00:59:55.07	247.80	19.52	-42.8	-45.3	18.0	0.00e+00	0	44	0	946864128	57	4746
2026-01-27 00:59:56.79	247.55	19.34	-42.6	-45.1	18.3	0.00e+00	0	44	0	950009856	57	4609
2026-01-27 00:59:57.36	247.47	19.28	-42.4	-44.9	18.5	0.00e+00	0	44	0	951058432	56	4765
2026-01-27 00:59:59.07	247.23	19.10	-42.2	-44.6	18.7	0.00e+00	0	43	0	954204160	56	4629
2026-01-27 00:59:59.76	247.13	19.03	-42.3	-44.8	18.6	0.00e+00	0	44	0	956301312	56	4715
2026-01-27 01:00:01.18	246.93	18.89	-42.2	-44.7	18.6	0.00e+00	0	44	0	958398464	56	4684
2026-01-27 01:00:01.89	246.83	18.81	-42.2	-44.7	18.6	0.00e+00	0	44	0	959447040	56	4687
2026-01-27 01:00:03.17	246.66	18.68	-42.3	-44.8	18.5	0.00e+00	0	43	0	962592768	56	4725
2026-01-27 01:00:04.02	246.54	18.59	-42.3	-44.8	18.5	0.00e+00	0	44	0	963641344	56	4747
2026-01-27 01:00:05.16	246.38	18.48	-42.2	-44.7	18.6	0.00e+00	0	44	0	965738496	56	4656
2026-01-27 01:00:06.02	246.27	18.39	-42.2	-44.7	18.7	0.00e+00	0	44	0	967835648	56	4664
2026-01-27 01:00:07.16	246.11	18.28	-42.3	-44.8	18.5	0.00e+00	0	44	0	969932800	56	4740
2026-01-27 01:00:08.01	246.00	18.19	-42.1	-44.5	18.6	0.00e+00	0	44	0	970981376	56	4591
2026-01-27 01:00:09.15	245.85	18.08	-42.0	-44.5	18.6	0.00e+00	0	44	0	973078528	55	4851
2026-01-27 01:00:10.30	245.70	17.96	-41.8	-44.3	18.8	0.00e+00	0	43	0	975175680	55	4719
2026-01-27 01:00:11.32	245.56	17.86	-41.8	-44.3	18.8	0.00e+00	0	43	0	977272832	55	4736
2026-01-27 01:00:12.49	245.41	17.74	-41.9	-44.4	18.8	0.00e+00	0	43	0	979369984	55	4763
2026-01-27 01:00:13.34	245.30	17.66	-41.9	-44.3	18.8	0.00e+00	0	44	0	981467136	55	4744
2026-01-27 01:00:14.70	245.13	17.52	-42.0	-44.3	18.8	0.00e+00	0	44	0	983564288	55	4753
2026-01-27 01:00:15.42	245.04	17.45	-42.2	-44.6	18.6	0.00e+00	0	44	0	985661440	55	4887
2026-01-27 01:00:16.69	244.88	17.32	-42.3	-44.8	18.4	0.00e+00	0	44	0	987758592	55	4992
2026-01-27 01:00:17.40	244.79	17.25	-42.3	-44.7	18.4	0.00e+00	0	44	0	988807168	55	4940
2026-01-27 01:00:18.68	244.63	17.13	-43.1	-45.7	17.6	0.00e+00	0	44	0	990904320	56	5256
2026-01-27 01:00:19.39	244.54	17.06	-43.1	-45.7	17.6	0.00e+00	0	43	0	993001472	57	4960
2026-01-27 01:00:20.67	244.38	16.93	-43.7	-46.5	16.9	0.00e+00	0	44	0	995098624	58	5111
2026-01-27 01:00:21.38	244.30	16.86	-44.0	-46.9	16.5	0.00e+00	0	44	0	996147200	58	5341
2026-01-27 01:00:22.66	244.14	16.74	-44.5	-47.6	15.8	0.00e+00	0	44	0	999292928	59	5493
2026-01-27 01:00:23.39	244.05	16.67	-44.5	-47.7	15.7	0.00e+00	0	43	0	1000341504	59	5556
2026-01-27 01:00:24.67	243.90	16.55	-44.5	-47.8	15.6	0.00e+00	0	44	0	1002438656	59	5614
2026-01-27 01:00:25.39	243.81	16.48	-44.5	-47.7	15.7	0.00e+00	0	44	0	1003487232	59	5550
2026-01-27 01:00:26.67	243.66	16.35	-43.8	-46.9	16.6	0.00e+00	0	44	0	1006632960	59	5047
2026-01-27 01:00:27.40	243.58	16.28	-43.7	-46.7	16.7	0.00e+00	0	43	0	1007681536	59	4952
2026-01-27 01:00:28.75	243.42	16.15	-42.9	-45.7	17.6	0.00e+00	0	44	0	1009778688	57	4951
2026-01-27 01:00:29.47	243.34	16.08	-42.8	-45.5	17.8	0.00e+00	0	44	0	1011875840	57	4829
2026-01-27 01:00:30.74	243.19	15.96	-42.7	-45.3	18.0	0.00e+00	0	44	0	1013972992	57	4708
2026-01-27 01:00:31.47	243.11	15.89	-42.4	-44.9	18.3	0.00e+00	0	43	0	1015021568	56	4776
2026-01-27 01:00:32.75	242.96	15.77	-42.3	-44.8	18.5	0.00e+00	0	43	0	1018167296	56	4722
2026-01-27 01:00:33.47	242.88	15.70	-42.3	-44.8	18.5	0.00e+00	0	43	0	1019215872	56	4741
2026-01-27 01:00:34.75	242.74	15.58	-42.8	-45.4	17.9	0.00e+00	0	44	0	1021313024	56	5086
2026-01-27 01:00:35.47	242.66	15.52	-42.9	-45.5	17.7	0.00e+00	0	43	0	1022361600	56	5138
2026-01-27 01:00:36.75	242.52	15.40	-43.5	-46.2	17.1	0.00e+00	0	44	0	1025507328	57	5276
2026-01-27 01:00:37.49	242.43	15.33	-43.6	-46.5	16.9	0.00e+00	0	43	0	1026555904	58	5108
2026-01-27 01:00:38.77	242.29	15.21	-44.0	-46.9	16.5	0.00e+00	0	44	0	1028653056	58	5402
2026-01-27 01:00:39.53	242.21	15.14	-44.1	-47.1	16.2	0.00e+00	0	43	0	1030750208	58	5496
2026-01-27 01:00:40.81	242.07	15.02	-44.2	-47.2	16.2	0.00e+00	0	44	0	1032847360	59	5257
2026-01-27 01:00:41.52	242.00	14.95	-44.1	-47.1	16.3	0.00e+00	0	44	0	1033895936	59	5211
2026-01-27 01:00:42.80	241.86	14.83	-43.8	-46.8	16.5	0.00e+00	0	43	0	1037041664	59	5038
2026-01-27 01:00:43.59	241.78	14.76	-43.8	-46.9	16.4	0.00e+00	0	43	0	1038090240	59	5072
2026-01-27 01:00:44.79	241.65	14.65	-43.6	-46.6	16.7	0.00e+00	0	43	0	1040187392	59	4911
2026-01-27 01:00:45.80	241.55	14.56	-43.5	-46.6	16.7	0.00e+00	0	44	0	1042284544	58	5199
2026-01-27 01:00:46.97	241.42	14.45	-43.4	-46.5	16.8	0.00e+00	0	44	0	1044381696	58	5149
2026-01-27 01:00:47.85	241.33	14.37	-43.4	-46.6	16.8	0.00e+00	0	44	0	1046478848	58	5177
2026-01-27 01:00:48.99	241.22	14.27	-43.4	-46.6	16.7	0.00e+00	0	44	0	1048576000	58	5190
2026-01-27 01:00:49.84	241.13	14.19	-43.2	-46.4	16.9	0.00e+00	0	44	0	1049624576	58	5061
2026-01-27 01:00:50.98	241.01	14.09	-43.2	-46.5	16.8	0.00e+00	0	44	0	1051721728	58	5144
2026-01-27 01:00:51.83	240.93	14.01	-43.3	-46.5	16.8	0.00e+00	0	44	0	1053818880	58	5125
2026-01-27 01:00:52.97	240.81	13.91	-43.4	-46.6	16.7	0.00e+00	0	43	0	1055916032	58	5198
2026-01-27 01:00:53.82	240.73	13.84	-43.4	-46.7	16.7	0.00e+00	0	44	0	1056964608	58	5223
2026-01-27 01:00:54.96	240.62	13.73	-43.5	-46.7	16.6	0.00e+00	0	44	0	1059061760	58	5270
2026-01-27 01:00:55.81	240.53	13.66	-43.7	-46.8	16.5	0.00e+00	0	44	0	1061158912	58	5314
2026-01-27 01:00:56.95	240.42	13.56	-43.7	-46.8	16.5	0.00e+00	0	44	0	1063256064	58	5297
2026-01-27 01:00:57.81	240.34	13.48	-43.9	-47.0	16.4	0.00e+00	0	44	0	1064304640	58	5426
2026-01-27 01:00:58.94	240.23	13.38	-43.9	-46.8	16.5	0.00e+00	0	44	0	1066401792	58	5337
2026-01-27 01:00:59.79	240.15	13.31	-44.0	-47.1	16.2	0.00e+00	0	44	0	1068498944	58	5476
2026-01-27 01:01:00.93	240.04	13.21	-44.0	-47.0	16.3	0.00e+00	0	44	0	1070596096	58	5406
2026-01-27 01:01:01.78	239.96	13.13	-44.1	-47.0	16.3	0.00e+00	0	44	0	1071644672	58	5439
2026-01-27 01:01:03.10	239.84	13.02	-44.1	-47.0	16.2	0.00e+00	0	43	0	1074790400	59	5156
2026-01-27 01:01:03.81	239.77	12.95	-44.1	-47.1	16.2	0.00e+00	0	43	0	1075838976	59	5179
2026-01-27 01:01:05.09	239.65	12.84	-44.0	-46.9	16.4	0.00e+00	0	43	0	1077936128	59	5098
2026-01-27 01:01:05.80	239.59	12.78	-44.0	-46.9	16.4	0.00e+00	0	44	0	1080033280	59	5043
2026-01-27 01:01:07.08	239.47	12.67	-43.8	-46.6	16.6	0.00e+00	0	44	0	1082130432	59	4894
2026-01-27 01:01:07.79	239.40	12.61	-43.5	-46.3	16.9	0.00e+00	0	44	0	1083179008	59	4755
2026-01-27 01:01:09.08	239.29	12.50	-43.6	-46.4	16.9	0.00e+00	0	43	0	1086324736	58	5056
2026-01-27 01:01:09.80	239.22	12.44	-43.3	-46.1	17.2	0.00e+00	0	44	0	1087373312	58	4877
2026-01-27 01:01:11.08	239.11	12.33	-43.3	-46.0	17.2	0.00e+00	0	44	0	1089470464	58	4856
2026-01-27 01:01:11.91	239.03	12.26	-43.2	-45.9	17.0	0.00e+00	0	43	0	1091567616	58	4765
2026-01-27 01:01:13.05	238.93	12.16	-43.2	-45.9	17.3	0.00e+00	0	44	0	1093664768	58	4771
2026-01-27 01:01:13.90	238.86	12.09	-43.2	-45.8	17.4	0.00e+00	0	44	0	1094713344	58	4750
2026-01-27 01:01:15.04	238.76	11.99	-43.2	-45.9	17.3	0.00e+00	0	43	0	1096810496	58	4790
2026-01-27 01:01:15.89	238.68	11.92	-43.2	-46.0	17.3	0.00e+00	0	44	0	1098907648	58	4827
2026-01-27 01:01:17.03	238.58	11.83	-43.5	-46.3	16.9	0.00e+00	0	44	0	1101004800	58	5036
2026-01-27 01:01:17.88	238.51	11.75	-43.6	-46.4	16.8	0.00e+00	0	44	0	1102053376	58	5093
2026-01-27 01:01:19.02	238.41	11.66	-43.9	-46.9	16.3	0.00e+00	0	44	0	1104150528	58	5366
2026-01-27 01:01:19.87	238.34	11.59	-44.1	-47.1	16.1	0.00e+00	0	44	0	1106247680	58	5500
2026-01-27 01:01:21.10	238.24	11.49	-44.4	-47.6	15.6	0.00e+00	0	44	0	1108344832	59	5524
2026-01-27 01:01:21.95	238.17	11.41	-44.6	-47.8	15.5	0.00e+00	0	44	0	1110441984	59	5625
2026-01-27 01:01:23.15	238.07	11.32	-44.9	-48.4	14.9	0.00e+00	0	43	0	1112539136	60	5706
2026-01-27 01:01:24.01	238.00	11.24	-45.1	-48.7	14.7	0.00e+00	0	43	0	1113587712	60	5867
2026-01-27 01:01:25.15	237.90	11.15	-45.3	-49.0	14.3	0.00e+00	0	44	0	1115684864	61	5782
2026-01-27 01:01:26.00	237.83	11.08	-45.4	-49.3	14.0	7.00e-07	0	44	0	1117782016	61	5946
2026-01-27 01:01:27.14	237.74	10.99	-45.5	-49.4	13.9	7.00e-07	0	44	0	1119879168	61	6028
2026-01-27 01:01:27.99	237.67	10.92	-45.4	-49.2	14.1	3.80e-06	0	44	0	1120927744	61	5867
2026-01-27 01:01:29.13	237.58	10.83	-45.3	-49.1	14.2	7.00e-07	0	44	0	1123024896	61	5808
2026-01-27 01:01:30.14	237.50	10.74	-45.3	-49.1	14.2	7.00e-07	0	44	0	1125122048	61	5809
2026-01-27 01:01:31.14	237.42	10.66	-45.1	-48.7	14.6	7.00e-07	0	44	0	1127219200	61	5571
2026-01-27 01:01:32.32	237.32	10.57	-45.1	-48.7	14.6	0.00e+00	0	44	0	1129316352	61	5542
2026-01-27 01:01:33.17	237.26	10.50	-45.1	-48.7	14.6	7.00e-07	0	44	0	1131413504	61	5557
2026-01-27 01:01:34.50	237.15	10.39	-44.9	-48.4	14.9	0.00e+00	0	43	0	1133510656	61	5344
2026-01-27 01:01:35.21	237.10	10.34	-45.0	-48.5	14.7	7.00e-07	0	44	0	1134559232	61	5451
2026-01-27 01:01:36.49	237.00	10.23	-44.7	-48.1	15.1	7.00e-07	0	44	0	1137704960	61	5205
2026-01-27 01:01:37.23	236.94	10.17	-44.6	-48.0	15.3	0.00e+00	0	44	0	1138753536	61	5119
2026-01-27 01:01:38.51	236.84	10.07	-44.6	-48.0	15.3	0.00e+00	0	44	0	1140850688	60	5413
2026-01-27 01:01:39.22	236.79	10.02	-44.5	-47.9	15.3	0.00e+00	0	44	0	1141899264	60	5345
2026-01-27 01:01:40.50	236.69	9.91	-44.4	-47.7	15.6	0.00e+00	0	44	0	1145044992	60	5239
2026-01-27 01:01:41.22	236.64	9.86	-44.4	-47.7	15.6	0.00e+00	0	43	0	1146093568	60	5227
2026-01-27 01:01:42.50	236.54	9.76	-44.2	-47.3	15.8	0.00e+00	0	44	0	1148190720	60	5039
2026-01-27 01:01:43.21	236.49	9.70	-44.2	-47.4	15.8	0.00e+00	0	44	0	1150287872	60	5070
2026-01-27 01:01:44.49	236.40	9.60	-44.3	-47.5	15.7	0.00e+00	0	44	0	1152385024	60	5143
2026-01-27 01:01:45.20	236.34	9.55	-44.2	-47.3	15.9	0.00e+00	0	43	0	1153433600	60	5029
2026-01-27 01:01:46.48	236.25	9.45	-44.1	-47.1	16.1	0.00e+00	0	43	0	1155530752	60	4922
2026-01-27 01:01:47.21	236.20	9.39	-44.1	-47.2	16.0	0.00e+00	0	43	0	1157627904	60	4943
2026-01-27 01:01:48.48	236.10	9.29	-44.2	-47.3	15.9	0.00e+00	0	44	0	1159725056	60	4995
2026-01-27 01:01:49.21	236.05	9.24	-44.2	-47.4	15.8	0.00e+00	0	43	0	1160773632	60	5045
2026-01-27 01:01:50.49	235.96	9.14	-44.1	-47.2	16.0	0.00e+00	0	43	0	1163919360	60	4953
2026-01-27 01:01:51.20	235.91	9.08	-44.2	-47.3	15.9	0.00e+00	0	43	0	1164967936	60	4999
2026-01-27 01:01:52.48	235.82	8.98	-44.8	-48.3	15.1	0.00e+00	0	44	0	1167065088	60	5634
2026-01-27 01:01:53.19	235.77	8.93	-49.2	-64.6	3.8	9.16e-01	0	44	104	1168113664	69	21787
2026-01-27 01:01:54.60	235.67	8.82	-49.1	-64.8	3.8	1.49e+00	0	43	104	1168113664	69	22488
2026-01-27 01:01:55.31	235.62	8.77	-48.3	-64.9	3.8	1.49e+00	0	44	104	1168113664	68	24128
2026-01-27 01:01:56.66	235.53	8.67	-49.4	-65.0	3.8	1.49e+00	0	44	104	1168113664	69	22999
2026-01-27 01:01:57.37	235.48	8.61	-49.8	-65.1	3.9	1.49e+00	0	44	104	1168113664	70	21777
2026-01-27 01:01:58.69	235.39	8.51	-49.8	-65.2	3.8	1.49e+00	0	44	104	1168113664	70	22042
2026-01-27 01:01:59.40	235.34	8.46	-49.8	-65.2	3.8	1.49e+00	0	44	104	1168113664	70	22034
2026-01-27 01:02:00.74	235.25	8.36	-49.9	-65.1	3.8	1.49e+00	0	44	104	1168113664	70	21947
2026-01-27 01:02:01.45	235.20	8.30	-49.8	-65.1	3.8	1.49e+00	0	44	104	1168113664	70	21978
2026-01-27 01:02:02.84	235.11	8.20	-49.6	-65.2	3.8	1.49e+00	0	43	104	1168113664	70	22043
2026-01-27 01:02:03.55	235.06	8.15	-49.9	-65.2	3.8	1.49e+00	0	44	104	1168113664	70	22094
2026-01-27 01:02:04.87	234.97	8.05	-49.9	-65.2	3.8	1.49e+00	0	44	104	1168113664	70	22135
2026-01-27 01:02:05.58	234.93	8.00	-49.8	-65.2	3.8	1.49e+00	0	44	104	1168113664	70	22203
2026-01-27 01:02:06.86	234.84	7.90	-49.9	-65.2	3.8	1.49e+00	0	44	104	1168113664	70	22089
2026-01-27 01:02:07.58	234.80	7.85	-49.9	-65.2	3.8	1.49e+00	0	43	104	1168113664	70	22185
2026-01-27 01:02:08.86	234.71	7.75	-50.0	-65.2	3.8	1.49e+00	0	44	104	1168113664	70	22126
2026-01-27 01:02:09.57	234.67	7.70	-49.9	-65.2	3.8	1.49e+00	0	44	104	1168113664	70	22136
2026-01-27 01:02:10.85	234.58	7.61	-49.8	-65.2	3.8	1.49e+00	0	44	104	1168113664	70	22101
2026-01-27 01:02:11.56	234.54	7.56	-49.8	-65.1	3.8	1.49e+00	0	44	104	1168113664	70	22006
2026-01-27 01:02:12.83	234.46	7.46	-49.6	-65.1	3.8	1.49e+00	0	44	104	1168113664	70	22003
2026-01-27 01:02:13.57	234.41	7.41	-49.6	-65.1	3.8	1.49e+00	0	44	104	1168113664	70	22001
2026-01-27 01:02:14.85	234.33	7.32	-49.5	-65.1	3.8	1.49e+00	0	43	104	1168113664	70	21899
2026-01-27 01:02:15.57	234.29	7.27	-49.5	-65.1	3.8	1.49e+00	0	44	104	1168113664	70	21870
2026-01-27 01:02:16.85	234.21	7.17	-49.5	-65.1	3.8	1.49e+00	0	44	104	1168113664	70	21851
2026-01-27 01:02:17.56	234.16	7.12	-49.6	-65.1	3.8	1.49e+00	0	44	104	1168113664	70	21857
2026-01-27 01:02:18.84	234.08	7.03	-49.5	-65.1	3.8	1.49e+00	0	43	104	1168113664	70	21790
2026-01-27 01:02:19.56	234.04	6.98	-49.5	-65.1	3.8	1.49e+00	0	44	104	1168113664	70	21806
2026-01-27 01:02:20.84	233.96	6.89	-49.5	-65.1	3.8	1.49e+00	0	44	104	1168113664	70	21861
2026-01-27 01:02:21.55	233.92	6.84	-49.5	-65.1	3.8	1.49e+00	0	44	104	1168113664	70	21823
2026-01-27 01:02:22.83	233.84	6.74	-49.5	-65.1	3.8	1.49e+00	0	44	104	1168113664	70	21772
2026-01-27 01:02:23.54	233.80	6.69	-49.5	-65.1	3.8	1.49e+00	0	44	104	1168113664	70	21762
2026-01-27 01:02:24.82	233.72	6.60	-49.5	-65.1	3.8	1.49e+00	0	44	104	1168113664	70	21813
2026-01-27 01:02:25.54	233.68	6.55	-49.5	-65.0	3.8	1.49e+00	0	44	104	1168113664	70	21720
2026-01-27 01:02:26.82	233.60	6.46	-49.5	-65.1	3.8	1.49e+00	0	43	104	1168113664	70	21826
2026-01-27 01:02:27.54	233.56	6.41	-49.5	-65.0	3.8	1.49e+00	0	44	104	1168113664	70	21745
2026-01-27 01:02:28.82	233.49	6.32	-49.5	-65.1	3.8	1.49e+00	0	43	104	1168113664	70	21849
