passes_logs/2026/01/27/T1/T1__20260127_234913_FENGYUN_3D_rec.log

#Pass ID: 20260127_234913_FENGYUN 3D
#Satellite: FENGYUN 3D
#Configuration: FENGYUN 3D
#almurnet v.1.7.20251203
#Start time: 2026-01-27 23:49:15

#Version: 2.0.20230620
#Station: T1
#Location: 37.570604 lon 55.790049 lat
#TLE: 1 43010U 17072A   26027.47796828  .00000374  00000+0  19850-3 0  9992
#TLE: 2 43010  98.9960 359.4888 0002523  87.5419 272.6045 14.19701595425023

#Time	Az	El	Level	Level2	SNR	BER	BlckErr	Temp	State	Recorded	gain1	gain2
2026-01-27 23:49:15.47	37.25	5.09	-50.3	-62.4	3.8	8.48e-01	0	41	0	0	71	15133
2026-01-27 23:49:16.46	37.36	5.14	-50.4	-62.4	3.8	8.46e-01	0	41	104	0	72	14307
2026-01-27 23:49:17.45	37.47	5.19	-50.3	-62.4	3.8	8.45e-01	0	41	104	0	72	14309
2026-01-27 23:49:18.44	37.59	5.23	-50.3	-62.5	3.8	8.47e-01	0	41	104	0	72	14377
2026-01-27 23:49:19.43	37.70	5.28	-50.1	-62.4	3.8	8.47e-01	0	41	104	0	72	14359
2026-01-27 23:49:20.43	37.81	5.33	-50.2	-62.4	3.8	8.47e-01	0	41	104	0	72	14298
2026-01-27 23:49:21.42	37.93	5.37	-50.1	-62.4	3.8	8.46e-01	0	41	104	0	72	14261
2026-01-27 23:49:22.41	38.04	5.42	-50.1	-62.4	3.8	8.47e-01	0	41	104	0	72	14308
2026-01-27 23:49:23.41	38.16	5.47	-50.2	-62.3	3.8	8.48e-01	0	42	104	0	72	14178
2026-01-27 23:49:24.40	38.27	5.52	-50.1	-62.3	3.8	8.46e-01	0	41	104	0	72	14084
2026-01-27 23:49:25.39	38.39	5.56	-50.0	-62.3	3.8	8.47e-01	0	41	104	0	72	14056
2026-01-27 23:49:26.39	38.51	5.61	-50.0	-62.3	3.8	8.47e-01	0	42	104	0	71	14905
2026-01-27 23:49:27.38	38.62	5.66	-49.9	-62.2	3.8	8.47e-01	0	42	104	0	71	14870
2026-01-27 23:49:28.37	38.74	5.70	-49.9	-62.1	3.8	8.46e-01	0	42	104	0	71	14658
2026-01-27 23:49:29.36	38.85	5.75	-49.7	-62.1	3.8	8.46e-01	0	42	104	0	71	14580
2026-01-27 23:49:30.36	38.97	5.80	-49.6	-61.9	3.8	8.47e-01	0	42	104	0	71	14260
2026-01-27 23:49:31.35	39.09	5.85	-49.3	-61.7	3.8	8.47e-01	0	42	104	0	70	14735
2026-01-27 23:49:32.34	39.21	5.89	-49.3	-61.6	3.8	8.46e-01	0	42	104	0	70	14619
2026-01-27 23:49:33.34	39.33	5.94	-49.3	-61.6	3.8	8.48e-01	0	42	104	0	70	14655
2026-01-27 23:49:34.33	39.45	5.99	-49.3	-61.6	3.8	8.47e-01	0	42	104	0	70	14609
2026-01-27 23:49:35.32	39.56	6.03	-49.3	-61.6	3.8	8.46e-01	0	42	104	0	70	14559
2026-01-27 23:49:36.32	39.69	6.08	-49.2	-61.6	3.8	8.47e-01	0	42	104	0	70	14541
2026-01-27 23:49:37.31	39.80	6.13	-49.3	-61.5	3.8	8.46e-01	0	42	104	0	70	14490
2026-01-27 23:49:38.30	39.92	6.17	-49.2	-61.5	3.8	8.46e-01	0	42	104	0	70	14521
2026-01-27 23:49:39.30	40.05	6.22	-49.2	-61.5	3.8	8.48e-01	0	42	104	0	70	14536
2026-01-27 23:49:40.29	40.17	6.27	-49.3	-61.5	3.8	8.47e-01	0	42	104	0	70	14536
2026-01-27 23:49:41.28	40.29	6.32	-49.2	-61.5	3.8	8.47e-01	0	42	104	0	70	14522
2026-01-27 23:49:42.27	40.41	6.36	-49.2	-61.6	3.8	8.48e-01	0	42	104	0	70	14544
2026-01-27 23:49:43.27	40.53	6.41	-49.2	-61.6	3.8	8.47e-01	0	42	104	0	70	14560
2026-01-27 23:49:44.26	40.65	6.46	-49.2	-61.5	3.8	8.47e-01	0	42	104	0	70	14461
2026-01-27 23:49:45.25	40.78	6.50	-49.2	-61.5	3.8	8.47e-01	0	42	104	0	70	14528
2026-01-27 23:49:46.25	40.90	6.55	-49.2	-61.5	3.8	8.46e-01	0	42	104	0	70	14454
2026-01-27 23:49:47.24	41.03	6.60	-49.2	-61.5	3.8	8.48e-01	0	42	104	0	70	14446
2026-01-27 23:49:48.23	41.15	6.64	-49.2	-61.6	3.8	8.47e-01	0	42	104	0	70	14556
2026-01-27 23:49:49.23	41.27	6.69	-49.2	-61.5	3.8	8.47e-01	0	42	104	0	70	14488
2026-01-27 23:49:50.22	41.40	6.74	-49.2	-61.5	3.8	8.46e-01	0	42	104	0	70	14517
2026-01-27 23:49:51.21	41.52	6.78	-49.2	-61.6	3.8	8.47e-01	0	42	104	0	70	14542
2026-01-27 23:49:52.20	41.65	6.83	-49.2	-61.5	3.8	8.48e-01	0	42	104	0	70	14490
2026-01-27 23:49:53.20	41.78	6.88	-49.2	-61.5	3.8	8.47e-01	0	43	104	0	70	14516
2026-01-27 23:49:54.19	41.90	6.92	-49.2	-61.5	3.8	8.46e-01	0	42	104	0	70	14487
2026-01-27 23:49:55.18	42.03	6.97	-49.2	-61.5	3.8	8.47e-01	0	43	104	0	70	14467
2026-01-27 23:49:56.18	42.16	7.02	-49.2	-61.5	3.8	8.47e-01	0	42	104	0	70	14454
2026-01-27 23:49:57.17	42.28	7.06	-49.2	-61.5	3.8	8.48e-01	0	42	104	0	70	14469
2026-01-27 23:49:58.16	42.41	7.11	-49.2	-61.5	3.8	8.47e-01	0	43	104	0	70	14453
2026-01-27 23:49:59.16	42.54	7.16	-49.2	-61.5	3.8	8.47e-01	0	42	104	0	70	14472
2026-01-27 23:50:00.15	42.67	7.20	-49.2	-61.5	3.8	8.47e-01	0	42	104	0	70	14524
2026-01-27 23:50:01.14	42.80	7.25	-49.2	-61.5	3.8	8.48e-01	0	43	104	0	70	14438
2026-01-27 23:50:02.13	42.93	7.29	-49.2	-61.5	3.8	8.47e-01	0	43	104	0	70	14414
2026-01-27 23:50:03.12	43.06	7.34	-49.2	-61.5	3.8	8.46e-01	0	43	104	0	70	14383
2026-01-27 23:50:04.12	43.19	7.39	-49.2	-61.4	3.8	8.45e-01	0	43	104	0	70	14296
2026-01-27 23:50:05.11	43.32	7.43	-49.2	-61.3	3.8	8.47e-01	0	43	104	0	70	14187
2026-01-27 23:50:06.10	43.45	7.48	-49.2	-61.3	3.8	8.47e-01	0	43	104	0	70	14151
2026-01-27 23:50:07.10	43.58	7.53	-49.2	-61.3	3.8	8.47e-01	0	43	104	0	70	14073
2026-01-27 23:50:08.09	43.71	7.57	-49.2	-61.2	3.8	8.48e-01	0	43	104	0	70	13968
2026-01-27 23:50:09.08	43.85	7.62	-49.2	-61.0	3.8	8.46e-01	0	43	104	0	70	13705
2026-01-27 23:50:10.07	43.98	7.66	-49.2	-61.0	3.8	8.48e-01	0	43	104	0	70	13614
2026-01-27 23:50:11.07	44.11	7.71	-49.2	-61.0	3.8	8.47e-01	0	43	104	0	70	13605
2026-01-27 23:50:12.06	44.25	7.76	-49.2	-61.0	3.8	8.47e-01	0	43	104	0	70	13594
2026-01-27 23:50:13.05	44.38	7.80	-49.2	-61.1	3.8	8.46e-01	0	43	104	0	70	13790
2026-01-27 23:50:14.05	44.51	7.85	-49.2	-61.3	3.8	8.47e-01	0	43	104	0	70	14069
2026-01-27 23:50:15.04	44.65	7.89	-49.2	-61.4	3.8	8.48e-01	0	43	104	0	70	14227
2026-01-27 23:50:16.03	44.78	7.94	-49.2	-61.5	3.8	8.48e-01	0	43	104	0	70	14406
2026-01-27 23:50:17.03	44.92	7.98	-49.2	-61.5	3.8	8.47e-01	0	43	104	0	70	14510
2026-01-27 23:50:18.02	45.06	8.03	-49.2	-61.5	3.8	8.47e-01	0	43	104	0	70	14446
2026-01-27 23:50:19.01	45.19	8.08	-49.2	-61.5	3.8	8.47e-01	0	43	104	0	70	14412
2026-01-27 23:50:20.00	45.33	8.12	-49.2	-61.4	3.8	8.47e-01	0	43	104	0	70	14273
2026-01-27 23:50:21.00	45.47	8.17	-49.2	-61.2	3.8	8.47e-01	0	43	104	0	70	14009
2026-01-27 23:50:21.99	45.60	8.21	-49.2	-61.1	3.8	8.46e-01	0	43	104	0	70	13736
2026-01-27 23:50:22.98	45.74	8.26	-49.1	-60.9	3.8	8.46e-01	0	43	104	0	70	13528
2026-01-27 23:50:23.98	45.88	8.30	-49.1	-60.9	3.8	8.47e-01	0	43	104	0	70	13548
2026-01-27 23:50:24.97	46.02	8.35	-49.2	-61.1	3.8	8.46e-01	0	43	104	0	70	13797
2026-01-27 23:50:25.96	46.16	8.39	-49.2	-61.2	3.8	8.47e-01	0	43	104	0	70	14014
2026-01-27 23:50:26.96	46.30	8.44	-49.2	-61.4	3.8	8.48e-01	0	43	104	0	70	14277
2026-01-27 23:50:27.95	46.44	8.48	-49.2	-61.5	3.8	8.48e-01	0	43	104	0	70	14378
2026-01-27 23:50:28.94	46.58	8.53	-49.2	-61.5	3.8	8.47e-01	0	43	104	0	70	14394
2026-01-27 23:50:29.93	46.72	8.57	-49.2	-61.5	3.8	8.46e-01	0	43	104	0	70	14399
2026-01-27 23:50:30.93	46.86	8.62	-49.2	-61.5	3.8	8.47e-01	0	43	104	0	70	14403
2026-01-27 23:50:31.92	47.01	8.66	-49.2	-61.5	3.8	8.47e-01	0	43	104	0	70	14532
2026-01-27 23:50:32.91	47.15	8.71	-49.2	-61.5	3.8	8.46e-01	0	43	104	0	70	14514
2026-01-27 23:50:33.91	47.29	8.75	-49.2	-61.5	3.8	8.47e-01	0	43	104	0	70	14410
2026-01-27 23:50:34.90	47.43	8.80	-49.2	-61.3	3.8	8.46e-01	0	43	104	0	70	14142
2026-01-27 23:50:35.89	47.58	8.84	-49.1	-61.1	3.8	8.48e-01	0	43	104	0	70	13731
2026-01-27 23:50:36.88	47.72	8.88	-49.1	-60.5	3.8	8.46e-01	0	43	104	0	70	12914
2026-01-27 23:50:37.88	47.87	8.93	-48.9	-59.1	3.8	8.46e-01	0	43	104	0	69	11669
2026-01-27 23:50:38.87	48.01	8.97	-48.4	-56.4	4.8	8.30e-01	0	43	0	0	68	9010
2026-01-27 23:50:39.86	48.16	9.02	-47.5	-53.4	6.7	4.72e-01	0	43	0	2097152	67	6751
2026-01-27 23:50:40.86	48.30	9.06	-46.2	-50.4	9.6	3.38e-02	0	43	0	7340032	64	5716
2026-01-27 23:50:41.85	48.45	9.10	-49.2	-61.3	3.8	5.28e-01	0	43	104	11534336	68	15871
2026-01-27 23:50:42.84	48.59	9.15	-45.2	-48.7	11.3	4.73e-01	0	43	104	11534336	62	5237
2026-01-27 23:50:43.83	48.74	9.19	-47.6	-53.5	6.8	2.33e-02	0	43	0	16777216	65	7631
2026-01-27 23:50:44.83	48.89	9.24	-42.1	-44.4	15.8	2.05e-05	0	43	0	22020096	56	4534
2026-01-27 23:50:45.82	49.04	9.28	-41.1	-43.3	16.9	0.00e+00	0	43	0	27262976	53	4712
2026-01-27 23:50:46.81	49.19	9.32	-40.4	-42.4	17.7	0.00e+00	0	43	0	32505856	52	4536
2026-01-27 23:50:47.80	49.33	9.37	-40.0	-42.0	18.1	0.00e+00	0	43	0	38797312	52	4308
2026-01-27 23:50:48.80	49.48	9.41	-40.0	-42.1	18.1	0.00e+00	0	43	0	44040192	52	4341
2026-01-27 23:50:49.79	49.63	9.45	-40.1	-42.1	18.1	0.00e+00	0	43	0	49283072	51	4606
2026-01-27 23:50:50.78	49.78	9.50	-39.7	-41.7	18.5	0.00e+00	0	43	0	55574528	51	4413
2026-01-27 23:50:51.78	49.93	9.54	-39.8	-41.7	18.5	0.00e+00	0	43	0	60817408	51	4424
2026-01-27 23:50:52.77	50.08	9.58	-39.8	-41.8	18.4	0.00e+00	0	43	0	66060288	51	4468
2026-01-27 23:50:53.76	50.24	9.63	-39.6	-41.6	18.6	0.00e+00	0	43	0	72351744	51	4345
2026-01-27 23:50:54.75	50.39	9.67	-39.6	-41.5	18.7	0.00e+00	0	43	0	77594624	51	4334
2026-01-27 23:50:55.75	50.54	9.71	-39.6	-41.5	18.7	0.00e+00	0	43	0	82837504	51	4327
2026-01-27 23:50:56.74	50.69	9.75	-39.5	-41.4	18.8	0.00e+00	0	43	0	89128960	50	4501
2026-01-27 23:50:57.73	50.85	9.80	-39.6	-41.5	18.7	0.00e+00	0	43	0	94371840	50	4553
2026-01-27 23:50:58.72	51.00	9.84	-39.4	-41.4	18.6	0.00e+00	0	43	0	99614720	50	4525
2026-01-27 23:50:59.72	51.15	9.88	-39.4	-41.3	18.6	0.00e+00	0	43	0	105906176	50	4485
2026-01-27 23:51:00.71	51.31	9.92	-39.6	-41.6	18.5	0.00e+00	0	43	0	111149056	50	4601
2026-01-27 23:51:01.70	51.46	9.96	-39.4	-41.4	18.6	0.00e+00	0	43	0	116391936	50	4507
2026-01-27 23:51:02.70	51.62	10.01	-39.3	-41.3	18.7	0.00e+00	0	43	0	122683392	50	4482
2026-01-27 23:51:03.69	51.77	10.05	-39.3	-41.3	18.7	0.00e+00	0	43	0	127926272	50	4461
2026-01-27 23:51:04.68	51.93	10.09	-39.4	-41.4	18.6	0.00e+00	0	43	0	133169152	50	4512
2026-01-27 23:51:05.68	52.09	10.13	-39.3	-41.3	18.8	0.00e+00	0	43	0	139460608	50	4447
2026-01-27 23:51:06.67	52.24	10.17	-39.3	-41.3	18.7	0.00e+00	0	44	0	144703488	50	4473
2026-01-27 23:51:07.66	52.40	10.21	-39.3	-41.2	18.8	0.00e+00	0	43	0	149946368	50	4438
2026-01-27 23:51:08.65	52.56	10.26	-39.5	-41.5	18.6	0.00e+00	0	43	0	156237824	50	4556
2026-01-27 23:51:09.65	52.72	10.30	-39.4	-41.4	18.6	0.00e+00	0	43	0	161480704	50	4522
2026-01-27 23:51:10.64	52.88	10.34	-39.2	-41.2	18.8	0.00e+00	0	43	0	166723584	50	4432
2026-01-27 23:51:11.63	53.03	10.38	-39.3	-41.3	18.7	0.00e+00	0	43	0	173015040	50	4482
2026-01-27 23:51:12.63	53.19	10.42	-39.5	-41.5	18.5	0.00e+00	0	43	0	178257920	50	4556
2026-01-27 23:51:13.62	53.35	10.46	-39.3	-41.3	18.7	0.00e+00	0	43	0	183500800	50	4460
2026-01-27 23:51:14.61	53.51	10.50	-39.3	-41.3	18.7	0.00e+00	0	43	0	188743680	50	4484
2026-01-27 23:51:15.61	53.68	10.54	-39.4	-41.4	18.6	0.00e+00	0	43	0	195035136	50	4514
2026-01-27 23:51:16.60	53.84	10.58	-39.5	-41.5	18.5	0.00e+00	0	43	0	200278016	50	4584
2026-01-27 23:51:17.59	54.00	10.62	-39.4	-41.4	18.6	0.00e+00	0	43	0	206569472	50	4529
2026-01-27 23:51:18.58	54.16	10.66	-39.4	-41.4	18.6	0.00e+00	0	43	0	211812352	50	4522
2026-01-27 23:51:19.58	54.32	10.70	-39.5	-41.5	18.6	0.00e+00	0	43	0	217055232	50	4570
2026-01-27 23:51:20.57	54.49	10.74	-39.6	-41.7	18.4	0.00e+00	0	43	0	223346688	50	4659
2026-01-27 23:51:21.56	54.65	10.78	-39.4	-41.4	18.7	0.00e+00	0	43	0	228589568	50	4503
2026-01-27 23:51:22.55	54.81	10.82	-39.3	-41.3	18.8	0.00e+00	0	43	0	233832448	50	4462
2026-01-27 23:51:23.55	54.98	10.86	-39.3	-41.3	18.7	0.00e+00	0	43	0	240123904	50	4488
2026-01-27 23:51:24.54	55.14	10.90	-39.2	-41.3	18.8	0.00e+00	0	43	0	245366784	50	4445
2026-01-27 23:51:25.53	55.31	10.94	-39.3	-41.3	18.8	0.00e+00	0	43	0	250609664	50	4480
2026-01-27 23:51:26.53	55.47	10.98	-39.1	-41.1	18.9	0.00e+00	0	43	0	256901120	50	4364
2026-01-27 23:51:27.52	55.64	11.02	-39.0	-41.0	19.0	0.00e+00	0	43	0	262144000	50	4314
2026-01-27 23:51:28.51	55.81	11.05	-39.0	-40.9	19.1	0.00e+00	0	43	0	267386880	49	4528
2026-01-27 23:51:29.50	55.97	11.09	-38.7	-40.7	19.3	0.00e+00	0	44	0	272629760	49	4393
2026-01-27 23:51:30.50	56.14	11.13	-38.9	-40.8	19.2	0.00e+00	0	43	0	278921216	49	4477
2026-01-27 23:51:31.49	56.31	11.17	-39.0	-41.0	19.1	0.00e+00	0	43	0	284164096	49	4546
2026-01-27 23:51:32.48	56.48	11.21	-38.9	-40.9	19.2	0.00e+00	0	43	0	290455552	49	4509
2026-01-27 23:51:33.48	56.65	11.24	-38.9	-40.8	19.2	0.00e+00	0	43	0	295698432	49	4483
2026-01-27 23:51:34.47	56.81	11.28	-39.0	-41.0	19.1	0.00e+00	0	43	0	300941312	49	4548
2026-01-27 23:51:35.46	56.98	11.32	-39.0	-41.0	19.1	0.00e+00	0	43	0	306184192	49	4567
2026-01-27 23:51:36.46	57.15	11.36	-39.1	-41.1	19.0	0.00e+00	0	43	0	312475648	49	4601
2026-01-27 23:51:37.45	57.32	11.39	-39.0	-41.0	19.1	0.00e+00	0	43	0	317718528	49	4558
2026-01-27 23:51:38.44	57.49	11.43	-38.9	-40.9	19.2	0.00e+00	0	43	0	322961408	49	4514
2026-01-27 23:51:39.43	57.67	11.47	-39.0	-41.0	19.1	0.00e+00	0	43	0	329252864	49	4551
2026-01-27 23:51:40.43	57.84	11.50	-39.0	-40.9	19.2	0.00e+00	0	43	0	334495744	49	4509
2026-01-27 23:51:41.42	58.01	11.54	-38.9	-40.9	19.2	0.00e+00	0	44	0	340787200	49	4503
2026-01-27 23:51:42.41	58.18	11.58	-38.7	-40.6	19.4	0.00e+00	0	43	0	346030080	49	4390
2026-01-27 23:51:43.40	58.35	11.61	-38.6	-40.5	19.6	0.00e+00	0	44	0	351272960	49	4313
2026-01-27 23:51:44.40	58.53	11.65	-38.7	-40.6	19.5	0.00e+00	0	44	0	356515840	49	4376
2026-01-27 23:51:45.39	58.70	11.68	-38.7	-40.6	19.5	0.00e+00	0	44	0	362807296	49	4357
2026-01-27 23:51:46.38	58.88	11.72	-38.9	-40.8	19.3	0.00e+00	0	43	0	368050176	49	4458
2026-01-27 23:51:47.38	59.05	11.75	-38.8	-40.7	19.4	0.00e+00	0	43	0	373293056	49	4432
2026-01-27 23:51:48.37	59.23	11.79	-39.0	-40.9	19.2	0.00e+00	0	43	0	379584512	49	4518
2026-01-27 23:51:49.36	59.40	11.82	-38.9	-40.8	19.3	0.00e+00	0	43	0	384827392	49	4490
2026-01-27 23:51:50.35	59.58	11.86	-38.8	-40.7	19.4	0.00e+00	0	44	0	390070272	49	4423
2026-01-27 23:51:51.35	59.75	11.89	-39.0	-41.0	19.2	0.00e+00	0	43	0	396361728	49	4547
2026-01-27 23:51:52.34	59.93	11.93	-39.0	-40.9	19.2	0.00e+00	0	44	0	401604608	49	4529
2026-01-27 23:51:53.33	60.11	11.96	-38.7	-40.6	19.5	0.00e+00	0	44	0	406847488	49	4385
2026-01-27 23:51:54.33	60.28	12.00	-38.7	-40.6	19.5	0.00e+00	0	43	0	413138944	49	4383
2026-01-27 23:51:55.32	60.46	12.03	-38.6	-40.5	19.6	0.00e+00	0	44	0	418381824	49	4334
2026-01-27 23:51:56.31	60.64	12.06	-38.5	-40.4	19.7	0.00e+00	0	44	0	423624704	49	4287
2026-01-27 23:51:57.31	60.82	12.10	-38.7	-40.6	19.5	0.00e+00	0	43	0	429916160	49	4355
2026-01-27 23:51:58.30	61.00	12.13	-38.6	-40.5	19.6	0.00e+00	0	43	0	435159040	49	4314
2026-01-27 23:51:59.29	61.18	12.16	-38.5	-40.5	19.6	0.00e+00	0	43	0	440401920	49	4301
2026-01-27 23:52:00.28	61.35	12.20	-38.6	-40.6	19.5	0.00e+00	0	43	0	446693376	49	4350
2026-01-27 23:52:01.28	61.54	12.23	-38.7	-40.6	19.5	0.00e+00	0	44	0	451936256	49	4384
2026-01-27 23:52:02.27	61.72	12.26	-38.8	-40.7	19.4	0.00e+00	0	44	0	457179136	49	4434
2026-01-27 23:52:03.26	61.90	12.29	-38.8	-40.7	19.4	0.00e+00	0	44	0	462422016	49	4419
2026-01-27 23:52:04.26	62.08	12.33	-38.8	-40.8	19.3	0.00e+00	0	44	0	468713472	49	4449
2026-01-27 23:52:05.25	62.26	12.36	-38.7	-40.6	19.5	0.00e+00	0	43	0	473956352	49	4369
2026-01-27 23:52:06.24	62.44	12.39	-38.6	-40.6	19.5	0.00e+00	0	43	0	480247808	49	4345
2026-01-27 23:52:07.23	62.62	12.42	-38.7	-40.6	19.5	0.00e+00	0	43	0	485490688	49	4365
2026-01-27 23:52:08.23	62.81	12.45	-38.7	-40.6	19.4	0.00e+00	0	44	0	490733568	49	4379
2026-01-27 23:52:09.22	62.99	12.48	-38.7	-40.6	19.4	0.00e+00	0	43	0	497025024	49	4386
2026-01-27 23:52:10.21	63.17	12.51	-38.7	-40.6	19.5	0.00e+00	0	43	0	502267904	49	4368
2026-01-27 23:52:11.21	63.36	12.54	-38.8	-40.7	19.4	0.00e+00	0	43	0	507510784	49	4426
2026-01-27 23:52:12.20	63.54	12.57	-38.7	-40.6	19.4	0.00e+00	0	43	0	512753664	49	4391
2026-01-27 23:52:13.19	63.73	12.60	-38.7	-40.6	19.5	0.00e+00	0	43	0	519045120	49	4373
2026-01-27 23:52:14.19	63.91	12.63	-38.6	-40.5	19.5	0.00e+00	0	44	0	524288000	49	4327
2026-01-27 23:52:15.18	64.10	12.66	-38.7	-40.6	19.5	0.00e+00	0	44	0	530579456	49	4361
2026-01-27 23:52:16.17	64.28	12.69	-38.6	-40.5	19.6	0.00e+00	0	44	0	535822336	49	4317
2026-01-27 23:52:17.17	64.47	12.72	-38.6	-40.5	19.6	0.00e+00	0	43	0	541065216	49	4299
2026-01-27 23:52:18.16	64.66	12.75	-38.5	-40.4	19.7	0.00e+00	0	43	0	546308096	48	4497
2026-01-27 23:52:19.15	64.84	12.78	-38.5	-40.5	19.7	0.00e+00	0	44	0	552599552	48	4546
2026-01-27 23:52:20.14	65.03	12.81	-38.5	-40.4	19.7	0.00e+00	0	43	0	557842432	48	4525
2026-01-27 23:52:21.14	65.22	12.83	-38.5	-40.4	19.7	0.00e+00	0	43	0	563085312	48	4533
2026-01-27 23:52:22.13	65.41	12.86	-38.5	-40.4	19.8	0.00e+00	0	44	0	569376768	48	4499
2026-01-27 23:52:23.12	65.59	12.89	-38.4	-40.3	19.8	0.00e+00	0	44	0	574619648	48	4456
2026-01-27 23:52:24.11	65.78	12.92	-38.4	-40.3	19.8	0.00e+00	0	44	0	579862528	48	4463
2026-01-27 23:52:25.11	65.97	12.94	-38.2	-40.0	20.1	0.00e+00	0	44	0	586153984	48	4319
2026-01-27 23:52:26.10	66.16	12.97	-38.3	-40.1	20.0	0.00e+00	0	44	0	591396864	48	4365
2026-01-27 23:52:27.09	66.35	13.00	-38.1	-40.0	20.1	0.00e+00	0	44	0	596639744	48	4296
2026-01-27 23:52:28.09	66.54	13.02	-38.2	-40.1	20.0	0.00e+00	0	43	0	602931200	48	4359
2026-01-27 23:52:29.08	66.73	13.05	-38.2	-40.0	20.1	0.00e+00	0	44	0	608174080	48	4336
2026-01-27 23:52:30.07	66.92	13.07	-38.3	-40.2	19.9	0.00e+00	0	44	0	614465536	48	4417
2026-01-27 23:52:31.07	67.11	13.10	-38.3	-40.2	19.9	0.00e+00	0	44	0	619708416	48	4395
2026-01-27 23:52:32.06	67.30	13.13	-38.1	-39.9	20.1	0.00e+00	0	44	0	624951296	48	4286
2026-01-27 23:52:33.05	67.50	13.15	-38.1	-39.9	20.1	0.00e+00	0	43	0	630194176	48	4273
2026-01-27 23:52:34.04	67.69	13.18	-38.1	-39.9	20.1	0.00e+00	0	44	0	636485632	48	4288
2026-01-27 23:52:35.04	67.88	13.20	-38.1	-40.0	20.1	0.00e+00	0	43	0	641728512	48	4314
2026-01-27 23:52:36.03	68.07	13.22	-37.9	-39.7	20.1	0.00e+00	0	44	0	646971392	47	4441
2026-01-27 23:52:37.02	68.26	13.25	-38.1	-40.0	19.9	0.00e+00	0	44	0	653262848	47	4551
2026-01-27 23:52:38.02	68.46	13.27	-37.9	-39.8	20.1	0.00e+00	0	43	0	658505728	47	4442
2026-01-27 23:52:39.01	68.65	13.29	-37.8	-39.7	20.1	0.00e+00	0	44	0	663748608	47	4412
2026-01-27 23:52:40.00	68.84	13.32	-38.0	-39.8	20.0	0.00e+00	0	44	0	670040064	47	4488
2026-01-27 23:52:41.00	69.04	13.34	-38.0	-39.9	19.9	0.00e+00	0	43	0	675282944	47	4516
2026-01-27 23:52:41.99	69.23	13.36	-38.0	-39.9	20.0	0.00e+00	0	44	0	680525824	47	4517
2026-01-27 23:52:42.98	69.43	13.39	-38.1	-39.9	19.9	0.00e+00	0	44	0	686817280	47	4544
2026-01-27 23:52:43.97	69.62	13.41	-38.0	-39.9	19.9	0.00e+00	0	44	0	692060160	47	4542
2026-01-27 23:52:44.97	69.82	13.43	-38.2	-40.1	19.8	0.00e+00	0	44	0	697303040	47	4623
2026-01-27 23:52:45.96	70.01	13.45	-38.0	-39.9	19.9	0.00e+00	0	44	0	703594496	47	4531
2026-01-27 23:52:46.95	70.21	13.47	-38.1	-40.0	19.8	0.00e+00	0	43	0	708837376	47	4585
2026-01-27 23:52:47.95	70.41	13.49	-38.2	-40.2	19.7	0.00e+00	0	43	0	714080256	47	4657
2026-01-27 23:52:48.94	70.60	13.51	-38.3	-40.3	19.6	0.00e+00	0	44	0	720371712	47	4727
2026-01-27 23:52:49.93	70.80	13.53	-38.5	-40.4	19.4	0.00e+00	0	43	0	725614592	47	4813
2026-01-27 23:52:50.93	71.00	13.55	-38.4	-40.4	19.5	0.00e+00	0	44	0	730857472	47	4763
2026-01-27 23:52:51.92	71.19	13.57	-38.5	-40.4	19.5	0.00e+00	0	43	0	737148928	47	4792
2026-01-27 23:52:52.91	71.39	13.59	-38.3	-40.2	19.6	0.00e+00	0	43	0	742391808	47	4686
2026-01-27 23:52:53.90	71.59	13.61	-38.1	-40.0	19.8	0.00e+00	0	44	0	747634688	47	4598
2026-01-27 23:52:54.90	71.79	13.63	-38.0	-39.9	20.0	0.00e+00	0	44	0	753926144	47	4523
2026-01-27 23:52:55.89	71.98	13.65	-37.9	-39.8	20.0	0.00e+00	0	43	0	759169024	47	4467
2026-01-27 23:52:56.88	72.18	13.67	-38.0	-39.9	20.0	0.00e+00	0	44	0	764411904	47	4496
2026-01-27 23:52:57.88	72.38	13.68	-38.1	-40.0	19.9	0.00e+00	0	44	0	770703360	47	4552
2026-01-27 23:52:58.87	72.58	13.70	-38.0	-39.9	19.9	0.00e+00	0	44	0	775946240	47	4541
2026-01-27 23:52:59.86	72.78	13.72	-38.1	-40.1	19.8	0.00e+00	0	44	0	781189120	47	4609
2026-01-27 23:53:00.85	72.98	13.74	-38.1	-40.0	19.8	0.00e+00	0	44	0	786432000	47	4593
2026-01-27 23:53:01.85	73.18	13.75	-38.2	-40.1	19.8	0.00e+00	0	44	0	792723456	47	4625
2026-01-27 23:53:02.84	73.38	13.77	-38.1	-40.0	19.9	0.00e+00	0	44	0	797966336	47	4570
2026-01-27 23:53:03.83	73.58	13.78	-38.1	-40.0	19.9	0.00e+00	0	44	0	804257792	47	4559
2026-01-27 23:53:04.83	73.78	13.80	-38.0	-39.9	20.0	0.00e+00	0	44	0	809500672	47	4514
2026-01-27 23:53:05.82	73.98	13.82	-37.9	-39.9	20.0	0.00e+00	0	44	0	814743552	47	4497
2026-01-27 23:53:06.81	74.18	13.83	-38.1	-40.0	19.9	0.00e+00	0	44	0	819986432	47	4561
2026-01-27 23:53:07.80	74.38	13.85	-38.1	-40.0	19.8	0.00e+00	0	44	0	826277888	47	4588
2026-01-27 23:53:08.80	74.58	13.86	-38.1	-40.0	19.9	0.00e+00	0	44	0	831520768	47	4561
2026-01-27 23:53:09.79	74.78	13.87	-38.0	-39.9	20.0	0.00e+00	0	44	0	836763648	47	4503
2026-01-27 23:53:10.78	74.98	13.89	-37.8	-39.6	20.2	0.00e+00	0	43	0	843055104	47	4388
2026-01-27 23:53:11.77	75.18	13.90	-37.7	-39.6	20.3	0.00e+00	0	44	0	848297984	47	4352
2026-01-27 23:53:12.77	75.39	13.91	-37.8	-39.6	20.2	0.00e+00	0	44	0	854589440	47	4382
2026-01-27 23:53:13.76	75.59	13.93	-37.8	-39.7	20.2	0.00e+00	0	44	0	859832320	47	4393
2026-01-27 23:53:14.75	75.79	13.94	-37.9	-39.7	20.1	0.00e+00	0	44	0	865075200	47	4435
2026-01-27 23:53:15.75	75.99	13.95	-37.8	-39.7	20.1	0.00e+00	0	44	0	870318080	47	4417
2026-01-27 23:53:16.74	76.19	13.96	-37.9	-39.8	20.0	0.00e+00	0	44	0	876609536	47	4451
2026-01-27 23:53:17.73	76.40	13.98	-37.8	-39.7	20.1	0.00e+00	0	44	0	881852416	47	4433
2026-01-27 23:53:18.72	76.60	13.99	-38.0	-39.9	20.0	0.00e+00	0	44	0	887095296	47	4504
2026-01-27 23:53:19.72	76.80	14.00	-37.9	-39.8	20.1	0.00e+00	0	44	0	893386752	47	4455
2026-01-27 23:53:20.71	77.01	14.01	-37.9	-39.8	20.1	0.00e+00	0	44	0	898629632	47	4473
2026-01-27 23:53:21.70	77.21	14.02	-37.9	-39.8	20.1	0.00e+00	0	44	0	903872512	47	4446
2026-01-27 23:53:22.70	77.41	14.03	-37.9	-39.8	20.1	0.00e+00	0	44	0	910163968	47	4465
2026-01-27 23:53:23.69	77.62	14.04	-38.0	-39.9	20.0	0.00e+00	0	44	0	915406848	47	4496
2026-01-27 23:53:24.68	77.82	14.05	-37.9	-39.8	20.1	0.00e+00	0	44	0	920649728	47	4453
2026-01-27 23:53:25.68	78.02	14.06	-37.9	-39.8	20.0	0.00e+00	0	44	0	926941184	47	4467
2026-01-27 23:53:26.67	78.23	14.07	-37.9	-39.8	20.1	0.00e+00	0	44	0	932184064	47	4467
2026-01-27 23:53:27.66	78.43	14.07	-38.0	-39.9	19.9	0.00e+00	0	44	0	937426944	47	4530
2026-01-27 23:53:28.66	78.64	14.08	-38.0	-39.9	19.9	0.00e+00	0	44	0	943718400	47	4527
2026-01-27 23:53:29.65	78.84	14.09	-38.0	-40.0	19.9	0.00e+00	0	44	0	948961280	47	4549
2026-01-27 23:53:30.64	79.04	14.10	-38.1	-40.0	19.9	0.00e+00	0	44	0	954204160	47	4559
2026-01-27 23:53:31.63	79.25	14.10	-38.0	-39.9	19.9	0.00e+00	0	44	0	960495616	47	4521
2026-01-27 23:53:32.62	79.45	14.11	-37.9	-39.8	20.0	0.00e+00	0	44	0	965738496	47	4491
2026-01-27 23:53:33.62	79.66	14.12	-37.9	-39.8	20.0	0.00e+00	0	44	0	970981376	47	4482
2026-01-27 23:53:34.61	79.86	14.12	-37.9	-39.8	20.1	0.00e+00	0	44	0	977272832	47	4484
2026-01-27 23:53:35.60	80.07	14.13	-37.9	-39.8	20.0	0.00e+00	0	44	0	982515712	47	4483
2026-01-27 23:53:36.60	80.27	14.13	-38.0	-39.9	20.0	0.00e+00	0	43	0	987758592	47	4518
2026-01-27 23:53:37.59	80.48	14.14	-37.9	-39.8	20.1	0.00e+00	0	44	0	994050048	47	4467
2026-01-27 23:53:38.58	80.68	14.14	-37.9	-39.8	20.1	0.00e+00	0	44	0	999292928	47	4453
2026-01-27 23:53:39.58	80.89	14.15	-37.9	-39.8	20.1	0.00e+00	0	44	0	1004535808	47	4451
2026-01-27 23:53:40.57	81.09	14.15	-37.8	-39.7	20.1	0.00e+00	0	44	0	1010827264	47	4419
2026-01-27 23:53:41.56	81.30	14.15	-37.9	-39.8	20.1	0.00e+00	0	44	0	1016070144	47	4457
2026-01-27 23:53:42.56	81.50	14.16	-37.9	-39.8	20.1	0.00e+00	0	44	0	1021313024	47	4465
2026-01-27 23:53:43.55	81.71	14.16	-37.9	-39.9	20.0	0.00e+00	0	44	0	1027604480	47	4494
2026-01-27 23:53:44.54	81.91	14.16	-38.0	-39.9	20.0	0.00e+00	0	44	0	1032847360	47	4513
2026-01-27 23:53:45.53	82.12	14.17	-38.1	-40.0	19.8	0.00e+00	0	44	0	1038090240	47	4591
2026-01-27 23:53:46.53	82.32	14.17	-37.9	-39.8	20.1	0.00e+00	0	44	0	1044381696	47	4454
2026-01-27 23:53:47.52	82.53	14.17	-38.0	-39.9	20.0	0.00e+00	0	44	0	1049624576	47	4495
2026-01-27 23:53:48.51	82.73	14.17	-38.1	-40.0	19.9	0.00e+00	0	43	0	1054867456	47	4556
2026-01-27 23:53:49.51	82.94	14.17	-37.9	-39.8	20.0	0.00e+00	0	44	0	1060110336	47	4485
2026-01-27 23:53:50.50	83.14	14.17	-38.0	-39.9	20.0	0.00e+00	0	44	0	1066401792	47	4521
2026-01-27 23:53:51.49	83.35	14.17	-38.0	-39.9	19.9	0.00e+00	0	44	0	1071644672	47	4509
2026-01-27 23:53:52.48	83.55	14.17	-38.0	-40.0	19.9	0.00e+00	0	43	0	1077936128	47	4557
2026-01-27 23:53:53.48	83.76	14.17	-38.1	-40.0	19.8	0.00e+00	0	44	0	1083179008	47	4588
2026-01-27 23:53:54.47	83.97	14.17	-38.0	-40.0	19.9	0.00e+00	0	44	0	1088421888	47	4552
2026-01-27 23:53:55.46	84.17	14.17	-38.1	-40.0	19.8	0.00e+00	0	44	0	1093664768	47	4594
2026-01-27 23:53:56.46	84.38	14.17	-38.1	-40.1	19.7	0.00e+00	0	44	0	1099956224	47	4634
2026-01-27 23:53:57.45	84.58	14.17	-37.9	-39.9	19.9	0.00e+00	0	44	0	1105199104	47	4511
2026-01-27 23:53:58.44	84.79	14.16	-37.8	-39.7	20.1	0.00e+00	0	44	0	1110441984	47	4436
2026-01-27 23:53:59.44	84.99	14.16	-37.8	-39.7	20.1	0.00e+00	0	44	0	1116733440	47	4416
2026-01-27 23:54:00.43	85.20	14.16	-37.9	-39.8	20.0	0.00e+00	0	44	0	1121976320	47	4489
2026-01-27 23:54:01.42	85.40	14.16	-37.9	-39.8	20.0	0.00e+00	0	44	0	1128267776	47	4492
2026-01-27 23:54:02.42	85.61	14.15	-37.9	-39.9	20.0	0.00e+00	0	44	0	1133510656	47	4505
2026-01-27 23:54:03.41	85.82	14.15	-37.9	-39.9	20.0	0.00e+00	0	44	0	1138753536	47	4498
2026-01-27 23:54:04.40	86.02	14.14	-37.9	-39.8	20.0	0.00e+00	0	43	0	1143996416	47	4489
2026-01-27 23:54:05.39	86.22	14.14	-37.9	-39.8	20.0	0.00e+00	0	44	0	1150287872	47	4454
2026-01-27 23:54:06.39	86.43	14.13	-38.1	-40.0	19.9	0.00e+00	0	44	0	1155530752	47	4567
2026-01-27 23:54:07.38	86.63	14.13	-38.1	-40.0	19.8	0.00e+00	0	44	0	1160773632	47	4586
2026-01-27 23:54:08.37	86.84	14.12	-38.1	-40.0	19.9	0.00e+00	0	44	0	1167065088	47	4586
2026-01-27 23:54:09.37	87.05	14.12	-38.2	-40.1	19.7	0.00e+00	0	44	0	1172307968	47	4638
2026-01-27 23:54:10.36	87.25	14.11	-38.1	-40.0	19.8	0.00e+00	0	44	0	1177550848	47	4584
2026-01-27 23:54:11.35	87.45	14.10	-38.0	-40.0	19.9	0.00e+00	0	44	0	1183842304	47	4568
2026-01-27 23:54:12.35	87.66	14.10	-38.1	-40.1	19.8	0.00e+00	0	44	0	1189085184	47	4602
2026-01-27 23:54:13.34	87.86	14.09	-38.0	-40.0	19.9	0.00e+00	0	44	0	1194328064	47	4553
2026-01-27 23:54:14.33	88.07	14.08	-38.0	-39.9	19.9	0.00e+00	0	44	0	1200619520	47	4544
2026-01-27 23:54:15.32	88.27	14.08	-38.2	-40.1	19.8	0.00e+00	0	44	0	1205862400	47	4618
2026-01-27 23:54:16.32	88.48	14.07	-38.1	-40.0	19.8	0.00e+00	0	44	0	1211105280	47	4586
2026-01-27 23:54:17.31	88.68	14.06	-38.1	-40.0	19.8	0.00e+00	0	44	0	1217396736	47	4594
2026-01-27 23:54:18.30	88.88	14.05	-38.0	-39.9	19.9	0.00e+00	0	44	0	1222639616	47	4522
2026-01-27 23:54:19.30	89.09	14.04	-38.1	-40.0	19.8	0.00e+00	0	44	0	1227882496	47	4566
2026-01-27 23:54:20.29	89.29	14.03	-37.9	-39.8	20.0	0.00e+00	0	44	0	1234173952	47	4474
2026-01-27 23:54:21.28	89.50	14.02	-38.1	-40.0	19.9	0.00e+00	0	44	0	1239416832	47	4550
2026-01-27 23:54:22.28	89.70	14.01	-38.1	-40.0	19.9	0.00e+00	0	44	0	1244659712	47	4549
2026-01-27 23:54:23.27	89.90	14.00	-38.0	-39.9	19.9	0.00e+00	0	44	0	1249902592	47	4541
2026-01-27 23:54:24.26	90.11	13.99	-38.1	-40.0	19.9	0.00e+00	0	43	0	1256194048	47	4563
2026-01-27 23:54:25.25	90.31	13.98	-38.1	-40.1	19.8	0.00e+00	0	44	0	1261436928	47	4606
2026-01-27 23:54:26.25	90.51	13.97	-38.1	-40.1	19.8	0.00e+00	0	44	0	1267728384	47	4604
2026-01-27 23:54:27.24	90.71	13.95	-38.0	-39.9	19.9	0.00e+00	0	44	0	1272971264	47	4527
2026-01-27 23:54:28.23	90.92	13.94	-38.0	-39.9	20.0	0.00e+00	0	44	0	1278214144	47	4508
2026-01-27 23:54:29.23	91.12	13.93	-38.0	-39.9	19.9	0.00e+00	0	44	0	1284505600	47	4543
2026-01-27 23:54:30.22	91.32	13.92	-37.9	-39.8	20.1	0.00e+00	0	44	0	1289748480	47	4460
2026-01-27 23:54:31.21	91.52	13.90	-38.0	-39.9	20.0	0.00e+00	0	44	0	1294991360	47	4526
2026-01-27 23:54:32.20	91.73	13.89	-38.1	-40.0	19.8	0.00e+00	0	44	0	1301282816	47	4588
2026-01-27 23:54:33.20	91.93	13.88	-37.9	-39.9	20.0	0.00e+00	0	44	0	1306525696	47	4494
2026-01-27 23:54:34.19	92.13	13.86	-38.0	-39.9	19.9	0.00e+00	0	43	0	1311768576	47	4533
2026-01-27 23:54:35.18	92.33	13.85	-38.0	-39.9	19.9	0.00e+00	0	44	0	1318060032	47	4532
2026-01-27 23:54:36.18	92.53	13.83	-38.1	-40.0	19.9	0.00e+00	0	43	0	1323302912	47	4559
2026-01-27 23:54:37.17	92.73	13.82	-38.2	-40.1	19.8	0.00e+00	0	44	0	1328545792	47	4623
2026-01-27 23:54:38.16	92.93	13.80	-38.2	-40.1	19.7	0.00e+00	0	44	0	1333788672	47	4642
2026-01-27 23:54:39.16	93.14	13.79	-38.2	-40.1	19.7	0.00e+00	0	44	0	1340080128	47	4635
2026-01-27 23:54:40.15	93.34	13.77	-38.2	-40.1	19.7	0.00e+00	0	44	0	1345323008	47	4626
2026-01-27 23:54:41.14	93.54	13.75	-38.3	-40.2	19.7	0.00e+00	0	44	0	1351614464	47	4674
2026-01-27 23:54:42.14	93.74	13.74	-38.1	-40.1	19.8	0.00e+00	0	43	0	1356857344	47	4607
2026-01-27 23:54:43.13	93.94	13.72	-38.2	-40.2	19.7	0.00e+00	0	44	0	1362100224	47	4655
2026-01-27 23:54:44.12	94.13	13.70	-38.3	-40.2	19.6	0.00e+00	0	44	0	1368391680	47	4678
2026-01-27 23:54:45.11	94.33	13.69	-38.4	-40.4	19.5	0.00e+00	0	44	0	1373634560	47	4786
2026-01-27 23:54:46.11	94.53	13.67	-38.5	-40.4	19.4	0.00e+00	0	44	0	1378877440	47	4801
2026-01-27 23:54:47.10	94.73	13.65	-38.5	-40.5	19.4	0.00e+00	0	43	0	1384120320	47	4830
2026-01-27 23:54:48.09	94.93	13.63	-38.5	-40.5	19.4	0.00e+00	0	44	0	1390411776	47	4833
2026-01-27 23:54:49.09	95.13	13.61	-38.5	-40.4	19.4	0.00e+00	0	44	0	1395654656	47	4811
2026-01-27 23:54:50.08	95.33	13.59	-38.5	-40.4	19.5	0.00e+00	0	44	0	1401946112	47	4798
2026-01-27 23:54:51.07	95.52	13.57	-38.5	-40.4	19.4	0.00e+00	0	44	0	1407188992	47	4794
2026-01-27 23:54:52.06	95.72	13.55	-38.5	-40.4	19.4	0.00e+00	0	44	0	1412431872	47	4801
2026-01-27 23:54:53.06	95.92	13.53	-38.4	-40.4	19.5	0.00e+00	0	44	0	1417674752	47	4773
2026-01-27 23:54:54.05	96.12	13.51	-38.5	-40.4	19.5	0.00e+00	0	44	0	1423966208	47	4808
2026-01-27 23:54:55.04	96.31	13.49	-38.6	-40.5	19.4	0.00e+00	0	44	0	1429209088	47	4845
2026-01-27 23:54:56.03	96.51	13.47	-38.6	-40.5	19.4	0.00e+00	0	44	0	1434451968	47	4853
2026-01-27 23:54:57.03	96.71	13.45	-38.8	-40.7	19.4	0.00e+00	0	44	0	1440743424	48	4676
2026-01-27 23:54:58.02	96.90	13.43	-38.6	-40.5	19.5	0.00e+00	0	44	0	1445986304	48	4597
2026-01-27 23:54:59.01	97.10	13.41	-38.5	-40.4	19.7	0.00e+00	0	44	0	1451229184	48	4540
2026-01-27 23:55:00.01	97.30	13.39	-38.5	-40.4	19.7	0.00e+00	0	44	0	1457520640	48	4541
2026-01-27 23:55:01.00	97.49	13.36	-38.6	-40.6	19.5	0.00e+00	0	44	0	1462763520	48	4607
2026-01-27 23:55:01.99	97.68	13.34	-38.6	-40.5	19.6	0.00e+00	0	44	0	1468006400	48	4579
2026-01-27 23:55:02.99	97.88	13.32	-38.6	-40.5	19.6	0.00e+00	0	44	0	1474297856	48	4576
2026-01-27 23:55:03.98	98.07	13.30	-38.5	-40.4	19.6	0.00e+00	0	44	0	1479540736	48	4543
2026-01-27 23:55:04.97	98.27	13.27	-38.5	-40.4	19.7	0.00e+00	0	44	0	1484783616	48	4518
2026-01-27 23:55:05.96	98.46	13.25	-38.5	-40.4	19.6	0.00e+00	0	44	0	1491075072	48	4532
2026-01-27 23:55:06.96	98.66	13.22	-38.4	-40.3	19.8	0.00e+00	0	44	0	1496317952	48	4475
2026-01-27 23:55:07.95	98.85	13.20	-38.4	-40.3	19.8	0.00e+00	0	44	0	1501560832	48	4466
2026-01-27 23:55:08.94	99.04	13.18	-38.4	-40.3	19.8	0.00e+00	0	44	0	1507852288	48	4467
2026-01-27 23:55:09.94	99.23	13.15	-38.6	-40.5	19.6	0.00e+00	0	44	0	1513095168	48	4568
2026-01-27 23:55:10.93	99.43	13.13	-38.8	-40.7	19.4	0.00e+00	0	44	0	1518338048	48	4693
2026-01-27 23:55:11.92	99.62	13.10	-38.8	-40.7	19.4	0.00e+00	0	44	0	1524629504	48	4692
2026-01-27 23:55:12.92	99.81	13.08	-38.8	-40.8	19.3	0.00e+00	0	44	0	1529872384	48	4729
2026-01-27 23:55:13.91	100.00	13.05	-38.9	-40.8	19.3	0.00e+00	0	44	0	1535115264	48	4751
2026-01-27 23:55:14.90	100.19	13.02	-38.6	-40.6	19.5	0.00e+00	0	44	0	1541406720	48	4614
2026-01-27 23:55:15.89	100.38	13.00	-38.6	-40.6	19.5	0.00e+00	0	44	0	1546649600	48	4599
2026-01-27 23:55:16.89	100.57	12.97	-38.5	-40.5	19.6	0.00e+00	0	44	0	1551892480	48	4548
2026-01-27 23:55:17.88	100.76	12.94	-38.5	-40.4	19.7	0.00e+00	0	44	0	1558183936	48	4505
2026-01-27 23:55:18.87	100.95	12.92	-38.6	-40.5	19.6	0.00e+00	0	44	0	1563426816	48	4560
2026-01-27 23:55:19.87	101.14	12.89	-38.6	-40.5	19.5	0.00e+00	0	44	0	1568669696	48	4589
2026-01-27 23:55:20.86	101.33	12.86	-38.6	-40.5	19.5	0.00e+00	0	44	0	1573912576	48	4592
2026-01-27 23:55:21.85	101.52	12.83	-38.6	-40.5	19.5	0.00e+00	0	44	0	1580204032	48	4593
2026-01-27 23:55:22.85	101.71	12.81	-38.6	-40.5	19.5	0.00e+00	0	44	0	1585446912	48	4582
2026-01-27 23:55:23.84	101.90	12.78	-38.5	-40.4	19.6	0.00e+00	0	44	0	1591738368	48	4542
2026-01-27 23:55:24.83	102.08	12.75	-38.6	-40.5	19.6	0.00e+00	0	44	0	1596981248	48	4566
2026-01-27 23:55:25.82	102.27	12.72	-38.7	-40.6	19.4	0.00e+00	0	44	0	1602224128	48	4646
2026-01-27 23:55:26.82	102.46	12.69	-38.7	-40.7	19.2	0.00e+00	0	44	0	1607467008	48	4675
2026-01-27 23:55:27.81	102.64	12.66	-38.7	-40.7	19.1	0.00e+00	0	44	0	1613758464	48	4663
2026-01-27 23:55:28.80	102.83	12.63	-38.8	-40.7	19.2	0.00e+00	0	44	0	1619001344	48	4689
2026-01-27 23:55:29.79	103.02	12.60	-38.8	-40.8	19.2	0.00e+00	0	44	0	1624244224	48	4729
2026-01-27 23:55:30.79	103.20	12.57	-38.8	-40.7	19.2	0.00e+00	0	44	0	1630535680	48	4702
2026-01-27 23:55:31.78	103.39	12.54	-38.8	-40.8	19.2	0.00e+00	0	44	0	1635778560	48	4715
2026-01-27 23:55:32.77	103.57	12.51	-38.9	-40.9	19.1	0.00e+00	0	44	0	1642070016	48	4779
2026-01-27 23:55:33.77	103.76	12.48	-38.8	-40.8	19.1	0.00e+00	0	44	0	1647312896	48	4707
2026-01-27 23:55:34.76	103.94	12.45	-38.7	-40.7	19.2	0.00e+00	0	43	0	1652555776	48	4672
2026-01-27 23:55:35.75	104.12	12.42	-38.9	-40.9	18.9	0.00e+00	0	44	0	1657798656	48	4768
2026-01-27 23:55:36.74	104.31	12.39	-38.8	-40.7	19.0	0.00e+00	0	44	0	1664090112	48	4684
2026-01-27 23:55:37.74	104.49	12.35	-38.9	-40.8	19.3	0.00e+00	0	44	0	1669332992	48	4740
2026-01-27 23:55:38.73	104.67	12.32	-38.9	-40.9	19.2	0.00e+00	0	44	0	1674575872	48	4776
2026-01-27 23:55:39.72	104.85	12.29	-39.2	-41.1	19.0	0.00e+00	0	44	0	1680867328	48	4914
2026-01-27 23:55:40.72	105.04	12.26	-39.1	-41.1	19.0	0.00e+00	0	44	0	1686110208	48	4899
2026-01-27 23:55:41.71	105.22	12.23	-39.0	-41.0	19.1	0.00e+00	0	44	0	1691353088	48	4817
2026-01-27 23:55:42.70	105.40	12.19	-38.9	-40.9	19.2	0.00e+00	0	44	0	1697644544	48	4789
2026-01-27 23:55:43.69	105.58	12.16	-39.0	-40.9	19.1	0.00e+00	0	44	0	1702887424	48	4801
2026-01-27 23:55:44.69	105.76	12.13	-39.0	-41.0	19.2	0.00e+00	0	44	0	1708130304	48	4816
2026-01-27 23:55:45.68	105.94	12.09	-38.9	-40.9	19.2	0.00e+00	0	44	0	1714421760	48	4791
2026-01-27 23:55:46.67	106.12	12.06	-39.1	-41.1	19.0	0.00e+00	0	44	0	1719664640	48	4899
2026-01-27 23:55:47.67	106.30	12.03	-39.0	-41.0	19.1	0.00e+00	0	44	0	1724907520	48	4823
2026-01-27 23:55:48.66	106.47	11.99	-39.1	-41.1	19.0	0.00e+00	0	44	0	1731198976	48	4873
2026-01-27 23:55:49.65	106.65	11.96	-39.1	-41.0	19.1	0.00e+00	0	44	0	1736441856	48	4847
2026-01-27 23:55:50.64	106.83	11.92	-39.1	-41.1	19.0	0.00e+00	0	44	0	1741684736	48	4882
2026-01-27 23:55:51.64	107.01	11.89	-39.0	-41.0	19.1	0.00e+00	0	44	0	1747976192	48	4837
2026-01-27 23:55:52.63	107.18	11.85	-38.9	-40.8	19.2	0.00e+00	0	44	0	1753219072	48	4747
2026-01-27 23:55:53.62	107.36	11.82	-38.9	-40.9	19.2	0.00e+00	0	44	0	1758461952	48	4762
2026-01-27 23:55:54.61	107.54	11.78	-39.0	-40.9	19.2	0.00e+00	0	44	0	1764753408	48	4792
2026-01-27 23:55:55.61	107.71	11.75	-39.0	-40.9	19.2	0.00e+00	0	44	0	1769996288	48	4774
2026-01-27 23:55:56.60	107.89	11.71	-39.1	-41.0	19.0	0.00e+00	0	44	0	1775239168	48	4860
2026-01-27 23:55:57.59	108.06	11.68	-39.1	-41.0	19.0	0.00e+00	0	44	0	1781530624	48	4865
2026-01-27 23:55:58.59	108.24	11.64	-39.0	-41.0	19.0	0.00e+00	0	44	0	1786773504	48	4844
2026-01-27 23:55:59.58	108.41	11.60	-39.4	-41.4	18.7	0.00e+00	0	44	0	1792016384	49	4772
2026-01-27 23:56:00.57	108.58	11.57	-39.3	-41.3	18.8	0.00e+00	0	44	0	1798307840	49	4749
2026-01-27 23:56:01.57	108.76	11.53	-39.3	-41.3	18.8	0.00e+00	0	44	0	1803550720	49	4736
2026-01-27 23:56:02.56	108.93	11.49	-39.4	-41.4	18.7	0.00e+00	0	44	0	1808793600	49	4790
2026-01-27 23:56:03.55	109.10	11.46	-39.2	-41.2	18.8	0.00e+00	0	43	0	1815085056	49	4674
2026-01-27 23:56:04.54	109.27	11.42	-39.2	-41.2	18.9	0.00e+00	0	43	0	1820327936	49	4670
2026-01-27 23:56:05.54	109.45	11.38	-39.3	-41.3	18.8	0.00e+00	0	43	0	1825570816	49	4711
2026-01-27 23:56:06.53	109.62	11.35	-39.2	-41.1	18.9	0.00e+00	0	44	0	1831862272	49	4641
2026-01-27 23:56:07.52	109.79	11.31	-39.2	-41.2	18.9	0.00e+00	0	44	0	1837105152	49	4666
2026-01-27 23:56:08.52	109.96	11.27	-39.1	-41.1	18.9	0.00e+00	0	44	0	1842348032	49	4633
2026-01-27 23:56:09.51	110.13	11.23	-39.3	-41.3	18.8	0.00e+00	0	44	0	1847590912	49	4711
2026-01-27 23:56:10.50	110.30	11.19	-39.3	-41.3	18.7	0.00e+00	0	44	0	1853882368	49	4716
2026-01-27 23:56:11.50	110.47	11.16	-39.3	-41.3	18.8	0.00e+00	0	44	0	1859125248	49	4707
2026-01-27 23:56:12.49	110.64	11.12	-39.3	-41.3	18.7	0.00e+00	0	44	0	1865416704	49	4731
2026-01-27 23:56:13.48	110.80	11.08	-39.3	-41.3	18.7	0.00e+00	0	44	0	1870659584	49	4714
2026-01-27 23:56:14.47	110.97	11.04	-39.5	-41.5	18.5	0.00e+00	0	44	0	1875902464	49	4821
2026-01-27 23:56:15.47	111.14	11.00	-39.7	-41.8	18.3	0.00e+00	0	44	0	1881145344	50	4721
2026-01-27 23:56:16.46	111.31	10.96	-39.5	-41.6	18.5	0.00e+00	0	44	0	1887436800	50	4606
2026-01-27 23:56:17.45	111.47	10.92	-39.5	-41.6	18.5	0.00e+00	0	44	0	1892679680	50	4602
2026-01-27 23:56:18.45	111.64	10.88	-39.8	-41.9	18.2	0.00e+00	0	44	0	1897922560	50	4788
2026-01-27 23:56:19.44	111.80	10.85	-40.0	-42.1	17.9	0.00e+00	0	44	0	1904214016	50	4923
2026-01-27 23:56:20.43	111.97	10.81	-39.7	-41.7	18.3	0.00e+00	0	44	0	1909456896	50	4685
2026-01-27 23:56:21.42	112.13	10.77	-39.8	-41.9	18.1	0.00e+00	0	44	0	1915748352	50	4785
2026-01-27 23:56:22.42	112.30	10.73	-39.8	-41.8	18.2	0.00e+00	0	44	0	1920991232	50	4755
2026-01-27 23:56:23.41	112.46	10.69	-39.7	-41.8	18.3	0.00e+00	0	44	0	1926234112	50	4707
2026-01-27 23:56:24.40	112.62	10.65	-39.6	-41.7	18.4	0.00e+00	0	44	0	1931476992	50	4664
2026-01-27 23:56:25.40	112.79	10.61	-39.6	-41.7	18.3	0.00e+00	0	44	0	1937768448	50	4678
2026-01-27 23:56:26.39	112.95	10.56	-39.7	-41.7	18.3	0.00e+00	0	44	0	1943011328	50	4680
2026-01-27 23:56:27.38	113.11	10.52	-39.5	-41.6	18.5	0.00e+00	0	44	0	1948254208	50	4600
2026-01-27 23:56:28.38	113.27	10.48	-39.6	-41.6	18.4	0.00e+00	0	44	0	1954545664	50	4641
2026-01-27 23:56:29.37	113.44	10.44	-39.7	-41.7	18.3	0.00e+00	0	44	0	1959788544	50	4689
2026-01-27 23:56:30.36	113.60	10.40	-39.6	-41.6	18.4	0.00e+00	0	44	0	1965031424	50	4637
2026-01-27 23:56:31.35	113.76	10.36	-39.6	-41.6	18.4	0.00e+00	0	44	0	1971322880	50	4643
2026-01-27 23:56:32.35	113.92	10.32	-39.8	-41.8	18.2	0.00e+00	0	44	0	1976565760	50	4749
2026-01-27 23:56:33.34	114.08	10.28	-39.8	-41.8	18.2	0.00e+00	0	44	0	1981808640	50	4758
2026-01-27 23:56:34.33	114.23	10.24	-39.7	-41.8	18.2	0.00e+00	0	44	0	1988100096	50	4729
2026-01-27 23:56:35.32	114.39	10.19	-39.8	-41.8	18.2	0.00e+00	0	44	0	1993342976	50	4757
2026-01-27 23:56:36.32	114.55	10.15	-39.7	-41.8	18.3	0.00e+00	0	44	0	1998585856	50	4721
2026-01-27 23:56:37.31	114.71	10.11	-39.9	-42.0	17.9	0.00e+00	0	44	0	2004877312	50	4830
2026-01-27 23:56:38.30	114.87	10.07	-39.9	-41.9	18.0	0.00e+00	0	44	0	2010120192	50	4810
2026-01-27 23:56:39.30	115.02	10.03	-39.8	-41.9	18.0	0.00e+00	0	44	0	2015363072	50	4797
2026-01-27 23:56:40.29	115.18	9.98	-39.7	-41.7	18.2	0.00e+00	0	44	0	2021654528	50	4704
2026-01-27 23:56:41.28	115.34	9.94	-39.7	-41.8	18.2	0.00e+00	0	44	0	2026897408	50	4712
2026-01-27 23:56:42.27	115.49	9.90	-39.8	-41.8	18.2	0.00e+00	0	44	0	2032140288	50	4751
2026-01-27 23:56:43.27	115.65	9.86	-39.8	-41.8	18.2	0.00e+00	0	44	0	2038431744	50	4735
2026-01-27 23:56:44.26	115.80	9.81	-39.7	-41.7	18.1	0.00e+00	0	44	0	2043674624	50	4698
2026-01-27 23:56:45.25	115.95	9.77	-39.7	-41.8	18.0	0.00e+00	0	44	0	2048917504	50	4724
2026-01-27 23:56:46.25	116.11	9.73	-39.8	-41.8	17.9	3.40e-06	0	44	0	2055208960	50	4743
2026-01-27 23:56:47.24	116.26	9.69	-39.6	-41.7	18.0	5.72e-05	0	44	0	2060451840	50	4652
2026-01-27 23:56:48.23	116.41	9.64	-39.8	-41.9	17.8	6.80e-06	0	44	0	2065694720	50	4801
2026-01-27 23:56:49.23	116.57	9.60	-39.8	-41.9	17.8	4.92e-05	0	44	0	2071986176	50	4789
2026-01-27 23:56:50.22	116.72	9.56	-40.0	-42.1	17.6	9.10e-06	0	44	0	2077229056	50	4926
2026-01-27 23:56:51.21	116.87	9.51	-39.7	-41.8	18.0	0.00e+00	0	44	0	2082471936	50	4732
2026-01-27 23:56:52.20	117.02	9.47	-39.9	-42.0	17.8	0.00e+00	0	44	0	2088763392	50	4828
2026-01-27 23:56:53.20	117.17	9.43	-39.8	-42.0	17.9	0.00e+00	0	44	0	2094006272	50	4831
2026-01-27 23:56:54.19	117.32	9.38	-39.9	-42.0	18.0	0.00e+00	0	44	0	2099249152	50	4869
2026-01-27 23:56:55.18	117.47	9.34	-40.0	-42.2	17.8	0.00e+00	0	44	0	2105540608	50	4944
2026-01-27 23:56:56.18	117.62	9.29	-40.2	-42.4	17.6	0.00e+00	0	44	0	2110783488	51	4781
2026-01-27 23:56:57.17	117.77	9.25	-40.0	-42.2	17.8	0.00e+00	0	44	0	2116026368	51	4665
2026-01-27 23:56:58.16	117.92	9.21	-39.9	-42.0	18.0	0.00e+00	0	44	0	2121269248	51	4566
2026-01-27 23:56:59.16	118.07	9.16	-40.0	-42.2	17.8	0.00e+00	0	44	0	2127560704	51	4665
2026-01-27 23:57:00.15	118.22	9.12	-40.1	-42.2	17.8	0.00e+00	0	44	0	2132803584	51	4681
2026-01-27 23:57:01.14	118.36	9.07	-40.2	-42.3	17.6	0.00e+00	0	44	0	2139095040	51	4754
2026-01-27 23:57:02.13	118.51	9.03	-40.1	-42.2	17.7	0.00e+00	0	44	0	2144337920	51	4691
2026-01-27 23:57:03.13	118.66	8.98	-49.4	-61.1	3.8	8.31e-01	0	44	104	2147483648	69	14640
2026-01-27 23:57:04.12	118.80	8.94	-49.9	-62.0	3.8	8.47e-01	0	44	104	2147483648	70	15262
2026-01-27 23:57:05.11	118.95	8.90	-49.8	-62.1	3.8	8.46e-01	0	44	104	2147483648	70	15484
2026-01-27 23:57:06.11	119.09	8.85	-50.0	-62.1	3.8	8.48e-01	0	44	104	2147483648	70	15572
2026-01-27 23:57:07.10	119.24	8.81	-50.0	-62.2	3.8	8.47e-01	0	44	104	2147483648	70	15740
2026-01-27 23:57:08.09	119.38	8.76	-50.2	-62.3	3.8	8.47e-01	0	44	104	2147483648	71	14939
2026-01-27 23:57:09.08	119.53	8.72	-50.1	-62.2	3.8	8.46e-01	0	44	104	2147483648	70	15679
2026-01-27 23:57:10.08	119.67	8.67	-50.1	-62.3	3.8	8.46e-01	0	44	104	2147483648	71	14900
2026-01-27 23:57:11.07	119.81	8.63	-50.2	-62.4	3.8	8.46e-01	0	44	104	2147483648	71	15056
2026-01-27 23:57:12.06	119.95	8.58	-50.2	-62.4	3.8	8.46e-01	0	44	104	2147483648	71	15180
2026-01-27 23:57:13.06	120.10	8.53	-49.9	-62.5	3.8	8.46e-01	0	44	104	2147483648	71	15226
2026-01-27 23:57:14.05	120.24	8.49	-49.8	-62.5	3.8	8.47e-01	0	44	104	2147483648	71	15279
2026-01-27 23:57:15.04	120.38	8.44	-50.3	-62.5	3.8	8.47e-01	0	44	104	2147483648	71	15293
2026-01-27 23:57:16.04	120.52	8.40	-50.4	-62.5	3.8	8.48e-01	0	44	104	2147483648	71	15328
2026-01-27 23:57:17.03	120.66	8.35	-50.4	-62.5	3.8	8.47e-01	0	44	104	2147483648	71	15355
2026-01-27 23:57:18.02	120.80	8.31	-50.4	-62.5	3.8	8.48e-01	0	44	104	2147483648	71	15346
2026-01-27 23:57:19.01	120.94	8.26	-50.4	-62.6	3.8	8.47e-01	0	44	104	2147483648	71	15410
2026-01-27 23:57:20.01	121.08	8.22	-50.4	-62.5	3.8	8.46e-01	0	44	104	2147483648	71	15397
2026-01-27 23:57:21.00	121.22	8.17	-50.3	-62.6	3.8	8.47e-01	0	44	104	2147483648	71	15453
2026-01-27 23:57:21.99	121.36	8.12	-50.3	-62.5	3.8	8.46e-01	0	44	104	2147483648	71	15392
2026-01-27 23:57:22.99	121.50	8.08	-50.4	-62.5	3.8	8.47e-01	0	44	104	2147483648	71	15396
2026-01-27 23:57:23.98	121.63	8.03	-50.4	-62.6	3.8	8.47e-01	0	44	104	2147483648	71	15446
2026-01-27 23:57:24.97	121.77	7.99	-50.4	-62.6	3.8	8.47e-01	0	44	104	2147483648	71	15438
2026-01-27 23:57:25.97	121.91	7.94	-50.4	-62.6	3.8	8.47e-01	0	44	104	2147483648	71	15521
2026-01-27 23:57:26.96	122.04	7.89	-50.4	-62.6	3.8	8.46e-01	0	44	104	2147483648	71	15500
2026-01-27 23:57:27.95	122.18	7.85	-50.3	-62.6	3.8	8.47e-01	0	44	104	2147483648	71	15484
2026-01-27 23:57:28.94	122.31	7.80	-50.3	-62.6	3.8	8.46e-01	0	44	104	2147483648	71	15526
2026-01-27 23:57:29.94	122.45	7.76	-50.3	-62.6	3.8	8.46e-01	0	44	104	2147483648	71	15558
2026-01-27 23:57:30.93	122.58	7.71	-50.3	-62.6	3.8	8.47e-01	0	44	104	2147483648	71	15495
2026-01-27 23:57:31.92	122.72	7.66	-50.3	-62.6	3.8	8.47e-01	0	44	104	2147483648	71	15482
2026-01-27 23:57:32.92	122.85	7.62	-50.4	-62.6	3.8	8.47e-01	0	44	104	2147483648	71	15465
2026-01-27 23:57:33.91	122.98	7.57	-50.5	-62.6	3.8	8.47e-01	0	44	104	2147483648	71	15448
2026-01-27 23:57:34.90	123.12	7.52	-50.4	-62.5	3.8	8.47e-01	0	44	104	2147483648	71	15388
2026-01-27 23:57:35.90	123.25	7.48	-50.4	-62.5	3.8	8.47e-01	0	44	104	2147483648	71	15358
2026-01-27 23:57:36.89	123.38	7.43	-50.3	-62.5	3.8	8.47e-01	0	44	104	2147483648	71	15329
2026-01-27 23:57:37.88	123.51	7.38	-50.4	-62.5	3.8	8.47e-01	0	44	104	2147483648	71	15400
2026-01-27 23:57:38.87	123.64	7.34	-50.1	-62.5	3.8	8.47e-01	0	44	104	2147483648	71	15230
2026-01-27 23:57:39.87	123.78	7.29	-50.1	-62.4	3.8	8.47e-01	0	44	104	2147483648	71	15176
2026-01-27 23:57:40.86	123.91	7.24	-50.1	-62.4	3.8	8.47e-01	0	44	104	2147483648	71	15166
2026-01-27 23:57:41.85	124.03	7.20	-50.1	-62.3	3.8	8.47e-01	0	44	104	2147483648	71	14995
2026-01-27 23:57:42.85	124.17	7.15	-50.0	-62.2	3.8	8.47e-01	0	44	104	2147483648	71	14865
2026-01-27 23:57:43.84	124.29	7.10	-50.0	-62.2	3.8	8.48e-01	0	44	104	2147483648	71	14725
2026-01-27 23:57:44.83	124.42	7.06	-49.6	-61.9	3.8	8.49e-01	0	44	104	2147483648	71	14256
2026-01-27 23:57:45.83	124.55	7.01	-49.6	-61.7	3.8	8.47e-01	0	44	104	2147483648	71	14034
2026-01-27 23:57:46.82	124.68	6.96	-49.5	-61.7	3.8	8.47e-01	0	44	104	2147483648	71	14006
2026-01-27 23:57:47.81	124.81	6.91	-49.5	-61.7	3.8	8.48e-01	0	44	104	2147483648	71	13971
2026-01-27 23:57:48.80	124.93	6.87	-49.5	-61.7	3.8	8.48e-01	0	44	104	2147483648	71	13930
2026-01-27 23:57:49.80	125.06	6.82	-49.5	-61.7	3.8	8.46e-01	0	44	104	2147483648	71	13944
2026-01-27 23:57:50.79	125.19	6.77	-49.5	-61.7	3.8	8.47e-01	0	44	104	2147483648	71	13915
2026-01-27 23:57:51.78	125.31	6.73	-49.5	-61.7	3.8	8.46e-01	0	44	104	2147483648	70	14729
2026-01-27 23:57:52.77	125.44	6.68	-49.5	-61.7	3.8	8.46e-01	0	44	104	2147483648	70	14797
2026-01-27 23:57:53.77	125.56	6.63	-49.5	-61.7	3.8	8.46e-01	0	44	104	2147483648	70	14733
2026-01-27 23:57:54.76	125.69	6.58	-49.5	-61.7	3.8	8.47e-01	0	44	104	2147483648	70	14778
2026-01-27 23:57:55.75	125.81	6.54	-49.4	-61.7	3.8	8.48e-01	0	44	104	2147483648	70	14773
2026-01-27 23:57:56.75	125.94	6.49	-49.5	-61.7	3.8	8.46e-01	0	44	104	2147483648	70	14753
2026-01-27 23:57:57.74	126.06	6.44	-49.4	-61.7	3.8	8.46e-01	0	44	104	2147483648	70	14754
2026-01-27 23:57:58.73	126.18	6.40	-49.4	-61.7	3.8	8.46e-01	0	44	104	2147483648	70	14745
2026-01-27 23:57:59.73	126.31	6.35	-49.4	-61.7	3.8	8.47e-01	0	44	104	2147483648	70	14745
2026-01-27 23:58:00.72	126.43	6.30	-49.4	-61.7	3.8	8.46e-01	0	44	104	2147483648	70	14715
2026-01-27 23:58:01.71	126.55	6.25	-49.4	-61.7	3.8	8.47e-01	0	44	104	2147483648	70	14766
2026-01-27 23:58:02.70	126.67	6.21	-49.4	-61.6	3.8	8.47e-01	0	44	104	2147483648	70	14693
2026-01-27 23:58:03.70	126.80	6.16	-49.4	-61.6	3.8	8.47e-01	0	44	104	2147483648	70	14669
2026-01-27 23:58:04.69	126.92	6.11	-49.4	-61.6	3.8	8.47e-01	0	44	104	2147483648	70	14701
2026-01-27 23:58:05.68	127.04	6.06	-49.4	-61.7	3.8	8.48e-01	0	44	104	2147483648	70	14730
2026-01-27 23:58:06.68	127.16	6.02	-49.4	-61.6	3.8	8.47e-01	0	44	104	2147483648	70	14617
2026-01-27 23:58:07.67	127.28	5.97	-49.4	-61.6	3.8	8.45e-01	0	44	104	2147483648	70	14658
2026-01-27 23:58:08.66	127.40	5.92	-49.4	-61.7	3.8	8.47e-01	0	44	104	2147483648	70	14753
2026-01-27 23:58:09.65	127.51	5.87	-49.4	-61.6	3.8	8.47e-01	0	44	104	2147483648	70	14708
2026-01-27 23:58:10.65	127.63	5.82	-49.4	-61.7	3.8	8.47e-01	0	44	104	2147483648	70	14729
2026-01-27 23:58:11.64	127.75	5.78	-49.4	-61.6	3.8	8.48e-01	0	44	104	2147483648	70	14626
2026-01-27 23:58:12.63	127.87	5.73	-49.4	-61.7	3.8	8.48e-01	0	44	104	2147483648	70	14736
2026-01-27 23:58:13.63	127.99	5.68	-49.4	-61.6	3.8	8.47e-01	0	44	104	2147483648	70	14673
2026-01-27 23:58:14.62	128.11	5.63	-49.4	-61.6	3.8	8.48e-01	0	44	104	2147483648	70	14700
2026-01-27 23:58:15.61	128.22	5.59	-49.4	-61.6	3.8	8.46e-01	0	44	104	2147483648	70	14663
2026-01-27 23:58:16.61	128.34	5.54	-49.4	-61.7	3.8	8.47e-01	0	44	104	2147483648	70	14750
2026-01-27 23:58:17.60	128.45	5.49	-49.4	-61.6	3.8	8.46e-01	0	44	104	2147483648	70	14647
2026-01-27 23:58:18.59	128.57	5.44	-49.4	-61.7	3.8	8.46e-01	0	44	104	2147483648	70	14709
2026-01-27 23:58:19.58	128.69	5.40	-49.4	-61.6	3.8	8.47e-01	0	44	104	2147483648	70	14693
2026-01-27 23:58:20.58	128.80	5.35	-49.4	-61.6	3.8	8.46e-01	0	44	104	2147483648	70	14645
2026-01-27 23:58:21.57	128.92	5.30	-49.4	-61.6	3.8	8.47e-01	0	44	104	2147483648	70	14622
2026-01-27 23:58:22.56	129.03	5.25	-49.4	-61.6	3.8	8.46e-01	0	44	104	2147483648	70	14643
2026-01-27 23:58:23.56	129.14	5.20	-49.4	-61.6	3.8	8.46e-01	0	44	104	2147483648	70	14703
2026-01-27 23:58:24.55	129.26	5.16	-49.4	-61.6	3.8	8.47e-01	0	44	104	2147483648	70	14625
2026-01-27 23:58:25.54	129.37	5.11	-49.4	-61.6	3.8	8.47e-01	0	44	104	2147483648	70	14671
2026-01-27 23:58:26.54	129.48	5.06	-49.4	-61.6	3.8	8.48e-01	0	44	104	2147483648	70	14635
2026-01-27 23:58:27.53	129.60	5.01	-49.4	-61.7	3.8	8.48e-01	0	44	104	2147483648	70	14724
2026-01-27 23:58:28.52	129.71	4.97	-49.4	-61.6	3.8	8.47e-01	0	44	104	2147483648	70	14686

#Closed at: 2026-01-27 23:58:29
#Recorded file [2147 MB]: D:/Data/31040_260128_024915.dat