passes_logs/2026/01/27/T1/T1__20260127_000749_FENGYUN_3D_rec.log

#Pass ID: 20260127_000749_FENGYUN 3D
#Satellite: FENGYUN 3D
#Configuration: FENGYUN 3D
#almurnet v.1.7.20251203
#Start time: 2026-01-27 00:07:51

#Version: 2.0.20230620
#Station: T1
#Location: 37.570604 lon 55.790049 lat
#TLE: 1 43010U 17072A   26026.49129444  .00000151  00000+0  93391-4 0  9993
#TLE: 2 43010  98.9962 358.4866 0002525  88.1664 271.9801 14.19700337424889

#Time	Az	El	Level	Level2	SNR	BER	BlckErr	Temp	State	Recorded	gain1	gain2
2026-01-27 00:07:51.27	32.28	5.11	-48.9	-61.2	3.8	8.47e-01	0	41	0	0	69	14827
2026-01-27 00:07:52.26	32.38	5.17	-48.9	-61.3	3.8	8.46e-01	0	41	104	0	68	15774
2026-01-27 00:07:53.25	32.47	5.22	-48.8	-61.2	3.8	8.47e-01	0	41	104	0	68	15703
2026-01-27 00:07:54.24	32.57	5.28	-48.8	-61.2	3.8	8.47e-01	0	41	104	0	68	15722
2026-01-27 00:07:55.24	32.67	5.33	-48.8	-61.2	3.8	8.48e-01	0	41	104	0	68	15659
2026-01-27 00:07:56.23	32.76	5.39	-48.9	-61.2	3.8	8.47e-01	0	41	104	0	68	15687
2026-01-27 00:07:57.22	32.86	5.44	-48.9	-61.2	3.8	8.47e-01	0	41	104	0	68	15724
2026-01-27 00:07:58.22	32.96	5.50	-48.9	-61.2	3.8	8.47e-01	0	41	104	0	68	15686
2026-01-27 00:07:59.21	33.06	5.55	-48.8	-61.2	3.8	8.47e-01	0	41	104	0	68	15704
2026-01-27 00:08:00.20	33.16	5.61	-48.8	-61.2	3.8	8.47e-01	0	42	104	0	68	15729
2026-01-27 00:08:01.20	33.26	5.66	-48.8	-61.2	3.8	8.47e-01	0	41	104	0	68	15748
2026-01-27 00:08:02.19	33.35	5.72	-48.8	-61.2	3.8	8.47e-01	0	42	104	0	68	15734
2026-01-27 00:08:03.18	33.45	5.77	-48.8	-61.2	3.8	8.47e-01	0	42	104	0	68	15669
2026-01-27 00:08:04.17	33.55	5.83	-48.8	-61.2	3.8	8.48e-01	0	42	104	0	68	15680
2026-01-27 00:08:05.17	33.65	5.88	-48.8	-61.3	3.8	8.48e-01	0	42	104	0	68	15775
2026-01-27 00:08:06.16	33.76	5.94	-48.8	-61.2	3.8	8.48e-01	0	42	104	0	68	15715
2026-01-27 00:08:07.15	33.86	5.99	-48.8	-61.2	3.8	8.47e-01	0	42	104	0	68	15749
2026-01-27 00:08:08.15	33.96	6.05	-48.8	-61.2	3.8	8.45e-01	0	42	104	0	68	15680
2026-01-27 00:08:09.14	34.06	6.11	-48.8	-61.2	3.8	8.47e-01	0	42	104	0	68	15705
2026-01-27 00:08:10.13	34.16	6.16	-48.9	-61.2	3.8	8.47e-01	0	42	104	0	68	15758
2026-01-27 00:08:11.13	34.26	6.22	-48.8	-61.2	3.8	8.45e-01	0	42	104	0	68	15706
2026-01-27 00:08:12.12	34.37	6.27	-48.8	-61.2	3.8	8.47e-01	0	42	104	0	68	15716
2026-01-27 00:08:13.11	34.47	6.33	-48.8	-61.2	3.8	8.46e-01	0	42	104	0	68	15666
2026-01-27 00:08:14.10	34.57	6.38	-48.8	-61.2	3.8	8.46e-01	0	42	104	0	68	15637
2026-01-27 00:08:15.10	34.68	6.44	-48.8	-61.2	3.8	8.47e-01	0	42	104	0	68	15660
2026-01-27 00:08:16.09	34.78	6.50	-48.8	-61.1	3.8	8.47e-01	0	42	104	0	68	15556
2026-01-27 00:08:17.08	34.89	6.55	-48.8	-61.2	3.8	8.47e-01	0	42	104	0	68	15591
2026-01-27 00:08:18.08	34.99	6.61	-48.8	-61.1	3.8	8.47e-01	0	42	104	0	68	15528
2026-01-27 00:08:19.07	35.10	6.67	-48.8	-61.1	3.8	8.47e-01	0	42	104	0	68	15504
2026-01-27 00:08:20.06	35.20	6.72	-48.8	-61.1	3.8	8.46e-01	0	42	104	0	68	15467
2026-01-27 00:08:21.05	35.31	6.78	-48.8	-61.1	3.8	8.46e-01	0	42	104	0	68	15473
2026-01-27 00:08:22.04	35.42	6.83	-48.8	-61.1	3.8	8.47e-01	0	42	104	0	68	15407
2026-01-27 00:08:23.04	35.52	6.89	-48.8	-61.1	3.8	8.47e-01	0	42	104	0	68	15545
2026-01-27 00:08:24.03	35.63	6.95	-48.8	-61.1	3.8	8.47e-01	0	42	104	0	68	15521
2026-01-27 00:08:25.02	35.74	7.00	-48.8	-61.2	3.8	8.47e-01	0	42	104	0	68	15601
2026-01-27 00:08:26.02	35.85	7.06	-48.8	-61.2	3.8	8.48e-01	0	43	104	0	68	15670
2026-01-27 00:08:27.01	35.96	7.12	-48.8	-61.2	3.8	8.47e-01	0	42	104	0	68	15643
2026-01-27 00:08:28.00	36.06	7.17	-48.8	-61.2	3.8	8.47e-01	0	42	104	0	68	15670
2026-01-27 00:08:29.00	36.18	7.23	-48.8	-61.2	3.8	8.47e-01	0	43	104	0	68	15582
2026-01-27 00:08:29.99	36.28	7.29	-48.8	-61.1	3.8	8.46e-01	0	42	104	0	68	15535
2026-01-27 00:08:30.98	36.39	7.34	-48.8	-61.1	3.8	8.47e-01	0	42	104	0	68	15451
2026-01-27 00:08:31.97	36.51	7.40	-48.8	-61.0	3.8	8.47e-01	0	42	104	0	68	15364
2026-01-27 00:08:32.97	36.62	7.46	-48.8	-61.0	3.8	8.47e-01	0	43	104	0	68	15323
2026-01-27 00:08:33.96	36.73	7.51	-48.8	-61.0	3.8	8.47e-01	0	43	104	0	68	15375
2026-01-27 00:08:34.96	36.84	7.57	-48.8	-61.1	3.8	8.47e-01	0	42	104	0	68	15455
2026-01-27 00:08:35.95	36.95	7.63	-48.8	-61.1	3.8	8.48e-01	0	42	104	0	68	15414
2026-01-27 00:08:36.94	37.07	7.68	-48.8	-61.0	3.8	8.47e-01	0	42	104	0	68	15256
2026-01-27 00:08:37.93	37.18	7.74	-48.8	-60.8	3.8	8.47e-01	0	42	104	0	68	14943
2026-01-27 00:08:38.93	37.29	7.80	-48.8	-60.6	3.8	8.47e-01	0	43	104	0	68	14619
2026-01-27 00:08:39.92	37.41	7.85	-48.8	-60.5	3.8	8.45e-01	0	43	104	0	68	14477
2026-01-27 00:08:40.91	37.52	7.91	-48.8	-60.5	3.8	8.49e-01	0	43	104	0	68	14477
2026-01-27 00:08:41.91	37.64	7.97	-48.8	-60.6	3.8	8.47e-01	0	43	104	0	68	14696
2026-01-27 00:08:42.90	37.75	8.02	-48.8	-60.8	3.8	8.49e-01	0	43	104	0	68	15047
2026-01-27 00:08:43.90	37.87	8.08	-48.8	-61.0	3.8	8.47e-01	0	43	104	0	68	15375
2026-01-27 00:08:44.89	37.99	8.14	-48.8	-61.1	3.8	8.46e-01	0	43	104	0	68	15482
2026-01-27 00:08:45.88	38.10	8.20	-48.9	-61.1	3.8	8.47e-01	0	43	104	0	68	15555
2026-01-27 00:08:46.88	38.22	8.25	-48.8	-61.1	3.8	8.47e-01	0	43	104	0	68	15553
2026-01-27 00:08:47.87	38.34	8.31	-48.8	-61.1	3.8	8.47e-01	0	43	104	0	68	15457
2026-01-27 00:08:48.86	38.45	8.37	-48.8	-60.9	3.8	8.47e-01	0	43	104	0	68	15190
2026-01-27 00:08:49.86	38.57	8.43	-48.7	-60.7	3.8	8.46e-01	0	43	104	0	68	14727
2026-01-27 00:08:50.85	38.69	8.48	-48.7	-60.3	3.8	8.47e-01	0	43	104	0	68	14070
2026-01-27 00:08:51.84	38.81	8.54	-48.6	-59.9	3.8	8.46e-01	0	43	104	0	68	13526
2026-01-27 00:08:52.83	38.93	8.60	-48.7	-59.6	3.8	8.46e-01	0	43	104	0	68	13065
2026-01-27 00:08:53.83	39.05	8.65	-48.6	-59.4	3.8	8.46e-01	0	43	104	0	68	12717
2026-01-27 00:08:54.82	39.17	8.71	-48.6	-59.1	3.8	8.45e-01	0	43	104	0	68	12297
2026-01-27 00:08:55.82	39.30	8.77	-48.5	-58.4	3.9	8.44e-01	0	43	104	0	68	11304
2026-01-27 00:08:56.81	39.42	8.83	-48.2	-56.5	4.6	8.27e-01	0	43	0	0	68	9098
2026-01-27 00:08:57.80	39.54	8.88	-47.4	-53.8	6.1	6.34e-01	0	43	0	1048576	66	7506
2026-01-27 00:08:58.80	39.66	8.94	-46.2	-50.7	9.0	4.58e-02	0	43	0	6291456	64	5889
2026-01-27 00:08:59.79	39.78	9.00	-45.1	-48.6	11.2	4.60e-03	0	43	0	12582912	62	5208
2026-01-27 00:09:00.78	39.91	9.06	-43.9	-46.8	13.2	1.23e-04	0	43	0	17825792	59	5015
2026-01-27 00:09:01.78	40.03	9.11	-47.7	-54.7	5.5	3.92e-02	0	43	0	23068672	65	8803
2026-01-27 00:09:02.78	40.16	9.17	-43.2	-45.8	14.2	8.81e-02	0	43	0	26214400	58	4755
2026-01-27 00:09:03.77	40.28	9.23	-46.5	-51.0	8.9	7.61e-03	0	43	0	32505856	63	6470
2026-01-27 00:09:04.77	40.41	9.29	-40.7	-42.8	16.9	8.88e-04	0	43	0	37748736	53	4469
2026-01-27 00:09:05.76	40.53	9.35	-39.5	-41.4	18.5	0.00e+00	0	43	0	42991616	50	4539
2026-01-27 00:09:06.75	40.66	9.40	-39.2	-41.1	18.8	0.00e+00	0	43	0	49283072	50	4356
2026-01-27 00:09:07.75	40.79	9.46	-38.9	-40.8	19.1	0.00e+00	0	43	0	54525952	49	4476
2026-01-27 00:09:08.75	40.92	9.52	-38.7	-40.6	19.3	0.00e+00	0	43	0	59768832	49	4367
2026-01-27 00:09:09.74	41.04	9.58	-38.7	-40.6	19.3	0.00e+00	0	43	0	66060288	49	4383
2026-01-27 00:09:10.74	41.17	9.63	-38.7	-40.6	19.3	0.00e+00	0	43	0	71303168	49	4380
2026-01-27 00:09:11.73	41.30	9.69	-38.6	-40.5	19.4	0.00e+00	0	43	0	76546048	49	4311
2026-01-27 00:09:12.72	41.43	9.75	-38.5	-40.4	19.5	0.00e+00	0	43	0	82837504	49	4266
2026-01-27 00:09:13.72	41.56	9.81	-38.5	-40.4	19.5	0.00e+00	0	43	0	88080384	49	4266
2026-01-27 00:09:14.71	41.69	9.87	-38.5	-40.4	19.6	0.00e+00	0	43	0	93323264	49	4247
2026-01-27 00:09:15.74	41.83	9.93	-38.5	-40.3	19.6	0.00e+00	0	43	0	99614720	48	4490
2026-01-27 00:09:16.77	41.96	9.99	-38.4	-40.2	19.7	0.00e+00	0	43	0	104857600	48	4433
2026-01-27 00:09:17.78	42.10	10.04	-38.4	-40.2	19.7	0.00e+00	0	43	0	111149056	48	4418
2026-01-27 00:09:18.77	42.23	10.10	-38.5	-40.3	19.7	0.00e+00	0	43	0	116391936	48	4461
2026-01-27 00:09:19.84	42.37	10.16	-38.5	-40.4	19.6	0.00e+00	0	43	0	122683392	48	4494
2026-01-27 00:09:20.73	42.49	10.22	-38.6	-40.4	19.5	0.00e+00	0	43	0	127926272	48	4537
2026-01-27 00:09:22.04	42.67	10.29	-38.5	-40.4	19.6	0.00e+00	0	43	0	135266304	48	4527
2026-01-27 00:09:22.75	42.77	10.33	-38.4	-40.3	19.6	0.00e+00	0	43	0	138412032	48	4481
2026-01-27 00:09:24.03	42.94	10.41	-38.6	-40.5	19.5	0.00e+00	0	43	0	145752064	48	4586
2026-01-27 00:09:24.74	43.04	10.45	-38.7	-40.5	19.4	0.00e+00	0	43	0	149946368	48	4593
2026-01-27 00:09:26.02	43.21	10.52	-38.5	-40.4	19.6	0.00e+00	0	43	0	157286400	48	4499
2026-01-27 00:09:26.76	43.31	10.57	-38.6	-40.5	19.5	0.00e+00	0	43	0	161480704	48	4552
2026-01-27 00:09:28.04	43.49	10.64	-38.5	-40.3	19.7	0.00e+00	0	43	0	168820736	48	4474
2026-01-27 00:09:28.78	43.59	10.68	-38.4	-40.3	19.7	0.00e+00	0	43	0	173015040	48	4452
2026-01-27 00:09:30.06	43.77	10.76	-38.4	-40.2	19.7	0.00e+00	0	43	0	180355072	48	4441
2026-01-27 00:09:30.92	43.89	10.81	-38.4	-40.2	19.7	0.00e+00	0	43	0	184549376	48	4438
2026-01-27 00:09:32.06	44.05	10.87	-38.5	-40.3	19.6	0.00e+00	0	43	0	190840832	48	4486
2026-01-27 00:09:32.91	44.17	10.92	-38.4	-40.2	19.7	0.00e+00	0	43	0	196083712	48	4432
2026-01-27 00:09:34.05	44.33	10.99	-38.4	-40.3	19.7	0.00e+00	0	43	0	202375168	48	4453
2026-01-27 00:09:34.90	44.45	11.04	-38.3	-40.2	19.8	0.00e+00	0	43	0	207618048	48	4404
2026-01-27 00:09:36.04	44.62	11.11	-38.3	-40.2	19.8	0.00e+00	0	43	0	213909504	48	4410
2026-01-27 00:09:36.90	44.74	11.16	-38.3	-40.2	19.8	0.00e+00	0	43	0	218103808	48	4405
2026-01-27 00:09:38.04	44.90	11.22	-38.2	-40.1	19.9	0.00e+00	0	43	0	225443840	48	4351
2026-01-27 00:09:38.89	45.03	11.27	-38.3	-40.1	19.9	0.00e+00	0	43	0	229638144	48	4373
2026-01-27 00:09:40.14	45.21	11.34	-38.2	-40.1	19.9	0.00e+00	0	43	0	236978176	48	4349
2026-01-27 00:09:40.99	45.33	11.39	-38.3	-40.1	19.8	0.00e+00	0	43	0	241172480	48	4390
2026-01-27 00:09:42.13	45.50	11.46	-38.3	-40.2	19.8	0.00e+00	0	43	0	248512512	48	4397
2026-01-27 00:09:42.98	45.62	11.51	-38.3	-40.2	19.8	0.00e+00	0	43	0	252706816	48	4406
2026-01-27 00:09:44.12	45.79	11.57	-38.3	-40.2	19.8	0.00e+00	0	43	0	258998272	48	4419
2026-01-27 00:09:45.04	45.92	11.63	-38.2	-40.0	20.0	0.00e+00	0	43	0	264241152	48	4314
2026-01-27 00:09:46.03	46.07	11.69	-38.2	-40.0	20.0	0.00e+00	0	43	0	269484032	48	4319
2026-01-27 00:09:47.03	46.22	11.74	-38.1	-39.9	20.1	0.00e+00	0	43	0	275775488	48	4260
2026-01-27 00:09:48.02	46.37	11.80	-38.0	-39.8	20.1	0.00e+00	0	43	0	281018368	48	4240
2026-01-27 00:09:49.02	46.52	11.86	-37.8	-39.6	20.1	0.00e+00	0	43	0	286261248	47	4370
2026-01-27 00:09:50.01	46.67	11.92	-37.7	-39.5	20.2	0.00e+00	0	43	0	292552704	47	4321
2026-01-27 00:09:51.01	46.82	11.97	-37.8	-39.6	20.2	0.00e+00	0	43	0	297795584	47	4355
2026-01-27 00:09:52.01	46.97	12.03	-37.7	-39.5	20.2	0.00e+00	0	43	0	303038464	47	4317
2026-01-27 00:09:53.00	47.12	12.09	-37.6	-39.4	20.3	0.00e+00	0	43	0	309329920	47	4286
2026-01-27 00:09:54.00	47.27	12.14	-37.7	-39.5	20.3	0.00e+00	0	43	0	314572800	47	4309
2026-01-27 00:09:54.99	47.42	12.20	-37.8	-39.6	20.2	0.00e+00	0	43	0	319815680	47	4350
2026-01-27 00:09:55.99	47.58	12.26	-37.7	-39.5	20.3	0.00e+00	0	43	0	326107136	47	4305
2026-01-27 00:09:56.98	47.73	12.32	-37.7	-39.5	20.2	0.00e+00	0	43	0	331350016	47	4326
2026-01-27 00:09:57.98	47.89	12.37	-37.7	-39.5	20.3	0.00e+00	0	43	0	337641472	47	4307
2026-01-27 00:09:58.98	48.04	12.43	-37.6	-39.4	20.3	0.00e+00	0	43	0	342884352	47	4285
2026-01-27 00:09:59.98	48.20	12.49	-37.7	-39.5	20.3	0.00e+00	0	43	0	348127232	47	4312
2026-01-27 00:10:00.97	48.35	12.54	-37.7	-39.5	20.3	0.00e+00	0	43	0	354418688	47	4308
2026-01-27 00:10:01.97	48.51	12.60	-37.8	-39.6	20.2	0.00e+00	0	43	0	359661568	47	4377
2026-01-27 00:10:02.96	48.67	12.66	-37.8	-39.6	20.2	0.00e+00	0	43	0	364904448	47	4371
2026-01-27 00:10:03.96	48.82	12.72	-37.8	-39.6	20.2	0.00e+00	0	43	0	370147328	47	4358
2026-01-27 00:10:04.95	48.98	12.77	-37.7	-39.5	20.2	0.00e+00	0	43	0	376438784	47	4331
2026-01-27 00:10:05.95	49.14	12.83	-37.7	-39.5	20.3	0.00e+00	0	43	0	381681664	47	4312
2026-01-27 00:10:06.94	49.30	12.88	-37.7	-39.6	20.2	0.00e+00	0	43	0	387973120	47	4346
2026-01-27 00:10:07.94	49.46	12.94	-37.6	-39.5	20.3	0.00e+00	0	43	0	393216000	47	4293
2026-01-27 00:10:08.93	49.62	13.00	-37.6	-39.4	20.4	0.00e+00	0	43	0	398458880	47	4247
2026-01-27 00:10:09.93	49.78	13.05	-37.5	-39.3	20.4	0.00e+00	0	43	0	404750336	47	4218
2026-01-27 00:10:10.93	49.95	13.11	-37.5	-39.3	20.5	0.00e+00	0	43	0	409993216	47	4215
2026-01-27 00:10:11.92	50.11	13.17	-37.5	-39.2	20.5	0.00e+00	0	43	0	415236096	46	4431
2026-01-27 00:10:12.98	50.28	13.23	-37.4	-39.2	20.6	0.00e+00	0	43	0	421527552	46	4408
2026-01-27 00:10:13.85	50.42	13.28	-37.4	-39.2	20.6	0.00e+00	0	43	0	426770432	46	4417
2026-01-27 00:10:14.99	50.61	13.34	-37.6	-39.3	20.4	0.00e+00	0	43	0	433061888	46	4493
2026-01-27 00:10:15.84	50.75	13.39	-37.4	-39.2	20.6	0.00e+00	0	43	0	437256192	46	4418
2026-01-27 00:10:16.98	50.94	13.45	-37.4	-39.2	20.6	0.00e+00	0	43	0	443547648	46	4417
2026-01-27 00:10:17.83	51.09	13.50	-37.5	-39.3	20.5	0.00e+00	0	43	0	448790528	46	4447
2026-01-27 00:10:18.96	51.27	13.56	-37.4	-39.2	20.5	0.00e+00	0	43	0	455081984	46	4414
2026-01-27 00:10:19.82	51.42	13.61	-37.4	-39.2	20.6	0.00e+00	0	44	0	460324864	46	4412
2026-01-27 00:10:20.95	51.61	13.67	-37.5	-39.3	20.5	0.00e+00	0	43	0	466616320	46	4480
2026-01-27 00:10:21.81	51.76	13.72	-37.5	-39.3	20.5	0.00e+00	0	43	0	470810624	46	4464
2026-01-27 00:10:22.95	51.95	13.78	-37.3	-39.1	20.7	0.00e+00	0	44	0	477102080	46	4369
2026-01-27 00:10:23.80	52.10	13.83	-37.2	-38.9	20.8	0.00e+00	0	43	0	482344960	46	4291
2026-01-27 00:10:24.93	52.29	13.89	-37.2	-39.0	20.8	0.00e+00	0	43	0	488636416	46	4300
2026-01-27 00:10:25.79	52.44	13.94	-37.2	-39.0	20.8	0.00e+00	0	43	0	493879296	46	4302
2026-01-27 00:10:27.00	52.65	14.01	-37.2	-39.0	20.8	0.00e+00	0	43	0	500170752	46	4308
2026-01-27 00:10:27.86	52.79	14.05	-37.3	-39.1	20.7	0.00e+00	0	43	0	505413632	46	4363
2026-01-27 00:10:29.09	53.01	14.12	-37.4	-39.2	20.6	0.00e+00	0	43	0	511705088	46	4419
2026-01-27 00:10:29.94	53.16	14.17	-37.2	-39.0	20.8	0.00e+00	0	43	0	516947968	46	4329
2026-01-27 00:10:31.11	53.36	14.23	-37.2	-39.0	20.8	0.00e+00	0	43	0	523239424	46	4324
2026-01-27 00:10:32.36	53.58	14.30	-37.2	-39.0	20.8	0.00e+00	0	43	0	530579456	46	4333
2026-01-27 00:10:33.21	53.73	14.35	-37.2	-39.0	20.8	0.00e+00	0	44	0	534773760	46	4318
2026-01-27 00:10:34.35	53.93	14.41	-37.1	-38.9	20.9	0.00e+00	0	43	0	542113792	46	4268
2026-01-27 00:10:35.20	54.08	14.45	-37.1	-38.9	20.9	0.00e+00	0	44	0	546308096	46	4264
2026-01-27 00:10:36.34	54.29	14.52	-37.2	-39.0	20.8	0.00e+00	0	43	0	552599552	46	4307
2026-01-27 00:10:37.19	54.44	14.56	-37.3	-39.1	20.7	0.00e+00	0	43	0	557842432	46	4362
2026-01-27 00:10:38.33	54.65	14.62	-37.2	-39.0	20.8	0.00e+00	0	43	0	564133888	46	4311
2026-01-27 00:10:39.18	54.80	14.67	-37.2	-39.0	20.9	0.00e+00	0	43	0	569376768	46	4311
2026-01-27 00:10:40.32	55.01	14.73	-37.1	-38.9	20.9	0.00e+00	0	43	0	575668224	46	4276
2026-01-27 00:10:41.17	55.16	14.77	-37.2	-38.9	20.9	0.00e+00	0	43	0	579862528	46	4285
2026-01-27 00:10:42.31	55.37	14.84	-37.1	-38.9	20.9	0.00e+00	0	43	0	586153984	46	4273
2026-01-27 00:10:43.17	55.52	14.88	-37.2	-38.9	20.9	0.00e+00	0	43	0	591396864	46	4284
2026-01-27 00:10:44.30	55.73	14.94	-37.1	-38.9	20.9	0.00e+00	0	43	0	597688320	46	4258
2026-01-27 00:10:45.16	55.89	14.99	-37.0	-38.8	21.0	0.00e+00	0	43	0	601882624	46	4197
2026-01-27 00:10:46.29	56.10	15.04	-36.9	-38.7	21.1	0.00e+00	0	43	0	609222656	45	4402
2026-01-27 00:10:47.15	56.26	15.09	-37.0	-38.8	21.0	0.00e+00	0	44	0	613416960	45	4448
2026-01-27 00:10:48.28	56.47	15.15	-36.9	-38.6	21.2	0.00e+00	0	43	0	619708416	45	4378
2026-01-27 00:10:49.14	56.63	15.19	-36.8	-38.5	21.3	0.00e+00	0	44	0	624951296	45	4328
2026-01-27 00:10:50.28	56.84	15.25	-36.8	-38.6	21.2	0.00e+00	0	43	0	631242752	45	4346
2026-01-27 00:10:51.13	57.00	15.30	-36.8	-38.5	21.3	0.00e+00	0	44	0	636485632	45	4330
2026-01-27 00:10:52.31	57.23	15.36	-36.8	-38.5	21.3	0.00e+00	0	44	0	642777088	45	4319
2026-01-27 00:10:53.17	57.39	15.40	-36.8	-38.5	21.3	0.00e+00	0	43	0	646971392	45	4314
2026-01-27 00:10:54.38	57.62	15.46	-36.8	-38.6	21.2	0.00e+00	0	44	0	654311424	45	4351
2026-01-27 00:10:55.23	57.78	15.51	-36.9	-38.7	21.1	0.00e+00	0	43	0	659554304	45	4411
2026-01-27 00:10:56.37	58.00	15.56	-37.0	-38.7	21.1	0.00e+00	0	44	0	665845760	45	4429
2026-01-27 00:10:57.23	58.16	15.61	-36.9	-38.7	21.1	0.00e+00	0	43	0	670040064	45	4396
2026-01-27 00:10:58.49	58.41	15.67	-36.8	-38.5	21.3	0.00e+00	0	44	0	677380096	45	4327
2026-01-27 00:10:59.28	58.56	15.71	-36.7	-38.5	21.3	0.00e+00	0	43	0	681574400	45	4297
2026-01-27 00:11:00.46	58.79	15.77	-36.7	-38.4	21.3	0.00e+00	0	44	0	688914432	45	4289
2026-01-27 00:11:01.32	58.95	15.81	-36.7	-38.4	21.4	0.00e+00	0	43	0	693108736	45	4288
2026-01-27 00:11:02.45	59.17	15.87	-36.8	-38.5	21.3	0.00e+00	0	44	0	699400192	45	4309
2026-01-27 00:11:03.31	59.34	15.91	-36.7	-38.4	21.4	0.00e+00	0	43	0	704643072	45	4285
2026-01-27 00:11:04.44	59.56	15.96	-36.8	-38.6	21.2	0.00e+00	0	44	0	710934528	45	4341
2026-01-27 00:11:05.30	59.73	16.01	-36.7	-38.5	21.3	0.00e+00	0	43	0	716177408	45	4301
2026-01-27 00:11:06.43	59.96	16.06	-36.7	-38.5	21.3	0.00e+00	0	44	0	722468864	45	4304
2026-01-27 00:11:07.29	60.13	16.10	-36.8	-38.5	21.3	0.00e+00	0	43	0	726663168	45	4331
2026-01-27 00:11:08.42	60.35	16.16	-36.8	-38.5	21.3	0.00e+00	0	43	0	732954624	45	4330
2026-01-27 00:11:09.28	60.52	16.20	-36.8	-38.6	21.2	0.00e+00	0	43	0	738197504	45	4345
2026-01-27 00:11:10.42	60.75	16.25	-36.9	-38.6	21.2	0.00e+00	0	43	0	744488960	45	4378
2026-01-27 00:11:11.27	60.92	16.29	-36.8	-38.6	21.2	0.00e+00	0	43	0	749731840	45	4369
2026-01-27 00:11:12.41	61.15	16.35	-36.8	-38.6	21.3	0.00e+00	0	44	0	756023296	45	4342
2026-01-27 00:11:13.26	61.32	16.39	-36.7	-38.4	21.4	0.00e+00	0	43	0	760217600	45	4281
2026-01-27 00:11:14.48	61.57	16.44	-36.6	-38.4	21.5	0.00e+00	0	44	0	767557632	45	4248
2026-01-27 00:11:15.33	61.74	16.48	-36.5	-38.2	21.6	0.00e+00	0	43	0	771751936	45	4177
2026-01-27 00:11:16.47	61.98	16.54	-36.4	-38.1	21.6	0.00e+00	0	43	0	778043392	44	4387
2026-01-27 00:11:17.32	62.15	16.58	-36.5	-38.3	21.5	0.00e+00	0	44	0	783286272	44	4459
2026-01-27 00:11:18.62	62.42	16.63	-36.6	-38.4	21.4	0.00e+00	0	43	0	790626304	44	4508
2026-01-27 00:11:19.33	62.56	16.67	-36.8	-38.5	21.3	0.00e+00	0	43	0	794820608	44	4579
2026-01-27 00:11:20.61	62.83	16.72	-36.8	-38.5	21.3	0.00e+00	0	43	0	802160640	44	4588
2026-01-27 00:11:21.33	62.98	16.76	-36.7	-38.5	21.4	0.00e+00	0	44	0	806354944	44	4565
2026-01-27 00:11:22.61	63.24	16.81	-36.7	-38.5	21.3	0.00e+00	0	43	0	812646400	44	4568
2026-01-27 00:11:23.32	63.39	16.85	-36.7	-38.4	21.4	0.00e+00	0	44	0	816840704	44	4533
2026-01-27 00:11:24.60	63.66	16.90	-36.6	-38.3	21.5	0.00e+00	0	43	0	824180736	44	4458
2026-01-27 00:11:25.31	63.81	16.93	-36.5	-38.2	21.6	0.00e+00	0	43	0	828375040	44	4425
2026-01-27 00:11:26.59	64.07	16.99	-36.6	-38.3	21.5	0.00e+00	0	43	0	835715072	44	4486
2026-01-27 00:11:27.30	64.22	17.02	-36.6	-38.3	21.5	0.00e+00	0	43	0	839909376	44	4464
2026-01-27 00:11:28.58	64.49	17.07	-36.5	-38.3	21.5	0.00e+00	0	44	0	847249408	44	4455
2026-01-27 00:11:29.29	64.64	17.10	-36.4	-38.3	21.2	0.00e+00	0	43	0	850395136	44	4443
2026-01-27 00:11:30.57	64.92	17.16	-36.4	-38.2	21.2	0.00e+00	0	44	0	857735168	44	4441
2026-01-27 00:11:31.30	65.07	17.19	-36.3	-38.1	21.2	0.00e+00	0	44	0	861929472	44	4390
2026-01-27 00:11:32.67	65.36	17.25	-36.2	-38.0	21.3	0.00e+00	0	43	0	870318080	44	4330
2026-01-27 00:11:33.39	65.52	17.28	-36.2	-38.0	21.4	0.00e+00	0	43	0	873463808	44	4328
2026-01-27 00:11:34.67	65.79	17.33	-36.2	-38.0	21.3	0.00e+00	0	43	0	880803840	44	4334
2026-01-27 00:11:35.39	65.95	17.36	-36.2	-38.1	21.3	0.00e+00	0	44	0	884998144	44	4342
2026-01-27 00:11:36.67	66.22	17.41	-36.2	-38.0	21.3	0.00e+00	0	43	0	892338176	44	4330
2026-01-27 00:11:37.40	66.38	17.44	-36.3	-38.1	21.3	0.00e+00	0	43	0	896532480	44	4348
2026-01-27 00:11:38.68	66.66	17.49	-36.2	-38.0	21.4	0.00e+00	0	44	0	903872512	44	4318
2026-01-27 00:11:39.39	66.81	17.52	-36.2	-38.1	21.3	0.00e+00	0	44	0	908066816	44	4342
2026-01-27 00:11:40.67	67.09	17.57	-36.2	-38.0	21.3	0.00e+00	0	43	0	914358272	44	4340
2026-01-27 00:11:41.38	67.25	17.60	-36.2	-38.0	21.4	0.00e+00	0	44	0	918552576	44	4296
2026-01-27 00:11:42.66	67.53	17.65	-36.0	-37.8	21.5	0.00e+00	0	44	0	925892608	44	4228
2026-01-27 00:11:43.48	67.71	17.68	-36.1	-37.9	21.5	0.00e+00	0	43	0	931135488	44	4255
2026-01-27 00:11:44.62	67.96	17.72	-36.2	-38.0	21.4	0.00e+00	0	44	0	936378368	44	4317
2026-01-27 00:11:45.47	68.15	17.75	-36.2	-38.1	21.3	0.00e+00	0	43	0	941621248	44	4347
2026-01-27 00:11:46.61	68.40	17.79	-36.3	-38.1	21.3	0.00e+00	0	44	0	947912704	44	4375
2026-01-27 00:11:47.73	68.65	17.83	-36.3	-38.1	21.2	0.00e+00	0	44	0	954204160	44	4387
2026-01-27 00:11:48.59	68.84	17.87	-36.3	-38.1	21.2	0.00e+00	0	44	0	959447040	44	4388
2026-01-27 00:11:50.07	69.17	17.92	-36.2	-38.0	21.4	0.00e+00	0	43	0	967835648	44	4326
2026-01-27 00:11:50.78	69.33	17.94	-36.2	-38.0	21.4	0.00e+00	0	44	0	972029952	44	4297
2026-01-27 00:11:52.06	69.62	17.99	-36.3	-38.1	21.3	0.00e+00	0	44	0	978321408	44	4363
2026-01-27 00:11:52.77	69.78	18.01	-36.2	-38.0	21.4	0.00e+00	0	44	0	982515712	44	4329
2026-01-27 00:11:54.05	70.06	18.06	-36.2	-38.0	21.4	0.00e+00	0	44	0	989855744	44	4330
2026-01-27 00:11:54.76	70.22	18.08	-36.2	-38.0	21.4	0.00e+00	0	44	0	994050048	44	4294
2026-01-27 00:11:56.04	70.51	18.12	-36.2	-38.0	21.4	0.00e+00	0	44	0	1001390080	44	4333
2026-01-27 00:11:56.75	70.67	18.15	-36.2	-38.0	21.4	0.00e+00	0	44	0	1005584384	44	4324
2026-01-27 00:11:58.03	70.96	18.19	-36.2	-38.0	21.3	0.00e+00	0	44	0	1012924416	44	4324
2026-01-27 00:11:58.76	71.13	18.21	-36.2	-38.0	21.3	0.00e+00	0	44	0	1016070144	44	4338
2026-01-27 00:12:00.04	71.42	18.25	-36.2	-38.0	21.4	0.00e+00	0	43	0	1023410176	44	4304
2026-01-27 00:12:00.75	71.59	18.28	-36.2	-38.0	21.3	0.00e+00	0	43	0	1027604480	44	4316
2026-01-27 00:12:02.03	71.88	18.32	-36.3	-38.1	21.3	0.00e+00	0	43	0	1034944512	44	4360
2026-01-27 00:12:02.74	72.04	18.34	-36.1	-38.0	21.4	0.00e+00	0	44	0	1039138816	44	4296
2026-01-27 00:12:04.13	72.36	18.38	-36.3	-38.1	21.3	0.00e+00	0	43	0	1046478848	44	4374
2026-01-27 00:12:04.84	72.52	18.40	-36.3	-38.1	21.3	0.00e+00	0	44	0	1050673152	44	4372
2026-01-27 00:12:06.16	72.83	18.44	-36.1	-37.9	21.4	0.00e+00	0	44	0	1058013184	44	4278
2026-01-27 00:12:06.87	72.99	18.46	-36.1	-37.9	21.5	0.00e+00	0	43	0	1062207488	44	4267
2026-01-27 00:12:08.23	73.31	18.50	-36.0	-37.8	21.5	0.00e+00	0	43	0	1069547520	44	4228
2026-01-27 00:12:08.94	73.47	18.52	-35.8	-37.6	21.6	0.00e+00	0	44	0	1073741824	43	4359
2026-01-27 00:12:10.22	73.77	18.56	-35.9	-37.7	21.5	0.00e+00	0	43	0	1081081856	43	4396
2026-01-27 00:12:10.93	73.94	18.58	-35.9	-37.7	21.5	0.00e+00	0	43	0	1085276160	43	4413
2026-01-27 00:12:12.21	74.24	18.61	-36.1	-37.9	21.4	0.00e+00	0	44	0	1091567616	43	4499
2026-01-27 00:12:12.94	74.41	18.63	-35.9	-37.7	21.5	0.00e+00	0	44	0	1095761920	43	4433
2026-01-27 00:12:14.22	74.71	18.66	-35.9	-37.7	21.5	0.00e+00	0	44	0	1103101952	43	4412
2026-01-27 00:12:14.93	74.87	18.68	-36.0	-37.8	21.5	0.00e+00	0	44	0	1107296256	43	4449
2026-01-27 00:12:16.20	75.17	18.71	-36.0	-37.8	21.4	0.00e+00	0	44	0	1114636288	43	4472
2026-01-27 00:12:16.94	75.35	18.73	-36.0	-37.8	21.4	0.00e+00	0	43	0	1118830592	43	4460
2026-01-27 00:12:18.22	75.65	18.76	-36.0	-37.8	21.4	0.00e+00	0	44	0	1126170624	43	4472
2026-01-27 00:12:19.01	75.84	18.78	-36.0	-37.8	21.4	0.00e+00	0	44	0	1130364928	43	4476
2026-01-27 00:12:20.20	76.12	18.81	-35.9	-37.7	21.5	0.00e+00	0	43	0	1136656384	43	4416
2026-01-27 00:12:21.05	76.32	18.83	-35.8	-37.6	21.6	0.00e+00	0	44	0	1141899264	43	4351
2026-01-27 00:12:22.19	76.59	18.86	-35.7	-37.5	21.6	0.00e+00	0	44	0	1148190720	43	4335
2026-01-27 00:12:23.31	76.85	18.88	-35.8	-37.6	21.6	0.00e+00	0	44	0	1154482176	43	4353
2026-01-27 00:12:24.33	77.10	18.90	-35.8	-37.6	21.6	0.00e+00	0	44	0	1160773632	43	4367
2026-01-27 00:12:25.33	77.34	18.92	-35.9	-37.7	21.5	0.00e+00	0	44	0	1166016512	43	4402
2026-01-27 00:12:26.51	77.62	18.95	-35.9	-37.7	21.5	0.00e+00	0	44	0	1172307968	43	4415
2026-01-27 00:12:27.37	77.82	18.96	-35.9	-37.7	21.5	0.00e+00	0	44	0	1177550848	43	4436
2026-01-27 00:12:28.50	78.09	18.99	-35.8	-37.6	21.6	0.00e+00	0	44	0	1183842304	43	4384
2026-01-27 00:12:29.36	78.30	19.00	-35.8	-37.6	21.6	0.00e+00	0	43	0	1188036608	43	4352
2026-01-27 00:12:30.49	78.57	19.02	-35.9	-37.7	21.5	0.00e+00	0	44	0	1195376640	43	4398
2026-01-27 00:12:31.34	78.78	19.04	-35.9	-37.7	21.5	0.00e+00	0	44	0	1199570944	43	4405
2026-01-27 00:12:32.48	79.05	19.06	-35.9	-37.7	21.5	0.00e+00	0	44	0	1205862400	43	4441
2026-01-27 00:12:33.34	79.26	19.07	-35.7	-37.5	21.7	0.00e+00	0	43	0	1211105280	43	4321
2026-01-27 00:12:34.47	79.53	19.09	-35.6	-37.4	21.8	0.00e+00	0	44	0	1217396736	43	4253
2026-01-27 00:12:35.33	79.74	19.11	-35.6	-37.3	21.8	0.00e+00	0	44	0	1222639616	43	4233
2026-01-27 00:12:36.47	80.01	19.12	-35.5	-37.3	21.9	0.00e+00	0	43	0	1228931072	43	4216
2026-01-27 00:12:37.32	80.22	19.14	-35.5	-37.3	21.9	0.00e+00	0	44	0	1233125376	43	4219
2026-01-27 00:12:38.45	80.49	19.15	-35.7	-37.5	21.7	0.00e+00	0	43	0	1239416832	43	4294
2026-01-27 00:12:39.31	80.70	19.17	-35.6	-37.4	21.8	0.00e+00	0	43	0	1244659712	43	4265
2026-01-27 00:12:40.53	81.00	19.18	-35.6	-37.4	21.8	0.00e+00	0	44	0	1251999744	43	4255
2026-01-27 00:12:41.38	81.20	19.19	-35.6	-37.4	21.8	0.00e+00	0	44	0	1256194048	43	4275
2026-01-27 00:12:42.51	81.48	19.21	-35.6	-37.4	21.7	0.00e+00	0	44	0	1262485504	43	4277
2026-01-27 00:12:43.37	81.69	19.22	-35.6	-37.4	21.8	0.00e+00	0	44	0	1267728384	43	4283
2026-01-27 00:12:44.51	81.96	19.23	-35.6	-37.3	21.8	0.00e+00	0	43	0	1274019840	43	4237
2026-01-27 00:12:45.36	82.17	19.24	-35.6	-37.4	21.7	0.00e+00	0	44	0	1278214144	43	4261
2026-01-27 00:12:46.70	82.50	19.26	-35.7	-37.5	21.7	0.00e+00	0	44	0	1286602752	43	4314
2026-01-27 00:12:47.41	82.67	19.26	-35.7	-37.5	21.7	0.00e+00	0	44	0	1289748480	43	4308
2026-01-27 00:12:48.70	82.99	19.28	-35.6	-37.4	21.8	0.00e+00	0	44	0	1297088512	43	4247
2026-01-27 00:12:49.42	83.16	19.28	-35.6	-37.4	21.8	0.00e+00	0	43	0	1301282816	43	4255
2026-01-27 00:12:50.70	83.47	19.29	-35.7	-37.5	21.7	0.00e+00	0	44	0	1308622848	43	4338
2026-01-27 00:12:51.43	83.65	19.30	-35.7	-37.5	21.7	0.00e+00	0	43	0	1312817152	43	4321
2026-01-27 00:12:52.71	83.97	19.31	-35.7	-37.5	21.7	0.00e+00	0	44	0	1320157184	43	4331
2026-01-27 00:12:53.42	84.14	19.32	-35.8	-37.6	21.6	0.00e+00	0	44	0	1323302912	43	4354
2026-01-27 00:12:54.70	84.45	19.32	-35.9	-37.7	21.6	0.00e+00	0	44	0	1330642944	43	4401
2026-01-27 00:12:55.56	84.66	19.33	-35.8	-37.6	21.6	0.00e+00	0	43	0	1335885824	43	4388
2026-01-27 00:12:56.70	84.94	19.34	-35.7	-37.5	21.7	0.00e+00	0	43	0	1342177280	43	4316
2026-01-27 00:12:57.56	85.15	19.34	-35.7	-37.5	21.7	0.00e+00	0	44	0	1347420160	43	4319
2026-01-27 00:12:58.69	85.43	19.35	-35.7	-37.5	21.7	0.00e+00	0	43	0	1353711616	43	4338
2026-01-27 00:12:59.82	85.71	19.35	-35.7	-37.5	21.7	0.00e+00	0	44	0	1360003072	43	4314
2026-01-27 00:13:00.67	85.92	19.35	-35.7	-37.5	21.7	0.00e+00	0	44	0	1365245952	43	4340
2026-01-27 00:13:01.81	86.20	19.36	-35.8	-37.6	21.6	0.00e+00	0	44	0	1371537408	43	4361
2026-01-27 00:13:02.66	86.41	19.36	-35.8	-37.7	21.5	0.00e+00	0	44	0	1375731712	43	4399
2026-01-27 00:13:03.80	86.69	19.36	-35.9	-37.7	21.5	0.00e+00	0	44	0	1382023168	43	4408
2026-01-27 00:13:04.66	86.90	19.36	-35.7	-37.5	21.6	0.00e+00	0	44	0	1387266048	43	4332
2026-01-27 00:13:05.79	87.18	19.36	-35.7	-37.5	21.6	0.00e+00	0	43	0	1393557504	43	4329
2026-01-27 00:13:06.64	87.38	19.36	-35.8	-37.6	21.6	0.00e+00	0	44	0	1398800384	43	4357
2026-01-27 00:13:07.78	87.66	19.36	-35.7	-37.5	21.6	0.00e+00	0	44	0	1405091840	43	4335
2026-01-27 00:13:08.63	87.87	19.36	-35.8	-37.6	21.6	0.00e+00	0	44	0	1409286144	43	4374
2026-01-27 00:13:09.77	88.15	19.36	-35.9	-37.7	21.5	0.00e+00	0	44	0	1415577600	43	4410
2026-01-27 00:13:10.70	88.38	19.36	-35.9	-37.7	21.5	0.00e+00	0	44	0	1420820480	43	4427
2026-01-27 00:13:11.87	88.67	19.36	-35.9	-37.7	21.5	0.00e+00	0	44	0	1427111936	43	4432
2026-01-27 00:13:12.74	88.88	19.35	-35.9	-37.7	21.5	0.00e+00	0	44	0	1432354816	43	4415
2026-01-27 00:13:14.03	89.20	19.35	-35.8	-37.7	21.5	0.00e+00	0	43	0	1439694848	43	4404
2026-01-27 00:13:14.74	89.37	19.35	-35.9	-37.7	21.5	0.00e+00	0	44	0	1443889152	43	4434
2026-01-27 00:13:16.25	89.74	19.34	-35.8	-37.6	21.6	0.00e+00	0	44	0	1452277760	43	4354
2026-01-27 00:13:16.96	89.92	19.34	-35.6	-37.4	21.8	0.00e+00	0	44	0	1456472064	43	4274
2026-01-27 00:13:18.24	90.23	19.33	-35.6	-37.4	21.7	0.00e+00	0	44	0	1463812096	43	4281
2026-01-27 00:13:18.95	90.41	19.33	-35.6	-37.4	21.8	0.00e+00	0	43	0	1468006400	43	4273
2026-01-27 00:13:20.23	90.72	19.32	-35.5	-37.3	21.9	0.00e+00	0	44	0	1475346432	43	4223
2026-01-27 00:13:20.94	90.89	19.31	-35.6	-37.4	21.8	0.00e+00	0	44	0	1478492160	43	4246
2026-01-27 00:13:22.23	91.21	19.30	-35.5	-37.2	21.9	0.00e+00	0	43	0	1485832192	43	4190
2026-01-27 00:13:22.94	91.38	19.30	-35.6	-37.4	21.8	0.00e+00	0	43	0	1490026496	42	4504
2026-01-27 00:13:24.22	91.70	19.29	-35.8	-37.6	21.6	0.00e+00	0	44	0	1497366528	42	4608
2026-01-27 00:13:24.95	91.88	19.28	-35.8	-37.7	21.6	0.00e+00	0	44	0	1501560832	42	4655
2026-01-27 00:13:26.23	92.19	19.27	-35.9	-37.8	21.4	0.00e+00	0	44	0	1508900864	42	4706
2026-01-27 00:13:26.94	92.36	19.26	-35.9	-37.7	21.5	0.00e+00	0	44	0	1512046592	42	4669
2026-01-27 00:13:28.22	92.67	19.25	-35.9	-37.7	21.5	0.00e+00	0	44	0	1519386624	42	4666
2026-01-27 00:13:28.95	92.85	19.24	-35.8	-37.6	21.5	0.00e+00	0	44	0	1523580928	42	4649
2026-01-27 00:13:30.23	93.16	19.22	-35.9	-37.7	21.5	0.00e+00	0	44	0	1530920960	42	4683
2026-01-27 00:13:31.22	93.41	19.21	-35.9	-37.8	21.4	0.00e+00	0	44	0	1537212416	42	4711
2026-01-27 00:13:32.22	93.65	19.20	-36.0	-37.9	21.4	0.00e+00	0	43	0	1542455296	42	4760
2026-01-27 00:13:33.21	93.89	19.19	-36.1	-37.9	21.3	0.00e+00	0	44	0	1547698176	42	4803
2026-01-27 00:13:34.20	94.13	19.17	-36.1	-38.0	21.2	0.00e+00	0	44	0	1552941056	42	4835
2026-01-27 00:13:35.20	94.37	19.16	-36.3	-38.1	21.1	0.00e+00	0	44	0	1559232512	43	4647
2026-01-27 00:13:36.20	94.62	19.14	-36.2	-38.0	21.2	0.00e+00	0	44	0	1564475392	43	4577
2026-01-27 00:13:37.19	94.86	19.13	-36.2	-38.1	21.2	0.00e+00	0	44	0	1569718272	43	4613
2026-01-27 00:13:38.19	95.10	19.11	-36.3	-38.2	21.1	0.00e+00	0	43	0	1576009728	43	4669
2026-01-27 00:13:39.24	95.35	19.10	-36.2	-38.0	21.2	0.00e+00	0	43	0	1581252608	43	4590
2026-01-27 00:13:40.13	95.57	19.08	-36.1	-37.9	21.3	0.00e+00	0	44	0	1586495488	43	4519
2026-01-27 00:13:41.27	95.84	19.06	-36.0	-37.8	21.4	0.00e+00	0	44	0	1592786944	43	4450
2026-01-27 00:13:42.20	96.07	19.05	-36.1	-37.9	21.3	0.00e+00	0	44	0	1598029824	43	4520
2026-01-27 00:13:43.37	96.35	19.02	-36.0	-37.8	21.4	0.00e+00	0	44	0	1604321280	43	4475
2026-01-27 00:13:44.25	96.56	19.01	-36.0	-37.8	21.4	0.00e+00	0	44	0	1609564160	43	4489
2026-01-27 00:13:45.39	96.83	18.99	-36.0	-37.8	21.3	0.00e+00	0	44	0	1615855616	43	4476
2026-01-27 00:13:46.30	97.05	18.97	-36.0	-37.8	21.4	0.00e+00	0	44	0	1621098496	43	4475
2026-01-27 00:13:47.47	97.33	18.95	-36.0	-37.8	21.3	0.00e+00	0	44	0	1628438528	43	4481
2026-01-27 00:13:48.33	97.54	18.93	-36.1	-37.9	21.3	0.00e+00	0	44	0	1632632832	43	4515
2026-01-27 00:13:49.46	97.81	18.90	-36.1	-37.9	21.3	0.00e+00	0	44	0	1638924288	43	4541
2026-01-27 00:13:50.32	98.01	18.89	-36.0	-37.8	21.4	0.00e+00	0	44	0	1644167168	43	4468
2026-01-27 00:13:51.45	98.28	18.86	-36.0	-37.8	21.4	0.00e+00	0	44	0	1650458624	43	4462
2026-01-27 00:13:52.31	98.49	18.84	-36.0	-37.8	21.4	0.00e+00	0	44	0	1654652928	43	4447
2026-01-27 00:13:53.44	98.75	18.82	-36.0	-37.8	21.4	0.00e+00	0	44	0	1661992960	43	4467
2026-01-27 00:13:54.30	98.96	18.80	-36.0	-37.8	21.4	0.00e+00	0	44	0	1666187264	43	4463
2026-01-27 00:13:55.43	99.23	18.77	-36.0	-37.8	21.4	0.00e+00	0	43	0	1672478720	43	4490
2026-01-27 00:13:56.29	99.43	18.75	-36.0	-37.8	21.4	0.00e+00	0	43	0	1677721600	43	4471
2026-01-27 00:13:57.43	99.70	18.72	-36.0	-37.8	21.4	0.00e+00	0	44	0	1684013056	43	4456
2026-01-27 00:13:58.28	99.90	18.70	-36.0	-37.8	21.4	0.00e+00	0	44	0	1689255936	43	4489
2026-01-27 00:13:59.42	100.17	18.67	-36.0	-37.8	21.5	0.00e+00	0	44	0	1695547392	43	4461
2026-01-27 00:14:00.27	100.37	18.65	-36.0	-37.7	21.5	0.00e+00	0	44	0	1699741696	43	4440
2026-01-27 00:14:01.55	100.67	18.61	-35.9	-37.7	21.5	0.00e+00	0	44	0	1707081728	43	4436
2026-01-27 00:14:02.26	100.83	18.59	-35.9	-37.7	21.5	0.00e+00	0	44	0	1711276032	43	4398
2026-01-27 00:14:03.73	101.18	18.55	-36.0	-37.8	21.4	0.00e+00	0	44	0	1719664640	43	4463
2026-01-27 00:14:04.44	101.34	18.53	-36.1	-37.9	21.3	0.00e+00	0	44	0	1723858944	43	4506
2026-01-27 00:14:05.72	101.64	18.50	-36.1	-37.9	21.3	0.00e+00	0	44	0	1731198976	43	4498
2026-01-27 00:14:06.43	101.81	18.48	-36.0	-37.8	21.4	0.00e+00	0	44	0	1734344704	43	4483
2026-01-27 00:14:07.71	102.10	18.44	-36.1	-37.9	21.3	0.00e+00	0	44	0	1741684736	43	4530
2026-01-27 00:14:08.44	102.27	18.42	-36.2	-38.0	21.2	0.00e+00	0	44	0	1745879040	43	4562
2026-01-27 00:14:09.72	102.57	18.38	-36.2	-38.0	21.2	0.00e+00	0	44	0	1753219072	43	4589
2026-01-27 00:14:10.44	102.74	18.36	-36.2	-38.1	21.1	0.00e+00	0	43	0	1757413376	43	4614
2026-01-27 00:14:11.72	103.03	18.32	-36.2	-38.1	21.2	0.00e+00	0	44	0	1764753408	43	4600
2026-01-27 00:14:12.45	103.20	18.30	-36.1	-38.0	21.2	0.00e+00	0	44	0	1768947712	43	4549
2026-01-27 00:14:13.72	103.49	18.26	-36.2	-38.0	21.2	0.00e+00	0	43	0	1776287744	43	4557
2026-01-27 00:14:14.50	103.67	18.23	-36.2	-38.0	21.3	0.00e+00	0	44	0	1780482048	43	4558
2026-01-27 00:14:15.78	103.96	18.19	-36.1	-38.0	21.3	0.00e+00	0	43	0	1787822080	43	4552
2026-01-27 00:14:16.49	104.12	18.17	-36.2	-38.0	21.2	0.00e+00	0	44	0	1790967808	43	4585
2026-01-27 00:14:17.77	104.41	18.12	-36.3	-38.2	21.1	0.00e+00	0	44	0	1798307840	43	4659
2026-01-27 00:14:18.62	104.61	18.10	-36.3	-38.2	21.1	0.00e+00	0	43	0	1803550720	43	4668
2026-01-27 00:14:19.76	104.87	18.06	-36.4	-38.2	21.0	0.00e+00	0	44	0	1809842176	43	4682
2026-01-27 00:14:20.62	105.06	18.03	-36.4	-38.3	21.0	0.00e+00	0	44	0	1814036480	43	4720
2026-01-27 00:14:21.75	105.31	17.99	-36.4	-38.2	21.0	0.00e+00	0	44	0	1820327936	43	4697
2026-01-27 00:14:22.61	105.51	17.96	-36.3	-38.1	21.2	0.00e+00	0	44	0	1825570816	43	4620
2026-01-27 00:14:23.75	105.76	17.92	-36.4	-38.2	21.1	0.00e+00	0	43	0	1831862272	43	4678
2026-01-27 00:14:24.60	105.95	17.89	-36.4	-38.2	21.0	0.00e+00	0	44	0	1837105152	43	4702
2026-01-27 00:14:25.73	106.21	17.85	-36.4	-38.2	21.0	0.00e+00	0	44	0	1843396608	43	4700
2026-01-27 00:14:26.59	106.40	17.81	-36.4	-38.2	21.0	0.00e+00	0	44	0	1847590912	43	4699
2026-01-27 00:14:27.73	106.65	17.77	-36.5	-38.3	20.9	0.00e+00	0	44	0	1854930944	43	4751
2026-01-27 00:14:28.58	106.84	17.74	-36.5	-38.3	20.9	0.00e+00	0	44	0	1859125248	43	4755
2026-01-27 00:14:29.71	107.09	17.70	-36.5	-38.3	20.9	0.00e+00	0	44	0	1865416704	43	4741
2026-01-27 00:14:30.57	107.28	17.66	-36.5	-38.4	20.9	0.00e+00	0	44	0	1870659584	43	4763
2026-01-27 00:14:31.70	107.53	17.62	-36.5	-38.3	20.9	0.00e+00	0	44	0	1876951040	43	4747
2026-01-27 00:14:32.56	107.72	17.59	-36.4	-38.3	20.9	0.00e+00	0	44	0	1881145344	43	4724
2026-01-27 00:14:33.69	107.97	17.54	-36.4	-38.2	21.0	0.00e+00	0	44	0	1888485376	43	4693
2026-01-27 00:14:34.72	108.19	17.50	-36.5	-38.3	20.9	0.00e+00	0	44	0	1893728256	43	4738
2026-01-27 00:14:35.72	108.41	17.46	-36.5	-38.3	20.9	0.00e+00	0	44	0	1898971136	43	4748
2026-01-27 00:14:36.71	108.63	17.42	-36.6	-38.4	20.8	0.00e+00	0	44	0	1905262592	43	4803
2026-01-27 00:14:37.71	108.84	17.38	-36.5	-38.4	20.9	0.00e+00	0	44	0	1910505472	43	4769
2026-01-27 00:14:38.70	109.06	17.34	-36.4	-38.3	21.0	0.00e+00	0	44	0	1915748352	43	4727
2026-01-27 00:14:40.01	109.34	17.29	-36.5	-38.4	20.9	0.00e+00	0	44	0	1923088384	43	4767
2026-01-27 00:14:40.73	109.49	17.26	-36.5	-38.3	20.9	0.00e+00	0	43	0	1927282688	43	4738
2026-01-27 00:14:42.01	109.77	17.21	-36.5	-38.4	20.9	0.00e+00	0	44	0	1934622720	43	4782
2026-01-27 00:14:42.73	109.92	17.18	-36.5	-38.3	20.9	0.00e+00	0	44	0	1938817024	43	4744
2026-01-27 00:14:44.01	110.20	17.12	-36.5	-38.4	20.9	0.00e+00	0	44	0	1946157056	43	4776
2026-01-27 00:14:44.72	110.35	17.09	-36.5	-38.3	20.9	0.00e+00	0	44	0	1950351360	43	4754
2026-01-27 00:14:46.07	110.63	17.03	-36.6	-38.4	20.8	0.00e+00	0	44	0	1957691392	43	4793
2026-01-27 00:14:46.78	110.78	17.00	-36.6	-38.5	20.8	0.00e+00	0	44	0	1961885696	43	4840
2026-01-27 00:14:48.06	111.05	16.95	-36.7	-38.6	20.8	0.00e+00	0	44	0	1969225728	44	4617
2026-01-27 00:14:48.77	111.20	16.91	-36.6	-38.4	20.9	0.00e+00	0	44	0	1972371456	44	4543
2026-01-27 00:14:50.17	111.50	16.85	-36.6	-38.5	20.9	0.00e+00	0	44	0	1980760064	44	4558
2026-01-27 00:14:50.88	111.65	16.82	-36.7	-38.5	20.9	0.00e+00	0	44	0	1984954368	44	4580
2026-01-27 00:14:52.27	111.94	16.76	-36.7	-38.5	20.9	0.00e+00	0	44	0	1992294400	44	4593
2026-01-27 00:14:52.98	112.08	16.73	-36.6	-38.4	21.0	0.00e+00	0	44	0	1996488704	44	4522
2026-01-27 00:14:54.26	112.35	16.67	-36.5	-38.3	21.1	0.00e+00	0	44	0	2003828736	44	4468
2026-01-27 00:14:54.97	112.50	16.64	-36.5	-38.4	21.1	0.00e+00	0	44	0	2008023040	44	4505
2026-01-27 00:14:56.25	112.76	16.58	-36.6	-38.4	21.0	0.00e+00	0	44	0	2014314496	44	4515
2026-01-27 00:14:56.96	112.91	16.54	-36.7	-38.5	20.9	0.00e+00	0	44	0	2018508800	44	4580
2026-01-27 00:14:58.24	113.17	16.49	-36.7	-38.6	20.8	0.00e+00	0	43	0	2025848832	44	4609
2026-01-27 00:14:58.97	113.32	16.45	-36.8	-38.7	20.7	0.00e+00	0	44	0	2030043136	44	4687
2026-01-27 00:15:00.25	113.58	16.39	-37.0	-38.9	20.6	0.00e+00	0	44	0	2037383168	44	4780
2026-01-27 00:15:00.96	113.72	16.36	-37.1	-39.0	20.5	0.00e+00	0	44	0	2041577472	44	4835
2026-01-27 00:15:02.24	113.98	16.30	-37.1	-39.0	20.4	0.00e+00	0	44	0	2048917504	44	4847
2026-01-27 00:15:02.97	114.13	16.26	-37.0	-38.9	20.5	0.00e+00	0	44	0	2053111808	44	4813
2026-01-27 00:15:04.25	114.39	16.20	-37.1	-38.9	20.5	0.00e+00	0	44	0	2059403264	44	4812
2026-01-27 00:15:04.96	114.53	16.17	-37.1	-38.9	20.5	0.00e+00	0	44	0	2063597568	44	4798
2026-01-27 00:15:06.24	114.78	16.10	-37.1	-38.9	20.5	0.00e+00	0	44	0	2070937600	44	4802
2026-01-27 00:15:06.95	114.93	16.07	-37.0	-38.9	20.5	0.00e+00	0	44	0	2075131904	44	4782
2026-01-27 00:15:08.28	115.19	16.00	-37.0	-38.8	20.6	0.00e+00	0	44	0	2082471936	44	4744
2026-01-27 00:15:08.99	115.33	15.97	-36.9	-38.8	20.7	0.00e+00	0	44	0	2086666240	44	4707
2026-01-27 00:15:10.27	115.58	15.91	-37.0	-38.8	20.6	0.00e+00	0	44	0	2094006272	44	4744
2026-01-27 00:15:11.01	115.73	15.87	-36.9	-38.8	20.7	0.00e+00	0	44	0	2098200576	44	4717
2026-01-27 00:15:12.29	115.98	15.81	-37.0	-38.9	20.6	0.00e+00	0	44	0	2105540608	44	4768
2026-01-27 00:15:13.00	116.12	15.77	-36.9	-38.7	20.7	0.00e+00	0	44	0	2108686336	44	4682
2026-01-27 00:15:14.28	116.37	15.71	-36.8	-38.7	20.7	0.00e+00	0	44	0	2116026368	44	4672
2026-01-27 00:15:15.00	116.51	15.67	-36.8	-38.6	20.8	0.00e+00	0	44	0	2120220672	44	4651
2026-01-27 00:15:16.27	116.75	15.61	-37.0	-38.8	20.6	0.00e+00	0	44	0	2127560704	44	4741
2026-01-27 00:15:17.00	116.89	15.57	-36.9	-38.8	20.7	0.00e+00	0	44	0	2131755008	44	4708
2026-01-27 00:15:18.28	117.14	15.50	-37.0	-38.8	20.6	0.00e+00	0	44	0	2139095040	44	4752
2026-01-27 00:15:19.06	117.29	15.46	-37.1	-38.9	20.5	0.00e+00	0	44	0	2143289344	44	4796
2026-01-27 00:15:20.34	117.53	15.40	-37.1	-39.0	20.4	0.00e+00	0	44	0	2150629376	45	4585
2026-01-27 00:15:21.06	117.67	15.36	-37.1	-39.0	20.4	0.00e+00	0	44	0	2154823680	45	4585
2026-01-27 00:15:22.34	117.91	15.29	-37.2	-39.1	20.3	0.00e+00	0	44	0	2162163712	45	4648
2026-01-27 00:15:23.07	118.05	15.26	-37.2	-39.1	20.4	0.00e+00	0	44	0	2165309440	45	4612
2026-01-27 00:15:24.35	118.29	15.19	-37.2	-39.1	20.3	0.00e+00	0	44	0	2172649472	45	4632
2026-01-27 00:15:25.06	118.43	15.15	-37.3	-39.2	20.3	0.00e+00	0	44	0	2176843776	45	4663
2026-01-27 00:15:26.34	118.67	15.09	-37.4	-39.3	20.2	0.00e+00	0	44	0	2184183808	45	4706
2026-01-27 00:15:27.06	118.80	15.05	-37.5	-39.4	20.1	0.00e+00	0	44	0	2188378112	45	4773
2026-01-27 00:15:28.34	119.04	14.98	-37.6	-39.6	19.9	0.00e+00	0	44	0	2195718144	45	4883
2026-01-27 00:15:29.07	119.17	14.94	-37.7	-39.7	19.8	0.00e+00	0	44	0	2199912448	46	4663
2026-01-27 00:15:30.35	119.41	14.87	-37.8	-39.8	19.8	0.00e+00	0	44	0	2206203904	46	4718
2026-01-27 00:15:31.06	119.54	14.84	-37.7	-39.7	19.9	0.00e+00	0	44	0	2210398208	46	4666
2026-01-27 00:15:32.52	119.81	14.76	-37.6	-39.6	19.9	0.00e+00	0	44	0	2218786816	46	4610
2026-01-27 00:15:33.23	119.94	14.72	-37.6	-39.5	20.0	0.00e+00	0	44	0	2222981120	46	4597
2026-01-27 00:15:34.57	120.18	14.65	-37.3	-39.2	20.2	0.00e+00	0	44	0	2230321152	46	4430
2026-01-27 00:15:35.28	120.31	14.61	-37.4	-39.2	20.2	0.00e+00	0	44	0	2234515456	46	4440
2026-01-27 00:15:36.65	120.56	14.53	-37.3	-39.1	20.3	0.00e+00	0	44	0	2241855488	46	4385
2026-01-27 00:15:37.36	120.69	14.50	-37.3	-39.1	20.3	0.00e+00	0	44	0	2246049792	46	4382
2026-01-27 00:15:38.64	120.92	14.43	-37.3	-39.2	20.3	0.00e+00	0	44	0	2253389824	46	4399
2026-01-27 00:15:39.70	121.10	14.37	-37.3	-39.2	20.3	0.00e+00	0	44	0	2259681280	46	4422
2026-01-27 00:15:40.57	121.26	14.32	-37.4	-39.2	20.3	0.00e+00	0	44	0	2263875584	46	4439
2026-01-27 00:15:41.70	121.46	14.26	-37.3	-39.2	20.3	0.00e+00	0	44	0	2270167040	46	4420
2026-01-27 00:15:42.56	121.61	14.21	-37.4	-39.3	20.2	0.00e+00	0	44	0	2275409920	46	4456
2026-01-27 00:15:43.69	121.81	14.15	-37.4	-39.3	20.2	0.00e+00	0	44	0	2281701376	46	4470
2026-01-27 00:15:44.54	121.96	14.10	-37.5	-39.4	20.1	0.00e+00	0	44	0	2286944256	46	4515
2026-01-27 00:15:45.68	122.16	14.04	-37.5	-39.3	20.2	0.00e+00	0	44	0	2293235712	46	4493
2026-01-27 00:15:46.53	122.31	13.99	-37.4	-39.3	20.2	0.00e+00	0	43	0	2297430016	46	4465
2026-01-27 00:15:47.67	122.50	13.93	-37.4	-39.3	20.2	0.00e+00	0	44	0	2303721472	46	4452
2026-01-27 00:15:48.52	122.65	13.88	-37.5	-39.4	20.1	0.00e+00	0	44	0	2308964352	46	4536
2026-01-27 00:15:49.66	122.85	13.82	-37.5	-39.4	20.1	0.00e+00	0	44	0	2315255808	46	4508
2026-01-27 00:15:50.72	123.03	13.76	-37.5	-39.4	20.1	0.00e+00	0	44	0	2321547264	46	4518
2026-01-27 00:15:51.75	123.21	13.70	-37.6	-39.5	20.1	0.00e+00	0	44	0	2326790144	46	4552
2026-01-27 00:15:52.74	123.37	13.65	-37.6	-39.5	20.0	0.00e+00	0	44	0	2333081600	46	4568
2026-01-27 00:15:53.96	123.58	13.58	-37.7	-39.6	19.9	0.00e+00	0	43	0	2339373056	46	4648
2026-01-27 00:15:54.84	123.73	13.53	-37.8	-39.7	19.8	0.00e+00	0	44	0	2344615936	46	4691
2026-01-27 00:15:55.98	123.92	13.46	-37.9	-39.8	19.8	0.00e+00	0	43	0	2350907392	46	4731
2026-01-27 00:15:56.83	124.06	13.42	-37.8	-39.8	19.7	0.00e+00	0	44	0	2356150272	46	4717
2026-01-27 00:15:57.97	124.25	13.35	-37.8	-39.8	19.7	0.00e+00	0	44	0	2361393152	46	4708
2026-01-27 00:15:58.82	124.40	13.30	-38.0	-39.9	19.6	0.00e+00	0	44	0	2366636032	46	4794
2026-01-27 00:15:59.95	124.58	13.24	-37.9	-39.8	19.7	0.00e+00	0	44	0	2372927488	46	4735
2026-01-27 00:16:00.81	124.73	13.19	-37.9	-39.8	19.8	0.00e+00	0	44	0	2378170368	46	4724
2026-01-27 00:16:01.94	124.91	13.13	-37.9	-39.9	19.7	0.00e+00	0	44	0	2384461824	46	4769
2026-01-27 00:16:02.79	125.05	13.08	-38.0	-40.0	19.6	0.00e+00	0	44	0	2388656128	46	4836
2026-01-27 00:16:03.93	125.24	13.01	-38.1	-40.1	19.5	0.00e+00	0	44	0	2395996160	47	4626
2026-01-27 00:16:04.79	125.38	12.96	-38.1	-40.0	19.5	0.00e+00	0	44	0	2400190464	47	4587
2026-01-27 00:16:06.08	125.59	12.89	-38.0	-39.9	19.6	0.00e+00	0	44	0	2407530496	47	4524
2026-01-27 00:16:06.79	125.70	12.85	-38.0	-40.0	19.5	0.00e+00	0	44	0	2411724800	47	4573
2026-01-27 00:16:08.26	125.94	12.76	-38.0	-40.0	19.6	0.00e+00	0	44	0	2420113408	47	4552
2026-01-27 00:16:08.97	126.05	12.72	-38.0	-39.9	19.7	0.00e+00	0	44	0	2423259136	47	4515
2026-01-27 00:16:10.25	126.26	12.65	-38.0	-39.9	19.7	0.00e+00	0	44	0	2430599168	47	4512
2026-01-27 00:16:11.30	126.42	12.59	-37.9	-39.8	19.7	0.00e+00	0	44	0	2436890624	47	4471
2026-01-27 00:16:12.16	126.56	12.54	-37.9	-39.8	19.7	0.00e+00	0	43	0	2442133504	47	4489
2026-01-27 00:16:13.30	126.74	12.47	-37.8	-39.7	19.8	0.00e+00	0	44	0	2448424960	47	4421
2026-01-27 00:16:14.15	126.87	12.42	-37.9	-39.9	19.7	0.00e+00	0	44	0	2452619264	47	4497
2026-01-27 00:16:15.30	127.05	12.36	-37.9	-39.8	19.7	0.00e+00	0	44	0	2459959296	47	4466
2026-01-27 00:16:16.15	127.18	12.31	-37.9	-39.9	19.7	0.00e+00	0	44	0	2464153600	47	4496
2026-01-27 00:16:17.29	127.36	12.24	-37.8	-39.8	19.7	0.00e+00	0	44	0	2470445056	47	4443
2026-01-27 00:16:18.14	127.49	12.19	-37.9	-39.8	19.7	0.00e+00	0	44	0	2475687936	47	4492
2026-01-27 00:16:19.41	127.69	12.12	-38.0	-39.9	19.6	0.00e+00	0	44	0	2483027968	47	4540
2026-01-27 00:16:20.21	127.81	12.07	-38.1	-40.0	19.5	0.00e+00	0	43	0	2487222272	47	4568
2026-01-27 00:16:21.35	127.99	12.01	-37.9	-39.8	19.7	0.00e+00	0	44	0	2493513728	47	4475
2026-01-27 00:16:22.20	128.12	11.96	-37.9	-39.8	19.7	0.00e+00	0	44	0	2498756608	47	4478
2026-01-27 00:16:23.34	128.29	11.89	-37.9	-39.9	19.6	0.00e+00	0	44	0	2505048064	47	4497
2026-01-27 00:16:24.19	128.42	11.84	-37.9	-39.9	19.6	0.00e+00	0	43	0	2509242368	47	4510
2026-01-27 00:16:25.60	128.63	11.76	-38.0	-40.0	19.5	0.00e+00	0	44	0	2517630976	47	4576
2026-01-27 00:16:26.31	128.74	11.72	-38.0	-40.0	19.5	0.00e+00	0	44	0	2521825280	47	4558
2026-01-27 00:16:27.59	128.93	11.64	-38.0	-40.0	19.5	0.00e+00	0	44	0	2529165312	47	4556
2026-01-27 00:16:28.30	129.03	11.60	-38.1	-40.0	19.4	0.00e+00	0	44	0	2532311040	47	4593
2026-01-27 00:16:29.58	129.22	11.53	-38.1	-40.1	19.4	0.00e+00	0	44	0	2539651072	47	4607
2026-01-27 00:16:30.32	129.33	11.48	-38.2	-40.2	19.3	0.00e+00	0	44	0	2543845376	47	4665
2026-01-27 00:16:31.61	129.52	11.41	-38.2	-40.2	19.3	0.00e+00	0	44	0	2551185408	47	4668
2026-01-27 00:16:32.32	129.63	11.37	-38.3	-40.3	19.2	0.00e+00	0	44	0	2555379712	47	4725
2026-01-27 00:16:33.60	129.81	11.29	-38.4	-40.4	19.2	0.00e+00	0	44	0	2562719744	47	4779
2026-01-27 00:16:34.31	129.92	11.25	-38.5	-40.5	19.1	0.00e+00	0	44	0	2565865472	47	4826
2026-01-27 00:16:35.59	130.10	11.17	-38.6	-40.6	19.0	0.00e+00	0	44	0	2573205504	47	4881
2026-01-27 00:16:36.30	130.20	11.13	-38.6	-40.6	18.9	0.00e+00	0	44	0	2577399808	47	4910
2026-01-27 00:16:37.58	130.39	11.06	-38.6	-40.6	18.9	0.00e+00	0	44	0	2584739840	47	4908
2026-01-27 00:16:38.30	130.49	11.02	-38.6	-40.6	18.9	0.00e+00	0	44	0	2588934144	47	4920
2026-01-27 00:16:39.58	130.67	10.94	-38.6	-40.6	18.9	0.00e+00	0	44	0	2596274176	47	4907
2026-01-27 00:16:40.29	130.77	10.90	-38.5	-40.5	19.0	0.00e+00	0	44	0	2600468480	47	4858
2026-01-27 00:16:41.57	130.95	10.82	-38.5	-40.5	19.0	0.00e+00	0	44	0	2606759936	47	4855
2026-01-27 00:16:42.28	131.05	10.78	-38.6	-40.6	19.0	0.00e+00	0	44	0	2610954240	47	4871
2026-01-27 00:16:43.56	131.23	10.71	-38.5	-40.4	19.1	0.00e+00	0	44	0	2618294272	47	4799
2026-01-27 00:16:44.27	131.33	10.67	-38.5	-40.5	19.1	0.00e+00	0	44	0	2622488576	47	4845
2026-01-27 00:16:45.55	131.51	10.59	-38.5	-40.5	19.1	0.00e+00	0	44	0	2629828608	47	4832
2026-01-27 00:16:46.26	131.61	10.55	-38.5	-40.5	19.1	0.00e+00	0	44	0	2634022912	47	4832
2026-01-27 00:16:47.54	131.79	10.47	-38.6	-40.6	18.9	0.00e+00	0	44	0	2641362944	47	4904
2026-01-27 00:16:48.25	131.88	10.43	-38.6	-40.6	19.0	0.00e+00	0	44	0	2644508672	47	4878
2026-01-27 00:16:49.75	132.09	10.34	-38.7	-40.7	18.8	0.00e+00	0	44	0	2652897280	47	4946
2026-01-27 00:16:50.46	132.19	10.30	-38.8	-40.8	18.9	0.00e+00	0	44	0	2657091584	48	4746
2026-01-27 00:16:51.74	132.36	10.23	-39.0	-41.0	18.7	0.00e+00	0	44	0	2664431616	48	4841
2026-01-27 00:16:52.45	132.46	10.18	-39.0	-41.1	18.7	0.00e+00	0	44	0	2668625920	48	4879
2026-01-27 00:16:53.73	132.63	10.11	-39.1	-41.2	18.6	0.00e+00	0	44	0	2675965952	48	4944
2026-01-27 00:16:54.44	132.73	10.07	-39.2	-41.2	18.5	0.00e+00	0	44	0	2680160256	49	4703
2026-01-27 00:16:55.72	132.90	9.99	-39.1	-41.1	18.6	0.00e+00	0	44	0	2687500288	49	4647
2026-01-27 00:16:56.45	132.99	9.95	-39.1	-41.2	18.6	0.00e+00	0	44	0	2690646016	49	4670
2026-01-27 00:16:57.72	133.16	9.87	-39.2	-41.2	18.6	0.00e+00	0	43	0	2697986048	49	4675
2026-01-27 00:16:58.50	133.27	9.83	-39.3	-41.3	18.4	0.00e+00	0	44	0	2702180352	49	4742
2026-01-27 00:16:59.78	133.43	9.75	-39.3	-41.3	18.4	0.00e+00	0	44	0	2709520384	49	4756
2026-01-27 00:17:00.49	133.53	9.71	-39.2	-41.2	18.5	0.00e+00	0	44	0	2713714688	49	4675
2026-01-27 00:17:01.77	133.70	9.64	-39.2	-41.3	18.5	0.00e+00	0	44	0	2721054720	49	4722
2026-01-27 00:17:02.67	133.81	9.58	-39.2	-41.2	18.6	0.00e+00	0	44	0	2726297600	49	4668
2026-01-27 00:17:04.01	133.99	9.51	-39.2	-41.3	18.5	0.00e+00	0	44	0	2733637632	49	4717
2026-01-27 00:17:04.72	134.08	9.46	-39.2	-41.2	18.6	0.00e+00	0	44	0	2737831936	49	4677
2026-01-27 00:17:06.00	134.24	9.39	-39.4	-41.4	18.3	0.00e+00	0	44	0	2745171968	49	4792
2026-01-27 00:17:06.72	134.34	9.35	-39.3	-41.4	18.4	0.00e+00	0	44	0	2748317696	49	4765
2026-01-27 00:17:07.99	134.50	9.27	-39.2	-41.3	18.5	0.00e+00	0	44	0	2755657728	49	4709
2026-01-27 00:17:08.72	134.59	9.23	-39.3	-41.4	18.4	0.00e+00	0	44	0	2759852032	49	4763
2026-01-27 00:17:09.99	134.75	9.15	-39.4	-41.4	18.3	0.00e+00	0	44	0	2767192064	49	4798
2026-01-27 00:17:10.72	134.84	9.11	-39.4	-41.5	18.2	0.00e+00	0	44	0	2771386368	49	4831
2026-01-27 00:17:12.00	135.00	9.04	-39.5	-41.5	18.2	0.00e+00	0	44	0	2778726400	49	4853
2026-01-27 00:17:12.71	135.09	8.99	-43.9	-46.9	13.4	0.00e+00	0	44	0	2781872128	58	5376
2026-01-27 00:17:13.98	135.25	8.92	-49.3	-61.6	3.8	8.46e-01	0	44	104	2782920704	69	15530
2026-01-27 00:17:14.71	135.34	8.88	-49.5	-61.7	3.8	8.48e-01	0	44	104	2782920704	69	15633
2026-01-27 00:17:15.98	135.50	8.80	-49.7	-61.8	3.8	8.46e-01	0	44	104	2782920704	70	14970
2026-01-27 00:17:16.70	135.59	8.76	-49.6	-61.8	3.8	8.47e-01	0	44	104	2782920704	70	14997
2026-01-27 00:17:17.97	135.74	8.69	-49.8	-61.9	3.8	8.47e-01	0	44	104	2782920704	70	15107
2026-01-27 00:17:18.68	135.83	8.65	-49.8	-61.9	3.8	8.46e-01	0	44	104	2782920704	70	15195
2026-01-27 00:17:19.96	135.99	8.57	-49.8	-61.9	3.8	8.45e-01	0	44	104	2782920704	70	15200
2026-01-27 00:17:20.68	136.07	8.53	-49.8	-62.0	3.8	8.47e-01	0	44	104	2782920704	70	15326
2026-01-27 00:17:21.96	136.23	8.45	-49.8	-62.0	3.8	8.47e-01	0	44	104	2782920704	70	15306
2026-01-27 00:17:22.67	136.31	8.41	-49.9	-62.0	3.8	8.46e-01	0	44	104	2782920704	70	15297
2026-01-27 00:17:23.95	136.47	8.34	-49.8	-62.0	3.8	8.47e-01	0	44	104	2782920704	70	15368
2026-01-27 00:17:24.66	136.55	8.30	-49.6	-62.0	3.8	8.47e-01	0	44	104	2782920704	70	15377
2026-01-27 00:17:25.93	136.70	8.22	-49.9	-62.0	3.8	8.48e-01	0	44	104	2782920704	70	15382
2026-01-27 00:17:26.66	136.79	8.18	-49.8	-62.0	3.8	8.46e-01	0	44	104	2782920704	70	15375
2026-01-27 00:17:27.93	136.94	8.11	-49.8	-62.0	3.8	8.47e-01	0	44	104	2782920704	70	15378
2026-01-27 00:17:28.64	137.02	8.06	-49.3	-62.0	3.8	8.47e-01	0	44	104	2782920704	70	15335
2026-01-27 00:17:29.92	137.17	7.99	-49.5	-62.0	3.8	8.47e-01	0	44	104	2782920704	70	15335
2026-01-27 00:17:30.63	137.26	7.95	-49.5	-62.0	3.8	8.46e-01	0	44	104	2782920704	70	15355
2026-01-27 00:17:31.91	137.41	7.87	-49.5	-62.0	3.8	8.46e-01	0	44	104	2782920704	70	15348
2026-01-27 00:17:32.63	137.49	7.83	-49.5	-62.0	3.8	8.46e-01	0	44	104	2782920704	70	15369
2026-01-27 00:17:33.91	137.64	7.76	-49.6	-62.0	3.8	8.47e-01	0	44	104	2782920704	70	15318
2026-01-27 00:17:34.62	137.72	7.72	-49.6	-62.0	3.8	8.47e-01	0	44	104	2782920704	70	15343
2026-01-27 00:17:35.89	137.86	7.64	-49.6	-62.0	3.8	8.47e-01	0	44	104	2782920704	70	15346
2026-01-27 00:17:36.60	137.95	7.60	-49.6	-62.0	3.8	8.46e-01	0	44	104	2782920704	70	15347
2026-01-27 00:17:37.88	138.09	7.53	-49.5	-62.0	3.8	8.48e-01	0	44	104	2782920704	70	15302
2026-01-27 00:17:38.59	138.17	7.49	-49.6	-62.0	3.8	8.47e-01	0	44	104	2782920704	70	15308
2026-01-27 00:17:39.87	138.32	7.41	-49.5	-62.0	3.8	8.48e-01	0	44	104	2782920704	70	15295
2026-01-27 00:17:40.58	138.40	7.37	-49.5	-62.0	3.8	8.47e-01	0	44	104	2782920704	70	15263
2026-01-27 00:17:41.85	138.54	7.30	-49.5	-62.0	3.8	8.47e-01	0	44	104	2782920704	70	15307
2026-01-27 00:17:42.56	138.62	7.26	-49.5	-62.0	3.8	8.46e-01	0	44	104	2782920704	70	15316
2026-01-27 00:17:43.84	138.76	7.18	-49.5	-62.0	3.8	8.47e-01	0	44	104	2782920704	70	15262
2026-01-27 00:17:44.58	138.84	7.14	-49.5	-62.0	3.8	8.47e-01	0	44	104	2782920704	70	15287
2026-01-27 00:17:45.86	138.98	7.07	-49.5	-62.0	3.8	8.46e-01	0	44	104	2782920704	70	15253
2026-01-27 00:17:46.57	139.06	7.03	-49.5	-62.0	3.8	8.48e-01	0	44	104	2782920704	70	15260
2026-01-27 00:17:47.86	139.20	6.95	-49.5	-62.0	3.8	8.47e-01	0	44	104	2782920704	70	15256
2026-01-27 00:17:48.57	139.28	6.91	-49.5	-62.0	3.8	8.46e-01	0	44	104	2782920704	70	15242
2026-01-27 00:17:49.85	139.42	6.84	-49.5	-62.0	3.8	8.48e-01	0	44	104	2782920704	70	15262
2026-01-27 00:17:50.56	139.49	6.80	-49.5	-62.0	3.8	8.46e-01	0	44	104	2782920704	70	15228
2026-01-27 00:17:51.83	139.63	6.73	-49.5	-62.0	3.8	8.47e-01	0	44	104	2782920704	70	15243
2026-01-27 00:17:52.54	139.71	6.68	-49.5	-62.0	3.8	8.48e-01	0	44	104	2782920704	70	15262
2026-01-27 00:17:53.82	139.84	6.61	-49.5	-62.0	3.8	8.47e-01	0	44	104	2782920704	70	15241
2026-01-27 00:17:54.53	139.92	6.57	-49.5	-62.0	3.8	8.48e-01	0	44	104	2782920704	70	15264
2026-01-27 00:17:55.81	140.06	6.50	-49.5	-61.9	3.8	8.46e-01	0	44	104	2782920704	70	15210
2026-01-27 00:17:56.53	140.13	6.46	-49.5	-62.0	3.8	8.46e-01	0	44	104	2782920704	70	15252
2026-01-27 00:17:57.81	140.27	6.38	-49.5	-62.0	3.8	8.47e-01	0	44	104	2782920704	70	15253
2026-01-27 00:17:58.52	140.34	6.34	-49.5	-61.9	3.8	8.48e-01	0	44	104	2782920704	70	15183
2026-01-27 00:17:59.80	140.48	6.27	-49.5	-61.9	3.8	8.46e-01	0	44	104	2782920704	70	15186
2026-01-27 00:18:00.51	140.55	6.23	-49.5	-62.0	3.8	8.47e-01	0	44	104	2782920704	70	15268
2026-01-27 00:18:01.78	140.68	6.16	-49.5	-62.0	3.8	8.47e-01	0	44	104	2782920704	70	15283
2026-01-27 00:18:02.51	140.76	6.12	-49.5	-62.0	3.8	8.48e-01	0	44	104	2782920704	70	15247
2026-01-27 00:18:03.79	140.89	6.04	-49.5	-62.0	3.8	8.47e-01	0	44	104	2782920704	70	15266
2026-01-27 00:18:04.50	140.96	6.00	-49.5	-61.9	3.8	8.46e-01	0	44	104	2782920704	70	15222
2026-01-27 00:18:05.79	141.09	5.93	-49.5	-62.0	3.8	8.47e-01	0	44	104	2782920704	70	15229
2026-01-27 00:18:06.50	141.17	5.89	-49.5	-62.0	3.8	8.47e-01	0	44	104	2782920704	70	15230
2026-01-27 00:18:07.77	141.29	5.82	-49.5	-62.0	3.8	8.47e-01	0	44	104	2782920704	70	15241
2026-01-27 00:18:08.50	141.37	5.78	-49.5	-62.0	3.8	8.48e-01	0	44	104	2782920704	70	15277
2026-01-27 00:18:09.78	141.50	5.70	-49.5	-62.0	3.8	8.48e-01	0	44	104	2782920704	70	15235
2026-01-27 00:18:10.48	141.57	5.67	-49.5	-62.0	3.8	8.48e-01	0	44	104	2782920704	70	15268
2026-01-27 00:18:11.78	141.70	5.59	-49.5	-62.0	3.8	8.47e-01	0	44	104	2782920704	70	15255
2026-01-27 00:18:12.49	141.77	5.55	-49.5	-61.9	3.8	8.46e-01	0	44	104	2782920704	70	15217
2026-01-27 00:18:13.77	141.90	5.48	-49.5	-61.9	3.8	8.46e-01	0	44	104	2782920704	70	15210
2026-01-27 00:18:14.48	141.97	5.44	-49.5	-61.9	3.8	8.47e-01	0	44	104	2782920704	70	15187
2026-01-27 00:18:15.75	142.09	5.37	-49.5	-61.9	3.8	8.47e-01	0	44	104	2782920704	70	15205
2026-01-27 00:18:16.48	142.16	5.33	-49.5	-61.9	3.8	8.48e-01	0	44	104	2782920704	70	15205
2026-01-27 00:18:17.76	142.29	5.26	-49.5	-61.9	3.8	8.47e-01	0	44	104	2782920704	70	15197
2026-01-27 00:18:18.46	142.36	5.22	-49.5	-62.0	3.8	8.47e-01	0	44	104	2782920704	70	15249
2026-01-27 00:18:19.74	142.48	5.14	-49.5	-62.0	3.8	8.47e-01	0	44	104	2782920704	70	15270
2026-01-27 00:18:20.47	142.55	5.10	-49.5	-62.0	3.8	8.46e-01	0	44	104	2782920704	70	15234
2026-01-27 00:18:21.74	142.67	5.03	-49.5	-61.9	3.8	8.47e-01	0	44	104	2782920704	70	15196
2026-01-27 00:18:22.45	142.74	4.99	-49.5	-61.9	3.8	8.47e-01	0	44	104	2782920704	70	15170

#Closed at: 2026-01-27 00:18:23
#Recorded file [2782 MB]: D:/Data/31040_260127_030751.dat