passes_logs/2026/01/27/T1/T1__20260127_222159_NOAA_21_JPSS-2_rec.log

#Pass ID: 20260127_222159_NOAA 21 (JPSS-2)
#Satellite: NOAA 21 (JPSS-2)
#Configuration: NOAA 21
#almurnet v.1.7.20251203
#Start time: 2026-01-27 22:22:00

#Version: 2.0.20230620
#Station: T1
#Location: 37.570604 lon 55.790049 lat
#TLE: 1 54234U 22150A   26027.41809747  .00000179  00000+0  10565-3 0  9991
#TLE: 2 54234  98.7510 328.1683 0000854 205.0798 155.0336 14.19540145166571

#Time	Az	El	Level	Level2	SNR	BER	BlckErr	Temp	State	Recorded	gain1	gain2
2026-01-27 22:22:00.19	27.41	5.04	-50.0	-63.3	3.8	1.49e+00	0	40	0	0	71	16782
2026-01-27 22:22:01.18	27.48	5.10	-50.2	-63.3	3.8	1.49e+00	0	40	104	0	72	15920
2026-01-27 22:22:02.17	27.56	5.16	-50.3	-63.4	3.8	1.49e+00	0	40	104	0	72	15998
2026-01-27 22:22:03.17	27.64	5.23	-50.2	-63.4	3.8	1.49e+00	0	40	104	0	72	15957
2026-01-27 22:22:04.16	27.71	5.29	-50.4	-63.4	3.8	1.49e+00	0	40	104	0	72	15993
2026-01-27 22:22:05.15	27.79	5.35	-50.4	-63.4	3.8	1.49e+00	0	40	104	0	72	16055
2026-01-27 22:22:06.14	27.87	5.41	-50.3	-63.4	3.8	1.49e+00	0	40	104	0	72	16026
2026-01-27 22:22:07.14	27.95	5.47	-50.3	-63.4	3.8	1.49e+00	0	40	104	0	72	15951
2026-01-27 22:22:08.13	28.03	5.53	-50.4	-63.4	3.8	1.49e+00	0	40	104	0	72	15979
2026-01-27 22:22:09.12	28.10	5.59	-50.3	-63.4	3.8	1.49e+00	0	40	104	0	72	15975
2026-01-27 22:22:10.12	28.18	5.66	-50.3	-63.4	3.8	1.49e+00	0	40	104	0	72	15946
2026-01-27 22:22:11.11	28.26	5.72	-50.3	-63.3	3.8	1.49e+00	0	40	104	0	72	15912
2026-01-27 22:22:12.10	28.34	5.78	-50.2	-63.3	3.8	1.49e+00	0	40	104	0	72	15816
2026-01-27 22:22:13.10	28.42	5.84	-50.2	-63.3	3.8	1.49e+00	0	40	104	0	72	15796
2026-01-27 22:22:14.09	28.50	5.91	-50.2	-63.2	3.8	1.49e+00	0	40	104	0	72	15668
2026-01-27 22:22:15.08	28.58	5.97	-50.0	-63.1	3.8	1.49e+00	0	40	104	0	72	15545
2026-01-27 22:22:16.08	28.67	6.03	-49.7	-63.0	3.8	1.49e+00	0	40	104	0	71	16249
2026-01-27 22:22:17.07	28.75	6.09	-49.7	-62.9	3.8	1.49e+00	0	40	104	0	71	16098
2026-01-27 22:22:18.06	28.83	6.15	-49.1	-62.8	3.8	1.49e+00	0	40	104	0	70	16832
2026-01-27 22:22:19.05	28.91	6.22	-48.9	-62.6	3.8	1.49e+00	0	40	104	0	69	17447
2026-01-27 22:22:20.05	28.99	6.28	-48.9	-62.6	3.8	1.49e+00	0	40	104	0	69	17422
2026-01-27 22:22:21.04	29.07	6.34	-48.9	-62.6	3.8	1.49e+00	0	41	104	0	69	17471
2026-01-27 22:22:22.03	29.16	6.41	-48.9	-62.6	3.8	1.49e+00	0	41	104	0	69	17449
2026-01-27 22:22:23.03	29.24	6.47	-48.9	-62.7	3.8	1.49e+00	0	41	104	0	69	17496
2026-01-27 22:22:24.02	29.32	6.53	-48.9	-62.7	3.8	1.49e+00	0	41	104	0	69	17548
2026-01-27 22:22:25.01	29.41	6.60	-48.9	-62.7	3.8	1.49e+00	0	41	104	0	69	17503
2026-01-27 22:22:26.01	29.49	6.66	-48.9	-62.7	3.8	1.49e+00	0	41	104	0	69	17520
2026-01-27 22:22:27.00	29.58	6.72	-48.9	-62.7	3.8	1.49e+00	0	41	104	0	69	17489
2026-01-27 22:22:27.99	29.66	6.79	-48.9	-62.6	3.8	1.49e+00	0	41	104	0	69	17436
2026-01-27 22:22:28.98	29.75	6.85	-48.8	-62.6	3.8	1.49e+00	0	41	104	0	69	17389
2026-01-27 22:22:29.98	29.83	6.92	-48.8	-62.5	3.8	1.49e+00	0	41	104	0	69	17261
2026-01-27 22:22:30.97	29.92	6.98	-48.8	-62.5	3.8	1.49e+00	0	41	104	0	69	17125
2026-01-27 22:22:31.96	30.01	7.04	-48.8	-62.5	3.8	1.49e+00	0	41	104	0	69	17103
2026-01-27 22:22:32.95	30.09	7.11	-48.8	-62.4	3.8	1.49e+00	0	41	104	0	69	16987
2026-01-27 22:22:33.95	30.18	7.17	-48.8	-62.4	3.8	1.49e+00	0	41	104	0	69	16901
2026-01-27 22:22:34.94	30.27	7.24	-48.8	-62.2	3.8	1.49e+00	0	41	104	0	69	16672
2026-01-27 22:22:35.93	30.36	7.30	-48.8	-62.2	3.8	1.49e+00	0	41	104	0	69	16537
2026-01-27 22:22:36.93	30.44	7.37	-48.8	-62.0	3.8	1.49e+00	0	41	104	0	69	16275
2026-01-27 22:22:37.92	30.53	7.43	-48.8	-61.9	3.8	1.49e+00	0	41	104	0	69	16077
2026-01-27 22:22:38.91	30.62	7.50	-48.8	-61.9	3.8	1.49e+00	0	41	104	0	69	16082
2026-01-27 22:22:39.91	30.71	7.56	-48.8	-62.0	3.8	1.49e+00	0	41	104	0	69	16149
2026-01-27 22:22:40.90	30.80	7.63	-48.8	-62.1	3.8	1.49e+00	0	41	104	0	69	16344
2026-01-27 22:22:41.89	30.89	7.69	-48.8	-62.2	3.8	1.49e+00	0	41	104	0	69	16647
2026-01-27 22:22:42.88	30.98	7.76	-48.8	-62.4	3.8	1.49e+00	0	41	104	0	69	17010
2026-01-27 22:22:43.88	31.07	7.82	-48.8	-62.5	3.8	1.49e+00	0	41	104	0	69	17191
2026-01-27 22:22:44.87	31.16	7.89	-48.8	-62.6	3.8	1.49e+00	0	41	104	0	69	17351
2026-01-27 22:22:45.86	31.26	7.95	-48.8	-62.6	3.8	1.49e+00	0	41	104	0	69	17440
2026-01-27 22:22:46.86	31.35	8.02	-48.9	-62.7	3.8	1.49e+00	0	41	104	0	69	17497
2026-01-27 22:22:47.85	31.44	8.08	-48.9	-62.7	3.8	1.49e+00	0	41	104	0	69	17505
2026-01-27 22:22:48.84	31.53	8.15	-48.9	-62.7	3.8	1.49e+00	0	41	104	0	69	17541
2026-01-27 22:22:49.84	31.63	8.22	-48.9	-62.7	3.8	1.49e+00	0	41	104	0	69	17500
2026-01-27 22:22:50.83	31.72	8.28	-48.9	-62.6	3.8	1.49e+00	0	41	104	0	69	17445
2026-01-27 22:22:51.82	31.81	8.35	-48.8	-62.7	3.8	1.49e+00	0	41	104	0	69	17525
2026-01-27 22:22:52.81	31.91	8.42	-48.8	-62.6	3.8	1.49e+00	0	41	104	0	69	17446
2026-01-27 22:22:53.81	32.00	8.48	-48.8	-62.6	3.8	1.49e+00	0	41	104	0	69	17358
2026-01-27 22:22:54.80	32.10	8.55	-48.8	-62.5	3.8	1.49e+00	0	41	104	0	69	17096
2026-01-27 22:22:55.79	32.19	8.62	-48.8	-62.2	3.8	1.49e+00	0	41	104	0	69	16606
2026-01-27 22:22:56.79	32.29	8.68	-48.8	-61.8	3.8	1.49e+00	0	41	104	0	69	15891
2026-01-27 22:22:57.78	32.39	8.75	-48.7	-61.1	3.8	1.49e+00	0	41	104	0	69	14700
2026-01-27 22:22:58.77	32.48	8.82	-48.6	-59.7	3.9	1.48e+00	0	41	104	0	69	12469
2026-01-27 22:22:59.77	32.58	8.88	-48.4	-58.7	4.0	1.37e+00	0	42	104	0	68	11729
2026-01-27 22:23:00.76	32.68	8.95	-48.1	-56.1	5.6	5.55e-01	0	42	0	0	68	8682
2026-01-27 22:23:01.75	32.78	9.02	-47.5	-54.2	7.0	1.91e-01	0	42	0	0	67	7435
2026-01-27 22:23:02.74	32.88	9.09	-46.9	-51.9	9.3	3.76e-02	0	42	0	0	65	6368
2026-01-27 22:23:03.74	32.98	9.15	-49.0	-60.4	3.8	1.67e-01	0	42	104	0	68	14344
2026-01-27 22:23:04.73	33.08	9.22	-46.0	-49.9	11.4	2.91e-01	0	42	0	0	63	5688
2026-01-27 22:23:05.72	33.18	9.29	-47.5	-52.8	8.6	8.87e-03	0	42	0	0	65	7061
2026-01-27 22:23:06.72	33.28	9.36	-43.8	-46.4	14.9	1.21e-02	0	42	0	0	59	4783
2026-01-27 22:23:07.71	33.38	9.43	-42.5	-44.8	16.5	0.00e+00	0	42	0	0	56	4734
2026-01-27 22:23:08.70	33.48	9.49	-42.1	-44.2	17.0	0.00e+00	0	42	0	0	56	4434
2026-01-27 22:23:09.70	33.58	9.56	-41.5	-43.6	17.5	0.00e+00	0	42	0	0	54	4625
2026-01-27 22:23:10.69	33.68	9.63	-41.8	-43.9	17.2	0.00e+00	0	42	0	0	54	4772
2026-01-27 22:23:11.68	33.79	9.70	-41.6	-43.6	17.5	0.00e+00	0	42	0	0	54	4642
2026-01-27 22:23:12.67	33.89	9.77	-41.5	-43.5	17.6	0.00e+00	0	42	0	0	54	4575
2026-01-27 22:23:13.67	33.99	9.84	-41.7	-43.7	17.4	0.00e+00	0	42	0	0	54	4668
2026-01-27 22:23:14.66	34.10	9.91	-41.5	-43.5	17.6	0.00e+00	0	42	0	0	54	4547
2026-01-27 22:23:15.65	34.20	9.98	-41.4	-43.4	17.7	0.00e+00	0	42	0	0	54	4522
2026-01-27 22:23:16.65	34.31	10.05	-41.3	-43.2	17.9	0.00e+00	0	42	0	0	54	4434
2026-01-27 22:23:17.64	34.41	10.11	-41.2	-43.1	18.0	0.00e+00	0	42	0	0	54	4385
2026-01-27 22:23:18.63	34.52	10.18	-41.2	-43.2	18.0	0.00e+00	0	42	0	0	54	4403
2026-01-27 22:23:19.62	34.63	10.25	-41.1	-43.0	18.1	0.00e+00	0	42	0	0	54	4338
2026-01-27 22:23:20.62	34.73	10.32	-41.1	-43.1	18.1	0.00e+00	0	42	0	0	54	4346
2026-01-27 22:23:21.61	34.84	10.39	-41.1	-43.0	18.1	0.00e+00	0	42	0	0	54	4339
2026-01-27 22:23:22.60	34.95	10.46	-41.0	-42.9	18.2	0.00e+00	0	41	0	0	54	4289
2026-01-27 22:23:23.60	35.06	10.53	-41.2	-43.1	18.0	0.00e+00	0	42	0	0	54	4373
2026-01-27 22:23:24.59	35.17	10.60	-41.1	-43.0	18.1	0.00e+00	0	42	0	0	54	4300
2026-01-27 22:23:25.58	35.28	10.67	-41.1	-43.0	18.1	0.00e+00	0	42	0	0	54	4301
2026-01-27 22:23:26.57	35.39	10.74	-41.0	-42.9	18.2	0.00e+00	0	42	0	0	54	4283
2026-01-27 22:23:27.57	35.50	10.81	-41.0	-42.9	18.3	0.00e+00	0	42	0	0	53	4499
2026-01-27 22:23:28.56	35.61	10.88	-41.0	-43.0	18.1	0.00e+00	0	42	0	0	53	4553
2026-01-27 22:23:29.55	35.72	10.95	-40.9	-42.9	18.3	0.00e+00	0	42	0	0	53	4497
2026-01-27 22:23:30.55	35.83	11.03	-40.8	-42.7	18.4	0.00e+00	0	42	0	0	53	4435
2026-01-27 22:23:31.54	35.94	11.10	-40.9	-42.9	18.3	0.00e+00	0	42	0	0	53	4510
2026-01-27 22:23:32.53	36.06	11.17	-40.9	-42.8	18.4	0.00e+00	0	42	0	0	53	4472
2026-01-27 22:23:33.52	36.17	11.24	-40.8	-42.7	18.4	0.00e+00	0	42	0	0	53	4437
2026-01-27 22:23:34.52	36.29	11.31	-40.8	-42.8	18.4	0.00e+00	0	42	0	0	53	4458
2026-01-27 22:23:35.51	36.40	11.38	-40.8	-42.7	18.4	0.00e+00	0	42	0	0	53	4429
2026-01-27 22:23:36.50	36.51	11.45	-40.8	-42.7	18.5	0.00e+00	0	42	0	0	53	4425
2026-01-27 22:23:37.50	36.63	11.52	-40.8	-42.7	18.5	0.00e+00	0	42	0	0	53	4408
2026-01-27 22:23:38.49	36.75	11.59	-40.7	-42.7	18.5	0.00e+00	0	42	0	0	53	4400
2026-01-27 22:23:39.48	36.86	11.67	-40.8	-42.7	18.5	0.00e+00	0	42	0	0	53	4422
2026-01-27 22:23:40.48	36.98	11.74	-40.8	-42.7	18.5	0.00e+00	0	42	0	0	53	4413
2026-01-27 22:23:41.47	37.10	11.81	-40.7	-42.6	18.6	0.00e+00	0	42	0	0	53	4349
2026-01-27 22:23:42.46	37.22	11.88	-40.7	-42.5	18.6	0.00e+00	0	42	0	0	53	4328
2026-01-27 22:23:43.45	37.34	11.95	-40.7	-42.6	18.6	0.00e+00	0	42	0	0	53	4352
2026-01-27 22:23:44.45	37.46	12.03	-40.7	-42.5	18.7	0.00e+00	0	42	0	0	53	4319
2026-01-27 22:23:45.44	37.58	12.10	-40.6	-42.5	18.7	0.00e+00	0	42	0	0	53	4294
2026-01-27 22:23:46.43	37.70	12.17	-40.5	-42.3	18.8	0.00e+00	0	42	0	0	53	4206
2026-01-27 22:23:47.43	37.82	12.24	-40.6	-42.5	18.7	0.00e+00	0	42	0	0	52	4559
2026-01-27 22:23:48.42	37.94	12.32	-40.6	-42.4	18.7	0.00e+00	0	42	0	0	52	4530
2026-01-27 22:23:49.41	38.06	12.39	-40.6	-42.4	18.7	0.00e+00	0	42	0	0	52	4542
2026-01-27 22:23:50.41	38.19	12.46	-40.6	-42.5	18.7	0.00e+00	0	42	0	0	52	4554
2026-01-27 22:23:51.40	38.31	12.54	-40.5	-42.3	18.8	0.00e+00	0	42	0	0	52	4483
2026-01-27 22:23:52.39	38.44	12.61	-40.6	-42.4	18.7	0.00e+00	0	42	0	0	52	4537
2026-01-27 22:23:53.38	38.56	12.68	-40.6	-42.4	18.7	0.00e+00	0	42	0	0	52	4523
2026-01-27 22:23:54.38	38.69	12.76	-40.5	-42.4	18.8	0.00e+00	0	42	0	0	52	4514
2026-01-27 22:23:55.37	38.81	12.83	-40.5	-42.3	18.8	0.00e+00	0	42	0	0	52	4471
2026-01-27 22:23:56.36	38.94	12.90	-40.5	-42.4	18.7	0.00e+00	0	42	0	0	52	4507
2026-01-27 22:23:57.36	39.07	12.98	-40.5	-42.4	18.8	0.00e+00	0	42	0	0	52	4502
2026-01-27 22:23:58.35	39.19	13.05	-40.5	-42.4	18.8	0.00e+00	0	42	0	0	52	4501
2026-01-27 22:23:59.34	39.32	13.12	-40.5	-42.3	18.8	0.00e+00	0	42	0	0	52	4474
2026-01-27 22:24:00.34	39.45	13.20	-40.6	-42.4	18.8	0.00e+00	0	42	0	0	52	4533
2026-01-27 22:24:01.33	39.58	13.27	-40.5	-42.3	18.9	0.00e+00	0	42	0	0	52	4464
2026-01-27 22:24:02.32	39.71	13.34	-40.4	-42.2	19.0	0.00e+00	0	42	0	0	52	4413
2026-01-27 22:24:03.31	39.84	13.42	-40.4	-42.2	18.9	0.00e+00	0	42	0	0	52	4438
2026-01-27 22:24:04.31	39.98	13.49	-40.5	-42.3	18.9	0.00e+00	0	42	0	0	52	4481
2026-01-27 22:24:05.30	40.11	13.57	-40.4	-42.2	19.0	0.00e+00	0	42	0	0	52	4434
2026-01-27 22:24:06.29	40.24	13.64	-40.4	-42.2	19.0	0.00e+00	0	42	0	0	52	4409
2026-01-27 22:24:07.29	40.38	13.72	-40.5	-42.3	18.9	0.00e+00	0	42	0	0	52	4477
2026-01-27 22:24:08.28	40.51	13.79	-40.5	-42.3	18.9	0.00e+00	0	42	0	0	52	4455
2026-01-27 22:24:09.27	40.64	13.87	-40.6	-42.4	18.8	0.00e+00	0	42	0	0	52	4545
2026-01-27 22:24:10.27	40.78	13.94	-40.6	-42.4	18.8	0.00e+00	0	42	0	0	52	4505
2026-01-27 22:24:11.26	40.92	14.02	-40.5	-42.4	18.9	0.00e+00	0	42	0	0	52	4497
2026-01-27 22:24:12.25	41.05	14.09	-40.5	-42.3	18.9	0.00e+00	0	42	0	0	52	4467
2026-01-27 22:24:13.24	41.19	14.17	-40.5	-42.3	18.9	0.00e+00	0	42	0	0	52	4471
2026-01-27 22:24:14.24	41.33	14.24	-40.6	-42.4	18.8	0.00e+00	0	42	0	0	52	4534
2026-01-27 22:24:15.23	41.47	14.32	-40.6	-42.4	18.8	0.00e+00	0	42	0	0	52	4501
2026-01-27 22:24:16.22	41.61	14.39	-40.5	-42.3	19.0	0.00e+00	0	42	0	0	52	4450
2026-01-27 22:24:17.21	41.75	14.47	-40.6	-42.4	18.8	0.00e+00	0	42	0	0	52	4528
2026-01-27 22:24:18.21	41.89	14.54	-40.5	-42.3	18.9	0.00e+00	0	42	0	0	52	4466
2026-01-27 22:24:19.20	42.03	14.62	-40.5	-42.2	19.0	0.00e+00	0	42	0	0	52	4439
2026-01-27 22:24:20.19	42.17	14.69	-40.5	-42.3	18.9	0.00e+00	0	42	0	0	52	4486
2026-01-27 22:24:21.19	42.32	14.77	-40.6	-42.4	18.8	0.00e+00	0	42	0	0	52	4503
2026-01-27 22:24:22.18	42.46	14.84	-40.6	-42.4	18.8	0.00e+00	0	42	0	0	52	4542
2026-01-27 22:24:23.17	42.60	14.92	-40.6	-42.5	18.8	0.00e+00	0	42	0	0	52	4558
2026-01-27 22:24:24.17	42.75	15.00	-40.7	-42.6	18.7	0.00e+00	0	42	0	0	52	4615
2026-01-27 22:24:25.16	42.90	15.07	-40.7	-42.6	18.7	0.00e+00	0	42	0	0	52	4614
2026-01-27 22:24:26.15	43.04	15.15	-40.8	-42.6	18.7	0.00e+00	0	42	0	0	52	4644
2026-01-27 22:24:27.14	43.19	15.22	-40.7	-42.5	18.7	0.00e+00	0	42	0	0	52	4585
2026-01-27 22:24:28.14	43.34	15.30	-40.8	-42.7	18.6	0.00e+00	0	42	0	0	52	4661
2026-01-27 22:24:29.13	43.49	15.38	-40.6	-42.5	18.8	0.00e+00	0	42	0	0	52	4554
2026-01-27 22:24:30.12	43.64	15.45	-40.5	-42.4	18.9	0.00e+00	0	42	0	0	52	4494
2026-01-27 22:24:31.12	43.79	15.53	-40.6	-42.4	18.8	0.00e+00	0	42	0	0	52	4524
2026-01-27 22:24:32.11	43.94	15.61	-40.6	-42.4	18.9	0.00e+00	0	42	0	0	52	4504
2026-01-27 22:24:33.10	44.09	15.68	-40.6	-42.4	18.9	0.00e+00	0	43	0	0	52	4523
2026-01-27 22:24:34.09	44.24	15.76	-40.6	-42.4	18.9	0.00e+00	0	42	0	0	52	4508
2026-01-27 22:24:35.09	44.40	15.84	-40.6	-42.4	18.9	0.00e+00	0	42	0	0	52	4508
2026-01-27 22:24:36.08	44.55	15.91	-40.7	-42.6	18.7	0.00e+00	0	42	0	0	52	4606
2026-01-27 22:24:37.07	44.71	15.99	-40.8	-42.6	18.7	0.00e+00	0	42	0	0	52	4638
2026-01-27 22:24:38.07	44.86	16.07	-40.7	-42.5	18.8	0.00e+00	0	42	0	0	52	4575
2026-01-27 22:24:39.06	45.02	16.14	-40.8	-42.6	18.7	0.00e+00	0	42	0	0	52	4635
2026-01-27 22:24:40.05	45.18	16.22	-40.7	-42.5	18.8	0.00e+00	0	42	0	0	52	4589
2026-01-27 22:24:41.05	45.33	16.30	-40.7	-42.5	18.7	0.00e+00	0	42	0	0	52	4591
2026-01-27 22:24:42.04	45.49	16.37	-40.8	-42.6	18.7	0.00e+00	0	42	0	0	52	4620
2026-01-27 22:24:43.03	45.65	16.45	-40.7	-42.6	18.7	0.00e+00	0	42	0	0	52	4614
2026-01-27 22:24:44.02	45.81	16.53	-40.8	-42.6	18.7	0.00e+00	0	42	0	0	52	4627
2026-01-27 22:24:45.02	45.97	16.60	-40.9	-42.8	18.5	0.00e+00	0	42	0	0	52	4727
2026-01-27 22:24:46.01	46.14	16.68	-40.8	-42.7	18.6	0.00e+00	0	42	0	0	52	4658
2026-01-27 22:24:47.00	46.30	16.76	-40.8	-42.7	18.6	0.00e+00	0	42	0	0	52	4666
2026-01-27 22:24:47.99	46.46	16.83	-40.7	-42.6	18.7	0.00e+00	0	42	0	0	52	4610
2026-01-27 22:24:48.99	46.63	16.91	-40.8	-42.7	18.6	0.00e+00	0	42	0	0	52	4678
2026-01-27 22:24:49.98	46.79	16.99	-40.8	-42.6	18.6	0.00e+00	0	42	0	0	52	4651
2026-01-27 22:24:50.97	46.96	17.07	-40.8	-42.6	18.6	0.00e+00	0	42	0	0	52	4651
2026-01-27 22:24:51.97	47.13	17.14	-40.9	-42.8	18.5	0.00e+00	0	42	0	0	52	4732
2026-01-27 22:24:52.96	47.29	17.22	-40.9	-42.8	18.5	0.00e+00	0	42	0	0	52	4730
2026-01-27 22:24:53.95	47.46	17.30	-41.0	-42.8	18.5	0.00e+00	0	42	0	0	52	4758
2026-01-27 22:24:54.94	47.63	17.37	-41.0	-42.9	18.4	0.00e+00	0	42	0	0	52	4784
2026-01-27 22:24:55.94	47.80	17.45	-41.0	-42.9	18.5	0.00e+00	0	42	0	0	52	4764
2026-01-27 22:24:56.93	47.97	17.53	-40.9	-42.8	18.5	0.00e+00	0	42	0	0	52	4730
2026-01-27 22:24:57.92	48.15	17.61	-40.9	-42.7	18.6	0.00e+00	0	42	0	0	52	4700
2026-01-27 22:24:58.92	48.32	17.68	-40.8	-42.6	18.7	0.00e+00	0	42	0	0	52	4645
2026-01-27 22:24:59.91	48.49	17.76	-40.9	-42.7	18.6	0.00e+00	0	43	0	0	52	4679
2026-01-27 22:25:00.90	48.67	17.84	-40.6	-42.5	18.8	0.00e+00	0	42	0	0	52	4555
2026-01-27 22:25:01.89	48.84	17.91	-40.6	-42.5	18.8	0.00e+00	0	42	0	0	52	4560
2026-01-27 22:25:02.89	49.02	17.99	-40.7	-42.5	18.8	0.00e+00	0	42	0	0	52	4589
2026-01-27 22:25:03.88	49.20	18.07	-40.7	-42.5	18.8	0.00e+00	0	42	0	0	52	4568
2026-01-27 22:25:04.87	49.37	18.15	-40.7	-42.6	18.7	0.00e+00	0	42	0	0	52	4626
2026-01-27 22:25:05.86	49.55	18.22	-40.7	-42.5	18.8	0.00e+00	0	42	0	0	52	4593
2026-01-27 22:25:06.86	49.73	18.30	-40.7	-42.6	18.7	0.00e+00	0	42	0	0	52	4613
2026-01-27 22:25:07.85	49.91	18.38	-40.6	-42.4	18.9	0.00e+00	0	42	0	0	52	4545
2026-01-27 22:25:08.84	50.10	18.45	-40.6	-42.5	18.9	0.00e+00	0	42	0	0	52	4548
2026-01-27 22:25:09.84	50.28	18.53	-40.6	-42.5	18.8	0.00e+00	0	42	0	0	52	4556
2026-01-27 22:25:10.83	50.46	18.61	-40.6	-42.4	18.9	0.00e+00	0	42	0	0	52	4545
2026-01-27 22:25:11.82	50.65	18.69	-40.5	-42.4	19.0	0.00e+00	0	42	0	0	52	4495
2026-01-27 22:25:12.82	50.83	18.76	-40.5	-42.4	19.0	0.00e+00	0	42	0	0	52	4495
2026-01-27 22:25:13.81	51.02	18.84	-40.4	-42.2	19.1	0.00e+00	0	42	0	0	52	4433
2026-01-27 22:25:14.80	51.21	18.92	-40.5	-42.3	19.0	0.00e+00	0	42	0	0	52	4475
2026-01-27 22:25:15.79	51.39	18.99	-40.5	-42.3	19.0	0.00e+00	0	42	0	0	52	4448
2026-01-27 22:25:16.79	51.58	19.07	-40.3	-42.1	19.2	0.00e+00	0	42	0	0	52	4377
2026-01-27 22:25:17.78	51.77	19.15	-40.4	-42.1	19.2	0.00e+00	0	42	0	0	52	4390
2026-01-27 22:25:18.77	51.96	19.22	-40.2	-42.0	19.3	0.00e+00	0	42	0	0	52	4318
2026-01-27 22:25:19.76	52.15	19.30	-40.2	-41.9	19.4	0.00e+00	0	42	0	0	52	4268
2026-01-27 22:25:20.76	52.35	19.37	-40.1	-41.9	19.4	0.00e+00	0	42	0	0	52	4261
2026-01-27 22:25:21.75	52.54	19.45	-40.2	-41.9	19.4	0.00e+00	0	42	0	0	52	4284
2026-01-27 22:25:22.74	52.74	19.53	-40.2	-41.9	19.4	0.00e+00	0	43	0	0	52	4274
2026-01-27 22:25:23.74	52.93	19.60	-40.1	-41.8	19.5	0.00e+00	0	42	0	0	52	4232
2026-01-27 22:25:24.73	53.13	19.68	-40.1	-41.8	19.5	0.00e+00	0	42	0	0	52	4242
2026-01-27 22:25:25.72	53.33	19.75	-40.1	-41.8	19.5	0.00e+00	0	42	0	0	52	4230
2026-01-27 22:25:26.72	53.53	19.83	-40.1	-41.8	19.4	0.00e+00	0	43	0	0	52	4232
2026-01-27 22:25:27.71	53.73	19.91	-40.0	-41.8	19.5	0.00e+00	0	43	0	0	52	4204
2026-01-27 22:25:28.70	53.93	19.98	-40.0	-41.8	19.5	0.00e+00	0	42	0	0	52	4199
2026-01-27 22:25:29.69	54.13	20.06	-40.1	-41.8	19.4	0.00e+00	0	43	0	0	52	4240
2026-01-27 22:25:30.69	54.33	20.13	-40.1	-41.8	19.5	0.00e+00	0	42	0	0	52	4233
2026-01-27 22:25:31.68	54.53	20.21	-40.2	-41.9	19.4	0.00e+00	0	43	0	0	52	4271
2026-01-27 22:25:32.67	54.74	20.28	-40.1	-41.9	19.5	0.00e+00	0	42	0	0	52	4265
2026-01-27 22:25:33.66	54.94	20.36	-40.2	-41.9	19.4	0.00e+00	0	42	0	0	52	4284
2026-01-27 22:25:34.66	55.15	20.43	-40.2	-42.0	19.4	0.00e+00	0	42	0	0	52	4303
2026-01-27 22:25:35.65	55.36	20.51	-40.3	-42.0	19.3	0.00e+00	0	42	0	0	52	4335
2026-01-27 22:25:36.64	55.56	20.58	-40.3	-42.0	19.3	0.00e+00	0	42	0	0	52	4325
2026-01-27 22:25:37.64	55.77	20.66	-40.2	-42.0	19.3	0.00e+00	0	42	0	0	52	4320
2026-01-27 22:25:38.63	55.98	20.73	-40.2	-42.0	19.3	0.00e+00	0	42	0	0	52	4314
2026-01-27 22:25:39.62	56.19	20.80	-40.3	-42.1	19.2	0.00e+00	0	42	0	0	52	4342
2026-01-27 22:25:40.61	56.41	20.88	-40.2	-42.0	19.3	0.00e+00	0	42	0	0	52	4308
2026-01-27 22:25:41.61	56.62	20.95	-40.2	-42.0	19.3	0.00e+00	0	43	0	0	52	4303
2026-01-27 22:25:42.60	56.83	21.03	-40.2	-42.0	19.3	0.00e+00	0	43	0	0	52	4326
2026-01-27 22:25:43.59	57.05	21.10	-40.1	-41.9	19.4	0.00e+00	0	42	0	0	52	4260
2026-01-27 22:25:44.59	57.27	21.17	-40.1	-41.8	19.5	0.00e+00	0	42	0	0	52	4223
2026-01-27 22:25:45.58	57.48	21.25	-40.0	-41.8	19.6	0.00e+00	0	42	0	0	52	4197
2026-01-27 22:25:46.57	57.70	21.32	-40.0	-41.7	19.7	0.00e+00	0	42	0	0	51	4424
2026-01-27 22:25:47.56	57.92	21.39	-40.0	-41.7	19.7	0.00e+00	0	42	0	0	51	4420
2026-01-27 22:25:48.56	58.14	21.46	-40.0	-41.7	19.7	0.00e+00	0	42	0	0	51	4413
2026-01-27 22:25:49.55	58.36	21.54	-39.9	-41.6	19.7	0.00e+00	0	42	0	0	51	4386
2026-01-27 22:25:50.54	58.58	21.61	-39.9	-41.7	19.7	0.00e+00	0	42	0	0	51	4392
2026-01-27 22:25:51.53	58.81	21.68	-39.8	-41.5	19.8	0.00e+00	0	43	0	0	51	4310
2026-01-27 22:25:52.53	59.03	21.75	-39.9	-41.6	19.6	0.00e+00	0	42	0	0	51	4364
2026-01-27 22:25:53.52	59.26	21.82	-39.9	-41.7	19.6	0.00e+00	0	42	0	0	51	4393
2026-01-27 22:25:54.51	59.48	21.89	-39.9	-41.6	19.6	0.00e+00	0	42	0	0	51	4386
2026-01-27 22:25:55.51	59.71	21.96	-39.9	-41.6	19.7	0.00e+00	0	42	0	0	51	4378
2026-01-27 22:25:56.50	59.94	22.03	-39.9	-41.6	19.7	0.00e+00	0	42	0	0	51	4383
2026-01-27 22:25:57.49	60.17	22.10	-39.9	-41.6	19.7	0.00e+00	0	43	0	0	51	4379
2026-01-27 22:25:58.49	60.40	22.17	-39.8	-41.6	19.8	0.00e+00	0	42	0	0	51	4358
2026-01-27 22:25:59.48	60.63	22.24	-39.8	-41.6	19.8	0.00e+00	0	43	0	0	51	4341
2026-01-27 22:26:00.47	60.86	22.31	-39.6	-41.3	19.9	0.00e+00	0	42	0	0	51	4219
2026-01-27 22:26:01.46	61.10	22.38	-39.6	-41.3	19.9	0.00e+00	0	42	0	0	51	4227
2026-01-27 22:26:02.46	61.33	22.45	-39.6	-41.3	19.9	0.00e+00	0	42	0	0	51	4213
2026-01-27 22:26:03.45	61.57	22.52	-39.4	-41.1	20.1	0.00e+00	0	42	0	0	50	4352
2026-01-27 22:26:04.44	61.80	22.59	-39.5	-41.2	20.0	0.00e+00	0	43	0	0	50	4400
2026-01-27 22:26:05.44	62.04	22.66	-39.6	-41.3	19.9	0.00e+00	0	42	0	0	50	4455
2026-01-27 22:26:06.43	62.28	22.72	-39.7	-41.4	19.9	0.00e+00	0	43	0	0	50	4499
2026-01-27 22:26:07.42	62.52	22.79	-39.7	-41.4	19.9	0.00e+00	0	42	0	0	50	4532
2026-01-27 22:26:08.41	62.76	22.86	-39.8	-41.5	19.8	0.00e+00	0	42	0	0	50	4567
2026-01-27 22:26:09.41	63.00	22.92	-39.8	-41.5	19.8	0.00e+00	0	42	0	0	50	4588
2026-01-27 22:26:10.40	63.25	22.99	-39.8	-41.5	19.8	0.00e+00	0	42	0	0	50	4573
2026-01-27 22:26:11.39	63.49	23.06	-39.8	-41.5	19.8	0.00e+00	0	42	0	0	50	4598
2026-01-27 22:26:12.39	63.74	23.12	-39.8	-41.5	19.8	0.00e+00	0	42	0	0	50	4553
2026-01-27 22:26:13.38	63.98	23.19	-39.7	-41.4	20.0	0.00e+00	0	42	0	0	50	4504
2026-01-27 22:26:14.37	64.23	23.25	-39.9	-41.6	19.8	0.00e+00	0	43	0	0	50	4625
2026-01-27 22:26:15.36	64.47	23.32	-39.8	-41.6	19.8	0.00e+00	0	42	0	0	50	4600
2026-01-27 22:26:16.36	64.72	23.38	-40.0	-41.7	19.6	0.00e+00	0	43	0	0	50	4674
2026-01-27 22:26:17.35	64.97	23.44	-40.1	-41.8	19.6	0.00e+00	0	42	0	0	50	4725
2026-01-27 22:26:18.34	65.22	23.51	-40.1	-41.9	19.5	0.00e+00	0	42	0	0	50	4771
2026-01-27 22:26:19.34	65.48	23.57	-40.1	-41.9	19.5	0.00e+00	0	42	0	0	51	4501
2026-01-27 22:26:20.33	65.73	23.63	-40.1	-41.9	19.6	0.00e+00	0	42	0	0	51	4504
2026-01-27 22:26:21.32	65.98	23.69	-40.0	-41.8	19.7	0.00e+00	0	42	0	0	51	4451
2026-01-27 22:26:22.31	66.24	23.76	-40.0	-41.7	19.7	0.00e+00	0	43	0	0	51	4433
2026-01-27 22:26:23.31	66.49	23.82	-40.1	-41.8	19.6	0.00e+00	0	42	0	0	51	4462
2026-01-27 22:26:24.30	66.75	23.88	-40.1	-41.8	19.5	0.00e+00	0	43	0	0	51	4491
2026-01-27 22:26:25.29	67.01	23.94	-40.1	-41.8	19.6	0.00e+00	0	42	0	0	51	4474
2026-01-27 22:26:26.28	67.27	24.00	-40.2	-41.9	19.4	0.00e+00	0	42	0	0	51	4533
2026-01-27 22:26:27.28	67.53	24.06	-40.2	-41.9	19.5	0.00e+00	0	42	0	0	51	4543
2026-01-27 22:26:28.27	67.79	24.12	-40.2	-42.0	19.5	0.00e+00	0	42	0	0	51	4549
2026-01-27 22:26:29.26	68.05	24.17	-40.1	-41.8	19.6	0.00e+00	0	42	0	0	51	4480
2026-01-27 22:26:30.26	68.31	24.23	-40.1	-41.9	19.5	0.00e+00	0	43	0	0	51	4514
2026-01-27 22:26:31.25	68.57	24.29	-40.2	-41.9	19.5	0.00e+00	0	42	0	0	51	4512
2026-01-27 22:26:32.24	68.84	24.35	-40.1	-41.8	19.6	0.00e+00	0	42	0	0	51	4493
2026-01-27 22:26:33.24	69.11	24.40	-40.1	-41.9	19.5	0.00e+00	0	42	0	0	51	4505
2026-01-27 22:26:34.23	69.37	24.46	-40.0	-41.8	19.7	0.00e+00	0	43	0	0	51	4445
2026-01-27 22:26:35.22	69.64	24.51	-40.1	-41.8	19.6	0.00e+00	0	42	0	0	51	4492
2026-01-27 22:26:36.21	69.91	24.57	-40.1	-41.8	19.5	0.00e+00	0	43	0	0	51	4492
2026-01-27 22:26:37.21	70.18	24.62	-40.2	-42.0	19.4	0.00e+00	0	42	0	0	51	4553
2026-01-27 22:26:38.20	70.45	24.68	-40.2	-41.9	19.5	0.00e+00	0	43	0	0	51	4528
2026-01-27 22:26:39.19	70.72	24.73	-40.1	-41.8	19.6	0.00e+00	0	42	0	0	51	4459
2026-01-27 22:26:40.19	70.99	24.78	-40.1	-41.8	19.6	0.00e+00	0	43	0	0	51	4478
2026-01-27 22:26:41.18	71.26	24.83	-40.0	-41.7	19.8	0.00e+00	0	42	0	0	51	4419
2026-01-27 22:26:42.17	71.53	24.89	-40.0	-41.7	19.7	0.00e+00	0	42	0	0	51	4412
2026-01-27 22:26:43.16	71.81	24.94	-40.2	-41.9	19.5	0.00e+00	0	42	0	0	51	4512
2026-01-27 22:26:44.16	72.09	24.99	-40.2	-42.0	19.4	0.00e+00	0	42	0	0	51	4567
2026-01-27 22:26:45.15	72.36	25.04	-40.2	-41.9	19.5	0.00e+00	0	42	0	0	51	4539
2026-01-27 22:26:46.14	72.64	25.09	-40.2	-41.9	19.5	0.00e+00	0	43	0	0	51	4521
2026-01-27 22:26:47.14	72.92	25.14	-40.1	-41.9	19.5	0.00e+00	0	43	0	0	51	4501
2026-01-27 22:26:48.13	73.20	25.18	-39.9	-41.6	19.8	0.00e+00	0	43	0	0	51	4350
2026-01-27 22:26:49.12	73.47	25.23	-39.7	-41.4	19.9	0.00e+00	0	42	0	0	51	4281
2026-01-27 22:26:50.12	73.76	25.28	-39.8	-41.5	19.9	0.00e+00	0	43	0	0	51	4305
2026-01-27 22:26:51.11	74.04	25.32	-39.8	-41.6	19.8	0.00e+00	0	42	0	0	51	4341
2026-01-27 22:26:52.10	74.32	25.37	-39.9	-41.6	19.7	0.00e+00	0	42	0	0	51	4351
2026-01-27 22:26:53.09	74.60	25.41	-39.9	-41.6	19.7	0.00e+00	0	43	0	0	51	4369
2026-01-27 22:26:54.09	74.89	25.46	-39.9	-41.6	19.8	0.00e+00	0	43	0	0	51	4349
2026-01-27 22:26:55.08	75.17	25.50	-40.0	-41.7	19.7	0.00e+00	0	43	0	0	51	4423
2026-01-27 22:26:56.07	75.45	25.54	-40.0	-41.7	19.6	0.00e+00	0	43	0	0	51	4435
2026-01-27 22:26:57.07	75.74	25.59	-40.0	-41.7	19.6	0.00e+00	0	43	0	0	51	4417
2026-01-27 22:26:58.06	76.03	25.63	-39.8	-41.6	19.7	0.00e+00	0	42	0	0	51	4349
2026-01-27 22:26:59.05	76.32	25.67	-39.8	-41.5	19.8	0.00e+00	0	43	0	0	51	4332
2026-01-27 22:27:00.04	76.60	25.71	-39.8	-41.5	19.8	0.00e+00	0	43	0	0	51	4309
2026-01-27 22:27:01.04	76.89	25.75	-39.9	-41.6	19.7	0.00e+00	0	43	0	0	51	4376
2026-01-27 22:27:02.03	77.18	25.79	-39.9	-41.7	19.7	0.00e+00	0	43	0	0	51	4395
2026-01-27 22:27:03.02	77.47	25.82	-39.8	-41.5	19.8	0.00e+00	0	42	0	0	51	4324
2026-01-27 22:27:04.02	77.77	25.86	-39.9	-41.6	19.8	0.00e+00	0	43	0	0	51	4371
2026-01-27 22:27:05.01	78.06	25.90	-39.9	-41.6	19.8	0.00e+00	0	43	0	0	51	4356
2026-01-27 22:27:06.00	78.35	25.93	-39.9	-41.6	19.8	0.00e+00	0	43	0	0	51	4367
2026-01-27 22:27:07.00	78.64	25.97	-39.9	-41.7	19.7	0.00e+00	0	43	0	0	51	4394
2026-01-27 22:27:07.99	78.94	26.00	-39.8	-41.5	19.8	0.00e+00	0	43	0	0	51	4334
2026-01-27 22:27:08.98	79.23	26.04	-39.7	-41.4	19.9	0.00e+00	0	43	0	0	51	4269
2026-01-27 22:27:09.97	79.52	26.07	-39.9	-41.6	19.8	0.00e+00	0	42	0	0	51	4359
2026-01-27 22:27:10.96	79.82	26.10	-39.7	-41.4	19.9	0.00e+00	0	43	0	0	51	4253
2026-01-27 22:27:11.96	80.12	26.13	-39.7	-41.4	19.9	0.00e+00	0	43	0	0	51	4283
2026-01-27 22:27:12.95	80.41	26.16	-39.7	-41.4	20.0	0.00e+00	0	43	0	0	51	4255
2026-01-27 22:27:13.94	80.71	26.19	-39.7	-41.4	20.0	0.00e+00	0	43	0	0	51	4267
2026-01-27 22:27:14.94	81.01	26.22	-39.7	-41.4	20.0	0.00e+00	0	43	0	0	51	4276
2026-01-27 22:27:15.93	81.31	26.25	-39.7	-41.5	20.0	0.00e+00	0	43	0	0	51	4300
2026-01-27 22:27:16.92	81.60	26.28	-39.7	-41.4	20.0	0.00e+00	0	43	0	0	51	4247
2026-01-27 22:27:17.91	81.90	26.30	-39.7	-41.4	19.9	0.00e+00	0	43	0	0	51	4269
2026-01-27 22:27:18.91	82.20	26.33	-39.7	-41.4	19.9	0.00e+00	0	43	0	0	51	4287
2026-01-27 22:27:19.90	82.50	26.36	-39.8	-41.5	19.8	0.00e+00	0	42	0	0	51	4338
2026-01-27 22:27:20.89	82.80	26.38	-39.9	-41.7	19.8	0.00e+00	0	42	0	0	51	4395
2026-01-27 22:27:21.89	83.11	26.40	-39.6	-41.4	20.0	0.00e+00	0	43	0	0	51	4254
2026-01-27 22:27:22.88	83.41	26.43	-39.5	-41.2	20.1	0.00e+00	0	43	0	0	51	4186
2026-01-27 22:27:23.87	83.71	26.45	-39.7	-41.4	19.9	0.00e+00	0	42	0	0	51	4255
2026-01-27 22:27:24.86	84.01	26.47	-39.6	-41.3	20.0	0.00e+00	0	42	0	0	51	4216
2026-01-27 22:27:25.86	84.32	26.49	-39.6	-41.3	20.0	0.00e+00	0	43	0	0	51	4209
2026-01-27 22:27:26.85	84.62	26.51	-39.6	-41.4	20.0	0.00e+00	0	42	0	0	51	4254
2026-01-27 22:27:27.85	84.92	26.53	-39.7	-41.4	19.9	0.00e+00	0	43	0	0	51	4270
2026-01-27 22:27:28.84	85.23	26.55	-39.7	-41.5	20.0	0.00e+00	0	43	0	0	51	4307
2026-01-27 22:27:29.83	85.53	26.56	-39.7	-41.4	20.0	0.00e+00	0	43	0	0	51	4253
2026-01-27 22:27:30.82	85.83	26.58	-39.6	-41.4	20.0	0.00e+00	0	43	0	0	51	4247
2026-01-27 22:27:31.82	86.14	26.59	-39.7	-41.4	19.9	0.00e+00	0	43	0	0	51	4271
2026-01-27 22:27:32.81	86.45	26.61	-39.7	-41.4	19.9	0.00e+00	0	43	0	0	51	4256
2026-01-27 22:27:33.80	86.75	26.62	-39.7	-41.5	19.9	0.00e+00	0	43	0	0	51	4292
2026-01-27 22:27:34.80	87.06	26.63	-39.7	-41.4	20.0	0.00e+00	0	43	0	0	51	4280
2026-01-27 22:27:35.79	87.36	26.65	-39.6	-41.3	20.0	0.00e+00	0	43	0	0	51	4239
2026-01-27 22:27:36.78	87.67	26.66	-39.5	-41.2	20.2	0.00e+00	0	43	0	0	51	4190
2026-01-27 22:27:37.78	87.98	26.67	-39.4	-41.1	20.2	0.00e+00	0	43	0	0	50	4383
2026-01-27 22:27:38.77	88.28	26.68	-39.5	-41.2	20.2	0.00e+00	0	43	0	0	50	4418
2026-01-27 22:27:39.76	88.59	26.68	-39.6	-41.2	20.1	0.00e+00	0	43	0	0	50	4438
2026-01-27 22:27:40.75	88.90	26.69	-39.5	-41.2	20.2	0.00e+00	0	42	0	0	50	4427
2026-01-27 22:27:41.75	89.21	26.70	-39.6	-41.4	20.1	0.00e+00	0	43	0	0	50	4497
2026-01-27 22:27:42.74	89.51	26.70	-39.6	-41.3	20.1	0.00e+00	0	43	0	0	50	4489
2026-01-27 22:27:43.73	89.82	26.71	-39.7	-41.4	20.0	0.00e+00	0	43	0	0	50	4529
2026-01-27 22:27:44.73	90.13	26.71	-39.6	-41.3	20.1	0.00e+00	0	42	0	0	50	4473
2026-01-27 22:27:45.72	90.43	26.72	-39.6	-41.3	20.1	0.00e+00	0	42	0	0	50	4472
2026-01-27 22:27:46.71	90.74	26.72	-39.6	-41.3	20.1	0.00e+00	0	43	0	0	50	4487
2026-01-27 22:27:47.71	91.05	26.72	-39.5	-41.2	20.2	0.00e+00	0	43	0	0	50	4397
2026-01-27 22:27:48.70	91.36	26.72	-39.3	-41.0	20.4	0.00e+00	0	43	0	0	50	4318
2026-01-27 22:27:49.69	91.66	26.72	-39.3	-40.9	20.4	0.00e+00	0	43	0	0	50	4283
2026-01-27 22:27:50.68	91.97	26.72	-39.4	-41.0	20.3	0.00e+00	0	43	0	0	50	4337
2026-01-27 22:27:51.68	92.28	26.72	-39.4	-41.1	20.3	0.00e+00	0	43	0	0	50	4361
2026-01-27 22:27:52.67	92.59	26.71	-39.5	-41.2	20.2	0.00e+00	0	43	0	0	50	4402
2026-01-27 22:27:53.66	92.89	26.71	-39.6	-41.3	20.1	0.00e+00	0	43	0	0	50	4463
2026-01-27 22:27:54.66	93.20	26.71	-39.6	-41.3	20.0	0.00e+00	0	43	0	0	50	4472
2026-01-27 22:27:55.65	93.51	26.70	-39.5	-41.2	20.1	0.00e+00	0	43	0	0	50	4428
2026-01-27 22:27:56.64	93.82	26.69	-39.4	-41.0	20.3	0.00e+00	0	43	0	0	50	4330
2026-01-27 22:27:57.63	94.12	26.69	-39.4	-41.1	20.3	0.00e+00	0	43	0	0	50	4356
2026-01-27 22:27:58.63	94.43	26.68	-39.4	-41.0	20.3	0.00e+00	0	43	0	0	50	4338
2026-01-27 22:27:59.62	94.74	26.67	-39.5	-41.2	20.1	0.00e+00	0	43	0	0	50	4428
2026-01-27 22:28:00.61	95.05	26.66	-39.6	-41.3	20.0	0.00e+00	0	43	0	0	50	4452
2026-01-27 22:28:01.61	95.35	26.65	-39.7	-41.4	20.0	0.00e+00	0	43	0	0	50	4500
2026-01-27 22:28:02.60	95.66	26.64	-39.8	-41.5	19.9	0.00e+00	0	43	0	0	50	4565
2026-01-27 22:28:03.59	95.96	26.62	-39.7	-41.4	20.0	0.00e+00	0	43	0	0	50	4518
2026-01-27 22:28:04.59	96.27	26.61	-39.7	-41.4	19.9	0.00e+00	0	43	0	0	50	4542
2026-01-27 22:28:05.58	96.58	26.60	-39.5	-41.2	20.1	0.00e+00	0	43	0	0	50	4434
2026-01-27 22:28:06.57	96.88	26.58	-39.6	-41.3	19.9	0.00e+00	0	43	0	0	50	4442
2026-01-27 22:28:07.56	97.19	26.57	-39.5	-41.2	20.1	0.00e+00	0	43	0	0	50	4429
2026-01-27 22:28:08.56	97.49	26.55	-39.5	-41.2	20.2	0.00e+00	0	43	0	0	50	4404
2026-01-27 22:28:09.55	97.80	26.53	-39.4	-41.1	20.3	0.00e+00	0	43	0	0	50	4354
2026-01-27 22:28:10.54	98.10	26.51	-39.5	-41.2	20.2	0.00e+00	0	43	0	0	50	4402
2026-01-27 22:28:11.54	98.41	26.49	-39.6	-41.3	20.1	0.00e+00	0	43	0	0	50	4469
2026-01-27 22:28:12.53	98.71	26.47	-39.6	-41.3	20.0	0.00e+00	0	43	0	0	50	4472
2026-01-27 22:28:13.52	99.01	26.45	-39.7	-41.4	19.9	0.00e+00	0	43	0	0	50	4509
2026-01-27 22:28:14.51	99.31	26.43	-39.6	-41.3	19.9	0.00e+00	0	43	0	0	50	4458
2026-01-27 22:28:15.51	99.62	26.41	-39.6	-41.3	19.9	0.00e+00	0	43	0	0	50	4477
2026-01-27 22:28:16.50	99.92	26.39	-39.6	-41.3	20.0	0.00e+00	0	42	0	0	50	4473
2026-01-27 22:28:17.49	100.22	26.36	-39.7	-41.4	20.0	0.00e+00	0	43	0	0	50	4498
2026-01-27 22:28:18.48	100.52	26.34	-39.6	-41.3	20.0	0.00e+00	0	43	0	0	50	4457
2026-01-27 22:28:19.48	100.82	26.31	-39.4	-41.1	20.1	0.00e+00	0	43	0	0	50	4366
2026-01-27 22:28:20.47	101.12	26.29	-39.5	-41.2	20.1	0.00e+00	0	43	0	0	50	4409
2026-01-27 22:28:21.46	101.42	26.26	-39.4	-41.1	20.2	0.00e+00	0	43	0	0	50	4363
2026-01-27 22:28:22.46	101.72	26.23	-39.5	-41.2	20.1	0.00e+00	0	43	0	0	50	4431
2026-01-27 22:28:23.45	102.02	26.20	-39.6	-41.2	20.0	0.00e+00	0	43	0	0	50	4434
2026-01-27 22:28:24.44	102.32	26.17	-39.5	-41.1	20.1	0.00e+00	0	43	0	0	50	4384
2026-01-27 22:28:25.44	102.62	26.14	-39.5	-41.2	20.1	0.00e+00	0	43	0	0	50	4428
2026-01-27 22:28:26.43	102.91	26.11	-39.6	-41.3	20.0	0.00e+00	0	43	0	0	50	4468
2026-01-27 22:28:27.42	103.21	26.08	-39.6	-41.3	20.0	0.00e+00	0	43	0	0	50	4486
2026-01-27 22:28:28.41	103.50	26.05	-39.7	-41.4	19.9	0.00e+00	0	43	0	0	50	4503
2026-01-27 22:28:29.41	103.80	26.01	-39.6	-41.3	20.0	0.00e+00	0	43	0	0	50	4480
2026-01-27 22:28:30.40	104.09	25.98	-39.6	-41.3	20.0	0.00e+00	0	43	0	0	50	4487
2026-01-27 22:28:31.39	104.39	25.94	-39.6	-41.3	20.0	0.00e+00	0	43	0	0	50	4484
2026-01-27 22:28:32.39	104.68	25.91	-39.7	-41.4	20.0	0.00e+00	0	43	0	0	50	4505
2026-01-27 22:28:33.38	104.97	25.87	-39.8	-41.5	19.9	0.00e+00	0	43	0	0	50	4570
2026-01-27 22:28:34.37	105.26	25.83	-39.9	-41.6	19.9	0.00e+00	0	43	0	0	50	4616
2026-01-27 22:28:35.37	105.56	25.79	-39.8	-41.5	19.9	0.00e+00	0	43	0	0	50	4592
2026-01-27 22:28:36.36	105.85	25.76	-39.9	-41.6	19.8	0.00e+00	0	43	0	0	50	4608
2026-01-27 22:28:37.35	106.14	25.72	-39.9	-41.6	19.8	0.00e+00	0	43	0	0	50	4621
2026-01-27 22:28:38.35	106.43	25.68	-39.9	-41.7	19.8	0.00e+00	0	43	0	0	50	4655
2026-01-27 22:28:39.34	106.72	25.64	-39.9	-41.6	19.8	0.00e+00	0	43	0	0	50	4639
2026-01-27 22:28:40.33	107.00	25.59	-40.0	-41.8	19.7	0.00e+00	0	43	0	0	50	4733
2026-01-27 22:28:41.32	107.29	25.55	-40.1	-41.9	19.6	0.00e+00	0	43	0	0	50	4798
2026-01-27 22:28:42.32	107.58	25.51	-40.1	-41.9	19.6	0.00e+00	0	43	0	0	50	4792
2026-01-27 22:28:43.31	107.86	25.47	-40.1	-41.8	19.6	0.00e+00	0	43	0	0	50	4747
2026-01-27 22:28:44.30	108.15	25.42	-40.0	-41.7	19.7	0.00e+00	0	42	0	0	50	4705
2026-01-27 22:28:45.30	108.43	25.38	-39.9	-41.7	19.7	0.00e+00	0	43	0	0	50	4652
2026-01-27 22:28:46.29	108.71	25.33	-39.9	-41.7	19.7	0.00e+00	0	43	0	0	50	4662
2026-01-27 22:28:47.28	109.00	25.29	-39.7	-41.5	19.8	0.00e+00	0	43	0	0	50	4548
2026-01-27 22:28:48.28	109.28	25.24	-39.7	-41.4	19.9	0.00e+00	0	43	0	0	50	4543
2026-01-27 22:28:49.27	109.56	25.19	-39.7	-41.4	20.0	0.00e+00	0	43	0	0	50	4508
2026-01-27 22:28:50.26	109.84	25.14	-39.6	-41.2	20.0	0.00e+00	0	43	0	0	50	4425
2026-01-27 22:28:51.25	110.12	25.10	-39.6	-41.2	20.0	0.00e+00	0	43	0	0	50	4437
2026-01-27 22:28:52.25	110.40	25.05	-39.6	-41.3	20.0	0.00e+00	0	43	0	0	50	4458
2026-01-27 22:28:53.24	110.67	25.00	-39.6	-41.3	20.1	0.00e+00	0	43	0	0	50	4450
2026-01-27 22:28:54.23	110.95	24.95	-39.6	-41.3	20.1	0.00e+00	0	42	0	0	50	4447
2026-01-27 22:28:55.23	111.23	24.89	-39.7	-41.4	19.9	0.00e+00	0	42	0	0	50	4538
2026-01-27 22:28:56.22	111.50	24.84	-39.6	-41.3	20.0	0.00e+00	0	43	0	0	50	4469
2026-01-27 22:28:57.21	111.77	24.79	-39.6	-41.3	20.0	0.00e+00	0	43	0	0	50	4480
2026-01-27 22:28:58.21	112.05	24.74	-39.7	-41.4	19.9	0.00e+00	0	43	0	0	50	4526
2026-01-27 22:28:59.20	112.32	24.68	-39.6	-41.3	19.9	0.00e+00	0	43	0	0	50	4490
2026-01-27 22:29:00.19	112.59	24.63	-39.7	-41.4	19.9	0.00e+00	0	43	0	0	50	4511
2026-01-27 22:29:01.18	112.86	24.58	-39.6	-41.3	19.9	0.00e+00	0	43	0	0	50	4486
2026-01-27 22:29:02.18	113.13	24.52	-39.4	-41.1	20.1	0.00e+00	0	43	0	0	50	4381
2026-01-27 22:29:03.17	113.40	24.47	-39.4	-41.1	20.1	0.00e+00	0	43	0	0	50	4366
2026-01-27 22:29:04.16	113.67	24.41	-39.6	-41.3	19.9	0.00e+00	0	43	0	0	50	4474
2026-01-27 22:29:05.16	113.93	24.35	-39.7	-41.4	19.9	0.00e+00	0	43	0	0	50	4512
2026-01-27 22:29:06.15	114.20	24.30	-39.7	-41.4	19.9	0.00e+00	0	43	0	0	50	4502
2026-01-27 22:29:07.14	114.46	24.24	-39.6	-41.3	20.0	0.00e+00	0	43	0	0	50	4443
2026-01-27 22:29:08.14	114.73	24.18	-39.3	-41.0	20.2	0.00e+00	0	43	0	0	50	4311
2026-01-27 22:29:09.13	114.99	24.12	-39.4	-41.0	20.2	0.00e+00	0	43	0	0	50	4330
2026-01-27 22:29:10.12	115.25	24.06	-39.5	-41.2	20.1	0.00e+00	0	43	0	0	50	4413
2026-01-27 22:29:11.11	115.51	24.00	-39.6	-41.3	20.0	0.00e+00	0	43	0	0	50	4477
2026-01-27 22:29:12.11	115.77	23.94	-39.7	-41.3	20.0	0.00e+00	0	43	0	0	50	4483
2026-01-27 22:29:13.10	116.03	23.88	-39.8	-41.4	19.9	0.00e+00	0	43	0	0	50	4542
2026-01-27 22:29:14.09	116.29	23.82	-39.9	-41.7	19.6	0.00e+00	0	43	0	0	50	4659
2026-01-27 22:29:15.08	116.55	23.76	-40.1	-41.8	19.5	0.00e+00	0	43	0	0	50	4728
2026-01-27 22:29:16.08	116.80	23.70	-40.0	-41.8	19.6	0.00e+00	0	43	0	0	50	4714
2026-01-27 22:29:17.07	117.06	23.64	-40.1	-41.9	19.5	0.00e+00	0	43	0	0	50	4766
2026-01-27 22:29:18.06	117.31	23.57	-39.8	-41.6	19.8	0.00e+00	0	43	0	0	50	4605
2026-01-27 22:29:19.06	117.57	23.51	-39.7	-41.4	19.9	0.00e+00	0	43	0	0	50	4516
2026-01-27 22:29:20.05	117.82	23.45	-39.6	-41.3	20.0	0.00e+00	0	43	0	0	50	4447
2026-01-27 22:29:21.04	118.07	23.38	-39.7	-41.4	20.0	0.00e+00	0	43	0	0	50	4498
2026-01-27 22:29:22.03	118.32	23.32	-39.8	-41.5	19.8	0.00e+00	0	43	0	0	50	4587
2026-01-27 22:29:23.03	118.57	23.25	-39.8	-41.5	19.8	0.00e+00	0	43	0	0	50	4589
2026-01-27 22:29:24.02	118.82	23.19	-39.9	-41.6	19.8	0.00e+00	0	43	0	0	50	4622
2026-01-27 22:29:25.01	119.06	23.12	-40.0	-41.7	19.7	0.00e+00	0	43	0	0	50	4693
2026-01-27 22:29:26.00	119.31	23.06	-40.0	-41.7	19.7	0.00e+00	0	43	0	0	50	4692
2026-01-27 22:29:27.00	119.56	22.99	-40.1	-41.9	19.5	0.00e+00	0	43	0	0	50	4771
2026-01-27 22:29:27.99	119.80	22.92	-40.1	-41.8	19.6	0.00e+00	0	43	0	0	50	4754
2026-01-27 22:29:28.98	120.04	22.86	-40.1	-41.8	19.6	0.00e+00	0	43	0	0	50	4752
2026-01-27 22:29:29.97	120.28	22.79	-40.1	-41.8	19.6	0.00e+00	0	43	0	0	50	4733
2026-01-27 22:29:30.97	120.53	22.72	-40.0	-41.8	19.6	0.00e+00	0	43	0	0	50	4715
2026-01-27 22:29:31.96	120.76	22.65	-40.1	-41.8	19.6	0.00e+00	0	43	0	0	50	4758
2026-01-27 22:29:32.95	121.00	22.58	-40.2	-41.9	19.4	0.00e+00	0	43	0	0	51	4542
2026-01-27 22:29:33.95	121.24	22.52	-40.0	-41.7	19.6	0.00e+00	0	43	0	0	51	4438
2026-01-27 22:29:34.94	121.48	22.45	-40.0	-41.7	19.6	0.00e+00	0	43	0	0	51	4425
2026-01-27 22:29:35.93	121.71	22.38	-40.0	-41.7	19.6	0.00e+00	0	43	0	0	51	4440
2026-01-27 22:29:36.93	121.95	22.31	-39.9	-41.6	19.7	0.00e+00	0	43	0	0	51	4370
2026-01-27 22:29:37.92	122.18	22.24	-39.8	-41.5	19.8	0.00e+00	0	43	0	0	51	4297
2026-01-27 22:29:38.91	122.42	22.17	-39.8	-41.5	19.8	0.00e+00	0	43	0	0	51	4314
2026-01-27 22:29:39.90	122.65	22.10	-40.1	-41.8	19.5	0.00e+00	0	43	0	0	51	4472
2026-01-27 22:29:40.90	122.88	22.03	-40.0	-41.7	19.6	0.00e+00	0	43	0	0	51	4422
2026-01-27 22:29:41.89	123.11	21.96	-40.1	-41.8	19.5	0.00e+00	0	43	0	0	51	4486
2026-01-27 22:29:42.88	123.34	21.88	-40.0	-41.7	19.6	0.00e+00	0	43	0	0	51	4432
2026-01-27 22:29:43.88	123.57	21.81	-40.2	-41.9	19.4	0.00e+00	0	43	0	0	51	4526
2026-01-27 22:29:44.87	123.79	21.74	-40.1	-41.9	19.5	0.00e+00	0	43	0	0	51	4507
2026-01-27 22:29:45.86	124.02	21.67	-39.9	-41.6	19.7	0.00e+00	0	43	0	0	51	4390
2026-01-27 22:29:46.85	124.24	21.60	-39.8	-41.5	19.7	0.00e+00	0	43	0	0	51	4334
2026-01-27 22:29:47.85	124.47	21.52	-40.0	-41.7	19.6	0.00e+00	0	43	0	0	51	4416
2026-01-27 22:29:48.84	124.69	21.45	-39.9	-41.6	19.8	0.00e+00	0	43	0	0	51	4362
2026-01-27 22:29:49.83	124.91	21.38	-39.9	-41.7	19.7	0.00e+00	0	43	0	0	51	4410
2026-01-27 22:29:50.83	125.13	21.31	-40.1	-41.8	19.5	0.00e+00	0	43	0	0	51	4474
2026-01-27 22:29:51.82	125.35	21.23	-40.1	-41.9	19.5	0.00e+00	0	43	0	0	51	4494
2026-01-27 22:29:52.81	125.57	21.16	-40.1	-41.9	19.5	0.00e+00	0	43	0	0	51	4506
2026-01-27 22:29:53.80	125.78	21.09	-40.0	-41.8	19.6	0.00e+00	0	43	0	0	51	4448
2026-01-27 22:29:54.80	126.00	21.01	-39.9	-41.6	19.8	0.00e+00	0	43	0	0	51	4365
2026-01-27 22:29:55.79	126.22	20.94	-39.7	-41.4	20.0	0.00e+00	0	43	0	0	51	4260
2026-01-27 22:29:56.78	126.43	20.86	-39.7	-41.4	19.9	0.00e+00	0	43	0	0	51	4270
2026-01-27 22:29:57.77	126.64	20.79	-39.7	-41.4	20.0	0.00e+00	0	43	0	0	51	4246
2026-01-27 22:29:58.77	126.86	20.71	-39.6	-41.3	20.0	0.00e+00	0	43	0	0	51	4239
2026-01-27 22:29:59.76	127.07	20.64	-39.6	-41.3	20.0	0.00e+00	0	43	0	0	51	4223
2026-01-27 22:30:00.75	127.28	20.56	-39.6	-41.3	20.0	0.00e+00	0	43	0	0	51	4223
2026-01-27 22:30:01.74	127.49	20.49	-39.7	-41.4	19.9	0.00e+00	0	43	0	0	51	4271
2026-01-27 22:30:02.74	127.70	20.41	-39.8	-41.5	19.8	0.00e+00	0	43	0	0	51	4300
2026-01-27 22:30:03.73	127.90	20.34	-39.8	-41.5	19.8	0.00e+00	0	43	0	0	51	4308
2026-01-27 22:30:04.72	128.11	20.26	-39.9	-41.6	19.7	0.00e+00	0	43	0	0	51	4370
2026-01-27 22:30:05.72	128.32	20.19	-39.9	-41.6	19.7	0.00e+00	0	43	0	0	51	4381
2026-01-27 22:30:06.71	128.52	20.11	-39.7	-41.4	19.9	0.00e+00	0	43	0	0	51	4254
2026-01-27 22:30:07.70	128.72	20.03	-39.7	-41.3	19.9	0.00e+00	0	43	0	0	51	4241
2026-01-27 22:30:08.70	128.93	19.96	-39.6	-41.3	19.8	0.00e+00	0	43	0	0	51	4224
2026-01-27 22:30:09.69	129.13	19.88	-39.7	-41.4	19.7	0.00e+00	0	43	0	0	51	4263
2026-01-27 22:30:10.68	129.33	19.81	-39.8	-41.5	19.7	0.00e+00	0	43	0	0	51	4318
2026-01-27 22:30:11.67	129.53	19.73	-39.9	-41.6	19.6	0.00e+00	0	43	0	0	51	4369
2026-01-27 22:30:12.67	129.73	19.65	-39.8	-41.5	19.6	0.00e+00	0	43	0	0	51	4326
2026-01-27 22:30:13.66	129.93	19.58	-39.8	-41.6	19.6	0.00e+00	0	43	0	0	51	4352
2026-01-27 22:30:14.65	130.12	19.50	-40.0	-41.7	19.5	0.00e+00	0	43	0	0	51	4416
2026-01-27 22:30:15.65	130.32	19.42	-40.1	-41.8	19.4	0.00e+00	0	43	0	0	51	4492
2026-01-27 22:30:16.64	130.51	19.35	-40.1	-41.8	19.4	0.00e+00	0	43	0	0	51	4481
2026-01-27 22:30:17.63	130.71	19.27	-40.0	-41.7	19.5	0.00e+00	0	43	0	0	51	4426
2026-01-27 22:30:18.62	130.90	19.19	-40.1	-41.8	19.4	0.00e+00	0	43	0	0	51	4491
2026-01-27 22:30:19.62	131.09	19.11	-40.1	-41.8	19.4	0.00e+00	0	43	0	0	51	4468
2026-01-27 22:30:20.61	131.28	19.04	-40.1	-41.8	19.5	0.00e+00	0	43	0	0	51	4475
2026-01-27 22:30:21.60	131.47	18.96	-40.1	-41.9	19.4	0.00e+00	0	43	0	0	51	4507
2026-01-27 22:30:22.60	131.66	18.88	-40.2	-42.0	19.3	0.00e+00	0	43	0	0	51	4551
2026-01-27 22:30:23.59	131.85	18.80	-40.2	-41.9	19.4	0.00e+00	0	43	0	0	51	4545
2026-01-27 22:30:24.58	132.04	18.73	-40.3	-42.0	19.3	0.00e+00	0	43	0	0	51	4587
2026-01-27 22:30:25.57	132.22	18.65	-40.2	-42.0	19.3	0.00e+00	0	43	0	0	51	4549
2026-01-27 22:30:26.57	132.41	18.57	-40.3	-42.1	19.3	0.00e+00	0	43	0	0	51	4604
2026-01-27 22:30:27.56	132.59	18.49	-40.3	-42.1	19.2	0.00e+00	0	43	0	0	51	4631
2026-01-27 22:30:28.55	132.78	18.42	-40.4	-42.2	19.2	0.00e+00	0	43	0	0	51	4661
2026-01-27 22:30:29.55	132.96	18.34	-40.3	-42.1	19.2	0.00e+00	0	43	0	0	51	4641
2026-01-27 22:30:30.54	133.14	18.26	-40.3	-42.1	19.2	0.00e+00	0	43	0	0	51	4620
2026-01-27 22:30:31.53	133.32	18.18	-40.3	-42.1	19.2	0.00e+00	0	43	0	0	51	4612
2026-01-27 22:30:32.52	133.50	18.11	-40.4	-42.2	19.1	0.00e+00	0	43	0	0	51	4664
2026-01-27 22:30:33.52	133.68	18.03	-40.4	-42.2	19.2	0.00e+00	0	43	0	0	51	4656
2026-01-27 22:30:34.51	133.86	17.95	-40.3	-42.1	19.2	0.00e+00	0	43	0	0	51	4639
2026-01-27 22:30:35.50	134.04	17.87	-40.4	-42.2	19.1	0.00e+00	0	43	0	0	51	4658
2026-01-27 22:30:36.50	134.21	17.79	-40.3	-42.1	19.2	0.00e+00	0	43	0	0	51	4616
2026-01-27 22:30:37.49	134.39	17.72	-40.4	-42.2	19.1	0.00e+00	0	43	0	0	51	4683
2026-01-27 22:30:38.48	134.56	17.64	-40.4	-42.2	19.0	0.00e+00	0	43	0	0	51	4692
2026-01-27 22:30:39.47	134.74	17.56	-40.4	-42.2	19.0	0.00e+00	0	43	0	0	51	4699
2026-01-27 22:30:40.47	134.91	17.48	-40.4	-42.3	19.0	0.00e+00	0	43	0	0	51	4707
2026-01-27 22:30:41.46	135.08	17.40	-40.6	-42.4	18.9	0.00e+00	0	43	0	0	51	4777
2026-01-27 22:30:42.45	135.25	17.33	-40.6	-42.4	18.9	0.00e+00	0	43	0	0	51	4785
2026-01-27 22:30:43.45	135.42	17.25	-40.6	-42.5	18.9	0.00e+00	0	43	0	0	51	4820
2026-01-27 22:30:44.44	135.59	17.17	-40.5	-42.3	19.0	0.00e+00	0	43	0	0	51	4732
2026-01-27 22:30:45.43	135.76	17.09	-40.5	-42.3	19.0	0.00e+00	0	43	0	0	51	4733
2026-01-27 22:30:46.42	135.93	17.02	-40.5	-42.4	19.0	0.00e+00	0	43	0	0	51	4761
2026-01-27 22:30:47.42	136.10	16.94	-40.5	-42.3	18.9	0.00e+00	0	43	0	0	51	4758
2026-01-27 22:30:48.41	136.26	16.86	-40.5	-42.3	18.9	0.00e+00	0	43	0	0	51	4757
2026-01-27 22:30:49.40	136.43	16.78	-40.6	-42.4	18.9	0.00e+00	0	43	0	0	51	4789
2026-01-27 22:30:50.40	136.59	16.70	-40.6	-42.5	18.7	0.00e+00	0	43	0	0	52	4562
2026-01-27 22:30:51.39	136.76	16.63	-40.6	-42.5	18.6	0.00e+00	0	43	0	0	52	4582
2026-01-27 22:30:52.38	136.92	16.55	-40.6	-42.5	18.7	0.00e+00	0	43	0	0	52	4547
2026-01-27 22:30:53.37	137.08	16.47	-40.6	-42.5	18.7	0.00e+00	0	43	0	0	52	4551
2026-01-27 22:30:54.37	137.24	16.39	-40.6	-42.4	18.7	0.00e+00	0	43	0	0	52	4540
2026-01-27 22:30:55.36	137.40	16.31	-40.6	-42.4	18.7	0.00e+00	0	43	0	0	52	4534
2026-01-27 22:30:56.35	137.56	16.24	-40.4	-42.2	18.9	0.00e+00	0	43	0	0	52	4434
2026-01-27 22:30:57.34	137.72	16.16	-40.4	-42.2	18.9	0.00e+00	0	43	0	0	52	4417
2026-01-27 22:30:58.34	137.88	16.08	-40.4	-42.2	18.9	0.00e+00	0	43	0	0	52	4417
2026-01-27 22:30:59.33	138.03	16.00	-40.3	-42.1	19.0	0.00e+00	0	43	0	0	52	4385
2026-01-27 22:31:00.32	138.19	15.93	-40.3	-42.1	19.0	0.00e+00	0	43	0	0	52	4369
2026-01-27 22:31:01.32	138.35	15.85	-40.4	-42.2	18.9	0.00e+00	0	43	0	0	52	4433
2026-01-27 22:31:02.31	138.50	15.77	-40.5	-42.3	18.9	0.00e+00	0	43	0	0	52	4460
2026-01-27 22:31:03.30	138.66	15.69	-40.3	-42.1	19.1	0.00e+00	0	43	0	0	52	4373
2026-01-27 22:31:04.29	138.81	15.62	-40.3	-42.1	19.1	0.00e+00	0	43	0	0	52	4350
2026-01-27 22:31:05.29	138.96	15.54	-40.4	-42.2	19.0	0.00e+00	0	43	0	0	52	4393
2026-01-27 22:31:06.28	139.11	15.46	-40.4	-42.2	18.9	0.00e+00	0	43	0	0	52	4432
2026-01-27 22:31:07.27	139.26	15.39	-40.4	-42.2	18.9	0.00e+00	0	43	0	0	52	4438
2026-01-27 22:31:08.26	139.41	15.31	-40.5	-42.3	18.9	0.00e+00	0	43	0	0	52	4455
2026-01-27 22:31:09.26	139.56	15.23	-40.6	-42.4	18.8	0.00e+00	0	43	0	0	52	4508
2026-01-27 22:31:10.25	139.71	15.16	-40.7	-42.5	18.6	0.00e+00	0	43	0	0	52	4587
2026-01-27 22:31:11.24	139.86	15.08	-40.7	-42.6	18.6	0.00e+00	0	43	0	0	52	4618
2026-01-27 22:31:12.24	140.01	15.00	-40.8	-42.7	18.5	0.00e+00	0	43	0	0	52	4668
2026-01-27 22:31:13.23	140.15	14.92	-40.8	-42.7	18.5	0.00e+00	0	43	0	0	52	4661
2026-01-27 22:31:14.22	140.30	14.85	-40.8	-42.7	18.5	0.00e+00	0	43	0	0	52	4663
2026-01-27 22:31:15.22	140.45	14.77	-40.8	-42.7	18.5	0.00e+00	0	43	0	0	52	4658
2026-01-27 22:31:16.21	140.59	14.69	-40.9	-42.8	18.4	0.00e+00	0	43	0	0	52	4728
2026-01-27 22:31:17.20	140.73	14.62	-40.8	-42.6	18.5	0.00e+00	0	43	0	0	52	4640
2026-01-27 22:31:18.19	140.88	14.54	-40.9	-42.8	18.4	0.00e+00	0	43	0	0	52	4716
2026-01-27 22:31:19.19	141.02	14.47	-40.9	-42.8	18.4	0.00e+00	0	43	0	0	52	4707
2026-01-27 22:31:20.18	141.16	14.39	-40.8	-42.7	18.4	0.00e+00	0	43	0	0	52	4698
2026-01-27 22:31:21.17	141.30	14.31	-40.9	-42.9	18.2	0.00e+00	0	43	0	0	52	4769
2026-01-27 22:31:22.17	141.44	14.24	-41.0	-42.9	18.2	0.00e+00	0	43	0	0	52	4778
2026-01-27 22:31:23.16	141.58	14.16	-40.8	-42.7	18.4	0.00e+00	0	43	0	0	52	4695
2026-01-27 22:31:24.15	141.72	14.09	-40.9	-42.8	18.3	0.00e+00	0	43	0	0	52	4731
2026-01-27 22:31:25.14	141.86	14.01	-40.9	-42.8	18.3	0.00e+00	0	43	0	0	52	4719
2026-01-27 22:31:26.14	141.99	13.93	-40.9	-42.8	18.3	0.00e+00	0	43	0	0	52	4722
2026-01-27 22:31:27.13	142.13	13.86	-40.9	-42.8	18.2	0.00e+00	0	43	0	0	52	4757
2026-01-27 22:31:28.12	142.27	13.78	-41.0	-43.0	18.2	0.00e+00	0	43	0	0	52	4820
2026-01-27 22:31:29.12	142.40	13.71	-41.0	-43.0	18.2	0.00e+00	0	43	0	0	52	4818
2026-01-27 22:31:30.11	142.54	13.63	-41.0	-42.9	18.2	0.00e+00	0	43	0	0	52	4787
2026-01-27 22:31:31.10	142.67	13.56	-41.1	-43.0	18.1	0.00e+00	0	43	0	0	52	4869
2026-01-27 22:31:32.09	142.80	13.48	-41.0	-43.0	18.1	0.00e+00	0	43	0	0	52	4828
2026-01-27 22:31:33.09	142.94	13.41	-41.0	-42.9	18.2	0.00e+00	0	43	0	0	52	4796
2026-01-27 22:31:34.08	143.07	13.33	-41.0	-43.0	18.1	0.00e+00	0	43	0	0	52	4822
2026-01-27 22:31:35.07	143.20	13.26	-41.1	-43.0	18.1	0.00e+00	0	43	0	0	52	4839
2026-01-27 22:31:36.07	143.33	13.18	-41.1	-43.0	18.0	0.00e+00	0	43	0	0	52	4849
2026-01-27 22:31:37.06	143.46	13.11	-41.2	-43.1	17.9	0.00e+00	0	43	0	0	53	4651
2026-01-27 22:31:38.05	143.59	13.03	-41.3	-43.2	17.9	0.00e+00	0	43	0	0	53	4683
2026-01-27 22:31:39.05	143.72	12.96	-41.3	-43.2	17.9	0.00e+00	0	43	0	0	53	4670
2026-01-27 22:31:40.04	143.85	12.88	-41.4	-43.3	17.8	0.00e+00	0	43	0	0	53	4739
2026-01-27 22:31:41.03	143.98	12.81	-41.3	-43.2	17.9	0.00e+00	0	43	0	0	53	4690
2026-01-27 22:31:42.02	144.10	12.74	-41.2	-43.2	17.9	0.00e+00	0	43	0	0	53	4673
2026-01-27 22:31:43.02	144.23	12.66	-41.2	-43.2	17.9	0.00e+00	0	43	0	0	53	4692
2026-01-27 22:31:44.01	144.35	12.59	-41.3	-43.3	17.8	0.00e+00	0	43	0	0	53	4721
2026-01-27 22:31:45.00	144.48	12.51	-41.2	-43.2	17.9	0.00e+00	0	43	0	0	53	4658
2026-01-27 22:31:46.00	144.60	12.44	-41.2	-43.2	17.9	0.00e+00	0	43	0	0	53	4673
2026-01-27 22:31:46.99	144.73	12.37	-41.2	-43.2	17.9	0.00e+00	0	43	0	0	53	4676
2026-01-27 22:31:47.98	144.85	12.29	-41.3	-43.3	17.8	0.00e+00	0	43	0	0	53	4732
2026-01-27 22:31:48.97	144.97	12.22	-41.3	-43.2	17.9	0.00e+00	0	43	0	0	53	4698
2026-01-27 22:31:49.97	145.10	12.14	-41.3	-43.2	17.8	0.00e+00	0	43	0	0	53	4703
2026-01-27 22:31:50.96	145.22	12.07	-41.4	-43.4	17.7	0.00e+00	0	43	0	0	53	4807
2026-01-27 22:31:51.95	145.34	12.00	-41.4	-43.4	17.7	0.00e+00	0	43	0	0	53	4763
2026-01-27 22:31:52.94	145.46	11.93	-41.4	-43.4	17.7	0.00e+00	0	43	0	0	53	4806
2026-01-27 22:31:53.94	145.58	11.85	-41.5	-43.5	17.6	0.00e+00	0	43	0	0	53	4855
2026-01-27 22:31:54.93	145.70	11.78	-41.5	-43.5	17.5	0.00e+00	0	43	0	0	53	4864
2026-01-27 22:31:55.92	145.82	11.71	-41.5	-43.5	17.6	0.00e+00	0	43	0	0	53	4861
2026-01-27 22:31:56.92	145.94	11.63	-41.4	-43.4	17.7	0.00e+00	0	43	0	0	53	4809
2026-01-27 22:31:57.91	146.05	11.56	-41.4	-43.5	17.7	0.00e+00	0	43	0	0	53	4821
2026-01-27 22:31:58.90	146.17	11.49	-41.4	-43.4	17.7	0.00e+00	0	43	0	0	53	4793
2026-01-27 22:31:59.90	146.29	11.42	-41.5	-43.5	17.6	0.00e+00	0	43	0	0	53	4857
2026-01-27 22:32:00.89	146.40	11.34	-41.4	-43.4	17.7	0.00e+00	0	43	0	0	53	4769
2026-01-27 22:32:01.88	146.52	11.27	-41.3	-43.3	17.5	0.00e+00	0	43	0	0	53	4753
2026-01-27 22:32:02.87	146.63	11.20	-41.3	-43.3	17.7	0.00e+00	0	43	0	0	53	4736
2026-01-27 22:32:03.87	146.75	11.13	-41.5	-43.5	17.6	0.00e+00	0	43	0	0	53	4827
2026-01-27 22:32:04.86	146.86	11.06	-41.3	-43.3	17.8	0.00e+00	0	43	0	0	53	4728
2026-01-27 22:32:05.85	146.97	10.98	-41.5	-43.5	17.6	0.00e+00	0	43	0	0	53	4822
2026-01-27 22:32:06.85	147.09	10.91	-41.5	-43.5	17.5	0.00e+00	0	43	0	0	53	4861
2026-01-27 22:32:07.84	147.20	10.84	-41.5	-43.5	17.5	0.00e+00	0	43	0	0	53	4854
2026-01-27 22:32:08.83	147.31	10.77	-41.6	-43.6	17.5	0.00e+00	0	43	0	0	53	4890
2026-01-27 22:32:09.82	147.42	10.70	-41.6	-43.6	17.4	0.00e+00	0	43	0	0	53	4918
2026-01-27 22:32:10.82	147.53	10.63	-41.6	-43.7	17.4	0.00e+00	0	43	0	0	53	4940
2026-01-27 22:32:11.81	147.64	10.56	-41.6	-43.7	17.4	0.00e+00	0	43	0	0	54	4683
2026-01-27 22:32:12.80	147.75	10.49	-41.8	-43.9	17.2	0.00e+00	0	43	0	0	54	4805
2026-01-27 22:32:13.80	147.86	10.42	-41.9	-44.0	17.1	0.00e+00	0	43	0	0	54	4848
2026-01-27 22:32:14.79	147.97	10.34	-41.9	-44.0	17.1	0.00e+00	0	43	0	0	54	4829
2026-01-27 22:32:15.78	148.08	10.27	-41.7	-43.8	17.3	0.00e+00	0	43	0	0	54	4741
2026-01-27 22:32:16.77	148.18	10.20	-41.9	-44.0	17.1	0.00e+00	0	43	0	0	54	4828
2026-01-27 22:32:17.76	148.29	10.13	-41.7	-43.8	17.3	0.00e+00	0	43	0	0	54	4716
2026-01-27 22:32:18.76	148.40	10.06	-41.8	-43.9	17.1	0.00e+00	0	43	0	0	54	4794
2026-01-27 22:32:19.75	148.50	9.99	-41.9	-44.0	17.0	0.00e+00	0	43	0	0	54	4857
2026-01-27 22:32:20.74	148.61	9.92	-41.8	-43.8	17.2	0.00e+00	0	43	0	0	54	4751
2026-01-27 22:32:21.74	148.71	9.85	-41.8	-43.8	17.2	0.00e+00	0	43	0	0	54	4741
2026-01-27 22:32:22.73	148.82	9.78	-41.7	-43.8	17.2	0.00e+00	0	43	0	0	54	4720
2026-01-27 22:32:23.72	148.92	9.71	-41.9	-44.0	17.1	0.00e+00	0	43	0	0	54	4833
2026-01-27 22:32:24.72	149.03	9.64	-41.8	-43.9	17.1	0.00e+00	0	43	0	0	54	4804
2026-01-27 22:32:25.71	149.13	9.57	-41.8	-43.9	17.1	0.00e+00	0	43	0	0	54	4812
2026-01-27 22:32:26.70	149.23	9.51	-41.8	-43.9	17.1	0.00e+00	0	43	0	0	54	4775
2026-01-27 22:32:27.70	149.33	9.44	-41.8	-44.0	17.0	0.00e+00	0	43	0	0	54	4818
2026-01-27 22:32:28.69	149.44	9.37	-42.0	-44.1	16.9	0.00e+00	0	43	0	0	54	4914
2026-01-27 22:32:29.68	149.54	9.30	-42.0	-44.2	16.8	0.00e+00	0	43	0	0	54	4934
2026-01-27 22:32:30.67	149.64	9.23	-41.9	-44.1	16.9	0.00e+00	0	43	0	0	54	4885
2026-01-27 22:32:31.67	149.74	9.16	-42.1	-44.3	16.6	0.00e+00	0	43	0	0	54	5039
2026-01-27 22:32:32.66	149.84	9.09	-42.2	-44.4	16.6	0.00e+00	0	43	0	0	55	4786
2026-01-27 22:32:33.65	149.94	9.02	-45.3	-48.7	13.0	0.00e+00	0	43	0	0	61	5547
2026-01-27 22:32:34.65	150.04	8.96	-49.4	-62.6	3.8	1.49e+00	0	43	104	0	69	17425
2026-01-27 22:32:35.64	150.13	8.89	-49.7	-62.7	3.8	1.49e+00	0	43	104	0	70	16610
2026-01-27 22:32:36.63	150.23	8.82	-49.5	-63.0	3.8	1.49e+00	0	43	104	0	70	17156
2026-01-27 22:32:37.62	150.33	8.75	-50.0	-63.1	3.8	1.49e+00	0	43	104	0	70	17423
2026-01-27 22:32:38.62	150.43	8.68	-50.1	-63.2	3.8	1.49e+00	0	43	104	0	70	17631
2026-01-27 22:32:39.61	150.52	8.62	-50.2	-63.2	3.8	1.49e+00	0	43	104	0	71	16677
2026-01-27 22:32:40.60	150.62	8.55	-50.3	-63.3	3.8	1.49e+00	0	43	104	0	71	16714
2026-01-27 22:32:41.60	150.72	8.48	-50.3	-63.3	3.8	1.49e+00	0	43	104	0	71	16747
2026-01-27 22:32:42.59	150.81	8.41	-50.3	-63.4	3.8	1.49e+00	0	43	104	0	71	16913
2026-01-27 22:32:43.58	150.91	8.35	-50.4	-63.4	3.8	1.49e+00	0	43	104	0	71	16932
2026-01-27 22:32:44.58	151.00	8.28	-50.3	-63.4	3.8	1.49e+00	0	43	104	0	71	16991
2026-01-27 22:32:45.57	151.10	8.21	-50.4	-63.4	3.8	1.49e+00	0	43	104	0	71	17028
2026-01-27 22:32:46.56	151.19	8.14	-50.4	-63.5	3.8	1.49e+00	0	43	104	0	71	17099
2026-01-27 22:32:47.55	151.28	8.08	-50.3	-63.5	3.8	1.49e+00	0	43	104	0	71	17112
2026-01-27 22:32:48.55	151.38	8.01	-50.3	-63.5	3.8	1.49e+00	0	43	104	0	71	17102
2026-01-27 22:32:49.54	151.47	7.94	-50.5	-63.4	3.8	1.49e+00	0	43	104	0	71	17072
2026-01-27 22:32:50.53	151.56	7.88	-50.4	-63.5	3.8	1.49e+00	0	43	104	0	71	17178
2026-01-27 22:32:51.53	151.65	7.81	-50.5	-63.5	3.8	1.49e+00	0	43	104	0	71	17149
2026-01-27 22:32:52.52	151.74	7.74	-50.4	-63.5	3.8	1.49e+00	0	43	104	0	71	17193
2026-01-27 22:32:53.51	151.84	7.68	-50.5	-63.5	3.8	1.49e+00	0	43	104	0	71	17201
2026-01-27 22:32:54.51	151.93	7.61	-50.4	-63.5	3.8	1.49e+00	0	43	104	0	71	17171
2026-01-27 22:32:55.50	152.02	7.55	-50.3	-63.5	3.8	1.49e+00	0	43	104	0	71	17231
2026-01-27 22:32:56.49	152.11	7.48	-50.5	-63.6	3.8	1.49e+00	0	43	104	0	71	17319
2026-01-27 22:32:57.48	152.19	7.41	-50.4	-63.6	3.8	1.49e+00	0	43	104	0	71	17353
2026-01-27 22:32:58.48	152.28	7.35	-50.5	-63.6	3.8	1.49e+00	0	43	104	0	71	17296
2026-01-27 22:32:59.47	152.37	7.28	-50.4	-63.6	3.8	1.49e+00	0	43	104	0	71	17285
2026-01-27 22:33:00.46	152.46	7.22	-50.5	-63.6	3.8	1.49e+00	0	43	104	0	71	17320
2026-01-27 22:33:01.45	152.55	7.15	-50.5	-63.5	3.8	1.49e+00	0	43	104	0	71	17220
2026-01-27 22:33:02.45	152.64	7.09	-50.5	-63.5	3.8	1.49e+00	0	43	104	0	71	17136
2026-01-27 22:33:03.44	152.72	7.02	-50.4	-63.5	3.8	1.49e+00	0	43	104	0	71	17155
2026-01-27 22:33:04.43	152.81	6.96	-50.4	-63.4	3.8	1.49e+00	0	43	104	0	71	17071
2026-01-27 22:33:05.43	152.90	6.89	-50.4	-63.4	3.8	1.49e+00	0	43	104	0	71	17057
2026-01-27 22:33:06.42	152.98	6.83	-50.4	-63.4	3.8	1.49e+00	0	43	104	0	71	17049
2026-01-27 22:33:07.41	153.07	6.76	-50.1	-63.4	3.8	1.49e+00	0	43	104	0	71	16977
2026-01-27 22:33:08.41	153.15	6.70	-50.1	-63.4	3.8	1.49e+00	0	43	104	0	71	17000
2026-01-27 22:33:09.40	153.24	6.63	-50.1	-63.4	3.8	1.49e+00	0	43	104	0	71	16928
2026-01-27 22:33:10.39	153.32	6.57	-50.2	-63.3	3.8	1.49e+00	0	43	104	0	71	16864
2026-01-27 22:33:11.38	153.41	6.51	-50.1	-63.2	3.8	1.49e+00	0	43	104	0	71	16651
2026-01-27 22:33:12.38	153.49	6.44	-50.0	-63.1	3.8	1.49e+00	0	43	104	0	71	16456
2026-01-27 22:33:13.37	153.57	6.38	-49.8	-62.9	3.8	1.49e+00	0	43	104	0	71	16030
2026-01-27 22:33:14.36	153.66	6.31	-49.7	-62.8	3.8	1.49e+00	0	43	104	0	71	15789
2026-01-27 22:33:15.36	153.74	6.25	-49.7	-62.8	3.8	1.49e+00	0	43	104	0	71	15864
2026-01-27 22:33:16.35	153.82	6.19	-49.7	-62.8	3.8	1.49e+00	0	43	104	0	71	15824
2026-01-27 22:33:17.34	153.90	6.12	-49.7	-62.7	3.8	1.49e+00	0	43	104	0	71	15716
2026-01-27 22:33:18.34	153.99	6.06	-49.7	-62.7	3.8	1.49e+00	0	43	104	0	71	15755
2026-01-27 22:33:19.33	154.07	5.99	-49.6	-62.7	3.8	1.49e+00	0	43	104	0	71	15708
2026-01-27 22:33:20.32	154.15	5.93	-49.6	-62.7	3.8	1.49e+00	0	43	104	0	71	15730
2026-01-27 22:33:21.31	154.23	5.87	-49.6	-62.8	3.8	1.49e+00	0	43	104	0	71	15776
2026-01-27 22:33:22.31	154.31	5.81	-49.6	-62.7	3.8	1.49e+00	0	43	104	0	71	15706
2026-01-27 22:33:23.30	154.39	5.74	-49.6	-62.7	3.8	1.49e+00	0	43	104	0	71	15693
2026-01-27 22:33:24.29	154.47	5.68	-49.6	-62.7	3.8	1.49e+00	0	43	104	0	71	15700
2026-01-27 22:33:25.29	154.55	5.62	-49.6	-62.7	3.8	1.49e+00	0	43	104	0	71	15719
2026-01-27 22:33:26.28	154.63	5.55	-49.6	-62.7	3.8	1.49e+00	0	43	104	0	71	15719
2026-01-27 22:33:27.27	154.71	5.49	-49.6	-62.7	3.8	1.49e+00	0	43	104	0	71	15659
2026-01-27 22:33:28.27	154.79	5.43	-49.6	-62.7	3.8	1.49e+00	0	43	104	0	71	15714
2026-01-27 22:33:29.26	154.86	5.37	-49.6	-62.7	3.8	1.49e+00	0	43	104	0	71	15703
2026-01-27 22:33:30.25	154.94	5.30	-49.6	-62.7	3.8	1.49e+00	0	43	104	0	71	15647
2026-01-27 22:33:31.25	155.02	5.24	-49.6	-62.7	3.8	1.49e+00	0	43	104	0	71	15665
2026-01-27 22:33:32.24	155.10	5.18	-49.6	-62.7	3.8	1.49e+00	0	43	104	0	71	15673
2026-01-27 22:33:33.23	155.17	5.12	-49.6	-62.7	3.8	1.49e+00	0	43	104	0	71	15683
2026-01-27 22:33:34.23	155.25	5.06	-49.6	-62.7	3.8	1.49e+00	0	43	104	0	71	15747
2026-01-27 22:33:35.22	155.33	5.00	-49.6	-62.7	3.8	1.49e+00	0	43	104	0	71	15702

#Closed at: 2026-01-27 22:33:36
#Recorded file [0 MB]: D:/Data/31040_260128_012200.dat