passes_logs/2026/01/27/T1/T1__20260127_201000_KHAYYAM_rec.log

#Pass ID: 20260127_201000_KHAYYAM
#Satellite: KHAYYAM
#Configuration: KHAYYAM_480M
#almurnet v.1.7.20251203
#Start time: 2026-01-27 20:10:01

#Version: 2.0.20230620
#Station: T1
#Location: 37.570604 lon 55.790049 lat
#TLE: 1 53370U 22096A   26026.90146174  .00008867  00000+0  36041-3 0  9990
#TLE: 2 53370  97.3549 293.6979 0002070 107.3099 252.8365 15.24778957193054

#Time	Az	El	Level	Level2	SNR	BER	BlckErr	Temp	State	Recorded	gain1	gain2
2026-01-27 20:10:01.05	32.88	5.03	-52.8	-57.4	3.5	0.00e+00	0	45	0	0	77	24176
2026-01-27 20:10:02.05	33.00	5.10	-53.6	-58.2	3.7	0.00e+00	0	46	104	0	78	25000
2026-01-27 20:10:03.04	33.12	5.16	-53.3	-58.0	3.7	0.00e+00	0	46	104	0	78	24442
2026-01-27 20:10:04.03	33.24	5.23	-53.8	-58.3	3.7	0.00e+00	0	46	104	0	78	25099
2026-01-27 20:10:05.03	33.37	5.29	-53.8	-58.3	3.7	0.00e+00	0	46	104	0	78	25199
2026-01-27 20:10:06.02	33.49	5.36	-53.6	-58.2	3.7	0.00e+00	0	46	104	0	78	24995
2026-01-27 20:10:07.02	33.61	5.43	-53.7	-58.3	3.7	0.00e+00	0	46	104	0	78	25195
2026-01-27 20:10:08.01	33.74	5.49	-53.8	-58.4	3.7	0.00e+00	0	46	104	0	78	25484
2026-01-27 20:10:09.01	33.87	5.56	-53.5	-58.1	3.7	0.00e+00	0	47	104	0	78	24691
2026-01-27 20:10:10.00	33.99	5.63	-53.7	-58.2	3.7	0.00e+00	0	46	104	0	78	24963
2026-01-27 20:10:10.99	34.12	5.70	-53.5	-57.8	3.7	0.00e+00	0	47	104	0	78	23915
2026-01-27 20:10:11.99	34.25	5.76	-53.4	-58.0	3.7	0.00e+00	0	47	104	0	78	24514
2026-01-27 20:10:12.98	34.38	5.83	-53.5	-58.0	3.7	0.00e+00	0	47	104	0	78	24476
2026-01-27 20:10:13.98	34.51	5.90	-52.8	-56.7	3.7	0.00e+00	0	47	104	0	76	23474
2026-01-27 20:10:14.97	34.64	5.97	-52.3	-55.6	3.7	0.00e+00	0	47	104	0	76	20726
2026-01-27 20:10:15.96	34.77	6.03	-52.6	-56.1	3.7	0.00e+00	0	47	104	0	76	21973
2026-01-27 20:10:16.96	34.90	6.10	-53.1	-57.1	3.7	0.00e+00	0	47	104	0	77	23319
2026-01-27 20:10:17.95	35.03	6.17	-52.2	-55.7	3.7	0.00e+00	0	47	104	0	75	22200
2026-01-27 20:10:18.95	35.16	6.24	-52.4	-56.5	3.7	0.00e+00	0	47	104	0	76	22956
2026-01-27 20:10:19.94	35.30	6.31	-51.2	-54.4	3.7	0.00e+00	0	47	104	0	74	20367
2026-01-27 20:10:20.94	35.43	6.38	-51.2	-54.4	3.8	0.00e+00	0	47	104	0	74	20342
2026-01-27 20:10:21.93	35.57	6.44	-51.2	-54.4	3.7	0.00e+00	0	47	104	0	74	20301
2026-01-27 20:10:22.92	35.70	6.51	-51.2	-54.4	3.7	0.00e+00	0	48	104	0	74	20330
2026-01-27 20:10:23.92	35.84	6.58	-51.2	-54.4	3.7	0.00e+00	0	48	104	0	74	20262
2026-01-27 20:10:24.91	35.98	6.65	-51.2	-54.4	3.7	0.00e+00	0	48	104	0	74	20290
2026-01-27 20:10:25.91	36.12	6.72	-51.2	-54.4	3.7	0.00e+00	0	48	104	0	74	20264
2026-01-27 20:10:26.90	36.26	6.79	-51.2	-54.4	3.7	0.00e+00	0	48	104	0	74	20370
2026-01-27 20:10:27.90	36.40	6.86	-51.2	-54.4	3.7	0.00e+00	0	48	104	0	74	20246
2026-01-27 20:10:28.89	36.54	6.93	-51.2	-54.4	3.7	0.00e+00	0	48	104	0	74	20250
2026-01-27 20:10:29.89	36.68	7.00	-51.2	-54.4	3.7	0.00e+00	0	48	104	0	74	20268
2026-01-27 20:10:30.88	36.83	7.07	-51.2	-54.4	3.7	0.00e+00	0	48	104	0	74	20205
2026-01-27 20:10:31.87	36.97	7.14	-51.2	-54.4	3.7	0.00e+00	0	48	104	0	74	20236
2026-01-27 20:10:32.87	37.12	7.21	-51.2	-54.4	3.7	0.00e+00	0	48	104	0	74	20251
2026-01-27 20:10:33.86	37.26	7.28	-51.2	-54.4	3.7	0.00e+00	0	48	104	0	74	20246
2026-01-27 20:10:34.86	37.41	7.35	-51.2	-54.4	3.8	0.00e+00	0	48	104	0	74	20265
2026-01-27 20:10:35.85	37.55	7.42	-51.2	-54.4	3.7	0.00e+00	0	48	104	0	74	20213
2026-01-27 20:10:36.85	37.70	7.49	-51.2	-54.4	3.7	0.00e+00	0	48	104	0	74	20310
2026-01-27 20:10:37.84	37.85	7.56	-51.2	-54.4	3.8	0.00e+00	0	48	104	0	74	20236
2026-01-27 20:10:38.83	38.00	7.63	-51.2	-54.4	3.7	0.00e+00	0	48	104	0	74	20209
2026-01-27 20:10:39.82	38.15	7.70	-51.2	-54.4	3.8	0.00e+00	0	49	104	0	74	20267
2026-01-27 20:10:40.82	38.30	7.78	-51.2	-54.4	3.8	0.00e+00	0	49	104	0	74	20197
2026-01-27 20:10:41.81	38.46	7.85	-51.2	-54.4	3.7	0.00e+00	0	49	104	0	74	20252
2026-01-27 20:10:42.81	38.61	7.92	-51.2	-54.4	3.7	0.00e+00	0	49	104	0	74	20202
2026-01-27 20:10:43.80	38.76	7.99	-51.2	-54.4	3.7	0.00e+00	0	49	104	0	74	20284
2026-01-27 20:10:44.80	38.92	8.06	-51.2	-54.4	3.7	0.00e+00	0	49	104	0	74	20220
2026-01-27 20:10:45.79	39.08	8.13	-51.2	-54.4	3.7	0.00e+00	0	49	104	0	74	20242
2026-01-27 20:10:46.79	39.24	8.21	-51.2	-54.4	3.7	0.00e+00	0	49	104	0	74	20249
2026-01-27 20:10:47.78	39.39	8.28	-51.2	-54.4	3.7	0.00e+00	0	49	104	0	74	20221
2026-01-27 20:10:48.77	39.55	8.35	-51.2	-54.4	3.7	0.00e+00	0	49	104	0	74	20230
2026-01-27 20:10:49.77	39.71	8.42	-51.2	-54.4	3.7	0.00e+00	0	49	104	0	74	20218
2026-01-27 20:10:50.76	39.87	8.49	-51.2	-54.4	3.7	0.00e+00	0	49	104	0	74	20256
2026-01-27 20:10:51.75	40.03	8.57	-51.2	-54.4	3.7	0.00e+00	0	49	104	0	74	20251
2026-01-27 20:10:52.75	40.20	8.64	-51.2	-54.4	3.8	0.00e+00	0	49	104	0	74	20221
2026-01-27 20:10:53.74	40.36	8.71	-51.2	-54.4	3.7	0.00e+00	0	49	104	0	74	20300
2026-01-27 20:10:54.74	40.53	8.79	-51.2	-54.4	3.7	0.00e+00	0	49	104	0	74	20361
2026-01-27 20:10:55.73	40.69	8.86	-51.2	-54.4	3.8	0.00e+00	0	49	104	0	74	20220
2026-01-27 20:10:56.72	40.86	8.93	-51.2	-54.4	3.7	0.00e+00	0	49	104	0	74	20263
2026-01-27 20:10:57.72	41.03	9.01	-51.2	-54.4	3.7	0.00e+00	0	49	104	0	74	20247
2026-01-27 20:10:58.71	41.20	9.08	-51.5	-54.9	3.7	0.00e+00	0	49	104	0	74	21487
2026-01-27 20:10:59.70	41.37	9.15	-51.3	-54.8	3.7	0.00e+00	0	49	104	0	74	21221
2026-01-27 20:11:00.70	41.54	9.23	-51.6	-55.0	3.7	0.00e+00	0	49	104	0	74	21788
2026-01-27 20:11:01.69	41.71	9.30	-50.6	-53.5	3.8	0.00e+00	0	49	104	0	73	19382
2026-01-27 20:11:02.69	41.89	9.37	-52.2	-56.2	3.7	0.00e+00	0	49	104	0	74	24888
2026-01-27 20:11:03.68	42.06	9.45	-50.2	-53.0	3.9	0.00e+00	0	49	104	0	72	19403
2026-01-27 20:11:04.67	42.24	9.52	-49.1	-51.6	4.1	0.00e+00	0	50	104	0	70	18480
2026-01-27 20:11:05.67	42.41	9.59	-48.7	-51.1	4.1	0.00e+00	0	50	104	0	69	18586
2026-01-27 20:11:06.66	42.59	9.67	-48.8	-51.3	4.1	0.00e+00	0	49	104	0	69	18877
2026-01-27 20:11:07.66	42.77	9.74	-50.1	-53.1	3.8	0.00e+00	0	49	104	0	70	21977
2026-01-27 20:11:08.65	42.95	9.82	-50.0	-52.9	3.8	0.00e+00	0	50	104	0	71	20200
2026-01-27 20:11:09.65	43.13	9.89	-51.8	-56.1	3.7	0.00e+00	0	49	104	0	74	24533
2026-01-27 20:11:10.64	43.31	9.97	-51.2	-54.6	3.7	0.00e+00	0	50	104	0	74	20709
2026-01-27 20:11:11.63	43.50	10.04	-50.0	-52.8	3.9	0.00e+00	0	50	104	0	72	18842
2026-01-27 20:11:12.63	43.68	10.12	-50.0	-52.7	4.0	0.00e+00	0	50	104	0	71	19826
2026-01-27 20:11:13.62	43.87	10.19	-50.4	-53.1	3.9	0.00e+00	0	50	104	0	71	20850
2026-01-27 20:11:14.61	44.05	10.27	-50.9	-53.9	3.8	0.00e+00	0	50	104	0	72	21491
2026-01-27 20:11:15.61	44.24	10.34	-51.6	-55.0	3.7	0.00e+00	0	50	104	0	73	22966
2026-01-27 20:11:16.60	44.43	10.42	-52.1	-55.9	3.7	0.00e+00	0	50	104	0	74	24069
2026-01-27 20:11:17.60	44.62	10.49	-52.2	-56.0	3.7	0.00e+00	0	50	104	0	75	22930
2026-01-27 20:11:18.59	44.81	10.57	-51.8	-55.2	3.7	0.00e+00	0	50	104	0	75	20883
2026-01-27 20:11:19.58	45.00	10.64	-52.3	-56.1	3.7	0.00e+00	0	50	104	0	75	23282
2026-01-27 20:11:20.58	45.20	10.72	-52.2	-55.9	3.7	0.00e+00	0	50	104	0	75	22869
2026-01-27 20:11:21.57	45.39	10.79	-51.9	-55.5	3.7	0.00e+00	0	50	104	0	75	21707
2026-01-27 20:11:22.57	45.59	10.87	-52.3	-56.2	3.7	0.00e+00	0	50	104	0	75	23480
2026-01-27 20:11:23.56	45.79	10.94	-52.6	-56.7	3.7	0.00e+00	0	50	104	0	75	24969
2026-01-27 20:11:24.56	45.99	11.02	-52.8	-57.0	3.7	0.00e+00	0	50	104	0	76	24445
2026-01-27 20:11:25.55	46.19	11.09	-52.8	-57.2	3.7	0.00e+00	0	50	104	0	76	24817
2026-01-27 20:11:26.54	46.39	11.17	-52.6	-57.0	3.7	0.00e+00	0	50	104	0	76	24443
2026-01-27 20:11:27.54	46.59	11.25	-52.4	-56.9	3.7	0.00e+00	0	50	104	0	76	24146
2026-01-27 20:11:28.53	46.79	11.32	-52.3	-56.9	3.7	0.00e+00	0	50	104	0	76	24242
2026-01-27 20:11:29.53	47.00	11.40	-52.4	-57.0	3.7	0.00e+00	0	50	104	0	76	24315
2026-01-27 20:11:30.52	47.21	11.47	-52.3	-56.5	3.7	0.00e+00	0	50	104	0	76	22916
2026-01-27 20:11:31.51	47.41	11.55	-52.5	-56.7	3.7	0.00e+00	0	50	104	0	76	23677
2026-01-27 20:11:32.51	47.62	11.62	-52.6	-57.0	3.7	0.00e+00	0	50	104	0	76	24428
2026-01-27 20:11:33.50	47.83	11.70	-52.7	-57.2	3.7	0.00e+00	0	50	104	0	76	24946
2026-01-27 20:11:34.50	48.05	11.78	-52.7	-57.2	3.7	0.00e+00	0	50	104	0	76	24894
2026-01-27 20:11:35.49	48.26	11.85	-52.6	-57.1	3.7	0.00e+00	0	50	104	0	76	24630
2026-01-27 20:11:36.48	48.47	11.93	-52.5	-56.9	3.7	0.00e+00	0	50	104	0	76	24095
2026-01-27 20:11:37.48	48.69	12.00	-52.1	-56.0	3.7	0.00e+00	0	50	104	0	76	21645
2026-01-27 20:11:38.47	48.90	12.08	-52.0	-55.7	3.7	0.00e+00	0	50	104	0	76	21110
2026-01-27 20:11:39.46	49.12	12.16	-52.0	-55.8	3.7	0.00e+00	0	50	104	0	76	21239
2026-01-27 20:11:40.46	49.34	12.23	-52.2	-56.2	3.7	0.00e+00	0	50	104	0	76	22234
2026-01-27 20:11:41.45	49.56	12.31	-52.6	-56.9	3.7	0.00e+00	0	51	104	0	76	24100
2026-01-27 20:11:42.45	49.79	12.38	-52.8	-57.2	3.7	0.00e+00	0	50	104	0	76	24924
2026-01-27 20:11:43.44	50.01	12.46	-52.6	-56.8	3.7	0.00e+00	0	50	104	0	76	23800
2026-01-27 20:11:44.43	50.23	12.53	-52.4	-56.2	3.7	0.00e+00	0	50	104	0	76	22235
2026-01-27 20:11:45.43	50.46	12.61	-52.5	-56.4	3.7	0.00e+00	0	50	104	0	76	22763
2026-01-27 20:11:46.42	50.69	12.69	-52.7	-57.0	3.7	0.00e+00	0	50	104	0	76	24330
2026-01-27 20:11:47.42	50.92	12.76	-52.9	-57.3	3.7	0.00e+00	0	51	104	0	76	25132
2026-01-27 20:11:48.41	51.15	12.84	-52.7	-56.8	3.7	0.00e+00	0	51	104	0	76	23775
2026-01-27 20:11:49.40	51.38	12.91	-52.9	-57.2	3.7	0.00e+00	0	51	104	0	76	25032
2026-01-27 20:11:50.39	51.61	12.99	-52.9	-57.3	3.7	0.00e+00	0	51	104	0	76	25160
2026-01-27 20:11:51.39	51.85	13.06	-52.8	-57.2	3.7	0.00e+00	0	51	104	0	76	24825
2026-01-27 20:11:52.38	52.08	13.14	-52.6	-56.8	3.7	0.00e+00	0	51	104	0	76	23852
2026-01-27 20:11:53.38	52.32	13.22	-52.5	-56.7	3.7	0.00e+00	0	50	104	0	76	23588
2026-01-27 20:11:54.37	52.56	13.29	-52.8	-57.5	3.7	0.00e+00	0	51	104	0	76	25733
2026-01-27 20:11:55.37	52.80	13.37	-52.8	-57.4	3.7	0.00e+00	0	50	104	0	76	25550
2026-01-27 20:11:56.36	53.04	13.44	-52.8	-57.4	3.7	0.00e+00	0	50	104	0	76	25578
2026-01-27 20:11:57.36	53.29	13.52	-52.9	-57.6	3.7	0.00e+00	0	51	104	0	76	26009
2026-01-27 20:11:58.35	53.53	13.59	-52.8	-57.4	3.7	0.00e+00	0	51	104	0	76	25667
2026-01-27 20:11:59.34	53.78	13.67	-52.7	-57.4	3.7	0.00e+00	0	50	104	0	76	25476
2026-01-27 20:12:00.34	54.03	13.74	-52.9	-57.4	3.7	0.00e+00	0	51	104	0	76	25672
2026-01-27 20:12:01.33	54.28	13.81	-52.9	-57.4	3.7	0.00e+00	0	51	104	0	76	25522
2026-01-27 20:12:02.33	54.53	13.89	-53.1	-57.6	3.7	0.00e+00	0	51	104	0	76	26211
2026-01-27 20:12:03.32	54.78	13.96	-53.0	-57.5	3.7	0.00e+00	0	51	104	0	76	25781
2026-01-27 20:12:04.31	55.04	14.04	-53.1	-57.7	3.7	0.00e+00	0	51	104	0	76	26542
2026-01-27 20:12:05.31	55.29	14.11	-53.2	-57.7	3.7	0.00e+00	0	51	104	0	77	24828
2026-01-27 20:12:06.30	55.55	14.19	-53.2	-57.8	3.7	0.00e+00	0	51	104	0	77	25135
2026-01-27 20:12:07.30	55.81	14.26	-53.2	-57.7	3.7	0.00e+00	0	51	104	0	77	24944
2026-01-27 20:12:08.29	56.07	14.33	-53.2	-57.7	3.7	0.00e+00	0	51	104	0	77	24980
2026-01-27 20:12:09.29	56.33	14.41	-53.3	-57.7	3.7	0.00e+00	0	51	104	0	77	25028
2026-01-27 20:12:10.28	56.59	14.48	-53.2	-57.6	3.7	0.00e+00	0	51	104	0	77	24745
2026-01-27 20:12:11.27	56.86	14.55	-53.3	-57.7	3.7	0.00e+00	0	51	104	0	77	24833
2026-01-27 20:12:12.27	57.12	14.62	-53.2	-57.6	3.7	0.00e+00	0	51	104	0	77	24759
2026-01-27 20:12:13.26	57.39	14.70	-53.2	-57.6	3.7	0.00e+00	0	51	104	0	77	24763
2026-01-27 20:12:14.25	57.66	14.77	-53.2	-57.6	3.7	0.00e+00	0	51	104	0	77	24784
2026-01-27 20:12:15.25	57.93	14.84	-53.1	-57.6	3.7	0.00e+00	0	51	104	0	77	24535
2026-01-27 20:12:16.24	58.20	14.91	-53.2	-57.5	3.7	0.00e+00	0	51	104	0	77	24513
2026-01-27 20:12:17.23	58.48	14.98	-53.3	-57.7	3.7	0.00e+00	0	51	104	0	77	24971
2026-01-27 20:12:18.23	58.75	15.05	-52.9	-57.0	3.7	0.00e+00	0	51	104	0	77	23090
2026-01-27 20:12:19.22	59.03	15.13	-53.2	-57.5	3.7	0.00e+00	0	51	104	0	77	24260
2026-01-27 20:12:20.22	59.31	15.20	-52.8	-57.0	3.7	0.00e+00	0	51	104	0	77	23104
2026-01-27 20:12:21.21	59.59	15.27	-52.9	-57.5	3.7	0.00e+00	0	51	104	0	77	24279
2026-01-27 20:12:22.21	59.87	15.34	-52.8	-57.4	3.7	0.00e+00	0	51	104	0	77	23985
2026-01-27 20:12:23.20	60.15	15.41	-52.8	-57.4	3.7	0.00e+00	0	51	104	0	77	24039
2026-01-27 20:12:24.20	60.44	15.48	-52.8	-57.3	3.7	0.00e+00	0	51	104	0	77	23866
2026-01-27 20:12:25.19	60.73	15.54	-53.3	-57.9	3.7	0.00e+00	0	51	104	0	77	25412
2026-01-27 20:12:26.18	61.01	15.61	-53.2	-57.7	3.7	0.00e+00	0	51	104	0	77	24889
2026-01-27 20:12:27.18	61.30	15.68	-53.2	-57.7	3.7	0.00e+00	0	51	104	0	77	24954
2026-01-27 20:12:28.17	61.59	15.75	-53.1	-57.7	3.7	0.00e+00	0	51	104	0	77	24913
2026-01-27 20:12:29.16	61.89	15.82	-53.1	-57.7	3.7	0.00e+00	0	51	104	0	77	25010
2026-01-27 20:12:30.16	62.18	15.88	-53.3	-57.8	3.7	0.00e+00	0	51	104	0	77	25360
2026-01-27 20:12:31.15	62.48	15.95	-53.2	-57.8	3.7	0.00e+00	0	51	104	0	77	25200
2026-01-27 20:12:32.14	62.77	16.02	-53.3	-57.8	3.7	0.00e+00	0	51	104	0	77	25213
2026-01-27 20:12:33.14	63.07	16.08	-53.3	-57.8	3.7	0.00e+00	0	51	104	0	77	25356
2026-01-27 20:12:34.13	63.37	16.15	-53.4	-57.8	3.7	0.00e+00	0	51	104	0	77	25381
2026-01-27 20:12:35.12	63.67	16.21	-53.3	-57.8	3.7	0.00e+00	0	51	104	0	77	25360
2026-01-27 20:12:36.12	63.98	16.28	-53.3	-57.8	3.7	0.00e+00	0	51	104	0	77	25316
2026-01-27 20:12:37.11	64.28	16.34	-53.3	-57.8	3.7	0.00e+00	0	51	104	0	77	25237
2026-01-27 20:12:38.11	64.59	16.41	-53.2	-57.7	3.7	0.00e+00	0	51	104	0	77	25018
2026-01-27 20:12:39.10	64.90	16.47	-53.4	-57.9	3.7	0.00e+00	0	51	104	0	77	25669
2026-01-27 20:12:40.09	65.21	16.53	-53.4	-57.9	3.7	0.00e+00	0	51	104	0	77	25394
2026-01-27 20:12:41.09	65.52	16.60	-53.2	-57.6	3.7	0.00e+00	0	51	104	0	77	24775
2026-01-27 20:12:42.08	65.83	16.66	-53.3	-57.7	3.7	0.00e+00	0	51	104	0	77	24996
2026-01-27 20:12:43.08	66.15	16.72	-53.1	-57.6	3.7	0.00e+00	0	51	104	0	77	24668
2026-01-27 20:12:44.07	66.46	16.78	-52.9	-57.5	3.7	0.00e+00	0	51	104	0	77	24383
2026-01-27 20:12:45.06	66.78	16.84	-53.1	-57.7	3.7	0.00e+00	0	51	104	0	77	25083
2026-01-27 20:12:46.06	67.10	16.90	-53.0	-57.6	3.7	0.00e+00	0	51	104	0	77	24722
2026-01-27 20:12:47.05	67.41	16.96	-53.2	-57.7	3.7	0.00e+00	0	51	104	0	77	24894
2026-01-27 20:12:48.05	67.74	17.02	-53.4	-57.8	3.7	0.00e+00	0	51	104	0	77	25325
2026-01-27 20:12:49.04	68.06	17.08	-53.2	-57.5	3.7	0.00e+00	0	51	104	0	77	24519
2026-01-27 20:12:50.04	68.39	17.13	-53.4	-57.7	3.7	0.00e+00	0	51	104	0	77	24845
2026-01-27 20:12:51.03	68.71	17.19	-53.2	-57.5	3.7	0.00e+00	0	51	104	0	77	24513
2026-01-27 20:12:52.03	69.04	17.25	-53.3	-57.7	3.7	0.00e+00	0	51	104	0	77	25001
2026-01-27 20:12:53.02	69.37	17.30	-53.2	-57.7	3.7	0.00e+00	0	51	104	0	77	24997
2026-01-27 20:12:54.01	69.70	17.36	-53.2	-57.8	3.7	0.00e+00	0	51	104	0	77	25158
2026-01-27 20:12:55.01	70.03	17.41	-52.9	-57.5	3.7	0.00e+00	0	51	104	0	77	24411
2026-01-27 20:12:56.00	70.36	17.46	-53.1	-57.6	3.7	0.00e+00	0	51	104	0	77	24532
2026-01-27 20:12:57.00	70.70	17.52	-53.2	-57.7	3.7	0.00e+00	0	51	104	0	77	24809
2026-01-27 20:12:58.00	71.04	17.57	-53.0	-57.4	3.7	0.00e+00	0	51	104	0	77	24050
2026-01-27 20:12:58.99	71.37	17.62	-53.3	-57.8	3.7	0.00e+00	0	51	104	0	77	25361
2026-01-27 20:12:59.98	71.71	17.67	-53.3	-57.8	3.7	0.00e+00	0	51	104	0	77	25188
2026-01-27 20:13:00.98	72.05	17.72	-53.3	-57.8	3.7	0.00e+00	0	51	104	0	77	25283
2026-01-27 20:13:01.97	72.39	17.77	-53.3	-57.8	3.7	0.00e+00	0	51	104	0	77	25342
2026-01-27 20:13:02.97	72.73	17.82	-53.2	-57.7	3.7	0.00e+00	0	51	104	0	77	24980
2026-01-27 20:13:03.97	73.08	17.87	-53.2	-57.7	3.7	0.00e+00	0	51	104	0	77	25002
2026-01-27 20:13:04.96	73.42	17.92	-53.2	-57.7	3.7	0.00e+00	0	51	104	0	77	24848
2026-01-27 20:13:05.95	73.77	17.96	-53.2	-57.6	3.7	0.00e+00	0	51	104	0	77	24783
2026-01-27 20:13:06.95	74.12	18.01	-53.3	-57.8	3.7	0.00e+00	0	51	104	0	77	25232
2026-01-27 20:13:07.94	74.46	18.05	-53.5	-57.9	3.7	0.00e+00	0	51	104	0	77	25594
2026-01-27 20:13:08.93	74.81	18.10	-53.3	-57.8	3.7	0.00e+00	0	51	104	0	77	25286
2026-01-27 20:13:09.93	75.16	18.14	-53.4	-57.9	3.7	0.00e+00	0	51	104	0	77	25487
2026-01-27 20:13:10.92	75.51	18.18	-53.1	-57.7	3.7	0.00e+00	0	51	104	0	77	25062
2026-01-27 20:13:11.92	75.87	18.22	-53.0	-57.7	3.7	0.00e+00	0	51	104	0	77	24809
2026-01-27 20:13:12.91	76.22	18.26	-53.1	-57.7	3.7	0.00e+00	0	51	104	0	77	25081
2026-01-27 20:13:13.90	76.58	18.30	-52.9	-57.6	3.7	0.00e+00	0	51	104	0	77	24567
2026-01-27 20:13:14.90	76.93	18.34	-53.2	-57.8	3.7	0.00e+00	0	51	104	0	77	25189
2026-01-27 20:13:15.89	77.29	18.38	-53.3	-57.9	3.7	0.00e+00	0	51	104	0	77	25418
2026-01-27 20:13:16.89	77.65	18.42	-53.2	-57.8	3.7	0.00e+00	0	51	104	0	77	25245
2026-01-27 20:13:17.88	78.01	18.45	-53.2	-57.8	3.7	0.00e+00	0	51	104	0	77	25153
2026-01-27 20:13:18.87	78.37	18.49	-53.2	-57.8	3.7	0.00e+00	0	51	104	0	77	25249
2026-01-27 20:13:19.87	78.73	18.52	-53.1	-57.7	3.7	0.00e+00	0	51	104	0	77	24909
2026-01-27 20:13:20.86	79.09	18.55	-53.0	-57.4	3.7	0.00e+00	0	51	104	0	77	24226
2026-01-27 20:13:21.86	79.46	18.59	-53.1	-57.5	3.7	0.00e+00	0	51	104	0	77	24498
2026-01-27 20:13:22.85	79.82	18.62	-52.9	-57.3	3.7	0.00e+00	0	51	104	0	77	23959
2026-01-27 20:13:23.85	80.19	18.65	-53.0	-57.6	3.7	0.00e+00	0	51	104	0	77	24552
2026-01-27 20:13:24.84	80.55	18.68	-52.7	-57.5	3.7	0.00e+00	0	51	104	0	77	24357
2026-01-27 20:13:25.83	80.92	18.71	-52.7	-57.4	3.7	0.00e+00	0	51	104	0	77	24101
2026-01-27 20:13:26.83	81.29	18.73	-52.5	-57.3	3.7	0.00e+00	0	51	104	0	77	23955
2026-01-27 20:13:27.83	81.66	18.76	-52.8	-57.6	3.7	0.00e+00	0	51	104	0	76	26206
2026-01-27 20:13:28.82	82.02	18.79	-52.7	-57.5	3.7	0.00e+00	0	51	104	0	76	25936
2026-01-27 20:13:29.82	82.39	18.81	-52.7	-57.6	3.7	0.00e+00	0	51	104	0	76	26048
2026-01-27 20:13:30.81	82.76	18.83	-52.5	-57.4	3.7	0.00e+00	0	51	104	0	76	25540
2026-01-27 20:13:31.81	83.14	18.86	-52.4	-57.3	3.7	0.00e+00	0	51	104	0	76	25279
2026-01-27 20:13:32.80	83.51	18.88	-51.9	-57.0	3.7	0.00e+00	0	51	104	0	75	25792
2026-01-27 20:13:33.80	83.88	18.90	-51.9	-57.0	3.7	0.00e+00	0	51	104	0	75	25753
2026-01-27 20:13:34.79	84.25	18.92	-52.1	-57.1	3.7	0.00e+00	0	52	104	0	75	26137
2026-01-27 20:13:35.79	84.63	18.93	-52.5	-57.5	3.7	0.00e+00	0	51	104	0	75	27362
2026-01-27 20:13:36.78	85.00	18.95	-52.5	-57.4	3.7	0.00e+00	0	51	104	0	75	27138
2026-01-27 20:13:37.78	85.38	18.97	-52.4	-57.3	3.7	0.00e+00	0	51	104	0	75	26871
2026-01-27 20:13:38.77	85.75	18.98	-52.3	-57.2	3.7	0.00e+00	0	51	104	0	75	26463
2026-01-27 20:13:39.76	86.12	19.00	-52.4	-57.1	3.7	0.00e+00	0	51	104	0	75	26128
2026-01-27 20:13:40.76	86.50	19.01	-52.4	-57.0	3.7	0.00e+00	0	51	104	0	75	25717
2026-01-27 20:13:41.75	86.88	19.02	-52.3	-56.9	3.7	0.00e+00	0	51	104	0	75	25659
2026-01-27 20:13:42.75	87.25	19.03	-52.6	-57.0	3.7	0.00e+00	0	51	104	0	75	25877
2026-01-27 20:13:43.74	87.63	19.04	-52.7	-57.3	3.7	0.00e+00	0	51	104	0	75	26612
2026-01-27 20:13:44.74	88.01	19.05	-52.8	-57.5	3.7	0.00e+00	0	51	104	0	76	25957
2026-01-27 20:13:45.73	88.38	19.06	-52.7	-57.4	3.7	0.00e+00	0	51	104	0	76	25547
2026-01-27 20:13:46.72	88.76	19.06	-52.7	-57.4	3.7	0.00e+00	0	51	104	0	76	25587
2026-01-27 20:13:47.72	89.14	19.07	-52.7	-57.2	3.6	0.00e+00	0	51	104	0	76	24925
2026-01-27 20:13:48.72	89.52	19.07	-52.8	-57.1	3.7	0.00e+00	0	51	104	0	76	24712
2026-01-27 20:13:49.71	89.89	19.08	-52.9	-57.2	3.7	0.00e+00	0	51	104	0	76	24873
2026-01-27 20:13:50.70	90.27	19.08	-52.9	-57.4	3.7	0.00e+00	0	51	104	0	76	25458
2026-01-27 20:13:51.70	90.65	19.08	-52.6	-57.1	3.7	0.00e+00	0	51	104	0	76	24596
2026-01-27 20:13:52.69	91.03	19.08	-53.0	-57.6	3.6	0.00e+00	0	51	104	0	76	26035
2026-01-27 20:13:53.69	91.41	19.08	-53.0	-57.5	3.6	0.00e+00	0	51	104	0	76	25680
2026-01-27 20:13:54.68	91.78	19.08	-53.1	-57.6	3.7	0.00e+00	0	51	104	0	76	26146
2026-01-27 20:13:55.67	92.16	19.07	-53.4	-57.9	3.7	0.00e+00	0	51	104	0	77	25569
2026-01-27 20:13:56.66	92.54	19.07	-53.4	-57.8	3.7	0.00e+00	0	51	104	0	77	25325
2026-01-27 20:13:57.66	92.92	19.06	-53.4	-57.8	3.7	0.00e+00	0	51	104	0	77	25291
2026-01-27 20:13:58.66	93.30	19.06	-53.2	-57.7	3.7	0.00e+00	0	51	104	0	77	24978
2026-01-27 20:13:59.65	93.67	19.05	-52.7	-57.5	3.7	0.00e+00	0	51	104	0	77	24379
2026-01-27 20:14:00.64	94.05	19.04	-52.9	-57.6	3.7	0.00e+00	0	51	104	0	77	24658
2026-01-27 20:14:01.64	94.43	19.03	-52.9	-57.6	3.7	0.00e+00	0	51	104	0	77	24689
2026-01-27 20:14:02.63	94.80	19.02	-53.2	-57.8	3.7	0.00e+00	0	51	104	0	77	25168
2026-01-27 20:14:03.62	95.18	19.01	-53.2	-57.8	3.7	0.00e+00	0	52	104	0	77	25111
2026-01-27 20:14:04.62	95.55	18.99	-53.2	-57.7	3.7	0.00e+00	0	51	104	0	77	25085
2026-01-27 20:14:05.61	95.93	18.98	-53.2	-57.8	3.7	0.00e+00	0	52	104	0	77	25115
2026-01-27 20:14:06.61	96.30	18.96	-53.2	-57.8	3.7	0.00e+00	0	52	104	0	77	25221
2026-01-27 20:14:07.60	96.68	18.95	-53.2	-57.9	3.7	0.00e+00	0	52	104	0	77	25428
2026-01-27 20:14:08.60	97.05	18.93	-53.3	-57.8	3.7	0.00e+00	0	51	104	0	77	25328
2026-01-27 20:14:09.59	97.43	18.91	-53.3	-57.8	3.7	0.00e+00	0	51	104	0	77	25182
2026-01-27 20:14:10.58	97.80	18.89	-53.2	-57.7	3.7	0.00e+00	0	51	104	0	77	24942
2026-01-27 20:14:11.58	98.17	18.87	-53.3	-57.8	3.7	0.00e+00	0	51	104	0	77	25105
2026-01-27 20:14:12.57	98.54	18.85	-53.3	-57.9	3.7	0.00e+00	0	51	104	0	77	25535
2026-01-27 20:14:13.57	98.92	18.83	-53.3	-57.9	3.7	0.00e+00	0	51	104	0	77	25532
2026-01-27 20:14:14.56	99.29	18.80	-53.3	-57.9	3.7	0.00e+00	0	51	104	0	77	25469
2026-01-27 20:14:15.55	99.65	18.78	-53.0	-57.7	3.7	0.00e+00	0	51	104	0	77	25011
2026-01-27 20:14:16.55	100.03	18.75	-53.0	-57.6	3.7	0.00e+00	0	52	104	0	77	24723
2026-01-27 20:14:17.54	100.39	18.72	-53.1	-57.6	3.7	0.00e+00	0	51	104	0	77	24754
2026-01-27 20:14:18.53	100.76	18.70	-53.2	-57.7	3.7	0.00e+00	0	51	104	0	77	24851
2026-01-27 20:14:19.53	101.13	18.67	-53.5	-57.9	3.7	0.00e+00	0	51	104	0	77	25486
2026-01-27 20:14:20.52	101.49	18.64	-53.4	-57.9	3.7	0.00e+00	0	51	104	0	77	25477
2026-01-27 20:14:21.51	101.86	18.61	-53.3	-57.8	3.7	0.00e+00	0	51	104	0	77	25355
2026-01-27 20:14:22.50	102.22	18.58	-53.3	-57.8	3.7	0.00e+00	0	51	104	0	77	25361
2026-01-27 20:14:23.50	102.59	18.54	-53.4	-57.9	3.7	0.00e+00	0	52	104	0	77	25423
2026-01-27 20:14:24.49	102.95	18.51	-53.4	-57.9	3.7	0.00e+00	0	51	104	0	77	25474
2026-01-27 20:14:25.48	103.31	18.47	-53.4	-57.9	3.7	0.00e+00	0	51	104	0	77	25613
2026-01-27 20:14:26.48	103.67	18.44	-53.4	-57.9	3.7	0.00e+00	0	51	104	0	77	25596
2026-01-27 20:14:27.47	104.03	18.40	-53.4	-57.9	3.7	0.00e+00	0	51	104	0	77	25648
2026-01-27 20:14:28.47	104.39	18.37	-53.3	-57.9	3.7	0.00e+00	0	51	104	0	77	25605
2026-01-27 20:14:29.46	104.75	18.33	-53.2	-57.8	3.7	0.00e+00	0	51	104	0	77	25371
2026-01-27 20:14:30.45	105.11	18.29	-53.2	-57.9	3.7	0.00e+00	0	51	104	0	77	25401
2026-01-27 20:14:31.45	105.46	18.25	-53.3	-57.9	3.7	0.00e+00	0	51	104	0	77	25440
2026-01-27 20:14:32.44	105.82	18.21	-53.3	-57.9	3.7	0.00e+00	0	52	104	0	77	25517
2026-01-27 20:14:33.44	106.17	18.16	-53.3	-57.9	3.7	0.00e+00	0	52	104	0	77	25586
2026-01-27 20:14:34.43	106.52	18.12	-53.3	-57.9	3.7	0.00e+00	0	51	104	0	77	25493
2026-01-27 20:14:35.42	106.87	18.08	-53.1	-57.8	3.7	0.00e+00	0	52	104	0	77	25274
2026-01-27 20:14:36.42	107.23	18.03	-53.0	-57.7	3.6	0.00e+00	0	51	104	0	77	24871
2026-01-27 20:14:37.41	107.58	17.99	-53.1	-57.7	3.7	0.00e+00	0	51	104	0	77	25092
2026-01-27 20:14:38.40	107.92	17.94	-53.1	-57.7	3.7	0.00e+00	0	51	104	0	77	25002
2026-01-27 20:14:39.40	108.27	17.90	-53.3	-57.9	3.7	0.00e+00	0	52	104	0	77	25402
2026-01-27 20:14:40.39	108.62	17.85	-53.4	-57.8	3.7	0.00e+00	0	52	104	0	77	25278
2026-01-27 20:14:41.38	108.96	17.80	-53.3	-57.8	3.7	0.00e+00	0	52	104	0	77	25173
2026-01-27 20:14:42.38	109.30	17.75	-53.3	-57.8	3.7	0.00e+00	0	51	104	0	77	25273
2026-01-27 20:14:43.37	109.64	17.70	-53.0	-57.7	3.7	0.00e+00	0	51	104	0	77	24808
2026-01-27 20:14:44.37	109.99	17.65	-53.1	-57.7	3.7	0.00e+00	0	52	104	0	77	25029
2026-01-27 20:14:45.36	110.33	17.60	-52.9	-57.6	3.7	0.00e+00	0	52	104	0	77	24659
2026-01-27 20:14:46.35	110.66	17.55	-52.9	-57.6	3.7	0.00e+00	0	51	104	0	77	24651
2026-01-27 20:14:47.35	111.00	17.50	-52.9	-57.6	3.7	0.00e+00	0	51	104	0	77	24557
2026-01-27 20:14:48.34	111.33	17.44	-52.9	-57.6	3.7	0.00e+00	0	52	104	0	77	24641
2026-01-27 20:14:49.34	111.67	17.39	-53.1	-57.7	3.7	0.00e+00	0	52	104	0	77	24923
2026-01-27 20:14:50.33	112.00	17.33	-53.0	-57.6	3.7	0.00e+00	0	51	104	0	77	24745
2026-01-27 20:14:51.32	112.33	17.28	-53.1	-57.8	3.7	0.00e+00	0	51	104	0	77	25118
2026-01-27 20:14:52.32	112.66	17.22	-53.1	-57.7	3.7	0.00e+00	0	52	104	0	77	24999
2026-01-27 20:14:53.31	112.99	17.17	-53.2	-57.8	3.7	0.00e+00	0	51	104	0	77	25138
2026-01-27 20:14:54.30	113.32	17.11	-53.1	-57.7	3.7	0.00e+00	0	51	104	0	77	25062
2026-01-27 20:14:55.30	113.64	17.05	-53.3	-57.8	3.7	0.00e+00	0	51	104	0	77	25134
2026-01-27 20:14:56.29	113.97	16.99	-53.4	-57.8	3.7	0.00e+00	0	51	104	0	77	25327
2026-01-27 20:14:57.29	114.29	16.93	-53.4	-57.9	3.7	0.00e+00	0	51	104	0	77	25406
2026-01-27 20:14:58.28	114.61	16.87	-53.4	-57.9	3.7	0.00e+00	0	51	104	0	77	25429
2026-01-27 20:14:59.27	114.93	16.81	-53.3	-57.8	3.7	0.00e+00	0	51	104	0	77	25165
2026-01-27 20:15:00.27	115.25	16.75	-53.3	-57.7	3.7	0.00e+00	0	51	104	0	77	25067
2026-01-27 20:15:01.27	115.57	16.69	-53.3	-57.7	3.7	0.00e+00	0	51	104	0	77	25073
2026-01-27 20:15:02.26	115.88	16.63	-53.3	-57.7	3.7	0.00e+00	0	51	104	0	77	24993
2026-01-27 20:15:03.25	116.19	16.56	-53.3	-57.8	3.7	0.00e+00	0	51	104	0	77	25193
2026-01-27 20:15:04.25	116.51	16.50	-53.4	-57.9	3.7	0.00e+00	0	51	104	0	77	25407
2026-01-27 20:15:05.24	116.82	16.44	-53.2	-57.7	3.7	0.00e+00	0	51	104	0	77	24987
2026-01-27 20:15:06.23	117.13	16.37	-53.3	-57.8	3.7	0.00e+00	0	51	104	0	77	25144
2026-01-27 20:15:07.23	117.44	16.31	-53.1	-57.6	3.6	0.00e+00	0	51	104	0	77	24702
2026-01-27 20:15:08.22	117.74	16.24	-53.1	-57.6	3.7	0.00e+00	0	51	104	0	77	24654
2026-01-27 20:15:09.22	118.05	16.18	-53.1	-57.6	3.7	0.00e+00	0	51	104	0	77	24674
2026-01-27 20:15:10.21	118.35	16.11	-52.9	-57.5	3.7	0.00e+00	0	51	104	0	77	24310
2026-01-27 20:15:11.21	118.65	16.05	-53.3	-57.8	3.7	0.00e+00	0	51	104	0	77	25139
2026-01-27 20:15:12.20	118.95	15.98	-53.4	-57.8	3.7	0.00e+00	0	52	104	0	77	25311
2026-01-27 20:15:13.19	119.25	15.91	-53.5	-57.9	3.7	0.00e+00	0	51	104	0	77	25635
2026-01-27 20:15:14.19	119.55	15.85	-53.4	-57.8	3.7	0.00e+00	0	52	104	0	77	25256
2026-01-27 20:15:15.18	119.84	15.78	-53.4	-57.8	3.7	0.00e+00	0	51	104	0	77	25313
2026-01-27 20:15:16.18	120.14	15.71	-53.2	-57.7	3.7	0.00e+00	0	52	104	0	77	24945
2026-01-27 20:15:17.17	120.43	15.64	-53.2	-57.7	3.7	0.00e+00	0	52	104	0	77	25027
2026-01-27 20:15:18.16	120.72	15.57	-53.2	-57.6	3.7	0.00e+00	0	52	104	0	77	24685
2026-01-27 20:15:19.16	121.01	15.50	-53.2	-57.7	3.7	0.00e+00	0	51	104	0	77	25013
2026-01-27 20:15:20.15	121.30	15.43	-53.2	-57.7	3.7	0.00e+00	0	51	104	0	77	25041
2026-01-27 20:15:21.15	121.58	15.36	-53.2	-57.7	3.7	0.00e+00	0	51	104	0	77	24839
2026-01-27 20:15:22.14	121.87	15.29	-53.2	-57.7	3.7	0.00e+00	0	52	104	0	77	24883
2026-01-27 20:15:23.14	122.15	15.22	-53.1	-57.7	3.7	0.00e+00	0	51	104	0	77	24890
2026-01-27 20:15:24.13	122.43	15.15	-53.3	-57.7	3.7	0.00e+00	0	51	104	0	77	24907
2026-01-27 20:15:25.13	122.71	15.08	-53.4	-57.8	3.7	0.00e+00	0	51	104	0	77	25262
2026-01-27 20:15:26.12	122.99	15.01	-53.3	-57.7	3.7	0.00e+00	0	52	104	0	77	24915
2026-01-27 20:15:27.12	123.27	14.93	-53.3	-57.7	3.7	0.00e+00	0	52	104	0	77	25092
2026-01-27 20:15:28.11	123.54	14.86	-53.3	-57.7	3.7	0.00e+00	0	52	104	0	77	24942
2026-01-27 20:15:29.11	123.82	14.79	-53.1	-57.6	3.7	0.00e+00	0	52	104	0	77	24547
2026-01-27 20:15:30.10	124.09	14.72	-53.2	-57.6	3.7	0.00e+00	0	51	104	0	77	24645
2026-01-27 20:15:31.10	124.36	14.64	-53.1	-57.6	3.7	0.00e+00	0	52	104	0	77	24553
2026-01-27 20:15:32.09	124.63	14.57	-53.2	-57.5	3.7	0.00e+00	0	51	104	0	77	24475
2026-01-27 20:15:33.09	124.90	14.50	-53.3	-57.7	3.7	0.00e+00	0	51	104	0	77	25056
2026-01-27 20:15:34.08	125.16	14.42	-53.1	-57.5	3.7	0.00e+00	0	51	104	0	77	24388
2026-01-27 20:15:35.07	125.42	14.35	-53.3	-57.8	3.7	0.00e+00	0	51	104	0	77	25121
2026-01-27 20:15:36.07	125.69	14.28	-53.4	-57.7	3.7	0.00e+00	0	51	104	0	77	25075
2026-01-27 20:15:37.06	125.95	14.20	-53.3	-57.6	3.7	0.00e+00	0	51	104	0	77	24781
2026-01-27 20:15:38.05	126.21	14.13	-53.3	-57.6	3.7	0.00e+00	0	51	104	0	77	24741
2026-01-27 20:15:39.05	126.47	14.05	-53.2	-57.6	3.7	0.00e+00	0	52	104	0	77	24559
2026-01-27 20:15:40.04	126.72	13.98	-53.3	-57.7	3.7	0.00e+00	0	51	104	0	77	24873
2026-01-27 20:15:41.03	126.98	13.90	-52.7	-57.3	3.7	0.00e+00	0	52	104	0	77	23836
2026-01-27 20:15:42.03	127.23	13.83	-53.1	-57.5	3.7	0.00e+00	0	51	104	0	77	24281
2026-01-27 20:15:43.02	127.48	13.75	-52.6	-57.3	3.7	0.00e+00	0	51	104	0	77	23730
2026-01-27 20:15:44.02	127.74	13.68	-52.7	-57.2	3.7	0.00e+00	0	52	104	0	76	25069
2026-01-27 20:15:45.01	127.98	13.60	-52.6	-57.2	3.7	0.00e+00	0	52	104	0	76	24940
2026-01-27 20:15:46.00	128.23	13.53	-52.3	-57.0	3.7	0.00e+00	0	51	104	0	76	24249
2026-01-27 20:15:47.00	128.48	13.45	-52.3	-57.1	3.7	0.00e+00	0	51	104	0	76	24563
2026-01-27 20:15:47.99	128.72	13.38	-52.8	-57.3	3.7	0.00e+00	0	51	104	0	76	25197
2026-01-27 20:15:48.98	128.96	13.30	-52.8	-57.2	3.7	0.00e+00	0	52	104	0	76	24976
2026-01-27 20:15:49.98	129.21	13.22	-52.7	-57.2	3.7	0.00e+00	0	51	104	0	76	24975
2026-01-27 20:15:50.97	129.45	13.15	-52.8	-57.2	3.7	0.00e+00	0	51	104	0	76	24972
2026-01-27 20:15:51.97	129.69	13.07	-52.8	-57.2	3.7	0.00e+00	0	52	104	0	76	24902
2026-01-27 20:15:52.96	129.92	13.00	-53.0	-57.3	3.7	0.00e+00	0	52	104	0	76	25201
2026-01-27 20:15:53.96	130.16	12.92	-52.8	-57.1	3.7	0.00e+00	0	51	104	0	76	24651
2026-01-27 20:15:54.95	130.39	12.84	-52.9	-57.2	3.7	0.00e+00	0	51	104	0	76	25074
2026-01-27 20:15:55.95	130.63	12.77	-53.0	-57.4	3.7	0.00e+00	0	51	104	0	76	25547
2026-01-27 20:15:56.94	130.86	12.69	-52.6	-57.2	3.7	0.00e+00	0	52	104	0	76	25089
2026-01-27 20:15:57.94	131.09	12.61	-52.8	-57.3	3.7	0.00e+00	0	52	104	0	76	25157
2026-01-27 20:15:58.93	131.32	12.54	-52.5	-57.2	3.7	0.00e+00	0	51	104	0	76	24812
2026-01-27 20:15:59.92	131.54	12.46	-52.8	-57.3	3.7	0.00e+00	0	52	104	0	76	25140
2026-01-27 20:16:00.92	131.77	12.38	-52.7	-57.2	3.7	0.00e+00	0	52	104	0	76	24910
2026-01-27 20:16:01.91	132.00	12.31	-52.6	-57.1	3.7	0.00e+00	0	51	104	0	76	24793
2026-01-27 20:16:02.91	132.22	12.23	-52.9	-57.3	3.7	0.00e+00	0	51	104	0	76	25293
2026-01-27 20:16:03.90	132.44	12.15	-52.8	-57.2	3.7	0.00e+00	0	51	104	0	76	24929
2026-01-27 20:16:04.90	132.66	12.08	-52.6	-57.2	3.7	0.00e+00	0	51	104	0	76	24851
2026-01-27 20:16:05.89	132.88	12.00	-52.8	-57.2	3.7	0.00e+00	0	51	104	0	76	25010
2026-01-27 20:16:06.88	133.10	11.92	-52.7	-57.2	3.7	0.00e+00	0	52	104	0	76	25001
2026-01-27 20:16:07.88	133.31	11.85	-52.6	-57.2	3.7	0.00e+00	0	51	104	0	76	24846
2026-01-27 20:16:08.87	133.53	11.77	-52.9	-57.4	3.7	0.00e+00	0	51	104	0	76	25654
2026-01-27 20:16:09.87	133.74	11.69	-52.8	-57.3	3.7	0.00e+00	0	51	104	0	76	25308
2026-01-27 20:16:10.86	133.96	11.62	-52.8	-57.3	3.7	0.00e+00	0	52	104	0	76	25176
2026-01-27 20:16:11.85	134.17	11.54	-52.8	-57.3	3.7	0.00e+00	0	51	104	0	76	25261
2026-01-27 20:16:12.85	134.38	11.46	-52.4	-57.0	3.7	0.00e+00	0	51	104	0	76	24393
2026-01-27 20:16:13.84	134.58	11.39	-52.6	-57.2	3.7	0.00e+00	0	52	104	0	76	25005
2026-01-27 20:16:14.84	134.79	11.31	-52.5	-57.0	3.7	0.00e+00	0	52	104	0	76	24495
2026-01-27 20:16:15.84	135.00	11.23	-52.7	-57.3	3.7	0.00e+00	0	51	104	0	76	25114
2026-01-27 20:16:16.83	135.20	11.16	-52.8	-57.3	3.7	0.00e+00	0	52	104	0	76	25113
2026-01-27 20:16:17.83	135.41	11.08	-52.5	-57.1	3.7	0.00e+00	0	51	104	0	76	24637
2026-01-27 20:16:18.82	135.61	11.00	-52.8	-57.2	3.7	0.00e+00	0	51	104	0	76	25006
2026-01-27 20:16:19.81	135.81	10.93	-52.9	-57.4	3.7	0.00e+00	0	52	104	0	76	25527
2026-01-27 20:16:20.81	136.01	10.85	-53.0	-57.5	3.7	0.00e+00	0	51	104	0	76	25930
2026-01-27 20:16:21.80	136.21	10.78	-52.9	-57.4	3.7	0.00e+00	0	52	104	0	76	25504
2026-01-27 20:16:22.80	136.40	10.70	-52.8	-57.4	3.7	0.00e+00	0	52	104	0	76	25538
2026-01-27 20:16:23.79	136.60	10.62	-53.0	-57.5	3.7	0.00e+00	0	51	104	0	76	25689
2026-01-27 20:16:24.79	136.80	10.55	-52.7	-57.2	3.7	0.00e+00	0	51	104	0	76	25090
2026-01-27 20:16:25.78	136.99	10.47	-52.9	-57.4	3.7	0.00e+00	0	52	104	0	76	25435
2026-01-27 20:16:26.77	137.18	10.39	-52.9	-57.3	3.7	0.00e+00	0	51	104	0	76	25333
2026-01-27 20:16:27.77	137.37	10.32	-52.8	-57.3	3.7	0.00e+00	0	52	104	0	76	25266
2026-01-27 20:16:28.76	137.56	10.24	-52.9	-57.3	3.7	0.00e+00	0	52	104	0	76	25331
2026-01-27 20:16:29.76	137.75	10.17	-52.8	-57.3	3.7	0.00e+00	0	52	104	0	76	25180
2026-01-27 20:16:30.75	137.94	10.09	-52.9	-57.4	3.7	0.00e+00	0	51	104	0	76	25427
2026-01-27 20:16:31.75	138.12	10.02	-52.9	-57.3	3.7	0.00e+00	0	51	104	0	76	25329
2026-01-27 20:16:32.74	138.31	9.94	-52.7	-57.3	3.7	0.00e+00	0	51	104	0	76	25127
2026-01-27 20:16:33.74	138.49	9.86	-52.8	-57.3	3.7	0.00e+00	0	51	104	0	76	25319
2026-01-27 20:16:34.73	138.68	9.79	-52.7	-57.2	3.7	0.00e+00	0	51	104	0	76	25085
2026-01-27 20:16:35.72	138.86	9.71	-52.6	-57.2	3.7	0.00e+00	0	52	104	0	76	24813
2026-01-27 20:16:36.72	139.04	9.64	-52.6	-57.0	3.7	0.00e+00	0	52	104	0	76	24358
2026-01-27 20:16:37.71	139.22	9.56	-52.5	-57.0	3.7	0.00e+00	0	51	104	0	76	24479
2026-01-27 20:16:38.71	139.40	9.49	-52.5	-57.0	3.7	0.00e+00	0	51	104	0	76	24246
2026-01-27 20:16:39.70	139.57	9.41	-52.6	-57.0	3.7	0.00e+00	0	52	104	0	76	24483
2026-01-27 20:16:40.69	139.75	9.34	-52.3	-56.8	3.7	0.00e+00	0	51	104	0	76	23875
2026-01-27 20:16:41.69	139.92	9.27	-52.4	-56.9	3.7	0.00e+00	0	52	104	0	76	24080
2026-01-27 20:16:42.68	140.10	9.19	-52.4	-57.0	3.7	0.00e+00	0	52	104	0	76	24418
2026-01-27 20:16:43.68	140.27	9.12	-52.0	-56.7	3.7	0.00e+00	0	52	104	0	76	23463
2026-01-27 20:16:44.67	140.44	9.04	-52.1	-56.8	3.7	0.00e+00	0	51	104	0	75	25120
2026-01-27 20:16:45.67	140.61	8.97	-51.9	-56.6	3.7	0.00e+00	0	51	104	0	75	24670
2026-01-27 20:16:46.66	140.78	8.89	-53.1	-57.4	3.7	0.00e+00	0	52	104	0	76	25460
2026-01-27 20:16:47.65	140.95	8.82	-53.1	-57.5	3.7	0.00e+00	0	51	104	0	77	24493
2026-01-27 20:16:48.65	141.12	8.75	-53.2	-57.6	3.7	0.00e+00	0	51	104	0	77	24772
2026-01-27 20:16:49.64	141.28	8.67	-53.3	-57.7	3.7	0.00e+00	0	51	104	0	77	24978
2026-01-27 20:16:50.64	141.45	8.60	-53.2	-57.7	3.7	0.00e+00	0	52	104	0	77	25014
2026-01-27 20:16:51.63	141.61	8.52	-52.7	-57.5	3.7	0.00e+00	0	51	104	0	77	24346
2026-01-27 20:16:52.62	141.78	8.45	-53.6	-58.0	3.7	0.00e+00	0	51	104	0	77	25942
2026-01-27 20:16:53.62	141.94	8.38	-53.6	-58.0	3.7	0.00e+00	0	52	104	0	78	24467
2026-01-27 20:16:54.61	142.10	8.31	-53.4	-58.0	3.7	0.00e+00	0	51	104	0	78	24505
2026-01-27 20:16:55.60	142.26	8.23	-53.6	-58.1	3.7	0.00e+00	0	51	104	0	78	24666
2026-01-27 20:16:56.60	142.42	8.16	-53.3	-57.9	3.7	0.00e+00	0	51	104	0	78	24085
2026-01-27 20:16:57.59	142.58	8.09	-53.4	-58.0	3.7	0.00e+00	0	51	104	0	77	25947
2026-01-27 20:16:58.59	142.74	8.01	-53.6	-58.0	3.7	0.00e+00	0	51	104	0	78	24383
2026-01-27 20:16:59.58	142.89	7.94	-53.7	-58.2	3.7	0.00e+00	0	51	104	0	78	24934
2026-01-27 20:17:00.58	143.05	7.87	-52.9	-57.7	3.7	0.00e+00	0	51	104	0	77	25021
2026-01-27 20:17:01.57	143.20	7.80	-53.9	-58.4	3.7	0.00e+00	0	52	104	0	78	25410
2026-01-27 20:17:02.57	143.36	7.72	-53.7	-58.3	3.7	0.00e+00	0	51	104	0	78	25163
2026-01-27 20:17:03.56	143.51	7.65	-53.2	-57.9	3.7	0.00e+00	0	52	104	0	78	24021
2026-01-27 20:17:04.55	143.66	7.58	-52.8	-57.5	3.7	0.00e+00	0	52	104	0	77	24448
2026-01-27 20:17:05.55	143.81	7.51	-53.4	-57.8	3.7	0.00e+00	0	52	104	0	77	25352
2026-01-27 20:17:06.54	143.96	7.44	-53.6	-57.9	3.7	0.00e+00	0	52	104	0	77	25663
2026-01-27 20:17:07.54	144.11	7.37	-53.6	-57.9	3.7	0.00e+00	0	51	104	0	77	25483
2026-01-27 20:17:08.53	144.26	7.29	-53.4	-57.9	3.7	0.00e+00	0	52	104	0	78	23988
2026-01-27 20:17:09.53	144.41	7.22	-53.8	-58.1	3.7	0.00e+00	0	52	104	0	78	24594
2026-01-27 20:17:10.52	144.56	7.15	-54.0	-58.4	3.7	0.00e+00	0	52	104	0	78	25461
2026-01-27 20:17:11.52	144.70	7.08	-53.8	-58.3	3.7	0.00e+00	0	52	104	0	78	25185
2026-01-27 20:17:12.51	144.85	7.01	-53.6	-58.2	3.7	0.00e+00	0	52	104	0	78	24912
2026-01-27 20:17:13.51	144.99	6.94	-53.4	-58.2	3.7	0.00e+00	0	51	104	0	78	24836
2026-01-27 20:17:14.50	145.13	6.87	-53.5	-58.1	3.7	0.00e+00	0	52	104	0	78	24617
2026-01-27 20:17:15.50	145.28	6.80	-53.6	-58.0	3.7	0.00e+00	0	51	104	0	78	24324
2026-01-27 20:17:16.49	145.42	6.73	-53.6	-58.0	3.7	0.00e+00	0	51	104	0	78	24398
2026-01-27 20:17:17.49	145.56	6.66	-53.6	-58.0	3.7	0.00e+00	0	52	104	0	78	24330
2026-01-27 20:17:18.48	145.70	6.59	-53.5	-58.0	3.7	0.00e+00	0	51	104	0	78	24454
2026-01-27 20:17:19.47	145.84	6.52	-53.5	-58.1	3.7	0.00e+00	0	52	104	0	78	24666
2026-01-27 20:17:20.47	145.98	6.45	-53.3	-57.9	3.7	0.00e+00	0	51	104	0	78	24050
2026-01-27 20:17:21.46	146.11	6.38	-53.2	-57.9	3.7	0.00e+00	0	52	104	0	78	24114
2026-01-27 20:17:22.46	146.25	6.31	-53.0	-57.8	3.7	0.00e+00	0	51	104	0	77	25328
2026-01-27 20:17:23.45	146.38	6.24	-52.9	-57.3	3.7	0.00e+00	0	51	104	0	77	23809
2026-01-27 20:17:24.45	146.52	6.17	-52.9	-57.1	3.7	0.00e+00	0	51	104	0	77	23325
2026-01-27 20:17:25.44	146.65	6.10	-53.3	-57.8	3.7	0.00e+00	0	51	104	0	77	25176
2026-01-27 20:17:26.44	146.79	6.03	-52.7	-56.4	3.7	0.00e+00	0	52	104	0	77	21528
2026-01-27 20:17:27.43	146.92	5.96	-52.0	-55.8	3.7	0.00e+00	0	52	104	0	76	21152
2026-01-27 20:17:28.43	147.05	5.89	-52.0	-55.8	3.7	0.00e+00	0	52	104	0	76	21160
2026-01-27 20:17:29.42	147.18	5.83	-52.0	-55.7	3.7	0.00e+00	0	51	104	0	76	21107
2026-01-27 20:17:30.42	147.31	5.76	-52.0	-55.7	3.7	0.00e+00	0	52	104	0	76	21095
2026-01-27 20:17:31.41	147.44	5.69	-52.0	-55.7	3.7	0.00e+00	0	52	104	0	76	21096
2026-01-27 20:17:32.41	147.57	5.62	-52.0	-55.7	3.7	0.00e+00	0	51	104	0	76	21029
2026-01-27 20:17:33.40	147.70	5.55	-52.0	-55.7	3.7	0.00e+00	0	52	104	0	76	20994
2026-01-27 20:17:34.40	147.83	5.49	-51.9	-55.6	3.7	0.00e+00	0	52	104	0	75	22078
2026-01-27 20:17:35.39	147.95	5.42	-51.9	-55.7	3.7	0.00e+00	0	52	104	0	75	22146
2026-01-27 20:17:36.38	148.08	5.35	-51.9	-55.7	3.7	0.00e+00	0	51	104	0	75	22160
2026-01-27 20:17:37.38	148.20	5.28	-52.0	-55.7	3.7	0.00e+00	0	52	104	0	75	22130
2026-01-27 20:17:38.37	148.33	5.22	-51.9	-55.7	3.7	0.00e+00	0	51	104	0	75	22151
2026-01-27 20:17:39.36	148.45	5.15	-51.9	-55.7	3.7	0.00e+00	0	51	104	0	75	22181
2026-01-27 20:17:40.36	148.58	5.08	-51.9	-55.7	3.7	0.00e+00	0	52	104	0	75	22169
2026-01-27 20:17:41.35	148.70	5.01	-51.9	-55.7	3.7	0.00e+00	0	51	104	0	75	22216
2026-01-27 20:17:42.34	148.82	4.95	-51.9	-55.7	3.7	0.00e+00	0	52	104	0	75	22179

#Closed at: 2026-01-27 20:17:43
#Recorded file [0 MB]: D:/Data/31040_260127_231001.dat