passes_logs/2026/01/27/T1/T1__20260127_011125_NOAA_20_JPSS-1_rec.log

#Pass ID: 20260127_011125_NOAA 20 (JPSS-1)
#Satellite: NOAA 20 (JPSS-1)
#Configuration: NOAA 20
#almurnet v.1.7.20251203
#Start time: 2026-01-27 01:11:26

#Version: 2.0.20230620
#Station: T1
#Location: 37.570604 lon 55.790049 lat
#TLE: 1 43013U 17073A   26026.46665230  .00000148  00000+0  91302-4 0  9998
#TLE: 2 43013  98.7646 327.2856 0001008  22.9532 337.1688 14.19540616424360

#Time	Az	El	Level	Level2	SNR	BER	BlckErr	Temp	State	Recorded	gain1	gain2
2026-01-27 01:11:26.31	7.50	5.05	-47.7	-64.4	3.8	1.49e+00	0	41	0	0	65	26797
2026-01-27 01:11:27.30	7.43	5.11	-47.6	-64.4	3.8	1.49e+00	0	41	104	0	65	26806
2026-01-27 01:11:28.29	7.36	5.17	-47.6	-64.4	3.8	1.49e+00	0	41	104	0	65	26766
2026-01-27 01:11:29.28	7.29	5.24	-47.6	-64.3	3.8	1.49e+00	0	41	104	0	65	26703
2026-01-27 01:11:30.27	7.21	5.30	-47.6	-64.4	3.8	1.49e+00	0	41	104	0	65	26797
2026-01-27 01:11:31.27	7.14	5.36	-47.6	-64.3	3.8	1.49e+00	0	41	104	0	65	26745
2026-01-27 01:11:32.26	7.07	5.43	-47.6	-64.3	3.8	1.49e+00	0	41	104	0	65	26693
2026-01-27 01:11:33.25	7.00	5.49	-47.6	-64.4	3.8	1.49e+00	0	41	104	0	65	26817
2026-01-27 01:11:34.25	6.92	5.55	-47.6	-64.3	3.8	1.49e+00	0	41	104	0	65	26634
2026-01-27 01:11:35.24	6.85	5.61	-47.6	-64.4	3.8	1.49e+00	0	41	104	0	65	26766
2026-01-27 01:11:36.23	6.77	5.68	-47.6	-64.4	3.8	1.49e+00	0	41	104	0	65	26816
2026-01-27 01:11:37.23	6.70	5.74	-47.6	-64.4	3.8	1.49e+00	0	41	104	0	65	26831
2026-01-27 01:11:38.22	6.62	5.80	-47.6	-64.4	3.8	1.49e+00	0	41	104	0	65	26841
2026-01-27 01:11:39.21	6.55	5.87	-47.6	-64.4	3.8	1.49e+00	0	41	104	0	65	26799
2026-01-27 01:11:40.21	6.47	5.93	-47.6	-64.4	3.8	1.49e+00	0	42	104	0	65	26848
2026-01-27 01:11:41.20	6.40	6.00	-47.6	-64.4	3.8	1.49e+00	0	42	104	0	65	26782
2026-01-27 01:11:42.19	6.32	6.06	-47.6	-64.4	3.8	1.49e+00	0	42	104	0	65	26782
2026-01-27 01:11:43.19	6.24	6.12	-47.6	-64.3	3.8	1.49e+00	0	42	104	0	65	26759
2026-01-27 01:11:44.18	6.17	6.19	-47.7	-64.3	3.8	1.49e+00	0	42	104	0	65	26598
2026-01-27 01:11:45.17	6.09	6.25	-47.7	-64.3	3.8	1.49e+00	0	42	104	0	66	25209
2026-01-27 01:11:46.16	6.01	6.32	-47.7	-64.3	3.8	1.49e+00	0	42	104	0	66	25160
2026-01-27 01:11:47.16	5.93	6.38	-47.7	-64.4	3.8	1.49e+00	0	42	104	0	66	25325
2026-01-27 01:11:48.15	5.85	6.44	-47.6	-64.4	3.8	1.49e+00	0	42	104	0	66	25272
2026-01-27 01:11:49.14	5.77	6.51	-47.6	-64.4	3.8	1.49e+00	0	42	104	0	66	25405
2026-01-27 01:11:50.14	5.69	6.57	-47.7	-64.4	3.8	1.49e+00	0	42	104	0	66	25339
2026-01-27 01:11:51.13	5.61	6.64	-47.7	-64.4	3.8	1.49e+00	0	42	104	0	66	25423
2026-01-27 01:11:52.12	5.53	6.70	-47.7	-64.4	3.8	1.49e+00	0	42	104	0	66	25419
2026-01-27 01:11:53.11	5.45	6.77	-47.6	-64.4	3.8	1.49e+00	0	42	104	0	66	25356
2026-01-27 01:11:54.11	5.37	6.83	-47.6	-64.4	3.8	1.49e+00	0	42	104	0	66	25347
2026-01-27 01:11:55.10	5.29	6.90	-47.6	-64.4	3.8	1.49e+00	0	42	104	0	66	25295
2026-01-27 01:11:56.09	5.21	6.96	-47.6	-64.3	3.8	1.49e+00	0	42	104	0	66	25232
2026-01-27 01:11:57.09	5.13	7.03	-47.6	-64.3	3.8	1.49e+00	0	42	104	0	66	25162
2026-01-27 01:11:58.08	5.05	7.10	-47.7	-64.3	3.8	1.49e+00	0	42	104	0	66	24999
2026-01-27 01:11:59.07	4.96	7.16	-47.6	-64.2	3.8	1.49e+00	0	42	104	0	66	24855
2026-01-27 01:12:00.07	4.88	7.23	-47.7	-64.2	3.8	1.49e+00	0	42	104	0	66	24705
2026-01-27 01:12:01.06	4.80	7.29	-47.7	-64.1	3.8	1.49e+00	0	42	104	0	66	24412
2026-01-27 01:12:02.05	4.71	7.36	-47.7	-63.8	3.8	1.49e+00	0	42	104	0	66	23806
2026-01-27 01:12:03.05	4.63	7.42	-47.7	-63.6	3.8	1.49e+00	0	42	104	0	66	23235
2026-01-27 01:12:04.04	4.54	7.49	-47.6	-63.3	3.8	1.49e+00	0	42	104	0	66	22513
2026-01-27 01:12:05.03	4.46	7.56	-47.6	-63.1	3.8	1.49e+00	0	42	104	0	66	21785
2026-01-27 01:12:06.02	4.37	7.62	-47.6	-62.9	3.8	1.49e+00	0	42	104	0	66	21462
2026-01-27 01:12:07.02	4.29	7.69	-47.6	-62.7	3.8	1.49e+00	0	42	104	0	66	20935
2026-01-27 01:12:08.01	4.20	7.76	-47.6	-62.7	3.8	1.49e+00	0	42	104	0	66	20837
2026-01-27 01:12:09.00	4.11	7.82	-47.6	-62.8	3.8	1.49e+00	0	42	104	0	66	21046
2026-01-27 01:12:10.00	4.03	7.89	-47.6	-63.0	3.8	1.49e+00	0	43	104	0	66	21585
2026-01-27 01:12:10.99	3.94	7.96	-47.7	-63.2	3.8	1.49e+00	0	42	104	0	66	22114
2026-01-27 01:12:11.98	3.85	8.02	-47.6	-63.5	3.8	1.49e+00	0	42	104	0	66	22909
2026-01-27 01:12:12.98	3.76	8.09	-47.6	-63.8	3.8	1.49e+00	0	42	104	0	66	23789
2026-01-27 01:12:13.97	3.67	8.16	-47.6	-64.1	3.8	1.49e+00	0	43	104	0	66	24489
2026-01-27 01:12:14.96	3.58	8.23	-47.6	-64.3	3.8	1.49e+00	0	43	104	0	66	25011
2026-01-27 01:12:15.96	3.49	8.29	-47.6	-63.8	3.8	1.49e+00	0	43	104	0	66	23728
2026-01-27 01:12:16.95	3.40	8.36	-47.5	-62.4	3.8	1.49e+00	0	43	104	0	66	20146
2026-01-27 01:12:17.94	3.31	8.43	-47.4	-59.9	4.5	1.38e+00	0	42	0	0	66	15076
2026-01-27 01:12:18.94	3.22	8.50	-47.2	-57.5	5.8	6.47e-01	0	42	0	2097152	66	11515
2026-01-27 01:12:19.93	3.13	8.57	-46.8	-55.2	7.8	2.08e-01	0	42	0	3145728	65	9368
2026-01-27 01:12:20.92	3.04	8.63	-46.4	-53.6	9.4	2.28e-02	0	43	0	5242880	64	8200
2026-01-27 01:12:21.92	2.95	8.70	-46.0	-52.2	11.0	4.39e-03	0	42	0	7340032	63	7435
2026-01-27 01:12:22.91	2.85	8.77	-45.7	-51.4	11.8	1.03e-03	0	43	0	9437184	63	6779
2026-01-27 01:12:23.90	2.76	8.84	-45.6	-51.0	12.3	3.06e-04	0	42	0	10485760	63	6443
2026-01-27 01:12:24.90	2.67	8.91	-45.4	-50.7	12.6	9.99e-05	0	43	0	12582912	62	6586
2026-01-27 01:12:25.89	2.57	8.98	-45.6	-50.8	12.4	1.20e-04	0	43	0	14680064	62	6717
2026-01-27 01:12:26.88	2.48	9.05	-45.8	-51.5	11.7	2.82e-04	0	43	0	16777216	62	7264
2026-01-27 01:12:27.88	2.38	9.11	-46.0	-51.2	12.1	6.43e-04	0	43	0	18874368	62	7007
2026-01-27 01:12:29.03	2.27	9.19	-46.7	-59.6	4.7	8.03e-02	0	43	0	20971520	63	17364
2026-01-27 01:12:29.88	2.19	9.25	-45.0	-48.9	14.4	1.45e-01	0	43	0	22020096	62	5385
2026-01-27 01:12:31.02	2.08	9.33	-44.3	-48.0	15.3	0.00e+00	0	43	0	24117248	60	5430
2026-01-27 01:12:31.87	1.99	9.39	-46.8	-53.0	10.3	2.45e-04	0	43	0	26214400	64	7688
2026-01-27 01:12:33.01	1.88	9.47	-44.3	-48.1	15.2	2.06e-03	0	43	0	28311552	60	5493
2026-01-27 01:12:33.86	1.80	9.53	-44.2	-48.0	15.3	0.00e+00	0	43	0	29360128	60	5434
2026-01-27 01:12:34.99	1.69	9.61	-44.2	-47.9	15.4	0.00e+00	0	43	0	31457280	60	5374
2026-01-27 01:12:35.85	1.60	9.67	-44.1	-47.9	15.5	0.00e+00	0	43	0	33554432	60	5352
2026-01-27 01:12:36.98	1.49	9.75	-44.0	-47.8	15.5	0.00e+00	0	43	0	35651584	60	5329
2026-01-27 01:12:37.83	1.40	9.81	-44.0	-47.8	15.5	0.00e+00	0	43	0	36700160	60	5324
2026-01-27 01:12:39.02	1.28	9.90	-44.0	-47.8	15.5	0.00e+00	0	43	0	38797312	59	5647
2026-01-27 01:12:39.87	1.19	9.96	-44.0	-47.8	15.5	0.00e+00	0	43	0	40894464	59	5595
2026-01-27 01:12:41.00	1.08	10.04	-44.0	-47.7	15.6	0.00e+00	0	43	0	42991616	59	5571
2026-01-27 01:12:41.86	0.99	10.10	-44.1	-47.8	15.5	0.00e+00	0	43	0	45088768	59	5601
2026-01-27 01:12:42.99	0.87	10.18	-44.0	-47.7	15.6	0.00e+00	0	43	0	47185920	59	5544
2026-01-27 01:12:43.85	0.78	10.24	-44.1	-47.7	15.6	0.00e+00	0	43	0	48234496	59	5571
2026-01-27 01:12:44.98	0.67	10.32	-44.1	-47.8	15.6	0.00e+00	0	43	0	50331648	59	5607
2026-01-27 01:12:45.83	0.58	10.38	-44.0	-47.7	15.6	0.00e+00	0	43	0	52428800	59	5529
2026-01-27 01:12:46.97	0.46	10.46	-44.1	-47.7	15.6	0.00e+00	0	43	0	54525952	59	5563
2026-01-27 01:12:47.82	0.37	10.52	-44.1	-47.7	15.6	0.00e+00	0	43	0	55574528	59	5561
2026-01-27 01:12:48.96	0.25	10.60	-44.1	-47.8	15.6	0.00e+00	0	43	0	57671680	59	5625
2026-01-27 01:12:49.81	0.15	10.67	-44.1	-47.8	15.5	0.00e+00	0	43	0	59768832	59	5631
2026-01-27 01:12:50.95	0.03	10.75	-44.1	-47.7	15.6	0.00e+00	0	43	0	61865984	59	5555
2026-01-27 01:12:51.80	359.94	10.81	-44.0	-47.6	15.7	0.00e+00	0	43	0	62914560	59	5517
2026-01-27 01:12:53.01	359.81	10.90	-44.0	-47.7	15.6	0.00e+00	0	43	0	66060288	59	5575
2026-01-27 01:12:53.87	359.71	10.96	-44.0	-47.7	15.7	0.00e+00	0	43	0	67108864	59	5537
2026-01-27 01:12:55.00	359.59	11.04	-44.1	-47.8	15.5	0.00e+00	0	43	0	69206016	59	5618
2026-01-27 01:12:55.85	359.50	11.10	-44.1	-47.8	15.5	0.00e+00	0	43	0	71303168	59	5621
2026-01-27 01:12:56.99	359.37	11.19	-44.1	-47.8	15.6	0.00e+00	0	43	0	73400320	59	5618
2026-01-27 01:12:57.84	359.28	11.25	-44.1	-48.0	15.4	0.00e+00	0	43	0	74448896	59	5725
2026-01-27 01:12:59.17	359.13	11.34	-44.1	-48.0	15.4	0.00e+00	0	43	0	77594624	59	5752
2026-01-27 01:12:59.88	359.05	11.40	-44.1	-48.1	15.2	0.00e+00	0	43	0	78643200	59	5837
2026-01-27 01:13:01.16	358.90	11.49	-44.0	-47.9	15.4	0.00e+00	0	43	0	80740352	59	5713
2026-01-27 01:13:01.87	358.82	11.54	-43.9	-47.8	15.6	0.00e+00	0	43	0	81788928	59	5618
2026-01-27 01:13:03.15	358.67	11.64	-43.9	-47.6	15.8	0.00e+00	0	43	0	84934656	59	5496
2026-01-27 01:13:03.89	358.59	11.69	-44.0	-47.7	15.7	0.00e+00	0	43	0	85983232	59	5532
2026-01-27 01:13:05.17	358.44	11.78	-44.0	-47.6	15.8	0.00e+00	0	43	0	88080384	59	5484
2026-01-27 01:13:05.89	358.36	11.84	-44.0	-47.6	15.8	0.00e+00	0	43	0	90177536	59	5472
2026-01-27 01:13:07.17	358.21	11.93	-43.9	-47.4	16.0	0.00e+00	0	43	0	92274688	59	5341
2026-01-27 01:13:07.88	358.12	11.98	-43.9	-47.4	15.9	0.00e+00	0	43	0	93323264	59	5392
2026-01-27 01:13:09.16	357.97	12.08	-44.0	-47.4	16.0	0.00e+00	0	43	0	95420416	59	5375
2026-01-27 01:13:10.07	357.86	12.15	-44.0	-47.3	16.1	0.00e+00	0	43	0	97517568	59	5338
2026-01-27 01:13:11.38	357.71	12.24	-43.9	-47.2	16.1	0.00e+00	0	43	0	99614720	59	5276
2026-01-27 01:13:12.09	357.62	12.30	-43.9	-47.3	16.2	0.00e+00	0	43	0	101711872	59	5286
2026-01-27 01:13:13.72	357.43	12.42	-43.9	-47.2	16.2	0.00e+00	0	43	0	104857600	59	5236
2026-01-27 01:13:14.29	357.36	12.46	-43.9	-47.2	16.2	0.00e+00	0	43	0	105906176	59	5236
2026-01-27 01:13:16.20	357.12	12.60	-44.1	-47.3	16.1	0.00e+00	0	43	0	109051904	59	5323
2026-01-27 01:13:17.11	357.01	12.67	-44.1	-47.2	16.1	0.00e+00	0	43	0	111149056	59	5269
2026-01-27 01:13:18.11	356.89	12.74	-44.2	-47.3	16.1	0.00e+00	0	43	0	112197632	59	5314
2026-01-27 01:13:19.10	356.76	12.82	-44.0	-47.2	16.3	0.00e+00	0	43	0	114294784	59	5246
2026-01-27 01:13:20.14	356.63	12.90	-43.9	-47.1	16.3	0.00e+00	0	43	0	116391936	59	5178
2026-01-27 01:13:21.14	356.51	12.97	-44.1	-47.2	16.2	0.00e+00	0	43	0	118489088	59	5268
2026-01-27 01:13:22.13	356.38	13.05	-44.1	-47.2	16.2	0.00e+00	0	43	0	120586240	59	5266
2026-01-27 01:13:23.13	356.26	13.12	-44.0	-47.2	16.2	0.00e+00	0	43	0	121634816	59	5220
2026-01-27 01:13:24.12	356.13	13.20	-44.2	-47.3	16.1	0.00e+00	0	43	0	123731968	59	5302
2026-01-27 01:13:25.11	356.00	13.27	-44.1	-47.2	16.2	0.00e+00	0	43	0	125829120	59	5252
2026-01-27 01:13:26.11	355.87	13.35	-44.1	-47.2	16.2	0.00e+00	0	43	0	127926272	59	5274
2026-01-27 01:13:27.10	355.75	13.42	-44.1	-47.2	16.3	0.00e+00	0	43	0	130023424	59	5252
2026-01-27 01:13:28.10	355.61	13.50	-44.0	-47.0	16.4	0.00e+00	0	43	0	131072000	59	5155
2026-01-27 01:13:29.09	355.49	13.57	-44.0	-47.1	16.4	0.00e+00	0	43	0	133169152	59	5191
2026-01-27 01:13:30.09	355.35	13.65	-44.0	-47.2	16.3	0.00e+00	0	43	0	135266304	59	5224
2026-01-27 01:13:31.08	355.22	13.72	-43.9	-47.0	16.5	0.00e+00	0	43	0	137363456	59	5113
2026-01-27 01:13:32.08	355.09	13.80	-43.9	-47.0	16.5	0.00e+00	0	43	0	138412032	59	5112
2026-01-27 01:13:33.07	354.96	13.88	-44.0	-47.0	16.5	0.00e+00	0	43	0	140509184	59	5124
2026-01-27 01:13:34.51	354.76	13.99	-44.0	-47.0	16.5	0.00e+00	0	43	0	143654912	59	5141
2026-01-27 01:13:35.22	354.67	14.04	-43.8	-46.8	16.7	0.00e+00	0	43	0	144703488	59	5001
2026-01-27 01:13:36.85	354.44	14.16	-43.9	-46.8	16.6	0.00e+00	0	43	0	147849216	59	5038
2026-01-27 01:13:37.41	354.37	14.21	-44.0	-47.0	16.5	0.00e+00	0	43	0	148897792	59	5152
2026-01-27 01:13:39.12	354.13	14.34	-43.8	-46.7	16.7	0.00e+00	0	43	0	152043520	59	4982
2026-01-27 01:13:39.72	354.05	14.38	-43.7	-46.7	16.8	0.00e+00	0	43	0	153092096	59	4945
2026-01-27 01:13:41.28	353.83	14.50	-43.7	-46.8	16.7	0.00e+00	0	43	0	156237824	59	5015
2026-01-27 01:13:41.99	353.73	14.56	-43.6	-46.8	16.7	0.00e+00	0	43	0	157286400	59	5019
2026-01-27 01:13:43.27	353.55	14.66	-43.5	-46.7	16.8	0.00e+00	0	43	0	159383552	59	4982
2026-01-27 01:13:43.98	353.45	14.71	-43.5	-46.7	16.8	0.00e+00	0	43	0	161480704	59	4958
2026-01-27 01:13:45.26	353.27	14.81	-43.4	-46.6	16.9	0.00e+00	0	43	0	163577856	58	5193
2026-01-27 01:13:46.10	353.15	14.88	-43.3	-46.6	16.9	0.00e+00	0	43	0	164626432	58	5182
2026-01-27 01:13:47.24	352.98	14.96	-43.4	-46.6	16.9	0.00e+00	0	43	0	167772160	58	5195
2026-01-27 01:13:48.30	352.83	15.05	-43.4	-46.6	17.0	0.00e+00	0	43	0	168820736	58	5160
2026-01-27 01:13:49.33	352.68	15.12	-43.3	-46.4	17.1	0.00e+00	0	43	0	170917888	58	5087
2026-01-27 01:13:50.32	352.53	15.20	-43.2	-46.2	17.3	0.00e+00	0	43	0	173015040	58	4979
2026-01-27 01:13:51.32	352.38	15.28	-43.2	-46.2	17.4	0.00e+00	0	43	0	175112192	58	4935
2026-01-27 01:13:52.31	352.24	15.36	-43.2	-46.2	17.3	0.00e+00	0	43	0	177209344	58	4943
2026-01-27 01:13:53.31	352.09	15.43	-43.3	-46.3	17.2	0.00e+00	0	43	0	178257920	58	4999
2026-01-27 01:13:54.30	351.94	15.51	-43.3	-46.3	17.3	0.00e+00	0	43	0	180355072	58	4994
2026-01-27 01:13:55.29	351.79	15.59	-43.3	-46.2	17.3	0.00e+00	0	43	0	182452224	58	4983
2026-01-27 01:13:56.29	351.64	15.66	-43.4	-46.4	17.2	0.00e+00	0	43	0	184549376	58	5042
2026-01-27 01:13:57.28	351.49	15.74	-43.2	-46.1	17.4	0.00e+00	0	43	0	186646528	58	4915
2026-01-27 01:13:58.28	351.34	15.82	-43.2	-46.1	17.4	0.00e+00	0	43	0	187695104	58	4924
2026-01-27 01:13:59.27	351.18	15.90	-43.3	-46.3	17.2	0.00e+00	0	43	0	189792256	58	5033
2026-01-27 01:14:00.27	351.03	15.97	-43.3	-46.3	17.2	0.00e+00	0	43	0	191889408	58	5004
2026-01-27 01:14:01.26	350.88	16.05	-43.3	-46.4	17.1	0.00e+00	0	43	0	193986560	58	5081
2026-01-27 01:14:02.35	350.70	16.14	-43.4	-46.5	17.0	0.00e+00	0	43	0	196083712	58	5119
2026-01-27 01:14:03.24	350.57	16.21	-43.4	-46.4	17.1	0.00e+00	0	43	0	197132288	58	5082
2026-01-27 01:14:04.38	350.39	16.29	-43.3	-46.3	17.2	0.00e+00	0	43	0	199229440	58	5022
2026-01-27 01:14:05.23	350.25	16.36	-43.4	-46.4	17.2	0.00e+00	0	43	0	201326592	58	5047
2026-01-27 01:14:06.37	350.07	16.45	-43.4	-46.3	17.3	0.00e+00	0	43	0	203423744	58	5012
2026-01-27 01:14:07.22	349.93	16.52	-43.4	-46.4	17.2	0.00e+00	0	43	0	204472320	58	5046
2026-01-27 01:14:08.36	349.75	16.60	-43.3	-46.2	17.4	0.00e+00	0	43	0	206569472	58	4957
2026-01-27 01:14:09.21	349.61	16.67	-43.3	-46.2	17.3	0.00e+00	0	43	0	208666624	58	4972
2026-01-27 01:14:10.35	349.42	16.76	-43.3	-46.2	17.4	0.00e+00	0	43	0	210763776	58	4934
2026-01-27 01:14:11.20	349.28	16.83	-43.4	-46.3	17.2	0.00e+00	0	43	0	211812352	58	5039
2026-01-27 01:14:12.34	349.10	16.92	-43.3	-46.2	17.3	0.00e+00	0	43	0	213909504	58	4967
2026-01-27 01:14:13.19	348.96	16.98	-43.5	-46.4	17.1	0.00e+00	0	43	0	216006656	58	5100
2026-01-27 01:14:14.37	348.76	17.07	-43.4	-46.4	17.2	0.00e+00	0	43	0	218103808	58	5071
2026-01-27 01:14:15.23	348.62	17.14	-43.4	-46.4	17.2	0.00e+00	0	43	0	220200960	58	5072
2026-01-27 01:14:16.36	348.43	17.23	-43.4	-46.4	17.2	0.00e+00	0	43	0	222298112	58	5088
2026-01-27 01:14:17.22	348.28	17.30	-43.3	-46.5	17.0	0.00e+00	0	43	0	223346688	58	5140
2026-01-27 01:14:18.35	348.09	17.38	-43.3	-46.5	17.1	0.00e+00	0	43	0	225443840	58	5127
2026-01-27 01:14:19.21	347.94	17.45	-43.2	-46.5	17.1	0.00e+00	0	43	0	227540992	58	5137
2026-01-27 01:14:20.35	347.74	17.54	-43.1	-46.6	17.0	0.00e+00	0	43	0	229638144	58	5164
2026-01-27 01:14:21.20	347.60	17.61	-43.1	-46.6	17.0	0.00e+00	0	43	0	230686720	58	5175
2026-01-27 01:14:22.33	347.40	17.70	-43.1	-46.6	17.0	0.00e+00	0	43	0	232783872	58	5162
2026-01-27 01:14:23.19	347.25	17.76	-43.1	-46.5	17.0	0.00e+00	0	43	0	234881024	58	5153
2026-01-27 01:14:24.33	347.05	17.85	-43.3	-46.6	16.9	0.00e+00	0	43	0	236978176	58	5210
2026-01-27 01:14:25.40	346.86	17.93	-43.4	-46.6	17.0	0.00e+00	0	43	0	239075328	58	5178
2026-01-27 01:14:26.41	346.68	18.01	-43.4	-46.5	17.0	0.00e+00	0	43	0	241172480	58	5151
2026-01-27 01:14:27.40	346.51	18.09	-43.5	-46.5	17.0	0.00e+00	0	43	0	242221056	58	5153
2026-01-27 01:14:28.40	346.33	18.17	-43.7	-46.7	16.9	0.00e+00	0	43	0	244318208	58	5236
2026-01-27 01:14:29.39	346.15	18.24	-43.7	-46.5	17.0	0.00e+00	0	43	0	246415360	58	5147
2026-01-27 01:14:30.39	345.97	18.32	-43.6	-46.5	17.1	0.00e+00	0	43	0	248512512	58	5125
2026-01-27 01:14:31.38	345.79	18.40	-43.6	-46.6	17.0	0.00e+00	0	43	0	249561088	58	5161
2026-01-27 01:14:32.38	345.60	18.48	-43.5	-46.5	17.1	0.00e+00	0	43	0	251658240	58	5128
2026-01-27 01:14:33.37	345.42	18.55	-43.5	-46.6	17.0	0.00e+00	0	43	0	253755392	58	5175
2026-01-27 01:14:34.37	345.24	18.63	-43.5	-46.7	16.9	0.00e+00	0	43	0	255852544	58	5232
2026-01-27 01:14:35.36	345.05	18.71	-43.3	-46.4	17.1	0.00e+00	0	43	0	257949696	58	5090
2026-01-27 01:14:36.36	344.86	18.78	-43.4	-46.5	17.2	0.00e+00	0	43	0	258998272	58	5105
2026-01-27 01:14:37.35	344.68	18.86	-43.5	-46.5	17.1	0.00e+00	0	43	0	261095424	58	5129
2026-01-27 01:14:38.35	344.49	18.94	-43.7	-46.5	17.1	0.00e+00	0	44	0	263192576	58	5147
2026-01-27 01:14:39.36	344.30	19.02	-43.8	-46.6	17.0	0.00e+00	0	43	0	265289728	58	5203
2026-01-27 01:14:40.35	344.11	19.09	-43.8	-46.6	16.9	0.00e+00	0	43	0	266338304	58	5209
2026-01-27 01:14:41.35	343.92	19.17	-43.8	-46.7	16.9	0.00e+00	0	43	0	268435456	58	5231
2026-01-27 01:14:42.34	343.73	19.25	-43.8	-46.7	16.9	0.00e+00	0	43	0	270532608	58	5271
2026-01-27 01:14:43.34	343.53	19.32	-43.8	-46.8	16.8	0.00e+00	0	43	0	272629760	58	5327
2026-01-27 01:14:44.33	343.34	19.40	-43.8	-46.9	16.8	0.00e+00	0	44	0	274726912	58	5341
2026-01-27 01:14:45.32	343.15	19.47	-43.7	-46.7	16.9	0.00e+00	0	43	0	275775488	58	5275
2026-01-27 01:14:46.32	342.95	19.55	-43.6	-46.6	17.0	0.00e+00	0	43	0	277872640	58	5190
2026-01-27 01:14:47.31	342.75	19.63	-43.6	-46.5	17.1	0.00e+00	0	43	0	279969792	58	5115
2026-01-27 01:14:48.31	342.55	19.70	-43.5	-46.4	17.2	0.00e+00	0	43	0	282066944	58	5057
2026-01-27 01:14:49.30	342.36	19.78	-43.5	-46.2	17.4	0.00e+00	0	43	0	283115520	58	4978
2026-01-27 01:14:50.30	342.16	19.85	-43.5	-46.2	17.4	0.00e+00	0	43	0	285212672	58	4960
2026-01-27 01:14:51.29	341.96	19.93	-43.4	-46.1	17.4	0.00e+00	0	43	0	287309824	58	4918
2026-01-27 01:14:52.28	341.76	20.00	-43.4	-46.2	17.5	0.00e+00	0	43	0	289406976	58	4928
2026-01-27 01:14:53.28	341.55	20.08	-43.3	-46.1	17.4	0.00e+00	0	43	0	291504128	58	4922
2026-01-27 01:14:54.27	341.35	20.15	-43.3	-46.3	17.3	0.00e+00	0	43	0	292552704	58	4989
2026-01-27 01:14:55.26	341.15	20.23	-43.3	-46.3	17.3	0.00e+00	0	43	0	294649856	58	5023
2026-01-27 01:14:56.26	340.94	20.30	-43.1	-46.2	17.5	0.00e+00	0	43	0	296747008	58	4938
2026-01-27 01:14:57.25	340.73	20.37	-42.9	-45.9	17.7	0.00e+00	0	43	0	298844160	57	5056
2026-01-27 01:14:58.25	340.52	20.45	-43.0	-45.9	17.7	0.00e+00	0	43	0	299892736	57	5053
2026-01-27 01:14:59.24	340.32	20.52	-42.9	-45.7	17.9	0.00e+00	0	43	0	301989888	57	4928
2026-01-27 01:15:00.24	340.11	20.60	-42.9	-45.6	18.0	0.00e+00	0	44	0	304087040	57	4890
2026-01-27 01:15:01.23	339.90	20.67	-43.0	-45.7	17.9	0.00e+00	0	43	0	306184192	57	4936
2026-01-27 01:15:02.49	339.63	20.76	-43.0	-45.6	17.9	0.00e+00	0	43	0	308281344	57	4904
2026-01-27 01:15:03.30	339.45	20.82	-42.8	-45.4	18.1	0.00e+00	0	43	0	310378496	57	4809
2026-01-27 01:15:04.70	339.15	20.93	-42.6	-45.4	18.2	0.00e+00	0	44	0	312475648	57	4769
2026-01-27 01:15:05.41	339.00	20.98	-42.5	-45.3	18.2	0.00e+00	0	43	0	313524224	57	4739
2026-01-27 01:15:06.69	338.72	21.07	-42.4	-45.3	18.3	0.00e+00	0	44	0	316669952	56	5016
2026-01-27 01:15:07.41	338.56	21.12	-42.4	-45.3	18.2	0.00e+00	0	43	0	317718528	56	5029
2026-01-27 01:15:08.69	338.28	21.22	-42.5	-45.3	18.2	0.00e+00	0	43	0	319815680	56	5029
2026-01-27 01:15:09.51	338.10	21.27	-42.5	-45.2	18.3	0.00e+00	0	43	0	321912832	56	4969
2026-01-27 01:15:10.65	337.85	21.36	-42.4	-45.1	18.4	0.00e+00	0	43	0	324009984	56	4909
2026-01-27 01:15:11.69	337.62	21.43	-42.2	-44.8	18.8	0.00e+00	0	43	0	326107136	56	4734
2026-01-27 01:15:12.83	337.36	21.51	-42.1	-44.7	18.8	0.00e+00	0	44	0	328204288	56	4653
2026-01-27 01:15:13.68	337.17	21.57	-41.7	-44.2	19.1	0.00e+00	0	43	0	329252864	55	4697
2026-01-27 01:15:14.82	336.91	21.65	-41.6	-44.2	19.2	0.00e+00	0	43	0	331350016	55	4694
2026-01-27 01:15:15.67	336.72	21.71	-41.7	-44.3	19.1	0.00e+00	0	43	0	333447168	55	4736
2026-01-27 01:15:16.81	336.46	21.79	-41.6	-44.2	19.2	0.00e+00	0	43	0	335544320	55	4681
2026-01-27 01:15:17.66	336.26	21.85	-41.6	-44.3	19.1	0.00e+00	0	44	0	336592896	55	4707
2026-01-27 01:15:19.17	335.92	21.96	-41.6	-44.3	19.1	0.00e+00	0	43	0	339738624	55	4706
2026-01-27 01:15:19.89	335.75	22.01	-41.7	-44.3	19.1	0.00e+00	0	44	0	340787200	55	4716
2026-01-27 01:15:21.17	335.45	22.10	-41.7	-44.3	19.1	0.00e+00	0	43	0	342884352	55	4722
2026-01-27 01:15:21.88	335.29	22.14	-41.8	-44.4	19.0	0.00e+00	0	44	0	344981504	55	4763
2026-01-27 01:15:23.17	334.98	22.23	-41.8	-44.2	19.2	0.00e+00	0	43	0	347078656	55	4685
2026-01-27 01:15:23.88	334.82	22.28	-41.9	-44.3	19.1	0.00e+00	0	43	0	348127232	55	4710
2026-01-27 01:15:25.16	334.51	22.37	-41.8	-44.2	19.2	0.00e+00	0	44	0	351272960	55	4666
2026-01-27 01:15:25.98	334.32	22.42	-41.7	-44.1	19.3	0.00e+00	0	44	0	352321536	55	4614
2026-01-27 01:15:27.12	334.05	22.50	-41.7	-44.1	19.3	0.00e+00	0	43	0	354418688	55	4626
2026-01-27 01:15:27.97	333.84	22.56	-41.7	-44.1	19.3	0.00e+00	0	44	0	356515840	55	4630
2026-01-27 01:15:29.10	333.57	22.63	-41.7	-44.2	18.7	0.00e+00	0	43	0	358612992	55	4652
2026-01-27 01:15:29.96	333.36	22.69	-41.6	-44.1	19.3	0.00e+00	0	43	0	359661568	55	4621
2026-01-27 01:15:31.09	333.09	22.76	-41.6	-44.2	19.2	0.00e+00	0	43	0	361758720	55	4653
2026-01-27 01:15:31.95	332.88	22.82	-41.6	-44.1	19.2	0.00e+00	0	43	0	363855872	55	4638
2026-01-27 01:15:33.08	332.60	22.89	-41.6	-44.1	19.3	0.00e+00	0	43	0	365953024	55	4607
2026-01-27 01:15:33.93	332.39	22.94	-41.6	-44.1	19.3	0.00e+00	0	44	0	367001600	55	4610
2026-01-27 01:15:35.14	332.09	23.02	-41.5	-43.9	19.5	0.00e+00	0	44	0	369098752	55	4509
2026-01-27 01:15:35.99	331.88	23.07	-41.6	-44.0	19.4	0.00e+00	0	44	0	371195904	55	4576
2026-01-27 01:15:37.13	331.60	23.15	-41.6	-43.9	19.4	0.00e+00	0	44	0	373293056	55	4541
2026-01-27 01:15:37.98	331.38	23.20	-41.7	-44.0	19.4	0.00e+00	0	43	0	374341632	55	4595
2026-01-27 01:15:39.12	331.10	23.27	-41.8	-44.1	19.3	0.00e+00	0	43	0	377487360	55	4638
2026-01-27 01:15:39.97	330.88	23.32	-41.9	-44.3	19.1	0.00e+00	0	43	0	378535936	55	4707
2026-01-27 01:15:41.11	330.59	23.39	-42.0	-44.4	19.0	0.00e+00	0	43	0	380633088	55	4804
2026-01-27 01:15:42.02	330.36	23.45	-42.0	-44.4	19.0	0.00e+00	0	43	0	382730240	55	4787
2026-01-27 01:15:43.02	330.11	23.51	-42.0	-44.4	19.0	0.00e+00	0	43	0	384827392	55	4792
2026-01-27 01:15:44.01	329.85	23.57	-42.0	-44.4	19.0	0.00e+00	0	43	0	385875968	55	4788
2026-01-27 01:15:45.01	329.60	23.63	-42.0	-44.3	19.1	0.00e+00	0	43	0	387973120	55	4739
2026-01-27 01:15:46.01	329.34	23.69	-42.0	-44.3	19.1	0.00e+00	0	43	0	390070272	55	4745
2026-01-27 01:15:47.00	329.08	23.74	-42.0	-44.5	19.0	0.00e+00	0	43	0	392167424	55	4819
2026-01-27 01:15:48.00	328.82	23.80	-42.0	-44.4	19.0	0.00e+00	0	43	0	393216000	55	4796
2026-01-27 01:15:48.99	328.56	23.86	-41.8	-44.4	19.0	0.00e+00	0	43	0	395313152	55	4782
2026-01-27 01:15:49.99	328.30	23.91	-41.8	-44.4	19.0	0.00e+00	0	43	0	397410304	55	4790
2026-01-27 01:15:50.98	328.04	23.97	-41.6	-44.3	19.1	0.00e+00	0	43	0	399507456	55	4715
2026-01-27 01:15:51.98	327.78	24.03	-41.5	-44.1	19.3	0.00e+00	0	43	0	401604608	55	4604
2026-01-27 01:15:52.98	327.51	24.08	-41.6	-44.1	19.3	0.00e+00	0	43	0	402653184	55	4632
2026-01-27 01:15:53.97	327.25	24.13	-41.5	-44.0	19.4	0.00e+00	0	43	0	404750336	54	4846
2026-01-27 01:15:54.97	326.98	24.19	-41.6	-44.0	19.4	0.00e+00	0	43	0	406847488	54	4846
2026-01-27 01:15:55.96	326.72	24.24	-41.7	-44.1	19.3	0.00e+00	0	43	0	408944640	54	4924
2026-01-27 01:15:56.96	326.45	24.29	-41.5	-43.9	19.5	0.00e+00	0	44	0	409993216	54	4805
2026-01-27 01:15:57.95	326.18	24.35	-41.5	-43.9	19.5	0.00e+00	0	43	0	412090368	54	4796
2026-01-27 01:15:58.95	325.91	24.40	-41.6	-43.9	19.5	0.00e+00	0	44	0	414187520	54	4790
2026-01-27 01:15:59.94	325.64	24.45	-41.5	-43.8	19.6	0.00e+00	0	43	0	416284672	54	4750
2026-01-27 01:16:00.94	325.37	24.50	-41.4	-43.7	19.6	0.00e+00	0	43	0	418381824	54	4705
2026-01-27 01:16:01.93	325.10	24.55	-41.4	-43.7	19.7	0.00e+00	0	43	0	419430400	54	4670
2026-01-27 01:16:02.93	324.83	24.60	-41.3	-43.6	19.7	0.00e+00	0	43	0	421527552	54	4644
2026-01-27 01:16:03.93	324.55	24.65	-41.2	-43.5	19.9	0.00e+00	0	43	0	423624704	54	4586
2026-01-27 01:16:04.92	324.28	24.69	-41.2	-43.6	19.8	0.00e+00	0	43	0	425721856	54	4613
2026-01-27 01:16:05.92	324.00	24.74	-41.3	-43.7	19.7	0.00e+00	0	43	0	426770432	54	4674
2026-01-27 01:16:06.99	323.71	24.79	-41.2	-43.5	19.9	0.00e+00	0	44	0	428867584	54	4588
2026-01-27 01:16:07.86	323.46	24.83	-41.2	-43.5	19.9	0.00e+00	0	43	0	430964736	54	4560
2026-01-27 01:16:08.99	323.15	24.88	-41.3	-43.5	19.8	0.00e+00	0	43	0	433061888	54	4590
2026-01-27 01:16:09.85	322.91	24.92	-41.4	-43.7	19.7	0.00e+00	0	43	0	435159040	54	4663
2026-01-27 01:16:10.98	322.59	24.97	-41.3	-43.5	19.8	0.00e+00	0	44	0	437256192	54	4591
2026-01-27 01:16:11.84	322.35	25.01	-41.3	-43.7	19.8	0.00e+00	0	43	0	438304768	54	4664
2026-01-27 01:16:12.97	322.03	25.06	-41.4	-43.8	19.6	0.00e+00	0	43	0	440401920	54	4720
2026-01-27 01:16:13.83	321.79	25.09	-41.5	-43.9	19.5	0.00e+00	0	43	0	442499072	54	4803
2026-01-27 01:16:14.96	321.47	25.14	-41.6	-44.1	19.3	0.00e+00	0	44	0	444596224	54	4884
2026-01-27 01:16:15.81	321.22	25.18	-41.6	-44.1	19.3	0.00e+00	0	44	0	445644800	54	4897
2026-01-27 01:16:16.95	320.90	25.22	-41.7	-44.1	19.2	0.00e+00	0	44	0	447741952	54	4926
2026-01-27 01:16:17.80	320.66	25.25	-41.8	-44.2	19.3	0.00e+00	0	44	0	449839104	54	4948
2026-01-27 01:16:19.02	320.31	25.30	-41.7	-44.1	19.4	0.00e+00	0	43	0	451936256	54	4876
2026-01-27 01:16:19.87	320.06	25.33	-41.8	-44.2	19.3	0.00e+00	0	43	0	452984832	54	4930
2026-01-27 01:16:21.13	319.70	25.38	-41.9	-44.3	19.2	0.00e+00	0	44	0	456130560	54	4996
2026-01-27 01:16:21.91	319.47	25.41	-42.0	-44.4	19.0	0.00e+00	0	44	0	457179136	54	5084
2026-01-27 01:16:23.19	319.10	25.45	-42.1	-44.6	18.8	0.00e+00	0	44	0	459276288	54	5210
2026-01-27 01:16:23.91	318.89	25.48	-42.2	-44.8	18.6	0.00e+00	0	44	0	461373440	55	5003
2026-01-27 01:16:25.19	318.52	25.52	-42.4	-45.0	18.5	0.00e+00	0	43	0	463470592	55	5127
2026-01-27 01:16:25.92	318.31	25.55	-42.3	-44.9	18.5	0.00e+00	0	44	0	464519168	55	5076
2026-01-27 01:16:27.20	317.94	25.59	-42.5	-45.1	18.4	0.00e+00	0	44	0	467664896	55	5171
2026-01-27 01:16:27.91	317.73	25.61	-42.5	-45.0	18.4	0.00e+00	0	44	0	468713472	55	5156
2026-01-27 01:16:29.19	317.35	25.65	-42.5	-45.1	18.4	0.00e+00	0	43	0	470810624	55	5173
2026-01-27 01:16:29.90	317.14	25.67	-42.7	-45.2	18.3	0.00e+00	0	44	0	471859200	55	5237
2026-01-27 01:16:31.19	316.76	25.71	-43.0	-45.6	18.1	0.00e+00	0	44	0	475004928	56	5169
2026-01-27 01:16:31.90	316.56	25.73	-43.0	-45.6	18.0	0.00e+00	0	44	0	476053504	56	5208
2026-01-27 01:16:33.18	316.18	25.76	-43.2	-45.8	17.9	0.00e+00	0	44	0	478150656	56	5290
2026-01-27 01:16:33.91	315.96	25.78	-43.2	-45.8	17.8	0.00e+00	0	43	0	480247808	57	5005
2026-01-27 01:16:35.27	315.56	25.82	-43.1	-45.7	17.9	0.00e+00	0	44	0	482344960	57	4963
2026-01-27 01:16:35.98	315.35	25.84	-43.1	-45.7	17.9	0.00e+00	0	44	0	483393536	57	4983
2026-01-27 01:16:37.25	314.97	25.87	-43.1	-45.7	17.9	0.00e+00	0	44	0	486539264	57	4981
2026-01-27 01:16:37.99	314.75	25.89	-43.0	-45.7	17.9	0.00e+00	0	44	0	487587840	57	4946
2026-01-27 01:16:39.27	314.37	25.92	-42.9	-45.6	18.0	0.00e+00	0	44	0	489684992	57	4914
2026-01-27 01:16:39.99	314.15	25.93	-42.9	-45.7	17.9	0.00e+00	0	43	0	490733568	57	4970
2026-01-27 01:16:41.27	313.77	25.96	-42.9	-45.7	17.9	0.00e+00	0	44	0	493879296	57	4935
2026-01-27 01:16:41.99	313.55	25.97	-42.9	-45.7	17.9	0.00e+00	0	43	0	494927872	57	4966
2026-01-27 01:16:43.26	313.17	26.00	-42.9	-45.6	18.0	0.00e+00	0	44	0	497025024	57	4910
2026-01-27 01:16:43.99	312.95	26.01	-43.0	-45.6	18.0	0.00e+00	0	43	0	499122176	57	4911
2026-01-27 01:16:45.27	312.57	26.03	-43.0	-45.6	18.1	0.00e+00	0	43	0	501219328	57	4898
2026-01-27 01:16:45.98	312.35	26.05	-43.0	-45.6	18.1	0.00e+00	0	44	0	502267904	57	4878
2026-01-27 01:16:47.26	311.97	26.07	-43.2	-45.8	17.9	0.00e+00	0	43	0	504365056	57	5004
2026-01-27 01:16:47.98	311.75	26.08	-43.2	-45.8	17.8	0.00e+00	0	44	0	506462208	57	5032
2026-01-27 01:16:49.26	311.37	26.09	-43.4	-46.0	17.7	0.00e+00	0	44	0	508559360	57	5140
2026-01-27 01:16:49.99	311.14	26.10	-43.5	-46.2	17.5	0.00e+00	0	44	0	509607936	57	5233
2026-01-27 01:16:51.27	310.76	26.12	-43.7	-46.4	17.3	0.00e+00	0	43	0	512753664	57	5368
2026-01-27 01:16:51.99	310.54	26.13	-43.7	-46.4	17.3	0.00e+00	0	43	0	513802240	58	5089
2026-01-27 01:16:53.27	310.15	26.14	-43.8	-46.5	17.2	0.00e+00	0	44	0	515899392	58	5146
2026-01-27 01:16:54.02	309.92	26.15	-43.8	-46.6	17.2	0.00e+00	0	43	0	516947968	58	5174
2026-01-27 01:16:55.30	309.54	26.16	-43.7	-46.4	17.3	0.00e+00	0	43	0	520093696	58	5077
2026-01-27 01:16:56.04	309.31	26.17	-43.6	-46.4	17.4	0.00e+00	0	44	0	521142272	58	5043
2026-01-27 01:16:57.32	308.92	26.18	-43.6	-46.4	17.3	0.00e+00	0	44	0	523239424	58	5055
2026-01-27 01:16:58.08	308.69	26.18	-43.6	-46.3	17.5	0.00e+00	0	43	0	525336576	58	5007
2026-01-27 01:16:59.36	308.30	26.19	-43.8	-46.5	17.2	0.00e+00	0	44	0	527433728	58	5131
2026-01-27 01:17:00.08	308.08	26.19	-43.7	-46.4	17.2	0.00e+00	0	43	0	528482304	58	5097
2026-01-27 01:17:01.36	307.69	26.20	-43.7	-46.4	17.3	0.00e+00	0	44	0	531628032	58	5056
2026-01-27 01:17:02.07	307.48	26.20	-43.7	-46.4	17.3	0.00e+00	0	43	0	532676608	58	5049
2026-01-27 01:17:03.35	307.09	26.20	-43.6	-46.3	17.4	0.00e+00	0	43	0	534773760	58	5019
2026-01-27 01:17:04.08	306.87	26.20	-43.6	-46.3	17.4	0.00e+00	0	43	0	535822336	58	5023
2026-01-27 01:17:05.36	306.48	26.20	-43.4	-46.0	17.6	0.00e+00	0	44	0	538968064	58	4862
2026-01-27 01:17:06.08	306.26	26.20	-43.2	-45.8	17.9	0.00e+00	0	44	0	540016640	58	4744
2026-01-27 01:17:07.36	305.87	26.20	-43.0	-45.6	18.1	0.00e+00	0	43	0	542113792	58	4613
2026-01-27 01:17:08.08	305.65	26.20	-42.9	-45.4	18.3	0.00e+00	0	44	0	544210944	57	4769
2026-01-27 01:17:09.36	305.26	26.19	-42.9	-45.4	18.3	0.00e+00	0	43	0	546308096	57	4765
2026-01-27 01:17:10.07	305.05	26.19	-42.9	-45.5	18.2	0.00e+00	0	43	0	547356672	57	4816
2026-01-27 01:17:11.43	304.63	26.18	-43.1	-45.6	18.0	0.00e+00	0	44	0	550502400	57	4898
2026-01-27 01:17:12.14	304.42	26.18	-43.1	-45.6	18.0	0.00e+00	0	43	0	551550976	57	4919
2026-01-27 01:17:13.42	304.03	26.17	-43.0	-45.5	18.1	0.00e+00	0	44	0	553648128	57	4839
2026-01-27 01:17:14.13	303.81	26.16	-43.0	-45.5	18.1	0.00e+00	0	44	0	554696704	57	4847
2026-01-27 01:17:15.41	303.42	26.15	-42.8	-45.2	18.4	0.00e+00	0	44	0	557842432	57	4693
2026-01-27 01:17:16.13	303.20	26.14	-42.6	-45.0	18.6	0.00e+00	0	43	0	558891008	57	4585
2026-01-27 01:17:17.41	302.82	26.13	-42.5	-44.9	18.6	0.00e+00	0	44	0	560988160	57	4540
2026-01-27 01:17:18.12	302.60	26.12	-42.6	-45.0	18.6	0.00e+00	0	44	0	563085312	57	4584
2026-01-27 01:17:19.40	302.21	26.11	-42.4	-44.8	18.7	0.00e+00	0	43	0	565182464	56	4740
2026-01-27 01:17:20.11	302.00	26.10	-42.3	-44.7	18.9	0.00e+00	0	44	0	566231040	56	4685
2026-01-27 01:17:21.39	301.61	26.08	-42.2	-44.6	19.0	0.00e+00	0	43	0	568328192	56	4631
2026-01-27 01:17:22.12	301.39	26.07	-42.2	-44.6	19.0	0.00e+00	0	43	0	570425344	56	4599
2026-01-27 01:17:23.40	301.01	26.05	-42.1	-44.4	19.2	0.00e+00	0	43	0	572522496	56	4519
2026-01-27 01:17:24.11	300.79	26.04	-42.1	-44.4	19.2	0.00e+00	0	43	0	573571072	56	4517
2026-01-27 01:17:25.75	300.30	26.01	-42.1	-44.4	19.1	0.00e+00	0	44	0	576716800	56	4543
2026-01-27 01:17:26.32	300.13	26.00	-42.1	-44.5	19.1	0.00e+00	0	43	0	577765376	56	4551
2026-01-27 01:17:28.02	299.62	25.96	-41.8	-44.0	19.4	0.00e+00	0	43	0	580911104	55	4598
2026-01-27 01:17:28.59	299.45	25.95	-41.6	-43.9	19.5	0.00e+00	0	44	0	581959680	55	4527
2026-01-27 01:17:30.30	298.93	25.92	-41.3	-43.5	19.8	0.00e+00	0	43	0	585105408	54	4597
2026-01-27 01:17:30.87	298.76	25.90	-41.4	-43.6	19.7	0.00e+00	0	43	0	586153984	54	4624
2026-01-27 01:17:32.58	298.25	25.86	-41.3	-43.6	19.9	0.00e+00	0	43	0	589299712	54	4601
2026-01-27 01:17:33.14	298.09	25.85	-41.3	-43.5	19.9	0.00e+00	0	43	0	590348288	54	4573
2026-01-27 01:17:34.96	297.55	25.80	-41.4	-43.7	19.7	0.00e+00	0	43	0	594542592	54	4673
2026-01-27 01:17:35.53	297.38	25.79	-41.4	-43.6	19.8	0.00e+00	0	43	0	595591168	54	4641
2026-01-27 01:17:37.24	296.87	25.74	-41.3	-43.5	19.8	0.00e+00	0	44	0	598736896	54	4596
2026-01-27 01:17:37.81	296.70	25.73	-41.3	-43.5	19.9	0.00e+00	0	44	0	599785472	54	4579
2026-01-27 01:17:39.56	296.19	25.67	-41.4	-43.7	19.8	0.00e+00	0	43	0	602931200	54	4652
2026-01-27 01:17:40.13	296.02	25.66	-41.3	-43.5	19.9	0.00e+00	0	44	0	603979776	54	4569
2026-01-27 01:17:42.15	295.43	25.59	-41.2	-43.3	20.0	0.00e+00	0	44	0	608174080	54	4482
2026-01-27 01:17:42.71	295.26	25.58	-41.3	-43.5	19.9	0.00e+00	0	43	0	609222656	54	4547
2026-01-27 01:17:44.42	294.76	25.52	-41.3	-43.5	19.9	0.00e+00	0	43	0	612368384	54	4555
2026-01-27 01:17:45.13	294.55	25.50	-41.3	-43.5	19.9	0.00e+00	0	43	0	613416960	54	4590
2026-01-27 01:17:46.41	294.18	25.45	-41.5	-43.7	19.8	0.00e+00	0	43	0	615514112	54	4677
2026-01-27 01:17:47.14	293.97	25.43	-41.4	-43.6	19.8	0.00e+00	0	43	0	617611264	54	4650
2026-01-27 01:17:48.42	293.60	25.38	-41.7	-43.9	19.5	0.00e+00	0	43	0	619708416	54	4800
2026-01-27 01:17:49.14	293.39	25.35	-41.7	-44.0	19.5	0.00e+00	0	43	0	620756992	54	4837
2026-01-27 01:17:50.45	293.01	25.30	-41.7	-43.9	19.5	0.00e+00	0	43	0	622854144	54	4803
2026-01-27 01:17:51.17	292.81	25.28	-41.7	-44.0	19.5	0.00e+00	0	44	0	624951296	54	4816
2026-01-27 01:17:52.44	292.44	25.23	-41.8	-44.0	19.4	0.00e+00	0	44	0	627048448	54	4861
2026-01-27 01:17:53.17	292.23	25.20	-41.7	-44.0	19.5	0.00e+00	0	43	0	628097024	54	4839
2026-01-27 01:17:54.45	291.87	25.15	-41.7	-44.0	19.3	0.00e+00	0	44	0	631242752	54	4864
2026-01-27 01:17:55.18	291.66	25.12	-41.7	-44.0	19.4	0.00e+00	0	43	0	632291328	54	4860
2026-01-27 01:17:56.66	291.24	25.05	-41.6	-43.8	19.5	0.00e+00	0	44	0	635437056	54	4757
2026-01-27 01:17:57.37	291.04	25.02	-41.5	-43.8	19.6	0.00e+00	0	43	0	636485632	54	4720
2026-01-27 01:17:58.65	290.68	24.97	-41.7	-44.0	19.4	0.00e+00	0	44	0	638582784	54	4818
2026-01-27 01:17:59.39	290.47	24.93	-41.7	-44.0	19.4	0.00e+00	0	43	0	639631360	54	4842
2026-01-27 01:18:00.67	290.11	24.88	-41.9	-44.2	19.2	0.00e+00	0	43	0	642777088	54	4954
2026-01-27 01:18:01.38	289.91	24.84	-42.0	-44.3	19.1	0.00e+00	0	44	0	643825664	54	5027
2026-01-27 01:18:02.67	289.55	24.79	-42.1	-44.5	18.9	0.00e+00	0	44	0	645922816	54	5104
2026-01-27 01:18:03.39	289.35	24.75	-42.1	-44.5	18.9	0.00e+00	0	44	0	648019968	54	5111
2026-01-27 01:18:04.67	289.00	24.69	-42.2	-44.6	18.9	0.00e+00	0	43	0	650117120	55	4873
2026-01-27 01:18:05.40	288.80	24.66	-42.3	-44.7	18.7	0.00e+00	0	44	0	651165696	55	4963
2026-01-27 01:18:06.67	288.45	24.59	-42.4	-44.9	18.6	0.00e+00	0	44	0	653262848	55	5048
2026-01-27 01:18:07.45	288.23	24.56	-42.4	-44.8	18.6	0.00e+00	0	44	0	655360000	55	5000
2026-01-27 01:18:08.73	287.88	24.49	-42.4	-44.9	18.6	0.00e+00	0	44	0	657457152	55	5060
2026-01-27 01:18:09.45	287.69	24.45	-42.5	-45.0	18.4	0.00e+00	0	43	0	658505728	55	5141
2026-01-27 01:18:10.73	287.34	24.39	-42.5	-45.0	18.5	0.00e+00	0	43	0	661651456	55	5102
2026-01-27 01:18:11.46	287.14	24.35	-42.5	-44.9	18.5	0.00e+00	0	43	0	662700032	55	5086
2026-01-27 01:18:12.74	286.79	24.28	-42.6	-45.1	18.4	0.00e+00	0	43	0	664797184	55	5166
2026-01-27 01:18:13.67	286.54	24.23	-42.6	-45.0	18.4	0.00e+00	0	44	0	666894336	55	5155
2026-01-27 01:18:14.97	286.19	24.16	-42.9	-45.4	18.2	0.00e+00	0	44	0	668991488	56	5075
2026-01-27 01:18:15.68	286.01	24.13	-43.0	-45.5	18.1	0.00e+00	0	43	0	670040064	56	5132
2026-01-27 01:18:16.96	285.66	24.06	-43.1	-45.6	18.0	0.00e+00	0	44	0	673185792	56	5202
2026-01-27 01:18:17.68	285.47	24.02	-43.1	-45.7	17.9	0.00e+00	0	44	0	674234368	56	5234
2026-01-27 01:18:18.96	285.13	23.94	-43.1	-45.7	17.8	0.00e+00	0	44	0	676331520	57	4953
2026-01-27 01:18:19.69	284.94	23.90	-43.1	-45.6	18.0	0.00e+00	0	44	0	678428672	57	4909
2026-01-27 01:18:20.97	284.61	23.83	-43.1	-45.6	17.9	0.00e+00	0	44	0	680525824	57	4920
2026-01-27 01:18:21.68	284.42	23.79	-43.1	-45.7	17.9	0.00e+00	0	44	0	681574400	57	4940
2026-01-27 01:18:22.96	284.09	23.71	-43.3	-45.9	17.7	0.00e+00	0	43	0	684720128	57	5066
2026-01-27 01:18:23.67	283.90	23.67	-43.3	-45.9	17.7	0.00e+00	0	44	0	685768704	57	5059
2026-01-27 01:18:24.95	283.57	23.60	-43.3	-45.9	17.7	0.00e+00	0	43	0	687865856	57	5042
2026-01-27 01:18:25.66	283.39	23.56	-43.4	-46.0	17.6	0.00e+00	0	44	0	688914432	57	5113
2026-01-27 01:18:26.92	283.06	23.48	-43.2	-45.7	17.9	0.00e+00	0	44	0	692060160	57	4977
2026-01-27 01:18:27.73	282.86	23.43	-43.2	-45.7	17.9	0.00e+00	0	44	0	693108736	57	4981
2026-01-27 01:18:29.12	282.50	23.35	-43.3	-45.9	17.7	0.00e+00	0	44	0	696254464	57	5057
2026-01-27 01:18:30.25	282.22	23.28	-43.3	-45.9	17.7	0.00e+00	0	44	0	698351616	57	5071
2026-01-27 01:18:31.11	282.00	23.22	-43.3	-45.9	17.7	0.00e+00	0	43	0	699400192	57	5086
2026-01-27 01:18:32.24	281.72	23.15	-43.2	-45.8	17.8	0.00e+00	0	44	0	701497344	57	5014
2026-01-27 01:18:33.09	281.50	23.10	-43.4	-46.0	17.6	0.00e+00	0	44	0	703594496	57	5145
2026-01-27 01:18:34.32	281.20	23.02	-43.4	-46.1	17.5	0.00e+00	0	43	0	705691648	57	5177
2026-01-27 01:18:35.18	280.98	22.97	-43.5	-46.2	17.5	0.00e+00	0	43	0	706740224	57	5222
2026-01-27 01:18:36.36	280.69	22.89	-43.5	-46.1	17.5	0.00e+00	0	43	0	708837376	57	5182
2026-01-27 01:18:37.22	280.48	22.83	-43.4	-46.1	17.6	0.00e+00	0	43	0	710934528	57	5171
2026-01-27 01:18:38.35	280.20	22.76	-43.3	-45.9	17.7	0.00e+00	0	44	0	713031680	57	5066
2026-01-27 01:18:39.20	279.99	22.71	-43.2	-45.7	17.9	0.00e+00	0	44	0	715128832	57	4980
2026-01-27 01:18:40.34	279.72	22.63	-43.3	-45.9	17.7	0.00e+00	0	43	0	717225984	57	5063
2026-01-27 01:18:41.20	279.51	22.57	-43.3	-45.8	17.7	0.00e+00	0	44	0	718274560	57	5033
2026-01-27 01:18:42.33	279.24	22.50	-43.3	-46.0	17.7	0.00e+00	0	44	0	720371712	57	5104
2026-01-27 01:18:43.19	279.03	22.44	-43.4	-46.0	17.6	0.00e+00	0	43	0	722468864	57	5136
2026-01-27 01:18:44.32	278.76	22.36	-43.4	-46.0	17.6	0.00e+00	0	43	0	724566016	57	5133
2026-01-27 01:18:45.17	278.56	22.31	-43.4	-46.0	17.6	0.00e+00	0	43	0	725614592	57	5143
2026-01-27 01:18:46.31	278.29	22.23	-43.3	-45.9	17.8	0.00e+00	0	44	0	727711744	57	5047
2026-01-27 01:18:47.16	278.09	22.17	-43.1	-45.6	17.9	0.00e+00	0	43	0	729808896	57	4922
2026-01-27 01:18:48.30	277.82	22.09	-43.0	-45.6	18.0	0.00e+00	0	44	0	731906048	57	4874
2026-01-27 01:18:49.15	277.62	22.03	-42.9	-45.4	18.1	0.00e+00	0	44	0	732954624	57	4800
2026-01-27 01:18:50.29	277.36	21.95	-42.9	-45.5	18.1	0.00e+00	0	44	0	735051776	57	4817
2026-01-27 01:18:51.14	277.16	21.90	-42.9	-45.4	18.2	0.00e+00	0	44	0	737148928	57	4788
2026-01-27 01:18:52.28	276.90	21.82	-42.8	-45.3	18.2	0.00e+00	0	44	0	739246080	57	4759
2026-01-27 01:18:53.13	276.70	21.76	-42.7	-45.2	18.3	0.00e+00	0	44	0	741343232	57	4688
2026-01-27 01:18:54.27	276.44	21.68	-42.7	-45.1	18.4	0.00e+00	0	44	0	743440384	57	4650
2026-01-27 01:18:55.12	276.25	21.62	-42.5	-45.0	18.5	0.00e+00	0	44	0	744488960	57	4584
2026-01-27 01:18:56.26	275.99	21.53	-42.4	-44.9	18.6	0.00e+00	0	44	0	746586112	56	4777
2026-01-27 01:18:57.11	275.80	21.47	-42.5	-45.0	18.5	0.00e+00	0	43	0	748683264	56	4853
2026-01-27 01:18:58.25	275.54	21.39	-42.4	-44.8	18.7	0.00e+00	0	43	0	750780416	56	4741
2026-01-27 01:18:59.29	275.31	21.32	-42.4	-44.8	18.7	0.00e+00	0	43	0	752877568	56	4742
2026-01-27 01:19:00.46	275.05	21.23	-42.3	-44.8	18.8	0.00e+00	0	43	0	754974720	56	4710
2026-01-27 01:19:01.34	274.85	21.17	-42.4	-44.9	18.7	0.00e+00	0	44	0	756023296	56	4774
2026-01-27 01:19:02.48	274.60	21.09	-42.4	-44.9	18.7	0.00e+00	0	43	0	758120448	56	4767
2026-01-27 01:19:03.33	274.42	21.02	-42.5	-45.0	18.6	0.00e+00	0	43	0	760217600	56	4819
2026-01-27 01:19:04.47	274.17	20.94	-42.5	-44.9	18.7	0.00e+00	0	43	0	762314752	56	4784
2026-01-27 01:19:05.32	273.98	20.88	-42.5	-45.0	18.6	0.00e+00	0	44	0	763363328	56	4826
2026-01-27 01:19:06.46	273.74	20.79	-42.4	-44.9	18.7	0.00e+00	0	44	0	765460480	56	4781
2026-01-27 01:19:07.31	273.55	20.73	-42.4	-44.8	18.7	0.00e+00	0	43	0	767557632	56	4754
2026-01-27 01:19:08.45	273.31	20.65	-42.3	-44.8	18.8	0.00e+00	0	44	0	769654784	56	4736
2026-01-27 01:19:09.30	273.13	20.58	-42.2	-44.7	18.9	0.00e+00	0	43	0	770703360	56	4658
2026-01-27 01:19:10.44	272.89	20.50	-42.3	-44.7	18.8	0.00e+00	0	44	0	772800512	56	4682
2026-01-27 01:19:11.29	272.71	20.44	-42.3	-44.7	18.8	0.00e+00	0	43	0	774897664	56	4702
2026-01-27 01:19:12.43	272.47	20.35	-42.3	-44.8	18.8	0.00e+00	0	43	0	776994816	56	4735
2026-01-27 01:19:13.28	272.29	20.29	-42.4	-44.9	18.6	0.00e+00	0	44	0	779091968	56	4804
2026-01-27 01:19:14.42	272.06	20.20	-42.4	-45.0	18.6	0.00e+00	0	44	0	781189120	56	4822
2026-01-27 01:19:15.27	271.88	20.14	-42.5	-45.0	18.6	0.00e+00	0	44	0	782237696	56	4843
2026-01-27 01:19:16.41	271.65	20.05	-42.5	-45.0	18.6	0.00e+00	0	43	0	784334848	56	4839
2026-01-27 01:19:17.26	271.47	19.99	-42.5	-45.0	18.5	0.00e+00	0	44	0	786432000	56	4855
2026-01-27 01:19:18.40	271.24	19.90	-42.5	-45.0	18.5	0.00e+00	0	43	0	788529152	56	4854
2026-01-27 01:19:19.25	271.07	19.84	-42.4	-44.9	18.6	0.00e+00	0	44	0	789577728	56	4813
2026-01-27 01:19:20.39	270.84	19.75	-42.3	-44.8	18.7	0.00e+00	0	43	0	791674880	56	4729
2026-01-27 01:19:21.24	270.67	19.68	-42.3	-44.8	18.8	0.00e+00	0	44	0	793772032	56	4706
2026-01-27 01:19:22.38	270.44	19.60	-42.4	-44.8	18.7	0.00e+00	0	43	0	795869184	56	4744
2026-01-27 01:19:23.23	270.27	19.53	-42.3	-44.7	18.8	0.00e+00	0	44	0	796917760	56	4705
2026-01-27 01:19:24.37	270.04	19.44	-42.2	-44.7	18.9	0.00e+00	0	43	0	799014912	56	4653
2026-01-27 01:19:25.22	269.88	19.38	-42.2	-44.7	18.9	0.00e+00	0	43	0	801112064	56	4652
2026-01-27 01:19:26.36	269.65	19.29	-42.2	-44.6	18.9	0.00e+00	0	43	0	803209216	56	4629
2026-01-27 01:19:27.21	269.49	19.23	-42.2	-44.6	18.9	0.00e+00	0	43	0	804257792	56	4647
2026-01-27 01:19:28.35	269.27	19.14	-42.2	-44.6	18.9	0.00e+00	0	44	0	806354944	56	4636
2026-01-27 01:19:29.20	269.10	19.07	-42.1	-44.5	19.0	0.00e+00	0	43	0	808452096	56	4547
2026-01-27 01:19:30.42	268.87	18.98	-42.0	-44.4	19.0	0.00e+00	0	44	0	810549248	56	4527
2026-01-27 01:19:31.27	268.71	18.91	-42.0	-44.4	19.0	0.00e+00	0	44	0	812646400	56	4523
2026-01-27 01:19:32.40	268.49	18.82	-41.8	-44.2	19.2	0.00e+00	0	44	0	814743552	55	4670
2026-01-27 01:19:33.25	268.33	18.76	-41.8	-44.2	19.1	0.00e+00	0	44	0	815792128	55	4683
2026-01-27 01:19:34.52	268.09	18.66	-41.8	-44.2	19.2	0.00e+00	0	43	0	818937856	55	4662
2026-01-27 01:19:35.29	267.95	18.60	-41.8	-44.2	19.1	0.00e+00	0	44	0	819986432	55	4652
2026-01-27 01:19:36.57	267.71	18.50	-41.7	-44.1	19.2	0.00e+00	0	43	0	822083584	55	4622
2026-01-27 01:19:37.69	267.51	18.41	-41.7	-44.0	19.3	0.00e+00	0	43	0	824180736	55	4595
2026-01-27 01:19:38.55	267.35	18.35	-41.7	-44.0	19.3	0.00e+00	0	44	0	826277888	55	4570
2026-01-27 01:19:39.68	267.14	18.26	-41.6	-43.9	19.4	0.00e+00	0	43	0	828375040	55	4536
2026-01-27 01:19:40.53	266.99	18.19	-41.6	-43.9	19.4	0.00e+00	0	43	0	829423616	55	4498
2026-01-27 01:19:41.67	266.78	18.10	-41.5	-43.7	19.5	0.00e+00	0	44	0	831520768	54	4695
2026-01-27 01:19:42.53	266.63	18.04	-41.4	-43.6	19.7	0.00e+00	0	43	0	833617920	54	4636
2026-01-27 01:19:43.66	266.42	17.95	-41.4	-43.6	19.7	0.00e+00	0	44	0	835715072	54	4632
2026-01-27 01:19:44.52	266.27	17.88	-41.5	-43.7	19.6	0.00e+00	0	43	0	836763648	54	4681
2026-01-27 01:19:45.65	266.07	17.79	-41.5	-43.7	19.6	0.00e+00	0	43	0	838860800	54	4673
2026-01-27 01:19:46.51	265.92	17.73	-41.4	-43.7	19.6	0.00e+00	0	44	0	840957952	54	4667
2026-01-27 01:19:47.64	265.72	17.64	-41.5	-43.8	19.5	0.00e+00	0	44	0	843055104	54	4738
2026-01-27 01:19:48.65	265.54	17.56	-41.6	-43.8	19.5	0.00e+00	0	44	0	845152256	54	4755
2026-01-27 01:19:49.81	265.34	17.47	-44.5	-47.5	16.3	7.00e-07	0	43	0	847249408	59	5419
2026-01-27 01:19:50.72	265.19	17.40	-42.2	-44.6	18.9	0.00e+00	0	43	0	849346560	55	4877
2026-01-27 01:19:51.72	265.01	17.32	-41.6	-43.9	19.5	0.00e+00	0	43	0	850395136	55	4510
2026-01-27 01:19:52.98	264.80	17.22	-41.5	-43.8	19.4	0.00e+00	0	44	0	853540864	55	4465
2026-01-27 01:19:53.78	264.66	17.16	-41.5	-43.8	19.5	0.00e+00	0	43	0	854589440	55	4473
2026-01-27 01:19:54.92	264.47	17.07	-41.5	-43.8	19.5	0.00e+00	0	43	0	856686592	55	4456
2026-01-27 01:19:55.77	264.33	17.00	-41.4	-43.7	19.6	0.00e+00	0	44	0	858783744	54	4678
2026-01-27 01:19:56.91	264.14	16.91	-41.4	-43.7	19.6	0.00e+00	0	43	0	860880896	54	4688
2026-01-27 01:19:57.76	264.00	16.84	-41.5	-43.8	19.5	0.00e+00	0	44	0	861929472	54	4712
2026-01-27 01:19:58.90	263.81	16.75	-41.6	-44.0	19.3	0.00e+00	0	44	0	864026624	54	4836
2026-01-27 01:19:59.75	263.67	16.69	-41.6	-44.0	19.3	0.00e+00	0	44	0	866123776	54	4817
2026-01-27 01:20:00.89	263.48	16.60	-41.8	-44.2	19.1	0.00e+00	0	44	0	868220928	54	4933
2026-01-27 01:20:01.74	263.34	16.53	-41.8	-44.2	19.1	0.00e+00	0	44	0	869269504	54	4933
2026-01-27 01:20:02.88	263.16	16.44	-41.7	-44.1	19.2	0.00e+00	0	43	0	871366656	54	4902
2026-01-27 01:20:03.73	263.02	16.38	-41.8	-44.1	19.1	0.00e+00	0	43	0	873463808	54	4910
2026-01-27 01:20:04.87	262.84	16.29	-41.8	-44.1	19.2	0.00e+00	0	44	0	875560960	54	4919
2026-01-27 01:20:05.72	262.70	16.22	-41.7	-44.1	19.2	0.00e+00	0	44	0	876609536	54	4882
2026-01-27 01:20:07.09	262.49	16.11	-41.7	-44.0	19.2	0.00e+00	0	44	0	879755264	54	4861
2026-01-27 01:20:07.80	262.38	16.06	-41.7	-44.0	19.2	0.00e+00	0	43	0	880803840	54	4870
2026-01-27 01:20:09.26	262.15	15.94	-41.7	-44.0	19.3	0.00e+00	0	43	0	883949568	54	4848
2026-01-27 01:20:09.97	262.04	15.89	-41.8	-44.1	19.1	0.00e+00	0	43	0	884998144	54	4924
2026-01-27 01:20:11.25	261.84	15.79	-41.7	-44.1	19.2	0.00e+00	0	43	0	887095296	54	4877
2026-01-27 01:20:11.98	261.73	15.73	-41.6	-43.9	19.3	0.00e+00	0	43	0	889192448	54	4801
2026-01-27 01:20:13.25	261.53	15.63	-41.7	-44.0	19.3	0.00e+00	0	44	0	891289600	54	4822
2026-01-27 01:20:13.98	261.42	15.57	-41.7	-44.0	19.3	0.00e+00	0	44	0	892338176	54	4834
2026-01-27 01:20:15.26	261.23	15.47	-41.9	-44.2	19.1	0.00e+00	0	43	0	894435328	54	4944
2026-01-27 01:20:15.98	261.12	15.42	-41.8	-44.1	19.1	0.00e+00	0	43	0	896532480	54	4916
2026-01-27 01:20:17.26	260.92	15.32	-41.8	-44.2	19.0	0.00e+00	0	44	0	898629632	54	4959
2026-01-27 01:20:18.03	260.81	15.26	-41.9	-44.2	19.0	0.00e+00	0	44	0	899678208	54	4980
2026-01-27 01:20:19.31	260.62	15.16	-42.0	-44.5	18.8	0.00e+00	0	43	0	902823936	54	5108
2026-01-27 01:20:20.02	260.51	15.10	-42.0	-44.4	18.8	0.00e+00	0	44	0	903872512	54	5083
2026-01-27 01:20:21.30	260.33	15.00	-42.1	-44.5	18.7	0.00e+00	0	44	0	905969664	54	5145
2026-01-27 01:20:22.14	260.20	14.94	-42.2	-44.7	18.5	0.00e+00	0	43	0	908066816	55	4954
2026-01-27 01:20:23.62	259.99	14.83	-42.2	-44.7	18.5	0.00e+00	0	43	0	910163968	55	4982
2026-01-27 01:20:24.33	259.89	14.77	-42.4	-44.9	18.3	0.00e+00	0	43	0	912261120	55	5098
2026-01-27 01:20:25.61	259.70	14.67	-42.5	-45.1	18.2	0.00e+00	0	43	0	914358272	55	5206
2026-01-27 01:20:26.35	259.60	14.61	-42.6	-45.2	18.1	0.00e+00	0	44	0	915406848	55	5246
2026-01-27 01:20:27.63	259.41	14.51	-42.7	-45.3	18.1	0.00e+00	0	44	0	918552576	56	5001
2026-01-27 01:20:28.36	259.31	14.46	-42.8	-45.5	17.7	0.00e+00	0	43	0	919601152	56	5101
2026-01-27 01:20:29.64	259.13	14.36	-42.7	-45.3	18.1	0.00e+00	0	43	0	921698304	56	5008
2026-01-27 01:20:30.36	259.03	14.30	-42.7	-45.3	18.2	0.00e+00	0	43	0	922746880	56	4995
2026-01-27 01:20:31.64	258.85	14.21	-42.7	-45.2	18.2	0.00e+00	0	43	0	925892608	56	4951
2026-01-27 01:20:32.37	258.75	14.15	-42.5	-45.0	18.4	0.00e+00	0	43	0	926941184	56	4842
2026-01-27 01:20:33.64	258.58	14.05	-42.7	-45.2	18.3	0.00e+00	0	43	0	929038336	56	4942
2026-01-27 01:20:34.37	258.48	14.00	-42.6	-45.1	18.3	0.00e+00	0	44	0	931135488	56	4894
2026-01-27 01:20:35.65	258.30	13.90	-42.6	-45.1	18.3	0.00e+00	0	44	0	933232640	56	4913
2026-01-27 01:20:36.36	258.21	13.84	-42.6	-45.1	18.3	0.00e+00	0	44	0	934281216	56	4915
2026-01-27 01:20:37.64	258.03	13.75	-42.8	-45.3	18.1	0.00e+00	0	43	0	936378368	56	4991
2026-01-27 01:20:38.36	257.94	13.69	-42.7	-45.2	18.2	0.00e+00	0	44	0	938475520	56	4983
2026-01-27 01:20:39.64	257.77	13.59	-42.9	-45.5	17.9	0.00e+00	0	43	0	940572672	56	5107
2026-01-27 01:20:40.37	257.67	13.54	-43.0	-45.6	17.9	0.00e+00	0	44	0	941621248	56	5164
2026-01-27 01:20:41.74	257.49	13.43	-42.9	-45.6	17.8	0.00e+00	0	43	0	944766976	56	5170
2026-01-27 01:20:42.45	257.39	13.38	-43.0	-45.6	17.7	0.00e+00	0	44	0	945815552	56	5186
2026-01-27 01:20:43.73	257.23	13.28	-42.9	-45.6	17.8	0.00e+00	0	44	0	947912704	56	5185
2026-01-27 01:20:44.45	257.13	13.23	-43.0	-45.6	17.7	0.00e+00	0	44	0	950009856	56	5212
2026-01-27 01:20:45.73	256.97	13.13	-42.9	-45.6	17.8	0.00e+00	0	44	0	952107008	56	5182
2026-01-27 01:20:46.46	256.87	13.08	-42.9	-45.6	17.8	0.00e+00	0	44	0	953155584	56	5175
2026-01-27 01:20:47.74	256.71	12.98	-42.9	-45.6	17.7	0.00e+00	0	43	0	955252736	56	5198
2026-01-27 01:20:48.46	256.62	12.92	-42.8	-45.5	17.8	0.00e+00	0	43	0	957349888	56	5113
2026-01-27 01:20:49.74	256.46	12.83	-42.9	-45.6	17.7	0.00e+00	0	43	0	959447040	56	5191
2026-01-27 01:20:50.47	256.36	12.77	-42.9	-45.6	17.7	0.00e+00	0	44	0	960495616	56	5189
2026-01-27 01:20:51.75	256.20	12.68	-43.0	-45.7	17.6	0.00e+00	0	43	0	963641344	56	5259
2026-01-27 01:20:52.60	256.10	12.61	-43.0	-45.8	17.6	0.00e+00	0	44	0	964689920	56	5284
2026-01-27 01:20:54.11	255.91	12.50	-43.0	-45.7	17.6	0.00e+00	0	44	0	967835648	56	5230
2026-01-27 01:20:54.83	255.82	12.45	-43.0	-45.8	17.5	0.00e+00	0	44	0	968884224	56	5285
2026-01-27 01:20:56.10	255.67	12.35	-43.1	-45.8	17.5	0.00e+00	0	44	0	970981376	56	5337
2026-01-27 01:20:56.83	255.58	12.30	-43.2	-45.9	17.4	0.00e+00	0	44	0	973078528	56	5385
2026-01-27 01:20:58.11	255.42	12.20	-43.2	-46.0	17.3	0.00e+00	0	44	0	975175680	57	5125
2026-01-27 01:20:58.87	255.33	12.14	-43.2	-46.0	17.4	0.00e+00	0	44	0	976224256	57	5104
2026-01-27 01:21:00.14	255.18	12.05	-43.2	-46.1	17.1	0.00e+00	0	44	0	979369984	57	5180
2026-01-27 01:21:00.95	255.08	11.99	-43.3	-46.1	17.2	0.00e+00	0	44	0	980418560	57	5195
2026-01-27 01:21:02.09	254.95	11.90	-43.3	-46.1	17.2	0.00e+00	0	44	0	982515712	57	5180
2026-01-27 01:21:02.94	254.85	11.84	-43.3	-46.1	17.2	0.00e+00	0	44	0	984612864	57	5194
2026-01-27 01:21:04.08	254.71	11.76	-43.2	-46.0	17.3	0.00e+00	0	44	0	986710016	57	5112
2026-01-27 01:21:04.93	254.61	11.69	-43.2	-45.9	17.4	0.00e+00	0	44	0	987758592	57	5093
2026-01-27 01:21:06.07	254.48	11.61	-43.2	-46.0	17.3	0.00e+00	0	44	0	989855744	57	5114
2026-01-27 01:21:06.92	254.38	11.55	-43.2	-46.0	17.3	0.00e+00	0	44	0	991952896	57	5127
2026-01-27 01:21:08.06	254.25	11.46	-43.3	-46.0	17.3	0.00e+00	0	43	0	994050048	57	5157
2026-01-27 01:21:08.91	254.15	11.40	-43.4	-46.3	17.1	0.00e+00	0	44	0	995098624	57	5286
2026-01-27 01:21:10.04	254.02	11.32	-43.3	-46.1	17.2	0.00e+00	0	43	0	997195776	57	5190
2026-01-27 01:21:10.90	253.93	11.26	-43.3	-46.2	17.1	0.00e+00	0	44	0	999292928	57	5226
2026-01-27 01:21:12.03	253.80	11.17	-43.4	-46.3	17.0	0.00e+00	0	44	0	1001390080	57	5297
2026-01-27 01:21:12.89	253.70	11.11	-43.3	-46.2	17.1	0.00e+00	0	44	0	1002438656	57	5268
2026-01-27 01:21:14.03	253.58	11.03	-43.5	-46.4	16.8	0.00e+00	0	44	0	1004535808	57	5400
2026-01-27 01:21:14.88	253.48	10.97	-43.3	-46.2	17.1	0.00e+00	0	44	0	1006632960	57	5274
2026-01-27 01:21:16.02	253.35	10.88	-43.3	-46.2	17.0	0.00e+00	0	43	0	1008730112	57	5255
2026-01-27 01:21:16.87	253.26	10.82	-43.3	-46.2	17.1	0.00e+00	0	44	0	1010827264	57	5260
2026-01-27 01:21:18.09	253.13	10.73	-43.4	-46.3	17.0	0.00e+00	0	44	0	1012924416	57	5295
2026-01-27 01:21:18.94	253.03	10.67	-43.4	-46.4	16.9	0.00e+00	0	44	0	1013972992	57	5347
2026-01-27 01:21:20.13	252.91	10.58	-43.4	-46.3	17.0	0.00e+00	0	43	0	1016070144	57	5297
2026-01-27 01:21:20.98	252.81	10.52	-43.5	-46.4	16.9	0.00e+00	0	44	0	1018167296	57	5358
2026-01-27 01:21:22.12	252.69	10.44	-43.5	-46.4	16.8	0.00e+00	0	44	0	1020264448	57	5402
2026-01-27 01:21:22.97	252.60	10.38	-43.4	-46.4	16.9	0.00e+00	0	44	0	1021313024	57	5344
2026-01-27 01:21:24.11	252.48	10.30	-43.6	-46.5	16.7	0.00e+00	0	44	0	1023410176	57	5459
2026-01-27 01:21:24.96	252.39	10.24	-43.6	-46.6	16.7	0.00e+00	0	43	0	1025507328	57	5501
2026-01-27 01:21:26.10	252.27	10.16	-43.7	-46.8	16.5	0.00e+00	0	44	0	1027604480	57	5594
2026-01-27 01:21:27.05	252.17	10.09	-43.8	-46.9	16.4	0.00e+00	0	44	0	1029701632	58	5370
2026-01-27 01:21:28.04	252.07	10.02	-43.9	-47.1	16.2	0.00e+00	0	44	0	1031798784	58	5466
2026-01-27 01:21:29.04	251.96	9.95	-44.0	-47.2	16.1	0.00e+00	0	44	0	1032847360	58	5550
2026-01-27 01:21:30.04	251.86	9.88	-43.9	-47.1	16.2	0.00e+00	0	44	0	1034944512	58	5474
2026-01-27 01:21:31.03	251.76	9.80	-44.0	-47.1	16.1	0.00e+00	0	44	0	1037041664	58	5525
2026-01-27 01:21:32.03	251.66	9.73	-44.1	-47.3	15.9	0.00e+00	0	43	0	1039138816	58	5656
2026-01-27 01:21:33.02	251.56	9.66	-44.0	-47.1	16.1	0.00e+00	0	44	0	1040187392	58	5528
2026-01-27 01:21:34.02	251.46	9.59	-44.0	-47.1	16.1	0.00e+00	0	44	0	1042284544	58	5522
2026-01-27 01:21:35.01	251.36	9.52	-44.0	-47.2	16.0	0.00e+00	0	44	0	1044381696	58	5562
2026-01-27 01:21:36.01	251.26	9.45	-44.1	-47.3	15.9	0.00e+00	0	44	0	1046478848	58	5653
2026-01-27 01:21:37.00	251.16	9.38	-44.0	-47.3	16.0	0.00e+00	0	44	0	1048576000	58	5599
2026-01-27 01:21:37.99	251.06	9.31	-44.1	-47.3	15.9	0.00e+00	0	44	0	1049624576	58	5651
2026-01-27 01:21:38.99	250.96	9.24	-44.2	-47.5	15.7	0.00e+00	0	44	0	1051721728	59	5455
2026-01-27 01:21:39.99	250.86	9.17	-44.2	-47.5	15.7	0.00e+00	0	44	0	1053818880	59	5457
2026-01-27 01:21:40.98	250.77	9.10	-44.3	-47.7	15.6	0.00e+00	0	44	0	1055916032	59	5537
2026-01-27 01:21:41.98	250.67	9.04	-44.2	-47.6	15.6	0.00e+00	0	43	0	1056964608	59	5515
2026-01-27 01:21:42.97	250.57	8.97	-48.6	-62.9	3.8	8.11e-01	0	43	104	1059061760	67	20216
2026-01-27 01:21:43.96	250.48	8.90	-49.0	-64.7	3.8	1.49e+00	0	44	104	1059061760	68	23504
2026-01-27 01:21:44.96	250.38	8.83	-49.4	-64.8	3.8	1.49e+00	0	43	104	1059061760	69	22512
2026-01-27 01:21:45.95	250.29	8.76	-49.6	-64.9	3.8	1.49e+00	0	44	104	1059061760	69	22741
2026-01-27 01:21:46.94	250.19	8.69	-49.5	-65.0	3.8	1.49e+00	0	44	104	1059061760	69	22981
2026-01-27 01:21:47.94	250.10	8.62	-49.5	-65.0	3.8	1.49e+00	0	44	104	1059061760	69	23007
2026-01-27 01:21:48.93	250.01	8.55	-49.7	-65.1	3.8	1.49e+00	0	44	104	1059061760	70	21889
2026-01-27 01:21:49.92	249.91	8.49	-49.7	-65.1	3.8	1.49e+00	0	44	104	1059061760	70	21860
2026-01-27 01:21:50.92	249.82	8.42	-49.8	-65.1	3.8	1.49e+00	0	43	104	1059061760	70	21949
2026-01-27 01:21:51.91	249.73	8.35	-49.8	-65.1	3.8	1.49e+00	0	43	104	1059061760	70	21932
2026-01-27 01:21:52.90	249.64	8.28	-49.8	-65.1	3.8	1.49e+00	0	44	104	1059061760	70	21942
2026-01-27 01:21:53.90	249.55	8.21	-49.8	-65.2	3.8	1.49e+00	0	44	104	1059061760	70	22020
2026-01-27 01:21:54.89	249.46	8.15	-49.8	-65.2	3.8	1.49e+00	0	44	104	1059061760	70	22055
2026-01-27 01:21:55.88	249.37	8.08	-49.8	-65.2	3.8	1.49e+00	0	44	104	1059061760	70	22028
2026-01-27 01:21:56.88	249.27	8.01	-49.8	-65.2	3.8	1.49e+00	0	44	104	1059061760	70	22084
2026-01-27 01:21:57.87	249.19	7.94	-49.9	-65.2	3.8	1.49e+00	0	44	104	1059061760	70	22079
2026-01-27 01:21:58.86	249.10	7.88	-49.8	-65.1	3.8	1.49e+00	0	44	104	1059061760	70	21988
2026-01-27 01:21:59.85	249.01	7.81	-49.9	-65.2	3.8	1.49e+00	0	43	104	1059061760	70	22012
2026-01-27 01:22:00.85	248.92	7.74	-49.8	-65.1	3.8	1.49e+00	0	44	104	1059061760	70	21953
2026-01-27 01:22:01.84	248.83	7.67	-49.7	-65.1	3.8	1.49e+00	0	44	104	1059061760	70	21983
2026-01-27 01:22:02.84	248.74	7.61	-49.6	-65.1	3.8	1.49e+00	0	44	104	1059061760	70	21908
2026-01-27 01:22:03.83	248.66	7.54	-49.6	-65.1	3.8	1.49e+00	0	44	104	1059061760	70	21850
2026-01-27 01:22:04.82	248.57	7.47	-49.5	-65.1	3.8	1.49e+00	0	43	104	1059061760	70	21823
2026-01-27 01:22:05.82	248.48	7.41	-49.5	-65.1	3.8	1.49e+00	0	44	104	1059061760	70	21806
2026-01-27 01:22:06.81	248.40	7.34	-49.5	-65.1	3.8	1.49e+00	0	44	104	1059061760	70	21850
2026-01-27 01:22:07.80	248.31	7.27	-49.5	-65.1	3.8	1.49e+00	0	44	104	1059061760	70	21795
2026-01-27 01:22:08.80	248.23	7.21	-49.5	-65.1	3.8	1.49e+00	0	43	104	1059061760	70	21766
2026-01-27 01:22:09.79	248.14	7.14	-49.5	-65.1	3.8	1.49e+00	0	43	104	1059061760	70	21879
2026-01-27 01:22:10.78	248.06	7.08	-49.5	-65.1	3.8	1.49e+00	0	44	104	1059061760	70	21782
2026-01-27 01:22:11.78	247.98	7.01	-49.5	-65.1	3.8	1.49e+00	0	43	104	1059061760	70	21762
2026-01-27 01:22:12.77	247.89	6.94	-49.5	-65.0	3.8	1.49e+00	0	44	104	1059061760	70	21708
2026-01-27 01:22:13.76	247.81	6.88	-49.5	-65.1	3.8	1.49e+00	0	44	104	1059061760	70	21783
2026-01-27 01:22:14.76	247.73	6.81	-49.5	-65.0	3.8	1.49e+00	0	44	104	1059061760	70	21729
2026-01-27 01:22:15.75	247.65	6.75	-49.5	-65.1	3.8	1.49e+00	0	44	104	1059061760	70	21772
2026-01-27 01:22:16.74	247.56	6.68	-49.5	-65.0	3.8	1.49e+00	0	44	104	1059061760	70	21629
2026-01-27 01:22:17.74	247.48	6.62	-49.5	-65.0	3.8	1.49e+00	0	44	104	1059061760	70	21703
2026-01-27 01:22:18.73	247.40	6.55	-49.5	-65.0	3.8	1.49e+00	0	44	104	1059061760	70	21689
2026-01-27 01:22:19.72	247.32	6.49	-49.5	-65.0	3.8	1.49e+00	0	44	104	1059061760	70	21661
2026-01-27 01:22:20.72	247.24	6.42	-49.5	-65.0	3.8	1.49e+00	0	44	104	1059061760	70	21723
2026-01-27 01:22:21.71	247.16	6.36	-49.5	-65.1	3.8	1.49e+00	0	44	104	1059061760	70	21771
2026-01-27 01:22:22.70	247.08	6.29	-49.5	-65.0	3.8	1.49e+00	0	44	104	1059061760	70	21696
2026-01-27 01:22:23.69	247.00	6.23	-49.5	-65.0	3.8	1.49e+00	0	44	104	1059061760	70	21721
2026-01-27 01:22:24.69	246.92	6.16	-49.5	-65.1	3.8	1.49e+00	0	44	104	1059061760	70	21795
2026-01-27 01:22:25.68	246.84	6.10	-49.5	-65.1	3.8	1.49e+00	0	44	104	1059061760	70	21770
2026-01-27 01:22:26.68	246.77	6.04	-49.5	-65.0	3.8	1.49e+00	0	44	104	1059061760	70	21667
2026-01-27 01:22:27.67	246.69	5.97	-49.5	-65.0	3.8	1.49e+00	0	44	104	1059061760	70	21676
2026-01-27 01:22:28.66	246.61	5.91	-49.5	-65.0	3.8	1.49e+00	0	44	104	1059061760	70	21632
2026-01-27 01:22:29.66	246.53	5.84	-49.5	-65.0	3.8	1.49e+00	0	44	104	1059061760	70	21713
2026-01-27 01:22:30.65	246.46	5.78	-49.5	-65.0	3.8	1.49e+00	0	44	104	1059061760	70	21691
2026-01-27 01:22:31.64	246.38	5.72	-49.5	-65.0	3.8	1.49e+00	0	44	104	1059061760	70	21640
2026-01-27 01:22:32.64	246.30	5.65	-49.5	-65.1	3.8	1.49e+00	0	44	104	1059061760	70	21775
2026-01-27 01:22:33.63	246.23	5.59	-49.5	-65.0	3.8	1.49e+00	0	44	104	1059061760	70	21685
2026-01-27 01:22:34.62	246.15	5.53	-49.5	-65.0	3.8	1.49e+00	0	44	104	1059061760	70	21660
2026-01-27 01:22:35.62	246.08	5.46	-49.5	-65.0	3.8	1.49e+00	0	44	104	1059061760	70	21625
2026-01-27 01:22:36.61	246.00	5.40	-49.5	-65.0	3.8	1.49e+00	0	44	104	1059061760	70	21693
2026-01-27 01:22:37.60	245.93	5.34	-49.4	-65.0	3.8	1.49e+00	0	44	104	1059061760	70	21646
2026-01-27 01:22:38.60	245.85	5.27	-49.5	-65.0	3.8	1.49e+00	0	44	104	1059061760	70	21582
2026-01-27 01:22:39.59	245.78	5.21	-49.5	-65.0	3.8	1.49e+00	0	44	104	1059061760	70	21662
2026-01-27 01:22:40.58	245.71	5.15	-49.5	-65.0	3.8	1.49e+00	0	44	104	1059061760	70	21647
2026-01-27 01:22:41.58	245.63	5.09	-49.5	-65.0	3.8	1.49e+00	0	44	104	1059061760	70	21618
2026-01-27 01:22:42.57	245.56	5.02	-49.5	-65.0	3.8	1.49e+00	0	44	104	1059061760	70	21676
2026-01-27 01:22:43.56	245.49	4.96	-49.5	-65.0	3.8	1.49e+00	0	44	104	1059061760	70	21702

#Closed at: 2026-01-27 01:22:44
#Recorded file [1059 MB]: D:/Data/31040_260127_041126.dat