passes_logs/2026/01/27/T1/T1__20260127_101124_NOAA_21_JPSS-2_rec.log

#Pass ID: 20260127_101124_NOAA 21 (JPSS-2)
#Satellite: NOAA 21 (JPSS-2)
#Configuration: NOAA 21
#almurnet v.1.7.20251203
#Start time: 2026-01-27 10:11:25

#Version: 2.0.20230620
#Station: T1
#Location: 37.570604 lon 55.790049 lat
#TLE: 1 54234U 22150A   26026.78373243  .00000177  00000+0  10458-3 0  9996
#TLE: 2 54234  98.7509 327.5416 0000822 208.1870 151.9262 14.19539807166482

#Time	Az	El	Level	Level2	SNR	BER	BlckErr	Temp	State	Recorded	gain1	gain2
2026-01-27 10:11:25.36	168.50	5.10	-50.3	-63.4	3.8	1.49e+00	0	41	0	0	71	17049
2026-01-27 10:11:26.35	168.51	5.17	-50.4	-63.4	3.8	1.49e+00	0	41	104	0	72	15968
2026-01-27 10:11:27.34	168.53	5.24	-50.2	-63.4	3.8	1.49e+00	0	41	104	0	72	15968
2026-01-27 10:11:28.33	168.54	5.31	-50.2	-63.4	3.8	1.49e+00	0	41	104	0	72	15981
2026-01-27 10:11:29.32	168.56	5.39	-50.3	-63.4	3.8	1.49e+00	0	41	104	0	71	16965
2026-01-27 10:11:30.32	168.58	5.46	-50.4	-63.4	3.8	1.49e+00	0	41	104	0	71	16979
2026-01-27 10:11:31.31	168.59	5.53	-50.4	-63.4	3.8	1.49e+00	0	41	104	0	71	16998
2026-01-27 10:11:32.30	168.61	5.60	-50.4	-63.4	3.8	1.49e+00	0	41	104	0	71	17051
2026-01-27 10:11:33.29	168.63	5.67	-50.3	-63.4	3.8	1.49e+00	0	41	104	0	71	16931
2026-01-27 10:11:34.29	168.64	5.75	-50.2	-63.4	3.8	1.49e+00	0	41	104	0	71	16965
2026-01-27 10:11:35.28	168.66	5.82	-50.3	-63.3	3.8	1.49e+00	0	41	104	0	71	16860
2026-01-27 10:11:36.27	168.67	5.89	-50.3	-63.3	3.8	1.49e+00	0	41	104	0	71	16882
2026-01-27 10:11:37.27	168.69	5.97	-50.2	-63.3	3.8	1.49e+00	0	41	104	0	71	16866
2026-01-27 10:11:38.26	168.71	6.04	-50.2	-63.3	3.8	1.49e+00	0	41	104	0	71	16885
2026-01-27 10:11:39.25	168.73	6.12	-49.9	-63.3	3.8	1.49e+00	0	41	104	0	71	16732
2026-01-27 10:11:40.25	168.74	6.19	-50.1	-63.3	3.8	1.49e+00	0	41	104	0	71	16815
2026-01-27 10:11:41.24	168.76	6.26	-50.1	-63.2	3.8	1.49e+00	0	41	104	0	71	16675
2026-01-27 10:11:42.23	168.78	6.34	-50.1	-63.2	3.8	1.49e+00	0	41	104	0	71	16575
2026-01-27 10:11:43.23	168.79	6.41	-50.1	-63.2	3.8	1.49e+00	0	41	104	0	71	16508
2026-01-27 10:11:44.22	168.81	6.49	-50.0	-63.1	3.8	1.49e+00	0	41	104	0	71	16449
2026-01-27 10:11:45.21	168.83	6.56	-49.9	-63.1	3.8	1.49e+00	0	41	104	0	71	16420
2026-01-27 10:11:46.20	168.85	6.64	-49.7	-62.9	3.8	1.49e+00	0	41	104	0	71	16087
2026-01-27 10:11:47.20	168.86	6.71	-48.8	-62.7	3.8	1.49e+00	0	41	104	0	69	17599
2026-01-27 10:11:48.19	168.88	6.79	-47.6	-62.4	3.8	1.49e+00	0	41	104	0	67	19099
2026-01-27 10:11:49.18	168.90	6.87	-46.7	-62.1	3.8	1.49e+00	0	41	104	0	65	20665
2026-01-27 10:11:50.18	168.92	6.94	-46.6	-62.0	3.8	1.49e+00	0	42	104	0	65	20480
2026-01-27 10:11:51.17	168.93	7.02	-46.6	-61.8	3.8	1.49e+00	0	41	104	0	65	19910
2026-01-27 10:11:52.16	168.95	7.09	-46.6	-61.4	3.8	1.49e+00	0	41	104	0	65	19113
2026-01-27 10:11:53.15	168.97	7.17	-46.6	-60.9	3.8	1.49e+00	0	41	104	0	65	17905
2026-01-27 10:11:54.15	168.99	7.25	-46.5	-60.0	3.9	1.48e+00	0	41	104	0	65	16150
2026-01-27 10:11:55.14	169.01	7.33	-46.5	-59.3	3.9	1.47e+00	0	41	104	0	64	15783
2026-01-27 10:11:56.13	169.02	7.40	-46.4	-58.1	4.0	1.22e+00	0	41	104	0	64	13884
2026-01-27 10:11:57.13	169.04	7.48	-46.2	-56.4	5.3	5.96e-01	0	41	0	0	64	11311
2026-01-27 10:11:58.12	169.06	7.56	-46.0	-54.9	6.4	2.93e-01	0	41	0	0	64	9567
2026-01-27 10:11:59.11	169.08	7.64	-45.8	-53.8	7.4	1.44e-01	0	42	0	0	63	8873
2026-01-27 10:12:00.11	169.10	7.72	-45.6	-52.7	8.5	6.49e-02	0	42	0	0	63	7847
2026-01-27 10:12:01.10	169.12	7.80	-45.4	-51.9	9.4	1.82e-02	0	41	0	0	62	7580
2026-01-27 10:12:02.09	169.13	7.87	-45.1	-51.1	10.2	1.95e-02	0	42	0	0	62	6889
2026-01-27 10:12:03.08	169.15	7.95	-44.9	-50.5	10.8	2.89e-03	0	41	0	0	61	6814
2026-01-27 10:12:04.08	169.17	8.03	-44.7	-49.9	11.4	1.22e-03	0	42	0	0	61	6412
2026-01-27 10:12:05.07	169.19	8.11	-44.5	-49.6	11.7	1.04e-02	0	42	0	0	61	6176
2026-01-27 10:12:06.06	169.21	8.19	-44.4	-49.5	11.9	3.17e-04	0	42	0	0	60	6445
2026-01-27 10:12:07.06	169.23	8.27	-44.5	-49.7	11.6	6.87e-04	0	42	0	0	60	6596
2026-01-27 10:12:08.05	169.25	8.35	-44.5	-49.7	11.6	5.97e-04	0	42	0	0	60	6624
2026-01-27 10:12:09.04	169.27	8.44	-44.8	-50.3	11.0	1.33e-03	0	42	0	0	60	7115
2026-01-27 10:12:10.03	169.29	8.52	-45.0	-50.9	10.4	3.28e-03	0	42	0	0	60	7607
2026-01-27 10:12:11.03	169.31	8.60	-45.3	-51.7	9.5	1.14e-02	0	42	0	0	61	7897
2026-01-27 10:12:12.02	169.33	8.68	-45.6	-53.0	8.2	4.03e-02	0	42	0	0	61	9099
2026-01-27 10:12:13.01	169.35	8.76	-45.9	-54.1	7.1	1.19e-01	0	42	0	0	62	9794
2026-01-27 10:12:14.01	169.37	8.84	-46.1	-55.5	5.9	2.57e-01	0	42	0	0	62	11515
2026-01-27 10:12:15.00	169.39	8.93	-46.3	-57.2	4.9	6.46e-01	0	42	0	0	63	13257
2026-01-27 10:12:15.99	169.41	9.01	-46.5	-58.7	4.3	1.44e+00	0	42	104	0	63	15744
2026-01-27 10:12:16.99	169.43	9.09	-45.2	-49.9	11.5	2.33e-03	0	42	0	0	62	6044
2026-01-27 10:12:17.98	169.45	9.17	-45.6	-50.6	10.7	9.02e-04	0	42	0	0	62	6542
2026-01-27 10:12:18.98	169.47	9.26	-46.4	-62.0	3.8	1.49e+00	0	42	104	0	64	21648
2026-01-27 10:12:19.97	169.49	9.34	-46.4	-62.2	3.8	1.49e+00	0	42	104	0	64	22243
2026-01-27 10:12:20.97	169.51	9.43	-47.0	-62.3	3.8	1.49e+00	0	42	104	0	64	22444
2026-01-27 10:12:21.96	169.53	9.51	-46.7	-61.9	3.8	1.49e+00	0	42	104	0	64	21367
2026-01-27 10:12:22.96	169.55	9.60	-46.7	-62.0	3.8	1.49e+00	0	42	104	0	64	21684
2026-01-27 10:12:23.95	169.57	9.68	-46.8	-62.0	3.8	1.49e+00	0	42	104	0	64	21652
2026-01-27 10:12:24.95	169.59	9.77	-47.1	-62.1	3.8	1.49e+00	0	42	104	0	65	20572
2026-01-27 10:12:25.94	169.61	9.85	-47.5	-61.2	3.8	1.49e+00	0	42	104	0	65	18672
2026-01-27 10:12:26.94	169.63	9.94	-47.4	-62.0	3.8	1.49e+00	0	42	104	0	65	20480
2026-01-27 10:12:27.93	169.65	10.02	-45.4	-50.3	11.0	1.30e+00	0	42	0	0	62	6293
2026-01-27 10:12:28.93	169.68	10.11	-46.6	-54.5	6.9	5.82e-02	0	42	0	0	64	9076
2026-01-27 10:12:29.92	169.70	10.20	-43.5	-46.6	14.8	2.97e-05	0	42	0	0	59	4887
2026-01-27 10:12:30.92	169.72	10.29	-43.3	-46.4	15.1	0.00e+00	0	42	0	0	58	5051
2026-01-27 10:12:31.91	169.74	10.37	-42.8	-45.6	15.8	0.00e+00	0	42	0	0	57	4922
2026-01-27 10:12:32.91	169.76	10.46	-42.3	-44.9	16.5	0.00e+00	0	42	0	0	56	4780
2026-01-27 10:12:33.90	169.78	10.55	-42.2	-44.8	16.6	7.00e-07	0	42	0	0	56	4753
2026-01-27 10:12:34.90	169.81	10.64	-42.0	-44.6	16.9	0.00e+00	0	42	0	0	56	4605
2026-01-27 10:12:35.89	169.83	10.73	-41.6	-44.1	17.1	0.00e+00	0	42	0	0	54	4896
2026-01-27 10:12:36.89	169.85	10.82	-41.4	-43.8	17.4	0.00e+00	0	42	0	0	54	4745
2026-01-27 10:12:37.88	169.87	10.90	-41.2	-43.6	17.7	0.00e+00	0	42	0	0	54	4601
2026-01-27 10:12:38.88	169.90	10.99	-40.8	-43.0	18.2	0.00e+00	0	42	0	0	53	4576
2026-01-27 10:12:39.87	169.92	11.08	-41.0	-43.2	18.1	0.00e+00	0	42	0	0	53	4668
2026-01-27 10:12:40.87	169.94	11.17	-41.0	-43.2	18.0	0.00e+00	0	42	0	0	53	4680
2026-01-27 10:12:41.86	169.96	11.26	-40.9	-43.1	18.2	0.00e+00	0	42	0	0	53	4626
2026-01-27 10:12:42.86	169.99	11.36	-41.1	-43.3	18.0	0.00e+00	0	42	0	0	53	4717
2026-01-27 10:12:43.86	170.01	11.45	-40.9	-43.0	18.3	0.00e+00	0	42	0	0	53	4569
2026-01-27 10:12:44.85	170.03	11.54	-40.9	-42.9	18.3	0.00e+00	0	42	0	0	53	4543
2026-01-27 10:12:45.85	170.06	11.63	-40.8	-42.9	18.4	0.00e+00	0	42	0	0	53	4498
2026-01-27 10:12:46.84	170.08	11.72	-40.8	-42.8	18.4	0.00e+00	0	42	0	0	53	4455
2026-01-27 10:12:47.84	170.10	11.82	-41.0	-43.0	18.3	0.00e+00	0	42	0	0	53	4563
2026-01-27 10:12:48.83	170.13	11.91	-41.0	-43.0	18.2	0.00e+00	0	42	0	0	53	4585
2026-01-27 10:12:49.82	170.15	12.00	-40.9	-42.9	18.3	0.00e+00	0	42	0	0	53	4528
2026-01-27 10:12:50.82	170.18	12.10	-40.7	-42.7	18.5	0.00e+00	0	42	0	0	53	4410
2026-01-27 10:12:51.81	170.20	12.19	-40.8	-42.7	18.5	0.00e+00	0	42	0	0	53	4425
2026-01-27 10:12:52.81	170.22	12.29	-40.8	-42.8	18.5	0.00e+00	0	42	0	0	53	4444
2026-01-27 10:12:53.80	170.25	12.38	-40.8	-42.7	18.5	0.00e+00	0	42	0	0	53	4437
2026-01-27 10:12:54.80	170.27	12.48	-40.8	-42.7	18.5	0.00e+00	0	42	0	0	53	4421
2026-01-27 10:12:55.79	170.30	12.57	-40.9	-42.8	18.4	0.00e+00	0	42	0	0	53	4474
2026-01-27 10:12:56.79	170.32	12.67	-40.8	-42.6	18.6	0.00e+00	0	42	0	0	53	4387
2026-01-27 10:12:57.78	170.35	12.76	-40.7	-42.6	18.7	0.00e+00	0	42	0	0	53	4344
2026-01-27 10:12:58.78	170.37	12.86	-40.8	-42.7	18.6	0.00e+00	0	42	0	0	53	4399
2026-01-27 10:12:59.77	170.40	12.96	-40.7	-42.6	18.6	0.00e+00	0	42	0	0	53	4373
2026-01-27 10:13:00.77	170.42	13.05	-40.7	-42.5	18.7	0.00e+00	0	42	0	0	53	4330
2026-01-27 10:13:01.76	170.45	13.15	-40.7	-42.6	18.7	0.00e+00	0	42	0	0	53	4361
2026-01-27 10:13:02.76	170.47	13.25	-40.8	-42.7	18.6	0.00e+00	0	42	0	0	53	4410
2026-01-27 10:13:03.76	170.50	13.35	-40.6	-42.4	18.8	0.00e+00	0	42	0	0	53	4278
2026-01-27 10:13:04.75	170.53	13.45	-40.5	-42.4	18.8	0.00e+00	0	42	0	0	53	4261
2026-01-27 10:13:05.75	170.55	13.55	-40.5	-42.4	18.9	0.00e+00	0	42	0	0	53	4262
2026-01-27 10:13:06.74	170.58	13.65	-40.6	-42.5	18.8	0.00e+00	0	42	0	0	53	4296
2026-01-27 10:13:07.74	170.61	13.75	-40.6	-42.5	18.8	0.00e+00	0	42	0	0	53	4292
2026-01-27 10:13:08.73	170.63	13.85	-40.5	-42.4	18.9	0.00e+00	0	42	0	0	52	4507
2026-01-27 10:13:09.73	170.66	13.95	-40.3	-42.3	18.9	0.00e+00	0	42	0	0	52	4445
2026-01-27 10:13:10.72	170.69	14.05	-40.4	-42.3	18.9	0.00e+00	0	42	0	0	52	4464
2026-01-27 10:13:11.72	170.71	14.15	-40.4	-42.3	19.0	0.00e+00	0	42	0	0	52	4447
2026-01-27 10:13:12.71	170.74	14.26	-40.4	-42.3	19.0	0.00e+00	0	42	0	0	52	4458
2026-01-27 10:13:13.71	170.77	14.36	-40.4	-42.3	18.9	0.00e+00	0	42	0	0	52	4468
2026-01-27 10:13:14.70	170.80	14.46	-40.3	-42.2	19.0	0.00e+00	0	42	0	0	52	4418
2026-01-27 10:13:15.70	170.82	14.57	-40.3	-42.2	19.1	0.00e+00	0	42	0	0	52	4406
2026-01-27 10:13:16.69	170.85	14.67	-40.4	-42.2	19.0	0.00e+00	0	42	0	0	52	4423
2026-01-27 10:13:17.69	170.88	14.78	-40.4	-42.2	19.0	0.00e+00	0	42	0	0	52	4422
2026-01-27 10:13:18.68	170.91	14.88	-40.4	-42.2	19.0	0.00e+00	0	42	0	0	52	4423
2026-01-27 10:13:19.68	170.94	14.99	-40.4	-42.2	19.0	0.00e+00	0	42	0	0	52	4426
2026-01-27 10:13:20.68	170.97	15.09	-40.3	-42.2	19.1	0.00e+00	0	42	0	0	52	4402
2026-01-27 10:13:21.67	171.00	15.20	-40.4	-42.2	19.1	0.00e+00	0	42	0	0	52	4425
2026-01-27 10:13:22.67	171.03	15.31	-40.4	-42.3	19.0	0.00e+00	0	42	0	0	52	4469
2026-01-27 10:13:23.67	171.05	15.41	-40.4	-42.2	19.1	0.00e+00	0	42	0	0	52	4416
2026-01-27 10:13:24.66	171.08	15.52	-40.4	-42.3	19.0	0.00e+00	0	42	0	0	52	4468
2026-01-27 10:13:25.65	171.11	15.63	-40.5	-42.4	18.9	0.00e+00	0	42	0	0	52	4500
2026-01-27 10:13:26.65	171.14	15.74	-40.4	-42.3	19.0	0.00e+00	0	42	0	0	52	4466
2026-01-27 10:13:27.64	171.17	15.85	-40.5	-42.3	19.0	0.00e+00	0	42	0	0	52	4490
2026-01-27 10:13:28.64	171.20	15.96	-40.4	-42.3	19.0	0.00e+00	0	42	0	0	52	4466
2026-01-27 10:13:29.63	171.23	16.07	-40.6	-42.4	18.9	0.00e+00	0	42	0	0	52	4528
2026-01-27 10:13:30.63	171.27	16.18	-40.6	-42.4	18.9	0.00e+00	0	42	0	0	52	4536
2026-01-27 10:13:31.62	171.30	16.29	-40.6	-42.4	18.9	0.00e+00	0	42	0	0	52	4542
2026-01-27 10:13:32.61	171.33	16.40	-40.6	-42.5	18.8	0.00e+00	0	42	0	0	52	4583
2026-01-27 10:13:33.61	171.36	16.51	-40.6	-42.5	18.9	0.00e+00	0	42	0	0	52	4551
2026-01-27 10:13:34.61	171.39	16.63	-40.7	-42.5	18.8	0.00e+00	0	42	0	0	52	4586
2026-01-27 10:13:35.60	171.42	16.74	-40.8	-42.7	18.7	0.00e+00	0	42	0	0	52	4657
2026-01-27 10:13:36.60	171.45	16.85	-40.8	-42.7	18.7	0.00e+00	0	42	0	0	52	4668
2026-01-27 10:13:37.59	171.49	16.97	-40.8	-42.6	18.7	0.00e+00	0	42	0	0	52	4651
2026-01-27 10:13:38.59	171.52	17.08	-40.8	-42.7	18.7	0.00e+00	0	42	0	0	52	4662
2026-01-27 10:13:39.58	171.55	17.20	-40.8	-42.6	18.7	0.00e+00	0	42	0	0	52	4650
2026-01-27 10:13:40.58	171.58	17.31	-40.8	-42.7	18.7	0.00e+00	0	42	0	0	52	4676
2026-01-27 10:13:41.57	171.62	17.43	-40.9	-42.8	18.6	0.00e+00	0	42	0	0	52	4736
2026-01-27 10:13:42.57	171.65	17.55	-40.9	-42.8	18.6	0.00e+00	0	42	0	0	52	4730
2026-01-27 10:13:43.56	171.68	17.66	-40.8	-42.6	18.7	0.00e+00	0	42	0	0	52	4634
2026-01-27 10:13:44.56	171.72	17.78	-40.8	-42.6	18.7	0.00e+00	0	42	0	0	52	4639
2026-01-27 10:13:45.56	171.75	17.90	-40.9	-42.7	18.7	0.00e+00	0	42	0	0	52	4697
2026-01-27 10:13:46.55	171.79	18.02	-40.9	-42.8	18.6	0.00e+00	0	42	0	0	52	4706
2026-01-27 10:13:47.55	171.82	18.14	-40.8	-42.7	18.7	0.00e+00	0	42	0	0	52	4653
2026-01-27 10:13:48.54	171.86	18.26	-40.8	-42.6	18.7	0.00e+00	0	42	0	0	52	4645
2026-01-27 10:13:49.54	171.89	18.38	-40.8	-42.7	18.6	0.00e+00	0	42	0	0	52	4681
2026-01-27 10:13:50.53	171.93	18.50	-40.9	-42.8	18.6	0.00e+00	0	42	0	0	52	4727
2026-01-27 10:13:51.53	171.96	18.62	-40.7	-42.5	18.8	0.00e+00	0	42	0	0	52	4587
2026-01-27 10:13:52.52	172.00	18.75	-40.7	-42.5	18.8	0.00e+00	0	42	0	0	52	4569
2026-01-27 10:13:53.52	172.03	18.87	-40.7	-42.5	18.8	0.00e+00	0	42	0	0	52	4583
2026-01-27 10:13:54.51	172.07	18.99	-40.7	-42.5	18.9	0.00e+00	0	42	0	0	52	4564
2026-01-27 10:13:55.51	172.11	19.12	-40.6	-42.4	18.9	0.00e+00	0	42	0	0	52	4544
2026-01-27 10:13:56.50	172.14	19.24	-40.7	-42.5	18.9	0.00e+00	0	42	0	0	52	4569
2026-01-27 10:13:57.50	172.18	19.37	-40.5	-42.3	19.0	0.00e+00	0	42	0	0	52	4468
2026-01-27 10:13:58.49	172.22	19.50	-40.6	-42.4	18.9	0.00e+00	0	42	0	0	52	4528
2026-01-27 10:13:59.48	172.26	19.62	-40.6	-42.4	18.9	0.00e+00	0	42	0	0	52	4513
2026-01-27 10:14:00.48	172.29	19.75	-40.4	-42.2	19.1	0.00e+00	0	42	0	0	52	4441
2026-01-27 10:14:01.48	172.33	19.88	-40.3	-42.1	19.2	0.00e+00	0	42	0	0	52	4350
2026-01-27 10:14:02.47	172.37	20.01	-40.3	-42.0	19.3	0.00e+00	0	42	0	0	52	4340
2026-01-27 10:14:03.46	172.41	20.14	-40.1	-41.9	19.4	0.00e+00	0	42	0	0	52	4252
2026-01-27 10:14:04.46	172.45	20.27	-40.2	-42.0	19.3	0.00e+00	0	42	0	0	52	4322
2026-01-27 10:14:05.45	172.49	20.40	-40.1	-41.9	19.4	0.00e+00	0	42	0	0	52	4265
2026-01-27 10:14:06.45	172.53	20.53	-40.1	-41.8	19.5	0.00e+00	0	42	0	0	52	4233
2026-01-27 10:14:07.44	172.57	20.66	-40.0	-41.8	19.5	0.00e+00	0	42	0	0	52	4225
2026-01-27 10:14:08.44	172.61	20.80	-39.9	-41.7	19.7	0.00e+00	0	42	0	0	51	4400
2026-01-27 10:14:09.43	172.65	20.93	-39.9	-41.6	19.8	0.00e+00	0	42	0	0	51	4375
2026-01-27 10:14:10.43	172.69	21.06	-39.8	-41.5	19.9	0.00e+00	0	42	0	0	51	4330
2026-01-27 10:14:11.42	172.73	21.20	-39.7	-41.4	20.0	0.00e+00	0	42	0	0	51	4258
2026-01-27 10:14:12.41	172.77	21.33	-39.7	-41.5	19.9	0.00e+00	0	42	0	0	51	4295
2026-01-27 10:14:13.41	172.82	21.47	-39.7	-41.4	20.0	0.00e+00	0	42	0	0	51	4264
2026-01-27 10:14:14.40	172.86	21.61	-39.6	-41.4	20.0	0.00e+00	0	42	0	0	51	4243
2026-01-27 10:14:15.40	172.90	21.75	-39.7	-41.4	20.0	0.00e+00	0	42	0	0	51	4254
2026-01-27 10:14:16.39	172.94	21.88	-39.6	-41.3	20.1	0.00e+00	0	42	0	0	51	4196
2026-01-27 10:14:17.39	172.99	22.02	-39.5	-41.2	20.2	0.00e+00	0	42	0	0	51	4158
2026-01-27 10:14:18.39	173.03	22.17	-39.5	-41.2	20.2	0.00e+00	0	42	0	0	51	4171
2026-01-27 10:14:19.38	173.08	22.31	-39.4	-41.1	20.3	0.00e+00	0	42	0	0	50	4376
2026-01-27 10:14:20.37	173.12	22.45	-39.5	-41.2	20.2	0.00e+00	0	42	0	0	50	4407
2026-01-27 10:14:21.37	173.17	22.59	-39.5	-41.1	20.2	0.00e+00	0	42	0	0	50	4390
2026-01-27 10:14:22.36	173.21	22.73	-39.4	-41.1	20.3	0.00e+00	0	42	0	0	50	4354
2026-01-27 10:14:23.36	173.26	22.88	-39.4	-41.0	20.3	0.00e+00	0	42	0	0	50	4332
2026-01-27 10:14:24.35	173.30	23.02	-39.4	-41.1	20.3	0.00e+00	0	42	0	0	50	4350
2026-01-27 10:14:25.35	173.35	23.17	-39.4	-41.0	20.3	0.00e+00	0	42	0	0	50	4336
2026-01-27 10:14:26.34	173.40	23.31	-39.4	-41.0	20.3	0.00e+00	0	42	0	0	50	4323
2026-01-27 10:14:27.34	173.45	23.46	-39.3	-40.9	20.4	0.00e+00	0	42	0	0	50	4271
2026-01-27 10:14:28.33	173.49	23.61	-39.4	-41.0	20.3	0.00e+00	0	42	0	0	50	4332
2026-01-27 10:14:29.32	173.54	23.76	-39.4	-41.1	20.2	0.00e+00	0	42	0	0	50	4378
2026-01-27 10:14:30.32	173.59	23.91	-39.3	-40.9	20.4	0.00e+00	0	42	0	0	50	4276
2026-01-27 10:14:31.31	173.64	24.06	-39.2	-40.8	20.5	0.00e+00	0	42	0	0	50	4226
2026-01-27 10:14:32.31	173.69	24.21	-39.3	-41.0	20.4	0.00e+00	0	42	0	0	50	4302
2026-01-27 10:14:33.30	173.74	24.36	-39.2	-40.8	20.5	0.00e+00	0	42	0	0	50	4216
2026-01-27 10:14:34.30	173.79	24.52	-39.2	-40.8	20.5	0.00e+00	0	42	0	0	50	4235
2026-01-27 10:14:35.29	173.84	24.67	-39.1	-40.8	20.6	0.00e+00	0	42	0	0	50	4209
2026-01-27 10:14:36.28	173.89	24.82	-39.2	-40.8	20.5	0.00e+00	0	42	0	0	50	4239
2026-01-27 10:14:37.28	173.94	24.98	-39.3	-41.0	20.4	0.00e+00	0	42	0	0	50	4306
2026-01-27 10:14:38.27	174.00	25.14	-39.4	-41.0	20.4	0.00e+00	0	42	0	0	50	4323
2026-01-27 10:14:39.27	174.05	25.30	-39.6	-41.2	20.2	0.00e+00	0	42	0	0	50	4434
2026-01-27 10:14:40.26	174.10	25.45	-39.7	-41.3	20.1	0.00e+00	0	42	0	0	50	4492
2026-01-27 10:14:41.26	174.16	25.61	-39.7	-41.4	20.1	0.00e+00	0	42	0	0	50	4501
2026-01-27 10:14:42.25	174.21	25.77	-39.8	-41.5	20.0	0.00e+00	0	42	0	0	50	4562
2026-01-27 10:14:43.25	174.27	25.94	-39.7	-41.4	20.1	0.00e+00	0	42	0	0	50	4500
2026-01-27 10:14:44.24	174.32	26.10	-39.9	-41.6	19.9	0.00e+00	0	42	0	0	50	4625
2026-01-27 10:14:45.24	174.38	26.26	-40.0	-41.7	19.8	0.00e+00	0	42	0	0	50	4685
2026-01-27 10:14:46.23	174.43	26.43	-40.1	-41.9	19.7	0.00e+00	0	42	0	0	50	4761
2026-01-27 10:14:47.23	174.49	26.59	-40.2	-41.9	19.6	0.00e+00	0	42	0	0	50	4783
2026-01-27 10:14:48.22	174.55	26.76	-40.2	-42.0	19.5	0.00e+00	0	42	0	0	51	4554
2026-01-27 10:14:49.22	174.61	26.93	-40.4	-42.1	19.4	0.00e+00	0	42	0	0	51	4629
2026-01-27 10:14:50.21	174.67	27.09	-40.5	-42.2	19.3	0.00e+00	0	42	0	0	51	4683
2026-01-27 10:14:51.20	174.72	27.26	-40.3	-42.1	19.4	0.00e+00	0	42	0	0	51	4608
2026-01-27 10:14:52.20	174.78	27.43	-40.4	-42.2	19.3	0.00e+00	0	42	0	0	51	4666
2026-01-27 10:14:53.20	174.85	27.61	-40.5	-42.3	19.2	0.00e+00	0	42	0	0	51	4727
2026-01-27 10:14:54.19	174.91	27.78	-40.6	-42.4	19.1	0.00e+00	0	42	0	0	51	4762
2026-01-27 10:14:55.19	174.97	27.95	-40.5	-42.3	19.2	0.00e+00	0	42	0	0	51	4712
2026-01-27 10:14:56.18	175.03	28.13	-40.5	-42.3	19.2	0.00e+00	0	42	0	0	51	4723
2026-01-27 10:14:57.18	175.09	28.30	-40.6	-42.4	19.2	0.00e+00	0	42	0	0	51	4773
2026-01-27 10:14:58.17	175.16	28.48	-40.5	-42.3	19.2	0.00e+00	0	42	0	0	51	4732
2026-01-27 10:14:59.17	175.22	28.66	-40.6	-42.3	19.2	0.00e+00	0	42	0	0	51	4740
2026-01-27 10:15:00.16	175.29	28.84	-40.6	-42.4	19.1	0.00e+00	0	42	0	0	51	4800
2026-01-27 10:15:01.16	175.35	29.02	-40.6	-42.4	19.1	0.00e+00	0	42	0	0	52	4511
2026-01-27 10:15:02.15	175.42	29.20	-40.6	-42.4	19.1	0.00e+00	0	42	0	0	52	4520
2026-01-27 10:15:03.15	175.49	29.38	-40.6	-42.4	19.1	0.00e+00	0	42	0	0	52	4495
2026-01-27 10:15:04.14	175.56	29.56	-40.6	-42.4	19.1	0.00e+00	0	42	0	0	52	4540
2026-01-27 10:15:05.14	175.62	29.75	-40.5	-42.3	19.2	0.00e+00	0	42	0	0	52	4463
2026-01-27 10:15:06.13	175.69	29.93	-40.4	-42.1	19.3	0.00e+00	0	42	0	0	52	4390
2026-01-27 10:15:07.13	175.76	30.12	-40.3	-42.1	19.4	0.00e+00	0	42	0	0	52	4346
2026-01-27 10:15:08.12	175.83	30.31	-40.3	-42.0	19.4	0.00e+00	0	42	0	0	52	4338
2026-01-27 10:15:09.12	175.91	30.50	-40.3	-42.0	19.4	0.00e+00	0	42	0	0	52	4320
2026-01-27 10:15:10.11	175.98	30.69	-40.2	-42.0	19.5	0.00e+00	0	42	0	0	52	4293
2026-01-27 10:15:11.11	176.05	30.88	-40.1	-41.8	19.6	0.00e+00	0	42	0	0	52	4239
2026-01-27 10:15:12.10	176.13	31.07	-40.1	-41.8	19.8	0.00e+00	0	42	0	0	51	4443
2026-01-27 10:15:13.10	176.20	31.27	-39.9	-41.6	19.9	0.00e+00	0	42	0	0	51	4379
2026-01-27 10:15:14.09	176.28	31.46	-39.9	-41.6	19.9	0.00e+00	0	42	0	0	51	4364
2026-01-27 10:15:15.09	176.36	31.66	-39.9	-41.6	19.9	0.00e+00	0	42	0	0	51	4361
2026-01-27 10:15:16.08	176.43	31.86	-39.9	-41.6	19.9	0.00e+00	0	42	0	0	51	4360
2026-01-27 10:15:17.08	176.51	32.06	-39.9	-41.6	19.9	0.00e+00	0	42	0	0	51	4361
2026-01-27 10:15:18.07	176.59	32.26	-40.0	-41.7	19.8	0.00e+00	0	42	0	0	51	4405
2026-01-27 10:15:19.07	176.67	32.46	-40.1	-41.8	19.7	0.00e+00	0	42	0	0	51	4458
2026-01-27 10:15:20.06	176.75	32.66	-40.1	-41.8	19.7	0.00e+00	0	42	0	0	51	4454
2026-01-27 10:15:21.06	176.84	32.87	-40.2	-41.9	19.7	0.00e+00	0	42	0	0	51	4512
2026-01-27 10:15:22.05	176.92	33.07	-40.3	-42.0	19.5	0.00e+00	0	42	0	0	51	4592
2026-01-27 10:15:23.04	177.00	33.28	-40.4	-42.1	19.5	0.00e+00	0	42	0	0	51	4650
2026-01-27 10:15:24.04	177.09	33.49	-40.6	-42.4	19.2	0.00e+00	0	42	0	0	51	4800
2026-01-27 10:15:25.04	177.18	33.70	-40.6	-42.4	19.2	0.00e+00	0	42	0	0	52	4506
2026-01-27 10:15:26.03	177.27	33.91	-40.8	-42.6	19.0	0.00e+00	0	42	0	0	52	4623
2026-01-27 10:15:27.03	177.35	34.12	-41.0	-42.8	18.8	0.00e+00	0	42	0	0	52	4720
2026-01-27 10:15:28.02	177.44	34.34	-41.1	-42.9	18.7	0.00e+00	0	42	0	0	52	4780
2026-01-27 10:15:29.02	177.54	34.55	-41.1	-43.0	18.6	0.00e+00	0	42	0	0	52	4815
2026-01-27 10:15:30.02	177.63	34.77	-41.4	-43.2	18.4	0.00e+00	0	42	0	0	53	4701
2026-01-27 10:15:31.01	177.72	34.99	-41.4	-43.2	18.4	0.00e+00	0	42	0	0	53	4694
2026-01-27 10:15:32.00	177.82	35.21	-41.6	-43.5	18.1	0.00e+00	0	42	0	0	53	4852
2026-01-27 10:15:33.00	177.91	35.43	-41.7	-43.6	18.1	0.00e+00	0	42	0	0	54	4622
2026-01-27 10:15:33.99	178.01	35.65	-41.8	-43.8	17.8	0.00e+00	0	42	0	0	54	4723
2026-01-27 10:15:34.99	178.11	35.88	-41.9	-43.9	17.8	0.00e+00	0	42	0	0	54	4761
2026-01-27 10:15:35.98	178.21	36.10	-42.1	-44.0	17.6	0.00e+00	0	42	0	0	54	4869
2026-01-27 10:15:36.98	178.31	36.33	-42.2	-44.2	17.5	0.00e+00	0	42	0	0	54	4949
2026-01-27 10:15:37.97	178.41	36.56	-42.5	-44.6	17.1	0.00e+00	0	42	0	0	55	4893
2026-01-27 10:15:38.97	178.52	36.79	-43.0	-45.1	16.8	0.00e+00	0	42	0	0	56	4907
2026-01-27 10:15:39.96	178.62	37.02	-43.3	-45.5	16.4	0.00e+00	0	42	0	0	57	4856
2026-01-27 10:15:40.96	178.73	37.25	-43.3	-45.5	16.4	0.00e+00	0	42	0	0	57	4832
2026-01-27 10:15:41.95	178.84	37.49	-43.3	-45.6	16.3	0.00e+00	0	42	0	0	57	4891
2026-01-27 10:15:42.95	178.95	37.73	-43.2	-45.5	16.5	0.00e+00	0	42	0	0	57	4816
2026-01-27 10:15:43.94	179.06	37.96	-43.1	-45.2	16.6	0.00e+00	0	42	0	0	57	4698
2026-01-27 10:15:44.94	179.17	38.20	-42.9	-45.1	16.8	0.00e+00	0	42	0	0	57	4615
2026-01-27 10:15:45.93	179.29	38.44	-42.9	-45.1	16.8	0.00e+00	0	42	0	0	57	4607
2026-01-27 10:15:46.93	179.40	38.69	-42.8	-45.0	16.9	0.00e+00	0	42	0	0	57	4550
2026-01-27 10:15:47.92	179.52	38.93	-42.8	-44.9	16.9	0.00e+00	0	42	0	0	57	4544
2026-01-27 10:15:48.91	179.64	39.17	-42.7	-44.9	17.0	0.00e+00	0	42	0	0	57	4502
2026-01-27 10:15:49.91	179.76	39.42	-42.7	-44.9	17.1	0.00e+00	0	42	0	0	57	4509
2026-01-27 10:15:50.90	179.88	39.67	-42.8	-45.0	17.0	0.00e+00	0	42	0	0	57	4552
2026-01-27 10:15:51.89	180.01	39.92	-42.9	-45.0	16.9	0.00e+00	0	42	0	0	57	4591
2026-01-27 10:15:52.89	180.14	40.17	-42.8	-44.9	17.0	0.00e+00	0	42	0	0	57	4520
2026-01-27 10:15:53.88	180.26	40.43	-42.7	-44.8	17.1	0.00e+00	0	42	0	0	57	4444
2026-01-27 10:15:54.88	180.40	40.68	-42.5	-44.5	17.3	0.00e+00	0	42	0	0	57	4336
2026-01-27 10:15:55.87	180.53	40.94	-42.7	-44.7	17.1	0.00e+00	0	42	0	0	57	4430
2026-01-27 10:15:56.87	180.66	41.20	-42.7	-44.7	17.1	0.00e+00	0	42	0	0	57	4414
2026-01-27 10:15:57.86	180.80	41.46	-42.7	-44.7	17.1	0.00e+00	0	42	0	0	57	4419
2026-01-27 10:15:58.86	180.94	41.72	-42.8	-44.8	17.0	0.00e+00	0	42	0	0	57	4479
2026-01-27 10:15:59.85	181.08	41.99	-42.8	-44.9	16.9	0.00e+00	0	42	0	0	57	4525
2026-01-27 10:16:00.85	181.23	42.25	-42.9	-45.0	16.9	0.00e+00	0	42	0	0	57	4548
2026-01-27 10:16:01.85	181.37	42.52	-42.7	-44.7	17.1	0.00e+00	0	42	0	0	57	4440
2026-01-27 10:16:02.84	181.52	42.79	-42.5	-44.5	17.3	0.00e+00	0	42	0	0	57	4338
2026-01-27 10:16:03.83	181.67	43.06	-42.6	-44.7	17.2	0.00e+00	0	42	0	0	57	4396
2026-01-27 10:16:04.82	181.83	43.33	-42.4	-44.3	17.5	0.00e+00	0	42	0	0	56	4490
2026-01-27 10:16:05.82	181.98	43.61	-42.3	-44.2	17.6	0.00e+00	0	42	0	0	56	4432
2026-01-27 10:16:06.81	182.14	43.88	-42.4	-44.4	17.5	0.00e+00	0	42	0	0	56	4510
2026-01-27 10:16:07.81	182.30	44.16	-42.5	-44.5	17.5	0.00e+00	0	42	0	0	56	4586
2026-01-27 10:16:08.80	182.47	44.44	-42.6	-44.7	17.2	0.00e+00	0	42	0	0	56	4665
2026-01-27 10:16:09.80	182.63	44.72	-42.6	-44.7	17.3	0.00e+00	0	42	0	0	56	4664
2026-01-27 10:16:10.79	182.80	45.01	-42.7	-44.8	17.2	0.00e+00	0	42	0	0	56	4709
2026-01-27 10:16:11.79	182.98	45.29	-42.7	-44.7	17.2	0.00e+00	0	42	0	0	56	4682
2026-01-27 10:16:12.78	183.15	45.58	-42.6	-44.5	17.4	0.00e+00	0	42	0	0	56	4593
2026-01-27 10:16:13.78	183.33	45.87	-42.5	-44.5	17.5	0.00e+00	0	42	0	0	56	4553
2026-01-27 10:16:14.77	183.52	46.16	-42.3	-44.2	17.7	0.00e+00	0	42	0	0	56	4428
2026-01-27 10:16:15.76	183.70	46.45	-42.4	-44.4	17.6	0.00e+00	0	42	0	0	56	4512
2026-01-27 10:16:16.76	183.89	46.74	-42.3	-44.2	17.7	0.00e+00	0	42	0	0	56	4435
2026-01-27 10:16:17.76	184.09	47.04	-42.3	-44.3	17.6	0.00e+00	0	42	0	0	56	4449
2026-01-27 10:16:18.75	184.28	47.34	-42.1	-44.0	17.8	0.00e+00	0	42	0	0	56	4339
2026-01-27 10:16:19.75	184.48	47.64	-41.8	-43.7	17.9	0.00e+00	0	42	0	0	55	4438
2026-01-27 10:16:20.74	184.69	47.94	-41.8	-43.7	17.9	0.00e+00	0	42	0	0	55	4424
2026-01-27 10:16:21.73	184.89	48.24	-41.9	-43.8	17.9	0.00e+00	0	42	0	0	55	4487
2026-01-27 10:16:22.73	185.11	48.54	-42.1	-44.0	17.7	0.00e+00	0	42	0	0	55	4583
2026-01-27 10:16:23.73	185.32	48.85	-42.1	-44.1	17.6	0.00e+00	0	42	0	0	55	4609
2026-01-27 10:16:24.72	185.54	49.16	-42.2	-44.2	17.5	0.00e+00	0	42	0	0	55	4691
2026-01-27 10:16:25.72	185.77	49.47	-42.3	-44.3	17.3	0.00e+00	0	42	0	0	55	4746
2026-01-27 10:16:26.71	186.00	49.78	-42.3	-44.3	17.3	0.00e+00	0	42	0	0	55	4729
2026-01-27 10:16:27.70	186.23	50.09	-42.2	-44.3	17.3	0.00e+00	0	42	0	0	55	4707
2026-01-27 10:16:28.70	186.47	50.40	-42.5	-44.6	17.1	0.00e+00	0	42	0	0	55	4884
2026-01-27 10:16:29.69	186.71	50.72	-42.9	-45.0	17.0	0.00e+00	0	42	0	0	56	4830
2026-01-27 10:16:30.69	186.96	51.04	-42.6	-44.7	17.2	0.00e+00	0	42	0	0	56	4680
2026-01-27 10:16:31.68	187.22	51.35	-42.5	-44.5	17.4	0.00e+00	0	42	0	0	56	4593
2026-01-27 10:16:32.68	187.48	51.68	-42.4	-44.4	17.5	0.00e+00	0	42	0	0	56	4519
2026-01-27 10:16:33.68	187.74	52.00	-42.3	-44.3	17.7	0.00e+00	0	43	0	0	56	4456
2026-01-27 10:16:34.67	188.01	52.32	-42.3	-44.3	17.6	0.00e+00	0	42	0	0	56	4476
2026-01-27 10:16:35.66	188.29	52.65	-42.1	-44.1	17.8	0.00e+00	0	42	0	0	56	4365
2026-01-27 10:16:36.66	188.57	52.97	-41.7	-43.7	17.9	0.00e+00	0	43	0	0	55	4437
2026-01-27 10:16:37.65	188.86	53.30	-41.4	-43.4	18.3	0.00e+00	0	42	0	0	54	4503
2026-01-27 10:16:38.65	189.16	53.63	-41.0	-42.8	18.8	0.00e+00	0	42	0	0	54	4233
2026-01-27 10:16:39.64	189.46	53.96	-40.4	-42.2	19.4	0.00e+00	0	42	0	0	52	4412
2026-01-27 10:16:40.64	189.77	54.30	-40.0	-41.7	19.8	0.00e+00	0	42	0	0	52	4182
2026-01-27 10:16:41.63	190.09	54.63	-40.0	-41.7	19.8	0.00e+00	0	42	0	0	51	4413
2026-01-27 10:16:42.63	190.41	54.96	-39.9	-41.6	19.9	0.00e+00	0	42	0	0	51	4374
2026-01-27 10:16:43.62	190.74	55.30	-39.9	-41.5	20.0	0.00e+00	0	43	0	0	51	4336
2026-01-27 10:16:44.62	191.08	55.64	-39.8	-41.4	20.1	0.00e+00	0	42	0	0	51	4282
2026-01-27 10:16:45.61	191.43	55.97	-39.8	-41.4	20.1	0.00e+00	0	42	0	0	51	4278
2026-01-27 10:16:46.61	191.79	56.31	-39.8	-41.4	20.0	0.00e+00	0	42	0	0	51	4268
2026-01-27 10:16:47.60	192.15	56.65	-39.5	-41.1	20.2	0.00e+00	0	42	0	0	51	4114
2026-01-27 10:16:48.59	192.52	56.99	-39.5	-41.2	20.3	0.00e+00	0	42	0	0	50	4403
2026-01-27 10:16:49.59	192.91	57.34	-39.7	-41.4	20.2	0.00e+00	0	42	0	0	50	4526
2026-01-27 10:16:50.58	193.30	57.68	-39.9	-41.6	20.0	0.00e+00	0	42	0	0	50	4641
2026-01-27 10:16:51.58	193.70	58.02	-39.9	-41.6	20.0	0.00e+00	0	42	0	0	50	4609
2026-01-27 10:16:52.57	194.12	58.37	-39.6	-41.3	20.3	0.00e+00	0	42	0	0	50	4458
2026-01-27 10:16:53.57	194.54	58.71	-39.8	-41.4	20.2	0.00e+00	0	42	0	0	50	4545
2026-01-27 10:16:54.56	194.98	59.06	-39.4	-41.1	20.6	0.00e+00	0	42	0	0	50	4342
2026-01-27 10:16:55.56	195.42	59.40	-39.3	-40.9	20.7	0.00e+00	0	42	0	0	50	4271
2026-01-27 10:16:56.55	195.88	59.75	-39.2	-40.8	20.8	0.00e+00	0	42	0	0	50	4240
2026-01-27 10:16:57.55	196.35	60.10	-39.1	-40.7	20.8	0.00e+00	0	42	0	0	50	4188
2026-01-27 10:16:58.54	196.84	60.44	-38.9	-40.5	21.0	0.00e+00	0	42	0	0	49	4321
2026-01-27 10:16:59.53	197.33	60.79	-38.8	-40.4	21.1	0.00e+00	0	43	0	0	49	4247
2026-01-27 10:17:00.53	197.84	61.14	-38.8	-40.4	21.1	0.00e+00	0	43	0	0	49	4246
2026-01-27 10:17:01.53	198.37	61.48	-38.6	-40.2	21.2	0.00e+00	0	43	0	0	49	4156
2026-01-27 10:17:02.52	198.91	61.83	-38.5	-40.1	21.3	0.00e+00	0	42	0	0	48	4347
2026-01-27 10:17:03.51	199.46	62.17	-38.5	-40.0	21.4	0.00e+00	0	42	0	0	48	4326
2026-01-27 10:17:04.51	200.03	62.52	-38.3	-39.9	21.5	0.00e+00	0	42	0	0	48	4248
2026-01-27 10:17:05.50	200.62	62.86	-38.3	-39.9	21.2	0.00e+00	0	42	0	0	48	4246
2026-01-27 10:17:06.50	201.22	63.21	-38.4	-40.0	21.1	0.00e+00	0	42	0	0	48	4311
2026-01-27 10:17:07.50	201.85	63.55	-38.7	-40.3	21.0	0.00e+00	0	43	0	0	48	4474
2026-01-27 10:17:08.49	202.49	63.89	-39.0	-40.6	20.9	0.00e+00	0	43	0	0	48	4617
2026-01-27 10:17:09.49	203.15	64.23	-39.0	-40.7	20.9	0.00e+00	0	42	0	0	48	4658
2026-01-27 10:17:10.48	203.82	64.57	-38.9	-40.6	21.0	0.00e+00	0	42	0	0	48	4607
2026-01-27 10:17:11.48	204.53	64.91	-38.8	-40.4	21.0	0.00e+00	0	42	0	0	48	4534
2026-01-27 10:17:12.47	205.24	65.24	-39.0	-40.6	20.8	0.00e+00	0	42	0	0	48	4638
2026-01-27 10:17:13.47	205.99	65.58	-39.2	-40.8	20.6	0.00e+00	0	42	0	0	49	4480
2026-01-27 10:17:14.46	206.75	65.91	-39.1	-40.8	20.7	0.00e+00	0	42	0	0	49	4454
2026-01-27 10:17:15.46	207.54	66.24	-38.9	-40.5	20.9	0.00e+00	0	42	0	0	49	4314
2026-01-27 10:17:16.45	208.35	66.56	-38.9	-40.5	20.9	0.00e+00	0	42	0	0	49	4311
2026-01-27 10:17:17.45	209.19	66.88	-39.0	-40.6	20.8	0.00e+00	0	42	0	0	49	4377
2026-01-27 10:17:18.44	210.04	67.20	-39.4	-41.0	20.6	0.00e+00	0	42	0	0	49	4579
2026-01-27 10:17:19.44	210.94	67.51	-39.7	-41.4	20.3	0.00e+00	0	43	0	0	49	4761
2026-01-27 10:17:20.43	211.85	67.82	-39.5	-41.2	20.4	0.00e+00	0	43	0	0	50	4423
2026-01-27 10:17:21.43	212.80	68.13	-39.1	-40.7	20.7	0.00e+00	0	42	0	0	50	4190
2026-01-27 10:17:22.42	213.76	68.43	-38.9	-40.6	20.8	0.00e+00	0	42	0	0	49	4350
2026-01-27 10:17:23.42	214.77	68.73	-39.1	-40.7	20.7	0.00e+00	0	42	0	0	49	4422
2026-01-27 10:17:24.41	215.80	69.02	-39.0	-40.7	20.9	0.00e+00	0	42	0	0	49	4398
2026-01-27 10:17:25.41	216.87	69.31	-38.8	-40.5	21.1	0.00e+00	0	42	0	0	49	4297
2026-01-27 10:17:26.40	217.95	69.59	-38.7	-40.3	21.1	0.00e+00	0	42	0	0	49	4206
2026-01-27 10:17:27.40	219.09	69.86	-38.7	-40.4	21.0	0.00e+00	0	43	0	0	49	4255
2026-01-27 10:17:28.39	220.24	70.13	-38.8	-40.4	21.0	0.00e+00	0	42	0	0	49	4268
2026-01-27 10:17:29.39	221.44	70.39	-38.9	-40.6	20.9	0.00e+00	0	42	0	0	49	4352
2026-01-27 10:17:30.38	222.66	70.64	-39.1	-40.7	20.7	0.00e+00	0	42	0	0	49	4433
2026-01-27 10:17:31.37	223.91	70.89	-38.9	-40.5	20.8	0.00e+00	0	42	0	0	49	4315
2026-01-27 10:17:32.37	225.21	71.13	-38.8	-40.3	20.6	0.00e+00	0	42	0	0	49	4239
2026-01-27 10:17:33.36	226.54	71.35	-38.9	-40.5	20.6	0.00e+00	0	42	0	0	49	4307
2026-01-27 10:17:34.36	227.91	71.57	-39.1	-40.8	20.6	0.00e+00	0	42	0	0	49	4446
2026-01-27 10:17:35.35	229.30	71.78	-39.0	-40.6	20.8	0.00e+00	0	42	0	0	49	4390
2026-01-27 10:17:36.34	230.72	71.98	-39.1	-40.7	20.5	0.00e+00	0	42	0	0	49	4440
2026-01-27 10:17:37.34	232.19	72.17	-39.2	-40.8	20.4	0.00e+00	0	42	0	0	49	4486
2026-01-27 10:17:38.33	233.67	72.35	-39.3	-41.0	20.2	0.00e+00	0	42	0	0	49	4569
2026-01-27 10:17:39.33	235.21	72.51	-39.4	-41.1	20.2	0.00e+00	0	42	0	0	49	4628
2026-01-27 10:17:40.32	236.76	72.67	-39.3	-41.0	20.3	0.00e+00	0	42	0	0	49	4555
2026-01-27 10:17:41.31	238.33	72.81	-39.3	-41.0	20.4	0.00e+00	0	42	0	0	49	4569
2026-01-27 10:17:42.31	239.95	72.94	-39.0	-40.6	20.9	0.00e+00	0	42	0	0	49	4361
2026-01-27 10:17:43.31	241.59	73.06	-38.8	-40.3	21.1	0.00e+00	0	42	0	0	49	4237
2026-01-27 10:17:44.30	243.24	73.16	-38.6	-40.2	21.2	0.00e+00	0	42	0	0	49	4185
2026-01-27 10:17:45.29	244.91	73.26	-38.5	-40.1	21.3	0.00e+00	0	42	0	0	49	4109
2026-01-27 10:17:46.29	246.61	73.33	-38.4	-39.9	21.2	0.00e+00	0	42	0	0	48	4290
2026-01-27 10:17:47.29	248.33	73.40	-38.2	-39.8	21.3	0.00e+00	0	42	0	0	48	4197
2026-01-27 10:17:48.28	250.05	73.45	-38.3	-39.9	21.4	0.00e+00	0	42	0	0	48	4251
2026-01-27 10:17:49.27	251.77	73.48	-38.5	-40.0	21.2	0.00e+00	0	42	0	0	48	4322
2026-01-27 10:17:50.27	253.52	73.50	-38.8	-40.4	20.9	0.00e+00	0	42	0	0	48	4528
2026-01-27 10:17:51.26	255.25	73.51	-38.9	-40.5	20.8	0.00e+00	0	42	0	0	48	4593
2026-01-27 10:17:52.26	257.00	73.50	-38.7	-40.3	20.9	0.00e+00	0	42	0	0	48	4454
2026-01-27 10:17:53.25	258.72	73.48	-38.5	-40.1	21.1	0.00e+00	0	42	0	0	48	4380
2026-01-27 10:17:54.25	260.46	73.44	-38.6	-40.2	21.3	0.00e+00	0	42	0	0	48	4433
2026-01-27 10:17:55.24	262.18	73.39	-38.8	-40.4	21.2	0.00e+00	0	42	0	0	48	4516
2026-01-27 10:17:56.24	263.89	73.32	-39.0	-40.6	21.0	0.00e+00	0	42	0	0	49	4390
2026-01-27 10:17:57.23	265.58	73.24	-38.8	-40.4	21.1	0.00e+00	0	42	0	0	49	4281
2026-01-27 10:17:58.23	267.26	73.15	-38.7	-40.3	21.2	0.00e+00	0	42	0	0	49	4225
2026-01-27 10:17:59.22	268.90	73.05	-38.6	-40.1	21.2	0.00e+00	0	42	0	0	48	4375
2026-01-27 10:18:00.22	270.54	72.92	-38.9	-40.5	21.0	0.00e+00	0	42	0	0	48	4584
2026-01-27 10:18:01.21	272.14	72.79	-39.1	-40.7	21.0	0.00e+00	0	42	0	0	48	4664
2026-01-27 10:18:02.20	273.71	72.65	-39.1	-40.7	20.8	0.00e+00	0	42	0	0	49	4439
2026-01-27 10:18:03.20	275.27	72.49	-38.8	-40.4	21.1	0.00e+00	0	42	0	0	49	4251
2026-01-27 10:18:04.19	276.78	72.33	-38.2	-39.7	21.6	0.00e+00	0	42	0	0	48	4181
2026-01-27 10:18:05.19	278.28	72.14	-38.0	-39.5	21.4	0.00e+00	0	42	0	0	47	4340
2026-01-27 10:18:06.18	279.73	71.96	-38.2	-39.8	21.4	0.00e+00	0	42	0	0	47	4475
2026-01-27 10:18:07.18	281.16	71.75	-38.6	-40.1	21.2	0.00e+00	0	43	0	0	47	4650
2026-01-27 10:18:08.17	282.54	71.54	-39.2	-40.8	20.9	0.00e+00	0	42	0	0	49	4457
2026-01-27 10:18:09.17	283.91	71.32	-39.6	-41.3	20.3	0.00e+00	0	43	0	0	49	4727
2026-01-27 10:18:10.16	285.22	71.10	-39.2	-40.8	20.6	0.00e+00	0	42	0	0	49	4491
2026-01-27 10:18:11.16	286.52	70.86	-38.9	-40.5	20.6	0.00e+00	0	42	0	0	49	4329
2026-01-27 10:18:12.15	287.76	70.61	-38.9	-40.5	20.9	0.00e+00	0	42	0	0	49	4300
2026-01-27 10:18:13.15	288.99	70.36	-39.1	-40.7	20.9	0.00e+00	0	42	0	0	49	4424
2026-01-27 10:18:14.14	290.17	70.10	-39.2	-40.9	20.8	0.00e+00	0	42	0	0	49	4507
2026-01-27 10:18:15.14	291.33	69.83	-39.2	-40.9	20.4	0.00e+00	0	42	0	0	49	4498
2026-01-27 10:18:16.13	292.45	69.55	-39.0	-40.7	20.4	0.00e+00	0	42	0	0	49	4393
2026-01-27 10:18:17.12	293.53	69.28	-38.3	-39.9	21.2	0.00e+00	0	42	0	0	48	4247
2026-01-27 10:18:18.12	294.59	68.99	-38.1	-39.7	21.6	0.00e+00	0	42	0	0	48	4158
2026-01-27 10:18:19.12	295.62	68.69	-38.7	-40.3	21.3	0.00e+00	0	42	0	0	48	4449
2026-01-27 10:18:20.11	296.62	68.40	-39.5	-41.2	20.6	0.00e+00	0	42	0	0	49	4662
2026-01-27 10:18:21.11	297.59	68.09	-40.3	-42.1	19.8	0.00e+00	0	42	0	0	51	4621
2026-01-27 10:18:22.10	298.52	67.79	-39.9	-41.6	20.0	0.00e+00	0	42	0	0	51	4385
2026-01-27 10:18:23.10	299.44	67.48	-39.2	-40.8	20.4	0.00e+00	0	42	0	0	50	4201
2026-01-27 10:18:24.09	300.32	67.16	-38.8	-40.4	20.9	0.00e+00	0	42	0	0	49	4288
2026-01-27 10:18:25.08	301.17	66.85	-38.9	-40.5	21.0	0.00e+00	0	42	0	0	49	4337
2026-01-27 10:18:26.08	302.00	66.52	-39.6	-41.3	20.4	0.00e+00	0	42	0	0	49	4713
2026-01-27 10:18:27.05	302.79	66.21	-40.1	-41.9	19.9	0.00e+00	0	42	0	0	51	4500
2026-01-27 10:18:28.05	303.58	65.88	-40.3	-42.0	19.3	0.00e+00	0	42	0	0	51	4586
2026-01-27 10:18:29.04	304.34	65.55	-39.6	-41.3	20.0	0.00e+00	0	43	0	0	51	4211
2026-01-27 10:18:30.04	305.08	65.22	-38.7	-40.2	21.1	0.00e+00	0	42	0	0	49	4189
2026-01-27 10:18:31.03	305.79	64.89	-38.3	-39.9	21.4	0.00e+00	0	42	0	0	48	4248
2026-01-27 10:18:32.02	306.48	64.55	-38.9	-40.5	21.1	0.00e+00	0	42	0	0	48	4555
2026-01-27 10:18:33.02	307.16	64.21	-39.8	-41.5	20.2	0.00e+00	0	42	0	0	50	4571
2026-01-27 10:18:34.01	307.82	63.87	-41.1	-43.0	18.9	0.00e+00	0	42	0	0	52	4852
2026-01-27 10:18:35.01	308.46	63.53	-41.1	-43.0	18.4	0.00e+00	0	42	0	0	53	4579
2026-01-27 10:18:36.00	309.07	63.19	-40.5	-42.3	18.9	0.00e+00	0	42	0	0	53	4227
2026-01-27 10:18:37.00	309.68	62.85	-40.1	-41.9	19.6	0.00e+00	0	42	0	0	52	4254
2026-01-27 10:18:37.99	310.26	62.51	-40.0	-41.7	20.0	0.00e+00	0	42	0	0	51	4405
2026-01-27 10:18:38.99	310.83	62.16	-39.9	-41.5	20.2	0.00e+00	0	42	0	0	51	4324
2026-01-27 10:18:39.98	311.38	61.82	-40.5	-42.2	19.6	0.00e+00	0	43	0	0	51	4690
2026-01-27 10:18:40.98	311.92	61.47	-41.1	-43.0	18.8	0.00e+00	0	42	0	0	52	4827
2026-01-27 10:18:41.97	312.44	61.13	-41.3	-43.2	18.6	0.00e+00	0	42	0	0	53	4665
2026-01-27 10:18:42.97	312.95	60.78	-40.5	-42.3	19.3	0.00e+00	0	42	0	0	53	4213
2026-01-27 10:18:43.96	313.44	60.43	-39.9	-41.6	19.9	0.00e+00	0	42	0	0	51	4377
2026-01-27 10:18:44.95	313.92	60.09	-39.3	-40.9	20.5	0.00e+00	0	42	0	0	50	4285
2026-01-27 10:18:45.95	314.40	59.74	-39.2	-40.8	20.8	0.00e+00	0	42	0	0	50	4222
2026-01-27 10:18:46.94	314.85	59.40	-39.6	-41.3	20.4	0.00e+00	0	42	0	0	50	4457
2026-01-27 10:18:47.94	315.30	59.05	-40.8	-42.6	19.2	0.00e+00	0	42	0	0	52	4637
2026-01-27 10:18:48.93	315.73	58.71	-42.1	-44.2	17.8	0.00e+00	0	42	0	0	54	4943
2026-01-27 10:18:49.93	316.15	58.36	-42.3	-44.4	17.5	0.00e+00	0	43	0	0	55	4798
2026-01-27 10:18:50.92	316.56	58.02	-41.8	-43.7	17.9	0.00e+00	0	42	0	0	55	4441
2026-01-27 10:18:51.92	316.97	57.68	-40.7	-42.5	18.8	0.00e+00	0	43	0	0	53	4313
2026-01-27 10:18:52.91	317.36	57.34	-40.3	-42.1	19.3	0.00e+00	0	42	0	0	52	4342
2026-01-27 10:18:53.91	317.74	57.00	-40.2	-41.9	19.7	0.00e+00	0	42	0	0	52	4277
2026-01-27 10:18:54.90	318.11	56.66	-40.0	-41.7	20.0	0.00e+00	0	42	0	0	51	4420
2026-01-27 10:18:55.89	318.48	56.32	-40.5	-42.3	19.5	0.00e+00	0	42	0	0	51	4732
2026-01-27 10:18:56.89	318.83	55.98	-41.8	-43.7	18.1	0.00e+00	0	43	0	0	54	4700
2026-01-27 10:18:57.88	319.18	55.65	-43.3	-45.6	16.6	0.00e+00	0	42	0	0	57	4871
2026-01-27 10:18:58.88	319.52	55.31	-43.1	-45.3	16.7	0.00e+00	0	42	0	0	57	4734
2026-01-27 10:18:59.87	319.85	54.98	-42.8	-44.9	16.6	0.00e+00	0	42	0	0	57	4541
2026-01-27 10:19:00.87	320.17	54.64	-42.5	-44.5	17.1	0.00e+00	0	42	0	0	57	4312
2026-01-27 10:19:01.86	320.49	54.31	-41.2	-43.0	18.6	0.00e+00	0	42	0	0	54	4330
2026-01-27 10:19:02.86	320.80	53.98	-40.5	-42.2	19.4	0.00e+00	0	42	0	0	53	4187
2026-01-27 10:19:03.85	321.10	53.65	-40.4	-42.2	19.5	0.00e+00	0	43	0	0	52	4407
2026-01-27 10:19:04.85	321.39	53.32	-41.2	-43.0	18.8	0.00e+00	0	42	0	0	52	4847
2026-01-27 10:19:05.84	321.68	52.99	-41.8	-43.7	18.1	0.00e+00	0	42	0	0	54	4699
2026-01-27 10:19:06.84	321.96	52.67	-42.5	-44.6	17.3	0.00e+00	0	42	0	0	55	4891
2026-01-27 10:19:07.83	322.24	52.34	-43.2	-45.4	16.7	0.00e+00	0	43	0	0	57	4783
2026-01-27 10:19:08.82	322.51	52.02	-43.1	-45.4	16.6	0.00e+00	0	43	0	0	57	4771
2026-01-27 10:19:09.82	322.77	51.70	-43.0	-45.2	16.5	0.00e+00	0	43	0	0	57	4704
2026-01-27 10:19:10.82	323.04	51.38	-42.5	-44.6	16.9	0.00e+00	0	42	0	0	57	4359
2026-01-27 10:19:11.81	323.29	51.06	-42.2	-44.1	17.6	0.00e+00	0	42	0	0	56	4382
2026-01-27 10:19:12.81	323.54	50.75	-41.7	-43.6	18.1	0.00e+00	0	42	0	0	55	4345
2026-01-27 10:19:13.80	323.78	50.43	-41.3	-43.2	18.6	0.00e+00	0	42	0	0	54	4392
2026-01-27 10:19:14.80	324.02	50.12	-41.5	-43.3	18.5	0.00e+00	0	42	0	0	54	4463
2026-01-27 10:19:15.79	324.25	49.81	-41.9	-43.8	18.1	0.00e+00	0	42	0	0	54	4739
2026-01-27 10:19:16.78	324.48	49.50	-42.4	-44.5	17.5	0.00e+00	0	42	0	0	55	4816
2026-01-27 10:19:17.78	324.71	49.19	-42.8	-44.9	17.1	0.00e+00	0	42	0	0	56	4799
2026-01-27 10:19:18.77	324.92	48.89	-43.2	-45.4	16.7	0.00e+00	0	42	0	0	56	5063
2026-01-27 10:19:19.77	325.14	48.58	-43.7	-46.2	15.9	0.00e+00	0	42	0	0	58	4938
2026-01-27 10:19:20.76	325.35	48.28	-43.8	-46.3	15.9	0.00e+00	0	42	0	0	58	5006
2026-01-27 10:19:21.76	325.56	47.98	-43.1	-45.3	16.7	0.00e+00	0	42	0	0	58	4479
2026-01-27 10:19:22.75	325.76	47.68	-42.1	-44.1	17.8	0.00e+00	0	42	0	0	56	4368
2026-01-27 10:19:23.75	325.97	47.38	-41.4	-43.3	18.1	0.00e+00	0	43	0	0	54	4478
2026-01-27 10:19:24.74	326.16	47.09	-41.4	-43.3	18.2	0.00e+00	0	42	0	0	54	4459
2026-01-27 10:19:25.74	326.35	46.79	-41.4	-43.3	18.3	0.00e+00	0	42	0	0	54	4477
2026-01-27 10:19:26.73	326.54	46.50	-41.6	-43.5	18.2	0.00e+00	0	42	0	0	54	4591
2026-01-27 10:19:27.73	326.73	46.21	-41.9	-43.9	18.0	0.00e+00	0	42	0	0	54	4770
2026-01-27 10:19:28.72	326.91	45.92	-42.3	-44.4	17.5	0.00e+00	0	42	0	0	55	4775
2026-01-27 10:19:29.71	327.09	45.63	-42.5	-44.6	17.3	0.00e+00	0	43	0	0	55	4905
2026-01-27 10:19:30.71	327.27	45.35	-42.5	-44.6	17.3	0.00e+00	0	43	0	0	55	4894
2026-01-27 10:19:31.70	327.44	45.06	-42.3	-44.2	17.6	0.00e+00	0	43	0	0	55	4704
2026-01-27 10:19:32.70	327.61	44.78	-42.0	-43.9	18.0	0.00e+00	0	43	0	0	55	4504
2026-01-27 10:19:33.69	327.78	44.50	-41.8	-43.7	18.1	0.00e+00	0	42	0	0	55	4403
2026-01-27 10:19:34.68	327.94	44.23	-42.3	-44.3	17.5	0.00e+00	0	43	0	0	55	4712
2026-01-27 10:19:35.68	328.10	43.95	-43.4	-45.6	16.4	0.00e+00	0	42	0	0	57	4894
2026-01-27 10:19:36.67	328.26	43.67	-43.9	-46.3	15.8	0.00e+00	0	43	0	0	58	4987
2026-01-27 10:19:37.66	328.42	43.40	-44.2	-46.6	15.4	0.00e+00	0	43	0	0	58	5197
2026-01-27 10:19:38.66	328.57	43.13	-44.0	-46.5	15.5	0.00e+00	0	42	0	0	58	5128
2026-01-27 10:19:39.65	328.72	42.86	-43.5	-45.8	16.2	0.00e+00	0	43	0	0	58	4712
2026-01-27 10:19:40.65	328.87	42.59	-42.9	-45.0	16.8	0.00e+00	0	42	0	0	57	4592
2026-01-27 10:19:41.64	329.02	42.33	-42.5	-44.6	17.2	0.00e+00	0	42	0	0	57	4359
2026-01-27 10:19:42.64	329.16	42.06	-42.7	-44.8	17.1	0.00e+00	0	42	0	0	57	4454
2026-01-27 10:19:43.63	329.30	41.80	-42.9	-45.1	16.8	0.00e+00	0	42	0	0	57	4627
2026-01-27 10:19:44.63	329.44	41.54	-43.1	-45.3	16.7	0.00e+00	0	42	0	0	57	4746
2026-01-27 10:19:45.62	329.58	41.28	-43.0	-45.2	16.8	0.00e+00	0	42	0	0	57	4687
2026-01-27 10:19:46.62	329.71	41.02	-43.1	-45.3	16.8	0.00e+00	0	42	0	0	57	4746
2026-01-27 10:19:47.61	329.85	40.76	-43.0	-45.3	16.8	0.00e+00	0	42	0	0	57	4715
2026-01-27 10:19:48.60	329.98	40.51	-42.9	-45.1	16.9	0.00e+00	0	43	0	0	57	4614
2026-01-27 10:19:49.60	330.11	40.26	-42.5	-44.7	17.3	0.00e+00	0	43	0	0	57	4401
2026-01-27 10:19:50.60	330.23	40.00	-42.4	-44.5	17.4	0.00e+00	0	42	0	0	56	4570
2026-01-27 10:19:51.59	330.36	39.75	-42.4	-44.5	17.4	0.00e+00	0	42	0	0	56	4588
2026-01-27 10:19:52.58	330.48	39.51	-42.6	-44.7	17.3	0.00e+00	0	42	0	0	56	4681
2026-01-27 10:19:53.58	330.60	39.26	-42.8	-44.9	17.1	0.00e+00	0	42	0	0	56	4812
2026-01-27 10:19:54.57	330.72	39.02	-43.2	-45.4	16.7	0.00e+00	0	43	0	0	56	5092
2026-01-27 10:19:55.57	330.84	38.77	-43.5	-45.8	16.2	0.00e+00	0	42	0	0	57	5017
2026-01-27 10:19:56.57	330.96	38.53	-43.5	-45.8	16.3	0.00e+00	0	42	0	0	57	5023
2026-01-27 10:19:57.56	331.07	38.29	-43.2	-45.5	16.6	0.00e+00	0	42	0	0	57	4836
2026-01-27 10:19:58.56	331.19	38.05	-43.0	-45.3	16.7	0.00e+00	0	42	0	0	57	4707
2026-01-27 10:19:59.55	331.30	37.82	-42.6	-44.8	17.2	0.00e+00	0	42	0	0	57	4443
2026-01-27 10:20:00.55	331.41	37.58	-42.1	-44.2	17.7	0.00e+00	0	42	0	0	56	4392
2026-01-27 10:20:01.54	331.52	37.35	-41.7	-43.6	18.0	0.00e+00	0	42	0	0	55	4391
2026-01-27 10:20:02.54	331.63	37.11	-41.7	-43.7	18.0	0.00e+00	0	42	0	0	55	4417
2026-01-27 10:20:03.53	331.73	36.88	-41.7	-43.6	18.0	0.00e+00	0	42	0	0	55	4378
2026-01-27 10:20:04.53	331.83	36.65	-41.8	-43.8	17.9	0.00e+00	0	43	0	0	55	4476
2026-01-27 10:20:05.53	331.94	36.42	-41.8	-43.8	18.0	0.00e+00	0	42	0	0	55	4475
2026-01-27 10:20:06.52	332.04	36.20	-41.8	-43.8	18.0	0.00e+00	0	42	0	0	55	4447
2026-01-27 10:20:07.52	332.14	35.97	-41.7	-43.7	18.1	0.00e+00	0	42	0	0	55	4403
2026-01-27 10:20:08.52	332.24	35.75	-41.6	-43.5	18.2	0.00e+00	0	42	0	0	55	4320
2026-01-27 10:20:09.51	332.34	35.53	-41.4	-43.3	18.3	0.00e+00	0	42	0	0	54	4477
2026-01-27 10:20:10.51	332.43	35.31	-41.4	-43.3	18.2	0.00e+00	0	42	0	0	54	4450
2026-01-27 10:20:11.50	332.53	35.09	-41.3	-43.1	18.3	0.00e+00	0	43	0	0	54	4386
2026-01-27 10:20:12.49	332.62	34.87	-41.3	-43.2	18.3	0.00e+00	0	43	0	0	54	4396
2026-01-27 10:20:13.49	332.71	34.66	-41.4	-43.3	18.2	0.00e+00	0	42	0	0	54	4463
2026-01-27 10:20:14.48	332.80	34.44	-41.5	-43.5	18.1	0.00e+00	0	42	0	0	54	4557
2026-01-27 10:20:15.47	332.89	34.23	-41.7	-43.7	18.0	0.00e+00	0	42	0	0	54	4660
2026-01-27 10:20:16.47	332.98	34.02	-41.7	-43.7	18.1	0.00e+00	0	42	0	0	54	4691
2026-01-27 10:20:17.46	333.07	33.81	-41.7	-43.7	18.1	0.00e+00	0	42	0	0	54	4690
2026-01-27 10:20:18.45	333.16	33.60	-41.4	-43.4	18.4	0.00e+00	0	42	0	0	54	4531
2026-01-27 10:20:19.45	333.25	33.39	-41.2	-43.2	18.6	0.00e+00	0	42	0	0	54	4411
2026-01-27 10:20:20.45	333.33	33.19	-41.2	-43.2	18.6	0.00e+00	0	42	0	0	54	4420
2026-01-27 10:20:21.44	333.41	32.98	-41.3	-43.3	18.5	0.00e+00	0	42	0	0	54	4457
2026-01-27 10:20:22.43	333.50	32.78	-41.3	-43.3	18.5	0.00e+00	0	42	0	0	54	4466
2026-01-27 10:20:23.43	333.58	32.58	-41.4	-43.5	18.3	0.00e+00	0	42	0	0	54	4548
2026-01-27 10:20:24.43	333.66	32.37	-41.5	-43.5	18.3	0.00e+00	0	43	0	0	54	4576
2026-01-27 10:20:25.42	333.74	32.17	-41.6	-43.7	18.1	0.00e+00	0	43	0	0	54	4665
2026-01-27 10:20:26.41	333.82	31.98	-41.7	-43.7	18.1	0.00e+00	0	42	0	0	54	4678
2026-01-27 10:20:27.41	333.90	31.78	-41.6	-43.6	18.3	0.00e+00	0	42	0	0	54	4603
2026-01-27 10:20:28.40	333.97	31.58	-41.6	-43.6	18.2	0.00e+00	0	42	0	0	54	4617
2026-01-27 10:20:29.40	334.05	31.39	-41.6	-43.6	18.2	0.00e+00	0	42	0	0	54	4607
2026-01-27 10:20:30.39	334.13	31.20	-41.4	-43.4	18.4	0.00e+00	0	43	0	0	54	4501
2026-01-27 10:20:31.39	334.20	31.00	-41.4	-43.3	18.5	0.00e+00	0	42	0	0	54	4492
2026-01-27 10:20:32.38	334.27	30.81	-41.2	-43.1	18.7	0.00e+00	0	42	0	0	54	4356
2026-01-27 10:20:33.38	334.35	30.62	-41.1	-43.0	18.8	0.00e+00	0	42	0	0	54	4310
2026-01-27 10:20:34.38	334.42	30.43	-40.9	-42.8	18.9	0.00e+00	0	42	0	0	53	4462
2026-01-27 10:20:35.37	334.49	30.25	-40.8	-42.6	19.0	0.00e+00	0	42	0	0	53	4389
2026-01-27 10:20:36.37	334.56	30.06	-40.7	-42.6	19.0	0.00e+00	0	42	0	0	53	4361
2026-01-27 10:20:37.36	334.63	29.88	-40.7	-42.6	19.0	0.00e+00	0	42	0	0	53	4351
2026-01-27 10:20:38.36	334.70	29.69	-40.5	-42.4	19.2	0.00e+00	0	42	0	0	52	4501
2026-01-27 10:20:39.35	334.77	29.51	-40.6	-42.5	19.0	0.00e+00	0	42	0	0	52	4562
2026-01-27 10:20:40.35	334.84	29.33	-40.5	-42.4	19.1	0.00e+00	0	42	0	0	52	4525
2026-01-27 10:20:41.35	334.91	29.14	-40.4	-42.3	19.2	0.00e+00	0	42	0	0	52	4473
2026-01-27 10:20:42.34	334.97	28.97	-40.5	-42.3	19.2	0.00e+00	0	42	0	0	52	4480
2026-01-27 10:20:43.34	335.04	28.79	-40.4	-42.3	19.3	0.00e+00	0	42	0	0	52	4445
2026-01-27 10:20:44.33	335.10	28.61	-40.3	-42.1	19.5	0.00e+00	0	42	0	0	52	4352
2026-01-27 10:20:45.33	335.17	28.43	-40.2	-42.0	19.5	0.00e+00	0	42	0	0	52	4322
2026-01-27 10:20:46.32	335.23	28.26	-40.0	-41.8	19.7	0.00e+00	0	43	0	0	52	4213
2026-01-27 10:20:47.32	335.29	28.09	-39.9	-41.6	19.9	0.00e+00	0	42	0	0	51	4386
2026-01-27 10:20:48.31	335.36	27.91	-40.0	-41.7	19.8	0.00e+00	0	43	0	0	51	4402
2026-01-27 10:20:49.31	335.42	27.74	-40.0	-41.7	19.8	0.00e+00	0	42	0	0	51	4423
2026-01-27 10:20:50.30	335.48	27.57	-39.9	-41.6	19.9	0.00e+00	0	42	0	0	51	4374
2026-01-27 10:20:51.29	335.54	27.40	-40.0	-41.7	19.8	0.00e+00	0	42	0	0	51	4410
2026-01-27 10:20:52.29	335.60	27.23	-39.7	-41.4	20.1	0.00e+00	0	43	0	0	51	4283
2026-01-27 10:20:53.28	335.66	27.07	-39.6	-41.3	20.1	0.00e+00	0	43	0	0	51	4221
2026-01-27 10:20:54.28	335.72	26.90	-39.6	-41.3	20.2	0.00e+00	0	43	0	0	51	4211
2026-01-27 10:20:55.27	335.77	26.73	-39.7	-41.4	20.1	0.00e+00	0	43	0	0	51	4248
2026-01-27 10:20:56.27	335.83	26.57	-39.7	-41.4	20.1	0.00e+00	0	43	0	0	51	4259
2026-01-27 10:20:57.26	335.89	26.40	-39.7	-41.4	20.0	0.00e+00	0	43	0	0	51	4285
2026-01-27 10:20:58.25	335.95	26.24	-39.7	-41.4	20.1	0.00e+00	0	42	0	0	51	4291
2026-01-27 10:20:59.25	336.00	26.08	-39.8	-41.5	20.0	0.00e+00	0	42	0	0	51	4311
2026-01-27 10:21:00.24	336.06	25.92	-39.8	-41.5	20.0	0.00e+00	0	42	0	0	51	4339
2026-01-27 10:21:01.24	336.11	25.76	-39.8	-41.6	20.0	0.00e+00	0	42	0	0	51	4346
2026-01-27 10:21:02.23	336.17	25.60	-39.8	-41.6	20.0	0.00e+00	0	42	0	0	51	4361
2026-01-27 10:21:03.23	336.22	25.44	-39.8	-41.6	20.0	0.00e+00	0	43	0	0	51	4374
2026-01-27 10:21:04.22	336.27	25.29	-39.7	-41.5	20.1	0.00e+00	0	42	0	0	51	4317
2026-01-27 10:21:05.22	336.33	25.13	-39.6	-41.3	20.2	0.00e+00	0	42	0	0	51	4236
2026-01-27 10:21:06.21	336.38	24.97	-39.6	-41.3	20.2	0.00e+00	0	43	0	0	51	4239
2026-01-27 10:21:07.21	336.43	24.82	-39.7	-41.4	20.1	0.00e+00	0	42	0	0	51	4270
2026-01-27 10:21:08.20	336.48	24.67	-39.8	-41.5	20.1	0.00e+00	0	42	0	0	51	4319
2026-01-27 10:21:09.20	336.53	24.51	-39.8	-41.5	20.0	0.00e+00	0	42	0	0	51	4332
2026-01-27 10:21:10.19	336.58	24.36	-39.9	-41.6	19.9	0.00e+00	0	42	0	0	51	4386
2026-01-27 10:21:11.19	336.63	24.21	-40.2	-42.0	19.6	0.00e+00	0	43	0	0	51	4555
2026-01-27 10:21:12.18	336.68	24.06	-40.2	-41.9	19.7	0.00e+00	0	42	0	0	51	4516
2026-01-27 10:21:13.18	336.73	23.91	-40.2	-42.0	19.6	0.00e+00	0	43	0	0	51	4549
2026-01-27 10:21:14.18	336.78	23.76	-40.2	-41.9	19.6	0.00e+00	0	42	0	0	51	4539
2026-01-27 10:21:15.17	336.83	23.61	-40.3	-42.0	19.5	0.00e+00	0	42	0	0	51	4589
2026-01-27 10:21:16.17	336.88	23.47	-40.3	-42.1	19.5	0.00e+00	0	42	0	0	51	4601
2026-01-27 10:21:17.16	336.93	23.32	-40.3	-42.1	19.5	0.00e+00	0	42	0	0	51	4631
2026-01-27 10:21:18.15	336.97	23.18	-40.3	-42.0	19.6	0.00e+00	0	42	0	0	51	4587
2026-01-27 10:21:19.15	337.02	23.03	-40.3	-42.0	19.5	0.00e+00	0	42	0	0	51	4596
2026-01-27 10:21:20.14	337.07	22.89	-40.2	-42.0	19.6	0.00e+00	0	43	0	0	51	4564
2026-01-27 10:21:21.14	337.11	22.75	-40.3	-42.0	19.5	0.00e+00	0	42	0	0	51	4592
2026-01-27 10:21:22.13	337.16	22.60	-40.2	-42.0	19.5	0.00e+00	0	43	0	0	51	4593
2026-01-27 10:21:23.13	337.20	22.46	-40.1	-41.9	19.6	0.00e+00	0	42	0	0	51	4520
2026-01-27 10:21:24.12	337.25	22.32	-40.1	-41.9	19.6	0.00e+00	0	42	0	0	51	4542
2026-01-27 10:21:25.11	337.29	22.18	-40.1	-41.9	19.6	0.00e+00	0	43	0	0	51	4525
2026-01-27 10:21:26.11	337.34	22.04	-40.1	-42.0	19.5	0.00e+00	0	43	0	0	51	4547
2026-01-27 10:21:27.10	337.38	21.91	-40.2	-42.0	19.5	0.00e+00	0	42	0	0	51	4596
2026-01-27 10:21:28.10	337.43	21.77	-40.2	-42.0	19.5	0.00e+00	0	43	0	0	51	4588
2026-01-27 10:21:29.09	337.47	21.63	-40.1	-41.9	19.5	0.00e+00	0	43	0	0	51	4542
2026-01-27 10:21:30.09	337.51	21.50	-40.1	-41.9	19.5	0.00e+00	0	43	0	0	51	4537
2026-01-27 10:21:31.08	337.55	21.36	-40.1	-41.9	19.6	0.00e+00	0	42	0	0	51	4523
2026-01-27 10:21:32.08	337.60	21.23	-40.2	-42.0	19.5	0.00e+00	0	42	0	0	51	4551
2026-01-27 10:21:33.07	337.64	21.09	-40.1	-41.9	19.6	0.00e+00	0	43	0	0	51	4524
2026-01-27 10:21:34.06	337.68	20.96	-40.1	-41.9	19.6	0.00e+00	0	42	0	0	51	4509
2026-01-27 10:21:35.06	337.72	20.83	-40.2	-42.0	19.5	0.00e+00	0	43	0	0	51	4580
2026-01-27 10:21:36.06	337.76	20.69	-40.2	-42.0	19.4	0.00e+00	0	42	0	0	51	4597
2026-01-27 10:21:37.05	337.80	20.56	-40.1	-42.0	19.5	0.00e+00	0	43	0	0	51	4558
2026-01-27 10:21:38.05	337.84	20.43	-40.3	-42.1	19.3	0.00e+00	0	43	0	0	51	4648
2026-01-27 10:21:39.04	337.88	20.30	-40.3	-42.1	19.4	0.00e+00	0	42	0	0	51	4635
2026-01-27 10:21:40.03	337.92	20.17	-40.2	-42.0	19.4	0.00e+00	0	42	0	0	51	4580
2026-01-27 10:21:41.03	337.96	20.05	-40.2	-42.0	19.4	0.00e+00	0	42	0	0	51	4589
2026-01-27 10:21:42.03	338.00	19.92	-40.2	-42.0	19.4	0.00e+00	0	42	0	0	51	4597
2026-01-27 10:21:43.02	338.04	19.79	-40.1	-41.9	19.6	0.00e+00	0	42	0	0	51	4495
2026-01-27 10:21:44.02	338.08	19.66	-40.1	-41.9	19.5	0.00e+00	0	43	0	0	51	4505
2026-01-27 10:21:45.01	338.11	19.54	-40.1	-41.9	19.5	0.00e+00	0	42	0	0	51	4503
2026-01-27 10:21:46.00	338.15	19.41	-40.1	-41.8	19.5	0.00e+00	0	43	0	0	51	4477
2026-01-27 10:21:47.00	338.19	19.29	-40.0	-41.8	19.6	0.00e+00	0	42	0	0	51	4461
2026-01-27 10:21:48.00	338.23	19.16	-40.0	-41.7	19.6	0.00e+00	0	43	0	0	51	4437
2026-01-27 10:21:48.99	338.26	19.04	-40.1	-41.9	19.5	0.00e+00	0	43	0	0	51	4499
2026-01-27 10:21:49.99	338.30	18.92	-40.0	-41.8	19.5	0.00e+00	0	43	0	0	51	4473
2026-01-27 10:21:50.98	338.34	18.79	-40.1	-41.9	19.5	0.00e+00	0	43	0	0	51	4502
2026-01-27 10:21:51.98	338.37	18.67	-39.9	-41.7	19.6	0.00e+00	0	42	0	0	51	4421
2026-01-27 10:21:52.97	338.41	18.55	-40.1	-41.9	19.5	0.00e+00	0	42	0	0	51	4503
2026-01-27 10:21:53.97	338.45	18.43	-40.1	-41.9	19.4	0.00e+00	0	42	0	0	51	4521
2026-01-27 10:21:54.96	338.48	18.31	-40.2	-42.0	19.4	0.00e+00	0	43	0	0	51	4546
2026-01-27 10:21:55.96	338.52	18.19	-40.2	-42.0	19.4	0.00e+00	0	42	0	0	51	4556
2026-01-27 10:21:56.95	338.55	18.07	-40.2	-41.9	19.4	0.00e+00	0	43	0	0	51	4538
2026-01-27 10:21:57.94	338.59	17.96	-40.2	-42.0	19.4	0.00e+00	0	42	0	0	51	4550
2026-01-27 10:21:58.94	338.62	17.84	-40.3	-42.1	19.3	0.00e+00	0	43	0	0	51	4629
2026-01-27 10:21:59.94	338.66	17.72	-40.3	-42.1	19.3	0.00e+00	0	43	0	0	51	4621
2026-01-27 10:22:00.93	338.69	17.60	-40.3	-42.1	19.3	0.00e+00	0	43	0	0	51	4639
2026-01-27 10:22:01.92	338.72	17.49	-40.4	-42.2	19.3	0.00e+00	0	43	0	0	51	4671
2026-01-27 10:22:02.92	338.76	17.37	-40.5	-42.3	19.2	0.00e+00	0	43	0	0	51	4729
2026-01-27 10:22:03.91	338.79	17.26	-40.5	-42.2	19.3	0.00e+00	0	43	0	0	51	4696
2026-01-27 10:22:04.91	338.82	17.14	-40.5	-42.3	19.2	0.00e+00	0	43	0	0	51	4708
2026-01-27 10:22:05.90	338.86	17.03	-40.6	-42.4	19.1	0.00e+00	0	43	0	0	51	4787
2026-01-27 10:22:06.89	338.89	16.92	-40.6	-42.4	19.2	0.00e+00	0	43	0	0	51	4769
2026-01-27 10:22:07.89	338.92	16.80	-40.5	-42.3	19.2	0.00e+00	0	42	0	0	51	4754
2026-01-27 10:22:08.88	338.95	16.69	-40.6	-42.5	19.0	0.00e+00	0	42	0	0	52	4564
2026-01-27 10:22:09.88	338.99	16.58	-40.6	-42.5	19.0	0.00e+00	0	43	0	0	52	4575
2026-01-27 10:22:10.87	339.02	16.47	-40.6	-42.5	19.0	0.00e+00	0	43	0	0	52	4557
2026-01-27 10:22:11.87	339.05	16.36	-40.5	-42.4	19.0	0.00e+00	0	43	0	0	52	4545
2026-01-27 10:22:12.86	339.08	16.25	-40.5	-42.4	19.1	0.00e+00	0	43	0	0	52	4514
2026-01-27 10:22:13.86	339.11	16.14	-40.6	-42.5	19.0	0.00e+00	0	42	0	0	52	4593
2026-01-27 10:22:14.85	339.14	16.03	-40.5	-42.4	19.1	0.00e+00	0	43	0	0	52	4540
2026-01-27 10:22:15.85	339.17	15.92	-40.6	-42.5	19.0	0.00e+00	0	43	0	0	52	4572
2026-01-27 10:22:16.84	339.21	15.81	-40.7	-42.6	18.9	0.00e+00	0	42	0	0	52	4631
2026-01-27 10:22:17.84	339.24	15.70	-40.8	-42.7	18.8	0.00e+00	0	42	0	0	52	4682
2026-01-27 10:22:18.84	339.27	15.60	-40.7	-42.6	18.9	0.00e+00	0	43	0	0	52	4629
2026-01-27 10:22:19.83	339.30	15.49	-40.7	-42.6	18.9	0.00e+00	0	43	0	0	52	4636
2026-01-27 10:22:20.83	339.33	15.38	-40.7	-42.6	18.9	0.00e+00	0	43	0	0	52	4609
2026-01-27 10:22:21.82	339.36	15.28	-40.7	-42.5	18.9	0.00e+00	0	43	0	0	52	4572
2026-01-27 10:22:22.82	339.39	15.17	-40.7	-42.5	18.9	0.00e+00	0	42	0	0	52	4577
2026-01-27 10:22:23.81	339.42	15.07	-40.7	-42.6	18.9	0.00e+00	0	43	0	0	52	4607
2026-01-27 10:22:24.80	339.44	14.96	-40.7	-42.6	18.9	0.00e+00	0	42	0	0	52	4601
2026-01-27 10:22:25.80	339.47	14.86	-40.7	-42.6	18.8	0.00e+00	0	43	0	0	52	4629
2026-01-27 10:22:26.80	339.50	14.75	-40.6	-42.6	18.9	0.00e+00	0	43	0	0	52	4604
2026-01-27 10:22:27.79	339.53	14.65	-40.7	-42.7	18.7	0.00e+00	0	43	0	0	52	4664
2026-01-27 10:22:28.78	339.56	14.55	-40.7	-42.7	18.7	0.00e+00	0	43	0	0	52	4680
2026-01-27 10:22:29.78	339.59	14.44	-40.7	-42.8	18.6	0.00e+00	0	43	0	0	52	4707
2026-01-27 10:22:30.77	339.62	14.34	-40.6	-42.7	18.7	0.00e+00	0	43	0	0	52	4686
2026-01-27 10:22:31.77	339.64	14.24	-40.8	-42.9	18.5	0.00e+00	0	43	0	0	52	4778
2026-01-27 10:22:32.76	339.67	14.14	-40.8	-42.9	18.5	0.00e+00	0	42	0	0	52	4811
2026-01-27 10:22:33.76	339.70	14.04	-40.8	-42.9	18.5	0.00e+00	0	43	0	0	52	4792
2026-01-27 10:22:34.75	339.73	13.94	-40.9	-43.0	18.4	0.00e+00	0	42	0	0	52	4831
2026-01-27 10:22:35.74	339.75	13.84	-41.1	-43.1	18.3	0.00e+00	0	43	0	0	52	4917
2026-01-27 10:22:36.74	339.78	13.74	-41.3	-43.3	18.1	0.00e+00	0	43	0	0	53	4757
2026-01-27 10:22:37.73	339.81	13.64	-41.2	-43.2	18.2	0.00e+00	0	43	0	0	53	4694
2026-01-27 10:22:38.73	339.84	13.54	-41.3	-43.3	18.1	0.00e+00	0	43	0	0	53	4725
2026-01-27 10:22:39.72	339.86	13.44	-41.3	-43.3	18.1	0.00e+00	0	43	0	0	53	4741
2026-01-27 10:22:40.71	339.89	13.35	-41.4	-43.4	17.9	0.00e+00	0	43	0	0	53	4799
2026-01-27 10:22:41.71	339.92	13.25	-41.4	-43.4	18.0	0.00e+00	0	42	0	0	53	4803
2026-01-27 10:22:42.70	339.94	13.15	-41.5	-43.5	17.9	0.00e+00	0	43	0	0	53	4868
2026-01-27 10:22:43.70	339.97	13.05	-41.6	-43.7	17.7	0.00e+00	0	43	0	0	53	4961
2026-01-27 10:22:44.69	339.99	12.96	-41.6	-43.7	17.7	0.00e+00	0	43	0	0	53	4936
2026-01-27 10:22:45.69	340.02	12.86	-41.8	-44.0	17.5	0.00e+00	0	42	0	0	54	4815
2026-01-27 10:22:46.68	340.05	12.77	-41.6	-43.8	17.7	0.00e+00	0	43	0	0	54	4736
2026-01-27 10:22:47.68	340.07	12.67	-41.5	-43.7	17.7	0.00e+00	0	43	0	0	54	4704
2026-01-27 10:22:48.67	340.10	12.58	-41.3	-43.7	17.8	0.00e+00	0	43	0	0	54	4673
2026-01-27 10:22:49.67	340.12	12.48	-41.5	-43.9	17.6	0.00e+00	0	43	0	0	54	4789
2026-01-27 10:22:50.66	340.15	12.39	-41.3	-43.7	17.7	0.00e+00	0	42	0	0	54	4686
2026-01-27 10:22:51.66	340.17	12.29	-41.3	-43.8	17.7	0.00e+00	0	43	0	0	54	4707
2026-01-27 10:22:52.65	340.20	12.20	-41.3	-43.8	17.7	0.00e+00	0	43	0	0	54	4717
2026-01-27 10:22:53.65	340.22	12.11	-41.2	-43.6	17.9	0.00e+00	0	43	0	0	54	4605
2026-01-27 10:22:54.64	340.25	12.01	-41.4	-43.7	17.8	0.00e+00	0	43	0	0	54	4686
2026-01-27 10:22:55.64	340.27	11.92	-41.4	-43.7	17.8	0.00e+00	0	43	0	0	54	4679
2026-01-27 10:22:56.63	340.30	11.83	-41.5	-43.7	17.7	0.00e+00	0	43	0	0	54	4699
2026-01-27 10:22:57.63	340.32	11.74	-41.4	-43.7	17.8	0.00e+00	0	43	0	0	54	4657
2026-01-27 10:22:58.62	340.35	11.65	-41.6	-43.9	17.6	0.00e+00	0	43	0	0	54	4772
2026-01-27 10:22:59.62	340.37	11.55	-41.6	-43.8	17.7	0.00e+00	0	42	0	0	54	4718
2026-01-27 10:23:00.61	340.39	11.46	-41.4	-43.6	17.8	0.00e+00	0	43	0	0	54	4600
2026-01-27 10:23:01.61	340.42	11.37	-41.6	-43.7	17.7	0.00e+00	0	43	0	0	54	4690
2026-01-27 10:23:02.60	340.44	11.28	-41.5	-43.7	17.7	0.00e+00	0	43	0	0	54	4674
2026-01-27 10:23:03.60	340.47	11.19	-41.7	-43.8	17.6	0.00e+00	0	42	0	0	54	4753
2026-01-27 10:23:04.59	340.49	11.10	-41.7	-43.9	17.5	0.00e+00	0	42	0	0	54	4789
2026-01-27 10:23:05.58	340.51	11.02	-41.8	-44.0	17.4	0.00e+00	0	43	0	0	54	4865
2026-01-27 10:23:06.58	340.54	10.93	-41.7	-43.9	17.5	0.00e+00	0	43	0	0	54	4813
2026-01-27 10:23:07.57	340.56	10.84	-41.8	-44.1	17.3	0.00e+00	0	43	0	0	54	4884
2026-01-27 10:23:08.57	340.58	10.75	-41.7	-43.9	17.5	0.00e+00	0	42	0	0	54	4789
2026-01-27 10:23:09.56	340.60	10.66	-41.7	-44.0	17.4	0.00e+00	0	43	0	0	54	4824
2026-01-27 10:23:10.56	340.63	10.57	-41.8	-44.1	17.3	0.00e+00	0	43	0	0	54	4880
2026-01-27 10:23:11.55	340.65	10.49	-41.8	-44.0	17.4	0.00e+00	0	43	0	0	54	4849
2026-01-27 10:23:12.54	340.67	10.40	-41.8	-44.0	17.3	0.00e+00	0	43	0	0	54	4863
2026-01-27 10:23:13.54	340.69	10.31	-41.8	-44.0	17.4	0.00e+00	0	43	0	0	54	4826
2026-01-27 10:23:14.54	340.72	10.23	-42.0	-44.2	17.2	0.00e+00	0	42	0	0	54	4963
2026-01-27 10:23:15.53	340.74	10.14	-41.8	-43.9	17.4	0.00e+00	0	42	0	0	54	4785
2026-01-27 10:23:16.53	340.76	10.06	-42.0	-44.1	17.2	0.00e+00	0	43	0	0	54	4912
2026-01-27 10:23:17.52	340.78	9.97	-42.0	-44.2	17.1	0.00e+00	0	43	0	0	54	4942
2026-01-27 10:23:18.52	340.81	9.89	-42.0	-44.2	17.2	0.00e+00	0	43	0	0	54	4955
2026-01-27 10:23:19.51	340.83	9.80	-41.9	-44.2	17.1	0.00e+00	0	43	0	0	54	4945
2026-01-27 10:23:20.50	340.85	9.72	-42.0	-44.3	17.0	0.00e+00	0	43	0	0	54	5011
2026-01-27 10:23:21.50	340.87	9.63	-41.9	-44.1	17.2	0.00e+00	0	43	0	0	54	4916
2026-01-27 10:23:22.49	340.89	9.55	-42.0	-44.3	17.0	0.00e+00	0	43	0	0	54	5027
2026-01-27 10:23:23.49	340.91	9.46	-41.9	-44.4	17.0	0.00e+00	0	43	0	0	54	5045
2026-01-27 10:23:24.48	340.94	9.38	-41.8	-44.3	17.1	0.00e+00	0	43	0	0	54	4993
2026-01-27 10:23:25.48	340.96	9.30	-41.9	-44.4	16.9	0.00e+00	0	43	0	0	54	5058
2026-01-27 10:23:26.47	340.98	9.22	-41.8	-44.3	17.0	0.00e+00	0	43	0	0	54	5004
2026-01-27 10:23:27.47	341.00	9.13	-41.7	-44.3	17.0	0.00e+00	0	43	0	0	54	5003
2026-01-27 10:23:28.46	341.02	9.05	-41.7	-44.3	17.0	0.00e+00	0	43	0	0	54	5026
2026-01-27 10:23:29.46	341.04	8.97	-41.8	-44.4	16.9	0.00e+00	0	43	0	0	54	5071
2026-01-27 10:23:30.45	341.06	8.89	-48.9	-62.3	3.8	1.49e+00	0	43	104	0	68	17887
2026-01-27 10:23:31.44	341.08	8.81	-48.3	-62.7	3.8	1.49e+00	0	43	104	0	67	19792
2026-01-27 10:23:32.44	341.10	8.72	-49.2	-62.9	3.8	1.49e+00	0	43	104	0	69	18041
2026-01-27 10:23:33.43	341.12	8.64	-48.8	-62.8	3.8	1.49e+00	0	43	104	0	69	17864
2026-01-27 10:23:34.42	341.14	8.56	-49.1	-62.8	3.8	1.49e+00	0	43	104	0	69	17734
2026-01-27 10:23:35.42	341.16	8.48	-49.0	-62.6	3.8	1.49e+00	0	43	104	0	68	18374
2026-01-27 10:23:36.41	341.18	8.40	-48.7	-62.6	3.8	1.49e+00	0	43	104	0	68	18326
2026-01-27 10:23:37.40	341.20	8.32	-49.4	-62.6	3.8	1.49e+00	0	43	104	0	69	17327
2026-01-27 10:23:38.40	341.22	8.24	-49.1	-62.6	3.8	1.49e+00	0	43	104	0	69	17444
2026-01-27 10:23:39.39	341.24	8.16	-49.1	-62.7	3.8	1.49e+00	0	43	104	0	69	17511
2026-01-27 10:23:40.38	341.26	8.08	-49.5	-62.7	3.8	1.49e+00	0	42	104	0	69	17603
2026-01-27 10:23:41.38	341.28	8.01	-49.6	-62.8	3.8	1.49e+00	0	43	104	0	69	17693
2026-01-27 10:23:42.37	341.30	7.93	-49.5	-62.8	3.8	1.49e+00	0	42	104	0	70	16803
2026-01-27 10:23:43.36	341.32	7.85	-49.8	-62.8	3.8	1.49e+00	0	43	104	0	70	16768
2026-01-27 10:23:44.35	341.34	7.77	-49.9	-62.8	3.8	1.49e+00	0	43	104	0	70	16843
2026-01-27 10:23:45.35	341.36	7.69	-49.8	-62.9	3.8	1.49e+00	0	43	104	0	70	16918
2026-01-27 10:23:46.34	341.38	7.62	-49.9	-62.9	3.8	1.49e+00	0	43	104	0	70	16890
2026-01-27 10:23:47.33	341.40	7.54	-49.9	-62.9	3.8	1.49e+00	0	43	104	0	70	17016
2026-01-27 10:23:48.33	341.42	7.46	-49.8	-62.9	3.8	1.49e+00	0	43	104	0	70	17049
2026-01-27 10:23:49.32	341.44	7.38	-49.8	-62.9	3.8	1.49e+00	0	43	104	0	70	16989
2026-01-27 10:23:50.31	341.46	7.31	-49.8	-62.9	3.8	1.49e+00	0	43	104	0	70	17029
2026-01-27 10:23:51.31	341.48	7.23	-49.8	-62.9	3.8	1.49e+00	0	43	104	0	70	16997
2026-01-27 10:23:52.30	341.50	7.15	-49.8	-62.9	3.8	1.49e+00	0	43	104	0	70	17082
2026-01-27 10:23:53.29	341.51	7.08	-49.8	-62.9	3.8	1.49e+00	0	43	104	0	70	17022
