passes_logs/2026/01/27/T1/T1__20260127_023149_SUOMI_NPP_rec.log

#Pass ID: 20260127_023149_SUOMI NPP
#Satellite: SUOMI NPP
#Configuration: NPP
#almurnet v.1.7.20251203
#Start time: 2026-01-27 02:31:51

#Version: 2.0.20230620
#Station: T1
#Location: 37.570604 lon 55.790049 lat
#TLE: 1 37849U 11061A   26026.52266023  .00000173  00000+0  10323-3 0  9994
#TLE: 2 37849  98.7822 328.4727 0002140  43.9411 316.1934 14.19530258738341

#Time	Az	El	Level	Level2	SNR	BER	BlckErr	Temp	State	Recorded	gain1	gain2
2026-01-27 02:31:51.27	359.68	5.10	-44.5	-64.4	3.8	1.49e+00	0	41	0	0	60	36005
2026-01-27 02:31:52.25	359.56	5.14	-44.5	-64.4	3.8	1.49e+00	0	41	104	0	60	35949
2026-01-27 02:31:53.25	359.44	5.18	-44.4	-64.4	3.8	1.49e+00	0	41	104	0	60	35816
2026-01-27 02:31:54.24	359.32	5.22	-44.4	-64.4	3.8	1.49e+00	0	41	104	0	60	35950
2026-01-27 02:31:55.23	359.20	5.26	-44.5	-64.4	3.8	1.49e+00	0	41	104	0	60	36064
2026-01-27 02:31:56.23	359.07	5.30	-44.5	-64.5	3.8	1.49e+00	0	41	104	0	60	36152
2026-01-27 02:31:57.22	358.95	5.34	-44.5	-64.4	3.8	1.49e+00	0	41	104	0	60	35982
2026-01-27 02:31:58.21	358.83	5.39	-44.6	-64.4	3.8	1.49e+00	0	41	104	0	60	36034
2026-01-27 02:31:59.20	358.70	5.43	-44.6	-64.4	3.8	1.49e+00	0	41	104	0	60	36042
2026-01-27 02:32:00.20	358.58	5.47	-44.5	-64.4	3.8	1.49e+00	0	41	104	0	60	35938
2026-01-27 02:32:01.19	358.45	5.51	-44.5	-64.4	3.8	1.49e+00	0	41	104	0	60	35983
2026-01-27 02:32:02.18	358.33	5.55	-44.5	-64.4	3.8	1.49e+00	0	42	104	0	60	35977
2026-01-27 02:32:03.18	358.20	5.59	-44.5	-64.4	3.8	1.49e+00	0	42	104	0	60	36067
2026-01-27 02:32:04.17	358.07	5.63	-44.5	-64.4	3.8	1.49e+00	0	41	104	0	60	35953
2026-01-27 02:32:05.16	357.95	5.67	-44.4	-64.4	3.8	1.49e+00	0	41	104	0	60	35947
2026-01-27 02:32:06.16	357.82	5.71	-44.5	-64.4	3.8	1.49e+00	0	42	104	0	60	36018
2026-01-27 02:32:07.15	357.69	5.75	-44.5	-64.4	3.8	1.49e+00	0	42	104	0	60	35973
2026-01-27 02:32:08.14	357.56	5.79	-44.5	-64.4	3.8	1.49e+00	0	42	104	0	60	36009
2026-01-27 02:32:09.13	357.44	5.83	-44.5	-64.4	3.8	1.49e+00	0	42	104	0	60	35981
2026-01-27 02:32:10.13	357.31	5.87	-44.5	-64.4	3.8	1.49e+00	0	42	104	0	60	36029
2026-01-27 02:32:11.12	357.18	5.91	-44.5	-64.4	3.8	1.49e+00	0	42	104	0	60	35987
2026-01-27 02:32:12.11	357.05	5.95	-44.5	-64.4	3.8	1.49e+00	0	42	104	0	60	36059
2026-01-27 02:32:13.10	356.92	5.99	-44.6	-64.4	3.8	1.49e+00	0	42	104	0	60	35930
2026-01-27 02:32:14.10	356.79	6.03	-44.6	-64.4	3.8	1.49e+00	0	42	104	0	60	35989
2026-01-27 02:32:15.09	356.66	6.07	-44.5	-64.4	3.8	1.49e+00	0	42	104	0	60	35969
2026-01-27 02:32:16.08	356.53	6.11	-44.6	-64.4	3.8	1.49e+00	0	42	104	0	60	36103
2026-01-27 02:32:17.08	356.40	6.15	-44.6	-64.4	3.8	1.49e+00	0	42	104	0	60	36050
2026-01-27 02:32:18.07	356.27	6.19	-44.6	-64.4	3.8	1.49e+00	0	42	104	0	60	35965
2026-01-27 02:32:19.06	356.14	6.23	-44.6	-64.4	3.8	1.49e+00	0	42	104	0	60	35903
2026-01-27 02:32:20.06	356.00	6.27	-44.6	-64.4	3.8	1.49e+00	0	42	104	0	60	35995
2026-01-27 02:32:21.05	355.87	6.31	-44.6	-64.4	3.8	1.49e+00	0	42	104	0	60	35945
2026-01-27 02:32:22.04	355.74	6.35	-44.6	-64.5	3.8	1.49e+00	0	42	104	0	60	36123
2026-01-27 02:32:23.04	355.61	6.39	-44.6	-64.4	3.8	1.49e+00	0	42	104	0	60	35952
2026-01-27 02:32:24.03	355.47	6.43	-44.6	-64.4	3.8	1.49e+00	0	42	104	0	60	36025
2026-01-27 02:32:25.02	355.34	6.47	-44.6	-64.4	3.8	1.49e+00	0	42	104	0	60	36080
2026-01-27 02:32:26.01	355.20	6.51	-44.6	-64.4	3.8	1.49e+00	0	42	104	0	60	35948
2026-01-27 02:32:27.01	355.07	6.55	-44.6	-64.4	3.8	1.49e+00	0	42	104	0	60	35991
2026-01-27 02:32:28.00	354.93	6.59	-44.6	-64.4	3.8	1.49e+00	0	42	104	0	60	35924
2026-01-27 02:32:28.99	354.80	6.63	-44.6	-64.4	3.8	1.49e+00	0	42	104	0	60	35878
2026-01-27 02:32:29.99	354.66	6.66	-44.7	-64.4	3.8	1.49e+00	0	42	104	0	60	35957
2026-01-27 02:32:30.98	354.53	6.70	-44.7	-64.4	3.8	1.49e+00	0	42	104	0	60	35844
2026-01-27 02:32:31.97	354.39	6.74	-44.6	-64.4	3.8	1.49e+00	0	42	104	0	60	35902
2026-01-27 02:32:32.97	354.25	6.78	-44.6	-64.4	3.8	1.49e+00	0	42	104	0	60	35859
2026-01-27 02:32:33.96	354.12	6.82	-44.6	-64.4	3.8	1.49e+00	0	42	104	0	60	36042
2026-01-27 02:32:34.95	353.98	6.86	-44.6	-64.4	3.8	1.49e+00	0	42	104	0	60	35889
2026-01-27 02:32:35.94	353.84	6.89	-44.6	-64.4	3.8	1.49e+00	0	42	104	0	60	36002
2026-01-27 02:32:36.94	353.70	6.93	-44.6	-64.4	3.8	1.49e+00	0	42	104	0	60	36002
2026-01-27 02:32:37.93	353.56	6.97	-44.6	-64.4	3.8	1.49e+00	0	42	104	0	60	36071
2026-01-27 02:32:38.92	353.43	7.01	-44.6	-64.4	3.8	1.49e+00	0	43	104	0	60	36066
2026-01-27 02:32:39.92	353.28	7.05	-44.6	-64.4	3.8	1.49e+00	0	43	104	0	60	35979
2026-01-27 02:32:40.91	353.15	7.08	-44.6	-64.4	3.8	1.49e+00	0	43	104	0	60	35889
2026-01-27 02:32:41.90	353.01	7.12	-44.5	-64.4	3.8	1.49e+00	0	42	104	0	60	35950
2026-01-27 02:32:42.90	352.86	7.16	-44.5	-64.4	3.8	1.49e+00	0	43	104	0	60	36000
2026-01-27 02:32:43.89	352.72	7.20	-44.6	-64.4	3.8	1.49e+00	0	43	104	0	60	36023
2026-01-27 02:32:44.88	352.58	7.23	-44.6	-64.4	3.8	1.49e+00	0	43	104	0	60	36011
2026-01-27 02:32:45.88	352.44	7.27	-44.6	-64.4	3.8	1.49e+00	0	43	104	0	60	36087
2026-01-27 02:32:46.87	352.30	7.31	-44.6	-64.4	3.8	1.49e+00	0	42	104	0	60	35870
2026-01-27 02:32:47.86	352.16	7.34	-44.6	-64.4	3.8	1.49e+00	0	43	104	0	60	35817
2026-01-27 02:32:48.86	352.01	7.38	-44.6	-64.4	3.8	1.49e+00	0	43	104	0	60	35718
2026-01-27 02:32:49.85	351.87	7.42	-44.5	-64.4	3.8	1.49e+00	0	42	104	0	60	35878
2026-01-27 02:32:50.84	351.73	7.45	-44.5	-64.4	3.8	1.49e+00	0	43	104	0	60	35976
2026-01-27 02:32:51.84	351.58	7.49	-44.5	-64.4	3.8	1.49e+00	0	43	104	0	60	35816
2026-01-27 02:32:52.83	351.44	7.53	-44.5	-64.4	3.8	1.49e+00	0	43	104	0	60	35784
2026-01-27 02:32:53.82	351.29	7.56	-44.5	-64.4	3.8	1.49e+00	0	43	104	0	60	35955
2026-01-27 02:32:54.82	351.15	7.60	-44.5	-64.4	3.8	1.49e+00	0	43	104	0	60	35867
2026-01-27 02:32:55.81	351.00	7.63	-44.5	-64.4	3.8	1.49e+00	0	43	104	0	60	35788
2026-01-27 02:32:56.81	350.86	7.67	-44.5	-64.4	3.8	1.49e+00	0	43	104	0	60	35789
2026-01-27 02:32:57.80	350.71	7.71	-44.5	-64.3	3.8	1.49e+00	0	43	104	0	60	35622
2026-01-27 02:32:58.80	350.56	7.74	-44.4	-64.4	3.8	1.49e+00	0	43	104	0	60	35866
2026-01-27 02:32:59.79	350.42	7.78	-44.5	-64.3	3.8	1.49e+00	0	43	104	0	60	35684
2026-01-27 02:33:00.78	350.27	7.81	-44.6	-64.4	3.8	1.49e+00	0	43	104	0	60	35741
2026-01-27 02:33:01.78	350.12	7.85	-44.5	-64.4	3.8	1.49e+00	0	43	104	0	60	35743
2026-01-27 02:33:02.77	349.97	7.88	-44.5	-64.4	3.8	1.49e+00	0	43	104	0	60	35856
2026-01-27 02:33:03.76	349.83	7.92	-44.5	-64.4	3.8	1.49e+00	0	43	104	0	60	35789
2026-01-27 02:33:04.76	349.68	7.95	-44.5	-64.4	3.8	1.49e+00	0	43	104	0	60	35744
2026-01-27 02:33:05.75	349.53	7.99	-44.5	-64.4	3.8	1.49e+00	0	43	104	0	60	35833
2026-01-27 02:33:06.74	349.38	8.02	-44.5	-64.4	3.8	1.49e+00	0	43	104	0	60	35737
2026-01-27 02:33:07.74	349.23	8.06	-44.5	-64.4	3.8	1.49e+00	0	43	104	0	60	35736
2026-01-27 02:33:08.73	349.08	8.09	-44.5	-64.3	3.8	1.49e+00	0	43	104	0	60	35600
2026-01-27 02:33:09.73	348.93	8.12	-44.4	-64.2	3.8	1.49e+00	0	43	104	0	60	35161
2026-01-27 02:33:10.72	348.78	8.16	-44.4	-64.1	3.8	1.49e+00	0	43	104	0	60	34678
2026-01-27 02:33:11.72	348.62	8.19	-44.5	-64.1	3.8	1.49e+00	0	43	104	0	60	34528
2026-01-27 02:33:12.71	348.47	8.22	-44.5	-64.0	3.8	1.49e+00	0	43	104	0	60	34343
2026-01-27 02:33:13.70	348.32	8.26	-44.6	-64.1	3.8	1.49e+00	0	43	104	0	60	34515
2026-01-27 02:33:14.70	348.17	8.29	-44.5	-64.2	3.8	1.49e+00	0	43	104	0	60	34894
2026-01-27 02:33:15.69	348.02	8.32	-44.5	-64.2	3.8	1.49e+00	0	43	104	0	60	34950
2026-01-27 02:33:16.68	347.86	8.36	-44.5	-64.2	3.8	1.49e+00	0	43	104	0	60	35107
2026-01-27 02:33:17.68	347.71	8.39	-44.5	-64.2	3.8	1.49e+00	0	43	104	0	60	35018
2026-01-27 02:33:18.67	347.56	8.42	-44.6	-64.1	3.8	1.49e+00	0	43	104	0	60	34813
2026-01-27 02:33:19.66	347.40	8.46	-44.5	-64.1	3.8	1.49e+00	0	43	104	0	60	34631
2026-01-27 02:33:20.66	347.25	8.49	-44.5	-64.1	3.8	1.49e+00	0	43	104	0	60	34756
2026-01-27 02:33:21.65	347.09	8.52	-44.5	-64.2	3.8	1.49e+00	0	43	104	0	60	34894
2026-01-27 02:33:22.64	346.94	8.55	-44.5	-64.3	3.8	1.49e+00	0	43	104	0	60	35403
2026-01-27 02:33:23.64	346.78	8.58	-44.5	-64.3	3.8	1.49e+00	0	43	104	0	60	35575
2026-01-27 02:33:24.63	346.63	8.62	-44.5	-64.1	3.8	1.49e+00	0	43	104	0	60	34734
2026-01-27 02:33:25.62	346.47	8.65	-44.5	-63.7	3.8	1.49e+00	0	43	104	0	60	33259
2026-01-27 02:33:26.62	346.31	8.68	-44.5	-63.1	3.8	1.49e+00	0	43	104	0	60	30995
2026-01-27 02:33:27.61	346.16	8.71	-44.5	-62.9	3.8	1.49e+00	0	43	104	0	60	30134
2026-01-27 02:33:28.60	346.00	8.74	-44.5	-62.4	3.9	1.49e+00	0	43	104	0	60	28631
2026-01-27 02:33:29.60	345.84	8.77	-44.5	-62.2	3.8	1.49e+00	0	43	104	0	60	28015
2026-01-27 02:33:30.59	345.68	8.80	-44.5	-62.0	4.0	1.48e+00	0	43	104	0	60	27298
2026-01-27 02:33:31.59	345.52	8.83	-44.5	-62.0	4.0	1.48e+00	0	43	104	0	60	27316
2026-01-27 02:33:32.58	345.37	8.86	-44.6	-62.1	3.8	1.49e+00	0	43	104	0	60	27532
2026-01-27 02:33:33.57	345.21	8.90	-44.5	-61.8	3.9	1.49e+00	0	43	104	0	60	26659
2026-01-27 02:33:34.57	345.05	8.93	-44.4	-60.3	4.3	1.40e+00	0	43	0	0	60	22351
2026-01-27 02:33:35.56	344.89	8.96	-44.4	-58.2	5.3	8.37e-01	0	43	0	1048576	60	17511
2026-01-27 02:33:36.55	344.73	8.98	-44.2	-55.3	7.7	2.97e-01	0	43	0	3145728	60	12541
2026-01-27 02:33:37.55	344.57	9.01	-43.9	-52.6	10.4	1.21e-02	0	43	0	5242880	59	9725
2026-01-27 02:33:38.54	344.41	9.04	-43.6	-52.0	11.1	4.42e-04	0	43	0	7340032	59	9072
2026-01-27 02:33:39.54	344.25	9.07	-44.2	-56.1	7.1	5.12e-03	0	43	0	8388608	59	14657
2026-01-27 02:33:40.53	344.09	9.10	-43.4	-51.4	11.3	1.26e+00	0	43	0	10485760	59	8504
2026-01-27 02:33:41.53	343.92	9.13	-44.0	-53.7	9.4	7.99e-04	0	43	0	11534336	58	11737
2026-01-27 02:33:42.52	343.76	9.16	-43.3	-50.3	12.4	1.22e-01	0	43	0	13631488	58	7970
2026-01-27 02:33:43.52	343.60	9.19	-41.6	-46.3	16.4	0.00e+00	0	43	0	15728640	55	5982
2026-01-27 02:33:44.51	343.44	9.22	-41.7	-46.6	16.2	0.00e+00	0	43	0	17825792	55	6156
2026-01-27 02:33:45.51	343.27	9.25	-41.9	-46.9	16.0	0.00e+00	0	43	0	19922944	55	6349
2026-01-27 02:33:46.50	343.11	9.27	-42.1	-47.0	15.8	0.00e+00	0	43	0	20971520	55	6465
2026-01-27 02:33:47.50	342.94	9.30	-42.4	-47.4	15.4	0.00e+00	0	43	0	23068672	55	6753
2026-01-27 02:33:48.49	342.78	9.33	-43.0	-47.8	15.1	0.00e+00	0	43	0	25165824	56	6719
2026-01-27 02:33:49.48	342.62	9.36	-43.2	-48.0	15.0	0.00e+00	0	43	0	27262976	57	6461
2026-01-27 02:33:50.48	342.45	9.38	-43.2	-47.9	15.1	0.00e+00	0	43	0	28311552	57	6363
2026-01-27 02:33:51.47	342.29	9.41	-43.1	-47.7	15.3	0.00e+00	0	43	0	30408704	57	6254
2026-01-27 02:33:52.47	342.12	9.44	-43.0	-47.5	15.5	0.00e+00	0	44	0	32505856	57	6125
2026-01-27 02:33:53.46	341.96	9.46	-42.9	-47.2	15.8	0.00e+00	0	43	0	34603008	57	5870
2026-01-27 02:33:54.46	341.79	9.49	-43.0	-47.3	15.7	0.00e+00	0	43	0	36700160	57	5988
2026-01-27 02:33:55.45	341.62	9.52	-43.0	-47.3	15.7	0.00e+00	0	43	0	37748736	57	5948
2026-01-27 02:33:56.45	341.46	9.54	-43.3	-47.6	15.5	0.00e+00	0	43	0	39845888	57	6158
2026-01-27 02:33:57.44	341.29	9.57	-43.7	-48.0	15.0	0.00e+00	0	43	0	41943040	57	6449
2026-01-27 02:33:58.44	341.12	9.59	-43.7	-47.8	15.2	0.00e+00	0	43	0	44040192	58	5992
2026-01-27 02:33:59.43	340.96	9.62	-43.8	-47.8	15.2	0.00e+00	0	43	0	45088768	58	5977
2026-01-27 02:34:00.43	340.79	9.64	-44.0	-47.9	15.2	0.00e+00	0	43	0	47185920	58	5998
2026-01-27 02:34:01.42	340.62	9.67	-43.9	-47.6	15.4	0.00e+00	0	43	0	49283072	58	5804
2026-01-27 02:34:02.42	340.45	9.69	-43.8	-47.3	15.7	0.00e+00	0	43	0	51380224	58	5625
2026-01-27 02:34:03.41	340.28	9.72	-43.8	-47.3	15.8	0.00e+00	0	43	0	53477376	58	5622
2026-01-27 02:34:04.41	340.11	9.74	-43.7	-47.1	16.0	0.00e+00	0	43	0	54525952	58	5496
2026-01-27 02:34:05.40	339.95	9.77	-43.4	-46.7	16.3	0.00e+00	0	43	0	56623104	58	5268
2026-01-27 02:34:06.44	339.77	9.79	-43.4	-46.8	16.3	0.00e+00	0	43	0	58720256	58	5287
2026-01-27 02:34:07.44	339.60	9.81	-43.5	-46.8	16.2	0.00e+00	0	43	0	60817408	58	5331
2026-01-27 02:34:08.43	339.43	9.84	-43.3	-46.5	16.6	0.00e+00	0	43	0	62914560	58	5107
2026-01-27 02:34:09.42	339.26	9.86	-43.2	-46.3	16.7	0.00e+00	0	43	0	63963136	58	4999
2026-01-27 02:34:10.42	339.09	9.88	-43.0	-46.0	17.0	0.00e+00	0	43	0	66060288	58	4826
2026-01-27 02:34:11.41	338.92	9.91	-42.6	-45.5	17.5	0.00e+00	0	43	0	68157440	57	4821
2026-01-27 02:34:12.41	338.75	9.93	-42.4	-45.3	17.6	0.00e+00	0	43	0	70254592	56	5005
2026-01-27 02:34:13.40	338.58	9.95	-42.3	-45.2	17.7	0.00e+00	0	43	0	71303168	56	4983
2026-01-27 02:34:14.40	338.40	9.97	-42.2	-45.1	17.9	0.00e+00	0	43	0	73400320	56	4890
2026-01-27 02:34:15.39	338.23	10.00	-42.3	-45.3	17.6	0.00e+00	0	43	0	75497472	56	5021
2026-01-27 02:34:16.39	338.06	10.02	-42.5	-45.6	17.4	0.00e+00	0	43	0	77594624	56	5171
2026-01-27 02:34:17.38	337.89	10.04	-42.6	-45.7	17.3	0.00e+00	0	43	0	79691776	56	5233
2026-01-27 02:34:18.38	337.71	10.06	-42.6	-45.8	17.2	0.00e+00	0	43	0	80740352	56	5296
2026-01-27 02:34:19.37	337.54	10.08	-42.5	-45.6	17.4	0.00e+00	0	43	0	82837504	56	5211
2026-01-27 02:34:20.37	337.37	10.10	-42.4	-45.6	17.5	0.00e+00	0	43	0	84934656	56	5175
2026-01-27 02:34:21.36	337.19	10.12	-42.4	-45.6	17.3	0.00e+00	0	44	0	87031808	56	5216
2026-01-27 02:34:22.36	337.02	10.14	-42.4	-45.6	17.4	0.00e+00	0	43	0	88080384	56	5190
2026-01-27 02:34:23.35	336.85	10.16	-42.3	-45.6	17.4	0.00e+00	0	44	0	90177536	56	5187
2026-01-27 02:34:24.35	336.67	10.18	-42.5	-46.0	17.0	0.00e+00	0	43	0	92274688	56	5416
2026-01-27 02:34:25.34	336.50	10.20	-42.7	-46.2	16.8	0.00e+00	0	44	0	94371840	56	5542
2026-01-27 02:34:26.43	336.31	10.22	-42.9	-46.4	16.6	0.00e+00	0	43	0	96468992	56	5720
2026-01-27 02:34:27.31	336.15	10.24	-43.2	-46.9	16.1	0.00e+00	0	43	0	97517568	57	5681
2026-01-27 02:34:28.62	335.92	10.26	-43.4	-47.1	15.9	0.00e+00	0	43	0	100663296	57	5855
2026-01-27 02:34:29.34	335.79	10.28	-43.5	-47.1	15.9	0.00e+00	0	43	0	101711872	57	5841
2026-01-27 02:34:30.84	335.53	10.30	-43.5	-47.0	16.0	0.00e+00	0	43	0	104857600	57	5763
2026-01-27 02:34:31.55	335.40	10.32	-43.5	-46.9	16.1	0.00e+00	0	43	0	105906176	57	5706
2026-01-27 02:34:32.83	335.18	10.34	-43.5	-46.9	16.2	0.00e+00	0	43	0	108003328	57	5664
2026-01-27 02:34:33.54	335.05	10.35	-43.4	-46.7	16.3	0.00e+00	0	43	0	109051904	57	5591
2026-01-27 02:34:34.82	334.82	10.38	-43.4	-46.7	16.3	0.00e+00	0	43	0	112197632	57	5563
2026-01-27 02:34:35.53	334.70	10.39	-43.4	-46.6	16.4	0.00e+00	0	43	0	113246208	57	5516
2026-01-27 02:34:36.81	334.47	10.41	-43.3	-46.7	16.3	0.00e+00	0	44	0	115343360	57	5535
2026-01-27 02:34:37.53	334.34	10.42	-43.4	-46.8	16.2	0.00e+00	0	43	0	117440512	57	5653
2026-01-27 02:34:38.81	334.11	10.44	-43.5	-47.1	16.0	0.00e+00	0	43	0	119537664	57	5790
2026-01-27 02:34:39.54	333.98	10.45	-43.6	-47.3	15.7	0.00e+00	0	43	0	120586240	57	5974
2026-01-27 02:34:40.82	333.75	10.47	-43.7	-47.3	15.8	0.00e+00	0	43	0	123731968	57	5943
2026-01-27 02:34:41.58	333.62	10.49	-43.7	-47.3	15.8	0.00e+00	0	43	0	124780544	58	5612
2026-01-27 02:34:42.86	333.39	10.50	-43.9	-47.4	15.7	0.00e+00	0	43	0	126877696	58	5679
2026-01-27 02:34:43.66	333.25	10.52	-43.9	-47.3	15.7	0.00e+00	0	43	0	128974848	58	5637
2026-01-27 02:34:45.10	332.99	10.54	-43.8	-47.1	15.9	0.00e+00	0	43	0	131072000	58	5508
2026-01-27 02:34:45.81	332.86	10.55	-43.8	-47.1	16.0	0.00e+00	0	44	0	132120576	58	5498
2026-01-27 02:34:47.09	332.63	10.57	-43.6	-46.7	16.3	0.00e+00	0	44	0	135266304	58	5266
2026-01-27 02:34:47.81	332.50	10.58	-43.5	-46.6	16.4	0.00e+00	0	43	0	136314880	58	5189
2026-01-27 02:34:49.09	332.27	10.59	-43.3	-46.3	16.7	0.00e+00	0	43	0	138412032	58	5030
2026-01-27 02:34:49.82	332.14	10.60	-43.3	-46.4	16.6	0.00e+00	0	44	0	140509184	58	5084
2026-01-27 02:34:51.10	331.91	10.62	-43.4	-46.5	16.5	0.00e+00	0	43	0	142606336	58	5123
2026-01-27 02:34:51.89	331.76	10.63	-43.4	-46.6	16.5	0.00e+00	0	43	0	143654912	58	5173
2026-01-27 02:34:53.07	331.55	10.64	-43.8	-47.1	16.1	0.00e+00	0	43	0	145752064	58	5468
2026-01-27 02:34:53.92	331.40	10.66	-43.7	-46.9	16.1	0.00e+00	0	43	0	147849216	58	5391
2026-01-27 02:34:55.06	331.19	10.67	-43.7	-47.0	16.1	0.00e+00	0	43	0	149946368	58	5412
2026-01-27 02:34:55.91	331.04	10.68	-43.7	-46.9	16.2	0.00e+00	0	43	0	150994944	58	5384
2026-01-27 02:34:57.05	330.83	10.69	-43.6	-46.8	16.3	0.00e+00	0	43	0	153092096	58	5291
2026-01-27 02:34:57.91	330.67	10.70	-43.5	-46.6	16.5	0.00e+00	0	43	0	155189248	58	5171
2026-01-27 02:34:59.04	330.47	10.71	-43.5	-46.5	16.6	0.00e+00	0	44	0	157286400	58	5120
2026-01-27 02:34:59.90	330.31	10.72	-43.3	-46.3	16.7	0.00e+00	0	43	0	159383552	58	5006
2026-01-27 02:35:01.03	330.10	10.73	-43.2	-46.2	16.8	0.00e+00	0	44	0	161480704	58	4970
2026-01-27 02:35:01.89	329.95	10.74	-43.4	-46.6	16.4	0.00e+00	0	43	0	162529280	58	5195
2026-01-27 02:35:03.09	329.73	10.76	-43.5	-46.7	16.4	0.00e+00	0	44	0	164626432	58	5248
2026-01-27 02:35:03.94	329.57	10.76	-43.6	-46.9	16.2	0.00e+00	0	43	0	166723584	58	5378
2026-01-27 02:35:05.14	329.35	10.77	-43.5	-46.8	16.3	0.00e+00	0	44	0	168820736	58	5289
2026-01-27 02:35:06.00	329.20	10.78	-43.4	-46.6	16.5	0.00e+00	0	44	0	169869312	58	5211
2026-01-27 02:35:07.13	328.99	10.79	-43.4	-46.5	16.5	0.00e+00	0	43	0	173015040	58	5157
2026-01-27 02:35:07.99	328.83	10.80	-43.3	-46.4	16.6	0.00e+00	0	44	0	174063616	58	5083
2026-01-27 02:35:09.12	328.63	10.81	-43.2	-46.3	16.7	0.00e+00	0	43	0	176160768	58	5039
2026-01-27 02:35:09.98	328.47	10.81	-42.9	-46.1	17.0	0.00e+00	0	43	0	178257920	57	5171
2026-01-27 02:35:11.11	328.26	10.82	-42.8	-45.9	17.1	0.00e+00	0	43	0	180355072	57	5086
2026-01-27 02:35:11.97	328.10	10.83	-42.7	-45.8	17.2	0.00e+00	0	43	0	181403648	57	5032
2026-01-27 02:35:13.10	327.90	10.84	-42.6	-45.7	17.3	0.00e+00	0	43	0	183500800	57	4972
2026-01-27 02:35:13.96	327.74	10.84	-42.7	-45.8	17.2	0.00e+00	0	44	0	185597952	57	5018
2026-01-27 02:35:15.09	327.53	10.85	-42.7	-45.8	17.2	0.00e+00	0	44	0	187695104	57	5004
2026-01-27 02:35:15.95	327.37	10.86	-42.9	-46.0	17.1	0.00e+00	0	43	0	188743680	57	5101
2026-01-27 02:35:17.08	327.17	10.86	-43.0	-46.0	17.1	0.00e+00	0	43	0	190840832	57	5117
2026-01-27 02:35:17.93	327.01	10.87	-43.2	-46.3	16.8	0.00e+00	0	43	0	192937984	57	5282
2026-01-27 02:35:19.07	326.80	10.87	-43.2	-46.3	16.7	0.00e+00	0	44	0	195035136	57	5329
2026-01-27 02:35:19.92	326.64	10.88	-43.1	-46.2	16.8	0.00e+00	0	43	0	196083712	57	5257
2026-01-27 02:35:21.06	326.43	10.88	-43.0	-46.2	16.8	0.00e+00	0	44	0	198180864	57	5255
2026-01-27 02:35:21.92	326.28	10.89	-42.9	-46.2	16.9	0.00e+00	0	44	0	200278016	57	5238
2026-01-27 02:35:23.05	326.07	10.89	-42.7	-46.0	17.1	0.00e+00	0	44	0	202375168	57	5147
2026-01-27 02:35:23.91	325.91	10.90	-42.5	-45.8	17.2	0.00e+00	0	44	0	203423744	57	5029
2026-01-27 02:35:25.04	325.70	10.90	-42.3	-45.5	17.6	0.00e+00	0	43	0	206569472	56	5109
2026-01-27 02:35:25.90	325.54	10.90	-42.3	-45.4	17.6	0.00e+00	0	43	0	207618048	56	5074
2026-01-27 02:35:27.03	325.33	10.91	-42.3	-45.4	17.6	0.00e+00	0	43	0	209715200	56	5051
2026-01-27 02:35:27.88	325.18	10.91	-42.3	-45.3	17.7	0.00e+00	0	43	0	211812352	56	5013
2026-01-27 02:35:29.02	324.97	10.91	-42.2	-45.2	17.8	0.00e+00	0	43	0	213909504	56	4943
2026-01-27 02:35:29.87	324.81	10.91	-42.3	-45.3	17.7	0.00e+00	0	43	0	214958080	56	5009
2026-01-27 02:35:31.09	324.59	10.91	-42.2	-45.2	17.8	0.00e+00	0	43	0	217055232	56	4946
2026-01-27 02:35:31.94	324.43	10.92	-42.2	-45.2	17.8	0.00e+00	0	43	0	219152384	56	4937
2026-01-27 02:35:33.08	324.22	10.92	-42.1	-45.1	17.9	0.00e+00	0	44	0	221249536	56	4888
2026-01-27 02:35:33.93	324.06	10.92	-42.2	-45.2	17.8	0.00e+00	0	44	0	222298112	56	4945
2026-01-27 02:35:35.06	323.85	10.92	-42.1	-45.1	17.9	0.00e+00	0	43	0	224395264	56	4892
2026-01-27 02:35:35.95	323.69	10.92	-42.2	-45.3	17.7	0.00e+00	0	43	0	226492416	56	4988
2026-01-27 02:35:37.09	323.48	10.92	-42.3	-45.4	17.7	0.00e+00	0	43	0	228589568	56	5051
2026-01-27 02:35:37.94	323.32	10.92	-42.5	-45.6	17.4	0.00e+00	0	43	0	230686720	56	5181
2026-01-27 02:35:39.08	323.11	10.92	-42.6	-45.6	17.4	0.00e+00	0	44	0	232783872	56	5216
2026-01-27 02:35:39.93	322.95	10.92	-42.7	-45.8	17.3	0.00e+00	0	44	0	233832448	56	5282
2026-01-27 02:35:41.07	322.74	10.92	-42.8	-45.8	17.3	0.00e+00	0	44	0	235929600	56	5282
2026-01-27 02:35:41.92	322.59	10.92	-42.9	-45.8	17.3	0.00e+00	0	44	0	238026752	56	5290
2026-01-27 02:35:43.05	322.38	10.91	-42.9	-45.7	17.3	0.00e+00	0	43	0	240123904	56	5268
2026-01-27 02:35:43.91	322.22	10.91	-42.9	-45.8	17.3	0.00e+00	0	43	0	241172480	56	5284
2026-01-27 02:35:45.05	322.01	10.91	-43.1	-45.9	17.1	0.00e+00	0	43	0	243269632	56	5399
2026-01-27 02:35:45.90	321.85	10.91	-42.8	-45.7	17.4	0.00e+00	0	44	0	245366784	56	5233
2026-01-27 02:35:47.05	321.64	10.91	-42.8	-45.8	17.3	0.00e+00	0	43	0	247463936	56	5305
2026-01-27 02:35:47.90	321.48	10.90	-42.8	-45.9	17.2	0.00e+00	0	44	0	248512512	56	5346
2026-01-27 02:35:49.12	321.26	10.90	-42.8	-45.9	17.2	0.00e+00	0	44	0	251658240	56	5368
2026-01-27 02:35:49.97	321.10	10.90	-42.8	-45.9	17.2	0.00e+00	0	43	0	252706816	56	5361
2026-01-27 02:35:51.10	320.89	10.89	-42.8	-45.9	17.1	0.00e+00	0	43	0	254803968	56	5399
2026-01-27 02:35:51.96	320.73	10.89	-42.8	-45.9	17.1	0.00e+00	0	44	0	256901120	56	5379
2026-01-27 02:35:53.09	320.53	10.88	-42.9	-45.9	17.1	0.00e+00	0	43	0	258998272	56	5388
2026-01-27 02:35:53.99	320.36	10.88	-42.9	-45.9	17.2	0.00e+00	0	44	0	260046848	56	5378
2026-01-27 02:35:55.05	320.17	10.87	-42.8	-45.8	17.3	0.00e+00	0	44	0	262144000	56	5302
2026-01-27 02:35:55.92	320.01	10.87	-42.8	-45.8	17.2	0.00e+00	0	44	0	264241152	56	5321
2026-01-27 02:35:57.05	319.80	10.86	-42.7	-45.7	17.4	0.00e+00	0	43	0	266338304	56	5229
2026-01-27 02:35:57.90	319.64	10.86	-42.6	-45.6	17.4	0.00e+00	0	43	0	267386880	56	5189
2026-01-27 02:35:59.04	319.43	10.85	-42.6	-45.7	17.3	0.00e+00	0	43	0	269484032	56	5240
2026-01-27 02:35:59.89	319.28	10.85	-42.8	-45.9	17.2	0.00e+00	0	44	0	271581184	56	5353
2026-01-27 02:36:01.03	319.07	10.84	-43.0	-46.2	16.9	0.00e+00	0	43	0	273678336	56	5532
2026-01-27 02:36:01.88	318.91	10.83	-43.2	-46.4	16.7	0.00e+00	0	44	0	274726912	57	5358
2026-01-27 02:36:03.11	318.68	10.82	-43.4	-46.7	16.4	0.00e+00	0	44	0	277872640	57	5551
2026-01-27 02:36:03.97	318.53	10.82	-43.6	-46.8	16.3	0.00e+00	0	44	0	278921216	57	5622
2026-01-27 02:36:05.10	318.32	10.81	-43.6	-46.9	16.2	0.00e+00	0	44	0	281018368	58	5343
2026-01-27 02:36:05.95	318.16	10.80	-43.8	-47.1	16.0	0.00e+00	0	43	0	283115520	58	5477
2026-01-27 02:36:07.09	317.96	10.79	-43.7	-46.9	16.2	0.00e+00	0	44	0	285212672	58	5347
2026-01-27 02:36:08.05	317.78	10.78	-43.8	-46.9	16.1	0.00e+00	0	44	0	286261248	58	5381
2026-01-27 02:36:09.05	317.60	10.77	-43.5	-46.5	16.6	0.00e+00	0	44	0	288358400	58	5119
2026-01-27 02:36:10.04	317.42	10.77	-43.4	-46.4	16.7	0.00e+00	0	43	0	290455552	58	5051
2026-01-27 02:36:11.04	317.23	10.76	-43.2	-46.1	17.0	0.00e+00	0	43	0	292552704	58	4873
2026-01-27 02:36:12.04	317.05	10.75	-43.1	-46.0	17.0	0.00e+00	0	44	0	294649856	58	4849
2026-01-27 02:36:13.03	316.87	10.74	-43.2	-46.1	17.0	0.00e+00	0	44	0	295698432	58	4882
2026-01-27 02:36:14.02	316.69	10.73	-43.1	-46.0	17.0	0.00e+00	0	43	0	297795584	58	4848
2026-01-27 02:36:15.02	316.51	10.72	-43.1	-46.0	17.0	0.00e+00	0	43	0	299892736	58	4864
2026-01-27 02:36:16.02	316.33	10.70	-43.2	-46.2	16.8	0.00e+00	0	43	0	301989888	58	4952
2026-01-27 02:36:17.01	316.15	10.69	-43.4	-46.4	16.7	0.00e+00	0	43	0	303038464	58	5057
2026-01-27 02:36:18.01	315.96	10.68	-43.5	-46.5	16.5	0.00e+00	0	43	0	305135616	58	5136
2026-01-27 02:36:19.06	315.77	10.67	-43.5	-46.6	16.5	0.00e+00	0	43	0	307232768	58	5180
2026-01-27 02:36:19.93	315.62	10.66	-43.6	-46.7	16.4	0.00e+00	0	44	0	309329920	58	5220
2026-01-27 02:36:21.07	315.41	10.65	-43.4	-46.4	16.7	0.00e+00	0	44	0	311427072	58	5069
2026-01-27 02:36:22.02	315.24	10.63	-43.6	-46.6	16.5	0.00e+00	0	43	0	312475648	58	5209
2026-01-27 02:36:23.01	315.06	10.62	-43.7	-46.8	16.2	0.00e+00	0	43	0	314572800	58	5307
2026-01-27 02:36:24.01	314.88	10.61	-43.8	-47.0	16.1	0.00e+00	0	44	0	316669952	58	5428
2026-01-27 02:36:25.00	314.70	10.59	-43.9	-47.1	16.0	0.00e+00	0	43	0	318767104	58	5496
2026-01-27 02:36:26.00	314.52	10.58	-43.9	-47.0	16.0	0.00e+00	0	43	0	320864256	58	5445
2026-01-27 02:36:26.99	314.34	10.57	-43.9	-47.1	16.0	0.00e+00	0	43	0	321912832	58	5476
2026-01-27 02:36:27.98	314.16	10.55	-43.9	-47.1	16.0	0.00e+00	0	43	0	324009984	58	5526
2026-01-27 02:36:28.98	313.98	10.54	-44.0	-47.3	15.8	0.00e+00	0	43	0	326107136	58	5607
2026-01-27 02:36:29.98	313.80	10.52	-43.9	-47.2	15.9	0.00e+00	0	43	0	328204288	58	5563
2026-01-27 02:36:30.97	313.62	10.51	-43.8	-47.1	16.0	0.00e+00	0	43	0	329252864	58	5505
2026-01-27 02:36:31.97	313.44	10.50	-43.7	-46.9	16.2	0.00e+00	0	43	0	331350016	58	5373
2026-01-27 02:36:32.96	313.27	10.48	-43.6	-46.8	16.3	0.00e+00	0	43	0	333447168	58	5316
2026-01-27 02:36:33.95	313.09	10.46	-43.6	-46.8	16.2	0.00e+00	0	44	0	335544320	58	5336
2026-01-27 02:36:34.95	312.91	10.45	-43.5	-46.7	16.3	0.00e+00	0	44	0	337641472	58	5250
2026-01-27 02:36:35.94	312.73	10.43	-43.6	-46.7	16.4	0.00e+00	0	44	0	338690048	58	5243
2026-01-27 02:36:36.94	312.55	10.42	-43.4	-46.4	16.6	0.00e+00	0	44	0	340787200	58	5086
2026-01-27 02:36:37.94	312.38	10.40	-43.5	-46.6	16.5	0.00e+00	0	44	0	342884352	58	5188
2026-01-27 02:36:38.93	312.20	10.38	-43.5	-46.6	16.5	0.00e+00	0	43	0	344981504	58	5179
2026-01-27 02:36:39.93	312.02	10.37	-43.6	-46.7	16.3	0.00e+00	0	43	0	346030080	58	5279
2026-01-27 02:36:40.92	311.85	10.35	-43.5	-46.6	16.5	0.00e+00	0	43	0	348127232	58	5160
2026-01-27 02:36:41.92	311.67	10.33	-43.6	-46.7	16.4	0.00e+00	0	43	0	350224384	58	5234
2026-01-27 02:36:42.91	311.49	10.31	-43.5	-46.5	16.5	0.00e+00	0	44	0	352321536	58	5139
2026-01-27 02:36:43.91	311.32	10.29	-43.6	-46.5	16.5	0.00e+00	0	43	0	354418688	58	5150
2026-01-27 02:36:44.90	311.14	10.28	-43.6	-46.6	16.5	0.00e+00	0	43	0	355467264	58	5173
2026-01-27 02:36:45.90	310.96	10.26	-43.6	-46.5	16.5	0.00e+00	0	44	0	357564416	58	5138
2026-01-27 02:36:46.89	310.79	10.24	-43.6	-46.5	16.5	0.00e+00	0	43	0	359661568	58	5157
2026-01-27 02:36:47.89	310.61	10.22	-43.6	-46.5	16.5	0.00e+00	0	43	0	361758720	58	5142
2026-01-27 02:36:48.88	310.44	10.20	-43.5	-46.4	16.7	0.00e+00	0	44	0	362807296	58	5043
2026-01-27 02:36:49.88	310.26	10.18	-43.5	-46.4	16.6	0.00e+00	0	44	0	364904448	58	5056
2026-01-27 02:36:50.88	310.09	10.16	-43.4	-46.3	16.7	0.00e+00	0	43	0	367001600	58	5001
2026-01-27 02:36:51.87	309.92	10.14	-43.3	-46.2	16.8	0.00e+00	0	43	0	369098752	58	4976
2026-01-27 02:36:52.87	309.74	10.12	-43.3	-46.2	16.8	0.00e+00	0	44	0	371195904	58	4945
2026-01-27 02:36:53.86	309.57	10.10	-43.4	-46.4	16.7	0.00e+00	0	43	0	372244480	58	5043
2026-01-27 02:36:54.86	309.39	10.08	-43.6	-46.7	16.3	0.00e+00	0	43	0	374341632	58	5243
2026-01-27 02:36:55.85	309.22	10.06	-43.8	-47.0	16.1	0.00e+00	0	43	0	376438784	58	5411
2026-01-27 02:36:56.85	309.05	10.04	-44.1	-47.3	15.7	0.00e+00	0	43	0	378535936	58	5650
2026-01-27 02:36:57.84	308.87	10.02	-44.3	-47.7	15.3	0.00e+00	0	43	0	379584512	59	5564
2026-01-27 02:36:58.83	308.70	9.99	-44.2	-47.5	15.5	0.00e+00	0	43	0	381681664	59	5458
2026-01-27 02:36:59.83	308.53	9.97	-44.4	-47.8	15.3	0.00e+00	0	43	0	383778816	59	5611
2026-01-27 02:37:00.82	308.36	9.95	-44.2	-47.5	15.6	0.00e+00	0	44	0	385875968	59	5445
2026-01-27 02:37:01.82	308.19	9.93	-44.1	-47.5	15.6	0.00e+00	0	44	0	387973120	59	5421
2026-01-27 02:37:02.81	308.02	9.91	-44.0	-47.3	15.7	0.00e+00	0	43	0	389021696	59	5301
2026-01-27 02:37:03.81	307.84	9.88	-44.0	-47.3	15.7	0.00e+00	0	43	0	391118848	59	5300
2026-01-27 02:37:04.80	307.67	9.86	-43.9	-46.9	16.1	0.00e+00	0	44	0	393216000	59	5072
2026-01-27 02:37:05.80	307.50	9.84	-43.9	-46.9	16.1	0.00e+00	0	43	0	395313152	59	5074
2026-01-27 02:37:06.79	307.33	9.81	-44.1	-47.1	16.0	0.00e+00	0	44	0	396361728	59	5201
2026-01-27 02:37:07.79	307.16	9.79	-44.0	-47.0	16.0	0.00e+00	0	43	0	398458880	59	5141
2026-01-27 02:37:08.78	306.99	9.77	-44.0	-46.9	16.2	0.00e+00	0	43	0	400556032	59	5097
2026-01-27 02:37:09.78	306.82	9.74	-44.0	-47.0	16.0	0.00e+00	0	43	0	402653184	59	5143
2026-01-27 02:37:10.77	306.65	9.72	-44.1	-47.1	16.0	0.00e+00	0	43	0	404750336	59	5188
2026-01-27 02:37:11.77	306.48	9.69	-44.1	-47.2	15.9	0.00e+00	0	44	0	405798912	59	5221
2026-01-27 02:37:12.77	306.31	9.67	-44.2	-47.4	15.7	0.00e+00	0	44	0	407896064	59	5348
2026-01-27 02:37:13.76	306.15	9.64	-44.1	-47.2	15.8	0.00e+00	0	44	0	409993216	59	5271
2026-01-27 02:37:14.93	305.95	9.61	-44.0	-47.1	16.0	0.00e+00	0	43	0	412090368	59	5191
2026-01-27 02:37:15.81	305.80	9.59	-44.2	-47.3	15.8	0.00e+00	0	43	0	414187520	59	5308
2026-01-27 02:37:17.12	305.58	9.56	-44.3	-47.4	15.6	0.00e+00	0	44	0	416284672	59	5387
2026-01-27 02:37:17.83	305.46	9.54	-44.2	-47.3	15.8	0.00e+00	0	43	0	417333248	59	5282
2026-01-27 02:37:19.11	305.25	9.51	-44.2	-47.4	15.7	0.00e+00	0	44	0	419430400	59	5347
2026-01-27 02:37:19.87	305.12	9.49	-44.4	-47.5	15.5	0.00e+00	0	43	0	421527552	59	5458
2026-01-27 02:37:21.15	304.90	9.45	-44.3	-47.4	15.6	0.00e+00	0	44	0	423624704	59	5394
2026-01-27 02:37:21.86	304.79	9.43	-44.4	-47.6	15.4	0.00e+00	0	43	0	424673280	59	5528
2026-01-27 02:37:23.14	304.57	9.40	-44.3	-47.5	15.5	0.00e+00	0	43	0	427819008	59	5437
2026-01-27 02:37:23.96	304.44	9.38	-44.3	-47.5	15.5	0.00e+00	0	43	0	428867584	59	5444
2026-01-27 02:37:25.09	304.25	9.34	-44.3	-47.5	15.6	0.00e+00	0	44	0	430964736	59	5419
2026-01-27 02:37:25.95	304.11	9.32	-44.3	-47.6	15.5	0.00e+00	0	44	0	433061888	59	5474
2026-01-27 02:37:27.08	303.92	9.29	-44.4	-47.7	15.3	0.00e+00	0	44	0	435159040	59	5536
2026-01-27 02:37:27.94	303.78	9.27	-44.3	-47.5	15.5	0.00e+00	0	44	0	436207616	59	5459
2026-01-27 02:37:29.07	303.59	9.23	-44.4	-47.7	15.3	0.00e+00	0	44	0	438304768	59	5556
2026-01-27 02:37:29.93	303.45	9.21	-44.4	-47.7	15.4	0.00e+00	0	44	0	440401920	59	5536
2026-01-27 02:37:31.07	303.26	9.18	-44.4	-47.6	15.4	0.00e+00	0	44	0	442499072	59	5521
2026-01-27 02:37:31.92	303.12	9.15	-44.4	-47.6	15.4	0.00e+00	0	44	0	443547648	59	5476
2026-01-27 02:37:33.12	302.93	9.12	-44.3	-47.5	15.5	0.00e+00	0	44	0	446693376	59	5406
2026-01-27 02:37:33.97	302.79	9.09	-44.2	-47.4	15.6	0.00e+00	0	44	0	447741952	59	5367
2026-01-27 02:37:35.11	302.60	9.06	-44.3	-47.5	15.4	0.00e+00	0	43	0	449839104	59	5439
2026-01-27 02:37:35.96	302.47	9.03	-44.3	-47.6	15.4	0.00e+00	0	43	0	451936256	59	5472
2026-01-27 02:37:37.10	302.28	9.00	-44.5	-47.8	15.2	0.00e+00	0	43	0	454033408	59	5600
2026-01-27 02:37:37.99	302.14	8.97	-49.1	-62.9	3.8	1.23e-01	0	44	104	455081984	68	19163
2026-01-27 02:37:39.10	301.96	8.94	-49.4	-64.6	3.8	1.49e+00	0	43	104	455081984	69	21857
2026-01-27 02:37:39.95	301.82	8.91	-49.3	-64.7	3.8	1.49e+00	0	44	104	455081984	69	22224
2026-01-27 02:37:41.08	301.64	8.88	-49.6	-64.9	3.8	1.49e+00	0	44	104	455081984	69	22647
2026-01-27 02:37:41.93	301.50	8.85	-49.6	-65.0	3.8	1.49e+00	0	44	104	455081984	70	21591
2026-01-27 02:37:43.07	301.32	8.82	-49.7	-65.0	3.8	1.49e+00	0	44	104	455081984	70	21639
2026-01-27 02:37:43.92	301.19	8.79	-49.7	-65.1	3.8	1.49e+00	0	43	104	455081984	70	21802
2026-01-27 02:37:45.05	301.01	8.76	-49.7	-65.0	3.8	1.49e+00	0	44	104	455081984	70	21675
2026-01-27 02:37:45.90	300.87	8.73	-49.8	-65.1	3.8	1.49e+00	0	44	104	455081984	70	21784
2026-01-27 02:37:47.04	300.69	8.70	-49.7	-65.1	3.8	1.49e+00	0	44	104	455081984	70	21836
2026-01-27 02:37:47.89	300.56	8.67	-49.8	-65.1	3.8	1.49e+00	0	44	104	455081984	70	21792
2026-01-27 02:37:49.03	300.38	8.63	-49.8	-65.1	3.8	1.49e+00	0	43	104	455081984	70	21832
2026-01-27 02:37:49.88	300.24	8.61	-49.8	-65.1	3.8	1.49e+00	0	43	104	455081984	70	21855
2026-01-27 02:37:51.01	300.06	8.57	-49.8	-65.1	3.8	1.49e+00	0	44	104	455081984	70	21814
2026-01-27 02:37:51.86	299.93	8.54	-49.8	-65.1	3.8	1.49e+00	0	44	104	455081984	70	21920
2026-01-27 02:37:53.00	299.75	8.50	-49.8	-65.0	3.8	1.49e+00	0	44	104	455081984	70	21697
2026-01-27 02:37:53.85	299.62	8.48	-49.8	-65.1	3.8	1.49e+00	0	44	104	455081984	70	21793
2026-01-27 02:37:54.99	299.44	8.44	-49.8	-65.0	3.8	1.49e+00	0	44	104	455081984	70	21755
2026-01-27 02:37:55.84	299.31	8.41	-49.7	-65.0	3.8	1.49e+00	0	44	104	455081984	70	21738
2026-01-27 02:37:56.97	299.13	8.37	-49.7	-65.0	3.8	1.49e+00	0	44	104	455081984	70	21658
2026-01-27 02:37:57.82	299.00	8.35	-49.5	-65.0	3.8	1.49e+00	0	43	104	455081984	70	21646
2026-01-27 02:37:58.96	298.83	8.31	-49.5	-65.0	3.8	1.49e+00	0	44	104	455081984	70	21612
2026-01-27 02:37:59.81	298.70	8.28	-49.5	-64.9	3.8	1.49e+00	0	44	104	455081984	70	21506
2026-01-27 02:38:00.94	298.52	8.24	-49.5	-65.0	3.8	1.49e+00	0	44	104	455081984	70	21647
2026-01-27 02:38:01.80	298.39	8.21	-49.5	-65.0	3.8	1.49e+00	0	44	104	455081984	70	21550
2026-01-27 02:38:02.93	298.22	8.17	-49.5	-65.0	3.8	1.49e+00	0	44	104	455081984	70	21554
2026-01-27 02:38:03.78	298.09	8.15	-49.4	-64.9	3.8	1.49e+00	0	44	104	455081984	70	21492
2026-01-27 02:38:04.92	297.91	8.11	-49.4	-65.0	3.8	1.49e+00	0	44	104	455081984	70	21608
2026-01-27 02:38:05.77	297.79	8.08	-49.4	-65.0	3.8	1.49e+00	0	43	104	455081984	70	21559
2026-01-27 02:38:06.90	297.61	8.04	-49.4	-64.9	3.8	1.49e+00	0	44	104	455081984	70	21475
2026-01-27 02:38:07.75	297.49	8.01	-49.5	-64.9	3.8	1.49e+00	0	44	104	455081984	70	21421
2026-01-27 02:38:08.89	297.31	7.97	-49.4	-65.0	3.8	1.49e+00	0	44	104	455081984	70	21522
2026-01-27 02:38:09.74	297.19	7.94	-49.5	-64.9	3.8	1.49e+00	0	44	104	455081984	70	21478
2026-01-27 02:38:10.88	297.01	7.90	-49.4	-64.9	3.8	1.49e+00	0	44	104	455081984	70	21496
2026-01-27 02:38:11.73	296.89	7.87	-49.4	-64.9	3.8	1.49e+00	0	44	104	455081984	70	21459
2026-01-27 02:38:12.86	296.72	7.83	-49.4	-64.9	3.8	1.49e+00	0	44	104	455081984	70	21471
2026-01-27 02:38:13.72	296.59	7.80	-49.4	-65.0	3.8	1.49e+00	0	44	104	455081984	70	21532
2026-01-27 02:38:14.85	296.42	7.76	-49.4	-64.9	3.8	1.49e+00	0	43	104	455081984	70	21473
2026-01-27 02:38:15.71	296.30	7.73	-49.4	-65.0	3.8	1.49e+00	0	43	104	455081984	70	21522
2026-01-27 02:38:16.84	296.13	7.69	-49.4	-64.9	3.8	1.49e+00	0	44	104	455081984	70	21434
2026-01-27 02:38:17.69	296.00	7.66	-49.4	-64.9	3.8	1.49e+00	0	44	104	455081984	70	21481
2026-01-27 02:38:18.83	295.83	7.62	-49.4	-64.9	3.8	1.49e+00	0	44	104	455081984	70	21423
2026-01-27 02:38:19.68	295.71	7.59	-49.4	-64.9	3.8	1.49e+00	0	44	104	455081984	70	21451
2026-01-27 02:38:20.81	295.54	7.54	-49.4	-64.9	3.8	1.49e+00	0	44	104	455081984	70	21462
2026-01-27 02:38:21.67	295.42	7.51	-49.4	-64.9	3.8	1.49e+00	0	44	104	455081984	70	21486
2026-01-27 02:38:22.80	295.25	7.47	-49.4	-64.9	3.8	1.49e+00	0	44	104	455081984	70	21472
2026-01-27 02:38:23.65	295.13	7.44	-49.4	-64.9	3.8	1.49e+00	0	44	104	455081984	70	21460
2026-01-27 02:38:24.79	294.97	7.40	-49.4	-64.9	3.8	1.49e+00	0	44	104	455081984	70	21471
2026-01-27 02:38:25.64	294.84	7.37	-49.4	-64.9	3.8	1.49e+00	0	44	104	455081984	70	21464
2026-01-27 02:38:26.77	294.68	7.32	-49.4	-65.0	3.8	1.49e+00	0	44	104	455081984	70	21525
2026-01-27 02:38:27.62	294.56	7.29	-49.4	-64.9	3.8	1.49e+00	0	44	104	455081984	70	21306
2026-01-27 02:38:28.76	294.39	7.25	-49.4	-64.9	3.8	1.49e+00	0	44	104	455081984	70	21474
2026-01-27 02:38:29.61	294.27	7.22	-49.4	-65.0	3.8	1.49e+00	0	44	104	455081984	70	21511
2026-01-27 02:38:30.75	294.11	7.18	-49.4	-65.0	3.8	1.49e+00	0	44	104	455081984	70	21517
2026-01-27 02:38:31.60	293.99	7.14	-49.4	-64.9	3.8	1.49e+00	0	44	104	455081984	70	21418
2026-01-27 02:38:32.73	293.83	7.10	-49.4	-65.0	3.8	1.49e+00	0	44	104	455081984	70	21517
2026-01-27 02:38:33.59	293.71	7.07	-49.4	-64.9	3.8	1.49e+00	0	44	104	455081984	70	21380
2026-01-27 02:38:34.72	293.55	7.03	-49.5	-64.9	3.8	1.49e+00	0	44	104	455081984	70	21462
2026-01-27 02:38:35.57	293.43	6.99	-49.4	-65.0	3.8	1.49e+00	0	44	104	455081984	70	21533
2026-01-27 02:38:36.71	293.27	6.95	-49.4	-64.9	3.8	1.49e+00	0	44	104	455081984	70	21435
2026-01-27 02:38:37.56	293.15	6.92	-49.4	-64.9	3.8	1.49e+00	0	44	104	455081984	70	21502
2026-01-27 02:38:38.70	292.99	6.87	-49.4	-64.9	3.8	1.49e+00	0	44	104	455081984	70	21491
2026-01-27 02:38:39.55	292.87	6.84	-49.4	-64.9	3.8	1.49e+00	0	44	104	455081984	70	21400
2026-01-27 02:38:40.68	292.71	6.80	-49.4	-64.9	3.8	1.49e+00	0	44	104	455081984	70	21439
2026-01-27 02:38:41.53	292.59	6.76	-49.4	-64.9	3.8	1.49e+00	0	44	104	455081984	70	21478
2026-01-27 02:38:42.67	292.44	6.72	-49.4	-65.0	3.8	1.49e+00	0	44	104	455081984	70	21585
2026-01-27 02:38:43.52	292.32	6.69	-49.4	-64.9	3.8	1.49e+00	0	44	104	455081984	70	21488
2026-01-27 02:38:44.66	292.16	6.64	-49.4	-64.9	3.8	1.49e+00	0	44	104	455081984	70	21464
2026-01-27 02:38:45.51	292.05	6.61	-49.4	-65.0	3.8	1.49e+00	0	44	104	455081984	70	21536
2026-01-27 02:38:46.64	291.89	6.57	-49.4	-65.0	3.8	1.49e+00	0	43	104	455081984	70	21530
2026-01-27 02:38:47.50	291.77	6.53	-49.4	-64.9	3.8	1.49e+00	0	44	104	455081984	70	21393
2026-01-27 02:38:48.63	291.62	6.49	-49.4	-64.9	3.8	1.49e+00	0	44	104	455081984	70	21495
2026-01-27 02:38:49.48	291.51	6.45	-49.4	-64.9	3.8	1.49e+00	0	44	104	455081984	70	21454
2026-01-27 02:38:50.62	291.35	6.41	-49.4	-65.0	3.8	1.49e+00	0	44	104	455081984	70	21513
2026-01-27 02:38:51.47	291.24	6.38	-49.4	-64.9	3.8	1.49e+00	0	44	104	455081984	70	21465
2026-01-27 02:38:52.61	291.08	6.33	-49.4	-64.9	3.8	1.49e+00	0	44	104	455081984	70	21455
2026-01-27 02:38:53.46	290.97	6.30	-49.4	-64.9	3.8	1.49e+00	0	44	104	455081984	70	21504
2026-01-27 02:38:54.59	290.82	6.25	-49.4	-64.9	3.8	1.49e+00	0	44	104	455081984	70	21492
2026-01-27 02:38:55.44	290.70	6.22	-49.4	-64.9	3.8	1.49e+00	0	44	104	455081984	70	21467
2026-01-27 02:38:56.58	290.55	6.17	-49.4	-64.9	3.8	1.49e+00	0	44	104	455081984	70	21474
2026-01-27 02:38:57.43	290.44	6.14	-49.4	-64.9	3.8	1.49e+00	0	44	104	455081984	70	21496
2026-01-27 02:38:58.57	290.29	6.09	-49.4	-65.0	3.8	1.49e+00	0	44	104	455081984	70	21510
2026-01-27 02:38:59.42	290.18	6.06	-49.4	-64.9	3.8	1.49e+00	0	44	104	455081984	70	21465
2026-01-27 02:39:00.55	290.03	6.01	-49.4	-64.9	3.8	1.49e+00	0	44	104	455081984	70	21463
2026-01-27 02:39:01.40	289.92	5.98	-49.4	-64.9	3.8	1.49e+00	0	44	104	455081984	70	21398
2026-01-27 02:39:02.54	289.77	5.93	-49.4	-64.9	3.8	1.49e+00	0	44	104	455081984	70	21432
2026-01-27 02:39:03.39	289.66	5.90	-49.4	-64.9	3.8	1.49e+00	0	44	104	455081984	70	21472
2026-01-27 02:39:04.53	289.51	5.85	-49.4	-64.9	3.8	1.49e+00	0	44	104	455081984	70	21438
2026-01-27 02:39:05.38	289.40	5.82	-49.4	-64.9	3.8	1.49e+00	0	44	104	455081984	70	21412
2026-01-27 02:39:06.51	289.25	5.77	-49.4	-64.9	3.8	1.49e+00	0	43	104	455081984	70	21452
2026-01-27 02:39:07.36	289.14	5.74	-49.4	-64.9	3.8	1.49e+00	0	44	104	455081984	70	21449
2026-01-27 02:39:08.50	288.99	5.69	-49.4	-64.9	3.8	1.49e+00	0	44	104	455081984	70	21479
2026-01-27 02:39:09.35	288.88	5.65	-49.4	-64.9	3.8	1.49e+00	0	43	104	455081984	70	21465
2026-01-27 02:39:10.49	288.74	5.61	-49.4	-64.9	3.8	1.49e+00	0	44	104	455081984	70	21448
2026-01-27 02:39:11.34	288.63	5.57	-49.4	-64.9	3.8	1.49e+00	0	44	104	455081984	70	21492
2026-01-27 02:39:12.47	288.49	5.53	-49.4	-65.0	3.8	1.49e+00	0	44	104	455081984	70	21525
2026-01-27 02:39:13.33	288.38	5.49	-49.4	-64.9	3.8	1.49e+00	0	44	104	455081984	70	21437
2026-01-27 02:39:14.46	288.23	5.44	-49.4	-64.9	3.8	1.49e+00	0	44	104	455081984	70	21418
2026-01-27 02:39:15.31	288.13	5.41	-49.4	-64.9	3.8	1.49e+00	0	43	104	455081984	70	21438
2026-01-27 02:39:16.45	287.98	5.36	-49.4	-64.9	3.8	1.49e+00	0	44	104	455081984	70	21458
2026-01-27 02:39:17.30	287.88	5.33	-49.4	-64.9	3.8	1.49e+00	0	44	104	455081984	70	21477
2026-01-27 02:39:18.44	287.73	5.28	-49.4	-64.9	3.8	1.49e+00	0	44	104	455081984	70	21365
2026-01-27 02:39:19.29	287.63	5.24	-49.4	-64.9	3.8	1.49e+00	0	44	104	455081984	70	21433
2026-01-27 02:39:20.42	287.49	5.20	-49.4	-64.9	3.8	1.49e+00	0	44	104	455081984	70	21436
2026-01-27 02:39:21.27	287.38	5.16	-49.4	-64.9	3.8	1.49e+00	0	44	104	455081984	70	21405
2026-01-27 02:39:22.41	287.24	5.11	-49.4	-64.9	3.8	1.49e+00	0	44	104	455081984	70	21394
2026-01-27 02:39:23.26	287.14	5.08	-49.4	-64.9	3.8	1.49e+00	0	43	104	455081984	70	21435
2026-01-27 02:39:24.39	287.00	5.03	-49.4	-64.9	3.8	1.49e+00	0	44	104	455081984	70	21472
2026-01-27 02:39:25.25	286.89	4.99	-49.4	-64.9	3.8	1.49e+00	0	44	104	455081984	70	21464

#Closed at: 2026-01-27 02:39:26
#Recorded file [455 MB]: D:/Data/31040_260127_053151.dat