passes_logs/2025/01/22/planumMaritime01/planumMaritime01__20250122_075951_NOAA_18_rec.log

#Pass ID: 20250122_075951_NOAA 18
#Satellite: NOAA 18
#Configuration: NOAA 18
#Start time: 2025-01-22 07:59:56.871156

#LorettStation: 1.0.0 05.05.2024
#Station: planumMaritime01
#Location: 37.49445 lon 55.92918 lat
#TLE: 1 28654U 05018A   25021.17963601  .00000484  00000+0  28040-3 0  9994
#TLE: 2 28654  98.8557 102.1724 0014626 162.0619 198.1073 14.13492794 14053

#Time	Az	El	Level	SNR
2025-01-22 07:59:59.031901	29.8	10.2	-66.3	0.0
2025-01-22 08:00:00.158614	29.9	10.2	-66.0	0.0
2025-01-22 08:00:01.285735	30.0	10.3	-66.1	0.0
2025-01-22 08:00:02.412301	30.1	10.4	-66.4	0.0
2025-01-22 08:00:03.541978	30.2	10.5	-64.6	0.0
2025-01-22 08:00:04.667974	30.3	10.6	-65.5	0.0
2025-01-22 08:00:05.796536	30.4	10.7	-64.5	0.0
2025-01-22 08:00:06.921997	30.5	10.8	-64.0	0.0
2025-01-22 08:00:08.047787	30.6	10.9	-66.4	0.0
2025-01-22 08:00:09.175657	30.7	10.9	-66.3	0.0
2025-01-22 08:00:10.302906	30.8	11.0	-67.2	0.0
2025-01-22 08:00:11.430905	30.9	11.1	-66.7	0.0
2025-01-22 08:00:12.557262	31.0	11.2	-64.8	0.0
2025-01-22 08:00:13.684445	31.1	11.3	-66.9	0.0
2025-01-22 08:00:14.812356	31.2	11.4	-64.4	0.0
2025-01-22 08:00:15.935916	31.3	11.5	-66.2	0.0
2025-01-22 08:00:17.061790	31.4	11.6	-65.5	0.0
2025-01-22 08:00:18.190006	31.5	11.7	-60.4	0.0
2025-01-22 08:00:19.314977	31.6	11.7	-65.2	0.0
2025-01-22 08:00:20.441037	31.7	11.8	-64.8	0.0
2025-01-22 08:00:21.568102	31.8	11.9	-65.5	0.0
2025-01-22 08:00:22.694136	31.9	12.0	-65.5	0.0
2025-01-22 08:00:23.821229	32.0	12.1	-64.9	0.0
2025-01-22 08:00:24.948142	32.1	12.2	-65.8	0.0
2025-01-22 08:00:26.072873	32.2	12.3	-62.8	0.0
2025-01-22 08:00:27.198080	32.3	12.4	-66.1	0.0
2025-01-22 08:00:28.325004	32.4	12.5	-65.8	0.0
2025-01-22 08:00:29.451165	32.5	12.6	-65.4	0.0
2025-01-22 08:00:30.578778	32.7	12.7	-67.1	0.0
2025-01-22 08:00:31.703821	32.8	12.7	-65.2	0.0
2025-01-22 08:00:32.828387	32.9	12.8	-65.0	0.0
2025-01-22 08:00:33.953932	33.0	12.9	-66.2	0.0
2025-01-22 08:00:35.079161	33.1	13.0	-67.3	0.0
2025-01-22 08:00:36.203950	33.2	13.1	-67.2	0.0
2025-01-22 08:00:37.329555	33.3	13.2	-66.8	0.0
2025-01-22 08:00:38.457059	33.4	13.3	-66.3	0.0
2025-01-22 08:00:39.584369	33.6	13.4	-68.0	0.0
2025-01-22 08:00:40.710303	33.7	13.5	-66.9	0.0
2025-01-22 08:00:41.837769	33.8	13.6	-66.1	0.0
2025-01-22 08:00:42.966602	33.9	13.7	-66.5	0.0
2025-01-22 08:00:44.093029	34.0	13.8	-63.5	0.0
2025-01-22 08:00:45.219443	34.2	13.9	-66.0	0.0
2025-01-22 08:00:46.346497	34.3	14.0	-66.0	0.0
2025-01-22 08:00:47.473564	34.4	14.1	-64.6	0.0
2025-01-22 08:00:48.599675	34.5	14.2	-65.7	0.0
2025-01-22 08:00:49.725076	34.6	14.3	-66.8	0.0
2025-01-22 08:00:50.850760	34.8	14.4	-67.0	0.0
2025-01-22 08:00:51.976441	34.9	14.5	-68.0	0.0
2025-01-22 08:00:53.104789	35.0	14.6	-66.8	0.0
2025-01-22 08:00:54.230499	35.1	14.7	-64.7	0.0
2025-01-22 08:00:55.355964	35.3	14.8	-65.9	0.0
2025-01-22 08:00:56.482823	35.4	14.9	-68.2	0.0
2025-01-22 08:00:57.609251	35.5	15.0	-65.1	0.0
2025-01-22 08:00:58.735125	35.7	15.1	-66.7	0.0
2025-01-22 08:00:59.858666	35.8	15.1	-67.3	0.0
2025-01-22 08:01:00.985090	35.9	15.2	-67.4	0.0
2025-01-22 08:01:02.113847	36.1	15.3	-63.0	0.0
2025-01-22 08:01:03.240288	36.2	15.4	-67.8	0.0
2025-01-22 08:01:04.367616	36.3	15.5	-67.7	0.0
2025-01-22 08:01:05.494043	36.5	15.6	-66.7	0.0
2025-01-22 08:01:06.620972	36.6	15.8	-67.3	0.0
2025-01-22 08:01:07.745267	36.7	15.9	-67.1	0.0
2025-01-22 08:01:08.871660	36.9	16.0	-68.5	0.0
2025-01-22 08:01:09.998512	37.0	16.1	-68.4	0.0
2025-01-22 08:01:11.125265	37.1	16.2	-68.0	0.0
2025-01-22 08:01:12.253351	37.3	16.3	-67.7	0.0
2025-01-22 08:01:13.380412	37.4	16.4	-66.6	0.0
2025-01-22 08:01:14.508179	37.6	16.5	-69.2	0.0
2025-01-22 08:01:15.634790	37.7	16.6	-67.4	0.0
2025-01-22 08:01:16.762548	37.8	16.7	-67.3	0.0
2025-01-22 08:01:17.890530	38.0	16.8	-68.9	0.0
2025-01-22 08:01:19.016417	38.1	16.9	-67.7	0.0
2025-01-22 08:01:20.141228	38.3	17.0	-63.6	0.0
2025-01-22 08:01:21.266479	38.4	17.1	-66.8	0.0
2025-01-22 08:01:22.392884	38.6	17.2	-67.6	0.0
2025-01-22 08:01:23.520538	38.7	17.3	-67.4	0.0
2025-01-22 08:01:24.648724	38.9	17.4	-66.1	0.0
2025-01-22 08:01:25.775530	39.0	17.5	-64.6	0.0
2025-01-22 08:01:26.900475	39.2	17.6	-66.2	0.0
2025-01-22 08:01:28.025395	39.3	17.7	-65.1	0.0
2025-01-22 08:01:29.151365	39.5	17.8	-65.8	0.0
2025-01-22 08:01:30.277095	39.6	17.9	-65.4	0.0
2025-01-22 08:01:31.401985	39.8	18.0	-65.8	0.0
2025-01-22 08:01:32.527815	40.0	18.1	-66.7	0.0
2025-01-22 08:01:33.654925	40.1	18.3	-60.0	0.0
2025-01-22 08:01:34.781234	40.3	18.4	-64.2	0.0
2025-01-22 08:01:35.906672	40.4	18.5	-67.0	0.0
2025-01-22 08:01:37.031722	40.6	18.6	-63.7	0.0
2025-01-22 08:01:38.156193	40.8	18.7	-65.7	0.0
2025-01-22 08:01:39.284464	40.9	18.8	-66.0	0.0
2025-01-22 08:01:40.411046	41.1	18.9	-65.4	0.0
2025-01-22 08:01:41.536705	41.3	19.0	-64.9	0.0
2025-01-22 08:01:42.662697	41.4	19.1	-67.5	0.0
2025-01-22 08:01:43.789082	41.6	19.2	-67.1	0.0
2025-01-22 08:01:44.915731	41.8	19.3	-66.0	0.0
2025-01-22 08:01:46.041671	41.9	19.4	-67.7	0.0
2025-01-22 08:01:47.166350	42.1	19.6	-67.9	0.0
2025-01-22 08:01:48.292297	42.3	19.7	-67.9	0.0
2025-01-22 08:01:49.418803	42.5	19.8	-67.1	0.0
2025-01-22 08:01:50.546031	42.6	19.9	-62.1	0.0
2025-01-22 08:01:51.671337	42.8	20.0	-63.4	0.0
2025-01-22 08:01:52.797805	43.0	20.1	-66.1	0.0
2025-01-22 08:01:53.922785	43.2	20.2	-65.4	0.0
2025-01-22 08:01:55.050878	43.4	20.3	-66.1	0.0
2025-01-22 08:01:56.178370	43.5	20.4	-64.8	0.0
2025-01-22 08:01:57.302811	43.7	20.6	-63.9	0.0
2025-01-22 08:01:58.429496	43.9	20.7	-66.5	0.0
2025-01-22 08:01:59.555613	44.1	20.8	-65.3	0.0
2025-01-22 08:02:00.681542	44.3	20.9	-65.7	0.0
2025-01-22 08:02:01.807084	44.5	21.0	-63.9	0.0
2025-01-22 08:02:02.933266	44.7	21.1	-64.5	0.0
2025-01-22 08:02:04.060400	44.9	21.2	-65.3	0.0
2025-01-22 08:02:05.185554	45.0	21.4	-64.1	0.0
2025-01-22 08:02:06.312380	45.2	21.5	-66.3	0.0
2025-01-22 08:02:07.436663	45.4	21.6	-63.6	0.0
2025-01-22 08:02:08.562763	45.6	21.7	-66.8	0.0
2025-01-22 08:02:09.685531	45.8	21.8	-65.4	0.0
2025-01-22 08:02:10.813071	46.0	21.9	-65.9	0.0
2025-01-22 08:02:11.940043	46.2	22.0	-64.8	0.0
2025-01-22 08:02:13.066747	46.4	22.2	-64.6	0.0
2025-01-22 08:02:14.192356	46.6	22.3	-64.3	0.0
2025-01-22 08:02:15.318102	46.8	22.4	-65.7	0.0
2025-01-22 08:02:16.444921	47.1	22.5	-67.9	0.0
2025-01-22 08:02:17.570799	47.3	22.6	-65.9	0.0
2025-01-22 08:02:18.697315	47.5	22.7	-66.6	0.0
2025-01-22 08:02:19.823008	47.7	22.8	-64.8	0.0
2025-01-22 08:02:20.948507	47.9	23.0	-64.8	0.0
2025-01-22 08:02:22.075217	48.1	23.1	-64.4	0.0
2025-01-22 08:02:23.201175	48.3	23.2	-65.0	0.0
2025-01-22 08:02:24.327667	48.5	23.3	-66.1	0.0
2025-01-22 08:02:25.453882	48.8	23.4	-64.4	0.0
2025-01-22 08:02:26.581300	49.0	23.5	-64.3	0.0
2025-01-22 08:02:27.708034	49.2	23.7	-65.5	0.0
2025-01-22 08:02:28.835414	49.4	23.8	-65.5	0.0
2025-01-22 08:02:29.960885	49.7	23.9	-66.5	0.0
2025-01-22 08:02:31.086157	49.9	24.0	-65.2	0.0
2025-01-22 08:02:32.211953	50.1	24.1	-67.2	0.0
2025-01-22 08:02:33.337871	50.4	24.2	-66.0	0.0
2025-01-22 08:02:34.464657	50.6	24.4	-66.4	0.0
2025-01-22 08:02:35.591662	50.8	24.5	-65.2	0.0
2025-01-22 08:02:36.717986	51.1	24.6	-66.3	0.0
2025-01-22 08:02:37.841500	51.3	24.7	-64.0	0.0
2025-01-22 08:02:38.966650	51.5	24.8	-67.4	0.0
2025-01-22 08:02:40.092568	51.8	24.9	-66.7	0.0
2025-01-22 08:02:41.218589	52.0	25.1	-66.2	0.0
2025-01-22 08:02:42.345269	52.3	25.2	-68.1	0.0
2025-01-22 08:02:43.472270	52.5	25.3	-67.1	0.0
2025-01-22 08:02:44.597876	52.8	25.4	-67.9	0.0
2025-01-22 08:02:45.724431	53.0	25.5	-67.8	0.0
2025-01-22 08:02:46.850249	53.3	25.7	-65.9	0.0
2025-01-22 08:02:47.975183	53.5	25.8	-65.2	0.0
2025-01-22 08:02:49.101727	53.8	25.9	-66.7	0.0
2025-01-22 08:02:50.227758	54.0	26.0	-68.4	0.0
2025-01-22 08:02:51.353286	54.3	26.1	-67.5	0.0
2025-01-22 08:02:52.479619	54.6	26.2	-67.1	0.0
2025-01-22 08:02:53.607471	54.8	26.4	-65.2	0.0
2025-01-22 08:02:54.734684	55.1	26.5	-67.0	0.0
2025-01-22 08:02:55.860824	55.4	26.6	-68.5	0.0
2025-01-22 08:02:56.986386	55.6	26.7	-64.2	0.0
2025-01-22 08:02:58.113126	55.9	26.8	-66.1	0.0
2025-01-22 08:02:59.240277	56.2	26.9	-67.7	0.0
2025-01-22 08:03:00.366487	56.4	27.0	-67.4	0.0
2025-01-22 08:03:01.492938	56.7	27.2	-66.9	0.0
2025-01-22 08:03:02.617791	57.0	27.3	-68.2	0.0
2025-01-22 08:03:03.742016	57.3	27.4	-66.6	0.0
2025-01-22 08:03:04.867388	57.6	27.5	-68.3	0.0
2025-01-22 08:03:05.993168	57.9	27.6	-67.0	0.0
2025-01-22 08:03:07.118120	58.1	27.7	-67.5	0.0
2025-01-22 08:03:08.243586	58.4	27.8	-68.3	0.0
2025-01-22 08:03:09.368634	58.7	28.0	-67.2	0.0
2025-01-22 08:03:10.495224	59.0	28.1	-67.8	0.0
2025-01-22 08:03:11.622377	59.3	28.2	-68.6	0.0
2025-01-22 08:03:12.748766	59.6	28.3	-68.3	0.0
2025-01-22 08:03:13.874921	59.9	28.4	-69.1	0.0
2025-01-22 08:03:15.001495	60.2	28.5	-68.5	0.0
2025-01-22 08:03:16.126487	60.5	28.6	-69.9	0.0
2025-01-22 08:03:17.252432	60.8	28.7	-68.4	0.0
2025-01-22 08:03:18.378878	61.1	28.9	-68.9	0.0
2025-01-22 08:03:19.503247	61.4	29.0	-69.3	0.0
2025-01-22 08:03:20.628692	61.7	29.1	-69.9	0.0
2025-01-22 08:03:21.756196	62.1	29.2	-69.2	0.0
2025-01-22 08:03:22.880486	62.4	29.3	-69.7	0.0
2025-01-22 08:03:24.007246	62.7	29.4	-70.1	0.0
2025-01-22 08:03:25.133350	63.0	29.5	-67.6	0.0
2025-01-22 08:03:26.260631	63.3	29.6	-70.8	0.0
2025-01-22 08:03:27.387093	63.7	29.7	-69.8	0.0
2025-01-22 08:03:28.513063	64.0	29.8	-71.1	0.0
2025-01-22 08:03:29.638346	64.3	29.9	-70.1	0.0
2025-01-22 08:03:30.765638	64.6	30.0	-71.5	0.0
2025-01-22 08:03:31.893309	65.0	30.1	-69.9	0.0
2025-01-22 08:03:33.017646	65.3	30.2	-70.0	0.0
2025-01-22 08:03:34.141626	65.6	30.3	-70.4	0.0
2025-01-22 08:03:35.267947	66.0	30.4	-69.8	0.0
2025-01-22 08:03:36.394190	66.3	30.5	-71.0	0.0
2025-01-22 08:03:37.520491	66.7	30.6	-69.6	0.0
2025-01-22 08:03:38.647718	67.0	30.7	-70.3	0.0
2025-01-22 08:03:39.773119	67.4	30.8	-72.1	0.0
2025-01-22 08:03:40.897519	67.7	30.9	-70.9	0.0
2025-01-22 08:03:42.022104	68.1	31.0	-71.3	0.0
2025-01-22 08:03:43.148242	68.4	31.1	-71.2	0.0
2025-01-22 08:03:44.273516	68.8	31.2	-72.3	0.0
2025-01-22 08:03:45.398491	69.1	31.3	-70.6	0.0
2025-01-22 08:03:46.524751	69.5	31.4	-71.3	0.0
2025-01-22 08:03:47.651901	69.9	31.5	-72.8	0.0
2025-01-22 08:03:48.778299	70.2	31.6	-72.9	0.0
2025-01-22 08:03:49.903694	70.6	31.7	-72.5	0.0
2025-01-22 08:03:51.030021	71.0	31.8	-72.1	0.0
2025-01-22 08:03:52.156913	71.3	31.9	-71.4	0.0
2025-01-22 08:03:53.283540	71.7	32.0	-71.7	0.0
2025-01-22 08:03:54.410262	72.1	32.0	-70.9	0.0
2025-01-22 08:03:55.539713	72.5	32.1	-71.5	0.0
2025-01-22 08:03:56.666596	72.8	32.2	-71.6	0.0
2025-01-22 08:03:57.793897	73.2	32.3	-72.4	0.0
2025-01-22 08:03:58.920890	73.6	32.4	-73.5	0.0
2025-01-22 08:04:00.046641	74.0	32.5	-72.5	0.0
2025-01-22 08:04:01.171076	74.4	32.5	-72.6	0.0
2025-01-22 08:04:02.297893	74.8	32.6	-72.3	0.0
2025-01-22 08:04:03.425790	75.1	32.7	-72.0	0.0
2025-01-22 08:04:04.553194	75.5	32.8	-74.1	0.0
2025-01-22 08:04:05.680119	75.9	32.8	-73.3	0.0
2025-01-22 08:04:06.807754	76.3	32.9	-73.2	0.0
2025-01-22 08:04:07.935515	76.7	33.0	-69.8	0.0
2025-01-22 08:04:09.062370	77.1	33.1	-74.1	0.0
2025-01-22 08:04:10.189775	77.5	33.1	-73.4	0.0
2025-01-22 08:04:11.316021	77.9	33.2	-72.7	0.0
2025-01-22 08:04:12.441922	78.3	33.3	-73.3	0.0
2025-01-22 08:04:13.568706	78.7	33.3	-73.3	0.0
2025-01-22 08:04:14.694739	79.1	33.4	-72.6	0.0
2025-01-22 08:04:15.821313	79.5	33.5	-73.2	0.0
2025-01-22 08:04:16.947444	80.0	33.5	-73.6	0.0
2025-01-22 08:04:18.073703	80.4	33.6	-72.6	0.0
2025-01-22 08:04:19.199546	80.8	33.6	-73.6	0.0
2025-01-22 08:04:20.325435	81.2	33.7	-73.9	0.0
2025-01-22 08:04:21.450824	81.6	33.7	-74.2	0.0
2025-01-22 08:04:22.577452	82.0	33.8	-73.3	0.0
2025-01-22 08:04:23.703336	82.4	33.9	-72.7	0.0
2025-01-22 08:04:24.828536	82.9	33.9	-73.1	0.0
2025-01-22 08:04:25.953012	83.3	34.0	-72.8	0.0
2025-01-22 08:04:27.079664	83.7	34.0	-72.8	0.0
2025-01-22 08:04:28.206303	84.1	34.0	-72.4	0.0
2025-01-22 08:04:29.331527	84.6	34.1	-72.7	0.0
2025-01-22 08:04:30.458043	85.0	34.1	-72.2	0.0
2025-01-22 08:04:31.583529	85.4	34.2	-71.8	0.0
2025-01-22 08:04:32.709886	85.8	34.2	-73.1	0.0
2025-01-22 08:04:33.835974	86.3	34.2	-73.1	0.0
2025-01-22 08:04:34.961677	86.7	34.3	-71.6	0.0
2025-01-22 08:04:36.088227	87.1	34.3	-73.2	0.0
2025-01-22 08:04:37.216233	87.6	34.3	-72.6	0.0
2025-01-22 08:04:38.340921	88.0	34.4	-72.1	0.0
2025-01-22 08:04:39.469549	88.4	34.4	-72.2	0.0
2025-01-22 08:04:40.595648	88.9	34.4	-72.6	0.0
2025-01-22 08:04:41.722036	89.3	34.5	-71.7	0.0
2025-01-22 08:04:42.848322	89.7	34.5	-72.4	0.0
2025-01-22 08:04:43.976304	90.2	34.5	-71.8	0.0
2025-01-22 08:04:45.103378	90.6	34.5	-72.9	0.0
2025-01-22 08:04:46.227612	91.0	34.5	-72.0	0.0
2025-01-22 08:04:47.354670	91.5	34.5	-72.0	0.0
2025-01-22 08:04:48.480218	91.9	34.6	-72.6	0.0
2025-01-22 08:04:49.607564	92.4	34.6	-71.2	0.0
2025-01-22 08:04:50.730956	92.8	34.6	-71.5	0.0
2025-01-22 08:04:51.857842	93.2	34.6	-71.4	0.0
2025-01-22 08:04:52.984129	93.7	34.6	-70.9	0.0
2025-01-22 08:04:54.111609	94.1	34.6	-71.2	0.0
2025-01-22 08:04:55.238059	94.6	34.6	-70.4	0.0
2025-01-22 08:04:56.364080	95.0	34.6	-71.0	0.0
2025-01-22 08:04:57.490138	95.4	34.6	-70.8	0.0
2025-01-22 08:04:58.617827	95.9	34.6	-70.9	0.0
2025-01-22 08:04:59.744720	96.3	34.6	-71.1	0.0
2025-01-22 08:05:00.870946	96.7	34.6	-70.8	0.0
2025-01-22 08:05:01.995859	97.2	34.6	-71.9	0.0
2025-01-22 08:05:03.122047	97.6	34.6	-71.6	0.0
2025-01-22 08:05:04.247253	98.1	34.6	-72.0	0.0
2025-01-22 08:05:05.374511	98.5	34.5	-71.5	0.0
2025-01-22 08:05:06.499467	98.9	34.5	-70.7	0.0
2025-01-22 08:05:07.627920	99.4	34.5	-72.0	0.0
2025-01-22 08:05:08.755621	99.8	34.5	-72.1	0.0
2025-01-22 08:05:09.883112	100.3	34.5	-70.7	0.0
2025-01-22 08:05:11.009386	100.7	34.4	-72.2	0.0
2025-01-22 08:05:12.136071	101.1	34.4	-71.2	0.0
2025-01-22 08:05:13.263084	101.6	34.4	-71.5	0.0
2025-01-22 08:05:14.389597	102.0	34.4	-71.6	0.0
2025-01-22 08:05:15.515833	102.4	34.3	-71.7	0.0
2025-01-22 08:05:16.642539	102.9	34.3	-72.3	0.0
2025-01-22 08:05:17.768657	103.3	34.3	-71.0	0.0
2025-01-22 08:05:18.895488	103.7	34.2	-70.6	0.0
2025-01-22 08:05:20.021069	104.1	34.2	-70.7	0.0
2025-01-22 08:05:21.148116	104.6	34.2	-72.9	0.0
2025-01-22 08:05:22.274178	105.0	34.1	-72.6	0.0
2025-01-22 08:05:23.399522	105.4	34.1	-72.8	0.0
2025-01-22 08:05:24.524575	105.9	34.0	-72.7	0.0
2025-01-22 08:05:25.650603	106.3	34.0	-71.4	0.0
2025-01-22 08:05:26.776334	106.7	33.9	-69.9	0.0
2025-01-22 08:05:27.902852	107.1	33.9	-69.8	0.0
2025-01-22 08:05:29.029589	107.5	33.8	-73.1	0.0
2025-01-22 08:05:30.154999	108.0	33.8	-70.1	0.0
2025-01-22 08:05:31.280007	108.4	33.7	-70.3	0.0
2025-01-22 08:05:32.405824	108.8	33.7	-70.8	0.0
2025-01-22 08:05:33.531380	109.2	33.6	-70.7	0.0
2025-01-22 08:05:34.654663	109.6	33.6	-70.4	0.0
2025-01-22 08:05:35.780548	110.0	33.5	-73.2	0.0
2025-01-22 08:05:36.906599	110.5	33.4	-71.5	0.0
2025-01-22 08:05:38.032609	110.9	33.4	-73.8	0.0
2025-01-22 08:05:39.158580	111.3	33.3	-72.0	0.0
2025-01-22 08:05:40.284789	111.7	33.2	-72.2	0.0
2025-01-22 08:05:41.411306	112.1	33.2	-71.0	0.0
2025-01-22 08:05:42.538555	112.5	33.1	-71.8	0.0
2025-01-22 08:05:43.664655	112.9	33.0	-70.9	0.0
2025-01-22 08:05:44.790467	113.3	33.0	-72.2	0.0
2025-01-22 08:05:45.917438	113.7	32.9	-72.2	0.0
2025-01-22 08:05:47.045562	114.1	32.8	-73.1	0.0
2025-01-22 08:05:48.172628	114.5	32.7	-72.2	0.0
2025-01-22 08:05:49.299852	114.9	32.7	-72.6	0.0
2025-01-22 08:05:50.426740	115.3	32.6	-73.5	0.0
2025-01-22 08:05:51.551331	115.6	32.5	-72.2	0.0
2025-01-22 08:05:52.677459	116.0	32.4	-73.4	0.0
2025-01-22 08:05:53.804228	116.4	32.3	-71.5	0.0
2025-01-22 08:05:54.929544	116.8	32.3	-73.0	0.0
2025-01-22 08:05:56.056337	117.2	32.2	-73.3	0.0
2025-01-22 08:05:57.182993	117.6	32.1	-72.1	0.0
2025-01-22 08:05:58.310985	117.9	32.0	-71.6	0.0
2025-01-22 08:05:59.437214	118.3	31.9	-71.9	0.0
2025-01-22 08:06:00.563121	118.7	31.8	-71.3	0.0
2025-01-22 08:06:01.688716	119.1	31.7	-72.7	0.0
2025-01-22 08:06:02.816169	119.4	31.7	-73.0	0.0
2025-01-22 08:06:03.941368	119.8	31.6	-72.5	0.0
2025-01-22 08:06:05.065884	120.2	31.5	-72.4	0.0
2025-01-22 08:06:06.193166	120.5	31.4	-71.6	0.0
2025-01-22 08:06:07.319600	120.9	31.3	-72.9	0.0
2025-01-22 08:06:08.446161	121.2	31.2	-72.3	0.0
2025-01-22 08:06:09.572582	121.6	31.1	-71.2	0.0
2025-01-22 08:06:10.699251	122.0	31.0	-72.4	0.0
2025-01-22 08:06:11.825896	122.3	30.9	-71.6	0.0
2025-01-22 08:06:12.951647	122.7	30.8	-71.2	0.0
2025-01-22 08:06:14.078168	123.0	30.7	-72.5	0.0
2025-01-22 08:06:15.203928	123.4	30.6	-72.0	0.0
2025-01-22 08:06:16.330113	123.7	30.5	-71.2	0.0
2025-01-22 08:06:17.456196	124.0	30.4	-71.2	0.0
2025-01-22 08:06:18.582742	124.4	30.3	-72.2	0.0
2025-01-22 08:06:19.709222	124.7	30.2	-71.5	0.0
2025-01-22 08:06:20.834900	125.1	30.1	-70.8	0.0
2025-01-22 08:06:21.962485	125.4	30.0	-70.8	0.0
2025-01-22 08:06:23.088907	125.7	29.9	-71.3	0.0
2025-01-22 08:06:24.214720	126.1	29.8	-70.2	0.0
2025-01-22 08:06:25.340556	126.4	29.7	-70.6	0.0
2025-01-22 08:06:26.465661	126.7	29.6	-71.3	0.0
2025-01-22 08:06:27.591119	127.0	29.4	-71.6	0.0
2025-01-22 08:06:28.717049	127.4	29.3	-71.7	0.0
2025-01-22 08:06:29.842408	127.7	29.2	-71.0	0.0
2025-01-22 08:06:30.969277	128.0	29.1	-71.7	0.0
2025-01-22 08:06:32.097227	128.3	29.0	-71.1	0.0
2025-01-22 08:06:33.225645	128.6	28.9	-70.8	0.0
2025-01-22 08:06:34.353653	128.9	28.8	-70.7	0.0
2025-01-22 08:06:35.480787	129.2	28.7	-71.5	0.0
2025-01-22 08:06:36.605967	129.5	28.6	-72.0	0.0
2025-01-22 08:06:37.735524	129.9	28.4	-71.2	0.0
2025-01-22 08:06:38.861399	130.2	28.3	-70.5	0.0
2025-01-22 08:06:39.988871	130.5	28.2	-70.8	0.0
2025-01-22 08:06:41.114684	130.8	28.1	-69.7	0.0
2025-01-22 08:06:42.242602	131.1	28.0	-71.1	0.0
2025-01-22 08:06:43.368909	131.3	27.9	-71.0	0.0
2025-01-22 08:06:44.496348	131.6	27.8	-73.0	0.0
2025-01-22 08:06:45.621704	131.9	27.7	-71.3	0.0
2025-01-22 08:06:46.749104	132.2	27.5	-70.8	0.0
2025-01-22 08:06:47.874388	132.5	27.4	-71.5	0.0
2025-01-22 08:06:49.001423	132.8	27.3	-69.7	0.0
2025-01-22 08:06:50.128207	133.1	27.2	-71.6	0.0
2025-01-22 08:06:51.254805	133.4	27.1	-72.0	0.0
2025-01-22 08:06:52.380339	133.6	27.0	-70.9	0.0
2025-01-22 08:06:53.507801	133.9	26.8	-71.0	0.0
2025-01-22 08:06:54.632302	134.2	26.7	-71.4	0.0
2025-01-22 08:06:55.758073	134.5	26.6	-71.1	0.0
2025-01-22 08:06:56.884724	134.7	26.5	-72.2	0.0
2025-01-22 08:06:58.009814	135.0	26.4	-71.1	0.0
2025-01-22 08:06:59.137322	135.3	26.3	-71.6	0.0
2025-01-22 08:07:00.262790	135.5	26.1	-71.1	0.0
2025-01-22 08:07:01.391367	135.8	26.0	-71.2	0.0
2025-01-22 08:07:02.517657	136.0	25.9	-71.4	0.0
2025-01-22 08:07:03.642745	136.3	25.8	-72.4	0.0
2025-01-22 08:07:04.767447	136.6	25.7	-70.7	0.0
2025-01-22 08:07:05.893573	136.8	25.5	-70.9	0.0
2025-01-22 08:07:07.018052	137.1	25.4	-72.5	0.0
2025-01-22 08:07:08.144365	137.3	25.3	-73.5	0.0
2025-01-22 08:07:09.270766	137.6	25.2	-72.0	0.0
2025-01-22 08:07:10.398136	137.8	25.1	-71.8	0.0
2025-01-22 08:07:11.525841	138.1	25.0	-71.2	0.0
2025-01-22 08:07:12.653909	138.3	24.8	-73.2	0.0
2025-01-22 08:07:13.780765	138.6	24.7	-74.2	0.0
2025-01-22 08:07:14.908320	138.8	24.6	-72.9	0.0
2025-01-22 08:07:16.036159	139.0	24.5	-73.0	0.0
2025-01-22 08:07:17.163659	139.3	24.4	-73.7	0.0
2025-01-22 08:07:18.290712	139.5	24.2	-73.1	0.0
2025-01-22 08:07:19.416805	139.7	24.1	-73.8	0.0
2025-01-22 08:07:20.541917	140.0	24.0	-73.4	0.0
2025-01-22 08:07:21.670001	140.2	23.9	-74.3	0.0
2025-01-22 08:07:22.794358	140.4	23.8	-73.5	0.0
2025-01-22 08:07:23.921469	140.7	23.7	-73.9	0.0
2025-01-22 08:07:25.048836	140.9	23.5	-73.9	0.0
2025-01-22 08:07:26.174952	141.1	23.4	-74.0	0.0
2025-01-22 08:07:27.300847	141.3	23.3	-74.0	0.0
2025-01-22 08:07:28.426404	141.5	23.2	-73.9	0.0
2025-01-22 08:07:29.550464	141.8	23.1	-74.0	0.0
2025-01-22 08:07:30.675747	142.0	22.9	-73.5	0.0
2025-01-22 08:07:31.799715	142.2	22.8	-73.2	0.0
2025-01-22 08:07:32.925582	142.4	22.7	-73.8	0.0
2025-01-22 08:07:34.051502	142.6	22.6	-73.3	0.0
2025-01-22 08:07:35.176596	142.8	22.5	-73.7	0.0
2025-01-22 08:07:36.304025	143.0	22.4	-73.3	0.0
2025-01-22 08:07:37.430664	143.3	22.2	-71.2	0.0
2025-01-22 08:07:38.557173	143.5	22.1	-72.0	0.0
2025-01-22 08:07:39.682622	143.7	22.0	-72.0	0.0
2025-01-22 08:07:40.808076	143.9	21.9	-71.9	0.0
2025-01-22 08:07:41.933266	144.1	21.8	-71.6	0.0
2025-01-22 08:07:43.059496	144.3	21.7	-71.6	0.0
2025-01-22 08:07:44.184874	144.5	21.5	-71.7	0.0
2025-01-22 08:07:45.312742	144.7	21.4	-71.8	0.0
2025-01-22 08:07:46.438118	144.9	21.3	-70.4	0.0
2025-01-22 08:07:47.564347	145.1	21.2	-69.9	0.0
2025-01-22 08:07:48.689955	145.3	21.1	-71.1	0.0
2025-01-22 08:07:49.816228	145.4	21.0	-71.1	0.0
2025-01-22 08:07:50.941319	145.6	20.9	-70.8	0.0
2025-01-22 08:07:52.065903	145.8	20.7	-69.4	0.0
2025-01-22 08:07:53.192622	146.0	20.6	-70.0	0.0
2025-01-22 08:07:54.316960	146.2	20.5	-69.1	0.0
2025-01-22 08:07:55.442139	146.4	20.4	-69.1	0.0
2025-01-22 08:07:56.571441	146.6	20.3	-69.0	0.0
2025-01-22 08:07:57.699535	146.8	20.2	-68.6	0.0
2025-01-22 08:07:58.827195	146.9	20.1	-68.2	0.0
2025-01-22 08:07:59.949703	147.1	19.9	-69.1	0.0
2025-01-22 08:08:01.075826	147.3	19.8	-67.4	0.0
2025-01-22 08:08:02.202941	147.5	19.7	-66.6	0.0
2025-01-22 08:08:03.328301	147.6	19.6	-69.6	0.0
2025-01-22 08:08:04.456293	147.8	19.5	-67.3	0.0
2025-01-22 08:08:05.581697	148.0	19.4	-67.9	0.0
2025-01-22 08:08:06.707352	148.2	19.3	-67.9	0.0
2025-01-22 08:08:07.834395	148.3	19.2	-77.6	0.0
2025-01-22 08:08:08.959301	148.5	19.1	-77.5	0.0
2025-01-22 08:08:10.086921	148.7	18.9	-77.6	0.0
2025-01-22 08:08:11.211985	148.8	18.8	-77.8	0.0
2025-01-22 08:08:12.339038	149.0	18.7	-77.4	0.0
2025-01-22 08:08:13.464329	149.2	18.6	-78.2	0.0
2025-01-22 08:08:14.592295	149.3	18.5	-78.0	0.0
2025-01-22 08:08:15.717882	149.5	18.4	-78.4	0.0
2025-01-22 08:08:16.844359	149.7	18.3	-78.1	0.0
2025-01-22 08:08:17.969517	149.8	18.2	-78.0	0.0
2025-01-22 08:08:19.095562	150.0	18.1	-78.1	0.0
2025-01-22 08:08:20.222637	150.1	18.0	-77.8	0.0
2025-01-22 08:08:21.347289	150.3	17.9	-77.5	0.0
2025-01-22 08:08:22.472945	150.5	17.7	-77.6	0.0
2025-01-22 08:08:23.598928	150.6	17.6	-77.5	0.0
2025-01-22 08:08:24.724571	150.8	17.5	-77.5	0.0
2025-01-22 08:08:25.850262	150.9	17.4	-77.8	0.0
2025-01-22 08:08:26.975647	151.1	17.3	-77.1	0.0
2025-01-22 08:08:28.102479	151.2	17.2	-77.8	0.0
2025-01-22 08:08:29.226682	151.4	17.1	-77.4	0.0
2025-01-22 08:08:30.353778	151.5	17.0	-77.7	0.0
2025-01-22 08:08:31.480527	151.7	16.9	-78.2	0.0
2025-01-22 08:08:32.607100	151.8	16.8	-77.3	0.0
2025-01-22 08:08:33.731760	152.0	16.7	-77.9	0.0
2025-01-22 08:08:34.857170	152.1	16.6	-77.3	0.0
2025-01-22 08:08:35.982644	152.3	16.5	-77.5	0.0
2025-01-22 08:08:37.109412	152.4	16.4	-78.0	0.0
2025-01-22 08:08:38.235947	152.5	16.3	-77.4	0.0
2025-01-22 08:08:39.362208	152.7	16.2	-77.4	0.0
2025-01-22 08:08:40.488115	152.8	16.1	-77.7	0.0
2025-01-22 08:08:41.615207	153.0	16.0	-77.8	0.0
2025-01-22 08:08:42.739942	153.1	15.8	-76.8	0.0
2025-01-22 08:08:43.866742	153.2	15.7	-77.4	0.0
2025-01-22 08:08:44.990363	153.4	15.6	-77.8	0.0
2025-01-22 08:08:46.115362	153.5	15.5	-77.2	0.0
2025-01-22 08:08:47.242612	153.7	15.4	-77.1	0.0
2025-01-22 08:08:48.368361	153.8	15.3	-77.2	0.0
2025-01-22 08:08:49.492600	153.9	15.2	-77.4	0.0
2025-01-22 08:08:50.619392	154.1	15.1	-77.2	0.0
2025-01-22 08:08:51.747578	154.2	15.0	-77.0	0.0
2025-01-22 08:08:52.873506	154.3	14.9	-77.4	0.0
2025-01-22 08:08:53.999430	154.4	14.8	-77.3	0.0
2025-01-22 08:08:55.123678	154.6	14.7	-77.4	0.0
2025-01-22 08:08:56.251009	154.7	14.6	-77.5	0.0
2025-01-22 08:08:57.376205	154.8	14.5	-77.5	0.0
2025-01-22 08:08:58.503174	155.0	14.4	-77.0	0.0
2025-01-22 08:08:59.628594	155.1	14.3	-77.1	0.0
2025-01-22 08:09:00.755147	155.2	14.2	-77.4	0.0
2025-01-22 08:09:01.882618	155.3	14.1	-77.3	0.0
2025-01-22 08:09:03.007796	155.5	14.0	-76.9	0.0
2025-01-22 08:09:04.133629	155.6	13.9	-77.2	0.0
2025-01-22 08:09:05.262050	155.7	13.8	-77.1	0.0
2025-01-22 08:09:06.387049	155.8	13.8	-77.1	0.0
2025-01-22 08:09:07.512396	155.9	13.7	-76.6	0.0
2025-01-22 08:09:08.637093	156.1	13.6	-76.9	0.0
2025-01-22 08:09:09.761819	156.2	13.5	-77.1	0.0
2025-01-22 08:09:10.887207	156.3	13.4	-76.4	0.0
2025-01-22 08:09:12.012924	156.4	13.3	-76.9	0.0
2025-01-22 08:09:13.138900	156.5	13.2	-76.8	0.0
2025-01-22 08:09:14.265597	156.6	13.1	-76.9	0.0
2025-01-22 08:09:15.390873	156.8	13.0	-76.8	0.0
2025-01-22 08:09:16.516324	156.9	12.9	-77.1	0.0
2025-01-22 08:09:17.642651	157.0	12.8	-76.8	0.0
2025-01-22 08:09:18.769773	157.1	12.7	-76.7	0.0
2025-01-22 08:09:19.894969	157.2	12.6	-77.0	0.0
2025-01-22 08:09:21.020499	157.3	12.5	-76.7	0.0
2025-01-22 08:09:22.144751	157.4	12.4	-76.6	0.0
2025-01-22 08:09:23.270496	157.5	12.3	-76.5	0.0
2025-01-22 08:09:24.394719	157.7	12.2	-76.8	0.0
2025-01-22 08:09:25.523358	157.8	12.1	-76.6	0.0
2025-01-22 08:09:26.648812	157.9	12.0	-76.5	0.0
2025-01-22 08:09:27.775016	158.0	12.0	-76.3	0.0
2025-01-22 08:09:28.900500	158.1	11.9	-76.5	0.0
2025-01-22 08:09:30.025713	158.2	11.8	-76.3	0.0
2025-01-22 08:09:31.151161	158.3	11.7	-76.2	0.0
2025-01-22 08:09:32.275934	158.4	11.6	-76.2	0.0
2025-01-22 08:09:33.402471	158.5	11.5	-76.2	0.0
2025-01-22 08:09:34.531829	158.6	11.4	-76.3	0.0
2025-01-22 08:09:35.657118	158.7	11.3	-76.6	0.0
2025-01-22 08:09:36.782889	158.8	11.2	-76.1	0.0
2025-01-22 08:09:37.910073	158.9	11.1	-76.0	0.0
2025-01-22 08:09:39.037397	159.0	11.0	-76.8	0.0
2025-01-22 08:09:40.164418	159.1	11.0	-78.7	0.0
2025-01-22 08:09:41.289803	159.2	10.9	-79.1	0.0
2025-01-22 08:09:42.417316	159.3	10.8	-76.1	0.0
2025-01-22 08:09:43.540996	159.4	10.7	-74.9	0.0
2025-01-22 08:09:44.667655	159.5	10.6	-75.0	0.0
2025-01-22 08:09:45.794760	159.6	10.5	-78.9	0.0
2025-01-22 08:09:46.919237	159.7	10.4	-80.8	0.0
2025-01-22 08:09:48.044908	159.8	10.3	-81.4	0.0
2025-01-22 08:09:49.170714	159.9	10.3	-81.4	0.0
2025-01-22 08:09:50.297108	160.0	10.2	-81.1	0.0
2025-01-22 08:09:51.424624	160.1	10.1	-80.7	0.0
2025-01-22 08:09:52.552488	160.2	10.0	-81.0	0.0
#Closed at: 2025-01-22 07:59:51.873135