passes_logs/2025/01/22/planumMaritime01/planumMaritime01__20250122_175402_NOAA_18_rec.log

#Pass ID: 20250122_175402_NOAA 18
#Satellite: NOAA 18
#Configuration: NOAA 18
#Start time: 2025-01-22 17:54:07.914465

#LorettStation: 1.0.0 05.05.2024
#Station: planumMaritime01
#Location: 37.49445 lon 55.92918 lat
#TLE: 1 28654U 05018A   25022.24143052  .00000458  00000+0  26647-3 0  9995
#TLE: 2 28654  98.8556 103.2235 0014680 159.1096 201.0679 14.13493787 14203

#Time	Az	El	Level	SNR
2025-01-22 17:54:10.085676	111.6	10.2	-65.5	0.0
2025-01-22 17:54:11.213897	111.5	10.2	-67.2	0.0
2025-01-22 17:54:12.342793	111.4	10.3	-67.1	0.0
2025-01-22 17:54:13.470168	111.3	10.4	-68.6	0.0
2025-01-22 17:54:14.595599	111.2	10.5	-69.1	0.0
2025-01-22 17:54:15.721544	111.1	10.6	-67.8	0.0
2025-01-22 17:54:16.847514	111.0	10.7	-69.9	0.0
2025-01-22 17:54:17.973792	110.9	10.7	-70.9	0.0
2025-01-22 17:54:19.100197	110.8	10.8	-68.0	0.0
2025-01-22 17:54:20.228116	110.7	10.9	-69.5	0.0
2025-01-22 17:54:21.356118	110.5	11.0	-69.0	0.0
2025-01-22 17:54:22.481869	110.4	11.1	-68.1	0.0
2025-01-22 17:54:23.610319	110.3	11.2	-68.7	0.0
2025-01-22 17:54:24.736868	110.2	11.2	-69.2	0.0
2025-01-22 17:54:25.863287	110.1	11.3	-68.3	0.0
2025-01-22 17:54:26.989680	110.0	11.4	-69.2	0.0
2025-01-22 17:54:28.116015	109.9	11.5	-68.1	0.0
2025-01-22 17:54:29.243666	109.7	11.6	-67.0	0.0
2025-01-22 17:54:30.370650	109.6	11.7	-68.5	0.0
2025-01-22 17:54:31.497783	109.5	11.8	-67.2	0.0
2025-01-22 17:54:32.623850	109.4	11.8	-67.9	0.0
2025-01-22 17:54:33.751901	109.3	11.9	-67.8	0.0
2025-01-22 17:54:34.879470	109.1	12.0	-66.0	0.0
2025-01-22 17:54:36.008574	109.0	12.1	-67.2	0.0
2025-01-22 17:54:37.135167	108.9	12.2	-67.9	0.0
2025-01-22 17:54:38.261858	108.8	12.3	-68.4	0.0
2025-01-22 17:54:39.388295	108.7	12.4	-69.3	0.0
2025-01-22 17:54:40.515087	108.5	12.4	-69.1	0.0
2025-01-22 17:54:41.640863	108.4	12.5	-66.9	0.0
2025-01-22 17:54:42.767662	108.3	12.6	-68.1	0.0
2025-01-22 17:54:43.894823	108.1	12.7	-68.5	0.0
2025-01-22 17:54:45.021071	108.0	12.8	-69.3	0.0
2025-01-22 17:54:46.147702	107.9	12.9	-67.4	0.0
2025-01-22 17:54:47.276133	107.8	13.0	-64.7	0.0
2025-01-22 17:54:48.403436	107.6	13.1	-66.7	0.0
2025-01-22 17:54:49.530750	107.5	13.1	-67.3	0.0
2025-01-22 17:54:50.658045	107.4	13.2	-66.7	0.0
2025-01-22 17:54:51.784786	107.2	13.3	-68.5	0.0
2025-01-22 17:54:52.913278	107.1	13.4	-67.8	0.0
2025-01-22 17:54:54.038288	107.0	13.5	-68.1	0.0
2025-01-22 17:54:55.165251	106.8	13.6	-68.4	0.0
2025-01-22 17:54:56.291971	106.7	13.7	-69.6	0.0
2025-01-22 17:54:57.418356	106.6	13.8	-66.7	0.0
2025-01-22 17:54:58.544035	106.4	13.9	-67.1	0.0
2025-01-22 17:54:59.670557	106.3	14.0	-67.9	0.0
2025-01-22 17:55:00.796230	106.1	14.0	-68.7	0.0
2025-01-22 17:55:01.921934	106.0	14.1	-70.4	0.0
2025-01-22 17:55:03.049633	105.9	14.2	-67.6	0.0
2025-01-22 17:55:04.175592	105.7	14.3	-68.9	0.0
2025-01-22 17:55:05.302956	105.6	14.4	-69.3	0.0
2025-01-22 17:55:06.428632	105.4	14.5	-70.2	0.0
2025-01-22 17:55:07.558400	105.3	14.6	-71.3	0.0
2025-01-22 17:55:08.686111	105.2	14.7	-70.8	0.0
2025-01-22 17:55:09.813875	105.0	14.8	-70.5	0.0
2025-01-22 17:55:10.939694	104.9	14.9	-70.6	0.0
2025-01-22 17:55:12.066496	104.7	14.9	-70.1	0.0
2025-01-22 17:55:13.194845	104.6	15.0	-69.4	0.0
2025-01-22 17:55:14.320349	104.4	15.1	-66.8	0.0
2025-01-22 17:55:15.448128	104.3	15.2	-69.2	0.0
2025-01-22 17:55:16.575357	104.1	15.3	-67.5	0.0
2025-01-22 17:55:17.701994	104.0	15.4	-67.1	0.0
2025-01-22 17:55:18.827981	103.8	15.5	-65.9	0.0
2025-01-22 17:55:19.955400	103.7	15.6	-66.6	0.0
2025-01-22 17:55:21.084499	103.5	15.7	-66.2	0.0
2025-01-22 17:55:22.211558	103.3	15.8	-68.1	0.0
2025-01-22 17:55:23.336857	103.2	15.9	-70.5	0.0
2025-01-22 17:55:24.462371	103.0	16.0	-73.5	0.0
2025-01-22 17:55:25.590967	102.9	16.1	-68.9	0.0
2025-01-22 17:55:26.718113	102.7	16.2	-69.9	0.0
2025-01-22 17:55:27.845433	102.5	16.2	-71.8	0.0
2025-01-22 17:55:28.973637	102.4	16.3	-71.9	0.0
2025-01-22 17:55:30.100579	102.2	16.4	-69.1	0.0
2025-01-22 17:55:31.228585	102.1	16.5	-70.4	0.0
2025-01-22 17:55:32.355464	101.9	16.6	-66.1	0.0
2025-01-22 17:55:33.481142	101.7	16.7	-67.6	0.0
2025-01-22 17:55:34.606224	101.6	16.8	-66.7	0.0
2025-01-22 17:55:35.734303	101.4	16.9	-69.7	0.0
2025-01-22 17:55:36.860535	101.2	17.0	-71.2	0.0
2025-01-22 17:55:37.987148	101.0	17.1	-70.3	0.0
2025-01-22 17:55:39.113824	100.9	17.2	-71.0	0.0
2025-01-22 17:55:40.237475	100.7	17.3	-68.2	0.0
2025-01-22 17:55:41.365412	100.5	17.4	-66.5	0.0
2025-01-22 17:55:42.494790	100.4	17.5	-68.8	0.0
2025-01-22 17:55:43.622245	100.2	17.6	-69.7	0.0
2025-01-22 17:55:44.747335	100.0	17.7	-67.0	0.0
2025-01-22 17:55:45.874155	99.8	17.8	-69.6	0.0
2025-01-22 17:55:46.998787	99.6	17.8	-68.0	0.0
2025-01-22 17:55:48.125162	99.5	17.9	-67.1	0.0
2025-01-22 17:55:49.248804	99.3	18.0	-66.0	0.0
2025-01-22 17:55:50.378098	99.1	18.1	-65.7	0.0
2025-01-22 17:55:51.503357	98.9	18.2	-63.6	0.0
2025-01-22 17:55:52.629329	98.7	18.3	-66.2	0.0
2025-01-22 17:55:53.755388	98.5	18.4	-65.8	0.0
2025-01-22 17:55:54.881595	98.4	18.5	-65.8	0.0
2025-01-22 17:55:56.008230	98.2	18.6	-66.0	0.0
2025-01-22 17:55:57.135678	98.0	18.7	-71.0	0.0
2025-01-22 17:55:58.261870	97.8	18.8	-69.6	0.0
2025-01-22 17:55:59.387073	97.6	18.9	-69.4	0.0
2025-01-22 17:56:00.514346	97.4	19.0	-70.2	0.0
2025-01-22 17:56:01.640255	97.2	19.1	-69.6	0.0
2025-01-22 17:56:02.766609	97.0	19.2	-68.7	0.0
2025-01-22 17:56:03.893812	96.8	19.3	-64.0	0.0
2025-01-22 17:56:05.020014	96.6	19.4	-65.4	0.0
2025-01-22 17:56:06.146042	96.4	19.5	-67.4	0.0
2025-01-22 17:56:07.274862	96.2	19.6	-68.3	0.0
2025-01-22 17:56:08.402071	96.0	19.7	-66.6	0.0
2025-01-22 17:56:09.528212	95.8	19.8	-68.4	0.0
2025-01-22 17:56:10.654866	95.6	19.9	-66.0	0.0
2025-01-22 17:56:11.780416	95.4	19.9	-70.3	0.0
2025-01-22 17:56:12.907451	95.2	20.0	-70.0	0.0
2025-01-22 17:56:14.033311	95.0	20.1	-64.8	0.0
2025-01-22 17:56:15.158774	94.8	20.2	-67.3	0.0
2025-01-22 17:56:16.285141	94.6	20.3	-70.0	0.0
2025-01-22 17:56:17.413158	94.3	20.4	-63.9	0.0
2025-01-22 17:56:18.540130	94.1	20.5	-65.1	0.0
2025-01-22 17:56:19.667561	93.9	20.6	-66.4	0.0
2025-01-22 17:56:20.793990	93.7	20.7	-69.7	0.0
2025-01-22 17:56:21.920483	93.5	20.8	-68.7	0.0
2025-01-22 17:56:23.044332	93.3	20.9	-68.0	0.0
2025-01-22 17:56:24.170014	93.0	21.0	-68.5	0.0
2025-01-22 17:56:25.296475	92.8	21.1	-70.7	0.0
2025-01-22 17:56:26.426346	92.6	21.2	-65.8	0.0
2025-01-22 17:56:27.555013	92.4	21.3	-68.1	0.0
2025-01-22 17:56:28.680268	92.2	21.4	-69.0	0.0
2025-01-22 17:56:29.808548	91.9	21.5	-69.2	0.0
2025-01-22 17:56:30.934809	91.7	21.6	-67.0	0.0
2025-01-22 17:56:32.060690	91.5	21.7	-66.7	0.0
2025-01-22 17:56:33.189136	91.2	21.7	-70.6	0.0
2025-01-22 17:56:34.315026	91.0	21.8	-65.0	0.0
2025-01-22 17:56:35.442550	90.8	21.9	-67.6	0.0
2025-01-22 17:56:36.568338	90.5	22.0	-67.9	0.0
2025-01-22 17:56:37.696302	90.3	22.1	-70.1	0.0
2025-01-22 17:56:38.821721	90.1	22.2	-68.9	0.0
2025-01-22 17:56:39.947962	89.8	22.3	-69.8	0.0
2025-01-22 17:56:41.073114	89.6	22.4	-64.5	0.0
2025-01-22 17:56:42.201049	89.3	22.5	-70.2	0.0
2025-01-22 17:56:43.328442	89.1	22.6	-67.6	0.0
2025-01-22 17:56:44.455796	88.8	22.7	-67.3	0.0
2025-01-22 17:56:45.582356	88.6	22.8	-66.3	0.0
2025-01-22 17:56:46.710909	88.3	22.9	-66.8	0.0
2025-01-22 17:56:47.838083	88.1	23.0	-67.6	0.0
2025-01-22 17:56:48.964896	87.8	23.0	-70.1	0.0
2025-01-22 17:56:50.090528	87.6	23.1	-69.7	0.0
2025-01-22 17:56:51.215175	87.3	23.2	-69.8	0.0
2025-01-22 17:56:52.342592	87.1	23.3	-69.9	0.0
2025-01-22 17:56:53.468056	86.8	23.4	-65.8	0.0
2025-01-22 17:56:54.596092	86.6	23.5	-67.1	0.0
2025-01-22 17:56:55.722051	86.3	23.6	-68.3	0.0
2025-01-22 17:56:56.848609	86.0	23.7	-66.7	0.0
2025-01-22 17:56:57.976628	85.8	23.8	-72.4	0.0
2025-01-22 17:56:59.102524	85.5	23.8	-69.2	0.0
2025-01-22 17:57:00.229878	85.2	23.9	-66.7	0.0
2025-01-22 17:57:01.356605	85.0	24.0	-64.3	0.0
2025-01-22 17:57:02.485397	84.7	24.1	-70.1	0.0
2025-01-22 17:57:03.612962	84.4	24.2	-71.7	0.0
2025-01-22 17:57:04.738770	84.2	24.3	-67.8	0.0
2025-01-22 17:57:05.865436	83.9	24.4	-67.9	0.0
2025-01-22 17:57:06.990913	83.6	24.4	-69.4	0.0
2025-01-22 17:57:08.118544	83.3	24.5	-71.8	0.0
2025-01-22 17:57:09.246422	83.1	24.6	-70.5	0.0
2025-01-22 17:57:10.372160	82.8	24.7	-71.9	0.0
2025-01-22 17:57:11.500758	82.5	24.8	-67.8	0.0
2025-01-22 17:57:12.626877	82.2	24.9	-72.1	0.0
2025-01-22 17:57:13.755918	81.9	24.9	-67.4	0.0
2025-01-22 17:57:14.880324	81.6	25.0	-67.3	0.0
2025-01-22 17:57:16.005565	81.4	25.1	-68.8	0.0
2025-01-22 17:57:17.130238	81.1	25.2	-68.8	0.0
2025-01-22 17:57:18.257577	80.8	25.3	-70.3	0.0
2025-01-22 17:57:19.386451	80.5	25.3	-72.5	0.0
2025-01-22 17:57:20.513463	80.2	25.4	-70.2	0.0
2025-01-22 17:57:21.639525	79.9	25.5	-65.6	0.0
2025-01-22 17:57:22.764900	79.6	25.6	-66.2	0.0
2025-01-22 17:57:23.892627	79.3	25.7	-66.8	0.0
2025-01-22 17:57:25.017896	79.0	25.7	-68.9	0.0
2025-01-22 17:57:26.143590	78.7	25.8	-70.0	0.0
2025-01-22 17:57:27.269595	78.4	25.9	-70.9	0.0
2025-01-22 17:57:28.397087	78.1	26.0	-70.8	0.0
2025-01-22 17:57:29.523259	77.8	26.0	-64.7	0.0
2025-01-22 17:57:30.650671	77.5	26.1	-69.3	0.0
2025-01-22 17:57:31.775954	77.2	26.2	-70.6	0.0
2025-01-22 17:57:32.902977	76.9	26.2	-70.3	0.0
2025-01-22 17:57:34.029682	76.6	26.3	-66.3	0.0
2025-01-22 17:57:35.155046	76.2	26.4	-63.7	0.0
2025-01-22 17:57:36.280600	75.9	26.5	-67.5	0.0
2025-01-22 17:57:37.406777	75.6	26.5	-68.4	0.0
2025-01-22 17:57:38.531135	75.3	26.6	-69.0	0.0
2025-01-22 17:57:39.656918	75.0	26.7	-67.2	0.0
2025-01-22 17:57:40.781829	74.7	26.7	-64.8	0.0
2025-01-22 17:57:41.907943	74.3	26.8	-63.3	0.0
2025-01-22 17:57:43.033472	74.0	26.9	-62.9	0.0
2025-01-22 17:57:44.160421	73.7	26.9	-68.0	0.0
2025-01-22 17:57:45.287816	73.4	27.0	-64.8	0.0
2025-01-22 17:57:46.413762	73.1	27.0	-68.2	0.0
2025-01-22 17:57:47.538693	72.7	27.1	-67.8	0.0
2025-01-22 17:57:48.666637	72.4	27.2	-64.5	0.0
2025-01-22 17:57:49.793112	72.1	27.2	-61.3	0.0
2025-01-22 17:57:50.921730	71.7	27.3	-68.8	0.0
2025-01-22 17:57:52.049885	71.4	27.3	-64.0	0.0
2025-01-22 17:57:53.175661	71.1	27.4	-68.0	0.0
2025-01-22 17:57:54.301275	70.7	27.4	-69.9	0.0
2025-01-22 17:57:55.427525	70.4	27.5	-68.4	0.0
2025-01-22 17:57:56.555885	70.1	27.6	-68.9	0.0
2025-01-22 17:57:57.683756	69.7	27.6	-67.5	0.0
2025-01-22 17:57:58.810216	69.4	27.7	-62.4	0.0
2025-01-22 17:57:59.937347	69.1	27.7	-66.4	0.0
2025-01-22 17:58:01.064596	68.7	27.8	-63.3	0.0
2025-01-22 17:58:02.189135	68.4	27.8	-65.2	0.0
2025-01-22 17:58:03.316501	68.0	27.9	-66.9	0.0
2025-01-22 17:58:04.442155	67.7	27.9	-67.0	0.0
2025-01-22 17:58:05.569524	67.4	27.9	-69.9	0.0
2025-01-22 17:58:06.694878	67.0	28.0	-68.2	0.0
2025-01-22 17:58:07.822141	66.7	28.0	-62.6	0.0
2025-01-22 17:58:08.947512	66.3	28.1	-63.9	0.0
2025-01-22 17:58:10.074601	66.0	28.1	-68.7	0.0
2025-01-22 17:58:11.201748	65.6	28.2	-63.1	0.0
2025-01-22 17:58:12.328528	65.3	28.2	-60.6	0.0
2025-01-22 17:58:13.457363	64.9	28.2	-61.4	0.0
2025-01-22 17:58:14.584054	64.6	28.3	-67.8	0.0
2025-01-22 17:58:15.710332	64.2	28.3	-69.4	0.0
2025-01-22 17:58:16.836208	63.9	28.3	-69.4	0.0
2025-01-22 17:58:17.961883	63.5	28.4	-70.3	0.0
2025-01-22 17:58:19.089074	63.2	28.4	-63.4	0.0
2025-01-22 17:58:20.214244	62.8	28.4	-62.7	0.0
2025-01-22 17:58:21.339930	62.4	28.5	-68.7	0.0
2025-01-22 17:58:22.466207	62.1	28.5	-67.1	0.0
2025-01-22 17:58:23.592833	61.7	28.5	-68.5	0.0
2025-01-22 17:58:24.718961	61.4	28.5	-69.6	0.0
2025-01-22 17:58:25.844051	61.0	28.6	-66.8	0.0
2025-01-22 17:58:26.968076	60.7	28.6	-65.9	0.0
2025-01-22 17:58:28.095721	60.3	28.6	-63.9	0.0
2025-01-22 17:58:29.221544	59.9	28.6	-60.4	0.0
2025-01-22 17:58:30.347919	59.6	28.6	-64.1	0.0
2025-01-22 17:58:31.474615	59.2	28.7	-66.6	0.0
2025-01-22 17:58:32.602065	58.9	28.7	-65.5	0.0
2025-01-22 17:58:33.728721	58.5	28.7	-67.2	0.0
2025-01-22 17:58:34.855395	58.1	28.7	-65.4	0.0
2025-01-22 17:58:35.980261	57.8	28.7	-61.8	0.0
2025-01-22 17:58:37.105477	57.4	28.7	-65.2	0.0
2025-01-22 17:58:38.232044	57.1	28.7	-66.3	0.0
2025-01-22 17:58:39.358265	56.7	28.7	-61.1	0.0
2025-01-22 17:58:40.484283	56.3	28.8	-65.9	0.0
2025-01-22 17:58:41.609938	56.0	28.8	-68.0	0.0
2025-01-22 17:58:42.735995	55.6	28.8	-67.4	0.0
2025-01-22 17:58:43.862536	55.3	28.8	-65.2	0.0
2025-01-22 17:58:44.990041	54.9	28.8	-65.8	0.0
2025-01-22 17:58:46.117858	54.5	28.8	-66.9	0.0
2025-01-22 17:58:47.241695	54.2	28.8	-66.0	0.0
2025-01-22 17:58:48.370133	53.8	28.8	-65.4	0.0
2025-01-22 17:58:49.497356	53.4	28.8	-66.2	0.0
2025-01-22 17:58:50.625688	53.1	28.8	-62.9	0.0
2025-01-22 17:58:51.753156	52.7	28.8	-66.1	0.0
2025-01-22 17:58:52.878262	52.4	28.8	-65.9	0.0
2025-01-22 17:58:54.003386	52.0	28.7	-66.1	0.0
2025-01-22 17:58:55.127477	51.6	28.7	-65.8	0.0
2025-01-22 17:58:56.254862	51.3	28.7	-60.0	0.0
2025-01-22 17:58:57.379612	50.9	28.7	-63.7	0.0
2025-01-22 17:58:58.505588	50.5	28.7	-65.8	0.0
2025-01-22 17:58:59.633429	50.2	28.7	-65.7	0.0
2025-01-22 17:59:00.759849	49.8	28.7	-65.0	0.0
2025-01-22 17:59:01.885976	49.5	28.7	-64.1	0.0
2025-01-22 17:59:03.011894	49.1	28.6	-62.0	0.0
2025-01-22 17:59:04.138095	48.7	28.6	-66.1	0.0
2025-01-22 17:59:05.263852	48.4	28.6	-65.2	0.0
2025-01-22 17:59:06.389699	48.0	28.6	-64.8	0.0
2025-01-22 17:59:07.518535	47.7	28.6	-63.6	0.0
2025-01-22 17:59:08.643488	47.3	28.5	-66.8	0.0
2025-01-22 17:59:09.768869	47.0	28.5	-65.3	0.0
2025-01-22 17:59:10.895792	46.6	28.5	-62.7	0.0
2025-01-22 17:59:12.022482	46.2	28.5	-67.4	0.0
2025-01-22 17:59:13.150359	45.9	28.4	-68.3	0.0
2025-01-22 17:59:14.277386	45.5	28.4	-63.8	0.0
2025-01-22 17:59:15.403739	45.2	28.4	-64.7	0.0
2025-01-22 17:59:16.530977	44.8	28.3	-66.1	0.0
2025-01-22 17:59:17.657997	44.5	28.3	-65.7	0.0
2025-01-22 17:59:18.784783	44.1	28.3	-66.7	0.0
2025-01-22 17:59:19.910884	43.8	28.2	-63.2	0.0
2025-01-22 17:59:21.036602	43.4	28.2	-60.6	0.0
2025-01-22 17:59:22.160484	43.1	28.1	-67.1	0.0
2025-01-22 17:59:23.286772	42.7	28.1	-62.5	0.0
2025-01-22 17:59:24.413950	42.4	28.1	-65.4	0.0
2025-01-22 17:59:25.540833	42.0	28.0	-64.6	0.0
2025-01-22 17:59:26.666654	41.7	28.0	-65.8	0.0
2025-01-22 17:59:27.792128	41.3	27.9	-65.9	0.0
2025-01-22 17:59:28.918816	41.0	27.9	-67.6	0.0
2025-01-22 17:59:30.045005	40.6	27.9	-63.7	0.0
2025-01-22 17:59:31.169337	40.3	27.8	-65.7	0.0
2025-01-22 17:59:32.296733	40.0	27.8	-68.2	0.0
2025-01-22 17:59:33.424032	39.6	27.7	-62.2	0.0
2025-01-22 17:59:34.550126	39.3	27.7	-66.2	0.0
2025-01-22 17:59:35.677421	39.0	27.6	-67.4	0.0
2025-01-22 17:59:36.802171	38.6	27.6	-68.4	0.0
2025-01-22 17:59:37.928045	38.3	27.5	-66.4	0.0
2025-01-22 17:59:39.054982	37.9	27.4	-66.0	0.0
2025-01-22 17:59:40.181622	37.6	27.4	-67.7	0.0
2025-01-22 17:59:41.306632	37.3	27.3	-69.5	0.0
2025-01-22 17:59:42.434798	36.9	27.3	-66.6	0.0
2025-01-22 17:59:43.561414	36.6	27.2	-69.9	0.0
2025-01-22 17:59:44.686320	36.3	27.2	-66.1	0.0
2025-01-22 17:59:45.810640	36.0	27.1	-69.1	0.0
2025-01-22 17:59:46.936244	35.6	27.0	-70.8	0.0
2025-01-22 17:59:48.062826	35.3	27.0	-71.2	0.0
2025-01-22 17:59:49.188634	35.0	26.9	-69.9	0.0
2025-01-22 17:59:50.315541	34.7	26.9	-67.1	0.0
2025-01-22 17:59:51.443965	34.3	26.8	-69.1	0.0
2025-01-22 17:59:52.572605	34.0	26.7	-62.4	0.0
2025-01-22 17:59:53.698177	33.7	26.7	-67.3	0.0
2025-01-22 17:59:54.824268	33.4	26.6	-65.4	0.0
2025-01-22 17:59:55.950101	33.1	26.5	-68.9	0.0
2025-01-22 17:59:57.077631	32.8	26.5	-69.2	0.0
2025-01-22 17:59:58.206025	32.4	26.4	-64.7	0.0
2025-01-22 17:59:59.332632	32.1	26.3	-68.2	0.0
2025-01-22 18:00:00.459440	31.8	26.2	-64.8	0.0
2025-01-22 18:00:01.586853	31.5	26.2	-65.4	0.0
2025-01-22 18:00:02.714123	31.2	26.1	-67.2	0.0
2025-01-22 18:00:03.840978	30.9	26.0	-66.7	0.0
2025-01-22 18:00:04.965982	30.6	26.0	-66.8	0.0
2025-01-22 18:00:06.091716	30.3	25.9	-68.1	0.0
2025-01-22 18:00:07.218595	30.0	25.8	-65.3	0.0
2025-01-22 18:00:08.346276	29.7	25.7	-65.1	0.0
2025-01-22 18:00:09.472512	29.4	25.7	-67.3	0.0
2025-01-22 18:00:10.599611	29.1	25.6	-66.6	0.0
2025-01-22 18:00:11.725949	28.8	25.5	-62.4	0.0
2025-01-22 18:00:12.851948	28.5	25.4	-67.4	0.0
2025-01-22 18:00:13.978563	28.2	25.3	-63.5	0.0
2025-01-22 18:00:15.106191	27.9	25.3	-62.5	0.0
2025-01-22 18:00:16.234770	27.6	25.2	-63.6	0.0
2025-01-22 18:00:17.363040	27.3	25.1	-62.9	0.0
2025-01-22 18:00:18.488289	27.1	25.0	-63.2	0.0
2025-01-22 18:00:19.614446	26.8	24.9	-63.3	0.0
2025-01-22 18:00:20.741115	26.5	24.9	-66.8	0.0
2025-01-22 18:00:21.866959	26.2	24.8	-63.1	0.0
2025-01-22 18:00:22.994354	25.9	24.7	-63.4	0.0
2025-01-22 18:00:24.119477	25.6	24.6	-64.9	0.0
2025-01-22 18:00:25.243805	25.4	24.5	-63.0	0.0
2025-01-22 18:00:26.370005	25.1	24.4	-65.9	0.0
2025-01-22 18:00:27.497587	24.8	24.4	-64.9	0.0
2025-01-22 18:00:28.626066	24.5	24.3	-63.1	0.0
2025-01-22 18:00:29.752809	24.3	24.2	-60.6	0.0
2025-01-22 18:00:30.878469	24.0	24.1	-63.7	0.0
2025-01-22 18:00:32.004110	23.7	24.0	-64.7	0.0
2025-01-22 18:00:33.129833	23.5	23.9	-61.3	0.0
2025-01-22 18:00:34.257632	23.2	23.8	-60.5	0.0
2025-01-22 18:00:35.385094	22.9	23.7	-65.9	0.0
2025-01-22 18:00:36.509532	22.7	23.7	-62.8	0.0
2025-01-22 18:00:37.636039	22.4	23.6	-64.1	0.0
2025-01-22 18:00:38.763804	22.1	23.5	-62.4	0.0
2025-01-22 18:00:39.888871	21.9	23.4	-61.4	0.0
2025-01-22 18:00:41.017296	21.6	23.3	-62.2	0.0
2025-01-22 18:00:42.146074	21.4	23.2	-60.8	0.0
2025-01-22 18:00:43.273908	21.1	23.1	-58.7	0.0
2025-01-22 18:00:44.398546	20.9	23.0	-61.0	0.0
2025-01-22 18:00:45.525010	20.6	22.9	-62.8	0.0
2025-01-22 18:00:46.650937	20.4	22.9	-60.8	0.0
2025-01-22 18:00:47.777730	20.1	22.8	-62.5	0.0
2025-01-22 18:00:48.904152	19.9	22.7	-61.1	0.0
2025-01-22 18:00:50.030200	19.6	22.6	-63.9	0.0
2025-01-22 18:00:51.157362	19.4	22.5	-63.7	0.0
2025-01-22 18:00:52.284666	19.1	22.4	-63.1	0.0
2025-01-22 18:00:53.409768	18.9	22.3	-63.7	0.0
2025-01-22 18:00:54.535942	18.7	22.2	-65.1	0.0
2025-01-22 18:00:55.663438	18.4	22.1	-60.9	0.0
2025-01-22 18:00:56.789914	18.2	22.0	-64.0	0.0
2025-01-22 18:00:57.916218	17.9	21.9	-62.7	0.0
2025-01-22 18:00:59.042405	17.7	21.8	-66.2	0.0
2025-01-22 18:01:00.168621	17.5	21.7	-65.7	0.0
2025-01-22 18:01:01.294455	17.2	21.6	-59.9	0.0
2025-01-22 18:01:02.421923	17.0	21.6	-63.5	0.0
2025-01-22 18:01:03.548614	16.8	21.5	-64.6	0.0
2025-01-22 18:01:04.674500	16.6	21.4	-65.5	0.0
2025-01-22 18:01:05.800267	16.3	21.3	-64.3	0.0
2025-01-22 18:01:06.927280	16.1	21.2	-63.5	0.0
2025-01-22 18:01:08.054721	15.9	21.1	-64.7	0.0
2025-01-22 18:01:09.181334	15.7	21.0	-65.9	0.0
2025-01-22 18:01:10.306793	15.4	20.9	-63.2	0.0
2025-01-22 18:01:11.434009	15.2	20.8	-65.9	0.0
2025-01-22 18:01:12.562846	15.0	20.7	-65.4	0.0
2025-01-22 18:01:13.691662	14.8	20.6	-64.1	0.0
2025-01-22 18:01:14.819317	14.6	20.5	-63.9	0.0
2025-01-22 18:01:15.946866	14.4	20.4	-65.1	0.0
2025-01-22 18:01:17.072459	14.1	20.3	-69.1	0.0
2025-01-22 18:01:18.199632	13.9	20.2	-66.1	0.0
2025-01-22 18:01:19.325631	13.7	20.1	-63.1	0.0
2025-01-22 18:01:20.450966	13.5	20.0	-62.5	0.0
2025-01-22 18:01:21.575166	13.3	19.9	-67.3	0.0
2025-01-22 18:01:22.700186	13.1	19.8	-62.2	0.0
2025-01-22 18:01:23.826965	12.9	19.7	-62.7	0.0
2025-01-22 18:01:24.954366	12.7	19.7	-67.5	0.0
2025-01-22 18:01:26.079726	12.5	19.6	-60.6	0.0
2025-01-22 18:01:27.205260	12.3	19.5	-68.2	0.0
2025-01-22 18:01:28.331607	12.1	19.4	-65.5	0.0
2025-01-22 18:01:29.457745	11.9	19.3	-63.6	0.0
2025-01-22 18:01:30.586125	11.7	19.2	-66.2	0.0
2025-01-22 18:01:31.711684	11.5	19.1	-64.0	0.0
2025-01-22 18:01:32.837905	11.3	19.0	-64.9	0.0
2025-01-22 18:01:33.964307	11.1	18.9	-67.2	0.0
2025-01-22 18:01:35.090455	10.9	18.8	-66.4	0.0
2025-01-22 18:01:36.217738	10.7	18.7	-64.9	0.0
2025-01-22 18:01:37.340639	10.6	18.6	-65.3	0.0
2025-01-22 18:01:38.465731	10.4	18.5	-65.9	0.0
2025-01-22 18:01:39.591426	10.2	18.4	-63.5	0.0
2025-01-22 18:01:40.718615	10.0	18.3	-64.5	0.0
2025-01-22 18:01:41.845953	9.8	18.2	-65.6	0.0
2025-01-22 18:01:42.972968	9.6	18.1	-61.7	0.0
2025-01-22 18:01:44.099743	9.4	18.0	-61.0	0.0
2025-01-22 18:01:45.227203	9.3	17.9	-63.7	0.0
2025-01-22 18:01:46.353039	9.1	17.8	-62.8	0.0
2025-01-22 18:01:47.480223	8.9	17.7	-62.3	0.0
2025-01-22 18:01:48.605152	8.7	17.6	-64.6	0.0
2025-01-22 18:01:49.730158	8.5	17.6	-62.2	0.0
2025-01-22 18:01:50.855882	8.4	17.5	-64.1	0.0
2025-01-22 18:01:51.982577	8.2	17.4	-65.6	0.0
2025-01-22 18:01:53.111018	8.0	17.3	-65.5	0.0
2025-01-22 18:01:54.240176	7.9	17.2	-64.0	0.0
2025-01-22 18:01:55.366115	7.7	17.1	-63.8	0.0
2025-01-22 18:01:56.494417	7.5	17.0	-65.6	0.0
2025-01-22 18:01:57.621486	7.3	16.9	-65.8	0.0
2025-01-22 18:01:58.748153	7.2	16.8	-64.0	0.0
2025-01-22 18:01:59.875175	7.0	16.7	-62.2	0.0
2025-01-22 18:02:01.002858	6.8	16.6	-61.4	0.0
2025-01-22 18:02:02.128849	6.7	16.5	-64.8	0.0
2025-01-22 18:02:03.254189	6.5	16.4	-60.9	0.0
2025-01-22 18:02:04.379643	6.3	16.3	-62.5	0.0
2025-01-22 18:02:05.504132	6.2	16.2	-63.7	0.0
2025-01-22 18:02:06.629857	6.0	16.1	-62.2	0.0
2025-01-22 18:02:07.756705	5.9	16.0	-63.9	0.0
2025-01-22 18:02:08.882046	5.7	16.0	-61.9	0.0
2025-01-22 18:02:10.008208	5.6	15.9	-61.3	0.0
2025-01-22 18:02:11.134784	5.4	15.8	-67.1	0.0
2025-01-22 18:02:12.261614	5.2	15.7	-65.8	0.0
2025-01-22 18:02:13.388434	5.1	15.6	-63.4	0.0
2025-01-22 18:02:14.514464	4.9	15.5	-65.1	0.0
2025-01-22 18:02:15.638726	4.8	15.4	-64.5	0.0
2025-01-22 18:02:16.766084	4.6	15.3	-65.1	0.0
2025-01-22 18:02:17.890894	4.5	15.2	-65.0	0.0
2025-01-22 18:02:19.017576	4.3	15.1	-65.0	0.0
2025-01-22 18:02:20.146985	4.2	15.0	-64.7	0.0
2025-01-22 18:02:21.272677	4.0	14.9	-64.6	0.0
2025-01-22 18:02:22.399309	3.9	14.8	-64.6	0.0
2025-01-22 18:02:23.526254	3.7	14.8	-64.6	0.0
2025-01-22 18:02:24.652198	3.6	14.7	-63.4	0.0
2025-01-22 18:02:25.779471	3.4	14.6	-64.5	0.0
2025-01-22 18:02:26.905486	3.3	14.5	-65.7	0.0
2025-01-22 18:02:28.033773	3.2	14.4	-64.4	0.0
2025-01-22 18:02:29.159940	3.0	14.3	-61.6	0.0
2025-01-22 18:02:30.286954	2.9	14.2	-62.2	0.0
2025-01-22 18:02:31.413963	2.7	14.1	-63.1	0.0
2025-01-22 18:02:32.540985	2.6	14.0	-62.5	0.0
2025-01-22 18:02:33.668083	2.5	13.9	-61.3	0.0
2025-01-22 18:02:34.795969	2.3	13.8	-62.1	0.0
2025-01-22 18:02:35.923529	2.2	13.8	-61.2	0.0
2025-01-22 18:02:37.049540	2.0	13.7	-61.0	0.0
2025-01-22 18:02:38.177173	1.9	13.6	-61.3	0.0
2025-01-22 18:02:39.302732	1.8	13.5	-63.2	0.0
2025-01-22 18:02:40.428150	1.6	13.4	-61.8	0.0
2025-01-22 18:02:41.556138	1.5	13.3	-60.1	0.0
2025-01-22 18:02:42.683561	1.4	13.2	-61.0	0.0
2025-01-22 18:02:43.808790	1.3	13.1	-61.4	0.0
2025-01-22 18:02:44.935469	1.1	13.0	-61.9	0.0
2025-01-22 18:02:46.062834	1.0	13.0	-64.4	0.0
2025-01-22 18:02:47.188814	0.9	12.9	-61.7	0.0
2025-01-22 18:02:48.315630	0.7	12.8	-66.2	0.0
2025-01-22 18:02:49.442122	0.6	12.7	-66.3	0.0
2025-01-22 18:02:50.568347	0.5	12.6	-64.4	0.0
2025-01-22 18:02:51.694480	0.4	12.5	-66.4	0.0
2025-01-22 18:02:52.819543	0.2	12.4	-65.9	0.0
2025-01-22 18:02:53.944677	0.1	12.3	-66.7	0.0
2025-01-22 18:02:55.070595	360.0	12.3	-66.5	0.0
2025-01-22 18:02:56.196760	359.9	12.2	-65.3	0.0
2025-01-22 18:02:57.322767	359.7	12.1	-64.6	0.0
2025-01-22 18:02:58.448932	359.6	12.0	-64.9	0.0
2025-01-22 18:02:59.575505	359.5	11.9	-66.3	0.0
2025-01-22 18:03:00.702095	359.4	11.8	-66.7	0.0
2025-01-22 18:03:01.828366	359.3	11.7	-65.5	0.0
2025-01-22 18:03:02.953841	359.1	11.7	-66.7	0.0
2025-01-22 18:03:04.080073	359.0	11.6	-65.7	0.0
2025-01-22 18:03:05.206095	358.9	11.5	-68.0	0.0
2025-01-22 18:03:06.332769	358.8	11.4	-66.5	0.0
2025-01-22 18:03:07.458797	358.7	11.3	-66.1	0.0
2025-01-22 18:03:08.585459	358.6	11.2	-65.7	0.0
2025-01-22 18:03:09.712685	358.5	11.1	-65.4	0.0
2025-01-22 18:03:10.838660	358.3	11.1	-65.5	0.0
2025-01-22 18:03:11.964582	358.2	11.0	-65.5	0.0
2025-01-22 18:03:13.090915	358.1	10.9	-62.0	0.0
2025-01-22 18:03:14.217889	358.0	10.8	-67.6	0.0
2025-01-22 18:03:15.345006	357.9	10.7	-70.7	0.0
2025-01-22 18:03:16.472550	357.8	10.6	-75.8	0.0
2025-01-22 18:03:17.598915	357.7	10.6	-75.6	0.0
2025-01-22 18:03:18.725183	357.6	10.5	-77.2	0.0
2025-01-22 18:03:19.852643	357.5	10.4	-78.2	0.0
2025-01-22 18:03:20.981230	357.3	10.3	-79.5	0.0
2025-01-22 18:03:22.107068	357.2	10.2	-80.0	0.0
2025-01-22 18:03:23.232881	357.1	10.1	-79.8	0.0
2025-01-22 18:03:24.358569	357.0	10.1	-79.8	0.0
#Closed at: 2025-01-22 17:54:02.916492