passes_logs/2025/01/22/planumMaritime01/planumMaritime01__20250122_123236_METEOR-M2_2_rec.log

#Pass ID: 20250122_123236_METEOR-M2 2
#Satellite: METEOR-M2 2
#Configuration: METEOR-M2 2
#Start time: 2025-01-22 12:32:41.196303

#LorettStation: 1.0.0 05.05.2024
#Station: planumMaritime01
#Location: 37.49445 lon 55.92918 lat
#TLE: 1 44387U 19038A   25021.18051176  .00000366  00000+0  17858-3 0  9992
#TLE: 2 44387  98.8576 357.6249 0002218  69.4714 290.6702 14.24121645288410

#Time	Az	El	Level	SNR
2025-01-22 12:32:43.371749	169.0	10.2	-76.7	0.0
2025-01-22 12:32:44.499036	169.1	10.3	-76.8	0.0
2025-01-22 12:32:45.625983	169.1	10.4	-77.1	0.0
2025-01-22 12:32:46.751132	169.1	10.5	-76.7	0.0
2025-01-22 12:32:47.879573	169.1	10.6	-76.3	0.0
2025-01-22 12:32:49.002894	169.2	10.7	-76.4	0.0
2025-01-22 12:32:50.130449	169.2	10.8	-76.3	0.0
2025-01-22 12:32:51.256774	169.2	10.9	-76.4	0.0
2025-01-22 12:32:52.382884	169.2	11.0	-76.6	0.0
2025-01-22 12:32:53.509016	169.3	11.1	-76.7	0.0
2025-01-22 12:32:54.635707	169.3	11.2	-76.3	0.0
2025-01-22 12:32:55.761652	169.3	11.3	-76.6	0.0
2025-01-22 12:32:56.888471	169.3	11.4	-76.8	0.0
2025-01-22 12:32:58.016189	169.4	11.5	-76.6	0.0
2025-01-22 12:32:59.145421	169.4	11.6	-76.3	0.0
2025-01-22 12:33:00.271589	169.4	11.7	-76.2	0.0
2025-01-22 12:33:01.396950	169.4	11.8	-76.6	0.0
2025-01-22 12:33:02.524935	169.5	11.9	-76.0	0.0
2025-01-22 12:33:03.651210	169.5	12.0	-76.7	0.0
2025-01-22 12:33:04.778080	169.5	12.2	-77.0	0.0
2025-01-22 12:33:05.905029	169.5	12.3	-77.3	0.0
2025-01-22 12:33:07.030640	169.6	12.4	-77.0	0.0
2025-01-22 12:33:08.157274	169.6	12.5	-76.7	0.0
2025-01-22 12:33:09.284772	169.6	12.6	-77.3	0.0
2025-01-22 12:33:10.410354	169.7	12.7	-76.8	0.0
2025-01-22 12:33:11.537703	169.7	12.8	-77.3	0.0
2025-01-22 12:33:12.664896	169.7	12.9	-77.1	0.0
2025-01-22 12:33:13.790134	169.7	13.0	-77.6	0.0
2025-01-22 12:33:14.915569	169.8	13.1	-77.5	0.0
2025-01-22 12:33:16.043293	169.8	13.3	-77.4	0.0
2025-01-22 12:33:17.169544	169.8	13.4	-77.4	0.0
2025-01-22 12:33:18.295268	169.9	13.5	-77.5	0.0
2025-01-22 12:33:19.421815	169.9	13.6	-76.5	0.0
2025-01-22 12:33:20.547726	169.9	13.7	-77.2	0.0
2025-01-22 12:33:21.673687	169.9	13.8	-77.5	0.0
2025-01-22 12:33:22.799484	170.0	13.9	-77.6	0.0
2025-01-22 12:33:23.926154	170.0	14.1	-77.7	0.0
2025-01-22 12:33:25.051420	170.0	14.2	-77.7	0.0
2025-01-22 12:33:26.176907	170.1	14.3	-77.7	0.0
2025-01-22 12:33:27.302593	170.1	14.4	-77.7	0.0
2025-01-22 12:33:28.429892	170.1	14.5	-77.9	0.0
2025-01-22 12:33:29.556990	170.2	14.7	-77.9	0.0
2025-01-22 12:33:30.683351	170.2	14.8	-77.7	0.0
2025-01-22 12:33:31.811192	170.2	14.9	-77.6	0.0
2025-01-22 12:33:32.936870	170.2	15.0	-77.6	0.0
2025-01-22 12:33:34.060058	170.3	15.1	-77.4	0.0
2025-01-22 12:33:35.186768	170.3	15.3	-77.7	0.0
2025-01-22 12:33:36.311322	170.3	15.4	-77.8	0.0
2025-01-22 12:33:37.440181	170.4	15.5	-77.5	0.0
2025-01-22 12:33:38.564949	170.4	15.6	-77.2	0.0
2025-01-22 12:33:39.691494	170.4	15.7	-77.1	0.0
2025-01-22 12:33:40.815971	170.5	15.9	-77.9	0.0
2025-01-22 12:33:41.942057	170.5	16.0	-77.6	0.0
2025-01-22 12:33:43.068564	170.5	16.1	-78.0	0.0
2025-01-22 12:33:44.194448	170.6	16.3	-77.7	0.0
2025-01-22 12:33:45.319664	170.6	16.4	-77.7	0.0
2025-01-22 12:33:46.444717	170.6	16.5	-77.6	0.0
2025-01-22 12:33:47.568962	170.7	16.6	-78.1	0.0
2025-01-22 12:33:48.695821	170.7	16.8	-78.3	0.0
2025-01-22 12:33:49.822320	170.7	16.9	-77.9	0.0
2025-01-22 12:33:50.949220	170.8	17.0	-78.1	0.0
2025-01-22 12:33:52.075038	170.8	17.2	-78.3	0.0
2025-01-22 12:33:53.201565	170.9	17.3	-77.8	0.0
2025-01-22 12:33:54.326419	170.9	17.4	-77.6	0.0
2025-01-22 12:33:55.454930	170.9	17.6	-78.2	0.0
2025-01-22 12:33:56.582097	171.0	17.7	-78.1	0.0
2025-01-22 12:33:57.709040	171.0	17.8	-77.4	0.0
2025-01-22 12:33:58.836812	171.0	18.0	-77.4	0.0
2025-01-22 12:33:59.963194	171.1	18.1	-77.6	0.0
2025-01-22 12:34:01.089781	171.1	18.2	-77.9	0.0
2025-01-22 12:34:02.216430	171.2	18.4	-77.0	0.0
2025-01-22 12:34:03.345053	171.2	18.5	-77.5	0.0
2025-01-22 12:34:04.472432	171.2	18.7	-77.0	0.0
2025-01-22 12:34:05.599603	171.3	18.8	-76.9	0.0
2025-01-22 12:34:06.727212	171.3	18.9	-76.7	0.0
2025-01-22 12:34:07.853332	171.4	19.1	-77.2	0.0
2025-01-22 12:34:08.980026	171.4	19.2	-77.2	0.0
2025-01-22 12:34:10.107002	171.4	19.4	-77.3	0.0
2025-01-22 12:34:11.233765	171.5	19.5	-77.8	0.0
2025-01-22 12:34:12.360373	171.5	19.7	-76.7	0.0
2025-01-22 12:34:13.486667	171.6	19.8	-77.4	0.0
2025-01-22 12:34:14.613011	171.6	20.0	-77.3	0.0
2025-01-22 12:34:15.739031	171.6	20.1	-77.1	0.0
2025-01-22 12:34:16.865771	171.7	20.3	-77.3	0.0
2025-01-22 12:34:17.994652	171.7	20.4	-77.6	0.0
2025-01-22 12:34:19.119308	171.8	20.6	-76.6	0.0
2025-01-22 12:34:20.247196	171.8	20.7	-77.0	0.0
2025-01-22 12:34:21.375062	171.9	20.9	-77.6	0.0
2025-01-22 12:34:22.501684	171.9	21.0	-77.5	0.0
2025-01-22 12:34:23.629339	172.0	21.2	-77.4	0.0
2025-01-22 12:34:24.755823	172.0	21.3	-77.4	0.0
2025-01-22 12:34:25.882586	172.1	21.5	-76.8	0.0
2025-01-22 12:34:27.009712	172.1	21.7	-76.5	0.0
2025-01-22 12:34:28.135723	172.1	21.8	-76.1	0.0
2025-01-22 12:34:29.261945	172.2	22.0	-77.4	0.0
2025-01-22 12:34:30.388880	172.2	22.1	-78.6	0.0
2025-01-22 12:34:31.516442	172.3	22.3	-77.4	0.0
2025-01-22 12:34:32.640671	172.3	22.5	-77.4	0.0
2025-01-22 12:34:33.767197	172.4	22.6	-77.5	0.0
2025-01-22 12:34:34.894273	172.4	22.8	-77.7	0.0
2025-01-22 12:34:36.019722	172.5	23.0	-76.5	0.0
2025-01-22 12:34:37.146604	172.5	23.1	-76.0	0.0
2025-01-22 12:34:38.273212	172.6	23.3	-76.9	0.0
2025-01-22 12:34:39.401079	172.6	23.5	-76.5	0.0
2025-01-22 12:34:40.527051	172.7	23.6	-75.8	0.0
2025-01-22 12:34:41.654598	172.8	23.8	-76.7	0.0
2025-01-22 12:34:42.780287	172.8	24.0	-76.0	0.0
2025-01-22 12:34:43.905069	172.9	24.1	-76.3	0.0
2025-01-22 12:34:45.031687	172.9	24.3	-76.2	0.0
2025-01-22 12:34:46.158304	173.0	24.5	-75.6	0.0
2025-01-22 12:34:47.284787	173.0	24.7	-75.5	0.0
2025-01-22 12:34:48.410343	173.1	24.9	-75.7	0.0
2025-01-22 12:34:49.537215	173.1	25.0	-76.7	0.0
2025-01-22 12:34:50.662828	173.2	25.2	-75.9	0.0
2025-01-22 12:34:51.789333	173.3	25.4	-76.0	0.0
2025-01-22 12:34:52.914928	173.3	25.6	-76.4	0.0
2025-01-22 12:34:54.042687	173.4	25.8	-76.5	0.0
2025-01-22 12:34:55.171585	173.4	26.0	-75.0	0.0
2025-01-22 12:34:56.299278	173.5	26.1	-75.5	0.0
2025-01-22 12:34:57.426468	173.6	26.3	-76.3	0.0
2025-01-22 12:34:58.551934	173.6	26.5	-75.3	0.0
2025-01-22 12:34:59.678033	173.7	26.7	-75.2	0.0
2025-01-22 12:35:00.806126	173.8	26.9	-77.1	0.0
2025-01-22 12:35:01.932640	173.8	27.1	-77.3	0.0
2025-01-22 12:35:03.057225	173.9	27.3	-76.9	0.0
2025-01-22 12:35:04.184341	173.9	27.5	-76.9	0.0
2025-01-22 12:35:05.311266	174.0	27.7	-77.9	0.0
2025-01-22 12:35:06.438443	174.1	27.9	-76.6	0.0
2025-01-22 12:35:07.566713	174.2	28.1	-77.1	0.0
2025-01-22 12:35:08.689874	174.2	28.3	-77.0	0.0
2025-01-22 12:35:09.816920	174.3	28.5	-77.1	0.0
2025-01-22 12:35:10.944743	174.4	28.7	-76.5	0.0
2025-01-22 12:35:12.069967	174.4	28.9	-76.4	0.0
2025-01-22 12:35:13.196969	174.5	29.1	-77.0	0.0
2025-01-22 12:35:14.321466	174.6	29.3	-77.3	0.0
2025-01-22 12:35:15.447589	174.7	29.5	-77.7	0.0
2025-01-22 12:35:16.574660	174.7	29.7	-76.8	0.0
2025-01-22 12:35:17.701380	174.8	30.0	-77.4	0.0
2025-01-22 12:35:18.827523	174.9	30.2	-77.6	0.0
2025-01-22 12:35:19.953302	175.0	30.4	-77.2	0.0
2025-01-22 12:35:21.078705	175.0	30.6	-78.2	0.0
2025-01-22 12:35:22.206392	175.1	30.8	-77.9	0.0
2025-01-22 12:35:23.333694	175.2	31.1	-77.0	0.0
2025-01-22 12:35:24.461993	175.3	31.3	-77.2	0.0
2025-01-22 12:35:25.588353	175.4	31.5	-77.1	0.0
2025-01-22 12:35:26.715593	175.5	31.7	-76.1	0.0
2025-01-22 12:35:27.844589	175.6	32.0	-77.1	0.0
2025-01-22 12:35:28.970105	175.6	32.2	-77.8	0.0
2025-01-22 12:35:30.096623	175.7	32.4	-77.5	0.0
2025-01-22 12:35:31.223677	175.8	32.7	-77.5	0.0
2025-01-22 12:35:32.349760	175.9	32.9	-77.3	0.0
2025-01-22 12:35:33.477535	176.0	33.1	-77.4	0.0
2025-01-22 12:35:34.603371	176.1	33.4	-77.1	0.0
2025-01-22 12:35:35.728975	176.2	33.6	-77.4	0.0
2025-01-22 12:35:36.853516	176.3	33.9	-77.7	0.0
2025-01-22 12:35:37.979754	176.4	34.1	-78.4	0.0
2025-01-22 12:35:39.106400	176.5	34.4	-78.0	0.0
2025-01-22 12:35:40.233747	176.6	34.6	-78.1	0.0
2025-01-22 12:35:41.359858	176.7	34.9	-77.9	0.0
2025-01-22 12:35:42.485658	176.8	35.1	-77.3	0.0
2025-01-22 12:35:43.611533	176.9	35.4	-78.6	0.0
2025-01-22 12:35:44.738539	177.0	35.6	-78.7	0.0
2025-01-22 12:35:45.863866	177.1	35.9	-78.4	0.0
2025-01-22 12:35:46.991410	177.2	36.1	-78.2	0.0
2025-01-22 12:35:48.116183	177.3	36.4	-78.7	0.0
2025-01-22 12:35:49.242521	177.5	36.7	-78.7	0.0
2025-01-22 12:35:50.369886	177.6	36.9	-78.6	0.0
2025-01-22 12:35:51.494759	177.7	37.2	-79.4	0.0
2025-01-22 12:35:52.621121	177.8	37.5	-78.9	0.0
2025-01-22 12:35:53.746944	177.9	37.8	-79.5	0.0
2025-01-22 12:35:54.873799	178.1	38.0	-79.0	0.0
2025-01-22 12:35:56.000925	178.2	38.3	-79.6	0.0
2025-01-22 12:35:57.128434	178.3	38.6	-79.3	0.0
2025-01-22 12:35:58.257918	178.4	38.9	-79.3	0.0
2025-01-22 12:35:59.382369	178.6	39.2	-79.6	0.0
2025-01-22 12:36:00.509764	178.7	39.4	-78.5	0.0
2025-01-22 12:36:01.635074	178.8	39.7	-79.3	0.0
2025-01-22 12:36:02.761072	179.0	40.0	-79.4	0.0
2025-01-22 12:36:03.887666	179.1	40.3	-79.8	0.0
2025-01-22 12:36:05.013925	179.3	40.6	-79.4	0.0
2025-01-22 12:36:06.139862	179.4	40.9	-79.6	0.0
2025-01-22 12:36:07.266053	179.6	41.2	-79.7	0.0
2025-01-22 12:36:08.390054	179.7	41.5	-80.0	0.0
2025-01-22 12:36:09.514716	179.9	41.8	-79.6	0.0
2025-01-22 12:36:10.640551	180.0	42.1	-79.3	0.0
2025-01-22 12:36:11.766067	180.2	42.4	-80.0	0.0
2025-01-22 12:36:12.893754	180.3	42.7	-80.0	0.0
2025-01-22 12:36:14.020048	180.5	43.1	-79.6	0.0
2025-01-22 12:36:15.145924	180.7	43.4	-79.2	0.0
2025-01-22 12:36:16.273072	180.9	43.7	-79.4	0.0
2025-01-22 12:36:17.400802	181.0	44.0	-79.5	0.0
2025-01-22 12:36:18.528333	181.2	44.3	-78.9	0.0
2025-01-22 12:36:19.655854	181.4	44.7	-79.4	0.0
2025-01-22 12:36:20.780602	181.6	45.0	-79.3	0.0
2025-01-22 12:36:21.906212	181.8	45.3	-80.1	0.0
2025-01-22 12:36:23.032206	182.0	45.7	-80.5	0.0
2025-01-22 12:36:24.159148	182.2	46.0	-79.5	0.0
2025-01-22 12:36:25.284485	182.4	46.3	-79.1	0.0
2025-01-22 12:36:26.411573	182.6	46.7	-80.7	0.0
2025-01-22 12:36:27.538903	182.8	47.0	-79.0	0.0
2025-01-22 12:36:28.664608	183.0	47.4	-79.1	0.0
2025-01-22 12:36:29.793248	183.2	47.7	-79.4	0.0
2025-01-22 12:36:30.917600	183.5	48.1	-79.4	0.0
2025-01-22 12:36:32.043626	183.7	48.4	-78.4	0.0
2025-01-22 12:36:33.171420	183.9	48.8	-79.4	0.0
2025-01-22 12:36:34.297892	184.2	49.1	-80.1	0.0
2025-01-22 12:36:35.424236	184.4	49.5	-79.8	0.0
2025-01-22 12:36:36.549365	184.7	49.8	-79.9	0.0
2025-01-22 12:36:37.675629	184.9	50.2	-80.4	0.0
2025-01-22 12:36:38.802056	185.2	50.6	-80.0	0.0
2025-01-22 12:36:39.928556	185.5	50.9	-79.3	0.0
2025-01-22 12:36:41.055516	185.8	51.3	-79.8	0.0
2025-01-22 12:36:42.181582	186.1	51.7	-79.7	0.0
2025-01-22 12:36:43.307598	186.4	52.1	-79.8	0.0
2025-01-22 12:36:44.432036	186.7	52.4	-79.9	0.0
2025-01-22 12:36:45.558529	187.0	52.8	-79.5	0.0
2025-01-22 12:36:46.683455	187.3	53.2	-79.5	0.0
2025-01-22 12:36:47.810234	187.6	53.6	-78.8	0.0
2025-01-22 12:36:48.935502	187.9	54.0	-79.5	0.0
2025-01-22 12:36:50.061500	188.3	54.4	-79.0	0.0
2025-01-22 12:36:51.186279	188.6	54.8	-79.7	0.0
2025-01-22 12:36:52.313167	189.0	55.1	-79.8	0.0
2025-01-22 12:36:53.440781	189.4	55.5	-79.4	0.0
2025-01-22 12:36:54.566416	189.8	55.9	-79.7	0.0
2025-01-22 12:36:55.692998	190.2	56.3	-79.9	0.0
2025-01-22 12:36:56.818013	190.6	56.7	-79.5	0.0
2025-01-22 12:36:57.942634	191.0	57.1	-79.5	0.0
2025-01-22 12:36:59.067921	191.4	57.5	-80.0	0.0
2025-01-22 12:37:00.193294	191.8	57.9	-79.9	0.0
2025-01-22 12:37:01.319993	192.3	58.3	-80.0	0.0
2025-01-22 12:37:02.444574	192.8	58.7	-80.2	0.0
2025-01-22 12:37:03.571343	193.3	59.1	-80.6	0.0
2025-01-22 12:37:04.695817	193.8	59.6	-80.0	0.0
2025-01-22 12:37:05.823767	194.3	60.0	-79.9	0.0
2025-01-22 12:37:06.951564	194.8	60.4	-80.3	0.0
2025-01-22 12:37:08.078120	195.3	60.8	-80.0	0.0
2025-01-22 12:37:09.204906	195.9	61.2	-80.0	0.0
2025-01-22 12:37:10.331979	196.5	61.6	-80.6	0.0
2025-01-22 12:37:11.458804	197.1	62.0	-80.3	0.0
2025-01-22 12:37:12.584876	197.7	62.4	-80.0	0.0
2025-01-22 12:37:13.711191	198.4	62.8	-81.0	0.0
2025-01-22 12:37:14.839850	199.0	63.2	-81.2	0.0
2025-01-22 12:37:15.964382	199.7	63.6	-80.5	0.0
2025-01-22 12:37:17.090749	200.5	64.0	-80.9	0.0
2025-01-22 12:37:18.215675	201.2	64.4	-80.5	0.0
2025-01-22 12:37:19.341008	202.0	64.8	-80.8	0.0
2025-01-22 12:37:20.469919	202.8	65.2	-81.1	0.0
2025-01-22 12:37:21.596848	203.6	65.6	-80.9	0.0
2025-01-22 12:37:22.722816	204.4	66.0	-81.1	0.0
2025-01-22 12:37:23.848985	205.3	66.4	-81.0	0.0
2025-01-22 12:37:24.974480	206.2	66.8	-81.0	0.0
2025-01-22 12:37:26.099386	207.2	67.2	-81.3	0.0
2025-01-22 12:37:27.225717	208.2	67.6	-81.3	0.0
2025-01-22 12:37:28.349726	209.2	67.9	-80.9	0.0
2025-01-22 12:37:29.473876	210.3	68.3	-80.4	0.0
2025-01-22 12:37:30.599971	211.4	68.7	-80.7	0.0
2025-01-22 12:37:31.727679	212.5	69.0	-80.8	0.0
2025-01-22 12:37:32.852687	213.7	69.4	-80.9	0.0
2025-01-22 12:37:33.977002	214.9	69.7	-80.8	0.0
2025-01-22 12:37:35.102113	216.2	70.1	-80.5	0.0
2025-01-22 12:37:36.227630	217.5	70.4	-81.0	0.0
2025-01-22 12:37:37.352956	218.9	70.7	-80.9	0.0
2025-01-22 12:37:38.479883	220.3	71.0	-80.7	0.0
2025-01-22 12:37:39.603812	221.7	71.3	-81.4	0.0
2025-01-22 12:37:40.729473	223.2	71.6	-81.2	0.0
2025-01-22 12:37:41.854840	224.8	71.9	-81.4	0.0
2025-01-22 12:37:42.980947	226.4	72.2	-81.1	0.0
2025-01-22 12:37:44.104618	228.1	72.4	-81.5	0.0
2025-01-22 12:37:45.230827	229.8	72.7	-80.8	0.0
2025-01-22 12:37:46.357633	231.5	72.9	-81.3	0.0
2025-01-22 12:37:47.484991	233.3	73.1	-81.3	0.0
2025-01-22 12:37:48.611399	235.2	73.3	-81.3	0.0
2025-01-22 12:37:49.738726	237.1	73.5	-81.4	0.0
2025-01-22 12:37:50.863952	239.0	73.6	-81.5	0.0
2025-01-22 12:37:51.988804	241.0	73.8	-81.3	0.0
2025-01-22 12:37:53.113543	243.0	73.9	-81.3	0.0
2025-01-22 12:37:54.239205	245.0	74.0	-81.3	0.0
2025-01-22 12:37:55.365205	247.1	74.1	-81.2	0.0
2025-01-22 12:37:56.490843	249.2	74.1	-81.5	0.0
2025-01-22 12:37:57.615322	251.3	74.2	-81.3	0.0
2025-01-22 12:37:58.740337	253.4	74.2	-81.5	0.0
2025-01-22 12:37:59.867150	255.5	74.2	-81.4	0.0
2025-01-22 12:38:00.992996	257.6	74.2	-81.4	0.0
2025-01-22 12:38:02.118960	259.7	74.1	-81.4	0.0
2025-01-22 12:38:03.245418	261.8	74.1	-81.5	0.0
2025-01-22 12:38:04.369799	263.8	74.0	-81.1	0.0
2025-01-22 12:38:05.495710	265.9	73.9	-81.3	0.0
2025-01-22 12:38:06.621826	267.9	73.8	-81.2	0.0
2025-01-22 12:38:07.749059	269.9	73.7	-80.5	0.0
2025-01-22 12:38:08.877908	271.8	73.5	-81.1	0.0
2025-01-22 12:38:10.003437	273.7	73.3	-80.7	0.0
2025-01-22 12:38:11.131037	275.6	73.1	-80.7	0.0
2025-01-22 12:38:12.255888	277.4	72.9	-81.0	0.0
2025-01-22 12:38:13.382907	279.2	72.7	-80.9	0.0
2025-01-22 12:38:14.508763	280.9	72.5	-79.9	0.0
2025-01-22 12:38:15.635899	282.6	72.2	-80.3	0.0
2025-01-22 12:38:16.761572	284.2	72.0	-80.2	0.0
2025-01-22 12:38:17.888441	285.8	71.7	-80.8	0.0
2025-01-22 12:38:19.014702	287.3	71.4	-80.7	0.0
2025-01-22 12:38:20.140116	288.8	71.1	-80.5	0.0
2025-01-22 12:38:21.266021	290.2	70.8	-80.2	0.0
2025-01-22 12:38:22.391114	291.6	70.5	-80.2	0.0
2025-01-22 12:38:23.518295	292.9	70.2	-80.0	0.0
2025-01-22 12:38:24.645819	294.2	69.8	-79.8	0.0
2025-01-22 12:38:25.773247	295.4	69.5	-80.2	0.0
2025-01-22 12:38:26.901805	296.6	69.1	-79.9	0.0
2025-01-22 12:38:28.026898	297.8	68.8	-79.8	0.0
2025-01-22 12:38:29.153217	298.9	68.4	-80.3	0.0
2025-01-22 12:38:30.280309	300.0	68.1	-79.1	0.0
2025-01-22 12:38:31.405806	301.0	67.7	-79.3	0.0
2025-01-22 12:38:32.533537	302.0	67.3	-79.5	0.0
2025-01-22 12:38:33.659313	302.9	66.9	-79.5	0.0
2025-01-22 12:38:34.787648	303.9	66.5	-79.3	0.0
2025-01-22 12:38:35.913821	304.8	66.2	-79.9	0.0
2025-01-22 12:38:37.041311	305.6	65.8	-78.4	0.0
2025-01-22 12:38:38.168101	306.5	65.4	-77.8	0.0
2025-01-22 12:38:39.292551	307.3	65.0	-78.6	0.0
2025-01-22 12:38:40.418258	308.0	64.6	-78.9	0.0
2025-01-22 12:38:41.544661	308.8	64.2	-79.2	0.0
2025-01-22 12:38:42.671768	309.5	63.8	-78.4	0.0
2025-01-22 12:38:43.799398	310.2	63.4	-78.3	0.0
2025-01-22 12:38:44.924959	310.9	63.0	-78.6	0.0
2025-01-22 12:38:46.050551	311.5	62.5	-78.3	0.0
2025-01-22 12:38:47.174807	312.2	62.1	-78.0	0.0
2025-01-22 12:38:48.301934	312.8	61.7	-78.6	0.0
2025-01-22 12:38:49.428657	313.4	61.3	-78.1	0.0
2025-01-22 12:38:50.554285	313.9	60.9	-78.0	0.0
2025-01-22 12:38:51.679455	314.5	60.5	-77.8	0.0
2025-01-22 12:38:52.804443	315.0	60.1	-77.0	0.0
2025-01-22 12:38:53.930802	315.5	59.7	-77.6	0.0
2025-01-22 12:38:55.056695	316.0	59.3	-77.9	0.0
2025-01-22 12:38:56.182344	316.5	58.9	-78.2	0.0
2025-01-22 12:38:57.308258	317.0	58.5	-77.0	0.0
2025-01-22 12:38:58.433007	317.5	58.1	-77.1	0.0
2025-01-22 12:38:59.560740	317.9	57.7	-77.1	0.0
2025-01-22 12:39:00.686993	318.3	57.3	-75.2	0.0
2025-01-22 12:39:01.812883	318.8	56.9	-77.3	0.0
2025-01-22 12:39:02.938171	319.2	56.5	-75.8	0.0
2025-01-22 12:39:04.063986	319.6	56.1	-76.7	0.0
2025-01-22 12:39:05.189922	320.0	55.7	-76.4	0.0
2025-01-22 12:39:06.317221	320.3	55.3	-76.2	0.0
2025-01-22 12:39:07.441951	320.7	54.9	-77.4	0.0
2025-01-22 12:39:08.567998	321.0	54.5	-78.0	0.0
2025-01-22 12:39:09.693850	321.4	54.1	-76.7	0.0
2025-01-22 12:39:10.821177	321.7	53.8	-75.4	0.0
2025-01-22 12:39:11.947217	322.1	53.4	-77.3	0.0
2025-01-22 12:39:13.072386	322.4	53.0	-76.4	0.0
2025-01-22 12:39:14.197937	322.7	52.6	-75.5	0.0
2025-01-22 12:39:15.324400	323.0	52.2	-76.4	0.0
2025-01-22 12:39:16.448539	323.3	51.9	-77.2	0.0
2025-01-22 12:39:17.574021	323.6	51.5	-76.1	0.0
2025-01-22 12:39:18.700616	323.9	51.1	-75.4	0.0
2025-01-22 12:39:19.827380	324.1	50.8	-76.4	0.0
2025-01-22 12:39:20.952832	324.4	50.4	-76.2	0.0
2025-01-22 12:39:22.079430	324.7	50.0	-74.3	0.0
2025-01-22 12:39:23.204224	324.9	49.7	-76.2	0.0
2025-01-22 12:39:24.329897	325.2	49.3	-75.7	0.0
2025-01-22 12:39:25.456709	325.4	48.9	-75.6	0.0
2025-01-22 12:39:26.582774	325.7	48.6	-76.3	0.0
2025-01-22 12:39:27.709136	325.9	48.2	-76.7	0.0
2025-01-22 12:39:28.835667	326.1	47.9	-77.8	0.0
2025-01-22 12:39:29.961824	326.4	47.5	-76.8	0.0
2025-01-22 12:39:31.087387	326.6	47.2	-75.9	0.0
2025-01-22 12:39:32.212606	326.8	46.9	-76.3	0.0
2025-01-22 12:39:33.337669	327.0	46.5	-73.6	0.0
2025-01-22 12:39:34.465066	327.2	46.2	-73.0	0.0
2025-01-22 12:39:35.593424	327.4	45.8	-73.7	0.0
2025-01-22 12:39:36.719721	327.6	45.5	-73.8	0.0
2025-01-22 12:39:37.846904	327.8	45.2	-74.8	0.0
2025-01-22 12:39:38.975734	328.0	44.8	-74.6	0.0
2025-01-22 12:39:40.101506	328.2	44.5	-75.4	0.0
2025-01-22 12:39:41.228011	328.4	44.2	-74.3	0.0
2025-01-22 12:39:42.353326	328.5	43.9	-75.3	0.0
2025-01-22 12:39:43.479954	328.7	43.6	-76.7	0.0
2025-01-22 12:39:44.606821	328.9	43.2	-73.8	0.0
2025-01-22 12:39:45.732786	329.0	42.9	-74.2	0.0
2025-01-22 12:39:46.859357	329.2	42.6	-72.9	0.0
2025-01-22 12:39:47.985774	329.4	42.3	-74.2	0.0
2025-01-22 12:39:49.111875	329.5	42.0	-71.8	0.0
2025-01-22 12:39:50.238537	329.7	41.7	-71.6	0.0
2025-01-22 12:39:51.368807	329.8	41.4	-72.6	0.0
2025-01-22 12:39:52.493686	330.0	41.1	-75.4	0.0
2025-01-22 12:39:53.621998	330.1	40.8	-71.8	0.0
2025-01-22 12:39:54.748089	330.3	40.5	-72.2	0.0
2025-01-22 12:39:55.873454	330.4	40.2	-73.0	0.0
2025-01-22 12:39:57.002077	330.6	39.9	-73.5	0.0
2025-01-22 12:39:58.129078	330.7	39.6	-73.3	0.0
2025-01-22 12:39:59.255011	330.8	39.3	-70.4	0.0
2025-01-22 12:40:00.380466	331.0	39.1	-72.6	0.0
2025-01-22 12:40:01.507087	331.1	38.8	-72.8	0.0
2025-01-22 12:40:02.632002	331.2	38.5	-75.0	0.0
2025-01-22 12:40:03.758483	331.4	38.2	-74.2	0.0
2025-01-22 12:40:04.888920	331.5	37.9	-73.7	0.0
2025-01-22 12:40:06.015621	331.6	37.7	-74.2	0.0
2025-01-22 12:40:07.141973	331.7	37.4	-72.2	0.0
2025-01-22 12:40:08.268225	331.8	37.1	-74.3	0.0
2025-01-22 12:40:09.395017	332.0	36.9	-72.0	0.0
2025-01-22 12:40:10.520840	332.1	36.6	-73.5	0.0
2025-01-22 12:40:11.646312	332.2	36.3	-71.2	0.0
2025-01-22 12:40:12.772658	332.3	36.1	-71.9	0.0
2025-01-22 12:40:13.898998	332.4	35.8	-71.4	0.0
2025-01-22 12:40:15.024988	332.5	35.6	-71.0	0.0
2025-01-22 12:40:16.152505	332.6	35.3	-71.2	0.0
2025-01-22 12:40:17.279549	332.7	35.1	-71.1	0.0
2025-01-22 12:40:18.404843	332.8	34.8	-69.9	0.0
2025-01-22 12:40:19.533717	332.9	34.6	-70.2	0.0
2025-01-22 12:40:20.658989	333.0	34.3	-71.4	0.0
2025-01-22 12:40:21.785958	333.1	34.1	-69.7	0.0
2025-01-22 12:40:22.911622	333.2	33.8	-70.7	0.0
2025-01-22 12:40:24.037586	333.3	33.6	-69.0	0.0
2025-01-22 12:40:25.161947	333.4	33.3	-71.0	0.0
2025-01-22 12:40:26.288245	333.5	33.1	-69.3	0.0
2025-01-22 12:40:27.413950	333.6	32.9	-70.5	0.0
2025-01-22 12:40:28.538786	333.7	32.6	-71.5	0.0
2025-01-22 12:40:29.665497	333.8	32.4	-71.5	0.0
2025-01-22 12:40:30.791981	333.9	32.2	-69.0	0.0
2025-01-22 12:40:31.915386	334.0	31.9	-70.6	0.0
2025-01-22 12:40:33.040322	334.1	31.7	-70.1	0.0
2025-01-22 12:40:34.166038	334.1	31.5	-70.6	0.0
2025-01-22 12:40:35.292986	334.2	31.3	-71.2	0.0
2025-01-22 12:40:36.417484	334.3	31.0	-70.8	0.0
2025-01-22 12:40:37.541789	334.4	30.8	-70.6	0.0
2025-01-22 12:40:38.667498	334.5	30.6	-71.1	0.0
2025-01-22 12:40:39.793703	334.5	30.4	-71.2	0.0
2025-01-22 12:40:40.920610	334.6	30.2	-70.2	0.0
2025-01-22 12:40:42.044992	334.7	30.0	-71.5	0.0
2025-01-22 12:40:43.171445	334.8	29.7	-70.4	0.0
2025-01-22 12:40:44.295779	334.9	29.5	-70.4	0.0
2025-01-22 12:40:45.420481	334.9	29.3	-71.3	0.0
2025-01-22 12:40:46.546965	335.0	29.1	-69.9	0.0
2025-01-22 12:40:47.672313	335.1	28.9	-69.5	0.0
2025-01-22 12:40:48.798568	335.1	28.7	-68.6	0.0
2025-01-22 12:40:49.924684	335.2	28.5	-70.3	0.0
2025-01-22 12:40:51.050051	335.3	28.3	-68.6	0.0
2025-01-22 12:40:52.176783	335.4	28.1	-69.7	0.0
2025-01-22 12:40:53.303015	335.4	27.9	-68.5	0.0
2025-01-22 12:40:54.430047	335.5	27.7	-69.7	0.0
2025-01-22 12:40:55.554841	335.6	27.5	-69.9	0.0
2025-01-22 12:40:56.681822	335.6	27.3	-70.1	0.0
2025-01-22 12:40:57.807452	335.7	27.1	-67.9	0.0
2025-01-22 12:40:58.934959	335.8	26.9	-68.7	0.0
2025-01-22 12:41:00.061898	335.8	26.7	-69.0	0.0
2025-01-22 12:41:01.185578	335.9	26.5	-69.7	0.0
2025-01-22 12:41:02.312775	336.0	26.4	-69.4	0.0
2025-01-22 12:41:03.438242	336.0	26.2	-67.8	0.0
2025-01-22 12:41:04.567005	336.1	26.0	-68.4	0.0
2025-01-22 12:41:05.693748	336.1	25.8	-67.7	0.0
2025-01-22 12:41:06.820664	336.2	25.6	-66.9	0.0
2025-01-22 12:41:07.949818	336.3	25.4	-68.9	0.0
2025-01-22 12:41:09.076660	336.3	25.3	-70.6	0.0
2025-01-22 12:41:10.201537	336.4	25.1	-69.2	0.0
2025-01-22 12:41:11.326951	336.4	24.9	-68.5	0.0
2025-01-22 12:41:12.452382	336.5	24.7	-68.7	0.0
2025-01-22 12:41:13.577846	336.5	24.5	-68.7	0.0
2025-01-22 12:41:14.704639	336.6	24.4	-69.1	0.0
2025-01-22 12:41:15.829897	336.7	24.2	-70.7	0.0
2025-01-22 12:41:16.955820	336.7	24.0	-68.8	0.0
2025-01-22 12:41:18.083453	336.8	23.9	-69.8	0.0
2025-01-22 12:41:19.208809	336.8	23.7	-69.5	0.0
2025-01-22 12:41:20.335626	336.9	23.5	-69.9	0.0
2025-01-22 12:41:21.461270	336.9	23.3	-70.2	0.0
2025-01-22 12:41:22.586835	337.0	23.2	-69.0	0.0
2025-01-22 12:41:23.713897	337.0	23.0	-68.6	0.0
2025-01-22 12:41:24.841950	337.1	22.8	-70.4	0.0
2025-01-22 12:41:25.969341	337.1	22.7	-68.1	0.0
2025-01-22 12:41:27.095167	337.2	22.5	-69.0	0.0
2025-01-22 12:41:28.221006	337.2	22.4	-68.7	0.0
2025-01-22 12:41:29.348361	337.3	22.2	-68.3	0.0
2025-01-22 12:41:30.477564	337.3	22.0	-68.7	0.0
2025-01-22 12:41:31.603412	337.4	21.9	-69.6	0.0
2025-01-22 12:41:32.728981	337.4	21.7	-69.5	0.0
2025-01-22 12:41:33.855856	337.5	21.6	-68.3	0.0
2025-01-22 12:41:34.982715	337.5	21.4	-67.9	0.0
2025-01-22 12:41:36.110315	337.6	21.3	-68.0	0.0
2025-01-22 12:41:37.236809	337.6	21.1	-68.3	0.0
2025-01-22 12:41:38.366540	337.7	20.9	-66.3	0.0
2025-01-22 12:41:39.491673	337.7	20.8	-68.5	0.0
2025-01-22 12:41:40.619056	337.7	20.6	-68.3	0.0
2025-01-22 12:41:41.744529	337.8	20.5	-67.3	0.0
2025-01-22 12:41:42.869268	337.8	20.3	-65.7	0.0
2025-01-22 12:41:43.996923	337.9	20.2	-67.1	0.0
2025-01-22 12:41:45.122808	337.9	20.0	-67.0	0.0
2025-01-22 12:41:46.248848	338.0	19.9	-69.2	0.0
2025-01-22 12:41:47.376517	338.0	19.8	-68.2	0.0
2025-01-22 12:41:48.502058	338.1	19.6	-68.0	0.0
2025-01-22 12:41:49.628521	338.1	19.5	-68.4	0.0
2025-01-22 12:41:50.756611	338.1	19.3	-68.5	0.0
2025-01-22 12:41:51.881599	338.2	19.2	-65.9	0.0
2025-01-22 12:41:53.009051	338.2	19.0	-67.3	0.0
2025-01-22 12:41:54.133823	338.3	18.9	-68.8	0.0
2025-01-22 12:41:55.259162	338.3	18.8	-67.8	0.0
2025-01-22 12:41:56.383676	338.3	18.6	-68.7	0.0
2025-01-22 12:41:57.508947	338.4	18.5	-67.7	0.0
2025-01-22 12:41:58.636858	338.4	18.3	-68.4	0.0
2025-01-22 12:41:59.762931	338.5	18.2	-67.6	0.0
2025-01-22 12:42:00.887979	338.5	18.1	-67.5	0.0
2025-01-22 12:42:02.016027	338.5	17.9	-66.1	0.0
2025-01-22 12:42:03.143109	338.6	17.8	-67.3	0.0
2025-01-22 12:42:04.269691	338.6	17.7	-68.4	0.0
2025-01-22 12:42:05.396459	338.6	17.5	-68.2	0.0
2025-01-22 12:42:06.523353	338.7	17.4	-67.6	0.0
2025-01-22 12:42:07.650002	338.7	17.3	-68.7	0.0
2025-01-22 12:42:08.778334	338.8	17.1	-66.3	0.0
2025-01-22 12:42:09.903286	338.8	17.0	-67.9	0.0
2025-01-22 12:42:11.028575	338.8	16.9	-66.0	0.0
2025-01-22 12:42:12.154435	338.9	16.7	-69.4	0.0
2025-01-22 12:42:13.279985	338.9	16.6	-66.1	0.0
2025-01-22 12:42:14.408061	338.9	16.5	-66.8	0.0
2025-01-22 12:42:15.533492	339.0	16.4	-66.8	0.0
2025-01-22 12:42:16.659664	339.0	16.2	-64.9	0.0
2025-01-22 12:42:17.785103	339.0	16.1	-65.0	0.0
2025-01-22 12:42:18.911672	339.1	16.0	-65.3	0.0
2025-01-22 12:42:20.037148	339.1	15.9	-65.7	0.0
2025-01-22 12:42:21.163545	339.1	15.7	-64.7	0.0
2025-01-22 12:42:22.290954	339.2	15.6	-66.3	0.0
2025-01-22 12:42:23.414680	339.2	15.5	-66.5	0.0
2025-01-22 12:42:24.540771	339.2	15.4	-66.4	0.0
2025-01-22 12:42:25.667674	339.3	15.2	-66.6	0.0
2025-01-22 12:42:26.795516	339.3	15.1	-66.9	0.0
2025-01-22 12:42:27.924259	339.3	15.0	-68.6	0.0
2025-01-22 12:42:29.049872	339.4	14.9	-68.3	0.0
2025-01-22 12:42:30.175560	339.4	14.8	-68.8	0.0
2025-01-22 12:42:31.302672	339.4	14.6	-66.4	0.0
2025-01-22 12:42:32.430551	339.5	14.5	-67.8	0.0
2025-01-22 12:42:33.556164	339.5	14.4	-67.4	0.0
2025-01-22 12:42:34.683653	339.5	14.3	-66.3	0.0
2025-01-22 12:42:35.809901	339.6	14.2	-67.1	0.0
2025-01-22 12:42:36.935725	339.6	14.1	-67.5	0.0
2025-01-22 12:42:38.064689	339.6	13.9	-67.4	0.0
2025-01-22 12:42:39.191701	339.6	13.8	-66.0	0.0
2025-01-22 12:42:40.317201	339.7	13.7	-65.8	0.0
2025-01-22 12:42:41.443468	339.7	13.6	-65.4	0.0
2025-01-22 12:42:42.568719	339.7	13.5	-66.5	0.0
2025-01-22 12:42:43.695198	339.8	13.4	-64.9	0.0
2025-01-22 12:42:44.820531	339.8	13.3	-65.0	0.0
2025-01-22 12:42:45.948176	339.8	13.2	-64.7	0.0
2025-01-22 12:42:47.074990	339.9	13.0	-66.4	0.0
2025-01-22 12:42:48.202258	339.9	12.9	-66.8	0.0
2025-01-22 12:42:49.328886	339.9	12.8	-64.8	0.0
2025-01-22 12:42:50.452621	339.9	12.7	-69.2	0.0
2025-01-22 12:42:51.579895	340.0	12.6	-68.7	0.0
2025-01-22 12:42:52.705076	340.0	12.5	-63.1	0.0
2025-01-22 12:42:53.831010	340.0	12.4	-64.9	0.0
2025-01-22 12:42:54.958706	340.1	12.3	-70.0	0.0
2025-01-22 12:42:56.087151	340.1	12.2	-64.2	0.0
2025-01-22 12:42:57.212166	340.1	12.1	-66.6	0.0
2025-01-22 12:42:58.338893	340.1	12.0	-69.8	0.0
2025-01-22 12:42:59.466482	340.2	11.9	-69.3	0.0
2025-01-22 12:43:00.594123	340.2	11.8	-64.1	0.0
2025-01-22 12:43:01.718543	340.2	11.7	-65.3	0.0
2025-01-22 12:43:02.845463	340.2	11.5	-69.2	0.0
2025-01-22 12:43:03.971826	340.3	11.4	-65.9	0.0
2025-01-22 12:43:05.098138	340.3	11.3	-63.6	0.0
2025-01-22 12:43:06.225174	340.3	11.2	-66.6	0.0
2025-01-22 12:43:07.350439	340.3	11.1	-64.9	0.0
2025-01-22 12:43:08.478213	340.4	11.0	-65.3	0.0
2025-01-22 12:43:09.605581	340.4	10.9	-66.9	0.0
2025-01-22 12:43:10.732893	340.4	10.8	-70.5	0.0
2025-01-22 12:43:11.860198	340.4	10.7	-70.8	0.0
2025-01-22 12:43:12.986791	340.5	10.6	-72.5	0.0
2025-01-22 12:43:14.112818	340.5	10.5	-76.6	0.0
2025-01-22 12:43:15.238076	340.5	10.4	-78.0	0.0
2025-01-22 12:43:16.365398	340.5	10.3	-79.2	0.0
2025-01-22 12:43:17.493308	340.6	10.2	-80.0	0.0
2025-01-22 12:43:18.618843	340.6	10.1	-81.2	0.0
#Closed at: 2025-01-22 12:32:36.201504