passes_logs/2025/01/22/planumMaritime01/planumMaritime01__20250122_015859_METEOR-M2_4_rec.log

#Pass ID: 20250122_015859_METEOR-M2 4
#Satellite: METEOR-M2 4
#Configuration: METEOR-M2 4
#Start time: 2025-01-22 01:59:04.667706

#LorettStation: 1.0.0 05.05.2024
#Station: planumMaritime01
#Location: 37.49445 lon 55.92918 lat
#TLE: 1 59051U 24039A   25021.14815225  .00000157  00000+0  89881-4 0  9996
#TLE: 2 59051  98.6303 344.0289 0006470 205.0409 155.0456 14.22327239 46470

#Time	Az	El	Level	SNR
2025-01-22 01:59:06.829124	7.8	10.2	-74.5	0.0
2025-01-22 01:59:07.954716	7.7	10.3	-74.9	0.0
2025-01-22 01:59:09.077274	7.6	10.4	-74.5	0.0
2025-01-22 01:59:10.199827	7.6	10.5	-75.3	0.0
2025-01-22 01:59:11.325614	7.5	10.6	-75.5	0.0
2025-01-22 01:59:12.447836	7.4	10.6	-75.1	0.0
2025-01-22 01:59:13.569478	7.4	10.7	-74.7	0.0
2025-01-22 01:59:14.690878	7.3	10.8	-75.1	0.0
2025-01-22 01:59:15.814343	7.2	10.9	-75.2	0.0
2025-01-22 01:59:16.935219	7.1	11.0	-75.8	0.0
2025-01-22 01:59:18.058754	7.1	11.1	-75.2	0.0
2025-01-22 01:59:19.182253	7.0	11.2	-75.7	0.0
2025-01-22 01:59:20.303911	6.9	11.3	-76.2	0.0
2025-01-22 01:59:21.426403	6.9	11.4	-76.2	0.0
2025-01-22 01:59:22.550091	6.8	11.5	-76.3	0.0
2025-01-22 01:59:23.672730	6.7	11.6	-75.7	0.0
2025-01-22 01:59:24.795775	6.6	11.7	-76.3	0.0
2025-01-22 01:59:25.919903	6.6	11.8	-75.7	0.0
2025-01-22 01:59:27.042540	6.5	11.9	-76.3	0.0
2025-01-22 01:59:28.166179	6.4	12.0	-76.2	0.0
2025-01-22 01:59:29.287859	6.3	12.1	-76.9	0.0
2025-01-22 01:59:30.410550	6.3	12.2	-76.6	0.0
2025-01-22 01:59:31.536322	6.2	12.3	-76.8	0.0
2025-01-22 01:59:32.659017	6.1	12.4	-75.7	0.0
2025-01-22 01:59:33.781914	6.0	12.5	-75.6	0.0
2025-01-22 01:59:34.904384	6.0	12.6	-76.4	0.0
2025-01-22 01:59:36.029224	5.9	12.7	-75.6	0.0
2025-01-22 01:59:37.152187	5.8	12.8	-75.5	0.0
2025-01-22 01:59:38.274519	5.7	12.9	-75.6	0.0
2025-01-22 01:59:39.398727	5.6	13.0	-75.4	0.0
2025-01-22 01:59:40.522264	5.6	13.1	-77.3	0.0
2025-01-22 01:59:41.645766	5.5	13.2	-77.3	0.0
2025-01-22 01:59:42.769132	5.4	13.3	-77.7	0.0
2025-01-22 01:59:43.892791	5.3	13.4	-77.3	0.0
2025-01-22 01:59:45.015829	5.2	13.5	-77.4	0.0
2025-01-22 01:59:46.138988	5.1	13.6	-77.6	0.0
2025-01-22 01:59:47.263545	5.1	13.7	-77.4	0.0
2025-01-22 01:59:48.385272	5.0	13.8	-78.0	0.0
2025-01-22 01:59:49.508165	4.9	14.0	-77.4	0.0
2025-01-22 01:59:50.631082	4.8	14.1	-77.7	0.0
2025-01-22 01:59:51.756112	4.7	14.2	-77.9	0.0
2025-01-22 01:59:52.878637	4.6	14.3	-77.9	0.0
2025-01-22 01:59:54.000066	4.5	14.4	-78.2	0.0
2025-01-22 01:59:55.124186	4.5	14.5	-78.0	0.0
2025-01-22 01:59:56.247065	4.4	14.6	-77.5	0.0
2025-01-22 01:59:57.371404	4.3	14.7	-77.2	0.0
2025-01-22 01:59:58.495321	4.2	14.8	-77.6	0.0
2025-01-22 01:59:59.617167	4.1	14.9	-77.4	0.0
2025-01-22 02:00:00.742293	4.0	15.0	-77.0	0.0
2025-01-22 02:00:01.863265	3.9	15.1	-77.0	0.0
2025-01-22 02:00:02.987210	3.8	15.3	-77.2	0.0
2025-01-22 02:00:04.111227	3.7	15.4	-76.9	0.0
2025-01-22 02:00:05.237118	3.6	15.5	-75.7	0.0
2025-01-22 02:00:06.359811	3.5	15.6	-76.9	0.0
2025-01-22 02:00:07.483454	3.4	15.7	-76.9	0.0
2025-01-22 02:00:08.605918	3.3	15.8	-76.0	0.0
2025-01-22 02:00:09.725984	3.2	15.9	-76.1	0.0
2025-01-22 02:00:10.849983	3.1	16.0	-76.3	0.0
2025-01-22 02:00:11.973422	3.0	16.2	-77.3	0.0
2025-01-22 02:00:13.096844	2.9	16.3	-77.3	0.0
2025-01-22 02:00:14.221624	2.8	16.4	-77.1	0.0
2025-01-22 02:00:15.347812	2.7	16.5	-77.2	0.0
2025-01-22 02:00:16.470648	2.6	16.6	-76.6	0.0
2025-01-22 02:00:17.593905	2.5	16.7	-77.2	0.0
2025-01-22 02:00:18.717595	2.4	16.9	-77.5	0.0
2025-01-22 02:00:19.840259	2.3	17.0	-76.9	0.0
2025-01-22 02:00:20.964552	2.2	17.1	-77.8	0.0
2025-01-22 02:00:22.087163	2.1	17.2	-76.9	0.0
2025-01-22 02:00:23.209178	2.0	17.3	-77.3	0.0
2025-01-22 02:00:24.332010	1.9	17.5	-77.6	0.0
2025-01-22 02:00:25.453635	1.8	17.6	-77.4	0.0
2025-01-22 02:00:26.577269	1.6	17.7	-76.6	0.0
2025-01-22 02:00:27.701466	1.5	17.8	-77.8	0.0
2025-01-22 02:00:28.825799	1.4	17.9	-77.2	0.0
2025-01-22 02:00:29.949160	1.3	18.1	-76.9	0.0
2025-01-22 02:00:31.071042	1.2	18.2	-77.1	0.0
2025-01-22 02:00:32.193183	1.1	18.3	-77.0	0.0
2025-01-22 02:00:33.315908	1.0	18.4	-76.5	0.0
2025-01-22 02:00:34.438925	0.8	18.6	-76.8	0.0
2025-01-22 02:00:35.561000	0.7	18.7	-76.3	0.0
2025-01-22 02:00:36.684265	0.6	18.8	-77.1	0.0
2025-01-22 02:00:37.808412	0.5	18.9	-77.5	0.0
2025-01-22 02:00:38.930912	0.4	19.1	-77.2	0.0
2025-01-22 02:00:40.054753	0.2	19.2	-76.6	0.0
2025-01-22 02:00:41.176106	0.1	19.3	-76.8	0.0
2025-01-22 02:00:42.297809	360.0	19.4	-76.9	0.0
2025-01-22 02:00:43.420085	359.9	19.6	-77.4	0.0
2025-01-22 02:00:44.547074	359.7	19.7	-77.3	0.0
2025-01-22 02:00:45.670258	359.6	19.8	-76.9	0.0
2025-01-22 02:00:46.792385	359.5	20.0	-77.5	0.0
2025-01-22 02:00:47.918167	359.3	20.1	-78.1	0.0
2025-01-22 02:00:49.040902	359.2	20.2	-77.9	0.0
2025-01-22 02:00:50.165940	359.1	20.3	-77.9	0.0
2025-01-22 02:00:51.287898	358.9	20.5	-78.6	0.0
2025-01-22 02:00:52.410992	358.8	20.6	-77.7	0.0
2025-01-22 02:00:53.532591	358.7	20.7	-79.1	0.0
2025-01-22 02:00:54.654197	358.5	20.9	-79.5	0.0
2025-01-22 02:00:55.777850	358.4	21.0	-78.1	0.0
2025-01-22 02:00:56.900417	358.2	21.1	-79.6	0.0
2025-01-22 02:00:58.022702	358.1	21.3	-79.5	0.0
2025-01-22 02:00:59.147302	358.0	21.4	-79.3	0.0
2025-01-22 02:01:00.269752	357.8	21.6	-79.4	0.0
2025-01-22 02:01:01.391371	357.7	21.7	-79.7	0.0
2025-01-22 02:01:02.515557	357.5	21.8	-79.8	0.0
2025-01-22 02:01:03.638830	357.4	22.0	-80.1	0.0
2025-01-22 02:01:04.759398	357.2	22.1	-80.0	0.0
2025-01-22 02:01:05.882707	357.1	22.2	-80.3	0.0
2025-01-22 02:01:07.006071	356.9	22.4	-80.0	0.0
2025-01-22 02:01:08.129267	356.8	22.5	-79.7	0.0
2025-01-22 02:01:09.251449	356.6	22.7	-79.9	0.0
2025-01-22 02:01:10.375621	356.4	22.8	-79.3	0.0
2025-01-22 02:01:11.496397	356.3	22.9	-80.1	0.0
2025-01-22 02:01:12.618793	356.1	23.1	-80.0	0.0
2025-01-22 02:01:13.741913	356.0	23.2	-80.0	0.0
2025-01-22 02:01:14.865015	355.8	23.4	-80.1	0.0
2025-01-22 02:01:15.987689	355.6	23.5	-80.4	0.0
2025-01-22 02:01:17.109532	355.5	23.7	-80.4	0.0
2025-01-22 02:01:18.232167	355.3	23.8	-79.9	0.0
2025-01-22 02:01:19.356038	355.1	24.0	-80.5	0.0
2025-01-22 02:01:20.479966	355.0	24.1	-80.1	0.0
2025-01-22 02:01:21.605770	354.8	24.2	-80.3	0.0
2025-01-22 02:01:22.729512	354.6	24.4	-80.5	0.0
2025-01-22 02:01:23.852125	354.4	24.5	-80.3	0.0
2025-01-22 02:01:24.975093	354.3	24.7	-80.3	0.0
2025-01-22 02:01:26.100979	354.1	24.8	-80.1	0.0
2025-01-22 02:01:27.224836	353.9	25.0	-80.2	0.0
2025-01-22 02:01:28.347443	353.7	25.1	-79.8	0.0
2025-01-22 02:01:29.472147	353.5	25.3	-80.9	0.0
2025-01-22 02:01:30.597619	353.3	25.4	-80.8	0.0
2025-01-22 02:01:31.718279	353.1	25.6	-80.7	0.0
2025-01-22 02:01:32.840706	353.0	25.7	-80.7	0.0
2025-01-22 02:01:33.964391	352.8	25.9	-80.8	0.0
2025-01-22 02:01:35.086932	352.6	26.0	-80.9	0.0
2025-01-22 02:01:36.210731	352.4	26.2	-80.7	0.0
2025-01-22 02:01:37.333374	352.2	26.4	-80.8	0.0
2025-01-22 02:01:38.457580	352.0	26.5	-80.8	0.0
2025-01-22 02:01:39.579236	351.8	26.7	-80.7	0.0
2025-01-22 02:01:40.701101	351.6	26.8	-80.9	0.0
2025-01-22 02:01:41.824309	351.4	27.0	-81.0	0.0
2025-01-22 02:01:42.949413	351.2	27.1	-80.9	0.0
2025-01-22 02:01:44.073474	350.9	27.3	-80.5	0.0
2025-01-22 02:01:45.194743	350.7	27.4	-80.7	0.0
2025-01-22 02:01:46.318350	350.5	27.6	-80.8	0.0
2025-01-22 02:01:47.441126	350.3	27.8	-81.2	0.0
2025-01-22 02:01:48.561376	350.1	27.9	-80.7	0.0
2025-01-22 02:01:49.686227	349.9	28.1	-80.9	0.0
2025-01-22 02:01:50.807960	349.6	28.2	-81.3	0.0
2025-01-22 02:01:51.931245	349.4	28.4	-81.3	0.0
2025-01-22 02:01:53.050932	349.2	28.6	-81.2	0.0
2025-01-22 02:01:54.175084	348.9	28.7	-81.2	0.0
2025-01-22 02:01:55.299926	348.7	28.9	-80.9	0.0
2025-01-22 02:01:56.423430	348.5	29.0	-81.1	0.0
2025-01-22 02:01:57.548180	348.2	29.2	-81.0	0.0
2025-01-22 02:01:58.668534	348.0	29.4	-81.3	0.0
2025-01-22 02:01:59.790469	347.8	29.5	-81.2	0.0
2025-01-22 02:02:00.913266	347.5	29.7	-81.0	0.0
2025-01-22 02:02:02.037270	347.3	29.9	-80.9	0.0
2025-01-22 02:02:03.159459	347.0	30.0	-80.9	0.0
2025-01-22 02:02:04.283279	346.8	30.2	-80.8	0.0
2025-01-22 02:02:05.405833	346.5	30.4	-80.7	0.0
2025-01-22 02:02:06.527420	346.2	30.5	-80.9	0.0
2025-01-22 02:02:07.653253	346.0	30.7	-80.8	0.0
2025-01-22 02:02:08.774771	345.7	30.9	-80.8	0.0
2025-01-22 02:02:09.898597	345.5	31.0	-80.7	0.0
2025-01-22 02:02:11.020334	345.2	31.2	-80.9	0.0
2025-01-22 02:02:12.143316	344.9	31.3	-81.0	0.0
2025-01-22 02:02:13.265345	344.6	31.5	-80.9	0.0
2025-01-22 02:02:14.388687	344.4	31.7	-80.9	0.0
2025-01-22 02:02:15.512358	344.1	31.8	-80.8	0.0
2025-01-22 02:02:16.636647	343.8	32.0	-80.9	0.0
2025-01-22 02:02:17.759979	343.5	32.2	-80.8	0.0
2025-01-22 02:02:18.885025	343.2	32.4	-80.7	0.0
2025-01-22 02:02:20.007364	342.9	32.5	-80.7	0.0
2025-01-22 02:02:21.131465	342.6	32.7	-80.8	0.0
2025-01-22 02:02:22.253571	342.3	32.9	-81.0	0.0
2025-01-22 02:02:23.375971	342.0	33.0	-81.0	0.0
2025-01-22 02:02:24.497918	341.7	33.2	-80.8	0.0
2025-01-22 02:02:25.623146	341.4	33.4	-80.9	0.0
2025-01-22 02:02:26.746452	341.1	33.5	-81.0	0.0
2025-01-22 02:02:27.868648	340.8	33.7	-81.0	0.0
2025-01-22 02:02:28.994276	340.5	33.9	-81.0	0.0
2025-01-22 02:02:30.117560	340.1	34.0	-81.1	0.0
2025-01-22 02:02:31.242628	339.8	34.2	-81.1	0.0
2025-01-22 02:02:32.365373	339.5	34.4	-80.4	0.0
2025-01-22 02:02:33.489837	339.2	34.5	-81.0	0.0
2025-01-22 02:02:34.614367	338.8	34.7	-81.0	0.0
2025-01-22 02:02:35.736202	338.5	34.9	-81.2	0.0
2025-01-22 02:02:36.858872	338.1	35.0	-81.2	0.0
2025-01-22 02:02:37.984027	337.8	35.2	-81.0	0.0
2025-01-22 02:02:39.106693	337.4	35.4	-81.1	0.0
2025-01-22 02:02:40.230263	337.1	35.5	-80.9	0.0
2025-01-22 02:02:41.353920	336.7	35.7	-81.3	0.0
2025-01-22 02:02:42.478549	336.4	35.9	-81.1	0.0
2025-01-22 02:02:43.601154	336.0	36.0	-81.3	0.0
2025-01-22 02:02:44.722917	335.6	36.2	-81.3	0.0
2025-01-22 02:02:45.845641	335.3	36.3	-81.1	0.0
2025-01-22 02:02:46.969077	334.9	36.5	-81.3	0.0
2025-01-22 02:02:48.090516	334.5	36.7	-81.2	0.0
2025-01-22 02:02:49.215257	334.1	36.8	-81.1	0.0
2025-01-22 02:02:50.340531	333.7	37.0	-81.3	0.0
2025-01-22 02:02:51.463011	333.4	37.1	-81.2	0.0
2025-01-22 02:02:52.589023	333.0	37.3	-81.3	0.0
2025-01-22 02:02:53.712289	332.6	37.5	-81.2	0.0
2025-01-22 02:02:54.836898	332.2	37.6	-81.0	0.0
2025-01-22 02:02:55.960855	331.8	37.8	-80.9	0.0
2025-01-22 02:02:57.084635	331.3	37.9	-81.4	0.0
2025-01-22 02:02:58.208477	330.9	38.1	-81.1	0.0
2025-01-22 02:02:59.329906	330.5	38.2	-81.1	0.0
2025-01-22 02:03:00.452767	330.1	38.4	-81.2	0.0
2025-01-22 02:03:01.574413	329.7	38.5	-81.0	0.0
2025-01-22 02:03:02.697878	329.2	38.7	-80.7	0.0
2025-01-22 02:03:03.820167	328.8	38.8	-81.0	0.0
2025-01-22 02:03:04.943918	328.4	39.0	-81.0	0.0
2025-01-22 02:03:06.066219	327.9	39.1	-80.9	0.0
2025-01-22 02:03:07.188277	327.5	39.3	-80.9	0.0
2025-01-22 02:03:08.310036	327.0	39.4	-80.8	0.0
2025-01-22 02:03:09.434140	326.6	39.6	-80.6	0.0
2025-01-22 02:03:10.556071	326.1	39.7	-80.9	0.0
2025-01-22 02:03:11.679585	325.6	39.9	-80.9	0.0
2025-01-22 02:03:12.804680	325.2	40.0	-80.9	0.0
2025-01-22 02:03:13.927199	324.7	40.1	-81.1	0.0
2025-01-22 02:03:15.050593	324.2	40.3	-81.2	0.0
2025-01-22 02:03:16.174926	323.8	40.4	-81.1	0.0
2025-01-22 02:03:17.298000	323.3	40.5	-81.0	0.0
2025-01-22 02:03:18.421066	322.8	40.7	-81.4	0.0
2025-01-22 02:03:19.543375	322.3	40.8	-81.4	0.0
2025-01-22 02:03:20.665390	321.8	40.9	-81.1	0.0
2025-01-22 02:03:21.789125	321.3	41.0	-81.3	0.0
2025-01-22 02:03:22.911162	320.8	41.1	-81.1	0.0
2025-01-22 02:03:24.033992	320.3	41.3	-81.1	0.0
2025-01-22 02:03:25.156553	319.8	41.4	-80.9	0.0
2025-01-22 02:03:26.280301	319.3	41.5	-81.2	0.0
2025-01-22 02:03:27.405551	318.8	41.6	-81.2	0.0
2025-01-22 02:03:28.526937	318.2	41.7	-81.2	0.0
2025-01-22 02:03:29.652315	317.7	41.8	-81.1	0.0
2025-01-22 02:03:30.776436	317.2	41.9	-81.1	0.0
2025-01-22 02:03:31.899369	316.6	42.0	-81.1	0.0
2025-01-22 02:03:33.021479	316.1	42.1	-81.2	0.0
2025-01-22 02:03:34.144547	315.6	42.2	-81.1	0.0
2025-01-22 02:03:35.266726	315.0	42.3	-81.1	0.0
2025-01-22 02:03:36.388300	314.5	42.4	-81.1	0.0
2025-01-22 02:03:37.510346	313.9	42.5	-81.3	0.0
2025-01-22 02:03:38.633227	313.4	42.6	-81.2	0.0
2025-01-22 02:03:39.754197	312.8	42.7	-81.2	0.0
2025-01-22 02:03:40.878225	312.3	42.8	-81.4	0.0
2025-01-22 02:03:42.004342	311.7	42.8	-81.4	0.0
2025-01-22 02:03:43.125882	311.2	42.9	-81.3	0.0
2025-01-22 02:03:44.252255	310.6	43.0	-81.4	0.0
2025-01-22 02:03:45.376324	310.0	43.1	-81.2	0.0
2025-01-22 02:03:46.498720	309.5	43.1	-81.0	0.0
2025-01-22 02:03:47.620409	308.9	43.2	-81.4	0.0
2025-01-22 02:03:48.743734	308.3	43.2	-81.3	0.0
2025-01-22 02:03:49.863965	307.7	43.3	-81.4	0.0
2025-01-22 02:03:50.987915	307.2	43.4	-81.3	0.0
2025-01-22 02:03:52.111895	306.6	43.4	-81.4	0.0
2025-01-22 02:03:53.235091	306.0	43.5	-81.4	0.0
2025-01-22 02:03:54.358877	305.4	43.5	-81.2	0.0
2025-01-22 02:03:55.481177	304.8	43.5	-81.3	0.0
2025-01-22 02:03:56.604892	304.2	43.6	-81.3	0.0
2025-01-22 02:03:57.726443	303.7	43.6	-81.4	0.0
2025-01-22 02:03:58.851658	303.1	43.6	-81.4	0.0
2025-01-22 02:03:59.975751	302.5	43.7	-81.2	0.0
2025-01-22 02:04:01.098359	301.9	43.7	-81.4	0.0
2025-01-22 02:04:02.221186	301.3	43.7	-81.4	0.0
2025-01-22 02:04:03.344266	300.7	43.7	-81.1	0.0
2025-01-22 02:04:04.465347	300.1	43.7	-81.1	0.0
2025-01-22 02:04:05.587760	299.5	43.8	-81.4	0.0
2025-01-22 02:04:06.712245	298.9	43.8	-81.5	0.0
2025-01-22 02:04:07.837284	298.3	43.8	-81.0	0.0
2025-01-22 02:04:08.961152	297.7	43.8	-81.5	0.0
2025-01-22 02:04:10.086128	297.1	43.8	-81.5	0.0
2025-01-22 02:04:11.210740	296.5	43.8	-81.4	0.0
2025-01-22 02:04:12.333330	295.9	43.8	-81.3	0.0
2025-01-22 02:04:13.455904	295.4	43.7	-81.4	0.0
2025-01-22 02:04:14.581195	294.8	43.7	-81.6	0.0
2025-01-22 02:04:15.703822	294.2	43.7	-81.4	0.0
2025-01-22 02:04:16.826224	293.6	43.7	-81.5	0.0
2025-01-22 02:04:17.948292	293.0	43.6	-81.5	0.0
2025-01-22 02:04:19.072431	292.4	43.6	-81.7	0.0
2025-01-22 02:04:20.195217	291.8	43.6	-81.6	0.0
2025-01-22 02:04:21.318816	291.2	43.5	-81.7	0.0
2025-01-22 02:04:22.440249	290.6	43.5	-81.3	0.0
2025-01-22 02:04:23.564320	290.0	43.5	-81.6	0.0
2025-01-22 02:04:24.688351	289.5	43.4	-81.4	0.0
2025-01-22 02:04:25.811010	288.9	43.4	-81.5	0.0
2025-01-22 02:04:26.934418	288.3	43.3	-81.6	0.0
2025-01-22 02:04:28.056703	287.7	43.3	-81.6	0.0
2025-01-22 02:04:29.178656	287.2	43.2	-81.7	0.0
2025-01-22 02:04:30.301072	286.6	43.1	-81.5	0.0
2025-01-22 02:04:31.425471	286.0	43.1	-81.6	0.0
2025-01-22 02:04:32.550062	285.4	43.0	-81.3	0.0
2025-01-22 02:04:33.673702	284.9	42.9	-81.5	0.0
2025-01-22 02:04:34.797572	284.3	42.8	-81.4	0.0
2025-01-22 02:04:35.920683	283.7	42.8	-81.4	0.0
2025-01-22 02:04:37.044607	283.2	42.7	-81.4	0.0
2025-01-22 02:04:38.167565	282.6	42.6	-81.4	0.0
2025-01-22 02:04:39.289894	282.1	42.5	-81.4	0.0
2025-01-22 02:04:40.414298	281.5	42.4	-81.4	0.0
2025-01-22 02:04:41.537222	281.0	42.3	-81.3	0.0
2025-01-22 02:04:42.658437	280.4	42.2	-81.3	0.0
2025-01-22 02:04:43.781195	279.9	42.1	-81.2	0.0
2025-01-22 02:04:44.906655	279.4	42.0	-81.3	0.0
2025-01-22 02:04:46.031929	278.8	41.9	-81.4	0.0
2025-01-22 02:04:47.154757	278.3	41.8	-81.2	0.0
2025-01-22 02:04:48.275916	277.8	41.7	-81.4	0.0
2025-01-22 02:04:49.401699	277.3	41.6	-81.3	0.0
2025-01-22 02:04:50.521550	276.7	41.5	-81.1	0.0
2025-01-22 02:04:51.646430	276.2	41.4	-81.3	0.0
2025-01-22 02:04:52.768535	275.7	41.3	-81.3	0.0
2025-01-22 02:04:53.890272	275.2	41.2	-81.3	0.0
2025-01-22 02:04:55.015316	274.7	41.0	-81.2	0.0
2025-01-22 02:04:56.138555	274.2	40.9	-81.1	0.0
2025-01-22 02:04:57.265247	273.7	40.8	-81.3	0.0
2025-01-22 02:04:58.387110	273.2	40.7	-81.2	0.0
2025-01-22 02:04:59.509883	272.7	40.5	-81.3	0.0
2025-01-22 02:05:00.631241	272.2	40.4	-81.5	0.0
2025-01-22 02:05:01.754305	271.8	40.3	-81.4	0.0
2025-01-22 02:05:02.877365	271.3	40.1	-81.2	0.0
2025-01-22 02:05:03.998567	270.8	40.0	-80.9	0.0
2025-01-22 02:05:05.122193	270.3	39.9	-81.0	0.0
2025-01-22 02:05:06.246037	269.9	39.7	-81.0	0.0
2025-01-22 02:05:07.368644	269.4	39.6	-81.0	0.0
2025-01-22 02:05:08.488424	269.0	39.4	-81.0	0.0
2025-01-22 02:05:09.612728	268.5	39.3	-81.1	0.0
2025-01-22 02:05:10.735174	268.1	39.1	-80.8	0.0
2025-01-22 02:05:11.855361	267.6	39.0	-81.0	0.0
2025-01-22 02:05:12.979226	267.2	38.8	-80.9	0.0
2025-01-22 02:05:14.101228	266.7	38.7	-81.0	0.0
2025-01-22 02:05:15.223593	266.3	38.5	-80.8	0.0
2025-01-22 02:05:16.348191	265.9	38.4	-80.9	0.0
2025-01-22 02:05:17.471265	265.5	38.2	-80.8	0.0
2025-01-22 02:05:18.593215	265.0	38.1	-80.9	0.0
2025-01-22 02:05:19.716249	264.6	37.9	-80.9	0.0
2025-01-22 02:05:20.838479	264.2	37.8	-80.8	0.0
2025-01-22 02:05:21.962014	263.8	37.6	-80.8	0.0
2025-01-22 02:05:23.087070	263.4	37.5	-80.9	0.0
2025-01-22 02:05:24.211392	263.0	37.3	-80.9	0.0
2025-01-22 02:05:25.332933	262.6	37.1	-80.8	0.0
2025-01-22 02:05:26.455658	262.2	37.0	-80.5	0.0
2025-01-22 02:05:27.577651	261.8	36.8	-80.6	0.0
2025-01-22 02:05:28.701007	261.4	36.7	-80.7	0.0
2025-01-22 02:05:29.824002	261.0	36.5	-80.6	0.0
2025-01-22 02:05:30.946470	260.7	36.3	-80.4	0.0
2025-01-22 02:05:32.070847	260.3	36.2	-80.4	0.0
2025-01-22 02:05:33.193915	259.9	36.0	-80.8	0.0
2025-01-22 02:05:34.314877	259.6	35.8	-80.6	0.0
2025-01-22 02:05:35.437401	259.2	35.7	-80.7	0.0
2025-01-22 02:05:36.561337	258.8	35.5	-80.6	0.0
2025-01-22 02:05:37.684960	258.5	35.3	-80.8	0.0
2025-01-22 02:05:38.809841	258.1	35.2	-80.7	0.0
2025-01-22 02:05:39.934543	257.8	35.0	-80.7	0.0
2025-01-22 02:05:41.056405	257.4	34.8	-80.9	0.0
2025-01-22 02:05:42.179140	257.1	34.7	-80.6	0.0
2025-01-22 02:05:43.301701	256.8	34.5	-80.5	0.0
2025-01-22 02:05:44.423261	256.4	34.3	-80.7	0.0
2025-01-22 02:05:45.545853	256.1	34.2	-80.4	0.0
2025-01-22 02:05:46.669520	255.8	34.0	-80.4	0.0
2025-01-22 02:05:47.794285	255.4	33.8	-80.3	0.0
2025-01-22 02:05:48.916797	255.1	33.7	-80.7	0.0
2025-01-22 02:05:50.039320	254.8	33.5	-80.3	0.0
2025-01-22 02:05:51.161222	254.5	33.3	-80.1	0.0
2025-01-22 02:05:52.283812	254.2	33.2	-80.6	0.0
2025-01-22 02:05:53.406300	253.9	33.0	-80.3	0.0
2025-01-22 02:05:54.530147	253.6	32.8	-80.5	0.0
2025-01-22 02:05:55.651806	253.3	32.7	-80.2	0.0
2025-01-22 02:05:56.773370	253.0	32.5	-80.1	0.0
2025-01-22 02:05:57.894991	252.7	32.3	-80.5	0.0
2025-01-22 02:05:59.018252	252.4	32.1	-80.4	0.0
2025-01-22 02:06:00.139909	252.1	32.0	-80.5	0.0
2025-01-22 02:06:01.259883	251.8	31.8	-80.6	0.0
2025-01-22 02:06:02.384489	251.5	31.6	-80.6	0.0
2025-01-22 02:06:03.508938	251.2	31.5	-80.5	0.0
2025-01-22 02:06:04.632719	251.0	31.3	-80.4	0.0
2025-01-22 02:06:05.756617	250.7	31.1	-80.4	0.0
2025-01-22 02:06:06.879956	250.4	31.0	-80.3	0.0
2025-01-22 02:06:08.003937	250.2	30.8	-80.2	0.0
2025-01-22 02:06:09.127227	249.9	30.6	-80.3	0.0
2025-01-22 02:06:10.249478	249.6	30.5	-80.4	0.0
2025-01-22 02:06:11.374233	249.4	30.3	-80.4	0.0
2025-01-22 02:06:12.497461	249.1	30.1	-80.3	0.0
2025-01-22 02:06:13.618973	248.9	30.0	-79.8	0.0
2025-01-22 02:06:14.743182	248.6	29.8	-79.7	0.0
2025-01-22 02:06:15.867009	248.4	29.6	-80.3	0.0
2025-01-22 02:06:16.990963	248.1	29.5	-80.4	0.0
2025-01-22 02:06:18.113799	247.9	29.3	-80.3	0.0
2025-01-22 02:06:19.236250	247.6	29.2	-80.3	0.0
2025-01-22 02:06:20.359595	247.4	29.0	-80.3	0.0
2025-01-22 02:06:21.480951	247.1	28.8	-80.5	0.0
2025-01-22 02:06:22.605306	246.9	28.7	-78.5	0.0
2025-01-22 02:06:23.728549	246.7	28.5	-80.4	0.0
2025-01-22 02:06:24.849785	246.4	28.3	-80.3	0.0
2025-01-22 02:06:25.973598	246.2	28.2	-80.2	0.0
2025-01-22 02:06:27.095589	246.0	28.0	-80.0	0.0
2025-01-22 02:06:28.216697	245.8	27.9	-80.2	0.0
2025-01-22 02:06:29.339316	245.5	27.7	-80.0	0.0
2025-01-22 02:06:30.462468	245.3	27.5	-80.0	0.0
2025-01-22 02:06:31.587360	245.1	27.4	-80.1	0.0
2025-01-22 02:06:32.709751	244.9	27.2	-80.1	0.0
2025-01-22 02:06:33.832690	244.7	27.1	-79.7	0.0
2025-01-22 02:06:34.955828	244.5	26.9	-79.7	0.0
2025-01-22 02:06:36.076917	244.3	26.7	-79.8	0.0
2025-01-22 02:06:37.200066	244.1	26.6	-79.9	0.0
2025-01-22 02:06:38.324992	243.9	26.4	-79.8	0.0
2025-01-22 02:06:39.447919	243.7	26.3	-80.0	0.0
2025-01-22 02:06:40.572770	243.5	26.1	-80.2	0.0
2025-01-22 02:06:41.696165	243.3	26.0	-80.2	0.0
2025-01-22 02:06:42.817106	243.1	25.8	-80.1	0.0
2025-01-22 02:06:43.941472	242.9	25.7	-79.9	0.0
2025-01-22 02:06:45.066714	242.7	25.5	-79.5	0.0
2025-01-22 02:06:46.190948	242.5	25.4	-79.9	0.0
2025-01-22 02:06:47.313060	242.3	25.2	-80.5	0.0
2025-01-22 02:06:48.438394	242.1	25.1	-80.0	0.0
2025-01-22 02:06:49.559265	241.9	24.9	-79.6	0.0
2025-01-22 02:06:50.683992	241.7	24.7	-80.2	0.0
2025-01-22 02:06:51.809578	241.6	24.6	-80.3	0.0
2025-01-22 02:06:52.934395	241.4	24.4	-80.2	0.0
2025-01-22 02:06:54.057394	241.2	24.3	-80.2	0.0
2025-01-22 02:06:55.180643	241.0	24.2	-80.4	0.0
2025-01-22 02:06:56.303652	240.9	24.0	-80.2	0.0
2025-01-22 02:06:57.425497	240.7	23.9	-80.2	0.0
2025-01-22 02:06:58.550164	240.5	23.7	-80.4	0.0
2025-01-22 02:06:59.672860	240.3	23.6	-80.4	0.0
2025-01-22 02:07:00.796414	240.2	23.4	-80.4	0.0
2025-01-22 02:07:01.918607	240.0	23.3	-80.3	0.0
2025-01-22 02:07:03.039806	239.8	23.1	-80.1	0.0
2025-01-22 02:07:04.163028	239.7	23.0	-80.1	0.0
2025-01-22 02:07:05.287311	239.5	22.8	-80.2	0.0
2025-01-22 02:07:06.411048	239.4	22.7	-80.3	0.0
2025-01-22 02:07:07.535967	239.2	22.6	-80.1	0.0
2025-01-22 02:07:08.659148	239.0	22.4	-80.3	0.0
2025-01-22 02:07:09.781641	238.9	22.3	-80.1	0.0
2025-01-22 02:07:10.902604	238.7	22.1	-80.1	0.0
2025-01-22 02:07:12.026393	238.6	22.0	-80.4	0.0
2025-01-22 02:07:13.149152	238.4	21.9	-80.4	0.0
2025-01-22 02:07:14.271556	238.3	21.7	-80.2	0.0
2025-01-22 02:07:15.394767	238.1	21.6	-80.1	0.0
2025-01-22 02:07:16.518668	238.0	21.4	-80.4	0.0
2025-01-22 02:07:17.641399	237.8	21.3	-80.3	0.0
2025-01-22 02:07:18.762857	237.7	21.2	-80.2	0.0
2025-01-22 02:07:19.885402	237.5	21.0	-80.4	0.0
2025-01-22 02:07:21.007800	237.4	20.9	-80.4	0.0
2025-01-22 02:07:22.128042	237.3	20.8	-80.3	0.0
2025-01-22 02:07:23.249417	237.1	20.6	-80.3	0.0
2025-01-22 02:07:24.372349	237.0	20.5	-80.3	0.0
2025-01-22 02:07:25.495635	236.8	20.4	-80.0	0.0
2025-01-22 02:07:26.616931	236.7	20.2	-80.2	0.0
2025-01-22 02:07:27.739622	236.6	20.1	-80.4	0.0
2025-01-22 02:07:28.860898	236.4	20.0	-80.2	0.0
2025-01-22 02:07:29.983820	236.3	19.8	-80.3	0.0
2025-01-22 02:07:31.106766	236.2	19.7	-80.2	0.0
2025-01-22 02:07:32.229346	236.0	19.6	-80.2	0.0
2025-01-22 02:07:33.351649	235.9	19.4	-80.0	0.0
2025-01-22 02:07:34.474476	235.8	19.3	-80.1	0.0
2025-01-22 02:07:35.600269	235.7	19.2	-80.0	0.0
2025-01-22 02:07:36.723385	235.5	19.1	-79.9	0.0
2025-01-22 02:07:37.847242	235.4	18.9	-79.6	0.0
2025-01-22 02:07:38.970060	235.3	18.8	-79.4	0.0
2025-01-22 02:07:40.092603	235.2	18.7	-79.7	0.0
2025-01-22 02:07:41.214407	235.0	18.5	-79.6	0.0
2025-01-22 02:07:42.335579	234.9	18.4	-79.6	0.0
2025-01-22 02:07:43.457160	234.8	18.3	-79.6	0.0
2025-01-22 02:07:44.578299	234.7	18.2	-79.5	0.0
2025-01-22 02:07:45.702683	234.6	18.1	-79.4	0.0
2025-01-22 02:07:46.827196	234.5	17.9	-79.5	0.0
2025-01-22 02:07:47.948252	234.3	17.8	-79.7	0.0
2025-01-22 02:07:49.072184	234.2	17.7	-79.8	0.0
2025-01-22 02:07:50.195028	234.1	17.6	-79.6	0.0
2025-01-22 02:07:51.320016	234.0	17.4	-79.4	0.0
2025-01-22 02:07:52.442904	233.9	17.3	-79.4	0.0
2025-01-22 02:07:53.565632	233.8	17.2	-79.5	0.0
2025-01-22 02:07:54.689271	233.7	17.1	-79.2	0.0
2025-01-22 02:07:55.814318	233.6	17.0	-79.5	0.0
2025-01-22 02:07:56.938917	233.4	16.8	-79.4	0.0
2025-01-22 02:07:58.062269	233.3	16.7	-79.2	0.0
2025-01-22 02:07:59.184870	233.2	16.6	-79.4	0.0
2025-01-22 02:08:00.307047	233.1	16.5	-79.4	0.0
2025-01-22 02:08:01.429326	233.0	16.4	-79.1	0.0
2025-01-22 02:08:02.553194	232.9	16.2	-79.2	0.0
2025-01-22 02:08:03.676412	232.8	16.1	-79.2	0.0
2025-01-22 02:08:04.799985	232.7	16.0	-79.2	0.0
2025-01-22 02:08:05.921810	232.6	15.9	-79.0	0.0
2025-01-22 02:08:07.044719	232.5	15.8	-78.9	0.0
2025-01-22 02:08:08.168141	232.4	15.7	-78.8	0.0
2025-01-22 02:08:09.289414	232.3	15.6	-78.7	0.0
2025-01-22 02:08:10.412787	232.2	15.4	-78.5	0.0
2025-01-22 02:08:11.536048	232.1	15.3	-78.6	0.0
2025-01-22 02:08:12.660268	232.0	15.2	-78.7	0.0
2025-01-22 02:08:13.783291	231.9	15.1	-78.8	0.0
2025-01-22 02:08:14.908143	231.8	15.0	-78.9	0.0
2025-01-22 02:08:16.031201	231.7	14.9	-78.6	0.0
2025-01-22 02:08:17.152941	231.6	14.8	-78.6	0.0
2025-01-22 02:08:18.276253	231.5	14.7	-78.5	0.0
2025-01-22 02:08:19.398670	231.4	14.6	-78.4	0.0
2025-01-22 02:08:20.524424	231.4	14.4	-78.5	0.0
2025-01-22 02:08:21.648831	231.3	14.3	-78.5	0.0
2025-01-22 02:08:22.771510	231.2	14.2	-78.4	0.0
2025-01-22 02:08:23.894494	231.1	14.1	-78.6	0.0
2025-01-22 02:08:25.018082	231.0	14.0	-78.5	0.0
2025-01-22 02:08:26.141281	230.9	13.9	-78.5	0.0
2025-01-22 02:08:27.262847	230.8	13.8	-78.5	0.0
2025-01-22 02:08:28.385953	230.7	13.7	-78.3	0.0
2025-01-22 02:08:29.508990	230.6	13.6	-78.5	0.0
2025-01-22 02:08:30.631340	230.6	13.5	-78.7	0.0
2025-01-22 02:08:31.753909	230.5	13.4	-78.4	0.0
2025-01-22 02:08:32.877284	230.4	13.3	-78.5	0.0
2025-01-22 02:08:34.001551	230.3	13.2	-78.2	0.0
2025-01-22 02:08:35.120722	230.2	13.1	-78.4	0.0
2025-01-22 02:08:36.242922	230.1	13.0	-78.2	0.0
2025-01-22 02:08:37.366186	230.1	12.8	-78.1	0.0
2025-01-22 02:08:38.490073	230.0	12.7	-78.5	0.0
2025-01-22 02:08:39.613277	229.9	12.6	-78.2	0.0
2025-01-22 02:08:40.736098	229.8	12.5	-78.2	0.0
2025-01-22 02:08:41.859092	229.7	12.4	-78.3	0.0
2025-01-22 02:08:42.981243	229.7	12.3	-76.7	0.0
2025-01-22 02:08:44.103513	229.6	12.2	-78.3	0.0
2025-01-22 02:08:45.227824	229.5	12.1	-78.1	0.0
2025-01-22 02:08:46.352839	229.4	12.0	-78.0	0.0
2025-01-22 02:08:47.475335	229.3	11.9	-77.8	0.0
2025-01-22 02:08:48.596748	229.3	11.8	-78.0	0.0
2025-01-22 02:08:49.720249	229.2	11.7	-77.9	0.0
2025-01-22 02:08:50.844654	229.1	11.6	-77.8	0.0
2025-01-22 02:08:51.966245	229.0	11.5	-77.9	0.0
2025-01-22 02:08:53.088630	229.0	11.4	-77.4	0.0
2025-01-22 02:08:54.212021	228.9	11.3	-77.8	0.0
2025-01-22 02:08:55.332874	228.8	11.2	-77.6	0.0
2025-01-22 02:08:56.456170	228.7	11.1	-77.8	0.0
2025-01-22 02:08:57.581839	228.7	11.0	-77.9	0.0
2025-01-22 02:08:58.704884	228.6	10.9	-79.1	0.0
2025-01-22 02:08:59.827794	228.5	10.9	-80.2	0.0
2025-01-22 02:09:00.951804	228.5	10.8	-80.5	0.0
2025-01-22 02:09:02.074468	228.4	10.7	-80.5	0.0
2025-01-22 02:09:03.198234	228.3	10.6	-81.0	0.0
2025-01-22 02:09:04.320406	228.3	10.5	-81.6	0.0
2025-01-22 02:09:05.442818	228.2	10.4	-81.8	0.0
2025-01-22 02:09:06.566086	228.1	10.3	-81.9	0.0
2025-01-22 02:09:07.688622	228.0	10.2	-81.9	0.0
2025-01-22 02:09:08.810354	228.0	10.1	-82.0	0.0
2025-01-22 02:09:09.934046	227.9	10.0	-82.0	0.0
#Closed at: 2025-01-22 01:58:59.672331