passes_logs/2025/01/22/planumMaritime01/planumMaritime01__20250122_091704_NOAA_19_rec.log

#Pass ID: 20250122_091704_NOAA 19
#Satellite: NOAA 19
#Configuration: NOAA 19
#Start time: 2025-01-22 09:17:09.759294

#LorettStation: 1.0.0 05.05.2024
#Station: planumMaritime01
#Location: 37.49445 lon 55.92918 lat
#TLE: 1 33591U 09005A   25021.16349212  .00000417  00000+0  24660-3 0  9995
#TLE: 2 33591  99.0186  84.9732 0014271  40.9333 319.2908 14.13264918822414

#Time	Az	El	Level	SNR
2025-01-22 09:17:11.928441	3.7	10.2	-67.1	0.0
2025-01-22 09:17:13.054139	3.6	10.2	-64.1	0.0
2025-01-22 09:17:14.180262	3.5	10.3	-67.9	0.0
2025-01-22 09:17:15.307539	3.4	10.4	-68.5	0.0
2025-01-22 09:17:16.433694	3.3	10.5	-68.5	0.0
2025-01-22 09:17:17.559406	3.2	10.6	-68.2	0.0
2025-01-22 09:17:18.684153	3.1	10.7	-69.9	0.0
2025-01-22 09:17:19.808710	2.9	10.8	-61.6	0.0
2025-01-22 09:17:20.934362	2.8	10.8	-67.1	0.0
2025-01-22 09:17:22.061874	2.7	10.9	-68.5	0.0
2025-01-22 09:17:23.185361	2.6	11.0	-69.0	0.0
2025-01-22 09:17:24.313423	2.5	11.1	-67.4	0.0
2025-01-22 09:17:25.441496	2.4	11.2	-67.3	0.0
2025-01-22 09:17:26.567957	2.3	11.3	-69.7	0.0
2025-01-22 09:17:27.695165	2.2	11.4	-68.1	0.0
2025-01-22 09:17:28.822546	2.1	11.4	-69.3	0.0
2025-01-22 09:17:29.948242	2.0	11.5	-62.0	0.0
2025-01-22 09:17:31.071858	1.8	11.6	-70.5	0.0
2025-01-22 09:17:32.197847	1.7	11.7	-70.4	0.0
2025-01-22 09:17:33.323190	1.6	11.8	-73.3	0.0
2025-01-22 09:17:34.449824	1.5	11.9	-70.8	0.0
2025-01-22 09:17:35.576563	1.4	12.0	-72.2	0.0
2025-01-22 09:17:36.702111	1.3	12.0	-70.9	0.0
2025-01-22 09:17:37.828606	1.1	12.1	-72.7	0.0
2025-01-22 09:17:38.954585	1.0	12.2	-72.0	0.0
2025-01-22 09:17:40.080962	0.9	12.3	-72.5	0.0
2025-01-22 09:17:41.206837	0.8	12.4	-73.3	0.0
2025-01-22 09:17:42.333273	0.7	12.5	-70.2	0.0
2025-01-22 09:17:43.459370	0.5	12.6	-70.2	0.0
2025-01-22 09:17:44.586149	0.4	12.7	-70.6	0.0
2025-01-22 09:17:45.712012	0.3	12.8	-72.4	0.0
2025-01-22 09:17:46.839283	0.2	12.8	-72.2	0.0
2025-01-22 09:17:47.965830	0.1	12.9	-71.0	0.0
2025-01-22 09:17:49.090783	359.9	13.0	-71.0	0.0
2025-01-22 09:17:50.217000	359.8	13.1	-71.2	0.0
2025-01-22 09:17:51.344529	359.7	13.2	-70.6	0.0
2025-01-22 09:17:52.469028	359.6	13.3	-71.8	0.0
2025-01-22 09:17:53.594829	359.4	13.4	-72.5	0.0
2025-01-22 09:17:54.720195	359.3	13.5	-70.1	0.0
2025-01-22 09:17:55.845978	359.2	13.6	-68.9	0.0
2025-01-22 09:17:56.973941	359.0	13.7	-68.6	0.0
2025-01-22 09:17:58.098083	358.9	13.8	-70.3	0.0
2025-01-22 09:17:59.224568	358.8	13.8	-68.4	0.0
2025-01-22 09:18:00.349789	358.6	13.9	-72.6	0.0
2025-01-22 09:18:01.474829	358.5	14.0	-71.6	0.0
2025-01-22 09:18:02.601461	358.4	14.1	-71.9	0.0
2025-01-22 09:18:03.728977	358.2	14.2	-65.7	0.0
2025-01-22 09:18:04.854207	358.1	14.3	-70.3	0.0
2025-01-22 09:18:05.980307	358.0	14.4	-72.6	0.0
2025-01-22 09:18:07.105990	357.8	14.5	-70.9	0.0
2025-01-22 09:18:08.230315	357.7	14.6	-69.9	0.0
2025-01-22 09:18:09.357516	357.5	14.7	-71.3	0.0
2025-01-22 09:18:10.482201	357.4	14.8	-66.4	0.0
2025-01-22 09:18:11.607960	357.3	14.9	-70.0	0.0
2025-01-22 09:18:12.736350	357.1	15.0	-69.8	0.0
2025-01-22 09:18:13.861857	357.0	15.0	-70.3	0.0
2025-01-22 09:18:14.986760	356.8	15.1	-69.8	0.0
2025-01-22 09:18:16.111790	356.7	15.2	-69.4	0.0
2025-01-22 09:18:17.237160	356.5	15.3	-69.2	0.0
2025-01-22 09:18:18.363380	356.4	15.4	-65.3	0.0
2025-01-22 09:18:19.486249	356.2	15.5	-68.6	0.0
2025-01-22 09:18:20.610957	356.1	15.6	-68.5	0.0
2025-01-22 09:18:21.736329	355.9	15.7	-68.0	0.0
2025-01-22 09:18:22.860213	355.8	15.8	-66.8	0.0
2025-01-22 09:18:23.986175	355.6	15.9	-65.4	0.0
2025-01-22 09:18:25.112575	355.5	16.0	-67.2	0.0
2025-01-22 09:18:26.238711	355.3	16.1	-67.3	0.0
2025-01-22 09:18:27.366853	355.2	16.2	-66.9	0.0
2025-01-22 09:18:28.494918	355.0	16.3	-67.2	0.0
2025-01-22 09:18:29.619220	354.9	16.4	-66.7	0.0
2025-01-22 09:18:30.745899	354.7	16.5	-67.5	0.0
2025-01-22 09:18:31.871475	354.6	16.6	-68.1	0.0
2025-01-22 09:18:32.996621	354.4	16.7	-68.3	0.0
2025-01-22 09:18:34.123609	354.2	16.8	-67.6	0.0
2025-01-22 09:18:35.249210	354.1	16.9	-69.6	0.0
2025-01-22 09:18:36.375617	353.9	17.0	-68.9	0.0
2025-01-22 09:18:37.501327	353.7	17.1	-69.0	0.0
2025-01-22 09:18:38.628812	353.6	17.2	-70.3	0.0
2025-01-22 09:18:39.756846	353.4	17.2	-64.9	0.0
2025-01-22 09:18:40.883996	353.2	17.3	-68.1	0.0
2025-01-22 09:18:42.010540	353.1	17.4	-67.5	0.0
2025-01-22 09:18:43.136218	352.9	17.5	-68.9	0.0
2025-01-22 09:18:44.263600	352.7	17.6	-67.4	0.0
2025-01-22 09:18:45.389046	352.6	17.7	-67.5	0.0
2025-01-22 09:18:46.516728	352.4	17.8	-65.5	0.0
2025-01-22 09:18:47.644164	352.2	17.9	-69.6	0.0
2025-01-22 09:18:48.770910	352.0	18.0	-66.7	0.0
2025-01-22 09:18:49.896661	351.9	18.1	-64.8	0.0
2025-01-22 09:18:51.023497	351.7	18.2	-66.7	0.0
2025-01-22 09:18:52.148337	351.5	18.3	-68.6	0.0
2025-01-22 09:18:53.274001	351.3	18.4	-68.7	0.0
2025-01-22 09:18:54.400979	351.1	18.5	-68.8	0.0
2025-01-22 09:18:55.527916	351.0	18.6	-69.9	0.0
2025-01-22 09:18:56.652745	350.8	18.7	-71.3	0.0
2025-01-22 09:18:57.778030	350.6	18.8	-72.2	0.0
2025-01-22 09:18:58.903533	350.4	18.9	-70.9	0.0
2025-01-22 09:19:00.030138	350.2	19.0	-70.9	0.0
2025-01-22 09:19:01.155924	350.0	19.1	-70.9	0.0
2025-01-22 09:19:02.280485	349.8	19.2	-71.6	0.0
2025-01-22 09:19:03.405413	349.6	19.3	-71.2	0.0
2025-01-22 09:19:04.530409	349.5	19.4	-70.4	0.0
2025-01-22 09:19:05.655975	349.3	19.5	-73.1	0.0
2025-01-22 09:19:06.783419	349.1	19.6	-73.4	0.0
2025-01-22 09:19:07.908895	348.9	19.7	-69.5	0.0
2025-01-22 09:19:09.036737	348.7	19.8	-72.4	0.0
2025-01-22 09:19:10.162793	348.5	19.9	-73.3	0.0
2025-01-22 09:19:11.291155	348.3	20.0	-72.0	0.0
2025-01-22 09:19:12.416305	348.1	20.1	-72.0	0.0
2025-01-22 09:19:13.544134	347.9	20.2	-73.3	0.0
2025-01-22 09:19:14.670332	347.7	20.3	-73.1	0.0
2025-01-22 09:19:15.795910	347.5	20.4	-70.4	0.0
2025-01-22 09:19:16.920630	347.3	20.5	-73.5	0.0
2025-01-22 09:19:18.046754	347.0	20.6	-69.5	0.0
2025-01-22 09:19:19.173975	346.8	20.7	-71.7	0.0
2025-01-22 09:19:20.299145	346.6	20.8	-73.3	0.0
2025-01-22 09:19:21.424909	346.4	20.9	-71.6	0.0
2025-01-22 09:19:22.548726	346.2	21.0	-70.5	0.0
2025-01-22 09:19:23.676039	346.0	21.1	-71.6	0.0
2025-01-22 09:19:24.800999	345.8	21.2	-71.6	0.0
2025-01-22 09:19:25.928785	345.5	21.3	-75.7	0.0
2025-01-22 09:19:27.053867	345.3	21.4	-75.5	0.0
2025-01-22 09:19:28.179100	345.1	21.5	-74.2	0.0
2025-01-22 09:19:29.305629	344.9	21.6	-75.1	0.0
2025-01-22 09:19:30.431805	344.7	21.7	-76.6	0.0
2025-01-22 09:19:31.557225	344.4	21.8	-73.4	0.0
2025-01-22 09:19:32.683207	344.2	21.9	-75.7	0.0
2025-01-22 09:19:33.809261	344.0	22.0	-75.2	0.0
2025-01-22 09:19:34.938343	343.8	22.1	-74.7	0.0
2025-01-22 09:19:36.063845	343.5	22.2	-73.2	0.0
2025-01-22 09:19:37.190832	343.3	22.3	-74.8	0.0
2025-01-22 09:19:38.316455	343.1	22.4	-73.2	0.0
2025-01-22 09:19:39.440121	342.8	22.5	-71.3	0.0
2025-01-22 09:19:40.565587	342.6	22.6	-74.4	0.0
2025-01-22 09:19:41.690340	342.3	22.7	-74.6	0.0
2025-01-22 09:19:42.816671	342.1	22.8	-74.1	0.0
2025-01-22 09:19:43.944210	341.9	22.9	-73.6	0.0
2025-01-22 09:19:45.070164	341.6	23.0	-67.4	0.0
2025-01-22 09:19:46.197059	341.4	23.1	-73.8	0.0
2025-01-22 09:19:47.322058	341.1	23.2	-71.3	0.0
2025-01-22 09:19:48.449323	340.9	23.3	-75.5	0.0
2025-01-22 09:19:49.575731	340.6	23.4	-73.9	0.0
2025-01-22 09:19:50.702044	340.4	23.5	-72.6	0.0
2025-01-22 09:19:51.829553	340.1	23.6	-72.4	0.0
2025-01-22 09:19:52.956177	339.9	23.7	-74.3	0.0
2025-01-22 09:19:54.082821	339.6	23.8	-73.0	0.0
2025-01-22 09:19:55.210303	339.4	23.9	-73.2	0.0
2025-01-22 09:19:56.338272	339.1	23.9	-74.0	0.0
2025-01-22 09:19:57.462656	338.8	24.0	-74.8	0.0
2025-01-22 09:19:58.589315	338.6	24.1	-74.1	0.0
2025-01-22 09:19:59.716130	338.3	24.2	-74.2	0.0
2025-01-22 09:20:00.839874	338.1	24.3	-74.1	0.0
2025-01-22 09:20:01.965430	337.8	24.4	-74.2	0.0
2025-01-22 09:20:03.091761	337.5	24.5	-74.1	0.0
2025-01-22 09:20:04.217213	337.3	24.6	-73.8	0.0
2025-01-22 09:20:05.343276	337.0	24.7	-75.6	0.0
2025-01-22 09:20:06.471041	336.7	24.8	-73.5	0.0
2025-01-22 09:20:07.596507	336.4	24.9	-73.7	0.0
2025-01-22 09:20:08.721051	336.2	25.0	-74.0	0.0
2025-01-22 09:20:09.845660	335.9	25.1	-75.9	0.0
2025-01-22 09:20:10.973191	335.6	25.2	-76.2	0.0
2025-01-22 09:20:12.100830	335.3	25.2	-76.1	0.0
2025-01-22 09:20:13.227734	335.0	25.3	-77.1	0.0
2025-01-22 09:20:14.354061	334.8	25.4	-76.4	0.0
2025-01-22 09:20:15.480708	334.5	25.5	-74.8	0.0
2025-01-22 09:20:16.605185	334.2	25.6	-70.2	0.0
2025-01-22 09:20:17.732978	333.9	25.7	-75.9	0.0
2025-01-22 09:20:18.859525	333.6	25.8	-69.8	0.0
2025-01-22 09:20:19.985034	333.3	25.9	-76.5	0.0
2025-01-22 09:20:21.112795	333.0	25.9	-76.3	0.0
2025-01-22 09:20:22.239506	332.7	26.0	-75.2	0.0
2025-01-22 09:20:23.365747	332.4	26.1	-74.7	0.0
2025-01-22 09:20:24.492665	332.1	26.2	-77.1	0.0
2025-01-22 09:20:25.616199	331.8	26.3	-77.1	0.0
2025-01-22 09:20:26.741815	331.5	26.4	-77.2	0.0
2025-01-22 09:20:27.867756	331.2	26.4	-75.8	0.0
2025-01-22 09:20:28.994724	330.9	26.5	-77.1	0.0
2025-01-22 09:20:30.121351	330.6	26.6	-76.8	0.0
2025-01-22 09:20:31.247842	330.3	26.7	-77.6	0.0
2025-01-22 09:20:32.373747	330.0	26.8	-75.0	0.0
2025-01-22 09:20:33.500567	329.7	26.8	-71.0	0.0
2025-01-22 09:20:34.628226	329.4	26.9	-74.6	0.0
2025-01-22 09:20:35.754021	329.1	27.0	-76.6	0.0
2025-01-22 09:20:36.879221	328.7	27.1	-69.7	0.0
2025-01-22 09:20:38.003887	328.4	27.1	-77.2	0.0
2025-01-22 09:20:39.130676	328.1	27.2	-76.7	0.0
2025-01-22 09:20:40.257206	327.8	27.3	-76.6	0.0
2025-01-22 09:20:41.382636	327.5	27.4	-78.0	0.0
2025-01-22 09:20:42.507598	327.1	27.4	-77.7	0.0
2025-01-22 09:20:43.636015	326.8	27.5	-75.5	0.0
2025-01-22 09:20:44.761095	326.5	27.6	-78.5	0.0
2025-01-22 09:20:45.886829	326.2	27.7	-74.1	0.0
2025-01-22 09:20:47.013269	325.8	27.7	-76.8	0.0
2025-01-22 09:20:48.141041	325.5	27.8	-76.0	0.0
2025-01-22 09:20:49.267111	325.2	27.9	-77.4	0.0
2025-01-22 09:20:50.391965	324.8	27.9	-76.3	0.0
2025-01-22 09:20:51.519243	324.5	28.0	-77.1	0.0
2025-01-22 09:20:52.645833	324.2	28.1	-76.9	0.0
2025-01-22 09:20:53.773312	323.8	28.1	-76.5	0.0
2025-01-22 09:20:54.899793	323.5	28.2	-75.2	0.0
2025-01-22 09:20:56.027093	323.2	28.2	-76.6	0.0
2025-01-22 09:20:57.153845	322.8	28.3	-77.2	0.0
2025-01-22 09:20:58.279712	322.5	28.4	-76.6	0.0
2025-01-22 09:20:59.404214	322.1	28.4	-76.8	0.0
2025-01-22 09:21:00.530376	321.8	28.5	-76.8	0.0
2025-01-22 09:21:01.656183	321.4	28.5	-77.4	0.0
2025-01-22 09:21:02.782018	321.1	28.6	-77.4	0.0
2025-01-22 09:21:03.910032	320.7	28.7	-74.8	0.0
2025-01-22 09:21:05.034783	320.4	28.7	-78.2	0.0
2025-01-22 09:21:06.160162	320.0	28.8	-75.8	0.0
2025-01-22 09:21:07.285872	319.7	28.8	-77.6	0.0
2025-01-22 09:21:08.411430	319.3	28.9	-77.5	0.0
2025-01-22 09:21:09.537843	319.0	28.9	-78.4	0.0
2025-01-22 09:21:10.663542	318.6	29.0	-77.9	0.0
2025-01-22 09:21:11.787899	318.3	29.0	-78.2	0.0
2025-01-22 09:21:12.912410	317.9	29.0	-78.2	0.0
2025-01-22 09:21:14.039293	317.6	29.1	-78.2	0.0
2025-01-22 09:21:15.166026	317.2	29.1	-76.3	0.0
2025-01-22 09:21:16.292349	316.8	29.2	-77.8	0.0
2025-01-22 09:21:17.418857	316.5	29.2	-77.3	0.0
2025-01-22 09:21:18.545206	316.1	29.3	-76.2	0.0
2025-01-22 09:21:19.671948	315.8	29.3	-75.2	0.0
2025-01-22 09:21:20.798585	315.4	29.3	-74.9	0.0
2025-01-22 09:21:21.924798	315.0	29.4	-75.1	0.0
2025-01-22 09:21:23.049293	314.7	29.4	-76.7	0.0
2025-01-22 09:21:24.175259	314.3	29.4	-77.4	0.0
2025-01-22 09:21:25.300503	313.9	29.5	-73.8	0.0
2025-01-22 09:21:26.426053	313.6	29.5	-72.9	0.0
2025-01-22 09:21:27.551118	313.2	29.5	-73.2	0.0
2025-01-22 09:21:28.676076	312.8	29.6	-77.2	0.0
2025-01-22 09:21:29.801073	312.5	29.6	-77.1	0.0
2025-01-22 09:21:30.928261	312.1	29.6	-77.0	0.0
2025-01-22 09:21:32.053596	311.7	29.6	-77.0	0.0
2025-01-22 09:21:33.182780	311.3	29.7	-77.8	0.0
2025-01-22 09:21:34.308333	311.0	29.7	-77.5	0.0
2025-01-22 09:21:35.433079	310.6	29.7	-77.6	0.0
2025-01-22 09:21:36.558151	310.2	29.7	-77.9	0.0
2025-01-22 09:21:37.683770	309.9	29.7	-78.1	0.0
2025-01-22 09:21:38.810107	309.5	29.7	-78.7	0.0
2025-01-22 09:21:39.938360	309.1	29.8	-78.1	0.0
2025-01-22 09:21:41.064878	308.7	29.8	-77.9	0.0
2025-01-22 09:21:42.191643	308.4	29.8	-78.0	0.0
2025-01-22 09:21:43.316541	308.0	29.8	-78.2	0.0
2025-01-22 09:21:44.443126	307.6	29.8	-78.5	0.0
2025-01-22 09:21:45.568376	307.2	29.8	-78.5	0.0
2025-01-22 09:21:46.695525	306.9	29.8	-78.4	0.0
2025-01-22 09:21:47.821068	306.5	29.8	-78.2	0.0
2025-01-22 09:21:48.945501	306.1	29.8	-77.2	0.0
2025-01-22 09:21:50.072577	305.7	29.8	-77.5	0.0
2025-01-22 09:21:51.198267	305.4	29.8	-77.0	0.0
2025-01-22 09:21:52.321945	305.0	29.8	-78.6	0.0
2025-01-22 09:21:53.448285	304.6	29.8	-78.8	0.0
2025-01-22 09:21:54.574507	304.2	29.8	-78.6	0.0
2025-01-22 09:21:55.698975	303.9	29.8	-79.0	0.0
2025-01-22 09:21:56.824741	303.5	29.8	-76.2	0.0
2025-01-22 09:21:57.951865	303.1	29.8	-78.3	0.0
2025-01-22 09:21:59.079185	302.7	29.8	-78.7	0.0
2025-01-22 09:22:00.205650	302.4	29.8	-78.4	0.0
2025-01-22 09:22:01.330626	302.0	29.8	-78.6	0.0
2025-01-22 09:22:02.457261	301.6	29.8	-78.2	0.0
2025-01-22 09:22:03.583142	301.2	29.7	-78.9	0.0
2025-01-22 09:22:04.710251	300.9	29.7	-78.0	0.0
2025-01-22 09:22:05.838759	300.5	29.7	-79.2	0.0
2025-01-22 09:22:06.964537	300.1	29.7	-77.9	0.0
2025-01-22 09:22:08.090739	299.7	29.7	-79.2	0.0
2025-01-22 09:22:09.215996	299.4	29.7	-79.3	0.0
2025-01-22 09:22:10.341727	299.0	29.6	-78.6	0.0
2025-01-22 09:22:11.467034	298.6	29.6	-79.0	0.0
2025-01-22 09:22:12.592058	298.3	29.6	-79.4	0.0
2025-01-22 09:22:13.719228	297.9	29.6	-77.4	0.0
2025-01-22 09:22:14.843004	297.5	29.5	-78.5	0.0
2025-01-22 09:22:15.967069	297.2	29.5	-78.4	0.0
2025-01-22 09:22:17.093009	296.8	29.5	-78.2	0.0
2025-01-22 09:22:18.217748	296.4	29.4	-78.8	0.0
2025-01-22 09:22:19.342613	296.1	29.4	-78.6	0.0
2025-01-22 09:22:20.468687	295.7	29.4	-78.3	0.0
2025-01-22 09:22:21.596757	295.3	29.3	-79.2	0.0
2025-01-22 09:22:22.721263	295.0	29.3	-78.9	0.0
2025-01-22 09:22:23.849045	294.6	29.3	-78.7	0.0
2025-01-22 09:22:24.975134	294.2	29.2	-79.1	0.0
2025-01-22 09:22:26.101156	293.9	29.2	-78.3	0.0
2025-01-22 09:22:27.227265	293.5	29.1	-78.6	0.0
2025-01-22 09:22:28.353906	293.2	29.1	-78.8	0.0
2025-01-22 09:22:29.480097	292.8	29.1	-78.9	0.0
2025-01-22 09:22:30.606245	292.4	29.0	-78.8	0.0
2025-01-22 09:22:31.733405	292.1	29.0	-78.3	0.0
2025-01-22 09:22:32.858690	291.7	28.9	-79.3	0.0
2025-01-22 09:22:33.984467	291.4	28.9	-79.1	0.0
2025-01-22 09:22:35.110059	291.0	28.8	-79.0	0.0
2025-01-22 09:22:36.237599	290.7	28.8	-79.1	0.0
2025-01-22 09:22:37.362948	290.3	28.7	-79.4	0.0
2025-01-22 09:22:38.487817	290.0	28.7	-79.1	0.0
2025-01-22 09:22:39.614195	289.6	28.6	-78.8	0.0
2025-01-22 09:22:40.741160	289.3	28.6	-79.1	0.0
2025-01-22 09:22:41.867465	288.9	28.5	-79.0	0.0
2025-01-22 09:22:42.991605	288.6	28.4	-79.5	0.0
2025-01-22 09:22:44.117049	288.2	28.4	-79.1	0.0
2025-01-22 09:22:45.241963	287.9	28.3	-79.0	0.0
2025-01-22 09:22:46.365734	287.6	28.3	-79.5	0.0
2025-01-22 09:22:47.491127	287.2	28.2	-79.5	0.0
2025-01-22 09:22:48.616511	286.9	28.1	-79.4	0.0
2025-01-22 09:22:49.742082	286.5	28.1	-79.4	0.0
2025-01-22 09:22:50.868218	286.2	28.0	-79.6	0.0
2025-01-22 09:22:51.994522	285.9	27.9	-79.7	0.0
2025-01-22 09:22:53.121228	285.5	27.9	-79.4	0.0
2025-01-22 09:22:54.248485	285.2	27.8	-79.0	0.0
2025-01-22 09:22:55.373689	284.9	27.7	-79.1	0.0
2025-01-22 09:22:56.499172	284.5	27.7	-79.1	0.0
2025-01-22 09:22:57.626389	284.2	27.6	-78.3	0.0
2025-01-22 09:22:58.752040	283.9	27.5	-79.2	0.0
2025-01-22 09:22:59.878555	283.6	27.5	-79.0	0.0
2025-01-22 09:23:01.004553	283.2	27.4	-79.3	0.0
2025-01-22 09:23:02.131112	282.9	27.3	-79.0	0.0
2025-01-22 09:23:03.256976	282.6	27.2	-79.0	0.0
2025-01-22 09:23:04.381841	282.3	27.2	-79.2	0.0
2025-01-22 09:23:05.508697	282.0	27.1	-79.1	0.0
2025-01-22 09:23:06.634969	281.7	27.0	-79.1	0.0
2025-01-22 09:23:07.761069	281.3	26.9	-79.1	0.0
2025-01-22 09:23:08.887371	281.0	26.9	-79.3	0.0
2025-01-22 09:23:10.013068	280.7	26.8	-79.6	0.0
2025-01-22 09:23:11.137394	280.4	26.7	-79.5	0.0
2025-01-22 09:23:12.264127	280.1	26.6	-79.4	0.0
2025-01-22 09:23:13.390103	279.8	26.5	-79.3	0.0
2025-01-22 09:23:14.516254	279.5	26.5	-79.6	0.0
2025-01-22 09:23:15.642449	279.2	26.4	-79.1	0.0
2025-01-22 09:23:16.768441	278.9	26.3	-79.4	0.0
2025-01-22 09:23:17.894305	278.6	26.2	-79.4	0.0
2025-01-22 09:23:19.021283	278.3	26.1	-79.3	0.0
2025-01-22 09:23:20.146166	278.0	26.0	-79.4	0.0
2025-01-22 09:23:21.272880	277.7	26.0	-79.7	0.0
2025-01-22 09:23:22.397932	277.4	25.9	-79.7	0.0
2025-01-22 09:23:23.522201	277.1	25.8	-79.9	0.0
2025-01-22 09:23:24.647145	276.8	25.7	-79.8	0.0
2025-01-22 09:23:25.771775	276.5	25.6	-79.6	0.0
2025-01-22 09:23:26.897631	276.2	25.5	-79.2	0.0
2025-01-22 09:23:28.023441	275.9	25.4	-79.4	0.0
2025-01-22 09:23:29.148680	275.7	25.4	-79.8	0.0
2025-01-22 09:23:30.275144	275.4	25.3	-79.6	0.0
2025-01-22 09:23:31.401311	275.1	25.2	-79.9	0.0
2025-01-22 09:23:32.526137	274.8	25.1	-80.0	0.0
2025-01-22 09:23:33.652704	274.5	25.0	-79.9	0.0
2025-01-22 09:23:34.780070	274.3	24.9	-79.5	0.0
2025-01-22 09:23:35.904775	274.0	24.8	-79.6	0.0
2025-01-22 09:23:37.030516	273.7	24.7	-79.3	0.0
2025-01-22 09:23:38.157003	273.4	24.6	-79.9	0.0
2025-01-22 09:23:39.282243	273.2	24.5	-79.6	0.0
2025-01-22 09:23:40.409090	272.9	24.4	-79.7	0.0
2025-01-22 09:23:41.535956	272.6	24.4	-79.7	0.0
2025-01-22 09:23:42.662190	272.4	24.3	-79.3	0.0
2025-01-22 09:23:43.788756	272.1	24.2	-79.8	0.0
2025-01-22 09:23:44.914368	271.8	24.1	-79.3	0.0
2025-01-22 09:23:46.038920	271.6	24.0	-79.5	0.0
2025-01-22 09:23:47.164986	271.3	23.9	-79.7	0.0
2025-01-22 09:23:48.289818	271.1	23.8	-79.4	0.0
2025-01-22 09:23:49.415701	270.8	23.7	-79.5	0.0
2025-01-22 09:23:50.540861	270.6	23.6	-79.5	0.0
2025-01-22 09:23:51.666575	270.3	23.5	-79.6	0.0
2025-01-22 09:23:52.790763	270.1	23.4	-79.7	0.0
2025-01-22 09:23:53.917403	269.8	23.3	-79.7	0.0
2025-01-22 09:23:55.043190	269.6	23.2	-79.9	0.0
2025-01-22 09:23:56.169569	269.3	23.1	-79.8	0.0
2025-01-22 09:23:57.297345	269.1	23.0	-79.7	0.0
2025-01-22 09:23:58.421570	268.8	22.9	-79.7	0.0
2025-01-22 09:23:59.547189	268.6	22.8	-80.0	0.0
2025-01-22 09:24:00.675610	268.3	22.7	-79.9	0.0
2025-01-22 09:24:01.802081	268.1	22.6	-79.4	0.0
2025-01-22 09:24:02.928216	267.9	22.5	-79.8	0.0
2025-01-22 09:24:04.053880	267.6	22.4	-79.9	0.0
2025-01-22 09:24:05.179777	267.4	22.3	-79.8	0.0
2025-01-22 09:24:06.307038	267.2	22.2	-79.7	0.0
2025-01-22 09:24:07.433232	266.9	22.1	-79.8	0.0
2025-01-22 09:24:08.557786	266.7	22.0	-79.7	0.0
2025-01-22 09:24:09.683093	266.5	21.9	-79.5	0.0
2025-01-22 09:24:10.808178	266.2	21.8	-79.5	0.0
2025-01-22 09:24:11.935339	266.0	21.7	-79.4	0.0
2025-01-22 09:24:13.061447	265.8	21.6	-79.4	0.0
2025-01-22 09:24:14.185880	265.6	21.5	-79.6	0.0
2025-01-22 09:24:15.311943	265.4	21.4	-79.4	0.0
2025-01-22 09:24:16.438113	265.1	21.3	-79.1	0.0
2025-01-22 09:24:17.562702	264.9	21.2	-79.3	0.0
2025-01-22 09:24:18.692103	264.7	21.1	-79.3	0.0
2025-01-22 09:24:19.817380	264.5	21.0	-78.8	0.0
2025-01-22 09:24:20.943169	264.3	20.9	-79.0	0.0
2025-01-22 09:24:22.068869	264.1	20.8	-78.8	0.0
2025-01-22 09:24:23.194888	263.8	20.7	-78.9	0.0
2025-01-22 09:24:24.320341	263.6	20.6	-78.9	0.0
2025-01-22 09:24:25.444889	263.4	20.5	-79.2	0.0
2025-01-22 09:24:26.570342	263.2	20.4	-79.2	0.0
2025-01-22 09:24:27.696626	263.0	20.3	-78.8	0.0
2025-01-22 09:24:28.823077	262.8	20.2	-79.4	0.0
2025-01-22 09:24:29.951101	262.6	20.1	-79.3	0.0
2025-01-22 09:24:31.076780	262.4	20.0	-78.9	0.0
2025-01-22 09:24:32.202233	262.2	19.9	-79.3	0.0
2025-01-22 09:24:33.329782	262.0	19.8	-79.6	0.0
2025-01-22 09:24:34.457094	261.8	19.7	-79.6	0.0
2025-01-22 09:24:35.581038	261.6	19.7	-79.4	0.0
2025-01-22 09:24:36.706194	261.4	19.6	-79.5	0.0
2025-01-22 09:24:37.832830	261.2	19.5	-79.4	0.0
2025-01-22 09:24:38.957933	261.0	19.4	-79.3	0.0
2025-01-22 09:24:40.084059	260.8	19.3	-79.6	0.0
2025-01-22 09:24:41.209846	260.6	19.2	-79.3	0.0
2025-01-22 09:24:42.333065	260.4	19.1	-79.3	0.0
2025-01-22 09:24:43.459157	260.3	19.0	-79.4	0.0
2025-01-22 09:24:44.585259	260.1	18.9	-79.6	0.0
2025-01-22 09:24:45.711970	259.9	18.8	-79.5	0.0
2025-01-22 09:24:46.837266	259.7	18.7	-79.5	0.0
2025-01-22 09:24:47.963426	259.5	18.6	-79.2	0.0
2025-01-22 09:24:49.088226	259.3	18.5	-79.2	0.0
2025-01-22 09:24:50.216448	259.2	18.4	-79.3	0.0
2025-01-22 09:24:51.343932	259.0	18.3	-79.5	0.0
2025-01-22 09:24:52.470283	258.8	18.2	-79.3	0.0
2025-01-22 09:24:53.595864	258.6	18.1	-79.2	0.0
2025-01-22 09:24:54.722364	258.4	18.0	-79.6	0.0
2025-01-22 09:24:55.852010	258.3	17.9	-79.5	0.0
2025-01-22 09:24:56.977180	258.1	17.8	-78.9	0.0
2025-01-22 09:24:58.104341	257.9	17.7	-79.5	0.0
2025-01-22 09:24:59.231939	257.7	17.6	-79.5	0.0
2025-01-22 09:25:00.356858	257.6	17.5	-79.4	0.0
2025-01-22 09:25:01.483382	257.4	17.4	-79.3	0.0
2025-01-22 09:25:02.611685	257.2	17.3	-79.2	0.0
2025-01-22 09:25:03.737591	257.1	17.2	-79.3	0.0
2025-01-22 09:25:04.864289	256.9	17.1	-79.4	0.0
2025-01-22 09:25:05.989641	256.7	17.0	-79.7	0.0
2025-01-22 09:25:07.115419	256.6	16.9	-79.8	0.0
2025-01-22 09:25:08.241992	256.4	16.8	-79.4	0.0
2025-01-22 09:25:09.368883	256.3	16.7	-79.5	0.0
2025-01-22 09:25:10.492805	256.1	16.6	-79.7	0.0
2025-01-22 09:25:11.619542	255.9	16.5	-79.6	0.0
2025-01-22 09:25:12.746814	255.8	16.4	-79.3	0.0
2025-01-22 09:25:13.872235	255.6	16.3	-79.4	0.0
2025-01-22 09:25:14.997238	255.5	16.2	-79.2	0.0
2025-01-22 09:25:16.124626	255.3	16.1	-79.4	0.0
2025-01-22 09:25:17.251353	255.1	16.0	-79.3	0.0
2025-01-22 09:25:18.378748	255.0	15.9	-79.2	0.0
2025-01-22 09:25:19.506459	254.8	15.8	-79.1	0.0
2025-01-22 09:25:20.633829	254.7	15.7	-79.5	0.0
2025-01-22 09:25:21.757840	254.5	15.6	-79.1	0.0
2025-01-22 09:25:22.883875	254.4	15.6	-79.3	0.0
2025-01-22 09:25:24.010699	254.2	15.5	-79.1	0.0
2025-01-22 09:25:25.135356	254.1	15.4	-78.7	0.0
2025-01-22 09:25:26.261620	253.9	15.3	-78.9	0.0
2025-01-22 09:25:27.385339	253.8	15.2	-78.9	0.0
2025-01-22 09:25:28.511571	253.7	15.1	-79.1	0.0
2025-01-22 09:25:29.638948	253.5	15.0	-79.0	0.0
2025-01-22 09:25:30.765328	253.4	14.9	-79.1	0.0
2025-01-22 09:25:31.891536	253.2	14.8	-78.7	0.0
2025-01-22 09:25:33.018104	253.1	14.7	-78.7	0.0
2025-01-22 09:25:34.144361	252.9	14.6	-78.3	0.0
2025-01-22 09:25:35.271904	252.8	14.5	-79.0	0.0
2025-01-22 09:25:36.399161	252.7	14.4	-78.6	0.0
2025-01-22 09:25:37.527526	252.5	14.3	-78.7	0.0
2025-01-22 09:25:38.654271	252.4	14.2	-78.5	0.0
2025-01-22 09:25:39.780614	252.2	14.2	-78.7	0.0
2025-01-22 09:25:40.906263	252.1	14.1	-78.9	0.0
2025-01-22 09:25:42.031250	252.0	14.0	-78.7	0.0
2025-01-22 09:25:43.157760	251.8	13.9	-78.7	0.0
2025-01-22 09:25:44.283867	251.7	13.8	-78.9	0.0
2025-01-22 09:25:45.409126	251.6	13.7	-79.0	0.0
2025-01-22 09:25:46.534134	251.4	13.6	-78.6	0.0
2025-01-22 09:25:47.658546	251.3	13.5	-78.7	0.0
2025-01-22 09:25:48.784768	251.2	13.4	-77.2	0.0
2025-01-22 09:25:49.908975	251.1	13.3	-79.0	0.0
2025-01-22 09:25:51.035831	250.9	13.2	-78.9	0.0
2025-01-22 09:25:52.162968	250.8	13.1	-79.3	0.0
2025-01-22 09:25:53.288104	250.7	13.1	-79.0	0.0
2025-01-22 09:25:54.413995	250.6	13.0	-78.6	0.0
2025-01-22 09:25:55.539747	250.4	12.9	-79.0	0.0
2025-01-22 09:25:56.665011	250.3	12.8	-78.8	0.0
2025-01-22 09:25:57.793185	250.2	12.7	-78.7	0.0
2025-01-22 09:25:58.919896	250.1	12.6	-78.7	0.0
2025-01-22 09:26:00.047846	249.9	12.5	-78.8	0.0
2025-01-22 09:26:01.171965	249.8	12.4	-79.0	0.0
2025-01-22 09:26:02.296907	249.7	12.3	-79.1	0.0
2025-01-22 09:26:03.422727	249.6	12.3	-78.9	0.0
2025-01-22 09:26:04.548326	249.5	12.2	-78.7	0.0
2025-01-22 09:26:05.674015	249.3	12.1	-78.7	0.0
2025-01-22 09:26:06.800449	249.2	12.0	-79.0	0.0
2025-01-22 09:26:07.927108	249.1	11.9	-78.9	0.0
2025-01-22 09:26:09.055109	249.0	11.8	-78.8	0.0
2025-01-22 09:26:10.180041	248.9	11.7	-79.1	0.0
2025-01-22 09:26:11.306229	248.8	11.6	-78.5	0.0
2025-01-22 09:26:12.433693	248.6	11.6	-78.4	0.0
2025-01-22 09:26:13.559098	248.5	11.5	-78.4	0.0
2025-01-22 09:26:14.685132	248.4	11.4	-78.4	0.0
2025-01-22 09:26:15.810755	248.3	11.3	-78.3	0.0
2025-01-22 09:26:16.937279	248.2	11.2	-78.4	0.0
2025-01-22 09:26:18.065146	248.1	11.1	-78.3	0.0
2025-01-22 09:26:19.190980	248.0	11.0	-78.7	0.0
2025-01-22 09:26:20.318170	247.9	11.0	-79.4	0.0
2025-01-22 09:26:21.444185	247.8	10.9	-79.2	2.0
2025-01-22 09:26:22.568426	247.6	10.8	-80.1	0.0
2025-01-22 09:26:23.694994	247.5	10.7	-77.2	0.0
2025-01-22 09:26:24.821094	247.4	10.6	-80.5	0.0
2025-01-22 09:26:25.945928	247.3	10.5	-80.5	0.0
2025-01-22 09:26:27.071043	247.2	10.4	-80.3	0.0
2025-01-22 09:26:28.196300	247.1	10.4	-80.9	0.0
2025-01-22 09:26:29.322473	247.0	10.3	-81.2	0.0
2025-01-22 09:26:30.448905	246.9	10.2	-81.3	0.0
2025-01-22 09:26:31.575351	246.8	10.1	-81.2	0.0
2025-01-22 09:26:32.702026	246.7	10.0	-81.1	0.0
#Closed at: 2025-01-22 09:17:04.763408