passes_logs/2025/01/22/planumMaritime01/planumMaritime01__20250122_191048_NOAA_19_rec.log

#Pass ID: 20250122_191048_NOAA 19
#Satellite: NOAA 19
#Configuration: NOAA 19
#Start time: 2025-01-22 19:10:48.344129

#LorettStation: 1.0.0 05.05.2024
#Station: planumMaritime01
#Location: 37.49445 lon 55.92918 lat
#TLE: 1 33591U 09005A   25022.22545190  .00000382  00000+0  22773-3 0  9990
#TLE: 2 33591  99.0184  86.0433 0014227  38.0135 322.2038 14.13265658822568

#Time	Az	El	Level	SNR
2025-01-22 19:10:55.877741	199.6	10.6	-80.5	0.0
2025-01-22 19:10:57.005665	199.7	10.7	-81.0	0.0
2025-01-22 19:10:58.130923	199.8	10.8	-81.5	0.0
2025-01-22 19:10:59.259460	199.9	10.9	-80.9	0.0
2025-01-22 19:11:00.386364	200.0	10.9	-80.8	0.0
2025-01-22 19:11:01.512905	200.1	11.0	-80.4	0.0
2025-01-22 19:11:02.639513	200.2	11.1	-80.0	0.0
2025-01-22 19:11:03.768034	200.3	11.2	-79.0	0.0
2025-01-22 19:11:04.893228	200.4	11.3	-79.1	0.0
2025-01-22 19:11:06.019020	200.5	11.4	-78.5	0.0
2025-01-22 19:11:07.147097	200.6	11.5	-78.9	0.0
2025-01-22 19:11:08.273804	200.7	11.6	-79.2	0.0
2025-01-22 19:11:09.401407	200.8	11.7	-78.6	0.0
2025-01-22 19:11:10.529635	200.9	11.8	-78.9	0.0
2025-01-22 19:11:11.656900	201.0	11.9	-78.3	0.0
2025-01-22 19:11:12.782311	201.1	11.9	-78.2	0.0
2025-01-22 19:11:13.909976	201.2	12.0	-78.9	0.0
2025-01-22 19:11:15.036372	201.3	12.1	-79.0	0.0
2025-01-22 19:11:16.161376	201.4	12.2	-78.7	0.0
2025-01-22 19:11:17.287486	201.5	12.3	-78.4	0.0
2025-01-22 19:11:18.414372	201.6	12.4	-78.4	0.0
2025-01-22 19:11:19.542299	201.7	12.5	-78.6	0.0
2025-01-22 19:11:20.668218	201.8	12.6	-78.0	0.0
2025-01-22 19:11:21.794201	202.0	12.7	-78.5	0.0
2025-01-22 19:11:22.919648	202.1	12.8	-78.3	0.0
2025-01-22 19:11:24.044821	202.2	12.9	-78.3	0.0
2025-01-22 19:11:25.170834	202.3	13.0	-78.6	0.0
2025-01-22 19:11:26.295753	202.4	13.1	-77.0	0.0
2025-01-22 19:11:27.424835	202.5	13.2	-77.8	0.0
2025-01-22 19:11:28.549228	202.6	13.3	-77.7	0.0
2025-01-22 19:11:29.673728	202.7	13.4	-78.5	0.0
2025-01-22 19:11:30.800128	202.9	13.5	-77.3	0.0
2025-01-22 19:11:31.926531	203.0	13.6	-78.1	0.0
2025-01-22 19:11:33.054280	203.1	13.6	-76.6	0.0
2025-01-22 19:11:34.180919	203.2	13.7	-77.9	0.0
2025-01-22 19:11:35.308983	203.3	13.8	-77.8	0.0
2025-01-22 19:11:36.435177	203.5	13.9	-78.2	0.0
2025-01-22 19:11:37.561700	203.6	14.0	-77.6	0.0
2025-01-22 19:11:38.688720	203.7	14.1	-78.3	0.0
2025-01-22 19:11:39.813401	203.8	14.2	-78.3	0.0
2025-01-22 19:11:40.939517	203.9	14.3	-77.9	0.0
2025-01-22 19:11:42.066214	204.1	14.4	-78.0	0.0
2025-01-22 19:11:43.194696	204.2	14.5	-78.1	0.0
2025-01-22 19:11:44.320491	204.3	14.6	-78.2	0.0
2025-01-22 19:11:45.446942	204.4	14.7	-77.9	0.0
2025-01-22 19:11:46.573582	204.6	14.8	-77.5	0.0
2025-01-22 19:11:47.700313	204.7	14.9	-78.1	0.0
2025-01-22 19:11:48.826702	204.8	15.0	-78.0	0.0
2025-01-22 19:11:49.951463	205.0	15.1	-76.9	0.0
2025-01-22 19:11:51.079878	205.1	15.2	-78.3	0.0
2025-01-22 19:11:52.208769	205.2	15.3	-78.6	0.0
2025-01-22 19:11:53.335045	205.4	15.4	-77.7	0.0
2025-01-22 19:11:54.461134	205.5	15.5	-77.2	0.0
2025-01-22 19:11:55.589277	205.6	15.7	-77.5	0.0
2025-01-22 19:11:56.717465	205.8	15.8	-78.3	0.0
2025-01-22 19:11:57.842517	205.9	15.9	-77.0	0.0
2025-01-22 19:11:58.968579	206.0	16.0	-76.5	0.0
2025-01-22 19:12:00.094898	206.2	16.1	-76.8	0.0
2025-01-22 19:12:01.222357	206.3	16.2	-76.9	0.0
2025-01-22 19:12:02.346697	206.4	16.3	-78.3	0.0
2025-01-22 19:12:03.472611	206.6	16.4	-78.4	0.0
2025-01-22 19:12:04.600870	206.7	16.5	-78.6	0.0
2025-01-22 19:12:05.728136	206.9	16.6	-78.2	0.0
2025-01-22 19:12:06.855452	207.0	16.7	-78.3	0.0
2025-01-22 19:12:07.980412	207.2	16.8	-78.6	0.0
2025-01-22 19:12:09.106555	207.3	16.9	-78.8	0.0
2025-01-22 19:12:10.231896	207.5	17.0	-79.0	0.0
2025-01-22 19:12:11.358729	207.6	17.1	-79.0	0.0
2025-01-22 19:12:12.484576	207.7	17.2	-77.2	0.0
2025-01-22 19:12:13.611452	207.9	17.3	-78.6	0.0
2025-01-22 19:12:14.734491	208.0	17.4	-78.5	0.0
2025-01-22 19:12:15.860347	208.2	17.5	-78.6	0.0
2025-01-22 19:12:16.988372	208.3	17.7	-78.9	0.0
2025-01-22 19:12:18.116166	208.5	17.8	-79.2	0.0
2025-01-22 19:12:19.241918	208.7	17.9	-79.0	0.0
2025-01-22 19:12:20.369603	208.8	18.0	-78.8	0.0
2025-01-22 19:12:21.495672	209.0	18.1	-78.7	0.0
2025-01-22 19:12:22.621685	209.1	18.2	-79.0	0.0
2025-01-22 19:12:23.748593	209.3	18.3	-79.2	0.0
2025-01-22 19:12:24.875745	209.4	18.4	-79.0	0.0
2025-01-22 19:12:26.002118	209.6	18.5	-79.1	0.0
2025-01-22 19:12:27.128593	209.8	18.6	-79.2	0.0
2025-01-22 19:12:28.253732	209.9	18.8	-79.5	0.0
2025-01-22 19:12:29.380107	210.1	18.9	-79.0	0.0
2025-01-22 19:12:30.507009	210.3	19.0	-79.2	0.0
2025-01-22 19:12:31.635286	210.4	19.1	-78.8	0.0
2025-01-22 19:12:32.760538	210.6	19.2	-78.5	0.0
2025-01-22 19:12:33.888544	210.8	19.3	-79.1	0.0
2025-01-22 19:12:35.014906	210.9	19.4	-79.1	0.0
2025-01-22 19:12:36.141739	211.1	19.5	-79.2	0.0
2025-01-22 19:12:37.270541	211.3	19.6	-79.6	0.0
2025-01-22 19:12:38.396845	211.5	19.8	-79.0	0.0
2025-01-22 19:12:39.521571	211.6	19.9	-79.7	0.0
2025-01-22 19:12:40.647769	211.8	20.0	-79.5	0.0
2025-01-22 19:12:41.775633	212.0	20.1	-79.5	0.0
2025-01-22 19:12:42.902177	212.2	20.2	-79.1	0.0
2025-01-22 19:12:44.028335	212.4	20.3	-78.9	0.0
2025-01-22 19:12:45.154988	212.5	20.4	-78.9	0.0
2025-01-22 19:12:46.280288	212.7	20.6	-79.5	0.0
2025-01-22 19:12:47.406681	212.9	20.7	-79.3	0.0
2025-01-22 19:12:48.533040	213.1	20.8	-79.4	0.0
2025-01-22 19:12:49.659992	213.3	20.9	-79.5	0.0
2025-01-22 19:12:50.788175	213.5	21.0	-78.9	0.0
2025-01-22 19:12:51.916048	213.7	21.1	-78.7	0.0
2025-01-22 19:12:53.045278	213.8	21.3	-78.5	0.0
2025-01-22 19:12:54.173799	214.0	21.4	-78.7	0.0
2025-01-22 19:12:55.301495	214.2	21.5	-78.7	0.0
2025-01-22 19:12:56.429995	214.4	21.6	-78.8	0.0
2025-01-22 19:12:57.558542	214.6	21.7	-79.3	0.0
2025-01-22 19:12:58.684146	214.8	21.8	-78.9	0.0
2025-01-22 19:12:59.812563	215.0	22.0	-78.6	0.0
2025-01-22 19:13:00.941326	215.2	22.1	-78.2	0.0
2025-01-22 19:13:02.068805	215.4	22.2	-78.5	0.0
2025-01-22 19:13:03.195523	215.6	22.3	-78.2	0.0
2025-01-22 19:13:04.323452	215.8	22.4	-78.3	0.0
2025-01-22 19:13:05.450089	216.0	22.5	-78.6	0.0
2025-01-22 19:13:06.577313	216.3	22.7	-78.5	0.0
2025-01-22 19:13:07.703846	216.5	22.8	-79.1	0.0
2025-01-22 19:13:08.831793	216.7	22.9	-78.6	0.0
2025-01-22 19:13:09.959188	216.9	23.0	-79.3	0.0
2025-01-22 19:13:11.085371	217.1	23.1	-78.5	0.0
2025-01-22 19:13:12.212719	217.3	23.3	-78.9	0.0
2025-01-22 19:13:13.338457	217.5	23.4	-78.9	0.0
2025-01-22 19:13:14.464668	217.8	23.5	-79.2	0.0
2025-01-22 19:13:15.593436	218.0	23.6	-78.2	0.0
2025-01-22 19:13:16.718920	218.2	23.7	-78.9	0.0
2025-01-22 19:13:17.846726	218.4	23.9	-79.3	0.0
2025-01-22 19:13:18.973835	218.7	24.0	-79.0	0.0
2025-01-22 19:13:20.100215	218.9	24.1	-78.7	0.0
2025-01-22 19:13:21.225435	219.1	24.2	-79.1	0.0
2025-01-22 19:13:22.354752	219.4	24.3	-79.1	0.0
2025-01-22 19:13:23.481760	219.6	24.5	-78.2	0.0
2025-01-22 19:13:24.608398	219.8	24.6	-79.0	0.0
2025-01-22 19:13:25.734903	220.1	24.7	-79.2	0.0
2025-01-22 19:13:26.859502	220.3	24.8	-79.1	0.0
2025-01-22 19:13:27.987722	220.5	24.9	-78.9	0.0
2025-01-22 19:13:29.115272	220.8	25.1	-79.2	0.0
2025-01-22 19:13:30.241559	221.0	25.2	-79.1	0.0
2025-01-22 19:13:31.371411	221.3	25.3	-79.2	0.0
2025-01-22 19:13:32.497698	221.5	25.4	-78.9	0.0
2025-01-22 19:13:33.624387	221.8	25.5	-79.0	0.0
2025-01-22 19:13:34.753004	222.0	25.7	-79.5	0.0
2025-01-22 19:13:35.879766	222.3	25.8	-79.5	0.0
2025-01-22 19:13:37.007044	222.5	25.9	-78.8	0.0
2025-01-22 19:13:38.135111	222.8	26.0	-78.5	0.0
2025-01-22 19:13:39.260249	223.1	26.1	-79.7	0.0
2025-01-22 19:13:40.387407	223.3	26.3	-79.5	0.0
2025-01-22 19:13:41.515656	223.6	26.4	-79.3	0.0
2025-01-22 19:13:42.643374	223.8	26.5	-79.5	0.0
2025-01-22 19:13:43.771360	224.1	26.6	-79.2	0.0
2025-01-22 19:13:44.899308	224.4	26.7	-79.8	0.0
2025-01-22 19:13:46.026930	224.7	26.9	-79.4	0.0
2025-01-22 19:13:47.151153	224.9	27.0	-79.8	0.0
2025-01-22 19:13:48.277556	225.2	27.1	-79.3	0.0
2025-01-22 19:13:49.405316	225.5	27.2	-79.7	0.0
2025-01-22 19:13:50.534194	225.8	27.3	-79.8	0.0
2025-01-22 19:13:51.661395	226.0	27.5	-79.8	0.0
2025-01-22 19:13:52.787422	226.3	27.6	-79.7	0.0
2025-01-22 19:13:53.915438	226.6	27.7	-79.6	0.0
2025-01-22 19:13:55.043827	226.9	27.8	-80.0	0.0
2025-01-22 19:13:56.172285	227.2	27.9	-80.3	0.0
2025-01-22 19:13:57.299345	227.5	28.1	-80.4	0.0
2025-01-22 19:13:58.426496	227.8	28.2	-80.1	0.0
2025-01-22 19:13:59.553262	228.1	28.3	-80.6	0.0
2025-01-22 19:14:00.679955	228.4	28.4	-80.1	0.0
2025-01-22 19:14:01.808385	228.7	28.5	-80.0	0.0
2025-01-22 19:14:02.935133	229.0	28.6	-80.2	0.0
2025-01-22 19:14:04.063431	229.3	28.7	-80.4	0.0
2025-01-22 19:14:05.188734	229.6	28.9	-80.0	0.0
2025-01-22 19:14:06.313439	229.9	29.0	-80.5	0.0
2025-01-22 19:14:07.441283	230.2	29.1	-80.0	0.0
2025-01-22 19:14:08.570746	230.5	29.2	-80.3	0.0
2025-01-22 19:14:09.697621	230.8	29.3	-80.4	0.0
2025-01-22 19:14:10.824513	231.1	29.4	-80.0	0.0
2025-01-22 19:14:11.951673	231.5	29.5	-80.0	0.0
2025-01-22 19:14:13.078192	231.8	29.7	-80.3	0.0
2025-01-22 19:14:14.205606	232.1	29.8	-79.8	0.0
2025-01-22 19:14:15.333235	232.4	29.9	-80.2	0.0
2025-01-22 19:14:16.461920	232.8	30.0	-79.8	0.0
2025-01-22 19:14:17.588520	233.1	30.1	-79.9	0.0
2025-01-22 19:14:18.716633	233.4	30.2	-80.2	0.0
2025-01-22 19:14:19.844373	233.8	30.3	-80.2	0.0
2025-01-22 19:14:20.971319	234.1	30.4	-80.0	0.0
2025-01-22 19:14:22.097533	234.4	30.5	-80.4	0.0
2025-01-22 19:14:23.224085	234.8	30.6	-80.4	0.0
2025-01-22 19:14:24.348702	235.1	30.7	-80.4	0.0
2025-01-22 19:14:25.475564	235.5	30.8	-79.3	0.0
2025-01-22 19:14:26.603328	235.8	30.9	-80.3	0.0
2025-01-22 19:14:27.727123	236.2	31.0	-80.2	0.0
2025-01-22 19:14:28.854263	236.5	31.1	-79.9	0.0
2025-01-22 19:14:29.979393	236.9	31.3	-79.6	0.0
2025-01-22 19:14:31.105561	237.2	31.4	-80.2	0.0
2025-01-22 19:14:32.231856	237.6	31.5	-80.4	0.0
2025-01-22 19:14:33.357734	237.9	31.5	-80.7	0.0
2025-01-22 19:14:34.484106	238.3	31.6	-80.5	0.0
2025-01-22 19:14:35.611828	238.7	31.7	-80.6	0.0
2025-01-22 19:14:36.738920	239.0	31.8	-80.7	0.0
2025-01-22 19:14:37.866427	239.4	31.9	-80.9	0.0
2025-01-22 19:14:38.993692	239.8	32.0	-80.9	0.0
2025-01-22 19:14:40.119586	240.1	32.1	-80.6	0.0
2025-01-22 19:14:41.245689	240.5	32.2	-80.6	0.0
2025-01-22 19:14:42.372378	240.9	32.3	-80.7	0.0
2025-01-22 19:14:43.498326	241.3	32.4	-80.9	0.0
2025-01-22 19:14:44.625463	241.7	32.5	-80.8	0.0
2025-01-22 19:14:45.750740	242.0	32.6	-80.8	0.0
2025-01-22 19:14:46.877208	242.4	32.7	-80.9	0.0
2025-01-22 19:14:48.005294	242.8	32.7	-80.7	0.0
2025-01-22 19:14:49.132318	243.2	32.8	-81.0	0.0
2025-01-22 19:14:50.259526	243.6	32.9	-80.6	0.0
2025-01-22 19:14:51.384734	244.0	33.0	-80.7	0.0
2025-01-22 19:14:52.511514	244.4	33.1	-80.7	0.0
2025-01-22 19:14:53.636969	244.8	33.1	-80.5	0.0
2025-01-22 19:14:54.765339	245.2	33.2	-80.7	0.0
2025-01-22 19:14:55.892969	245.6	33.3	-80.9	0.0
2025-01-22 19:14:57.019292	246.0	33.4	-80.2	0.0
2025-01-22 19:14:58.144047	246.4	33.5	-80.6	0.0
2025-01-22 19:14:59.270779	246.8	33.5	-80.5	0.0
2025-01-22 19:15:00.397835	247.2	33.6	-80.4	0.0
2025-01-22 19:15:01.528184	247.6	33.7	-80.3	0.0
2025-01-22 19:15:02.655298	248.0	33.7	-80.7	0.0
2025-01-22 19:15:03.784474	248.4	33.8	-80.6	0.0
2025-01-22 19:15:04.911593	248.8	33.9	-80.4	0.0
2025-01-22 19:15:06.038374	249.3	33.9	-80.3	0.0
2025-01-22 19:15:07.165273	249.7	34.0	-80.2	0.0
2025-01-22 19:15:08.292912	250.1	34.0	-80.3	0.0
2025-01-22 19:15:09.417354	250.5	34.1	-80.4	0.0
2025-01-22 19:15:10.543801	250.9	34.2	-79.9	0.0
2025-01-22 19:15:11.669334	251.4	34.2	-80.1	0.0
2025-01-22 19:15:12.798158	251.8	34.3	-80.1	0.0
2025-01-22 19:15:13.924384	252.2	34.3	-80.1	0.0
2025-01-22 19:15:15.050926	252.6	34.4	-80.2	0.0
2025-01-22 19:15:16.180238	253.1	34.4	-79.9	0.0
2025-01-22 19:15:17.305441	253.5	34.5	-80.2	0.0
2025-01-22 19:15:18.434248	253.9	34.5	-80.5	0.0
2025-01-22 19:15:19.559902	254.4	34.6	-80.0	0.0
2025-01-22 19:15:20.685716	254.8	34.6	-80.1	0.0
2025-01-22 19:15:21.812595	255.2	34.6	-80.2	0.0
2025-01-22 19:15:22.938739	255.7	34.7	-80.1	0.0
2025-01-22 19:15:24.066429	256.1	34.7	-80.0	0.0
2025-01-22 19:15:25.191643	256.5	34.8	-80.3	0.0
2025-01-22 19:15:26.319079	257.0	34.8	-79.8	0.0
2025-01-22 19:15:27.446159	257.4	34.8	-80.1	0.0
2025-01-22 19:15:28.571707	257.9	34.8	-80.4	0.0
2025-01-22 19:15:29.698724	258.3	34.9	-80.3	0.0
2025-01-22 19:15:30.825684	258.7	34.9	-80.3	0.0
2025-01-22 19:15:31.950791	259.2	34.9	-80.3	0.0
2025-01-22 19:15:33.078891	259.6	34.9	-79.9	0.0
2025-01-22 19:15:34.207748	260.1	35.0	-80.2	0.0
2025-01-22 19:15:35.334304	260.5	35.0	-80.3	0.0
2025-01-22 19:15:36.462035	261.0	35.0	-80.2	0.0
2025-01-22 19:15:37.589029	261.4	35.0	-79.9	0.0
2025-01-22 19:15:38.717400	261.9	35.0	-80.5	0.0
2025-01-22 19:15:39.844663	262.3	35.0	-80.5	0.0
2025-01-22 19:15:40.972334	262.7	35.0	-80.3	0.0
2025-01-22 19:15:42.099869	263.2	35.1	-80.3	0.0
2025-01-22 19:15:43.225888	263.6	35.1	-80.2	0.0
2025-01-22 19:15:44.352801	264.1	35.1	-80.4	0.0
2025-01-22 19:15:45.481563	264.5	35.1	-80.4	0.0
2025-01-22 19:15:46.606833	265.0	35.1	-80.1	0.0
2025-01-22 19:15:47.734446	265.4	35.1	-80.1	0.0
2025-01-22 19:15:48.861159	265.9	35.1	-80.1	0.0
2025-01-22 19:15:49.987815	266.3	35.0	-80.0	0.0
2025-01-22 19:15:51.111692	266.8	35.0	-80.3	0.0
2025-01-22 19:15:52.237947	267.2	35.0	-80.5	0.0
2025-01-22 19:15:53.364388	267.6	35.0	-80.2	0.0
2025-01-22 19:15:54.490634	268.1	35.0	-80.1	0.0
2025-01-22 19:15:55.617563	268.5	35.0	-80.2	0.0
2025-01-22 19:15:56.743313	269.0	35.0	-80.4	0.0
2025-01-22 19:15:57.869318	269.4	34.9	-80.4	0.0
2025-01-22 19:15:58.995614	269.9	34.9	-80.4	0.0
2025-01-22 19:16:00.123796	270.3	34.9	-80.2	0.0
2025-01-22 19:16:01.251439	270.7	34.9	-79.8	0.0
2025-01-22 19:16:02.378696	271.2	34.9	-80.1	0.0
2025-01-22 19:16:03.507405	271.6	34.8	-80.0	0.0
2025-01-22 19:16:04.633593	272.1	34.8	-79.6	0.0
2025-01-22 19:16:05.758925	272.5	34.8	-79.7	0.0
2025-01-22 19:16:06.888713	272.9	34.7	-80.2	0.0
2025-01-22 19:16:08.015029	273.4	34.7	-80.1	0.0
2025-01-22 19:16:09.140699	273.8	34.6	-79.8	0.0
2025-01-22 19:16:10.268454	274.2	34.6	-79.9	0.0
2025-01-22 19:16:11.395945	274.7	34.6	-79.9	0.0
2025-01-22 19:16:12.520920	275.1	34.5	-80.0	0.0
2025-01-22 19:16:13.647771	275.5	34.5	-79.7	0.0
2025-01-22 19:16:14.773069	276.0	34.4	-79.9	0.0
2025-01-22 19:16:15.899698	276.4	34.4	-79.2	0.0
2025-01-22 19:16:17.025962	276.8	34.3	-79.5	0.0
2025-01-22 19:16:18.152331	277.3	34.3	-79.7	0.0
2025-01-22 19:16:19.280117	277.7	34.2	-79.1	0.0
2025-01-22 19:16:20.405932	278.1	34.2	-78.6	0.0
2025-01-22 19:16:21.531761	278.5	34.1	-79.4	0.0
2025-01-22 19:16:22.658478	278.9	34.1	-79.8	0.0
2025-01-22 19:16:23.787335	279.4	34.0	-79.9	0.0
2025-01-22 19:16:24.914872	279.8	33.9	-79.6	0.0
2025-01-22 19:16:26.041388	280.2	33.9	-78.7	0.0
2025-01-22 19:16:27.168536	280.6	33.8	-79.1	0.0
2025-01-22 19:16:28.296328	281.0	33.7	-79.3	0.0
2025-01-22 19:16:29.422490	281.4	33.7	-78.8	0.0
2025-01-22 19:16:30.549279	281.8	33.6	-79.7	0.0
2025-01-22 19:16:31.675944	282.2	33.5	-79.9	0.0
2025-01-22 19:16:32.800692	282.7	33.5	-80.2	0.0
2025-01-22 19:16:33.927110	283.1	33.4	-80.1	0.0
2025-01-22 19:16:35.052323	283.5	33.3	-80.2	0.0
2025-01-22 19:16:36.178077	283.9	33.2	-80.0	0.0
2025-01-22 19:16:37.305491	284.3	33.2	-79.4	0.0
2025-01-22 19:16:38.431470	284.7	33.1	-79.8	0.0
2025-01-22 19:16:39.558353	285.0	33.0	-80.0	0.0
2025-01-22 19:16:40.684046	285.4	32.9	-79.0	0.0
2025-01-22 19:16:41.810015	285.8	32.9	-79.2	0.0
2025-01-22 19:16:42.937355	286.2	32.8	-78.0	0.0
2025-01-22 19:16:44.064671	286.6	32.7	-80.5	0.0
2025-01-22 19:16:45.190397	287.0	32.6	-80.0	0.0
2025-01-22 19:16:46.315260	287.4	32.5	-79.9	0.0
2025-01-22 19:16:47.440585	287.7	32.4	-79.9	0.0
2025-01-22 19:16:48.569110	288.1	32.3	-79.2	0.0
2025-01-22 19:16:49.695715	288.5	32.2	-79.9	0.0
2025-01-22 19:16:50.820823	288.9	32.2	-79.6	0.0
2025-01-22 19:16:51.945131	289.2	32.1	-78.9	0.0
2025-01-22 19:16:53.072353	289.6	32.0	-79.4	0.0
2025-01-22 19:16:54.198220	290.0	31.9	-79.7	0.0
2025-01-22 19:16:55.323364	290.4	31.8	-78.8	0.0
2025-01-22 19:16:56.450517	290.7	31.7	-79.7	0.0
2025-01-22 19:16:57.576806	291.1	31.6	-79.4	0.0
2025-01-22 19:16:58.703643	291.4	31.5	-78.3	0.0
2025-01-22 19:16:59.829858	291.8	31.4	-79.1	0.0
2025-01-22 19:17:00.956246	292.1	31.3	-77.5	0.0
2025-01-22 19:17:02.082240	292.5	31.2	-79.5	0.0
2025-01-22 19:17:03.209598	292.9	31.1	-79.6	0.0
2025-01-22 19:17:04.336050	293.2	31.0	-79.3	0.0
2025-01-22 19:17:05.462697	293.5	30.9	-79.2	0.0
2025-01-22 19:17:06.589171	293.9	30.8	-79.5	0.0
2025-01-22 19:17:07.715067	294.2	30.7	-79.2	0.0
2025-01-22 19:17:08.842857	294.6	30.6	-78.4	0.0
2025-01-22 19:17:09.970401	294.9	30.5	-76.9	0.0
2025-01-22 19:17:11.096218	295.2	30.4	-79.2	0.0
2025-01-22 19:17:12.223812	295.6	30.3	-79.1	0.0
2025-01-22 19:17:13.349750	295.9	30.1	-79.1	0.0
2025-01-22 19:17:14.478699	296.2	30.0	-76.4	0.0
2025-01-22 19:17:15.603581	296.6	29.9	-78.5	0.0
2025-01-22 19:17:16.731923	296.9	29.8	-77.8	0.0
2025-01-22 19:17:17.857687	297.2	29.7	-77.8	0.0
2025-01-22 19:17:18.984752	297.5	29.6	-78.3	0.0
2025-01-22 19:17:20.112979	297.9	29.5	-77.6	0.0
2025-01-22 19:17:21.239227	298.2	29.4	-77.0	0.0
2025-01-22 19:17:22.365916	298.5	29.3	-77.1	0.0
2025-01-22 19:17:23.493449	298.8	29.2	-78.1	0.0
2025-01-22 19:17:24.621337	299.1	29.0	-78.0	0.0
2025-01-22 19:17:25.747533	299.4	28.9	-77.8	0.0
2025-01-22 19:17:26.875255	299.7	28.8	-77.2	0.0
2025-01-22 19:17:28.001829	300.0	28.7	-78.0	0.0
2025-01-22 19:17:29.126907	300.3	28.6	-77.4	0.0
2025-01-22 19:17:30.252743	300.6	28.5	-77.9	0.0
2025-01-22 19:17:31.379073	300.9	28.4	-77.5	0.0
2025-01-22 19:17:32.506914	301.2	28.2	-76.3	0.0
2025-01-22 19:17:33.635631	301.5	28.1	-77.6	0.0
2025-01-22 19:17:34.762179	301.8	28.0	-76.2	0.0
2025-01-22 19:17:35.888660	302.1	27.9	-77.4	0.0
2025-01-22 19:17:37.013699	302.4	27.8	-77.1	0.0
2025-01-22 19:17:38.139501	302.7	27.7	-77.5	0.0
2025-01-22 19:17:39.266858	302.9	27.5	-77.2	0.0
2025-01-22 19:17:40.392580	303.2	27.4	-77.6	0.0
2025-01-22 19:17:41.518929	303.5	27.3	-76.0	0.0
2025-01-22 19:17:42.645142	303.8	27.2	-76.9	0.0
2025-01-22 19:17:43.771792	304.0	27.1	-76.8	0.0
2025-01-22 19:17:44.899150	304.3	26.9	-76.4	0.0
2025-01-22 19:17:46.025640	304.6	26.8	-77.1	0.0
2025-01-22 19:17:47.151960	304.9	26.7	-77.3	0.0
2025-01-22 19:17:48.277092	305.1	26.6	-75.7	0.0
2025-01-22 19:17:49.404063	305.4	26.5	-75.4	0.0
2025-01-22 19:17:50.529942	305.7	26.4	-76.9	0.0
2025-01-22 19:17:51.656800	305.9	26.2	-77.0	0.0
2025-01-22 19:17:52.782207	306.2	26.1	-77.2	0.0
2025-01-22 19:17:53.908594	306.4	26.0	-77.3	0.0
2025-01-22 19:17:55.036330	306.7	25.9	-76.4	0.0
2025-01-22 19:17:56.163631	306.9	25.8	-76.7	0.0
2025-01-22 19:17:57.291675	307.2	25.6	-77.1	0.0
2025-01-22 19:17:58.419534	307.4	25.5	-75.8	0.0
2025-01-22 19:17:59.545237	307.7	25.4	-76.9	0.0
2025-01-22 19:18:00.673183	307.9	25.3	-77.4	0.0
2025-01-22 19:18:01.801551	308.2	25.2	-76.5	0.0
2025-01-22 19:18:02.929918	308.4	25.0	-75.9	0.0
2025-01-22 19:18:04.055203	308.7	24.9	-77.9	0.0
2025-01-22 19:18:05.179902	308.9	24.8	-78.3	0.0
2025-01-22 19:18:06.305290	309.1	24.7	-78.6	0.0
2025-01-22 19:18:07.430821	309.4	24.6	-78.7	0.0
2025-01-22 19:18:08.557497	309.6	24.4	-78.7	0.0
2025-01-22 19:18:09.683258	309.8	24.3	-78.1	0.0
2025-01-22 19:18:10.809349	310.1	24.2	-77.9	0.0
2025-01-22 19:18:11.936536	310.3	24.1	-77.3	0.0
2025-01-22 19:18:13.062689	310.5	24.0	-77.7	0.0
2025-01-22 19:18:14.189889	310.7	23.9	-77.4	0.0
2025-01-22 19:18:15.316291	311.0	23.7	-77.5	0.0
2025-01-22 19:18:16.441327	311.2	23.6	-75.7	0.0
2025-01-22 19:18:17.568915	311.4	23.5	-77.2	0.0
2025-01-22 19:18:18.697575	311.6	23.4	-77.9	0.0
2025-01-22 19:18:19.825519	311.8	23.3	-75.9	0.0
2025-01-22 19:18:20.951825	312.1	23.1	-74.1	0.0
2025-01-22 19:18:22.077430	312.3	23.0	-75.9	0.0
2025-01-22 19:18:23.204389	312.5	22.9	-78.2	0.0
2025-01-22 19:18:24.330356	312.7	22.8	-76.4	0.0
2025-01-22 19:18:25.458297	312.9	22.7	-76.1	0.0
2025-01-22 19:18:26.586159	313.1	22.6	-76.5	0.0
2025-01-22 19:18:27.713042	313.3	22.4	-74.2	0.0
2025-01-22 19:18:28.839178	313.5	22.3	-74.6	0.0
2025-01-22 19:18:29.966650	313.7	22.2	-77.2	0.0
2025-01-22 19:18:31.091609	313.9	22.1	-75.7	0.0
2025-01-22 19:18:32.216627	314.1	22.0	-76.8	0.0
2025-01-22 19:18:33.341655	314.3	21.9	-76.0	0.0
2025-01-22 19:18:34.468357	314.5	21.7	-75.7	0.0
2025-01-22 19:18:35.593991	314.7	21.6	-75.9	0.0
2025-01-22 19:18:36.720355	314.9	21.5	-76.4	0.0
2025-01-22 19:18:37.845034	315.1	21.4	-76.6	0.0
2025-01-22 19:18:38.973072	315.3	21.3	-76.1	0.0
2025-01-22 19:18:40.099590	315.5	21.2	-76.8	0.0
2025-01-22 19:18:41.226561	315.7	21.0	-75.3	0.0
2025-01-22 19:18:42.353699	315.9	20.9	-75.8	0.0
2025-01-22 19:18:43.480077	316.0	20.8	-73.9	0.0
2025-01-22 19:18:44.604881	316.2	20.7	-75.3	0.0
2025-01-22 19:18:45.730160	316.4	20.6	-71.5	0.0
2025-01-22 19:18:46.855914	316.6	20.5	-75.0	0.0
2025-01-22 19:18:47.983258	316.8	20.4	-77.4	0.0
2025-01-22 19:18:49.107233	317.0	20.3	-76.0	0.0
2025-01-22 19:18:50.233761	317.1	20.1	-73.1	0.0
2025-01-22 19:18:51.359336	317.3	20.0	-76.1	0.0
2025-01-22 19:18:52.487001	317.5	19.9	-75.4	0.0
2025-01-22 19:18:53.613493	317.7	19.8	-75.5	0.0
2025-01-22 19:18:54.739028	317.8	19.7	-74.2	0.0
2025-01-22 19:18:55.866593	318.0	19.6	-75.5	0.0
2025-01-22 19:18:56.992303	318.2	19.5	-75.9	0.0
2025-01-22 19:18:58.120005	318.3	19.4	-73.8	0.0
2025-01-22 19:18:59.246493	318.5	19.2	-75.2	0.0
2025-01-22 19:19:00.371491	318.7	19.1	-74.1	0.0
2025-01-22 19:19:01.496998	318.8	19.0	-74.6	0.0
2025-01-22 19:19:02.624425	319.0	18.9	-74.8	0.0
2025-01-22 19:19:03.750809	319.2	18.8	-75.3	0.0
2025-01-22 19:19:04.876950	319.3	18.7	-75.0	0.0
2025-01-22 19:19:06.003135	319.5	18.6	-75.4	0.0
2025-01-22 19:19:07.130155	319.7	18.5	-74.5	0.0
2025-01-22 19:19:08.257057	319.8	18.4	-71.8	0.0
2025-01-22 19:19:09.381390	320.0	18.3	-76.1	0.0
2025-01-22 19:19:10.508970	320.1	18.2	-76.1	0.0
2025-01-22 19:19:11.636298	320.3	18.0	-73.7	0.0
2025-01-22 19:19:12.762257	320.4	17.9	-74.4	0.0
2025-01-22 19:19:13.887181	320.6	17.8	-73.3	0.0
2025-01-22 19:19:15.012262	320.7	17.7	-74.8	0.0
2025-01-22 19:19:16.139695	320.9	17.6	-74.0	0.0
2025-01-22 19:19:17.264398	321.0	17.5	-71.2	0.0
2025-01-22 19:19:18.389442	321.2	17.4	-74.5	0.0
2025-01-22 19:19:19.515771	321.3	17.3	-74.4	0.0
2025-01-22 19:19:20.642968	321.5	17.2	-75.8	0.0
2025-01-22 19:19:21.768970	321.6	17.1	-73.4	0.0
2025-01-22 19:19:22.896177	321.8	17.0	-70.2	0.0
2025-01-22 19:19:24.021769	321.9	16.9	-72.5	0.0
2025-01-22 19:19:25.147786	322.1	16.8	-75.3	0.0
2025-01-22 19:19:26.275205	322.2	16.7	-75.2	0.0
2025-01-22 19:19:27.401387	322.4	16.6	-75.2	0.0
2025-01-22 19:19:28.528404	322.5	16.5	-76.0	0.0
2025-01-22 19:19:29.653941	322.6	16.4	-75.2	0.0
2025-01-22 19:19:30.780806	322.8	16.2	-73.1	0.0
2025-01-22 19:19:31.907027	322.9	16.1	-77.6	0.0
2025-01-22 19:19:33.032775	323.1	16.0	-77.7	0.0
2025-01-22 19:19:34.159010	323.2	15.9	-76.7	0.0
2025-01-22 19:19:35.284768	323.3	15.8	-75.9	0.0
2025-01-22 19:19:36.410733	323.5	15.7	-76.6	0.0
2025-01-22 19:19:37.536493	323.6	15.6	-75.1	0.0
2025-01-22 19:19:38.665185	323.7	15.5	-75.1	0.0
2025-01-22 19:19:39.790881	323.9	15.4	-74.7	0.0
2025-01-22 19:19:40.915478	324.0	15.3	-74.2	0.0
2025-01-22 19:19:42.042956	324.1	15.2	-73.1	0.0
2025-01-22 19:19:43.169347	324.2	15.1	-73.8	0.0
2025-01-22 19:19:44.296648	324.4	15.0	-76.0	0.0
2025-01-22 19:19:45.422227	324.5	14.9	-76.5	0.0
2025-01-22 19:19:46.549882	324.6	14.8	-71.5	0.0
2025-01-22 19:19:47.676344	324.8	14.7	-75.7	0.0
2025-01-22 19:19:48.803309	324.9	14.6	-76.5	0.0
2025-01-22 19:19:49.929763	325.0	14.5	-75.8	0.0
2025-01-22 19:19:51.056806	325.1	14.4	-70.2	0.0
2025-01-22 19:19:52.184032	325.3	14.3	-74.8	0.0
2025-01-22 19:19:53.311078	325.4	14.2	-72.8	0.0
2025-01-22 19:19:54.438074	325.5	14.1	-73.3	0.0
2025-01-22 19:19:55.566493	325.6	14.0	-76.1	0.0
2025-01-22 19:19:56.689686	325.7	14.0	-76.3	0.0
2025-01-22 19:19:57.817518	325.9	13.9	-76.6	0.0
2025-01-22 19:19:58.942089	326.0	13.8	-71.9	0.0
2025-01-22 19:20:00.071628	326.1	13.7	-71.6	0.0
2025-01-22 19:20:01.200949	326.2	13.6	-75.1	0.0
2025-01-22 19:20:02.327240	326.3	13.5	-75.7	0.0
2025-01-22 19:20:03.454374	326.4	13.4	-73.1	0.0
2025-01-22 19:20:04.580046	326.6	13.3	-75.8	0.0
2025-01-22 19:20:05.706532	326.7	13.2	-73.5	0.0
2025-01-22 19:20:06.832691	326.8	13.1	-73.7	0.0
2025-01-22 19:20:07.958352	326.9	13.0	-75.0	0.0
2025-01-22 19:20:09.085461	327.0	12.9	-72.1	0.0
2025-01-22 19:20:10.211103	327.1	12.8	-73.8	0.0
2025-01-22 19:20:11.337381	327.2	12.7	-74.2	0.0
2025-01-22 19:20:12.466706	327.3	12.6	-74.5	0.0
2025-01-22 19:20:13.593005	327.5	12.5	-73.5	0.0
2025-01-22 19:20:14.720162	327.6	12.4	-72.8	0.0
2025-01-22 19:20:15.846943	327.7	12.3	-75.3	0.0
2025-01-22 19:20:16.973527	327.8	12.3	-73.9	0.0
2025-01-22 19:20:18.099721	327.9	12.2	-71.9	0.0
2025-01-22 19:20:19.226326	328.0	12.1	-72.6	0.0
2025-01-22 19:20:20.353785	328.1	12.0	-74.2	0.0
2025-01-22 19:20:21.479479	328.2	11.9	-72.3	0.0
2025-01-22 19:20:22.606257	328.3	11.8	-69.7	0.0
2025-01-22 19:20:23.730682	328.4	11.7	-72.8	0.0
2025-01-22 19:20:24.858216	328.5	11.6	-72.1	0.0
2025-01-22 19:20:25.985700	328.6	11.5	-72.2	0.0
2025-01-22 19:20:27.113419	328.7	11.4	-71.9	0.0
2025-01-22 19:20:28.239548	328.8	11.3	-71.7	0.0
2025-01-22 19:20:29.366674	328.9	11.3	-70.4	0.0
2025-01-22 19:20:30.493686	329.0	11.2	-71.0	0.0
2025-01-22 19:20:31.620198	329.1	11.1	-68.6	0.0
2025-01-22 19:20:32.748117	329.2	11.0	-70.9	0.0
2025-01-22 19:20:33.873558	329.3	10.9	-73.3	0.0
2025-01-22 19:20:35.001883	329.4	10.8	-74.3	0.0
2025-01-22 19:20:36.126038	329.5	10.7	-77.2	0.0
2025-01-22 19:20:37.252765	329.6	10.6	-78.2	0.0
2025-01-22 19:20:38.378958	329.7	10.6	-78.9	0.0
2025-01-22 19:20:39.506155	329.8	10.5	-79.9	0.0
2025-01-22 19:20:40.633113	329.9	10.4	-81.3	0.0
2025-01-22 19:20:41.759277	330.0	10.3	-81.3	0.0
2025-01-22 19:20:42.884663	330.1	10.2	-80.9	0.0
2025-01-22 19:20:44.013038	330.2	10.1	-80.8	0.0
2025-01-22 19:20:45.139658	330.3	10.0	-81.1	0.0
2025-01-22 19:20:46.267871	330.4	9.9	-80.7	0.0
2025-01-22 19:20:47.393863	330.5	9.9	-81.2	0.0
2025-01-22 19:20:48.520105	330.5	9.8	-80.8	0.0
2025-01-22 19:20:49.647647	330.6	9.7	-81.1	0.0
#Closed at: 2025-01-22 19:10:48.665203