passes_logs/2025/01/22/planumMaritime01/planumMaritime01__20250122_193326_NOAA_18_rec.log

#Pass ID: 20250122_193326_NOAA 18
#Satellite: NOAA 18
#Configuration: NOAA 18
#Start time: 2025-01-22 19:33:31.014586

#LorettStation: 1.0.0 05.05.2024
#Station: planumMaritime01
#Location: 37.49445 lon 55.92918 lat
#TLE: 1 28654U 05018A   25022.24143052  .00000458  00000+0  26647-3 0  9995
#TLE: 2 28654  98.8556 103.2235 0014680 159.1096 201.0679 14.13493787 14203

#Time	Az	El	Level	SNR
2025-01-22 19:33:33.189184	170.5	10.2	-74.3	0.0
2025-01-22 19:33:34.316735	170.6	10.3	-74.0	0.0
2025-01-22 19:33:35.442628	170.6	10.4	-74.0	0.0
2025-01-22 19:33:36.566459	170.6	10.5	-74.3	0.0
2025-01-22 19:33:37.695808	170.6	10.6	-73.5	0.0
2025-01-22 19:33:38.821396	170.7	10.7	-73.9	0.0
2025-01-22 19:33:39.946537	170.7	10.8	-74.2	0.0
2025-01-22 19:33:41.074101	170.7	10.9	-73.8	0.0
2025-01-22 19:33:42.200641	170.8	11.0	-74.3	0.0
2025-01-22 19:33:43.328098	170.8	11.1	-74.3	0.0
2025-01-22 19:33:44.453862	170.8	11.2	-73.9	0.0
2025-01-22 19:33:45.580594	170.8	11.3	-73.9	0.0
2025-01-22 19:33:46.706943	170.9	11.4	-73.7	0.0
2025-01-22 19:33:47.836126	170.9	11.5	-73.6	0.0
2025-01-22 19:33:48.962251	170.9	11.6	-74.6	0.0
2025-01-22 19:33:50.087530	171.0	11.7	-74.5	0.0
2025-01-22 19:33:51.213524	171.0	11.8	-74.5	0.0
2025-01-22 19:33:52.340137	171.0	11.9	-74.6	0.0
2025-01-22 19:33:53.468668	171.0	12.0	-74.2	0.0
2025-01-22 19:33:54.596414	171.1	12.1	-74.8	0.0
2025-01-22 19:33:55.722199	171.1	12.2	-75.0	0.0
2025-01-22 19:33:56.848159	171.1	12.3	-75.0	0.0
2025-01-22 19:33:57.975619	171.2	12.4	-74.1	0.0
2025-01-22 19:33:59.104078	171.2	12.5	-74.3	0.0
2025-01-22 19:34:00.231255	171.2	12.6	-74.5	0.0
2025-01-22 19:34:01.357663	171.3	12.7	-74.0	0.0
2025-01-22 19:34:02.482238	171.3	12.8	-74.5	0.0
2025-01-22 19:34:03.610532	171.3	13.0	-74.9	0.0
2025-01-22 19:34:04.734440	171.3	13.1	-74.4	0.0
2025-01-22 19:34:05.861138	171.4	13.2	-74.2	0.0
2025-01-22 19:34:06.987996	171.4	13.3	-74.6	0.0
2025-01-22 19:34:08.115328	171.4	13.4	-74.7	0.0
2025-01-22 19:34:09.243423	171.5	13.5	-74.5	0.0
2025-01-22 19:34:10.369574	171.5	13.6	-74.5	0.0
2025-01-22 19:34:11.495136	171.5	13.7	-74.3	0.0
2025-01-22 19:34:12.620262	171.6	13.8	-74.6	0.0
2025-01-22 19:34:13.745332	171.6	13.9	-74.4	0.0
2025-01-22 19:34:14.870730	171.6	14.1	-74.4	0.0
2025-01-22 19:34:15.997150	171.7	14.2	-74.2	0.0
2025-01-22 19:34:17.122895	171.7	14.3	-74.3	0.0
2025-01-22 19:34:18.247638	171.7	14.4	-74.3	0.0
2025-01-22 19:34:19.374496	171.8	14.5	-74.4	0.0
2025-01-22 19:34:20.501285	171.8	14.6	-74.4	0.0
2025-01-22 19:34:21.629039	171.8	14.7	-74.5	0.0
2025-01-22 19:34:22.757122	171.9	14.9	-74.8	0.0
2025-01-22 19:34:23.883197	171.9	15.0	-74.0	0.0
2025-01-22 19:34:25.008474	171.9	15.1	-74.7	0.0
2025-01-22 19:34:26.134913	172.0	15.2	-75.0	0.0
2025-01-22 19:34:27.262500	172.0	15.3	-74.9	0.0
2025-01-22 19:34:28.388998	172.1	15.5	-74.7	0.0
2025-01-22 19:34:29.516486	172.1	15.6	-74.5	0.0
2025-01-22 19:34:30.642053	172.1	15.7	-74.3	0.0
2025-01-22 19:34:31.769034	172.2	15.8	-73.9	0.0
2025-01-22 19:34:32.897041	172.2	15.9	-74.2	0.0
2025-01-22 19:34:34.023303	172.2	16.1	-75.0	0.0
2025-01-22 19:34:35.151376	172.3	16.2	-74.5	0.0
2025-01-22 19:34:36.276843	172.3	16.3	-74.3	0.0
2025-01-22 19:34:37.404526	172.4	16.4	-73.9	0.0
2025-01-22 19:34:38.532483	172.4	16.6	-73.9	0.0
2025-01-22 19:34:39.658785	172.4	16.7	-74.5	0.0
2025-01-22 19:34:40.785329	172.5	16.8	-73.9	0.0
2025-01-22 19:34:41.912048	172.5	16.9	-74.7	0.0
2025-01-22 19:34:43.037484	172.5	17.1	-74.2	0.0
2025-01-22 19:34:44.163977	172.6	17.2	-74.5	0.0
2025-01-22 19:34:45.289614	172.6	17.3	-74.2	0.0
2025-01-22 19:34:46.415887	172.7	17.4	-74.5	0.0
2025-01-22 19:34:47.542056	172.7	17.6	-74.0	0.0
2025-01-22 19:34:48.668184	172.8	17.7	-74.1	0.0
2025-01-22 19:34:49.794119	172.8	17.8	-74.7	0.0
2025-01-22 19:34:50.919588	172.8	18.0	-73.6	0.0
2025-01-22 19:34:52.045371	172.9	18.1	-74.2	0.0
2025-01-22 19:34:53.172679	172.9	18.2	-74.6	0.0
2025-01-22 19:34:54.298593	173.0	18.4	-74.2	0.0
2025-01-22 19:34:55.424730	173.0	18.5	-73.5	0.0
2025-01-22 19:34:56.551145	173.1	18.6	-74.4	0.0
2025-01-22 19:34:57.675555	173.1	18.8	-74.3	0.0
2025-01-22 19:34:58.800653	173.1	18.9	-74.4	0.0
2025-01-22 19:34:59.925859	173.2	19.0	-74.0	0.0
2025-01-22 19:35:01.053385	173.2	19.2	-74.6	0.0
2025-01-22 19:35:02.180441	173.3	19.3	-74.5	0.0
2025-01-22 19:35:03.306434	173.3	19.5	-74.2	0.0
2025-01-22 19:35:04.432552	173.4	19.6	-73.9	0.0
2025-01-22 19:35:05.558194	173.4	19.7	-73.7	0.0
2025-01-22 19:35:06.685040	173.5	19.9	-73.5	0.0
2025-01-22 19:35:07.810083	173.5	20.0	-73.6	0.0
2025-01-22 19:35:08.937333	173.6	20.2	-73.3	0.0
2025-01-22 19:35:10.062249	173.6	20.3	-74.2	0.0
2025-01-22 19:35:11.186749	173.7	20.5	-74.1	0.0
2025-01-22 19:35:12.313170	173.7	20.6	-73.3	0.0
2025-01-22 19:35:13.438696	173.8	20.8	-73.7	0.0
2025-01-22 19:35:14.566295	173.8	20.9	-74.1	0.0
2025-01-22 19:35:15.692703	173.9	21.0	-74.2	0.0
2025-01-22 19:35:16.819720	173.9	21.2	-73.6	0.0
2025-01-22 19:35:17.945196	174.0	21.3	-74.2	0.0
2025-01-22 19:35:19.071797	174.0	21.5	-73.7	0.0
2025-01-22 19:35:20.198106	174.1	21.7	-74.0	0.0
2025-01-22 19:35:21.324629	174.1	21.8	-73.9	0.0
2025-01-22 19:35:22.451065	174.2	22.0	-74.5	0.0
2025-01-22 19:35:23.577050	174.2	22.1	-74.5	0.0
2025-01-22 19:35:24.703055	174.3	22.3	-74.2	0.0
2025-01-22 19:35:25.829042	174.3	22.4	-73.6	0.0
2025-01-22 19:35:26.956569	174.4	22.6	-74.2	0.0
2025-01-22 19:35:28.083082	174.4	22.7	-74.2	0.0
2025-01-22 19:35:29.210898	174.5	22.9	-73.9	0.0
2025-01-22 19:35:30.336922	174.6	23.1	-74.1	0.0
2025-01-22 19:35:31.463105	174.6	23.2	-73.3	0.0
2025-01-22 19:35:32.588779	174.7	23.4	-73.2	0.0
2025-01-22 19:35:33.716121	174.7	23.5	-73.7	0.0
2025-01-22 19:35:34.842504	174.8	23.7	-73.9	0.0
2025-01-22 19:35:35.967698	174.8	23.9	-74.1	0.0
2025-01-22 19:35:37.093356	174.9	24.0	-73.8	0.0
2025-01-22 19:35:38.221972	175.0	24.2	-73.7	0.0
2025-01-22 19:35:39.349120	175.0	24.4	-73.5	0.0
2025-01-22 19:35:40.475676	175.1	24.5	-73.5	0.0
2025-01-22 19:35:41.600911	175.2	24.7	-73.7	0.0
2025-01-22 19:35:42.728369	175.2	24.9	-74.0	0.0
2025-01-22 19:35:43.855821	175.3	25.1	-73.7	0.0
2025-01-22 19:35:44.981075	175.3	25.2	-73.4	0.0
2025-01-22 19:35:46.107750	175.4	25.4	-73.6	0.0
2025-01-22 19:35:47.234372	175.5	25.6	-74.4	0.0
2025-01-22 19:35:48.362345	175.5	25.8	-74.0	0.0
2025-01-22 19:35:49.487585	175.6	25.9	-74.5	0.0
2025-01-22 19:35:50.614497	175.7	26.1	-74.0	0.0
2025-01-22 19:35:51.739637	175.7	26.3	-75.1	0.0
2025-01-22 19:35:52.867124	175.8	26.5	-74.9	0.0
2025-01-22 19:35:53.993870	175.9	26.7	-74.8	0.0
2025-01-22 19:35:55.120323	176.0	26.9	-74.6	0.0
2025-01-22 19:35:56.246567	176.0	27.0	-75.1	0.0
2025-01-22 19:35:57.371302	176.1	27.2	-75.2	0.0
2025-01-22 19:35:58.497401	176.2	27.4	-74.8	0.0
2025-01-22 19:35:59.624439	176.3	27.6	-75.1	0.0
2025-01-22 19:36:00.749065	176.3	27.8	-75.4	0.0
2025-01-22 19:36:01.875912	176.4	28.0	-75.0	0.0
2025-01-22 19:36:03.003178	176.5	28.2	-75.3	0.0
2025-01-22 19:36:04.129946	176.6	28.4	-75.4	0.0
2025-01-22 19:36:05.255205	176.6	28.6	-74.7	0.0
2025-01-22 19:36:06.381161	176.7	28.8	-75.0	0.0
2025-01-22 19:36:07.509624	176.8	29.0	-75.5	0.0
2025-01-22 19:36:08.635878	176.9	29.2	-75.9	0.0
2025-01-22 19:36:09.761893	177.0	29.4	-76.0	0.0
2025-01-22 19:36:10.887263	177.0	29.6	-75.7	0.0
2025-01-22 19:36:12.012474	177.1	29.8	-76.1	0.0
2025-01-22 19:36:13.139373	177.2	30.0	-76.2	0.0
2025-01-22 19:36:14.266395	177.3	30.2	-76.5	0.0
2025-01-22 19:36:15.391687	177.4	30.4	-77.2	0.0
2025-01-22 19:36:16.519915	177.5	30.6	-76.9	0.0
2025-01-22 19:36:17.645201	177.6	30.8	-76.5	0.0
2025-01-22 19:36:18.771963	177.7	31.0	-76.5	0.0
2025-01-22 19:36:19.898349	177.7	31.2	-77.3	0.0
2025-01-22 19:36:21.024388	177.8	31.4	-76.9	0.0
2025-01-22 19:36:22.150388	177.9	31.7	-77.1	0.0
2025-01-22 19:36:23.277793	178.0	31.9	-77.0	0.0
2025-01-22 19:36:24.405676	178.1	32.1	-77.5	0.0
2025-01-22 19:36:25.532043	178.2	32.3	-77.3	0.0
2025-01-22 19:36:26.657994	178.3	32.5	-77.4	0.0
2025-01-22 19:36:27.785918	178.4	32.8	-77.3	0.0
2025-01-22 19:36:28.912391	178.5	33.0	-77.1	0.0
2025-01-22 19:36:30.039654	178.6	33.2	-77.5	0.0
2025-01-22 19:36:31.168271	178.7	33.4	-77.3	0.0
2025-01-22 19:36:32.294058	178.8	33.7	-77.4	0.0
2025-01-22 19:36:33.418651	179.0	33.9	-77.6	0.0
2025-01-22 19:36:34.545993	179.1	34.1	-78.0	0.0
2025-01-22 19:36:35.671968	179.2	34.4	-77.8	0.0
2025-01-22 19:36:36.799335	179.3	34.6	-78.2	0.0
2025-01-22 19:36:37.925166	179.4	34.8	-78.3	0.0
2025-01-22 19:36:39.051202	179.5	35.1	-78.0	0.0
2025-01-22 19:36:40.177343	179.6	35.3	-78.6	0.0
2025-01-22 19:36:41.304545	179.8	35.6	-78.5	0.0
2025-01-22 19:36:42.431603	179.9	35.8	-78.7	0.0
2025-01-22 19:36:43.560222	180.0	36.1	-78.5	0.0
2025-01-22 19:36:44.687097	180.1	36.3	-78.3	0.0
2025-01-22 19:36:45.813788	180.2	36.6	-78.9	0.0
2025-01-22 19:36:46.939122	180.4	36.8	-78.5	0.0
2025-01-22 19:36:48.066845	180.5	37.1	-78.9	0.0
2025-01-22 19:36:49.192939	180.6	37.3	-79.3	0.0
2025-01-22 19:36:50.321572	180.8	37.6	-78.8	0.0
2025-01-22 19:36:51.448998	180.9	37.8	-78.9	0.0
2025-01-22 19:36:52.575565	181.0	38.1	-79.4	0.0
2025-01-22 19:36:53.701242	181.2	38.4	-79.2	0.0
2025-01-22 19:36:54.828569	181.3	38.6	-79.4	0.0
2025-01-22 19:36:55.954789	181.5	38.9	-79.7	0.0
2025-01-22 19:36:57.080532	181.6	39.2	-79.3	0.0
2025-01-22 19:36:58.206662	181.8	39.4	-79.7	0.0
2025-01-22 19:36:59.333360	181.9	39.7	-79.5	0.0
2025-01-22 19:37:00.458869	182.1	40.0	-79.5	0.0
2025-01-22 19:37:01.584466	182.2	40.3	-79.1	0.0
2025-01-22 19:37:02.710053	182.4	40.5	-79.2	0.0
2025-01-22 19:37:03.836367	182.5	40.8	-79.6	0.0
2025-01-22 19:37:04.963289	182.7	41.1	-79.3	0.0
2025-01-22 19:37:06.089792	182.9	41.4	-79.3	0.0
2025-01-22 19:37:07.215275	183.1	41.7	-79.7	0.0
2025-01-22 19:37:08.341065	183.2	42.0	-79.8	0.0
2025-01-22 19:37:09.470266	183.4	42.2	-79.2	0.0
2025-01-22 19:37:10.597596	183.6	42.5	-79.6	0.0
2025-01-22 19:37:11.724291	183.8	42.8	-79.4	0.5
2025-01-22 19:37:12.850187	184.0	43.1	-79.2	0.0
2025-01-22 19:37:13.974391	184.1	43.4	-79.6	0.4
2025-01-22 19:37:15.101525	184.3	43.7	-79.6	1.7
2025-01-22 19:37:16.227796	184.5	44.0	-79.4	1.1
2025-01-22 19:37:17.355474	184.7	44.3	-79.5	2.8
2025-01-22 19:37:18.480207	184.9	44.6	-79.4	2.7
2025-01-22 19:37:19.606774	185.1	44.9	-79.6	3.7
2025-01-22 19:37:20.732899	185.4	45.2	-79.3	4.0
2025-01-22 19:37:21.859700	185.6	45.6	-79.3	4.3
2025-01-22 19:37:22.986597	185.8	45.9	-79.6	5.1
2025-01-22 19:37:24.113008	186.0	46.2	-79.4	4.8
2025-01-22 19:37:25.240321	186.2	46.5	-79.0	5.6
2025-01-22 19:37:26.366587	186.5	46.8	-79.0	5.8
2025-01-22 19:37:27.494528	186.7	47.1	-79.0	5.1
2025-01-22 19:37:28.621533	187.0	47.5	-79.1	5.4
2025-01-22 19:37:29.746741	187.2	47.8	-79.3	6.6
2025-01-22 19:37:30.872468	187.5	48.1	-79.0	5.9
2025-01-22 19:37:31.998665	187.7	48.5	-79.1	6.9
2025-01-22 19:37:33.125136	188.0	48.8	-78.8	7.4
2025-01-22 19:37:34.251937	188.3	49.1	-78.9	8.0
2025-01-22 19:37:35.379268	188.5	49.4	-78.7	7.5
2025-01-22 19:37:36.509454	188.8	49.8	-79.0	8.4
2025-01-22 19:37:37.635767	189.1	50.1	-78.8	8.1
2025-01-22 19:37:38.763335	189.4	50.5	-78.7	8.5
2025-01-22 19:37:39.890216	189.7	50.8	-78.8	8.9
2025-01-22 19:37:41.017155	190.0	51.1	-78.6	9.7
2025-01-22 19:37:42.146386	190.3	51.5	-78.4	8.8
2025-01-22 19:37:43.274002	190.6	51.8	-78.5	9.1
2025-01-22 19:37:44.403355	191.0	52.2	-78.1	9.0
2025-01-22 19:37:45.532016	191.3	52.5	-78.3	9.6
2025-01-22 19:37:46.659312	191.7	52.9	-78.5	9.7
2025-01-22 19:37:47.788122	192.0	53.2	-78.4	9.7
2025-01-22 19:37:48.916802	192.4	53.6	-78.2	10.2
2025-01-22 19:37:50.043051	192.8	54.0	-78.4	10.4
2025-01-22 19:37:51.170916	193.1	54.3	-78.0	10.0
2025-01-22 19:37:52.299079	193.5	54.7	-77.9	10.6
2025-01-22 19:37:53.425595	193.9	55.0	-77.6	10.5
2025-01-22 19:37:54.551611	194.3	55.4	-77.9	11.1
2025-01-22 19:37:55.679883	194.8	55.7	-77.7	11.1
2025-01-22 19:37:56.805815	195.2	56.1	-77.4	11.2
2025-01-22 19:37:57.930931	195.6	56.5	-77.4	11.0
2025-01-22 19:37:59.057945	196.1	56.8	-77.6	11.6
2025-01-22 19:38:00.185443	196.5	57.2	-77.7	12.1
2025-01-22 19:38:01.311009	197.0	57.6	-77.4	11.8
2025-01-22 19:38:02.438082	197.5	57.9	-77.4	12.1
2025-01-22 19:38:03.563765	198.0	58.3	-77.4	11.7
2025-01-22 19:38:04.692834	198.5	58.7	-77.6	12.0
2025-01-22 19:38:05.818480	199.1	59.0	-77.3	11.9
2025-01-22 19:38:06.944990	199.6	59.4	-77.4	11.9
2025-01-22 19:38:08.074941	200.2	59.7	-77.7	11.6
2025-01-22 19:38:09.200745	200.8	60.1	-77.4	11.5
2025-01-22 19:38:10.328690	201.4	60.5	-77.2	12.0
2025-01-22 19:38:11.454613	202.0	60.8	-76.9	12.6
2025-01-22 19:38:12.582422	202.6	61.2	-76.8	13.0
2025-01-22 19:38:13.709311	203.3	61.6	-76.6	14.0
2025-01-22 19:38:14.836808	203.9	61.9	-76.4	14.7
2025-01-22 19:38:15.964283	204.6	62.3	-76.4	14.8
2025-01-22 19:38:17.091427	205.3	62.6	-75.9	15.0
2025-01-22 19:38:18.218961	206.1	63.0	-75.9	16.1
2025-01-22 19:38:19.346280	206.8	63.3	-75.8	16.1
2025-01-22 19:38:20.472853	207.6	63.7	-76.0	15.9
2025-01-22 19:38:21.601274	208.4	64.0	-75.7	16.3
2025-01-22 19:38:22.728472	209.2	64.4	-75.9	16.0
2025-01-22 19:38:23.854524	210.0	64.7	-75.7	16.1
2025-01-22 19:38:24.980604	210.9	65.1	-76.2	15.7
2025-01-22 19:38:26.106705	211.8	65.4	-76.0	15.8
2025-01-22 19:38:27.234902	212.7	65.7	-75.5	16.4
2025-01-22 19:38:28.359664	213.7	66.0	-75.3	16.5
2025-01-22 19:38:29.486929	214.7	66.4	-75.6	16.9
2025-01-22 19:38:30.613562	215.7	66.7	-75.6	17.1
2025-01-22 19:38:31.739465	216.7	67.0	-75.3	17.0
2025-01-22 19:38:32.867297	217.8	67.3	-75.2	17.1
2025-01-22 19:38:33.993938	218.9	67.6	-75.6	17.1
2025-01-22 19:38:35.119387	220.0	67.9	-75.1	17.4
2025-01-22 19:38:36.245524	221.2	68.2	-75.0	17.6
2025-01-22 19:38:37.371407	222.4	68.4	-75.1	17.4
2025-01-22 19:38:38.498284	223.6	68.7	-75.4	17.2
2025-01-22 19:38:39.623905	224.9	69.0	-75.2	17.1
2025-01-22 19:38:40.749741	226.2	69.2	-75.0	17.2
2025-01-22 19:38:41.876739	227.5	69.5	-75.0	18.2
2025-01-22 19:38:43.003680	228.9	69.7	-74.8	18.5
2025-01-22 19:38:44.129914	230.3	69.9	-74.8	18.1
2025-01-22 19:38:45.256947	231.7	70.1	-74.4	18.5
2025-01-22 19:38:46.385187	233.1	70.3	-74.4	18.5
2025-01-22 19:38:47.512333	234.6	70.5	-74.8	18.6
2025-01-22 19:38:48.639666	236.2	70.7	-74.9	18.2
2025-01-22 19:38:49.767028	237.7	70.8	-74.6	18.3
2025-01-22 19:38:50.895815	239.3	71.0	-74.7	18.1
2025-01-22 19:38:52.022969	240.9	71.1	-75.2	17.6
2025-01-22 19:38:53.150458	242.5	71.2	-75.2	17.3
2025-01-22 19:38:54.279239	244.1	71.3	-75.4	17.4
2025-01-22 19:38:55.407616	245.8	71.4	-75.5	17.2
2025-01-22 19:38:56.533330	247.5	71.5	-75.7	16.4
2025-01-22 19:38:57.660096	249.2	71.6	-75.6	16.9
2025-01-22 19:38:58.787459	250.9	71.6	-75.9	16.6
2025-01-22 19:38:59.912288	252.6	71.7	-75.9	16.1
2025-01-22 19:39:01.039651	254.3	71.7	-76.2	16.0
2025-01-22 19:39:02.167791	256.0	71.7	-76.1	16.5
2025-01-22 19:39:03.295521	257.7	71.7	-75.7	16.6
2025-01-22 19:39:04.420759	259.5	71.6	-76.1	15.8
2025-01-22 19:39:05.547298	261.2	71.6	-76.1	16.3
2025-01-22 19:39:06.674794	262.8	71.5	-75.8	16.1
2025-01-22 19:39:07.800879	264.5	71.4	-76.0	16.5
2025-01-22 19:39:08.927158	266.2	71.4	-75.9	15.7
2025-01-22 19:39:10.053741	267.8	71.3	-76.0	16.0
2025-01-22 19:39:11.179645	269.5	71.1	-75.9	15.5
2025-01-22 19:39:12.305982	271.1	71.0	-76.1	15.8
2025-01-22 19:39:13.432585	272.6	70.9	-76.1	15.5
2025-01-22 19:39:14.558233	274.2	70.7	-76.3	15.2
2025-01-22 19:39:15.683921	275.7	70.5	-76.4	15.9
2025-01-22 19:39:16.809944	277.2	70.3	-76.5	14.8
2025-01-22 19:39:17.938776	278.7	70.1	-76.4	14.7
2025-01-22 19:39:19.064843	280.1	69.9	-76.2	14.7
2025-01-22 19:39:20.191379	281.5	69.7	-76.4	14.8
2025-01-22 19:39:21.317679	282.9	69.5	-76.3	13.8
2025-01-22 19:39:22.445608	284.2	69.3	-76.4	14.2
2025-01-22 19:39:23.572617	285.5	69.0	-76.1	13.6
2025-01-22 19:39:24.700154	286.8	68.7	-76.2	13.4
2025-01-22 19:39:25.826530	288.0	68.5	-76.3	12.2
2025-01-22 19:39:26.953180	289.2	68.2	-76.8	12.4
2025-01-22 19:39:28.084276	290.4	67.9	-76.8	12.4
2025-01-22 19:39:29.211277	291.5	67.6	-76.6	12.2
2025-01-22 19:39:30.338425	292.6	67.3	-76.8	12.5
2025-01-22 19:39:31.463052	293.7	67.0	-76.6	11.9
2025-01-22 19:39:32.590199	294.8	66.7	-76.5	12.1
2025-01-22 19:39:33.716348	295.8	66.4	-76.4	11.0
2025-01-22 19:39:34.843552	296.8	66.1	-76.6	10.2
2025-01-22 19:39:35.969803	297.7	65.8	-76.8	10.5
2025-01-22 19:39:37.094083	298.6	65.4	-76.9	9.8
2025-01-22 19:39:38.221400	299.5	65.1	-76.9	9.0
2025-01-22 19:39:39.347605	300.4	64.8	-76.7	8.1
2025-01-22 19:39:40.475273	301.3	64.4	-77.1	9.3
2025-01-22 19:39:41.602299	302.1	64.1	-77.1	8.0
2025-01-22 19:39:42.729634	302.9	63.7	-77.0	7.7
2025-01-22 19:39:43.856205	303.7	63.4	-77.1	7.7
2025-01-22 19:39:44.983339	304.4	63.0	-77.0	6.2
2025-01-22 19:39:46.112811	305.2	62.7	-77.1	6.3
2025-01-22 19:39:47.238240	305.9	62.3	-76.7	5.7
2025-01-22 19:39:48.365286	306.6	62.0	-77.1	5.6
2025-01-22 19:39:49.492340	307.2	61.6	-77.4	4.5
2025-01-22 19:39:50.619405	307.9	61.3	-77.1	2.1
2025-01-22 19:39:51.746856	308.5	60.9	-77.2	1.9
2025-01-22 19:39:52.873755	309.1	60.5	-78.2	1.7
2025-01-22 19:39:53.999701	309.7	60.2	-77.9	0.0
2025-01-22 19:39:55.125458	310.3	59.8	-77.0	0.0
2025-01-22 19:39:56.251724	310.9	59.4	-78.0	0.0
2025-01-22 19:39:57.379288	311.4	59.1	-77.0	0.0
2025-01-22 19:39:58.505584	312.0	58.7	-76.7	0.0
2025-01-22 19:39:59.631840	312.5	58.4	-77.2	0.0
2025-01-22 19:40:00.758408	313.0	58.0	-76.4	0.0
2025-01-22 19:40:01.885308	313.5	57.6	-76.7	0.0
2025-01-22 19:40:03.010782	314.0	57.3	-78.2	0.0
2025-01-22 19:40:04.139201	314.4	56.9	-77.2	0.0
2025-01-22 19:40:05.263229	314.9	56.5	-77.1	0.0
2025-01-22 19:40:06.389416	315.3	56.2	-76.8	0.0
2025-01-22 19:40:07.513837	315.8	55.8	-77.6	0.0
2025-01-22 19:40:08.640761	316.2	55.5	-75.8	0.0
2025-01-22 19:40:09.766393	316.6	55.1	-76.3	0.0
2025-01-22 19:40:10.892636	317.0	54.7	-76.4	0.0
2025-01-22 19:40:12.018812	317.4	54.4	-75.8	0.0
2025-01-22 19:40:13.146083	317.8	54.0	-77.1	0.0
2025-01-22 19:40:14.273380	318.1	53.7	-76.7	0.0
2025-01-22 19:40:15.400375	318.5	53.3	-76.6	0.0
2025-01-22 19:40:16.527015	318.9	53.0	-77.0	0.0
2025-01-22 19:40:17.653342	319.2	52.6	-77.2	0.0
2025-01-22 19:40:18.782186	319.6	52.3	-76.1	0.0
2025-01-22 19:40:19.909707	319.9	51.9	-76.8	0.0
2025-01-22 19:40:21.037310	320.2	51.6	-76.8	0.0
2025-01-22 19:40:22.164850	320.5	51.2	-76.9	0.0
2025-01-22 19:40:23.290747	320.8	50.9	-77.2	0.0
2025-01-22 19:40:24.415794	321.1	50.5	-76.4	0.0
2025-01-22 19:40:25.540345	321.4	50.2	-76.7	0.0
2025-01-22 19:40:26.667985	321.7	49.9	-75.5	0.0
2025-01-22 19:40:27.795068	322.0	49.5	-75.4	0.0
2025-01-22 19:40:28.922141	322.3	49.2	-76.4	0.0
2025-01-22 19:40:30.048052	322.6	48.9	-75.5	0.0
2025-01-22 19:40:31.175592	322.8	48.5	-76.3	0.0
2025-01-22 19:40:32.302537	323.1	48.2	-77.0	0.0
2025-01-22 19:40:33.429064	323.3	47.9	-75.6	0.0
2025-01-22 19:40:34.555461	323.6	47.5	-75.6	0.0
2025-01-22 19:40:35.682866	323.8	47.2	-75.7	0.0
2025-01-22 19:40:36.810536	324.1	46.9	-75.1	0.0
2025-01-22 19:40:37.938425	324.3	46.6	-75.3	0.0
2025-01-22 19:40:39.066225	324.5	46.3	-73.9	0.0
2025-01-22 19:40:40.193286	324.8	45.9	-73.4	0.0
2025-01-22 19:40:41.318302	325.0	45.6	-75.2	0.0
2025-01-22 19:40:42.444650	325.2	45.3	-75.2	0.0
2025-01-22 19:40:43.572019	325.4	45.0	-75.4	0.0
2025-01-22 19:40:44.699223	325.6	44.7	-75.5	0.0
2025-01-22 19:40:45.825132	325.8	44.4	-73.7	0.0
2025-01-22 19:40:46.951479	326.0	44.1	-74.9	0.0
2025-01-22 19:40:48.078211	326.2	43.8	-75.3	0.0
2025-01-22 19:40:49.205950	326.4	43.5	-75.6	0.0
2025-01-22 19:40:50.334183	326.6	43.2	-75.7	0.0
2025-01-22 19:40:51.460583	326.8	42.9	-74.4	0.0
2025-01-22 19:40:52.587387	327.0	42.6	-74.8	0.0
2025-01-22 19:40:53.715386	327.2	42.3	-75.8	0.0
2025-01-22 19:40:54.841220	327.3	42.0	-74.7	0.0
2025-01-22 19:40:55.967728	327.5	41.7	-75.6	0.0
2025-01-22 19:40:57.094631	327.7	41.5	-75.8	0.0
2025-01-22 19:40:58.221210	327.9	41.2	-75.1	0.0
2025-01-22 19:40:59.347707	328.0	40.9	-73.6	0.0
2025-01-22 19:41:00.474624	328.2	40.6	-74.7	0.0
2025-01-22 19:41:01.602392	328.4	40.3	-75.4	0.0
2025-01-22 19:41:02.726873	328.5	40.0	-76.0	0.0
2025-01-22 19:41:03.853725	328.7	39.8	-74.3	0.0
2025-01-22 19:41:04.979991	328.8	39.5	-74.5	0.0
2025-01-22 19:41:06.106293	329.0	39.2	-74.8	0.0
2025-01-22 19:41:07.233314	329.1	39.0	-74.1	0.0
2025-01-22 19:41:08.359844	329.3	38.7	-74.7	0.0
2025-01-22 19:41:09.486021	329.4	38.4	-74.9	0.0
2025-01-22 19:41:10.611722	329.5	38.2	-74.7	0.0
2025-01-22 19:41:11.737682	329.7	37.9	-75.3	0.0
2025-01-22 19:41:12.864484	329.8	37.6	-74.9	0.0
2025-01-22 19:41:13.990726	330.0	37.4	-75.0	0.0
2025-01-22 19:41:15.118302	330.1	37.1	-74.1	0.0
2025-01-22 19:41:16.244805	330.2	36.9	-73.9	0.0
2025-01-22 19:41:17.372123	330.3	36.6	-75.8	0.0
2025-01-22 19:41:18.497482	330.5	36.4	-76.2	0.0
2025-01-22 19:41:19.623358	330.6	36.1	-75.2	0.0
2025-01-22 19:41:20.750241	330.7	35.9	-75.0	0.0
2025-01-22 19:41:21.874955	330.8	35.6	-73.9	0.0
2025-01-22 19:41:23.001987	331.0	35.4	-74.4	0.0
2025-01-22 19:41:24.128841	331.1	35.2	-74.5	0.0
2025-01-22 19:41:25.255780	331.2	34.9	-74.0	0.0
2025-01-22 19:41:26.383645	331.3	34.7	-73.2	0.0
2025-01-22 19:41:27.510213	331.4	34.4	-73.0	0.0
2025-01-22 19:41:28.636828	331.5	34.2	-73.0	0.0
2025-01-22 19:41:29.764523	331.6	34.0	-72.8	0.0
2025-01-22 19:41:30.891042	331.8	33.7	-73.7	0.0
2025-01-22 19:41:32.018245	331.9	33.5	-75.1	0.0
2025-01-22 19:41:33.144152	332.0	33.3	-74.8	0.0
2025-01-22 19:41:34.272205	332.1	33.1	-75.3	0.0
2025-01-22 19:41:35.400285	332.2	32.8	-75.2	0.0
2025-01-22 19:41:36.526709	332.3	32.6	-75.2	0.0
2025-01-22 19:41:37.654295	332.4	32.4	-75.1	0.0
2025-01-22 19:41:38.779634	332.5	32.2	-75.4	0.0
2025-01-22 19:41:39.908523	332.6	31.9	-75.1	0.0
2025-01-22 19:41:41.034717	332.7	31.7	-76.4	0.0
2025-01-22 19:41:42.162444	332.8	31.5	-76.2	0.0
2025-01-22 19:41:43.287792	332.9	31.3	-73.9	0.0
2025-01-22 19:41:44.416387	332.9	31.1	-74.0	0.0
2025-01-22 19:41:45.541473	333.0	30.9	-71.4	0.0
2025-01-22 19:41:46.668850	333.1	30.7	-75.5	0.0
2025-01-22 19:41:47.796441	333.2	30.4	-74.8	0.0
2025-01-22 19:41:48.922847	333.3	30.2	-75.8	0.0
2025-01-22 19:41:50.050643	333.4	30.0	-75.7	0.0
2025-01-22 19:41:51.177414	333.5	29.8	-69.3	0.0
2025-01-22 19:41:52.302688	333.6	29.6	-74.6	0.0
2025-01-22 19:41:53.431119	333.7	29.4	-68.2	0.0
2025-01-22 19:41:54.556297	333.7	29.2	-70.5	0.0
2025-01-22 19:41:55.686175	333.8	29.0	-73.5	0.0
2025-01-22 19:41:56.815635	333.9	28.8	-73.0	0.0
2025-01-22 19:41:57.945573	334.0	28.6	-74.1	0.0
2025-01-22 19:41:59.075651	334.1	28.4	-74.0	0.0
2025-01-22 19:42:00.204149	334.1	28.2	-74.0	0.0
2025-01-22 19:42:01.332544	334.2	28.0	-73.5	0.0
2025-01-22 19:42:02.460608	334.3	27.9	-70.5	0.0
2025-01-22 19:42:03.586391	334.4	27.7	-74.3	0.0
2025-01-22 19:42:04.712969	334.4	27.5	-73.2	0.0
2025-01-22 19:42:05.839616	334.5	27.3	-73.7	0.0
2025-01-22 19:42:06.966455	334.6	27.1	-73.6	0.0
2025-01-22 19:42:08.092198	334.7	26.9	-74.6	0.0
2025-01-22 19:42:09.218826	334.7	26.7	-74.4	0.0
2025-01-22 19:42:10.344651	334.8	26.5	-70.3	0.0
2025-01-22 19:42:11.471003	334.9	26.4	-72.4	0.0
2025-01-22 19:42:12.597213	334.9	26.2	-75.6	0.0
2025-01-22 19:42:13.723317	335.0	26.0	-74.1	0.0
2025-01-22 19:42:14.849368	335.1	25.8	-73.1	0.0
2025-01-22 19:42:15.975646	335.2	25.7	-73.8	0.0
2025-01-22 19:42:17.102122	335.2	25.5	-73.8	0.0
2025-01-22 19:42:18.229335	335.3	25.3	-73.2	0.0
2025-01-22 19:42:19.355112	335.4	25.1	-73.1	0.0
2025-01-22 19:42:20.481195	335.4	25.0	-75.2	0.0
2025-01-22 19:42:21.605329	335.5	24.8	-74.2	0.0
2025-01-22 19:42:22.732174	335.5	24.6	-73.3	0.0
2025-01-22 19:42:23.858139	335.6	24.4	-72.8	0.0
2025-01-22 19:42:24.984560	335.7	24.3	-72.7	0.0
2025-01-22 19:42:26.111831	335.7	24.1	-72.9	0.0
2025-01-22 19:42:27.237360	335.8	23.9	-72.9	0.0
2025-01-22 19:42:28.363658	335.9	23.8	-71.5	0.0
2025-01-22 19:42:29.490403	335.9	23.6	-71.8	0.0
2025-01-22 19:42:30.615551	336.0	23.5	-70.5	0.0
2025-01-22 19:42:31.743059	336.0	23.3	-70.8	0.0
2025-01-22 19:42:32.868334	336.1	23.1	-71.5	0.0
2025-01-22 19:42:33.993937	336.1	23.0	-72.2	0.0
2025-01-22 19:42:35.119116	336.2	22.8	-71.8	0.0
2025-01-22 19:42:36.244951	336.3	22.6	-72.3	0.0
2025-01-22 19:42:37.369030	336.3	22.5	-72.0	0.0
2025-01-22 19:42:38.496990	336.4	22.3	-72.2	0.0
2025-01-22 19:42:39.624796	336.4	22.2	-72.0	0.0
2025-01-22 19:42:40.751042	336.5	22.0	-70.6	0.0
2025-01-22 19:42:41.875955	336.5	21.9	-72.7	0.0
2025-01-22 19:42:43.001849	336.6	21.7	-71.2	0.0
2025-01-22 19:42:44.128083	336.6	21.6	-72.1	0.0
2025-01-22 19:42:45.255396	336.7	21.4	-73.1	0.0
2025-01-22 19:42:46.381180	336.7	21.3	-69.8	0.0
2025-01-22 19:42:47.507292	336.8	21.1	-70.7	0.0
2025-01-22 19:42:48.634897	336.9	21.0	-70.3	0.0
2025-01-22 19:42:49.762187	336.9	20.8	-72.7	0.0
2025-01-22 19:42:50.887367	337.0	20.7	-73.2	0.0
2025-01-22 19:42:52.011802	337.0	20.5	-72.5	0.0
2025-01-22 19:42:53.136624	337.1	20.4	-72.5	0.0
2025-01-22 19:42:54.263006	337.1	20.2	-74.0	0.0
2025-01-22 19:42:55.388310	337.2	20.1	-72.5	0.0
2025-01-22 19:42:56.514270	337.2	20.0	-72.0	0.0
2025-01-22 19:42:57.640830	337.2	19.8	-70.0	0.0
2025-01-22 19:42:58.766127	337.3	19.7	-70.2	0.0
2025-01-22 19:42:59.892887	337.3	19.5	-72.2	0.0
2025-01-22 19:43:01.018804	337.4	19.4	-70.6	0.0
2025-01-22 19:43:02.143844	337.4	19.2	-71.7	0.0
2025-01-22 19:43:03.270021	337.5	19.1	-72.1	0.0
2025-01-22 19:43:04.397072	337.5	19.0	-71.7	0.0
2025-01-22 19:43:05.524167	337.6	18.8	-70.8	0.0
2025-01-22 19:43:06.650257	337.6	18.7	-70.3	0.0
2025-01-22 19:43:07.776032	337.7	18.6	-73.1	0.0
2025-01-22 19:43:08.902400	337.7	18.4	-69.7	0.0
2025-01-22 19:43:10.029518	337.8	18.3	-67.7	0.0
2025-01-22 19:43:11.154743	337.8	18.2	-69.6	0.0
2025-01-22 19:43:12.280563	337.8	18.0	-71.0	0.0
2025-01-22 19:43:13.407292	337.9	17.9	-70.4	0.0
2025-01-22 19:43:14.531332	337.9	17.8	-68.4	0.0
2025-01-22 19:43:15.656907	338.0	17.6	-70.3	0.0
2025-01-22 19:43:16.785456	338.0	17.5	-70.5	0.0
2025-01-22 19:43:17.911458	338.0	17.4	-69.9	0.0
2025-01-22 19:43:19.037309	338.1	17.3	-70.2	0.0
2025-01-22 19:43:20.165834	338.1	17.1	-73.2	0.0
2025-01-22 19:43:21.293869	338.2	17.0	-71.6	0.0
2025-01-22 19:43:22.420135	338.2	16.9	-69.7	0.0
2025-01-22 19:43:23.545140	338.3	16.7	-70.9	0.0
2025-01-22 19:43:24.672717	338.3	16.6	-72.8	0.0
2025-01-22 19:43:25.799926	338.3	16.5	-71.7	0.0
2025-01-22 19:43:26.926282	338.4	16.4	-68.3	0.0
2025-01-22 19:43:28.051496	338.4	16.2	-70.8	0.0
2025-01-22 19:43:29.178853	338.4	16.1	-71.3	0.0
2025-01-22 19:43:30.305984	338.5	16.0	-70.9	0.0
2025-01-22 19:43:31.432934	338.5	15.9	-68.9	0.0
2025-01-22 19:43:32.559124	338.6	15.8	-71.4	0.0
2025-01-22 19:43:33.684717	338.6	15.6	-69.8	0.0
2025-01-22 19:43:34.811733	338.6	15.5	-68.9	0.0
2025-01-22 19:43:35.937225	338.7	15.4	-69.6	0.0
2025-01-22 19:43:37.062918	338.7	15.3	-72.4	0.0
2025-01-22 19:43:38.188624	338.7	15.2	-71.7	0.0
2025-01-22 19:43:39.313818	338.8	15.0	-71.2	0.0
2025-01-22 19:43:40.439389	338.8	14.9	-69.3	0.0
2025-01-22 19:43:41.567961	338.9	14.8	-70.3	0.0
2025-01-22 19:43:42.693691	338.9	14.7	-68.4	0.0
2025-01-22 19:43:43.822159	338.9	14.6	-66.3	0.0
2025-01-22 19:43:44.947706	339.0	14.5	-64.6	0.0
2025-01-22 19:43:46.075069	339.0	14.4	-66.6	0.0
2025-01-22 19:43:47.205002	339.0	14.2	-68.8	0.0
2025-01-22 19:43:48.332011	339.1	14.1	-67.1	0.0
2025-01-22 19:43:49.459055	339.1	14.0	-69.9	0.0
2025-01-22 19:43:50.587262	339.1	13.9	-68.6	0.0
2025-01-22 19:43:51.714275	339.2	13.8	-68.2	0.0
2025-01-22 19:43:52.840657	339.2	13.7	-66.0	0.0
2025-01-22 19:43:53.968100	339.2	13.6	-66.5	0.0
2025-01-22 19:43:55.092931	339.3	13.5	-65.5	0.0
2025-01-22 19:43:56.220704	339.3	13.3	-67.1	0.0
2025-01-22 19:43:57.346687	339.3	13.2	-67.7	0.0
2025-01-22 19:43:58.472421	339.4	13.1	-67.4	0.0
2025-01-22 19:43:59.598800	339.4	13.0	-69.7	0.0
2025-01-22 19:44:00.725321	339.4	12.9	-67.3	0.0
2025-01-22 19:44:01.851928	339.5	12.8	-69.9	0.0
2025-01-22 19:44:02.977219	339.5	12.7	-69.4	0.0
2025-01-22 19:44:04.104083	339.5	12.6	-69.0	0.0
2025-01-22 19:44:05.230516	339.6	12.5	-65.1	0.0
2025-01-22 19:44:06.357317	339.6	12.4	-66.7	0.0
2025-01-22 19:44:07.482140	339.6	12.3	-66.6	0.0
2025-01-22 19:44:08.608670	339.7	12.2	-67.3	0.0
2025-01-22 19:44:09.735234	339.7	12.1	-67.9	0.0
2025-01-22 19:44:10.861003	339.7	12.0	-68.5	0.0
2025-01-22 19:44:11.985635	339.7	11.9	-68.5	0.0
2025-01-22 19:44:13.111500	339.8	11.8	-66.2	0.0
2025-01-22 19:44:14.238616	339.8	11.6	-70.1	0.0
2025-01-22 19:44:15.365402	339.8	11.5	-71.4	0.0
2025-01-22 19:44:16.491243	339.9	11.4	-69.9	0.0
2025-01-22 19:44:17.620194	339.9	11.3	-69.0	0.0
2025-01-22 19:44:18.745502	339.9	11.2	-69.3	0.0
2025-01-22 19:44:19.873723	340.0	11.1	-70.8	0.0
2025-01-22 19:44:21.000064	340.0	11.0	-69.3	0.0
2025-01-22 19:44:22.126728	340.0	10.9	-71.3	0.0
2025-01-22 19:44:23.256204	340.0	10.8	-75.5	0.0
2025-01-22 19:44:24.380485	340.1	10.7	-76.1	0.0
2025-01-22 19:44:25.508045	340.1	10.6	-75.6	0.0
2025-01-22 19:44:26.633552	340.1	10.5	-75.8	0.0
2025-01-22 19:44:27.760348	340.2	10.4	-77.5	0.0
2025-01-22 19:44:28.885326	340.2	10.4	-78.2	0.0
2025-01-22 19:44:30.012227	340.2	10.3	-80.0	0.0
2025-01-22 19:44:31.139314	340.2	10.2	-81.1	0.0
2025-01-22 19:44:32.265450	340.3	10.1	-80.2	0.0
#Closed at: 2025-01-22 19:33:26.018551