passes_logs/2025/01/22/planumMaritime01/planumMaritime01__20250122_094024_NOAA_18_rec.log

#Pass ID: 20250122_094024_NOAA 18
#Satellite: NOAA 18
#Configuration: NOAA 18
#Start time: 2025-01-22 09:40:29.885346

#LorettStation: 1.0.0 05.05.2024
#Station: planumMaritime01
#Location: 37.49445 lon 55.92918 lat
#TLE: 1 28654U 05018A   25021.17963601  .00000484  00000+0  28040-3 0  9994
#TLE: 2 28654  98.8557 102.1724 0014626 162.0619 198.1073 14.13492794 14053

#Time	Az	El	Level	SNR
2025-01-22 09:40:32.051366	10.6	10.2	-68.7	0.0
2025-01-22 09:40:33.175845	10.5	10.3	-70.5	0.0
2025-01-22 09:40:34.302348	10.5	10.4	-68.7	0.0
2025-01-22 09:40:35.430615	10.4	10.5	-67.7	0.0
2025-01-22 09:40:36.555489	10.4	10.6	-70.3	0.0
2025-01-22 09:40:37.682154	10.3	10.7	-70.4	0.0
2025-01-22 09:40:38.808279	10.3	10.8	-70.6	0.0
2025-01-22 09:40:39.935025	10.2	10.9	-70.2	0.0
2025-01-22 09:40:41.059908	10.2	10.9	-70.3	0.0
2025-01-22 09:40:42.184717	10.1	11.0	-68.9	0.0
2025-01-22 09:40:43.311529	10.1	11.1	-72.2	0.0
2025-01-22 09:40:44.437954	10.0	11.2	-71.2	0.0
2025-01-22 09:40:45.564193	10.0	11.3	-70.9	0.0
2025-01-22 09:40:46.689030	9.9	11.4	-71.2	0.0
2025-01-22 09:40:47.814469	9.9	11.5	-70.5	0.0
2025-01-22 09:40:48.940561	9.8	11.6	-70.7	0.0
2025-01-22 09:40:50.067360	9.8	11.7	-70.7	0.0
2025-01-22 09:40:51.195867	9.7	11.8	-69.5	0.0
2025-01-22 09:40:52.322919	9.7	11.9	-69.2	0.0
2025-01-22 09:40:53.449961	9.6	12.0	-68.7	0.0
2025-01-22 09:40:54.576038	9.6	12.1	-71.0	0.0
2025-01-22 09:40:55.702210	9.5	12.2	-70.5	0.0
2025-01-22 09:40:56.829014	9.4	12.3	-70.7	0.0
2025-01-22 09:40:57.955268	9.4	12.5	-70.5	0.0
2025-01-22 09:40:59.083301	9.3	12.6	-69.9	0.0
2025-01-22 09:41:00.208071	9.3	12.7	-69.2	0.0
2025-01-22 09:41:01.334604	9.2	12.8	-67.5	0.0
2025-01-22 09:41:02.461314	9.2	12.9	-67.3	0.0
2025-01-22 09:41:03.587616	9.1	13.0	-69.5	0.0
2025-01-22 09:41:04.715250	9.0	13.1	-69.6	0.0
2025-01-22 09:41:05.842658	9.0	13.2	-66.4	0.0
2025-01-22 09:41:06.969178	8.9	13.3	-68.4	0.0
2025-01-22 09:41:08.095866	8.9	13.4	-68.2	0.0
2025-01-22 09:41:09.221763	8.8	13.5	-67.5	0.0
2025-01-22 09:41:10.350645	8.7	13.6	-67.2	0.0
2025-01-22 09:41:11.479424	8.7	13.7	-64.1	0.0
2025-01-22 09:41:12.606143	8.6	13.8	-66.8	0.0
2025-01-22 09:41:13.731671	8.6	13.9	-68.0	0.0
2025-01-22 09:41:14.858302	8.5	14.0	-66.5	0.0
2025-01-22 09:41:15.983187	8.4	14.2	-63.6	0.0
2025-01-22 09:41:17.108900	8.4	14.3	-66.2	0.0
2025-01-22 09:41:18.235713	8.3	14.4	-68.2	0.0
2025-01-22 09:41:19.361063	8.3	14.5	-66.6	0.0
2025-01-22 09:41:20.486113	8.2	14.6	-66.8	0.0
2025-01-22 09:41:21.611060	8.1	14.7	-66.3	0.0
2025-01-22 09:41:22.736805	8.1	14.8	-65.7	0.0
2025-01-22 09:41:23.861249	8.0	14.9	-66.1	0.0
2025-01-22 09:41:24.988280	7.9	15.1	-66.5	0.0
2025-01-22 09:41:26.113562	7.9	15.2	-67.8	0.0
2025-01-22 09:41:27.238018	7.8	15.3	-67.3	0.0
2025-01-22 09:41:28.364426	7.7	15.4	-66.5	0.0
2025-01-22 09:41:29.492114	7.7	15.5	-67.0	0.0
2025-01-22 09:41:30.617797	7.6	15.6	-66.7	0.0
2025-01-22 09:41:31.744137	7.5	15.7	-66.5	0.0
2025-01-22 09:41:32.871371	7.4	15.9	-66.9	0.0
2025-01-22 09:41:33.998349	7.4	16.0	-64.5	0.0
2025-01-22 09:41:35.123350	7.3	16.1	-67.4	0.0
2025-01-22 09:41:36.248586	7.2	16.2	-65.9	0.0
2025-01-22 09:41:37.376141	7.2	16.3	-65.7	0.0
2025-01-22 09:41:38.503004	7.1	16.5	-66.4	0.0
2025-01-22 09:41:39.628293	7.0	16.6	-66.7	0.0
2025-01-22 09:41:40.753989	6.9	16.7	-66.2	0.0
2025-01-22 09:41:41.878806	6.9	16.8	-66.3	0.0
2025-01-22 09:41:43.005195	6.8	16.9	-65.9	0.0
2025-01-22 09:41:44.131334	6.7	17.1	-66.9	0.0
2025-01-22 09:41:45.257221	6.6	17.2	-66.5	0.0
2025-01-22 09:41:46.386095	6.5	17.3	-67.6	0.0
2025-01-22 09:41:47.513811	6.5	17.4	-67.5	0.0
2025-01-22 09:41:48.639889	6.4	17.6	-67.6	0.0
2025-01-22 09:41:49.766269	6.3	17.7	-67.7	0.0
2025-01-22 09:41:50.889412	6.2	17.8	-66.3	0.0
2025-01-22 09:41:52.014532	6.1	17.9	-67.4	0.0
2025-01-22 09:41:53.142012	6.1	18.1	-65.6	0.0
2025-01-22 09:41:54.270409	6.0	18.2	-66.8	0.0
2025-01-22 09:41:55.395494	5.9	18.3	-68.0	0.0
2025-01-22 09:41:56.522539	5.8	18.4	-67.2	0.0
2025-01-22 09:41:57.649818	5.7	18.6	-66.0	0.0
2025-01-22 09:41:58.777126	5.6	18.7	-68.0	0.0
2025-01-22 09:41:59.903681	5.6	18.8	-67.2	0.0
2025-01-22 09:42:01.030447	5.5	19.0	-67.1	0.0
2025-01-22 09:42:02.156587	5.4	19.1	-68.1	0.0
2025-01-22 09:42:03.281629	5.3	19.2	-68.1	0.0
2025-01-22 09:42:04.408769	5.2	19.4	-68.0	0.0
2025-01-22 09:42:05.536141	5.1	19.5	-66.9	0.0
2025-01-22 09:42:06.659499	5.0	19.6	-68.9	0.0
2025-01-22 09:42:07.784769	4.9	19.8	-69.3	0.0
2025-01-22 09:42:08.910901	4.8	19.9	-69.3	0.0
2025-01-22 09:42:10.035821	4.7	20.0	-69.7	0.0
2025-01-22 09:42:11.162157	4.6	20.2	-69.5	0.0
2025-01-22 09:42:12.288036	4.6	20.3	-65.9	0.0
2025-01-22 09:42:13.413982	4.5	20.4	-69.8	0.0
2025-01-22 09:42:14.539871	4.4	20.6	-69.3	0.0
2025-01-22 09:42:15.665887	4.3	20.7	-68.7	0.0
2025-01-22 09:42:16.791144	4.2	20.9	-70.9	0.0
2025-01-22 09:42:17.918085	4.1	21.0	-70.8	0.0
2025-01-22 09:42:19.042569	4.0	21.1	-69.2	0.0
2025-01-22 09:42:20.168874	3.9	21.3	-69.4	0.0
2025-01-22 09:42:21.295258	3.8	21.4	-68.1	0.0
2025-01-22 09:42:22.421183	3.6	21.6	-68.7	0.0
2025-01-22 09:42:23.546950	3.5	21.7	-68.0	0.0
2025-01-22 09:42:24.673497	3.4	21.9	-70.2	0.0
2025-01-22 09:42:25.798648	3.3	22.0	-72.5	0.0
2025-01-22 09:42:26.925177	3.2	22.2	-70.0	0.0
2025-01-22 09:42:28.049676	3.1	22.3	-70.1	0.0
2025-01-22 09:42:29.175316	3.0	22.5	-69.7	0.0
2025-01-22 09:42:30.302921	2.9	22.6	-70.0	0.0
2025-01-22 09:42:31.430752	2.8	22.8	-72.8	0.0
2025-01-22 09:42:32.556235	2.7	22.9	-68.4	0.0
2025-01-22 09:42:33.681745	2.5	23.1	-71.5	0.0
2025-01-22 09:42:34.808285	2.4	23.2	-71.8	0.0
2025-01-22 09:42:35.935221	2.3	23.4	-70.7	0.0
2025-01-22 09:42:37.062164	2.2	23.5	-70.1	0.0
2025-01-22 09:42:38.188094	2.1	23.7	-70.0	0.0
2025-01-22 09:42:39.313141	2.0	23.8	-69.5	0.0
2025-01-22 09:42:40.441666	1.8	24.0	-70.7	0.0
2025-01-22 09:42:41.567275	1.7	24.1	-64.6	0.0
2025-01-22 09:42:42.695928	1.6	24.3	-69.3	0.0
2025-01-22 09:42:43.820254	1.5	24.4	-70.3	0.0
2025-01-22 09:42:44.944941	1.3	24.6	-67.9	0.0
2025-01-22 09:42:46.071971	1.2	24.8	-70.0	0.0
2025-01-22 09:42:47.197057	1.1	24.9	-71.5	0.0
2025-01-22 09:42:48.323644	0.9	25.1	-71.5	0.0
2025-01-22 09:42:49.450074	0.8	25.3	-72.4	0.0
2025-01-22 09:42:50.576077	0.7	25.4	-71.3	0.0
2025-01-22 09:42:51.703306	0.5	25.6	-72.0	0.0
2025-01-22 09:42:52.829747	0.4	25.7	-70.1	0.0
2025-01-22 09:42:53.954650	0.3	25.9	-70.1	0.0
2025-01-22 09:42:55.082070	0.1	26.1	-71.2	0.0
2025-01-22 09:42:56.208100	360.0	26.2	-71.6	0.0
2025-01-22 09:42:57.334718	359.8	26.4	-70.7	0.0
2025-01-22 09:42:58.460435	359.7	26.6	-71.8	0.0
2025-01-22 09:42:59.585821	359.5	26.7	-70.7	0.0
2025-01-22 09:43:00.712560	359.4	26.9	-70.4	0.0
2025-01-22 09:43:01.839665	359.2	27.1	-71.2	0.0
2025-01-22 09:43:02.965691	359.1	27.3	-70.5	0.0
2025-01-22 09:43:04.091492	358.9	27.4	-67.6	0.0
2025-01-22 09:43:05.219061	358.8	27.6	-69.1	0.0
2025-01-22 09:43:06.346023	358.6	27.8	-68.8	0.0
2025-01-22 09:43:07.470681	358.5	28.0	-71.2	0.0
2025-01-22 09:43:08.597091	358.3	28.1	-70.8	0.0
2025-01-22 09:43:09.722760	358.1	28.3	-71.1	0.0
2025-01-22 09:43:10.850641	358.0	28.5	-72.3	0.0
2025-01-22 09:43:11.977270	357.8	28.7	-71.4	0.0
2025-01-22 09:43:13.103154	357.7	28.8	-71.1	0.0
2025-01-22 09:43:14.229466	357.5	29.0	-69.7	0.0
2025-01-22 09:43:15.355787	357.3	29.2	-72.7	0.0
2025-01-22 09:43:16.481997	357.1	29.4	-72.4	0.0
2025-01-22 09:43:17.608732	357.0	29.6	-72.8	0.0
2025-01-22 09:43:18.734082	356.8	29.8	-72.4	0.0
2025-01-22 09:43:19.858778	356.6	29.9	-72.9	0.0
2025-01-22 09:43:20.985135	356.4	30.1	-71.3	0.0
2025-01-22 09:43:22.111576	356.2	30.3	-73.7	0.0
2025-01-22 09:43:23.237685	356.1	30.5	-72.1	0.0
2025-01-22 09:43:24.362834	355.9	30.7	-72.9	0.0
2025-01-22 09:43:25.488382	355.7	30.9	-71.8	0.0
2025-01-22 09:43:26.613067	355.5	31.1	-72.5	0.0
2025-01-22 09:43:27.739734	355.3	31.3	-72.6	0.0
2025-01-22 09:43:28.865706	355.1	31.5	-72.1	0.0
2025-01-22 09:43:29.991496	354.9	31.7	-70.7	0.0
2025-01-22 09:43:31.117715	354.7	31.8	-69.9	0.0
2025-01-22 09:43:32.243425	354.5	32.0	-70.8	0.0
2025-01-22 09:43:33.371171	354.3	32.2	-72.6	0.0
2025-01-22 09:43:34.496423	354.1	32.4	-73.2	0.0
2025-01-22 09:43:35.621415	353.9	32.6	-71.9	0.0
2025-01-22 09:43:36.747153	353.6	32.8	-72.1	0.0
2025-01-22 09:43:37.871397	353.4	33.0	-72.9	0.0
2025-01-22 09:43:38.999143	353.2	33.2	-72.1	0.0
2025-01-22 09:43:40.124649	353.0	33.4	-73.2	0.0
2025-01-22 09:43:41.251334	352.8	33.6	-71.6	0.0
2025-01-22 09:43:42.379140	352.5	33.8	-73.0	0.0
2025-01-22 09:43:43.503927	352.3	34.0	-73.1	0.0
2025-01-22 09:43:44.632092	352.1	34.2	-72.3	0.0
2025-01-22 09:43:45.756924	351.8	34.4	-74.1	0.0
2025-01-22 09:43:46.882099	351.6	34.7	-72.9	0.0
2025-01-22 09:43:48.009615	351.3	34.9	-72.4	0.0
2025-01-22 09:43:49.136106	351.1	35.1	-72.4	0.0
2025-01-22 09:43:50.263443	350.8	35.3	-72.1	0.0
2025-01-22 09:43:51.387140	350.6	35.5	-72.2	0.0
2025-01-22 09:43:52.512475	350.3	35.7	-72.0	0.0
2025-01-22 09:43:53.639925	350.1	35.9	-73.4	0.0
2025-01-22 09:43:54.766413	349.8	36.1	-73.7	0.0
2025-01-22 09:43:55.894722	349.5	36.3	-73.0	0.0
2025-01-22 09:43:57.019823	349.3	36.5	-73.5	0.0
2025-01-22 09:43:58.145168	349.0	36.7	-73.1	0.0
2025-01-22 09:43:59.273567	348.7	37.0	-74.2	0.0
2025-01-22 09:44:00.399897	348.4	37.2	-74.9	0.0
2025-01-22 09:44:01.525512	348.1	37.4	-74.0	0.0
2025-01-22 09:44:02.653154	347.9	37.6	-75.5	0.0
2025-01-22 09:44:03.780708	347.6	37.8	-74.8	0.0
2025-01-22 09:44:04.907225	347.3	38.0	-75.2	0.0
2025-01-22 09:44:06.034047	347.0	38.3	-74.6	0.0
2025-01-22 09:44:07.159353	346.7	38.5	-75.1	0.0
2025-01-22 09:44:08.287875	346.4	38.7	-75.1	0.0
2025-01-22 09:44:09.413882	346.0	38.9	-76.2	0.0
2025-01-22 09:44:10.539183	345.7	39.1	-75.2	0.0
2025-01-22 09:44:11.664850	345.4	39.3	-75.0	0.0
2025-01-22 09:44:12.792989	345.1	39.6	-76.2	0.0
2025-01-22 09:44:13.920272	344.7	39.8	-76.1	0.0
2025-01-22 09:44:15.045244	344.4	40.0	-76.6	0.0
2025-01-22 09:44:16.171421	344.1	40.2	-76.6	0.0
2025-01-22 09:44:17.298083	343.7	40.4	-76.9	0.0
2025-01-22 09:44:18.424728	343.4	40.7	-76.8	0.0
2025-01-22 09:44:19.549029	343.0	40.9	-76.4	0.0
2025-01-22 09:44:20.674513	342.7	41.1	-77.7	0.0
2025-01-22 09:44:21.800997	342.3	41.3	-76.0	0.0
2025-01-22 09:44:22.927734	341.9	41.5	-77.3	0.0
2025-01-22 09:44:24.054882	341.5	41.8	-76.6	0.0
2025-01-22 09:44:25.181078	341.2	42.0	-77.3	0.0
2025-01-22 09:44:26.304685	340.8	42.2	-76.9	0.0
2025-01-22 09:44:27.432871	340.4	42.4	-77.6	0.0
2025-01-22 09:44:28.557866	340.0	42.6	-78.2	0.0
2025-01-22 09:44:29.682706	339.6	42.9	-77.9	0.0
2025-01-22 09:44:30.806859	339.2	43.1	-76.9	0.0
2025-01-22 09:44:31.933656	338.8	43.3	-77.3	0.0
2025-01-22 09:44:33.058728	338.4	43.5	-77.1	0.0
2025-01-22 09:44:34.184129	337.9	43.7	-77.9	0.0
2025-01-22 09:44:35.312815	337.5	43.9	-75.6	0.0
2025-01-22 09:44:36.439983	337.1	44.2	-75.5	0.0
2025-01-22 09:44:37.566328	336.6	44.4	-77.9	0.0
2025-01-22 09:44:38.692952	336.2	44.6	-76.4	0.0
2025-01-22 09:44:39.819337	335.7	44.8	-77.3	0.0
2025-01-22 09:44:40.945726	335.3	45.0	-76.2	0.0
2025-01-22 09:44:42.071763	334.8	45.2	-75.9	0.0
2025-01-22 09:44:43.196963	334.3	45.4	-76.1	0.0
2025-01-22 09:44:44.323592	333.8	45.7	-77.8	0.0
2025-01-22 09:44:45.450772	333.4	45.9	-76.9	0.0
2025-01-22 09:44:46.577992	332.9	46.1	-74.5	0.0
2025-01-22 09:44:47.703708	332.4	46.3	-76.3	0.0
2025-01-22 09:44:48.829886	331.9	46.5	-76.0	0.0
2025-01-22 09:44:49.954707	331.3	46.7	-76.1	0.0
2025-01-22 09:44:51.079923	330.8	46.9	-75.9	0.0
2025-01-22 09:44:52.207820	330.3	47.1	-77.7	0.0
2025-01-22 09:44:53.335209	329.8	47.3	-77.3	0.0
2025-01-22 09:44:54.462491	329.2	47.5	-75.7	0.0
2025-01-22 09:44:55.587772	328.7	47.7	-77.2	0.0
2025-01-22 09:44:56.714153	328.1	47.9	-77.4	0.0
2025-01-22 09:44:57.840635	327.6	48.1	-77.0	0.0
2025-01-22 09:44:58.965864	327.0	48.3	-76.1	0.0
2025-01-22 09:45:00.093387	326.4	48.4	-77.8	0.0
2025-01-22 09:45:01.218702	325.8	48.6	-78.4	0.0
2025-01-22 09:45:02.345007	325.3	48.8	-76.4	0.0
2025-01-22 09:45:03.468680	324.7	49.0	-78.0	0.0
2025-01-22 09:45:04.593720	324.1	49.2	-77.6	0.0
2025-01-22 09:45:05.721355	323.5	49.3	-77.7	0.0
2025-01-22 09:45:06.844598	322.8	49.5	-76.3	0.0
2025-01-22 09:45:07.969405	322.2	49.7	-76.0	0.0
2025-01-22 09:45:09.095349	321.6	49.8	-77.3	0.0
2025-01-22 09:45:10.220600	321.0	50.0	-77.3	0.0
2025-01-22 09:45:11.346620	320.3	50.2	-76.4	0.0
2025-01-22 09:45:12.472359	319.7	50.3	-76.8	0.0
2025-01-22 09:45:13.599002	319.0	50.5	-78.8	0.0
2025-01-22 09:45:14.725221	318.3	50.6	-77.6	0.0
2025-01-22 09:45:15.850840	317.7	50.8	-79.1	0.0
2025-01-22 09:45:16.977182	317.0	50.9	-78.6	0.0
2025-01-22 09:45:18.102707	316.3	51.0	-77.1	0.0
2025-01-22 09:45:19.229422	315.6	51.2	-76.9	0.0
2025-01-22 09:45:20.357452	314.9	51.3	-77.5	0.0
2025-01-22 09:45:21.483389	314.2	51.4	-77.6	0.0
2025-01-22 09:45:22.611236	313.5	51.5	-76.3	0.0
2025-01-22 09:45:23.737567	312.8	51.7	-78.3	0.0
2025-01-22 09:45:24.862419	312.1	51.8	-77.4	0.0
2025-01-22 09:45:25.989422	311.4	51.9	-77.0	0.0
2025-01-22 09:45:27.114847	310.6	52.0	-77.9	0.0
2025-01-22 09:45:28.240779	309.9	52.1	-77.8	0.0
2025-01-22 09:45:29.366214	309.2	52.2	-78.2	0.0
2025-01-22 09:45:30.491754	308.4	52.3	-78.1	0.0
2025-01-22 09:45:31.617389	307.7	52.4	-79.5	0.0
2025-01-22 09:45:32.742609	306.9	52.4	-79.7	0.0
2025-01-22 09:45:33.869911	306.2	52.5	-79.2	0.0
2025-01-22 09:45:34.998543	305.4	52.6	-79.5	0.0
2025-01-22 09:45:36.121324	304.6	52.6	-79.4	0.0
2025-01-22 09:45:37.246369	303.9	52.7	-79.2	0.0
2025-01-22 09:45:38.370762	303.1	52.7	-78.6	0.0
2025-01-22 09:45:39.496006	302.3	52.8	-79.5	0.0
2025-01-22 09:45:40.621679	301.6	52.8	-78.7	0.0
2025-01-22 09:45:41.748908	300.8	52.9	-78.9	0.0
2025-01-22 09:45:42.876623	300.0	52.9	-79.3	0.0
2025-01-22 09:45:44.003841	299.2	52.9	-79.4	0.0
2025-01-22 09:45:45.128983	298.5	53.0	-79.7	0.0
2025-01-22 09:45:46.254619	297.7	53.0	-79.2	0.0
2025-01-22 09:45:47.380626	296.9	53.0	-79.6	0.0
2025-01-22 09:45:48.505653	296.1	53.0	-79.2	0.0
2025-01-22 09:45:49.632373	295.3	53.0	-80.2	0.0
2025-01-22 09:45:50.759195	294.5	53.0	-79.4	0.0
2025-01-22 09:45:51.884647	293.8	53.0	-79.7	0.0
2025-01-22 09:45:53.009437	293.0	52.9	-79.7	0.0
2025-01-22 09:45:54.137302	292.2	52.9	-79.4	0.0
2025-01-22 09:45:55.264954	291.4	52.9	-79.2	0.0
2025-01-22 09:45:56.389421	290.6	52.9	-79.5	0.0
2025-01-22 09:45:57.516335	289.9	52.8	-79.6	0.0
2025-01-22 09:45:58.642229	289.1	52.8	-79.3	0.0
2025-01-22 09:45:59.768910	288.3	52.7	-79.4	0.0
2025-01-22 09:46:00.894868	287.5	52.7	-79.1	0.0
2025-01-22 09:46:02.022839	286.8	52.6	-79.7	0.0
2025-01-22 09:46:03.148830	286.0	52.6	-79.1	0.0
2025-01-22 09:46:04.276615	285.3	52.5	-79.4	0.0
2025-01-22 09:46:05.402968	284.5	52.4	-79.4	0.0
2025-01-22 09:46:06.527378	283.7	52.3	-79.7	0.0
2025-01-22 09:46:07.653250	283.0	52.2	-79.7	0.0
2025-01-22 09:46:08.780076	282.3	52.1	-79.7	0.0
2025-01-22 09:46:09.905858	281.5	52.1	-79.8	0.0
2025-01-22 09:46:11.033419	280.8	52.0	-80.1	0.0
2025-01-22 09:46:12.158822	280.1	51.8	-79.7	0.0
2025-01-22 09:46:13.283962	279.3	51.7	-79.9	0.0
2025-01-22 09:46:14.409288	278.6	51.6	-80.0	0.0
2025-01-22 09:46:15.535555	277.9	51.5	-80.3	0.0
2025-01-22 09:46:16.660593	277.2	51.4	-80.1	0.0
2025-01-22 09:46:17.787370	276.5	51.3	-80.0	0.0
2025-01-22 09:46:18.913070	275.8	51.1	-80.0	0.0
2025-01-22 09:46:20.039714	275.1	51.0	-80.0	0.0
2025-01-22 09:46:21.166193	274.4	50.9	-80.0	0.0
2025-01-22 09:46:22.289952	273.8	50.7	-79.9	0.0
2025-01-22 09:46:23.415036	273.1	50.6	-80.2	0.0
2025-01-22 09:46:24.541601	272.4	50.4	-80.2	0.0
2025-01-22 09:46:25.667782	271.8	50.3	-80.1	0.0
2025-01-22 09:46:26.796349	271.1	50.1	-80.2	0.0
2025-01-22 09:46:27.922328	270.5	49.9	-80.3	0.0
2025-01-22 09:46:29.048166	269.8	49.8	-80.3	0.0
2025-01-22 09:46:30.172966	269.2	49.6	-80.3	0.0
2025-01-22 09:46:31.299069	268.6	49.4	-80.1	0.0
2025-01-22 09:46:32.426269	268.0	49.3	-80.1	0.0
2025-01-22 09:46:33.552699	267.4	49.1	-80.3	0.0
2025-01-22 09:46:34.680091	266.8	48.9	-80.2	0.0
2025-01-22 09:46:35.806544	266.2	48.7	-79.9	0.0
2025-01-22 09:46:36.932244	265.6	48.6	-79.9	0.0
2025-01-22 09:46:38.054667	265.0	48.4	-80.1	0.0
2025-01-22 09:46:39.181804	264.4	48.2	-80.1	0.0
2025-01-22 09:46:40.308691	263.9	48.0	-79.4	0.0
2025-01-22 09:46:41.434413	263.3	47.8	-79.8	0.0
2025-01-22 09:46:42.562755	262.7	47.6	-80.1	0.0
2025-01-22 09:46:43.690655	262.2	47.4	-80.0	0.0
2025-01-22 09:46:44.816782	261.7	47.2	-80.1	0.0
2025-01-22 09:46:45.944186	261.1	47.0	-80.1	0.0
2025-01-22 09:46:47.069256	260.6	46.8	-79.8	0.0
2025-01-22 09:46:48.195777	260.1	46.6	-79.8	0.0
2025-01-22 09:46:49.322427	259.6	46.4	-79.9	0.0
2025-01-22 09:46:50.447553	259.1	46.2	-80.1	0.0
2025-01-22 09:46:51.573201	258.6	46.0	-79.6	0.0
2025-01-22 09:46:52.700653	258.1	45.8	-80.2	0.0
2025-01-22 09:46:53.825914	257.6	45.6	-79.7	0.0
2025-01-22 09:46:54.951245	257.1	45.4	-79.5	0.0
2025-01-22 09:46:56.076602	256.6	45.1	-79.6	0.0
2025-01-22 09:46:57.203079	256.2	44.9	-80.1	0.0
2025-01-22 09:46:58.330508	255.7	44.7	-79.8	0.0
2025-01-22 09:46:59.457343	255.3	44.5	-79.7	0.0
2025-01-22 09:47:00.582905	254.8	44.3	-79.5	0.0
2025-01-22 09:47:01.708360	254.4	44.1	-79.9	0.0
2025-01-22 09:47:02.834571	253.9	43.8	-79.7	0.0
2025-01-22 09:47:03.961562	253.5	43.6	-80.2	0.0
2025-01-22 09:47:05.086930	253.1	43.4	-80.2	0.0
2025-01-22 09:47:06.213314	252.7	43.2	-80.0	0.0
2025-01-22 09:47:07.339896	252.2	43.0	-80.1	0.0
2025-01-22 09:47:08.465775	251.8	42.7	-79.9	0.0
2025-01-22 09:47:09.591842	251.4	42.5	-79.6	0.0
2025-01-22 09:47:10.717625	251.0	42.3	-79.9	0.0
2025-01-22 09:47:11.844501	250.7	42.1	-79.6	0.0
2025-01-22 09:47:12.971532	250.3	41.9	-79.8	0.0
2025-01-22 09:47:14.095880	249.9	41.6	-79.5	0.0
2025-01-22 09:47:15.221263	249.5	41.4	-79.5	0.0
2025-01-22 09:47:16.348406	249.1	41.2	-79.7	0.0
2025-01-22 09:47:17.473669	248.8	41.0	-79.5	0.0
2025-01-22 09:47:18.600337	248.4	40.7	-79.5	0.0
2025-01-22 09:47:19.728029	248.1	40.5	-79.8	0.0
2025-01-22 09:47:20.853740	247.7	40.3	-79.9	0.0
2025-01-22 09:47:21.979954	247.4	40.1	-79.8	0.0
2025-01-22 09:47:23.104964	247.0	39.9	-79.7	0.0
2025-01-22 09:47:24.231345	246.7	39.6	-79.6	0.0
2025-01-22 09:47:25.356229	246.4	39.4	-78.9	0.0
2025-01-22 09:47:26.482307	246.0	39.2	-79.0	0.0
2025-01-22 09:47:27.606993	245.7	39.0	-79.6	0.0
2025-01-22 09:47:28.733915	245.4	38.8	-79.7	0.0
2025-01-22 09:47:29.859930	245.1	38.5	-79.5	0.0
2025-01-22 09:47:30.986085	244.8	38.3	-79.3	0.0
2025-01-22 09:47:32.112787	244.5	38.1	-79.3	0.0
2025-01-22 09:47:33.239309	244.2	37.9	-79.7	0.0
2025-01-22 09:47:34.365805	243.9	37.7	-79.2	0.0
2025-01-22 09:47:35.490213	243.6	37.5	-79.2	0.0
2025-01-22 09:47:36.616485	243.3	37.2	-79.8	0.0
2025-01-22 09:47:37.743501	243.0	37.0	-79.8	0.0
2025-01-22 09:47:38.868268	242.7	36.8	-79.1	0.0
2025-01-22 09:47:39.992207	242.4	36.6	-79.5	0.0
2025-01-22 09:47:41.115452	242.2	36.4	-79.0	0.0
2025-01-22 09:47:42.242075	241.9	36.2	-79.1	0.0
2025-01-22 09:47:43.368467	241.6	36.0	-79.0	0.0
2025-01-22 09:47:44.494611	241.4	35.7	-79.0	0.0
2025-01-22 09:47:45.619803	241.1	35.5	-79.1	0.0
2025-01-22 09:47:46.745537	240.8	35.3	-78.9	0.0
2025-01-22 09:47:47.870466	240.6	35.1	-78.7	0.0
2025-01-22 09:47:48.995542	240.3	34.9	-78.8	0.0
2025-01-22 09:47:50.120683	240.1	34.7	-78.5	0.0
2025-01-22 09:47:51.246438	239.9	34.5	-79.0	0.0
2025-01-22 09:47:52.372646	239.6	34.3	-79.1	0.0
2025-01-22 09:47:53.499711	239.4	34.1	-78.9	0.0
2025-01-22 09:47:54.626163	239.1	33.9	-78.9	0.0
2025-01-22 09:47:55.751518	238.9	33.7	-79.4	0.0
2025-01-22 09:47:56.877239	238.7	33.5	-79.1	0.0
2025-01-22 09:47:58.001165	238.5	33.3	-78.5	0.0
2025-01-22 09:47:59.125530	238.2	33.1	-78.3	0.0
2025-01-22 09:48:00.252247	238.0	32.9	-79.1	0.0
2025-01-22 09:48:01.377937	237.8	32.7	-78.0	0.0
2025-01-22 09:48:02.502627	237.6	32.5	-78.8	0.0
2025-01-22 09:48:03.627172	237.4	32.3	-78.6	0.0
2025-01-22 09:48:04.753012	237.2	32.1	-78.8	0.0
2025-01-22 09:48:05.876518	236.9	31.9	-78.4	0.0
2025-01-22 09:48:07.002850	236.7	31.7	-77.9	0.0
2025-01-22 09:48:08.129221	236.5	31.5	-78.2	0.0
2025-01-22 09:48:09.256229	236.3	31.3	-78.0	0.0
2025-01-22 09:48:10.382345	236.1	31.1	-78.5	0.0
2025-01-22 09:48:11.508706	235.9	30.9	-77.9	0.0
2025-01-22 09:48:12.633371	235.8	30.7	-78.2	0.0
2025-01-22 09:48:13.758627	235.6	30.5	-78.0	0.0
2025-01-22 09:48:14.883771	235.4	30.3	-78.1	0.0
2025-01-22 09:48:16.009409	235.2	30.1	-78.3	0.0
2025-01-22 09:48:17.135355	235.0	29.9	-77.8	0.0
2025-01-22 09:48:18.260762	234.8	29.8	-78.0	0.0
2025-01-22 09:48:19.386541	234.6	29.6	-77.9	0.0
2025-01-22 09:48:20.512874	234.5	29.4	-78.2	0.0
2025-01-22 09:48:21.637595	234.3	29.2	-77.3	0.0
2025-01-22 09:48:22.762186	234.1	29.0	-76.8	0.0
2025-01-22 09:48:23.887526	233.9	28.8	-77.6	0.0
2025-01-22 09:48:25.014063	233.8	28.7	-77.2	0.0
2025-01-22 09:48:26.138482	233.6	28.5	-77.5	0.0
2025-01-22 09:48:27.263866	233.4	28.3	-77.4	0.0
2025-01-22 09:48:28.389613	233.3	28.1	-77.6	0.0
2025-01-22 09:48:29.516174	233.1	27.9	-77.5	0.0
2025-01-22 09:48:30.643407	233.0	27.8	-77.4	0.0
2025-01-22 09:48:31.769698	232.8	27.6	-77.8	0.0
2025-01-22 09:48:32.896576	232.6	27.4	-77.5	0.0
2025-01-22 09:48:34.024958	232.5	27.2	-76.9	0.0
2025-01-22 09:48:35.151250	232.3	27.1	-76.8	0.0
2025-01-22 09:48:36.279664	232.2	26.9	-77.1	0.0
2025-01-22 09:48:37.406985	232.0	26.7	-77.0	0.0
2025-01-22 09:48:38.533862	231.9	26.5	-77.3	0.0
2025-01-22 09:48:39.660340	231.7	26.4	-77.2	0.0
2025-01-22 09:48:40.787554	231.6	26.2	-76.5	0.0
2025-01-22 09:48:41.914074	231.4	26.0	-77.2	0.0
2025-01-22 09:48:43.042384	231.3	25.9	-76.6	0.0
2025-01-22 09:48:44.170969	231.2	25.7	-76.9	0.0
2025-01-22 09:48:45.298158	231.0	25.5	-77.2	0.0
2025-01-22 09:48:46.423587	230.9	25.4	-76.5	0.0
2025-01-22 09:48:47.547979	230.7	25.2	-76.5	0.0
2025-01-22 09:48:48.672961	230.6	25.0	-76.2	0.0
2025-01-22 09:48:49.798840	230.5	24.9	-76.3	0.0
2025-01-22 09:48:50.924123	230.3	24.7	-75.5	0.0
2025-01-22 09:48:52.049445	230.2	24.6	-76.5	0.0
2025-01-22 09:48:53.175968	230.1	24.4	-76.2	0.0
2025-01-22 09:48:54.303344	230.0	24.2	-76.7	0.0
2025-01-22 09:48:55.428671	229.8	24.1	-76.4	0.0
2025-01-22 09:48:56.554079	229.7	23.9	-76.4	0.0
2025-01-22 09:48:57.681809	229.6	23.8	-76.5	0.0
2025-01-22 09:48:58.808343	229.5	23.6	-76.3	0.0
2025-01-22 09:48:59.934639	229.3	23.4	-76.7	0.0
2025-01-22 09:49:01.061769	229.2	23.3	-76.2	0.0
2025-01-22 09:49:02.186189	229.1	23.1	-76.0	0.0
2025-01-22 09:49:03.312334	229.0	23.0	-76.6	0.0
2025-01-22 09:49:04.439085	228.9	22.8	-76.7	0.0
2025-01-22 09:49:05.565321	228.7	22.7	-76.2	0.0
2025-01-22 09:49:06.691214	228.6	22.5	-76.3	0.0
2025-01-22 09:49:07.817449	228.5	22.4	-75.9	0.0
2025-01-22 09:49:08.944987	228.4	22.2	-76.0	0.0
2025-01-22 09:49:10.071798	228.3	22.1	-75.9	0.0
2025-01-22 09:49:11.197620	228.2	21.9	-75.3	0.0
2025-01-22 09:49:12.325221	228.1	21.8	-75.6	0.0
2025-01-22 09:49:13.450799	228.0	21.6	-75.7	0.0
2025-01-22 09:49:14.576548	227.9	21.5	-75.9	0.0
2025-01-22 09:49:15.704158	227.8	21.3	-74.7	0.0
2025-01-22 09:49:16.829769	227.7	21.2	-75.8	0.0
2025-01-22 09:49:17.954949	227.5	21.1	-75.8	0.0
2025-01-22 09:49:19.079906	227.4	20.9	-75.8	0.0
2025-01-22 09:49:20.205919	227.3	20.8	-75.5	0.0
2025-01-22 09:49:21.333569	227.2	20.6	-76.1	0.0
2025-01-22 09:49:22.458381	227.1	20.5	-75.6	0.0
2025-01-22 09:49:23.585689	227.0	20.4	-75.9	0.0
2025-01-22 09:49:24.711783	226.9	20.2	-75.1	0.0
2025-01-22 09:49:25.838855	226.8	20.1	-75.7	0.0
2025-01-22 09:49:26.963657	226.7	19.9	-75.5	0.0
2025-01-22 09:49:28.089157	226.7	19.8	-75.8	0.0
2025-01-22 09:49:29.218055	226.6	19.7	-76.0	0.0
2025-01-22 09:49:30.344306	226.5	19.5	-76.2	0.0
2025-01-22 09:49:31.470630	226.4	19.4	-75.8	0.0
2025-01-22 09:49:32.597523	226.3	19.3	-75.9	0.0
2025-01-22 09:49:33.723332	226.2	19.1	-75.9	0.0
2025-01-22 09:49:34.849854	226.1	19.0	-75.7	0.0
2025-01-22 09:49:35.976000	226.0	18.9	-76.1	0.0
2025-01-22 09:49:37.102607	225.9	18.7	-76.0	0.0
2025-01-22 09:49:38.228784	225.8	18.6	-75.8	0.0
2025-01-22 09:49:39.356139	225.7	18.5	-73.9	0.0
2025-01-22 09:49:40.481808	225.7	18.3	-74.7	0.0
2025-01-22 09:49:41.607330	225.6	18.2	-75.5	0.0
2025-01-22 09:49:42.734148	225.5	18.1	-75.4	0.0
2025-01-22 09:49:43.860533	225.4	17.9	-75.4	0.0
2025-01-22 09:49:44.985059	225.3	17.8	-76.2	0.0
2025-01-22 09:49:46.111464	225.2	17.7	-75.7	0.0
2025-01-22 09:49:47.238574	225.2	17.6	-75.4	0.0
2025-01-22 09:49:48.364654	225.1	17.4	-75.8	0.0
2025-01-22 09:49:49.489752	225.0	17.3	-75.8	0.0
2025-01-22 09:49:50.614643	224.9	17.2	-75.6	0.0
2025-01-22 09:49:51.740872	224.8	17.1	-75.5	0.0
2025-01-22 09:49:52.865585	224.8	16.9	-75.3	0.0
2025-01-22 09:49:53.992495	224.7	16.8	-74.7	0.0
2025-01-22 09:49:55.118606	224.6	16.7	-74.8	0.0
2025-01-22 09:49:56.243394	224.5	16.6	-75.7	0.0
2025-01-22 09:49:57.369637	224.4	16.4	-75.7	0.0
2025-01-22 09:49:58.497017	224.4	16.3	-75.9	0.0
2025-01-22 09:49:59.620999	224.3	16.2	-75.6	0.0
2025-01-22 09:50:00.747895	224.2	16.1	-75.6	0.0
2025-01-22 09:50:01.875916	224.1	16.0	-74.4	0.0
2025-01-22 09:50:03.001440	224.1	15.8	-75.8	0.0
2025-01-22 09:50:04.127714	224.0	15.7	-75.7	0.0
2025-01-22 09:50:05.253860	223.9	15.6	-75.6	0.0
2025-01-22 09:50:06.380419	223.9	15.5	-75.9	0.0
2025-01-22 09:50:07.508019	223.8	15.4	-75.9	0.0
2025-01-22 09:50:08.634841	223.7	15.3	-75.4	0.0
2025-01-22 09:50:09.759153	223.6	15.1	-75.2	0.0
2025-01-22 09:50:10.886255	223.6	15.0	-75.1	0.0
2025-01-22 09:50:12.011906	223.5	14.9	-75.6	0.0
2025-01-22 09:50:13.138195	223.4	14.8	-75.7	0.0
2025-01-22 09:50:14.265274	223.4	14.7	-75.0	0.0
2025-01-22 09:50:15.390333	223.3	14.6	-75.6	0.0
2025-01-22 09:50:16.515629	223.2	14.5	-74.8	0.0
2025-01-22 09:50:17.641470	223.2	14.3	-75.1	0.0
2025-01-22 09:50:18.766490	223.1	14.2	-75.6	0.0
2025-01-22 09:50:19.893214	223.0	14.1	-75.9	0.0
2025-01-22 09:50:21.020328	223.0	14.0	-75.2	0.0
2025-01-22 09:50:22.146816	222.9	13.9	-75.8	0.0
2025-01-22 09:50:23.272414	222.9	13.8	-75.2	0.0
2025-01-22 09:50:24.399408	222.8	13.7	-76.1	0.0
2025-01-22 09:50:25.524605	222.7	13.6	-75.4	0.0
2025-01-22 09:50:26.651013	222.7	13.5	-75.5	0.0
2025-01-22 09:50:27.778000	222.6	13.3	-75.1	0.0
2025-01-22 09:50:28.904249	222.5	13.2	-75.6	0.0
2025-01-22 09:50:30.030999	222.5	13.1	-75.9	0.0
2025-01-22 09:50:31.155296	222.4	13.0	-75.2	0.0
2025-01-22 09:50:32.282318	222.4	12.9	-75.4	0.0
2025-01-22 09:50:33.409118	222.3	12.8	-74.5	0.0
2025-01-22 09:50:34.533957	222.2	12.7	-75.4	0.0
2025-01-22 09:50:35.659605	222.2	12.6	-75.1	0.0
2025-01-22 09:50:36.785902	222.1	12.5	-75.2	0.0
2025-01-22 09:50:37.911470	222.1	12.4	-75.6	0.0
2025-01-22 09:50:39.038124	222.0	12.3	-75.0	0.0
2025-01-22 09:50:40.165447	222.0	12.2	-75.5	0.0
2025-01-22 09:50:41.290597	221.9	12.1	-75.6	0.0
2025-01-22 09:50:42.417267	221.8	12.0	-74.9	0.0
2025-01-22 09:50:43.542791	221.8	11.9	-75.0	0.0
2025-01-22 09:50:44.668872	221.7	11.8	-74.9	0.0
2025-01-22 09:50:45.794761	221.7	11.7	-75.0	0.0
2025-01-22 09:50:46.921559	221.6	11.6	-74.2	0.0
2025-01-22 09:50:48.047746	221.6	11.5	-74.5	0.0
2025-01-22 09:50:49.173987	221.5	11.4	-75.0	0.0
2025-01-22 09:50:50.301548	221.5	11.3	-73.9	0.0
2025-01-22 09:50:51.426789	221.4	11.2	-74.4	0.0
2025-01-22 09:50:52.553133	221.4	11.1	-74.5	0.0
2025-01-22 09:50:53.678850	221.3	11.0	-75.3	0.0
2025-01-22 09:50:54.804245	221.3	10.9	-77.1	0.0
2025-01-22 09:50:55.929122	221.2	10.8	-78.6	0.0
2025-01-22 09:50:57.055986	221.2	10.7	-79.5	0.0
2025-01-22 09:50:58.182819	221.1	10.6	-79.5	0.0
2025-01-22 09:50:59.307049	221.1	10.5	-80.3	0.0
2025-01-22 09:51:00.434315	221.0	10.4	-80.7	0.0
2025-01-22 09:51:01.560695	221.0	10.3	-80.8	0.0
2025-01-22 09:51:02.686535	220.9	10.2	-81.4	0.0
2025-01-22 09:51:03.811698	220.9	10.1	-81.5	0.0
2025-01-22 09:51:04.937970	220.8	10.0	-81.3	0.0
#Closed at: 2025-01-22 09:40:24.887994