passes_logs/2025/01/22/planumMaritime01/planumMaritime01__20250122_172006_METOP-B_rec.log

#Pass ID: 20250122_172006_METOP-B
#Satellite: METOP-B
#Configuration: METOP-B
#Start time: 2025-01-22 17:20:11.239161

#LorettStation: 1.0.0 05.05.2024
#Station: planumMaritime01
#Location: 37.49445 lon 55.92918 lat
#TLE: 1 38771U 12049A   25022.22192915  .00000342  00000+0  17605-3 0  9994
#TLE: 2 38771  98.6000  80.1937 0001632  73.2603 286.8754 14.21415579640663

#Time	Az	El	Level	SNR
2025-01-22 17:20:13.401398	145.6	10.2	-74.7	0.0
2025-01-22 17:20:14.527038	145.6	10.3	-74.8	0.0
2025-01-22 17:20:15.652957	145.5	10.4	-75.6	0.0
2025-01-22 17:20:16.780002	145.5	10.5	-76.3	0.0
2025-01-22 17:20:17.908655	145.5	10.6	-76.2	0.0
2025-01-22 17:20:19.034865	145.4	10.7	-74.4	0.0
2025-01-22 17:20:20.160887	145.4	10.8	-74.4	0.0
2025-01-22 17:20:21.286427	145.4	10.9	-75.5	0.0
2025-01-22 17:20:22.412973	145.3	11.0	-74.7	0.0
2025-01-22 17:20:23.540430	145.3	11.1	-75.4	0.0
2025-01-22 17:20:24.667740	145.3	11.2	-75.0	0.0
2025-01-22 17:20:25.793048	145.2	11.3	-74.3	0.0
2025-01-22 17:20:26.919554	145.2	11.4	-75.3	0.0
2025-01-22 17:20:28.046971	145.1	11.5	-75.2	0.0
2025-01-22 17:20:29.173494	145.1	11.6	-74.5	0.0
2025-01-22 17:20:30.301200	145.1	11.7	-74.3	0.0
2025-01-22 17:20:31.429313	145.0	11.8	-75.0	0.0
2025-01-22 17:20:32.555049	145.0	11.9	-74.9	0.0
2025-01-22 17:20:33.681279	144.9	12.0	-75.6	0.0
2025-01-22 17:20:34.806635	144.9	12.1	-75.8	0.0
2025-01-22 17:20:35.930939	144.9	12.2	-75.5	0.0
2025-01-22 17:20:37.055758	144.8	12.3	-75.8	0.0
2025-01-22 17:20:38.180703	144.8	12.4	-75.7	0.0
2025-01-22 17:20:39.306947	144.7	12.5	-75.7	0.0
2025-01-22 17:20:40.433654	144.7	12.7	-74.6	0.0
2025-01-22 17:20:41.560059	144.6	12.8	-77.2	0.0
2025-01-22 17:20:42.687024	144.6	12.9	-76.3	0.0
2025-01-22 17:20:43.813712	144.6	13.0	-76.7	0.0
2025-01-22 17:20:44.940994	144.5	13.1	-76.3	0.0
2025-01-22 17:20:46.068781	144.5	13.2	-76.5	0.0
2025-01-22 17:20:47.196954	144.4	13.3	-75.6	0.0
2025-01-22 17:20:48.323167	144.4	13.4	-76.0	0.0
2025-01-22 17:20:49.449542	144.3	13.5	-75.2	0.0
2025-01-22 17:20:50.576410	144.3	13.6	-75.5	0.0
2025-01-22 17:20:51.703498	144.2	13.8	-76.2	0.0
2025-01-22 17:20:52.830444	144.2	13.9	-76.2	0.0
2025-01-22 17:20:53.955375	144.2	14.0	-76.8	0.0
2025-01-22 17:20:55.081459	144.1	14.1	-75.9	0.0
2025-01-22 17:20:56.207630	144.1	14.2	-76.5	0.0
2025-01-22 17:20:57.333716	144.0	14.3	-76.5	0.0
2025-01-22 17:20:58.459957	144.0	14.4	-76.8	0.0
2025-01-22 17:20:59.587889	143.9	14.6	-76.2	0.0
2025-01-22 17:21:00.713695	143.9	14.7	-75.8	0.0
2025-01-22 17:21:01.839360	143.8	14.8	-76.4	0.0
2025-01-22 17:21:02.966602	143.8	14.9	-75.7	0.0
2025-01-22 17:21:04.092666	143.7	15.0	-76.8	0.0
2025-01-22 17:21:05.220322	143.7	15.2	-77.0	0.0
2025-01-22 17:21:06.349442	143.6	15.3	-76.5	0.0
2025-01-22 17:21:07.475136	143.6	15.4	-76.4	0.0
2025-01-22 17:21:08.602457	143.5	15.5	-77.1	0.0
2025-01-22 17:21:09.728165	143.5	15.6	-77.8	0.0
2025-01-22 17:21:10.854494	143.4	15.8	-76.9	0.0
2025-01-22 17:21:11.980940	143.4	15.9	-76.2	0.0
2025-01-22 17:21:13.109105	143.3	16.0	-75.6	0.0
2025-01-22 17:21:14.235102	143.2	16.1	-77.7	0.0
2025-01-22 17:21:15.361201	143.2	16.3	-76.2	0.0
2025-01-22 17:21:16.488213	143.1	16.4	-76.8	0.0
2025-01-22 17:21:17.614592	143.1	16.5	-77.3	0.0
2025-01-22 17:21:18.743470	143.0	16.6	-76.2	0.0
2025-01-22 17:21:19.868188	143.0	16.8	-75.9	0.0
2025-01-22 17:21:20.995489	142.9	16.9	-77.0	0.0
2025-01-22 17:21:22.120295	142.8	17.0	-76.4	0.0
2025-01-22 17:21:23.247798	142.8	17.1	-76.0	0.0
2025-01-22 17:21:24.375253	142.7	17.3	-76.1	0.0
2025-01-22 17:21:25.500684	142.7	17.4	-76.2	0.0
2025-01-22 17:21:26.625097	142.6	17.5	-75.2	0.0
2025-01-22 17:21:27.751407	142.6	17.7	-76.8	0.0
2025-01-22 17:21:28.879894	142.5	17.8	-77.2	0.0
2025-01-22 17:21:30.005040	142.4	17.9	-76.3	0.0
2025-01-22 17:21:31.131276	142.4	18.1	-74.6	0.0
2025-01-22 17:21:32.258091	142.3	18.2	-76.4	0.0
2025-01-22 17:21:33.386028	142.2	18.3	-75.8	0.0
2025-01-22 17:21:34.512839	142.2	18.5	-74.9	0.0
2025-01-22 17:21:35.638285	142.1	18.6	-74.9	0.0
2025-01-22 17:21:36.764278	142.0	18.7	-75.2	0.0
2025-01-22 17:21:37.890876	142.0	18.9	-74.1	0.0
2025-01-22 17:21:39.016339	141.9	19.0	-74.5	0.0
2025-01-22 17:21:40.143275	141.8	19.2	-75.1	0.0
2025-01-22 17:21:41.269025	141.8	19.3	-75.0	0.0
2025-01-22 17:21:42.395916	141.7	19.4	-75.2	0.0
2025-01-22 17:21:43.523963	141.6	19.6	-75.6	0.0
2025-01-22 17:21:44.649875	141.6	19.7	-75.7	0.0
2025-01-22 17:21:45.776440	141.5	19.9	-75.5	0.0
2025-01-22 17:21:46.902124	141.4	20.0	-75.4	0.0
2025-01-22 17:21:48.029100	141.4	20.2	-74.9	0.0
2025-01-22 17:21:49.157446	141.3	20.3	-75.0	0.0
2025-01-22 17:21:50.282142	141.2	20.4	-75.0	0.0
2025-01-22 17:21:51.409736	141.1	20.6	-75.1	0.0
2025-01-22 17:21:52.535655	141.1	20.7	-75.2	0.0
2025-01-22 17:21:53.661047	141.0	20.9	-76.0	0.0
2025-01-22 17:21:54.788601	140.9	21.0	-74.8	0.0
2025-01-22 17:21:55.914258	140.8	21.2	-75.5	0.0
2025-01-22 17:21:57.042510	140.8	21.3	-76.1	0.0
2025-01-22 17:21:58.169954	140.7	21.5	-74.6	0.0
2025-01-22 17:21:59.295634	140.6	21.6	-74.2	0.0
2025-01-22 17:22:00.421849	140.5	21.8	-74.1	0.0
2025-01-22 17:22:01.547702	140.4	22.0	-75.1	0.0
2025-01-22 17:22:02.675903	140.4	22.1	-75.0	0.0
2025-01-22 17:22:03.802837	140.3	22.3	-74.9	0.0
2025-01-22 17:22:04.930706	140.2	22.4	-75.4	0.0
2025-01-22 17:22:06.056492	140.1	22.6	-75.1	0.0
2025-01-22 17:22:07.182920	140.0	22.7	-75.1	0.0
2025-01-22 17:22:08.307879	139.9	22.9	-74.8	0.0
2025-01-22 17:22:09.434787	139.9	23.1	-74.8	0.0
2025-01-22 17:22:10.562694	139.8	23.2	-74.9	0.0
2025-01-22 17:22:11.691267	139.7	23.4	-74.5	0.0
2025-01-22 17:22:12.819229	139.6	23.6	-73.9	0.0
2025-01-22 17:22:13.946691	139.5	23.7	-75.5	0.0
2025-01-22 17:22:15.073849	139.4	23.9	-74.5	0.0
2025-01-22 17:22:16.199422	139.3	24.0	-75.5	0.0
2025-01-22 17:22:17.327058	139.2	24.2	-75.0	0.0
2025-01-22 17:22:18.453672	139.1	24.4	-75.6	0.0
2025-01-22 17:22:19.581877	139.0	24.6	-76.1	0.0
2025-01-22 17:22:20.707680	138.9	24.7	-75.3	0.0
2025-01-22 17:22:21.833439	138.8	24.9	-75.6	0.0
2025-01-22 17:22:22.962380	138.7	25.1	-75.4	0.0
2025-01-22 17:22:24.089225	138.6	25.2	-75.6	0.0
2025-01-22 17:22:25.216124	138.5	25.4	-75.6	0.0
2025-01-22 17:22:26.342772	138.4	25.6	-75.6	0.0
2025-01-22 17:22:27.469497	138.3	25.8	-75.1	0.0
2025-01-22 17:22:28.596762	138.2	26.0	-75.2	0.0
2025-01-22 17:22:29.722582	138.1	26.1	-76.4	0.0
2025-01-22 17:22:30.848026	138.0	26.3	-75.5	0.0
2025-01-22 17:22:31.975425	137.9	26.5	-74.9	0.0
2025-01-22 17:22:33.105391	137.8	26.7	-76.5	0.0
2025-01-22 17:22:34.230371	137.7	26.9	-75.9	0.0
2025-01-22 17:22:35.355608	137.6	27.0	-76.1	0.0
2025-01-22 17:22:36.481839	137.4	27.2	-77.1	0.0
2025-01-22 17:22:37.609202	137.3	27.4	-76.9	0.0
2025-01-22 17:22:38.738159	137.2	27.6	-75.4	0.0
2025-01-22 17:22:39.864465	137.1	27.8	-76.6	0.0
2025-01-22 17:22:40.988466	137.0	28.0	-75.9	0.0
2025-01-22 17:22:42.114697	136.9	28.2	-76.4	0.0
2025-01-22 17:22:43.240561	136.7	28.4	-75.9	0.0
2025-01-22 17:22:44.369707	136.6	28.6	-77.1	0.0
2025-01-22 17:22:45.496454	136.5	28.8	-76.6	0.0
2025-01-22 17:22:46.625006	136.4	29.0	-75.2	0.0
2025-01-22 17:22:47.751418	136.2	29.2	-75.8	0.0
2025-01-22 17:22:48.877513	136.1	29.4	-77.3	0.0
2025-01-22 17:22:50.005009	136.0	29.6	-76.9	0.0
2025-01-22 17:22:51.133324	135.8	29.8	-76.0	0.0
2025-01-22 17:22:52.261293	135.7	30.0	-74.8	0.0
2025-01-22 17:22:53.388349	135.6	30.2	-76.2	0.0
2025-01-22 17:22:54.516255	135.4	30.4	-75.4	0.0
2025-01-22 17:22:55.644626	135.3	30.6	-75.2	0.0
2025-01-22 17:22:56.770159	135.1	30.8	-74.7	0.0
2025-01-22 17:22:57.895016	135.0	31.0	-75.5	0.0
2025-01-22 17:22:59.022460	134.8	31.2	-75.8	0.0
2025-01-22 17:23:00.149723	134.7	31.4	-75.7	0.0
2025-01-22 17:23:01.277094	134.5	31.6	-74.3	0.0
2025-01-22 17:23:02.402608	134.4	31.8	-74.1	0.0
2025-01-22 17:23:03.529078	134.2	32.1	-74.4	0.0
2025-01-22 17:23:04.656524	134.1	32.3	-76.4	0.0
2025-01-22 17:23:05.782581	133.9	32.5	-75.8	0.0
2025-01-22 17:23:06.909130	133.8	32.7	-73.8	0.0
2025-01-22 17:23:08.038167	133.6	32.9	-75.5	0.0
2025-01-22 17:23:09.164025	133.4	33.2	-74.6	0.0
2025-01-22 17:23:10.290385	133.3	33.4	-72.9	0.0
2025-01-22 17:23:11.419816	133.1	33.6	-72.1	0.0
2025-01-22 17:23:12.544209	132.9	33.8	-73.0	0.0
2025-01-22 17:23:13.670780	132.7	34.1	-73.0	0.0
2025-01-22 17:23:14.798038	132.6	34.3	-72.6	0.0
2025-01-22 17:23:15.923410	132.4	34.5	-71.6	0.0
2025-01-22 17:23:17.050879	132.2	34.8	-71.5	0.0
2025-01-22 17:23:18.177730	132.0	35.0	-71.0	0.0
2025-01-22 17:23:19.302395	131.8	35.2	-71.0	0.0
2025-01-22 17:23:20.430935	131.6	35.5	-71.2	0.0
2025-01-22 17:23:21.556516	131.4	35.7	-72.6	0.0
2025-01-22 17:23:22.683165	131.2	35.9	-70.9	0.0
2025-01-22 17:23:23.809388	131.0	36.2	-69.6	0.0
2025-01-22 17:23:24.939206	130.8	36.4	-69.9	0.0
2025-01-22 17:23:26.066038	130.6	36.7	-70.1	0.0
2025-01-22 17:23:27.191209	130.4	36.9	-70.1	0.0
2025-01-22 17:23:28.317877	130.2	37.2	-72.7	0.0
2025-01-22 17:23:29.444410	130.0	37.4	-69.1	0.0
2025-01-22 17:23:30.570743	129.8	37.7	-69.1	0.0
2025-01-22 17:23:31.697888	129.6	37.9	-71.3	0.0
2025-01-22 17:23:32.824482	129.3	38.2	-73.1	0.0
2025-01-22 17:23:33.950601	129.1	38.4	-71.5	0.0
2025-01-22 17:23:35.076980	128.9	38.7	-71.6	0.0
2025-01-22 17:23:36.202762	128.6	38.9	-70.2	0.0
2025-01-22 17:23:37.330066	128.4	39.2	-74.3	0.0
2025-01-22 17:23:38.456166	128.1	39.4	-71.1	0.0
2025-01-22 17:23:39.582242	127.9	39.7	-71.1	0.0
2025-01-22 17:23:40.708804	127.6	40.0	-67.3	0.0
2025-01-22 17:23:41.836218	127.4	40.2	-70.5	0.0
2025-01-22 17:23:42.963927	127.1	40.5	-68.0	0.0
2025-01-22 17:23:44.089020	126.9	40.8	-66.9	0.0
2025-01-22 17:23:45.216510	126.6	41.0	-68.3	0.0
2025-01-22 17:23:46.342752	126.3	41.3	-67.8	0.0
2025-01-22 17:23:47.467735	126.0	41.6	-68.2	0.0
2025-01-22 17:23:48.594856	125.7	41.8	-66.8	0.0
2025-01-22 17:23:49.719387	125.5	42.1	-67.4	0.0
2025-01-22 17:23:50.847969	125.2	42.4	-67.9	0.0
2025-01-22 17:23:51.976324	124.9	42.6	-68.2	0.0
2025-01-22 17:23:53.102174	124.6	42.9	-69.1	0.0
2025-01-22 17:23:54.230166	124.2	43.2	-66.9	0.0
2025-01-22 17:23:55.356388	123.9	43.5	-68.3	0.0
2025-01-22 17:23:56.482828	123.6	43.8	-67.6	0.0
2025-01-22 17:23:57.610463	123.3	44.0	-68.6	0.0
2025-01-22 17:23:58.735761	123.0	44.3	-68.9	0.0
2025-01-22 17:23:59.861689	122.6	44.6	-68.3	0.0
2025-01-22 17:24:00.988426	122.3	44.9	-67.2	0.0
2025-01-22 17:24:02.114787	121.9	45.2	-69.4	0.0
2025-01-22 17:24:03.242390	121.6	45.4	-68.2	0.0
2025-01-22 17:24:04.368207	121.2	45.7	-68.9	0.0
2025-01-22 17:24:05.496349	120.8	46.0	-69.4	0.0
2025-01-22 17:24:06.625265	120.5	46.3	-68.4	0.0
2025-01-22 17:24:07.752862	120.1	46.6	-70.8	0.0
2025-01-22 17:24:08.879795	119.7	46.9	-68.2	0.0
2025-01-22 17:24:10.007418	119.3	47.2	-68.1	0.0
2025-01-22 17:24:11.134393	118.9	47.4	-68.7	0.0
2025-01-22 17:24:12.261894	118.5	47.7	-69.2	0.0
2025-01-22 17:24:13.389044	118.0	48.0	-69.1	0.0
2025-01-22 17:24:14.517601	117.6	48.3	-69.8	0.0
2025-01-22 17:24:15.644502	117.2	48.6	-73.7	0.0
2025-01-22 17:24:16.771930	116.7	48.9	-70.5	0.0
2025-01-22 17:24:17.899707	116.3	49.2	-71.2	0.0
2025-01-22 17:24:19.027570	115.8	49.5	-74.2	0.0
2025-01-22 17:24:20.154364	115.4	49.7	-74.2	0.0
2025-01-22 17:24:21.282972	114.9	50.0	-71.8	0.0
2025-01-22 17:24:22.411193	114.4	50.3	-71.1	0.0
2025-01-22 17:24:23.537162	113.9	50.6	-73.3	0.0
2025-01-22 17:24:24.663351	113.4	50.9	-74.1	0.0
2025-01-22 17:24:25.791575	112.9	51.2	-71.9	0.0
2025-01-22 17:24:26.919057	112.3	51.5	-70.9	0.0
2025-01-22 17:24:28.047533	111.8	51.7	-73.3	0.0
2025-01-22 17:24:29.175747	111.2	52.0	-74.3	0.0
2025-01-22 17:24:30.301578	110.7	52.3	-73.2	0.0
2025-01-22 17:24:31.429708	110.1	52.6	-72.8	0.0
2025-01-22 17:24:32.553594	109.5	52.9	-76.4	0.0
2025-01-22 17:24:33.682185	108.9	53.1	-74.5	0.0
2025-01-22 17:24:34.807418	108.3	53.4	-74.1	0.0
2025-01-22 17:24:35.934589	107.7	53.7	-76.2	0.0
2025-01-22 17:24:37.063127	107.1	54.0	-75.3	0.0
2025-01-22 17:24:38.188174	106.5	54.2	-74.7	0.0
2025-01-22 17:24:39.314762	105.8	54.5	-76.3	0.0
2025-01-22 17:24:40.440405	105.1	54.8	-74.1	0.0
2025-01-22 17:24:41.568331	104.5	55.0	-74.3	0.0
2025-01-22 17:24:42.695151	103.8	55.3	-74.8	0.0
2025-01-22 17:24:43.823038	103.1	55.6	-75.5	0.0
2025-01-22 17:24:44.951663	102.4	55.8	-77.3	0.0
2025-01-22 17:24:46.078211	101.6	56.1	-75.8	0.0
2025-01-22 17:24:47.205307	100.9	56.3	-76.5	0.0
2025-01-22 17:24:48.330259	100.1	56.5	-77.6	0.0
2025-01-22 17:24:49.457880	99.4	56.8	-78.0	0.0
2025-01-22 17:24:50.585046	98.6	57.0	-76.3	0.0
2025-01-22 17:24:51.712410	97.8	57.3	-76.1	0.0
2025-01-22 17:24:52.837789	97.0	57.5	-77.5	0.0
2025-01-22 17:24:53.962868	96.2	57.7	-78.0	0.0
2025-01-22 17:24:55.090536	95.4	57.9	-75.2	0.0
2025-01-22 17:24:56.217279	94.5	58.1	-75.5	0.0
2025-01-22 17:24:57.344924	93.6	58.3	-77.0	0.0
2025-01-22 17:24:58.472301	92.8	58.5	-75.6	0.0
2025-01-22 17:24:59.599036	91.9	58.7	-76.9	0.0
2025-01-22 17:25:00.724510	91.0	58.9	-76.5	0.0
2025-01-22 17:25:01.850953	90.1	59.1	-75.8	0.0
2025-01-22 17:25:02.976616	89.1	59.3	-76.0	0.0
2025-01-22 17:25:04.102427	88.2	59.5	-76.7	0.0
2025-01-22 17:25:05.227787	87.3	59.6	-78.1	0.0
2025-01-22 17:25:06.354676	86.3	59.8	-77.4	0.0
2025-01-22 17:25:07.480834	85.3	59.9	-76.9	0.0
2025-01-22 17:25:08.609194	84.3	60.1	-78.4	0.0
2025-01-22 17:25:09.734861	83.3	60.2	-77.0	0.0
2025-01-22 17:25:10.861157	82.3	60.3	-75.4	0.0
2025-01-22 17:25:11.987386	81.3	60.5	-76.5	0.0
2025-01-22 17:25:13.114710	80.3	60.6	-76.2	0.0
2025-01-22 17:25:14.239488	79.3	60.7	-77.2	0.0
2025-01-22 17:25:15.365844	78.2	60.8	-76.8	0.0
2025-01-22 17:25:16.492210	77.2	60.9	-76.5	0.0
2025-01-22 17:25:17.619309	76.1	60.9	-77.2	0.0
2025-01-22 17:25:18.745967	75.1	61.0	-77.1	0.0
2025-01-22 17:25:19.873433	74.0	61.1	-76.5	0.0
2025-01-22 17:25:20.999177	72.9	61.1	-76.2	0.0
2025-01-22 17:25:22.125732	71.8	61.2	-76.7	0.0
2025-01-22 17:25:23.251371	70.8	61.2	-76.0	0.0
2025-01-22 17:25:24.377440	69.7	61.2	-76.5	0.0
2025-01-22 17:25:25.503330	68.6	61.3	-75.7	0.0
2025-01-22 17:25:26.630696	67.5	61.3	-76.3	0.0
2025-01-22 17:25:27.757057	66.4	61.3	-76.7	0.0
2025-01-22 17:25:28.883316	65.3	61.3	-75.9	0.0
2025-01-22 17:25:30.010607	64.2	61.2	-76.1	0.0
2025-01-22 17:25:31.136972	63.2	61.2	-76.0	0.0
2025-01-22 17:25:32.264018	62.1	61.2	-76.1	0.0
2025-01-22 17:25:33.389773	61.0	61.1	-75.6	0.0
2025-01-22 17:25:34.515623	59.9	61.1	-76.1	0.0
2025-01-22 17:25:35.644078	58.8	61.0	-76.0	0.3
2025-01-22 17:25:36.770474	57.8	61.0	-75.8	0.0
2025-01-22 17:25:37.896565	56.7	60.9	-76.2	0.0
2025-01-22 17:25:39.024630	55.7	60.8	-76.1	0.0
2025-01-22 17:25:40.150030	54.6	60.7	-76.0	0.0
2025-01-22 17:25:41.277014	53.6	60.6	-76.6	0.0
2025-01-22 17:25:42.404704	52.6	60.5	-76.6	0.0
2025-01-22 17:25:43.531912	51.6	60.4	-76.7	0.6
2025-01-22 17:25:44.660544	50.6	60.2	-76.0	0.0
2025-01-22 17:25:45.788774	49.6	60.1	-75.7	0.0
2025-01-22 17:25:46.915659	48.6	60.0	-76.4	0.0
2025-01-22 17:25:48.041463	47.6	59.8	-76.8	0.0
2025-01-22 17:25:49.166727	46.6	59.6	-76.9	0.0
2025-01-22 17:25:50.292115	45.7	59.5	-76.3	0.0
2025-01-22 17:25:51.420684	44.7	59.3	-76.0	0.0
2025-01-22 17:25:52.547514	43.8	59.1	-76.1	0.0
2025-01-22 17:25:53.674056	42.9	58.9	-75.8	0.0
2025-01-22 17:25:54.800913	42.0	58.8	-76.3	0.0
2025-01-22 17:25:55.928392	41.1	58.6	-76.9	0.0
2025-01-22 17:25:57.055256	40.2	58.4	-76.9	0.0
2025-01-22 17:25:58.182526	39.4	58.2	-77.1	0.0
2025-01-22 17:25:59.308923	38.5	57.9	-76.5	0.0
2025-01-22 17:26:00.435760	37.7	57.7	-76.7	0.0
2025-01-22 17:26:01.562215	36.9	57.5	-76.4	0.0
2025-01-22 17:26:02.689483	36.1	57.3	-75.9	0.0
2025-01-22 17:26:03.817470	35.3	57.1	-75.3	0.0
2025-01-22 17:26:04.945422	34.5	56.8	-75.3	0.0
2025-01-22 17:26:06.070738	33.7	56.6	-75.5	0.0
2025-01-22 17:26:07.198177	33.0	56.3	-75.8	0.0
2025-01-22 17:26:08.326261	32.2	56.1	-76.1	0.0
2025-01-22 17:26:09.455129	31.5	55.8	-74.7	0.0
2025-01-22 17:26:10.583838	30.8	55.6	-75.3	0.0
2025-01-22 17:26:11.709810	30.1	55.3	-76.1	0.0
2025-01-22 17:26:12.838414	29.4	55.1	-76.2	0.0
2025-01-22 17:26:13.963825	28.7	54.8	-75.8	0.0
2025-01-22 17:26:15.089880	28.1	54.5	-76.5	0.0
2025-01-22 17:26:16.215770	27.4	54.3	-76.3	0.0
2025-01-22 17:26:17.341353	26.8	54.0	-76.8	0.0
2025-01-22 17:26:18.468607	26.2	53.7	-76.1	0.0
2025-01-22 17:26:19.597198	25.5	53.5	-76.8	0.0
2025-01-22 17:26:20.722614	24.9	53.2	-77.0	0.0
2025-01-22 17:26:21.849537	24.4	52.9	-76.5	0.0
2025-01-22 17:26:22.977044	23.8	52.6	-76.0	0.0
2025-01-22 17:26:24.102013	23.2	52.4	-75.2	0.0
2025-01-22 17:26:25.227428	22.6	52.1	-76.6	0.0
2025-01-22 17:26:26.355358	22.1	51.8	-76.0	0.0
2025-01-22 17:26:27.480621	21.6	51.5	-76.2	0.0
2025-01-22 17:26:28.607191	21.0	51.2	-76.0	0.0
2025-01-22 17:26:29.733274	20.5	51.0	-74.4	0.0
2025-01-22 17:26:30.860460	20.0	50.7	-76.0	0.0
2025-01-22 17:26:31.990250	19.5	50.4	-74.1	0.0
2025-01-22 17:26:33.116359	19.0	50.1	-74.8	0.0
2025-01-22 17:26:34.244138	18.5	49.8	-74.8	0.0
2025-01-22 17:26:35.370527	18.1	49.5	-75.0	0.0
2025-01-22 17:26:36.497392	17.6	49.2	-74.8	0.0
2025-01-22 17:26:37.625104	17.2	48.9	-74.1	0.0
2025-01-22 17:26:38.751808	16.7	48.7	-74.9	0.0
2025-01-22 17:26:39.879360	16.3	48.4	-75.4	0.0
2025-01-22 17:26:41.007195	15.8	48.1	-74.7	0.0
2025-01-22 17:26:42.135232	15.4	47.8	-74.4	0.0
2025-01-22 17:26:43.259331	15.0	47.5	-74.8	0.0
2025-01-22 17:26:44.386108	14.6	47.2	-74.9	0.0
2025-01-22 17:26:45.511473	14.2	46.9	-71.7	0.0
2025-01-22 17:26:46.638238	13.8	46.7	-72.7	0.0
2025-01-22 17:26:47.765602	13.4	46.4	-74.5	0.0
2025-01-22 17:26:48.892051	13.1	46.1	-75.1	0.0
2025-01-22 17:26:50.018790	12.7	45.8	-71.3	0.0
2025-01-22 17:26:51.146711	12.3	45.5	-75.0	0.0
2025-01-22 17:26:52.275621	12.0	45.2	-75.4	0.0
2025-01-22 17:26:53.402074	11.6	45.0	-73.2	0.0
2025-01-22 17:26:54.528583	11.3	44.7	-73.1	0.0
2025-01-22 17:26:55.654934	10.9	44.4	-72.1	0.0
2025-01-22 17:26:56.783334	10.6	44.1	-73.9	0.0
2025-01-22 17:26:57.910434	10.3	43.8	-71.5	0.0
2025-01-22 17:26:59.037820	10.0	43.6	-73.6	0.0
2025-01-22 17:27:00.165165	9.6	43.3	-74.3	0.0
2025-01-22 17:27:01.294543	9.3	43.0	-75.0	0.0
2025-01-22 17:27:02.422785	9.0	42.7	-73.9	0.0
2025-01-22 17:27:03.549740	8.7	42.5	-74.3	0.0
2025-01-22 17:27:04.678224	8.4	42.2	-73.2	0.0
2025-01-22 17:27:05.804990	8.1	41.9	-73.1	0.0
2025-01-22 17:27:06.929963	7.9	41.7	-74.2	0.0
2025-01-22 17:27:08.057726	7.6	41.4	-72.2	0.0
2025-01-22 17:27:09.185850	7.3	41.1	-71.9	0.0
2025-01-22 17:27:10.312163	7.0	40.9	-69.8	0.0
2025-01-22 17:27:11.438246	6.8	40.6	-73.5	0.0
2025-01-22 17:27:12.565449	6.5	40.3	-72.8	0.0
2025-01-22 17:27:13.692671	6.3	40.1	-70.4	0.0
2025-01-22 17:27:14.819607	6.0	39.8	-73.1	0.0
2025-01-22 17:27:15.946460	5.8	39.5	-73.2	0.0
2025-01-22 17:27:17.072035	5.5	39.3	-71.0	0.0
2025-01-22 17:27:18.200433	5.3	39.0	-68.9	0.0
2025-01-22 17:27:19.327350	5.0	38.8	-71.9	0.0
2025-01-22 17:27:20.453156	4.8	38.5	-70.0	0.0
2025-01-22 17:27:21.580972	4.6	38.3	-71.1	0.0
2025-01-22 17:27:22.708228	4.3	38.0	-71.9	0.0
2025-01-22 17:27:23.834478	4.1	37.8	-68.0	0.0
2025-01-22 17:27:24.961943	3.9	37.5	-68.6	0.0
2025-01-22 17:27:26.088348	3.7	37.3	-71.5	0.0
2025-01-22 17:27:27.216266	3.5	37.0	-70.6	0.0
2025-01-22 17:27:28.344634	3.3	36.8	-66.8	0.0
2025-01-22 17:27:29.470765	3.1	36.5	-67.3	0.0
2025-01-22 17:27:30.596806	2.9	36.3	-69.5	0.0
2025-01-22 17:27:31.724320	2.7	36.1	-69.1	0.0
2025-01-22 17:27:32.849560	2.5	35.8	-67.7	0.0
2025-01-22 17:27:33.977074	2.3	35.6	-67.7	0.0
2025-01-22 17:27:35.100888	2.1	35.3	-67.5	0.0
2025-01-22 17:27:36.228837	1.9	35.1	-69.5	0.0
2025-01-22 17:27:37.355132	1.7	34.9	-67.5	0.0
2025-01-22 17:27:38.481594	1.5	34.6	-67.5	0.0
2025-01-22 17:27:39.609026	1.3	34.4	-65.5	0.0
2025-01-22 17:27:40.735170	1.2	34.2	-68.0	0.0
2025-01-22 17:27:41.862110	1.0	34.0	-67.9	0.0
2025-01-22 17:27:42.989287	0.8	33.7	-66.0	0.0
2025-01-22 17:27:44.116656	0.6	33.5	-67.3	0.0
2025-01-22 17:27:45.242497	0.5	33.3	-68.6	0.0
2025-01-22 17:27:46.369779	0.3	33.1	-68.4	0.0
2025-01-22 17:27:47.497394	0.1	32.8	-66.0	0.0
2025-01-22 17:27:48.623449	360.0	32.6	-67.1	0.0
2025-01-22 17:27:49.751874	359.8	32.4	-69.1	0.0
2025-01-22 17:27:50.879265	359.7	32.2	-70.4	0.0
2025-01-22 17:27:52.005904	359.5	32.0	-69.7	0.0
2025-01-22 17:27:53.132598	359.4	31.8	-68.8	0.0
2025-01-22 17:27:54.261206	359.2	31.5	-68.6	0.0
2025-01-22 17:27:55.388417	359.1	31.3	-67.6	0.0
2025-01-22 17:27:56.515668	358.9	31.1	-68.5	0.0
2025-01-22 17:27:57.642793	358.8	30.9	-70.2	0.0
2025-01-22 17:27:58.768918	358.6	30.7	-67.5	0.0
2025-01-22 17:27:59.896560	358.5	30.5	-66.6	0.0
2025-01-22 17:28:01.023051	358.3	30.3	-66.7	0.0
2025-01-22 17:28:02.150152	358.2	30.1	-69.5	0.0
2025-01-22 17:28:03.276717	358.1	29.9	-68.4	0.0
2025-01-22 17:28:04.403245	357.9	29.7	-69.2	0.0
2025-01-22 17:28:05.529883	357.8	29.5	-65.2	0.0
2025-01-22 17:28:06.657585	357.7	29.3	-64.9	0.0
2025-01-22 17:28:07.784224	357.6	29.1	-65.4	0.0
2025-01-22 17:28:08.910299	357.4	28.9	-66.0	0.0
2025-01-22 17:28:10.037024	357.3	28.7	-65.7	0.0
2025-01-22 17:28:11.162982	357.2	28.5	-63.9	0.0
2025-01-22 17:28:12.290263	357.1	28.3	-65.5	0.0
2025-01-22 17:28:13.416184	356.9	28.1	-65.5	0.0
2025-01-22 17:28:14.545746	356.8	27.9	-65.4	0.0
2025-01-22 17:28:15.672830	356.7	27.7	-64.4	0.0
2025-01-22 17:28:16.799184	356.6	27.6	-67.2	0.0
2025-01-22 17:28:17.925441	356.5	27.4	-66.0	0.0
2025-01-22 17:28:19.053483	356.4	27.2	-63.5	0.0
2025-01-22 17:28:20.179162	356.2	27.0	-73.6	0.0
2025-01-22 17:28:21.306215	356.1	26.8	-71.0	0.0
2025-01-22 17:28:22.435558	356.0	26.6	-70.6	0.0
2025-01-22 17:28:23.562760	355.9	26.5	-72.7	0.0
2025-01-22 17:28:24.689768	355.8	26.3	-69.2	0.0
2025-01-22 17:28:25.816226	355.7	26.1	-67.4	0.0
2025-01-22 17:28:26.944697	355.6	25.9	-71.6	0.0
2025-01-22 17:28:28.070372	355.5	25.7	-68.5	0.0
2025-01-22 17:28:29.197546	355.4	25.6	-71.1	0.0
2025-01-22 17:28:30.325868	355.3	25.4	-70.2	0.0
2025-01-22 17:28:31.453667	355.2	25.2	-70.7	0.0
2025-01-22 17:28:32.581480	355.1	25.0	-65.9	0.0
2025-01-22 17:28:33.707218	355.0	24.9	-67.3	0.0
2025-01-22 17:28:34.834311	354.9	24.7	-70.4	0.0
2025-01-22 17:28:35.959835	354.8	24.5	-69.4	0.0
2025-01-22 17:28:37.086042	354.7	24.4	-70.8	0.0
2025-01-22 17:28:38.213410	354.6	24.2	-70.6	0.0
2025-01-22 17:28:39.340410	354.5	24.0	-70.1	0.0
2025-01-22 17:28:40.466944	354.4	23.9	-69.8	0.0
2025-01-22 17:28:41.595899	354.3	23.7	-64.2	0.0
2025-01-22 17:28:42.722933	354.3	23.5	-70.2	0.0
2025-01-22 17:28:43.849369	354.2	23.4	-68.1	0.0
2025-01-22 17:28:44.976995	354.1	23.2	-68.2	0.0
2025-01-22 17:28:46.103254	354.0	23.1	-70.2	0.0
2025-01-22 17:28:47.231868	353.9	22.9	-70.6	0.0
2025-01-22 17:28:48.358738	353.8	22.7	-72.2	0.0
2025-01-22 17:28:49.485523	353.7	22.6	-69.9	0.0
2025-01-22 17:28:50.611100	353.7	22.4	-65.9	0.0
2025-01-22 17:28:51.738388	353.6	22.3	-71.1	0.0
2025-01-22 17:28:52.864516	353.5	22.1	-71.5	0.0
2025-01-22 17:28:53.991589	353.4	22.0	-70.5	0.0
2025-01-22 17:28:55.118105	353.3	21.8	-66.9	0.0
2025-01-22 17:28:56.245217	353.3	21.6	-67.5	0.0
2025-01-22 17:28:57.370278	353.2	21.5	-68.8	0.0
2025-01-22 17:28:58.496550	353.1	21.3	-69.7	0.0
2025-01-22 17:28:59.623032	353.0	21.2	-68.5	0.0
2025-01-22 17:29:00.750871	352.9	21.0	-66.8	0.0
2025-01-22 17:29:01.877627	352.9	20.9	-68.4	0.0
2025-01-22 17:29:03.006056	352.8	20.7	-69.2	0.0
2025-01-22 17:29:04.131916	352.7	20.6	-67.4	0.0
2025-01-22 17:29:05.261087	352.7	20.5	-68.4	0.0
2025-01-22 17:29:06.386558	352.6	20.3	-66.8	0.0
2025-01-22 17:29:07.514215	352.5	20.2	-65.7	0.0
2025-01-22 17:29:08.642454	352.4	20.0	-67.3	0.0
2025-01-22 17:29:09.769742	352.4	19.9	-69.9	0.0
2025-01-22 17:29:10.895187	352.3	19.7	-69.7	0.0
2025-01-22 17:29:12.022239	352.2	19.6	-64.2	0.0
2025-01-22 17:29:13.147791	352.2	19.5	-67.1	0.0
2025-01-22 17:29:14.275697	352.1	19.3	-63.6	0.0
2025-01-22 17:29:15.401487	352.0	19.2	-69.9	0.0
2025-01-22 17:29:16.527069	352.0	19.0	-68.4	0.0
2025-01-22 17:29:17.653835	351.9	18.9	-66.7	0.0
2025-01-22 17:29:18.780140	351.8	18.8	-65.8	0.0
2025-01-22 17:29:19.908423	351.8	18.6	-70.5	0.0
2025-01-22 17:29:21.032998	351.7	18.5	-70.7	0.0
2025-01-22 17:29:22.158322	351.6	18.4	-69.0	0.0
2025-01-22 17:29:23.285620	351.6	18.2	-70.0	0.0
2025-01-22 17:29:24.413650	351.5	18.1	-71.6	0.0
2025-01-22 17:29:25.542388	351.5	18.0	-71.9	0.0
2025-01-22 17:29:26.669488	351.4	17.8	-70.7	0.0
2025-01-22 17:29:27.795085	351.3	17.7	-71.9	0.0
2025-01-22 17:29:28.921446	351.3	17.6	-68.9	0.0
2025-01-22 17:29:30.048858	351.2	17.4	-68.9	0.0
2025-01-22 17:29:31.175614	351.2	17.3	-72.6	0.0
2025-01-22 17:29:32.299979	351.1	17.2	-69.6	0.0
2025-01-22 17:29:33.425740	351.1	17.0	-71.0	0.0
2025-01-22 17:29:34.553045	351.0	16.9	-70.7	0.0
2025-01-22 17:29:35.680193	350.9	16.8	-72.0	0.0
2025-01-22 17:29:36.805139	350.9	16.7	-69.8	0.0
2025-01-22 17:29:37.930923	350.8	16.5	-70.0	0.0
2025-01-22 17:29:39.057260	350.8	16.4	-68.5	0.0
2025-01-22 17:29:40.183874	350.7	16.3	-64.7	0.0
2025-01-22 17:29:41.311744	350.7	16.2	-71.3	0.0
2025-01-22 17:29:42.438667	350.6	16.0	-66.1	0.0
2025-01-22 17:29:43.564543	350.6	15.9	-63.0	0.0
2025-01-22 17:29:44.691679	350.5	15.8	-71.9	0.0
2025-01-22 17:29:45.817845	350.5	15.7	-68.3	0.0
2025-01-22 17:29:46.943052	350.4	15.6	-70.3	0.0
2025-01-22 17:29:48.069516	350.4	15.4	-64.1	0.0
2025-01-22 17:29:49.196008	350.3	15.3	-64.4	0.0
2025-01-22 17:29:50.321474	350.3	15.2	-64.3	0.0
2025-01-22 17:29:51.447689	350.2	15.1	-70.3	0.0
2025-01-22 17:29:52.573328	350.2	15.0	-66.0	0.0
2025-01-22 17:29:53.701161	350.1	14.9	-72.2	0.0
2025-01-22 17:29:54.829727	350.1	14.7	-63.7	0.0
2025-01-22 17:29:55.956327	350.0	14.6	-69.9	0.0
2025-01-22 17:29:57.081736	350.0	14.5	-69.4	0.0
2025-01-22 17:29:58.207248	349.9	14.4	-72.8	0.0
2025-01-22 17:29:59.335929	349.9	14.3	-70.6	0.0
2025-01-22 17:30:00.462261	349.8	14.2	-70.9	0.0
2025-01-22 17:30:01.590131	349.8	14.0	-70.0	0.0
2025-01-22 17:30:02.717877	349.7	13.9	-70.4	0.0
2025-01-22 17:30:03.844957	349.7	13.8	-70.9	0.0
2025-01-22 17:30:04.970345	349.7	13.7	-70.2	0.0
2025-01-22 17:30:06.099177	349.6	13.6	-70.6	0.0
2025-01-22 17:30:07.225779	349.6	13.5	-65.4	0.0
2025-01-22 17:30:08.351998	349.5	13.4	-68.6	0.0
2025-01-22 17:30:09.479394	349.5	13.3	-70.0	0.0
2025-01-22 17:30:10.606812	349.4	13.2	-70.2	0.0
2025-01-22 17:30:11.732347	349.4	13.0	-72.2	0.0
2025-01-22 17:30:12.858281	349.3	12.9	-71.4	0.0
2025-01-22 17:30:13.985881	349.3	12.8	-67.9	0.0
2025-01-22 17:30:15.112327	349.3	12.7	-66.8	0.0
2025-01-22 17:30:16.238917	349.2	12.6	-66.4	0.0
2025-01-22 17:30:17.365286	349.2	12.5	-65.2	0.0
2025-01-22 17:30:18.491413	349.1	12.4	-66.7	0.0
2025-01-22 17:30:19.617886	349.1	12.3	-70.7	0.0
2025-01-22 17:30:20.744300	349.1	12.2	-71.8	0.0
2025-01-22 17:30:21.871502	349.0	12.1	-65.9	0.0
2025-01-22 17:30:22.997003	349.0	12.0	-65.4	0.0
2025-01-22 17:30:24.124463	348.9	11.9	-72.0	0.0
2025-01-22 17:30:25.251523	348.9	11.8	-70.9	0.0
2025-01-22 17:30:26.376240	348.9	11.7	-67.6	0.0
2025-01-22 17:30:27.502468	348.8	11.6	-70.0	0.0
2025-01-22 17:30:28.629543	348.8	11.5	-68.7	0.0
2025-01-22 17:30:29.756428	348.8	11.4	-70.6	0.0
2025-01-22 17:30:30.881640	348.7	11.3	-71.0	0.0
2025-01-22 17:30:32.009297	348.7	11.2	-70.0	0.0
2025-01-22 17:30:33.132605	348.6	11.1	-68.9	0.0
2025-01-22 17:30:34.258078	348.6	11.0	-71.3	0.0
2025-01-22 17:30:35.383275	348.6	10.9	-72.3	0.0
2025-01-22 17:30:36.510770	348.5	10.8	-74.6	0.0
2025-01-22 17:30:37.637099	348.5	10.7	-78.2	0.0
2025-01-22 17:30:38.764525	348.5	10.6	-79.1	0.0
2025-01-22 17:30:39.890741	348.4	10.5	-78.9	0.0
2025-01-22 17:30:41.017767	348.4	10.4	-79.4	0.0
2025-01-22 17:30:42.145848	348.4	10.3	-79.0	0.0
2025-01-22 17:30:43.272056	348.3	10.2	-80.2	0.0
2025-01-22 17:30:44.395748	348.3	10.1	-80.4	0.0
#Closed at: 2025-01-22 17:20:06.241879