passes_logs/2025/01/22/planumMaritime01/planumMaritime01__20250122_085341_METEOR-M2_3_rec.log

#Pass ID: 20250122_085341_METEOR-M2 3
#Satellite: METEOR-M2 3
#Configuration: METEOR-M2 3
#Start time: 2025-01-22 08:53:46.542168

#LorettStation: 1.0.0 05.05.2024
#Station: planumMaritime01
#Location: 37.49445 lon 55.92918 lat
#TLE: 1 57166U 23091A   25021.15623468  .00000084  00000+0  55759-4 0  9991
#TLE: 2 57166  98.6840  79.5439 0003509 203.5188 156.5830 14.23970854 81643

#Time	Az	El	Level	SNR
2025-01-22 08:53:48.711420	2.0	10.2	-66.1	0.0
2025-01-22 08:53:49.838337	1.9	10.2	-67.5	0.0
2025-01-22 08:53:50.965777	1.8	10.3	-66.7	0.0
2025-01-22 08:53:52.093079	1.7	10.4	-66.7	0.0
2025-01-22 08:53:53.220203	1.6	10.5	-66.7	0.0
2025-01-22 08:53:54.346701	1.5	10.6	-66.9	0.0
2025-01-22 08:53:55.473207	1.4	10.7	-67.3	0.0
2025-01-22 08:53:56.599318	1.3	10.8	-67.7	0.0
2025-01-22 08:53:57.724279	1.1	10.8	-68.0	0.0
2025-01-22 08:53:58.852134	1.0	10.9	-69.0	0.0
2025-01-22 08:53:59.979049	0.9	11.0	-67.5	0.0
2025-01-22 08:54:01.105741	0.8	11.1	-67.9	0.0
2025-01-22 08:54:02.232152	0.7	11.2	-69.4	0.0
2025-01-22 08:54:03.357327	0.6	11.3	-68.1	0.0
2025-01-22 08:54:04.483637	0.4	11.3	-67.7	0.0
2025-01-22 08:54:05.609759	0.3	11.4	-68.9	0.0
2025-01-22 08:54:06.737318	0.2	11.5	-69.2	0.0
2025-01-22 08:54:07.864780	0.1	11.6	-69.7	0.0
2025-01-22 08:54:08.992125	360.0	11.7	-69.0	0.0
2025-01-22 08:54:10.116384	359.8	11.8	-70.0	0.0
2025-01-22 08:54:11.240549	359.7	11.9	-70.0	0.0
2025-01-22 08:54:12.366460	359.6	12.0	-69.4	0.0
2025-01-22 08:54:13.493258	359.5	12.0	-69.7	0.0
2025-01-22 08:54:14.618723	359.3	12.1	-68.3	0.0
2025-01-22 08:54:15.744411	359.2	12.2	-69.5	0.0
2025-01-22 08:54:16.870031	359.1	12.3	-69.8	0.0
2025-01-22 08:54:17.995499	359.0	12.4	-69.4	0.0
2025-01-22 08:54:19.121921	358.8	12.5	-70.1	0.0
2025-01-22 08:54:20.247329	358.7	12.6	-68.7	0.0
2025-01-22 08:54:21.372341	358.6	12.7	-69.9	0.0
2025-01-22 08:54:22.497839	358.4	12.7	-69.6	0.0
2025-01-22 08:54:23.623937	358.3	12.8	-69.3	0.0
2025-01-22 08:54:24.749460	358.2	12.9	-70.6	0.0
2025-01-22 08:54:25.875139	358.1	13.0	-69.0	0.0
2025-01-22 08:54:27.001185	357.9	13.1	-70.2	0.0
2025-01-22 08:54:28.128702	357.8	13.2	-70.1	0.0
2025-01-22 08:54:29.255085	357.6	13.3	-68.4	0.0
2025-01-22 08:54:30.379988	357.5	13.4	-68.5	0.0
2025-01-22 08:54:31.506070	357.4	13.5	-69.7	0.0
2025-01-22 08:54:32.632236	357.2	13.6	-71.4	0.0
2025-01-22 08:54:33.760303	357.1	13.6	-72.2	0.0
2025-01-22 08:54:34.887338	357.0	13.7	-70.7	0.0
2025-01-22 08:54:36.015349	356.8	13.8	-70.3	0.0
2025-01-22 08:54:37.141670	356.7	13.9	-70.7	0.0
2025-01-22 08:54:38.267998	356.5	14.0	-70.9	0.0
2025-01-22 08:54:39.394436	356.4	14.1	-72.1	0.0
2025-01-22 08:54:40.519253	356.2	14.2	-71.3	0.0
2025-01-22 08:54:41.643818	356.1	14.3	-72.7	0.0
2025-01-22 08:54:42.769233	356.0	14.4	-70.7	0.0
2025-01-22 08:54:43.896193	355.8	14.5	-68.6	0.0
2025-01-22 08:54:45.021983	355.7	14.6	-72.4	0.0
2025-01-22 08:54:46.148570	355.5	14.7	-73.0	0.0
2025-01-22 08:54:47.273243	355.4	14.8	-74.5	0.0
2025-01-22 08:54:48.399232	355.2	14.8	-72.9	0.0
2025-01-22 08:54:49.526732	355.1	14.9	-71.6	0.0
2025-01-22 08:54:50.654330	354.9	15.0	-69.9	0.0
2025-01-22 08:54:51.780954	354.7	15.1	-72.7	0.0
2025-01-22 08:54:52.907131	354.6	15.2	-71.2	0.0
2025-01-22 08:54:54.032172	354.4	15.3	-71.4	0.0
2025-01-22 08:54:55.158096	354.3	15.4	-69.6	0.0
2025-01-22 08:54:56.282163	354.1	15.5	-72.6	0.0
2025-01-22 08:54:57.409226	354.0	15.6	-68.1	0.0
2025-01-22 08:54:58.535290	353.8	15.7	-69.6	0.0
2025-01-22 08:54:59.661628	353.6	15.8	-70.5	0.0
2025-01-22 08:55:00.786415	353.5	15.9	-70.2	0.0
2025-01-22 08:55:01.910357	353.3	16.0	-68.6	0.0
2025-01-22 08:55:03.036067	353.1	16.1	-70.7	0.0
2025-01-22 08:55:04.161329	353.0	16.2	-69.4	0.0
2025-01-22 08:55:05.286968	352.8	16.3	-69.5	0.0
2025-01-22 08:55:06.413337	352.6	16.3	-70.0	0.0
2025-01-22 08:55:07.538203	352.5	16.4	-69.5	0.0
2025-01-22 08:55:08.662339	352.3	16.5	-70.9	0.0
2025-01-22 08:55:09.785863	352.1	16.6	-71.7	0.0
2025-01-22 08:55:10.911008	352.0	16.7	-72.0	0.0
2025-01-22 08:55:12.035833	351.8	16.8	-71.9	0.0
2025-01-22 08:55:13.162557	351.6	16.9	-71.8	0.0
2025-01-22 08:55:14.287101	351.4	17.0	-70.2	0.0
2025-01-22 08:55:15.414944	351.3	17.1	-71.3	0.0
2025-01-22 08:55:16.540423	351.1	17.2	-70.1	0.0
2025-01-22 08:55:17.666975	350.9	17.3	-71.6	0.0
2025-01-22 08:55:18.794110	350.7	17.4	-71.8	0.0
2025-01-22 08:55:19.920337	350.6	17.5	-71.3	0.0
2025-01-22 08:55:21.045292	350.4	17.6	-70.5	0.0
2025-01-22 08:55:22.170647	350.2	17.7	-71.2	0.0
2025-01-22 08:55:23.297538	350.0	17.8	-71.8	0.0
2025-01-22 08:55:24.424062	349.8	17.9	-71.9	0.0
2025-01-22 08:55:25.551660	349.6	18.0	-70.9	0.0
2025-01-22 08:55:26.678227	349.4	18.1	-68.9	0.0
2025-01-22 08:55:27.804034	349.2	18.2	-70.5	0.0
2025-01-22 08:55:28.930282	349.1	18.3	-70.1	0.0
2025-01-22 08:55:30.055149	348.9	18.4	-70.7	0.0
2025-01-22 08:55:31.181485	348.7	18.5	-71.3	0.0
2025-01-22 08:55:32.309968	348.5	18.6	-72.6	0.0
2025-01-22 08:55:33.436477	348.3	18.7	-72.1	0.0
2025-01-22 08:55:34.563408	348.1	18.8	-73.3	0.0
2025-01-22 08:55:35.689337	347.9	18.9	-72.7	0.0
2025-01-22 08:55:36.813482	347.7	19.0	-73.5	0.0
2025-01-22 08:55:37.939065	347.5	19.0	-73.0	0.0
2025-01-22 08:55:39.065936	347.3	19.1	-72.2	0.0
2025-01-22 08:55:40.192310	347.1	19.2	-71.9	0.0
2025-01-22 08:55:41.319164	346.9	19.3	-72.3	0.0
2025-01-22 08:55:42.444097	346.7	19.4	-71.1	0.0
2025-01-22 08:55:43.569595	346.5	19.5	-73.2	0.0
2025-01-22 08:55:44.695450	346.2	19.6	-73.7	0.0
2025-01-22 08:55:45.821901	346.0	19.7	-73.5	0.0
2025-01-22 08:55:46.945777	345.8	19.8	-72.7	0.0
2025-01-22 08:55:48.072092	345.6	19.9	-72.7	0.0
2025-01-22 08:55:49.198124	345.4	20.0	-72.1	0.0
2025-01-22 08:55:50.323342	345.2	20.1	-73.4	0.0
2025-01-22 08:55:51.451392	345.0	20.2	-73.4	0.0
2025-01-22 08:55:52.577116	344.7	20.3	-71.7	0.0
2025-01-22 08:55:53.703033	344.5	20.4	-73.1	0.0
2025-01-22 08:55:54.829265	344.3	20.5	-73.2	0.0
2025-01-22 08:55:55.954396	344.1	20.6	-71.9	0.0
2025-01-22 08:55:57.080514	343.9	20.7	-72.9	0.0
2025-01-22 08:55:58.205437	343.6	20.8	-71.7	0.0
2025-01-22 08:55:59.330465	343.4	20.9	-71.3	0.0
2025-01-22 08:56:00.454681	343.2	21.0	-72.0	0.0
2025-01-22 08:56:01.580565	342.9	21.1	-71.6	0.0
2025-01-22 08:56:02.705508	342.7	21.2	-69.2	0.0
2025-01-22 08:56:03.832049	342.5	21.3	-70.6	0.0
2025-01-22 08:56:04.958855	342.2	21.4	-70.3	0.0
2025-01-22 08:56:06.085283	342.0	21.5	-72.9	0.0
2025-01-22 08:56:07.211014	341.8	21.6	-72.9	0.0
2025-01-22 08:56:08.338525	341.5	21.7	-71.9	0.0
2025-01-22 08:56:09.465304	341.3	21.8	-72.2	0.0
2025-01-22 08:56:10.592346	341.0	21.9	-73.2	0.0
2025-01-22 08:56:11.716768	340.8	21.9	-72.9	0.0
2025-01-22 08:56:12.842864	340.5	22.0	-74.7	0.0
2025-01-22 08:56:13.968842	340.3	22.1	-73.7	0.0
2025-01-22 08:56:15.095132	340.1	22.2	-71.6	0.0
2025-01-22 08:56:16.221305	339.8	22.3	-72.9	0.0
2025-01-22 08:56:17.349190	339.5	22.4	-71.4	0.0
2025-01-22 08:56:18.474886	339.3	22.5	-72.5	0.0
2025-01-22 08:56:19.600042	339.0	22.6	-76.0	0.0
2025-01-22 08:56:20.726280	338.8	22.7	-75.0	0.0
2025-01-22 08:56:21.854255	338.5	22.8	-75.7	0.0
2025-01-22 08:56:22.983038	338.3	22.9	-74.6	0.0
2025-01-22 08:56:24.111346	338.0	23.0	-75.4	0.0
2025-01-22 08:56:25.238305	337.7	23.1	-72.5	0.0
2025-01-22 08:56:26.363155	337.5	23.2	-73.6	0.0
2025-01-22 08:56:27.489255	337.2	23.2	-73.0	0.0
2025-01-22 08:56:28.616165	336.9	23.3	-74.5	0.0
2025-01-22 08:56:29.741741	336.7	23.4	-73.9	0.0
2025-01-22 08:56:30.869614	336.4	23.5	-73.6	0.0
2025-01-22 08:56:31.997232	336.1	23.6	-72.5	0.0
2025-01-22 08:56:33.124895	335.9	23.7	-73.3	0.0
2025-01-22 08:56:34.250151	335.6	23.8	-75.0	0.0
2025-01-22 08:56:35.375984	335.3	23.9	-72.4	0.0
2025-01-22 08:56:36.502142	335.0	24.0	-73.1	0.0
2025-01-22 08:56:37.626958	334.7	24.1	-74.3	0.0
2025-01-22 08:56:38.753674	334.5	24.1	-72.0	0.0
2025-01-22 08:56:39.879374	334.2	24.2	-69.8	0.0
2025-01-22 08:56:41.007665	333.9	24.3	-72.6	0.0
2025-01-22 08:56:42.133270	333.6	24.4	-73.0	0.0
2025-01-22 08:56:43.262536	333.3	24.5	-73.4	0.0
2025-01-22 08:56:44.389431	333.0	24.6	-74.4	0.0
2025-01-22 08:56:45.514668	332.7	24.7	-74.7	0.0
2025-01-22 08:56:46.640313	332.4	24.7	-74.8	0.0
2025-01-22 08:56:47.766783	332.1	24.8	-75.2	0.0
2025-01-22 08:56:48.893090	331.9	24.9	-75.3	0.0
2025-01-22 08:56:50.018806	331.6	25.0	-74.5	0.0
2025-01-22 08:56:51.145165	331.3	25.1	-73.7	0.0
2025-01-22 08:56:52.271309	331.0	25.1	-73.6	0.0
2025-01-22 08:56:53.398321	330.7	25.2	-74.2	0.0
2025-01-22 08:56:54.525755	330.3	25.3	-71.9	0.0
2025-01-22 08:56:55.651536	330.0	25.4	-74.3	0.0
2025-01-22 08:56:56.777456	329.7	25.5	-74.4	0.0
2025-01-22 08:56:57.905299	329.4	25.5	-72.5	0.0
2025-01-22 08:56:59.031305	329.1	25.6	-73.1	0.0
2025-01-22 08:57:00.160080	328.8	25.7	-73.6	0.0
2025-01-22 08:57:01.286333	328.5	25.8	-74.3	0.0
2025-01-22 08:57:02.413316	328.2	25.8	-73.3	0.0
2025-01-22 08:57:03.541150	327.9	25.9	-74.4	0.0
2025-01-22 08:57:04.667219	327.5	26.0	-73.4	0.0
2025-01-22 08:57:05.792306	327.2	26.1	-75.1	0.0
2025-01-22 08:57:06.918330	326.9	26.1	-74.3	0.0
2025-01-22 08:57:08.044011	326.6	26.2	-74.2	0.0
2025-01-22 08:57:09.171094	326.3	26.3	-72.0	0.0
2025-01-22 08:57:10.296848	325.9	26.3	-73.6	0.0
2025-01-22 08:57:11.424626	325.6	26.4	-74.4	0.0
2025-01-22 08:57:12.550823	325.3	26.5	-74.6	0.0
2025-01-22 08:57:13.679633	324.9	26.5	-71.4	0.0
2025-01-22 08:57:14.805091	324.6	26.6	-73.7	0.0
2025-01-22 08:57:15.933676	324.3	26.7	-74.3	0.0
2025-01-22 08:57:17.060059	323.9	26.7	-75.2	0.0
2025-01-22 08:57:18.186469	323.6	26.8	-75.3	0.0
2025-01-22 08:57:19.315808	323.3	26.9	-74.6	0.0
2025-01-22 08:57:20.439735	322.9	26.9	-75.8	0.0
2025-01-22 08:57:21.564728	322.6	27.0	-74.3	0.0
2025-01-22 08:57:22.691575	322.3	27.1	-74.1	0.0
2025-01-22 08:57:23.816939	321.9	27.1	-74.2	0.0
2025-01-22 08:57:24.943444	321.6	27.2	-75.1	0.0
2025-01-22 08:57:26.070413	321.2	27.2	-75.1	0.0
2025-01-22 08:57:27.197632	320.9	27.3	-74.3	0.0
2025-01-22 08:57:28.324639	320.5	27.3	-74.8	0.0
2025-01-22 08:57:29.450938	320.2	27.4	-74.9	0.0
2025-01-22 08:57:30.576641	319.8	27.4	-74.8	0.0
2025-01-22 08:57:31.702345	319.5	27.5	-76.3	0.0
2025-01-22 08:57:32.830263	319.1	27.5	-75.2	0.0
2025-01-22 08:57:33.955017	318.8	27.6	-75.4	0.0
2025-01-22 08:57:35.082224	318.4	27.6	-75.6	0.0
2025-01-22 08:57:36.208261	318.1	27.7	-74.8	0.0
2025-01-22 08:57:37.334189	317.7	27.7	-74.8	0.0
2025-01-22 08:57:38.460989	317.4	27.8	-76.2	0.0
2025-01-22 08:57:39.587093	317.0	27.8	-76.0	0.0
2025-01-22 08:57:40.713104	316.6	27.9	-73.9	0.0
2025-01-22 08:57:41.837778	316.3	27.9	-76.2	0.0
2025-01-22 08:57:42.962484	315.9	27.9	-76.2	0.0
2025-01-22 08:57:44.090430	315.6	28.0	-74.2	0.0
2025-01-22 08:57:45.217004	315.2	28.0	-76.2	0.0
2025-01-22 08:57:46.342228	314.8	28.0	-75.1	0.0
2025-01-22 08:57:47.468237	314.5	28.1	-75.8	0.0
2025-01-22 08:57:48.593083	314.1	28.1	-75.8	0.0
2025-01-22 08:57:49.719243	313.7	28.1	-75.8	0.0
2025-01-22 08:57:50.845438	313.4	28.2	-76.4	0.0
2025-01-22 08:57:51.971411	313.0	28.2	-75.3	0.0
2025-01-22 08:57:53.096854	312.6	28.2	-76.9	0.0
2025-01-22 08:57:54.223822	312.3	28.3	-75.8	0.0
2025-01-22 08:57:55.350243	311.9	28.3	-75.7	0.0
2025-01-22 08:57:56.475000	311.5	28.3	-77.1	0.0
2025-01-22 08:57:57.600476	311.2	28.3	-76.7	0.0
2025-01-22 08:57:58.725904	310.8	28.4	-76.3	0.0
2025-01-22 08:57:59.851998	310.4	28.4	-76.8	0.0
2025-01-22 08:58:00.976272	310.1	28.4	-76.5	0.0
2025-01-22 08:58:02.103648	309.7	28.4	-77.1	0.0
2025-01-22 08:58:03.231100	309.3	28.4	-76.3	0.0
2025-01-22 08:58:04.358594	308.9	28.4	-76.5	0.0
2025-01-22 08:58:05.482178	308.6	28.5	-76.7	0.0
2025-01-22 08:58:06.607164	308.2	28.5	-77.0	0.0
2025-01-22 08:58:07.733351	307.8	28.5	-76.7	0.0
2025-01-22 08:58:08.857418	307.4	28.5	-76.9	0.0
2025-01-22 08:58:09.981823	307.1	28.5	-77.1	0.0
2025-01-22 08:58:11.107969	306.7	28.5	-77.4	0.0
2025-01-22 08:58:12.233834	306.3	28.5	-76.7	0.0
2025-01-22 08:58:13.360915	305.9	28.5	-77.3	0.0
2025-01-22 08:58:14.488863	305.6	28.5	-77.3	0.0
2025-01-22 08:58:15.615985	305.2	28.5	-77.0	0.0
2025-01-22 08:58:16.741602	304.8	28.5	-77.5	0.0
2025-01-22 08:58:17.867592	304.4	28.5	-76.7	0.0
2025-01-22 08:58:18.992937	304.1	28.5	-77.3	0.0
2025-01-22 08:58:20.119124	303.7	28.5	-77.7	0.0
2025-01-22 08:58:21.245600	303.3	28.5	-76.5	0.0
2025-01-22 08:58:22.371718	302.9	28.5	-77.2	0.0
2025-01-22 08:58:23.497676	302.6	28.5	-76.8	0.0
2025-01-22 08:58:24.622416	302.2	28.5	-77.1	0.0
2025-01-22 08:58:25.747255	301.8	28.5	-76.9	0.0
2025-01-22 08:58:26.873912	301.5	28.5	-76.9	0.0
2025-01-22 08:58:28.000240	301.1	28.5	-77.1	0.0
2025-01-22 08:58:29.125962	300.7	28.4	-77.3	0.0
2025-01-22 08:58:30.252881	300.3	28.4	-76.9	0.0
2025-01-22 08:58:31.377916	300.0	28.4	-76.9	0.0
2025-01-22 08:58:32.504654	299.6	28.4	-76.6	0.0
2025-01-22 08:58:33.630997	299.2	28.4	-77.4	0.0
2025-01-22 08:58:34.755191	298.8	28.4	-74.6	0.0
2025-01-22 08:58:35.881606	298.5	28.3	-77.1	0.0
2025-01-22 08:58:37.007049	298.1	28.3	-77.2	0.0
2025-01-22 08:58:38.136109	297.7	28.3	-77.3	0.0
2025-01-22 08:58:39.262001	297.4	28.3	-77.0	0.0
2025-01-22 08:58:40.386702	297.0	28.2	-77.4	0.0
2025-01-22 08:58:41.515315	296.6	28.2	-77.4	0.0
2025-01-22 08:58:42.642731	296.3	28.2	-77.1	0.0
2025-01-22 08:58:43.769157	295.9	28.1	-76.7	0.0
2025-01-22 08:58:44.895475	295.5	28.1	-76.9	0.0
2025-01-22 08:58:46.023058	295.2	28.1	-77.2	0.0
2025-01-22 08:58:47.148764	294.8	28.0	-77.2	0.0
2025-01-22 08:58:48.274685	294.4	28.0	-77.0	0.0
2025-01-22 08:58:49.402517	294.1	28.0	-76.7	0.0
2025-01-22 08:58:50.528732	293.7	27.9	-77.1	0.0
2025-01-22 08:58:51.655443	293.3	27.9	-77.0	0.0
2025-01-22 08:58:52.781217	293.0	27.8	-77.0	0.0
2025-01-22 08:58:53.908794	292.6	27.8	-77.5	0.0
2025-01-22 08:58:55.036009	292.3	27.8	-77.4	0.0
2025-01-22 08:58:56.161619	291.9	27.7	-77.1	0.0
2025-01-22 08:58:57.287061	291.6	27.7	-76.7	0.0
2025-01-22 08:58:58.414572	291.2	27.6	-77.3	0.0
2025-01-22 08:58:59.540364	290.8	27.6	-76.9	0.0
2025-01-22 08:59:00.666570	290.5	27.5	-76.8	0.0
2025-01-22 08:59:01.790670	290.1	27.5	-77.4	0.0
2025-01-22 08:59:02.916927	289.8	27.4	-76.9	0.0
2025-01-22 08:59:04.041922	289.4	27.4	-77.2	0.0
2025-01-22 08:59:05.169712	289.1	27.3	-77.0	0.0
2025-01-22 08:59:06.296019	288.7	27.3	-76.9	0.0
2025-01-22 08:59:07.423292	288.4	27.2	-77.6	0.0
2025-01-22 08:59:08.548679	288.1	27.1	-77.4	0.0
2025-01-22 08:59:09.673725	287.7	27.1	-77.7	0.0
2025-01-22 08:59:10.798049	287.4	27.0	-76.8	0.0
2025-01-22 08:59:11.923909	287.0	27.0	-77.4	0.0
2025-01-22 08:59:13.048230	286.7	26.9	-77.0	0.0
2025-01-22 08:59:14.173667	286.4	26.8	-77.3	0.0
2025-01-22 08:59:15.298086	286.0	26.8	-77.2	0.0
2025-01-22 08:59:16.423726	285.7	26.7	-77.3	0.0
2025-01-22 08:59:17.547073	285.3	26.7	-77.2	0.0
2025-01-22 08:59:18.673390	285.0	26.6	-76.2	0.0
2025-01-22 08:59:19.799843	284.7	26.5	-76.9	0.0
2025-01-22 08:59:20.926286	284.4	26.5	-76.8	0.0
2025-01-22 08:59:22.051029	284.0	26.4	-76.8	0.0
2025-01-22 08:59:23.178741	283.7	26.3	-77.1	0.0
2025-01-22 08:59:24.305009	283.4	26.2	-77.1	0.0
2025-01-22 08:59:25.431053	283.0	26.2	-77.4	0.0
2025-01-22 08:59:26.557509	282.7	26.1	-76.9	0.0
2025-01-22 08:59:27.681664	282.4	26.0	-76.5	0.0
2025-01-22 08:59:28.807867	282.1	26.0	-76.7	0.0
2025-01-22 08:59:29.932548	281.8	25.9	-76.3	0.0
2025-01-22 08:59:31.059781	281.4	25.8	-76.8	0.0
2025-01-22 08:59:32.187246	281.1	25.7	-77.0	0.0
2025-01-22 08:59:33.311905	280.8	25.7	-77.6	0.0
2025-01-22 08:59:34.436475	280.5	25.6	-77.2	0.0
2025-01-22 08:59:35.563248	280.2	25.5	-76.4	0.0
2025-01-22 08:59:36.689472	279.9	25.4	-75.9	0.0
2025-01-22 08:59:37.817391	279.6	25.3	-76.2	0.0
2025-01-22 08:59:38.943860	279.3	25.3	-76.5	0.0
2025-01-22 08:59:40.071338	279.0	25.2	-77.2	0.0
2025-01-22 08:59:41.196734	278.7	25.1	-76.7	0.0
2025-01-22 08:59:42.321619	278.4	25.0	-77.2	0.0
2025-01-22 08:59:43.446206	278.1	24.9	-77.0	0.0
2025-01-22 08:59:44.573352	277.8	24.9	-76.1	0.0
2025-01-22 08:59:45.698878	277.5	24.8	-76.8	0.0
2025-01-22 08:59:46.823986	277.2	24.7	-76.7	0.0
2025-01-22 08:59:47.949359	276.9	24.6	-77.4	0.0
2025-01-22 08:59:49.073998	276.6	24.5	-77.1	0.0
2025-01-22 08:59:50.200961	276.3	24.4	-76.6	0.0
2025-01-22 08:59:51.327916	276.0	24.4	-77.2	0.0
2025-01-22 08:59:52.454561	275.7	24.3	-76.3	0.0
2025-01-22 08:59:53.580450	275.4	24.2	-76.3	0.0
2025-01-22 08:59:54.705471	275.1	24.1	-76.6	0.0
2025-01-22 08:59:55.832627	274.9	24.0	-76.6	0.0
2025-01-22 08:59:56.959301	274.6	23.9	-77.5	0.0
2025-01-22 08:59:58.084378	274.3	23.8	-76.8	0.0
2025-01-22 08:59:59.209941	274.0	23.7	-76.8	0.0
2025-01-22 09:00:00.337062	273.7	23.7	-76.4	0.0
2025-01-22 09:00:01.461095	273.5	23.6	-77.1	0.0
2025-01-22 09:00:02.587656	273.2	23.5	-76.4	0.0
2025-01-22 09:00:03.715246	272.9	23.4	-76.6	0.0
2025-01-22 09:00:04.840003	272.7	23.3	-76.6	0.0
2025-01-22 09:00:05.966343	272.4	23.2	-76.8	0.0
2025-01-22 09:00:07.093357	272.1	23.1	-76.6	0.0
2025-01-22 09:00:08.219864	271.9	23.0	-76.3	0.0
2025-01-22 09:00:09.344586	271.6	22.9	-75.2	0.0
2025-01-22 09:00:10.468843	271.3	22.8	-76.2	0.0
2025-01-22 09:00:11.595143	271.1	22.7	-76.5	0.0
2025-01-22 09:00:12.720137	270.8	22.6	-75.9	0.0
2025-01-22 09:00:13.844502	270.6	22.5	-76.8	0.0
2025-01-22 09:00:14.969743	270.3	22.5	-76.1	0.0
2025-01-22 09:00:16.094881	270.0	22.4	-76.6	0.0
2025-01-22 09:00:17.219844	269.8	22.3	-75.6	0.0
2025-01-22 09:00:18.344975	269.5	22.2	-76.5	0.0
2025-01-22 09:00:19.470233	269.3	22.1	-76.4	0.0
2025-01-22 09:00:20.595011	269.0	22.0	-75.5	0.0
2025-01-22 09:00:21.720151	268.8	21.9	-76.8	0.0
2025-01-22 09:00:22.846414	268.6	21.8	-76.1	0.0
2025-01-22 09:00:23.971589	268.3	21.7	-76.2	0.0
2025-01-22 09:00:25.098289	268.1	21.6	-75.8	0.0
2025-01-22 09:00:26.223145	267.8	21.5	-76.5	0.0
2025-01-22 09:00:27.348209	267.6	21.4	-76.4	0.0
2025-01-22 09:00:28.473091	267.3	21.3	-76.0	0.0
2025-01-22 09:00:29.599325	267.1	21.2	-76.2	0.0
2025-01-22 09:00:30.725745	266.9	21.1	-76.6	0.0
2025-01-22 09:00:31.850659	266.6	21.0	-76.6	0.0
2025-01-22 09:00:32.976934	266.4	20.9	-76.5	0.0
2025-01-22 09:00:34.099926	266.2	20.8	-76.4	0.0
2025-01-22 09:00:35.227279	266.0	20.7	-75.9	0.0
2025-01-22 09:00:36.354063	265.7	20.6	-76.0	0.0
2025-01-22 09:00:37.480405	265.5	20.5	-76.5	0.0
2025-01-22 09:00:38.605813	265.3	20.4	-75.7	0.0
2025-01-22 09:00:39.732154	265.1	20.3	-75.8	0.0
2025-01-22 09:00:40.858152	264.8	20.2	-75.7	0.0
2025-01-22 09:00:41.983324	264.6	20.1	-77.2	0.0
2025-01-22 09:00:43.110313	264.4	20.0	-77.6	0.0
2025-01-22 09:00:44.238160	264.2	20.0	-76.6	0.0
2025-01-22 09:00:45.366248	264.0	19.9	-76.7	0.0
2025-01-22 09:00:46.496162	263.7	19.8	-76.9	0.0
2025-01-22 09:00:47.621325	263.5	19.7	-76.4	0.0
2025-01-22 09:00:48.748209	263.3	19.6	-76.5	0.0
2025-01-22 09:00:49.873789	263.1	19.5	-76.6	0.0
2025-01-22 09:00:50.999622	262.9	19.4	-75.9	0.0
2025-01-22 09:00:52.125331	262.7	19.3	-76.6	0.0
2025-01-22 09:00:53.252216	262.5	19.2	-76.6	0.0
2025-01-22 09:00:54.377456	262.3	19.1	-76.4	0.0
2025-01-22 09:00:55.505099	262.1	19.0	-76.2	0.0
2025-01-22 09:00:56.629820	261.9	18.9	-76.9	0.0
2025-01-22 09:00:57.756465	261.7	18.8	-76.6	0.0
2025-01-22 09:00:58.882774	261.5	18.7	-76.7	0.0
2025-01-22 09:01:00.009234	261.3	18.6	-76.3	0.0
2025-01-22 09:01:01.135706	261.1	18.5	-75.9	0.0
2025-01-22 09:01:02.261270	260.9	18.4	-76.2	0.0
2025-01-22 09:01:03.384646	260.7	18.3	-76.4	0.0
2025-01-22 09:01:04.511789	260.5	18.2	-76.7	0.0
2025-01-22 09:01:05.636230	260.3	18.1	-76.8	0.0
2025-01-22 09:01:06.760970	260.1	18.0	-76.0	0.0
2025-01-22 09:01:07.885916	259.9	17.9	-76.6	0.0
2025-01-22 09:01:09.012114	259.7	17.8	-76.2	0.0
2025-01-22 09:01:10.137887	259.5	17.7	-76.6	0.0
2025-01-22 09:01:11.263838	259.4	17.6	-75.6	0.0
2025-01-22 09:01:12.390238	259.2	17.5	-76.3	0.0
2025-01-22 09:01:13.514848	259.0	17.4	-76.5	0.0
2025-01-22 09:01:14.641231	258.8	17.3	-76.6	0.0
2025-01-22 09:01:15.765982	258.6	17.2	-76.6	0.0
2025-01-22 09:01:16.893744	258.4	17.1	-76.5	0.0
2025-01-22 09:01:18.020330	258.3	17.0	-76.1	0.0
2025-01-22 09:01:19.145622	258.1	16.9	-75.6	0.0
2025-01-22 09:01:20.272321	257.9	16.8	-77.1	0.0
2025-01-22 09:01:21.398365	257.7	16.7	-77.0	0.0
2025-01-22 09:01:22.524375	257.6	16.6	-75.5	0.0
2025-01-22 09:01:23.650601	257.4	16.5	-76.7	0.0
2025-01-22 09:01:24.777190	257.2	16.4	-76.5	0.0
2025-01-22 09:01:25.904658	257.1	16.4	-76.2	0.0
2025-01-22 09:01:27.031536	256.9	16.3	-75.8	0.0
2025-01-22 09:01:28.157116	256.7	16.2	-77.1	0.0
2025-01-22 09:01:29.284282	256.5	16.1	-77.0	0.0
2025-01-22 09:01:30.409307	256.4	16.0	-76.4	0.0
2025-01-22 09:01:31.534461	256.2	15.9	-76.6	0.0
2025-01-22 09:01:32.660716	256.0	15.8	-76.8	0.0
2025-01-22 09:01:33.787212	255.9	15.7	-76.5	0.0
2025-01-22 09:01:34.911607	255.7	15.6	-76.2	0.0
2025-01-22 09:01:36.037824	255.6	15.5	-76.1	0.0
2025-01-22 09:01:37.164195	255.4	15.4	-76.3	0.0
2025-01-22 09:01:38.290249	255.2	15.3	-76.1	0.0
2025-01-22 09:01:39.414517	255.1	15.2	-76.5	0.0
2025-01-22 09:01:40.540684	254.9	15.1	-76.7	0.0
2025-01-22 09:01:41.666960	254.8	15.0	-76.2	0.0
2025-01-22 09:01:42.790728	254.6	14.9	-75.8	0.0
2025-01-22 09:01:43.916539	254.5	14.8	-76.6	0.0
2025-01-22 09:01:45.041379	254.3	14.7	-76.3	0.0
2025-01-22 09:01:46.168496	254.2	14.7	-76.4	0.0
2025-01-22 09:01:47.294061	254.0	14.6	-76.2	0.0
2025-01-22 09:01:48.421117	253.9	14.5	-76.3	0.0
2025-01-22 09:01:49.548964	253.7	14.4	-76.1	0.0
2025-01-22 09:01:50.672896	253.6	14.3	-76.7	0.0
2025-01-22 09:01:51.799471	253.4	14.2	-75.7	0.0
2025-01-22 09:01:52.925726	253.3	14.1	-76.6	0.0
2025-01-22 09:01:54.050652	253.1	14.0	-76.5	0.0
2025-01-22 09:01:55.178501	253.0	13.9	-76.6	0.0
2025-01-22 09:01:56.303224	252.8	13.8	-75.6	0.0
2025-01-22 09:01:57.429284	252.7	13.7	-76.4	0.0
2025-01-22 09:01:58.553185	252.5	13.6	-75.9	0.0
2025-01-22 09:01:59.680523	252.4	13.5	-75.6	0.0
2025-01-22 09:02:00.806409	252.3	13.5	-75.9	0.0
2025-01-22 09:02:01.931864	252.1	13.4	-76.2	0.0
2025-01-22 09:02:03.058769	252.0	13.3	-76.2	0.0
2025-01-22 09:02:04.184928	251.9	13.2	-76.0	0.0
2025-01-22 09:02:05.312118	251.7	13.1	-76.0	0.0
2025-01-22 09:02:06.437491	251.6	13.0	-76.3	0.0
2025-01-22 09:02:07.563721	251.4	12.9	-76.0	0.0
2025-01-22 09:02:08.689172	251.3	12.8	-75.5	0.0
2025-01-22 09:02:09.817493	251.2	12.7	-75.7	0.0
2025-01-22 09:02:10.942292	251.0	12.6	-76.0	0.0
2025-01-22 09:02:12.069919	250.9	12.6	-75.5	0.0
2025-01-22 09:02:13.194190	250.8	12.5	-75.7	0.0
2025-01-22 09:02:14.319358	250.7	12.4	-75.8	0.0
2025-01-22 09:02:15.444957	250.5	12.3	-76.7	0.0
2025-01-22 09:02:16.570380	250.4	12.2	-75.6	0.0
2025-01-22 09:02:17.697251	250.3	12.1	-75.8	0.0
2025-01-22 09:02:18.825287	250.1	12.0	-75.2	0.0
2025-01-22 09:02:19.951357	250.0	11.9	-75.3	0.0
2025-01-22 09:02:21.076026	249.9	11.8	-76.3	0.0
2025-01-22 09:02:22.201697	249.8	11.8	-75.4	0.0
2025-01-22 09:02:23.328536	249.6	11.7	-76.0	0.0
2025-01-22 09:02:24.456131	249.5	11.6	-75.6	0.0
2025-01-22 09:02:25.581628	249.4	11.5	-75.7	0.0
2025-01-22 09:02:26.707752	249.3	11.4	-76.2	0.0
2025-01-22 09:02:27.832569	249.2	11.3	-75.4	0.0
2025-01-22 09:02:28.958002	249.0	11.2	-75.7	0.0
2025-01-22 09:02:30.084238	248.9	11.1	-75.8	0.0
2025-01-22 09:02:31.209410	248.8	11.1	-76.0	0.0
2025-01-22 09:02:32.335361	248.7	11.0	-76.6	0.0
2025-01-22 09:02:33.459069	248.6	10.9	-76.6	0.0
2025-01-22 09:02:34.584590	248.4	10.8	-76.0	0.0
2025-01-22 09:02:35.710546	248.3	10.7	-76.5	0.0
2025-01-22 09:02:36.834888	248.2	10.6	-78.4	0.0
2025-01-22 09:02:37.960077	248.1	10.5	-78.9	0.0
2025-01-22 09:02:39.085882	248.0	10.5	-79.4	0.0
2025-01-22 09:02:40.210278	247.9	10.4	-80.1	0.0
2025-01-22 09:02:41.335691	247.8	10.3	-80.8	0.0
2025-01-22 09:02:42.462348	247.7	10.2	-80.7	0.0
2025-01-22 09:02:43.589791	247.5	10.1	-80.8	0.0
2025-01-22 09:02:44.715875	247.4	10.0	-80.5	0.0
#Closed at: 2025-01-22 08:53:41.545024