passes_logs/2026/01/23/R2M6_AANII_01/R2M6_AANII_01__20260123_023541_AQUA_rec.log

#Pass ID: 20260123_023541_AQUA
#Satellite: AQUA
#Configuration: AQUA
#almurnet v.1.7.20240730
#Start time: 2026-01-23 02:36:04

#Version: 2.2.20231116
#Station: R2M6_AANII_01
#Location: 30.233357 lon 59.946436 lat
#TLE: 1 27424U 02022A   26022.49486490  .00002153  00000+0  44069-3 0  9997
#TLE: 2 27424  98.4099 349.0485 0001970  69.5876  43.4746 14.61847233261984

#Time	Az	El	Level	Level2	SNR	BER	BlckErr	Temp	State	Recorded	gain1	gain2
2026-01-23 02:36:04.76	12.71	8.92	-34.1	-48.2	3.8	1.49e+00	0	44	0	0	28	18339
2026-01-23 02:36:05.76	12.67	9.01	-34.9	-54.2	3.8	7.45e-01	0	44	104	0	30	33390
2026-01-23 02:36:06.76	12.63	9.09	-34.8	-54.2	3.8	7.46e-01	0	44	104	0	30	33434
2026-01-23 02:36:07.77	12.58	9.18	-34.8	-54.2	3.8	7.43e-01	0	44	104	0	30	33486
2026-01-23 02:36:08.77	12.54	9.27	-34.8	-54.2	3.8	7.44e-01	0	44	104	0	30	33446
2026-01-23 02:36:09.77	12.50	9.36	-34.8	-54.2	3.8	7.46e-01	0	44	104	0	30	33496
2026-01-23 02:36:10.78	12.46	9.45	-34.8	-54.2	3.8	7.47e-01	0	44	104	0	30	33514
2026-01-23 02:36:11.78	12.42	9.54	-34.8	-54.1	3.8	7.45e-01	0	44	104	0	30	33500
2026-01-23 02:36:12.79	12.38	9.62	-34.8	-54.1	3.8	7.44e-01	0	44	104	0	30	33410
2026-01-23 02:36:13.79	12.33	9.71	-34.7	-54.0	3.8	7.42e-01	0	44	104	0	30	33280
2026-01-23 02:36:14.79	12.29	9.80	-34.7	-54.0	3.8	7.43e-01	0	44	104	0	30	33169
2026-01-23 02:36:15.79	12.25	9.89	-34.7	-54.0	3.8	7.48e-01	0	44	104	0	30	33266
2026-01-23 02:36:16.79	12.20	9.98	-34.7	-54.0	3.8	7.45e-01	0	44	104	0	30	33147
2026-01-23 02:36:17.79	12.16	10.08	-34.7	-54.0	3.8	7.44e-01	0	44	104	0	30	33218
2026-01-23 02:36:18.80	12.11	10.17	-34.7	-54.0	3.8	7.46e-01	0	44	104	0	30	33280
2026-01-23 02:36:19.80	12.07	10.26	-34.7	-54.0	3.8	7.45e-01	0	44	104	0	30	33237
2026-01-23 02:36:20.80	12.02	10.35	-34.8	-54.1	3.8	7.45e-01	0	44	104	0	30	33388
2026-01-23 02:36:21.81	11.98	10.44	-34.9	-54.4	3.8	7.41e-01	0	44	104	0	30	33971
2026-01-23 02:36:22.81	11.93	10.54	-34.9	-54.3	3.8	7.44e-01	0	44	104	0	30	33671
2026-01-23 02:36:23.81	11.89	10.63	-34.9	-54.3	3.8	7.44e-01	0	44	104	0	30	33786
2026-01-23 02:36:24.81	11.84	10.72	-34.8	-54.3	3.8	7.47e-01	0	44	104	0	30	33786
2026-01-23 02:36:25.82	11.79	10.82	-34.9	-54.3	3.8	7.45e-01	0	44	104	0	30	33726
2026-01-23 02:36:26.82	11.75	10.91	-34.8	-54.2	3.8	7.45e-01	0	44	104	0	30	33640
2026-01-23 02:36:27.82	11.70	11.01	-34.9	-54.3	3.8	7.44e-01	0	44	104	0	30	33740
2026-01-23 02:36:28.83	11.65	11.10	-34.9	-54.2	3.8	7.45e-01	0	44	104	0	30	33352
2026-01-23 02:36:29.83	11.60	11.20	-34.9	-54.2	3.8	7.46e-01	0	44	104	0	30	33441
2026-01-23 02:36:30.83	11.56	11.29	-34.8	-54.1	3.8	7.43e-01	0	44	104	0	30	33218
2026-01-23 02:36:31.83	11.51	11.39	-34.8	-54.1	3.8	7.46e-01	0	44	104	0	30	33072
2026-01-23 02:36:32.84	11.46	11.49	-34.8	-54.0	3.8	7.46e-01	0	44	104	0	30	33093
2026-01-23 02:36:33.84	11.41	11.58	-34.7	-53.9	3.8	7.45e-01	0	44	104	0	30	32815
2026-01-23 02:36:34.85	11.36	11.68	-34.6	-53.7	3.8	7.45e-01	0	44	104	0	30	32412
2026-01-23 02:36:35.85	11.31	11.78	-34.5	-53.9	3.8	7.44e-01	0	44	104	0	29	33843
2026-01-23 02:36:36.85	11.26	11.88	-34.3	-52.5	3.9	7.45e-01	0	44	104	0	29	29218
2026-01-23 02:36:37.86	11.20	11.98	-33.6	-44.8	4.4	7.23e-01	0	44	104	0	28	12947
2026-01-23 02:36:38.87	11.15	12.08	-33.6	-44.3	4.6	7.22e-01	0	44	104	0	27	12388
2026-01-23 02:36:39.88	11.10	12.18	-33.6	-43.5	8.9	6.33e-01	0	44	104	0	27	11354
2026-01-23 02:36:40.88	11.05	12.28	-33.5	-43.1	8.7	6.34e-01	0	44	0	1048576	28	10832
2026-01-23 02:36:41.88	10.99	12.38	-33.6	-43.7	8.1	6.45e-01	0	44	0	3145728	28	11567
2026-01-23 02:36:42.88	10.94	12.48	-33.7	-44.7	7.2	6.61e-01	0	44	0	5242880	28	12892
2026-01-23 02:36:43.88	10.89	12.58	-33.8	-46.4	6.0	6.84e-01	0	44	0	6815744	28	15304
2026-01-23 02:36:44.89	10.83	12.68	-33.9	-48.4	4.8	7.16e-01	0	44	0	7340032	28	19165
2026-01-23 02:36:45.89	10.78	12.78	-34.0	-51.0	3.9	7.41e-01	0	44	104	7340032	28	25580
2026-01-23 02:36:46.90	10.72	12.89	-34.0	-51.0	3.9	7.44e-01	0	44	104	7340032	28	25676
2026-01-23 02:36:47.90	10.67	12.99	-33.9	-48.0	4.9	7.13e-01	0	44	104	7340032	28	18335
2026-01-23 02:36:48.91	10.61	13.09	-33.6	-44.7	7.1	6.59e-01	0	44	0	524288	28	12852
2026-01-23 02:36:49.91	10.56	13.20	-33.5	-42.9	9.4	6.24e-01	0	44	0	2621440	27	10666
2026-01-23 02:36:50.91	10.50	13.30	-33.2	-41.0	11.1	6.13e-01	0	44	0	4194304	27	8846
2026-01-23 02:36:51.92	10.44	13.41	-32.9	-39.8	12.5	6.06e-01	0	44	0	6291456	26	8024
2026-01-23 02:36:52.91	10.38	13.51	-32.6	-38.5	13.6	6.00e-01	0	44	0	7864320	26	7121
2026-01-23 02:36:53.92	10.33	13.62	-32.4	-38.2	14.2	6.04e-01	0	44	0	9961472	25	7045
2026-01-23 02:36:54.93	10.27	13.73	-32.2	-37.7	14.7	6.02e-01	0	44	0	11534336	25	6724
2026-01-23 02:36:55.93	10.21	13.83	-32.2	-37.7	14.6	6.04e-01	0	44	0	13631488	25	6724
2026-01-23 02:36:56.94	10.15	13.94	-32.3	-37.8	14.5	6.02e-01	0	44	0	15728640	25	6807
2026-01-23 02:36:57.95	10.09	14.05	-32.4	-38.3	14.2	6.04e-01	0	44	0	17301504	25	7088
2026-01-23 02:36:58.95	10.03	14.16	-32.5	-38.9	13.7	6.05e-01	0	44	0	19398656	25	7456
2026-01-23 02:36:59.96	9.96	14.27	-32.5	-38.9	13.6	6.01e-01	0	44	0	20971520	25	7515
2026-01-23 02:37:00.96	9.90	14.38	-32.3	-37.9	14.4	6.03e-01	0	44	0	23068672	25	6858
2026-01-23 02:37:01.96	9.84	14.49	-32.5	-38.7	13.9	6.03e-01	0	44	0	25165824	25	7320
2026-01-23 02:37:02.96	9.78	14.60	-32.4	-38.1	14.4	6.02e-01	0	44	0	26738688	25	6941
2026-01-23 02:37:03.96	9.72	14.71	-32.2	-37.5	14.8	5.99e-01	0	44	0	28835840	25	6605
2026-01-23 02:37:04.97	9.65	14.82	-32.1	-37.0	15.3	6.04e-01	0	44	0	30408704	25	6324
2026-01-23 02:37:05.98	9.59	14.93	-32.0	-37.2	15.4	6.00e-01	0	44	0	32505856	24	6558
2026-01-23 02:37:06.99	9.52	15.05	-32.0	-37.2	15.4	6.03e-01	0	44	0	34078720	24	6548
2026-01-23 02:37:07.99	9.46	15.16	-32.3	-37.8	14.7	6.02e-01	0	44	0	36175872	25	6763
2026-01-23 02:37:08.99	9.39	15.27	-32.1	-36.8	15.4	6.02e-01	0	44	0	38273024	25	6203
2026-01-23 02:37:10.00	9.32	15.39	-31.6	-35.9	16.4	6.02e-01	0	44	0	39845888	24	5854
2026-01-23 02:37:11.00	9.26	15.50	-31.2	-35.1	17.3	6.02e-01	0	44	0	41943040	23	5619
2026-01-23 02:37:12.01	9.19	15.62	-30.9	-34.6	18.0	6.03e-01	0	44	0	43515904	22	5515
2026-01-23 02:37:13.01	9.12	15.74	-30.5	-33.6	18.6	6.00e-01	0	44	0	45613056	22	5126
2026-01-23 02:37:14.02	9.05	15.85	-30.2	-33.3	19.1	6.02e-01	0	44	0	47710208	21	5137
2026-01-23 02:37:15.02	8.98	15.97	-29.9	-32.6	19.5	6.02e-01	0	44	0	49283072	21	4874
2026-01-23 02:37:16.03	8.91	16.09	-29.8	-32.7	19.8	6.00e-01	0	44	0	51380224	20	5034
2026-01-23 02:37:17.03	8.84	16.21	-29.9	-32.9	19.7	6.02e-01	0	44	0	52953088	20	5085
2026-01-23 02:37:18.03	8.77	16.33	-30.0	-33.1	19.6	6.02e-01	0	44	0	55050240	20	5172
2026-01-23 02:37:19.03	8.70	16.44	-29.8	-32.7	19.8	6.04e-01	0	44	0	57147392	20	5030
2026-01-23 02:37:20.03	8.62	16.56	-29.7	-32.5	19.9	6.03e-01	0	44	0	58720256	20	4951
2026-01-23 02:37:21.04	8.55	16.69	-29.7	-32.4	20.0	6.01e-01	0	44	0	60817408	20	4934
2026-01-23 02:37:22.04	8.47	16.81	-29.7	-32.4	20.0	6.03e-01	0	44	0	62390272	20	4933
2026-01-23 02:37:23.04	8.40	16.93	-29.8	-32.7	19.8	6.04e-01	0	44	0	64487424	20	5016
2026-01-23 02:37:24.04	8.33	17.05	-29.7	-32.4	19.9	6.03e-01	0	44	0	66060288	20	4930
2026-01-23 02:37:25.04	8.25	17.17	-29.7	-32.4	20.0	6.02e-01	0	44	0	68157440	20	4920
2026-01-23 02:37:26.05	8.17	17.30	-29.8	-32.6	19.8	6.02e-01	0	44	0	70254592	20	4982
2026-01-23 02:37:27.05	8.09	17.42	-29.7	-32.5	19.9	6.03e-01	0	44	0	71827456	20	4966
2026-01-23 02:37:28.06	8.02	17.55	-29.8	-32.8	19.7	6.00e-01	0	44	0	73924608	20	5048
2026-01-23 02:37:29.06	7.94	17.67	-29.9	-32.8	19.7	6.00e-01	0	44	0	76021760	20	5064
2026-01-23 02:37:30.07	7.86	17.80	-30.0	-33.1	19.6	6.05e-01	0	44	0	77594624	20	5177
2026-01-23 02:37:31.07	7.78	17.93	-29.9	-32.9	19.7	6.02e-01	0	44	0	79691776	20	5090
2026-01-23 02:37:32.07	7.70	18.06	-29.8	-32.8	19.8	6.03e-01	0	44	0	81264640	20	5052
2026-01-23 02:37:33.07	7.61	18.18	-29.9	-32.9	19.7	6.03e-01	0	44	0	83361792	20	5096
2026-01-23 02:37:34.08	7.53	18.31	-29.9	-32.8	19.8	6.00e-01	0	44	0	84934656	20	5054
2026-01-23 02:37:35.09	7.45	18.44	-29.9	-32.9	19.7	6.02e-01	0	44	0	87031808	20	5079
2026-01-23 02:37:36.09	7.36	18.58	-30.0	-33.2	19.5	6.03e-01	0	44	0	89128960	20	5213
2026-01-23 02:37:37.10	7.28	18.71	-30.1	-33.3	19.5	6.02e-01	0	44	0	90701824	20	5241
2026-01-23 02:37:38.11	7.19	18.84	-30.2	-33.2	19.3	6.01e-01	0	44	0	92798976	21	5070
2026-01-23 02:37:39.11	7.10	18.97	-30.3	-33.5	19.1	6.00e-01	0	44	0	94371840	21	5209
2026-01-23 02:37:40.10	7.02	19.10	-30.2	-33.1	19.3	6.02e-01	0	44	0	96468992	21	5043
2026-01-23 02:37:41.10	6.93	19.24	-30.0	-32.8	19.6	6.04e-01	0	44	0	98041856	21	4921
2026-01-23 02:37:42.10	6.84	19.37	-30.0	-33.1	19.7	6.04e-01	0	44	0	100139008	20	5173
2026-01-23 02:37:43.10	6.75	19.51	-30.0	-33.1	19.6	6.00e-01	0	44	0	102236160	20	5163
2026-01-23 02:37:44.10	6.66	19.64	-29.8	-32.7	19.9	6.04e-01	0	44	0	103809024	20	5020
2026-01-23 02:37:45.10	6.57	19.78	-29.8	-32.5	20.0	6.03e-01	0	44	0	105906176	20	4953
2026-01-23 02:37:46.10	6.47	19.92	-29.8	-32.7	19.9	6.01e-01	0	44	0	107479040	20	5025
2026-01-23 02:37:47.10	6.38	20.06	-29.8	-32.7	20.0	6.05e-01	0	44	0	109576192	20	5020
2026-01-23 02:37:48.11	6.29	20.20	-29.9	-32.9	19.8	6.01e-01	0	44	0	111673344	20	5071
2026-01-23 02:37:49.11	6.19	20.34	-30.1	-33.3	19.6	6.02e-01	0	44	0	113246208	20	5219
2026-01-23 02:37:50.12	6.09	20.48	-30.1	-32.9	19.6	6.00e-01	0	44	0	115343360	21	4973
2026-01-23 02:37:51.12	6.00	20.62	-30.1	-33.0	19.5	6.04e-01	0	44	0	116916224	21	4996
2026-01-23 02:37:52.12	5.90	20.76	-30.3	-33.4	19.2	6.04e-01	0	44	0	119013376	21	5134
2026-01-23 02:37:53.13	5.80	20.91	-30.3	-33.4	19.3	6.02e-01	0	44	0	121110528	21	5131
2026-01-23 02:37:54.13	5.70	21.05	-30.4	-33.6	19.1	6.01e-01	0	44	0	122683392	21	5217
2026-01-23 02:37:55.13	5.60	21.19	-30.4	-33.6	19.1	6.02e-01	0	44	0	124780544	21	5210
2026-01-23 02:37:56.13	5.49	21.34	-30.6	-33.7	18.8	6.00e-01	0	44	0	126353408	22	5122
2026-01-23 02:37:57.13	5.39	21.49	-30.4	-33.6	19.1	6.03e-01	0	44	0	128450560	21	5228
2026-01-23 02:37:58.14	5.28	21.63	-30.3	-33.3	19.3	6.01e-01	0	44	0	130023424	21	5104
2026-01-23 02:37:59.15	5.18	21.78	-30.2	-33.1	19.4	6.02e-01	0	44	0	132120576	21	5035
2026-01-23 02:38:00.15	5.07	21.93	-29.3	-32.1	19.5	6.03e-01	0	44	0	134217728	21	5010
2026-01-23 02:38:01.15	4.96	22.08	-30.2	-33.1	19.5	6.02e-01	0	44	0	135790592	21	5015
2026-01-23 02:38:02.15	4.85	22.23	-30.0	-33.0	19.1	6.03e-01	0	44	0	137887744	20	5120
2026-01-23 02:38:03.15	4.74	22.38	-29.9	-32.9	18.6	6.09e-01	0	44	0	139460608	20	5074
2026-01-23 02:38:04.15	4.63	22.53	-29.9	-32.9	19.7	6.05e-01	0	44	0	141557760	20	5093
2026-01-23 02:38:05.15	4.52	22.69	-30.0	-33.1	17.3	6.01e-01	0	44	0	143130624	20	5153
2026-01-23 02:38:06.15	4.41	22.84	-30.0	-33.0	17.3	6.07e-01	0	44	0	145227776	20	5119
2026-01-23 02:38:07.16	4.29	23.00	-30.2	-33.0	19.4	6.00e-01	0	44	0	147324928	21	5000
2026-01-23 02:38:08.16	4.17	23.15	-30.4	-33.7	19.2	6.00e-01	0	44	0	148897792	21	5235
2026-01-23 02:38:09.16	4.06	23.31	-30.3	-33.4	19.3	6.01e-01	0	44	0	150994944	21	5118
2026-01-23 02:38:10.16	3.94	23.47	-30.3	-33.4	19.4	6.01e-01	0	44	0	153092096	21	5118
2026-01-23 02:38:11.17	3.82	23.63	-30.4	-33.5	19.3	5.99e-01	0	44	0	154664960	21	5187
2026-01-23 02:38:12.17	3.69	23.79	-30.4	-33.5	19.3	6.01e-01	0	44	0	156762112	21	5174
2026-01-23 02:38:13.17	3.57	23.95	-30.4	-33.7	19.2	6.00e-01	0	44	0	158334976	21	5261
2026-01-23 02:38:14.18	3.45	24.11	-30.4	-33.7	19.1	5.99e-01	0	44	0	160432128	21	5264
2026-01-23 02:38:15.18	3.32	24.27	-30.3	-33.3	19.4	6.00e-01	0	44	0	162004992	21	5091
2026-01-23 02:38:16.19	3.19	24.44	-30.2	-33.0	19.6	6.01e-01	0	44	0	164102144	21	4979
2026-01-23 02:38:17.19	3.06	24.60	-30.1	-32.9	19.7	6.01e-01	0	44	0	166199296	21	4956
2026-01-23 02:38:18.19	2.93	24.77	-30.1	-32.9	19.6	6.01e-01	0	44	0	167772160	21	4957
2026-01-23 02:38:19.20	2.80	24.93	-30.2	-33.0	19.6	6.04e-01	0	44	0	169869312	21	4995
2026-01-23 02:38:20.20	2.67	25.10	-30.0	-33.2	19.7	6.00e-01	0	44	0	171442176	20	5184
2026-01-23 02:38:21.21	2.53	25.27	-30.0	-33.1	19.8	6.00e-01	0	44	0	173539328	20	5140
2026-01-23 02:38:22.21	2.40	25.44	-30.0	-33.1	19.8	6.02e-01	0	44	0	175636480	20	5142
2026-01-23 02:38:23.22	2.26	25.61	-30.0	-33.2	19.8	6.02e-01	0	44	0	177209344	20	5173
2026-01-23 02:38:24.22	2.12	25.78	-30.2	-33.0	19.6	6.02e-01	0	44	0	179306496	21	4985
2026-01-23 02:38:25.23	1.98	25.95	-30.3	-33.3	19.4	6.02e-01	0	44	0	180879360	21	5089
2026-01-23 02:38:26.23	1.84	26.13	-30.3	-33.2	19.5	6.01e-01	0	44	0	182976512	21	5071
2026-01-23 02:38:27.23	1.69	26.30	-30.3	-33.4	19.4	6.01e-01	0	44	0	184549376	21	5131
2026-01-23 02:38:28.24	1.55	26.48	-30.1	-32.9	19.7	6.02e-01	0	44	0	186646528	21	4962
2026-01-23 02:38:29.24	1.40	26.65	-30.0	-33.1	19.8	6.02e-01	0	44	0	188743680	20	5143
2026-01-23 02:38:30.25	1.25	26.83	-30.0	-33.0	19.9	6.01e-01	0	44	0	190316544	20	5106
2026-01-23 02:38:31.26	1.10	27.01	-29.9	-32.9	20.0	6.01e-01	0	44	0	192413696	20	5055
2026-01-23 02:38:32.26	0.94	27.19	-30.0	-33.0	19.9	6.04e-01	0	44	0	194510848	20	5101
2026-01-23 02:38:33.27	0.79	27.37	-30.1	-32.7	19.8	6.00e-01	0	44	0	196083712	21	4892
2026-01-23 02:38:34.27	0.63	27.56	-29.9	-32.3	20.1	6.02e-01	0	44	0	198180864	21	4753
2026-01-23 02:38:35.28	0.47	27.74	-29.9	-32.7	20.1	6.02e-01	0	44	0	199753728	20	4980
2026-01-23 02:38:36.28	0.31	27.92	-29.8	-32.6	20.2	5.99e-01	0	44	0	201850880	20	4972
2026-01-23 02:38:37.28	0.15	28.11	-29.8	-32.5	20.2	5.98e-01	0	44	0	203423744	20	4920
2026-01-23 02:38:38.28	359.98	28.29	-29.8	-32.5	20.2	6.02e-01	0	44	0	205520896	20	4908
2026-01-23 02:38:39.28	359.82	28.48	-29.8	-32.6	20.2	6.03e-01	0	44	0	207618048	20	4951
2026-01-23 02:38:40.28	359.65	28.67	-29.9	-32.8	20.0	6.05e-01	0	44	0	209190912	20	5040
2026-01-23 02:38:41.28	359.48	28.86	-30.1	-32.7	19.8	6.00e-01	0	44	0	211288064	21	4878
2026-01-23 02:38:42.28	359.31	29.05	-29.9	-32.7	20.2	6.00e-01	0	44	0	212860928	20	4992
2026-01-23 02:38:43.27	359.13	29.24	-29.8	-32.6	20.2	6.03e-01	0	44	0	214958080	20	4972
2026-01-23 02:38:44.28	358.95	29.43	-30.0	-33.0	19.9	6.01e-01	0	44	0	216530944	20	5114
2026-01-23 02:38:45.28	358.78	29.62	-30.0	-33.1	19.9	5.99e-01	0	44	0	218628096	20	5122
2026-01-23 02:38:46.28	358.59	29.82	-30.0	-33.0	20.0	5.99e-01	0	44	0	220725248	20	5107
2026-01-23 02:38:47.29	358.41	30.01	-30.0	-33.0	20.0	6.03e-01	0	44	0	222298112	20	5102
2026-01-23 02:38:48.29	358.22	30.21	-29.9	-32.8	20.2	6.05e-01	0	44	0	224395264	20	5004
2026-01-23 02:38:49.30	358.03	30.41	-29.9	-32.7	20.1	6.02e-01	0	44	0	225968128	20	4997
2026-01-23 02:38:50.30	357.84	30.61	-29.9	-32.9	20.1	6.00e-01	0	44	0	228065280	20	5038
2026-01-23 02:38:51.31	357.65	30.81	-30.0	-32.5	19.9	6.01e-01	0	44	0	229638144	21	4818
2026-01-23 02:38:52.31	357.45	31.01	-29.8	-31.9	20.3	6.04e-01	0	44	0	231735296	21	4628
2026-01-23 02:38:53.31	357.25	31.21	-29.7	-32.3	20.4	6.01e-01	0	44	0	233832448	20	4863
2026-01-23 02:38:54.32	357.05	31.42	-29.9	-32.8	20.1	6.03e-01	0	44	0	235405312	20	5016
2026-01-23 02:38:55.32	356.84	31.62	-29.9	-32.8	20.2	6.04e-01	0	44	0	237502464	20	5005
2026-01-23 02:38:56.32	356.64	31.83	-30.0	-33.1	20.0	6.04e-01	0	44	0	239599616	20	5114
2026-01-23 02:38:57.32	356.43	32.04	-30.2	-33.0	19.8	6.02e-01	0	44	0	241172480	21	4959
2026-01-23 02:38:58.32	356.21	32.24	-30.2	-32.9	19.8	6.05e-01	0	44	0	243269632	21	4944
2026-01-23 02:38:59.33	356.00	32.46	-30.2	-33.0	19.8	6.03e-01	0	44	0	244842496	21	4961
2026-01-23 02:39:00.33	355.78	32.67	-30.3	-33.2	19.6	6.03e-01	0	44	0	246939648	21	5049
2026-01-23 02:39:01.33	355.56	32.88	-30.4	-33.4	19.4	6.03e-01	0	44	0	248512512	21	5135
2026-01-23 02:39:02.33	355.33	33.09	-30.3	-33.2	19.6	6.03e-01	0	44	0	250609664	21	5033
2026-01-23 02:39:03.33	355.11	33.30	-30.3	-33.3	19.6	6.02e-01	0	44	0	252706816	21	5080
2026-01-23 02:39:04.34	354.87	33.52	-30.4	-33.5	19.4	6.03e-01	0	44	0	254279680	21	5148
2026-01-23 02:39:05.34	354.64	33.73	-30.4	-33.7	19.3	6.00e-01	0	44	0	256376832	21	5220
2026-01-23 02:39:06.33	354.41	33.95	-30.6	-33.5	19.1	6.01e-01	0	44	0	257949696	22	5057
2026-01-23 02:39:07.34	354.16	34.17	-30.2	-32.6	19.7	6.00e-01	0	44	0	260046848	22	4717
2026-01-23 02:39:08.34	353.92	34.39	-30.0	-33.0	20.1	6.03e-01	0	44	0	261619712	20	5070
2026-01-23 02:39:09.35	353.67	34.61	-30.4	-33.4	19.6	6.04e-01	0	44	0	263716864	21	5121
2026-01-23 02:39:10.35	353.42	34.83	-30.6	-33.6	19.1	6.03e-01	0	44	0	265814016	22	5081
2026-01-23 02:39:11.35	353.17	35.05	-30.7	-33.8	19.0	6.02e-01	0	44	0	267386880	22	5148
2026-01-23 02:39:12.35	352.91	35.28	-30.8	-34.0	18.9	6.02e-01	0	44	0	269484032	22	5217
2026-01-23 02:39:13.36	352.64	35.50	-30.8	-34.2	18.8	6.00e-01	0	44	0	271581184	22	5282
2026-01-23 02:39:14.36	352.38	35.73	-30.9	-34.4	18.6	6.03e-01	0	44	0	273154048	22	5385
2026-01-23 02:39:15.36	352.11	35.95	-30.8	-34.1	18.8	6.01e-01	0	44	0	275251200	22	5264
2026-01-23 02:39:16.37	351.83	36.18	-30.6	-33.7	19.1	6.02e-01	0	44	0	276824064	22	5089
2026-01-23 02:39:17.37	351.56	36.41	-30.7	-33.7	19.0	6.02e-01	0	44	0	278921216	22	5115
2026-01-23 02:39:18.38	351.27	36.64	-31.0	-34.5	18.6	6.01e-01	0	44	0	280494080	22	5414
2026-01-23 02:39:19.38	350.99	36.87	-31.2	-34.6	18.2	6.01e-01	0	44	0	282591232	23	5349
2026-01-23 02:39:20.39	350.70	37.10	-31.3	-34.9	18.0	6.05e-01	0	44	0	284688384	23	5443
2026-01-23 02:39:21.38	350.41	37.33	-31.0	-34.1	18.6	6.02e-01	0	44	0	286261248	23	5127
2026-01-23 02:39:22.39	350.10	37.57	-31.0	-34.1	18.6	6.02e-01	0	44	0	288358400	23	5122
2026-01-23 02:39:23.38	349.81	37.80	-31.0	-34.6	18.5	6.03e-01	0	44	0	289931264	22	5441
2026-01-23 02:39:24.38	349.50	38.03	-31.2	-34.6	18.2	6.00e-01	0	44	0	292028416	23	5337
2026-01-23 02:39:25.39	349.18	38.27	-31.2	-34.5	18.3	6.04e-01	0	44	0	293601280	23	5304
2026-01-23 02:39:26.39	348.87	38.50	-31.1	-34.3	18.4	6.00e-01	0	44	0	295698432	23	5223
2026-01-23 02:39:27.40	348.54	38.74	-31.1	-34.2	18.5	6.03e-01	0	44	0	297795584	23	5191
2026-01-23 02:39:28.41	348.21	38.98	-31.1	-34.2	18.5	6.03e-01	0	44	0	299368448	23	5184
2026-01-23 02:39:29.41	347.88	39.22	-31.2	-34.7	18.2	6.02e-01	0	44	0	301465600	23	5365
2026-01-23 02:39:30.41	347.55	39.46	-31.3	-34.8	18.1	6.03e-01	0	44	0	303562752	23	5405
2026-01-23 02:39:31.41	347.21	39.70	-31.0	-34.0	18.6	6.04e-01	0	44	0	305135616	23	5106
2026-01-23 02:39:32.41	346.86	39.94	-31.2	-34.7	18.2	6.01e-01	0	44	0	307232768	23	5364
2026-01-23 02:39:33.41	346.51	40.18	-31.3	-34.8	18.1	6.03e-01	0	44	0	308805632	23	5422
2026-01-23 02:39:34.42	346.15	40.42	-30.9	-33.7	18.8	6.04e-01	0	44	0	310902784	23	4984
2026-01-23 02:39:35.41	345.79	40.66	-30.8	-34.1	18.8	6.01e-01	0	44	0	312475648	22	5261
2026-01-23 02:39:36.41	345.42	40.90	-31.1	-34.4	18.3	6.03e-01	0	44	0	314572800	23	5257
2026-01-23 02:39:37.41	345.05	41.14	-31.1	-34.4	18.3	6.01e-01	0	44	0	316669952	23	5263
2026-01-23 02:39:38.41	344.67	41.39	-31.0	-34.1	18.5	6.03e-01	0	44	0	318242816	23	5135
2026-01-23 02:39:39.41	344.28	41.63	-31.1	-34.8	18.4	6.02e-01	0	44	0	320339968	22	5515
2026-01-23 02:39:40.41	343.89	41.87	-31.0	-34.5	18.6	6.00e-01	0	44	0	321912832	22	5389
2026-01-23 02:39:41.41	343.49	42.11	-30.8	-34.1	18.9	6.01e-01	0	44	0	324009984	22	5233
2026-01-23 02:39:42.42	343.09	42.36	-30.9	-34.3	18.7	6.03e-01	0	44	0	325582848	22	5332
2026-01-23 02:39:43.42	342.68	42.60	-31.0	-34.6	18.5	6.00e-01	0	44	0	327680000	22	5461
2026-01-23 02:39:44.43	342.26	42.85	-31.0	-34.5	18.6	6.04e-01	0	44	0	329777152	22	5409
2026-01-23 02:39:45.43	341.83	43.09	-30.7	-33.8	19.0	6.02e-01	0	44	0	331350016	22	5136
2026-01-23 02:39:46.44	341.40	43.34	-31.2	-34.8	18.4	6.07e-01	0	44	0	333447168	22	5421
2026-01-23 02:39:47.44	340.96	43.58	-30.8	-34.0	18.3	6.07e-01	0	44	0	335020032	22	5221
2026-01-23 02:39:48.44	340.52	43.82	-31.0	-34.5	18.6	6.01e-01	0	44	0	337117184	22	5422
2026-01-23 02:39:49.44	340.07	44.06	-30.9	-34.3	17.5	6.03e-01	0	44	0	338690048	22	5319
2026-01-23 02:39:50.45	339.61	44.31	-30.6	-33.9	19.2	6.03e-01	0	44	0	340787200	21	5304
2026-01-23 02:39:51.45	339.14	44.55	-30.6	-33.4	19.3	6.01e-01	0	44	0	342884352	22	4985
2026-01-23 02:39:52.46	338.67	44.79	-30.7	-33.7	19.1	6.01e-01	0	44	0	344457216	22	5086
2026-01-23 02:39:53.46	338.19	45.03	-31.0	-34.5	18.6	6.01e-01	0	44	0	346554368	22	5397
2026-01-23 02:39:54.47	337.70	45.27	-30.6	-33.5	19.2	6.00e-01	0	44	0	348651520	22	5029
2026-01-23 02:39:55.47	337.20	45.51	-30.5	-33.7	19.4	6.02e-01	0	44	0	350224384	21	5209
2026-01-23 02:39:56.47	336.70	45.75	-30.7	-33.7	19.1	6.03e-01	0	44	0	352321536	22	5108
2026-01-23 02:39:57.47	336.19	45.99	-30.8	-34.0	18.9	6.03e-01	0	44	0	353894400	22	5216
2026-01-23 02:39:58.47	335.67	46.22	-30.8	-33.9	18.9	5.99e-01	0	44	0	355991552	22	5181
2026-01-23 02:39:59.48	335.14	46.46	-30.7	-33.7	19.0	6.05e-01	0	44	0	357564416	22	5105
2026-01-23 02:40:00.49	334.60	46.70	-30.8	-34.2	18.8	6.02e-01	0	44	0	359661568	22	5273
2026-01-23 02:40:01.49	334.06	46.93	-31.0	-34.1	18.5	6.02e-01	0	44	0	361758720	23	5154
2026-01-23 02:40:02.50	333.51	47.16	-31.0	-34.6	18.5	6.05e-01	0	44	0	363331584	22	5471
2026-01-23 02:40:03.50	332.95	47.39	-30.9	-34.4	18.6	6.00e-01	0	44	0	365428736	22	5374
2026-01-23 02:40:04.50	332.38	47.62	-30.9	-34.3	18.7	6.02e-01	0	44	0	367001600	22	5331
2026-01-23 02:40:05.51	331.80	47.84	-30.9	-34.4	18.6	6.04e-01	0	44	0	369098752	22	5368
2026-01-23 02:40:06.51	331.22	48.07	-31.1	-34.8	18.4	6.01e-01	0	44	0	371195904	22	5531
2026-01-23 02:40:07.51	330.62	48.29	-31.1	-34.5	18.3	6.03e-01	0	44	0	372768768	23	5286
2026-01-23 02:40:08.52	330.02	48.51	-30.9	-34.3	18.7	6.02e-01	0	44	0	374865920	22	5334
2026-01-23 02:40:09.52	329.41	48.72	-30.9	-34.4	18.6	6.04e-01	0	44	0	376438784	22	5361
2026-01-23 02:40:10.52	328.79	48.94	-31.0	-34.5	18.6	6.04e-01	0	44	0	378535936	22	5392
2026-01-23 02:40:11.52	328.16	49.15	-30.9	-34.4	18.6	6.00e-01	0	44	0	380108800	22	5355
2026-01-23 02:40:12.52	327.52	49.36	-30.5	-33.3	19.3	6.03e-01	0	44	0	382205952	22	4958
2026-01-23 02:40:13.52	326.88	49.57	-30.6	-33.6	19.2	6.01e-01	0	44	0	384303104	22	5069
2026-01-23 02:40:14.53	326.22	49.77	-30.9	-34.2	18.7	6.03e-01	0	44	0	385875968	22	5297
2026-01-23 02:40:15.54	325.55	49.97	-30.6	-33.4	19.2	6.04e-01	0	44	0	387973120	22	5005
2026-01-23 02:40:16.54	324.88	50.17	-30.4	-33.5	19.4	6.03e-01	0	44	0	389545984	21	5159
2026-01-23 02:40:17.55	324.19	50.37	-30.7	-33.9	19.0	6.00e-01	0	44	0	391643136	22	5160
2026-01-23 02:40:18.56	323.49	50.56	-30.7	-33.8	19.0	6.03e-01	0	44	0	393740288	22	5149
2026-01-23 02:40:19.56	322.79	50.74	-30.6	-33.9	19.2	6.03e-01	0	44	0	395313152	21	5276
2026-01-23 02:40:20.57	322.08	50.93	-30.6	-33.6	19.1	6.03e-01	0	44	0	397410304	22	5085
2026-01-23 02:40:21.57	321.36	51.11	-30.6	-33.6	19.1	6.04e-01	0	44	0	398983168	22	5061
2026-01-23 02:40:22.58	320.63	51.28	-30.5	-33.3	19.3	6.04e-01	0	44	0	401080320	22	4940
2026-01-23 02:40:23.58	319.90	51.45	-30.4	-33.5	19.5	6.04e-01	0	44	0	403177472	21	5143
2026-01-23 02:40:24.58	319.16	51.62	-30.6	-33.9	19.2	6.01e-01	0	44	0	404750336	21	5286
2026-01-23 02:40:25.59	318.40	51.78	-30.4	-33.6	19.4	6.04e-01	0	44	0	406847488	21	5188
2026-01-23 02:40:26.60	317.63	51.94	-30.4	-33.6	19.4	6.04e-01	0	44	0	408420352	21	5185
2026-01-23 02:40:27.60	316.87	52.10	-30.5	-33.2	19.4	6.02e-01	0	44	0	410517504	22	4937
2026-01-23 02:40:28.61	316.08	52.25	-30.2	-32.6	19.7	6.02e-01	0	44	0	412614656	22	4710
2026-01-23 02:40:29.61	315.30	52.39	-30.3	-33.3	19.6	6.04e-01	0	44	0	414187520	21	5092
2026-01-23 02:40:30.62	314.50	52.53	-30.5	-33.2	19.4	6.02e-01	0	44	0	416284672	22	4934
2026-01-23 02:40:31.62	313.71	52.66	-30.2	-32.9	19.9	6.02e-01	0	44	0	417857536	21	4918
2026-01-23 02:40:32.63	312.89	52.79	-30.5	-33.6	19.4	6.02e-01	0	44	0	419954688	21	5199
2026-01-23 02:40:33.63	312.08	52.91	-30.6	-33.6	19.1	5.99e-01	0	44	0	422051840	22	5054
2026-01-23 02:40:34.63	311.26	53.02	-30.5	-33.3	19.3	6.03e-01	0	44	0	423624704	22	4945
2026-01-23 02:40:35.63	310.44	53.13	-30.3	-33.2	19.6	6.00e-01	0	44	0	425721856	21	5042
2026-01-23 02:40:36.64	309.60	53.24	-30.3	-33.3	19.6	6.03e-01	0	44	0	427294720	21	5060
2026-01-23 02:40:37.64	308.76	53.34	-30.6	-33.6	19.0	6.03e-01	0	44	0	429391872	22	5077
2026-01-23 02:40:38.65	307.91	53.43	-30.4	-32.9	19.5	6.02e-01	0	44	0	430964736	22	4828
2026-01-23 02:40:39.65	307.07	53.52	-30.4	-33.0	19.6	6.02e-01	0	44	0	433061888	22	4855
2026-01-23 02:40:40.65	306.21	53.60	-30.4	-33.4	19.6	6.02e-01	0	44	0	435159040	21	5098
2026-01-23 02:40:41.65	305.36	53.67	-30.8	-34.1	18.9	6.02e-01	0	44	0	436731904	22	5241
2026-01-23 02:40:42.64	304.50	53.74	-30.3	-32.9	19.6	6.00e-01	0	44	0	438829056	22	4805
2026-01-23 02:40:43.64	303.64	53.80	-30.8	-34.0	18.8	6.02e-01	0	44	0	440401920	22	5222
2026-01-23 02:40:44.64	302.77	53.85	-30.5	-33.3	19.2	6.02e-01	0	44	0	442499072	22	4966
2026-01-23 02:40:45.64	301.90	53.90	-30.1	-32.3	19.9	6.02e-01	0	44	0	444071936	22	4621
2026-01-23 02:40:46.64	301.02	53.94	-30.3	-33.2	19.7	6.03e-01	0	44	0	446169088	21	5039
2026-01-23 02:40:47.64	300.15	53.97	-30.2	-33.0	19.7	6.01e-01	0	44	0	448266240	21	4985
2026-01-23 02:40:48.64	299.27	54.00	-30.8	-34.0	18.9	6.02e-01	0	44	0	449839104	22	5235
2026-01-23 02:40:49.64	298.39	54.02	-30.4	-33.0	19.3	6.01e-01	0	44	0	451936256	22	4861
2026-01-23 02:40:50.65	297.50	54.03	-30.2	-32.4	19.9	5.99e-01	0	44	0	453509120	22	4667
2026-01-23 02:40:51.64	296.62	54.04	-30.6	-33.5	19.3	6.01e-01	0	44	0	455606272	22	5027
2026-01-23 02:40:52.65	295.73	54.04	-31.1	-34.9	18.3	6.01e-01	0	44	0	457703424	22	5574
2026-01-23 02:40:53.65	294.85	54.03	-30.5	-33.3	18.9	6.00e-01	0	44	0	459276288	22	4960
2026-01-23 02:40:54.65	293.97	54.02	-30.3	-32.6	19.7	6.00e-01	0	44	0	461373440	22	4707
2026-01-23 02:40:55.66	293.08	54.00	-30.6	-33.6	19.2	6.01e-01	0	44	0	462946304	22	5044
2026-01-23 02:40:56.66	292.20	53.97	-31.3	-35.0	18.1	6.02e-01	0	44	0	465043456	23	5532
2026-01-23 02:40:57.66	291.32	53.94	-31.5	-35.8	17.3	6.01e-01	0	44	0	467140608	23	5868
2026-01-23 02:40:58.66	290.45	53.90	-30.4	-32.7	18.8	6.02e-01	0	44	0	468713472	23	4641
2026-01-23 02:40:59.67	289.57	53.85	-29.7	-31.6	20.4	6.00e-01	0	44	0	470810624	21	4507
2026-01-23 02:41:00.67	288.70	53.80	-29.7	-31.7	20.5	6.03e-01	0	44	0	472383488	21	4529
2026-01-23 02:41:01.67	287.83	53.74	-30.1	-32.9	19.9	6.02e-01	0	44	0	474480640	21	4928
2026-01-23 02:41:02.67	286.97	53.67	-30.8	-34.3	18.7	6.01e-01	0	44	0	476053504	22	5334
2026-01-23 02:41:03.68	286.10	53.60	-30.4	-33.0	19.5	6.03e-01	0	44	0	478150656	22	4872
2026-01-23 02:41:04.69	285.24	53.52	-30.5	-33.8	19.2	6.03e-01	0	44	0	480247808	21	5281
2026-01-23 02:41:05.70	284.38	53.43	-30.7	-33.8	18.8	6.02e-01	0	44	0	481820672	22	5193
2026-01-23 02:41:06.70	283.54	53.34	-30.7	-33.9	18.7	6.03e-01	0	44	0	483917824	22	5189
2026-01-23 02:41:07.71	282.69	53.24	-30.2	-33.1	19.5	6.00e-01	0	44	0	485490688	21	5009
2026-01-23 02:41:08.71	281.86	53.13	-30.4	-33.6	19.3	6.03e-01	0	44	0	487587840	21	5224
2026-01-23 02:41:09.72	281.03	53.02	-30.4	-33.5	19.2	6.02e-01	0	44	0	489684992	21	5178
2026-01-23 02:41:10.72	280.21	52.91	-30.5	-33.2	19.2	6.01e-01	0	44	0	491257856	22	4966
2026-01-23 02:41:11.72	279.40	52.79	-30.4	-33.1	19.2	6.03e-01	0	44	0	493355008	22	4924
2026-01-23 02:41:12.73	278.58	52.66	-30.0	-32.6	19.8	6.02e-01	0	44	0	494927872	21	4872
2026-01-23 02:41:13.73	277.79	52.52	-30.1	-33.0	19.6	6.04e-01	0	44	0	497025024	21	4988
2026-01-23 02:41:14.73	276.99	52.39	-29.9	-32.9	20.1	6.03e-01	0	44	0	499122176	20	5074
2026-01-23 02:41:15.73	276.21	52.24	-30.3	-33.4	19.5	6.01e-01	0	44	0	500695040	21	5129
2026-01-23 02:41:16.74	275.43	52.09	-30.2	-33.2	19.6	6.02e-01	0	44	0	502792192	21	5070
2026-01-23 02:41:17.75	274.65	51.94	-29.8	-32.2	20.1	6.03e-01	0	44	0	504365056	21	4723
2026-01-23 02:41:18.75	273.89	51.78	-29.6	-31.5	20.5	6.01e-01	0	44	0	506462208	21	4506
2026-01-23 02:41:19.76	273.13	51.62	-29.2	-31.0	21.2	6.00e-01	0	44	0	508559360	20	4443
2026-01-23 02:41:20.76	272.39	51.45	-29.5	-31.9	20.5	6.00e-01	0	44	0	510132224	20	4730
2026-01-23 02:41:21.76	271.66	51.28	-30.0	-33.0	19.9	5.99e-01	0	44	0	512229376	20	5121
2026-01-23 02:41:22.77	270.92	51.10	-29.4	-31.5	20.7	6.01e-01	0	44	0	513802240	20	4615
2026-01-23 02:41:23.77	270.21	50.93	-29.5	-32.4	20.7	6.03e-01	0	44	0	515899392	19	4995
2026-01-23 02:41:24.78	269.49	50.74	-29.6	-32.4	20.4	6.04e-01	0	44	0	517472256	19	5012
2026-01-23 02:41:25.78	268.79	50.55	-29.6	-32.4	19.2	6.03e-01	0	44	0	519569408	19	5008
2026-01-23 02:41:26.79	268.09	50.36	-29.9	-32.7	20.1	6.03e-01	0	44	0	521666560	20	5008
2026-01-23 02:41:27.78	267.42	50.17	-29.7	-32.3	18.7	6.05e-01	0	44	0	523239424	20	4865
2026-01-23 02:41:28.79	266.74	49.97	-29.8	-32.5	19.6	6.02e-01	0	44	0	525336576	20	4927
2026-01-23 02:41:29.80	266.07	49.77	-29.5	-31.8	20.6	6.02e-01	0	44	0	526909440	20	4699
2026-01-23 02:41:30.80	265.41	49.56	-29.4	-32.1	20.4	6.04e-01	0	44	0	529006592	19	4893
2026-01-23 02:41:31.80	264.77	49.36	-29.7	-32.4	20.3	6.04e-01	0	44	0	531103744	20	4907
2026-01-23 02:41:32.81	264.12	49.14	-29.2	-31.1	20.9	6.04e-01	0	44	0	532676608	20	4490
2026-01-23 02:41:33.81	263.49	48.93	-29.7	-32.3	20.3	6.03e-01	0	44	0	534773760	20	4875
2026-01-23 02:41:34.82	262.87	48.72	-29.7	-32.2	20.4	6.01e-01	0	44	0	536346624	20	4838
2026-01-23 02:41:35.82	262.26	48.50	-29.3	-31.2	20.9	6.03e-01	0	44	0	538443776	20	4517
2026-01-23 02:41:36.82	261.65	48.28	-29.2	-31.7	21.0	6.03e-01	0	44	0	540540928	19	4755
2026-01-23 02:41:37.83	261.05	48.05	-29.6	-32.0	20.5	6.01e-01	0	44	0	542113792	20	4771
2026-01-23 02:41:38.83	260.47	47.83	-29.5	-31.8	20.6	6.03e-01	0	44	0	544210944	20	4712
2026-01-23 02:41:39.84	259.89	47.60	-29.1	-31.3	21.2	6.01e-01	0	44	0	545783808	19	4624
2026-01-23 02:41:40.84	259.32	47.37	-29.4	-32.1	20.8	6.05e-01	0	44	0	547880960	19	4890
2026-01-23 02:41:41.84	258.76	47.15	-29.4	-32.0	20.8	6.03e-01	0	44	0	549453824	19	4885
2026-01-23 02:41:42.85	258.20	46.91	-29.6	-32.2	20.3	6.01e-01	0	44	0	551550976	20	4837
2026-01-23 02:41:43.86	257.65	46.68	-29.3	-31.9	20.8	6.01e-01	0	44	0	553648128	19	4826
2026-01-23 02:41:44.85	257.13	46.45	-29.3	-31.9	20.8	6.00e-01	0	44	0	555220992	19	4858
2026-01-23 02:41:45.86	256.59	46.21	-29.1	-31.8	21.2	6.03e-01	0	44	0	557318144	18	4917
2026-01-23 02:41:46.86	256.07	45.97	-29.4	-32.2	20.7	6.00e-01	0	44	0	558891008	19	4932
2026-01-23 02:41:47.87	255.56	45.73	-29.4	-32.1	20.8	6.01e-01	0	44	0	560988160	19	4901
2026-01-23 02:41:48.87	255.06	45.49	-29.2	-31.6	21.0	6.01e-01	0	44	0	563085312	19	4749
2026-01-23 02:41:49.87	254.56	45.25	-29.3	-31.8	20.9	6.00e-01	0	44	0	564658176	19	4797
2026-01-23 02:41:50.87	254.07	45.01	-29.2	-31.5	21.0	6.03e-01	0	44	0	566755328	19	4717
2026-01-23 02:41:51.88	253.59	44.77	-29.2	-31.7	21.0	6.01e-01	0	44	0	568328192	19	4765
2026-01-23 02:41:52.88	253.11	44.53	-29.4	-32.0	20.8	6.02e-01	0	44	0	570425344	19	4893
2026-01-23 02:41:53.88	252.65	44.29	-29.1	-31.5	21.1	6.01e-01	0	44	0	572522496	19	4697
2026-01-23 02:41:54.88	252.19	44.04	-29.5	-32.4	20.6	6.04e-01	0	44	0	574095360	19	5003
2026-01-23 02:41:55.89	251.73	43.80	-29.2	-31.7	20.9	6.02e-01	0	44	0	576192512	19	4763
2026-01-23 02:41:56.89	251.29	43.56	-29.3	-31.7	20.9	6.00e-01	0	44	0	577765376	19	4786
2026-01-23 02:41:57.89	250.85	43.31	-29.4	-32.1	20.7	6.02e-01	0	44	0	579862528	19	4899
2026-01-23 02:41:58.90	250.42	43.07	-29.4	-32.1	20.7	5.99e-01	0	44	0	581959680	19	4903
2026-01-23 02:41:59.90	249.99	42.82	-29.5	-32.0	20.3	6.04e-01	0	44	0	583532544	20	4767
2026-01-23 02:42:00.91	249.57	42.58	-29.6	-32.3	20.2	6.02e-01	0	44	0	585629696	20	4862
2026-01-23 02:42:01.91	249.16	42.33	-29.8	-32.6	20.0	6.04e-01	0	44	0	587202560	20	4977
2026-01-23 02:42:02.91	248.76	42.09	-29.8	-32.7	19.9	6.01e-01	0	44	0	589299712	20	5002
2026-01-23 02:42:03.90	248.36	41.85	-30.1	-33.0	19.4	6.01e-01	0	44	0	590872576	21	5014
2026-01-23 02:42:04.90	247.97	41.60	-29.9	-33.0	19.8	6.04e-01	0	44	0	592969728	20	5111
2026-01-23 02:42:05.90	247.58	41.36	-30.2	-33.3	19.3	6.03e-01	0	44	0	595066880	21	5104
2026-01-23 02:42:06.91	247.20	41.11	-30.5	-34.1	18.8	6.02e-01	0	44	0	596639744	21	5408
2026-01-23 02:42:07.91	246.82	40.87	-30.5	-34.0	18.8	6.03e-01	0	44	0	598736896	21	5379
2026-01-23 02:42:08.92	246.45	40.63	-30.6	-33.8	18.6	6.02e-01	0	44	0	600309760	22	5174
2026-01-23 02:42:09.92	246.09	40.38	-30.8	-34.3	18.3	6.02e-01	0	44	0	602406912	22	5395
2026-01-23 02:42:10.92	245.73	40.14	-31.0	-34.9	18.0	6.03e-01	0	44	0	604504064	22	5607
2026-01-23 02:42:11.93	245.37	39.90	-30.7	-33.9	18.6	6.02e-01	0	44	0	606076928	22	5201
2026-01-23 02:42:12.93	245.03	39.66	-30.7	-34.0	18.6	6.02e-01	0	44	0	608174080	22	5263
2026-01-23 02:42:13.93	244.68	39.42	-31.3	-35.1	17.5	6.05e-01	0	44	0	609746944	23	5600
2026-01-23 02:42:14.93	244.35	39.18	-31.1	-34.7	17.8	6.01e-01	0	44	0	611844096	23	5412
2026-01-23 02:42:15.93	244.02	38.94	-31.4	-35.4	17.4	6.02e-01	0	44	0	613416960	23	5718
2026-01-23 02:42:16.93	243.69	38.70	-31.2	-35.0	17.6	6.02e-01	0	44	0	615514112	23	5548
2026-01-23 02:42:17.94	243.36	38.46	-30.8	-33.9	18.2	6.01e-01	0	44	0	617611264	23	5120
2026-01-23 02:42:18.94	243.05	38.23	-30.4	-33.6	19.0	6.03e-01	0	44	0	619184128	21	5232
2026-01-23 02:42:19.94	242.73	37.99	-30.3	-33.4	19.2	6.02e-01	0	44	0	621281280	21	5152
2026-01-23 02:42:20.94	242.43	37.75	-30.6	-34.2	18.7	6.03e-01	0	44	0	622854144	21	5473
2026-01-23 02:42:21.94	242.12	37.52	-30.6	-33.8	18.6	6.03e-01	0	44	0	624951296	22	5206
2026-01-23 02:42:22.94	241.82	37.29	-30.1	-32.9	19.4	6.03e-01	0	44	0	626524160	21	4982
2026-01-23 02:42:23.94	241.53	37.05	-30.0	-32.7	19.6	6.00e-01	0	44	0	628621312	21	4912
2026-01-23 02:42:24.95	241.24	36.82	-30.6	-33.8	18.6	6.03e-01	0	44	0	630718464	22	5211
2026-01-23 02:42:25.95	240.95	36.59	-30.5	-33.6	18.7	6.01e-01	0	44	0	632291328	22	5135
2026-01-23 02:42:26.95	240.67	36.36	-30.1	-32.5	19.4	6.03e-01	0	44	0	634388480	22	4736
2026-01-23 02:42:27.95	240.39	36.13	-30.2	-33.2	19.3	5.98e-01	0	44	0	635961344	21	5093
2026-01-23 02:42:28.96	240.12	35.90	-30.4	-33.7	19.0	6.01e-01	0	44	0	638058496	21	5264
2026-01-23 02:42:29.96	239.85	35.67	-30.2	-33.4	19.1	6.00e-01	0	44	0	640155648	21	5161
2026-01-23 02:42:30.97	239.58	35.45	-29.9	-32.4	19.7	6.01e-01	0	44	0	641728512	21	4808
2026-01-23 02:42:31.97	239.31	35.22	-30.1	-33.3	19.5	6.02e-01	0	44	0	643825664	20	5245
2026-01-23 02:42:32.98	239.05	35.00	-30.3	-33.5	19.1	6.00e-01	0	44	0	645398528	21	5218
2026-01-23 02:42:33.99	238.80	34.77	-30.5	-34.0	18.8	6.03e-01	0	44	0	647495680	21	5391
2026-01-23 02:42:35.00	238.54	34.55	-29.8	-32.3	19.7	6.01e-01	0	44	0	649592832	21	4757
2026-01-23 02:42:36.00	238.30	34.33	-29.4	-31.2	20.4	6.03e-01	0	44	0	651165696	21	4406
2026-01-23 02:42:37.01	238.05	34.10	-29.6	-32.2	20.1	6.03e-01	0	44	0	653262848	20	4846
2026-01-23 02:42:38.00	237.81	33.89	-29.9	-33.0	19.7	6.03e-01	0	44	0	654835712	20	5121
2026-01-23 02:42:39.01	237.57	33.67	-30.0	-33.2	19.5	6.02e-01	0	44	0	656932864	20	5215
2026-01-23 02:42:40.01	237.34	33.45	-29.6	-32.1	20.2	6.03e-01	0	44	0	659030016	20	4809
2026-01-23 02:42:41.01	237.10	33.24	-29.4	-32.1	20.5	6.02e-01	0	44	0	660602880	19	4934
2026-01-23 02:42:42.01	236.88	33.02	-29.5	-32.4	20.4	6.02e-01	0	44	0	662700032	19	5015
2026-01-23 02:42:43.01	236.65	32.81	-29.7	-32.5	20.0	6.00e-01	0	44	0	664272896	20	4953
2026-01-23 02:42:44.01	236.43	32.60	-29.9	-33.0	19.6	6.01e-01	0	44	0	666370048	20	5132
2026-01-23 02:42:45.02	236.21	32.38	-29.7	-32.4	20.0	6.00e-01	0	44	0	667942912	20	4930
2026-01-23 02:42:46.02	235.99	32.17	-29.7	-32.4	20.0	5.96e-01	0	44	0	670040064	20	4921
2026-01-23 02:42:47.02	235.78	31.97	-29.9	-33.0	19.6	6.05e-01	0	44	0	672137216	20	5141
2026-01-23 02:42:48.03	235.57	31.76	-29.8	-32.7	19.7	6.02e-01	0	44	0	673710080	20	5045
2026-01-23 02:42:49.03	235.36	31.55	-29.6	-32.3	20.0	6.03e-01	0	44	0	675807232	20	4888
2026-01-23 02:42:50.03	235.16	31.35	-29.5	-32.0	20.2	6.02e-01	0	44	0	677380096	20	4779
2026-01-23 02:42:51.04	234.95	31.14	-29.7	-32.3	20.1	6.01e-01	0	44	0	679477248	20	4897
2026-01-23 02:42:52.04	234.75	30.94	-30.1	-33.0	19.3	5.99e-01	0	44	0	681050112	21	5039
2026-01-23 02:42:53.04	234.56	30.73	-30.1	-32.9	19.4	6.03e-01	0	44	0	683147264	21	5008
2026-01-23 02:42:54.04	234.36	30.53	-29.9	-32.5	19.6	6.03e-01	0	44	0	685244416	21	4858
2026-01-23 02:42:55.05	234.17	30.33	-29.6	-32.2	20.1	6.01e-01	0	44	0	686817280	20	4845
2026-01-23 02:42:56.06	233.98	30.13	-29.4	-31.8	20.3	6.00e-01	0	44	0	688914432	20	4727
2026-01-23 02:42:57.05	233.79	29.94	-29.6	-32.2	20.1	6.01e-01	0	44	0	691011584	20	4870
2026-01-23 02:42:58.06	233.61	29.74	-29.6	-32.2	20.1	6.00e-01	0	44	0	692584448	20	4862
2026-01-23 02:42:59.06	233.42	29.54	-29.5	-32.1	20.1	6.03e-01	0	44	0	694681600	20	4823
2026-01-23 02:43:00.06	233.24	29.35	-29.4	-31.8	20.2	6.01e-01	0	44	0	696254464	20	4751
2026-01-23 02:43:01.07	233.07	29.15	-29.4	-32.2	20.4	6.00e-01	0	44	0	698351616	19	4960
2026-01-23 02:43:02.08	232.89	28.96	-29.4	-32.1	20.4	6.04e-01	0	44	0	699924480	19	4953
2026-01-23 02:43:03.08	232.71	28.77	-29.5	-32.5	20.2	6.01e-01	0	44	0	702021632	19	5096
2026-01-23 02:43:04.08	232.54	28.58	-29.5	-32.6	20.2	6.03e-01	0	44	0	704118784	19	5125
2026-01-23 02:43:05.08	232.38	28.39	-29.7	-32.6	19.8	6.00e-01	0	44	0	705691648	20	5017
2026-01-23 02:43:06.09	232.21	28.20	-28.0	-30.8	20.1	6.03e-01	0	44	0	707788800	19	4972
2026-01-23 02:43:07.09	232.04	28.02	-29.9	-32.9	19.6	6.05e-01	0	44	0	709361664	19	5132
2026-01-23 02:43:08.10	231.88	27.83	-29.4	-32.2	20.5	6.03e-01	0	44	0	711458816	19	4965
2026-01-23 02:43:09.10	231.72	27.65	-29.6	-32.6	20.1	5.99e-01	0	44	0	713555968	19	5136
2026-01-23 02:43:10.11	231.56	27.46	-29.6	-32.2	20.0	6.01e-01	0	44	0	715128832	20	4874
2026-01-23 02:43:11.11	231.40	27.28	-29.9	-33.0	19.5	6.02e-01	0	44	0	717225984	20	5182
2026-01-23 02:43:12.11	231.24	27.10	-29.9	-33.0	19.5	6.03e-01	0	44	0	718798848	20	5178
2026-01-23 02:43:13.11	231.09	26.92	-29.9	-33.2	19.3	6.02e-01	0	44	0	720896000	20	5245
2026-01-23 02:43:14.11	230.94	26.74	-29.7	-32.6	19.8	5.98e-01	0	44	0	722993152	20	5015
2026-01-23 02:43:15.12	230.79	26.56	-29.6	-32.3	19.9	6.03e-01	0	44	0	724566016	20	4903
2026-01-23 02:43:16.12	230.64	26.38	-29.6	-32.3	19.9	6.02e-01	0	44	0	726663168	20	4914
2026-01-23 02:43:17.12	230.49	26.21	-29.6	-32.4	19.8	6.02e-01	0	44	0	728236032	20	4944
2026-01-23 02:43:18.12	230.35	26.03	-29.5	-32.0	20.1	6.01e-01	0	44	0	730333184	20	4813
2026-01-23 02:43:19.13	230.21	25.86	-29.5	-32.5	20.2	6.00e-01	0	44	0	731906048	19	5081
2026-01-23 02:43:20.13	230.06	25.69	-29.5	-32.5	20.1	6.03e-01	0	44	0	734003200	19	5112
2026-01-23 02:43:21.13	229.93	25.51	-29.5	-32.6	20.1	6.02e-01	0	44	0	736100352	19	5150
2026-01-23 02:43:22.14	229.79	25.34	-29.6	-32.3	19.9	6.01e-01	0	44	0	737673216	20	4918
2026-01-23 02:43:23.14	229.65	25.17	-29.6	-32.4	19.8	6.02e-01	0	44	0	739770368	20	4968
2026-01-23 02:43:24.14	229.51	25.00	-29.7	-32.7	19.7	6.02e-01	0	44	0	741343232	20	5075
2026-01-23 02:43:25.15	229.38	24.83	-29.6	-32.5	19.8	6.01e-01	0	44	0	743440384	20	5001
2026-01-23 02:43:26.15	229.25	24.67	-29.7	-32.7	19.6	6.00e-01	0	44	0	745537536	20	5069
2026-01-23 02:43:27.15	229.12	24.50	-29.8	-32.9	19.5	6.01e-01	0	44	0	747110400	20	5129
2026-01-23 02:43:28.15	228.99	24.34	-29.6	-32.4	19.9	6.01e-01	0	44	0	749207552	20	4942
2026-01-23 02:43:29.15	228.86	24.17	-29.5	-32.1	20.0	6.05e-01	0	44	0	750780416	20	4866
2026-01-23 02:43:30.15	228.74	24.01	-29.6	-32.7	20.0	6.00e-01	0	44	0	752877568	19	5174
2026-01-23 02:43:31.15	228.61	23.85	-29.6	-32.3	19.9	6.01e-01	0	44	0	754450432	20	4926
2026-01-23 02:43:32.16	228.49	23.69	-29.7	-32.6	19.7	6.02e-01	0	44	0	756547584	20	5045
2026-01-23 02:43:33.16	228.36	23.53	-29.9	-33.2	19.3	6.02e-01	0	44	0	758644736	20	5246
2026-01-23 02:43:34.16	228.24	23.37	-29.9	-33.2	19.3	6.00e-01	0	44	0	760217600	20	5265
2026-01-23 02:43:35.17	228.12	23.21	-30.0	-33.4	19.1	6.04e-01	0	44	0	762314752	20	5352
2026-01-23 02:43:36.17	228.00	23.05	-29.9	-33.0	19.3	6.05e-01	0	44	0	763887616	20	5201
2026-01-23 02:43:37.18	227.89	22.89	-29.8	-32.8	19.5	6.02e-01	0	44	0	765984768	20	5103
2026-01-23 02:43:38.19	227.77	22.74	-29.7	-32.6	19.5	6.02e-01	0	44	0	768081920	20	5043
2026-01-23 02:43:39.19	227.66	22.58	-29.6	-32.5	19.7	6.03e-01	0	44	0	769654784	20	4985
2026-01-23 02:43:40.19	227.54	22.43	-29.7	-32.6	19.7	5.99e-01	0	44	0	771751936	20	5017
2026-01-23 02:43:41.19	227.43	22.28	-29.8	-33.0	19.4	6.02e-01	0	44	0	773324800	20	5168
2026-01-23 02:43:42.20	227.32	22.12	-29.7	-32.5	19.7	6.02e-01	0	44	0	775421952	20	5014
2026-01-23 02:43:43.19	227.21	21.97	-29.9	-33.2	19.3	6.01e-01	0	44	0	776994816	20	5245
2026-01-23 02:43:44.20	227.10	21.82	-30.2	-33.4	18.8	6.00e-01	0	44	0	779091968	21	5223
2026-01-23 02:43:45.19	226.99	21.68	-29.9	-33.3	19.2	6.01e-01	0	44	0	781189120	20	5298
2026-01-23 02:43:46.20	226.89	21.53	-30.0	-33.6	19.0	6.00e-01	0	44	0	782761984	20	5402
2026-01-23 02:43:47.20	226.78	21.38	-30.0	-33.5	19.0	6.04e-01	0	44	0	784859136	20	5374
2026-01-23 02:43:48.20	226.68	21.23	-30.1	-33.2	18.9	6.03e-01	0	44	0	786432000	21	5160
2026-01-23 02:43:49.20	226.58	21.09	-30.2	-33.6	18.6	6.01e-01	0	44	0	788529152	21	5283
2026-01-23 02:43:50.21	226.47	20.94	-30.4	-34.0	18.4	6.00e-01	0	44	0	790626304	21	5454
2026-01-23 02:43:51.21	226.37	20.80	-30.2	-33.5	18.7	6.00e-01	0	44	0	792199168	21	5249
2026-01-23 02:43:52.21	226.27	20.65	-30.0	-33.0	19.0	6.01e-01	0	44	0	794296320	21	5080
2026-01-23 02:43:53.22	226.17	20.51	-29.9	-32.7	19.2	5.99e-01	0	44	0	795869184	21	4953
2026-01-23 02:43:54.23	226.07	20.37	-29.8	-33.1	19.2	6.02e-01	0	44	0	797966336	20	5212
2026-01-23 02:43:55.23	225.98	20.22	-29.9	-33.2	19.2	6.02e-01	0	44	0	799539200	20	5259
2026-01-23 02:43:56.23	225.88	20.08	-30.0	-33.4	19.0	6.04e-01	0	44	0	801636352	20	5324
2026-01-23 02:43:57.23	225.78	19.94	-29.8	-33.0	19.3	6.02e-01	0	44	0	803733504	20	5184
2026-01-23 02:43:58.24	225.69	19.80	-29.8	-32.8	19.4	6.01e-01	0	44	0	805306368	20	5108
2026-01-23 02:43:59.24	225.60	19.67	-29.8	-32.8	19.4	6.03e-01	0	44	0	807403520	20	5095
2026-01-23 02:44:00.24	225.50	19.53	-29.8	-32.8	19.3	6.00e-01	0	44	0	808976384	20	5106
2026-01-23 02:44:01.24	225.41	19.39	-29.7	-32.7	19.5	6.01e-01	0	44	0	811073536	20	5063
2026-01-23 02:44:02.25	225.32	19.26	-29.7	-32.7	19.4	6.02e-01	0	44	0	813170688	20	5078
2026-01-23 02:44:03.25	225.23	19.12	-29.8	-32.9	19.3	6.00e-01	0	44	0	814743552	20	5163
2026-01-23 02:44:04.25	225.14	18.99	-29.9	-33.2	19.1	6.03e-01	0	44	0	816840704	20	5255
2026-01-23 02:44:05.25	225.05	18.85	-29.7	-32.8	19.3	6.03e-01	0	44	0	818413568	20	5109
2026-01-23 02:44:06.26	224.97	18.72	-29.7	-32.6	19.4	5.99e-01	0	44	0	820510720	20	5048
2026-01-23 02:44:07.26	224.88	18.59	-29.6	-32.5	19.5	5.99e-01	0	44	0	822607872	20	5027
2026-01-23 02:44:08.27	224.79	18.46	-29.7	-32.7	19.4	6.02e-01	0	44	0	824180736	20	5068
2026-01-23 02:44:09.27	224.71	18.32	-29.7	-32.6	19.5	6.00e-01	0	44	0	826277888	20	5046
2026-01-23 02:44:10.28	224.62	18.19	-29.8	-32.9	19.3	6.00e-01	0	44	0	827850752	20	5140
2026-01-23 02:44:11.28	224.54	18.06	-29.8	-33.0	19.2	6.03e-01	0	44	0	829947904	20	5182
2026-01-23 02:44:12.28	224.46	17.94	-29.7	-32.7	19.4	6.02e-01	0	44	0	831520768	20	5077
2026-01-23 02:44:13.28	224.38	17.81	-29.7	-32.6	19.5	6.02e-01	0	44	0	833617920	20	5044
2026-01-23 02:44:14.29	224.30	17.68	-29.7	-32.7	19.4	6.02e-01	0	44	0	835715072	20	5071
2026-01-23 02:44:15.29	224.22	17.55	-29.7	-32.6	19.5	6.02e-01	0	44	0	837287936	20	5062
2026-01-23 02:44:16.29	224.14	17.43	-29.7	-32.6	19.5	6.03e-01	0	44	0	839385088	20	5045
2026-01-23 02:44:17.29	224.06	17.30	-29.6	-32.5	19.5	6.02e-01	0	44	0	840957952	20	5015
2026-01-23 02:44:18.30	223.98	17.18	-29.7	-32.7	19.4	6.02e-01	0	44	0	843055104	20	5084
2026-01-23 02:44:19.30	223.90	17.05	-29.7	-32.6	19.5	6.02e-01	0	44	0	845152256	20	5037
2026-01-23 02:44:20.30	223.82	16.93	-29.6	-32.6	19.5	6.02e-01	0	44	0	846725120	20	5029
2026-01-23 02:44:21.31	223.75	16.81	-29.7	-32.7	19.4	6.01e-01	0	44	0	848822272	20	5082
2026-01-23 02:44:22.30	223.67	16.68	-29.8	-32.8	19.4	6.02e-01	0	44	0	850395136	20	5132
2026-01-23 02:44:23.30	223.60	16.56	-29.7	-32.7	19.4	6.00e-01	0	44	0	852492288	20	5073
2026-01-23 02:44:24.30	223.53	16.44	-29.8	-33.0	19.3	6.00e-01	0	44	0	854589440	20	5189
2026-01-23 02:44:25.30	223.45	16.32	-29.9	-33.2	19.1	5.99e-01	0	44	0	856162304	20	5277
2026-01-23 02:44:26.30	223.38	16.20	-29.8	-32.8	19.3	6.00e-01	0	44	0	858259456	20	5142
2026-01-23 02:44:27.31	223.31	16.08	-29.7	-32.7	19.4	6.03e-01	0	44	0	859832320	20	5082
2026-01-23 02:44:28.32	223.23	15.96	-29.7	-32.6	19.4	6.01e-01	0	44	0	861929472	20	5067
2026-01-23 02:44:29.32	223.16	15.85	-29.7	-32.6	19.4	6.02e-01	0	44	0	863502336	20	5069
2026-01-23 02:44:30.32	223.09	15.73	-29.7	-32.6	19.4	6.03e-01	0	44	0	865599488	20	5065
2026-01-23 02:44:31.32	223.02	15.61	-29.8	-33.1	19.1	6.03e-01	0	44	0	867696640	20	5235
2026-01-23 02:44:32.32	222.96	15.50	-29.9	-33.3	19.0	6.02e-01	0	44	0	869269504	20	5327
2026-01-23 02:44:33.33	222.89	15.38	-29.8	-32.9	19.2	6.02e-01	0	44	0	871366656	20	5156
2026-01-23 02:44:34.34	222.82	15.26	-29.7	-32.6	19.4	6.01e-01	0	44	0	872939520	20	5055
2026-01-23 02:44:35.34	222.75	15.15	-29.6	-32.5	19.4	6.03e-01	0	44	0	875036672	20	5024
2026-01-23 02:44:36.34	222.68	15.04	-29.7	-32.7	19.3	6.03e-01	0	44	0	876609536	20	5087
2026-01-23 02:44:37.34	222.62	14.92	-29.6	-32.6	19.4	5.99e-01	0	44	0	878706688	20	5058
2026-01-23 02:44:38.35	222.55	14.81	-29.7	-32.7	19.3	6.02e-01	0	44	0	880803840	20	5088
2026-01-23 02:44:39.36	222.49	14.69	-29.6	-32.5	19.4	6.00e-01	0	44	0	882376704	20	5011
2026-01-23 02:44:40.36	222.42	14.58	-29.6	-32.5	19.4	6.00e-01	0	44	0	884473856	20	5021
2026-01-23 02:44:41.37	222.36	14.47	-29.7	-32.6	19.3	6.00e-01	0	44	0	886571008	20	5074
2026-01-23 02:44:42.37	222.29	14.36	-29.7	-32.8	19.2	6.01e-01	0	44	0	888143872	20	5136
2026-01-23 02:44:43.37	222.23	14.25	-29.7	-32.7	19.2	6.03e-01	0	44	0	890241024	20	5096
2026-01-23 02:44:44.37	222.17	14.14	-29.7	-32.8	19.2	6.02e-01	0	44	0	891813888	20	5134
2026-01-23 02:44:45.37	222.11	14.03	-29.7	-32.9	19.1	6.03e-01	0	44	0	893911040	20	5170
2026-01-23 02:44:46.38	222.05	13.92	-29.7	-32.7	19.2	6.02e-01	0	44	0	895483904	20	5101
2026-01-23 02:44:47.37	221.99	13.82	-29.7	-32.7	19.2	6.02e-01	0	44	0	897581056	20	5104
2026-01-23 02:44:48.37	221.93	13.71	-29.7	-32.8	19.1	6.03e-01	0	44	0	899678208	20	5151
2026-01-23 02:44:49.38	221.87	13.60	-29.8	-33.2	18.9	6.02e-01	0	44	0	901251072	20	5275
2026-01-23 02:44:50.38	221.81	13.49	-29.9	-33.2	18.7	6.01e-01	0	44	0	903348224	20	5306
2026-01-23 02:44:51.37	221.75	13.39	-29.9	-33.2	18.5	6.03e-01	0	44	0	904921088	20	5291
2026-01-23 02:44:52.38	221.69	13.28	-29.9	-33.2	18.8	6.00e-01	0	44	0	907018240	20	5296
2026-01-23 02:44:53.38	221.63	13.18	-29.8	-33.1	18.3	6.01e-01	0	44	0	908591104	20	5251
2026-01-23 02:44:54.38	221.57	13.07	-29.8	-33.0	18.5	6.01e-01	0	44	0	910688256	20	5227
2026-01-23 02:44:55.38	221.52	12.97	-29.8	-33.1	18.9	6.02e-01	0	44	0	912785408	20	5243
2026-01-23 02:44:56.38	221.46	12.86	-29.8	-33.1	18.5	6.02e-01	0	44	0	914358272	20	5281
2026-01-23 02:44:57.38	221.40	12.76	-29.9	-33.4	18.1	6.02e-01	0	44	0	916455424	20	5363
2026-01-23 02:44:58.38	221.35	12.66	-29.8	-33.0	19.0	6.02e-01	0	44	0	918028288	20	5229
2026-01-23 02:44:59.39	221.29	12.56	-29.7	-32.9	19.0	6.03e-01	0	44	0	920125440	20	5192
2026-01-23 02:45:00.39	221.24	12.45	-29.8	-33.1	18.9	5.99e-01	0	44	0	921698304	20	5247
2026-01-23 02:45:01.39	221.18	12.35	-29.8	-33.2	18.8	6.05e-01	0	44	0	923795456	20	5296
2026-01-23 02:45:02.40	221.13	12.25	-29.9	-33.3	18.8	6.01e-01	0	44	0	925892608	20	5338
2026-01-23 02:45:03.40	221.08	12.15	-29.9	-33.3	18.7	6.02e-01	0	44	0	927465472	20	5353
2026-01-23 02:45:04.40	221.02	12.05	-29.8	-33.2	18.8	6.02e-01	0	44	0	929562624	20	5307
2026-01-23 02:45:05.40	220.97	11.95	-29.9	-33.3	18.7	6.02e-01	0	44	0	931659776	20	5355
2026-01-23 02:45:06.40	220.92	11.85	-29.9	-33.3	18.7	6.01e-01	0	44	0	933232640	20	5333
2026-01-23 02:45:07.40	220.87	11.75	-29.8	-33.0	18.9	6.01e-01	0	44	0	935329792	20	5234
2026-01-23 02:45:08.41	220.81	11.65	-29.8	-33.1	18.9	6.02e-01	0	44	0	936902656	20	5257
2026-01-23 02:45:09.41	220.76	11.55	-29.8	-33.0	18.9	5.99e-01	0	44	0	938999808	20	5234
2026-01-23 02:45:10.41	220.71	11.46	-29.8	-33.0	18.9	6.03e-01	0	44	0	940572672	20	5227
2026-01-23 02:45:11.41	220.66	11.36	-29.8	-33.1	18.8	6.02e-01	0	44	0	942669824	20	5266
2026-01-23 02:45:12.42	220.61	11.26	-29.9	-33.3	18.7	6.04e-01	0	44	0	944766976	20	5360
2026-01-23 02:45:13.42	220.56	11.17	-29.9	-33.4	18.6	6.01e-01	0	44	0	946339840	20	5391
2026-01-23 02:45:14.43	220.51	11.07	-29.8	-33.2	18.7	6.02e-01	0	44	0	948436992	20	5316
2026-01-23 02:45:15.44	220.46	10.97	-29.8	-33.2	18.7	5.99e-01	0	44	0	950009856	20	5322
2026-01-23 02:45:16.44	220.41	10.88	-29.8	-33.3	18.7	6.01e-01	0	44	0	952107008	20	5337
2026-01-23 02:45:17.45	220.37	10.78	-29.9	-33.4	18.6	6.04e-01	0	44	0	953679872	20	5377
2026-01-23 02:45:18.45	220.32	10.69	-29.9	-33.3	18.6	6.02e-01	0	44	0	955777024	20	5374
2026-01-23 02:45:19.45	220.27	10.59	-29.8	-33.3	18.6	6.01e-01	0	44	0	957874176	20	5349
2026-01-23 02:45:20.45	220.22	10.50	-29.8	-33.3	18.7	6.02e-01	0	44	0	959447040	20	5348
2026-01-23 02:45:21.46	220.18	10.41	-29.9	-33.3	18.6	6.03e-01	0	44	0	961544192	20	5372
2026-01-23 02:45:22.46	220.13	10.31	-29.9	-33.4	18.6	6.04e-01	0	44	0	963641344	20	5387
2026-01-23 02:45:23.47	220.08	10.22	-29.9	-33.5	18.5	6.01e-01	0	44	0	965214208	20	5431
2026-01-23 02:45:24.46	220.04	10.13	-29.9	-33.6	18.4	6.03e-01	0	44	0	967311360	20	5460
2026-01-23 02:45:25.46	219.99	10.04	-29.9	-33.6	18.4	6.00e-01	0	44	0	968884224	20	5464
2026-01-23 02:45:26.46	219.95	9.94	-30.0	-33.8	18.2	6.01e-01	0	44	0	970981376	20	5586
2026-01-23 02:45:27.46	219.90	9.85	-30.0	-33.4	18.2	6.00e-01	0	44	0	972554240	21	5290
2026-01-23 02:45:28.46	219.86	9.76	-29.9	-33.6	18.3	6.00e-01	0	44	0	974651392	20	5503
2026-01-23 02:45:29.47	219.81	9.67	-29.9	-33.6	18.4	6.01e-01	0	44	0	976748544	20	5505
2026-01-23 02:45:30.47	219.77	9.58	-30.0	-33.7	18.3	6.04e-01	0	44	0	978321408	20	5515
2026-01-23 02:45:31.47	219.73	9.49	-29.9	-33.6	18.3	6.02e-01	0	44	0	980418560	20	5494
2026-01-23 02:45:32.47	219.68	9.40	-30.1	-33.9	18.2	6.00e-01	0	44	0	981991424	20	5629
2026-01-23 02:45:33.48	219.64	9.31	-30.2	-33.9	17.8	6.02e-01	0	44	0	984088576	21	5514
2026-01-23 02:45:34.49	219.60	9.22	-30.3	-34.0	17.7	6.00e-01	0	44	0	985661440	21	5551
2026-01-23 02:45:35.49	219.56	9.14	-30.1	-33.6	18.0	6.02e-01	0	44	0	987758592	21	5383
2026-01-23 02:45:36.49	219.51	9.05	-30.0	-33.3	18.2	6.00e-01	0	44	0	989855744	21	5256
2026-01-23 02:45:37.49	219.47	8.96	-30.0	-33.2	18.3	5.99e-01	0	44	0	991428608	21	5236
2026-01-23 02:45:38.50	219.43	8.87	-30.0	-33.4	18.2	6.01e-01	0	44	0	993525760	21	5286
2026-01-23 02:45:39.50	219.39	8.78	-30.1	-34.1	18.0	6.00e-01	0	44	0	995098624	20	5679
2026-01-23 02:45:40.50	219.35	8.70	-30.0	-33.8	18.1	6.02e-01	0	44	0	997195776	20	5586
2026-01-23 02:45:41.50	219.31	8.61	-30.0	-33.9	18.0	5.99e-01	0	44	0	998768640	20	5637
2026-01-23 02:45:42.50	219.27	8.53	-30.2	-33.8	17.8	6.01e-01	0	44	0	1000865792	21	5474
2026-01-23 02:45:43.50	219.23	8.44	-30.4	-34.4	17.4	6.02e-01	0	44	0	1002962944	21	5732
2026-01-23 02:45:44.51	219.19	8.35	-30.4	-34.4	17.4	6.03e-01	0	44	0	1004535808	21	5723
2026-01-23 02:45:45.51	219.15	8.27	-30.4	-34.4	17.4	6.01e-01	0	44	0	1006632960	21	5723
2026-01-23 02:45:46.51	219.11	8.18	-30.4	-34.4	17.4	6.04e-01	0	44	0	1008730112	21	5735
2026-01-23 02:45:47.51	219.07	8.10	-30.4	-34.4	17.3	6.00e-01	0	44	0	1010302976	21	5750
2026-01-23 02:45:48.51	219.03	8.02	-30.5	-34.9	17.0	6.01e-01	0	44	0	1012400128	21	5956
2026-01-23 02:45:49.51	218.99	7.93	-30.5	-34.8	17.0	6.00e-01	0	44	0	1013972992	21	5941
2026-01-23 02:45:50.52	218.95	7.85	-30.4	-34.4	17.3	6.02e-01	0	44	0	1016070144	21	5756
2026-01-23 02:45:51.51	218.92	7.77	-30.3	-34.4	17.3	5.99e-01	0	44	0	1017643008	21	5725
2026-01-23 02:45:52.52	218.88	7.68	-30.4	-34.5	17.3	6.02e-01	0	44	0	1019740160	21	5780
2026-01-23 02:45:53.52	218.84	7.60	-30.3	-34.4	17.3	6.04e-01	0	44	0	1021837312	21	5720
2026-01-23 02:45:54.52	218.80	7.52	-30.2	-34.1	17.4	6.01e-01	0	44	0	1023410176	21	5631
2026-01-23 02:45:55.52	218.77	7.43	-30.2	-34.0	17.5	6.01e-01	0	44	0	1025507328	21	5585
2026-01-23 02:45:56.52	218.73	7.35	-30.2	-34.1	17.5	6.03e-01	0	44	0	1027080192	21	5620
2026-01-23 02:45:57.52	218.69	7.27	-30.3	-34.3	17.3	5.99e-01	0	44	0	1029177344	21	5713
2026-01-23 02:45:58.53	218.66	7.19	-30.4	-34.5	17.2	6.00e-01	0	44	0	1030750208	21	5803
2026-01-23 02:45:59.53	218.62	7.11	-33.3	-51.6	3.7	7.44e-01	0	44	104	1032323072	27	29581
2026-01-23 02:46:00.53	218.59	7.03	-33.6	-52.8	3.8	7.46e-01	0	44	104	1032323072	28	32801
2026-01-23 02:46:01.53	218.55	6.95	-34.0	-53.5	3.8	7.45e-01	0	44	104	1032323072	28	34035
2026-01-23 02:46:02.54	218.51	6.87	-34.2	-53.4	3.8	7.45e-01	0	44	104	1032323072	29	32913
2026-01-23 02:46:03.55	218.48	6.79	-34.4	-53.8	3.8	7.46e-01	0	44	104	1032323072	29	33737

#Closed at: 2026-01-23 02:46:03
#Recorded file [1032 MB]: D:/data/31010_260123_053648.dat