passes_logs/2026/01/23/R2M6_AANII_01/R2M6_AANII_01__20260123_004544_NOAA_20_JPSS-1_rec.log

#Pass ID: 20260123_004544_NOAA 20 (JPSS-1)
#Satellite: NOAA 20 (JPSS-1)
#Configuration: NOAA 20
#almurnet v.1.7.20240730
#Start time: 2026-01-23 00:45:44

#Version: 2.2.20231116
#Station: R2M6_AANII_01
#Location: 30.233357 lon 59.946436 lat
#TLE: 1 43013U 17073A   26022.44900781  .00000193  00000+0  11233-3 0  9999
#TLE: 2 43013  98.7645 323.3100 0001197  28.8413 331.2829 14.19538802423792

#Time	Az	El	Level	Level2	SNR	BER	BlckErr	Temp	State	Recorded	gain1	gain2
2026-01-23 00:45:44.70	16.09	7.05	-32.2	-39.8	4.7	1.35e+00	0	42	0	0	24	8682
2026-01-23 00:45:45.71	16.07	7.13	-32.4	-41.2	4.4	1.41e+00	0	42	104	0	24	9858
2026-01-23 00:45:46.71	16.06	7.20	-32.3	-40.3	6.1	4.35e-01	0	42	0	0	24	8994
2026-01-23 00:45:47.71	16.04	7.28	-32.4	-40.5	6.0	3.30e-01	0	42	0	1048576	24	9177
2026-01-23 00:45:48.71	16.02	7.36	-32.3	-40.2	6.2	3.39e-01	0	42	0	3145728	24	8920
2026-01-23 00:45:49.71	16.00	7.44	-32.3	-39.6	6.6	2.68e-01	0	42	0	5242880	24	8427
2026-01-23 00:45:50.71	15.98	7.51	-32.1	-38.9	7.2	1.79e-01	0	42	0	7340032	24	7841
2026-01-23 00:45:51.71	15.96	7.59	-32.0	-38.3	7.6	1.05e-01	0	42	0	9437184	24	7427
2026-01-23 00:45:52.71	15.94	7.67	-31.9	-38.4	8.0	7.76e-02	0	42	0	10485760	23	7527
2026-01-23 00:45:53.72	15.92	7.75	-31.9	-38.4	8.0	6.24e-02	0	42	0	12582912	23	7531
2026-01-23 00:45:54.72	15.90	7.83	-32.1	-38.6	7.5	8.90e-02	0	42	0	14680064	24	7581
2026-01-23 00:45:55.73	15.88	7.91	-32.1	-38.4	7.6	1.18e-01	0	42	0	16777216	24	7438
2026-01-23 00:45:56.73	15.86	7.99	-31.9	-38.3	8.1	7.89e-02	0	42	0	17825792	23	7476
2026-01-23 00:45:57.73	15.84	8.06	-32.0	-38.4	8.1	5.78e-02	0	42	0	19922944	23	7518
2026-01-23 00:45:58.73	15.82	8.14	-31.9	-38.0	8.3	6.35e-02	0	42	0	22020096	23	7264
2026-01-23 00:45:59.73	15.80	8.22	-31.8	-37.4	8.9	4.14e-02	0	42	0	24117248	23	6913
2026-01-23 00:46:00.74	15.78	8.31	-31.6	-36.8	9.3	2.32e-02	0	42	0	26214400	23	6564
2026-01-23 00:46:01.74	15.76	8.39	-31.4	-36.7	9.8	1.40e-02	0	42	0	27262976	22	6592
2026-01-23 00:46:02.74	15.74	8.47	-31.3	-36.1	10.3	8.99e-03	0	42	0	29360128	22	6254
2026-01-23 00:46:03.73	15.72	8.55	-31.1	-35.6	10.7	4.52e-03	0	42	0	31457280	22	6013
2026-01-23 00:46:04.73	15.70	8.63	-31.0	-35.3	10.9	4.93e-03	0	42	0	33554432	22	5848
2026-01-23 00:46:05.73	15.68	8.71	-30.9	-35.5	11.2	4.49e-03	0	42	0	35651584	21	6065
2026-01-23 00:46:06.73	15.66	8.79	-30.9	-35.3	11.2	1.68e-03	0	42	0	36700160	21	5987
2026-01-23 00:46:07.74	15.63	8.87	-31.0	-35.6	11.1	1.49e-03	0	42	0	38797312	21	6105
2026-01-23 00:46:08.74	15.61	8.96	-31.0	-35.1	11.0	4.73e-03	0	43	0	40894464	22	5776
2026-01-23 00:46:09.75	15.59	9.04	-30.9	-34.8	11.3	1.54e-03	0	42	0	42991616	22	5626
2026-01-23 00:46:10.75	15.57	9.12	-30.8	-35.1	11.5	3.83e-03	0	42	0	45088768	21	5853
2026-01-23 00:46:11.75	15.55	9.20	-30.8	-34.9	11.6	3.26e-03	0	42	0	46137344	21	5798
2026-01-23 00:46:12.75	15.52	9.29	-30.8	-35.0	11.5	1.12e-03	0	42	0	48234496	21	5842
2026-01-23 00:46:13.76	15.50	9.37	-30.9	-35.4	11.3	3.52e-03	0	43	0	50331648	21	6001
2026-01-23 00:46:14.76	15.48	9.46	-30.9	-35.4	11.3	1.33e-03	0	42	0	52428800	21	5991
2026-01-23 00:46:15.76	15.46	9.54	-30.9	-35.3	11.3	1.49e-03	0	42	0	54525952	21	5990
2026-01-23 00:46:16.76	15.43	9.62	-31.0	-35.4	11.2	4.15e-03	0	43	0	55574528	21	6019
2026-01-23 00:46:17.77	15.41	9.71	-31.0	-35.4	11.3	4.32e-03	0	43	0	57671680	21	6019
2026-01-23 00:46:18.78	15.39	9.79	-31.0	-35.5	11.2	1.74e-03	0	43	0	59768832	21	6054
2026-01-23 00:46:19.77	15.36	9.88	-31.0	-35.1	11.1	4.35e-03	0	43	0	61865984	22	5780
2026-01-23 00:46:20.78	15.34	9.97	-31.2	-35.6	10.8	4.76e-03	0	43	0	62914560	22	5989
2026-01-23 00:46:21.79	15.32	10.05	-31.0	-35.2	11.1	1.87e-03	0	43	0	65011712	22	5784
2026-01-23 00:46:22.79	15.29	10.14	-30.9	-35.2	11.4	3.56e-03	0	43	0	67108864	21	5917
2026-01-23 00:46:23.80	15.27	10.23	-30.9	-35.3	11.4	3.72e-03	0	43	0	69206016	21	5955
2026-01-23 00:46:24.80	15.24	10.31	-30.9	-35.1	11.6	1.48e-03	0	43	0	71303168	21	5847
2026-01-23 00:46:25.81	15.22	10.40	-30.8	-34.8	11.8	5.59e-04	0	43	0	73400320	21	5715
2026-01-23 00:46:26.80	15.20	10.49	-30.7	-34.6	11.9	3.14e-03	0	43	0	74448896	21	5624
2026-01-23 00:46:27.81	15.17	10.57	-30.7	-34.6	11.9	7.91e-04	0	43	0	76546048	21	5612
2026-01-23 00:46:28.81	15.15	10.66	-30.8	-34.8	11.8	4.13e-04	0	43	0	78643200	21	5709
2026-01-23 00:46:29.81	15.12	10.75	-30.7	-34.7	11.9	3.03e-03	0	43	0	80740352	21	5657
2026-01-23 00:46:30.81	15.10	10.84	-30.8	-34.8	11.8	7.63e-04	0	43	0	81788928	21	5715
2026-01-23 00:46:31.82	15.07	10.93	-30.9	-35.1	11.6	6.77e-04	0	43	0	83886080	21	5875
2026-01-23 00:46:32.82	15.04	11.02	-30.8	-34.9	11.7	7.77e-04	0	43	0	85983232	21	5769
2026-01-23 00:46:33.82	15.02	11.11	-30.7	-34.5	12.0	8.83e-04	0	43	0	88080384	21	5598
2026-01-23 00:46:34.82	14.99	11.20	-30.6	-34.2	12.2	3.14e-03	0	43	0	90177536	21	5477
2026-01-23 00:46:35.82	14.97	11.29	-30.5	-33.9	12.5	1.46e-04	0	43	0	91226112	21	5308
2026-01-23 00:46:36.82	14.94	11.38	-30.4	-33.7	12.6	1.26e-04	0	43	0	93323264	21	5258
2026-01-23 00:46:37.83	14.91	11.47	-30.4	-34.2	12.6	2.72e-03	0	43	0	95420416	20	5548
2026-01-23 00:46:38.84	14.89	11.56	-30.4	-34.1	12.7	8.31e-05	0	43	0	97517568	20	5530
2026-01-23 00:46:39.84	14.86	11.65	-30.4	-34.1	12.7	6.10e-05	0	43	0	99614720	20	5518
2026-01-23 00:46:40.84	14.83	11.75	-30.5	-34.3	12.6	2.56e-03	0	43	0	100663296	20	5597
2026-01-23 00:46:41.84	14.81	11.84	-30.4	-33.7	12.6	2.78e-03	0	43	0	102760448	21	5240
2026-01-23 00:46:42.84	14.78	11.93	-30.4	-34.1	12.8	5.64e-05	0	43	0	104857600	20	5513
2026-01-23 00:46:43.85	14.75	12.02	-30.4	-34.1	12.7	5.64e-05	0	43	0	106954752	20	5498
2026-01-23 00:46:44.86	14.72	12.12	-30.5	-34.3	12.6	2.74e-03	0	43	0	109051904	20	5608
2026-01-23 00:46:45.87	14.69	12.21	-30.3	-33.9	12.9	6.02e-05	0	43	0	110100480	20	5419
2026-01-23 00:46:46.87	14.67	12.31	-30.3	-33.7	13.0	3.35e-05	0	43	0	112197632	20	5365
2026-01-23 00:46:47.87	14.64	12.40	-30.4	-34.0	12.9	2.67e-05	0	43	0	114294784	20	5459
2026-01-23 00:46:48.88	14.61	12.50	-30.3	-33.8	13.0	3.35e-05	0	43	0	116391936	20	5371
2026-01-23 00:46:49.88	14.58	12.59	-30.2	-33.6	13.1	2.74e-05	0	43	0	118489088	20	5283
2026-01-23 00:46:50.88	14.55	12.69	-30.2	-33.6	13.1	3.12e-05	0	43	0	119537664	20	5314
2026-01-23 00:46:51.89	14.52	12.78	-30.2	-33.6	13.1	4.07e-04	0	43	0	121634816	20	5305
2026-01-23 00:46:52.89	14.49	12.88	-30.2	-33.5	13.2	2.74e-05	0	43	0	123731968	20	5270
2026-01-23 00:46:53.90	14.46	12.98	-30.4	-34.1	12.8	4.50e-05	0	43	0	125829120	20	5500
2026-01-23 00:46:54.90	14.43	13.07	-30.3	-33.8	13.0	6.02e-05	0	43	0	126877696	20	5396
2026-01-23 00:46:55.90	14.40	13.17	-30.1	-33.3	13.3	2.51e-05	0	43	0	128974848	20	5194
2026-01-23 00:46:56.90	14.37	13.27	-30.0	-33.0	13.6	7.60e-06	0	43	0	131072000	20	5074
2026-01-23 00:46:57.90	14.34	13.36	-30.1	-33.1	13.5	1.06e-05	0	43	0	133169152	20	5084
2026-01-23 00:46:58.91	14.31	13.46	-30.0	-33.0	13.6	5.30e-06	0	43	0	135266304	20	5064
2026-01-23 00:46:59.91	14.28	13.56	-30.0	-32.8	13.7	6.10e-06	0	43	0	136314880	20	5002
2026-01-23 00:47:00.92	14.25	13.66	-30.0	-33.0	13.6	6.10e-06	0	43	0	138412032	20	5067
2026-01-23 00:47:01.92	14.22	13.76	-30.1	-33.1	13.5	9.90e-06	0	43	0	140509184	20	5089
2026-01-23 00:47:02.92	14.18	13.86	-30.2	-33.5	13.3	1.60e-05	0	43	0	142606336	20	5237
2026-01-23 00:47:03.92	14.15	13.96	-30.1	-33.2	13.5	1.90e-05	0	43	0	144703488	20	5142
2026-01-23 00:47:04.93	14.12	14.06	-30.0	-32.9	13.7	6.10e-06	0	43	0	145752064	20	5015
2026-01-23 00:47:05.93	14.09	14.17	-29.9	-32.6	13.9	2.20e-06	0	43	0	147849216	20	4903
2026-01-23 00:47:06.94	14.05	14.27	-29.9	-32.6	13.9	3.00e-06	0	43	0	149946368	20	4926
2026-01-23 00:47:07.94	14.02	14.37	-29.9	-33.1	13.9	1.50e-06	0	43	0	152043520	19	5206
2026-01-23 00:47:08.94	13.99	14.47	-30.0	-33.3	13.9	3.00e-06	0	43	0	154140672	19	5265
2026-01-23 00:47:09.94	13.95	14.57	-29.9	-32.5	14.0	6.10e-06	0	43	0	155189248	20	4884
2026-01-23 00:47:10.95	13.92	14.68	-29.4	-32.6	13.9	3.80e-06	0	43	0	157286400	19	5237
2026-01-23 00:47:11.94	13.89	14.78	-29.9	-33.1	13.8	4.50e-06	0	43	0	159383552	19	5208
2026-01-23 00:47:12.94	13.85	14.89	-29.9	-33.0	13.3	0.00e+00	0	43	0	161480704	19	5170
2026-01-23 00:47:13.94	13.82	14.99	-30.0	-32.8	12.4	3.80e-06	0	43	0	163577856	20	4976
2026-01-23 00:47:14.95	13.78	15.10	-30.2	-33.3	13.3	5.30e-06	0	43	0	164626432	20	5159
2026-01-23 00:47:15.95	13.75	15.20	-30.0	-32.8	13.7	2.33e-03	0	43	0	166723584	20	4972
2026-01-23 00:47:16.95	13.71	15.31	-30.0	-33.0	13.5	6.10e-06	0	43	0	168820736	20	5047
2026-01-23 00:47:17.96	13.68	15.41	-30.0	-33.2	13.9	6.10e-06	0	43	0	170917888	19	5237
2026-01-23 00:47:18.96	13.64	15.52	-29.9	-33.1	14.0	7.00e-07	0	43	0	173015040	19	5185
2026-01-23 00:47:19.97	13.60	15.63	-30.0	-33.2	13.9	5.30e-06	0	43	0	174063616	19	5226
2026-01-23 00:47:20.97	13.57	15.74	-29.9	-32.7	13.9	2.20e-06	0	43	0	176160768	20	4934
2026-01-23 00:47:21.97	13.53	15.85	-30.0	-32.9	13.8	4.50e-06	0	43	0	178257920	20	5020
2026-01-23 00:47:22.97	13.49	15.95	-29.9	-33.2	14.0	2.39e-03	0	43	0	180355072	19	5219
2026-01-23 00:47:23.97	13.46	16.06	-29.9	-32.9	14.2	7.00e-07	0	43	0	181403648	19	5118
2026-01-23 00:47:24.96	13.42	16.17	-29.9	-33.0	14.1	3.00e-06	0	43	0	183500800	19	5151
2026-01-23 00:47:25.97	13.38	16.28	-30.0	-33.2	14.0	2.64e-03	0	43	0	185597952	19	5229
2026-01-23 00:47:26.98	13.34	16.39	-30.1	-33.2	13.6	3.70e-04	0	43	0	187695104	20	5121
2026-01-23 00:47:27.98	13.30	16.51	-30.0	-33.2	14.0	3.00e-06	0	43	0	189792256	19	5210
2026-01-23 00:47:28.98	13.26	16.62	-30.1	-33.0	13.8	3.80e-06	0	43	0	190840832	20	5046
2026-01-23 00:47:29.98	13.22	16.73	-29.9	-32.5	14.1	3.36e-04	0	43	0	192937984	20	4854
2026-01-23 00:47:30.98	13.18	16.84	-30.0	-32.9	13.8	3.80e-06	0	43	0	195035136	20	4995
2026-01-23 00:47:31.98	13.14	16.95	-29.9	-33.0	14.2	4.50e-06	0	43	0	197132288	19	5141
2026-01-23 00:47:32.98	13.10	17.07	-30.0	-32.7	14.0	3.12e-04	0	44	0	199229440	20	4942
2026-01-23 00:47:33.98	13.06	17.18	-29.9	-32.9	14.2	2.26e-03	0	44	0	200278016	19	5098
2026-01-23 00:47:34.99	13.02	17.30	-29.7	-32.4	14.6	7.00e-07	0	43	0	202375168	19	4913
2026-01-23 00:47:35.99	12.98	17.41	-29.6	-32.2	14.7	7.00e-07	0	44	0	204472320	19	4862
2026-01-23 00:47:36.99	12.94	17.53	-29.6	-32.3	14.7	2.54e-03	0	44	0	206569472	19	4888
2026-01-23 00:47:38.00	12.90	17.65	-29.6	-32.1	14.7	1.18e-03	0	43	0	208666624	19	4839
2026-01-23 00:47:39.00	12.85	17.76	-29.6	-32.3	14.7	0.00e+00	0	44	0	209715200	19	4877
2026-01-23 00:47:40.00	12.81	17.88	-29.7	-32.6	14.5	2.46e-03	0	44	0	211812352	19	4981
2026-01-23 00:47:41.00	12.77	18.00	-29.5	-32.1	14.8	2.21e-03	0	43	0	213909504	19	4818
2026-01-23 00:47:42.00	12.73	18.12	-29.4	-31.8	15.0	0.00e+00	0	44	0	216006656	19	4722
2026-01-23 00:47:43.01	12.68	18.24	-29.3	-32.0	15.2	2.17e-03	0	43	0	218103808	18	4906
2026-01-23 00:47:44.00	12.64	18.35	-29.4	-32.2	15.0	2.47e-03	0	44	0	219152384	18	4983
2026-01-23 00:47:45.01	12.59	18.47	-29.4	-32.1	15.1	2.46e-04	0	44	0	221249536	18	4943
2026-01-23 00:47:46.01	12.55	18.60	-29.3	-31.9	15.2	0.00e+00	0	44	0	223346688	18	4850
2026-01-23 00:47:47.01	12.50	18.72	-29.2	-31.7	15.3	2.40e-03	0	44	0	225443840	18	4809
2026-01-23 00:47:48.02	12.46	18.84	-29.2	-31.7	15.4	2.18e-04	0	44	0	226492416	18	4790
2026-01-23 00:47:49.03	12.41	18.96	-29.1	-31.5	15.5	0.00e+00	0	44	0	228589568	18	4739
2026-01-23 00:47:50.03	12.36	19.09	-29.2	-31.7	15.4	2.16e-03	0	44	0	230686720	18	4805
2026-01-23 00:47:51.03	12.32	19.21	-29.1	-31.4	15.6	1.94e-04	0	44	0	232783872	18	4693
2026-01-23 00:47:52.03	12.27	19.33	-29.0	-31.3	15.6	2.10e-03	0	44	0	234881024	18	4660
2026-01-23 00:47:53.03	12.22	19.46	-29.1	-31.5	15.5	0.00e+00	0	44	0	235929600	18	4725
2026-01-23 00:47:54.04	12.17	19.58	-29.0	-31.2	15.7	1.81e-04	0	44	0	238026752	18	4619
2026-01-23 00:47:55.03	12.12	19.71	-28.9	-31.5	15.8	2.33e-03	0	44	0	240123904	17	4849
2026-01-23 00:47:56.03	12.07	19.84	-28.9	-31.6	15.8	2.22e-03	0	44	0	242221056	17	4858
2026-01-23 00:47:57.04	12.02	19.96	-28.9	-31.4	15.8	1.62e-04	0	44	0	244318208	17	4812
2026-01-23 00:47:58.04	11.97	20.09	-28.9	-31.5	15.8	2.29e-03	0	43	0	245366784	17	4836
2026-01-23 00:47:59.05	11.92	20.22	-28.9	-31.4	15.9	2.08e-03	0	44	0	247463936	17	4806
2026-01-23 00:48:00.05	11.87	20.35	-28.8	-31.3	15.9	0.00e+00	0	44	0	249561088	17	4780
2026-01-23 00:48:01.05	11.82	20.48	-28.9	-31.4	15.9	2.06e-03	0	44	0	251658240	17	4793
2026-01-23 00:48:02.04	11.77	20.61	-28.9	-31.4	15.9	2.26e-03	0	44	0	253755392	17	4790
2026-01-23 00:48:03.05	11.72	20.74	-28.9	-31.4	15.9	1.43e-04	0	44	0	254803968	17	4816
2026-01-23 00:48:04.04	11.66	20.87	-28.8	-31.3	15.9	2.29e-03	0	44	0	256901120	17	4776
2026-01-23 00:48:05.05	11.61	21.00	-29.0	-31.6	15.8	2.22e-03	0	44	0	258998272	17	4860
2026-01-23 00:48:06.06	11.56	21.14	-28.9	-31.5	15.9	1.50e-04	0	44	0	261095424	17	4823
2026-01-23 00:48:07.06	11.50	21.27	-29.0	-31.2	15.7	0.00e+00	0	44	0	263192576	18	4636
2026-01-23 00:48:08.07	11.45	21.41	-28.9	-30.9	15.9	2.00e-03	0	44	0	264241152	18	4547
2026-01-23 00:48:09.07	11.39	21.54	-28.9	-30.9	15.9	6.25e-05	0	44	0	266338304	18	4535
2026-01-23 00:48:10.07	11.34	21.68	-28.9	-31.4	15.9	1.96e-03	0	44	0	268435456	17	4821
2026-01-23 00:48:11.08	11.28	21.82	-29.1	-31.3	15.7	2.21e-03	0	44	0	270532608	18	4664
2026-01-23 00:48:12.09	11.22	21.96	-29.2	-31.7	15.5	2.51e-05	0	44	0	272629760	18	4768
2026-01-23 00:48:13.09	11.16	22.09	-29.1	-31.4	15.7	2.22e-03	0	44	0	273678336	18	4671
2026-01-23 00:48:14.09	11.11	22.23	-29.0	-31.0	15.9	0.00e+00	0	44	0	275775488	18	4576
2026-01-23 00:48:15.10	11.05	22.37	-28.9	-31.0	15.9	0.00e+00	0	44	0	277872640	18	4562
2026-01-23 00:48:16.09	10.99	22.51	-28.9	-31.5	15.9	2.15e-03	0	44	0	279969792	17	4841
2026-01-23 00:48:17.10	10.93	22.65	-28.9	-31.4	15.9	1.93e-03	0	44	0	281018368	17	4817
2026-01-23 00:48:18.11	10.87	22.80	-29.0	-31.3	15.7	0.00e+00	0	44	0	283115520	18	4652
2026-01-23 00:48:19.12	10.81	22.94	-29.2	-31.7	15.5	2.00e-03	0	44	0	285212672	18	4796
2026-01-23 00:48:20.12	10.74	23.08	-29.0	-31.2	15.8	2.27e-03	0	44	0	287309824	18	4636
2026-01-23 00:48:21.12	10.68	23.23	-29.0	-31.1	15.8	0.00e+00	0	44	0	289406976	18	4604
2026-01-23 00:48:22.13	10.62	23.37	-29.0	-31.3	15.7	2.28e-03	0	44	0	290455552	18	4641
2026-01-23 00:48:23.13	10.56	23.52	-29.1	-31.3	15.7	2.12e-03	0	44	0	292552704	18	4658
2026-01-23 00:48:24.14	10.49	23.67	-29.2	-31.6	15.6	0.00e+00	0	44	0	294649856	18	4743
2026-01-23 00:48:25.14	10.43	23.81	-29.2	-31.5	15.6	0.00e+00	0	44	0	296747008	18	4731
2026-01-23 00:48:26.15	10.36	23.96	-29.3	-31.9	15.4	1.96e-03	0	44	0	298844160	18	4835
2026-01-23 00:48:27.15	10.30	24.11	-29.3	-31.9	15.4	0.00e+00	0	44	0	300941312	18	4834
2026-01-23 00:48:28.16	10.23	24.26	-29.4	-32.0	15.3	0.00e+00	0	44	0	301989888	18	4880
2026-01-23 00:48:29.16	10.16	24.41	-29.4	-32.1	15.3	2.18e-03	0	44	0	304087040	18	4917
2026-01-23 00:48:30.16	10.09	24.56	-29.6	-32.0	15.0	0.00e+00	0	44	0	306184192	19	4783
2026-01-23 00:48:31.17	10.02	24.72	-29.8	-32.5	14.7	0.00e+00	0	44	0	308281344	19	4947
2026-01-23 00:48:32.17	9.95	24.87	-29.6	-32.2	14.9	0.00e+00	0	44	0	309329920	19	4836
2026-01-23 00:48:33.17	9.88	25.02	-29.6	-32.2	15.0	0.00e+00	0	44	0	311427072	19	4824
2026-01-23 00:48:34.17	9.81	25.18	-29.8	-32.6	14.7	7.00e-07	0	44	0	313524224	19	4966
2026-01-23 00:48:35.18	9.74	25.33	-29.7	-32.5	14.8	7.00e-07	0	44	0	315621376	19	4923
2026-01-23 00:48:36.18	9.67	25.49	-29.9	-32.9	14.5	7.00e-07	0	44	0	317718528	19	5064
2026-01-23 00:48:37.18	9.60	25.65	-30.0	-33.0	14.4	2.03e-03	0	44	0	318767104	19	5122
2026-01-23 00:48:38.18	9.52	25.80	-30.0	-32.6	14.3	1.50e-06	0	44	0	320864256	20	4865
2026-01-23 00:48:39.18	9.45	25.96	-30.0	-32.8	14.2	2.20e-06	0	44	0	322961408	20	4933
2026-01-23 00:48:40.19	9.37	26.12	-30.1	-32.9	14.1	1.77e-03	0	44	0	325058560	20	4987
2026-01-23 00:48:41.19	9.30	26.28	-30.2	-33.2	14.0	2.20e-06	0	44	0	327155712	20	5070
2026-01-23 00:48:42.19	9.22	26.45	-30.2	-33.2	13.9	7.00e-07	0	44	0	328204288	20	5091
2026-01-23 00:48:43.19	9.14	26.61	-30.2	-33.2	13.9	2.20e-06	0	44	0	330301440	20	5094
2026-01-23 00:48:44.20	9.06	26.77	-30.3	-33.5	13.8	4.50e-06	0	44	0	332398592	20	5199
2026-01-23 00:48:45.20	8.98	26.94	-30.3	-33.5	13.8	5.30e-06	0	44	0	334495744	20	5181
2026-01-23 00:48:46.20	8.90	27.10	-30.4	-33.7	13.7	1.06e-05	0	44	0	336592896	20	5253
2026-01-23 00:48:47.21	8.82	27.27	-30.5	-33.4	13.5	5.30e-06	0	44	0	337641472	21	5066
2026-01-23 00:48:48.21	8.74	27.44	-30.5	-33.5	13.4	1.22e-05	0	44	0	339738624	21	5095
2026-01-23 00:48:49.20	8.66	27.60	-30.6	-33.9	13.2	1.75e-05	0	44	0	341835776	21	5242
2026-01-23 00:48:50.20	8.57	27.77	-30.7	-34.2	13.0	2.13e-05	0	44	0	343932928	21	5349
2026-01-23 00:48:51.20	8.49	27.94	-30.9	-34.6	12.7	5.03e-05	0	44	0	344981504	21	5522
2026-01-23 00:48:52.20	8.40	28.11	-30.9	-34.5	12.7	5.03e-05	0	44	0	347078656	21	5490
2026-01-23 00:48:53.21	8.31	28.29	-31.0	-34.5	12.5	1.01e-04	0	44	0	349175808	22	5343
2026-01-23 00:48:54.22	8.23	28.46	-31.2	-35.0	12.2	2.38e-04	0	44	0	351272960	22	5557
2026-01-23 00:48:55.23	8.14	28.64	-31.3	-35.2	12.0	2.58e-04	0	44	0	353370112	22	5655
2026-01-23 00:48:56.23	8.05	28.81	-31.4	-35.5	11.8	4.21e-04	0	44	0	354418688	22	5769
2026-01-23 00:48:57.24	7.96	28.99	-31.4	-35.6	11.7	5.42e-04	0	44	0	356515840	22	5827
2026-01-23 00:48:58.24	7.86	29.17	-31.5	-35.3	11.5	7.39e-04	0	44	0	358612992	23	5608
2026-01-23 00:48:59.25	7.77	29.35	-31.5	-35.4	11.5	5.96e-04	0	44	0	360710144	23	5626
2026-01-23 00:49:00.25	7.68	29.52	-31.6	-35.6	11.4	7.86e-04	0	44	0	362807296	23	5716
2026-01-23 00:49:01.25	7.58	29.70	-31.6	-35.6	11.0	1.02e-03	0	44	0	363855872	23	5713
2026-01-23 00:49:02.25	7.48	29.89	-31.6	-35.7	11.3	1.23e-03	0	44	0	365953024	23	5764
2026-01-23 00:49:03.26	7.39	30.07	-31.7	-36.2	10.9	1.43e-03	0	44	0	368050176	23	5991
2026-01-23 00:49:04.26	7.29	30.25	-31.8	-36.4	10.8	4.48e-03	0	44	0	370147328	23	6083
2026-01-23 00:49:05.26	7.19	30.44	-31.8	-36.4	10.9	2.55e-03	0	44	0	372244480	23	6074
2026-01-23 00:49:06.25	7.09	30.62	-30.8	-35.7	10.5	3.00e-03	0	44	0	373293056	23	6335
2026-01-23 00:49:07.25	6.99	30.81	-32.1	-37.0	10.0	4.93e-03	0	44	0	375390208	24	6304
2026-01-23 00:49:08.26	6.88	31.00	-32.2	-37.1	9.9	8.74e-03	0	44	0	377487360	24	6376
2026-01-23 00:49:09.26	6.78	31.19	-32.1	-36.9	10.1	6.66e-03	0	44	0	379584512	24	6239
2026-01-23 00:49:10.26	6.67	31.38	-32.2	-37.0	10.0	9.33e-03	0	44	0	381681664	24	6290
2026-01-23 00:49:11.26	6.57	31.57	-32.2	-37.3	9.8	9.15e-03	0	44	0	382730240	24	6448
2026-01-23 00:49:12.26	6.46	31.76	-32.3	-37.5	9.6	1.15e-02	0	44	0	384827392	24	6584
2026-01-23 00:49:13.27	6.35	31.95	-32.3	-37.4	9.8	1.33e-02	0	44	0	386924544	24	6486
2026-01-23 00:49:14.27	6.23	32.15	-32.2	-37.0	10.0	8.71e-03	0	44	0	389021696	24	6278
2026-01-23 00:49:15.28	6.12	32.35	-32.3	-37.4	9.7	1.08e-02	0	44	0	391118848	24	6524
2026-01-23 00:49:16.28	6.01	32.54	-32.1	-36.7	10.3	5.98e-03	0	44	0	392167424	24	6118
2026-01-23 00:49:17.28	5.89	32.74	-32.1	-36.7	10.3	5.59e-03	0	44	0	394264576	24	6133
2026-01-23 00:49:18.28	5.78	32.94	-32.1	-36.7	10.3	9.23e-03	0	44	0	396361728	24	6102
2026-01-23 00:49:19.28	5.66	33.14	-32.0	-36.5	10.4	4.89e-03	0	44	0	398458880	24	6048
2026-01-23 00:49:20.28	5.54	33.34	-32.1	-36.6	10.3	5.18e-03	0	44	0	399507456	24	6100
2026-01-23 00:49:21.28	5.42	33.54	-32.2	-37.0	10.1	7.27e-03	0	44	0	401604608	24	6284
2026-01-23 00:49:22.28	5.29	33.75	-32.2	-37.1	10.0	1.03e-02	0	44	0	403701760	24	6357
2026-01-23 00:49:23.27	5.17	33.95	-32.3	-37.7	9.5	8.46e-03	0	44	0	405798912	24	6651
2026-01-23 00:49:24.28	5.04	34.16	-32.4	-37.7	9.5	1.16e-02	0	44	0	407896064	24	6679
2026-01-23 00:49:25.28	4.91	34.37	-32.3	-37.5	9.7	1.44e-02	0	44	0	408944640	24	6535
2026-01-23 00:49:26.27	4.79	34.57	-32.3	-37.5	9.7	1.31e-02	0	44	0	411041792	24	6522
2026-01-23 00:49:27.27	4.66	34.78	-32.3	-37.5	9.7	1.07e-02	0	44	0	413138944	24	6549
2026-01-23 00:49:28.28	4.52	35.00	-32.2	-37.2	9.9	1.04e-02	0	44	0	415236096	24	6405
2026-01-23 00:49:29.28	4.39	35.21	-32.2	-37.1	10.0	9.99e-03	0	44	0	417333248	24	6349
2026-01-23 00:49:30.29	4.25	35.42	-32.2	-37.2	10.0	8.48e-03	0	44	0	418381824	24	6353
2026-01-23 00:49:31.29	4.11	35.64	-32.2	-37.2	10.0	8.48e-03	0	44	0	420478976	24	6360
2026-01-23 00:49:32.29	3.97	35.86	-32.1	-36.7	10.3	5.69e-03	0	44	0	422576128	24	6138
2026-01-23 00:49:33.29	3.83	36.07	-32.2	-37.2	10.0	8.85e-03	0	44	0	424673280	24	6358
2026-01-23 00:49:34.29	3.68	36.29	-32.3	-37.5	9.7	1.03e-02	0	44	0	425721856	24	6526
2026-01-23 00:49:35.30	3.54	36.51	-32.3	-37.3	9.8	1.00e-02	0	44	0	427819008	24	6439
2026-01-23 00:49:36.30	3.39	36.74	-32.4	-37.7	9.5	1.44e-02	0	44	0	429916160	24	6665
2026-01-23 00:49:37.30	3.24	36.96	-32.4	-37.8	9.5	1.49e-02	0	44	0	432013312	24	6723
2026-01-23 00:49:38.31	3.08	37.18	-32.5	-38.0	9.4	1.67e-02	0	44	0	434110464	24	6818
2026-01-23 00:49:39.31	2.93	37.41	-32.5	-37.7	9.2	2.16e-02	0	44	0	436207616	25	6535
2026-01-23 00:49:40.31	2.77	37.64	-32.5	-37.7	9.2	2.02e-02	0	44	0	437256192	25	6555
2026-01-23 00:49:41.31	2.61	37.86	-32.5	-37.7	9.3	2.16e-02	0	44	0	439353344	25	6527
2026-01-23 00:49:42.32	2.45	38.09	-32.3	-37.3	9.9	1.31e-02	0	44	0	441450496	24	6398
2026-01-23 00:49:43.32	2.29	38.32	-32.2	-36.9	10.2	8.87e-03	0	44	0	443547648	24	6201
2026-01-23 00:49:44.33	2.12	38.56	-32.3	-37.3	10.0	7.05e-03	0	44	0	444596224	24	6408
2026-01-23 00:49:45.33	1.95	38.79	-32.3	-37.6	9.7	9.29e-03	0	44	0	446693376	24	6561
2026-01-23 00:49:46.33	1.78	39.03	-32.3	-37.5	9.8	1.22e-02	0	44	0	448790528	24	6512
2026-01-23 00:49:47.33	1.61	39.26	-32.3	-37.4	9.8	1.01e-02	0	44	0	450887680	24	6498
2026-01-23 00:49:48.33	1.43	39.50	-32.4	-37.7	9.5	1.62e-02	0	44	0	452984832	24	6651
2026-01-23 00:49:49.33	1.25	39.74	-32.1	-36.8	10.3	9.80e-03	0	44	0	454033408	24	6154
2026-01-23 00:49:50.33	1.07	39.98	-32.0	-36.4	10.7	3.34e-03	0	44	0	456130560	24	5963
2026-01-23 00:49:51.34	0.88	40.22	-31.9	-36.5	10.9	4.81e-03	0	44	0	458227712	23	6094
2026-01-23 00:49:52.34	0.70	40.46	-31.8	-36.2	11.2	1.80e-03	0	44	0	460324864	23	5972
2026-01-23 00:49:53.35	0.50	40.71	-31.7	-35.9	11.3	1.17e-03	0	44	0	462422016	23	5846
2026-01-23 00:49:54.35	0.31	40.95	-31.6	-35.6	11.6	3.22e-03	0	44	0	463470592	23	5683
2026-01-23 00:49:55.35	0.11	41.20	-31.6	-35.5	11.7	2.82e-03	0	44	0	465567744	23	5642
2026-01-23 00:49:56.35	359.92	41.45	-31.6	-35.5	11.7	5.61e-04	0	44	0	467664896	23	5625
2026-01-23 00:49:57.36	359.71	41.70	-31.7	-35.7	11.5	3.07e-03	0	44	0	469762048	23	5738
2026-01-23 00:49:58.36	359.51	41.95	-31.4	-34.9	12.1	2.91e-03	0	44	0	471859200	23	5388
2026-01-23 00:49:59.36	359.30	42.20	-31.3	-34.6	12.4	1.87e-04	0	44	0	472907776	23	5247
2026-01-23 00:50:00.36	359.09	42.45	-31.3	-35.3	12.2	2.52e-03	0	44	0	475004928	22	5642
2026-01-23 00:50:01.37	358.87	42.71	-31.3	-35.2	12.3	2.46e-03	0	44	0	477102080	22	5603
2026-01-23 00:50:02.38	358.65	42.96	-31.3	-35.1	12.3	2.68e-04	0	44	0	479199232	22	5561
2026-01-23 00:50:03.38	358.42	43.22	-31.4	-35.4	12.2	2.43e-03	0	44	0	481296384	22	5684
2026-01-23 00:50:04.38	358.20	43.48	-31.3	-35.0	12.4	2.29e-03	0	44	0	482344960	22	5533
2026-01-23 00:50:05.39	357.97	43.74	-30.9	-33.9	13.2	9.61e-05	0	44	0	484442112	22	5094
2026-01-23 00:50:06.39	357.73	44.00	-30.7	-33.8	13.4	1.75e-05	0	44	0	486539264	21	5168
2026-01-23 00:50:07.39	357.49	44.26	-30.6	-33.7	13.6	1.93e-03	0	44	0	488636416	21	5129
2026-01-23 00:50:08.40	357.25	44.53	-30.5	-33.4	13.8	1.22e-05	0	44	0	489684992	21	5008
2026-01-23 00:50:09.40	357.00	44.79	-30.3	-33.4	14.1	1.50e-06	0	44	0	491782144	20	5123
2026-01-23 00:50:10.40	356.75	45.05	-30.2	-33.0	14.4	1.85e-03	0	44	0	493879296	20	4970
2026-01-23 00:50:11.40	356.50	45.32	-30.0	-32.6	14.6	3.00e-06	0	44	0	495976448	20	4834
2026-01-23 00:50:12.41	356.24	45.59	-30.0	-32.5	14.7	1.65e-03	0	44	0	498073600	20	4787
2026-01-23 00:50:13.41	355.97	45.86	-30.2	-33.2	14.3	0.00e+00	0	44	0	499122176	20	5046
2026-01-23 00:50:14.41	355.71	46.13	-30.3	-33.3	14.2	7.00e-07	0	44	0	501219328	20	5071
2026-01-23 00:50:15.41	355.43	46.40	-30.2	-33.1	14.3	1.32e-03	0	44	0	503316480	20	5002
2026-01-23 00:50:16.42	355.15	46.67	-30.1	-32.8	14.5	0.00e+00	0	44	0	505413632	20	4918
2026-01-23 00:50:17.43	354.87	46.95	-30.2	-33.1	14.3	0.00e+00	0	44	0	507510784	20	5020
2026-01-23 00:50:18.42	354.58	47.22	-30.3	-33.4	14.2	1.32e-03	0	44	0	508559360	20	5107
2026-01-23 00:50:19.42	354.29	47.49	-30.4	-33.6	14.0	1.50e-06	0	44	0	510656512	20	5205
2026-01-23 00:50:20.43	353.99	47.77	-30.5	-33.4	13.8	6.80e-06	0	44	0	512753664	21	5006
2026-01-23 00:50:21.44	353.69	48.05	-30.5	-33.7	14.0	1.46e-03	0	44	0	514850816	20	5232
2026-01-23 00:50:22.44	353.38	48.33	-30.7	-33.9	13.5	1.50e-03	0	44	0	516947968	21	5183
2026-01-23 00:50:23.45	353.06	48.61	-30.7	-34.0	13.5	1.75e-05	0	44	0	517996544	21	5219
2026-01-23 00:50:24.44	352.74	48.88	-30.7	-33.8	13.5	8.30e-06	0	44	0	520093696	21	5152
2026-01-23 00:50:25.45	352.41	49.17	-30.7	-33.8	13.6	1.69e-03	0	44	0	522190848	21	5150
2026-01-23 00:50:26.45	352.08	49.45	-30.5	-33.2	13.8	7.60e-06	0	44	0	524288000	21	4946
2026-01-23 00:50:27.46	351.74	49.73	-30.1	-32.7	14.6	1.50e-06	0	44	0	526385152	20	4874
2026-01-23 00:50:28.46	351.39	50.01	-29.7	-31.8	15.1	0.00e+00	0	44	0	527433728	20	4579
2026-01-23 00:50:29.46	351.04	50.29	-29.7	-31.7	15.2	0.00e+00	0	44	0	529530880	20	4553
2026-01-23 00:50:30.46	350.68	50.58	-29.6	-32.0	15.4	0.00e+00	0	44	0	531628032	19	4748
2026-01-23 00:50:31.46	350.32	50.86	-29.6	-32.1	15.3	0.00e+00	0	44	0	533725184	19	4763
2026-01-23 00:50:32.46	349.95	51.14	-29.7	-32.3	15.3	0.00e+00	0	44	0	535822336	19	4826
2026-01-23 00:50:33.46	349.57	51.43	-29.3	-31.3	15.7	0.00e+00	0	44	0	536870912	19	4528
2026-01-23 00:50:34.46	349.18	51.71	-29.2	-31.6	15.9	0.00e+00	0	44	0	538968064	18	4712
2026-01-23 00:50:35.46	348.79	52.00	-29.5	-32.2	15.6	0.00e+00	0	44	0	541065216	18	4914
2026-01-23 00:50:36.46	348.38	52.28	-29.7	-32.2	15.2	0.00e+00	0	44	0	543162368	19	4822
2026-01-23 00:50:37.47	347.97	52.57	-29.7	-32.1	15.3	0.00e+00	0	44	0	545259520	19	4781
2026-01-23 00:50:38.47	347.55	52.86	-28.0	-31.6	14.1	4.88e-03	0	44	0	546308096	17	5456
2026-01-23 00:50:39.47	347.13	53.14	-28.6	-33.1	14.0	2.46e-02	0	44	0	548405248	16	6039
2026-01-23 00:50:40.47	346.69	53.43	-26.8	-31.9	13.4	2.50e-02	0	44	0	550502400	15	6437
2026-01-23 00:50:41.47	346.25	53.71	-25.9	-31.3	13.2	3.23e-02	0	44	0	552599552	14	6696
2026-01-23 00:50:42.47	345.80	54.00	-25.6	-32.3	12.7	3.37e-02	0	44	0	553648128	12	7712
2026-01-23 00:50:43.48	345.33	54.29	-25.3	-33.6	12.4	3.48e-02	0	44	0	555745280	9	9318
2026-01-23 00:50:44.48	344.86	54.57	-24.0	-33.4	12.2	3.53e-02	0	44	0	557842432	7	10638
2026-01-23 00:50:45.48	344.38	54.85	-22.6	-33.9	11.4	3.61e-02	0	44	0	559939584	4	13169
2026-01-23 00:50:46.48	343.89	55.14	-20.3	-33.7	10.6	3.70e-02	0	44	0	562036736	3	16806
2026-01-23 00:50:47.49	343.38	55.42	-19.3	-34.3	10.2	4.66e-02	0	44	0	563085312	0	20320
2026-01-23 00:50:48.49	342.87	55.71	-18.2	-33.3	10.2	4.27e-02	0	44	0	565182464	0	20534
2026-01-23 00:50:49.49	342.35	55.99	-19.8	-35.9	9.3	4.98e-02	0	44	0	567279616	0	22786
2026-01-23 00:50:50.50	341.82	56.27	-17.1	-33.5	8.9	6.20e-02	0	44	0	569376768	0	23716
2026-01-23 00:50:51.50	341.27	56.55	-16.9	-33.0	9.1	6.16e-02	0	44	0	571473920	0	22996
2026-01-23 00:50:52.51	340.71	56.83	-19.1	-35.3	8.9	6.44e-02	0	44	0	572522496	0	23229
2026-01-23 00:50:53.51	340.15	57.11	-18.1	-34.7	8.3	1.10e-01	0	44	0	574619648	0	24288
2026-01-23 00:50:54.52	339.57	57.39	-17.4	-34.0	8.9	1.40e-01	0	44	0	576716800	0	24317
2026-01-23 00:50:55.52	338.98	57.66	-15.7	-32.3	8.8	1.76e-01	0	44	0	578813952	0	24363
2026-01-23 00:50:56.52	338.38	57.93	-22.4	-38.3	8.9	1.89e-01	0	44	0	580911104	0	22315
2026-01-23 00:50:57.52	337.76	58.20	-21.8	-36.9	9.0	2.09e-01	0	44	0	581959680	0	20527
2026-01-23 00:50:58.52	337.14	58.47	-21.4	-36.2	9.1	2.23e-01	0	44	0	584056832	0	19872
2026-01-23 00:50:59.53	336.49	58.74	-16.2	-31.2	9.7	2.48e-01	0	44	0	586153984	0	20346
2026-01-23 00:51:00.53	335.84	59.01	-20.0	-34.8	9.2	1.74e-01	0	44	0	588251136	0	19871
2026-01-23 00:51:01.53	335.18	59.27	-23.3	-37.1	10.6	1.64e-01	0	44	0	590348288	0	17631
2026-01-23 00:51:02.53	334.50	59.53	-16.2	-29.7	10.2	2.35e-01	0	44	0	591396864	0	16990
2026-01-23 00:51:03.54	333.80	59.79	-20.7	-34.0	10.2	2.36e-01	0	44	0	593494016	0	16812
2026-01-23 00:51:04.54	333.09	60.04	-26.3	-40.1	10.6	1.50e-01	0	44	0	595591168	0	17521
2026-01-23 00:51:05.54	332.37	60.29	-17.8	-31.1	11.6	5.37e-02	0	44	0	597688320	0	16540
2026-01-23 00:51:06.54	331.64	60.54	-18.5	-31.0	12.2	3.98e-02	0	44	0	598736896	0	15222
2026-01-23 00:51:07.54	330.89	60.79	-16.8	-29.3	12.4	3.56e-02	0	44	0	600834048	0	15222
2026-01-23 00:51:08.55	330.12	61.03	-15.8	-28.6	12.6	3.38e-02	0	44	0	602931200	0	15597
2026-01-23 00:51:09.55	329.34	61.27	-17.3	-29.6	12.8	3.40e-02	0	44	0	605028352	0	14743
2026-01-23 00:51:10.56	328.54	61.50	-18.2	-29.9	12.6	3.69e-02	0	44	0	607125504	0	13879
2026-01-23 00:51:11.56	327.73	61.73	-19.7	-29.4	13.0	3.61e-02	0	44	0	608174080	3	11043
2026-01-23 00:51:12.56	326.90	61.96	-23.6	-31.3	13.5	3.41e-02	0	44	0	610271232	7	8722
2026-01-23 00:51:13.56	326.06	62.18	-25.0	-31.2	13.8	3.31e-02	0	44	0	612368384	10	7373
2026-01-23 00:51:14.57	325.20	62.40	-25.1	-30.6	13.6	3.29e-02	0	44	0	614465536	12	6797
2026-01-23 00:51:15.57	324.33	62.61	-26.3	-30.5	13.6	3.23e-02	0	44	0	616562688	15	5826
2026-01-23 00:51:16.58	323.44	62.82	-27.5	-31.1	14.3	3.17e-02	0	44	0	617611264	16	5422
2026-01-23 00:51:17.58	322.54	63.02	-28.9	-32.4	14.2	2.96e-02	0	44	0	619708416	17	5330
2026-01-23 00:51:18.59	321.61	63.22	-29.2	-32.8	13.3	2.85e-02	0	44	0	621805568	19	5403
2026-01-23 00:51:19.59	320.68	63.40	-29.3	-32.2	13.3	2.97e-02	0	44	0	623902720	20	5042
2026-01-23 00:51:20.58	319.75	63.59	-28.8	-31.8	14.1	2.86e-02	0	44	0	625999872	18	5033
2026-01-23 00:51:21.58	318.79	63.76	-28.3	-31.3	14.8	2.95e-02	0	44	0	627048448	16	5086
2026-01-23 00:51:22.59	317.80	63.94	-27.3	-30.6	14.9	2.85e-02	0	44	0	629145600	15	5240
2026-01-23 00:51:23.59	316.81	64.10	-27.9	-31.5	14.6	2.95e-02	0	44	0	631242752	15	5423
2026-01-23 00:51:24.60	315.80	64.26	-26.9	-30.8	14.4	3.07e-02	0	44	0	633339904	15	5632
2026-01-23 00:51:25.61	314.77	64.42	-28.1	-32.7	13.6	3.04e-02	0	44	0	635437056	15	6133
2026-01-23 00:51:26.61	313.74	64.56	-27.7	-32.5	12.7	3.09e-02	0	44	0	636485632	17	6272
2026-01-23 00:51:27.61	312.70	64.70	-28.5	-33.7	12.4	3.11e-02	0	44	0	638582784	17	6534
2026-01-23 00:51:28.61	311.64	64.83	-27.6	-32.1	13.0	3.10e-02	0	44	0	640679936	17	6043
2026-01-23 00:51:29.62	310.56	64.95	-30.0	-32.5	14.7	1.55e-02	0	44	0	642777088	20	4811
2026-01-23 00:51:30.61	309.49	65.06	-30.1	-32.8	14.6	0.00e+00	0	44	0	644874240	20	4910
2026-01-23 00:51:31.62	308.39	65.17	-30.5	-33.7	14.0	2.20e-06	0	44	0	645922816	20	5213
2026-01-23 00:51:32.62	307.29	65.27	-30.6	-33.6	13.8	2.40e-04	0	44	0	648019968	21	5089
2026-01-23 00:51:33.63	306.17	65.36	-30.8	-34.0	13.5	4.50e-06	0	44	0	650117120	21	5248
2026-01-23 00:51:34.63	305.06	65.44	-30.6	-33.6	13.8	6.80e-06	0	44	0	652214272	21	5072
2026-01-23 00:51:35.63	303.93	65.51	-30.6	-33.5	13.9	1.20e-04	0	44	0	653262848	21	5037
2026-01-23 00:51:36.63	302.80	65.58	-30.6	-33.6	13.8	1.61e-04	0	44	0	655360000	21	5062
2026-01-23 00:51:37.64	301.65	65.64	-30.6	-33.6	13.7	9.90e-06	0	44	0	657457152	21	5090
2026-01-23 00:51:38.64	300.50	65.68	-30.3	-32.8	14.3	4.92e-04	0	44	0	659554304	21	4778
2026-01-23 00:51:39.64	299.35	65.72	-29.9	-31.6	15.0	7.17e-05	0	44	0	661651456	21	4414
2026-01-23 00:51:40.65	298.19	65.75	-29.8	-31.5	15.1	7.00e-07	0	44	0	662700032	21	4364
2026-01-23 00:51:41.65	297.03	65.77	-29.9	-32.2	14.9	7.00e-07	0	44	0	664797184	20	4719
2026-01-23 00:51:42.65	295.87	65.78	-29.9	-32.2	15.0	3.04e-04	0	44	0	666894336	20	4689
2026-01-23 00:51:43.66	294.71	65.78	-29.5	-31.2	15.5	0.00e+00	0	44	0	668991488	20	4397
2026-01-23 00:51:44.66	293.55	65.78	-29.7	-32.3	15.3	1.08e-03	0	44	0	671088640	19	4828
2026-01-23 00:51:45.66	292.39	65.76	-29.6	-32.0	15.4	1.32e-03	0	44	0	672137216	19	4729
2026-01-23 00:51:46.66	291.24	65.74	-29.6	-31.9	15.4	0.00e+00	0	44	0	674234368	19	4718
2026-01-23 00:51:47.67	290.07	65.70	-29.8	-32.5	15.1	0.00e+00	0	44	0	676331520	19	4926
2026-01-23 00:51:48.67	288.93	65.66	-29.6	-32.0	15.4	7.51e-04	0	44	0	678428672	19	4732
2026-01-23 00:51:49.67	287.78	65.61	-29.7	-32.2	15.2	1.50e-06	0	44	0	680525824	19	4809
2026-01-23 00:51:50.67	286.65	65.55	-29.9	-32.6	15.0	1.54e-03	0	44	0	681574400	19	4956
2026-01-23 00:51:51.68	285.50	65.48	-30.0	-32.6	14.6	1.26e-03	0	44	0	683671552	20	4836
2026-01-23 00:51:52.68	284.38	65.40	-30.0	-32.5	14.6	5.30e-06	0	44	0	685768704	20	4800
2026-01-23 00:51:53.69	283.26	65.32	-30.3	-33.2	14.1	2.03e-03	0	44	0	687865856	20	5046
2026-01-23 00:51:54.69	282.15	65.22	-30.1	-32.8	14.4	2.28e-05	0	44	0	689963008	20	4900
2026-01-23 00:51:55.69	281.05	65.12	-29.9	-32.1	14.9	6.10e-06	0	44	0	691011584	20	4677
2026-01-23 00:51:56.70	279.96	65.01	-29.9	-32.3	14.8	2.26e-03	0	44	0	693108736	20	4747
2026-01-23 00:51:57.70	278.88	64.89	-29.8	-32.4	15.2	0.00e+00	0	44	0	695205888	19	4864
2026-01-23 00:51:58.71	277.81	64.76	-29.6	-31.9	15.5	0.00e+00	0	44	0	697303040	19	4714
2026-01-23 00:51:59.72	276.75	64.63	-29.5	-31.7	15.7	1.74e-03	0	44	0	699400192	19	4639
2026-01-23 00:52:00.72	275.71	64.49	-29.4	-31.6	15.6	1.57e-03	0	44	0	700448768	19	4596
2026-01-23 00:52:01.73	274.68	64.34	-28.9	-30.3	16.4	0.00e+00	0	44	0	702545920	19	4207
2026-01-23 00:52:02.73	273.67	64.18	-28.5	-30.4	17.0	1.89e-03	0	44	0	704643072	17	4452
2026-01-23 00:52:03.74	272.66	64.02	-28.4	-30.6	17.1	2.18e-03	0	44	0	706740224	16	4633
2026-01-23 00:52:04.74	271.67	63.85	-28.4	-30.1	17.1	0.00e+00	0	44	0	708837376	17	4385
2026-01-23 00:52:05.74	270.71	63.68	-28.2	-30.1	17.4	0.00e+00	0	44	0	709885952	16	4491
2026-01-23 00:52:06.74	269.75	63.50	-27.8	-29.3	17.8	1.55e-03	0	44	0	711983104	16	4253
2026-01-23 00:52:07.74	268.81	63.31	-27.8	-29.2	17.8	0.00e+00	0	44	0	714080256	16	4246
2026-01-23 00:52:08.74	267.89	63.12	-28.2	-30.1	17.3	0.00e+00	0	44	0	716177408	16	4494
2026-01-23 00:52:09.75	266.97	62.92	-28.2	-30.2	17.3	0.00e+00	0	44	0	717225984	16	4520
2026-01-23 00:52:10.75	266.08	62.71	-28.5	-30.2	16.9	0.00e+00	0	44	0	719323136	17	4418
2026-01-23 00:52:11.75	265.20	62.50	-28.6	-30.6	16.8	0.00e+00	0	44	0	721420288	17	4531
2026-01-23 00:52:12.76	264.33	62.29	-28.4	-30.0	17.1	0.00e+00	0	44	0	723517440	17	4354
2026-01-23 00:52:13.76	263.48	62.07	-28.5	-30.5	16.9	0.00e+00	0	44	0	725614592	17	4481
2026-01-23 00:52:14.77	262.64	61.84	-29.2	-31.4	16.1	0.00e+00	0	44	0	726663168	18	4650
2026-01-23 00:52:15.77	261.82	61.62	-29.8	-32.5	15.1	0.00e+00	0	44	0	728760320	19	4904
2026-01-23 00:52:16.77	261.02	61.38	-29.8	-32.6	15.1	0.00e+00	0	44	0	730857472	19	4934
2026-01-23 00:52:17.78	260.22	61.14	-29.9	-32.3	14.8	1.67e-03	0	44	0	732954624	20	4730
2026-01-23 00:52:18.78	259.45	60.91	-30.3	-33.4	14.2	1.50e-06	0	44	0	735051776	20	5118
2026-01-23 00:52:19.77	258.70	60.66	-30.8	-34.0	13.4	1.22e-05	0	44	0	736100352	21	5240
2026-01-23 00:52:20.78	257.95	60.41	-31.1	-34.5	12.7	1.75e-03	0	44	0	738197504	22	5329
2026-01-23 00:52:21.78	257.22	60.16	-31.4	-35.3	12.2	1.65e-04	0	44	0	740294656	22	5661
2026-01-23 00:52:22.78	256.51	59.91	-31.6	-35.4	11.9	3.17e-04	0	44	0	742391808	23	5570
2026-01-23 00:52:23.78	255.81	59.66	-31.9	-36.4	11.2	8.25e-04	0	44	0	744488960	23	6035
2026-01-23 00:52:24.79	255.11	59.39	-31.9	-36.2	11.2	3.42e-03	0	44	0	745537536	23	5966
2026-01-23 00:52:25.79	254.44	59.13	-31.8	-36.0	11.4	1.08e-03	0	44	0	747634688	23	5848
2026-01-23 00:52:26.80	253.77	58.87	-31.9	-36.3	11.2	1.03e-03	0	44	0	749731840	23	5984
2026-01-23 00:52:27.81	253.12	58.60	-32.2	-36.8	10.3	2.03e-03	0	44	0	751828992	24	6152
2026-01-23 00:52:28.81	252.49	58.33	-32.1	-36.7	10.6	5.64e-03	0	44	0	753926144	24	6099
2026-01-23 00:52:29.81	251.87	58.06	-32.1	-36.5	10.6	3.25e-03	0	44	0	754974720	24	6011
2026-01-23 00:52:30.82	251.25	57.78	-31.9	-35.9	11.1	2.30e-03	0	44	0	757071872	24	5731
2026-01-23 00:52:31.82	250.66	57.51	-31.9	-36.0	11.0	1.74e-03	0	44	0	759169024	24	5761
2026-01-23 00:52:32.82	250.07	57.23	-31.6	-35.4	11.7	1.05e-03	0	44	0	761266176	23	5612
2026-01-23 00:52:33.83	249.50	56.95	-31.3	-34.5	12.4	2.28e-04	0	44	0	763363328	23	5209
2026-01-23 00:52:34.83	248.94	56.67	-31.0	-33.8	12.9	9.76e-05	0	44	0	764411904	23	4937
2026-01-23 00:52:35.84	248.38	56.39	-31.0	-33.8	12.9	7.55e-05	0	44	0	766509056	23	4945
2026-01-23 00:52:36.85	247.84	56.11	-30.6	-33.2	13.6	1.22e-05	0	44	0	768606208	22	4842
2026-01-23 00:52:37.85	247.31	55.83	-30.4	-32.7	13.9	9.10e-06	0	44	0	770703360	22	4658
2026-01-23 00:52:38.86	246.79	55.54	-30.1	-32.9	14.3	3.00e-06	0	44	0	772800512	20	4940
2026-01-23 00:52:39.86	246.28	55.26	-29.8	-32.1	14.8	0.00e+00	0	44	0	773849088	20	4695
2026-01-23 00:52:40.86	245.79	54.97	-29.7	-32.2	15.1	0.00e+00	0	44	0	775946240	19	4826
2026-01-23 00:52:41.86	245.30	54.69	-29.9	-32.7	14.8	0.00e+00	0	44	0	778043392	19	4997
2026-01-23 00:52:42.86	244.83	54.40	-29.7	-32.3	15.1	0.00e+00	0	44	0	780140544	19	4863
2026-01-23 00:52:43.87	244.35	54.12	-28.7	-31.9	14.9	0.00e+00	0	44	0	782237696	18	5156
2026-01-23 00:52:44.88	243.89	53.83	-30.0	-33.1	14.2	0.00e+00	0	44	0	783286272	19	5109
2026-01-23 00:52:45.88	243.44	53.54	-30.5	-33.9	13.7	3.80e-06	0	44	0	785383424	20	5337
2026-01-23 00:52:46.88	243.00	53.25	-30.4	-33.8	13.1	9.10e-06	0	44	0	787480576	20	5276
2026-01-23 00:52:47.89	242.57	52.96	-30.3	-33.5	13.9	6.10e-06	0	44	0	789577728	20	5173
2026-01-23 00:52:48.88	242.15	52.68	-30.4	-33.6	13.9	6.10e-06	0	44	0	790626304	20	5235
2026-01-23 00:52:49.89	241.73	52.39	-30.4	-33.6	13.9	1.50e-06	0	44	0	792723456	20	5204
2026-01-23 00:52:50.89	241.33	52.11	-30.4	-33.6	13.8	3.00e-06	0	44	0	794820608	20	5216
2026-01-23 00:52:51.90	240.92	51.82	-30.7	-33.9	13.4	5.30e-06	0	44	0	796917760	21	5223
2026-01-23 00:52:52.90	240.53	51.53	-30.8	-34.4	13.0	2.51e-05	0	44	0	799014912	21	5394
2026-01-23 00:52:53.90	240.15	51.25	-31.2	-34.8	12.5	7.62e-05	0	44	0	800063488	22	5451
2026-01-23 00:52:54.90	239.77	50.96	-31.1	-34.4	12.7	1.18e-04	0	44	0	802160640	22	5321
2026-01-23 00:52:55.90	239.40	50.68	-31.1	-34.5	12.7	1.46e-04	0	44	0	804257792	22	5334
2026-01-23 00:52:56.90	239.04	50.39	-31.1	-34.5	12.7	6.63e-05	0	44	0	806354944	22	5357
2026-01-23 00:52:57.90	238.69	50.11	-30.9	-34.1	12.9	5.56e-05	0	44	0	808452096	22	5196
2026-01-23 00:52:58.90	238.34	49.83	-30.8	-34.3	13.0	6.68e-04	0	44	0	809500672	21	5381
2026-01-23 00:52:59.91	237.99	49.54	-30.6	-33.8	13.4	1.90e-05	0	44	0	811597824	21	5176
2026-01-23 00:53:00.91	237.66	49.26	-30.6	-33.6	13.5	8.30e-06	0	44	0	813694976	21	5101
2026-01-23 00:53:01.90	237.33	48.98	-30.9	-34.6	12.9	1.29e-05	0	44	0	815792128	21	5482
2026-01-23 00:53:02.91	237.00	48.70	-31.1	-34.5	12.6	5.45e-04	0	44	0	817889280	22	5357
2026-01-23 00:53:03.91	236.69	48.42	-31.2	-35.0	12.3	1.56e-04	0	44	0	818937856	22	5544
2026-01-23 00:53:04.92	236.37	48.14	-30.9	-34.6	12.8	8.69e-05	0	44	0	821035008	21	5503
2026-01-23 00:53:05.92	236.06	47.86	-30.7	-34.0	13.2	1.51e-03	0	44	0	823132160	21	5273
2026-01-23 00:53:06.92	235.76	47.58	-30.7	-34.0	13.2	1.90e-05	0	44	0	825229312	21	5258
2026-01-23 00:53:07.93	235.46	47.31	-30.7	-34.0	13.2	2.59e-05	0	44	0	827326464	21	5261
2026-01-23 00:53:08.93	235.17	47.03	-30.4	-33.7	13.7	6.80e-06	0	44	0	828375040	20	5262
2026-01-23 00:53:09.93	234.89	46.76	-30.4	-33.6	13.8	7.00e-07	0	44	0	830472192	20	5229
2026-01-23 00:53:10.93	234.61	46.48	-30.6	-33.8	13.4	7.60e-06	0	44	0	832569344	21	5169
2026-01-23 00:53:11.93	234.33	46.21	-30.7	-33.9	13.3	2.67e-05	0	44	0	834666496	21	5211
2026-01-23 00:53:12.93	234.06	45.94	-30.5	-33.5	13.5	3.00e-06	0	44	0	835715072	21	5084
2026-01-23 00:53:13.94	233.79	45.67	-30.5	-33.9	13.6	1.08e-03	0	44	0	837812224	20	5340
2026-01-23 00:53:14.94	233.53	45.40	-30.5	-33.6	13.5	1.06e-05	0	44	0	839909376	21	5112
2026-01-23 00:53:15.94	233.28	45.13	-30.7	-34.0	13.2	1.67e-05	0	44	0	842006528	21	5288
2026-01-23 00:53:16.94	233.02	44.87	-30.7	-34.0	13.2	1.75e-03	0	44	0	844103680	21	5264
2026-01-23 00:53:17.94	232.77	44.60	-30.7	-34.2	13.0	1.74e-03	0	44	0	845152256	21	5354
2026-01-23 00:53:18.94	232.53	44.34	-31.1	-34.7	12.4	3.73e-05	0	44	0	847249408	22	5463
2026-01-23 00:53:19.94	232.29	44.08	-31.2	-35.0	12.2	1.82e-03	0	44	0	849346560	22	5566
2026-01-23 00:53:20.95	232.05	43.81	-31.4	-35.5	11.9	1.75e-03	0	44	0	851443712	22	5786
2026-01-23 00:53:21.95	231.82	43.55	-31.4	-35.7	11.7	4.25e-04	0	44	0	853540864	22	5883
2026-01-23 00:53:22.95	231.59	43.29	-31.5	-35.4	11.6	1.95e-03	0	44	0	854589440	23	5626
2026-01-23 00:53:23.96	231.36	43.03	-31.7	-36.1	11.1	2.88e-03	0	44	0	856686592	23	5949
2026-01-23 00:53:24.96	231.14	42.78	-31.8	-36.3	10.9	1.64e-03	0	44	0	858783744	23	6065
2026-01-23 00:53:25.97	230.92	42.52	-31.7	-36.2	11.0	4.16e-03	0	44	0	860880896	23	5997
2026-01-23 00:53:26.97	230.71	42.26	-31.8	-36.4	10.8	4.06e-03	0	44	0	862978048	23	6109
2026-01-23 00:53:27.97	230.50	42.01	-31.9	-36.9	10.5	2.47e-03	0	44	0	864026624	23	6361
2026-01-23 00:53:28.97	230.29	41.76	-31.9	-36.6	10.6	2.76e-03	0	44	0	866123776	23	6231
2026-01-23 00:53:29.98	230.08	41.51	-32.1	-37.1	9.9	8.90e-03	0	44	0	868220928	24	6383
2026-01-23 00:53:30.98	229.88	41.26	-32.2	-37.4	9.7	1.13e-02	0	44	0	870318080	24	6548
2026-01-23 00:53:31.99	229.68	41.01	-32.3	-37.6	9.5	1.49e-02	0	44	0	872415232	24	6675
2026-01-23 00:53:32.99	229.49	40.76	-32.5	-38.4	9.0	2.44e-02	0	44	0	873463808	24	7119
2026-01-23 00:53:33.99	229.30	40.52	-32.6	-38.4	8.6	3.54e-02	0	44	0	875560960	25	7003
2026-01-23 00:53:35.00	229.10	40.27	-32.7	-39.0	8.0	4.60e-02	0	44	0	877658112	25	7434
2026-01-23 00:53:36.00	228.92	40.03	-32.6	-38.7	8.3	5.72e-02	0	44	0	879755264	25	7243
2026-01-23 00:53:37.00	228.73	39.79	-32.4	-37.8	8.9	3.21e-02	0	44	0	880803840	25	6667
2026-01-23 00:53:38.00	228.55	39.55	-32.4	-37.8	8.9	3.36e-02	0	44	0	882900992	25	6703
2026-01-23 00:53:39.00	228.38	39.31	-32.1	-37.2	9.8	2.18e-02	0	44	0	884998144	24	6419
2026-01-23 00:53:40.00	228.20	39.07	-32.1	-37.1	9.8	9.44e-03	0	44	0	887095296	24	6411
2026-01-23 00:53:41.00	228.03	38.84	-32.2	-37.4	9.6	1.31e-02	0	44	0	889192448	24	6535
2026-01-23 00:53:42.00	227.86	38.60	-32.4	-38.1	9.2	1.73e-02	0	44	0	891289600	24	6954
2026-01-23 00:53:43.00	227.69	38.37	-32.3	-37.7	9.4	2.21e-02	0	44	0	892338176	24	6746
2026-01-23 00:53:44.00	227.52	38.14	-32.2	-37.4	9.6	1.52e-02	0	44	0	894435328	24	6566
2026-01-23 00:53:45.00	227.36	37.91	-32.1	-37.0	9.9	1.37e-02	0	44	0	896532480	24	6333
2026-01-23 00:53:46.01	227.20	37.67	-31.9	-36.5	10.3	7.44e-03	0	44	0	898629632	24	6074
2026-01-23 00:53:47.01	227.04	37.45	-31.7	-36.1	11.0	3.25e-03	0	44	0	899678208	23	5970
2026-01-23 00:53:48.01	226.88	37.22	-31.7	-36.0	11.1	3.24e-03	0	44	0	901775360	23	5931
2026-01-23 00:53:49.02	226.73	36.99	-31.7	-36.1	10.9	1.89e-03	0	44	0	903872512	23	6006
2026-01-23 00:53:50.01	226.58	36.77	-31.4	-35.0	11.8	7.12e-04	0	44	0	905969664	23	5473
2026-01-23 00:53:51.02	226.43	36.55	-31.4	-35.6	11.7	2.37e-03	0	44	0	908066816	22	5833
2026-01-23 00:53:52.02	226.28	36.32	-31.2	-34.9	12.2	3.78e-04	0	44	0	909115392	22	5566
2026-01-23 00:53:53.03	226.13	36.10	-31.0	-34.5	12.4	2.01e-03	0	44	0	911212544	22	5386
2026-01-23 00:53:54.04	225.99	35.88	-31.0	-34.9	12.5	8.92e-05	0	44	0	913309696	21	5658
2026-01-23 00:53:55.04	225.85	35.66	-31.0	-34.8	12.5	9.30e-05	0	44	0	915406848	21	5629
2026-01-23 00:53:56.05	225.70	35.44	-31.2	-34.9	12.2	2.19e-03	0	44	0	917504000	22	5556
2026-01-23 00:53:57.06	225.57	35.23	-31.4	-35.8	11.6	4.88e-04	0	44	0	918552576	22	5954
2026-01-23 00:53:58.07	225.43	35.01	-31.7	-36.3	10.8	1.60e-03	0	44	0	920649728	23	6068
2026-01-23 00:53:59.07	225.29	34.80	-31.6	-35.8	11.2	2.74e-03	0	44	0	922746880	23	5861
2026-01-23 00:54:00.07	225.16	34.59	-31.4	-35.2	11.7	7.87e-04	0	44	0	924844032	23	5581
2026-01-23 00:54:01.08	225.03	34.38	-31.2	-34.6	12.0	3.66e-04	0	44	0	926941184	23	5324
2026-01-23 00:54:02.09	224.90	34.17	-31.1	-34.7	12.3	1.69e-03	0	44	0	927989760	22	5458
2026-01-23 00:54:03.09	224.77	33.96	-31.0	-34.6	12.4	1.78e-03	0	44	0	930086912	22	5419
2026-01-23 00:54:04.09	224.65	33.75	-31.2	-35.0	12.1	3.11e-04	0	44	0	932184064	22	5599
2026-01-23 00:54:05.09	224.52	33.55	-31.0	-34.6	12.4	1.67e-04	0	44	0	934281216	22	5402
2026-01-23 00:54:06.10	224.40	33.34	-31.0	-34.9	12.5	1.83e-03	0	44	0	936378368	21	5658
2026-01-23 00:54:07.10	224.28	33.14	-31.2	-35.1	12.1	2.29e-04	0	44	0	937426944	22	5656
2026-01-23 00:54:08.11	224.16	32.93	-31.5	-35.7	11.3	8.24e-04	0	44	0	939524096	23	5786
2026-01-23 00:54:09.11	224.04	32.73	-31.5	-35.6	11.3	2.93e-03	0	44	0	941621248	23	5741
2026-01-23 00:54:10.12	223.92	32.53	-31.6	-35.9	11.0	1.43e-03	0	44	0	943718400	23	5916
2026-01-23 00:54:11.13	223.80	32.33	-31.8	-36.5	10.6	2.98e-03	0	44	0	945815552	23	6187
2026-01-23 00:54:12.13	223.69	32.14	-31.8	-36.7	10.5	3.99e-03	0	44	0	946864128	23	6291
2026-01-23 00:54:13.14	223.58	31.94	-31.8	-36.6	10.5	3.88e-03	0	44	0	948961280	23	6254
2026-01-23 00:54:14.14	223.47	31.74	-31.8	-36.5	10.6	3.95e-03	0	44	0	951058432	23	6194
2026-01-23 00:54:15.15	223.36	31.55	-31.7	-36.1	10.8	2.94e-03	0	44	0	953155584	23	6018
2026-01-23 00:54:16.15	223.25	31.36	-31.6	-35.9	11.0	2.31e-03	0	44	0	954204160	23	5900
2026-01-23 00:54:17.15	223.14	31.17	-31.6	-36.0	10.9	2.32e-03	0	44	0	956301312	23	5975
2026-01-23 00:54:18.15	223.04	30.98	-31.6	-35.8	11.1	1.91e-03	0	44	0	958398464	23	5877
2026-01-23 00:54:19.15	222.93	30.79	-31.8	-36.5	10.6	2.69e-03	0	44	0	960495616	23	6205
2026-01-23 00:54:20.16	222.83	30.60	-31.5	-35.7	11.2	1.62e-03	0	44	0	962592768	23	5803
2026-01-23 00:54:21.16	222.73	30.41	-31.5	-35.5	11.3	1.32e-03	0	44	0	964689920	23	5718
2026-01-23 00:54:22.16	222.63	30.23	-31.5	-35.4	11.3	9.56e-04	0	44	0	965738496	23	5694
2026-01-23 00:54:23.17	222.53	30.04	-31.5	-35.6	11.2	1.11e-03	0	44	0	967835648	23	5784
2026-01-23 00:54:24.17	222.43	29.86	-31.6	-35.8	11.1	1.42e-03	0	44	0	969932800	23	5882
2026-01-23 00:54:25.17	222.33	29.68	-31.7	-36.2	10.8	2.05e-03	0	44	0	972029952	23	6064
2026-01-23 00:54:26.17	222.23	29.49	-31.6	-36.0	10.9	2.24e-03	0	44	0	973078528	23	5969
2026-01-23 00:54:27.18	222.14	29.31	-31.6	-36.1	10.8	2.43e-03	0	44	0	975175680	23	6016
2026-01-23 00:54:28.19	222.04	29.13	-31.7	-36.2	10.8	2.81e-03	0	44	0	977272832	23	6065
2026-01-23 00:54:29.19	221.95	28.95	-31.7	-36.3	10.7	2.58e-03	0	44	0	979369984	23	6107
2026-01-23 00:54:30.19	221.86	28.78	-31.7	-36.5	10.5	3.36e-03	0	44	0	981467136	23	6220
2026-01-23 00:54:31.19	221.77	28.60	-31.8	-36.5	10.5	3.89e-03	0	44	0	982515712	23	6244
2026-01-23 00:54:32.19	221.68	28.43	-31.7	-36.4	10.6	3.63e-03	0	44	0	984612864	23	6162
2026-01-23 00:54:33.20	221.59	28.25	-31.7	-36.4	10.6	3.70e-03	0	44	0	986710016	23	6161
2026-01-23 00:54:34.20	221.50	28.08	-31.8	-36.7	10.3	4.48e-03	0	44	0	988807168	23	6317
2026-01-23 00:54:35.21	221.41	27.90	-31.8	-36.5	10.5	4.81e-03	0	44	0	990904320	23	6238
2026-01-23 00:54:36.21	221.33	27.73	-31.4	-35.3	11.3	2.01e-03	0	44	0	991952896	23	5669
2026-01-23 00:54:37.21	221.24	27.56	-31.1	-35.0	11.9	1.66e-03	0	44	0	994050048	22	5620
2026-01-23 00:54:38.21	221.16	27.39	-30.9	-34.8	12.3	2.27e-04	0	44	0	996147200	21	5664
2026-01-23 00:54:39.21	221.08	27.23	-30.9	-34.7	12.5	1.45e-04	0	44	0	998244352	21	5597
2026-01-23 00:54:40.21	221.00	27.06	-30.9	-34.8	12.3	1.22e-04	0	44	0	1000341504	21	5644
2026-01-23 00:54:41.21	220.91	26.89	-31.0	-34.6	12.2	2.04e-04	0	44	0	1001390080	22	5468
2026-01-23 00:54:42.21	220.83	26.73	-30.9	-34.5	12.3	1.64e-04	0	44	0	1003487232	22	5390
2026-01-23 00:54:43.21	220.75	26.56	-31.0	-34.6	12.2	1.85e-04	0	44	0	1005584384	22	5436
2026-01-23 00:54:44.23	220.67	26.40	-31.0	-34.8	12.1	6.38e-04	0	44	0	1007681536	22	5534
2026-01-23 00:54:45.23	220.60	26.24	-31.1	-34.9	12.0	3.33e-04	0	44	0	1009778688	22	5573
2026-01-23 00:54:46.23	220.52	26.07	-31.1	-35.1	11.9	4.07e-04	0	44	0	1010827264	22	5657
2026-01-23 00:54:47.24	220.44	25.91	-31.1	-35.0	11.8	3.83e-04	0	44	0	1012924416	22	5652
2026-01-23 00:54:48.24	220.37	25.75	-31.2	-35.1	11.8	4.79e-04	0	44	0	1015021568	22	5694
2026-01-23 00:54:49.25	220.29	25.59	-31.2	-35.2	11.8	5.87e-04	0	44	0	1017118720	22	5718
2026-01-23 00:54:50.25	220.22	25.44	-31.1	-34.9	11.9	5.20e-04	0	44	0	1019215872	22	5601
2026-01-23 00:54:51.26	220.14	25.28	-31.0	-34.7	12.1	2.99e-04	0	44	0	1020264448	22	5524
2026-01-23 00:54:52.26	220.07	25.12	-31.0	-35.1	12.1	2.37e-04	0	44	0	1022361600	21	5797
2026-01-23 00:54:53.26	220.00	24.97	-31.0	-34.8	12.0	3.19e-04	0	44	0	1024458752	22	5543
2026-01-23 00:54:54.26	219.93	24.81	-30.9	-34.3	12.4	1.89e-04	0	44	0	1026555904	22	5313
2026-01-23 00:54:55.26	219.86	24.66	-30.9	-34.9	12.2	2.81e-03	0	44	0	1027604480	21	5698
2026-01-23 00:54:56.26	219.79	24.51	-30.8	-34.6	12.5	1.59e-04	0	44	0	1029701632	21	5562
2026-01-23 00:54:57.27	219.72	24.35	-30.9	-34.8	12.3	1.42e-04	0	44	0	1031798784	21	5655
2026-01-23 00:54:58.27	219.65	24.20	-30.8	-34.5	12.5	2.75e-03	0	44	0	1033895936	21	5538
2026-01-23 00:54:59.27	219.59	24.05	-30.8	-34.6	12.4	2.53e-03	0	44	0	1035993088	21	5583
2026-01-23 00:55:00.27	219.52	23.90	-30.8	-34.6	12.4	1.80e-04	0	44	0	1037041664	21	5587
2026-01-23 00:55:01.28	219.45	23.75	-30.8	-34.5	12.5	2.57e-03	0	44	0	1039138816	21	5546
2026-01-23 00:55:02.27	219.39	23.61	-30.8	-34.5	12.5	2.88e-03	0	44	0	1041235968	21	5546
2026-01-23 00:55:03.28	219.32	23.46	-30.8	-34.5	12.4	1.25e-04	0	44	0	1043333120	21	5534
2026-01-23 00:55:04.29	219.26	23.31	-30.8	-34.7	12.3	1.49e-04	0	44	0	1045430272	21	5634
2026-01-23 00:55:05.29	219.19	23.16	-30.7	-34.4	12.5	2.66e-03	0	44	0	1046478848	21	5492
2026-01-23 00:55:06.30	219.13	23.02	-30.7	-34.3	12.6	5.45e-04	0	44	0	1048576000	21	5451
2026-01-23 00:55:07.30	219.07	22.88	-30.7	-34.4	12.5	9.68e-05	0	44	0	1050673152	21	5481
2026-01-23 00:55:08.30	219.01	22.73	-30.6	-34.0	12.8	2.33e-03	0	44	0	1052770304	21	5352
2026-01-23 00:55:09.31	218.94	22.59	-30.5	-33.8	12.9	4.47e-04	0	44	0	1054867456	21	5278
2026-01-23 00:55:10.31	218.88	22.45	-30.5	-34.1	13.0	2.23e-03	0	44	0	1055916032	20	5501
2026-01-23 00:55:11.32	218.82	22.30	-30.4	-33.6	13.0	2.46e-03	0	44	0	1058013184	21	5192
2026-01-23 00:55:12.32	218.76	22.16	-30.2	-33.0	13.4	3.33e-04	0	44	0	1060110336	21	4960
2026-01-23 00:55:13.32	218.71	22.03	-30.2	-33.4	13.5	2.33e-03	0	44	0	1062207488	20	5219
2026-01-23 00:55:14.33	218.65	21.89	-30.2	-33.3	13.5	1.44e-05	0	44	0	1064304640	20	5180
2026-01-23 00:55:15.33	218.59	21.75	-30.1	-33.1	13.6	2.75e-04	0	44	0	1065353216	20	5114
2026-01-23 00:55:16.34	218.53	21.61	-30.1	-33.2	13.6	1.75e-03	0	44	0	1067450368	20	5145
2026-01-23 00:55:17.34	218.47	21.47	-30.1	-33.3	13.5	1.30e-03	0	44	0	1069547520	20	5166
2026-01-23 00:55:18.35	218.42	21.34	-30.0	-32.9	13.7	2.17e-04	0	44	0	1071644672	20	5040
2026-01-23 00:55:19.35	218.36	21.20	-30.0	-32.9	13.8	1.04e-03	0	44	0	1072693248	20	5023
2026-01-23 00:55:20.35	218.31	21.07	-30.1	-33.0	13.7	8.21e-04	0	44	0	1074790400	20	5078
2026-01-23 00:55:21.35	218.25	20.93	-30.1	-33.1	13.6	3.00e-06	0	44	0	1076887552	20	5108
2026-01-23 00:55:22.35	218.20	20.80	-30.1	-33.3	13.5	3.68e-04	0	44	0	1078984704	20	5174
2026-01-23 00:55:23.36	218.14	20.67	-30.3	-33.7	13.2	2.23e-04	0	44	0	1081081856	20	5343
2026-01-23 00:55:24.36	218.09	20.54	-30.3	-33.7	13.2	1.57e-04	0	44	0	1083179008	20	5348
2026-01-23 00:55:25.36	218.04	20.40	-30.3	-33.9	13.1	5.64e-05	0	44	0	1084227584	20	5408
2026-01-23 00:55:26.37	217.99	20.27	-30.4	-34.1	12.9	5.18e-05	0	44	0	1086324736	20	5509
2026-01-23 00:55:27.37	217.93	20.14	-30.4	-34.2	12.9	5.64e-05	0	44	0	1088421888	20	5524
2026-01-23 00:55:28.37	217.88	20.01	-30.5	-33.9	12.8	7.17e-05	0	44	0	1090519040	21	5299
2026-01-23 00:55:29.38	217.83	19.88	-30.5	-33.9	12.8	7.47e-05	0	44	0	1091567616	21	5292
2026-01-23 00:55:30.38	217.78	19.76	-30.6	-34.0	12.7	7.01e-05	0	44	0	1093664768	21	5354
2026-01-23 00:55:31.38	217.73	19.63	-30.6	-34.3	12.5	1.47e-04	0	44	0	1095761920	21	5466
2026-01-23 00:55:32.39	217.68	19.50	-30.5	-33.8	12.8	7.40e-05	0	44	0	1097859072	21	5288
2026-01-23 00:55:33.39	217.63	19.38	-30.5	-33.7	12.8	5.95e-05	0	44	0	1099956224	21	5253
2026-01-23 00:55:34.40	217.58	19.25	-30.4	-33.6	12.9	3.12e-04	0	44	0	1101004800	21	5220
2026-01-23 00:55:35.40	217.54	19.12	-30.4	-33.8	12.8	7.47e-05	0	44	0	1103101952	21	5272
2026-01-23 00:55:36.41	217.49	19.00	-30.3	-33.4	12.9	5.56e-05	0	44	0	1105199104	21	5149
2026-01-23 00:55:37.41	217.44	18.88	-30.4	-33.7	12.8	3.87e-04	0	44	0	1107296256	21	5244
2026-01-23 00:55:38.41	217.39	18.75	-30.4	-34.1	12.8	6.25e-05	0	44	0	1109393408	20	5553
2026-01-23 00:55:39.42	217.35	18.63	-30.3	-33.9	12.9	5.56e-05	0	44	0	1110441984	20	5470
2026-01-23 00:55:40.41	217.30	18.51	-30.4	-34.1	12.9	4.77e-04	0	44	0	1112539136	20	5516
2026-01-23 00:55:41.41	217.25	18.39	-30.4	-34.1	12.9	4.34e-05	0	44	0	1114636288	20	5521
2026-01-23 00:55:42.42	217.21	18.27	-30.3	-34.0	13.0	3.58e-05	0	44	0	1116733440	20	5453
2026-01-23 00:55:43.42	217.16	18.15	-30.4	-34.1	12.8	6.56e-05	0	44	0	1118830592	20	5519
2026-01-23 00:55:44.42	217.12	18.03	-30.4	-34.1	12.8	1.34e-03	0	44	0	1119879168	20	5535
2026-01-23 00:55:45.43	217.07	17.91	-30.4	-34.1	12.8	4.95e-05	0	44	0	1121976320	20	5503
2026-01-23 00:55:46.43	217.03	17.79	-30.4	-34.2	12.8	7.24e-05	0	44	0	1124073472	20	5538
2026-01-23 00:55:47.43	216.99	17.67	-30.4	-34.2	12.8	1.32e-03	0	44	0	1126170624	20	5556
2026-01-23 00:55:48.43	216.94	17.55	-30.4	-34.2	12.8	6.56e-05	0	44	0	1128267776	20	5535
2026-01-23 00:55:49.43	216.90	17.44	-30.4	-34.2	12.8	6.25e-05	0	44	0	1129316352	20	5537
2026-01-23 00:55:50.44	216.86	17.32	-30.4	-34.2	12.7	7.24e-05	0	44	0	1131413504	20	5562
2026-01-23 00:55:51.44	216.82	17.21	-30.4	-34.0	12.9	6.25e-05	0	44	0	1133510656	20	5471
2026-01-23 00:55:52.44	216.77	17.09	-30.5	-34.3	12.6	7.62e-05	0	44	0	1135607808	20	5617
2026-01-23 00:55:53.45	216.73	16.97	-30.4	-34.1	12.8	6.71e-05	0	44	0	1136656384	20	5520
2026-01-23 00:55:54.45	216.69	16.86	-30.4	-34.2	12.7	5.87e-05	0	44	0	1138753536	20	5569
2026-01-23 00:55:55.45	216.65	16.75	-30.5	-34.0	12.5	1.17e-04	0	44	0	1140850688	21	5360
2026-01-23 00:55:56.46	216.61	16.63	-30.4	-33.7	12.7	7.85e-05	0	44	0	1142947840	21	5231
2026-01-23 00:55:57.46	216.57	16.52	-30.4	-33.7	12.7	8.54e-05	0	44	0	1145044992	21	5241
2026-01-23 00:55:58.47	216.53	16.41	-30.4	-34.2	12.7	8.54e-05	0	44	0	1146093568	20	5552
2026-01-23 00:55:59.47	216.49	16.30	-30.4	-34.1	12.8	8.01e-05	0	44	0	1148190720	20	5497
2026-01-23 00:56:00.47	216.45	16.18	-30.4	-34.2	12.7	6.94e-05	0	44	0	1150287872	20	5556
2026-01-23 00:56:01.47	216.41	16.07	-30.4	-34.2	12.7	8.54e-05	0	44	0	1152385024	20	5552
2026-01-23 00:56:02.47	216.37	15.96	-30.4	-34.1	12.7	6.10e-05	0	44	0	1154482176	20	5520
2026-01-23 00:56:03.48	216.33	15.85	-30.4	-34.1	12.7	6.17e-05	0	44	0	1155530752	20	5512
2026-01-23 00:56:04.48	216.30	15.74	-30.4	-34.0	12.8	6.79e-05	0	44	0	1157627904	20	5485
2026-01-23 00:56:05.48	216.26	15.64	-30.4	-34.0	12.8	6.56e-05	0	44	0	1159725056	20	5490
2026-01-23 00:56:06.48	216.22	15.53	-30.4	-34.1	12.7	6.02e-05	0	44	0	1161822208	20	5535
2026-01-23 00:56:07.48	216.18	15.42	-30.4	-33.8	12.6	1.23e-04	0	44	0	1163919360	21	5272
2026-01-23 00:56:08.48	216.15	15.31	-30.4	-34.0	12.8	8.46e-05	0	44	0	1164967936	20	5481
2026-01-23 00:56:09.49	216.11	15.21	-30.3	-34.0	12.8	5.26e-05	0	44	0	1167065088	20	5485
2026-01-23 00:56:10.49	216.07	15.10	-30.4	-34.0	12.7	6.02e-05	0	44	0	1169162240	20	5489
2026-01-23 00:56:11.49	216.04	14.99	-30.4	-34.1	12.7	6.40e-05	0	44	0	1171259392	20	5513
2026-01-23 00:56:12.50	216.00	14.89	-30.5	-34.0	12.4	1.10e-04	0	44	0	1173356544	21	5381
2026-01-23 00:56:13.50	215.97	14.78	-30.7	-34.5	12.0	1.98e-04	0	44	0	1174405120	21	5592
2026-01-23 00:56:14.50	215.93	14.68	-30.7	-34.6	12.0	4.25e-04	0	44	0	1176502272	21	5637
2026-01-23 00:56:15.50	215.90	14.57	-30.6	-34.2	12.2	2.84e-04	0	44	0	1178599424	21	5464
2026-01-23 00:56:16.50	215.86	14.47	-30.5	-34.4	11.9	1.49e-04	0	44	0	1180696576	20	5653
2026-01-23 00:56:17.50	215.83	14.37	-30.5	-34.1	12.3	1.11e-04	0	44	0	1181745152	21	5412
2026-01-23 00:56:18.50	215.79	14.26	-30.6	-34.3	12.2	2.17e-04	0	44	0	1183842304	21	5497
2026-01-23 00:56:19.50	215.76	14.16	-30.6	-34.4	12.1	3.15e-04	0	44	0	1185939456	21	5552
2026-01-23 00:56:20.51	215.73	14.06	-30.8	-34.8	11.8	4.48e-04	0	44	0	1188036608	21	5728
2026-01-23 00:56:21.51	215.69	13.96	-30.7	-34.7	11.8	4.20e-04	0	44	0	1190133760	21	5679
2026-01-23 00:56:22.51	215.66	13.86	-30.8	-34.9	11.7	2.18e-03	0	44	0	1192230912	21	5769
2026-01-23 00:56:23.52	215.63	13.75	-30.7	-34.7	11.8	5.52e-04	0	44	0	1193279488	21	5717
2026-01-23 00:56:24.51	215.59	13.66	-30.8	-34.9	11.7	4.42e-04	0	44	0	1195376640	21	5782
2026-01-23 00:56:25.52	215.56	13.55	-30.8	-35.0	11.6	7.54e-04	0	44	0	1197473792	21	5824
2026-01-23 00:56:26.52	215.53	13.46	-30.8	-34.9	11.6	6.06e-04	0	44	0	1199570944	21	5800
2026-01-23 00:56:27.52	215.50	13.36	-30.8	-35.1	11.5	1.00e-03	0	44	0	1200619520	21	5867
2026-01-23 00:56:28.52	215.47	13.26	-30.8	-35.1	11.5	6.52e-04	0	44	0	1202716672	21	5869
2026-01-23 00:56:29.52	215.43	13.16	-30.8	-35.1	11.6	8.98e-04	0	44	0	1204813824	21	5884
2026-01-23 00:56:30.52	215.40	13.06	-30.8	-34.9	11.7	7.07e-04	0	44	0	1206910976	21	5792
2026-01-23 00:56:31.53	215.37	12.96	-30.7	-34.7	11.8	5.39e-04	0	44	0	1209008128	21	5692
2026-01-23 00:56:32.53	215.34	12.87	-30.7	-34.7	11.7	4.87e-04	0	44	0	1210056704	21	5703
2026-01-23 00:56:33.54	215.31	12.77	-30.7	-34.7	11.8	5.48e-04	0	44	0	1212153856	21	5689
2026-01-23 00:56:34.53	215.28	12.67	-30.7	-34.7	11.7	4.71e-04	0	44	0	1214251008	21	5689
2026-01-23 00:56:35.54	215.25	12.58	-30.7	-34.8	11.7	6.02e-04	0	44	0	1216348160	21	5737
2026-01-23 00:56:36.54	215.22	12.48	-30.7	-34.6	11.8	1.18e-03	0	44	0	1218445312	21	5654
2026-01-23 00:56:37.54	215.19	12.38	-30.8	-34.9	11.6	5.42e-04	0	44	0	1219493888	21	5797
2026-01-23 00:56:38.55	215.16	12.29	-30.7	-34.8	11.6	7.91e-04	0	44	0	1221591040	21	5761
2026-01-23 00:56:39.55	215.13	12.19	-30.7	-34.7	11.7	5.83e-04	0	44	0	1223688192	21	5706
2026-01-23 00:56:40.55	215.10	12.10	-30.8	-35.1	11.4	1.14e-03	0	44	0	1225785344	21	5888
2026-01-23 00:56:41.55	215.07	12.01	-30.8	-35.1	11.3	1.33e-03	0	44	0	1226833920	21	5911
2026-01-23 00:56:42.55	215.04	11.91	-30.7	-34.8	11.6	7.92e-04	0	44	0	1228931072	21	5756
2026-01-23 00:56:43.56	215.02	11.82	-30.7	-34.8	11.6	9.62e-04	0	44	0	1231028224	21	5767
2026-01-23 00:56:44.57	214.99	11.73	-30.7	-34.7	11.7	6.16e-04	0	44	0	1233125376	21	5691
2026-01-23 00:56:45.58	214.96	11.63	-30.7	-34.8	11.6	6.49e-04	0	44	0	1235222528	21	5751
2026-01-23 00:56:46.58	214.93	11.54	-30.7	-34.9	11.5	9.42e-04	0	44	0	1237319680	21	5802
2026-01-23 00:56:47.58	214.90	11.45	-30.8	-35.1	11.3	1.00e-03	0	44	0	1238368256	21	5919
2026-01-23 00:56:48.59	214.87	11.36	-30.8	-35.1	11.3	1.20e-03	0	44	0	1240465408	21	5905
2026-01-23 00:56:49.59	214.85	11.26	-30.8	-35.2	11.3	1.02e-03	0	44	0	1242562560	21	5949
2026-01-23 00:56:50.59	214.82	11.17	-30.8	-35.2	11.3	1.20e-03	0	44	0	1244659712	21	5952
2026-01-23 00:56:51.59	214.79	11.08	-30.8	-35.2	11.3	1.06e-03	0	44	0	1245708288	21	5944
2026-01-23 00:56:52.60	214.77	10.99	-30.9	-35.4	11.1	1.25e-03	0	44	0	1247805440	21	6044
2026-01-23 00:56:53.61	214.74	10.90	-30.9	-35.3	11.1	1.62e-03	0	44	0	1249902592	21	6012
2026-01-23 00:56:54.61	214.71	10.81	-30.9	-35.4	11.1	1.64e-03	0	44	0	1251999744	21	6072
2026-01-23 00:56:55.61	214.69	10.72	-30.9	-35.5	11.0	2.13e-03	0	44	0	1254096896	21	6127
2026-01-23 00:56:56.62	214.66	10.63	-30.9	-35.6	10.9	1.94e-03	0	44	0	1255145472	21	6153
2026-01-23 00:56:57.62	214.63	10.55	-31.0	-35.3	10.8	2.31e-03	0	44	0	1257242624	22	5902
2026-01-23 00:56:58.63	214.61	10.46	-31.1	-35.5	10.6	2.96e-03	0	44	0	1259339776	22	6000
2026-01-23 00:56:59.63	214.58	10.37	-31.1	-35.8	10.4	4.13e-03	0	44	0	1261436928	22	6128
2026-01-23 00:57:00.63	214.56	10.28	-31.2	-35.8	10.4	4.57e-03	0	44	0	1263534080	22	6164
2026-01-23 00:57:01.63	214.53	10.19	-31.1	-35.7	10.4	5.44e-03	0	44	0	1264582656	22	6107
2026-01-23 00:57:02.64	214.51	10.11	-31.1	-35.8	10.3	4.80e-03	0	44	0	1266679808	22	6168
2026-01-23 00:57:03.64	214.48	10.02	-31.2	-35.9	10.3	5.36e-03	0	44	0	1268776960	22	6199
2026-01-23 00:57:04.64	214.46	9.93	-31.1	-35.7	10.5	4.65e-03	0	44	0	1270874112	22	6094
2026-01-23 00:57:05.64	214.43	9.85	-31.1	-35.7	10.4	4.03e-03	0	44	0	1272971264	22	6131
2026-01-23 00:57:06.65	214.41	9.76	-31.1	-35.7	10.4	4.49e-03	0	44	0	1274019840	22	6084
2026-01-23 00:57:07.65	214.38	9.67	-31.1	-35.8	10.3	4.98e-03	0	44	0	1276116992	22	6185
2026-01-23 00:57:08.64	214.36	9.59	-31.1	-35.9	10.3	5.99e-03	0	44	0	1278214144	22	6200
2026-01-23 00:57:09.65	214.34	9.50	-31.1	-35.6	10.5	5.10e-03	0	44	0	1280311296	22	6076
2026-01-23 00:57:10.65	214.31	9.42	-31.1	-35.7	10.4	5.11e-03	0	44	0	1282408448	22	6118
2026-01-23 00:57:11.65	214.29	9.34	-31.1	-35.6	10.4	5.29e-03	0	44	0	1283457024	22	6067
2026-01-23 00:57:12.65	214.27	9.25	-31.1	-35.7	10.4	5.02e-03	0	44	0	1285554176	22	6140
2026-01-23 00:57:13.65	214.24	9.17	-31.1	-35.7	10.3	6.01e-03	0	44	0	1287651328	22	6133
