passes_logs/2026/01/23/R2M6_AANII_01/R2M6_AANII_01__20260123_135054_AQUA_rec.log

#Pass ID: 20260123_135054_AQUA
#Satellite: AQUA
#Configuration: AQUA
#almurnet v.1.7.20240730
#Start time: 2026-01-23 13:50:54

#Version: 2.2.20231116
#Station: R2M6_AANII_01
#Location: 30.233357 lon 59.946436 lat
#TLE: 1 27424U 02022A   26022.96978264  .00001879  00000+0  38593-3 0  9993
#TLE: 2 27424  98.4100 349.5315 0001958  69.4371  21.4765 14.61848807262053

#Time	Az	El	Level	Level2	SNR	BER	BlckErr	Temp	State	Recorded	gain1	gain2
2026-01-23 13:50:54.83	224.47	7.02	-31.0	-35.9	5.2	7.07e-01	0	41	0	0	24	6338
2026-01-23 13:50:55.82	224.60	7.08	-32.0	-39.9	5.0	7.11e-01	0	41	104	0	24	8975
2026-01-23 13:50:56.84	224.73	7.14	-31.9	-38.7	12.9	6.07e-01	0	41	0	0	24	7826
2026-01-23 13:50:57.84	224.86	7.20	-32.0	-39.2	12.6	6.11e-01	0	41	102	524288	24	8189
2026-01-23 13:50:58.85	224.99	7.26	-32.0	-38.9	12.8	6.10e-01	0	41	102	524288	24	7985
2026-01-23 13:50:59.85	225.12	7.32	-31.8	-38.0	13.6	6.07e-01	0	41	102	524288	24	7378
2026-01-23 13:51:00.85	225.25	7.38	-31.6	-37.2	14.3	6.04e-01	0	41	102	524288	24	6831
2026-01-23 13:51:01.86	225.39	7.44	-31.4	-36.2	15.0	6.05e-01	0	41	102	524288	24	6305
2026-01-23 13:51:02.87	225.52	7.50	-31.2	-35.7	15.4	6.06e-01	0	41	102	524288	24	6039
2026-01-23 13:51:03.87	225.65	7.56	-31.1	-35.2	15.7	6.06e-01	0	41	102	524288	24	5780
2026-01-23 13:51:04.88	225.79	7.62	-31.0	-35.0	15.9	6.07e-01	0	42	102	524288	24	5704
2026-01-23 13:51:05.88	225.92	7.68	-30.9	-34.7	16.2	6.05e-01	0	42	102	524288	24	5533
2026-01-23 13:51:06.89	226.06	7.74	-31.0	-34.7	16.2	6.06e-01	0	41	102	524288	24	5545
2026-01-23 13:51:07.89	226.19	7.80	-31.1	-35.0	16.0	6.06e-01	0	41	102	524288	24	5681
2026-01-23 13:51:08.90	226.33	7.86	-30.8	-34.7	16.6	6.04e-01	0	41	102	524288	23	5623
2026-01-23 13:51:09.90	226.47	7.92	-30.5	-33.7	17.2	6.06e-01	0	41	102	524288	23	5195
2026-01-23 13:51:10.91	226.60	7.98	-30.3	-33.7	17.5	6.04e-01	0	42	102	524288	22	5313
2026-01-23 13:51:11.91	226.74	8.04	-30.4	-33.9	17.4	6.07e-01	0	41	102	524288	22	5411
2026-01-23 13:51:12.92	226.88	8.10	-30.2	-33.4	17.8	6.05e-01	0	42	102	524288	22	5188
2026-01-23 13:51:13.93	227.02	8.16	-30.3	-33.5	17.7	6.05e-01	0	42	102	524288	22	5245
2026-01-23 13:51:14.93	227.16	8.22	-30.5	-34.1	17.3	6.08e-01	0	42	102	524288	22	5492
2026-01-23 13:51:15.94	227.30	8.28	-30.3	-33.6	17.7	6.07e-01	0	42	102	524288	22	5275
2026-01-23 13:51:16.95	227.44	8.35	-30.4	-33.8	17.5	6.01e-01	0	42	102	524288	22	5367
2026-01-23 13:51:17.95	227.58	8.41	-30.3	-33.5	17.7	6.06e-01	0	42	102	524288	22	5235
2026-01-23 13:51:18.96	227.73	8.47	-30.3	-33.6	17.6	6.06e-01	0	42	102	524288	22	5288
2026-01-23 13:51:19.96	227.87	8.53	-30.3	-33.7	17.6	6.06e-01	0	42	102	524288	22	5329
2026-01-23 13:51:20.96	228.01	8.59	-30.2	-33.4	17.8	6.06e-01	0	42	102	524288	22	5195
2026-01-23 13:51:21.96	228.16	8.65	-30.4	-33.9	17.5	6.06e-01	0	42	102	524288	22	5394
2026-01-23 13:51:22.97	228.30	8.71	-30.3	-33.7	17.7	6.04e-01	0	42	102	524288	22	5299
2026-01-23 13:51:23.97	228.45	8.77	-30.2	-33.2	18.0	6.07e-01	0	42	102	524288	22	5108
2026-01-23 13:51:24.98	228.59	8.83	-30.1	-33.1	18.1	6.06e-01	0	42	102	524288	22	5061
2026-01-23 13:51:25.98	228.74	8.89	-30.2	-33.4	17.9	6.08e-01	0	42	102	524288	22	5191
2026-01-23 13:51:26.99	228.89	8.95	-30.1	-33.1	18.1	6.07e-01	0	42	102	524288	22	5073
2026-01-23 13:51:27.99	229.04	9.01	-30.2	-33.3	17.9	6.05e-01	0	42	102	524288	22	5140
2026-01-23 13:51:29.00	229.19	9.07	-30.1	-33.1	18.1	6.05e-01	0	42	102	524288	22	5073
2026-01-23 13:51:30.00	229.33	9.13	-30.2	-33.3	17.9	6.05e-01	0	42	102	524288	22	5157
2026-01-23 13:51:31.01	229.49	9.19	-30.1	-33.0	18.1	6.07e-01	0	42	102	524288	22	5037
2026-01-23 13:51:32.02	229.64	9.25	-30.2	-33.2	18.0	6.06e-01	0	42	102	524288	22	5093
2026-01-23 13:51:33.02	229.79	9.31	-30.0	-32.7	18.3	6.04e-01	0	42	102	524288	22	4919
2026-01-23 13:51:34.03	229.94	9.37	-30.0	-32.8	18.3	6.07e-01	0	42	102	524288	22	4944
2026-01-23 13:51:35.03	230.09	9.43	-30.1	-33.0	18.2	6.06e-01	0	42	102	524288	22	5019
2026-01-23 13:51:36.04	230.25	9.49	-30.2	-33.3	18.0	6.08e-01	0	42	102	524288	22	5124
2026-01-23 13:51:37.04	230.40	9.55	-30.2	-33.2	18.1	6.04e-01	0	42	102	524288	22	5086
2026-01-23 13:51:38.05	230.56	9.61	-30.2	-33.2	18.1	6.06e-01	0	42	102	524288	22	5086
2026-01-23 13:51:39.05	230.71	9.67	-30.2	-33.1	18.1	6.06e-01	0	42	102	524288	22	5069
2026-01-23 13:51:40.05	230.87	9.73	-30.3	-33.5	17.8	6.06e-01	0	42	102	524288	22	5214
2026-01-23 13:51:41.05	231.02	9.79	-30.1	-33.0	18.2	6.05e-01	0	42	102	524288	22	5005
2026-01-23 13:51:42.06	231.18	9.86	-30.1	-33.1	18.1	6.07e-01	0	42	102	524288	22	5046
2026-01-23 13:51:43.06	231.34	9.92	-30.4	-33.7	17.7	6.05e-01	0	42	102	524288	22	5296
2026-01-23 13:51:44.07	231.50	9.98	-30.3	-33.6	17.8	6.05e-01	0	42	102	524288	22	5254
2026-01-23 13:51:45.07	231.66	10.04	-30.5	-34.0	17.6	6.07e-01	0	42	102	524288	22	5412
2026-01-23 13:51:46.08	231.82	10.10	-30.3	-33.4	17.9	6.05e-01	0	42	102	524288	22	5160
2026-01-23 13:51:47.08	231.98	10.16	-30.1	-33.0	18.2	6.05e-01	0	42	102	524288	22	5003
2026-01-23 13:51:48.09	232.14	10.22	-30.0	-32.7	18.5	6.06e-01	0	42	102	524288	22	4889
2026-01-23 13:51:49.10	232.30	10.28	-30.0	-32.7	18.4	6.06e-01	0	42	102	524288	22	4899
2026-01-23 13:51:50.10	232.47	10.34	-30.1	-32.8	18.3	6.08e-01	0	42	102	524288	22	4955
2026-01-23 13:51:51.10	232.63	10.40	-30.0	-32.7	18.5	6.09e-01	0	42	102	524288	22	4878
2026-01-23 13:51:52.11	232.79	10.46	-30.0	-32.5	18.6	6.04e-01	0	42	102	524288	22	4825
2026-01-23 13:51:53.11	232.96	10.52	-30.0	-32.6	18.5	6.07e-01	0	42	102	524288	22	4853
2026-01-23 13:51:54.11	233.12	10.58	-29.9	-32.4	18.6	6.05e-01	0	42	102	524288	22	4785
2026-01-23 13:51:55.12	233.29	10.64	-29.8	-32.5	18.8	6.05e-01	0	43	102	524288	21	4948
2026-01-23 13:51:56.13	233.46	10.70	-29.9	-32.8	18.7	6.06e-01	0	42	102	524288	21	5029
2026-01-23 13:51:57.13	233.63	10.76	-29.9	-32.9	18.6	6.06e-01	0	42	102	524288	21	5083
2026-01-23 13:51:58.13	233.79	10.82	-29.9	-32.9	18.6	6.07e-01	0	42	102	524288	21	5070
2026-01-23 13:51:59.13	233.96	10.88	-29.9	-33.0	18.6	6.05e-01	0	43	102	524288	21	5111
2026-01-23 13:52:00.13	234.13	10.94	-30.0	-33.2	18.5	6.07e-01	0	43	102	524288	21	5171
2026-01-23 13:52:01.13	234.30	11.00	-30.1	-33.4	18.3	6.04e-01	0	43	102	524288	21	5277
2026-01-23 13:52:02.13	234.47	11.06	-30.0	-33.1	18.5	6.04e-01	0	43	102	524288	21	5135
2026-01-23 13:52:03.14	234.65	11.12	-29.9	-33.0	18.7	6.07e-01	0	43	102	524288	21	5090
2026-01-23 13:52:04.15	234.82	11.18	-29.9	-32.9	18.7	6.05e-01	0	43	102	524288	21	5085
2026-01-23 13:52:05.15	234.99	11.24	-29.9	-32.9	18.7	6.07e-01	0	42	102	524288	21	5069
2026-01-23 13:52:06.15	235.17	11.30	-29.9	-32.8	18.7	6.02e-01	0	42	102	524288	21	5050
2026-01-23 13:52:07.16	235.34	11.35	-30.0	-33.1	18.6	6.07e-01	0	43	102	524288	21	5136
2026-01-23 13:52:08.16	235.52	11.41	-29.8	-32.6	18.9	6.06e-01	0	43	102	524288	21	4963
2026-01-23 13:52:09.16	235.69	11.47	-29.8	-32.6	18.9	6.07e-01	0	43	102	524288	21	4953
2026-01-23 13:52:10.17	235.87	11.53	-29.9	-32.7	18.8	6.05e-01	0	43	102	524288	21	5010
2026-01-23 13:52:11.17	236.05	11.59	-29.9	-32.9	18.7	6.06e-01	0	43	102	524288	21	5089
2026-01-23 13:52:12.17	236.23	11.65	-29.9	-32.9	18.7	6.05e-01	0	43	102	524288	21	5091
2026-01-23 13:52:13.17	236.41	11.71	-29.8	-32.5	18.9	6.05e-01	0	43	102	524288	21	4926
2026-01-23 13:52:14.17	236.59	11.77	-29.7	-32.3	19.1	6.05e-01	0	43	102	524288	21	4839
2026-01-23 13:52:15.18	236.77	11.83	-29.8	-32.4	19.0	6.06e-01	0	43	102	524288	21	4897
2026-01-23 13:52:16.18	236.95	11.88	-29.8	-32.5	19.0	6.08e-01	0	43	102	524288	21	4929
2026-01-23 13:52:17.18	237.13	11.94	-29.9	-32.7	18.9	6.05e-01	0	43	102	524288	21	4986
2026-01-23 13:52:18.19	237.32	12.00	-29.8	-32.6	18.9	6.07e-01	0	43	102	524288	21	4966
2026-01-23 13:52:19.19	237.50	12.06	-29.9	-32.8	18.8	6.04e-01	0	43	102	524288	21	5014
2026-01-23 13:52:20.20	237.68	12.12	-30.0	-33.0	18.7	6.05e-01	0	43	102	524288	21	5095
2026-01-23 13:52:21.21	237.87	12.18	-29.8	-32.5	19.0	6.04e-01	0	43	102	524288	21	4912
2026-01-23 13:52:22.21	238.06	12.24	-29.8	-32.4	19.0	6.06e-01	0	42	102	524288	21	4885
2026-01-23 13:52:23.22	238.25	12.29	-29.9	-32.7	18.9	6.06e-01	0	43	102	524288	21	4973
2026-01-23 13:52:24.22	238.43	12.35	-29.9	-32.7	18.9	6.06e-01	0	43	102	524288	21	4980
2026-01-23 13:52:25.22	238.62	12.41	-29.9	-32.7	18.9	6.06e-01	0	43	102	524288	21	4978
2026-01-23 13:52:26.23	238.81	12.47	-29.9	-32.6	18.9	6.08e-01	0	43	102	524288	21	4967
2026-01-23 13:52:27.23	239.00	12.52	-29.9	-32.7	18.9	6.06e-01	0	43	102	524288	21	4998
2026-01-23 13:52:28.23	239.19	12.58	-30.0	-32.9	18.8	6.05e-01	0	43	102	524288	21	5063
2026-01-23 13:52:29.23	239.38	12.64	-30.1	-33.3	18.5	6.06e-01	0	43	102	524288	21	5199
2026-01-23 13:52:30.24	239.58	12.70	-30.1	-33.2	18.6	6.07e-01	0	43	102	524288	21	5177
2026-01-23 13:52:31.24	239.77	12.75	-30.2	-33.5	18.4	6.05e-01	0	43	102	524288	21	5265
2026-01-23 13:52:32.25	239.96	12.81	-29.9	-32.8	18.8	6.06e-01	0	43	102	524288	21	5019
2026-01-23 13:52:33.25	240.16	12.87	-29.7	-32.3	19.2	6.05e-01	0	43	102	524288	21	4843
2026-01-23 13:52:34.26	240.36	12.92	-29.7	-32.3	19.2	6.05e-01	0	43	102	524288	21	4826
2026-01-23 13:52:35.26	240.55	12.98	-29.7	-32.3	19.2	6.06e-01	0	43	102	524288	21	4838
2026-01-23 13:52:36.26	240.75	13.04	-29.7	-32.2	19.2	6.06e-01	0	43	102	524288	21	4809
2026-01-23 13:52:37.27	240.95	13.09	-29.7	-32.3	19.2	6.06e-01	0	43	102	524288	21	4840
2026-01-23 13:52:38.27	241.15	13.15	-29.8	-32.4	19.1	6.04e-01	0	43	102	524288	21	4883
2026-01-23 13:52:39.28	241.35	13.20	-29.8	-32.5	19.0	6.07e-01	0	43	102	524288	21	4920
2026-01-23 13:52:40.28	241.55	13.26	-29.7	-32.1	19.3	6.07e-01	0	43	102	524288	21	4763
2026-01-23 13:52:41.28	241.75	13.31	-29.6	-32.0	19.4	6.06e-01	0	43	102	524288	21	4722
2026-01-23 13:52:42.29	241.95	13.37	-29.6	-31.9	19.5	6.06e-01	0	43	102	524288	21	4686
2026-01-23 13:52:43.29	242.15	13.43	-29.6	-31.9	19.5	6.04e-01	0	43	102	524288	21	4700
2026-01-23 13:52:44.30	242.36	13.48	-29.7	-32.1	19.4	6.07e-01	0	43	102	524288	21	4766
2026-01-23 13:52:45.30	242.56	13.54	-29.6	-32.0	19.4	6.05e-01	0	43	102	524288	21	4726
2026-01-23 13:52:46.30	242.76	13.59	-29.7	-32.2	19.3	6.05e-01	0	43	102	524288	21	4783
2026-01-23 13:52:47.30	242.97	13.64	-29.7	-32.3	19.2	6.06e-01	0	43	102	524288	21	4823
2026-01-23 13:52:48.30	243.18	13.70	-29.6	-31.9	19.4	6.03e-01	0	43	102	524288	21	4712
2026-01-23 13:52:49.31	243.38	13.75	-29.6	-32.0	19.5	6.05e-01	0	43	102	524288	21	4713
2026-01-23 13:52:50.31	243.59	13.81	-29.6	-31.9	19.5	6.03e-01	0	43	102	524288	21	4709
2026-01-23 13:52:51.32	243.80	13.86	-29.6	-31.9	19.5	6.05e-01	0	43	102	524288	21	4688
2026-01-23 13:52:52.32	244.01	13.91	-29.6	-31.9	19.4	6.05e-01	0	43	102	524288	21	4706
2026-01-23 13:52:53.33	244.22	13.97	-29.6	-31.9	19.5	6.06e-01	0	43	102	524288	21	4691
2026-01-23 13:52:54.34	244.44	14.02	-29.7	-32.0	19.4	6.05e-01	0	43	102	524288	21	4742
2026-01-23 13:52:55.34	244.65	14.07	-29.6	-32.0	19.4	6.05e-01	0	43	102	524288	21	4733
2026-01-23 13:52:56.34	244.86	14.13	-29.6	-31.8	19.5	6.04e-01	0	43	102	524288	21	4672
2026-01-23 13:52:57.33	245.07	14.18	-29.5	-31.7	19.6	6.07e-01	0	43	102	524288	21	4625
2026-01-23 13:52:58.34	245.29	14.23	-29.6	-31.9	19.5	6.06e-01	0	43	102	524288	21	4677
2026-01-23 13:52:59.34	245.50	14.28	-29.6	-32.0	19.5	6.07e-01	0	43	102	524288	21	4717
2026-01-23 13:53:00.34	245.72	14.33	-29.6	-31.8	19.6	6.04e-01	0	43	102	524288	21	4661
2026-01-23 13:53:01.33	245.93	14.38	-29.6	-31.9	19.5	6.04e-01	0	43	102	524288	21	4685
2026-01-23 13:53:02.34	246.15	14.43	-29.7	-32.1	19.4	6.07e-01	0	43	102	524288	21	4769
2026-01-23 13:53:03.34	246.37	14.49	-29.7	-32.2	19.3	6.05e-01	0	43	102	524288	21	4796
2026-01-23 13:53:04.35	246.59	14.54	-29.7	-32.1	19.4	6.07e-01	0	43	102	524288	21	4761
2026-01-23 13:53:05.35	246.81	14.59	-29.8	-32.4	19.2	6.06e-01	0	43	102	524288	21	4851
2026-01-23 13:53:06.36	247.03	14.64	-29.8	-32.5	19.2	6.07e-01	0	43	102	524288	21	4889
2026-01-23 13:53:07.36	247.25	14.69	-29.8	-32.5	19.2	6.09e-01	0	43	102	524288	21	4876
2026-01-23 13:53:08.36	247.47	14.74	-29.9	-32.8	19.0	6.06e-01	0	43	102	524288	21	4993
2026-01-23 13:53:09.37	247.70	14.79	-30.0	-33.0	18.9	6.04e-01	0	43	102	524288	21	5062
2026-01-23 13:53:10.38	247.92	14.84	-29.9	-32.6	19.1	6.04e-01	0	43	102	524288	21	4937
2026-01-23 13:53:11.39	248.15	14.88	-29.8	-32.5	19.2	6.08e-01	0	43	102	524288	21	4879
2026-01-23 13:53:12.40	248.37	14.93	-29.9	-32.5	19.2	6.07e-01	0	43	102	524288	21	4893
2026-01-23 13:53:13.40	248.60	14.98	-29.9	-32.6	19.2	6.05e-01	0	43	102	524288	21	4907
2026-01-23 13:53:14.41	248.83	15.03	-29.9	-32.7	19.0	6.06e-01	0	43	102	524288	21	4969
2026-01-23 13:53:15.41	249.05	15.08	-29.8	-32.3	19.3	6.06e-01	0	43	102	524288	21	4827
2026-01-23 13:53:16.42	249.28	15.12	-29.7	-32.0	19.5	6.05e-01	0	43	102	524288	21	4725
2026-01-23 13:53:17.43	249.52	15.17	-29.6	-31.9	19.6	6.05e-01	0	43	102	524288	21	4675
2026-01-23 13:53:18.43	249.74	15.22	-29.6	-31.8	19.6	6.07e-01	0	43	102	524288	21	4653
2026-01-23 13:53:19.43	249.97	15.26	-29.6	-31.9	19.6	6.05e-01	0	43	102	524288	21	4680
2026-01-23 13:53:20.43	250.20	15.31	-29.5	-31.7	19.7	6.06e-01	0	43	102	524288	21	4620
2026-01-23 13:53:21.43	250.44	15.36	-29.6	-31.9	19.6	6.06e-01	0	43	102	524288	21	4669
2026-01-23 13:53:22.43	250.67	15.40	-29.6	-31.9	19.6	6.07e-01	0	43	102	524288	21	4680
2026-01-23 13:53:23.44	250.90	15.45	-29.6	-31.7	19.7	6.06e-01	0	43	102	524288	21	4625
2026-01-23 13:53:24.44	251.14	15.49	-29.6	-31.9	19.6	6.07e-01	0	43	102	524288	21	4680
2026-01-23 13:53:25.44	251.37	15.54	-29.6	-31.8	19.7	6.06e-01	0	43	102	524288	21	4659
2026-01-23 13:53:26.45	251.61	15.58	-29.5	-31.6	19.8	6.05e-01	0	43	102	524288	21	4599
2026-01-23 13:53:27.45	251.84	15.62	-29.6	-31.8	19.7	6.08e-01	0	43	102	524288	21	4638
2026-01-23 13:53:28.46	252.08	15.67	-29.6	-32.0	19.6	6.06e-01	0	43	102	524288	21	4708
2026-01-23 13:53:29.46	252.32	15.71	-29.6	-31.8	19.7	6.04e-01	0	43	102	524288	21	4653
2026-01-23 13:53:30.47	252.56	15.75	-29.6	-31.8	19.7	6.04e-01	0	43	102	524288	21	4654
2026-01-23 13:53:31.48	252.80	15.80	-29.7	-32.1	19.5	6.06e-01	0	43	102	524288	21	4746
2026-01-23 13:53:32.48	253.04	15.84	-29.7	-32.2	19.4	6.05e-01	0	43	102	524288	21	4785
2026-01-23 13:53:33.47	253.28	15.88	-29.7	-32.0	19.6	6.06e-01	0	43	102	524288	21	4722
2026-01-23 13:53:34.47	253.52	15.92	-29.6	-31.8	19.7	6.04e-01	0	43	102	524288	21	4654
2026-01-23 13:53:35.47	253.76	15.96	-29.6	-31.9	19.7	6.07e-01	0	43	102	524288	21	4674
2026-01-23 13:53:36.47	254.00	16.00	-29.6	-31.8	19.7	6.06e-01	0	43	102	524288	21	4661
2026-01-23 13:53:37.47	254.24	16.04	-29.6	-31.7	19.8	6.06e-01	0	43	102	524288	21	4629
2026-01-23 13:53:38.47	254.49	16.08	-29.6	-31.7	19.7	6.06e-01	0	43	102	524288	21	4629
2026-01-23 13:53:39.47	254.73	16.12	-29.7	-32.2	19.5	6.05e-01	0	43	102	524288	21	4785
2026-01-23 13:53:40.48	254.98	16.16	-29.8	-32.4	19.4	6.06e-01	0	43	102	524288	21	4838
2026-01-23 13:53:41.48	255.22	16.19	-29.7	-32.0	19.6	6.03e-01	0	43	102	524288	21	4710
2026-01-23 13:53:42.49	255.47	16.23	-29.5	-31.6	19.9	6.06e-01	0	43	102	524288	21	4585
2026-01-23 13:53:43.50	255.72	16.27	-29.5	-31.7	19.8	6.05e-01	0	43	102	524288	21	4600
2026-01-23 13:53:44.50	255.97	16.31	-29.7	-32.0	19.6	6.07e-01	0	43	102	524288	21	4709
2026-01-23 13:53:45.50	256.21	16.34	-29.6	-31.9	19.7	6.04e-01	0	43	102	524288	21	4681
2026-01-23 13:53:46.51	256.47	16.38	-29.6	-31.9	19.7	6.07e-01	0	43	102	524288	21	4669
2026-01-23 13:53:47.51	256.71	16.42	-29.6	-31.7	19.8	6.04e-01	0	43	102	524288	21	4620
2026-01-23 13:53:48.51	256.96	16.45	-29.6	-31.8	19.8	6.06e-01	0	43	102	524288	21	4643
2026-01-23 13:53:49.51	257.21	16.49	-29.7	-32.0	19.7	6.06e-01	0	43	102	524288	21	4691
2026-01-23 13:53:50.51	257.46	16.52	-29.6	-31.8	19.8	6.07e-01	0	43	102	524288	21	4634
2026-01-23 13:53:51.51	257.72	16.55	-29.5	-31.6	19.9	6.06e-01	0	43	102	524288	21	4560
2026-01-23 13:53:52.51	257.97	16.59	-29.7	-32.0	19.7	6.06e-01	0	43	102	524288	21	4709
2026-01-23 13:53:53.52	258.22	16.62	-29.7	-32.1	19.6	6.06e-01	0	43	102	524288	21	4740
2026-01-23 13:53:54.52	258.48	16.65	-29.6	-31.9	19.7	6.06e-01	0	43	102	524288	21	4681
2026-01-23 13:53:55.52	258.73	16.69	-29.6	-31.9	19.7	6.06e-01	0	43	102	524288	21	4669
2026-01-23 13:53:56.53	258.99	16.72	-29.6	-31.9	19.7	6.06e-01	0	43	102	524288	21	4687
2026-01-23 13:53:57.53	259.24	16.75	-29.7	-32.0	19.7	6.05e-01	0	43	102	524288	21	4708
2026-01-23 13:53:58.53	259.50	16.78	-29.7	-32.2	19.6	6.05e-01	0	43	102	524288	21	4761
2026-01-23 13:53:59.54	259.75	16.81	-29.7	-32.1	19.6	6.08e-01	0	43	102	524288	21	4733
2026-01-23 13:54:00.55	260.01	16.84	-29.7	-32.0	19.7	6.05e-01	0	43	102	524288	21	4697
2026-01-23 13:54:01.55	260.27	16.87	-29.6	-31.9	19.7	6.05e-01	0	43	102	524288	21	4670
2026-01-23 13:54:02.55	260.53	16.90	-29.7	-32.0	19.7	6.05e-01	0	43	102	524288	21	4693
2026-01-23 13:54:03.56	260.79	16.93	-29.7	-32.0	19.6	6.04e-01	0	43	102	524288	21	4709
2026-01-23 13:54:04.57	261.05	16.95	-29.6	-31.9	19.7	6.05e-01	0	43	102	524288	21	4666
2026-01-23 13:54:05.57	261.31	16.98	-29.6	-31.9	19.7	6.06e-01	0	43	102	524288	21	4677
2026-01-23 13:54:06.58	261.57	17.01	-29.7	-32.1	19.6	6.05e-01	0	43	102	524288	21	4736
2026-01-23 13:54:07.58	261.83	17.03	-29.7	-32.0	19.7	6.05e-01	0	43	102	524288	21	4696
2026-01-23 13:54:08.58	262.09	17.06	-29.7	-32.1	19.6	6.05e-01	0	43	102	524288	21	4751
2026-01-23 13:54:09.58	262.35	17.08	-29.9	-32.5	19.4	6.03e-01	0	43	102	524288	21	4873
2026-01-23 13:54:10.58	262.61	17.11	-29.8	-32.2	19.5	6.07e-01	0	43	102	524288	21	4781
2026-01-23 13:54:11.58	262.87	17.13	-29.8	-32.4	19.4	6.04e-01	0	43	102	524288	21	4836
2026-01-23 13:54:12.58	263.13	17.16	-29.8	-32.4	19.4	6.07e-01	0	43	102	524288	21	4844
2026-01-23 13:54:13.58	263.40	17.18	-30.0	-32.7	19.2	6.05e-01	0	43	102	524288	21	4954
2026-01-23 13:54:14.59	263.66	17.20	-29.9	-32.5	19.4	6.01e-01	0	43	102	524288	21	4861
2026-01-23 13:54:15.60	263.93	17.22	-29.8	-32.3	19.5	6.06e-01	0	43	102	524288	21	4817
2026-01-23 13:54:16.60	264.19	17.25	-29.9	-32.5	19.4	6.06e-01	0	43	102	524288	21	4866
2026-01-23 13:54:17.60	264.46	17.27	-29.9	-32.5	19.4	6.08e-01	0	43	102	524288	21	4876
2026-01-23 13:54:18.60	264.72	17.29	-29.8	-32.3	19.5	6.05e-01	0	43	102	524288	21	4812
2026-01-23 13:54:19.61	264.99	17.31	-29.8	-32.3	19.5	6.05e-01	0	43	102	524288	21	4801
2026-01-23 13:54:20.61	265.25	17.33	-29.8	-32.3	19.5	6.05e-01	0	43	102	524288	21	4785
2026-01-23 13:54:21.60	265.52	17.35	-29.7	-32.2	19.6	6.04e-01	0	43	102	524288	21	4751
2026-01-23 13:54:22.61	265.78	17.36	-29.8	-32.4	19.5	6.04e-01	0	43	102	524288	21	4829
2026-01-23 13:54:23.61	266.05	17.38	-29.9	-32.5	19.4	6.06e-01	0	43	102	524288	21	4863
2026-01-23 13:54:24.62	266.32	17.40	-30.0	-32.7	19.3	6.05e-01	0	43	102	524288	21	4941
2026-01-23 13:54:25.62	266.59	17.41	-29.9	-32.5	19.4	6.05e-01	0	43	102	524288	21	4872
2026-01-23 13:54:26.63	266.85	17.43	-29.8	-32.2	19.6	6.05e-01	0	43	102	524288	21	4773
2026-01-23 13:54:27.63	267.12	17.45	-29.7	-32.0	19.7	6.09e-01	0	43	102	524288	21	4710
2026-01-23 13:54:28.63	267.39	17.46	-29.8	-32.2	19.6	6.05e-01	0	43	102	524288	21	4768
2026-01-23 13:54:29.63	267.66	17.48	-29.9	-32.5	19.4	6.07e-01	0	43	102	524288	21	4860
2026-01-23 13:54:30.64	267.93	17.49	-29.9	-32.5	19.4	6.06e-01	0	43	102	524288	21	4866
2026-01-23 13:54:31.64	268.20	17.50	-29.9	-32.5	19.4	6.05e-01	0	43	102	524288	21	4861
2026-01-23 13:54:32.65	268.47	17.51	-30.1	-33.0	19.1	6.06e-01	0	43	102	524288	21	5042
2026-01-23 13:54:33.65	268.74	17.53	-30.1	-33.0	19.1	6.05e-01	0	43	102	524288	21	5034
2026-01-23 13:54:34.66	269.01	17.54	-29.9	-32.5	19.4	6.05e-01	0	43	102	524288	21	4859
2026-01-23 13:54:35.66	269.28	17.55	-29.7	-32.1	19.6	6.07e-01	0	43	102	524288	21	4741
2026-01-23 13:54:36.66	269.55	17.56	-29.7	-32.1	19.7	6.06e-01	0	43	102	524288	21	4724
2026-01-23 13:54:37.66	269.82	17.57	-29.8	-32.2	19.6	6.07e-01	0	43	102	524288	21	4771
2026-01-23 13:54:38.67	270.09	17.58	-29.9	-32.5	19.4	6.04e-01	0	44	102	524288	21	4877
2026-01-23 13:54:39.66	270.35	17.59	-29.8	-32.4	19.5	6.03e-01	0	43	102	524288	21	4824
2026-01-23 13:54:40.67	270.63	17.59	-29.8	-32.2	19.6	6.06e-01	0	43	102	524288	21	4757
2026-01-23 13:54:41.68	270.90	17.60	-29.8	-32.3	19.5	6.06e-01	0	43	102	524288	21	4796
2026-01-23 13:54:42.68	271.17	17.61	-29.8	-32.2	19.6	6.06e-01	0	43	102	524288	21	4770
2026-01-23 13:54:43.68	271.44	17.61	-29.8	-32.4	19.5	6.06e-01	0	43	102	524288	21	4820
2026-01-23 13:54:44.69	271.71	17.62	-29.9	-32.5	19.4	6.05e-01	0	43	102	524288	21	4851
2026-01-23 13:54:45.69	271.98	17.62	-29.9	-32.5	19.4	6.08e-01	0	43	102	524288	21	4857
2026-01-23 13:54:46.70	272.26	17.63	-29.9	-32.6	19.4	6.06e-01	0	43	102	524288	21	4893
2026-01-23 13:54:47.69	272.52	17.63	-30.0	-32.8	19.2	6.07e-01	0	43	102	524288	21	4977
2026-01-23 13:54:48.70	272.80	17.64	-29.9	-32.6	19.3	6.08e-01	0	43	102	524288	21	4894
2026-01-23 13:54:49.69	273.07	17.64	-29.8	-32.4	19.5	6.05e-01	0	43	102	524288	21	4824
2026-01-23 13:54:50.70	273.34	17.64	-29.9	-32.5	19.4	6.06e-01	0	43	102	524288	21	4869
2026-01-23 13:54:51.71	273.61	17.64	-29.9	-32.7	19.3	6.05e-01	0	43	102	524288	21	4931
2026-01-23 13:54:52.71	273.88	17.64	-29.8	-32.4	19.5	6.05e-01	0	43	102	524288	21	4829
2026-01-23 13:54:53.72	274.16	17.64	-29.8	-32.2	19.6	6.07e-01	0	43	102	524288	21	4757
2026-01-23 13:54:54.72	274.43	17.64	-29.8	-32.2	19.6	6.06e-01	0	43	102	524288	21	4759
2026-01-23 13:54:55.72	274.70	17.64	-29.8	-32.4	19.5	6.07e-01	0	43	102	524288	21	4843
2026-01-23 13:54:56.73	274.97	17.64	-29.9	-32.4	19.5	6.05e-01	0	43	102	524288	21	4843
2026-01-23 13:54:57.73	275.24	17.64	-29.9	-32.4	19.5	6.05e-01	0	43	102	524288	21	4844
2026-01-23 13:54:58.73	275.51	17.63	-29.9	-32.6	19.3	6.06e-01	0	43	102	524288	21	4918
2026-01-23 13:54:59.74	275.79	17.63	-30.0	-32.9	19.1	6.04e-01	0	44	102	524288	21	5006
2026-01-23 13:55:00.74	276.06	17.63	-30.0	-32.7	19.2	6.05e-01	0	43	102	524288	21	4955
2026-01-23 13:55:01.74	276.33	17.62	-29.9	-32.6	19.4	6.04e-01	0	43	102	524288	21	4901
2026-01-23 13:55:02.74	276.60	17.62	-30.1	-33.1	19.0	6.07e-01	0	43	102	524288	21	5093
2026-01-23 13:55:03.74	276.87	17.61	-30.1	-33.0	19.1	6.06e-01	0	43	102	524288	21	5060
2026-01-23 13:55:04.75	277.14	17.60	-30.2	-33.3	18.9	6.06e-01	0	43	102	524288	21	5154
2026-01-23 13:55:05.76	277.41	17.60	-30.2	-33.3	18.9	6.07e-01	0	43	102	524288	21	5164
2026-01-23 13:55:06.77	277.69	17.59	-30.0	-32.8	19.2	6.05e-01	0	43	102	524288	21	4983
2026-01-23 13:55:07.77	277.95	17.58	-29.9	-32.6	19.3	6.06e-01	0	43	102	524288	21	4905
2026-01-23 13:55:08.78	278.23	17.57	-29.9	-32.5	19.4	6.06e-01	0	43	102	524288	21	4851
2026-01-23 13:55:09.78	278.50	17.56	-30.0	-32.8	19.2	6.06e-01	0	43	102	524288	21	4984
2026-01-23 13:55:10.78	278.77	17.55	-30.1	-33.0	19.1	6.07e-01	0	44	102	524288	21	5028
2026-01-23 13:55:11.79	279.04	17.54	-30.1	-33.2	19.0	6.03e-01	0	43	102	524288	21	5116
2026-01-23 13:55:12.79	279.31	17.53	-30.0	-32.8	19.2	6.05e-01	0	43	102	524288	21	4960
2026-01-23 13:55:13.79	279.57	17.52	-29.9	-32.5	19.4	6.04e-01	0	44	102	524288	21	4851
2026-01-23 13:55:14.80	279.84	17.51	-29.9	-32.5	19.4	6.05e-01	0	43	102	524288	21	4866
2026-01-23 13:55:15.80	280.11	17.50	-29.9	-32.5	19.4	6.04e-01	0	43	102	524288	21	4863
2026-01-23 13:55:16.81	280.38	17.48	-29.9	-32.5	19.4	6.08e-01	0	43	102	524288	21	4867
2026-01-23 13:55:17.82	280.65	17.47	-29.9	-32.7	19.3	6.05e-01	0	43	102	524288	21	4926
2026-01-23 13:55:18.83	280.92	17.45	-30.1	-33.1	19.1	6.06e-01	0	43	102	524288	21	5080
2026-01-23 13:55:19.83	281.19	17.44	-30.2	-33.3	18.9	6.08e-01	0	43	102	524288	21	5141
2026-01-23 13:55:20.84	281.46	17.42	-30.1	-33.0	19.1	6.04e-01	0	43	102	524288	21	5061
2026-01-23 13:55:21.85	281.73	17.41	-30.0	-32.7	19.2	6.05e-01	0	43	102	524288	21	4952
2026-01-23 13:55:22.85	281.99	17.39	-30.0	-32.9	19.1	6.06e-01	0	44	102	524288	21	5013
2026-01-23 13:55:23.86	282.26	17.37	-30.0	-32.8	19.2	6.07e-01	0	44	102	524288	21	4977
2026-01-23 13:55:24.86	282.53	17.35	-30.2	-33.4	18.8	6.07e-01	0	44	102	524288	21	5199
2026-01-23 13:55:25.86	282.79	17.34	-30.1	-33.2	19.0	6.08e-01	0	44	102	524288	21	5108
2026-01-23 13:55:26.87	283.06	17.32	-30.0	-32.7	19.3	6.06e-01	0	43	102	524288	21	4953
2026-01-23 13:55:27.87	283.32	17.30	-29.9	-32.5	19.4	6.05e-01	0	43	102	524288	21	4880
2026-01-23 13:55:28.87	283.59	17.28	-29.8	-32.3	19.5	6.05e-01	0	43	102	524288	21	4817
2026-01-23 13:55:29.87	283.85	17.26	-29.9	-32.6	19.3	6.05e-01	0	43	102	524288	21	4899
2026-01-23 13:55:30.88	284.12	17.23	-29.9	-32.7	19.3	6.05e-01	0	43	102	524288	21	4937
2026-01-23 13:55:31.88	284.38	17.21	-30.1	-33.0	19.1	6.04e-01	0	44	102	524288	21	5045
2026-01-23 13:55:32.89	284.65	17.19	-29.9	-32.5	19.4	6.03e-01	0	44	102	524288	21	4853
2026-01-23 13:55:33.89	284.91	17.17	-29.7	-32.1	19.6	6.08e-01	0	43	102	524288	21	4744
2026-01-23 13:55:34.90	285.17	17.14	-29.9	-32.5	19.4	6.05e-01	0	43	102	524288	21	4864
2026-01-23 13:55:35.90	285.43	17.12	-29.9	-32.6	19.3	6.08e-01	0	44	102	524288	21	4896
2026-01-23 13:55:36.91	285.70	17.10	-29.9	-32.5	19.3	6.07e-01	0	43	102	524288	21	4869
2026-01-23 13:55:37.91	285.96	17.07	-29.9	-32.5	19.4	6.05e-01	0	43	102	524288	21	4855
2026-01-23 13:55:38.92	286.22	17.05	-29.9	-32.7	19.3	6.05e-01	0	43	102	524288	21	4927
2026-01-23 13:55:39.93	286.48	17.02	-29.9	-32.6	19.3	6.05e-01	0	43	102	524288	21	4905
2026-01-23 13:55:40.93	286.74	16.99	-29.9	-32.7	19.3	6.07e-01	0	43	102	524288	21	4936
2026-01-23 13:55:41.93	287.00	16.97	-29.9	-32.4	19.4	6.08e-01	0	43	102	524288	21	4852
2026-01-23 13:55:42.94	287.26	16.94	-29.8	-32.3	19.5	6.06e-01	0	43	102	524288	21	4815
2026-01-23 13:55:43.94	287.52	16.91	-29.9	-32.4	19.4	6.06e-01	0	43	102	524288	21	4848
2026-01-23 13:55:44.95	287.77	16.88	-30.0	-32.9	19.1	6.07e-01	0	43	102	524288	21	5030
2026-01-23 13:55:45.95	288.03	16.85	-29.9	-32.7	19.3	6.08e-01	0	43	102	524288	21	4928
2026-01-23 13:55:46.96	288.29	16.82	-30.1	-33.0	19.0	6.07e-01	0	43	102	524288	21	5062
2026-01-23 13:55:47.96	288.54	16.79	-29.9	-32.6	19.3	6.05e-01	0	44	102	524288	21	4899
2026-01-23 13:55:48.96	288.80	16.76	-29.8	-32.3	19.5	6.06e-01	0	43	102	524288	21	4810
2026-01-23 13:55:49.97	289.06	16.73	-29.8	-32.2	19.5	6.08e-01	0	43	102	524288	21	4774
2026-01-23 13:55:50.97	289.31	16.70	-29.8	-32.3	19.5	6.06e-01	0	44	102	524288	21	4816
2026-01-23 13:55:51.97	289.56	16.67	-29.8	-32.2	19.5	6.07e-01	0	44	102	524288	21	4768
2026-01-23 13:55:52.97	289.82	16.64	-29.8	-32.3	19.5	6.05e-01	0	43	102	524288	21	4814
2026-01-23 13:55:53.97	290.07	16.61	-30.0	-32.8	19.1	6.03e-01	0	44	102	524288	21	4992
2026-01-23 13:55:54.98	290.32	16.57	-29.9	-32.5	19.4	6.03e-01	0	43	102	524288	21	4867
2026-01-23 13:55:55.98	290.57	16.54	-29.8	-32.4	19.4	6.04e-01	0	43	102	524288	21	4834
2026-01-23 13:55:56.99	290.82	16.50	-29.9	-32.5	19.4	6.07e-01	0	43	102	524288	21	4867
2026-01-23 13:55:58.00	291.08	16.47	-29.8	-32.4	19.4	6.07e-01	0	44	102	524288	21	4840
2026-01-23 13:55:59.00	291.33	16.43	-29.8	-32.4	19.4	6.06e-01	0	43	102	524288	21	4828
2026-01-23 13:56:00.00	291.57	16.40	-29.8	-32.4	19.4	6.05e-01	0	43	102	524288	21	4847
2026-01-23 13:56:01.01	291.82	16.36	-30.0	-32.9	19.1	6.07e-01	0	44	102	524288	21	5027
2026-01-23 13:56:02.02	292.07	16.33	-29.9	-32.6	19.3	6.05e-01	0	44	102	524288	21	4903
2026-01-23 13:56:03.02	292.32	16.29	-29.8	-32.2	19.5	6.06e-01	0	43	102	524288	21	4784
2026-01-23 13:56:04.03	292.57	16.25	-29.8	-32.3	19.5	6.02e-01	0	43	102	524288	21	4799
2026-01-23 13:56:05.04	292.82	16.22	-29.9	-32.6	19.3	6.05e-01	0	43	102	524288	21	4926
2026-01-23 13:56:06.04	293.06	16.18	-29.8	-32.4	19.4	6.07e-01	0	43	102	524288	21	4836
2026-01-23 13:56:07.04	293.30	16.14	-29.9	-32.5	19.4	6.06e-01	0	43	102	524288	21	4862
2026-01-23 13:56:08.05	293.55	16.10	-29.9	-32.7	19.2	6.06e-01	0	43	102	524288	21	4928
2026-01-23 13:56:09.06	293.79	16.06	-29.8	-32.3	19.4	6.06e-01	0	43	102	524288	21	4804
2026-01-23 13:56:10.06	294.04	16.02	-29.8	-32.3	19.5	6.05e-01	0	43	102	524288	21	4792
2026-01-23 13:56:11.07	294.28	15.98	-29.8	-32.4	19.4	6.07e-01	0	43	102	524288	21	4829
2026-01-23 13:56:12.07	294.52	15.94	-29.8	-32.2	19.5	6.03e-01	0	44	102	524288	21	4787
2026-01-23 13:56:13.08	294.76	15.90	-29.8	-32.4	19.4	6.06e-01	0	44	102	524288	21	4827
2026-01-23 13:56:14.09	295.00	15.86	-30.0	-32.9	19.1	6.04e-01	0	43	102	524288	21	5004
2026-01-23 13:56:15.10	295.24	15.82	-30.0	-33.0	19.0	6.07e-01	0	43	102	524288	21	5038
2026-01-23 13:56:16.10	295.48	15.78	-30.0	-32.8	19.1	6.06e-01	0	43	102	524288	21	4975
2026-01-23 13:56:17.10	295.72	15.73	-30.0	-32.7	19.2	6.07e-01	0	43	102	524288	21	4963
2026-01-23 13:56:18.10	295.96	15.69	-30.1	-33.0	19.0	6.06e-01	0	43	102	524288	21	5069
2026-01-23 13:56:19.10	296.19	15.65	-29.9	-32.7	19.2	6.07e-01	0	43	102	524288	21	4936
2026-01-23 13:56:20.11	296.43	15.60	-29.8	-32.4	19.4	6.04e-01	0	43	102	524288	21	4844
2026-01-23 13:56:21.11	296.66	15.56	-29.9	-32.6	19.3	6.06e-01	0	43	102	524288	21	4908
2026-01-23 13:56:22.12	296.90	15.52	-29.9	-32.7	19.2	6.07e-01	0	43	102	524288	21	4946
2026-01-23 13:56:23.12	297.13	15.47	-30.1	-33.1	18.9	6.07e-01	0	43	102	524288	21	5085
2026-01-23 13:56:24.13	297.37	15.43	-29.9	-32.6	19.2	6.04e-01	0	43	102	524288	21	4913
2026-01-23 13:56:25.13	297.60	15.38	-29.8	-32.4	19.3	6.07e-01	0	44	102	524288	21	4842
2026-01-23 13:56:26.14	297.83	15.34	-29.9	-32.5	19.3	6.06e-01	0	43	102	524288	21	4889
2026-01-23 13:56:27.15	298.06	15.29	-29.9	-32.7	19.2	6.04e-01	0	43	102	524288	21	4942
2026-01-23 13:56:28.15	298.29	15.25	-29.8	-32.3	19.4	6.07e-01	0	43	102	524288	21	4814
2026-01-23 13:56:29.16	298.52	15.20	-29.8	-32.3	19.4	6.06e-01	0	43	102	524288	21	4794
2026-01-23 13:56:30.16	298.75	15.15	-29.9	-32.5	19.3	6.03e-01	0	44	102	524288	21	4874
2026-01-23 13:56:31.16	298.98	15.11	-29.8	-32.4	19.4	6.04e-01	0	43	102	524288	21	4829
2026-01-23 13:56:32.16	299.20	15.06	-30.0	-32.9	19.0	6.06e-01	0	44	102	524288	21	5041
2026-01-23 13:56:33.16	299.43	15.01	-30.0	-32.9	19.1	6.07e-01	0	44	102	524288	21	5021
2026-01-23 13:56:34.17	299.65	14.96	-30.1	-33.2	18.8	6.05e-01	0	43	102	524288	21	5151
2026-01-23 13:56:35.17	299.88	14.92	-30.1	-33.1	18.9	6.05e-01	0	44	102	524288	21	5103
2026-01-23 13:56:36.18	300.10	14.87	-30.1	-33.1	18.9	6.04e-01	0	43	102	524288	21	5083
2026-01-23 13:56:37.19	300.33	14.82	-30.2	-33.4	18.7	6.06e-01	0	44	102	524288	21	5199
2026-01-23 13:56:38.18	300.55	14.77	-30.1	-33.3	18.8	6.07e-01	0	43	102	524288	21	5165
2026-01-23 13:56:39.19	300.77	14.72	-30.2	-33.6	18.6	6.05e-01	0	44	102	524288	21	5276
2026-01-23 13:56:40.19	300.99	14.67	-30.2	-33.4	18.7	6.07e-01	0	43	102	524288	21	5229
2026-01-23 13:56:41.19	301.21	14.62	-30.3	-33.7	18.5	6.07e-01	0	44	102	524288	21	5308
2026-01-23 13:56:42.20	301.43	14.57	-30.1	-33.2	18.8	6.05e-01	0	44	102	524288	21	5126
2026-01-23 13:56:43.20	301.65	14.52	-30.1	-33.1	18.9	6.06e-01	0	43	102	524288	21	5092
2026-01-23 13:56:44.20	301.86	14.47	-30.2	-33.3	18.8	6.07e-01	0	43	102	524288	21	5169
2026-01-23 13:56:45.21	302.08	14.42	-30.2	-33.5	18.6	6.06e-01	0	44	102	524288	21	5262
2026-01-23 13:56:46.20	302.30	14.37	-30.3	-33.6	18.6	6.06e-01	0	43	102	524288	21	5280
2026-01-23 13:56:47.21	302.51	14.32	-30.2	-33.5	18.6	6.04e-01	0	43	102	524288	21	5256
2026-01-23 13:56:48.22	302.73	14.27	-30.3	-33.8	18.4	6.07e-01	0	44	102	524288	21	5356
2026-01-23 13:56:49.22	302.94	14.22	-30.0	-32.9	18.9	6.05e-01	0	43	102	524288	21	5022
2026-01-23 13:56:50.23	303.16	14.16	-29.8	-32.4	19.3	6.06e-01	0	43	102	524288	21	4848
2026-01-23 13:56:51.24	303.37	14.11	-29.8	-32.4	19.3	6.05e-01	0	43	102	524288	21	4856
2026-01-23 13:56:52.24	303.58	14.06	-29.9	-32.7	19.1	6.06e-01	0	43	102	524288	21	4942
2026-01-23 13:56:53.25	303.79	14.01	-30.0	-32.9	19.0	6.06e-01	0	44	102	524288	21	5037
2026-01-23 13:56:54.25	304.00	13.95	-29.9	-32.7	19.1	6.06e-01	0	43	102	524288	21	4967
2026-01-23 13:56:55.25	304.21	13.90	-29.9	-32.5	19.2	6.06e-01	0	44	102	524288	21	4894
2026-01-23 13:56:56.24	304.42	13.85	-29.9	-32.8	19.1	6.06e-01	0	43	102	524288	21	4977
2026-01-23 13:56:57.25	304.62	13.80	-30.0	-32.8	19.0	6.04e-01	0	44	102	524288	21	4996
2026-01-23 13:56:58.26	304.83	13.74	-30.1	-33.1	18.9	6.06e-01	0	43	102	524288	21	5097
2026-01-23 13:56:59.27	305.04	13.69	-30.0	-32.9	19.0	6.06e-01	0	43	102	524288	21	5021
2026-01-23 13:57:00.27	305.24	13.63	-30.0	-33.0	18.9	6.07e-01	0	43	102	524288	21	5067
2026-01-23 13:57:01.28	305.45	13.58	-29.9	-32.6	19.1	6.05e-01	0	43	102	524288	21	4922
2026-01-23 13:57:02.28	305.65	13.53	-29.8	-32.4	19.3	6.05e-01	0	43	102	524288	21	4863
2026-01-23 13:57:03.29	305.86	13.47	-29.8	-32.5	19.2	6.04e-01	0	44	102	524288	21	4872
2026-01-23 13:57:04.28	306.06	13.42	-29.8	-32.5	19.2	6.05e-01	0	43	102	524288	21	4896
2026-01-23 13:57:05.29	306.26	13.36	-29.9	-32.7	19.1	6.08e-01	0	43	102	524288	21	4950
2026-01-23 13:57:06.29	306.46	13.31	-29.9	-32.7	19.1	6.07e-01	0	44	102	524288	21	4960
2026-01-23 13:57:07.30	306.66	13.25	-30.0	-32.8	19.0	6.07e-01	0	44	102	524288	21	5014
2026-01-23 13:57:08.30	306.86	13.20	-29.9	-32.8	19.0	6.06e-01	0	43	102	524288	21	4985
2026-01-23 13:57:09.31	307.06	13.14	-30.0	-32.8	19.0	6.07e-01	0	43	102	524288	21	4995
2026-01-23 13:57:10.31	307.25	13.08	-30.0	-32.9	18.9	6.05e-01	0	44	102	524288	21	5038
2026-01-23 13:57:11.32	307.45	13.03	-30.0	-32.8	19.0	6.06e-01	0	43	102	524288	21	5008
2026-01-23 13:57:12.32	307.65	12.97	-30.0	-32.8	19.0	6.06e-01	0	43	102	524288	21	4998
2026-01-23 13:57:13.33	307.84	12.92	-30.0	-32.9	18.9	6.06e-01	0	44	102	524288	21	5032
2026-01-23 13:57:14.33	308.04	12.86	-30.0	-33.0	18.8	6.06e-01	0	43	102	524288	21	5079
2026-01-23 13:57:15.34	308.23	12.80	-29.9	-32.7	19.0	6.04e-01	0	43	102	524288	21	4964
2026-01-23 13:57:16.34	308.42	12.75	-30.0	-32.9	18.9	6.06e-01	0	43	102	524288	21	5032
2026-01-23 13:57:17.35	308.62	12.69	-30.0	-32.9	18.9	6.06e-01	0	43	102	524288	21	5038
2026-01-23 13:57:18.36	308.81	12.63	-30.1	-33.1	18.8	6.05e-01	0	43	102	524288	21	5103
2026-01-23 13:57:19.37	309.00	12.58	-30.1	-33.2	18.8	6.09e-01	0	43	102	524288	21	5133
2026-01-23 13:57:20.37	309.19	12.52	-30.1	-33.2	18.8	6.04e-01	0	43	102	524288	21	5131
2026-01-23 13:57:21.38	309.38	12.46	-30.2	-33.3	18.7	6.05e-01	0	44	102	524288	21	5201
2026-01-23 13:57:22.38	309.57	12.41	-30.1	-33.2	18.7	6.06e-01	0	44	102	524288	21	5148
2026-01-23 13:57:23.38	309.75	12.35	-30.1	-33.3	18.6	6.04e-01	0	44	102	524288	21	5193
2026-01-23 13:57:24.39	309.94	12.29	-30.1	-33.3	18.6	6.04e-01	0	44	102	524288	21	5191
2026-01-23 13:57:25.39	310.13	12.23	-30.1	-33.2	18.7	6.06e-01	0	43	102	524288	21	5164
2026-01-23 13:57:26.39	310.31	12.18	-30.3	-33.7	18.4	6.05e-01	0	43	102	524288	21	5331
2026-01-23 13:57:27.39	310.49	12.12	-30.3	-33.7	18.4	6.05e-01	0	43	102	524288	21	5336
2026-01-23 13:57:28.40	310.68	12.06	-30.1	-33.2	18.7	6.05e-01	0	44	102	524288	21	5146
2026-01-23 13:57:29.40	310.86	12.00	-30.0	-33.1	18.8	6.07e-01	0	44	102	524288	21	5097
2026-01-23 13:57:30.41	311.04	11.94	-30.0	-32.9	18.9	6.04e-01	0	44	102	524288	21	5038
2026-01-23 13:57:31.41	311.22	11.89	-30.1	-33.2	18.7	6.07e-01	0	43	102	524288	21	5147
2026-01-23 13:57:32.41	311.40	11.83	-30.1	-33.2	18.7	6.04e-01	0	43	102	524288	21	5159
2026-01-23 13:57:33.42	311.59	11.77	-30.1	-33.2	18.7	6.06e-01	0	43	102	524288	21	5140
2026-01-23 13:57:34.42	311.76	11.71	-30.1	-33.1	18.7	6.04e-01	0	44	102	524288	21	5120
2026-01-23 13:57:35.43	311.94	11.65	-30.1	-33.3	18.6	6.06e-01	0	43	102	524288	21	5186
2026-01-23 13:57:36.43	312.12	11.59	-30.1	-33.3	18.6	6.08e-01	0	43	102	524288	21	5204
2026-01-23 13:57:37.44	312.30	11.54	-30.1	-33.4	18.6	6.07e-01	0	43	102	524288	21	5225
2026-01-23 13:57:38.44	312.47	11.48	-30.1	-33.3	18.6	6.07e-01	0	44	102	524288	21	5189
2026-01-23 13:57:39.45	312.65	11.42	-30.1	-33.3	18.6	6.06e-01	0	44	102	524288	21	5185
2026-01-23 13:57:40.45	312.82	11.36	-30.1	-33.3	18.6	6.06e-01	0	44	102	524288	21	5177
2026-01-23 13:57:41.46	313.00	11.30	-30.1	-33.4	18.6	6.04e-01	0	43	102	524288	21	5208
2026-01-23 13:57:42.46	313.17	11.24	-30.1	-33.4	18.5	6.07e-01	0	43	102	524288	21	5216
2026-01-23 13:57:43.46	313.34	11.18	-30.2	-33.5	18.4	6.06e-01	0	44	102	524288	21	5275
2026-01-23 13:57:44.46	313.51	11.12	-30.3	-33.7	18.3	6.07e-01	0	43	102	524288	21	5345
2026-01-23 13:57:45.47	313.69	11.07	-30.3	-33.7	18.3	6.05e-01	0	44	102	524288	21	5341
2026-01-23 13:57:46.47	313.85	11.01	-30.2	-33.6	18.4	6.08e-01	0	43	102	524288	21	5293
2026-01-23 13:57:47.47	314.02	10.95	-30.1	-33.2	18.6	6.07e-01	0	43	102	524288	21	5168
2026-01-23 13:57:48.48	314.19	10.89	-30.1	-33.2	18.6	6.06e-01	0	44	102	524288	21	5150
2026-01-23 13:57:49.48	314.36	10.83	-30.1	-33.2	18.6	6.07e-01	0	43	102	524288	21	5159
2026-01-23 13:57:50.48	314.53	10.77	-30.1	-33.3	18.6	6.08e-01	0	44	102	524288	21	5198
2026-01-23 13:57:51.48	314.69	10.71	-30.2	-33.4	18.5	6.03e-01	0	44	102	524288	21	5245
2026-01-23 13:57:52.48	314.86	10.65	-30.1	-33.4	18.5	6.07e-01	0	44	102	524288	21	5232
2026-01-23 13:57:53.49	315.02	10.59	-30.2	-33.6	18.4	6.07e-01	0	43	102	524288	21	5323
2026-01-23 13:57:54.50	315.19	10.53	-30.2	-33.5	18.4	6.04e-01	0	43	102	524288	21	5287
2026-01-23 13:57:55.50	315.35	10.47	-30.2	-33.4	18.5	6.06e-01	0	44	102	524288	21	5246
2026-01-23 13:57:56.50	315.52	10.41	-30.2	-33.6	18.3	6.06e-01	0	44	102	524288	21	5319
2026-01-23 13:57:57.50	315.68	10.35	-30.3	-33.8	18.2	6.08e-01	0	43	102	524288	21	5410
2026-01-23 13:57:58.51	315.84	10.29	-30.3	-33.9	18.2	6.06e-01	0	44	102	524288	21	5423
2026-01-23 13:57:59.51	316.00	10.23	-30.3	-33.9	18.1	6.06e-01	0	44	102	524288	21	5452
2026-01-23 13:58:00.51	316.16	10.17	-30.4	-34.0	18.1	6.06e-01	0	44	102	524288	21	5471
2026-01-23 13:58:01.52	316.32	10.11	-30.3	-34.0	18.1	6.06e-01	0	44	102	524288	21	5470
2026-01-23 13:58:02.52	316.48	10.06	-30.5	-34.3	17.9	6.06e-01	0	44	102	524288	21	5602
2026-01-23 13:58:03.52	316.64	10.00	-30.5	-34.4	17.8	6.05e-01	0	44	102	524288	21	5646
2026-01-23 13:58:04.53	316.80	9.94	-30.5	-34.4	17.9	6.06e-01	0	44	102	524288	21	5627
2026-01-23 13:58:05.53	316.95	9.88	-30.4	-34.3	17.9	6.03e-01	0	44	102	524288	21	5593
2026-01-23 13:58:06.54	317.11	9.82	-30.4	-34.3	17.8	6.07e-01	0	44	102	524288	21	5609
2026-01-23 13:58:07.55	317.27	9.76	-30.4	-34.3	17.9	6.05e-01	0	44	102	524288	21	5587
2026-01-23 13:58:08.56	317.42	9.70	-30.5	-34.3	17.8	6.06e-01	0	44	102	524288	21	5622
2026-01-23 13:58:09.57	317.58	9.64	-30.5	-34.5	17.7	6.04e-01	0	44	102	524288	21	5710
2026-01-23 13:58:10.57	317.73	9.58	-30.7	-34.4	17.5	6.03e-01	0	44	102	524288	22	5533
2026-01-23 13:58:11.58	317.88	9.52	-30.6	-34.3	17.5	6.07e-01	0	44	102	524288	22	5509
2026-01-23 13:58:12.58	318.04	9.46	-30.5	-33.9	17.8	6.05e-01	0	44	102	524288	22	5319
2026-01-23 13:58:13.59	318.19	9.40	-30.4	-33.7	17.9	6.02e-01	0	44	102	524288	22	5245
2026-01-23 13:58:14.59	318.34	9.34	-30.5	-33.9	17.8	6.01e-01	0	44	102	524288	22	5315
2026-01-23 13:58:15.59	318.49	9.28	-30.6	-34.2	17.6	6.01e-01	0	44	102	524288	22	5439
2026-01-23 13:58:16.60	318.64	9.22	-30.6	-34.2	17.5	5.98e-01	0	44	102	524288	22	5464
2026-01-23 13:58:17.60	318.79	9.16	-30.5	-34.1	17.6	6.00e-01	0	44	102	524288	22	5404
2026-01-23 13:58:18.60	318.93	9.10	-30.6	-34.2	17.5	6.01e-01	0	44	102	524288	22	5470
2026-01-23 13:58:19.60	319.08	9.04	-30.6	-34.2	17.5	6.01e-01	0	43	102	524288	22	5462
2026-01-23 13:58:20.61	319.23	8.98	-30.5	-34.1	17.6	6.00e-01	0	44	102	524288	22	5416
2026-01-23 13:58:21.61	319.38	8.92	-30.6	-34.2	17.5	6.00e-01	0	44	102	524288	22	5477
2026-01-23 13:58:22.61	319.52	8.86	-30.6	-34.1	17.6	5.99e-01	0	44	102	524288	22	5436
2026-01-23 13:58:23.61	319.67	8.80	-30.8	-34.7	17.2	6.01e-01	0	44	102	524288	22	5681
2026-01-23 13:58:24.61	319.81	8.74	-30.9	-35.1	16.9	6.04e-01	0	43	102	524288	22	5846
2026-01-23 13:58:25.60	319.95	8.68	-30.9	-35.3	16.8	6.01e-01	0	44	102	524288	22	5938
2026-01-23 13:58:26.61	320.10	8.62	-30.9	-35.2	16.8	5.98e-01	0	44	102	524288	22	5893
2026-01-23 13:58:27.61	320.24	8.56	-30.6	-34.4	17.3	6.02e-01	0	44	102	524288	22	5566
2026-01-23 13:58:28.62	320.38	8.50	-30.6	-34.4	17.4	6.02e-01	0	44	102	524288	22	5545
2026-01-23 13:58:29.62	320.52	8.44	-30.6	-34.4	17.4	6.00e-01	0	44	102	524288	22	5544
2026-01-23 13:58:30.63	320.66	8.38	-30.5	-34.1	17.5	6.02e-01	0	44	102	524288	22	5437
2026-01-23 13:58:31.63	320.80	8.32	-30.6	-34.4	17.4	6.01e-01	0	44	102	524288	22	5566
2026-01-23 13:58:32.64	320.94	8.26	-30.6	-34.4	17.3	6.01e-01	0	44	102	524288	22	5576
2026-01-23 13:58:33.65	321.08	8.20	-30.6	-34.4	17.3	6.00e-01	0	44	102	524288	22	5565
2026-01-23 13:58:34.65	321.22	8.14	-30.8	-34.9	17.0	6.02e-01	0	44	102	524288	22	5757
2026-01-23 13:58:35.66	321.36	8.08	-30.7	-34.7	17.2	5.98e-01	0	43	102	524288	22	5671
2026-01-23 13:58:36.66	321.50	8.02	-30.5	-34.1	17.5	6.02e-01	0	44	102	524288	22	5419
2026-01-23 13:58:37.66	321.63	7.96	-30.5	-34.0	17.6	6.00e-01	0	43	102	524288	22	5395
2026-01-23 13:58:38.67	321.77	7.90	-30.5	-34.0	17.6	6.02e-01	0	43	102	524288	22	5412
2026-01-23 13:58:39.68	321.91	7.84	-30.6	-34.5	17.2	6.02e-01	0	44	102	524288	22	5593
2026-01-23 13:58:40.67	322.04	7.79	-30.6	-34.3	17.3	6.00e-01	0	44	102	524288	22	5523
2026-01-23 13:58:41.67	322.17	7.73	-30.6	-34.4	17.3	6.02e-01	0	44	102	524288	22	5564
2026-01-23 13:58:42.68	322.31	7.67	-30.6	-34.3	17.4	6.00e-01	0	44	102	524288	22	5518
2026-01-23 13:58:43.68	322.44	7.61	-30.6	-34.4	17.2	5.99e-01	0	44	102	524288	22	5581
2026-01-23 13:58:44.69	322.58	7.55	-30.6	-34.5	17.1	6.01e-01	0	44	102	524288	22	5635
2026-01-23 13:58:45.70	322.71	7.49	-30.7	-34.7	17.0	6.00e-01	0	44	102	524288	22	5712
2026-01-23 13:58:46.70	322.84	7.43	-30.7	-34.7	17.0	6.00e-01	0	43	102	524288	22	5699
2026-01-23 13:58:47.71	322.97	7.37	-30.7	-34.6	17.1	5.99e-01	0	44	102	524288	22	5660
2026-01-23 13:58:48.71	323.10	7.31	-30.7	-34.6	17.1	6.00e-01	0	43	102	524288	22	5650
2026-01-23 13:58:49.72	323.23	7.25	-30.5	-34.2	17.4	6.00e-01	0	44	102	524288	22	5501
2026-01-23 13:58:50.72	323.36	7.19	-30.7	-34.7	17.0	6.02e-01	0	44	102	524288	22	5699
2026-01-23 13:58:51.73	323.49	7.13	-30.6	-34.5	17.1	6.01e-01	0	44	102	524288	22	5624
2026-01-23 13:58:52.73	323.62	7.08	-30.6	-34.5	17.2	6.02e-01	0	44	102	524288	22	5603
2026-01-23 13:58:53.73	323.75	7.02	-33.6	-51.4	3.7	7.44e-01	0	44	104	524288	28	27937
2026-01-23 13:58:54.74	323.87	6.96	-34.0	-53.5	3.8	7.47e-01	0	44	104	524288	28	34053
2026-01-23 13:58:55.74	324.00	6.90	-34.2	-53.5	3.8	7.44e-01	0	44	104	524288	29	33079

#Closed at: 2026-01-23 13:58:56
#Recorded file [0 MB]: D:/data/31010_260123_165056.dat