passes_logs/2026/01/23/R2M6_AANII_01/R2M6_AANII_01__20260123_012254_FENGYUN_3D_rec.log

#Pass ID: 20260123_012254_FENGYUN 3D
#Satellite: FENGYUN 3D
#Configuration: FENGYUN 3D
#almurnet v.1.7.20240730
#Start time: 2026-01-23 01:22:55

#Version: 2.2.20231116
#Station: R2M6_AANII_01
#Location: 30.233357 lon 59.946436 lat
#TLE: 1 43010U 17072A   26022.47411728  .00000617  00000+0  31375-3 0  9996
#TLE: 2 43010  98.9952 354.4060 0002481  95.7964 264.3494 14.19699924424319

#Time	Az	El	Level	Level2	SNR	BER	BlckErr	Temp	State	Recorded	gain1	gain2
2026-01-23 01:22:55.78	25.47	7.09	-30.0	-33.1	5.4	7.84e-01	0	42	0	0	20	5145
2026-01-23 01:22:56.79	25.54	7.16	-30.8	-34.6	5.1	8.01e-01	0	42	104	0	22	5541
2026-01-23 01:22:57.78	25.60	7.23	-30.9	-34.8	8.0	6.67e-02	0	42	0	0	22	5629
2026-01-23 01:22:58.78	25.67	7.30	-30.7	-34.1	8.4	6.92e-02	0	42	0	5242880	22	5342
2026-01-23 01:22:59.79	25.73	7.37	-30.3	-32.9	9.3	3.41e-02	0	42	0	11534336	22	4857
2026-01-23 01:23:00.79	25.80	7.44	-29.9	-32.8	10.1	1.33e-02	0	42	0	16777216	20	5036
2026-01-23 01:23:01.80	25.86	7.52	-29.5	-31.6	10.9	5.22e-03	0	42	0	22020096	20	4617
2026-01-23 01:23:02.80	25.93	7.59	-29.2	-31.3	11.5	1.64e-03	0	42	0	28311552	19	4593
2026-01-23 01:23:03.80	25.99	7.66	-28.8	-30.9	12.1	6.40e-04	0	42	0	33554432	18	4560
2026-01-23 01:23:04.81	26.06	7.73	-28.4	-29.9	12.8	1.03e-04	0	42	0	38797312	18	4274
2026-01-23 01:23:05.82	26.13	7.81	-28.1	-29.8	13.1	1.34e-04	0	42	0	45088768	17	4340
2026-01-23 01:23:06.82	26.20	7.88	-28.0	-29.4	13.4	3.54e-05	0	42	0	50331648	17	4233
2026-01-23 01:23:07.83	26.26	7.95	-27.7	-29.2	13.8	2.05e-05	0	42	0	55574528	16	4266
2026-01-23 01:23:08.83	26.33	8.03	-27.6	-29.0	13.9	2.72e-04	0	42	0	61865984	16	4227
2026-01-23 01:23:09.84	26.40	8.10	-27.8	-29.4	13.7	2.99e-04	0	42	0	67108864	16	4347
2026-01-23 01:23:10.84	26.47	8.17	-27.7	-29.3	13.8	4.50e-06	0	42	0	73400320	16	4300
2026-01-23 01:23:11.84	26.54	8.25	-27.4	-29.0	14.0	2.83e-04	0	42	0	78643200	15	4343
2026-01-23 01:23:12.84	26.60	8.32	-27.1	-28.4	14.4	2.97e-04	0	42	0	84934656	15	4177
2026-01-23 01:23:13.85	26.67	8.40	-27.0	-28.2	14.5	2.20e-06	0	42	0	90177536	15	4110
2026-01-23 01:23:14.85	26.74	8.47	-27.1	-28.4	14.4	3.57e-04	0	42	0	95420416	15	4166
2026-01-23 01:23:15.85	26.81	8.54	-27.1	-28.9	14.4	2.20e-06	0	42	0	101711872	14	4413
2026-01-23 01:23:16.86	26.88	8.62	-27.1	-28.8	14.5	0.00e+00	0	42	0	106954752	14	4383
2026-01-23 01:23:17.86	26.95	8.69	-27.0	-28.6	14.6	3.44e-04	0	42	0	112197632	14	4325
2026-01-23 01:23:18.86	27.03	8.77	-26.9	-28.4	14.7	3.28e-04	0	43	0	118489088	14	4274
2026-01-23 01:23:19.86	27.10	8.84	-26.9	-28.4	14.7	0.00e+00	0	42	0	123731968	14	4276
2026-01-23 01:23:20.87	27.17	8.92	-26.9	-28.3	14.8	0.00e+00	0	42	0	128974848	14	4243
2026-01-23 01:23:21.88	27.24	9.00	-26.9	-28.3	14.8	2.35e-04	0	43	0	135266304	14	4236
2026-01-23 01:23:22.88	27.31	9.07	-26.8	-28.1	14.9	0.00e+00	0	42	0	140509184	14	4202
2026-01-23 01:23:23.89	27.39	9.15	-26.9	-28.4	14.8	1.59e-04	0	43	0	146800640	14	4276
2026-01-23 01:23:24.89	27.46	9.23	-26.9	-28.3	14.8	1.10e-06	0	42	0	152043520	14	4244
2026-01-23 01:23:25.89	27.53	9.30	-26.8	-28.1	14.9	0.00e+00	0	43	0	158334976	14	4182
2026-01-23 01:23:26.89	27.61	9.38	-26.7	-27.9	15.0	0.00e+00	0	43	0	163577856	14	4145
2026-01-23 01:23:27.90	27.68	9.46	-26.9	-28.3	14.8	0.00e+00	0	43	0	168820736	14	4248
2026-01-23 01:23:28.90	27.76	9.53	-26.7	-27.8	15.1	1.10e-06	0	43	0	175112192	14	4116
2026-01-23 01:23:29.91	27.83	9.61	-26.8	-28.0	15.0	0.00e+00	0	43	0	180355072	14	4175
2026-01-23 01:23:30.92	27.91	9.69	-26.7	-27.9	15.1	0.00e+00	0	43	0	185597952	14	4148
2026-01-23 01:23:31.92	27.98	9.77	-26.6	-27.7	15.2	0.00e+00	0	43	0	191889408	14	4090
2026-01-23 01:23:32.92	28.06	9.84	-26.7	-28.0	15.1	1.10e-06	0	43	0	197132288	14	4152
2026-01-23 01:23:33.93	28.13	9.92	-26.8	-28.2	14.9	0.00e+00	0	43	0	202375168	14	4213
2026-01-23 01:23:34.93	28.21	10.00	-26.7	-28.0	15.1	0.00e+00	0	43	0	208666624	14	4161
2026-01-23 01:23:35.93	28.29	10.08	-26.6	-27.8	15.2	1.86e-04	0	43	0	213909504	14	4101
2026-01-23 01:23:36.93	28.37	10.16	-26.6	-28.2	15.2	0.00e+00	0	43	0	220200960	13	4338
2026-01-23 01:23:37.94	28.44	10.24	-26.6	-28.2	15.2	0.00e+00	0	43	0	225443840	13	4345
2026-01-23 01:23:38.94	28.52	10.32	-26.7	-28.4	15.1	1.10e-06	0	43	0	231735296	13	4380
2026-01-23 01:23:39.94	28.60	10.40	-26.5	-28.1	15.3	0.00e+00	0	43	0	236978176	13	4291
2026-01-23 01:23:40.94	28.68	10.47	-26.5	-28.0	15.3	0.00e+00	0	43	0	242221056	13	4282
2026-01-23 01:23:41.95	28.76	10.55	-26.6	-28.2	15.3	0.00e+00	0	43	0	248512512	13	4325
2026-01-23 01:23:42.95	28.84	10.63	-26.5	-27.9	15.4	0.00e+00	0	43	0	253755392	13	4248
2026-01-23 01:23:43.96	28.92	10.72	-26.4	-27.8	15.4	0.00e+00	0	43	0	258998272	13	4211
2026-01-23 01:23:44.95	29.00	10.79	-26.6	-28.2	15.3	0.00e+00	0	43	0	265289728	13	4321
2026-01-23 01:23:45.96	29.08	10.88	-26.4	-27.8	15.5	0.00e+00	0	43	0	270532608	13	4222
2026-01-23 01:23:46.96	29.16	10.96	-26.4	-27.7	15.5	0.00e+00	0	43	0	275775488	13	4200
2026-01-23 01:23:47.96	29.25	11.04	-26.4	-27.7	15.5	0.00e+00	0	43	0	282066944	13	4183
2026-01-23 01:23:48.96	29.33	11.12	-26.6	-28.1	15.2	0.00e+00	0	43	0	287309824	13	4313
2026-01-23 01:23:49.96	29.41	11.20	-26.3	-27.6	15.6	0.00e+00	0	43	0	293601280	13	4169
2026-01-23 01:23:50.97	29.49	11.28	-26.2	-27.2	15.8	0.00e+00	0	43	0	298844160	13	4058
2026-01-23 01:23:51.97	29.58	11.36	-26.1	-27.1	15.9	0.00e+00	0	43	0	304087040	13	4025
2026-01-23 01:23:52.98	29.66	11.45	-26.1	-27.1	15.9	0.00e+00	0	43	0	310378496	13	4024
2026-01-23 01:23:53.99	29.75	11.53	-26.0	-26.9	16.0	0.00e+00	0	43	0	315621376	13	3980
2026-01-23 01:23:54.99	29.83	11.61	-26.1	-27.0	16.0	0.00e+00	0	43	0	321912832	13	4014
2026-01-23 01:23:56.00	29.92	11.70	-26.1	-27.1	15.9	0.00e+00	0	43	0	327155712	13	4036
2026-01-23 01:23:57.01	30.01	11.78	-26.1	-27.0	16.0	0.00e+00	0	43	0	332398592	13	4004
2026-01-23 01:23:58.02	30.09	11.86	-26.2	-27.3	15.8	0.00e+00	0	43	0	338690048	13	4095
2026-01-23 01:23:59.02	30.18	11.95	-26.2	-27.2	15.8	0.00e+00	0	43	0	343932928	13	4058
2026-01-23 01:24:00.02	30.27	12.03	-26.1	-27.1	15.9	0.00e+00	0	43	0	349175808	13	4033
2026-01-23 01:24:01.01	30.35	12.11	-26.3	-27.6	15.7	0.00e+00	0	43	0	355467264	13	4153
2026-01-23 01:24:02.01	30.44	12.20	-26.1	-27.1	15.9	0.00e+00	0	43	0	360710144	13	4022
2026-01-23 01:24:03.02	30.53	12.28	-26.0	-26.8	16.1	0.00e+00	0	43	0	367001600	13	3949
2026-01-23 01:24:04.02	30.62	12.37	-26.0	-27.3	16.1	0.00e+00	0	43	0	372244480	12	4192
2026-01-23 01:24:05.02	30.71	12.45	-26.0	-27.3	16.1	0.00e+00	0	43	0	377487360	12	4198
2026-01-23 01:24:06.02	30.80	12.54	-26.0	-27.4	16.1	0.00e+00	0	43	0	383778816	12	4215
2026-01-23 01:24:07.02	30.89	12.62	-26.1	-27.6	15.9	0.00e+00	0	43	0	389021696	12	4282
2026-01-23 01:24:08.03	30.98	12.71	-26.3	-27.9	15.8	0.00e+00	0	43	0	394264576	12	4363
2026-01-23 01:24:09.03	31.08	12.79	-26.1	-27.5	16.0	0.00e+00	0	43	0	400556032	12	4257
2026-01-23 01:24:10.03	31.17	12.88	-25.9	-27.1	16.2	0.00e+00	0	43	0	405798912	12	4147
2026-01-23 01:24:11.03	31.26	12.97	-25.9	-27.0	16.3	0.00e+00	0	43	0	411041792	12	4120
2026-01-23 01:24:12.04	31.35	13.05	-25.9	-27.1	16.3	0.00e+00	0	43	0	417333248	12	4142
2026-01-23 01:24:13.05	31.45	13.14	-26.0	-27.3	16.1	0.00e+00	0	43	0	422576128	12	4199
2026-01-23 01:24:14.05	31.54	13.23	-26.0	-27.2	16.2	0.00e+00	0	43	0	428867584	12	4161
2026-01-23 01:24:15.05	31.64	13.32	-26.2	-27.8	15.9	0.00e+00	0	43	0	434110464	12	4312
2026-01-23 01:24:16.06	31.73	13.40	-25.9	-27.1	16.3	0.00e+00	0	43	0	440401920	12	4138
2026-01-23 01:24:17.07	31.83	13.49	-25.8	-26.8	16.4	0.00e+00	0	43	0	445644800	12	4071
2026-01-23 01:24:18.07	31.93	13.58	-25.7	-26.7	16.5	0.00e+00	0	43	0	450887680	12	4041
2026-01-23 01:24:19.08	32.03	13.67	-25.9	-27.1	16.3	0.00e+00	0	43	0	457179136	12	4127
2026-01-23 01:24:20.08	32.12	13.76	-25.7	-26.7	16.5	0.00e+00	0	44	0	462422016	12	4021
2026-01-23 01:24:21.08	32.22	13.85	-25.7	-26.7	16.5	0.00e+00	0	43	0	467664896	12	4035
2026-01-23 01:24:22.08	32.32	13.94	-25.8	-27.0	16.4	0.00e+00	0	44	0	473956352	12	4107
2026-01-23 01:24:23.08	32.42	14.03	-25.7	-26.6	16.6	0.00e+00	0	43	0	479199232	12	3993
2026-01-23 01:24:24.08	32.52	14.11	-25.5	-26.3	16.8	0.00e+00	0	43	0	485490688	12	3929
2026-01-23 01:24:25.09	32.62	14.21	-25.6	-26.4	16.7	0.00e+00	0	44	0	490733568	12	3959
2026-01-23 01:24:26.10	32.72	14.30	-25.7	-26.7	16.5	0.00e+00	0	43	0	495976448	12	4030
2026-01-23 01:24:27.10	32.82	14.39	-25.8	-26.8	16.5	0.00e+00	0	44	0	502267904	12	4067
2026-01-23 01:24:28.10	32.93	14.48	-25.7	-26.8	16.5	0.00e+00	0	43	0	507510784	12	4050
2026-01-23 01:24:29.11	33.03	14.57	-25.8	-26.8	16.5	0.00e+00	0	44	0	513802240	12	4067
2026-01-23 01:24:30.11	33.13	14.66	-25.7	-26.7	16.5	0.00e+00	0	44	0	519045120	12	4035
2026-01-23 01:24:31.12	33.24	14.75	-25.8	-27.0	16.4	0.00e+00	0	44	0	524288000	12	4102
2026-01-23 01:24:32.12	33.34	14.84	-25.8	-26.8	16.5	0.00e+00	0	44	0	530579456	12	4070
2026-01-23 01:24:33.12	33.45	14.93	-25.8	-27.0	16.4	2.89e-04	0	44	0	535822336	12	4096
2026-01-23 01:24:34.12	33.55	15.03	-25.7	-26.7	16.6	0.00e+00	0	44	0	541065216	12	4030
2026-01-23 01:24:35.13	33.66	15.12	-25.6	-26.4	16.7	1.96e-04	0	44	0	547356672	12	3971
2026-01-23 01:24:36.14	33.77	15.21	-25.7	-26.6	16.7	0.00e+00	0	44	0	552599552	12	4000
2026-01-23 01:24:37.14	33.88	15.31	-25.6	-26.4	16.8	0.00e+00	0	44	0	558891008	12	3946
2026-01-23 01:24:38.14	33.98	15.40	-25.6	-26.4	16.7	0.00e+00	0	44	0	564133888	12	3969
2026-01-23 01:24:39.14	34.09	15.49	-25.7	-26.7	16.5	1.81e-04	0	44	0	569376768	12	4029
2026-01-23 01:24:40.13	34.20	15.59	-25.6	-26.4	16.7	0.00e+00	0	44	0	575668224	12	3972
2026-01-23 01:24:41.13	34.31	15.68	-25.5	-26.3	16.8	0.00e+00	0	44	0	580911104	12	3935
2026-01-23 01:24:42.14	34.42	15.77	-25.5	-26.2	16.8	7.32e-05	0	44	0	587202560	12	3898
2026-01-23 01:24:43.14	34.54	15.87	-25.6	-26.4	16.8	0.00e+00	0	44	0	592445440	12	3966
2026-01-23 01:24:44.15	34.65	15.96	-25.7	-26.6	16.6	6.98e-05	0	44	0	597688320	12	4017
2026-01-23 01:24:45.15	34.76	16.06	-25.5	-26.3	16.8	1.20e-04	0	44	0	603979776	12	3924
2026-01-23 01:24:46.16	34.88	16.16	-25.7	-26.7	16.6	0.00e+00	0	44	0	609222656	12	4023
2026-01-23 01:24:47.16	34.99	16.25	-25.4	-26.0	17.0	1.59e-04	0	44	0	614465536	12	3864
2026-01-23 01:24:48.16	35.11	16.35	-25.3	-26.3	17.2	0.00e+00	0	44	0	620756992	11	4035
2026-01-23 01:24:49.17	35.22	16.44	-25.5	-26.7	17.0	0.00e+00	0	44	0	625999872	11	4130
2026-01-23 01:24:50.17	35.34	16.54	-25.3	-26.3	17.2	1.06e-04	0	44	0	631242752	11	4037
2026-01-23 01:24:51.17	35.46	16.64	-25.3	-26.4	17.1	1.71e-05	0	44	0	637534208	11	4062
2026-01-23 01:24:52.17	35.58	16.73	-25.4	-26.6	17.0	0.00e+00	0	44	0	642777088	11	4113
2026-01-23 01:24:53.17	35.70	16.83	-25.5	-26.6	17.0	0.00e+00	0	44	0	649068544	11	4119
2026-01-23 01:24:54.18	35.82	16.93	-25.5	-26.8	16.9	0.00e+00	0	44	0	654311424	11	4151
2026-01-23 01:24:55.18	35.94	17.03	-25.4	-26.5	17.1	0.00e+00	0	44	0	659554304	11	4091
2026-01-23 01:24:56.19	36.06	17.13	-25.3	-26.3	17.2	6.63e-05	0	44	0	665845760	11	4045
2026-01-23 01:24:57.19	36.18	17.23	-25.4	-26.4	17.1	0.00e+00	0	44	0	671088640	11	4063
2026-01-23 01:24:58.19	36.30	17.32	-25.4	-26.5	17.1	3.40e-06	0	44	0	677380096	11	4090
2026-01-23 01:24:59.19	36.43	17.42	-25.3	-26.3	17.2	1.83e-05	0	44	0	682622976	11	4028
2026-01-23 01:25:00.19	36.55	17.52	-25.3	-26.3	17.2	0.00e+00	0	44	0	687865856	11	4031
2026-01-23 01:25:01.20	36.68	17.62	-25.4	-26.4	17.2	0.00e+00	0	44	0	694157312	11	4059
2026-01-23 01:25:02.21	36.80	17.72	-25.4	-26.4	17.2	0.00e+00	0	44	0	699400192	11	4065
2026-01-23 01:25:03.22	36.93	17.82	-25.5	-26.7	17.0	4.23e-05	0	44	0	704643072	11	4127
2026-01-23 01:25:04.22	37.06	17.92	-25.1	-25.9	17.4	0.00e+00	0	44	0	710934528	11	3945
2026-01-23 01:25:05.22	37.19	18.02	-25.0	-25.7	17.5	3.40e-06	0	44	0	716177408	11	3897
2026-01-23 01:25:06.23	37.32	18.13	-25.0	-25.6	17.5	2.20e-06	0	44	0	722468864	11	3868
2026-01-23 01:25:07.22	37.44	18.23	-25.0	-25.6	17.6	0.00e+00	0	44	0	727711744	11	3862
2026-01-23 01:25:08.22	37.58	18.33	-25.1	-25.8	17.5	3.40e-06	0	44	0	732954624	11	3916
2026-01-23 01:25:09.23	37.71	18.43	-25.1	-25.9	17.4	0.00e+00	0	44	0	739246080	11	3942
2026-01-23 01:25:10.22	37.84	18.53	-25.0	-25.6	17.6	0.00e+00	0	44	0	744488960	11	3856
2026-01-23 01:25:11.23	37.97	18.63	-24.8	-25.3	17.7	0.00e+00	0	44	0	749731840	11	3789
2026-01-23 01:25:12.23	38.11	18.74	-24.9	-25.4	17.7	1.60e-05	0	44	0	756023296	11	3815
2026-01-23 01:25:13.24	38.24	18.84	-24.9	-25.4	17.7	0.00e+00	0	44	0	761266176	11	3825
2026-01-23 01:25:14.24	38.38	18.94	-25.0	-25.6	17.6	0.00e+00	0	44	0	767557632	11	3869
2026-01-23 01:25:15.24	38.52	19.05	-25.0	-25.6	17.6	4.69e-05	0	44	0	772800512	11	3878
2026-01-23 01:25:16.25	38.66	19.15	-25.0	-25.6	17.6	0.00e+00	0	44	0	778043392	11	3869
2026-01-23 01:25:17.25	38.79	19.26	-24.8	-25.3	17.8	4.11e-05	0	44	0	784334848	11	3791
2026-01-23 01:25:18.25	38.93	19.36	-24.8	-25.8	17.8	0.00e+00	0	44	0	789577728	10	4010
2026-01-23 01:25:19.25	39.07	19.46	-24.8	-25.7	17.9	0.00e+00	0	44	0	795869184	10	3989
2026-01-23 01:25:20.26	39.22	19.57	-24.6	-25.3	18.1	0.00e+00	0	44	0	801112064	10	3899
2026-01-23 01:25:21.27	39.36	19.68	-24.6	-25.4	18.0	0.00e+00	0	44	0	806354944	10	3909
2026-01-23 01:25:22.27	39.50	19.78	-24.7	-25.5	18.0	0.00e+00	0	44	0	812646400	10	3946
2026-01-23 01:25:23.27	39.65	19.89	-24.5	-25.1	18.2	0.00e+00	0	44	0	817889280	10	3844
2026-01-23 01:25:24.28	39.79	19.99	-24.4	-25.0	18.3	0.00e+00	0	44	0	823132160	10	3814
2026-01-23 01:25:25.28	39.94	20.10	-24.5	-25.0	18.3	0.00e+00	0	44	0	829423616	10	3829
2026-01-23 01:25:26.29	40.09	20.21	-24.5	-25.1	18.2	0.00e+00	0	44	0	834666496	10	3858
2026-01-23 01:25:27.28	40.24	20.31	-24.6	-25.2	18.1	0.00e+00	0	44	0	839909376	10	3871
2026-01-23 01:25:28.29	40.39	20.42	-24.7	-25.5	18.0	0.00e+00	0	44	0	846200832	10	3956
2026-01-23 01:25:29.28	40.54	20.53	-24.6	-25.3	18.1	0.00e+00	0	44	0	851443712	10	3902
2026-01-23 01:25:30.28	40.69	20.64	-24.7	-25.6	18.0	0.00e+00	0	44	0	857735168	10	3964
2026-01-23 01:25:31.29	40.84	20.74	-24.8	-25.8	17.8	0.00e+00	0	44	0	862978048	10	4018
2026-01-23 01:25:32.29	40.99	20.85	-24.7	-25.6	18.0	0.00e+00	0	44	0	869269504	10	3961
2026-01-23 01:25:33.30	41.15	20.96	-24.7	-25.4	18.1	0.00e+00	0	44	0	874512384	10	3923
2026-01-23 01:25:34.30	41.30	21.07	-24.7	-25.5	18.0	0.00e+00	0	44	0	879755264	10	3932
2026-01-23 01:25:35.31	41.46	21.18	-24.6	-25.2	18.1	0.00e+00	0	44	0	886046720	10	3883
2026-01-23 01:25:36.32	41.62	21.29	-24.6	-25.2	18.1	0.00e+00	0	44	0	891289600	10	3878
2026-01-23 01:25:37.32	41.78	21.40	-24.4	-24.9	18.3	0.00e+00	0	44	0	896532480	10	3808
2026-01-23 01:25:38.32	41.94	21.51	-24.4	-24.8	18.4	0.00e+00	0	44	0	902823936	10	3784
2026-01-23 01:25:39.32	42.10	21.62	-24.4	-24.8	18.3	0.00e+00	0	44	0	908066816	10	3788
2026-01-23 01:25:40.33	42.26	21.73	-24.4	-24.8	18.4	0.00e+00	0	44	0	914358272	10	3788
2026-01-23 01:25:41.33	42.43	21.84	-24.1	-24.8	18.6	0.00e+00	0	44	0	919601152	9	3889
2026-01-23 01:25:42.34	42.59	21.95	-24.1	-24.7	18.7	0.00e+00	0	44	0	925892608	9	3863
2026-01-23 01:25:43.33	42.76	22.06	-24.2	-24.9	18.6	0.00e+00	0	44	0	931135488	9	3902
2026-01-23 01:25:44.34	42.92	22.18	-24.2	-24.8	18.6	0.00e+00	0	44	0	936378368	9	3888
2026-01-23 01:25:45.33	43.09	22.29	-24.2	-24.9	18.6	0.00e+00	0	44	0	941621248	9	3919
2026-01-23 01:25:46.33	43.26	22.40	-24.2	-25.0	18.5	0.00e+00	0	44	0	947912704	9	3943
2026-01-23 01:25:47.34	43.43	22.51	-24.2	-24.9	18.6	0.00e+00	0	44	0	953155584	9	3898
2026-01-23 01:25:48.33	43.60	22.62	-24.1	-24.7	18.7	0.00e+00	0	44	0	958398464	9	3855
2026-01-23 01:25:49.33	43.77	22.73	-24.1	-24.7	18.7	0.00e+00	0	44	0	964689920	9	3852
2026-01-23 01:25:50.33	43.95	22.85	-24.1	-24.7	18.7	0.00e+00	0	44	0	969932800	9	3867
2026-01-23 01:25:51.33	44.12	22.96	-23.9	-24.2	19.0	0.00e+00	0	44	0	976224256	9	3751
2026-01-23 01:25:52.33	44.30	23.07	-23.9	-24.2	19.0	0.00e+00	0	44	0	981467136	9	3740
2026-01-23 01:25:53.34	44.48	23.19	-23.9	-24.2	19.0	0.00e+00	0	44	0	987758592	9	3747
2026-01-23 01:25:54.34	44.66	23.30	-23.9	-24.2	19.0	0.00e+00	0	44	0	993001472	9	3740
2026-01-23 01:25:55.34	44.84	23.41	-23.9	-24.3	18.9	0.00e+00	0	44	0	998244352	9	3768
2026-01-23 01:25:56.34	45.02	23.53	-23.9	-24.3	19.0	0.00e+00	0	44	0	1004535808	9	3767
2026-01-23 01:25:57.35	45.20	23.64	-23.9	-24.8	18.9	0.00e+00	0	44	0	1009778688	8	4000
2026-01-23 01:25:58.35	45.38	23.76	-23.9	-24.8	19.0	0.00e+00	0	44	0	1015021568	8	3981
2026-01-23 01:25:59.35	45.57	23.87	-24.0	-25.0	18.9	0.00e+00	0	44	0	1021313024	8	4029
2026-01-23 01:26:00.35	45.76	23.99	-23.9	-24.7	19.0	0.00e+00	0	44	0	1026555904	8	3973
2026-01-23 01:26:01.34	45.94	24.10	-23.9	-24.8	19.0	0.00e+00	0	44	0	1031798784	8	3982
2026-01-23 01:26:02.35	46.13	24.22	-24.0	-25.0	18.8	0.00e+00	0	44	0	1038090240	8	4047
2026-01-23 01:26:03.35	46.32	24.33	-24.1	-25.2	18.8	0.00e+00	0	44	0	1043333120	8	4074
2026-01-23 01:26:04.36	46.52	24.45	-23.8	-24.7	19.0	0.00e+00	0	44	0	1049624576	8	3956
2026-01-23 01:26:05.35	46.71	24.56	-23.8	-24.6	19.1	0.00e+00	0	44	0	1054867456	8	3934
2026-01-23 01:26:06.36	46.91	24.68	-23.8	-24.5	19.1	0.00e+00	0	44	0	1060110336	8	3925
2026-01-23 01:26:07.36	47.10	24.80	-23.8	-24.6	19.1	0.00e+00	0	44	0	1066401792	8	3928
2026-01-23 01:26:08.37	47.30	24.92	-23.7	-24.3	19.2	0.00e+00	0	44	0	1071644672	8	3880
2026-01-23 01:26:09.37	47.50	25.03	-23.7	-24.3	19.2	0.00e+00	0	44	0	1076887552	8	3870
2026-01-23 01:26:10.37	47.70	25.15	-23.7	-24.4	19.2	0.00e+00	0	44	0	1083179008	8	3895
2026-01-23 01:26:11.38	47.90	25.27	-23.5	-24.0	19.4	0.00e+00	0	44	0	1088421888	8	3796
2026-01-23 01:26:12.39	48.11	25.38	-23.5	-23.9	19.5	0.00e+00	0	44	0	1094713344	8	3767
2026-01-23 01:26:13.39	48.31	25.50	-23.6	-24.1	19.3	0.00e+00	0	44	0	1099956224	8	3823
2026-01-23 01:26:14.40	48.52	25.62	-23.6	-24.2	19.1	0.00e+00	0	44	0	1105199104	8	3853
2026-01-23 01:26:15.40	48.73	25.74	-23.5	-23.9	19.4	0.00e+00	0	44	0	1111490560	8	3790
2026-01-23 01:26:16.40	48.94	25.86	-23.5	-24.0	19.4	0.00e+00	0	44	0	1116733440	8	3802
2026-01-23 01:26:17.40	49.15	25.97	-23.6	-24.1	19.4	0.00e+00	0	44	0	1123024896	8	3814
2026-01-23 01:26:18.41	49.36	26.09	-23.6	-24.2	19.3	0.00e+00	0	44	0	1128267776	8	3841
2026-01-23 01:26:19.41	49.58	26.21	-23.4	-23.8	19.5	0.00e+00	0	44	0	1133510656	8	3752
2026-01-23 01:26:20.41	49.79	26.33	-23.5	-24.3	19.5	0.00e+00	0	44	0	1139802112	7	3990
2026-01-23 01:26:21.42	50.01	26.45	-23.5	-24.5	19.4	0.00e+00	0	44	0	1145044992	7	4033
2026-01-23 01:26:22.42	50.23	26.57	-23.6	-24.6	19.3	0.00e+00	0	44	0	1150287872	7	4045
2026-01-23 01:26:23.42	50.45	26.68	-23.5	-24.5	19.3	0.00e+00	0	44	0	1156579328	7	4033
2026-01-23 01:26:24.43	50.68	26.80	-23.6	-24.6	19.3	0.00e+00	0	44	0	1161822208	7	4043
2026-01-23 01:26:25.44	50.90	26.92	-23.5	-24.5	19.4	2.73e-04	0	44	0	1168113664	7	4016
2026-01-23 01:26:26.44	51.13	27.04	-23.5	-24.5	19.4	2.10e-04	0	44	0	1173356544	7	4028
2026-01-23 01:26:27.44	51.35	27.16	-23.5	-24.5	19.4	0.00e+00	0	44	0	1178599424	7	4027
2026-01-23 01:26:28.45	51.58	27.28	-23.4	-24.3	19.5	3.31e-05	0	44	0	1184890880	7	3982
2026-01-23 01:26:29.45	51.81	27.40	-23.5	-24.5	19.4	0.00e+00	0	44	0	1190133760	7	4025
2026-01-23 01:26:30.44	52.04	27.52	-23.6	-24.6	19.3	0.00e+00	0	44	0	1196425216	7	4054
2026-01-23 01:26:31.45	52.28	27.64	-23.7	-24.8	19.2	0.00e+00	0	44	0	1201668096	7	4108
2026-01-23 01:26:32.45	52.52	27.75	-23.6	-24.6	19.3	2.97e-05	0	44	0	1206910976	7	4058
2026-01-23 01:26:33.45	52.75	27.87	-23.4	-24.3	19.5	0.00e+00	0	44	0	1213202432	7	3967
2026-01-23 01:26:34.46	52.99	27.99	-23.3	-24.0	19.7	0.00e+00	0	44	0	1218445312	7	3913
2026-01-23 01:26:35.46	53.23	28.11	-23.3	-24.0	19.7	0.00e+00	0	44	0	1223688192	7	3916
2026-01-23 01:26:36.46	53.48	28.23	-23.2	-23.8	19.7	0.00e+00	0	44	0	1229979648	7	3867
2026-01-23 01:26:37.47	53.72	28.35	-23.2	-23.8	19.8	3.40e-06	0	44	0	1235222528	7	3855
2026-01-23 01:26:38.47	53.97	28.47	-23.2	-23.7	19.8	0.00e+00	0	44	0	1240465408	7	3838
2026-01-23 01:26:39.48	54.22	28.59	-23.2	-23.8	19.8	0.00e+00	0	44	0	1246756864	7	3861
2026-01-23 01:26:40.48	54.47	28.71	-23.2	-23.8	19.7	0.00e+00	0	44	0	1251999744	7	3865
2026-01-23 01:26:41.49	54.72	28.83	-23.2	-23.8	19.8	0.00e+00	0	44	0	1258291200	7	3862
2026-01-23 01:26:42.50	54.98	28.95	-23.0	-23.4	20.0	0.00e+00	0	44	0	1263534080	7	3777
2026-01-23 01:26:43.50	55.23	29.06	-22.8	-23.0	20.1	0.00e+00	0	44	0	1269825536	7	3686
2026-01-23 01:26:44.50	55.49	29.18	-22.7	-23.3	20.2	0.00e+00	0	44	0	1275068416	6	3847
2026-01-23 01:26:45.50	55.75	29.30	-22.8	-23.5	20.1	0.00e+00	0	44	0	1280311296	6	3898
2026-01-23 01:26:46.50	56.01	29.42	-23.0	-23.9	19.9	0.00e+00	0	44	0	1286602752	6	3990
2026-01-23 01:26:47.51	56.27	29.54	-23.2	-24.3	19.8	0.00e+00	0	44	0	1291845632	6	4096
2026-01-23 01:26:48.51	56.54	29.65	-23.4	-24.7	19.6	0.00e+00	0	44	0	1297088512	6	4185
2026-01-23 01:26:49.51	56.80	29.77	-23.2	-24.2	19.8	0.00e+00	0	44	0	1303379968	6	4072
2026-01-23 01:26:50.52	57.07	29.89	-22.9	-23.8	20.0	0.00e+00	0	44	0	1308622848	6	3969
2026-01-23 01:26:51.53	57.35	30.01	-22.9	-23.8	20.0	0.00e+00	0	44	0	1313865728	6	3966
2026-01-23 01:26:52.52	57.62	30.12	-23.0	-23.8	20.0	2.51e-05	0	44	0	1320157184	6	3970
2026-01-23 01:26:53.53	57.89	30.24	-22.9	-23.8	20.0	4.00e-05	0	44	0	1325400064	6	3966
2026-01-23 01:26:54.53	58.17	30.36	-23.0	-23.8	20.0	0.00e+00	0	44	0	1331691520	6	3978
2026-01-23 01:26:55.54	58.45	30.48	-22.9	-23.8	20.0	0.00e+00	0	44	0	1336934400	6	3964
2026-01-23 01:26:56.54	58.73	30.59	-23.0	-23.9	20.0	1.62e-04	0	44	0	1343225856	6	3988
2026-01-23 01:26:57.55	59.02	30.71	-23.0	-23.9	20.0	0.00e+00	0	44	0	1348468736	6	3987
2026-01-23 01:26:58.55	59.30	30.82	-23.0	-24.0	20.0	2.60e-04	0	44	0	1353711616	6	4009
2026-01-23 01:26:59.56	59.59	30.94	-23.2	-24.3	19.8	0.00e+00	0	44	0	1360003072	6	4084
2026-01-23 01:27:00.56	59.88	31.05	-23.2	-24.4	19.8	0.00e+00	0	44	0	1365245952	6	4116
2026-01-23 01:27:01.57	60.17	31.17	-23.3	-24.4	19.7	2.97e-04	0	44	0	1370488832	6	4120
2026-01-23 01:27:02.57	60.46	31.28	-23.4	-24.7	19.6	0.00e+00	0	44	0	1376780288	6	4185
2026-01-23 01:27:03.57	60.75	31.40	-23.4	-24.8	19.6	0.00e+00	0	44	0	1382023168	6	4207
2026-01-23 01:27:04.58	61.05	31.51	-23.5	-24.9	19.5	0.00e+00	0	44	0	1387266048	6	4234
2026-01-23 01:27:05.58	61.35	31.63	-23.7	-24.8	19.3	2.84e-04	0	44	0	1393557504	7	4109
2026-01-23 01:27:06.58	61.65	31.74	-23.7	-24.9	19.3	0.00e+00	0	44	0	1398800384	7	4117
2026-01-23 01:27:07.58	61.95	31.85	-23.3	-24.1	19.7	0.00e+00	0	44	0	1405091840	7	3918
2026-01-23 01:27:08.58	62.26	31.96	-23.0	-23.3	20.0	2.37e-04	0	44	0	1410334720	7	3752
2026-01-23 01:27:09.57	62.56	32.07	-22.9	-23.1	20.1	0.00e+00	0	44	0	1415577600	7	3707
2026-01-23 01:27:10.57	62.87	32.18	-23.0	-23.3	20.1	1.15e-04	0	44	0	1421869056	7	3753
2026-01-23 01:27:11.58	63.18	32.29	-23.1	-23.7	19.9	0.00e+00	0	44	0	1427111936	7	3838
2026-01-23 01:27:12.58	63.50	32.40	-23.2	-23.8	19.8	0.00e+00	0	44	0	1432354816	7	3859
2026-01-23 01:27:13.58	63.81	32.51	-23.2	-23.8	19.8	0.00e+00	0	44	0	1438646272	7	3860
2026-01-23 01:27:14.58	64.13	32.62	-23.1	-23.7	19.9	0.00e+00	0	44	0	1443889152	7	3825
2026-01-23 01:27:15.59	64.45	32.73	-23.1	-23.5	19.9	0.00e+00	0	44	0	1450180608	7	3803
2026-01-23 01:27:16.60	64.77	32.84	-23.1	-23.7	19.9	0.00e+00	0	44	0	1455423488	7	3831
2026-01-23 01:27:17.60	65.10	32.95	-23.2	-23.9	19.8	0.00e+00	0	44	0	1460666368	7	3876
2026-01-23 01:27:18.61	65.43	33.05	-23.2	-23.9	19.8	0.00e+00	0	44	0	1466957824	7	3889
2026-01-23 01:27:19.61	65.75	33.16	-23.1	-23.6	19.9	0.00e+00	0	44	0	1472200704	7	3819
2026-01-23 01:27:20.62	66.09	33.27	-22.8	-23.0	20.2	0.00e+00	0	44	0	1478492160	7	3670
2026-01-23 01:27:21.62	66.42	33.37	-22.7	-23.3	20.3	0.00e+00	0	44	0	1483735040	6	3852
2026-01-23 01:27:22.62	66.75	33.47	-22.8	-23.4	20.2	0.00e+00	0	44	0	1488977920	6	3881
2026-01-23 01:27:23.63	67.09	33.58	-22.9	-23.7	20.1	0.00e+00	0	44	0	1495269376	6	3958
2026-01-23 01:27:24.63	67.43	33.68	-23.1	-24.2	19.9	0.00e+00	0	44	0	1500512256	6	4057
2026-01-23 01:27:25.63	67.77	33.78	-23.1	-24.1	19.9	0.00e+00	0	44	0	1505755136	6	4052
2026-01-23 01:27:26.63	68.11	33.88	-23.1	-24.0	20.0	0.00e+00	0	44	0	1512046592	6	4021
2026-01-23 01:27:27.63	68.45	33.98	-23.1	-24.1	20.0	0.00e+00	0	44	0	1517289472	6	4037
2026-01-23 01:27:28.63	68.80	34.08	-22.9	-23.6	20.2	0.00e+00	0	44	0	1522532352	6	3925
2026-01-23 01:27:29.63	69.15	34.18	-22.7	-23.3	20.4	0.00e+00	0	44	0	1528823808	6	3842
2026-01-23 01:27:30.64	69.50	34.28	-22.8	-23.5	20.0	0.00e+00	0	44	0	1534066688	6	3901
2026-01-23 01:27:31.65	69.86	34.37	-22.9	-23.8	19.9	0.00e+00	0	44	0	1540358144	6	3984
2026-01-23 01:27:32.65	70.21	34.47	-22.9	-23.7	19.9	0.00e+00	0	44	0	1545601024	6	3970
2026-01-23 01:27:33.65	70.57	34.57	-22.8	-23.6	20.0	0.00e+00	0	44	0	1551892480	6	3934
2026-01-23 01:27:34.65	70.93	34.66	-22.9	-23.8	19.9	0.00e+00	0	44	0	1557135360	6	3974
2026-01-23 01:27:35.66	71.29	34.75	-22.8	-23.6	20.0	0.00e+00	0	44	0	1562378240	6	3949
2026-01-23 01:27:36.66	71.66	34.84	-22.7	-23.4	20.1	0.00e+00	0	44	0	1568669696	6	3884
2026-01-23 01:27:37.66	72.02	34.94	-22.7	-23.3	20.2	0.00e+00	0	44	0	1573912576	6	3858
2026-01-23 01:27:38.66	72.39	35.03	-22.6	-23.1	20.3	0.00e+00	0	44	0	1579155456	6	3815
2026-01-23 01:27:39.66	72.76	35.11	-22.6	-23.2	20.2	0.00e+00	0	44	0	1585446912	6	3843
2026-01-23 01:27:40.66	73.13	35.20	-22.8	-23.5	20.1	0.00e+00	0	44	0	1590689792	6	3911
2026-01-23 01:27:41.67	73.50	35.29	-23.0	-24.1	19.8	0.00e+00	0	44	0	1595932672	6	4051
2026-01-23 01:27:42.67	73.88	35.37	-22.9	-23.9	19.9	0.00e+00	0	44	0	1602224128	6	4006
2026-01-23 01:27:43.67	74.26	35.46	-22.7	-23.3	20.2	0.00e+00	0	44	0	1607467008	6	3859
2026-01-23 01:27:44.67	74.63	35.54	-22.6	-23.1	20.3	0.00e+00	0	44	0	1613758464	6	3820
2026-01-23 01:27:45.68	75.02	35.63	-22.7	-23.3	20.2	0.00e+00	0	44	0	1619001344	6	3870
2026-01-23 01:27:46.68	75.40	35.71	-22.7	-23.3	20.2	0.00e+00	0	44	0	1624244224	6	3865
2026-01-23 01:27:47.69	75.79	35.79	-22.7	-23.4	20.1	0.00e+00	0	44	0	1630535680	6	3881
2026-01-23 01:27:48.70	76.18	35.87	-22.7	-23.3	20.2	0.00e+00	0	44	0	1635778560	6	3869
2026-01-23 01:27:49.70	76.57	35.94	-22.6	-23.0	20.3	0.00e+00	0	44	0	1642070016	6	3801
2026-01-23 01:27:50.71	76.96	36.02	-22.6	-23.1	20.3	0.00e+00	0	44	0	1647312896	6	3811
2026-01-23 01:27:51.71	77.35	36.09	-22.4	-22.8	20.4	0.00e+00	0	44	0	1652555776	6	3742
2026-01-23 01:27:52.72	77.75	36.17	-22.4	-22.7	20.5	0.00e+00	0	44	0	1658847232	6	3719
2026-01-23 01:27:53.72	78.14	36.24	-22.5	-23.4	20.4	0.00e+00	0	44	0	1664090112	5	4004
2026-01-23 01:27:54.72	78.54	36.31	-22.8	-24.0	20.0	0.00e+00	0	44	0	1669332992	5	4154
2026-01-23 01:27:55.73	78.94	36.38	-22.8	-24.1	20.0	0.00e+00	0	44	0	1675624448	5	4172
2026-01-23 01:27:56.73	79.34	36.45	-22.7	-23.8	20.1	0.00e+00	0	44	0	1680867328	5	4098
2026-01-23 01:27:57.73	79.75	36.52	-22.6	-23.6	20.2	0.00e+00	0	44	0	1687158784	5	4049
2026-01-23 01:27:58.73	80.15	36.58	-22.5	-23.4	20.3	0.00e+00	0	44	0	1692401664	5	4002
2026-01-23 01:27:59.74	80.56	36.64	-22.4	-23.3	20.4	0.00e+00	0	44	0	1698693120	5	3968
2026-01-23 01:28:00.74	80.97	36.71	-22.5	-23.4	20.3	0.00e+00	0	44	0	1703936000	5	4000
2026-01-23 01:28:01.74	81.37	36.77	-22.5	-23.5	20.3	0.00e+00	0	44	0	1709178880	5	4023
2026-01-23 01:28:02.75	81.79	36.83	-22.7	-23.9	20.1	0.00e+00	0	44	0	1715470336	5	4134
2026-01-23 01:28:03.75	82.20	36.89	-22.7	-23.9	20.1	0.00e+00	0	44	0	1720713216	5	4130
2026-01-23 01:28:04.76	82.62	36.94	-22.6	-23.6	20.2	2.20e-06	0	44	0	1725956096	5	4048
2026-01-23 01:28:05.77	83.03	37.00	-22.5	-23.5	20.3	0.00e+00	0	44	0	1732247552	5	4023
2026-01-23 01:28:06.77	83.45	37.05	-22.7	-23.8	20.2	0.00e+00	0	44	0	1737490432	5	4083
2026-01-23 01:28:07.78	83.87	37.10	-22.4	-23.2	20.5	0.00e+00	0	44	0	1742733312	5	3947
2026-01-23 01:28:08.78	84.29	37.15	-22.3	-22.9	20.6	0.00e+00	0	44	0	1749024768	5	3881
2026-01-23 01:28:09.79	84.71	37.20	-22.3	-23.0	20.5	1.37e-05	0	44	0	1754267648	5	3909
2026-01-23 01:28:10.79	85.13	37.25	-22.5	-23.4	20.4	0.00e+00	0	44	0	1760559104	5	3995
2026-01-23 01:28:11.80	85.56	37.29	-22.7	-23.9	20.1	0.00e+00	0	44	0	1765801984	5	4124
2026-01-23 01:28:12.80	85.98	37.34	-22.6	-23.7	20.2	0.00e+00	0	44	0	1772093440	5	4070
2026-01-23 01:28:13.80	86.41	37.38	-22.5	-23.3	20.3	1.81e-04	0	44	0	1777336320	5	3986
2026-01-23 01:28:14.81	86.83	37.42	-22.5	-23.4	20.3	0.00e+00	0	44	0	1782579200	5	3987
2026-01-23 01:28:15.81	87.26	37.46	-22.5	-23.5	20.3	0.00e+00	0	44	0	1788870656	5	4027
2026-01-23 01:28:16.81	87.69	37.49	-22.9	-24.2	19.9	9.72e-05	0	44	0	1794113536	5	4209
2026-01-23 01:28:17.81	88.12	37.53	-22.8	-24.0	20.0	0.00e+00	0	44	0	1799356416	5	4160
2026-01-23 01:28:18.82	88.55	37.56	-22.5	-23.4	20.3	4.23e-05	0	44	0	1805647872	5	3990
2026-01-23 01:28:19.83	88.98	37.59	-22.3	-23.1	20.5	0.00e+00	0	44	0	1810890752	5	3927
2026-01-23 01:28:20.83	89.41	37.62	-22.4	-23.3	20.4	0.00e+00	0	44	0	1817182208	5	3966
2026-01-23 01:28:21.84	89.85	37.65	-22.4	-23.2	20.4	0.00e+00	0	44	0	1822425088	5	3963
2026-01-23 01:28:22.84	90.28	37.68	-22.5	-23.4	20.3	0.00e+00	0	44	0	1828716544	5	3996
2026-01-23 01:28:23.85	90.72	37.70	-22.5	-23.5	20.3	0.00e+00	0	44	0	1833959424	5	4021
2026-01-23 01:28:24.85	91.15	37.72	-22.3	-23.1	20.5	4.00e-05	0	44	0	1839202304	5	3919
2026-01-23 01:28:25.86	91.59	37.74	-22.3	-23.0	20.5	1.25e-05	0	44	0	1845493760	5	3900
2026-01-23 01:28:26.87	92.03	37.76	-22.3	-23.1	20.5	0.00e+00	0	44	0	1850736640	5	3918
2026-01-23 01:28:27.87	92.46	37.78	-22.2	-22.9	20.6	0.00e+00	0	44	0	1855979520	5	3869
2026-01-23 01:28:28.87	92.90	37.79	-22.2	-22.8	20.7	0.00e+00	0	44	0	1862270976	5	3848
2026-01-23 01:28:29.87	93.33	37.81	-22.4	-23.1	20.5	0.00e+00	0	44	0	1867513856	5	3924
2026-01-23 01:28:30.87	93.77	37.82	-22.4	-23.1	20.5	0.00e+00	0	44	0	1872756736	5	3937
2026-01-23 01:28:31.87	94.21	37.83	-22.5	-23.5	20.3	0.00e+00	0	44	0	1879048192	5	4034
2026-01-23 01:28:32.87	94.64	37.84	-22.4	-23.2	20.5	0.00e+00	0	44	0	1884291072	5	3953
2026-01-23 01:28:33.87	95.08	37.84	-22.3	-22.9	20.6	0.00e+00	0	44	0	1890582528	5	3888
2026-01-23 01:28:34.88	95.52	37.85	-22.3	-23.1	20.5	0.00e+00	0	44	0	1895825408	5	3923
2026-01-23 01:28:35.89	95.96	37.85	-22.4	-23.2	20.4	0.00e+00	0	44	0	1902116864	5	3953
2026-01-23 01:28:36.89	96.40	37.85	-22.7	-23.8	20.1	0.00e+00	0	44	0	1907359744	5	4102
2026-01-23 01:28:37.89	96.84	37.85	-22.5	-23.5	20.2	0.00e+00	0	44	0	1912602624	5	4039
2026-01-23 01:28:38.90	97.28	37.85	-22.4	-23.2	20.4	0.00e+00	0	44	0	1918894080	5	3942
2026-01-23 01:28:39.90	97.72	37.84	-22.4	-23.2	20.4	0.00e+00	0	44	0	1924136960	5	3961
2026-01-23 01:28:40.89	98.15	37.83	-22.6	-23.7	20.2	0.00e+00	0	44	0	1929379840	5	4056
2026-01-23 01:28:41.89	98.58	37.82	-22.4	-23.1	20.4	0.00e+00	0	44	0	1935671296	5	3935
2026-01-23 01:28:42.90	99.03	37.81	-22.2	-22.7	20.7	0.00e+00	0	44	0	1940914176	5	3845
2026-01-23 01:28:43.90	99.46	37.80	-22.1	-22.7	20.7	0.00e+00	0	44	0	1946157056	5	3832
2026-01-23 01:28:44.90	99.90	37.79	-22.1	-22.7	20.7	0.00e+00	0	44	0	1952448512	5	3821
2026-01-23 01:28:45.90	100.33	37.77	-22.1	-22.7	20.7	0.00e+00	0	44	0	1957691392	5	3826
2026-01-23 01:28:46.90	100.77	37.75	-22.2	-22.9	20.6	0.00e+00	0	44	0	1963982848	5	3882
2026-01-23 01:28:47.91	101.21	37.73	-22.4	-23.2	20.4	0.00e+00	0	44	0	1969225728	5	3963
2026-01-23 01:28:48.91	101.64	37.71	-22.4	-23.3	20.4	1.10e-06	0	44	0	1974468608	5	3975
2026-01-23 01:28:49.91	102.07	37.69	-22.5	-23.3	20.3	0.00e+00	0	44	0	1980760064	5	3988
2026-01-23 01:28:50.91	102.51	37.66	-22.6	-23.7	20.2	0.00e+00	0	44	0	1986002944	5	4062
2026-01-23 01:28:51.91	102.94	37.64	-22.6	-23.7	20.1	0.00e+00	0	44	0	1991245824	5	4074
2026-01-23 01:28:52.92	103.37	37.61	-22.6	-23.6	20.2	0.00e+00	0	44	0	1997537280	5	4044
2026-01-23 01:28:53.92	103.80	37.58	-22.5	-23.5	20.2	0.00e+00	0	44	0	2002780160	5	4020
2026-01-23 01:28:54.93	104.24	37.55	-22.7	-23.9	20.1	0.00e+00	0	44	0	2008023040	5	4113
2026-01-23 01:28:55.93	104.67	37.51	-22.6	-23.6	20.2	0.00e+00	0	44	0	2014314496	5	4051
2026-01-23 01:28:56.94	105.10	37.48	-22.6	-23.6	20.2	0.00e+00	0	44	0	2019557376	5	4047
2026-01-23 01:28:57.93	105.52	37.44	-22.7	-23.7	20.1	0.00e+00	0	44	0	2025848832	5	4085
2026-01-23 01:28:58.94	105.95	37.40	-22.6	-23.7	20.1	0.00e+00	0	44	0	2031091712	5	4076
2026-01-23 01:28:59.95	106.38	37.36	-22.8	-24.0	20.0	0.00e+00	0	44	0	2037383168	5	4157
2026-01-23 01:29:00.96	106.81	37.32	-22.5	-23.5	20.2	0.00e+00	0	44	0	2042626048	5	4029
2026-01-23 01:29:01.96	107.23	37.27	-22.3	-23.1	20.5	0.00e+00	0	44	0	2047868928	5	3922
2026-01-23 01:29:02.96	107.66	37.23	-22.4	-23.2	20.4	0.00e+00	0	44	0	2054160384	5	3940
2026-01-23 01:29:03.95	108.07	37.18	-22.3	-23.1	20.4	0.00e+00	0	44	0	2059403264	5	3927
2026-01-23 01:29:04.95	108.49	37.13	-22.6	-23.7	20.2	0.00e+00	0	44	0	2064646144	5	4068
2026-01-23 01:29:05.96	108.91	37.08	-22.5	-23.3	20.3	0.00e+00	0	44	0	2070937600	5	3991
2026-01-23 01:29:06.96	109.33	37.03	-22.4	-23.3	20.3	0.00e+00	0	44	0	2076180480	5	3968
2026-01-23 01:29:07.96	109.75	36.97	-22.6	-23.6	20.1	0.00e+00	0	44	0	2081423360	5	4053
2026-01-23 01:29:08.97	110.16	36.92	-22.6	-23.6	20.1	0.00e+00	0	44	0	2087714816	5	4061
2026-01-23 01:29:09.97	110.58	36.86	-22.6	-23.7	20.1	0.00e+00	0	44	0	2092957696	5	4082
2026-01-23 01:29:10.98	110.99	36.80	-22.5	-23.4	20.3	0.00e+00	0	44	0	2099249152	5	3996
2026-01-23 01:29:11.98	111.40	36.74	-22.4	-23.3	20.3	0.00e+00	0	44	0	2104492032	5	3978
2026-01-23 01:29:12.98	111.81	36.68	-22.7	-23.8	20.1	0.00e+00	0	44	0	2109734912	5	4086
2026-01-23 01:29:13.99	112.22	36.62	-22.6	-23.6	20.2	0.00e+00	0	44	0	2116026368	5	4042
2026-01-23 01:29:14.99	112.63	36.55	-22.5	-23.5	20.2	0.00e+00	0	44	0	2121269248	5	4015
2026-01-23 01:29:15.99	113.03	36.49	-22.5	-23.4	20.2	0.00e+00	0	44	0	2127560704	5	4012
2026-01-23 01:29:17.00	113.44	36.42	-22.7	-23.8	20.1	0.00e+00	0	44	0	2132803584	5	4086
2026-01-23 01:29:18.01	113.84	36.35	-22.5	-23.3	20.3	0.00e+00	0	44	0	2138046464	5	3985
2026-01-23 01:29:19.02	114.24	36.28	-22.4	-23.2	20.3	0.00e+00	0	44	0	2144337920	5	3961
2026-01-23 01:29:20.02	114.64	36.21	-22.5	-23.5	20.2	0.00e+00	0	44	0	2149580800	5	4018
2026-01-23 01:29:21.03	115.04	36.13	-22.4	-23.3	20.3	0.00e+00	0	44	0	2154823680	5	3976
2026-01-23 01:29:22.03	115.43	36.06	-22.5	-23.5	20.2	0.00e+00	0	44	0	2161115136	5	4033
2026-01-23 01:29:23.03	115.82	35.98	-22.7	-23.8	20.1	0.00e+00	0	44	0	2166358016	5	4103
2026-01-23 01:29:24.04	116.22	35.91	-22.7	-23.9	20.0	0.00e+00	0	44	0	2172649472	5	4125
2026-01-23 01:29:25.04	116.61	35.83	-22.9	-24.3	19.8	0.00e+00	0	44	0	2177892352	5	4223
2026-01-23 01:29:26.05	117.00	35.75	-22.7	-23.8	20.0	0.00e+00	0	44	0	2184183808	5	4108
2026-01-23 01:29:27.05	117.38	35.67	-22.7	-23.8	20.0	0.00e+00	0	44	0	2189426688	5	4091
2026-01-23 01:29:28.06	117.77	35.58	-22.8	-24.0	19.9	0.00e+00	0	44	0	2194669568	5	4158
2026-01-23 01:29:29.06	118.15	35.50	-22.7	-24.0	19.9	0.00e+00	0	44	0	2200961024	5	4142
2026-01-23 01:29:30.07	118.53	35.42	-22.8	-24.1	19.8	0.00e+00	0	44	0	2206203904	5	4184
2026-01-23 01:29:31.07	118.91	35.33	-22.8	-24.0	19.9	0.00e+00	0	44	0	2211446784	5	4152
2026-01-23 01:29:32.08	119.29	35.24	-22.9	-24.2	19.8	0.00e+00	0	44	0	2217738240	5	4198
2026-01-23 01:29:33.08	119.66	35.16	-22.7	-24.0	19.9	0.00e+00	0	44	0	2222981120	5	4138
2026-01-23 01:29:34.09	120.03	35.07	-22.7	-23.8	20.0	0.00e+00	0	44	0	2229272576	5	4107
2026-01-23 01:29:35.09	120.40	34.98	-22.8	-24.0	19.9	0.00e+00	0	44	0	2234515456	5	4151
2026-01-23 01:29:36.10	120.77	34.89	-22.7	-23.9	20.0	0.00e+00	0	44	0	2239758336	5	4118
2026-01-23 01:29:37.10	121.14	34.79	-22.8	-24.0	19.7	0.00e+00	0	44	0	2246049792	5	4161
2026-01-23 01:29:38.11	121.50	34.70	-23.0	-24.4	19.7	0.00e+00	0	44	0	2251292672	5	4262
2026-01-23 01:29:39.10	121.86	34.61	-22.9	-24.4	19.7	0.00e+00	0	44	0	2257584128	5	4248
2026-01-23 01:29:40.11	122.22	34.51	-23.0	-24.4	19.7	0.00e+00	0	44	0	2262827008	5	4259
2026-01-23 01:29:41.11	122.58	34.42	-23.1	-24.1	19.6	0.00e+00	0	44	0	2268069888	6	4068
2026-01-23 01:29:42.11	122.93	34.32	-23.3	-24.5	19.4	0.00e+00	0	44	0	2274361344	6	4168
2026-01-23 01:29:43.12	123.29	34.22	-22.9	-23.8	19.8	0.00e+00	0	44	0	2279604224	6	3987
2026-01-23 01:29:44.12	123.64	34.12	-22.8	-23.5	19.9	0.00e+00	0	44	0	2284847104	6	3923
2026-01-23 01:29:45.13	123.99	34.02	-22.9	-23.8	19.7	0.00e+00	0	44	0	2291138560	6	3988
2026-01-23 01:29:46.13	124.34	33.92	-23.0	-23.9	19.7	0.00e+00	0	44	0	2296381440	6	4029
2026-01-23 01:29:47.14	124.69	33.82	-23.0	-24.0	19.6	0.00e+00	0	44	0	2302672896	6	4042
2026-01-23 01:29:48.14	125.03	33.72	-23.0	-24.0	19.6	0.00e+00	0	44	0	2307915776	6	4050
2026-01-23 01:29:49.15	125.37	33.62	-22.9	-23.8	19.7	0.00e+00	0	44	0	2313158656	6	3994
2026-01-23 01:29:50.15	125.71	33.51	-22.9	-23.8	19.7	0.00e+00	0	44	0	2319450112	6	3993
2026-01-23 01:29:51.15	126.05	33.41	-23.1	-24.1	19.6	1.83e-05	0	44	0	2324692992	6	4069
2026-01-23 01:29:52.16	126.38	33.30	-23.0	-23.9	19.7	0.00e+00	0	44	0	2330984448	6	4014
2026-01-23 01:29:53.16	126.71	33.20	-23.1	-24.3	19.5	0.00e+00	0	44	0	2336227328	6	4099
2026-01-23 01:29:54.16	127.04	33.09	-23.0	-24.0	19.6	1.83e-05	0	44	0	2341470208	6	4037
2026-01-23 01:29:55.16	127.37	32.99	-23.0	-24.0	19.6	0.00e+00	0	44	0	2347761664	6	4037
2026-01-23 01:29:56.16	127.70	32.88	-23.0	-24.0	19.6	0.00e+00	0	44	0	2353004544	6	4035
2026-01-23 01:29:57.17	128.02	32.77	-23.1	-24.2	19.5	0.00e+00	0	44	0	2358247424	6	4077
2026-01-23 01:29:58.17	128.34	32.66	-23.0	-24.0	19.6	0.00e+00	0	44	0	2364538880	6	4028
2026-01-23 01:29:59.17	128.66	32.55	-23.0	-24.0	19.6	0.00e+00	0	44	0	2369781760	6	4047
2026-01-23 01:30:00.17	128.98	32.44	-23.1	-24.2	19.5	0.00e+00	0	44	0	2375024640	6	4081
2026-01-23 01:30:01.18	129.30	32.33	-23.1	-24.3	19.4	3.77e-05	0	44	0	2381316096	6	4119
2026-01-23 01:30:02.18	129.61	32.22	-23.2	-24.4	19.4	0.00e+00	0	44	0	2386558976	6	4132
2026-01-23 01:30:03.19	129.92	32.11	-23.1	-24.2	19.5	0.00e+00	0	44	0	2392850432	6	4080
2026-01-23 01:30:04.19	130.23	32.00	-23.1	-24.2	19.5	0.00e+00	0	44	0	2398093312	6	4079
2026-01-23 01:30:05.20	130.54	31.89	-22.9	-23.8	19.7	0.00e+00	0	44	0	2404384768	6	3995
2026-01-23 01:30:06.20	130.85	31.77	-22.8	-23.6	19.8	3.40e-06	0	44	0	2409627648	6	3940
2026-01-23 01:30:07.20	131.15	31.66	-22.7	-23.5	19.9	0.00e+00	0	44	0	2414870528	6	3909
2026-01-23 01:30:08.20	131.45	31.55	-22.8	-23.6	19.8	0.00e+00	0	44	0	2421161984	6	3946
2026-01-23 01:30:09.20	131.75	31.43	-23.0	-23.9	19.6	0.00e+00	0	44	0	2426404864	6	4023
2026-01-23 01:30:10.20	132.04	31.32	-23.0	-24.0	19.6	0.00e+00	0	44	0	2431647744	6	4035
2026-01-23 01:30:11.21	132.34	31.20	-23.2	-24.4	19.4	0.00e+00	0	44	0	2437939200	6	4129
2026-01-23 01:30:12.21	132.63	31.09	-23.3	-24.5	19.3	5.95e-05	0	44	0	2443182080	6	4176
2026-01-23 01:30:13.21	132.92	30.97	-23.2	-24.4	19.3	9.15e-05	0	44	0	2448424960	6	4128
2026-01-23 01:30:14.22	133.21	30.86	-23.2	-24.5	19.3	0.00e+00	0	44	0	2454716416	6	4177
2026-01-23 01:30:15.22	133.50	30.74	-23.2	-24.5	19.3	1.41e-04	0	44	0	2459959296	6	4182
2026-01-23 01:30:16.23	133.78	30.62	-23.4	-24.8	19.2	1.43e-04	0	44	0	2466250752	6	4241
2026-01-23 01:30:17.23	134.06	30.51	-23.3	-24.8	19.2	0.00e+00	0	44	0	2471493632	6	4239
2026-01-23 01:30:18.23	134.34	30.39	-23.4	-24.4	19.2	0.00e+00	0	44	0	2477785088	7	4030
2026-01-23 01:30:19.24	134.63	30.27	-23.1	-23.7	19.5	3.07e-04	0	44	0	2483027968	7	3850
2026-01-23 01:30:20.25	134.90	30.15	-23.0	-23.4	19.6	0.00e+00	0	44	0	2488270848	7	3794
2026-01-23 01:30:21.25	135.18	30.04	-23.0	-23.6	19.5	4.77e-04	0	44	0	2494562304	7	3832
2026-01-23 01:30:22.25	135.45	29.92	-23.2	-24.5	19.3	0.00e+00	0	44	0	2499805184	6	4157
2026-01-23 01:30:23.25	135.72	29.80	-23.2	-24.4	19.3	0.00e+00	0	44	0	2505048064	6	4155
2026-01-23 01:30:24.26	135.99	29.68	-23.3	-24.7	19.2	4.14e-04	0	44	0	2511339520	6	4210
2026-01-23 01:30:25.26	136.26	29.56	-23.4	-24.8	19.1	0.00e+00	0	44	0	2516582400	6	4240
2026-01-23 01:30:26.26	136.52	29.44	-23.2	-24.4	19.3	0.00e+00	0	44	0	2521825280	6	4147
2026-01-23 01:30:27.27	136.79	29.32	-23.1	-24.3	19.4	0.00e+00	0	44	0	2528116736	6	4118
2026-01-23 01:30:28.27	137.05	29.21	-23.3	-24.5	19.3	0.00e+00	0	44	0	2533359616	6	4167
2026-01-23 01:30:29.28	137.31	29.09	-23.2	-24.4	19.3	0.00e+00	0	44	0	2539651072	6	4144
2026-01-23 01:30:30.29	137.57	28.97	-23.4	-24.8	19.1	0.00e+00	0	44	0	2544893952	6	4227
2026-01-23 01:30:31.29	137.82	28.85	-23.6	-24.8	18.9	0.00e+00	0	44	0	2551185408	7	4122
2026-01-23 01:30:32.29	138.07	28.73	-23.8	-25.1	18.7	0.00e+00	0	44	0	2556428288	7	4218
2026-01-23 01:30:33.30	138.33	28.61	-23.7	-25.0	18.7	3.49e-04	0	44	0	2561671168	7	4195
2026-01-23 01:30:34.31	138.58	28.49	-23.7	-24.9	18.8	0.00e+00	0	44	0	2567962624	7	4171
2026-01-23 01:30:35.32	138.83	28.37	-23.4	-24.4	19.1	0.00e+00	0	44	0	2573205504	7	4019
2026-01-23 01:30:36.32	139.07	28.25	-23.3	-24.2	19.2	0.00e+00	0	44	0	2578448384	7	3967
2026-01-23 01:30:37.32	139.32	28.13	-23.5	-24.5	19.0	0.00e+00	0	44	0	2584739840	7	4042
2026-01-23 01:30:38.33	139.56	28.01	-23.7	-24.9	18.8	0.00e+00	0	44	0	2589982720	7	4139
2026-01-23 01:30:39.34	139.81	27.89	-23.7	-24.9	18.8	0.00e+00	0	44	0	2596274176	7	4148
2026-01-23 01:30:40.33	140.04	27.77	-23.7	-25.1	18.7	0.00e+00	0	44	0	2601517056	7	4187
2026-01-23 01:30:41.33	140.28	27.65	-23.7	-25.1	18.7	0.00e+00	0	44	0	2606759936	7	4191
2026-01-23 01:30:42.33	140.51	27.53	-23.8	-25.2	18.6	0.00e+00	0	44	0	2613051392	7	4235
2026-01-23 01:30:43.34	140.75	27.41	-23.7	-24.9	18.8	0.00e+00	0	44	0	2618294272	7	4158
2026-01-23 01:30:44.34	140.98	27.29	-23.7	-24.9	18.8	0.00e+00	0	44	0	2624585728	7	4157
2026-01-23 01:30:45.35	141.21	27.17	-23.7	-25.0	18.7	0.00e+00	0	44	0	2629828608	7	4180
2026-01-23 01:30:46.35	141.44	27.05	-23.8	-25.1	18.7	0.00e+00	0	44	0	2635071488	7	4198
2026-01-23 01:30:47.36	141.67	26.93	-23.9	-24.9	18.5	1.10e-06	0	44	0	2641362944	8	4038
2026-01-23 01:30:48.36	141.89	26.81	-23.5	-24.1	18.9	0.00e+00	0	44	0	2646605824	8	3857
2026-01-23 01:30:49.37	142.12	26.69	-23.3	-24.2	19.1	0.00e+00	0	44	0	2651848704	7	3980
2026-01-23 01:30:50.37	142.34	26.57	-23.3	-24.1	19.1	1.10e-06	0	44	0	2658140160	7	3958
2026-01-23 01:30:51.37	142.56	26.45	-23.3	-24.7	19.1	0.00e+00	0	44	0	2663383040	6	4225
2026-01-23 01:30:52.37	142.78	26.33	-23.4	-24.9	19.0	0.00e+00	0	44	0	2668625920	6	4278
2026-01-23 01:30:53.37	143.00	26.21	-23.6	-24.8	18.8	0.00e+00	0	44	0	2674917376	7	4130
2026-01-23 01:30:54.37	143.21	26.09	-23.6	-24.8	18.8	0.00e+00	0	44	0	2680160256	7	4132
2026-01-23 01:30:55.37	143.43	25.97	-23.4	-24.3	19.0	0.00e+00	0	44	0	2686451712	7	4008
2026-01-23 01:30:56.37	143.64	25.86	-23.2	-24.0	19.2	0.00e+00	0	44	0	2691694592	7	3933
2026-01-23 01:30:57.38	143.85	25.74	-23.3	-24.1	19.1	0.00e+00	0	44	0	2696937472	7	3954
2026-01-23 01:30:58.38	144.06	25.62	-23.4	-24.3	19.0	0.00e+00	0	44	0	2703228928	7	4001
2026-01-23 01:30:59.37	144.26	25.50	-23.5	-24.5	18.9	0.00e+00	0	44	0	2708471808	7	4048
2026-01-23 01:31:00.38	144.47	25.38	-23.6	-24.8	18.7	0.00e+00	0	44	0	2713714688	7	4141
2026-01-23 01:31:01.38	144.68	25.26	-23.7	-24.9	18.7	0.00e+00	0	44	0	2720006144	7	4160
2026-01-23 01:31:02.38	144.88	25.15	-23.8	-25.2	18.5	3.40e-06	0	44	0	2725249024	7	4240
2026-01-23 01:31:03.38	145.08	25.03	-23.7	-25.0	18.6	0.00e+00	0	44	0	2730491904	7	4182
2026-01-23 01:31:04.39	145.28	24.91	-23.7	-25.0	18.7	0.00e+00	0	44	0	2736783360	7	4171
2026-01-23 01:31:05.38	145.48	24.79	-23.7	-24.9	18.7	0.00e+00	0	44	0	2742026240	7	4157
2026-01-23 01:31:06.39	145.68	24.68	-23.6	-24.7	18.8	0.00e+00	0	44	0	2748317696	7	4101
2026-01-23 01:31:07.40	145.88	24.56	-23.5	-24.7	18.8	0.00e+00	0	44	0	2753560576	7	4095
2026-01-23 01:31:08.40	146.07	24.44	-23.5	-24.5	18.9	0.00e+00	0	44	0	2759852032	7	4063
2026-01-23 01:31:09.41	146.27	24.32	-23.6	-24.8	18.7	0.00e+00	0	44	0	2765094912	7	4132
2026-01-23 01:31:10.42	146.46	24.21	-23.7	-24.9	18.6	0.00e+00	0	44	0	2770337792	7	4159
2026-01-23 01:31:11.42	146.65	24.09	-23.6	-24.8	18.7	0.00e+00	0	44	0	2776629248	7	4130
2026-01-23 01:31:12.41	146.84	23.98	-23.6	-24.9	18.7	0.00e+00	0	44	0	2781872128	7	4154
2026-01-23 01:31:13.42	147.03	23.86	-23.8	-25.2	18.5	0.00e+00	0	44	0	2787115008	7	4232
2026-01-23 01:31:14.42	147.21	23.74	-23.8	-25.3	18.4	0.00e+00	0	44	0	2793406464	7	4266
2026-01-23 01:31:15.42	147.40	23.63	-23.9	-25.4	18.4	0.00e+00	0	44	0	2798649344	7	4285
2026-01-23 01:31:16.43	147.58	23.51	-23.9	-25.5	18.3	0.00e+00	0	44	0	2803892224	7	4307
2026-01-23 01:31:17.43	147.76	23.40	-23.9	-25.4	18.4	0.00e+00	0	44	0	2810183680	7	4287
2026-01-23 01:31:18.43	147.95	23.28	-23.9	-25.4	18.4	0.00e+00	0	44	0	2815426560	7	4277
2026-01-23 01:31:19.44	148.13	23.17	-23.8	-25.3	18.4	0.00e+00	0	44	0	2821718016	7	4252
2026-01-23 01:31:20.43	148.30	23.05	-23.8	-25.2	18.5	0.00e+00	0	44	0	2826960896	7	4234
2026-01-23 01:31:21.44	148.48	22.94	-23.7	-24.9	14.2	0.00e+00	0	44	0	2833252352	7	4152
2026-01-23 01:31:22.44	148.66	22.82	-23.7	-24.9	18.6	0.00e+00	0	44	0	2838495232	7	4151
2026-01-23 01:31:23.45	148.83	22.71	-23.7	-25.0	18.4	0.00e+00	0	44	0	2843738112	7	4174
2026-01-23 01:31:24.45	149.01	22.60	-23.8	-25.1	18.5	0.00e+00	0	44	0	2850029568	7	4210
2026-01-23 01:31:25.45	149.18	22.48	-23.8	-25.2	18.4	0.00e+00	0	44	0	2855272448	7	4235
2026-01-23 01:31:26.46	149.35	22.37	-23.9	-25.4	18.3	0.00e+00	0	44	0	2860515328	7	4289
2026-01-23 01:31:27.47	149.52	22.26	-23.9	-25.5	18.3	0.00e+00	0	44	0	2866806784	7	4311
2026-01-23 01:31:28.48	149.69	22.14	-24.0	-25.5	18.3	0.00e+00	0	44	0	2872049664	7	4319
2026-01-23 01:31:29.48	149.86	22.03	-24.1	-25.4	18.1	0.00e+00	0	44	0	2877292544	8	4175
2026-01-23 01:31:30.49	150.03	21.92	-24.2	-25.5	18.1	1.20e-03	0	44	0	2883584000	8	4193
2026-01-23 01:31:31.49	150.19	21.81	-24.1	-25.3	18.1	0.00e+00	0	44	0	2888826880	8	4151
2026-01-23 01:31:32.49	150.36	21.69	-24.1	-25.3	18.2	1.16e-03	0	44	0	2895118336	8	4132
2026-01-23 01:31:33.49	150.52	21.58	-24.1	-25.3	18.2	0.00e+00	0	44	0	2900361216	8	4134
2026-01-23 01:31:34.50	150.68	21.47	-24.1	-25.3	18.2	0.00e+00	0	44	0	2906652672	8	4133
2026-01-23 01:31:35.49	150.84	21.36	-24.3	-25.7	18.0	1.23e-03	0	44	0	2911895552	8	4229
2026-01-23 01:31:36.49	151.00	21.25	-24.3	-25.7	17.9	0.00e+00	0	44	0	2917138432	8	4246
2026-01-23 01:31:37.49	151.16	21.14	-24.2	-25.6	18.0	0.00e+00	0	44	0	2923429888	8	4210
2026-01-23 01:31:38.49	151.32	21.03	-24.3	-25.7	18.0	0.00e+00	0	44	0	2928672768	8	4236
2026-01-23 01:31:39.49	151.47	20.92	-24.3	-25.8	17.9	1.12e-03	0	44	0	2933915648	8	4272
2026-01-23 01:31:40.49	151.63	20.81	-24.4	-26.0	17.7	0.00e+00	0	44	0	2940207104	8	4334
2026-01-23 01:31:41.50	151.78	20.70	-24.5	-26.1	17.7	1.12e-03	0	44	0	2945449984	8	4361
2026-01-23 01:31:42.50	151.93	20.60	-24.5	-25.7	17.6	1.25e-03	0	44	0	2950692864	9	4145
2026-01-23 01:31:43.51	152.09	20.49	-24.6	-25.9	17.5	0.00e+00	0	44	0	2956984320	9	4194
2026-01-23 01:31:44.51	152.24	20.38	-24.7	-26.1	17.4	1.30e-03	0	44	0	2962227200	9	4224
2026-01-23 01:31:45.52	152.39	20.27	-24.5	-25.8	17.6	0.00e+00	0	44	0	2968518656	9	4159
2026-01-23 01:31:46.52	152.54	20.16	-24.5	-25.8	17.6	0.00e+00	0	44	0	2973761536	9	4152
2026-01-23 01:31:47.52	152.69	20.05	-24.5	-25.8	17.6	1.25e-03	0	44	0	2979004416	9	4153
2026-01-23 01:31:48.52	152.83	19.95	-24.6	-25.9	17.5	1.22e-03	0	44	0	2985295872	9	4181
2026-01-23 01:31:49.52	152.98	19.84	-24.6	-25.9	17.5	0.00e+00	0	44	0	2990538752	9	4184
2026-01-23 01:31:50.52	153.12	19.73	-24.6	-26.0	17.4	0.00e+00	0	44	0	2995781632	9	4214
2026-01-23 01:31:51.52	153.27	19.63	-24.7	-26.0	17.4	1.29e-03	0	44	0	3002073088	9	4224
2026-01-23 01:31:52.52	153.41	19.52	-24.7	-26.1	17.4	4.50e-06	0	44	0	3007315968	9	4229
2026-01-23 01:31:53.52	153.55	19.42	-24.7	-26.1	17.4	1.29e-03	0	44	0	3013607424	9	4228
2026-01-23 01:31:54.53	153.69	19.31	-24.6	-26.0	17.4	1.21e-03	0	44	0	3018850304	9	4218
2026-01-23 01:31:55.53	153.83	19.20	-24.7	-26.1	17.4	0.00e+00	0	44	0	3024093184	9	4235
2026-01-23 01:31:56.53	153.97	19.10	-24.7	-26.1	17.3	1.21e-03	0	44	0	3030384640	9	4245
2026-01-23 01:31:57.53	154.11	19.00	-24.7	-26.2	17.3	6.34e-04	0	44	0	3035627520	9	4259
2026-01-23 01:31:58.54	154.25	18.89	-24.7	-26.1	17.3	0.00e+00	0	44	0	3041918976	9	4246
2026-01-23 01:31:59.54	154.38	18.79	-24.7	-26.2	17.3	0.00e+00	0	44	0	3047161856	9	4277
2026-01-23 01:32:00.54	154.52	18.68	-24.8	-26.4	17.2	1.26e-03	0	44	0	3052404736	9	4325
2026-01-23 01:32:01.54	154.65	18.58	-24.8	-26.5	17.1	0.00e+00	0	44	0	3058696192	9	4346
2026-01-23 01:32:02.54	154.79	18.48	-24.9	-26.6	17.0	1.29e-03	0	44	0	3063939072	9	4376
2026-01-23 01:32:03.55	154.92	18.37	-24.9	-26.7	17.0	1.23e-03	0	44	0	3069181952	9	4428
2026-01-23 01:32:04.55	155.05	18.27	-25.0	-26.8	16.9	0.00e+00	0	44	0	3075473408	9	4429
2026-01-23 01:32:05.55	155.18	18.17	-25.1	-26.6	16.8	1.25e-03	0	44	0	3080716288	10	4276
2026-01-23 01:32:06.55	155.31	18.07	-25.4	-27.2	16.5	0.00e+00	0	44	0	3087007744	10	4417
2026-01-23 01:32:07.55	155.44	17.96	-25.4	-26.6	16.5	0.00e+00	0	44	0	3092250624	11	4149
2026-01-23 01:32:08.55	155.57	17.86	-25.3	-27.0	16.6	1.11e-03	0	44	0	3097493504	10	4361
2026-01-23 01:32:09.56	155.70	17.76	-25.3	-26.9	16.6	0.00e+00	0	44	0	3103784960	10	4332
2026-01-23 01:32:10.57	155.83	17.66	-25.2	-26.8	16.7	0.00e+00	0	44	0	3109027840	10	4317
2026-01-23 01:32:11.57	155.95	17.56	-25.3	-27.0	16.6	0.00e+00	0	44	0	3114270720	10	4365
2026-01-23 01:32:12.57	156.08	17.46	-25.3	-26.9	16.6	1.11e-03	0	44	0	3120562176	10	4338
2026-01-23 01:32:13.57	156.20	17.36	-25.1	-26.6	16.8	0.00e+00	0	44	0	3125805056	10	4249
2026-01-23 01:32:14.58	156.33	17.26	-25.1	-26.5	16.8	0.00e+00	0	44	0	3131047936	10	4236
2026-01-23 01:32:15.58	156.45	17.16	-25.1	-26.6	16.8	9.99e-04	0	44	0	3137339392	10	4267
2026-01-23 01:32:16.59	156.58	17.06	-25.0	-26.3	16.9	0.00e+00	0	44	0	3142582272	10	4174
2026-01-23 01:32:17.60	156.70	16.96	-24.9	-26.2	17.0	0.00e+00	0	44	0	3148873728	10	4146
2026-01-23 01:32:18.60	156.82	16.86	-24.9	-26.2	17.0	0.00e+00	0	44	0	3154116608	10	4144
2026-01-23 01:32:19.60	156.94	16.76	-24.9	-26.2	17.0	0.00e+00	0	44	0	3160408064	10	4140
2026-01-23 01:32:20.61	157.06	16.66	-25.0	-26.3	16.9	0.00e+00	0	44	0	3165650944	10	4186
2026-01-23 01:32:21.62	157.18	16.56	-25.2	-26.6	16.7	0.00e+00	0	44	0	3170893824	10	4257
2026-01-23 01:32:22.61	157.29	16.47	-25.2	-26.7	16.7	0.00e+00	0	44	0	3177185280	10	4279
2026-01-23 01:32:23.62	157.41	16.37	-25.2	-26.6	16.7	0.00e+00	0	44	0	3182428160	10	4255
2026-01-23 01:32:24.63	157.53	16.27	-25.4	-27.1	16.5	0.00e+00	0	44	0	3187671040	10	4394
2026-01-23 01:32:25.63	157.64	16.18	-25.4	-27.2	16.4	0.00e+00	0	44	0	3193962496	10	4408
2026-01-23 01:32:26.63	157.76	16.08	-25.3	-27.0	16.5	0.00e+00	0	44	0	3199205376	10	4363
2026-01-23 01:32:27.64	157.87	15.98	-25.3	-27.0	16.5	0.00e+00	0	44	0	3205496832	10	4364
2026-01-23 01:32:28.65	157.99	15.89	-25.4	-27.1	16.5	0.00e+00	0	44	0	3210739712	10	4380
2026-01-23 01:32:29.65	158.10	15.79	-25.5	-27.0	16.3	0.00e+00	0	44	0	3215982592	11	4242
2026-01-23 01:32:30.65	158.21	15.69	-25.8	-27.6	15.9	0.00e+00	0	44	0	3222274048	11	4403
2026-01-23 01:32:31.66	158.32	15.60	-25.9	-27.7	15.9	0.00e+00	0	44	0	3227516928	11	4438
2026-01-23 01:32:32.66	158.43	15.50	-25.7	-27.2	16.1	0.00e+00	0	44	0	3233808384	11	4317
2026-01-23 01:32:33.67	158.54	15.41	-25.6	-27.1	16.2	0.00e+00	0	44	0	3239051264	11	4273
2026-01-23 01:32:34.67	158.65	15.31	-25.6	-27.1	16.1	0.00e+00	0	44	0	3244294144	11	4291
2026-01-23 01:32:35.66	158.76	15.22	-25.6	-27.2	16.1	0.00e+00	0	44	0	3250585600	11	4296
2026-01-23 01:32:36.67	158.87	15.13	-25.7	-27.2	16.1	0.00e+00	0	44	0	3255828480	11	4322
2026-01-23 01:32:37.67	158.98	15.03	-25.6	-27.2	16.1	0.00e+00	0	44	0	3261071360	11	4303
2026-01-23 01:32:38.67	159.08	14.94	-25.7	-27.3	16.0	0.00e+00	0	44	0	3267362816	11	4345
2026-01-23 01:32:39.67	159.19	14.85	-25.6	-27.2	16.1	0.00e+00	0	44	0	3272605696	11	4310
2026-01-23 01:32:40.67	159.29	14.76	-25.8	-27.5	15.9	0.00e+00	0	44	0	3277848576	11	4399
2026-01-23 01:32:41.67	159.40	14.66	-25.7	-27.3	16.0	0.00e+00	0	44	0	3284140032	11	4329
2026-01-23 01:32:42.68	159.50	14.57	-25.7	-27.4	16.0	6.80e-06	0	44	0	3289382912	11	4358
2026-01-23 01:32:43.68	159.61	14.48	-25.8	-27.5	15.9	0.00e+00	0	44	0	3295674368	11	4387
2026-01-23 01:32:44.68	159.71	14.39	-25.7	-27.4	15.9	0.00e+00	0	44	0	3300917248	11	4355
2026-01-23 01:32:45.68	159.81	14.30	-25.8	-27.6	15.8	0.00e+00	0	44	0	3306160128	11	4421
2026-01-23 01:32:46.69	159.91	14.20	-25.7	-27.5	15.9	0.00e+00	0	44	0	3312451584	11	4385
2026-01-23 01:32:47.70	160.02	14.11	-25.7	-27.4	15.9	0.00e+00	0	44	0	3317694464	11	4363
2026-01-23 01:32:48.70	160.12	14.02	-25.7	-27.5	15.8	1.10e-06	0	44	0	3323985920	11	4397
2026-01-23 01:32:49.70	160.22	13.93	-25.8	-27.6	15.7	0.00e+00	0	44	0	3329228800	11	4437
2026-01-23 01:32:50.71	160.32	13.84	-25.8	-27.6	15.8	0.00e+00	0	44	0	3334471680	11	4424
2026-01-23 01:32:51.71	160.41	13.75	-25.8	-27.7	15.7	5.70e-06	0	44	0	3340763136	11	4463
2026-01-23 01:32:52.71	160.51	13.66	-25.8	-27.7	15.7	0.00e+00	0	44	0	3346006016	11	4458
2026-01-23 01:32:53.72	160.61	13.57	-25.9	-27.8	15.6	0.00e+00	0	44	0	3351248896	11	4509
2026-01-23 01:32:54.72	160.71	13.48	-25.9	-27.8	15.6	6.80e-06	0	44	0	3357540352	11	4491
2026-01-23 01:32:55.73	160.80	13.39	-25.9	-27.5	15.4	0.00e+00	0	44	0	3362783232	12	4294
2026-01-23 01:32:56.73	160.90	13.31	-26.1	-27.9	15.2	1.10e-06	0	44	0	3369074688	12	4423
2026-01-23 01:32:57.73	160.99	13.22	-26.1	-27.8	15.2	1.48e-05	0	44	0	3374317568	12	4391
2026-01-23 01:32:58.74	161.09	13.13	-26.0	-27.5	15.4	0.00e+00	0	44	0	3380609024	12	4289
2026-01-23 01:32:59.74	161.18	13.04	-25.9	-27.4	15.5	0.00e+00	0	44	0	3385851904	12	4276
2026-01-23 01:33:00.74	161.28	12.95	-26.0	-27.5	15.4	0.00e+00	0	44	0	3391094784	12	4297
2026-01-23 01:33:01.75	161.37	12.87	-25.9	-27.4	15.5	0.00e+00	0	44	0	3397386240	12	4260
2026-01-23 01:33:02.74	161.46	12.78	-25.9	-27.4	15.5	0.00e+00	0	44	0	3402629120	12	4258
2026-01-23 01:33:03.74	161.56	12.69	-25.9	-27.3	15.5	0.00e+00	0	44	0	3407872000	12	4241
2026-01-23 01:33:04.74	161.65	12.61	-26.0	-27.5	15.4	0.00e+00	0	44	0	3414163456	12	4301
2026-01-23 01:33:05.74	161.74	12.52	-25.9	-27.4	15.4	0.00e+00	0	44	0	3419406336	12	4240
2026-01-23 01:33:06.74	161.83	12.44	-26.0	-27.5	15.3	0.00e+00	0	44	0	3424649216	12	4301
2026-01-23 01:33:07.73	161.92	12.35	-26.0	-27.5	15.4	0.00e+00	0	44	0	3430940672	12	4281
2026-01-23 01:33:08.74	162.01	12.26	-26.0	-27.5	15.0	0.00e+00	0	44	0	3436183552	12	4301
2026-01-23 01:33:09.74	162.10	12.18	-25.9	-27.4	15.4	0.00e+00	0	44	0	3442475008	12	4271
2026-01-23 01:33:10.74	162.18	12.09	-26.0	-27.6	15.3	1.10e-06	0	44	0	3447717888	12	4315
2026-01-23 01:33:11.74	162.27	12.01	-26.0	-27.6	15.3	0.00e+00	0	44	0	3452960768	12	4335
2026-01-23 01:33:12.74	162.36	11.92	-26.0	-27.7	15.3	0.00e+00	0	44	0	3459252224	12	4346
2026-01-23 01:33:13.75	162.45	11.84	-26.1	-27.8	15.2	0.00e+00	0	44	0	3464495104	12	4381
2026-01-23 01:33:14.75	162.53	11.76	-26.1	-27.8	15.2	0.00e+00	0	44	0	3469737984	12	4371
2026-01-23 01:33:15.75	162.62	11.67	-26.2	-28.1	15.0	0.00e+00	0	44	0	3476029440	12	4470
2026-01-23 01:33:16.76	162.71	11.59	-26.2	-28.2	14.9	1.27e-03	0	44	0	3481272320	12	4494
2026-01-23 01:33:17.77	162.79	11.50	-26.3	-28.4	14.9	1.10e-06	0	44	0	3486515200	12	4564
2026-01-23 01:33:18.76	162.88	11.42	-26.3	-28.4	14.8	0.00e+00	0	44	0	3492806656	12	4553
2026-01-23 01:33:19.77	162.96	11.34	-26.3	-28.2	14.9	0.00e+00	0	44	0	3498049536	12	4522
2026-01-23 01:33:20.76	163.04	11.26	-26.3	-28.3	14.8	0.00e+00	0	44	0	3504340992	12	4550
2026-01-23 01:33:21.77	163.13	11.17	-26.5	-28.7	14.6	1.10e-06	0	44	0	3509583872	12	4670
2026-01-23 01:33:22.77	163.21	11.09	-26.4	-28.6	14.7	0.00e+00	0	45	0	3514826752	12	4625
2026-01-23 01:33:23.78	163.29	11.01	-26.3	-28.4	14.8	1.29e-03	0	44	0	3521118208	12	4581
2026-01-23 01:33:24.79	163.38	10.93	-26.3	-28.5	14.7	0.00e+00	0	44	0	3526361088	12	4597
2026-01-23 01:33:25.80	163.46	10.84	-26.3	-28.5	14.7	1.30e-03	0	44	0	3532652544	12	4611
2026-01-23 01:33:26.80	163.54	10.76	-26.3	-28.4	14.7	9.45e-04	0	44	0	3537895424	12	4591
2026-01-23 01:33:27.80	163.62	10.68	-26.4	-28.6	14.6	0.00e+00	0	44	0	3543138304	12	4651
2026-01-23 01:33:28.80	163.70	10.60	-26.3	-28.4	14.7	1.13e-03	0	44	0	3549429760	12	4583
2026-01-23 01:33:29.81	163.78	10.52	-26.3	-28.4	14.7	0.00e+00	0	44	0	3554672640	12	4576
2026-01-23 01:33:30.81	163.86	10.44	-26.3	-28.3	14.8	0.00e+00	0	44	0	3559915520	12	4557
2026-01-23 01:33:31.81	163.94	10.36	-26.4	-28.5	14.6	0.00e+00	0	44	0	3566206976	12	4613
2026-01-23 01:33:32.82	164.02	10.28	-26.3	-28.4	14.7	1.11e-03	0	44	0	3571449856	12	4587
2026-01-23 01:33:33.82	164.10	10.20	-26.4	-28.6	14.6	0.00e+00	0	44	0	3577741312	12	4636
2026-01-23 01:33:34.82	164.18	10.12	-26.3	-28.4	14.7	1.08e-03	0	44	0	3582984192	12	4578
2026-01-23 01:33:35.82	164.25	10.04	-26.3	-28.3	14.8	1.08e-03	0	44	0	3588227072	12	4539
2026-01-23 01:33:36.83	164.33	9.96	-26.4	-28.5	14.7	0.00e+00	0	44	0	3594518528	12	4583
2026-01-23 01:33:37.83	164.41	9.88	-26.3	-28.4	14.7	1.12e-03	0	44	0	3599761408	12	4550
2026-01-23 01:33:38.83	164.48	9.80	-26.4	-28.6	14.6	1.22e-03	0	44	0	3605004288	12	4623
2026-01-23 01:33:39.84	164.56	9.72	-26.5	-28.3	14.5	0.00e+00	0	44	0	3611295744	13	4418
2026-01-23 01:33:40.84	164.64	9.64	-26.5	-28.2	14.5	1.29e-03	0	44	0	3616538624	13	4400
2026-01-23 01:33:41.84	164.71	9.57	-26.5	-28.3	14.5	1.29e-03	0	44	0	3622830080	13	4409
2026-01-23 01:33:42.85	164.79	9.49	-26.7	-28.6	14.3	1.10e-06	0	44	0	3628072960	13	4512
2026-01-23 01:33:43.85	164.86	9.41	-26.6	-28.4	14.5	3.41e-04	0	44	0	3633315840	13	4432
2026-01-23 01:33:44.85	164.93	9.33	-26.6	-28.4	14.4	1.17e-03	0	44	0	3639607296	13	4444
2026-01-23 01:33:45.85	165.01	9.25	-26.7	-28.7	14.3	2.20e-06	0	44	0	3644850176	13	4514
2026-01-23 01:33:46.85	165.08	9.18	-26.6	-28.5	14.3	1.17e-03	0	44	0	3651141632	13	4482
2026-01-23 01:33:47.86	165.15	9.10	-26.8	-28.9	14.1	1.22e-03	0	44	0	3656384512	13	4596
2026-01-23 01:33:48.86	165.23	9.02	-26.7	-28.7	14.3	3.40e-06	0	44	0	3661627392	13	4532
2026-01-23 01:33:49.86	165.30	8.95	-26.7	-28.7	14.2	1.22e-03	0	44	0	3667918848	13	4530
2026-01-23 01:33:50.87	165.37	8.87	-26.7	-28.7	14.2	6.80e-06	0	44	0	3673161728	13	4542
2026-01-23 01:33:51.87	165.44	8.79	-26.8	-28.8	14.2	5.70e-06	0	44	0	3678404608	13	4572
2026-01-23 01:33:52.87	165.51	8.72	-27.0	-29.3	13.9	4.50e-06	0	44	0	3684696064	13	4723
2026-01-23 01:33:53.88	165.58	8.64	-26.8	-29.0	14.1	1.22e-03	0	44	0	3689938944	13	4609
2026-01-23 01:33:54.88	165.65	8.57	-26.7	-28.7	14.2	3.40e-06	0	44	0	3696230400	13	4541
2026-01-23 01:33:55.88	165.72	8.49	-26.8	-28.8	14.1	4.50e-06	0	44	0	3701473280	13	4574
2026-01-23 01:33:56.88	165.79	8.42	-26.8	-28.9	14.0	1.22e-03	0	44	0	3706716160	13	4604
2026-01-23 01:33:57.89	165.86	8.34	-26.8	-29.0	14.0	5.70e-06	0	44	0	3713007616	13	4624
2026-01-23 01:33:58.89	165.93	8.26	-26.7	-28.7	14.2	1.12e-03	0	44	0	3718250496	13	4522
2026-01-23 01:33:59.90	166.00	8.19	-26.6	-28.5	14.3	3.40e-06	0	44	0	3724541952	13	4475
2026-01-23 01:34:00.90	166.07	8.12	-26.7	-28.6	14.2	3.40e-06	0	44	0	3729784832	13	4513
2026-01-23 01:34:01.90	166.14	8.04	-26.7	-28.7	14.2	1.10e-06	0	45	0	3735027712	13	4518
2026-01-23 01:34:02.91	166.21	7.97	-26.8	-28.9	14.0	3.40e-06	0	44	0	3741319168	13	4589
2026-01-23 01:34:03.91	166.27	7.89	-26.7	-28.6	14.2	2.20e-06	0	44	0	3746562048	13	4499
2026-01-23 01:34:04.90	166.34	7.82	-26.8	-28.8	14.1	1.10e-06	0	44	0	3751804928	13	4552
2026-01-23 01:34:05.91	166.41	7.75	-26.8	-28.9	14.1	1.36e-03	0	44	0	3758096384	13	4580
2026-01-23 01:34:06.91	166.47	7.67	-26.8	-28.9	14.0	1.10e-06	0	44	0	3763339264	13	4590
2026-01-23 01:34:07.91	166.54	7.60	-26.7	-28.7	14.1	2.20e-06	0	44	0	3768582144	13	4533
2026-01-23 01:34:08.91	166.60	7.53	-27.0	-29.3	13.8	1.25e-05	0	44	0	3774873600	13	4718
2026-01-23 01:34:09.91	166.67	7.45	-26.9	-28.7	13.8	1.37e-05	0	44	0	3780116480	14	4420
2026-01-23 01:34:10.92	166.73	7.38	-26.9	-29.2	13.8	3.40e-06	0	44	0	3786407936	13	4679
2026-01-23 01:34:11.93	166.80	7.31	-26.9	-29.2	13.8	8.00e-06	0	44	0	3791650816	13	4682
2026-01-23 01:34:12.92	166.86	7.24	-32.5	-43.0	3.8	8.46e-01	0	45	104	3792699392	25	12153
2026-01-23 01:34:13.93	166.93	7.16	-32.4	-43.9	3.8	8.46e-01	0	44	104	3792699392	24	13432
2026-01-23 01:34:14.93	166.99	7.09	-32.4	-43.8	3.8	8.46e-01	0	44	104	3792699392	24	13404
2026-01-23 01:34:15.94	167.06	7.02	-32.6	-43.8	3.8	8.46e-01	0	44	104	3792699392	25	13096
2026-01-23 01:34:16.94	167.12	6.95	-32.8	-44.4	3.8	8.47e-01	0	44	104	3792699392	25	13707
2026-01-23 01:34:17.94	167.18	6.88	-33.5	-44.7	3.8	8.46e-01	0	45	104	3792699392	27	13190

#Closed at: 2026-01-23 01:34:18
#Recorded file [3792 MB]: D:/data/31010_260123_042257.dat