passes_logs/2026/01/23/R2M6_AANII_01/R2M6_AANII_01__20260123_233637_NOAA_21_JPSS-2_rec.log

#Pass ID: 20260123_233637_NOAA 21 (JPSS-2)
#Satellite: NOAA 21 (JPSS-2)
#Configuration: NOAA 21
#almurnet v.1.7.20240730
#Start time: 2026-01-23 23:36:36

#Version: 2.2.20231116
#Station: R2M6_AANII_01
#Location: 30.233357 lon 59.946436 lat
#TLE: 1 54234U 22150A   26022.90705406  .00000208  00000+0  11937-3 0  9994
#TLE: 2 54234  98.7507 323.7115 0000669 231.3756 128.7360 14.19537879165931

#Time	Az	El	Level	Level2	SNR	BER	BlckErr	Temp	State	Recorded	gain1	gain2
2026-01-23 23:36:36.66	22.39	6.94	-29.7	-34.0	4.9	1.37e+00	0	41	0	0	19	5850
2026-01-23 23:36:37.66	22.44	7.02	-30.0	-34.4	4.8	1.39e+00	0	41	104	0	20	5938
2026-01-23 23:36:38.66	22.48	7.09	-30.2	-34.3	9.1	2.33e-02	0	41	0	0	20	5745
2026-01-23 23:36:39.67	22.53	7.17	-30.2	-34.2	9.2	2.47e-02	0	41	102	1048576	20	5703
2026-01-23 23:36:40.67	22.57	7.24	-30.2	-34.1	9.3	2.16e-02	0	42	102	1048576	20	5652
2026-01-23 23:36:41.67	22.62	7.32	-30.2	-34.2	9.2	2.00e-02	0	41	102	1048576	20	5689
2026-01-23 23:36:42.68	22.66	7.39	-30.0	-33.6	9.7	1.44e-02	0	42	102	1048576	20	5421
2026-01-23 23:36:43.68	22.71	7.47	-30.0	-33.8	10.0	1.25e-02	0	42	102	1048576	19	5591
2026-01-23 23:36:44.69	22.76	7.54	-30.0	-33.8	10.0	1.11e-02	0	42	102	1048576	19	5596
2026-01-23 23:36:45.69	22.80	7.62	-30.0	-33.6	9.7	1.31e-02	0	42	102	1048576	20	5425
2026-01-23 23:36:46.69	22.85	7.69	-30.5	-34.9	8.8	3.10e-02	0	42	102	1048576	20	6006
2026-01-23 23:36:47.69	22.89	7.77	-30.5	-34.4	8.8	3.35e-02	0	42	102	1048576	21	5671
2026-01-23 23:36:48.70	22.94	7.85	-30.1	-33.8	9.6	2.00e-02	0	42	102	1048576	20	5503
2026-01-23 23:36:49.70	22.99	7.92	-29.8	-33.3	10.4	1.37e-02	0	42	102	1048576	19	5391
2026-01-23 23:36:50.71	23.04	8.00	-29.6	-32.7	10.8	2.77e-03	0	42	102	1048576	19	5149
2026-01-23 23:36:51.71	23.08	8.08	-29.4	-32.6	11.2	4.64e-03	0	42	102	1048576	18	5233
2026-01-23 23:36:52.71	23.13	8.15	-29.4	-32.6	11.2	4.35e-03	0	42	102	1048576	18	5227
2026-01-23 23:36:53.72	23.18	8.23	-29.4	-32.6	11.2	1.48e-03	0	42	102	1048576	18	5219
2026-01-23 23:36:54.72	23.23	8.31	-29.2	-32.1	11.6	3.63e-03	0	42	102	1048576	18	5024
2026-01-23 23:36:55.72	23.28	8.38	-29.2	-32.0	11.6	3.07e-03	0	42	102	1048576	18	5016
2026-01-23 23:36:56.72	23.32	8.46	-29.1	-31.8	11.8	5.37e-04	0	42	102	1048576	18	4920
2026-01-23 23:36:57.72	23.37	8.54	-29.1	-32.0	11.7	2.70e-03	0	42	102	1048576	18	4980
2026-01-23 23:36:58.73	23.42	8.62	-29.2	-32.1	11.6	7.35e-04	0	42	102	1048576	18	5032
2026-01-23 23:36:59.74	23.47	8.70	-29.3	-32.4	11.4	6.93e-04	0	42	102	1048576	18	5130
2026-01-23 23:37:00.74	23.52	8.78	-29.2	-32.1	11.6	2.07e-03	0	42	102	1048576	18	5031
2026-01-23 23:37:01.75	23.57	8.86	-29.0	-31.6	12.0	1.59e-03	0	42	102	1048576	18	4837
2026-01-23 23:37:02.74	23.62	8.94	-28.7	-31.2	12.5	1.26e-04	0	42	102	1048576	17	4832
2026-01-23 23:37:03.75	23.67	9.02	-28.5	-30.8	12.7	8.39e-05	0	42	102	1048576	17	4709
2026-01-23 23:37:04.76	23.72	9.10	-28.4	-31.0	12.9	5.41e-05	0	42	102	1048576	16	4866
2026-01-23 23:37:05.76	23.77	9.18	-28.3	-30.8	13.0	3.50e-05	0	42	102	1048576	16	4810
2026-01-23 23:37:06.76	23.82	9.26	-28.3	-30.7	13.1	2.54e-04	0	42	102	1048576	16	4787
2026-01-23 23:37:07.77	23.88	9.34	-28.3	-30.8	13.1	9.91e-05	0	42	102	1048576	16	4799
2026-01-23 23:37:08.78	23.93	9.42	-28.4	-31.1	12.9	4.27e-05	0	42	102	1048576	16	4888
2026-01-23 23:37:09.78	23.98	9.50	-28.3	-30.9	13.0	3.81e-05	0	42	102	1048576	16	4818
2026-01-23 23:37:10.78	24.03	9.58	-28.2	-30.4	13.3	2.21e-05	0	43	102	1048576	16	4682
2026-01-23 23:37:11.79	24.08	9.66	-28.1	-30.3	13.4	1.52e-05	0	43	102	1048576	16	4639
2026-01-23 23:37:12.79	24.14	9.74	-28.1	-30.3	13.4	1.75e-05	0	42	102	1048576	16	4647
2026-01-23 23:37:13.79	24.19	9.83	-27.9	-30.3	13.5	8.30e-06	0	42	102	1048576	15	4764
2026-01-23 23:37:14.80	24.24	9.91	-27.9	-30.4	13.5	1.44e-05	0	42	102	1048576	15	4807
2026-01-23 23:37:15.81	24.30	9.99	-27.8	-30.2	13.6	1.83e-05	0	43	102	1048576	15	4742
2026-01-23 23:37:16.81	24.35	10.07	-27.7	-29.9	13.8	3.00e-06	0	43	102	1048576	15	4621
2026-01-23 23:37:17.81	24.40	10.16	-27.6	-29.6	14.0	4.50e-06	0	43	102	1048576	15	4533
2026-01-23 23:37:18.81	24.46	10.24	-27.6	-29.6	14.0	1.50e-06	0	43	102	1048576	15	4532
2026-01-23 23:37:19.81	24.51	10.32	-27.5	-29.5	14.0	2.20e-06	0	42	102	1048576	15	4514
2026-01-23 23:37:20.81	24.57	10.41	-27.6	-29.6	14.0	1.50e-06	0	43	102	1048576	15	4542
2026-01-23 23:37:21.81	24.62	10.49	-27.4	-29.2	14.2	1.50e-06	0	43	102	1048576	15	4432
2026-01-23 23:37:22.81	24.68	10.57	-27.5	-29.3	14.1	3.80e-06	0	43	102	1048576	15	4461
2026-01-23 23:37:23.82	24.73	10.66	-27.5	-29.3	14.2	0.00e+00	0	43	102	1048576	15	4459
2026-01-23 23:37:24.82	24.79	10.74	-27.5	-29.8	14.2	0.00e+00	0	43	102	1048576	14	4709
2026-01-23 23:37:25.83	24.85	10.83	-27.5	-29.5	14.1	3.00e-06	0	43	102	1048576	15	4503
2026-01-23 23:37:26.84	24.90	10.92	-27.5	-29.4	14.2	1.50e-06	0	43	102	1048576	15	4472
2026-01-23 23:37:27.85	24.96	11.00	-27.7	-29.8	13.9	6.10e-06	0	43	102	1048576	15	4585
2026-01-23 23:37:28.85	25.02	11.09	-27.6	-29.5	14.1	1.50e-06	0	43	102	1048576	15	4520
2026-01-23 23:37:29.86	25.08	11.18	-27.5	-29.4	14.1	2.20e-06	0	43	102	1048576	15	4480
2026-01-23 23:37:30.86	25.13	11.26	-27.6	-29.6	14.1	7.00e-07	0	43	102	1048576	15	4528
2026-01-23 23:37:31.87	25.19	11.35	-27.5	-29.5	14.1	2.20e-06	0	43	102	1048576	15	4499
2026-01-23 23:37:32.87	25.25	11.44	-27.5	-29.5	14.1	7.00e-07	0	43	102	1048576	15	4507
2026-01-23 23:37:33.88	25.31	11.52	-27.5	-29.5	14.1	1.50e-06	0	43	102	1048576	15	4504
2026-01-23 23:37:34.88	25.37	11.61	-27.4	-29.2	14.3	1.50e-06	0	43	102	1048576	15	4402
2026-01-23 23:37:35.89	25.43	11.70	-27.3	-29.5	14.4	0.00e+00	0	43	102	1048576	14	4635
2026-01-23 23:37:36.89	25.49	11.79	-27.3	-29.4	12.7	0.00e+00	0	43	102	1048576	14	4576
2026-01-23 23:37:37.89	25.55	11.88	-27.3	-29.4	13.9	7.00e-07	0	43	102	1048576	14	4581
2026-01-23 23:37:38.90	25.61	11.97	-27.2	-29.3	14.6	7.00e-07	0	43	102	1048576	14	4546
2026-01-23 23:37:39.90	25.67	12.06	-27.2	-29.2	14.6	0.00e+00	0	43	102	1048576	14	4539
2026-01-23 23:37:40.90	25.73	12.15	-27.3	-29.5	14.5	7.00e-07	0	43	102	1048576	14	4608
2026-01-23 23:37:41.91	25.79	12.24	-27.4	-29.6	14.4	0.00e+00	0	43	102	1048576	14	4659
2026-01-23 23:37:42.91	25.86	12.33	-27.4	-29.6	14.4	1.50e-06	0	43	102	1048576	14	4638
2026-01-23 23:37:43.92	25.92	12.42	-27.4	-29.6	14.4	0.00e+00	0	43	102	1048576	14	4649
2026-01-23 23:37:44.93	25.98	12.51	-27.4	-29.7	14.3	0.00e+00	0	43	102	1048576	14	4685
2026-01-23 23:37:45.93	26.04	12.60	-27.4	-29.7	14.3	3.40e-03	0	43	102	1048576	14	4675
2026-01-23 23:37:46.93	26.11	12.69	-27.4	-29.6	14.4	3.39e-03	0	43	102	1048576	14	4644
2026-01-23 23:37:47.93	26.17	12.78	-27.6	-29.6	14.2	1.50e-06	0	43	102	1048576	15	4525
2026-01-23 23:37:48.94	26.23	12.87	-27.4	-29.2	14.3	1.50e-06	0	43	102	1048576	15	4417
2026-01-23 23:37:49.95	26.30	12.97	-27.3	-29.4	14.5	3.54e-03	0	43	102	1048576	14	4588
2026-01-23 23:37:50.95	26.36	13.06	-27.3	-29.5	14.5	0.00e+00	0	43	102	1048576	14	4607
2026-01-23 23:37:51.95	26.43	13.15	-27.4	-29.7	14.4	3.45e-03	0	43	102	1048576	14	4679
2026-01-23 23:37:52.96	26.50	13.25	-27.3	-29.3	14.6	1.50e-06	0	43	102	1048576	14	4555
2026-01-23 23:37:53.96	26.56	13.34	-27.3	-29.4	14.6	7.00e-07	0	43	102	1048576	14	4578
2026-01-23 23:37:54.96	26.63	13.43	-27.4	-29.6	14.5	3.47e-03	0	43	102	1048576	14	4642
2026-01-23 23:37:55.97	26.69	13.53	-27.3	-29.3	14.6	3.48e-03	0	43	102	1048576	14	4556
2026-01-23 23:37:56.97	26.76	13.62	-27.2	-29.1	14.7	0.00e+00	0	43	102	1048576	14	4497
2026-01-23 23:37:57.97	26.83	13.72	-27.2	-29.2	14.7	3.53e-03	0	43	102	1048576	14	4520
2026-01-23 23:37:58.97	26.90	13.81	-27.2	-29.1	14.8	0.00e+00	0	43	102	1048576	14	4477
2026-01-23 23:37:59.98	26.97	13.91	-27.3	-29.4	14.6	0.00e+00	0	43	102	1048576	14	4572
2026-01-23 23:38:00.98	27.03	14.00	-27.3	-29.4	14.6	3.54e-03	0	43	102	1048576	14	4579
2026-01-23 23:38:01.98	27.10	14.10	-27.5	-29.4	14.3	3.51e-03	0	43	102	1048576	15	4471
2026-01-23 23:38:02.99	27.17	14.20	-27.4	-29.0	13.9	7.00e-07	0	43	102	1048576	15	4362
2026-01-23 23:38:03.99	27.24	14.29	-27.3	-29.3	13.7	7.00e-07	0	43	102	1048576	14	4562
2026-01-23 23:38:05.00	27.31	14.39	-27.4	-29.6	14.5	3.47e-03	0	43	102	1048576	14	4650
2026-01-23 23:38:06.00	27.38	14.49	-27.3	-29.3	14.6	0.00e+00	0	43	102	1048576	14	4556
2026-01-23 23:38:07.00	27.46	14.59	-27.3	-29.3	14.7	3.37e-03	0	43	102	1048576	14	4543
2026-01-23 23:38:08.01	27.53	14.69	-27.3	-29.4	14.6	2.70e-03	0	43	102	1048576	14	4577
2026-01-23 23:38:09.01	27.60	14.79	-27.2	-29.2	14.8	1.82e-04	0	43	102	1048576	14	4507
2026-01-23 23:38:10.01	27.67	14.88	-27.2	-29.1	14.8	3.35e-03	0	43	102	1048576	14	4494
2026-01-23 23:38:11.02	27.75	14.98	-27.2	-29.1	14.8	3.40e-03	0	43	102	1048576	14	4483
2026-01-23 23:38:12.02	27.82	15.08	-27.3	-29.3	14.7	7.00e-07	0	43	102	1048576	14	4549
2026-01-23 23:38:13.02	27.89	15.18	-27.2	-29.0	14.8	7.00e-07	0	43	102	1048576	14	4470
2026-01-23 23:38:14.03	27.97	15.29	-27.2	-29.0	14.9	0.00e+00	0	43	102	1048576	14	4461
2026-01-23 23:38:15.03	28.04	15.39	-27.2	-29.1	14.8	8.54e-05	0	43	102	1048576	14	4486
2026-01-23 23:38:16.04	28.12	15.49	-27.3	-29.4	14.7	9.46e-05	0	43	102	1048576	14	4566
2026-01-23 23:38:17.04	28.20	15.59	-27.5	-29.7	14.5	3.44e-03	0	43	102	1048576	14	4676
2026-01-23 23:38:18.05	28.27	15.69	-27.4	-29.7	14.5	0.00e+00	0	43	102	1048576	14	4653
2026-01-23 23:38:19.04	28.35	15.79	-27.4	-29.7	14.5	1.59e-04	0	43	102	1048576	14	4653
2026-01-23 23:38:20.05	28.43	15.90	-27.5	-29.8	14.5	0.00e+00	0	43	102	1048576	14	4682
2026-01-23 23:38:21.05	28.50	16.00	-27.4	-29.7	14.5	2.74e-04	0	43	102	1048576	14	4660
2026-01-23 23:38:22.05	28.58	16.11	-27.5	-29.4	14.4	0.00e+00	0	43	102	1048576	15	4458
2026-01-23 23:38:23.06	28.66	16.21	-27.7	-29.8	14.2	7.00e-07	0	43	102	1048576	15	4594
2026-01-23 23:38:24.07	28.74	16.32	-27.9	-30.3	13.9	3.62e-04	0	43	102	1048576	15	4724
2026-01-23 23:38:25.07	28.82	16.42	-27.6	-29.6	14.3	4.23e-04	0	43	102	1048576	15	4526
2026-01-23 23:38:26.07	28.90	16.53	-27.5	-29.3	14.5	0.00e+00	0	43	102	1048576	15	4431
2026-01-23 23:38:27.08	28.98	16.63	-27.7	-29.7	14.3	6.22e-04	0	43	102	1048576	15	4545
2026-01-23 23:38:28.09	29.07	16.74	-27.5	-29.2	14.5	7.00e-07	0	43	102	1048576	15	4391
2026-01-23 23:38:29.08	29.15	16.84	-27.4	-29.6	14.6	0.00e+00	0	43	102	1048576	14	4637
2026-01-23 23:38:30.08	29.23	16.95	-27.6	-29.5	14.4	1.21e-03	0	43	102	1048576	15	4489
2026-01-23 23:38:31.08	29.31	17.06	-27.7	-29.8	14.2	1.40e-03	0	43	102	1048576	15	4587
2026-01-23 23:38:32.09	29.40	17.17	-27.6	-29.5	14.4	2.20e-06	0	43	102	1048576	15	4501
2026-01-23 23:38:33.09	29.48	17.27	-27.5	-29.3	14.5	7.00e-07	0	43	102	1048576	15	4442
2026-01-23 23:38:34.10	29.57	17.38	-27.5	-29.4	14.5	1.18e-03	0	43	102	1048576	15	4444
2026-01-23 23:38:35.10	29.65	17.49	-27.6	-29.5	14.4	7.00e-07	0	43	102	1048576	15	4477
2026-01-23 23:38:36.10	29.74	17.60	-27.6	-29.5	14.4	1.01e-03	0	43	102	1048576	15	4493
2026-01-23 23:38:37.11	29.83	17.71	-27.5	-29.3	14.5	8.06e-04	0	43	102	1048576	15	4421
2026-01-23 23:38:38.11	29.91	17.82	-27.5	-29.3	14.5	0.00e+00	0	43	102	1048576	15	4431
2026-01-23 23:38:39.12	30.00	17.93	-27.5	-29.2	14.6	0.00e+00	0	44	102	1048576	15	4398
2026-01-23 23:38:40.12	30.09	18.05	-27.5	-29.3	14.6	2.86e-04	0	43	102	1048576	15	4411
2026-01-23 23:38:41.13	30.18	18.16	-27.4	-29.0	14.7	7.00e-07	0	43	102	1048576	15	4332
2026-01-23 23:38:42.12	30.27	18.27	-27.4	-29.1	14.7	4.73e-05	0	43	102	1048576	15	4356
2026-01-23 23:38:43.13	30.36	18.38	-27.4	-29.5	14.7	0.00e+00	0	44	102	1048576	14	4589
2026-01-23 23:38:44.13	30.45	18.50	-27.3	-29.3	14.9	0.00e+00	0	43	102	1048576	14	4540
2026-01-23 23:38:45.13	30.54	18.61	-27.3	-29.2	14.9	0.00e+00	0	44	102	1048576	14	4517
2026-01-23 23:38:46.14	30.64	18.72	-27.2	-29.2	14.9	1.04e-04	0	43	102	1048576	14	4500
2026-01-23 23:38:47.13	30.73	18.84	-27.3	-29.3	14.9	0.00e+00	0	43	102	1048576	14	4546
2026-01-23 23:38:48.14	30.82	18.95	-27.2	-29.0	15.1	0.00e+00	0	43	102	1048576	14	4455
2026-01-23 23:38:49.14	30.92	19.07	-27.1	-28.9	15.1	0.00e+00	0	43	102	1048576	14	4414
2026-01-23 23:38:50.15	31.01	19.18	-27.1	-28.9	15.1	7.00e-07	0	43	102	1048576	14	4429
2026-01-23 23:38:51.15	31.11	19.30	-27.0	-28.6	15.3	6.86e-04	0	44	102	1048576	14	4335
2026-01-23 23:38:52.16	31.21	19.42	-27.1	-28.8	15.2	0.00e+00	0	44	102	1048576	14	4383
2026-01-23 23:38:53.17	31.30	19.54	-27.1	-28.9	15.1	0.00e+00	0	44	102	1048576	14	4412
2026-01-23 23:38:54.18	31.40	19.66	-26.8	-28.3	15.5	0.00e+00	0	44	102	1048576	14	4235
2026-01-23 23:38:55.19	31.50	19.77	-26.7	-28.4	15.6	0.00e+00	0	44	102	1048576	13	4399
2026-01-23 23:38:56.19	31.60	19.89	-26.8	-28.7	15.5	0.00e+00	0	44	102	1048576	13	4460
2026-01-23 23:38:57.19	31.70	20.01	-27.0	-28.5	15.4	0.00e+00	0	43	102	1048576	14	4306
2026-01-23 23:38:58.20	31.80	20.13	-26.7	-28.5	15.6	0.00e+00	0	44	102	1048576	13	4414
2026-01-23 23:38:59.21	31.90	20.25	-26.7	-28.5	15.6	0.00e+00	0	43	102	1048576	13	4425
2026-01-23 23:39:00.21	32.01	20.37	-26.9	-28.8	15.5	0.00e+00	0	44	102	1048576	13	4485
2026-01-23 23:39:01.22	32.11	20.50	-26.7	-28.4	15.7	0.00e+00	0	43	102	1048576	13	4398
2026-01-23 23:39:02.22	32.21	20.62	-26.6	-28.3	15.7	0.00e+00	0	44	102	1048576	13	4356
2026-01-23 23:39:03.23	32.32	20.74	-26.7	-28.4	15.7	3.37e-03	0	44	102	1048576	13	4382
2026-01-23 23:39:04.23	32.43	20.86	-26.5	-28.1	15.9	0.00e+00	0	44	102	1048576	13	4291
2026-01-23 23:39:05.24	32.53	20.99	-26.4	-27.8	16.0	0.00e+00	0	44	102	1048576	13	4229
2026-01-23 23:39:06.24	32.64	21.11	-26.4	-28.2	16.1	0.00e+00	0	44	102	1048576	12	4433
2026-01-23 23:39:07.24	32.75	21.23	-26.4	-28.2	16.1	0.00e+00	0	44	102	1048576	12	4443
2026-01-23 23:39:08.25	32.86	21.36	-26.3	-28.1	16.2	0.00e+00	0	44	102	1048576	12	4403
2026-01-23 23:39:09.25	32.97	21.49	-26.3	-27.9	16.2	2.86e-03	0	44	102	1048576	12	4359
2026-01-23 23:39:10.25	33.08	21.61	-26.3	-28.0	16.2	0.00e+00	0	44	102	1048576	12	4395
2026-01-23 23:39:11.26	33.19	21.74	-26.5	-28.4	16.0	0.00e+00	0	43	102	1048576	12	4499
2026-01-23 23:39:12.26	33.30	21.87	-26.7	-28.3	15.8	2.92e-03	0	44	102	1048576	13	4366
2026-01-23 23:39:13.27	33.42	21.99	-26.8	-28.6	15.6	2.95e-03	0	43	102	1048576	13	4424
2026-01-23 23:39:14.28	33.53	22.12	-26.6	-28.1	15.9	0.00e+00	0	44	102	1048576	13	4308
2026-01-23 23:39:15.28	33.65	22.25	-26.4	-27.8	16.1	3.06e-03	0	44	102	1048576	13	4218
2026-01-23 23:39:16.28	33.76	22.38	-26.4	-28.3	16.1	0.00e+00	0	44	102	1048576	12	4473
2026-01-23 23:39:17.29	33.88	22.51	-26.4	-28.4	16.0	0.00e+00	0	44	102	1048576	12	4484
2026-01-23 23:39:18.30	34.00	22.64	-26.4	-28.2	16.1	3.11e-03	0	43	102	1048576	12	4455
2026-01-23 23:39:19.29	34.12	22.77	-26.7	-28.4	15.7	3.06e-03	0	44	102	1048576	13	4389
2026-01-23 23:39:20.29	34.23	22.90	-26.9	-28.4	15.5	0.00e+00	0	43	102	1048576	14	4272
2026-01-23 23:39:21.29	34.36	23.03	-26.5	-28.0	16.0	2.79e-03	0	43	102	1048576	13	4266
2026-01-23 23:39:22.30	34.48	23.17	-26.3	-27.9	16.3	2.59e-03	0	43	102	1048576	12	4363
2026-01-23 23:39:23.30	34.60	23.30	-26.2	-27.7	16.4	0.00e+00	0	44	102	1048576	12	4313
2026-01-23 23:39:24.30	34.72	23.43	-26.3	-28.0	16.2	2.18e-03	0	44	102	1048576	12	4387
2026-01-23 23:39:25.31	34.85	23.57	-26.2	-27.8	16.4	2.09e-03	0	44	102	1048576	12	4336
2026-01-23 23:39:26.32	34.98	23.70	-26.2	-27.9	16.3	0.00e+00	0	44	102	1048576	12	4353
2026-01-23 23:39:27.32	35.10	23.84	-26.3	-27.9	16.3	0.00e+00	0	44	102	1048576	12	4367
2026-01-23 23:39:28.32	35.23	23.97	-26.3	-28.1	16.2	1.96e-03	0	44	102	1048576	12	4393
2026-01-23 23:39:29.33	35.36	24.11	-26.2	-27.7	16.4	0.00e+00	0	44	102	1048576	12	4306
2026-01-23 23:39:30.34	35.49	24.25	-26.3	-27.9	16.3	1.93e-03	0	44	102	1048576	12	4363
2026-01-23 23:39:31.35	35.62	24.39	-26.3	-28.0	16.3	0.00e+00	0	44	102	1048576	12	4385
2026-01-23 23:39:32.35	35.76	24.52	-26.2	-27.8	16.4	0.00e+00	0	44	102	1048576	12	4317
2026-01-23 23:39:33.35	35.89	24.66	-26.2	-27.7	16.4	1.99e-03	0	44	102	1048576	12	4297
2026-01-23 23:39:34.36	36.02	24.80	-26.2	-27.8	16.4	2.18e-03	0	44	102	1048576	12	4336
2026-01-23 23:39:35.36	36.16	24.94	-26.2	-27.8	16.4	0.00e+00	0	44	102	1048576	12	4333
2026-01-23 23:39:36.36	36.30	25.08	-26.3	-27.9	16.3	0.00e+00	0	44	102	1048576	12	4363
2026-01-23 23:39:37.36	36.43	25.22	-26.2	-27.9	16.4	0.00e+00	0	44	102	1048576	12	4345
2026-01-23 23:39:38.37	36.57	25.37	-26.3	-28.0	16.3	8.85e-05	0	44	102	1048576	12	4382
2026-01-23 23:39:39.37	36.72	25.51	-26.3	-28.0	16.3	3.18e-04	0	44	102	1048576	12	4390
2026-01-23 23:39:40.38	36.86	25.65	-26.4	-28.2	16.2	0.00e+00	0	44	102	1048576	12	4424
2026-01-23 23:39:41.38	37.00	25.80	-26.5	-28.4	16.1	0.00e+00	0	44	102	1048576	12	4505
2026-01-23 23:39:42.38	37.14	25.94	-26.6	-28.2	15.9	0.00e+00	0	44	102	1048576	13	4319
2026-01-23 23:39:43.38	37.29	26.08	-26.7	-28.3	15.9	0.00e+00	0	44	102	1048576	13	4362
2026-01-23 23:39:44.39	37.44	26.23	-26.6	-28.2	15.9	5.56e-05	0	44	102	1048576	13	4337
2026-01-23 23:39:45.39	37.59	26.37	-26.8	-28.5	15.8	0.00e+00	0	44	102	1048576	13	4414
2026-01-23 23:39:46.39	37.73	26.52	-26.8	-28.6	15.7	0.00e+00	0	44	102	1048576	13	4427
2026-01-23 23:39:47.40	37.89	26.67	-26.8	-28.5	15.8	0.00e+00	0	44	102	1048576	13	4417
2026-01-23 23:39:48.41	38.04	26.82	-26.8	-28.6	15.7	7.00e-07	0	44	102	1048576	13	4432
2026-01-23 23:39:49.41	38.19	26.97	-26.8	-28.6	15.8	0.00e+00	0	44	102	1048576	13	4427
2026-01-23 23:39:50.41	38.35	27.11	-26.8	-28.6	15.7	0.00e+00	0	44	102	1048576	13	4437
2026-01-23 23:39:51.41	38.50	27.26	-26.8	-28.6	15.7	0.00e+00	0	44	102	1048576	13	4438
2026-01-23 23:39:52.42	38.66	27.41	-26.9	-28.8	15.6	0.00e+00	0	44	102	1048576	13	4489
2026-01-23 23:39:53.42	38.82	27.56	-27.2	-29.1	15.2	0.00e+00	0	44	102	1048576	14	4445
2026-01-23 23:39:54.43	38.98	27.72	-27.3	-29.2	15.2	0.00e+00	0	44	102	1048576	14	4480
2026-01-23 23:39:55.43	39.15	27.87	-27.1	-28.8	15.4	0.00e+00	0	44	102	1048576	14	4358
2026-01-23 23:39:56.43	39.31	28.02	-26.9	-28.3	15.7	9.90e-06	0	44	102	1048576	14	4241
2026-01-23 23:39:57.43	39.47	28.17	-26.9	-28.3	15.7	1.67e-05	0	44	102	1048576	14	4237
2026-01-23 23:39:58.44	39.64	28.33	-26.9	-28.8	15.7	0.00e+00	0	44	102	1048576	13	4483
2026-01-23 23:39:59.44	39.81	28.48	-26.9	-28.8	15.6	4.55e-04	0	44	102	1048576	13	4490
2026-01-23 23:40:00.45	39.98	28.64	-26.9	-28.8	15.7	6.05e-04	0	44	102	1048576	13	4488
2026-01-23 23:40:01.45	40.15	28.79	-27.0	-29.0	15.5	0.00e+00	0	44	102	1048576	13	4546
2026-01-23 23:40:02.46	40.33	28.95	-27.0	-28.5	15.6	7.08e-04	0	44	102	1048576	14	4280
2026-01-23 23:40:03.46	40.50	29.11	-27.1	-28.7	15.5	3.47e-04	0	44	102	1048576	14	4334
2026-01-23 23:40:04.47	40.68	29.26	-27.1	-28.7	15.5	0.00e+00	0	44	102	1048576	14	4335
2026-01-23 23:40:05.48	40.86	29.42	-26.9	-28.4	15.6	7.40e-05	0	44	102	1048576	14	4264
2026-01-23 23:40:06.49	41.04	29.58	-27.0	-28.6	15.5	7.32e-05	0	44	102	1048576	14	4325
2026-01-23 23:40:07.49	41.22	29.74	-27.0	-28.6	15.6	0.00e+00	0	44	102	1048576	14	4320
2026-01-23 23:40:08.50	41.41	29.90	-26.9	-28.3	15.7	0.00e+00	0	44	102	1048576	14	4246
2026-01-23 23:40:09.50	41.59	30.06	-26.9	-28.8	15.7	7.40e-05	0	44	102	1048576	13	4497
2026-01-23 23:40:10.50	41.78	30.22	-27.0	-28.6	15.5	0.00e+00	0	44	102	1048576	14	4320
2026-01-23 23:40:11.51	41.97	30.38	-27.1	-28.8	15.5	1.31e-04	0	44	102	1048576	14	4364
2026-01-23 23:40:12.51	42.16	30.55	-27.1	-28.7	15.5	0.00e+00	0	44	102	1048576	14	4332
2026-01-23 23:40:13.51	42.35	30.71	-27.0	-28.5	15.6	0.00e+00	0	44	102	1048576	14	4277
2026-01-23 23:40:14.51	42.55	30.87	-26.9	-28.3	15.7	1.27e-04	0	44	102	1048576	14	4223
2026-01-23 23:40:15.51	42.74	31.03	-26.8	-28.2	15.8	7.62e-05	0	44	102	1048576	14	4192
2026-01-23 23:40:16.51	42.94	31.20	-26.9	-28.3	15.8	0.00e+00	0	44	102	1048576	14	4220
2026-01-23 23:40:17.52	43.14	31.36	-27.0	-28.4	15.7	0.00e+00	0	44	102	1048576	14	4265
2026-01-23 23:40:18.52	43.34	31.53	-27.0	-28.4	15.7	0.00e+00	0	44	102	1048576	14	4264
2026-01-23 23:40:19.52	43.55	31.69	-26.7	-27.9	16.0	0.00e+00	0	44	102	1048576	14	4132
2026-01-23 23:40:20.53	43.76	31.86	-26.8	-28.1	15.9	2.21e-04	0	44	102	1048576	14	4170
2026-01-23 23:40:21.53	43.96	32.03	-26.8	-28.1	15.9	0.00e+00	0	44	102	1048576	14	4171
2026-01-23 23:40:22.54	44.18	32.20	-26.8	-28.2	15.8	0.00e+00	0	44	102	1048576	14	4193
2026-01-23 23:40:23.55	44.39	32.37	-26.9	-28.2	15.8	0.00e+00	0	44	102	1048576	14	4210
2026-01-23 23:40:24.55	44.61	32.53	-26.8	-28.2	15.9	0.00e+00	0	44	102	1048576	14	4192
2026-01-23 23:40:25.56	44.82	32.70	-26.8	-28.2	15.9	0.00e+00	0	44	102	1048576	14	4194
2026-01-23 23:40:26.56	45.04	32.87	-27.2	-28.9	15.4	0.00e+00	0	44	102	1048576	14	4403
2026-01-23 23:40:27.56	45.27	33.04	-27.2	-29.0	15.4	0.00e+00	0	44	102	1048576	14	4428
2026-01-23 23:40:28.56	45.49	33.21	-27.0	-28.4	15.7	0.00e+00	0	44	102	1048576	14	4256
2026-01-23 23:40:29.56	45.71	33.38	-27.0	-28.5	15.7	0.00e+00	0	44	102	1048576	14	4282
2026-01-23 23:40:30.57	45.95	33.56	-27.0	-28.6	15.6	0.00e+00	0	44	102	1048576	14	4320
2026-01-23 23:40:31.57	46.18	33.73	-27.1	-28.7	15.6	0.00e+00	0	44	102	1048576	14	4331
2026-01-23 23:40:32.58	46.41	33.90	-27.2	-28.9	15.5	7.00e-07	0	44	102	1048576	14	4388
2026-01-23 23:40:33.59	46.65	34.08	-27.3	-29.1	15.4	0.00e+00	0	44	102	1048576	14	4449
2026-01-23 23:40:34.59	46.89	34.25	-27.5	-29.6	15.1	0.00e+00	0	44	102	1048576	14	4584
2026-01-23 23:40:35.60	47.13	34.42	-27.7	-29.6	14.9	0.00e+00	0	44	102	1048576	15	4475
2026-01-23 23:40:36.61	47.38	34.60	-27.6	-29.4	14.9	0.00e+00	0	44	102	1048576	15	4435
2026-01-23 23:40:37.61	47.62	34.77	-27.7	-29.6	14.8	0.00e+00	0	44	102	1048576	15	4494
2026-01-23 23:40:38.61	47.87	34.95	-27.7	-29.5	14.9	7.00e-07	0	44	102	1048576	15	4466
2026-01-23 23:40:39.62	48.12	35.13	-27.7	-29.7	14.8	0.00e+00	0	44	102	1048576	15	4507
2026-01-23 23:40:40.62	48.38	35.30	-27.8	-29.8	14.7	0.00e+00	0	44	102	1048576	15	4557
2026-01-23 23:40:41.63	48.64	35.48	-27.9	-30.0	14.6	0.00e+00	0	44	102	1048576	15	4616
2026-01-23 23:40:42.64	48.90	35.66	-27.8	-29.9	14.7	0.00e+00	0	44	102	1048576	15	4568
2026-01-23 23:40:43.64	49.16	35.83	-27.8	-29.9	14.7	0.00e+00	0	44	102	1048576	15	4575
2026-01-23 23:40:44.64	49.42	36.01	-28.2	-30.3	14.4	7.00e-07	0	44	102	1048576	16	4554
2026-01-23 23:40:45.65	49.69	36.19	-28.2	-30.3	14.3	7.00e-07	0	44	102	1048576	16	4572
2026-01-23 23:40:46.66	49.97	36.37	-28.3	-30.4	14.3	7.00e-07	0	44	102	1048576	16	4588
2026-01-23 23:40:47.66	50.24	36.55	-28.4	-30.8	14.1	2.20e-06	0	44	102	1048576	16	4723
2026-01-23 23:40:48.66	50.52	36.72	-28.7	-31.1	13.6	3.80e-06	0	44	102	1048576	17	4699
2026-01-23 23:40:49.66	50.80	36.90	-28.9	-31.4	13.4	1.22e-05	0	44	102	1048576	17	4798
2026-01-23 23:40:50.67	51.08	37.08	-28.9	-31.5	13.3	1.44e-05	0	44	102	1048576	17	4832
2026-01-23 23:40:51.68	51.37	37.26	-29.0	-31.2	13.3	1.37e-05	0	44	102	1048576	18	4631
2026-01-23 23:40:52.68	51.66	37.44	-29.1	-31.4	13.1	2.74e-05	0	44	102	1048576	18	4672
2026-01-23 23:40:53.68	51.95	37.62	-29.3	-31.8	12.9	3.50e-05	0	44	102	1048576	18	4816
2026-01-23 23:40:54.68	52.24	37.80	-29.2	-31.7	13.0	3.43e-05	0	44	102	1048576	18	4768
2026-01-23 23:40:55.69	52.54	37.98	-29.0	-31.1	13.4	2.05e-05	0	44	102	1048576	18	4573
2026-01-23 23:40:56.69	52.85	38.16	-28.9	-30.9	13.4	2.44e-05	0	44	102	1048576	18	4534
2026-01-23 23:40:57.69	53.15	38.34	-29.0	-31.1	13.3	1.60e-05	0	44	102	1048576	18	4589
2026-01-23 23:40:58.70	53.46	38.52	-29.2	-31.6	13.0	3.05e-05	0	44	102	1048576	18	4731
2026-01-23 23:40:59.70	53.77	38.70	-29.2	-31.7	12.9	3.58e-05	0	44	102	1048576	18	4775
2026-01-23 23:41:00.70	54.09	38.88	-29.4	-32.1	12.7	4.73e-05	0	44	102	1048576	18	4910
2026-01-23 23:41:01.70	54.41	39.06	-29.4	-31.7	12.7	1.17e-04	0	44	102	1048576	19	4667
2026-01-23 23:41:02.70	54.73	39.24	-29.2	-31.2	13.0	4.88e-05	0	44	102	1048576	19	4500
2026-01-23 23:41:03.70	55.05	39.42	-29.0	-30.7	13.3	1.60e-05	0	44	102	1048576	19	4359
2026-01-23 23:41:04.70	55.38	39.60	-28.8	-30.1	13.7	1.44e-05	0	44	102	1048576	19	4192
2026-01-23 23:41:05.70	55.71	39.78	-28.8	-30.6	13.7	9.90e-06	0	44	102	1048576	18	4429
2026-01-23 23:41:06.71	56.05	39.96	-28.8	-30.6	13.7	9.90e-06	0	44	102	1048576	18	4431
2026-01-23 23:41:07.71	56.39	40.14	-28.9	-31.0	13.5	9.10e-06	0	44	102	1048576	18	4548
2026-01-23 23:41:08.71	56.74	40.32	-29.1	-31.3	13.2	2.36e-05	0	44	102	1048576	18	4663
2026-01-23 23:41:09.72	57.09	40.50	-29.2	-31.7	13.1	2.89e-05	0	44	102	1048576	18	4780
2026-01-23 23:41:10.72	57.44	40.67	-29.3	-31.8	12.9	5.41e-05	0	44	102	1048576	18	4823
2026-01-23 23:41:11.72	57.79	40.85	-29.4	-32.2	12.7	5.56e-05	0	44	102	1048576	18	4948
2026-01-23 23:41:12.73	58.15	41.03	-29.4	-31.6	12.8	8.92e-05	0	44	102	1048576	19	4639
2026-01-23 23:41:13.73	58.52	41.21	-29.3	-31.5	12.8	6.17e-05	0	44	102	1048576	19	4607
2026-01-23 23:41:14.74	58.89	41.39	-29.3	-31.5	12.8	6.10e-05	0	44	102	1048576	19	4608
2026-01-23 23:41:15.74	59.26	41.56	-29.3	-31.5	12.9	5.87e-05	0	44	102	1048576	19	4594
2026-01-23 23:41:16.74	59.63	41.74	-29.2	-31.0	13.1	4.34e-05	0	44	102	1048576	19	4459
2026-01-23 23:41:17.74	60.01	41.92	-29.4	-31.5	12.9	2.04e-04	0	44	102	1048576	19	4595
2026-01-23 23:41:18.75	60.40	42.09	-29.3	-31.3	13.0	5.11e-05	0	44	102	1048576	19	4531
2026-01-23 23:41:19.75	60.79	42.27	-29.1	-30.9	13.2	3.66e-05	0	44	102	1048576	19	4416
2026-01-23 23:41:20.76	61.18	42.44	-29.2	-31.2	13.1	2.51e-05	0	44	102	1048576	19	4509
2026-01-23 23:41:21.77	61.58	42.62	-29.2	-31.0	13.2	2.59e-05	0	44	102	1048576	19	4442
2026-01-23 23:41:22.77	61.98	42.79	-29.1	-30.8	13.3	2.08e-04	0	44	102	1048576	19	4392
2026-01-23 23:41:23.78	62.39	42.96	-29.0	-30.6	13.4	2.06e-04	0	44	102	1048576	19	4321
2026-01-23 23:41:24.79	62.80	43.13	-29.1	-30.8	13.3	1.60e-05	0	44	102	1048576	19	4378
2026-01-23 23:41:25.79	63.21	43.30	-29.1	-30.7	13.3	2.82e-05	0	44	102	1048576	19	4365
2026-01-23 23:41:26.80	63.63	43.47	-29.1	-30.7	13.3	1.06e-05	0	44	102	1048576	19	4364
2026-01-23 23:41:27.80	64.06	43.64	-29.0	-30.7	13.3	1.22e-05	0	44	102	1048576	19	4349
2026-01-23 23:41:28.80	64.48	43.81	-29.1	-30.9	13.2	1.98e-05	0	44	102	1048576	19	4414
2026-01-23 23:41:29.81	64.92	43.98	-29.3	-31.3	13.0	2.36e-05	0	44	102	1048576	19	4530
2026-01-23 23:41:30.81	65.35	44.14	-29.4	-31.7	12.8	5.79e-05	0	44	102	1048576	19	4658
2026-01-23 23:41:31.81	65.79	44.31	-29.5	-31.7	12.7	5.18e-05	0	44	102	1048576	19	4680
2026-01-23 23:41:32.82	66.24	44.47	-29.5	-31.7	12.7	6.79e-05	0	44	102	1048576	19	4681
2026-01-23 23:41:33.82	66.69	44.63	-29.6	-32.2	12.4	8.92e-05	0	44	102	1048576	19	4828
2026-01-23 23:41:34.82	67.14	44.79	-29.8	-32.7	12.1	2.46e-04	0	44	102	1048576	19	4993
2026-01-23 23:41:35.82	67.60	44.95	-29.8	-32.6	12.2	2.16e-04	0	44	102	1048576	19	4948
2026-01-23 23:41:36.83	68.06	45.11	-29.8	-32.6	12.2	1.71e-04	0	44	102	1048576	19	4957
2026-01-23 23:41:37.83	68.53	45.27	-29.6	-32.1	12.6	1.04e-04	0	44	102	1048576	19	4779
2026-01-23 23:41:38.83	69.00	45.42	-29.5	-31.8	12.7	1.13e-04	0	44	102	1048576	19	4690
2026-01-23 23:41:39.84	69.48	45.58	-29.5	-31.8	12.7	8.23e-05	0	44	102	1048576	19	4706
2026-01-23 23:41:40.85	69.97	45.73	-29.8	-32.6	12.2	1.83e-04	0	44	102	1048576	19	4953
2026-01-23 23:41:41.86	70.45	45.88	-29.6	-32.1	12.5	1.36e-04	0	44	102	1048576	19	4790
2026-01-23 23:41:42.86	70.94	46.03	-29.4	-31.5	12.9	6.25e-05	0	44	102	1048576	19	4591
2026-01-23 23:41:43.87	71.44	46.18	-29.3	-31.3	13.1	5.34e-05	0	44	102	1048576	19	4546
2026-01-23 23:41:44.87	71.94	46.32	-29.3	-31.3	13.1	7.55e-05	0	44	102	1048576	19	4525
2026-01-23 23:41:45.88	72.45	46.47	-29.3	-31.2	13.1	3.20e-05	0	44	102	1048576	19	4492
2026-01-23 23:41:46.88	72.96	46.61	-29.3	-31.3	13.1	3.20e-05	0	44	102	1048576	19	4542
2026-01-23 23:41:47.87	73.47	46.75	-29.6	-32.1	12.6	2.47e-04	0	44	102	1048576	19	4789
2026-01-23 23:41:48.88	73.99	46.89	-29.3	-31.2	13.1	3.20e-05	0	44	102	1048576	19	4484
2026-01-23 23:41:49.89	74.51	47.02	-28.9	-30.4	13.5	6.56e-05	0	44	102	1048576	19	4258
2026-01-23 23:41:50.89	75.04	47.16	-28.8	-30.1	13.7	5.30e-06	0	44	102	1048576	19	4168
2026-01-23 23:41:51.89	75.57	47.29	-28.8	-30.6	13.7	1.14e-05	0	44	102	1048576	18	4424
2026-01-23 23:41:52.90	76.11	47.42	-28.9	-30.8	13.6	4.11e-05	0	44	102	1048576	18	4477
2026-01-23 23:41:53.90	76.65	47.54	-28.9	-30.7	13.7	1.14e-05	0	44	102	1048576	18	4466
2026-01-23 23:41:54.90	77.19	47.67	-29.0	-31.1	13.5	7.60e-06	0	44	102	1048576	18	4564
2026-01-23 23:41:55.91	77.75	47.79	-29.0	-31.2	13.5	1.14e-05	0	44	102	1048576	18	4596
2026-01-23 23:41:56.91	78.30	47.91	-29.2	-31.7	13.1	1.67e-05	0	44	102	1048576	18	4752
2026-01-23 23:41:57.92	78.86	48.03	-29.2	-31.6	13.2	2.82e-05	0	44	102	1048576	18	4727
2026-01-23 23:41:58.92	79.42	48.14	-29.2	-31.5	13.3	2.67e-05	0	44	102	1048576	18	4702
2026-01-23 23:41:59.93	79.99	48.25	-29.1	-31.3	13.4	5.03e-05	0	44	102	1048576	18	4631
2026-01-23 23:42:00.93	80.56	48.36	-29.3	-31.7	13.1	2.36e-05	0	44	102	1048576	18	4759
2026-01-23 23:42:01.94	81.14	48.47	-29.2	-31.5	13.3	7.93e-05	0	44	102	1048576	18	4700
2026-01-23 23:42:02.95	81.72	48.57	-29.2	-31.6	13.2	2.33e-04	0	44	102	1048576	18	4748
2026-01-23 23:42:03.95	82.30	48.67	-29.4	-32.0	12.9	4.04e-05	0	44	102	1048576	18	4866
2026-01-23 23:42:04.96	82.89	48.77	-28.9	-30.9	13.6	1.44e-05	0	44	102	1048576	18	4510
2026-01-23 23:42:05.96	83.48	48.86	-28.7	-30.2	14.1	2.20e-06	0	44	102	1048576	18	4308
2026-01-23 23:42:06.97	84.07	48.96	-28.8	-30.5	13.9	5.30e-06	0	44	102	1048576	18	4408
2026-01-23 23:42:07.98	84.67	49.05	-28.9	-30.9	13.6	4.50e-06	0	44	102	1048576	18	4514
2026-01-23 23:42:08.98	85.27	49.13	-29.0	-31.1	13.5	1.75e-05	0	44	102	1048576	18	4583
2026-01-23 23:42:09.99	85.88	49.21	-29.0	-31.1	13.6	1.14e-05	0	44	102	1048576	18	4560
2026-01-23 23:42:10.99	86.48	49.29	-29.0	-31.0	13.6	9.90e-06	0	44	102	1048576	18	4549
2026-01-23 23:42:11.99	87.09	49.37	-29.2	-31.5	13.3	1.29e-05	0	44	102	1048576	18	4714
2026-01-23 23:42:12.99	87.70	49.44	-29.0	-31.0	13.6	1.29e-05	0	44	102	1048576	18	4554
2026-01-23 23:42:13.98	88.31	49.51	-28.8	-30.5	13.9	9.10e-06	0	44	102	1048576	18	4379
2026-01-23 23:42:14.99	88.93	49.57	-28.5	-29.8	14.3	0.00e+00	0	44	102	1048576	18	4197
2026-01-23 23:42:15.99	89.55	49.64	-28.5	-29.7	14.3	7.00e-07	0	44	102	1048576	18	4154
2026-01-23 23:42:17.00	90.18	49.70	-28.7	-30.2	14.1	2.20e-06	0	44	102	1048576	18	4306
2026-01-23 23:42:18.00	90.80	49.75	-28.8	-30.5	13.8	5.30e-06	0	44	102	1048576	18	4399
2026-01-23 23:42:19.01	91.43	49.80	-28.7	-30.2	14.1	1.50e-06	0	44	102	1048576	18	4312
2026-01-23 23:42:20.01	92.06	49.85	-28.7	-30.3	14.1	4.50e-06	0	44	102	1048576	18	4319
2026-01-23 23:42:21.01	92.69	49.90	-28.8	-30.5	13.9	2.20e-06	0	44	102	1048576	18	4400
2026-01-23 23:42:22.02	93.33	49.94	-28.9	-30.7	13.8	6.10e-06	0	44	102	1048576	18	4453
2026-01-23 23:42:23.02	93.96	49.98	-28.7	-30.2	14.1	2.20e-06	0	44	102	1048576	18	4308
2026-01-23 23:42:24.02	94.59	50.01	-28.5	-29.9	14.3	7.00e-07	0	44	102	1048576	18	4224
2026-01-23 23:42:25.03	95.23	50.04	-28.8	-30.5	13.9	2.20e-06	0	44	102	1048576	18	4396
2026-01-23 23:42:26.04	95.88	50.07	-28.7	-30.2	14.1	0.00e+00	0	44	102	1048576	18	4307
2026-01-23 23:42:27.04	96.52	50.09	-29.0	-31.0	13.6	1.14e-05	0	44	102	1048576	18	4548
2026-01-23 23:42:28.03	97.15	50.11	-28.9	-30.8	13.8	3.00e-06	0	44	102	1048576	18	4472
2026-01-23 23:42:29.04	97.80	50.12	-28.6	-30.2	14.2	1.50e-06	0	44	102	1048576	18	4286
2026-01-23 23:42:30.04	98.44	50.14	-28.6	-30.2	14.2	7.00e-07	0	44	102	1048576	18	4295
2026-01-23 23:42:31.05	99.08	50.14	-28.5	-29.9	14.2	3.00e-06	0	44	102	1048576	18	4211
2026-01-23 23:42:32.06	99.73	50.15	-28.5	-29.8	14.3	7.00e-07	0	44	102	1048576	18	4178
2026-01-23 23:42:33.07	100.38	50.15	-28.9	-30.7	13.8	3.00e-06	0	44	102	1048576	18	4462
2026-01-23 23:42:34.07	101.02	50.15	-28.9	-30.7	13.8	4.50e-06	0	44	102	1048576	18	4452
2026-01-23 23:42:35.07	101.66	50.14	-29.1	-31.2	13.5	1.14e-05	0	44	102	1048576	18	4607
2026-01-23 23:42:36.07	102.30	50.13	-28.9	-30.7	13.8	4.50e-06	0	44	102	1048576	18	4450
2026-01-23 23:42:37.08	102.95	50.11	-28.6	-30.2	14.2	3.00e-06	0	44	102	1048576	18	4297
2026-01-23 23:42:38.08	103.59	50.10	-28.5	-30.0	14.2	1.50e-06	0	44	102	1048576	18	4240
2026-01-23 23:42:39.09	104.23	50.07	-28.7	-30.2	14.1	4.50e-06	0	44	102	1048576	18	4302
2026-01-23 23:42:40.09	104.87	50.05	-28.5	-29.8	14.4	7.00e-07	0	44	102	1048576	18	4191
2026-01-23 23:42:41.09	105.50	50.02	-28.7	-30.3	14.1	7.00e-07	0	44	102	1048576	18	4335
2026-01-23 23:42:42.10	106.15	49.99	-28.6	-30.1	14.2	7.00e-07	0	44	102	1048576	18	4281
2026-01-23 23:42:43.10	106.78	49.95	-28.4	-29.5	14.5	7.00e-07	0	44	102	1048576	18	4113
2026-01-23 23:42:44.10	107.41	49.91	-28.5	-30.2	14.4	0.00e+00	0	44	102	1048576	17	4420
2026-01-23 23:42:45.11	108.05	49.86	-28.3	-29.9	14.6	7.00e-07	0	44	102	1048576	17	4309
2026-01-23 23:42:46.11	108.68	49.82	-28.3	-29.9	14.6	7.00e-07	0	44	102	1048576	17	4314
2026-01-23 23:42:47.11	109.30	49.77	-28.4	-30.0	14.5	0.00e+00	0	44	102	1048576	17	4356
2026-01-23 23:42:48.12	109.94	49.71	-29.0	-31.4	13.6	3.80e-06	0	44	102	1048576	17	4783
2026-01-23 23:42:49.12	110.56	49.65	-29.1	-31.2	13.5	9.10e-06	0	44	102	1048576	18	4608
2026-01-23 23:42:50.11	111.17	49.59	-28.9	-30.8	13.8	9.10e-06	0	44	102	1048576	18	4467
2026-01-23 23:42:51.12	111.79	49.53	-28.7	-30.2	14.1	2.20e-06	0	44	102	1048576	18	4311
2026-01-23 23:42:52.12	112.41	49.46	-28.8	-30.5	13.9	2.20e-06	0	44	102	1048576	18	4386
2026-01-23 23:42:53.12	113.02	49.39	-29.2	-31.6	13.3	1.14e-05	0	44	102	1048576	18	4720
2026-01-23 23:42:54.12	113.63	49.31	-29.3	-31.7	13.2	2.05e-05	0	44	102	1048576	18	4768
2026-01-23 23:42:55.12	114.24	49.23	-29.4	-31.9	13.1	3.28e-05	0	44	102	1048576	18	4833
2026-01-23 23:42:56.11	114.83	49.15	-29.4	-31.5	13.0	3.20e-05	0	44	102	1048576	19	4595
2026-01-23 23:42:57.11	115.43	49.07	-29.3	-31.2	13.3	2.44e-05	0	44	102	1048576	19	4499
2026-01-23 23:42:58.11	116.03	48.98	-29.3	-31.4	13.1	5.49e-05	0	44	102	1048576	19	4550
2026-01-23 23:42:59.11	116.62	48.89	-28.9	-30.3	13.8	9.10e-06	0	44	102	1048576	19	4221
2026-01-23 23:43:00.12	117.22	48.80	-28.9	-30.4	13.7	3.80e-06	0	44	102	1048576	19	4243
2026-01-23 23:43:01.12	117.80	48.70	-29.3	-31.4	13.1	2.21e-05	0	44	102	1048576	19	4541
2026-01-23 23:43:02.11	118.38	48.60	-29.5	-31.7	13.0	3.89e-05	0	44	102	1048576	19	4659
2026-01-23 23:43:03.12	118.96	48.50	-29.6	-32.1	12.7	1.04e-04	0	44	102	1048576	19	4777
2026-01-23 23:43:04.13	119.54	48.39	-29.1	-30.7	13.6	5.34e-05	0	44	102	1048576	19	4330
2026-01-23 23:43:05.13	120.12	48.28	-28.6	-30.0	14.2	3.80e-06	0	44	102	1048576	18	4248
2026-01-23 23:43:06.14	120.69	48.17	-28.7	-30.3	14.1	1.50e-06	0	44	102	1048576	18	4325
2026-01-23 23:43:07.14	121.25	48.06	-29.1	-31.2	13.5	2.20e-06	0	44	102	1048576	18	4617
2026-01-23 23:43:08.15	121.81	47.94	-29.3	-31.8	13.2	2.51e-05	0	44	102	1048576	18	4796
2026-01-23 23:43:09.16	122.37	47.82	-29.6	-32.0	12.7	5.11e-05	0	44	102	1048576	19	4756
2026-01-23 23:43:10.16	122.92	47.70	-29.7	-32.2	12.5	7.55e-05	0	44	102	1048576	19	4829
2026-01-23 23:43:11.17	123.48	47.58	-29.8	-32.6	12.4	1.84e-04	0	44	102	1048576	19	4961
2026-01-23 23:43:12.18	124.02	47.45	-29.6	-32.0	12.7	1.01e-04	0	44	102	1048576	19	4745
2026-01-23 23:43:13.17	124.55	47.32	-29.5	-31.8	12.9	5.18e-05	0	44	102	1048576	19	4676
2026-01-23 23:43:14.18	125.09	47.19	-29.7	-32.3	12.5	8.77e-05	0	44	102	1048576	19	4849
2026-01-23 23:43:15.18	125.62	47.06	-29.8	-32.4	12.5	1.14e-04	0	44	102	1048576	19	4895
2026-01-23 23:43:16.18	126.14	46.92	-29.8	-32.5	12.4	1.99e-04	0	44	102	1048576	19	4929
2026-01-23 23:43:17.19	126.67	46.78	-29.8	-32.6	12.4	1.83e-04	0	44	102	1048576	19	4955
2026-01-23 23:43:18.19	127.18	46.65	-29.9	-32.9	12.2	1.98e-04	0	44	102	1048576	19	5051
2026-01-23 23:43:19.19	127.69	46.50	-29.9	-32.8	12.2	1.86e-04	0	44	102	1048576	19	5037
2026-01-23 23:43:20.20	128.21	46.36	-29.8	-32.6	12.4	2.30e-04	0	44	102	1048576	19	4936
2026-01-23 23:43:21.20	128.71	46.21	-29.4	-31.6	13.0	5.49e-05	0	44	102	1048576	19	4627
2026-01-23 23:43:22.20	129.20	46.07	-29.2	-31.1	13.3	3.12e-05	0	44	102	1048576	19	4458
2026-01-23 23:43:23.21	129.70	45.92	-29.2	-31.0	13.3	1.60e-05	0	44	102	1048576	19	4443
2026-01-23 23:43:24.22	130.19	45.77	-29.3	-31.2	13.2	2.59e-05	0	44	102	1048576	19	4491
2026-01-23 23:43:25.23	130.68	45.61	-29.4	-31.5	13.0	5.72e-05	0	44	102	1048576	19	4592
2026-01-23 23:43:26.23	131.16	45.46	-29.5	-31.9	12.8	7.17e-05	0	44	102	1048576	19	4715
2026-01-23 23:43:27.23	131.63	45.30	-29.6	-32.0	12.7	8.16e-05	0	44	102	1048576	19	4773
2026-01-23 23:43:28.24	132.11	45.15	-29.6	-32.0	12.7	1.79e-04	0	44	102	1048576	19	4755
2026-01-23 23:43:29.24	132.57	44.99	-29.3	-31.4	13.1	1.23e-04	0	44	102	1048576	19	4555
2026-01-23 23:43:30.24	133.03	44.83	-29.2	-31.1	13.2	2.51e-05	0	44	102	1048576	19	4478
2026-01-23 23:43:31.25	133.49	44.67	-29.4	-31.5	13.0	4.95e-05	0	44	102	1048576	19	4581
2026-01-23 23:43:32.25	133.94	44.51	-29.4	-31.6	12.9	5.03e-05	0	44	102	1048576	19	4625
2026-01-23 23:43:33.25	134.39	44.34	-29.5	-31.7	12.9	4.95e-05	0	44	102	1048576	19	4664
2026-01-23 23:43:34.26	134.83	44.18	-29.7	-32.3	12.5	4.74e-04	0	44	102	1048576	19	4846
2026-01-23 23:43:35.27	135.27	44.01	-29.8	-32.6	12.3	6.23e-04	0	44	102	1048576	19	4954
2026-01-23 23:43:36.27	135.71	43.84	-29.7	-32.4	12.5	1.62e-04	0	44	102	1048576	19	4876
2026-01-23 23:43:37.28	136.14	43.67	-29.3	-31.3	13.2	4.73e-05	0	44	102	1048576	19	4522
2026-01-23 23:43:38.28	136.56	43.50	-29.2	-31.5	13.3	1.75e-05	0	44	102	1048576	18	4702
2026-01-23 23:43:39.29	136.99	43.33	-29.3	-31.8	13.0	4.04e-05	0	44	102	1048576	18	4799
2026-01-23 23:43:40.30	137.41	43.16	-29.3	-31.8	13.1	2.89e-05	0	44	102	1048576	18	4800
2026-01-23 23:43:41.30	137.82	42.99	-29.5	-31.8	12.8	5.03e-05	0	44	102	1048576	19	4691
2026-01-23 23:43:42.31	138.23	42.82	-29.5	-31.7	12.9	4.88e-05	0	44	102	1048576	19	4654
2026-01-23 23:43:43.31	138.63	42.64	-29.4	-31.5	13.0	5.56e-05	0	44	102	1048576	19	4584
2026-01-23 23:43:44.32	139.03	42.47	-29.0	-31.0	13.6	1.22e-05	0	44	102	1048576	18	4550
2026-01-23 23:43:45.32	139.42	42.29	-28.8	-30.7	13.8	5.30e-06	0	44	102	1048576	18	4440
2026-01-23 23:43:46.32	139.81	42.12	-28.8	-30.6	13.8	3.80e-06	0	44	102	1048576	18	4408
2026-01-23 23:43:47.32	140.20	41.94	-28.7	-30.8	14.0	6.10e-06	0	44	102	1048576	17	4578
2026-01-23 23:43:48.33	140.58	41.76	-29.0	-31.1	13.5	5.30e-06	0	44	102	1048576	18	4575
2026-01-23 23:43:49.33	140.96	41.59	-29.1	-31.2	13.4	1.44e-05	0	44	102	1048576	18	4617
2026-01-23 23:43:50.34	141.34	41.41	-29.3	-31.9	13.0	3.12e-05	0	44	102	1048576	18	4842
2026-01-23 23:43:51.35	141.71	41.23	-29.3	-31.9	13.0	3.50e-05	0	44	102	1048576	18	4842
2026-01-23 23:43:52.35	142.07	41.05	-29.2	-31.5	13.2	3.12e-05	0	44	102	1048576	18	4697
2026-01-23 23:43:53.36	142.44	40.87	-29.2	-31.7	13.1	2.67e-05	0	44	102	1048576	18	4763
2026-01-23 23:43:54.36	142.79	40.69	-29.4	-31.6	12.8	4.95e-05	0	44	102	1048576	19	4636
2026-01-23 23:43:55.36	143.15	40.51	-29.7	-32.3	12.5	1.47e-04	0	44	102	1048576	19	4871
2026-01-23 23:43:56.37	143.50	40.33	-29.6	-32.0	12.6	8.62e-05	0	44	102	1048576	19	4757
2026-01-23 23:43:57.38	143.85	40.15	-29.8	-32.6	12.3	1.45e-04	0	44	102	1048576	19	4976
2026-01-23 23:43:58.38	144.19	39.97	-30.1	-32.9	11.7	5.45e-04	0	44	102	1048576	20	4962
2026-01-23 23:43:59.39	144.53	39.79	-30.2	-33.0	11.5	8.62e-04	0	44	102	1048576	20	5022
2026-01-23 23:44:00.39	144.87	39.61	-30.0	-32.6	11.9	5.00e-04	0	44	102	1048576	20	4864
2026-01-23 23:44:01.40	145.20	39.43	-29.9	-32.3	12.0	3.41e-04	0	44	102	1048576	20	4763
2026-01-23 23:44:02.41	145.53	39.24	-29.6	-32.0	12.6	1.43e-04	0	44	102	1048576	19	4764
2026-01-23 23:44:03.40	145.85	39.07	-29.4	-31.6	12.8	4.73e-05	0	44	102	1048576	19	4634
2026-01-23 23:44:04.41	146.17	38.88	-29.6	-31.9	12.7	9.99e-05	0	44	102	1048576	19	4737
2026-01-23 23:44:05.42	146.49	38.70	-29.6	-32.1	12.6	6.17e-05	0	44	102	1048576	19	4782
2026-01-23 23:44:06.42	146.81	38.52	-29.7	-32.3	12.4	2.01e-04	0	44	102	1048576	19	4862
2026-01-23 23:44:07.43	147.12	38.34	-29.2	-31.0	13.2	4.95e-05	0	44	102	1048576	19	4452
2026-01-23 23:44:08.43	147.42	38.16	-28.7	-30.3	13.9	8.30e-06	0	44	102	1048576	18	4350
2026-01-23 23:44:09.43	147.73	37.98	-28.5	-29.8	14.2	1.50e-06	0	44	102	1048576	18	4182
2026-01-23 23:44:10.44	148.03	37.79	-28.6	-30.7	14.0	7.00e-07	0	44	102	1048576	17	4574
2026-01-23 23:44:11.45	148.33	37.61	-29.0	-31.5	13.5	8.30e-06	0	44	102	1048576	17	4835
2026-01-23 23:44:12.45	148.62	37.43	-29.1	-31.4	13.3	1.98e-05	0	44	102	1048576	18	4678
2026-01-23 23:44:13.46	148.91	37.25	-28.8	-30.7	13.7	4.50e-06	0	44	102	1048576	18	4466
2026-01-23 23:44:14.47	149.20	37.07	-28.4	-30.1	14.3	3.00e-06	0	44	102	1048576	17	4385
2026-01-23 23:44:15.48	149.49	36.89	-28.2	-29.7	14.5	0.00e+00	0	44	102	1048576	17	4262
2026-01-23 23:44:16.47	149.77	36.71	-28.2	-30.2	14.5	2.20e-06	0	44	102	1048576	16	4527
2026-01-23 23:44:17.47	150.05	36.53	-28.3	-30.4	14.4	3.00e-06	0	44	102	1048576	16	4597
2026-01-23 23:44:18.48	150.32	36.35	-28.4	-30.6	14.2	7.00e-07	0	44	102	1048576	16	4663
2026-01-23 23:44:19.47	150.59	36.17	-28.5	-30.5	14.0	2.20e-06	0	44	102	1048576	17	4500
2026-01-23 23:44:20.48	150.86	35.99	-28.7	-30.8	13.9	5.30e-06	0	44	102	1048576	17	4601
2026-01-23 23:44:21.47	151.13	35.82	-28.0	-30.3	13.6	9.10e-06	0	44	102	1048576	17	4688
2026-01-23 23:44:22.48	151.39	35.64	-28.6	-31.2	12.8	6.10e-06	0	44	102	1048576	16	4826
2026-01-23 23:44:23.48	151.65	35.46	-28.3	-30.0	14.4	7.00e-07	0	44	102	1048576	17	4347
2026-01-23 23:44:24.49	151.91	35.28	-28.2	-30.3	14.3	0.00e+00	0	44	102	1048576	16	4556
2026-01-23 23:44:25.49	152.17	35.11	-28.4	-30.7	14.2	1.50e-06	0	44	102	1048576	16	4669
2026-01-23 23:44:26.49	152.42	34.93	-28.4	-30.7	14.2	2.20e-06	0	44	102	1048576	16	4687
2026-01-23 23:44:27.49	152.67	34.75	-28.4	-30.7	14.2	2.87e-03	0	44	102	1048576	16	4701
2026-01-23 23:44:28.49	152.91	34.58	-28.6	-30.6	14.0	0.00e+00	0	44	102	1048576	17	4550
2026-01-23 23:44:29.50	153.16	34.40	-28.7	-31.0	13.7	4.50e-06	0	44	102	1048576	17	4670
2026-01-23 23:44:30.50	153.40	34.23	-28.1	-30.5	13.3	8.30e-06	0	44	102	1048576	17	4767
2026-01-23 23:44:31.50	153.64	34.05	-28.6	-30.6	13.6	5.30e-06	0	44	102	1048576	17	4551
2026-01-23 23:44:32.51	153.88	33.88	-28.2	-29.7	14.5	7.00e-07	0	44	102	1048576	17	4280
2026-01-23 23:44:33.52	154.12	33.70	-28.0	-29.2	14.8	0.00e+00	0	44	102	1048576	17	4142
2026-01-23 23:44:34.52	154.35	33.53	-27.9	-29.5	14.9	7.00e-07	0	44	102	1048576	16	4319
2026-01-23 23:44:35.52	154.58	33.36	-27.8	-29.3	15.0	0.00e+00	0	44	102	1048576	16	4268
2026-01-23 23:44:36.52	154.80	33.19	-28.1	-29.9	14.7	6.10e-04	0	44	102	1048576	16	4452
2026-01-23 23:44:37.53	155.03	33.01	-28.0	-29.7	14.8	1.11e-03	0	44	102	1048576	16	4399
2026-01-23 23:44:38.53	155.25	32.84	-27.7	-29.1	15.1	0.00e+00	0	44	102	1048576	16	4212
2026-01-23 23:44:39.53	155.47	32.67	-27.3	-29.1	15.5	1.97e-03	0	44	102	1048576	14	4452
2026-01-23 23:44:40.53	155.69	32.50	-27.1	-28.7	15.7	0.00e+00	0	44	102	1048576	14	4321
2026-01-23 23:44:41.53	155.91	32.33	-27.0	-28.5	15.9	0.00e+00	0	44	102	1048576	14	4261
2026-01-23 23:44:42.54	156.12	32.16	-27.2	-29.0	15.6	2.84e-03	0	44	102	1048576	14	4401
2026-01-23 23:44:43.54	156.33	31.99	-27.4	-29.5	15.3	2.97e-03	0	44	102	1048576	14	4549
2026-01-23 23:44:44.55	156.54	31.82	-27.4	-28.9	15.4	0.00e+00	0	44	102	1048576	15	4271
2026-01-23 23:44:45.55	156.75	31.66	-27.3	-29.1	15.5	0.00e+00	0	44	102	1048576	14	4445
2026-01-23 23:44:46.55	156.96	31.49	-27.3	-29.3	15.3	2.73e-03	0	44	102	1048576	14	4508
2026-01-23 23:44:47.55	157.16	31.32	-27.3	-29.2	15.4	0.00e+00	0	44	102	1048576	14	4483
2026-01-23 23:44:48.55	157.36	31.16	-27.1	-28.8	15.6	2.04e-03	0	44	102	1048576	14	4368
2026-01-23 23:44:49.56	157.56	30.99	-27.1	-28.8	15.6	1.81e-03	0	44	102	1048576	14	4354
2026-01-23 23:44:50.56	157.76	30.83	-27.2	-29.0	15.5	0.00e+00	0	44	102	1048576	14	4423
2026-01-23 23:44:51.56	157.95	30.66	-27.3	-29.1	15.4	1.91e-03	0	44	102	1048576	14	4459
2026-01-23 23:44:52.57	158.15	30.50	-27.3	-29.2	15.4	2.27e-03	0	44	102	1048576	14	4462
2026-01-23 23:44:53.57	158.34	30.34	-27.5	-29.0	15.2	0.00e+00	0	44	102	1048576	15	4322
2026-01-23 23:44:54.58	158.53	30.17	-27.3	-29.2	15.4	3.31e-03	0	44	102	1048576	14	4467
2026-01-23 23:44:55.58	158.72	30.01	-27.4	-29.3	15.3	2.36e-03	0	44	102	1048576	14	4520
2026-01-23 23:44:56.59	158.90	29.85	-27.5	-29.1	15.2	0.00e+00	0	44	102	1048576	15	4328
2026-01-23 23:44:57.59	159.09	29.69	-27.5	-29.6	15.2	4.48e-03	0	44	102	1048576	14	4603
2026-01-23 23:44:58.59	159.27	29.53	-27.6	-29.4	15.0	4.77e-03	0	44	102	1048576	15	4416
2026-01-23 23:44:59.59	159.45	29.37	-27.8	-29.9	14.7	0.00e+00	0	44	102	1048576	15	4565
2026-01-23 23:45:00.59	159.63	29.21	-27.8	-29.8	14.8	0.00e+00	0	44	102	1048576	15	4536
2026-01-23 23:45:01.60	159.81	29.05	-27.6	-29.3	15.0	0.00e+00	0	44	102	1048576	15	4399
2026-01-23 23:45:02.61	159.98	28.89	-27.3	-28.7	15.4	0.00e+00	0	44	102	1048576	15	4245
2026-01-23 23:45:03.61	160.16	28.74	-27.1	-28.7	15.7	5.37e-03	0	44	102	1048576	14	4332
2026-01-23 23:45:04.61	160.33	28.58	-26.9	-28.7	15.9	5.24e-03	0	44	102	1048576	13	4463
2026-01-23 23:45:05.61	160.50	28.43	-26.7	-28.3	16.1	0.00e+00	0	44	102	1048576	13	4331
2026-01-23 23:45:06.61	160.67	28.27	-26.7	-28.3	16.2	0.00e+00	0	44	102	1048576	13	4320
2026-01-23 23:45:07.62	160.84	28.11	-26.7	-28.4	16.1	0.00e+00	0	44	102	1048576	13	4366
2026-01-23 23:45:08.62	161.00	27.96	-26.8	-28.7	15.9	0.00e+00	0	44	102	1048576	13	4440
2026-01-23 23:45:09.62	161.17	27.81	-26.8	-28.6	16.0	6.92e-03	0	44	102	1048576	13	4408
2026-01-23 23:45:10.63	161.33	27.65	-26.8	-28.6	16.0	6.10e-06	0	44	102	1048576	13	4412
2026-01-23 23:45:11.63	161.49	27.50	-26.9	-28.8	15.8	0.00e+00	0	44	102	1048576	13	4480
2026-01-23 23:45:12.64	161.65	27.35	-27.0	-28.9	15.7	0.00e+00	0	44	102	1048576	13	4512
2026-01-23 23:45:13.64	161.81	27.20	-26.9	-28.9	15.8	0.00e+00	0	44	102	1048576	13	4506
2026-01-23 23:45:14.64	161.97	27.05	-27.0	-28.9	15.7	0.00e+00	0	44	102	1048576	13	4509
2026-01-23 23:45:15.65	162.12	26.90	-27.0	-28.9	15.7	0.00e+00	0	44	102	1048576	13	4522
2026-01-23 23:45:16.65	162.28	26.75	-27.1	-28.9	15.5	7.00e-07	0	44	102	1048576	14	4386
2026-01-23 23:45:17.66	162.43	26.60	-27.2	-28.9	15.5	0.00e+00	0	44	102	1048576	14	4394
2026-01-23 23:45:18.67	162.58	26.45	-27.0	-28.5	15.7	0.00e+00	0	44	102	1048576	14	4277
2026-01-23 23:45:19.67	162.73	26.30	-26.8	-28.6	15.9	0.00e+00	0	44	102	1048576	13	4439
2026-01-23 23:45:20.68	162.88	26.15	-26.8	-28.7	15.8	0.00e+00	0	44	102	1048576	13	4458
2026-01-23 23:45:21.68	163.03	26.01	-26.8	-28.6	15.9	0.00e+00	0	44	102	1048576	13	4428
2026-01-23 23:45:22.69	163.17	25.86	-26.7	-28.4	16.0	0.00e+00	0	44	102	1048576	13	4380
2026-01-23 23:45:23.69	163.32	25.72	-26.7	-28.5	16.0	0.00e+00	0	44	102	1048576	13	4395
2026-01-23 23:45:24.70	163.46	25.57	-26.7	-28.4	16.0	0.00e+00	0	44	102	1048576	13	4385
2026-01-23 23:45:25.69	163.60	25.43	-26.7	-28.3	16.1	0.00e+00	0	44	102	1048576	13	4343
2026-01-23 23:45:26.69	163.74	25.29	-26.7	-28.4	16.0	0.00e+00	0	44	102	1048576	13	4364
2026-01-23 23:45:27.69	163.88	25.15	-26.7	-28.4	16.0	0.00e+00	0	44	102	1048576	13	4367
2026-01-23 23:45:28.70	164.02	25.00	-26.7	-28.4	16.0	0.00e+00	0	44	102	1048576	13	4361
2026-01-23 23:45:29.70	164.16	24.86	-26.7	-28.3	16.1	0.00e+00	0	44	102	1048576	13	4345
2026-01-23 23:45:30.70	164.30	24.72	-26.8	-28.5	15.9	0.00e+00	0	44	102	1048576	13	4393
2026-01-23 23:45:31.70	164.43	24.58	-26.8	-28.6	15.9	0.00e+00	0	44	102	1048576	13	4417
2026-01-23 23:45:32.71	164.56	24.44	-26.8	-28.6	15.9	0.00e+00	0	44	102	1048576	13	4431
2026-01-23 23:45:33.71	164.70	24.30	-26.8	-28.6	15.8	0.00e+00	0	44	102	1048576	13	4428
2026-01-23 23:45:34.72	164.83	24.16	-26.8	-28.6	15.9	0.00e+00	0	44	102	1048576	13	4419
2026-01-23 23:45:35.73	164.96	24.02	-26.7	-28.4	16.0	0.00e+00	0	44	102	1048576	13	4366
2026-01-23 23:45:36.72	165.09	23.89	-26.7	-28.3	16.0	0.00e+00	0	44	102	1048576	13	4352
2026-01-23 23:45:37.73	165.22	23.75	-26.7	-28.5	15.9	0.00e+00	0	44	102	1048576	13	4391
2026-01-23 23:45:38.73	165.34	23.61	-26.6	-28.3	16.0	0.00e+00	0	44	102	1048576	13	4338
2026-01-23 23:45:39.74	165.47	23.48	-26.6	-28.1	16.1	0.00e+00	0	44	102	1048576	13	4298
2026-01-23 23:45:40.75	165.60	23.34	-26.6	-28.2	16.0	0.00e+00	0	44	102	1048576	13	4331
2026-01-23 23:45:41.75	165.72	23.21	-26.6	-28.2	16.1	0.00e+00	0	44	102	1048576	13	4318
2026-01-23 23:45:42.74	165.84	23.07	-26.6	-28.1	16.1	0.00e+00	0	44	102	1048576	13	4296
2026-01-23 23:45:43.75	165.96	22.94	-26.5	-28.0	16.1	0.00e+00	0	44	102	1048576	13	4274
2026-01-23 23:45:44.76	166.09	22.81	-26.6	-28.2	16.1	0.00e+00	0	44	102	1048576	13	4310
2026-01-23 23:45:45.76	166.20	22.67	-26.6	-28.1	16.1	0.00e+00	0	44	102	1048576	13	4297
2026-01-23 23:45:46.76	166.32	22.54	-26.7	-28.5	15.9	0.00e+00	0	44	102	1048576	13	4396
2026-01-23 23:45:47.77	166.44	22.41	-26.7	-28.5	15.9	0.00e+00	0	44	102	1048576	13	4403
2026-01-23 23:45:48.77	166.56	22.28	-26.7	-28.3	16.0	0.00e+00	0	44	102	1048576	13	4359
2026-01-23 23:45:49.78	166.68	22.15	-26.7	-28.4	15.9	0.00e+00	0	44	102	1048576	13	4388
2026-01-23 23:45:50.79	166.79	22.02	-26.8	-28.6	15.8	0.00e+00	0	44	102	1048576	13	4437
2026-01-23 23:45:51.79	166.91	21.89	-26.8	-28.7	15.8	0.00e+00	0	44	102	1048576	13	4455
2026-01-23 23:45:52.80	167.02	21.76	-26.9	-28.8	15.7	0.00e+00	0	44	102	1048576	13	4490
2026-01-23 23:45:53.80	167.13	21.63	-27.0	-28.6	15.6	0.00e+00	0	44	102	1048576	14	4318
2026-01-23 23:45:54.81	167.24	21.51	-27.2	-29.0	15.3	5.30e-06	0	44	102	1048576	14	4436
2026-01-23 23:45:55.81	167.35	21.38	-27.1	-28.8	15.5	0.00e+00	0	44	102	1048576	14	4360
2026-01-23 23:45:56.82	167.46	21.25	-26.9	-28.4	15.7	0.00e+00	0	44	102	1048576	14	4274
2026-01-23 23:45:57.82	167.57	21.13	-26.9	-28.9	15.7	7.00e-07	0	44	102	1048576	13	4518
2026-01-23 23:45:58.82	167.68	21.00	-26.9	-28.9	15.7	0.00e+00	0	44	102	1048576	13	4505
2026-01-23 23:45:59.83	167.79	20.88	-27.0	-28.6	15.5	0.00e+00	0	44	102	1048576	14	4327
2026-01-23 23:46:00.83	167.89	20.75	-27.2	-29.1	15.2	3.25e-03	0	44	102	1048576	14	4467
2026-01-23 23:46:01.83	168.00	20.63	-27.1	-28.9	15.4	0.00e+00	0	44	102	1048576	14	4403
2026-01-23 23:46:02.84	168.11	20.51	-27.0	-28.6	15.5	0.00e+00	0	44	102	1048576	14	4312
2026-01-23 23:46:03.85	168.21	20.38	-26.9	-28.8	15.7	3.80e-06	0	44	102	1048576	13	4494
2026-01-23 23:46:04.85	168.31	20.26	-26.8	-28.7	15.7	0.00e+00	0	44	102	1048576	13	4498
2026-01-23 23:46:05.85	168.42	20.14	-26.8	-28.8	14.8	3.17e-03	0	44	102	1048576	13	4500
2026-01-23 23:46:06.86	168.52	20.02	-27.1	-28.7	13.8	5.27e-03	0	44	102	1048576	14	4337
2026-01-23 23:46:07.86	168.62	19.90	-27.3	-29.2	15.1	0.00e+00	0	44	102	1048576	14	4483
2026-01-23 23:46:08.86	168.72	19.78	-27.1	-28.8	15.3	0.00e+00	0	44	102	1048576	14	4378
2026-01-23 23:46:09.87	168.82	19.66	-26.8	-28.7	15.7	3.09e-03	0	44	102	1048576	13	4455
2026-01-23 23:46:10.88	168.92	19.54	-27.0	-29.0	15.5	0.00e+00	0	44	102	1048576	13	4550
2026-01-23 23:46:11.88	169.01	19.42	-27.1	-28.7	15.5	5.75e-03	0	44	102	1048576	14	4342
2026-01-23 23:46:12.88	169.11	19.30	-27.2	-28.9	15.3	5.59e-03	0	44	102	1048576	14	4419
2026-01-23 23:46:13.89	169.21	19.18	-27.1	-28.8	15.4	7.00e-07	0	44	102	1048576	14	4387
2026-01-23 23:46:14.89	169.30	19.07	-27.0	-28.7	15.5	2.95e-03	0	44	102	1048576	14	4343
2026-01-23 23:46:15.90	169.40	18.95	-27.2	-28.9	15.3	2.94e-03	0	44	102	1048576	14	4405
2026-01-23 23:46:16.90	169.49	18.83	-27.1	-28.7	15.4	1.04e-04	0	44	102	1048576	14	4352
2026-01-23 23:46:17.91	169.59	18.72	-27.1	-28.7	15.4	5.90e-03	0	44	102	1048576	14	4345
2026-01-23 23:46:18.91	169.68	18.60	-27.1	-28.7	15.4	3.04e-03	0	44	102	1048576	14	4353
2026-01-23 23:46:19.92	169.77	18.49	-27.3	-29.3	15.1	7.00e-07	0	44	102	1048576	14	4526
2026-01-23 23:46:20.93	169.87	18.37	-27.1	-28.8	15.4	3.27e-03	0	44	102	1048576	14	4377
2026-01-23 23:46:21.93	169.96	18.26	-26.9	-28.8	15.6	6.39e-03	0	44	102	1048576	13	4492
2026-01-23 23:46:22.93	170.05	18.14	-27.1	-28.7	15.4	1.31e-04	0	44	102	1048576	14	4360
2026-01-23 23:46:23.94	170.14	18.03	-27.4	-29.5	15.0	3.27e-03	0	44	102	1048576	14	4583
2026-01-23 23:46:24.95	170.23	17.92	-27.2	-29.1	15.2	3.21e-03	0	44	102	1048576	14	4466
2026-01-23 23:46:25.95	170.31	17.80	-27.4	-29.4	15.0	0.00e+00	0	44	102	1048576	14	4549
2026-01-23 23:46:26.96	170.40	17.69	-27.6	-29.4	14.8	6.62e-03	0	44	102	1048576	15	4432
2026-01-23 23:46:27.97	170.49	17.58	-27.5	-29.2	14.9	6.84e-03	0	44	102	1048576	15	4366
2026-01-23 23:46:28.97	170.58	17.47	-27.4	-29.0	14.9	5.64e-05	0	44	102	1048576	15	4331
2026-01-23 23:46:29.98	170.66	17.36	-27.4	-29.6	14.9	3.36e-03	0	44	102	1048576	14	4605
2026-01-23 23:46:30.98	170.75	17.25	-27.5	-29.3	14.8	5.79e-05	0	44	102	1048576	15	4412
2026-01-23 23:46:31.98	170.83	17.14	-27.4	-29.0	14.9	6.33e-05	0	44	102	1048576	15	4326
2026-01-23 23:46:32.98	170.92	17.03	-27.4	-29.4	15.0	2.82e-03	0	44	102	1048576	14	4558
2026-01-23 23:46:33.98	171.00	16.92	-27.5	-29.6	14.9	2.59e-03	0	44	102	1048576	14	4633
2026-01-23 23:46:34.99	171.08	16.81	-27.4	-29.6	14.9	7.00e-07	0	44	102	1048576	14	4605
2026-01-23 23:46:35.99	171.16	16.71	-27.5	-29.7	14.8	0.00e+00	0	44	102	1048576	14	4652
2026-01-23 23:46:36.99	171.25	16.60	-27.5	-29.7	14.8	0.00e+00	0	44	102	1048576	14	4645
2026-01-23 23:46:38.00	171.33	16.49	-27.6	-29.6	14.6	7.60e-06	0	44	102	1048576	15	4503
2026-01-23 23:46:39.00	171.41	16.39	-27.9	-30.1	14.2	1.91e-03	0	44	102	1048576	15	4682
2026-01-23 23:46:40.00	171.49	16.28	-27.7	-29.7	14.5	1.82e-03	0	44	102	1048576	15	4532
2026-01-23 23:46:41.00	171.57	16.18	-27.6	-29.4	14.6	0.00e+00	0	44	102	1048576	15	4455
2026-01-23 23:46:42.01	171.65	16.07	-27.5	-29.7	14.7	0.00e+00	0	44	102	1048576	14	4665
2026-01-23 23:46:43.01	171.73	15.96	-27.5	-29.3	14.7	1.59e-03	0	44	102	1048576	15	4436
2026-01-23 23:46:44.02	171.80	15.86	-27.7	-29.7	14.5	1.69e-04	0	44	102	1048576	15	4555
2026-01-23 23:46:45.02	171.88	15.76	-27.6	-29.5	14.6	1.33e-03	0	44	102	1048576	15	4484
2026-01-23 23:46:46.02	171.96	15.65	-27.7	-29.6	14.5	0.00e+00	0	44	102	1048576	15	4521
2026-01-23 23:46:47.03	172.04	15.55	-27.9	-30.2	14.2	3.80e-06	0	44	102	1048576	15	4694
2026-01-23 23:46:48.03	172.11	15.45	-27.7	-29.8	14.4	9.10e-06	0	44	102	1048576	15	4564
2026-01-23 23:46:49.03	172.19	15.34	-27.5	-29.4	14.6	1.50e-06	0	44	102	1048576	15	4460
2026-01-23 23:46:50.04	172.26	15.24	-27.6	-29.5	14.5	2.63e-04	0	44	102	1048576	15	4492
2026-01-23 23:46:51.04	172.34	15.14	-27.6	-29.5	14.5	0.00e+00	0	44	102	1048576	15	4492
2026-01-23 23:46:52.04	172.41	15.04	-27.5	-29.4	14.6	0.00e+00	0	44	102	1048576	15	4454
2026-01-23 23:46:53.05	172.49	14.94	-27.6	-29.5	14.5	0.00e+00	0	44	102	1048576	15	4492
2026-01-23 23:46:54.05	172.56	14.84	-27.5	-29.3	14.6	1.98e-05	0	44	102	1048576	15	4438
2026-01-23 23:46:55.05	172.63	14.74	-27.6	-29.6	14.5	1.16e-03	0	44	102	1048576	15	4521
2026-01-23 23:46:56.06	172.70	14.64	-27.5	-29.4	14.6	0.00e+00	0	44	102	1048576	15	4452
2026-01-23 23:46:57.07	172.78	14.54	-27.5	-29.4	14.6	1.60e-05	0	44	102	1048576	15	4445
2026-01-23 23:46:58.07	172.85	14.44	-27.5	-29.4	14.6	7.00e-07	0	44	102	1048576	15	4445
2026-01-23 23:46:59.08	172.92	14.34	-27.6	-29.6	14.5	7.00e-07	0	44	102	1048576	15	4513
2026-01-23 23:47:00.09	172.99	14.24	-27.6	-29.5	14.5	9.90e-06	0	44	102	1048576	15	4481
2026-01-23 23:47:01.09	173.06	14.14	-27.6	-29.6	14.4	7.00e-07	0	44	102	1048576	15	4513
2026-01-23 23:47:02.09	173.13	14.04	-27.6	-29.5	14.5	0.00e+00	0	44	102	1048576	15	4491
2026-01-23 23:47:03.10	173.20	13.95	-27.8	-29.9	14.3	1.37e-05	0	44	102	1048576	15	4599
2026-01-23 23:47:04.10	173.27	13.85	-27.6	-29.6	14.4	7.00e-07	0	44	102	1048576	15	4508
2026-01-23 23:47:05.10	173.33	13.75	-27.7	-29.9	14.3	7.00e-07	0	44	102	1048576	15	4591
2026-01-23 23:47:06.11	173.40	13.66	-27.9	-30.2	14.1	7.00e-07	0	44	102	1048576	15	4690
2026-01-23 23:47:07.12	173.47	13.56	-27.8	-30.0	14.2	7.00e-07	0	44	102	1048576	15	4620
2026-01-23 23:47:08.11	173.54	13.47	-27.7	-29.9	14.3	2.20e-06	0	44	102	1048576	15	4592
2026-01-23 23:47:09.11	173.60	13.37	-27.7	-29.8	14.3	1.50e-06	0	44	102	1048576	15	4577
2026-01-23 23:47:10.11	173.67	13.28	-27.8	-29.9	14.3	3.00e-06	0	44	102	1048576	15	4592
2026-01-23 23:47:11.12	173.74	13.18	-27.7	-29.8	14.3	7.00e-07	0	44	102	1048576	15	4563
2026-01-23 23:47:12.12	173.80	13.09	-27.8	-30.0	14.2	1.50e-06	0	44	102	1048576	15	4623
2026-01-23 23:47:13.12	173.87	12.99	-27.7	-29.7	14.4	0.00e+00	0	44	102	1048576	15	4542
2026-01-23 23:47:14.12	173.93	12.90	-27.7	-29.6	14.4	2.20e-06	0	44	102	1048576	15	4516
2026-01-23 23:47:15.13	173.99	12.81	-27.7	-29.7	14.4	7.00e-07	0	44	102	1048576	15	4535
2026-01-23 23:47:16.14	174.06	12.71	-27.6	-29.5	14.4	1.50e-06	0	44	102	1048576	15	4496
2026-01-23 23:47:17.14	174.12	12.62	-27.6	-29.6	14.4	1.50e-06	0	44	102	1048576	15	4500
2026-01-23 23:47:18.15	174.19	12.53	-27.7	-29.7	14.3	0.00e+00	0	44	102	1048576	15	4542
2026-01-23 23:47:19.15	174.25	12.44	-27.8	-30.0	14.2	0.00e+00	0	44	102	1048576	15	4620
2026-01-23 23:47:20.15	174.31	12.34	-27.7	-29.7	12.9	1.50e-06	0	44	102	1048576	15	4532
2026-01-23 23:47:21.15	174.37	12.25	-27.7	-29.6	14.2	1.50e-06	0	44	102	1048576	15	4520
2026-01-23 23:47:22.15	174.43	12.16	-27.8	-29.9	14.2	7.00e-07	0	44	102	1048576	15	4597
2026-01-23 23:47:23.16	174.50	12.07	-27.7	-29.7	14.4	2.96e-03	0	44	102	1048576	15	4534
2026-01-23 23:47:24.16	174.56	11.98	-27.7	-29.7	14.3	0.00e+00	0	44	102	1048576	15	4540
2026-01-23 23:47:25.16	174.62	11.89	-27.7	-29.8	14.3	2.20e-06	0	44	102	1048576	15	4570
2026-01-23 23:47:26.16	174.68	11.80	-27.7	-29.7	14.3	1.50e-06	0	44	102	1048576	15	4527
2026-01-23 23:47:27.16	174.74	11.71	-27.8	-30.0	14.1	1.50e-06	0	44	102	1048576	15	4636
2026-01-23 23:47:28.16	174.80	11.62	-27.7	-29.7	14.3	3.80e-06	0	44	102	1048576	15	4533
2026-01-23 23:47:29.17	174.86	11.54	-27.6	-29.4	14.4	2.86e-03	0	44	102	1048576	15	4458
2026-01-23 23:47:30.17	174.91	11.45	-27.6	-29.6	14.3	1.50e-06	0	44	102	1048576	15	4508
2026-01-23 23:47:31.18	174.97	11.36	-27.7	-29.7	14.2	7.00e-07	0	44	102	1048576	15	4557
2026-01-23 23:47:32.18	175.03	11.27	-27.8	-29.9	14.1	2.35e-03	0	44	102	1048576	15	4616
2026-01-23 23:47:33.18	175.09	11.18	-27.9	-30.3	13.9	3.03e-03	0	44	102	1048576	15	4717
2026-01-23 23:47:34.19	175.15	11.09	-27.9	-30.1	14.0	3.00e-06	0	44	102	1048576	15	4674
2026-01-23 23:47:35.20	175.20	11.01	-27.8	-30.0	14.1	2.92e-03	0	44	102	1048576	15	4638
2026-01-23 23:47:36.20	175.26	10.92	-27.9	-30.3	13.9	7.00e-07	0	44	102	1048576	15	4730
2026-01-23 23:47:37.21	175.32	10.83	-27.9	-30.2	13.9	2.20e-06	0	44	102	1048576	15	4705
2026-01-23 23:47:38.22	175.37	10.75	-28.2	-30.4	13.7	3.09e-03	0	44	102	1048576	16	4623
2026-01-23 23:47:39.22	175.43	10.66	-28.4	-30.9	13.4	3.00e-03	0	44	102	1048576	16	4812
2026-01-23 23:47:40.22	175.49	10.58	-28.4	-30.8	13.4	1.52e-05	0	44	102	1048576	16	4775
2026-01-23 23:47:41.23	175.54	10.49	-28.5	-31.0	13.3	3.07e-03	0	44	102	1048576	16	4844
2026-01-23 23:47:42.24	175.60	10.40	-28.4	-30.9	13.3	3.03e-03	0	44	102	1048576	16	4815
2026-01-23 23:47:43.24	175.65	10.32	-28.4	-31.0	13.3	2.51e-05	0	44	102	1048576	16	4841
2026-01-23 23:47:44.25	175.71	10.23	-28.7	-31.1	13.0	3.07e-03	0	44	102	1048576	17	4744
2026-01-23 23:47:45.25	175.76	10.15	-28.2	-30.8	12.7	3.13e-03	0	44	102	1048576	17	4832
2026-01-23 23:47:46.24	175.81	10.07	-28.7	-31.0	13.0	3.12e-05	0	44	102	1048576	17	4730
2026-01-23 23:47:47.25	175.87	9.98	-28.8	-31.3	12.5	6.25e-04	0	44	102	1048576	17	4828
2026-01-23 23:47:48.26	175.92	9.90	-28.7	-31.1	12.9	3.25e-03	0	44	102	1048576	17	4767
2026-01-23 23:47:49.26	175.97	9.82	-28.5	-30.7	13.2	2.82e-05	0	44	102	1048576	17	4614
2026-01-23 23:47:50.26	176.03	9.73	-28.5	-31.1	13.2	3.28e-03	0	44	102	1048576	16	4873
2026-01-23 23:47:51.26	176.08	9.65	-28.4	-31.0	13.3	1.67e-05	0	44	102	1048576	16	4830
2026-01-23 23:47:52.27	176.13	9.57	-28.5	-31.1	13.2	1.83e-05	0	44	102	1048576	16	4869
2026-01-23 23:47:53.27	176.18	9.49	-28.7	-31.1	12.9	1.11e-03	0	44	102	1048576	17	4764
2026-01-23 23:47:54.28	176.24	9.40	-28.5	-30.7	13.2	3.31e-03	0	44	102	1048576	17	4618
2026-01-23 23:47:55.28	176.29	9.32	-28.4	-30.4	13.3	1.90e-05	0	44	102	1048576	17	4547
2026-01-23 23:47:56.28	176.34	9.24	-28.4	-30.9	13.3	2.67e-05	0	44	102	1048576	16	4792
2026-01-23 23:47:57.29	176.39	9.16	-28.3	-30.8	13.3	2.17e-03	0	44	102	1048576	16	4774
2026-01-23 23:47:58.30	176.44	9.08	-28.5	-31.1	13.2	1.75e-05	0	44	102	1048576	16	4872
2026-01-23 23:47:59.31	176.49	9.00	-28.5	-30.7	13.1	3.35e-03	0	44	102	1048576	17	4643
2026-01-23 23:48:00.30	176.54	8.92	-28.4	-31.0	13.2	3.28e-05	0	44	102	1048576	16	4857
2026-01-23 23:48:01.31	176.59	8.83	-28.5	-30.8	13.0	3.43e-05	0	44	102	1048576	17	4658
2026-01-23 23:48:02.31	176.64	8.76	-28.5	-30.8	13.0	2.87e-03	0	44	102	1048576	17	4675
2026-01-23 23:48:03.32	176.69	8.67	-28.6	-31.0	12.9	2.85e-03	0	44	102	1048576	17	4740
2026-01-23 23:48:04.32	176.74	8.60	-28.6	-31.0	12.8	5.56e-05	0	44	102	1048576	17	4751
2026-01-23 23:48:05.32	176.79	8.52	-28.8	-31.5	12.5	3.03e-03	0	44	102	1048576	17	4912
2026-01-23 23:48:06.33	176.84	8.44	-28.8	-31.5	12.5	3.05e-04	0	44	102	1048576	17	4907
2026-01-23 23:48:07.34	176.88	8.36	-28.8	-31.4	12.6	2.04e-04	0	44	102	1048576	17	4868
