passes_logs/2026/01/23/R2M6_AANII_01/R2M6_AANII_01__20260123_101752_SUOMI_NPP_rec.log

#Pass ID: 20260123_101752_SUOMI NPP
#Satellite: SUOMI NPP
#Configuration: NPP
#almurnet v.1.7.20240730
#Start time: 2026-01-23 10:17:54

#Version: 2.2.20231116
#Station: R2M6_AANII_01
#Location: 30.233357 lon 59.946436 lat
#TLE: 1 37849U 11061A   26022.50498765  .00000208  00000+0  11976-3 0  9992
#TLE: 2 37849  98.7820 324.4892 0002275  50.8149 309.3229 14.19528284737775

#Time	Az	El	Level	Level2	SNR	BER	BlckErr	Temp	State	Recorded	gain1	gain2
2026-01-23 10:17:54.73	157.07	7.14	-31.0	-37.6	4.7	1.36e+00	0	41	0	0	22	7648
2026-01-23 10:17:55.74	157.07	7.22	-31.1	-37.4	4.5	1.38e+00	0	41	104	0	23	7517
2026-01-23 10:17:56.75	157.07	7.29	-31.0	-37.0	6.5	3.10e-01	0	41	0	0	23	7106
2026-01-23 10:17:57.76	157.07	7.37	-31.1	-36.6	6.8	1.81e-01	0	41	102	1048576	23	6777
2026-01-23 10:17:58.76	157.07	7.45	-31.2	-36.1	7.4	1.26e-01	0	41	102	1048576	23	6357
2026-01-23 10:17:59.77	157.07	7.53	-31.2	-35.7	7.9	8.29e-02	0	41	102	1048576	23	6022
2026-01-23 10:18:00.78	157.07	7.61	-31.3	-35.6	8.1	6.21e-02	0	41	102	1048576	23	5911
2026-01-23 10:18:01.77	157.07	7.69	-31.3	-35.4	8.2	4.98e-02	0	41	102	1048576	23	5792
2026-01-23 10:18:02.78	157.07	7.77	-31.2	-35.4	8.2	4.92e-02	0	41	102	1048576	23	5831
2026-01-23 10:18:03.79	157.06	7.85	-31.2	-35.2	8.4	5.02e-02	0	41	102	1048576	23	5700
2026-01-23 10:18:04.79	157.06	7.93	-31.1	-34.9	8.6	4.18e-02	0	41	102	1048576	23	5553
2026-01-23 10:18:05.79	157.06	8.01	-30.9	-34.4	9.0	3.05e-02	0	41	102	1048576	23	5354
2026-01-23 10:18:06.79	157.06	8.09	-30.8	-33.8	9.4	1.81e-02	0	41	102	1048576	23	5099
2026-01-23 10:18:07.79	157.06	8.18	-30.7	-33.9	9.7	1.17e-02	0	41	102	1048576	22	5251
2026-01-23 10:18:08.80	157.06	8.26	-30.7	-34.2	9.6	1.16e-02	0	41	102	1048576	22	5367
2026-01-23 10:18:09.80	157.06	8.34	-30.7	-33.9	9.8	1.21e-02	0	41	102	1048576	22	5203
2026-01-23 10:18:10.79	157.06	8.42	-30.6	-33.6	10.0	1.03e-02	0	41	102	1048576	22	5103
2026-01-23 10:18:11.79	157.06	8.50	-30.7	-33.9	9.8	7.90e-03	0	41	102	1048576	22	5239
2026-01-23 10:18:12.79	157.06	8.59	-30.7	-33.8	9.9	1.04e-02	0	41	102	1048576	22	5161
2026-01-23 10:18:13.79	157.05	8.67	-30.6	-33.5	10.3	6.37e-03	0	41	102	1048576	22	4983
2026-01-23 10:18:14.80	157.05	8.75	-30.8	-33.8	10.1	6.19e-03	0	41	102	1048576	22	5108
2026-01-23 10:18:15.80	157.05	8.84	-30.7	-33.5	10.3	6.37e-03	0	41	102	1048576	22	4959
2026-01-23 10:18:16.81	157.05	8.92	-30.7	-33.6	10.2	4.79e-03	0	41	102	1048576	22	5012
2026-01-23 10:18:17.81	157.05	9.00	-30.8	-33.7	10.2	5.77e-03	0	41	102	1048576	22	5057
2026-01-23 10:18:18.81	157.05	9.09	-30.8	-33.7	10.2	6.22e-03	0	42	102	1048576	22	5042
2026-01-23 10:18:19.82	157.05	9.17	-30.9	-34.1	10.0	7.84e-03	0	41	102	1048576	22	5174
2026-01-23 10:18:20.82	157.05	9.26	-30.9	-33.9	10.1	7.31e-03	0	41	102	1048576	22	5097
2026-01-23 10:18:21.83	157.05	9.34	-30.9	-33.7	10.3	5.48e-03	0	42	102	1048576	22	4989
2026-01-23 10:18:22.83	157.04	9.43	-30.9	-33.8	10.2	5.32e-03	0	42	102	1048576	22	5019
2026-01-23 10:18:23.83	157.04	9.51	-31.0	-33.9	10.2	5.91e-03	0	42	102	1048576	22	5047
2026-01-23 10:18:24.84	157.04	9.60	-30.9	-33.8	10.3	5.46e-03	0	42	102	1048576	22	5006
2026-01-23 10:18:25.84	157.04	9.69	-30.9	-33.8	10.3	4.77e-03	0	42	102	1048576	22	4996
2026-01-23 10:18:26.85	157.04	9.77	-30.9	-33.8	10.3	5.45e-03	0	41	102	1048576	22	4995
2026-01-23 10:18:27.86	157.04	9.86	-31.0	-34.1	10.1	6.04e-03	0	42	102	1048576	22	5140
2026-01-23 10:18:28.86	157.04	9.95	-31.0	-34.0	10.2	5.36e-03	0	42	102	1048576	22	5073
2026-01-23 10:18:29.87	157.03	10.04	-31.0	-34.0	10.2	5.29e-03	0	42	102	1048576	22	5096
2026-01-23 10:18:30.87	157.03	10.12	-31.0	-33.9	10.3	5.01e-03	0	42	102	1048576	22	5070
2026-01-23 10:18:31.88	157.03	10.21	-30.9	-33.8	10.4	5.11e-03	0	42	102	1048576	22	5011
2026-01-23 10:18:32.89	157.03	10.30	-31.0	-34.0	10.2	4.89e-03	0	42	102	1048576	22	5120
2026-01-23 10:18:33.90	157.03	10.39	-30.9	-33.7	10.4	4.82e-03	0	42	102	1048576	22	4976
2026-01-23 10:18:34.90	157.03	10.48	-30.7	-33.3	10.7	4.07e-03	0	42	102	1048576	22	4817
2026-01-23 10:18:35.90	157.02	10.57	-30.7	-33.2	10.8	2.66e-03	0	42	102	1048576	22	4796
2026-01-23 10:18:36.91	157.02	10.66	-30.7	-33.0	11.0	2.45e-03	0	42	102	1048576	22	4698
2026-01-23 10:18:37.92	157.02	10.75	-30.7	-33.0	11.0	2.08e-03	0	42	102	1048576	22	4671
2026-01-23 10:18:38.92	157.02	10.84	-30.7	-32.8	11.1	1.49e-03	0	42	102	1048576	22	4625
2026-01-23 10:18:39.92	157.02	10.93	-30.6	-32.8	11.2	1.51e-03	0	42	102	1048576	22	4611
2026-01-23 10:18:40.93	157.02	11.02	-30.7	-32.9	11.1	1.34e-03	0	42	102	1048576	22	4654
2026-01-23 10:18:41.93	157.01	11.12	-30.6	-32.6	11.3	1.10e-03	0	42	102	1048576	22	4539
2026-01-23 10:18:42.93	157.01	11.21	-30.5	-32.2	11.6	7.82e-04	0	42	102	1048576	22	4402
2026-01-23 10:18:43.93	157.01	11.30	-30.4	-32.1	11.7	6.06e-04	0	42	102	1048576	22	4369
2026-01-23 10:18:44.94	157.01	11.39	-30.5	-32.3	11.6	5.66e-04	0	42	102	1048576	22	4439
2026-01-23 10:18:45.94	157.01	11.49	-30.4	-32.0	11.8	5.17e-04	0	42	102	1048576	22	4342
2026-01-23 10:18:46.95	157.00	11.58	-30.3	-32.1	12.0	3.08e-04	0	42	102	1048576	21	4464
2026-01-23 10:18:47.95	157.00	11.67	-30.3	-32.4	11.8	4.06e-04	0	42	102	1048576	21	4560
2026-01-23 10:18:48.95	157.00	11.77	-30.3	-32.2	12.0	3.29e-04	0	42	102	1048576	21	4507
2026-01-23 10:18:49.95	157.00	11.86	-30.3	-32.4	11.9	3.57e-04	0	42	102	1048576	21	4554
2026-01-23 10:18:50.96	157.00	11.96	-30.3	-32.3	11.9	3.72e-04	0	42	102	1048576	21	4511
2026-01-23 10:18:51.97	156.99	12.05	-30.3	-32.4	11.9	3.68e-04	0	42	102	1048576	21	4578
2026-01-23 10:18:52.98	156.99	12.15	-30.3	-32.4	11.9	4.03e-04	0	42	102	1048576	21	4558
2026-01-23 10:18:53.97	156.99	12.24	-30.4	-32.5	11.8	4.55e-04	0	42	102	1048576	21	4609
2026-01-23 10:18:54.98	156.99	12.34	-30.4	-32.6	11.7	4.87e-04	0	42	102	1048576	21	4640
2026-01-23 10:18:55.99	156.99	12.44	-30.4	-32.7	11.6	6.34e-04	0	42	102	1048576	21	4702
2026-01-23 10:18:56.99	156.98	12.53	-30.3	-32.4	11.8	6.45e-04	0	42	102	1048576	21	4585
2026-01-23 10:18:57.99	156.98	12.63	-30.4	-32.6	11.7	4.62e-04	0	42	102	1048576	21	4658
2026-01-23 10:18:59.00	156.98	12.73	-30.3	-32.4	11.9	6.49e-04	0	42	102	1048576	21	4595
2026-01-23 10:19:00.00	156.98	12.83	-30.2	-32.2	12.0	3.80e-04	0	42	102	1048576	21	4500
2026-01-23 10:19:01.01	156.97	12.93	-30.3	-32.3	12.0	2.66e-04	0	42	102	1048576	21	4539
2026-01-23 10:19:02.01	156.97	13.03	-30.2	-32.1	12.1	2.78e-04	0	42	102	1048576	21	4459
2026-01-23 10:19:03.02	156.97	13.13	-30.3	-32.2	12.0	2.13e-04	0	42	102	1048576	21	4508
2026-01-23 10:19:04.02	156.97	13.23	-30.4	-32.6	11.8	2.88e-04	0	42	102	1048576	21	4641
2026-01-23 10:19:05.03	156.96	13.33	-30.2	-31.9	12.3	2.33e-04	0	42	102	1048576	21	4396
2026-01-23 10:19:06.03	156.96	13.43	-30.2	-31.8	12.3	1.48e-04	0	42	102	1048576	21	4371
2026-01-23 10:19:07.04	156.96	13.53	-30.3	-32.2	12.1	2.17e-04	0	42	102	1048576	21	4480
2026-01-23 10:19:08.05	156.96	13.63	-30.2	-31.9	12.4	1.62e-04	0	42	102	1048576	21	4375
2026-01-23 10:19:09.05	156.95	13.73	-30.2	-31.7	12.5	1.29e-04	0	42	102	1048576	21	4304
2026-01-23 10:19:10.06	156.95	13.84	-30.2	-31.8	12.4	1.51e-04	0	42	102	1048576	21	4324
2026-01-23 10:19:11.06	156.95	13.94	-30.2	-31.8	12.5	1.40e-04	0	42	102	1048576	21	4306
2026-01-23 10:19:12.06	156.94	14.04	-30.4	-32.2	12.3	1.93e-04	0	42	102	1048576	21	4432
2026-01-23 10:19:13.06	156.94	14.14	-30.2	-31.8	12.5	1.30e-04	0	42	102	1048576	21	4308
2026-01-23 10:19:14.07	156.94	14.25	-30.3	-32.0	12.4	1.02e-04	0	42	102	1048576	21	4360
2026-01-23 10:19:15.07	156.94	14.35	-30.3	-31.9	12.4	1.68e-04	0	43	102	1048576	21	4348
2026-01-23 10:19:16.07	156.93	14.46	-30.3	-31.9	12.5	1.01e-04	0	42	102	1048576	21	4346
2026-01-23 10:19:17.07	156.93	14.56	-30.3	-32.0	12.5	1.14e-04	0	43	102	1048576	21	4359
2026-01-23 10:19:18.07	156.93	14.67	-30.2	-31.7	12.6	1.46e-04	0	43	102	1048576	21	4277
2026-01-23 10:19:19.08	156.92	14.78	-30.3	-31.8	12.5	1.01e-04	0	42	102	1048576	21	4318
2026-01-23 10:19:20.09	156.92	14.88	-30.2	-31.8	12.5	1.03e-04	0	42	102	1048576	21	4296
2026-01-23 10:19:21.09	156.92	14.99	-30.1	-31.4	12.9	7.55e-05	0	43	102	1048576	21	4164
2026-01-23 10:19:22.10	156.91	15.10	-30.1	-31.4	12.9	5.18e-05	0	43	102	1048576	21	4160
2026-01-23 10:19:23.10	156.91	15.21	-30.1	-31.3	12.9	9.23e-05	0	43	102	1048576	21	4142
2026-01-23 10:19:24.10	156.91	15.32	-30.0	-31.0	13.1	3.66e-05	0	43	102	1048576	21	4056
2026-01-23 10:19:25.11	156.90	15.43	-30.0	-31.0	13.2	1.67e-05	0	43	102	1048576	21	4033
2026-01-23 10:19:26.11	156.90	15.53	-29.8	-30.6	13.4	1.44e-05	0	42	102	1048576	21	3926
2026-01-23 10:19:27.11	156.90	15.64	-29.8	-30.6	13.4	1.44e-05	0	43	102	1048576	21	3926
2026-01-23 10:19:28.12	156.89	15.76	-29.8	-30.6	13.5	1.06e-05	0	43	102	1048576	21	3919
2026-01-23 10:19:29.12	156.89	15.87	-29.8	-31.1	13.5	1.37e-05	0	42	102	1048576	20	4145
2026-01-23 10:19:30.12	156.88	15.98	-29.7	-30.8	13.7	6.80e-06	0	42	102	1048576	20	4059
2026-01-23 10:19:31.13	156.88	16.09	-29.7	-30.7	13.8	8.30e-06	0	43	102	1048576	20	4025
2026-01-23 10:19:32.13	156.88	16.20	-29.8	-31.0	13.6	1.37e-05	0	42	102	1048576	20	4110
2026-01-23 10:19:33.13	156.87	16.32	-30.0	-31.5	13.3	1.14e-05	0	42	102	1048576	20	4265
2026-01-23 10:19:34.14	156.87	16.43	-29.8	-31.0	13.6	1.22e-05	0	42	102	1048576	20	4128
2026-01-23 10:19:35.14	156.87	16.55	-29.8	-31.0	13.6	6.80e-06	0	43	102	1048576	20	4117
2026-01-23 10:19:36.14	156.86	16.66	-30.0	-31.4	13.3	2.05e-05	0	42	102	1048576	20	4242
2026-01-23 10:19:37.14	156.86	16.78	-29.9	-31.2	13.4	1.67e-05	0	42	102	1048576	20	4193
2026-01-23 10:19:38.14	156.85	16.89	-30.0	-31.4	13.4	1.60e-05	0	43	102	1048576	20	4248
2026-01-23 10:19:39.15	156.85	17.01	-30.1	-31.7	13.1	2.97e-05	0	42	102	1048576	20	4350
2026-01-23 10:19:40.16	156.85	17.13	-30.0	-31.4	13.3	2.21e-05	0	43	102	1048576	20	4263
2026-01-23 10:19:41.16	156.84	17.24	-30.1	-31.7	13.1	2.05e-05	0	43	102	1048576	20	4346
2026-01-23 10:19:42.17	156.84	17.36	-30.0	-31.6	13.2	2.28e-05	0	43	102	1048576	20	4318
2026-01-23 10:19:43.17	156.83	17.48	-29.9	-31.3	13.4	2.05e-05	0	43	102	1048576	20	4230
2026-01-23 10:19:44.18	156.83	17.60	-30.1	-31.8	13.1	2.28e-05	0	43	102	1048576	20	4370
2026-01-23 10:19:45.19	156.82	17.72	-29.9	-31.3	13.4	1.60e-05	0	42	102	1048576	20	4231
2026-01-23 10:19:46.18	156.82	17.84	-29.9	-31.3	13.4	1.37e-05	0	42	102	1048576	20	4222
2026-01-23 10:19:47.19	156.81	17.96	-29.9	-31.2	13.5	1.67e-05	0	43	102	1048576	20	4183
2026-01-23 10:19:48.19	156.81	18.09	-29.9	-31.2	13.4	1.06e-05	0	42	102	1048576	20	4200
2026-01-23 10:19:49.20	156.80	18.21	-30.0	-31.5	13.3	1.75e-05	0	43	102	1048576	20	4270
2026-01-23 10:19:50.20	156.80	18.33	-29.9	-31.2	13.5	1.37e-05	0	43	102	1048576	20	4177
2026-01-23 10:19:51.19	156.79	18.45	-29.9	-31.3	13.4	1.60e-05	0	43	102	1048576	20	4222
2026-01-23 10:19:52.20	156.79	18.58	-30.0	-31.6	13.3	1.67e-05	0	42	102	1048576	20	4297
2026-01-23 10:19:53.21	156.78	18.70	-29.9	-31.3	13.5	2.67e-05	0	42	102	1048576	20	4201
2026-01-23 10:19:54.21	156.78	18.83	-29.9	-31.2	13.6	9.10e-06	0	43	102	1048576	20	4185
2026-01-23 10:19:55.21	156.77	18.96	-30.0	-31.4	13.5	1.14e-05	0	43	102	1048576	20	4227
2026-01-23 10:19:56.22	156.77	19.08	-29.9	-31.2	13.6	1.67e-05	0	43	102	1048576	20	4177
2026-01-23 10:19:57.22	156.76	19.21	-30.0	-31.5	13.4	5.30e-06	0	43	102	1048576	20	4262
2026-01-23 10:19:58.23	156.76	19.34	-30.0	-31.3	13.5	9.10e-06	0	43	102	1048576	20	4215
2026-01-23 10:19:59.23	156.75	19.47	-30.0	-31.4	13.4	1.29e-05	0	43	102	1048576	20	4235
2026-01-23 10:20:00.24	156.75	19.60	-30.0	-31.4	13.4	2.44e-05	0	43	102	1048576	20	4230
2026-01-23 10:20:01.24	156.74	19.73	-30.1	-31.6	13.4	1.29e-05	0	43	102	1048576	20	4275
2026-01-23 10:20:02.25	156.74	19.86	-30.1	-31.6	13.4	1.37e-05	0	43	102	1048576	20	4280
2026-01-23 10:20:03.25	156.73	19.99	-30.1	-31.7	13.3	3.05e-05	0	43	102	1048576	20	4333
2026-01-23 10:20:04.25	156.72	20.12	-30.2	-32.0	13.1	4.42e-05	0	43	102	1048576	20	4431
2026-01-23 10:20:05.25	156.72	20.26	-30.3	-32.1	13.0	3.20e-05	0	43	102	1048576	20	4463
2026-01-23 10:20:06.26	156.71	20.39	-30.3	-32.2	12.9	4.50e-05	0	43	102	1048576	20	4498
2026-01-23 10:20:07.26	156.71	20.52	-30.2	-32.1	13.0	4.11e-05	0	43	102	1048576	20	4469
2026-01-23 10:20:08.27	156.70	20.66	-30.3	-32.2	13.0	4.34e-05	0	43	102	1048576	20	4505
2026-01-23 10:20:09.27	156.69	20.80	-30.3	-32.4	12.8	3.28e-05	0	43	102	1048576	20	4562
2026-01-23 10:20:10.27	156.69	20.93	-30.3	-32.2	13.0	1.83e-05	0	43	102	1048576	20	4501
2026-01-23 10:20:11.27	156.68	21.07	-30.1	-31.8	13.3	4.50e-05	0	43	102	1048576	20	4340
2026-01-23 10:20:12.28	156.68	21.21	-30.2	-31.9	13.2	1.98e-05	0	43	102	1048576	20	4374
2026-01-23 10:20:13.29	156.67	21.35	-30.3	-32.1	13.1	2.21e-05	0	43	102	1048576	20	4452
2026-01-23 10:20:14.29	156.66	21.49	-30.2	-31.8	13.3	2.05e-05	0	43	102	1048576	20	4359
2026-01-23 10:20:15.30	156.66	21.63	-30.1	-31.6	13.4	1.98e-05	0	43	102	1048576	20	4268
2026-01-23 10:20:16.30	156.65	21.77	-30.2	-31.8	13.3	3.12e-05	0	43	102	1048576	20	4336
2026-01-23 10:20:17.31	156.64	21.91	-30.1	-31.6	13.5	9.90e-06	0	43	102	1048576	20	4267
2026-01-23 10:20:18.31	156.64	22.05	-30.1	-31.7	13.4	8.30e-06	0	43	102	1048576	20	4300
2026-01-23 10:20:19.31	156.63	22.20	-30.3	-32.1	13.1	3.35e-05	0	43	102	1048576	20	4446
2026-01-23 10:20:20.32	156.62	22.34	-30.2	-31.8	13.4	2.51e-05	0	43	102	1048576	20	4337
2026-01-23 10:20:21.32	156.61	22.49	-30.2	-31.9	13.3	1.29e-05	0	43	102	1048576	20	4386
2026-01-23 10:20:22.32	156.61	22.63	-30.3	-32.1	13.1	4.19e-05	0	43	102	1048576	20	4445
2026-01-23 10:20:23.32	156.60	22.78	-30.2	-32.0	13.2	2.21e-05	0	43	102	1048576	20	4402
2026-01-23 10:20:24.33	156.59	22.93	-30.3	-32.2	13.1	3.12e-05	0	43	102	1048576	20	4480
2026-01-23 10:20:25.33	156.58	23.08	-30.2	-31.9	13.3	1.83e-05	0	43	102	1048576	20	4381
2026-01-23 10:20:26.33	156.58	23.23	-30.0	-31.4	13.6	1.06e-05	0	43	102	1048576	20	4238
2026-01-23 10:20:27.33	156.57	23.38	-29.8	-30.9	14.0	4.50e-06	0	43	102	1048576	20	4061
2026-01-23 10:20:28.33	156.56	23.53	-29.7	-30.7	14.1	6.10e-06	0	43	102	1048576	20	4006
2026-01-23 10:20:29.33	156.55	23.68	-29.9	-31.0	13.9	3.00e-06	0	43	102	1048576	20	4104
2026-01-23 10:20:30.34	156.54	23.83	-29.9	-31.0	13.9	3.00e-06	0	43	102	1048576	20	4082
2026-01-23 10:20:31.34	156.54	23.99	-29.6	-30.4	14.2	7.00e-07	0	43	102	1048576	20	3922
2026-01-23 10:20:32.35	156.53	24.14	-29.7	-30.6	14.1	1.50e-06	0	43	102	1048576	20	3993
2026-01-23 10:20:33.36	156.52	24.30	-29.8	-30.8	14.1	3.80e-06	0	43	102	1048576	20	4022
2026-01-23 10:20:34.36	156.51	24.45	-29.7	-30.5	14.2	7.00e-07	0	43	102	1048576	20	3951
2026-01-23 10:20:35.37	156.50	24.61	-29.8	-30.7	14.1	0.00e+00	0	43	102	1048576	20	4001
2026-01-23 10:20:36.37	156.49	24.77	-29.9	-30.9	14.0	7.00e-07	0	43	102	1048576	20	4079
2026-01-23 10:20:37.38	156.48	24.93	-29.8	-30.7	14.1	1.50e-06	0	43	102	1048576	20	4011
2026-01-23 10:20:38.39	156.47	25.09	-29.9	-31.0	13.9	4.50e-06	0	43	102	1048576	20	4106
2026-01-23 10:20:39.39	156.46	25.25	-29.8	-30.7	14.2	1.50e-06	0	43	102	1048576	20	4018
2026-01-23 10:20:40.39	156.46	25.42	-29.5	-30.0	14.6	0.00e+00	0	43	102	1048576	20	3818
2026-01-23 10:20:41.39	156.45	25.58	-29.3	-29.5	14.8	0.00e+00	0	43	102	1048576	20	3691
2026-01-23 10:20:42.40	156.44	25.74	-29.3	-30.0	14.9	0.00e+00	0	43	102	1048576	19	3896
2026-01-23 10:20:43.40	156.43	25.91	-29.2	-29.6	15.2	1.50e-06	0	43	102	1048576	19	3801
2026-01-23 10:20:44.40	156.42	26.08	-29.2	-29.7	15.1	0.00e+00	0	43	102	1048576	19	3825
2026-01-23 10:20:45.40	156.41	26.24	-29.2	-29.6	15.2	0.00e+00	0	43	102	1048576	19	3785
2026-01-23 10:20:46.41	156.40	26.41	-29.3	-30.1	15.0	1.50e-06	0	43	102	1048576	19	3908
2026-01-23 10:20:47.41	156.39	26.58	-29.5	-30.6	14.7	7.00e-07	0	43	102	1048576	19	4056
2026-01-23 10:20:48.42	156.38	26.75	-29.7	-31.0	14.3	7.00e-07	0	43	102	1048576	19	4179
2026-01-23 10:20:49.42	156.36	26.93	-29.9	-31.4	14.1	1.50e-06	0	43	102	1048576	19	4291
2026-01-23 10:20:50.43	156.35	27.10	-29.9	-31.0	14.0	6.10e-06	0	43	102	1048576	20	4080
2026-01-23 10:20:51.44	156.34	27.27	-30.1	-31.6	13.7	3.00e-06	0	43	102	1048576	20	4251
2026-01-23 10:20:52.45	156.33	27.45	-30.2	-31.8	13.6	6.10e-06	0	43	102	1048576	20	4321
2026-01-23 10:20:53.45	156.32	27.63	-30.0	-31.3	13.8	3.80e-06	0	43	102	1048576	20	4180
2026-01-23 10:20:54.45	156.31	27.80	-30.1	-31.5	13.7	6.10e-06	0	43	102	1048576	20	4221
2026-01-23 10:20:55.46	156.30	27.98	-30.2	-31.8	13.5	1.14e-05	0	43	102	1048576	20	4327
2026-01-23 10:20:56.46	156.29	28.16	-30.2	-31.6	13.6	6.10e-06	0	43	102	1048576	20	4277
2026-01-23 10:20:57.47	156.27	28.34	-30.2	-31.8	13.5	4.50e-06	0	43	102	1048576	20	4337
2026-01-23 10:20:58.47	156.26	28.53	-30.0	-31.2	13.9	1.06e-05	0	43	102	1048576	20	4141
2026-01-23 10:20:59.48	156.25	28.71	-30.2	-31.7	13.6	4.50e-06	0	43	102	1048576	20	4305
2026-01-23 10:21:00.47	156.24	28.89	-30.4	-32.3	13.2	1.75e-05	0	43	102	1048576	20	4476
2026-01-23 10:21:01.48	156.22	29.08	-30.4	-31.9	13.2	3.43e-05	0	43	102	1048576	21	4253
2026-01-23 10:21:02.48	156.21	29.27	-30.7	-32.7	12.6	6.79e-05	0	43	102	1048576	21	4518
2026-01-23 10:21:03.49	156.20	29.46	-31.1	-33.3	12.0	1.98e-04	0	43	102	1048576	22	4643
2026-01-23 10:21:04.49	156.19	29.64	-31.3	-33.8	11.6	2.30e-04	0	43	102	1048576	22	4832
2026-01-23 10:21:05.49	156.17	29.83	-31.2	-33.6	11.7	5.45e-04	0	43	102	1048576	22	4741
2026-01-23 10:21:06.49	156.16	30.03	-31.2	-33.7	11.6	6.13e-04	0	43	102	1048576	22	4791
2026-01-23 10:21:07.50	156.14	30.22	-31.3	-33.8	11.6	8.27e-04	0	43	102	1048576	22	4803
2026-01-23 10:21:08.50	156.13	30.41	-31.2	-33.5	11.8	6.30e-04	0	43	102	1048576	22	4696
2026-01-23 10:21:09.49	156.12	30.61	-31.2	-33.5	11.8	4.34e-04	0	43	102	1048576	22	4702
2026-01-23 10:21:10.49	156.10	30.80	-31.3	-33.2	11.6	1.12e-03	0	43	102	1048576	23	4513
2026-01-23 10:21:11.50	156.09	31.00	-31.4	-33.8	11.4	1.42e-03	0	43	102	1048576	23	4737
2026-01-23 10:21:12.50	156.07	31.20	-31.6	-34.2	11.0	8.45e-04	0	43	102	1048576	23	4872
2026-01-23 10:21:13.50	156.06	31.40	-31.8	-35.1	10.3	4.14e-03	0	43	102	1048576	23	5226
2026-01-23 10:21:14.50	156.04	31.61	-32.2	-36.1	9.2	8.45e-03	0	43	102	1048576	24	5597
2026-01-23 10:21:15.51	156.03	31.81	-32.5	-36.4	8.5	1.93e-02	0	43	102	1048576	25	5693
2026-01-23 10:21:16.51	156.01	32.02	-32.7	-37.4	7.8	5.91e-02	0	43	102	1048576	25	6186
2026-01-23 10:21:17.51	156.00	32.22	-32.6	-37.2	7.9	5.27e-02	0	43	102	1048576	25	6093
2026-01-23 10:21:18.51	155.98	32.43	-32.6	-37.0	8.1	8.60e-02	0	43	102	1048576	25	5961
2026-01-23 10:21:19.52	155.96	32.64	-32.7	-37.5	7.8	7.27e-02	0	43	102	1048576	25	6247
2026-01-23 10:21:20.52	155.95	32.85	-32.8	-37.8	7.6	7.57e-02	0	43	102	1048576	25	6382
2026-01-23 10:21:21.53	155.93	33.07	-32.5	-36.4	8.6	6.55e-02	0	43	102	1048576	25	5656
2026-01-23 10:21:22.54	155.91	33.28	-32.5	-36.3	8.7	4.32e-02	0	43	102	1048576	25	5618
2026-01-23 10:21:23.54	155.89	33.50	-32.4	-36.0	8.9	3.05e-02	0	43	102	1048576	25	5459
2026-01-23 10:21:24.55	155.88	33.72	-32.3	-35.8	9.0	1.77e-02	0	43	102	1048576	25	5378
2026-01-23 10:21:25.55	155.86	33.94	-32.2	-35.4	9.3	1.57e-02	0	43	102	1048576	25	5200
2026-01-23 10:21:26.56	155.84	34.16	-32.0	-34.7	9.9	1.04e-02	0	43	102	1048576	25	4876
2026-01-23 10:21:27.57	155.82	34.38	-31.9	-34.3	10.2	7.58e-03	0	43	102	1048576	25	4737
2026-01-23 10:21:28.56	155.80	34.60	-31.7	-34.1	10.7	4.51e-03	0	43	102	1048576	24	4733
2026-01-23 10:21:29.57	155.78	34.83	-31.4	-33.0	11.6	1.34e-03	0	43	102	1048576	24	4335
2026-01-23 10:21:30.57	155.76	35.05	-31.1	-32.8	12.1	5.71e-04	0	43	102	1048576	23	4353
2026-01-23 10:21:31.57	155.74	35.28	-30.7	-31.9	13.0	7.85e-05	0	43	102	1048576	22	4160
2026-01-23 10:21:32.57	155.72	35.51	-30.4	-31.3	13.4	2.82e-05	0	43	102	1048576	22	3972
2026-01-23 10:21:33.58	155.70	35.75	-30.4	-31.7	13.4	1.67e-05	0	43	102	1048576	21	4192
2026-01-23 10:21:34.58	155.68	35.98	-30.3	-31.5	13.5	3.00e-06	0	43	102	1048576	21	4132
2026-01-23 10:21:35.58	155.66	36.21	-30.4	-31.6	13.5	7.60e-06	0	43	102	1048576	21	4162
2026-01-23 10:21:36.58	155.64	36.45	-30.2	-31.2	13.8	1.83e-05	0	43	102	1048576	21	4024
2026-01-23 10:21:37.59	155.62	36.69	-30.1	-31.0	13.9	7.60e-06	0	43	102	1048576	21	3964
2026-01-23 10:21:38.60	155.59	36.93	-30.3	-31.3	13.7	8.30e-06	0	43	102	1048576	21	4049
2026-01-23 10:21:39.60	155.57	37.17	-29.6	-30.0	14.8	0.00e+00	0	43	102	1048576	20	3795
2026-01-23 10:21:40.60	155.55	37.42	-29.1	-29.4	15.6	0.00e+00	0	43	102	1048576	19	3699
2026-01-23 10:21:41.61	155.52	37.66	-29.1	-29.4	15.6	0.00e+00	0	43	102	1048576	19	3712
2026-01-23 10:21:42.62	155.50	37.91	-29.1	-29.2	15.7	0.00e+00	0	43	102	1048576	19	3669
2026-01-23 10:21:43.61	155.48	38.16	-29.1	-29.2	15.7	0.00e+00	0	43	102	1048576	19	3668
2026-01-23 10:21:44.62	155.45	38.41	-29.2	-29.6	15.4	0.00e+00	0	43	102	1048576	19	3774
2026-01-23 10:21:45.62	155.43	38.66	-29.4	-30.2	15.1	7.00e-07	0	43	102	1048576	19	3917
2026-01-23 10:21:46.63	155.40	38.92	-29.3	-29.9	15.2	0.00e+00	0	43	102	1048576	19	3836
2026-01-23 10:21:47.62	155.37	39.17	-29.6	-30.6	14.8	0.00e+00	0	43	102	1048576	19	4047
2026-01-23 10:21:48.62	155.35	39.43	-29.5	-30.4	14.9	0.00e+00	0	43	102	1048576	19	3972
2026-01-23 10:21:49.63	155.32	39.70	-29.4	-30.1	15.1	0.00e+00	0	43	102	1048576	19	3903
2026-01-23 10:21:50.63	155.29	39.96	-29.5	-30.3	15.0	0.00e+00	0	43	102	1048576	19	3951
2026-01-23 10:21:51.64	155.26	40.22	-29.5	-30.2	15.1	0.00e+00	0	43	102	1048576	19	3910
2026-01-23 10:21:52.65	155.24	40.49	-29.7	-30.7	14.8	0.00e+00	0	43	102	1048576	19	4070
2026-01-23 10:21:53.66	155.21	40.76	-29.4	-30.1	15.2	0.00e+00	0	43	102	1048576	19	3897
2026-01-23 10:21:54.67	155.18	41.04	-29.2	-29.6	15.5	7.00e-07	0	43	102	1048576	19	3754
2026-01-23 10:21:55.67	155.15	41.31	-29.5	-30.3	15.1	7.00e-07	0	43	102	1048576	19	3933
2026-01-23 10:21:56.67	155.11	41.58	-29.8	-31.1	14.6	0.00e+00	0	43	102	1048576	19	4166
2026-01-23 10:21:57.68	155.08	41.86	-29.9	-31.4	14.4	0.00e+00	0	43	102	1048576	19	4259
2026-01-23 10:21:58.68	155.05	42.14	-29.9	-31.3	14.5	0.00e+00	0	43	102	1048576	19	4228
2026-01-23 10:21:59.69	155.02	42.42	-29.8	-30.6	14.5	1.50e-06	0	43	102	1048576	20	3959
2026-01-23 10:22:00.68	154.99	42.70	-29.6	-30.0	14.9	7.00e-07	0	43	102	1048576	20	3779
2026-01-23 10:22:01.68	154.95	42.99	-29.7	-30.4	14.7	0.00e+00	0	43	102	1048576	20	3880
2026-01-23 10:22:02.67	154.92	43.27	-29.8	-30.6	14.5	7.00e-07	0	43	102	1048576	20	3959
2026-01-23 10:22:03.68	154.88	43.56	-29.6	-30.0	14.9	0.00e+00	0	43	102	1048576	20	3785
2026-01-23 10:22:04.68	154.85	43.85	-29.6	-30.2	14.8	0.00e+00	0	43	102	1048576	20	3838
2026-01-23 10:22:05.68	154.81	44.14	-29.7	-30.4	14.7	7.00e-07	0	43	102	1048576	20	3881
2026-01-23 10:22:06.69	154.77	44.44	-30.2	-31.7	13.9	0.00e+00	0	43	102	1048576	20	4261
2026-01-23 10:22:07.70	154.73	44.74	-30.3	-31.9	13.8	6.80e-06	0	43	102	1048576	20	4309
2026-01-23 10:22:08.70	154.69	45.04	-30.5	-32.3	13.5	3.00e-06	0	43	102	1048576	20	4453
2026-01-23 10:22:09.71	154.65	45.35	-30.7	-32.4	13.2	1.29e-05	0	43	102	1048576	21	4383
2026-01-23 10:22:10.72	154.61	45.66	-30.4	-31.7	13.5	1.90e-05	0	43	102	1048576	21	4165
2026-01-23 10:22:11.73	154.57	45.97	-30.6	-32.3	13.2	2.36e-05	0	43	102	1048576	21	4359
2026-01-23 10:22:12.73	154.53	46.27	-31.1	-33.0	12.5	3.28e-05	0	43	102	1048576	22	4502
2026-01-23 10:22:13.74	154.49	46.59	-31.7	-34.5	11.0	6.44e-04	0	43	102	1048576	23	4963
2026-01-23 10:22:14.74	154.44	46.90	-32.1	-35.1	10.2	2.64e-03	0	43	102	1048576	24	5126
2026-01-23 10:22:15.75	154.40	47.22	-32.2	-35.8	9.6	8.72e-03	0	43	102	1048576	24	5450
2026-01-23 10:22:16.75	154.35	47.54	-32.2	-35.8	9.6	1.32e-02	0	43	102	1048576	24	5417
2026-01-23 10:22:17.76	154.30	47.86	-32.2	-35.6	9.8	1.25e-02	0	43	102	1048576	24	5327
2026-01-23 10:22:18.76	154.25	48.19	-32.1	-35.3	10.1	8.88e-03	0	43	102	1048576	24	5186
2026-01-23 10:22:19.77	154.20	48.52	-32.2	-35.6	9.9	8.10e-03	0	43	102	1048576	24	5313
2026-01-23 10:22:20.77	154.15	48.84	-32.0	-35.1	10.1	6.82e-03	0	43	102	1048576	24	5097
2026-01-23 10:22:21.77	154.10	49.17	-32.0	-34.8	10.4	5.07e-03	0	43	102	1048576	24	4987
2026-01-23 10:22:22.77	154.05	49.51	-32.0	-34.8	10.4	3.46e-03	0	43	102	1048576	24	4999
2026-01-23 10:22:23.77	153.99	49.84	-31.6	-33.8	11.2	2.72e-03	0	43	102	1048576	24	4600
2026-01-23 10:22:24.77	153.94	50.18	-31.0	-32.4	12.6	3.00e-04	0	43	102	1048576	23	4221
2026-01-23 10:22:25.78	153.88	50.52	-30.4	-31.2	13.7	2.05e-05	0	43	102	1048576	22	3925
2026-01-23 10:22:26.79	153.82	50.87	-29.9	-30.3	14.5	3.00e-06	0	43	102	1048576	21	3788
2026-01-23 10:22:27.80	153.76	51.22	-29.6	-30.1	15.0	7.00e-07	0	43	102	1048576	20	3818
2026-01-23 10:22:28.81	153.70	51.57	-29.4	-29.6	15.2	0.00e+00	0	43	102	1048576	20	3676
2026-01-23 10:22:29.81	153.64	51.92	-29.9	-30.9	14.5	0.00e+00	0	43	102	1048576	20	4032
2026-01-23 10:22:30.82	153.57	52.28	-30.2	-31.6	14.0	7.00e-07	0	43	102	1048576	20	4219
2026-01-23 10:22:31.82	153.51	52.63	-29.8	-30.6	14.6	7.00e-07	0	43	102	1048576	20	3945
2026-01-23 10:22:32.83	153.44	52.99	-29.8	-30.6	14.6	0.00e+00	0	43	102	1048576	20	3966
2026-01-23 10:22:33.84	153.37	53.36	-29.9	-30.9	14.5	1.50e-06	0	43	102	1048576	20	4049
2026-01-23 10:22:34.85	153.30	53.72	-29.5	-29.9	15.1	0.00e+00	0	43	102	1048576	20	3760
2026-01-23 10:22:35.84	153.23	54.09	-29.3	-29.7	15.5	7.00e-07	0	43	102	1048576	19	3783
2026-01-23 10:22:36.85	153.15	54.46	-29.3	-29.7	15.6	0.00e+00	0	43	102	1048576	19	3785
2026-01-23 10:22:37.86	153.07	54.83	-29.1	-29.3	15.7	0.00e+00	0	43	102	1048576	19	3695
2026-01-23 10:22:38.86	152.99	55.21	-29.3	-29.8	15.5	0.00e+00	0	43	102	1048576	19	3824
2026-01-23 10:22:39.86	152.91	55.58	-30.0	-31.5	14.5	0.00e+00	0	43	102	1048576	19	4289
2026-01-23 10:22:40.87	152.83	55.96	-29.6	-30.5	15.0	0.00e+00	0	43	102	1048576	19	4004
2026-01-23 10:22:41.88	152.74	56.35	-29.4	-30.1	15.2	0.00e+00	0	43	102	1048576	19	3893
2026-01-23 10:22:42.87	152.65	56.73	-29.5	-30.4	15.3	0.00e+00	0	43	102	1048576	19	3961
2026-01-23 10:22:43.87	152.56	57.12	-29.8	-31.0	14.8	0.00e+00	0	43	102	1048576	19	4152
2026-01-23 10:22:44.88	152.47	57.51	-30.3	-31.9	13.8	7.00e-07	0	43	102	1048576	20	4333
2026-01-23 10:22:45.88	152.37	57.90	-31.0	-33.2	12.8	1.22e-05	0	43	102	1048576	21	4635
2026-01-23 10:22:46.89	152.27	58.30	-31.2	-33.2	12.4	1.14e-04	0	43	102	1048576	22	4558
2026-01-23 10:22:47.89	152.17	58.69	-30.9	-32.6	12.8	1.69e-04	0	43	102	1048576	22	4354
2026-01-23 10:22:48.89	152.06	59.09	-30.7	-32.0	13.2	2.74e-05	0	43	102	1048576	22	4168
2026-01-23 10:22:49.90	151.95	59.50	-31.1	-33.0	12.5	2.28e-05	0	43	102	1048576	22	4486
2026-01-23 10:22:50.90	151.84	59.90	-31.2	-33.4	12.3	1.98e-04	0	43	102	1048576	22	4630
2026-01-23 10:22:51.90	151.72	60.31	-31.5	-33.8	11.6	5.31e-04	0	43	102	1048576	23	4660
2026-01-23 10:22:52.90	151.60	60.72	-31.3	-33.2	11.7	8.06e-04	0	43	102	1048576	23	4466
2026-01-23 10:22:53.91	151.48	61.13	-31.1	-32.4	12.5	4.23e-04	0	43	102	1048576	23	4210
2026-01-23 10:22:54.92	151.34	61.55	-30.9	-32.4	12.9	3.96e-05	0	43	102	1048576	22	4286
2026-01-23 10:22:55.92	151.21	61.97	-30.9	-32.3	12.9	3.73e-05	0	43	102	1048576	22	4272
2026-01-23 10:22:56.92	151.07	62.39	-30.4	-31.1	13.8	3.35e-05	0	43	102	1048576	22	3894
2026-01-23 10:22:57.93	150.93	62.81	-29.7	-30.3	14.9	0.00e+00	0	43	102	1048576	20	3853
2026-01-23 10:22:58.93	150.78	63.24	-29.2	-29.4	15.7	0.00e+00	0	43	102	1048576	19	3713
2026-01-23 10:22:59.94	150.62	63.67	-29.0	-29.1	16.0	0.00e+00	0	43	102	1048576	19	3621
2026-01-23 10:23:00.95	150.46	64.10	-29.3	-29.8	15.6	0.00e+00	0	43	102	1048576	19	3818
2026-01-23 10:23:01.95	150.30	64.53	-29.2	-29.5	15.8	0.00e+00	0	43	102	1048576	19	3728
2026-01-23 10:23:02.96	150.12	64.97	-29.2	-29.5	15.7	0.00e+00	0	43	102	1048576	19	3742
2026-01-23 10:23:03.96	149.94	65.40	-29.7	-30.7	15.1	0.00e+00	0	43	102	1048576	19	4039
2026-01-23 10:23:04.96	149.75	65.84	-30.5	-31.8	13.6	7.00e-07	0	43	102	1048576	21	4203
2026-01-23 10:23:05.97	149.56	66.29	-30.6	-32.2	13.4	9.10e-06	0	43	102	1048576	21	4303
2026-01-23 10:23:06.97	149.35	66.73	-30.4	-31.6	13.8	8.30e-06	0	43	102	1048576	21	4127
2026-01-23 10:23:07.97	149.14	67.17	-30.7	-32.3	13.3	1.67e-05	0	43	102	1048576	21	4344
2026-01-23 10:23:08.98	148.92	67.62	-30.6	-32.1	13.4	7.60e-06	0	43	102	1048576	21	4293
2026-01-23 10:23:09.98	148.69	68.07	-30.4	-31.7	13.7	9.10e-06	0	43	102	1048576	21	4147
2026-01-23 10:23:10.98	148.44	68.52	-30.7	-32.4	13.3	1.52e-05	0	43	102	1048576	21	4382
2026-01-23 10:23:11.99	148.19	68.98	-31.0	-32.8	12.7	3.35e-05	0	43	102	1048576	22	4423
2026-01-23 10:23:12.99	147.92	69.43	-31.5	-33.7	11.7	3.61e-04	0	43	102	1048576	23	4643
2026-01-23 10:23:13.99	147.64	69.89	-32.2	-35.6	10.1	2.97e-03	0	43	102	1048576	24	5289
2026-01-23 10:23:14.99	147.35	70.34	-32.8	-37.0	8.5	1.78e-02	0	43	102	1048576	25	5890
2026-01-23 10:23:15.99	147.04	70.80	-32.8	-37.4	8.2	5.00e-02	0	43	102	1048576	25	6103
2026-01-23 10:23:16.99	146.71	71.26	-32.4	-35.5	9.6	3.41e-02	0	43	102	1048576	25	5161
2026-01-23 10:23:18.00	146.37	71.73	-31.6	-33.4	11.6	2.43e-03	0	43	102	1048576	24	4459
2026-01-23 10:23:19.00	146.01	72.19	-30.9	-31.9	13.0	7.32e-05	0	43	102	1048576	23	4039
2026-01-23 10:23:20.01	145.62	72.66	-31.3	-33.0	12.3	6.25e-05	0	43	102	1048576	23	4371
2026-01-23 10:23:21.01	145.22	73.12	-30.8	-31.7	13.0	1.62e-04	0	43	102	1048576	23	3976
2026-01-23 10:23:22.01	144.79	73.59	-30.2	-31.0	14.2	9.90e-06	0	43	102	1048576	21	3938
2026-01-23 10:23:23.02	144.33	74.06	-29.4	-29.6	15.4	0.00e+00	0	43	102	1048576	20	3668
2026-01-23 10:23:24.02	143.84	74.53	-30.1	-31.2	14.4	0.00e+00	0	43	102	1048576	20	4089
2026-01-23 10:23:25.02	143.33	75.00	-31.3	-33.6	12.1	5.87e-05	0	43	102	1048576	22	4692
2026-01-23 10:23:26.03	142.77	75.47	-31.7	-34.3	11.3	6.11e-04	0	43	102	1048576	23	4873
2026-01-23 10:23:27.04	142.17	75.95	-31.8	-34.6	11.2	7.93e-04	0	43	102	1048576	23	4978
2026-01-23 10:23:28.04	141.54	76.42	-32.0	-34.8	10.6	1.74e-03	0	43	102	1048576	24	4937
2026-01-23 10:23:29.05	140.85	76.89	-32.8	-37.1	8.6	1.08e-02	0	43	102	1048576	25	5894
2026-01-23 10:23:30.06	140.11	77.36	-33.1	-37.8	7.8	4.20e-02	0	43	102	1048576	26	6168
2026-01-23 10:23:31.07	139.31	77.84	-32.7	-36.1	8.9	6.84e-02	0	43	102	1048576	26	5329
2026-01-23 10:23:32.07	138.45	78.30	-32.6	-35.9	9.2	1.34e-02	0	43	102	1048576	26	5223
2026-01-23 10:23:33.08	137.51	78.77	-32.7	-36.1	9.1	2.81e-02	0	43	102	1048576	26	5298
2026-01-23 10:23:34.09	136.49	79.24	-32.6	-35.7	9.3	3.81e-02	0	43	102	1048576	26	5152
2026-01-23 10:23:35.09	135.38	79.70	-32.4	-34.8	9.9	9.63e-03	0	43	102	1048576	26	4776
2026-01-23 10:23:36.09	134.17	80.16	-32.7	-36.1	9.1	2.43e-02	0	43	102	1048576	26	5297
2026-01-23 10:23:37.09	132.83	80.61	-32.4	-34.9	9.9	1.92e-02	0	43	102	1048576	26	4817
2026-01-23 10:23:38.09	131.36	81.06	-32.1	-34.4	10.7	5.45e-03	0	43	102	1048576	25	4693
2026-01-23 10:23:39.09	129.73	81.50	-31.8	-34.0	11.3	2.77e-03	0	43	102	1048576	24	4619
2026-01-23 10:23:40.10	127.91	81.94	-30.7	-31.7	13.6	1.96e-04	0	43	102	1048576	22	4048
2026-01-23 10:23:41.10	125.89	82.37	-29.9	-30.7	14.8	7.00e-07	0	43	102	1048576	20	3957
2026-01-23 10:23:42.10	123.63	82.79	-30.2	-31.3	14.4	1.50e-06	0	43	102	1048576	20	4121
2026-01-23 10:23:43.11	121.07	83.20	-30.0	-30.9	14.7	7.00e-07	0	43	102	1048576	20	4008
2026-01-23 10:23:44.11	118.21	83.59	-29.7	-30.2	15.3	0.00e+00	0	43	102	1048576	20	3821
2026-01-23 10:23:45.11	114.98	83.97	-30.0	-30.9	14.8	0.00e+00	0	43	102	1048576	20	3993
2026-01-23 10:23:46.12	111.30	84.33	-29.9	-30.6	15.0	0.00e+00	0	43	102	1048576	20	3905
2026-01-23 10:23:47.12	107.18	84.65	-29.7	-30.7	15.3	0.00e+00	0	43	102	1048576	19	4039
2026-01-23 10:23:48.13	102.50	84.95	-30.7	-32.1	13.7	3.80e-06	0	43	102	1048576	21	4245
2026-01-23 10:23:49.14	97.27	85.22	-31.0	-32.6	13.2	5.03e-05	0	43	102	1048576	22	4304
2026-01-23 10:23:50.15	91.48	85.44	-31.7	-34.1	11.8	2.88e-04	0	43	102	1048576	23	4731
2026-01-23 10:23:51.16	85.18	85.60	-31.8	-34.3	11.7	6.55e-04	0	43	102	1048576	23	4792
2026-01-23 10:23:52.16	78.53	85.71	-31.0	-31.8	13.3	8.39e-05	0	43	102	1048576	23	3971
2026-01-23 10:23:53.17	71.56	85.76	-31.4	-33.2	12.5	3.50e-05	0	43	102	1048576	23	4404
2026-01-23 10:23:54.18	64.53	85.75	-31.6	-33.8	12.2	5.00e-04	0	43	102	1048576	23	4612
2026-01-23 10:23:55.18	57.72	85.67	-30.7	-31.6	13.9	9.90e-06	0	43	102	1048576	22	4006
2026-01-23 10:23:56.18	51.23	85.54	-31.9	-34.6	11.4	6.79e-05	0	43	102	1048576	23	4900
2026-01-23 10:23:57.19	45.13	85.35	-33.0	-36.9	8.5	1.83e-02	0	43	102	1048576	26	5658
2026-01-23 10:23:58.19	39.62	85.12	-31.5	-32.7	12.4	1.49e-03	0	43	102	1048576	24	4170
2026-01-23 10:23:59.19	34.66	84.84	-31.8	-33.6	11.9	1.85e-04	0	43	102	1048576	24	4462
2026-01-23 10:24:00.20	30.19	84.53	-31.4	-32.5	12.4	6.00e-04	0	43	102	1048576	24	4101
2026-01-23 10:24:01.20	26.26	84.19	-29.8	-29.8	15.2	5.30e-06	0	43	102	1048576	21	3605
2026-01-23 10:24:02.20	22.79	83.83	-30.5	-32.1	14.4	0.00e+00	0	43	102	1048576	20	4347
2026-01-23 10:24:03.21	19.68	83.44	-30.9	-32.1	13.5	1.44e-05	0	43	102	1048576	22	4138
2026-01-23 10:24:04.22	16.93	83.04	-31.1	-32.8	13.1	7.60e-06	0	43	102	1048576	22	4350
2026-01-23 10:24:05.23	14.48	82.63	-32.4	-35.6	10.3	1.49e-03	0	43	102	1048576	24	5236
2026-01-23 10:24:06.23	12.33	82.20	-32.5	-35.5	10.1	8.11e-03	0	43	102	1048576	25	5092
2026-01-23 10:24:07.24	10.38	81.77	-32.5	-35.6	10.0	5.93e-03	0	43	102	1048576	25	5139
2026-01-23 10:24:08.24	8.65	81.33	-32.5	-35.4	10.1	9.01e-03	0	43	102	1048576	25	5062
2026-01-23 10:24:09.25	7.07	80.88	-32.0	-33.9	11.3	1.19e-03	0	43	102	1048576	25	4467
2026-01-23 10:24:10.26	5.64	80.42	-32.5	-35.6	10.0	1.38e-03	0	43	102	1048576	25	5149
2026-01-23 10:24:11.26	4.36	79.97	-32.9	-37.2	8.7	3.05e-02	0	43	102	1048576	25	5904
2026-01-23 10:24:12.27	3.19	79.50	-32.5	-35.8	9.7	2.11e-02	0	43	102	1048576	25	5230
2026-01-23 10:24:13.28	2.11	79.04	-32.2	-34.5	10.7	5.01e-03	0	43	102	1048576	25	4709
2026-01-23 10:24:14.27	1.14	78.58	-31.0	-31.9	13.1	7.27e-04	0	43	102	1048576	23	4026
2026-01-23 10:24:15.28	0.23	78.11	-30.2	-31.0	14.5	2.20e-06	0	43	102	1048576	21	3930
2026-01-23 10:24:16.29	359.40	77.64	-30.5	-31.7	13.8	7.00e-07	0	43	102	1048576	21	4142
2026-01-23 10:24:17.29	358.63	77.17	-30.8	-32.6	13.4	1.06e-05	0	43	102	1048576	21	4399
2026-01-23 10:24:18.29	357.92	76.70	-31.0	-32.5	13.2	2.36e-05	0	43	102	1048576	22	4289
2026-01-23 10:24:19.29	357.26	76.24	-31.4	-33.2	12.3	2.23e-04	0	43	102	1048576	23	4415
2026-01-23 10:24:20.30	356.64	75.76	-30.6	-31.5	13.7	1.28e-04	0	43	102	1048576	22	3991
2026-01-23 10:24:21.31	356.06	75.29	-29.6	-30.0	15.3	0.00e+00	0	43	102	1048576	20	3755
2026-01-23 10:24:22.31	355.52	74.82	-30.1	-31.1	14.7	7.00e-07	0	43	102	1048576	20	4051
2026-01-23 10:24:23.31	355.02	74.35	-30.7	-32.2	13.5	8.30e-06	0	43	102	1048576	21	4301
2026-01-23 10:24:24.32	354.54	73.88	-29.5	-29.8	15.4	0.00e+00	0	43	102	1048576	20	3697
2026-01-23 10:24:25.33	354.09	73.41	-29.4	-29.9	15.8	0.00e+00	0	43	102	1048576	19	3808
2026-01-23 10:24:26.33	353.67	72.95	-29.7	-30.7	15.3	0.00e+00	0	43	102	1048576	19	4019
2026-01-23 10:24:27.34	353.28	72.48	-30.7	-32.1	13.7	0.00e+00	0	43	102	1048576	21	4264
2026-01-23 10:24:28.35	352.90	72.01	-31.5	-33.5	12.2	1.19e-04	0	43	102	1048576	23	4518
2026-01-23 10:24:29.35	352.55	71.55	-31.8	-34.4	11.6	3.56e-04	0	43	102	1048576	23	4834
2026-01-23 10:24:30.36	352.21	71.08	-32.4	-35.9	9.9	3.51e-03	0	43	102	1048576	24	5367
2026-01-23 10:24:31.36	351.89	70.63	-31.8	-33.8	11.5	1.51e-03	0	43	102	1048576	24	4526
2026-01-23 10:24:32.35	351.59	70.17	-31.9	-34.3	11.2	8.85e-04	0	43	102	1048576	24	4736
2026-01-23 10:24:33.36	351.30	69.71	-32.7	-36.6	9.1	1.10e-02	0	43	102	1048576	25	5616
2026-01-23 10:24:34.36	351.03	69.26	-32.5	-35.6	9.7	2.42e-02	0	43	102	1048576	25	5180
2026-01-23 10:24:35.36	350.77	68.81	-31.9	-33.6	11.3	2.08e-03	0	43	102	1048576	25	4406
2026-01-23 10:24:36.36	350.52	68.36	-32.5	-35.6	9.8	5.18e-03	0	43	102	1048576	25	5180
2026-01-23 10:24:37.37	350.28	67.91	-32.2	-34.5	10.7	1.00e-02	0	43	102	1048576	25	4713
2026-01-23 10:24:38.37	350.05	67.46	-31.4	-32.8	12.2	3.29e-04	0	43	102	1048576	24	4215
2026-01-23 10:24:39.37	349.83	67.01	-31.9	-34.4	11.1	9.52e-04	0	43	102	1048576	24	4765
2026-01-23 10:24:40.38	349.62	66.57	-31.9	-34.2	11.1	1.70e-03	0	43	102	1048576	24	4681
2026-01-23 10:24:41.38	349.42	66.13	-30.9	-31.7	13.2	3.37e-04	0	43	102	1048576	23	3957
2026-01-23 10:24:42.38	349.23	65.69	-31.0	-32.6	13.0	1.37e-05	0	43	102	1048576	22	4312
2026-01-23 10:24:43.38	349.05	65.26	-31.5	-33.4	12.1	1.79e-04	0	43	102	1048576	23	4504
2026-01-23 10:24:44.38	348.87	64.82	-31.1	-32.3	12.8	1.25e-04	0	43	102	1048576	23	4147
2026-01-23 10:24:45.38	348.70	64.39	-31.2	-32.6	12.7	3.96e-05	0	43	102	1048576	23	4243
2026-01-23 10:24:46.38	348.54	63.96	-31.5	-33.4	12.1	1.10e-04	0	43	102	1048576	23	4514
2026-01-23 10:24:47.38	348.38	63.54	-31.4	-33.3	12.1	5.82e-04	0	43	102	1048576	23	4483
2026-01-23 10:24:48.39	348.23	63.11	-31.3	-32.9	12.4	1.41e-04	0	43	102	1048576	23	4326
2026-01-23 10:24:49.39	348.08	62.69	-31.2	-32.6	12.7	7.85e-05	0	43	102	1048576	23	4228
2026-01-23 10:24:50.39	347.94	62.27	-31.1	-32.4	12.7	9.68e-05	0	43	102	1048576	23	4186
2026-01-23 10:24:51.40	347.80	61.85	-29.7	-30.1	15.1	9.10e-06	0	43	102	1048576	20	3791
2026-01-23 10:24:52.40	347.67	61.43	-29.3	-29.7	15.8	0.00e+00	0	43	102	1048576	19	3759
2026-01-23 10:24:53.41	347.54	61.01	-30.2	-31.5	14.4	0.00e+00	0	43	102	1048576	20	4165
2026-01-23 10:24:54.42	347.42	60.60	-30.9	-32.9	13.1	9.10e-06	0	43	102	1048576	21	4508
2026-01-23 10:24:55.42	347.30	60.19	-30.7	-32.4	13.5	8.30e-06	0	43	102	1048576	21	4358
2026-01-23 10:24:56.42	347.18	59.79	-30.9	-32.3	13.2	4.57e-05	0	43	102	1048576	22	4235
2026-01-23 10:24:57.43	347.07	59.38	-29.9	-30.2	14.8	2.20e-06	0	43	102	1048576	21	3717
2026-01-23 10:24:58.44	346.96	58.98	-29.8	-30.5	14.7	0.00e+00	0	43	102	1048576	20	3904
2026-01-23 10:24:59.44	346.86	58.58	-30.4	-32.0	14.0	1.50e-06	0	43	102	1048576	20	4332
2026-01-23 10:25:00.45	346.75	58.19	-30.4	-31.4	14.0	8.30e-06	0	43	102	1048576	21	4056
2026-01-23 10:25:01.46	346.65	57.79	-29.9	-30.2	14.7	7.00e-07	0	43	102	1048576	21	3723
2026-01-23 10:25:02.46	346.56	57.40	-29.9	-30.3	14.7	7.00e-07	0	43	102	1048576	21	3758
2026-01-23 10:25:03.47	346.47	57.01	-29.6	-29.8	15.3	0.00e+00	0	43	102	1048576	20	3718
2026-01-23 10:25:04.48	346.38	56.62	-29.4	-29.8	15.7	0.00e+00	0	43	102	1048576	19	3797
2026-01-23 10:25:05.48	346.29	56.24	-29.5	-30.1	15.4	0.00e+00	0	43	102	1048576	19	3870
2026-01-23 10:25:06.48	346.20	55.86	-28.8	-28.6	16.3	0.00e+00	0	43	102	1048576	19	3502
2026-01-23 10:25:07.49	346.12	55.48	-28.7	-28.9	16.4	0.00e+00	0	43	102	1048576	18	3659
2026-01-23 10:25:08.50	346.04	55.11	-29.2	-30.0	15.8	0.00e+00	0	43	102	1048576	18	3943
2026-01-23 10:25:09.50	345.96	54.73	-29.8	-31.0	14.9	0.00e+00	0	43	102	1048576	19	4121
2026-01-23 10:25:10.50	345.88	54.37	-30.5	-31.8	13.7	2.20e-06	0	43	102	1048576	21	4192
2026-01-23 10:25:11.51	345.81	54.00	-31.2	-33.1	12.7	1.83e-05	0	43	102	1048576	22	4509
2026-01-23 10:25:12.51	345.74	53.63	-31.3	-33.5	12.3	9.76e-05	0	43	102	1048576	22	4621
2026-01-23 10:25:13.52	345.67	53.27	-30.9	-32.2	13.1	3.96e-05	0	43	102	1048576	22	4204
2026-01-23 10:25:14.52	345.60	52.91	-30.7	-31.8	13.4	9.90e-06	0	43	102	1048576	22	4078
2026-01-23 10:25:15.53	345.53	52.55	-31.2	-33.2	12.5	4.95e-05	0	43	102	1048576	22	4522
2026-01-23 10:25:16.54	345.47	52.19	-32.2	-35.3	10.3	1.57e-03	0	43	102	1048576	24	5140
2026-01-23 10:25:17.54	345.40	51.84	-32.5	-36.0	9.4	1.17e-02	0	43	102	1048576	25	5386
2026-01-23 10:25:18.55	345.34	51.49	-32.6	-36.2	9.1	3.41e-02	0	43	102	1048576	25	5452
2026-01-23 10:25:19.55	345.28	51.15	-31.6	-33.3	11.5	5.17e-03	0	43	102	1048576	24	4399
2026-01-23 10:25:20.55	345.22	50.80	-30.4	-31.1	13.8	3.96e-05	0	43	102	1048576	22	3877
2026-01-23 10:25:21.55	345.17	50.46	-29.9	-30.7	14.7	1.50e-06	0	43	102	1048576	20	3959
2026-01-23 10:25:22.55	345.11	50.12	-30.7	-32.2	13.5	2.20e-06	0	43	102	1048576	21	4290
2026-01-23 10:25:23.56	345.05	49.79	-30.7	-32.4	13.2	2.28e-05	0	43	102	1048576	21	4366
2026-01-23 10:25:24.56	345.00	49.45	-30.1	-30.8	14.3	6.80e-06	0	43	102	1048576	21	3889
2026-01-23 10:25:25.57	344.95	49.12	-29.9	-30.7	14.7	7.00e-07	0	43	102	1048576	20	3958
2026-01-23 10:25:26.56	344.90	48.79	-31.6	-33.8	11.7	8.92e-05	0	43	102	1048576	23	4665
2026-01-23 10:25:27.57	344.85	48.46	-32.8	-37.2	8.4	1.07e-02	0	43	102	1048576	25	6008
2026-01-23 10:25:28.57	344.80	48.14	-32.6	-36.2	9.1	3.10e-02	0	43	102	1048576	25	5504
2026-01-23 10:25:29.58	344.75	47.82	-31.4	-32.9	11.9	2.65e-03	0	43	102	1048576	24	4280
2026-01-23 10:25:30.59	344.70	47.49	-30.2	-31.0	14.1	1.60e-05	0	43	102	1048576	21	3949
2026-01-23 10:25:31.60	344.66	47.17	-29.8	-30.0	14.8	1.50e-06	0	43	102	1048576	21	3678
2026-01-23 10:25:32.60	344.61	46.86	-30.2	-31.6	14.2	7.00e-07	0	43	102	1048576	20	4216
2026-01-23 10:25:33.61	344.57	46.55	-30.8	-32.6	13.1	2.44e-05	0	43	102	1048576	21	4442
2026-01-23 10:25:34.62	344.53	46.23	-30.9	-33.0	12.9	2.13e-05	0	43	102	1048576	21	4566
2026-01-23 10:25:35.62	344.49	45.93	-31.7	-34.2	11.3	8.73e-04	0	43	102	1048576	23	4829
2026-01-23 10:25:36.63	344.44	45.62	-32.7	-36.8	8.7	7.65e-03	0	43	102	1048576	25	5769
2026-01-23 10:25:37.63	344.40	45.32	-33.3	-39.3	6.5	1.93e-01	0	43	102	1048576	26	7157
2026-01-23 10:25:38.64	344.36	45.01	-33.1	-37.8	7.0	2.45e-01	0	43	102	1048576	27	6140
2026-01-23 10:25:39.64	344.33	44.72	-32.7	-36.2	8.5	9.58e-02	0	43	102	1048576	26	5411
2026-01-23 10:25:40.64	344.29	44.42	-32.0	-34.2	10.6	9.53e-03	0	43	102	1048576	25	4634
2026-01-23 10:25:41.65	344.25	44.12	-31.7	-33.7	11.4	2.61e-03	0	43	102	1048576	24	4528
2026-01-23 10:25:42.65	344.22	43.83	-31.8	-34.1	11.0	1.24e-03	0	43	102	1048576	24	4694
2026-01-23 10:25:43.65	344.18	43.54	-32.4	-36.0	9.6	3.91e-03	0	43	102	1048576	24	5502
2026-01-23 10:25:44.66	344.15	43.25	-32.5	-36.0	9.2	2.01e-02	0	43	102	1048576	25	5403
2026-01-23 10:25:45.67	344.11	42.97	-32.8	-37.5	8.1	6.28e-02	0	43	102	1048576	25	6136
2026-01-23 10:25:46.68	344.08	42.68	-32.8	-37.5	8.0	5.40e-02	0	43	102	1048576	25	6154
2026-01-23 10:25:47.68	344.05	42.40	-33.1	-38.2	7.1	7.86e-02	0	43	102	1048576	26	6462
2026-01-23 10:25:48.68	344.01	42.12	-33.4	-39.9	5.9	2.30e-01	0	43	102	1048576	26	7609
2026-01-23 10:25:49.69	343.98	41.84	-33.4	-39.7	6.0	3.13e-01	0	43	102	1048576	26	7467
2026-01-23 10:25:50.70	343.95	41.57	-33.5	-39.8	5.7	4.62e-01	0	43	102	1048576	27	7471
2026-01-23 10:25:51.70	343.92	41.29	-33.5	-40.0	5.5	3.86e-01	0	43	102	1048576	27	7568
2026-01-23 10:25:52.70	343.89	41.02	-33.2	-38.3	6.6	2.74e-01	0	43	102	1048576	27	6484
2026-01-23 10:25:53.71	343.86	40.75	-33.0	-37.1	7.6	9.13e-02	0	43	102	1048576	27	5779
2026-01-23 10:25:54.72	343.83	40.48	-33.0	-37.3	7.5	8.98e-02	0	43	102	1048576	27	5855
2026-01-23 10:25:55.72	343.80	40.22	-32.6	-36.0	8.9	4.00e-02	0	43	102	1048576	26	5299
2026-01-23 10:25:56.73	343.78	39.96	-32.3	-34.8	9.7	1.54e-02	0	43	102	1048576	26	4782
2026-01-23 10:25:57.73	343.75	39.69	-32.5	-35.9	9.3	1.36e-02	0	43	102	1048576	25	5367
2026-01-23 10:25:58.73	343.72	39.44	-33.0	-38.0	7.7	1.91e-02	0	43	102	1048576	25	6437
2026-01-23 10:25:59.73	343.70	39.18	-33.3	-39.4	6.2	2.60e-01	0	43	102	1048576	26	7272
2026-01-23 10:26:00.74	343.67	38.92	-33.5	-40.0	5.6	3.35e-01	0	43	102	1048576	27	7542
2026-01-23 10:26:01.75	343.65	38.67	-33.4	-39.3	6.0	3.84e-01	0	43	102	1048576	27	7104
2026-01-23 10:26:02.75	343.62	38.42	-33.2	-38.0	6.8	2.07e-01	0	43	102	1048576	27	6273
2026-01-23 10:26:03.75	343.60	38.17	-33.2	-38.0	7.0	2.10e-01	0	43	102	1048576	27	6278
2026-01-23 10:26:04.76	343.57	37.92	-33.1	-37.7	7.2	1.47e-01	0	43	102	1048576	27	6093
2026-01-23 10:26:05.77	343.55	37.67	-33.2	-38.4	6.7	1.95e-01	0	43	102	1048576	27	6512
2026-01-23 10:26:06.77	343.53	37.43	-33.1	-37.5	7.2	1.88e-01	0	43	102	1048576	27	5992
2026-01-23 10:26:07.77	343.50	37.19	-33.0	-37.5	7.7	6.42e-02	0	43	102	1048576	26	6087
2026-01-23 10:26:08.78	343.48	36.94	-32.8	-36.6	8.4	6.32e-02	0	43	102	1048576	26	5606
2026-01-23 10:26:09.79	343.46	36.70	-32.9	-37.3	7.9	6.00e-02	0	43	102	1048576	26	5948
2026-01-23 10:26:10.79	343.44	36.47	-32.8	-36.5	8.4	6.45e-02	0	43	102	1048576	26	5544
2026-01-23 10:26:11.80	343.42	36.23	-32.4	-35.0	9.6	2.72e-02	0	43	102	1048576	26	4889
2026-01-23 10:26:12.79	343.40	36.00	-32.3	-34.9	9.6	1.62e-02	0	43	102	1048576	26	4822
2026-01-23 10:26:13.80	343.38	35.77	-32.4	-35.6	9.4	1.04e-02	0	43	102	1048576	25	5231
2026-01-23 10:26:14.80	343.36	35.54	-32.5	-36.1	9.1	1.88e-02	0	43	102	1048576	25	5464
2026-01-23 10:26:15.80	343.34	35.31	-32.4	-35.6	9.5	1.91e-02	0	43	102	1048576	25	5246
2026-01-23 10:26:16.81	343.32	35.08	-32.7	-37.2	8.2	3.82e-02	0	43	102	1048576	25	5984
2026-01-23 10:26:17.81	343.30	34.86	-33.0	-37.9	7.5	9.08e-02	0	43	102	1048576	26	6285
2026-01-23 10:26:18.82	343.28	34.63	-33.3	-39.6	6.2	1.59e-01	0	43	102	1048576	26	7369
2026-01-23 10:26:19.83	343.26	34.41	-33.6	-40.6	5.2	5.14e-01	0	43	102	1048576	27	8100
2026-01-23 10:26:20.83	343.24	34.19	-33.8	-42.8	4.4	6.89e-01	0	43	102	1048576	27	10170
2026-01-23 10:26:21.84	343.22	33.97	-33.7	-41.9	4.6	1.15e+00	0	43	102	1048576	27	9175
2026-01-23 10:26:22.84	343.21	33.75	-33.5	-40.1	5.5	6.08e-01	0	43	102	1048576	27	7662
2026-01-23 10:26:23.85	343.19	33.53	-33.2	-38.4	6.5	3.07e-01	0	43	102	1048576	27	6542
2026-01-23 10:26:24.86	343.17	33.32	-32.8	-36.3	8.1	1.07e-01	0	43	102	1048576	27	5412
2026-01-23 10:26:25.86	343.16	33.10	-32.1	-34.8	10.1	1.05e-02	0	43	102	1048576	25	4889
2026-01-23 10:26:26.87	343.14	32.89	-31.7	-34.0	11.0	3.05e-03	0	43	102	1048576	24	4661
2026-01-23 10:26:27.87	343.12	32.68	-31.3	-32.6	12.0	5.41e-04	0	43	102	1048576	24	4191
2026-01-23 10:26:28.88	343.11	32.47	-31.1	-32.6	12.2	4.42e-04	0	43	102	1048576	23	4284
2026-01-23 10:26:29.88	343.09	32.26	-31.3	-33.1	12.0	5.80e-04	0	43	102	1048576	23	4437
2026-01-23 10:26:30.88	343.08	32.06	-31.6	-34.1	11.2	7.38e-04	0	43	102	1048576	23	4797
2026-01-23 10:26:31.89	343.06	31.85	-31.4	-33.5	11.6	8.00e-04	0	43	102	1048576	23	4588
2026-01-23 10:26:32.89	343.05	31.65	-31.3	-33.2	11.9	7.35e-04	0	43	102	1048576	23	4468
2026-01-23 10:26:33.89	343.03	31.45	-31.4	-33.4	11.7	7.88e-04	0	43	102	1048576	23	4549
2026-01-23 10:26:34.89	343.02	31.25	-31.1	-32.6	12.3	4.55e-04	0	43	102	1048576	23	4269
2026-01-23 10:26:35.90	343.00	31.05	-31.1	-32.5	12.3	1.75e-04	0	43	102	1048576	23	4236
2026-01-23 10:26:36.91	342.99	30.85	-31.0	-32.4	12.4	1.31e-04	0	43	102	1048576	23	4199
2026-01-23 10:26:37.92	342.97	30.66	-31.1	-32.6	12.3	1.52e-04	0	43	102	1048576	23	4272
2026-01-23 10:26:38.92	342.96	30.46	-31.4	-33.5	11.6	1.79e-04	0	43	102	1048576	23	4596
2026-01-23 10:26:39.93	342.95	30.27	-31.7	-34.4	11.0	1.06e-03	0	43	102	1048576	23	4925
2026-01-23 10:26:40.93	342.93	30.08	-31.8	-34.9	10.7	2.51e-03	0	43	102	1048576	23	5100
2026-01-23 10:26:41.94	342.92	29.88	-32.0	-35.1	10.1	5.21e-03	0	43	102	1048576	24	5126
2026-01-23 10:26:42.94	342.91	29.69	-32.2	-35.7	9.7	1.00e-02	0	44	102	1048576	24	5374
2026-01-23 10:26:43.94	342.89	29.51	-32.2	-35.7	9.6	1.17e-02	0	43	102	1048576	24	5388
2026-01-23 10:26:44.95	342.88	29.32	-32.2	-35.8	9.6	1.48e-02	0	43	102	1048576	24	5428
2026-01-23 10:26:45.95	342.87	29.13	-32.1	-35.2	10.0	1.01e-02	0	43	102	1048576	24	5164
2026-01-23 10:26:46.95	342.86	28.95	-32.0	-35.1	10.2	6.13e-03	0	43	102	1048576	24	5110
2026-01-23 10:26:47.96	342.85	28.76	-31.9	-34.5	10.5	4.10e-03	0	43	102	1048576	24	4856
2026-01-23 10:26:48.95	342.83	28.59	-31.6	-33.7	11.1	3.08e-03	0	43	102	1048576	24	4582
2026-01-23 10:26:49.95	342.82	28.40	-31.4	-33.0	11.6	8.44e-04	0	43	102	1048576	24	4337
2026-01-23 10:26:50.96	342.81	28.22	-31.4	-33.6	11.5	6.81e-04	0	43	102	1048576	23	4612
2026-01-23 10:26:51.97	342.80	28.04	-31.0	-32.3	12.5	5.98e-04	0	43	102	1048576	23	4176
2026-01-23 10:26:52.97	342.79	27.87	-30.7	-32.0	12.9	4.80e-05	0	43	102	1048576	22	4194
2026-01-23 10:26:53.98	342.78	27.69	-30.3	-31.0	13.6	9.10e-06	0	43	102	1048576	22	3885
2026-01-23 10:26:54.98	342.77	27.51	-30.2	-31.0	13.9	3.80e-06	0	43	102	1048576	21	3979
2026-01-23 10:26:55.99	342.76	27.34	-30.0	-30.7	14.0	4.50e-06	0	43	102	1048576	21	3894
2026-01-23 10:26:56.99	342.75	27.17	-30.0	-30.6	14.2	7.00e-07	0	43	102	1048576	21	3855
2026-01-23 10:26:58.00	342.74	26.99	-30.0	-30.6	14.1	7.00e-07	0	43	102	1048576	21	3866
2026-01-23 10:26:59.00	342.73	26.82	-30.1	-30.8	14.0	3.80e-06	0	43	102	1048576	21	3920
2026-01-23 10:27:00.00	342.72	26.65	-30.1	-31.0	13.8	7.00e-07	0	43	102	1048576	21	3972
2026-01-23 10:27:01.00	342.71	26.49	-30.2	-31.2	13.8	2.20e-06	0	43	102	1048576	21	4024
2026-01-23 10:27:02.01	342.70	26.32	-30.2	-31.2	13.7	5.30e-06	0	43	102	1048576	21	4041
2026-01-23 10:27:03.00	342.69	26.15	-30.4	-31.7	13.4	6.10e-06	0	43	102	1048576	21	4177
2026-01-23 10:27:04.00	342.68	25.99	-30.5	-32.2	13.1	1.52e-05	0	43	102	1048576	21	4330
2026-01-23 10:27:05.00	342.67	25.82	-30.7	-32.6	12.8	1.98e-05	0	43	102	1048576	21	4485
2026-01-23 10:27:06.00	342.66	25.66	-30.7	-32.5	12.9	5.34e-05	0	43	102	1048576	21	4450
2026-01-23 10:27:07.01	342.65	25.50	-31.0	-32.9	12.3	1.50e-04	0	43	102	1048576	22	4476
2026-01-23 10:27:08.01	342.64	25.34	-31.1	-33.2	12.1	2.32e-04	0	43	102	1048576	22	4580
2026-01-23 10:27:09.02	342.63	25.17	-31.1	-33.3	12.0	2.62e-04	0	43	102	1048576	22	4605
2026-01-23 10:27:10.02	342.63	25.02	-31.2	-33.4	11.9	4.69e-04	0	43	102	1048576	22	4666
2026-01-23 10:27:11.02	342.62	24.86	-31.0	-33.0	12.2	3.59e-04	0	43	102	1048576	22	4521
2026-01-23 10:27:12.02	342.61	24.70	-31.0	-33.0	12.1	2.48e-04	0	43	102	1048576	22	4528
2026-01-23 10:27:13.03	342.60	24.54	-30.9	-32.7	12.3	1.52e-04	0	43	102	1048576	22	4414
2026-01-23 10:27:14.03	342.59	24.39	-30.7	-32.1	12.8	9.84e-05	0	43	102	1048576	22	4238
2026-01-23 10:27:15.02	342.58	24.23	-30.5	-31.5	13.1	2.82e-05	0	43	102	1048576	22	4059
2026-01-23 10:27:16.02	342.58	24.08	-30.4	-31.2	13.3	1.83e-05	0	43	102	1048576	22	3966
2026-01-23 10:27:17.03	342.57	23.93	-30.4	-31.1	13.4	1.83e-05	0	43	102	1048576	22	3938
2026-01-23 10:27:18.04	342.56	23.77	-30.5	-31.5	13.2	2.44e-05	0	43	102	1048576	22	4041
2026-01-23 10:27:19.04	342.55	23.62	-30.3	-31.4	13.5	1.14e-05	0	43	102	1048576	21	4107
2026-01-23 10:27:20.04	342.55	23.47	-30.4	-31.8	13.2	9.10e-06	0	43	102	1048576	21	4229
2026-01-23 10:27:21.05	342.54	23.32	-30.4	-31.8	13.2	2.05e-05	0	43	102	1048576	21	4231
2026-01-23 10:27:22.05	342.53	23.17	-30.2	-31.3	13.6	1.67e-05	0	43	102	1048576	21	4083
2026-01-23 10:27:23.06	342.53	23.03	-30.2	-31.3	13.6	8.30e-06	0	43	102	1048576	21	4066
2026-01-23 10:27:24.06	342.52	22.88	-30.2	-31.1	13.7	5.30e-06	0	43	102	1048576	21	4016
2026-01-23 10:27:25.07	342.51	22.73	-30.1	-30.8	13.9	8.30e-06	0	43	102	1048576	21	3939
2026-01-23 10:27:26.08	342.50	22.59	-30.1	-30.9	13.8	5.30e-06	0	43	102	1048576	21	3966
2026-01-23 10:27:27.09	342.50	22.44	-29.8	-30.7	14.3	1.50e-06	0	43	102	1048576	20	3978
2026-01-23 10:27:28.10	342.49	22.30	-29.5	-30.0	14.6	7.00e-07	0	43	102	1048576	20	3790
2026-01-23 10:27:29.10	342.49	22.15	-29.3	-29.5	14.9	7.00e-07	0	43	102	1048576	20	3683
2026-01-23 10:27:30.10	342.48	22.01	-29.1	-29.5	15.3	0.00e+00	0	43	102	1048576	19	3741
2026-01-23 10:27:31.11	342.47	21.87	-29.1	-29.3	15.4	0.00e+00	0	43	102	1048576	19	3700
2026-01-23 10:27:32.12	342.47	21.73	-29.1	-29.5	15.3	0.00e+00	0	43	102	1048576	19	3750
2026-01-23 10:27:33.12	342.46	21.59	-29.1	-29.3	15.4	0.00e+00	0	43	102	1048576	19	3698
2026-01-23 10:27:34.12	342.45	21.45	-29.3	-29.9	15.1	0.00e+00	0	43	102	1048576	19	3847
2026-01-23 10:27:35.13	342.45	21.31	-29.5	-30.3	14.8	0.00e+00	0	43	102	1048576	19	3969
2026-01-23 10:27:36.13	342.44	21.17	-29.4	-30.1	14.9	0.00e+00	0	43	102	1048576	19	3904
2026-01-23 10:27:37.13	342.44	21.04	-29.5	-30.4	14.8	0.00e+00	0	43	102	1048576	19	3991
2026-01-23 10:27:38.14	342.43	20.90	-29.7	-31.0	14.4	7.00e-07	0	43	102	1048576	19	4161
2026-01-23 10:27:39.14	342.43	20.77	-29.8	-31.1	14.2	0.00e+00	0	43	102	1048576	19	4188
2026-01-23 10:27:40.14	342.42	20.63	-29.9	-31.3	14.1	1.50e-06	0	43	102	1048576	19	4271
2026-01-23 10:27:41.14	342.41	20.50	-30.1	-31.6	13.6	3.00e-06	0	43	102	1048576	20	4251
2026-01-23 10:27:42.15	342.41	20.37	-30.2	-31.7	13.5	8.30e-06	0	43	102	1048576	20	4290
2026-01-23 10:27:43.15	342.40	20.23	-30.4	-32.2	13.2	1.14e-05	0	43	102	1048576	20	4463
2026-01-23 10:27:44.16	342.40	20.10	-30.5	-32.0	13.0	5.72e-05	0	43	102	1048576	21	4313
2026-01-23 10:27:45.16	342.39	19.97	-30.6	-32.4	12.7	5.87e-05	0	43	102	1048576	21	4442
2026-01-23 10:27:46.17	342.39	19.84	-30.9	-33.2	12.1	1.25e-04	0	43	102	1048576	21	4714
2026-01-23 10:27:47.17	342.38	19.71	-30.8	-32.9	12.3	1.72e-04	0	43	102	1048576	21	4614
2026-01-23 10:27:48.18	342.38	19.58	-30.9	-33.3	12.1	2.00e-04	0	43	102	1048576	21	4728
2026-01-23 10:27:49.18	342.37	19.45	-31.0	-33.2	11.9	2.52e-04	0	43	102	1048576	22	4600
2026-01-23 10:27:50.19	342.37	19.32	-31.1	-33.3	11.8	5.71e-04	0	43	102	1048576	22	4655
2026-01-23 10:27:51.19	342.37	19.20	-31.4	-34.2	11.2	8.49e-04	0	43	102	1048576	22	4978
2026-01-23 10:27:52.19	342.36	19.07	-31.2	-33.6	11.6	1.09e-03	0	43	102	1048576	22	4757
2026-01-23 10:27:53.19	342.36	18.95	-31.1	-33.4	11.6	8.77e-04	0	43	102	1048576	22	4707
2026-01-23 10:27:54.18	342.35	18.82	-31.0	-33.2	11.8	6.05e-04	0	43	102	1048576	22	4616
2026-01-23 10:27:55.18	342.35	18.70	-31.2	-33.7	11.5	6.55e-04	0	43	102	1048576	22	4785
2026-01-23 10:27:56.19	342.34	18.57	-31.1	-33.5	11.5	6.83e-04	0	43	102	1048576	22	4746
2026-01-23 10:27:57.19	342.34	18.45	-31.2	-33.7	11.4	9.45e-04	0	43	102	1048576	22	4793
2026-01-23 10:27:58.20	342.34	18.33	-31.5	-34.0	10.9	1.82e-03	0	43	102	1048576	23	4843
2026-01-23 10:27:59.21	342.33	18.21	-31.5	-34.2	10.7	1.71e-03	0	43	102	1048576	23	4894
2026-01-23 10:28:00.22	342.33	18.08	-31.7	-34.7	10.4	5.08e-03	0	43	102	1048576	23	5106
2026-01-23 10:28:01.23	342.32	17.96	-31.4	-33.9	10.9	2.80e-03	0	43	102	1048576	23	4775
2026-01-23 10:28:02.24	342.32	17.84	-31.3	-33.5	11.2	1.45e-03	0	43	102	1048576	23	4647
2026-01-23 10:28:03.25	342.32	17.72	-31.3	-33.4	11.2	1.19e-03	0	43	102	1048576	23	4615
2026-01-23 10:28:04.26	342.31	17.60	-31.2	-33.2	11.4	1.01e-03	0	43	102	1048576	23	4547
2026-01-23 10:28:05.26	342.31	17.48	-31.2	-33.3	11.3	1.31e-03	0	43	102	1048576	23	4583
2026-01-23 10:28:06.26	342.30	17.37	-31.2	-33.3	11.3	1.37e-03	0	43	102	1048576	23	4569
2026-01-23 10:28:07.26	342.30	17.25	-31.2	-33.3	11.3	1.38e-03	0	43	102	1048576	23	4569
2026-01-23 10:28:08.27	342.30	17.13	-31.2	-33.1	11.4	8.56e-04	0	43	102	1048576	23	4513
2026-01-23 10:28:09.27	342.29	17.02	-31.0	-32.7	11.7	6.81e-04	0	43	102	1048576	23	4381
2026-01-23 10:28:10.28	342.29	16.90	-30.8	-32.1	12.1	3.88e-04	0	43	102	1048576	23	4170
2026-01-23 10:28:11.29	342.29	16.78	-30.8	-32.7	12.1	2.38e-04	0	43	102	1048576	22	4440
2026-01-23 10:28:12.29	342.28	16.67	-30.9	-32.9	11.9	2.59e-04	0	43	102	1048576	22	4516
2026-01-23 10:28:13.30	342.28	16.56	-30.8	-32.6	12.1	2.46e-04	0	43	102	1048576	22	4408
2026-01-23 10:28:14.29	342.28	16.44	-31.0	-33.1	11.8	3.66e-04	0	43	102	1048576	22	4606
2026-01-23 10:28:15.30	342.27	16.33	-31.1	-33.3	11.6	7.72e-04	0	43	102	1048576	22	4678
2026-01-23 10:28:16.30	342.27	16.22	-31.0	-33.0	11.7	5.15e-04	0	43	102	1048576	22	4575
2026-01-23 10:28:17.30	342.27	16.11	-30.9	-33.0	11.8	4.81e-04	0	43	102	1048576	22	4556
2026-01-23 10:28:18.30	342.27	16.00	-30.9	-32.9	11.9	6.46e-04	0	43	102	1048576	22	4512
2026-01-23 10:28:19.30	342.26	15.89	-31.0	-33.1	11.8	6.61e-04	0	43	102	1048576	22	4603
2026-01-23 10:28:20.31	342.26	15.77	-31.1	-33.5	11.4	9.51e-04	0	43	102	1048576	22	4754
2026-01-23 10:28:21.32	342.26	15.66	-31.1	-33.6	11.3	9.50e-04	0	43	102	1048576	22	4782
2026-01-23 10:28:22.32	342.25	15.55	-31.2	-33.8	11.2	9.85e-04	0	43	102	1048576	22	4865
2026-01-23 10:28:23.33	342.25	15.45	-31.4	-34.4	10.7	1.93e-03	0	43	102	1048576	22	5108
2026-01-23 10:28:24.33	342.25	15.34	-31.2	-34.0	11.1	1.59e-03	0	43	102	1048576	22	4921
2026-01-23 10:28:25.34	342.25	15.23	-31.3	-34.1	10.9	1.60e-03	0	43	102	1048576	22	4991
2026-01-23 10:28:26.34	342.24	15.12	-31.3	-34.2	11.0	1.90e-03	0	43	102	1048576	22	5008
2026-01-23 10:28:27.35	342.24	15.01	-31.4	-34.6	10.6	2.87e-03	0	43	102	1048576	22	5170
2026-01-23 10:28:28.35	342.24	14.91	-31.4	-34.6	10.6	3.28e-03	0	43	102	1048576	22	5176
2026-01-23 10:28:29.36	342.24	14.80	-31.5	-34.4	10.3	3.79e-03	0	43	102	1048576	23	5034
2026-01-23 10:28:30.36	342.23	14.70	-31.6	-34.6	10.2	6.41e-03	0	43	102	1048576	23	5085
2026-01-23 10:28:31.35	342.23	14.59	-31.6	-34.7	10.1	5.15e-03	0	43	102	1048576	23	5148
2026-01-23 10:28:32.36	342.23	14.49	-31.5	-34.4	10.3	7.70e-03	0	43	102	1048576	23	5037
2026-01-23 10:28:33.36	342.23	14.38	-31.6	-34.8	10.0	7.87e-03	0	43	102	1048576	23	5190
2026-01-23 10:28:34.37	342.23	14.28	-31.7	-35.0	9.9	9.32e-03	0	43	102	1048576	23	5263
2026-01-23 10:28:35.37	342.22	14.18	-31.6	-34.7	10.1	7.71e-03	0	43	102	1048576	23	5146
2026-01-23 10:28:36.38	342.22	14.07	-31.7	-35.1	9.8	8.29e-03	0	43	102	1048576	23	5302
2026-01-23 10:28:37.38	342.22	13.97	-31.7	-35.2	9.7	1.22e-02	0	43	102	1048576	23	5354
2026-01-23 10:28:38.39	342.22	13.87	-31.7	-35.2	9.7	9.81e-03	0	43	102	1048576	23	5367
2026-01-23 10:28:39.39	342.22	13.77	-31.7	-35.2	9.6	1.37e-02	0	43	102	1048576	23	5378
2026-01-23 10:28:40.40	342.21	13.67	-31.5	-34.6	10.2	7.23e-03	0	43	102	1048576	23	5101
2026-01-23 10:28:41.40	342.21	13.57	-31.4	-34.3	10.4	5.07e-03	0	43	102	1048576	23	4973
2026-01-23 10:28:42.41	342.21	13.46	-31.4	-34.0	10.6	3.68e-03	0	43	102	1048576	23	4874
2026-01-23 10:28:43.41	342.21	13.36	-31.4	-34.0	10.6	2.87e-03	0	43	102	1048576	23	4874
2026-01-23 10:28:44.41	342.21	13.27	-31.3	-33.6	10.7	3.19e-03	0	43	102	1048576	23	4738
2026-01-23 10:28:45.41	342.20	13.17	-31.2	-33.6	10.8	3.23e-03	0	43	102	1048576	23	4725
2026-01-23 10:28:46.41	342.20	13.07	-31.1	-33.0	11.2	1.87e-03	0	43	102	1048576	23	4510
2026-01-23 10:28:47.40	342.20	12.97	-31.0	-32.9	11.3	1.24e-03	0	43	102	1048576	23	4489
2026-01-23 10:28:48.41	342.20	12.87	-31.0	-32.7	11.4	1.01e-03	0	43	102	1048576	23	4410
2026-01-23 10:28:49.41	342.20	12.78	-30.9	-32.6	11.5	7.24e-04	0	43	102	1048576	23	4356
2026-01-23 10:28:50.42	342.20	12.68	-31.0	-32.7	11.4	7.94e-04	0	43	102	1048576	23	4413
2026-01-23 10:28:51.43	342.19	12.58	-30.9	-32.6	11.5	7.85e-04	0	43	102	1048576	23	4365
2026-01-23 10:28:52.44	342.19	12.48	-30.9	-32.5	11.6	7.05e-04	0	43	102	1048576	23	4339
2026-01-23 10:28:53.44	342.19	12.39	-31.0	-32.8	11.3	9.41e-04	0	43	102	1048576	23	4445
2026-01-23 10:28:54.45	342.19	12.29	-30.9	-32.7	11.3	1.40e-03	0	43	102	1048576	23	4423
2026-01-23 10:28:55.44	342.19	12.20	-30.7	-32.5	11.8	6.43e-04	0	43	102	1048576	22	4443
2026-01-23 10:28:56.45	342.19	12.10	-30.8	-32.9	11.6	5.75e-04	0	43	102	1048576	22	4571
2026-01-23 10:28:57.46	342.19	12.01	-30.8	-32.8	11.6	6.78e-04	0	43	102	1048576	22	4534
2026-01-23 10:28:58.46	342.19	11.91	-30.8	-32.8	11.6	7.45e-04	0	43	102	1048576	22	4543
2026-01-23 10:28:59.47	342.18	11.82	-30.7	-32.6	11.8	6.74e-04	0	43	102	1048576	22	4455
2026-01-23 10:29:00.47	342.18	11.73	-30.7	-32.5	11.8	4.52e-04	0	43	102	1048576	22	4438
2026-01-23 10:29:01.48	342.18	11.63	-30.8	-32.8	11.6	6.70e-04	0	43	102	1048576	22	4553
2026-01-23 10:29:02.48	342.18	11.54	-30.7	-32.6	11.8	6.74e-04	0	43	102	1048576	22	4464
2026-01-23 10:29:03.49	342.18	11.45	-30.8	-32.9	11.5	5.63e-04	0	43	102	1048576	22	4558
2026-01-23 10:29:04.49	342.18	11.36	-30.9	-33.2	11.3	1.15e-03	0	43	102	1048576	22	4660
2026-01-23 10:29:05.49	342.18	11.27	-30.6	-32.3	11.9	4.81e-04	0	43	102	1048576	22	4381
2026-01-23 10:29:06.50	342.18	11.17	-30.6	-32.2	12.0	3.20e-04	0	43	102	1048576	22	4320
2026-01-23 10:29:07.50	342.18	11.08	-30.5	-32.1	12.1	3.04e-04	0	43	102	1048576	22	4296
2026-01-23 10:29:08.51	342.18	10.99	-30.6	-32.3	12.0	3.04e-04	0	43	102	1048576	22	4359
2026-01-23 10:29:09.51	342.17	10.90	-30.7	-32.6	11.7	4.57e-04	0	43	102	1048576	22	4457
2026-01-23 10:29:10.52	342.17	10.81	-30.8	-32.9	11.5	1.08e-03	0	43	102	1048576	22	4571
2026-01-23 10:29:11.52	342.17	10.72	-30.9	-33.3	11.2	1.12e-03	0	43	102	1048576	22	4734
2026-01-23 10:29:12.53	342.17	10.63	-31.0	-33.4	11.1	1.56e-03	0	43	102	1048576	22	4756
2026-01-23 10:29:13.53	342.17	10.54	-30.9	-33.2	11.3	1.22e-03	0	43	102	1048576	22	4684
2026-01-23 10:29:14.53	342.17	10.46	-31.0	-33.4	11.2	1.42e-03	0	43	102	1048576	22	4754
2026-01-23 10:29:15.54	342.17	10.37	-31.0	-33.5	11.0	2.28e-03	0	43	102	1048576	22	4797
2026-01-23 10:29:16.55	342.17	10.28	-30.9	-33.3	11.2	1.77e-03	0	43	102	1048576	22	4711
2026-01-23 10:29:17.55	342.17	10.19	-30.8	-33.0	11.4	1.01e-03	0	43	102	1048576	22	4625
2026-01-23 10:29:18.56	342.17	10.10	-30.8	-32.8	11.5	5.88e-04	0	43	102	1048576	22	4545
2026-01-23 10:29:19.56	342.17	10.02	-30.7	-32.5	11.8	5.19e-04	0	43	102	1048576	22	4434
2026-01-23 10:29:20.56	342.17	9.93	-30.7	-32.5	11.7	6.09e-04	0	43	102	1048576	22	4439
2026-01-23 10:29:21.57	342.17	9.84	-30.6	-32.4	11.7	5.89e-04	0	43	102	1048576	22	4424
2026-01-23 10:29:22.57	342.17	9.76	-30.6	-32.3	11.7	6.64e-04	0	43	102	1048576	22	4394
