passes_logs/2026/01/23/R2M6_AANII_01/R2M6_AANII_01__20260123_125556_FENGYUN_3D_rec.log

#Pass ID: 20260123_125556_FENGYUN 3D
#Satellite: FENGYUN 3D
#Configuration: FENGYUN 3D
#almurnet v.1.7.20240730
#Start time: 2026-01-23 12:55:57

#Version: 2.2.20231116
#Station: R2M6_AANII_01
#Location: 30.233357 lon 59.946436 lat
#TLE: 1 43010U 17072A   26022.96745493  .00000490  00000+0  25355-3 0  9999
#TLE: 2 43010  98.9955 354.9072 0002484  95.6139 264.5320 14.19700039424383

#Time	Az	El	Level	Level2	SNR	BER	BlckErr	Temp	State	Recorded	gain1	gain2
2026-01-23 12:55:57.59	177.40	7.06	-27.8	-30.3	5.7	7.72e-01	0	41	0	0	15	4801
2026-01-23 12:55:58.59	177.44	7.14	-28.6	-30.7	5.6	7.80e-01	0	41	104	0	18	4577
2026-01-23 12:55:59.59	177.48	7.22	-28.7	-31.0	11.5	4.67e-04	0	41	0	0	18	4649
2026-01-23 12:56:00.59	177.51	7.29	-28.6	-30.6	11.7	6.44e-04	0	41	102	1048576	18	4521
2026-01-23 12:56:01.60	177.55	7.37	-28.1	-29.8	12.5	1.62e-04	0	41	102	1048576	17	4383
2026-01-23 12:56:02.60	177.59	7.45	-27.8	-29.1	13.0	1.71e-05	0	41	102	1048576	17	4197
2026-01-23 12:56:03.60	177.63	7.52	-27.4	-28.6	13.6	4.50e-06	0	41	102	1048576	16	4163
2026-01-23 12:56:04.61	177.66	7.60	-26.9	-28.1	14.0	4.50e-06	0	41	102	1048576	15	4136
2026-01-23 12:56:05.61	177.70	7.68	-26.6	-27.9	14.4	0.00e+00	0	41	102	1048576	14	4191
2026-01-23 12:56:06.62	177.74	7.76	-26.7	-28.1	14.3	2.20e-06	0	41	102	1048576	14	4233
2026-01-23 12:56:07.62	177.78	7.84	-26.7	-28.2	14.3	1.10e-06	0	41	102	1048576	14	4253
2026-01-23 12:56:08.63	177.82	7.92	-26.7	-28.0	14.4	0.00e+00	0	41	102	1048576	14	4206
2026-01-23 12:56:09.63	177.86	7.99	-26.7	-28.0	14.4	0.00e+00	0	41	102	1048576	14	4208
2026-01-23 12:56:10.63	177.89	8.07	-26.7	-28.0	14.4	1.10e-06	0	41	102	1048576	14	4218
2026-01-23 12:56:11.64	177.93	8.15	-26.6	-28.0	14.4	0.00e+00	0	41	102	1048576	14	4203
2026-01-23 12:56:12.64	177.97	8.23	-26.7	-28.1	14.4	0.00e+00	0	41	102	1048576	14	4232
2026-01-23 12:56:13.64	178.01	8.31	-26.9	-28.5	14.1	1.10e-06	0	41	102	1048576	14	4356
2026-01-23 12:56:14.65	178.05	8.39	-26.8	-28.2	14.3	0.00e+00	0	41	102	1048576	14	4269
2026-01-23 12:56:15.66	178.09	8.47	-26.9	-28.6	14.1	1.02e-05	0	41	102	1048576	14	4363
2026-01-23 12:56:16.66	178.13	8.55	-26.7	-28.2	14.3	2.20e-06	0	42	102	1048576	14	4260
2026-01-23 12:56:17.67	178.17	8.63	-26.5	-27.6	14.7	0.00e+00	0	41	102	1048576	14	4101
2026-01-23 12:56:18.67	178.21	8.71	-26.3	-27.2	14.9	1.14e-05	0	42	102	1048576	14	3985
2026-01-23 12:56:19.68	178.25	8.79	-26.4	-27.8	14.8	0.00e+00	0	41	102	1048576	13	4260
2026-01-23 12:56:20.67	178.29	8.88	-26.3	-27.6	15.0	0.00e+00	0	42	102	1048576	13	4200
2026-01-23 12:56:21.68	178.34	8.96	-26.3	-27.7	14.9	0.00e+00	0	42	102	1048576	13	4217
2026-01-23 12:56:22.68	178.38	9.04	-26.2	-27.5	15.1	0.00e+00	0	41	102	1048576	13	4161
2026-01-23 12:56:23.69	178.42	9.12	-26.3	-27.7	14.9	0.00e+00	0	42	102	1048576	13	4232
2026-01-23 12:56:24.70	178.46	9.20	-26.2	-27.5	15.0	8.00e-06	0	42	102	1048576	13	4186
2026-01-23 12:56:25.71	178.50	9.29	-26.2	-27.3	15.2	0.00e+00	0	42	102	1048576	13	4126
2026-01-23 12:56:26.70	178.54	9.37	-26.1	-27.2	15.3	0.00e+00	0	42	102	1048576	13	4080
2026-01-23 12:56:27.71	178.59	9.45	-26.2	-27.4	15.1	8.00e-06	0	42	102	1048576	13	4145
2026-01-23 12:56:28.71	178.63	9.54	-26.1	-27.3	15.2	0.00e+00	0	42	102	1048576	13	4110
2026-01-23 12:56:29.72	178.67	9.62	-26.1	-27.3	15.2	0.00e+00	0	42	102	1048576	13	4115
2026-01-23 12:56:30.73	178.72	9.71	-26.1	-27.2	15.3	6.80e-06	0	42	102	1048576	13	4082
2026-01-23 12:56:31.73	178.76	9.79	-26.0	-27.0	15.4	0.00e+00	0	42	102	1048576	13	4046
2026-01-23 12:56:32.74	178.80	9.87	-26.1	-27.3	15.2	0.00e+00	0	42	102	1048576	13	4112
2026-01-23 12:56:33.74	178.85	9.96	-26.1	-27.2	15.3	0.00e+00	0	42	102	1048576	13	4078
2026-01-23 12:56:34.75	178.89	10.04	-26.2	-27.4	15.2	0.00e+00	0	42	102	1048576	13	4135
2026-01-23 12:56:35.75	178.93	10.13	-26.2	-27.4	15.2	0.00e+00	0	42	102	1048576	13	4141
2026-01-23 12:56:36.75	178.98	10.22	-26.2	-27.4	15.2	0.00e+00	0	42	102	1048576	13	4142
2026-01-23 12:56:37.75	179.02	10.30	-26.2	-27.4	15.2	0.00e+00	0	42	102	1048576	13	4142
2026-01-23 12:56:38.76	179.07	10.39	-26.1	-27.3	15.3	0.00e+00	0	42	102	1048576	13	4112
2026-01-23 12:56:39.76	179.11	10.47	-26.2	-27.4	15.2	5.70e-06	0	42	102	1048576	13	4145
2026-01-23 12:56:40.77	179.16	10.56	-26.2	-27.5	15.1	0.00e+00	0	42	102	1048576	13	4171
2026-01-23 12:56:41.77	179.21	10.65	-26.2	-27.5	15.2	0.00e+00	0	42	102	1048576	13	4160
2026-01-23 12:56:42.78	179.25	10.74	-26.4	-28.0	14.9	0.00e+00	0	42	102	1048576	13	4291
2026-01-23 12:56:43.78	179.30	10.82	-26.3	-27.8	15.0	0.00e+00	0	42	102	1048576	13	4234
2026-01-23 12:56:44.78	179.34	10.91	-26.2	-27.4	15.2	0.00e+00	0	42	102	1048576	13	4129
2026-01-23 12:56:45.79	179.39	11.00	-26.2	-27.4	15.3	0.00e+00	0	42	102	1048576	13	4130
2026-01-23 12:56:46.79	179.44	11.09	-26.1	-27.2	15.4	0.00e+00	0	42	102	1048576	13	4098
2026-01-23 12:56:47.79	179.49	11.18	-26.3	-27.6	15.1	0.00e+00	0	42	102	1048576	13	4185
2026-01-23 12:56:48.80	179.53	11.27	-26.2	-27.4	15.2	0.00e+00	0	42	102	1048576	13	4149
2026-01-23 12:56:49.80	179.58	11.36	-26.3	-27.7	15.1	0.00e+00	0	42	102	1048576	13	4221
2026-01-23 12:56:50.80	179.63	11.45	-26.2	-27.4	15.3	0.00e+00	0	42	102	1048576	13	4139
2026-01-23 12:56:51.80	179.68	11.54	-26.0	-27.0	15.5	0.00e+00	0	42	102	1048576	13	4042
2026-01-23 12:56:52.80	179.73	11.63	-26.0	-27.1	15.5	0.00e+00	0	42	102	1048576	13	4054
2026-01-23 12:56:53.80	179.77	11.72	-26.0	-26.9	15.5	0.00e+00	0	42	102	1048576	13	4019
2026-01-23 12:56:54.81	179.82	11.81	-26.1	-27.1	15.5	0.00e+00	0	42	102	1048576	13	4062
2026-01-23 12:56:55.81	179.87	11.90	-26.0	-27.0	15.5	0.00e+00	0	42	102	1048576	13	4034
2026-01-23 12:56:56.81	179.92	11.99	-26.0	-26.9	15.6	0.00e+00	0	42	102	1048576	13	3999
2026-01-23 12:56:57.82	179.97	12.08	-26.0	-27.0	15.5	0.00e+00	0	42	102	1048576	13	4024
2026-01-23 12:56:58.82	180.02	12.18	-26.0	-27.0	15.5	0.00e+00	0	42	102	1048576	13	4027
2026-01-23 12:56:59.83	180.07	12.27	-25.9	-26.8	15.6	0.00e+00	0	42	102	1048576	13	3975
2026-01-23 12:57:00.83	180.13	12.36	-26.0	-26.9	15.6	0.00e+00	0	42	102	1048576	13	4008
2026-01-23 12:57:01.84	180.18	12.46	-25.9	-26.7	15.7	0.00e+00	0	42	102	1048576	13	3955
2026-01-23 12:57:02.84	180.23	12.55	-25.8	-26.5	15.8	0.00e+00	0	42	102	1048576	13	3918
2026-01-23 12:57:03.85	180.28	12.64	-25.8	-26.6	15.8	0.00e+00	0	42	102	1048576	13	3933
2026-01-23 12:57:04.86	180.33	12.74	-25.8	-26.5	15.8	0.00e+00	0	42	102	1048576	13	3894
2026-01-23 12:57:05.86	180.39	12.83	-25.7	-26.8	15.9	0.00e+00	0	42	102	1048576	12	4085
2026-01-23 12:57:06.87	180.44	12.93	-25.7	-26.7	16.0	0.00e+00	0	42	102	1048576	12	4054
2026-01-23 12:57:07.87	180.49	13.02	-25.6	-26.7	16.0	0.00e+00	0	42	102	1048576	12	4046
2026-01-23 12:57:08.88	180.55	13.12	-25.7	-26.8	16.0	1.10e-06	0	42	102	1048576	12	4082
2026-01-23 12:57:09.88	180.60	13.22	-25.5	-26.4	16.2	0.00e+00	0	42	102	1048576	12	3991
2026-01-23 12:57:10.89	180.65	13.31	-25.5	-26.4	16.2	0.00e+00	0	42	102	1048576	12	3993
2026-01-23 12:57:11.90	180.71	13.41	-25.6	-26.5	16.1	4.50e-06	0	42	102	1048576	12	4017
2026-01-23 12:57:12.90	180.76	13.51	-25.5	-26.4	16.2	0.00e+00	0	42	102	1048576	12	3981
2026-01-23 12:57:13.90	180.82	13.61	-25.4	-26.1	16.4	0.00e+00	0	42	102	1048576	12	3908
2026-01-23 12:57:14.90	180.87	13.70	-25.5	-26.3	16.3	1.02e-05	0	42	102	1048576	12	3948
2026-01-23 12:57:15.91	180.93	13.80	-25.6	-26.7	16.1	0.00e+00	0	42	102	1048576	12	4060
2026-01-23 12:57:16.91	180.99	13.90	-25.7	-26.8	16.0	0.00e+00	0	42	102	1048576	12	4077
2026-01-23 12:57:17.91	181.04	14.00	-25.7	-26.7	16.0	0.00e+00	0	42	102	1048576	12	4060
2026-01-23 12:57:18.91	181.10	14.10	-25.6	-26.6	16.1	0.00e+00	0	42	102	1048576	12	4036
2026-01-23 12:57:19.92	181.16	14.20	-25.7	-26.9	16.0	0.00e+00	0	42	102	1048576	12	4110
2026-01-23 12:57:20.92	181.21	14.30	-25.7	-26.7	16.1	2.20e-06	0	42	102	1048576	12	4057
2026-01-23 12:57:21.92	181.27	14.40	-25.6	-26.5	16.2	0.00e+00	0	42	102	1048576	12	4015
2026-01-23 12:57:22.93	181.33	14.50	-25.6	-26.6	16.1	0.00e+00	0	42	102	1048576	12	4031
2026-01-23 12:57:23.93	181.39	14.60	-25.6	-26.5	16.2	3.40e-06	0	43	102	1048576	12	4004
2026-01-23 12:57:24.93	181.45	14.71	-25.8	-26.9	16.0	0.00e+00	0	43	102	1048576	12	4119
2026-01-23 12:57:25.93	181.51	14.81	-25.5	-26.5	16.2	0.00e+00	0	43	102	1048576	12	4005
2026-01-23 12:57:26.94	181.57	14.91	-25.3	-26.0	16.5	3.40e-06	0	42	102	1048576	12	3882
2026-01-23 12:57:27.95	181.63	15.01	-25.2	-26.2	16.7	0.00e+00	0	43	102	1048576	11	4052
2026-01-23 12:57:28.95	181.69	15.12	-25.3	-26.4	16.6	0.00e+00	0	43	102	1048576	11	4092
2026-01-23 12:57:29.96	181.75	15.22	-25.2	-26.2	16.7	0.00e+00	0	43	102	1048576	11	4047
2026-01-23 12:57:30.96	181.81	15.33	-25.2	-26.1	16.8	0.00e+00	0	43	102	1048576	11	4021
2026-01-23 12:57:31.96	181.87	15.43	-25.3	-26.4	16.7	0.00e+00	0	43	102	1048576	11	4078
2026-01-23 12:57:32.96	181.93	15.54	-25.1	-26.0	16.8	0.00e+00	0	43	102	1048576	11	3992
2026-01-23 12:57:33.96	182.00	15.64	-25.1	-25.9	16.9	0.00e+00	0	43	102	1048576	11	3953
2026-01-23 12:57:34.97	182.06	15.75	-25.1	-25.9	16.9	0.00e+00	0	43	102	1048576	11	3970
2026-01-23 12:57:35.98	182.12	15.86	-24.9	-25.6	17.1	0.00e+00	0	43	102	1048576	11	3897
2026-01-23 12:57:36.98	182.19	15.96	-24.9	-25.5	17.1	0.00e+00	0	43	102	1048576	11	3876
2026-01-23 12:57:37.99	182.25	16.07	-24.9	-25.6	17.1	0.00e+00	0	43	102	1048576	11	3893
2026-01-23 12:57:38.99	182.32	16.18	-24.8	-25.3	17.3	0.00e+00	0	43	102	1048576	11	3817
2026-01-23 12:57:40.00	182.38	16.29	-24.7	-25.6	17.4	0.00e+00	0	43	102	1048576	10	3985
2026-01-23 12:57:41.00	182.45	16.40	-24.6	-25.5	17.4	0.00e+00	0	43	102	1048576	10	3968
2026-01-23 12:57:42.01	182.52	16.51	-24.7	-25.6	17.4	0.00e+00	0	43	102	1048576	10	4000
2026-01-23 12:57:43.01	182.58	16.62	-24.6	-25.3	17.5	0.00e+00	0	43	102	1048576	10	3931
2026-01-23 12:57:44.02	182.65	16.73	-24.6	-25.4	17.5	0.00e+00	0	43	102	1048576	10	3935
2026-01-23 12:57:45.02	182.72	16.84	-24.7	-25.6	17.4	0.00e+00	0	43	102	1048576	10	4000
2026-01-23 12:57:46.02	182.79	16.95	-24.6	-25.4	17.5	0.00e+00	0	43	102	1048576	10	3947
2026-01-23 12:57:47.03	182.85	17.06	-24.6	-25.4	17.5	0.00e+00	0	43	102	1048576	10	3939
2026-01-23 12:57:48.03	182.92	17.17	-24.7	-25.7	17.4	0.00e+00	0	43	102	1048576	10	4007
2026-01-23 12:57:49.04	182.99	17.28	-24.6	-25.4	17.5	0.00e+00	0	43	102	1048576	10	3941
2026-01-23 12:57:50.04	183.06	17.40	-24.6	-25.4	17.5	0.00e+00	0	43	102	1048576	10	3935
2026-01-23 12:57:51.05	183.13	17.51	-24.6	-25.5	17.5	0.00e+00	0	43	102	1048576	10	3958
2026-01-23 12:57:52.05	183.20	17.62	-24.5	-25.2	17.6	0.00e+00	0	43	102	1048576	10	3897
2026-01-23 12:57:53.06	183.28	17.74	-24.4	-25.0	17.7	0.00e+00	0	43	102	1048576	10	3849
2026-01-23 12:57:54.06	183.35	17.85	-24.4	-25.0	17.7	0.00e+00	0	43	102	1048576	10	3851
2026-01-23 12:57:55.07	183.42	17.97	-24.6	-25.4	17.5	0.00e+00	0	43	102	1048576	10	3949
2026-01-23 12:57:56.08	183.50	18.09	-24.3	-24.8	17.8	0.00e+00	0	43	102	1048576	10	3807
2026-01-23 12:57:57.09	183.57	18.21	-24.2	-25.0	18.0	0.00e+00	0	43	102	1048576	9	3942
2026-01-23 12:57:58.09	183.64	18.32	-24.2	-25.0	17.9	0.00e+00	0	43	102	1048576	9	3967
2026-01-23 12:57:59.10	183.72	18.44	-24.2	-25.0	18.0	0.00e+00	0	43	102	1048576	9	3950
2026-01-23 12:58:00.11	183.79	18.56	-24.2	-25.0	18.0	0.00e+00	0	43	102	1048576	9	3964
2026-01-23 12:58:01.10	183.87	18.68	-24.4	-25.6	17.7	0.00e+00	0	43	102	1048576	9	4091
2026-01-23 12:58:02.11	183.95	18.80	-24.3	-25.2	17.9	0.00e+00	0	43	102	1048576	9	3995
2026-01-23 12:58:03.11	184.02	18.92	-24.2	-25.0	18.0	0.00e+00	0	43	102	1048576	9	3960
2026-01-23 12:58:04.11	184.10	19.03	-24.3	-25.2	17.9	0.00e+00	0	43	102	1048576	9	4003
2026-01-23 12:58:05.10	184.18	19.15	-24.2	-25.1	18.0	0.00e+00	0	43	102	1048576	9	3975
2026-01-23 12:58:06.10	184.26	19.27	-24.4	-25.5	17.7	0.00e+00	0	43	102	1048576	9	4085
2026-01-23 12:58:07.11	184.34	19.40	-24.2	-25.1	17.9	0.00e+00	0	43	102	1048576	9	3991
2026-01-23 12:58:08.12	184.42	19.52	-24.2	-25.0	18.0	1.10e-06	0	43	102	1048576	9	3969
2026-01-23 12:58:09.13	184.50	19.64	-24.3	-25.3	17.9	0.00e+00	0	43	102	1048576	9	4024
2026-01-23 12:58:10.12	184.58	19.77	-24.2	-25.1	18.0	0.00e+00	0	43	102	1048576	9	3979
2026-01-23 12:58:11.13	184.66	19.89	-24.2	-25.1	18.0	1.10e-06	0	43	102	1048576	9	3992
2026-01-23 12:58:12.14	184.74	20.02	-24.4	-25.4	17.8	0.00e+00	0	43	102	1048576	9	4054
2026-01-23 12:58:13.14	184.83	20.14	-24.3	-25.4	17.9	0.00e+00	0	43	102	1048576	9	4044
2026-01-23 12:58:14.14	184.91	20.27	-24.3	-25.3	17.9	0.00e+00	0	43	102	1048576	9	4033
2026-01-23 12:58:15.14	184.99	20.39	-24.3	-25.2	17.9	0.00e+00	0	43	102	1048576	9	4006
2026-01-23 12:58:16.14	185.08	20.52	-24.3	-25.3	17.9	0.00e+00	0	43	102	1048576	9	4037
2026-01-23 12:58:17.14	185.16	20.65	-24.4	-25.5	17.8	0.00e+00	0	43	102	1048576	9	4076
2026-01-23 12:58:18.14	185.25	20.77	-24.4	-25.4	17.8	0.00e+00	0	43	102	1048576	9	4065
2026-01-23 12:58:19.15	185.34	20.90	-24.5	-25.8	17.6	0.00e+00	0	43	102	1048576	9	4156
2026-01-23 12:58:20.15	185.43	21.03	-24.3	-25.3	17.9	1.10e-06	0	43	102	1048576	9	4024
2026-01-23 12:58:21.15	185.51	21.16	-24.1	-24.9	18.1	0.00e+00	0	43	102	1048576	9	3938
2026-01-23 12:58:22.15	185.60	21.29	-24.1	-24.7	18.2	0.00e+00	0	43	102	1048576	9	3897
2026-01-23 12:58:23.16	185.69	21.42	-24.1	-24.8	18.2	1.10e-06	0	43	102	1048576	9	3903
2026-01-23 12:58:24.17	185.78	21.56	-23.9	-24.5	18.4	0.00e+00	0	43	102	1048576	9	3832
2026-01-23 12:58:25.17	185.88	21.69	-23.9	-24.4	18.4	0.00e+00	0	43	102	1048576	9	3822
2026-01-23 12:58:26.17	185.97	21.82	-23.9	-24.5	18.4	0.00e+00	0	43	102	1048576	9	3836
2026-01-23 12:58:27.18	186.06	21.95	-23.7	-24.5	18.6	0.00e+00	0	43	102	1048576	8	3939
2026-01-23 12:58:28.19	186.16	22.09	-23.6	-24.3	18.7	0.00e+00	0	43	102	1048576	8	3895
2026-01-23 12:58:29.19	186.25	22.22	-23.6	-24.2	18.8	0.00e+00	0	43	102	1048576	8	3874
2026-01-23 12:58:30.20	186.35	22.36	-23.5	-24.1	18.8	0.00e+00	0	43	102	1048576	8	3842
2026-01-23 12:58:31.20	186.44	22.50	-23.5	-24.1	18.8	0.00e+00	0	43	102	1048576	8	3852
2026-01-23 12:58:32.21	186.54	22.63	-23.7	-24.4	18.7	0.00e+00	0	43	102	1048576	8	3924
2026-01-23 12:58:33.21	186.64	22.77	-23.5	-24.1	18.8	0.00e+00	0	43	102	1048576	8	3858
2026-01-23 12:58:34.22	186.74	22.91	-23.6	-24.2	18.8	0.00e+00	0	43	102	1048576	8	3877
2026-01-23 12:58:35.22	186.84	23.05	-23.7	-24.5	18.7	0.00e+00	0	43	102	1048576	8	3937
2026-01-23 12:58:36.23	186.94	23.19	-23.6	-24.3	18.7	0.00e+00	0	43	102	1048576	8	3898
2026-01-23 12:58:37.23	187.04	23.33	-23.7	-24.5	18.6	0.00e+00	0	43	102	1048576	8	3951
2026-01-23 12:58:38.24	187.14	23.47	-23.6	-24.3	18.8	0.00e+00	0	43	102	1048576	8	3882
2026-01-23 12:58:39.24	187.24	23.61	-23.6	-24.3	18.8	0.00e+00	0	43	102	1048576	8	3888
2026-01-23 12:58:40.25	187.35	23.75	-23.6	-24.3	18.7	0.00e+00	0	43	102	1048576	8	3901
2026-01-23 12:58:41.24	187.45	23.89	-23.5	-24.0	18.9	0.00e+00	0	43	102	1048576	8	3833
2026-01-23 12:58:42.24	187.56	24.04	-23.4	-23.9	19.0	0.00e+00	0	43	102	1048576	8	3800
2026-01-23 12:58:43.25	187.66	24.18	-23.5	-24.1	18.9	0.00e+00	0	43	102	1048576	8	3842
2026-01-23 12:58:44.25	187.77	24.33	-23.6	-24.3	18.8	0.00e+00	0	43	102	1048576	8	3887
2026-01-23 12:58:45.25	187.88	24.47	-23.4	-23.7	19.1	0.00e+00	0	43	102	1048576	8	3760
2026-01-23 12:58:46.26	187.99	24.62	-23.3	-23.7	19.1	0.00e+00	0	43	102	1048576	8	3748
2026-01-23 12:58:47.27	188.10	24.77	-23.3	-23.6	19.2	0.00e+00	0	43	102	1048576	8	3731
2026-01-23 12:58:48.27	188.21	24.92	-23.3	-23.6	19.1	0.00e+00	0	43	102	1048576	8	3732
2026-01-23 12:58:49.27	188.32	25.06	-23.3	-23.6	19.1	0.00e+00	0	43	102	1048576	8	3732
2026-01-23 12:58:50.27	188.44	25.21	-23.3	-23.6	19.1	0.00e+00	0	43	102	1048576	8	3739
2026-01-23 12:58:51.27	188.55	25.36	-23.2	-23.9	19.2	0.00e+00	0	43	102	1048576	7	3901
2026-01-23 12:58:52.28	188.67	25.51	-23.2	-24.0	19.2	0.00e+00	0	43	102	1048576	7	3920
2026-01-23 12:58:53.28	188.78	25.66	-23.3	-24.1	19.1	0.00e+00	0	43	102	1048576	7	3946
2026-01-23 12:58:54.29	188.90	25.82	-23.2	-23.8	19.3	0.00e+00	0	43	102	1048576	7	3876
2026-01-23 12:58:55.29	189.02	25.97	-23.3	-24.0	19.1	0.00e+00	0	43	102	1048576	7	3926
2026-01-23 12:58:56.29	189.14	26.12	-23.2	-23.9	19.2	0.00e+00	0	43	102	1048576	7	3911
2026-01-23 12:58:57.30	189.26	26.28	-23.3	-24.1	19.1	0.00e+00	0	43	102	1048576	7	3950
2026-01-23 12:58:58.31	189.38	26.43	-23.4	-24.3	19.1	0.00e+00	0	43	102	1048576	7	3994
2026-01-23 12:58:59.31	189.51	26.59	-23.4	-24.3	19.0	0.00e+00	0	43	102	1048576	7	4004
2026-01-23 12:59:00.31	189.63	26.75	-23.4	-24.4	19.0	0.00e+00	0	43	102	1048576	7	4014
2026-01-23 12:59:01.32	189.76	26.90	-23.4	-24.2	19.1	0.00e+00	0	43	102	1048576	7	3985
2026-01-23 12:59:02.33	189.89	27.06	-23.2	-24.0	19.2	0.00e+00	0	43	102	1048576	7	3924
2026-01-23 12:59:03.34	190.02	27.22	-23.3	-24.1	19.2	0.00e+00	0	43	102	1048576	7	3944
2026-01-23 12:59:04.34	190.15	27.38	-23.3	-24.1	19.2	0.00e+00	0	43	102	1048576	7	3944
2026-01-23 12:59:05.35	190.28	27.55	-23.1	-23.8	19.3	0.00e+00	0	43	102	1048576	7	3876
2026-01-23 12:59:06.36	190.41	27.71	-23.1	-23.7	19.4	0.00e+00	0	43	102	1048576	7	3862
2026-01-23 12:59:07.35	190.54	27.87	-23.2	-23.9	19.3	0.00e+00	0	43	102	1048576	7	3904
2026-01-23 12:59:08.36	190.68	28.03	-23.2	-23.8	19.3	0.00e+00	0	43	102	1048576	7	3888
2026-01-23 12:59:09.36	190.81	28.20	-23.2	-23.9	19.3	0.00e+00	0	43	102	1048576	7	3898
2026-01-23 12:59:10.37	190.95	28.36	-23.1	-23.8	19.4	0.00e+00	0	43	102	1048576	7	3874
2026-01-23 12:59:11.36	191.09	28.52	-23.2	-23.9	19.3	0.00e+00	0	43	102	1048576	7	3893
2026-01-23 12:59:12.37	191.23	28.69	-23.2	-23.9	19.3	0.00e+00	0	43	102	1048576	7	3912
2026-01-23 12:59:13.37	191.37	28.86	-23.2	-23.9	19.3	0.00e+00	0	43	102	1048576	7	3897
2026-01-23 12:59:14.37	191.51	29.03	-23.1	-23.7	19.4	0.00e+00	0	43	102	1048576	7	3863
2026-01-23 12:59:15.38	191.66	29.19	-23.1	-23.7	19.4	0.00e+00	0	43	102	1048576	7	3853
2026-01-23 12:59:16.38	191.80	29.36	-23.1	-23.7	19.4	0.00e+00	0	43	102	1048576	7	3851
2026-01-23 12:59:17.38	191.95	29.53	-23.1	-23.8	19.4	0.00e+00	0	43	102	1048576	7	3873
2026-01-23 12:59:18.38	192.10	29.70	-23.1	-23.7	19.4	0.00e+00	0	43	102	1048576	7	3860
2026-01-23 12:59:19.39	192.25	29.88	-23.2	-23.9	19.3	0.00e+00	0	43	102	1048576	7	3896
2026-01-23 12:59:20.39	192.40	30.05	-23.2	-23.9	19.3	0.00e+00	0	43	102	1048576	7	3901
2026-01-23 12:59:21.40	192.56	30.22	-23.2	-24.0	19.3	0.00e+00	0	43	102	1048576	7	3921
2026-01-23 12:59:22.40	192.71	30.40	-23.2	-23.9	19.3	0.00e+00	0	43	102	1048576	7	3893
2026-01-23 12:59:23.41	192.87	30.57	-23.1	-23.7	19.4	0.00e+00	0	43	102	1048576	7	3864
2026-01-23 12:59:24.42	193.03	30.75	-23.2	-24.0	19.3	0.00e+00	0	43	102	1048576	7	3914
2026-01-23 12:59:25.42	193.19	30.93	-23.4	-24.2	19.2	0.00e+00	0	43	102	1048576	7	3981
2026-01-23 12:59:26.43	193.35	31.11	-23.4	-24.3	19.1	0.00e+00	0	43	102	1048576	7	4006
2026-01-23 12:59:27.43	193.52	31.29	-23.4	-24.3	19.1	0.00e+00	0	43	102	1048576	7	3995
2026-01-23 12:59:28.43	193.68	31.46	-23.2	-23.9	19.3	0.00e+00	0	43	102	1048576	7	3894
2026-01-23 12:59:29.44	193.85	31.65	-23.1	-23.7	19.4	0.00e+00	0	43	102	1048576	7	3856
2026-01-23 12:59:30.44	194.02	31.83	-23.1	-23.6	19.5	0.00e+00	0	43	102	1048576	7	3841
2026-01-23 12:59:31.44	194.19	32.01	-23.0	-23.5	19.6	0.00e+00	0	43	102	1048576	7	3806
2026-01-23 12:59:32.44	194.36	32.19	-23.0	-23.5	19.5	0.00e+00	0	43	102	1048576	7	3817
2026-01-23 12:59:33.44	194.54	32.37	-23.1	-23.6	19.5	0.00e+00	0	43	102	1048576	7	3831
2026-01-23 12:59:34.45	194.71	32.56	-23.0	-23.5	19.5	0.00e+00	0	43	102	1048576	7	3804
2026-01-23 12:59:35.46	194.89	32.75	-22.9	-23.3	19.6	0.00e+00	0	43	102	1048576	7	3770
2026-01-23 12:59:36.47	195.08	32.93	-23.0	-23.5	19.6	0.00e+00	0	43	102	1048576	7	3806
2026-01-23 12:59:37.48	195.26	33.12	-23.1	-23.6	19.5	0.00e+00	0	43	102	1048576	7	3835
2026-01-23 12:59:38.49	195.45	33.31	-23.2	-23.8	19.4	0.00e+00	0	43	102	1048576	7	3884
2026-01-23 12:59:39.49	195.63	33.50	-23.2	-24.0	19.3	0.00e+00	0	43	102	1048576	7	3928
2026-01-23 12:59:40.50	195.82	33.69	-23.3	-24.1	19.3	0.00e+00	0	43	102	1048576	7	3946
2026-01-23 12:59:41.50	196.02	33.88	-23.2	-23.8	19.4	0.00e+00	0	43	102	1048576	7	3882
2026-01-23 12:59:42.51	196.21	34.07	-23.0	-23.5	19.6	0.00e+00	0	43	102	1048576	7	3806
2026-01-23 12:59:43.51	196.41	34.27	-23.0	-23.4	19.6	0.00e+00	0	43	102	1048576	7	3796
2026-01-23 12:59:44.50	196.60	34.46	-22.9	-23.3	19.7	0.00e+00	0	43	102	1048576	7	3766
2026-01-23 12:59:45.51	196.80	34.65	-23.0	-23.4	19.6	0.00e+00	0	43	102	1048576	7	3792
2026-01-23 12:59:46.51	197.00	34.85	-23.0	-23.5	19.5	0.00e+00	0	43	102	1048576	7	3817
2026-01-23 12:59:47.52	197.21	35.04	-22.9	-23.2	19.7	0.00e+00	0	43	102	1048576	7	3752
2026-01-23 12:59:48.52	197.42	35.24	-22.9	-23.2	19.7	0.00e+00	0	43	102	1048576	7	3750
2026-01-23 12:59:49.53	197.63	35.44	-22.8	-23.2	19.7	0.00e+00	0	43	102	1048576	7	3734
2026-01-23 12:59:50.53	197.84	35.63	-22.9	-23.4	19.7	0.00e+00	0	43	102	1048576	7	3778
2026-01-23 12:59:51.54	198.06	35.83	-22.9	-23.2	19.7	0.00e+00	0	43	102	1048576	7	3753
2026-01-23 12:59:52.55	198.28	36.03	-22.8	-23.0	19.8	0.00e+00	0	43	102	1048576	7	3705
2026-01-23 12:59:53.55	198.50	36.23	-22.7	-23.5	19.8	0.00e+00	0	43	102	1048576	6	3908
2026-01-23 12:59:54.55	198.72	36.43	-22.8	-23.5	19.8	0.00e+00	0	43	102	1048576	6	3927
2026-01-23 12:59:55.56	198.95	36.64	-22.8	-23.5	19.8	0.00e+00	0	43	102	1048576	6	3915
2026-01-23 12:59:56.56	199.18	36.84	-22.6	-23.2	20.0	0.00e+00	0	43	102	1048576	6	3853
2026-01-23 12:59:57.57	199.41	37.04	-22.6	-23.2	20.0	0.00e+00	0	43	102	1048576	6	3838
2026-01-23 12:59:58.57	199.64	37.25	-22.6	-23.2	20.0	0.00e+00	0	43	102	1048576	6	3847
2026-01-23 12:59:59.57	199.88	37.45	-22.7	-23.2	20.0	0.00e+00	0	43	102	1048576	6	3852
2026-01-23 13:00:00.57	200.12	37.66	-22.7	-23.4	19.9	0.00e+00	0	43	102	1048576	6	3889
2026-01-23 13:00:01.57	200.36	37.86	-22.8	-23.5	19.8	0.00e+00	0	43	102	1048576	6	3921
2026-01-23 13:00:02.57	200.60	38.07	-22.8	-23.6	19.8	0.00e+00	0	43	102	1048576	6	3947
2026-01-23 13:00:03.57	200.85	38.28	-22.9	-23.9	19.7	0.00e+00	0	43	102	1048576	6	4009
2026-01-23 13:00:04.58	201.11	38.49	-22.9	-23.7	19.8	0.00e+00	0	43	102	1048576	6	3959
2026-01-23 13:00:05.58	201.36	38.69	-23.0	-24.0	19.6	0.00e+00	0	43	102	1048576	6	4025
2026-01-23 13:00:06.59	201.62	38.91	-22.9	-23.7	19.8	0.00e+00	0	43	102	1048576	6	3966
2026-01-23 13:00:07.59	201.88	39.12	-22.6	-23.1	20.1	0.00e+00	0	43	102	1048576	6	3813
2026-01-23 13:00:08.60	202.15	39.33	-22.5	-23.0	20.2	0.00e+00	0	43	102	1048576	6	3805
2026-01-23 13:00:09.60	202.42	39.54	-22.6	-23.1	20.1	2.20e-06	0	43	102	1048576	6	3821
2026-01-23 13:00:10.60	202.69	39.75	-22.7	-23.3	20.0	0.00e+00	0	43	102	1048576	6	3868
2026-01-23 13:00:11.60	202.97	39.96	-22.6	-23.2	20.1	0.00e+00	0	43	102	1048576	6	3847
2026-01-23 13:00:12.61	203.25	40.18	-22.5	-22.8	20.2	2.20e-06	0	43	102	1048576	6	3758
2026-01-23 13:00:13.62	203.53	40.39	-22.6	-23.1	20.1	0.00e+00	0	43	102	1048576	6	3824
2026-01-23 13:00:14.62	203.82	40.61	-22.7	-23.3	20.0	0.00e+00	0	43	102	1048576	6	3862
2026-01-23 13:00:15.62	204.11	40.82	-22.6	-23.1	20.1	1.10e-06	0	43	102	1048576	6	3816
2026-01-23 13:00:16.62	204.40	41.03	-22.6	-23.1	20.1	0.00e+00	0	43	102	1048576	6	3815
2026-01-23 13:00:17.62	204.70	41.25	-22.8	-23.5	20.0	0.00e+00	0	43	102	1048576	6	3899
2026-01-23 13:00:18.63	205.00	41.47	-23.0	-23.9	19.7	0.00e+00	0	43	102	1048576	6	4003
2026-01-23 13:00:19.63	205.31	41.68	-23.2	-24.3	19.5	0.00e+00	0	43	102	1048576	6	4104
2026-01-23 13:00:20.63	205.62	41.90	-23.2	-24.5	19.5	0.00e+00	0	43	102	1048576	6	4144
2026-01-23 13:00:21.64	205.93	42.12	-23.1	-24.2	19.6	0.00e+00	0	43	102	1048576	6	4088
2026-01-23 13:00:22.64	206.25	42.34	-23.2	-24.4	19.5	0.00e+00	0	43	102	1048576	6	4117
2026-01-23 13:00:23.64	206.57	42.55	-23.3	-24.5	19.4	0.00e+00	0	43	102	1048576	6	4161
2026-01-23 13:00:24.64	206.90	42.77	-23.2	-24.4	19.5	0.00e+00	0	43	102	1048576	6	4142
2026-01-23 13:00:25.65	207.23	42.99	-23.1	-24.2	19.6	0.00e+00	0	43	102	1048576	6	4077
2026-01-23 13:00:26.66	207.57	43.21	-22.9	-23.8	19.8	0.00e+00	0	43	102	1048576	6	3974
2026-01-23 13:00:27.66	207.91	43.43	-22.9	-23.7	19.9	0.00e+00	0	43	102	1048576	6	3952
2026-01-23 13:00:28.66	208.25	43.65	-22.8	-23.4	20.0	0.00e+00	0	43	102	1048576	6	3894
2026-01-23 13:00:29.66	208.60	43.86	-22.8	-23.5	19.9	0.00e+00	0	43	102	1048576	6	3918
2026-01-23 13:00:30.66	208.96	44.08	-23.0	-23.9	19.7	0.00e+00	0	43	102	1048576	6	4010
2026-01-23 13:00:31.67	209.32	44.30	-23.2	-24.4	19.5	0.00e+00	0	43	102	1048576	6	4119
2026-01-23 13:00:32.67	209.68	44.52	-23.0	-24.1	19.7	0.00e+00	0	43	102	1048576	6	4043
2026-01-23 13:00:33.67	210.05	44.74	-22.9	-23.8	19.8	0.00e+00	0	43	102	1048576	6	3971
2026-01-23 13:00:34.68	210.43	44.96	-23.0	-24.1	19.7	0.00e+00	0	43	102	1048576	6	4050
2026-01-23 13:00:35.69	210.81	45.18	-23.1	-24.1	19.7	0.00e+00	0	43	102	1048576	6	4052
2026-01-23 13:00:36.69	211.19	45.40	-22.9	-23.8	19.8	0.00e+00	0	43	102	1048576	6	3994
2026-01-23 13:00:37.69	211.58	45.62	-22.9	-23.8	19.8	0.00e+00	0	43	102	1048576	6	3988
2026-01-23 13:00:38.69	211.98	45.84	-23.0	-23.9	19.8	0.00e+00	0	43	102	1048576	6	4002
2026-01-23 13:00:39.69	212.38	46.05	-23.1	-24.2	19.8	0.00e+00	0	43	102	1048576	6	4063
2026-01-23 13:00:40.70	212.79	46.27	-23.2	-24.4	19.7	0.00e+00	0	43	102	1048576	6	4111
2026-01-23 13:00:41.70	213.20	46.49	-23.5	-24.9	19.4	0.00e+00	0	43	102	1048576	6	4258
2026-01-23 13:00:42.71	213.62	46.71	-23.4	-24.2	19.5	0.00e+00	0	43	102	1048576	7	3963
2026-01-23 13:00:43.71	214.04	46.92	-23.1	-23.6	19.9	0.00e+00	0	43	102	1048576	7	3816
2026-01-23 13:00:44.72	214.47	47.14	-22.9	-23.3	20.1	0.00e+00	0	43	102	1048576	7	3739
2026-01-23 13:00:45.71	214.90	47.35	-23.3	-24.0	19.7	0.00e+00	0	43	102	1048576	7	3896
2026-01-23 13:00:46.72	215.34	47.57	-23.5	-24.5	19.4	0.00e+00	0	43	102	1048576	7	4029
2026-01-23 13:00:47.72	215.79	47.78	-23.7	-24.9	19.2	0.00e+00	0	43	102	1048576	7	4124
2026-01-23 13:00:48.72	216.24	47.99	-23.8	-25.1	19.2	0.00e+00	0	43	102	1048576	7	4172
2026-01-23 13:00:49.72	216.70	48.20	-23.7	-24.9	19.3	0.00e+00	0	43	102	1048576	7	4117
2026-01-23 13:00:50.72	217.16	48.41	-23.5	-24.5	19.4	0.00e+00	0	43	102	1048576	7	4027
2026-01-23 13:00:51.73	217.64	48.62	-23.5	-24.4	19.5	0.00e+00	0	43	102	1048576	7	4005
2026-01-23 13:00:52.73	218.12	48.83	-23.9	-25.2	19.1	0.00e+00	0	43	102	1048576	7	4196
2026-01-23 13:00:53.74	218.60	49.04	-23.8	-24.6	19.2	0.00e+00	0	43	102	1048576	8	3942
2026-01-23 13:00:54.75	219.10	49.25	-23.8	-24.5	19.2	0.00e+00	0	43	102	1048576	8	3914
2026-01-23 13:00:55.75	219.60	49.45	-23.9	-24.9	19.1	0.00e+00	0	43	102	1048576	8	4010
2026-01-23 13:00:56.76	220.10	49.66	-24.0	-25.0	19.0	0.00e+00	0	43	102	1048576	8	4036
2026-01-23 13:00:57.76	220.61	49.86	-23.8	-24.6	19.2	0.00e+00	0	43	102	1048576	8	3947
2026-01-23 13:00:58.76	221.13	50.06	-24.0	-24.9	19.1	0.00e+00	0	43	102	1048576	8	4006
2026-01-23 13:00:59.76	221.65	50.26	-24.0	-25.0	19.0	0.00e+00	0	43	102	1048576	8	4032
2026-01-23 13:01:00.76	222.18	50.45	-23.7	-24.3	19.3	0.00e+00	0	43	102	1048576	8	3878
2026-01-23 13:01:01.76	222.72	50.65	-23.4	-23.7	19.7	0.00e+00	0	43	102	1048576	8	3730
2026-01-23 13:01:02.77	223.27	50.85	-23.3	-23.6	19.7	0.00e+00	0	43	102	1048576	8	3701
2026-01-23 13:01:03.77	223.82	51.04	-23.4	-23.7	19.7	0.00e+00	0	43	102	1048576	8	3738
2026-01-23 13:01:04.77	224.38	51.23	-23.7	-24.3	19.4	0.00e+00	0	43	102	1048576	8	3862
2026-01-23 13:01:05.78	224.95	51.42	-23.7	-24.4	19.3	0.00e+00	0	43	102	1048576	8	3885
2026-01-23 13:01:06.78	225.52	51.60	-23.7	-24.3	19.4	0.00e+00	0	43	102	1048576	8	3877
2026-01-23 13:01:07.78	226.10	51.78	-23.6	-24.2	19.5	0.00e+00	0	43	102	1048576	8	3839
2026-01-23 13:01:08.78	226.68	51.96	-23.3	-23.6	19.7	0.00e+00	0	43	102	1048576	8	3702
2026-01-23 13:01:09.79	227.28	52.14	-23.3	-23.9	19.8	0.00e+00	0	43	102	1048576	7	3876
2026-01-23 13:01:10.79	227.88	52.32	-23.4	-24.1	19.7	0.00e+00	0	43	102	1048576	7	3938
2026-01-23 13:01:11.80	228.49	52.49	-23.8	-25.0	19.3	0.00e+00	0	43	102	1048576	7	4147
2026-01-23 13:01:12.80	229.11	52.66	-23.8	-25.1	19.2	0.00e+00	0	43	102	1048576	7	4168
2026-01-23 13:01:13.81	229.74	52.83	-23.6	-24.7	19.4	0.00e+00	0	43	102	1048576	7	4076
2026-01-23 13:01:14.82	230.37	53.00	-23.8	-24.9	19.3	0.00e+00	0	43	102	1048576	7	4128
2026-01-23 13:01:15.82	231.01	53.16	-23.7	-24.8	19.4	0.00e+00	0	43	102	1048576	7	4100
2026-01-23 13:01:16.82	231.65	53.32	-23.6	-24.7	19.4	0.00e+00	0	43	102	1048576	7	4079
2026-01-23 13:01:17.83	232.30	53.48	-23.8	-25.1	19.2	0.00e+00	0	43	102	1048576	7	4185
2026-01-23 13:01:18.82	232.95	53.63	-23.8	-25.1	19.2	0.00e+00	0	43	102	1048576	7	4182
2026-01-23 13:01:19.83	233.62	53.78	-23.8	-25.0	19.3	0.00e+00	0	43	102	1048576	7	4154
2026-01-23 13:01:20.83	234.29	53.92	-23.8	-25.1	19.2	0.00e+00	0	43	102	1048576	7	4172
2026-01-23 13:01:21.84	234.97	54.07	-23.7	-24.9	19.3	0.00e+00	0	43	102	1048576	7	4126
2026-01-23 13:01:22.84	235.66	54.21	-23.6	-24.7	19.4	0.00e+00	0	43	102	1048576	7	4065
2026-01-23 13:01:23.84	236.35	54.34	-23.7	-24.8	19.4	0.00e+00	0	43	102	1048576	7	4085
2026-01-23 13:01:24.85	237.05	54.47	-23.7	-24.8	19.4	0.00e+00	0	43	102	1048576	7	4097
2026-01-23 13:01:25.85	237.75	54.60	-24.0	-25.5	19.0	0.00e+00	0	43	102	1048576	7	4267
2026-01-23 13:01:26.86	238.47	54.72	-24.1	-25.3	18.9	0.00e+00	0	43	102	1048576	8	4102
2026-01-23 13:01:27.86	239.18	54.84	-24.0	-24.9	19.1	0.00e+00	0	43	102	1048576	8	4019
2026-01-23 13:01:28.86	239.90	54.96	-23.9	-24.7	19.2	0.00e+00	0	43	102	1048576	8	3962
2026-01-23 13:01:29.86	240.62	55.07	-24.1	-25.2	18.9	0.00e+00	0	43	102	1048576	8	4093
2026-01-23 13:01:30.87	241.36	55.17	-23.9	-24.8	19.1	0.00e+00	0	43	102	1048576	8	3997
2026-01-23 13:01:31.87	242.10	55.28	-23.9	-24.9	19.2	0.00e+00	0	43	102	1048576	8	4000
2026-01-23 13:01:32.88	242.85	55.37	-24.3	-25.6	18.8	0.00e+00	0	43	102	1048576	8	4185
2026-01-23 13:01:33.89	243.60	55.47	-24.1	-25.2	19.0	0.00e+00	0	43	102	1048576	8	4076
2026-01-23 13:01:34.89	244.35	55.56	-24.1	-25.1	19.0	0.00e+00	0	43	102	1048576	8	4074
2026-01-23 13:01:35.89	245.11	55.64	-24.2	-25.4	18.9	0.00e+00	0	43	102	1048576	8	4134
2026-01-23 13:01:36.89	245.87	55.72	-24.1	-25.1	19.0	0.00e+00	0	43	102	1048576	8	4068
2026-01-23 13:01:37.90	246.64	55.79	-24.0	-25.0	19.1	0.00e+00	0	43	102	1048576	8	4032
2026-01-23 13:01:38.90	247.41	55.86	-24.4	-25.7	18.7	0.00e+00	0	43	102	1048576	8	4221
2026-01-23 13:01:39.91	248.19	55.93	-24.3	-25.7	18.8	0.00e+00	0	43	102	1048576	8	4200
2026-01-23 13:01:40.91	248.97	55.99	-24.1	-25.2	19.0	0.00e+00	0	43	102	1048576	8	4074
2026-01-23 13:01:41.92	249.75	56.04	-24.2	-25.4	18.9	0.00e+00	0	43	102	1048576	8	4127
2026-01-23 13:01:42.93	250.54	56.09	-24.6	-25.8	18.4	0.00e+00	0	43	102	1048576	9	4122
2026-01-23 13:01:43.92	251.32	56.13	-24.7	-26.0	18.3	0.00e+00	0	43	102	1048576	9	4181
2026-01-23 13:01:44.92	252.10	56.17	-24.1	-24.8	18.9	0.00e+00	0	43	102	1048576	9	3866
2026-01-23 13:01:45.92	252.89	56.21	-24.1	-24.6	19.0	0.00e+00	0	43	102	1048576	9	3833
2026-01-23 13:01:46.93	253.69	56.23	-24.2	-25.0	18.9	0.00e+00	0	43	102	1048576	9	3919
2026-01-23 13:01:47.93	254.48	56.26	-24.2	-25.0	18.9	0.00e+00	0	43	102	1048576	9	3922
2026-01-23 13:01:48.94	255.28	56.28	-24.6	-25.8	18.4	0.00e+00	0	43	102	1048576	9	4126
2026-01-23 13:01:49.94	256.07	56.29	-24.3	-25.2	18.8	0.00e+00	0	43	102	1048576	9	3962
2026-01-23 13:01:50.95	256.88	56.30	-24.2	-25.0	18.9	0.00e+00	0	43	102	1048576	9	3915
2026-01-23 13:01:51.96	257.68	56.30	-24.2	-24.9	18.9	0.00e+00	0	43	102	1048576	9	3897
2026-01-23 13:01:52.95	258.46	56.29	-23.8	-24.0	19.3	2.20e-06	0	43	102	1048576	9	3694
2026-01-23 13:01:53.96	259.27	56.29	-23.8	-24.5	19.3	0.00e+00	0	43	102	1048576	8	3909
2026-01-23 13:01:54.96	260.06	56.27	-23.9	-24.9	19.1	0.00e+00	0	43	102	1048576	8	4002
2026-01-23 13:01:55.97	260.86	56.25	-24.0	-25.1	19.1	0.00e+00	0	43	102	1048576	8	4059
2026-01-23 13:01:56.97	261.65	56.23	-23.7	-24.3	19.4	0.00e+00	0	43	102	1048576	8	3875
2026-01-23 13:01:57.98	262.45	56.20	-23.9	-24.7	19.2	0.00e+00	0	43	102	1048576	8	3972
2026-01-23 13:01:58.99	263.24	56.16	-24.0	-25.0	19.1	0.00e+00	0	43	102	1048576	8	4030
2026-01-23 13:01:59.99	264.03	56.12	-24.0	-25.1	19.1	0.00e+00	0	44	102	1048576	8	4052
2026-01-23 13:02:00.99	264.81	56.08	-23.9	-24.7	19.2	0.00e+00	0	43	102	1048576	8	3963
2026-01-23 13:02:02.00	265.60	56.03	-24.0	-25.0	19.1	4.50e-06	0	43	102	1048576	8	4035
2026-01-23 13:02:03.00	266.38	55.97	-24.1	-25.2	19.0	0.00e+00	0	43	102	1048576	8	4076
2026-01-23 13:02:04.01	267.16	55.91	-23.8	-24.6	19.3	0.00e+00	0	43	102	1048576	8	3946
2026-01-23 13:02:05.01	267.93	55.85	-23.7	-24.4	19.4	1.10e-06	0	43	102	1048576	8	3886
2026-01-23 13:02:06.02	268.70	55.78	-23.9	-24.8	19.2	0.00e+00	0	43	102	1048576	8	3977
2026-01-23 13:02:07.03	269.47	55.70	-24.1	-25.1	19.0	0.00e+00	0	43	102	1048576	8	4063
2026-01-23 13:02:08.03	270.23	55.62	-24.6	-25.8	18.4	3.40e-06	0	43	102	1048576	9	4131
2026-01-23 13:02:09.03	270.99	55.54	-24.7	-26.0	18.3	0.00e+00	0	43	102	1048576	9	4174
2026-01-23 13:02:10.04	271.74	55.45	-24.1	-24.6	19.0	0.00e+00	0	43	102	1048576	9	3839
2026-01-23 13:02:11.04	272.49	55.35	-23.8	-24.1	19.3	0.00e+00	0	43	102	1048576	9	3705
2026-01-23 13:02:12.04	273.23	55.26	-24.0	-24.5	19.1	0.00e+00	0	43	102	1048576	9	3806
2026-01-23 13:02:13.05	273.97	55.15	-24.3	-25.1	18.8	0.00e+00	0	43	102	1048576	9	3958
2026-01-23 13:02:14.06	274.71	55.04	-24.2	-25.0	18.9	0.00e+00	0	43	102	1048576	9	3914
2026-01-23 13:02:15.06	275.43	54.93	-24.0	-24.5	19.1	0.00e+00	0	43	102	1048576	9	3793
2026-01-23 13:02:16.07	276.15	54.82	-24.2	-24.8	18.9	0.00e+00	0	43	102	1048576	9	3887
2026-01-23 13:02:17.07	276.87	54.70	-24.4	-25.4	18.6	0.00e+00	0	44	102	1048576	9	4019
2026-01-23 13:02:18.08	277.58	54.57	-24.4	-25.3	18.7	0.00e+00	0	43	102	1048576	9	3993
2026-01-23 13:02:19.08	278.28	54.45	-24.4	-25.2	18.7	0.00e+00	0	43	102	1048576	9	3984
2026-01-23 13:02:20.09	278.98	54.31	-24.5	-25.5	18.6	0.00e+00	0	43	102	1048576	9	4043
2026-01-23 13:02:21.09	279.67	54.18	-24.3	-25.1	18.8	0.00e+00	0	43	102	1048576	9	3948
2026-01-23 13:02:22.10	280.35	54.04	-24.3	-25.2	18.8	0.00e+00	0	43	102	1048576	9	3970
2026-01-23 13:02:23.11	281.03	53.89	-24.6	-25.9	18.4	0.00e+00	0	43	102	1048576	9	4137
2026-01-23 13:02:24.11	281.70	53.75	-24.4	-25.2	18.7	0.00e+00	0	44	102	1048576	9	3978
2026-01-23 13:02:25.12	282.37	53.60	-24.1	-24.7	19.0	0.00e+00	0	43	102	1048576	9	3844
2026-01-23 13:02:26.12	283.02	53.44	-24.0	-24.5	19.1	0.00e+00	0	43	102	1048576	9	3799
2026-01-23 13:02:27.13	283.67	53.29	-24.0	-24.5	19.1	0.00e+00	0	43	102	1048576	9	3795
2026-01-23 13:02:28.13	284.31	53.13	-24.2	-25.0	18.9	0.00e+00	0	43	102	1048576	9	3915
2026-01-23 13:02:29.13	284.94	52.97	-24.3	-25.1	18.8	0.00e+00	0	43	102	1048576	9	3965
2026-01-23 13:02:30.13	285.57	52.80	-24.1	-24.6	19.0	0.00e+00	0	43	102	1048576	9	3846
2026-01-23 13:02:31.14	286.20	52.63	-23.7	-24.2	19.5	0.00e+00	0	43	102	1048576	8	3852
2026-01-23 13:02:32.14	286.81	52.46	-23.6	-24.2	19.5	0.00e+00	0	43	102	1048576	8	3843
2026-01-23 13:02:33.14	287.41	52.29	-24.0	-24.9	19.2	0.00e+00	0	43	102	1048576	8	4007
2026-01-23 13:02:34.15	288.01	52.11	-23.7	-24.4	19.4	0.00e+00	0	43	102	1048576	8	3904
2026-01-23 13:02:35.15	288.60	51.93	-23.6	-24.1	19.6	0.00e+00	0	43	102	1048576	8	3814
2026-01-23 13:02:36.15	289.19	51.75	-23.7	-24.3	19.4	0.00e+00	0	43	102	1048576	8	3871
2026-01-23 13:02:37.15	289.76	51.57	-24.0	-24.9	19.2	0.00e+00	0	43	102	1048576	8	4015
2026-01-23 13:02:38.15	290.33	51.38	-24.1	-25.1	19.1	0.00e+00	0	43	102	1048576	8	4051
2026-01-23 13:02:39.16	290.90	51.20	-23.7	-24.4	19.4	0.00e+00	0	43	102	1048576	8	3890
2026-01-23 13:02:40.17	291.46	51.00	-23.5	-24.0	19.6	0.00e+00	0	43	102	1048576	8	3790
2026-01-23 13:02:41.17	292.01	50.81	-23.3	-23.6	19.9	0.00e+00	0	44	102	1048576	8	3700
2026-01-23 13:02:42.18	292.56	50.62	-23.5	-23.9	19.7	0.00e+00	0	43	102	1048576	8	3766
2026-01-23 13:02:43.18	293.09	50.42	-24.0	-24.9	19.1	0.00e+00	0	44	102	1048576	8	4013
2026-01-23 13:02:44.18	293.62	50.23	-24.0	-25.1	19.1	0.00e+00	0	43	102	1048576	8	4048
2026-01-23 13:02:45.19	294.14	50.03	-24.3	-25.6	18.8	0.00e+00	0	43	102	1048576	8	4184
2026-01-23 13:02:46.19	294.66	49.83	-24.1	-25.3	19.0	0.00e+00	0	43	102	1048576	8	4106
2026-01-23 13:02:47.19	295.16	49.63	-24.2	-25.4	18.9	0.00e+00	0	43	102	1048576	8	4126
2026-01-23 13:02:48.20	295.67	49.42	-24.2	-25.4	18.9	0.00e+00	0	43	102	1048576	8	4137
2026-01-23 13:02:49.20	296.16	49.22	-24.2	-25.3	19.0	0.00e+00	0	43	102	1048576	8	4112
2026-01-23 13:02:50.21	296.66	49.01	-24.6	-25.7	18.5	0.00e+00	0	43	102	1048576	9	4093
2026-01-23 13:02:51.22	297.14	48.80	-24.2	-24.9	18.9	0.00e+00	0	43	102	1048576	9	3902
2026-01-23 13:02:52.22	297.62	48.59	-23.8	-24.0	19.3	0.00e+00	0	43	102	1048576	9	3707
2026-01-23 13:02:53.22	298.08	48.38	-23.2	-23.9	19.9	0.00e+00	0	43	102	1048576	7	3873
2026-01-23 13:02:54.23	298.55	48.17	-23.0	-23.4	20.1	0.00e+00	0	43	102	1048576	7	3768
2026-01-23 13:02:55.24	299.01	47.96	-23.1	-23.7	20.0	0.00e+00	0	43	102	1048576	7	3828
2026-01-23 13:02:56.24	299.46	47.75	-23.3	-24.0	19.8	0.00e+00	0	43	102	1048576	7	3905
2026-01-23 13:02:57.25	299.91	47.54	-23.4	-24.3	19.7	0.00e+00	0	43	102	1048576	7	3975
2026-01-23 13:02:58.25	300.34	47.32	-23.4	-24.2	19.7	0.00e+00	0	43	102	1048576	7	3960
2026-01-23 13:02:59.26	300.78	47.11	-23.5	-24.5	19.6	0.00e+00	0	43	102	1048576	7	4027
2026-01-23 13:03:00.26	301.21	46.89	-23.5	-24.5	19.5	0.00e+00	0	43	102	1048576	7	4037
2026-01-23 13:03:01.27	301.63	46.68	-23.6	-24.7	19.5	0.00e+00	0	43	102	1048576	7	4066
2026-01-23 13:03:02.26	302.04	46.46	-23.4	-24.2	19.7	0.00e+00	0	43	102	1048576	7	3948
2026-01-23 13:03:03.27	302.45	46.24	-23.2	-23.8	19.9	0.00e+00	0	43	102	1048576	7	3855
2026-01-23 13:03:04.27	302.86	46.03	-23.2	-23.7	20.0	0.00e+00	0	43	102	1048576	7	3832
2026-01-23 13:03:05.26	303.25	45.81	-23.4	-24.1	19.8	0.00e+00	0	44	102	1048576	7	3926
2026-01-23 13:03:06.27	303.65	45.60	-23.4	-24.2	19.7	0.00e+00	0	43	102	1048576	7	3947
2026-01-23 13:03:07.26	304.03	45.38	-23.6	-24.7	19.5	0.00e+00	0	43	102	1048576	7	4071
2026-01-23 13:03:08.27	304.42	45.16	-23.4	-24.2	19.7	0.00e+00	0	43	102	1048576	7	3964
2026-01-23 13:03:09.28	304.80	44.94	-23.2	-23.8	19.9	0.00e+00	0	43	102	1048576	7	3858
2026-01-23 13:03:10.29	305.17	44.72	-23.3	-24.1	19.7	0.00e+00	0	43	102	1048576	7	3920
2026-01-23 13:03:11.30	305.54	44.50	-23.6	-24.6	19.5	0.00e+00	0	43	102	1048576	7	4053
2026-01-23 13:03:12.30	305.90	44.29	-23.7	-24.8	19.4	0.00e+00	0	43	102	1048576	7	4095
2026-01-23 13:03:13.30	306.26	44.07	-23.9	-25.2	19.2	0.00e+00	0	43	102	1048576	7	4201
2026-01-23 13:03:14.30	306.61	43.85	-23.6	-24.6	19.5	0.00e+00	0	43	102	1048576	7	4053
2026-01-23 13:03:15.30	306.96	43.63	-23.3	-24.1	19.8	0.00e+00	0	43	102	1048576	7	3926
2026-01-23 13:03:16.31	307.30	43.41	-23.2	-23.7	19.9	0.00e+00	0	43	102	1048576	7	3841
2026-01-23 13:03:17.31	307.64	43.20	-23.3	-24.0	19.8	0.00e+00	0	43	102	1048576	7	3900
2026-01-23 13:03:18.31	307.98	42.98	-23.6	-24.7	19.4	0.00e+00	0	43	102	1048576	7	4085
2026-01-23 13:03:19.32	308.31	42.76	-23.8	-25.2	19.2	0.00e+00	0	43	102	1048576	7	4193
2026-01-23 13:03:20.32	308.63	42.54	-23.6	-24.7	19.4	0.00e+00	0	43	102	1048576	7	4091
2026-01-23 13:03:21.32	308.95	42.33	-23.4	-24.3	19.6	0.00e+00	0	43	102	1048576	7	3980
2026-01-23 13:03:22.33	309.27	42.11	-23.3	-24.1	19.7	0.00e+00	0	43	102	1048576	7	3923
2026-01-23 13:03:23.34	309.59	41.89	-23.5	-24.3	19.6	0.00e+00	0	43	102	1048576	7	3981
2026-01-23 13:03:24.35	309.90	41.67	-23.6	-24.6	19.5	0.00e+00	0	43	102	1048576	7	4055
2026-01-23 13:03:25.35	310.20	41.46	-23.7	-24.9	19.4	0.00e+00	0	43	102	1048576	7	4117
2026-01-23 13:03:26.35	310.50	41.25	-24.0	-24.9	19.1	0.00e+00	0	43	102	1048576	8	4009
2026-01-23 13:03:27.36	310.80	41.03	-23.8	-24.5	19.3	0.00e+00	0	43	102	1048576	8	3907
2026-01-23 13:03:28.37	311.09	40.81	-23.6	-24.2	19.5	0.00e+00	0	43	102	1048576	8	3839
2026-01-23 13:03:29.37	311.38	40.60	-23.6	-24.1	19.5	0.00e+00	0	43	102	1048576	8	3825
2026-01-23 13:03:30.38	311.67	40.39	-23.5	-24.0	19.6	0.00e+00	0	43	102	1048576	8	3805
2026-01-23 13:03:31.38	311.95	40.17	-23.5	-23.9	19.6	0.00e+00	0	43	102	1048576	8	3774
2026-01-23 13:03:32.39	312.23	39.96	-23.5	-23.9	19.6	0.00e+00	0	43	102	1048576	8	3774
2026-01-23 13:03:33.39	312.51	39.75	-23.0	-23.4	20.1	0.00e+00	0	43	102	1048576	7	3771
2026-01-23 13:03:34.40	312.78	39.54	-22.7	-23.3	20.4	0.00e+00	0	43	102	1048576	6	3858
2026-01-23 13:03:35.41	313.05	39.33	-22.7	-23.2	20.4	0.00e+00	0	43	102	1048576	6	3828
2026-01-23 13:03:36.42	313.31	39.11	-22.9	-23.6	20.2	0.00e+00	0	43	102	1048576	6	3928
2026-01-23 13:03:37.42	313.57	38.91	-23.2	-24.3	19.9	0.00e+00	0	43	102	1048576	6	4078
2026-01-23 13:03:38.43	313.83	38.70	-23.4	-24.7	19.7	0.00e+00	0	43	102	1048576	6	4175
2026-01-23 13:03:39.44	314.09	38.49	-23.5	-24.9	19.6	0.00e+00	0	43	102	1048576	6	4233
2026-01-23 13:03:40.44	314.34	38.28	-23.7	-24.8	19.4	0.00e+00	0	44	102	1048576	7	4098
2026-01-23 13:03:41.45	314.59	38.07	-23.7	-24.8	19.4	0.00e+00	0	43	102	1048576	7	4092
2026-01-23 13:03:42.45	314.83	37.87	-23.4	-24.2	19.7	0.00e+00	0	43	102	1048576	7	3962
2026-01-23 13:03:43.46	315.08	37.66	-23.3	-24.1	19.8	0.00e+00	0	44	102	1048576	7	3921
2026-01-23 13:03:44.46	315.31	37.46	-23.4	-24.2	19.7	0.00e+00	0	44	102	1048576	7	3950
2026-01-23 13:03:45.47	315.55	37.25	-23.4	-24.3	19.6	0.00e+00	0	43	102	1048576	7	3969
2026-01-23 13:03:46.48	315.79	37.05	-23.5	-24.5	19.5	0.00e+00	0	44	102	1048576	7	4018
2026-01-23 13:03:47.49	316.02	36.84	-23.6	-24.7	19.4	0.00e+00	0	44	102	1048576	7	4080
2026-01-23 13:03:48.49	316.25	36.64	-23.3	-24.0	19.8	0.00e+00	0	43	102	1048576	7	3907
2026-01-23 13:03:49.49	316.47	36.44	-23.0	-23.4	20.1	0.00e+00	0	43	102	1048576	7	3776
2026-01-23 13:03:50.49	316.69	36.24	-22.8	-23.1	20.2	0.00e+00	0	44	102	1048576	7	3693
2026-01-23 13:03:51.49	316.91	36.05	-22.8	-23.1	20.2	0.00e+00	0	43	102	1048576	7	3692
2026-01-23 13:03:52.50	317.13	35.85	-22.8	-23.0	20.2	0.00e+00	0	43	102	1048576	7	3685
2026-01-23 13:03:53.51	317.34	35.65	-22.7	-23.4	20.3	0.00e+00	0	43	102	1048576	6	3865
2026-01-23 13:03:54.51	317.56	35.45	-22.8	-23.4	20.3	0.00e+00	0	43	102	1048576	6	3878
2026-01-23 13:03:55.51	317.76	35.26	-22.8	-23.5	20.2	0.00e+00	0	43	102	1048576	6	3910
2026-01-23 13:03:56.52	317.97	35.06	-22.9	-23.6	20.2	0.00e+00	0	43	102	1048576	6	3930
2026-01-23 13:03:57.53	318.18	34.86	-22.9	-23.7	20.1	0.00e+00	0	44	102	1048576	6	3953
2026-01-23 13:03:58.54	318.38	34.67	-22.9	-23.8	20.1	0.00e+00	0	44	102	1048576	6	3960
2026-01-23 13:03:59.54	318.58	34.48	-23.0	-23.9	20.0	0.00e+00	0	44	102	1048576	6	3986
2026-01-23 13:04:00.54	318.78	34.29	-23.0	-23.9	20.1	0.00e+00	0	43	102	1048576	6	3987
2026-01-23 13:04:01.54	318.97	34.09	-23.1	-24.1	19.9	0.00e+00	0	43	102	1048576	6	4039
2026-01-23 13:04:02.55	319.17	33.90	-23.1	-24.1	19.9	0.00e+00	0	43	102	1048576	6	4036
2026-01-23 13:04:03.55	319.36	33.71	-23.0	-23.9	20.1	0.00e+00	0	43	102	1048576	6	3981
2026-01-23 13:04:04.55	319.54	33.53	-23.0	-23.9	20.1	0.00e+00	0	43	102	1048576	6	3992
2026-01-23 13:04:05.56	319.73	33.34	-23.0	-23.8	20.1	0.00e+00	0	43	102	1048576	6	3967
2026-01-23 13:04:06.56	319.92	33.15	-22.9	-23.8	20.1	0.00e+00	0	44	102	1048576	6	3957
2026-01-23 13:04:07.57	320.10	32.96	-23.0	-23.9	20.0	0.00e+00	0	43	102	1048576	6	3985
2026-01-23 13:04:08.57	320.28	32.78	-23.1	-24.1	20.0	0.00e+00	0	44	102	1048576	6	4031
2026-01-23 13:04:09.57	320.46	32.60	-23.2	-24.3	19.8	0.00e+00	0	43	102	1048576	6	4089
2026-01-23 13:04:10.58	320.63	32.41	-23.2	-24.4	19.8	0.00e+00	0	43	102	1048576	6	4108
2026-01-23 13:04:11.58	320.81	32.23	-23.2	-24.4	19.8	0.00e+00	0	44	102	1048576	6	4120
2026-01-23 13:04:12.59	320.98	32.05	-23.3	-24.5	19.7	0.00e+00	0	43	102	1048576	6	4132
2026-01-23 13:04:13.59	321.15	31.87	-23.3	-24.5	19.7	0.00e+00	0	43	102	1048576	6	4130
2026-01-23 13:04:14.60	321.32	31.68	-23.3	-24.5	19.7	0.00e+00	0	43	102	1048576	6	4150
2026-01-23 13:04:15.60	321.49	31.51	-23.3	-24.6	19.6	0.00e+00	0	44	102	1048576	6	4173
2026-01-23 13:04:16.61	321.65	31.33	-23.4	-24.8	19.6	0.00e+00	0	43	102	1048576	6	4205
2026-01-23 13:04:17.61	321.82	31.15	-23.6	-24.6	19.4	0.00e+00	0	43	102	1048576	7	4044
2026-01-23 13:04:18.61	321.98	30.97	-23.7	-24.9	19.3	0.00e+00	0	43	102	1048576	7	4117
2026-01-23 13:04:19.62	322.14	30.80	-23.7	-24.8	19.3	0.00e+00	0	43	102	1048576	7	4099
2026-01-23 13:04:20.63	322.30	30.62	-23.6	-24.6	19.4	0.00e+00	0	43	102	1048576	7	4053
2026-01-23 13:04:21.63	322.45	30.45	-23.6	-24.7	19.4	0.00e+00	0	43	102	1048576	7	4064
2026-01-23 13:04:22.64	322.61	30.27	-23.5	-24.5	19.5	0.00e+00	0	43	102	1048576	7	4016
2026-01-23 13:04:23.64	322.76	30.10	-23.4	-24.2	19.6	0.00e+00	0	43	102	1048576	7	3951
2026-01-23 13:04:24.65	322.92	29.93	-23.5	-24.3	19.5	0.00e+00	0	43	102	1048576	7	3984
2026-01-23 13:04:25.65	323.07	29.76	-23.4	-24.3	19.6	0.00e+00	0	44	102	1048576	7	3976
2026-01-23 13:04:26.66	323.22	29.58	-23.6	-24.6	19.4	0.00e+00	0	43	102	1048576	7	4038
2026-01-23 13:04:27.66	323.36	29.42	-23.5	-24.5	19.5	0.00e+00	0	43	102	1048576	7	4019
2026-01-23 13:04:28.66	323.51	29.25	-23.3	-24.1	19.6	0.00e+00	0	43	102	1048576	7	3939
2026-01-23 13:04:29.67	323.65	29.08	-23.4	-24.2	19.6	0.00e+00	0	44	102	1048576	7	3950
2026-01-23 13:04:30.67	323.80	28.91	-23.4	-24.2	19.6	0.00e+00	0	43	102	1048576	7	3959
2026-01-23 13:04:31.68	323.94	28.75	-23.5	-24.4	19.5	0.00e+00	0	43	102	1048576	7	4000
2026-01-23 13:04:32.68	324.08	28.58	-23.6	-24.7	19.3	0.00e+00	0	44	102	1048576	7	4074
2026-01-23 13:04:33.69	324.22	28.42	-23.5	-24.5	19.4	0.00e+00	0	44	102	1048576	7	4034
2026-01-23 13:04:34.70	324.36	28.25	-23.4	-24.2	19.5	0.00e+00	0	44	102	1048576	7	3965
2026-01-23 13:04:35.71	324.49	28.09	-23.4	-24.3	19.5	0.00e+00	0	43	102	1048576	7	3987
2026-01-23 13:04:36.71	324.63	27.93	-23.4	-24.2	19.6	0.00e+00	0	43	102	1048576	7	3952
2026-01-23 13:04:37.71	324.76	27.76	-23.4	-24.2	19.6	0.00e+00	0	43	102	1048576	7	3953
2026-01-23 13:04:38.72	324.89	27.60	-23.6	-24.6	19.4	0.00e+00	0	44	102	1048576	7	4043
2026-01-23 13:04:39.72	325.02	27.44	-23.5	-24.4	19.5	0.00e+00	0	44	102	1048576	7	3996
2026-01-23 13:04:40.72	325.15	27.29	-23.3	-24.1	19.6	0.00e+00	0	43	102	1048576	7	3927
2026-01-23 13:04:41.72	325.28	27.13	-23.3	-24.1	19.6	0.00e+00	0	43	102	1048576	7	3928
2026-01-23 13:04:42.73	325.41	26.97	-23.4	-24.2	19.6	0.00e+00	0	44	102	1048576	7	3944
2026-01-23 13:04:43.72	325.53	26.82	-23.5	-24.4	19.5	0.00e+00	0	44	102	1048576	7	3999
2026-01-23 13:04:44.73	325.66	26.66	-23.5	-24.5	19.4	0.00e+00	0	44	102	1048576	7	4019
2026-01-23 13:04:45.73	325.78	26.50	-23.5	-24.5	19.4	0.00e+00	0	43	102	1048576	7	4027
2026-01-23 13:04:46.74	325.90	26.35	-23.7	-24.8	19.2	0.00e+00	0	43	102	1048576	7	4110
2026-01-23 13:04:47.75	326.02	26.19	-23.6	-24.6	19.3	0.00e+00	0	43	102	1048576	7	4059
2026-01-23 13:04:48.76	326.14	26.04	-23.5	-24.4	19.4	0.00e+00	0	43	102	1048576	7	4015
2026-01-23 13:04:49.76	326.26	25.89	-23.5	-24.5	19.4	0.00e+00	0	43	102	1048576	7	4023
2026-01-23 13:04:50.77	326.38	25.74	-23.5	-24.4	19.4	0.00e+00	0	43	102	1048576	7	4006
2026-01-23 13:04:51.78	326.50	25.59	-23.6	-24.7	19.3	0.00e+00	0	44	102	1048576	7	4072
2026-01-23 13:04:52.78	326.61	25.44	-23.5	-24.5	19.4	0.00e+00	0	43	102	1048576	7	4026
2026-01-23 13:04:53.79	326.73	25.29	-23.4	-24.2	19.5	0.00e+00	0	43	102	1048576	7	3954
2026-01-23 13:04:54.79	326.84	25.14	-23.4	-24.3	19.5	0.00e+00	0	44	102	1048576	7	3968
2026-01-23 13:04:55.80	326.96	24.99	-23.5	-24.4	19.4	0.00e+00	0	43	102	1048576	7	4006
2026-01-23 13:04:56.80	327.07	24.84	-23.6	-24.6	19.3	0.00e+00	0	43	102	1048576	7	4044
2026-01-23 13:04:57.81	327.18	24.70	-23.7	-24.9	19.2	0.00e+00	0	43	102	1048576	7	4120
2026-01-23 13:04:58.81	327.29	24.55	-23.8	-25.0	19.1	0.00e+00	0	43	102	1048576	7	4152
2026-01-23 13:04:59.82	327.40	24.41	-23.9	-25.3	19.0	0.00e+00	0	43	102	1048576	7	4216
2026-01-23 13:05:00.82	327.50	24.26	-23.9	-25.3	18.9	0.00e+00	0	44	102	1048576	7	4226
2026-01-23 13:05:01.82	327.61	24.12	-24.0	-25.0	18.9	0.00e+00	0	43	102	1048576	8	4051
2026-01-23 13:05:02.82	327.72	23.98	-24.2	-25.4	18.6	0.00e+00	0	44	102	1048576	8	4150
2026-01-23 13:05:03.83	327.82	23.83	-24.2	-25.4	18.7	0.00e+00	0	44	102	1048576	8	4137
2026-01-23 13:05:04.83	327.92	23.69	-24.2	-25.5	18.6	0.00e+00	0	43	102	1048576	8	4175
2026-01-23 13:05:05.83	328.03	23.55	-24.2	-25.5	18.6	0.00e+00	0	43	102	1048576	8	4164
2026-01-23 13:05:06.83	328.13	23.41	-24.2	-25.4	18.7	0.00e+00	0	43	102	1048576	8	4142
2026-01-23 13:05:07.83	328.23	23.27	-24.3	-25.6	18.5	0.00e+00	0	43	102	1048576	8	4206
2026-01-23 13:05:08.84	328.33	23.13	-24.2	-25.5	18.6	0.00e+00	0	44	102	1048576	8	4162
2026-01-23 13:05:09.85	328.43	23.00	-24.2	-25.4	18.7	0.00e+00	0	43	102	1048576	8	4142
2026-01-23 13:05:10.86	328.53	22.86	-24.2	-25.5	18.6	0.00e+00	0	44	102	1048576	8	4167
2026-01-23 13:05:11.86	328.63	22.72	-24.2	-25.4	18.7	0.00e+00	0	43	102	1048576	8	4132
2026-01-23 13:05:12.86	328.73	22.59	-24.1	-25.1	18.8	0.00e+00	0	43	102	1048576	8	4074
2026-01-23 13:05:13.87	328.82	22.45	-24.1	-25.3	18.7	0.00e+00	0	43	102	1048576	8	4113
2026-01-23 13:05:14.87	328.92	22.32	-24.3	-25.7	18.5	0.00e+00	0	43	102	1048576	8	4215
2026-01-23 13:05:15.87	329.01	22.18	-24.3	-25.5	18.6	0.00e+00	0	44	102	1048576	8	4172
2026-01-23 13:05:16.88	329.11	22.05	-24.2	-25.4	18.6	0.00e+00	0	43	102	1048576	8	4139
2026-01-23 13:05:17.88	329.20	21.92	-24.2	-25.5	18.6	0.00e+00	0	43	102	1048576	8	4165
2026-01-23 13:05:18.89	329.29	21.78	-24.2	-25.5	18.6	0.00e+00	0	44	102	1048576	8	4171
2026-01-23 13:05:19.89	329.38	21.65	-24.3	-25.6	18.5	0.00e+00	0	43	102	1048576	8	4180
2026-01-23 13:05:20.90	329.48	21.52	-24.3	-25.7	18.5	0.00e+00	0	43	102	1048576	8	4209
2026-01-23 13:05:21.90	329.57	21.39	-24.3	-25.7	18.4	0.00e+00	0	44	102	1048576	8	4229
2026-01-23 13:05:22.91	329.66	21.26	-24.4	-25.8	18.4	0.00e+00	0	44	102	1048576	8	4253
2026-01-23 13:05:23.92	329.75	21.13	-24.4	-25.9	18.4	0.00e+00	0	43	102	1048576	8	4257
2026-01-23 13:05:24.92	329.83	21.00	-24.5	-26.0	18.3	0.00e+00	0	44	102	1048576	8	4305
2026-01-23 13:05:25.93	329.92	20.87	-24.5	-25.5	18.3	0.00e+00	0	44	102	1048576	9	4059
2026-01-23 13:05:26.94	330.01	20.74	-24.6	-25.8	18.1	0.00e+00	0	44	102	1048576	9	4142
2026-01-23 13:05:27.95	330.09	20.62	-24.5	-25.6	18.2	0.00e+00	0	43	102	1048576	9	4090
2026-01-23 13:05:28.95	330.18	20.49	-24.6	-25.7	18.2	0.00e+00	0	43	102	1048576	9	4115
2026-01-23 13:05:29.96	330.26	20.36	-24.7	-25.9	18.0	0.00e+00	0	43	102	1048576	9	4166
2026-01-23 13:05:30.96	330.35	20.24	-24.6	-25.8	18.1	0.00e+00	0	43	102	1048576	9	4121
2026-01-23 13:05:31.96	330.43	20.12	-24.8	-26.2	17.9	0.00e+00	0	44	102	1048576	9	4233
2026-01-23 13:05:32.97	330.52	19.99	-24.6	-25.9	18.1	0.00e+00	0	44	102	1048576	9	4149
2026-01-23 13:05:33.97	330.60	19.87	-24.6	-25.7	18.1	0.00e+00	0	44	102	1048576	9	4104
2026-01-23 13:05:34.98	330.68	19.74	-24.6	-25.9	18.1	0.00e+00	0	43	102	1048576	9	4148
2026-01-23 13:05:35.97	330.76	19.62	-24.7	-25.9	18.0	0.00e+00	0	43	102	1048576	9	4157
2026-01-23 13:05:36.98	330.84	19.50	-24.7	-26.1	18.0	0.00e+00	0	43	102	1048576	9	4195
2026-01-23 13:05:37.99	330.92	19.38	-24.8	-26.3	17.8	0.00e+00	0	43	102	1048576	9	4258
2026-01-23 13:05:38.99	331.00	19.26	-24.8	-26.2	17.9	0.00e+00	0	43	102	1048576	9	4231
2026-01-23 13:05:40.00	331.08	19.14	-25.0	-26.5	17.7	0.00e+00	0	43	102	1048576	9	4316
2026-01-23 13:05:41.01	331.16	19.02	-24.9	-26.4	17.8	0.00e+00	0	43	102	1048576	9	4276
2026-01-23 13:05:42.01	331.23	18.90	-25.0	-26.6	17.6	0.00e+00	0	44	102	1048576	9	4332
2026-01-23 13:05:43.02	331.31	18.78	-24.9	-26.0	17.7	2.20e-06	0	43	102	1048576	10	4064
2026-01-23 13:05:44.02	331.39	18.66	-25.0	-26.2	17.6	0.00e+00	0	43	102	1048576	10	4118
2026-01-23 13:05:45.03	331.46	18.54	-25.0	-26.1	17.6	0.00e+00	0	43	102	1048576	10	4090
2026-01-23 13:05:46.03	331.54	18.43	-25.1	-26.4	17.5	0.00e+00	0	43	102	1048576	10	4177
2026-01-23 13:05:47.03	331.61	18.31	-25.1	-26.3	17.6	0.00e+00	0	43	102	1048576	10	4130
2026-01-23 13:05:48.04	331.69	18.20	-25.0	-26.2	17.6	0.00e+00	0	43	102	1048576	10	4125
2026-01-23 13:05:49.04	331.76	18.08	-25.1	-26.4	17.4	0.00e+00	0	43	102	1048576	10	4174
2026-01-23 13:05:50.05	331.83	17.96	-25.3	-26.9	17.2	0.00e+00	0	43	102	1048576	10	4289
2026-01-23 13:05:51.04	331.90	17.85	-25.2	-26.5	17.4	0.00e+00	0	44	102	1048576	10	4198
2026-01-23 13:05:52.04	331.98	17.74	-25.3	-26.8	17.2	0.00e+00	0	44	102	1048576	10	4271
2026-01-23 13:05:53.05	332.05	17.62	-25.2	-26.5	17.4	0.00e+00	0	44	102	1048576	10	4180
2026-01-23 13:05:54.04	332.12	17.51	-25.1	-26.4	17.4	0.00e+00	0	44	102	1048576	10	4172
2026-01-23 13:05:55.05	332.19	17.40	-25.2	-26.6	17.4	0.00e+00	0	43	102	1048576	10	4210
2026-01-23 13:05:56.05	332.26	17.29	-25.2	-26.6	17.3	0.00e+00	0	43	102	1048576	10	4221
2026-01-23 13:05:57.06	332.33	17.18	-25.3	-26.8	17.2	0.00e+00	0	43	102	1048576	10	4277
2026-01-23 13:05:58.06	332.40	17.07	-25.5	-26.8	16.9	0.00e+00	0	43	102	1048576	11	4161
2026-01-23 13:05:59.07	332.47	16.95	-25.4	-26.5	17.1	0.00e+00	0	44	102	1048576	11	4081
2026-01-23 13:06:00.08	332.54	16.84	-25.4	-26.4	17.1	0.00e+00	0	44	102	1048576	11	4067
2026-01-23 13:06:01.09	332.60	16.73	-25.5	-26.8	17.0	0.00e+00	0	43	102	1048576	11	4158
2026-01-23 13:06:02.09	332.67	16.62	-25.5	-26.8	16.9	0.00e+00	0	43	102	1048576	11	4166
2026-01-23 13:06:03.09	332.74	16.52	-25.6	-27.0	16.8	0.00e+00	0	44	102	1048576	11	4206
2026-01-23 13:06:04.10	332.80	16.41	-25.7	-27.2	16.7	0.00e+00	0	43	102	1048576	11	4256
2026-01-23 13:06:05.11	332.87	16.30	-25.8	-27.3	16.7	0.00e+00	0	43	102	1048576	11	4290
2026-01-23 13:06:06.11	332.93	16.19	-25.8	-27.5	16.5	0.00e+00	0	43	102	1048576	11	4340
2026-01-23 13:06:07.11	333.00	16.09	-25.9	-27.5	16.5	0.00e+00	0	44	102	1048576	11	4365
2026-01-23 13:06:08.11	333.06	15.98	-25.9	-27.6	16.5	0.00e+00	0	43	102	1048576	11	4375
2026-01-23 13:06:09.11	333.13	15.87	-26.0	-27.8	16.4	0.00e+00	0	44	102	1048576	11	4422
2026-01-23 13:06:10.12	333.19	15.77	-26.0	-27.3	16.3	0.00e+00	0	43	102	1048576	12	4183
2026-01-23 13:06:11.13	333.26	15.66	-26.1	-27.5	16.2	0.00e+00	0	44	102	1048576	12	4245
2026-01-23 13:06:12.14	333.32	15.56	-26.0	-27.3	16.3	0.00e+00	0	43	102	1048576	12	4189
2026-01-23 13:06:13.14	333.38	15.45	-26.0	-27.3	16.3	0.00e+00	0	43	102	1048576	12	4186
2026-01-23 13:06:14.14	333.44	15.35	-26.0	-27.4	16.2	0.00e+00	0	43	102	1048576	12	4222
2026-01-23 13:06:15.15	333.50	15.24	-26.2	-27.9	15.9	0.00e+00	0	44	102	1048576	12	4339
2026-01-23 13:06:16.15	333.57	15.14	-26.1	-27.5	16.1	0.00e+00	0	44	102	1048576	12	4248
2026-01-23 13:06:17.16	333.63	15.04	-26.2	-27.8	16.0	0.00e+00	0	44	102	1048576	12	4319
2026-01-23 13:06:18.16	333.69	14.94	-26.3	-28.0	15.9	0.00e+00	0	43	102	1048576	12	4372
2026-01-23 13:06:19.16	333.75	14.83	-26.3	-27.9	15.9	0.00e+00	0	44	102	1048576	12	4351
2026-01-23 13:06:20.16	333.81	14.73	-26.4	-28.1	15.8	0.00e+00	0	43	102	1048576	12	4414
2026-01-23 13:06:21.16	333.87	14.63	-26.2	-27.8	15.9	0.00e+00	0	43	102	1048576	12	4329
2026-01-23 13:06:22.17	333.92	14.53	-26.1	-27.7	16.0	0.00e+00	0	44	102	1048576	12	4292
2026-01-23 13:06:23.17	333.98	14.43	-26.2	-27.8	16.0	0.00e+00	0	43	102	1048576	12	4320
2026-01-23 13:06:24.17	334.04	14.33	-26.2	-27.8	15.9	1.10e-06	0	43	102	1048576	12	4315
2026-01-23 13:06:25.17	334.10	14.23	-26.3	-28.0	15.8	1.10e-06	0	44	102	1048576	12	4366
2026-01-23 13:06:26.18	334.16	14.13	-26.2	-27.8	15.9	0.00e+00	0	43	102	1048576	12	4319
2026-01-23 13:06:27.19	334.21	14.03	-26.1	-27.6	16.0	0.00e+00	0	44	102	1048576	12	4258
2026-01-23 13:06:28.19	334.27	13.94	-26.1	-27.5	16.0	0.00e+00	0	44	102	1048576	12	4251
2026-01-23 13:06:29.19	334.33	13.84	-26.1	-27.6	16.0	0.00e+00	0	43	102	1048576	12	4281
2026-01-23 13:06:30.19	334.38	13.74	-26.2	-27.8	15.9	0.00e+00	0	43	102	1048576	12	4317
2026-01-23 13:06:31.20	334.44	13.64	-26.2	-27.8	15.9	0.00e+00	0	43	102	1048576	12	4331
2026-01-23 13:06:32.20	334.49	13.55	-26.2	-27.8	15.9	8.00e-06	0	44	102	1048576	12	4313
2026-01-23 13:06:33.21	334.55	13.45	-26.2	-27.9	15.8	0.00e+00	0	43	102	1048576	12	4341
2026-01-23 13:06:34.21	334.60	13.35	-26.2	-27.8	15.9	0.00e+00	0	43	102	1048576	12	4328
2026-01-23 13:06:35.22	334.66	13.26	-26.2	-27.9	15.8	0.00e+00	0	43	102	1048576	12	4349
2026-01-23 13:06:36.23	334.71	13.16	-26.2	-27.8	15.8	0.00e+00	0	43	102	1048576	12	4325
2026-01-23 13:06:37.23	334.77	13.07	-26.3	-28.0	15.7	0.00e+00	0	43	102	1048576	12	4384
2026-01-23 13:06:38.24	334.82	12.97	-26.3	-28.1	15.7	0.00e+00	0	44	102	1048576	12	4399
2026-01-23 13:06:39.24	334.87	12.88	-26.3	-28.0	15.7	0.00e+00	0	44	102	1048576	12	4391
2026-01-23 13:06:40.25	334.93	12.78	-26.4	-28.3	15.5	0.00e+00	0	44	102	1048576	12	4461
2026-01-23 13:06:41.25	334.98	12.69	-26.3	-28.0	15.7	0.00e+00	0	43	102	1048576	12	4368
2026-01-23 13:06:42.26	335.03	12.60	-26.2	-27.9	15.8	0.00e+00	0	44	102	1048576	12	4336
2026-01-23 13:06:43.25	335.08	12.50	-26.3	-28.0	15.7	0.00e+00	0	44	102	1048576	12	4376
2026-01-23 13:06:44.26	335.14	12.41	-26.2	-27.9	15.8	0.00e+00	0	43	102	1048576	12	4343
2026-01-23 13:06:45.26	335.19	12.32	-26.2	-27.8	15.8	0.00e+00	0	43	102	1048576	12	4326
2026-01-23 13:06:46.27	335.24	12.23	-26.2	-27.9	15.8	0.00e+00	0	43	102	1048576	12	4344
2026-01-23 13:06:47.27	335.29	12.13	-26.3	-28.1	15.6	0.00e+00	0	43	102	1048576	12	4392
2026-01-23 13:06:48.27	335.34	12.04	-26.4	-28.1	15.6	0.00e+00	0	43	102	1048576	12	4421
2026-01-23 13:06:49.28	335.39	11.95	-26.4	-28.3	15.5	0.00e+00	0	44	102	1048576	12	4461
2026-01-23 13:06:50.28	335.44	11.86	-26.4	-28.3	15.5	0.00e+00	0	43	102	1048576	12	4473
2026-01-23 13:06:51.29	335.49	11.77	-26.5	-28.0	15.4	1.10e-06	0	43	102	1048576	13	4257
2026-01-23 13:06:52.30	335.54	11.68	-26.6	-28.2	15.2	0.00e+00	0	43	102	1048576	13	4329
2026-01-23 13:06:53.30	335.59	11.59	-26.5	-27.9	15.4	0.00e+00	0	43	102	1048576	13	4236
2026-01-23 13:06:54.30	335.64	11.50	-26.4	-27.8	15.5	0.00e+00	0	43	102	1048576	13	4216
2026-01-23 13:06:55.30	335.68	11.41	-26.4	-27.7	15.5	0.00e+00	0	43	102	1048576	13	4202
2026-01-23 13:06:56.31	335.73	11.32	-26.5	-27.9	15.4	0.00e+00	0	43	102	1048576	13	4238
2026-01-23 13:06:57.31	335.78	11.23	-26.6	-28.1	15.3	0.00e+00	0	44	102	1048576	13	4303
2026-01-23 13:06:58.31	335.83	11.15	-26.5	-27.9	15.4	0.00e+00	0	43	102	1048576	13	4240
2026-01-23 13:06:59.32	335.88	11.06	-26.4	-27.7	15.5	2.20e-06	0	44	102	1048576	13	4197
2026-01-23 13:07:00.33	335.92	10.97	-26.5	-27.9	15.4	0.00e+00	0	43	102	1048576	13	4247
2026-01-23 13:07:01.33	335.97	10.88	-26.6	-28.1	15.2	0.00e+00	0	43	102	1048576	13	4308
2026-01-23 13:07:02.33	336.02	10.80	-26.4	-27.7	15.5	0.00e+00	0	43	102	1048576	13	4195
2026-01-23 13:07:03.33	336.06	10.71	-26.4	-27.7	15.5	0.00e+00	0	43	102	1048576	13	4192
2026-01-23 13:07:04.33	336.11	10.62	-26.5	-28.0	15.3	0.00e+00	0	43	102	1048576	13	4280
2026-01-23 13:07:05.34	336.16	10.54	-26.4	-27.8	15.4	0.00e+00	0	43	102	1048576	13	4221
2026-01-23 13:07:06.35	336.20	10.45	-26.5	-27.9	15.3	0.00e+00	0	44	102	1048576	13	4248
2026-01-23 13:07:07.35	336.25	10.37	-26.5	-28.0	15.3	0.00e+00	0	44	102	1048576	13	4286
2026-01-23 13:07:08.35	336.29	10.28	-26.5	-28.1	15.3	0.00e+00	0	43	102	1048576	13	4295
2026-01-23 13:07:09.36	336.34	10.19	-26.6	-28.2	15.2	0.00e+00	0	43	102	1048576	13	4333
2026-01-23 13:07:10.36	336.38	10.11	-26.6	-28.3	15.1	0.00e+00	0	43	102	1048576	13	4349
2026-01-23 13:07:11.36	336.43	10.03	-26.6	-28.3	15.1	0.00e+00	0	43	102	1048576	13	4342
2026-01-23 13:07:12.36	336.47	9.94	-26.8	-28.6	14.9	1.10e-06	0	43	102	1048576	13	4433
2026-01-23 13:07:13.36	336.52	9.86	-26.6	-28.3	15.1	0.00e+00	0	44	102	1048576	13	4363
2026-01-23 13:07:14.36	336.56	9.78	-26.8	-28.6	14.9	0.00e+00	0	43	102	1048576	13	4445
2026-01-23 13:07:15.37	336.60	9.69	-26.9	-28.9	14.7	0.00e+00	0	43	102	1048576	13	4521
2026-01-23 13:07:16.37	336.65	9.61	-26.8	-28.8	14.8	1.10e-06	0	43	102	1048576	13	4493
2026-01-23 13:07:17.38	336.69	9.53	-27.1	-28.8	14.5	0.00e+00	0	43	102	1048576	14	4395
2026-01-23 13:07:18.38	336.73	9.44	-27.2	-29.1	14.3	0.00e+00	0	44	102	1048576	14	4484
2026-01-23 13:07:19.38	336.78	9.36	-27.4	-29.5	14.1	1.10e-06	0	44	102	1048576	14	4608
2026-01-23 13:07:20.38	336.82	9.28	-27.1	-28.9	14.5	0.00e+00	0	43	102	1048576	14	4405
2026-01-23 13:07:21.39	336.86	9.20	-27.1	-28.9	14.5	0.00e+00	0	44	102	1048576	14	4404
2026-01-23 13:07:22.40	336.90	9.12	-27.1	-28.9	14.4	1.10e-06	0	43	102	1048576	14	4406
2026-01-23 13:07:23.40	336.94	9.03	-27.1	-28.8	14.5	0.00e+00	0	43	102	1048576	14	4390
2026-01-23 13:07:24.40	336.99	8.95	-26.9	-28.4	14.7	0.00e+00	0	43	102	1048576	14	4281
2026-01-23 13:07:25.41	337.03	8.87	-27.0	-28.5	14.6	0.00e+00	0	44	102	1048576	14	4312
2026-01-23 13:07:26.41	337.07	8.79	-26.9	-28.5	14.7	0.00e+00	0	44	102	1048576	14	4300
2026-01-23 13:07:27.41	337.11	8.71	-27.0	-28.6	14.6	0.00e+00	0	44	102	1048576	14	4322
2026-01-23 13:07:28.42	337.15	8.63	-27.0	-28.5	14.6	0.00e+00	0	43	102	1048576	14	4315
2026-01-23 13:07:29.43	337.19	8.55	-27.0	-28.6	14.5	2.20e-06	0	44	102	1048576	14	4345
