passes_logs/2026/01/23/R2M6_AANII_01/R2M6_AANII_01__20260123_162113_FENGYUN_3E_rec.log

#Pass ID: 20260123_162113_FENGYUN 3E
#Satellite: FENGYUN 3E
#Configuration: FENGYUN 3E
#almurnet v.1.7.20240730
#Start time: 2026-01-23 16:21:14

#Version: 2.2.20231116
#Station: R2M6_AANII_01
#Location: 30.233357 lon 59.946436 lat
#TLE: 1 49008U 21062A   26022.96857035  .00000014  00000+0  27449-4 0  9991
#TLE: 2 49008  98.7488  28.0032 0002359 122.8887 237.2516 14.19886951235971

#Time	Az	El	Level	Level2	SNR	BER	BlckErr	Temp	State	Recorded	gain1	gain2
2026-01-23 16:21:14.22	218.21	7.05	-28.0	-28.8	5.6	7.41e-01	0	41	0	0	17	3952
2026-01-23 16:21:15.22	218.31	7.11	-29.2	-31.3	5.4	7.58e-01	0	42	104	0	18	4587
2026-01-23 16:21:16.22	218.41	7.17	-29.0	-30.9	10.3	6.26e-03	0	42	0	0	18	4447
2026-01-23 16:21:17.22	218.52	7.23	-29.2	-31.4	9.9	9.83e-03	0	42	0	7340032	18	4607
2026-01-23 16:21:18.22	218.62	7.29	-28.8	-30.3	10.6	4.00e-03	0	42	0	14680064	18	4271
2026-01-23 16:21:19.22	218.72	7.35	-28.5	-29.5	11.2	2.01e-03	0	42	0	22020096	18	4032
2026-01-23 16:21:20.22	218.83	7.41	-28.2	-29.2	11.6	1.18e-03	0	42	0	28311552	17	4041
2026-01-23 16:21:21.23	218.94	7.47	-27.9	-28.9	12.1	3.24e-04	0	42	0	35651584	16	4076
2026-01-23 16:21:22.24	219.04	7.54	-27.9	-29.0	12.1	2.64e-04	0	42	0	42991616	16	4090
2026-01-23 16:21:23.24	219.15	7.60	-27.9	-29.1	12.1	3.50e-04	0	42	102	49283072	16	4108
2026-01-23 16:21:24.25	219.26	7.66	-27.5	-28.1	12.7	9.04e-05	0	42	102	49283072	16	3864
2026-01-23 16:21:25.26	219.36	7.72	-27.5	-28.1	12.7	9.04e-05	0	42	102	49283072	16	3845
2026-01-23 16:21:26.26	219.47	7.78	-26.9	-27.3	13.3	3.08e-05	0	42	102	49283072	15	3754
2026-01-23 16:21:27.27	219.58	7.84	-26.9	-27.2	13.3	2.86e-05	0	42	102	49283072	15	3736
2026-01-23 16:21:28.26	219.69	7.90	-26.9	-27.8	13.3	2.86e-05	0	42	102	49283072	14	3978
2026-01-23 16:21:29.27	219.80	7.97	-26.8	-27.5	13.5	9.10e-06	0	42	102	49283072	14	3905
2026-01-23 16:21:30.28	219.91	8.03	-26.9	-27.6	13.4	1.94e-05	0	42	102	49283072	14	3937
2026-01-23 16:21:31.28	220.02	8.09	-26.9	-27.7	13.4	1.14e-05	0	42	102	49283072	14	3959
2026-01-23 16:21:32.28	220.13	8.15	-26.9	-27.6	13.4	2.74e-05	0	42	102	49283072	14	3932
2026-01-23 16:21:33.28	220.24	8.21	-26.6	-27.0	13.8	6.80e-06	0	42	102	49283072	14	3774
2026-01-23 16:21:34.28	220.35	8.27	-26.5	-26.8	13.9	3.40e-06	0	42	102	49283072	14	3729
2026-01-23 16:21:35.29	220.46	8.34	-26.5	-26.8	13.9	2.20e-06	0	42	102	49283072	14	3731
2026-01-23 16:21:36.29	220.57	8.40	-26.3	-26.9	14.1	2.20e-06	0	42	102	49283072	13	3859
2026-01-23 16:21:37.30	220.69	8.46	-26.5	-27.3	13.9	2.20e-06	0	42	102	49283072	13	3943
2026-01-23 16:21:38.30	220.80	8.52	-26.4	-27.2	14.0	2.20e-06	0	42	102	49283072	13	3917
2026-01-23 16:21:39.30	220.91	8.58	-26.4	-27.2	14.0	0.00e+00	0	42	102	49283072	13	3921
2026-01-23 16:21:40.31	221.03	8.65	-26.3	-26.9	14.1	3.40e-06	0	42	102	49283072	13	3860
2026-01-23 16:21:41.32	221.14	8.71	-26.4	-27.1	14.1	1.10e-06	0	42	102	49283072	13	3911
2026-01-23 16:21:42.32	221.26	8.77	-26.5	-27.2	14.0	3.40e-06	0	42	102	49283072	13	3935
2026-01-23 16:21:43.33	221.37	8.84	-26.5	-27.2	14.0	4.50e-06	0	42	102	49283072	13	3931
2026-01-23 16:21:44.33	221.49	8.90	-26.5	-27.4	13.9	4.50e-06	0	42	102	49283072	13	3983
2026-01-23 16:21:45.33	221.60	8.96	-26.6	-27.6	13.8	9.10e-06	0	43	102	49283072	13	4035
2026-01-23 16:21:46.33	221.72	9.02	-26.6	-27.5	13.9	6.80e-06	0	42	102	49283072	13	4006
2026-01-23 16:21:47.34	221.84	9.09	-26.5	-27.4	14.0	1.10e-06	0	42	102	49283072	13	3972
2026-01-23 16:21:48.35	221.96	9.15	-26.6	-27.5	13.9	3.40e-06	0	43	102	49283072	13	4005
2026-01-23 16:21:49.34	222.07	9.21	-26.6	-27.4	13.9	3.40e-06	0	43	102	49283072	13	3986
2026-01-23 16:21:50.35	222.19	9.27	-26.6	-27.5	13.9	3.40e-06	0	43	102	49283072	13	3999
2026-01-23 16:21:51.35	222.31	9.34	-26.5	-27.4	14.0	1.10e-06	0	43	102	49283072	13	3970
2026-01-23 16:21:52.35	222.43	9.40	-26.5	-27.3	14.1	2.20e-06	0	43	102	49283072	13	3944
2026-01-23 16:21:53.36	222.55	9.46	-26.7	-27.8	13.7	3.40e-06	0	43	102	49283072	13	4080
2026-01-23 16:21:54.36	222.67	9.52	-26.5	-27.3	14.0	4.50e-06	0	43	102	49283072	13	3946
2026-01-23 16:21:55.36	222.79	9.59	-26.6	-27.5	14.0	0.00e+00	0	43	102	49283072	13	3999
2026-01-23 16:21:56.37	222.92	9.65	-26.5	-27.4	14.0	3.40e-06	0	43	102	49283072	13	3966
2026-01-23 16:21:57.38	223.04	9.71	-26.4	-27.1	14.1	1.10e-06	0	43	102	49283072	13	3907
2026-01-23 16:21:58.38	223.16	9.78	-26.4	-27.2	14.1	1.10e-06	0	43	102	49283072	13	3921
2026-01-23 16:21:59.38	223.29	9.84	-26.4	-27.0	14.2	2.20e-06	0	43	102	49283072	13	3875
2026-01-23 16:22:00.39	223.41	9.90	-26.5	-27.4	14.0	1.10e-06	0	43	102	49283072	13	3965
2026-01-23 16:22:01.40	223.54	9.97	-26.4	-27.0	14.2	3.40e-06	0	43	102	49283072	13	3885
2026-01-23 16:22:02.40	223.66	10.03	-26.3	-27.0	14.3	2.20e-06	0	43	102	49283072	13	3869
2026-01-23 16:22:03.40	223.79	10.09	-26.3	-26.9	14.3	3.40e-06	0	43	102	49283072	13	3848
2026-01-23 16:22:04.40	223.91	10.16	-26.2	-26.7	14.4	0.00e+00	0	43	102	49283072	13	3801
2026-01-23 16:22:05.41	224.04	10.22	-26.2	-26.7	14.4	1.10e-06	0	43	102	49283072	13	3795
2026-01-23 16:22:06.41	224.17	10.28	-26.2	-26.6	14.5	0.00e+00	0	43	102	49283072	13	3770
2026-01-23 16:22:07.42	224.29	10.35	-26.3	-26.8	14.4	0.00e+00	0	43	102	49283072	13	3819
2026-01-23 16:22:08.42	224.42	10.41	-26.2	-26.5	14.5	2.20e-06	0	43	102	49283072	13	3756
2026-01-23 16:22:09.42	224.55	10.48	-26.2	-26.6	14.5	0.00e+00	0	43	102	49283072	13	3782
2026-01-23 16:22:10.42	224.68	10.54	-26.3	-26.9	14.3	1.10e-06	0	43	102	49283072	13	3842
2026-01-23 16:22:11.42	224.81	10.60	-26.3	-26.9	14.3	2.20e-06	0	43	102	49283072	13	3837
2026-01-23 16:22:12.42	224.94	10.67	-26.4	-27.1	14.2	2.20e-06	0	43	102	49283072	13	3887
2026-01-23 16:22:13.43	225.07	10.73	-26.2	-26.6	14.5	0.00e+00	0	43	102	49283072	13	3777
2026-01-23 16:22:14.43	225.20	10.79	-26.2	-26.7	14.5	1.10e-06	0	43	102	49283072	13	3794
2026-01-23 16:22:15.44	225.33	10.86	-26.2	-26.6	14.5	2.20e-06	0	43	102	49283072	13	3782
2026-01-23 16:22:16.45	225.47	10.92	-26.2	-26.6	14.5	0.00e+00	0	43	102	49283072	13	3771
2026-01-23 16:22:17.45	225.60	10.99	-26.1	-26.3	14.7	1.10e-06	0	43	102	49283072	13	3700
2026-01-23 16:22:18.45	225.73	11.05	-26.1	-26.4	14.7	1.10e-06	0	43	102	49283072	13	3718
2026-01-23 16:22:19.46	225.87	11.11	-26.1	-26.5	14.6	0.00e+00	0	43	102	49283072	13	3745
2026-01-23 16:22:20.46	226.00	11.18	-26.0	-26.2	14.8	1.10e-06	0	43	102	49283072	13	3677
2026-01-23 16:22:21.47	226.14	11.24	-26.0	-26.2	14.8	1.10e-06	0	43	102	49283072	13	3664
2026-01-23 16:22:22.47	226.27	11.31	-26.1	-26.3	14.7	0.00e+00	0	43	102	49283072	13	3707
2026-01-23 16:22:23.47	226.41	11.37	-26.1	-26.4	14.7	0.00e+00	0	43	102	49283072	13	3710
2026-01-23 16:22:24.47	226.55	11.43	-26.1	-26.3	14.7	0.00e+00	0	43	102	49283072	13	3697
2026-01-23 16:22:25.47	226.68	11.50	-26.1	-26.5	14.6	1.10e-06	0	43	102	49283072	13	3752
2026-01-23 16:22:26.47	226.82	11.56	-26.1	-26.3	14.7	0.00e+00	0	43	102	49283072	13	3699
2026-01-23 16:22:27.47	226.96	11.63	-26.2	-26.6	14.6	1.10e-06	0	43	102	49283072	13	3763
2026-01-23 16:22:28.48	227.10	11.69	-26.2	-26.5	14.6	1.10e-06	0	43	102	49283072	13	3753
2026-01-23 16:22:29.48	227.24	11.75	-26.0	-26.2	14.8	0.00e+00	0	43	102	49283072	13	3679
2026-01-23 16:22:30.48	227.38	11.82	-26.0	-26.1	14.8	1.10e-06	0	43	102	49283072	13	3662
2026-01-23 16:22:31.49	227.52	11.88	-26.0	-26.1	14.9	0.00e+00	0	43	102	49283072	13	3644
2026-01-23 16:22:32.50	227.67	11.95	-25.8	-26.3	15.0	0.00e+00	0	43	102	49283072	12	3794
2026-01-23 16:22:33.50	227.81	12.01	-25.8	-26.3	15.0	0.00e+00	0	43	102	49283072	12	3799
2026-01-23 16:22:34.51	227.95	12.08	-25.7	-26.0	15.2	0.00e+00	0	43	102	49283072	12	3730
2026-01-23 16:22:35.51	228.09	12.14	-25.8	-26.2	15.1	0.00e+00	0	43	102	49283072	12	3780
2026-01-23 16:22:36.52	228.24	12.21	-25.9	-26.5	14.9	0.00e+00	0	43	102	49283072	12	3834
2026-01-23 16:22:37.51	228.38	12.27	-25.9	-26.5	15.0	0.00e+00	0	43	102	49283072	12	3842
2026-01-23 16:22:38.51	228.53	12.33	-26.0	-26.6	14.9	1.10e-06	0	43	102	49283072	12	3859
2026-01-23 16:22:39.51	228.67	12.40	-25.9	-26.5	14.9	0.00e+00	0	44	102	49283072	12	3852
2026-01-23 16:22:40.52	228.82	12.46	-26.0	-26.7	14.8	0.00e+00	0	43	102	49283072	12	3894
2026-01-23 16:22:41.52	228.97	12.53	-26.0	-26.7	14.8	0.00e+00	0	43	102	49283072	12	3910
2026-01-23 16:22:42.52	229.12	12.59	-26.1	-26.8	14.7	0.00e+00	0	43	102	49283072	12	3924
2026-01-23 16:22:43.53	229.26	12.65	-25.9	-26.5	14.9	0.00e+00	0	43	102	49283072	12	3851
2026-01-23 16:22:44.52	229.41	12.72	-25.7	-25.9	15.3	0.00e+00	0	43	102	49283072	12	3706
2026-01-23 16:22:45.53	229.56	12.78	-25.5	-25.6	15.5	0.00e+00	0	43	102	49283072	12	3625
2026-01-23 16:22:46.53	229.71	12.85	-25.4	-25.9	15.7	0.00e+00	0	43	102	49283072	11	3789
2026-01-23 16:22:47.54	229.86	12.91	-25.3	-25.6	15.8	0.00e+00	0	43	102	49283072	11	3735
2026-01-23 16:22:48.54	230.02	12.98	-25.4	-25.7	15.7	0.00e+00	0	44	102	49283072	11	3755
2026-01-23 16:22:49.54	230.17	13.04	-25.5	-26.1	15.5	0.00e+00	0	43	102	49283072	11	3849
2026-01-23 16:22:50.55	230.32	13.10	-25.6	-26.2	15.5	0.00e+00	0	43	102	49283072	11	3866
2026-01-23 16:22:51.55	230.47	13.17	-25.7	-26.4	15.4	0.00e+00	0	43	102	49283072	11	3924
2026-01-23 16:22:52.55	230.63	13.23	-25.7	-26.6	15.3	0.00e+00	0	43	102	49283072	11	3964
2026-01-23 16:22:53.55	230.78	13.30	-25.6	-26.3	15.4	0.00e+00	0	43	102	49283072	11	3902
2026-01-23 16:22:54.55	230.94	13.36	-25.7	-26.6	15.3	0.00e+00	0	43	102	49283072	11	3968
2026-01-23 16:22:55.56	231.10	13.42	-25.8	-26.8	15.2	0.00e+00	0	43	102	49283072	11	4010
2026-01-23 16:22:56.56	231.25	13.49	-25.8	-26.7	15.2	0.00e+00	0	44	102	49283072	11	3990
2026-01-23 16:22:57.56	231.41	13.55	-25.8	-26.8	15.2	0.00e+00	0	43	102	49283072	11	4009
2026-01-23 16:22:58.57	231.57	13.62	-25.8	-26.8	15.2	0.00e+00	0	43	102	49283072	11	4005
2026-01-23 16:22:59.58	231.73	13.68	-25.7	-26.5	15.4	0.00e+00	0	44	102	49283072	11	3937
2026-01-23 16:23:00.57	231.89	13.74	-25.6	-26.2	15.5	0.00e+00	0	44	102	49283072	11	3870
2026-01-23 16:23:01.58	232.05	13.81	-25.5	-26.1	15.6	0.00e+00	0	43	102	49283072	11	3847
2026-01-23 16:23:02.58	232.21	13.87	-25.6	-26.2	15.5	0.00e+00	0	44	102	49283072	11	3866
2026-01-23 16:23:03.59	232.37	13.94	-25.5	-25.9	15.7	0.00e+00	0	44	102	49283072	11	3803
2026-01-23 16:23:04.60	232.53	14.00	-25.5	-26.1	15.6	0.00e+00	0	43	102	49283072	11	3848
2026-01-23 16:23:05.61	232.70	14.07	-25.5	-26.0	15.7	0.00e+00	0	44	102	49283072	11	3813
2026-01-23 16:23:06.61	232.86	14.13	-25.3	-25.7	15.8	0.00e+00	0	44	102	49283072	11	3740
2026-01-23 16:23:07.62	233.03	14.19	-25.3	-25.6	15.9	0.00e+00	0	43	102	49283072	11	3726
2026-01-23 16:23:08.62	233.19	14.26	-25.3	-25.5	15.9	0.00e+00	0	43	102	49283072	11	3709
2026-01-23 16:23:09.62	233.36	14.32	-25.3	-25.6	16.0	0.00e+00	0	43	102	49283072	11	3717
2026-01-23 16:23:10.63	233.52	14.38	-25.0	-25.0	16.2	0.00e+00	0	44	102	49283072	11	3594
2026-01-23 16:23:11.63	233.69	14.45	-25.2	-25.3	16.0	0.00e+00	0	44	102	49283072	11	3658
2026-01-23 16:23:12.63	233.86	14.51	-25.1	-25.2	16.1	0.00e+00	0	44	102	49283072	11	3635
2026-01-23 16:23:13.64	234.03	14.57	-25.1	-25.2	16.2	0.00e+00	0	44	102	49283072	11	3632
2026-01-23 16:23:14.64	234.20	14.64	-25.2	-25.4	16.0	0.00e+00	0	43	102	49283072	11	3688
2026-01-23 16:23:15.65	234.37	14.70	-25.2	-25.4	16.1	0.00e+00	0	43	102	49283072	11	3670
2026-01-23 16:23:16.66	234.54	14.76	-25.1	-25.3	16.1	0.00e+00	0	44	102	49283072	11	3648
2026-01-23 16:23:17.66	234.71	14.83	-25.2	-25.3	16.1	0.00e+00	0	44	102	49283072	11	3667
2026-01-23 16:23:18.66	234.88	14.89	-25.2	-25.4	16.1	0.00e+00	0	43	102	49283072	11	3674
2026-01-23 16:23:19.67	235.05	14.95	-25.1	-25.2	16.2	0.00e+00	0	44	102	49283072	11	3625
2026-01-23 16:23:20.68	235.23	15.02	-25.0	-25.0	16.2	0.00e+00	0	44	102	49283072	11	3594
2026-01-23 16:23:21.68	235.40	15.08	-25.1	-25.2	16.2	0.00e+00	0	44	102	49283072	11	3631
2026-01-23 16:23:22.69	235.58	15.14	-25.1	-25.1	16.2	0.00e+00	0	44	102	49283072	11	3606
2026-01-23 16:23:23.70	235.75	15.21	-25.0	-24.8	16.4	0.00e+00	0	44	102	49283072	11	3551
2026-01-23 16:23:24.70	235.93	15.27	-24.9	-25.2	16.4	0.00e+00	0	44	102	49283072	10	3731
2026-01-23 16:23:25.71	236.11	15.33	-24.9	-25.3	16.4	0.00e+00	0	44	102	49283072	10	3748
2026-01-23 16:23:26.71	236.29	15.39	-24.9	-25.1	16.5	0.00e+00	0	44	102	49283072	10	3713
2026-01-23 16:23:27.71	236.46	15.45	-25.1	-25.6	16.3	0.00e+00	0	44	102	49283072	10	3818
2026-01-23 16:23:28.72	236.64	15.52	-24.9	-25.3	16.4	0.00e+00	0	44	102	49283072	10	3741
2026-01-23 16:23:29.72	236.82	15.58	-24.9	-25.1	16.5	0.00e+00	0	44	102	49283072	10	3711
2026-01-23 16:23:30.73	237.00	15.64	-24.9	-25.2	16.5	0.00e+00	0	44	102	49283072	10	3720
2026-01-23 16:23:31.74	237.19	15.70	-24.7	-24.9	16.7	0.00e+00	0	44	102	49283072	10	3651
2026-01-23 16:23:32.74	237.37	15.77	-24.7	-24.8	16.7	1.10e-06	0	44	102	49283072	10	3651
2026-01-23 16:23:33.75	237.55	15.83	-24.8	-25.0	16.6	0.00e+00	0	44	102	49283072	10	3688
2026-01-23 16:23:34.75	237.74	15.89	-24.7	-24.7	16.7	0.00e+00	0	44	102	49283072	10	3613
2026-01-23 16:23:35.75	237.92	15.95	-24.7	-24.9	16.7	0.00e+00	0	44	102	49283072	10	3651
2026-01-23 16:23:36.76	238.11	16.01	-24.7	-24.8	16.7	0.00e+00	0	44	102	49283072	10	3626
2026-01-23 16:23:37.76	238.29	16.07	-24.8	-25.0	16.6	0.00e+00	0	44	102	49283072	10	3677
2026-01-23 16:23:38.76	238.48	16.13	-24.7	-24.8	16.7	0.00e+00	0	44	102	49283072	10	3632
2026-01-23 16:23:39.77	238.66	16.19	-24.7	-24.7	16.8	0.00e+00	0	44	102	49283072	10	3614
2026-01-23 16:23:40.77	238.85	16.25	-24.7	-24.8	16.7	0.00e+00	0	44	102	49283072	10	3635
2026-01-23 16:23:41.78	239.04	16.32	-24.6	-24.5	16.9	0.00e+00	0	44	102	49283072	10	3579
2026-01-23 16:23:42.77	239.23	16.37	-24.6	-24.6	16.9	0.00e+00	0	44	102	49283072	10	3587
2026-01-23 16:23:43.77	239.42	16.43	-24.5	-24.4	16.9	0.00e+00	0	44	102	49283072	10	3557
2026-01-23 16:23:44.78	239.61	16.50	-24.8	-25.0	16.6	0.00e+00	0	44	102	49283072	10	3678
2026-01-23 16:23:45.77	239.80	16.55	-24.7	-24.7	16.8	0.00e+00	0	44	102	49283072	10	3618
2026-01-23 16:23:46.77	239.99	16.61	-24.6	-24.6	16.8	0.00e+00	0	44	102	49283072	10	3603
2026-01-23 16:23:47.77	240.18	16.67	-24.6	-24.5	16.9	0.00e+00	0	44	102	49283072	10	3582
2026-01-23 16:23:48.78	240.38	16.73	-24.8	-24.9	16.7	0.00e+00	0	44	102	49283072	10	3662
2026-01-23 16:23:49.78	240.57	16.79	-24.7	-24.7	16.8	0.00e+00	0	44	102	49283072	10	3618
2026-01-23 16:23:50.78	240.77	16.85	-24.7	-24.8	16.7	0.00e+00	0	44	102	49283072	10	3629
2026-01-23 16:23:51.78	240.96	16.91	-24.7	-24.9	16.7	0.00e+00	0	44	102	49283072	10	3655
2026-01-23 16:23:52.78	241.16	16.97	-24.9	-25.2	16.5	0.00e+00	0	44	102	49283072	10	3717
2026-01-23 16:23:53.79	241.36	17.03	-24.8	-25.1	16.6	0.00e+00	0	44	102	49283072	10	3696
2026-01-23 16:23:54.80	241.56	17.09	-24.7	-24.8	16.8	0.00e+00	0	44	102	49283072	10	3639
2026-01-23 16:23:55.80	241.76	17.14	-24.6	-24.6	16.8	0.00e+00	0	44	102	49283072	10	3604
2026-01-23 16:23:56.81	241.96	17.20	-24.7	-24.7	16.8	0.00e+00	0	44	102	49283072	10	3615
2026-01-23 16:23:57.81	242.16	17.26	-24.6	-24.5	16.9	0.00e+00	0	44	102	49283072	10	3577
2026-01-23 16:23:58.81	242.36	17.32	-24.5	-24.3	17.1	0.00e+00	0	44	102	49283072	10	3519
2026-01-23 16:23:59.82	242.56	17.38	-24.5	-24.3	17.1	0.00e+00	0	44	102	49283072	10	3520
2026-01-23 16:24:00.82	242.76	17.43	-24.4	-24.1	17.1	0.00e+00	0	44	102	49283072	10	3484
2026-01-23 16:24:01.83	242.97	17.49	-24.4	-24.6	17.1	0.00e+00	0	44	102	49283072	9	3691
2026-01-23 16:24:02.83	243.17	17.55	-24.3	-24.4	17.2	0.00e+00	0	44	102	49283072	9	3639
2026-01-23 16:24:03.84	243.38	17.60	-24.4	-24.7	17.1	0.00e+00	0	44	102	49283072	9	3712
2026-01-23 16:24:04.84	243.58	17.66	-24.3	-24.5	17.2	0.00e+00	0	44	102	49283072	9	3664
2026-01-23 16:24:05.85	243.79	17.72	-24.3	-24.4	17.2	0.00e+00	0	44	102	49283072	9	3659
2026-01-23 16:24:06.85	244.00	17.77	-24.3	-24.4	17.2	0.00e+00	0	44	102	49283072	9	3658
2026-01-23 16:24:07.86	244.21	17.83	-24.5	-24.8	17.0	0.00e+00	0	44	102	49283072	9	3733
2026-01-23 16:24:08.86	244.42	17.88	-24.3	-24.4	17.3	0.00e+00	0	44	102	49283072	9	3645
2026-01-23 16:24:09.86	244.62	17.94	-24.2	-24.2	17.4	0.00e+00	0	44	102	49283072	9	3593
2026-01-23 16:24:10.86	244.83	17.99	-24.3	-24.3	17.3	0.00e+00	0	44	102	49283072	9	3632
2026-01-23 16:24:11.87	245.05	18.05	-24.3	-24.4	17.2	0.00e+00	0	44	102	49283072	9	3658
2026-01-23 16:24:12.87	245.26	18.10	-24.4	-24.6	17.2	0.00e+00	0	44	102	49283072	9	3692
2026-01-23 16:24:13.87	245.47	18.16	-24.4	-24.7	17.1	0.00e+00	0	44	102	49283072	9	3711
2026-01-23 16:24:14.87	245.68	18.21	-24.5	-24.8	17.1	0.00e+00	0	44	102	49283072	9	3733
2026-01-23 16:24:15.88	245.90	18.26	-24.4	-24.6	17.1	0.00e+00	0	44	102	49283072	9	3699
2026-01-23 16:24:16.88	246.11	18.32	-24.4	-24.6	17.2	0.00e+00	0	44	102	49283072	9	3684
2026-01-23 16:24:17.88	246.33	18.37	-24.2	-24.3	17.3	0.00e+00	0	44	102	49283072	9	3623
2026-01-23 16:24:18.88	246.54	18.42	-24.3	-24.3	17.3	0.00e+00	0	44	102	49283072	9	3629
2026-01-23 16:24:19.89	246.76	18.47	-24.4	-24.7	17.1	0.00e+00	0	44	102	49283072	9	3714
2026-01-23 16:24:20.89	246.98	18.53	-24.5	-24.9	17.0	0.00e+00	0	44	102	49283072	9	3753
2026-01-23 16:24:21.90	247.20	18.58	-24.6	-25.1	16.9	0.00e+00	0	44	102	49283072	9	3793
2026-01-23 16:24:22.90	247.41	18.63	-24.7	-25.2	16.8	0.00e+00	0	44	102	49283072	9	3842
2026-01-23 16:24:23.91	247.64	18.68	-24.8	-25.4	16.7	0.00e+00	0	44	102	49283072	9	3876
2026-01-23 16:24:24.91	247.86	18.73	-24.8	-25.5	16.7	0.00e+00	0	44	102	49283072	9	3903
2026-01-23 16:24:25.92	248.08	18.78	-24.8	-25.5	16.7	0.00e+00	0	44	102	49283072	9	3892
2026-01-23 16:24:26.93	248.30	18.83	-24.5	-24.8	17.1	0.00e+00	0	44	102	49283072	9	3727
2026-01-23 16:24:27.93	248.52	18.88	-24.2	-24.3	17.3	0.00e+00	0	44	102	49283072	9	3625
2026-01-23 16:24:28.93	248.75	18.93	-24.2	-24.3	17.4	0.00e+00	0	44	102	49283072	9	3621
2026-01-23 16:24:29.93	248.97	18.98	-24.4	-24.6	17.2	0.00e+00	0	44	102	49283072	9	3684
2026-01-23 16:24:30.93	249.19	19.03	-24.2	-24.2	17.4	0.00e+00	0	44	102	49283072	9	3604
2026-01-23 16:24:31.93	249.42	19.08	-24.1	-24.0	17.5	0.00e+00	0	44	102	49283072	9	3565
2026-01-23 16:24:32.93	249.64	19.13	-24.2	-24.2	17.4	0.00e+00	0	44	102	49283072	9	3596
2026-01-23 16:24:33.94	249.87	19.18	-24.1	-24.1	17.5	0.00e+00	0	44	102	49283072	9	3576
2026-01-23 16:24:34.94	250.10	19.22	-24.1	-24.0	17.5	1.10e-06	0	44	102	49283072	9	3556
2026-01-23 16:24:35.95	250.33	19.27	-24.2	-24.2	17.4	0.00e+00	0	44	102	49283072	9	3611
2026-01-23 16:24:36.95	250.56	19.32	-24.1	-23.9	17.6	0.00e+00	0	44	102	49283072	9	3539
2026-01-23 16:24:37.95	250.78	19.37	-24.0	-23.8	17.7	0.00e+00	0	44	102	49283072	9	3507
2026-01-23 16:24:38.96	251.02	19.41	-24.0	-23.9	17.6	0.00e+00	0	44	102	49283072	9	3526
2026-01-23 16:24:39.96	251.25	19.46	-23.9	-23.7	17.7	0.00e+00	0	44	102	49283072	9	3483
2026-01-23 16:24:40.97	251.48	19.50	-24.0	-23.9	17.6	0.00e+00	0	44	102	49283072	9	3532
2026-01-23 16:24:41.97	251.71	19.55	-24.1	-24.0	17.5	0.00e+00	0	44	102	49283072	9	3568
2026-01-23 16:24:42.97	251.94	19.59	-24.1	-24.1	17.5	0.00e+00	0	44	102	49283072	9	3573
2026-01-23 16:24:43.98	252.18	19.64	-24.2	-24.3	17.4	0.00e+00	0	44	102	49283072	9	3630
2026-01-23 16:24:44.98	252.41	19.68	-24.3	-24.4	17.3	0.00e+00	0	44	102	49283072	9	3637
2026-01-23 16:24:45.99	252.65	19.73	-24.2	-24.3	17.4	0.00e+00	0	44	102	49283072	9	3624
2026-01-23 16:24:47.00	252.89	19.77	-24.2	-24.3	17.4	0.00e+00	0	44	102	49283072	9	3619
2026-01-23 16:24:48.00	253.12	19.81	-24.3	-24.4	17.3	0.00e+00	0	44	102	49283072	9	3651
2026-01-23 16:24:49.01	253.36	19.85	-24.3	-24.4	17.3	0.00e+00	0	44	102	49283072	9	3650
2026-01-23 16:24:50.02	253.60	19.90	-24.3	-24.4	17.3	0.00e+00	0	44	102	49283072	9	3640
2026-01-23 16:24:51.02	253.84	19.94	-24.3	-24.5	17.3	0.00e+00	0	44	102	49283072	9	3664
2026-01-23 16:24:52.02	254.07	19.98	-24.4	-24.7	17.2	0.00e+00	0	44	102	49283072	9	3719
2026-01-23 16:24:53.02	254.31	20.02	-24.4	-24.7	17.2	0.00e+00	0	44	102	49283072	9	3717
2026-01-23 16:24:54.02	254.55	20.06	-24.3	-24.4	17.3	0.00e+00	0	44	102	49283072	9	3652
2026-01-23 16:24:55.02	254.79	20.10	-24.3	-24.5	17.3	0.00e+00	0	44	102	49283072	9	3666
2026-01-23 16:24:56.03	255.03	20.14	-24.2	-24.2	17.4	0.00e+00	0	44	102	49283072	9	3612
2026-01-23 16:24:57.03	255.28	20.18	-24.3	-24.4	17.4	0.00e+00	0	44	102	49283072	9	3639
2026-01-23 16:24:58.03	255.52	20.22	-24.5	-24.9	17.1	0.00e+00	0	44	102	49283072	9	3750
2026-01-23 16:24:59.03	255.76	20.25	-24.2	-24.3	17.4	0.00e+00	0	44	102	49283072	9	3630
2026-01-23 16:25:00.03	256.00	20.29	-24.4	-24.7	17.2	0.00e+00	0	44	102	49283072	9	3707
2026-01-23 16:25:01.04	256.25	20.33	-24.3	-24.4	17.4	0.00e+00	0	44	102	49283072	9	3650
2026-01-23 16:25:02.05	256.49	20.37	-24.3	-24.5	17.3	0.00e+00	0	44	102	49283072	9	3665
2026-01-23 16:25:03.05	256.74	20.40	-24.4	-24.7	17.2	0.00e+00	0	44	102	49283072	9	3708
2026-01-23 16:25:04.05	256.98	20.44	-24.4	-24.6	17.3	0.00e+00	0	44	102	49283072	9	3682
2026-01-23 16:25:05.06	257.23	20.47	-24.4	-24.6	17.3	0.00e+00	0	44	102	49283072	9	3690
2026-01-23 16:25:06.06	257.48	20.51	-24.3	-24.5	17.3	0.00e+00	0	44	102	49283072	9	3659
2026-01-23 16:25:07.07	257.73	20.54	-24.6	-25.0	17.1	0.00e+00	0	44	102	49283072	9	3780
2026-01-23 16:25:08.07	257.97	20.58	-24.2	-24.3	17.5	0.00e+00	0	44	102	49283072	9	3617
2026-01-23 16:25:09.07	258.22	20.61	-24.0	-23.8	17.7	0.00e+00	0	44	102	49283072	9	3508
2026-01-23 16:25:10.08	258.47	20.64	-23.9	-24.0	17.9	0.00e+00	0	44	102	49283072	8	3652
2026-01-23 16:25:11.08	258.72	20.68	-24.1	-24.4	17.7	0.00e+00	0	44	102	49283072	8	3740
2026-01-23 16:25:12.07	258.97	20.71	-23.9	-24.0	17.9	0.00e+00	0	44	102	49283072	8	3647
2026-01-23 16:25:13.08	259.22	20.74	-23.9	-24.1	17.8	0.00e+00	0	44	102	49283072	8	3680
2026-01-23 16:25:14.08	259.47	20.77	-24.1	-24.5	17.6	0.00e+00	0	44	102	49283072	8	3773
2026-01-23 16:25:15.09	259.72	20.80	-24.2	-24.7	17.5	0.00e+00	0	44	102	49283072	8	3804
2026-01-23 16:25:16.09	259.97	20.83	-24.2	-24.8	17.5	0.00e+00	0	44	102	49283072	8	3830
2026-01-23 16:25:17.09	260.23	20.86	-24.3	-24.9	17.4	0.00e+00	0	44	102	49283072	8	3862
2026-01-23 16:25:18.10	260.48	20.89	-24.2	-24.7	17.5	0.00e+00	0	44	102	49283072	8	3816
2026-01-23 16:25:19.10	260.73	20.92	-24.2	-24.7	17.5	2.20e-06	0	44	102	49283072	8	3819
2026-01-23 16:25:20.11	260.99	20.94	-24.2	-24.8	17.5	0.00e+00	0	44	102	49283072	8	3836
2026-01-23 16:25:21.11	261.24	20.97	-24.0	-24.3	17.7	0.00e+00	0	44	102	49283072	8	3722
2026-01-23 16:25:22.11	261.50	21.00	-24.3	-24.9	17.4	3.40e-06	0	44	102	49283072	8	3856
2026-01-23 16:25:23.11	261.75	21.02	-24.0	-24.3	17.7	0.00e+00	0	44	102	49283072	8	3714
2026-01-23 16:25:24.11	262.01	21.05	-23.9	-24.0	17.9	0.00e+00	0	44	102	49283072	8	3656
2026-01-23 16:25:25.11	262.26	21.07	-23.9	-24.1	17.9	1.10e-06	0	44	102	49283072	8	3677
2026-01-23 16:25:26.11	262.52	21.10	-24.0	-24.4	17.7	0.00e+00	0	44	102	49283072	8	3737
2026-01-23 16:25:27.11	262.77	21.12	-24.1	-24.5	17.7	0.00e+00	0	44	102	49283072	8	3760
2026-01-23 16:25:28.11	263.03	21.15	-24.2	-24.7	17.5	1.10e-06	0	44	102	49283072	8	3817
2026-01-23 16:25:29.11	263.28	21.17	-24.1	-24.5	17.6	0.00e+00	0	44	102	49283072	8	3763
2026-01-23 16:25:30.12	263.54	21.19	-24.0	-24.3	17.8	0.00e+00	0	44	102	49283072	8	3721
2026-01-23 16:25:31.12	263.80	21.21	-24.0	-24.2	17.8	0.00e+00	0	44	102	49283072	8	3708
2026-01-23 16:25:32.13	264.06	21.23	-24.0	-24.4	17.7	0.00e+00	0	44	102	49283072	8	3733
2026-01-23 16:25:33.13	264.32	21.25	-23.8	-23.9	17.9	0.00e+00	0	44	102	49283072	8	3636
2026-01-23 16:25:34.14	264.58	21.27	-23.9	-24.0	17.9	0.00e+00	0	44	102	49283072	8	3650
2026-01-23 16:25:35.15	264.84	21.29	-23.8	-23.8	18.0	0.00e+00	0	44	102	49283072	8	3622
2026-01-23 16:25:36.15	265.10	21.31	-23.9	-24.1	17.8	0.00e+00	0	44	102	49283072	8	3679
2026-01-23 16:25:37.16	265.36	21.33	-24.2	-24.6	17.6	0.00e+00	0	44	102	49283072	8	3800
2026-01-23 16:25:38.16	265.62	21.35	-24.0	-24.4	17.7	0.00e+00	0	44	102	49283072	8	3736
2026-01-23 16:25:39.16	265.88	21.37	-24.0	-24.3	17.8	0.00e+00	0	44	102	49283072	8	3722
2026-01-23 16:25:40.16	266.14	21.38	-24.1	-24.4	17.7	0.00e+00	0	44	102	49283072	8	3748
2026-01-23 16:25:41.16	266.40	21.40	-24.1	-24.4	17.7	0.00e+00	0	44	102	49283072	8	3745
2026-01-23 16:25:42.17	266.67	21.41	-24.0	-24.3	17.8	0.00e+00	0	44	102	49283072	8	3729
2026-01-23 16:25:43.17	266.93	21.43	-24.1	-24.4	17.7	0.00e+00	0	44	102	49283072	8	3750
2026-01-23 16:25:44.17	267.19	21.44	-24.1	-24.5	17.6	0.00e+00	0	44	102	49283072	8	3782
2026-01-23 16:25:45.17	267.45	21.46	-24.1	-24.4	17.7	0.00e+00	0	44	102	49283072	8	3741
2026-01-23 16:25:46.17	267.71	21.47	-24.1	-24.5	17.7	0.00e+00	0	44	102	49283072	8	3769
2026-01-23 16:25:47.17	267.97	21.48	-24.2	-24.6	17.6	0.00e+00	0	44	102	49283072	8	3790
2026-01-23 16:25:48.18	268.24	21.49	-24.2	-24.8	17.5	0.00e+00	0	44	102	49283072	8	3837
2026-01-23 16:25:49.18	268.50	21.50	-24.1	-24.5	17.6	0.00e+00	0	44	102	49283072	8	3777
2026-01-23 16:25:50.18	268.76	21.52	-24.2	-24.6	17.6	0.00e+00	0	44	102	49283072	8	3789
2026-01-23 16:25:51.18	269.02	21.53	-24.1	-24.6	17.6	0.00e+00	0	44	102	49283072	8	3778
2026-01-23 16:25:52.19	269.29	21.53	-24.2	-24.6	17.6	0.00e+00	0	44	102	49283072	8	3799
2026-01-23 16:25:53.20	269.56	21.54	-24.1	-24.5	17.7	0.00e+00	0	44	102	49283072	8	3769
2026-01-23 16:25:54.20	269.82	21.55	-24.1	-24.5	17.7	0.00e+00	0	44	102	49283072	8	3764
2026-01-23 16:25:55.21	270.08	21.56	-24.1	-24.4	17.7	0.00e+00	0	44	102	49283072	8	3746
2026-01-23 16:25:56.21	270.35	21.57	-24.1	-24.4	17.7	0.00e+00	0	44	102	49283072	8	3745
2026-01-23 16:25:57.22	270.61	21.57	-24.0	-24.3	17.8	0.00e+00	0	44	102	49283072	8	3719
2026-01-23 16:25:58.22	270.88	21.58	-24.1	-24.4	17.7	0.00e+00	0	44	102	49283072	8	3743
2026-01-23 16:25:59.22	271.14	21.58	-23.9	-24.0	17.9	0.00e+00	0	44	102	49283072	8	3663
2026-01-23 16:26:00.23	271.41	21.59	-23.9	-24.1	17.9	0.00e+00	0	44	102	49283072	8	3686
2026-01-23 16:26:01.24	271.67	21.59	-23.9	-24.2	17.8	0.00e+00	0	44	102	49283072	8	3688
2026-01-23 16:26:02.23	271.93	21.60	-24.0	-24.3	17.8	0.00e+00	0	44	102	49283072	8	3724
2026-01-23 16:26:03.23	272.20	21.60	-23.9	-24.0	17.9	0.00e+00	0	44	102	49283072	8	3664
2026-01-23 16:26:04.24	272.46	21.60	-24.0	-24.2	17.8	0.00e+00	0	44	102	49283072	8	3700
2026-01-23 16:26:05.24	272.73	21.60	-24.0	-24.2	17.8	0.00e+00	0	44	102	49283072	8	3692
2026-01-23 16:26:06.24	272.99	21.60	-24.0	-24.2	17.8	0.00e+00	0	44	102	49283072	8	3704
2026-01-23 16:26:07.25	273.26	21.60	-23.9	-24.0	17.9	0.00e+00	0	44	102	49283072	8	3650
2026-01-23 16:26:08.26	273.52	21.60	-23.9	-24.1	17.9	0.00e+00	0	44	102	49283072	8	3684
2026-01-23 16:26:09.26	273.79	21.60	-24.0	-24.2	17.8	0.00e+00	0	44	102	49283072	8	3707
2026-01-23 16:26:10.27	274.05	21.60	-23.9	-24.1	17.9	0.00e+00	0	44	102	49283072	8	3675
2026-01-23 16:26:11.27	274.32	21.60	-24.0	-24.3	17.7	0.00e+00	0	44	102	49283072	8	3719
2026-01-23 16:26:12.27	274.58	21.60	-24.0	-24.3	17.7	0.00e+00	0	44	102	49283072	8	3734
2026-01-23 16:26:13.28	274.85	21.59	-24.0	-24.3	17.8	0.00e+00	0	44	102	49283072	8	3716
2026-01-23 16:26:14.28	275.11	21.59	-24.1	-24.6	17.6	0.00e+00	0	44	102	49283072	8	3788
2026-01-23 16:26:15.28	275.37	21.58	-24.1	-24.5	17.7	0.00e+00	0	44	102	49283072	8	3765
2026-01-23 16:26:16.28	275.64	21.58	-24.3	-24.8	17.5	0.00e+00	0	44	102	49283072	8	3847
2026-01-23 16:26:17.29	275.90	21.57	-24.2	-24.8	17.5	0.00e+00	0	44	102	49283072	8	3835
2026-01-23 16:26:18.29	276.17	21.57	-24.4	-25.0	17.4	0.00e+00	0	44	102	49283072	8	3892
2026-01-23 16:26:19.29	276.43	21.56	-24.2	-24.8	17.5	0.00e+00	0	44	102	49283072	8	3827
2026-01-23 16:26:20.29	276.69	21.55	-24.2	-24.8	17.5	0.00e+00	0	44	102	49283072	8	3837
2026-01-23 16:26:21.29	276.95	21.54	-24.3	-24.9	17.5	0.00e+00	0	44	102	49283072	8	3854
2026-01-23 16:26:22.30	277.22	21.53	-24.3	-25.0	17.4	0.00e+00	0	44	102	49283072	8	3880
2026-01-23 16:26:23.31	277.48	21.52	-24.2	-24.8	17.5	0.00e+00	0	44	102	49283072	8	3835
2026-01-23 16:26:24.32	277.75	21.51	-24.2	-24.8	17.5	0.00e+00	0	44	102	49283072	8	3836
2026-01-23 16:26:25.33	278.01	21.50	-24.1	-24.6	17.6	0.00e+00	0	44	102	49283072	8	3788
2026-01-23 16:26:26.33	278.28	21.49	-24.1	-24.5	17.7	0.00e+00	0	44	102	49283072	8	3760
2026-01-23 16:26:27.34	278.54	21.48	-24.1	-24.4	17.7	0.00e+00	0	44	102	49283072	8	3749
2026-01-23 16:26:28.34	278.80	21.47	-24.0	-24.2	17.8	0.00e+00	0	44	102	49283072	8	3692
2026-01-23 16:26:29.35	279.07	21.45	-24.1	-24.5	17.7	0.00e+00	0	44	102	49283072	8	3766
2026-01-23 16:26:30.35	279.33	21.44	-24.2	-24.7	17.6	0.00e+00	0	44	102	49283072	8	3803
2026-01-23 16:26:31.35	279.59	21.43	-24.1	-24.6	17.6	0.00e+00	0	44	102	49283072	8	3780
2026-01-23 16:26:32.36	279.85	21.41	-24.2	-24.8	17.5	0.00e+00	0	44	102	49283072	8	3825
2026-01-23 16:26:33.37	280.11	21.40	-24.3	-24.8	17.5	0.00e+00	0	44	102	49283072	8	3837
2026-01-23 16:26:34.37	280.37	21.38	-24.2	-24.7	17.5	0.00e+00	0	44	102	49283072	8	3817
2026-01-23 16:26:35.37	280.63	21.36	-24.2	-24.6	17.6	0.00e+00	0	44	102	49283072	8	3791
2026-01-23 16:26:36.38	280.90	21.35	-24.0	-24.3	17.8	0.00e+00	0	44	102	49283072	8	3723
2026-01-23 16:26:37.38	281.16	21.33	-24.1	-24.4	17.7	0.00e+00	0	44	102	49283072	8	3743
2026-01-23 16:26:38.39	281.42	21.31	-24.1	-24.5	17.6	0.00e+00	0	44	102	49283072	8	3770
2026-01-23 16:26:39.39	281.68	21.29	-24.2	-24.8	17.5	0.00e+00	0	44	102	49283072	8	3827
2026-01-23 16:26:40.39	281.93	21.27	-24.4	-25.1	17.4	0.00e+00	0	44	102	49283072	8	3909
2026-01-23 16:26:41.40	282.19	21.25	-24.2	-24.6	17.6	0.00e+00	0	44	102	49283072	8	3798
2026-01-23 16:26:42.41	282.45	21.23	-24.1	-24.5	17.7	0.00e+00	0	44	102	49283072	8	3756
2026-01-23 16:26:43.41	282.71	21.21	-24.1	-24.5	17.6	0.00e+00	0	44	102	49283072	8	3772
2026-01-23 16:26:44.41	282.97	21.19	-24.1	-24.6	17.6	0.00e+00	0	44	102	49283072	8	3781
2026-01-23 16:26:45.42	283.23	21.17	-24.2	-24.6	17.6	0.00e+00	0	44	102	49283072	8	3792
2026-01-23 16:26:46.42	283.48	21.14	-24.2	-24.7	17.6	0.00e+00	0	44	102	49283072	8	3811
2026-01-23 16:26:47.43	283.74	21.12	-24.2	-24.7	17.6	0.00e+00	0	44	102	49283072	8	3806
2026-01-23 16:26:48.43	284.00	21.09	-24.3	-24.9	17.5	0.00e+00	0	44	102	49283072	8	3853
2026-01-23 16:26:49.44	284.25	21.07	-24.3	-24.8	17.5	0.00e+00	0	44	102	49283072	8	3846
2026-01-23 16:26:50.43	284.51	21.05	-24.3	-24.9	17.5	0.00e+00	0	44	102	49283072	8	3856
2026-01-23 16:26:51.44	284.76	21.02	-24.3	-24.9	17.5	0.00e+00	0	44	102	49283072	8	3852
2026-01-23 16:26:52.44	285.02	20.99	-24.2	-24.7	17.6	0.00e+00	0	44	102	49283072	8	3809
2026-01-23 16:26:53.44	285.27	20.97	-24.3	-24.8	17.5	0.00e+00	0	44	102	49283072	8	3836
2026-01-23 16:26:54.45	285.53	20.94	-24.2	-24.8	17.5	0.00e+00	0	44	102	49283072	8	3824
2026-01-23 16:26:55.45	285.78	20.91	-24.1	-24.5	17.7	0.00e+00	0	44	102	49283072	8	3760
2026-01-23 16:26:56.46	286.03	20.88	-24.0	-24.4	17.7	0.00e+00	0	44	102	49283072	8	3736
2026-01-23 16:26:57.47	286.29	20.85	-24.1	-24.6	17.6	0.00e+00	0	44	102	49283072	8	3777
2026-01-23 16:26:58.47	286.54	20.83	-24.2	-24.6	17.6	0.00e+00	0	44	102	49283072	8	3784
2026-01-23 16:26:59.48	286.79	20.80	-24.2	-24.8	17.5	0.00e+00	0	44	102	49283072	8	3823
2026-01-23 16:27:00.48	287.04	20.77	-24.3	-24.9	17.4	0.00e+00	0	44	102	49283072	8	3857
2026-01-23 16:27:01.49	287.29	20.73	-24.4	-25.1	17.3	0.00e+00	0	44	102	49283072	8	3917
2026-01-23 16:27:02.49	287.54	20.70	-24.4	-25.1	17.3	0.00e+00	0	44	102	49283072	8	3901
2026-01-23 16:27:03.50	287.79	20.67	-24.4	-25.1	17.3	0.00e+00	0	44	102	49283072	8	3900
2026-01-23 16:27:04.51	288.04	20.64	-24.4	-25.2	17.3	0.00e+00	0	44	102	49283072	8	3928
2026-01-23 16:27:05.51	288.29	20.61	-24.4	-25.1	17.3	0.00e+00	0	44	102	49283072	8	3906
2026-01-23 16:27:06.51	288.54	20.57	-24.3	-24.9	17.4	0.00e+00	0	44	102	49283072	8	3865
2026-01-23 16:27:07.51	288.78	20.54	-24.3	-24.9	17.4	0.00e+00	0	44	102	49283072	8	3858
2026-01-23 16:27:08.51	289.03	20.50	-24.2	-24.8	17.5	0.00e+00	0	44	102	49283072	8	3828
2026-01-23 16:27:09.51	289.28	20.47	-24.3	-25.0	17.4	0.00e+00	0	44	102	49283072	8	3878
2026-01-23 16:27:10.52	289.52	20.43	-24.4	-25.1	17.3	0.00e+00	0	44	102	49283072	8	3915
2026-01-23 16:27:11.52	289.77	20.40	-24.4	-25.1	17.3	0.00e+00	0	44	102	49283072	8	3913
2026-01-23 16:27:12.53	290.01	20.36	-24.5	-25.2	17.3	0.00e+00	0	44	102	49283072	8	3938
2026-01-23 16:27:13.53	290.26	20.33	-24.5	-25.4	17.2	0.00e+00	0	44	102	49283072	8	3981
2026-01-23 16:27:14.53	290.50	20.29	-24.5	-25.4	17.2	0.00e+00	0	44	102	49283072	8	3966
2026-01-23 16:27:15.54	290.74	20.25	-24.6	-25.5	17.1	0.00e+00	0	44	102	49283072	8	4006
2026-01-23 16:27:16.54	290.98	20.21	-24.7	-25.2	17.0	0.00e+00	0	44	102	49283072	9	3811
2026-01-23 16:27:17.55	291.23	20.17	-24.7	-25.2	17.0	0.00e+00	0	44	102	49283072	9	3835
2026-01-23 16:27:18.55	291.47	20.14	-24.7	-25.3	16.9	0.00e+00	0	44	102	49283072	9	3857
2026-01-23 16:27:19.55	291.71	20.10	-24.8	-25.4	16.9	0.00e+00	0	44	102	49283072	9	3870
2026-01-23 16:27:20.55	291.95	20.06	-24.6	-25.1	17.0	0.00e+00	0	44	102	49283072	9	3812
2026-01-23 16:27:21.55	292.18	20.02	-24.6	-25.0	17.1	0.00e+00	0	44	102	49283072	9	3769
2026-01-23 16:27:22.55	292.42	19.98	-24.5	-24.8	17.2	0.00e+00	0	44	102	49283072	9	3739
2026-01-23 16:27:23.56	292.66	19.94	-24.5	-24.8	17.2	0.00e+00	0	44	102	49283072	9	3722
2026-01-23 16:27:24.57	292.90	19.89	-24.6	-25.1	17.1	0.00e+00	0	44	102	49283072	9	3793
2026-01-23 16:27:25.57	293.14	19.85	-24.6	-25.0	17.1	0.00e+00	0	44	102	49283072	9	3773
2026-01-23 16:27:26.58	293.37	19.81	-24.4	-24.7	17.3	0.00e+00	0	44	102	49283072	9	3707
2026-01-23 16:27:27.58	293.61	19.77	-24.4	-24.7	17.3	0.00e+00	0	44	102	49283072	9	3703
2026-01-23 16:27:28.58	293.84	19.72	-24.6	-25.0	17.1	0.00e+00	0	44	102	49283072	9	3768
2026-01-23 16:27:29.59	294.08	19.68	-24.6	-25.1	17.1	0.00e+00	0	44	102	49283072	9	3788
2026-01-23 16:27:30.59	294.31	19.64	-24.6	-25.1	17.1	0.00e+00	0	44	102	49283072	9	3794
2026-01-23 16:27:31.60	294.55	19.59	-24.6	-24.9	17.1	0.00e+00	0	44	102	49283072	9	3766
2026-01-23 16:27:32.60	294.78	19.55	-24.5	-24.7	17.2	0.00e+00	0	44	102	49283072	9	3710
2026-01-23 16:27:33.61	295.01	19.50	-24.5	-24.8	17.2	0.00e+00	0	44	102	49283072	9	3730
2026-01-23 16:27:34.61	295.24	19.46	-24.5	-24.9	17.2	0.00e+00	0	44	102	49283072	9	3754
2026-01-23 16:27:35.60	295.47	19.41	-24.6	-25.0	17.1	0.00e+00	0	44	102	49283072	9	3787
2026-01-23 16:27:36.61	295.70	19.37	-24.6	-25.1	17.1	0.00e+00	0	44	102	49283072	9	3791
2026-01-23 16:27:37.62	295.93	19.32	-24.7	-25.2	17.1	0.00e+00	0	44	102	49283072	9	3814
2026-01-23 16:27:38.61	296.15	19.27	-24.6	-25.1	17.0	0.00e+00	0	44	102	49283072	9	3810
2026-01-23 16:27:39.62	296.38	19.23	-24.6	-25.1	17.0	0.00e+00	0	44	102	49283072	9	3806
2026-01-23 16:27:40.62	296.61	19.18	-24.7	-25.3	16.9	0.00e+00	0	44	102	49283072	9	3856
2026-01-23 16:27:41.62	296.83	19.13	-24.8	-25.4	16.8	0.00e+00	0	44	102	49283072	9	3882
2026-01-23 16:27:42.63	297.06	19.08	-24.8	-25.5	16.8	0.00e+00	0	44	102	49283072	9	3893
2026-01-23 16:27:43.63	297.28	19.03	-24.8	-25.5	16.8	0.00e+00	0	44	102	49283072	9	3909
2026-01-23 16:27:44.63	297.51	18.98	-24.9	-25.7	16.7	0.00e+00	0	44	102	49283072	9	3941
2026-01-23 16:27:45.63	297.73	18.94	-24.9	-25.7	16.7	0.00e+00	0	44	102	49283072	9	3943
2026-01-23 16:27:46.64	297.95	18.89	-24.8	-25.4	16.8	0.00e+00	0	44	102	49283072	9	3883
2026-01-23 16:27:47.64	298.17	18.84	-24.8	-25.4	16.8	0.00e+00	0	44	102	49283072	9	3878
2026-01-23 16:27:48.64	298.39	18.79	-24.7	-25.3	16.9	0.00e+00	0	44	102	49283072	9	3855
2026-01-23 16:27:49.65	298.62	18.74	-24.6	-25.1	17.0	0.00e+00	0	44	102	49283072	9	3800
2026-01-23 16:27:50.65	298.84	18.69	-24.6	-25.1	17.0	0.00e+00	0	44	102	49283072	9	3803
2026-01-23 16:27:51.66	299.06	18.63	-24.6	-25.0	17.1	0.00e+00	0	44	102	49283072	9	3785
2026-01-23 16:27:52.66	299.27	18.58	-24.6	-25.0	17.1	0.00e+00	0	44	102	49283072	9	3776
2026-01-23 16:27:53.66	299.49	18.53	-24.6	-25.1	17.1	0.00e+00	0	44	102	49283072	9	3793
2026-01-23 16:27:54.66	299.71	18.48	-24.7	-25.3	16.9	0.00e+00	0	44	102	49283072	9	3836
2026-01-23 16:27:55.66	299.92	18.43	-24.7	-25.3	16.9	0.00e+00	0	44	102	49283072	9	3846
2026-01-23 16:27:56.66	300.14	18.38	-24.8	-25.5	16.8	0.00e+00	0	44	102	49283072	9	3885
2026-01-23 16:27:57.66	300.35	18.32	-24.8	-25.5	16.8	0.00e+00	0	44	102	49283072	9	3894
2026-01-23 16:27:58.66	300.56	18.27	-25.0	-25.8	16.6	0.00e+00	0	44	102	49283072	9	3974
2026-01-23 16:27:59.66	300.77	18.22	-25.1	-25.5	16.6	0.00e+00	0	44	102	49283072	10	3792
2026-01-23 16:28:00.67	300.99	18.16	-25.0	-25.4	16.6	0.00e+00	0	44	102	49283072	10	3775
2026-01-23 16:28:01.67	301.20	18.11	-25.1	-25.7	16.5	0.00e+00	0	44	102	49283072	10	3833
2026-01-23 16:28:02.67	301.41	18.06	-25.1	-25.6	16.5	0.00e+00	0	44	102	49283072	10	3824
2026-01-23 16:28:03.67	301.62	18.00	-25.1	-25.6	16.5	0.00e+00	0	44	102	49283072	10	3821
2026-01-23 16:28:04.68	301.83	17.95	-25.1	-25.6	16.5	0.00e+00	0	44	102	49283072	10	3813
2026-01-23 16:28:05.68	302.04	17.89	-25.0	-25.5	16.6	0.00e+00	0	44	102	49283072	10	3787
2026-01-23 16:28:06.69	302.25	17.84	-25.0	-25.4	16.6	0.00e+00	0	44	102	49283072	10	3764
2026-01-23 16:28:07.70	302.46	17.78	-24.9	-25.3	16.7	0.00e+00	0	44	102	49283072	10	3735
2026-01-23 16:28:08.69	302.66	17.73	-24.9	-25.3	16.7	0.00e+00	0	44	102	49283072	10	3735
2026-01-23 16:28:09.70	302.87	17.67	-24.9	-25.2	16.7	0.00e+00	0	44	102	49283072	10	3725
2026-01-23 16:28:10.71	303.07	17.61	-25.0	-25.5	16.5	0.00e+00	0	44	102	49283072	10	3795
2026-01-23 16:28:11.72	303.28	17.56	-25.0	-25.5	16.6	0.00e+00	0	44	102	49283072	10	3782
2026-01-23 16:28:12.72	303.48	17.50	-25.0	-25.5	16.6	0.00e+00	0	44	102	49283072	10	3790
2026-01-23 16:28:13.72	303.68	17.44	-25.1	-25.5	16.5	0.00e+00	0	44	102	49283072	10	3800
2026-01-23 16:28:14.73	303.89	17.39	-25.0	-25.3	16.6	0.00e+00	0	44	102	49283072	10	3751
2026-01-23 16:28:15.73	304.09	17.33	-24.9	-25.2	16.7	0.00e+00	0	44	102	49283072	10	3723
2026-01-23 16:28:16.73	304.29	17.27	-24.9	-25.1	16.7	0.00e+00	0	44	102	49283072	10	3699
2026-01-23 16:28:17.74	304.49	17.22	-24.9	-25.2	16.7	0.00e+00	0	44	102	49283072	10	3724
2026-01-23 16:28:18.74	304.69	17.16	-24.8	-25.1	16.7	0.00e+00	0	44	102	49283072	10	3694
2026-01-23 16:28:19.74	304.88	17.10	-24.9	-25.1	16.7	1.10e-06	0	44	102	49283072	10	3690
2026-01-23 16:28:20.75	305.08	17.04	-24.9	-25.3	16.6	0.00e+00	0	44	102	49283072	10	3738
2026-01-23 16:28:21.75	305.28	16.98	-25.0	-25.3	16.6	0.00e+00	0	44	102	49283072	10	3752
2026-01-23 16:28:22.75	305.47	16.93	-25.0	-25.4	16.6	0.00e+00	0	44	102	49283072	10	3772
2026-01-23 16:28:23.75	305.67	16.87	-25.1	-25.6	16.5	0.00e+00	0	44	102	49283072	10	3822
2026-01-23 16:28:24.76	305.86	16.81	-25.1	-25.7	16.4	0.00e+00	0	44	102	49283072	10	3832
2026-01-23 16:28:25.77	306.06	16.75	-25.3	-26.0	16.2	0.00e+00	0	44	102	49283072	10	3911
2026-01-23 16:28:26.77	306.25	16.69	-25.3	-26.1	16.2	0.00e+00	0	44	102	49283072	10	3923
2026-01-23 16:28:27.78	306.44	16.63	-25.4	-26.3	16.1	0.00e+00	0	44	102	49283072	10	3993
2026-01-23 16:28:28.79	306.64	16.57	-25.4	-26.2	16.2	0.00e+00	0	44	102	49283072	10	3955
2026-01-23 16:28:29.79	306.83	16.51	-25.5	-26.4	16.0	0.00e+00	0	44	102	49283072	10	4005
2026-01-23 16:28:30.79	307.02	16.45	-25.4	-26.3	16.1	0.00e+00	0	44	102	49283072	10	3984
2026-01-23 16:28:31.80	307.21	16.39	-25.4	-26.3	16.1	0.00e+00	0	44	102	49283072	10	3994
2026-01-23 16:28:32.80	307.40	16.33	-25.4	-26.2	16.1	0.00e+00	0	44	102	49283072	10	3962
2026-01-23 16:28:33.80	307.58	16.27	-25.3	-26.1	16.2	0.00e+00	0	44	102	49283072	10	3942
2026-01-23 16:28:34.81	307.77	16.21	-25.4	-26.3	16.1	0.00e+00	0	44	102	49283072	10	3986
2026-01-23 16:28:35.81	307.96	16.15	-25.4	-26.2	16.1	0.00e+00	0	44	102	49283072	10	3966
2026-01-23 16:28:36.81	308.14	16.09	-25.3	-26.0	16.2	0.00e+00	0	44	102	49283072	10	3919
2026-01-23 16:28:37.82	308.33	16.03	-25.2	-25.9	16.3	0.00e+00	0	44	102	49283072	10	3886
2026-01-23 16:28:38.82	308.51	15.97	-25.3	-26.0	16.2	0.00e+00	0	44	102	49283072	10	3917
2026-01-23 16:28:39.82	308.69	15.91	-25.2	-25.9	16.3	0.00e+00	0	44	102	49283072	10	3895
2026-01-23 16:28:40.83	308.88	15.85	-25.2	-25.9	16.3	0.00e+00	0	44	102	49283072	10	3893
2026-01-23 16:28:41.84	309.06	15.79	-25.4	-26.3	16.1	0.00e+00	0	44	102	49283072	10	3970
2026-01-23 16:28:42.84	309.24	15.73	-25.3	-26.0	16.2	0.00e+00	0	44	102	49283072	10	3906
2026-01-23 16:28:43.84	309.42	15.66	-25.3	-26.0	16.2	0.00e+00	0	44	102	49283072	10	3902
2026-01-23 16:28:44.84	309.60	15.60	-25.4	-26.2	16.1	1.10e-06	0	44	102	49283072	10	3951
2026-01-23 16:28:45.85	309.78	15.54	-25.5	-26.4	16.0	0.00e+00	0	44	102	49283072	10	4004
2026-01-23 16:28:46.86	309.96	15.48	-25.5	-26.5	15.9	0.00e+00	0	44	102	49283072	10	4045
2026-01-23 16:28:47.86	310.14	15.42	-25.6	-26.3	15.8	0.00e+00	0	44	102	49283072	11	3882
2026-01-23 16:28:48.86	310.32	15.36	-25.8	-26.6	15.6	0.00e+00	0	44	102	49283072	11	3957
2026-01-23 16:28:49.87	310.49	15.29	-25.8	-26.6	15.6	0.00e+00	0	44	102	49283072	11	3949
2026-01-23 16:28:50.87	310.67	15.23	-25.8	-26.6	15.7	0.00e+00	0	44	102	49283072	11	3947
2026-01-23 16:28:51.87	310.84	15.17	-25.9	-26.9	15.5	0.00e+00	0	44	102	49283072	11	4016
2026-01-23 16:28:52.87	311.02	15.11	-25.8	-26.7	15.6	1.10e-06	0	44	102	49283072	11	3969
2026-01-23 16:28:53.88	311.19	15.05	-25.8	-26.5	15.7	0.00e+00	0	44	102	49283072	11	3938
2026-01-23 16:28:54.88	311.36	14.98	-25.8	-26.6	15.6	0.00e+00	0	44	102	49283072	11	3963
2026-01-23 16:28:55.89	311.54	14.92	-25.8	-26.6	15.6	0.00e+00	0	44	102	49283072	11	3960
2026-01-23 16:28:56.89	311.71	14.86	-25.9	-26.8	15.5	0.00e+00	0	44	102	49283072	11	4003
2026-01-23 16:28:57.89	311.88	14.80	-25.8	-26.6	15.6	0.00e+00	0	44	102	49283072	11	3950
2026-01-23 16:28:58.89	312.05	14.73	-25.8	-26.7	15.5	0.00e+00	0	44	102	49283072	11	3986
2026-01-23 16:28:59.90	312.22	14.67	-25.7	-26.5	15.7	0.00e+00	0	44	102	49283072	11	3928
2026-01-23 16:29:00.90	312.38	14.61	-25.6	-26.2	15.8	0.00e+00	0	44	102	49283072	11	3859
2026-01-23 16:29:01.90	312.55	14.55	-25.7	-26.3	15.8	0.00e+00	0	44	102	49283072	11	3882
2026-01-23 16:29:02.90	312.72	14.48	-25.6	-26.2	15.9	0.00e+00	0	44	102	49283072	11	3848
2026-01-23 16:29:03.90	312.88	14.42	-25.5	-26.0	15.9	0.00e+00	0	44	102	49283072	11	3820
2026-01-23 16:29:04.91	313.05	14.36	-25.5	-26.1	15.9	0.00e+00	0	44	102	49283072	11	3823
2026-01-23 16:29:05.91	313.21	14.29	-25.5	-26.1	15.9	0.00e+00	0	44	102	49283072	11	3833
2026-01-23 16:29:06.92	313.38	14.23	-25.6	-26.3	15.8	0.00e+00	0	44	102	49283072	11	3877
2026-01-23 16:29:07.92	313.54	14.17	-25.6	-26.2	15.8	0.00e+00	0	44	102	49283072	11	3862
2026-01-23 16:29:08.92	313.71	14.10	-25.8	-26.7	15.5	0.00e+00	0	44	102	49283072	11	3972
2026-01-23 16:29:09.93	313.87	14.04	-25.9	-26.8	15.5	0.00e+00	0	44	102	49283072	11	3992
2026-01-23 16:29:10.94	314.03	13.98	-26.0	-27.0	15.4	0.00e+00	0	44	102	49283072	11	4053
2026-01-23 16:29:11.94	314.19	13.91	-26.0	-27.0	15.3	0.00e+00	0	44	102	49283072	11	4065
2026-01-23 16:29:12.94	314.35	13.85	-26.1	-26.8	15.1	0.00e+00	0	45	102	49283072	12	3890
2026-01-23 16:29:13.94	314.51	13.79	-26.2	-27.0	15.0	0.00e+00	0	44	102	49283072	12	3951
2026-01-23 16:29:14.95	314.67	13.72	-26.2	-27.0	15.0	0.00e+00	0	44	102	49283072	12	3943
2026-01-23 16:29:15.95	314.83	13.66	-26.2	-27.1	14.9	0.00e+00	0	44	102	49283072	12	3976
2026-01-23 16:29:16.95	314.99	13.60	-26.2	-27.0	15.0	0.00e+00	0	44	102	49283072	12	3945
2026-01-23 16:29:17.96	315.15	13.53	-26.1	-26.9	15.1	0.00e+00	0	44	102	49283072	12	3928
2026-01-23 16:29:18.96	315.30	13.47	-26.2	-27.1	15.0	0.00e+00	0	44	102	49283072	12	3983
2026-01-23 16:29:19.96	315.46	13.41	-26.0	-26.6	15.2	0.00e+00	0	44	102	49283072	12	3860
2026-01-23 16:29:20.96	315.61	13.34	-26.1	-26.8	15.1	0.00e+00	0	44	102	49283072	12	3904
2026-01-23 16:29:21.97	315.77	13.28	-26.3	-27.3	14.8	0.00e+00	0	44	102	49283072	12	4025
2026-01-23 16:29:22.97	315.92	13.22	-26.0	-26.5	15.2	0.00e+00	0	44	102	49283072	12	3834
2026-01-23 16:29:23.97	316.07	13.15	-25.7	-25.9	15.6	0.00e+00	0	44	102	49283072	12	3694
2026-01-23 16:29:24.97	316.22	13.09	-25.6	-25.6	15.7	0.00e+00	0	44	102	49283072	12	3627
2026-01-23 16:29:25.99	316.38	13.02	-25.6	-25.8	15.7	0.00e+00	0	44	102	49283072	12	3659
2026-01-23 16:29:27.00	316.53	12.96	-25.6	-25.8	15.6	0.00e+00	0	44	102	49283072	12	3663
2026-01-23 16:29:28.00	316.68	12.90	-25.8	-26.1	15.5	0.00e+00	0	44	102	49283072	12	3742
2026-01-23 16:29:29.00	316.83	12.83	-25.7	-26.0	15.6	0.00e+00	0	44	102	49283072	12	3706
2026-01-23 16:29:30.01	316.98	12.77	-25.6	-25.8	15.6	0.00e+00	0	44	102	49283072	12	3669
2026-01-23 16:29:31.01	317.13	12.71	-25.7	-26.0	15.5	0.00e+00	0	44	102	49283072	12	3712
2026-01-23 16:29:32.02	317.28	12.64	-25.7	-25.9	15.6	0.00e+00	0	44	102	49283072	12	3698
2026-01-23 16:29:33.02	317.43	12.58	-25.8	-26.2	15.4	0.00e+00	0	44	102	49283072	12	3755
2026-01-23 16:29:34.03	317.57	12.51	-25.8	-26.2	15.4	0.00e+00	0	44	102	49283072	12	3760
2026-01-23 16:29:35.04	317.72	12.45	-26.0	-26.6	15.2	0.00e+00	0	44	102	49283072	12	3848
2026-01-23 16:29:36.04	317.87	12.39	-26.0	-26.5	15.2	0.00e+00	0	44	102	49283072	12	3819
2026-01-23 16:29:37.05	318.01	12.32	-26.2	-27.1	14.9	0.00e+00	0	44	102	49283072	12	3978
2026-01-23 16:29:38.05	318.16	12.26	-26.2	-26.9	15.0	0.00e+00	0	44	102	49283072	12	3937
2026-01-23 16:29:39.05	318.30	12.19	-26.3	-27.4	14.8	0.00e+00	0	44	102	49283072	12	4046
2026-01-23 16:29:40.05	318.44	12.13	-26.3	-27.2	14.8	0.00e+00	0	44	102	49283072	12	4017
2026-01-23 16:29:41.05	318.58	12.07	-26.5	-27.6	14.6	0.00e+00	0	44	102	49283072	12	4115
2026-01-23 16:29:42.06	318.73	12.00	-26.5	-27.8	14.5	2.20e-06	0	44	102	49283072	12	4153
2026-01-23 16:29:43.07	318.87	11.94	-26.5	-27.7	14.6	1.10e-06	0	44	102	49283072	12	4120
2026-01-23 16:29:44.07	319.01	11.88	-26.5	-27.7	14.6	0.00e+00	0	44	102	49283072	12	4139
2026-01-23 16:29:45.07	319.15	11.81	-26.6	-27.4	14.4	0.00e+00	0	44	102	49283072	13	3954
2026-01-23 16:29:46.08	319.29	11.75	-26.7	-27.7	14.2	1.10e-06	0	44	102	49283072	13	4024
2026-01-23 16:29:47.08	319.43	11.69	-26.5	-27.3	14.5	1.10e-06	0	44	102	49283072	13	3914
2026-01-23 16:29:48.08	319.57	11.62	-26.7	-27.6	14.2	0.00e+00	0	44	102	49283072	13	4012
2026-01-23 16:29:49.09	319.71	11.56	-26.5	-27.2	14.5	1.10e-06	0	44	102	49283072	13	3909
2026-01-23 16:29:50.09	319.84	11.49	-26.3	-26.8	14.8	0.00e+00	0	44	102	49283072	13	3798
2026-01-23 16:29:51.10	319.98	11.43	-26.2	-26.6	14.8	0.00e+00	0	44	102	49283072	13	3761
2026-01-23 16:29:52.10	320.12	11.37	-26.3	-26.8	14.7	1.10e-06	0	44	102	49283072	13	3816
2026-01-23 16:29:53.11	320.25	11.30	-26.3	-26.8	14.8	0.00e+00	0	44	102	49283072	13	3799
2026-01-23 16:29:54.12	320.39	11.24	-26.2	-26.4	14.9	0.00e+00	0	44	102	49283072	13	3714
2026-01-23 16:29:55.12	320.52	11.18	-26.2	-26.6	14.9	0.00e+00	0	44	102	49283072	13	3756
2026-01-23 16:29:56.11	320.66	11.11	-26.2	-26.6	14.8	1.10e-06	0	44	102	49283072	13	3768
2026-01-23 16:29:57.12	320.79	11.05	-26.3	-26.7	14.8	0.00e+00	0	44	102	49283072	13	3780
2026-01-23 16:29:58.12	320.92	10.99	-26.4	-26.9	14.7	0.00e+00	0	44	102	49283072	13	3828
2026-01-23 16:29:59.13	321.06	10.92	-26.4	-27.0	14.6	1.10e-06	0	44	102	49283072	13	3855
2026-01-23 16:30:00.13	321.19	10.86	-26.5	-27.3	14.5	0.00e+00	0	44	102	49283072	13	3922
2026-01-23 16:30:01.14	321.32	10.80	-26.6	-27.3	14.4	0.00e+00	0	44	102	49283072	13	3940
2026-01-23 16:30:02.15	321.45	10.73	-26.6	-27.5	14.3	0.00e+00	0	44	102	49283072	13	3970
2026-01-23 16:30:03.16	321.58	10.67	-26.7	-27.7	14.2	4.50e-06	0	44	102	49283072	13	4019
2026-01-23 16:30:04.16	321.71	10.61	-26.7	-27.6	14.2	1.71e-05	0	44	102	49283072	13	4012
2026-01-23 16:30:05.16	321.84	10.54	-26.8	-28.0	14.0	4.50e-06	0	44	102	49283072	13	4107
2026-01-23 16:30:06.17	321.97	10.48	-26.8	-27.8	14.2	2.20e-06	0	44	102	49283072	13	4052
2026-01-23 16:30:07.18	322.10	10.42	-26.7	-27.7	14.1	1.10e-06	0	44	102	49283072	13	4039
2026-01-23 16:30:08.18	322.22	10.35	-26.8	-28.0	14.0	3.40e-06	0	44	102	49283072	13	4092
2026-01-23 16:30:09.19	322.35	10.29	-26.7	-27.6	14.2	2.20e-06	0	44	102	49283072	13	4015
2026-01-23 16:30:10.19	322.48	10.23	-26.6	-27.5	14.3	0.00e+00	0	44	102	49283072	13	3979
2026-01-23 16:30:11.19	322.60	10.16	-26.7	-27.6	14.2	2.20e-06	0	44	102	49283072	13	4002
2026-01-23 16:30:12.20	322.73	10.10	-26.6	-27.3	14.3	0.00e+00	0	44	102	49283072	13	3937
2026-01-23 16:30:13.20	322.85	10.04	-26.6	-27.4	14.3	0.00e+00	0	44	102	49283072	13	3964
2026-01-23 16:30:14.20	322.98	9.98	-26.7	-27.7	14.2	3.40e-06	0	44	102	49283072	13	4043
2026-01-23 16:30:15.21	323.10	9.91	-26.6	-27.5	14.3	2.20e-06	0	44	102	49283072	13	3977
2026-01-23 16:30:16.21	323.23	9.85	-26.6	-27.5	14.3	0.00e+00	0	44	102	49283072	13	3993
2026-01-23 16:30:17.21	323.35	9.79	-26.6	-27.4	14.3	1.10e-06	0	44	102	49283072	13	3964
2026-01-23 16:30:18.21	323.47	9.73	-26.6	-27.5	14.2	2.20e-06	0	44	102	49283072	13	3995
2026-01-23 16:30:19.21	323.59	9.66	-26.8	-28.0	14.0	1.10e-06	0	44	102	49283072	13	4103
2026-01-23 16:30:20.22	323.71	9.60	-26.7	-27.7	14.1	2.20e-06	0	44	102	49283072	13	4034
2026-01-23 16:30:21.22	323.83	9.54	-26.8	-28.0	14.0	3.40e-06	0	44	102	49283072	13	4101
2026-01-23 16:30:22.23	323.95	9.48	-26.9	-28.0	13.9	9.10e-06	0	44	102	49283072	13	4116
2026-01-23 16:30:23.24	324.07	9.41	-26.7	-27.6	14.2	0.00e+00	0	44	102	49283072	13	4010
2026-01-23 16:30:24.24	324.19	9.35	-26.7	-27.6	14.2	1.10e-06	0	44	102	49283072	13	4019
2026-01-23 16:30:25.24	324.31	9.29	-26.8	-27.8	14.1	0.00e+00	0	44	102	49283072	13	4069
2026-01-23 16:30:26.24	324.43	9.23	-26.8	-27.8	14.0	3.40e-06	0	44	102	49283072	13	4065
2026-01-23 16:30:27.25	324.55	9.16	-26.7	-27.6	14.2	3.40e-06	0	44	102	49283072	13	3996
2026-01-23 16:30:28.25	324.67	9.10	-26.6	-27.5	14.3	0.00e+00	0	44	102	49283072	13	3973
2026-01-23 16:30:29.26	324.78	9.04	-26.7	-27.7	14.1	3.40e-06	0	44	102	49283072	13	4035
2026-01-23 16:30:30.26	324.90	8.98	-26.6	-27.6	14.2	2.20e-06	0	44	102	49283072	13	3997
2026-01-23 16:30:31.26	325.01	8.92	-26.7	-27.7	14.1	5.70e-06	0	44	102	49283072	13	4027
2026-01-23 16:30:32.26	325.13	8.86	-26.7	-27.7	14.1	1.10e-06	0	44	102	49283072	13	4035
2026-01-23 16:30:33.27	325.25	8.79	-26.9	-28.0	13.9	8.00e-06	0	44	102	49283072	13	4118
2026-01-23 16:30:34.27	325.36	8.73	-27.0	-28.3	13.7	6.80e-06	0	44	102	49283072	13	4193
2026-01-23 16:30:35.28	325.47	8.67	-26.8	-27.9	13.9	4.50e-06	0	44	102	49283072	13	4094
2026-01-23 16:30:36.29	325.59	8.61	-26.9	-28.0	13.9	5.70e-06	0	44	102	49283072	13	4122
2026-01-23 16:30:37.30	325.70	8.55	-26.9	-28.2	13.8	8.00e-06	0	44	102	49283072	13	4160
2026-01-23 16:30:38.31	325.82	8.48	-27.0	-28.3	13.8	4.50e-06	0	44	102	49283072	13	4193
2026-01-23 16:30:39.31	325.93	8.42	-27.0	-28.3	13.7	1.10e-06	0	44	102	49283072	13	4200
2026-01-23 16:30:40.31	326.04	8.36	-27.0	-28.3	13.7	1.14e-05	0	44	102	49283072	13	4201
2026-01-23 16:30:41.31	326.15	8.30	-27.0	-28.5	13.6	1.60e-05	0	44	102	49283072	13	4247
2026-01-23 16:30:42.32	326.26	8.24	-27.1	-28.0	13.6	5.70e-06	0	44	102	49283072	14	4009
2026-01-23 16:30:43.32	326.37	8.18	-27.2	-28.4	13.4	1.94e-05	0	44	102	49283072	14	4108
2026-01-23 16:30:44.33	326.48	8.12	-27.2	-28.2	13.5	1.25e-05	0	44	102	49283072	14	4073
2026-01-23 16:30:45.33	326.59	8.06	-27.3	-28.5	13.3	2.17e-05	0	44	102	49283072	14	4153
2026-01-23 16:30:46.34	326.70	7.99	-27.2	-28.3	13.4	1.25e-05	0	44	102	49283072	14	4103
2026-01-23 16:30:47.35	326.81	7.93	-27.3	-28.5	13.3	2.28e-05	0	44	102	49283072	14	4153
2026-01-23 16:30:48.35	326.92	7.87	-27.2	-28.4	13.4	2.74e-05	0	44	102	49283072	14	4114
2026-01-23 16:30:49.35	327.03	7.81	-27.2	-28.4	13.3	2.28e-05	0	44	102	49283072	14	4117
2026-01-23 16:30:50.35	327.13	7.75	-27.2	-28.4	13.3	2.17e-05	0	44	102	49283072	14	4130
2026-01-23 16:30:51.36	327.24	7.69	-27.2	-28.3	13.4	1.94e-05	0	44	102	49283072	14	4079
2026-01-23 16:30:52.37	327.35	7.63	-27.3	-28.6	13.2	2.28e-05	0	44	102	49283072	14	4165
2026-01-23 16:30:53.37	327.45	7.57	-27.3	-28.5	13.2	3.54e-05	0	44	102	49283072	14	4150
2026-01-23 16:30:54.38	327.56	7.51	-27.1	-28.2	13.4	1.02e-05	0	44	102	49283072	14	4063
2026-01-23 16:30:55.38	327.67	7.45	-27.1	-28.1	13.5	2.28e-05	0	44	102	49283072	14	4037
2026-01-23 16:30:56.38	327.77	7.39	-27.1	-28.1	13.5	6.80e-06	0	44	102	49283072	14	4033
2026-01-23 16:30:57.39	327.88	7.33	-27.2	-28.3	13.4	1.02e-05	0	44	102	49283072	14	4081
2026-01-23 16:30:58.39	327.98	7.27	-27.1	-28.0	13.5	1.37e-05	0	44	102	49283072	14	4022
2026-01-23 16:30:59.40	328.08	7.21	-27.1	-28.1	13.4	1.83e-05	0	44	102	49283072	14	4051
2026-01-23 16:31:00.41	328.19	7.15	-27.5	-28.9	13.0	3.31e-05	0	44	102	49283072	14	4256
2026-01-23 16:31:01.42	328.29	7.09	-32.8	-39.8	4.3	1.81e-03	0	44	102	49283072	25	8046
2026-01-23 16:31:02.42	328.39	7.03	-33.7	-43.3	3.8	8.46e-01	0	44	104	49283072	27	10836
2026-01-23 16:31:03.43	328.50	6.97	-34.0	-43.8	3.8	8.48e-01	0	44	104	49283072	27	11204

#Closed at: 2026-01-23 16:31:03
#Recorded file [49 MB]: D:/data/31010_260123_192116.dat