passes_logs/2026/01/23/R2M6_AANII_01/R2M6_AANII_01__20260123_081008_NOAA_21_JPSS-2_rec.log

#Pass ID: 20260123_081008_NOAA 21 (JPSS-2)
#Satellite: NOAA 21 (JPSS-2)
#Configuration: NOAA 21
#almurnet v.1.7.20240730
#Start time: 2026-01-23 08:10:08

#Version: 2.2.20231116
#Station: R2M6_AANII_01
#Location: 30.233357 lon 59.946436 lat
#TLE: 1 54234U 22150A   26022.41365820  .00000211  00000+0  12084-3 0  9990
#TLE: 2 54234  98.7507 323.2240 0000658 234.5287 125.5828 14.19537645165864

#Time	Az	El	Level	Level2	SNR	BER	BlckErr	Temp	State	Recorded	gain1	gain2
2026-01-23 08:10:08.32	93.48	6.99	-31.4	-43.8	3.8	1.49e+00	0	41	0	0	22	14854
2026-01-23 08:10:09.32	93.38	7.06	-31.4	-43.7	3.8	1.49e+00	0	41	104	0	22	14776
2026-01-23 08:10:10.32	93.28	7.12	-31.4	-43.5	3.8	1.49e+00	0	41	104	0	22	14514
2026-01-23 08:10:11.33	93.17	7.18	-31.3	-43.3	3.8	1.49e+00	0	41	104	0	22	14299
2026-01-23 08:10:12.33	93.07	7.24	-31.3	-43.2	3.8	1.49e+00	0	41	104	0	22	14282
2026-01-23 08:10:13.33	92.97	7.30	-31.3	-43.2	3.8	1.49e+00	0	41	104	0	22	14173
2026-01-23 08:10:14.34	92.87	7.36	-31.3	-43.1	3.8	1.49e+00	0	41	104	0	22	14037
2026-01-23 08:10:15.34	92.76	7.42	-31.4	-43.0	3.8	1.49e+00	0	41	104	0	22	13686
2026-01-23 08:10:16.34	92.66	7.48	-31.4	-42.4	3.8	1.49e+00	0	41	104	0	22	12774
2026-01-23 08:10:17.34	92.55	7.54	-31.4	-41.3	3.9	1.49e+00	0	41	104	0	22	11298
2026-01-23 08:10:18.34	92.45	7.60	-31.4	-39.8	4.5	1.43e+00	0	41	104	0	22	9408
2026-01-23 08:10:19.35	92.34	7.67	-31.3	-38.3	5.3	5.89e-01	0	41	0	0	22	8018
2026-01-23 08:10:20.36	92.24	7.73	-31.1	-36.7	6.5	3.24e-01	0	41	102	1048576	22	6854
2026-01-23 08:10:21.37	92.13	7.79	-30.7	-35.0	7.8	1.15e-01	0	41	102	1048576	22	5902
2026-01-23 08:10:22.37	92.02	7.85	-30.5	-33.9	8.8	4.20e-02	0	42	102	1048576	22	5376
2026-01-23 08:10:23.38	91.91	7.91	-30.3	-33.9	9.3	1.79e-02	0	42	102	1048576	21	5429
2026-01-23 08:10:24.38	91.81	7.97	-30.1	-33.7	9.8	1.25e-02	0	42	102	1048576	20	5463
2026-01-23 08:10:25.39	91.70	8.04	-30.1	-33.6	9.8	7.77e-03	0	41	102	1048576	20	5423
2026-01-23 08:10:26.39	91.59	8.10	-30.3	-34.2	9.5	1.68e-02	0	41	102	1048576	20	5638
2026-01-23 08:10:27.39	91.48	8.16	-29.9	-33.1	10.3	6.23e-03	0	42	102	1048576	20	5179
2026-01-23 08:10:28.40	91.37	8.22	-29.6	-32.1	11.0	2.27e-03	0	42	102	1048576	20	4823
2026-01-23 08:10:29.40	91.26	8.28	-29.0	-31.6	11.4	1.05e-03	0	42	102	1048576	19	4896
2026-01-23 08:10:30.41	91.15	8.35	-29.1	-31.3	11.9	3.97e-04	0	42	102	1048576	19	4624
2026-01-23 08:10:31.41	91.04	8.41	-28.9	-31.2	11.9	2.10e-04	0	42	102	1048576	18	4710
2026-01-23 08:10:32.42	90.92	8.47	-28.8	-30.9	12.3	1.33e-04	0	42	102	1048576	18	4627
2026-01-23 08:10:33.42	90.81	8.53	-28.8	-30.9	12.5	1.09e-04	0	42	102	1048576	18	4611
2026-01-23 08:10:34.43	90.70	8.59	-28.8	-31.6	12.4	1.18e-04	0	42	102	1048576	17	4975
2026-01-23 08:10:35.43	90.59	8.66	-29.0	-31.4	12.2	2.72e-04	0	42	102	1048576	18	4777
2026-01-23 08:10:36.44	90.47	8.72	-28.8	-31.1	12.5	1.55e-04	0	42	102	1048576	18	4671
2026-01-23 08:10:37.44	90.36	8.78	-28.9	-31.3	12.4	6.96e-04	0	42	102	1048576	18	4721
2026-01-23 08:10:38.44	90.24	8.84	-28.7	-31.3	12.7	9.91e-05	0	42	102	1048576	17	4846
2026-01-23 08:10:39.45	90.13	8.91	-28.9	-31.7	12.4	1.16e-04	0	42	102	1048576	17	4986
2026-01-23 08:10:40.45	90.01	8.97	-28.8	-31.5	12.6	1.15e-04	0	42	102	1048576	17	4905
2026-01-23 08:10:41.45	89.90	9.03	-28.6	-31.0	12.9	3.71e-04	0	42	102	1048576	17	4751
2026-01-23 08:10:42.45	89.78	9.09	-28.6	-31.0	13.0	2.67e-05	0	42	102	1048576	17	4723
2026-01-23 08:10:43.46	89.66	9.16	-28.6	-30.8	13.0	3.81e-05	0	42	102	1048576	17	4687
2026-01-23 08:10:44.46	89.55	9.22	-28.5	-30.8	13.1	1.52e-05	0	42	102	1048576	17	4657
2026-01-23 08:10:45.46	89.43	9.28	-28.6	-30.9	13.1	2.89e-05	0	42	102	1048576	17	4692
2026-01-23 08:10:46.47	89.31	9.34	-28.5	-30.7	13.2	2.44e-05	0	42	102	1048576	17	4642
2026-01-23 08:10:47.47	89.19	9.41	-28.6	-31.0	13.0	3.12e-05	0	42	102	1048576	17	4715
2026-01-23 08:10:48.48	89.07	9.47	-28.6	-30.9	13.1	3.50e-05	0	42	102	1048576	17	4694
2026-01-23 08:10:49.48	88.95	9.53	-28.5	-30.8	13.2	2.05e-05	0	42	102	1048576	17	4649
2026-01-23 08:10:50.49	88.83	9.59	-28.6	-30.8	13.2	1.90e-05	0	42	102	1048576	17	4671
2026-01-23 08:10:51.49	88.71	9.66	-28.6	-30.8	13.2	3.20e-05	0	42	102	1048576	17	4656
2026-01-23 08:10:52.50	88.58	9.72	-28.5	-30.6	13.3	2.82e-05	0	42	102	1048576	17	4589
2026-01-23 08:10:53.50	88.46	9.78	-28.5	-30.6	13.4	5.87e-05	0	42	102	1048576	17	4576
2026-01-23 08:10:54.51	88.34	9.85	-28.5	-30.5	13.4	1.67e-05	0	42	102	1048576	17	4564
2026-01-23 08:10:55.52	88.21	9.91	-28.4	-30.3	13.6	6.80e-06	0	42	102	1048576	17	4499
2026-01-23 08:10:56.52	88.09	9.97	-28.4	-30.3	13.6	1.49e-04	0	42	102	1048576	17	4489
2026-01-23 08:10:57.52	87.97	10.04	-28.3	-30.2	13.6	1.37e-05	0	42	102	1048576	17	4472
2026-01-23 08:10:58.53	87.84	10.10	-28.4	-30.3	13.6	3.21e-04	0	42	102	1048576	17	4493
2026-01-23 08:10:59.54	87.71	10.16	-28.2	-29.9	13.9	4.50e-06	0	42	102	1048576	17	4369
2026-01-23 08:11:00.55	87.59	10.23	-28.1	-29.7	14.0	3.80e-06	0	42	102	1048576	17	4314
2026-01-23 08:11:01.55	87.46	10.29	-28.2	-29.9	13.8	4.09e-04	0	42	102	1048576	17	4372
2026-01-23 08:11:02.55	87.33	10.35	-28.2	-29.9	13.8	4.66e-04	0	42	102	1048576	17	4386
2026-01-23 08:11:03.56	87.20	10.42	-28.0	-29.3	14.2	3.00e-06	0	42	102	1048576	17	4210
2026-01-23 08:11:04.56	87.08	10.48	-28.0	-29.8	14.2	7.00e-07	0	42	102	1048576	16	4462
2026-01-23 08:11:05.56	86.95	10.54	-28.0	-29.8	14.2	0.00e+00	0	42	102	1048576	16	4455
2026-01-23 08:11:06.56	86.82	10.60	-28.0	-29.9	14.1	1.50e-06	0	42	102	1048576	16	4492
2026-01-23 08:11:07.56	86.69	10.67	-28.0	-30.0	14.1	3.33e-04	0	42	102	1048576	16	4507
2026-01-23 08:11:08.57	86.56	10.73	-28.0	-30.0	14.1	2.80e-04	0	43	102	1048576	16	4508
2026-01-23 08:11:09.58	86.42	10.80	-28.0	-30.0	14.2	7.00e-07	0	42	102	1048576	16	4493
2026-01-23 08:11:10.58	86.29	10.86	-28.1	-30.0	14.1	1.50e-06	0	43	102	1048576	16	4512
2026-01-23 08:11:11.58	86.16	10.92	-28.2	-30.3	14.0	3.00e-06	0	42	102	1048576	16	4595
2026-01-23 08:11:12.58	86.03	10.98	-28.2	-30.4	14.0	3.80e-06	0	42	102	1048576	16	4607
2026-01-23 08:11:13.58	85.90	11.05	-28.2	-30.3	14.0	2.20e-06	0	42	102	1048576	16	4593
2026-01-23 08:11:14.58	85.76	11.11	-28.2	-30.4	13.9	2.20e-06	0	42	102	1048576	16	4626
2026-01-23 08:11:15.59	85.63	11.17	-28.3	-30.7	13.7	5.30e-06	0	42	102	1048576	16	4715
2026-01-23 08:11:16.59	85.49	11.24	-28.4	-30.7	13.7	6.10e-06	0	42	102	1048576	16	4729
2026-01-23 08:11:17.59	85.36	11.30	-28.3	-30.5	13.8	6.10e-06	0	43	102	1048576	16	4667
2026-01-23 08:11:18.59	85.22	11.36	-28.3	-30.6	13.8	4.50e-06	0	43	102	1048576	16	4693
2026-01-23 08:11:19.59	85.08	11.43	-28.4	-30.8	13.7	5.30e-06	0	42	102	1048576	16	4741
2026-01-23 08:11:20.59	84.95	11.49	-28.2	-30.4	13.9	4.50e-06	0	43	102	1048576	16	4644
2026-01-23 08:11:21.59	84.81	11.55	-28.0	-30.0	14.2	2.20e-06	0	43	102	1048576	16	4505
2026-01-23 08:11:22.60	84.67	11.62	-27.9	-29.6	14.4	1.50e-06	0	43	102	1048576	16	4398
2026-01-23 08:11:23.60	84.53	11.68	-27.9	-29.6	14.4	7.00e-07	0	43	102	1048576	16	4386
2026-01-23 08:11:24.61	84.39	11.74	-27.9	-29.6	14.4	1.50e-06	0	42	102	1048576	16	4374
2026-01-23 08:11:25.61	84.25	11.81	-27.9	-29.6	14.5	0.00e+00	0	43	102	1048576	16	4377
2026-01-23 08:11:26.62	84.10	11.87	-28.0	-29.8	14.3	7.00e-07	0	43	102	1048576	16	4446
2026-01-23 08:11:27.62	83.96	11.94	-28.1	-30.0	14.2	1.50e-06	0	43	102	1048576	16	4510
2026-01-23 08:11:28.63	83.82	12.00	-28.0	-29.9	14.3	7.60e-06	0	43	102	1048576	16	4473
2026-01-23 08:11:29.63	83.68	12.06	-28.1	-30.2	14.1	3.80e-06	0	43	102	1048576	16	4555
2026-01-23 08:11:30.63	83.53	12.13	-28.1	-30.0	14.3	7.00e-07	0	43	102	1048576	16	4504
2026-01-23 08:11:31.63	83.39	12.19	-28.0	-29.9	14.3	6.10e-06	0	43	102	1048576	16	4485
2026-01-23 08:11:32.63	83.24	12.25	-28.1	-30.1	14.2	7.00e-07	0	43	102	1048576	16	4544
2026-01-23 08:11:33.64	83.10	12.32	-28.0	-29.8	14.4	3.00e-06	0	43	102	1048576	16	4454
2026-01-23 08:11:34.64	82.95	12.38	-27.9	-29.6	14.5	3.80e-06	0	43	102	1048576	16	4383
2026-01-23 08:11:35.64	82.80	12.44	-27.8	-29.4	14.6	0.00e+00	0	43	102	1048576	16	4323
2026-01-23 08:11:36.64	82.66	12.50	-27.8	-29.4	14.6	0.00e+00	0	43	102	1048576	16	4320
2026-01-23 08:11:37.65	82.51	12.57	-27.7	-29.2	14.7	7.00e-07	0	43	102	1048576	16	4271
2026-01-23 08:11:38.66	82.36	12.63	-27.7	-29.2	14.7	0.00e+00	0	43	102	1048576	16	4264
2026-01-23 08:11:39.66	82.21	12.69	-27.8	-29.3	14.7	0.00e+00	0	43	102	1048576	16	4305
2026-01-23 08:11:40.67	82.06	12.76	-27.9	-29.5	14.6	0.00e+00	0	43	102	1048576	16	4347
2026-01-23 08:11:41.67	81.91	12.82	-27.9	-29.7	14.5	7.00e-07	0	43	102	1048576	16	4411
2026-01-23 08:11:42.68	81.75	12.88	-28.0	-29.8	14.4	0.00e+00	0	43	102	1048576	16	4448
2026-01-23 08:11:43.68	81.60	12.95	-28.0	-30.0	14.3	0.00e+00	0	43	102	1048576	16	4486
2026-01-23 08:11:44.68	81.45	13.01	-28.1	-30.1	14.3	2.20e-06	0	43	102	1048576	16	4524
2026-01-23 08:11:45.69	81.29	13.07	-28.0	-30.0	14.4	7.00e-07	0	43	102	1048576	16	4491
2026-01-23 08:11:46.69	81.14	13.14	-28.2	-30.2	14.2	0.00e+00	0	43	102	1048576	16	4571
2026-01-23 08:11:47.69	80.99	13.20	-28.2	-30.2	14.2	1.50e-06	0	43	102	1048576	16	4560
2026-01-23 08:11:48.70	80.83	13.26	-28.0	-29.8	14.4	7.00e-07	0	43	102	1048576	16	4444
2026-01-23 08:11:49.70	80.67	13.32	-27.9	-29.7	14.5	7.00e-07	0	43	102	1048576	16	4394
2026-01-23 08:11:50.70	80.52	13.39	-28.0	-29.7	14.5	0.00e+00	0	43	102	1048576	16	4423
2026-01-23 08:11:51.71	80.36	13.45	-27.9	-29.7	14.5	0.00e+00	0	43	102	1048576	16	4398
2026-01-23 08:11:52.71	80.20	13.51	-28.0	-29.8	14.5	7.00e-07	0	43	102	1048576	16	4426
2026-01-23 08:11:53.72	80.04	13.58	-28.0	-29.8	14.5	0.00e+00	0	43	102	1048576	16	4440
2026-01-23 08:11:54.71	79.88	13.64	-28.1	-30.0	14.4	1.50e-06	0	43	102	1048576	16	4500
2026-01-23 08:11:55.72	79.72	13.70	-28.0	-29.9	14.4	7.00e-07	0	43	102	1048576	16	4465
2026-01-23 08:11:56.72	79.56	13.76	-28.0	-29.7	14.5	0.00e+00	0	43	102	1048576	16	4407
2026-01-23 08:11:57.73	79.40	13.82	-27.9	-29.6	14.6	7.00e-07	0	43	102	1048576	16	4371
2026-01-23 08:11:58.73	79.24	13.89	-28.0	-29.8	14.5	0.00e+00	0	43	102	1048576	16	4427
2026-01-23 08:11:59.74	79.07	13.95	-27.8	-29.4	14.8	0.00e+00	0	43	102	1048576	16	4316
2026-01-23 08:12:00.74	78.91	14.01	-27.8	-29.2	14.9	0.00e+00	0	43	102	1048576	16	4263
2026-01-23 08:12:01.74	78.74	14.07	-27.9	-29.6	14.7	7.00e-07	0	43	102	1048576	16	4362
2026-01-23 08:12:02.74	78.58	14.13	-27.8	-29.4	14.7	0.00e+00	0	43	102	1048576	16	4323
2026-01-23 08:12:03.74	78.41	14.20	-27.8	-29.3	14.8	0.00e+00	0	43	102	1048576	16	4281
2026-01-23 08:12:04.75	78.25	14.26	-27.9	-29.5	14.7	0.00e+00	0	43	102	1048576	16	4348
2026-01-23 08:12:05.76	78.08	14.32	-27.9	-29.5	14.7	0.00e+00	0	43	102	1048576	16	4349
2026-01-23 08:12:06.76	77.91	14.38	-28.0	-29.8	14.6	0.00e+00	0	43	102	1048576	16	4440
2026-01-23 08:12:07.77	77.74	14.44	-27.9	-29.5	14.7	0.00e+00	0	43	102	1048576	16	4342
2026-01-23 08:12:08.77	77.57	14.50	-27.8	-29.2	14.9	0.00e+00	0	43	102	1048576	16	4262
2026-01-23 08:12:09.77	77.40	14.57	-27.8	-29.2	14.9	0.00e+00	0	43	102	1048576	16	4263
2026-01-23 08:12:10.77	77.23	14.63	-27.8	-29.4	14.8	0.00e+00	0	43	102	1048576	16	4306
2026-01-23 08:12:11.77	77.06	14.69	-27.8	-29.4	14.8	0.00e+00	0	43	102	1048576	16	4311
2026-01-23 08:12:12.77	76.89	14.75	-27.9	-29.4	14.8	7.00e-07	0	43	102	1048576	16	4325
2026-01-23 08:12:13.78	76.71	14.81	-28.0	-29.7	14.6	0.00e+00	0	43	102	1048576	16	4398
2026-01-23 08:12:14.79	76.54	14.87	-27.9	-29.7	14.7	7.00e-07	0	43	102	1048576	16	4387
2026-01-23 08:12:15.79	76.37	14.93	-28.0	-29.7	14.6	0.00e+00	0	43	102	1048576	16	4407
2026-01-23 08:12:16.80	76.19	14.99	-28.0	-29.8	14.5	7.00e-07	0	43	102	1048576	16	4438
2026-01-23 08:12:17.81	76.01	15.05	-28.1	-30.0	14.5	0.00e+00	0	43	102	1048576	16	4480
2026-01-23 08:12:18.81	75.84	15.11	-28.1	-29.9	14.5	0.00e+00	0	43	102	1048576	16	4469
2026-01-23 08:12:19.81	75.66	15.17	-28.1	-29.9	14.6	0.00e+00	0	43	102	1048576	16	4458
2026-01-23 08:12:20.81	75.48	15.23	-27.9	-29.7	14.7	7.00e-07	0	43	102	1048576	16	4387
2026-01-23 08:12:21.81	75.30	15.29	-28.0	-29.9	14.6	1.50e-06	0	43	102	1048576	16	4446
2026-01-23 08:12:22.82	75.12	15.35	-28.0	-29.8	14.6	0.00e+00	0	43	102	1048576	16	4419
2026-01-23 08:12:23.82	74.94	15.41	-28.0	-29.8	14.7	7.00e-07	0	43	102	1048576	16	4413
2026-01-23 08:12:24.83	74.76	15.47	-28.0	-29.8	14.6	0.00e+00	0	43	102	1048576	16	4420
2026-01-23 08:12:25.84	74.58	15.53	-28.0	-29.7	14.7	7.00e-07	0	43	102	1048576	16	4406
2026-01-23 08:12:26.84	74.40	15.59	-28.0	-29.8	14.6	1.50e-06	0	43	102	1048576	16	4436
2026-01-23 08:12:27.85	74.21	15.65	-28.1	-30.1	14.4	3.00e-06	0	43	102	1048576	16	4506
2026-01-23 08:12:28.85	74.03	15.71	-28.0	-29.9	14.6	0.00e+00	0	43	102	1048576	16	4440
2026-01-23 08:12:29.86	73.84	15.77	-28.0	-29.8	14.7	0.00e+00	0	43	102	1048576	16	4421
2026-01-23 08:12:30.86	73.66	15.83	-28.0	-29.7	14.7	3.80e-06	0	43	102	1048576	16	4405
2026-01-23 08:12:31.86	73.47	15.88	-28.1	-29.9	14.6	7.00e-07	0	43	102	1048576	16	4459
2026-01-23 08:12:32.87	73.29	15.94	-28.1	-30.1	14.5	0.00e+00	0	43	102	1048576	16	4512
2026-01-23 08:12:33.87	73.10	16.00	-28.1	-30.1	14.5	1.50e-06	0	43	102	1048576	16	4512
2026-01-23 08:12:34.88	72.91	16.06	-28.2	-30.3	14.3	0.00e+00	0	43	102	1048576	16	4566
2026-01-23 08:12:35.88	72.72	16.12	-28.1	-30.1	14.5	7.00e-07	0	43	102	1048576	16	4504
2026-01-23 08:12:36.88	72.53	16.17	-28.1	-30.1	14.5	3.80e-06	0	43	102	1048576	16	4505
2026-01-23 08:12:37.88	72.34	16.23	-28.2	-30.2	14.4	0.00e+00	0	43	102	1048576	16	4544
2026-01-23 08:12:38.88	72.15	16.29	-28.1	-30.0	14.6	0.00e+00	0	43	102	1048576	16	4477
2026-01-23 08:12:39.88	71.96	16.34	-28.0	-29.9	14.6	7.00e-07	0	43	102	1048576	16	4441
2026-01-23 08:12:40.89	71.77	16.40	-28.1	-30.1	14.5	0.00e+00	0	43	102	1048576	16	4508
2026-01-23 08:12:41.89	71.57	16.46	-28.1	-30.0	14.5	0.00e+00	0	43	102	1048576	16	4491
2026-01-23 08:12:42.90	71.38	16.51	-28.1	-30.1	14.5	1.50e-06	0	43	102	1048576	16	4498
2026-01-23 08:12:43.89	71.19	16.57	-28.1	-30.0	14.5	0.00e+00	0	43	102	1048576	16	4493
2026-01-23 08:12:44.91	70.99	16.63	-28.0	-29.8	14.7	7.00e-07	0	43	102	1048576	16	4425
2026-01-23 08:12:45.91	70.79	16.68	-28.1	-29.9	14.6	0.00e+00	0	43	102	1048576	16	4449
2026-01-23 08:12:46.92	70.59	16.74	-28.2	-30.2	14.4	1.50e-06	0	43	102	1048576	16	4553
2026-01-23 08:12:47.91	70.40	16.79	-28.0	-29.8	14.7	7.00e-07	0	43	102	1048576	16	4432
2026-01-23 08:12:48.92	70.20	16.85	-27.9	-29.4	14.9	0.00e+00	0	43	102	1048576	16	4318
2026-01-23 08:12:49.92	70.00	16.90	-27.8	-29.4	15.0	0.00e+00	0	43	102	1048576	16	4294
2026-01-23 08:12:50.93	69.80	16.96	-27.9	-29.4	14.9	0.00e+00	0	43	102	1048576	16	4307
2026-01-23 08:12:51.93	69.60	17.01	-27.7	-29.1	15.1	0.00e+00	0	43	102	1048576	16	4229
2026-01-23 08:12:52.93	69.40	17.06	-27.6	-28.9	15.2	0.00e+00	0	43	102	1048576	16	4179
2026-01-23 08:12:53.94	69.19	17.12	-27.6	-28.8	15.3	0.00e+00	0	43	102	1048576	16	4130
2026-01-23 08:12:54.95	68.99	17.17	-27.7	-29.0	15.2	0.00e+00	0	43	102	1048576	16	4187
2026-01-23 08:12:55.95	68.79	17.23	-27.5	-28.7	15.3	0.00e+00	0	43	102	1048576	16	4110
2026-01-23 08:12:56.96	68.58	17.28	-27.4	-28.3	15.5	0.00e+00	0	43	102	1048576	16	4007
2026-01-23 08:12:57.97	68.37	17.33	-27.4	-28.4	15.5	0.00e+00	0	43	102	1048576	16	4025
2026-01-23 08:12:58.97	68.17	17.38	-27.5	-28.6	15.4	0.00e+00	0	43	102	1048576	16	4094
2026-01-23 08:12:59.98	67.96	17.44	-27.5	-28.6	15.4	0.00e+00	0	43	102	1048576	16	4087
2026-01-23 08:13:00.98	67.75	17.49	-27.5	-28.6	15.4	0.00e+00	0	43	102	1048576	16	4098
2026-01-23 08:13:01.99	67.55	17.54	-27.7	-29.0	15.2	0.00e+00	0	43	102	1048576	16	4185
2026-01-23 08:13:02.99	67.34	17.59	-27.6	-28.8	15.3	0.00e+00	0	43	102	1048576	16	4142
2026-01-23 08:13:03.99	67.13	17.64	-27.6	-28.9	15.2	0.00e+00	0	43	102	1048576	16	4162
2026-01-23 08:13:04.99	66.92	17.69	-27.6	-28.9	15.2	0.00e+00	0	43	102	1048576	16	4168
2026-01-23 08:13:06.00	66.71	17.74	-27.7	-29.0	15.2	0.00e+00	0	43	102	1048576	16	4201
2026-01-23 08:13:07.01	66.49	17.80	-27.8	-29.2	15.1	0.00e+00	0	43	102	1048576	16	4244
2026-01-23 08:13:08.02	66.28	17.85	-27.8	-29.3	15.0	7.00e-07	0	43	102	1048576	16	4273
2026-01-23 08:13:09.03	66.07	17.90	-27.8	-29.2	15.0	0.00e+00	0	43	102	1048576	16	4252
2026-01-23 08:13:10.03	65.85	17.94	-27.8	-29.3	15.0	0.00e+00	0	43	102	1048576	16	4282
2026-01-23 08:13:11.03	65.64	17.99	-27.9	-29.5	14.9	0.00e+00	0	43	102	1048576	16	4331
2026-01-23 08:13:12.03	65.43	18.04	-27.7	-29.0	15.2	0.00e+00	0	43	102	1048576	16	4194
2026-01-23 08:13:13.03	65.21	18.09	-27.6	-28.8	15.4	0.00e+00	0	43	102	1048576	16	4123
2026-01-23 08:13:14.03	64.99	18.14	-27.5	-28.5	15.5	0.00e+00	0	43	102	1048576	16	4066
2026-01-23 08:13:15.04	64.78	18.19	-27.5	-28.6	15.4	0.00e+00	0	44	102	1048576	16	4074
2026-01-23 08:13:16.04	64.56	18.23	-27.3	-28.2	15.7	0.00e+00	0	43	102	1048576	16	3973
2026-01-23 08:13:17.05	64.34	18.28	-27.5	-28.6	15.5	0.00e+00	0	43	102	1048576	16	4075
2026-01-23 08:13:18.06	64.12	18.33	-27.3	-28.2	15.7	0.00e+00	0	43	102	1048576	16	3964
2026-01-23 08:13:19.06	63.90	18.37	-27.1	-28.3	15.7	0.00e+00	0	43	102	1048576	15	4110
2026-01-23 08:13:20.07	63.68	18.42	-27.2	-28.5	15.6	0.00e+00	0	43	102	1048576	15	4160
2026-01-23 08:13:21.07	63.46	18.47	-27.1	-28.2	15.8	0.00e+00	0	43	102	1048576	15	4081
2026-01-23 08:13:22.08	63.23	18.51	-27.1	-28.2	15.8	0.00e+00	0	43	102	1048576	15	4075
2026-01-23 08:13:23.08	63.01	18.56	-27.0	-27.9	15.9	0.00e+00	0	43	102	1048576	15	4020
2026-01-23 08:13:24.09	62.79	18.60	-26.9	-27.9	16.0	0.00e+00	0	43	102	1048576	15	4001
2026-01-23 08:13:25.09	62.56	18.64	-27.1	-28.2	15.8	0.00e+00	0	43	102	1048576	15	4076
2026-01-23 08:13:26.10	62.34	18.69	-27.1	-28.1	15.8	0.00e+00	0	43	102	1048576	15	4066
2026-01-23 08:13:27.10	62.11	18.73	-27.1	-28.2	15.8	0.00e+00	0	43	102	1048576	15	4087
2026-01-23 08:13:28.10	61.89	18.78	-27.1	-28.3	15.8	0.00e+00	0	43	102	1048576	15	4108
2026-01-23 08:13:29.10	61.66	18.82	-27.2	-28.4	15.6	0.00e+00	0	43	102	1048576	15	4152
2026-01-23 08:13:30.10	61.44	18.86	-27.3	-28.6	15.6	0.00e+00	0	43	102	1048576	15	4197
2026-01-23 08:13:31.11	61.21	18.90	-27.3	-28.7	15.5	0.00e+00	0	43	102	1048576	15	4232
2026-01-23 08:13:32.11	60.98	18.94	-27.4	-28.8	15.4	0.00e+00	0	43	102	1048576	15	4257
2026-01-23 08:13:33.12	60.75	18.98	-27.5	-29.1	15.3	0.00e+00	0	43	102	1048576	15	4319
2026-01-23 08:13:34.13	60.52	19.03	-27.2	-28.5	15.6	0.00e+00	0	43	102	1048576	15	4178
2026-01-23 08:13:35.12	60.29	19.07	-27.2	-28.3	15.8	0.00e+00	0	44	102	1048576	15	4108
2026-01-23 08:13:36.13	60.06	19.11	-27.2	-28.4	15.7	0.00e+00	0	43	102	1048576	15	4135
2026-01-23 08:13:37.13	59.83	19.14	-27.3	-28.5	15.6	0.00e+00	0	43	102	1048576	15	4174
2026-01-23 08:13:38.14	59.60	19.18	-27.1	-28.3	15.8	0.00e+00	0	44	102	1048576	15	4105
2026-01-23 08:13:39.15	59.36	19.22	-27.2	-28.4	15.7	0.00e+00	0	43	102	1048576	15	4139
2026-01-23 08:13:40.16	59.13	19.26	-27.0	-27.9	16.0	0.00e+00	0	43	102	1048576	15	3992
2026-01-23 08:13:41.16	58.90	19.30	-26.9	-27.8	16.0	0.00e+00	0	44	102	1048576	15	3975
2026-01-23 08:13:42.17	58.66	19.34	-27.0	-27.9	16.0	0.00e+00	0	44	102	1048576	15	4014
2026-01-23 08:13:43.17	58.43	19.37	-27.0	-28.1	15.9	0.00e+00	0	43	102	1048576	15	4051
2026-01-23 08:13:44.18	58.19	19.41	-27.0	-28.1	15.9	0.00e+00	0	43	102	1048576	15	4048
2026-01-23 08:13:45.19	57.95	19.44	-27.0	-28.0	16.0	0.00e+00	0	43	102	1048576	15	4019
2026-01-23 08:13:46.19	57.72	19.48	-27.0	-27.9	16.0	0.00e+00	0	43	102	1048576	15	4018
2026-01-23 08:13:47.19	57.48	19.51	-27.1	-28.1	15.9	0.00e+00	0	43	102	1048576	15	4071
2026-01-23 08:13:48.19	57.24	19.55	-27.2	-28.5	15.7	0.00e+00	0	43	102	1048576	15	4175
2026-01-23 08:13:49.20	57.00	19.58	-27.1	-28.1	15.9	0.00e+00	0	43	102	1048576	15	4055
2026-01-23 08:13:50.20	56.76	19.62	-27.0	-27.9	16.0	0.00e+00	0	44	102	1048576	15	4011
2026-01-23 08:13:51.20	56.53	19.65	-27.1	-28.1	15.9	0.00e+00	0	43	102	1048576	15	4056
2026-01-23 08:13:52.21	56.29	19.68	-27.1	-28.1	15.9	0.00e+00	0	43	102	1048576	15	4064
2026-01-23 08:13:53.20	56.05	19.71	-27.1	-28.3	15.8	0.00e+00	0	43	102	1048576	15	4102
2026-01-23 08:13:54.21	55.81	19.75	-27.0	-28.0	15.9	0.00e+00	0	43	102	1048576	15	4032
2026-01-23 08:13:55.21	55.57	19.78	-27.1	-28.1	15.9	0.00e+00	0	43	102	1048576	15	4061
2026-01-23 08:13:56.22	55.32	19.81	-27.1	-28.2	15.8	0.00e+00	0	44	102	1048576	15	4082
2026-01-23 08:13:57.23	55.08	19.84	-27.1	-28.2	15.9	7.00e-07	0	43	102	1048576	15	4083
2026-01-23 08:13:58.23	54.84	19.87	-27.1	-28.2	15.8	0.00e+00	0	43	102	1048576	15	4091
2026-01-23 08:13:59.24	54.59	19.90	-27.2	-28.4	15.7	0.00e+00	0	43	102	1048576	15	4141
2026-01-23 08:14:00.23	54.35	19.92	-27.3	-28.6	15.6	0.00e+00	0	44	102	1048576	15	4200
2026-01-23 08:14:01.24	54.11	19.95	-27.2	-28.4	15.7	0.00e+00	0	44	102	1048576	15	4138
2026-01-23 08:14:02.24	53.86	19.98	-27.2	-28.4	15.8	0.00e+00	0	43	102	1048576	15	4127
2026-01-23 08:14:03.25	53.62	20.01	-27.2	-28.3	15.8	0.00e+00	0	43	102	1048576	15	4109
2026-01-23 08:14:04.24	53.37	20.03	-27.1	-28.2	15.9	0.00e+00	0	43	102	1048576	15	4086
2026-01-23 08:14:05.25	53.13	20.06	-27.2	-28.3	15.8	0.00e+00	0	43	102	1048576	15	4119
2026-01-23 08:14:06.24	52.88	20.09	-27.1	-28.1	15.9	0.00e+00	0	44	102	1048576	15	4059
2026-01-23 08:14:07.25	52.64	20.11	-27.1	-28.1	15.9	0.00e+00	0	43	102	1048576	15	4059
2026-01-23 08:14:08.25	52.39	20.13	-27.1	-28.2	15.9	0.00e+00	0	43	102	1048576	15	4078
2026-01-23 08:14:09.26	52.14	20.16	-27.1	-28.1	15.9	0.00e+00	0	43	102	1048576	15	4064
2026-01-23 08:14:10.27	51.89	20.18	-27.2	-28.3	15.8	0.00e+00	0	43	102	1048576	15	4101
2026-01-23 08:14:11.27	51.64	20.20	-27.2	-28.4	15.8	0.00e+00	0	43	102	1048576	15	4131
2026-01-23 08:14:12.28	51.39	20.23	-27.3	-28.7	15.6	0.00e+00	0	43	102	1048576	15	4211
2026-01-23 08:14:13.29	51.14	20.25	-27.3	-28.6	15.7	0.00e+00	0	44	102	1048576	15	4185
2026-01-23 08:14:14.29	50.90	20.27	-27.3	-28.7	15.6	0.00e+00	0	43	102	1048576	15	4208
2026-01-23 08:14:15.29	50.65	20.29	-27.3	-28.6	15.7	0.00e+00	0	43	102	1048576	15	4190
2026-01-23 08:14:16.29	50.40	20.31	-27.3	-28.6	15.7	0.00e+00	0	43	102	1048576	15	4185
2026-01-23 08:14:17.30	50.15	20.33	-27.2	-28.4	15.8	0.00e+00	0	43	102	1048576	15	4146
2026-01-23 08:14:18.30	49.90	20.35	-27.2	-28.5	15.7	0.00e+00	0	43	102	1048576	15	4162
2026-01-23 08:14:19.30	49.65	20.37	-27.4	-28.8	15.5	0.00e+00	0	44	102	1048576	15	4248
2026-01-23 08:14:20.30	49.40	20.39	-27.3	-28.7	15.6	0.00e+00	0	43	102	1048576	15	4225
2026-01-23 08:14:21.30	49.15	20.40	-27.3	-28.6	15.6	0.00e+00	0	43	102	1048576	15	4201
2026-01-23 08:14:22.31	48.89	20.42	-27.3	-28.7	15.6	0.00e+00	0	44	102	1048576	15	4203
2026-01-23 08:14:23.31	48.64	20.44	-27.4	-28.9	15.6	0.00e+00	0	43	102	1048576	15	4256
2026-01-23 08:14:24.32	48.39	20.45	-27.5	-29.0	15.4	0.00e+00	0	44	102	1048576	15	4301
2026-01-23 08:14:25.31	48.14	20.47	-27.5	-29.0	15.5	0.00e+00	0	43	102	1048576	15	4294
2026-01-23 08:14:26.32	47.89	20.48	-27.5	-29.1	15.4	0.00e+00	0	43	102	1048576	15	4326
2026-01-23 08:14:27.32	47.63	20.49	-27.5	-29.1	15.4	0.00e+00	0	43	102	1048576	15	4313
2026-01-23 08:14:28.33	47.38	20.51	-27.5	-29.0	15.5	0.00e+00	0	43	102	1048576	15	4306
2026-01-23 08:14:29.33	47.13	20.52	-27.5	-29.1	15.5	0.00e+00	0	43	102	1048576	15	4308
2026-01-23 08:14:30.34	46.87	20.53	-27.5	-29.0	15.5	0.00e+00	0	44	102	1048576	15	4304
2026-01-23 08:14:31.34	46.62	20.54	-27.2	-28.5	15.8	0.00e+00	0	44	102	1048576	15	4150
2026-01-23 08:14:32.35	46.36	20.55	-27.1	-28.1	16.0	0.00e+00	0	44	102	1048576	15	4057
2026-01-23 08:14:33.36	46.11	20.56	-27.0	-28.0	16.0	0.00e+00	0	44	102	1048576	15	4039
2026-01-23 08:14:34.36	45.85	20.57	-27.1	-28.2	15.9	0.00e+00	0	43	102	1048576	15	4070
2026-01-23 08:14:35.36	45.60	20.58	-27.2	-28.4	15.8	0.00e+00	0	43	102	1048576	15	4125
2026-01-23 08:14:36.36	45.35	20.59	-27.2	-28.3	15.8	0.00e+00	0	44	102	1048576	15	4104
2026-01-23 08:14:37.37	45.09	20.60	-27.2	-28.4	15.8	0.00e+00	0	43	102	1048576	15	4146
2026-01-23 08:14:38.37	44.84	20.61	-27.2	-28.4	15.8	0.00e+00	0	43	102	1048576	15	4132
2026-01-23 08:14:39.37	44.58	20.61	-27.2	-28.3	15.9	0.00e+00	0	43	102	1048576	15	4109
2026-01-23 08:14:40.38	44.33	20.62	-27.0	-28.0	16.0	0.00e+00	0	44	102	1048576	15	4035
2026-01-23 08:14:41.38	44.07	20.62	-27.0	-28.0	16.0	0.00e+00	0	43	102	1048576	15	4023
2026-01-23 08:14:42.38	43.82	20.63	-27.0	-28.0	16.0	0.00e+00	0	44	102	1048576	15	4023
2026-01-23 08:14:43.38	43.56	20.63	-27.1	-28.1	16.0	0.00e+00	0	43	102	1048576	15	4049
2026-01-23 08:14:44.38	43.31	20.64	-27.1	-28.2	15.9	0.00e+00	0	43	102	1048576	15	4074
2026-01-23 08:14:45.39	43.05	20.64	-27.1	-28.2	15.9	0.00e+00	0	44	102	1048576	15	4084
2026-01-23 08:14:46.39	42.80	20.64	-27.2	-28.5	15.8	0.00e+00	0	44	102	1048576	15	4159
2026-01-23 08:14:47.40	42.54	20.64	-27.4	-28.7	15.6	0.00e+00	0	43	102	1048576	15	4225
2026-01-23 08:14:48.40	42.29	20.65	-27.3	-28.7	15.6	0.00e+00	0	43	102	1048576	15	4217
2026-01-23 08:14:49.41	42.03	20.65	-27.4	-28.9	15.5	0.00e+00	0	43	102	1048576	15	4285
2026-01-23 08:14:50.41	41.78	20.65	-27.5	-29.0	15.5	0.00e+00	0	43	102	1048576	15	4302
2026-01-23 08:14:51.41	41.52	20.65	-27.3	-28.7	15.6	0.00e+00	0	43	102	1048576	15	4222
2026-01-23 08:14:52.42	41.26	20.65	-27.4	-28.9	15.5	0.00e+00	0	43	102	1048576	15	4274
2026-01-23 08:14:53.42	41.01	20.64	-27.5	-29.1	15.4	0.00e+00	0	43	102	1048576	15	4330
2026-01-23 08:14:54.42	40.76	20.64	-27.4	-29.0	15.5	0.00e+00	0	43	102	1048576	15	4292
2026-01-23 08:14:55.43	40.50	20.64	-27.5	-29.2	15.4	0.00e+00	0	44	102	1048576	15	4347
2026-01-23 08:14:56.43	40.24	20.64	-27.6	-29.2	15.3	0.00e+00	0	44	102	1048576	15	4364
2026-01-23 08:14:57.43	39.99	20.63	-27.3	-28.7	15.7	0.00e+00	0	44	102	1048576	15	4209
2026-01-23 08:14:58.43	39.74	20.63	-27.1	-28.3	15.9	0.00e+00	0	44	102	1048576	15	4096
2026-01-23 08:14:59.44	39.48	20.62	-27.0	-28.0	16.0	0.00e+00	0	44	102	1048576	15	4033
2026-01-23 08:15:00.44	39.23	20.62	-27.1	-28.1	16.0	0.00e+00	0	43	102	1048576	15	4059
2026-01-23 08:15:01.45	38.97	20.61	-27.1	-28.2	15.9	0.00e+00	0	44	102	1048576	15	4089
2026-01-23 08:15:02.46	38.71	20.60	-27.1	-28.2	15.9	0.00e+00	0	44	102	1048576	15	4084
2026-01-23 08:15:03.46	38.46	20.59	-27.2	-28.4	15.8	0.00e+00	0	44	102	1048576	15	4143
2026-01-23 08:15:04.47	38.20	20.59	-27.2	-28.4	15.8	0.00e+00	0	43	102	1048576	15	4136
2026-01-23 08:15:05.47	37.95	20.58	-27.1	-28.2	15.9	0.00e+00	0	43	102	1048576	15	4085
2026-01-23 08:15:06.48	37.69	20.57	-27.1	-28.3	15.9	0.00e+00	0	43	102	1048576	15	4104
2026-01-23 08:15:07.48	37.44	20.56	-27.1	-28.2	15.9	0.00e+00	0	44	102	1048576	15	4083
2026-01-23 08:15:08.49	37.19	20.55	-27.1	-28.1	16.0	0.00e+00	0	43	102	1048576	15	4066
2026-01-23 08:15:09.49	36.93	20.54	-27.1	-28.2	15.9	0.00e+00	0	43	102	1048576	15	4083
2026-01-23 08:15:10.49	36.68	20.52	-27.2	-28.5	15.8	0.00e+00	0	44	102	1048576	15	4165
2026-01-23 08:15:11.49	36.43	20.51	-27.3	-28.7	15.6	0.00e+00	0	44	102	1048576	15	4214
2026-01-23 08:15:12.50	36.17	20.50	-27.3	-28.7	15.6	0.00e+00	0	44	102	1048576	15	4229
2026-01-23 08:15:13.51	35.92	20.48	-27.4	-28.8	15.6	0.00e+00	0	43	102	1048576	15	4253
2026-01-23 08:15:14.51	35.67	20.47	-27.5	-29.1	15.4	0.00e+00	0	44	102	1048576	15	4313
2026-01-23 08:15:15.51	35.42	20.46	-27.6	-29.2	15.3	0.00e+00	0	44	102	1048576	15	4366
2026-01-23 08:15:16.51	35.17	20.44	-27.5	-29.2	15.4	0.00e+00	0	44	102	1048576	15	4351
2026-01-23 08:15:17.52	34.91	20.42	-27.6	-29.2	15.3	0.00e+00	0	44	102	1048576	15	4354
2026-01-23 08:15:18.52	34.66	20.41	-27.5	-29.0	15.5	0.00e+00	0	44	102	1048576	15	4293
2026-01-23 08:15:19.53	34.41	20.39	-27.3	-28.5	15.7	0.00e+00	0	44	102	1048576	15	4173
2026-01-23 08:15:20.53	34.16	20.37	-27.2	-28.5	15.8	0.00e+00	0	43	102	1048576	15	4160
2026-01-23 08:15:21.53	33.91	20.36	-27.2	-28.3	15.9	0.00e+00	0	44	102	1048576	15	4111
2026-01-23 08:15:22.53	33.66	20.34	-27.3	-28.5	15.7	0.00e+00	0	44	102	1048576	15	4169
2026-01-23 08:15:23.53	33.41	20.32	-27.3	-28.6	15.7	0.00e+00	0	43	102	1048576	15	4202
2026-01-23 08:15:24.54	33.16	20.30	-27.2	-28.4	15.8	0.00e+00	0	44	102	1048576	15	4125
2026-01-23 08:15:25.54	32.91	20.28	-27.2	-28.3	15.8	0.00e+00	0	43	102	1048576	15	4118
2026-01-23 08:15:26.54	32.66	20.26	-27.2	-28.4	15.8	0.00e+00	0	44	102	1048576	15	4139
2026-01-23 08:15:27.54	32.41	20.23	-27.2	-28.5	15.7	0.00e+00	0	44	102	1048576	15	4163
2026-01-23 08:15:28.55	32.16	20.21	-27.3	-28.6	15.7	0.00e+00	0	44	102	1048576	15	4195
2026-01-23 08:15:29.55	31.92	20.19	-27.4	-28.9	15.5	0.00e+00	0	44	102	1048576	15	4279
2026-01-23 08:15:30.56	31.67	20.17	-27.5	-29.1	15.4	0.00e+00	0	43	102	1048576	15	4324
2026-01-23 08:15:31.56	31.42	20.14	-27.4	-28.9	15.5	0.00e+00	0	44	102	1048576	15	4272
2026-01-23 08:15:32.57	31.17	20.12	-27.4	-28.9	15.5	0.00e+00	0	44	102	1048576	15	4266
2026-01-23 08:15:33.57	30.93	20.09	-27.5	-29.0	15.4	0.00e+00	0	44	102	1048576	15	4304
2026-01-23 08:15:34.57	30.68	20.07	-27.4	-28.8	15.5	0.00e+00	0	44	102	1048576	15	4249
2026-01-23 08:15:35.57	30.44	20.04	-27.3	-28.5	15.7	0.00e+00	0	43	102	1048576	15	4167
2026-01-23 08:15:36.58	30.19	20.02	-27.4	-28.9	15.5	0.00e+00	0	44	102	1048576	15	4262
2026-01-23 08:15:37.59	29.95	19.99	-27.5	-29.0	15.4	0.00e+00	0	44	102	1048576	15	4303
2026-01-23 08:15:38.59	29.70	19.96	-27.3	-28.7	15.6	0.00e+00	0	44	102	1048576	15	4226
2026-01-23 08:15:39.60	29.46	19.93	-27.3	-28.7	15.6	0.00e+00	0	44	102	1048576	15	4220
2026-01-23 08:15:40.61	29.21	19.91	-27.4	-28.9	15.5	0.00e+00	0	44	102	1048576	15	4284
2026-01-23 08:15:41.61	28.97	19.88	-27.7	-29.5	15.2	0.00e+00	0	43	102	1048576	15	4435
2026-01-23 08:15:42.62	28.73	19.85	-27.7	-29.6	15.1	7.00e-07	0	44	102	1048576	15	4473
2026-01-23 08:15:43.62	28.49	19.82	-27.6	-29.3	15.3	0.00e+00	0	43	102	1048576	15	4373
2026-01-23 08:15:44.62	28.25	19.79	-27.5	-29.1	15.4	0.00e+00	0	44	102	1048576	15	4336
2026-01-23 08:15:45.62	28.01	19.76	-27.5	-29.0	15.5	0.00e+00	0	43	102	1048576	15	4297
2026-01-23 08:15:46.63	27.76	19.73	-27.5	-29.1	15.4	0.00e+00	0	43	102	1048576	15	4326
2026-01-23 08:15:47.64	27.52	19.69	-27.4	-29.0	15.5	7.00e-07	0	44	102	1048576	15	4285
2026-01-23 08:15:48.64	27.28	19.66	-27.5	-29.2	15.4	0.00e+00	0	44	102	1048576	15	4354
2026-01-23 08:15:49.65	27.04	19.63	-27.6	-29.2	15.3	0.00e+00	0	43	102	1048576	15	4360
2026-01-23 08:15:50.65	26.81	19.59	-27.6	-29.4	15.3	0.00e+00	0	43	102	1048576	15	4403
2026-01-23 08:15:51.65	26.57	19.56	-27.5	-29.1	15.4	0.00e+00	0	43	102	1048576	15	4337
2026-01-23 08:15:52.66	26.33	19.53	-27.3	-28.8	15.5	0.00e+00	0	43	102	1048576	15	4231
2026-01-23 08:15:53.67	26.09	19.49	-27.3	-28.7	15.6	0.00e+00	0	44	102	1048576	15	4205
2026-01-23 08:15:54.67	25.86	19.46	-27.3	-28.7	15.6	0.00e+00	0	43	102	1048576	15	4204
2026-01-23 08:15:55.68	25.62	19.42	-27.4	-28.8	15.5	0.00e+00	0	43	102	1048576	15	4249
2026-01-23 08:15:56.68	25.38	19.38	-27.5	-29.2	15.3	0.00e+00	0	44	102	1048576	15	4362
2026-01-23 08:15:57.69	25.15	19.35	-27.4	-28.9	15.5	0.00e+00	0	44	102	1048576	15	4280
2026-01-23 08:15:58.69	24.92	19.31	-27.2	-28.5	15.7	0.00e+00	0	43	102	1048576	15	4163
2026-01-23 08:15:59.69	24.68	19.27	-27.2	-28.3	15.8	0.00e+00	0	44	102	1048576	15	4114
2026-01-23 08:16:00.69	24.45	19.24	-27.2	-28.5	15.7	0.00e+00	0	44	102	1048576	15	4151
2026-01-23 08:16:01.70	24.22	19.20	-27.3	-28.6	15.7	0.00e+00	0	43	102	1048576	15	4177
2026-01-23 08:16:02.69	23.99	19.16	-27.3	-28.7	15.6	0.00e+00	0	43	102	1048576	15	4209
2026-01-23 08:16:03.70	23.76	19.12	-27.3	-28.7	15.6	7.00e-07	0	44	102	1048576	15	4220
2026-01-23 08:16:04.70	23.53	19.08	-27.3	-28.6	15.6	0.00e+00	0	44	102	1048576	15	4196
2026-01-23 08:16:05.70	23.30	19.04	-27.3	-28.6	15.6	0.00e+00	0	44	102	1048576	15	4176
2026-01-23 08:16:06.71	23.07	19.00	-27.3	-28.7	15.5	0.00e+00	0	43	102	1048576	15	4230
2026-01-23 08:16:07.72	22.84	18.96	-27.1	-28.3	15.8	0.00e+00	0	43	102	1048576	15	4099
2026-01-23 08:16:08.73	22.61	18.92	-27.1	-28.2	15.8	0.00e+00	0	43	102	1048576	15	4071
2026-01-23 08:16:09.73	22.38	18.88	-27.3	-28.7	15.5	0.00e+00	0	44	102	1048576	15	4206
2026-01-23 08:16:10.74	22.15	18.83	-27.4	-28.8	15.4	0.00e+00	0	44	102	1048576	15	4236
2026-01-23 08:16:11.75	21.93	18.79	-27.5	-29.1	15.2	7.00e-07	0	43	102	1048576	15	4341
2026-01-23 08:16:12.74	21.70	18.75	-27.5	-29.1	15.1	0.00e+00	0	44	102	1048576	15	4339
2026-01-23 08:16:13.75	21.48	18.71	-27.6	-29.4	15.0	0.00e+00	0	44	102	1048576	15	4416
2026-01-23 08:16:14.76	21.25	18.66	-27.9	-30.0	14.7	0.00e+00	0	44	102	1048576	15	4583
2026-01-23 08:16:15.76	21.03	18.62	-27.8	-29.7	14.8	0.00e+00	0	44	102	1048576	15	4506
2026-01-23 08:16:16.76	20.81	18.57	-27.6	-29.2	15.1	0.00e+00	0	44	102	1048576	15	4367
2026-01-23 08:16:17.77	20.58	18.53	-27.4	-28.8	15.4	0.00e+00	0	44	102	1048576	15	4250
2026-01-23 08:16:18.77	20.36	18.48	-27.3	-28.7	15.4	0.00e+00	0	44	102	1048576	15	4226
2026-01-23 08:16:19.77	20.14	18.44	-27.3	-28.8	15.4	0.00e+00	0	43	102	1048576	15	4233
2026-01-23 08:16:20.78	19.92	18.39	-27.5	-29.1	15.3	0.00e+00	0	44	102	1048576	15	4318
2026-01-23 08:16:21.78	19.70	18.35	-27.5	-29.0	15.3	0.00e+00	0	44	102	1048576	15	4302
2026-01-23 08:16:22.79	19.48	18.30	-27.5	-29.2	15.2	0.00e+00	0	44	102	1048576	15	4362
2026-01-23 08:16:23.79	19.27	18.25	-27.6	-29.3	15.1	7.00e-07	0	44	102	1048576	15	4391
2026-01-23 08:16:24.79	19.05	18.21	-27.7	-29.5	15.0	0.00e+00	0	44	102	1048576	15	4451
2026-01-23 08:16:25.79	18.83	18.16	-27.6	-29.4	15.0	0.00e+00	0	44	102	1048576	15	4405
2026-01-23 08:16:26.80	18.62	18.11	-27.6	-29.3	15.0	0.00e+00	0	44	102	1048576	15	4378
2026-01-23 08:16:27.79	18.40	18.06	-27.6	-29.2	14.9	0.00e+00	0	44	102	1048576	15	4365
2026-01-23 08:16:28.80	18.19	18.01	-27.4	-28.8	15.0	0.00e+00	0	43	102	1048576	15	4252
2026-01-23 08:16:29.80	17.97	17.97	-27.3	-28.7	15.1	0.00e+00	0	43	102	1048576	15	4216
2026-01-23 08:16:30.81	17.76	17.92	-27.5	-29.1	14.9	7.00e-07	0	44	102	1048576	15	4339
2026-01-23 08:16:31.81	17.55	17.87	-27.4	-28.9	15.2	0.00e+00	0	44	102	1048576	15	4274
2026-01-23 08:16:32.82	17.33	17.82	-27.3	-28.8	15.3	0.00e+00	0	43	102	1048576	15	4247
2026-01-23 08:16:33.82	17.12	17.77	-27.3	-28.7	15.3	0.00e+00	0	43	102	1048576	15	4227
2026-01-23 08:16:34.83	16.91	17.72	-27.4	-29.0	15.1	0.00e+00	0	44	102	1048576	15	4305
2026-01-23 08:16:35.83	16.70	17.67	-27.7	-29.5	14.8	0.00e+00	0	44	102	1048576	15	4459
2026-01-23 08:16:36.83	16.50	17.61	-27.7	-29.6	14.9	0.00e+00	0	44	102	1048576	15	4475
2026-01-23 08:16:37.83	16.29	17.56	-27.8	-29.9	14.8	7.00e-07	0	44	102	1048576	15	4559
2026-01-23 08:16:38.84	16.08	17.51	-27.8	-29.8	14.9	3.00e-06	0	43	102	1048576	15	4536
2026-01-23 08:16:39.85	15.87	17.46	-27.7	-29.7	14.9	0.00e+00	0	43	102	1048576	15	4504
2026-01-23 08:16:40.85	15.67	17.41	-27.8	-29.7	14.8	0.00e+00	0	44	102	1048576	15	4511
2026-01-23 08:16:41.85	15.46	17.36	-27.8	-29.8	14.8	0.00e+00	0	44	102	1048576	15	4523
2026-01-23 08:16:42.86	15.25	17.30	-28.0	-30.2	14.5	0.00e+00	0	43	102	1048576	15	4657
2026-01-23 08:16:43.87	15.05	17.25	-27.9	-29.5	14.8	3.00e-06	0	44	102	1048576	16	4335
2026-01-23 08:16:44.87	14.85	17.20	-27.7	-29.0	15.2	0.00e+00	0	43	102	1048576	16	4175
2026-01-23 08:16:45.87	14.65	17.14	-27.6	-28.7	15.2	0.00e+00	0	44	102	1048576	16	4113
2026-01-23 08:16:46.87	14.44	17.09	-27.5	-28.6	15.3	0.00e+00	0	43	102	1048576	16	4074
2026-01-23 08:16:47.87	14.24	17.04	-27.5	-28.6	15.3	0.00e+00	0	44	102	1048576	16	4085
2026-01-23 08:16:48.88	14.04	16.98	-27.5	-28.5	15.3	0.00e+00	0	44	102	1048576	16	4060
2026-01-23 08:16:49.89	13.84	16.93	-27.7	-29.0	15.1	0.00e+00	0	44	102	1048576	16	4175
2026-01-23 08:16:50.88	13.65	16.87	-27.6	-28.8	15.2	0.00e+00	0	43	102	1048576	16	4146
2026-01-23 08:16:51.88	13.45	16.82	-27.8	-29.3	15.0	0.00e+00	0	44	102	1048576	16	4260
2026-01-23 08:16:52.89	13.25	16.76	-27.8	-29.2	15.1	0.00e+00	0	44	102	1048576	16	4240
2026-01-23 08:16:53.89	13.05	16.71	-27.6	-28.9	15.2	0.00e+00	0	44	102	1048576	16	4152
2026-01-23 08:16:54.89	12.86	16.65	-27.7	-28.9	15.2	0.00e+00	0	44	102	1048576	16	4175
2026-01-23 08:16:55.89	12.66	16.60	-27.7	-29.0	15.1	0.00e+00	0	44	102	1048576	16	4202
2026-01-23 08:16:56.89	12.47	16.54	-27.7	-29.1	15.1	0.00e+00	0	44	102	1048576	16	4220
2026-01-23 08:16:57.89	12.28	16.49	-27.7	-29.1	15.0	0.00e+00	0	44	102	1048576	16	4219
2026-01-23 08:16:58.90	12.08	16.43	-27.8	-29.3	15.0	0.00e+00	0	43	102	1048576	16	4265
2026-01-23 08:16:59.91	11.89	16.37	-27.8	-29.2	15.0	0.00e+00	0	44	102	1048576	16	4238
2026-01-23 08:17:00.91	11.70	16.32	-27.8	-29.2	15.0	0.00e+00	0	43	102	1048576	16	4235
2026-01-23 08:17:01.91	11.51	16.26	-27.8	-29.3	14.9	0.00e+00	0	44	102	1048576	16	4284
2026-01-23 08:17:02.91	11.32	16.20	-27.8	-29.2	15.0	0.00e+00	0	44	102	1048576	16	4231
2026-01-23 08:17:03.92	11.13	16.15	-27.8	-29.2	15.0	0.00e+00	0	44	102	1048576	16	4257
2026-01-23 08:17:04.92	10.94	16.09	-27.8	-29.2	15.0	0.00e+00	0	44	102	1048576	16	4241
2026-01-23 08:17:05.93	10.75	16.03	-27.9	-29.5	14.7	0.00e+00	0	44	102	1048576	16	4338
2026-01-23 08:17:06.94	10.56	15.97	-27.8	-29.4	14.8	0.00e+00	0	44	102	1048576	16	4300
2026-01-23 08:17:07.94	10.38	15.91	-27.8	-29.4	14.8	7.00e-07	0	44	102	1048576	16	4298
2026-01-23 08:17:08.95	10.19	15.86	-27.9	-29.5	14.8	0.00e+00	0	44	102	1048576	16	4324
2026-01-23 08:17:09.95	10.01	15.80	-28.0	-29.7	14.6	7.00e-07	0	43	102	1048576	16	4395
2026-01-23 08:17:10.95	9.82	15.74	-27.9	-29.5	14.8	7.00e-07	0	44	102	1048576	16	4342
2026-01-23 08:17:11.95	9.64	15.68	-27.8	-29.4	14.8	0.00e+00	0	44	102	1048576	16	4295
2026-01-23 08:17:12.95	9.46	15.62	-27.9	-29.4	14.8	0.00e+00	0	44	102	1048576	16	4319
2026-01-23 08:17:13.96	9.28	15.56	-27.9	-29.4	14.9	7.00e-07	0	44	102	1048576	16	4313
2026-01-23 08:17:14.96	9.10	15.50	-27.9	-29.6	14.7	0.00e+00	0	43	102	1048576	16	4365
2026-01-23 08:17:15.97	8.91	15.44	-27.9	-29.4	14.8	7.00e-07	0	44	102	1048576	16	4300
2026-01-23 08:17:16.97	8.73	15.39	-27.9	-29.6	14.8	0.00e+00	0	44	102	1048576	16	4356
2026-01-23 08:17:17.98	8.55	15.33	-27.9	-29.5	14.8	7.00e-07	0	44	102	1048576	16	4329
2026-01-23 08:17:18.98	8.38	15.27	-27.9	-29.4	14.8	1.50e-06	0	44	102	1048576	16	4316
2026-01-23 08:17:19.99	8.20	15.21	-27.8	-29.3	14.9	0.00e+00	0	44	102	1048576	16	4274
2026-01-23 08:17:20.99	8.02	15.15	-27.9	-29.4	14.8	0.00e+00	0	44	102	1048576	16	4315
2026-01-23 08:17:21.99	7.85	15.09	-27.8	-29.2	15.0	0.00e+00	0	43	102	1048576	16	4239
2026-01-23 08:17:22.99	7.67	15.03	-27.7	-29.1	15.0	0.00e+00	0	44	102	1048576	16	4227
2026-01-23 08:17:24.00	7.50	14.97	-27.6	-28.9	15.1	0.00e+00	0	44	102	1048576	16	4170
2026-01-23 08:17:25.01	7.32	14.91	-27.7	-29.0	15.0	7.00e-07	0	43	102	1048576	16	4203
2026-01-23 08:17:26.02	7.15	14.84	-27.6	-28.9	15.1	0.00e+00	0	44	102	1048576	16	4167
2026-01-23 08:17:27.01	6.98	14.78	-27.7	-29.0	15.1	0.00e+00	0	44	102	1048576	16	4189
2026-01-23 08:17:28.02	6.80	14.72	-27.7	-29.0	15.0	0.00e+00	0	44	102	1048576	16	4196
2026-01-23 08:17:29.03	6.63	14.66	-27.8	-29.3	14.9	0.00e+00	0	44	102	1048576	16	4265
2026-01-23 08:17:30.03	6.46	14.60	-27.8	-29.2	14.9	0.00e+00	0	44	102	1048576	16	4252
2026-01-23 08:17:31.04	6.29	14.54	-27.9	-29.5	14.7	0.00e+00	0	43	102	1048576	16	4338
2026-01-23 08:17:32.04	6.12	14.48	-27.9	-29.6	14.7	7.00e-07	0	44	102	1048576	16	4352
2026-01-23 08:17:33.05	5.95	14.42	-28.0	-29.8	14.5	7.00e-07	0	44	102	1048576	16	4420
2026-01-23 08:17:34.05	5.79	14.36	-27.9	-29.6	14.6	0.00e+00	0	44	102	1048576	16	4372
2026-01-23 08:17:35.06	5.62	14.29	-28.0	-29.8	14.5	7.00e-07	0	43	102	1048576	16	4428
2026-01-23 08:17:36.06	5.45	14.23	-28.1	-30.0	14.4	7.00e-07	0	44	102	1048576	16	4491
2026-01-23 08:17:37.07	5.29	14.17	-27.9	-29.5	14.7	0.00e+00	0	43	102	1048576	16	4330
2026-01-23 08:17:38.07	5.12	14.11	-27.8	-29.2	14.9	7.00e-07	0	43	102	1048576	16	4252
2026-01-23 08:17:39.08	4.96	14.05	-27.7	-29.0	15.0	7.00e-07	0	44	102	1048576	16	4207
2026-01-23 08:17:40.09	4.79	13.99	-27.7	-29.2	14.9	7.00e-07	0	43	102	1048576	16	4249
2026-01-23 08:17:41.08	4.63	13.92	-27.7	-29.0	15.0	0.00e+00	0	44	102	1048576	16	4196
2026-01-23 08:17:42.09	4.47	13.86	-27.7	-29.2	14.9	0.00e+00	0	44	102	1048576	16	4241
2026-01-23 08:17:43.08	4.31	13.80	-27.8	-29.3	14.8	7.00e-07	0	44	102	1048576	16	4276
2026-01-23 08:17:44.08	4.15	13.74	-27.9	-29.5	14.7	0.00e+00	0	44	102	1048576	16	4352
2026-01-23 08:17:45.09	3.99	13.68	-28.0	-29.7	14.6	1.50e-06	0	43	102	1048576	16	4400
2026-01-23 08:17:46.09	3.83	13.61	-28.0	-29.9	14.5	0.00e+00	0	43	102	1048576	16	4450
2026-01-23 08:17:47.10	3.67	13.55	-28.0	-29.8	14.5	0.00e+00	0	43	102	1048576	16	4414
2026-01-23 08:17:48.11	3.51	13.49	-28.0	-29.9	14.5	0.00e+00	0	43	102	1048576	16	4447
2026-01-23 08:17:49.11	3.36	13.43	-28.1	-30.0	14.4	0.00e+00	0	44	102	1048576	16	4486
2026-01-23 08:17:50.12	3.20	13.36	-27.9	-29.7	14.6	0.00e+00	0	43	102	1048576	16	4383
2026-01-23 08:17:51.12	3.04	13.30	-27.9	-29.4	14.7	0.00e+00	0	44	102	1048576	16	4324
2026-01-23 08:17:52.12	2.89	13.24	-27.9	-29.5	14.6	0.00e+00	0	44	102	1048576	16	4350
2026-01-23 08:17:53.13	2.73	13.18	-27.8	-29.4	14.7	0.00e+00	0	44	102	1048576	16	4310
2026-01-23 08:17:54.13	2.58	13.11	-27.9	-29.6	14.6	1.50e-06	0	44	102	1048576	16	4362
2026-01-23 08:17:55.13	2.43	13.05	-27.8	-29.4	14.7	0.00e+00	0	44	102	1048576	16	4304
2026-01-23 08:17:56.13	2.27	12.99	-27.9	-29.6	14.6	7.00e-07	0	44	102	1048576	16	4358
2026-01-23 08:17:57.13	2.12	12.93	-27.9	-29.5	14.6	1.50e-06	0	44	102	1048576	16	4334
2026-01-23 08:17:58.14	1.97	12.86	-28.0	-29.7	14.5	7.00e-07	0	43	102	1048576	16	4391
2026-01-23 08:17:59.14	1.82	12.80	-27.9	-29.6	14.6	0.00e+00	0	44	102	1048576	16	4363
2026-01-23 08:18:00.14	1.67	12.74	-27.9	-29.6	14.6	7.00e-07	0	44	102	1048576	16	4382
2026-01-23 08:18:01.14	1.52	12.67	-28.0	-29.8	14.4	7.00e-07	0	44	102	1048576	16	4434
2026-01-23 08:18:02.15	1.37	12.61	-28.0	-29.7	14.5	1.50e-06	0	44	102	1048576	16	4396
2026-01-23 08:18:03.15	1.23	12.55	-28.1	-30.0	14.3	1.50e-06	0	44	102	1048576	16	4482
2026-01-23 08:18:04.16	1.08	12.48	-28.0	-29.9	14.4	0.00e+00	0	44	102	1048576	16	4459
2026-01-23 08:18:05.17	0.93	12.42	-28.2	-30.2	14.2	2.20e-06	0	44	102	1048576	16	4557
2026-01-23 08:18:06.17	0.79	12.36	-28.1	-30.2	14.2	1.50e-06	0	44	102	1048576	16	4540
2026-01-23 08:18:07.17	0.64	12.30	-28.2	-30.3	14.1	3.80e-06	0	44	102	1048576	16	4593
2026-01-23 08:18:08.18	0.49	12.23	-28.3	-30.4	14.1	2.20e-06	0	44	102	1048576	16	4623
2026-01-23 08:18:09.18	0.35	12.17	-28.3	-30.5	14.0	2.20e-06	0	44	102	1048576	16	4635
2026-01-23 08:18:10.18	0.21	12.11	-28.3	-30.5	14.0	1.50e-06	0	44	102	1048576	16	4644
2026-01-23 08:18:11.19	0.06	12.04	-28.3	-30.6	13.9	6.10e-06	0	44	102	1048576	16	4667
2026-01-23 08:18:12.20	359.92	11.98	-28.2	-30.4	14.0	4.50e-06	0	44	102	1048576	16	4615
2026-01-23 08:18:13.20	359.78	11.92	-28.3	-30.5	14.0	3.00e-06	0	44	102	1048576	16	4631
2026-01-23 08:18:14.20	359.64	11.85	-28.2	-30.3	14.1	2.20e-06	0	44	102	1048576	16	4592
2026-01-23 08:18:15.21	359.50	11.79	-28.2	-30.2	14.2	4.50e-06	0	44	102	1048576	16	4545
2026-01-23 08:18:16.21	359.36	11.73	-28.2	-30.3	14.1	3.00e-06	0	44	102	1048576	16	4573
2026-01-23 08:18:17.21	359.22	11.66	-28.2	-30.3	14.1	4.50e-06	0	44	102	1048576	16	4591
2026-01-23 08:18:18.21	359.08	11.60	-28.2	-30.2	14.1	0.00e+00	0	44	102	1048576	16	4564
2026-01-23 08:18:19.21	358.95	11.54	-28.3	-30.4	14.0	4.50e-06	0	44	102	1048576	16	4630
2026-01-23 08:18:20.22	358.81	11.47	-28.3	-30.5	14.0	3.80e-06	0	44	102	1048576	16	4651
2026-01-23 08:18:21.22	358.67	11.41	-28.4	-30.9	13.7	4.50e-06	0	43	102	1048576	16	4762
2026-01-23 08:18:22.22	358.54	11.35	-28.5	-30.5	13.6	9.10e-06	0	44	102	1048576	17	4554
2026-01-23 08:18:23.23	358.40	11.28	-28.6	-30.8	13.5	9.10e-06	0	44	102	1048576	17	4631
2026-01-23 08:18:24.23	358.27	11.22	-28.8	-31.4	13.1	1.98e-05	0	44	102	1048576	17	4812
2026-01-23 08:18:25.24	358.13	11.16	-29.0	-31.2	12.9	5.72e-05	0	44	102	1048576	18	4656
2026-01-23 08:18:26.24	358.00	11.09	-28.9	-31.1	13.0	3.96e-05	0	44	102	1048576	18	4606
2026-01-23 08:18:27.24	357.86	11.03	-28.9	-31.0	13.0	3.43e-05	0	44	102	1048576	18	4600
2026-01-23 08:18:28.25	357.73	10.97	-28.9	-31.1	13.0	4.42e-05	0	44	102	1048576	18	4609
2026-01-23 08:18:29.24	357.60	10.91	-29.0	-31.3	12.8	5.56e-05	0	44	102	1048576	18	4690
2026-01-23 08:18:30.25	357.47	10.84	-28.9	-31.0	13.0	3.73e-05	0	44	102	1048576	18	4587
2026-01-23 08:18:31.26	357.34	10.78	-28.8	-30.8	13.1	2.74e-05	0	44	102	1048576	18	4540
2026-01-23 08:18:32.25	357.21	10.72	-28.9	-30.9	13.1	3.66e-05	0	44	102	1048576	18	4558
2026-01-23 08:18:33.26	357.08	10.65	-28.9	-31.0	13.0	2.74e-05	0	44	102	1048576	18	4575
2026-01-23 08:18:34.26	356.95	10.59	-28.9	-31.1	12.9	5.03e-05	0	44	102	1048576	18	4630
2026-01-23 08:18:35.27	356.82	10.53	-28.8	-30.7	13.2	2.59e-05	0	44	102	1048576	18	4510
2026-01-23 08:18:36.27	356.69	10.46	-28.7	-30.5	13.3	2.67e-05	0	44	102	1048576	18	4423
2026-01-23 08:18:37.28	356.57	10.40	-28.7	-30.6	13.3	1.98e-05	0	43	102	1048576	18	4453
2026-01-23 08:18:38.28	356.44	10.34	-28.8	-30.7	13.2	2.67e-05	0	43	102	1048576	18	4506
2026-01-23 08:18:39.29	356.31	10.27	-28.8	-30.9	13.1	2.21e-05	0	44	102	1048576	18	4567
2026-01-23 08:18:40.29	356.19	10.21	-28.9	-31.1	12.9	4.42e-05	0	44	102	1048576	18	4640
2026-01-23 08:18:41.30	356.06	10.15	-28.9	-31.1	12.9	4.11e-05	0	44	102	1048576	18	4638
2026-01-23 08:18:42.30	355.94	10.09	-29.0	-31.3	12.8	5.26e-05	0	43	102	1048576	18	4701
2026-01-23 08:18:43.30	355.81	10.02	-29.0	-31.4	12.8	6.63e-05	0	44	102	1048576	18	4710
2026-01-23 08:18:44.30	355.69	9.96	-29.0	-31.4	12.7	9.46e-05	0	43	102	1048576	18	4717
2026-01-23 08:18:45.30	355.57	9.90	-29.1	-31.6	12.6	1.01e-04	0	44	102	1048576	18	4803
2026-01-23 08:18:46.31	355.44	9.83	-29.2	-31.7	12.6	1.07e-04	0	44	102	1048576	18	4805
2026-01-23 08:18:47.31	355.32	9.77	-29.0	-31.3	12.8	6.10e-05	0	44	102	1048576	18	4682
2026-01-23 08:18:48.31	355.20	9.71	-29.1	-31.5	12.7	6.79e-05	0	44	102	1048576	18	4748
2026-01-23 08:18:49.32	355.08	9.65	-29.2	-31.7	12.5	1.40e-04	0	44	102	1048576	18	4813
2026-01-23 08:18:50.32	354.96	9.58	-29.0	-31.2	12.8	8.77e-05	0	44	102	1048576	18	4666
2026-01-23 08:18:51.33	354.84	9.52	-29.0	-31.2	12.8	5.49e-05	0	44	102	1048576	18	4670
2026-01-23 08:18:52.33	354.72	9.46	-29.0	-31.3	12.7	7.47e-05	0	44	102	1048576	18	4691
2026-01-23 08:18:53.33	354.60	9.40	-29.0	-31.4	12.7	5.95e-05	0	43	102	1048576	18	4711
2026-01-23 08:18:54.33	354.49	9.33	-29.1	-31.5	12.6	1.26e-04	0	44	102	1048576	18	4765
2026-01-23 08:18:55.34	354.37	9.27	-29.0	-31.4	12.7	7.17e-05	0	44	102	1048576	18	4716
2026-01-23 08:18:56.35	354.25	9.21	-29.0	-31.4	12.7	6.71e-05	0	44	102	1048576	18	4708
2026-01-23 08:18:57.36	354.13	9.15	-29.1	-31.6	12.5	1.04e-04	0	44	102	1048576	18	4800
2026-01-23 08:18:58.37	354.02	9.08	-29.0	-31.4	12.6	9.23e-05	0	44	102	1048576	18	4728
2026-01-23 08:18:59.37	353.90	9.02	-29.1	-31.7	12.4	1.48e-04	0	44	102	1048576	18	4817
2026-01-23 08:19:00.38	353.78	8.96	-29.1	-31.6	12.5	1.31e-04	0	44	102	1048576	18	4784
2026-01-23 08:19:01.39	353.67	8.90	-29.2	-31.7	12.4	1.36e-04	0	44	102	1048576	18	4832
2026-01-23 08:19:02.39	353.56	8.83	-29.2	-31.7	12.4	1.82e-04	0	44	102	1048576	18	4840
2026-01-23 08:19:03.40	353.44	8.77	-29.1	-31.5	12.5	1.39e-04	0	44	102	1048576	18	4756
2026-01-23 08:19:04.40	353.33	8.71	-29.0	-31.4	12.6	1.04e-04	0	44	102	1048576	18	4744
2026-01-23 08:19:05.40	353.22	8.65	-29.1	-31.5	12.5	9.76e-05	0	44	102	1048576	18	4758
2026-01-23 08:19:06.40	353.11	8.59	-29.0	-31.4	12.6	1.26e-04	0	44	102	1048576	18	4729
2026-01-23 08:19:07.41	352.99	8.52	-28.9	-31.1	12.8	8.23e-05	0	44	102	1048576	18	4626
2026-01-23 08:19:08.41	352.88	8.46	-28.9	-31.1	12.8	7.70e-05	0	44	102	1048576	18	4625
2026-01-23 08:19:09.42	352.77	8.40	-28.9	-31.1	12.7	7.55e-05	0	44	102	1048576	18	4649
2026-01-23 08:19:10.42	352.66	8.34	-29.0	-31.3	12.7	9.68e-05	0	44	102	1048576	18	4712
2026-01-23 08:19:11.43	352.55	8.28	-28.9	-31.1	12.7	8.69e-05	0	44	102	1048576	18	4647
2026-01-23 08:19:12.44	352.44	8.21	-29.0	-31.4	12.6	8.01e-05	0	44	102	1048576	18	4729
2026-01-23 08:19:13.44	352.33	8.15	-29.1	-31.6	12.4	1.23e-04	0	44	102	1048576	18	4814
2026-01-23 08:19:14.45	352.22	8.09	-29.3	-32.1	12.1	2.18e-04	0	44	102	1048576	18	4969
2026-01-23 08:19:15.46	352.12	8.03	-29.4	-32.4	11.9	3.42e-04	0	44	102	1048576	18	5077
2026-01-23 08:19:16.47	352.01	7.97	-29.3	-32.1	12.0	3.56e-04	0	44	102	1048576	18	4993
2026-01-23 08:19:17.47	351.90	7.91	-29.4	-32.5	11.8	3.80e-04	0	43	102	1048576	18	5103
2026-01-23 08:19:18.48	351.79	7.84	-29.6	-32.4	11.5	8.07e-04	0	44	102	1048576	19	4988
2026-01-23 08:19:19.48	351.69	7.78	-29.6	-32.5	11.4	1.03e-03	0	44	102	1048576	19	5025
2026-01-23 08:19:20.48	351.58	7.72	-29.7	-32.6	11.4	9.99e-04	0	44	102	1048576	19	5052
2026-01-23 08:19:21.49	351.48	7.66	-29.5	-32.3	11.5	8.68e-04	0	44	102	1048576	19	4950
2026-01-23 08:19:22.49	351.37	7.60	-29.4	-31.9	11.8	5.87e-04	0	44	102	1048576	19	4821
2026-01-23 08:19:23.49	351.27	7.54	-29.6	-32.3	11.5	5.74e-04	0	44	102	1048576	19	4944
2026-01-23 08:19:24.50	351.17	7.48	-29.4	-31.8	11.8	5.36e-04	0	44	102	1048576	19	4779
2026-01-23 08:19:25.51	351.06	7.42	-29.1	-31.2	12.2	2.59e-04	0	44	102	1048576	19	4580
2026-01-23 08:19:26.51	350.96	7.35	-29.0	-31.0	12.4	1.74e-04	0	44	102	1048576	19	4511
2026-01-23 08:19:27.52	350.86	7.29	-29.0	-31.0	12.4	1.22e-04	0	44	102	1048576	19	4496
2026-01-23 08:19:28.53	350.76	7.23	-29.0	-30.8	12.5	1.20e-04	0	44	102	1048576	19	4446
2026-01-23 08:19:29.54	350.65	7.17	-28.8	-30.5	12.7	1.09e-04	0	44	102	1048576	19	4344
2026-01-23 08:19:30.54	350.55	7.11	-28.8	-30.9	12.8	6.48e-05	0	43	102	1048576	18	4565
2026-01-23 08:19:31.55	350.45	7.05	-32.5	-40.6	5.0	3.75e-03	0	44	102	1048576	24	9083
2026-01-23 08:19:32.55	350.35	6.99	-33.5	-45.5	3.8	1.49e+00	0	44	104	1048576	26	14407
2026-01-23 08:19:33.55	350.25	6.93	-33.7	-45.8	3.8	1.49e+00	0	44	104	1048576	27	14470

#Closed at: 2026-01-23 08:19:33
#Recorded file [1 MB]: D:/data/31010_260123_111018.dat