passes_logs/2026/01/23/R2M6_AANII_01/R2M6_AANII_01__20260123_013552_NOAA_21_JPSS-2_rec.log

#Pass ID: 20260123_013552_NOAA 21 (JPSS-2)
#Satellite: NOAA 21 (JPSS-2)
#Configuration: NOAA 21
#almurnet v.1.7.20240730
#Start time: 2026-01-23 01:35:52

#Version: 2.2.20231116
#Station: R2M6_AANII_01
#Location: 30.233357 lon 59.946436 lat
#TLE: 1 54234U 22150A   26022.41365820  .00000211  00000+0  12084-3 0  9990
#TLE: 2 54234  98.7507 323.2240 0000658 234.5287 125.5828 14.19537645165864

#Time	Az	El	Level	Level2	SNR	BER	BlckErr	Temp	State	Recorded	gain1	gain2
2026-01-23 01:35:52.98	12.63	7.01	-31.7	-37.9	4.3	1.43e+00	0	43	0	0	23	7360
2026-01-23 01:35:53.98	12.57	7.08	-31.7	-37.8	4.4	1.43e+00	0	43	104	0	23	7301
2026-01-23 01:35:54.98	12.51	7.15	-31.7	-37.0	6.9	1.74e-01	0	43	0	0	23	6619
2026-01-23 01:35:55.98	12.45	7.22	-31.7	-37.2	6.8	1.80e-01	0	43	0	3145728	23	6749
2026-01-23 01:35:56.99	12.39	7.29	-31.8	-37.3	6.6	2.01e-01	0	43	0	6291456	23	6841
2026-01-23 01:35:57.99	12.33	7.36	-31.7	-36.9	7.0	1.69e-01	0	43	0	9437184	23	6578
2026-01-23 01:35:58.99	12.26	7.44	-31.6	-36.4	7.3	1.30e-01	0	43	0	12582912	23	6304
2026-01-23 01:35:59.99	12.20	7.51	-31.5	-36.0	7.6	9.66e-02	0	43	0	15728640	23	6091
2026-01-23 01:36:00.99	12.14	7.58	-31.6	-36.5	7.4	1.13e-01	0	43	0	18874368	23	6355
2026-01-23 01:36:01.99	12.08	7.65	-31.3	-35.8	8.2	6.99e-02	0	43	0	22020096	22	6092
2026-01-23 01:36:02.99	12.01	7.73	-30.9	-34.6	9.1	2.94e-02	0	43	0	24117248	22	5495
2026-01-23 01:36:04.00	11.95	7.80	-30.5	-33.8	9.9	9.55e-03	0	43	0	27262976	21	5300
2026-01-23 01:36:05.01	11.88	7.87	-30.1	-33.2	10.7	8.84e-03	0	43	0	30408704	20	5161
2026-01-23 01:36:06.00	11.82	7.95	-29.8	-32.4	11.3	1.90e-03	0	43	0	33554432	20	4853
2026-01-23 01:36:07.01	11.75	8.02	-29.5	-32.0	12.0	5.08e-03	0	43	0	36700160	19	4815
2026-01-23 01:36:08.02	11.69	8.09	-29.3	-32.2	12.2	2.09e-04	0	43	0	39845888	18	4972
2026-01-23 01:36:09.03	11.62	8.17	-29.2	-31.8	12.4	1.27e-04	0	43	0	42991616	18	4870
2026-01-23 01:36:10.03	11.55	8.24	-29.1	-31.5	12.7	7.24e-05	0	43	0	47185920	18	4742
2026-01-23 01:36:11.04	11.49	8.32	-29.1	-31.6	12.6	4.73e-03	0	43	0	49283072	18	4771
2026-01-23 01:36:12.04	11.42	8.39	-29.0	-31.3	12.8	6.49e-04	0	43	0	52428800	18	4692
2026-01-23 01:36:13.04	11.35	8.47	-29.1	-31.5	12.7	7.32e-05	0	43	0	55574528	18	4737
2026-01-23 01:36:14.05	11.28	8.54	-29.0	-31.3	12.8	6.02e-05	0	43	0	58720256	18	4684
2026-01-23 01:36:15.05	11.22	8.62	-29.0	-31.2	12.8	7.24e-05	0	43	0	61865984	18	4661
2026-01-23 01:36:16.05	11.15	8.69	-29.1	-31.6	12.7	9.23e-05	0	44	0	65011712	18	4774
2026-01-23 01:36:17.06	11.08	8.77	-28.9	-31.6	12.9	7.34e-04	0	43	0	68157440	17	4903
2026-01-23 01:36:18.06	11.01	8.84	-29.1	-31.4	12.7	5.79e-05	0	44	0	71303168	18	4730
2026-01-23 01:36:19.06	10.94	8.92	-29.2	-31.8	12.5	1.07e-04	0	43	0	74448896	18	4849
2026-01-23 01:36:20.06	10.87	9.00	-29.0	-31.2	12.9	6.10e-05	0	43	0	77594624	18	4661
2026-01-23 01:36:21.07	10.80	9.07	-29.0	-31.4	12.8	6.02e-05	0	43	0	80740352	18	4705
2026-01-23 01:36:22.07	10.73	9.15	-28.9	-31.6	13.0	5.11e-05	0	43	0	83886080	17	4887
2026-01-23 01:36:23.07	10.66	9.22	-29.0	-31.3	12.8	4.65e-05	0	43	0	87031808	18	4689
2026-01-23 01:36:24.07	10.59	9.30	-29.0	-31.3	12.8	4.88e-05	0	44	0	90177536	18	4671
2026-01-23 01:36:25.08	10.52	9.38	-29.3	-32.0	12.5	1.13e-04	0	43	0	93323264	18	4897
2026-01-23 01:36:26.09	10.44	9.46	-29.0	-31.3	12.9	7.78e-05	0	44	0	96468992	18	4668
2026-01-23 01:36:27.09	10.37	9.53	-28.8	-31.3	13.2	1.98e-05	0	44	0	99614720	17	4776
2026-01-23 01:36:28.09	10.30	9.61	-28.7	-30.9	13.4	1.29e-05	0	44	0	102760448	17	4646
2026-01-23 01:36:29.09	10.22	9.69	-28.6	-30.9	13.5	9.10e-06	0	44	0	105906176	17	4650
2026-01-23 01:36:30.09	10.15	9.77	-28.6	-30.8	13.5	1.14e-05	0	44	0	109051904	17	4632
2026-01-23 01:36:31.09	10.08	9.84	-28.7	-31.0	13.4	6.10e-06	0	43	0	112197632	17	4691
2026-01-23 01:36:32.08	10.00	9.92	-28.7	-30.9	13.4	1.98e-05	0	44	0	115343360	17	4647
2026-01-23 01:36:33.08	9.93	10.00	-28.8	-31.2	13.2	2.21e-05	0	44	0	118489088	17	4767
2026-01-23 01:36:34.09	9.85	10.08	-28.6	-30.6	13.6	1.06e-05	0	44	0	121634816	17	4573
2026-01-23 01:36:35.09	9.77	10.16	-28.5	-30.4	13.7	5.30e-06	0	44	0	124780544	17	4512
2026-01-23 01:36:36.09	9.70	10.24	-28.5	-30.5	13.7	4.50e-06	0	44	0	127926272	17	4540
2026-01-23 01:36:37.10	9.62	10.32	-28.5	-30.4	13.7	2.20e-06	0	44	0	131072000	17	4516
2026-01-23 01:36:38.10	9.54	10.40	-28.6	-30.7	13.7	6.10e-06	0	44	0	134217728	17	4593
2026-01-23 01:36:39.10	9.47	10.48	-28.6	-30.8	13.5	8.30e-06	0	44	0	137363456	17	4635
2026-01-23 01:36:40.11	9.39	10.56	-28.5	-30.5	13.7	9.10e-06	0	44	0	140509184	17	4541
2026-01-23 01:36:41.11	9.31	10.64	-28.4	-30.7	13.8	8.30e-06	0	44	0	143654912	16	4717
2026-01-23 01:36:42.12	9.23	10.72	-28.5	-30.9	13.8	4.50e-06	0	44	0	146800640	16	4757
2026-01-23 01:36:43.13	9.15	10.80	-28.5	-30.5	13.8	4.50e-06	0	44	0	149946368	17	4540
2026-01-23 01:36:44.13	9.07	10.88	-28.7	-30.9	13.5	1.14e-05	0	44	0	153092096	17	4661
2026-01-23 01:36:45.14	8.99	10.96	-28.5	-30.5	13.7	8.30e-06	0	44	0	156237824	17	4533
2026-01-23 01:36:46.14	8.91	11.04	-28.6	-30.7	13.6	3.80e-06	0	44	0	159383552	17	4598
2026-01-23 01:36:47.14	8.83	11.12	-28.5	-30.4	13.9	7.00e-07	0	44	0	162529280	17	4486
2026-01-23 01:36:48.15	8.74	11.20	-28.4	-30.2	14.0	3.00e-06	0	44	0	165675008	17	4443
2026-01-23 01:36:49.15	8.66	11.29	-28.3	-30.6	14.1	3.00e-06	0	44	0	168820736	16	4655
2026-01-23 01:36:50.15	8.58	11.37	-28.4	-30.7	14.0	2.20e-06	0	44	0	171966464	16	4705
2026-01-23 01:36:51.16	8.49	11.45	-28.4	-30.8	14.0	7.00e-07	0	44	0	175112192	16	4717
2026-01-23 01:36:52.16	8.41	11.53	-28.7	-30.9	13.6	6.10e-06	0	44	0	178257920	17	4636
2026-01-23 01:36:53.16	8.33	11.62	-28.4	-30.2	14.0	2.20e-06	0	44	0	181403648	17	4421
2026-01-23 01:36:54.16	8.24	11.70	-28.3	-30.5	14.1	1.50e-06	0	44	0	184549376	16	4638
2026-01-23 01:36:55.16	8.16	11.78	-28.4	-30.8	13.9	5.30e-06	0	44	0	187695104	16	4736
2026-01-23 01:36:56.17	8.07	11.86	-28.3	-30.5	14.2	2.20e-06	0	44	0	190840832	16	4628
2026-01-23 01:36:57.17	7.98	11.95	-28.3	-30.4	14.2	2.20e-06	0	44	0	193986560	16	4589
2026-01-23 01:36:58.17	7.90	12.03	-28.3	-30.4	14.2	2.20e-06	0	44	0	197132288	16	4611
2026-01-23 01:36:59.18	7.81	12.12	-28.3	-30.4	14.2	2.20e-06	0	44	0	200278016	16	4606
2026-01-23 01:37:00.18	7.72	12.20	-28.3	-30.4	14.2	7.00e-07	0	44	0	203423744	16	4592
2026-01-23 01:37:01.19	7.63	12.29	-28.4	-30.7	14.0	4.50e-06	0	44	0	206569472	16	4692
2026-01-23 01:37:02.19	7.54	12.37	-28.2	-30.2	14.4	1.50e-06	0	44	0	209715200	16	4543
2026-01-23 01:37:03.19	7.45	12.45	-28.1	-29.9	14.5	7.00e-07	0	44	0	212860928	16	4447
2026-01-23 01:37:04.19	7.36	12.54	-28.0	-29.8	14.6	0.00e+00	0	44	0	216006656	16	4416
2026-01-23 01:37:05.20	7.27	12.63	-28.0	-29.9	14.6	1.50e-06	0	44	0	219152384	16	4437
2026-01-23 01:37:06.19	7.18	12.71	-27.9	-29.6	14.7	0.00e+00	0	44	0	222298112	16	4348
2026-01-23 01:37:07.19	7.09	12.80	-27.7	-29.6	14.8	0.00e+00	0	44	0	225443840	15	4486
2026-01-23 01:37:08.19	7.00	12.88	-27.7	-29.7	14.8	0.00e+00	0	44	0	228589568	15	4498
2026-01-23 01:37:09.19	6.91	12.97	-26.9	-28.9	14.6	0.00e+00	0	44	0	231735296	15	4532
2026-01-23 01:37:10.20	6.81	13.05	-27.7	-29.5	13.6	0.00e+00	0	44	0	234881024	15	4460
2026-01-23 01:37:11.20	6.72	13.14	-27.7	-29.6	14.7	0.00e+00	0	44	0	238026752	15	4487
2026-01-23 01:37:12.21	6.62	13.23	-27.7	-29.7	14.4	0.00e+00	0	44	0	241172480	15	4505
2026-01-23 01:37:13.22	6.53	13.32	-27.6	-29.3	15.0	3.97e-03	0	44	0	244318208	15	4396
2026-01-23 01:37:14.22	6.43	13.40	-27.7	-29.6	14.8	0.00e+00	0	44	0	247463936	15	4484
2026-01-23 01:37:15.23	6.34	13.49	-27.6	-29.4	15.0	0.00e+00	0	44	0	250609664	15	4410
2026-01-23 01:37:16.23	6.24	13.58	-27.7	-29.5	14.9	0.00e+00	0	44	0	253755392	15	4460
2026-01-23 01:37:17.24	6.14	13.67	-27.8	-29.8	14.8	0.00e+00	0	44	0	256901120	15	4546
2026-01-23 01:37:18.23	6.04	13.75	-27.7	-29.7	14.9	4.01e-03	0	44	0	260046848	15	4506
2026-01-23 01:37:19.24	5.94	13.84	-27.7	-29.5	15.0	3.77e-03	0	44	0	263192576	15	4459
2026-01-23 01:37:20.24	5.85	13.93	-27.7	-29.6	14.9	0.00e+00	0	44	0	266338304	15	4462
2026-01-23 01:37:21.24	5.75	14.02	-27.7	-29.5	14.9	0.00e+00	0	44	0	269484032	15	4450
2026-01-23 01:37:22.25	5.64	14.11	-27.8	-29.9	14.8	7.60e-06	0	44	0	272629760	15	4567
2026-01-23 01:37:23.25	5.54	14.20	-27.7	-29.6	14.9	2.89e-04	0	44	0	275775488	15	4489
2026-01-23 01:37:24.25	5.44	14.29	-27.7	-29.5	15.0	4.16e-03	0	44	0	278921216	15	4446
2026-01-23 01:37:25.25	5.34	14.38	-27.7	-29.5	15.0	7.00e-07	0	44	0	282066944	15	4457
2026-01-23 01:37:26.25	5.24	14.47	-27.7	-29.6	14.9	0.00e+00	0	44	0	285212672	15	4470
2026-01-23 01:37:27.25	5.13	14.56	-27.6	-29.4	15.1	3.97e-03	0	44	0	288358400	15	4403
2026-01-23 01:37:28.25	5.03	14.65	-27.6	-29.4	15.1	3.74e-03	0	44	0	291504128	15	4407
2026-01-23 01:37:29.25	4.92	14.74	-27.5	-29.0	15.2	2.58e-04	0	44	0	294649856	15	4306
2026-01-23 01:37:30.25	4.82	14.83	-27.5	-29.1	15.2	3.61e-03	0	44	0	297795584	15	4340
2026-01-23 01:37:31.25	4.71	14.92	-27.7	-29.5	15.0	0.00e+00	0	44	0	300941312	15	4439
2026-01-23 01:37:32.25	4.61	15.01	-27.6	-29.2	15.2	2.49e-04	0	44	0	303038464	15	4370
2026-01-23 01:37:33.25	4.50	15.11	-27.7	-29.6	14.9	4.06e-03	0	44	0	306184192	15	4480
2026-01-23 01:37:34.25	4.39	15.20	-27.8	-29.8	14.8	3.98e-03	0	44	0	309329920	15	4530
2026-01-23 01:37:35.25	4.28	15.29	-27.7	-29.6	15.0	1.78e-04	0	44	0	312475648	15	4479
2026-01-23 01:37:36.26	4.17	15.38	-27.9	-29.9	14.8	0.00e+00	0	44	0	315621376	15	4573
2026-01-23 01:37:37.26	4.06	15.48	-27.7	-29.6	14.9	3.81e-03	0	44	0	318767104	15	4478
2026-01-23 01:37:38.26	3.95	15.57	-27.6	-29.4	15.1	1.77e-04	0	44	0	321912832	15	4407
2026-01-23 01:37:39.26	3.84	15.66	-27.7	-29.6	14.9	3.86e-03	0	44	0	325058560	15	4471
2026-01-23 01:37:40.26	3.73	15.75	-27.7	-29.6	14.9	4.12e-03	0	44	0	328204288	15	4482
2026-01-23 01:37:41.26	3.61	15.85	-27.6	-29.4	15.1	0.00e+00	0	44	0	331350016	15	4404
2026-01-23 01:37:42.26	3.50	15.94	-27.7	-29.5	15.1	4.08e-03	0	44	0	334495744	15	4440
2026-01-23 01:37:43.26	3.38	16.04	-27.7	-29.6	15.0	4.09e-03	0	44	0	337641472	15	4484
2026-01-23 01:37:44.26	3.27	16.13	-27.6	-29.3	15.1	2.23e-04	0	44	0	340787200	15	4385
2026-01-23 01:37:45.27	3.15	16.23	-27.7	-29.5	15.0	4.01e-03	0	44	0	343932928	15	4441
2026-01-23 01:37:46.26	3.04	16.32	-27.7	-29.6	15.0	7.00e-07	0	44	0	347078656	15	4466
2026-01-23 01:37:47.27	2.92	16.42	-27.8	-29.8	14.9	2.34e-04	0	44	0	350224384	15	4538
2026-01-23 01:37:48.27	2.80	16.51	-27.8	-29.8	14.9	3.68e-03	0	44	0	353370112	15	4526
2026-01-23 01:37:49.27	2.68	16.61	-27.8	-29.9	14.9	4.06e-03	0	44	0	356515840	15	4548
2026-01-23 01:37:50.27	2.56	16.70	-27.8	-29.8	14.9	2.13e-04	0	44	0	359661568	15	4517
2026-01-23 01:37:51.28	2.44	16.80	-27.9	-30.1	14.8	0.00e+00	0	44	0	362807296	15	4613
2026-01-23 01:37:52.28	2.32	16.90	-28.2	-30.1	14.7	3.95e-03	0	44	0	365953024	16	4477
2026-01-23 01:37:53.28	2.19	16.99	-28.0	-29.8	14.8	1.81e-04	0	44	0	369098752	16	4402
2026-01-23 01:37:54.28	2.07	17.09	-27.8	-29.8	14.9	3.84e-03	0	44	0	372244480	15	4536
2026-01-23 01:37:55.29	1.95	17.19	-28.2	-30.1	14.7	1.76e-03	0	44	0	375390208	16	4483
2026-01-23 01:37:56.29	1.82	17.28	-28.1	-30.0	14.8	1.50e-06	0	44	0	378535936	16	4469
2026-01-23 01:37:57.30	1.69	17.38	-28.2	-30.2	14.6	0.00e+00	0	44	0	381681664	16	4518
2026-01-23 01:37:58.30	1.57	17.48	-28.3	-30.4	14.5	7.00e-07	0	44	0	384827392	16	4601
2026-01-23 01:37:59.31	1.44	17.58	-28.3	-30.3	14.5	1.52e-05	0	44	0	387973120	16	4561
2026-01-23 01:38:00.30	1.31	17.68	-28.4	-30.6	14.4	7.00e-07	0	44	0	391118848	16	4647
2026-01-23 01:38:01.31	1.18	17.78	-28.3	-30.3	14.6	0.00e+00	0	44	0	394264576	16	4544
2026-01-23 01:38:02.31	1.05	17.87	-28.2	-30.2	14.6	7.00e-07	0	44	0	397410304	16	4528
2026-01-23 01:38:03.32	0.92	17.97	-28.2	-30.2	14.6	0.00e+00	0	44	0	400556032	16	4520
2026-01-23 01:38:04.32	0.79	18.07	-28.2	-30.1	14.7	3.64e-03	0	44	0	403701760	16	4494
2026-01-23 01:38:05.33	0.65	18.17	-28.2	-30.2	14.6	0.00e+00	0	44	0	406847488	16	4517
2026-01-23 01:38:06.32	0.52	18.27	-28.2	-30.1	14.7	0.00e+00	0	44	0	409993216	16	4479
2026-01-23 01:38:07.32	0.39	18.37	-27.8	-29.8	15.0	0.00e+00	0	44	0	413138944	15	4517
2026-01-23 01:38:08.33	0.25	18.47	-27.7	-29.6	15.1	0.00e+00	0	44	0	416284672	15	4460
2026-01-23 01:38:09.33	0.11	18.57	-27.7	-29.6	15.1	0.00e+00	0	44	0	419430400	15	4470
2026-01-23 01:38:10.34	359.98	18.68	-27.9	-30.0	14.8	0.00e+00	0	44	0	422576128	15	4595
2026-01-23 01:38:11.34	359.84	18.78	-28.1	-29.9	14.8	0.00e+00	0	44	0	425721856	16	4440
2026-01-23 01:38:12.34	359.70	18.88	-28.1	-29.9	14.8	7.00e-07	0	44	0	428867584	16	4421
2026-01-23 01:38:13.35	359.56	18.98	-28.2	-30.1	14.7	0.00e+00	0	44	0	432013312	16	4495
2026-01-23 01:38:14.34	359.42	19.08	-28.2	-30.1	14.7	0.00e+00	0	44	0	435159040	16	4487
2026-01-23 01:38:15.35	359.27	19.18	-28.2	-30.2	14.7	7.00e-07	0	44	0	438304768	16	4519
2026-01-23 01:38:16.35	359.13	19.29	-28.2	-30.1	14.8	0.00e+00	0	44	0	441450496	16	4494
2026-01-23 01:38:17.36	358.99	19.39	-28.2	-30.1	14.7	7.00e-07	0	44	0	444596224	16	4498
2026-01-23 01:38:18.36	358.84	19.49	-28.2	-30.2	14.7	0.00e+00	0	44	0	447741952	16	4530
2026-01-23 01:38:19.36	358.70	19.59	-28.1	-30.0	14.8	0.00e+00	0	44	0	450887680	16	4467
2026-01-23 01:38:20.37	358.55	19.70	-28.0	-29.7	15.0	0.00e+00	0	44	0	454033408	16	4366
2026-01-23 01:38:21.37	358.40	19.80	-27.8	-29.7	15.1	0.00e+00	0	44	0	457179136	15	4485
2026-01-23 01:38:22.38	358.25	19.91	-27.8	-29.7	15.1	0.00e+00	0	44	0	460324864	15	4506
2026-01-23 01:38:23.38	358.10	20.01	-27.8	-29.7	15.1	0.00e+00	0	44	0	463470592	15	4496
2026-01-23 01:38:24.39	357.95	20.11	-27.7	-29.4	15.3	0.00e+00	0	44	0	466616320	15	4420
2026-01-23 01:38:25.40	357.79	20.22	-27.6	-29.4	15.3	0.00e+00	0	44	0	469762048	15	4395
2026-01-23 01:38:26.40	357.64	20.32	-27.7	-29.6	15.2	0.00e+00	0	44	0	472907776	15	4453
2026-01-23 01:38:27.40	357.49	20.43	-27.7	-29.4	15.3	0.00e+00	0	44	0	476053504	15	4414
2026-01-23 01:38:28.41	357.33	20.53	-27.8	-29.7	15.1	0.00e+00	0	44	0	479199232	15	4481
2026-01-23 01:38:29.42	357.17	20.64	-27.7	-29.5	15.2	0.00e+00	0	44	0	482344960	15	4441
2026-01-23 01:38:30.42	357.01	20.75	-27.8	-29.9	15.0	0.00e+00	0	44	0	485490688	15	4538
2026-01-23 01:38:31.43	356.85	20.85	-28.2	-30.1	14.8	0.00e+00	0	44	0	488636416	16	4503
2026-01-23 01:38:32.44	356.69	20.96	-28.2	-30.0	14.8	0.00e+00	0	44	0	491782144	16	4468
2026-01-23 01:38:33.44	356.53	21.06	-27.9	-29.4	15.2	0.00e+00	0	44	0	494927872	16	4294
2026-01-23 01:38:34.44	356.37	21.17	-27.6	-29.4	15.3	0.00e+00	0	44	0	498073600	15	4393
2026-01-23 01:38:35.44	356.21	21.28	-27.6	-29.2	15.4	0.00e+00	0	44	0	501219328	15	4347
2026-01-23 01:38:36.45	356.04	21.38	-27.6	-29.2	15.4	0.00e+00	0	44	0	504365056	15	4344
2026-01-23 01:38:37.45	355.87	21.49	-27.5	-29.1	15.5	0.00e+00	0	44	0	507510784	15	4311
2026-01-23 01:38:38.45	355.71	21.60	-27.5	-29.1	15.5	0.00e+00	0	44	0	510656512	15	4322
2026-01-23 01:38:39.46	355.54	21.71	-27.3	-29.0	15.8	0.00e+00	0	44	0	513802240	14	4404
2026-01-23 01:38:40.46	355.37	21.81	-27.1	-28.7	16.0	0.00e+00	0	44	0	516947968	14	4303
2026-01-23 01:38:41.47	355.20	21.92	-27.0	-28.4	16.1	0.00e+00	0	44	0	520093696	14	4248
2026-01-23 01:38:42.47	355.03	22.03	-27.0	-28.4	16.1	0.00e+00	0	44	0	523239424	14	4243
2026-01-23 01:38:43.47	354.85	22.14	-27.1	-28.5	16.1	0.00e+00	0	44	0	526385152	14	4273
2026-01-23 01:38:44.47	354.68	22.24	-27.1	-28.7	16.0	0.00e+00	0	44	0	529530880	14	4306
2026-01-23 01:38:45.46	354.51	22.35	-27.1	-28.7	16.0	0.00e+00	0	44	0	532676608	14	4310
2026-01-23 01:38:46.46	354.33	22.46	-27.0	-28.4	16.2	0.00e+00	0	44	0	535822336	14	4241
2026-01-23 01:38:47.46	354.15	22.57	-27.0	-28.3	16.2	0.00e+00	0	44	0	538968064	14	4222
2026-01-23 01:38:48.46	353.97	22.68	-26.9	-28.6	16.3	0.00e+00	0	44	0	542113792	13	4414
2026-01-23 01:38:49.46	353.79	22.78	-26.8	-28.5	16.3	0.00e+00	0	44	0	545259520	13	4371
2026-01-23 01:38:50.46	353.61	22.89	-26.8	-28.4	16.4	0.00e+00	0	45	0	548405248	13	4350
2026-01-23 01:38:51.47	353.43	23.00	-25.8	-27.5	16.2	0.00e+00	0	44	0	551550976	13	4351
2026-01-23 01:38:52.47	353.24	23.11	-26.8	-28.5	16.2	0.00e+00	0	44	0	554696704	13	4375
2026-01-23 01:38:53.48	353.06	23.22	-26.8	-28.4	16.4	0.00e+00	0	44	0	557842432	13	4350
2026-01-23 01:38:54.49	352.87	23.33	-26.8	-28.4	16.4	0.00e+00	0	44	0	560988160	13	4355
2026-01-23 01:38:55.49	352.68	23.44	-26.8	-28.5	16.4	1.18e-04	0	45	0	564133888	13	4373
2026-01-23 01:38:56.50	352.49	23.55	-26.9	-28.7	16.2	1.85e-03	0	44	0	567279616	13	4442
2026-01-23 01:38:57.51	352.30	23.66	-27.2	-28.9	15.9	0.00e+00	0	44	0	570425344	14	4369
2026-01-23 01:38:58.51	352.10	23.77	-27.1	-28.7	16.0	0.00e+00	0	44	0	573571072	14	4325
2026-01-23 01:38:59.51	351.91	23.88	-27.2	-28.8	16.0	0.00e+00	0	44	0	576716800	14	4335
2026-01-23 01:39:00.51	351.72	23.99	-27.2	-29.0	15.9	1.29e-03	0	44	0	578813952	14	4386
2026-01-23 01:39:01.51	351.52	24.10	-27.2	-28.9	15.9	0.00e+00	0	44	0	581959680	14	4377
2026-01-23 01:39:02.51	351.32	24.21	-27.1	-28.5	16.1	0.00e+00	0	44	0	585105408	14	4271
2026-01-23 01:39:03.52	351.12	24.33	-27.0	-28.4	16.2	0.00e+00	0	44	0	588251136	14	4243
2026-01-23 01:39:04.52	350.92	24.44	-27.0	-28.4	16.2	0.00e+00	0	44	0	591396864	14	4233
2026-01-23 01:39:05.51	350.72	24.55	-27.0	-28.5	16.2	2.33e-03	0	44	0	594542592	14	4248
2026-01-23 01:39:06.51	350.52	24.66	-27.1	-28.6	16.1	2.49e-03	0	44	0	597688320	14	4298
2026-01-23 01:39:07.51	350.31	24.77	-27.2	-28.8	16.0	3.80e-06	0	44	0	600834048	14	4337
2026-01-23 01:39:08.51	350.11	24.88	-27.2	-28.9	16.0	0.00e+00	0	44	0	603979776	14	4362
2026-01-23 01:39:09.51	349.90	24.99	-27.3	-29.1	15.9	3.12e-03	0	44	0	607125504	14	4418
2026-01-23 01:39:10.52	349.69	25.10	-27.2	-28.8	16.0	1.72e-04	0	44	0	610271232	14	4344
2026-01-23 01:39:11.52	349.48	25.21	-27.2	-28.9	15.9	3.05e-03	0	44	0	613416960	14	4379
2026-01-23 01:39:12.52	349.26	25.32	-27.2	-28.9	15.9	2.98e-03	0	44	0	616562688	14	4379
2026-01-23 01:39:13.53	349.05	25.43	-27.2	-28.8	16.0	2.24e-04	0	44	0	619708416	14	4339
2026-01-23 01:39:14.53	348.83	25.55	-27.1	-28.6	16.2	2.42e-03	0	44	0	622854144	14	4274
2026-01-23 01:39:15.54	348.61	25.66	-27.0	-28.4	16.2	2.26e-03	0	44	0	625999872	14	4241
2026-01-23 01:39:16.54	348.40	25.77	-27.1	-28.6	16.1	1.42e-04	0	44	0	629145600	14	4280
2026-01-23 01:39:17.54	348.18	25.88	-27.1	-28.6	16.1	1.61e-03	0	44	0	632291328	14	4278
2026-01-23 01:39:18.55	347.95	25.99	-27.0	-28.5	16.2	6.49e-04	0	44	0	635437056	14	4270
2026-01-23 01:39:19.55	347.73	26.10	-27.0	-28.5	16.2	0.00e+00	0	44	0	638582784	14	4247
2026-01-23 01:39:20.55	347.50	26.21	-27.1	-28.5	16.1	1.88e-04	0	44	0	641728512	14	4271
2026-01-23 01:39:21.55	347.28	26.32	-27.0	-28.5	16.2	1.27e-04	0	44	0	644874240	14	4245
2026-01-23 01:39:22.55	347.05	26.43	-27.0	-28.5	16.2	0.00e+00	0	44	0	648019968	14	4254
2026-01-23 01:39:23.55	346.82	26.55	-27.0	-28.3	16.3	0.00e+00	0	44	0	651165696	14	4208
2026-01-23 01:39:24.55	346.59	26.66	-27.2	-28.7	16.0	0.00e+00	0	44	0	654311424	14	4318
2026-01-23 01:39:25.56	346.35	26.77	-27.2	-28.9	15.9	0.00e+00	0	44	0	657457152	14	4373
2026-01-23 01:39:26.56	346.12	26.88	-27.4	-29.4	15.7	3.50e-05	0	44	0	660602880	14	4504
2026-01-23 01:39:27.57	345.88	26.99	-27.6	-29.2	15.5	4.52e-04	0	44	0	663748608	15	4340
2026-01-23 01:39:28.58	345.64	27.10	-27.7	-29.4	15.5	0.00e+00	0	44	0	666894336	15	4405
2026-01-23 01:39:29.58	345.40	27.21	-27.7	-29.4	15.4	0.00e+00	0	44	0	670040064	15	4394
2026-01-23 01:39:30.58	345.16	27.32	-27.6	-29.4	15.5	0.00e+00	0	44	0	673185792	15	4384
2026-01-23 01:39:31.59	344.92	27.43	-27.7	-29.6	15.3	0.00e+00	0	44	0	676331520	15	4448
2026-01-23 01:39:32.59	344.67	27.54	-27.8	-29.6	15.3	2.41e-03	0	44	0	679477248	15	4463
2026-01-23 01:39:33.59	344.42	27.65	-27.7	-29.5	15.4	0.00e+00	0	45	0	682622976	15	4424
2026-01-23 01:39:34.59	344.18	27.76	-27.7	-29.5	15.4	0.00e+00	0	44	0	685768704	15	4437
2026-01-23 01:39:35.59	343.93	27.87	-27.8	-29.6	15.4	0.00e+00	0	44	0	688914432	15	4465
2026-01-23 01:39:36.60	343.67	27.98	-27.8	-29.8	15.2	0.00e+00	0	44	0	692060160	15	4503
2026-01-23 01:39:37.60	343.42	28.09	-27.7	-29.4	15.4	0.00e+00	0	44	0	695205888	15	4399
2026-01-23 01:39:38.61	343.16	28.20	-27.6	-29.3	15.5	0.00e+00	0	44	0	698351616	15	4363
2026-01-23 01:39:39.60	342.91	28.31	-27.6	-29.4	15.5	0.00e+00	0	44	0	701497344	15	4384
2026-01-23 01:39:40.60	342.65	28.42	-27.7	-29.4	15.5	0.00e+00	0	44	0	704643072	15	4392
2026-01-23 01:39:41.60	342.39	28.53	-27.7	-29.5	15.4	0.00e+00	0	44	0	707788800	15	4435
2026-01-23 01:39:42.61	342.12	28.64	-27.8	-29.7	15.3	0.00e+00	0	44	0	710934528	15	4476
2026-01-23 01:39:43.61	341.86	28.74	-27.8	-29.8	15.3	0.00e+00	0	44	0	714080256	15	4503
2026-01-23 01:39:44.61	341.59	28.85	-27.9	-29.9	15.2	0.00e+00	0	44	0	717225984	15	4558
2026-01-23 01:39:45.62	341.32	28.96	-27.9	-29.9	15.2	0.00e+00	0	44	0	720371712	15	4527
2026-01-23 01:39:46.62	341.06	29.07	-27.8	-29.7	15.3	0.00e+00	0	44	0	723517440	15	4488
2026-01-23 01:39:47.63	340.78	29.17	-27.7	-29.5	15.4	0.00e+00	0	45	0	726663168	15	4430
2026-01-23 01:39:48.63	340.51	29.28	-27.7	-29.4	15.4	0.00e+00	0	44	0	729808896	15	4403
2026-01-23 01:39:49.63	340.23	29.39	-27.6	-29.2	15.5	0.00e+00	0	44	0	732954624	15	4351
2026-01-23 01:39:50.64	339.95	29.49	-27.7	-29.5	15.4	0.00e+00	0	44	0	736100352	15	4418
2026-01-23 01:39:51.64	339.68	29.60	-27.6	-29.3	15.5	0.00e+00	0	44	0	739246080	15	4368
2026-01-23 01:39:52.63	339.40	29.70	-27.4	-28.7	15.8	0.00e+00	0	44	0	742391808	15	4206
2026-01-23 01:39:53.63	339.12	29.81	-27.4	-28.7	15.9	0.00e+00	0	45	0	745537536	15	4201
2026-01-23 01:39:54.64	338.83	29.91	-27.3	-28.6	15.9	0.00e+00	0	44	0	748683264	15	4178
2026-01-23 01:39:55.64	338.54	30.01	-27.3	-29.0	16.0	0.00e+00	0	44	0	751828992	14	4401
2026-01-23 01:39:56.64	338.26	30.12	-27.2	-28.8	16.1	0.00e+00	0	44	0	754974720	14	4344
2026-01-23 01:39:57.65	337.96	30.22	-27.3	-29.1	15.9	0.00e+00	0	44	0	758120448	14	4433
2026-01-23 01:39:58.66	337.67	30.32	-27.4	-29.3	15.8	0.00e+00	0	44	0	761266176	14	4485
2026-01-23 01:39:59.66	337.38	30.43	-27.4	-29.3	15.8	0.00e+00	0	44	0	764411904	14	4492
2026-01-23 01:40:00.66	337.08	30.53	-27.4	-29.4	15.7	0.00e+00	0	44	0	767557632	14	4516
2026-01-23 01:40:01.66	336.78	30.63	-27.4	-28.8	15.8	0.00e+00	0	45	0	770703360	15	4234
2026-01-23 01:40:02.66	336.48	30.73	-27.4	-28.7	15.8	0.00e+00	0	44	0	773849088	15	4213
2026-01-23 01:40:03.66	336.18	30.83	-27.5	-29.1	15.6	0.00e+00	0	44	0	776994816	15	4306
2026-01-23 01:40:04.67	335.88	30.93	-27.5	-29.1	15.6	0.00e+00	0	44	0	780140544	15	4315
2026-01-23 01:40:05.67	335.57	31.03	-27.7	-29.4	15.5	0.00e+00	0	45	0	783286272	15	4396
2026-01-23 01:40:06.67	335.27	31.12	-27.6	-29.3	15.6	0.00e+00	0	45	0	786432000	15	4356
2026-01-23 01:40:07.68	334.95	31.22	-27.4	-28.9	15.7	0.00e+00	0	44	0	789577728	15	4251
2026-01-23 01:40:08.68	334.64	31.32	-27.5	-29.5	15.7	0.00e+00	0	44	0	792723456	14	4537
2026-01-23 01:40:09.69	334.33	31.42	-27.4	-28.7	15.8	0.00e+00	0	44	0	795869184	15	4201
2026-01-23 01:40:10.69	334.01	31.51	-27.4	-28.8	15.8	0.00e+00	0	44	0	799014912	15	4232
2026-01-23 01:40:11.69	333.70	31.61	-27.4	-29.3	15.8	0.00e+00	0	44	0	802160640	14	4495
2026-01-23 01:40:12.70	333.38	31.70	-27.6	-29.2	15.5	0.00e+00	0	44	0	805306368	15	4345
2026-01-23 01:40:13.70	333.06	31.80	-27.8	-29.8	15.2	0.00e+00	0	44	0	808452096	15	4498
2026-01-23 01:40:14.71	332.73	31.89	-27.8	-29.8	15.3	0.00e+00	0	45	0	811597824	15	4511
2026-01-23 01:40:15.71	332.41	31.98	-27.8	-29.7	15.3	0.00e+00	0	45	0	814743552	15	4471
2026-01-23 01:40:16.72	332.08	32.07	-27.8	-29.7	15.3	0.00e+00	0	45	0	817889280	15	4469
2026-01-23 01:40:17.73	331.75	32.16	-27.7	-29.6	15.4	0.00e+00	0	44	0	821035008	15	4437
2026-01-23 01:40:18.73	331.42	32.25	-27.8	-29.6	15.4	0.00e+00	0	44	0	824180736	15	4453
2026-01-23 01:40:19.73	331.09	32.34	-27.9	-29.8	15.3	7.00e-07	0	45	0	827326464	15	4515
2026-01-23 01:40:20.74	330.76	32.43	-27.8	-29.6	15.4	0.00e+00	0	45	0	830472192	15	4460
2026-01-23 01:40:21.75	330.42	32.52	-27.7	-29.6	15.4	0.00e+00	0	45	0	833617920	15	4442
2026-01-23 01:40:22.74	330.08	32.60	-27.8	-29.7	15.3	0.00e+00	0	45	0	836763648	15	4484
2026-01-23 01:40:23.74	329.75	32.69	-27.9	-29.9	15.2	0.00e+00	0	45	0	839909376	15	4553
2026-01-23 01:40:24.73	329.41	32.77	-28.2	-30.1	14.9	0.00e+00	0	45	0	843055104	16	4487
2026-01-23 01:40:25.74	329.07	32.86	-28.1	-30.1	14.8	0.00e+00	0	44	0	846200832	16	4539
2026-01-23 01:40:26.73	328.73	32.94	-28.3	-30.3	13.8	0.00e+00	0	44	0	849346560	16	4537
2026-01-23 01:40:27.73	328.38	33.02	-28.4	-30.6	14.7	0.00e+00	0	45	0	852492288	16	4612
2026-01-23 01:40:28.73	328.03	33.10	-28.3	-30.4	14.5	3.12e-03	0	44	0	855638016	16	4550
2026-01-23 01:40:29.73	327.68	33.18	-28.3	-30.4	14.7	0.00e+00	0	45	0	857735168	16	4553
2026-01-23 01:40:30.74	327.33	33.26	-28.3	-30.2	14.9	0.00e+00	0	45	0	860880896	16	4519
2026-01-23 01:40:31.74	326.98	33.34	-28.3	-30.3	14.8	7.00e-07	0	45	0	864026624	16	4528
2026-01-23 01:40:32.74	326.63	33.41	-28.2	-30.1	15.0	0.00e+00	0	44	0	867172352	16	4458
2026-01-23 01:40:33.74	326.27	33.49	-28.0	-29.6	15.3	0.00e+00	0	45	0	870318080	16	4316
2026-01-23 01:40:34.74	325.91	33.56	-28.0	-29.7	15.2	0.00e+00	0	45	0	873463808	16	4360
2026-01-23 01:40:35.74	325.55	33.64	-27.9	-29.5	15.3	0.00e+00	0	45	0	876609536	16	4303
2026-01-23 01:40:36.75	325.19	33.71	-28.0	-29.6	15.2	0.00e+00	0	45	0	879755264	16	4339
2026-01-23 01:40:37.74	324.83	33.78	-27.9	-29.8	15.2	0.00e+00	0	45	0	882900992	15	4516
2026-01-23 01:40:38.75	324.46	33.85	-27.8	-29.7	15.3	3.43e-03	0	45	0	886046720	15	4482
2026-01-23 01:40:39.75	324.10	33.92	-27.9	-30.0	15.1	7.00e-07	0	45	0	889192448	15	4557
2026-01-23 01:40:40.75	323.73	33.99	-28.1	-29.9	15.1	0.00e+00	0	45	0	892338176	16	4415
2026-01-23 01:40:41.75	323.36	34.06	-28.4	-30.5	14.8	7.00e-07	0	45	0	895483904	16	4583
2026-01-23 01:40:42.75	322.99	34.12	-28.4	-30.6	14.7	3.06e-04	0	45	0	898629632	16	4638
2026-01-23 01:40:43.76	322.62	34.18	-28.4	-30.6	14.6	3.74e-03	0	45	0	901775360	16	4638
2026-01-23 01:40:44.75	322.25	34.25	-28.4	-30.6	14.7	3.40e-03	0	45	0	904921088	16	4620
2026-01-23 01:40:45.75	321.88	34.31	-28.5	-30.7	14.6	0.00e+00	0	45	0	908066816	16	4640
2026-01-23 01:40:46.75	321.50	34.37	-28.7	-30.7	14.4	0.00e+00	0	45	0	911212544	17	4539
2026-01-23 01:40:47.75	321.12	34.43	-28.7	-30.7	14.4	3.20e-03	0	45	0	914358272	17	4531
2026-01-23 01:40:48.76	320.74	34.49	-28.6	-30.5	14.4	7.00e-07	0	45	0	917504000	17	4494
2026-01-23 01:40:49.76	320.36	34.54	-28.5	-30.4	14.5	3.92e-03	0	45	0	920649728	17	4439
2026-01-23 01:40:50.77	319.98	34.60	-28.7	-30.8	14.3	0.00e+00	0	44	0	923795456	17	4570
2026-01-23 01:40:51.77	319.60	34.65	-28.7	-30.7	14.3	3.00e-06	0	45	0	926941184	17	4539
2026-01-23 01:40:52.77	319.21	34.70	-28.5	-30.3	14.5	3.75e-03	0	45	0	930086912	17	4417
2026-01-23 01:40:53.78	318.82	34.75	-28.4	-30.6	14.6	3.20e-03	0	45	0	933232640	16	4624
2026-01-23 01:40:54.78	318.44	34.80	-28.2	-30.1	14.9	2.10e-04	0	45	0	936378368	16	4474
2026-01-23 01:40:55.78	318.05	34.85	-28.0	-29.7	15.2	2.35e-03	0	45	0	939524096	16	4355
2026-01-23 01:40:56.78	317.66	34.90	-28.1	-29.8	15.1	3.33e-03	0	45	0	942669824	16	4396
2026-01-23 01:40:57.79	317.27	34.94	-28.1	-30.0	15.0	0.00e+00	0	45	0	945815552	16	4437
2026-01-23 01:40:58.79	316.88	34.99	-28.4	-30.5	14.7	3.47e-03	0	44	0	948961280	16	4604
2026-01-23 01:40:59.80	316.48	35.03	-28.5	-30.3	14.6	2.79e-03	0	44	0	952107008	17	4410
2026-01-23 01:41:00.80	316.09	35.07	-28.5	-30.3	14.6	3.67e-04	0	45	0	955252736	17	4408
2026-01-23 01:41:01.80	315.70	35.11	-28.5	-30.4	14.5	0.00e+00	0	45	0	958398464	17	4439
2026-01-23 01:41:02.81	315.30	35.15	-28.7	-30.6	14.3	7.00e-07	0	45	0	961544192	17	4522
2026-01-23 01:41:03.81	314.90	35.19	-28.7	-30.7	14.4	2.39e-04	0	45	0	964689920	17	4544
2026-01-23 01:41:04.81	314.51	35.22	-28.8	-31.0	14.1	1.37e-03	0	45	0	967835648	17	4640
2026-01-23 01:41:05.82	314.10	35.25	-28.6	-30.4	14.4	2.37e-03	0	45	0	970981376	17	4464
2026-01-23 01:41:06.82	313.71	35.29	-28.5	-30.2	14.6	0.00e+00	0	45	0	974127104	17	4386
2026-01-23 01:41:07.82	313.31	35.32	-28.5	-30.7	14.6	3.40e-03	0	45	0	977272832	16	4655
2026-01-23 01:41:08.82	312.91	35.34	-28.4	-30.6	14.6	3.82e-03	0	45	0	980418560	16	4621
2026-01-23 01:41:09.82	312.51	35.37	-28.5	-30.7	14.6	5.53e-04	0	45	0	983564288	16	4657
2026-01-23 01:41:10.83	312.10	35.40	-28.5	-30.7	14.6	3.83e-03	0	45	0	986710016	16	4648
2026-01-23 01:41:11.83	311.70	35.42	-28.5	-30.2	14.6	0.00e+00	0	45	0	989855744	17	4399
2026-01-23 01:41:12.83	311.30	35.44	-28.7	-30.8	14.2	7.00e-07	0	45	0	993001472	17	4574
2026-01-23 01:41:13.84	310.89	35.46	-28.7	-30.7	14.3	0.00e+00	0	45	0	996147200	17	4557
2026-01-23 01:41:14.84	310.49	35.48	-28.8	-31.1	14.1	3.93e-03	0	45	0	999292928	17	4647
2026-01-23 01:41:15.84	310.09	35.50	-29.2	-31.5	13.6	2.83e-04	0	45	0	1002438656	18	4664
2026-01-23 01:41:16.84	309.68	35.52	-29.1	-31.3	13.7	7.60e-06	0	45	0	1005584384	18	4601
2026-01-23 01:41:17.85	309.28	35.53	-29.1	-31.2	13.7	3.00e-06	0	45	0	1008730112	18	4573
2026-01-23 01:41:18.85	308.87	35.54	-29.0	-31.1	13.8	3.80e-06	0	45	0	1011875840	18	4550
2026-01-23 01:41:19.86	308.46	35.55	-29.3	-31.8	13.4	3.84e-03	0	45	0	1015021568	18	4781
2026-01-23 01:41:20.86	308.06	35.56	-29.3	-31.7	13.5	1.44e-05	0	45	0	1018167296	18	4736
2026-01-23 01:41:21.87	307.65	35.57	-29.2	-31.5	13.6	9.90e-06	0	45	0	1021313024	18	4685
2026-01-23 01:41:22.86	307.25	35.58	-29.5	-31.7	13.2	1.67e-05	0	45	0	1024458752	19	4625
2026-01-23 01:41:23.87	306.84	35.58	-29.5	-31.5	13.2	1.29e-05	0	45	0	1027604480	19	4578
2026-01-23 01:41:24.87	306.43	35.58	-29.0	-30.5	13.8	4.50e-06	0	45	0	1030750208	19	4276
2026-01-23 01:41:25.88	306.02	35.58	-28.8	-30.4	14.2	7.00e-07	0	45	0	1033895936	18	4337
2026-01-23 01:41:26.89	305.61	35.58	-28.8	-30.9	14.2	7.00e-07	0	45	0	1037041664	17	4594
2026-01-23 01:41:27.89	305.20	35.58	-28.6	-30.5	14.4	7.00e-07	0	45	0	1040187392	17	4483
2026-01-23 01:41:28.90	304.79	35.58	-28.6	-30.5	14.4	0.00e+00	0	45	0	1043333120	17	4474
2026-01-23 01:41:29.89	304.39	35.57	-29.1	-31.2	13.8	3.00e-06	0	45	0	1046478848	18	4579
2026-01-23 01:41:30.89	303.99	35.57	-29.0	-30.8	14.0	3.00e-06	0	45	0	1049624576	18	4470
2026-01-23 01:41:31.89	303.58	35.56	-28.5	-30.2	14.5	2.20e-06	0	45	0	1052770304	17	4405
2026-01-23 01:41:32.90	303.17	35.55	-28.3	-30.3	14.8	7.00e-07	0	45	0	1055916032	16	4543
2026-01-23 01:41:33.91	302.76	35.53	-28.3	-30.4	14.8	0.00e+00	0	45	0	1059061760	16	4546
2026-01-23 01:41:34.90	302.36	35.52	-28.3	-30.3	14.8	0.00e+00	0	45	0	1062207488	16	4539
2026-01-23 01:41:35.90	301.96	35.50	-28.3	-30.3	14.8	0.00e+00	0	45	0	1065353216	16	4540
2026-01-23 01:41:36.91	301.55	35.49	-28.4	-30.5	14.7	1.50e-06	0	45	0	1068498944	16	4601
2026-01-23 01:41:37.91	301.15	35.47	-28.4	-30.4	14.7	0.00e+00	0	45	0	1071644672	16	4574
2026-01-23 01:41:38.92	300.74	35.45	-28.2	-30.0	15.0	0.00e+00	0	45	0	1074790400	16	4428
2026-01-23 01:41:39.92	300.34	35.43	-28.2	-30.1	15.0	7.00e-07	0	44	0	1077936128	16	4466
2026-01-23 01:41:40.92	299.94	35.40	-28.2	-30.0	15.0	7.00e-07	0	45	0	1081081856	16	4455
2026-01-23 01:41:41.93	299.53	35.38	-27.8	-29.7	15.3	7.00e-07	0	45	0	1084227584	15	4475
2026-01-23 01:41:42.93	299.13	35.35	-28.0	-30.1	15.0	0.00e+00	0	45	0	1087373312	15	4605
2026-01-23 01:41:43.93	298.73	35.32	-28.2	-30.1	14.9	0.00e+00	0	45	0	1090519040	16	4484
2026-01-23 01:41:44.94	298.33	35.29	-28.1	-29.9	15.1	0.00e+00	0	45	0	1093664768	16	4404
2026-01-23 01:41:45.95	297.92	35.26	-28.3	-30.2	14.9	0.00e+00	0	45	0	1096810496	16	4516
2026-01-23 01:41:46.95	297.53	35.23	-28.4	-30.6	14.7	0.00e+00	0	45	0	1099956224	16	4621
2026-01-23 01:41:47.96	297.13	35.19	-28.5	-30.7	14.6	1.50e-06	0	45	0	1103101952	16	4667
2026-01-23 01:41:48.97	296.73	35.16	-28.4	-30.6	14.6	0.00e+00	0	45	0	1106247680	16	4641
2026-01-23 01:41:49.97	296.33	35.12	-28.6	-30.5	14.4	2.20e-06	0	45	0	1108344832	17	4490
2026-01-23 01:41:50.97	295.94	35.08	-28.7	-30.7	14.3	7.00e-07	0	45	0	1111490560	17	4537
2026-01-23 01:41:51.97	295.54	35.04	-28.7	-30.7	14.3	0.00e+00	0	45	0	1114636288	17	4535
2026-01-23 01:41:52.97	295.15	35.00	-28.8	-31.1	14.1	2.20e-06	0	45	0	1117782016	17	4668
2026-01-23 01:41:53.98	294.76	34.96	-29.0	-31.4	13.9	3.80e-06	0	45	0	1121976320	17	4777
2026-01-23 01:41:54.98	294.37	34.91	-29.0	-30.9	13.9	2.20e-06	0	45	0	1125122048	18	4509
2026-01-23 01:41:55.98	293.98	34.87	-29.0	-31.0	13.9	1.50e-06	0	45	0	1128267776	18	4512
2026-01-23 01:41:56.99	293.58	34.82	-28.8	-30.6	14.1	2.20e-06	0	45	0	1131413504	18	4400
2026-01-23 01:41:58.00	293.19	34.77	-28.8	-30.4	14.2	2.20e-06	0	45	0	1133510656	18	4353
2026-01-23 01:41:59.01	292.80	34.72	-28.9	-31.3	13.9	1.50e-06	0	45	0	1136656384	17	4741
2026-01-23 01:42:00.01	292.42	34.66	-28.6	-30.5	14.4	3.00e-06	0	45	0	1139802112	17	4472
2026-01-23 01:42:01.02	292.03	34.61	-28.1	-29.3	15.1	0.00e+00	0	45	0	1142947840	17	4144
2026-01-23 01:42:02.03	291.65	34.56	-27.8	-29.1	15.4	0.00e+00	0	45	0	1147142144	16	4211
2026-01-23 01:42:03.03	291.27	34.50	-27.6	-29.2	15.5	0.00e+00	0	45	0	1150287872	15	4338
2026-01-23 01:42:04.03	290.89	34.44	-27.6	-29.1	15.6	0.00e+00	0	45	0	1153433600	15	4318
2026-01-23 01:42:05.04	290.50	34.38	-27.8	-29.6	15.3	0.00e+00	0	45	0	1155530752	15	4453
2026-01-23 01:42:06.04	290.13	34.32	-27.7	-29.5	15.3	0.00e+00	0	45	0	1158676480	15	4430
2026-01-23 01:42:07.04	289.75	34.26	-27.9	-30.0	15.1	0.00e+00	0	45	0	1161822208	15	4573
2026-01-23 01:42:08.05	289.38	34.20	-27.9	-29.9	15.1	7.00e-07	0	45	0	1164967936	15	4531
2026-01-23 01:42:09.05	289.00	34.13	-27.7	-29.8	15.0	0.00e+00	0	45	0	1168113664	15	4590
2026-01-23 01:42:10.05	288.63	34.07	-28.3	-30.4	12.3	0.00e+00	0	45	0	1171259392	16	4575
2026-01-23 01:42:11.06	288.26	34.00	-28.4	-30.6	12.3	0.00e+00	0	45	0	1174405120	16	4621
2026-01-23 01:42:12.06	287.89	33.93	-28.5	-30.3	14.4	2.44e-05	0	45	0	1177550848	17	4419
2026-01-23 01:42:13.06	287.52	33.87	-28.4	-30.7	14.5	0.00e+00	0	45	0	1180696576	16	4645
2026-01-23 01:42:14.07	287.16	33.80	-28.4	-30.6	14.5	0.00e+00	0	45	0	1183842304	16	4645
2026-01-23 01:42:15.08	286.79	33.72	-28.4	-30.5	14.6	0.00e+00	0	45	0	1186988032	16	4607
2026-01-23 01:42:16.08	286.43	33.65	-28.4	-30.6	14.6	0.00e+00	0	45	0	1190133760	16	4638
2026-01-23 01:42:17.08	286.07	33.58	-28.8	-31.0	14.1	1.17e-03	0	45	0	1193279488	17	4633
2026-01-23 01:42:18.08	285.71	33.50	-28.8	-31.1	14.0	3.00e-06	0	45	0	1196425216	17	4688
2026-01-23 01:42:19.09	285.35	33.43	-29.0	-31.0	13.8	3.00e-06	0	45	0	1199570944	18	4539
2026-01-23 01:42:20.09	284.99	33.35	-28.6	-30.6	14.3	7.00e-07	0	45	0	1202716672	17	4518
2026-01-23 01:42:21.09	284.64	33.27	-28.4	-30.0	14.7	0.00e+00	0	45	0	1205862400	17	4338
2026-01-23 01:42:22.09	284.29	33.19	-28.3	-30.3	14.8	2.80e-03	0	45	0	1209008128	16	4523
2026-01-23 01:42:23.09	283.94	33.12	-28.4	-30.4	14.6	2.41e-03	0	45	0	1212153856	16	4581
2026-01-23 01:42:24.10	283.59	33.03	-28.4	-30.5	14.7	0.00e+00	0	45	0	1215299584	16	4594
2026-01-23 01:42:25.09	283.25	32.95	-28.7	-30.7	14.2	0.00e+00	0	45	0	1218445312	17	4554
2026-01-23 01:42:26.10	282.90	32.87	-28.5	-30.3	14.4	7.00e-07	0	45	0	1221591040	17	4440
2026-01-23 01:42:27.10	282.55	32.79	-28.4	-30.2	14.4	7.00e-07	0	44	0	1224736768	17	4394
2026-01-23 01:42:28.10	282.21	32.70	-28.3	-30.4	14.6	3.13e-03	0	45	0	1227882496	16	4580
2026-01-23 01:42:29.11	281.87	32.62	-28.3	-30.4	14.7	3.77e-03	0	45	0	1231028224	16	4560
2026-01-23 01:42:30.11	281.53	32.53	-28.0	-29.6	15.1	0.00e+00	0	45	0	1234173952	16	4325
2026-01-23 01:42:31.11	281.20	32.44	-27.7	-29.5	15.3	4.25e-03	0	45	0	1237319680	15	4412
2026-01-23 01:42:32.11	280.86	32.35	-27.7	-29.6	15.2	4.33e-03	0	45	0	1240465408	15	4451
2026-01-23 01:42:33.12	280.53	32.26	-27.6	-29.4	15.3	4.66e-04	0	45	0	1243611136	15	4396
2026-01-23 01:42:34.12	280.20	32.17	-27.6	-29.2	15.4	4.42e-03	0	45	0	1246756864	15	4330
2026-01-23 01:42:35.12	279.87	32.08	-27.8	-29.7	15.1	0.00e+00	0	45	0	1249902592	15	4481
2026-01-23 01:42:36.13	279.54	31.99	-28.0	-30.2	14.9	3.65e-04	0	45	0	1253048320	15	4625
2026-01-23 01:42:37.13	279.21	31.90	-28.2	-30.2	14.7	4.22e-03	0	45	0	1256194048	16	4500
2026-01-23 01:42:38.13	278.89	31.81	-28.0	-29.7	15.0	4.00e-03	0	45	0	1259339776	16	4365
2026-01-23 01:42:39.13	278.57	31.71	-27.8	-29.3	15.3	6.56e-05	0	45	0	1262485504	16	4256
2026-01-23 01:42:40.14	278.25	31.62	-27.7	-29.5	15.2	3.50e-03	0	45	0	1265631232	15	4428
2026-01-23 01:42:41.14	277.93	31.52	-27.8	-29.7	15.2	0.00e+00	0	45	0	1268776960	15	4494
2026-01-23 01:42:42.14	277.62	31.43	-27.5	-29.1	15.5	0.00e+00	0	45	0	1271922688	15	4308
2026-01-23 01:42:43.15	277.30	31.33	-27.6	-29.3	15.4	6.52e-04	0	45	0	1275068416	15	4364
2026-01-23 01:42:44.15	276.99	31.23	-27.9	-29.9	15.0	3.75e-04	0	45	0	1278214144	15	4557
2026-01-23 01:42:45.16	276.67	31.13	-28.3	-30.4	14.6	0.00e+00	0	45	0	1281359872	16	4578
2026-01-23 01:42:46.15	276.37	31.04	-28.3	-30.4	14.6	0.00e+00	0	45	0	1284505600	16	4568
2026-01-23 01:42:47.16	276.06	30.94	-28.0	-29.7	15.0	2.12e-03	0	45	0	1287651328	16	4375
2026-01-23 01:42:48.16	275.76	30.84	-27.8	-29.1	15.3	0.00e+00	0	45	0	1290797056	16	4212
2026-01-23 01:42:49.17	275.45	30.74	-27.6	-29.4	15.3	3.59e-03	0	45	0	1293942784	15	4388
2026-01-23 01:42:50.17	275.15	30.64	-27.9	-29.8	15.0	2.84e-03	0	45	0	1297088512	15	4527
2026-01-23 01:42:51.17	274.85	30.54	-28.3	-30.3	14.6	0.00e+00	0	45	0	1300234240	16	4553
2026-01-23 01:42:52.17	274.56	30.43	-28.2	-30.2	14.7	3.00e-06	0	45	0	1303379968	16	4513
2026-01-23 01:42:53.17	274.26	30.33	-28.4	-30.6	14.4	3.85e-03	0	45	0	1306525696	16	4639
2026-01-23 01:42:54.17	273.97	30.23	-28.9	-31.4	13.7	4.50e-06	0	45	0	1309671424	17	4765
2026-01-23 01:42:55.17	273.68	30.13	-29.0	-31.1	13.6	6.80e-06	0	45	0	1312817152	18	4568
2026-01-23 01:42:56.18	273.38	30.02	-29.1	-31.3	13.4	9.90e-06	0	45	0	1315962880	18	4644
2026-01-23 01:42:57.18	273.10	29.92	-28.7	-30.2	14.1	5.30e-06	0	44	0	1319108608	18	4300
2026-01-23 01:42:58.18	272.81	29.81	-28.1	-29.5	14.8	7.60e-06	0	45	0	1322254336	17	4194
2026-01-23 01:42:59.18	272.53	29.71	-27.7	-29.1	15.3	2.38e-03	0	45	0	1325400064	16	4195
2026-01-23 01:43:00.19	272.24	29.60	-27.6	-28.8	15.5	0.00e+00	0	45	0	1328545792	16	4126
2026-01-23 01:43:01.18	271.97	29.50	-27.7	-29.4	15.2	8.30e-06	0	45	0	1331691520	15	4410
2026-01-23 01:43:02.19	271.69	29.39	-27.8	-29.8	15.0	0.00e+00	0	45	0	1334837248	15	4523
2026-01-23 01:43:03.19	271.41	29.29	-28.2	-30.1	14.8	0.00e+00	0	45	0	1337982976	16	4475
2026-01-23 01:43:04.19	271.13	29.18	-28.0	-29.7	15.0	3.00e-06	0	45	0	1341128704	16	4376
2026-01-23 01:43:05.20	270.86	29.07	-27.7	-29.5	15.2	0.00e+00	0	45	0	1344274432	15	4443
2026-01-23 01:43:06.20	270.59	28.96	-27.7	-29.4	15.2	0.00e+00	0	45	0	1347420160	15	4421
2026-01-23 01:43:07.20	270.32	28.86	-27.7	-29.4	15.2	0.00e+00	0	45	0	1350565888	15	4423
2026-01-23 01:43:08.21	270.05	28.75	-27.7	-29.6	15.1	0.00e+00	0	44	0	1353711616	15	4466
2026-01-23 01:43:09.21	269.78	28.64	-27.5	-29.1	15.4	0.00e+00	0	45	0	1356857344	15	4333
2026-01-23 01:43:10.21	269.52	28.53	-27.6	-29.2	15.3	3.00e-06	0	45	0	1360003072	15	4351
2026-01-23 01:43:11.21	269.26	28.42	-27.5	-29.5	15.5	0.00e+00	0	45	0	1363148800	14	4543
2026-01-23 01:43:12.22	269.00	28.31	-27.7	-29.5	15.2	0.00e+00	0	45	0	1366294528	15	4429
2026-01-23 01:43:13.22	268.74	28.20	-27.8	-29.9	14.9	9.10e-06	0	45	0	1369440256	15	4552
2026-01-23 01:43:14.22	268.48	28.09	-27.6	-29.2	15.3	0.00e+00	0	45	0	1372585984	15	4359
2026-01-23 01:43:15.22	268.23	27.98	-27.3	-28.6	15.6	0.00e+00	0	45	0	1375731712	15	4184
2026-01-23 01:43:16.23	267.97	27.87	-27.1	-28.7	15.8	7.60e-06	0	45	0	1378877440	14	4339
2026-01-23 01:43:17.24	267.72	27.76	-27.0	-28.4	16.0	0.00e+00	0	45	0	1382023168	14	4230
2026-01-23 01:43:18.24	267.47	27.65	-26.8	-28.1	16.2	0.00e+00	0	45	0	1385168896	14	4157
2026-01-23 01:43:19.25	267.22	27.54	-26.8	-28.0	16.2	0.00e+00	0	45	0	1388314624	14	4143
2026-01-23 01:43:20.26	266.97	27.43	-27.0	-28.3	16.1	0.00e+00	0	45	0	1391460352	14	4221
2026-01-23 01:43:21.26	266.73	27.32	-27.0	-28.4	16.0	0.00e+00	0	45	0	1394606080	14	4244
2026-01-23 01:43:22.26	266.48	27.21	-27.2	-28.8	15.8	0.00e+00	0	45	0	1397751808	14	4362
2026-01-23 01:43:23.27	266.24	27.10	-27.2	-28.9	15.7	0.00e+00	0	45	0	1400897536	14	4389
2026-01-23 01:43:24.27	266.00	26.99	-27.1	-28.7	15.9	0.00e+00	0	45	0	1404043264	14	4311
2026-01-23 01:43:25.27	265.76	26.87	-26.9	-28.3	16.1	0.00e+00	0	45	0	1407188992	14	4209
2026-01-23 01:43:26.28	265.53	26.76	-26.9	-28.2	16.1	0.00e+00	0	45	0	1410334720	14	4177
2026-01-23 01:43:27.29	265.29	26.65	-26.9	-28.3	16.1	0.00e+00	0	45	0	1413480448	14	4198
2026-01-23 01:43:28.29	265.06	26.54	-26.7	-27.7	16.4	0.00e+00	0	45	0	1416626176	14	4061
2026-01-23 01:43:29.29	264.83	26.43	-26.6	-28.0	16.5	0.00e+00	0	45	0	1419771904	13	4234
2026-01-23 01:43:30.30	264.59	26.32	-26.7	-28.2	16.4	0.00e+00	0	45	0	1422917632	13	4284
2026-01-23 01:43:31.30	264.37	26.20	-26.7	-28.2	16.4	0.00e+00	0	45	0	1426063360	13	4288
2026-01-23 01:43:32.31	264.14	26.09	-26.8	-28.5	16.2	0.00e+00	0	45	0	1429209088	13	4368
2026-01-23 01:43:33.31	263.91	25.98	-27.0	-28.5	15.9	0.00e+00	0	45	0	1432354816	14	4276
2026-01-23 01:43:34.32	263.69	25.87	-27.0	-28.4	16.0	0.00e+00	0	45	0	1434451968	14	4246
2026-01-23 01:43:35.32	263.47	25.76	-27.0	-28.5	15.9	0.00e+00	0	45	0	1437597696	14	4274
2026-01-23 01:43:36.32	263.25	25.64	-27.0	-28.5	15.9	0.00e+00	0	45	0	1440743424	14	4281
2026-01-23 01:43:37.32	263.03	25.53	-26.9	-28.3	16.0	0.00e+00	0	45	0	1443889152	14	4230
2026-01-23 01:43:38.32	262.81	25.42	-26.9	-28.3	16.0	0.00e+00	0	45	0	1447034880	14	4229
2026-01-23 01:43:39.32	262.60	25.31	-27.0	-28.4	16.0	0.00e+00	0	45	0	1450180608	14	4234
2026-01-23 01:43:40.32	262.38	25.20	-27.0	-28.4	15.9	0.00e+00	0	45	0	1453326336	14	4253
2026-01-23 01:43:41.32	262.17	25.09	-26.8	-28.5	16.1	0.00e+00	0	45	0	1456472064	13	4399
2026-01-23 01:43:42.33	261.96	24.97	-26.9	-28.7	16.0	0.00e+00	0	45	0	1459617792	13	4446
2026-01-23 01:43:43.34	261.75	24.86	-26.8	-28.5	16.1	0.00e+00	0	45	0	1462763520	13	4392
2026-01-23 01:43:44.34	261.54	24.75	-26.8	-28.5	16.1	0.00e+00	0	45	0	1465909248	13	4385
2026-01-23 01:43:45.34	261.34	24.64	-26.7	-28.3	16.2	0.00e+00	0	45	0	1469054976	13	4338
2026-01-23 01:43:46.34	261.13	24.53	-26.8	-28.5	16.1	0.00e+00	0	45	0	1472200704	13	4378
2026-01-23 01:43:47.35	260.93	24.42	-26.8	-28.6	16.1	0.00e+00	0	45	0	1475346432	13	4408
2026-01-23 01:43:48.35	260.72	24.31	-26.7	-28.4	16.2	0.00e+00	0	44	0	1478492160	13	4353
2026-01-23 01:43:49.35	260.52	24.19	-26.8	-28.6	16.1	0.00e+00	0	45	0	1481637888	13	4409
2026-01-23 01:43:50.36	260.32	24.08	-26.6	-28.0	16.4	0.00e+00	0	45	0	1484783616	13	4255
2026-01-23 01:43:51.37	260.12	23.97	-26.4	-27.7	16.5	0.00e+00	0	45	0	1487929344	13	4169
2026-01-23 01:43:52.37	259.93	23.86	-26.4	-27.7	16.5	0.00e+00	0	45	0	1491075072	13	4164
2026-01-23 01:43:53.38	259.73	23.75	-26.4	-28.1	16.5	0.00e+00	0	45	0	1494220800	12	4396
2026-01-23 01:43:54.39	259.54	23.64	-26.4	-28.2	16.5	0.00e+00	0	45	0	1497366528	12	4424
2026-01-23 01:43:55.39	259.34	23.53	-26.5	-28.0	16.4	0.00e+00	0	44	0	1500512256	13	4244
2026-01-23 01:43:56.40	259.15	23.42	-26.8	-28.5	16.1	1.60e-05	0	45	0	1503657984	13	4376
2026-01-23 01:43:57.40	258.96	23.31	-26.9	-28.8	15.9	0.00e+00	0	45	0	1506803712	13	4476
2026-01-23 01:43:58.40	258.78	23.20	-27.0	-29.0	15.8	0.00e+00	0	45	0	1509949440	13	4519
2026-01-23 01:43:59.40	258.59	23.09	-27.4	-29.3	15.4	0.00e+00	0	44	0	1513095168	14	4502
2026-01-23 01:44:00.40	258.40	22.98	-27.5	-29.2	15.2	8.30e-06	0	45	0	1516240896	15	4355
2026-01-23 01:44:01.40	258.22	22.87	-27.4	-29.3	15.4	1.95e-03	0	45	0	1519386624	14	4506
2026-01-23 01:44:02.40	258.04	22.76	-27.4	-29.4	15.4	0.00e+00	0	45	0	1522532352	14	4519
2026-01-23 01:44:03.40	257.86	22.65	-27.4	-29.5	15.3	7.60e-06	0	45	0	1525678080	14	4550
2026-01-23 01:44:04.40	257.68	22.54	-27.5	-29.5	15.3	0.00e+00	0	45	0	1528823808	14	4570
2026-01-23 01:44:05.41	257.50	22.43	-27.5	-29.5	15.3	0.00e+00	0	45	0	1531969536	14	4575
2026-01-23 01:44:06.41	257.32	22.32	-27.5	-29.6	15.2	4.54e-03	0	45	0	1535115264	14	4587
2026-01-23 01:44:07.42	257.14	22.21	-27.4	-29.4	15.3	4.64e-03	0	45	0	1538260992	14	4521
2026-01-23 01:44:08.42	256.97	22.10	-27.2	-28.9	15.6	0.00e+00	0	45	0	1541406720	14	4397
2026-01-23 01:44:09.42	256.79	21.99	-27.3	-29.2	15.4	4.50e-06	0	45	0	1544552448	14	4473
2026-01-23 01:44:10.43	256.62	21.89	-27.3	-29.1	15.5	1.01e-04	0	45	0	1547698176	14	4444
2026-01-23 01:44:11.43	256.45	21.78	-26.9	-28.4	15.9	9.53e-05	0	45	0	1550843904	14	4233
2026-01-23 01:44:12.43	256.28	21.67	-26.7	-28.4	16.1	3.40e-03	0	45	0	1553989632	13	4359
2026-01-23 01:44:13.43	256.11	21.56	-26.7	-28.4	16.1	2.65e-03	0	45	0	1557135360	13	4354
2026-01-23 01:44:14.43	255.94	21.46	-26.7	-28.4	16.1	0.00e+00	0	45	0	1560281088	13	4366
2026-01-23 01:44:15.43	255.77	21.35	-26.6	-28.1	16.3	9.10e-06	0	45	0	1563426816	13	4269
2026-01-23 01:44:16.44	255.61	21.24	-26.6	-28.2	16.2	0.00e+00	0	45	0	1566572544	13	4296
2026-01-23 01:44:17.44	255.44	21.13	-26.7	-28.2	16.2	0.00e+00	0	45	0	1569718272	13	4319
2026-01-23 01:44:18.44	255.28	21.03	-26.8	-28.4	16.1	7.25e-04	0	45	0	1572864000	13	4373
2026-01-23 01:44:19.45	255.12	20.92	-26.8	-28.7	16.0	1.68e-03	0	45	0	1576009728	13	4442
2026-01-23 01:44:20.45	254.95	20.81	-26.9	-28.7	15.9	7.00e-07	0	45	0	1579155456	13	4459
2026-01-23 01:44:21.45	254.79	20.71	-26.9	-28.7	15.9	3.34e-03	0	45	0	1582301184	13	4461
2026-01-23 01:44:22.45	254.64	20.60	-26.9	-28.8	15.9	3.90e-03	0	45	0	1585446912	13	4470
2026-01-23 01:44:23.45	254.48	20.50	-27.0	-29.0	15.8	2.64e-04	0	45	0	1588592640	13	4530
2026-01-23 01:44:24.46	254.32	20.39	-27.2	-28.9	15.5	4.29e-03	0	45	0	1591738368	14	4393
2026-01-23 01:44:25.46	254.17	20.29	-27.1	-28.8	15.6	4.42e-03	0	45	0	1594884096	14	4366
2026-01-23 01:44:26.47	254.01	20.18	-26.8	-28.6	15.9	6.24e-04	0	45	0	1598029824	13	4411
2026-01-23 01:44:27.48	253.86	20.07	-26.7	-28.2	16.1	4.51e-03	0	45	0	1601175552	13	4314
2026-01-23 01:44:28.48	253.70	19.97	-26.7	-28.4	16.1	4.25e-03	0	45	0	1604321280	13	4352
2026-01-23 01:44:29.49	253.55	19.87	-26.9	-28.7	15.9	8.12e-04	0	45	0	1607467008	13	4451
2026-01-23 01:44:30.49	253.40	19.76	-27.0	-28.6	15.7	0.00e+00	0	45	0	1610612736	14	4301
2026-01-23 01:44:31.49	253.25	19.66	-27.1	-28.8	15.6	0.00e+00	0	45	0	1613758464	14	4375
2026-01-23 01:44:32.49	253.10	19.55	-27.2	-29.0	15.5	1.45e-03	0	45	0	1616904192	14	4426
2026-01-23 01:44:33.49	252.96	19.45	-27.2	-29.0	15.5	5.33e-03	0	45	0	1620049920	14	4411
2026-01-23 01:44:34.50	252.81	19.35	-27.2	-28.9	15.5	7.60e-06	0	45	0	1623195648	14	4384
2026-01-23 01:44:35.50	252.66	19.24	-27.2	-28.9	15.5	0.00e+00	0	45	0	1626341376	14	4393
2026-01-23 01:44:36.50	252.52	19.14	-27.1	-28.7	15.6	0.00e+00	0	44	0	1629487104	14	4336
2026-01-23 01:44:37.50	252.38	19.04	-26.8	-28.7	15.9	5.14e-03	0	45	0	1632632832	13	4443
2026-01-23 01:44:38.49	252.24	18.94	-26.8	-28.5	16.0	2.37e-03	0	45	0	1635778560	13	4383
2026-01-23 01:44:39.50	252.09	18.84	-26.7	-28.4	16.0	0.00e+00	0	45	0	1638924288	13	4358
2026-01-23 01:44:40.50	251.95	18.73	-26.8	-28.5	15.9	0.00e+00	0	45	0	1642070016	13	4388
2026-01-23 01:44:41.50	251.82	18.63	-26.9	-28.7	15.8	0.00e+00	0	45	0	1645215744	13	4449
2026-01-23 01:44:42.51	251.68	18.53	-26.9	-28.9	15.7	5.42e-03	0	45	0	1648361472	13	4501
2026-01-23 01:44:43.52	251.54	18.43	-27.2	-28.9	15.4	5.37e-03	0	45	0	1651507200	14	4405
2026-01-23 01:44:44.52	251.40	18.33	-27.3	-29.3	15.3	0.00e+00	0	45	0	1654652928	14	4499
2026-01-23 01:44:45.53	251.26	18.23	-27.3	-29.2	15.3	0.00e+00	0	45	0	1657798656	14	4492
2026-01-23 01:44:46.54	251.13	18.13	-27.4	-29.4	15.2	0.00e+00	0	45	0	1660944384	14	4553
2026-01-23 01:44:47.54	250.99	18.03	-27.5	-29.2	15.0	0.00e+00	0	45	0	1664090112	15	4370
2026-01-23 01:44:48.54	250.86	17.93	-27.6	-29.4	14.9	0.00e+00	0	44	0	1667235840	15	4426
2026-01-23 01:44:49.55	250.73	17.83	-27.6	-29.5	14.8	0.00e+00	0	45	0	1670381568	15	4459
2026-01-23 01:44:50.55	250.60	17.73	-27.6	-29.3	15.0	0.00e+00	0	45	0	1673527296	15	4404
2026-01-23 01:44:51.55	250.47	17.63	-27.6	-29.4	14.9	0.00e+00	0	45	0	1676673024	15	4415
2026-01-23 01:44:52.56	250.34	17.53	-27.5	-29.2	15.0	0.00e+00	0	45	0	1679818752	15	4374
2026-01-23 01:44:53.56	250.21	17.43	-27.3	-28.7	15.3	1.14e-05	0	45	0	1682964480	15	4243
2026-01-23 01:44:54.57	250.08	17.33	-27.2	-29.0	15.3	0.00e+00	0	45	0	1686110208	14	4435
2026-01-23 01:44:55.56	249.95	17.23	-27.1	-28.9	15.5	0.00e+00	0	45	0	1689255936	14	4389
2026-01-23 01:44:56.57	249.83	17.13	-27.1	-28.8	15.5	0.00e+00	0	45	0	1692401664	14	4364
2026-01-23 01:44:57.57	249.70	17.04	-27.2	-29.0	15.4	0.00e+00	0	45	0	1695547392	14	4424
2026-01-23 01:44:58.57	249.58	16.94	-27.2	-29.1	15.3	0.00e+00	0	45	0	1698693120	14	4447
2026-01-23 01:44:59.58	249.45	16.84	-27.2	-29.0	15.4	5.30e-06	0	45	0	1701838848	14	4420
2026-01-23 01:45:00.58	249.33	16.75	-27.3	-29.2	15.3	0.00e+00	0	45	0	1704984576	14	4477
2026-01-23 01:45:01.59	249.21	16.65	-27.3	-29.2	15.2	0.00e+00	0	45	0	1708130304	14	4493
2026-01-23 01:45:02.60	249.09	16.55	-27.4	-29.4	15.1	4.50e-06	0	45	0	1711276032	14	4547
2026-01-23 01:45:03.60	248.97	16.45	-27.5	-29.3	14.9	0.00e+00	0	44	0	1714421760	15	4391
2026-01-23 01:45:04.60	248.85	16.36	-27.7	-29.6	14.7	7.00e-07	0	45	0	1717567488	15	4484
2026-01-23 01:45:05.60	248.73	16.26	-27.7	-29.6	14.7	8.30e-06	0	45	0	1720713216	15	4504
2026-01-23 01:45:06.60	248.61	16.17	-27.7	-29.6	14.7	0.00e+00	0	45	0	1723858944	15	4501
2026-01-23 01:45:07.61	248.49	16.07	-27.7	-29.8	14.6	1.50e-06	0	45	0	1727004672	15	4541
2026-01-23 01:45:08.60	248.38	15.98	-27.8	-30.0	14.5	9.90e-06	0	44	0	1730150400	15	4608
2026-01-23 01:45:09.61	248.26	15.88	-27.8	-29.9	14.5	7.00e-07	0	45	0	1732247552	15	4585
2026-01-23 01:45:10.61	248.14	15.79	-27.8	-29.8	14.6	1.50e-06	0	45	0	1735393280	15	4552
2026-01-23 01:45:11.60	248.03	15.70	-27.6	-29.5	14.7	4.50e-06	0	45	0	1738539008	15	4459
2026-01-23 01:45:12.60	247.92	15.60	-27.6	-29.4	14.8	0.00e+00	0	45	0	1741684736	15	4431
2026-01-23 01:45:13.60	247.81	15.51	-27.6	-29.5	14.7	0.00e+00	0	45	0	1744830464	15	4468
2026-01-23 01:45:14.61	247.69	15.41	-27.8	-29.8	14.5	0.00e+00	0	45	0	1747976192	15	4565
2026-01-23 01:45:15.61	247.58	15.32	-27.7	-29.7	14.6	0.00e+00	0	45	0	1751121920	15	4531
2026-01-23 01:45:16.61	247.47	15.23	-27.8	-29.9	14.5	7.00e-07	0	45	0	1754267648	15	4595
2026-01-23 01:45:17.62	247.36	15.13	-28.0	-29.9	14.3	1.50e-06	0	45	0	1757413376	16	4457
2026-01-23 01:45:18.63	247.25	15.04	-27.8	-29.8	14.5	7.00e-07	0	45	0	1760559104	15	4556
2026-01-23 01:45:19.64	247.14	14.95	-27.8	-29.8	14.5	7.00e-07	0	45	0	1763704832	15	4561
2026-01-23 01:45:20.65	247.03	14.86	-27.8	-30.0	14.4	0.00e+00	0	45	0	1766850560	15	4615
2026-01-23 01:45:21.65	246.92	14.76	-28.0	-30.3	14.2	7.00e-07	0	45	0	1769996288	15	4702
2026-01-23 01:45:22.66	246.82	14.67	-28.1	-30.1	14.2	7.00e-07	0	45	0	1773142016	16	4522
2026-01-23 01:45:23.67	246.71	14.58	-28.0	-29.9	14.3	0.00e+00	0	45	0	1776287744	16	4459
2026-01-23 01:45:24.67	246.60	14.49	-27.9	-30.2	14.3	7.00e-07	0	45	0	1779433472	15	4666
2026-01-23 01:45:25.67	246.50	14.40	-27.9	-30.1	14.3	7.00e-07	0	45	0	1782579200	15	4663
2026-01-23 01:45:26.67	246.40	14.31	-27.8	-30.0	14.3	1.50e-06	0	45	0	1785724928	15	4618
2026-01-23 01:45:27.68	246.29	14.22	-27.8	-30.0	14.4	7.00e-07	0	45	0	1788870656	15	4613
2026-01-23 01:45:28.68	246.19	14.13	-27.8	-30.0	14.3	7.00e-07	0	45	0	1792016384	15	4629
2026-01-23 01:45:29.68	246.09	14.04	-27.8	-30.0	14.4	7.00e-07	0	45	0	1795162112	15	4604
2026-01-23 01:45:30.68	245.99	13.95	-27.9	-30.2	14.2	7.00e-07	0	45	0	1798307840	15	4667
2026-01-23 01:45:31.69	245.89	13.86	-28.1	-30.0	14.2	3.00e-06	0	45	0	1801453568	16	4485
2026-01-23 01:45:32.69	245.79	13.77	-28.1	-30.0	14.2	1.50e-06	0	45	0	1804599296	16	4509
2026-01-23 01:45:33.70	245.68	13.68	-28.1	-30.1	14.1	1.50e-06	0	45	0	1807745024	16	4535
2026-01-23 01:45:34.70	245.59	13.59	-27.9	-30.3	14.2	7.00e-07	0	45	0	1810890752	15	4709
2026-01-23 01:45:35.70	245.49	13.50	-28.0	-30.4	14.1	7.00e-07	0	45	0	1814036480	15	4737
2026-01-23 01:45:36.70	245.39	13.42	-27.3	-29.5	13.6	2.20e-06	0	45	0	1817182208	16	4615
2026-01-23 01:45:37.70	245.29	13.33	-28.1	-30.2	13.5	7.00e-07	0	45	0	1820327936	16	4566
2026-01-23 01:45:38.71	245.20	13.24	-28.0	-30.4	12.0	2.20e-06	0	45	0	1823473664	15	4731
2026-01-23 01:45:39.70	245.10	13.15	-28.0	-30.3	13.7	3.00e-06	0	45	0	1826619392	15	4719
2026-01-23 01:45:40.70	245.01	13.07	-28.2	-30.3	14.0	6.10e-06	0	45	0	1829765120	16	4590
2026-01-23 01:45:41.71	244.91	12.98	-28.3	-30.6	13.8	1.50e-06	0	45	0	1832910848	16	4689
2026-01-23 01:45:42.70	244.82	12.89	-28.5	-31.0	13.5	4.50e-06	0	45	0	1836056576	16	4815
2026-01-23 01:45:43.70	244.72	12.81	-28.4	-30.7	13.7	5.30e-06	0	45	0	1839202304	16	4726
2026-01-23 01:45:44.70	244.63	12.72	-28.3	-30.6	13.8	3.00e-06	0	45	0	1842348032	16	4670
2026-01-23 01:45:45.70	244.54	12.63	-28.3	-30.6	13.8	4.30e-03	0	45	0	1845493760	16	4696
2026-01-23 01:45:46.70	244.45	12.55	-28.3	-30.6	13.7	1.06e-05	0	45	0	1848639488	16	4698
2026-01-23 01:45:47.71	244.35	12.46	-28.3	-30.6	13.8	7.60e-06	0	45	0	1851785216	16	4693
2026-01-23 01:45:48.71	244.26	12.38	-28.3	-30.7	13.7	5.30e-06	0	45	0	1854930944	16	4705
2026-01-23 01:45:49.72	244.17	12.29	-28.6	-30.8	13.4	1.83e-05	0	45	0	1858076672	17	4637
2026-01-23 01:45:50.72	244.08	12.21	-28.5	-30.6	13.4	4.24e-04	0	45	0	1861222400	17	4576
2026-01-23 01:45:51.72	243.99	12.12	-28.3	-30.2	13.7	1.14e-05	0	45	0	1864368128	17	4465
2026-01-23 01:45:52.72	243.90	12.04	-28.3	-30.0	13.8	6.80e-06	0	44	0	1867513856	17	4402
2026-01-23 01:45:53.73	243.82	11.95	-28.3	-30.7	13.7	5.30e-06	0	45	0	1870659584	16	4726
2026-01-23 01:45:54.73	243.73	11.87	-28.5	-31.0	13.5	2.99e-03	0	45	0	1873805312	16	4814
2026-01-23 01:45:55.74	243.64	11.78	-28.6	-30.8	13.3	1.90e-05	0	45	0	1876951040	17	4638
2026-01-23 01:45:56.74	243.55	11.70	-28.8	-31.3	13.0	4.09e-03	0	45	0	1880096768	17	4813
2026-01-23 01:45:57.74	243.47	11.62	-28.8	-31.3	13.0	3.85e-03	0	45	0	1883242496	17	4812
2026-01-23 01:45:58.74	243.38	11.54	-28.7	-31.1	13.1	3.50e-05	0	45	0	1886388224	17	4752
2026-01-23 01:45:59.75	243.30	11.45	-28.7	-31.1	13.1	3.73e-03	0	45	0	1889533952	17	4752
2026-01-23 01:46:00.75	243.21	11.37	-28.8	-31.2	13.0	4.07e-03	0	45	0	1892679680	17	4792
2026-01-23 01:46:01.76	243.13	11.29	-28.8	-31.4	12.9	3.37e-04	0	44	0	1895825408	17	4835
2026-01-23 01:46:02.76	243.04	11.20	-28.7	-31.2	13.0	4.12e-03	0	44	0	1898971136	17	4782
2026-01-23 01:46:03.76	242.96	11.12	-28.6	-30.8	13.2	2.09e-03	0	45	0	1902116864	17	4645
2026-01-23 01:46:04.77	242.88	11.04	-28.5	-30.7	13.3	3.04e-04	0	45	0	1905262592	17	4635
2026-01-23 01:46:05.77	242.79	10.96	-28.5	-30.6	13.4	3.85e-03	0	44	0	1908408320	17	4585
2026-01-23 01:46:06.77	242.71	10.88	-28.5	-30.6	13.4	3.57e-03	0	45	0	1911554048	17	4578
2026-01-23 01:46:07.77	242.63	10.80	-28.5	-30.7	13.3	3.42e-04	0	45	0	1914699776	17	4606
2026-01-23 01:46:08.78	242.55	10.71	-28.4	-30.4	13.4	1.75e-05	0	44	0	1917845504	17	4534
2026-01-23 01:46:09.79	242.47	10.63	-28.4	-30.8	13.5	3.64e-03	0	45	0	1920991232	16	4761
2026-01-23 01:46:10.80	242.39	10.55	-28.3	-30.7	13.5	3.27e-04	0	45	0	1924136960	16	4739
2026-01-23 01:46:11.80	242.31	10.47	-28.3	-30.7	13.6	3.75e-03	0	45	0	1927282688	16	4717
2026-01-23 01:46:12.80	242.23	10.39	-28.3	-30.7	13.5	3.86e-03	0	45	0	1930428416	16	4729
2026-01-23 01:46:13.81	242.15	10.31	-28.5	-30.7	13.2	1.29e-05	0	45	0	1933574144	17	4617
2026-01-23 01:46:14.81	242.07	10.23	-28.8	-31.3	12.8	4.73e-05	0	45	0	1936719872	17	4825
2026-01-23 01:46:15.81	241.99	10.15	-29.0	-31.8	12.5	3.72e-03	0	45	0	1939865600	17	4984
2026-01-23 01:46:16.81	241.92	10.07	-28.8	-30.9	12.8	1.69e-04	0	45	0	1943011328	18	4578
2026-01-23 01:46:17.82	241.84	9.99	-28.7	-31.1	12.9	3.74e-03	0	45	0	1946157056	17	4749
2026-01-23 01:46:18.82	241.76	9.91	-28.8	-31.4	12.7	5.49e-05	0	45	0	1949302784	17	4857
2026-01-23 01:46:19.83	241.69	9.83	-28.8	-31.4	12.7	7.01e-05	0	45	0	1952448512	17	4871
2026-01-23 01:46:20.83	241.61	9.76	-29.0	-31.8	12.5	1.06e-04	0	44	0	1955594240	17	5001
2026-01-23 01:46:21.83	241.54	9.68	-28.8	-31.5	12.7	3.94e-03	0	45	0	1958739968	17	4883
2026-01-23 01:46:22.84	241.46	9.60	-28.8	-31.3	12.8	6.10e-05	0	45	0	1961885696	17	4815
2026-01-23 01:46:23.84	241.39	9.52	-28.7	-31.2	12.9	5.41e-05	0	44	0	1965031424	17	4776
2026-01-23 01:46:24.85	241.31	9.44	-28.8	-31.3	12.8	5.03e-05	0	45	0	1968177152	17	4817
2026-01-23 01:46:25.86	241.24	9.36	-29.0	-31.8	12.4	9.23e-05	0	45	0	1971322880	17	5006
2026-01-23 01:46:26.86	241.16	9.29	-28.9	-31.1	12.6	9.00e-05	0	45	0	1974468608	18	4646
2026-01-23 01:46:27.86	241.09	9.21	-29.0	-31.8	12.4	1.25e-04	0	45	0	1977614336	17	5006
2026-01-23 01:46:28.86	241.02	9.13	-28.9	-31.7	12.5	1.45e-04	0	44	0	1980760064	17	4955
2026-01-23 01:46:29.87	240.95	9.06	-29.1	-31.6	12.3	1.76e-04	0	44	0	1983905792	18	4814
2026-01-23 01:46:30.87	240.88	8.98	-29.3	-32.1	11.9	3.29e-04	0	44	0	1987051520	18	4994
2026-01-23 01:46:31.87	240.80	8.90	-29.2	-31.8	12.1	2.97e-04	0	45	0	1990197248	18	4900
2026-01-23 01:46:32.88	240.73	8.83	-29.0	-31.3	12.4	1.60e-04	0	45	0	1993342976	18	4729
2026-01-23 01:46:33.88	240.66	8.75	-28.7	-31.3	12.7	9.46e-05	0	44	0	1996488704	17	4818
2026-01-23 01:46:34.88	240.59	8.67	-28.7	-31.2	12.8	5.95e-05	0	44	0	1999634432	17	4804
2026-01-23 01:46:35.89	240.52	8.60	-28.8	-31.4	12.7	7.09e-05	0	45	0	2002780160	17	4848
2026-01-23 01:46:36.89	240.45	8.52	-28.7	-31.2	12.7	8.39e-05	0	45	0	2005925888	17	4796
2026-01-23 01:46:37.90	240.38	8.45	-28.7	-31.2	12.7	7.40e-05	0	44	0	2009071616	17	4817
2026-01-23 01:46:38.90	240.32	8.37	-28.8	-31.4	12.7	9.00e-05	0	44	0	2012217344	17	4852
2026-01-23 01:46:39.90	240.25	8.30	-29.0	-31.9	12.3	1.11e-04	0	45	0	2015363072	17	5030
2026-01-23 01:46:40.91	240.18	8.22	-28.9	-31.6	12.5	1.57e-04	0	45	0	2018508800	17	4928
2026-01-23 01:46:41.91	240.11	8.15	-28.7	-31.2	12.8	6.56e-05	0	45	0	2021654528	17	4786
2026-01-23 01:46:42.91	240.04	8.07	-28.7	-31.3	12.7	7.47e-05	0	44	0	2024800256	17	4822
2026-01-23 01:46:43.91	239.98	8.00	-28.7	-31.2	12.7	5.34e-05	0	44	0	2027945984	17	4806
2026-01-23 01:46:44.92	239.91	7.93	-28.8	-31.4	12.5	9.76e-05	0	45	0	2031091712	17	4882
2026-01-23 01:46:45.93	239.84	7.85	-28.7	-31.3	12.6	9.91e-05	0	44	0	2034237440	17	4839
2026-01-23 01:46:46.93	239.78	7.78	-28.7	-31.1	12.7	6.56e-05	0	45	0	2037383168	17	4783
2026-01-23 01:46:47.93	239.71	7.70	-28.7	-31.3	12.6	8.46e-05	0	45	0	2040528896	17	4835
2026-01-23 01:46:48.93	239.65	7.63	-28.7	-31.2	12.7	7.55e-05	0	45	0	2043674624	17	4796
2026-01-23 01:46:49.93	239.58	7.56	-28.8	-31.4	12.5	1.07e-04	0	44	0	2046820352	17	4888
2026-01-23 01:46:50.93	239.52	7.49	-28.7	-31.2	12.7	8.69e-05	0	45	0	2049966080	17	4809
2026-01-23 01:46:51.93	239.46	7.41	-28.8	-31.5	12.5	9.46e-05	0	44	0	2053111808	17	4907
2026-01-23 01:46:52.94	239.39	7.34	-28.7	-31.3	12.6	1.27e-04	0	45	0	2055208960	17	4857
2026-01-23 01:46:53.95	239.33	7.27	-28.7	-31.2	12.6	8.62e-05	0	45	0	2058354688	17	4822
2026-01-23 01:46:54.94	239.27	7.19	-28.8	-31.5	12.4	1.12e-04	0	44	0	2061500416	17	4914
2026-01-23 01:46:55.95	239.20	7.12	-28.8	-31.4	12.5	1.34e-04	0	45	0	2064646144	17	4877
2026-01-23 01:46:56.95	239.14	7.05	-33.1	-44.8	3.8	1.49e+00	0	44	104	2066743296	26	13880

#Closed at: 2026-01-23 01:46:57
#Recorded file [2066 MB]: D:/data/31010_260123_043554.dat