passes_logs/2026/01/23/R2M6_AANII_01/R2M6_AANII_01__20260123_083906_SUOMI_NPP_rec.log

#Pass ID: 20260123_083906_SUOMI NPP
#Satellite: SUOMI NPP
#Configuration: NPP
#almurnet v.1.7.20240730
#Start time: 2026-01-23 08:39:07

#Version: 2.2.20231116
#Station: R2M6_AANII_01
#Location: 30.233357 lon 59.946436 lat
#TLE: 1 37849U 11061A   26022.50498765  .00000208  00000+0  11976-3 0  9992
#TLE: 2 37849  98.7820 324.4892 0002275  50.8149 309.3229 14.19528284737775

#Time	Az	El	Level	Level2	SNR	BER	BlckErr	Temp	State	Recorded	gain1	gain2
2026-01-23 08:39:07.48	106.10	7.08	-32.2	-38.1	4.5	1.39e+00	0	41	0	0	25	7160
2026-01-23 08:39:08.48	106.01	7.14	-31.9	-36.7	4.7	1.32e+00	0	41	104	0	25	6221
2026-01-23 08:39:09.48	105.93	7.21	-32.0	-36.8	6.7	2.10e-01	0	41	0	0	25	6270
2026-01-23 08:39:10.48	105.84	7.28	-32.0	-37.0	6.6	2.00e-01	0	41	102	1048576	25	6383
2026-01-23 08:39:11.48	105.76	7.34	-32.0	-37.1	6.5	2.35e-01	0	41	102	1048576	25	6425
2026-01-23 08:39:12.49	105.67	7.41	-32.1	-37.5	6.3	2.21e-01	0	41	102	1048576	25	6710
2026-01-23 08:39:13.49	105.58	7.48	-32.1	-37.4	6.3	2.59e-01	0	41	102	1048576	25	6622
2026-01-23 08:39:14.50	105.50	7.55	-32.0	-36.6	6.9	2.18e-01	0	41	102	1048576	25	6169
2026-01-23 08:39:15.50	105.41	7.61	-31.8	-36.1	7.7	1.15e-01	0	41	102	1048576	24	5914
2026-01-23 08:39:16.50	105.32	7.68	-31.5	-34.8	8.6	6.30e-02	0	41	102	1048576	24	5307
2026-01-23 08:39:17.49	105.23	7.75	-31.4	-34.4	9.0	2.75e-02	0	41	102	1048576	24	5125
2026-01-23 08:39:18.49	105.15	7.82	-31.2	-34.3	9.5	1.68e-02	0	41	102	1048576	23	5146
2026-01-23 08:39:19.49	105.06	7.88	-31.4	-34.9	9.0	1.82e-02	0	41	102	1048576	23	5417
2026-01-23 08:39:20.50	104.97	7.95	-31.5	-35.6	8.5	3.84e-02	0	41	102	1048576	23	5745
2026-01-23 08:39:21.50	104.88	8.02	-31.6	-35.9	8.3	4.84e-02	0	41	102	1048576	23	5877
2026-01-23 08:39:22.50	104.79	8.09	-31.5	-35.5	8.6	5.04e-02	0	42	102	1048576	23	5686
2026-01-23 08:39:23.50	104.70	8.16	-31.5	-35.5	8.6	3.96e-02	0	41	102	1048576	23	5691
2026-01-23 08:39:24.51	104.60	8.23	-31.5	-35.4	8.6	3.40e-02	0	41	102	1048576	23	5660
2026-01-23 08:39:25.51	104.51	8.29	-31.5	-35.2	8.8	3.36e-02	0	42	102	1048576	23	5543
2026-01-23 08:39:26.52	104.42	8.36	-31.4	-35.0	8.9	2.60e-02	0	41	102	1048576	23	5437
2026-01-23 08:39:27.53	104.33	8.43	-31.4	-34.9	9.0	2.99e-02	0	42	102	1048576	23	5413
2026-01-23 08:39:28.53	104.23	8.50	-31.4	-35.0	9.0	2.44e-02	0	42	102	1048576	23	5420
2026-01-23 08:39:29.53	104.14	8.57	-31.4	-34.8	9.1	2.00e-02	0	42	102	1048576	23	5333
2026-01-23 08:39:30.53	104.05	8.64	-31.5	-35.1	9.0	2.25e-02	0	42	102	1048576	23	5450
2026-01-23 08:39:31.53	103.95	8.71	-31.5	-35.1	9.0	3.06e-02	0	42	102	1048576	23	5471
2026-01-23 08:39:32.54	103.86	8.78	-31.4	-34.9	9.2	2.06e-02	0	42	102	1048576	23	5349
2026-01-23 08:39:33.55	103.76	8.85	-31.2	-33.9	10.0	1.31e-02	0	42	102	1048576	23	4929
2026-01-23 08:39:34.56	103.66	8.92	-31.1	-33.5	10.3	5.47e-03	0	42	102	1048576	23	4784
2026-01-23 08:39:35.56	103.57	8.99	-31.1	-33.5	10.4	4.88e-03	0	42	102	1048576	23	4761
2026-01-23 08:39:36.56	103.47	9.06	-31.0	-33.2	10.6	5.38e-03	0	42	102	1048576	23	4662
2026-01-23 08:39:37.56	103.37	9.13	-30.9	-33.0	10.7	2.62e-03	0	42	102	1048576	23	4577
2026-01-23 08:39:38.55	103.28	9.20	-31.0	-33.1	10.7	3.11e-03	0	42	102	1048576	23	4618
2026-01-23 08:39:39.56	103.18	9.27	-30.9	-33.0	10.7	2.90e-03	0	42	102	1048576	23	4576
2026-01-23 08:39:40.56	103.08	9.34	-31.0	-33.3	10.5	3.06e-03	0	42	102	1048576	23	4680
2026-01-23 08:39:41.57	102.98	9.41	-31.0	-33.4	10.4	4.11e-03	0	42	102	1048576	23	4731
2026-01-23 08:39:42.57	102.88	9.48	-30.9	-32.9	10.8	3.50e-03	0	42	102	1048576	23	4539
2026-01-23 08:39:43.57	102.78	9.55	-30.8	-32.7	10.9	3.06e-03	0	42	102	1048576	23	4474
2026-01-23 08:39:44.58	102.68	9.62	-30.7	-32.9	11.2	1.55e-03	0	42	102	1048576	22	4624
2026-01-23 08:39:45.58	102.58	9.69	-30.6	-32.3	11.6	8.81e-04	0	42	102	1048576	22	4400
2026-01-23 08:39:46.59	102.47	9.77	-30.7	-32.7	11.4	8.49e-04	0	42	102	1048576	22	4535
2026-01-23 08:39:47.60	102.37	9.84	-30.7	-32.7	11.4	9.85e-04	0	42	102	1048576	22	4539
2026-01-23 08:39:48.60	102.27	9.91	-30.8	-33.0	11.1	1.10e-03	0	42	102	1048576	22	4636
2026-01-23 08:39:49.61	102.16	9.98	-30.9	-33.4	10.8	1.89e-03	0	42	102	1048576	22	4791
2026-01-23 08:39:50.61	102.06	10.05	-30.8	-33.2	11.0	2.10e-03	0	42	102	1048576	22	4747
2026-01-23 08:39:51.62	101.96	10.12	-30.8	-33.2	11.0	1.81e-03	0	42	102	1048576	22	4719
2026-01-23 08:39:52.62	101.85	10.20	-30.8	-33.1	11.1	1.37e-03	0	42	102	1048576	22	4677
2026-01-23 08:39:53.62	101.75	10.27	-30.8	-33.0	11.2	1.24e-03	0	42	102	1048576	22	4652
2026-01-23 08:39:54.63	101.64	10.34	-30.7	-32.8	11.3	1.20e-03	0	42	102	1048576	22	4569
2026-01-23 08:39:55.63	101.53	10.41	-30.6	-32.6	11.4	9.63e-04	0	42	102	1048576	22	4508
2026-01-23 08:39:56.63	101.43	10.48	-30.7	-32.6	11.5	1.05e-03	0	42	102	1048576	22	4512
2026-01-23 08:39:57.64	101.32	10.56	-30.8	-33.0	11.2	1.12e-03	0	42	102	1048576	22	4635
2026-01-23 08:39:58.64	101.21	10.63	-30.8	-32.9	11.3	1.21e-03	0	42	102	1048576	22	4605
2026-01-23 08:39:59.65	101.10	10.70	-30.9	-33.3	11.1	1.16e-03	0	42	102	1048576	22	4742
2026-01-23 08:40:00.65	100.99	10.77	-30.9	-33.2	11.1	1.61e-03	0	42	102	1048576	22	4721
2026-01-23 08:40:01.66	100.88	10.85	-30.8	-33.1	11.1	1.36e-03	0	42	102	1048576	22	4693
2026-01-23 08:40:02.66	100.77	10.92	-30.9	-33.4	11.0	1.95e-03	0	42	102	1048576	22	4777
2026-01-23 08:40:03.66	100.66	10.99	-30.9	-33.3	11.0	1.87e-03	0	42	102	1048576	22	4739
2026-01-23 08:40:04.67	100.55	11.07	-30.9	-33.3	11.0	1.77e-03	0	42	102	1048576	22	4746
2026-01-23 08:40:05.68	100.43	11.14	-30.9	-33.3	11.1	2.15e-03	0	42	102	1048576	22	4737
2026-01-23 08:40:06.68	100.32	11.21	-30.9	-33.2	11.1	1.70e-03	0	42	102	1048576	22	4717
2026-01-23 08:40:07.69	100.21	11.29	-30.9	-33.3	11.1	1.64e-03	0	42	102	1048576	22	4747
2026-01-23 08:40:08.68	100.10	11.36	-31.0	-33.6	10.9	2.09e-03	0	42	102	1048576	22	4854
2026-01-23 08:40:09.68	99.98	11.43	-31.1	-33.9	10.6	2.57e-03	0	42	102	1048576	22	4979
2026-01-23 08:40:10.69	99.87	11.51	-31.2	-34.3	10.3	4.94e-03	0	42	102	1048576	22	5147
2026-01-23 08:40:11.69	99.75	11.58	-31.3	-34.8	10.0	7.90e-03	0	42	102	1048576	22	5358
2026-01-23 08:40:12.70	99.63	11.66	-31.4	-35.0	9.8	9.28e-03	0	42	102	1048576	22	5451
2026-01-23 08:40:13.71	99.52	11.73	-31.4	-35.0	9.8	1.08e-02	0	43	102	1048576	22	5437
2026-01-23 08:40:14.72	99.40	11.81	-31.4	-35.0	9.8	8.38e-03	0	42	102	1048576	22	5458
2026-01-23 08:40:15.72	99.28	11.88	-31.4	-35.0	9.8	8.44e-03	0	42	102	1048576	22	5469
2026-01-23 08:40:16.73	99.16	11.96	-31.5	-34.9	9.6	1.03e-02	0	42	102	1048576	23	5295
2026-01-23 08:40:17.74	99.04	12.03	-31.7	-35.5	9.1	1.85e-02	0	42	102	1048576	23	5578
2026-01-23 08:40:18.74	98.92	12.10	-31.6	-35.3	9.2	2.54e-02	0	42	102	1048576	23	5472
2026-01-23 08:40:19.74	98.80	12.18	-31.5	-34.6	9.7	1.31e-02	0	43	102	1048576	23	5196
2026-01-23 08:40:20.74	98.68	12.25	-31.3	-34.1	10.1	8.72e-03	0	43	102	1048576	23	4983
2026-01-23 08:40:21.74	98.56	12.33	-31.3	-34.0	10.3	6.05e-03	0	42	102	1048576	23	4908
2026-01-23 08:40:22.75	98.43	12.40	-31.0	-33.0	11.0	3.29e-03	0	43	102	1048576	23	4552
2026-01-23 08:40:23.75	98.31	12.48	-30.9	-32.6	11.3	1.40e-03	0	43	102	1048576	23	4415
2026-01-23 08:40:24.75	98.19	12.55	-30.7	-32.8	11.5	7.68e-04	0	42	102	1048576	22	4547
2026-01-23 08:40:25.75	98.07	12.63	-30.7	-32.5	11.7	5.74e-04	0	43	102	1048576	22	4437
2026-01-23 08:40:26.76	97.94	12.71	-30.7	-32.6	11.6	5.08e-04	0	43	102	1048576	22	4493
2026-01-23 08:40:27.76	97.81	12.78	-30.7	-32.6	11.7	7.55e-04	0	43	102	1048576	22	4463
2026-01-23 08:40:28.76	97.69	12.86	-30.6	-32.1	12.0	4.62e-04	0	43	102	1048576	22	4319
2026-01-23 08:40:29.77	97.56	12.93	-30.3	-31.4	12.5	2.37e-04	0	42	102	1048576	22	4091
2026-01-23 08:40:30.77	97.43	13.01	-30.4	-31.5	12.5	9.38e-05	0	43	102	1048576	22	4125
2026-01-23 08:40:31.77	97.31	13.08	-30.1	-31.4	12.8	7.93e-05	0	43	102	1048576	21	4164
2026-01-23 08:40:32.78	97.18	13.16	-30.1	-31.4	12.9	4.73e-05	0	43	102	1048576	21	4167
2026-01-23 08:40:33.78	97.05	13.24	-30.3	-31.9	12.5	6.33e-05	0	43	102	1048576	21	4331
2026-01-23 08:40:34.78	96.92	13.31	-30.4	-32.3	12.2	1.62e-04	0	43	102	1048576	21	4474
2026-01-23 08:40:35.78	96.79	13.39	-30.6	-32.7	12.0	2.69e-04	0	43	102	1048576	21	4594
2026-01-23 08:40:36.79	96.65	13.47	-30.6	-32.7	12.0	3.23e-04	0	43	102	1048576	21	4585
2026-01-23 08:40:37.79	96.52	13.54	-30.6	-32.7	12.0	4.29e-04	0	43	102	1048576	21	4585
2026-01-23 08:40:38.80	96.39	13.62	-30.6	-32.8	11.9	3.46e-04	0	43	102	1048576	21	4619
2026-01-23 08:40:39.81	96.25	13.70	-30.7	-33.2	11.7	4.69e-04	0	43	102	1048576	21	4757
2026-01-23 08:40:40.81	96.12	13.77	-30.6	-32.6	12.1	4.13e-04	0	43	102	1048576	21	4570
2026-01-23 08:40:41.82	95.98	13.85	-30.5	-32.5	12.3	1.87e-04	0	43	102	1048576	21	4520
2026-01-23 08:40:42.82	95.85	13.93	-30.6	-32.7	12.1	2.27e-04	0	43	102	1048576	21	4582
2026-01-23 08:40:43.82	95.71	14.00	-30.6	-32.6	12.2	3.24e-04	0	43	102	1048576	21	4556
2026-01-23 08:40:44.82	95.57	14.08	-30.6	-32.8	12.1	3.20e-04	0	43	102	1048576	21	4618
2026-01-23 08:40:45.83	95.43	14.16	-30.6	-32.7	12.1	1.99e-04	0	43	102	1048576	21	4591
2026-01-23 08:40:46.84	95.29	14.24	-30.4	-32.2	12.5	1.92e-04	0	43	102	1048576	21	4413
2026-01-23 08:40:47.84	95.16	14.31	-30.2	-31.5	12.9	7.70e-05	0	43	102	1048576	21	4185
2026-01-23 08:40:48.84	95.02	14.39	-30.1	-31.3	13.1	2.67e-05	0	43	102	1048576	21	4110
2026-01-23 08:40:49.85	94.87	14.47	-30.3	-31.7	12.8	4.65e-05	0	43	102	1048576	21	4257
2026-01-23 08:40:50.86	94.73	14.55	-30.3	-31.9	12.7	6.40e-05	0	43	102	1048576	21	4305
2026-01-23 08:40:51.86	94.59	14.62	-30.5	-32.3	12.5	1.23e-04	0	43	102	1048576	21	4440
2026-01-23 08:40:52.87	94.44	14.70	-30.5	-32.5	12.3	2.08e-04	0	43	102	1048576	21	4530
2026-01-23 08:40:53.87	94.30	14.78	-30.5	-32.3	12.5	1.52e-04	0	43	102	1048576	21	4425
2026-01-23 08:40:54.88	94.15	14.86	-30.3	-31.9	12.7	7.01e-05	0	43	102	1048576	21	4318
2026-01-23 08:40:55.89	94.01	14.94	-30.3	-31.7	12.9	5.87e-05	0	43	102	1048576	21	4248
2026-01-23 08:40:56.89	93.86	15.02	-30.5	-32.4	12.4	9.76e-05	0	43	102	1048576	21	4473
2026-01-23 08:40:57.89	93.72	15.09	-30.5	-32.3	12.4	1.44e-04	0	43	102	1048576	21	4439
2026-01-23 08:40:58.89	93.57	15.17	-30.7	-32.9	12.1	2.00e-04	0	43	102	1048576	21	4653
2026-01-23 08:40:59.90	93.42	15.25	-30.9	-33.4	11.7	4.78e-04	0	43	102	1048576	21	4838
2026-01-23 08:41:00.90	93.27	15.33	-31.0	-33.5	11.5	6.88e-04	0	43	102	1048576	22	4750
2026-01-23 08:41:01.90	93.12	15.41	-30.9	-33.4	11.3	9.12e-04	0	43	102	1048576	22	4773
2026-01-23 08:41:02.91	92.97	15.48	-30.8	-32.9	11.6	8.38e-04	0	43	102	1048576	22	4603
2026-01-23 08:41:03.91	92.82	15.56	-30.6	-32.5	11.9	5.09e-04	0	43	102	1048576	22	4459
2026-01-23 08:41:04.92	92.66	15.64	-30.7	-32.7	11.8	4.16e-04	0	43	102	1048576	22	4520
2026-01-23 08:41:05.92	92.51	15.72	-30.8	-32.9	11.7	4.90e-04	0	43	102	1048576	22	4583
2026-01-23 08:41:06.93	92.35	15.80	-30.8	-33.1	11.6	5.69e-04	0	43	102	1048576	22	4664
2026-01-23 08:41:07.93	92.20	15.88	-31.1	-34.1	10.8	1.34e-03	0	43	102	1048576	22	5068
2026-01-23 08:41:08.93	92.04	15.96	-31.1	-34.0	10.8	2.39e-03	0	43	102	1048576	22	5032
2026-01-23 08:41:09.94	91.88	16.03	-30.9	-33.3	11.4	1.24e-03	0	43	102	1048576	22	4747
2026-01-23 08:41:10.94	91.73	16.11	-30.7	-32.7	11.8	7.23e-04	0	43	102	1048576	22	4539
2026-01-23 08:41:11.95	91.57	16.19	-30.7	-32.7	11.9	4.10e-04	0	43	102	1048576	22	4505
2026-01-23 08:41:12.96	91.41	16.27	-30.7	-32.7	11.9	3.68e-04	0	43	102	1048576	22	4520
2026-01-23 08:41:13.95	91.25	16.35	-30.9	-33.3	11.5	5.23e-04	0	43	102	1048576	22	4726
2026-01-23 08:41:14.96	91.09	16.43	-30.9	-33.2	11.5	8.09e-04	0	43	102	1048576	22	4711
2026-01-23 08:41:15.96	90.93	16.51	-30.8	-33.0	11.7	5.71e-04	0	43	102	1048576	22	4617
2026-01-23 08:41:16.96	90.76	16.59	-30.8	-32.9	11.7	5.76e-04	0	43	102	1048576	22	4603
2026-01-23 08:41:17.96	90.60	16.66	-30.8	-33.0	11.7	5.85e-04	0	43	102	1048576	22	4624
2026-01-23 08:41:18.96	90.44	16.74	-31.0	-33.4	11.5	6.48e-04	0	43	102	1048576	22	4756
2026-01-23 08:41:19.97	90.27	16.82	-31.0	-33.4	11.4	8.88e-04	0	43	102	1048576	22	4772
2026-01-23 08:41:20.97	90.10	16.90	-30.9	-33.2	11.6	6.45e-04	0	43	102	1048576	22	4693
2026-01-23 08:41:21.97	89.94	16.98	-31.0	-33.6	11.3	8.33e-04	0	43	102	1048576	22	4848
2026-01-23 08:41:22.97	89.77	17.06	-31.0	-33.6	11.3	1.23e-03	0	43	102	1048576	22	4849
2026-01-23 08:41:23.97	89.60	17.14	-31.0	-33.6	11.3	1.07e-03	0	43	102	1048576	22	4852
2026-01-23 08:41:24.98	89.43	17.22	-31.0	-33.5	11.4	1.21e-03	0	43	102	1048576	22	4793
2026-01-23 08:41:25.98	89.26	17.29	-30.9	-33.1	11.7	8.77e-04	0	43	102	1048576	22	4658
2026-01-23 08:41:26.99	89.09	17.37	-31.0	-33.3	11.5	6.35e-04	0	43	102	1048576	22	4735
2026-01-23 08:41:28.00	88.91	17.45	-30.7	-32.7	11.9	5.77e-04	0	43	102	1048576	22	4493
2026-01-23 08:41:29.00	88.74	17.53	-30.6	-32.3	12.2	1.94e-04	0	43	102	1048576	22	4389
2026-01-23 08:41:30.00	88.57	17.61	-30.6	-32.3	12.2	1.73e-04	0	43	102	1048576	22	4393
2026-01-23 08:41:31.01	88.39	17.69	-30.5	-32.1	12.4	1.30e-04	0	43	102	1048576	22	4316
2026-01-23 08:41:32.01	88.21	17.77	-30.5	-32.1	12.3	1.72e-04	0	43	102	1048576	22	4314
2026-01-23 08:41:33.02	88.04	17.85	-30.6	-32.3	12.2	2.53e-04	0	43	102	1048576	22	4375
2026-01-23 08:41:34.02	87.86	17.93	-30.7	-32.4	12.2	3.87e-04	0	43	102	1048576	22	4421
2026-01-23 08:41:35.02	87.68	18.00	-30.8	-33.0	11.9	3.84e-04	0	43	102	1048576	22	4592
2026-01-23 08:41:36.02	87.50	18.08	-30.7	-32.5	12.1	2.17e-04	0	43	102	1048576	22	4446
2026-01-23 08:41:37.02	87.32	18.16	-30.7	-32.4	12.2	1.85e-04	0	43	102	1048576	22	4411
2026-01-23 08:41:38.02	87.14	18.24	-30.8	-32.8	12.0	1.90e-04	0	43	102	1048576	22	4515
2026-01-23 08:41:39.03	86.95	18.32	-30.8	-32.8	12.0	3.26e-04	0	43	102	1048576	22	4513
2026-01-23 08:41:40.03	86.77	18.40	-30.8	-32.7	12.0	3.62e-04	0	43	102	1048576	22	4520
2026-01-23 08:41:41.04	86.59	18.47	-30.6	-32.1	12.4	2.36e-04	0	43	102	1048576	22	4306
2026-01-23 08:41:42.04	86.40	18.55	-30.6	-32.2	12.4	2.61e-04	0	43	102	1048576	22	4334
2026-01-23 08:41:43.04	86.21	18.63	-30.4	-31.6	12.8	7.85e-05	0	43	102	1048576	22	4134
2026-01-23 08:41:44.04	86.03	18.71	-30.5	-31.9	12.6	6.56e-05	0	43	102	1048576	22	4223
2026-01-23 08:41:45.05	85.84	18.79	-30.6	-32.3	12.4	9.91e-05	0	43	102	1048576	22	4360
2026-01-23 08:41:46.05	85.65	18.86	-30.8	-32.7	12.0	2.81e-04	0	43	102	1048576	22	4501
2026-01-23 08:41:47.05	85.46	18.94	-30.9	-33.0	11.9	2.99e-04	0	43	102	1048576	22	4582
2026-01-23 08:41:48.05	85.27	19.02	-30.6	-32.3	12.4	2.32e-04	0	43	102	1048576	22	4338
2026-01-23 08:41:49.05	85.08	19.10	-30.8	-32.7	12.1	1.96e-04	0	43	102	1048576	22	4479
2026-01-23 08:41:50.05	84.88	19.18	-30.6	-32.2	12.5	2.25e-04	0	43	102	1048576	22	4310
2026-01-23 08:41:51.05	84.69	19.25	-30.8	-32.6	12.2	1.65e-04	0	43	102	1048576	22	4459
2026-01-23 08:41:52.05	84.49	19.33	-30.9	-33.0	11.9	2.54e-04	0	43	102	1048576	22	4580
2026-01-23 08:41:53.06	84.30	19.41	-30.6	-32.1	12.5	1.49e-04	0	43	102	1048576	22	4284
2026-01-23 08:41:54.06	84.10	19.48	-30.5	-32.0	12.6	1.07e-04	0	43	102	1048576	22	4246
2026-01-23 08:41:55.07	83.90	19.56	-30.6	-32.0	12.6	7.55e-05	0	43	102	1048576	22	4258
2026-01-23 08:41:56.08	83.70	19.64	-30.3	-31.4	13.0	4.27e-05	0	43	102	1048576	22	4050
2026-01-23 08:41:57.09	83.50	19.72	-30.3	-31.8	13.0	3.28e-05	0	43	102	1048576	21	4295
2026-01-23 08:41:58.09	83.29	19.79	-30.4	-32.0	13.0	3.35e-05	0	43	102	1048576	21	4329
2026-01-23 08:41:59.10	83.09	19.87	-30.2	-31.6	13.2	2.13e-05	0	43	102	1048576	21	4201
2026-01-23 08:42:00.10	82.89	19.95	-30.1	-31.3	13.3	2.13e-05	0	43	102	1048576	21	4134
2026-01-23 08:42:01.11	82.68	20.02	-30.2	-31.5	13.2	2.21e-05	0	43	102	1048576	21	4186
2026-01-23 08:42:02.12	82.47	20.10	-30.0	-31.1	13.4	1.98e-05	0	43	102	1048576	21	4089
2026-01-23 08:42:03.11	82.27	20.17	-30.0	-31.1	13.5	1.29e-05	0	43	102	1048576	21	4085
2026-01-23 08:42:04.12	82.06	20.25	-30.1	-31.4	13.3	1.06e-05	0	43	102	1048576	21	4171
2026-01-23 08:42:05.12	81.85	20.33	-29.8	-30.6	13.7	1.06e-05	0	43	102	1048576	21	3945
2026-01-23 08:42:06.12	81.64	20.40	-29.8	-31.0	13.8	5.30e-06	0	43	102	1048576	20	4145
2026-01-23 08:42:07.13	81.43	20.48	-29.9	-31.2	13.8	3.80e-06	0	43	102	1048576	20	4184
2026-01-23 08:42:08.13	81.22	20.55	-29.9	-31.4	13.7	6.80e-06	0	43	102	1048576	20	4249
2026-01-23 08:42:09.13	81.01	20.63	-29.9	-31.2	13.8	6.80e-06	0	43	102	1048576	20	4182
2026-01-23 08:42:10.13	80.79	20.70	-29.6	-30.3	14.4	2.20e-06	0	43	102	1048576	20	3912
2026-01-23 08:42:11.14	80.58	20.78	-29.3	-29.7	14.7	0.00e+00	0	43	102	1048576	20	3773
2026-01-23 08:42:12.15	80.36	20.85	-29.5	-30.2	14.4	0.00e+00	0	43	102	1048576	20	3890
2026-01-23 08:42:13.16	80.14	20.93	-29.6	-30.5	14.3	7.00e-07	0	43	102	1048576	20	3970
2026-01-23 08:42:14.16	79.92	21.00	-29.6	-30.5	14.2	7.00e-07	0	43	102	1048576	20	3970
2026-01-23 08:42:15.16	79.71	21.07	-29.4	-29.9	14.7	0.00e+00	0	43	102	1048576	20	3799
2026-01-23 08:42:16.17	79.48	21.15	-29.5	-30.1	14.5	0.00e+00	0	43	102	1048576	20	3873
2026-01-23 08:42:17.17	79.26	21.22	-29.6	-30.4	14.3	0.00e+00	0	43	102	1048576	20	3941
2026-01-23 08:42:18.17	79.04	21.29	-29.7	-30.7	14.1	1.50e-06	0	43	102	1048576	20	4030
2026-01-23 08:42:19.17	78.82	21.36	-29.7	-30.6	14.2	1.50e-06	0	43	102	1048576	20	4013
2026-01-23 08:42:20.18	78.59	21.44	-29.7	-30.5	14.2	1.50e-06	0	43	102	1048576	20	3986
2026-01-23 08:42:21.18	78.37	21.51	-29.7	-30.5	14.2	7.00e-07	0	43	102	1048576	20	3984
2026-01-23 08:42:22.19	78.14	21.58	-29.7	-30.7	14.2	1.50e-06	0	43	102	1048576	20	4013
2026-01-23 08:42:23.19	77.91	21.65	-29.6	-30.3	14.4	0.00e+00	0	43	102	1048576	20	3906
2026-01-23 08:42:24.20	77.68	21.72	-29.4	-29.8	14.7	0.00e+00	0	43	102	1048576	20	3766
2026-01-23 08:42:25.20	77.45	21.79	-29.3	-29.6	14.8	0.00e+00	0	43	102	1048576	20	3737
2026-01-23 08:42:26.21	77.22	21.87	-29.2	-29.7	15.0	0.00e+00	0	43	102	1048576	19	3836
2026-01-23 08:42:27.21	76.99	21.94	-29.3	-30.2	14.9	0.00e+00	0	43	102	1048576	19	3958
2026-01-23 08:42:28.21	76.76	22.01	-29.3	-30.0	15.0	0.00e+00	0	43	102	1048576	19	3926
2026-01-23 08:42:29.21	76.52	22.07	-29.3	-30.0	15.0	0.00e+00	0	43	102	1048576	19	3914
2026-01-23 08:42:30.22	76.29	22.14	-29.4	-30.2	14.8	7.00e-07	0	43	102	1048576	19	3968
2026-01-23 08:42:31.22	76.05	22.21	-29.4	-30.4	14.8	7.00e-07	0	43	102	1048576	19	4025
2026-01-23 08:42:32.23	75.81	22.28	-29.6	-30.9	14.4	0.00e+00	0	43	102	1048576	19	4165
2026-01-23 08:42:33.24	75.57	22.35	-29.4	-30.3	14.8	0.00e+00	0	43	102	1048576	19	3985
2026-01-23 08:42:34.24	75.34	22.42	-29.4	-30.2	15.0	3.00e-06	0	43	102	1048576	19	3966
2026-01-23 08:42:35.24	75.10	22.49	-29.3	-30.1	15.0	0.00e+00	0	43	102	1048576	19	3923
2026-01-23 08:42:36.25	74.85	22.55	-29.2	-29.7	15.2	0.00e+00	0	43	102	1048576	19	3831
2026-01-23 08:42:37.25	74.61	22.62	-29.1	-29.4	15.4	1.50e-06	0	43	102	1048576	19	3744
2026-01-23 08:42:38.26	74.37	22.69	-29.2	-29.6	15.3	0.00e+00	0	43	102	1048576	19	3808
2026-01-23 08:42:39.27	74.12	22.76	-29.2	-29.7	15.2	0.00e+00	0	43	102	1048576	19	3831
2026-01-23 08:42:40.28	73.87	22.82	-29.3	-29.9	15.1	1.50e-06	0	43	102	1048576	19	3864
2026-01-23 08:42:41.28	73.63	22.89	-29.4	-30.2	15.0	0.00e+00	0	43	102	1048576	19	3943
2026-01-23 08:42:42.28	73.38	22.95	-29.3	-30.1	15.0	7.00e-07	0	43	102	1048576	19	3936
2026-01-23 08:42:43.28	73.13	23.02	-29.3	-30.0	15.1	0.00e+00	0	43	102	1048576	19	3899
2026-01-23 08:42:44.29	72.88	23.08	-29.2	-29.7	15.2	0.00e+00	0	43	102	1048576	19	3811
2026-01-23 08:42:45.30	72.63	23.14	-29.2	-29.7	15.2	0.00e+00	0	43	102	1048576	19	3830
2026-01-23 08:42:46.30	72.38	23.21	-29.2	-29.7	15.3	0.00e+00	0	43	102	1048576	19	3807
2026-01-23 08:42:47.31	72.12	23.27	-29.2	-29.6	15.3	0.00e+00	0	43	102	1048576	19	3794
2026-01-23 08:42:48.31	71.87	23.33	-29.3	-30.0	15.2	0.00e+00	0	43	102	1048576	19	3897
2026-01-23 08:42:49.32	71.61	23.39	-29.2	-29.8	15.2	0.00e+00	0	43	102	1048576	19	3840
2026-01-23 08:42:50.32	71.36	23.46	-29.2	-29.7	15.3	0.00e+00	0	43	102	1048576	19	3805
2026-01-23 08:42:51.33	71.10	23.52	-29.2	-29.8	15.2	0.00e+00	0	43	102	1048576	19	3845
2026-01-23 08:42:52.33	70.84	23.58	-29.1	-29.4	15.5	0.00e+00	0	43	102	1048576	19	3733
2026-01-23 08:42:53.34	70.58	23.64	-29.1	-29.5	15.4	0.00e+00	0	43	102	1048576	19	3774
2026-01-23 08:42:54.34	70.32	23.70	-29.3	-29.9	15.2	0.00e+00	0	43	102	1048576	19	3879
2026-01-23 08:42:55.35	70.06	23.76	-29.4	-30.2	15.0	0.00e+00	0	43	102	1048576	19	3948
2026-01-23 08:42:56.36	69.80	23.82	-29.4	-30.2	15.0	0.00e+00	0	43	102	1048576	19	3958
2026-01-23 08:42:57.36	69.53	23.87	-29.5	-30.3	14.9	0.00e+00	0	43	102	1048576	19	3985
2026-01-23 08:42:58.37	69.27	23.93	-29.3	-30.0	15.1	0.00e+00	0	43	102	1048576	19	3899
2026-01-23 08:42:59.37	69.00	23.99	-29.3	-29.8	15.2	0.00e+00	0	43	102	1048576	19	3847
2026-01-23 08:43:00.38	68.74	24.04	-29.3	-29.9	15.2	0.00e+00	0	43	102	1048576	19	3866
2026-01-23 08:43:01.39	68.47	24.10	-29.4	-30.2	15.0	0.00e+00	0	43	102	1048576	19	3949
2026-01-23 08:43:02.39	68.20	24.16	-29.3	-30.0	15.2	0.00e+00	0	43	102	1048576	19	3880
2026-01-23 08:43:03.39	67.93	24.21	-29.4	-30.1	15.1	0.00e+00	0	43	102	1048576	19	3910
2026-01-23 08:43:04.39	67.66	24.26	-29.5	-30.4	15.0	0.00e+00	0	44	102	1048576	19	3985
2026-01-23 08:43:05.39	67.39	24.32	-29.3	-29.9	15.2	0.00e+00	0	43	102	1048576	19	3867
2026-01-23 08:43:06.40	67.12	24.37	-29.0	-29.2	15.6	0.00e+00	0	43	102	1048576	19	3680
2026-01-23 08:43:07.41	66.85	24.42	-29.2	-29.7	15.3	0.00e+00	0	43	102	1048576	19	3797
2026-01-23 08:43:08.42	66.57	24.48	-29.1	-29.5	15.5	0.00e+00	0	43	102	1048576	19	3762
2026-01-23 08:43:09.42	66.30	24.53	-29.0	-29.2	15.6	0.00e+00	0	43	102	1048576	19	3683
2026-01-23 08:43:10.43	66.02	24.58	-29.0	-29.2	15.7	0.00e+00	0	43	102	1048576	19	3681
2026-01-23 08:43:11.43	65.75	24.63	-28.9	-29.0	15.7	0.00e+00	0	43	102	1048576	19	3646
2026-01-23 08:43:12.43	65.47	24.68	-28.9	-29.1	15.7	0.00e+00	0	43	102	1048576	19	3651
2026-01-23 08:43:13.44	65.19	24.72	-28.9	-29.1	15.7	0.00e+00	0	43	102	1048576	19	3657
2026-01-23 08:43:14.44	64.91	24.77	-29.1	-29.3	15.5	0.00e+00	0	43	102	1048576	19	3711
2026-01-23 08:43:15.44	64.64	24.82	-29.0	-29.2	15.6	0.00e+00	0	43	102	1048576	19	3671
2026-01-23 08:43:16.44	64.36	24.87	-29.1	-29.5	15.5	0.00e+00	0	43	102	1048576	19	3771
2026-01-23 08:43:17.45	64.07	24.91	-29.4	-30.1	15.1	7.00e-07	0	43	102	1048576	19	3917
2026-01-23 08:43:18.45	63.79	24.96	-29.6	-30.7	14.7	0.00e+00	0	43	102	1048576	19	4096
2026-01-23 08:43:19.45	63.51	25.00	-29.7	-30.9	14.6	0.00e+00	0	43	102	1048576	19	4137
2026-01-23 08:43:20.45	63.23	25.05	-29.8	-31.2	14.5	0.00e+00	0	43	102	1048576	19	4218
2026-01-23 08:43:21.46	62.94	25.09	-30.0	-31.2	14.0	0.00e+00	0	43	102	1048576	20	4144
2026-01-23 08:43:22.46	62.66	25.13	-30.1	-31.7	13.8	3.00e-06	0	44	102	1048576	20	4280
2026-01-23 08:43:23.47	62.37	25.17	-30.5	-32.5	13.2	1.22e-05	0	44	102	1048576	20	4575
2026-01-23 08:43:24.48	62.08	25.21	-30.7	-32.7	12.8	4.88e-05	0	43	102	1048576	21	4531
2026-01-23 08:43:25.48	61.80	25.25	-30.9	-33.3	12.4	5.95e-05	0	43	102	1048576	21	4728
2026-01-23 08:43:26.48	61.51	25.29	-30.8	-33.1	12.5	1.04e-04	0	43	102	1048576	21	4661
2026-01-23 08:43:27.49	61.22	25.33	-30.5	-32.1	13.2	3.89e-05	0	43	102	1048576	21	4330
2026-01-23 08:43:28.48	60.93	25.37	-30.3	-31.6	13.5	1.37e-05	0	43	102	1048576	21	4178
2026-01-23 08:43:29.49	60.64	25.41	-30.2	-31.2	13.7	7.60e-06	0	43	102	1048576	21	4054
2026-01-23 08:43:30.48	60.35	25.44	-30.0	-30.7	14.0	1.50e-06	0	43	102	1048576	21	3913
2026-01-23 08:43:31.48	60.06	25.48	-30.2	-31.2	13.7	5.30e-06	0	43	102	1048576	21	4070
2026-01-23 08:43:32.49	59.77	25.52	-30.2	-31.4	13.6	1.06e-05	0	43	102	1048576	21	4124
2026-01-23 08:43:33.49	59.48	25.55	-30.3	-31.5	13.5	1.14e-05	0	43	102	1048576	21	4142
2026-01-23 08:43:34.50	59.18	25.58	-30.2	-31.4	13.6	1.52e-05	0	43	102	1048576	21	4133
2026-01-23 08:43:35.50	58.89	25.62	-30.2	-31.4	13.6	1.06e-05	0	43	102	1048576	21	4123
2026-01-23 08:43:36.51	58.59	25.65	-30.4	-31.9	13.3	1.60e-05	0	43	102	1048576	21	4257
2026-01-23 08:43:37.52	58.30	25.68	-30.4	-31.8	13.3	1.37e-05	0	43	102	1048576	21	4256
2026-01-23 08:43:38.52	58.00	25.71	-30.3	-31.6	13.4	1.37e-05	0	43	102	1048576	21	4174
2026-01-23 08:43:39.52	57.71	25.74	-30.3	-31.7	13.4	7.60e-06	0	43	102	1048576	21	4209
2026-01-23 08:43:40.53	57.41	25.77	-30.4	-31.8	13.3	1.75e-05	0	43	102	1048576	21	4250
2026-01-23 08:43:41.52	57.11	25.80	-30.2	-31.5	13.5	9.90e-06	0	43	102	1048576	21	4161
2026-01-23 08:43:42.52	56.82	25.82	-30.4	-31.9	13.2	1.98e-05	0	43	102	1048576	21	4283
2026-01-23 08:43:43.53	56.52	25.85	-30.6	-32.6	12.9	2.97e-05	0	43	102	1048576	21	4510
2026-01-23 08:43:44.54	56.22	25.88	-30.5	-32.2	13.0	3.05e-05	0	43	102	1048576	21	4372
2026-01-23 08:43:45.54	55.92	25.90	-30.6	-32.4	13.0	5.03e-05	0	43	102	1048576	21	4431
2026-01-23 08:43:46.54	55.62	25.92	-30.5	-32.3	13.0	3.58e-05	0	43	102	1048576	21	4421
2026-01-23 08:43:47.55	55.32	25.95	-30.5	-32.1	13.1	2.21e-05	0	43	102	1048576	21	4361
2026-01-23 08:43:48.56	55.01	25.97	-30.3	-31.6	13.5	1.67e-05	0	43	102	1048576	21	4190
2026-01-23 08:43:49.57	54.71	25.99	-30.3	-31.6	13.5	2.13e-05	0	43	102	1048576	21	4175
2026-01-23 08:43:50.58	54.41	26.01	-30.4	-31.8	13.4	1.67e-05	0	43	102	1048576	21	4223
2026-01-23 08:43:51.58	54.11	26.03	-30.5	-32.0	13.2	2.28e-05	0	43	102	1048576	21	4310
2026-01-23 08:43:52.58	53.81	26.05	-30.6	-32.4	13.0	1.29e-05	0	43	102	1048576	21	4426
2026-01-23 08:43:53.59	53.50	26.07	-30.6	-32.4	13.0	5.34e-05	0	43	102	1048576	21	4425
2026-01-23 08:43:54.60	53.20	26.09	-30.8	-32.9	12.7	5.64e-05	0	43	102	1048576	21	4603
2026-01-23 08:43:55.60	52.89	26.10	-30.8	-33.1	12.4	1.53e-04	0	43	102	1048576	21	4671
2026-01-23 08:43:56.61	52.59	26.12	-31.0	-33.1	12.1	2.07e-04	0	43	102	1048576	22	4570
2026-01-23 08:43:57.61	52.29	26.13	-30.9	-32.8	12.3	2.13e-04	0	43	102	1048576	22	4470
2026-01-23 08:43:58.62	51.98	26.14	-30.9	-32.9	12.3	1.84e-04	0	43	102	1048576	22	4518
2026-01-23 08:43:59.63	51.67	26.16	-31.1	-33.3	12.1	1.99e-04	0	43	102	1048576	22	4627
2026-01-23 08:44:00.63	51.37	26.17	-30.9	-32.8	12.4	2.08e-04	0	43	102	1048576	22	4454
2026-01-23 08:44:01.63	51.07	26.18	-30.6	-32.0	12.9	6.10e-05	0	44	102	1048576	22	4214
2026-01-23 08:44:02.64	50.76	26.19	-30.3	-31.1	13.5	3.58e-05	0	43	102	1048576	22	3925
2026-01-23 08:44:03.64	50.46	26.20	-30.0	-30.9	13.9	3.80e-06	0	43	102	1048576	21	3960
2026-01-23 08:44:04.65	50.15	26.21	-29.9	-30.4	14.2	0.00e+00	0	43	102	1048576	21	3841
2026-01-23 08:44:05.65	49.85	26.21	-30.0	-30.9	14.0	7.00e-07	0	43	102	1048576	21	3961
2026-01-23 08:44:06.66	49.54	26.22	-30.2	-31.3	13.7	5.30e-06	0	43	102	1048576	21	4083
2026-01-23 08:44:07.67	49.23	26.23	-30.4	-31.9	13.4	5.30e-06	0	43	102	1048576	21	4257
2026-01-23 08:44:08.67	48.93	26.23	-30.7	-32.6	12.8	3.50e-05	0	43	102	1048576	21	4514
2026-01-23 08:44:09.68	48.62	26.23	-30.7	-32.8	12.7	4.88e-05	0	43	102	1048576	21	4580
2026-01-23 08:44:10.68	48.31	26.24	-30.7	-32.6	12.8	7.70e-05	0	43	102	1048576	21	4515
2026-01-23 08:44:11.69	48.01	26.24	-30.5	-32.3	13.0	3.73e-05	0	43	102	1048576	21	4412
2026-01-23 08:44:12.70	47.70	26.24	-30.7	-32.7	12.7	5.41e-05	0	43	102	1048576	21	4558
2026-01-23 08:44:13.71	47.39	26.24	-30.6	-32.6	12.8	4.95e-05	0	43	102	1048576	21	4506
2026-01-23 08:44:14.72	47.08	26.24	-30.5	-32.1	13.1	2.82e-05	0	43	102	1048576	21	4359
2026-01-23 08:44:15.72	46.78	26.24	-30.1	-31.0	13.9	3.00e-06	0	43	102	1048576	21	4016
2026-01-23 08:44:16.73	46.47	26.23	-30.1	-30.9	14.0	7.00e-07	0	43	102	1048576	21	3969
2026-01-23 08:44:17.74	46.16	26.23	-30.1	-31.0	13.9	1.50e-06	0	43	102	1048576	21	3989
2026-01-23 08:44:18.74	45.86	26.23	-30.0	-30.8	14.0	6.10e-06	0	43	102	1048576	21	3929
2026-01-23 08:44:19.74	45.55	26.22	-29.7	-30.6	14.5	1.50e-06	0	43	102	1048576	20	3963
2026-01-23 08:44:20.74	45.25	26.22	-29.7	-30.4	14.6	7.00e-07	0	43	102	1048576	20	3929
2026-01-23 08:44:21.74	44.94	26.21	-29.6	-30.1	14.7	0.00e+00	0	43	102	1048576	20	3846
2026-01-23 08:44:22.74	44.64	26.20	-29.5	-30.0	14.8	7.00e-07	0	43	102	1048576	20	3817
2026-01-23 08:44:23.75	44.33	26.19	-29.6	-30.2	14.7	0.00e+00	0	43	102	1048576	20	3850
2026-01-23 08:44:24.75	44.03	26.18	-29.7	-30.5	14.5	1.50e-06	0	43	102	1048576	20	3947
2026-01-23 08:44:25.76	43.72	26.17	-29.7	-30.3	14.6	0.00e+00	0	43	102	1048576	20	3893
2026-01-23 08:44:26.77	43.42	26.16	-29.5	-29.9	14.9	0.00e+00	0	43	102	1048576	20	3776
2026-01-23 08:44:27.78	43.11	26.15	-29.4	-30.2	15.0	7.00e-07	0	43	102	1048576	19	3951
2026-01-23 08:44:28.78	42.81	26.13	-29.0	-29.1	15.8	0.00e+00	0	43	102	1048576	19	3644
2026-01-23 08:44:29.79	42.50	26.12	-28.8	-28.6	16.0	0.00e+00	0	43	102	1048576	19	3538
2026-01-23 08:44:30.80	42.20	26.10	-28.9	-29.4	15.8	0.00e+00	0	43	102	1048576	18	3814
2026-01-23 08:44:31.81	41.89	26.09	-28.9	-29.4	15.8	0.00e+00	0	43	102	1048576	18	3804
2026-01-23 08:44:32.81	41.59	26.07	-29.0	-29.7	15.7	0.00e+00	0	43	102	1048576	18	3876
2026-01-23 08:44:33.82	41.29	26.05	-29.0	-29.7	15.7	0.00e+00	0	43	102	1048576	18	3887
2026-01-23 08:44:34.82	40.98	26.03	-29.2	-30.2	15.4	0.00e+00	0	43	102	1048576	18	4013
2026-01-23 08:44:35.83	40.68	26.01	-29.5	-30.8	15.1	0.00e+00	0	44	102	1048576	18	4190
2026-01-23 08:44:36.83	40.38	25.99	-29.5	-30.3	15.0	0.00e+00	0	43	102	1048576	19	3946
2026-01-23 08:44:37.83	40.08	25.97	-29.4	-30.1	15.1	7.00e-07	0	43	102	1048576	19	3908
2026-01-23 08:44:38.84	39.78	25.95	-29.5	-30.4	14.9	0.00e+00	0	43	102	1048576	19	3985
2026-01-23 08:44:39.84	39.48	25.93	-29.6	-30.7	14.7	7.00e-07	0	43	102	1048576	19	4073
2026-01-23 08:44:40.84	39.18	25.91	-29.5	-30.4	14.9	0.00e+00	0	43	102	1048576	19	3985
2026-01-23 08:44:41.84	38.88	25.88	-29.6	-30.6	14.8	0.00e+00	0	43	102	1048576	19	4039
2026-01-23 08:44:42.84	38.59	25.86	-29.7	-30.9	14.6	0.00e+00	0	43	102	1048576	19	4132
2026-01-23 08:44:43.84	38.29	25.83	-29.5	-30.5	14.9	0.00e+00	0	43	102	1048576	19	4015
2026-01-23 08:44:44.84	37.99	25.80	-29.3	-29.8	15.2	0.00e+00	0	43	102	1048576	19	3831
2026-01-23 08:44:45.85	37.69	25.77	-29.2	-29.6	15.4	0.00e+00	0	43	102	1048576	19	3772
2026-01-23 08:44:46.86	37.39	25.75	-29.3	-29.8	15.3	0.00e+00	0	43	102	1048576	19	3822
2026-01-23 08:44:47.85	37.10	25.72	-29.4	-30.2	15.1	0.00e+00	0	43	102	1048576	19	3922
2026-01-23 08:44:48.86	36.81	25.69	-29.6	-30.5	14.9	7.00e-07	0	43	102	1048576	19	4020
2026-01-23 08:44:49.86	36.51	25.66	-29.7	-30.9	14.7	0.00e+00	0	43	102	1048576	19	4126
2026-01-23 08:44:50.87	36.22	25.62	-29.8	-31.0	14.6	0.00e+00	0	43	102	1048576	19	4150
2026-01-23 08:44:51.87	35.92	25.59	-29.6	-30.6	14.8	7.00e-07	0	43	102	1048576	19	4050
2026-01-23 08:44:52.87	35.63	25.56	-29.8	-31.2	14.5	0.00e+00	0	43	102	1048576	19	4206
2026-01-23 08:44:53.88	35.34	25.52	-29.9	-30.9	14.3	1.50e-06	0	43	102	1048576	20	4039
2026-01-23 08:44:54.88	35.05	25.49	-30.0	-31.2	14.1	1.50e-06	0	43	102	1048576	20	4125
2026-01-23 08:44:55.88	34.76	25.45	-30.0	-31.1	14.1	4.50e-06	0	43	102	1048576	20	4094
2026-01-23 08:44:56.89	34.46	25.42	-29.9	-30.8	14.3	1.50e-06	0	43	102	1048576	20	4032
2026-01-23 08:44:57.90	34.17	25.38	-30.0	-31.1	14.2	7.00e-07	0	43	102	1048576	20	4091
2026-01-23 08:44:58.90	33.88	25.34	-29.8	-30.8	14.3	1.50e-06	0	43	102	1048576	20	4000
2026-01-23 08:44:59.91	33.59	25.30	-29.8	-30.6	14.4	2.20e-06	0	43	102	1048576	20	3970
2026-01-23 08:45:00.92	33.30	25.26	-29.9	-31.0	14.1	2.20e-06	0	44	102	1048576	20	4082
2026-01-23 08:45:01.92	33.02	25.22	-30.0	-31.2	14.1	7.00e-07	0	43	102	1048576	20	4131
2026-01-23 08:45:02.92	32.73	25.18	-30.0	-31.2	14.0	3.00e-06	0	43	102	1048576	20	4142
2026-01-23 08:45:03.93	32.45	25.14	-30.1	-31.6	13.8	3.80e-06	0	43	102	1048576	20	4249
2026-01-23 08:45:04.94	32.16	25.10	-30.2	-31.8	13.7	7.60e-06	0	43	102	1048576	20	4314
2026-01-23 08:45:05.94	31.88	25.05	-30.2	-31.8	13.7	7.60e-06	0	43	102	1048576	20	4314
2026-01-23 08:45:06.95	31.59	25.01	-30.3	-31.9	13.6	9.10e-06	0	43	102	1048576	20	4364
2026-01-23 08:45:07.95	31.31	24.97	-30.3	-31.9	13.6	1.22e-05	0	43	102	1048576	20	4346
2026-01-23 08:45:08.96	31.03	24.92	-30.5	-32.6	13.1	9.90e-06	0	43	102	1048576	20	4570
2026-01-23 08:45:09.96	30.75	24.88	-30.5	-32.2	13.1	3.20e-05	0	43	102	1048576	21	4350
2026-01-23 08:45:10.96	30.47	24.83	-30.6	-32.4	12.9	4.19e-05	0	44	102	1048576	21	4435
2026-01-23 08:45:11.96	30.19	24.78	-30.7	-32.6	12.7	6.94e-05	0	43	102	1048576	21	4496
2026-01-23 08:45:12.96	29.91	24.73	-30.5	-32.0	13.2	5.87e-05	0	43	102	1048576	21	4296
2026-01-23 08:45:13.97	29.64	24.69	-30.4	-31.9	13.3	1.37e-05	0	43	102	1048576	21	4259
2026-01-23 08:45:14.97	29.36	24.64	-30.6	-32.3	13.0	3.43e-05	0	43	102	1048576	21	4395
2026-01-23 08:45:15.98	29.08	24.59	-30.7	-32.7	12.7	3.96e-05	0	43	102	1048576	21	4530
2026-01-23 08:45:16.99	28.81	24.54	-30.7	-32.6	12.8	7.09e-05	0	43	102	1048576	21	4471
2026-01-23 08:45:18.00	28.53	24.49	-31.1	-33.2	12.0	1.66e-04	0	43	102	1048576	22	4589
2026-01-23 08:45:19.00	28.26	24.43	-30.9	-32.8	12.4	2.59e-04	0	43	102	1048576	22	4462
2026-01-23 08:45:20.01	27.99	24.38	-30.9	-32.6	12.4	1.74e-04	0	43	102	1048576	22	4409
2026-01-23 08:45:21.01	27.72	24.33	-30.8	-32.4	12.6	9.53e-05	0	43	102	1048576	22	4322
2026-01-23 08:45:22.01	27.45	24.28	-30.7	-32.2	12.7	4.19e-05	0	43	102	1048576	22	4269
2026-01-23 08:45:23.01	27.18	24.22	-30.8	-32.4	12.6	7.24e-05	0	43	102	1048576	22	4326
2026-01-23 08:45:24.02	26.91	24.17	-30.5	-31.7	13.0	6.10e-05	0	43	102	1048576	22	4098
2026-01-23 08:45:25.03	26.64	24.11	-30.9	-32.7	12.4	5.87e-05	0	43	102	1048576	22	4426
2026-01-23 08:45:26.03	26.38	24.06	-30.6	-31.8	12.9	5.26e-05	0	43	102	1048576	22	4147
2026-01-23 08:45:27.03	26.11	24.00	-30.4	-31.4	13.2	2.44e-05	0	43	102	1048576	22	4043
2026-01-23 08:45:28.04	25.85	23.94	-30.4	-31.5	13.2	1.83e-05	0	43	102	1048576	22	4048
2026-01-23 08:45:29.05	25.58	23.89	-30.7	-32.1	12.7	3.43e-05	0	43	102	1048576	22	4248
2026-01-23 08:45:30.06	25.32	23.83	-30.8	-32.4	12.5	9.76e-05	0	43	102	1048576	22	4357
2026-01-23 08:45:31.07	25.05	23.77	-30.9	-32.8	12.2	2.04e-04	0	43	102	1048576	22	4493
2026-01-23 08:45:32.07	24.79	23.71	-30.5	-31.8	12.9	1.12e-04	0	43	102	1048576	22	4141
2026-01-23 08:45:33.07	24.54	23.65	-30.3	-31.5	13.4	1.67e-05	0	43	102	1048576	21	4167
2026-01-23 08:45:34.07	24.28	23.59	-29.8	-30.4	14.0	2.20e-06	0	43	102	1048576	21	3849
2026-01-23 08:45:35.07	24.02	23.53	-29.8	-30.9	14.0	7.00e-07	0	43	102	1048576	20	4078
2026-01-23 08:45:36.08	23.76	23.47	-30.1	-31.7	13.5	6.80e-06	0	43	102	1048576	20	4319
2026-01-23 08:45:37.09	23.51	23.41	-30.2	-32.0	13.3	6.10e-06	0	43	102	1048576	20	4413
2026-01-23 08:45:38.09	23.25	23.35	-30.6	-32.5	12.7	5.11e-05	0	43	102	1048576	21	4463
2026-01-23 08:45:39.09	23.00	23.29	-30.7	-32.8	12.5	5.95e-05	0	43	102	1048576	21	4572
2026-01-23 08:45:40.09	22.75	23.22	-31.0	-33.5	12.0	1.92e-04	0	43	102	1048576	21	4841
2026-01-23 08:45:41.10	22.50	23.16	-30.9	-33.4	12.1	2.30e-04	0	43	102	1048576	21	4817
2026-01-23 08:45:42.10	22.25	23.10	-30.8	-33.0	12.4	2.19e-04	0	43	102	1048576	21	4645
2026-01-23 08:45:43.11	22.00	23.03	-30.7	-32.7	12.5	1.15e-04	0	43	102	1048576	21	4567
2026-01-23 08:45:44.11	21.75	22.97	-30.6	-32.6	12.6	1.16e-04	0	43	102	1048576	21	4524
2026-01-23 08:45:45.12	21.50	22.90	-30.4	-31.9	13.1	3.66e-05	0	43	102	1048576	21	4289
2026-01-23 08:45:46.12	21.25	22.84	-30.4	-31.9	13.2	2.36e-05	0	43	102	1048576	21	4274
2026-01-23 08:45:47.14	21.01	22.77	-30.6	-32.4	12.8	5.72e-05	0	43	102	1048576	21	4430
2026-01-23 08:45:48.14	20.76	22.71	-30.3	-31.5	13.4	2.21e-05	0	43	102	1048576	21	4166
2026-01-23 08:45:49.15	20.52	22.64	-30.3	-31.7	13.3	1.52e-05	0	43	102	1048576	21	4223
2026-01-23 08:45:50.15	20.28	22.57	-30.6	-32.6	12.7	3.35e-05	0	43	102	1048576	21	4491
2026-01-23 08:45:51.15	20.04	22.51	-30.8	-33.0	12.4	1.27e-04	0	43	102	1048576	21	4631
2026-01-23 08:45:52.16	19.80	22.44	-30.9	-33.2	12.2	1.67e-04	0	43	102	1048576	21	4727
2026-01-23 08:45:53.16	19.56	22.37	-30.9	-33.4	12.2	3.07e-04	0	44	102	1048576	21	4788
2026-01-23 08:45:54.16	19.32	22.30	-30.8	-33.2	12.2	2.66e-04	0	43	102	1048576	21	4701
2026-01-23 08:45:55.17	19.08	22.24	-30.6	-32.3	12.8	1.30e-04	0	43	102	1048576	21	4421
2026-01-23 08:45:56.18	18.85	22.17	-30.1	-31.2	13.6	2.05e-05	0	43	102	1048576	21	4060
2026-01-23 08:45:57.18	18.61	22.10	-29.9	-30.4	14.1	6.10e-06	0	43	102	1048576	21	3851
2026-01-23 08:45:58.18	18.38	22.03	-29.7	-30.5	14.3	0.00e+00	0	43	102	1048576	20	3951
2026-01-23 08:45:59.19	18.15	21.96	-29.5	-30.0	14.6	7.00e-07	0	43	102	1048576	20	3805
2026-01-23 08:46:00.19	17.92	21.89	-29.4	-29.7	14.8	0.00e+00	0	43	102	1048576	20	3739
2026-01-23 08:46:01.19	17.69	21.82	-29.5	-30.1	14.6	0.00e+00	0	43	102	1048576	20	3850
2026-01-23 08:46:02.20	17.46	21.75	-29.4	-29.9	14.7	0.00e+00	0	43	102	1048576	20	3786
2026-01-23 08:46:03.19	17.23	21.68	-29.6	-30.3	14.3	0.00e+00	0	43	102	1048576	20	3903
2026-01-23 08:46:04.20	17.00	21.61	-29.5	-30.1	14.5	0.00e+00	0	43	102	1048576	20	3836
2026-01-23 08:46:05.20	16.78	21.53	-29.4	-29.9	14.7	7.00e-07	0	43	102	1048576	20	3790
2026-01-23 08:46:06.21	16.55	21.46	-29.4	-29.8	14.7	0.00e+00	0	43	102	1048576	20	3755
2026-01-23 08:46:07.21	16.33	21.39	-29.5	-30.1	14.5	7.00e-07	0	43	102	1048576	20	3842
2026-01-23 08:46:08.22	16.10	21.32	-29.7	-30.5	14.3	2.20e-06	0	43	102	1048576	20	3942
2026-01-23 08:46:09.22	15.88	21.25	-29.5	-30.1	14.5	7.00e-07	0	43	102	1048576	20	3855
2026-01-23 08:46:10.23	15.66	21.17	-29.5	-30.0	14.5	1.50e-06	0	43	102	1048576	20	3828
2026-01-23 08:46:11.23	15.44	21.10	-29.5	-30.0	14.6	7.00e-07	0	43	102	1048576	20	3820
2026-01-23 08:46:12.24	15.22	21.03	-29.5	-30.1	14.5	0.00e+00	0	43	102	1048576	20	3846
2026-01-23 08:46:13.24	15.00	20.95	-29.4	-30.3	14.7	7.00e-07	0	43	102	1048576	19	3994
2026-01-23 08:46:14.24	14.79	20.88	-29.5	-30.5	14.5	1.50e-06	0	43	102	1048576	19	4056
2026-01-23 08:46:15.25	14.57	20.80	-29.7	-31.0	14.3	7.00e-07	0	43	102	1048576	19	4199
2026-01-23 08:46:16.25	14.36	20.73	-29.8	-30.9	13.9	1.50e-06	0	43	102	1048576	20	4082
2026-01-23 08:46:17.25	14.15	20.66	-29.7	-30.5	14.1	1.50e-06	0	43	102	1048576	20	3969
2026-01-23 08:46:18.26	13.93	20.58	-29.7	-30.7	14.1	0.00e+00	0	43	102	1048576	20	4018
2026-01-23 08:46:19.26	13.72	20.51	-29.5	-30.1	14.4	2.20e-06	0	43	102	1048576	20	3863
2026-01-23 08:46:20.26	13.51	20.43	-29.6	-30.3	14.3	7.00e-07	0	43	102	1048576	20	3923
2026-01-23 08:46:21.27	13.30	20.36	-29.7	-30.7	14.0	3.00e-06	0	43	102	1048576	20	4029
2026-01-23 08:46:22.27	13.09	20.28	-30.0	-31.4	13.7	3.00e-06	0	43	102	1048576	20	4226
2026-01-23 08:46:23.27	12.89	20.21	-30.0	-31.5	13.5	1.06e-05	0	43	102	1048576	20	4256
2026-01-23 08:46:24.28	12.68	20.13	-29.9	-31.1	13.8	3.00e-06	0	43	102	1048576	20	4145
2026-01-23 08:46:25.28	12.48	20.05	-29.7	-30.5	14.2	6.80e-06	0	43	102	1048576	20	3963
2026-01-23 08:46:26.29	12.27	19.98	-29.6	-30.3	14.4	0.00e+00	0	43	102	1048576	20	3896
2026-01-23 08:46:27.29	12.07	19.90	-29.6	-30.4	14.3	2.20e-06	0	43	102	1048576	20	3927
2026-01-23 08:46:28.30	11.87	19.83	-29.6	-30.4	14.3	1.50e-06	0	44	102	1048576	20	3924
2026-01-23 08:46:29.30	11.66	19.75	-29.8	-30.9	14.0	4.50e-06	0	43	102	1048576	20	4090
2026-01-23 08:46:30.30	11.47	19.67	-29.8	-30.7	14.1	3.00e-06	0	43	102	1048576	20	4028
2026-01-23 08:46:31.31	11.27	19.60	-29.7	-30.7	14.0	7.00e-07	0	43	102	1048576	20	4018
2026-01-23 08:46:32.31	11.07	19.52	-29.7	-30.7	14.1	1.50e-06	0	43	102	1048576	20	4008
2026-01-23 08:46:33.31	10.87	19.44	-29.6	-30.2	14.4	0.00e+00	0	43	102	1048576	20	3876
2026-01-23 08:46:34.32	10.68	19.37	-29.6	-30.3	14.3	0.00e+00	0	43	102	1048576	20	3901
2026-01-23 08:46:35.33	10.48	19.29	-29.6	-30.3	14.3	7.00e-07	0	43	102	1048576	20	3903
2026-01-23 08:46:36.33	10.29	19.21	-29.3	-29.5	14.8	0.00e+00	0	43	102	1048576	20	3687
2026-01-23 08:46:37.33	10.09	19.13	-29.3	-30.0	14.9	0.00e+00	0	43	102	1048576	19	3890
2026-01-23 08:46:38.33	9.90	19.06	-29.4	-30.3	14.7	0.00e+00	0	43	102	1048576	19	3981
2026-01-23 08:46:39.34	9.71	18.98	-29.5	-30.4	14.7	0.00e+00	0	43	102	1048576	19	4000
2026-01-23 08:46:40.34	9.52	18.90	-29.4	-30.3	14.7	0.00e+00	0	43	102	1048576	19	3982
2026-01-23 08:46:41.35	9.33	18.82	-29.6	-30.7	14.5	0.00e+00	0	43	102	1048576	19	4092
2026-01-23 08:46:42.35	9.14	18.75	-29.8	-31.2	14.2	0.00e+00	0	43	102	1048576	19	4232
2026-01-23 08:46:43.35	8.96	18.67	-29.9	-31.2	13.8	3.00e-06	0	43	102	1048576	20	4159
2026-01-23 08:46:44.36	8.77	18.59	-29.6	-30.4	14.2	3.80e-06	0	43	102	1048576	20	3929
2026-01-23 08:46:45.37	8.58	18.51	-29.5	-29.9	14.5	1.50e-06	0	43	102	1048576	20	3799
2026-01-23 08:46:46.37	8.40	18.43	-29.3	-29.9	14.9	0.00e+00	0	43	102	1048576	19	3881
2026-01-23 08:46:47.38	8.22	18.36	-29.1	-29.6	15.1	0.00e+00	0	43	102	1048576	19	3784
2026-01-23 08:46:48.38	8.03	18.28	-29.1	-29.5	15.2	0.00e+00	0	43	102	1048576	19	3768
2026-01-23 08:46:49.38	7.85	18.20	-29.1	-29.6	15.1	0.00e+00	0	43	102	1048576	19	3785
2026-01-23 08:46:50.38	7.67	18.12	-29.2	-29.7	15.1	0.00e+00	0	43	102	1048576	19	3817
2026-01-23 08:46:51.39	7.49	18.04	-29.2	-29.9	15.0	0.00e+00	0	43	102	1048576	19	3864
2026-01-23 08:46:52.39	7.32	17.96	-29.4	-30.3	14.7	0.00e+00	0	43	102	1048576	19	3983
2026-01-23 08:46:53.39	7.14	17.89	-29.5	-30.6	14.5	0.00e+00	0	43	102	1048576	19	4065
2026-01-23 08:46:54.40	6.96	17.81	-29.6	-30.8	14.4	7.00e-07	0	43	102	1048576	19	4121
2026-01-23 08:46:55.40	6.79	17.73	-29.6	-30.8	14.4	0.00e+00	0	43	102	1048576	19	4118
2026-01-23 08:46:56.40	6.61	17.65	-29.7	-31.1	14.1	7.00e-07	0	43	102	1048576	19	4224
2026-01-23 08:46:57.41	6.44	17.57	-29.8	-31.3	14.1	0.00e+00	0	43	102	1048576	19	4264
2026-01-23 08:46:58.42	6.26	17.49	-29.8	-31.3	14.1	2.20e-06	0	43	102	1048576	19	4264
2026-01-23 08:46:59.43	6.09	17.41	-29.6	-30.8	14.4	2.20e-06	0	44	102	1048576	19	4123
2026-01-23 08:47:00.43	5.92	17.34	-29.5	-30.4	14.5	0.00e+00	0	43	102	1048576	19	4021
2026-01-23 08:47:01.44	5.75	17.26	-29.4	-30.1	14.7	0.00e+00	0	43	102	1048576	19	3944
2026-01-23 08:47:02.45	5.58	17.18	-29.3	-29.9	14.9	0.00e+00	0	43	102	1048576	19	3873
2026-01-23 08:47:03.45	5.41	17.10	-29.1	-29.5	15.2	0.00e+00	0	43	102	1048576	19	3762
2026-01-23 08:47:04.46	5.24	17.02	-29.1	-29.5	15.1	0.00e+00	0	43	102	1048576	19	3758
2026-01-23 08:47:05.46	5.08	16.94	-29.2	-29.8	14.9	0.00e+00	0	43	102	1048576	19	3846
2026-01-23 08:47:06.47	4.91	16.86	-29.3	-30.0	14.8	0.00e+00	0	43	102	1048576	19	3896
2026-01-23 08:47:07.48	4.75	16.78	-29.7	-31.0	14.2	1.50e-06	0	43	102	1048576	19	4179
2026-01-23 08:47:08.48	4.58	16.71	-30.0	-31.8	13.7	2.20e-06	0	43	102	1048576	19	4441
2026-01-23 08:47:09.49	4.42	16.63	-30.3	-32.3	13.0	1.67e-05	0	43	102	1048576	20	4523
2026-01-23 08:47:10.50	4.26	16.55	-30.3	-32.3	12.9	4.80e-05	0	43	102	1048576	20	4508
2026-01-23 08:47:11.49	4.10	16.47	-30.2	-32.0	13.2	2.59e-05	0	43	102	1048576	20	4426
2026-01-23 08:47:12.49	3.94	16.39	-30.2	-31.8	13.3	3.81e-05	0	43	102	1048576	20	4355
2026-01-23 08:47:13.49	3.78	16.31	-30.1	-31.6	13.4	1.29e-05	0	43	102	1048576	20	4279
2026-01-23 08:47:14.50	3.62	16.24	-30.2	-31.9	13.1	1.44e-05	0	43	102	1048576	20	4398
2026-01-23 08:47:15.51	3.46	16.16	-30.0	-31.4	13.5	1.75e-05	0	43	102	1048576	20	4229
2026-01-23 08:47:16.50	3.30	16.08	-29.8	-31.0	13.8	3.80e-06	0	43	102	1048576	20	4096
2026-01-23 08:47:17.51	3.15	16.00	-29.7	-30.6	14.0	7.60e-06	0	43	102	1048576	20	3992
2026-01-23 08:47:18.51	2.99	15.92	-29.8	-30.9	13.8	2.20e-06	0	44	102	1048576	20	4071
2026-01-23 08:47:19.51	2.84	15.84	-29.8	-30.9	13.7	4.50e-06	0	43	102	1048576	20	4078
2026-01-23 08:47:20.51	2.69	15.77	-29.8	-30.9	13.8	4.50e-06	0	43	102	1048576	20	4089
2026-01-23 08:47:21.51	2.53	15.69	-29.8	-30.9	13.8	4.50e-06	0	43	102	1048576	20	4088
2026-01-23 08:47:22.52	2.38	15.61	-29.7	-30.5	14.0	9.10e-06	0	43	102	1048576	20	3965
2026-01-23 08:47:23.52	2.23	15.53	-29.9	-31.0	13.7	2.20e-06	0	43	102	1048576	20	4125
2026-01-23 08:47:24.52	2.08	15.45	-30.0	-31.5	13.4	1.14e-05	0	43	102	1048576	20	4259
2026-01-23 08:47:25.53	1.93	15.38	-30.3	-32.1	13.0	3.20e-05	0	43	102	1048576	20	4465
2026-01-23 08:47:26.52	1.78	15.30	-30.4	-32.4	12.8	3.96e-05	0	43	102	1048576	20	4543
2026-01-23 08:47:27.52	1.63	15.22	-30.5	-32.2	12.5	5.79e-05	0	43	102	1048576	21	4388
2026-01-23 08:47:28.53	1.49	15.14	-30.5	-32.3	12.5	1.49e-04	0	43	102	1048576	21	4426
2026-01-23 08:47:29.53	1.34	15.07	-30.5	-32.4	12.4	1.14e-04	0	43	102	1048576	21	4479
2026-01-23 08:47:30.54	1.19	14.99	-30.4	-32.1	12.7	1.07e-04	0	43	102	1048576	21	4372
2026-01-23 08:47:31.55	1.05	14.91	-30.1	-31.1	13.3	4.73e-05	0	43	102	1048576	21	4068
2026-01-23 08:47:32.54	0.91	14.83	-29.8	-30.4	13.7	4.50e-06	0	43	102	1048576	21	3861
2026-01-23 08:47:33.55	0.76	14.75	-29.5	-30.1	14.2	1.50e-06	0	43	102	1048576	20	3856
2026-01-23 08:47:34.56	0.62	14.68	-29.6	-30.4	14.1	7.00e-07	0	43	102	1048576	20	3930
2026-01-23 08:47:35.56	0.48	14.60	-29.6	-30.3	14.2	7.00e-07	0	43	102	1048576	20	3926
2026-01-23 08:47:36.56	0.34	14.52	-29.7	-30.6	14.0	1.50e-06	0	43	102	1048576	20	3992
2026-01-23 08:47:37.57	0.20	14.44	-29.8	-31.0	13.7	3.00e-06	0	43	102	1048576	20	4109
2026-01-23 08:47:38.57	0.06	14.37	-29.9	-31.2	13.6	8.30e-06	0	43	102	1048576	20	4171
2026-01-23 08:47:39.57	359.92	14.29	-30.0	-31.4	13.4	1.83e-05	0	43	102	1048576	20	4232
2026-01-23 08:47:40.58	359.78	14.21	-29.9	-31.3	13.4	1.06e-05	0	43	102	1048576	20	4199
2026-01-23 08:47:41.58	359.64	14.14	-30.0	-31.6	13.2	1.75e-05	0	43	102	1048576	20	4287
2026-01-23 08:47:42.59	359.50	14.06	-29.9	-31.1	13.5	7.60e-06	0	43	102	1048576	20	4156
2026-01-23 08:47:43.59	359.37	13.98	-29.9	-31.1	13.5	6.10e-06	0	43	102	1048576	20	4164
2026-01-23 08:47:44.60	359.23	13.91	-29.8	-30.8	13.7	1.06e-05	0	43	102	1048576	20	4079
2026-01-23 08:47:45.60	359.10	13.83	-29.7	-30.7	13.8	3.00e-06	0	43	102	1048576	20	4041
2026-01-23 08:47:46.61	358.96	13.75	-29.6	-30.5	13.9	4.50e-06	0	43	102	1048576	20	3976
2026-01-23 08:47:47.62	358.83	13.68	-29.7	-30.6	13.9	1.50e-06	0	43	102	1048576	20	4012
2026-01-23 08:47:48.62	358.70	13.60	-29.6	-30.5	13.9	4.50e-06	0	43	102	1048576	20	3974
2026-01-23 08:47:49.63	358.57	13.52	-29.6	-30.6	13.9	1.50e-06	0	43	102	1048576	20	3998
2026-01-23 08:47:50.64	358.43	13.45	-29.8	-31.1	13.5	9.10e-06	0	43	102	1048576	20	4150
2026-01-23 08:47:51.64	358.30	13.37	-29.7	-30.7	13.7	8.30e-06	0	43	102	1048576	20	4051
2026-01-23 08:47:52.64	358.18	13.29	-29.7	-30.7	13.7	3.80e-06	0	43	102	1048576	20	4045
2026-01-23 08:47:53.65	358.05	13.22	-29.6	-30.6	13.8	4.50e-06	0	43	102	1048576	20	4006
2026-01-23 08:47:54.65	357.92	13.14	-29.7	-30.7	13.7	1.06e-05	0	43	102	1048576	20	4049
2026-01-23 08:47:55.65	357.79	13.07	-29.7	-30.8	13.6	8.30e-06	0	43	102	1048576	20	4087
2026-01-23 08:47:56.66	357.66	12.99	-29.9	-31.3	13.3	1.06e-05	0	43	102	1048576	20	4223
2026-01-23 08:47:57.65	357.54	12.92	-30.1	-31.7	13.0	3.12e-05	0	43	102	1048576	20	4356
2026-01-23 08:47:58.66	357.41	12.84	-30.0	-31.6	13.1	2.82e-05	0	43	102	1048576	20	4324
2026-01-23 08:47:59.66	357.29	12.77	-30.1	-31.9	12.9	3.20e-05	0	43	102	1048576	20	4431
2026-01-23 08:48:00.66	357.16	12.69	-30.3	-32.2	12.7	7.32e-05	0	44	102	1048576	20	4527
2026-01-23 08:48:01.66	357.04	12.62	-30.3	-32.4	12.6	9.99e-05	0	43	102	1048576	20	4570
2026-01-23 08:48:02.67	356.92	12.54	-30.3	-32.5	12.4	1.43e-04	0	43	102	1048576	20	4629
2026-01-23 08:48:03.68	356.79	12.46	-30.3	-32.4	12.5	1.20e-04	0	44	102	1048576	20	4602
2026-01-23 08:48:04.68	356.67	12.39	-30.2	-32.0	12.8	9.00e-05	0	44	102	1048576	20	4446
2026-01-23 08:48:05.69	356.55	12.31	-30.1	-31.7	13.0	3.96e-05	0	43	102	1048576	20	4362
2026-01-23 08:48:06.70	356.43	12.24	-30.1	-31.9	12.9	5.18e-05	0	43	102	1048576	20	4415
2026-01-23 08:48:07.70	356.31	12.17	-30.0	-31.4	13.2	4.27e-05	0	44	102	1048576	20	4262
2026-01-23 08:48:08.71	356.19	12.09	-30.0	-31.6	13.1	2.44e-05	0	43	102	1048576	20	4322
2026-01-23 08:48:09.71	356.07	12.02	-30.0	-31.6	13.1	3.66e-05	0	43	102	1048576	20	4332
2026-01-23 08:48:10.72	355.95	11.94	-30.1	-31.8	12.9	3.43e-05	0	43	102	1048576	20	4401
2026-01-23 08:48:11.72	355.84	11.87	-30.2	-32.2	12.7	5.95e-05	0	43	102	1048576	20	4531
2026-01-23 08:48:12.73	355.72	11.79	-30.4	-32.6	12.4	9.91e-05	0	43	102	1048576	20	4670
2026-01-23 08:48:13.72	355.61	11.72	-30.5	-32.5	12.1	2.45e-04	0	43	102	1048576	21	4547
2026-01-23 08:48:14.73	355.49	11.65	-30.8	-33.4	11.5	4.68e-04	0	43	102	1048576	21	4843
2026-01-23 08:48:15.73	355.37	11.57	-30.9	-33.8	11.2	1.34e-03	0	43	102	1048576	21	5001
2026-01-23 08:48:16.74	355.26	11.50	-31.0	-33.9	11.1	1.51e-03	0	44	102	1048576	21	5058
2026-01-23 08:48:17.74	355.15	11.42	-31.0	-33.4	11.1	1.73e-03	0	43	102	1048576	22	4778
2026-01-23 08:48:18.74	355.03	11.35	-30.9	-33.3	11.2	1.58e-03	0	43	102	1048576	22	4730
2026-01-23 08:48:19.75	354.92	11.28	-30.9	-33.1	11.3	9.93e-04	0	43	102	1048576	22	4661
2026-01-23 08:48:20.75	354.81	11.20	-30.8	-32.8	11.6	8.22e-04	0	43	102	1048576	22	4534
2026-01-23 08:48:21.76	354.70	11.13	-30.6	-32.4	11.8	7.41e-04	0	43	102	1048576	22	4430
2026-01-23 08:48:22.77	354.59	11.06	-30.6	-32.2	11.9	4.50e-04	0	43	102	1048576	22	4351
2026-01-23 08:48:23.78	354.47	10.98	-30.6	-32.2	11.9	3.87e-04	0	43	102	1048576	22	4363
2026-01-23 08:48:24.78	354.36	10.91	-30.6	-32.3	11.8	3.62e-04	0	43	102	1048576	22	4382
2026-01-23 08:48:25.78	354.26	10.84	-30.7	-32.7	11.6	5.75e-04	0	43	102	1048576	22	4510
2026-01-23 08:48:26.79	354.15	10.77	-30.6	-32.3	11.8	5.83e-04	0	43	102	1048576	22	4398
2026-01-23 08:48:27.79	354.04	10.69	-30.7	-32.6	11.6	4.99e-04	0	43	102	1048576	22	4481
2026-01-23 08:48:28.80	353.93	10.62	-30.6	-32.4	11.7	7.93e-04	0	43	102	1048576	22	4427
2026-01-23 08:48:29.80	353.82	10.55	-30.6	-32.4	11.7	5.10e-04	0	43	102	1048576	22	4417
2026-01-23 08:48:30.80	353.72	10.48	-30.7	-32.8	11.5	5.56e-04	0	43	102	1048576	22	4549
2026-01-23 08:48:31.81	353.61	10.41	-30.8	-33.1	11.2	1.18e-03	0	43	102	1048576	22	4683
2026-01-23 08:48:32.81	353.51	10.33	-31.0	-33.6	10.8	1.97e-03	0	43	102	1048576	22	4862
2026-01-23 08:48:33.82	353.40	10.26	-31.3	-34.6	10.1	5.00e-03	0	43	102	1048576	22	5273
2026-01-23 08:48:34.82	353.30	10.19	-31.3	-34.7	10.0	7.82e-03	0	43	102	1048576	22	5323
2026-01-23 08:48:35.82	353.20	10.12	-31.5	-35.4	9.5	1.04e-02	0	43	102	1048576	22	5631
2026-01-23 08:48:36.83	353.09	10.05	-31.4	-34.7	9.6	1.73e-02	0	43	102	1048576	23	5218
2026-01-23 08:48:37.84	352.99	9.98	-31.5	-34.7	9.6	1.37e-02	0	43	102	1048576	23	5258
2026-01-23 08:48:38.85	352.89	9.90	-31.6	-35.2	9.2	1.18e-02	0	43	102	1048576	23	5482
2026-01-23 08:48:39.85	352.78	9.83	-31.5	-34.8	9.5	1.68e-02	0	43	102	1048576	23	5292
2026-01-23 08:48:40.86	352.68	9.76	-31.4	-34.7	9.6	1.36e-02	0	44	102	1048576	23	5241
2026-01-23 08:48:41.87	352.58	9.69	-31.4	-34.7	9.6	1.26e-02	0	43	102	1048576	23	5243
2026-01-23 08:48:42.86	352.48	9.62	-31.5	-35.0	9.4	1.58e-02	0	43	102	1048576	23	5387
2026-01-23 08:48:43.86	352.38	9.55	-31.4	-34.7	9.6	1.64e-02	0	43	102	1048576	23	5252
2026-01-23 08:48:44.87	352.28	9.48	-31.3	-34.4	9.8	1.11e-02	0	43	102	1048576	23	5115
2026-01-23 08:48:45.88	352.18	9.41	-31.3	-34.2	10.0	8.80e-03	0	43	102	1048576	23	5026
2026-01-23 08:48:46.88	352.09	9.34	-31.3	-34.3	9.9	8.61e-03	0	43	102	1048576	23	5063
2026-01-23 08:48:47.89	351.99	9.27	-31.2	-34.0	10.1	8.73e-03	0	43	102	1048576	23	4965
2026-01-23 08:48:48.90	351.89	9.20	-31.4	-34.5	9.8	8.09e-03	0	43	102	1048576	23	5133
2026-01-23 08:48:49.90	351.79	9.13	-31.2	-34.0	10.1	7.54e-03	0	43	102	1048576	23	4965
2026-01-23 08:48:50.91	351.70	9.06	-31.2	-33.8	10.3	5.83e-03	0	43	102	1048576	23	4868
2026-01-23 08:48:51.92	351.60	8.99	-31.0	-33.3	10.5	4.65e-03	0	43	102	1048576	23	4696
2026-01-23 08:48:52.92	351.51	8.92	-31.1	-33.4	10.6	3.94e-03	0	43	102	1048576	23	4723
2026-01-23 08:48:53.93	351.41	8.85	-31.1	-33.5	10.4	4.16e-03	0	43	102	1048576	23	4765
2026-01-23 08:48:54.94	351.32	8.78	-31.2	-34.0	10.1	5.70e-03	0	43	102	1048576	23	4943
2026-01-23 08:48:55.94	351.22	8.71	-31.3	-34.2	10.0	7.14e-03	0	43	102	1048576	23	5029
2026-01-23 08:48:56.95	351.13	8.64	-31.3	-34.2	9.9	8.52e-03	0	43	102	1048576	23	5028
2026-01-23 08:48:57.95	351.04	8.57	-31.4	-34.6	9.5	9.48e-03	0	44	102	1048576	23	5224
2026-01-23 08:48:58.95	350.94	8.50	-31.3	-34.3	9.8	1.09e-02	0	44	102	1048576	23	5090
2026-01-23 08:48:59.96	350.85	8.43	-31.3	-34.4	9.7	1.24e-02	0	43	102	1048576	23	5144
2026-01-23 08:49:00.96	350.76	8.37	-31.4	-34.7	9.4	1.45e-02	0	43	102	1048576	23	5258
2026-01-23 08:49:01.97	350.67	8.30	-31.4	-34.8	9.4	1.59e-02	0	43	102	1048576	23	5300
2026-01-23 08:49:02.97	350.58	8.23	-31.3	-34.5	9.6	1.25e-02	0	43	102	1048576	23	5188
2026-01-23 08:49:03.97	350.49	8.16	-31.3	-34.3	9.7	1.22e-02	0	43	102	1048576	23	5110
2026-01-23 08:49:04.98	350.40	8.09	-31.3	-34.4	9.6	1.20e-02	0	44	102	1048576	23	5145
2026-01-23 08:49:05.98	350.31	8.02	-31.1	-33.8	10.1	6.80e-03	0	44	102	1048576	23	4899
2026-01-23 08:49:06.99	350.22	7.96	-31.0	-33.3	10.5	4.69e-03	0	43	102	1048576	23	4697
2026-01-23 08:49:08.00	350.13	7.89	-30.9	-32.9	10.7	3.48e-03	0	43	102	1048576	23	4558
2026-01-23 08:49:09.00	350.04	7.82	-30.8	-32.8	10.8	2.70e-03	0	43	102	1048576	23	4508
2026-01-23 08:49:10.01	349.96	7.75	-30.9	-32.9	10.7	2.72e-03	0	43	102	1048576	23	4561
2026-01-23 08:49:11.01	349.87	7.69	-30.6	-32.6	11.3	1.71e-03	0	43	102	1048576	22	4511
2026-01-23 08:49:12.02	349.78	7.62	-30.5	-32.4	11.5	9.29e-04	0	43	102	1048576	22	4446
2026-01-23 08:49:13.01	349.70	7.55	-30.4	-31.9	11.8	5.45e-04	0	43	102	1048576	22	4286
2026-01-23 08:49:14.02	349.61	7.48	-30.3	-32.2	11.8	4.26e-04	0	43	102	1048576	21	4487
2026-01-23 08:49:15.02	349.52	7.42	-30.2	-31.9	12.1	3.42e-04	0	43	102	1048576	21	4391
2026-01-23 08:49:16.03	349.44	7.35	-30.4	-32.5	11.7	5.35e-04	0	43	102	1048576	21	4595
2026-01-23 08:49:17.04	349.35	7.28	-30.2	-31.8	12.0	4.70e-04	0	43	102	1048576	21	4366
2026-01-23 08:49:18.04	349.27	7.22	-30.4	-32.6	11.5	4.52e-04	0	43	102	1048576	21	4623
2026-01-23 08:49:19.04	349.19	7.15	-30.3	-32.2	11.8	7.61e-04	0	44	102	1048576	21	4474
2026-01-23 08:49:20.05	349.10	7.08	-30.3	-32.3	11.8	5.96e-04	0	43	102	1048576	21	4526
2026-01-23 08:49:21.06	349.02	7.02	-33.2	-44.1	3.8	1.31e+00	0	43	104	1048576	26	12637
2026-01-23 08:49:22.06	348.94	6.95	-33.6	-45.7	3.8	1.49e+00	0	43	104	1048576	27	14439
2026-01-23 08:49:23.06	348.85	6.88	-33.8	-46.4	3.8	1.49e+00	0	44	104	1048576	27	15326

#Closed at: 2026-01-23 08:49:23
#Recorded file [1 MB]: D:/data/31010_260123_113909.dat