passes_logs/2026/01/23/R2M6_AANII_01/R2M6_AANII_01__20260123_030308_FENGYUN_3D_rec.log

#Pass ID: 20260123_030308_FENGYUN 3D
#Satellite: FENGYUN 3D
#Configuration: FENGYUN 3D
#almurnet v.1.7.20240730
#Start time: 2026-01-23 03:03:10

#Version: 2.2.20231116
#Station: R2M6_AANII_01
#Location: 30.233357 lon 59.946436 lat
#TLE: 1 43010U 17072A   26022.47411728  .00000617  00000+0  31375-3 0  9996
#TLE: 2 43010  98.9952 354.4060 0002481  95.7964 264.3494 14.19699924424319

#Time	Az	El	Level	Level2	SNR	BER	BlckErr	Temp	State	Recorded	gain1	gain2
2026-01-23 03:03:10.32	15.71	7.11	-31.2	-35.7	4.9	8.07e-01	0	42	0	0	22	6044
2026-01-23 03:03:11.32	15.69	7.18	-31.2	-35.6	4.9	8.06e-01	0	42	104	0	22	5995
2026-01-23 03:03:12.32	15.66	7.26	-31.3	-35.8	7.4	1.07e-01	0	42	0	0	22	6080
2026-01-23 03:03:13.33	15.63	7.34	-31.1	-35.2	7.9	7.69e-02	0	42	0	5242880	22	5755
2026-01-23 03:03:14.33	15.60	7.41	-30.9	-35.2	8.2	5.65e-02	0	42	0	10485760	21	5904
2026-01-23 03:03:15.34	15.57	7.49	-30.9	-35.2	8.2	4.50e-02	0	42	0	16777216	21	5891
2026-01-23 03:03:16.34	15.54	7.57	-31.0	-35.0	8.0	5.56e-02	0	42	0	22020096	22	5687
2026-01-23 03:03:17.34	15.51	7.65	-31.3	-35.8	7.5	1.21e-01	0	42	0	28311552	22	6064
2026-01-23 03:03:18.35	15.48	7.72	-31.0	-34.8	8.2	8.01e-02	0	42	0	33554432	22	5582
2026-01-23 03:03:19.36	15.45	7.80	-30.5	-34.0	9.1	3.50e-02	0	42	0	38797312	21	5345
2026-01-23 03:03:20.36	15.42	7.88	-30.1	-33.1	10.0	1.75e-02	0	42	0	45088768	20	5121
2026-01-23 03:03:21.36	15.39	7.96	-29.6	-32.3	11.0	4.68e-03	0	42	0	50331648	19	4913
2026-01-23 03:03:22.37	15.36	8.04	-29.3	-32.1	11.5	4.13e-03	0	42	0	56623104	18	4945
2026-01-23 03:03:23.38	15.33	8.12	-28.9	-31.5	12.1	3.74e-04	0	42	0	61865984	17	4880
2026-01-23 03:03:24.38	15.30	8.20	-28.5	-30.5	12.8	4.18e-04	0	42	0	67108864	17	4539
2026-01-23 03:03:25.38	15.26	8.28	-28.1	-30.2	13.3	1.94e-03	0	42	0	73400320	16	4569
2026-01-23 03:03:26.38	15.23	8.36	-28.0	-29.9	13.5	1.80e-03	0	42	0	78643200	16	4473
2026-01-23 03:03:27.38	15.20	8.44	-27.6	-29.5	13.8	2.40e-04	0	42	0	83886080	15	4468
2026-01-23 03:03:28.39	15.17	8.52	-27.6	-29.6	13.8	6.80e-06	0	42	0	90177536	15	4496
2026-01-23 03:03:29.40	15.14	8.60	-27.6	-29.5	13.8	1.95e-03	0	42	0	95420416	15	4488
2026-01-23 03:03:30.40	15.10	8.68	-27.7	-29.7	13.7	1.71e-05	0	42	0	101711872	15	4527
2026-01-23 03:03:31.39	15.07	8.76	-27.6	-29.4	13.9	1.92e-03	0	42	0	106954752	15	4431
2026-01-23 03:03:32.40	15.04	8.84	-27.2	-28.6	14.4	1.92e-03	0	43	0	112197632	15	4219
2026-01-23 03:03:33.41	15.01	8.92	-27.3	-29.2	14.3	1.10e-06	0	43	0	118489088	14	4503
2026-01-23 03:03:34.42	14.97	9.01	-27.2	-29.0	14.5	1.80e-03	0	43	0	123731968	14	4431
2026-01-23 03:03:35.43	14.94	9.09	-27.3	-29.2	14.3	1.10e-06	0	43	0	130023424	14	4492
2026-01-23 03:03:36.43	14.91	9.17	-27.3	-29.2	14.3	2.63e-04	0	43	0	135266304	14	4501
2026-01-23 03:03:37.44	14.87	9.25	-27.2	-29.1	14.4	3.40e-06	0	43	0	140509184	14	4457
2026-01-23 03:03:38.44	14.84	9.34	-27.1	-28.8	14.6	1.87e-03	0	43	0	146800640	14	4379
2026-01-23 03:03:39.45	14.80	9.42	-27.2	-29.0	14.5	2.20e-06	0	43	0	152043520	14	4446
2026-01-23 03:03:40.45	14.77	9.50	-27.1	-28.8	14.6	0.00e+00	0	43	0	158334976	14	4386
2026-01-23 03:03:41.44	14.74	9.59	-27.0	-28.5	14.8	0.00e+00	0	43	0	163577856	14	4300
2026-01-23 03:03:42.45	14.70	9.67	-27.0	-28.6	14.7	0.00e+00	0	43	0	168820736	14	4312
2026-01-23 03:03:43.45	14.67	9.75	-27.1	-28.9	14.6	1.84e-03	0	43	0	175112192	14	4405
2026-01-23 03:03:44.45	14.63	9.84	-27.0	-28.6	14.7	1.10e-06	0	43	0	180355072	14	4322
2026-01-23 03:03:45.45	14.60	9.92	-26.9	-28.4	14.8	0.00e+00	0	43	0	185597952	14	4276
2026-01-23 03:03:46.45	14.56	10.01	-26.9	-28.9	14.9	0.00e+00	0	43	0	191889408	13	4511
2026-01-23 03:03:47.46	14.52	10.09	-26.8	-28.7	14.9	0.00e+00	0	43	0	197132288	13	4478
2026-01-23 03:03:48.46	14.49	10.18	-26.9	-28.8	14.9	0.00e+00	0	43	0	202375168	13	4493
2026-01-23 03:03:49.46	14.45	10.26	-26.8	-28.6	15.0	0.00e+00	0	43	0	208666624	13	4441
2026-01-23 03:03:50.47	14.41	10.35	-26.8	-28.6	15.0	0.00e+00	0	43	0	213909504	13	4441
2026-01-23 03:03:51.48	14.38	10.44	-26.8	-28.7	15.0	0.00e+00	0	43	0	220200960	13	4461
2026-01-23 03:03:52.48	14.34	10.52	-26.8	-28.7	15.0	0.00e+00	0	43	0	225443840	13	4476
2026-01-23 03:03:53.48	14.30	10.61	-26.9	-28.4	14.9	0.00e+00	0	43	0	231735296	14	4279
2026-01-23 03:03:54.49	14.26	10.70	-26.8	-28.7	15.0	0.00e+00	0	43	0	236978176	13	4468
2026-01-23 03:03:55.49	14.23	10.79	-26.9	-28.8	15.0	0.00e+00	0	43	0	242221056	13	4479
2026-01-23 03:03:56.49	14.19	10.87	-26.8	-28.7	15.0	1.10e-06	0	43	0	248512512	13	4449
2026-01-23 03:03:57.50	14.15	10.96	-26.9	-28.9	14.9	0.00e+00	0	43	0	253755392	13	4527
2026-01-23 03:03:58.50	14.11	11.05	-26.9	-28.8	15.0	1.10e-06	0	43	0	258998272	13	4498
2026-01-23 03:03:59.50	14.07	11.14	-27.0	-28.7	14.8	0.00e+00	0	43	0	265289728	14	4335
2026-01-23 03:04:00.51	14.03	11.23	-27.1	-28.9	14.7	0.00e+00	0	43	0	270532608	14	4415
2026-01-23 03:04:01.51	13.99	11.32	-27.2	-29.1	14.6	3.40e-06	0	43	0	275775488	14	4456
2026-01-23 03:04:02.51	13.95	11.41	-27.1	-28.7	14.8	0.00e+00	0	43	0	282066944	14	4353
2026-01-23 03:04:03.51	13.91	11.50	-26.9	-28.3	15.0	0.00e+00	0	43	0	287309824	14	4245
2026-01-23 03:04:04.51	13.87	11.59	-26.8	-28.7	15.0	0.00e+00	0	43	0	293601280	13	4456
2026-01-23 03:04:05.52	13.83	11.68	-26.9	-28.8	15.0	0.00e+00	0	43	0	298844160	13	4486
2026-01-23 03:04:06.52	13.79	11.77	-26.8	-28.7	15.1	0.00e+00	0	43	0	305135616	13	4472
2026-01-23 03:04:07.53	13.75	11.86	-26.9	-28.8	15.0	0.00e+00	0	43	0	310378496	13	4500
2026-01-23 03:04:08.53	13.71	11.95	-27.2	-28.9	14.7	0.00e+00	0	43	0	315621376	14	4406
2026-01-23 03:04:09.54	13.67	12.05	-27.2	-29.0	14.7	0.00e+00	0	43	0	321912832	14	4423
2026-01-23 03:04:10.55	13.63	12.14	-26.9	-28.3	15.1	0.00e+00	0	43	0	327155712	14	4233
2026-01-23 03:04:11.55	13.58	12.23	-26.8	-28.7	15.1	0.00e+00	0	43	0	332398592	13	4455
2026-01-23 03:04:12.56	13.54	12.33	-27.1	-28.7	14.8	0.00e+00	0	43	0	338690048	14	4352
2026-01-23 03:04:13.56	13.50	12.42	-27.3	-29.3	14.5	3.40e-06	0	43	0	343932928	14	4517
2026-01-23 03:04:14.56	13.46	12.51	-27.3	-29.2	14.5	3.40e-06	0	43	0	349175808	14	4492
2026-01-23 03:04:15.57	13.41	12.61	-27.1	-28.8	14.8	0.00e+00	0	43	0	355467264	14	4378
2026-01-23 03:04:16.57	13.37	12.70	-27.0	-28.6	14.9	0.00e+00	0	43	0	360710144	14	4314
2026-01-23 03:04:17.58	13.32	12.80	-27.1	-28.7	14.9	0.00e+00	0	43	0	367001600	14	4337
2026-01-23 03:04:18.59	13.28	12.89	-27.2	-29.0	14.7	1.10e-06	0	43	0	372244480	14	4421
2026-01-23 03:04:19.59	13.23	12.99	-26.9	-28.3	15.1	0.00e+00	0	43	0	378535936	14	4245
2026-01-23 03:04:20.59	13.19	13.08	-26.9	-28.9	15.0	0.00e+00	0	43	0	383778816	13	4505
2026-01-23 03:04:21.59	13.14	13.18	-26.9	-28.3	15.1	0.00e+00	0	43	0	389021696	14	4231
2026-01-23 03:04:22.60	13.10	13.28	-26.6	-28.2	15.4	0.00e+00	0	43	0	395313152	13	4331
2026-01-23 03:04:23.59	13.05	13.37	-26.5	-27.8	15.6	0.00e+00	0	43	0	400556032	13	4213
2026-01-23 03:04:24.61	13.01	13.47	-26.4	-27.8	15.7	0.00e+00	0	44	0	405798912	13	4201
2026-01-23 03:04:25.61	12.96	13.57	-26.4	-27.8	15.7	0.00e+00	0	43	0	412090368	13	4212
2026-01-23 03:04:26.62	12.91	13.67	-26.3	-27.6	15.8	0.00e+00	0	43	0	417333248	13	4143
2026-01-23 03:04:27.62	12.87	13.76	-26.3	-28.0	12.8	0.00e+00	0	43	0	423624704	12	4388
2026-01-23 03:04:28.62	12.82	13.86	-26.3	-27.9	15.3	1.23e-03	0	44	0	428867584	12	4341
2026-01-23 03:04:29.63	12.77	13.96	-26.2	-27.8	16.0	0.00e+00	0	43	0	434110464	12	4308
2026-01-23 03:04:30.63	12.72	14.06	-26.2	-27.7	16.0	0.00e+00	0	43	0	440401920	12	4287
2026-01-23 03:04:31.62	12.67	14.16	-26.3	-27.9	15.9	0.00e+00	0	43	0	445644800	12	4344
2026-01-23 03:04:32.62	12.62	14.26	-26.2	-27.8	16.0	0.00e+00	0	44	0	451936256	12	4307
2026-01-23 03:04:33.62	12.58	14.36	-26.1	-27.6	16.1	0.00e+00	0	43	0	457179136	12	4258
2026-01-23 03:04:34.62	12.53	14.46	-26.2	-27.7	16.1	0.00e+00	0	44	0	462422016	12	4283
2026-01-23 03:04:35.63	12.48	14.56	-26.0	-27.3	16.2	2.47e-04	0	44	0	468713472	12	4191
2026-01-23 03:04:36.63	12.43	14.67	-25.9	-27.2	16.3	0.00e+00	0	44	0	473956352	12	4156
2026-01-23 03:04:37.63	12.37	14.77	-25.9	-27.2	16.4	0.00e+00	0	43	0	479199232	12	4153
2026-01-23 03:04:38.63	12.32	14.87	-25.9	-27.7	16.5	0.00e+00	0	44	0	485490688	11	4388
2026-01-23 03:04:39.64	12.27	14.97	-26.0	-27.7	16.4	0.00e+00	0	44	0	490733568	11	4402
2026-01-23 03:04:40.64	12.22	15.08	-25.9	-27.1	16.4	1.68e-03	0	44	0	495976448	12	4138
2026-01-23 03:04:41.64	12.17	15.18	-26.2	-27.6	16.1	0.00e+00	0	44	0	502267904	12	4271
2026-01-23 03:04:42.65	12.11	15.29	-26.0	-27.3	16.3	1.67e-03	0	44	0	507510784	12	4185
2026-01-23 03:04:43.66	12.06	15.39	-25.8	-27.4	16.6	0.00e+00	0	43	0	513802240	11	4327
2026-01-23 03:04:44.67	12.01	15.50	-25.8	-27.4	16.6	0.00e+00	0	44	0	519045120	11	4319
2026-01-23 03:04:45.67	11.95	15.60	-25.7	-27.2	16.7	1.61e-03	0	44	0	525336576	11	4261
2026-01-23 03:04:46.68	11.90	15.71	-25.7	-27.1	16.8	1.45e-03	0	44	0	530579456	11	4248
2026-01-23 03:04:47.68	11.84	15.82	-25.7	-27.1	16.8	1.61e-04	0	44	0	535822336	11	4226
2026-01-23 03:04:48.68	11.79	15.92	-25.5	-26.8	16.9	0.00e+00	0	44	0	542113792	11	4150
2026-01-23 03:04:49.68	11.73	16.03	-25.6	-27.0	16.8	1.60e-03	0	44	0	547356672	11	4203
2026-01-23 03:04:50.68	11.68	16.14	-25.8	-27.3	16.7	0.00e+00	0	44	0	552599552	11	4300
2026-01-23 03:04:51.69	11.62	16.25	-25.7	-27.0	16.8	1.63e-03	0	44	0	558891008	11	4217
2026-01-23 03:04:52.69	11.56	16.35	-25.5	-26.8	17.0	1.59e-03	0	44	0	564133888	11	4158
2026-01-23 03:04:53.70	11.51	16.46	-25.6	-26.8	17.0	1.42e-04	0	44	0	569376768	11	4168
2026-01-23 03:04:54.70	11.45	16.57	-25.7	-27.1	16.8	1.55e-03	0	44	0	575668224	11	4226
2026-01-23 03:04:55.70	11.39	16.68	-25.6	-26.8	16.9	0.00e+00	0	44	0	580911104	11	4164
2026-01-23 03:04:56.71	11.33	16.79	-25.5	-26.6	17.0	1.49e-04	0	44	0	587202560	11	4119
2026-01-23 03:04:57.71	11.27	16.91	-25.5	-26.7	17.1	1.34e-03	0	44	0	592445440	11	4124
2026-01-23 03:04:58.71	11.21	17.02	-25.6	-26.9	16.9	1.55e-03	0	44	0	597688320	11	4192
2026-01-23 03:04:59.71	11.15	17.13	-25.8	-27.3	16.7	1.49e-04	0	44	0	603979776	11	4295
2026-01-23 03:05:00.71	11.09	17.24	-25.8	-27.2	16.8	1.53e-03	0	44	0	609222656	11	4267
2026-01-23 03:05:01.71	11.03	17.35	-25.5	-26.8	17.0	1.42e-03	0	44	0	614465536	11	4150
2026-01-23 03:05:02.72	10.97	17.47	-25.5	-26.7	17.1	0.00e+00	0	44	0	620756992	11	4135
2026-01-23 03:05:03.73	10.91	17.58	-25.5	-26.6	17.1	1.58e-03	0	44	0	625999872	11	4118
2026-01-23 03:05:04.73	10.84	17.70	-25.6	-26.9	17.0	1.39e-03	0	44	0	632291328	11	4193
2026-01-23 03:05:05.73	10.78	17.81	-25.5	-26.7	17.1	1.02e-04	0	44	0	637534208	11	4141
2026-01-23 03:05:06.73	10.72	17.93	-25.3	-26.4	17.3	1.41e-03	0	44	0	642777088	11	4048
2026-01-23 03:05:07.74	10.65	18.04	-25.3	-26.9	17.3	1.49e-03	0	44	0	649068544	10	4291
2026-01-23 03:05:08.74	10.59	18.16	-25.3	-26.8	17.3	1.09e-04	0	44	0	654311424	10	4262
2026-01-23 03:05:09.74	10.52	18.28	-25.3	-26.8	17.3	0.00e+00	0	44	0	660602880	10	4260
2026-01-23 03:05:10.74	10.46	18.39	-25.3	-26.9	17.3	1.50e-03	0	44	0	665845760	10	4289
2026-01-23 03:05:11.74	10.39	18.51	-25.3	-26.7	17.3	0.00e+00	0	44	0	671088640	10	4249
2026-01-23 03:05:12.74	10.32	18.63	-25.4	-26.9	17.3	1.48e-03	0	44	0	677380096	10	4297
2026-01-23 03:05:13.74	10.26	18.75	-25.2	-26.6	17.4	1.36e-03	0	44	0	682622976	10	4230
2026-01-23 03:05:14.74	10.19	18.87	-25.1	-26.4	17.6	0.00e+00	0	44	0	687865856	10	4155
2026-01-23 03:05:15.75	10.12	18.99	-25.0	-26.2	17.7	1.21e-03	0	44	0	694157312	10	4124
2026-01-23 03:05:16.75	10.05	19.11	-25.0	-26.2	17.7	0.00e+00	0	44	0	699400192	10	4117
2026-01-23 03:05:17.75	9.98	19.23	-25.1	-26.4	17.6	6.17e-05	0	44	0	704643072	10	4155
2026-01-23 03:05:18.76	9.91	19.35	-25.0	-26.2	17.7	0.00e+00	0	44	0	710934528	10	4107
2026-01-23 03:05:19.76	9.84	19.47	-25.0	-26.1	17.8	9.75e-04	0	44	0	716177408	10	4081
2026-01-23 03:05:20.77	9.77	19.60	-25.0	-26.1	17.8	0.00e+00	0	44	0	722468864	10	4091
2026-01-23 03:05:21.78	9.70	19.72	-24.9	-25.9	17.8	0.00e+00	0	44	0	727711744	10	4048
2026-01-23 03:05:22.78	9.62	19.85	-25.0	-26.0	17.8	1.19e-03	0	44	0	734003200	10	4070
2026-01-23 03:05:23.79	9.55	19.97	-25.0	-26.2	17.7	0.00e+00	0	44	0	739246080	10	4110
2026-01-23 03:05:24.79	9.48	20.10	-24.9	-26.0	17.8	1.19e-03	0	44	0	744488960	10	4057
2026-01-23 03:05:25.79	9.40	20.22	-24.9	-25.8	17.9	0.00e+00	0	44	0	750780416	10	4017
2026-01-23 03:05:26.79	9.33	20.35	-24.9	-26.0	17.8	0.00e+00	0	44	0	756023296	10	4060
2026-01-23 03:05:27.78	9.25	20.47	-24.9	-25.9	17.9	0.00e+00	0	44	0	761266176	10	4043
2026-01-23 03:05:28.79	9.17	20.60	-24.8	-26.3	17.9	0.00e+00	0	44	0	767557632	9	4243
2026-01-23 03:05:29.79	9.10	20.73	-24.8	-26.2	18.0	0.00e+00	0	44	0	772800512	9	4221
2026-01-23 03:05:30.79	9.02	20.86	-24.8	-26.3	17.9	0.00e+00	0	44	0	778043392	9	4251
2026-01-23 03:05:31.80	8.94	20.99	-25.0	-26.6	17.8	0.00e+00	0	44	0	784334848	9	4327
2026-01-23 03:05:32.81	8.86	21.12	-24.9	-25.8	18.0	0.00e+00	0	44	0	789577728	10	4016
2026-01-23 03:05:33.82	8.78	21.25	-24.7	-26.0	18.1	0.00e+00	0	44	0	795869184	9	4181
2026-01-23 03:05:34.82	8.70	21.38	-24.7	-25.9	18.1	0.00e+00	0	44	0	801112064	9	4161
2026-01-23 03:05:35.82	8.62	21.51	-24.7	-25.9	18.1	0.00e+00	0	44	0	807403520	9	4158
2026-01-23 03:05:36.82	8.54	21.65	-24.7	-26.0	18.1	0.00e+00	0	44	0	812646400	9	4168
2026-01-23 03:05:37.83	8.45	21.78	-24.6	-25.7	18.2	0.00e+00	0	44	0	817889280	9	4108
2026-01-23 03:05:38.83	8.37	21.91	-24.5	-25.5	18.4	0.00e+00	0	44	0	824180736	9	4047
2026-01-23 03:05:39.83	8.29	22.05	-24.6	-25.7	18.3	0.00e+00	0	44	0	829423616	9	4087
2026-01-23 03:05:40.83	8.20	22.18	-24.5	-25.5	18.4	0.00e+00	0	44	0	834666496	9	4042
2026-01-23 03:05:41.83	8.12	22.32	-24.6	-25.8	18.2	0.00e+00	0	44	0	840957952	9	4116
2026-01-23 03:05:42.83	8.03	22.45	-24.5	-25.6	18.3	0.00e+00	0	44	0	846200832	9	4068
2026-01-23 03:05:43.84	7.94	22.59	-24.4	-25.4	18.4	0.00e+00	0	44	0	851443712	9	4028
2026-01-23 03:05:44.84	7.85	22.73	-24.5	-25.5	18.4	0.00e+00	0	44	0	857735168	9	4062
2026-01-23 03:05:45.84	7.76	22.87	-24.5	-25.5	18.4	0.00e+00	0	44	0	862978048	9	4043
2026-01-23 03:05:46.84	7.67	23.00	-24.5	-25.5	18.4	0.00e+00	0	44	0	869269504	9	4045
2026-01-23 03:05:47.84	7.58	23.14	-24.5	-25.5	18.4	0.00e+00	0	44	0	874512384	9	4053
2026-01-23 03:05:48.85	7.49	23.28	-24.5	-25.6	18.3	0.00e+00	0	44	0	879755264	9	4079
2026-01-23 03:05:49.85	7.40	23.42	-24.4	-25.4	18.5	0.00e+00	0	44	0	886046720	9	4025
2026-01-23 03:05:50.85	7.31	23.57	-24.4	-25.3	18.5	0.00e+00	0	44	0	891289600	9	3994
2026-01-23 03:05:51.85	7.21	23.71	-24.4	-25.4	18.5	0.00e+00	0	44	0	896532480	9	4031
2026-01-23 03:05:52.86	7.12	23.85	-24.3	-25.2	18.6	0.00e+00	0	44	0	902823936	9	3981
2026-01-23 03:05:53.86	7.02	24.00	-24.3	-25.2	18.6	0.00e+00	0	44	0	908066816	9	3980
2026-01-23 03:05:54.87	6.92	24.14	-24.4	-25.3	18.6	0.00e+00	0	44	0	914358272	9	3989
2026-01-23 03:05:55.87	6.83	24.29	-24.5	-25.6	18.4	0.00e+00	0	44	0	919601152	9	4063
2026-01-23 03:05:56.87	6.73	24.43	-24.3	-25.1	18.6	0.00e+00	0	44	0	924844032	9	3956
2026-01-23 03:05:57.88	6.63	24.58	-24.1	-25.2	18.8	0.00e+00	0	44	0	931135488	8	4097
2026-01-23 03:05:58.88	6.53	24.73	-24.1	-25.2	18.8	0.00e+00	0	44	0	936378368	8	4086
2026-01-23 03:05:59.88	6.42	24.87	-24.2	-25.4	18.8	0.00e+00	0	44	0	942669824	8	4148
2026-01-23 03:06:00.87	6.32	25.02	-24.0	-25.0	18.9	0.00e+00	0	44	0	947912704	8	4046
2026-01-23 03:06:01.88	6.22	25.17	-24.1	-25.3	18.8	0.00e+00	0	44	0	953155584	8	4104
2026-01-23 03:06:02.88	6.11	25.32	-24.0	-25.0	19.0	0.00e+00	0	44	0	959447040	8	4025
2026-01-23 03:06:03.88	6.01	25.47	-23.8	-24.7	19.2	0.00e+00	0	44	0	964689920	8	3956
2026-01-23 03:06:04.88	5.90	25.62	-23.9	-24.7	19.2	0.00e+00	0	44	0	969932800	8	3959
2026-01-23 03:06:05.89	5.79	25.78	-23.8	-24.6	19.2	0.00e+00	0	44	0	976224256	8	3948
2026-01-23 03:06:06.89	5.68	25.93	-23.9	-24.8	19.1	0.00e+00	0	44	0	981467136	8	3988
2026-01-23 03:06:07.89	5.57	26.08	-23.8	-24.6	19.2	0.00e+00	0	44	0	987758592	8	3932
2026-01-23 03:06:08.90	5.46	26.24	-23.8	-24.6	19.2	0.00e+00	0	44	0	993001472	8	3930
2026-01-23 03:06:09.90	5.35	26.39	-23.9	-24.7	19.1	0.00e+00	0	44	0	998244352	8	3971
2026-01-23 03:06:10.90	5.24	26.55	-23.8	-24.5	19.3	0.00e+00	0	44	0	1004535808	8	3907
2026-01-23 03:06:11.91	5.12	26.71	-23.7	-24.3	19.4	0.00e+00	0	44	0	1009778688	8	3860
2026-01-23 03:06:12.91	5.01	26.87	-23.7	-24.8	19.3	0.00e+00	0	44	0	1015021568	7	4090
2026-01-23 03:06:13.91	4.89	27.02	-23.7	-24.8	19.3	0.00e+00	0	44	0	1021313024	7	4087
2026-01-23 03:06:14.92	4.77	27.19	-23.8	-25.1	19.2	0.00e+00	0	44	0	1026555904	7	4171
2026-01-23 03:06:15.91	4.65	27.34	-23.7	-24.8	19.3	0.00e+00	0	44	0	1031798784	7	4107
2026-01-23 03:06:16.91	4.53	27.50	-23.6	-24.7	19.4	0.00e+00	0	44	0	1038090240	7	4064
2026-01-23 03:06:17.92	4.41	27.67	-23.7	-24.8	19.3	0.00e+00	0	44	0	1043333120	7	4106
2026-01-23 03:06:18.92	4.29	27.83	-23.1	-24.0	17.7	0.00e+00	0	44	0	1049624576	7	4018
2026-01-23 03:06:19.93	4.16	27.99	-23.8	-25.0	19.0	0.00e+00	0	44	0	1054867456	7	4141
2026-01-23 03:06:20.93	4.03	28.16	-23.6	-24.7	16.5	0.00e+00	0	44	0	1061158912	7	4080
2026-01-23 03:06:21.94	3.91	28.33	-23.7	-24.8	19.2	1.16e-03	0	44	0	1066401792	7	4100
2026-01-23 03:06:22.94	3.78	28.49	-23.6	-24.7	19.4	0.00e+00	0	44	0	1071644672	7	4063
2026-01-23 03:06:23.94	3.65	28.66	-23.6	-24.7	19.4	0.00e+00	0	44	0	1077936128	7	4078
2026-01-23 03:06:24.95	3.52	28.83	-23.8	-25.0	19.3	0.00e+00	0	44	0	1083179008	7	4140
2026-01-23 03:06:25.95	3.38	28.99	-23.6	-24.7	19.4	0.00e+00	0	44	0	1088421888	7	4067
2026-01-23 03:06:26.95	3.25	29.16	-23.5	-24.4	19.6	0.00e+00	0	44	0	1094713344	7	3995
2026-01-23 03:06:27.96	3.11	29.33	-23.5	-24.4	19.6	0.00e+00	0	44	0	1099956224	7	3991
2026-01-23 03:06:28.96	2.98	29.51	-23.4	-24.1	19.7	0.00e+00	0	44	0	1105199104	7	3937
2026-01-23 03:06:29.96	2.84	29.68	-23.4	-24.3	19.6	0.00e+00	0	44	0	1111490560	7	3973
2026-01-23 03:06:30.96	2.70	29.85	-23.5	-24.3	19.6	0.00e+00	0	44	0	1116733440	7	3984
2026-01-23 03:06:31.97	2.56	30.02	-23.5	-24.5	19.5	0.00e+00	0	44	0	1123024896	7	4037
2026-01-23 03:06:32.97	2.41	30.20	-23.6	-24.6	19.5	0.00e+00	0	44	0	1128267776	7	4045
2026-01-23 03:06:33.97	2.27	30.37	-23.7	-24.8	19.4	1.09e-03	0	44	0	1134559232	7	4094
2026-01-23 03:06:34.97	2.12	30.55	-23.5	-24.5	19.5	0.00e+00	0	44	0	1139802112	7	4019
2026-01-23 03:06:35.98	1.97	30.73	-23.5	-24.3	19.6	1.08e-03	0	44	0	1145044992	7	3985
2026-01-23 03:06:36.98	1.82	30.91	-23.6	-24.5	19.5	0.00e+00	0	44	0	1151336448	7	4029
2026-01-23 03:06:37.99	1.67	31.09	-23.3	-24.0	19.8	0.00e+00	0	44	0	1156579328	7	3914
2026-01-23 03:06:38.99	1.52	31.26	-23.2	-23.9	19.9	1.18e-03	0	44	0	1161822208	7	3873
2026-01-23 03:06:40.00	1.36	31.45	-23.3	-24.0	19.8	1.12e-03	0	44	0	1168113664	7	3909
2026-01-23 03:06:40.99	1.21	31.63	-23.3	-23.9	19.8	0.00e+00	0	44	0	1173356544	7	3892
2026-01-23 03:06:41.99	1.05	31.81	-23.4	-24.2	19.7	0.00e+00	0	44	0	1178599424	7	3945
2026-01-23 03:06:43.00	0.89	31.99	-23.3	-24.0	19.8	1.00e-03	0	44	0	1184890880	7	3909
2026-01-23 03:06:44.00	0.72	32.18	-23.4	-24.1	19.7	0.00e+00	0	44	0	1190133760	7	3934
2026-01-23 03:06:45.01	0.56	32.36	-23.5	-24.5	19.6	1.06e-03	0	44	0	1196425216	7	4013
2026-01-23 03:06:46.01	0.39	32.55	-23.4	-24.2	19.7	1.13e-03	0	44	0	1201668096	7	3940
2026-01-23 03:06:47.01	0.22	32.73	-23.3	-24.0	19.8	0.00e+00	0	44	0	1206910976	7	3910
2026-01-23 03:06:48.01	0.05	32.92	-23.5	-24.3	19.6	1.08e-03	0	44	0	1213202432	7	3987
2026-01-23 03:06:49.01	359.88	33.11	-23.4	-24.2	19.7	0.00e+00	0	44	0	1218445312	7	3953
2026-01-23 03:06:50.02	359.71	33.30	-23.3	-24.1	19.7	0.00e+00	0	44	0	1223688192	7	3931
2026-01-23 03:06:51.01	359.53	33.49	-23.5	-24.4	19.6	1.06e-03	0	44	0	1229979648	7	3995
2026-01-23 03:06:52.02	359.35	33.68	-23.3	-24.1	19.8	1.01e-03	0	44	0	1235222528	7	3936
2026-01-23 03:06:53.02	359.17	33.87	-23.2	-23.9	19.8	0.00e+00	0	44	0	1241513984	7	3874
2026-01-23 03:06:54.03	358.99	34.07	-23.3	-24.4	19.8	1.04e-03	0	44	0	1246756864	6	4122
2026-01-23 03:06:55.03	358.81	34.26	-23.2	-24.2	19.9	1.09e-03	0	44	0	1251999744	6	4075
2026-01-23 03:06:56.03	358.62	34.45	-23.1	-24.2	19.9	0.00e+00	0	44	0	1258291200	6	4067
2026-01-23 03:06:57.03	358.43	34.65	-23.3	-24.6	19.8	1.11e-03	0	44	0	1263534080	6	4159
2026-01-23 03:06:58.03	358.24	34.84	-23.2	-24.3	19.9	1.07e-03	0	44	0	1269825536	6	4096
2026-01-23 03:06:59.02	358.05	35.04	-23.2	-24.4	19.8	1.60e-05	0	44	0	1275068416	6	4124
2026-01-23 03:07:00.02	357.85	35.24	-23.2	-24.4	19.8	1.04e-03	0	44	0	1280311296	6	4104
2026-01-23 03:07:01.02	357.65	35.43	-23.2	-24.3	19.9	9.61e-04	0	44	0	1286602752	6	4081
2026-01-23 03:07:02.03	357.45	35.64	-23.1	-24.1	20.0	1.37e-05	0	44	0	1291845632	6	4045
2026-01-23 03:07:03.03	357.24	35.84	-23.2	-24.3	19.9	0.00e+00	0	44	0	1297088512	6	4098
2026-01-23 03:07:04.04	357.04	36.04	-23.5	-24.9	19.6	1.01e-03	0	44	0	1303379968	6	4235
2026-01-23 03:07:05.03	356.83	36.24	-23.2	-24.3	19.9	0.00e+00	0	44	0	1308622848	6	4087
2026-01-23 03:07:06.04	356.62	36.44	-23.0	-24.0	20.1	8.40e-04	0	44	0	1313865728	6	4014
2026-01-23 03:07:07.04	356.40	36.65	-23.1	-24.0	20.0	8.33e-04	0	44	0	1320157184	6	4021
2026-01-23 03:07:08.05	356.18	36.85	-23.2	-24.3	19.9	0.00e+00	0	44	0	1325400064	6	4078
2026-01-23 03:07:09.06	355.96	37.06	-23.2	-24.3	19.9	7.74e-04	0	44	0	1331691520	6	4097
2026-01-23 03:07:10.06	355.74	37.27	-23.4	-24.7	19.7	0.00e+00	0	44	0	1336934400	6	4176
2026-01-23 03:07:11.06	355.51	37.47	-23.3	-24.4	19.9	0.00e+00	0	44	0	1342177280	6	4122
2026-01-23 03:07:12.07	355.28	37.68	-23.3	-24.4	19.9	0.00e+00	0	44	0	1348468736	6	4120
2026-01-23 03:07:13.07	355.05	37.89	-23.4	-24.8	19.7	0.00e+00	0	44	0	1353711616	6	4203
2026-01-23 03:07:14.08	354.81	38.10	-23.2	-24.4	19.9	0.00e+00	0	44	0	1360003072	6	4105
2026-01-23 03:07:15.08	354.58	38.31	-23.1	-24.1	20.1	0.00e+00	0	44	0	1365245952	6	4030
2026-01-23 03:07:16.08	354.34	38.52	-23.1	-24.1	20.1	6.67e-04	0	44	0	1370488832	6	4027
2026-01-23 03:07:17.09	354.09	38.73	-23.3	-24.5	19.8	0.00e+00	0	44	0	1376780288	6	4140
2026-01-23 03:07:18.09	353.84	38.95	-23.2	-24.3	20.0	6.83e-04	0	44	0	1382023168	6	4082
2026-01-23 03:07:19.09	353.59	39.16	-23.5	-24.5	19.6	0.00e+00	0	44	0	1387266048	7	4038
2026-01-23 03:07:20.09	353.34	39.37	-23.5	-24.4	19.7	0.00e+00	0	44	0	1393557504	7	4001
2026-01-23 03:07:21.10	353.08	39.59	-23.4	-24.2	19.7	0.00e+00	0	44	0	1398800384	7	3959
2026-01-23 03:07:22.10	352.82	39.80	-23.4	-24.2	19.7	0.00e+00	0	44	0	1405091840	7	3961
2026-01-23 03:07:23.10	352.55	40.02	-23.3	-24.0	19.9	0.00e+00	0	44	0	1410334720	7	3910
2026-01-23 03:07:24.10	352.29	40.23	-23.4	-24.3	19.7	0.00e+00	0	44	0	1415577600	7	3963
2026-01-23 03:07:25.10	352.02	40.45	-23.6	-24.6	19.6	0.00e+00	0	44	0	1421869056	7	4038
2026-01-23 03:07:26.11	351.74	40.67	-23.8	-25.0	19.3	0.00e+00	0	44	0	1427111936	7	4159
2026-01-23 03:07:27.10	351.46	40.88	-23.5	-24.5	19.6	0.00e+00	0	44	0	1432354816	7	4024
2026-01-23 03:07:28.10	351.18	41.10	-23.4	-24.3	19.7	0.00e+00	0	44	0	1438646272	7	3962
2026-01-23 03:07:29.11	350.89	41.32	-23.5	-24.4	19.7	0.00e+00	0	44	0	1443889152	7	4000
2026-01-23 03:07:30.12	350.60	41.54	-23.4	-24.3	19.8	0.00e+00	0	44	0	1449132032	7	3967
2026-01-23 03:07:31.12	350.30	41.76	-23.4	-24.3	19.7	0.00e+00	0	44	0	1455423488	7	3973
2026-01-23 03:07:32.12	350.00	41.98	-23.7	-24.7	19.5	0.00e+00	0	44	0	1460666368	7	4079
2026-01-23 03:07:33.13	349.70	42.21	-23.8	-25.0	19.4	0.00e+00	0	44	0	1466957824	7	4134
2026-01-23 03:07:34.13	349.39	42.43	-23.8	-25.1	19.3	0.00e+00	0	44	0	1472200704	7	4179
2026-01-23 03:07:35.13	349.08	42.65	-23.9	-25.2	19.3	0.00e+00	0	44	0	1478492160	7	4201
2026-01-23 03:07:36.13	348.76	42.87	-23.9	-25.3	19.3	0.00e+00	0	44	0	1483735040	7	4211
2026-01-23 03:07:37.14	348.44	43.09	-23.9	-25.2	19.3	0.00e+00	0	44	0	1488977920	7	4191
2026-01-23 03:07:38.14	348.12	43.32	-24.0	-25.0	19.1	0.00e+00	0	44	0	1495269376	8	4040
2026-01-23 03:07:39.14	347.79	43.54	-24.2	-25.5	18.9	0.00e+00	0	44	0	1500512256	8	4148
2026-01-23 03:07:40.15	347.45	43.76	-23.8	-24.7	19.3	0.00e+00	0	44	0	1505755136	8	3948
2026-01-23 03:07:41.15	347.11	43.99	-23.6	-24.2	19.6	0.00e+00	0	44	0	1512046592	8	3837
2026-01-23 03:07:42.15	346.77	44.21	-23.5	-24.4	19.7	0.00e+00	0	44	0	1517289472	7	4004
2026-01-23 03:07:43.16	346.41	44.43	-23.7	-24.8	19.5	0.00e+00	0	44	0	1522532352	7	4088
2026-01-23 03:07:44.16	346.06	44.66	-23.7	-24.9	19.4	0.00e+00	0	44	0	1528823808	7	4129
2026-01-23 03:07:45.16	345.70	44.88	-23.8	-25.0	19.4	0.00e+00	0	44	0	1534066688	7	4152
2026-01-23 03:07:46.16	345.34	45.10	-23.5	-24.5	19.6	0.00e+00	0	44	0	1540358144	7	4035
2026-01-23 03:07:47.16	344.97	45.33	-23.6	-24.5	19.6	0.00e+00	0	44	0	1545601024	7	4033
2026-01-23 03:07:48.17	344.59	45.55	-23.7	-24.8	19.5	0.00e+00	0	44	0	1551892480	7	4104
2026-01-23 03:07:49.18	344.21	45.78	-23.7	-24.8	19.5	0.00e+00	0	44	0	1557135360	7	4107
2026-01-23 03:07:50.18	343.82	46.00	-23.8	-25.1	19.3	0.00e+00	0	44	0	1562378240	7	4170
2026-01-23 03:07:51.19	343.43	46.22	-23.8	-25.1	19.3	0.00e+00	0	44	0	1568669696	7	4188
2026-01-23 03:07:52.19	343.03	46.45	-23.7	-24.8	19.5	0.00e+00	0	44	0	1573912576	7	4104
2026-01-23 03:07:53.20	342.63	46.67	-23.6	-24.7	19.6	0.00e+00	0	44	0	1579155456	7	4062
2026-01-23 03:07:54.20	342.22	46.89	-23.7	-24.9	19.4	0.00e+00	0	44	0	1585446912	7	4128
2026-01-23 03:07:55.21	341.80	47.11	-23.9	-25.2	19.3	0.00e+00	0	44	0	1590689792	7	4197
2026-01-23 03:07:56.21	341.38	47.33	-24.2	-25.4	19.0	0.00e+00	0	44	0	1595932672	8	4141
2026-01-23 03:07:57.22	340.95	47.56	-24.0	-25.0	19.2	0.00e+00	0	44	0	1602224128	8	4033
2026-01-23 03:07:58.21	340.53	47.77	-23.9	-24.7	19.3	0.00e+00	0	44	0	1607467008	8	3958
2026-01-23 03:07:59.22	340.08	47.99	-23.9	-24.8	19.3	0.00e+00	0	44	0	1613758464	8	3973
2026-01-23 03:08:00.22	339.64	48.21	-24.0	-25.0	19.2	0.00e+00	0	44	0	1619001344	8	4019
2026-01-23 03:08:01.22	339.19	48.43	-23.8	-24.6	19.4	0.00e+00	0	44	0	1625292800	8	3924
2026-01-23 03:08:02.22	338.73	48.64	-24.0	-24.9	19.2	0.00e+00	0	44	0	1630535680	8	4004
2026-01-23 03:08:03.22	338.27	48.86	-24.2	-25.3	19.0	0.00e+00	0	44	0	1635778560	8	4108
2026-01-23 03:08:04.23	337.79	49.08	-24.2	-25.3	19.0	0.00e+00	0	44	0	1642070016	8	4113
2026-01-23 03:08:05.23	337.32	49.29	-24.1	-25.1	19.2	0.00e+00	0	44	0	1647312896	8	4047
2026-01-23 03:08:06.23	336.83	49.50	-24.2	-25.4	19.0	0.00e+00	0	44	0	1652555776	8	4129
2026-01-23 03:08:07.24	336.34	49.71	-24.4	-25.8	18.8	0.00e+00	0	44	0	1658847232	8	4240
2026-01-23 03:08:08.23	335.85	49.92	-24.3	-25.6	18.9	0.00e+00	0	44	0	1664090112	8	4188
2026-01-23 03:08:09.23	335.34	50.13	-24.2	-25.5	19.0	0.00e+00	0	44	0	1669332992	8	4145
2026-01-23 03:08:10.23	334.83	50.34	-24.3	-25.6	18.9	0.00e+00	0	44	0	1675624448	8	4190
2026-01-23 03:08:11.23	334.31	50.54	-24.3	-25.5	15.1	0.00e+00	0	44	0	1680867328	8	4158
2026-01-23 03:08:12.23	333.79	50.74	-24.4	-25.8	16.1	0.00e+00	0	44	0	1687158784	8	4230
2026-01-23 03:08:13.24	333.25	50.95	-24.5	-26.0	18.7	0.00e+00	0	44	0	1692401664	8	4279
2026-01-23 03:08:14.24	332.71	51.15	-24.8	-26.2	18.3	0.00e+00	0	44	0	1697644544	9	4214
2026-01-23 03:08:15.24	332.17	51.35	-24.9	-25.9	18.3	6.55e-04	0	44	0	1703936000	10	4030
2026-01-23 03:08:16.24	331.61	51.54	-24.5	-25.0	18.7	0.00e+00	0	44	0	1709178880	10	3818
2026-01-23 03:08:17.24	331.05	51.74	-24.3	-25.1	18.9	0.00e+00	0	44	0	1714421760	9	3933
2026-01-23 03:08:18.25	330.48	51.93	-24.3	-25.7	18.9	0.00e+00	0	44	0	1720713216	8	4195
2026-01-23 03:08:19.26	329.89	52.12	-24.5	-26.0	18.7	0.00e+00	0	44	0	1725956096	8	4271
2026-01-23 03:08:20.26	329.31	52.31	-24.7	-26.0	18.4	7.90e-04	0	44	0	1731198976	9	4171
2026-01-23 03:08:21.25	328.73	52.49	-24.7	-26.0	18.5	0.00e+00	0	44	0	1737490432	9	4174
2026-01-23 03:08:22.26	328.12	52.67	-24.2	-24.9	19.0	0.00e+00	0	44	0	1742733312	9	3902
2026-01-23 03:08:23.26	327.51	52.85	-24.1	-25.3	19.1	0.00e+00	0	44	0	1749024768	8	4095
2026-01-23 03:08:24.26	326.90	53.03	-24.1	-25.2	19.1	0.00e+00	0	44	0	1754267648	8	4079
2026-01-23 03:08:25.26	326.28	53.21	-24.1	-25.2	19.1	0.00e+00	0	44	0	1759510528	8	4084
2026-01-23 03:08:26.25	325.66	53.38	-24.2	-25.4	19.0	0.00e+00	0	44	0	1765801984	8	4138
2026-01-23 03:08:27.25	325.02	53.54	-23.8	-24.5	19.5	7.53e-04	0	44	0	1771044864	8	3915
2026-01-23 03:08:28.25	324.38	53.71	-23.7	-24.2	19.6	0.00e+00	0	44	0	1776287744	8	3844
2026-01-23 03:08:29.26	323.72	53.87	-24.0	-25.0	19.2	5.76e-04	0	44	0	1782579200	8	4034
2026-01-23 03:08:30.26	323.06	54.03	-24.2	-25.4	19.0	0.00e+00	0	44	0	1787822080	8	4123
2026-01-23 03:08:31.26	322.40	54.19	-24.1	-25.3	19.1	0.00e+00	0	44	0	1794113536	8	4094
2026-01-23 03:08:32.26	321.73	54.34	-23.8	-24.6	19.4	6.19e-04	0	44	0	1799356416	8	3932
2026-01-23 03:08:33.27	321.04	54.49	-23.9	-24.9	19.3	0.00e+00	0	44	0	1804599296	8	3996
2026-01-23 03:08:34.27	320.35	54.63	-24.0	-25.0	19.2	0.00e+00	0	44	0	1810890752	8	4034
2026-01-23 03:08:35.28	319.65	54.78	-24.0	-25.0	19.2	0.00e+00	0	44	0	1816133632	8	4030
2026-01-23 03:08:36.29	318.94	54.92	-23.9	-24.7	19.4	0.00e+00	0	44	0	1822425088	8	3963
2026-01-23 03:08:37.29	318.24	55.05	-23.8	-24.5	19.5	0.00e+00	0	44	0	1827667968	8	3914
2026-01-23 03:08:38.30	317.51	55.18	-23.9	-25.2	19.4	2.92e-04	0	44	0	1832910848	7	4189
2026-01-23 03:08:39.31	316.79	55.30	-24.3	-25.6	18.9	3.33e-04	0	44	0	1839202304	8	4175
2026-01-23 03:08:40.31	316.06	55.42	-24.0	-25.0	19.2	0.00e+00	0	44	0	1844445184	8	4039
2026-01-23 03:08:41.31	315.33	55.54	-23.6	-24.6	19.7	6.10e-04	0	44	0	1849688064	7	4039
2026-01-23 03:08:42.31	314.59	55.65	-23.8	-25.0	19.5	0.00e+00	0	44	0	1855979520	7	4144
2026-01-23 03:08:43.31	313.84	55.76	-24.2	-25.5	19.0	0.00e+00	0	44	0	1861222400	8	4154
2026-01-23 03:08:44.31	313.09	55.86	-23.9	-24.8	19.3	6.92e-04	0	44	0	1867513856	8	3986
2026-01-23 03:08:45.32	312.33	55.96	-23.8	-24.5	19.5	4.81e-04	0	44	0	1872756736	8	3917
2026-01-23 03:08:46.32	311.57	56.05	-24.0	-25.0	19.2	0.00e+00	0	44	0	1879048192	8	4017
2026-01-23 03:08:47.32	310.80	56.14	-24.0	-24.9	19.3	3.44e-04	0	44	0	1884291072	8	4018
2026-01-23 03:08:48.32	310.03	56.23	-24.0	-24.9	19.3	4.37e-04	0	44	0	1889533952	8	4002
2026-01-23 03:08:49.32	309.25	56.30	-23.7	-24.4	19.5	0.00e+00	0	44	0	1895825408	8	3891
2026-01-23 03:08:50.32	308.47	56.38	-23.6	-24.7	19.7	6.42e-04	0	44	0	1901068288	7	4057
2026-01-23 03:08:51.33	307.68	56.45	-23.6	-24.6	19.7	5.98e-04	0	44	0	1906311168	7	4041
2026-01-23 03:08:52.34	306.89	56.51	-23.9	-25.2	19.4	0.00e+00	0	44	0	1912602624	7	4181
2026-01-23 03:08:53.34	306.10	56.57	-24.2	-25.3	19.1	2.62e-04	0	44	0	1917845504	8	4114
2026-01-23 03:08:54.35	305.29	56.62	-24.0	-25.0	19.2	0.00e+00	0	44	0	1923088384	8	4038
2026-01-23 03:08:55.36	304.49	56.67	-23.6	-24.1	19.7	0.00e+00	0	44	0	1929379840	8	3805
2026-01-23 03:08:56.36	303.69	56.71	-23.6	-24.1	19.7	0.00e+00	0	44	0	1934622720	8	3812
2026-01-23 03:08:57.37	302.88	56.75	-23.9	-24.8	19.3	3.00e-04	0	44	0	1940914176	8	3989
2026-01-23 03:08:58.37	302.07	56.78	-24.2	-25.4	19.0	0.00e+00	0	44	0	1946157056	8	4131
2026-01-23 03:08:59.37	301.27	56.80	-24.7	-25.9	18.5	6.60e-04	0	44	0	1951399936	9	4136
2026-01-23 03:09:00.37	300.46	56.82	-24.8	-26.1	18.4	0.00e+00	0	44	0	1957691392	9	4189
2026-01-23 03:09:01.37	299.65	56.84	-24.7	-25.8	18.6	0.00e+00	0	44	0	1962934272	9	4125
2026-01-23 03:09:02.37	298.84	56.85	-24.4	-25.4	18.8	2.80e-04	0	44	0	1969225728	9	4007
2026-01-23 03:09:03.37	298.03	56.85	-24.5	-25.5	18.7	0.00e+00	0	44	0	1974468608	9	4028
2026-01-23 03:09:04.37	297.22	56.85	-24.6	-25.7	18.6	0.00e+00	0	44	0	1979711488	9	4099
2026-01-23 03:09:05.37	296.41	56.84	-24.8	-26.2	18.3	0.00e+00	0	44	0	1986002944	9	4225
2026-01-23 03:09:06.37	295.60	56.83	-24.9	-25.9	18.3	0.00e+00	0	44	0	1991245824	10	4026
2026-01-23 03:09:07.38	294.79	56.81	-24.4	-24.8	18.8	0.00e+00	0	44	0	1996488704	10	3763
2026-01-23 03:09:08.39	293.97	56.79	-24.2	-25.4	19.0	0.00e+00	0	44	0	2002780160	8	4117
2026-01-23 03:09:09.39	293.17	56.76	-24.3	-25.7	18.8	7.88e-04	0	44	0	2008023040	8	4210
2026-01-23 03:09:10.39	292.36	56.72	-24.2	-25.4	19.0	0.00e+00	0	44	0	2014314496	8	4118
2026-01-23 03:09:11.40	291.55	56.68	-24.0	-25.0	19.2	0.00e+00	0	44	0	2019557376	8	4031
2026-01-23 03:09:12.41	290.75	56.64	-24.2	-25.4	19.0	0.00e+00	0	44	0	2024800256	8	4142
2026-01-23 03:09:13.41	289.95	56.58	-24.2	-25.5	19.0	0.00e+00	0	44	0	2031091712	8	4146
2026-01-23 03:09:14.42	289.15	56.53	-23.9	-24.7	19.4	0.00e+00	0	44	0	2036334592	8	3950
2026-01-23 03:09:15.41	288.37	56.47	-23.6	-24.1	19.7	0.00e+00	0	44	0	2042626048	8	3810
2026-01-23 03:09:16.42	287.58	56.40	-23.8	-24.6	19.4	0.00e+00	0	44	0	2047868928	8	3927
2026-01-23 03:09:17.43	286.79	56.33	-24.2	-25.4	19.0	0.00e+00	0	44	0	2053111808	8	4122
2026-01-23 03:09:18.43	286.01	56.25	-24.2	-25.4	19.0	0.00e+00	0	44	0	2059403264	8	4142
2026-01-23 03:09:19.43	285.24	56.17	-24.2	-25.5	19.0	0.00e+00	0	44	0	2064646144	8	4145
2026-01-23 03:09:20.43	284.47	56.08	-24.3	-25.5	18.9	1.10e-06	0	44	0	2069889024	8	4162
2026-01-23 03:09:21.43	283.70	55.99	-24.1	-25.2	19.1	0.00e+00	0	44	0	2076180480	8	4083
2026-01-23 03:09:22.44	282.94	55.89	-24.1	-25.2	19.1	0.00e+00	0	44	0	2081423360	8	4068
2026-01-23 03:09:23.44	282.19	55.79	-24.1	-25.2	19.1	0.00e+00	0	44	0	2087714816	8	4088
2026-01-23 03:09:24.45	281.43	55.68	-24.1	-25.2	19.1	0.00e+00	0	44	0	2092957696	8	4076
2026-01-23 03:09:25.46	280.68	55.57	-24.1	-25.1	19.1	0.00e+00	0	44	0	2098200576	8	4065
2026-01-23 03:09:26.46	279.95	55.46	-24.3	-25.5	18.9	0.00e+00	0	44	0	2104492032	8	4164
2026-01-23 03:09:27.47	279.21	55.33	-23.8	-24.6	19.4	0.00e+00	0	44	0	2109734912	8	3928
2026-01-23 03:09:28.47	278.49	55.21	-23.6	-24.1	19.6	0.00e+00	0	44	0	2116026368	8	3810
2026-01-23 03:09:29.47	277.77	55.08	-23.7	-24.8	19.5	0.00e+00	0	44	0	2121269248	7	4097
2026-01-23 03:09:30.47	277.06	54.95	-23.8	-25.1	19.3	0.00e+00	0	44	0	2126512128	7	4171
2026-01-23 03:09:31.47	276.36	54.81	-23.6	-24.7	19.5	0.00e+00	0	44	0	2132803584	7	4074
2026-01-23 03:09:32.47	275.66	54.67	-23.5	-24.4	19.7	0.00e+00	0	44	0	2138046464	7	3991
2026-01-23 03:09:33.47	274.97	54.53	-23.4	-24.2	19.8	0.00e+00	0	44	0	2143289344	7	3953
2026-01-23 03:09:34.48	274.28	54.38	-23.4	-24.2	19.8	0.00e+00	0	44	0	2149580800	7	3956
2026-01-23 03:09:35.48	273.60	54.23	-23.5	-24.5	19.6	0.00e+00	0	44	0	2154823680	7	4031
2026-01-23 03:09:36.49	272.93	54.07	-23.6	-24.6	19.6	0.00e+00	0	44	0	2161115136	7	4041
2026-01-23 03:09:37.48	272.28	53.92	-23.2	-23.8	19.9	0.00e+00	0	44	0	2166358016	7	3864
2026-01-23 03:09:38.48	271.62	53.76	-23.1	-24.2	20.0	0.00e+00	0	44	0	2171600896	6	4052
2026-01-23 03:09:39.49	270.97	53.59	-23.4	-24.7	19.8	0.00e+00	0	44	0	2177892352	6	4192
2026-01-23 03:09:40.49	270.33	53.42	-23.3	-24.6	19.8	0.00e+00	0	44	0	2183135232	6	4151
2026-01-23 03:09:41.50	269.69	53.25	-23.1	-24.1	20.1	0.00e+00	0	44	0	2188378112	6	4025
2026-01-23 03:09:42.49	269.07	53.08	-23.3	-24.5	19.9	0.00e+00	0	44	0	2194669568	6	4124
2026-01-23 03:09:43.50	268.45	52.90	-23.7	-24.8	19.5	0.00e+00	0	44	0	2199912448	7	4103
2026-01-23 03:09:44.51	267.84	52.72	-23.8	-25.0	19.3	0.00e+00	0	44	0	2205155328	7	4153
2026-01-23 03:09:45.52	267.23	52.53	-23.7	-24.8	19.5	0.00e+00	0	44	0	2211446784	7	4091
2026-01-23 03:09:46.52	266.63	52.35	-23.7	-24.9	19.4	0.00e+00	0	44	0	2216689664	7	4123
2026-01-23 03:09:47.53	266.04	52.16	-23.4	-24.3	19.7	0.00e+00	0	44	0	2222981120	7	3975
2026-01-23 03:09:48.53	265.46	51.97	-23.2	-23.7	20.0	0.00e+00	0	44	0	2228224000	7	3837
2026-01-23 03:09:49.54	264.88	51.78	-23.6	-24.6	19.6	0.00e+00	0	44	0	2234515456	7	4055
2026-01-23 03:09:50.54	264.32	51.58	-23.9	-25.3	19.2	0.00e+00	0	44	0	2239758336	7	4230
2026-01-23 03:09:51.54	263.76	51.39	-24.0	-25.4	19.2	0.00e+00	0	44	0	2245001216	7	4252
2026-01-23 03:09:52.54	263.21	51.19	-24.2	-25.4	18.9	0.00e+00	0	44	0	2251292672	8	4126
2026-01-23 03:09:53.54	262.67	50.99	-24.3	-25.5	18.9	0.00e+00	0	45	0	2256535552	8	4159
2026-01-23 03:09:54.55	262.13	50.78	-24.2	-25.4	18.9	0.00e+00	0	44	0	2261778432	8	4129
2026-01-23 03:09:55.55	261.60	50.58	-23.6	-24.6	17.8	1.10e-06	0	44	0	2268069888	8	4047
2026-01-23 03:09:56.56	261.08	50.37	-24.3	-25.6	14.4	0.00e+00	0	44	0	2273312768	8	4194
2026-01-23 03:09:57.57	260.56	50.16	-24.4	-25.9	18.7	0.00e+00	0	44	0	2279604224	8	4263
2026-01-23 03:09:58.57	260.05	49.96	-24.1	-25.3	19.0	0.00e+00	0	44	0	2284847104	8	4100
2026-01-23 03:09:59.57	259.55	49.75	-23.8	-24.5	19.4	0.00e+00	0	44	0	2290089984	8	3915
2026-01-23 03:10:00.55	259.07	49.54	-23.8	-24.6	19.3	0.00e+00	0	44	0	2296381440	8	3931
2026-01-23 03:10:01.55	258.58	49.33	-23.8	-24.6	19.3	0.00e+00	0	44	0	2301624320	8	3944
2026-01-23 03:10:02.55	258.10	49.11	-23.6	-24.7	19.5	0.00e+00	0	44	0	2306867200	7	4070
2026-01-23 03:10:03.55	257.63	48.90	-23.4	-24.1	19.8	0.00e+00	0	44	0	2313158656	7	3934
2026-01-23 03:10:04.55	257.17	48.68	-23.1	-24.2	19.9	0.00e+00	0	44	0	2318401536	6	4061
2026-01-23 03:10:05.55	256.71	48.47	-23.2	-24.2	19.9	0.00e+00	0	44	0	2323644416	6	4070
2026-01-23 03:10:06.56	256.25	48.25	-23.3	-24.5	19.8	0.00e+00	0	44	0	2329935872	6	4127
2026-01-23 03:10:07.56	255.80	48.03	-23.3	-24.4	19.8	1.10e-06	0	44	0	2335178752	6	4114
2026-01-23 03:10:08.56	255.36	47.81	-23.2	-24.3	19.9	7.31e-04	0	44	0	2340421632	6	4081
2026-01-23 03:10:09.56	254.93	47.59	-23.2	-24.3	19.9	0.00e+00	0	44	0	2346713088	6	4096
2026-01-23 03:10:10.56	254.50	47.37	-23.1	-24.2	19.9	0.00e+00	0	44	0	2351955968	6	4062
2026-01-23 03:10:11.56	254.08	47.15	-22.9	-23.7	20.1	8.26e-04	0	44	0	2358247424	6	3949
2026-01-23 03:10:12.56	253.66	46.93	-23.0	-23.8	20.1	0.00e+00	0	44	0	2363490304	6	3976
2026-01-23 03:10:13.56	253.25	46.71	-23.0	-24.0	20.0	7.79e-04	0	44	0	2368733184	6	4019
2026-01-23 03:10:14.57	252.84	46.48	-22.9	-23.6	20.2	0.00e+00	0	44	0	2375024640	6	3929
2026-01-23 03:10:15.57	252.44	46.26	-22.7	-23.2	20.4	0.00e+00	0	44	0	2380267520	6	3827
2026-01-23 03:10:16.58	252.05	46.03	-22.6	-23.6	20.4	5.18e-04	0	44	0	2386558976	5	4032
2026-01-23 03:10:17.58	251.66	45.81	-22.7	-23.8	20.3	5.68e-04	0	44	0	2391801856	5	4073
2026-01-23 03:10:18.59	251.27	45.59	-22.7	-23.8	20.3	0.00e+00	0	44	0	2397044736	5	4079
2026-01-23 03:10:19.59	250.90	45.36	-22.9	-24.1	20.2	2.20e-06	0	44	0	2403336192	5	4146
2026-01-23 03:10:20.59	250.53	45.14	-23.2	-24.2	19.9	6.49e-04	0	44	0	2408579072	6	4069
2026-01-23 03:10:21.59	250.16	44.91	-23.3	-24.5	19.7	0.00e+00	0	44	0	2413821952	6	4140
2026-01-23 03:10:22.60	249.80	44.69	-23.3	-24.5	19.7	1.11e-03	0	44	0	2420113408	6	4154
2026-01-23 03:10:23.60	249.44	44.46	-23.1	-24.1	19.9	1.31e-03	0	44	0	2425356288	6	4056
2026-01-23 03:10:24.61	249.09	44.24	-22.8	-23.4	20.2	1.09e-04	0	44	0	2431647744	6	3879
2026-01-23 03:10:25.62	248.74	44.01	-22.7	-23.7	20.3	1.47e-03	0	44	0	2436890624	5	4063
2026-01-23 03:10:26.62	248.40	43.79	-22.7	-23.8	20.3	1.41e-03	0	44	0	2443182080	5	4068
2026-01-23 03:10:27.62	248.06	43.57	-23.0	-24.4	20.0	8.46e-05	0	44	0	2448424960	5	4230
2026-01-23 03:10:28.62	247.73	43.34	-23.2	-24.4	19.7	0.00e+00	0	44	0	2453667840	6	4120
2026-01-23 03:10:29.62	247.40	43.12	-23.5	-25.0	19.4	1.65e-03	0	44	0	2459959296	6	4269
2026-01-23 03:10:30.62	247.08	42.90	-23.4	-24.3	19.5	4.69e-05	0	44	0	2465202176	7	3971
2026-01-23 03:10:31.63	246.76	42.67	-23.1	-24.0	19.9	1.62e-03	0	44	0	2470445056	6	4024
2026-01-23 03:10:32.64	246.44	42.45	-22.8	-23.5	20.1	1.57e-03	0	44	0	2476736512	6	3901
2026-01-23 03:10:33.64	246.13	42.23	-22.8	-23.4	20.2	0.00e+00	0	44	0	2481979392	6	3876
2026-01-23 03:10:34.64	245.83	42.00	-22.8	-23.5	20.2	1.42e-03	0	44	0	2487222272	6	3904
2026-01-23 03:10:35.65	245.53	41.78	-22.8	-23.5	20.2	0.00e+00	0	44	0	2493513728	6	3897
2026-01-23 03:10:36.65	245.23	41.56	-22.8	-23.5	20.2	0.00e+00	0	44	0	2498756608	6	3895
2026-01-23 03:10:37.66	244.93	41.34	-22.9	-23.7	20.1	1.03e-03	0	44	0	2505048064	6	3937
2026-01-23 03:10:38.66	244.65	41.12	-22.8	-23.5	20.2	4.89e-04	0	44	0	2510290944	6	3899
2026-01-23 03:10:39.66	244.36	40.90	-22.6	-23.6	20.4	2.57e-04	0	44	0	2515533824	5	4032
2026-01-23 03:10:40.66	244.08	40.68	-22.6	-23.5	20.4	0.00e+00	0	44	0	2521825280	5	4000
2026-01-23 03:10:41.66	243.80	40.46	-22.7	-23.7	20.3	1.14e-03	0	44	0	2527068160	5	4057
2026-01-23 03:10:42.67	243.53	40.24	-22.7	-23.8	20.3	0.00e+00	0	44	0	2533359616	5	4087
2026-01-23 03:10:43.67	243.26	40.03	-22.7	-23.8	20.2	1.19e-03	0	44	0	2538602496	5	4087
2026-01-23 03:10:44.67	242.99	39.81	-22.9	-24.3	20.0	0.00e+00	0	44	0	2543845376	5	4196
2026-01-23 03:10:45.68	242.73	39.59	-22.9	-23.6	20.1	0.00e+00	0	44	0	2550136832	6	3934
2026-01-23 03:10:46.68	242.47	39.38	-22.7	-23.3	20.3	0.00e+00	0	44	0	2555379712	6	3853
2026-01-23 03:10:47.69	242.21	39.16	-22.6	-23.5	20.4	0.00e+00	0	44	0	2560622592	5	4020
2026-01-23 03:10:48.70	241.96	38.95	-22.5	-23.4	20.4	0.00e+00	0	44	0	2566914048	5	3991
2026-01-23 03:10:49.69	241.71	38.74	-22.6	-23.6	20.3	0.00e+00	0	44	0	2572156928	5	4034
2026-01-23 03:10:50.69	241.47	38.52	-22.6	-23.5	20.4	0.00e+00	0	44	0	2578448384	5	4001
2026-01-23 03:10:51.69	241.23	38.31	-22.6	-23.5	20.3	0.00e+00	0	44	0	2583691264	5	4019
2026-01-23 03:10:52.69	240.99	38.10	-22.7	-23.7	20.3	0.00e+00	0	44	0	2588934144	5	4055
2026-01-23 03:10:53.70	240.75	37.89	-22.6	-23.6	20.3	0.00e+00	0	44	0	2595225600	5	4043
2026-01-23 03:10:54.70	240.52	37.68	-22.7	-23.9	20.2	0.00e+00	0	44	0	2600468480	5	4097
2026-01-23 03:10:55.70	240.29	37.47	-22.7	-23.8	20.2	0.00e+00	0	44	0	2605711360	5	4080
2026-01-23 03:10:56.70	240.06	37.27	-22.8	-24.1	20.1	0.00e+00	0	44	0	2612002816	5	4148
2026-01-23 03:10:57.71	239.83	37.06	-22.9	-24.2	20.0	0.00e+00	0	44	0	2617245696	5	4181
2026-01-23 03:10:58.71	239.61	36.85	-23.0	-24.0	19.9	0.00e+00	0	44	0	2622488576	6	4019
2026-01-23 03:10:59.71	239.39	36.65	-23.3	-24.5	19.6	0.00e+00	0	44	0	2628780032	6	4153
2026-01-23 03:11:00.71	239.18	36.44	-23.1	-24.1	19.8	0.00e+00	0	44	0	2634022912	6	4053
2026-01-23 03:11:01.72	238.96	36.24	-22.7	-23.4	20.2	0.00e+00	0	44	0	2640314368	6	3871
2026-01-23 03:11:02.72	238.75	36.03	-22.6	-23.1	20.3	0.00e+00	0	44	0	2645557248	6	3816
2026-01-23 03:11:03.74	238.54	35.83	-22.7	-23.3	20.2	0.00e+00	0	44	0	2651848704	6	3856
2026-01-23 03:11:04.74	238.34	35.63	-22.7	-23.2	20.3	0.00e+00	0	44	0	2657091584	6	3836
2026-01-23 03:11:05.74	238.13	35.43	-22.6	-23.6	20.3	0.00e+00	0	44	0	2662334464	5	4035
2026-01-23 03:11:06.74	237.93	35.23	-22.6	-23.6	20.3	0.00e+00	0	44	0	2668625920	5	4034
2026-01-23 03:11:07.75	237.73	35.03	-22.6	-23.6	20.3	0.00e+00	0	44	0	2673868800	5	4025
2026-01-23 03:11:08.75	237.54	34.83	-22.7	-23.7	20.2	0.00e+00	0	44	0	2679111680	5	4058
2026-01-23 03:11:09.76	237.34	34.63	-22.7	-23.7	20.2	1.10e-06	0	44	0	2685403136	5	4066
2026-01-23 03:11:10.76	237.15	34.43	-22.8	-24.0	20.1	0.00e+00	0	44	0	2690646016	5	4140
2026-01-23 03:11:11.77	236.96	34.24	-23.0	-24.4	19.9	0.00e+00	0	44	0	2696937472	5	4237
2026-01-23 03:11:12.77	236.78	34.04	-22.9	-23.8	20.0	1.10e-06	0	44	0	2702180352	6	3965
2026-01-23 03:11:13.77	236.60	33.85	-22.9	-23.7	20.0	0.00e+00	0	44	0	2707423232	6	3961
2026-01-23 03:11:14.77	236.41	33.66	-23.0	-24.0	19.9	0.00e+00	0	44	0	2713714688	6	4009
2026-01-23 03:11:15.78	236.23	33.46	-22.9	-23.6	20.0	2.20e-06	0	44	0	2718957568	6	3930
2026-01-23 03:11:16.79	236.05	33.27	-22.7	-23.2	20.2	0.00e+00	0	44	0	2725249024	6	3836
2026-01-23 03:11:17.79	235.88	33.08	-22.7	-23.3	20.2	0.00e+00	0	44	0	2730491904	6	3858
2026-01-23 03:11:18.79	235.71	32.89	-22.7	-23.2	20.2	0.00e+00	0	44	0	2735734784	6	3841
2026-01-23 03:11:19.79	235.54	32.70	-22.9	-24.1	20.0	0.00e+00	0	44	0	2742026240	5	4167
2026-01-23 03:11:20.80	235.37	32.51	-22.8	-24.1	20.0	0.00e+00	0	44	0	2747269120	5	4159
2026-01-23 03:11:21.80	235.20	32.33	-22.9	-24.1	20.0	0.00e+00	0	44	0	2752512000	5	4161
2026-01-23 03:11:22.80	235.03	32.14	-22.9	-24.2	19.9	0.00e+00	0	44	0	2758803456	5	4191
2026-01-23 03:11:23.81	234.87	31.96	-22.9	-24.3	19.9	0.00e+00	0	44	0	2764046336	5	4202
2026-01-23 03:11:24.81	234.71	31.77	-23.0	-24.0	19.8	0.00e+00	0	44	0	2769289216	6	4019
2026-01-23 03:11:25.82	234.55	31.59	-23.2	-24.3	19.7	0.00e+00	0	44	0	2775580672	6	4096
2026-01-23 03:11:26.82	234.39	31.41	-23.1	-24.2	19.7	0.00e+00	0	44	0	2780823552	6	4064
2026-01-23 03:11:27.82	234.23	31.23	-23.2	-24.2	19.7	0.00e+00	0	44	0	2787115008	6	4081
2026-01-23 03:11:28.83	234.08	31.04	-23.3	-24.5	19.6	0.00e+00	0	44	0	2792357888	6	4151
2026-01-23 03:11:29.83	233.93	30.86	-23.1	-24.1	19.8	0.00e+00	0	44	0	2798649344	6	4043
2026-01-23 03:11:30.83	233.78	30.69	-22.9	-23.7	20.0	0.00e+00	0	44	0	2803892224	6	3939
2026-01-23 03:11:31.83	233.63	30.51	-22.8	-23.6	20.0	0.00e+00	0	44	0	2809135104	6	3915
2026-01-23 03:11:32.84	233.48	30.33	-23.0	-23.9	19.8	0.00e+00	0	44	0	2815426560	6	3995
2026-01-23 03:11:33.84	233.33	30.15	-22.9	-23.8	19.9	0.00e+00	0	44	0	2820669440	6	3966
2026-01-23 03:11:34.85	233.19	29.98	-23.0	-23.9	19.8	0.00e+00	0	44	0	2825912320	6	3992
2026-01-23 03:11:35.85	233.05	29.80	-23.0	-23.9	19.8	0.00e+00	0	44	0	2832203776	6	4009
2026-01-23 03:11:36.86	232.90	29.63	-23.1	-24.1	14.9	0.00e+00	0	44	0	2837446656	6	4052
2026-01-23 03:11:37.86	232.76	29.46	-23.2	-24.3	19.4	0.00e+00	0	44	0	2842689536	6	4097
2026-01-23 03:11:38.87	232.62	29.28	-23.3	-24.6	19.5	0.00e+00	0	44	0	2848980992	6	4170
2026-01-23 03:11:39.88	232.49	29.11	-23.3	-24.7	19.4	0.00e+00	0	44	0	2854223872	6	4183
2026-01-23 03:11:40.88	232.35	28.94	-23.4	-24.7	19.4	8.17e-04	0	44	0	2860515328	6	4192
2026-01-23 03:11:41.88	232.22	28.77	-23.4	-24.8	19.4	0.00e+00	0	44	0	2865758208	6	4222
2026-01-23 03:11:42.89	232.09	28.60	-23.4	-24.7	19.4	0.00e+00	0	44	0	2872049664	6	4205
2026-01-23 03:11:43.89	231.96	28.44	-23.5	-24.9	19.3	6.36e-04	0	44	0	2877292544	6	4244
2026-01-23 03:11:44.90	231.82	28.27	-23.4	-24.2	19.4	0.00e+00	0	44	0	2882535424	7	3965
2026-01-23 03:11:45.90	231.70	28.10	-23.3	-24.0	19.5	3.20e-04	0	44	0	2888826880	7	3914
2026-01-23 03:11:46.91	231.57	27.94	-23.4	-24.2	19.4	0.00e+00	0	44	0	2894069760	7	3950
2026-01-23 03:11:47.91	231.44	27.77	-23.2	-23.8	19.6	0.00e+00	0	44	0	2899312640	7	3874
2026-01-23 03:11:48.92	231.32	27.61	-23.2	-23.8	19.6	0.00e+00	0	44	0	2905604096	7	3868
2026-01-23 03:11:49.92	231.20	27.44	-23.3	-24.1	19.4	0.00e+00	0	44	0	2910846976	7	3933
2026-01-23 03:11:50.93	231.07	27.28	-23.2	-23.8	19.5	0.00e+00	0	44	0	2917138432	7	3876
2026-01-23 03:11:51.92	230.96	27.12	-23.1	-23.6	19.7	0.00e+00	0	44	0	2922381312	7	3827
2026-01-23 03:11:52.93	230.84	26.96	-23.2	-23.8	19.6	0.00e+00	0	44	0	2927624192	7	3872
2026-01-23 03:11:53.92	230.72	26.80	-23.4	-24.2	19.4	0.00e+00	0	44	0	2933915648	7	3955
2026-01-23 03:11:54.93	230.60	26.64	-23.2	-23.9	19.5	2.40e-05	0	44	0	2939158528	7	3900
2026-01-23 03:11:55.94	230.49	26.49	-23.2	-24.0	19.4	2.10e-04	0	44	0	2945449984	7	3908
2026-01-23 03:11:56.94	230.37	26.33	-23.3	-24.0	19.5	2.63e-05	0	44	0	2950692864	7	3919
2026-01-23 03:11:57.95	230.26	26.17	-23.3	-24.0	19.4	3.47e-04	0	44	0	2955935744	7	3926
2026-01-23 03:11:58.95	230.15	26.02	-23.4	-24.3	19.3	6.61e-04	0	44	0	2962227200	7	3991
2026-01-23 03:11:59.95	230.04	25.86	-23.2	-24.4	19.5	8.23e-05	0	44	0	2967470080	6	4131
2026-01-23 03:12:00.95	229.93	25.71	-23.3	-24.7	19.4	7.57e-04	0	44	0	2972712960	6	4186
2026-01-23 03:12:01.96	229.82	25.55	-24.0	-25.0	19.2	7.37e-04	0	44	0	2979004416	7	4045
2026-01-23 03:12:02.96	229.71	25.40	-23.4	-24.2	19.3	6.40e-05	0	44	0	2984247296	7	3957
2026-01-23 03:12:03.96	229.60	25.25	-23.3	-24.1	19.4	1.01e-03	0	44	0	2989490176	7	3934
2026-01-23 03:12:04.96	229.50	25.10	-23.4	-24.2	19.3	1.05e-03	0	44	0	2995781632	7	3959
2026-01-23 03:12:05.96	229.39	24.95	-23.3	-24.1	19.4	9.10e-06	0	44	0	3001024512	7	3927
2026-01-23 03:12:06.96	229.29	24.80	-23.4	-24.2	19.3	1.08e-03	0	44	0	3007315968	7	3955
2026-01-23 03:12:07.97	229.19	24.65	-23.5	-24.5	19.1	0.00e+00	0	44	0	3012558848	7	4037
2026-01-23 03:12:08.97	229.08	24.50	-23.4	-24.2	19.3	4.92e-05	0	44	0	3018850304	7	3963
2026-01-23 03:12:09.98	228.98	24.36	-23.3	-24.1	19.3	1.12e-03	0	44	0	3024093184	7	3940
2026-01-23 03:12:10.99	228.88	24.21	-23.4	-24.3	19.2	1.15e-03	0	44	0	3029336064	7	3987
2026-01-23 03:12:12.00	228.78	24.06	-23.4	-24.3	19.2	1.13e-04	0	44	0	3035627520	7	3984
2026-01-23 03:12:13.01	228.69	23.92	-23.5	-24.5	19.1	0.00e+00	0	44	0	3040870400	7	4045
2026-01-23 03:12:14.01	228.59	23.77	-23.5	-24.5	19.1	7.93e-04	0	44	0	3046113280	7	4029
2026-01-23 03:12:15.02	228.49	23.63	-23.4	-24.4	19.2	0.00e+00	0	44	0	3052404736	7	4001
2026-01-23 03:12:16.03	228.40	23.48	-23.5	-24.5	19.2	7.22e-04	0	44	0	3057647616	7	4023
2026-01-23 03:12:17.03	228.30	23.34	-23.5	-24.6	19.1	0.00e+00	0	44	0	3063939072	7	4048
2026-01-23 03:12:18.04	228.21	23.20	-23.6	-24.6	19.1	0.00e+00	0	44	0	3069181952	7	4063
2026-01-23 03:12:19.03	228.12	23.06	-23.6	-24.6	19.1	0.00e+00	0	44	0	3075473408	7	4062
2026-01-23 03:12:20.04	228.03	22.92	-23.7	-24.9	18.9	0.00e+00	0	44	0	3080716288	7	4135
2026-01-23 03:12:21.04	227.94	22.78	-23.6	-24.8	19.0	2.13e-04	0	44	0	3085959168	7	4098
2026-01-23 03:12:22.04	227.85	22.64	-23.7	-24.9	18.9	0.00e+00	0	44	0	3092250624	7	4143
2026-01-23 03:12:23.05	227.76	22.50	-23.7	-24.9	18.9	0.00e+00	0	44	0	3097493504	7	4131
2026-01-23 03:12:24.05	227.67	22.36	-23.8	-25.0	18.8	0.00e+00	0	44	0	3102736384	7	4173
2026-01-23 03:12:25.06	227.58	22.23	-23.7	-25.0	18.9	0.00e+00	0	44	0	3109027840	7	4158
2026-01-23 03:12:26.07	227.49	22.09	-23.8	-25.1	18.8	0.00e+00	0	44	0	3114270720	7	4181
2026-01-23 03:12:27.07	227.41	21.95	-24.0	-25.5	18.6	0.00e+00	0	44	0	3120562176	7	4290
2026-01-23 03:12:28.07	227.32	21.82	-24.1	-25.3	18.4	0.00e+00	0	44	0	3125805056	8	4131
2026-01-23 03:12:29.07	227.24	21.69	-24.1	-25.2	18.5	0.00e+00	0	44	0	3131047936	8	4085
2026-01-23 03:12:30.08	227.15	21.55	-24.0	-25.1	18.5	0.00e+00	0	44	0	3137339392	8	4072
2026-01-23 03:12:31.08	227.07	21.42	-24.2	-25.4	18.4	0.00e+00	0	44	0	3142582272	8	4157
2026-01-23 03:12:32.08	226.99	21.29	-24.1	-25.3	18.4	0.00e+00	0	44	0	3148873728	8	4127
2026-01-23 03:12:33.08	226.91	21.16	-24.2	-25.4	18.4	0.00e+00	0	44	0	3154116608	8	4144
2026-01-23 03:12:34.08	226.83	21.02	-24.4	-26.0	18.1	0.00e+00	0	44	0	3159359488	8	4297
2026-01-23 03:12:35.09	226.75	20.89	-24.2	-25.4	18.4	0.00e+00	0	44	0	3165650944	8	4146
2026-01-23 03:12:36.09	226.67	20.76	-24.0	-25.1	18.5	0.00e+00	0	44	0	3170893824	8	4080
2026-01-23 03:12:37.10	226.59	20.63	-24.0	-25.0	18.6	0.00e+00	0	44	0	3176136704	8	4039
2026-01-23 03:12:38.10	226.51	20.51	-24.0	-25.1	18.5	0.00e+00	0	44	0	3182428160	8	4076
2026-01-23 03:12:39.10	226.43	20.38	-24.0	-25.1	18.5	0.00e+00	0	44	0	3187671040	8	4076
2026-01-23 03:12:40.10	226.36	20.25	-24.1	-25.3	18.4	0.00e+00	0	44	0	3192913920	8	4124
2026-01-23 03:12:41.10	226.28	20.12	-24.1	-25.2	18.4	0.00e+00	0	44	0	3199205376	8	4105
2026-01-23 03:12:42.10	226.21	20.00	-24.1	-25.3	18.3	0.00e+00	0	44	0	3204448256	8	4130
2026-01-23 03:12:43.11	226.13	19.87	-24.2	-25.4	18.3	0.00e+00	0	44	0	3210739712	8	4143
2026-01-23 03:12:44.11	226.06	19.75	-24.2	-25.5	18.3	0.00e+00	0	44	0	3215982592	8	4172
2026-01-23 03:12:45.11	225.98	19.62	-24.4	-25.9	18.1	0.00e+00	0	44	0	3221225472	8	4265
2026-01-23 03:12:46.11	225.91	19.50	-24.2	-25.5	18.2	0.00e+00	0	44	0	3227516928	8	4183
2026-01-23 03:12:47.11	225.84	19.38	-24.3	-25.7	18.1	0.00e+00	0	44	0	3232759808	8	4236
2026-01-23 03:12:48.12	225.77	19.25	-24.3	-25.6	18.2	0.00e+00	0	44	0	3239051264	8	4194
2026-01-23 03:12:49.12	225.70	19.13	-24.3	-25.7	18.2	0.00e+00	0	44	0	3244294144	8	4211
2026-01-23 03:12:50.13	225.63	19.01	-24.3	-25.7	18.1	0.00e+00	0	44	0	3249537024	8	4224
2026-01-23 03:12:51.12	225.56	18.89	-24.4	-25.8	18.1	0.00e+00	0	44	0	3255828480	8	4257
2026-01-23 03:12:52.11	225.49	18.77	-24.4	-25.8	18.1	0.00e+00	0	44	0	3261071360	8	4254
2026-01-23 03:12:53.11	225.42	18.65	-24.4	-25.9	18.0	0.00e+00	0	44	0	3266314240	8	4272
2026-01-23 03:12:54.11	225.35	18.53	-24.5	-26.0	18.0	0.00e+00	0	44	0	3272605696	8	4312
2026-01-23 03:12:55.12	225.28	18.41	-24.5	-26.1	17.9	0.00e+00	0	44	0	3277848576	8	4317
2026-01-23 03:12:56.13	225.22	18.29	-24.6	-25.8	17.8	5.70e-06	0	44	0	3284140032	9	4126
2026-01-23 03:12:57.13	225.15	18.17	-24.7	-25.9	17.7	0.00e+00	0	44	0	3289382912	9	4174
2026-01-23 03:12:58.13	225.08	18.06	-24.6	-25.9	17.7	0.00e+00	0	44	0	3294625792	9	4167
2026-01-23 03:12:59.13	225.02	17.94	-24.8	-26.3	17.5	0.00e+00	0	44	0	3300917248	9	4263
2026-01-23 03:13:00.13	224.95	17.82	-24.8	-26.2	17.6	0.00e+00	0	44	0	3306160128	9	4256
2026-01-23 03:13:01.14	224.89	17.71	-24.9	-26.6	17.4	0.00e+00	0	44	0	3311403008	9	4339
2026-01-23 03:13:02.14	224.83	17.59	-24.9	-26.4	17.5	1.10e-06	0	44	0	3317694464	9	4301
2026-01-23 03:13:03.15	224.76	17.48	-24.9	-26.5	17.4	0.00e+00	0	44	0	3322937344	9	4328
2026-01-23 03:13:04.15	224.70	17.36	-25.0	-26.2	17.3	0.00e+00	0	44	0	3328180224	10	4139
2026-01-23 03:13:05.15	224.64	17.25	-25.2	-26.6	17.1	0.00e+00	0	44	0	3334471680	10	4237
2026-01-23 03:13:06.16	224.58	17.14	-25.4	-27.0	16.9	0.00e+00	0	44	0	3339714560	10	4337
2026-01-23 03:13:07.16	224.51	17.02	-25.2	-26.6	17.1	0.00e+00	0	44	0	3346006016	10	4241
2026-01-23 03:13:08.16	224.45	16.91	-25.1	-26.4	17.2	0.00e+00	0	44	0	3351248896	10	4176
2026-01-23 03:13:09.16	224.39	16.80	-25.1	-26.4	17.2	0.00e+00	0	44	0	3356491776	10	4184
2026-01-23 03:13:10.17	224.33	16.69	-25.1	-26.5	16.0	0.00e+00	0	44	0	3362783232	10	4208
2026-01-23 03:13:11.17	224.27	16.58	-25.2	-26.5	17.1	0.00e+00	0	44	0	3368026112	10	4209
2026-01-23 03:13:12.17	224.21	16.47	-25.2	-26.6	17.1	0.00e+00	0	44	0	3374317568	10	4221
2026-01-23 03:13:13.18	224.15	16.36	-25.1	-26.4	17.2	0.00e+00	0	44	0	3379560448	10	4170
2026-01-23 03:13:14.18	224.10	16.25	-25.2	-26.5	17.1	0.00e+00	0	44	0	3384803328	10	4205
2026-01-23 03:13:15.18	224.04	16.14	-25.1	-26.5	17.1	0.00e+00	0	44	0	3391094784	10	4206
2026-01-23 03:13:16.18	223.98	16.03	-25.2	-26.6	17.0	0.00e+00	0	44	0	3396337664	10	4238
2026-01-23 03:13:17.19	223.92	15.92	-25.2	-26.6	17.1	3.40e-06	0	44	0	3401580544	10	4223
2026-01-23 03:13:18.20	223.87	15.81	-25.2	-26.6	17.0	7.52e-04	0	44	0	3407872000	10	4233
2026-01-23 03:13:19.20	223.81	15.70	-25.3	-26.8	16.9	0.00e+00	0	44	0	3413114880	10	4274
2026-01-23 03:13:20.21	223.76	15.60	-25.2	-26.7	17.0	2.20e-06	0	44	0	3419406336	10	4264
2026-01-23 03:13:21.21	223.70	15.49	-25.3	-26.8	16.9	0.00e+00	0	44	0	3424649216	10	4280
2026-01-23 03:13:22.22	223.65	15.38	-25.4	-27.1	16.7	7.94e-04	0	44	0	3430940672	10	4369
2026-01-23 03:13:23.22	223.59	15.28	-25.3	-26.9	16.8	1.83e-05	0	44	0	3436183552	10	4328
2026-01-23 03:13:24.23	223.54	15.17	-25.4	-27.0	16.8	0.00e+00	0	44	0	3441426432	10	4339
2026-01-23 03:13:25.23	223.48	15.07	-25.4	-27.1	16.7	7.48e-04	0	44	0	3447717888	10	4369
2026-01-23 03:13:26.23	223.43	14.96	-25.5	-26.9	16.6	0.00e+00	0	44	0	3452960768	11	4194
2026-01-23 03:13:27.23	223.38	14.86	-25.5	-26.7	16.6	7.92e-04	0	44	0	3458203648	11	4162
2026-01-23 03:13:28.24	223.33	14.76	-25.5	-26.7	16.6	8.55e-04	0	44	0	3464495104	11	4160
2026-01-23 03:13:29.24	223.27	14.65	-25.5	-26.8	16.6	0.00e+00	0	44	0	3469737984	11	4177
2026-01-23 03:13:30.25	223.22	14.55	-25.5	-26.9	16.6	8.47e-04	0	44	0	3474980864	11	4194
2026-01-23 03:13:31.25	223.17	14.45	-25.6	-27.0	16.5	0.00e+00	0	44	0	3481272320	11	4222
2026-01-23 03:13:32.25	223.12	14.35	-25.5	-26.8	16.6	0.00e+00	0	44	0	3486515200	11	4183
2026-01-23 03:13:33.26	223.07	14.24	-25.6	-26.9	16.5	0.00e+00	0	44	0	3492806656	11	4207
2026-01-23 03:13:34.26	223.02	14.14	-25.6	-26.9	16.5	6.59e-04	0	44	0	3498049536	11	4213
2026-01-23 03:13:35.27	222.97	14.04	-25.6	-27.0	16.5	0.00e+00	0	44	0	3504340992	11	4216
2026-01-23 03:13:36.26	222.92	13.94	-25.6	-26.9	16.5	4.37e-04	0	44	0	3509583872	11	4213
2026-01-23 03:13:37.27	222.87	13.84	-25.7	-27.2	16.3	3.63e-04	0	44	0	3514826752	11	4275
2026-01-23 03:13:38.27	222.82	13.74	-25.6	-27.0	16.4	1.10e-06	0	44	0	3521118208	11	4219
2026-01-23 03:13:39.28	222.77	13.64	-25.6	-27.0	16.4	3.97e-04	0	44	0	3526361088	11	4224
2026-01-23 03:13:40.28	222.73	13.55	-25.6	-27.0	16.4	3.59e-04	0	44	0	3531603968	11	4239
2026-01-23 03:13:41.28	222.68	13.45	-25.7	-27.3	16.3	5.70e-06	0	44	0	3537895424	11	4298
2026-01-23 03:13:42.28	222.63	13.35	-25.7	-27.2	16.3	3.70e-04	0	44	0	3543138304	11	4271
2026-01-23 03:13:43.28	222.58	13.25	-25.7	-27.3	16.3	3.59e-04	0	44	0	3548381184	11	4299
2026-01-23 03:13:44.28	222.54	13.16	-25.8	-27.4	16.1	0.00e+00	0	44	0	3554672640	11	4347
2026-01-23 03:13:45.27	222.49	13.06	-25.8	-27.3	16.2	0.00e+00	0	44	0	3559915520	11	4320
2026-01-23 03:13:46.28	222.44	12.96	-25.7	-27.3	16.2	5.49e-04	0	44	0	3566206976	11	4313
2026-01-23 03:13:47.27	222.40	12.87	-25.8	-27.5	16.1	0.00e+00	0	44	0	3571449856	11	4354
2026-01-23 03:13:48.28	222.35	12.77	-25.7	-27.3	16.2	8.22e-04	0	44	0	3576692736	11	4305
2026-01-23 03:13:49.29	222.31	12.68	-25.8	-27.4	16.1	7.70e-04	0	44	0	3582984192	11	4334
2026-01-23 03:13:50.28	222.26	12.58	-25.8	-27.5	16.1	0.00e+00	0	44	0	3588227072	11	4366
2026-01-23 03:13:51.29	222.22	12.49	-25.8	-27.4	16.1	8.55e-04	0	44	0	3593469952	11	4345
2026-01-23 03:13:52.29	222.17	12.39	-25.9	-27.6	16.0	0.00e+00	0	44	0	3599761408	11	4404
2026-01-23 03:13:53.29	222.13	12.30	-26.1	-27.5	15.7	0.00e+00	0	44	0	3605004288	12	4267
2026-01-23 03:13:54.29	222.09	12.21	-26.2	-27.9	15.5	0.00e+00	0	44	0	3610247168	12	4379
2026-01-23 03:13:55.30	222.04	12.11	-26.1	-27.7	15.6	9.11e-04	0	44	0	3616538624	12	4313
2026-01-23 03:13:56.30	222.00	12.02	-26.1	-27.7	15.6	0.00e+00	0	44	0	3621781504	12	4318
2026-01-23 03:13:57.31	221.96	11.93	-26.2	-27.9	15.4	0.00e+00	0	44	0	3628072960	12	4376
2026-01-23 03:13:58.32	221.91	11.83	-26.1	-27.7	15.6	8.74e-04	0	44	0	3633315840	12	4317
2026-01-23 03:13:59.32	221.87	11.74	-26.2	-27.8	15.5	0.00e+00	0	44	0	3639607296	12	4329
2026-01-23 03:14:00.33	221.83	11.65	-26.2	-27.9	15.4	9.28e-04	0	44	0	3644850176	12	4383
2026-01-23 03:14:01.33	221.79	11.56	-26.3	-28.0	15.4	0.00e+00	0	44	0	3650093056	12	4405
2026-01-23 03:14:02.34	221.75	11.47	-26.4	-28.2	15.3	0.00e+00	0	44	0	3656384512	12	4454
2026-01-23 03:14:03.33	221.71	11.38	-26.4	-28.4	15.1	0.00e+00	0	44	0	3661627392	12	4509
2026-01-23 03:14:04.33	221.67	11.29	-26.3	-28.0	15.3	0.00e+00	0	44	0	3666870272	12	4412
2026-01-23 03:14:05.34	221.63	11.20	-26.2	-27.8	15.5	0.00e+00	0	44	0	3673161728	12	4354
2026-01-23 03:14:06.34	221.59	11.11	-26.2	-27.9	15.4	0.00e+00	0	44	0	3678404608	12	4364
2026-01-23 03:14:07.34	221.55	11.02	-26.2	-27.8	15.5	0.00e+00	0	44	0	3683647488	12	4342
2026-01-23 03:14:08.35	221.51	10.93	-26.2	-27.8	15.5	0.00e+00	0	44	0	3689938944	12	4339
2026-01-23 03:14:09.35	221.47	10.84	-26.2	-27.8	15.5	0.00e+00	0	44	0	3695181824	12	4346
2026-01-23 03:14:10.35	221.43	10.75	-26.2	-28.0	15.3	1.10e-06	0	44	0	3701473280	12	4390
2026-01-23 03:14:11.36	221.39	10.66	-26.4	-28.2	15.2	0.00e+00	0	44	0	3706716160	12	4465
2026-01-23 03:14:12.36	221.35	10.57	-26.3	-28.0	15.3	0.00e+00	0	44	0	3711959040	12	4402
2026-01-23 03:14:13.36	221.31	10.49	-26.2	-28.0	15.3	0.00e+00	0	44	0	3718250496	12	4400
2026-01-23 03:14:14.36	221.27	10.40	-26.3	-28.0	15.3	0.00e+00	0	44	0	3723493376	12	4415
2026-01-23 03:14:15.36	221.23	10.31	-26.4	-28.3	15.2	1.10e-06	0	44	0	3728736256	12	4476
2026-01-23 03:14:16.37	221.20	10.23	-26.4	-28.4	15.1	0.00e+00	0	44	0	3735027712	12	4503
2026-01-23 03:14:17.37	221.16	10.14	-26.5	-28.5	15.0	0.00e+00	0	44	0	3740270592	12	4534
2026-01-23 03:14:18.37	221.12	10.05	-26.6	-28.3	14.8	0.00e+00	0	44	0	3746562048	13	4387
2026-01-23 03:14:19.38	221.08	9.97	-26.7	-28.5	14.7	2.20e-06	0	44	0	3751804928	13	4440
2026-01-23 03:14:20.37	221.05	9.88	-26.6	-28.3	14.8	0.00e+00	0	44	0	3757047808	13	4365
2026-01-23 03:14:21.37	221.01	9.80	-26.6	-28.3	14.8	0.00e+00	0	44	0	3763339264	13	4386
2026-01-23 03:14:22.37	220.97	9.71	-26.7	-28.5	14.7	1.10e-06	0	44	0	3768582144	13	4434
2026-01-23 03:14:23.37	220.94	9.63	-26.7	-28.4	14.7	0.00e+00	0	44	0	3774873600	13	4418
2026-01-23 03:14:24.38	220.90	9.54	-26.7	-28.5	14.7	0.00e+00	0	44	0	3780116480	13	4437
2026-01-23 03:14:25.38	220.87	9.46	-26.7	-28.6	14.6	0.00e+00	0	44	0	3785359360	13	4475
2026-01-23 03:14:26.39	220.83	9.38	-26.8	-28.8	14.5	0.00e+00	0	44	0	3791650816	13	4509
2026-01-23 03:14:27.39	220.80	9.29	-26.8	-28.8	14.5	3.40e-06	0	44	0	3796893696	13	4518
2026-01-23 03:14:28.39	220.76	9.21	-26.9	-29.0	14.4	2.20e-06	0	44	0	3802136576	13	4577
2026-01-23 03:14:29.40	220.73	9.13	-27.2	-29.2	13.9	3.40e-06	0	44	0	3808428032	14	4532
2026-01-23 03:14:30.40	220.69	9.04	-27.3	-29.5	13.8	1.37e-05	0	44	0	3813670912	14	4627
2026-01-23 03:14:31.40	220.66	8.96	-27.0	-28.8	14.2	2.20e-06	0	44	0	3818913792	14	4423
2026-01-23 03:14:32.41	220.62	8.88	-26.8	-28.3	14.5	0.00e+00	0	44	0	3825205248	14	4269
2026-01-23 03:14:33.41	220.59	8.80	-26.7	-28.6	14.5	1.10e-06	0	44	0	3830448128	13	4474
2026-01-23 03:14:34.41	220.56	8.72	-27.0	-28.8	14.2	0.00e+00	0	45	0	3836739584	14	4402
2026-01-23 03:14:35.41	220.52	8.63	-27.2	-29.2	13.9	5.70e-06	0	44	0	3841982464	14	4520
2026-01-23 03:14:36.42	220.49	8.55	-27.3	-29.3	13.8	4.50e-06	0	44	0	3848273920	14	4567
2026-01-23 03:14:37.41	220.46	8.47	-27.1	-29.0	14.0	3.40e-06	0	44	0	3853516800	14	4482
2026-01-23 03:14:38.41	220.42	8.39	-27.0	-28.8	14.1	2.20e-06	0	44	0	3858759680	14	4425
2026-01-23 03:14:39.41	220.39	8.31	-27.1	-28.9	14.0	1.10e-06	0	44	0	3864002560	14	4438
