passes_logs/2026/01/23/R2M6_AANII_01/R2M6_AANII_01__20260123_103830_NOAA_20_JPSS-1_rec.log

#Pass ID: 20260123_103830_NOAA 20 (JPSS-1)
#Satellite: NOAA 20 (JPSS-1)
#Configuration: NOAA 20
#almurnet v.1.7.20240730
#Start time: 2026-01-23 10:44:21

#Version: 2.2.20231116
#Station: R2M6_AANII_01
#Location: 30.233357 lon 59.946436 lat
#TLE: 1 43013U 17073A   26022.44900781  .00000193  00000+0  11233-3 0  9999
#TLE: 2 43013  98.7645 323.3100 0001197  28.8413 331.2829 14.19538802423792

#Time	Az	El	Level	Level2	SNR	BER	BlckErr	Temp	State	Recorded	gain1	gain2
2026-01-23 10:44:21.38	243.31	68.62	-34.1	-53.3	3.8	7.45e-01	0	42	0	0	29	32872
2026-01-23 10:44:22.39	244.63	68.71	-34.4	-47.9	3.8	1.49e+00	0	42	104	0	30	17001
2026-01-23 10:44:23.39	245.95	68.79	-34.4	-47.9	3.8	1.49e+00	0	42	104	0	30	17019
2026-01-23 10:44:24.39	247.28	68.85	-34.4	-47.9	3.8	1.49e+00	0	42	104	0	30	17063
2026-01-23 10:44:25.40	248.63	68.91	-34.4	-48.0	3.8	1.49e+00	0	42	104	0	30	17067
2026-01-23 10:44:26.40	249.98	68.95	-34.4	-48.0	3.8	1.49e+00	0	42	104	0	30	17079
2026-01-23 10:44:27.41	251.34	68.99	-34.5	-48.0	3.8	1.49e+00	0	42	104	0	30	17115
2026-01-23 10:44:28.41	252.69	69.01	-34.5	-48.0	3.8	1.49e+00	0	42	104	0	30	17108
2026-01-23 10:44:29.41	254.05	69.02	-34.5	-48.1	3.8	1.49e+00	0	42	104	0	30	17198
2026-01-23 10:44:30.41	255.40	69.02	-34.4	-48.0	3.8	1.49e+00	0	42	104	0	30	17134
2026-01-23 10:44:31.42	256.77	69.02	-34.4	-48.0	3.8	1.49e+00	0	42	104	0	30	17150
2026-01-23 10:44:32.43	258.14	69.00	-34.4	-48.0	3.8	1.49e+00	0	42	104	0	30	17095
2026-01-23 10:44:33.43	259.49	68.96	-34.4	-48.0	3.8	1.49e+00	0	42	104	0	30	17139
2026-01-23 10:44:34.44	260.85	68.92	-34.4	-47.9	3.8	1.49e+00	0	42	104	0	30	17055
2026-01-23 10:44:35.44	262.19	68.87	-34.4	-48.0	3.8	1.49e+00	0	42	104	0	30	17089
2026-01-23 10:44:36.45	263.53	68.81	-34.4	-47.9	3.8	1.49e+00	0	42	104	0	30	17030
2026-01-23 10:44:37.45	264.85	68.73	-34.4	-48.0	3.8	1.49e+00	0	42	104	0	30	17071
2026-01-23 10:44:38.46	266.17	68.65	-34.4	-47.8	3.8	1.49e+00	0	42	104	0	30	16877
2026-01-23 10:44:39.47	267.49	68.55	-34.3	-47.7	3.8	1.49e+00	0	42	104	0	30	16812
2026-01-23 10:44:40.47	268.77	68.45	-34.2	-48.1	3.8	1.49e+00	0	42	104	0	29	17722
2026-01-23 10:44:41.48	270.06	68.33	-34.2	-48.1	3.8	1.49e+00	0	42	104	0	29	17690
2026-01-23 10:44:42.48	271.31	68.21	-33.3	-47.4	3.8	1.49e+00	0	42	104	0	28	18304
2026-01-23 10:44:43.49	272.57	68.08	-34.2	-48.5	3.8	1.49e+00	0	42	104	0	28	18725
2026-01-23 10:44:44.49	273.79	67.94	-34.1	-48.4	3.8	1.49e+00	0	42	104	0	28	18703
2026-01-23 10:44:45.50	275.01	67.78	-34.1	-48.4	3.8	1.49e+00	0	42	104	0	28	18643
2026-01-23 10:44:46.50	276.20	67.62	-34.1	-48.4	3.8	1.49e+00	0	42	104	0	28	18645
2026-01-23 10:44:47.50	277.37	67.46	-34.1	-48.4	3.8	1.49e+00	0	42	104	0	28	18598
2026-01-23 10:44:48.51	278.53	67.28	-34.1	-48.3	3.8	1.49e+00	0	42	104	0	28	18558
2026-01-23 10:44:49.51	279.66	67.10	-34.1	-48.4	3.8	1.49e+00	0	42	104	0	28	18605
2026-01-23 10:44:50.51	280.77	66.91	-34.1	-48.4	3.8	1.49e+00	0	42	104	0	28	18623
2026-01-23 10:44:51.52	281.87	66.71	-34.1	-48.4	3.8	1.49e+00	0	42	104	0	28	18595
2026-01-23 10:44:52.53	282.95	66.50	-34.1	-48.4	3.8	1.49e+00	0	42	104	0	28	18611
2026-01-23 10:44:53.54	284.01	66.28	-34.1	-48.3	3.8	1.49e+00	0	42	104	0	28	18547
2026-01-23 10:44:54.54	285.04	66.07	-34.1	-48.4	3.8	1.49e+00	0	42	104	0	28	18642
2026-01-23 10:44:55.55	286.06	65.84	-34.1	-48.4	3.8	1.49e+00	0	42	104	0	28	18638
2026-01-23 10:44:56.55	287.04	65.61	-34.1	-48.4	3.8	1.49e+00	0	42	104	0	28	18635
2026-01-23 10:44:57.56	288.02	65.37	-34.1	-48.2	3.8	1.49e+00	0	42	104	0	28	18331
2026-01-23 10:44:58.57	288.97	65.13	-34.1	-48.1	3.8	1.49e+00	0	42	104	0	28	18036
2026-01-23 10:44:59.57	289.90	64.88	-34.1	-48.3	3.8	1.49e+00	0	42	104	0	28	18528
2026-01-23 10:45:00.57	290.80	64.63	-34.1	-48.3	3.8	1.49e+00	0	42	104	0	28	18518
2026-01-23 10:45:01.57	291.69	64.37	-34.1	-48.2	3.8	1.49e+00	0	42	104	0	28	18312
2026-01-23 10:45:02.58	292.56	64.11	-34.1	-48.3	3.8	1.49e+00	0	42	104	0	28	18533
2026-01-23 10:45:03.58	293.40	63.84	-34.1	-48.0	3.8	1.49e+00	0	42	104	0	28	17842
2026-01-23 10:45:04.58	294.23	63.57	-34.1	-48.0	3.8	1.49e+00	0	42	104	0	28	17961
2026-01-23 10:45:05.58	295.04	63.30	-34.1	-48.3	3.8	1.49e+00	0	42	104	0	28	18520
2026-01-23 10:45:06.59	295.84	63.02	-34.1	-48.3	3.8	1.49e+00	0	42	104	0	28	18524
2026-01-23 10:45:07.59	296.61	62.74	-34.1	-47.8	3.8	1.49e+00	0	42	104	0	28	17439
2026-01-23 10:45:08.60	297.37	62.46	-34.0	-46.4	3.8	1.49e+00	0	42	104	0	28	15004
2026-01-23 10:45:09.60	298.10	62.17	-33.9	-45.7	3.8	1.48e+00	0	42	104	0	28	13995
2026-01-23 10:45:10.59	298.81	61.89	-33.9	-45.1	3.9	1.48e+00	0	42	104	0	28	13075
2026-01-23 10:45:11.60	299.52	61.59	-33.7	-42.9	4.7	1.43e+00	0	42	104	0	28	10456
2026-01-23 10:45:12.61	300.21	61.30	-33.4	-41.2	4.4	9.13e-01	0	42	104	0	28	8754
2026-01-23 10:45:13.61	300.88	61.00	-33.4	-40.5	6.0	1.26e+00	0	42	104	0	28	8178
2026-01-23 10:45:14.62	301.54	60.70	-32.8	-37.9	8.3	3.88e-01	0	42	0	0	27	6454
2026-01-23 10:45:15.62	302.18	60.41	-31.0	-33.7	12.9	1.06e-03	0	42	102	1048576	23	4914
2026-01-23 10:45:16.63	302.81	60.10	-30.1	-32.3	14.5	0.00e+00	0	42	102	1048576	21	4651
2026-01-23 10:45:17.64	303.43	59.80	-30.6	-33.8	13.5	1.50e-06	0	42	102	1048576	21	5193
2026-01-23 10:45:18.64	304.02	59.50	-30.8	-34.2	13.2	2.67e-05	0	42	102	1048576	21	5366
2026-01-23 10:45:19.65	304.61	59.19	-30.4	-33.2	14.0	1.14e-05	0	42	102	1048576	21	4954
2026-01-23 10:45:20.65	305.18	58.88	-30.1	-32.2	14.6	1.50e-06	0	42	102	1048576	21	4588
2026-01-23 10:45:21.65	305.73	58.58	-29.7	-31.7	15.3	0.00e+00	0	42	102	1048576	20	4546
2026-01-23 10:45:22.66	306.28	58.27	-30.0	-32.4	14.8	0.00e+00	0	42	102	1048576	20	4769
2026-01-23 10:45:23.65	306.81	57.96	-30.5	-33.8	14.0	0.00e+00	0	42	102	1048576	20	5267
2026-01-23 10:45:24.66	307.33	57.65	-30.2	-32.6	14.3	2.20e-06	0	42	102	1048576	21	4750
2026-01-23 10:45:25.66	307.84	57.34	-29.4	-31.1	15.6	0.00e+00	0	42	102	1048576	20	4351
2026-01-23 10:45:26.67	308.34	57.03	-29.0	-30.5	16.3	0.00e+00	0	42	102	1048576	19	4280
2026-01-23 10:45:27.67	308.82	56.72	-28.9	-30.2	16.5	0.00e+00	0	42	102	1048576	19	4188
2026-01-23 10:45:28.67	309.30	56.41	-29.2	-30.9	16.1	0.00e+00	0	42	102	1048576	19	4392
2026-01-23 10:45:29.67	309.76	56.10	-29.5	-31.7	15.7	0.00e+00	0	42	102	1048576	19	4632
2026-01-23 10:45:30.68	310.22	55.79	-29.5	-31.7	15.6	0.00e+00	0	42	102	1048576	19	4629
2026-01-23 10:45:31.68	310.66	55.48	-28.6	-30.1	16.8	0.00e+00	0	42	102	1048576	18	4271
2026-01-23 10:45:32.68	311.09	55.17	-27.8	-29.1	17.9	0.00e+00	0	42	102	1048576	16	4192
2026-01-23 10:45:33.68	311.52	54.86	-28.0	-29.7	17.6	0.00e+00	0	42	102	1048576	16	4358
2026-01-23 10:45:34.69	311.94	54.55	-28.8	-31.0	16.6	0.00e+00	0	42	102	1048576	17	4641
2026-01-23 10:45:35.69	312.34	54.24	-29.3	-31.8	15.9	0.00e+00	0	42	102	1048576	18	4779
2026-01-23 10:45:36.70	312.75	53.93	-29.0	-31.0	16.3	0.00e+00	0	42	102	1048576	18	4531
2026-01-23 10:45:37.69	313.13	53.63	-28.6	-30.0	16.9	0.00e+00	0	42	102	1048576	18	4235
2026-01-23 10:45:38.70	313.52	53.32	-28.7	-30.2	16.8	0.00e+00	0	42	102	1048576	18	4292
2026-01-23 10:45:39.71	313.89	53.01	-28.4	-29.6	17.1	0.00e+00	0	42	102	1048576	18	4125
2026-01-23 10:45:40.71	314.26	52.70	-28.1	-29.4	17.5	0.00e+00	0	42	102	1048576	17	4187
2026-01-23 10:45:41.71	314.62	52.40	-28.8	-30.9	16.7	0.00e+00	0	42	102	1048576	17	4612
2026-01-23 10:45:42.71	314.97	52.09	-29.6	-32.1	15.4	0.00e+00	0	42	102	1048576	19	4753
2026-01-23 10:45:43.72	315.32	51.79	-30.2	-32.9	14.5	0.00e+00	0	42	102	1048576	20	4940
2026-01-23 10:45:44.72	315.66	51.48	-29.8	-31.9	15.1	7.00e-07	0	42	102	1048576	20	4612
2026-01-23 10:45:45.72	315.99	51.18	-29.1	-30.8	16.2	0.00e+00	0	42	102	1048576	19	4352
2026-01-23 10:45:46.73	316.31	50.88	-29.0	-30.5	16.3	0.00e+00	0	42	102	1048576	19	4280
2026-01-23 10:45:47.74	316.63	50.58	-29.8	-32.4	15.2	0.00e+00	0	42	102	1048576	19	4865
2026-01-23 10:45:48.74	316.95	50.28	-30.6	-33.5	13.8	7.00e-07	0	42	102	1048576	21	5049
2026-01-23 10:45:49.75	317.25	49.98	-31.0	-34.3	13.0	1.75e-05	0	42	102	1048576	22	5223
2026-01-23 10:45:50.75	317.55	49.68	-31.2	-34.6	12.8	4.57e-05	0	42	102	1048576	22	5363
2026-01-23 10:45:51.76	317.85	49.39	-31.1	-34.4	12.9	5.11e-05	0	42	102	1048576	22	5290
2026-01-23 10:45:52.76	318.14	49.09	-31.3	-34.9	12.6	8.69e-05	0	42	102	1048576	22	5483
2026-01-23 10:45:53.76	318.42	48.80	-31.0	-34.2	13.0	6.79e-05	0	42	102	1048576	22	5194
2026-01-23 10:45:54.77	318.70	48.51	-30.8	-33.5	13.6	1.90e-05	0	42	102	1048576	22	4933
2026-01-23 10:45:55.77	318.97	48.22	-30.9	-33.8	13.4	1.52e-05	0	42	102	1048576	22	5020
2026-01-23 10:45:56.77	319.24	47.93	-31.7	-35.7	11.7	1.62e-04	0	42	102	1048576	23	5696
2026-01-23 10:45:57.77	319.50	47.64	-32.6	-37.8	9.4	4.05e-03	0	42	102	1048576	25	6586
2026-01-23 10:45:58.78	319.77	47.35	-32.7	-38.2	9.0	3.45e-02	0	42	102	1048576	25	6790
2026-01-23 10:45:59.79	320.02	47.06	-31.7	-35.2	11.6	4.25e-03	0	42	102	1048576	24	5388
2026-01-23 10:46:00.79	320.27	46.78	-30.7	-33.3	13.6	7.62e-05	0	42	102	1048576	22	4855
2026-01-23 10:46:01.80	320.52	46.50	-30.2	-32.6	14.4	1.50e-06	0	42	102	1048576	21	4726
2026-01-23 10:46:02.80	320.76	46.22	-30.6	-33.5	13.8	1.50e-06	0	42	102	1048576	21	5046
2026-01-23 10:46:03.81	321.00	45.93	-30.8	-34.0	13.5	1.37e-05	0	42	102	1048576	21	5219
2026-01-23 10:46:04.81	321.23	45.66	-31.2	-34.7	12.7	1.83e-05	0	42	102	1048576	22	5402
2026-01-23 10:46:05.82	321.46	45.38	-31.5	-35.2	11.9	3.08e-04	0	42	102	1048576	23	5505
2026-01-23 10:46:06.82	321.68	45.10	-31.6	-35.6	11.8	4.26e-04	0	42	102	1048576	23	5658
2026-01-23 10:46:07.83	321.90	44.83	-31.5	-35.1	12.0	4.90e-04	0	42	102	1048576	23	5474
2026-01-23 10:46:08.83	322.12	44.55	-31.1	-34.1	12.7	9.23e-05	0	42	102	1048576	23	5045
2026-01-23 10:46:09.83	322.33	44.28	-30.7	-33.4	13.5	1.83e-05	0	42	102	1048576	22	4891
2026-01-23 10:46:10.84	322.54	44.01	-30.3	-32.2	14.2	3.00e-06	0	42	102	1048576	22	4503
2026-01-23 10:46:11.84	322.75	43.74	-30.3	-32.8	14.3	7.00e-07	0	42	102	1048576	21	4778
2026-01-23 10:46:12.85	322.96	43.48	-30.0	-31.9	14.7	1.50e-06	0	42	102	1048576	21	4513
2026-01-23 10:46:13.85	323.15	43.21	-30.1	-32.3	14.5	0.00e+00	0	42	102	1048576	21	4636
2026-01-23 10:46:14.85	323.35	42.95	-30.9	-34.5	13.1	3.00e-06	0	42	102	1048576	21	5430
2026-01-23 10:46:15.85	323.54	42.69	-31.4	-35.3	12.2	1.49e-04	0	42	102	1048576	22	5658
2026-01-23 10:46:16.86	323.74	42.42	-31.6	-35.5	11.8	4.94e-04	0	42	102	1048576	23	5651
2026-01-23 10:46:17.86	323.92	42.17	-31.2	-34.1	12.7	2.96e-04	0	42	102	1048576	23	5049
2026-01-23 10:46:18.85	324.10	41.91	-30.4	-32.4	14.1	4.50e-06	0	42	102	1048576	22	4572
2026-01-23 10:46:19.86	324.29	41.65	-29.8	-31.4	15.1	0.00e+00	0	42	102	1048576	21	4358
2026-01-23 10:46:20.86	324.47	41.40	-29.6	-31.5	15.4	0.00e+00	0	42	102	1048576	20	4474
2026-01-23 10:46:21.87	324.64	41.14	-29.8	-31.9	15.0	0.00e+00	0	42	102	1048576	20	4595
2026-01-23 10:46:22.87	324.82	40.89	-30.5	-33.7	13.9	1.50e-06	0	42	102	1048576	20	5242
2026-01-23 10:46:23.87	324.99	40.64	-30.6	-33.6	13.7	6.10e-06	0	42	102	1048576	21	5075
2026-01-23 10:46:24.88	325.16	40.39	-30.8	-34.3	13.2	1.52e-05	0	42	102	1048576	21	5344
2026-01-23 10:46:25.89	325.32	40.14	-31.3	-35.2	12.3	1.08e-04	0	42	102	1048576	22	5628
2026-01-23 10:46:26.89	325.49	39.90	-31.4	-35.3	12.3	2.08e-04	0	42	102	1048576	22	5674
2026-01-23 10:46:27.89	325.65	39.65	-31.0	-34.3	12.9	1.70e-04	0	42	102	1048576	22	5242
2026-01-23 10:46:28.89	325.81	39.41	-30.2	-32.5	14.3	2.20e-06	0	42	102	1048576	21	4699
2026-01-23 10:46:29.90	325.96	39.17	-29.4	-31.1	15.5	0.00e+00	0	42	102	1048576	20	4364
2026-01-23 10:46:30.90	326.12	38.93	-28.8	-30.1	16.5	0.00e+00	0	42	102	1048576	19	4161
2026-01-23 10:46:31.91	326.27	38.69	-28.6	-30.0	16.8	0.00e+00	0	42	102	1048576	18	4248
2026-01-23 10:46:32.91	326.42	38.45	-28.8	-30.5	16.6	0.00e+00	0	42	102	1048576	18	4379
2026-01-23 10:46:33.91	326.57	38.22	-28.9	-30.6	16.5	0.00e+00	0	42	102	1048576	18	4419
2026-01-23 10:46:34.92	326.71	37.98	-29.2	-31.5	15.9	0.00e+00	0	42	102	1048576	18	4679
2026-01-23 10:46:35.93	326.86	37.75	-29.6	-32.0	15.3	0.00e+00	0	42	102	1048576	19	4745
2026-01-23 10:46:36.93	327.00	37.52	-30.2	-33.0	14.3	0.00e+00	0	42	102	1048576	20	4989
2026-01-23 10:46:37.94	327.14	37.28	-30.4	-33.7	13.9	1.50e-06	0	42	102	1048576	20	5246
2026-01-23 10:46:38.95	327.28	37.05	-30.5	-33.5	13.7	9.10e-06	0	42	102	1048576	21	5041
2026-01-23 10:46:39.95	327.41	36.83	-30.4	-33.1	14.0	6.10e-06	0	42	102	1048576	21	4917
2026-01-23 10:46:40.95	327.55	36.60	-30.2	-32.6	14.3	3.00e-06	0	42	102	1048576	21	4734
2026-01-23 10:46:41.95	327.68	36.38	-30.1	-32.3	14.5	1.50e-06	0	42	102	1048576	21	4642
2026-01-23 10:46:42.96	327.81	36.15	-30.2	-32.6	14.3	0.00e+00	0	42	102	1048576	21	4730
2026-01-23 10:46:43.96	327.94	35.93	-29.8	-31.5	14.9	0.00e+00	0	42	102	1048576	21	4389
2026-01-23 10:46:44.97	328.07	35.71	-29.6	-31.6	15.2	0.00e+00	0	42	102	1048576	20	4498
2026-01-23 10:46:45.97	328.19	35.49	-29.8	-32.0	15.0	0.00e+00	0	42	102	1048576	20	4639
2026-01-23 10:46:46.97	328.32	35.28	-29.8	-32.1	14.9	0.00e+00	0	42	102	1048576	20	4692
2026-01-23 10:46:47.98	328.44	35.06	-30.1	-32.8	14.5	1.50e-06	0	42	102	1048576	20	4915
2026-01-23 10:46:48.98	328.56	34.84	-30.4	-33.5	14.0	3.00e-06	0	42	102	1048576	20	5180
2026-01-23 10:46:49.98	328.68	34.63	-30.7	-33.9	13.4	6.80e-06	0	42	102	1048576	21	5200
2026-01-23 10:46:50.99	328.80	34.42	-31.0	-34.3	12.8	3.96e-05	0	42	102	1048576	22	5253
2026-01-23 10:46:51.99	328.92	34.21	-31.0	-34.2	12.9	6.25e-05	0	42	102	1048576	22	5211
2026-01-23 10:46:52.99	329.03	34.00	-30.9	-34.1	13.0	6.40e-05	0	42	102	1048576	22	5171
2026-01-23 10:46:54.00	329.14	33.79	-30.9	-33.8	13.1	3.81e-05	0	42	102	1048576	22	5071
2026-01-23 10:46:55.00	329.26	33.58	-30.9	-34.0	13.0	2.51e-05	0	42	102	1048576	22	5155
2026-01-23 10:46:56.01	329.37	33.38	-31.1	-34.5	12.7	6.63e-05	0	42	102	1048576	22	5340
2026-01-23 10:46:57.01	329.48	33.17	-31.0	-34.3	12.8	4.73e-05	0	42	102	1048576	22	5263
2026-01-23 10:46:58.01	329.58	32.97	-31.2	-34.8	12.4	9.53e-05	0	42	102	1048576	22	5457
2026-01-23 10:46:59.01	329.69	32.77	-31.1	-34.7	12.6	1.07e-04	0	42	102	1048576	22	5403
2026-01-23 10:47:00.02	329.80	32.57	-31.0	-34.3	12.8	7.09e-05	0	42	102	1048576	22	5253
2026-01-23 10:47:01.02	329.90	32.37	-30.9	-33.9	13.1	3.28e-05	0	42	102	1048576	22	5093
2026-01-23 10:47:02.02	330.00	32.17	-31.0	-34.2	12.8	4.04e-05	0	42	102	1048576	22	5227
2026-01-23 10:47:03.03	330.11	31.97	-30.8	-33.6	13.3	2.82e-05	0	42	102	1048576	22	4987
2026-01-23 10:47:04.04	330.21	31.78	-30.8	-33.6	13.3	2.05e-05	0	42	102	1048576	22	4971
2026-01-23 10:47:05.04	330.31	31.58	-30.9	-34.0	12.9	2.36e-05	0	42	102	1048576	22	5144
2026-01-23 10:47:06.05	330.41	31.39	-30.8	-33.7	13.2	3.35e-05	0	42	102	1048576	22	5014
2026-01-23 10:47:07.05	330.50	31.20	-30.9	-34.0	13.0	2.44e-05	0	42	102	1048576	22	5130
2026-01-23 10:47:08.06	330.60	31.00	-31.0	-34.2	12.8	4.65e-05	0	42	102	1048576	22	5217
2026-01-23 10:47:09.07	330.70	30.81	-31.0	-34.3	12.8	5.26e-05	0	42	102	1048576	22	5243
2026-01-23 10:47:10.07	330.79	30.62	-31.1	-34.6	12.6	7.85e-05	0	42	102	1048576	22	5374
2026-01-23 10:47:11.08	330.88	30.44	-31.3	-35.1	12.2	1.44e-04	0	42	102	1048576	22	5567
2026-01-23 10:47:12.09	330.98	30.25	-31.3	-35.3	12.0	2.11e-04	0	42	102	1048576	22	5679
2026-01-23 10:47:13.09	331.07	30.06	-31.4	-35.5	12.0	3.47e-04	0	42	102	1048576	22	5754
2026-01-23 10:47:14.10	331.16	29.88	-31.4	-35.4	12.0	3.42e-04	0	42	102	1048576	22	5710
2026-01-23 10:47:15.11	331.25	29.69	-31.3	-35.0	12.2	2.71e-04	0	42	102	1048576	22	5571
2026-01-23 10:47:16.11	331.34	29.51	-31.2	-34.8	12.4	1.53e-04	0	42	102	1048576	22	5476
2026-01-23 10:47:17.12	331.42	29.33	-31.1	-34.7	12.4	1.44e-04	0	42	102	1048576	22	5426
2026-01-23 10:47:18.12	331.51	29.15	-30.8	-33.8	13.1	4.80e-05	0	42	102	1048576	22	5071
2026-01-23 10:47:19.13	331.59	28.97	-30.6	-33.3	13.4	2.21e-05	0	42	102	1048576	22	4890
2026-01-23 10:47:20.13	331.68	28.80	-30.5	-32.8	13.7	1.06e-05	0	42	102	1048576	22	4728
2026-01-23 10:47:21.13	331.76	28.62	-30.4	-32.7	13.8	4.50e-06	0	42	102	1048576	22	4667
2026-01-23 10:47:22.14	331.85	28.44	-30.5	-32.8	13.7	3.80e-06	0	42	102	1048576	22	4730
2026-01-23 10:47:23.14	331.93	28.27	-30.6	-33.3	13.4	1.60e-05	0	42	102	1048576	22	4875
2026-01-23 10:47:24.14	332.01	28.10	-30.5	-32.8	13.7	5.30e-06	0	42	102	1048576	22	4712
2026-01-23 10:47:25.15	332.09	27.92	-30.4	-32.7	13.7	5.30e-06	0	42	102	1048576	22	4693
2026-01-23 10:47:26.16	332.17	27.75	-30.4	-32.7	13.8	7.60e-06	0	42	102	1048576	22	4667
2026-01-23 10:47:27.17	332.25	27.58	-30.5	-32.9	13.6	4.50e-06	0	42	102	1048576	22	4734
2026-01-23 10:47:28.17	332.33	27.41	-30.6	-33.2	13.4	9.10e-06	0	42	102	1048576	22	4857
2026-01-23 10:47:29.18	332.40	27.24	-30.6	-33.1	13.4	1.60e-05	0	42	102	1048576	22	4832
2026-01-23 10:47:30.19	332.48	27.07	-30.8	-33.8	12.9	4.11e-05	0	42	102	1048576	22	5100
2026-01-23 10:47:31.19	332.55	26.91	-30.6	-33.3	13.3	2.36e-05	0	42	102	1048576	22	4886
2026-01-23 10:47:32.20	332.63	26.74	-30.4	-32.6	13.8	6.80e-06	0	42	102	1048576	22	4644
2026-01-23 10:47:33.20	332.70	26.58	-30.3	-32.4	13.9	4.50e-06	0	42	102	1048576	22	4578
2026-01-23 10:47:34.20	332.78	26.41	-30.2	-32.7	14.0	3.00e-06	0	42	102	1048576	21	4805
2026-01-23 10:47:35.20	332.85	26.25	-30.4	-33.1	13.7	3.80e-06	0	42	102	1048576	21	4949
2026-01-23 10:47:36.20	332.92	26.09	-30.5	-33.5	13.5	1.06e-05	0	42	102	1048576	21	5073
2026-01-23 10:47:37.21	332.99	25.93	-30.3	-33.0	13.8	6.80e-06	0	42	102	1048576	21	4908
2026-01-23 10:47:38.20	333.06	25.77	-30.2	-32.7	14.0	3.00e-06	0	42	102	1048576	21	4791
2026-01-23 10:47:39.20	333.13	25.61	-30.1	-32.3	14.2	7.00e-07	0	42	102	1048576	21	4666
2026-01-23 10:47:40.21	333.20	25.46	-30.0	-32.1	14.3	1.50e-06	0	42	102	1048576	21	4607
2026-01-23 10:47:41.22	333.27	25.30	-29.8	-31.7	14.6	0.00e+00	0	42	102	1048576	21	4483
2026-01-23 10:47:42.22	333.34	25.14	-29.8	-31.7	14.6	0.00e+00	0	42	102	1048576	21	4456
2026-01-23 10:47:43.22	333.41	24.99	-29.9	-31.8	14.5	0.00e+00	0	42	102	1048576	21	4510
2026-01-23 10:47:44.23	333.47	24.83	-29.5	-31.3	15.1	0.00e+00	0	42	102	1048576	20	4441
2026-01-23 10:47:45.23	333.54	24.68	-29.2	-31.2	15.6	1.50e-06	0	42	102	1048576	19	4510
2026-01-23 10:47:46.23	333.60	24.53	-29.1	-30.9	15.7	0.00e+00	0	42	102	1048576	19	4430
2026-01-23 10:47:47.23	333.67	24.38	-29.2	-31.0	15.7	0.00e+00	0	42	102	1048576	19	4459
2026-01-23 10:47:48.24	333.73	24.22	-29.4	-31.6	15.3	0.00e+00	0	42	102	1048576	19	4628
2026-01-23 10:47:49.24	333.80	24.07	-29.5	-31.7	15.2	0.00e+00	0	42	102	1048576	19	4675
2026-01-23 10:47:50.25	333.86	23.92	-29.5	-31.8	15.2	0.00e+00	0	42	102	1048576	19	4688
2026-01-23 10:47:51.26	333.92	23.78	-29.5	-32.0	15.1	0.00e+00	0	42	102	1048576	19	4756
2026-01-23 10:47:52.26	333.99	23.63	-29.6	-32.1	15.0	0.00e+00	0	42	102	1048576	19	4792
2026-01-23 10:47:53.27	334.05	23.48	-29.6	-32.1	15.0	0.00e+00	0	42	102	1048576	19	4808
2026-01-23 10:47:54.27	334.11	23.34	-29.7	-32.3	14.9	0.00e+00	0	42	102	1048576	19	4868
2026-01-23 10:47:55.27	334.17	23.19	-29.8	-32.8	14.5	7.00e-07	0	42	102	1048576	19	5036
2026-01-23 10:47:56.29	334.23	23.04	-29.6	-32.0	15.0	0.00e+00	0	42	102	1048576	19	4784
2026-01-23 10:47:57.29	334.29	22.90	-29.3	-31.5	15.3	0.00e+00	0	42	102	1048576	19	4608
2026-01-23 10:47:58.30	334.35	22.76	-29.2	-31.2	15.5	0.00e+00	0	42	102	1048576	19	4522
2026-01-23 10:47:59.30	334.41	22.62	-29.2	-31.2	15.5	0.00e+00	0	42	102	1048576	19	4530
2026-01-23 10:48:00.31	334.46	22.47	-29.3	-31.4	15.4	0.00e+00	0	42	102	1048576	19	4573
2026-01-23 10:48:01.31	334.52	22.33	-29.3	-31.3	15.4	0.00e+00	0	42	102	1048576	19	4550
2026-01-23 10:48:02.32	334.58	22.19	-29.2	-31.1	15.5	0.00e+00	0	42	102	1048576	19	4501
2026-01-23 10:48:03.32	334.64	22.05	-29.2	-31.1	15.5	0.00e+00	0	42	102	1048576	19	4503
2026-01-23 10:48:04.32	334.69	21.92	-29.3	-31.4	15.4	0.00e+00	0	42	102	1048576	19	4576
2026-01-23 10:48:05.33	334.75	21.78	-29.3	-31.5	15.3	0.00e+00	0	42	102	1048576	19	4609
2026-01-23 10:48:06.33	334.80	21.64	-29.3	-31.3	15.4	0.00e+00	0	42	102	1048576	19	4554
2026-01-23 10:48:07.34	334.86	21.50	-29.3	-31.3	15.4	7.00e-07	0	42	102	1048576	19	4555
2026-01-23 10:48:08.34	334.91	21.37	-29.2	-31.1	15.5	0.00e+00	0	42	102	1048576	19	4480
2026-01-23 10:48:09.34	334.97	21.24	-29.2	-31.0	15.6	0.00e+00	0	42	102	1048576	19	4456
2026-01-23 10:48:10.35	335.02	21.10	-29.1	-30.9	15.6	0.00e+00	0	42	102	1048576	19	4439
2026-01-23 10:48:11.35	335.07	20.97	-29.2	-31.1	15.5	0.00e+00	0	42	102	1048576	19	4473
2026-01-23 10:48:12.36	335.13	20.83	-29.1	-30.9	15.6	0.00e+00	0	42	102	1048576	19	4431
2026-01-23 10:48:13.36	335.18	20.70	-29.1	-30.8	15.7	0.00e+00	0	42	102	1048576	19	4392
2026-01-23 10:48:14.36	335.23	20.57	-29.1	-31.0	15.6	0.00e+00	0	42	102	1048576	19	4446
2026-01-23 10:48:15.36	335.28	20.44	-29.0	-30.7	15.8	0.00e+00	0	42	102	1048576	19	4358
2026-01-23 10:48:16.37	335.33	20.31	-28.9	-30.5	15.8	0.00e+00	0	42	102	1048576	19	4312
2026-01-23 10:48:17.38	335.38	20.18	-29.0	-30.7	15.7	0.00e+00	0	42	102	1048576	19	4368
2026-01-23 10:48:18.38	335.43	20.05	-29.0	-30.7	15.7	0.00e+00	0	42	102	1048576	19	4372
2026-01-23 10:48:19.39	335.48	19.92	-29.1	-30.9	15.6	0.00e+00	0	42	102	1048576	19	4415
2026-01-23 10:48:20.39	335.53	19.80	-29.2	-31.0	15.5	0.00e+00	0	42	102	1048576	19	4470
2026-01-23 10:48:21.40	335.58	19.67	-29.2	-31.1	15.4	0.00e+00	0	42	102	1048576	19	4499
2026-01-23 10:48:22.40	335.63	19.54	-29.3	-31.3	15.4	0.00e+00	0	42	102	1048576	19	4551
2026-01-23 10:48:23.41	335.68	19.42	-29.3	-31.4	15.3	7.00e-07	0	42	102	1048576	19	4573
2026-01-23 10:48:24.41	335.73	19.29	-29.3	-31.5	15.2	0.00e+00	0	42	102	1048576	19	4625
2026-01-23 10:48:25.42	335.77	19.17	-29.4	-31.6	15.2	0.00e+00	0	42	102	1048576	19	4654
2026-01-23 10:48:26.42	335.82	19.04	-29.4	-31.7	15.1	0.00e+00	0	42	102	1048576	19	4691
2026-01-23 10:48:27.43	335.87	18.92	-29.4	-31.8	15.0	0.00e+00	0	42	102	1048576	19	4709
2026-01-23 10:48:28.43	335.91	18.80	-29.5	-31.9	15.0	0.00e+00	0	42	102	1048576	19	4757
2026-01-23 10:48:29.44	335.96	18.68	-29.5	-32.0	14.9	0.00e+00	0	42	102	1048576	19	4788
2026-01-23 10:48:30.44	336.01	18.55	-29.6	-32.1	14.8	1.50e-06	0	42	102	1048576	19	4817
2026-01-23 10:48:31.45	336.05	18.43	-29.6	-32.3	14.7	0.00e+00	0	42	102	1048576	19	4889
2026-01-23 10:48:32.45	336.10	18.31	-29.6	-32.2	14.8	0.00e+00	0	42	102	1048576	19	4853
2026-01-23 10:48:33.46	336.14	18.19	-29.7	-32.4	14.7	1.50e-06	0	42	102	1048576	19	4920
2026-01-23 10:48:34.47	336.19	18.07	-29.8	-32.6	14.5	1.50e-06	0	42	102	1048576	19	4989
2026-01-23 10:48:35.47	336.23	17.96	-29.7	-32.5	14.5	7.00e-07	0	42	102	1048576	19	4974
2026-01-23 10:48:36.48	336.28	17.84	-29.8	-32.8	14.4	0.00e+00	0	42	102	1048576	19	5057
2026-01-23 10:48:37.48	336.32	17.72	-29.8	-32.8	14.4	0.00e+00	0	42	102	1048576	19	5050
2026-01-23 10:48:38.48	336.36	17.60	-29.9	-32.9	14.3	7.00e-07	0	42	102	1048576	19	5102
2026-01-23 10:48:39.48	336.41	17.49	-29.9	-32.5	14.1	2.20e-06	0	42	102	1048576	20	4871
2026-01-23 10:48:40.49	336.45	17.37	-29.9	-32.5	14.2	7.00e-07	0	42	102	1048576	20	4843
2026-01-23 10:48:41.49	336.49	17.26	-29.9	-32.5	14.1	1.50e-06	0	42	102	1048576	20	4869
2026-01-23 10:48:42.50	336.53	17.14	-29.8	-32.3	14.3	7.00e-07	0	42	102	1048576	20	4773
2026-01-23 10:48:43.51	336.58	17.03	-29.7	-31.9	14.5	7.00e-07	0	42	102	1048576	20	4668
2026-01-23 10:48:44.51	336.62	16.91	-29.7	-32.0	14.4	0.00e+00	0	42	102	1048576	20	4690
2026-01-23 10:48:45.52	336.66	16.80	-29.8	-32.2	14.3	0.00e+00	0	42	102	1048576	20	4754
2026-01-23 10:48:46.53	336.70	16.69	-29.8	-32.2	14.3	0.00e+00	0	42	102	1048576	20	4762
2026-01-23 10:48:47.53	336.74	16.57	-29.9	-32.5	14.1	0.00e+00	0	42	102	1048576	20	4856
2026-01-23 10:48:48.53	336.78	16.46	-29.8	-32.3	14.2	7.00e-07	0	42	102	1048576	20	4806
2026-01-23 10:48:49.53	336.82	16.35	-29.8	-32.4	14.2	7.00e-07	0	42	102	1048576	20	4815
2026-01-23 10:48:50.54	336.86	16.24	-29.9	-32.5	14.1	7.00e-07	0	42	102	1048576	20	4871
2026-01-23 10:48:51.54	336.90	16.13	-29.9	-32.6	14.0	1.50e-06	0	42	102	1048576	20	4893
2026-01-23 10:48:52.54	336.94	16.02	-30.0	-32.9	13.9	6.10e-06	0	42	102	1048576	20	4997
2026-01-23 10:48:53.55	336.98	15.91	-30.0	-32.8	13.8	6.80e-06	0	42	102	1048576	20	4970
2026-01-23 10:48:54.54	337.02	15.81	-30.0	-32.8	13.9	5.30e-06	0	42	102	1048576	20	4970
2026-01-23 10:48:55.55	337.06	15.70	-30.1	-33.1	13.7	4.50e-06	0	42	102	1048576	20	5078
2026-01-23 10:48:56.56	337.10	15.59	-30.0	-33.0	13.7	6.80e-06	0	42	102	1048576	20	5035
2026-01-23 10:48:57.56	337.13	15.48	-30.2	-33.3	13.6	4.50e-06	0	42	102	1048576	20	5147
2026-01-23 10:48:58.56	337.17	15.37	-30.2	-33.4	13.4	1.37e-05	0	42	102	1048576	20	5212
2026-01-23 10:48:59.56	337.21	15.27	-30.2	-33.5	13.4	9.90e-06	0	42	102	1048576	20	5226
2026-01-23 10:49:00.56	337.25	15.16	-30.4	-33.9	13.1	1.90e-05	0	42	102	1048576	20	5394
2026-01-23 10:49:01.56	337.28	15.06	-30.4	-34.0	13.0	4.11e-05	0	42	102	1048576	20	5450
2026-01-23 10:49:02.57	337.32	14.95	-30.3	-33.7	13.2	3.50e-05	0	42	102	1048576	20	5337
2026-01-23 10:49:03.56	337.36	14.85	-30.4	-34.1	12.9	4.19e-05	0	42	102	1048576	20	5485
2026-01-23 10:49:04.56	337.39	14.75	-30.4	-34.1	13.0	5.03e-05	0	42	102	1048576	20	5471
2026-01-23 10:49:05.57	337.43	14.64	-30.5	-34.1	12.9	3.12e-05	0	42	102	1048576	20	5498
2026-01-23 10:49:06.58	337.47	14.54	-30.6	-34.2	12.5	6.79e-05	0	42	102	1048576	21	5408
2026-01-23 10:49:07.58	337.50	14.44	-30.7	-34.3	12.4	1.74e-04	0	42	102	1048576	21	5456
2026-01-23 10:49:08.58	337.54	14.33	-30.6	-33.9	12.7	1.06e-04	0	42	102	1048576	21	5314
2026-01-23 10:49:09.59	337.57	14.23	-30.5	-33.7	12.9	6.48e-05	0	42	102	1048576	21	5213
2026-01-23 10:49:10.60	337.61	14.13	-30.4	-33.5	13.0	4.88e-05	0	42	102	1048576	21	5143
2026-01-23 10:49:11.60	337.64	14.03	-30.4	-33.6	12.9	4.34e-05	0	42	102	1048576	21	5169
2026-01-23 10:49:12.61	337.68	13.93	-30.4	-33.6	12.9	4.57e-05	0	42	102	1048576	21	5171
2026-01-23 10:49:13.62	337.71	13.83	-30.4	-33.6	12.9	5.72e-05	0	42	102	1048576	21	5174
2026-01-23 10:49:14.62	337.75	13.73	-30.5	-33.7	12.8	5.79e-05	0	42	102	1048576	21	5231
2026-01-23 10:49:15.63	337.78	13.63	-30.4	-33.6	12.9	5.26e-05	0	42	102	1048576	21	5186
2026-01-23 10:49:16.63	337.82	13.53	-30.4	-33.5	12.9	4.19e-05	0	42	102	1048576	21	5159
2026-01-23 10:49:17.63	337.85	13.43	-30.4	-33.6	12.9	5.95e-05	0	42	102	1048576	21	5195
2026-01-23 10:49:18.64	337.88	13.33	-30.5	-33.8	12.7	5.41e-05	0	42	102	1048576	21	5264
2026-01-23 10:49:19.64	337.92	13.23	-30.5	-33.7	12.8	8.85e-05	0	42	102	1048576	21	5236
2026-01-23 10:49:20.65	337.95	13.13	-30.4	-33.5	12.9	6.48e-05	0	42	102	1048576	21	5141
2026-01-23 10:49:21.66	337.98	13.04	-30.5	-33.7	12.8	5.79e-05	0	42	102	1048576	21	5217
2026-01-23 10:49:22.66	338.02	12.94	-30.4	-33.6	12.8	7.55e-05	0	42	102	1048576	21	5194
2026-01-23 10:49:23.67	338.05	12.84	-30.4	-33.5	12.9	5.79e-05	0	42	102	1048576	21	5163
2026-01-23 10:49:24.68	338.08	12.75	-30.4	-33.6	12.8	6.63e-05	0	42	102	1048576	21	5189
2026-01-23 10:49:25.69	338.11	12.65	-30.5	-33.7	12.7	7.09e-05	0	42	102	1048576	21	5234
2026-01-23 10:49:26.70	338.15	12.56	-30.5	-33.7	12.7	7.01e-05	0	42	102	1048576	21	5242
2026-01-23 10:49:27.70	338.18	12.46	-30.5	-33.8	12.7	7.85e-05	0	42	102	1048576	21	5269
2026-01-23 10:49:28.70	338.21	12.37	-30.5	-33.9	12.5	9.30e-05	0	42	102	1048576	21	5335
2026-01-23 10:49:29.71	338.24	12.27	-30.5	-33.9	12.6	1.40e-04	0	42	102	1048576	21	5321
2026-01-23 10:49:30.71	338.27	12.18	-30.5	-33.9	12.6	9.15e-05	0	42	102	1048576	21	5330
2026-01-23 10:49:31.72	338.31	12.08	-30.7	-34.3	12.3	1.57e-04	0	42	102	1048576	21	5501
2026-01-23 10:49:32.72	338.34	11.99	-30.7	-34.4	12.2	2.39e-04	0	42	102	1048576	21	5504
2026-01-23 10:49:33.72	338.37	11.90	-30.7	-34.4	12.2	2.04e-04	0	42	102	1048576	21	5548
2026-01-23 10:49:34.72	338.40	11.81	-30.7	-34.6	12.1	2.55e-04	0	42	102	1048576	21	5591
2026-01-23 10:49:35.73	338.43	11.71	-30.8	-34.8	11.9	3.76e-04	0	42	102	1048576	21	5713
2026-01-23 10:49:36.72	338.46	11.62	-30.8	-34.9	11.8	5.84e-04	0	42	102	1048576	21	5722
2026-01-23 10:49:37.72	338.49	11.53	-30.7	-34.5	12.1	3.62e-04	0	42	102	1048576	21	5571
2026-01-23 10:49:38.73	338.52	11.44	-30.7	-34.5	12.1	2.43e-04	0	42	102	1048576	21	5560
2026-01-23 10:49:39.73	338.55	11.35	-30.7	-34.4	12.2	2.53e-04	0	42	102	1048576	21	5527
2026-01-23 10:49:40.74	338.58	11.26	-30.9	-35.0	11.7	4.20e-04	0	42	102	1048576	21	5792
2026-01-23 10:49:41.74	338.61	11.17	-30.8	-34.8	11.9	5.65e-04	0	42	102	1048576	21	5688
2026-01-23 10:49:42.75	338.64	11.08	-30.6	-34.2	12.3	2.62e-04	0	42	102	1048576	21	5452
2026-01-23 10:49:43.75	338.67	10.99	-30.5	-33.8	12.5	1.16e-04	0	42	102	1048576	21	5294
2026-01-23 10:49:44.76	338.70	10.90	-30.3	-33.5	12.8	6.48e-05	0	42	102	1048576	21	5150
2026-01-23 10:49:45.76	338.73	10.81	-30.3	-33.5	12.8	6.79e-05	0	42	102	1048576	21	5153
2026-01-23 10:49:46.77	338.75	10.72	-30.3	-33.4	12.8	7.01e-05	0	42	102	1048576	21	5133
2026-01-23 10:49:47.78	338.78	10.64	-30.3	-33.4	12.8	7.17e-05	0	42	102	1048576	21	5119
2026-01-23 10:49:48.78	338.81	10.55	-30.4	-33.5	12.7	9.07e-05	0	42	102	1048576	21	5170
2026-01-23 10:49:49.79	338.84	10.46	-30.5	-34.0	12.4	1.05e-04	0	42	102	1048576	21	5354
2026-01-23 10:49:50.79	338.87	10.37	-30.4	-33.8	12.5	1.26e-04	0	42	102	1048576	21	5284
2026-01-23 10:49:51.80	338.90	10.29	-30.3	-33.5	12.7	9.38e-05	0	42	102	1048576	21	5177
2026-01-23 10:49:52.80	338.93	10.20	-30.3	-33.3	12.9	5.72e-05	0	42	102	1048576	21	5082
2026-01-23 10:49:53.81	338.95	10.11	-30.2	-33.1	12.9	5.34e-05	0	42	102	1048576	21	5022
2026-01-23 10:49:54.81	338.98	10.03	-30.2	-33.2	12.9	3.66e-05	0	42	102	1048576	21	5052
2026-01-23 10:49:55.81	339.01	9.94	-30.2	-33.1	12.9	4.50e-05	0	42	102	1048576	21	5021
2026-01-23 10:49:56.82	339.04	9.86	-30.2	-33.2	12.9	6.86e-05	0	42	102	1048576	21	5057
2026-01-23 10:49:57.82	339.06	9.77	-30.2	-33.2	12.8	5.03e-05	0	42	102	1048576	21	5077
2026-01-23 10:49:58.83	339.09	9.69	-30.3	-33.3	12.8	5.03e-05	0	42	102	1048576	21	5092
2026-01-23 10:49:59.84	339.12	9.60	-30.4	-33.6	12.6	6.48e-05	0	42	102	1048576	21	5212
2026-01-23 10:50:00.84	339.14	9.52	-30.2	-33.2	12.8	7.93e-05	0	42	102	1048576	21	5081
2026-01-23 10:50:01.85	339.17	9.43	-30.1	-32.9	13.0	4.73e-05	0	42	102	1048576	21	4957
2026-01-23 10:50:02.85	339.20	9.35	-30.1	-32.8	13.1	3.81e-05	0	42	102	1048576	21	4932
2026-01-23 10:50:03.86	339.23	9.26	-30.2	-33.1	12.9	3.50e-05	0	42	102	1048576	21	5043
2026-01-23 10:50:04.87	339.25	9.18	-30.1	-32.9	13.0	4.57e-05	0	42	102	1048576	21	4957
2026-01-23 10:50:05.87	339.28	9.10	-30.2	-33.0	12.9	4.88e-05	0	42	102	1048576	21	5009
2026-01-23 10:50:06.88	339.30	9.01	-30.2	-33.1	12.8	4.65e-05	0	42	102	1048576	21	5031
2026-01-23 10:50:07.89	339.33	8.93	-30.2	-33.3	12.7	6.94e-05	0	42	102	1048576	21	5109
2026-01-23 10:50:08.89	339.36	8.85	-30.2	-33.2	12.8	8.23e-05	0	42	102	1048576	21	5063
2026-01-23 10:50:09.89	339.38	8.77	-30.3	-33.3	12.6	8.16e-05	0	42	102	1048576	21	5125
2026-01-23 10:50:10.89	339.41	8.69	-30.4	-33.9	12.3	1.62e-04	0	42	102	1048576	21	5347
2026-01-23 10:50:11.90	339.43	8.61	-30.5	-34.1	12.1	2.22e-04	0	42	102	1048576	21	5425
2026-01-23 10:50:12.90	339.46	8.53	-30.5	-34.0	12.1	2.77e-04	0	42	102	1048576	21	5424
2026-01-23 10:50:13.91	339.48	8.44	-30.5	-34.2	12.0	3.23e-04	0	42	102	1048576	21	5502
2026-01-23 10:50:14.91	339.51	8.36	-30.5	-34.1	12.0	3.69e-04	0	42	102	1048576	21	5467
2026-01-23 10:50:15.92	339.53	8.28	-30.5	-34.1	12.0	3.11e-04	0	42	102	1048576	21	5461
2026-01-23 10:50:16.92	339.56	8.20	-30.6	-34.3	11.9	3.81e-04	0	42	102	1048576	21	5529
2026-01-23 10:50:17.93	339.58	8.12	-30.3	-33.7	12.3	2.63e-04	0	42	102	1048576	21	5275
2026-01-23 10:50:18.93	339.61	8.04	-30.3	-33.6	12.4	1.49e-04	0	42	102	1048576	21	5243
2026-01-23 10:50:19.94	339.63	7.96	-30.2	-33.4	12.5	1.17e-04	0	42	102	1048576	21	5159
2026-01-23 10:50:20.95	339.66	7.88	-30.2	-33.3	12.6	1.01e-04	0	42	102	1048576	21	5116
2026-01-23 10:50:21.96	339.68	7.81	-30.3	-33.6	12.3	1.39e-04	0	42	102	1048576	21	5257
2026-01-23 10:50:22.96	339.71	7.73	-30.3	-33.7	12.3	1.38e-04	0	42	102	1048576	21	5291
2026-01-23 10:50:23.96	339.73	7.65	-30.3	-33.5	12.4	1.83e-04	0	42	102	1048576	21	5208
2026-01-23 10:50:24.97	339.76	7.57	-30.5	-34.0	12.1	2.19e-04	0	42	102	1048576	21	5419
2026-01-23 10:50:25.98	339.78	7.49	-30.4	-33.8	12.2	3.44e-04	0	42	102	1048576	21	5347
2026-01-23 10:50:26.98	339.80	7.41	-30.3	-33.5	12.3	2.19e-04	0	42	102	1048576	21	5227
2026-01-23 10:50:27.99	339.83	7.34	-30.4	-33.8	12.1	2.86e-04	0	42	102	1048576	21	5345
2026-01-23 10:50:29.00	339.85	7.26	-30.4	-33.8	12.1	2.10e-04	0	42	102	1048576	21	5350
2026-01-23 10:50:30.00	339.88	7.18	-30.4	-34.0	12.0	2.81e-04	0	42	102	1048576	21	5418
2026-01-23 10:50:31.01	339.90	7.11	-30.6	-34.3	11.7	3.84e-04	0	42	102	1048576	21	5569
2026-01-23 10:50:32.01	339.92	7.03	-33.4	-47.7	3.8	1.46e+00	0	42	104	1048576	26	18551
2026-01-23 10:50:33.02	339.95	6.95	-33.8	-48.1	3.8	1.49e+00	0	42	104	1048576	27	18729
2026-01-23 10:50:34.02	339.97	6.88	-33.9	-47.9	3.8	1.49e+00	0	42	104	1048576	28	18046

#Closed at: 2026-01-23 10:50:34
#Recorded file [1 MB]: D:/data/31010_260123_134514.dat