passes_logs/2026/01/23/R2M6_AANII_01/R2M6_AANII_01__20260123_022622_NOAA_20_JPSS-1_rec.log

#Pass ID: 20260123_022622_NOAA 20 (JPSS-1)
#Satellite: NOAA 20 (JPSS-1)
#Configuration: NOAA 20
#almurnet v.1.7.20240730
#Start time: 2026-01-23 02:26:23

#Version: 2.2.20231116
#Station: R2M6_AANII_01
#Location: 30.233357 lon 59.946436 lat
#TLE: 1 43013U 17073A   26022.44900781  .00000193  00000+0  11233-3 0  9999
#TLE: 2 43013  98.7645 323.3100 0001197  28.8413 331.2829 14.19538802423792

#Time	Az	El	Level	Level2	SNR	BER	BlckErr	Temp	State	Recorded	gain1	gain2
2026-01-23 02:26:23.77	9.76	7.06	-32.7	-42.6	4.1	1.45e+00	0	42	0	0	25	11206
2026-01-23 02:26:24.77	9.66	7.12	-32.7	-41.8	4.3	1.41e+00	0	42	104	0	25	10334
2026-01-23 02:26:25.78	9.56	7.19	-32.7	-41.6	5.1	6.53e-01	0	42	0	0	25	10093
2026-01-23 02:26:26.78	9.47	7.25	-32.7	-41.7	5.1	6.46e-01	0	42	0	1048576	25	10164
2026-01-23 02:26:27.79	9.37	7.31	-31.2	-40.3	5.2	6.31e-01	0	42	0	3145728	24	10273
2026-01-23 02:26:28.78	9.27	7.37	-32.7	-41.7	5.2	5.79e-01	0	42	0	5242880	24	10232
2026-01-23 02:26:29.79	9.17	7.43	-32.7	-41.5	5.2	5.87e-01	0	42	0	7340032	25	9962
2026-01-23 02:26:30.79	9.07	7.50	-32.6	-40.9	5.5	5.01e-01	0	42	0	9437184	25	9364
2026-01-23 02:26:31.80	8.97	7.56	-32.4	-40.3	6.2	3.39e-01	0	42	0	10485760	24	8871
2026-01-23 02:26:32.79	8.87	7.62	-32.3	-39.4	6.9	2.16e-01	0	42	0	12582912	24	8159
2026-01-23 02:26:33.79	8.76	7.68	-32.1	-38.4	7.6	1.00e-01	0	42	0	14680064	24	7413
2026-01-23 02:26:34.79	8.66	7.74	-31.9	-37.9	8.5	5.48e-02	0	42	0	16777216	23	7182
2026-01-23 02:26:35.79	8.56	7.81	-31.8	-37.3	9.0	3.07e-02	0	42	0	17825792	23	6821
2026-01-23 02:26:36.79	8.46	7.87	-31.6	-36.8	9.4	2.11e-02	0	42	0	19922944	23	6529
2026-01-23 02:26:37.79	8.35	7.93	-31.5	-36.3	9.8	1.10e-02	0	42	0	22020096	23	6265
2026-01-23 02:26:38.79	8.25	7.99	-31.4	-36.0	10.1	7.66e-03	0	42	0	24117248	23	6077
2026-01-23 02:26:39.80	8.14	8.06	-31.4	-36.3	10.3	5.74e-03	0	42	0	26214400	22	6336
2026-01-23 02:26:40.80	8.04	8.12	-31.3	-36.1	10.3	8.43e-03	0	42	0	27262976	22	6265
2026-01-23 02:26:41.81	7.93	8.18	-31.3	-36.2	10.4	4.63e-03	0	42	0	29360128	22	6286
2026-01-23 02:26:42.81	7.83	8.24	-31.3	-36.2	10.3	5.05e-03	0	42	0	31457280	22	6291
2026-01-23 02:26:43.82	7.72	8.31	-31.4	-36.5	10.1	9.64e-03	0	42	0	33554432	22	6434
2026-01-23 02:26:44.82	7.61	8.37	-31.4	-36.4	10.1	8.16e-03	0	42	0	35651584	22	6416
2026-01-23 02:26:45.83	7.51	8.43	-31.4	-36.3	10.2	5.81e-03	0	42	0	36700160	22	6359
2026-01-23 02:26:46.83	7.40	8.50	-31.4	-36.3	10.2	5.42e-03	0	42	0	38797312	22	6365
2026-01-23 02:26:47.84	7.29	8.56	-31.4	-36.2	10.4	5.37e-03	0	42	0	40894464	22	6290
2026-01-23 02:26:48.84	7.18	8.62	-31.4	-36.5	10.1	6.15e-03	0	42	0	42991616	22	6465
2026-01-23 02:26:49.84	7.07	8.69	-31.4	-36.4	10.2	6.74e-03	0	42	0	45088768	22	6381
2026-01-23 02:26:50.84	6.96	8.75	-31.4	-36.5	10.1	5.81e-03	0	42	0	46137344	22	6434
2026-01-23 02:26:51.84	6.85	8.81	-31.5	-36.3	9.9	1.09e-02	0	42	0	48234496	23	6247
2026-01-23 02:26:52.84	6.74	8.88	-31.6	-36.6	9.6	9.44e-03	0	43	0	50331648	23	6394
2026-01-23 02:26:53.84	6.63	8.94	-31.5	-36.4	9.8	1.03e-02	0	43	0	52428800	23	6273
2026-01-23 02:26:54.85	6.52	9.00	-31.6	-36.6	9.7	1.26e-02	0	42	0	54525952	23	6383
2026-01-23 02:26:55.85	6.41	9.07	-31.5	-36.3	10.0	9.75e-03	0	43	0	55574528	23	6221
2026-01-23 02:26:56.86	6.29	9.13	-31.6	-36.4	9.9	8.88e-03	0	43	0	57671680	23	6270
2026-01-23 02:26:57.86	6.18	9.19	-31.6	-36.4	9.9	1.11e-02	0	43	0	59768832	23	6256
2026-01-23 02:26:58.87	6.07	9.26	-31.5	-36.3	10.0	1.09e-02	0	43	0	61865984	23	6230
2026-01-23 02:26:59.87	5.95	9.32	-31.6	-36.4	9.9	7.79e-03	0	43	0	62914560	23	6259
2026-01-23 02:27:00.86	5.84	9.39	-31.6	-36.3	10.0	1.12e-02	0	42	0	65011712	23	6226
2026-01-23 02:27:01.87	5.72	9.45	-31.4	-36.4	10.2	9.25e-03	0	43	0	67108864	22	6402
2026-01-23 02:27:02.87	5.61	9.51	-31.4	-36.4	10.3	5.11e-03	0	43	0	69206016	22	6399
2026-01-23 02:27:03.87	5.49	9.58	-31.6	-36.3	10.0	1.01e-02	0	43	0	71303168	23	6244
2026-01-23 02:27:04.88	5.37	9.64	-31.7	-36.9	9.5	1.44e-02	0	43	0	73400320	23	6533
2026-01-23 02:27:05.88	5.26	9.71	-31.6	-36.4	10.0	1.15e-02	0	43	0	74448896	23	6254
2026-01-23 02:27:06.88	5.14	9.77	-31.4	-36.2	10.5	5.75e-03	0	43	0	76546048	22	6253
2026-01-23 02:27:07.89	5.02	9.83	-31.3	-35.9	10.8	6.17e-03	0	43	0	78643200	22	6092
2026-01-23 02:27:08.88	4.90	9.90	-31.2	-35.7	10.9	2.51e-03	0	43	0	80740352	22	6017
2026-01-23 02:27:09.88	4.78	9.96	-31.3	-35.8	10.8	5.40e-03	0	43	0	81788928	22	6084
2026-01-23 02:27:10.88	4.66	10.03	-31.3	-35.8	10.8	5.32e-03	0	43	0	83886080	22	6042
2026-01-23 02:27:11.89	4.54	10.09	-31.4	-36.1	10.6	3.23e-03	0	43	0	85983232	22	6219
2026-01-23 02:27:12.90	4.42	10.16	-31.3	-36.0	10.7	6.02e-03	0	43	0	88080384	22	6148
2026-01-23 02:27:13.91	4.30	10.22	-31.3	-35.8	10.9	5.36e-03	0	43	0	90177536	22	6049
2026-01-23 02:27:14.91	4.17	10.28	-31.2	-35.7	10.9	2.37e-03	0	43	0	91226112	22	6001
2026-01-23 02:27:15.92	4.05	10.35	-31.2	-35.6	10.9	4.70e-03	0	43	0	93323264	22	5966
2026-01-23 02:27:16.92	3.93	10.41	-31.1	-35.3	11.1	4.84e-03	0	43	0	95420416	22	5824
2026-01-23 02:27:17.92	3.80	10.48	-31.3	-35.7	10.9	2.13e-03	0	43	0	97517568	22	6015
2026-01-23 02:27:18.91	3.68	10.54	-31.2	-35.4	11.1	4.90e-03	0	43	0	99614720	22	5841
2026-01-23 02:27:19.92	3.55	10.61	-31.2	-35.4	11.1	4.34e-03	0	43	0	100663296	22	5853
2026-01-23 02:27:20.92	3.43	10.67	-31.3	-35.7	10.9	1.73e-03	0	43	0	102760448	22	5993
2026-01-23 02:27:21.93	3.30	10.74	-31.3	-35.7	10.9	4.96e-03	0	43	0	104857600	22	6024
2026-01-23 02:27:22.93	3.18	10.80	-31.2	-35.7	11.0	4.75e-03	0	43	0	106954752	22	5984
2026-01-23 02:27:23.93	3.05	10.87	-31.2	-35.6	11.0	2.16e-03	0	43	0	109051904	22	5950
2026-01-23 02:27:24.94	2.92	10.93	-31.3	-36.0	10.8	3.67e-03	0	43	0	110100480	22	6121
2026-01-23 02:27:25.94	2.79	11.00	-31.3	-35.8	10.9	5.10e-03	0	43	0	112197632	22	6032
2026-01-23 02:27:26.94	2.66	11.06	-31.2	-35.6	11.0	2.33e-03	0	43	0	114294784	22	5966
2026-01-23 02:27:27.94	2.53	11.13	-31.2	-35.6	11.0	1.93e-03	0	43	0	116391936	22	5952
2026-01-23 02:27:28.95	2.40	11.19	-31.3	-35.7	11.0	4.87e-03	0	43	0	118489088	22	5981
2026-01-23 02:27:29.95	2.27	11.26	-31.3	-35.7	11.0	1.90e-03	0	43	0	119537664	22	6000
2026-01-23 02:27:30.95	2.14	11.32	-31.2	-35.6	11.1	4.77e-03	0	43	0	121634816	22	5925
2026-01-23 02:27:31.95	2.01	11.39	-31.2	-35.3	11.3	1.34e-03	0	43	0	123731968	22	5804
2026-01-23 02:27:32.95	1.88	11.45	-31.2	-35.4	11.2	1.41e-03	0	43	0	125829120	22	5848
2026-01-23 02:27:33.95	1.74	11.52	-31.1	-35.1	11.4	3.76e-03	0	43	0	126877696	22	5727
2026-01-23 02:27:34.95	1.61	11.58	-31.1	-35.2	11.3	1.09e-03	0	43	0	128974848	22	5779
2026-01-23 02:27:35.96	1.47	11.65	-31.2	-35.3	11.3	1.33e-03	0	43	0	131072000	22	5802
2026-01-23 02:27:36.96	1.34	11.71	-31.1	-35.2	11.4	3.76e-03	0	43	0	133169152	22	5741
2026-01-23 02:27:37.96	1.20	11.78	-31.1	-35.2	11.3	3.52e-03	0	43	0	135266304	22	5741
2026-01-23 02:27:38.96	1.07	11.84	-31.1	-35.0	11.5	9.25e-04	0	43	0	136314880	22	5686
2026-01-23 02:27:39.97	0.93	11.91	-31.0	-34.9	11.6	3.28e-03	0	43	0	138412032	22	5609
2026-01-23 02:27:40.97	0.79	11.97	-31.0	-34.9	11.6	3.03e-03	0	43	0	140509184	22	5601
2026-01-23 02:27:41.97	0.65	12.04	-31.0	-34.7	11.8	5.05e-04	0	43	0	142606336	22	5518
2026-01-23 02:27:42.98	0.51	12.10	-31.1	-35.2	11.4	7.16e-04	0	43	0	144703488	22	5743
2026-01-23 02:27:43.98	0.38	12.17	-30.9	-34.6	11.8	3.28e-03	0	43	0	145752064	22	5511
2026-01-23 02:27:44.98	0.24	12.23	-30.8	-34.3	12.0	3.23e-04	0	43	0	147849216	22	5359
2026-01-23 02:27:45.99	0.09	12.30	-30.8	-34.7	12.1	2.94e-04	0	43	0	149946368	21	5655
2026-01-23 02:27:46.99	359.95	12.36	-30.9	-35.0	11.9	2.83e-03	0	43	0	152043520	21	5774
2026-01-23 02:27:47.99	359.81	12.43	-30.8	-34.7	12.1	4.16e-04	0	43	0	154140672	21	5648
2026-01-23 02:27:49.00	359.67	12.49	-30.8	-34.8	12.0	3.02e-04	0	43	0	155189248	21	5687
2026-01-23 02:27:50.00	359.52	12.56	-30.8	-34.6	12.2	2.37e-04	0	44	0	157286400	21	5597
2026-01-23 02:27:51.00	359.38	12.62	-30.8	-34.6	12.2	3.60e-04	0	43	0	159383552	21	5591
2026-01-23 02:27:52.01	359.24	12.69	-30.8	-34.8	12.1	2.25e-04	0	44	0	161480704	21	5661
2026-01-23 02:27:53.01	359.09	12.75	-30.8	-34.7	12.2	2.85e-04	0	43	0	163577856	21	5624
2026-01-23 02:27:54.02	358.94	12.82	-30.8	-34.6	12.2	2.22e-04	0	43	0	164626432	21	5610
2026-01-23 02:27:55.02	358.80	12.88	-30.9	-34.8	12.1	2.08e-04	0	43	0	166723584	21	5684
2026-01-23 02:27:56.02	358.65	12.95	-30.8	-34.6	12.2	2.39e-04	0	43	0	168820736	21	5606
2026-01-23 02:27:57.02	358.50	13.01	-30.8	-34.8	12.1	2.27e-04	0	43	0	170917888	21	5654
2026-01-23 02:27:58.03	358.35	13.08	-30.8	-34.6	12.2	2.59e-03	0	44	0	173015040	21	5586
2026-01-23 02:27:59.03	358.20	13.15	-30.8	-34.6	12.2	2.10e-04	0	43	0	174063616	21	5606
2026-01-23 02:28:00.03	358.05	13.21	-30.9	-34.9	12.0	2.91e-04	0	43	0	176160768	21	5706
2026-01-23 02:28:01.04	357.90	13.28	-30.8	-34.7	12.2	2.82e-04	0	44	0	178257920	21	5610
2026-01-23 02:28:02.03	357.75	13.34	-30.8	-34.8	12.1	2.36e-04	0	43	0	180355072	21	5651
2026-01-23 02:28:03.04	357.60	13.41	-30.9	-34.9	12.1	3.03e-04	0	44	0	181403648	21	5709
2026-01-23 02:28:04.04	357.45	13.47	-30.8	-34.8	12.1	2.89e-04	0	44	0	183500800	21	5653
2026-01-23 02:28:05.04	357.29	13.53	-30.8	-34.7	12.2	2.54e-04	0	43	0	185597952	21	5635
2026-01-23 02:28:06.04	357.14	13.60	-31.0	-35.1	12.0	3.28e-04	0	44	0	187695104	21	5797
2026-01-23 02:28:07.03	356.99	13.66	-31.0	-35.1	11.9	4.06e-04	0	43	0	189792256	21	5808
2026-01-23 02:28:08.04	356.83	13.73	-31.1	-35.1	11.6	5.13e-04	0	44	0	190840832	22	5697
2026-01-23 02:28:09.05	356.67	13.79	-31.3	-35.6	11.3	1.06e-03	0	43	0	192937984	22	5903
2026-01-23 02:28:10.05	356.52	13.86	-31.1	-35.1	11.6	9.03e-04	0	43	0	195035136	22	5687
2026-01-23 02:28:11.05	356.36	13.92	-31.1	-35.0	11.7	6.29e-04	0	43	0	197132288	22	5625
2026-01-23 02:28:12.05	356.20	13.99	-31.1	-34.9	11.8	5.40e-04	0	44	0	199229440	22	5598
2026-01-23 02:28:13.05	356.04	14.05	-31.1	-35.1	11.6	5.73e-04	0	44	0	200278016	22	5707
2026-01-23 02:28:14.06	355.88	14.12	-31.2	-35.3	11.5	7.88e-04	0	43	0	202375168	22	5754
2026-01-23 02:28:15.06	355.72	14.18	-31.1	-35.0	11.7	7.22e-04	0	43	0	204472320	22	5654
2026-01-23 02:28:16.07	355.56	14.25	-31.1	-35.1	11.6	6.07e-04	0	44	0	206569472	22	5672
2026-01-23 02:28:17.07	355.40	14.31	-31.1	-34.9	11.8	5.55e-04	0	44	0	208666624	22	5587
2026-01-23 02:28:18.07	355.24	14.37	-31.1	-34.9	11.8	4.44e-04	0	44	0	209715200	22	5604
2026-01-23 02:28:19.07	355.07	14.44	-31.2	-35.1	11.4	5.21e-04	0	44	0	211812352	22	5689
2026-01-23 02:28:20.08	354.91	14.50	-31.1	-35.1	11.6	5.67e-04	0	44	0	213909504	22	5687
2026-01-23 02:28:21.08	354.75	14.57	-31.3	-35.6	11.3	8.34e-04	0	44	0	216006656	22	5909
2026-01-23 02:28:22.08	354.58	14.63	-31.2	-35.1	11.6	2.55e-03	0	44	0	218103808	22	5680
2026-01-23 02:28:23.09	354.41	14.70	-31.1	-35.1	11.7	6.12e-04	0	44	0	219152384	22	5677
2026-01-23 02:28:24.10	354.24	14.76	-31.1	-35.1	11.6	5.74e-04	0	44	0	221249536	22	5663
2026-01-23 02:28:25.10	354.08	14.82	-31.2	-35.2	11.6	6.20e-04	0	44	0	223346688	22	5737
2026-01-23 02:28:26.10	353.91	14.89	-31.3	-35.4	11.4	1.04e-03	0	44	0	225443840	22	5817
2026-01-23 02:28:27.11	353.74	14.95	-31.4	-35.7	11.2	1.22e-03	0	44	0	226492416	22	5967
2026-01-23 02:28:28.11	353.57	15.01	-31.3	-35.7	11.3	1.19e-03	0	44	0	228589568	22	5938
2026-01-23 02:28:29.11	353.40	15.08	-31.4	-35.8	11.2	1.36e-03	0	44	0	230686720	22	5990
2026-01-23 02:28:30.11	353.23	15.14	-31.5	-36.0	11.1	1.53e-03	0	44	0	232783872	22	6095
2026-01-23 02:28:31.10	353.06	15.20	-31.4	-35.8	11.2	1.52e-03	0	43	0	234881024	22	5999
2026-01-23 02:28:32.11	352.89	15.27	-31.4	-35.8	11.3	1.34e-03	0	44	0	235929600	22	5972
2026-01-23 02:28:33.11	352.71	15.33	-31.4	-36.0	11.1	2.89e-03	0	44	0	238026752	22	6085
2026-01-23 02:28:34.11	352.54	15.39	-31.4	-35.8	11.2	1.49e-03	0	44	0	240123904	22	6003
2026-01-23 02:28:35.12	352.36	15.46	-31.4	-35.7	11.3	1.43e-03	0	44	0	242221056	22	5960
2026-01-23 02:28:36.12	352.19	15.52	-31.5	-35.7	11.0	2.99e-03	0	44	0	244318208	23	5814
2026-01-23 02:28:37.13	352.01	15.58	-31.5	-35.8	10.9	2.23e-03	0	44	0	245366784	23	5867
2026-01-23 02:28:38.13	351.83	15.64	-31.4	-35.4	11.1	1.59e-03	0	44	0	247463936	23	5675
2026-01-23 02:28:39.13	351.65	15.71	-31.4	-35.9	11.2	1.94e-03	0	44	0	249561088	22	6021
2026-01-23 02:28:40.14	351.47	15.77	-31.4	-35.8	11.2	1.94e-03	0	44	0	251658240	22	5988
2026-01-23 02:28:41.14	351.30	15.83	-31.4	-36.0	11.2	1.52e-03	0	44	0	253755392	22	6065
2026-01-23 02:28:42.14	351.12	15.89	-31.5	-35.5	11.1	1.58e-03	0	44	0	254803968	23	5752
2026-01-23 02:28:43.15	350.93	15.96	-31.5	-35.8	10.9	3.21e-03	0	44	0	256901120	23	5868
2026-01-23 02:28:44.15	350.75	16.02	-31.5	-35.7	11.0	2.23e-03	0	44	0	258998272	23	5812
2026-01-23 02:28:45.16	350.57	16.08	-31.4	-35.6	11.3	1.42e-03	0	44	0	261095424	22	5903
2026-01-23 02:28:46.17	350.38	16.14	-31.3	-35.4	11.6	2.60e-03	0	44	0	263192576	22	5801
2026-01-23 02:28:47.17	350.20	16.20	-31.3	-35.4	11.6	8.00e-04	0	44	0	264241152	22	5768
2026-01-23 02:28:48.18	350.01	16.26	-31.1	-35.0	11.9	4.34e-04	0	44	0	266338304	22	5593
2026-01-23 02:28:49.18	349.83	16.33	-31.1	-34.9	12.0	2.48e-03	0	44	0	268435456	22	5545
2026-01-23 02:28:50.18	349.64	16.39	-31.1	-34.9	11.9	5.43e-04	0	44	0	270532608	22	5571
2026-01-23 02:28:51.18	349.46	16.45	-31.1	-34.7	12.1	2.31e-03	0	44	0	272629760	22	5500
2026-01-23 02:28:52.19	349.27	16.51	-31.0	-34.5	12.2	2.43e-04	0	44	0	273678336	22	5413
2026-01-23 02:28:53.19	349.08	16.57	-30.9	-34.4	12.3	3.11e-04	0	44	0	275775488	22	5355
2026-01-23 02:28:54.20	348.89	16.63	-30.9	-34.8	12.3	1.70e-03	0	44	0	277872640	21	5625
2026-01-23 02:28:55.20	348.70	16.69	-30.9	-34.7	12.4	1.51e-03	0	44	0	279969792	21	5601
2026-01-23 02:28:56.21	348.50	16.75	-30.8	-34.6	12.4	1.25e-04	0	44	0	282066944	21	5542
2026-01-23 02:28:57.21	348.31	16.81	-30.8	-34.5	12.5	5.80e-04	0	44	0	283115520	21	5529
2026-01-23 02:28:58.22	348.12	16.87	-30.7	-34.1	12.8	5.26e-04	0	44	0	285212672	21	5345
2026-01-23 02:28:59.22	347.93	16.93	-30.7	-34.1	12.8	7.17e-05	0	44	0	287309824	21	5345
2026-01-23 02:29:00.22	347.73	16.99	-30.7	-34.2	12.7	2.67e-04	0	44	0	289406976	21	5395
2026-01-23 02:29:01.22	347.54	17.04	-30.5	-33.6	13.1	2.21e-04	0	44	0	291504128	21	5167
2026-01-23 02:29:02.22	347.34	17.10	-30.5	-33.5	13.3	2.21e-05	0	44	0	292552704	21	5105
2026-01-23 02:29:03.21	347.15	17.16	-30.4	-33.4	13.3	1.17e-04	0	44	0	294649856	21	5084
2026-01-23 02:29:04.21	346.95	17.22	-30.3	-33.2	13.4	1.30e-04	0	44	0	296747008	21	5003
2026-01-23 02:29:05.22	346.75	17.28	-30.3	-33.0	13.6	6.10e-06	0	44	0	298844160	21	4937
2026-01-23 02:29:06.22	346.55	17.34	-30.2	-33.3	13.7	4.00e-04	0	44	0	299892736	20	5140
2026-01-23 02:29:07.23	346.35	17.39	-30.1	-33.2	13.8	8.56e-04	0	44	0	301989888	20	5089
2026-01-23 02:29:08.24	346.15	17.45	-30.1	-32.9	13.9	3.00e-06	0	44	0	304087040	20	5013
2026-01-23 02:29:09.24	345.95	17.51	-30.0	-32.8	14.0	1.82e-03	0	44	0	306184192	20	4980
2026-01-23 02:29:10.25	345.75	17.57	-30.1	-32.9	14.0	1.92e-03	0	44	0	308281344	20	5005
2026-01-23 02:29:11.25	345.54	17.62	-30.0	-32.7	14.1	1.50e-06	0	44	0	309329920	20	4911
2026-01-23 02:29:12.25	345.34	17.68	-30.0	-32.8	14.0	2.06e-03	0	44	0	311427072	20	4973
2026-01-23 02:29:13.25	345.14	17.73	-30.1	-33.0	13.9	2.20e-06	0	44	0	313524224	20	5024
2026-01-23 02:29:14.26	344.93	17.79	-30.0	-32.7	14.1	2.20e-06	0	44	0	315621376	20	4918
2026-01-23 02:29:15.26	344.73	17.85	-30.0	-33.1	14.3	2.33e-03	0	44	0	317718528	19	5165
2026-01-23 02:29:16.27	344.52	17.90	-30.0	-32.6	14.1	2.27e-03	0	44	0	318767104	20	4901
2026-01-23 02:29:17.26	344.31	17.96	-30.1	-33.1	13.8	1.50e-06	0	44	0	320864256	20	5059
2026-01-23 02:29:18.27	344.10	18.01	-30.2	-33.4	13.7	2.30e-03	0	44	0	322961408	20	5178
2026-01-23 02:29:19.27	343.90	18.07	-30.1	-32.9	14.0	2.14e-03	0	44	0	325058560	20	5003
2026-01-23 02:29:20.28	343.68	18.12	-30.1	-32.9	13.9	1.50e-06	0	44	0	327155712	20	5013
2026-01-23 02:29:21.28	343.47	18.18	-30.1	-33.1	13.8	2.18e-03	0	44	0	328204288	20	5061
2026-01-23 02:29:22.28	343.26	18.23	-30.1	-33.0	13.9	2.44e-03	0	44	0	330301440	20	5015
2026-01-23 02:29:23.28	343.05	18.28	-30.0	-32.7	14.1	1.50e-06	0	44	0	332398592	20	4908
2026-01-23 02:29:24.29	342.84	18.34	-30.0	-32.6	14.1	7.00e-07	0	44	0	334495744	20	4893
2026-01-23 02:29:25.30	342.62	18.39	-29.9	-32.4	14.3	2.54e-03	0	44	0	336592896	20	4829
2026-01-23 02:29:26.30	342.41	18.44	-29.8	-32.1	14.5	1.50e-06	0	44	0	337641472	20	4714
2026-01-23 02:29:27.31	342.19	18.50	-29.8	-32.6	14.6	7.00e-07	0	44	0	339738624	19	4987
2026-01-23 02:29:28.31	341.98	18.55	-29.9	-32.9	14.4	1.50e-06	0	44	0	341835776	19	5085
2026-01-23 02:29:29.31	341.76	18.60	-29.9	-32.9	14.4	7.00e-07	0	44	0	343932928	19	5098
2026-01-23 02:29:30.31	341.55	18.65	-29.9	-32.5	14.2	1.50e-06	0	44	0	346030080	20	4867
2026-01-23 02:29:31.32	341.33	18.70	-30.0	-32.6	14.2	1.50e-06	0	44	0	347078656	20	4894
2026-01-23 02:29:32.33	341.11	18.75	-30.0	-32.7	14.1	3.00e-06	0	44	0	349175808	20	4919
2026-01-23 02:29:33.33	340.89	18.80	-30.0	-32.9	14.0	2.20e-06	0	44	0	351272960	20	4972
2026-01-23 02:29:34.34	340.67	18.85	-30.0	-32.6	14.2	7.00e-07	0	44	0	353370112	20	4894
2026-01-23 02:29:35.33	340.45	18.90	-30.0	-32.7	14.2	7.00e-07	0	44	0	355467264	20	4909
2026-01-23 02:29:36.32	340.23	18.95	-30.0	-32.7	14.1	2.54e-03	0	44	0	356515840	20	4931
2026-01-23 02:29:37.33	340.00	19.00	-30.0	-32.8	14.1	7.00e-07	0	44	0	358612992	20	4952
2026-01-23 02:29:38.33	339.78	19.05	-30.1	-33.0	13.9	2.20e-06	0	44	0	360710144	20	5023
2026-01-23 02:29:39.33	339.56	19.10	-30.2	-33.2	13.9	3.80e-06	0	44	0	362807296	20	5094
2026-01-23 02:29:40.33	339.33	19.15	-30.0	-32.8	14.1	2.20e-06	0	44	0	363855872	20	4939
2026-01-23 02:29:41.34	339.11	19.19	-29.9	-32.6	14.2	1.50e-06	0	44	0	365953024	20	4870
2026-01-23 02:29:42.35	338.88	19.24	-29.9	-32.4	14.4	1.50e-06	0	44	0	368050176	20	4802
2026-01-23 02:29:43.35	338.65	19.29	-29.9	-32.8	14.4	2.63e-03	0	44	0	370147328	19	5069
2026-01-23 02:29:44.35	338.43	19.33	-29.9	-32.9	14.5	1.50e-06	0	44	0	372244480	19	5073
2026-01-23 02:29:45.35	338.20	19.38	-29.8	-32.6	14.6	0.00e+00	0	44	0	373293056	19	4979
2026-01-23 02:29:46.36	337.97	19.43	-29.8	-32.6	14.6	0.00e+00	0	44	0	375390208	19	4997
2026-01-23 02:29:47.36	337.74	19.47	-29.8	-32.6	14.6	2.20e-06	0	44	0	377487360	19	5002
2026-01-23 02:29:48.36	337.51	19.52	-29.6	-32.1	14.9	0.00e+00	0	44	0	379584512	19	4806
2026-01-23 02:29:49.36	337.28	19.56	-29.5	-31.9	15.1	0.00e+00	0	44	0	381681664	19	4737
2026-01-23 02:29:50.36	337.05	19.60	-29.4	-31.7	15.1	0.00e+00	0	44	0	382730240	19	4683
2026-01-23 02:29:51.36	336.82	19.65	-29.5	-31.9	15.0	7.00e-07	0	44	0	384827392	19	4753
2026-01-23 02:29:52.37	336.58	19.69	-29.5	-31.9	15.0	0.00e+00	0	44	0	386924544	19	4751
2026-01-23 02:29:53.37	336.35	19.73	-29.5	-31.9	15.1	0.00e+00	0	44	0	389021696	19	4743
2026-01-23 02:29:54.38	336.12	19.78	-29.6	-32.1	14.9	0.00e+00	0	44	0	391118848	19	4812
2026-01-23 02:29:55.37	335.88	19.82	-29.4	-31.7	15.2	0.00e+00	0	44	0	392167424	19	4680
2026-01-23 02:29:56.38	335.65	19.86	-28.1	-30.6	15.1	0.00e+00	0	44	0	394264576	18	4829
2026-01-23 02:29:57.39	335.41	19.90	-29.5	-32.3	13.9	0.00e+00	0	44	0	396361728	18	4972
2026-01-23 02:29:58.40	335.17	19.94	-29.4	-32.2	15.2	0.00e+00	0	44	0	398458880	18	4948
2026-01-23 02:29:59.40	334.93	19.98	-29.4	-32.2	13.6	0.00e+00	0	44	0	400556032	18	4951
2026-01-23 02:30:00.41	334.69	20.02	-29.4	-32.1	13.7	2.33e-03	0	44	0	401604608	18	4923
2026-01-23 02:30:01.41	334.46	20.06	-29.3	-31.8	15.4	7.00e-07	0	44	0	403701760	18	4822
2026-01-23 02:30:02.42	334.21	20.10	-29.2	-31.7	15.4	0.00e+00	0	44	0	405798912	18	4786
2026-01-23 02:30:03.42	333.97	20.14	-29.3	-31.8	15.4	0.00e+00	0	44	0	407896064	18	4811
2026-01-23 02:30:04.42	333.74	20.18	-29.3	-31.9	15.4	0.00e+00	0	44	0	409993216	18	4850
2026-01-23 02:30:05.42	333.49	20.21	-29.3	-31.8	15.4	0.00e+00	0	44	0	411041792	18	4810
2026-01-23 02:30:06.43	333.25	20.25	-29.2	-31.5	15.6	0.00e+00	0	44	0	413138944	18	4732
2026-01-23 02:30:07.43	333.01	20.29	-29.3	-31.8	15.4	0.00e+00	0	44	0	415236096	18	4822
2026-01-23 02:30:08.43	332.77	20.32	-29.3	-31.9	15.4	0.00e+00	0	44	0	417333248	18	4843
2026-01-23 02:30:09.44	332.52	20.36	-29.4	-32.1	15.3	0.00e+00	0	44	0	419430400	18	4909
2026-01-23 02:30:10.44	332.28	20.39	-29.5	-31.9	15.1	0.00e+00	0	44	0	420478976	19	4750
2026-01-23 02:30:11.44	332.03	20.43	-29.5	-32.3	15.1	2.30e-03	0	44	0	422576128	18	4985
2026-01-23 02:30:12.45	331.79	20.46	-29.5	-32.3	15.2	0.00e+00	0	44	0	424673280	18	4977
2026-01-23 02:30:13.45	331.54	20.50	-29.6	-32.1	14.9	0.00e+00	0	44	0	426770432	19	4792
2026-01-23 02:30:14.45	331.30	20.53	-29.6	-32.1	15.0	2.14e-03	0	44	0	427819008	19	4793
2026-01-23 02:30:15.46	331.05	20.56	-29.4	-32.2	15.2	0.00e+00	0	44	0	429916160	18	4966
2026-01-23 02:30:16.46	330.80	20.59	-29.5	-31.9	15.1	0.00e+00	0	44	0	432013312	19	4729
2026-01-23 02:30:17.46	330.56	20.62	-29.6	-32.1	15.0	2.38e-03	0	44	0	434110464	19	4808
2026-01-23 02:30:18.46	330.31	20.65	-29.6	-32.1	15.0	2.23e-03	0	44	0	436207616	19	4802
2026-01-23 02:30:19.47	330.06	20.69	-29.7	-32.3	14.8	1.50e-06	0	44	0	437256192	19	4860
2026-01-23 02:30:20.47	329.81	20.71	-29.7	-32.3	14.9	0.00e+00	0	44	0	439353344	19	4862
2026-01-23 02:30:21.47	329.56	20.74	-29.7	-32.4	14.7	2.22e-03	0	44	0	441450496	19	4901
2026-01-23 02:30:22.47	329.31	20.77	-29.8	-32.6	14.6	0.00e+00	0	44	0	443547648	19	4994
2026-01-23 02:30:23.47	329.06	20.80	-29.8	-32.7	14.6	0.00e+00	0	44	0	445644800	19	5004
2026-01-23 02:30:24.47	328.81	20.83	-29.6	-32.2	14.8	2.43e-03	0	44	0	446693376	19	4855
2026-01-23 02:30:25.48	328.56	20.86	-29.6	-32.2	14.9	0.00e+00	0	44	0	448790528	19	4856
2026-01-23 02:30:26.48	328.30	20.88	-29.7	-32.5	14.7	0.00e+00	0	44	0	450887680	19	4926
2026-01-23 02:30:27.48	328.05	20.91	-29.8	-32.7	14.6	2.15e-03	0	44	0	452984832	19	5007
2026-01-23 02:30:28.49	327.80	20.93	-29.9	-33.0	14.4	1.50e-06	0	44	0	455081984	19	5127
2026-01-23 02:30:29.49	327.55	20.96	-29.9	-32.6	14.3	2.20e-03	0	44	0	456130560	20	4877
2026-01-23 02:30:30.49	327.29	20.98	-30.0	-32.7	14.2	3.00e-06	0	44	0	458227712	20	4916
2026-01-23 02:30:31.50	327.04	21.01	-30.1	-33.0	14.0	1.29e-05	0	44	0	460324864	20	5024
2026-01-23 02:30:32.51	326.78	21.03	-30.1	-33.0	14.0	2.14e-03	0	44	0	462422016	20	5013
2026-01-23 02:30:33.51	326.53	21.05	-30.2	-33.3	13.8	2.41e-03	0	44	0	464519168	20	5121
2026-01-23 02:30:34.52	326.27	21.07	-30.2	-33.3	13.8	2.67e-05	0	44	0	465567744	20	5142
2026-01-23 02:30:35.53	326.01	21.10	-30.3	-33.4	13.7	2.40e-03	0	44	0	467664896	20	5170
2026-01-23 02:30:36.53	325.76	21.12	-30.3	-33.5	13.7	2.29e-03	0	44	0	469762048	20	5190
2026-01-23 02:30:37.53	325.50	21.14	-30.3	-33.5	13.7	1.30e-04	0	44	0	471859200	20	5219
2026-01-23 02:30:38.53	325.24	21.16	-30.3	-33.6	13.6	2.25e-03	0	44	0	473956352	20	5227
2026-01-23 02:30:39.53	324.99	21.17	-30.4	-33.9	13.5	2.08e-03	0	44	0	475004928	20	5344
2026-01-23 02:30:40.53	324.73	21.19	-30.4	-33.4	13.4	2.23e-04	0	44	0	477102080	21	5048
2026-01-23 02:30:41.53	324.47	21.21	-30.4	-33.8	13.5	2.07e-03	0	44	0	479199232	20	5309
2026-01-23 02:30:42.53	324.22	21.23	-30.4	-33.8	13.5	2.04e-03	0	44	0	481296384	20	5324
2026-01-23 02:30:43.54	323.96	21.24	-30.5	-33.6	13.3	2.89e-04	0	44	0	482344960	21	5150
2026-01-23 02:30:44.54	323.70	21.26	-30.6	-33.7	13.3	1.67e-05	0	44	0	484442112	21	5165
2026-01-23 02:30:45.55	323.44	21.28	-30.6	-33.8	13.1	2.00e-03	0	44	0	486539264	21	5198
2026-01-23 02:30:46.55	323.18	21.29	-30.7	-34.0	13.0	2.35e-04	0	44	0	488636416	21	5302
2026-01-23 02:30:47.55	322.92	21.30	-30.7	-34.1	12.9	2.29e-03	0	44	0	490733568	21	5340
2026-01-23 02:30:48.56	322.66	21.32	-30.7	-34.2	12.9	2.25e-03	0	44	0	491782144	21	5348
2026-01-23 02:30:49.57	322.40	21.33	-30.7	-34.1	13.0	2.17e-04	0	44	0	493879296	21	5314
2026-01-23 02:30:50.57	322.14	21.34	-30.7	-34.0	13.1	2.22e-03	0	44	0	495976448	21	5267
2026-01-23 02:30:51.57	321.88	21.35	-30.7	-34.0	13.0	4.80e-05	0	44	0	498073600	21	5295
2026-01-23 02:30:52.57	321.62	21.37	-30.8	-34.2	12.9	5.13e-04	0	44	0	500170752	21	5378
2026-01-23 02:30:53.58	321.36	21.38	-30.7	-34.2	12.9	2.38e-03	0	44	0	501219328	21	5364
2026-01-23 02:30:54.58	321.10	21.39	-30.7	-34.1	13.0	4.34e-05	0	44	0	503316480	21	5304
2026-01-23 02:30:55.59	320.83	21.39	-30.6	-33.8	13.1	2.89e-05	0	44	0	505413632	21	5201
2026-01-23 02:30:56.59	320.57	21.40	-30.6	-33.8	13.2	6.87e-04	0	44	0	507510784	21	5206
2026-01-23 02:30:57.59	320.31	21.41	-30.7	-34.0	13.0	9.31e-04	0	44	0	509607936	21	5276
2026-01-23 02:30:58.59	320.05	21.42	-30.8	-34.5	12.7	4.88e-05	0	44	0	510656512	21	5469
2026-01-23 02:30:59.59	319.79	21.42	-30.8	-34.5	12.7	2.25e-03	0	44	0	512753664	21	5482
2026-01-23 02:31:00.59	319.53	21.43	-30.7	-34.1	13.0	2.44e-03	0	44	0	514850816	21	5307
2026-01-23 02:31:01.60	319.27	21.44	-30.5	-33.6	13.3	1.98e-05	0	44	0	516947968	21	5133
2026-01-23 02:31:02.60	319.01	21.44	-30.6	-33.7	13.3	2.89e-05	0	44	0	519045120	21	5153
2026-01-23 02:31:03.61	318.74	21.44	-30.5	-33.5	13.3	2.34e-03	0	44	0	520093696	21	5092
2026-01-23 02:31:04.61	318.48	21.45	-30.5	-33.6	13.3	8.07e-04	0	44	0	522190848	21	5111
2026-01-23 02:31:05.61	318.22	21.45	-30.6	-33.8	13.2	1.98e-05	0	44	0	524288000	21	5189
2026-01-23 02:31:06.62	317.96	21.45	-30.7	-34.0	13.1	2.59e-05	0	44	0	526385152	21	5277
2026-01-23 02:31:07.62	317.69	21.45	-30.7	-34.0	13.0	5.13e-04	0	44	0	527433728	21	5279
2026-01-23 02:31:08.62	317.43	21.46	-30.7	-34.1	13.0	3.89e-05	0	44	0	529530880	21	5319
2026-01-23 02:31:09.62	317.17	21.46	-30.7	-34.0	13.0	3.43e-05	0	44	0	531628032	21	5282
2026-01-23 02:31:10.62	316.91	21.46	-30.7	-34.0	13.0	4.06e-04	0	44	0	533725184	21	5276
2026-01-23 02:31:11.63	316.65	21.45	-30.7	-34.0	13.0	4.95e-05	0	44	0	535822336	21	5291
2026-01-23 02:31:12.63	316.38	21.45	-30.7	-34.0	13.0	3.05e-05	0	44	0	537919488	21	5295
2026-01-23 02:31:13.64	316.12	21.45	-30.7	-34.0	13.1	4.57e-05	0	44	0	538968064	21	5302
2026-01-23 02:31:14.64	315.86	21.45	-30.5	-33.7	13.3	2.36e-03	0	44	0	541065216	21	5157
2026-01-23 02:31:15.64	315.60	21.44	-30.5	-33.6	13.3	1.52e-05	0	44	0	543162368	21	5113
2026-01-23 02:31:16.64	315.34	21.44	-30.5	-33.6	13.4	9.10e-06	0	44	0	545259520	21	5120
2026-01-23 02:31:17.64	315.08	21.43	-30.5	-33.4	13.4	1.44e-05	0	44	0	546308096	21	5055
2026-01-23 02:31:18.64	314.81	21.43	-30.3	-33.5	13.7	5.30e-06	0	44	0	548405248	20	5193
2026-01-23 02:31:19.65	314.55	21.42	-30.3	-33.4	13.8	5.30e-06	0	44	0	550502400	20	5160
2026-01-23 02:31:20.65	314.29	21.42	-30.2	-33.3	13.9	3.80e-06	0	44	0	552599552	20	5111
2026-01-23 02:31:21.65	314.03	21.41	-30.2	-33.1	14.0	2.54e-03	0	44	0	554696704	20	5050
2026-01-23 02:31:22.66	313.77	21.40	-30.2	-33.1	14.0	3.80e-06	0	44	0	555745280	20	5047
2026-01-23 02:31:23.67	313.50	21.39	-30.1	-32.8	14.1	2.20e-06	0	44	0	557842432	20	4954
2026-01-23 02:31:24.67	313.24	21.38	-30.0	-32.6	14.2	7.00e-07	0	44	0	559939584	20	4876
2026-01-23 02:31:25.67	312.98	21.37	-30.0	-32.5	14.3	7.00e-07	0	44	0	562036736	20	4845
2026-01-23 02:31:26.67	312.72	21.36	-30.0	-32.7	14.2	2.20e-06	0	44	0	564133888	20	4918
2026-01-23 02:31:27.68	312.46	21.35	-29.9	-32.5	14.3	7.00e-07	0	44	0	565182464	20	4828
2026-01-23 02:31:28.68	312.20	21.34	-29.8	-32.2	14.5	7.00e-07	0	44	0	567279616	20	4749
2026-01-23 02:31:29.68	311.94	21.33	-29.9	-32.9	14.4	0.00e+00	0	44	0	569376768	19	5075
2026-01-23 02:31:30.67	311.69	21.31	-29.9	-33.0	14.5	0.00e+00	0	44	0	571473920	19	5111
2026-01-23 02:31:31.68	311.42	21.30	-29.9	-32.9	14.5	1.50e-06	0	44	0	573571072	19	5075
2026-01-23 02:31:32.68	311.16	21.29	-29.9	-32.8	14.5	1.50e-06	0	44	0	574619648	19	5050
2026-01-23 02:31:33.68	310.91	21.27	-29.9	-32.9	14.5	7.00e-07	0	44	0	576716800	19	5073
2026-01-23 02:31:34.68	310.65	21.26	-29.9	-33.0	14.4	3.00e-06	0	44	0	578813952	19	5119
2026-01-23 02:31:35.68	310.39	21.24	-30.0	-32.7	14.1	7.00e-07	0	44	0	580911104	20	4941
2026-01-23 02:31:36.68	310.13	21.22	-29.9	-32.5	14.4	1.50e-06	0	44	0	583008256	20	4852
2026-01-23 02:31:37.68	309.88	21.21	-29.9	-32.8	13.6	1.50e-06	0	44	0	584056832	19	5049
2026-01-23 02:31:38.69	309.62	21.19	-29.8	-32.7	12.8	7.00e-07	0	44	0	586153984	19	5025
2026-01-23 02:31:39.69	309.36	21.17	-29.7	-32.4	14.8	7.00e-07	0	44	0	588251136	19	4910
2026-01-23 02:31:40.69	309.10	21.15	-29.7	-32.3	14.7	0.00e+00	0	44	0	590348288	19	4872
2026-01-23 02:31:41.70	308.84	21.13	-29.8	-32.7	14.5	1.50e-06	0	44	0	591396864	19	5005
2026-01-23 02:31:42.71	308.58	21.11	-29.6	-32.2	14.8	0.00e+00	0	44	0	593494016	19	4832
2026-01-23 02:31:43.71	308.33	21.09	-29.4	-32.1	15.2	7.00e-07	0	44	0	595591168	18	4915
2026-01-23 02:31:44.71	308.07	21.07	-29.5	-32.0	15.0	0.00e+00	0	44	0	597688320	19	4763
2026-01-23 02:31:45.71	307.82	21.05	-29.8	-32.7	14.6	7.00e-07	0	44	0	599785472	19	5009
2026-01-23 02:31:46.72	307.56	21.02	-29.8	-32.6	14.6	7.00e-07	0	44	0	600834048	19	4994
2026-01-23 02:31:47.72	307.31	21.00	-29.5	-31.9	15.0	0.00e+00	0	44	0	602931200	19	4754
2026-01-23 02:31:48.71	307.06	20.98	-29.4	-31.7	15.2	0.00e+00	0	44	0	605028352	19	4667
2026-01-23 02:31:49.71	306.80	20.95	-29.3	-31.8	15.4	2.14e-03	0	44	0	607125504	18	4806
2026-01-23 02:31:50.71	306.55	20.93	-29.3	-31.8	15.4	0.00e+00	0	44	0	609222656	18	4823
2026-01-23 02:31:51.70	306.30	20.90	-29.3	-31.9	15.3	0.00e+00	0	44	0	610271232	18	4870
2026-01-23 02:31:52.70	306.05	20.88	-29.1	-31.5	15.6	7.00e-04	0	44	0	612368384	18	4721
2026-01-23 02:31:53.71	305.79	20.85	-28.9	-31.0	15.9	0.00e+00	0	44	0	614465536	18	4569
2026-01-23 02:31:54.71	305.54	20.82	-28.9	-30.8	16.0	0.00e+00	0	44	0	616562688	18	4500
2026-01-23 02:31:55.71	305.29	20.80	-28.9	-31.4	15.9	0.00e+00	0	44	0	618659840	17	4815
2026-01-23 02:31:56.72	305.04	20.77	-29.0	-31.6	15.8	1.29e-05	0	44	0	619708416	17	4869
2026-01-23 02:31:57.72	304.79	20.74	-29.0	-31.3	15.7	0.00e+00	0	44	0	621805568	18	4647
2026-01-23 02:31:58.73	304.54	20.71	-29.2	-31.7	15.5	0.00e+00	0	44	0	623902720	18	4777
2026-01-23 02:31:59.73	304.29	20.68	-29.1	-31.3	15.6	8.54e-04	0	44	0	625999872	18	4669
2026-01-23 02:32:00.74	304.04	20.65	-29.0	-31.1	15.9	2.33e-04	0	44	0	628097024	18	4591
2026-01-23 02:32:01.75	303.79	20.62	-29.0	-31.6	15.8	0.00e+00	0	44	0	629145600	17	4854
2026-01-23 02:32:02.75	303.54	20.59	-29.0	-31.1	15.8	1.60e-03	0	44	0	631242752	18	4589
2026-01-23 02:32:03.75	303.29	20.55	-29.1	-31.3	15.7	2.18e-04	0	44	0	633339904	18	4662
2026-01-23 02:32:04.76	303.04	20.52	-29.1	-31.4	15.6	0.00e+00	0	44	0	635437056	18	4693
2026-01-23 02:32:05.76	302.80	20.49	-29.2	-31.7	15.4	0.00e+00	0	44	0	636485632	18	4785
2026-01-23 02:32:06.76	302.55	20.45	-29.2	-31.7	15.5	2.56e-04	0	44	0	638582784	18	4778
2026-01-23 02:32:07.76	302.31	20.42	-29.2	-31.7	15.5	6.19e-04	0	44	0	640679936	18	4786
2026-01-23 02:32:08.76	302.06	20.39	-29.2	-31.8	15.4	0.00e+00	0	44	0	642777088	18	4805
2026-01-23 02:32:09.77	301.82	20.35	-29.4	-32.2	15.1	4.22e-04	0	44	0	644874240	18	4976
2026-01-23 02:32:10.77	301.58	20.31	-29.5	-31.8	15.0	2.04e-03	0	44	0	646971392	19	4711
2026-01-23 02:32:11.77	301.33	20.28	-29.6	-32.0	14.9	2.32e-03	0	44	0	648019968	19	4789
2026-01-23 02:32:12.78	301.09	20.24	-29.6	-32.1	14.8	4.61e-04	0	44	0	650117120	19	4794
2026-01-23 02:32:13.79	300.84	20.20	-29.7	-32.4	14.7	2.51e-03	0	44	0	652214272	19	4923
2026-01-23 02:32:14.79	300.60	20.17	-29.8	-32.7	14.5	2.51e-03	0	44	0	654311424	19	5015
2026-01-23 02:32:15.78	300.37	20.13	-29.9	-33.0	14.3	0.00e+00	0	44	0	655360000	19	5131
2026-01-23 02:32:16.79	300.12	20.09	-30.0	-33.1	14.2	2.66e-03	0	44	0	657457152	19	5159
2026-01-23 02:32:17.79	299.88	20.05	-29.9	-33.0	14.3	2.42e-03	0	44	0	659554304	19	5133
2026-01-23 02:32:18.79	299.65	20.01	-30.1	-33.0	14.0	6.06e-04	0	44	0	661651456	20	5012
2026-01-23 02:32:19.80	299.41	19.97	-30.3	-33.6	13.5	2.27e-03	0	44	0	663748608	20	5239
2026-01-23 02:32:20.80	299.17	19.93	-30.2	-33.3	13.6	2.43e-03	0	44	0	664797184	20	5151
2026-01-23 02:32:21.80	298.93	19.89	-30.0	-32.9	14.0	2.63e-04	0	44	0	666894336	20	4976
2026-01-23 02:32:22.80	298.70	19.85	-30.0	-32.8	14.0	2.53e-03	0	44	0	668991488	20	4973
2026-01-23 02:32:23.80	298.46	19.81	-30.0	-32.8	14.0	2.56e-03	0	44	0	671088640	20	4956
2026-01-23 02:32:24.81	298.22	19.77	-30.0	-32.8	14.0	2.12e-04	0	44	0	673185792	20	4975
2026-01-23 02:32:25.81	297.99	19.72	-30.0	-32.9	13.9	2.78e-03	0	44	0	674234368	20	4994
2026-01-23 02:32:26.81	297.76	19.68	-30.2	-33.2	13.8	2.67e-03	0	44	0	676331520	20	5101
2026-01-23 02:32:27.82	297.52	19.64	-30.1	-33.2	13.7	3.13e-04	0	44	0	678428672	20	5097
2026-01-23 02:32:28.82	297.29	19.59	-30.2	-33.3	13.7	2.77e-03	0	44	0	680525824	20	5134
2026-01-23 02:32:29.82	297.06	19.55	-30.2	-33.4	13.6	9.10e-06	0	44	0	682622976	20	5185
2026-01-23 02:32:30.83	296.83	19.50	-30.2	-33.2	13.8	4.20e-04	0	44	0	683671552	20	5099
2026-01-23 02:32:31.83	296.60	19.46	-30.2	-33.4	13.6	2.94e-03	0	44	0	685768704	20	5173
2026-01-23 02:32:32.84	296.36	19.41	-30.1	-33.1	13.8	2.88e-03	0	44	0	687865856	20	5085
2026-01-23 02:32:33.84	296.14	19.37	-30.1	-33.1	13.8	2.59e-04	0	44	0	689963008	20	5065
2026-01-23 02:32:34.84	295.91	19.32	-30.2	-33.2	13.7	2.84e-03	0	44	0	692060160	20	5121
2026-01-23 02:32:35.84	295.68	19.27	-30.2	-33.2	13.7	2.67e-03	0	44	0	693108736	20	5129
2026-01-23 02:32:36.84	295.45	19.23	-30.2	-33.3	13.6	9.10e-06	0	44	0	695205888	20	5138
2026-01-23 02:32:37.85	295.23	19.18	-30.2	-33.4	13.6	2.71e-03	0	44	0	697303040	20	5174
2026-01-23 02:32:38.85	295.00	19.13	-30.3	-33.6	13.5	3.14e-03	0	44	0	699400192	20	5269
2026-01-23 02:32:39.85	294.78	19.08	-30.3	-33.7	13.4	2.27e-04	0	44	0	700448768	20	5289
2026-01-23 02:32:40.85	294.55	19.04	-30.4	-33.9	13.2	1.14e-05	0	44	0	702545920	20	5378
2026-01-23 02:32:41.86	294.33	18.99	-30.4	-33.9	13.2	2.98e-03	0	44	0	704643072	20	5397
2026-01-23 02:32:42.86	294.11	18.94	-30.3	-33.7	13.4	1.24e-04	0	44	0	706740224	20	5301
2026-01-23 02:32:43.87	293.88	18.89	-30.3	-33.6	13.4	1.22e-05	0	44	0	708837376	20	5262
2026-01-23 02:32:44.87	293.66	18.84	-30.3	-33.7	13.3	2.92e-03	0	44	0	709885952	20	5296
2026-01-23 02:32:45.88	293.44	18.79	-30.1	-33.2	13.6	1.63e-04	0	44	0	711983104	20	5100
2026-01-23 02:32:46.89	293.22	18.74	-30.0	-32.7	13.9	3.80e-06	0	44	0	714080256	20	4942
2026-01-23 02:32:47.89	293.00	18.69	-30.1	-32.9	13.8	3.00e-06	0	44	0	716177408	20	5016
2026-01-23 02:32:48.89	292.78	18.63	-30.2	-33.3	13.6	6.80e-06	0	44	0	718274560	20	5139
2026-01-23 02:32:49.90	292.56	18.58	-30.2	-33.4	13.5	2.75e-03	0	44	0	719323136	20	5192
2026-01-23 02:32:50.89	292.35	18.53	-30.3	-33.7	13.3	1.60e-05	0	44	0	721420288	20	5307
2026-01-23 02:32:51.90	292.13	18.48	-30.4	-33.7	13.3	1.90e-05	0	44	0	723517440	20	5319
2026-01-23 02:32:52.90	291.92	18.43	-30.4	-34.0	13.1	2.58e-03	0	44	0	725614592	20	5434
2026-01-23 02:32:53.90	291.70	18.37	-30.4	-33.9	13.2	2.21e-05	0	44	0	727711744	20	5390
2026-01-23 02:32:54.90	291.49	18.32	-30.5	-34.1	13.1	3.05e-05	0	44	0	728760320	20	5473
2026-01-23 02:32:55.90	291.27	18.27	-30.5	-33.8	12.9	2.30e-03	0	44	0	730857472	21	5242
2026-01-23 02:32:56.90	291.06	18.21	-30.6	-33.9	12.9	2.75e-03	0	44	0	732954624	21	5269
2026-01-23 02:32:57.90	290.85	18.16	-30.4	-33.5	13.1	3.20e-05	0	44	0	735051776	21	5129
2026-01-23 02:32:58.90	290.64	18.11	-30.5	-34.1	13.0	2.82e-05	0	44	0	737148928	20	5461
2026-01-23 02:32:59.91	290.43	18.05	-30.4	-33.5	13.0	3.03e-03	0	44	0	738197504	21	5139
2026-01-23 02:33:00.91	290.22	18.00	-30.6	-34.0	12.8	5.87e-05	0	44	0	740294656	21	5305
2026-01-23 02:33:01.91	290.01	17.94	-30.6	-34.0	12.7	7.24e-05	0	44	0	742391808	21	5339
2026-01-23 02:33:02.91	289.81	17.89	-30.8	-34.5	12.4	9.76e-05	0	44	0	744488960	21	5526
2026-01-23 02:33:03.92	289.60	17.83	-30.7	-34.2	12.6	1.14e-04	0	44	0	745537536	21	5399
2026-01-23 02:33:04.93	289.39	17.77	-30.5	-33.8	12.9	5.49e-05	0	44	0	747634688	21	5232
2026-01-23 02:33:05.93	289.18	17.72	-30.4	-33.9	13.2	3.12e-05	0	44	0	749731840	20	5398
2026-01-23 02:33:06.94	288.98	17.66	-30.4	-34.0	13.1	5.90e-04	0	44	0	751828992	20	5432
2026-01-23 02:33:07.94	288.77	17.60	-30.5	-33.9	12.8	5.34e-05	0	44	0	753926144	21	5267
2026-01-23 02:33:08.94	288.57	17.55	-30.5	-33.8	12.8	5.34e-05	0	44	0	754974720	21	5254
2026-01-23 02:33:09.94	288.37	17.49	-30.6	-34.0	12.7	4.80e-05	0	44	0	757071872	21	5305
2026-01-23 02:33:10.94	288.17	17.43	-30.4	-33.5	13.0	4.34e-05	0	44	0	759169024	21	5121
2026-01-23 02:33:11.95	287.97	17.37	-30.4	-33.9	13.1	2.82e-05	0	44	0	761266176	20	5387
2026-01-23 02:33:12.96	287.76	17.32	-30.4	-33.9	13.1	2.44e-05	0	44	0	763363328	20	5394
2026-01-23 02:33:13.96	287.57	17.26	-30.5	-34.1	12.9	3.81e-05	0	44	0	764411904	20	5478
2026-01-23 02:33:14.97	287.37	17.20	-30.5	-34.1	12.9	5.26e-05	0	44	0	766509056	20	5477
2026-01-23 02:33:15.97	287.17	17.14	-30.5	-34.1	12.9	4.19e-05	0	44	0	768606208	20	5488
2026-01-23 02:33:16.98	286.97	17.08	-30.4	-34.0	13.0	4.34e-05	0	44	0	770703360	20	5438
2026-01-23 02:33:17.99	286.77	17.02	-30.5	-33.8	12.8	4.65e-05	0	44	0	772800512	21	5264
2026-01-23 02:33:18.99	286.58	16.96	-30.6	-34.2	12.6	7.17e-05	0	44	0	773849088	21	5393
2026-01-23 02:33:19.99	286.38	16.91	-30.5	-33.7	12.9	6.86e-05	0	44	0	775946240	21	5195
2026-01-23 02:33:21.00	286.19	16.85	-30.3	-33.6	13.3	2.89e-05	0	44	0	778043392	20	5292
2026-01-23 02:33:22.01	285.99	16.79	-30.3	-33.7	13.2	2.36e-05	0	44	0	780140544	20	5308
2026-01-23 02:33:23.01	285.80	16.73	-29.3	-32.7	13.1	1.98e-05	0	44	0	782237696	20	5299
2026-01-23 02:33:24.01	285.61	16.67	-30.2	-33.4	13.3	1.17e-04	0	44	0	783286272	20	5215
2026-01-23 02:33:25.01	285.42	16.61	-30.3	-33.6	12.0	2.67e-05	0	44	0	785383424	20	5303
2026-01-23 02:33:26.02	285.23	16.54	-30.3	-33.8	12.0	2.28e-05	0	44	0	787480576	20	5355
2026-01-23 02:33:27.02	285.04	16.48	-30.3	-33.7	13.2	2.51e-05	0	44	0	789577728	20	5326
2026-01-23 02:33:28.02	284.85	16.42	-30.4	-34.1	12.9	4.65e-05	0	44	0	791674880	20	5485
2026-01-23 02:33:29.03	284.66	16.36	-30.4	-34.1	12.9	3.81e-05	0	44	0	792723456	20	5481
2026-01-23 02:33:30.03	284.48	16.30	-30.6	-34.2	12.5	5.41e-05	0	44	0	794820608	21	5405
2026-01-23 02:33:31.04	284.29	16.24	-30.9	-34.9	12.0	2.70e-03	0	44	0	796917760	21	5712
2026-01-23 02:33:32.04	284.10	16.18	-30.7	-34.5	12.3	2.34e-04	0	44	0	799014912	21	5536
2026-01-23 02:33:33.05	283.92	16.12	-30.6	-34.2	12.5	1.44e-04	0	44	0	801112064	21	5422
2026-01-23 02:33:34.05	283.73	16.05	-30.6	-33.9	12.7	2.92e-03	0	44	0	802160640	21	5311
2026-01-23 02:33:35.06	283.55	15.99	-30.5	-33.9	12.7	1.70e-03	0	44	0	804257792	21	5292
2026-01-23 02:33:36.07	283.36	15.93	-30.6	-34.1	12.6	8.85e-05	0	44	0	806354944	21	5386
2026-01-23 02:33:37.07	283.18	15.87	-30.6	-34.2	12.5	9.99e-05	0	44	0	808452096	21	5416
2026-01-23 02:33:38.08	283.00	15.81	-30.8	-34.8	12.0	2.58e-03	0	44	0	810549248	21	5702
2026-01-23 02:33:39.08	282.82	15.74	-30.8	-34.6	12.2	2.84e-04	0	44	0	811597824	21	5618
2026-01-23 02:33:40.08	282.64	15.68	-31.0	-35.2	11.8	3.63e-04	0	44	0	813694976	21	5885
2026-01-23 02:33:41.09	282.46	15.62	-30.8	-34.8	12.0	1.97e-03	0	44	0	815792128	21	5683
2026-01-23 02:33:42.10	282.28	15.55	-30.7	-34.3	12.3	2.52e-04	0	44	0	817889280	21	5476
2026-01-23 02:33:43.10	282.11	15.49	-30.5	-33.9	12.6	1.36e-04	0	44	0	819986432	21	5314
2026-01-23 02:33:44.10	281.93	15.43	-30.5	-33.9	12.6	2.51e-03	0	44	0	821035008	21	5295
2026-01-23 02:33:45.10	281.76	15.37	-30.4	-33.6	12.8	1.99e-04	0	44	0	823132160	21	5184
2026-01-23 02:33:46.10	281.58	15.30	-30.3	-33.9	12.9	4.50e-05	0	44	0	825229312	20	5403
2026-01-23 02:33:47.10	281.41	15.24	-30.4	-34.0	12.9	4.19e-05	0	44	0	827326464	20	5438
2026-01-23 02:33:48.11	281.23	15.18	-30.4	-33.9	13.0	2.39e-04	0	44	0	828375040	20	5428
2026-01-23 02:33:49.11	281.06	15.11	-30.5	-33.9	12.6	2.58e-03	0	44	0	830472192	21	5319
2026-01-23 02:33:50.11	280.89	15.05	-30.5	-33.9	12.6	8.46e-05	0	44	0	832569344	21	5320
2026-01-23 02:33:51.11	280.72	14.99	-30.7	-34.4	12.2	4.07e-04	0	44	0	834666496	21	5525
2026-01-23 02:33:52.11	280.55	14.92	-30.8	-34.7	12.1	3.32e-03	0	44	0	836763648	21	5655
2026-01-23 02:33:53.12	280.38	14.86	-30.8	-34.6	12.0	3.14e-03	0	44	0	837812224	21	5619
2026-01-23 02:33:54.12	280.21	14.79	-30.8	-34.7	12.0	4.96e-04	0	44	0	839909376	21	5639
2026-01-23 02:33:55.13	280.04	14.73	-30.7	-34.5	12.2	2.81e-03	0	44	0	842006528	21	5580
2026-01-23 02:33:56.13	279.87	14.67	-30.6	-34.2	12.4	2.38e-03	0	44	0	844103680	21	5443
2026-01-23 02:33:57.13	279.71	14.60	-30.6	-34.1	12.4	1.62e-04	0	44	0	846200832	21	5413
2026-01-23 02:33:58.14	279.54	14.54	-30.4	-33.6	12.8	2.32e-03	0	44	0	847249408	21	5190
2026-01-23 02:33:59.14	279.37	14.47	-30.5	-34.3	12.7	2.80e-03	0	44	0	849346560	20	5578
2026-01-23 02:34:00.14	279.21	14.41	-30.6	-34.2	12.4	3.65e-04	0	44	0	851443712	21	5426
2026-01-23 02:34:01.14	279.05	14.34	-30.8	-34.7	12.0	3.39e-03	0	44	0	853540864	21	5635
2026-01-23 02:34:02.14	278.88	14.28	-30.6	-34.0	12.4	3.07e-03	0	44	0	855638016	21	5382
2026-01-23 02:34:03.15	278.72	14.22	-30.4	-33.6	12.7	6.38e-04	0	44	0	856686592	21	5193
2026-01-23 02:34:04.14	278.56	14.15	-30.3	-33.9	12.8	2.81e-03	0	44	0	858783744	20	5424
2026-01-23 02:34:05.15	278.40	14.09	-30.5	-33.9	12.6	2.52e-03	0	44	0	860880896	21	5306
2026-01-23 02:34:06.15	278.24	14.02	-30.6	-34.3	12.3	5.57e-04	0	44	0	862978048	21	5473
2026-01-23 02:34:07.15	278.08	13.96	-30.7	-34.6	12.1	2.28e-03	0	44	0	865075200	21	5602
2026-01-23 02:34:08.16	277.92	13.89	-30.5	-34.0	12.5	2.62e-03	0	44	0	866123776	21	5348
2026-01-23 02:34:09.16	277.76	13.83	-30.4	-33.7	12.6	2.81e-04	0	44	0	868220928	21	5234
2026-01-23 02:34:10.16	277.61	13.76	-30.4	-34.0	12.8	3.18e-03	0	44	0	870318080	20	5473
2026-01-23 02:34:11.16	277.45	13.70	-30.3	-34.0	12.8	3.24e-03	0	44	0	872415232	20	5473
2026-01-23 02:34:12.17	277.29	13.63	-30.3	-33.9	12.8	9.73e-04	0	44	0	873463808	20	5430
2026-01-23 02:34:13.17	277.14	13.57	-30.4	-34.2	12.6	3.97e-03	0	44	0	875560960	20	5568
2026-01-23 02:34:14.18	276.98	13.50	-30.3	-33.7	12.9	3.46e-03	0	44	0	877658112	20	5383
2026-01-23 02:34:15.17	276.83	13.44	-30.1	-33.4	13.1	3.05e-05	0	44	0	879755264	20	5254
2026-01-23 02:34:16.18	276.67	13.37	-30.1	-33.2	13.2	3.30e-03	0	44	0	881852416	20	5182
2026-01-23 02:34:17.18	276.52	13.31	-30.1	-33.2	13.2	3.31e-03	0	44	0	883949568	20	5172
2026-01-23 02:34:18.19	276.37	13.24	-30.0	-33.1	13.3	2.13e-05	0	44	0	884998144	20	5136
2026-01-23 02:34:19.19	276.22	13.18	-29.9	-32.8	13.5	3.13e-03	0	44	0	887095296	20	5029
2026-01-23 02:34:20.20	276.07	13.11	-29.9	-32.8	13.5	2.61e-03	0	44	0	889192448	20	5020
2026-01-23 02:34:21.19	275.92	13.05	-29.9	-32.9	13.5	2.29e-04	0	44	0	891289600	20	5045
2026-01-23 02:34:22.20	275.77	12.98	-30.0	-33.2	13.2	2.28e-05	0	44	0	892338176	20	5155
2026-01-23 02:34:23.20	275.62	12.91	-29.9	-33.2	13.6	2.24e-03	0	44	0	894435328	19	5267
2026-01-23 02:34:24.20	275.47	12.85	-30.0	-33.1	13.3	9.10e-06	0	44	0	896532480	20	5139
2026-01-23 02:34:25.20	275.33	12.78	-30.2	-33.6	12.9	3.58e-05	0	44	0	898629632	20	5325
2026-01-23 02:34:26.20	275.18	12.72	-30.0	-33.1	13.3	2.21e-05	0	44	0	900726784	20	5123
2026-01-23 02:34:27.21	275.03	12.65	-30.1	-33.3	13.2	2.10e-04	0	44	0	901775360	20	5208
2026-01-23 02:34:28.21	274.89	12.59	-30.2	-33.6	12.9	2.77e-03	0	44	0	903872512	20	5324
2026-01-23 02:34:29.21	274.74	12.52	-30.1	-33.5	13.0	3.28e-05	0	44	0	905969664	20	5276
2026-01-23 02:34:30.22	274.60	12.46	-30.2	-33.6	12.9	3.20e-04	0	44	0	908066816	20	5343
2026-01-23 02:34:31.22	274.45	12.39	-30.2	-33.5	13.0	2.34e-03	0	44	0	910163968	20	5278
2026-01-23 02:34:32.22	274.31	12.33	-30.2	-33.5	12.9	4.88e-05	0	44	0	911212544	20	5289
2026-01-23 02:34:33.21	274.17	12.26	-30.0	-33.0	13.4	1.83e-05	0	44	0	913309696	20	5085
2026-01-23 02:34:34.21	274.03	12.20	-29.9	-33.3	13.5	1.61e-03	0	44	0	915406848	19	5321
2026-01-23 02:34:35.21	273.89	12.13	-30.0	-33.4	13.5	1.65e-03	0	44	0	917504000	19	5348
2026-01-23 02:34:36.21	273.75	12.07	-29.8	-33.1	13.6	7.60e-06	0	44	0	919601152	19	5244
2026-01-23 02:34:37.22	273.61	12.00	-29.8	-33.1	13.6	8.30e-06	0	44	0	920649728	19	5237
2026-01-23 02:34:38.23	273.47	11.93	-29.9	-33.2	13.6	2.32e-03	0	44	0	922746880	19	5283
2026-01-23 02:34:39.23	273.33	11.87	-29.9	-33.1	13.6	5.30e-06	0	44	0	924844032	19	5249
2026-01-23 02:34:40.23	273.20	11.80	-29.9	-32.9	13.3	1.22e-05	0	44	0	926941184	20	5072
2026-01-23 02:34:41.23	273.06	11.74	-29.9	-33.1	13.6	2.55e-03	0	44	0	929038336	19	5249
2026-01-23 02:34:42.24	272.92	11.67	-29.8	-33.1	13.6	1.22e-05	0	44	0	930086912	19	5227
2026-01-23 02:34:43.24	272.79	11.61	-29.8	-32.9	13.7	7.60e-06	0	44	0	932184064	19	5176
2026-01-23 02:34:44.24	272.65	11.54	-29.8	-33.1	13.6	9.90e-06	0	44	0	934281216	19	5233
2026-01-23 02:34:45.25	272.52	11.48	-29.8	-33.1	13.6	2.05e-04	0	44	0	936378368	19	5236
2026-01-23 02:34:46.24	272.38	11.41	-29.9	-33.2	13.6	8.30e-06	0	44	0	937426944	19	5262
2026-01-23 02:34:47.24	272.25	11.35	-30.0	-33.4	13.4	1.60e-05	0	44	0	939524096	19	5366
2026-01-23 02:34:48.25	272.12	11.28	-29.8	-33.1	13.6	1.22e-05	0	44	0	941621248	19	5243
2026-01-23 02:34:49.25	271.98	11.22	-29.9	-33.1	13.5	3.00e-06	0	44	0	943718400	19	5256
2026-01-23 02:34:50.26	271.85	11.15	-29.9	-33.3	13.4	1.52e-05	0	44	0	945815552	19	5309
2026-01-23 02:34:51.26	271.72	11.09	-29.9	-33.2	13.5	6.80e-06	0	44	0	946864128	19	5282
2026-01-23 02:34:52.26	271.59	11.02	-29.9	-33.4	13.4	8.44e-04	0	44	0	948961280	19	5358
2026-01-23 02:34:53.26	271.46	10.96	-30.0	-33.2	13.1	2.36e-05	0	44	0	951058432	20	5191
2026-01-23 02:34:54.26	271.33	10.89	-30.2	-33.6	12.8	6.33e-05	0	44	0	953155584	20	5355
2026-01-23 02:34:55.26	271.20	10.83	-30.2	-33.6	12.8	5.79e-05	0	44	0	955252736	20	5341
2026-01-23 02:34:56.26	271.08	10.76	-30.3	-34.0	12.6	9.91e-05	0	44	0	956301312	20	5502
2026-01-23 02:34:57.26	270.95	10.70	-30.2	-33.7	12.8	6.10e-05	0	44	0	958398464	20	5374
2026-01-23 02:34:58.27	270.82	10.63	-30.2	-33.7	12.8	7.62e-05	0	44	0	960495616	20	5380
2026-01-23 02:34:59.27	270.70	10.57	-30.2	-33.7	12.7	6.94e-05	0	44	0	962592768	20	5407
2026-01-23 02:35:00.28	270.57	10.50	-30.1	-33.5	12.8	5.64e-05	0	44	0	964689920	20	5315
2026-01-23 02:35:01.28	270.44	10.44	-30.1	-33.5	12.9	3.89e-05	0	44	0	965738496	20	5297
2026-01-23 02:35:02.28	270.32	10.37	-30.1	-33.3	12.9	3.89e-05	0	44	0	967835648	20	5248
2026-01-23 02:35:03.29	270.19	10.31	-30.0	-33.2	13.1	3.28e-05	0	44	0	969932800	20	5169
2026-01-23 02:35:04.29	270.07	10.24	-29.2	-32.3	13.0	3.58e-05	0	44	0	972029952	20	5178
2026-01-23 02:35:05.29	269.95	10.18	-30.0	-33.2	13.0	4.27e-05	0	44	0	974127104	20	5192
2026-01-23 02:35:06.30	269.83	10.11	-30.0	-33.2	12.6	3.73e-05	0	44	0	975175680	20	5196
2026-01-23 02:35:07.30	269.70	10.05	-29.9	-32.8	13.0	2.44e-05	0	44	0	977272832	20	5053
2026-01-23 02:35:08.31	269.58	9.98	-29.9	-33.0	13.1	1.60e-05	0	44	0	979369984	20	5121
2026-01-23 02:35:09.30	269.46	9.92	-30.0	-33.1	13.0	3.39e-04	0	44	0	981467136	20	5159
2026-01-23 02:35:10.31	269.34	9.86	-30.0	-33.1	13.0	3.28e-05	0	44	0	982515712	20	5166
2026-01-23 02:35:11.31	269.22	9.79	-30.0	-33.3	12.9	4.27e-05	0	44	0	984612864	20	5219
2026-01-23 02:35:12.32	269.10	9.73	-30.0	-33.3	12.9	3.50e-05	0	44	0	986710016	20	5239
2026-01-23 02:35:13.32	268.98	9.66	-30.1	-33.5	12.7	6.71e-05	0	44	0	988807168	20	5329
2026-01-23 02:35:14.32	268.87	9.60	-30.1	-33.4	12.8	6.56e-05	0	44	0	990904320	20	5286
2026-01-23 02:35:15.33	268.75	9.53	-30.2	-33.7	12.6	7.85e-05	0	44	0	993001472	20	5423
2026-01-23 02:35:16.33	268.63	9.47	-30.1	-33.5	12.7	3.66e-03	0	44	0	994050048	20	5315
2026-01-23 02:35:17.34	268.51	9.41	-30.2	-33.8	12.5	8.92e-05	0	44	0	996147200	20	5454
2026-01-23 02:35:18.34	268.40	9.34	-30.2	-34.0	12.3	1.66e-04	0	44	0	998244352	20	5528
2026-01-23 02:35:19.34	268.28	9.28	-30.2	-33.8	12.4	4.62e-03	0	44	0	1000341504	20	5470
2026-01-23 02:35:20.35	268.17	9.21	-30.2	-33.9	12.4	2.28e-03	0	44	0	1001390080	20	5477
2026-01-23 02:35:21.35	268.05	9.15	-30.3	-34.1	12.2	1.69e-04	0	44	0	1003487232	20	5594
2026-01-23 02:35:22.35	267.94	9.09	-30.3	-34.3	12.1	2.37e-04	0	44	0	1005584384	20	5665
2026-01-23 02:35:23.36	267.82	9.02	-30.4	-34.4	12.0	2.25e-03	0	44	0	1007681536	20	5711
2026-01-23 02:35:24.37	267.71	8.96	-30.4	-34.5	11.9	4.32e-04	0	44	0	1009778688	20	5789
2026-01-23 02:35:25.37	267.60	8.89	-30.3	-34.1	12.2	3.39e-04	0	44	0	1010827264	20	5612
2026-01-23 02:35:26.38	267.49	8.83	-30.3	-34.2	12.1	1.91e-03	0	44	0	1012924416	20	5646
2026-01-23 02:35:27.38	267.37	8.77	-30.3	-34.3	12.1	3.34e-03	0	44	0	1015021568	20	5657
2026-01-23 02:35:28.38	267.26	8.70	-30.4	-34.3	12.0	3.05e-04	0	44	0	1017118720	20	5689
2026-01-23 02:35:29.39	267.15	8.64	-30.4	-34.5	11.9	8.47e-04	0	44	0	1019215872	20	5762
2026-01-23 02:35:30.39	267.04	8.58	-30.4	-34.4	11.9	3.83e-03	0	44	0	1020264448	20	5737
2026-01-23 02:35:31.40	266.93	8.51	-30.4	-34.6	11.8	3.66e-03	0	44	0	1022361600	20	5817
2026-01-23 02:35:32.41	266.82	8.45	-30.5	-34.7	11.8	4.32e-04	0	44	0	1024458752	20	5841
2026-01-23 02:35:33.41	266.71	8.39	-30.5	-34.4	11.6	4.05e-03	0	44	0	1026555904	21	5601
2026-01-23 02:35:34.42	266.61	8.32	-30.6	-34.6	11.5	4.25e-03	0	44	0	1028653056	21	5692
2026-01-23 02:35:35.43	266.50	8.26	-30.5	-34.4	11.5	7.91e-04	0	44	0	1029701632	21	5633
2026-01-23 02:35:36.43	266.39	8.20	-30.5	-34.2	11.7	3.78e-03	0	44	0	1031798784	21	5561
2026-01-23 02:35:37.43	266.28	8.13	-30.5	-34.3	11.7	3.96e-03	0	44	0	1033895936	21	5561
2026-01-23 02:35:38.43	266.18	8.07	-30.5	-34.3	11.6	2.18e-03	0	44	0	1035993088	21	5586
2026-01-23 02:35:39.43	266.07	8.01	-30.6	-34.6	11.4	4.32e-03	0	44	0	1038090240	21	5715
2026-01-23 02:35:40.44	265.97	7.94	-30.6	-34.7	11.3	4.78e-03	0	44	0	1039138816	21	5768
2026-01-23 02:35:41.44	265.86	7.88	-30.6	-34.6	11.3	2.78e-03	0	44	0	1041235968	21	5735
2026-01-23 02:35:42.44	265.76	7.82	-30.6	-34.8	11.2	4.31e-03	0	44	0	1043333120	21	5796
2026-01-23 02:35:43.44	265.66	7.76	-30.7	-35.0	11.1	4.70e-03	0	44	0	1045430272	21	5902
2026-01-23 02:35:44.44	265.55	7.69	-30.7	-34.9	11.1	2.93e-03	0	44	0	1047527424	21	5870
2026-01-23 02:35:45.45	265.45	7.63	-30.8	-35.4	10.7	5.16e-03	0	44	0	1048576000	21	6122
2026-01-23 02:35:46.45	265.35	7.57	-30.8	-35.6	10.6	6.86e-03	0	44	0	1050673152	21	6198
2026-01-23 02:35:47.45	265.24	7.51	-30.8	-35.2	10.9	2.83e-03	0	44	0	1052770304	21	6027
2026-01-23 02:35:48.46	265.14	7.44	-30.7	-35.0	11.0	5.31e-03	0	44	0	1054867456	21	5928
2026-01-23 02:35:49.47	265.04	7.38	-30.7	-35.0	11.1	1.68e-03	0	44	0	1056964608	21	5897
2026-01-23 02:35:50.48	264.94	7.32	-30.7	-35.0	11.0	2.43e-03	0	44	0	1058013184	21	5907
2026-01-23 02:35:51.48	264.84	7.26	-30.7	-35.0	11.0	4.62e-03	0	44	0	1060110336	21	5908
2026-01-23 02:35:52.49	264.74	7.19	-30.8	-35.3	10.7	4.27e-03	0	44	0	1062207488	21	6090
2026-01-23 02:35:53.49	264.64	7.13	-30.8	-35.4	10.7	2.94e-03	0	44	0	1064304640	21	6104
2026-01-23 02:35:54.50	264.54	7.07	-33.0	-47.3	3.8	2.26e-02	0	44	104	1065353216	25	18802
2026-01-23 02:35:55.50	264.44	7.01	-33.4	-47.8	3.8	1.49e+00	0	44	104	1065353216	26	19009
2026-01-23 02:35:56.51	264.34	6.95	-33.7	-48.0	3.8	1.49e+00	0	44	104	1065353216	27	18702
2026-01-23 02:35:57.51	264.25	6.89	-34.0	-48.5	3.8	1.49e+00	0	44	104	1065353216	27	19194

#Closed at: 2026-01-23 02:35:58
#Recorded file [1065 MB]: D:/data/31010_260123_052625.dat