passes_logs/2026/01/23/R2M6_AANII_01/R2M6_AANII_01__20260123_094817_NOAA_21_JPSS-2_rec.log

#Pass ID: 20260123_094817_NOAA 21 (JPSS-2)
#Satellite: NOAA 21 (JPSS-2)
#Configuration: NOAA 21
#almurnet v.1.7.20240730
#Start time: 2026-01-23 09:48:16

#Version: 2.2.20231116
#Station: R2M6_AANII_01
#Location: 30.233357 lon 59.946436 lat
#TLE: 1 54234U 22150A   26022.41365820  .00000211  00000+0  12084-3 0  9990
#TLE: 2 54234  98.7507 323.2240 0000658 234.5287 125.5828 14.19537645165864

#Time	Az	El	Level	Level2	SNR	BER	BlckErr	Temp	State	Recorded	gain1	gain2
2026-01-23 09:48:16.77	144.25	6.95	-30.4	-35.0	4.6	1.41e+00	0	43	0	0	22	6138
2026-01-23 09:48:17.78	144.23	7.03	-30.7	-36.2	4.4	1.42e+00	0	43	104	0	22	6779
2026-01-23 09:48:18.78	144.20	7.11	-30.7	-35.4	7.4	1.14e-01	0	43	0	0	22	6177
2026-01-23 09:48:19.79	144.18	7.19	-30.5	-34.7	8.0	7.52e-02	0	43	102	1048576	22	5795
2026-01-23 09:48:20.79	144.16	7.26	-30.6	-35.0	7.7	8.40e-02	0	43	102	1048576	22	5978
2026-01-23 09:48:21.80	144.13	7.34	-30.5	-34.6	8.1	6.73e-02	0	43	102	1048576	22	5744
2026-01-23 09:48:22.80	144.11	7.42	-30.4	-34.0	8.5	4.82e-02	0	43	102	1048576	22	5460
2026-01-23 09:48:23.81	144.08	7.50	-30.2	-33.8	9.1	2.75e-02	0	43	102	1048576	21	5431
2026-01-23 09:48:24.82	144.06	7.58	-30.0	-33.2	9.5	1.66e-02	0	43	102	1048576	21	5176
2026-01-23 09:48:25.82	144.04	7.66	-30.0	-33.2	9.5	1.36e-02	0	43	102	1048576	21	5178
2026-01-23 09:48:26.82	144.01	7.73	-30.0	-33.2	9.5	1.48e-02	0	43	102	1048576	21	5182
2026-01-23 09:48:27.83	143.99	7.81	-29.8	-32.5	10.0	8.72e-03	0	43	102	1048576	21	4915
2026-01-23 09:48:28.84	143.96	7.89	-29.6	-32.4	10.5	4.57e-03	0	43	102	1048576	20	4980
2026-01-23 09:48:29.85	143.94	7.97	-29.6	-32.5	10.4	4.00e-03	0	43	102	1048576	20	4998
2026-01-23 09:48:30.85	143.91	8.05	-29.9	-33.2	9.9	7.01e-03	0	43	102	1048576	20	5292
2026-01-23 09:48:31.84	143.89	8.13	-29.8	-32.8	10.2	7.27e-03	0	43	102	1048576	20	5126
2026-01-23 09:48:32.85	143.86	8.21	-29.5	-32.0	10.7	3.33e-03	0	43	102	1048576	20	4838
2026-01-23 09:48:33.86	143.83	8.30	-29.3	-32.0	11.2	1.48e-03	0	43	102	1048576	19	4906
2026-01-23 09:48:34.86	143.81	8.38	-29.3	-32.2	11.1	1.19e-03	0	43	102	1048576	19	4984
2026-01-23 09:48:35.86	143.78	8.46	-29.2	-31.9	11.3	1.10e-03	0	43	102	1048576	19	4880
2026-01-23 09:48:36.87	143.76	8.54	-29.3	-32.0	11.3	1.17e-03	0	43	102	1048576	19	4918
2026-01-23 09:48:37.88	143.73	8.62	-29.2	-31.8	11.4	1.24e-03	0	43	102	1048576	19	4860
2026-01-23 09:48:38.88	143.70	8.70	-29.2	-31.8	11.3	1.02e-03	0	43	102	1048576	19	4862
2026-01-23 09:48:39.88	143.68	8.79	-29.2	-31.8	11.4	9.92e-04	0	43	102	1048576	19	4847
2026-01-23 09:48:40.88	143.65	8.87	-29.3	-32.0	11.2	1.13e-03	0	43	102	1048576	19	4939
2026-01-23 09:48:41.88	143.62	8.95	-29.2	-31.7	11.4	1.14e-03	0	43	102	1048576	19	4835
2026-01-23 09:48:42.88	143.60	9.03	-28.9	-31.1	11.8	5.74e-04	0	43	102	1048576	19	4632
2026-01-23 09:48:43.89	143.57	9.12	-28.7	-30.9	12.3	1.97e-04	0	43	102	1048576	18	4681
2026-01-23 09:48:44.88	143.54	9.20	-28.6	-30.7	12.4	1.40e-04	0	43	102	1048576	18	4610
2026-01-23 09:48:45.89	143.51	9.28	-28.4	-30.3	12.7	6.48e-05	0	43	102	1048576	18	4471
2026-01-23 09:48:46.90	143.48	9.37	-28.3	-30.1	12.9	5.79e-05	0	43	102	1048576	18	4401
2026-01-23 09:48:47.90	143.46	9.45	-28.4	-30.3	12.8	6.02e-05	0	43	102	1048576	18	4466
2026-01-23 09:48:48.90	143.43	9.54	-28.3	-30.2	12.8	6.63e-05	0	43	102	1048576	18	4434
2026-01-23 09:48:49.91	143.40	9.62	-28.4	-30.2	12.8	5.11e-05	0	43	102	1048576	18	4447
2026-01-23 09:48:50.91	143.37	9.71	-28.5	-30.7	12.5	1.14e-04	0	43	102	1048576	18	4597
2026-01-23 09:48:51.92	143.34	9.79	-28.4	-30.3	12.8	7.24e-05	0	43	102	1048576	18	4468
2026-01-23 09:48:52.93	143.31	9.88	-28.3	-30.1	13.0	5.26e-05	0	43	102	1048576	18	4391
2026-01-23 09:48:53.93	143.28	9.97	-28.2	-30.3	13.2	2.28e-05	0	43	102	1048576	17	4546
2026-01-23 09:48:54.93	143.25	10.05	-28.3	-30.5	13.0	2.21e-05	0	43	102	1048576	17	4619
2026-01-23 09:48:55.94	143.22	10.14	-28.3	-30.3	13.2	2.82e-05	0	43	102	1048576	17	4550
2026-01-23 09:48:56.94	143.20	10.23	-28.1	-30.0	13.4	1.37e-05	0	43	102	1048576	17	4446
2026-01-23 09:48:57.94	143.17	10.31	-28.2	-30.0	13.4	1.67e-05	0	43	102	1048576	17	4447
2026-01-23 09:48:58.94	143.14	10.40	-28.2	-30.0	13.4	1.22e-05	0	43	102	1048576	17	4444
2026-01-23 09:48:59.95	143.10	10.49	-28.2	-30.1	13.3	1.06e-05	0	43	102	1048576	17	4484
2026-01-23 09:49:00.96	143.07	10.58	-28.2	-30.0	13.4	1.98e-05	0	43	102	1048576	17	4437
2026-01-23 09:49:01.97	143.04	10.67	-28.1	-29.9	13.5	1.06e-05	0	43	102	1048576	17	4406
2026-01-23 09:49:02.97	143.01	10.76	-28.1	-29.8	13.6	7.60e-06	0	43	102	1048576	17	4391
2026-01-23 09:49:03.98	142.98	10.85	-28.1	-29.7	13.6	6.10e-06	0	43	102	1048576	17	4359
2026-01-23 09:49:04.98	142.95	10.93	-28.0	-29.7	13.7	9.90e-06	0	43	102	1048576	17	4338
2026-01-23 09:49:05.98	142.92	11.02	-28.0	-29.6	13.7	1.06e-05	0	43	102	1048576	17	4323
2026-01-23 09:49:06.99	142.89	11.11	-28.1	-29.9	13.6	9.90e-06	0	43	102	1048576	17	4412
2026-01-23 09:49:07.99	142.85	11.20	-28.0	-29.6	13.8	6.80e-06	0	43	102	1048576	17	4315
2026-01-23 09:49:08.99	142.82	11.30	-27.9	-29.4	13.9	2.20e-06	0	43	102	1048576	17	4265
2026-01-23 09:49:10.00	142.79	11.39	-28.0	-29.5	13.8	7.60e-06	0	43	102	1048576	17	4302
2026-01-23 09:49:11.01	142.76	11.48	-28.0	-29.5	13.8	2.20e-06	0	43	102	1048576	17	4299
2026-01-23 09:49:12.01	142.72	11.57	-27.9	-29.4	13.9	3.80e-06	0	43	102	1048576	17	4248
2026-01-23 09:49:13.02	142.69	11.66	-27.9	-29.4	13.9	3.80e-06	0	43	102	1048576	17	4246
2026-01-23 09:49:14.02	142.66	11.76	-28.0	-29.6	13.8	7.60e-06	0	43	102	1048576	17	4312
2026-01-23 09:49:15.03	142.62	11.85	-27.9	-29.4	14.0	4.50e-06	0	43	102	1048576	17	4232
2026-01-23 09:49:16.04	142.59	11.94	-27.9	-29.2	14.1	0.00e+00	0	43	102	1048576	17	4185
2026-01-23 09:49:17.04	142.56	12.04	-27.8	-29.0	14.2	1.50e-06	0	43	102	1048576	17	4118
2026-01-23 09:49:18.05	142.52	12.13	-27.8	-29.5	14.2	0.00e+00	0	43	102	1048576	16	4370
2026-01-23 09:49:19.05	142.49	12.22	-27.8	-29.5	14.2	0.00e+00	0	43	102	1048576	16	4382
2026-01-23 09:49:20.06	142.45	12.32	-27.8	-29.6	14.2	2.20e-06	0	43	102	1048576	16	4400
2026-01-23 09:49:21.06	142.42	12.41	-27.9	-29.7	14.1	7.00e-07	0	43	102	1048576	16	4426
2026-01-23 09:49:22.07	142.38	12.51	-28.0	-30.1	13.8	7.60e-06	0	43	102	1048576	16	4573
2026-01-23 09:49:23.07	142.35	12.60	-27.9	-29.9	14.0	4.50e-06	0	43	102	1048576	16	4503
2026-01-23 09:49:24.08	142.31	12.70	-27.7	-29.3	14.3	7.00e-07	0	43	102	1048576	16	4346
2026-01-23 09:49:25.08	142.27	12.80	-27.6	-29.1	14.4	7.00e-07	0	43	102	1048576	16	4284
2026-01-23 09:49:26.09	142.24	12.89	-27.6	-29.2	14.3	2.20e-06	0	43	102	1048576	16	4329
2026-01-23 09:49:27.09	142.20	12.99	-27.6	-29.1	14.4	7.00e-07	0	43	102	1048576	16	4287
2026-01-23 09:49:28.10	142.16	13.09	-27.6	-29.2	14.4	7.00e-07	0	43	102	1048576	16	4308
2026-01-23 09:49:29.10	142.13	13.19	-27.6	-29.2	14.4	2.20e-06	0	43	102	1048576	16	4327
2026-01-23 09:49:30.11	142.09	13.29	-27.6	-29.0	14.5	0.00e+00	0	43	102	1048576	16	4267
2026-01-23 09:49:31.12	142.05	13.39	-27.6	-29.2	14.4	0.00e+00	0	43	102	1048576	16	4307
2026-01-23 09:49:32.12	142.01	13.48	-27.6	-29.0	14.5	7.00e-07	0	43	102	1048576	16	4257
2026-01-23 09:49:33.13	141.98	13.58	-27.7	-29.2	14.4	0.00e+00	0	43	102	1048576	16	4292
2026-01-23 09:49:34.13	141.94	13.68	-27.7	-29.2	14.5	0.00e+00	0	43	102	1048576	16	4294
2026-01-23 09:49:35.14	141.90	13.78	-27.7	-29.2	14.5	0.00e+00	0	43	102	1048576	16	4277
2026-01-23 09:49:36.15	141.86	13.89	-27.6	-29.1	14.6	0.00e+00	0	43	102	1048576	16	4242
2026-01-23 09:49:37.15	141.82	13.99	-27.7	-29.2	14.5	0.00e+00	0	43	102	1048576	16	4272
2026-01-23 09:49:38.16	141.78	14.09	-27.8	-29.5	14.3	1.50e-06	0	43	102	1048576	16	4360
2026-01-23 09:49:39.16	141.74	14.19	-27.7	-29.2	14.5	1.50e-06	0	43	102	1048576	16	4293
2026-01-23 09:49:40.17	141.70	14.29	-27.6	-29.0	14.6	7.00e-07	0	43	102	1048576	16	4236
2026-01-23 09:49:41.18	141.66	14.40	-27.6	-29.1	14.5	0.00e+00	0	43	102	1048576	16	4274
2026-01-23 09:49:42.18	141.62	14.50	-27.7	-29.4	14.4	0.00e+00	0	43	102	1048576	16	4356
2026-01-23 09:49:43.19	141.58	14.60	-27.7	-29.2	14.5	7.00e-07	0	43	102	1048576	16	4302
2026-01-23 09:49:44.19	141.54	14.71	-27.7	-29.3	14.5	7.00e-07	0	43	102	1048576	16	4319
2026-01-23 09:49:45.20	141.50	14.81	-27.6	-29.1	14.5	0.00e+00	0	43	102	1048576	16	4279
2026-01-23 09:49:46.20	141.45	14.92	-27.7	-29.2	14.5	1.50e-06	0	43	102	1048576	16	4308
2026-01-23 09:49:47.20	141.41	15.02	-27.8	-29.5	14.4	7.00e-07	0	43	102	1048576	16	4382
2026-01-23 09:49:48.20	141.37	15.13	-27.7	-29.2	14.5	0.00e+00	0	43	102	1048576	16	4300
2026-01-23 09:49:49.21	141.33	15.23	-27.7	-29.3	14.5	0.00e+00	0	43	102	1048576	16	4310
2026-01-23 09:49:50.21	141.28	15.34	-27.7	-29.3	14.5	7.00e-07	0	43	102	1048576	16	4307
2026-01-23 09:49:51.22	141.24	15.45	-27.7	-29.2	14.6	9.10e-06	0	43	102	1048576	16	4293
2026-01-23 09:49:52.22	141.20	15.55	-27.8	-29.4	14.5	0.00e+00	0	44	102	1048576	16	4337
2026-01-23 09:49:53.23	141.15	15.66	-27.7	-29.3	14.6	0.00e+00	0	43	102	1048576	16	4303
2026-01-23 09:49:54.22	141.11	15.77	-27.8	-29.4	14.5	0.00e+00	0	43	102	1048576	16	4342
2026-01-23 09:49:55.23	141.06	15.88	-27.8	-29.4	14.6	1.50e-06	0	43	102	1048576	16	4325
2026-01-23 09:49:56.23	141.02	15.99	-27.8	-29.4	14.6	7.00e-07	0	43	102	1048576	16	4336
2026-01-23 09:49:57.23	140.97	16.10	-27.8	-29.4	14.5	4.50e-06	0	43	102	1048576	16	4350
2026-01-23 09:49:58.23	140.93	16.21	-27.8	-29.6	14.5	7.00e-07	0	43	102	1048576	16	4396
2026-01-23 09:49:59.24	140.88	16.32	-27.8	-29.4	14.6	0.00e+00	0	43	102	1048576	16	4344
2026-01-23 09:50:00.24	140.83	16.43	-27.7	-29.4	14.6	0.00e+00	0	43	102	1048576	16	4356
2026-01-23 09:50:01.26	140.79	16.54	-27.8	-29.5	14.5	7.00e-07	0	43	102	1048576	16	4374
2026-01-23 09:50:02.25	140.74	16.65	-27.7	-29.4	14.6	1.50e-06	0	43	102	1048576	16	4349
2026-01-23 09:50:03.26	140.69	16.77	-27.8	-29.6	14.5	0.00e+00	0	43	102	1048576	16	4410
2026-01-23 09:50:04.26	140.64	16.88	-27.8	-29.5	14.6	7.00e-07	0	43	102	1048576	16	4371
2026-01-23 09:50:05.27	140.59	16.99	-27.9	-29.7	14.5	0.00e+00	0	43	102	1048576	16	4436
2026-01-23 09:50:06.27	140.55	17.11	-27.9	-29.8	14.4	3.00e-06	0	43	102	1048576	16	4464
2026-01-23 09:50:07.28	140.50	17.22	-27.9	-29.6	14.6	0.00e+00	0	43	102	1048576	16	4392
2026-01-23 09:50:08.28	140.45	17.34	-27.9	-29.6	14.6	0.00e+00	0	43	102	1048576	16	4372
2026-01-23 09:50:09.28	140.40	17.45	-27.9	-29.6	14.6	0.00e+00	0	43	102	1048576	16	4392
2026-01-23 09:50:10.29	140.35	17.57	-27.9	-29.6	14.7	7.00e-07	0	43	102	1048576	16	4373
2026-01-23 09:50:11.29	140.29	17.69	-27.9	-29.7	14.6	0.00e+00	0	43	102	1048576	16	4406
2026-01-23 09:50:12.29	140.24	17.80	-27.9	-29.6	14.7	7.00e-07	0	43	102	1048576	16	4381
2026-01-23 09:50:13.29	140.19	17.92	-27.9	-29.7	14.7	0.00e+00	0	43	102	1048576	16	4403
2026-01-23 09:50:14.30	140.14	18.04	-28.0	-29.7	14.6	7.00e-07	0	43	102	1048576	16	4425
2026-01-23 09:50:15.30	140.09	18.16	-27.8	-29.5	14.8	0.00e+00	0	43	102	1048576	16	4345
2026-01-23 09:50:16.30	140.03	18.28	-27.8	-29.3	14.9	0.00e+00	0	43	102	1048576	16	4315
2026-01-23 09:50:17.31	139.98	18.40	-27.8	-29.4	14.8	0.00e+00	0	43	102	1048576	16	4338
2026-01-23 09:50:18.32	139.93	18.52	-27.7	-29.2	15.0	0.00e+00	0	43	102	1048576	16	4271
2026-01-23 09:50:19.32	139.87	18.64	-27.7	-29.2	14.9	0.00e+00	0	43	102	1048576	16	4291
2026-01-23 09:50:20.33	139.82	18.76	-27.8	-29.4	14.9	0.00e+00	0	43	102	1048576	16	4332
2026-01-23 09:50:21.33	139.76	18.89	-27.7	-29.1	15.0	0.00e+00	0	43	102	1048576	16	4245
2026-01-23 09:50:22.35	139.70	19.01	-27.7	-29.2	15.0	0.00e+00	0	44	102	1048576	16	4263
2026-01-23 09:50:23.35	139.65	19.13	-27.7	-29.1	15.1	0.00e+00	0	43	102	1048576	16	4240
2026-01-23 09:50:24.36	139.59	19.26	-27.7	-29.0	15.2	7.00e-07	0	43	102	1048576	16	4208
2026-01-23 09:50:25.35	139.53	19.38	-27.7	-29.1	15.1	0.00e+00	0	43	102	1048576	16	4244
2026-01-23 09:50:26.35	139.48	19.51	-27.7	-29.0	15.2	0.00e+00	0	43	102	1048576	16	4193
2026-01-23 09:50:27.35	139.42	19.63	-27.7	-29.1	15.1	0.00e+00	0	43	102	1048576	16	4227
2026-01-23 09:50:28.36	139.36	19.76	-27.6	-29.0	15.2	0.00e+00	0	43	102	1048576	16	4191
2026-01-23 09:50:29.35	139.30	19.89	-27.6	-29.0	15.2	0.00e+00	0	43	102	1048576	16	4194
2026-01-23 09:50:30.35	139.24	20.01	-27.6	-28.8	15.3	0.00e+00	0	43	102	1048576	16	4144
2026-01-23 09:50:31.35	139.18	20.14	-27.6	-28.8	15.3	0.00e+00	0	43	102	1048576	16	4155
2026-01-23 09:50:32.36	139.12	20.27	-27.6	-28.9	15.3	0.00e+00	0	43	102	1048576	16	4168
2026-01-23 09:50:33.37	139.06	20.40	-27.5	-28.7	15.3	0.00e+00	0	43	102	1048576	16	4130
2026-01-23 09:50:34.37	139.00	20.53	-27.5	-28.7	15.4	0.00e+00	0	43	102	1048576	16	4118
2026-01-23 09:50:35.38	138.93	20.66	-27.5	-28.7	15.4	0.00e+00	0	44	102	1048576	16	4110
2026-01-23 09:50:36.38	138.87	20.79	-27.5	-28.7	15.4	0.00e+00	0	43	102	1048576	16	4128
2026-01-23 09:50:37.38	138.81	20.93	-27.5	-28.7	15.4	0.00e+00	0	43	102	1048576	16	4124
2026-01-23 09:50:38.39	138.74	21.06	-27.4	-28.3	15.6	0.00e+00	0	43	102	1048576	16	4008
2026-01-23 09:50:39.38	138.68	21.19	-27.3	-28.3	15.7	0.00e+00	0	43	102	1048576	16	3997
2026-01-23 09:50:40.39	138.61	21.33	-27.3	-28.2	15.7	0.00e+00	0	43	102	1048576	16	3979
2026-01-23 09:50:41.39	138.55	21.46	-27.1	-28.2	15.8	0.00e+00	0	43	102	1048576	15	4101
2026-01-23 09:50:42.40	138.48	21.60	-27.0	-28.1	15.9	0.00e+00	0	43	102	1048576	15	4056
2026-01-23 09:50:43.40	138.41	21.73	-27.0	-28.0	15.9	0.00e+00	0	43	102	1048576	15	4050
2026-01-23 09:50:44.40	138.35	21.87	-26.9	-27.7	16.1	0.00e+00	0	43	102	1048576	15	3960
2026-01-23 09:50:45.40	138.28	22.01	-26.8	-27.6	16.2	0.00e+00	0	43	102	1048576	15	3939
2026-01-23 09:50:46.41	138.21	22.15	-26.9	-27.7	16.1	0.00e+00	0	43	102	1048576	15	3976
2026-01-23 09:50:47.42	138.14	22.29	-26.9	-27.8	16.0	0.00e+00	0	43	102	1048576	15	3987
2026-01-23 09:50:48.41	138.07	22.42	-26.9	-27.7	16.1	0.00e+00	0	43	102	1048576	15	3975
2026-01-23 09:50:49.42	138.00	22.56	-26.9	-27.7	16.1	0.00e+00	0	43	102	1048576	15	3973
2026-01-23 09:50:50.43	137.93	22.71	-26.9	-27.7	16.1	0.00e+00	0	43	102	1048576	15	3981
2026-01-23 09:50:51.43	137.85	22.85	-26.9	-27.8	16.1	0.00e+00	0	43	102	1048576	15	3994
2026-01-23 09:50:52.44	137.78	22.99	-26.7	-27.9	16.3	0.00e+00	0	43	102	1048576	14	4130
2026-01-23 09:50:53.45	137.71	23.14	-26.7	-27.9	16.3	0.00e+00	0	43	102	1048576	14	4109
2026-01-23 09:50:54.45	137.63	23.28	-26.7	-27.7	16.4	0.00e+00	0	43	102	1048576	14	4073
2026-01-23 09:50:55.45	137.56	23.42	-26.5	-27.3	16.7	0.00e+00	0	43	102	1048576	14	3948
2026-01-23 09:50:56.45	137.48	23.57	-26.4	-27.2	16.7	1.50e-06	0	43	102	1048576	14	3922
2026-01-23 09:50:57.46	137.41	23.72	-26.5	-27.3	16.7	0.00e+00	0	43	102	1048576	14	3965
2026-01-23 09:50:58.46	137.33	23.86	-26.5	-27.4	16.6	0.00e+00	0	43	102	1048576	14	3993
2026-01-23 09:50:59.47	137.25	24.01	-26.6	-27.6	16.5	4.50e-06	0	43	102	1048576	14	4030
2026-01-23 09:51:00.47	137.17	24.16	-26.6	-27.6	16.6	0.00e+00	0	43	102	1048576	14	4025
2026-01-23 09:51:01.48	137.09	24.31	-26.6	-27.7	16.5	0.00e+00	0	43	102	1048576	14	4048
2026-01-23 09:51:02.48	137.01	24.46	-26.5	-27.4	16.6	0.00e+00	0	43	102	1048576	14	3992
2026-01-23 09:51:03.49	136.93	24.61	-26.6	-27.6	16.5	0.00e+00	0	43	102	1048576	14	4036
2026-01-23 09:51:04.49	136.85	24.76	-26.6	-27.6	16.5	0.00e+00	0	43	102	1048576	14	4052
2026-01-23 09:51:05.50	136.76	24.92	-26.6	-27.7	16.5	0.00e+00	0	43	102	1048576	14	4067
2026-01-23 09:51:06.50	136.68	25.07	-26.7	-27.9	16.3	0.00e+00	0	43	102	1048576	14	4127
2026-01-23 09:51:07.51	136.60	25.23	-26.8	-28.1	16.3	0.00e+00	0	43	102	1048576	14	4170
2026-01-23 09:51:08.52	136.51	25.38	-26.9	-28.1	16.3	0.00e+00	0	43	102	1048576	14	4177
2026-01-23 09:51:09.53	136.42	25.54	-26.9	-28.3	16.2	0.00e+00	0	43	102	1048576	14	4229
2026-01-23 09:51:10.53	136.34	25.70	-26.9	-28.3	16.2	0.00e+00	0	43	102	1048576	14	4217
2026-01-23 09:51:11.54	136.25	25.85	-26.9	-28.3	16.2	0.00e+00	0	43	102	1048576	14	4223
2026-01-23 09:51:12.55	136.16	26.01	-27.0	-28.4	16.2	0.00e+00	0	43	102	1048576	14	4251
2026-01-23 09:51:13.55	136.07	26.17	-27.2	-28.8	16.0	0.00e+00	0	43	102	1048576	14	4354
2026-01-23 09:51:14.55	135.98	26.33	-27.2	-28.8	15.9	0.00e+00	0	43	102	1048576	14	4368
2026-01-23 09:51:15.55	135.89	26.49	-27.2	-29.0	15.9	0.00e+00	0	43	102	1048576	14	4400
2026-01-23 09:51:16.56	135.79	26.66	-27.2	-29.0	15.8	0.00e+00	0	43	102	1048576	14	4417
2026-01-23 09:51:17.56	135.70	26.82	-27.3	-29.1	15.8	0.00e+00	0	43	102	1048576	14	4436
2026-01-23 09:51:18.56	135.61	26.98	-27.3	-29.1	15.8	0.00e+00	0	43	102	1048576	14	4451
2026-01-23 09:51:19.57	135.51	27.15	-27.3	-29.2	15.7	0.00e+00	0	43	102	1048576	14	4470
2026-01-23 09:51:20.57	135.41	27.31	-27.4	-29.4	15.6	0.00e+00	0	43	102	1048576	14	4527
2026-01-23 09:51:21.58	135.32	27.48	-27.5	-29.1	15.5	0.00e+00	0	43	102	1048576	15	4327
2026-01-23 09:51:22.58	135.22	27.65	-27.5	-29.1	15.5	0.00e+00	0	43	102	1048576	15	4333
2026-01-23 09:51:23.58	135.12	27.82	-27.6	-29.2	15.5	0.00e+00	0	43	102	1048576	15	4369
2026-01-23 09:51:24.59	135.02	27.99	-27.6	-29.2	15.5	0.00e+00	0	43	102	1048576	15	4362
2026-01-23 09:51:25.59	134.91	28.16	-27.6	-29.3	15.4	0.00e+00	0	43	102	1048576	15	4389
2026-01-23 09:51:26.60	134.81	28.33	-27.6	-29.2	15.5	0.00e+00	0	43	102	1048576	15	4362
2026-01-23 09:51:27.60	134.71	28.50	-27.6	-29.2	15.5	0.00e+00	0	43	102	1048576	15	4357
2026-01-23 09:51:28.60	134.60	28.67	-27.6	-29.3	15.5	0.00e+00	0	43	102	1048576	15	4378
2026-01-23 09:51:29.61	134.49	28.85	-27.6	-29.3	15.5	0.00e+00	0	43	102	1048576	15	4387
2026-01-23 09:51:30.61	134.39	29.02	-27.6	-29.3	15.5	0.00e+00	0	43	102	1048576	15	4393
2026-01-23 09:51:31.61	134.28	29.20	-27.6	-29.2	15.6	0.00e+00	0	44	102	1048576	15	4363
2026-01-23 09:51:32.61	134.17	29.37	-27.5	-29.2	15.6	0.00e+00	0	44	102	1048576	15	4355
2026-01-23 09:51:33.61	134.06	29.55	-27.5	-29.1	15.6	0.00e+00	0	44	102	1048576	15	4336
2026-01-23 09:51:34.60	133.95	29.73	-27.5	-29.0	15.7	0.00e+00	0	43	102	1048576	15	4308
2026-01-23 09:51:35.61	133.83	29.91	-27.5	-29.1	15.6	0.00e+00	0	43	102	1048576	15	4323
2026-01-23 09:51:36.60	133.72	30.09	-27.4	-28.9	15.8	0.00e+00	0	43	102	1048576	15	4260
2026-01-23 09:51:37.61	133.60	30.27	-27.2	-28.4	16.0	0.00e+00	0	43	102	1048576	15	4137
2026-01-23 09:51:38.61	133.48	30.45	-27.1	-28.1	16.2	0.00e+00	0	43	102	1048576	15	4057
2026-01-23 09:51:39.62	133.36	30.64	-27.0	-28.0	16.2	0.00e+00	0	43	102	1048576	15	4026
2026-01-23 09:51:40.62	133.24	30.82	-27.2	-28.4	16.0	0.00e+00	0	43	102	1048576	15	4136
2026-01-23 09:51:41.63	133.12	31.01	-27.2	-28.3	16.0	0.00e+00	0	43	102	1048576	15	4123
2026-01-23 09:51:42.63	132.99	31.20	-27.2	-28.3	16.1	0.00e+00	0	44	102	1048576	15	4116
2026-01-23 09:51:43.63	132.87	31.39	-27.3	-28.7	15.9	2.20e-06	0	44	102	1048576	15	4206
2026-01-23 09:51:44.64	132.74	31.58	-27.4	-28.9	15.8	0.00e+00	0	44	102	1048576	15	4268
2026-01-23 09:51:45.64	132.61	31.77	-27.5	-29.1	15.7	0.00e+00	0	43	102	1048576	15	4319
2026-01-23 09:51:46.65	132.48	31.96	-27.6	-29.3	15.6	9.10e-06	0	43	102	1048576	15	4387
2026-01-23 09:51:47.65	132.35	32.15	-27.6	-29.3	15.6	0.00e+00	0	44	102	1048576	15	4382
2026-01-23 09:51:48.65	132.22	32.34	-27.7	-29.5	15.5	0.00e+00	0	43	102	1048576	15	4426
2026-01-23 09:51:49.66	132.08	32.54	-27.9	-29.9	15.3	0.00e+00	0	43	102	1048576	15	4545
2026-01-23 09:51:50.66	131.95	32.73	-27.8	-29.8	15.3	0.00e+00	0	44	102	1048576	15	4514
2026-01-23 09:51:51.67	131.81	32.93	-27.6	-29.3	15.6	0.00e+00	0	43	102	1048576	15	4364
2026-01-23 09:51:52.67	131.67	33.13	-27.6	-29.2	15.7	6.80e-06	0	43	102	1048576	15	4352
2026-01-23 09:51:53.68	131.53	33.33	-27.6	-29.3	15.6	0.00e+00	0	43	102	1048576	15	4354
2026-01-23 09:51:54.68	131.39	33.53	-27.8	-29.8	15.4	0.00e+00	0	43	102	1048576	15	4491
2026-01-23 09:51:55.69	131.24	33.73	-27.8	-29.6	15.5	0.00e+00	0	43	102	1048576	15	4450
2026-01-23 09:51:56.69	131.09	33.93	-27.9	-29.9	15.3	0.00e+00	0	43	102	1048576	15	4530
2026-01-23 09:51:57.70	130.94	34.14	-28.2	-30.0	15.1	0.00e+00	0	43	102	1048576	16	4444
2026-01-23 09:51:58.70	130.79	34.34	-28.3	-30.2	15.0	4.50e-06	0	43	102	1048576	16	4493
2026-01-23 09:51:59.70	130.64	34.55	-28.4	-30.5	14.9	0.00e+00	0	44	102	1048576	16	4593
2026-01-23 09:52:00.71	130.49	34.75	-28.5	-30.3	14.7	0.00e+00	0	43	102	1048576	17	4414
2026-01-23 09:52:01.72	130.33	34.96	-28.9	-31.1	14.3	2.20e-06	0	44	102	1048576	17	4663
2026-01-23 09:52:02.72	130.17	35.17	-29.0	-30.9	14.1	7.00e-07	0	43	102	1048576	18	4467
2026-01-23 09:52:03.73	130.01	35.38	-28.9	-30.6	14.3	2.20e-06	0	43	102	1048576	18	4390
2026-01-23 09:52:04.73	129.85	35.59	-29.0	-30.8	14.2	1.50e-06	0	44	102	1048576	18	4455
2026-01-23 09:52:05.74	129.68	35.81	-29.2	-31.4	13.8	7.00e-07	0	44	102	1048576	18	4627
2026-01-23 09:52:06.74	129.51	36.02	-29.2	-31.5	13.8	1.50e-06	0	44	102	1048576	18	4670
2026-01-23 09:52:07.75	129.34	36.24	-29.3	-31.6	13.7	4.50e-06	0	43	102	1048576	18	4693
2026-01-23 09:52:08.75	129.17	36.45	-29.3	-31.6	13.7	1.06e-05	0	44	102	1048576	18	4702
2026-01-23 09:52:09.76	129.00	36.67	-29.2	-31.4	13.8	6.80e-06	0	43	102	1048576	18	4648
2026-01-23 09:52:10.77	128.82	36.89	-29.2	-31.4	13.8	4.50e-06	0	43	102	1048576	18	4635
2026-01-23 09:52:11.77	128.64	37.11	-29.0	-31.0	14.1	2.20e-06	0	44	102	1048576	18	4497
2026-01-23 09:52:12.78	128.46	37.33	-29.1	-31.2	14.0	2.20e-06	0	43	102	1048576	18	4566
2026-01-23 09:52:13.78	128.28	37.55	-29.1	-31.1	14.0	3.00e-06	0	43	102	1048576	18	4532
2026-01-23 09:52:14.79	128.09	37.78	-29.2	-31.3	13.9	4.50e-06	0	44	102	1048576	18	4588
2026-01-23 09:52:15.80	127.90	38.00	-29.2	-31.3	13.9	1.50e-06	0	43	102	1048576	18	4612
2026-01-23 09:52:16.80	127.71	38.23	-29.3	-31.6	13.7	2.20e-06	0	44	102	1048576	18	4696
2026-01-23 09:52:17.79	127.52	38.45	-29.3	-31.5	13.8	5.30e-06	0	43	102	1048576	18	4667
2026-01-23 09:52:18.80	127.32	38.68	-29.3	-31.7	13.7	6.10e-06	0	43	102	1048576	18	4717
2026-01-23 09:52:19.80	127.12	38.90	-29.3	-31.5	13.8	6.10e-06	0	44	102	1048576	18	4654
2026-01-23 09:52:20.81	126.91	39.14	-29.3	-31.6	13.7	1.22e-05	0	43	102	1048576	18	4708
2026-01-23 09:52:21.82	126.71	39.37	-29.4	-31.8	13.6	6.80e-06	0	43	102	1048576	18	4749
2026-01-23 09:52:22.82	126.50	39.60	-29.5	-32.0	13.5	4.50e-06	0	44	102	1048576	18	4834
2026-01-23 09:52:23.82	126.29	39.83	-29.4	-31.9	13.6	8.30e-06	0	43	102	1048576	18	4778
2026-01-23 09:52:24.82	126.07	40.06	-29.5	-32.0	13.5	6.80e-06	0	43	102	1048576	18	4820
2026-01-23 09:52:25.83	125.85	40.30	-29.3	-31.0	13.8	6.10e-06	0	43	102	1048576	19	4398
2026-01-23 09:52:26.83	125.63	40.53	-29.2	-30.8	13.9	3.80e-06	0	44	102	1048576	19	4349
2026-01-23 09:52:27.84	125.41	40.77	-29.1	-30.6	14.0	7.00e-07	0	44	102	1048576	19	4292
2026-01-23 09:52:28.84	125.18	41.01	-29.1	-30.7	14.0	1.50e-06	0	43	102	1048576	19	4312
2026-01-23 09:52:29.84	124.95	41.25	-28.8	-29.9	14.4	7.00e-07	0	44	102	1048576	19	4083
2026-01-23 09:52:30.85	124.71	41.49	-28.6	-29.9	14.7	0.00e+00	0	44	102	1048576	18	4180
2026-01-23 09:52:31.85	124.48	41.73	-28.8	-30.3	14.5	7.00e-07	0	43	102	1048576	18	4304
2026-01-23 09:52:32.86	124.23	41.98	-29.1	-31.0	14.1	7.00e-07	0	43	102	1048576	18	4502
2026-01-23 09:52:33.86	123.99	42.22	-29.2	-31.3	14.0	1.50e-06	0	44	102	1048576	18	4598
2026-01-23 09:52:34.86	123.74	42.46	-29.4	-31.8	13.7	6.80e-06	0	43	102	1048576	18	4755
2026-01-23 09:52:35.87	123.48	42.71	-29.5	-31.6	13.5	1.06e-05	0	44	102	1048576	19	4593
2026-01-23 09:52:36.86	123.23	42.95	-29.7	-32.1	13.2	1.52e-05	0	43	102	1048576	19	4735
2026-01-23 09:52:37.86	122.97	43.20	-29.8	-32.4	13.0	3.66e-05	0	43	102	1048576	19	4832
2026-01-23 09:52:38.86	122.71	43.44	-30.0	-32.4	12.6	7.85e-05	0	43	102	1048576	20	4739
2026-01-23 09:52:39.87	122.43	43.69	-30.3	-33.0	12.3	1.75e-04	0	44	102	1048576	20	4951
2026-01-23 09:52:40.87	122.16	43.94	-30.0	-32.3	12.7	1.22e-04	0	43	102	1048576	20	4709
2026-01-23 09:52:41.88	121.88	44.20	-29.8	-31.9	12.9	5.49e-05	0	43	102	1048576	20	4578
2026-01-23 09:52:42.88	121.60	44.45	-29.7	-31.7	13.1	3.12e-05	0	44	102	1048576	20	4495
2026-01-23 09:52:43.88	121.31	44.70	-29.7	-31.6	13.1	1.29e-05	0	43	102	1048576	20	4478
2026-01-23 09:52:44.89	121.02	44.95	-29.8	-31.8	13.0	2.82e-05	0	43	102	1048576	20	4538
2026-01-23 09:52:45.90	120.72	45.21	-29.7	-31.6	13.2	2.89e-05	0	43	102	1048576	20	4475
2026-01-23 09:52:46.90	120.42	45.46	-29.9	-32.1	12.8	5.49e-05	0	44	102	1048576	20	4650
2026-01-23 09:52:47.91	120.11	45.72	-29.9	-32.0	12.9	5.41e-05	0	44	102	1048576	20	4620
2026-01-23 09:52:48.90	119.81	45.97	-29.9	-32.1	12.8	5.95e-05	0	44	102	1048576	20	4651
2026-01-23 09:52:49.91	119.49	46.23	-29.8	-31.9	12.9	3.89e-05	0	44	102	1048576	20	4586
2026-01-23 09:52:50.91	119.17	46.49	-29.6	-31.4	13.3	2.05e-05	0	44	102	1048576	20	4401
2026-01-23 09:52:51.92	118.84	46.75	-29.7	-31.7	13.1	2.59e-05	0	44	102	1048576	20	4502
2026-01-23 09:52:52.92	118.51	47.00	-29.6	-31.3	13.4	1.22e-05	0	44	102	1048576	20	4373
2026-01-23 09:52:53.92	118.17	47.26	-29.4	-30.8	13.6	1.29e-05	0	43	102	1048576	20	4255
2026-01-23 09:52:54.93	117.82	47.52	-29.3	-30.7	13.7	6.10e-06	0	43	102	1048576	20	4204
2026-01-23 09:52:55.93	117.48	47.78	-29.4	-30.8	13.7	3.00e-06	0	44	102	1048576	20	4244
2026-01-23 09:52:56.93	117.12	48.04	-29.6	-31.3	13.4	1.14e-05	0	43	102	1048576	20	4387
2026-01-23 09:52:57.94	116.76	48.30	-29.3	-30.7	13.7	1.22e-05	0	44	102	1048576	20	4198
2026-01-23 09:52:58.94	116.39	48.56	-29.4	-30.8	13.6	3.80e-06	0	43	102	1048576	20	4243
2026-01-23 09:52:59.95	116.01	48.83	-30.0	-32.2	12.8	3.96e-05	0	43	102	1048576	20	4669
2026-01-23 09:53:00.95	115.63	49.09	-30.2	-32.9	12.4	8.85e-05	0	44	102	1048576	20	4888
2026-01-23 09:53:01.96	115.25	49.35	-30.0	-32.5	12.6	1.33e-04	0	44	102	1048576	20	4753
2026-01-23 09:53:02.97	114.85	49.61	-29.7	-31.5	13.2	2.21e-05	0	43	102	1048576	20	4423
2026-01-23 09:53:03.97	114.45	49.87	-29.5	-31.1	13.5	1.06e-05	0	44	102	1048576	20	4308
2026-01-23 09:53:04.97	114.04	50.13	-29.6	-31.3	13.4	1.44e-05	0	43	102	1048576	20	4375
2026-01-23 09:53:05.98	113.63	50.40	-29.5	-31.1	13.5	8.30e-06	0	43	102	1048576	20	4324
2026-01-23 09:53:06.98	113.20	50.66	-29.6	-31.4	13.3	1.60e-05	0	43	102	1048576	20	4428
2026-01-23 09:53:07.99	112.77	50.92	-29.7	-31.6	13.2	1.98e-05	0	43	102	1048576	20	4486
2026-01-23 09:53:08.99	112.34	51.18	-29.5	-31.2	13.4	1.60e-05	0	44	102	1048576	20	4355
2026-01-23 09:53:09.99	111.89	51.44	-29.3	-31.1	13.9	4.50e-06	0	44	102	1048576	19	4411
2026-01-23 09:53:10.99	111.44	51.70	-29.3	-31.0	14.0	3.00e-06	0	43	102	1048576	19	4378
2026-01-23 09:53:12.00	110.98	51.96	-29.2	-30.9	14.0	3.80e-06	0	43	102	1048576	19	4363
2026-01-23 09:53:13.00	110.51	52.22	-29.2	-30.9	14.0	3.00e-06	0	43	102	1048576	19	4373
2026-01-23 09:53:14.01	110.03	52.48	-29.0	-30.4	14.4	2.20e-06	0	44	102	1048576	19	4220
2026-01-23 09:53:15.01	109.55	52.73	-28.8	-29.9	14.6	0.00e+00	0	44	102	1048576	19	4085
2026-01-23 09:53:16.01	109.05	52.99	-28.8	-30.3	14.7	0.00e+00	0	43	102	1048576	18	4299
2026-01-23 09:53:17.01	108.55	53.24	-28.3	-29.1	15.3	0.00e+00	0	43	102	1048576	18	3980
2026-01-23 09:53:18.02	108.04	53.50	-28.1	-29.2	15.6	0.00e+00	0	44	102	1048576	17	4087
2026-01-23 09:53:19.02	107.52	53.75	-28.2	-29.5	15.4	0.00e+00	0	44	102	1048576	17	4182
2026-01-23 09:53:20.03	106.99	54.01	-28.4	-29.9	15.2	7.00e-07	0	44	102	1048576	17	4305
2026-01-23 09:53:21.04	106.44	54.26	-28.5	-30.1	15.1	0.00e+00	0	44	102	1048576	17	4350
2026-01-23 09:53:22.04	105.90	54.51	-28.2	-29.4	15.5	0.00e+00	0	44	102	1048576	17	4167
2026-01-23 09:53:23.04	105.34	54.75	-28.3	-29.8	15.3	0.00e+00	0	43	102	1048576	17	4257
2026-01-23 09:53:24.04	104.77	55.00	-28.2	-29.6	15.4	0.00e+00	0	44	102	1048576	17	4207
2026-01-23 09:53:25.04	104.20	55.24	-28.4	-30.0	15.1	0.00e+00	0	43	102	1048576	17	4319
2026-01-23 09:53:26.04	103.61	55.49	-28.5	-30.3	14.9	0.00e+00	0	44	102	1048576	17	4395
2026-01-23 09:53:27.04	103.01	55.73	-28.5	-30.1	15.1	0.00e+00	0	43	102	1048576	17	4353
2026-01-23 09:53:28.05	102.40	55.97	-28.2	-29.6	15.4	0.00e+00	0	44	102	1048576	17	4200
2026-01-23 09:53:29.05	101.78	56.20	-28.0	-29.1	15.6	0.00e+00	0	43	102	1048576	17	4070
2026-01-23 09:53:30.05	101.15	56.44	-28.2	-29.4	15.4	9.90e-06	0	44	102	1048576	17	4153
2026-01-23 09:53:31.05	100.51	56.67	-27.8	-29.0	15.9	0.00e+00	0	44	102	1048576	16	4152
2026-01-23 09:53:32.06	99.86	56.90	-27.7	-28.8	16.1	0.00e+00	0	44	102	1048576	16	4090
2026-01-23 09:53:33.05	99.21	57.12	-27.7	-28.9	16.0	0.00e+00	0	43	102	1048576	16	4135
2026-01-23 09:53:34.06	98.53	57.35	-27.8	-29.1	15.9	0.00e+00	0	43	102	1048576	16	4183
2026-01-23 09:53:35.07	97.84	57.57	-27.7	-28.7	16.2	0.00e+00	0	43	102	1048576	16	4079
2026-01-23 09:53:36.07	97.14	57.79	-27.8	-29.1	15.9	0.00e+00	0	43	102	1048576	16	4187
2026-01-23 09:53:37.08	96.43	58.00	-28.0	-29.5	15.7	0.00e+00	0	43	102	1048576	16	4278
2026-01-23 09:53:38.07	95.72	58.21	-27.9	-29.2	15.9	0.00e+00	0	43	102	1048576	16	4201
2026-01-23 09:53:39.08	94.99	58.42	-27.7	-28.9	16.0	0.00e+00	0	44	102	1048576	16	4122
2026-01-23 09:53:40.08	94.25	58.62	-27.8	-29.0	16.0	0.00e+00	0	44	102	1048576	16	4154
2026-01-23 09:53:41.09	93.49	58.82	-27.4	-28.2	16.5	0.00e+00	0	44	102	1048576	16	3935
2026-01-23 09:53:42.09	92.73	59.02	-27.6	-28.6	16.2	0.00e+00	0	43	102	1048576	16	4051
2026-01-23 09:53:43.09	91.96	59.21	-27.6	-28.6	16.2	0.00e+00	0	43	102	1048576	16	4046
2026-01-23 09:53:44.09	91.17	59.39	-27.8	-29.2	15.9	0.00e+00	0	43	102	1048576	16	4197
2026-01-23 09:53:45.10	90.37	59.58	-27.8	-29.1	16.0	0.00e+00	0	43	102	1048576	16	4172
2026-01-23 09:53:46.10	89.56	59.76	-28.1	-29.8	15.5	0.00e+00	0	43	102	1048576	16	4386
2026-01-23 09:53:47.11	88.74	59.93	-27.9	-29.4	15.8	0.00e+00	0	44	102	1048576	16	4255
2026-01-23 09:53:48.11	87.91	60.10	-27.8	-29.0	16.0	0.00e+00	0	43	102	1048576	16	4158
2026-01-23 09:53:49.11	87.07	60.26	-27.6	-28.7	16.2	0.00e+00	0	43	102	1048576	16	4072
2026-01-23 09:53:50.12	86.21	60.42	-27.8	-29.2	15.9	0.00e+00	0	44	102	1048576	16	4209
2026-01-23 09:53:51.12	85.35	60.57	-27.6	-28.6	16.3	0.00e+00	0	43	102	1048576	16	4039
2026-01-23 09:53:52.13	84.47	60.72	-27.1	-27.9	16.7	0.00e+00	0	43	102	1048576	15	3990
2026-01-23 09:53:53.14	83.58	60.86	-27.0	-27.9	16.7	0.00e+00	0	44	102	1048576	15	3965
2026-01-23 09:53:54.15	82.68	61.00	-27.2	-28.3	16.5	0.00e+00	0	43	102	1048576	15	4086
2026-01-23 09:53:55.15	81.78	61.13	-27.5	-29.0	16.1	0.00e+00	0	43	102	1048576	15	4265
2026-01-23 09:53:56.16	80.87	61.26	-27.5	-29.0	16.2	0.00e+00	0	43	102	1048576	15	4265
2026-01-23 09:53:57.16	79.95	61.37	-27.5	-29.0	16.1	0.00e+00	0	44	102	1048576	15	4269
2026-01-23 09:53:58.16	79.02	61.48	-27.3	-28.5	16.4	0.00e+00	0	43	102	1048576	15	4131
2026-01-23 09:53:59.17	78.08	61.59	-27.5	-28.9	16.1	0.00e+00	0	43	102	1048576	15	4247
2026-01-23 09:54:00.17	77.13	61.69	-27.6	-29.2	16.0	0.00e+00	0	43	102	1048576	15	4303
2026-01-23 09:54:01.18	76.18	61.78	-27.8	-29.5	15.9	0.00e+00	0	43	102	1048576	15	4399
2026-01-23 09:54:02.18	75.22	61.86	-27.8	-29.6	15.8	0.00e+00	0	44	102	1048576	15	4433
2026-01-23 09:54:03.19	74.25	61.94	-28.3	-30.3	15.3	0.00e+00	0	43	102	1048576	16	4509
2026-01-23 09:54:04.19	73.28	62.01	-27.5	-28.4	16.4	0.00e+00	0	44	102	1048576	16	3982
2026-01-23 09:54:05.20	72.29	62.08	-26.6	-27.5	17.2	0.00e+00	0	44	102	1048576	14	3972
2026-01-23 09:54:06.19	71.33	62.13	-26.6	-27.4	17.2	0.00e+00	0	43	102	1048576	14	3959
2026-01-23 09:54:07.20	70.33	62.18	-27.0	-28.3	16.8	0.00e+00	0	44	102	1048576	14	4182
2026-01-23 09:54:08.21	69.34	62.22	-27.4	-29.3	16.2	0.00e+00	0	43	102	1048576	14	4473
2026-01-23 09:54:09.21	68.35	62.26	-27.4	-28.7	16.3	0.00e+00	0	44	102	1048576	15	4185
2026-01-23 09:54:10.21	67.35	62.29	-27.2	-28.3	16.5	0.00e+00	0	44	102	1048576	15	4081
2026-01-23 09:54:11.21	66.36	62.31	-27.1	-28.1	16.6	0.00e+00	0	44	102	1048576	15	4028
2026-01-23 09:54:12.21	65.36	62.32	-27.2	-28.3	16.5	0.00e+00	0	44	102	1048576	15	4092
2026-01-23 09:54:13.21	64.37	62.33	-27.2	-28.2	16.5	0.00e+00	0	43	102	1048576	15	4066
2026-01-23 09:54:14.21	63.37	62.32	-27.3	-28.5	16.4	0.00e+00	0	44	102	1048576	15	4131
2026-01-23 09:54:15.21	62.38	62.31	-27.3	-28.4	16.5	0.00e+00	0	43	102	1048576	15	4106
2026-01-23 09:54:16.21	61.38	62.30	-26.6	-27.4	17.2	0.00e+00	0	44	102	1048576	14	3949
2026-01-23 09:54:17.21	60.39	62.27	-26.5	-27.3	17.2	0.00e+00	0	43	102	1048576	14	3927
2026-01-23 09:54:18.21	59.40	62.24	-26.6	-27.5	17.2	0.00e+00	0	43	102	1048576	14	3986
2026-01-23 09:54:19.21	58.41	62.20	-26.2	-27.0	17.7	0.00e+00	0	43	102	1048576	13	3957
2026-01-23 09:54:20.22	57.42	62.16	-26.6	-27.9	17.3	0.00e+00	0	43	102	1048576	13	4178
2026-01-23 09:54:21.22	56.43	62.10	-27.2	-28.7	16.5	0.00e+00	0	44	102	1048576	14	4287
2026-01-23 09:54:22.23	55.45	62.04	-27.5	-28.9	16.2	0.00e+00	0	44	102	1048576	15	4249
2026-01-23 09:54:23.23	54.48	61.98	-27.2	-28.2	16.6	0.00e+00	0	43	102	1048576	15	4063
2026-01-23 09:54:24.24	53.50	61.90	-27.2	-28.2	16.6	0.00e+00	0	44	102	1048576	15	4062
2026-01-23 09:54:25.25	52.54	61.82	-27.5	-28.8	16.2	0.00e+00	0	44	102	1048576	15	4208
2026-01-23 09:54:26.25	51.58	61.73	-27.2	-28.3	16.5	0.00e+00	0	43	102	1048576	15	4083
2026-01-23 09:54:27.25	50.64	61.64	-27.1	-28.0	16.7	0.00e+00	0	44	102	1048576	15	3988
2026-01-23 09:54:28.26	49.69	61.53	-26.9	-27.6	16.9	0.00e+00	0	44	102	1048576	15	3890
2026-01-23 09:54:29.26	48.76	61.43	-26.8	-27.9	17.1	0.00e+00	0	43	102	1048576	14	4075
2026-01-23 09:54:30.27	47.83	61.31	-26.6	-27.5	17.2	0.00e+00	0	44	102	1048576	14	3972
2026-01-23 09:54:31.27	46.92	61.19	-26.3	-27.3	17.6	0.00e+00	0	43	102	1048576	13	4036
2026-01-23 09:54:32.27	46.02	61.06	-26.8	-28.4	17.0	8.30e-06	0	43	102	1048576	13	4330
2026-01-23 09:54:33.27	45.12	60.93	-27.4	-29.2	16.3	0.00e+00	0	43	102	1048576	14	4445
2026-01-23 09:54:34.28	44.23	60.79	-27.8	-29.7	15.8	0.00e+00	0	43	102	1048576	15	4451
2026-01-23 09:54:35.28	43.35	60.65	-27.4	-28.8	16.2	0.00e+00	0	43	102	1048576	15	4206
2026-01-23 09:54:36.28	42.49	60.50	-26.9	-27.7	16.8	0.00e+00	0	44	102	1048576	15	3921
2026-01-23 09:54:37.29	41.63	60.34	-27.0	-27.8	16.9	0.00e+00	0	43	102	1048576	15	3953
2026-01-23 09:54:38.29	40.78	60.18	-27.1	-28.0	16.7	2.20e-06	0	44	102	1048576	15	4009
2026-01-23 09:54:39.29	39.95	60.02	-27.4	-28.8	16.3	0.00e+00	0	43	102	1048576	15	4209
2026-01-23 09:54:40.29	39.13	59.85	-27.8	-29.6	15.9	0.00e+00	0	43	102	1048576	15	4425
2026-01-23 09:54:41.29	38.32	59.67	-27.6	-29.1	16.1	2.20e-06	0	44	102	1048576	15	4300
2026-01-23 09:54:42.29	37.52	59.49	-27.2	-28.3	16.5	0.00e+00	0	43	102	1048576	15	4065
2026-01-23 09:54:43.30	36.72	59.31	-27.3	-28.5	16.4	0.00e+00	0	44	102	1048576	15	4118
2026-01-23 09:54:44.30	35.94	59.12	-27.7	-29.4	15.9	0.00e+00	0	43	102	1048576	15	4378
2026-01-23 09:54:45.29	35.19	58.93	-28.3	-30.2	15.5	0.00e+00	0	43	102	1048576	16	4463
2026-01-23 09:54:46.29	34.43	58.73	-28.4	-29.9	15.3	0.00e+00	0	44	102	1048576	17	4284
2026-01-23 09:54:47.29	33.69	58.53	-27.7	-28.9	16.2	3.00e-06	0	44	102	1048576	16	4100
2026-01-23 09:54:48.30	32.95	58.32	-27.4	-28.1	16.5	0.00e+00	0	43	102	1048576	16	3916
2026-01-23 09:54:49.30	32.23	58.11	-27.1	-27.9	16.7	0.00e+00	0	43	102	1048576	15	3981
2026-01-23 09:54:50.31	31.51	57.90	-27.0	-27.8	16.8	0.00e+00	0	44	102	1048576	15	3934
2026-01-23 09:54:51.30	30.82	57.69	-27.5	-28.9	16.2	0.00e+00	0	44	102	1048576	15	4240
2026-01-23 09:54:52.31	30.12	57.47	-28.6	-30.3	15.1	0.00e+00	0	44	102	1048576	17	4396
2026-01-23 09:54:53.31	29.45	57.25	-28.5	-30.1	15.1	0.00e+00	0	44	102	1048576	17	4341
2026-01-23 09:54:54.31	28.78	57.02	-28.2	-29.5	15.4	0.00e+00	0	44	102	1048576	17	4166
2026-01-23 09:54:55.32	28.12	56.80	-28.3	-29.7	15.3	0.00e+00	0	44	102	1048576	17	4232
2026-01-23 09:54:56.32	27.48	56.57	-28.4	-30.0	15.2	0.00e+00	0	43	102	1048576	17	4300
2026-01-23 09:54:57.32	26.85	56.33	-28.0	-29.0	15.8	0.00e+00	0	44	102	1048576	17	4030
2026-01-23 09:54:58.33	26.22	56.10	-28.0	-29.0	15.7	7.00e-07	0	43	102	1048576	17	4038
2026-01-23 09:54:59.33	25.61	55.86	-28.6	-30.5	14.9	0.00e+00	0	44	102	1048576	17	4458
2026-01-23 09:55:00.34	25.00	55.62	-29.5	-31.6	13.7	5.30e-06	0	44	102	1048576	19	4565
2026-01-23 09:55:01.35	24.40	55.38	-29.6	-31.9	13.5	9.10e-06	0	43	102	1048576	19	4655
2026-01-23 09:55:02.35	23.82	55.14	-28.7	-30.1	14.8	0.00e+00	0	43	102	1048576	18	4239
2026-01-23 09:55:03.35	23.25	54.89	-27.8	-28.6	15.9	0.00e+00	0	44	102	1048576	17	3944
2026-01-23 09:55:04.36	22.69	54.64	-27.6	-28.7	16.1	0.00e+00	0	43	102	1048576	16	4068
2026-01-23 09:55:05.37	22.13	54.39	-27.9	-29.4	15.7	0.00e+00	0	44	102	1048576	16	4244
2026-01-23 09:55:06.36	21.60	54.15	-28.1	-29.8	15.5	7.00e-07	0	43	102	1048576	16	4375
2026-01-23 09:55:07.37	21.06	53.89	-28.4	-30.5	15.2	0.00e+00	0	43	102	1048576	16	4577
2026-01-23 09:55:08.37	20.54	53.64	-28.7	-30.7	14.8	0.00e+00	0	44	102	1048576	17	4514
2026-01-23 09:55:09.37	20.02	53.39	-28.6	-30.5	14.9	7.00e-07	0	44	102	1048576	17	4446
2026-01-23 09:55:10.37	19.52	53.14	-28.3	-29.7	15.3	0.00e+00	0	44	102	1048576	17	4233
2026-01-23 09:55:11.38	19.02	52.88	-28.3	-29.7	15.3	0.00e+00	0	44	102	1048576	17	4213
2026-01-23 09:55:12.38	18.53	52.63	-28.5	-30.2	15.0	0.00e+00	0	43	102	1048576	17	4364
2026-01-23 09:55:13.39	18.05	52.37	-29.0	-31.3	14.3	7.00e-07	0	43	102	1048576	17	4683
2026-01-23 09:55:14.39	17.57	52.11	-29.5	-31.6	13.5	6.10e-06	0	43	102	1048576	19	4565
2026-01-23 09:55:15.40	17.11	51.85	-29.9	-32.4	13.2	1.67e-05	0	43	102	1048576	19	4811
2026-01-23 09:55:16.41	16.65	51.59	-29.8	-32.2	13.2	2.59e-05	0	43	102	1048576	19	4755
2026-01-23 09:55:17.41	16.20	51.33	-29.1	-30.5	14.2	3.00e-06	0	43	102	1048576	19	4247
2026-01-23 09:55:18.42	15.76	51.07	-28.6	-29.9	14.9	0.00e+00	0	44	102	1048576	18	4178
2026-01-23 09:55:19.42	15.33	50.81	-28.7	-30.1	14.8	0.00e+00	0	44	102	1048576	18	4226
2026-01-23 09:55:20.43	14.90	50.55	-28.6	-29.9	15.0	7.00e-07	0	44	102	1048576	18	4172
2026-01-23 09:55:21.43	14.49	50.29	-28.6	-29.8	15.0	1.50e-06	0	44	102	1048576	18	4153
2026-01-23 09:55:22.44	14.07	50.03	-29.2	-31.2	14.2	0.00e+00	0	43	102	1048576	18	4541
2026-01-23 09:55:23.44	13.67	49.77	-30.0	-32.7	12.9	2.82e-05	0	44	102	1048576	19	4923
2026-01-23 09:55:24.45	13.27	49.51	-30.6	-33.4	11.8	3.11e-04	0	43	102	1048576	21	4971
2026-01-23 09:55:25.45	12.88	49.25	-30.5	-33.2	11.8	5.16e-04	0	43	102	1048576	21	4894
2026-01-23 09:55:26.46	12.50	48.98	-29.7	-31.7	12.9	7.09e-05	0	43	102	1048576	20	4485
2026-01-23 09:55:27.47	12.12	48.72	-29.2	-30.8	13.9	3.00e-06	0	44	102	1048576	19	4315
2026-01-23 09:55:28.47	11.75	48.46	-29.0	-30.3	14.4	0.00e+00	0	44	102	1048576	19	4169
2026-01-23 09:55:29.48	11.38	48.20	-29.2	-30.8	14.1	7.00e-07	0	44	102	1048576	19	4319
2026-01-23 09:55:30.48	11.03	47.94	-29.6	-31.8	13.5	1.44e-05	0	44	102	1048576	19	4609
2026-01-23 09:55:31.49	10.67	47.68	-30.1	-32.5	12.7	4.73e-05	0	43	102	1048576	20	4742
2026-01-23 09:55:32.50	10.33	47.42	-30.8	-33.9	11.5	6.61e-04	0	43	102	1048576	21	5144
2026-01-23 09:55:33.50	9.99	47.16	-31.3	-34.8	10.6	2.06e-03	0	44	102	1048576	22	5367
2026-01-23 09:55:34.51	9.65	46.90	-31.6	-34.9	10.1	6.85e-03	0	44	102	1048576	23	5307
2026-01-23 09:55:35.51	9.32	46.65	-31.6	-34.9	10.1	6.49e-03	0	44	102	1048576	23	5297
2026-01-23 09:55:36.52	9.00	46.39	-31.1	-33.7	10.9	3.10e-03	0	44	102	1048576	23	4848
2026-01-23 09:55:37.53	8.68	46.13	-30.3	-32.0	12.4	3.00e-04	0	44	102	1048576	22	4366
2026-01-23 09:55:38.53	8.37	45.88	-29.5	-31.0	13.6	2.51e-05	0	43	102	1048576	20	4284
2026-01-23 09:55:39.53	8.06	45.62	-29.3	-30.5	13.9	3.80e-06	0	43	102	1048576	20	4131
2026-01-23 09:55:40.53	7.76	45.37	-29.6	-31.3	13.4	6.80e-06	0	44	102	1048576	20	4378
2026-01-23 09:55:41.54	7.46	45.12	-30.0	-32.2	12.8	5.41e-05	0	44	102	1048576	20	4652
2026-01-23 09:55:42.54	7.16	44.86	-30.5	-33.5	12.1	1.72e-04	0	44	102	1048576	20	5086
2026-01-23 09:55:43.53	6.88	44.62	-30.9	-34.1	11.3	1.08e-03	0	43	102	1048576	21	5213
2026-01-23 09:55:44.54	6.59	44.36	-31.1	-34.2	10.9	1.59e-03	0	43	102	1048576	22	5140
2026-01-23 09:55:45.55	6.31	44.11	-30.9	-33.7	11.3	2.02e-03	0	44	102	1048576	22	4919
2026-01-23 09:55:46.55	6.04	43.86	-30.7	-33.0	11.7	7.20e-04	0	43	102	1048576	22	4707
2026-01-23 09:55:47.56	5.77	43.61	-30.7	-32.9	11.8	4.81e-04	0	43	102	1048576	22	4680
2026-01-23 09:55:48.56	5.50	43.37	-30.6	-32.8	11.8	4.14e-04	0	44	102	1048576	22	4643
2026-01-23 09:55:49.57	5.24	43.12	-30.6	-32.7	11.9	3.84e-04	0	43	102	1048576	22	4604
2026-01-23 09:55:50.58	4.98	42.87	-30.1	-32.1	12.6	1.47e-04	0	44	102	1048576	21	4503
2026-01-23 09:55:51.58	4.72	42.63	-29.4	-30.8	13.6	2.21e-05	0	43	102	1048576	20	4234
2026-01-23 09:55:52.58	4.47	42.38	-28.9	-30.1	14.4	0.00e+00	0	44	102	1048576	19	4138
2026-01-23 09:55:53.59	4.22	42.14	-29.0	-30.4	14.2	7.00e-07	0	43	102	1048576	19	4214
2026-01-23 09:55:54.59	3.98	41.90	-29.4	-31.2	13.7	3.00e-06	0	43	102	1048576	19	4452
2026-01-23 09:55:55.60	3.74	41.66	-29.7	-31.9	13.2	2.44e-05	0	44	102	1048576	19	4679
2026-01-23 09:55:56.60	3.51	41.42	-29.9	-32.6	12.8	6.86e-05	0	44	102	1048576	19	4915
2026-01-23 09:55:57.60	3.27	41.18	-30.0	-32.4	12.7	7.32e-05	0	44	102	1048576	20	4721
2026-01-23 09:55:58.60	3.05	40.94	-29.8	-31.9	12.9	6.33e-05	0	44	102	1048576	20	4578
2026-01-23 09:55:59.60	2.82	40.71	-29.5	-31.0	13.5	1.90e-05	0	44	102	1048576	20	4281
2026-01-23 09:56:00.60	2.60	40.47	-29.3	-31.1	13.7	7.60e-06	0	44	102	1048576	19	4421
2026-01-23 09:56:01.61	2.38	40.24	-28.9	-30.2	14.3	7.00e-07	0	44	102	1048576	19	4164
2026-01-23 09:56:02.61	2.17	40.00	-28.7	-30.1	14.7	1.50e-06	0	44	102	1048576	18	4226
2026-01-23 09:56:03.61	1.95	39.77	-28.6	-29.8	14.9	0.00e+00	0	44	102	1048576	18	4158
2026-01-23 09:56:04.62	1.74	39.54	-28.6	-29.8	14.8	0.00e+00	0	43	102	1048576	18	4165
2026-01-23 09:56:05.63	1.53	39.31	-28.8	-30.3	14.6	7.00e-07	0	44	102	1048576	18	4284
2026-01-23 09:56:06.63	1.33	39.08	-28.9	-30.7	14.4	2.20e-06	0	43	102	1048576	18	4395
2026-01-23 09:56:07.64	1.13	38.85	-29.1	-31.2	14.1	7.00e-07	0	44	102	1048576	18	4555
2026-01-23 09:56:08.64	0.93	38.62	-29.1	-31.1	14.1	1.50e-06	0	44	102	1048576	18	4540
2026-01-23 09:56:09.65	0.74	38.40	-29.3	-31.6	13.8	2.20e-06	0	43	102	1048576	18	4685
2026-01-23 09:56:10.65	0.54	38.17	-29.4	-31.7	13.7	6.80e-06	0	43	102	1048576	18	4727
2026-01-23 09:56:11.66	0.35	37.95	-29.6	-31.7	13.4	1.29e-05	0	44	102	1048576	19	4607
2026-01-23 09:56:12.67	0.17	37.72	-29.7	-32.1	13.2	2.51e-05	0	44	102	1048576	19	4747
2026-01-23 09:56:13.67	359.98	37.50	-29.6	-31.9	13.3	1.75e-05	0	44	102	1048576	19	4668
2026-01-23 09:56:14.68	359.80	37.28	-29.4	-31.4	13.6	6.10e-06	0	43	102	1048576	19	4520
2026-01-23 09:56:15.68	359.62	37.06	-29.2	-31.0	13.8	4.50e-06	0	43	102	1048576	19	4394
2026-01-23 09:56:16.68	359.44	36.85	-29.2	-30.8	13.9	3.00e-06	0	44	102	1048576	19	4349
2026-01-23 09:56:17.68	359.27	36.63	-28.9	-30.1	14.3	1.50e-06	0	43	102	1048576	19	4127
2026-01-23 09:56:18.68	359.10	36.42	-28.9	-30.6	14.3	3.00e-06	0	44	102	1048576	18	4379
2026-01-23 09:56:19.69	358.93	36.20	-28.9	-30.6	14.3	7.00e-07	0	44	102	1048576	18	4376
2026-01-23 09:56:20.69	358.76	35.99	-29.1	-31.0	14.1	2.20e-06	0	44	102	1048576	18	4499
2026-01-23 09:56:21.70	358.59	35.77	-29.3	-31.6	13.8	2.20e-06	0	44	102	1048576	18	4681
2026-01-23 09:56:22.71	358.43	35.56	-29.4	-31.9	13.6	6.80e-06	0	44	102	1048576	18	4796
2026-01-23 09:56:23.71	358.27	35.35	-29.5	-31.6	13.5	1.06e-05	0	44	102	1048576	19	4576
2026-01-23 09:56:24.72	358.11	35.14	-29.4	-31.3	13.7	6.80e-06	0	44	102	1048576	19	4494
2026-01-23 09:56:25.72	357.95	34.94	-29.2	-30.9	13.9	5.30e-06	0	44	102	1048576	19	4364
2026-01-23 09:56:26.73	357.80	34.73	-29.2	-30.9	13.9	2.20e-06	0	44	102	1048576	19	4365
2026-01-23 09:56:27.73	357.64	34.52	-29.4	-31.3	13.6	8.30e-06	0	43	102	1048576	19	4499
2026-01-23 09:56:28.74	357.49	34.32	-29.3	-31.0	13.7	6.80e-06	0	43	102	1048576	19	4411
2026-01-23 09:56:29.73	357.35	34.12	-29.1	-30.7	13.9	4.50e-06	0	44	102	1048576	19	4314
2026-01-23 09:56:30.74	357.20	33.91	-29.0	-30.5	14.0	7.00e-07	0	44	102	1048576	19	4256
2026-01-23 09:56:31.74	357.05	33.71	-29.0	-30.3	14.1	1.50e-06	0	44	102	1048576	19	4198
2026-01-23 09:56:32.74	356.91	33.51	-29.0	-30.4	14.1	0.00e+00	0	43	102	1048576	19	4218
2026-01-23 09:56:33.75	356.77	33.31	-28.8	-29.9	14.4	2.20e-06	0	43	102	1048576	19	4093
2026-01-23 09:56:34.76	356.63	33.11	-28.7	-30.2	14.5	7.00e-07	0	44	102	1048576	18	4268
2026-01-23 09:56:35.75	356.49	32.92	-28.4	-29.6	14.8	0.00e+00	0	43	102	1048576	18	4104
2026-01-23 09:56:36.76	356.35	32.72	-28.2	-29.4	15.2	0.00e+00	0	44	102	1048576	17	4159
2026-01-23 09:56:37.76	356.22	32.53	-28.0	-29.0	15.4	0.00e+00	0	44	102	1048576	17	4057
2026-01-23 09:56:38.76	356.08	32.34	-28.0	-29.0	15.4	0.00e+00	0	43	102	1048576	17	4061
2026-01-23 09:56:39.77	355.95	32.14	-28.1	-29.3	15.3	0.00e+00	0	44	102	1048576	17	4133
2026-01-23 09:56:40.77	355.82	31.95	-28.4	-29.9	14.9	0.00e+00	0	44	102	1048576	17	4310
2026-01-23 09:56:41.77	355.69	31.76	-28.4	-29.9	14.9	7.00e-07	0	43	102	1048576	17	4296
2026-01-23 09:56:42.77	355.57	31.58	-28.4	-30.0	14.9	0.00e+00	0	43	102	1048576	17	4324
2026-01-23 09:56:43.78	355.44	31.39	-28.6	-30.4	14.6	1.50e-06	0	43	102	1048576	17	4451
2026-01-23 09:56:44.78	355.32	31.20	-28.5	-30.3	14.7	0.00e+00	0	44	102	1048576	17	4417
2026-01-23 09:56:45.78	355.20	31.01	-28.5	-30.2	14.7	0.00e+00	0	43	102	1048576	17	4393
2026-01-23 09:56:46.79	355.07	30.83	-28.5	-30.3	14.7	0.00e+00	0	43	102	1048576	17	4408
2026-01-23 09:56:47.79	354.96	30.64	-28.4	-30.0	14.8	0.00e+00	0	43	102	1048576	17	4323
2026-01-23 09:56:48.79	354.84	30.46	-28.3	-29.7	15.0	0.00e+00	0	43	102	1048576	17	4243
2026-01-23 09:56:49.80	354.72	30.28	-28.3	-29.7	15.0	0.00e+00	0	44	102	1048576	17	4240
2026-01-23 09:56:50.81	354.60	30.10	-28.0	-29.1	15.3	0.00e+00	0	43	102	1048576	17	4071
2026-01-23 09:56:51.81	354.49	29.92	-27.8	-29.0	15.7	0.00e+00	0	44	102	1048576	16	4158
2026-01-23 09:56:52.81	354.38	29.74	-27.5	-28.5	15.9	0.00e+00	0	44	102	1048576	16	4018
2026-01-23 09:56:53.82	354.27	29.56	-27.6	-28.7	15.8	0.00e+00	0	44	102	1048576	16	4089
2026-01-23 09:56:54.83	354.15	29.38	-27.4	-28.3	16.1	0.00e+00	0	44	102	1048576	16	3963
2026-01-23 09:56:55.84	354.04	29.21	-27.1	-28.1	16.2	0.00e+00	0	43	102	1048576	15	4043
2026-01-23 09:56:56.84	353.94	29.03	-27.1	-28.1	16.3	0.00e+00	0	44	102	1048576	15	4045
2026-01-23 09:56:57.85	353.83	28.86	-27.2	-28.4	16.1	0.00e+00	0	44	102	1048576	15	4117
2026-01-23 09:56:58.84	353.73	28.69	-27.3	-28.6	16.0	0.00e+00	0	43	102	1048576	15	4172
2026-01-23 09:56:59.85	353.62	28.51	-27.5	-28.9	15.9	0.00e+00	0	43	102	1048576	15	4245
2026-01-23 09:57:00.84	353.52	28.34	-27.6	-29.2	15.6	0.00e+00	0	44	102	1048576	15	4344
2026-01-23 09:57:01.84	353.42	28.17	-27.6	-29.3	15.6	0.00e+00	0	43	102	1048576	15	4365
2026-01-23 09:57:02.85	353.32	28.00	-27.7	-29.4	15.5	0.00e+00	0	43	102	1048576	15	4401
2026-01-23 09:57:03.85	353.22	27.84	-27.7	-29.4	15.6	0.00e+00	0	44	102	1048576	15	4386
2026-01-23 09:57:04.85	353.12	27.67	-27.7	-29.4	15.6	0.00e+00	0	43	102	1048576	15	4389
2026-01-23 09:57:05.86	353.02	27.50	-27.8	-29.7	15.3	0.00e+00	0	43	102	1048576	15	4490
2026-01-23 09:57:06.86	352.92	27.34	-27.9	-29.8	15.3	7.00e-07	0	44	102	1048576	15	4517
2026-01-23 09:57:07.86	352.83	27.17	-27.8	-29.8	15.3	0.00e+00	0	43	102	1048576	15	4500
2026-01-23 09:57:08.86	352.73	27.01	-28.0	-30.1	15.1	0.00e+00	0	43	102	1048576	15	4606
2026-01-23 09:57:09.86	352.64	26.85	-28.0	-29.6	15.3	7.00e-07	0	43	102	1048576	16	4322
2026-01-23 09:57:10.87	352.55	26.68	-27.9	-29.4	15.4	0.00e+00	0	44	102	1048576	16	4266
2026-01-23 09:57:11.88	352.45	26.52	-27.9	-29.3	15.4	0.00e+00	0	44	102	1048576	16	4258
2026-01-23 09:57:12.89	352.36	26.36	-27.8	-29.1	15.5	0.00e+00	0	43	102	1048576	16	4206
2026-01-23 09:57:13.89	352.27	26.20	-27.8	-29.2	15.5	0.00e+00	0	43	102	1048576	16	4216
2026-01-23 09:57:14.89	352.19	26.04	-27.6	-28.7	15.6	0.00e+00	0	43	102	1048576	16	4095
2026-01-23 09:57:15.90	352.10	25.88	-27.5	-28.4	15.8	0.00e+00	0	44	102	1048576	16	4003
2026-01-23 09:57:16.91	352.01	25.73	-27.3	-28.1	16.0	0.00e+00	0	44	102	1048576	16	3935
2026-01-23 09:57:17.91	351.92	25.57	-27.4	-28.2	16.0	0.00e+00	0	43	102	1048576	16	3949
2026-01-23 09:57:18.91	351.84	25.42	-27.1	-28.1	16.2	0.00e+00	0	43	102	1048576	15	4029
2026-01-23 09:57:19.92	351.75	25.26	-27.0	-27.9	16.3	0.00e+00	0	43	102	1048576	15	4001
2026-01-23 09:57:20.91	351.67	25.11	-27.1	-28.2	16.1	0.00e+00	0	44	102	1048576	15	4077
2026-01-23 09:57:21.92	351.59	24.96	-27.1	-28.1	16.1	0.00e+00	0	44	102	1048576	15	4035
2026-01-23 09:57:22.92	351.51	24.81	-27.0	-27.8	16.1	0.00e+00	0	44	102	1048576	15	3973
2026-01-23 09:57:23.93	351.43	24.65	-27.1	-28.1	15.9	2.20e-06	0	43	102	1048576	15	4039
2026-01-23 09:57:24.93	351.35	24.50	-27.1	-28.0	15.9	0.00e+00	0	44	102	1048576	15	4018
2026-01-23 09:57:25.94	351.27	24.35	-27.2	-28.2	15.8	0.00e+00	0	44	102	1048576	15	4079
2026-01-23 09:57:26.94	351.19	24.21	-27.2	-28.3	15.8	1.50e-06	0	43	102	1048576	15	4087
2026-01-23 09:57:27.94	351.11	24.06	-27.3	-28.5	15.7	0.00e+00	0	43	102	1048576	15	4132
2026-01-23 09:57:28.94	351.03	23.91	-27.3	-28.6	15.6	0.00e+00	0	43	102	1048576	15	4177
2026-01-23 09:57:29.95	350.96	23.76	-27.3	-28.6	15.6	0.00e+00	0	43	102	1048576	15	4178
2026-01-23 09:57:30.95	350.88	23.62	-27.4	-28.7	15.5	0.00e+00	0	43	102	1048576	15	4206
2026-01-23 09:57:31.96	350.81	23.47	-27.3	-28.6	15.5	0.00e+00	0	43	102	1048576	15	4167
2026-01-23 09:57:32.97	350.73	23.33	-27.3	-28.5	15.5	0.00e+00	0	43	102	1048576	15	4148
2026-01-23 09:57:33.97	350.66	23.19	-27.4	-28.7	15.3	0.00e+00	0	43	102	1048576	15	4209
2026-01-23 09:57:34.98	350.58	23.04	-27.2	-28.4	15.5	0.00e+00	0	43	102	1048576	15	4130
2026-01-23 09:57:35.99	350.51	22.90	-27.3	-28.6	15.4	0.00e+00	0	43	102	1048576	15	4164
2026-01-23 09:57:36.99	350.44	22.76	-27.2	-28.4	15.6	0.00e+00	0	43	102	1048576	15	4119
2026-01-23 09:57:38.00	350.37	22.62	-27.3	-28.6	15.6	1.50e-06	0	43	102	1048576	15	4180
2026-01-23 09:57:39.00	350.30	22.48	-27.3	-28.5	15.8	7.00e-07	0	43	102	1048576	15	4146
2026-01-23 09:57:40.00	350.23	22.34	-27.3	-28.6	15.7	0.00e+00	0	43	102	1048576	15	4188
2026-01-23 09:57:41.01	350.16	22.20	-27.3	-28.6	15.8	0.00e+00	0	43	102	1048576	15	4169
2026-01-23 09:57:42.01	350.09	22.06	-27.3	-28.6	15.8	0.00e+00	0	43	102	1048576	15	4167
2026-01-23 09:57:43.02	350.03	21.93	-27.4	-28.7	15.8	0.00e+00	0	44	102	1048576	15	4203
2026-01-23 09:57:44.02	349.96	21.79	-27.3	-28.6	15.8	0.00e+00	0	44	102	1048576	15	4185
2026-01-23 09:57:45.03	349.89	21.65	-27.3	-28.7	15.8	0.00e+00	0	44	102	1048576	15	4199
2026-01-23 09:57:46.04	349.83	21.52	-27.3	-28.5	15.9	0.00e+00	0	43	102	1048576	15	4155
2026-01-23 09:57:47.04	349.76	21.39	-27.4	-28.7	15.7	0.00e+00	0	43	102	1048576	15	4209
2026-01-23 09:57:48.04	349.70	21.25	-27.3	-28.6	15.8	0.00e+00	0	43	102	1048576	15	4185
2026-01-23 09:57:49.05	349.63	21.12	-27.4	-28.7	15.7	0.00e+00	0	43	102	1048576	15	4211
2026-01-23 09:57:50.05	349.57	20.99	-27.5	-29.2	15.4	0.00e+00	0	43	102	1048576	15	4334
2026-01-23 09:57:51.06	349.51	20.85	-27.4	-28.8	15.6	0.00e+00	0	43	102	1048576	15	4235
2026-01-23 09:57:52.06	349.45	20.72	-27.3	-28.7	15.7	0.00e+00	0	43	102	1048576	15	4205
2026-01-23 09:57:53.07	349.38	20.59	-27.4	-28.8	15.7	0.00e+00	0	43	102	1048576	15	4226
2026-01-23 09:57:54.07	349.32	20.46	-27.4	-28.7	15.7	0.00e+00	0	44	102	1048576	15	4212
2026-01-23 09:57:55.07	349.26	20.34	-27.4	-28.9	15.6	0.00e+00	0	44	102	1048576	15	4255
2026-01-23 09:57:56.08	349.20	20.21	-27.5	-29.0	15.5	0.00e+00	0	43	102	1048576	15	4291
2026-01-23 09:57:57.08	349.14	20.08	-27.5	-29.0	15.5	0.00e+00	0	43	102	1048576	15	4280
2026-01-23 09:57:58.09	349.08	19.95	-27.5	-29.1	15.5	0.00e+00	0	44	102	1048576	15	4307
2026-01-23 09:57:59.09	349.03	19.83	-27.5	-29.1	15.4	0.00e+00	0	43	102	1048576	15	4313
2026-01-23 09:58:00.10	348.97	19.70	-27.6	-29.3	15.3	0.00e+00	0	44	102	1048576	15	4365
2026-01-23 09:58:01.11	348.91	19.57	-27.6	-29.4	15.3	0.00e+00	0	44	102	1048576	15	4391
2026-01-23 09:58:02.11	348.85	19.45	-27.8	-29.6	15.1	0.00e+00	0	43	102	1048576	15	4475
2026-01-23 09:58:03.12	348.80	19.32	-27.6	-29.3	15.3	0.00e+00	0	43	102	1048576	15	4380
2026-01-23 09:58:04.13	348.74	19.20	-27.5	-29.2	15.4	0.00e+00	0	43	102	1048576	15	4339
2026-01-23 09:58:05.13	348.69	19.08	-27.6	-29.3	15.3	0.00e+00	0	43	102	1048576	15	4374
2026-01-23 09:58:06.14	348.63	18.95	-27.6	-29.3	15.4	0.00e+00	0	43	102	1048576	15	4371
2026-01-23 09:58:07.15	348.58	18.83	-27.7	-29.5	15.3	0.00e+00	0	44	102	1048576	15	4436
2026-01-23 09:58:08.16	348.52	18.71	-27.7	-29.5	15.2	0.00e+00	0	44	102	1048576	15	4448
2026-01-23 09:58:09.16	348.47	18.59	-27.8	-29.6	15.1	0.00e+00	0	43	102	1048576	15	4469
2026-01-23 09:58:10.16	348.42	18.47	-27.8	-29.7	15.1	0.00e+00	0	43	102	1048576	15	4487
2026-01-23 09:58:11.17	348.36	18.35	-27.8	-29.8	15.0	0.00e+00	0	43	102	1048576	15	4514
2026-01-23 09:58:12.18	348.31	18.23	-27.8	-29.7	15.1	0.00e+00	0	44	102	1048576	15	4508
2026-01-23 09:58:13.17	348.26	18.11	-27.9	-29.9	14.9	0.00e+00	0	43	102	1048576	15	4552
2026-01-23 09:58:14.18	348.21	18.00	-27.8	-29.7	15.0	0.00e+00	0	44	102	1048576	15	4504
2026-01-23 09:58:15.19	348.16	17.88	-27.8	-29.7	15.0	0.00e+00	0	43	102	1048576	15	4495
2026-01-23 09:58:16.20	348.11	17.76	-27.8	-29.8	15.0	0.00e+00	0	43	102	1048576	15	4517
2026-01-23 09:58:17.19	348.06	17.65	-28.0	-30.1	14.8	0.00e+00	0	43	102	1048576	15	4613
2026-01-23 09:58:18.20	348.01	17.53	-27.8	-29.9	14.9	0.00e+00	0	43	102	1048576	15	4549
2026-01-23 09:58:19.21	347.96	17.41	-27.9	-30.0	14.9	0.00e+00	0	43	102	1048576	15	4569
2026-01-23 09:58:20.21	347.91	17.30	-27.9	-30.0	14.8	0.00e+00	0	43	102	1048576	15	4594
2026-01-23 09:58:21.21	347.86	17.18	-27.9	-29.9	14.9	7.00e-07	0	43	102	1048576	15	4564
2026-01-23 09:58:22.21	347.81	17.07	-27.8	-29.9	14.9	0.00e+00	0	44	102	1048576	15	4552
2026-01-23 09:58:23.22	347.76	16.96	-27.9	-30.0	14.8	0.00e+00	0	43	102	1048576	15	4592
2026-01-23 09:58:24.22	347.72	16.85	-27.9	-30.1	14.8	0.00e+00	0	44	102	1048576	15	4611
2026-01-23 09:58:25.23	347.67	16.73	-28.0	-30.1	14.8	0.00e+00	0	43	102	1048576	15	4633
2026-01-23 09:58:26.24	347.62	16.62	-28.2	-30.3	14.6	0.00e+00	0	43	102	1048576	16	4541
2026-01-23 09:58:27.25	347.58	16.51	-28.2	-30.2	14.7	0.00e+00	0	43	102	1048576	16	4512
2026-01-23 09:58:28.25	347.53	16.40	-28.3	-30.3	14.6	1.50e-06	0	43	102	1048576	16	4553
2026-01-23 09:58:29.24	347.49	16.29	-28.3	-30.3	14.5	1.50e-06	0	43	102	1048576	16	4566
2026-01-23 09:58:30.25	347.44	16.18	-28.3	-30.4	14.5	7.00e-07	0	43	102	1048576	16	4570
2026-01-23 09:58:31.26	347.40	16.07	-28.3	-30.4	14.5	7.00e-07	0	44	102	1048576	16	4574
2026-01-23 09:58:32.25	347.35	15.96	-28.3	-30.4	14.5	7.00e-07	0	44	102	1048576	16	4596
2026-01-23 09:58:33.26	347.31	15.85	-28.4	-30.7	14.3	7.00e-07	0	43	102	1048576	16	4675
2026-01-23 09:58:34.26	347.27	15.75	-28.3	-30.5	14.4	1.50e-06	0	43	102	1048576	16	4606
2026-01-23 09:58:35.26	347.22	15.64	-28.3	-30.3	14.5	0.00e+00	0	44	102	1048576	16	4557
2026-01-23 09:58:36.27	347.18	15.53	-28.3	-30.3	14.5	7.00e-07	0	43	102	1048576	16	4556
2026-01-23 09:58:37.27	347.14	15.42	-28.2	-30.3	14.5	7.00e-07	0	44	102	1048576	16	4554
2026-01-23 09:58:38.28	347.09	15.32	-28.4	-30.5	14.3	7.00e-07	0	44	102	1048576	16	4631
2026-01-23 09:58:39.28	347.05	15.21	-28.3	-30.4	14.4	0.00e+00	0	43	102	1048576	16	4587
2026-01-23 09:58:40.28	347.01	15.11	-28.4	-30.6	14.3	7.00e-07	0	44	102	1048576	16	4659
2026-01-23 09:58:41.29	346.97	15.00	-28.3	-30.5	14.4	7.00e-07	0	44	102	1048576	16	4624
2026-01-23 09:58:42.30	346.93	14.90	-28.4	-30.6	14.3	0.00e+00	0	43	102	1048576	16	4639
2026-01-23 09:58:43.29	346.89	14.80	-28.5	-30.3	14.2	0.00e+00	0	43	102	1048576	17	4442
2026-01-23 09:58:44.29	346.85	14.69	-28.3	-30.0	14.3	7.00e-07	0	43	102	1048576	17	4359
2026-01-23 09:58:45.29	346.81	14.59	-28.3	-30.0	14.3	7.00e-07	0	43	102	1048576	17	4363
2026-01-23 09:58:46.29	346.77	14.49	-28.4	-30.2	14.3	0.00e+00	0	43	102	1048576	17	4416
2026-01-23 09:58:47.29	346.73	14.39	-28.3	-30.0	14.3	7.00e-07	0	44	102	1048576	17	4365
2026-01-23 09:58:48.29	346.69	14.28	-28.3	-29.9	14.4	1.50e-06	0	44	102	1048576	17	4334
2026-01-23 09:58:49.28	346.65	14.18	-28.3	-30.0	14.3	7.00e-07	0	43	102	1048576	17	4357
2026-01-23 09:58:50.29	346.61	14.08	-28.3	-30.0	14.3	7.00e-07	0	43	102	1048576	17	4354
2026-01-23 09:58:51.29	346.57	13.98	-28.4	-30.0	14.3	7.00e-07	0	44	102	1048576	17	4369
2026-01-23 09:58:52.30	346.54	13.88	-28.3	-30.0	14.3	0.00e+00	0	44	102	1048576	17	4349
2026-01-23 09:58:53.30	346.50	13.78	-28.4	-30.1	14.2	1.50e-06	0	43	102	1048576	17	4398
2026-01-23 09:58:54.30	346.46	13.68	-28.4	-30.1	14.2	0.00e+00	0	44	102	1048576	17	4390
2026-01-23 09:58:55.30	346.42	13.58	-28.5	-30.4	14.0	6.10e-06	0	43	102	1048576	17	4494
2026-01-23 09:58:56.30	346.39	13.49	-28.4	-30.2	14.1	1.50e-06	0	43	102	1048576	17	4429
2026-01-23 09:58:57.31	346.35	13.39	-28.4	-30.2	14.2	0.00e+00	0	43	102	1048576	17	4412
2026-01-23 09:58:58.31	346.31	13.29	-28.4	-30.3	14.1	7.00e-07	0	43	102	1048576	17	4439
2026-01-23 09:58:59.32	346.28	13.19	-28.4	-30.1	14.2	7.00e-07	0	43	102	1048576	17	4404
2026-01-23 09:59:00.33	346.24	13.09	-28.4	-30.1	14.2	0.00e+00	0	43	102	1048576	17	4395
2026-01-23 09:59:01.33	346.21	13.00	-28.4	-30.2	14.1	2.20e-06	0	44	102	1048576	17	4410
2026-01-23 09:59:02.34	346.17	12.90	-28.3	-30.1	14.2	7.00e-07	0	44	102	1048576	17	4381
2026-01-23 09:59:03.34	346.14	12.81	-28.4	-30.2	14.1	2.20e-06	0	44	102	1048576	17	4419
2026-01-23 09:59:04.35	346.10	12.71	-28.4	-30.2	14.1	1.50e-06	0	43	102	1048576	17	4435
2026-01-23 09:59:05.35	346.07	12.61	-28.4	-30.3	14.1	2.20e-06	0	44	102	1048576	17	4453
2026-01-23 09:59:06.36	346.03	12.52	-28.5	-30.4	14.0	2.20e-06	0	44	102	1048576	17	4476
2026-01-23 09:59:07.37	346.00	12.42	-28.5	-30.4	13.9	2.20e-06	0	43	102	1048576	17	4498
2026-01-23 09:59:08.36	345.96	12.33	-28.5	-30.4	13.9	6.10e-06	0	43	102	1048576	17	4499
2026-01-23 09:59:09.37	345.93	12.24	-28.5	-30.5	13.9	1.50e-06	0	44	102	1048576	17	4512
2026-01-23 09:59:10.37	345.90	12.14	-28.5	-30.5	13.9	5.30e-06	0	44	102	1048576	17	4527
2026-01-23 09:59:11.37	345.86	12.05	-28.6	-30.6	13.8	3.00e-06	0	44	102	1048576	17	4564
2026-01-23 09:59:12.38	345.83	11.96	-28.6	-30.7	13.8	7.60e-06	0	43	102	1048576	17	4584
2026-01-23 09:59:13.39	345.80	11.86	-28.6	-30.7	13.7	3.00e-06	0	44	102	1048576	17	4569
2026-01-23 09:59:14.39	345.77	11.77	-28.6	-30.7	13.7	7.60e-06	0	44	102	1048576	17	4596
2026-01-23 09:59:15.40	345.73	11.68	-28.7	-30.9	13.6	1.06e-05	0	44	102	1048576	17	4657
2026-01-23 09:59:16.40	345.70	11.59	-28.6	-30.8	13.6	4.50e-06	0	44	102	1048576	17	4616
2026-01-23 09:59:17.41	345.67	11.50	-28.6	-30.7	13.7	5.30e-06	0	44	102	1048576	17	4584
2026-01-23 09:59:18.41	345.64	11.41	-28.7	-30.9	13.6	8.30e-06	0	43	102	1048576	17	4645
2026-01-23 09:59:19.42	345.61	11.32	-28.7	-31.0	13.5	1.06e-05	0	44	102	1048576	17	4677
2026-01-23 09:59:20.42	345.58	11.23	-28.7	-30.9	13.6	6.10e-06	0	44	102	1048576	17	4637
2026-01-23 09:59:21.42	345.55	11.14	-28.6	-30.8	13.7	9.10e-06	0	43	102	1048576	17	4621
2026-01-23 09:59:22.43	345.51	11.05	-28.7	-31.0	13.5	1.90e-05	0	44	102	1048576	17	4675
2026-01-23 09:59:23.43	345.48	10.96	-28.8	-31.3	13.3	1.83e-05	0	44	102	1048576	17	4759
2026-01-23 09:59:24.44	345.45	10.87	-28.7	-31.0	13.5	1.37e-05	0	43	102	1048576	17	4694
2026-01-23 09:59:25.45	345.42	10.78	-28.8	-31.2	13.4	1.83e-05	0	43	102	1048576	17	4734
2026-01-23 09:59:26.46	345.39	10.69	-28.6	-30.7	13.6	1.44e-05	0	44	102	1048576	17	4590
2026-01-23 09:59:27.46	345.36	10.60	-28.6	-30.7	13.6	8.30e-06	0	44	102	1048576	17	4600
2026-01-23 09:59:28.46	345.33	10.52	-28.7	-30.9	13.5	7.60e-06	0	43	102	1048576	17	4645
2026-01-23 09:59:29.47	345.31	10.43	-28.7	-31.1	13.4	1.83e-05	0	43	102	1048576	17	4706
2026-01-23 09:59:30.48	345.28	10.34	-28.8	-31.1	13.4	1.44e-05	0	44	102	1048576	17	4724
2026-01-23 09:59:31.47	345.25	10.25	-28.7	-31.0	13.4	1.37e-05	0	44	102	1048576	17	4679
2026-01-23 09:59:32.47	345.22	10.17	-28.8	-31.2	13.3	9.90e-06	0	43	102	1048576	17	4750
2026-01-23 09:59:33.47	345.19	10.08	-28.8	-31.3	13.2	2.97e-05	0	44	102	1048576	17	4774
2026-01-23 09:59:34.48	345.16	10.00	-28.7	-31.1	13.3	1.22e-05	0	44	102	1048576	17	4722
2026-01-23 09:59:35.48	345.13	9.91	-28.9	-31.6	13.0	3.89e-05	0	43	102	1048576	17	4881
2026-01-23 09:59:36.49	345.11	9.83	-29.2	-31.8	12.6	6.63e-05	0	44	102	1048576	18	4839
2026-01-23 09:59:37.50	345.08	9.74	-29.5	-32.5	12.2	1.75e-04	0	43	102	1048576	18	5073
2026-01-23 09:59:38.49	345.05	9.66	-29.4	-32.3	12.3	1.94e-04	0	43	102	1048576	18	5019
2026-01-23 09:59:39.50	345.02	9.57	-29.4	-32.3	12.2	1.97e-04	0	44	102	1048576	18	5017
2026-01-23 09:59:40.50	345.00	9.49	-29.3	-32.1	12.4	1.87e-04	0	43	102	1048576	18	4930
2026-01-23 09:59:41.50	344.97	9.40	-29.4	-32.2	12.3	1.75e-04	0	43	102	1048576	18	4969
2026-01-23 09:59:42.49	344.94	9.32	-29.4	-32.3	12.2	2.13e-04	0	43	102	1048576	18	5034
2026-01-23 09:59:43.50	344.92	9.24	-29.5	-32.1	12.0	2.57e-04	0	43	102	1048576	19	4836
2026-01-23 09:59:44.50	344.89	9.16	-29.6	-32.2	11.9	4.61e-04	0	44	102	1048576	19	4879
2026-01-23 09:59:45.51	344.86	9.07	-29.3	-31.6	12.3	1.78e-04	0	44	102	1048576	19	4668
