passes_logs/2026/01/23/R2M6_AANII_01/R2M6_AANII_01__20260123_143906_FENGYUN_3E_rec.log

#Pass ID: 20260123_143906_FENGYUN 3E
#Satellite: FENGYUN 3E
#Configuration: FENGYUN 3E
#almurnet v.1.7.20240730
#Start time: 2026-01-23 14:39:08

#Version: 2.2.20231116
#Station: R2M6_AANII_01
#Location: 30.233357 lon 59.946436 lat
#TLE: 1 49008U 21062A   26022.96857035  .00000014  00000+0  27449-4 0  9991
#TLE: 2 49008  98.7488  28.0032 0002359 122.8887 237.2516 14.19886951235971

#Time	Az	El	Level	Level2	SNR	BER	BlckErr	Temp	State	Recorded	gain1	gain2
2026-01-23 14:39:08.24	161.69	7.15	-27.7	-29.2	5.6	7.67e-01	0	41	0	0	16	4299
2026-01-23 14:39:09.23	161.70	7.22	-27.4	-29.1	5.6	7.64e-01	0	41	104	0	15	4385
2026-01-23 14:39:10.24	161.71	7.30	-26.9	-28.0	12.2	3.33e-04	0	42	0	0	15	4060
2026-01-23 14:39:11.24	161.71	7.38	-26.9	-27.8	12.3	2.15e-04	0	42	102	1048576	15	4023
2026-01-23 14:39:12.24	161.72	7.46	-27.0	-28.7	12.1	2.16e-04	0	42	102	1048576	14	4372
2026-01-23 14:39:13.25	161.73	7.54	-27.1	-28.9	12.0	2.82e-04	0	42	102	1048576	14	4436
2026-01-23 14:39:14.25	161.74	7.62	-26.7	-28.0	12.6	1.43e-04	0	42	102	1048576	14	4162
2026-01-23 14:39:15.25	161.74	7.70	-26.9	-28.3	12.4	1.94e-04	0	42	102	1048576	14	4250
2026-01-23 14:39:16.26	161.75	7.78	-27.1	-28.8	12.1	3.08e-04	0	42	102	1048576	14	4401
2026-01-23 14:39:17.27	161.76	7.86	-26.8	-28.3	12.4	2.12e-04	0	42	102	1048576	14	4249
2026-01-23 14:39:18.27	161.77	7.94	-26.7	-27.9	12.6	1.02e-04	0	42	102	1048576	14	4152
2026-01-23 14:39:19.28	161.77	8.02	-26.2	-27.3	13.2	3.54e-05	0	42	102	1048576	13	4094
2026-01-23 14:39:20.28	161.78	8.10	-26.1	-27.1	13.4	1.94e-05	0	42	102	1048576	13	4022
2026-01-23 14:39:21.28	161.79	8.18	-26.2	-27.2	13.3	2.40e-05	0	42	102	1048576	13	4068
2026-01-23 14:39:22.29	161.80	8.26	-26.3	-27.6	13.1	2.74e-05	0	42	102	1048576	13	4166
2026-01-23 14:39:23.27	161.81	8.34	-26.2	-27.3	13.3	2.86e-05	0	42	102	1048576	13	4097
2026-01-23 14:39:24.28	161.81	8.43	-26.3	-27.5	13.2	4.69e-05	0	42	102	1048576	13	4134
2026-01-23 14:39:25.29	161.82	8.51	-26.1	-27.1	13.4	1.25e-05	0	42	102	1048576	13	4041
2026-01-23 14:39:26.29	161.83	8.59	-26.3	-27.5	13.2	1.48e-05	0	42	102	1048576	13	4139
2026-01-23 14:39:27.29	161.84	8.67	-26.2	-27.4	13.2	2.28e-05	0	42	102	1048576	13	4116
2026-01-23 14:39:28.29	161.84	8.76	-26.3	-27.6	13.1	2.28e-05	0	42	102	1048576	13	4165
2026-01-23 14:39:29.29	161.85	8.84	-26.6	-28.2	12.8	7.20e-05	0	42	102	1048576	13	4334
2026-01-23 14:39:30.30	161.86	8.92	-26.1	-27.2	13.4	2.28e-05	0	42	102	1048576	13	4053
2026-01-23 14:39:31.30	161.87	9.01	-25.9	-26.7	13.6	1.48e-05	0	42	102	1048576	13	3938
2026-01-23 14:39:32.31	161.88	9.09	-25.9	-27.1	13.7	8.00e-06	0	42	102	1048576	12	4134
2026-01-23 14:39:33.32	161.89	9.18	-26.0	-27.3	13.6	1.02e-05	0	42	102	1048576	12	4210
2026-01-23 14:39:34.32	161.89	9.26	-25.8	-26.9	13.8	8.00e-06	0	42	102	1048576	12	4101
2026-01-23 14:39:35.33	161.90	9.35	-26.0	-27.5	13.5	8.00e-06	0	42	102	1048576	12	4243
2026-01-23 14:39:36.34	161.91	9.43	-26.3	-28.0	13.3	2.05e-05	0	42	102	1048576	12	4375
2026-01-23 14:39:37.34	161.92	9.52	-25.8	-27.0	13.8	1.48e-05	0	42	102	1048576	12	4128
2026-01-23 14:39:38.34	161.93	9.61	-25.7	-26.7	13.9	1.10e-06	0	43	102	1048576	12	4043
2026-01-23 14:39:39.35	161.94	9.69	-25.7	-26.6	14.0	2.20e-06	0	43	102	1048576	12	4032
2026-01-23 14:39:40.36	161.94	9.78	-25.7	-26.7	14.0	1.10e-06	0	42	102	1048576	12	4047
2026-01-23 14:39:41.36	161.95	9.87	-25.7	-26.7	13.9	5.70e-06	0	42	102	1048576	12	4051
2026-01-23 14:39:42.36	161.96	9.95	-25.7	-26.6	14.0	1.10e-06	0	42	102	1048576	12	4030
2026-01-23 14:39:43.35	161.97	10.04	-25.8	-27.1	13.8	5.70e-06	0	43	102	1048576	12	4143
2026-01-23 14:39:44.35	161.98	10.13	-26.0	-27.3	13.6	1.60e-05	0	43	102	1048576	12	4204
2026-01-23 14:39:45.36	161.99	10.22	-25.8	-26.9	13.9	4.50e-06	0	43	102	1048576	12	4092
2026-01-23 14:39:46.36	161.99	10.30	-25.5	-26.4	14.2	6.80e-06	0	43	102	1048576	12	3955
2026-01-23 14:39:47.37	162.00	10.39	-25.7	-26.7	14.0	4.50e-06	0	43	102	1048576	12	4040
2026-01-23 14:39:48.37	162.01	10.48	-25.8	-26.9	13.9	2.20e-06	0	43	102	1048576	12	4093
2026-01-23 14:39:49.38	162.02	10.57	-25.6	-26.5	14.1	3.40e-06	0	43	102	1048576	12	3993
2026-01-23 14:39:50.38	162.03	10.66	-25.6	-26.5	14.2	0.00e+00	0	43	102	1048576	12	3984
2026-01-23 14:39:51.39	162.04	10.75	-25.6	-26.5	14.2	5.70e-06	0	43	102	1048576	12	3984
2026-01-23 14:39:52.39	162.05	10.84	-25.6	-26.5	14.1	1.10e-06	0	43	102	1048576	12	3999
2026-01-23 14:39:53.39	162.06	10.93	-25.5	-26.3	14.3	0.00e+00	0	43	102	1048576	12	3941
2026-01-23 14:39:54.40	162.06	11.03	-25.4	-26.0	14.4	8.00e-06	0	43	102	1048576	12	3863
2026-01-23 14:39:55.40	162.07	11.12	-25.6	-26.6	14.2	0.00e+00	0	43	102	1048576	12	4006
2026-01-23 14:39:56.41	162.08	11.21	-25.5	-26.1	14.3	0.00e+00	0	43	102	1048576	12	3898
2026-01-23 14:39:57.41	162.09	11.30	-25.3	-26.3	14.6	0.00e+00	0	43	102	1048576	11	4030
2026-01-23 14:39:58.41	162.10	11.39	-25.2	-26.2	14.7	0.00e+00	0	43	102	1048576	11	4011
2026-01-23 14:39:59.42	162.11	11.49	-25.3	-26.4	14.6	1.10e-06	0	43	102	1048576	11	4059
2026-01-23 14:40:00.42	162.12	11.58	-25.4	-26.5	14.5	0.00e+00	0	43	102	1048576	11	4102
2026-01-23 14:40:01.43	162.13	11.67	-25.5	-26.8	14.4	0.00e+00	0	43	102	1048576	11	4160
2026-01-23 14:40:02.43	162.14	11.77	-25.4	-26.5	14.6	0.00e+00	0	43	102	1048576	11	4082
2026-01-23 14:40:03.43	162.15	11.86	-25.4	-26.6	14.5	1.10e-06	0	43	102	1048576	11	4121
2026-01-23 14:40:04.43	162.15	11.96	-25.3	-26.2	14.7	0.00e+00	0	43	102	1048576	11	4020
2026-01-23 14:40:05.43	162.16	12.05	-25.3	-26.2	14.7	0.00e+00	0	43	102	1048576	11	4025
2026-01-23 14:40:06.44	162.17	12.15	-25.2	-26.1	14.7	0.00e+00	0	43	102	1048576	11	3999
2026-01-23 14:40:07.45	162.18	12.24	-25.3	-26.3	14.7	0.00e+00	0	43	102	1048576	11	4034
2026-01-23 14:40:08.44	162.19	12.34	-25.4	-26.4	14.7	0.00e+00	0	43	102	1048576	11	4062
2026-01-23 14:40:09.45	162.20	12.43	-25.6	-26.9	14.4	1.10e-06	0	43	102	1048576	11	4192
2026-01-23 14:40:10.44	162.21	12.53	-25.6	-27.0	14.3	1.10e-06	0	43	102	1048576	11	4214
2026-01-23 14:40:11.45	162.22	12.63	-25.4	-26.5	14.6	2.20e-06	0	43	102	1048576	11	4076
2026-01-23 14:40:12.45	162.23	12.73	-25.2	-26.0	14.9	0.00e+00	0	43	102	1048576	11	3946
2026-01-23 14:40:13.45	162.24	12.82	-25.2	-26.0	14.9	0.00e+00	0	43	102	1048576	11	3961
2026-01-23 14:40:14.45	162.25	12.92	-25.2	-26.1	14.9	0.00e+00	0	43	102	1048576	11	3991
2026-01-23 14:40:15.45	162.26	13.02	-25.3	-26.2	14.8	0.00e+00	0	43	102	1048576	11	3998
2026-01-23 14:40:16.46	162.27	13.12	-25.1	-25.7	15.0	0.00e+00	0	43	102	1048576	11	3884
2026-01-23 14:40:17.45	162.28	13.22	-24.8	-25.6	15.3	0.00e+00	0	43	102	1048576	10	3972
2026-01-23 14:40:18.45	162.29	13.32	-24.8	-25.7	15.3	0.00e+00	0	43	102	1048576	10	3991
2026-01-23 14:40:19.45	162.30	13.42	-24.7	-25.4	15.4	0.00e+00	0	43	102	1048576	10	3925
2026-01-23 14:40:20.46	162.31	13.52	-24.7	-25.4	15.5	0.00e+00	0	43	102	1048576	10	3923
2026-01-23 14:40:21.46	162.32	13.62	-24.6	-25.3	15.5	0.00e+00	0	43	102	1048576	10	3901
2026-01-23 14:40:22.47	162.33	13.72	-24.5	-25.1	15.6	0.00e+00	0	43	102	1048576	10	3852
2026-01-23 14:40:23.47	162.34	13.83	-24.6	-25.4	15.5	0.00e+00	0	43	102	1048576	10	3916
2026-01-23 14:40:24.48	162.35	13.93	-24.6	-25.3	15.6	0.00e+00	0	43	102	1048576	10	3884
2026-01-23 14:40:25.49	162.36	14.03	-24.6	-25.3	15.6	0.00e+00	0	43	102	1048576	10	3889
2026-01-23 14:40:26.50	162.37	14.14	-24.5	-25.1	15.7	0.00e+00	0	43	102	1048576	10	3836
2026-01-23 14:40:27.50	162.38	14.24	-24.5	-25.0	15.7	0.00e+00	0	43	102	1048576	10	3822
2026-01-23 14:40:28.51	162.39	14.35	-24.4	-24.8	15.8	0.00e+00	0	43	102	1048576	10	3775
2026-01-23 14:40:29.51	162.40	14.45	-24.5	-25.6	15.6	0.00e+00	0	43	102	1048576	9	4072
2026-01-23 14:40:30.51	162.41	14.55	-24.4	-25.4	15.7	0.00e+00	0	43	102	1048576	9	4033
2026-01-23 14:40:31.51	162.42	14.66	-24.5	-25.6	15.7	0.00e+00	0	43	102	1048576	9	4083
2026-01-23 14:40:32.52	162.43	14.77	-24.5	-25.5	15.7	0.00e+00	0	43	102	1048576	9	4040
2026-01-23 14:40:33.52	162.44	14.87	-24.7	-25.9	15.5	0.00e+00	0	43	102	1048576	9	4164
2026-01-23 14:40:34.53	162.45	14.98	-24.8	-26.2	15.3	0.00e+00	0	43	102	1048576	9	4243
2026-01-23 14:40:35.53	162.46	15.09	-24.8	-26.3	15.3	0.00e+00	0	44	102	1048576	9	4259
2026-01-23 14:40:36.53	162.47	15.20	-24.6	-25.9	15.5	0.00e+00	0	43	102	1048576	9	4146
2026-01-23 14:40:37.54	162.48	15.31	-24.8	-26.1	15.4	0.00e+00	0	43	102	1048576	9	4217
2026-01-23 14:40:38.55	162.50	15.42	-24.5	-25.6	15.7	3.40e-06	0	43	102	1048576	9	4061
2026-01-23 14:40:39.55	162.51	15.52	-24.4	-25.4	15.8	0.00e+00	0	43	102	1048576	9	4038
2026-01-23 14:40:40.56	162.52	15.64	-24.4	-25.4	15.8	0.00e+00	0	44	102	1048576	9	4016
2026-01-23 14:40:41.57	162.53	15.75	-24.6	-25.7	15.7	6.80e-06	0	43	102	1048576	9	4097
2026-01-23 14:40:42.57	162.54	15.86	-24.6	-25.7	15.6	0.00e+00	0	43	102	1048576	9	4094
2026-01-23 14:40:43.58	162.55	15.97	-24.7	-26.0	15.5	0.00e+00	0	43	102	1048576	9	4169
2026-01-23 14:40:44.58	162.56	16.08	-24.6	-25.8	15.6	8.00e-06	0	43	102	1048576	9	4127
2026-01-23 14:40:45.58	162.57	16.19	-24.2	-24.9	16.1	0.00e+00	0	43	102	1048576	9	3906
2026-01-23 14:40:46.59	162.58	16.31	-24.1	-24.7	16.1	0.00e+00	0	44	102	1048576	9	3861
2026-01-23 14:40:47.60	162.60	16.42	-23.9	-24.3	16.4	0.00e+00	0	43	102	1048576	9	3766
2026-01-23 14:40:48.60	162.61	16.54	-24.2	-24.9	16.1	0.00e+00	0	43	102	1048576	9	3898
2026-01-23 14:40:49.61	162.62	16.65	-24.2	-24.9	16.1	0.00e+00	0	43	102	1048576	9	3892
2026-01-23 14:40:50.61	162.63	16.77	-24.1	-24.6	16.2	0.00e+00	0	44	102	1048576	9	3827
2026-01-23 14:40:51.62	162.64	16.88	-24.0	-24.5	16.3	0.00e+00	0	44	102	1048576	9	3799
2026-01-23 14:40:52.62	162.65	17.00	-24.0	-24.5	16.3	0.00e+00	0	43	102	1048576	9	3794
2026-01-23 14:40:53.62	162.67	17.12	-24.0	-25.0	16.3	0.00e+00	0	43	102	1048576	8	4029
2026-01-23 14:40:54.63	162.68	17.23	-23.9	-24.8	16.4	0.00e+00	0	44	102	1048576	8	3978
2026-01-23 14:40:55.64	162.69	17.35	-24.0	-25.0	16.3	0.00e+00	0	44	102	1048576	8	4035
2026-01-23 14:40:56.64	162.70	17.47	-24.1	-25.1	16.3	0.00e+00	0	44	102	1048576	8	4045
2026-01-23 14:40:57.65	162.71	17.59	-23.9	-24.6	16.5	0.00e+00	0	43	102	1048576	8	3936
2026-01-23 14:40:58.65	162.73	17.71	-24.1	-25.2	16.2	0.00e+00	0	43	102	1048576	8	4068
2026-01-23 14:40:59.65	162.74	17.83	-24.0	-25.0	16.3	0.00e+00	0	44	102	1048576	8	4023
2026-01-23 14:41:00.66	162.75	17.95	-23.9	-24.8	16.4	0.00e+00	0	43	102	1048576	8	3968
2026-01-23 14:41:01.66	162.76	18.07	-24.0	-24.9	16.3	0.00e+00	0	44	102	1048576	8	4015
2026-01-23 14:41:02.67	162.77	18.20	-23.9	-24.8	16.4	0.00e+00	0	43	102	1048576	8	3977
2026-01-23 14:41:03.67	162.79	18.32	-23.9	-24.7	16.5	0.00e+00	0	43	102	1048576	8	3958
2026-01-23 14:41:04.67	162.80	18.44	-23.9	-24.7	16.5	0.00e+00	0	44	102	1048576	8	3948
2026-01-23 14:41:05.67	162.81	18.57	-23.9	-24.7	16.5	0.00e+00	0	44	102	1048576	8	3952
2026-01-23 14:41:06.68	162.83	18.69	-23.8	-24.6	16.5	0.00e+00	0	44	102	1048576	8	3933
2026-01-23 14:41:07.68	162.84	18.82	-23.9	-24.7	16.5	0.00e+00	0	44	102	1048576	8	3944
2026-01-23 14:41:08.68	162.85	18.94	-23.9	-24.8	16.5	0.00e+00	0	44	102	1048576	8	3964
2026-01-23 14:41:09.68	162.86	19.07	-24.1	-25.1	16.3	0.00e+00	0	44	102	1048576	8	4048
2026-01-23 14:41:10.69	162.88	19.20	-24.0	-25.0	16.4	0.00e+00	0	43	102	1048576	8	4018
2026-01-23 14:41:11.69	162.89	19.32	-24.1	-25.1	16.3	0.00e+00	0	44	102	1048576	8	4054
2026-01-23 14:41:12.69	162.90	19.45	-24.0	-24.9	16.4	0.00e+00	0	44	102	1048576	8	3998
2026-01-23 14:41:13.70	162.92	19.58	-23.8	-24.6	16.6	0.00e+00	0	44	102	1048576	8	3912
2026-01-23 14:41:14.70	162.93	19.71	-23.8	-24.5	16.7	0.00e+00	0	44	102	1048576	8	3903
2026-01-23 14:41:15.71	162.94	19.84	-23.7	-24.3	16.7	0.00e+00	0	43	102	1048576	8	3854
2026-01-23 14:41:16.71	162.96	19.97	-23.7	-24.4	16.7	0.00e+00	0	44	102	1048576	8	3866
2026-01-23 14:41:17.71	162.97	20.11	-23.5	-23.9	17.0	0.00e+00	0	44	102	1048576	8	3757
2026-01-23 14:41:18.71	162.98	20.24	-23.4	-24.1	17.1	0.00e+00	0	44	102	1048576	7	3920
2026-01-23 14:41:19.72	163.00	20.37	-23.4	-24.1	17.1	0.00e+00	0	44	102	1048576	7	3904
2026-01-23 14:41:20.72	163.01	20.51	-23.4	-24.1	17.1	0.00e+00	0	44	102	1048576	7	3903
2026-01-23 14:41:21.73	163.03	20.64	-23.2	-23.7	17.3	0.00e+00	0	44	102	1048576	7	3817
2026-01-23 14:41:22.73	163.04	20.78	-23.2	-23.6	17.4	0.00e+00	0	44	102	1048576	7	3793
2026-01-23 14:41:23.73	163.05	20.91	-23.1	-23.6	17.3	0.00e+00	0	44	102	1048576	7	3793
2026-01-23 14:41:24.73	163.07	21.05	-23.1	-23.5	17.4	0.00e+00	0	44	102	1048576	7	3767
2026-01-23 14:41:25.73	163.08	21.19	-23.4	-24.2	17.0	0.00e+00	0	44	102	1048576	7	3939
2026-01-23 14:41:26.73	163.10	21.33	-23.1	-23.5	17.4	0.00e+00	0	44	102	1048576	7	3755
2026-01-23 14:41:27.73	163.11	21.46	-22.9	-23.2	17.5	0.00e+00	0	44	102	1048576	7	3698
2026-01-23 14:41:28.73	163.13	21.60	-22.9	-23.5	17.6	0.00e+00	0	44	102	1048576	6	3871
2026-01-23 14:41:29.74	163.14	21.75	-22.9	-23.7	17.5	0.00e+00	0	44	102	1048576	6	3920
2026-01-23 14:41:30.74	163.16	21.89	-22.8	-23.3	17.7	0.00e+00	0	44	102	1048576	6	3838
2026-01-23 14:41:31.75	163.17	22.03	-22.8	-23.3	17.7	0.00e+00	0	44	102	1048576	6	3839
2026-01-23 14:41:32.75	163.19	22.17	-22.9	-23.6	17.6	0.00e+00	0	44	102	1048576	6	3894
2026-01-23 14:41:33.76	163.20	22.32	-22.8	-23.4	17.6	0.00e+00	0	44	102	1048576	6	3851
2026-01-23 14:41:34.76	163.22	22.46	-22.9	-23.6	17.6	0.00e+00	0	44	102	1048576	6	3901
2026-01-23 14:41:35.77	163.23	22.61	-22.8	-23.4	17.6	0.00e+00	0	44	102	1048576	6	3862
2026-01-23 14:41:36.77	163.25	22.76	-22.8	-23.5	17.6	0.00e+00	0	43	102	1048576	6	3880
2026-01-23 14:41:37.78	163.26	22.90	-22.8	-23.4	17.6	0.00e+00	0	44	102	1048576	6	3867
2026-01-23 14:41:38.78	163.28	23.05	-22.8	-23.4	17.6	0.00e+00	0	44	102	1048576	6	3871
2026-01-23 14:41:39.78	163.30	23.20	-22.6	-23.0	17.8	0.00e+00	0	44	102	1048576	6	3774
2026-01-23 14:41:40.78	163.31	23.35	-22.7	-23.3	17.7	0.00e+00	0	44	102	1048576	6	3838
2026-01-23 14:41:41.79	163.33	23.50	-22.7	-23.3	17.7	0.00e+00	0	44	102	1048576	6	3837
2026-01-23 14:41:42.79	163.34	23.65	-22.8	-23.4	17.6	0.00e+00	0	44	102	1048576	6	3864
2026-01-23 14:41:43.79	163.36	23.80	-22.8	-23.5	17.6	0.00e+00	0	44	102	1048576	6	3888
2026-01-23 14:41:44.79	163.38	23.96	-22.8	-23.5	17.6	0.00e+00	0	44	102	1048576	6	3891
2026-01-23 14:41:45.80	163.39	24.11	-22.9	-23.7	17.5	0.00e+00	0	44	102	1048576	6	3942
2026-01-23 14:41:46.80	163.41	24.27	-22.8	-23.5	17.6	0.00e+00	0	44	102	1048576	6	3889
2026-01-23 14:41:47.80	163.43	24.42	-22.8	-23.5	17.5	0.00e+00	0	44	102	1048576	6	3901
2026-01-23 14:41:48.80	163.44	24.58	-22.9	-23.7	17.4	0.00e+00	0	44	102	1048576	6	3961
2026-01-23 14:41:49.81	163.46	24.74	-22.9	-23.8	17.4	0.00e+00	0	44	102	1048576	6	3979
2026-01-23 14:41:50.81	163.48	24.90	-22.9	-23.8	17.4	0.00e+00	0	44	102	1048576	6	3974
2026-01-23 14:41:51.81	163.50	25.06	-23.0	-24.0	17.3	0.00e+00	0	44	102	1048576	6	4036
2026-01-23 14:41:52.81	163.51	25.22	-22.8	-23.6	17.5	0.00e+00	0	44	102	1048576	6	3928
2026-01-23 14:41:53.82	163.53	25.38	-22.9	-23.7	17.4	0.00e+00	0	44	102	1048576	6	3961
2026-01-23 14:41:54.82	163.55	25.54	-22.8	-23.5	17.5	0.00e+00	0	44	102	1048576	6	3908
2026-01-23 14:41:55.82	163.57	25.71	-22.9	-23.7	17.5	0.00e+00	0	44	102	1048576	6	3963
2026-01-23 14:41:56.82	163.59	25.87	-22.8	-23.5	17.6	0.00e+00	0	44	102	1048576	6	3903
2026-01-23 14:41:57.83	163.60	26.04	-22.8	-23.6	17.6	0.00e+00	0	44	102	1048576	6	3920
2026-01-23 14:41:58.83	163.62	26.21	-22.7	-23.4	17.7	0.00e+00	0	44	102	1048576	6	3867
2026-01-23 14:41:59.84	163.64	26.38	-22.4	-22.7	18.0	0.00e+00	0	44	102	1048576	6	3716
2026-01-23 14:42:00.84	163.66	26.54	-22.2	-22.7	18.2	0.00e+00	0	44	102	1048576	5	3817
2026-01-23 14:42:01.85	163.68	26.72	-22.2	-22.8	18.2	0.00e+00	0	44	102	1048576	5	3828
2026-01-23 14:42:02.86	163.70	26.89	-22.3	-22.9	18.1	0.00e+00	0	44	102	1048576	5	3867
2026-01-23 14:42:03.86	163.72	27.06	-22.4	-23.0	18.1	0.00e+00	0	44	102	1048576	5	3875
2026-01-23 14:42:04.87	163.74	27.23	-22.3	-22.9	18.2	0.00e+00	0	44	102	1048576	5	3841
2026-01-23 14:42:05.88	163.76	27.41	-22.2	-22.7	18.3	0.00e+00	0	44	102	1048576	5	3795
2026-01-23 14:42:06.88	163.78	27.59	-22.5	-23.3	18.1	0.00e+00	0	44	102	1048576	5	3939
2026-01-23 14:42:07.88	163.80	27.76	-22.3	-22.9	18.3	0.00e+00	0	44	102	1048576	5	3843
2026-01-23 14:42:08.89	163.82	27.94	-22.2	-22.7	18.3	0.00e+00	0	44	102	1048576	5	3792
2026-01-23 14:42:09.89	163.84	28.12	-22.3	-22.9	18.2	0.00e+00	0	44	102	1048576	5	3843
2026-01-23 14:42:10.89	163.86	28.30	-22.3	-22.7	18.3	0.00e+00	0	44	102	1048576	5	3800
2026-01-23 14:42:11.89	163.88	28.48	-22.4	-23.0	18.2	0.00e+00	0	44	102	1048576	5	3867
2026-01-23 14:42:12.90	163.90	28.66	-22.3	-22.8	18.3	0.00e+00	0	44	102	1048576	5	3815
2026-01-23 14:42:13.90	163.92	28.85	-22.1	-22.4	18.5	0.00e+00	0	44	102	1048576	5	3718
2026-01-23 14:42:14.90	163.94	29.03	-22.1	-22.5	18.5	0.00e+00	0	44	102	1048576	5	3750
2026-01-23 14:42:15.90	163.97	29.22	-22.8	-23.3	18.8	0.00e+00	0	44	102	1048576	5	3801
2026-01-23 14:42:16.91	163.99	29.41	-22.8	-23.3	18.8	0.00e+00	0	44	102	1048576	5	3822
2026-01-23 14:42:17.92	164.01	29.60	-22.9	-23.5	18.7	0.00e+00	0	44	102	1048576	5	3869
2026-01-23 14:42:18.92	164.03	29.79	-23.0	-23.8	18.5	0.00e+00	0	44	102	1048576	5	3936
2026-01-23 14:42:19.93	164.06	29.98	-23.1	-23.5	18.4	0.00e+00	0	44	102	1048576	6	3756
2026-01-23 14:42:20.93	164.08	30.17	-23.3	-23.9	18.3	0.00e+00	0	44	102	1048576	6	3845
2026-01-23 14:42:21.94	164.10	30.37	-23.3	-23.8	18.3	0.00e+00	0	44	102	1048576	6	3827
2026-01-23 14:42:22.94	164.13	30.56	-23.3	-23.8	18.3	0.00e+00	0	44	102	1048576	6	3839
2026-01-23 14:42:23.95	164.15	30.76	-23.3	-23.9	18.3	0.00e+00	0	44	102	1048576	6	3855
2026-01-23 14:42:24.96	164.17	30.96	-23.4	-24.0	18.2	0.00e+00	0	44	102	1048576	6	3872
2026-01-23 14:42:25.96	164.20	31.16	-23.3	-23.9	18.3	0.00e+00	0	44	102	1048576	6	3836
2026-01-23 14:42:26.97	164.22	31.36	-23.2	-23.7	18.4	0.00e+00	0	44	102	1048576	6	3811
2026-01-23 14:42:27.97	164.25	31.56	-23.3	-23.8	18.4	1.10e-06	0	44	102	1048576	6	3811
2026-01-23 14:42:28.97	164.27	31.76	-23.4	-24.1	18.2	0.00e+00	0	44	102	1048576	6	3895
2026-01-23 14:42:29.97	164.30	31.97	-23.3	-23.9	18.3	0.00e+00	0	44	102	1048576	6	3842
2026-01-23 14:42:30.97	164.32	32.17	-23.8	-24.5	17.8	2.20e-06	0	44	102	1048576	7	3877
2026-01-23 14:42:31.97	164.35	32.38	-23.4	-23.5	18.3	0.00e+00	0	44	102	1048576	7	3647
2026-01-23 14:42:32.97	164.37	32.59	-23.3	-23.2	18.4	0.00e+00	0	44	102	1048576	7	3593
2026-01-23 14:42:33.97	164.40	32.80	-23.0	-22.7	18.7	0.00e+00	0	44	102	1048576	7	3483
2026-01-23 14:42:34.98	164.43	33.01	-23.2	-23.1	18.5	0.00e+00	0	44	102	1048576	7	3564
2026-01-23 14:42:35.98	164.45	33.23	-23.1	-22.8	18.6	0.00e+00	0	44	102	1048576	7	3505
2026-01-23 14:42:36.99	164.48	33.44	-23.2	-23.2	18.5	0.00e+00	0	44	102	1048576	7	3586
2026-01-23 14:42:37.99	164.51	33.66	-23.2	-23.2	18.4	0.00e+00	0	44	102	1048576	7	3587
2026-01-23 14:42:39.00	164.53	33.88	-23.3	-23.4	18.3	0.00e+00	0	44	102	1048576	7	3642
2026-01-23 14:42:40.00	164.56	34.10	-23.2	-23.1	18.5	0.00e+00	0	44	102	1048576	7	3573
2026-01-23 14:42:41.01	164.59	34.32	-23.3	-23.4	18.3	0.00e+00	0	44	102	1048576	7	3630
2026-01-23 14:42:42.01	164.62	34.54	-23.1	-22.9	18.6	0.00e+00	0	44	102	1048576	7	3528
2026-01-23 14:42:43.02	164.65	34.77	-22.9	-23.0	18.8	0.00e+00	0	44	102	1048576	6	3645
2026-01-23 14:42:44.02	164.68	34.99	-23.1	-23.4	18.6	0.00e+00	0	44	102	1048576	6	3743
2026-01-23 14:42:45.02	164.71	35.22	-23.0	-23.2	18.7	0.00e+00	0	44	102	1048576	6	3680
2026-01-23 14:42:46.02	164.74	35.45	-23.0	-23.2	18.7	0.00e+00	0	44	102	1048576	6	3684
2026-01-23 14:42:47.02	164.77	35.68	-23.0	-23.3	18.7	0.00e+00	0	44	102	1048576	6	3705
2026-01-23 14:42:48.02	164.80	35.91	-22.9	-23.0	18.8	0.00e+00	0	44	102	1048576	6	3640
2026-01-23 14:42:49.02	164.83	36.15	-22.7	-22.6	19.0	0.00e+00	0	44	102	1048576	6	3554
2026-01-23 14:42:50.02	164.86	36.38	-22.7	-22.7	19.0	0.00e+00	0	44	102	1048576	6	3568
2026-01-23 14:42:51.02	164.90	36.62	-23.0	-23.3	18.7	0.00e+00	0	44	102	1048576	6	3702
2026-01-23 14:42:52.03	164.93	36.86	-23.1	-23.4	18.7	0.00e+00	0	44	102	1048576	6	3739
2026-01-23 14:42:53.04	164.96	37.10	-23.0	-23.1	18.8	0.00e+00	0	44	102	1048576	6	3669
2026-01-23 14:42:54.05	165.00	37.35	-23.0	-23.3	18.7	0.00e+00	0	44	102	1048576	6	3705
2026-01-23 14:42:55.05	165.03	37.59	-23.3	-23.9	18.4	0.00e+00	0	44	102	1048576	6	3836
2026-01-23 14:42:56.06	165.06	37.84	-23.4	-23.9	18.4	0.00e+00	0	44	102	1048576	6	3853
2026-01-23 14:42:57.06	165.10	38.09	-23.5	-24.3	18.3	0.00e+00	0	44	102	1048576	6	3925
2026-01-23 14:42:58.06	165.13	38.34	-23.4	-24.1	18.3	0.00e+00	0	44	102	1048576	6	3886
2026-01-23 14:42:59.06	165.17	38.59	-23.5	-24.2	18.2	0.00e+00	0	44	102	1048576	6	3924
2026-01-23 14:43:00.06	165.21	38.84	-23.5	-23.7	18.2	0.00e+00	0	44	102	1048576	7	3701
2026-01-23 14:43:01.06	165.24	39.10	-23.6	-23.9	18.2	0.00e+00	0	44	102	1048576	7	3740
2026-01-23 14:43:02.07	165.28	39.36	-23.7	-24.1	18.1	0.00e+00	0	44	102	1048576	7	3788
2026-01-23 14:43:03.07	165.32	39.61	-23.6	-24.0	18.1	0.00e+00	0	44	102	1048576	7	3767
2026-01-23 14:43:04.07	165.36	39.88	-23.6	-23.9	18.2	0.00e+00	0	44	102	1048576	7	3745
2026-01-23 14:43:05.08	165.40	40.14	-23.5	-23.7	18.3	0.00e+00	0	44	102	1048576	7	3701
2026-01-23 14:43:06.08	165.44	40.41	-23.5	-23.8	18.2	0.00e+00	0	44	102	1048576	7	3722
2026-01-23 14:43:07.08	165.48	40.67	-23.3	-23.4	18.4	0.00e+00	0	44	102	1048576	7	3627
2026-01-23 14:43:08.08	165.52	40.94	-23.3	-23.3	18.5	0.00e+00	0	44	102	1048576	7	3612
2026-01-23 14:43:09.09	165.56	41.21	-23.2	-23.1	18.6	0.00e+00	0	44	102	1048576	7	3558
2026-01-23 14:43:10.10	165.60	41.49	-23.3	-23.4	18.4	0.00e+00	0	44	102	1048576	7	3625
2026-01-23 14:43:11.10	165.65	41.77	-23.4	-23.4	18.5	0.00e+00	0	44	102	1048576	7	3626
2026-01-23 14:43:12.10	165.69	42.04	-23.3	-23.2	18.6	0.00e+00	0	44	102	1048576	7	3587
2026-01-23 14:43:13.11	165.73	42.32	-23.4	-23.5	18.4	0.00e+00	0	44	102	1048576	7	3654
2026-01-23 14:43:14.11	165.78	42.61	-23.2	-23.2	18.6	0.00e+00	0	44	102	1048576	7	3579
2026-01-23 14:43:15.11	165.82	42.89	-23.3	-23.3	18.5	0.00e+00	0	44	102	1048576	7	3602
2026-01-23 14:43:16.11	165.87	43.17	-23.6	-24.0	18.2	0.00e+00	0	44	102	1048576	7	3749
2026-01-23 14:43:17.11	165.92	43.46	-23.3	-23.4	18.5	0.00e+00	0	44	102	1048576	7	3627
2026-01-23 14:43:18.12	165.97	43.75	-23.3	-23.3	18.6	0.00e+00	0	44	102	1048576	7	3597
2026-01-23 14:43:19.12	166.01	44.05	-23.2	-23.1	18.7	0.00e+00	0	44	102	1048576	7	3558
2026-01-23 14:43:20.12	166.06	44.34	-23.2	-23.1	18.7	0.00e+00	0	44	102	1048576	7	3554
2026-01-23 14:43:21.12	166.11	44.64	-23.4	-23.5	18.4	0.00e+00	0	44	102	1048576	7	3655
2026-01-23 14:43:22.12	166.17	44.93	-23.4	-23.6	18.4	0.00e+00	0	44	102	1048576	7	3670
2026-01-23 14:43:23.12	166.22	45.24	-23.7	-24.2	18.1	0.00e+00	0	44	102	1048576	7	3810
2026-01-23 14:43:24.13	166.27	45.54	-23.6	-24.1	18.2	0.00e+00	0	44	102	1048576	7	3776
2026-01-23 14:43:25.13	166.33	45.85	-23.6	-24.0	18.2	0.00e+00	0	44	102	1048576	7	3758
2026-01-23 14:43:26.13	166.38	46.15	-23.9	-24.7	17.8	0.00e+00	0	44	102	1048576	7	3921
2026-01-23 14:43:27.13	166.44	46.46	-24.1	-24.6	17.7	0.00e+00	0	44	102	1048576	8	3788
2026-01-23 14:43:28.14	166.49	46.78	-24.1	-24.6	17.7	0.00e+00	0	44	102	1048576	8	3787
2026-01-23 14:43:29.14	166.55	47.09	-24.1	-24.5	17.7	0.00e+00	0	44	102	1048576	8	3776
2026-01-23 14:43:30.14	166.61	47.41	-24.0	-24.2	17.9	0.00e+00	0	44	102	1048576	8	3700
2026-01-23 14:43:31.15	166.67	47.73	-24.4	-25.1	17.5	0.00e+00	0	44	102	1048576	8	3909
2026-01-23 14:43:32.15	166.74	48.05	-24.2	-24.7	17.6	0.00e+00	0	44	102	1048576	8	3823
2026-01-23 14:43:33.15	166.80	48.38	-24.2	-24.8	17.6	0.00e+00	0	44	102	1048576	8	3830
2026-01-23 14:43:34.16	166.86	48.71	-24.5	-25.3	17.3	0.00e+00	0	44	102	1048576	8	3958
2026-01-23 14:43:35.16	166.93	49.04	-24.6	-25.2	17.2	0.00e+00	0	44	102	1048576	9	3818
2026-01-23 14:43:36.17	167.00	49.37	-25.0	-25.4	16.8	0.00e+00	0	44	102	1048576	10	3772
2026-01-23 14:43:37.18	167.07	49.71	-25.2	-25.7	16.5	0.00e+00	0	44	102	1048576	10	3853
2026-01-23 14:43:38.18	167.14	50.04	-24.8	-25.0	17.0	0.00e+00	0	44	102	1048576	10	3671
2026-01-23 14:43:39.19	167.21	50.39	-24.6	-24.5	17.3	0.00e+00	0	44	102	1048576	10	3567
2026-01-23 14:43:40.19	167.28	50.73	-24.4	-24.1	17.4	0.00e+00	0	44	102	1048576	10	3489
2026-01-23 14:43:41.20	167.36	51.07	-24.3	-24.4	17.6	0.00e+00	0	44	102	1048576	9	3635
2026-01-23 14:43:42.20	167.43	51.42	-24.1	-24.0	17.7	0.00e+00	0	44	102	1048576	9	3553
2026-01-23 14:43:43.20	167.51	51.77	-24.3	-24.4	17.5	0.00e+00	0	44	102	1048576	9	3646
2026-01-23 14:43:44.20	167.59	52.12	-24.2	-24.2	17.6	0.00e+00	0	44	102	1048576	9	3602
2026-01-23 14:43:45.21	167.67	52.48	-24.1	-24.0	17.8	0.00e+00	0	44	102	1048576	9	3554
2026-01-23 14:43:46.21	167.75	52.83	-24.5	-24.8	17.3	0.00e+00	0	44	102	1048576	9	3724
2026-01-23 14:43:47.22	167.84	53.19	-24.4	-24.6	17.5	0.00e+00	0	44	102	1048576	9	3680
2026-01-23 14:43:48.22	167.93	53.56	-24.6	-25.2	17.1	0.00e+00	0	44	102	1048576	9	3820
2026-01-23 14:43:49.22	168.02	53.92	-24.6	-25.1	17.2	0.00e+00	0	44	102	1048576	9	3793
2026-01-23 14:43:50.23	168.11	54.29	-24.6	-25.0	17.2	0.00e+00	0	44	102	1048576	9	3786
2026-01-23 14:43:51.23	168.20	54.66	-24.2	-24.1	17.7	0.00e+00	0	44	102	1048576	9	3585
2026-01-23 14:43:52.24	168.30	55.03	-24.4	-24.5	17.5	0.00e+00	0	44	102	1048576	9	3661
2026-01-23 14:43:53.24	168.40	55.41	-24.5	-24.7	17.4	0.00e+00	0	44	102	1048576	9	3719
2026-01-23 14:43:54.24	168.50	55.78	-24.5	-24.9	17.3	0.00e+00	0	44	102	1048576	9	3762
2026-01-23 14:43:55.25	168.61	56.16	-24.5	-24.8	17.3	0.00e+00	0	44	102	1048576	9	3737
2026-01-23 14:43:56.25	168.71	56.55	-24.8	-25.5	17.0	0.00e+00	0	44	102	1048576	9	3903
2026-01-23 14:43:57.26	168.82	56.93	-24.8	-25.1	16.8	0.00e+00	0	44	102	1048576	10	3699
2026-01-23 14:43:58.26	168.94	57.32	-25.2	-25.8	16.6	0.00e+00	0	44	102	1048576	10	3867
2026-01-23 14:43:59.27	169.05	57.71	-25.1	-25.6	16.7	0.00e+00	0	44	102	1048576	10	3823
2026-01-23 14:44:00.28	169.17	58.11	-24.5	-24.4	17.4	0.00e+00	0	44	102	1048576	10	3540
2026-01-23 14:44:01.29	169.30	58.51	-24.4	-24.6	17.6	0.00e+00	0	44	102	1048576	9	3679
2026-01-23 14:44:02.29	169.42	58.90	-24.1	-23.9	17.9	0.00e+00	0	44	102	1048576	9	3529
2026-01-23 14:44:03.30	169.56	59.31	-24.5	-24.9	17.4	0.00e+00	0	44	102	1048576	9	3745
2026-01-23 14:44:04.30	169.69	59.71	-24.8	-25.5	17.1	0.00e+00	0	44	102	1048576	9	3907
2026-01-23 14:44:05.31	169.83	60.12	-24.8	-25.4	17.1	0.00e+00	0	44	102	1048576	9	3878
2026-01-23 14:44:06.32	169.97	60.53	-24.6	-25.1	17.3	0.00e+00	0	44	102	1048576	9	3806
2026-01-23 14:44:07.32	170.12	60.94	-24.0	-23.7	18.0	0.00e+00	0	44	102	1048576	9	3484
2026-01-23 14:44:08.32	170.27	61.35	-23.6	-23.5	18.3	0.00e+00	0	44	102	1048576	8	3546
2026-01-23 14:44:09.33	170.43	61.76	-23.8	-23.8	18.2	0.00e+00	0	44	102	1048576	8	3598
2026-01-23 14:44:10.33	170.59	62.18	-23.9	-24.0	18.1	0.00e+00	0	44	102	1048576	8	3645
2026-01-23 14:44:11.33	170.76	62.60	-23.9	-24.2	18.1	0.00e+00	0	44	102	1048576	8	3690
2026-01-23 14:44:12.33	170.93	63.02	-23.8	-23.8	18.1	0.00e+00	0	44	102	1048576	8	3616
2026-01-23 14:44:13.33	171.11	63.44	-23.1	-23.0	18.8	0.00e+00	0	44	102	1048576	7	3524
2026-01-23 14:44:14.33	171.30	63.87	-23.5	-23.7	18.5	0.00e+00	0	44	102	1048576	7	3687
2026-01-23 14:44:15.33	171.49	64.30	-23.2	-23.2	18.8	0.00e+00	0	44	102	1048576	7	3569
2026-01-23 14:44:16.34	171.70	64.73	-23.0	-22.7	19.0	0.00e+00	0	44	102	1048576	7	3477
2026-01-23 14:44:17.34	171.90	65.16	-23.2	-23.1	18.8	0.00e+00	0	44	102	1048576	7	3559
2026-01-23 14:44:18.34	172.12	65.60	-23.9	-24.0	17.7	0.00e+00	0	44	102	1048576	8	3655
2026-01-23 14:44:19.34	172.34	66.03	-23.4	-23.4	18.6	0.00e+00	0	44	102	1048576	7	3630
2026-01-23 14:44:20.35	172.58	66.48	-23.3	-23.2	18.7	0.00e+00	0	44	102	1048576	7	3578
2026-01-23 14:44:21.35	172.82	66.92	-23.1	-22.8	19.0	0.00e+00	0	44	102	1048576	7	3489
2026-01-23 14:44:22.35	173.08	67.36	-23.3	-23.2	18.7	0.00e+00	0	44	102	1048576	7	3584
2026-01-23 14:44:23.36	173.34	67.81	-22.6	-22.3	19.4	0.00e+00	0	44	102	1048576	6	3475
2026-01-23 14:44:24.36	173.62	68.25	-23.1	-23.3	18.9	0.00e+00	0	44	102	1048576	6	3710
2026-01-23 14:44:25.36	173.91	68.70	-23.0	-23.2	19.0	0.00e+00	0	44	102	1048576	6	3681
2026-01-23 14:44:26.37	174.21	69.16	-23.2	-23.7	18.8	0.00e+00	0	44	102	1048576	6	3788
2026-01-23 14:44:27.37	174.53	69.61	-23.4	-24.0	18.6	0.00e+00	0	44	102	1048576	6	3857
2026-01-23 14:44:28.37	174.86	70.06	-22.9	-22.9	19.2	0.00e+00	0	44	102	1048576	6	3614
2026-01-23 14:44:29.38	175.21	70.52	-23.3	-23.8	18.7	1.10e-06	0	44	102	1048576	6	3809
2026-01-23 14:44:30.39	175.58	70.98	-23.4	-24.1	18.6	0.00e+00	0	44	102	1048576	6	3882
2026-01-23 14:44:31.39	175.96	71.44	-23.7	-24.1	18.3	0.00e+00	0	44	102	1048576	7	3772
2026-01-23 14:44:32.40	176.37	71.90	-23.8	-24.3	18.3	1.10e-06	0	44	102	1048576	7	3815
2026-01-23 14:44:33.41	176.81	72.36	-23.6	-24.0	18.4	0.00e+00	0	44	102	1048576	7	3751
2026-01-23 14:44:34.42	177.26	72.83	-23.7	-23.7	18.3	0.00e+00	0	44	102	1048576	8	3590
2026-01-23 14:44:35.41	177.73	73.28	-23.5	-23.6	18.6	1.10e-06	0	44	102	1048576	7	3676
2026-01-23 14:44:36.42	178.24	73.75	-23.6	-23.8	18.5	0.00e+00	0	44	102	1048576	7	3715
2026-01-23 14:44:37.42	178.78	74.21	-23.6	-23.8	18.5	0.00e+00	0	44	102	1048576	7	3720
2026-01-23 14:44:38.43	179.36	74.68	-23.7	-24.1	18.5	0.00e+00	0	44	102	1048576	7	3769
2026-01-23 14:44:39.43	179.96	75.14	-23.2	-23.1	18.9	0.00e+00	0	44	102	1048576	7	3550
2026-01-23 14:44:40.43	180.61	75.61	-22.7	-22.6	19.4	0.00e+00	0	44	102	1048576	6	3548
2026-01-23 14:44:41.44	181.31	76.07	-22.5	-22.2	19.6	0.00e+00	0	44	102	1048576	6	3459
2026-01-23 14:44:42.44	182.05	76.53	-22.5	-22.1	19.6	0.00e+00	0	44	102	1048576	6	3444
2026-01-23 14:44:43.44	182.85	77.00	-22.3	-22.2	19.8	0.00e+00	0	44	102	1048576	5	3572
2026-01-23 14:44:44.44	183.70	77.45	-21.9	-21.9	20.2	0.00e+00	0	44	102	1048576	4	3601
2026-01-23 14:44:45.45	184.63	77.92	-21.8	-21.7	20.3	0.00e+00	0	44	102	1048576	4	3555
2026-01-23 14:44:46.45	185.63	78.37	-21.7	-21.4	20.5	0.00e+00	0	44	102	1048576	4	3498
2026-01-23 14:44:47.46	186.72	78.83	-21.7	-21.4	20.5	0.00e+00	0	44	102	1048576	4	3500
2026-01-23 14:44:48.46	187.89	79.28	-21.7	-21.6	20.4	0.00e+00	0	44	102	1048576	4	3533
2026-01-23 14:44:49.46	189.17	79.73	-21.8	-21.7	20.4	0.00e+00	0	44	102	1048576	4	3557
2026-01-23 14:44:50.47	190.58	80.18	-21.7	-21.5	20.5	0.00e+00	0	44	102	1048576	4	3509
2026-01-23 14:44:51.48	192.12	80.62	-21.5	-21.0	20.7	0.00e+00	0	44	102	1048576	4	3417
2026-01-23 14:44:52.48	193.80	81.05	-21.6	-21.2	20.7	0.00e+00	0	44	102	1048576	4	3451
2026-01-23 14:44:53.49	195.67	81.48	-21.7	-21.4	20.5	0.00e+00	0	44	102	1048576	4	3496
2026-01-23 14:44:54.50	197.74	81.89	-22.1	-22.3	20.0	0.00e+00	0	44	102	1048576	4	3691
2026-01-23 14:44:55.50	200.01	82.30	-21.9	-21.9	20.2	0.00e+00	0	44	102	1048576	4	3603
2026-01-23 14:44:56.50	202.52	82.69	-21.7	-21.5	20.5	0.00e+00	0	44	102	1048576	4	3510
2026-01-23 14:44:57.50	205.32	83.06	-21.6	-21.3	20.6	0.00e+00	0	44	102	1048576	4	3476
2026-01-23 14:44:58.50	208.43	83.42	-21.8	-21.7	20.4	0.00e+00	0	44	102	1048576	4	3565
2026-01-23 14:44:59.51	211.92	83.76	-22.1	-22.3	20.1	0.00e+00	0	44	102	1048576	4	3675
2026-01-23 14:45:00.51	215.77	84.08	-22.6	-23.2	19.6	0.00e+00	0	44	102	1048576	4	3892
2026-01-23 14:45:01.52	220.07	84.36	-23.1	-23.4	19.1	0.00e+00	0	44	102	1048576	6	3723
2026-01-23 14:45:02.52	224.75	84.61	-23.6	-24.3	18.6	0.00e+00	0	44	102	1048576	6	3930
2026-01-23 14:45:03.53	229.90	84.82	-23.7	-24.0	18.5	0.00e+00	0	44	102	1048576	7	3757
2026-01-23 14:45:04.53	235.39	84.99	-23.5	-23.8	18.6	0.00e+00	0	44	102	1048576	7	3697
2026-01-23 14:45:05.54	241.25	85.11	-23.3	-23.2	18.9	0.00e+00	0	44	102	1048576	7	3579
2026-01-23 14:45:06.54	247.28	85.17	-23.2	-23.1	18.9	0.00e+00	0	44	102	1048576	7	3560
2026-01-23 14:45:07.55	253.46	85.18	-23.4	-23.4	19.1	0.00e+00	0	44	102	1048576	7	3616
2026-01-23 14:45:08.56	259.60	85.13	-23.1	-22.8	19.2	0.00e+00	0	44	102	1048576	7	3481
2026-01-23 14:45:09.56	265.50	85.04	-22.9	-22.9	19.4	0.00e+00	0	44	102	1048576	6	3616
2026-01-23 14:45:10.57	271.16	84.89	-22.6	-22.3	19.6	0.00e+00	0	44	102	1048576	6	3489
2026-01-23 14:45:11.58	276.46	84.69	-22.8	-22.7	19.5	0.00e+00	0	44	102	1048576	6	3565
2026-01-23 14:45:12.59	281.33	84.45	-22.9	-23.0	19.3	0.00e+00	0	44	102	1048576	6	3629
2026-01-23 14:45:13.59	285.73	84.18	-22.8	-22.8	19.3	1.10e-06	0	44	102	1048576	6	3589
2026-01-23 14:45:14.59	289.72	83.88	-22.8	-22.7	19.4	0.00e+00	0	44	102	1048576	6	3579
2026-01-23 14:45:15.60	293.35	83.54	-22.5	-22.2	19.7	0.00e+00	0	44	102	1048576	6	3458
2026-01-23 14:45:16.60	296.57	83.19	-22.2	-22.1	20.0	0.00e+00	0	44	102	1048576	5	3539
2026-01-23 14:45:17.60	299.48	82.82	-22.3	-22.1	19.9	0.00e+00	0	44	102	1048576	5	3546
2026-01-23 14:45:18.61	302.11	82.43	-22.3	-22.1	19.9	0.00e+00	0	44	102	1048576	5	3543
2026-01-23 14:45:19.61	304.46	82.04	-22.4	-22.3	19.8	0.00e+00	0	44	102	1048576	5	3590
2026-01-23 14:45:20.62	306.60	81.62	-22.3	-22.2	19.9	0.00e+00	0	44	102	1048576	5	3567
2026-01-23 14:45:21.63	308.53	81.20	-22.2	-22.0	20.0	0.00e+00	0	44	102	1048576	5	3511
2026-01-23 14:45:22.64	310.28	80.76	-22.2	-22.1	19.9	0.00e+00	0	44	102	1048576	5	3538
2026-01-23 14:45:23.64	311.86	80.33	-22.0	-21.7	20.1	0.00e+00	0	44	102	1048576	5	3449
2026-01-23 14:45:24.65	313.31	79.88	-22.0	-21.5	20.2	0.00e+00	0	44	102	1048576	5	3425
2026-01-23 14:45:25.65	314.63	79.44	-22.1	-21.8	20.0	0.00e+00	0	44	102	1048576	5	3488
2026-01-23 14:45:26.65	315.84	78.99	-21.9	-22.0	20.2	0.00e+00	0	44	102	1048576	4	3608
2026-01-23 14:45:27.66	316.96	78.53	-22.1	-22.4	19.9	0.00e+00	0	44	102	1048576	4	3694
2026-01-23 14:45:28.67	317.99	78.07	-22.0	-22.0	20.1	0.00e+00	0	44	102	1048576	4	3626
2026-01-23 14:45:29.67	318.94	77.62	-21.9	-21.9	20.2	0.00e+00	0	44	102	1048576	4	3592
2026-01-23 14:45:30.68	319.82	77.15	-22.4	-23.0	19.6	0.00e+00	0	44	102	1048576	4	3845
2026-01-23 14:45:31.68	320.64	76.69	-22.0	-22.2	19.9	0.00e+00	0	44	102	1048576	4	3647
2026-01-23 14:45:32.69	321.40	76.23	-22.2	-22.5	19.9	0.00e+00	0	44	102	1048576	4	3737
2026-01-23 14:45:33.69	322.11	75.77	-22.7	-23.1	19.3	0.00e+00	0	44	102	1048576	5	3768
2026-01-23 14:45:34.69	322.77	75.31	-23.2	-23.7	18.8	0.00e+00	0	44	102	1048576	6	3786
2026-01-23 14:45:35.70	323.40	74.84	-23.2	-23.0	18.8	0.00e+00	0	44	102	1048576	7	3545
2026-01-23 14:45:36.71	323.98	74.37	-23.1	-22.8	19.0	0.00e+00	0	44	102	1048576	7	3496
2026-01-23 14:45:37.71	324.53	73.91	-23.4	-23.5	18.6	0.00e+00	0	44	102	1048576	7	3652
2026-01-23 14:45:38.71	325.05	73.45	-23.5	-23.7	18.5	0.00e+00	0	44	102	1048576	7	3675
2026-01-23 14:45:39.72	325.54	72.98	-23.5	-23.8	18.5	0.00e+00	0	44	102	1048576	7	3705
2026-01-23 14:45:40.73	326.00	72.52	-23.6	-23.9	18.4	0.00e+00	0	44	102	1048576	7	3728
2026-01-23 14:45:41.73	326.44	72.06	-23.8	-24.3	18.2	0.00e+00	0	44	102	1048576	7	3829
2026-01-23 14:45:42.73	326.85	71.60	-23.7	-24.2	18.2	0.00e+00	0	44	102	1048576	7	3797
2026-01-23 14:45:43.74	327.24	71.14	-23.9	-24.5	18.1	0.00e+00	0	44	102	1048576	7	3865
2026-01-23 14:45:44.74	327.62	70.69	-23.7	-24.1	18.2	0.00e+00	0	44	102	1048576	7	3778
2026-01-23 14:45:45.75	327.97	70.23	-23.4	-23.5	18.4	0.00e+00	0	44	102	1048576	7	3651
2026-01-23 14:45:46.76	328.31	69.77	-23.2	-23.1	18.8	0.00e+00	0	44	102	1048576	7	3562
2026-01-23 14:45:47.76	328.63	69.32	-23.2	-23.2	18.6	0.00e+00	0	44	102	1048576	7	3582
2026-01-23 14:45:48.76	328.94	68.87	-23.1	-23.0	18.8	0.00e+00	0	44	102	1048576	7	3529
2026-01-23 14:45:49.77	329.24	68.42	-23.3	-23.2	18.7	0.00e+00	0	44	102	1048576	7	3574
2026-01-23 14:45:50.77	329.52	67.97	-23.0	-22.7	19.0	0.00e+00	0	44	102	1048576	7	3481
2026-01-23 14:45:51.77	329.78	67.53	-22.9	-22.9	19.1	0.00e+00	0	44	102	1048576	6	3606
2026-01-23 14:45:52.78	330.04	67.08	-22.9	-23.0	19.0	0.00e+00	0	44	102	1048576	6	3623
2026-01-23 14:45:53.78	330.29	66.64	-23.0	-23.3	18.9	0.00e+00	0	44	102	1048576	6	3698
2026-01-23 14:45:54.80	330.53	66.20	-23.2	-23.6	18.7	0.00e+00	0	44	102	1048576	6	3759
2026-01-23 14:45:55.80	330.76	65.76	-23.1	-23.3	18.8	0.00e+00	0	44	102	1048576	6	3707
2026-01-23 14:45:56.80	330.98	65.33	-23.1	-23.4	18.8	0.00e+00	0	44	102	1048576	6	3715
2026-01-23 14:45:57.81	331.19	64.89	-23.3	-23.8	18.6	0.00e+00	0	44	102	1048576	6	3821
2026-01-23 14:45:58.82	331.39	64.46	-23.4	-24.0	18.5	0.00e+00	0	44	102	1048576	6	3869
2026-01-23 14:45:59.82	331.59	64.03	-23.6	-24.0	18.1	0.00e+00	0	44	102	1048576	7	3770
2026-01-23 14:46:00.83	331.78	63.60	-23.5	-23.7	18.4	0.00e+00	0	44	102	1048576	7	3677
2026-01-23 14:46:01.83	331.96	63.18	-23.5	-23.7	18.4	0.00e+00	0	44	102	1048576	7	3696
2026-01-23 14:46:02.83	332.14	62.76	-23.5	-23.7	18.3	0.00e+00	0	44	102	1048576	7	3687
2026-01-23 14:46:03.84	332.31	62.33	-23.7	-24.1	18.2	0.00e+00	0	44	102	1048576	7	3785
2026-01-23 14:46:04.85	332.47	61.91	-24.1	-24.6	17.7	0.00e+00	0	44	102	1048576	8	3782
2026-01-23 14:46:05.85	332.63	61.50	-24.4	-25.0	17.5	0.00e+00	0	44	102	1048576	8	3884
2026-01-23 14:46:06.86	332.79	61.09	-24.6	-25.1	17.2	0.00e+00	0	44	102	1048576	9	3795
2026-01-23 14:46:07.87	332.94	60.67	-25.1	-26.1	16.5	0.00e+00	0	44	102	1048576	9	4031
2026-01-23 14:46:08.87	333.08	60.27	-25.0	-25.4	16.9	0.00e+00	0	44	102	1048576	10	3758
2026-01-23 14:46:09.88	333.22	59.86	-25.0	-25.3	16.8	0.00e+00	0	44	102	1048576	10	3749
2026-01-23 14:46:10.88	333.36	59.46	-25.0	-25.4	16.8	0.00e+00	0	44	102	1048576	10	3779
2026-01-23 14:46:11.89	333.49	59.05	-24.7	-24.9	17.1	0.00e+00	0	44	102	1048576	10	3650
2026-01-23 14:46:12.89	333.62	58.66	-24.5	-24.4	17.3	0.00e+00	0	44	102	1048576	10	3538
2026-01-23 14:46:13.90	333.74	58.26	-24.4	-24.7	17.4	0.00e+00	0	44	102	1048576	9	3698
2026-01-23 14:46:14.90	333.86	57.87	-24.5	-24.9	17.2	0.00e+00	0	44	102	1048576	9	3745
2026-01-23 14:46:15.91	333.98	57.48	-24.7	-25.3	17.0	0.00e+00	0	44	102	1048576	9	3845
2026-01-23 14:46:16.91	334.10	57.09	-24.5	-24.9	17.3	0.00e+00	0	44	102	1048576	9	3740
2026-01-23 14:46:17.91	334.21	56.71	-24.4	-24.6	17.4	0.00e+00	0	44	102	1048576	9	3700
2026-01-23 14:46:18.92	334.32	56.32	-24.6	-25.1	17.0	0.00e+00	0	44	102	1048576	9	3814
2026-01-23 14:46:19.92	334.42	55.94	-24.5	-24.8	17.3	0.00e+00	0	44	102	1048576	9	3734
2026-01-23 14:46:20.93	334.52	55.56	-24.5	-24.9	17.2	0.00e+00	0	44	102	1048576	9	3753
2026-01-23 14:46:21.94	334.62	55.19	-24.4	-24.6	17.4	0.00e+00	0	44	102	1048576	9	3681
2026-01-23 14:46:22.95	334.72	54.81	-24.3	-24.4	17.5	0.00e+00	0	44	102	1048576	9	3634
2026-01-23 14:46:23.95	334.82	54.44	-24.5	-24.7	17.1	0.00e+00	0	44	102	1048576	9	3715
2026-01-23 14:46:24.96	334.91	54.07	-24.3	-24.4	17.5	0.00e+00	0	44	102	1048576	9	3635
2026-01-23 14:46:25.96	335.00	53.71	-24.1	-24.0	17.6	0.00e+00	0	44	102	1048576	9	3560
2026-01-23 14:46:26.96	335.09	53.35	-24.3	-24.4	17.4	0.00e+00	0	44	102	1048576	9	3629
2026-01-23 14:46:27.97	335.18	52.99	-24.4	-24.5	17.4	0.00e+00	0	44	102	1048576	9	3671
2026-01-23 14:46:28.97	335.26	52.63	-24.6	-25.0	16.9	0.00e+00	0	44	102	1048576	9	3766
2026-01-23 14:46:29.98	335.34	52.28	-24.4	-24.6	17.4	0.00e+00	0	44	102	1048576	9	3687
2026-01-23 14:46:30.99	335.42	51.92	-24.5	-24.9	17.2	0.00e+00	0	44	102	1048576	9	3753
2026-01-23 14:46:31.99	335.50	51.57	-24.7	-25.2	17.0	0.00e+00	0	44	102	1048576	9	3826
2026-01-23 14:46:33.00	335.58	51.23	-24.6	-25.0	17.2	0.00e+00	0	44	102	1048576	9	3782
2026-01-23 14:46:34.01	335.66	50.88	-24.8	-25.6	16.9	0.00e+00	0	44	102	1048576	9	3907
2026-01-23 14:46:35.01	335.73	50.54	-25.1	-26.0	16.6	0.00e+00	0	44	102	1048576	9	4019
2026-01-23 14:46:36.02	335.80	50.20	-24.9	-25.7	16.8	0.00e+00	0	44	102	1048576	9	3933
2026-01-23 14:46:37.02	335.87	49.86	-24.8	-25.5	16.9	1.10e-06	0	44	102	1048576	9	3890
2026-01-23 14:46:38.02	335.94	49.53	-24.9	-25.7	16.8	0.00e+00	0	44	102	1048576	9	3950
2026-01-23 14:46:39.02	336.01	49.20	-24.6	-25.1	17.1	0.00e+00	0	44	102	1048576	9	3809
2026-01-23 14:46:40.03	336.08	48.86	-24.5	-24.9	17.2	0.00e+00	0	44	102	1048576	9	3745
2026-01-23 14:46:41.03	336.14	48.54	-24.5	-24.8	17.2	0.00e+00	0	44	102	1048576	9	3730
2026-01-23 14:46:42.04	336.20	48.21	-24.8	-25.4	16.7	0.00e+00	0	44	102	1048576	9	3879
2026-01-23 14:46:43.04	336.27	47.89	-24.4	-24.6	17.2	0.00e+00	0	44	102	1048576	9	3696
2026-01-23 14:46:44.05	336.33	47.57	-24.1	-24.1	17.6	0.00e+00	0	44	102	1048576	9	3578
2026-01-23 14:46:45.05	336.39	47.25	-23.9	-23.6	17.7	0.00e+00	0	44	102	1048576	9	3470
2026-01-23 14:46:46.06	336.45	46.94	-23.8	-23.9	17.9	0.00e+00	0	44	102	1048576	8	3636
2026-01-23 14:46:47.06	336.51	46.62	-23.8	-23.8	17.9	0.00e+00	0	44	102	1048576	8	3606
2026-01-23 14:46:48.07	336.56	46.31	-23.8	-23.9	17.8	0.00e+00	0	44	102	1048576	8	3635
2026-01-23 14:46:49.08	336.62	46.00	-23.6	-23.5	18.1	0.00e+00	0	44	102	1048576	8	3540
2026-01-23 14:46:50.08	336.67	45.70	-23.7	-23.6	16.9	0.00e+00	0	44	102	1048576	8	3575
2026-01-23 14:46:51.09	336.73	45.39	-23.6	-24.0	18.1	0.00e+00	0	44	102	1048576	7	3758
2026-01-23 14:46:52.09	336.78	45.09	-23.2	-23.0	18.5	0.00e+00	0	44	102	1048576	7	3549
2026-01-23 14:46:53.10	336.83	44.79	-22.9	-22.4	18.8	0.00e+00	0	44	102	1048576	7	3417
2026-01-23 14:46:54.10	336.88	44.49	-22.9	-22.9	18.9	0.00e+00	0	44	102	1048576	6	3614
2026-01-23 14:46:55.10	336.93	44.20	-23.0	-23.1	18.8	0.00e+00	0	44	102	1048576	6	3654
2026-01-23 14:46:56.10	336.98	43.91	-23.3	-23.7	18.4	0.00e+00	0	44	102	1048576	6	3802
2026-01-23 14:46:57.11	337.03	43.62	-23.1	-23.4	18.6	0.00e+00	0	44	102	1048576	6	3735
2026-01-23 14:46:58.12	337.08	43.33	-23.2	-23.6	18.5	0.00e+00	0	44	102	1048576	6	3764
2026-01-23 14:46:59.12	337.13	43.04	-23.2	-23.7	18.5	0.00e+00	0	44	102	1048576	6	3787
2026-01-23 14:47:00.11	337.17	42.76	-23.3	-23.7	18.2	0.00e+00	0	44	102	1048576	6	3806
2026-01-23 14:47:01.12	337.22	42.48	-23.3	-23.8	18.4	0.00e+00	0	44	102	1048576	6	3814
2026-01-23 14:47:02.12	337.26	42.20	-23.4	-24.0	18.3	0.00e+00	0	44	102	1048576	6	3863
2026-01-23 14:47:03.12	337.31	41.92	-23.2	-23.6	18.4	0.00e+00	0	44	102	1048576	6	3775
2026-01-23 14:47:04.13	337.35	41.64	-23.1	-23.4	18.6	0.00e+00	0	44	102	1048576	6	3718
2026-01-23 14:47:05.13	337.39	41.37	-23.1	-23.5	18.5	0.00e+00	0	44	102	1048576	6	3739
2026-01-23 14:47:06.13	337.44	41.10	-23.1	-23.3	18.6	0.00e+00	0	44	102	1048576	6	3706
2026-01-23 14:47:07.14	337.48	40.83	-23.1	-23.4	18.6	1.10e-06	0	44	102	1048576	6	3727
2026-01-23 14:47:08.14	337.52	40.56	-23.2	-23.7	18.5	0.00e+00	0	44	102	1048576	6	3787
2026-01-23 14:47:09.15	337.56	40.30	-23.4	-24.0	18.3	0.00e+00	0	44	102	1048576	6	3860
2026-01-23 14:47:10.15	337.60	40.03	-23.4	-24.0	18.2	0.00e+00	0	44	102	1048576	6	3864
2026-01-23 14:47:11.16	337.64	39.77	-23.4	-24.0	18.1	0.00e+00	0	44	102	1048576	6	3868
2026-01-23 14:47:12.16	337.68	39.51	-23.4	-24.1	18.2	0.00e+00	0	44	102	1048576	6	3886
2026-01-23 14:47:13.17	337.71	39.25	-23.3	-23.9	18.2	0.00e+00	0	44	102	1048576	6	3837
2026-01-23 14:47:14.17	337.75	39.00	-23.4	-24.1	18.2	0.00e+00	0	44	102	1048576	6	3890
2026-01-23 14:47:15.17	337.79	38.75	-23.4	-24.1	18.2	0.00e+00	0	44	102	1048576	6	3890
2026-01-23 14:47:16.17	337.82	38.49	-23.4	-24.0	18.2	0.00e+00	0	44	102	1048576	6	3864
2026-01-23 14:47:17.18	337.86	38.24	-23.4	-24.0	18.2	0.00e+00	0	44	102	1048576	6	3875
2026-01-23 14:47:18.18	337.90	38.00	-23.5	-24.3	18.1	0.00e+00	0	44	102	1048576	6	3933
2026-01-23 14:47:19.18	337.93	37.75	-23.2	-23.7	18.4	0.00e+00	0	44	102	1048576	6	3783
2026-01-23 14:47:20.19	337.97	37.50	-23.1	-23.4	18.6	0.00e+00	0	44	102	1048576	6	3717
2026-01-23 14:47:21.19	338.00	37.26	-23.2	-23.5	18.5	0.00e+00	0	44	102	1048576	6	3749
2026-01-23 14:47:22.20	338.03	37.02	-23.2	-23.6	18.4	0.00e+00	0	44	102	1048576	6	3777
2026-01-23 14:47:23.20	338.07	36.78	-23.2	-23.6	18.4	0.00e+00	0	44	102	1048576	6	3770
2026-01-23 14:47:24.21	338.10	36.54	-23.5	-24.3	18.1	0.00e+00	0	44	102	1048576	6	3940
2026-01-23 14:47:25.21	338.13	36.31	-23.3	-23.7	18.4	0.00e+00	0	44	102	1048576	6	3796
2026-01-23 14:47:26.20	338.16	36.08	-23.0	-23.2	18.6	0.00e+00	0	44	102	1048576	6	3692
2026-01-23 14:47:27.21	338.19	35.84	-22.9	-23.0	18.7	0.00e+00	0	44	102	1048576	6	3644
2026-01-23 14:47:28.22	338.23	35.61	-22.8	-22.8	18.8	0.00e+00	0	44	102	1048576	6	3605
2026-01-23 14:47:29.23	338.26	35.38	-22.9	-23.0	18.7	0.00e+00	0	44	102	1048576	6	3637
2026-01-23 14:47:30.23	338.29	35.15	-22.8	-22.7	18.9	0.00e+00	0	44	102	1048576	6	3579
2026-01-23 14:47:31.23	338.32	34.93	-22.7	-22.6	18.7	0.00e+00	0	44	102	1048576	6	3560
2026-01-23 14:47:32.24	338.35	34.70	-22.8	-22.7	18.8	0.00e+00	0	44	102	1048576	6	3582
2026-01-23 14:47:33.24	338.38	34.48	-22.6	-22.3	19.1	0.00e+00	0	44	102	1048576	6	3492
2026-01-23 14:47:34.24	338.40	34.26	-22.5	-22.3	19.1	0.00e+00	0	44	102	1048576	6	3488
2026-01-23 14:47:35.25	338.43	34.04	-22.5	-22.3	19.1	0.00e+00	0	44	102	1048576	6	3487
2026-01-23 14:47:36.26	338.46	33.82	-22.5	-22.1	19.2	0.00e+00	0	44	102	1048576	6	3445
2026-01-23 14:47:37.26	338.49	33.60	-22.5	-22.2	19.1	0.00e+00	0	44	102	1048576	6	3470
2026-01-23 14:47:38.26	338.52	33.39	-22.6	-22.4	19.0	0.00e+00	0	44	102	1048576	6	3501
2026-01-23 14:47:39.27	338.54	33.17	-22.6	-22.3	19.1	0.00e+00	0	44	102	1048576	6	3484
2026-01-23 14:47:40.28	338.57	32.96	-22.7	-22.5	18.9	0.00e+00	0	44	102	1048576	6	3533
2026-01-23 14:47:41.28	338.60	32.75	-22.6	-22.3	19.0	0.00e+00	0	44	102	1048576	6	3490
2026-01-23 14:47:42.28	338.63	32.54	-22.6	-22.4	18.9	0.00e+00	0	44	102	1048576	6	3520
2026-01-23 14:47:43.28	338.65	32.34	-22.7	-22.5	18.9	0.00e+00	0	44	102	1048576	6	3537
2026-01-23 14:47:44.27	338.68	32.13	-22.7	-22.6	18.9	0.00e+00	0	44	102	1048576	6	3547
2026-01-23 14:47:45.28	338.70	31.93	-22.8	-22.7	18.8	0.00e+00	0	44	102	1048576	6	3578
2026-01-23 14:47:46.28	338.73	31.72	-22.8	-22.8	18.8	0.00e+00	0	44	102	1048576	6	3596
2026-01-23 14:47:47.28	338.75	31.52	-22.8	-22.9	18.7	0.00e+00	0	44	102	1048576	6	3619
2026-01-23 14:47:48.29	338.78	31.32	-22.9	-23.1	18.6	0.00e+00	0	44	102	1048576	6	3654
2026-01-23 14:47:49.28	338.80	31.12	-23.1	-23.3	18.5	0.00e+00	0	44	102	1048576	6	3711
2026-01-23 14:47:50.29	338.83	30.93	-23.1	-23.4	18.5	0.00e+00	0	44	102	1048576	6	3735
2026-01-23 14:47:51.30	338.85	30.73	-23.1	-23.5	18.4	0.00e+00	0	44	102	1048576	6	3747
2026-01-23 14:47:52.30	338.87	30.53	-23.1	-23.4	18.3	0.00e+00	0	44	102	1048576	6	3736
2026-01-23 14:47:53.30	338.90	30.34	-23.2	-23.6	18.3	0.00e+00	0	44	102	1048576	6	3787
2026-01-23 14:47:54.31	338.92	30.15	-23.3	-23.8	18.2	0.00e+00	0	44	102	1048576	6	3815
2026-01-23 14:47:55.32	338.94	29.95	-23.3	-23.8	18.2	0.00e+00	0	44	102	1048576	6	3829
2026-01-23 14:47:56.32	338.97	29.76	-23.4	-24.1	18.1	0.00e+00	0	44	102	1048576	6	3892
2026-01-23 14:47:57.32	338.99	29.58	-23.3	-23.8	18.3	0.00e+00	0	44	102	1048576	6	3813
2026-01-23 14:47:58.32	339.01	29.39	-23.2	-23.7	18.2	0.00e+00	0	44	102	1048576	6	3792
2026-01-23 14:47:59.32	339.03	29.20	-23.2	-23.7	18.3	0.00e+00	0	44	102	1048576	6	3793
2026-01-23 14:48:00.33	339.06	29.02	-23.2	-23.7	18.3	0.00e+00	0	44	102	1048576	6	3798
2026-01-23 14:48:01.34	339.08	28.83	-23.3	-23.8	18.2	0.00e+00	0	44	102	1048576	6	3813
2026-01-23 14:48:02.34	339.10	28.65	-23.2	-23.7	18.3	0.00e+00	0	44	102	1048576	6	3803
2026-01-23 14:48:03.34	339.12	28.47	-23.4	-24.0	18.2	0.00e+00	0	44	102	1048576	6	3859
2026-01-23 14:48:04.35	339.14	28.29	-23.2	-23.7	18.2	0.00e+00	0	44	102	1048576	6	3789
2026-01-23 14:48:05.35	339.16	28.11	-23.2	-23.7	18.3	0.00e+00	0	44	102	1048576	6	3799
2026-01-23 14:48:06.35	339.18	27.93	-23.3	-23.7	18.2	0.00e+00	0	44	102	1048576	6	3808
2026-01-23 14:48:07.36	339.21	27.76	-23.2	-23.6	18.3	0.00e+00	0	44	102	1048576	6	3778
2026-01-23 14:48:08.37	339.23	27.58	-23.3	-23.7	18.2	0.00e+00	0	44	102	1048576	6	3809
2026-01-23 14:48:09.37	339.25	27.41	-23.3	-23.9	18.2	0.00e+00	0	44	102	1048576	6	3835
2026-01-23 14:48:10.38	339.27	27.23	-23.3	-23.9	18.1	0.00e+00	0	44	102	1048576	6	3846
2026-01-23 14:48:11.38	339.29	27.06	-23.3	-23.9	18.1	0.00e+00	0	44	102	1048576	6	3842
2026-01-23 14:48:12.38	339.31	26.89	-23.4	-24.0	18.1	0.00e+00	0	44	102	1048576	6	3876
2026-01-23 14:48:13.39	339.33	26.72	-23.3	-23.9	18.1	0.00e+00	0	44	102	1048576	6	3835
2026-01-23 14:48:14.40	339.35	26.55	-23.3	-23.9	18.2	0.00e+00	0	44	102	1048576	6	3836
2026-01-23 14:48:15.39	339.36	26.38	-23.4	-24.0	18.1	0.00e+00	0	44	102	1048576	6	3867
2026-01-23 14:48:16.40	339.38	26.21	-23.4	-24.1	18.0	0.00e+00	0	44	102	1048576	6	3900
2026-01-23 14:48:17.40	339.40	26.05	-23.2	-23.7	18.2	0.00e+00	0	44	102	1048576	6	3797
2026-01-23 14:48:18.40	339.42	25.88	-23.1	-23.4	18.4	0.00e+00	0	44	102	1048576	6	3731
2026-01-23 14:48:19.40	339.44	25.72	-23.1	-23.4	18.4	0.00e+00	0	44	102	1048576	6	3722
2026-01-23 14:48:20.41	339.46	25.56	-23.1	-23.4	18.4	0.00e+00	0	44	102	1048576	6	3723
2026-01-23 14:48:21.41	339.48	25.40	-23.0	-23.3	18.4	0.00e+00	0	44	102	1048576	6	3704
2026-01-23 14:48:22.41	339.50	25.23	-23.1	-23.5	18.3	0.00e+00	0	44	102	1048576	6	3757
2026-01-23 14:48:23.41	339.51	25.08	-23.2	-23.6	18.2	0.00e+00	0	44	102	1048576	6	3773
2026-01-23 14:48:24.42	339.53	24.92	-23.1	-23.4	18.3	0.00e+00	0	44	102	1048576	6	3727
2026-01-23 14:48:25.43	339.55	24.76	-23.1	-23.5	18.3	0.00e+00	0	44	102	1048576	6	3756
2026-01-23 14:48:26.44	339.57	24.60	-23.1	-23.5	18.3	0.00e+00	0	44	102	1048576	6	3759
2026-01-23 14:48:27.44	339.58	24.44	-23.1	-23.5	18.3	0.00e+00	0	44	102	1048576	6	3754
2026-01-23 14:48:28.44	339.60	24.29	-23.1	-23.5	18.3	0.00e+00	0	44	102	1048576	6	3758
2026-01-23 14:48:29.45	339.62	24.13	-23.2	-23.5	18.3	0.00e+00	0	44	102	1048576	6	3761
2026-01-23 14:48:30.46	339.64	23.98	-23.1	-23.5	18.3	0.00e+00	0	44	102	1048576	6	3754
2026-01-23 14:48:31.46	339.65	23.83	-23.2	-23.6	18.3	0.00e+00	0	44	102	1048576	6	3767
2026-01-23 14:48:32.46	339.67	23.68	-23.2	-23.6	18.2	0.00e+00	0	44	102	1048576	6	3778
2026-01-23 14:48:33.47	339.69	23.52	-23.3	-23.8	18.1	0.00e+00	0	44	102	1048576	6	3814
2026-01-23 14:48:34.47	339.70	23.37	-23.3	-23.7	18.2	0.00e+00	0	44	102	1048576	6	3808
2026-01-23 14:48:35.47	339.72	23.23	-23.4	-24.1	18.0	0.00e+00	0	44	102	1048576	6	3883
2026-01-23 14:48:36.48	339.74	23.08	-23.5	-23.7	17.9	0.00e+00	0	44	102	1048576	7	3696
2026-01-23 14:48:37.48	339.75	22.93	-23.3	-23.3	18.1	0.00e+00	0	44	102	1048576	7	3606
2026-01-23 14:48:38.49	339.77	22.78	-23.2	-23.2	18.2	0.00e+00	0	44	102	1048576	7	3593
2026-01-23 14:48:39.49	339.79	22.64	-23.2	-23.2	18.2	0.00e+00	0	44	102	1048576	7	3588
2026-01-23 14:48:40.49	339.80	22.49	-23.2	-23.2	18.2	0.00e+00	0	44	102	1048576	7	3580
2026-01-23 14:48:41.50	339.82	22.35	-23.2	-23.1	18.2	0.00e+00	0	44	102	1048576	7	3569
2026-01-23 14:48:42.51	339.83	22.20	-23.2	-23.2	18.1	1.10e-06	0	44	102	1048576	7	3591
2026-01-23 14:48:43.51	339.85	22.06	-23.2	-23.2	18.2	0.00e+00	0	44	102	1048576	7	3588
2026-01-23 14:48:44.51	339.86	21.92	-23.3	-23.3	18.1	0.00e+00	0	44	102	1048576	7	3600
2026-01-23 14:48:45.51	339.88	21.78	-23.3	-23.3	18.1	0.00e+00	0	44	102	1048576	7	3616
2026-01-23 14:48:46.52	339.90	21.64	-23.4	-23.5	18.0	0.00e+00	0	44	102	1048576	7	3643
2026-01-23 14:48:47.52	339.91	21.50	-23.4	-23.6	17.9	0.00e+00	0	44	102	1048576	7	3669
2026-01-23 14:48:48.52	339.93	21.36	-23.5	-23.7	17.8	0.00e+00	0	44	102	1048576	7	3697
2026-01-23 14:48:49.53	339.94	21.23	-23.5	-23.8	17.8	0.00e+00	0	44	102	1048576	7	3730
2026-01-23 14:48:50.53	339.96	21.09	-23.6	-23.9	17.7	0.00e+00	0	44	102	1048576	7	3752
2026-01-23 14:48:51.54	339.97	20.95	-23.6	-23.9	17.8	0.00e+00	0	44	102	1048576	7	3739
2026-01-23 14:48:52.54	339.99	20.82	-23.6	-24.1	17.7	0.00e+00	0	44	102	1048576	7	3781
2026-01-23 14:48:53.55	340.00	20.68	-23.7	-24.3	17.5	0.00e+00	0	44	102	1048576	7	3835
2026-01-23 14:48:54.55	340.01	20.55	-23.7	-24.3	17.5	0.00e+00	0	44	102	1048576	7	3825
2026-01-23 14:48:55.55	340.03	20.42	-23.8	-24.5	17.4	0.00e+00	0	44	102	1048576	7	3872
2026-01-23 14:48:56.55	340.04	20.28	-23.9	-24.5	17.4	0.00e+00	0	44	102	1048576	7	3892
2026-01-23 14:48:57.56	340.06	20.15	-23.9	-24.6	17.4	0.00e+00	0	44	102	1048576	7	3902
2026-01-23 14:48:58.56	340.07	20.02	-23.8	-24.4	17.5	0.00e+00	0	44	102	1048576	7	3855
2026-01-23 14:48:59.57	340.09	19.89	-23.7	-24.3	17.5	0.00e+00	0	44	102	1048576	7	3826
2026-01-23 14:49:00.57	340.10	19.76	-23.8	-24.4	17.5	0.00e+00	0	44	102	1048576	7	3847
2026-01-23 14:49:01.58	340.11	19.63	-23.9	-24.6	17.4	0.00e+00	0	44	102	1048576	7	3896
2026-01-23 14:49:02.58	340.13	19.50	-23.8	-24.5	17.4	0.00e+00	0	44	102	1048576	7	3874
2026-01-23 14:49:03.58	340.14	19.37	-23.9	-24.7	17.3	0.00e+00	0	44	102	1048576	7	3922
2026-01-23 14:49:04.58	340.16	19.25	-23.9	-24.7	17.3	0.00e+00	0	44	102	1048576	7	3933
2026-01-23 14:49:05.58	340.17	19.12	-24.0	-24.8	17.2	0.00e+00	0	44	102	1048576	7	3955
2026-01-23 14:49:06.59	340.18	18.99	-24.0	-24.8	17.2	0.00e+00	0	44	102	1048576	7	3957
2026-01-23 14:49:07.60	340.20	18.87	-24.0	-24.8	17.2	0.00e+00	0	44	102	1048576	7	3967
2026-01-23 14:49:08.61	340.21	18.74	-24.1	-24.5	17.1	0.00e+00	0	44	102	1048576	8	3779
2026-01-23 14:49:09.62	340.22	18.62	-24.1	-24.5	17.2	0.00e+00	0	44	102	1048576	8	3775
2026-01-23 14:49:10.62	340.24	18.50	-24.1	-24.5	17.2	0.00e+00	0	44	102	1048576	8	3766
2026-01-23 14:49:11.63	340.25	18.37	-24.2	-24.8	17.0	0.00e+00	0	44	102	1048576	8	3837
2026-01-23 14:49:12.63	340.26	18.25	-24.2	-24.7	17.0	0.00e+00	0	44	102	1048576	8	3827
2026-01-23 14:49:13.64	340.28	18.13	-24.2	-24.7	17.1	0.00e+00	0	44	102	1048576	8	3825
2026-01-23 14:49:14.64	340.29	18.01	-24.2	-24.8	17.0	0.00e+00	0	44	102	1048576	8	3848
2026-01-23 14:49:15.65	340.30	17.89	-24.3	-25.0	16.8	0.00e+00	0	44	102	1048576	8	3906
2026-01-23 14:49:16.65	340.31	17.77	-24.3	-24.9	16.9	0.00e+00	0	44	102	1048576	8	3876
2026-01-23 14:49:17.66	340.33	17.65	-24.3	-25.0	16.9	0.00e+00	0	44	102	1048576	8	3884
2026-01-23 14:49:18.65	340.34	17.53	-24.2	-24.8	17.0	0.00e+00	0	44	102	1048576	8	3854
2026-01-23 14:49:19.67	340.35	17.41	-24.3	-25.0	16.9	0.00e+00	0	44	102	1048576	8	3884
2026-01-23 14:49:20.67	340.36	17.29	-24.3	-25.0	16.8	0.00e+00	0	44	102	1048576	8	3895
2026-01-23 14:49:21.68	340.38	17.18	-24.4	-25.2	16.7	0.00e+00	0	44	102	1048576	8	3938
2026-01-23 14:49:22.68	340.39	17.06	-24.4	-25.2	16.7	0.00e+00	0	44	102	1048576	8	3944
2026-01-23 14:49:23.69	340.40	16.94	-24.5	-25.4	16.7	0.00e+00	0	44	102	1048576	8	3983
2026-01-23 14:49:24.70	340.41	16.83	-24.5	-25.3	16.7	0.00e+00	0	44	102	1048576	8	3965
2026-01-23 14:49:25.70	340.43	16.71	-24.5	-25.3	16.7	0.00e+00	0	44	102	1048576	8	3975
2026-01-23 14:49:26.69	340.44	16.60	-24.5	-25.3	16.6	0.00e+00	0	44	102	1048576	8	3970
2026-01-23 14:49:27.70	340.45	16.49	-24.6	-25.1	16.5	0.00e+00	0	44	102	1048576	9	3819
2026-01-23 14:49:28.70	340.46	16.37	-24.8	-25.5	16.3	0.00e+00	0	44	102	1048576	9	3904
2026-01-23 14:49:29.71	340.48	16.26	-24.7	-25.4	16.3	0.00e+00	0	44	102	1048576	9	3887
2026-01-23 14:49:30.71	340.49	16.15	-24.6	-25.2	16.5	0.00e+00	0	44	102	1048576	9	3827
2026-01-23 14:49:31.71	340.50	16.04	-24.7	-25.2	16.5	0.00e+00	0	44	102	1048576	9	3845
2026-01-23 14:49:32.72	340.51	15.93	-24.7	-25.3	16.4	0.00e+00	0	44	102	1048576	9	3867
2026-01-23 14:49:33.72	340.52	15.82	-24.8	-25.5	16.3	0.00e+00	0	44	102	1048576	9	3915
2026-01-23 14:49:34.73	340.53	15.71	-24.8	-25.4	16.3	0.00e+00	0	44	102	1048576	9	3897
2026-01-23 14:49:35.73	340.55	15.60	-24.8	-25.4	16.3	0.00e+00	0	44	102	1048576	9	3898
2026-01-23 14:49:36.73	340.56	15.49	-24.8	-25.4	16.3	0.00e+00	0	44	102	1048576	9	3894
2026-01-23 14:49:37.73	340.57	15.38	-24.8	-25.5	16.3	0.00e+00	0	44	102	1048576	9	3924
2026-01-23 14:49:38.74	340.58	15.27	-24.8	-25.6	16.2	0.00e+00	0	44	102	1048576	9	3942
2026-01-23 14:49:39.74	340.59	15.16	-24.9	-25.8	16.1	0.00e+00	0	44	102	1048576	9	3975
2026-01-23 14:49:40.75	340.60	15.06	-24.8	-25.6	16.2	0.00e+00	0	44	102	1048576	9	3945
2026-01-23 14:49:41.75	340.61	14.95	-25.0	-25.9	16.0	0.00e+00	0	44	102	1048576	9	4011
2026-01-23 14:49:42.75	340.63	14.84	-24.9	-25.8	16.1	0.00e+00	0	44	102	1048576	9	3982
2026-01-23 14:49:43.76	340.64	14.74	-25.0	-25.9	16.0	0.00e+00	0	44	102	1048576	9	4016
2026-01-23 14:49:44.77	340.65	14.63	-25.0	-25.9	16.0	0.00e+00	0	44	102	1048576	9	4015
2026-01-23 14:49:45.77	340.66	14.53	-25.1	-25.8	15.8	1.10e-06	0	44	102	1048576	10	3872
2026-01-23 14:49:46.78	340.67	14.42	-25.3	-26.1	15.7	0.00e+00	0	44	102	1048576	10	3944
2026-01-23 14:49:47.78	340.68	14.32	-25.3	-26.0	15.7	0.00e+00	0	44	102	1048576	10	3936
2026-01-23 14:49:48.79	340.69	14.22	-25.2	-25.8	15.8	0.00e+00	0	44	102	1048576	10	3881
2026-01-23 14:49:49.80	340.70	14.11	-25.1	-25.7	15.9	0.00e+00	0	44	102	1048576	10	3859
2026-01-23 14:49:50.80	340.71	14.01	-25.2	-25.8	15.8	0.00e+00	0	44	102	1048576	10	3888
2026-01-23 14:49:51.80	340.73	13.91	-25.2	-26.0	15.7	0.00e+00	0	44	102	1048576	10	3922
2026-01-23 14:49:52.80	340.74	13.81	-25.4	-26.2	15.5	1.10e-06	0	44	102	1048576	10	3988
2026-01-23 14:49:53.80	340.75	13.71	-25.3	-26.2	15.5	0.00e+00	0	44	102	1048576	10	3973
2026-01-23 14:49:54.80	340.76	13.61	-25.4	-26.4	15.5	0.00e+00	0	44	102	1048576	10	4028
2026-01-23 14:49:55.80	340.77	13.51	-25.5	-26.5	15.4	0.00e+00	0	44	102	1048576	10	4044
2026-01-23 14:49:56.81	340.78	13.40	-25.5	-26.6	15.4	0.00e+00	0	44	102	1048576	10	4070
2026-01-23 14:49:57.81	340.79	13.31	-25.5	-26.5	15.4	1.10e-06	0	44	102	1048576	10	4062
2026-01-23 14:49:58.81	340.80	13.21	-25.6	-26.3	15.2	0.00e+00	0	44	102	1048576	11	3906
2026-01-23 14:49:59.82	340.81	13.11	-25.8	-26.6	15.0	0.00e+00	0	44	102	1048576	11	3983
2026-01-23 14:50:00.82	340.82	13.01	-25.7	-26.6	15.0	3.40e-06	0	44	102	1048576	11	3979
2026-01-23 14:50:01.83	340.83	12.91	-25.9	-26.9	14.9	0.00e+00	0	44	102	1048576	11	4049
2026-01-23 14:50:02.83	340.84	12.81	-25.8	-26.8	14.9	0.00e+00	0	44	102	1048576	11	4033
2026-01-23 14:50:03.84	340.85	12.72	-25.7	-26.5	15.1	0.00e+00	0	44	102	1048576	11	3939
2026-01-23 14:50:04.84	340.86	12.62	-25.6	-26.2	15.2	0.00e+00	0	44	102	1048576	11	3876
2026-01-23 14:50:05.85	340.87	12.52	-25.5	-26.2	15.2	0.00e+00	0	44	102	1048576	11	3872
2026-01-23 14:50:06.85	340.88	12.43	-25.6	-26.3	15.2	0.00e+00	0	44	102	1048576	11	3898
2026-01-23 14:50:07.86	340.89	12.33	-25.6	-26.4	15.1	0.00e+00	0	44	102	1048576	11	3921
2026-01-23 14:50:08.85	340.90	12.24	-25.7	-26.6	15.0	0.00e+00	0	44	102	1048576	11	3976
2026-01-23 14:50:09.86	340.91	12.14	-25.7	-26.6	15.0	0.00e+00	0	44	102	1048576	11	3971
2026-01-23 14:50:10.86	340.92	12.05	-25.7	-26.6	15.0	0.00e+00	0	44	102	1048576	11	3964
2026-01-23 14:50:11.87	340.93	11.95	-25.9	-26.9	14.8	0.00e+00	0	44	102	1048576	11	4048
2026-01-23 14:50:12.87	340.94	11.86	-25.7	-26.6	15.0	0.00e+00	0	44	102	1048576	11	3985
2026-01-23 14:50:13.87	340.95	11.76	-25.9	-26.9	14.8	0.00e+00	0	44	102	1048576	11	4064
2026-01-23 14:50:14.86	340.96	11.67	-25.8	-26.8	14.9	0.00e+00	0	44	102	1048576	11	4034
2026-01-23 14:50:15.87	340.97	11.58	-25.8	-26.8	14.9	0.00e+00	0	44	102	1048576	11	4030
2026-01-23 14:50:16.88	340.98	11.49	-25.8	-26.8	14.9	0.00e+00	0	44	102	1048576	11	4018
2026-01-23 14:50:17.88	340.99	11.39	-25.9	-26.9	14.8	1.10e-06	0	44	102	1048576	11	4065
2026-01-23 14:50:18.89	341.00	11.30	-26.0	-27.1	14.7	2.20e-06	0	44	102	1048576	11	4097
2026-01-23 14:50:19.89	341.01	11.21	-26.0	-27.1	14.7	0.00e+00	0	44	102	1048576	11	4108
2026-01-23 14:50:20.89	341.02	11.12	-26.1	-27.4	14.5	0.00e+00	0	44	102	1048576	11	4180
2026-01-23 14:50:21.89	341.03	11.03	-26.0	-26.8	14.5	0.00e+00	0	44	102	1048576	12	3930
2026-01-23 14:50:22.90	341.04	10.94	-26.1	-26.9	14.4	0.00e+00	0	44	102	1048576	12	3962
2026-01-23 14:50:23.90	341.05	10.85	-26.3	-27.4	14.1	0.00e+00	0	44	102	1048576	12	4080
2026-01-23 14:50:24.90	341.06	10.76	-26.3	-27.3	14.1	1.10e-06	0	44	102	1048576	12	4052
2026-01-23 14:50:25.91	341.07	10.67	-26.3	-27.3	14.2	0.00e+00	0	44	102	1048576	12	4063
2026-01-23 14:50:26.92	341.08	10.58	-26.4	-27.5	14.1	1.10e-06	0	44	102	1048576	12	4108
2026-01-23 14:50:27.91	341.09	10.49	-26.5	-27.8	13.9	5.70e-06	0	44	102	1048576	12	4188
2026-01-23 14:50:28.92	341.10	10.40	-26.4	-27.7	13.9	6.80e-06	0	44	102	1048576	12	4162
2026-01-23 14:50:29.92	341.11	10.32	-26.6	-27.6	13.7	9.10e-06	0	44	102	1048576	13	4024
2026-01-23 14:50:30.92	341.12	10.23	-26.6	-27.6	13.7	3.40e-06	0	44	102	1048576	13	4045
2026-01-23 14:50:31.92	341.13	10.14	-26.6	-27.5	13.7	8.00e-06	0	44	102	1048576	13	4010
2026-01-23 14:50:32.92	341.14	10.06	-26.6	-27.5	13.8	5.70e-06	0	44	102	1048576	13	4003
2026-01-23 14:50:33.93	341.15	9.97	-26.8	-28.0	13.5	8.00e-06	0	44	102	1048576	13	4143
2026-01-23 14:50:34.94	341.16	9.88	-26.7	-27.8	13.6	6.80e-06	0	44	102	1048576	13	4092
2026-01-23 14:50:35.94	341.17	9.80	-26.8	-28.1	13.4	1.25e-05	0	44	102	1048576	13	4161
2026-01-23 14:50:36.95	341.17	9.71	-26.8	-28.0	13.5	2.40e-05	0	45	102	1048576	13	4133
2026-01-23 14:50:37.96	341.18	9.62	-26.7	-27.8	13.6	2.28e-05	0	44	102	1048576	13	4073
2026-01-23 14:50:38.96	341.19	9.54	-26.6	-27.5	13.7	8.00e-06	0	44	102	1048576	13	3996
2026-01-23 14:50:39.97	341.20	9.45	-26.7	-27.8	13.6	1.37e-05	0	44	102	1048576	13	4076
2026-01-23 14:50:40.97	341.21	9.37	-26.7	-27.7	13.5	1.02e-05	0	44	102	1048576	13	4068
