passes_logs/2026/01/23/R2M6_AANII_01/R2M6_AANII_01__20260123_111607_FENGYUN_3D_rec.log

#Pass ID: 20260123_111607_FENGYUN 3D
#Satellite: FENGYUN 3D
#Configuration: FENGYUN 3D
#almurnet v.1.7.20240730
#Start time: 2026-01-23 11:16:08

#Version: 2.2.20231116
#Station: R2M6_AANII_01
#Location: 30.233357 lon 59.946436 lat
#TLE: 1 43010U 17072A   26022.47411728  .00000617  00000+0  31375-3 0  9996
#TLE: 2 43010  98.9952 354.4060 0002481  95.7964 264.3494 14.19699924424319

#Time	Az	El	Level	Level2	SNR	BER	BlckErr	Temp	State	Recorded	gain1	gain2
2026-01-23 11:16:08.88	125.78	7.10	-29.5	-32.0	5.4	7.83e-01	0	39	0	0	20	4817
2026-01-23 11:16:09.88	125.72	7.17	-29.4	-31.8	5.5	7.82e-01	0	39	104	0	20	4742
2026-01-23 11:16:10.87	125.67	7.24	-29.4	-31.9	10.3	6.49e-03	0	39	0	0	20	4763
2026-01-23 11:16:11.87	125.62	7.32	-29.3	-31.5	10.6	5.24e-03	0	39	102	1048576	20	4629
2026-01-23 11:16:12.88	125.56	7.39	-29.2	-31.7	10.9	3.03e-03	0	39	102	1048576	19	4802
2026-01-23 11:16:13.89	125.51	7.47	-29.3	-32.0	10.7	3.96e-03	0	39	102	1048576	19	4893
2026-01-23 11:16:14.89	125.45	7.54	-29.7	-32.9	10.1	6.67e-03	0	39	102	1048576	19	5251
2026-01-23 11:16:15.90	125.39	7.62	-29.4	-32.3	10.6	5.69e-03	0	39	102	1048576	19	4988
2026-01-23 11:16:16.90	125.34	7.69	-28.8	-30.7	11.6	1.99e-03	0	39	102	1048576	19	4479
2026-01-23 11:16:17.91	125.28	7.77	-28.4	-30.2	12.2	3.58e-04	0	39	102	1048576	18	4415
2026-01-23 11:16:18.92	125.22	7.84	-28.2	-30.1	12.6	1.91e-04	0	39	102	1048576	17	4496
2026-01-23 11:16:19.93	125.17	7.92	-28.4	-30.6	12.3	2.05e-04	0	39	102	1048576	17	4625
2026-01-23 11:16:20.93	125.11	8.00	-28.3	-30.3	12.5	2.41e-04	0	40	102	1048576	17	4545
2026-01-23 11:16:21.94	125.05	8.07	-28.3	-30.3	12.5	1.75e-04	0	39	102	1048576	17	4540
2026-01-23 11:16:22.94	124.99	8.15	-28.4	-30.5	12.4	2.37e-04	0	39	102	1048576	17	4587
2026-01-23 11:16:23.95	124.94	8.23	-28.3	-30.4	12.4	1.94e-04	0	40	102	1048576	17	4579
2026-01-23 11:16:24.95	124.88	8.30	-28.5	-30.9	12.2	3.41e-04	0	40	102	1048576	17	4722
2026-01-23 11:16:25.95	124.82	8.38	-28.4	-30.5	12.4	2.54e-04	0	40	102	1048576	17	4590
2026-01-23 11:16:26.96	124.76	8.46	-28.7	-31.3	11.9	4.76e-04	0	40	102	1048576	17	4870
2026-01-23 11:16:27.97	124.70	8.53	-28.4	-30.4	12.5	3.05e-04	0	40	102	1048576	17	4576
2026-01-23 11:16:28.96	124.64	8.61	-28.0	-29.5	13.0	6.63e-05	0	39	102	1048576	17	4299
2026-01-23 11:16:29.97	124.58	8.69	-27.6	-29.2	13.5	2.97e-05	0	39	102	1048576	16	4315
2026-01-23 11:16:30.97	124.52	8.77	-27.4	-28.8	13.8	4.50e-06	0	40	102	1048576	16	4187
2026-01-23 11:16:31.98	124.46	8.85	-27.3	-28.4	14.0	4.50e-06	0	40	102	1048576	16	4074
2026-01-23 11:16:32.99	124.40	8.92	-27.0	-28.3	14.2	2.20e-06	0	40	102	1048576	15	4162
2026-01-23 11:16:33.99	124.34	9.00	-27.2	-28.6	14.0	1.10e-06	0	40	102	1048576	15	4244
2026-01-23 11:16:35.00	124.27	9.08	-27.0	-28.3	14.2	4.50e-06	0	40	102	1048576	15	4171
2026-01-23 11:16:36.00	124.21	9.16	-27.0	-28.3	14.2	3.40e-06	0	40	102	1048576	15	4178
2026-01-23 11:16:37.01	124.15	9.24	-27.0	-28.1	14.3	2.20e-06	0	40	102	1048576	15	4124
2026-01-23 11:16:38.01	124.08	9.32	-27.0	-28.2	14.3	3.40e-06	0	40	102	1048576	15	4144
2026-01-23 11:16:39.02	124.02	9.40	-27.2	-28.7	14.0	4.50e-06	0	40	102	1048576	15	4289
2026-01-23 11:16:40.02	123.96	9.48	-27.0	-28.3	14.3	1.10e-06	0	40	102	1048576	15	4158
2026-01-23 11:16:41.03	123.89	9.56	-26.9	-27.9	14.5	3.40e-06	0	40	102	1048576	15	4065
2026-01-23 11:16:42.03	123.83	9.64	-26.9	-28.1	14.4	2.20e-06	0	40	102	1048576	15	4106
2026-01-23 11:16:43.03	123.76	9.72	-26.8	-27.7	14.6	4.50e-06	0	40	102	1048576	15	4018
2026-01-23 11:16:44.04	123.70	9.80	-26.9	-27.9	14.5	0.00e+00	0	40	102	1048576	15	4066
2026-01-23 11:16:45.05	123.63	9.88	-26.8	-27.8	14.6	0.00e+00	0	40	102	1048576	15	4026
2026-01-23 11:16:46.04	123.57	9.96	-26.9	-27.9	14.6	4.50e-06	0	40	102	1048576	15	4049
2026-01-23 11:16:47.04	123.50	10.05	-26.8	-28.1	14.7	0.00e+00	0	40	102	1048576	14	4222
2026-01-23 11:16:48.04	123.43	10.13	-26.8	-28.3	14.6	1.10e-06	0	40	102	1048576	14	4275
2026-01-23 11:16:49.04	123.37	10.21	-26.7	-27.9	14.8	0.00e+00	0	40	102	1048576	14	4171
2026-01-23 11:16:50.04	123.30	10.29	-26.6	-27.9	14.9	1.10e-06	0	40	102	1048576	14	4152
2026-01-23 11:16:51.05	123.23	10.37	-26.8	-28.3	14.6	2.20e-06	0	40	102	1048576	14	4261
2026-01-23 11:16:52.06	123.16	10.46	-26.7	-28.2	14.7	1.10e-06	0	40	102	1048576	14	4231
2026-01-23 11:16:53.06	123.10	10.54	-26.6	-27.9	14.9	0.00e+00	0	40	102	1048576	14	4150
2026-01-23 11:16:54.07	123.03	10.62	-26.6	-27.9	14.9	0.00e+00	0	40	102	1048576	14	4153
2026-01-23 11:16:55.08	122.96	10.71	-26.6	-27.7	15.0	2.20e-06	0	40	102	1048576	14	4114
2026-01-23 11:16:56.08	122.89	10.79	-26.6	-27.7	15.0	0.00e+00	0	40	102	1048576	14	4115
2026-01-23 11:16:57.08	122.82	10.87	-26.6	-27.8	14.9	1.10e-06	0	40	102	1048576	14	4137
2026-01-23 11:16:58.09	122.74	10.96	-26.8	-28.3	14.7	0.00e+00	0	40	102	1048576	14	4272
2026-01-23 11:16:59.10	122.67	11.04	-26.6	-27.9	14.9	0.00e+00	0	40	102	1048576	14	4170
2026-01-23 11:17:00.11	122.60	11.13	-26.5	-27.6	15.1	0.00e+00	0	40	102	1048576	14	4081
2026-01-23 11:17:01.11	122.53	11.21	-26.5	-27.5	15.1	0.00e+00	0	40	102	1048576	14	4058
2026-01-23 11:17:02.12	122.46	11.30	-26.5	-27.5	15.1	0.00e+00	0	40	102	1048576	14	4047
2026-01-23 11:17:03.12	122.38	11.38	-26.5	-27.5	15.1	0.00e+00	0	40	102	1048576	14	4053
2026-01-23 11:17:04.13	122.31	11.47	-26.6	-27.8	15.0	0.00e+00	0	40	102	1048576	14	4134
2026-01-23 11:17:05.13	122.24	11.56	-26.5	-27.5	15.1	0.00e+00	0	40	102	1048576	14	4057
2026-01-23 11:17:06.14	122.16	11.64	-26.6	-27.7	15.0	0.00e+00	0	40	102	1048576	14	4102
2026-01-23 11:17:07.15	122.09	11.73	-26.7	-28.0	14.9	0.00e+00	0	40	102	1048576	14	4173
2026-01-23 11:17:08.15	122.01	11.82	-26.4	-27.5	15.2	0.00e+00	0	40	102	1048576	14	4043
2026-01-23 11:17:09.16	121.94	11.90	-26.3	-27.2	15.4	0.00e+00	0	40	102	1048576	14	3964
2026-01-23 11:17:10.16	121.86	11.99	-26.2	-27.5	15.4	0.00e+00	0	40	102	1048576	13	4162
2026-01-23 11:17:11.16	121.78	12.08	-26.3	-27.5	15.4	0.00e+00	0	40	102	1048576	13	4164
2026-01-23 11:17:12.17	121.71	12.17	-26.4	-27.8	15.2	0.00e+00	0	40	102	1048576	13	4249
2026-01-23 11:17:13.18	121.63	12.25	-26.4	-27.8	15.3	1.10e-06	0	40	102	1048576	13	4229
2026-01-23 11:17:14.18	121.55	12.34	-26.4	-27.9	15.2	0.00e+00	0	40	102	1048576	13	4275
2026-01-23 11:17:15.19	121.47	12.43	-26.4	-27.8	15.3	1.10e-06	0	40	102	1048576	13	4246
2026-01-23 11:17:16.19	121.39	12.52	-26.4	-27.8	15.3	0.00e+00	0	40	102	1048576	13	4235
2026-01-23 11:17:17.19	121.31	12.61	-26.5	-28.0	15.2	0.00e+00	0	40	102	1048576	13	4280
2026-01-23 11:17:18.19	121.23	12.70	-26.5	-28.1	15.1	0.00e+00	0	40	102	1048576	13	4313
2026-01-23 11:17:19.19	121.15	12.79	-26.4	-27.9	15.3	0.00e+00	0	41	102	1048576	13	4256
2026-01-23 11:17:20.20	121.07	12.88	-26.4	-27.8	15.3	0.00e+00	0	41	102	1048576	13	4249
2026-01-23 11:17:21.20	120.99	12.97	-26.4	-27.9	15.3	0.00e+00	0	40	102	1048576	13	4259
2026-01-23 11:17:22.21	120.91	13.06	-26.4	-27.7	15.3	0.00e+00	0	40	102	1048576	13	4223
2026-01-23 11:17:23.22	120.82	13.15	-26.4	-27.9	15.3	0.00e+00	0	40	102	1048576	13	4255
2026-01-23 11:17:24.23	120.74	13.24	-26.4	-27.9	15.3	1.10e-06	0	40	102	1048576	13	4272
2026-01-23 11:17:25.24	120.66	13.33	-26.4	-27.8	15.3	0.00e+00	0	40	102	1048576	13	4232
2026-01-23 11:17:26.25	120.57	13.43	-26.4	-27.9	15.3	0.00e+00	0	40	102	1048576	13	4259
2026-01-23 11:17:27.25	120.49	13.52	-26.2	-27.5	15.5	2.20e-06	0	40	102	1048576	13	4168
2026-01-23 11:17:28.25	120.40	13.61	-26.2	-27.5	15.5	0.00e+00	0	40	102	1048576	13	4156
2026-01-23 11:17:29.26	120.32	13.70	-26.3	-27.6	15.5	0.00e+00	0	41	102	1048576	13	4190
2026-01-23 11:17:30.27	120.23	13.79	-26.2	-27.4	15.5	0.00e+00	0	40	102	1048576	13	4143
2026-01-23 11:17:31.27	120.14	13.89	-26.2	-27.4	15.6	0.00e+00	0	41	102	1048576	13	4133
2026-01-23 11:17:32.28	120.06	13.98	-26.2	-27.5	15.5	0.00e+00	0	40	102	1048576	13	4171
2026-01-23 11:17:33.29	119.97	14.08	-26.2	-27.4	15.6	0.00e+00	0	40	102	1048576	13	4135
2026-01-23 11:17:34.29	119.88	14.17	-26.2	-27.3	15.6	0.00e+00	0	40	102	1048576	13	4121
2026-01-23 11:17:35.30	119.79	14.26	-26.1	-27.2	15.7	0.00e+00	0	41	102	1048576	13	4075
2026-01-23 11:17:36.30	119.70	14.36	-26.1	-27.1	15.7	0.00e+00	0	40	102	1048576	13	4069
2026-01-23 11:17:37.30	119.61	14.45	-26.1	-27.2	15.7	0.00e+00	0	41	102	1048576	13	4093
2026-01-23 11:17:38.31	119.52	14.55	-26.2	-27.4	15.6	0.00e+00	0	40	102	1048576	13	4135
2026-01-23 11:17:39.31	119.43	14.64	-26.2	-27.4	15.6	0.00e+00	0	40	102	1048576	13	4144
2026-01-23 11:17:40.32	119.33	14.74	-26.1	-27.3	15.7	0.00e+00	0	41	102	1048576	13	4102
2026-01-23 11:17:41.32	119.24	14.83	-26.1	-27.1	15.8	0.00e+00	0	41	102	1048576	13	4057
2026-01-23 11:17:42.33	119.15	14.93	-26.0	-27.0	15.9	0.00e+00	0	41	102	1048576	13	4037
2026-01-23 11:17:43.34	119.05	15.03	-26.0	-26.9	15.9	0.00e+00	0	40	102	1048576	13	4011
2026-01-23 11:17:44.35	118.96	15.13	-25.9	-26.8	16.0	0.00e+00	0	40	102	1048576	13	3967
2026-01-23 11:17:45.35	118.86	15.22	-26.0	-26.9	15.9	0.00e+00	0	40	102	1048576	13	4000
2026-01-23 11:17:46.36	118.77	15.32	-26.0	-26.9	16.0	0.00e+00	0	41	102	1048576	13	4004
2026-01-23 11:17:47.37	118.67	15.42	-25.8	-26.6	16.1	0.00e+00	0	41	102	1048576	13	3924
2026-01-23 11:17:48.37	118.57	15.52	-25.8	-26.5	16.2	0.00e+00	0	41	102	1048576	13	3894
2026-01-23 11:17:49.38	118.47	15.62	-25.8	-26.9	16.2	0.00e+00	0	41	102	1048576	12	4109
2026-01-23 11:17:50.38	118.38	15.71	-25.7	-26.8	16.3	0.00e+00	0	40	102	1048576	12	4081
2026-01-23 11:17:51.39	118.28	15.81	-25.8	-26.9	16.2	0.00e+00	0	41	102	1048576	12	4105
2026-01-23 11:17:52.39	118.18	15.91	-25.8	-27.0	16.2	0.00e+00	0	40	102	1048576	12	4126
2026-01-23 11:17:53.40	118.07	16.01	-25.7	-26.9	16.2	0.00e+00	0	41	102	1048576	12	4106
2026-01-23 11:17:54.40	117.97	16.11	-25.8	-26.9	16.2	0.00e+00	0	40	102	1048576	12	4111
2026-01-23 11:17:55.41	117.87	16.21	-25.7	-26.7	16.3	0.00e+00	0	40	102	1048576	12	4060
2026-01-23 11:17:56.42	117.77	16.32	-25.7	-26.8	16.3	0.00e+00	0	41	102	1048576	12	4072
2026-01-23 11:17:57.43	117.66	16.42	-25.7	-26.7	16.3	0.00e+00	0	41	102	1048576	12	4061
2026-01-23 11:17:58.44	117.56	16.52	-25.7	-26.7	16.3	0.00e+00	0	41	102	1048576	12	4069
2026-01-23 11:17:59.44	117.45	16.62	-25.6	-26.6	16.4	0.00e+00	0	40	102	1048576	12	4023
2026-01-23 11:18:00.45	117.35	16.72	-25.6	-26.7	16.4	0.00e+00	0	41	102	1048576	12	4052
2026-01-23 11:18:01.45	117.24	16.82	-25.5	-26.4	16.5	0.00e+00	0	41	102	1048576	12	3995
2026-01-23 11:18:02.46	117.13	16.93	-25.5	-26.4	16.5	0.00e+00	0	41	102	1048576	12	3990
2026-01-23 11:18:03.46	117.03	17.03	-25.6	-26.5	16.5	0.00e+00	0	41	102	1048576	12	4016
2026-01-23 11:18:04.47	116.92	17.13	-25.5	-26.4	16.5	0.00e+00	0	41	102	1048576	12	3994
2026-01-23 11:18:05.48	116.81	17.24	-25.5	-26.3	16.6	0.00e+00	0	40	102	1048576	12	3964
2026-01-23 11:18:06.49	116.70	17.34	-25.4	-26.2	16.7	0.00e+00	0	40	102	1048576	12	3934
2026-01-23 11:18:07.49	116.59	17.45	-25.3	-26.0	16.8	0.00e+00	0	40	102	1048576	12	3888
2026-01-23 11:18:08.50	116.47	17.55	-25.3	-26.0	16.8	0.00e+00	0	41	102	1048576	12	3878
2026-01-23 11:18:09.51	116.36	17.66	-25.3	-25.9	16.8	0.00e+00	0	41	102	1048576	12	3861
2026-01-23 11:18:10.51	116.25	17.76	-25.3	-26.3	17.0	0.00e+00	0	40	102	1048576	11	4061
2026-01-23 11:18:11.51	116.13	17.87	-25.2	-26.2	17.1	0.00e+00	0	40	102	1048576	11	4038
2026-01-23 11:18:12.52	116.02	17.97	-25.2	-26.2	17.1	0.00e+00	0	40	102	1048576	11	4037
2026-01-23 11:18:13.52	115.90	18.08	-25.3	-26.4	17.0	0.00e+00	0	41	102	1048576	11	4069
2026-01-23 11:18:14.52	115.79	18.19	-25.3	-26.4	17.0	0.00e+00	0	41	102	1048576	11	4073
2026-01-23 11:18:15.53	115.67	18.29	-25.3	-26.3	17.0	0.00e+00	0	41	102	1048576	11	4050
2026-01-23 11:18:16.54	115.55	18.40	-25.3	-26.4	17.0	0.00e+00	0	41	102	1048576	11	4075
2026-01-23 11:18:17.55	115.43	18.51	-25.3	-26.4	17.0	0.00e+00	0	40	102	1048576	11	4070
2026-01-23 11:18:18.55	115.31	18.62	-25.3	-26.4	17.0	0.00e+00	0	40	102	1048576	11	4089
2026-01-23 11:18:19.55	115.19	18.72	-25.3	-26.5	17.0	0.00e+00	0	41	102	1048576	11	4094
2026-01-23 11:18:20.55	115.07	18.83	-25.3	-26.3	17.1	1.10e-06	0	41	102	1048576	11	4054
2026-01-23 11:18:21.56	114.95	18.94	-25.1	-26.0	17.2	0.00e+00	0	40	102	1048576	11	3983
2026-01-23 11:18:22.56	114.82	19.05	-25.1	-26.0	17.2	0.00e+00	0	40	102	1048576	11	3990
2026-01-23 11:18:23.56	114.70	19.16	-25.0	-25.8	17.3	2.20e-06	0	41	102	1048576	11	3935
2026-01-23 11:18:24.56	114.57	19.27	-24.8	-25.4	17.6	0.00e+00	0	41	102	1048576	11	3828
2026-01-23 11:18:25.56	114.45	19.38	-24.8	-25.7	17.6	0.00e+00	0	41	102	1048576	10	4014
2026-01-23 11:18:26.57	114.32	19.49	-24.7	-25.6	17.7	0.00e+00	0	40	102	1048576	10	3988
2026-01-23 11:18:27.58	114.19	19.60	-24.6	-25.4	17.8	0.00e+00	0	41	102	1048576	10	3953
2026-01-23 11:18:28.59	114.06	19.71	-24.6	-25.3	17.8	0.00e+00	0	41	102	1048576	10	3931
2026-01-23 11:18:29.59	113.93	19.83	-24.5	-25.2	17.9	0.00e+00	0	41	102	1048576	10	3897
2026-01-23 11:18:30.60	113.80	19.94	-24.6	-25.3	17.9	0.00e+00	0	40	102	1048576	10	3920
2026-01-23 11:18:31.60	113.67	20.05	-24.6	-25.4	17.8	0.00e+00	0	41	102	1048576	10	3949
2026-01-23 11:18:32.60	113.54	20.16	-24.7	-25.5	17.7	0.00e+00	0	41	102	1048576	10	3979
2026-01-23 11:18:33.60	113.40	20.28	-24.7	-25.6	17.7	0.00e+00	0	41	102	1048576	10	3996
2026-01-23 11:18:34.60	113.27	20.39	-24.7	-25.7	17.7	0.00e+00	0	41	102	1048576	10	4013
2026-01-23 11:18:35.61	113.13	20.50	-24.9	-26.0	17.6	0.00e+00	0	41	102	1048576	10	4084
2026-01-23 11:18:36.62	112.99	20.62	-24.8	-25.9	17.6	0.00e+00	0	40	102	1048576	10	4058
2026-01-23 11:18:37.62	112.86	20.73	-24.8	-25.9	17.6	0.00e+00	0	41	102	1048576	10	4055
2026-01-23 11:18:38.63	112.72	20.85	-24.8	-25.7	17.7	0.00e+00	0	41	102	1048576	10	4019
2026-01-23 11:18:39.63	112.58	20.96	-24.8	-25.7	17.7	0.00e+00	0	41	102	1048576	10	4018
2026-01-23 11:18:40.63	112.44	21.08	-24.8	-25.9	17.7	0.00e+00	0	41	102	1048576	10	4056
2026-01-23 11:18:41.64	112.29	21.19	-24.8	-25.7	17.7	0.00e+00	0	41	102	1048576	10	4019
2026-01-23 11:18:42.64	112.15	21.31	-24.7	-25.6	17.8	0.00e+00	0	41	102	1048576	10	3994
2026-01-23 11:18:43.64	112.01	21.43	-24.8	-25.7	17.7	0.00e+00	0	41	102	1048576	10	4021
2026-01-23 11:18:44.64	111.86	21.54	-24.7	-25.5	17.9	0.00e+00	0	41	102	1048576	10	3962
2026-01-23 11:18:45.65	111.71	21.66	-24.5	-25.2	18.0	0.00e+00	0	41	102	1048576	10	3884
2026-01-23 11:18:46.65	111.57	21.78	-24.4	-24.9	18.1	0.00e+00	0	41	102	1048576	10	3824
2026-01-23 11:18:47.65	111.42	21.89	-24.4	-25.0	18.1	0.00e+00	0	41	102	1048576	10	3846
2026-01-23 11:18:48.66	111.27	22.01	-24.4	-24.9	18.1	0.00e+00	0	41	102	1048576	10	3834
2026-01-23 11:18:49.67	111.11	22.13	-24.6	-25.3	18.0	0.00e+00	0	41	102	1048576	10	3919
2026-01-23 11:18:50.68	110.96	22.25	-24.5	-25.1	18.0	0.00e+00	0	41	102	1048576	10	3880
2026-01-23 11:18:51.69	110.81	22.37	-24.2	-24.9	18.4	0.00e+00	0	41	102	1048576	9	3935
2026-01-23 11:18:52.69	110.65	22.49	-24.0	-24.5	18.6	0.00e+00	0	41	102	1048576	9	3836
2026-01-23 11:18:53.70	110.50	22.61	-23.9	-24.4	18.7	0.00e+00	0	41	102	1048576	9	3819
2026-01-23 11:18:54.70	110.34	22.73	-24.0	-24.6	18.6	0.00e+00	0	41	102	1048576	9	3849
2026-01-23 11:18:55.71	110.18	22.85	-23.9	-24.4	18.7	0.00e+00	0	41	102	1048576	9	3815
2026-01-23 11:18:56.71	110.02	22.97	-23.9	-24.4	18.7	0.00e+00	0	41	102	1048576	9	3805
2026-01-23 11:18:57.72	109.86	23.09	-23.9	-24.4	18.7	0.00e+00	0	41	102	1048576	9	3817
2026-01-23 11:18:58.73	109.69	23.22	-24.0	-24.6	18.6	0.00e+00	0	41	102	1048576	9	3857
2026-01-23 11:18:59.74	109.53	23.34	-24.0	-24.7	18.5	0.00e+00	0	41	102	1048576	9	3874
2026-01-23 11:19:00.74	109.37	23.46	-24.1	-24.7	18.5	0.00e+00	0	41	102	1048576	9	3891
2026-01-23 11:19:01.75	109.20	23.58	-24.0	-24.6	18.6	0.00e+00	0	41	102	1048576	9	3855
2026-01-23 11:19:02.75	109.03	23.71	-24.0	-24.6	18.6	0.00e+00	0	41	102	1048576	9	3853
2026-01-23 11:19:03.76	108.86	23.83	-23.9	-24.5	18.6	0.00e+00	0	41	102	1048576	9	3829
2026-01-23 11:19:04.77	108.69	23.95	-23.9	-24.4	18.7	0.00e+00	0	41	102	1048576	9	3806
2026-01-23 11:19:05.78	108.52	24.08	-24.0	-24.5	18.6	0.00e+00	0	41	102	1048576	9	3845
2026-01-23 11:19:06.79	108.34	24.20	-23.9	-24.4	18.7	0.00e+00	0	41	102	1048576	9	3808
2026-01-23 11:19:07.79	108.17	24.33	-23.9	-24.4	18.7	0.00e+00	0	41	102	1048576	9	3804
2026-01-23 11:19:08.79	107.99	24.45	-23.8	-24.2	18.8	0.00e+00	0	41	102	1048576	9	3764
2026-01-23 11:19:09.80	107.82	24.58	-23.9	-24.3	18.8	0.00e+00	0	41	102	1048576	9	3788
2026-01-23 11:19:10.80	107.64	24.70	-24.0	-24.7	18.6	0.00e+00	0	41	102	1048576	9	3872
2026-01-23 11:19:11.79	107.46	24.83	-24.0	-24.7	18.5	0.00e+00	0	41	102	1048576	9	3887
2026-01-23 11:19:12.80	107.28	24.95	-24.0	-24.7	18.6	0.00e+00	0	41	102	1048576	9	3872
2026-01-23 11:19:13.79	107.10	25.08	-24.2	-24.9	18.4	0.00e+00	0	41	102	1048576	9	3937
2026-01-23 11:19:14.79	106.91	25.20	-24.1	-24.9	18.5	0.00e+00	0	41	102	1048576	9	3923
2026-01-23 11:19:15.79	106.73	25.33	-24.1	-24.8	18.5	0.00e+00	0	41	102	1048576	9	3912
2026-01-23 11:19:16.80	106.54	25.46	-24.0	-24.7	18.6	0.00e+00	0	41	102	1048576	9	3876
2026-01-23 11:19:17.80	106.35	25.58	-24.2	-25.1	18.4	0.00e+00	0	41	102	1048576	9	3975
2026-01-23 11:19:18.81	106.16	25.71	-24.0	-24.6	18.6	0.00e+00	0	41	102	1048576	9	3864
2026-01-23 11:19:19.81	105.97	25.84	-23.7	-24.4	19.0	0.00e+00	0	41	102	1048576	8	3925
2026-01-23 11:19:20.82	105.77	25.97	-23.5	-24.1	19.2	0.00e+00	0	41	102	1048576	8	3846
2026-01-23 11:19:21.82	105.58	26.10	-23.5	-24.1	19.2	0.00e+00	0	41	102	1048576	8	3841
2026-01-23 11:19:22.83	105.38	26.22	-23.5	-24.1	19.2	0.00e+00	0	41	102	1048576	8	3840
2026-01-23 11:19:23.83	105.18	26.35	-23.6	-24.3	19.0	0.00e+00	0	41	102	1048576	8	3899
2026-01-23 11:19:24.84	104.98	26.48	-23.6	-24.2	19.1	0.00e+00	0	41	102	1048576	8	3876
2026-01-23 11:19:25.84	104.78	26.61	-23.6	-24.3	19.1	0.00e+00	0	41	102	1048576	8	3896
2026-01-23 11:19:26.85	104.57	26.74	-23.7	-24.6	18.9	0.00e+00	0	41	102	1048576	8	3958
2026-01-23 11:19:27.85	104.37	26.87	-23.7	-24.4	19.0	0.00e+00	0	41	102	1048576	8	3925
2026-01-23 11:19:28.85	104.16	27.00	-23.6	-24.4	19.0	2.20e-06	0	41	102	1048576	8	3905
2026-01-23 11:19:29.85	103.96	27.13	-23.7	-24.4	19.0	0.00e+00	0	41	102	1048576	8	3914
2026-01-23 11:19:30.86	103.74	27.26	-23.7	-24.4	19.0	0.00e+00	0	41	102	1048576	8	3922
2026-01-23 11:19:31.86	103.53	27.39	-23.8	-24.7	18.8	0.00e+00	0	41	102	1048576	8	3988
2026-01-23 11:19:32.87	103.32	27.52	-23.7	-24.4	19.0	0.00e+00	0	41	102	1048576	8	3920
2026-01-23 11:19:33.87	103.10	27.65	-23.5	-24.1	19.1	0.00e+00	0	41	102	1048576	8	3852
2026-01-23 11:19:34.87	102.89	27.78	-23.5	-24.1	19.1	0.00e+00	0	41	102	1048576	8	3856
2026-01-23 11:19:35.88	102.67	27.91	-23.6	-24.2	19.1	0.00e+00	0	41	102	1048576	8	3856
2026-01-23 11:19:36.88	102.45	28.04	-23.6	-24.2	19.2	0.00e+00	0	41	102	1048576	8	3857
2026-01-23 11:19:37.89	102.22	28.18	-23.7	-24.4	19.0	0.00e+00	0	41	102	1048576	8	3908
2026-01-23 11:19:38.90	102.00	28.31	-23.7	-24.5	19.0	0.00e+00	0	41	102	1048576	8	3928
2026-01-23 11:19:39.90	101.77	28.44	-23.8	-24.6	18.9	0.00e+00	0	41	102	1048576	8	3967
2026-01-23 11:19:40.91	101.54	28.57	-23.7	-24.5	19.0	0.00e+00	0	41	102	1048576	8	3947
2026-01-23 11:19:41.91	101.31	28.70	-23.6	-24.3	19.1	0.00e+00	0	41	102	1048576	8	3903
2026-01-23 11:19:42.92	101.08	28.83	-23.7	-24.6	19.0	0.00e+00	0	41	102	1048576	8	3950
2026-01-23 11:19:43.92	100.84	28.97	-23.5	-24.0	19.2	0.00e+00	0	41	102	1048576	8	3828
2026-01-23 11:19:44.92	100.61	29.10	-23.4	-23.9	19.3	0.00e+00	0	41	102	1048576	8	3789
2026-01-23 11:19:45.93	100.37	29.23	-23.6	-24.2	19.1	0.00e+00	0	41	102	1048576	8	3866
2026-01-23 11:19:46.93	100.13	29.36	-23.4	-23.8	19.3	0.00e+00	0	41	102	1048576	8	3774
2026-01-23 11:19:47.93	99.89	29.49	-23.3	-23.6	19.5	0.00e+00	0	41	102	1048576	8	3721
2026-01-23 11:19:48.94	99.64	29.63	-23.3	-23.7	19.4	0.00e+00	0	41	102	1048576	8	3754
2026-01-23 11:19:49.94	99.40	29.76	-23.4	-23.8	19.4	0.00e+00	0	41	102	1048576	8	3765
2026-01-23 11:19:50.95	99.15	29.89	-23.5	-24.1	19.2	0.00e+00	0	41	102	1048576	8	3847
2026-01-23 11:19:51.95	98.90	30.02	-23.4	-23.8	19.3	0.00e+00	0	41	102	1048576	8	3778
2026-01-23 11:19:52.96	98.65	30.16	-23.4	-23.8	19.4	0.00e+00	0	41	102	1048576	8	3766
2026-01-23 11:19:53.96	98.39	30.29	-23.3	-23.6	19.4	0.00e+00	0	41	102	1048576	8	3734
2026-01-23 11:19:54.97	98.13	30.42	-23.4	-23.8	19.3	0.00e+00	0	41	102	1048576	8	3778
2026-01-23 11:19:55.98	97.87	30.55	-23.2	-24.0	19.5	0.00e+00	0	41	102	1048576	7	3916
2026-01-23 11:19:56.99	97.61	30.69	-23.2	-23.9	19.5	0.00e+00	0	41	102	1048576	7	3894
2026-01-23 11:19:57.99	97.35	30.82	-23.2	-23.9	19.6	0.00e+00	0	41	102	1048576	7	3900
2026-01-23 11:19:59.00	97.08	30.95	-23.3	-24.1	19.4	0.00e+00	0	41	102	1048576	7	3952
2026-01-23 11:20:00.00	96.82	31.08	-23.3	-24.1	19.4	0.00e+00	0	41	102	1048576	7	3964
2026-01-23 11:20:01.00	96.55	31.21	-23.4	-24.3	19.3	0.00e+00	0	41	102	1048576	7	4002
2026-01-23 11:20:02.01	96.27	31.35	-23.3	-24.1	19.4	0.00e+00	0	41	102	1048576	7	3943
2026-01-23 11:20:03.01	96.00	31.48	-23.3	-24.1	19.4	0.00e+00	0	41	102	1048576	7	3956
2026-01-23 11:20:04.01	95.73	31.61	-23.2	-24.0	19.5	0.00e+00	0	41	102	1048576	7	3918
2026-01-23 11:20:05.02	95.45	31.74	-23.3	-24.1	19.5	0.00e+00	0	41	102	1048576	7	3946
2026-01-23 11:20:06.03	95.16	31.87	-23.2	-23.8	19.6	0.00e+00	0	41	102	1048576	7	3881
2026-01-23 11:20:07.02	94.89	32.00	-23.2	-23.9	19.5	0.00e+00	0	41	102	1048576	7	3908
2026-01-23 11:20:08.03	94.60	32.13	-23.2	-24.0	19.5	0.00e+00	0	41	102	1048576	7	3919
2026-01-23 11:20:09.02	94.31	32.26	-23.3	-24.2	19.4	0.00e+00	0	41	102	1048576	7	3969
2026-01-23 11:20:10.03	94.02	32.39	-23.1	-23.7	19.7	0.00e+00	0	41	102	1048576	7	3862
2026-01-23 11:20:11.03	93.73	32.52	-23.1	-23.7	19.7	0.00e+00	0	41	102	1048576	7	3843
2026-01-23 11:20:12.04	93.44	32.65	-23.3	-24.1	19.5	0.00e+00	0	41	102	1048576	7	3942
2026-01-23 11:20:13.05	93.14	32.78	-23.0	-23.6	19.7	0.00e+00	0	41	102	1048576	7	3824
2026-01-23 11:20:14.06	92.84	32.91	-22.9	-23.4	19.8	0.00e+00	0	41	102	1048576	7	3778
2026-01-23 11:20:15.06	92.54	33.04	-23.0	-23.4	19.8	0.00e+00	0	41	102	1048576	7	3788
2026-01-23 11:20:16.07	92.23	33.17	-22.9	-23.2	19.9	0.00e+00	0	41	102	1048576	7	3743
2026-01-23 11:20:17.07	91.92	33.29	-22.8	-23.2	19.9	0.00e+00	0	41	102	1048576	7	3731
2026-01-23 11:20:18.08	91.61	33.42	-22.9	-23.3	19.9	0.00e+00	0	41	102	1048576	7	3758
2026-01-23 11:20:19.08	91.30	33.55	-22.8	-23.5	20.0	0.00e+00	0	41	102	1048576	6	3902
2026-01-23 11:20:20.08	90.99	33.67	-22.9	-23.8	19.9	0.00e+00	0	41	102	1048576	6	3975
2026-01-23 11:20:21.08	90.68	33.80	-22.8	-23.6	20.0	0.00e+00	0	41	102	1048576	6	3938
2026-01-23 11:20:22.09	90.35	33.92	-22.8	-23.6	19.9	0.00e+00	0	41	102	1048576	6	3950
2026-01-23 11:20:23.09	90.03	34.05	-22.9	-23.7	19.9	0.00e+00	0	41	102	1048576	6	3971
2026-01-23 11:20:24.10	89.71	34.17	-22.9	-23.9	19.8	0.00e+00	0	41	102	1048576	6	4001
2026-01-23 11:20:25.10	89.38	34.30	-23.1	-24.2	19.7	0.00e+00	0	41	102	1048576	6	4093
2026-01-23 11:20:26.11	89.05	34.42	-22.9	-23.7	19.9	0.00e+00	0	41	102	1048576	6	3965
2026-01-23 11:20:27.12	88.72	34.54	-22.8	-23.6	20.0	0.00e+00	0	41	102	1048576	6	3935
2026-01-23 11:20:28.13	88.38	34.67	-22.9	-23.8	19.9	0.00e+00	0	41	102	1048576	6	3995
2026-01-23 11:20:29.13	88.05	34.79	-23.0	-24.0	19.8	0.00e+00	0	41	102	1048576	6	4028
2026-01-23 11:20:30.14	87.71	34.91	-23.1	-24.2	19.7	0.00e+00	0	41	102	1048576	6	4073
2026-01-23 11:20:31.15	87.37	35.03	-23.3	-24.6	19.5	0.00e+00	0	41	102	1048576	6	4181
2026-01-23 11:20:32.15	87.02	35.15	-23.3	-24.6	19.5	0.00e+00	0	41	102	1048576	6	4190
2026-01-23 11:20:33.15	86.68	35.27	-23.3	-24.6	19.5	0.00e+00	0	41	102	1048576	6	4182
2026-01-23 11:20:34.16	86.33	35.38	-23.1	-24.2	19.6	0.00e+00	0	41	102	1048576	6	4091
2026-01-23 11:20:35.17	85.97	35.50	-23.1	-24.2	19.7	0.00e+00	0	41	102	1048576	6	4076
2026-01-23 11:20:36.17	85.62	35.62	-23.0	-23.9	19.8	0.00e+00	0	41	102	1048576	6	4019
2026-01-23 11:20:37.17	85.27	35.73	-23.1	-24.1	19.7	0.00e+00	0	41	102	1048576	6	4062
2026-01-23 11:20:38.18	84.90	35.85	-22.8	-23.7	20.0	0.00e+00	0	41	102	1048576	6	3954
2026-01-23 11:20:39.19	84.54	35.96	-22.8	-23.6	20.0	0.00e+00	0	41	102	1048576	6	3937
2026-01-23 11:20:40.19	84.18	36.07	-22.8	-23.6	20.0	0.00e+00	0	41	102	1048576	6	3934
2026-01-23 11:20:41.19	83.81	36.19	-22.7	-23.3	20.1	0.00e+00	0	41	102	1048576	6	3864
2026-01-23 11:20:42.20	83.44	36.30	-22.8	-23.5	20.0	0.00e+00	0	41	102	1048576	6	3916
2026-01-23 11:20:43.20	83.07	36.41	-23.0	-23.9	19.9	0.00e+00	0	41	102	1048576	6	4003
2026-01-23 11:20:44.20	82.70	36.51	-23.0	-24.0	19.8	0.00e+00	0	41	102	1048576	6	4034
2026-01-23 11:20:45.21	82.32	36.62	-22.9	-23.8	19.9	0.00e+00	0	41	102	1048576	6	3974
2026-01-23 11:20:46.21	81.94	36.73	-22.9	-23.9	19.8	0.00e+00	0	41	102	1048576	6	3999
2026-01-23 11:20:47.21	81.56	36.83	-23.2	-24.3	19.6	0.00e+00	0	41	102	1048576	6	4110
2026-01-23 11:20:48.22	81.18	36.94	-22.9	-23.8	19.9	0.00e+00	0	41	102	1048576	6	3978
2026-01-23 11:20:49.22	80.79	37.04	-22.8	-23.5	20.0	0.00e+00	0	41	102	1048576	6	3917
2026-01-23 11:20:50.23	80.40	37.14	-23.0	-23.9	19.8	0.00e+00	0	41	102	1048576	6	4009
2026-01-23 11:20:51.24	80.01	37.25	-23.2	-24.4	19.6	0.00e+00	0	41	102	1048576	6	4130
2026-01-23 11:20:52.24	79.61	37.35	-23.3	-24.5	19.5	0.00e+00	0	41	102	1048576	6	4170
2026-01-23 11:20:53.24	79.22	37.44	-23.1	-24.3	19.7	0.00e+00	0	41	102	1048576	6	4097
2026-01-23 11:20:54.25	78.82	37.54	-23.1	-24.1	19.8	0.00e+00	0	41	102	1048576	6	4063
2026-01-23 11:20:55.26	78.42	37.64	-23.2	-24.3	19.7	0.00e+00	0	41	102	1048576	6	4112
2026-01-23 11:20:56.26	78.01	37.73	-22.9	-23.9	19.9	0.00e+00	0	41	102	1048576	6	3999
2026-01-23 11:20:57.27	77.61	37.82	-22.9	-23.7	20.0	0.00e+00	0	41	102	1048576	6	3956
2026-01-23 11:20:58.27	77.20	37.92	-22.8	-23.6	20.0	0.00e+00	0	41	102	1048576	6	3929
2026-01-23 11:20:59.27	76.79	38.01	-22.8	-23.5	20.0	0.00e+00	0	41	102	1048576	6	3925
2026-01-23 11:21:00.27	76.38	38.09	-22.8	-23.4	20.1	0.00e+00	0	41	102	1048576	6	3899
2026-01-23 11:21:01.27	75.97	38.18	-22.9	-23.7	20.0	0.00e+00	0	41	102	1048576	6	3962
2026-01-23 11:21:02.27	75.55	38.27	-22.9	-23.8	19.9	0.00e+00	0	41	102	1048576	6	3992
2026-01-23 11:21:03.27	75.13	38.35	-23.1	-24.2	19.7	0.00e+00	0	41	102	1048576	6	4070
2026-01-23 11:21:04.28	74.71	38.43	-23.1	-24.1	19.8	0.00e+00	0	41	102	1048576	6	4066
2026-01-23 11:21:05.29	74.28	38.52	-23.1	-24.1	19.7	0.00e+00	0	41	102	1048576	6	4065
2026-01-23 11:21:06.29	73.86	38.59	-22.8	-23.6	20.0	0.00e+00	0	41	102	1048576	6	3941
2026-01-23 11:21:07.29	73.43	38.67	-22.9	-23.7	20.0	0.00e+00	0	41	102	1048576	6	3957
2026-01-23 11:21:08.30	73.00	38.75	-23.0	-23.9	19.9	0.00e+00	0	41	102	1048576	6	4022
2026-01-23 11:21:09.29	72.58	38.82	-23.1	-24.1	19.8	1.10e-06	0	41	102	1048576	6	4061
2026-01-23 11:21:10.30	72.14	38.90	-23.0	-23.9	19.9	0.00e+00	0	41	102	1048576	6	4003
2026-01-23 11:21:11.30	71.71	38.97	-22.9	-23.8	19.9	0.00e+00	0	41	102	1048576	6	3987
2026-01-23 11:21:12.30	71.27	39.04	-23.1	-24.1	19.8	3.40e-06	0	41	102	1048576	6	4053
2026-01-23 11:21:13.31	70.83	39.10	-23.2	-24.3	19.7	0.00e+00	0	41	102	1048576	6	4105
2026-01-23 11:21:14.31	70.39	39.17	-23.3	-24.5	19.6	0.00e+00	0	41	102	1048576	6	4165
2026-01-23 11:21:15.31	69.95	39.23	-23.0	-24.0	19.8	0.00e+00	0	41	102	1048576	6	4039
2026-01-23 11:21:16.31	69.51	39.30	-22.9	-23.7	20.0	0.00e+00	0	41	102	1048576	6	3955
2026-01-23 11:21:17.32	69.06	39.36	-22.9	-23.7	20.0	0.00e+00	0	41	102	1048576	6	3962
2026-01-23 11:21:18.33	68.61	39.41	-22.9	-23.7	20.0	0.00e+00	0	41	102	1048576	6	3962
2026-01-23 11:21:19.33	68.16	39.47	-22.8	-23.6	20.0	0.00e+00	0	41	102	1048576	6	3944
2026-01-23 11:21:20.34	67.71	39.53	-22.8	-23.5	20.1	0.00e+00	0	41	102	1048576	6	3913
2026-01-23 11:21:21.35	67.25	39.58	-22.9	-23.8	20.0	3.40e-06	0	41	102	1048576	6	3986
2026-01-23 11:21:22.35	66.80	39.63	-23.3	-24.4	19.8	0.00e+00	0	41	102	1048576	6	4122
2026-01-23 11:21:23.36	66.34	39.68	-23.5	-24.9	19.6	0.00e+00	0	41	102	1048576	6	4235
2026-01-23 11:21:24.37	65.88	39.73	-23.7	-24.9	19.4	0.00e+00	0	41	102	1048576	7	4129
2026-01-23 11:21:25.37	65.43	39.77	-23.7	-24.9	19.4	0.00e+00	0	41	102	1048576	7	4111
2026-01-23 11:21:26.38	64.96	39.81	-23.5	-24.5	19.6	0.00e+00	0	41	102	1048576	7	4025
2026-01-23 11:21:27.38	64.51	39.85	-23.7	-24.9	19.4	0.00e+00	0	41	102	1048576	7	4112
2026-01-23 11:21:28.39	64.04	39.89	-23.5	-24.4	19.6	0.00e+00	0	41	102	1048576	7	4014
2026-01-23 11:21:29.39	63.58	39.93	-23.2	-23.7	19.9	0.00e+00	0	41	102	1048576	7	3847
2026-01-23 11:21:30.39	63.12	39.96	-23.0	-23.3	20.1	0.00e+00	0	41	102	1048576	7	3750
2026-01-23 11:21:31.39	62.66	40.00	-23.1	-23.6	20.0	0.00e+00	0	41	102	1048576	7	3800
2026-01-23 11:21:32.40	62.19	40.03	-23.4	-24.1	19.7	0.00e+00	0	41	102	1048576	7	3936
2026-01-23 11:21:33.40	61.72	40.05	-23.3	-24.1	19.8	0.00e+00	0	41	102	1048576	7	3920
2026-01-23 11:21:34.40	61.26	40.08	-23.2	-23.9	19.9	0.00e+00	0	41	102	1048576	7	3878
2026-01-23 11:21:35.41	60.79	40.10	-23.0	-23.4	20.1	0.00e+00	0	41	102	1048576	7	3761
2026-01-23 11:21:36.41	60.32	40.12	-23.0	-23.4	20.1	0.00e+00	0	41	102	1048576	7	3778
2026-01-23 11:21:37.42	59.85	40.14	-23.1	-23.7	20.0	0.00e+00	0	41	102	1048576	7	3839
2026-01-23 11:21:38.42	59.38	40.16	-23.0	-23.4	20.1	0.00e+00	0	41	102	1048576	7	3777
2026-01-23 11:21:39.43	58.91	40.18	-22.9	-23.3	20.2	0.00e+00	0	41	102	1048576	7	3740
2026-01-23 11:21:40.43	58.44	40.19	-23.1	-23.5	20.1	0.00e+00	0	41	102	1048576	7	3801
2026-01-23 11:21:41.44	57.97	40.20	-23.0	-23.5	20.1	0.00e+00	0	41	102	1048576	7	3781
2026-01-23 11:21:42.44	57.50	40.21	-22.7	-23.3	20.4	0.00e+00	0	41	102	1048576	6	3860
2026-01-23 11:21:43.45	57.03	40.22	-22.8	-23.4	20.4	0.00e+00	0	41	102	1048576	6	3869
2026-01-23 11:21:44.45	56.56	40.22	-23.0	-23.9	20.1	0.00e+00	0	41	102	1048576	6	3996
2026-01-23 11:21:45.45	56.09	40.22	-23.1	-24.0	20.1	0.00e+00	0	41	102	1048576	6	4025
2026-01-23 11:21:46.45	55.62	40.22	-23.0	-23.9	20.1	0.00e+00	0	41	102	1048576	6	3986
2026-01-23 11:21:47.46	55.14	40.22	-23.0	-23.9	20.1	0.00e+00	0	41	102	1048576	6	3998
2026-01-23 11:21:48.46	54.67	40.21	-23.1	-24.1	20.0	0.00e+00	0	41	102	1048576	6	4042
2026-01-23 11:21:49.46	54.21	40.21	-23.3	-24.5	19.8	0.00e+00	0	41	102	1048576	6	4138
2026-01-23 11:21:50.46	53.74	40.20	-23.4	-24.3	19.7	0.00e+00	0	41	102	1048576	7	3979
2026-01-23 11:21:51.47	53.26	40.19	-23.0	-23.5	20.1	0.00e+00	0	41	102	1048576	7	3781
2026-01-23 11:21:52.48	52.79	40.17	-22.8	-23.4	20.4	0.00e+00	0	41	102	1048576	6	3870
2026-01-23 11:21:53.48	52.32	40.16	-22.7	-23.2	20.5	0.00e+00	0	41	102	1048576	6	3832
2026-01-23 11:21:54.48	51.86	40.14	-22.8	-23.6	20.3	0.00e+00	0	41	102	1048576	6	3913
2026-01-23 11:21:55.49	51.38	40.12	-23.0	-23.8	20.2	0.00e+00	0	41	102	1048576	6	3978
2026-01-23 11:21:56.50	50.91	40.10	-23.0	-23.9	20.2	0.00e+00	0	41	102	1048576	6	3980
2026-01-23 11:21:57.50	50.45	40.07	-23.0	-23.8	20.1	0.00e+00	0	41	102	1048576	6	3975
2026-01-23 11:21:58.51	49.98	40.05	-22.8	-23.6	20.3	0.00e+00	0	41	102	1048576	6	3911
2026-01-23 11:21:59.51	49.51	40.02	-22.9	-23.7	20.2	0.00e+00	0	41	102	1048576	6	3939
2026-01-23 11:22:00.52	49.05	39.99	-22.8	-23.5	20.3	0.00e+00	0	41	102	1048576	6	3904
2026-01-23 11:22:01.52	48.59	39.95	-22.7	-23.3	20.4	0.00e+00	0	41	102	1048576	6	3837
2026-01-23 11:22:02.52	48.12	39.92	-22.9	-23.7	20.2	0.00e+00	0	41	102	1048576	6	3953
2026-01-23 11:22:03.52	47.66	39.88	-23.0	-23.9	20.1	0.00e+00	0	41	102	1048576	6	3982
2026-01-23 11:22:04.52	47.21	39.84	-22.8	-23.4	20.4	0.00e+00	0	41	102	1048576	6	3884
2026-01-23 11:22:05.53	46.74	39.80	-22.6	-23.1	20.5	0.00e+00	0	41	102	1048576	6	3796
2026-01-23 11:22:06.53	46.29	39.76	-22.6	-23.0	20.6	0.00e+00	0	41	102	1048576	6	3788
2026-01-23 11:22:07.54	45.83	39.71	-22.6	-23.1	20.5	0.00e+00	0	41	102	1048576	6	3801
2026-01-23 11:22:08.54	45.37	39.67	-22.8	-23.5	20.3	0.00e+00	0	41	102	1048576	6	3901
2026-01-23 11:22:09.55	44.92	39.62	-23.0	-23.9	20.1	0.00e+00	0	41	102	1048576	6	3999
2026-01-23 11:22:10.56	44.46	39.57	-23.1	-24.2	20.0	0.00e+00	0	41	102	1048576	6	4064
2026-01-23 11:22:11.56	44.01	39.51	-23.1	-24.0	20.0	0.00e+00	0	41	102	1048576	6	4024
2026-01-23 11:22:12.57	43.56	39.46	-22.8	-23.4	20.4	0.00e+00	0	41	102	1048576	6	3864
2026-01-23 11:22:13.58	43.11	39.40	-22.7	-23.3	20.4	0.00e+00	0	41	102	1048576	6	3838
2026-01-23 11:22:14.59	42.66	39.34	-22.7	-23.3	20.4	0.00e+00	0	41	102	1048576	6	3857
2026-01-23 11:22:15.59	42.21	39.28	-22.7	-23.4	20.4	0.00e+00	0	41	102	1048576	6	3868
2026-01-23 11:22:16.59	41.77	39.22	-22.6	-23.2	20.5	0.00e+00	0	41	102	1048576	6	3818
2026-01-23 11:22:17.59	41.33	39.16	-22.7	-23.2	20.4	0.00e+00	0	41	102	1048576	6	3825
2026-01-23 11:22:18.60	40.89	39.09	-23.1	-24.1	20.0	0.00e+00	0	41	102	1048576	6	4041
2026-01-23 11:22:19.60	40.45	39.02	-23.2	-24.4	19.8	0.00e+00	0	41	102	1048576	6	4115
2026-01-23 11:22:20.61	40.01	38.95	-22.9	-23.8	20.2	0.00e+00	0	41	102	1048576	6	3957
2026-01-23 11:22:21.61	39.58	38.88	-22.7	-23.3	20.4	0.00e+00	0	41	102	1048576	6	3858
2026-01-23 11:22:22.62	39.15	38.81	-22.7	-23.2	20.4	0.00e+00	0	41	102	1048576	6	3834
2026-01-23 11:22:23.62	38.72	38.73	-22.8	-23.4	20.3	0.00e+00	0	41	102	1048576	6	3878
2026-01-23 11:22:24.62	38.29	38.66	-22.9	-23.7	20.2	0.00e+00	0	41	102	1048576	6	3945
2026-01-23 11:22:25.62	37.87	38.58	-22.8	-23.4	20.3	0.00e+00	0	41	102	1048576	6	3885
2026-01-23 11:22:26.63	37.44	38.50	-22.6	-23.0	20.5	0.00e+00	0	41	102	1048576	6	3793
2026-01-23 11:22:27.64	37.01	38.42	-22.6	-23.0	20.6	0.00e+00	0	41	102	1048576	6	3774
2026-01-23 11:22:28.65	36.59	38.33	-22.7	-23.3	20.4	0.00e+00	0	41	102	1048576	6	3846
2026-01-23 11:22:29.65	36.18	38.25	-22.6	-23.1	20.5	0.00e+00	0	41	102	1048576	6	3802
2026-01-23 11:22:30.65	35.76	38.16	-22.7	-23.3	20.4	0.00e+00	0	41	102	1048576	6	3848
2026-01-23 11:22:31.66	35.35	38.07	-22.8	-23.5	20.3	0.00e+00	0	41	102	1048576	6	3885
2026-01-23 11:22:32.66	34.94	37.99	-22.7	-23.2	20.4	0.00e+00	0	41	102	1048576	6	3836
2026-01-23 11:22:33.66	34.53	37.90	-22.7	-23.2	20.4	0.00e+00	0	41	102	1048576	6	3822
2026-01-23 11:22:34.66	34.12	37.80	-22.6	-23.1	20.5	0.00e+00	0	41	102	1048576	6	3797
2026-01-23 11:22:35.66	33.72	37.71	-22.8	-23.4	20.3	0.00e+00	0	41	102	1048576	6	3868
2026-01-23 11:22:36.66	33.32	37.62	-22.9	-23.8	20.2	0.00e+00	0	41	102	1048576	6	3962
2026-01-23 11:22:37.66	32.92	37.52	-23.3	-24.4	19.8	0.00e+00	0	41	102	1048576	6	4122
2026-01-23 11:22:38.67	32.52	37.42	-23.1	-24.1	19.9	0.00e+00	0	41	102	1048576	6	4048
2026-01-23 11:22:39.67	32.13	37.33	-22.9	-23.6	20.2	0.00e+00	0	41	102	1048576	6	3923
2026-01-23 11:22:40.67	31.74	37.23	-22.7	-23.2	20.4	0.00e+00	0	41	102	1048576	6	3832
2026-01-23 11:22:41.68	31.35	37.13	-22.5	-22.9	20.5	0.00e+00	0	41	102	1048576	6	3764
2026-01-23 11:22:42.68	30.96	37.02	-22.5	-22.8	20.6	0.00e+00	0	41	102	1048576	6	3733
2026-01-23 11:22:43.68	30.58	36.92	-22.4	-22.6	20.7	0.00e+00	0	41	102	1048576	6	3704
2026-01-23 11:22:44.69	30.19	36.82	-22.4	-22.7	20.6	0.00e+00	0	41	102	1048576	6	3719
2026-01-23 11:22:45.69	29.81	36.71	-22.4	-22.8	20.6	0.00e+00	0	41	102	1048576	6	3729
2026-01-23 11:22:46.70	29.43	36.60	-22.4	-22.7	20.6	0.00e+00	0	41	102	1048576	6	3715
2026-01-23 11:22:47.70	29.06	36.50	-22.6	-23.1	20.4	0.00e+00	0	41	102	1048576	6	3807
2026-01-23 11:22:48.71	28.69	36.39	-22.7	-23.2	20.4	1.10e-06	0	41	102	1048576	6	3822
2026-01-23 11:22:49.71	28.32	36.28	-22.7	-23.3	20.4	0.00e+00	0	41	102	1048576	6	3858
2026-01-23 11:22:50.71	27.95	36.17	-22.8	-23.4	20.3	0.00e+00	0	41	102	1048576	6	3873
2026-01-23 11:22:51.72	27.58	36.06	-22.7	-23.3	20.4	0.00e+00	0	41	102	1048576	6	3846
2026-01-23 11:22:52.72	27.22	35.94	-22.8	-23.4	20.3	0.00e+00	0	41	102	1048576	6	3878
2026-01-23 11:22:53.73	26.86	35.83	-22.8	-23.4	20.3	0.00e+00	0	41	102	1048576	6	3886
2026-01-23 11:22:54.73	26.50	35.72	-22.7	-23.3	20.3	0.00e+00	0	41	102	1048576	6	3846
2026-01-23 11:22:55.73	26.15	35.60	-22.8	-23.4	20.3	0.00e+00	0	41	102	1048576	6	3872
2026-01-23 11:22:56.73	25.80	35.49	-22.7	-23.3	20.3	0.00e+00	0	41	102	1048576	6	3852
2026-01-23 11:22:57.73	25.45	35.37	-22.9	-23.7	20.2	0.00e+00	0	41	102	1048576	6	3946
2026-01-23 11:22:58.74	25.10	35.25	-22.8	-23.4	20.3	0.00e+00	0	41	102	1048576	6	3885
2026-01-23 11:22:59.74	24.76	35.13	-22.4	-22.7	20.6	0.00e+00	0	41	102	1048576	6	3722
2026-01-23 11:23:00.75	24.41	35.01	-22.2	-22.8	20.8	0.00e+00	0	41	102	1048576	5	3831
2026-01-23 11:23:01.75	24.07	34.89	-22.2	-22.8	20.8	0.00e+00	0	41	102	1048576	5	3845
2026-01-23 11:23:02.76	23.74	34.77	-22.5	-23.3	20.6	0.00e+00	0	41	102	1048576	5	3964
2026-01-23 11:23:03.76	23.40	34.65	-22.7	-23.8	20.3	0.00e+00	0	41	102	1048576	5	4075
2026-01-23 11:23:04.77	23.07	34.53	-22.6	-23.6	20.4	0.00e+00	0	41	102	1048576	5	4038
2026-01-23 11:23:05.77	22.74	34.41	-22.5	-23.3	20.6	0.00e+00	0	41	102	1048576	5	3968
2026-01-23 11:23:06.78	22.41	34.28	-22.6	-23.5	20.4	0.00e+00	0	41	102	1048576	5	4010
2026-01-23 11:23:07.79	22.08	34.16	-22.6	-23.6	20.4	0.00e+00	0	41	102	1048576	5	4024
2026-01-23 11:23:08.79	21.76	34.04	-22.6	-23.6	20.4	0.00e+00	0	41	102	1048576	5	4031
2026-01-23 11:23:09.80	21.44	33.91	-22.5	-23.4	20.5	0.00e+00	0	41	102	1048576	5	3988
2026-01-23 11:23:10.80	21.12	33.79	-22.7	-23.7	20.3	0.00e+00	0	41	102	1048576	5	4058
2026-01-23 11:23:11.82	20.81	33.66	-22.6	-23.5	20.4	0.00e+00	0	41	102	1048576	5	4012
2026-01-23 11:23:12.82	20.49	33.53	-22.6	-23.5	20.5	0.00e+00	0	41	102	1048576	5	4012
2026-01-23 11:23:13.82	20.19	33.41	-22.8	-23.9	20.3	0.00e+00	0	41	102	1048576	5	4106
2026-01-23 11:23:14.83	19.88	33.28	-22.7	-23.8	20.3	0.00e+00	0	41	102	1048576	5	4074
2026-01-23 11:23:15.84	19.57	33.15	-22.6	-23.5	20.4	0.00e+00	0	41	102	1048576	5	4015
2026-01-23 11:23:16.85	19.26	33.02	-22.7	-23.8	20.3	0.00e+00	0	41	102	1048576	5	4070
2026-01-23 11:23:17.85	18.97	32.90	-22.7	-23.7	20.3	0.00e+00	0	41	102	1048576	5	4050
2026-01-23 11:23:18.86	18.67	32.77	-22.7	-23.8	20.3	0.00e+00	0	41	102	1048576	5	4092
2026-01-23 11:23:19.86	18.37	32.64	-23.0	-24.3	20.0	0.00e+00	0	41	102	1048576	5	4204
2026-01-23 11:23:20.86	18.08	32.51	-22.9	-23.6	20.2	0.00e+00	0	41	102	1048576	6	3923
2026-01-23 11:23:21.87	17.79	32.38	-22.8	-23.5	20.2	0.00e+00	0	41	102	1048576	6	3903
2026-01-23 11:23:22.87	17.50	32.25	-22.9	-23.8	20.1	0.00e+00	0	41	102	1048576	6	3963
2026-01-23 11:23:23.87	17.21	32.12	-23.0	-23.8	20.0	0.00e+00	0	41	102	1048576	6	3982
2026-01-23 11:23:24.88	16.93	31.99	-22.9	-23.8	20.1	0.00e+00	0	41	102	1048576	6	3968
2026-01-23 11:23:25.87	16.65	31.86	-22.9	-23.6	20.1	0.00e+00	0	41	102	1048576	6	3928
2026-01-23 11:23:26.88	16.37	31.73	-23.0	-24.0	19.9	0.00e+00	0	41	102	1048576	6	4012
2026-01-23 11:23:27.88	16.09	31.60	-22.9	-23.7	20.1	0.00e+00	0	41	102	1048576	6	3933
2026-01-23 11:23:28.89	15.82	31.47	-22.8	-23.5	20.2	0.00e+00	0	41	102	1048576	6	3903
2026-01-23 11:23:29.89	15.55	31.34	-22.9	-23.7	20.1	0.00e+00	0	41	102	1048576	6	3952
2026-01-23 11:23:30.90	15.27	31.21	-23.0	-23.9	20.0	0.00e+00	0	41	102	1048576	6	3983
2026-01-23 11:23:31.89	15.01	31.08	-23.1	-24.1	19.9	0.00e+00	0	41	102	1048576	6	4051
2026-01-23 11:23:32.90	14.74	30.95	-23.0	-24.0	19.9	0.00e+00	0	41	102	1048576	6	4007
2026-01-23 11:23:33.91	14.48	30.81	-23.1	-24.1	19.9	0.00e+00	0	41	102	1048576	6	4027
2026-01-23 11:23:34.91	14.22	30.68	-23.2	-24.2	19.8	0.00e+00	0	41	102	1048576	6	4073
2026-01-23 11:23:35.92	13.96	30.55	-23.3	-24.4	19.7	0.00e+00	0	41	102	1048576	6	4123
2026-01-23 11:23:36.93	13.70	30.42	-23.4	-24.7	19.6	0.00e+00	0	41	102	1048576	6	4193
2026-01-23 11:23:37.93	13.44	30.29	-23.3	-24.6	19.6	0.00e+00	0	41	102	1048576	6	4173
2026-01-23 11:23:38.94	13.19	30.16	-23.3	-24.6	19.6	0.00e+00	0	41	102	1048576	6	4174
2026-01-23 11:23:39.94	12.94	30.02	-23.4	-24.8	19.5	0.00e+00	0	41	102	1048576	6	4216
2026-01-23 11:23:40.94	12.69	29.89	-23.3	-24.4	19.7	0.00e+00	0	41	102	1048576	6	4126
2026-01-23 11:23:41.94	12.45	29.76	-23.2	-24.3	19.7	0.00e+00	0	41	102	1048576	6	4092
2026-01-23 11:23:42.93	12.20	29.63	-23.3	-24.4	19.7	0.00e+00	0	41	102	1048576	6	4124
2026-01-23 11:23:43.94	11.96	29.50	-23.2	-24.3	19.7	0.00e+00	0	41	102	1048576	6	4099
2026-01-23 11:23:44.93	11.72	29.37	-23.2	-24.3	19.7	0.00e+00	0	41	102	1048576	6	4101
2026-01-23 11:23:45.93	11.48	29.24	-23.1	-24.1	19.9	0.00e+00	0	41	102	1048576	6	4041
2026-01-23 11:23:46.94	11.25	29.11	-23.1	-24.1	19.8	0.00e+00	0	41	102	1048576	6	4037
2026-01-23 11:23:47.95	11.01	28.97	-23.2	-24.4	19.7	0.00e+00	0	41	102	1048576	6	4117
2026-01-23 11:23:48.96	10.78	28.84	-23.1	-24.1	19.8	0.00e+00	0	41	102	1048576	6	4040
2026-01-23 11:23:49.96	10.55	28.71	-23.0	-23.9	19.9	0.00e+00	0	41	102	1048576	6	4002
2026-01-23 11:23:50.97	10.31	28.58	-23.1	-24.0	19.8	0.00e+00	0	41	102	1048576	6	4024
2026-01-23 11:23:51.98	10.09	28.45	-23.0	-23.9	19.9	0.00e+00	0	41	102	1048576	6	4004
2026-01-23 11:23:52.98	9.86	28.32	-23.1	-24.2	19.8	0.00e+00	0	41	102	1048576	6	4055
2026-01-23 11:23:53.99	9.64	28.18	-23.2	-24.2	19.8	0.00e+00	0	41	102	1048576	6	4071
2026-01-23 11:23:54.99	9.42	28.05	-23.3	-24.5	19.6	0.00e+00	0	41	102	1048576	6	4151
2026-01-23 11:23:56.00	9.19	27.92	-23.3	-24.6	19.5	0.00e+00	0	41	102	1048576	6	4179
2026-01-23 11:23:57.00	8.98	27.79	-23.4	-24.8	19.5	0.00e+00	0	41	102	1048576	6	4210
2026-01-23 11:23:58.01	8.76	27.66	-23.5	-24.5	19.3	0.00e+00	0	41	102	1048576	7	4030
2026-01-23 11:23:59.01	8.55	27.53	-23.5	-24.6	19.3	0.00e+00	0	41	102	1048576	7	4041
2026-01-23 11:24:00.02	8.33	27.40	-23.7	-24.9	19.2	0.00e+00	0	41	102	1048576	7	4122
2026-01-23 11:24:01.02	8.12	27.27	-23.5	-24.5	19.3	0.00e+00	0	41	102	1048576	7	4017
2026-01-23 11:24:02.03	7.91	27.14	-23.5	-24.5	19.4	0.00e+00	0	41	102	1048576	7	4017
2026-01-23 11:24:03.03	7.71	27.01	-23.6	-24.6	19.3	0.00e+00	0	41	102	1048576	7	4062
2026-01-23 11:24:04.04	7.50	26.88	-23.5	-24.5	19.3	0.00e+00	0	41	102	1048576	7	4039
2026-01-23 11:24:05.05	7.29	26.75	-23.6	-24.7	19.2	0.00e+00	0	41	102	1048576	7	4086
2026-01-23 11:24:06.06	7.09	26.62	-23.4	-24.3	19.4	0.00e+00	0	41	102	1048576	7	3980
2026-01-23 11:24:07.07	6.89	26.49	-23.4	-24.2	19.5	0.00e+00	0	41	102	1048576	7	3962
2026-01-23 11:24:08.07	6.69	26.37	-23.6	-24.6	19.3	0.00e+00	0	41	102	1048576	7	4044
2026-01-23 11:24:09.07	6.49	26.24	-23.5	-24.5	19.3	0.00e+00	0	41	102	1048576	7	4038
2026-01-23 11:24:10.08	6.30	26.11	-23.6	-24.7	19.2	0.00e+00	0	41	102	1048576	7	4086
2026-01-23 11:24:11.08	6.10	25.98	-23.6	-24.6	19.2	0.00e+00	0	41	102	1048576	7	4067
2026-01-23 11:24:12.08	5.91	25.86	-23.7	-24.9	19.1	0.00e+00	0	41	102	1048576	7	4119
2026-01-23 11:24:13.08	5.72	25.73	-23.4	-24.3	19.4	0.00e+00	0	41	102	1048576	7	3981
2026-01-23 11:24:14.09	5.53	25.60	-23.3	-24.1	19.5	0.00e+00	0	41	102	1048576	7	3928
2026-01-23 11:24:15.10	5.34	25.48	-23.4	-24.2	19.5	0.00e+00	0	41	102	1048576	7	3942
2026-01-23 11:24:16.11	5.15	25.35	-23.4	-24.3	19.5	0.00e+00	0	41	102	1048576	7	3968
2026-01-23 11:24:17.11	4.97	25.22	-23.6	-24.7	19.2	0.00e+00	0	41	102	1048576	7	4065
2026-01-23 11:24:18.12	4.78	25.10	-23.7	-24.8	19.1	0.00e+00	0	41	102	1048576	7	4115
2026-01-23 11:24:19.12	4.60	24.97	-23.6	-24.7	19.2	0.00e+00	0	41	102	1048576	7	4089
2026-01-23 11:24:20.13	4.42	24.84	-23.7	-24.8	19.1	0.00e+00	0	41	102	1048576	7	4109
2026-01-23 11:24:21.14	4.24	24.72	-23.8	-25.0	19.0	0.00e+00	0	41	102	1048576	7	4147
2026-01-23 11:24:22.15	4.06	24.59	-23.6	-24.6	19.2	0.00e+00	0	41	102	1048576	7	4048
2026-01-23 11:24:23.16	3.89	24.47	-23.6	-24.6	19.2	0.00e+00	0	41	102	1048576	7	4044
2026-01-23 11:24:24.16	3.71	24.35	-23.7	-24.8	19.1	0.00e+00	0	41	102	1048576	7	4095
2026-01-23 11:24:25.16	3.54	24.22	-23.6	-24.7	19.2	0.00e+00	0	41	102	1048576	7	4076
2026-01-23 11:24:26.17	3.37	24.10	-23.8	-25.1	19.0	0.00e+00	0	41	102	1048576	7	4179
2026-01-23 11:24:27.18	3.20	23.97	-23.6	-24.7	19.2	0.00e+00	0	41	102	1048576	7	4072
2026-01-23 11:24:28.18	3.03	23.85	-23.5	-24.4	19.3	0.00e+00	0	41	102	1048576	7	3997
2026-01-23 11:24:29.17	2.86	23.73	-23.4	-24.4	19.3	0.00e+00	0	41	102	1048576	7	3996
2026-01-23 11:24:30.18	2.69	23.61	-23.5	-24.5	19.2	0.00e+00	0	41	102	1048576	7	4022
2026-01-23 11:24:31.18	2.53	23.49	-23.4	-24.3	19.3	0.00e+00	0	41	102	1048576	7	3980
2026-01-23 11:24:32.18	2.37	23.36	-23.5	-24.5	19.3	0.00e+00	0	41	102	1048576	7	4024
2026-01-23 11:24:33.19	2.20	23.24	-23.7	-24.8	19.1	0.00e+00	0	41	102	1048576	7	4106
2026-01-23 11:24:34.19	2.04	23.12	-23.8	-25.0	19.0	0.00e+00	0	41	102	1048576	7	4158
2026-01-23 11:24:35.19	1.88	23.00	-23.8	-25.1	19.0	0.00e+00	0	41	102	1048576	7	4165
2026-01-23 11:24:36.19	1.72	22.88	-23.9	-25.3	18.8	0.00e+00	0	41	102	1048576	7	4220
2026-01-23 11:24:37.19	1.57	22.76	-23.8	-25.1	18.9	0.00e+00	0	41	102	1048576	7	4185
2026-01-23 11:24:38.19	1.41	22.64	-24.0	-25.4	18.8	0.00e+00	0	41	102	1048576	7	4258
2026-01-23 11:24:39.19	1.26	22.52	-24.1	-25.2	18.6	0.00e+00	0	41	102	1048576	8	4100
2026-01-23 11:24:40.19	1.10	22.41	-24.3	-25.6	18.4	0.00e+00	0	41	102	1048576	8	4183
2026-01-23 11:24:41.20	0.95	22.29	-24.1	-25.1	18.7	0.00e+00	0	41	102	1048576	8	4066
2026-01-23 11:24:42.20	0.80	22.17	-23.9	-24.9	18.8	0.00e+00	0	41	102	1048576	8	4011
2026-01-23 11:24:43.20	0.65	22.05	-23.9	-24.7	18.9	0.00e+00	0	41	102	1048576	8	3968
2026-01-23 11:24:44.20	0.50	21.93	-24.0	-24.9	18.8	0.00e+00	0	41	102	1048576	8	4014
2026-01-23 11:24:45.21	0.35	21.82	-24.0	-24.9	18.8	0.00e+00	0	41	102	1048576	8	4011
2026-01-23 11:24:46.22	0.20	21.70	-24.1	-25.3	18.6	0.00e+00	0	41	102	1048576	8	4110
2026-01-23 11:24:47.22	0.06	21.58	-24.0	-24.9	18.8	0.00e+00	0	41	102	1048576	8	4026
2026-01-23 11:24:48.22	359.91	21.47	-23.9	-24.9	18.8	0.00e+00	0	41	102	1048576	8	4009
2026-01-23 11:24:49.22	359.77	21.35	-24.1	-25.2	18.6	0.00e+00	0	41	102	1048576	8	4088
2026-01-23 11:24:50.23	359.63	21.23	-24.0	-25.1	18.7	0.00e+00	0	41	102	1048576	8	4068
2026-01-23 11:24:51.23	359.49	21.12	-24.2	-25.3	18.5	0.00e+00	0	41	102	1048576	8	4125
2026-01-23 11:24:52.23	359.35	21.00	-24.2	-25.5	18.5	0.00e+00	0	41	102	1048576	8	4156
2026-01-23 11:24:53.23	359.21	20.89	-24.2	-25.5	18.4	0.00e+00	0	41	102	1048576	8	4173
2026-01-23 11:24:54.24	359.07	20.78	-24.3	-25.7	18.4	0.00e+00	0	41	102	1048576	8	4215
2026-01-23 11:24:55.25	358.93	20.66	-24.3	-25.7	18.3	0.00e+00	0	41	102	1048576	8	4216
2026-01-23 11:24:56.25	358.80	20.55	-24.4	-25.8	18.3	0.00e+00	0	41	102	1048576	8	4239
2026-01-23 11:24:57.26	358.66	20.43	-24.4	-25.8	18.3	0.00e+00	0	41	102	1048576	8	4250
2026-01-23 11:24:58.27	358.53	20.32	-24.4	-25.9	18.2	0.00e+00	0	41	102	1048576	8	4282
2026-01-23 11:24:59.27	358.39	20.21	-24.3	-25.6	18.4	0.00e+00	0	41	102	1048576	8	4193
2026-01-23 11:25:00.28	358.26	20.10	-24.3	-25.6	18.4	0.00e+00	0	41	102	1048576	8	4187
2026-01-23 11:25:01.28	358.13	19.98	-24.3	-25.6	18.3	0.00e+00	0	41	102	1048576	8	4202
2026-01-23 11:25:02.28	358.00	19.87	-24.2	-25.4	18.5	0.00e+00	0	41	102	1048576	8	4131
2026-01-23 11:25:03.29	357.87	19.76	-24.2	-25.4	18.4	0.00e+00	0	41	102	1048576	8	4144
2026-01-23 11:25:04.30	357.74	19.65	-24.3	-25.6	18.4	0.00e+00	0	41	102	1048576	8	4185
2026-01-23 11:25:05.30	357.62	19.54	-24.3	-25.5	18.4	0.00e+00	0	41	102	1048576	8	4177
2026-01-23 11:25:06.31	357.49	19.43	-24.4	-25.9	18.2	0.00e+00	0	41	102	1048576	8	4274
2026-01-23 11:25:07.31	357.36	19.32	-24.4	-26.0	18.2	0.00e+00	0	41	102	1048576	8	4286
2026-01-23 11:25:08.32	357.24	19.21	-24.7	-26.0	17.9	0.00e+00	0	41	102	1048576	9	4185
2026-01-23 11:25:09.32	357.12	19.10	-25.0	-26.0	17.6	0.00e+00	0	41	102	1048576	10	4082
2026-01-23 11:25:10.33	356.99	18.99	-24.8	-25.8	17.8	0.00e+00	0	41	102	1048576	10	4013
2026-01-23 11:25:11.33	356.87	18.88	-24.7	-25.6	17.8	0.00e+00	0	41	102	1048576	10	3978
2026-01-23 11:25:12.34	356.75	18.77	-24.8	-25.7	17.8	0.00e+00	0	41	102	1048576	10	3989
2026-01-23 11:25:13.35	356.63	18.66	-24.8	-25.7	17.8	0.00e+00	0	41	102	1048576	10	4007
2026-01-23 11:25:14.36	356.51	18.56	-24.8	-25.7	17.7	0.00e+00	0	41	102	1048576	10	4002
2026-01-23 11:25:15.35	356.39	18.45	-24.9	-26.0	17.6	0.00e+00	0	41	102	1048576	10	4079
2026-01-23 11:25:16.36	356.27	18.34	-25.0	-26.1	17.5	0.00e+00	0	41	102	1048576	10	4102
2026-01-23 11:25:17.36	356.16	18.24	-24.9	-25.8	17.7	0.00e+00	0	41	102	1048576	10	4024
2026-01-23 11:25:18.36	356.04	18.13	-24.8	-25.7	17.7	0.00e+00	0	41	102	1048576	10	3997
2026-01-23 11:25:19.36	355.93	18.03	-24.9	-25.9	17.6	0.00e+00	0	41	102	1048576	10	4043
2026-01-23 11:25:20.37	355.81	17.92	-24.9	-25.9	17.6	0.00e+00	0	42	102	1048576	10	4039
2026-01-23 11:25:21.37	355.70	17.82	-24.9	-26.0	17.6	0.00e+00	0	41	102	1048576	10	4057
2026-01-23 11:25:22.37	355.59	17.71	-24.9	-26.0	17.6	0.00e+00	0	41	102	1048576	10	4064
2026-01-23 11:25:23.37	355.48	17.61	-25.0	-26.1	17.5	0.00e+00	0	41	102	1048576	10	4100
2026-01-23 11:25:24.38	355.37	17.50	-25.0	-26.1	17.5	0.00e+00	0	41	102	1048576	10	4101
2026-01-23 11:25:25.37	355.26	17.40	-25.1	-26.4	17.4	0.00e+00	0	41	102	1048576	10	4165
2026-01-23 11:25:26.38	355.15	17.30	-25.3	-26.7	17.2	0.00e+00	0	41	102	1048576	10	4247
2026-01-23 11:25:27.38	355.04	17.19	-25.2	-26.6	17.3	0.00e+00	0	41	102	1048576	10	4216
2026-01-23 11:25:28.38	354.93	17.09	-25.3	-26.8	17.2	0.00e+00	0	41	102	1048576	10	4268
2026-01-23 11:25:29.39	354.83	16.99	-25.3	-26.7	17.2	0.00e+00	0	41	102	1048576	10	4250
2026-01-23 11:25:30.40	354.72	16.88	-25.4	-27.0	17.0	0.00e+00	0	41	102	1048576	10	4334
2026-01-23 11:25:31.41	354.61	16.78	-25.7	-27.1	16.7	0.00e+00	0	42	102	1048576	11	4234
2026-01-23 11:25:32.41	354.51	16.68	-25.7	-27.3	16.6	0.00e+00	0	41	102	1048576	11	4287
2026-01-23 11:25:33.41	354.41	16.58	-25.5	-26.8	16.8	0.00e+00	0	41	102	1048576	11	4167
2026-01-23 11:25:34.42	354.30	16.48	-25.5	-26.7	16.9	0.00e+00	0	41	102	1048576	11	4130
2026-01-23 11:25:35.43	354.20	16.38	-25.5	-26.7	16.9	0.00e+00	0	41	102	1048576	11	4128
2026-01-23 11:25:36.43	354.10	16.28	-25.5	-26.7	16.9	0.00e+00	0	41	102	1048576	11	4130
2026-01-23 11:25:37.44	354.00	16.18	-25.4	-26.6	16.9	0.00e+00	0	41	102	1048576	11	4112
2026-01-23 11:25:38.44	353.90	16.08	-25.6	-26.9	16.8	0.00e+00	0	41	102	1048576	11	4196
2026-01-23 11:25:39.44	353.80	15.98	-25.8	-27.4	16.5	0.00e+00	0	41	102	1048576	11	4311
2026-01-23 11:25:40.45	353.70	15.88	-25.9	-27.5	16.4	0.00e+00	0	41	102	1048576	11	4351
2026-01-23 11:25:41.46	353.60	15.78	-25.6	-26.9	16.7	0.00e+00	0	41	102	1048576	11	4189
2026-01-23 11:25:42.45	353.50	15.68	-25.4	-26.6	16.9	0.00e+00	0	41	102	1048576	11	4104
2026-01-23 11:25:43.45	353.40	15.59	-25.4	-26.4	17.0	0.00e+00	0	41	102	1048576	11	4077
2026-01-23 11:25:44.46	353.31	15.49	-25.5	-26.6	16.9	0.00e+00	0	41	102	1048576	11	4123
2026-01-23 11:25:45.47	353.21	15.39	-25.6	-26.9	16.7	0.00e+00	0	41	102	1048576	11	4190
2026-01-23 11:25:46.48	353.12	15.29	-25.6	-27.0	16.7	0.00e+00	0	41	102	1048576	11	4218
2026-01-23 11:25:47.48	353.02	15.19	-25.5	-26.7	16.8	0.00e+00	0	41	102	1048576	11	4136
2026-01-23 11:25:48.49	352.93	15.10	-25.5	-26.7	16.9	0.00e+00	0	41	102	1048576	11	4144
2026-01-23 11:25:49.50	352.83	15.00	-25.5	-26.7	16.8	0.00e+00	0	41	102	1048576	11	4143
2026-01-23 11:25:50.50	352.74	14.91	-25.6	-26.9	16.7	0.00e+00	0	42	102	1048576	11	4190
2026-01-23 11:25:51.51	352.65	14.81	-25.5	-26.7	16.8	0.00e+00	0	41	102	1048576	11	4128
2026-01-23 11:25:52.51	352.56	14.71	-25.6	-26.9	16.7	0.00e+00	0	41	102	1048576	11	4182
2026-01-23 11:25:53.51	352.47	14.62	-25.6	-27.0	16.6	0.00e+00	0	41	102	1048576	11	4213
2026-01-23 11:25:54.52	352.38	14.52	-25.7	-27.1	16.5	0.00e+00	0	42	102	1048576	11	4249
2026-01-23 11:25:55.53	352.29	14.43	-25.7	-27.2	16.5	0.00e+00	0	41	102	1048576	11	4273
2026-01-23 11:25:56.53	352.20	14.34	-25.8	-27.4	16.4	0.00e+00	0	42	102	1048576	11	4327
2026-01-23 11:25:57.54	352.11	14.24	-25.9	-27.5	16.3	0.00e+00	0	41	102	1048576	11	4361
2026-01-23 11:25:58.55	352.02	14.15	-25.9	-27.6	16.3	0.00e+00	0	41	102	1048576	11	4380
2026-01-23 11:25:59.55	351.93	14.05	-25.9	-27.2	16.1	0.00e+00	0	41	102	1048576	12	4180
2026-01-23 11:26:00.55	351.85	13.96	-26.2	-27.7	15.9	0.00e+00	0	41	102	1048576	12	4298
2026-01-23 11:26:01.56	351.76	13.87	-26.2	-27.7	15.9	0.00e+00	0	41	102	1048576	12	4298
2026-01-23 11:26:02.56	351.68	13.78	-26.0	-27.3	16.1	1.10e-06	0	41	102	1048576	12	4183
2026-01-23 11:26:03.57	351.59	13.68	-25.8	-26.9	16.2	0.00e+00	0	41	102	1048576	12	4099
2026-01-23 11:26:04.58	351.51	13.59	-25.9	-27.0	16.2	0.00e+00	0	41	102	1048576	12	4128
2026-01-23 11:26:05.58	351.42	13.50	-25.9	-27.1	16.2	0.00e+00	0	41	102	1048576	12	4132
2026-01-23 11:26:06.59	351.34	13.41	-25.9	-27.1	16.2	0.00e+00	0	42	102	1048576	12	4134
2026-01-23 11:26:07.59	351.26	13.32	-26.0	-27.3	16.1	0.00e+00	0	42	102	1048576	12	4178
2026-01-23 11:26:08.59	351.17	13.23	-25.9	-27.1	16.1	0.00e+00	0	42	102	1048576	12	4149
2026-01-23 11:26:09.59	351.09	13.14	-25.9	-27.1	16.2	0.00e+00	0	42	102	1048576	12	4133
2026-01-23 11:26:10.59	351.01	13.05	-25.9	-27.1	16.1	0.00e+00	0	41	102	1048576	12	4146
2026-01-23 11:26:11.60	350.93	12.96	-26.0	-27.4	16.0	0.00e+00	0	42	102	1048576	12	4220
2026-01-23 11:26:12.59	350.85	12.87	-25.9	-27.2	16.0	0.00e+00	0	41	102	1048576	12	4172
2026-01-23 11:26:13.60	350.77	12.78	-25.9	-27.1	16.1	0.00e+00	0	41	102	1048576	12	4149
2026-01-23 11:26:14.60	350.69	12.69	-25.8	-27.0	16.2	0.00e+00	0	41	102	1048576	12	4119
2026-01-23 11:26:15.61	350.61	12.60	-25.9	-27.1	16.1	0.00e+00	0	41	102	1048576	12	4148
2026-01-23 11:26:16.61	350.54	12.51	-25.9	-27.2	16.0	0.00e+00	0	41	102	1048576	12	4167
2026-01-23 11:26:17.62	350.46	12.42	-26.0	-27.3	16.0	0.00e+00	0	41	102	1048576	12	4192
2026-01-23 11:26:18.62	350.38	12.34	-26.1	-27.5	15.9	0.00e+00	0	41	102	1048576	12	4245
2026-01-23 11:26:19.62	350.30	12.25	-26.0	-27.3	16.0	0.00e+00	0	41	102	1048576	12	4191
2026-01-23 11:26:20.63	350.23	12.16	-26.0	-27.3	16.0	0.00e+00	0	41	102	1048576	12	4206
2026-01-23 11:26:21.64	350.15	12.07	-26.0	-27.4	15.9	0.00e+00	0	41	102	1048576	12	4223
2026-01-23 11:26:22.64	350.08	11.99	-26.0	-27.5	15.9	0.00e+00	0	41	102	1048576	12	4247
2026-01-23 11:26:23.64	350.00	11.90	-26.0	-27.4	15.9	0.00e+00	0	41	102	1048576	12	4220
2026-01-23 11:26:24.64	349.93	11.81	-26.2	-27.8	15.7	1.10e-06	0	41	102	1048576	12	4326
2026-01-23 11:26:25.64	349.85	11.73	-26.1	-27.6	15.8	0.00e+00	0	41	102	1048576	12	4278
2026-01-23 11:26:26.65	349.78	11.64	-26.1	-27.6	15.8	0.00e+00	0	41	102	1048576	12	4286
2026-01-23 11:26:27.65	349.71	11.56	-26.1	-27.7	15.7	0.00e+00	0	41	102	1048576	12	4305
2026-01-23 11:26:28.66	349.63	11.47	-26.1	-27.6	15.8	0.00e+00	0	41	102	1048576	12	4276
2026-01-23 11:26:29.66	349.56	11.39	-26.2	-27.8	15.7	0.00e+00	0	41	102	1048576	12	4324
2026-01-23 11:26:30.67	349.49	11.30	-26.4	-28.2	15.5	0.00e+00	0	41	102	1048576	12	4441
2026-01-23 11:26:31.68	349.42	11.21	-26.3	-28.1	15.5	0.00e+00	0	41	102	1048576	12	4411
2026-01-23 11:26:32.68	349.35	11.13	-26.3	-28.0	15.6	0.00e+00	0	41	102	1048576	12	4380
2026-01-23 11:26:33.69	349.28	11.05	-26.3	-28.1	15.5	0.00e+00	0	41	102	1048576	12	4419
2026-01-23 11:26:34.69	349.21	10.96	-26.4	-28.2	15.4	0.00e+00	0	41	102	1048576	12	4451
2026-01-23 11:26:35.69	349.14	10.88	-26.4	-28.3	15.3	0.00e+00	0	41	102	1048576	12	4472
2026-01-23 11:26:36.70	349.07	10.80	-26.4	-28.3	15.3	0.00e+00	0	41	102	1048576	12	4472
2026-01-23 11:26:37.70	349.00	10.71	-26.4	-28.3	15.3	0.00e+00	0	42	102	1048576	12	4486
2026-01-23 11:26:38.70	348.93	10.63	-26.7	-28.5	14.9	0.00e+00	0	41	102	1048576	13	4419
2026-01-23 11:26:39.71	348.87	10.55	-26.7	-28.4	15.0	0.00e+00	0	41	102	1048576	13	4387
2026-01-23 11:26:40.72	348.80	10.46	-26.5	-27.9	15.2	0.00e+00	0	41	102	1048576	13	4267
2026-01-23 11:26:41.72	348.73	10.38	-26.4	-27.7	15.4	1.10e-06	0	42	102	1048576	13	4209
2026-01-23 11:26:42.72	348.66	10.30	-26.4	-27.9	15.3	0.00e+00	0	41	102	1048576	13	4247
2026-01-23 11:26:43.72	348.60	10.22	-26.4	-27.9	15.3	0.00e+00	0	42	102	1048576	13	4249
2026-01-23 11:26:44.72	348.53	10.14	-26.5	-27.9	15.2	0.00e+00	0	41	102	1048576	13	4266
2026-01-23 11:26:45.72	348.47	10.06	-26.5	-28.0	15.2	0.00e+00	0	42	102	1048576	13	4279
2026-01-23 11:26:46.72	348.40	9.98	-26.5	-28.1	15.1	1.10e-06	0	42	102	1048576	13	4298
2026-01-23 11:26:47.73	348.34	9.89	-26.6	-28.1	15.1	0.00e+00	0	42	102	1048576	13	4316
2026-01-23 11:26:48.73	348.27	9.81	-26.5	-28.1	15.1	1.10e-06	0	42	102	1048576	13	4295
2026-01-23 11:26:49.73	348.21	9.73	-26.7	-28.5	14.9	0.00e+00	0	41	102	1048576	13	4409
2026-01-23 11:26:50.73	348.15	9.65	-26.7	-28.5	14.9	0.00e+00	0	42	102	1048576	13	4409
2026-01-23 11:26:51.73	348.08	9.57	-26.6	-28.2	15.0	0.00e+00	0	41	102	1048576	13	4331
2026-01-23 11:26:52.74	348.02	9.49	-26.9	-28.9	14.6	0.00e+00	0	42	102	1048576	13	4537
2026-01-23 11:26:53.75	347.96	9.41	-26.9	-28.5	14.6	2.20e-06	0	41	102	1048576	14	4300
2026-01-23 11:26:54.76	347.89	9.33	-26.7	-27.9	14.9	0.00e+00	0	42	102	1048576	14	4147
2026-01-23 11:26:55.76	347.83	9.26	-26.6	-27.7	15.0	0.00e+00	0	41	102	1048576	14	4091
2026-01-23 11:26:56.77	347.77	9.18	-26.5	-27.6	15.1	0.00e+00	0	41	102	1048576	14	4065
2026-01-23 11:26:57.78	347.71	9.10	-26.6	-27.8	15.0	0.00e+00	0	41	102	1048576	14	4108
2026-01-23 11:26:58.78	347.65	9.02	-26.7	-28.0	14.8	0.00e+00	0	42	102	1048576	14	4172
2026-01-23 11:26:59.79	347.59	8.94	-26.7	-27.9	14.9	1.10e-06	0	41	102	1048576	14	4148
2026-01-23 11:27:00.79	347.53	8.86	-26.8	-28.2	14.7	2.20e-06	0	41	102	1048576	14	4221
2026-01-23 11:27:01.79	347.47	8.78	-26.9	-28.4	14.6	1.10e-06	0	42	102	1048576	14	4265
2026-01-23 11:27:02.80	347.41	8.71	-26.9	-28.4	14.6	1.10e-06	0	41	102	1048576	14	4293
2026-01-23 11:27:03.80	347.35	8.63	-26.8	-28.2	14.7	0.00e+00	0	41	102	1048576	14	4233
2026-01-23 11:27:04.81	347.29	8.55	-26.8	-28.1	14.8	0.00e+00	0	41	102	1048576	14	4207
2026-01-23 11:27:05.81	347.23	8.47	-26.7	-28.0	14.8	0.00e+00	0	41	102	1048576	14	4172
2026-01-23 11:27:06.81	347.18	8.40	-26.8	-28.3	14.6	0.00e+00	0	41	102	1048576	14	4242
2026-01-23 11:27:07.81	347.12	8.32	-26.8	-28.2	14.7	0.00e+00	0	41	102	1048576	14	4224
2026-01-23 11:27:08.81	347.06	8.25	-26.9	-28.4	14.5	2.20e-06	0	41	102	1048576	14	4280
2026-01-23 11:27:09.82	347.00	8.17	-27.0	-28.6	14.4	1.10e-06	0	42	102	1048576	14	4343
2026-01-23 11:27:10.83	346.95	8.09	-26.9	-28.5	14.5	1.10e-06	0	42	102	1048576	14	4308
2026-01-23 11:27:11.83	346.89	8.02	-26.9	-28.4	14.5	1.10e-06	0	42	102	1048576	14	4297
2026-01-23 11:27:12.83	346.83	7.94	-27.1	-28.9	14.2	2.20e-06	0	42	102	1048576	14	4418
2026-01-23 11:27:13.84	346.78	7.87	-27.0	-28.6	14.4	0.00e+00	0	41	102	1048576	14	4327
2026-01-23 11:27:14.84	346.72	7.79	-26.8	-28.2	14.6	2.20e-06	0	42	102	1048576	14	4234
2026-01-23 11:27:15.85	346.67	7.72	-27.0	-28.6	14.4	1.10e-06	0	42	102	1048576	14	4352
2026-01-23 11:27:16.85	346.61	7.64	-27.0	-28.6	14.4	0.00e+00	0	41	102	1048576	14	4347
2026-01-23 11:27:17.85	346.56	7.57	-26.9	-28.4	14.5	1.10e-06	0	42	102	1048576	14	4277
2026-01-23 11:27:18.85	346.50	7.49	-27.0	-28.6	14.3	2.20e-06	0	41	102	1048576	14	4348
2026-01-23 11:27:19.86	346.45	7.42	-26.9	-28.4	14.4	5.70e-06	0	41	102	1048576	14	4297
2026-01-23 11:27:20.86	346.40	7.34	-27.0	-28.7	14.2	3.40e-06	0	41	102	1048576	14	4371
2026-01-23 11:27:21.87	346.34	7.27	-27.0	-28.6	14.3	1.10e-06	0	41	102	1048576	14	4361
2026-01-23 11:27:22.88	346.29	7.20	-27.1	-28.8	14.1	2.20e-06	0	41	102	1048576	14	4414
2026-01-23 11:27:23.88	346.24	7.12	-27.0	-28.8	14.2	1.10e-06	0	41	102	1048576	14	4398
2026-01-23 11:27:24.88	346.18	7.05	-32.7	-39.9	4.0	8.42e-01	0	41	104	1048576	26	8320
2026-01-23 11:27:25.89	346.13	6.98	-33.5	-44.6	3.8	8.46e-01	0	42	104	1048576	26	12983
2026-01-23 11:27:26.90	346.08	6.90	-33.8	-45.2	3.8	8.47e-01	0	42	104	1048576	27	13332
2026-01-23 11:27:27.90	346.03	6.83	-33.9	-44.9	3.8	8.45e-01	0	41	104	1048576	28	12783

#Closed at: 2026-01-23 11:27:28
#Recorded file [1 MB]: D:/data/31010_260123_141610.dat