passes_logs/2026/01/23/R2M6_AANII_01/R2M6_AANII_01__20260123_224652_NOAA_20_JPSS-1_rec.log

#Pass ID: 20260123_224652_NOAA 20 (JPSS-1)
#Satellite: NOAA 20 (JPSS-1)
#Configuration: NOAA 20
#almurnet v.1.7.20240730
#Start time: 2026-01-23 22:46:52

#Version: 2.2.20231116
#Station: R2M6_AANII_01
#Location: 30.233357 lon 59.946436 lat
#TLE: 1 43013U 17073A   26022.94240312  .00000200  00000+0  11574-3 0  9998
#TLE: 2 43013  98.7645 323.7982 0001179  28.0279 332.0961 14.19539020423863

#Time	Az	El	Level	Level2	SNR	BER	BlckErr	Temp	State	Recorded	gain1	gain2
2026-01-23 22:46:52.86	29.48	7.00	-31.6	-37.4	5.1	1.20e+00	0	41	0	0	23	7039
2026-01-23 22:46:53.86	29.57	7.06	-32.2	-39.7	4.7	1.31e+00	0	41	104	0	24	8582
2026-01-23 22:46:54.87	29.66	7.12	-31.3	-38.1	7.0	2.06e-01	0	42	0	0	24	7861
2026-01-23 22:46:55.87	29.75	7.19	-32.2	-39.4	6.6	1.82e-01	0	41	102	1048576	24	8318
2026-01-23 22:46:56.86	29.84	7.25	-32.1	-39.0	6.9	1.77e-01	0	41	102	1048576	24	7974
2026-01-23 22:46:57.87	29.94	7.31	-31.9	-38.6	7.5	1.22e-01	0	41	102	1048576	23	7777
2026-01-23 22:46:58.88	30.03	7.38	-31.8	-38.0	8.2	7.82e-02	0	41	102	1048576	23	7324
2026-01-23 22:46:59.88	30.13	7.44	-31.6	-37.3	8.7	4.00e-02	0	41	102	1048576	23	6876
2026-01-23 22:47:00.89	30.22	7.51	-31.6	-36.9	9.0	2.72e-02	0	42	102	1048576	23	6673
2026-01-23 22:47:01.89	30.32	7.57	-31.4	-36.4	9.4	2.01e-02	0	41	102	1048576	23	6397
2026-01-23 22:47:02.90	30.41	7.64	-31.3	-36.6	9.8	1.42e-02	0	42	102	1048576	22	6584
2026-01-23 22:47:03.91	30.51	7.70	-31.4	-36.7	9.7	1.14e-02	0	42	102	1048576	22	6621
2026-01-23 22:47:04.90	30.60	7.76	-31.2	-36.0	10.2	9.15e-03	0	42	102	1048576	22	6236
2026-01-23 22:47:05.91	30.70	7.83	-30.9	-35.6	10.9	4.74e-03	0	42	102	1048576	21	6150
2026-01-23 22:47:06.91	30.80	7.89	-30.7	-35.0	11.3	1.35e-03	0	42	102	1048576	21	5858
2026-01-23 22:47:07.92	30.89	7.96	-30.6	-34.5	11.7	9.99e-04	0	42	102	1048576	21	5633
2026-01-23 22:47:08.93	30.99	8.03	-30.6	-34.5	11.7	6.84e-04	0	42	102	1048576	21	5641
2026-01-23 22:47:09.93	31.09	8.09	-30.6	-34.4	11.7	2.60e-03	0	42	102	1048576	21	5613
2026-01-23 22:47:10.93	31.19	8.16	-30.7	-34.8	11.5	9.73e-04	0	42	102	1048576	21	5799
2026-01-23 22:47:11.93	31.29	8.22	-30.6	-34.7	11.6	1.14e-03	0	42	102	1048576	21	5712
2026-01-23 22:47:12.94	31.39	8.29	-30.8	-35.1	11.3	3.12e-03	0	42	102	1048576	21	5902
2026-01-23 22:47:13.94	31.49	8.35	-30.7	-34.9	11.5	1.27e-03	0	42	102	1048576	21	5796
2026-01-23 22:47:14.95	31.59	8.42	-30.8	-35.2	11.2	1.46e-03	0	42	102	1048576	21	5965
2026-01-23 22:47:15.95	31.69	8.48	-30.8	-35.1	11.3	1.34e-03	0	42	102	1048576	21	5914
2026-01-23 22:47:16.95	31.79	8.55	-30.8	-35.2	11.3	1.68e-03	0	42	102	1048576	21	5957
2026-01-23 22:47:17.95	31.89	8.61	-31.0	-35.6	11.0	1.84e-03	0	42	102	1048576	21	6124
2026-01-23 22:47:18.95	31.99	8.68	-30.9	-35.3	11.2	1.91e-03	0	42	102	1048576	21	6007
2026-01-23 22:47:19.95	32.09	8.75	-30.9	-35.5	11.1	1.44e-03	0	42	102	1048576	21	6067
2026-01-23 22:47:20.96	32.20	8.81	-31.1	-35.6	10.7	4.96e-03	0	42	102	1048576	22	6012
2026-01-23 22:47:21.96	32.30	8.88	-31.3	-36.3	10.2	4.19e-03	0	42	102	1048576	22	6368
2026-01-23 22:47:22.96	32.40	8.94	-31.2	-35.7	10.6	3.89e-03	0	42	102	1048576	22	6055
2026-01-23 22:47:23.97	32.51	9.01	-31.2	-36.0	10.4	6.05e-03	0	42	102	1048576	22	6202
2026-01-23 22:47:24.97	32.61	9.08	-31.4	-36.6	10.0	8.34e-03	0	42	102	1048576	22	6520
2026-01-23 22:47:25.98	32.72	9.15	-31.3	-36.0	10.4	5.50e-03	0	42	102	1048576	22	6241
2026-01-23 22:47:26.97	32.82	9.21	-31.1	-35.4	10.8	4.72e-03	0	42	102	1048576	22	5939
2026-01-23 22:47:27.98	32.93	9.28	-31.0	-35.2	11.0	4.13e-03	0	42	102	1048576	22	5835
2026-01-23 22:47:28.98	33.04	9.35	-30.9	-34.9	11.3	1.60e-03	0	42	102	1048576	22	5656
2026-01-23 22:47:29.99	33.14	9.41	-31.0	-35.4	11.2	3.33e-03	0	43	102	1048576	21	6038
2026-01-23 22:47:31.00	33.25	9.48	-31.0	-35.5	11.2	3.44e-03	0	42	102	1048576	21	6046
2026-01-23 22:47:32.00	33.36	9.55	-31.2	-35.6	10.8	1.80e-03	0	42	102	1048576	22	6001
2026-01-23 22:47:33.01	33.47	9.62	-31.4	-36.3	10.2	6.99e-03	0	42	102	1048576	22	6361
2026-01-23 22:47:34.01	33.58	9.68	-31.2	-35.6	10.8	5.77e-03	0	43	102	1048576	22	5987
2026-01-23 22:47:35.02	33.69	9.75	-30.9	-34.7	11.4	1.72e-03	0	42	102	1048576	22	5604
2026-01-23 22:47:36.03	33.80	9.82	-30.7	-34.5	11.9	4.96e-04	0	43	102	1048576	21	5620
2026-01-23 22:47:37.04	33.91	9.89	-30.6	-34.3	12.1	1.81e-03	0	42	102	1048576	21	5521
2026-01-23 22:47:38.03	34.02	9.95	-30.5	-34.1	12.2	2.54e-04	0	42	102	1048576	21	5449
2026-01-23 22:47:39.03	34.13	10.02	-30.5	-34.0	12.3	1.74e-03	0	42	102	1048576	21	5398
2026-01-23 22:47:40.03	34.24	10.09	-30.6	-34.3	12.1	1.57e-03	0	42	102	1048576	21	5510
2026-01-23 22:47:41.03	34.35	10.16	-30.5	-34.0	12.3	1.98e-04	0	43	102	1048576	21	5384
2026-01-23 22:47:42.03	34.46	10.23	-30.6	-34.2	12.2	1.74e-03	0	43	102	1048576	21	5462
2026-01-23 22:47:43.03	34.58	10.29	-30.6	-34.3	12.1	2.17e-04	0	43	102	1048576	21	5493
2026-01-23 22:47:44.03	34.69	10.36	-30.5	-33.9	12.4	2.05e-04	0	42	102	1048576	21	5346
2026-01-23 22:47:45.03	34.80	10.43	-30.5	-34.4	12.4	1.72e-03	0	43	102	1048576	20	5647
2026-01-23 22:47:46.04	34.92	10.50	-30.4	-34.2	12.5	1.67e-03	0	43	102	1048576	20	5580
2026-01-23 22:47:47.05	35.04	10.57	-30.4	-34.3	12.5	1.37e-04	0	43	102	1048576	20	5607
2026-01-23 22:47:48.05	35.15	10.64	-30.3	-34.0	12.7	1.59e-03	0	43	102	1048576	20	5493
2026-01-23 22:47:49.06	35.27	10.71	-30.3	-34.0	12.7	1.55e-03	0	43	102	1048576	20	5495
2026-01-23 22:47:50.07	35.39	10.78	-30.3	-33.9	12.8	5.56e-05	0	43	102	1048576	20	5467
2026-01-23 22:47:51.07	35.50	10.84	-30.5	-34.4	12.5	8.77e-05	0	43	102	1048576	20	5641
2026-01-23 22:47:52.08	35.62	10.91	-30.4	-34.1	12.6	1.54e-03	0	43	102	1048576	20	5525
2026-01-23 22:47:53.08	35.74	10.98	-30.3	-33.8	12.9	4.34e-05	0	43	102	1048576	20	5411
2026-01-23 22:47:54.09	35.86	11.05	-30.3	-34.0	12.7	7.09e-05	0	43	102	1048576	20	5480
2026-01-23 22:47:55.10	35.98	11.12	-30.3	-33.8	12.8	1.29e-03	0	43	102	1048576	20	5418
2026-01-23 22:47:56.11	36.10	11.19	-30.2	-33.6	13.0	4.42e-05	0	43	102	1048576	20	5318
2026-01-23 22:47:57.11	36.22	11.26	-30.2	-33.6	13.1	3.96e-05	0	43	102	1048576	20	5309
2026-01-23 22:47:58.11	36.34	11.33	-30.1	-33.4	13.2	2.74e-05	0	43	102	1048576	20	5256
2026-01-23 22:47:59.11	36.46	11.40	-30.2	-33.5	13.1	2.13e-05	0	43	102	1048576	20	5280
2026-01-23 22:48:00.11	36.59	11.47	-30.2	-33.7	13.0	3.28e-05	0	43	102	1048576	20	5340
2026-01-23 22:48:01.11	36.71	11.54	-30.1	-33.4	13.2	2.44e-05	0	43	102	1048576	20	5236
2026-01-23 22:48:02.11	36.83	11.61	-30.2	-33.6	13.1	2.51e-05	0	43	102	1048576	20	5303
2026-01-23 22:48:03.12	36.96	11.68	-30.4	-34.1	12.7	7.01e-05	0	43	102	1048576	20	5529
2026-01-23 22:48:04.12	37.08	11.75	-30.3	-33.7	13.0	4.27e-05	0	43	102	1048576	20	5374
2026-01-23 22:48:05.12	37.21	11.82	-30.2	-33.5	13.1	2.82e-05	0	43	102	1048576	20	5287
2026-01-23 22:48:06.13	37.33	11.89	-30.3	-33.7	13.0	5.10e-04	0	43	102	1048576	20	5373
2026-01-23 22:48:07.14	37.46	11.96	-30.2	-33.7	13.0	4.80e-05	0	43	102	1048576	20	5341
2026-01-23 22:48:08.15	37.59	12.03	-30.3	-33.8	12.9	4.11e-05	0	43	102	1048576	20	5394
2026-01-23 22:48:09.15	37.72	12.10	-30.2	-33.7	13.1	3.58e-05	0	43	102	1048576	20	5336
2026-01-23 22:48:10.16	37.84	12.17	-30.1	-33.3	13.3	2.67e-05	0	43	102	1048576	20	5196
2026-01-23 22:48:11.17	37.97	12.25	-30.2	-33.4	13.2	1.98e-05	0	43	102	1048576	20	5246
2026-01-23 22:48:12.17	38.10	12.32	-30.2	-33.6	13.1	2.44e-05	0	43	102	1048576	20	5299
2026-01-23 22:48:13.18	38.23	12.39	-30.1	-33.3	13.3	3.89e-05	0	43	102	1048576	20	5207
2026-01-23 22:48:14.18	38.36	12.46	-30.1	-33.4	13.3	7.93e-05	0	43	102	1048576	20	5217
2026-01-23 22:48:15.19	38.50	12.53	-30.2	-33.4	13.2	2.05e-05	0	43	102	1048576	20	5241
2026-01-23 22:48:16.19	38.63	12.60	-30.2	-33.5	13.2	2.28e-05	0	43	102	1048576	20	5280
2026-01-23 22:48:17.19	38.76	12.67	-30.3	-33.8	13.0	8.77e-05	0	43	102	1048576	20	5366
2026-01-23 22:48:18.20	38.89	12.74	-30.2	-33.5	13.2	3.12e-05	0	43	102	1048576	20	5267
2026-01-23 22:48:19.21	39.03	12.82	-30.1	-33.3	13.3	2.28e-05	0	43	102	1048576	20	5202
2026-01-23 22:48:20.21	39.16	12.89	-30.2	-33.4	13.3	2.36e-05	0	43	102	1048576	20	5237
2026-01-23 22:48:21.21	39.30	12.96	-30.3	-33.7	12.8	2.59e-05	0	43	102	1048576	20	5360
2026-01-23 22:48:22.22	39.43	13.03	-30.2	-33.5	13.2	2.59e-05	0	43	102	1048576	20	5278
2026-01-23 22:48:23.23	39.57	13.10	-30.2	-33.6	13.2	3.87e-04	0	43	102	1048576	20	5309
2026-01-23 22:48:24.23	39.71	13.17	-30.2	-33.5	13.2	1.98e-05	0	43	102	1048576	20	5256
2026-01-23 22:48:25.24	39.84	13.25	-30.2	-33.6	13.2	3.35e-05	0	43	102	1048576	20	5309
2026-01-23 22:48:26.24	39.98	13.32	-30.2	-33.6	13.2	2.89e-05	0	43	102	1048576	20	5282
2026-01-23 22:48:27.25	40.12	13.39	-30.3	-33.7	13.1	1.98e-05	0	43	102	1048576	20	5335
2026-01-23 22:48:28.26	40.26	13.46	-30.4	-34.1	12.8	4.73e-05	0	43	102	1048576	20	5491
2026-01-23 22:48:29.26	40.40	13.54	-30.2	-33.6	13.1	2.89e-05	0	43	102	1048576	20	5316
2026-01-23 22:48:30.27	40.54	13.61	-30.1	-33.2	13.5	8.46e-05	0	43	102	1048576	20	5127
2026-01-23 22:48:31.27	40.68	13.68	-30.1	-33.3	13.4	1.06e-05	0	43	102	1048576	20	5166
2026-01-23 22:48:32.27	40.82	13.75	-30.1	-33.2	13.5	9.90e-06	0	43	102	1048576	20	5145
2026-01-23 22:48:33.27	40.97	13.82	-30.1	-33.3	13.5	2.44e-05	0	43	102	1048576	20	5162
2026-01-23 22:48:34.28	41.11	13.90	-30.0	-33.0	13.6	1.06e-05	0	43	102	1048576	20	5079
2026-01-23 22:48:35.28	41.26	13.97	-30.1	-33.2	13.5	1.52e-05	0	43	102	1048576	20	5147
2026-01-23 22:48:36.29	41.40	14.04	-30.1	-33.3	13.5	1.37e-05	0	43	102	1048576	20	5171
2026-01-23 22:48:37.29	41.55	14.11	-30.0	-33.0	13.7	1.06e-05	0	43	102	1048576	20	5067
2026-01-23 22:48:38.29	41.69	14.19	-30.0	-32.9	13.7	3.80e-06	0	43	102	1048576	20	5021
2026-01-23 22:48:39.30	41.84	14.26	-30.0	-33.0	13.7	7.60e-06	0	43	102	1048576	20	5053
2026-01-23 22:48:40.31	41.99	14.33	-30.1	-33.1	13.6	8.30e-06	0	43	102	1048576	20	5088
2026-01-23 22:48:41.32	42.14	14.41	-30.1	-33.3	13.5	7.85e-05	0	43	102	1048576	20	5167
2026-01-23 22:48:42.32	42.29	14.48	-30.2	-33.4	13.4	9.90e-06	0	43	102	1048576	20	5206
2026-01-23 22:48:43.33	42.44	14.55	-30.1	-33.1	13.6	6.80e-06	0	43	102	1048576	20	5105
2026-01-23 22:48:44.33	42.59	14.62	-30.0	-33.0	13.7	4.65e-05	0	43	102	1048576	20	5055
2026-01-23 22:48:45.34	42.74	14.70	-30.1	-33.2	13.6	4.50e-06	0	43	102	1048576	20	5131
2026-01-23 22:48:46.34	42.89	14.77	-30.1	-33.2	13.6	1.90e-05	0	43	102	1048576	20	5135
2026-01-23 22:48:47.34	43.04	14.84	-30.0	-33.0	13.7	2.97e-05	0	43	102	1048576	20	5036
2026-01-23 22:48:48.35	43.20	14.92	-30.1	-33.2	13.6	1.14e-05	0	43	102	1048576	20	5125
2026-01-23 22:48:49.35	43.35	14.99	-30.0	-33.0	13.7	1.66e-04	0	43	102	1048576	20	5046
2026-01-23 22:48:50.35	43.50	15.06	-30.0	-32.9	13.8	6.10e-06	0	43	102	1048576	20	5023
2026-01-23 22:48:51.35	43.66	15.13	-30.1	-33.2	13.6	5.30e-06	0	43	102	1048576	20	5129
2026-01-23 22:48:52.36	43.82	15.21	-30.2	-33.3	13.5	4.64e-04	0	43	102	1048576	20	5153
2026-01-23 22:48:53.36	43.97	15.28	-30.2	-33.3	13.5	1.14e-05	0	43	102	1048576	20	5184
2026-01-23 22:48:54.37	44.13	15.35	-30.2	-33.3	13.5	1.14e-05	0	43	102	1048576	20	5174
2026-01-23 22:48:55.37	44.29	15.43	-30.1	-33.2	13.6	4.74e-04	0	43	102	1048576	20	5124
2026-01-23 22:48:56.38	44.45	15.50	-30.1	-33.2	13.6	5.19e-04	0	43	102	1048576	20	5109
2026-01-23 22:48:57.38	44.61	15.57	-30.2	-33.4	13.4	1.13e-04	0	43	102	1048576	20	5200
2026-01-23 22:48:58.39	44.77	15.65	-30.3	-33.6	13.4	2.99e-04	0	43	102	1048576	20	5269
2026-01-23 22:48:59.39	44.93	15.72	-30.2	-33.4	13.4	2.38e-04	0	43	102	1048576	20	5216
2026-01-23 22:49:00.39	45.09	15.79	-30.2	-33.5	13.4	1.90e-05	0	43	102	1048576	20	5249
2026-01-23 22:49:01.38	45.25	15.87	-30.2	-33.4	13.5	6.10e-06	0	43	102	1048576	20	5189
2026-01-23 22:49:02.38	45.42	15.94	-30.1	-33.2	13.6	6.10e-06	0	43	102	1048576	20	5118
2026-01-23 22:49:03.39	45.58	16.01	-30.2	-33.4	13.5	5.30e-06	0	43	102	1048576	20	5201
2026-01-23 22:49:04.39	45.75	16.09	-30.2	-33.3	13.6	8.30e-06	0	43	102	1048576	20	5173
2026-01-23 22:49:05.39	45.91	16.16	-30.2	-33.3	13.6	7.60e-06	0	44	102	1048576	20	5146
2026-01-23 22:49:06.39	46.08	16.23	-30.1	-33.2	13.6	1.14e-05	0	44	102	1048576	20	5113
2026-01-23 22:49:07.39	46.25	16.30	-30.0	-32.9	13.8	4.50e-06	0	44	102	1048576	20	5026
2026-01-23 22:49:08.39	46.41	16.38	-30.0	-32.9	13.9	4.50e-06	0	43	102	1048576	20	5017
2026-01-23 22:49:09.39	46.58	16.45	-30.0	-32.8	13.9	3.00e-06	0	43	102	1048576	20	4973
2026-01-23 22:49:10.40	46.75	16.52	-30.0	-32.9	13.8	1.38e-04	0	44	102	1048576	20	5017
2026-01-23 22:49:11.41	46.93	16.60	-30.1	-33.2	13.7	9.90e-06	0	43	102	1048576	20	5124
2026-01-23 22:49:12.41	47.10	16.67	-30.0	-32.9	13.9	1.04e-04	0	44	102	1048576	20	5012
2026-01-23 22:49:13.42	47.27	16.74	-30.1	-33.1	13.7	6.00e-04	0	44	102	1048576	20	5065
2026-01-23 22:49:14.43	47.45	16.82	-30.1	-33.2	13.7	3.80e-06	0	43	102	1048576	20	5112
2026-01-23 22:49:15.43	47.62	16.89	-30.1	-32.9	13.8	1.72e-04	0	44	102	1048576	20	5012
2026-01-23 22:49:16.44	47.80	16.96	-30.0	-32.9	13.9	2.20e-06	0	44	102	1048576	20	4998
2026-01-23 22:49:17.44	47.97	17.04	-30.0	-32.9	13.9	1.50e-06	0	44	102	1048576	20	4984
2026-01-23 22:49:18.44	48.15	17.11	-30.0	-32.8	14.0	5.30e-06	0	44	102	1048576	20	4964
2026-01-23 22:49:19.44	48.32	17.18	-29.9	-32.5	14.2	2.20e-06	0	43	102	1048576	20	4862
2026-01-23 22:49:20.45	48.50	17.26	-29.8	-32.2	14.3	2.17e-04	0	43	102	1048576	20	4768
2026-01-23 22:49:21.45	48.68	17.33	-29.8	-32.3	14.3	7.00e-07	0	44	102	1048576	20	4784
2026-01-23 22:49:22.46	48.86	17.40	-29.9	-33.0	14.3	7.00e-07	0	44	102	1048576	19	5137
2026-01-23 22:49:23.45	49.04	17.47	-29.8	-32.7	14.4	1.50e-06	0	44	102	1048576	19	5041
2026-01-23 22:49:24.45	49.22	17.55	-29.8	-32.8	14.4	0.00e+00	0	43	102	1048576	19	5057
2026-01-23 22:49:25.45	49.40	17.62	-29.8	-32.8	14.3	2.20e-06	0	44	102	1048576	19	5076
2026-01-23 22:49:26.45	49.59	17.69	-29.8	-32.8	14.3	7.00e-07	0	43	102	1048576	19	5061
2026-01-23 22:49:27.46	49.77	17.76	-29.8	-32.8	14.4	7.00e-07	0	44	102	1048576	19	5054
2026-01-23 22:49:28.46	49.96	17.84	-29.8	-32.9	14.3	7.00e-07	0	44	102	1048576	19	5093
2026-01-23 22:49:29.47	50.14	17.91	-29.9	-32.9	14.3	3.00e-06	0	44	102	1048576	19	5103
2026-01-23 22:49:30.48	50.33	17.98	-29.7	-32.6	14.6	8.30e-06	0	44	102	1048576	19	4986
2026-01-23 22:49:31.48	50.52	18.05	-29.7	-32.5	14.6	0.00e+00	0	44	102	1048576	19	4946
2026-01-23 22:49:32.49	50.71	18.13	-29.7	-32.5	14.6	7.00e-07	0	43	102	1048576	19	4943
2026-01-23 22:49:33.49	50.90	18.20	-29.7	-32.3	14.6	0.00e+00	0	44	102	1048576	19	4909
2026-01-23 22:49:34.50	51.09	18.27	-29.6	-32.2	14.7	0.00e+00	0	44	102	1048576	19	4848
2026-01-23 22:49:35.50	51.28	18.34	-29.6	-32.2	14.7	2.20e-06	0	44	102	1048576	19	4873
2026-01-23 22:49:36.51	51.47	18.41	-29.6	-32.2	14.7	0.00e+00	0	44	102	1048576	19	4865
2026-01-23 22:49:37.51	51.67	18.49	-29.2	-31.7	14.9	0.00e+00	0	44	102	1048576	19	4811
2026-01-23 22:49:38.51	51.86	18.56	-29.5	-31.9	14.9	0.00e+00	0	43	102	1048576	19	4765
2026-01-23 22:49:39.51	52.05	18.63	-29.5	-32.0	14.9	0.00e+00	0	44	102	1048576	19	4787
2026-01-23 22:49:40.52	52.25	18.70	-29.6	-32.1	14.8	0.00e+00	0	44	102	1048576	19	4839
2026-01-23 22:49:41.52	52.45	18.77	-29.6	-32.2	14.7	0.00e+00	0	44	102	1048576	19	4852
2026-01-23 22:49:42.53	52.65	18.84	-29.5	-31.9	14.9	0.00e+00	0	43	102	1048576	19	4758
2026-01-23 22:49:43.53	52.84	18.91	-29.5	-31.9	14.9	0.00e+00	0	43	102	1048576	19	4766
2026-01-23 22:49:44.53	53.04	18.98	-29.5	-32.0	14.9	0.00e+00	0	44	102	1048576	19	4787
2026-01-23 22:49:45.53	53.24	19.06	-29.4	-31.7	15.1	0.00e+00	0	43	102	1048576	19	4698
2026-01-23 22:49:46.54	53.45	19.13	-29.6	-32.2	14.8	0.00e+00	0	43	102	1048576	19	4848
2026-01-23 22:49:47.55	53.65	19.20	-29.6	-32.2	14.8	0.00e+00	0	44	102	1048576	19	4843
2026-01-23 22:49:48.55	53.85	19.27	-29.5	-32.0	14.9	7.00e-07	0	44	102	1048576	19	4782
2026-01-23 22:49:49.56	54.06	19.34	-29.6	-32.2	14.8	0.00e+00	0	44	102	1048576	19	4853
2026-01-23 22:49:50.56	54.26	19.41	-29.7	-32.5	14.6	0.00e+00	0	44	102	1048576	19	4942
2026-01-23 22:49:51.57	54.47	19.48	-29.7	-32.5	14.6	1.67e-05	0	44	102	1048576	19	4945
2026-01-23 22:49:52.57	54.67	19.55	-29.8	-32.6	14.5	1.50e-06	0	43	102	1048576	19	4985
2026-01-23 22:49:53.57	54.88	19.62	-29.7	-32.4	14.6	7.00e-07	0	44	102	1048576	19	4935
2026-01-23 22:49:54.58	55.09	19.69	-29.6	-32.2	14.7	7.00e-07	0	44	102	1048576	19	4862
2026-01-23 22:49:55.58	55.30	19.76	-29.6	-32.3	14.7	0.00e+00	0	43	102	1048576	19	4878
2026-01-23 22:49:56.58	55.51	19.82	-29.6	-32.2	14.8	0.00e+00	0	43	102	1048576	19	4841
2026-01-23 22:49:57.59	55.72	19.89	-29.6	-32.1	14.8	0.00e+00	0	43	102	1048576	19	4817
2026-01-23 22:49:58.59	55.93	19.96	-29.6	-32.2	14.7	9.10e-06	0	43	102	1048576	19	4868
2026-01-23 22:49:59.59	56.15	20.03	-29.8	-32.7	14.5	0.00e+00	0	43	102	1048576	19	5022
2026-01-23 22:50:00.59	56.36	20.10	-29.8	-32.8	14.4	1.50e-06	0	44	102	1048576	19	5053
2026-01-23 22:50:01.60	56.58	20.17	-29.9	-33.1	14.3	4.57e-05	0	43	102	1048576	19	5160
2026-01-23 22:50:02.60	56.79	20.23	-30.1	-33.0	13.9	2.20e-06	0	44	102	1048576	20	5029
2026-01-23 22:50:03.61	57.01	20.30	-30.2	-33.2	13.7	8.30e-06	0	44	102	1048576	20	5099
2026-01-23 22:50:04.62	57.23	20.37	-30.2	-33.3	13.7	3.79e-04	0	44	102	1048576	20	5141
2026-01-23 22:50:05.62	57.45	20.44	-30.3	-33.6	13.5	1.69e-04	0	44	102	1048576	20	5277
2026-01-23 22:50:06.63	57.67	20.50	-30.3	-33.5	13.5	2.12e-04	0	44	102	1048576	20	5228
2026-01-23 22:50:07.63	57.89	20.57	-30.4	-33.7	13.5	9.90e-06	0	44	102	1048576	20	5299
2026-01-23 22:50:08.64	58.11	20.64	-30.2	-33.4	13.6	2.51e-05	0	44	102	1048576	20	5180
2026-01-23 22:50:09.65	58.33	20.70	-30.3	-33.6	13.5	1.07e-04	0	44	102	1048576	20	5268
2026-01-23 22:50:10.65	58.56	20.77	-30.4	-33.7	13.4	1.14e-05	0	44	102	1048576	20	5315
2026-01-23 22:50:11.65	58.78	20.83	-30.6	-34.0	12.9	3.20e-05	0	44	102	1048576	21	5312
2026-01-23 22:50:12.66	59.01	20.90	-30.7	-34.1	12.9	1.99e-04	0	43	102	1048576	21	5343
2026-01-23 22:50:13.66	59.23	20.96	-30.6	-34.0	12.9	4.80e-05	0	44	102	1048576	21	5276
2026-01-23 22:50:14.66	59.46	21.03	-30.8	-34.4	12.7	6.10e-05	0	44	102	1048576	21	5452
2026-01-23 22:50:15.66	59.69	21.09	-30.8	-34.3	12.7	7.32e-05	0	44	102	1048576	21	5425
2026-01-23 22:50:16.67	59.92	21.16	-30.6	-33.9	13.0	8.62e-05	0	44	102	1048576	21	5252
2026-01-23 22:50:17.67	60.15	21.22	-30.6	-33.8	13.1	3.05e-05	0	44	102	1048576	21	5195
2026-01-23 22:50:18.68	60.38	21.29	-30.6	-33.7	13.2	3.58e-05	0	44	102	1048576	21	5178
2026-01-23 22:50:19.68	60.61	21.35	-30.5	-33.7	13.2	4.27e-05	0	44	102	1048576	21	5164
2026-01-23 22:50:20.68	60.84	21.41	-30.4	-33.2	13.5	1.75e-05	0	44	102	1048576	21	5001
2026-01-23 22:50:21.68	61.08	21.47	-30.3	-32.9	13.7	9.10e-06	0	44	102	1048576	21	4869
2026-01-23 22:50:22.69	61.31	21.54	-30.3	-33.0	13.6	6.80e-06	0	44	102	1048576	21	4933
2026-01-23 22:50:23.69	61.55	21.60	-30.2	-32.9	13.7	1.37e-05	0	44	102	1048576	21	4872
2026-01-23 22:50:24.70	61.79	21.66	-30.1	-32.5	14.0	1.50e-06	0	44	102	1048576	21	4731
2026-01-23 22:50:25.69	62.02	21.72	-30.0	-32.4	14.0	3.20e-05	0	44	102	1048576	21	4701
2026-01-23 22:50:26.69	62.26	21.78	-30.2	-32.7	13.8	7.00e-07	0	44	102	1048576	21	4816
2026-01-23 22:50:27.70	62.50	21.84	-30.2	-33.2	13.9	1.52e-04	0	44	102	1048576	20	5097
2026-01-23 22:50:28.70	62.74	21.90	-30.3	-33.4	13.7	3.00e-06	0	44	102	1048576	20	5168
2026-01-23 22:50:29.71	62.98	21.96	-30.1	-33.1	13.9	2.20e-06	0	44	102	1048576	20	5054
2026-01-23 22:50:30.71	63.22	22.02	-30.0	-32.8	14.1	2.35e-04	0	44	102	1048576	20	4949
2026-01-23 22:50:31.72	63.47	22.08	-30.0	-32.8	14.1	2.20e-06	0	44	102	1048576	20	4943
2026-01-23 22:50:32.73	63.71	22.14	-30.1	-32.9	14.0	5.34e-05	0	44	102	1048576	20	4995
2026-01-23 22:50:33.73	63.96	22.20	-30.1	-32.9	14.0	5.29e-04	0	44	102	1048576	20	4997
2026-01-23 22:50:34.74	64.20	22.26	-30.0	-32.8	14.1	1.50e-06	0	44	102	1048576	20	4949
2026-01-23 22:50:35.74	64.45	22.32	-30.1	-33.0	14.0	2.20e-06	0	44	102	1048576	20	5037
2026-01-23 22:50:36.75	64.70	22.37	-30.1	-32.9	14.0	1.50e-04	0	44	102	1048576	20	5008
2026-01-23 22:50:37.75	64.95	22.43	-30.2	-33.1	13.9	2.12e-04	0	44	102	1048576	20	5067
2026-01-23 22:50:38.76	65.20	22.49	-30.2	-33.2	13.9	3.80e-06	0	44	102	1048576	20	5096
2026-01-23 22:50:39.75	65.44	22.54	-30.2	-33.4	13.8	3.80e-06	0	44	102	1048576	20	5148
2026-01-23 22:50:40.75	65.69	22.60	-30.3	-33.6	13.6	4.35e-04	0	44	102	1048576	20	5250
2026-01-23 22:50:41.76	65.95	22.65	-30.6	-33.7	13.2	1.83e-05	0	44	102	1048576	21	5183
2026-01-23 22:50:42.76	66.20	22.71	-30.7	-34.2	12.8	3.35e-05	0	44	102	1048576	21	5384
2026-01-23 22:50:43.76	66.45	22.76	-30.7	-34.1	12.9	5.11e-04	0	44	102	1048576	21	5342
2026-01-23 22:50:44.76	66.71	22.82	-30.6	-33.8	13.1	2.67e-05	0	44	102	1048576	21	5230
2026-01-23 22:50:45.77	66.96	22.87	-30.5	-33.5	13.4	1.75e-05	0	44	102	1048576	21	5089
2026-01-23 22:50:46.77	67.22	22.92	-30.6	-33.7	13.3	1.44e-05	0	44	102	1048576	21	5176
2026-01-23 22:50:47.78	67.48	22.98	-30.5	-33.6	13.3	2.13e-05	0	44	102	1048576	21	5136
2026-01-23 22:50:48.79	67.74	23.03	-30.5	-33.6	13.3	1.44e-05	0	44	102	1048576	21	5143
2026-01-23 22:50:49.80	68.00	23.08	-30.5	-33.5	13.5	1.29e-05	0	44	102	1048576	21	5083
2026-01-23 22:50:50.80	68.26	23.13	-30.3	-33.1	13.7	6.02e-05	0	44	102	1048576	21	4949
2026-01-23 22:50:51.79	68.51	23.18	-30.3	-33.0	13.7	8.30e-06	0	44	102	1048576	21	4906
2026-01-23 22:50:52.80	68.78	23.23	-30.3	-33.0	13.7	7.60e-06	0	44	102	1048576	21	4921
2026-01-23 22:50:53.80	69.04	23.28	-30.3	-33.0	13.7	4.50e-06	0	44	102	1048576	21	4903
2026-01-23 22:50:54.81	69.30	23.33	-30.4	-33.3	13.6	8.30e-06	0	44	102	1048576	21	5002
2026-01-23 22:50:55.82	69.57	23.38	-30.5	-33.6	13.3	1.98e-05	0	44	102	1048576	21	5143
2026-01-23 22:50:56.82	69.83	23.43	-30.5	-33.6	13.3	2.05e-05	0	44	102	1048576	21	5132
2026-01-23 22:50:57.82	70.10	23.47	-30.5	-33.6	13.3	1.52e-05	0	44	102	1048576	21	5128
2026-01-23 22:50:58.83	70.37	23.52	-30.6	-33.8	13.2	1.90e-05	0	44	102	1048576	21	5218
2026-01-23 22:50:59.83	70.63	23.57	-30.5	-33.5	13.4	1.22e-05	0	44	102	1048576	21	5077
2026-01-23 22:51:00.84	70.90	23.61	-30.4	-33.3	13.6	9.10e-06	0	44	102	1048576	21	5005
2026-01-23 22:51:01.84	71.17	23.66	-30.5	-33.5	13.5	1.06e-05	0	44	102	1048576	21	5072
2026-01-23 22:51:02.85	71.44	23.70	-30.5	-33.5	13.4	1.37e-05	0	44	102	1048576	21	5096
2026-01-23 22:51:03.86	71.71	23.75	-30.7	-34.0	13.1	2.21e-05	0	44	102	1048576	21	5282
2026-01-23 22:51:04.86	71.98	23.79	-30.7	-34.0	13.1	2.74e-05	0	44	102	1048576	21	5274
2026-01-23 22:51:05.87	72.25	23.83	-30.8	-34.3	12.8	4.34e-05	0	44	102	1048576	21	5421
2026-01-23 22:51:06.88	72.53	23.87	-30.7	-34.1	13.0	4.88e-05	0	44	102	1048576	21	5312
2026-01-23 22:51:07.88	72.80	23.92	-30.6	-33.8	13.3	2.97e-05	0	44	102	1048576	21	5188
2026-01-23 22:51:08.88	73.07	23.96	-30.6	-33.9	13.1	2.74e-05	0	44	102	1048576	21	5244
2026-01-23 22:51:09.88	73.35	24.00	-30.7	-34.2	13.0	3.58e-05	0	44	102	1048576	21	5340
2026-01-23 22:51:10.89	73.62	24.04	-30.8	-34.4	12.9	3.89e-05	0	44	102	1048576	21	5422
2026-01-23 22:51:11.89	73.90	24.08	-30.8	-34.3	12.9	6.02e-05	0	44	102	1048576	21	5397
2026-01-23 22:51:12.90	74.18	24.11	-30.7	-34.2	12.9	4.11e-05	0	44	102	1048576	21	5387
2026-01-23 22:51:13.90	74.45	24.15	-30.8	-34.3	12.8	5.11e-05	0	44	102	1048576	21	5410
2026-01-23 22:51:14.90	74.73	24.19	-30.9	-34.7	12.6	7.17e-05	0	44	102	1048576	21	5554
2026-01-23 22:51:15.91	75.01	24.23	-30.8	-34.4	12.8	6.10e-05	0	44	102	1048576	21	5425
2026-01-23 22:51:16.92	75.29	24.26	-30.8	-34.4	12.8	5.18e-05	0	44	102	1048576	21	5448
2026-01-23 22:51:17.92	75.57	24.30	-31.0	-34.9	12.4	7.24e-05	0	44	102	1048576	21	5649
2026-01-23 22:51:18.93	75.85	24.33	-30.9	-34.1	12.7	3.49e-04	0	44	102	1048576	22	5216
2026-01-23 22:51:19.93	76.13	24.37	-30.9	-34.0	12.7	7.01e-05	0	44	102	1048576	22	5182
2026-01-23 22:51:20.93	76.41	24.40	-30.8	-33.9	12.8	7.40e-05	0	44	102	1048576	22	5116
2026-01-23 22:51:21.93	76.69	24.43	-30.8	-33.8	12.9	1.23e-04	0	44	102	1048576	22	5106
2026-01-23 22:51:22.94	76.98	24.46	-30.8	-33.7	12.9	4.65e-05	0	44	102	1048576	22	5067
2026-01-23 22:51:23.95	77.26	24.50	-30.8	-34.4	12.8	5.18e-05	0	44	102	1048576	21	5436
2026-01-23 22:51:24.96	77.55	24.53	-30.8	-34.3	12.9	4.73e-05	0	44	102	1048576	21	5392
2026-01-23 22:51:25.96	77.83	24.56	-30.9	-34.5	12.7	6.94e-05	0	44	102	1048576	21	5501
2026-01-23 22:51:26.97	78.12	24.59	-30.5	-33.5	13.3	4.19e-05	0	44	102	1048576	21	5084
2026-01-23 22:51:27.97	78.40	24.61	-30.3	-32.9	13.7	1.22e-05	0	44	102	1048576	21	4888
2026-01-23 22:51:28.98	78.69	24.64	-30.1	-32.6	14.0	3.00e-06	0	44	102	1048576	21	4755
2026-01-23 22:51:29.98	78.98	24.67	-30.1	-32.4	14.1	2.20e-06	0	44	102	1048576	21	4712
2026-01-23 22:51:30.98	79.26	24.70	-30.1	-32.5	14.1	3.80e-06	0	44	102	1048576	21	4731
2026-01-23 22:51:31.98	79.55	24.72	-30.3	-33.1	13.7	3.80e-06	0	44	102	1048576	21	4940
2026-01-23 22:51:32.98	79.84	24.75	-30.1	-32.4	14.1	7.60e-06	0	44	102	1048576	21	4710
2026-01-23 22:51:33.99	80.13	24.77	-30.0	-32.1	14.3	7.00e-07	0	44	102	1048576	21	4607
2026-01-23 22:51:34.99	80.41	24.79	-29.8	-31.7	14.5	7.00e-07	0	44	102	1048576	21	4474
2026-01-23 22:51:35.99	80.70	24.82	-29.9	-31.9	14.4	0.00e+00	0	44	102	1048576	21	4547
2026-01-23 22:51:36.99	80.99	24.84	-30.0	-32.1	14.3	7.00e-07	0	44	102	1048576	21	4593
2026-01-23 22:51:37.99	81.28	24.86	-30.0	-32.1	14.3	7.00e-07	0	44	102	1048576	21	4589
2026-01-23 22:51:38.99	81.57	24.88	-30.2	-32.7	14.0	7.00e-07	0	44	102	1048576	21	4788
2026-01-23 22:51:40.00	81.86	24.90	-30.2	-32.8	13.8	4.50e-06	0	44	102	1048576	21	4853
2026-01-23 22:51:41.00	82.15	24.92	-30.4	-33.2	13.6	1.60e-05	0	44	102	1048576	21	4977
2026-01-23 22:51:42.01	82.45	24.94	-30.6	-33.7	13.3	1.14e-05	0	44	102	1048576	21	5182
2026-01-23 22:51:43.02	82.74	24.96	-30.7	-34.0	13.0	1.04e-04	0	44	102	1048576	21	5307
2026-01-23 22:51:44.02	83.03	24.97	-30.7	-34.1	13.0	1.44e-04	0	44	102	1048576	21	5310
2026-01-23 22:51:45.02	83.32	24.99	-30.6	-33.8	13.2	3.43e-05	0	44	102	1048576	21	5193
2026-01-23 22:51:46.03	83.62	25.00	-30.5	-33.5	13.4	1.23e-04	0	44	102	1048576	21	5104
2026-01-23 22:51:47.03	83.91	25.02	-30.4	-33.3	13.5	1.31e-04	0	44	102	1048576	21	5037
2026-01-23 22:51:48.04	84.20	25.03	-30.5	-33.7	13.3	9.90e-06	0	44	102	1048576	21	5150
2026-01-23 22:51:49.04	84.50	25.04	-30.3	-33.0	13.7	1.91e-04	0	44	102	1048576	21	4916
2026-01-23 22:51:50.04	84.79	25.06	-30.2	-32.7	13.9	1.54e-04	0	44	102	1048576	21	4795
2026-01-23 22:51:51.04	85.08	25.07	-30.1	-32.4	14.1	2.20e-06	0	44	102	1048576	21	4703
2026-01-23 22:51:52.06	85.38	25.08	-30.1	-33.0	14.0	1.19e-04	0	44	102	1048576	20	5031
2026-01-23 22:51:53.06	85.67	25.09	-30.1	-33.1	14.0	1.37e-04	0	44	102	1048576	20	5050
2026-01-23 22:51:54.07	85.97	25.10	-30.2	-33.1	13.9	4.50e-06	0	44	102	1048576	20	5072
2026-01-23 22:51:55.07	86.26	25.11	-30.2	-33.2	13.9	2.05e-04	0	44	102	1048576	20	5085
2026-01-23 22:51:56.07	86.56	25.11	-30.3	-33.4	13.8	2.17e-04	0	44	102	1048576	20	5167
2026-01-23 22:51:57.08	86.85	25.12	-30.3	-33.6	13.6	1.50e-06	0	44	102	1048576	20	5248
2026-01-23 22:51:58.08	87.15	25.13	-30.0	-32.7	14.2	1.65e-04	0	44	102	1048576	20	4901
2026-01-23 22:51:59.09	87.45	25.13	-29.8	-32.1	14.6	1.50e-06	0	44	102	1048576	20	4700
2026-01-23 22:52:00.09	87.74	25.14	-29.6	-31.8	14.8	7.00e-07	0	44	102	1048576	20	4596
2026-01-23 22:52:01.09	88.03	25.14	-29.7	-32.0	14.6	6.25e-05	0	44	102	1048576	20	4691
2026-01-23 22:52:02.10	88.33	25.14	-29.7	-31.9	14.7	2.21e-05	0	44	102	1048576	20	4640
2026-01-23 22:52:03.10	88.63	25.14	-29.8	-32.2	14.5	1.90e-05	0	44	102	1048576	20	4751
2026-01-23 22:52:04.10	88.92	25.15	-29.9	-32.5	14.4	2.97e-05	0	44	102	1048576	20	4852
2026-01-23 22:52:05.10	89.22	25.15	-30.1	-33.0	14.1	4.42e-05	0	44	102	1048576	20	5001
2026-01-23 22:52:06.10	89.51	25.15	-30.1	-32.9	14.1	1.50e-06	0	44	102	1048576	20	4998
2026-01-23 22:52:07.11	89.81	25.14	-30.2	-33.2	13.9	5.11e-05	0	44	102	1048576	20	5075
2026-01-23 22:52:08.11	90.10	25.14	-30.0	-32.7	14.2	2.59e-05	0	44	102	1048576	20	4919
2026-01-23 22:52:09.11	90.40	25.14	-29.9	-32.4	14.4	7.00e-07	0	44	102	1048576	20	4814
2026-01-23 22:52:10.12	90.69	25.14	-29.8	-32.3	14.5	6.10e-06	0	44	102	1048576	20	4762
2026-01-23 22:52:11.13	90.99	25.13	-29.9	-32.5	14.3	9.38e-05	0	44	102	1048576	20	4861
2026-01-23 22:52:12.13	91.29	25.13	-29.8	-32.1	14.6	3.50e-05	0	44	102	1048576	20	4717
2026-01-23 22:52:13.13	91.58	25.12	-29.8	-32.1	14.5	7.00e-07	0	44	102	1048576	20	4713
2026-01-23 22:52:14.13	91.87	25.11	-30.0	-32.6	14.3	0.00e+00	0	44	102	1048576	20	4880
2026-01-23 22:52:15.13	92.17	25.11	-30.2	-33.2	13.9	1.50e-06	0	44	102	1048576	20	5102
2026-01-23 22:52:16.13	92.46	25.10	-30.5	-34.0	13.4	1.75e-05	0	44	102	1048576	20	5388
2026-01-23 22:52:17.14	92.76	25.09	-30.5	-33.7	13.2	2.05e-05	0	44	102	1048576	21	5163
2026-01-23 22:52:18.15	93.05	25.08	-30.6	-33.7	13.2	1.90e-05	0	44	102	1048576	21	5169
2026-01-23 22:52:19.16	93.35	25.07	-30.6	-33.9	13.1	1.01e-04	0	44	102	1048576	21	5239
2026-01-23 22:52:20.16	93.64	25.06	-30.7	-34.0	13.0	4.19e-05	0	44	102	1048576	21	5310
2026-01-23 22:52:21.17	93.94	25.05	-30.5	-33.6	13.3	1.90e-05	0	44	102	1048576	21	5141
2026-01-23 22:52:22.17	94.23	25.03	-30.4	-33.3	13.5	3.58e-05	0	44	102	1048576	21	5041
2026-01-23 22:52:23.18	94.53	25.02	-30.3	-33.1	13.6	6.10e-06	0	44	102	1048576	21	4940
2026-01-23 22:52:24.18	94.82	25.00	-30.3	-32.9	13.8	7.00e-07	0	44	102	1048576	21	4889
2026-01-23 22:52:25.19	95.12	24.99	-30.3	-32.9	13.8	3.80e-06	0	44	102	1048576	21	4872
2026-01-23 22:52:26.19	95.41	24.97	-30.1	-32.6	14.0	3.80e-06	0	44	102	1048576	21	4754
2026-01-23 22:52:27.20	95.70	24.96	-30.3	-33.0	13.7	6.10e-06	0	44	102	1048576	21	4903
2026-01-23 22:52:28.21	96.00	24.94	-30.5	-33.6	13.3	1.06e-05	0	44	102	1048576	21	5134
2026-01-23 22:52:29.21	96.29	24.92	-30.5	-33.6	13.3	1.37e-05	0	44	102	1048576	21	5149
2026-01-23 22:52:30.21	96.58	24.90	-30.7	-34.2	12.9	4.65e-05	0	44	102	1048576	21	5381
2026-01-23 22:52:31.22	96.87	24.88	-30.5	-33.6	13.3	2.44e-05	0	44	102	1048576	21	5127
2026-01-23 22:52:32.23	97.16	24.86	-30.2	-32.7	13.8	6.80e-06	0	44	102	1048576	21	4820
2026-01-23 22:52:33.23	97.45	24.84	-29.9	-32.1	14.3	2.20e-06	0	44	102	1048576	21	4594
2026-01-23 22:52:34.24	97.74	24.82	-29.9	-31.8	14.4	1.50e-06	0	44	102	1048576	21	4527
2026-01-23 22:52:35.25	98.04	24.79	-30.0	-32.2	14.2	3.00e-06	0	44	102	1048576	21	4633
2026-01-23 22:52:36.25	98.32	24.77	-29.9	-32.0	14.3	2.20e-06	0	44	102	1048576	21	4590
2026-01-23 22:52:37.26	98.61	24.75	-30.0	-32.3	14.1	1.50e-06	0	44	102	1048576	21	4686
2026-01-23 22:52:38.27	98.90	24.72	-30.2	-32.7	13.8	5.30e-06	0	44	102	1048576	21	4827
2026-01-23 22:52:39.27	99.19	24.70	-30.1	-32.5	14.0	2.20e-06	0	44	102	1048576	21	4754
2026-01-23 22:52:40.27	99.48	24.67	-30.0	-32.3	14.1	7.00e-07	0	44	102	1048576	21	4661
2026-01-23 22:52:41.27	99.76	24.64	-30.0	-32.2	14.2	7.00e-07	0	44	102	1048576	21	4655
2026-01-23 22:52:42.28	100.05	24.61	-30.0	-32.3	14.0	2.20e-06	0	44	102	1048576	21	4674
2026-01-23 22:52:43.29	100.34	24.58	-30.0	-32.1	14.3	1.50e-06	0	44	102	1048576	21	4606
2026-01-23 22:52:44.28	100.62	24.56	-30.1	-32.4	14.0	1.50e-06	0	44	102	1048576	21	4728
2026-01-23 22:52:45.29	100.91	24.53	-30.2	-32.7	13.9	5.30e-06	0	44	102	1048576	21	4802
2026-01-23 22:52:46.29	101.19	24.49	-30.1	-32.5	14.0	3.66e-05	0	44	102	1048576	21	4751
2026-01-23 22:52:47.29	101.47	24.46	-30.1	-32.6	13.9	1.50e-06	0	44	102	1048576	21	4771
2026-01-23 22:52:48.29	101.76	24.43	-30.2	-32.7	13.9	3.80e-06	0	44	102	1048576	21	4812
2026-01-23 22:52:49.29	102.04	24.40	-30.0	-32.2	14.1	4.50e-06	0	44	102	1048576	21	4647
2026-01-23 22:52:50.29	102.32	24.37	-29.9	-32.0	14.3	3.00e-06	0	44	102	1048576	21	4572
2026-01-23 22:52:51.30	102.60	24.33	-29.7	-32.1	14.5	0.00e+00	0	44	102	1048576	20	4709
2026-01-23 22:52:52.30	102.88	24.30	-29.7	-31.8	14.7	7.00e-07	0	44	102	1048576	20	4625
2026-01-23 22:52:53.30	103.16	24.26	-29.5	-31.6	14.9	0.00e+00	0	44	102	1048576	20	4556
2026-01-23 22:52:54.31	103.44	24.23	-29.5	-31.4	15.0	0.00e+00	0	44	102	1048576	20	4493
2026-01-23 22:52:55.31	103.72	24.19	-29.3	-31.5	15.3	0.00e+00	0	44	102	1048576	19	4626
2026-01-23 22:52:56.32	104.00	24.15	-29.3	-31.5	15.3	1.47e-04	0	44	102	1048576	19	4604
2026-01-23 22:52:57.32	104.28	24.11	-29.4	-31.7	15.2	1.31e-04	0	44	102	1048576	19	4675
2026-01-23 22:52:58.33	104.56	24.07	-29.4	-31.7	15.2	0.00e+00	0	44	102	1048576	19	4681
2026-01-23 22:52:59.33	104.83	24.03	-29.2	-31.3	15.4	0.00e+00	0	44	102	1048576	19	4544
2026-01-23 22:53:00.33	105.11	24.00	-29.1	-31.5	15.5	5.87e-05	0	44	102	1048576	18	4736
2026-01-23 22:53:01.33	105.38	23.95	-29.0	-31.3	15.6	0.00e+00	0	44	102	1048576	18	4679
2026-01-23 22:53:02.33	105.66	23.91	-29.0	-31.2	15.8	0.00e+00	0	44	102	1048576	18	4625
2026-01-23 22:53:03.33	105.93	23.87	-29.0	-31.3	15.7	1.90e-04	0	44	102	1048576	18	4652
2026-01-23 22:53:04.34	106.20	23.83	-29.1	-31.5	15.5	3.12e-05	0	44	102	1048576	18	4728
2026-01-23 22:53:05.34	106.48	23.79	-29.1	-31.4	15.6	0.00e+00	0	44	102	1048576	18	4706
2026-01-23 22:53:06.35	106.75	23.74	-29.2	-31.6	15.4	8.16e-05	0	44	102	1048576	18	4775
2026-01-23 22:53:07.35	107.02	23.70	-29.1	-31.5	15.5	6.56e-05	0	44	102	1048576	18	4727
2026-01-23 22:53:08.36	107.29	23.65	-29.1	-31.3	15.6	0.00e+00	0	44	102	1048576	18	4676
2026-01-23 22:53:09.37	107.56	23.61	-29.0	-31.3	15.6	0.00e+00	0	44	102	1048576	18	4665
2026-01-23 22:53:10.37	107.83	23.56	-29.1	-31.5	15.5	2.05e-05	0	44	102	1048576	18	4727
2026-01-23 22:53:11.37	108.10	23.52	-29.3	-31.9	15.2	0.00e+00	0	44	102	1048576	18	4880
2026-01-23 22:53:12.38	108.36	23.47	-29.4	-32.2	15.1	0.00e+00	0	44	102	1048576	18	4958
2026-01-23 22:53:13.39	108.63	23.42	-29.7	-32.3	14.7	3.81e-05	0	44	102	1048576	19	4897
2026-01-23 22:53:14.39	108.90	23.37	-29.7	-32.6	14.5	0.00e+00	0	44	102	1048576	19	4989
2026-01-23 22:53:15.39	109.16	23.32	-29.9	-32.9	14.3	9.23e-05	0	44	102	1048576	19	5113
2026-01-23 22:53:16.39	109.42	23.28	-29.8	-32.8	14.4	6.71e-05	0	44	102	1048576	19	5068
2026-01-23 22:53:17.40	109.69	23.23	-29.8	-32.8	14.4	1.73e-04	0	44	102	1048576	19	5087
2026-01-23 22:53:18.41	109.95	23.18	-29.9	-32.9	14.3	7.09e-05	0	44	102	1048576	19	5095
2026-01-23 22:53:19.41	110.21	23.13	-29.4	-31.7	15.1	1.83e-05	0	44	102	1048576	19	4693
2026-01-23 22:53:20.41	110.47	23.07	-29.2	-31.1	15.4	2.23e-04	0	44	102	1048576	19	4502
2026-01-23 22:53:21.41	110.73	23.02	-29.0	-31.3	15.6	2.28e-04	0	44	102	1048576	18	4668
2026-01-23 22:53:22.42	110.99	22.97	-29.1	-31.6	15.5	0.00e+00	0	44	102	1048576	18	4767
2026-01-23 22:53:23.42	111.25	22.92	-29.2	-31.8	15.3	2.25e-04	0	44	102	1048576	18	4852
2026-01-23 22:53:24.42	111.51	22.86	-29.4	-32.1	15.1	1.38e-04	0	44	102	1048576	18	4947
2026-01-23 22:53:25.43	111.76	22.81	-29.5	-31.9	14.9	3.12e-05	0	44	102	1048576	19	4780
2026-01-23 22:53:26.43	112.02	22.76	-29.4	-31.7	15.0	3.12e-05	0	44	102	1048576	19	4713
2026-01-23 22:53:27.44	112.27	22.70	-29.6	-32.2	14.8	6.40e-05	0	44	102	1048576	19	4863
2026-01-23 22:53:28.44	112.53	22.65	-29.8	-32.8	14.4	6.25e-05	0	44	102	1048576	19	5079
2026-01-23 22:53:29.44	112.78	22.59	-30.0	-33.2	14.1	0.00e+00	0	44	102	1048576	19	5228
2026-01-23 22:53:30.44	113.03	22.54	-30.0	-33.0	13.9	7.00e-07	0	44	102	1048576	20	5038
2026-01-23 22:53:31.45	113.28	22.48	-30.1	-33.1	13.8	4.73e-05	0	44	102	1048576	20	5071
2026-01-23 22:53:32.45	113.53	22.42	-30.1	-33.1	13.7	5.30e-06	0	44	102	1048576	20	5091
2026-01-23 22:53:33.46	113.78	22.37	-30.1	-33.2	13.7	6.80e-06	0	44	102	1048576	20	5120
2026-01-23 22:53:34.45	114.03	22.31	-30.2	-33.3	13.6	4.88e-05	0	44	102	1048576	20	5173
2026-01-23 22:53:35.46	114.28	22.25	-30.1	-33.2	13.7	3.43e-05	0	44	102	1048576	20	5109
2026-01-23 22:53:36.46	114.52	22.19	-30.1	-33.0	13.8	1.50e-06	0	44	102	1048576	20	5060
2026-01-23 22:53:37.46	114.77	22.13	-30.0	-32.8	13.9	3.80e-06	0	44	102	1048576	20	4987
2026-01-23 22:53:38.47	115.02	22.07	-30.0	-32.9	13.9	1.94e-04	0	44	102	1048576	20	5011
2026-01-23 22:53:39.47	115.26	22.01	-30.1	-33.3	13.6	1.81e-04	0	44	102	1048576	20	5153
2026-01-23 22:53:40.48	115.50	21.95	-30.1	-33.3	13.6	1.14e-05	0	44	102	1048576	20	5156
2026-01-23 22:53:41.49	115.75	21.89	-29.9	-32.5	14.1	8.69e-05	0	44	102	1048576	20	4872
2026-01-23 22:53:42.49	115.99	21.83	-29.7	-32.1	14.3	5.49e-05	0	44	102	1048576	20	4752
2026-01-23 22:53:43.50	116.23	21.77	-29.7	-32.1	14.3	2.20e-06	0	44	102	1048576	20	4726
2026-01-23 22:53:44.50	116.47	21.71	-29.8	-32.3	14.2	1.50e-06	0	44	102	1048576	20	4792
2026-01-23 22:53:45.50	116.70	21.65	-29.8	-32.5	14.1	3.96e-05	0	44	102	1048576	20	4875
2026-01-23 22:53:46.51	116.94	21.59	-29.8	-32.5	14.0	4.27e-05	0	44	102	1048576	20	4877
2026-01-23 22:53:47.51	117.18	21.52	-29.9	-32.7	13.9	4.50e-06	0	44	102	1048576	20	4949
2026-01-23 22:53:48.51	117.41	21.46	-30.0	-32.8	13.8	6.80e-06	0	44	102	1048576	20	4992
2026-01-23 22:53:49.51	117.65	21.40	-30.0	-32.9	13.8	8.54e-05	0	44	102	1048576	20	5014
2026-01-23 22:53:50.52	117.88	21.33	-30.0	-32.9	13.7	4.50e-06	0	44	102	1048576	20	5033
2026-01-23 22:53:51.52	118.12	21.27	-30.0	-32.9	13.7	6.80e-06	0	44	102	1048576	20	5017
2026-01-23 22:53:52.53	118.35	21.21	-30.0	-33.0	13.6	4.50e-06	0	44	102	1048576	20	5080
2026-01-23 22:53:53.54	118.58	21.14	-30.0	-32.9	13.7	1.06e-05	0	44	102	1048576	20	5044
2026-01-23 22:53:54.54	118.81	21.08	-29.8	-32.3	14.1	3.00e-06	0	44	102	1048576	20	4808
2026-01-23 22:53:55.54	119.04	21.01	-29.7	-32.1	14.3	0.00e+00	0	44	102	1048576	20	4743
2026-01-23 22:53:56.54	119.27	20.95	-29.8	-32.8	14.2	2.54e-04	0	44	102	1048576	19	5086
2026-01-23 22:53:57.55	119.49	20.88	-29.8	-32.8	14.3	1.50e-06	0	44	102	1048576	19	5071
2026-01-23 22:53:58.55	119.72	20.82	-30.0	-33.3	13.9	2.20e-06	0	44	102	1048576	19	5258
2026-01-23 22:53:59.56	119.95	20.75	-30.1	-33.1	13.7	6.25e-05	0	44	102	1048576	20	5103
2026-01-23 22:54:00.56	120.17	20.68	-30.1	-33.2	13.6	7.60e-06	0	44	102	1048576	20	5129
2026-01-23 22:54:01.57	120.40	20.62	-29.8	-32.3	14.1	5.30e-06	0	44	102	1048576	20	4825
2026-01-23 22:54:02.57	120.62	20.55	-29.6	-31.8	14.5	1.50e-06	0	44	102	1048576	20	4635
2026-01-23 22:54:03.57	120.84	20.48	-29.5	-31.4	14.7	0.00e+00	0	44	102	1048576	20	4520
2026-01-23 22:54:04.57	121.06	20.42	-29.5	-31.5	14.6	0.00e+00	0	44	102	1048576	20	4548
2026-01-23 22:54:05.57	121.28	20.35	-29.6	-31.7	14.5	0.00e+00	0	44	102	1048576	20	4614
2026-01-23 22:54:06.57	121.49	20.28	-29.6	-31.9	14.4	7.00e-07	0	44	102	1048576	20	4668
2026-01-23 22:54:07.58	121.71	20.21	-29.8	-32.2	14.2	0.00e+00	0	44	102	1048576	20	4789
2026-01-23 22:54:08.58	121.93	20.14	-29.7	-32.2	14.2	3.80e-06	0	44	102	1048576	20	4792
2026-01-23 22:54:09.59	122.15	20.07	-29.7	-32.2	14.2	7.00e-07	0	44	102	1048576	20	4792
2026-01-23 22:54:10.59	122.36	20.01	-29.9	-32.5	14.0	2.20e-06	0	44	102	1048576	20	4891
2026-01-23 22:54:11.60	122.58	19.94	-29.8	-32.5	14.0	3.00e-06	0	44	102	1048576	20	4881
2026-01-23 22:54:12.60	122.79	19.87	-29.9	-32.7	13.8	2.20e-06	0	44	102	1048576	20	4969
2026-01-23 22:54:13.61	123.00	19.80	-30.2	-33.4	13.4	1.14e-05	0	44	102	1048576	20	5223
2026-01-23 22:54:14.61	123.21	19.73	-30.4	-34.0	12.9	3.28e-05	0	44	102	1048576	20	5458
2026-01-23 22:54:15.61	123.42	19.66	-30.6	-34.3	12.4	9.84e-05	0	44	102	1048576	21	5484
2026-01-23 22:54:16.61	123.63	19.59	-30.7	-34.4	12.3	1.76e-04	0	44	102	1048576	21	5509
2026-01-23 22:54:17.61	123.84	19.52	-30.6	-34.1	12.5	1.17e-04	0	44	102	1048576	21	5387
2026-01-23 22:54:18.62	124.05	19.45	-30.4	-33.7	12.8	6.79e-05	0	44	102	1048576	21	5238
2026-01-23 22:54:19.62	124.25	19.38	-30.3	-33.4	13.1	4.19e-05	0	44	102	1048576	21	5104
2026-01-23 22:54:20.62	124.46	19.31	-30.5	-33.7	12.8	3.89e-05	0	44	102	1048576	21	5232
2026-01-23 22:54:21.63	124.66	19.24	-30.4	-33.6	12.9	5.79e-05	0	44	102	1048576	21	5181
2026-01-23 22:54:22.64	124.87	19.17	-30.5	-33.8	12.8	5.49e-05	0	44	102	1048576	21	5266
2026-01-23 22:54:23.64	125.07	19.10	-30.7	-34.3	12.4	8.23e-05	0	44	102	1048576	21	5483
2026-01-23 22:54:24.64	125.27	19.02	-30.8	-34.8	12.0	3.04e-04	0	44	102	1048576	21	5708
2026-01-23 22:54:25.64	125.47	18.95	-30.8	-34.8	12.0	3.15e-04	0	44	102	1048576	21	5690
2026-01-23 22:54:26.64	125.67	18.88	-30.7	-34.5	12.2	2.33e-04	0	44	102	1048576	21	5546
2026-01-23 22:54:27.65	125.87	18.81	-30.7	-34.4	12.3	2.17e-04	0	44	102	1048576	21	5526
2026-01-23 22:54:28.66	126.07	18.74	-30.7	-34.4	12.3	1.68e-04	0	44	102	1048576	21	5534
2026-01-23 22:54:29.66	126.27	18.67	-30.6	-34.2	12.4	2.33e-04	0	44	102	1048576	21	5473
2026-01-23 22:54:30.67	126.47	18.59	-30.6	-34.1	12.4	1.83e-04	0	44	102	1048576	21	5411
2026-01-23 22:54:31.67	126.66	18.52	-30.6	-34.2	12.3	1.46e-04	0	44	102	1048576	21	5468
2026-01-23 22:54:32.67	126.86	18.45	-30.8	-34.9	12.0	2.40e-04	0	44	102	1048576	21	5723
2026-01-23 22:54:33.67	127.05	18.38	-31.0	-34.9	11.6	5.39e-04	0	44	102	1048576	22	5607
2026-01-23 22:54:34.68	127.24	18.31	-31.1	-35.1	11.5	8.27e-04	0	44	102	1048576	22	5693
2026-01-23 22:54:35.68	127.44	18.23	-31.2	-35.5	11.1	9.40e-04	0	44	102	1048576	22	5905
2026-01-23 22:54:36.68	127.63	18.16	-31.0	-34.8	11.6	1.63e-03	0	44	102	1048576	22	5590
2026-01-23 22:54:37.69	127.82	18.09	-30.6	-33.7	12.4	3.83e-04	0	44	102	1048576	22	5138
2026-01-23 22:54:38.69	128.01	18.02	-30.3	-33.5	12.8	1.08e-04	0	44	102	1048576	21	5185
2026-01-23 22:54:39.70	128.20	17.94	-30.5	-33.9	12.5	5.18e-05	0	44	102	1048576	21	5337
2026-01-23 22:54:40.70	128.38	17.87	-30.6	-34.3	12.3	2.01e-04	0	44	102	1048576	21	5520
2026-01-23 22:54:41.70	128.57	17.80	-30.7	-34.4	12.2	3.42e-04	0	44	102	1048576	21	5561
2026-01-23 22:54:42.71	128.76	17.72	-30.8	-34.8	11.9	4.25e-04	0	44	102	1048576	21	5695
2026-01-23 22:54:43.71	128.94	17.65	-30.7	-34.5	12.2	3.81e-04	0	44	102	1048576	21	5560
2026-01-23 22:54:44.71	129.12	17.58	-30.5	-33.9	12.6	2.72e-04	0	44	102	1048576	21	5303
2026-01-23 22:54:45.72	129.31	17.50	-30.3	-33.2	13.0	1.48e-04	0	44	102	1048576	21	5060
2026-01-23 22:54:46.72	129.49	17.43	-30.1	-33.2	13.3	1.90e-05	0	44	102	1048576	20	5172
2026-01-23 22:54:47.72	129.67	17.36	-29.9	-32.8	13.6	3.23e-04	0	44	102	1048576	20	5019
2026-01-23 22:54:48.72	129.85	17.28	-29.7	-32.2	14.0	6.48e-05	0	44	102	1048576	20	4796
2026-01-23 22:54:49.72	130.03	17.21	-29.8	-32.4	13.9	6.10e-06	0	44	102	1048576	20	4862
2026-01-23 22:54:50.72	130.21	17.14	-30.2	-33.5	13.1	1.44e-05	0	44	102	1048576	20	5266
2026-01-23 22:54:51.72	130.39	17.06	-30.4	-34.2	12.7	6.33e-05	0	44	102	1048576	20	5549
2026-01-23 22:54:52.72	130.56	16.99	-30.7	-34.6	12.0	1.41e-04	0	44	102	1048576	21	5642
2026-01-23 22:54:53.73	130.74	16.92	-30.8	-34.9	11.8	5.59e-04	0	44	102	1048576	21	5756
2026-01-23 22:54:54.73	130.92	16.84	-30.8	-34.8	11.8	5.39e-04	0	44	102	1048576	21	5719
2026-01-23 22:54:55.74	131.09	16.77	-30.8	-34.8	11.8	5.33e-04	0	44	102	1048576	21	5739
2026-01-23 22:54:56.74	131.27	16.70	-30.5	-34.1	12.3	4.86e-04	0	44	102	1048576	21	5422
2026-01-23 22:54:57.74	131.44	16.62	-30.3	-33.3	12.8	2.07e-04	0	44	102	1048576	21	5105
2026-01-23 22:54:58.75	131.61	16.55	-30.1	-32.8	13.1	4.80e-05	0	44	102	1048576	21	4936
2026-01-23 22:54:59.75	131.78	16.48	-30.1	-32.7	13.3	1.62e-04	0	44	102	1048576	21	4876
2026-01-23 22:55:00.76	131.95	16.40	-30.2	-33.1	13.0	7.55e-05	0	44	102	1048576	21	5044
2026-01-23 22:55:01.77	132.12	16.33	-30.3	-33.9	12.8	2.39e-04	0	44	102	1048576	20	5438
2026-01-23 22:55:02.77	132.29	16.25	-30.4	-34.1	12.6	1.75e-04	0	44	102	1048576	20	5556
2026-01-23 22:55:03.78	132.46	16.18	-30.3	-34.0	12.6	1.23e-04	0	44	102	1048576	20	5504
2026-01-23 22:55:04.79	132.63	16.10	-30.3	-33.9	12.7	1.20e-04	0	44	102	1048576	20	5484
2026-01-23 22:55:05.79	132.80	16.03	-30.3	-33.9	12.7	1.36e-04	0	44	102	1048576	20	5480
2026-01-23 22:55:06.80	132.96	15.96	-30.4	-34.2	12.5	1.12e-04	0	44	102	1048576	20	5586
2026-01-23 22:55:07.80	133.13	15.88	-30.2	-33.8	12.7	1.36e-04	0	44	102	1048576	20	5422
2026-01-23 22:55:08.81	133.29	15.81	-30.2	-33.6	12.9	1.56e-04	0	44	102	1048576	20	5325
2026-01-23 22:55:09.82	133.46	15.73	-30.3	-33.9	12.7	1.48e-04	0	44	102	1048576	20	5479
2026-01-23 22:55:10.82	133.62	15.66	-30.3	-34.1	12.5	1.12e-04	0	44	102	1048576	20	5557
2026-01-23 22:55:11.82	133.78	15.59	-30.4	-34.5	12.2	2.03e-04	0	44	102	1048576	20	5739
2026-01-23 22:55:12.83	133.94	15.51	-30.5	-34.7	12.1	2.77e-04	0	44	102	1048576	20	5836
2026-01-23 22:55:13.83	134.10	15.44	-30.5	-34.4	11.8	3.90e-04	0	44	102	1048576	21	5633
2026-01-23 22:55:14.83	134.26	15.36	-30.6	-34.7	11.6	6.24e-04	0	44	102	1048576	21	5776
2026-01-23 22:55:15.83	134.42	15.29	-30.5	-34.3	11.8	6.51e-04	0	44	102	1048576	21	5610
2026-01-23 22:55:16.84	134.58	15.22	-30.2	-33.6	12.4	5.08e-04	0	44	102	1048576	21	5297
2026-01-23 22:55:17.84	134.74	15.14	-30.1	-33.6	12.7	5.65e-04	0	44	102	1048576	20	5407
2026-01-23 22:55:18.85	134.90	15.07	-30.1	-33.7	12.6	8.31e-05	0	44	102	1048576	20	5428
2026-01-23 22:55:19.85	135.05	15.00	-30.1	-33.5	12.8	3.16e-04	0	44	102	1048576	20	5338
2026-01-23 22:55:20.85	135.20	14.92	-30.1	-33.5	12.8	5.45e-04	0	44	102	1048576	20	5347
2026-01-23 22:55:21.86	135.36	14.85	-30.2	-33.7	12.7	8.16e-05	0	44	102	1048576	20	5388
2026-01-23 22:55:22.87	135.51	14.77	-30.2	-33.7	12.7	1.12e-04	0	44	102	1048576	20	5395
2026-01-23 22:55:23.88	135.67	14.70	-30.2	-33.7	12.7	1.31e-04	0	44	102	1048576	20	5411
2026-01-23 22:55:24.88	135.82	14.63	-30.3	-33.9	12.5	1.02e-04	0	44	102	1048576	20	5488
2026-01-23 22:55:25.89	135.97	14.55	-30.2	-33.8	12.6	1.62e-04	0	44	102	1048576	20	5454
2026-01-23 22:55:26.89	136.12	14.48	-30.2	-33.8	12.6	1.44e-04	0	44	102	1048576	20	5439
2026-01-23 22:55:27.90	136.27	14.41	-30.2	-33.8	12.6	3.04e-04	0	44	102	1048576	20	5455
2026-01-23 22:55:28.90	136.42	14.33	-30.2	-33.9	12.5	1.08e-04	0	44	102	1048576	20	5512
2026-01-23 22:55:29.91	136.57	14.26	-30.2	-33.9	12.5	2.08e-04	0	44	102	1048576	20	5511
2026-01-23 22:55:30.92	136.72	14.19	-30.2	-33.8	12.5	1.04e-04	0	44	102	1048576	20	5442
2026-01-23 22:55:31.93	136.87	14.11	-30.2	-33.9	12.5	1.12e-04	0	44	102	1048576	20	5484
2026-01-23 22:55:32.93	137.01	14.04	-30.3	-34.1	12.3	1.75e-04	0	44	102	1048576	20	5590
2026-01-23 22:55:33.94	137.16	13.96	-30.2	-33.8	12.5	1.51e-04	0	44	102	1048576	20	5444
2026-01-23 22:55:34.95	137.31	13.89	-30.1	-33.6	12.7	9.84e-05	0	44	102	1048576	20	5376
2026-01-23 22:55:35.95	137.45	13.82	-30.2	-33.8	12.5	1.05e-04	0	44	102	1048576	20	5449
2026-01-23 22:55:36.96	137.60	13.74	-30.2	-33.9	12.4	1.23e-04	0	44	102	1048576	20	5500
2026-01-23 22:55:37.97	137.74	13.67	-30.1	-33.6	12.6	1.11e-04	0	44	102	1048576	20	5368
2026-01-23 22:55:38.97	137.88	13.60	-30.0	-33.3	12.8	7.85e-05	0	44	102	1048576	20	5253
2026-01-23 22:55:39.97	138.02	13.53	-30.0	-33.4	12.7	5.56e-05	0	44	102	1048576	20	5298
2026-01-23 22:55:40.98	138.16	13.45	-30.1	-33.6	12.6	1.46e-04	0	44	102	1048576	20	5385
2026-01-23 22:55:41.98	138.30	13.38	-30.1	-33.6	12.6	9.84e-05	0	44	102	1048576	20	5376
2026-01-23 22:55:42.99	138.44	13.31	-30.1	-33.7	12.5	8.54e-05	0	44	102	1048576	20	5421
2026-01-23 22:55:44.00	138.58	13.23	-30.2	-34.1	12.3	1.83e-04	0	44	102	1048576	20	5587
2026-01-23 22:55:45.00	138.72	13.16	-30.2	-34.0	12.3	1.76e-04	0	44	102	1048576	20	5574
2026-01-23 22:55:46.00	138.86	13.09	-30.3	-34.1	12.2	1.80e-04	0	44	102	1048576	20	5617
2026-01-23 22:55:47.00	139.00	13.02	-30.3	-34.4	12.0	2.62e-04	0	44	102	1048576	20	5752
2026-01-23 22:55:48.01	139.13	12.95	-30.3	-34.2	12.1	3.31e-04	0	44	102	1048576	20	5661
2026-01-23 22:55:49.01	139.27	12.87	-30.3	-34.4	12.0	3.16e-04	0	44	102	1048576	20	5733
2026-01-23 22:55:50.01	139.40	12.80	-30.3	-34.4	12.0	3.38e-04	0	44	102	1048576	20	5751
2026-01-23 22:55:51.01	139.54	12.73	-30.4	-34.7	11.8	4.10e-04	0	44	102	1048576	20	5888
2026-01-23 22:55:52.01	139.67	12.66	-30.4	-34.5	11.9	4.97e-04	0	44	102	1048576	20	5791
2026-01-23 22:55:53.01	139.80	12.59	-30.4	-34.6	11.8	4.52e-04	0	44	102	1048576	20	5845
2026-01-23 22:55:54.02	139.94	12.51	-30.6	-34.8	11.3	6.56e-04	0	44	102	1048576	21	5808
2026-01-23 22:55:55.03	140.07	12.44	-30.4	-34.1	11.8	6.36e-04	0	44	102	1048576	21	5513
2026-01-23 22:55:56.03	140.20	12.37	-30.2	-33.5	12.2	4.23e-04	0	44	102	1048576	21	5282
2026-01-23 22:55:57.03	140.33	12.30	-30.1	-33.9	12.2	2.26e-04	0	44	102	1048576	20	5534
2026-01-23 22:55:58.04	140.46	12.23	-30.1	-33.8	12.3	1.95e-04	0	44	102	1048576	20	5502
2026-01-23 22:55:59.04	140.59	12.15	-30.2	-34.1	12.1	3.03e-04	0	44	102	1048576	20	5628
2026-01-23 22:56:00.05	140.72	12.08	-30.2	-34.1	12.1	3.73e-04	0	44	102	1048576	20	5633
2026-01-23 22:56:01.04	140.85	12.01	-30.3	-34.3	11.9	3.29e-04	0	44	102	1048576	20	5727
2026-01-23 22:56:02.04	140.97	11.94	-30.3	-34.2	11.9	4.49e-04	0	44	102	1048576	20	5691
2026-01-23 22:56:03.05	141.10	11.87	-30.4	-34.7	11.6	6.94e-04	0	44	102	1048576	20	5910
2026-01-23 22:56:04.05	141.23	11.80	-30.4	-34.7	11.6	6.58e-04	0	44	102	1048576	20	5905
2026-01-23 22:56:05.05	141.35	11.73	-30.6	-34.9	11.0	1.72e-03	0	44	102	1048576	21	5909
2026-01-23 22:56:06.05	141.48	11.66	-30.5	-34.7	11.1	1.98e-03	0	44	102	1048576	21	5826
2026-01-23 22:56:07.06	141.60	11.59	-30.7	-35.3	10.8	1.80e-03	0	44	102	1048576	21	6074
2026-01-23 22:56:08.06	141.73	11.52	-30.7	-35.3	10.7	2.89e-03	0	44	102	1048576	21	6115
2026-01-23 22:56:09.06	141.85	11.45	-30.8	-35.7	10.4	4.41e-03	0	44	102	1048576	21	6312
2026-01-23 22:56:10.07	141.97	11.37	-30.8	-35.6	10.4	4.82e-03	0	44	102	1048576	21	6279
2026-01-23 22:56:11.07	142.10	11.30	-31.0	-36.3	9.9	6.13e-03	0	44	102	1048576	21	6616
2026-01-23 22:56:12.07	142.22	11.23	-31.0	-36.4	9.8	9.32e-03	0	44	102	1048576	21	6712
2026-01-23 22:56:13.08	142.34	11.16	-31.0	-36.4	9.8	9.66e-03	0	44	102	1048576	21	6693
2026-01-23 22:56:14.08	142.46	11.09	-31.0	-35.9	9.8	1.01e-02	0	44	102	1048576	22	6324
2026-01-23 22:56:15.08	142.58	11.02	-31.0	-35.8	9.9	8.89e-03	0	44	102	1048576	22	6253
2026-01-23 22:56:16.08	142.70	10.95	-30.9	-36.2	9.9	9.39e-03	0	44	102	1048576	21	6592
2026-01-23 22:56:17.09	142.82	10.88	-30.9	-36.0	10.1	7.93e-03	0	44	102	1048576	21	6492
2026-01-23 22:56:18.09	142.94	10.81	-30.8	-35.9	10.1	7.20e-03	0	44	102	1048576	21	6423
2026-01-23 22:56:19.09	143.05	10.74	-30.8	-36.0	10.0	8.76e-03	0	44	102	1048576	21	6528
2026-01-23 22:56:20.10	143.17	10.67	-31.0	-36.0	9.7	9.28e-03	0	44	102	1048576	22	6392
2026-01-23 22:56:21.10	143.29	10.60	-30.9	-36.1	9.9	1.10e-02	0	44	102	1048576	21	6561
2026-01-23 22:56:22.10	143.40	10.54	-30.8	-35.7	10.2	7.48e-03	0	44	102	1048576	21	6329
2026-01-23 22:56:23.10	143.52	10.47	-30.7	-35.6	10.3	5.63e-03	0	44	102	1048576	21	6289
2026-01-23 22:56:24.10	143.63	10.40	-30.7	-35.5	10.3	5.46e-03	0	44	102	1048576	21	6238
2026-01-23 22:56:25.11	143.75	10.33	-30.6	-35.3	10.4	5.03e-03	0	44	102	1048576	21	6158
2026-01-23 22:56:26.11	143.86	10.26	-30.7	-35.6	10.2	7.08e-03	0	44	102	1048576	21	6346
2026-01-23 22:56:27.12	143.98	10.19	-30.6	-35.2	10.5	5.09e-03	0	44	102	1048576	21	6127
2026-01-23 22:56:28.12	144.09	10.12	-30.6	-35.1	10.6	3.42e-03	0	44	102	1048576	21	6049
2026-01-23 22:56:29.13	144.20	10.05	-30.6	-35.1	10.6	4.89e-03	0	44	102	1048576	21	6062
2026-01-23 22:56:30.14	144.32	9.98	-30.5	-34.8	10.7	3.19e-03	0	44	102	1048576	21	5944
2026-01-23 22:56:31.15	144.43	9.91	-30.5	-35.0	10.6	2.83e-03	0	44	102	1048576	21	6024
2026-01-23 22:56:32.15	144.54	9.84	-30.5	-35.1	10.6	5.28e-03	0	44	102	1048576	21	6055
2026-01-23 22:56:33.16	144.65	9.78	-30.5	-35.1	10.5	3.79e-03	0	44	102	1048576	21	6071
2026-01-23 22:56:34.17	144.76	9.71	-30.5	-35.0	10.6	3.48e-03	0	44	102	1048576	21	6032
2026-01-23 22:56:35.16	144.87	9.64	-30.6	-35.4	10.3	6.82e-03	0	44	102	1048576	21	6205
2026-01-23 22:56:36.17	144.98	9.57	-30.6	-35.3	10.4	3.90e-03	0	44	102	1048576	21	6140
2026-01-23 22:56:37.18	145.09	9.50	-30.7	-35.7	10.1	7.74e-03	0	44	102	1048576	21	6349
2026-01-23 22:56:38.18	145.20	9.43	-30.6	-35.3	10.4	5.34e-03	0	44	102	1048576	21	6160
2026-01-23 22:56:39.19	145.31	9.37	-30.8	-35.8	10.0	7.40e-03	0	44	102	1048576	21	6437
2026-01-23 22:56:40.19	145.41	9.30	-30.7	-35.6	10.2	8.91e-03	0	44	102	1048576	21	6330
2026-01-23 22:56:41.20	145.52	9.23	-30.8	-35.8	9.9	9.45e-03	0	44	102	1048576	21	6470
2026-01-23 22:56:42.20	145.63	9.16	-30.8	-36.2	9.7	1.20e-02	0	44	102	1048576	21	6681
2026-01-23 22:56:43.21	145.73	9.10	-30.7	-35.7	10.0	1.10e-02	0	44	102	1048576	21	6427
2026-01-23 22:56:44.22	145.84	9.03	-30.5	-35.1	10.5	6.54e-03	0	44	102	1048576	21	6118
2026-01-23 22:56:45.22	145.94	8.96	-30.5	-35.0	10.6	3.51e-03	0	44	102	1048576	21	6028
2026-01-23 22:56:46.22	146.05	8.89	-30.4	-35.1	10.9	4.86e-03	0	44	102	1048576	20	6206
2026-01-23 22:56:47.23	146.15	8.83	-30.3	-34.9	11.0	3.64e-03	0	44	102	1048576	20	6117
2026-01-23 22:56:48.24	146.26	8.76	-30.2	-34.5	11.3	1.57e-03	0	44	102	1048576	20	5911
2026-01-23 22:56:49.24	146.36	8.69	-30.2	-34.4	11.4	3.03e-03	0	44	102	1048576	20	5860
2026-01-23 22:56:50.25	146.46	8.62	-30.2	-34.4	11.3	3.40e-03	0	44	102	1048576	20	5885
2026-01-23 22:56:51.25	146.56	8.56	-30.1	-34.3	11.4	1.21e-03	0	44	102	1048576	20	5835
2026-01-23 22:56:52.26	146.67	8.49	-30.0	-34.0	11.6	7.22e-04	0	44	102	1048576	20	5688
2026-01-23 22:56:53.27	146.77	8.42	-30.0	-33.9	11.7	3.01e-03	0	44	102	1048576	20	5666
2026-01-23 22:56:54.27	146.87	8.36	-30.0	-33.9	11.6	8.13e-04	0	44	102	1048576	20	5680
2026-01-23 22:56:55.28	146.97	8.29	-30.0	-34.1	11.5	9.39e-04	0	44	102	1048576	20	5793
2026-01-23 22:56:56.28	147.07	8.23	-30.0	-34.2	11.3	3.40e-03	0	44	102	1048576	20	5865
2026-01-23 22:56:57.28	147.17	8.16	-30.0	-34.4	11.2	1.26e-03	0	44	102	1048576	20	5938
2026-01-23 22:56:58.29	147.27	8.09	-29.5	-34.0	10.9	4.32e-03	0	44	102	1048576	20	6055
2026-01-23 22:56:59.29	147.37	8.03	-30.0	-34.3	11.1	1.32e-03	0	44	102	1048576	20	5942
2026-01-23 22:57:00.29	147.46	7.96	-30.1	-34.6	11.0	1.69e-03	0	44	102	1048576	20	6059
2026-01-23 22:57:01.29	147.56	7.90	-30.1	-34.7	10.8	4.82e-03	0	44	102	1048576	20	6157
2026-01-23 22:57:02.30	147.66	7.83	-30.1	-34.8	10.7	2.86e-03	0	44	102	1048576	20	6205
2026-01-23 22:57:03.30	147.76	7.77	-30.3	-35.3	10.5	3.41e-03	0	44	102	1048576	20	6426
2026-01-23 22:57:04.31	147.85	7.70	-30.2	-35.3	10.4	7.31e-03	0	44	102	1048576	20	6419
2026-01-23 22:57:05.31	147.95	7.63	-30.3	-35.3	10.4	7.12e-03	0	44	102	1048576	20	6412
2026-01-23 22:57:06.31	148.05	7.57	-30.4	-35.5	10.3	4.54e-03	0	44	102	1048576	20	6507
2026-01-23 22:57:07.32	148.14	7.50	-30.4	-35.5	10.3	7.12e-03	0	44	102	1048576	20	6476
2026-01-23 22:57:08.32	148.24	7.44	-30.5	-35.7	10.1	7.26e-03	0	44	102	1048576	20	6596
2026-01-23 22:57:09.32	148.33	7.37	-30.5	-35.5	10.0	7.34e-03	0	44	102	1048576	21	6335
2026-01-23 22:57:10.32	148.42	7.31	-30.6	-35.7	9.8	1.06e-02	0	44	102	1048576	21	6464
2026-01-23 22:57:11.33	148.52	7.25	-30.1	-34.7	10.3	9.72e-03	0	44	102	1048576	21	6114
2026-01-23 22:57:12.33	148.61	7.18	-30.3	-34.8	10.4	4.68e-03	0	44	102	1048576	21	6072
2026-01-23 22:57:13.33	148.70	7.12	-30.1	-35.0	10.5	3.59e-03	0	44	102	1048576	20	6315
2026-01-23 22:57:14.34	148.80	7.05	-32.0	-43.9	4.4	5.04e-03	0	44	102	1048576	23	14200

#Closed at: 2026-01-23 22:57:15
#Recorded file [1 MB]: D:/data/31010_260124_014654.dat