passes_logs/2026/01/23/R2M6_AANII_01/R2M6_AANII_01__20260123_122119_NOAA_20_JPSS-1_rec.log

#Pass ID: 20260123_122119_NOAA 20 (JPSS-1)
#Satellite: NOAA 20 (JPSS-1)
#Configuration: NOAA 20
#almurnet v.1.7.20240730
#Start time: 2026-01-23 12:22:09

#Version: 2.2.20231116
#Station: R2M6_AANII_01
#Location: 30.233357 lon 59.946436 lat
#TLE: 1 43013U 17073A   26022.44900781  .00000193  00000+0  11233-3 0  9999
#TLE: 2 43013  98.7645 323.3100 0001197  28.8413 331.2829 14.19538802423792

#Time	Az	El	Level	Level2	SNR	BER	BlckErr	Temp	State	Recorded	gain1	gain2
2026-01-23 12:22:09.66	235.36	9.72	-34.2	-53.5	3.8	7.46e-01	0	43	0	0	29	33048
2026-01-23 12:22:10.65	235.50	9.78	-34.1	-47.8	3.8	1.49e+00	0	43	104	0	29	17497
2026-01-23 12:22:11.66	235.64	9.83	-34.1	-47.9	3.8	1.49e+00	0	43	104	0	29	17601
2026-01-23 12:22:12.66	235.78	9.88	-34.2	-48.1	3.8	1.49e+00	0	43	104	0	29	17758
2026-01-23 12:22:13.67	235.92	9.94	-34.3	-48.2	3.8	1.49e+00	0	43	104	0	29	17789
2026-01-23 12:22:14.67	236.06	9.99	-34.3	-48.3	3.8	1.49e+00	0	43	104	0	29	17925
2026-01-23 12:22:15.68	236.21	10.04	-34.4	-48.4	3.8	1.49e+00	0	43	104	0	29	18021
2026-01-23 12:22:16.68	236.35	10.10	-34.5	-48.5	3.8	1.49e+00	0	43	104	0	29	18178
2026-01-23 12:22:17.68	236.50	10.15	-34.5	-48.5	3.8	1.49e+00	0	43	104	0	29	18187
2026-01-23 12:22:18.69	236.64	10.20	-34.5	-48.5	3.8	1.49e+00	0	43	104	0	29	18182
2026-01-23 12:22:19.69	236.79	10.26	-34.5	-48.5	3.8	1.49e+00	0	43	104	0	29	18081
2026-01-23 12:22:20.69	236.93	10.31	-34.5	-48.5	3.8	1.49e+00	0	43	104	0	29	18093
2026-01-23 12:22:21.70	237.08	10.36	-34.4	-48.5	3.8	1.49e+00	0	43	104	0	29	18122
2026-01-23 12:22:22.70	237.22	10.42	-34.4	-48.5	3.8	1.49e+00	0	43	104	0	29	18116
2026-01-23 12:22:23.71	237.37	10.47	-34.4	-48.5	3.8	1.49e+00	0	43	104	0	29	18104
2026-01-23 12:22:24.71	237.52	10.52	-34.5	-48.5	3.8	1.49e+00	0	43	104	0	29	18129
2026-01-23 12:22:25.72	237.67	10.58	-34.4	-48.4	3.8	1.49e+00	0	43	104	0	29	17990
2026-01-23 12:22:26.72	237.82	10.63	-34.3	-48.3	3.8	1.49e+00	0	43	104	0	29	17902
2026-01-23 12:22:27.73	237.97	10.68	-34.3	-48.2	3.8	1.49e+00	0	43	104	0	29	17840
2026-01-23 12:22:28.73	238.12	10.74	-34.3	-48.1	3.8	1.49e+00	0	43	104	0	29	17764
2026-01-23 12:22:29.74	238.27	10.79	-34.2	-48.0	3.8	1.49e+00	0	43	104	0	29	17631
2026-01-23 12:22:30.75	238.42	10.84	-34.2	-47.9	3.8	1.49e+00	0	43	104	0	29	17543
2026-01-23 12:22:31.75	238.57	10.90	-34.1	-47.9	3.8	1.49e+00	0	43	104	0	29	17517
2026-01-23 12:22:32.75	238.72	10.95	-34.1	-47.9	3.8	1.49e+00	0	43	104	0	29	17513
2026-01-23 12:22:33.76	238.88	11.00	-34.1	-47.8	3.8	1.49e+00	0	43	104	0	29	17415
2026-01-23 12:22:34.76	239.03	11.05	-34.1	-47.7	3.8	1.49e+00	0	43	104	0	29	17368
2026-01-23 12:22:35.77	239.18	11.11	-34.0	-47.7	3.8	1.49e+00	0	43	104	0	29	17341
2026-01-23 12:22:36.77	239.34	11.16	-34.0	-47.6	3.8	1.49e+00	0	43	104	0	29	17172
2026-01-23 12:22:37.78	239.49	11.21	-33.9	-47.4	3.8	1.49e+00	0	43	104	0	29	17056
2026-01-23 12:22:38.78	239.65	11.26	-33.8	-47.2	3.8	1.49e+00	0	43	104	0	29	16791
2026-01-23 12:22:39.78	239.80	11.31	-33.7	-47.5	3.8	1.49e+00	0	43	104	0	28	17588
2026-01-23 12:22:40.79	239.96	11.37	-33.6	-47.1	3.8	1.49e+00	0	43	104	0	28	17057
2026-01-23 12:22:41.79	240.12	11.42	-33.4	-46.4	3.8	1.49e+00	0	43	104	0	28	16056
2026-01-23 12:22:42.79	240.27	11.47	-33.3	-46.4	3.8	1.49e+00	0	43	104	0	28	16134
2026-01-23 12:22:43.80	240.43	11.52	-33.3	-46.4	3.8	1.49e+00	0	43	104	0	28	16281
2026-01-23 12:22:44.80	240.59	11.57	-33.3	-46.5	3.8	1.49e+00	0	43	104	0	28	16348
2026-01-23 12:22:45.81	240.75	11.63	-33.3	-46.5	3.8	1.49e+00	0	43	104	0	28	16419
2026-01-23 12:22:46.81	240.91	11.68	-33.3	-46.5	3.8	1.49e+00	0	43	104	0	28	16371
2026-01-23 12:22:47.82	241.07	11.73	-33.3	-46.5	3.8	1.49e+00	0	43	104	0	28	16327
2026-01-23 12:22:48.82	241.23	11.78	-33.3	-46.4	3.8	1.49e+00	0	43	104	0	28	16162
2026-01-23 12:22:49.81	241.39	11.83	-33.3	-46.3	3.8	1.49e+00	0	43	104	0	28	16005
2026-01-23 12:22:50.82	241.55	11.88	-33.3	-46.3	3.8	1.49e+00	0	43	104	0	28	16084
2026-01-23 12:22:51.82	241.71	11.93	-33.3	-46.5	3.8	1.49e+00	0	43	104	0	28	16386
2026-01-23 12:22:52.82	241.88	11.98	-33.3	-46.7	3.8	1.49e+00	0	43	104	0	28	16762
2026-01-23 12:22:53.83	242.04	12.03	-33.3	-46.4	3.8	1.49e+00	0	43	104	0	28	16173
2026-01-23 12:22:54.83	242.20	12.09	-33.3	-45.3	3.8	1.49e+00	0	43	104	0	27	14390
2026-01-23 12:22:55.84	242.37	12.14	-33.0	-42.4	4.1	1.48e+00	0	43	104	0	27	10563
2026-01-23 12:22:56.85	242.54	12.19	-32.6	-39.7	6.2	4.09e-01	0	43	104	0	26	8090
2026-01-23 12:22:57.85	242.70	12.24	-32.1	-37.5	8.2	1.10e-01	0	43	102	1048576	25	6700
2026-01-23 12:22:58.86	242.87	12.29	-31.5	-35.7	10.0	2.33e-02	0	43	102	1048576	24	5838
2026-01-23 12:22:59.86	243.03	12.34	-31.0	-34.5	11.2	2.02e-03	0	43	102	1048576	23	5378
2026-01-23 12:23:00.87	243.20	12.39	-30.7	-34.0	12.0	5.28e-04	0	43	102	1048576	22	5277
2026-01-23 12:23:01.87	243.37	12.44	-30.6	-33.8	12.1	2.61e-04	0	43	102	1048576	22	5187
2026-01-23 12:23:02.88	243.54	12.49	-30.7	-34.2	11.8	3.53e-04	0	43	102	1048576	22	5361
2026-01-23 12:23:03.89	243.71	12.54	-31.1	-35.4	11.0	1.14e-03	0	43	102	1048576	22	5887
2026-01-23 12:23:04.89	243.88	12.59	-31.4	-36.3	10.3	3.90e-03	0	43	102	1048576	22	6334
2026-01-23 12:23:05.89	244.05	12.64	-31.2	-35.6	10.8	4.25e-03	0	43	102	1048576	22	5996
2026-01-23 12:23:06.89	244.22	12.69	-31.3	-36.1	10.4	3.40e-03	0	43	102	1048576	22	6248
2026-01-23 12:23:07.90	244.39	12.74	-31.2	-35.7	10.7	3.70e-03	0	43	102	1048576	22	6036
2026-01-23 12:23:08.91	244.56	12.79	-31.0	-35.1	11.2	1.98e-03	0	43	102	1048576	22	5754
2026-01-23 12:23:09.91	244.73	12.83	-30.9	-34.6	11.6	8.89e-04	0	43	102	1048576	22	5532
2026-01-23 12:23:10.92	244.91	12.88	-30.8	-34.3	11.8	6.12e-04	0	43	102	1048576	22	5391
2026-01-23 12:23:11.92	245.08	12.93	-30.7	-33.9	12.1	3.06e-04	0	43	102	1048576	22	5223
2026-01-23 12:23:12.93	245.25	12.98	-30.6	-33.7	12.2	2.40e-04	0	43	102	1048576	22	5168
2026-01-23 12:23:13.92	245.43	13.03	-30.6	-33.7	12.3	2.07e-04	0	43	102	1048576	22	5132
2026-01-23 12:23:14.93	245.60	13.08	-30.6	-33.7	12.3	1.75e-04	0	43	102	1048576	22	5136
2026-01-23 12:23:15.93	245.78	13.12	-30.8	-34.4	11.7	2.68e-04	0	43	102	1048576	22	5427
2026-01-23 12:23:16.93	245.95	13.17	-30.6	-33.7	12.2	2.82e-04	0	43	102	1048576	22	5140
2026-01-23 12:23:17.94	246.13	13.22	-30.3	-32.9	12.8	1.11e-04	0	43	102	1048576	22	4855
2026-01-23 12:23:18.94	246.31	13.27	-30.1	-32.8	13.1	3.89e-05	0	43	102	1048576	21	4920
2026-01-23 12:23:19.95	246.49	13.32	-30.3	-33.5	12.8	4.11e-05	0	43	102	1048576	21	5155
2026-01-23 12:23:20.94	246.66	13.36	-30.2	-33.1	13.0	3.89e-05	0	43	102	1048576	21	5017
2026-01-23 12:23:21.95	246.84	13.41	-30.2	-33.1	13.0	4.34e-05	0	43	102	1048576	21	5016
2026-01-23 12:23:22.95	247.02	13.46	-30.3	-33.3	12.8	3.66e-05	0	43	102	1048576	21	5104
2026-01-23 12:23:23.96	247.20	13.50	-30.2	-33.2	12.9	5.26e-05	0	43	102	1048576	21	5051
2026-01-23 12:23:24.96	247.38	13.55	-30.3	-33.3	12.9	4.65e-05	0	43	102	1048576	21	5093
2026-01-23 12:23:25.97	247.56	13.60	-30.4	-33.6	12.6	5.87e-05	0	43	102	1048576	21	5214
2026-01-23 12:23:26.97	247.74	13.64	-30.3	-33.3	12.8	5.79e-05	0	43	102	1048576	21	5103
2026-01-23 12:23:27.98	247.93	13.69	-30.2	-33.0	13.1	4.04e-05	0	43	102	1048576	21	4971
2026-01-23 12:23:28.98	248.11	13.74	-30.1	-32.8	13.2	2.51e-05	0	43	102	1048576	21	4899
2026-01-23 12:23:29.98	248.29	13.78	-30.2	-33.0	13.1	2.89e-05	0	43	102	1048576	21	4993
2026-01-23 12:23:30.98	248.47	13.83	-30.3	-33.3	12.9	3.58e-05	0	43	102	1048576	21	5083
2026-01-23 12:23:31.99	248.66	13.87	-30.3	-33.4	12.9	4.42e-05	0	43	102	1048576	21	5125
2026-01-23 12:23:32.99	248.84	13.92	-30.4	-33.5	12.7	5.95e-05	0	43	102	1048576	21	5180
2026-01-23 12:23:34.00	249.03	13.96	-30.5	-33.8	12.5	8.39e-05	0	43	102	1048576	21	5299
2026-01-23 12:23:35.00	249.22	14.01	-30.6	-34.2	12.3	1.62e-04	0	43	102	1048576	21	5458
2026-01-23 12:23:36.00	249.40	14.05	-30.5	-34.1	12.4	1.59e-04	0	43	102	1048576	21	5389
2026-01-23 12:23:37.00	249.59	14.10	-30.7	-34.3	12.2	1.98e-04	0	43	102	1048576	21	5507
2026-01-23 12:23:38.01	249.78	14.14	-30.6	-34.3	12.2	1.96e-04	0	43	102	1048576	21	5472
2026-01-23 12:23:39.01	249.96	14.18	-30.8	-34.6	12.0	2.49e-04	0	43	102	1048576	21	5634
2026-01-23 12:23:40.02	250.15	14.23	-30.7	-34.6	12.0	2.99e-04	0	43	102	1048576	21	5601
2026-01-23 12:23:41.02	250.34	14.27	-30.9	-35.1	11.7	4.55e-04	0	43	102	1048576	21	5834
2026-01-23 12:23:42.03	250.53	14.32	-30.8	-34.9	11.9	4.71e-04	0	43	102	1048576	21	5726
2026-01-23 12:23:43.02	250.72	14.36	-31.0	-35.0	11.5	5.35e-04	0	43	102	1048576	22	5663
2026-01-23 12:23:44.03	250.91	14.40	-30.9	-34.6	11.7	6.52e-04	0	43	102	1048576	22	5492
2026-01-23 12:23:45.03	251.10	14.44	-30.8	-34.4	11.9	4.58e-04	0	43	102	1048576	22	5405
2026-01-23 12:23:46.03	251.29	14.49	-30.8	-34.3	11.9	3.23e-04	0	43	102	1048576	22	5379
2026-01-23 12:23:47.04	251.49	14.53	-30.9	-34.6	11.8	4.64e-04	0	43	102	1048576	22	5476
2026-01-23 12:23:48.04	251.68	14.57	-30.9	-34.5	11.8	4.31e-04	0	43	102	1048576	22	5472
2026-01-23 12:23:49.05	251.87	14.61	-31.0	-34.9	11.6	4.98e-04	0	43	102	1048576	22	5617
2026-01-23 12:23:50.06	252.07	14.65	-30.9	-34.6	11.8	6.03e-04	0	43	102	1048576	22	5488
2026-01-23 12:23:51.06	252.26	14.70	-30.9	-34.5	11.9	4.75e-04	0	43	102	1048576	22	5433
2026-01-23 12:23:52.06	252.46	14.74	-31.0	-34.7	11.7	4.68e-04	0	43	102	1048576	22	5542
2026-01-23 12:23:53.07	252.65	14.78	-31.1	-35.2	11.4	6.98e-04	0	43	102	1048576	22	5737
2026-01-23 12:23:54.07	252.85	14.82	-31.0	-34.8	11.6	7.10e-04	0	43	102	1048576	22	5573
2026-01-23 12:23:55.08	253.05	14.86	-31.0	-34.9	11.6	6.83e-04	0	43	102	1048576	22	5632
2026-01-23 12:23:56.08	253.24	14.90	-31.1	-35.0	11.5	7.35e-04	0	43	102	1048576	22	5655
2026-01-23 12:23:57.08	253.44	14.94	-31.1	-35.2	11.3	1.01e-03	0	43	102	1048576	22	5775
2026-01-23 12:23:58.09	253.64	14.98	-31.2	-35.3	11.3	1.10e-03	0	43	102	1048576	22	5790
2026-01-23 12:23:59.09	253.84	15.02	-31.2	-35.4	11.2	1.08e-03	0	43	102	1048576	22	5847
2026-01-23 12:24:00.10	254.04	15.06	-31.3	-35.7	11.0	1.48e-03	0	43	102	1048576	22	6003
2026-01-23 12:24:01.10	254.24	15.10	-31.2	-35.4	11.3	1.44e-03	0	43	102	1048576	22	5818
2026-01-23 12:24:02.11	254.44	15.14	-31.1	-35.2	11.4	1.16e-03	0	43	102	1048576	22	5758
2026-01-23 12:24:03.11	254.64	15.17	-31.2	-35.3	11.3	1.05e-03	0	43	102	1048576	22	5789
2026-01-23 12:24:04.11	254.84	15.21	-31.2	-35.4	11.3	1.23e-03	0	43	102	1048576	22	5848
2026-01-23 12:24:05.11	255.04	15.25	-31.3	-35.6	11.1	1.33e-03	0	43	102	1048576	22	5909
2026-01-23 12:24:06.12	255.24	15.29	-31.3	-35.6	11.2	1.48e-03	0	43	102	1048576	22	5930
2026-01-23 12:24:07.12	255.45	15.32	-31.2	-35.6	11.1	1.51e-03	0	43	102	1048576	22	5908
2026-01-23 12:24:08.13	255.65	15.36	-31.2	-35.4	11.3	1.29e-03	0	43	102	1048576	22	5850
2026-01-23 12:24:09.13	255.85	15.40	-31.2	-35.4	11.3	1.23e-03	0	43	102	1048576	22	5837
2026-01-23 12:24:10.12	256.05	15.43	-31.1	-35.2	11.4	1.10e-03	0	43	102	1048576	22	5745
2026-01-23 12:24:11.13	256.26	15.47	-31.1	-35.2	11.4	9.09e-04	0	43	102	1048576	22	5732
2026-01-23 12:24:12.13	256.46	15.51	-31.2	-35.5	11.2	9.35e-04	0	43	102	1048576	22	5873
2026-01-23 12:24:13.14	256.67	15.54	-31.3	-35.7	11.0	1.50e-03	0	43	102	1048576	22	5997
2026-01-23 12:24:14.15	256.88	15.58	-31.2	-35.4	11.2	1.39e-03	0	43	102	1048576	22	5858
2026-01-23 12:24:15.15	257.08	15.61	-31.1	-35.1	11.4	1.10e-03	0	43	102	1048576	22	5717
2026-01-23 12:24:16.15	257.29	15.65	-31.1	-35.1	11.5	8.34e-04	0	43	102	1048576	22	5708
2026-01-23 12:24:17.16	257.50	15.68	-31.2	-35.3	11.4	8.99e-04	0	43	102	1048576	22	5776
2026-01-23 12:24:18.16	257.71	15.72	-31.0	-34.9	11.6	6.56e-04	0	43	102	1048576	22	5612
2026-01-23 12:24:19.15	257.91	15.75	-30.9	-34.6	11.8	4.68e-04	0	43	102	1048576	22	5474
2026-01-23 12:24:20.16	258.12	15.78	-30.9	-34.5	11.9	3.83e-04	0	43	102	1048576	22	5432
2026-01-23 12:24:21.17	258.33	15.82	-30.9	-34.5	11.9	3.78e-04	0	43	102	1048576	22	5439
2026-01-23 12:24:22.18	258.54	15.85	-31.0	-34.8	11.8	4.57e-04	0	43	102	1048576	22	5564
2026-01-23 12:24:23.18	258.75	15.88	-31.1	-35.2	11.4	6.61e-04	0	43	102	1048576	22	5734
2026-01-23 12:24:24.19	258.96	15.91	-30.8	-34.2	12.1	3.36e-04	0	43	102	1048576	22	5309
2026-01-23 12:24:25.19	259.17	15.94	-30.7	-33.8	12.5	1.40e-04	0	43	102	1048576	22	5138
2026-01-23 12:24:26.20	259.39	15.98	-30.5	-33.2	12.8	6.02e-05	0	43	102	1048576	22	4938
2026-01-23 12:24:27.20	259.60	16.01	-30.4	-33.0	13.0	5.41e-05	0	43	102	1048576	22	4848
2026-01-23 12:24:28.20	259.81	16.04	-30.3	-32.8	13.1	3.50e-05	0	43	102	1048576	22	4767
2026-01-23 12:24:29.20	260.02	16.07	-30.4	-32.8	13.1	2.82e-05	0	43	102	1048576	22	4786
2026-01-23 12:24:30.20	260.23	16.10	-30.4	-32.9	13.0	2.74e-05	0	43	102	1048576	22	4826
2026-01-23 12:24:31.21	260.45	16.13	-30.2	-32.8	13.4	1.67e-05	0	43	102	1048576	21	4893
2026-01-23 12:24:32.21	260.66	16.16	-30.2	-33.0	13.3	1.83e-05	0	43	102	1048576	21	4955
2026-01-23 12:24:33.22	260.88	16.19	-30.3	-33.2	13.1	2.51e-05	0	43	102	1048576	21	5042
2026-01-23 12:24:34.22	261.09	16.22	-30.1	-32.7	13.5	1.83e-05	0	43	102	1048576	21	4854
2026-01-23 12:24:35.22	261.30	16.24	-30.1	-32.5	13.6	9.90e-06	0	43	102	1048576	21	4790
2026-01-23 12:24:36.23	261.52	16.27	-30.0	-32.4	13.7	6.10e-06	0	43	102	1048576	21	4739
2026-01-23 12:24:37.23	261.74	16.30	-30.0	-32.5	13.7	6.10e-06	0	43	102	1048576	21	4772
2026-01-23 12:24:38.24	261.95	16.33	-30.1	-32.6	13.6	6.80e-06	0	43	102	1048576	21	4805
2026-01-23 12:24:39.25	262.17	16.36	-30.1	-32.5	13.6	8.30e-06	0	43	102	1048576	21	4787
2026-01-23 12:24:40.25	262.39	16.38	-30.1	-32.5	13.6	1.14e-05	0	43	102	1048576	21	4794
2026-01-23 12:24:41.26	262.61	16.41	-30.2	-32.9	13.4	1.22e-05	0	43	102	1048576	21	4922
2026-01-23 12:24:42.26	262.82	16.43	-30.2	-32.9	13.3	1.37e-05	0	43	102	1048576	21	4930
2026-01-23 12:24:43.27	263.04	16.46	-30.3	-33.3	13.1	2.21e-05	0	43	102	1048576	21	5060
2026-01-23 12:24:44.28	263.26	16.49	-30.3	-33.3	13.1	2.44e-05	0	43	102	1048576	21	5080
2026-01-23 12:24:45.28	263.48	16.51	-30.4	-33.4	13.1	3.81e-05	0	43	102	1048576	21	5109
2026-01-23 12:24:46.28	263.70	16.53	-30.3	-33.2	13.2	2.36e-05	0	43	102	1048576	21	5018
2026-01-23 12:24:47.28	263.92	16.56	-30.3	-33.1	13.2	2.21e-05	0	43	102	1048576	21	5008
2026-01-23 12:24:48.29	264.14	16.58	-30.2	-33.0	13.3	1.90e-05	0	43	102	1048576	21	4973
2026-01-23 12:24:49.29	264.36	16.61	-30.2	-32.9	13.4	1.22e-05	0	43	102	1048576	21	4930
2026-01-23 12:24:50.29	264.58	16.63	-30.3	-33.1	13.3	1.37e-05	0	43	102	1048576	21	4973
2026-01-23 12:24:51.30	264.80	16.65	-30.3	-33.2	13.2	2.59e-05	0	43	102	1048576	21	5036
2026-01-23 12:24:52.30	265.02	16.67	-30.3	-33.3	13.1	2.89e-05	0	43	102	1048576	21	5060
2026-01-23 12:24:53.31	265.24	16.70	-30.4	-33.4	13.0	3.35e-05	0	43	102	1048576	21	5108
2026-01-23 12:24:54.31	265.46	16.72	-30.4	-33.5	12.9	4.34e-05	0	43	102	1048576	21	5148
2026-01-23 12:24:55.32	265.69	16.74	-30.5	-33.7	12.8	6.25e-05	0	43	102	1048576	21	5220
2026-01-23 12:24:56.32	265.91	16.76	-30.4	-33.4	13.0	3.66e-05	0	43	102	1048576	21	5111
2026-01-23 12:24:57.33	266.13	16.78	-30.4	-33.6	12.9	4.95e-05	0	43	102	1048576	21	5170
2026-01-23 12:24:58.34	266.36	16.80	-30.4	-33.6	12.9	3.89e-05	0	43	102	1048576	21	5180
2026-01-23 12:24:59.34	266.58	16.82	-30.5	-33.7	12.8	5.64e-05	0	43	102	1048576	21	5226
2026-01-23 12:25:00.34	266.80	16.84	-30.5	-33.6	12.9	4.27e-05	0	43	102	1048576	21	5188
2026-01-23 12:25:01.34	267.02	16.86	-30.6	-34.0	12.7	6.86e-05	0	43	102	1048576	21	5330
2026-01-23 12:25:02.34	267.25	16.87	-30.6	-34.0	12.7	1.11e-04	0	43	102	1048576	21	5334
2026-01-23 12:25:03.35	267.47	16.89	-30.5	-33.7	12.9	5.56e-05	0	43	102	1048576	21	5213
2026-01-23 12:25:04.35	267.70	16.91	-30.4	-33.4	13.1	3.66e-05	0	43	102	1048576	21	5100
2026-01-23 12:25:05.35	267.92	16.93	-30.4	-33.5	13.0	3.12e-05	0	43	102	1048576	21	5136
2026-01-23 12:25:06.36	268.15	16.94	-30.4	-33.5	13.0	4.04e-05	0	43	102	1048576	21	5142
2026-01-23 12:25:07.37	268.37	16.96	-30.4	-33.5	13.0	3.28e-05	0	43	102	1048576	21	5142
2026-01-23 12:25:08.37	268.60	16.98	-30.5	-33.7	12.8	5.72e-05	0	43	102	1048576	21	5215
2026-01-23 12:25:09.38	268.83	16.99	-30.5	-33.8	12.8	6.79e-05	0	43	102	1048576	21	5272
2026-01-23 12:25:10.39	269.05	17.01	-30.4	-33.4	13.1	3.96e-05	0	43	102	1048576	21	5104
2026-01-23 12:25:11.40	269.28	17.02	-30.4	-33.3	13.1	3.20e-05	0	43	102	1048576	21	5073
2026-01-23 12:25:12.41	269.51	17.04	-30.5	-33.7	12.9	4.42e-05	0	43	102	1048576	21	5198
2026-01-23 12:25:13.41	269.73	17.05	-30.7	-34.3	12.5	9.68e-05	0	43	102	1048576	21	5456
2026-01-23 12:25:14.42	269.96	17.06	-30.7	-34.5	12.4	1.73e-04	0	43	102	1048576	21	5522
2026-01-23 12:25:15.42	270.19	17.08	-30.7	-34.3	12.5	1.36e-04	0	43	102	1048576	21	5449
2026-01-23 12:25:16.43	270.42	17.09	-30.6	-34.2	12.5	1.07e-04	0	43	102	1048576	21	5399
2026-01-23 12:25:17.43	270.64	17.10	-30.6	-34.2	12.5	1.11e-04	0	43	102	1048576	21	5401
2026-01-23 12:25:18.44	270.87	17.11	-30.6	-34.2	12.5	1.11e-04	0	43	102	1048576	21	5411
2026-01-23 12:25:19.44	271.10	17.12	-30.6	-34.1	12.6	1.58e-04	0	43	102	1048576	21	5372
2026-01-23 12:25:20.45	271.33	17.13	-30.4	-33.5	13.0	5.95e-05	0	43	102	1048576	21	5136
2026-01-23 12:25:21.45	271.55	17.14	-30.3	-33.3	13.1	2.82e-05	0	43	102	1048576	21	5056
2026-01-23 12:25:22.46	271.78	17.15	-30.4	-33.5	13.0	3.05e-05	0	43	102	1048576	21	5122
2026-01-23 12:25:23.47	272.01	17.16	-30.4	-33.6	13.0	3.81e-05	0	43	102	1048576	21	5158
2026-01-23 12:25:24.47	272.24	17.17	-30.5	-33.8	12.9	3.66e-05	0	43	102	1048576	21	5236
2026-01-23 12:25:25.47	272.47	17.18	-30.5	-33.9	12.8	5.95e-05	0	43	102	1048576	21	5275
2026-01-23 12:25:26.48	272.70	17.19	-30.5	-33.8	12.8	6.17e-05	0	43	102	1048576	21	5258
2026-01-23 12:25:27.48	272.93	17.20	-30.4	-33.6	13.0	5.41e-05	0	43	102	1048576	21	5161
2026-01-23 12:25:28.49	273.16	17.20	-30.5	-33.6	13.0	3.50e-05	0	43	102	1048576	21	5185
2026-01-23 12:25:29.49	273.38	17.21	-30.5	-33.7	12.9	3.58e-05	0	43	102	1048576	21	5222
2026-01-23 12:25:30.49	273.61	17.22	-30.6	-34.0	12.6	6.86e-05	0	43	102	1048576	21	5338
2026-01-23 12:25:31.50	273.84	17.22	-30.6	-34.1	12.6	9.84e-05	0	43	102	1048576	21	5379
2026-01-23 12:25:32.50	274.07	17.23	-30.7	-34.2	12.5	1.07e-04	0	43	102	1048576	21	5432
2026-01-23 12:25:33.51	274.30	17.23	-30.7	-34.2	12.5	1.11e-04	0	43	102	1048576	21	5425
2026-01-23 12:25:34.52	274.53	17.24	-30.7	-34.4	12.4	1.23e-04	0	43	102	1048576	21	5500
2026-01-23 12:25:35.52	274.76	17.24	-30.6	-34.1	12.6	1.65e-04	0	43	102	1048576	21	5363
2026-01-23 12:25:36.52	274.99	17.25	-30.4	-33.4	13.1	5.03e-05	0	43	102	1048576	21	5103
2026-01-23 12:25:37.53	275.22	17.25	-30.3	-33.1	13.3	2.28e-05	0	43	102	1048576	21	4964
2026-01-23 12:25:38.54	275.45	17.25	-30.2	-33.0	13.3	1.90e-05	0	43	102	1048576	21	4946
2026-01-23 12:25:39.54	275.68	17.26	-30.3	-33.1	13.3	1.90e-05	0	43	102	1048576	21	4970
2026-01-23 12:25:40.55	275.91	17.26	-30.3	-33.3	13.2	1.83e-05	0	43	102	1048576	21	5056
2026-01-23 12:25:41.55	276.14	17.26	-30.4	-33.4	13.1	3.81e-05	0	43	102	1048576	21	5098
2026-01-23 12:25:42.55	276.37	17.26	-30.3	-33.3	13.2	1.90e-05	0	43	102	1048576	21	5050
2026-01-23 12:25:43.55	276.60	17.26	-30.4	-33.5	13.0	2.82e-05	0	43	102	1048576	21	5150
2026-01-23 12:25:44.56	276.83	17.26	-30.4	-33.6	13.0	5.26e-05	0	43	102	1048576	21	5167
2026-01-23 12:25:45.56	277.06	17.26	-30.5	-33.6	12.9	4.11e-05	0	43	102	1048576	21	5192
2026-01-23 12:25:46.56	277.28	17.26	-30.5	-33.7	12.9	5.95e-05	0	43	102	1048576	21	5211
2026-01-23 12:25:47.56	277.51	17.26	-30.5	-33.7	12.9	6.02e-05	0	43	102	1048576	21	5206
2026-01-23 12:25:48.57	277.74	17.26	-30.5	-33.7	12.9	3.66e-05	0	43	102	1048576	21	5206
2026-01-23 12:25:49.57	277.97	17.26	-30.5	-33.6	12.9	4.50e-05	0	43	102	1048576	21	5187
2026-01-23 12:25:50.57	278.20	17.25	-30.4	-33.6	12.9	5.49e-05	0	43	102	1048576	21	5169
2026-01-23 12:25:51.58	278.43	17.25	-30.4	-33.3	13.2	3.12e-05	0	43	102	1048576	21	5060
2026-01-23 12:25:52.58	278.66	17.25	-30.3	-33.2	13.2	1.67e-05	0	43	102	1048576	21	5011
2026-01-23 12:25:53.59	278.89	17.24	-30.2	-33.0	13.3	1.83e-05	0	43	102	1048576	21	4959
2026-01-23 12:25:54.59	279.12	17.24	-30.2	-33.0	13.4	1.67e-05	0	43	102	1048576	21	4940
2026-01-23 12:25:55.59	279.35	17.24	-30.3	-33.3	13.1	2.36e-05	0	43	102	1048576	21	5063
2026-01-23 12:25:56.59	279.58	17.23	-30.4	-33.4	13.1	3.73e-05	0	43	102	1048576	21	5080
2026-01-23 12:25:57.60	279.81	17.22	-30.3	-33.1	13.3	2.44e-05	0	43	102	1048576	21	4986
2026-01-23 12:25:58.60	280.03	17.22	-30.3	-33.2	13.2	1.83e-05	0	43	102	1048576	21	5019
2026-01-23 12:25:59.60	280.26	17.21	-30.3	-33.3	13.1	1.98e-05	0	43	102	1048576	21	5068
2026-01-23 12:26:00.61	280.49	17.21	-30.4	-33.5	13.0	3.50e-05	0	43	102	1048576	21	5118
2026-01-23 12:26:01.62	280.72	17.20	-30.3	-33.3	13.1	2.13e-05	0	43	102	1048576	21	5055
2026-01-23 12:26:02.62	280.95	17.19	-30.3	-33.2	13.2	1.67e-05	0	43	102	1048576	21	5015
2026-01-23 12:26:03.63	281.18	17.18	-30.4	-33.5	13.0	2.67e-05	0	43	102	1048576	21	5157
2026-01-23 12:26:04.63	281.41	17.17	-30.4	-33.4	13.1	2.67e-05	0	43	102	1048576	21	5085
2026-01-23 12:26:05.65	281.64	17.17	-30.3	-33.2	13.2	2.05e-05	0	43	102	1048576	21	5025
2026-01-23 12:26:06.65	281.87	17.16	-30.3	-33.3	13.2	2.05e-05	0	43	102	1048576	21	5045
2026-01-23 12:26:07.65	282.09	17.15	-30.4	-33.6	13.0	3.28e-05	0	43	102	1048576	21	5160
2026-01-23 12:26:08.65	282.32	17.14	-30.4	-33.5	13.0	4.04e-05	0	43	102	1048576	21	5154
2026-01-23 12:26:09.66	282.55	17.13	-30.4	-33.5	13.0	3.43e-05	0	43	102	1048576	21	5127
2026-01-23 12:26:10.67	282.78	17.11	-30.4	-33.4	13.1	3.35e-05	0	43	102	1048576	21	5086
2026-01-23 12:26:11.67	283.00	17.10	-30.4	-33.5	13.0	3.20e-05	0	43	102	1048576	21	5138
2026-01-23 12:26:12.67	283.23	17.09	-30.5	-33.7	12.9	5.03e-05	0	43	102	1048576	21	5208
2026-01-23 12:26:13.68	283.46	17.08	-30.6	-34.0	12.7	8.77e-05	0	43	102	1048576	21	5339
2026-01-23 12:26:14.68	283.68	17.07	-30.6	-34.1	12.7	8.69e-05	0	43	102	1048576	21	5349
2026-01-23 12:26:15.69	283.91	17.05	-30.8	-34.5	12.3	1.20e-04	0	43	102	1048576	21	5542
2026-01-23 12:26:16.69	284.14	17.04	-30.8	-34.6	12.3	2.13e-04	0	43	102	1048576	21	5577
2026-01-23 12:26:17.70	284.36	17.03	-30.8	-34.5	12.3	1.65e-04	0	43	102	1048576	21	5531
2026-01-23 12:26:18.70	284.59	17.01	-30.8	-34.6	12.3	1.71e-04	0	43	102	1048576	21	5587
2026-01-23 12:26:19.71	284.82	17.00	-30.8	-34.6	12.3	1.97e-04	0	43	102	1048576	21	5578
2026-01-23 12:26:20.71	285.04	16.98	-30.9	-34.8	12.1	2.45e-04	0	43	102	1048576	21	5684
2026-01-23 12:26:21.72	285.27	16.97	-30.7	-34.4	12.4	2.27e-04	0	43	102	1048576	21	5505
2026-01-23 12:26:22.72	285.49	16.95	-30.5	-33.6	12.9	7.32e-05	0	43	102	1048576	21	5186
2026-01-23 12:26:23.72	285.72	16.93	-30.3	-33.2	13.2	3.66e-05	0	43	102	1048576	21	5034
2026-01-23 12:26:24.73	285.94	16.92	-30.3	-33.1	13.3	2.21e-05	0	43	102	1048576	21	4966
2026-01-23 12:26:25.73	286.16	16.90	-30.3	-33.1	13.3	1.83e-05	0	43	102	1048576	21	4990
2026-01-23 12:26:26.73	286.39	16.88	-30.4	-33.4	13.1	2.82e-05	0	43	102	1048576	21	5079
2026-01-23 12:26:27.74	286.61	16.86	-30.3	-33.2	13.2	2.28e-05	0	43	102	1048576	21	5028
2026-01-23 12:26:28.74	286.84	16.84	-30.3	-33.1	13.3	2.13e-05	0	43	102	1048576	21	5000
2026-01-23 12:26:29.75	287.06	16.83	-30.3	-33.1	13.3	2.59e-05	0	43	102	1048576	21	4992
2026-01-23 12:26:30.75	287.28	16.81	-30.3	-33.0	13.3	1.90e-05	0	43	102	1048576	21	4963
2026-01-23 12:26:31.76	287.51	16.79	-30.3	-33.1	13.3	1.67e-05	0	43	102	1048576	21	4989
2026-01-23 12:26:32.77	287.73	16.77	-30.2	-32.9	13.4	2.13e-05	0	43	102	1048576	21	4925
2026-01-23 12:26:33.78	287.95	16.75	-30.2	-32.8	13.5	9.10e-06	0	43	102	1048576	21	4883
2026-01-23 12:26:34.78	288.17	16.73	-30.2	-32.9	13.4	1.90e-05	0	43	102	1048576	21	4929
2026-01-23 12:26:35.78	288.39	16.70	-30.1	-32.7	13.5	1.22e-05	0	43	102	1048576	21	4858
2026-01-23 12:26:36.79	288.62	16.68	-30.1	-32.6	13.6	6.10e-06	0	43	102	1048576	21	4799
2026-01-23 12:26:37.80	288.84	16.66	-30.0	-32.5	13.7	6.10e-06	0	43	102	1048576	21	4759
2026-01-23 12:26:38.80	289.06	16.64	-30.0	-32.3	13.8	2.20e-06	0	43	102	1048576	21	4696
2026-01-23 12:26:39.81	289.28	16.61	-29.9	-32.1	13.9	3.80e-06	0	43	102	1048576	21	4639
2026-01-23 12:26:40.82	289.50	16.59	-29.9	-32.1	13.9	2.20e-06	0	43	102	1048576	21	4634
2026-01-23 12:26:41.82	289.72	16.57	-29.8	-31.8	14.1	3.00e-06	0	43	102	1048576	21	4545
2026-01-23 12:26:42.82	289.94	16.54	-29.7	-32.2	14.2	1.50e-06	0	43	102	1048576	20	4769
2026-01-23 12:26:43.82	290.15	16.52	-29.7	-32.2	14.1	7.00e-07	0	43	102	1048576	20	4778
2026-01-23 12:26:44.82	290.37	16.50	-29.8	-32.3	14.1	0.00e+00	0	43	102	1048576	20	4799
2026-01-23 12:26:45.82	290.59	16.47	-29.9	-32.5	14.0	1.50e-06	0	43	102	1048576	20	4883
2026-01-23 12:26:46.83	290.81	16.45	-29.9	-32.7	13.9	2.20e-06	0	43	102	1048576	20	4932
2026-01-23 12:26:47.83	291.02	16.42	-29.9	-32.6	13.9	3.00e-06	0	43	102	1048576	20	4905
2026-01-23 12:26:48.84	291.24	16.39	-29.9	-32.6	13.9	3.00e-06	0	43	102	1048576	20	4912
2026-01-23 12:26:49.84	291.46	16.37	-29.9	-32.6	13.9	3.80e-06	0	43	102	1048576	20	4903
2026-01-23 12:26:50.85	291.68	16.34	-29.9	-32.7	13.8	3.00e-06	0	43	102	1048576	20	4949
2026-01-23 12:26:51.86	291.89	16.31	-29.8	-32.5	14.0	7.00e-07	0	43	102	1048576	20	4868
2026-01-23 12:26:52.87	292.11	16.28	-30.0	-32.9	13.7	3.80e-06	0	43	102	1048576	20	5027
2026-01-23 12:26:53.87	292.32	16.26	-30.0	-32.8	13.8	3.00e-06	0	43	102	1048576	20	5002
2026-01-23 12:26:54.88	292.54	16.23	-30.2	-33.4	13.4	1.60e-05	0	43	102	1048576	20	5227
2026-01-23 12:26:55.88	292.75	16.20	-30.2	-33.4	13.4	1.06e-05	0	43	102	1048576	20	5207
2026-01-23 12:26:56.88	292.96	16.17	-30.3	-33.8	13.1	1.83e-05	0	43	102	1048576	20	5352
2026-01-23 12:26:57.88	293.18	16.14	-30.2	-33.3	13.4	2.13e-05	0	43	102	1048576	20	5176
2026-01-23 12:26:58.88	293.39	16.11	-30.1	-33.1	13.6	8.30e-06	0	43	102	1048576	20	5103
2026-01-23 12:26:59.89	293.60	16.08	-29.9	-32.7	13.8	7.60e-06	0	43	102	1048576	20	4964
2026-01-23 12:27:00.89	293.81	16.05	-29.9	-32.7	13.8	3.00e-06	0	43	102	1048576	20	4956
2026-01-23 12:27:01.89	294.03	16.02	-29.8	-32.3	14.1	1.50e-06	0	43	102	1048576	20	4800
2026-01-23 12:27:02.90	294.24	15.99	-29.8	-32.3	14.1	2.20e-06	0	43	102	1048576	20	4796
2026-01-23 12:27:03.90	294.45	15.96	-29.7	-32.1	14.2	0.00e+00	0	43	102	1048576	20	4753
2026-01-23 12:27:04.91	294.66	15.93	-29.6	-31.9	14.3	2.20e-06	0	43	102	1048576	20	4685
2026-01-23 12:27:05.91	294.87	15.90	-29.5	-31.6	14.5	0.00e+00	0	43	102	1048576	20	4575
2026-01-23 12:27:06.91	295.08	15.86	-29.5	-31.7	14.5	0.00e+00	0	43	102	1048576	20	4597
2026-01-23 12:27:07.91	295.29	15.83	-29.4	-31.4	14.6	7.00e-07	0	43	102	1048576	20	4502
2026-01-23 12:27:08.91	295.49	15.80	-29.5	-31.6	14.5	1.50e-06	0	43	102	1048576	20	4591
2026-01-23 12:27:09.92	295.70	15.77	-29.5	-31.5	14.6	0.00e+00	0	43	102	1048576	20	4557
2026-01-23 12:27:10.92	295.91	15.73	-29.5	-31.6	14.5	0.00e+00	0	43	102	1048576	20	4564
2026-01-23 12:27:11.92	296.12	15.70	-29.5	-31.5	14.5	0.00e+00	0	43	102	1048576	20	4555
2026-01-23 12:27:12.93	296.32	15.66	-29.7	-32.0	14.3	7.00e-07	0	43	102	1048576	20	4706
2026-01-23 12:27:13.93	296.53	15.63	-29.7	-32.0	14.2	7.00e-07	0	43	102	1048576	20	4699
2026-01-23 12:27:14.94	296.74	15.60	-29.8	-32.3	14.1	2.20e-06	0	43	102	1048576	20	4819
2026-01-23 12:27:15.94	296.94	15.56	-29.7	-32.2	14.1	2.20e-06	0	43	102	1048576	20	4775
2026-01-23 12:27:16.94	297.15	15.53	-29.9	-32.5	14.0	3.80e-06	0	43	102	1048576	20	4880
2026-01-23 12:27:17.95	297.35	15.49	-29.7	-32.2	14.1	3.00e-06	0	43	102	1048576	20	4767
2026-01-23 12:27:18.96	297.56	15.45	-29.7	-32.0	14.3	2.20e-06	0	43	102	1048576	20	4701
2026-01-23 12:27:19.96	297.76	15.42	-29.8	-32.3	14.0	2.20e-06	0	43	102	1048576	20	4816
2026-01-23 12:27:20.96	297.96	15.38	-29.6	-31.9	14.3	1.50e-06	0	43	102	1048576	20	4675
2026-01-23 12:27:21.97	298.16	15.34	-29.5	-31.6	14.5	7.00e-07	0	43	102	1048576	20	4585
2026-01-23 12:27:22.97	298.37	15.31	-29.5	-31.5	14.6	1.50e-06	0	43	102	1048576	20	4533
2026-01-23 12:27:23.97	298.57	15.27	-29.5	-31.7	14.4	1.50e-06	0	43	102	1048576	20	4596
2026-01-23 12:27:24.98	298.77	15.23	-29.4	-31.2	14.7	7.00e-07	0	43	102	1048576	20	4455
2026-01-23 12:27:25.99	298.97	15.20	-29.3	-31.0	14.9	0.00e+00	0	43	102	1048576	20	4391
2026-01-23 12:27:26.99	299.17	15.16	-29.3	-31.1	14.8	0.00e+00	0	43	102	1048576	20	4425
2026-01-23 12:27:27.99	299.37	15.12	-29.4	-31.4	14.6	0.00e+00	0	43	102	1048576	20	4517
2026-01-23 12:27:29.00	299.57	15.08	-29.5	-31.6	14.5	1.50e-06	0	43	102	1048576	20	4597
2026-01-23 12:27:30.00	299.77	15.04	-29.7	-32.1	14.1	7.00e-07	0	43	102	1048576	20	4761
2026-01-23 12:27:31.00	299.96	15.00	-29.8	-32.5	13.9	3.00e-06	0	43	102	1048576	20	4877
2026-01-23 12:27:32.01	300.16	14.96	-29.9	-32.8	13.7	6.10e-06	0	43	102	1048576	20	4982
2026-01-23 12:27:33.01	300.36	14.92	-30.0	-32.8	13.7	4.50e-06	0	43	102	1048576	20	5002
2026-01-23 12:27:34.01	300.55	14.88	-29.9	-32.8	13.7	6.10e-06	0	43	102	1048576	20	4990
2026-01-23 12:27:35.02	300.75	14.84	-30.0	-32.8	13.7	4.50e-06	0	43	102	1048576	20	5012
2026-01-23 12:27:36.02	300.95	14.80	-30.1	-33.1	13.5	9.10e-06	0	43	102	1048576	20	5115
2026-01-23 12:27:37.03	301.14	14.76	-29.9	-32.6	13.8	6.10e-06	0	43	102	1048576	20	4920
2026-01-23 12:27:38.03	301.34	14.72	-29.8	-32.4	13.9	3.80e-06	0	43	102	1048576	20	4866
2026-01-23 12:27:39.04	301.53	14.68	-29.8	-32.5	13.9	3.80e-06	0	43	102	1048576	20	4879
2026-01-23 12:27:40.04	301.72	14.64	-29.8	-32.4	13.9	4.50e-06	0	43	102	1048576	20	4863
2026-01-23 12:27:41.05	301.92	14.60	-29.9	-32.6	13.8	6.10e-06	0	43	102	1048576	20	4926
2026-01-23 12:27:42.06	302.11	14.56	-29.8	-32.4	13.9	4.50e-06	0	43	102	1048576	20	4852
2026-01-23 12:27:43.06	302.30	14.52	-29.7	-32.2	14.1	4.50e-06	0	43	102	1048576	20	4779
2026-01-23 12:27:44.06	302.49	14.47	-29.8	-32.3	14.0	1.50e-06	0	43	102	1048576	20	4814
2026-01-23 12:27:45.07	302.68	14.43	-29.9	-32.6	13.8	2.20e-06	0	43	102	1048576	20	4916
2026-01-23 12:27:46.07	302.87	14.39	-29.8	-32.3	14.0	1.50e-06	0	43	102	1048576	20	4832
2026-01-23 12:27:47.07	303.06	14.35	-29.9	-32.6	13.8	4.50e-06	0	43	102	1048576	20	4911
2026-01-23 12:27:48.06	303.25	14.30	-29.9	-32.8	13.6	4.50e-06	0	43	102	1048576	20	4985
2026-01-23 12:27:49.07	303.44	14.26	-30.2	-33.4	13.3	1.83e-05	0	43	102	1048576	20	5217
2026-01-23 12:27:50.07	303.63	14.22	-30.3	-33.6	13.1	2.21e-05	0	43	102	1048576	20	5321
2026-01-23 12:27:51.08	303.81	14.17	-30.5	-34.3	12.6	6.17e-05	0	43	102	1048576	20	5576
2026-01-23 12:27:52.08	304.00	14.13	-30.6	-34.0	12.5	9.46e-05	0	43	102	1048576	21	5368
2026-01-23 12:27:53.08	304.19	14.09	-30.7	-34.4	12.3	1.50e-04	0	43	102	1048576	21	5503
2026-01-23 12:27:54.08	304.37	14.04	-30.8	-34.8	11.9	2.89e-04	0	43	102	1048576	21	5697
2026-01-23 12:27:55.09	304.56	14.00	-30.9	-35.0	11.8	4.14e-04	0	43	102	1048576	21	5768
2026-01-23 12:27:56.10	304.74	13.95	-30.9	-35.2	11.7	5.49e-04	0	43	102	1048576	21	5858
2026-01-23 12:27:57.11	304.93	13.91	-31.1	-35.0	11.4	8.15e-04	0	43	102	1048576	22	5694
2026-01-23 12:27:58.11	305.11	13.86	-31.2	-35.6	11.0	1.24e-03	0	43	102	1048576	22	5943
2026-01-23 12:27:59.12	305.30	13.82	-31.3	-35.8	10.9	2.16e-03	0	43	102	1048576	22	6022
2026-01-23 12:28:00.13	305.48	13.77	-31.3	-35.7	11.0	1.99e-03	0	43	102	1048576	22	5983
2026-01-23 12:28:01.13	305.66	13.73	-31.2	-35.6	11.0	1.78e-03	0	43	102	1048576	22	5947
2026-01-23 12:28:02.14	305.84	13.68	-31.2	-35.6	11.0	1.90e-03	0	43	102	1048576	22	5970
2026-01-23 12:28:03.15	306.03	13.63	-31.2	-35.6	11.0	1.86e-03	0	43	102	1048576	22	5937
2026-01-23 12:28:04.15	306.21	13.59	-31.2	-35.5	11.1	1.73e-03	0	43	102	1048576	22	5917
2026-01-23 12:28:05.15	306.38	13.54	-31.1	-35.2	11.4	1.24e-03	0	43	102	1048576	22	5736
2026-01-23 12:28:06.16	306.56	13.49	-31.2	-35.4	11.2	1.48e-03	0	43	102	1048576	22	5860
2026-01-23 12:28:07.16	306.74	13.45	-30.9	-34.6	11.7	7.70e-04	0	43	102	1048576	22	5495
2026-01-23 12:28:08.16	306.92	13.40	-30.8	-34.2	12.0	3.76e-04	0	43	102	1048576	22	5333
2026-01-23 12:28:09.16	307.10	13.36	-30.7	-33.8	12.3	2.05e-04	0	43	102	1048576	22	5183
2026-01-23 12:28:10.16	307.27	13.31	-30.6	-33.7	12.4	1.70e-04	0	43	102	1048576	22	5131
2026-01-23 12:28:11.17	307.45	13.26	-30.6	-33.7	12.4	1.29e-04	0	43	102	1048576	22	5124
2026-01-23 12:28:12.17	307.63	13.21	-30.7	-34.1	12.1	2.04e-04	0	43	102	1048576	22	5272
2026-01-23 12:28:13.18	307.80	13.17	-30.7	-34.1	12.1	2.39e-04	0	43	102	1048576	22	5278
2026-01-23 12:28:14.19	307.98	13.12	-30.8	-34.3	12.0	2.96e-04	0	43	102	1048576	22	5357
2026-01-23 12:28:15.19	308.15	13.07	-30.9	-34.5	11.8	4.34e-04	0	43	102	1048576	22	5470
2026-01-23 12:28:16.20	308.33	13.02	-31.0	-34.8	11.6	6.36e-04	0	43	102	1048576	22	5582
2026-01-23 12:28:17.20	308.50	12.97	-31.1	-35.2	11.3	9.85e-04	0	43	102	1048576	22	5748
2026-01-23 12:28:18.20	308.67	12.93	-31.2	-35.4	11.2	1.27e-03	0	43	102	1048576	22	5840
2026-01-23 12:28:19.20	308.84	12.88	-31.2	-35.6	11.0	1.48e-03	0	43	102	1048576	22	5959
2026-01-23 12:28:20.21	309.02	12.83	-31.3	-35.9	10.8	2.43e-03	0	43	102	1048576	22	6087
2026-01-23 12:28:21.21	309.19	12.78	-31.3	-35.7	10.9	2.31e-03	0	43	102	1048576	22	6019
2026-01-23 12:28:22.22	309.36	12.73	-31.2	-35.6	11.0	2.04e-03	0	43	102	1048576	22	5946
2026-01-23 12:28:23.22	309.53	12.68	-31.2	-35.4	11.2	1.60e-03	0	43	102	1048576	22	5844
2026-01-23 12:28:24.22	309.70	12.63	-31.2	-35.4	11.2	1.38e-03	0	43	102	1048576	22	5840
2026-01-23 12:28:25.23	309.87	12.59	-31.2	-35.4	11.2	1.46e-03	0	43	102	1048576	22	5841
2026-01-23 12:28:26.24	310.04	12.54	-31.0	-34.8	11.6	7.91e-04	0	43	102	1048576	22	5602
2026-01-23 12:28:27.24	310.20	12.49	-31.0	-35.0	11.4	8.47e-04	0	43	102	1048576	22	5659
2026-01-23 12:28:28.25	310.37	12.44	-31.0	-34.7	11.6	7.06e-04	0	43	102	1048576	22	5556
2026-01-23 12:28:29.26	310.54	12.39	-31.0	-34.9	11.5	8.35e-04	0	43	102	1048576	22	5628
2026-01-23 12:28:30.27	310.71	12.34	-31.1	-35.1	11.3	1.15e-03	0	43	102	1048576	22	5718
2026-01-23 12:28:31.28	310.87	12.29	-31.0	-34.7	11.6	7.81e-04	0	43	102	1048576	22	5571
2026-01-23 12:28:32.28	311.04	12.24	-30.9	-34.6	11.6	7.63e-04	0	43	102	1048576	22	5529
2026-01-23 12:28:33.29	311.20	12.19	-30.8	-34.2	11.9	4.70e-04	0	43	102	1048576	22	5342
2026-01-23 12:28:34.30	311.37	12.14	-30.6	-33.6	12.3	2.30e-04	0	43	102	1048576	22	5114
2026-01-23 12:28:35.29	311.53	12.09	-30.5	-33.3	12.6	1.57e-04	0	43	102	1048576	22	4981
2026-01-23 12:28:36.29	311.69	12.04	-30.4	-33.0	12.8	5.49e-05	0	43	102	1048576	22	4884
2026-01-23 12:28:37.31	311.85	11.99	-30.3	-32.9	12.9	7.24e-05	0	43	102	1048576	22	4824
2026-01-23 12:28:38.31	312.02	11.94	-30.2	-33.2	13.0	4.19e-05	0	43	102	1048576	21	5041
2026-01-23 12:28:39.32	312.18	11.88	-30.3	-33.4	12.8	5.03e-05	0	43	102	1048576	21	5122
2026-01-23 12:28:40.32	312.34	11.83	-30.4	-33.6	12.6	9.84e-05	0	43	102	1048576	21	5222
2026-01-23 12:28:41.32	312.50	11.78	-30.3	-33.4	12.7	8.23e-05	0	43	102	1048576	21	5152
2026-01-23 12:28:42.32	312.66	11.73	-30.5	-33.9	12.4	1.09e-04	0	43	102	1048576	21	5347
2026-01-23 12:28:43.33	312.82	11.68	-30.5	-33.9	12.4	1.45e-04	0	43	102	1048576	21	5348
2026-01-23 12:28:44.33	312.97	11.63	-30.6	-34.2	12.2	1.81e-04	0	43	102	1048576	21	5462
2026-01-23 12:28:45.33	313.13	11.58	-30.7	-34.4	12.1	2.53e-04	0	43	102	1048576	21	5548
2026-01-23 12:28:46.33	313.29	11.53	-30.7	-34.5	12.0	2.76e-04	0	43	102	1048576	21	5574
2026-01-23 12:28:47.33	313.45	11.48	-30.7	-34.7	11.9	4.55e-04	0	43	102	1048576	21	5649
2026-01-23 12:28:48.33	313.60	11.43	-30.8	-34.8	11.8	4.06e-04	0	43	102	1048576	21	5705
2026-01-23 12:28:49.34	313.76	11.37	-30.8	-34.8	11.7	4.64e-04	0	43	102	1048576	21	5729
2026-01-23 12:28:50.35	313.91	11.32	-30.8	-35.0	11.7	6.80e-04	0	43	102	1048576	21	5787
2026-01-23 12:28:51.35	314.07	11.27	-30.9	-35.1	11.6	5.54e-04	0	43	102	1048576	21	5846
2026-01-23 12:28:52.35	314.22	11.22	-30.8	-34.9	11.6	8.60e-04	0	43	102	1048576	21	5789
2026-01-23 12:28:53.35	314.37	11.17	-30.7	-34.6	11.9	3.94e-04	0	43	102	1048576	21	5616
2026-01-23 12:28:54.35	314.53	11.12	-30.6	-34.2	12.2	2.77e-04	0	43	102	1048576	21	5454
2026-01-23 12:28:55.36	314.68	11.06	-30.5	-33.9	12.3	2.08e-04	0	43	102	1048576	21	5357
2026-01-23 12:28:56.36	314.83	11.01	-30.5	-33.9	12.4	1.54e-04	0	43	102	1048576	21	5321
2026-01-23 12:28:57.37	314.99	10.96	-30.5	-33.8	12.5	1.65e-04	0	43	102	1048576	21	5304
2026-01-23 12:28:58.38	315.14	10.91	-30.2	-32.9	13.0	6.63e-05	0	43	102	1048576	21	4963
2026-01-23 12:28:59.38	315.29	10.86	-30.2	-33.1	13.0	3.05e-05	0	43	102	1048576	21	5022
2026-01-23 12:29:00.39	315.44	10.80	-30.2	-33.0	12.9	5.64e-05	0	43	102	1048576	21	5000
2026-01-23 12:29:01.39	315.59	10.75	-30.1	-32.9	13.0	3.35e-05	0	43	102	1048576	21	4955
2026-01-23 12:29:02.40	315.74	10.70	-30.2	-33.1	12.9	3.20e-05	0	43	102	1048576	21	5031
2026-01-23 12:29:03.41	315.89	10.64	-30.3	-33.3	12.8	6.86e-05	0	43	102	1048576	21	5104
2026-01-23 12:29:04.42	316.04	10.59	-30.2	-33.2	12.8	5.87e-05	0	43	102	1048576	21	5073
2026-01-23 12:29:05.42	316.18	10.54	-30.3	-33.3	12.7	6.02e-05	0	43	102	1048576	21	5099
2026-01-23 12:29:06.43	316.33	10.49	-30.3	-33.4	12.7	5.72e-05	0	43	102	1048576	21	5129
2026-01-23 12:29:07.44	316.48	10.43	-30.3	-33.5	12.6	8.77e-05	0	43	102	1048576	21	5187
2026-01-23 12:29:08.44	316.62	10.38	-30.3	-33.4	12.6	8.23e-05	0	43	102	1048576	21	5168
2026-01-23 12:29:09.45	316.77	10.33	-30.3	-33.4	12.7	8.85e-05	0	43	102	1048576	21	5140
2026-01-23 12:29:10.45	316.91	10.28	-30.3	-33.5	12.6	9.30e-05	0	43	102	1048576	21	5182
2026-01-23 12:29:11.45	317.06	10.22	-30.3	-33.5	12.6	1.16e-04	0	43	102	1048576	21	5201
2026-01-23 12:29:12.46	317.20	10.17	-30.3	-33.5	12.6	9.61e-05	0	43	102	1048576	21	5202
2026-01-23 12:29:13.46	317.35	10.12	-30.4	-33.6	12.5	9.76e-05	0	43	102	1048576	21	5234
2026-01-23 12:29:14.46	317.49	10.06	-30.4	-33.8	12.4	1.69e-04	0	43	102	1048576	21	5323
2026-01-23 12:29:15.47	317.63	10.01	-30.5	-34.0	12.3	1.73e-04	0	43	102	1048576	21	5387
2026-01-23 12:29:16.48	317.77	9.96	-30.5	-34.0	12.2	2.47e-04	0	43	102	1048576	21	5388
2026-01-23 12:29:17.47	317.91	9.91	-30.5	-34.1	12.1	1.89e-04	0	43	102	1048576	21	5425
2026-01-23 12:29:18.48	318.05	9.85	-30.5	-34.1	12.1	3.05e-04	0	43	102	1048576	21	5443
2026-01-23 12:29:19.48	318.19	9.80	-30.4	-33.7	12.4	2.21e-04	0	43	102	1048576	21	5281
2026-01-23 12:29:20.49	318.34	9.75	-30.4	-33.6	12.5	1.45e-04	0	43	102	1048576	21	5237
2026-01-23 12:29:21.50	318.48	9.69	-30.4	-33.7	12.5	1.42e-04	0	43	102	1048576	21	5254
2026-01-23 12:29:22.50	318.61	9.64	-30.3	-33.4	12.6	8.85e-05	0	43	102	1048576	21	5145
2026-01-23 12:29:23.51	318.75	9.59	-30.3	-33.4	12.7	7.85e-05	0	43	102	1048576	21	5141
2026-01-23 12:29:24.51	318.89	9.53	-30.4	-33.6	12.5	1.64e-04	0	43	102	1048576	21	5240
2026-01-23 12:29:25.52	319.03	9.48	-30.4	-33.7	12.4	1.06e-04	0	43	102	1048576	21	5266
2026-01-23 12:29:26.52	319.17	9.43	-30.5	-34.0	12.2	2.48e-04	0	43	102	1048576	21	5383
2026-01-23 12:29:27.53	319.30	9.37	-30.5	-34.1	12.1	2.04e-04	0	43	102	1048576	21	5444
2026-01-23 12:29:28.53	319.44	9.32	-30.6	-34.3	12.0	3.52e-04	0	43	102	1048576	21	5521
2026-01-23 12:29:29.54	319.57	9.27	-30.6	-34.5	11.8	3.04e-04	0	43	102	1048576	21	5604
2026-01-23 12:29:30.54	319.71	9.21	-30.7	-34.7	11.7	6.27e-04	0	43	102	1048576	21	5703
2026-01-23 12:29:31.54	319.84	9.16	-30.7	-34.6	11.7	5.32e-04	0	43	102	1048576	21	5668
2026-01-23 12:29:32.54	319.98	9.11	-30.8	-35.1	11.3	7.46e-04	0	43	102	1048576	21	5890
2026-01-23 12:29:33.55	320.11	9.05	-30.8	-35.1	11.4	1.18e-03	0	43	102	1048576	21	5864
2026-01-23 12:29:34.55	320.24	9.00	-30.5	-34.2	12.0	4.20e-04	0	43	102	1048576	21	5471
2026-01-23 12:29:35.55	320.38	8.95	-30.4	-33.9	12.2	2.32e-04	0	43	102	1048576	21	5362
2026-01-23 12:29:36.56	320.51	8.89	-30.4	-33.6	12.4	1.59e-04	0	43	102	1048576	21	5248
2026-01-23 12:29:37.57	320.64	8.84	-30.3	-33.6	12.5	1.26e-04	0	43	102	1048576	21	5219
2026-01-23 12:29:38.58	320.77	8.78	-30.4	-33.7	12.4	1.85e-04	0	43	102	1048576	21	5267
2026-01-23 12:29:39.58	320.90	8.73	-30.4	-33.8	12.3	1.46e-04	0	43	102	1048576	21	5337
2026-01-23 12:29:40.59	321.04	8.68	-30.5	-34.1	12.1	2.52e-04	0	43	102	1048576	21	5436
2026-01-23 12:29:41.59	321.16	8.62	-30.6	-34.4	11.9	3.10e-04	0	43	102	1048576	21	5579
2026-01-23 12:29:42.60	321.30	8.57	-30.6	-34.3	11.9	4.95e-04	0	43	102	1048576	21	5544
2026-01-23 12:29:43.60	321.42	8.52	-30.7	-34.8	11.5	5.10e-04	0	43	102	1048576	21	5758
2026-01-23 12:29:44.60	321.55	8.46	-30.8	-34.9	11.5	1.06e-03	0	43	102	1048576	21	5801
2026-01-23 12:29:45.61	321.68	8.41	-30.7	-34.7	11.6	6.44e-04	0	43	102	1048576	21	5708
2026-01-23 12:29:46.61	321.81	8.35	-30.7	-34.6	11.6	6.55e-04	0	43	102	1048576	21	5684
2026-01-23 12:29:47.62	321.94	8.30	-30.8	-35.0	11.4	9.56e-04	0	43	102	1048576	21	5853
2026-01-23 12:29:48.62	322.06	8.25	-30.7	-34.8	11.5	1.13e-03	0	43	102	1048576	21	5756
2026-01-23 12:29:49.63	322.19	8.19	-30.6	-34.6	11.7	6.75e-04	0	43	102	1048576	21	5650
2026-01-23 12:29:50.63	322.31	8.14	-30.6	-34.5	11.7	5.70e-04	0	43	102	1048576	21	5629
2026-01-23 12:29:51.64	322.44	8.09	-30.6	-34.4	11.8	4.50e-04	0	43	102	1048576	21	5571
2026-01-23 12:29:52.64	322.56	8.03	-30.5	-34.2	12.0	4.61e-04	0	43	102	1048576	21	5483
2026-01-23 12:29:53.65	322.69	7.98	-30.5	-34.2	11.9	3.44e-04	0	43	102	1048576	21	5487
2026-01-23 12:29:54.66	322.81	7.92	-30.6	-34.4	11.8	3.43e-04	0	43	102	1048576	21	5582
2026-01-23 12:29:55.67	322.94	7.87	-30.6	-34.3	11.8	5.24e-04	0	43	102	1048576	21	5565
2026-01-23 12:29:56.67	323.06	7.82	-30.7	-34.6	11.6	5.90e-04	0	43	102	1048576	21	5674
2026-01-23 12:29:57.67	323.18	7.76	-30.7	-34.7	11.6	7.36e-04	0	43	102	1048576	21	5706
2026-01-23 12:29:58.67	323.31	7.71	-30.7	-34.9	11.4	8.47e-04	0	43	102	1048576	21	5824
2026-01-23 12:29:59.68	323.43	7.66	-30.9	-35.3	11.1	1.46e-03	0	43	102	1048576	21	5994
2026-01-23 12:30:00.68	323.55	7.60	-30.9	-35.3	11.1	1.74e-03	0	43	102	1048576	21	6019
2026-01-23 12:30:01.69	323.67	7.55	-30.9	-35.4	11.1	1.69e-03	0	43	102	1048576	21	6032
2026-01-23 12:30:02.70	323.79	7.50	-30.8	-35.0	11.2	1.53e-03	0	43	102	1048576	21	5882
2026-01-23 12:30:03.70	323.91	7.44	-30.7	-35.0	11.3	1.21e-03	0	43	102	1048576	21	5843
2026-01-23 12:30:04.70	324.03	7.39	-30.8	-35.1	11.2	1.31e-03	0	43	102	1048576	21	5909
2026-01-23 12:30:05.70	324.15	7.34	-30.9	-35.3	11.1	1.28e-03	0	43	102	1048576	21	6011
2026-01-23 12:30:06.70	324.27	7.28	-30.8	-35.3	11.1	1.65e-03	0	43	102	1048576	21	6022
2026-01-23 12:30:07.71	324.39	7.23	-30.8	-35.0	11.2	1.44e-03	0	43	102	1048576	21	5887
2026-01-23 12:30:08.71	324.51	7.17	-30.8	-35.1	11.2	1.34e-03	0	43	102	1048576	21	5918
2026-01-23 12:30:09.71	324.62	7.12	-30.8	-35.3	11.0	1.77e-03	0	43	102	1048576	21	6017
2026-01-23 12:30:10.71	324.74	7.07	-33.3	-47.5	3.8	7.87e-01	0	43	104	1048576	26	18508
2026-01-23 12:30:11.72	324.86	7.01	-33.7	-48.0	3.8	1.49e+00	0	43	104	1048576	27	18641
2026-01-23 12:30:12.72	324.97	6.96	-34.0	-48.5	3.8	1.49e+00	0	43	104	1048576	27	19205
2026-01-23 12:30:13.73	325.09	6.91	-34.1	-48.3	3.8	1.49e+00	0	43	104	1048576	28	18468

#Closed at: 2026-01-23 12:30:14
#Recorded file [1 MB]: D:/data/31010_260123_152257.dat