passes_logs/2026/01/23/R2M6_AANII_01/R2M6_AANII_01__20260123_044346_FENGYUN_3D_rec.log

#Pass ID: 20260123_044346_FENGYUN 3D
#Satellite: FENGYUN 3D
#Configuration: FENGYUN 3D
#almurnet v.1.7.20240730
#Start time: 2026-01-23 04:43:45

#Version: 2.2.20231116
#Station: R2M6_AANII_01
#Location: 30.233357 lon 59.946436 lat
#TLE: 1 43010U 17072A   26022.47411728  .00000617  00000+0  31375-3 0  9996
#TLE: 2 43010  98.9952 354.4060 0002481  95.7964 264.3494 14.19699924424319

#Time	Az	El	Level	Level2	SNR	BER	BlckErr	Temp	State	Recorded	gain1	gain2
2026-01-23 04:43:45.73	10.00	6.98	-32.3	-39.5	4.1	8.38e-01	0	41	0	0	24	8282
2026-01-23 04:43:46.73	9.90	7.04	-31.2	-35.7	4.9	8.00e-01	0	41	104	0	22	6070
2026-01-23 04:43:47.74	9.79	7.10	-31.1	-35.5	7.4	9.49e-02	0	41	0	0	22	5970
2026-01-23 04:43:48.75	9.69	7.15	-31.1	-35.4	7.6	8.65e-02	0	41	0	5242880	22	5880
2026-01-23 04:43:49.75	9.58	7.21	-31.1	-35.4	7.6	9.05e-02	0	41	0	10485760	22	5899
2026-01-23 04:43:50.76	9.48	7.27	-31.0	-35.2	7.8	7.51e-02	0	41	0	16777216	22	5787
2026-01-23 04:43:51.76	9.37	7.33	-31.2	-35.6	7.5	1.14e-01	0	41	0	22020096	22	5960
2026-01-23 04:43:52.76	9.26	7.39	-31.0	-35.1	7.8	1.04e-01	0	41	0	28311552	22	5761
2026-01-23 04:43:53.77	9.15	7.45	-30.7	-34.6	8.5	7.04e-02	0	41	0	33554432	21	5644
2026-01-23 04:43:54.76	9.05	7.51	-30.4	-33.6	9.2	2.84e-02	0	41	0	38797312	21	5236
2026-01-23 04:43:55.77	8.94	7.57	-29.8	-32.5	10.3	9.96e-03	0	41	0	45088768	20	4923
2026-01-23 04:43:56.77	8.83	7.63	-29.4	-31.4	11.0	4.36e-03	0	41	0	50331648	20	4538
2026-01-23 04:43:57.78	8.72	7.69	-29.1	-31.5	11.7	1.23e-03	0	41	0	55574528	18	4777
2026-01-23 04:43:58.78	8.61	7.75	-28.7	-31.2	12.2	5.26e-04	0	41	0	61865984	17	4773
2026-01-23 04:43:59.78	8.50	7.81	-28.9	-31.7	11.9	4.89e-04	0	41	0	67108864	17	4935
2026-01-23 04:44:00.78	8.39	7.87	-29.1	-31.7	11.7	6.63e-04	0	41	0	73400320	18	4816
2026-01-23 04:44:01.79	8.28	7.93	-29.2	-31.8	11.6	1.16e-03	0	41	0	78643200	18	4856
2026-01-23 04:44:02.78	8.17	7.99	-28.9	-31.0	12.1	6.61e-04	0	41	0	83886080	18	4618
2026-01-23 04:44:03.79	8.06	8.05	-28.8	-30.9	12.1	4.30e-04	0	42	0	90177536	18	4570
2026-01-23 04:44:04.80	7.94	8.11	-28.8	-31.3	12.2	3.34e-04	0	41	0	95420416	17	4826
2026-01-23 04:44:05.80	7.83	8.17	-28.7	-31.2	12.3	2.60e-04	0	42	0	101711872	17	4779
2026-01-23 04:44:06.81	7.72	8.23	-28.7	-31.0	12.4	2.12e-04	0	42	0	106954752	17	4717
2026-01-23 04:44:07.81	7.60	8.29	-29.0	-31.7	11.9	2.24e-04	0	42	0	112197632	17	4954
2026-01-23 04:44:08.82	7.49	8.35	-28.7	-30.6	12.3	2.92e-04	0	41	0	118489088	18	4488
2026-01-23 04:44:09.82	7.37	8.41	-28.2	-29.8	13.1	1.27e-04	0	42	0	123731968	17	4334
2026-01-23 04:44:10.83	7.26	8.47	-27.9	-29.6	13.6	1.83e-05	0	41	0	128974848	16	4385
2026-01-23 04:44:11.82	7.14	8.53	-27.6	-28.9	14.0	8.00e-06	0	41	0	135266304	16	4195
2026-01-23 04:44:12.83	7.02	8.59	-27.5	-29.2	13.9	2.20e-06	0	42	0	140509184	15	4387
2026-01-23 04:44:13.84	6.91	8.65	-27.3	-29.3	14.2	3.40e-06	0	42	0	146800640	14	4534
2026-01-23 04:44:14.84	6.79	8.71	-27.2	-29.2	14.2	3.40e-06	0	42	0	152043520	14	4492
2026-01-23 04:44:15.85	6.67	8.77	-27.1	-28.8	14.5	0.00e+00	0	42	0	157286400	14	4392
2026-01-23 04:44:16.85	6.55	8.83	-27.1	-28.9	14.4	1.10e-06	0	42	0	163577856	14	4406
2026-01-23 04:44:17.85	6.43	8.89	-27.1	-28.8	14.5	1.10e-06	0	42	0	168820736	14	4376
2026-01-23 04:44:18.85	6.32	8.95	-26.9	-28.3	14.8	2.20e-06	0	42	0	175112192	14	4251
2026-01-23 04:44:19.85	6.20	9.01	-27.0	-29.0	14.7	0.00e+00	0	42	0	180355072	13	4561
2026-01-23 04:44:20.86	6.07	9.07	-27.0	-28.6	14.6	2.20e-06	0	42	0	185597952	14	4319
2026-01-23 04:44:21.86	5.95	9.13	-27.0	-28.6	14.6	0.00e+00	0	42	0	191889408	14	4332
2026-01-23 04:44:22.87	5.83	9.19	-27.6	-29.5	13.8	5.70e-06	0	42	0	197132288	15	4472
2026-01-23 04:44:23.87	5.71	9.25	-27.3	-28.9	14.2	2.20e-06	0	42	0	202375168	15	4292
2026-01-23 04:44:24.87	5.59	9.31	-27.2	-29.0	14.4	1.10e-06	0	42	0	208666624	14	4441
2026-01-23 04:44:25.87	5.47	9.37	-27.2	-29.2	14.3	3.40e-06	0	42	0	213909504	14	4498
2026-01-23 04:44:26.88	5.34	9.43	-27.2	-29.0	14.4	2.20e-06	0	42	0	219152384	14	4432
2026-01-23 04:44:27.88	5.22	9.49	-27.1	-28.8	14.5	1.10e-06	0	42	0	225443840	14	4399
2026-01-23 04:44:28.87	5.09	9.55	-27.1	-28.9	14.5	0.00e+00	0	42	0	230686720	14	4416
2026-01-23 04:44:29.88	4.97	9.61	-27.2	-29.0	14.4	0.00e+00	0	42	0	236978176	14	4451
2026-01-23 04:44:30.88	4.84	9.67	-27.1	-28.9	14.5	0.00e+00	0	42	0	242221056	14	4414
2026-01-23 04:44:31.89	4.72	9.73	-27.2	-29.2	14.3	1.10e-06	0	42	0	248512512	14	4501
2026-01-23 04:44:32.89	4.59	9.79	-27.2	-29.1	14.4	2.20e-06	0	42	0	253755392	14	4458
2026-01-23 04:44:33.88	4.46	9.85	-27.2	-29.0	14.4	2.20e-06	0	42	0	258998272	14	4435
2026-01-23 04:44:34.89	4.34	9.91	-27.3	-29.2	14.3	0.00e+00	0	42	0	265289728	14	4506
2026-01-23 04:44:35.89	4.21	9.97	-27.3	-29.3	14.2	0.00e+00	0	42	0	270532608	14	4536
2026-01-23 04:44:36.90	4.08	10.03	-27.1	-28.8	14.5	2.20e-06	0	42	0	275775488	14	4390
2026-01-23 04:44:37.89	3.95	10.09	-26.9	-28.4	14.5	1.10e-06	0	42	0	282066944	14	4274
2026-01-23 04:44:38.89	3.82	10.15	-27.0	-29.1	11.8	0.00e+00	0	42	0	287309824	13	4571
2026-01-23 04:44:39.89	3.69	10.21	-26.9	-28.9	14.3	2.20e-06	0	42	0	292552704	13	4538
2026-01-23 04:44:40.90	3.56	10.27	-26.9	-28.8	14.9	0.00e+00	0	42	0	298844160	13	4488
2026-01-23 04:44:41.90	3.43	10.33	-26.9	-29.0	14.8	1.78e-03	0	42	0	304087040	13	4545
2026-01-23 04:44:42.91	3.29	10.40	-26.8	-28.7	14.9	0.00e+00	0	42	0	310378496	13	4469
2026-01-23 04:44:43.91	3.16	10.46	-26.6	-28.2	15.2	0.00e+00	0	42	0	315621376	13	4325
2026-01-23 04:44:44.92	3.03	10.52	-26.7	-28.5	15.1	0.00e+00	0	42	0	320864256	13	4397
2026-01-23 04:44:45.92	2.89	10.58	-26.8	-28.7	14.9	0.00e+00	0	42	0	327155712	13	4466
2026-01-23 04:44:46.92	2.76	10.64	-26.9	-28.8	14.9	1.26e-04	0	42	0	332398592	13	4506
2026-01-23 04:44:47.92	2.62	10.70	-26.7	-28.5	15.1	0.00e+00	0	42	0	337641472	13	4397
2026-01-23 04:44:48.92	2.49	10.76	-26.8	-28.7	14.9	1.71e-03	0	43	0	343932928	13	4464
2026-01-23 04:44:49.93	2.35	10.82	-26.7	-28.5	15.1	0.00e+00	0	42	0	349175808	13	4409
2026-01-23 04:44:50.94	2.21	10.88	-26.8	-28.6	15.0	1.62e-03	0	42	0	355467264	13	4442
2026-01-23 04:44:51.94	2.08	10.94	-26.9	-28.8	14.9	1.54e-03	0	42	0	360710144	13	4503
2026-01-23 04:44:52.94	1.94	11.00	-26.7	-28.5	15.1	0.00e+00	0	42	0	367001600	13	4403
2026-01-23 04:44:53.95	1.80	11.06	-26.7	-28.4	15.1	1.57e-03	0	42	0	372244480	13	4390
2026-01-23 04:44:54.95	1.66	11.12	-26.7	-28.4	15.1	0.00e+00	0	42	0	377487360	13	4383
2026-01-23 04:44:55.95	1.52	11.18	-26.7	-28.3	15.2	3.89e-05	0	43	0	383778816	13	4351
2026-01-23 04:44:56.96	1.38	11.24	-26.6	-28.3	15.2	1.10e-06	0	42	0	389021696	13	4344
2026-01-23 04:44:57.96	1.24	11.30	-26.8	-28.6	15.0	1.53e-03	0	42	0	394264576	13	4445
2026-01-23 04:44:58.96	1.10	11.36	-26.6	-28.3	15.2	4.69e-05	0	42	0	400556032	13	4338
2026-01-23 04:44:59.97	0.96	11.42	-26.6	-28.2	15.3	0.00e+00	0	43	0	405798912	13	4316
2026-01-23 04:45:00.97	0.81	11.48	-26.5	-28.0	15.4	1.47e-03	0	42	0	411041792	13	4256
2026-01-23 04:45:01.97	0.67	11.54	-26.6	-28.2	15.2	0.00e+00	0	43	0	417333248	13	4336
2026-01-23 04:45:02.98	0.53	11.60	-26.5	-28.4	15.5	1.48e-03	0	42	0	422576128	12	4486
2026-01-23 04:45:03.97	0.38	11.66	-26.6	-28.1	15.3	1.44e-03	0	42	0	428867584	13	4305
2026-01-23 04:45:04.97	0.24	11.72	-26.6	-28.1	15.3	5.26e-05	0	43	0	434110464	13	4296
2026-01-23 04:45:05.97	0.09	11.78	-26.8	-28.5	15.1	1.43e-03	0	43	0	439353344	13	4415
2026-01-23 04:45:06.97	359.95	11.84	-26.6	-28.3	15.2	1.55e-03	0	42	0	445644800	13	4341
2026-01-23 04:45:07.97	359.80	11.90	-26.8	-28.7	15.0	6.40e-05	0	43	0	450887680	13	4472
2026-01-23 04:45:08.98	359.65	11.96	-26.7	-28.5	15.2	1.54e-03	0	42	0	456130560	13	4407
2026-01-23 04:45:09.99	359.50	12.02	-26.6	-28.1	15.3	1.48e-03	0	42	0	462422016	13	4305
2026-01-23 04:45:11.00	359.35	12.08	-26.6	-28.2	15.3	9.04e-05	0	43	0	467664896	13	4329
2026-01-23 04:45:12.00	359.21	12.14	-26.5	-28.1	15.4	1.49e-03	0	43	0	473956352	13	4288
2026-01-23 04:45:13.01	359.05	12.20	-26.5	-27.9	15.5	1.41e-03	0	43	0	479199232	13	4232
2026-01-23 04:45:14.02	358.90	12.26	-26.5	-28.0	15.5	0.00e+00	0	42	0	484442112	13	4255
2026-01-23 04:45:15.02	358.75	12.32	-26.3	-28.1	15.7	1.49e-03	0	43	0	490733568	12	4408
2026-01-23 04:45:16.03	358.60	12.38	-26.5	-28.0	15.4	0.00e+00	0	42	0	495976448	13	4274
2026-01-23 04:45:17.03	358.45	12.44	-26.8	-28.5	15.1	1.10e-04	0	43	0	502267904	13	4415
2026-01-23 04:45:18.03	358.29	12.50	-26.6	-28.1	15.4	1.61e-03	0	43	0	507510784	13	4304
2026-01-23 04:45:19.04	358.14	12.56	-26.5	-27.9	15.5	1.43e-03	0	43	0	513802240	13	4234
2026-01-23 04:45:20.04	357.98	12.62	-26.4	-28.2	15.6	1.59e-04	0	43	0	519045120	12	4434
2026-01-23 04:45:21.04	357.83	12.68	-26.4	-28.2	15.6	0.00e+00	0	43	0	524288000	12	4443
2026-01-23 04:45:22.05	357.67	12.74	-26.3	-28.1	15.7	1.23e-03	0	43	0	530579456	12	4393
2026-01-23 04:45:23.06	357.52	12.80	-26.2	-27.9	15.8	0.00e+00	0	43	0	535822336	12	4349
2026-01-23 04:45:24.06	357.36	12.86	-26.4	-28.3	15.6	1.19e-03	0	43	0	541065216	12	4463
2026-01-23 04:45:25.06	357.20	12.92	-26.2	-27.8	15.9	0.00e+00	0	43	0	547356672	12	4319
2026-01-23 04:45:26.06	357.04	12.98	-26.1	-27.5	16.0	0.00e+00	0	43	0	552599552	12	4247
2026-01-23 04:45:27.06	356.89	13.04	-26.1	-27.5	16.0	0.00e+00	0	43	0	557842432	12	4256
2026-01-23 04:45:28.07	356.72	13.10	-26.2	-27.7	15.9	0.00e+00	0	43	0	564133888	12	4304
2026-01-23 04:45:29.08	356.56	13.15	-26.1	-27.5	16.0	1.37e-04	0	43	0	569376768	12	4245
2026-01-23 04:45:30.09	356.40	13.21	-26.3	-28.0	15.7	0.00e+00	0	43	0	575668224	12	4380
2026-01-23 04:45:31.09	356.24	13.27	-26.2	-27.8	15.9	0.00e+00	0	43	0	580911104	12	4315
2026-01-23 04:45:32.10	356.08	13.33	-26.2	-27.7	15.9	0.00e+00	0	43	0	587202560	12	4295
2026-01-23 04:45:33.11	355.91	13.39	-26.2	-27.7	15.9	0.00e+00	0	43	0	592445440	12	4311
2026-01-23 04:45:34.11	355.75	13.45	-26.3	-28.1	15.7	0.00e+00	0	43	0	597688320	12	4411
2026-01-23 04:45:35.11	355.59	13.51	-26.1	-27.7	16.0	0.00e+00	0	43	0	603979776	12	4289
2026-01-23 04:45:36.11	355.42	13.56	-26.2	-27.7	15.9	0.00e+00	0	43	0	609222656	12	4298
2026-01-23 04:45:37.11	355.26	13.62	-26.1	-27.7	16.0	0.00e+00	0	43	0	614465536	12	4287
2026-01-23 04:45:38.11	355.09	13.68	-26.2	-27.8	15.9	0.00e+00	0	43	0	620756992	12	4311
2026-01-23 04:45:39.12	354.92	13.74	-26.0	-27.3	16.2	0.00e+00	0	43	0	625999872	12	4181
2026-01-23 04:45:40.12	354.76	13.80	-25.9	-27.0	16.3	0.00e+00	0	43	0	631242752	12	4117
2026-01-23 04:45:41.12	354.59	13.85	-25.8	-26.9	16.4	0.00e+00	0	43	0	637534208	12	4076
2026-01-23 04:45:42.12	354.42	13.91	-25.9	-27.6	16.3	0.00e+00	0	43	0	642777088	11	4380
2026-01-23 04:45:43.13	354.25	13.97	-25.8	-27.5	16.4	0.00e+00	0	43	0	649068544	11	4339
2026-01-23 04:45:44.13	354.08	14.03	-25.9	-27.7	16.3	0.00e+00	0	43	0	654311424	11	4393
2026-01-23 04:45:45.14	353.91	14.08	-25.9	-27.2	16.3	0.00e+00	0	43	0	660602880	12	4150
2026-01-23 04:45:46.14	353.74	14.14	-26.0	-27.3	16.2	0.00e+00	0	43	0	665845760	12	4198
2026-01-23 04:45:47.14	353.56	14.20	-26.3	-27.9	15.8	0.00e+00	0	43	0	671088640	12	4356
2026-01-23 04:45:48.14	353.39	14.25	-26.2	-27.8	15.9	0.00e+00	0	43	0	677380096	12	4332
2026-01-23 04:45:49.15	353.22	14.31	-26.2	-27.9	15.9	0.00e+00	0	43	0	682622976	12	4341
2026-01-23 04:45:50.15	353.04	14.37	-26.2	-27.9	15.9	0.00e+00	0	43	0	687865856	12	4338
2026-01-23 04:45:51.15	352.87	14.42	-26.1	-27.6	16.0	0.00e+00	0	43	0	694157312	12	4259
2026-01-23 04:45:52.15	352.69	14.48	-26.0	-27.4	16.2	0.00e+00	0	43	0	699400192	12	4207
2026-01-23 04:45:53.16	352.52	14.54	-26.0	-27.3	16.2	0.00e+00	0	43	0	704643072	12	4196
2026-01-23 04:45:54.16	352.34	14.59	-26.0	-27.4	16.2	0.00e+00	0	43	0	710934528	12	4203
2026-01-23 04:45:55.16	352.16	14.65	-25.8	-26.9	16.5	0.00e+00	0	43	0	716177408	12	4075
2026-01-23 04:45:56.17	351.98	14.70	-25.7	-26.6	16.6	0.00e+00	0	43	0	722468864	12	4009
2026-01-23 04:45:57.17	351.80	14.76	-25.7	-27.1	16.7	0.00e+00	0	43	0	727711744	11	4239
2026-01-23 04:45:58.17	351.63	14.81	-25.6	-27.0	16.7	0.00e+00	0	43	0	732954624	11	4206
2026-01-23 04:45:59.18	351.44	14.87	-25.7	-27.1	16.7	0.00e+00	0	43	0	739246080	11	4243
2026-01-23 04:46:00.18	351.26	14.92	-25.6	-26.9	16.8	0.00e+00	0	43	0	744488960	11	4180
2026-01-23 04:46:01.19	351.08	14.98	-25.6	-26.9	16.8	0.00e+00	0	43	0	750780416	11	4188
2026-01-23 04:46:02.20	350.90	15.03	-25.7	-27.1	16.7	0.00e+00	0	43	0	756023296	11	4238
2026-01-23 04:46:03.20	350.71	15.09	-25.6	-27.0	16.7	0.00e+00	0	43	0	761266176	11	4208
2026-01-23 04:46:04.20	350.53	15.14	-25.6	-27.0	16.7	0.00e+00	0	43	0	767557632	11	4228
2026-01-23 04:46:05.21	350.35	15.20	-25.7	-27.2	16.6	0.00e+00	0	43	0	772800512	11	4277
2026-01-23 04:46:06.21	350.16	15.25	-25.7	-27.2	16.6	0.00e+00	0	43	0	778043392	11	4262
2026-01-23 04:46:07.21	349.98	15.31	-25.7	-27.2	16.6	0.00e+00	0	43	0	784334848	11	4267
2026-01-23 04:46:08.21	349.79	15.36	-25.8	-27.3	16.6	0.00e+00	0	43	0	789577728	11	4298
2026-01-23 04:46:09.21	349.60	15.41	-25.6	-27.0	16.8	0.00e+00	0	43	0	795869184	11	4212
2026-01-23 04:46:10.21	349.42	15.47	-25.6	-26.9	16.8	0.00e+00	0	43	0	801112064	11	4198
2026-01-23 04:46:11.21	349.23	15.52	-25.6	-26.9	16.8	0.00e+00	0	43	0	806354944	11	4202
2026-01-23 04:46:12.21	349.04	15.57	-25.5	-26.8	16.8	0.00e+00	0	43	0	812646400	11	4163
2026-01-23 04:46:13.22	348.85	15.62	-25.6	-27.0	16.7	0.00e+00	0	43	0	817889280	11	4224
2026-01-23 04:46:14.22	348.66	15.68	-25.4	-26.6	17.0	0.00e+00	0	43	0	823132160	11	4113
2026-01-23 04:46:15.22	348.47	15.73	-25.4	-26.4	17.1	0.00e+00	0	43	0	829423616	11	4065
2026-01-23 04:46:16.23	348.27	15.78	-25.4	-27.0	17.0	0.00e+00	0	43	0	834666496	10	4328
2026-01-23 04:46:17.24	348.08	15.83	-25.4	-27.0	17.0	0.00e+00	0	43	0	840957952	10	4340
2026-01-23 04:46:18.24	347.89	15.88	-25.5	-26.7	16.9	0.00e+00	0	43	0	846200832	11	4135
2026-01-23 04:46:19.25	347.69	15.94	-25.6	-27.0	16.7	0.00e+00	0	43	0	851443712	11	4225
2026-01-23 04:46:20.25	347.50	15.99	-25.7	-27.1	16.7	0.00e+00	0	43	0	857735168	11	4255
2026-01-23 04:46:21.26	347.30	16.04	-25.5	-26.8	16.9	2.46e-04	0	43	0	862978048	11	4172
2026-01-23 04:46:22.26	347.10	16.09	-25.5	-26.6	17.0	0.00e+00	0	43	0	869269504	11	4121
2026-01-23 04:46:23.26	346.91	16.14	-25.5	-26.6	17.0	0.00e+00	0	43	0	874512384	11	4123
2026-01-23 04:46:24.27	346.71	16.19	-25.5	-26.7	16.9	0.00e+00	0	43	0	879755264	11	4130
2026-01-23 04:46:25.27	346.51	16.24	-25.3	-26.3	17.1	0.00e+00	0	43	0	886046720	11	4047
2026-01-23 04:46:26.27	346.31	16.29	-25.5	-26.7	17.0	6.51e-04	0	43	0	891289600	11	4130
2026-01-23 04:46:27.28	346.11	16.34	-25.4	-26.9	17.1	0.00e+00	0	43	0	896532480	10	4300
2026-01-23 04:46:28.28	345.91	16.39	-25.4	-26.9	17.1	0.00e+00	0	43	0	902823936	10	4309
2026-01-23 04:46:29.27	345.72	16.44	-25.4	-27.0	17.0	0.00e+00	0	43	0	908066816	10	4319
2026-01-23 04:46:30.28	345.51	16.49	-25.3	-26.9	17.1	1.11e-03	0	43	0	913309696	10	4292
2026-01-23 04:46:31.27	345.31	16.53	-25.3	-26.7	17.2	0.00e+00	0	43	0	919601152	10	4251
2026-01-23 04:46:32.28	345.11	16.58	-25.2	-26.6	17.3	0.00e+00	0	43	0	924844032	10	4222
2026-01-23 04:46:33.29	344.90	16.63	-25.2	-26.6	17.2	1.12e-03	0	43	0	931135488	10	4228
2026-01-23 04:46:34.29	344.70	16.68	-25.2	-26.7	17.2	0.00e+00	0	43	0	936378368	10	4242
2026-01-23 04:46:35.29	344.50	16.73	-25.2	-26.5	17.3	1.17e-03	0	43	0	942669824	10	4208
2026-01-23 04:46:36.30	344.29	16.77	-25.2	-26.7	17.2	1.31e-03	0	43	0	947912704	10	4244
2026-01-23 04:46:37.30	344.08	16.82	-25.2	-26.5	17.3	0.00e+00	0	43	0	953155584	10	4205
2026-01-23 04:46:38.31	343.88	16.87	-25.2	-26.7	17.2	1.33e-03	0	43	0	959447040	10	4237
2026-01-23 04:46:39.31	343.67	16.91	-25.1	-26.4	17.3	1.32e-03	0	43	0	964689920	10	4167
2026-01-23 04:46:40.31	343.46	16.96	-25.1	-26.3	17.4	0.00e+00	0	43	0	969932800	10	4143
2026-01-23 04:46:41.32	343.25	17.00	-25.1	-26.3	17.4	1.36e-03	0	43	0	976224256	10	4148
2026-01-23 04:46:42.31	343.05	17.05	-25.1	-26.3	17.4	1.26e-03	0	43	0	981467136	10	4137
2026-01-23 04:46:43.32	342.83	17.09	-25.1	-26.5	17.3	0.00e+00	0	43	0	986710016	10	4186
2026-01-23 04:46:44.32	342.62	17.14	-25.1	-26.4	17.4	1.43e-03	0	43	0	993001472	10	4180
2026-01-23 04:46:45.32	342.41	17.18	-25.1	-26.3	17.4	1.51e-03	0	43	0	998244352	10	4143
2026-01-23 04:46:46.32	342.20	17.23	-25.1	-26.3	17.4	0.00e+00	0	43	0	1004535808	10	4147
2026-01-23 04:46:47.32	341.99	17.27	-25.1	-26.4	17.3	1.61e-03	0	43	0	1009778688	10	4169
2026-01-23 04:46:48.33	341.78	17.31	-25.0	-26.1	17.5	1.54e-03	0	43	0	1015021568	10	4097
2026-01-23 04:46:49.34	341.56	17.36	-25.0	-26.0	17.5	2.20e-06	0	43	0	1021313024	10	4078
2026-01-23 04:46:50.35	341.35	17.40	-24.9	-25.9	17.6	0.00e+00	0	43	0	1026555904	10	4054
2026-01-23 04:46:51.35	341.13	17.44	-24.9	-25.9	17.6	1.53e-03	0	43	0	1032847360	10	4055
2026-01-23 04:46:52.35	340.92	17.48	-25.0	-26.2	17.5	2.20e-06	0	43	0	1038090240	10	4118
2026-01-23 04:46:53.36	340.70	17.53	-25.0	-26.2	17.5	0.00e+00	0	43	0	1043333120	10	4114
2026-01-23 04:46:54.37	340.48	17.57	-25.0	-26.2	17.4	1.68e-03	0	43	0	1049624576	10	4124
2026-01-23 04:46:55.37	340.26	17.61	-25.1	-26.3	17.4	0.00e+00	0	43	0	1054867456	10	4147
2026-01-23 04:46:56.38	340.04	17.65	-24.8	-25.8	17.7	1.65e-03	0	43	0	1060110336	10	4014
2026-01-23 04:46:57.37	339.83	17.69	-24.7	-26.0	17.8	0.00e+00	0	43	0	1066401792	9	4194
2026-01-23 04:46:58.36	339.61	17.73	-24.7	-26.1	17.8	0.00e+00	0	43	0	1071644672	9	4205
2026-01-23 04:46:59.36	339.39	17.77	-24.8	-26.1	17.8	1.57e-03	0	43	0	1077936128	9	4214
2026-01-23 04:47:00.37	339.17	17.81	-24.8	-26.1	17.8	0.00e+00	0	43	0	1083179008	9	4212
2026-01-23 04:47:01.37	338.95	17.85	-24.8	-26.3	17.7	3.77e-05	0	43	0	1088421888	9	4253
2026-01-23 04:47:02.37	338.73	17.88	-24.9	-26.4	17.6	0.00e+00	0	43	0	1094713344	9	4283
2026-01-23 04:47:03.37	338.51	17.92	-24.9	-26.4	17.6	0.00e+00	0	43	0	1099956224	9	4295
2026-01-23 04:47:04.37	338.29	17.96	-24.9	-26.5	17.6	0.00e+00	0	43	0	1105199104	9	4311
2026-01-23 04:47:05.36	338.07	18.00	-24.8	-26.3	17.7	0.00e+00	0	43	0	1111490560	9	4265
2026-01-23 04:47:06.36	337.84	18.03	-24.9	-26.4	17.6	1.60e-03	0	43	0	1116733440	9	4292
2026-01-23 04:47:07.37	337.62	18.07	-24.8	-26.3	17.7	0.00e+00	0	43	0	1121976320	9	4259
2026-01-23 04:47:08.37	337.39	18.11	-24.6	-25.9	17.9	1.12e-03	0	43	0	1128267776	9	4144
2026-01-23 04:47:09.37	337.17	18.14	-24.5	-25.6	18.0	0.00e+00	0	43	0	1133510656	9	4089
2026-01-23 04:47:10.37	336.95	18.18	-24.6	-25.7	18.0	0.00e+00	0	43	0	1139802112	9	4104
2026-01-23 04:47:11.37	336.72	18.21	-24.7	-26.0	17.8	0.00e+00	0	43	0	1145044992	9	4185
2026-01-23 04:47:12.37	336.49	18.25	-24.7	-26.0	17.9	0.00e+00	0	43	0	1150287872	9	4171
2026-01-23 04:47:13.38	336.26	18.28	-24.7	-26.0	17.9	1.10e-06	0	43	0	1156579328	9	4182
2026-01-23 04:47:14.39	336.03	18.31	-24.7	-25.9	17.9	0.00e+00	0	43	0	1161822208	9	4164
2026-01-23 04:47:15.39	335.81	18.35	-24.7	-26.1	17.8	0.00e+00	0	43	0	1168113664	9	4206
2026-01-23 04:47:16.39	335.58	18.38	-24.7	-26.0	17.9	0.00e+00	0	43	0	1173356544	9	4170
2026-01-23 04:47:17.40	335.35	18.41	-24.6	-25.9	17.9	0.00e+00	0	43	0	1178599424	9	4161
2026-01-23 04:47:18.40	335.12	18.44	-24.7	-25.9	17.9	0.00e+00	0	43	0	1184890880	9	4157
2026-01-23 04:47:19.40	334.89	18.47	-24.6	-25.9	17.9	0.00e+00	0	43	0	1190133760	9	4143
2026-01-23 04:47:20.40	334.66	18.51	-24.8	-26.1	17.7	0.00e+00	0	43	0	1195376640	9	4213
2026-01-23 04:47:21.40	334.43	18.54	-24.9	-26.4	17.6	0.00e+00	0	43	0	1201668096	9	4295
2026-01-23 04:47:22.41	334.19	18.57	-24.7	-26.1	17.8	0.00e+00	0	43	0	1206910976	9	4197
2026-01-23 04:47:23.41	333.96	18.60	-24.6	-25.7	18.0	0.00e+00	0	43	0	1213202432	9	4106
2026-01-23 04:47:24.42	333.73	18.62	-24.7	-25.9	17.9	0.00e+00	0	43	0	1218445312	9	4154
2026-01-23 04:47:25.42	333.50	18.65	-24.7	-25.9	17.8	0.00e+00	0	43	0	1223688192	9	4168
2026-01-23 04:47:26.43	333.26	18.68	-24.7	-25.9	17.9	0.00e+00	0	43	0	1229979648	9	4167
2026-01-23 04:47:27.43	333.03	18.71	-24.7	-26.1	17.8	0.00e+00	0	43	0	1235222528	9	4206
2026-01-23 04:47:28.43	332.79	18.74	-24.5	-25.6	18.0	0.00e+00	0	43	0	1241513984	9	4087
2026-01-23 04:47:29.43	332.56	18.76	-24.5	-25.6	18.1	0.00e+00	0	43	0	1246756864	9	4072
2026-01-23 04:47:30.43	332.32	18.79	-24.4	-25.4	18.2	0.00e+00	0	43	0	1251999744	9	4045
2026-01-23 04:47:31.43	332.09	18.82	-24.5	-25.5	18.1	0.00e+00	0	43	0	1258291200	9	4057
2026-01-23 04:47:32.44	331.85	18.84	-24.5	-25.6	18.0	0.00e+00	0	43	0	1263534080	9	4093
2026-01-23 04:47:33.43	331.62	18.87	-24.6	-25.9	17.9	0.00e+00	0	43	0	1268776960	9	4151
2026-01-23 04:47:34.44	331.38	18.89	-24.7	-26.0	17.9	0.00e+00	0	43	0	1275068416	9	4178
2026-01-23 04:47:35.44	331.14	18.91	-24.4	-25.4	18.2	0.00e+00	0	43	0	1280311296	9	4025
2026-01-23 04:47:36.45	330.90	18.94	-24.2	-24.9	18.4	0.00e+00	0	43	0	1286602752	9	3919
2026-01-23 04:47:37.45	330.67	18.96	-24.3	-25.2	18.2	0.00e+00	0	43	0	1291845632	9	3992
2026-01-23 04:47:38.45	330.43	18.98	-24.3	-25.7	18.3	0.00e+00	0	43	0	1297088512	8	4222
2026-01-23 04:47:39.45	330.19	19.01	-24.2	-25.5	18.4	0.00e+00	0	43	0	1303379968	8	4168
2026-01-23 04:47:40.45	329.95	19.03	-24.3	-25.7	18.2	0.00e+00	0	43	0	1308622848	8	4228
2026-01-23 04:47:41.46	329.71	19.05	-24.3	-25.6	18.4	0.00e+00	0	43	0	1313865728	8	4186
2026-01-23 04:47:42.47	329.47	19.07	-24.1	-25.3	18.5	0.00e+00	0	43	0	1320157184	8	4111
2026-01-23 04:47:43.47	329.23	19.09	-24.0	-25.1	18.6	0.00e+00	0	43	0	1325400064	8	4061
2026-01-23 04:47:44.48	328.99	19.11	-24.0	-25.1	18.6	0.00e+00	0	43	0	1331691520	8	4064
2026-01-23 04:47:45.49	328.74	19.13	-24.1	-25.2	18.5	0.00e+00	0	43	0	1336934400	8	4087
2026-01-23 04:47:46.48	328.51	19.15	-24.1	-25.2	18.6	0.00e+00	0	43	0	1342177280	8	4104
2026-01-23 04:47:47.49	328.26	19.16	-24.2	-25.4	18.5	0.00e+00	0	43	0	1348468736	8	4137
2026-01-23 04:47:48.49	328.02	19.18	-24.2	-25.4	18.4	0.00e+00	0	43	0	1353711616	8	4149
2026-01-23 04:47:49.49	327.78	19.20	-24.2	-25.4	18.4	0.00e+00	0	43	0	1360003072	8	4142
2026-01-23 04:47:50.50	327.54	19.21	-24.2	-25.4	18.4	0.00e+00	0	43	0	1365245952	8	4153
2026-01-23 04:47:51.50	327.30	19.23	-24.3	-25.6	18.3	0.00e+00	0	43	0	1370488832	8	4203
2026-01-23 04:47:52.50	327.05	19.25	-24.4	-25.8	18.3	0.00e+00	0	43	0	1376780288	8	4237
2026-01-23 04:47:53.51	326.81	19.26	-24.3	-25.7	18.3	0.00e+00	0	43	0	1382023168	8	4215
2026-01-23 04:47:54.51	326.57	19.27	-24.3	-25.7	18.3	0.00e+00	0	43	0	1387266048	8	4210
2026-01-23 04:47:55.51	326.32	19.29	-23.8	-25.1	18.0	0.00e+00	0	43	0	1393557504	8	4180
2026-01-23 04:47:56.52	326.08	19.30	-24.5	-26.1	13.8	0.00e+00	0	43	0	1398800384	8	4322
2026-01-23 04:47:57.53	325.83	19.31	-24.6	-25.8	17.9	0.00e+00	0	43	0	1405091840	9	4137
2026-01-23 04:47:58.53	325.59	19.33	-24.7	-26.1	15.8	0.00e+00	0	43	0	1410334720	9	4209
2026-01-23 04:47:59.53	325.35	19.34	-24.7	-26.1	17.9	0.00e+00	0	43	0	1416626176	9	4200
2026-01-23 04:48:00.54	325.10	19.35	-24.6	-25.9	17.9	0.00e+00	0	43	0	1421869056	9	4146
2026-01-23 04:48:01.54	324.86	19.36	-24.4	-25.5	18.2	0.00e+00	0	43	0	1427111936	9	4041
2026-01-23 04:48:02.55	324.61	19.37	-24.4	-25.3	18.2	0.00e+00	0	43	0	1433403392	9	3996
2026-01-23 04:48:03.56	324.36	19.38	-24.4	-25.8	18.2	1.01e-04	0	43	0	1438646272	8	4241
2026-01-23 04:48:04.56	324.12	19.39	-24.4	-25.8	18.2	0.00e+00	0	43	0	1443889152	8	4239
2026-01-23 04:48:05.57	323.87	19.40	-24.6	-25.8	18.0	1.15e-03	0	43	0	1450180608	9	4144
2026-01-23 04:48:06.57	323.63	19.40	-24.6	-25.8	18.0	0.00e+00	0	43	0	1455423488	9	4137
2026-01-23 04:48:07.58	323.38	19.41	-24.3	-25.2	18.3	1.41e-03	0	43	0	1460666368	9	3974
2026-01-23 04:48:08.58	323.13	19.42	-24.2	-25.4	18.4	0.00e+00	0	43	0	1466957824	8	4128
2026-01-23 04:48:09.58	322.89	19.42	-24.3	-25.6	18.3	0.00e+00	0	43	0	1472200704	8	4183
2026-01-23 04:48:10.58	322.64	19.43	-24.3	-25.6	18.3	1.53e-03	0	43	0	1478492160	8	4196
2026-01-23 04:48:11.58	322.40	19.44	-24.3	-25.6	18.3	0.00e+00	0	43	0	1483735040	8	4183
2026-01-23 04:48:12.58	322.15	19.44	-24.2	-25.5	18.4	1.84e-04	0	43	0	1488977920	8	4164
2026-01-23 04:48:13.59	321.91	19.44	-24.3	-25.6	18.4	0.00e+00	0	43	0	1495269376	8	4181
2026-01-23 04:48:14.59	321.66	19.45	-24.4	-25.4	18.2	9.89e-04	0	43	0	1500512256	9	4028
2026-01-23 04:48:15.60	321.41	19.45	-24.5	-25.5	18.1	2.61e-04	0	43	0	1506803712	9	4063
2026-01-23 04:48:16.60	321.17	19.45	-24.5	-25.7	18.0	5.43e-04	0	43	0	1512046592	9	4094
2026-01-23 04:48:17.61	320.92	19.45	-24.8	-26.2	17.7	8.71e-04	0	43	0	1517289472	9	4241
2026-01-23 04:48:18.60	320.68	19.46	-24.8	-26.2	17.7	0.00e+00	0	43	0	1523580928	9	4224
2026-01-23 04:48:19.61	320.43	19.46	-24.7	-26.0	17.8	1.18e-03	0	43	0	1528823808	9	4181
2026-01-23 04:48:20.62	320.18	19.46	-24.7	-26.0	17.8	1.20e-03	0	43	0	1534066688	9	4191
2026-01-23 04:48:21.62	319.93	19.46	-24.8	-26.1	17.7	1.10e-04	0	43	0	1540358144	9	4223
2026-01-23 04:48:22.62	319.69	19.45	-24.7	-26.1	17.8	1.25e-03	0	43	0	1545601024	9	4207
2026-01-23 04:48:23.63	319.44	19.45	-24.7	-26.0	17.8	1.29e-03	0	43	0	1551892480	9	4188
2026-01-23 04:48:24.63	319.19	19.45	-24.6	-25.9	17.9	3.11e-04	0	43	0	1557135360	9	4154
2026-01-23 04:48:25.63	318.95	19.45	-24.6	-25.8	17.9	1.16e-03	0	43	0	1562378240	9	4120
2026-01-23 04:48:26.64	318.70	19.44	-24.9	-26.4	17.6	8.26e-04	0	43	0	1568669696	9	4283
2026-01-23 04:48:27.64	318.46	19.44	-24.8	-25.7	17.7	0.00e+00	0	43	0	1573912576	10	4002
2026-01-23 04:48:28.64	318.21	19.44	-24.5	-25.1	18.1	3.34e-04	0	43	0	1580204032	10	3841
2026-01-23 04:48:29.64	317.96	19.43	-24.3	-25.1	18.3	3.95e-04	0	43	0	1585446912	9	3969
2026-01-23 04:48:30.64	317.72	19.43	-24.4	-25.3	18.2	1.18e-04	0	43	0	1590689792	9	4009
2026-01-23 04:48:31.65	317.47	19.42	-24.5	-25.6	18.0	8.04e-04	0	43	0	1596981248	9	4080
2026-01-23 04:48:32.65	317.23	19.41	-24.7	-26.1	17.8	0.00e+00	0	43	0	1602224128	9	4203
2026-01-23 04:48:33.65	316.98	19.41	-24.7	-26.0	17.8	1.94e-04	0	43	0	1607467008	9	4182
2026-01-23 04:48:34.66	316.73	19.40	-24.7	-26.0	17.8	0.00e+00	0	43	0	1613758464	9	4179
2026-01-23 04:48:35.66	316.49	19.39	-24.7	-26.0	17.9	1.02e-03	0	43	0	1619001344	9	4173
2026-01-23 04:48:36.67	316.24	19.38	-24.6	-25.9	17.9	2.66e-04	0	43	0	1625292800	9	4158
2026-01-23 04:48:37.68	316.00	19.37	-24.7	-26.0	17.8	0.00e+00	0	43	0	1630535680	9	4183
2026-01-23 04:48:38.68	315.75	19.36	-24.8	-26.3	17.7	1.13e-03	0	43	0	1635778560	9	4264
2026-01-23 04:48:39.68	315.51	19.35	-24.6	-25.8	17.9	0.00e+00	0	43	0	1642070016	9	4138
2026-01-23 04:48:40.68	315.26	19.34	-24.5	-25.5	18.1	1.24e-03	0	43	0	1647312896	9	4066
2026-01-23 04:48:41.68	315.02	19.33	-24.5	-25.5	18.1	0.00e+00	0	43	0	1653604352	9	4060
2026-01-23 04:48:42.69	314.77	19.32	-24.6	-25.8	17.9	2.60e-04	0	43	0	1658847232	9	4125
2026-01-23 04:48:43.69	314.53	19.31	-24.7	-26.0	17.8	0.00e+00	0	43	0	1664090112	9	4188
2026-01-23 04:48:44.69	314.29	19.29	-24.6	-25.9	17.9	0.00e+00	0	43	0	1670381568	9	4148
2026-01-23 04:48:45.70	314.04	19.28	-24.7	-25.9	17.9	0.00e+00	0	43	0	1675624448	9	4164
2026-01-23 04:48:46.70	313.80	19.27	-24.5	-25.5	18.1	0.00e+00	0	43	0	1680867328	9	4061
2026-01-23 04:48:47.71	313.55	19.25	-24.2	-24.9	18.4	1.16e-03	0	43	0	1687158784	9	3918
2026-01-23 04:48:48.72	313.31	19.24	-24.0	-25.1	18.6	0.00e+00	0	43	0	1692401664	8	4054
2026-01-23 04:48:49.72	313.07	19.22	-24.1	-25.2	18.5	0.00e+00	0	43	0	1698693120	8	4104
2026-01-23 04:48:50.73	312.82	19.20	-24.0	-25.1	18.5	0.00e+00	0	43	0	1703936000	8	4070
2026-01-23 04:48:51.73	312.58	19.19	-24.0	-24.9	18.6	0.00e+00	0	43	0	1709178880	8	4029
2026-01-23 04:48:52.73	312.34	19.17	-24.1	-25.3	18.4	0.00e+00	0	43	0	1715470336	8	4126
2026-01-23 04:48:53.73	312.10	19.15	-24.1	-25.2	18.5	0.00e+00	0	43	0	1720713216	8	4106
2026-01-23 04:48:54.72	311.86	19.13	-24.3	-25.6	18.3	0.00e+00	0	43	0	1725956096	8	4182
2026-01-23 04:48:55.72	311.62	19.11	-24.2	-25.5	18.4	0.00e+00	0	43	0	1732247552	8	4172
2026-01-23 04:48:56.73	311.38	19.10	-24.3	-25.6	18.3	0.00e+00	0	43	0	1737490432	8	4187
2026-01-23 04:48:57.73	311.14	19.08	-24.1	-25.2	18.5	0.00e+00	0	43	0	1742733312	8	4093
2026-01-23 04:48:58.73	310.90	19.06	-24.0	-25.0	18.6	0.00e+00	0	43	0	1749024768	8	4047
2026-01-23 04:48:59.73	310.66	19.03	-24.0	-25.0	18.6	0.00e+00	0	43	0	1754267648	8	4054
2026-01-23 04:49:00.73	310.42	19.01	-24.1	-25.2	18.5	0.00e+00	0	43	0	1760559104	8	4105
2026-01-23 04:49:01.74	310.18	18.99	-24.1	-25.3	18.4	0.00e+00	0	43	0	1765801984	8	4121
2026-01-23 04:49:02.74	309.94	18.97	-24.2	-25.5	18.3	0.00e+00	0	43	0	1772093440	8	4176
2026-01-23 04:49:03.74	309.70	18.95	-24.3	-25.6	18.3	0.00e+00	0	43	0	1777336320	8	4183
2026-01-23 04:49:04.75	309.46	18.92	-24.2	-25.5	18.4	0.00e+00	0	43	0	1782579200	8	4162
2026-01-23 04:49:05.76	309.22	18.90	-24.3	-25.7	18.2	0.00e+00	0	43	0	1788870656	8	4231
2026-01-23 04:49:06.76	308.99	18.87	-24.2	-25.5	18.3	0.00e+00	0	43	0	1794113536	8	4175
2026-01-23 04:49:07.76	308.75	18.85	-24.2	-25.5	18.3	0.00e+00	0	43	0	1799356416	8	4159
2026-01-23 04:49:08.77	308.51	18.82	-24.3	-25.8	18.2	0.00e+00	0	43	0	1805647872	8	4236
2026-01-23 04:49:09.77	308.28	18.80	-24.3	-25.6	18.3	0.00e+00	0	43	0	1810890752	8	4195
2026-01-23 04:49:10.78	308.04	18.77	-24.3	-25.7	18.2	0.00e+00	0	43	0	1816133632	8	4230
2026-01-23 04:49:11.78	307.81	18.75	-24.3	-25.6	18.2	0.00e+00	0	43	0	1822425088	8	4201
2026-01-23 04:49:12.79	307.57	18.72	-24.4	-25.8	18.2	0.00e+00	0	43	0	1827667968	8	4241
2026-01-23 04:49:13.79	307.33	18.69	-24.5	-25.7	18.0	0.00e+00	0	43	0	1833959424	9	4093
2026-01-23 04:49:14.79	307.10	18.66	-24.8	-26.3	17.7	0.00e+00	0	43	0	1839202304	9	4246
2026-01-23 04:49:15.79	306.87	18.63	-24.6	-25.9	17.8	0.00e+00	0	43	0	1845493760	9	4154
2026-01-23 04:49:16.80	306.63	18.60	-24.7	-26.0	17.8	0.00e+00	0	43	0	1850736640	9	4185
2026-01-23 04:49:17.80	306.40	18.57	-24.8	-26.1	17.7	0.00e+00	0	43	0	1855979520	9	4220
2026-01-23 04:49:18.80	306.17	18.54	-24.8	-26.2	17.7	0.00e+00	0	43	0	1862270976	9	4223
2026-01-23 04:49:19.81	305.94	18.51	-24.7	-26.1	17.7	0.00e+00	0	43	0	1867513856	9	4200
2026-01-23 04:49:20.81	305.71	18.48	-24.7	-25.9	17.8	0.00e+00	0	43	0	1872756736	9	4160
2026-01-23 04:49:21.82	305.47	18.45	-24.6	-25.7	18.0	0.00e+00	0	43	0	1879048192	9	4107
2026-01-23 04:49:22.82	305.24	18.42	-24.6	-25.8	17.9	0.00e+00	0	43	0	1884291072	9	4134
2026-01-23 04:49:23.82	305.01	18.39	-24.5	-25.6	18.0	0.00e+00	0	43	0	1889533952	9	4079
2026-01-23 04:49:24.83	304.78	18.36	-24.4	-25.3	18.2	0.00e+00	0	43	0	1895825408	9	4015
2026-01-23 04:49:25.84	304.55	18.32	-24.3	-25.1	18.3	0.00e+00	0	43	0	1901068288	9	3957
2026-01-23 04:49:26.85	304.32	18.29	-24.3	-25.6	18.3	0.00e+00	0	43	0	1907359744	8	4185
2026-01-23 04:49:27.85	304.09	18.25	-24.3	-25.7	18.2	0.00e+00	0	43	0	1912602624	8	4214
2026-01-23 04:49:28.85	303.87	18.22	-24.3	-25.6	18.2	0.00e+00	0	43	0	1918894080	8	4200
2026-01-23 04:49:29.85	303.64	18.19	-24.4	-25.9	18.0	0.00e+00	0	43	0	1924136960	8	4279
2026-01-23 04:49:30.86	303.41	18.15	-24.3	-25.2	18.2	0.00e+00	0	43	0	1929379840	9	3992
2026-01-23 04:49:31.86	303.19	18.11	-24.3	-25.2	18.1	0.00e+00	0	43	0	1935671296	9	3993
2026-01-23 04:49:32.86	302.96	18.08	-24.4	-25.5	18.0	0.00e+00	0	43	0	1940914176	9	4052
2026-01-23 04:49:33.87	302.74	18.04	-24.4	-25.4	15.0	0.00e+00	0	43	0	1946157056	9	4041
2026-01-23 04:49:34.87	302.51	18.01	-24.5	-25.5	17.4	0.00e+00	0	43	0	1952448512	9	4063
2026-01-23 04:49:35.87	302.29	17.97	-24.6	-25.7	17.9	0.00e+00	0	43	0	1957691392	9	4108
2026-01-23 04:49:36.87	302.07	17.93	-24.5	-25.5	18.0	0.00e+00	0	43	0	1962934272	9	4062
2026-01-23 04:49:37.88	301.84	17.89	-24.4	-25.4	18.1	1.91e-04	0	43	0	1969225728	9	4025
2026-01-23 04:49:38.88	301.62	17.85	-24.4	-25.3	18.1	0.00e+00	0	43	0	1974468608	9	4015
2026-01-23 04:49:39.88	301.40	17.82	-24.5	-25.5	18.0	0.00e+00	0	43	0	1980760064	9	4054
2026-01-23 04:49:40.88	301.18	17.78	-24.4	-25.3	18.1	0.00e+00	0	43	0	1986002944	9	4013
2026-01-23 04:49:41.89	300.96	17.74	-24.3	-25.6	18.2	0.00e+00	0	43	0	1992294400	8	4201
2026-01-23 04:49:42.89	300.74	17.70	-24.2	-25.4	18.3	0.00e+00	0	43	0	1997537280	8	4144
2026-01-23 04:49:43.90	300.52	17.66	-24.2	-25.3	18.3	0.00e+00	0	43	0	2002780160	8	4129
2026-01-23 04:49:44.90	300.30	17.62	-24.3	-25.6	18.2	8.58e-05	0	43	0	2009071616	8	4189
2026-01-23 04:49:45.91	300.08	17.58	-24.3	-25.7	18.2	0.00e+00	0	43	0	2014314496	8	4218
2026-01-23 04:49:46.90	299.87	17.53	-24.4	-25.9	18.0	2.95e-04	0	43	0	2019557376	8	4284
2026-01-23 04:49:47.91	299.65	17.49	-24.4	-25.9	18.0	0.00e+00	0	43	0	2025848832	8	4287
2026-01-23 04:49:48.91	299.43	17.45	-24.4	-25.4	18.0	7.67e-04	0	43	0	2031091712	9	4042
2026-01-23 04:49:49.90	299.22	17.41	-24.5	-25.5	18.0	7.47e-04	0	43	0	2036334592	9	4063
2026-01-23 04:49:50.90	299.01	17.37	-24.5	-25.6	18.0	0.00e+00	0	43	0	2042626048	9	4072
2026-01-23 04:49:51.90	298.79	17.32	-24.6	-25.8	17.8	7.13e-04	0	43	0	2047868928	9	4122
2026-01-23 04:49:52.90	298.58	17.28	-24.6	-25.9	17.8	0.00e+00	0	43	0	2054160384	9	4163
2026-01-23 04:49:53.90	298.37	17.24	-24.6	-25.7	17.9	2.01e-04	0	43	0	2059403264	9	4111
2026-01-23 04:49:54.90	298.15	17.19	-24.7	-26.0	17.7	9.18e-04	0	43	0	2064646144	9	4193
2026-01-23 04:49:55.91	297.94	17.15	-24.6	-25.8	17.8	9.34e-04	0	43	0	2070937600	9	4136
2026-01-23 04:49:56.91	297.73	17.10	-24.7	-26.1	17.7	2.18e-04	0	44	0	2076180480	9	4210
2026-01-23 04:49:57.92	297.52	17.06	-24.8	-26.1	17.6	0.00e+00	0	43	0	2081423360	9	4215
2026-01-23 04:49:58.92	297.31	17.01	-25.0	-26.1	17.4	1.25e-03	0	43	0	2087714816	10	4098
2026-01-23 04:49:59.93	297.10	16.97	-25.3	-26.7	17.0	2.61e-04	0	43	0	2092957696	10	4266
2026-01-23 04:50:00.93	296.89	16.92	-25.1	-26.4	17.2	1.24e-03	0	43	0	2098200576	10	4174
2026-01-23 04:50:01.93	296.68	16.88	-24.9	-26.0	17.4	1.28e-03	0	43	0	2104492032	10	4086
2026-01-23 04:50:02.94	296.47	16.83	-24.9	-26.4	17.5	2.88e-04	0	43	0	2109734912	9	4278
2026-01-23 04:50:03.94	296.27	16.78	-24.8	-26.2	17.6	1.22e-03	0	43	0	2116026368	9	4230
2026-01-23 04:50:04.95	296.06	16.73	-24.7	-26.1	17.6	1.12e-03	0	43	0	2121269248	9	4203
2026-01-23 04:50:05.95	295.85	16.69	-24.8	-26.3	17.5	1.38e-04	0	43	0	2127560704	9	4271
2026-01-23 04:50:06.95	295.65	16.64	-24.9	-26.4	17.5	1.23e-03	0	43	0	2132803584	9	4304
2026-01-23 04:50:07.95	295.45	16.59	-24.8	-26.3	17.5	1.22e-03	0	43	0	2138046464	9	4264
2026-01-23 04:50:08.95	295.24	16.54	-24.8	-26.2	17.6	2.28e-05	0	43	0	2144337920	9	4228
2026-01-23 04:50:09.95	295.04	16.50	-24.8	-26.2	17.5	1.29e-03	0	43	0	2149580800	9	4226
2026-01-23 04:50:10.96	294.84	16.45	-24.9	-26.4	17.4	1.51e-03	0	43	0	2154823680	9	4290
2026-01-23 04:50:11.96	294.64	16.40	-25.0	-26.2	17.3	0.00e+00	0	43	0	2161115136	10	4122
2026-01-23 04:50:12.96	294.44	16.35	-25.3	-26.7	17.0	1.61e-03	0	43	0	2166358016	10	4251
2026-01-23 04:50:13.97	294.23	16.30	-25.1	-26.3	17.2	0.00e+00	0	43	0	2171600896	10	4153
2026-01-23 04:50:14.97	294.04	16.25	-25.1	-26.4	17.2	1.68e-04	0	43	0	2177892352	10	4169
2026-01-23 04:50:15.98	293.84	16.20	-25.2	-26.6	17.1	1.69e-03	0	43	0	2183135232	10	4237
2026-01-23 04:50:16.98	293.64	16.15	-25.1	-26.5	17.2	1.10e-06	0	43	0	2189426688	10	4205
2026-01-23 04:50:17.99	293.44	16.10	-25.5	-27.2	16.7	3.09e-04	0	43	0	2194669568	10	4399
2026-01-23 04:50:18.98	293.24	16.05	-25.4	-26.5	16.8	0.00e+00	0	43	0	2200961024	11	4091
2026-01-23 04:50:19.98	293.05	16.00	-25.2	-26.6	17.0	1.75e-03	0	43	0	2206203904	10	4229
2026-01-23 04:50:20.98	292.85	15.95	-25.3	-26.8	17.0	0.00e+00	0	43	0	2211446784	10	4277
2026-01-23 04:50:21.99	292.66	15.89	-25.5	-27.2	16.7	1.31e-03	0	43	0	2217738240	10	4389
2026-01-23 04:50:22.99	292.46	15.84	-25.2	-26.0	17.1	0.00e+00	0	43	0	2222981120	11	3966
2026-01-23 04:50:24.00	292.27	15.79	-25.0	-26.1	17.3	0.00e+00	0	43	0	2228224000	10	4090
2026-01-23 04:50:25.00	292.08	15.74	-25.2	-26.5	17.1	1.39e-03	0	43	0	2234515456	10	4198
2026-01-23 04:50:26.01	291.88	15.69	-25.3	-26.8	16.9	0.00e+00	0	43	0	2239758336	10	4288
2026-01-23 04:50:27.01	291.69	15.63	-25.3	-26.9	16.9	0.00e+00	0	43	0	2245001216	10	4311
2026-01-23 04:50:28.02	291.50	15.58	-25.5	-26.7	16.7	0.00e+00	0	43	0	2251292672	11	4143
2026-01-23 04:50:29.03	291.31	15.53	-25.4	-26.6	16.8	0.00e+00	0	43	0	2256535552	11	4107
2026-01-23 04:50:30.03	291.12	15.47	-25.4	-26.6	16.8	0.00e+00	0	43	0	2262827008	11	4113
2026-01-23 04:50:31.04	290.93	15.42	-25.3	-26.7	17.0	0.00e+00	0	43	0	2268069888	10	4257
2026-01-23 04:50:32.04	290.74	15.37	-25.1	-26.3	17.1	0.00e+00	0	43	0	2274361344	10	4158
2026-01-23 04:50:33.05	290.55	15.31	-25.1	-26.3	17.1	0.00e+00	0	43	0	2279604224	10	4151
2026-01-23 04:50:34.06	290.37	15.26	-25.2	-26.6	17.0	0.00e+00	0	43	0	2284847104	10	4223
2026-01-23 04:50:35.06	290.18	15.20	-25.2	-26.6	17.0	0.00e+00	0	43	0	2291138560	10	4225
2026-01-23 04:50:36.06	290.00	15.15	-25.1	-26.5	17.0	0.00e+00	0	43	0	2296381440	10	4194
2026-01-23 04:50:37.07	289.81	15.10	-25.2	-26.6	17.0	0.00e+00	0	43	0	2301624320	10	4233
2026-01-23 04:50:38.08	289.62	15.04	-25.2	-26.6	17.0	0.00e+00	0	43	0	2307915776	10	4240
2026-01-23 04:50:39.08	289.44	14.99	-25.2	-26.6	17.0	0.00e+00	0	43	0	2313158656	10	4232
2026-01-23 04:50:40.08	289.26	14.93	-25.3	-26.8	16.9	0.00e+00	0	43	0	2319450112	10	4279
2026-01-23 04:50:41.09	289.08	14.88	-25.2	-26.7	16.9	0.00e+00	0	43	0	2324692992	10	4257
2026-01-23 04:50:42.09	288.90	14.82	-25.3	-26.8	16.8	0.00e+00	0	43	0	2329935872	10	4297
2026-01-23 04:50:43.10	288.71	14.76	-25.3	-26.9	16.8	0.00e+00	0	43	0	2336227328	10	4318
2026-01-23 04:50:44.10	288.53	14.71	-25.4	-27.1	16.7	0.00e+00	0	43	0	2341470208	10	4376
2026-01-23 04:50:45.11	288.35	14.65	-25.3	-26.8	16.9	0.00e+00	0	43	0	2347761664	10	4301
2026-01-23 04:50:46.12	288.17	14.60	-25.2	-26.7	16.9	0.00e+00	0	43	0	2353004544	10	4252
2026-01-23 04:50:47.12	288.00	14.54	-25.3	-26.8	16.8	0.00e+00	0	43	0	2358247424	10	4280
2026-01-23 04:50:48.13	287.82	14.48	-25.3	-26.7	16.9	0.00e+00	0	43	0	2364538880	10	4270
2026-01-23 04:50:49.14	287.64	14.43	-25.3	-26.9	16.8	0.00e+00	0	43	0	2369781760	10	4319
2026-01-23 04:50:50.14	287.47	14.37	-25.3	-26.9	16.8	0.00e+00	0	43	0	2376073216	10	4318
2026-01-23 04:50:51.14	287.29	14.31	-25.3	-26.9	16.8	0.00e+00	0	43	0	2381316096	10	4303
2026-01-23 04:50:52.15	287.12	14.26	-25.3	-26.8	16.8	0.00e+00	0	43	0	2386558976	10	4277
2026-01-23 04:50:53.15	286.94	14.20	-25.3	-26.9	16.8	0.00e+00	0	43	0	2392850432	10	4307
2026-01-23 04:50:54.15	286.77	14.14	-25.2	-26.6	16.9	0.00e+00	0	43	0	2398093312	10	4234
2026-01-23 04:50:55.15	286.60	14.09	-25.3	-26.7	16.8	0.00e+00	0	43	0	2403336192	10	4267
2026-01-23 04:50:56.16	286.42	14.03	-25.3	-26.9	16.7	0.00e+00	0	43	0	2409627648	10	4312
2026-01-23 04:50:57.17	286.25	13.97	-25.4	-27.0	16.7	0.00e+00	0	43	0	2414870528	10	4337
2026-01-23 04:50:58.17	286.08	13.91	-25.5	-27.2	16.5	0.00e+00	0	43	0	2421161984	10	4411
2026-01-23 04:50:59.17	285.91	13.86	-25.5	-26.8	16.5	0.00e+00	0	43	0	2426404864	11	4169
2026-01-23 04:51:00.17	285.74	13.80	-25.5	-26.8	16.5	0.00e+00	0	43	0	2431647744	11	4180
2026-01-23 04:51:01.17	285.58	13.74	-25.5	-26.8	16.6	0.00e+00	0	43	0	2437939200	11	4163
2026-01-23 04:51:02.18	285.41	13.68	-25.5	-26.9	16.5	0.00e+00	0	43	0	2443182080	11	4195
2026-01-23 04:51:03.18	285.24	13.62	-25.3	-26.4	16.8	0.00e+00	0	43	0	2448424960	11	4064
2026-01-23 04:51:04.18	285.07	13.57	-25.4	-27.1	16.6	0.00e+00	0	43	0	2454716416	10	4376
2026-01-23 04:51:05.19	284.91	13.51	-25.6	-27.0	16.4	0.00e+00	0	43	0	2459959296	11	4224
2026-01-23 04:51:06.19	284.74	13.45	-25.8	-27.4	16.2	0.00e+00	0	43	0	2466250752	11	4325
2026-01-23 04:51:07.20	284.58	13.39	-25.2	-26.6	15.6	0.00e+00	0	43	0	2471493632	11	4234
2026-01-23 04:51:08.20	284.41	13.33	-25.8	-27.5	15.4	0.00e+00	0	43	0	2477785088	11	4375
2026-01-23 04:51:09.19	284.25	13.27	-25.8	-27.4	13.3	0.00e+00	0	43	0	2483027968	11	4336
2026-01-23 04:51:10.20	284.09	13.21	-25.8	-27.5	14.9	0.00e+00	0	43	0	2488270848	11	4364
2026-01-23 04:51:11.20	283.93	13.16	-25.7	-27.1	16.3	0.00e+00	0	43	0	2494562304	11	4260
2026-01-23 04:51:12.20	283.77	13.10	-25.6	-27.0	16.4	1.61e-03	0	43	0	2499805184	11	4232
2026-01-23 04:51:13.20	283.61	13.04	-25.6	-27.1	16.3	0.00e+00	0	43	0	2505048064	11	4261
2026-01-23 04:51:14.20	283.45	12.98	-25.7	-27.3	16.2	1.10e-06	0	43	0	2511339520	11	4314
2026-01-23 04:51:15.21	283.29	12.92	-25.8	-27.5	16.1	0.00e+00	0	43	0	2516582400	11	4368
2026-01-23 04:51:16.22	283.13	12.86	-26.0	-27.8	15.9	0.00e+00	0	43	0	2521825280	11	4455
2026-01-23 04:51:17.23	282.97	12.80	-26.0	-27.4	15.8	3.55e-04	0	43	0	2528116736	12	4234
2026-01-23 04:51:18.23	282.81	12.74	-26.2	-27.8	15.6	1.10e-06	0	43	0	2533359616	12	4329
2026-01-23 04:51:19.23	282.66	12.68	-26.0	-27.4	15.8	1.87e-03	0	43	0	2539651072	12	4221
2026-01-23 04:51:20.23	282.50	12.62	-25.9	-27.6	16.0	0.00e+00	0	43	0	2544893952	11	4404
2026-01-23 04:51:21.23	282.35	12.56	-25.9	-27.7	15.9	0.00e+00	0	43	0	2550136832	11	4432
2026-01-23 04:51:22.23	282.19	12.50	-26.0	-27.8	15.9	9.61e-05	0	43	0	2556428288	11	4460
2026-01-23 04:51:23.24	282.04	12.44	-26.1	-27.7	15.6	0.00e+00	0	43	0	2561671168	12	4307
2026-01-23 04:51:24.24	281.88	12.38	-26.3	-28.0	15.4	1.63e-03	0	43	0	2567962624	12	4404
2026-01-23 04:51:25.24	281.73	12.32	-26.1	-27.7	15.6	0.00e+00	0	43	0	2573205504	12	4328
2026-01-23 04:51:26.25	281.58	12.26	-26.0	-27.4	15.7	2.05e-04	0	43	0	2578448384	12	4239
2026-01-23 04:51:27.25	281.43	12.20	-26.0	-27.3	15.8	0.00e+00	0	43	0	2584739840	12	4209
2026-01-23 04:51:28.25	281.28	12.14	-25.9	-27.2	15.8	1.49e-03	0	43	0	2589982720	12	4187
2026-01-23 04:51:29.26	281.12	12.08	-26.0	-27.4	15.8	1.68e-04	0	43	0	2595225600	12	4227
2026-01-23 04:51:30.26	280.98	12.02	-26.0	-27.3	15.8	0.00e+00	0	43	0	2601517056	12	4208
2026-01-23 04:51:31.27	280.82	11.96	-26.0	-27.4	15.7	1.81e-03	0	43	0	2606759936	12	4238
2026-01-23 04:51:32.27	280.68	11.90	-26.0	-27.3	15.8	0.00e+00	0	43	0	2613051392	12	4200
2026-01-23 04:51:33.28	280.53	11.84	-26.0	-27.5	15.7	1.88e-03	0	43	0	2618294272	12	4252
2026-01-23 04:51:34.29	280.38	11.78	-26.0	-27.5	15.7	1.95e-03	0	43	0	2624585728	12	4250
2026-01-23 04:51:35.28	280.24	11.72	-26.1	-27.6	15.6	2.07e-04	0	43	0	2629828608	12	4293
2026-01-23 04:51:36.29	280.09	11.66	-26.1	-27.6	15.6	1.92e-03	0	43	0	2635071488	12	4289
2026-01-23 04:51:37.30	279.94	11.60	-26.1	-27.7	15.6	1.67e-03	0	43	0	2641362944	12	4297
2026-01-23 04:51:38.29	279.80	11.54	-26.0	-27.5	15.7	1.48e-04	0	43	0	2646605824	12	4258
2026-01-23 04:51:39.29	279.65	11.48	-26.1	-27.6	15.6	2.84e-04	0	43	0	2651848704	12	4285
2026-01-23 04:51:40.29	279.51	11.42	-26.1	-27.7	15.6	1.76e-03	0	43	0	2658140160	12	4300
2026-01-23 04:51:41.30	279.37	11.36	-26.2	-27.8	15.5	0.00e+00	0	43	0	2663383040	12	4335
2026-01-23 04:51:42.30	279.23	11.30	-26.2	-27.9	15.4	1.76e-03	0	43	0	2668625920	12	4374
2026-01-23 04:51:43.30	279.08	11.24	-26.3	-28.0	15.4	1.65e-03	0	43	0	2674917376	12	4397
2026-01-23 04:51:44.31	278.94	11.18	-26.3	-28.1	15.3	0.00e+00	0	43	0	2680160256	12	4421
2026-01-23 04:51:45.31	278.80	11.12	-26.3	-28.0	15.4	1.80e-03	0	43	0	2686451712	12	4399
2026-01-23 04:51:46.32	278.66	11.06	-26.3	-28.2	15.3	0.00e+00	0	43	0	2691694592	12	4438
2026-01-23 04:51:47.32	278.52	11.00	-26.4	-28.3	15.2	6.29e-05	0	43	0	2696937472	12	4469
2026-01-23 04:51:48.32	278.38	10.94	-26.2	-27.8	15.4	1.81e-03	0	43	0	2703228928	12	4351
2026-01-23 04:51:49.33	278.24	10.88	-26.1	-27.6	15.6	2.00e-03	0	43	0	2708471808	12	4286
2026-01-23 04:51:50.33	278.11	10.82	-26.2	-27.7	15.5	2.86e-04	0	43	0	2713714688	12	4322
2026-01-23 04:51:51.34	277.97	10.75	-26.2	-27.8	15.5	0.00e+00	0	43	0	2720006144	12	4338
2026-01-23 04:51:52.34	277.83	10.69	-26.3	-28.1	15.3	2.09e-03	0	43	0	2725249024	12	4435
2026-01-23 04:51:53.34	277.70	10.63	-26.2	-27.9	15.4	0.00e+00	0	43	0	2731540480	12	4370
2026-01-23 04:51:54.35	277.56	10.57	-26.4	-28.2	15.2	2.24e-03	0	43	0	2736783360	12	4460
2026-01-23 04:51:55.35	277.43	10.51	-26.4	-28.3	15.1	0.00e+00	0	43	0	2742026240	12	4486
2026-01-23 04:51:56.36	277.29	10.45	-26.3	-28.1	15.3	0.00e+00	0	43	0	2748317696	12	4417
2026-01-23 04:51:57.36	277.16	10.39	-26.3	-28.0	15.4	0.00e+00	0	44	0	2753560576	12	4387
2026-01-23 04:51:58.36	277.02	10.33	-26.2	-27.9	15.3	1.10e-06	0	44	0	2759852032	12	4372
2026-01-23 04:51:59.37	276.89	10.27	-26.3	-28.1	15.2	3.05e-04	0	43	0	2765094912	12	4434
2026-01-23 04:52:00.37	276.76	10.21	-26.3	-28.0	15.3	0.00e+00	0	43	0	2770337792	12	4406
2026-01-23 04:52:01.37	276.63	10.15	-26.3	-28.2	15.2	2.00e-03	0	43	0	2776629248	12	4459
2026-01-23 04:52:02.38	276.50	10.09	-26.4	-28.4	15.1	1.10e-06	0	43	0	2781872128	12	4520
2026-01-23 04:52:03.38	276.37	10.03	-26.7	-28.5	14.7	0.00e+00	0	43	0	2787115008	13	4436
2026-01-23 04:52:04.38	276.24	9.97	-26.8	-28.7	14.6	0.00e+00	0	43	0	2793406464	13	4480
2026-01-23 04:52:05.38	276.11	9.91	-26.8	-28.7	14.6	1.10e-06	0	43	0	2798649344	13	4481
2026-01-23 04:52:06.38	275.98	9.84	-26.7	-28.5	14.7	0.00e+00	0	44	0	2804940800	13	4442
2026-01-23 04:52:07.39	275.85	9.78	-26.6	-28.2	14.8	0.00e+00	0	43	0	2810183680	13	4350
2026-01-23 04:52:08.39	275.72	9.72	-26.4	-27.9	15.0	0.00e+00	0	43	0	2815426560	13	4270
2026-01-23 04:52:09.40	275.60	9.66	-26.5	-28.1	14.9	0.00e+00	0	43	0	2821718016	13	4313
2026-01-23 04:52:10.40	275.47	9.60	-26.6	-28.3	14.8	0.00e+00	0	43	0	2826960896	13	4369
2026-01-23 04:52:11.40	275.34	9.54	-26.7	-28.6	14.6	1.10e-06	0	43	0	2833252352	13	4444
2026-01-23 04:52:12.41	275.22	9.48	-26.7	-28.6	14.6	1.10e-06	0	43	0	2838495232	13	4449
2026-01-23 04:52:13.41	275.09	9.42	-26.9	-28.9	14.4	1.10e-06	0	44	0	2843738112	13	4537
2026-01-23 04:52:14.41	274.97	9.36	-26.8	-28.7	14.5	0.00e+00	0	43	0	2850029568	13	4480
2026-01-23 04:52:15.42	274.84	9.30	-27.0	-28.7	14.2	1.10e-06	0	43	0	2855272448	14	4386
2026-01-23 04:52:16.42	274.72	9.24	-27.1	-28.9	14.1	3.40e-06	0	43	0	2860515328	14	4447
2026-01-23 04:52:17.42	274.60	9.18	-26.8	-28.3	14.5	1.10e-06	0	43	0	2866806784	14	4268
2026-01-23 04:52:18.42	274.48	9.12	-26.9	-28.9	14.4	3.40e-06	0	43	0	2872049664	13	4535
2026-01-23 04:52:19.43	274.35	9.06	-27.0	-28.7	14.2	2.20e-06	0	43	0	2877292544	14	4384
2026-01-23 04:52:20.43	274.23	9.00	-27.2	-29.1	14.0	4.50e-06	0	43	0	2883584000	14	4488
2026-01-23 04:52:21.43	274.11	8.94	-27.2	-29.3	13.9	1.14e-05	0	44	0	2888826880	14	4546
2026-01-23 04:52:22.43	273.99	8.88	-27.2	-29.2	13.9	6.80e-06	0	43	0	2895118336	14	4536
2026-01-23 04:52:23.44	273.87	8.82	-27.2	-29.3	13.9	9.10e-06	0	43	0	2900361216	14	4544
2026-01-23 04:52:24.43	273.75	8.76	-27.0	-28.8	14.2	6.80e-06	0	44	0	2905604096	14	4403
2026-01-23 04:52:25.43	273.64	8.70	-27.0	-28.6	14.2	1.10e-06	0	43	0	2911895552	14	4351
2026-01-23 04:52:26.44	273.52	8.64	-27.0	-28.6	14.2	4.50e-06	0	43	0	2917138432	14	4361
2026-01-23 04:52:27.44	273.40	8.58	-26.9	-29.0	14.3	0.00e+00	0	43	0	2923429888	13	4567
2026-01-23 04:52:28.45	273.28	8.51	-26.9	-29.0	14.3	2.20e-06	0	43	0	2928672768	13	4568
2026-01-23 04:52:29.45	273.16	8.45	-27.3	-29.3	13.8	9.10e-06	0	43	0	2933915648	14	4561
2026-01-23 04:52:30.46	273.05	8.39	-27.3	-29.4	13.7	1.14e-05	0	43	0	2940207104	14	4597
2026-01-23 04:52:31.46	272.93	8.33	-27.0	-28.7	14.2	4.50e-06	0	43	0	2945449984	14	4365
2026-01-23 04:52:32.47	272.82	8.27	-26.9	-28.5	14.3	9.10e-06	0	43	0	2950692864	14	4310
2026-01-23 04:52:33.47	272.70	8.21	-26.8	-28.8	14.4	2.20e-06	0	43	0	2956984320	13	4533
2026-01-23 04:52:34.48	272.59	8.15	-27.0	-28.8	14.1	4.50e-06	0	43	0	2962227200	14	4422
2026-01-23 04:52:35.47	272.47	8.09	-27.1	-28.9	14.1	5.70e-06	0	43	0	2968518656	14	4431
2026-01-23 04:52:36.48	272.36	8.03	-27.1	-29.0	13.9	4.50e-06	0	43	0	2973761536	14	4473
2026-01-23 04:52:37.48	272.25	7.97	-27.1	-28.9	14.0	3.40e-06	0	43	0	2980052992	14	4452
2026-01-23 04:52:38.49	272.13	7.91	-27.1	-28.9	14.0	4.50e-06	0	43	0	2985295872	14	4431
2026-01-23 04:52:39.50	272.02	7.85	-27.2	-29.2	13.8	5.70e-06	0	43	0	2990538752	14	4540
2026-01-23 04:52:40.51	271.91	7.79	-27.3	-29.3	13.7	6.80e-06	0	43	0	2996830208	14	4559
2026-01-23 04:52:41.51	271.80	7.73	-27.2	-29.2	13.8	9.10e-06	0	43	0	3002073088	14	4536
2026-01-23 04:52:42.51	271.69	7.67	-27.3	-29.4	13.7	1.94e-05	0	43	0	3007315968	14	4581
2026-01-23 04:52:43.52	271.58	7.61	-27.1	-28.9	13.9	3.40e-06	0	43	0	3013607424	14	4448
2026-01-23 04:52:44.53	271.47	7.55	-27.1	-28.9	14.0	1.10e-06	0	43	0	3018850304	14	4445
2026-01-23 04:52:45.54	271.36	7.49	-27.0	-29.2	13.8	1.10e-06	0	43	0	3025141760	13	4653
2026-01-23 04:52:46.54	271.25	7.44	-27.0	-28.9	14.0	3.40e-06	0	43	0	3030384640	14	4431
2026-01-23 04:52:47.54	271.14	7.38	-27.2	-29.3	13.7	9.10e-06	0	43	0	3035627520	14	4550
2026-01-23 04:52:48.54	271.03	7.32	-27.3	-29.5	13.6	2.17e-05	0	43	0	3041918976	14	4627
2026-01-23 04:52:49.54	270.93	7.26	-27.3	-29.4	13.7	4.50e-06	0	43	0	3047161856	14	4589
2026-01-23 04:52:50.54	270.82	7.20	-27.2	-29.2	13.8	1.71e-05	0	43	0	3053453312	14	4536
2026-01-23 04:52:51.54	270.71	7.14	-27.2	-29.2	13.8	2.86e-03	0	43	0	3058696192	14	4517
2026-01-23 04:52:52.54	270.61	7.08	-32.9	-43.4	3.8	1.51e-01	0	43	104	3062890496	25	12046
2026-01-23 04:52:53.54	270.50	7.02	-33.3	-44.7	3.8	8.46e-01	0	43	104	3062890496	26	13342
2026-01-23 04:52:54.55	270.40	6.96	-33.7	-44.9	3.8	8.45e-01	0	43	104	3062890496	27	13175
2026-01-23 04:52:55.55	270.29	6.90	-33.9	-44.9	3.8	8.47e-01	0	43	104	3062890496	28	12742

#Closed at: 2026-01-23 04:52:56
#Recorded file [3062 MB]: D:/data/31010_260123_074347.dat