passes_logs/2026/01/23/R2M6_AANII_01/R2M6_AANII_01__20260123_103510_AQUA_rec.log

#Pass ID: 20260123_103510_AQUA
#Satellite: AQUA
#Configuration: AQUA
#almurnet v.1.7.20240730
#Start time: 2026-01-23 10:35:10

#Version: 2.2.20231116
#Station: R2M6_AANII_01
#Location: 30.233357 lon 59.946436 lat
#TLE: 1 27424U 02022A   26022.49486490  .00002153  00000+0  44069-3 0  9997
#TLE: 2 27424  98.4099 349.0485 0001970  69.5876  43.4746 14.61847233261984

#Time	Az	El	Level	Level2	SNR	BER	BlckErr	Temp	State	Recorded	gain1	gain2
2026-01-23 10:35:10.30	110.88	6.99	-32.5	-40.8	4.8	7.19e-01	0	40	0	0	27	9372
2026-01-23 10:35:11.31	110.78	7.06	-32.0	-38.7	5.0	7.11e-01	0	40	104	0	26	7751
2026-01-23 10:35:12.31	110.69	7.13	-31.9	-37.4	13.3	6.09e-01	0	40	0	0	26	6761
2026-01-23 10:35:13.32	110.59	7.20	-31.8	-37.5	13.6	6.10e-01	0	40	102	1048576	25	6933
2026-01-23 10:35:14.32	110.50	7.28	-31.8	-37.6	13.5	6.08e-01	0	40	102	1048576	25	6984
2026-01-23 10:35:15.33	110.40	7.35	-31.8	-37.6	13.5	6.09e-01	0	40	102	1048576	25	7031
2026-01-23 10:35:16.34	110.30	7.42	-31.9	-37.7	13.5	6.09e-01	0	40	102	1048576	25	7067
2026-01-23 10:35:17.34	110.21	7.49	-31.8	-37.4	13.8	6.06e-01	0	41	102	1048576	25	6844
2026-01-23 10:35:18.34	110.11	7.56	-31.5	-36.1	14.8	6.06e-01	0	41	102	1048576	25	6123
2026-01-23 10:35:19.34	110.01	7.64	-31.2	-35.4	15.7	6.07e-01	0	41	102	1048576	24	5850
2026-01-23 10:35:20.35	109.91	7.71	-30.8	-34.8	16.5	6.06e-01	0	41	102	1048576	23	5684
2026-01-23 10:35:21.35	109.82	7.78	-30.7	-34.2	16.9	6.07e-01	0	41	102	1048576	23	5425
2026-01-23 10:35:22.36	109.71	7.85	-30.5	-33.7	17.3	6.07e-01	0	41	102	1048576	23	5187
2026-01-23 10:35:23.36	109.62	7.93	-30.3	-33.7	17.7	6.08e-01	0	41	102	1048576	22	5317
2026-01-23 10:35:24.36	109.51	8.00	-30.4	-33.8	17.7	6.05e-01	0	41	102	1048576	22	5333
2026-01-23 10:35:25.36	109.41	8.07	-30.4	-33.8	17.6	6.05e-01	0	41	102	1048576	22	5352
2026-01-23 10:35:26.36	109.31	8.14	-30.3	-33.6	17.8	6.07e-01	0	41	102	1048576	22	5267
2026-01-23 10:35:27.37	109.21	8.22	-30.3	-33.5	17.8	6.07e-01	0	41	102	1048576	22	5227
2026-01-23 10:35:28.37	109.11	8.29	-30.3	-33.5	17.9	6.05e-01	0	41	102	1048576	22	5219
2026-01-23 10:35:29.37	109.00	8.37	-30.4	-33.7	17.7	6.06e-01	0	41	102	1048576	22	5284
2026-01-23 10:35:30.38	108.90	8.44	-30.3	-33.7	17.7	6.06e-01	0	41	102	1048576	22	5283
2026-01-23 10:35:31.39	108.79	8.51	-30.3	-33.6	17.8	6.05e-01	0	41	102	1048576	22	5233
2026-01-23 10:35:32.40	108.69	8.59	-30.5	-34.3	17.3	6.05e-01	0	41	102	1048576	22	5527
2026-01-23 10:35:33.40	108.58	8.66	-30.6	-34.4	17.3	6.06e-01	0	41	102	1048576	22	5579
2026-01-23 10:35:34.40	108.47	8.74	-30.3	-33.6	17.8	6.07e-01	0	41	102	1048576	22	5266
2026-01-23 10:35:35.41	108.37	8.81	-30.2	-33.4	18.0	6.07e-01	0	41	102	1048576	22	5164
2026-01-23 10:35:36.41	108.26	8.89	-30.3	-33.4	17.9	6.09e-01	0	41	102	1048576	22	5186
2026-01-23 10:35:37.41	108.15	8.96	-30.3	-33.4	18.0	6.05e-01	0	41	102	1048576	22	5174
2026-01-23 10:35:38.42	108.04	9.04	-30.3	-33.5	17.9	6.05e-01	0	41	102	1048576	22	5215
2026-01-23 10:35:39.43	107.93	9.11	-30.3	-33.4	18.0	6.04e-01	0	41	102	1048576	22	5174
2026-01-23 10:35:40.43	107.82	9.19	-30.3	-33.4	18.0	6.06e-01	0	41	102	1048576	22	5163
2026-01-23 10:35:41.44	107.71	9.27	-30.2	-33.2	18.2	6.07e-01	0	41	102	1048576	22	5076
2026-01-23 10:35:42.44	107.60	9.34	-30.3	-33.4	18.1	6.06e-01	0	41	102	1048576	22	5149
2026-01-23 10:35:43.44	107.49	9.42	-30.3	-33.4	18.1	6.05e-01	0	41	102	1048576	22	5160
2026-01-23 10:35:44.45	107.37	9.49	-30.3	-33.6	18.0	6.08e-01	0	41	102	1048576	22	5231
2026-01-23 10:35:45.45	107.26	9.57	-30.3	-33.5	18.1	6.05e-01	0	41	102	1048576	22	5180
2026-01-23 10:35:46.45	107.15	9.65	-30.4	-33.7	17.9	6.05e-01	0	41	102	1048576	22	5289
2026-01-23 10:35:47.46	107.03	9.72	-30.4	-33.7	17.9	6.06e-01	0	41	102	1048576	22	5293
2026-01-23 10:35:48.47	106.91	9.80	-30.3	-33.4	18.1	6.08e-01	0	41	102	1048576	22	5148
2026-01-23 10:35:49.48	106.80	9.88	-30.2	-33.3	18.2	6.08e-01	0	41	102	1048576	22	5122
2026-01-23 10:35:50.48	106.68	9.95	-30.3	-33.3	18.2	6.07e-01	0	41	102	1048576	22	5138
2026-01-23 10:35:51.49	106.56	10.03	-30.3	-33.4	18.1	6.07e-01	0	41	102	1048576	22	5163
2026-01-23 10:35:52.49	106.44	10.11	-30.2	-33.2	18.3	6.05e-01	0	41	102	1048576	22	5084
2026-01-23 10:35:53.50	106.32	10.19	-30.2	-33.1	18.4	6.06e-01	0	41	102	1048576	22	5033
2026-01-23 10:35:54.50	106.20	10.27	-30.1	-32.9	18.4	6.06e-01	0	41	102	1048576	22	4980
2026-01-23 10:35:55.51	106.08	10.34	-30.2	-33.0	18.4	6.09e-01	0	41	102	1048576	22	5015
2026-01-23 10:35:56.51	105.96	10.42	-30.1	-32.9	18.5	6.05e-01	0	41	102	1048576	22	4966
2026-01-23 10:35:57.52	105.84	10.50	-30.2	-33.0	18.4	6.07e-01	0	41	102	1048576	22	5002
2026-01-23 10:35:58.52	105.72	10.58	-30.2	-33.2	18.3	6.07e-01	0	41	102	1048576	22	5066
2026-01-23 10:35:59.52	105.60	10.66	-30.2	-33.2	18.3	6.07e-01	0	41	102	1048576	22	5081
2026-01-23 10:36:00.52	105.47	10.74	-30.1	-32.8	18.6	6.06e-01	0	41	102	1048576	22	4928
2026-01-23 10:36:01.53	105.35	10.81	-30.0	-32.6	18.8	6.07e-01	0	41	102	1048576	22	4840
2026-01-23 10:36:02.53	105.22	10.89	-30.0	-32.7	18.7	6.06e-01	0	41	102	1048576	22	4886
2026-01-23 10:36:03.54	105.09	10.97	-30.1	-32.8	18.6	6.08e-01	0	41	102	1048576	22	4916
2026-01-23 10:36:04.55	104.97	11.05	-30.0	-32.5	18.8	6.07e-01	0	41	102	1048576	22	4812
2026-01-23 10:36:05.56	104.84	11.13	-29.9	-32.3	18.9	6.08e-01	0	41	102	1048576	22	4756
2026-01-23 10:36:06.55	104.71	11.21	-29.9	-32.3	18.9	6.06e-01	0	41	102	1048576	22	4744
2026-01-23 10:36:07.56	104.58	11.29	-29.9	-32.9	18.8	6.05e-01	0	41	102	1048576	21	5065
2026-01-23 10:36:08.56	104.45	11.37	-29.9	-32.8	18.9	6.08e-01	0	41	102	1048576	21	5019
2026-01-23 10:36:09.56	104.32	11.45	-29.9	-32.9	18.8	6.08e-01	0	41	102	1048576	21	5051
2026-01-23 10:36:10.57	104.19	11.53	-30.0	-33.0	18.8	6.06e-01	0	41	102	1048576	21	5091
2026-01-23 10:36:11.57	104.06	11.61	-30.0	-33.1	18.7	6.05e-01	0	41	102	1048576	21	5117
2026-01-23 10:36:12.57	103.92	11.69	-30.0	-32.9	18.8	6.08e-01	0	42	102	1048576	21	5068
2026-01-23 10:36:13.58	103.79	11.77	-30.1	-33.3	18.6	6.08e-01	0	42	102	1048576	21	5197
2026-01-23 10:36:14.58	103.65	11.85	-30.1	-33.2	18.6	6.06e-01	0	41	102	1048576	21	5187
2026-01-23 10:36:15.58	103.52	11.94	-30.0	-33.0	18.7	6.07e-01	0	42	102	1048576	21	5112
2026-01-23 10:36:16.58	103.38	12.02	-30.0	-33.0	18.9	6.06e-01	0	42	102	1048576	21	5085
2026-01-23 10:36:17.59	103.25	12.10	-30.0	-33.1	18.8	6.03e-01	0	42	102	1048576	21	5130
2026-01-23 10:36:18.60	103.11	12.18	-30.0	-33.2	18.7	6.06e-01	0	41	102	1048576	21	5171
2026-01-23 10:36:19.60	102.97	12.26	-30.0	-33.2	18.7	6.06e-01	0	42	102	1048576	21	5163
2026-01-23 10:36:20.61	102.83	12.34	-29.9	-32.8	19.0	6.06e-01	0	42	102	1048576	21	5033
2026-01-23 10:36:21.62	102.69	12.43	-29.9	-32.9	18.9	6.06e-01	0	42	102	1048576	21	5061
2026-01-23 10:36:22.63	102.54	12.51	-30.0	-33.0	18.8	6.06e-01	0	42	102	1048576	21	5115
2026-01-23 10:36:23.62	102.40	12.59	-30.0	-33.0	18.8	6.07e-01	0	42	102	1048576	21	5099
2026-01-23 10:36:24.62	102.26	12.67	-30.0	-33.1	18.8	6.04e-01	0	42	102	1048576	21	5120
2026-01-23 10:36:25.63	102.12	12.75	-30.0	-33.0	18.9	6.06e-01	0	42	102	1048576	21	5082
2026-01-23 10:36:26.64	101.97	12.84	-30.0	-33.1	18.9	6.07e-01	0	42	102	1048576	21	5128
2026-01-23 10:36:27.64	101.82	12.92	-30.0	-33.0	18.9	6.06e-01	0	42	102	1048576	21	5075
2026-01-23 10:36:28.65	101.68	13.00	-29.9	-32.8	19.0	6.08e-01	0	41	102	1048576	21	5025
2026-01-23 10:36:29.65	101.53	13.09	-30.0	-32.9	18.9	6.07e-01	0	42	102	1048576	21	5058
2026-01-23 10:36:30.65	101.38	13.17	-29.9	-32.7	19.0	6.05e-01	0	42	102	1048576	21	4992
2026-01-23 10:36:31.66	101.23	13.25	-29.9	-32.7	19.0	6.07e-01	0	41	102	1048576	21	4984
2026-01-23 10:36:32.66	101.08	13.34	-29.9	-32.6	19.1	6.06e-01	0	42	102	1048576	21	4952
2026-01-23 10:36:33.67	100.93	13.42	-29.8	-32.6	19.2	6.06e-01	0	42	102	1048576	21	4929
2026-01-23 10:36:34.67	100.78	13.50	-29.9	-32.7	19.1	6.05e-01	0	41	102	1048576	21	4959
2026-01-23 10:36:35.67	100.62	13.59	-29.9	-32.8	19.0	6.04e-01	0	41	102	1048576	21	5005
2026-01-23 10:36:36.67	100.47	13.67	-29.9	-32.8	19.0	6.06e-01	0	42	102	1048576	21	5023
2026-01-23 10:36:37.67	100.32	13.75	-30.0	-32.9	19.0	6.06e-01	0	41	102	1048576	21	5041
2026-01-23 10:36:38.68	100.16	13.84	-30.1	-33.2	18.8	6.07e-01	0	42	102	1048576	21	5144
2026-01-23 10:36:39.69	100.00	13.92	-30.0	-32.9	19.0	6.04e-01	0	42	102	1048576	21	5046
2026-01-23 10:36:40.69	99.84	14.01	-29.9	-32.7	19.2	6.05e-01	0	42	102	1048576	21	4955
2026-01-23 10:36:41.70	99.68	14.09	-29.9	-32.6	19.2	6.07e-01	0	42	102	1048576	21	4938
2026-01-23 10:36:42.70	99.52	14.18	-29.8	-32.5	19.3	6.08e-01	0	42	102	1048576	21	4884
2026-01-23 10:36:43.70	99.36	14.26	-29.8	-32.5	19.3	6.06e-01	0	42	102	1048576	21	4903
2026-01-23 10:36:44.70	99.20	14.35	-29.9	-32.7	19.2	6.07e-01	0	42	102	1048576	21	4952
2026-01-23 10:36:45.71	99.04	14.43	-29.9	-32.6	19.2	6.04e-01	0	42	102	1048576	21	4928
2026-01-23 10:36:46.70	98.88	14.52	-29.9	-32.6	19.3	6.07e-01	0	42	102	1048576	21	4911
2026-01-23 10:36:47.71	98.71	14.60	-29.9	-32.6	19.2	6.08e-01	0	42	102	1048576	21	4936
2026-01-23 10:36:48.71	98.55	14.69	-30.0	-32.9	19.1	6.05e-01	0	42	102	1048576	21	5016
2026-01-23 10:36:49.71	98.38	14.77	-30.0	-32.9	19.0	6.09e-01	0	42	102	1048576	21	5036
2026-01-23 10:36:50.71	98.21	14.86	-30.0	-32.8	19.1	6.05e-01	0	42	102	1048576	21	4991
2026-01-23 10:36:51.72	98.04	14.94	-30.1	-33.3	18.8	6.04e-01	0	42	102	1048576	21	5195
2026-01-23 10:36:52.73	97.87	15.03	-30.0	-33.1	19.0	6.05e-01	0	42	102	1048576	21	5089
2026-01-23 10:36:53.73	97.70	15.11	-29.8	-32.5	19.4	6.07e-01	0	42	102	1048576	21	4882
2026-01-23 10:36:54.74	97.53	15.20	-29.8	-32.4	19.4	6.06e-01	0	42	102	1048576	21	4843
2026-01-23 10:36:55.74	97.35	15.29	-29.8	-32.4	19.4	6.07e-01	0	42	102	1048576	21	4851
2026-01-23 10:36:56.75	97.18	15.37	-29.8	-32.4	19.4	6.06e-01	0	42	102	1048576	21	4866
2026-01-23 10:36:57.76	97.00	15.46	-29.9	-32.6	19.3	6.05e-01	0	42	102	1048576	21	4939
2026-01-23 10:36:58.76	96.83	15.55	-29.9	-32.6	19.3	6.09e-01	0	42	102	1048576	21	4925
2026-01-23 10:36:59.77	96.65	15.63	-29.9	-32.6	19.4	6.06e-01	0	42	102	1048576	21	4903
2026-01-23 10:37:00.77	96.47	15.72	-29.8	-32.4	19.4	6.06e-01	0	42	102	1048576	21	4852
2026-01-23 10:37:01.77	96.29	15.81	-29.8	-32.4	19.5	6.06e-01	0	42	102	1048576	21	4837
2026-01-23 10:37:02.77	96.11	15.89	-29.9	-32.6	19.3	6.07e-01	0	42	102	1048576	21	4922
2026-01-23 10:37:03.78	95.92	15.98	-29.8	-32.5	19.4	6.06e-01	0	42	102	1048576	21	4865
2026-01-23 10:37:04.78	95.74	16.06	-29.9	-32.5	19.4	6.07e-01	0	42	102	1048576	21	4889
2026-01-23 10:37:05.78	95.56	16.15	-30.0	-32.9	19.2	6.05e-01	0	42	102	1048576	21	5014
2026-01-23 10:37:06.79	95.37	16.24	-30.0	-32.8	19.2	6.07e-01	0	42	102	1048576	21	4999
2026-01-23 10:37:07.79	95.19	16.32	-30.0	-32.7	19.3	6.06e-01	0	42	102	1048576	21	4952
2026-01-23 10:37:08.80	95.00	16.41	-30.0	-33.0	19.2	6.05e-01	0	42	102	1048576	21	5039
2026-01-23 10:37:09.80	94.81	16.50	-30.0	-32.9	19.2	6.05e-01	0	42	102	1048576	21	5028
2026-01-23 10:37:10.81	94.62	16.59	-30.0	-32.9	19.2	6.07e-01	0	42	102	1048576	21	5019
2026-01-23 10:37:11.82	94.42	16.67	-30.0	-33.0	19.2	6.03e-01	0	42	102	1048576	21	5042
2026-01-23 10:37:12.82	94.23	16.76	-30.1	-33.1	19.1	6.07e-01	0	42	102	1048576	21	5112
2026-01-23 10:37:13.83	94.04	16.85	-30.2	-33.5	18.9	6.05e-01	0	42	102	1048576	21	5239
2026-01-23 10:37:14.84	93.84	16.93	-30.1	-33.2	19.0	6.06e-01	0	42	102	1048576	21	5132
2026-01-23 10:37:15.84	93.64	17.02	-30.1	-33.3	19.0	6.07e-01	0	42	102	1048576	21	5149
2026-01-23 10:37:16.84	93.45	17.11	-30.3	-33.6	18.8	6.06e-01	0	42	102	1048576	21	5274
2026-01-23 10:37:17.85	93.25	17.20	-30.2	-33.3	19.0	6.06e-01	0	42	102	1048576	21	5153
2026-01-23 10:37:18.85	93.05	17.28	-30.0	-32.9	19.3	6.05e-01	0	42	102	1048576	21	5027
2026-01-23 10:37:19.86	92.85	17.37	-30.0	-32.9	19.3	6.06e-01	0	42	102	1048576	21	5013
2026-01-23 10:37:20.86	92.64	17.46	-30.0	-33.0	19.2	6.06e-01	0	42	102	1048576	21	5039
2026-01-23 10:37:21.86	92.44	17.54	-29.9	-32.6	19.4	6.06e-01	0	42	102	1048576	21	4922
2026-01-23 10:37:22.87	92.23	17.63	-29.8	-32.4	19.5	6.06e-01	0	42	102	1048576	21	4839
2026-01-23 10:37:23.87	92.03	17.72	-29.8	-32.3	19.6	6.07e-01	0	42	102	1048576	21	4826
2026-01-23 10:37:24.88	91.82	17.80	-29.8	-32.3	19.6	6.05e-01	0	42	102	1048576	21	4820
2026-01-23 10:37:25.89	91.61	17.89	-29.9	-32.5	19.5	6.04e-01	0	42	102	1048576	21	4878
2026-01-23 10:37:26.90	91.40	17.98	-29.9	-32.6	19.4	6.06e-01	0	42	102	1048576	21	4917
2026-01-23 10:37:27.90	91.19	18.07	-30.0	-32.7	19.4	6.06e-01	0	42	102	1048576	21	4950
2026-01-23 10:37:28.91	90.97	18.15	-30.0	-32.8	19.3	6.06e-01	0	42	102	1048576	21	4976
2026-01-23 10:37:29.92	90.76	18.24	-30.0	-32.9	19.3	6.06e-01	0	42	102	1048576	21	5011
2026-01-23 10:37:30.92	90.54	18.33	-30.1	-33.2	19.1	6.07e-01	0	42	102	1048576	21	5111
2026-01-23 10:37:31.93	90.33	18.41	-30.1	-33.0	19.3	6.05e-01	0	42	102	1048576	21	5030
2026-01-23 10:37:32.93	90.11	18.50	-30.2	-33.2	19.1	6.06e-01	0	42	102	1048576	21	5131
2026-01-23 10:37:33.95	89.89	18.59	-30.1	-33.0	19.3	6.07e-01	0	42	102	1048576	21	5043
2026-01-23 10:37:34.95	89.67	18.67	-30.2	-33.4	19.1	6.08e-01	0	42	102	1048576	21	5178
2026-01-23 10:37:35.95	89.45	18.76	-30.1	-33.0	19.3	6.07e-01	0	42	102	1048576	21	5051
2026-01-23 10:37:36.95	89.22	18.85	-30.0	-32.7	19.4	6.05e-01	0	42	102	1048576	21	4935
2026-01-23 10:37:37.95	89.00	18.93	-29.9	-32.6	19.5	6.07e-01	0	42	102	1048576	21	4902
2026-01-23 10:37:38.96	88.77	19.02	-30.0	-32.8	19.4	6.08e-01	0	42	102	1048576	21	4955
2026-01-23 10:37:39.97	88.54	19.10	-30.0	-32.8	19.4	6.06e-01	0	42	102	1048576	21	4955
2026-01-23 10:37:40.97	88.32	19.19	-30.1	-33.1	19.2	6.06e-01	0	42	102	1048576	21	5092
2026-01-23 10:37:41.97	88.09	19.27	-30.1	-33.0	19.3	6.04e-01	0	42	102	1048576	21	5020
2026-01-23 10:37:42.97	87.86	19.36	-30.2	-33.2	19.1	6.08e-01	0	42	102	1048576	21	5108
2026-01-23 10:37:43.98	87.62	19.44	-30.3	-33.7	18.9	6.07e-01	0	42	102	1048576	21	5275
2026-01-23 10:37:44.99	87.39	19.53	-30.1	-33.1	19.2	6.06e-01	0	42	102	1048576	21	5081
2026-01-23 10:37:46.00	87.15	19.62	-30.0	-32.7	19.4	6.06e-01	0	42	102	1048576	21	4937
2026-01-23 10:37:47.01	86.91	19.70	-30.0	-32.6	19.5	6.06e-01	0	42	102	1048576	21	4908
2026-01-23 10:37:48.01	86.67	19.78	-30.1	-33.0	19.4	6.06e-01	0	42	102	1048576	21	5018
2026-01-23 10:37:49.01	86.43	19.87	-30.1	-32.9	19.3	6.07e-01	0	42	102	1048576	21	5005
2026-01-23 10:37:50.02	86.19	19.95	-30.1	-33.0	19.3	6.05e-01	0	42	102	1048576	21	5016
2026-01-23 10:37:51.03	85.95	20.04	-30.1	-33.0	19.3	6.05e-01	0	42	102	1048576	21	5033
2026-01-23 10:37:52.03	85.70	20.12	-30.2	-33.3	19.1	6.09e-01	0	42	102	1048576	21	5155
2026-01-23 10:37:53.03	85.46	20.20	-30.1	-33.0	19.3	6.06e-01	0	42	102	1048576	21	5032
2026-01-23 10:37:54.03	85.21	20.29	-30.0	-32.8	19.4	6.04e-01	0	42	102	1048576	21	4968
2026-01-23 10:37:55.04	84.96	20.37	-30.1	-32.9	19.4	6.06e-01	0	42	102	1048576	21	5008
2026-01-23 10:37:56.04	84.72	20.45	-30.0	-32.9	19.4	6.05e-01	0	42	102	1048576	21	4983
2026-01-23 10:37:57.05	84.46	20.54	-30.1	-32.9	19.4	6.06e-01	0	42	102	1048576	21	5006
2026-01-23 10:37:58.05	84.21	20.62	-30.0	-32.8	19.4	6.06e-01	0	42	102	1048576	21	4978
2026-01-23 10:37:59.06	83.96	20.70	-30.1	-33.1	19.3	6.04e-01	0	42	102	1048576	21	5083
2026-01-23 10:38:00.06	83.70	20.78	-30.0	-32.9	19.4	6.07e-01	0	42	102	1048576	21	4990
2026-01-23 10:38:01.07	83.44	20.86	-30.0	-32.9	19.4	6.06e-01	0	42	102	1048576	21	4994
2026-01-23 10:38:02.07	83.19	20.94	-30.2	-33.2	19.2	6.08e-01	0	42	102	1048576	21	5094
2026-01-23 10:38:03.08	82.92	21.03	-30.1	-33.0	19.3	6.07e-01	0	42	102	1048576	21	5037
2026-01-23 10:38:04.08	82.66	21.11	-30.2	-33.3	19.2	6.08e-01	0	42	102	1048576	21	5129
2026-01-23 10:38:05.08	82.40	21.19	-30.1	-33.1	19.3	6.05e-01	0	42	102	1048576	21	5068
2026-01-23 10:38:06.09	82.14	21.27	-30.1	-33.1	19.3	6.08e-01	0	42	102	1048576	21	5071
2026-01-23 10:38:07.09	81.87	21.35	-30.2	-33.2	19.2	6.09e-01	0	42	102	1048576	21	5112
2026-01-23 10:38:08.09	81.61	21.42	-30.2	-33.2	19.2	6.07e-01	0	42	102	1048576	21	5099
2026-01-23 10:38:09.09	81.34	21.50	-30.1	-33.0	19.4	6.04e-01	0	42	102	1048576	21	5024
2026-01-23 10:38:10.09	81.07	21.58	-30.0	-32.8	19.5	6.06e-01	0	42	102	1048576	21	4964
2026-01-23 10:38:11.10	80.80	21.66	-30.1	-33.0	19.4	6.07e-01	0	42	102	1048576	21	5025
2026-01-23 10:38:12.10	80.53	21.74	-30.1	-33.0	19.4	6.06e-01	0	42	102	1048576	21	5013
2026-01-23 10:38:13.10	80.25	21.81	-30.2	-33.4	19.2	6.05e-01	0	42	102	1048576	21	5158
2026-01-23 10:38:14.11	79.98	21.89	-30.3	-33.5	19.1	6.07e-01	0	42	102	1048576	21	5195
2026-01-23 10:38:15.11	79.70	21.97	-30.2	-33.3	19.2	6.07e-01	0	42	102	1048576	21	5129
2026-01-23 10:38:16.11	79.42	22.04	-30.3	-33.4	19.1	6.07e-01	0	42	102	1048576	21	5169
2026-01-23 10:38:17.11	79.14	22.12	-30.4	-33.7	19.0	6.05e-01	0	42	102	1048576	21	5266
2026-01-23 10:38:18.12	78.86	22.19	-30.2	-33.3	19.2	6.06e-01	0	42	102	1048576	21	5130
2026-01-23 10:38:19.12	78.58	22.27	-30.2	-33.3	19.3	6.06e-01	0	42	102	1048576	21	5112
2026-01-23 10:38:20.12	78.30	22.34	-30.2	-33.2	19.3	6.04e-01	0	42	102	1048576	21	5101
2026-01-23 10:38:21.13	78.01	22.41	-30.3	-33.4	19.2	6.08e-01	0	42	102	1048576	21	5162
2026-01-23 10:38:22.13	77.72	22.49	-30.4	-33.7	19.0	6.06e-01	0	42	102	1048576	21	5255
2026-01-23 10:38:23.14	77.43	22.56	-30.3	-33.3	19.3	6.07e-01	0	42	102	1048576	21	5135
2026-01-23 10:38:24.13	77.15	22.63	-30.2	-33.2	19.3	6.04e-01	0	42	102	1048576	21	5075
2026-01-23 10:38:25.14	76.85	22.70	-30.2	-33.3	19.3	6.05e-01	0	42	102	1048576	21	5111
2026-01-23 10:38:26.14	76.56	22.77	-30.3	-33.5	19.2	6.08e-01	0	42	102	1048576	21	5201
2026-01-23 10:38:27.15	76.27	22.84	-30.4	-33.7	19.1	6.07e-01	0	42	102	1048576	21	5259
2026-01-23 10:38:28.16	75.97	22.91	-30.3	-33.5	19.1	6.08e-01	0	42	102	1048576	21	5195
2026-01-23 10:38:29.16	75.67	22.98	-30.1	-33.0	19.4	6.08e-01	0	42	102	1048576	21	5014
2026-01-23 10:38:30.16	75.38	23.05	-30.1	-32.9	19.5	6.07e-01	0	42	102	1048576	21	4969
2026-01-23 10:38:31.16	75.08	23.12	-30.1	-33.0	19.4	6.07e-01	0	42	102	1048576	21	5022
2026-01-23 10:38:32.16	74.78	23.19	-30.2	-33.3	19.3	6.05e-01	0	42	102	1048576	21	5106
2026-01-23 10:38:33.17	74.48	23.25	-30.3	-33.4	19.2	6.07e-01	0	42	102	1048576	21	5168
2026-01-23 10:38:34.18	74.17	23.32	-30.5	-43.2	3.8	7.45e-01	0	42	104	1048576	21	15619
2026-01-23 10:38:35.18	73.87	23.38	-30.5	-43.3	3.8	7.48e-01	0	42	104	1048576	21	15666
2026-01-23 10:38:36.19	73.56	23.45	-30.8	-43.6	3.8	7.44e-01	0	42	104	1048576	22	15660
2026-01-23 10:38:37.20	73.25	23.51	-31.1	-44.1	3.8	7.46e-01	0	42	104	1048576	23	16125
2026-01-23 10:38:38.20	72.94	23.58	-31.4	-44.7	3.8	7.43e-01	0	42	104	1048576	23	16624
2026-01-23 10:38:39.20	72.63	23.64	-31.8	-45.3	3.8	7.44e-01	0	42	104	1048576	24	17059
2026-01-23 10:38:40.20	72.32	23.70	-32.1	-45.8	3.8	7.47e-01	0	42	104	1048576	25	17303
2026-01-23 10:38:41.21	72.01	23.76	-32.2	-45.9	3.8	7.44e-01	0	42	104	1048576	25	17462
2026-01-23 10:38:42.20	71.70	23.82	-32.3	-46.3	3.8	7.45e-01	0	42	104	1048576	25	18132
2026-01-23 10:38:43.21	71.38	23.88	-32.4	-46.7	3.8	7.45e-01	0	42	104	1048576	25	18695
2026-01-23 10:38:44.20	71.07	23.94	-32.5	-47.1	3.8	7.50e-01	0	42	104	1048576	25	19213
2026-01-23 10:38:45.20	70.75	24.00	-32.7	-47.2	3.8	7.49e-01	0	42	104	1048576	26	19024
2026-01-23 10:38:46.20	70.43	24.06	-33.0	-48.1	3.8	7.44e-01	0	42	104	1048576	26	20590
2026-01-23 10:38:47.21	70.11	24.11	-33.3	-48.7	3.8	7.42e-01	0	42	104	1048576	27	21252
2026-01-23 10:38:48.21	69.79	24.17	-33.4	-49.3	3.8	7.46e-01	0	42	104	1048576	27	22381
2026-01-23 10:38:49.22	69.47	24.22	-33.5	-49.8	3.8	7.42e-01	0	42	104	1048576	27	23361
2026-01-23 10:38:50.22	69.15	24.28	-33.5	-49.6	3.9	7.45e-01	0	42	104	1048576	28	22906
2026-01-23 10:38:51.23	68.82	24.33	-33.6	-49.9	3.8	7.47e-01	0	42	104	1048576	28	23473
2026-01-23 10:38:52.24	68.49	24.38	-33.6	-50.0	3.8	7.43e-01	0	42	104	1048576	28	23706
2026-01-23 10:38:53.24	68.17	24.44	-33.6	-50.0	3.8	7.47e-01	0	42	104	1048576	28	23721
2026-01-23 10:38:54.24	67.84	24.49	-33.6	-50.0	3.8	7.44e-01	0	42	104	1048576	28	23703
2026-01-23 10:38:55.24	67.51	24.54	-33.6	-49.9	3.8	7.44e-01	0	42	104	1048576	28	23456
2026-01-23 10:38:56.25	67.18	24.58	-33.6	-49.8	3.8	7.46e-01	0	42	104	1048576	28	23405
2026-01-23 10:38:57.25	66.85	24.63	-33.6	-49.8	3.8	7.43e-01	0	42	104	1048576	28	23246
2026-01-23 10:38:58.26	66.51	24.68	-33.6	-49.8	3.8	7.45e-01	0	42	104	1048576	28	23237
2026-01-23 10:38:59.27	66.18	24.73	-33.5	-49.7	3.8	7.42e-01	0	42	104	1048576	28	22991
2026-01-23 10:39:00.27	65.84	24.77	-33.4	-49.2	3.8	7.48e-01	0	42	104	1048576	28	22078
2026-01-23 10:39:01.28	65.51	24.82	-33.3	-48.5	3.8	7.42e-01	0	42	104	1048576	28	20801
2026-01-23 10:39:02.28	65.17	24.86	-33.1	-47.8	3.8	7.43e-01	0	42	104	1048576	28	19539
2026-01-23 10:39:03.29	64.83	24.90	-32.9	-47.4	3.8	7.45e-01	0	42	104	1048576	27	19117
2026-01-23 10:39:04.29	64.50	24.94	-32.6	-46.4	3.8	7.46e-01	0	42	104	1048576	27	17557
2026-01-23 10:39:05.30	64.15	24.98	-32.3	-45.9	3.8	7.44e-01	0	42	104	1048576	26	17168
2026-01-23 10:39:06.29	63.82	25.02	-32.2	-45.5	3.8	7.44e-01	0	42	104	1048576	26	16713
2026-01-23 10:39:07.31	63.47	25.06	-32.2	-45.4	3.8	7.44e-01	0	42	104	1048576	26	16445
2026-01-23 10:39:08.31	63.13	25.10	-32.1	-45.1	3.8	7.44e-01	0	42	104	1048576	26	16189
2026-01-23 10:39:09.32	62.79	25.13	-32.1	-45.2	3.8	7.48e-01	0	42	104	1048576	26	16243
2026-01-23 10:39:10.32	62.44	25.17	-32.2	-45.5	3.8	7.46e-01	0	42	104	1048576	26	16603
2026-01-23 10:39:11.33	62.10	25.20	-32.3	-45.8	3.8	7.42e-01	0	42	104	1048576	26	16967
2026-01-23 10:39:12.34	61.75	25.24	-32.3	-45.7	3.8	7.43e-01	0	42	104	1048576	26	16897
2026-01-23 10:39:13.33	61.41	25.27	-31.9	-44.6	3.8	7.46e-01	0	42	104	1048576	26	15401
2026-01-23 10:39:14.34	61.06	25.30	-31.6	-44.1	3.8	7.43e-01	0	42	104	1048576	25	15224
2026-01-23 10:39:15.34	60.72	25.33	-31.3	-43.9	3.8	7.45e-01	0	42	104	1048576	24	15362
2026-01-23 10:39:16.35	60.37	25.36	-31.0	-43.0	3.8	7.47e-01	0	42	104	1048576	24	14353
2026-01-23 10:39:17.36	60.01	25.39	-30.7	-42.7	3.8	7.44e-01	0	42	104	1048576	23	14265
2026-01-23 10:39:18.36	59.67	25.41	-30.7	-42.7	3.8	7.45e-01	0	42	104	1048576	23	14333
2026-01-23 10:39:19.36	59.32	25.44	-30.7	-42.6	3.8	7.47e-01	0	42	104	1048576	23	14240
2026-01-23 10:39:20.37	58.97	25.47	-30.5	-42.2	3.8	7.44e-01	0	42	104	1048576	23	13835
2026-01-23 10:39:21.37	58.62	25.49	-30.4	-41.9	3.8	7.46e-01	0	42	104	1048576	23	13530
2026-01-23 10:39:22.37	58.27	25.51	-30.4	-41.9	3.8	7.43e-01	0	42	104	1048576	23	13423
2026-01-23 10:39:23.38	57.91	25.53	-30.6	-42.3	3.8	7.44e-01	0	42	104	1048576	23	13867
2026-01-23 10:39:24.38	57.56	25.55	-30.8	-43.0	3.8	7.44e-01	0	42	104	1048576	23	14679
2026-01-23 10:39:25.38	57.21	25.57	-30.9	-43.4	3.8	7.45e-01	0	42	104	1048576	23	15101
2026-01-23 10:39:26.39	56.85	25.59	-31.1	-43.8	3.8	7.46e-01	0	42	104	1048576	23	15430
2026-01-23 10:39:27.40	56.50	25.61	-31.3	-44.3	3.8	7.44e-01	0	42	104	1048576	23	16038
2026-01-23 10:39:28.40	56.15	25.62	-31.7	-44.8	3.8	7.46e-01	0	42	104	1048576	24	16284
2026-01-23 10:39:29.40	55.79	25.64	-32.1	-46.0	3.8	7.44e-01	0	42	104	1048576	24	17833
2026-01-23 10:39:30.41	55.44	25.65	-32.4	-46.6	3.8	7.43e-01	0	42	104	1048576	25	18547
2026-01-23 10:39:31.41	55.08	25.66	-32.6	-47.1	3.8	7.43e-01	0	42	104	1048576	25	19111
2026-01-23 10:39:32.41	54.73	25.67	-32.8	-47.2	3.8	7.46e-01	0	42	104	1048576	26	19003
2026-01-23 10:39:33.42	54.37	25.68	-33.0	-48.1	3.8	7.45e-01	0	42	104	1048576	26	20403
2026-01-23 10:39:34.42	54.02	25.69	-33.3	-48.5	3.8	7.44e-01	0	42	104	1048576	27	20791
2026-01-23 10:39:35.42	53.66	25.70	-33.5	-49.5	3.8	7.45e-01	0	42	104	1048576	27	22745
2026-01-23 10:39:36.43	53.30	25.70	-33.5	-49.2	3.8	7.44e-01	0	42	104	1048576	28	22020
2026-01-23 10:39:37.43	52.95	25.71	-33.4	-48.8	3.8	7.44e-01	0	42	104	1048576	28	21203
2026-01-23 10:39:38.42	52.60	25.71	-33.5	-49.1	3.8	7.46e-01	0	42	104	1048576	28	21889
2026-01-23 10:39:39.43	52.24	25.72	-33.5	-49.4	3.8	7.45e-01	0	42	104	1048576	28	22372
2026-01-23 10:39:40.43	51.88	25.72	-33.6	-49.7	3.8	7.46e-01	0	42	104	1048576	28	22855
2026-01-23 10:39:41.43	51.53	25.72	-33.6	-49.9	3.8	7.46e-01	0	42	104	1048576	28	23415
2026-01-23 10:39:42.44	51.17	25.72	-33.7	-50.1	3.8	7.44e-01	0	42	104	1048576	28	23795
2026-01-23 10:39:43.44	50.82	25.72	-33.7	-50.1	3.8	7.45e-01	0	42	104	1048576	28	23825
2026-01-23 10:39:44.44	50.46	25.71	-33.7	-50.1	3.8	7.42e-01	0	42	104	1048576	28	23910
2026-01-23 10:39:45.45	50.10	25.71	-33.7	-50.0	3.8	7.46e-01	0	42	104	1048576	28	23670
2026-01-23 10:39:46.45	49.75	25.70	-33.6	-50.0	3.8	7.46e-01	0	42	104	1048576	28	23672
2026-01-23 10:39:47.46	49.39	25.70	-33.7	-50.1	3.8	7.48e-01	0	42	104	1048576	28	23835
2026-01-23 10:39:48.47	49.03	25.69	-33.7	-50.1	3.8	7.44e-01	0	42	104	1048576	28	23948
2026-01-23 10:39:49.46	48.68	25.68	-33.6	-49.9	3.8	7.46e-01	0	42	104	1048576	28	23335
2026-01-23 10:39:50.47	48.32	25.67	-33.5	-49.1	3.8	7.48e-01	0	42	104	1048576	28	21922
2026-01-23 10:39:51.48	47.97	25.66	-33.3	-48.3	3.8	7.44e-01	0	42	104	1048576	28	20358
2026-01-23 10:39:52.48	47.61	25.65	-33.0	-47.3	3.8	7.43e-01	0	42	104	1048576	28	18645
2026-01-23 10:39:53.48	47.26	25.63	-32.8	-46.9	3.8	7.46e-01	0	42	104	1048576	27	18141
2026-01-23 10:39:54.49	46.90	25.62	-32.5	-45.8	3.8	7.47e-01	0	42	104	1048576	27	16584
2026-01-23 10:39:55.49	46.55	25.60	-32.2	-45.4	3.8	7.43e-01	0	42	104	1048576	26	16468
2026-01-23 10:39:56.50	46.20	25.58	-32.1	-45.2	3.8	7.43e-01	0	42	104	1048576	26	16216
2026-01-23 10:39:57.50	45.85	25.57	-32.1	-45.1	3.8	7.45e-01	0	42	104	1048576	26	16014
2026-01-23 10:39:58.51	45.49	25.55	-32.1	-45.1	3.8	7.42e-01	0	42	104	1048576	26	16104
2026-01-23 10:39:59.51	45.14	25.53	-32.2	-45.3	3.8	7.46e-01	0	42	104	1048576	26	16333
2026-01-23 10:40:00.51	44.79	25.51	-32.2	-45.4	3.8	7.46e-01	0	42	104	1048576	26	16387
2026-01-23 10:40:01.51	44.44	25.48	-32.2	-45.2	3.8	7.46e-01	0	42	104	1048576	26	16145
2026-01-23 10:40:02.52	44.09	25.46	-31.9	-44.5	3.8	7.49e-01	0	42	104	1048576	26	15339
2026-01-23 10:40:03.52	43.74	25.43	-31.5	-43.8	3.8	7.43e-01	0	42	104	1048576	25	14870
2026-01-23 10:40:04.53	43.39	25.41	-31.1	-43.3	3.8	7.47e-01	0	42	104	1048576	24	14599
2026-01-23 10:40:05.53	43.04	25.38	-30.9	-42.7	3.8	7.42e-01	0	42	104	1048576	24	14004
2026-01-23 10:40:06.54	42.69	25.35	-30.7	-42.5	3.8	7.45e-01	0	42	104	1048576	23	14104
2026-01-23 10:40:07.54	42.35	25.32	-30.5	-42.3	3.8	7.48e-01	0	42	104	1048576	23	13908
2026-01-23 10:40:08.54	42.00	25.29	-30.5	-42.2	3.8	7.43e-01	0	42	104	1048576	23	13863
2026-01-23 10:40:09.54	41.66	25.26	-30.5	-42.2	3.8	7.41e-01	0	42	104	1048576	23	13840
2026-01-23 10:40:10.56	41.30	25.23	-30.6	-42.4	3.8	7.43e-01	0	42	104	1048576	23	13905
2026-01-23 10:40:11.56	40.96	25.20	-30.8	-42.9	3.8	7.47e-01	0	42	104	1048576	23	14520
2026-01-23 10:40:12.56	40.62	25.16	-31.2	-44.0	3.8	7.45e-01	0	42	104	1048576	23	15793
2026-01-23 10:40:13.56	40.28	25.13	-31.5	-45.1	3.8	7.44e-01	0	42	104	1048576	23	17071
2026-01-23 10:40:14.56	39.94	25.09	-31.7	-44.9	3.8	7.46e-01	0	42	104	1048576	24	16487
2026-01-23 10:40:15.57	39.59	25.05	-31.8	-45.0	3.8	7.44e-01	0	42	104	1048576	24	16471
2026-01-23 10:40:16.57	39.26	25.01	-32.0	-45.7	3.8	7.47e-01	0	42	104	1048576	24	17539
2026-01-23 10:40:17.58	38.91	24.97	-32.2	-46.1	3.8	7.42e-01	0	42	104	1048576	25	17772
2026-01-23 10:40:18.58	38.58	24.93	-32.4	-46.6	3.8	7.45e-01	0	42	104	1048576	25	18485
2026-01-23 10:40:19.58	38.24	24.89	-32.7	-47.0	3.8	7.45e-01	0	42	104	1048576	26	18750
2026-01-23 10:40:20.58	37.91	24.85	-32.9	-47.9	3.8	7.43e-01	0	42	104	1048576	26	20148
2026-01-23 10:40:21.59	37.57	24.81	-33.2	-48.4	3.8	7.45e-01	0	42	104	1048576	27	20729
2026-01-23 10:40:22.59	37.23	24.76	-33.3	-49.0	3.8	7.46e-01	0	42	104	1048576	27	21829
2026-01-23 10:40:23.60	36.90	24.72	-33.5	-49.8	3.8	7.44e-01	0	42	104	1048576	27	23466
2026-01-23 10:40:24.60	36.57	24.67	-33.5	-49.3	3.8	7.42e-01	0	42	104	1048576	28	22422
2026-01-23 10:40:25.60	36.24	24.62	-33.3	-48.6	3.8	7.46e-01	0	42	104	1048576	28	20946
2026-01-23 10:40:26.60	35.91	24.58	-33.0	-47.5	3.8	7.43e-01	0	42	104	1048576	28	18941
2026-01-23 10:40:27.61	35.58	24.53	-33.0	-47.6	3.8	7.41e-01	0	42	104	1048576	28	19159
2026-01-23 10:40:28.61	35.25	24.48	-33.2	-48.3	3.8	7.44e-01	0	42	104	1048576	28	20432
2026-01-23 10:40:29.61	34.92	24.43	-33.3	-48.9	3.8	7.44e-01	0	42	104	1048576	28	21573
2026-01-23 10:40:30.62	34.60	24.37	-33.4	-49.3	3.8	7.48e-01	0	42	104	1048576	28	22275
2026-01-23 10:40:31.63	34.27	24.32	-33.5	-49.7	3.8	7.44e-01	0	42	104	1048576	28	23092
2026-01-23 10:40:32.63	33.95	24.27	-33.6	-50.2	3.8	7.41e-01	0	42	104	1048576	28	24372
2026-01-23 10:40:33.64	33.62	24.21	-33.6	-50.2	3.8	7.46e-01	0	42	104	1048576	28	24350
2026-01-23 10:40:34.64	33.30	24.16	-33.6	-50.1	3.8	7.46e-01	0	42	104	1048576	28	23972
2026-01-23 10:40:35.65	32.98	24.10	-33.6	-50.2	3.8	7.47e-01	0	42	104	1048576	28	24152
2026-01-23 10:40:36.65	32.66	24.05	-33.6	-50.3	3.8	7.45e-01	0	42	104	1048576	28	24393
2026-01-23 10:40:37.66	32.34	23.99	-33.6	-50.3	3.8	7.40e-01	0	42	104	1048576	28	24424
2026-01-23 10:40:38.66	32.03	23.93	-33.6	-50.3	3.8	7.46e-01	0	42	104	1048576	28	24463
2026-01-23 10:40:39.66	31.71	23.87	-33.6	-49.9	3.8	7.48e-01	0	42	104	1048576	28	23515
2026-01-23 10:40:40.66	31.40	23.81	-33.4	-48.9	3.8	7.44e-01	0	42	104	1048576	28	21549
2026-01-23 10:40:41.67	31.08	23.75	-33.1	-47.8	3.8	7.45e-01	0	42	104	1048576	28	19596
2026-01-23 10:40:42.68	30.77	23.69	-32.9	-47.3	3.8	7.41e-01	0	42	104	1048576	27	18871
2026-01-23 10:40:43.68	30.46	23.63	-32.6	-46.1	3.8	7.42e-01	0	42	104	1048576	27	17153
2026-01-23 10:40:44.68	30.15	23.57	-32.2	-45.5	3.8	7.45e-01	0	42	104	1048576	26	16665
2026-01-23 10:40:45.69	29.85	23.50	-32.0	-44.9	3.8	7.45e-01	0	42	104	1048576	26	15859
2026-01-23 10:40:46.69	29.54	23.44	-32.0	-44.8	3.8	7.48e-01	0	42	104	1048576	26	15741
2026-01-23 10:40:47.69	29.24	23.38	-32.0	-44.8	3.8	7.41e-01	0	42	104	1048576	26	15650
2026-01-23 10:40:48.70	28.93	23.31	-32.0	-44.9	3.8	7.46e-01	0	42	104	1048576	26	15825
2026-01-23 10:40:49.70	28.63	23.24	-32.0	-44.9	3.8	7.44e-01	0	42	104	1048576	26	15864
2026-01-23 10:40:50.70	28.33	23.18	-32.0	-44.9	3.8	7.44e-01	0	42	104	1048576	26	15929
2026-01-23 10:40:51.71	28.03	23.11	-32.1	-45.1	3.8	7.46e-01	0	42	104	1048576	26	16091
2026-01-23 10:40:52.72	27.73	23.04	-31.9	-44.5	3.8	7.45e-01	0	42	104	1048576	26	15408
2026-01-23 10:40:53.73	27.43	22.97	-31.5	-44.0	3.8	7.43e-01	0	42	104	1048576	25	15152
2026-01-23 10:40:54.73	27.14	22.90	-31.2	-43.6	3.8	7.42e-01	0	42	104	1048576	24	15007
2026-01-23 10:40:55.74	26.84	22.83	-31.0	-42.9	3.8	7.44e-01	0	42	104	1048576	24	14239
2026-01-23 10:40:56.74	26.55	22.76	-30.8	-43.0	3.8	7.44e-01	0	42	104	1048576	23	14629
2026-01-23 10:40:57.74	26.26	22.69	-30.7	-42.7	3.8	7.45e-01	0	42	104	1048576	23	14382
2026-01-23 10:40:58.74	25.97	22.62	-30.8	-42.9	3.8	7.45e-01	0	42	104	1048576	23	14580
2026-01-23 10:40:59.75	25.68	22.55	-31.0	-43.5	3.8	7.42e-01	0	42	104	1048576	23	15187
2026-01-23 10:41:00.75	25.39	22.48	-31.4	-44.5	3.8	7.40e-01	0	42	104	1048576	23	16369
2026-01-23 10:41:01.76	25.11	22.41	-31.7	-45.2	3.8	7.45e-01	0	42	104	1048576	24	16939
2026-01-23 10:41:02.77	24.82	22.33	-32.1	-45.6	3.8	7.41e-01	0	42	104	1048576	25	17062
2026-01-23 10:41:03.76	24.54	22.26	-32.5	-47.0	3.8	7.44e-01	0	42	104	1048576	25	18990
2026-01-23 10:41:04.76	24.26	22.18	-32.7	-47.2	3.8	7.45e-01	0	42	104	1048576	26	19186
2026-01-23 10:41:05.77	23.98	22.11	-32.8	-47.3	3.8	7.43e-01	0	42	104	1048576	26	19255
2026-01-23 10:41:06.77	23.70	22.03	-32.8	-47.6	3.8	7.46e-01	0	42	104	1048576	26	19605
2026-01-23 10:41:07.78	23.42	21.96	-33.0	-48.0	3.8	7.42e-01	0	42	104	1048576	26	20384
2026-01-23 10:41:08.78	23.15	21.88	-33.1	-48.6	3.8	7.45e-01	0	42	104	1048576	26	21460
2026-01-23 10:41:09.77	22.88	21.81	-33.2	-48.5	3.8	7.45e-01	0	42	104	1048576	27	20835
2026-01-23 10:41:10.78	22.61	21.73	-33.4	-49.2	3.8	7.44e-01	0	42	104	1048576	27	22319
2026-01-23 10:41:11.78	22.34	21.65	-33.5	-50.0	3.8	7.44e-01	0	42	104	1048576	27	24014
2026-01-23 10:41:12.79	22.06	21.57	-33.5	-49.7	3.8	7.46e-01	0	42	104	1048576	27	23489
2026-01-23 10:41:13.79	21.80	21.50	-33.3	-48.9	3.8	7.45e-01	0	42	104	1048576	27	21796
2026-01-23 10:41:14.79	21.53	21.42	-33.1	-48.0	3.8	7.44e-01	0	42	104	1048576	27	20155
2026-01-23 10:41:15.79	21.27	21.34	-32.9	-47.2	3.8	7.44e-01	0	42	104	1048576	27	18833
2026-01-23 10:41:16.80	21.00	21.26	-32.7	-46.6	3.8	7.43e-01	0	42	104	1048576	27	17989
2026-01-23 10:41:17.80	20.74	21.18	-32.8	-47.3	3.8	7.47e-01	0	42	104	1048576	27	18962
2026-01-23 10:41:18.80	20.48	21.10	-33.0	-48.0	3.8	7.48e-01	0	42	104	1048576	27	20227
2026-01-23 10:41:19.80	20.22	21.02	-33.2	-48.6	3.8	7.45e-01	0	42	104	1048576	27	21065
2026-01-23 10:41:20.81	19.96	20.94	-33.4	-49.3	3.8	7.46e-01	0	42	104	1048576	27	22623
2026-01-23 10:41:21.82	19.70	20.86	-33.5	-50.1	3.8	7.44e-01	0	42	104	1048576	27	24259
2026-01-23 10:41:22.83	19.45	20.78	-33.6	-50.1	3.8	7.45e-01	0	42	104	1048576	28	24167
2026-01-23 10:41:23.84	19.19	20.70	-33.6	-50.2	3.8	7.44e-01	0	42	104	1048576	28	24418
2026-01-23 10:41:24.84	18.94	20.61	-33.6	-50.1	3.8	7.44e-01	0	42	104	1048576	28	24171
2026-01-23 10:41:25.85	18.69	20.53	-33.5	-50.0	3.8	7.42e-01	0	42	104	1048576	28	23992
2026-01-23 10:41:26.86	18.43	20.45	-33.5	-50.0	3.8	7.46e-01	0	42	104	1048576	28	24091
2026-01-23 10:41:27.87	18.18	20.37	-33.5	-49.9	3.8	7.46e-01	0	42	104	1048576	28	23828
2026-01-23 10:41:28.86	17.94	20.28	-33.5	-49.7	3.8	7.45e-01	0	42	104	1048576	28	23390
2026-01-23 10:41:29.87	17.69	20.20	-33.3	-49.0	3.8	7.43e-01	0	42	104	1048576	28	21775
2026-01-23 10:41:30.87	17.45	20.12	-33.1	-48.0	3.8	7.43e-01	0	42	104	1048576	28	19983
2026-01-23 10:41:31.88	17.21	20.03	-32.8	-47.5	3.8	7.46e-01	0	42	104	1048576	27	19411
2026-01-23 10:41:32.89	16.96	19.95	-32.5	-46.0	3.8	7.44e-01	0	42	104	1048576	27	17166
2026-01-23 10:41:33.90	16.72	19.87	-32.1	-45.2	3.8	7.42e-01	0	42	104	1048576	26	16346
2026-01-23 10:41:34.89	16.49	19.78	-31.7	-44.5	3.8	7.42e-01	0	42	104	1048576	25	15752
2026-01-23 10:41:35.89	16.25	19.70	-31.6	-44.5	3.8	7.47e-01	0	42	104	1048576	25	15863
2026-01-23 10:41:36.89	16.02	19.62	-31.6	-44.3	3.8	7.44e-01	0	42	104	1048576	25	15569
2026-01-23 10:41:37.89	15.78	19.53	-31.6	-44.2	3.8	7.43e-01	0	42	104	1048576	25	15437
2026-01-23 10:41:38.90	15.55	19.45	-31.7	-44.5	3.8	7.43e-01	0	42	104	1048576	25	15715
2026-01-23 10:41:39.90	15.32	19.36	-31.8	-45.0	3.8	7.43e-01	0	42	104	1048576	25	16433
2026-01-23 10:41:40.90	15.09	19.28	-32.0	-45.8	3.8	7.41e-01	0	42	104	1048576	25	17616
2026-01-23 10:41:41.91	14.86	19.19	-32.3	-46.5	3.8	7.45e-01	0	42	104	1048576	25	18534
2026-01-23 10:41:42.91	14.63	19.11	-32.0	-45.6	3.8	7.47e-01	0	42	104	1048576	25	17203
2026-01-23 10:41:43.92	14.41	19.02	-31.7	-44.6	3.8	7.46e-01	0	42	104	1048576	25	15852
2026-01-23 10:41:44.92	14.18	18.93	-31.5	-44.0	3.8	7.46e-01	0	42	104	1048576	25	15172
2026-01-23 10:41:45.92	13.96	18.85	-31.3	-44.0	3.8	7.45e-01	0	42	104	1048576	24	15539
2026-01-23 10:41:46.92	13.74	18.76	-31.1	-43.6	3.8	7.43e-01	0	42	104	1048576	24	15034
2026-01-23 10:41:47.93	13.52	18.68	-31.0	-43.2	3.8	7.48e-01	0	42	104	1048576	24	14606
2026-01-23 10:41:48.93	13.30	18.59	-31.3	-43.9	3.8	7.46e-01	0	42	104	1048576	24	15309
2026-01-23 10:41:49.93	13.08	18.51	-31.7	-45.2	3.8	7.42e-01	0	42	104	1048576	24	17064
2026-01-23 10:41:50.94	12.86	18.42	-32.1	-46.1	3.8	7.46e-01	0	42	104	1048576	25	18079
2026-01-23 10:41:51.94	12.65	18.33	-32.5	-47.3	3.8	7.46e-01	0	42	104	1048576	25	19817
2026-01-23 10:41:52.95	12.43	18.25	-32.9	-48.1	3.8	7.47e-01	0	42	104	1048576	26	20770
2026-01-23 10:41:53.95	12.22	18.16	-33.3	-49.1	3.8	7.46e-01	0	42	104	1048576	27	22310
2026-01-23 10:41:54.96	12.01	18.07	-33.3	-49.4	3.8	7.45e-01	0	42	104	1048576	27	22884
2026-01-23 10:41:55.97	11.80	17.99	-33.3	-49.5	3.8	7.41e-01	0	42	104	1048576	27	23244
2026-01-23 10:41:56.97	11.59	17.90	-33.3	-49.6	3.8	7.42e-01	0	42	104	1048576	27	23498
2026-01-23 10:41:57.97	11.38	17.82	-33.3	-49.5	3.8	7.45e-01	0	42	104	1048576	27	23223
2026-01-23 10:41:58.98	11.18	17.73	-33.3	-49.6	3.8	7.43e-01	0	42	104	1048576	27	23295
2026-01-23 10:41:59.99	10.97	17.64	-33.3	-49.6	3.8	7.47e-01	0	42	104	1048576	27	23263
2026-01-23 10:42:00.99	10.77	17.56	-33.2	-49.2	3.8	7.41e-01	0	42	104	1048576	27	22612
2026-01-23 10:42:02.00	10.56	17.47	-33.1	-48.7	3.8	7.48e-01	0	42	104	1048576	27	21605
2026-01-23 10:42:03.00	10.36	17.38	-32.9	-47.9	3.8	7.44e-01	0	42	104	1048576	27	20251
2026-01-23 10:42:04.01	10.16	17.29	-32.7	-47.0	3.8	7.41e-01	0	42	104	1048576	27	18720
2026-01-23 10:42:05.01	9.96	17.21	-32.5	-46.1	3.8	7.42e-01	0	42	104	1048576	27	17350
2026-01-23 10:42:06.01	9.77	17.12	-32.2	-45.8	3.8	7.47e-01	0	42	104	1048576	26	17216
2026-01-23 10:42:07.02	9.57	17.04	-32.0	-45.2	3.8	7.45e-01	0	42	104	1048576	26	16430
2026-01-23 10:42:08.02	9.38	16.95	-32.3	-46.2	3.8	7.46e-01	0	42	104	1048576	26	17870
2026-01-23 10:42:09.02	9.18	16.86	-32.6	-47.4	3.8	7.44e-01	0	42	104	1048576	26	19745
2026-01-23 10:42:10.02	8.99	16.78	-32.9	-48.4	3.8	7.47e-01	0	42	104	1048576	26	21453
2026-01-23 10:42:11.03	8.80	16.69	-33.1	-48.8	3.9	7.45e-01	0	42	104	1048576	27	21829
2026-01-23 10:42:12.03	8.61	16.60	-33.3	-49.6	3.8	7.46e-01	0	42	104	1048576	27	23571
2026-01-23 10:42:13.04	8.42	16.52	-33.4	-50.3	3.8	7.44e-01	0	42	104	1048576	27	25123
2026-01-23 10:42:14.04	8.23	16.43	-33.4	-50.2	3.8	7.45e-01	0	42	104	1048576	27	24876
2026-01-23 10:42:15.04	8.05	16.34	-33.4	-50.1	3.8	7.45e-01	0	42	104	1048576	27	24603
2026-01-23 10:42:16.05	7.86	16.26	-33.3	-49.9	3.8	7.43e-01	0	42	104	1048576	27	24318
2026-01-23 10:42:17.05	7.67	16.17	-33.3	-49.9	3.8	7.45e-01	0	42	104	1048576	27	24247
2026-01-23 10:42:18.06	7.49	16.08	-33.3	-49.9	3.8	7.46e-01	0	42	104	1048576	27	24145
2026-01-23 10:42:19.06	7.31	16.00	-33.3	-49.9	3.8	7.42e-01	0	42	104	1048576	27	24161
2026-01-23 10:42:20.07	7.13	15.91	-33.0	-48.8	3.8	7.45e-01	0	42	104	1048576	27	22190
2026-01-23 10:42:21.06	6.95	15.83	-32.7	-47.6	3.8	7.45e-01	0	42	104	1048576	27	19972
2026-01-23 10:42:22.07	6.77	15.74	-32.4	-46.4	3.8	7.47e-01	0	42	104	1048576	27	18028
2026-01-23 10:42:23.08	6.59	15.65	-32.1	-45.7	3.8	7.47e-01	0	42	104	1048576	26	17309
2026-01-23 10:42:24.08	6.42	15.57	-31.7	-45.0	3.8	7.46e-01	0	42	104	1048576	25	16685
2026-01-23 10:42:25.08	6.24	15.48	-31.3	-44.4	3.8	7.43e-01	0	42	104	1048576	24	16234
2026-01-23 10:42:26.09	6.07	15.40	-31.4	-44.7	3.8	7.45e-01	0	42	104	1048576	24	16657
2026-01-23 10:42:27.10	5.89	15.31	-31.5	-45.1	3.8	7.42e-01	0	42	104	1048576	24	17124
2026-01-23 10:42:28.10	5.72	15.23	-31.6	-45.5	3.8	7.45e-01	0	42	104	1048576	24	17702
2026-01-23 10:42:29.10	5.55	15.14	-32.0	-46.4	3.8	7.45e-01	0	42	104	1048576	24	18722
2026-01-23 10:42:30.11	5.38	15.05	-32.2	-46.5	3.8	7.45e-01	0	42	104	1048576	25	18676
2026-01-23 10:42:31.11	5.21	14.97	-32.5	-47.4	3.8	7.46e-01	0	42	104	1048576	25	20076
2026-01-23 10:42:32.12	5.04	14.88	-32.6	-47.6	3.8	7.44e-01	0	42	104	1048576	26	20051
2026-01-23 10:42:33.11	4.88	14.80	-32.5	-46.9	3.8	7.43e-01	0	42	104	1048576	26	19065
2026-01-23 10:42:34.12	4.71	14.71	-32.3	-46.3	3.8	7.41e-01	0	42	104	1048576	26	18058
2026-01-23 10:42:35.13	4.54	14.63	-32.2	-45.8	3.8	7.47e-01	0	42	104	1048576	26	17377
2026-01-23 10:42:36.14	4.38	14.54	-32.1	-45.5	3.8	7.47e-01	0	42	104	1048576	26	16905
2026-01-23 10:42:37.14	4.22	14.46	-32.0	-45.4	3.8	7.44e-01	0	42	104	1048576	26	16762
2026-01-23 10:42:38.15	4.05	14.37	-32.0	-45.4	3.8	7.48e-01	0	42	104	1048576	26	16775
2026-01-23 10:42:39.15	3.89	14.29	-32.4	-46.6	3.8	7.42e-01	0	42	104	1048576	26	18558
2026-01-23 10:42:40.16	3.73	14.21	-32.7	-47.8	3.8	7.43e-01	0	42	104	1048576	26	20449
2026-01-23 10:42:41.17	3.57	14.12	-33.0	-49.1	3.8	7.45e-01	0	42	104	1048576	26	22875
2026-01-23 10:42:42.17	3.42	14.04	-33.2	-49.5	3.8	7.48e-01	0	42	104	1048576	27	23415
2026-01-23 10:42:43.17	3.26	13.95	-32.9	-48.1	3.8	7.45e-01	0	42	104	1048576	27	20730
2026-01-23 10:42:44.17	3.10	13.87	-32.6	-47.0	3.8	7.45e-01	0	42	104	1048576	27	18912
2026-01-23 10:42:45.17	2.95	13.79	-32.6	-47.1	3.8	7.45e-01	0	42	104	1048576	27	19025
2026-01-23 10:42:46.17	2.80	13.70	-32.7	-47.4	3.8	7.44e-01	0	42	104	1048576	27	19523
2026-01-23 10:42:47.18	2.64	13.62	-32.8	-47.7	3.8	7.43e-01	0	42	104	1048576	27	20028
2026-01-23 10:42:48.18	2.49	13.54	-32.8	-48.0	3.8	7.46e-01	0	42	104	1048576	27	20607
2026-01-23 10:42:49.18	2.34	13.45	-32.9	-48.5	3.8	7.47e-01	0	42	104	1048576	27	21537
2026-01-23 10:42:50.19	2.19	13.37	-32.9	-48.5	3.8	7.43e-01	0	42	104	1048576	27	21697
2026-01-23 10:42:51.19	2.04	13.29	-32.8	-47.8	3.8	7.48e-01	0	42	104	1048576	27	20375
2026-01-23 10:42:52.19	1.89	13.20	-32.6	-47.1	3.8	7.44e-01	0	42	104	1048576	27	19084
2026-01-23 10:42:53.20	1.74	13.12	-32.4	-46.3	3.8	7.45e-01	0	42	104	1048576	27	17860
2026-01-23 10:42:54.21	1.60	13.04	-32.2	-46.0	3.8	7.43e-01	0	42	104	1048576	26	17653
2026-01-23 10:42:55.22	1.45	12.95	-32.0	-45.2	3.8	7.41e-01	0	42	104	1048576	26	16591
2026-01-23 10:42:56.22	1.31	12.87	-31.8	-45.3	3.8	7.43e-01	0	42	104	1048576	25	17021
2026-01-23 10:42:57.22	1.16	12.79	-31.7	-45.1	3.8	7.41e-01	0	42	104	1048576	25	16877
2026-01-23 10:42:58.23	1.02	12.71	-32.0	-46.2	3.8	7.45e-01	0	42	104	1048576	25	18458
2026-01-23 10:42:59.24	0.88	12.62	-32.4	-47.5	3.8	7.43e-01	0	42	104	1048576	25	20554
2026-01-23 10:43:00.24	0.74	12.54	-32.7	-48.1	3.8	7.41e-01	0	42	104	1048576	26	21194
2026-01-23 10:43:01.25	0.59	12.46	-32.9	-49.1	3.8	7.47e-01	0	42	104	1048576	26	23145
2026-01-23 10:43:02.25	0.46	12.38	-33.1	-49.5	3.9	7.47e-01	0	42	104	1048576	27	23623
2026-01-23 10:43:03.26	0.32	12.30	-33.2	-49.9	3.8	7.43e-01	0	42	104	1048576	27	24614
2026-01-23 10:43:04.26	0.18	12.22	-33.2	-49.9	3.8	7.43e-01	0	42	104	1048576	27	24537
2026-01-23 10:43:05.26	0.04	12.14	-33.2	-49.7	3.8	7.43e-01	0	42	104	1048576	27	24064
2026-01-23 10:43:06.27	359.91	12.05	-33.1	-49.6	3.8	7.46e-01	0	42	104	1048576	27	24026
2026-01-23 10:43:07.28	359.77	11.97	-33.2	-49.7	3.8	7.46e-01	0	42	104	1048576	27	24259
2026-01-23 10:43:08.28	359.64	11.89	-33.2	-49.8	3.8	7.43e-01	0	42	104	1048576	27	24405
2026-01-23 10:43:09.29	359.50	11.81	-33.2	-49.9	3.8	7.44e-01	0	42	104	1048576	27	24572
2026-01-23 10:43:10.29	359.37	11.73	-33.0	-49.1	3.8	7.45e-01	0	42	104	1048576	27	22894
2026-01-23 10:43:11.30	359.24	11.65	-32.8	-48.1	3.8	7.43e-01	0	42	104	1048576	27	20916
2026-01-23 10:43:12.30	359.11	11.57	-32.5	-47.1	3.8	7.44e-01	0	42	104	1048576	27	19261
2026-01-23 10:43:13.30	358.98	11.49	-32.3	-46.5	3.8	7.44e-01	0	42	104	1048576	26	18516
2026-01-23 10:43:14.31	358.84	11.41	-32.0	-45.5	3.8	7.44e-01	0	42	104	1048576	26	17091
2026-01-23 10:43:15.31	358.72	11.33	-31.8	-45.4	3.8	7.42e-01	0	42	104	1048576	25	17299
2026-01-23 10:43:16.31	358.59	11.25	-32.0	-46.0	3.8	7.42e-01	0	42	104	1048576	25	18037
2026-01-23 10:43:17.32	358.46	11.17	-32.2	-46.7	3.8	7.46e-01	0	42	104	1048576	25	19255
2026-01-23 10:43:18.33	358.33	11.09	-32.3	-47.4	3.8	7.47e-01	0	42	104	1048576	25	20281
2026-01-23 10:43:19.33	358.21	11.02	-32.5	-48.1	3.8	7.43e-01	0	42	104	1048576	25	21577
2026-01-23 10:43:20.34	358.08	10.94	-32.7	-48.4	3.8	7.46e-01	0	42	104	1048576	26	21794
2026-01-23 10:43:21.34	357.96	10.86	-32.9	-48.9	3.8	7.44e-01	0	42	104	1048576	26	22895
2026-01-23 10:43:22.35	357.83	10.78	-32.9	-49.3	3.8	7.47e-01	0	42	104	1048576	26	23589
2026-01-23 10:43:23.36	357.71	10.70	-32.9	-49.1	3.8	7.44e-01	0	42	104	1048576	26	23358
2026-01-23 10:43:24.37	357.59	10.62	-32.8	-48.8	3.8	7.43e-01	0	42	104	1048576	26	22533
2026-01-23 10:43:25.37	357.47	10.54	-32.8	-48.7	3.8	7.42e-01	0	42	104	1048576	26	22507
2026-01-23 10:43:26.38	357.34	10.46	-32.7	-48.4	3.8	7.41e-01	0	42	104	1048576	26	21798
2026-01-23 10:43:27.38	357.22	10.39	-32.7	-48.3	3.8	7.46e-01	0	42	104	1048576	26	21694
2026-01-23 10:43:28.39	357.10	10.31	-32.8	-48.7	3.8	7.46e-01	0	42	104	1048576	26	22503
2026-01-23 10:43:29.40	356.99	10.23	-33.0	-49.8	3.8	7.44e-01	0	42	104	1048576	26	24809
2026-01-23 10:43:30.41	356.87	10.15	-33.1	-49.6	3.8	7.43e-01	0	42	104	1048576	27	23920
2026-01-23 10:43:31.41	356.75	10.08	-32.9	-48.5	3.8	7.44e-01	0	42	104	1048576	27	21856
2026-01-23 10:43:32.42	356.63	10.00	-32.6	-47.5	3.8	7.43e-01	0	42	104	1048576	27	20047
2026-01-23 10:43:33.42	356.52	9.92	-32.3	-46.9	3.8	7.43e-01	0	42	104	1048576	26	19283
2026-01-23 10:43:34.43	356.40	9.85	-32.2	-46.4	3.8	7.46e-01	0	42	104	1048576	26	18427
2026-01-23 10:43:35.44	356.29	9.77	-32.3	-46.6	3.8	7.40e-01	0	42	104	1048576	26	18754
2026-01-23 10:43:36.44	356.17	9.69	-32.3	-46.7	3.8	7.44e-01	0	42	104	1048576	26	18923
2026-01-23 10:43:37.45	356.06	9.62	-32.4	-47.1	3.8	7.41e-01	0	42	104	1048576	26	19670
2026-01-23 10:43:38.45	355.95	9.54	-32.5	-47.7	3.8	7.44e-01	0	42	104	1048576	26	20563
2026-01-23 10:43:39.46	355.83	9.46	-32.6	-48.2	3.8	7.47e-01	0	42	104	1048576	26	21627
2026-01-23 10:43:40.46	355.72	9.39	-32.7	-48.4	3.8	7.44e-01	0	42	104	1048576	26	21958
2026-01-23 10:43:41.46	355.61	9.31	-32.5	-47.7	3.8	7.45e-01	0	42	104	1048576	26	20649
2026-01-23 10:43:42.46	355.50	9.24	-32.3	-47.0	3.8	7.46e-01	0	42	104	1048576	26	19553
2026-01-23 10:43:43.47	355.39	9.16	-32.2	-46.5	3.8	7.41e-01	0	42	104	1048576	26	18685
2026-01-23 10:43:44.48	355.29	9.09	-32.0	-45.8	3.8	7.47e-01	0	42	104	1048576	26	17745
2026-01-23 10:43:45.48	355.18	9.01	-31.8	-45.8	3.8	7.42e-01	0	42	104	1048576	25	17993
2026-01-23 10:43:46.48	355.07	8.94	-31.7	-45.3	3.8	7.46e-01	0	42	104	1048576	25	17349
2026-01-23 10:43:47.49	354.96	8.86	-31.7	-45.4	3.8	7.47e-01	0	42	104	1048576	25	17418
2026-01-23 10:43:48.49	354.86	8.79	-32.0	-46.6	3.8	7.46e-01	0	42	104	1048576	25	19158
2026-01-23 10:43:49.50	354.75	8.71	-32.3	-47.6	3.8	7.48e-01	0	42	104	1048576	25	20845
2026-01-23 10:43:50.51	354.65	8.64	-32.5	-48.6	3.8	7.45e-01	0	42	104	1048576	25	22832
2026-01-23 10:43:51.51	354.54	8.57	-32.8	-49.1	3.8	7.48e-01	0	42	104	1048576	26	23585
2026-01-23 10:43:52.51	354.44	8.49	-32.9	-49.9	3.8	7.46e-01	0	42	104	1048576	26	25437
2026-01-23 10:43:53.52	354.33	8.42	-33.0	-50.3	3.8	7.48e-01	0	42	104	1048576	26	26401
2026-01-23 10:43:54.53	354.23	8.34	-33.0	-50.4	3.8	7.45e-01	0	42	104	1048576	26	26533
2026-01-23 10:43:55.53	354.13	8.27	-33.0	-50.4	3.8	7.45e-01	0	42	104	1048576	26	26748
2026-01-23 10:43:56.54	354.03	8.20	-33.0	-50.6	3.8	7.47e-01	0	42	104	1048576	26	27165
2026-01-23 10:43:57.55	353.93	8.12	-33.1	-50.9	3.8	7.45e-01	0	42	104	1048576	26	27953
2026-01-23 10:43:58.55	353.83	8.05	-33.1	-51.0	3.8	7.41e-01	0	42	104	1048576	26	28308
2026-01-23 10:43:59.56	353.73	7.98	-33.0	-50.9	3.8	7.48e-01	0	42	104	1048576	26	27968
2026-01-23 10:44:00.56	353.63	7.91	-32.9	-50.2	3.8	7.46e-01	0	42	104	1048576	26	26307
2026-01-23 10:44:01.56	353.53	7.83	-32.9	-49.7	3.8	7.42e-01	0	42	104	1048576	26	25126
2026-01-23 10:44:02.56	353.43	7.76	-32.7	-49.0	3.8	7.46e-01	0	42	104	1048576	26	23538
2026-01-23 10:44:03.56	353.33	7.69	-32.6	-48.3	3.8	7.42e-01	0	42	104	1048576	26	21975
2026-01-23 10:44:04.57	353.24	7.62	-32.4	-47.4	3.8	7.44e-01	0	42	104	1048576	26	20403
2026-01-23 10:44:05.57	353.14	7.55	-32.4	-47.6	3.8	7.45e-01	0	42	104	1048576	26	20760
2026-01-23 10:44:06.58	353.04	7.47	-32.5	-48.0	3.8	7.45e-01	0	42	104	1048576	26	21496
2026-01-23 10:44:07.59	352.95	7.40	-32.6	-48.6	3.8	7.47e-01	0	42	104	1048576	26	22749
2026-01-23 10:44:08.59	352.85	7.33	-32.7	-49.3	3.8	7.47e-01	0	42	104	1048576	26	24149
2026-01-23 10:44:09.60	352.76	7.26	-32.8	-49.7	3.8	7.42e-01	0	42	104	1048576	26	25249
2026-01-23 10:44:10.60	352.66	7.19	-32.8	-50.0	3.8	7.43e-01	0	42	104	1048576	26	25854
2026-01-23 10:44:11.61	352.57	7.12	-32.8	-49.9	3.8	7.43e-01	0	42	104	1048576	26	25582
2026-01-23 10:44:12.61	352.48	7.05	-33.3	-52.7	3.8	7.43e-01	0	42	104	1048576	27	33685
2026-01-23 10:44:13.61	352.39	6.98	-33.7	-53.0	3.8	7.41e-01	0	42	104	1048576	28	33176
2026-01-23 10:44:14.62	352.29	6.91	-34.0	-53.6	3.8	7.48e-01	0	42	104	1048576	28	34177

#Closed at: 2026-01-23 10:44:14
#Recorded file [1 MB]: D:/data/31010_260123_133512.dat