passes_logs/2026/01/23/R2M6_AANII_01/R2M6_AANII_01__20260123_115941_SUOMI_NPP_rec.log

#Pass ID: 20260123_115941_SUOMI NPP
#Satellite: SUOMI NPP
#Configuration: NPP
#almurnet v.1.7.20240730
#Start time: 2026-01-23 11:59:40

#Version: 2.2.20231116
#Station: R2M6_AANII_01
#Location: 30.233357 lon 59.946436 lat
#TLE: 1 37849U 11061A   26022.50498765  .00000208  00000+0  11976-3 0  9992
#TLE: 2 37849  98.7820 324.4892 0002275  50.8149 309.3229 14.19528284737775

#Time	Az	El	Level	Level2	SNR	BER	BlckErr	Temp	State	Recorded	gain1	gain2
2026-01-23 11:59:40.81	212.48	6.97	-30.7	-33.2	5.5	1.15e+00	0	40	0	0	22	4803
2026-01-23 11:59:41.80	212.57	7.03	-31.4	-35.7	5.1	1.21e+00	0	40	104	0	22	5900
2026-01-23 11:59:42.81	212.67	7.09	-31.5	-35.7	8.2	6.90e-02	0	40	0	0	23	5808
2026-01-23 11:59:43.81	212.76	7.16	-31.4	-35.1	8.7	3.95e-02	0	40	102	1048576	23	5543
2026-01-23 11:59:44.81	212.86	7.22	-31.5	-35.6	8.3	3.92e-02	0	40	102	1048576	23	5753
2026-01-23 11:59:45.82	212.95	7.28	-31.4	-35.0	8.8	4.58e-02	0	40	102	1048576	23	5484
2026-01-23 11:59:46.82	213.05	7.35	-31.2	-34.3	9.4	2.29e-02	0	40	102	1048576	23	5136
2026-01-23 11:59:47.82	213.14	7.41	-30.9	-33.3	10.1	9.83e-03	0	40	102	1048576	23	4742
2026-01-23 11:59:48.83	213.24	7.48	-30.8	-33.3	10.5	4.49e-03	0	41	102	1048576	22	4835
2026-01-23 11:59:49.83	213.34	7.54	-30.9	-33.9	10.1	3.47e-03	0	40	102	1048576	22	5042
2026-01-23 11:59:50.83	213.44	7.60	-30.8	-33.3	10.6	4.86e-03	0	40	102	1048576	22	4805
2026-01-23 11:59:51.84	213.54	7.67	-30.7	-32.9	10.9	2.62e-03	0	41	102	1048576	22	4676
2026-01-23 11:59:52.84	213.63	7.73	-30.6	-32.6	11.1	2.18e-03	0	41	102	1048576	22	4555
2026-01-23 11:59:53.84	213.73	7.80	-30.5	-32.5	11.3	1.46e-03	0	40	102	1048576	22	4496
2026-01-23 11:59:54.85	213.83	7.86	-30.5	-32.5	11.2	1.26e-03	0	41	102	1048576	22	4527
2026-01-23 11:59:55.85	213.93	7.93	-30.6	-32.6	11.2	1.40e-03	0	41	102	1048576	22	4533
2026-01-23 11:59:56.86	214.03	7.99	-30.8	-33.2	10.7	2.01e-03	0	41	102	1048576	22	4780
2026-01-23 11:59:57.86	214.14	8.06	-30.6	-32.7	11.1	2.34e-03	0	41	102	1048576	22	4571
2026-01-23 11:59:58.87	214.24	8.12	-30.4	-32.1	11.5	1.17e-03	0	41	102	1048576	22	4368
2026-01-23 11:59:59.87	214.34	8.19	-30.3	-32.1	11.9	7.00e-04	0	41	102	1048576	21	4453
2026-01-23 12:00:00.87	214.44	8.25	-30.4	-32.4	11.7	4.19e-04	0	41	102	1048576	21	4556
2026-01-23 12:00:01.88	214.54	8.32	-30.3	-32.2	11.9	5.05e-04	0	41	102	1048576	21	4464
2026-01-23 12:00:02.88	214.65	8.39	-30.3	-32.3	11.8	3.72e-04	0	41	102	1048576	21	4497
2026-01-23 12:00:03.89	214.75	8.45	-30.6	-33.0	11.3	4.11e-04	0	41	102	1048576	21	4757
2026-01-23 12:00:04.89	214.85	8.52	-30.4	-32.3	11.8	5.34e-04	0	41	102	1048576	21	4517
2026-01-23 12:00:05.90	214.96	8.58	-30.2	-31.9	12.1	3.02e-04	0	41	102	1048576	21	4372
2026-01-23 12:00:06.90	215.06	8.65	-30.3	-32.0	12.1	2.39e-04	0	41	102	1048576	21	4409
2026-01-23 12:00:07.91	215.17	8.72	-30.3	-32.1	12.0	3.42e-04	0	41	102	1048576	21	4436
2026-01-23 12:00:08.92	215.28	8.78	-30.4	-32.5	11.7	5.52e-04	0	41	102	1048576	21	4565
2026-01-23 12:00:09.92	215.38	8.85	-30.7	-33.2	11.2	1.02e-03	0	41	102	1048576	21	4843
2026-01-23 12:00:10.94	215.49	8.92	-30.6	-33.1	11.3	1.22e-03	0	41	102	1048576	21	4798
2026-01-23 12:00:11.94	215.60	8.98	-30.7	-33.4	11.1	1.33e-03	0	41	102	1048576	21	4883
2026-01-23 12:00:12.95	215.71	9.05	-30.7	-33.2	11.2	1.63e-03	0	41	102	1048576	21	4834
2026-01-23 12:00:13.96	215.82	9.12	-30.9	-34.0	10.7	2.66e-03	0	41	102	1048576	21	5139
2026-01-23 12:00:14.96	215.92	9.18	-30.8	-33.6	10.9	2.05e-03	0	41	102	1048576	21	4997
2026-01-23 12:00:15.97	216.03	9.25	-30.9	-34.1	10.6	2.11e-03	0	41	102	1048576	21	5180
2026-01-23 12:00:16.97	216.14	9.32	-30.7	-33.4	11.2	2.99e-03	0	41	102	1048576	21	4882
2026-01-23 12:00:17.98	216.25	9.38	-30.7	-33.4	11.2	1.32e-03	0	41	102	1048576	21	4891
2026-01-23 12:00:18.99	216.37	9.45	-30.6	-33.0	11.5	9.20e-04	0	41	102	1048576	21	4729
2026-01-23 12:00:19.99	216.48	9.52	-30.6	-32.9	11.5	8.70e-04	0	41	102	1048576	21	4710
2026-01-23 12:00:21.00	216.59	9.58	-30.6	-33.0	11.4	7.48e-04	0	41	102	1048576	21	4750
2026-01-23 12:00:22.00	216.70	9.65	-30.4	-32.5	11.8	5.48e-04	0	41	102	1048576	21	4557
2026-01-23 12:00:23.01	216.81	9.72	-30.5	-32.5	11.8	4.28e-04	0	41	102	1048576	21	4574
2026-01-23 12:00:24.01	216.93	9.79	-30.3	-32.2	12.0	2.92e-04	0	42	102	1048576	21	4440
2026-01-23 12:00:25.01	217.04	9.85	-30.3	-32.1	12.2	1.91e-04	0	41	102	1048576	21	4402
2026-01-23 12:00:26.01	217.15	9.92	-30.3	-32.2	12.1	2.35e-04	0	41	102	1048576	21	4440
2026-01-23 12:00:27.01	217.27	9.99	-30.3	-32.2	12.1	2.91e-04	0	42	102	1048576	21	4441
2026-01-23 12:00:28.02	217.38	10.06	-30.5	-32.5	11.8	4.32e-04	0	41	102	1048576	21	4562
2026-01-23 12:00:29.02	217.50	10.12	-30.5	-32.7	11.8	5.17e-04	0	42	102	1048576	21	4611
2026-01-23 12:00:30.03	217.62	10.19	-30.5	-32.5	11.9	4.56e-04	0	41	102	1048576	21	4563
2026-01-23 12:00:31.04	217.73	10.26	-30.4	-32.4	12.0	3.84e-04	0	42	102	1048576	21	4503
2026-01-23 12:00:32.04	217.85	10.33	-30.5	-32.5	11.9	3.43e-04	0	41	102	1048576	21	4552
2026-01-23 12:00:33.05	217.97	10.40	-30.4	-32.3	12.0	4.10e-04	0	42	102	1048576	21	4490
2026-01-23 12:00:34.05	218.09	10.47	-30.4	-32.3	12.0	2.80e-04	0	41	102	1048576	21	4498
2026-01-23 12:00:35.06	218.21	10.53	-30.7	-33.1	11.4	5.73e-04	0	42	102	1048576	21	4782
2026-01-23 12:00:36.06	218.33	10.60	-30.5	-32.7	11.8	4.77e-04	0	42	102	1048576	21	4624
2026-01-23 12:00:37.07	218.45	10.67	-30.7	-33.1	11.5	5.83e-04	0	42	102	1048576	21	4768
2026-01-23 12:00:38.07	218.57	10.74	-30.5	-32.6	11.8	6.22e-04	0	42	102	1048576	21	4597
2026-01-23 12:00:39.08	218.69	10.81	-30.4	-32.2	12.1	3.61e-04	0	42	102	1048576	21	4458
2026-01-23 12:00:40.08	218.81	10.88	-30.3	-31.9	12.3	2.46e-04	0	42	102	1048576	21	4354
2026-01-23 12:00:41.09	218.93	10.95	-30.2	-31.8	12.4	1.27e-04	0	42	102	1048576	21	4305
2026-01-23 12:00:42.10	219.06	11.02	-30.3	-32.0	12.2	1.46e-04	0	42	102	1048576	21	4384
2026-01-23 12:00:43.10	219.18	11.09	-30.3	-32.0	12.4	2.03e-04	0	42	102	1048576	21	4356
2026-01-23 12:00:44.10	219.30	11.15	-30.5	-32.5	11.8	2.84e-04	0	42	102	1048576	21	4559
2026-01-23 12:00:45.11	219.43	11.22	-30.4	-32.1	12.2	2.75e-04	0	42	102	1048576	21	4412
2026-01-23 12:00:46.11	219.55	11.29	-30.2	-31.6	12.6	1.20e-04	0	42	102	1048576	21	4255
2026-01-23 12:00:47.11	219.68	11.36	-30.2	-31.6	12.6	9.38e-05	0	42	102	1048576	21	4252
2026-01-23 12:00:48.12	219.80	11.43	-30.3	-31.8	12.4	1.34e-04	0	42	102	1048576	21	4318
2026-01-23 12:00:49.12	219.93	11.50	-30.3	-31.8	12.4	1.17e-04	0	42	102	1048576	21	4321
2026-01-23 12:00:50.12	220.06	11.57	-30.4	-32.2	12.2	1.43e-04	0	42	102	1048576	21	4449
2026-01-23 12:00:51.12	220.18	11.64	-30.5	-32.4	12.1	1.79e-04	0	42	102	1048576	21	4494
2026-01-23 12:00:52.12	220.31	11.71	-30.5	-32.5	12.0	2.66e-04	0	42	102	1048576	21	4547
2026-01-23 12:00:53.12	220.44	11.78	-30.5	-32.5	12.0	2.24e-04	0	42	102	1048576	21	4536
2026-01-23 12:00:54.12	220.57	11.85	-30.5	-32.4	12.1	3.46e-04	0	42	102	1048576	21	4505
2026-01-23 12:00:55.12	220.70	11.92	-30.5	-32.6	11.9	3.23e-04	0	42	102	1048576	21	4574
2026-01-23 12:00:56.13	220.83	11.99	-30.7	-33.0	11.7	4.38e-04	0	42	102	1048576	21	4718
2026-01-23 12:00:57.14	220.96	12.06	-30.5	-32.5	12.1	4.13e-04	0	42	102	1048576	21	4519
2026-01-23 12:00:58.15	221.10	12.13	-30.6	-33.0	11.7	5.52e-04	0	42	102	1048576	21	4699
2026-01-23 12:00:59.15	221.23	12.20	-30.5	-32.5	12.1	3.32e-04	0	42	102	1048576	21	4518
2026-01-23 12:01:00.16	221.36	12.27	-30.4	-32.1	12.3	2.55e-04	0	42	102	1048576	21	4377
2026-01-23 12:01:01.17	221.50	12.34	-30.4	-32.1	12.4	1.61e-04	0	42	102	1048576	21	4378
2026-01-23 12:01:02.18	221.63	12.41	-30.4	-32.2	12.3	1.38e-04	0	42	102	1048576	21	4437
2026-01-23 12:01:03.18	221.77	12.48	-30.5	-32.5	12.1	2.90e-04	0	42	102	1048576	21	4529
2026-01-23 12:01:04.18	221.90	12.55	-30.3	-31.9	12.5	1.56e-04	0	42	102	1048576	21	4335
2026-01-23 12:01:05.19	222.04	12.62	-30.3	-31.9	12.5	9.46e-05	0	42	102	1048576	21	4337
2026-01-23 12:01:06.20	222.18	12.69	-30.4	-32.1	12.4	1.24e-04	0	42	102	1048576	21	4374
2026-01-23 12:01:07.20	222.31	12.76	-30.2	-31.6	12.7	6.56e-05	0	42	102	1048576	21	4239
2026-01-23 12:01:08.21	222.45	12.84	-30.0	-31.1	13.1	2.82e-05	0	42	102	1048576	21	4076
2026-01-23 12:01:09.21	222.59	12.91	-30.1	-31.2	13.0	3.12e-05	0	42	102	1048576	21	4099
2026-01-23 12:01:10.22	222.73	12.98	-30.1	-31.2	13.1	2.36e-05	0	42	102	1048576	21	4093
2026-01-23 12:01:11.22	222.87	13.05	-29.8	-30.5	13.5	1.60e-05	0	42	102	1048576	21	3886
2026-01-23 12:01:12.22	223.01	13.12	-29.7	-30.7	13.7	6.80e-06	0	42	102	1048576	20	4036
2026-01-23 12:01:13.22	223.15	13.19	-29.7	-30.6	13.7	6.80e-06	0	42	102	1048576	20	4022
2026-01-23 12:01:14.23	223.30	13.26	-29.7	-30.6	13.7	4.50e-06	0	42	102	1048576	20	4003
2026-01-23 12:01:15.23	223.44	13.33	-29.6	-30.5	13.8	6.80e-06	0	42	102	1048576	20	3972
2026-01-23 12:01:16.24	223.58	13.40	-29.6	-30.5	13.8	2.20e-06	0	42	102	1048576	20	3974
2026-01-23 12:01:17.24	223.73	13.47	-29.5	-30.2	14.0	2.20e-06	0	42	102	1048576	20	3885
2026-01-23 12:01:18.25	223.87	13.55	-29.6	-30.4	13.9	4.50e-06	0	42	102	1048576	20	3963
2026-01-23 12:01:19.26	224.02	13.62	-29.7	-30.6	13.7	2.20e-06	0	42	102	1048576	20	4007
2026-01-23 12:01:20.26	224.16	13.69	-29.5	-30.2	14.0	1.50e-06	0	42	102	1048576	20	3907
2026-01-23 12:01:21.26	224.31	13.76	-29.7	-30.7	13.7	3.80e-06	0	42	102	1048576	20	4030
2026-01-23 12:01:22.27	224.46	13.83	-29.7	-30.6	13.8	4.50e-06	0	42	102	1048576	20	3994
2026-01-23 12:01:23.27	224.61	13.90	-29.6	-30.5	13.8	3.80e-06	0	42	102	1048576	20	3967
2026-01-23 12:01:24.28	224.76	13.97	-29.8	-30.8	13.7	4.50e-06	0	42	102	1048576	20	4072
2026-01-23 12:01:25.29	224.91	14.05	-29.8	-31.0	13.5	5.30e-06	0	42	102	1048576	20	4126
2026-01-23 12:01:26.29	225.06	14.12	-29.8	-30.9	13.6	4.50e-06	0	42	102	1048576	20	4107
2026-01-23 12:01:27.30	225.21	14.19	-29.9	-31.2	13.4	1.22e-05	0	42	102	1048576	20	4186
2026-01-23 12:01:28.30	225.36	14.26	-30.0	-31.4	13.3	2.28e-05	0	42	102	1048576	20	4261
2026-01-23 12:01:29.31	225.51	14.33	-30.0	-31.5	13.2	1.83e-05	0	42	102	1048576	20	4287
2026-01-23 12:01:30.31	225.67	14.40	-30.1	-31.7	13.1	3.89e-05	0	42	102	1048576	20	4340
2026-01-23 12:01:31.31	225.82	14.48	-30.3	-32.3	12.7	6.94e-05	0	42	102	1048576	20	4549
2026-01-23 12:01:32.32	225.98	14.55	-30.2	-32.0	13.0	6.94e-05	0	42	102	1048576	20	4418
2026-01-23 12:01:33.32	226.13	14.62	-30.2	-32.1	12.9	5.56e-05	0	42	102	1048576	20	4463
2026-01-23 12:01:34.32	226.29	14.69	-30.2	-32.2	12.8	6.79e-05	0	42	102	1048576	20	4484
2026-01-23 12:01:35.33	226.44	14.76	-30.2	-32.0	12.9	4.34e-05	0	42	102	1048576	20	4434
2026-01-23 12:01:36.33	226.60	14.83	-30.1	-31.8	13.0	5.41e-05	0	42	102	1048576	20	4362
2026-01-23 12:01:37.34	226.76	14.91	-30.2	-31.9	13.0	3.89e-05	0	42	102	1048576	20	4398
2026-01-23 12:01:38.34	226.92	14.98	-30.2	-31.9	13.0	2.97e-05	0	42	102	1048576	20	4388
2026-01-23 12:01:39.34	227.08	15.05	-30.0	-31.5	13.3	2.36e-05	0	42	102	1048576	20	4259
2026-01-23 12:01:40.35	227.24	15.12	-30.2	-32.1	12.9	2.97e-05	0	42	102	1048576	20	4465
2026-01-23 12:01:41.35	227.40	15.19	-30.2	-31.9	13.0	4.50e-05	0	42	102	1048576	20	4405
2026-01-23 12:01:42.35	227.56	15.26	-29.9	-31.2	13.4	2.36e-05	0	42	102	1048576	20	4179
2026-01-23 12:01:43.35	227.72	15.34	-29.8	-30.8	13.8	4.50e-06	0	42	102	1048576	20	4049
2026-01-23 12:01:44.35	227.89	15.41	-29.5	-30.2	14.1	7.00e-07	0	42	102	1048576	20	3891
2026-01-23 12:01:45.36	228.05	15.48	-29.5	-30.1	14.2	2.20e-06	0	42	102	1048576	20	3844
2026-01-23 12:01:46.36	228.22	15.55	-29.6	-30.2	14.2	2.20e-06	0	42	102	1048576	20	3891
2026-01-23 12:01:47.36	228.38	15.62	-29.7	-30.5	14.0	1.50e-06	0	42	102	1048576	20	3952
2026-01-23 12:01:48.36	228.55	15.69	-29.4	-29.9	14.4	2.20e-06	0	42	102	1048576	20	3801
2026-01-23 12:01:49.36	228.71	15.76	-29.4	-29.7	14.5	7.00e-07	0	42	102	1048576	20	3758
2026-01-23 12:01:50.37	228.88	15.84	-29.3	-30.1	14.6	0.00e+00	0	43	102	1048576	19	3938
2026-01-23 12:01:51.38	229.05	15.91	-29.4	-30.2	14.6	0.00e+00	0	42	102	1048576	19	3967
2026-01-23 12:01:52.39	229.22	15.98	-29.2	-29.8	14.8	0.00e+00	0	42	102	1048576	19	3846
2026-01-23 12:01:53.39	229.39	16.05	-29.4	-30.3	14.5	0.00e+00	0	42	102	1048576	19	4001
2026-01-23 12:01:54.39	229.56	16.12	-29.6	-30.7	14.2	7.00e-07	0	42	102	1048576	19	4103
2026-01-23 12:01:55.39	229.74	16.19	-29.3	-30.1	14.6	0.00e+00	0	42	102	1048576	19	3942
2026-01-23 12:01:56.39	229.91	16.27	-29.5	-30.5	14.4	7.00e-07	0	42	102	1048576	19	4030
2026-01-23 12:01:57.40	230.08	16.34	-29.7	-30.9	14.2	7.00e-07	0	42	102	1048576	19	4165
2026-01-23 12:01:58.41	230.26	16.41	-29.8	-31.3	13.9	3.00e-06	0	43	102	1048576	19	4284
2026-01-23 12:01:59.42	230.44	16.48	-29.9	-31.6	13.7	1.50e-06	0	42	102	1048576	19	4381
2026-01-23 12:02:00.42	230.61	16.55	-30.0	-31.5	13.4	9.10e-06	0	42	102	1048576	20	4255
2026-01-23 12:02:01.42	230.79	16.62	-29.9	-31.2	13.6	9.90e-06	0	42	102	1048576	20	4174
2026-01-23 12:02:02.42	230.96	16.69	-29.9	-31.1	13.7	7.60e-06	0	42	102	1048576	20	4132
2026-01-23 12:02:03.42	231.14	16.77	-29.9	-31.0	13.8	3.80e-06	0	42	102	1048576	20	4100
2026-01-23 12:02:04.42	231.32	16.84	-29.8	-30.9	13.8	3.80e-06	0	42	102	1048576	20	4071
2026-01-23 12:02:05.43	231.50	16.91	-29.9	-31.1	13.7	9.10e-06	0	43	102	1048576	20	4123
2026-01-23 12:02:06.43	231.68	16.98	-29.9	-31.1	13.7	3.80e-06	0	42	102	1048576	20	4132
2026-01-23 12:02:07.43	231.86	17.05	-29.9	-31.1	13.6	1.14e-05	0	43	102	1048576	20	4143
2026-01-23 12:02:08.43	232.05	17.12	-29.9	-31.0	13.8	1.14e-05	0	42	102	1048576	20	4102
2026-01-23 12:02:09.44	232.23	17.19	-29.8	-30.7	14.0	3.80e-06	0	42	102	1048576	20	4012
2026-01-23 12:02:10.43	232.41	17.26	-29.6	-30.2	14.3	1.50e-06	0	42	102	1048576	20	3882
2026-01-23 12:02:11.43	232.60	17.33	-29.6	-30.2	14.2	1.50e-06	0	42	102	1048576	20	3882
2026-01-23 12:02:12.44	232.78	17.40	-29.5	-30.1	14.4	7.00e-07	0	42	102	1048576	20	3843
2026-01-23 12:02:13.44	232.97	17.47	-29.3	-30.1	14.7	7.00e-07	0	42	102	1048576	19	3929
2026-01-23 12:02:14.44	233.16	17.54	-29.3	-29.9	14.8	7.00e-07	0	42	102	1048576	19	3878
2026-01-23 12:02:15.45	233.35	17.61	-29.3	-30.0	14.8	0.00e+00	0	42	102	1048576	19	3906
2026-01-23 12:02:16.45	233.54	17.68	-29.2	-29.8	14.9	0.00e+00	0	42	102	1048576	19	3847
2026-01-23 12:02:17.46	233.73	17.75	-29.1	-29.5	15.1	7.00e-07	0	43	102	1048576	19	3777
2026-01-23 12:02:18.45	233.92	17.82	-29.1	-29.5	15.1	0.00e+00	0	42	102	1048576	19	3755
2026-01-23 12:02:19.46	234.11	17.89	-29.1	-29.4	15.2	0.00e+00	0	43	102	1048576	19	3730
2026-01-23 12:02:20.46	234.30	17.96	-28.9	-29.0	15.4	0.00e+00	0	42	102	1048576	19	3634
2026-01-23 12:02:21.46	234.49	18.03	-28.9	-29.0	15.4	0.00e+00	0	42	102	1048576	19	3652
2026-01-23 12:02:22.46	234.69	18.10	-29.0	-29.2	15.3	0.00e+00	0	43	102	1048576	19	3689
2026-01-23 12:02:23.47	234.89	18.17	-29.0	-29.3	15.2	0.00e+00	0	43	102	1048576	19	3715
2026-01-23 12:02:24.48	235.08	18.24	-29.1	-29.5	15.1	0.00e+00	0	43	102	1048576	19	3755
2026-01-23 12:02:25.48	235.28	18.31	-29.2	-29.7	15.0	0.00e+00	0	42	102	1048576	19	3810
2026-01-23 12:02:26.49	235.48	18.38	-29.2	-29.7	15.0	0.00e+00	0	42	102	1048576	19	3821
2026-01-23 12:02:27.50	235.68	18.45	-29.3	-30.0	14.8	0.00e+00	0	42	102	1048576	19	3891
2026-01-23 12:02:28.50	235.88	18.52	-29.3	-29.9	14.9	7.00e-07	0	42	102	1048576	19	3867
2026-01-23 12:02:29.51	236.08	18.59	-29.2	-29.8	15.0	0.00e+00	0	42	102	1048576	19	3832
2026-01-23 12:02:30.51	236.28	18.65	-29.1	-29.4	15.2	0.00e+00	0	43	102	1048576	19	3744
2026-01-23 12:02:31.51	236.48	18.72	-29.3	-29.9	14.9	0.00e+00	0	43	102	1048576	19	3877
2026-01-23 12:02:32.51	236.69	18.79	-29.3	-29.9	14.9	1.50e-06	0	42	102	1048576	19	3883
2026-01-23 12:02:33.52	236.89	18.86	-29.3	-30.1	14.8	0.00e+00	0	43	102	1048576	19	3912
2026-01-23 12:02:34.52	237.10	18.93	-29.5	-30.4	14.6	0.00e+00	0	43	102	1048576	19	3997
2026-01-23 12:02:35.52	237.30	18.99	-29.5	-30.4	14.6	7.00e-07	0	43	102	1048576	19	4011
2026-01-23 12:02:36.52	237.51	19.06	-29.6	-30.8	14.4	3.00e-06	0	43	102	1048576	19	4106
2026-01-23 12:02:37.53	237.72	19.13	-29.4	-30.1	14.8	0.00e+00	0	43	102	1048576	19	3937
2026-01-23 12:02:38.53	237.92	19.19	-29.3	-30.0	14.9	0.00e+00	0	43	102	1048576	19	3892
2026-01-23 12:02:39.54	238.14	19.26	-29.3	-29.9	14.9	3.80e-06	0	43	102	1048576	19	3866
2026-01-23 12:02:40.54	238.34	19.33	-29.5	-30.5	14.5	0.00e+00	0	43	102	1048576	19	4038
2026-01-23 12:02:41.55	238.56	19.39	-29.4	-30.3	14.7	0.00e+00	0	43	102	1048576	19	3985
2026-01-23 12:02:42.56	238.77	19.46	-29.5	-30.5	14.5	7.00e-07	0	42	102	1048576	19	4033
2026-01-23 12:02:43.55	238.98	19.53	-29.5	-30.5	14.5	0.00e+00	0	43	102	1048576	19	4042
2026-01-23 12:02:44.56	239.20	19.59	-29.5	-30.4	14.7	0.00e+00	0	43	102	1048576	19	3991
2026-01-23 12:02:45.56	239.41	19.66	-29.4	-30.1	14.8	1.50e-06	0	43	102	1048576	19	3927
2026-01-23 12:02:46.57	239.63	19.72	-29.4	-30.1	14.9	0.00e+00	0	43	102	1048576	19	3914
2026-01-23 12:02:47.57	239.84	19.79	-29.3	-29.9	15.0	0.00e+00	0	43	102	1048576	19	3857
2026-01-23 12:02:48.58	240.06	19.85	-29.2	-29.7	15.1	0.00e+00	0	43	102	1048576	19	3809
2026-01-23 12:02:49.58	240.28	19.92	-29.4	-30.2	14.8	0.00e+00	0	43	102	1048576	19	3945
2026-01-23 12:02:50.58	240.50	19.98	-29.4	-30.1	14.8	0.00e+00	0	43	102	1048576	19	3925
2026-01-23 12:02:51.58	240.72	20.05	-29.6	-30.8	14.4	0.00e+00	0	43	102	1048576	19	4104
2026-01-23 12:02:52.59	240.94	20.11	-29.7	-30.9	14.3	1.50e-06	0	43	102	1048576	19	4145
2026-01-23 12:02:53.59	241.16	20.17	-29.9	-31.6	14.0	1.50e-06	0	43	102	1048576	19	4347
2026-01-23 12:02:54.59	241.39	20.24	-29.9	-31.1	13.8	3.00e-06	0	43	102	1048576	20	4125
2026-01-23 12:02:55.58	241.61	20.30	-29.8	-30.8	14.0	1.50e-06	0	42	102	1048576	20	4021
2026-01-23 12:02:56.59	241.83	20.36	-29.7	-30.6	14.2	3.80e-06	0	43	102	1048576	20	3975
2026-01-23 12:02:57.60	242.06	20.43	-29.7	-30.5	14.3	2.20e-06	0	43	102	1048576	20	3941
2026-01-23 12:02:58.61	242.29	20.49	-29.7	-30.5	14.2	7.00e-07	0	43	102	1048576	20	3957
2026-01-23 12:02:59.61	242.51	20.55	-29.8	-30.9	14.0	0.00e+00	0	43	102	1048576	20	4051
2026-01-23 12:03:00.62	242.74	20.61	-30.0	-31.3	13.7	4.50e-06	0	43	102	1048576	20	4194
2026-01-23 12:03:01.61	242.97	20.67	-30.2	-31.7	13.5	7.60e-06	0	42	102	1048576	20	4301
2026-01-23 12:03:02.62	243.20	20.73	-30.1	-31.6	13.5	1.60e-05	0	43	102	1048576	20	4265
2026-01-23 12:03:03.62	243.43	20.79	-29.9	-31.0	13.9	3.80e-06	0	43	102	1048576	20	4082
2026-01-23 12:03:04.62	243.66	20.85	-29.7	-30.5	14.2	1.50e-06	0	42	102	1048576	20	3939
2026-01-23 12:03:05.62	243.90	20.91	-29.5	-30.1	14.5	7.00e-07	0	43	102	1048576	20	3824
2026-01-23 12:03:06.63	244.13	20.97	-29.5	-30.0	14.6	7.00e-07	0	43	102	1048576	20	3799
2026-01-23 12:03:07.63	244.36	21.03	-29.8	-30.8	14.1	0.00e+00	0	43	102	1048576	20	4017
2026-01-23 12:03:08.64	244.60	21.09	-30.2	-31.7	13.5	3.80e-06	0	43	102	1048576	20	4305
2026-01-23 12:03:09.65	244.84	21.15	-30.4	-31.9	13.1	4.11e-05	0	43	102	1048576	21	4260
2026-01-23 12:03:10.65	245.08	21.21	-30.7	-32.6	12.6	7.93e-05	0	43	102	1048576	21	4493
2026-01-23 12:03:11.66	245.32	21.27	-30.6	-32.4	12.7	7.55e-05	0	42	102	1048576	21	4425
2026-01-23 12:03:12.67	245.56	21.33	-30.5	-32.1	12.9	4.65e-05	0	43	102	1048576	21	4345
2026-01-23 12:03:13.67	245.79	21.38	-30.5	-32.0	13.0	3.58e-05	0	43	102	1048576	21	4304
2026-01-23 12:03:14.68	246.04	21.44	-30.4	-31.9	13.1	2.51e-05	0	43	102	1048576	21	4264
2026-01-23 12:03:15.68	246.28	21.50	-30.3	-31.4	13.4	3.89e-05	0	43	102	1048576	21	4127
2026-01-23 12:03:16.68	246.52	21.55	-30.2	-31.3	13.4	1.37e-05	0	43	102	1048576	21	4083
2026-01-23 12:03:17.69	246.76	21.61	-30.3	-31.5	13.3	2.05e-05	0	43	102	1048576	21	4164
2026-01-23 12:03:18.70	247.01	21.67	-30.3	-31.5	13.3	2.51e-05	0	43	102	1048576	21	4158
2026-01-23 12:03:19.70	247.25	21.72	-30.2	-31.2	13.5	9.10e-06	0	43	102	1048576	21	4054
2026-01-23 12:03:20.70	247.50	21.77	-30.1	-30.9	13.7	3.00e-06	0	43	102	1048576	21	3980
2026-01-23 12:03:21.71	247.75	21.83	-30.2	-31.4	13.4	9.90e-06	0	43	102	1048576	21	4112
2026-01-23 12:03:22.71	247.99	21.88	-30.4	-31.7	13.2	2.21e-05	0	43	102	1048576	21	4198
2026-01-23 12:03:23.72	248.24	21.94	-30.7	-32.7	12.6	3.28e-05	0	43	102	1048576	21	4521
2026-01-23 12:03:24.71	248.49	21.99	-30.7	-32.8	12.5	1.72e-04	0	43	102	1048576	21	4548
2026-01-23 12:03:25.71	248.74	22.04	-30.5	-32.1	13.0	7.17e-05	0	43	102	1048576	21	4316
2026-01-23 12:03:26.71	248.99	22.09	-30.0	-30.8	13.8	7.60e-06	0	43	102	1048576	21	3926
2026-01-23 12:03:27.72	249.24	22.14	-29.7	-30.4	14.4	3.00e-06	0	43	102	1048576	20	3916
2026-01-23 12:03:28.72	249.49	22.20	-29.3	-29.5	14.9	7.00e-07	0	43	102	1048576	20	3681
2026-01-23 12:03:29.73	249.75	22.25	-29.3	-29.8	15.1	0.00e+00	0	43	102	1048576	19	3846
2026-01-23 12:03:30.74	250.00	22.30	-29.5	-30.4	14.8	0.00e+00	0	43	102	1048576	19	3980
2026-01-23 12:03:31.75	250.26	22.35	-29.5	-30.4	14.8	0.00e+00	0	43	102	1048576	19	3998
2026-01-23 12:03:32.75	250.51	22.40	-29.7	-30.8	14.5	1.50e-06	0	43	102	1048576	19	4109
2026-01-23 12:03:33.76	250.77	22.44	-29.7	-31.0	14.4	7.00e-07	0	43	102	1048576	19	4165
2026-01-23 12:03:34.76	251.03	22.49	-29.9	-31.5	14.1	2.20e-06	0	43	102	1048576	19	4309
2026-01-23 12:03:35.77	251.29	22.54	-30.1	-31.6	13.6	3.00e-06	0	43	102	1048576	20	4258
2026-01-23 12:03:36.77	251.55	22.59	-30.7	-32.6	12.7	4.80e-05	0	43	102	1048576	21	4471
2026-01-23 12:03:37.77	251.80	22.63	-30.9	-33.2	12.2	1.23e-04	0	43	102	1048576	21	4679
2026-01-23 12:03:38.77	252.06	22.68	-31.0	-33.0	12.2	2.68e-04	0	43	102	1048576	22	4517
2026-01-23 12:03:39.78	252.33	22.73	-30.7	-32.2	12.6	1.23e-04	0	43	102	1048576	22	4270
2026-01-23 12:03:40.79	252.59	22.77	-30.6	-31.9	12.9	5.11e-05	0	43	102	1048576	22	4156
2026-01-23 12:03:41.79	252.85	22.82	-30.4	-31.3	13.1	3.28e-05	0	43	102	1048576	22	4005
2026-01-23 12:03:42.79	253.11	22.86	-30.6	-31.8	12.9	5.95e-05	0	43	102	1048576	22	4150
2026-01-23 12:03:43.79	253.38	22.90	-30.6	-31.7	12.9	4.73e-05	0	43	102	1048576	22	4109
2026-01-23 12:03:44.79	253.64	22.95	-31.0	-32.9	12.2	7.78e-05	0	43	102	1048576	22	4481
2026-01-23 12:03:45.80	253.91	22.99	-31.2	-33.4	11.8	4.58e-04	0	43	102	1048576	22	4672
2026-01-23 12:03:46.80	254.17	23.03	-31.4	-34.1	11.4	7.99e-04	0	43	102	1048576	22	4930
2026-01-23 12:03:47.81	254.44	23.07	-31.2	-33.2	11.6	1.21e-03	0	43	102	1048576	23	4502
2026-01-23 12:03:48.81	254.71	23.11	-30.9	-32.3	12.2	3.57e-04	0	43	102	1048576	23	4200
2026-01-23 12:03:49.81	254.97	23.15	-30.8	-32.3	12.6	1.30e-04	0	43	102	1048576	22	4283
2026-01-23 12:03:50.82	255.24	23.19	-30.8	-32.4	12.6	8.39e-05	0	43	102	1048576	22	4313
2026-01-23 12:03:51.83	255.52	23.23	-31.0	-32.9	12.2	1.56e-04	0	43	102	1048576	22	4477
2026-01-23 12:03:52.84	255.79	23.27	-30.9	-32.6	12.3	1.54e-04	0	43	102	1048576	22	4409
2026-01-23 12:03:53.83	256.05	23.31	-30.7	-32.1	12.7	1.01e-04	0	43	102	1048576	22	4237
2026-01-23 12:03:54.83	256.32	23.34	-30.6	-31.7	13.0	5.72e-05	0	43	102	1048576	22	4106
2026-01-23 12:03:55.84	256.60	23.38	-30.3	-31.0	13.4	2.36e-05	0	43	102	1048576	22	3901
2026-01-23 12:03:56.84	256.87	23.42	-30.4	-31.7	13.3	2.13e-05	0	43	102	1048576	21	4179
2026-01-23 12:03:57.84	257.14	23.45	-30.7	-32.6	12.7	3.05e-05	0	43	102	1048576	21	4496
2026-01-23 12:03:58.85	257.42	23.49	-31.1	-33.2	12.0	1.29e-04	0	43	102	1048576	22	4585
2026-01-23 12:03:59.85	257.69	23.52	-31.5	-34.5	11.1	1.24e-03	0	43	102	1048576	22	5070
2026-01-23 12:04:00.86	257.97	23.56	-31.7	-34.6	10.6	3.94e-03	0	43	102	1048576	23	5018
2026-01-23 12:04:01.86	258.24	23.59	-31.7	-34.6	10.5	3.55e-03	0	43	102	1048576	23	5037
2026-01-23 12:04:02.87	258.52	23.62	-31.6	-34.4	10.7	3.73e-03	0	43	102	1048576	23	4937
2026-01-23 12:04:03.88	258.80	23.65	-31.5	-33.9	11.1	2.11e-03	0	43	102	1048576	23	4764
2026-01-23 12:04:04.88	259.07	23.68	-31.5	-34.0	11.1	1.74e-03	0	43	102	1048576	23	4798
2026-01-23 12:04:05.89	259.35	23.71	-31.5	-33.9	11.1	1.53e-03	0	43	102	1048576	23	4742
2026-01-23 12:04:06.89	259.63	23.74	-31.7	-34.6	10.6	2.85e-03	0	43	102	1048576	23	5052
2026-01-23 12:04:07.90	259.91	23.77	-31.6	-34.4	10.8	3.42e-03	0	43	102	1048576	23	4938
2026-01-23 12:04:08.90	260.19	23.80	-31.7	-34.8	10.5	3.92e-03	0	43	102	1048576	23	5094
2026-01-23 12:04:09.91	260.47	23.83	-31.6	-34.2	11.0	2.24e-03	0	43	102	1048576	23	4866
2026-01-23 12:04:10.91	260.75	23.86	-31.8	-34.9	10.4	3.35e-03	0	43	102	1048576	23	5170
2026-01-23 12:04:11.91	261.03	23.88	-31.7	-34.6	10.6	4.44e-03	0	43	102	1048576	23	5027
2026-01-23 12:04:12.91	261.31	23.91	-31.5	-34.0	11.1	1.75e-03	0	43	102	1048576	23	4779
2026-01-23 12:04:13.91	261.59	23.93	-31.3	-33.4	11.4	1.24e-03	0	43	102	1048576	23	4589
2026-01-23 12:04:14.90	261.87	23.96	-31.3	-33.3	11.6	7.38e-04	0	43	102	1048576	23	4523
2026-01-23 12:04:15.90	262.15	23.98	-31.5	-34.0	11.1	9.29e-04	0	43	102	1048576	23	4800
2026-01-23 12:04:16.90	262.43	24.00	-31.5	-34.1	11.0	1.89e-03	0	43	102	1048576	23	4815
2026-01-23 12:04:17.90	262.71	24.02	-31.7	-34.5	10.7	2.49e-03	0	43	102	1048576	23	4982
2026-01-23 12:04:18.90	262.99	24.05	-31.5	-33.9	11.2	2.29e-03	0	43	102	1048576	23	4748
2026-01-23 12:04:19.91	263.28	24.07	-31.2	-33.1	11.7	1.36e-03	0	43	102	1048576	23	4478
2026-01-23 12:04:20.91	263.56	24.09	-30.9	-32.3	12.3	2.35e-04	0	43	102	1048576	23	4188
2026-01-23 12:04:21.92	263.85	24.11	-30.8	-32.2	12.7	1.21e-04	0	43	102	1048576	22	4251
2026-01-23 12:04:22.92	264.13	24.12	-30.5	-31.6	13.1	3.50e-05	0	43	102	1048576	22	4056
2026-01-23 12:04:23.93	264.42	24.14	-30.4	-31.2	13.4	1.37e-05	0	43	102	1048576	22	3939
2026-01-23 12:04:24.94	264.71	24.16	-30.1	-30.8	13.9	4.50e-06	0	43	102	1048576	21	3935
2026-01-23 12:04:25.94	264.99	24.18	-30.0	-30.7	14.0	7.00e-07	0	43	102	1048576	21	3900
2026-01-23 12:04:26.95	265.28	24.19	-30.0	-30.6	14.0	3.00e-06	0	43	102	1048576	21	3867
2026-01-23 12:04:27.95	265.57	24.21	-30.1	-30.8	13.9	2.20e-06	0	43	102	1048576	21	3923
2026-01-23 12:04:28.94	265.85	24.22	-30.1	-31.0	13.8	3.80e-06	0	43	102	1048576	21	3969
2026-01-23 12:04:29.95	266.14	24.23	-30.5	-32.0	13.2	8.30e-06	0	43	102	1048576	21	4286
2026-01-23 12:04:30.95	266.42	24.25	-30.7	-32.7	12.7	6.25e-05	0	43	102	1048576	21	4507
2026-01-23 12:04:31.95	266.71	24.26	-31.0	-32.9	12.2	2.01e-04	0	43	102	1048576	22	4493
2026-01-23 12:04:32.95	267.00	24.27	-30.9	-32.6	12.5	2.30e-04	0	43	102	1048576	22	4375
2026-01-23 12:04:33.96	267.28	24.28	-30.6	-31.7	13.0	5.49e-05	0	43	102	1048576	22	4081
2026-01-23 12:04:34.96	267.57	24.29	-30.4	-31.1	13.3	2.05e-05	0	43	102	1048576	22	3932
2026-01-23 12:04:35.96	267.86	24.30	-30.4	-31.2	13.4	1.44e-05	0	43	102	1048576	22	3942
2026-01-23 12:04:36.96	268.15	24.31	-30.7	-32.0	12.8	4.19e-05	0	43	102	1048576	22	4183
2026-01-23 12:04:37.97	268.44	24.32	-30.8	-32.3	12.6	9.23e-05	0	43	102	1048576	22	4305
2026-01-23 12:04:38.98	268.73	24.32	-31.1	-33.2	12.1	1.78e-04	0	43	102	1048576	22	4570
2026-01-23 12:04:39.98	269.01	24.33	-30.8	-32.4	12.6	2.05e-04	0	43	102	1048576	22	4312
2026-01-23 12:04:40.98	269.30	24.33	-30.5	-31.6	13.1	5.11e-05	0	43	102	1048576	22	4064
2026-01-23 12:04:41.98	269.59	24.34	-30.4	-31.3	13.3	1.90e-05	0	43	102	1048576	22	3990
2026-01-23 12:04:42.99	269.88	24.34	-30.5	-31.5	13.2	2.51e-05	0	43	102	1048576	22	4043
2026-01-23 12:04:43.99	270.17	24.35	-30.7	-32.0	12.9	5.95e-05	0	43	102	1048576	22	4180
2026-01-23 12:04:44.99	270.45	24.35	-30.7	-32.0	12.8	5.56e-05	0	43	102	1048576	22	4191
2026-01-23 12:04:46.00	270.75	24.35	-30.4	-31.1	13.4	2.67e-05	0	43	102	1048576	22	3928
2026-01-23 12:04:47.00	271.03	24.35	-29.9	-30.4	14.2	6.80e-06	0	43	102	1048576	21	3824
2026-01-23 12:04:48.01	271.32	24.35	-29.7	-30.4	14.5	7.00e-07	0	43	102	1048576	20	3896
2026-01-23 12:04:49.02	271.61	24.35	-29.5	-30.0	14.7	0.00e+00	0	43	102	1048576	20	3790
2026-01-23 12:04:50.02	271.90	24.35	-29.7	-30.4	14.5	1.50e-06	0	43	102	1048576	20	3907
2026-01-23 12:04:51.03	272.19	24.35	-29.8	-30.6	14.3	0.00e+00	0	43	102	1048576	20	3968
2026-01-23 12:04:52.04	272.48	24.35	-30.1	-31.4	13.8	3.80e-06	0	43	102	1048576	20	4182
2026-01-23 12:04:53.04	272.77	24.34	-30.0	-31.3	13.9	5.30e-06	0	43	102	1048576	20	4169
2026-01-23 12:04:54.05	273.06	24.34	-30.2	-31.7	13.6	6.10e-06	0	43	102	1048576	20	4279
2026-01-23 12:04:55.05	273.35	24.33	-30.0	-31.2	14.0	1.50e-06	0	43	102	1048576	20	4133
2026-01-23 12:04:56.06	273.64	24.33	-29.9	-30.9	14.1	8.30e-06	0	43	102	1048576	20	4042
2026-01-23 12:04:57.06	273.93	24.32	-29.8	-30.7	14.3	2.20e-06	0	43	102	1048576	20	3989
2026-01-23 12:04:58.06	274.21	24.31	-29.7	-30.3	14.5	1.50e-06	0	43	102	1048576	20	3872
2026-01-23 12:04:59.07	274.50	24.30	-29.5	-29.8	14.8	1.50e-06	0	43	102	1048576	20	3753
2026-01-23 12:05:00.07	274.79	24.30	-29.5	-29.8	14.8	0.00e+00	0	43	102	1048576	20	3736
2026-01-23 12:05:01.07	275.08	24.29	-29.6	-30.2	14.6	7.00e-07	0	43	102	1048576	20	3848
2026-01-23 12:05:02.08	275.37	24.28	-29.6	-30.2	14.6	0.00e+00	0	43	102	1048576	20	3840
2026-01-23 12:05:03.08	275.65	24.26	-29.8	-30.6	14.3	7.00e-07	0	43	102	1048576	20	3966
2026-01-23 12:05:04.08	275.94	24.25	-29.9	-30.8	14.2	0.00e+00	0	43	102	1048576	20	4014
2026-01-23 12:05:05.08	276.22	24.24	-30.0	-31.1	14.0	2.20e-06	0	43	102	1048576	20	4090
2026-01-23 12:05:06.09	276.51	24.23	-29.9	-30.9	14.1	2.20e-06	0	43	102	1048576	20	4046
2026-01-23 12:05:07.10	276.80	24.21	-30.0	-31.1	14.0	0.00e+00	0	43	102	1048576	20	4099
2026-01-23 12:05:08.10	277.09	24.20	-30.0	-31.1	14.0	7.00e-07	0	43	102	1048576	20	4114
2026-01-23 12:05:09.11	277.37	24.18	-30.0	-31.1	14.0	7.00e-07	0	43	102	1048576	20	4102
2026-01-23 12:05:10.12	277.66	24.17	-29.8	-30.6	14.3	7.00e-07	0	43	102	1048576	20	3954
2026-01-23 12:05:11.13	277.95	24.15	-29.9	-31.0	14.1	7.00e-07	0	43	102	1048576	20	4081
2026-01-23 12:05:12.13	278.23	24.13	-29.8	-30.5	14.4	1.50e-06	0	43	102	1048576	20	3945
2026-01-23 12:05:13.14	278.52	24.11	-29.8	-30.5	14.4	0.00e+00	0	43	102	1048576	20	3936
2026-01-23 12:05:14.15	278.80	24.10	-29.8	-30.6	14.4	1.50e-06	0	43	102	1048576	20	3949
2026-01-23 12:05:15.15	279.09	24.08	-29.9	-30.9	14.1	1.50e-06	0	43	102	1048576	20	4052
2026-01-23 12:05:16.15	279.37	24.06	-30.0	-31.2	14.0	3.80e-06	0	43	102	1048576	20	4141
2026-01-23 12:05:17.16	279.65	24.03	-30.2	-31.8	13.6	9.10e-06	0	43	102	1048576	20	4315
2026-01-23 12:05:18.17	279.94	24.01	-30.2	-31.6	13.8	6.80e-06	0	43	102	1048576	20	4241
2026-01-23 12:05:19.17	280.22	23.99	-30.0	-31.1	14.0	1.50e-06	0	43	102	1048576	20	4110
2026-01-23 12:05:20.17	280.50	23.97	-29.9	-30.8	14.2	4.50e-06	0	43	102	1048576	20	4015
2026-01-23 12:05:21.17	280.78	23.94	-29.9	-31.0	14.1	3.00e-06	0	43	102	1048576	20	4063
2026-01-23 12:05:22.17	281.06	23.92	-29.8	-30.7	14.2	1.50e-06	0	43	102	1048576	20	3992
2026-01-23 12:05:23.17	281.34	23.89	-29.8	-30.7	14.3	1.50e-06	0	43	102	1048576	20	3984
2026-01-23 12:05:24.18	281.62	23.87	-29.7	-30.4	14.5	0.00e+00	0	43	102	1048576	20	3891
2026-01-23 12:05:25.18	281.90	23.84	-29.4	-29.6	14.9	0.00e+00	0	43	102	1048576	20	3696
2026-01-23 12:05:26.19	282.18	23.81	-29.3	-29.9	15.2	0.00e+00	0	43	102	1048576	19	3856
2026-01-23 12:05:27.19	282.46	23.79	-29.4	-30.1	15.0	7.00e-07	0	43	102	1048576	19	3891
2026-01-23 12:05:28.19	282.74	23.76	-29.6	-30.6	14.8	7.00e-07	0	43	102	1048576	19	4047
2026-01-23 12:05:29.20	283.02	23.73	-29.8	-31.1	14.4	7.00e-07	0	43	102	1048576	19	4180
2026-01-23 12:05:30.20	283.29	23.70	-29.7	-30.9	14.5	7.00e-07	0	43	102	1048576	19	4113
2026-01-23 12:05:31.21	283.57	23.67	-29.7	-30.9	14.5	7.00e-07	0	43	102	1048576	19	4121
2026-01-23 12:05:32.21	283.85	23.64	-29.4	-30.2	14.9	0.00e+00	0	43	102	1048576	19	3940
2026-01-23 12:05:33.21	284.12	23.60	-29.3	-30.0	15.1	0.00e+00	0	43	102	1048576	19	3872
2026-01-23 12:05:34.20	284.39	23.57	-29.5	-30.2	14.9	0.00e+00	0	43	102	1048576	19	3939
2026-01-23 12:05:35.20	284.67	23.54	-29.6	-30.7	14.6	1.50e-06	0	43	102	1048576	19	4063
2026-01-23 12:05:36.21	284.94	23.50	-29.7	-30.9	14.5	7.00e-07	0	43	102	1048576	19	4118
2026-01-23 12:05:37.22	285.22	23.47	-29.8	-31.1	14.4	7.00e-07	0	43	102	1048576	19	4186
2026-01-23 12:05:38.22	285.49	23.44	-29.7	-30.9	14.5	7.00e-07	0	43	102	1048576	19	4116
2026-01-23 12:05:39.23	285.76	23.40	-29.6	-30.6	14.7	0.00e+00	0	43	102	1048576	19	4042
2026-01-23 12:05:40.23	286.03	23.36	-29.5	-30.3	14.9	1.50e-06	0	43	102	1048576	19	3963
2026-01-23 12:05:41.24	286.31	23.33	-29.4	-30.1	15.0	0.00e+00	0	43	102	1048576	19	3912
2026-01-23 12:05:42.24	286.58	23.29	-29.6	-30.6	14.7	0.00e+00	0	43	102	1048576	19	4048
2026-01-23 12:05:43.24	286.84	23.25	-29.2	-29.7	15.2	0.00e+00	0	43	102	1048576	19	3799
2026-01-23 12:05:44.24	287.11	23.21	-29.2	-29.6	15.3	0.00e+00	0	43	102	1048576	19	3767
2026-01-23 12:05:45.24	287.38	23.17	-29.1	-29.5	15.4	0.00e+00	0	43	102	1048576	19	3748
2026-01-23 12:05:46.24	287.65	23.13	-29.2	-29.6	15.3	0.00e+00	0	43	102	1048576	19	3783
2026-01-23 12:05:47.24	287.91	23.09	-29.5	-30.3	14.9	0.00e+00	0	43	102	1048576	19	3954
2026-01-23 12:05:48.25	288.18	23.05	-29.6	-30.7	14.6	7.00e-07	0	43	102	1048576	19	4059
2026-01-23 12:05:49.26	288.45	23.01	-29.6	-30.6	14.7	0.00e+00	0	43	102	1048576	19	4036
2026-01-23 12:05:50.26	288.71	22.97	-29.6	-30.6	14.7	0.00e+00	0	43	102	1048576	19	4057
2026-01-23 12:05:51.27	288.98	22.93	-29.5	-30.5	14.8	0.00e+00	0	43	102	1048576	19	4008
2026-01-23 12:05:52.26	289.24	22.88	-29.6	-30.6	14.7	0.00e+00	0	43	102	1048576	19	4034
2026-01-23 12:05:53.26	289.50	22.84	-29.5	-30.5	14.8	0.00e+00	0	43	102	1048576	19	4013
2026-01-23 12:05:54.27	289.76	22.80	-29.4	-30.2	14.9	0.00e+00	0	43	102	1048576	19	3936
2026-01-23 12:05:55.28	290.02	22.75	-29.5	-30.3	14.9	0.00e+00	0	43	102	1048576	19	3961
2026-01-23 12:05:56.28	290.28	22.71	-29.1	-29.4	15.4	0.00e+00	0	43	102	1048576	19	3734
2026-01-23 12:05:57.28	290.54	22.66	-28.9	-29.0	15.7	0.00e+00	0	43	102	1048576	19	3616
2026-01-23 12:05:58.29	290.80	22.61	-28.7	-29.0	15.9	0.00e+00	0	43	102	1048576	18	3714
2026-01-23 12:05:59.29	291.06	22.57	-28.7	-28.8	16.0	0.00e+00	0	43	102	1048576	18	3661
2026-01-23 12:06:00.28	291.32	22.52	-28.6	-28.6	16.2	0.00e+00	0	43	102	1048576	18	3613
2026-01-23 12:06:01.28	291.57	22.47	-28.5	-28.5	16.2	0.00e+00	0	43	102	1048576	18	3580
2026-01-23 12:06:02.29	291.83	22.43	-28.6	-28.6	16.1	0.00e+00	0	43	102	1048576	18	3611
2026-01-23 12:06:03.30	292.09	22.38	-28.4	-28.1	16.4	0.00e+00	0	43	102	1048576	18	3500
2026-01-23 12:06:04.30	292.34	22.33	-28.4	-28.3	16.4	0.00e+00	0	43	102	1048576	18	3530
2026-01-23 12:06:05.30	292.59	22.28	-28.7	-28.9	16.0	0.00e+00	0	43	102	1048576	18	3692
2026-01-23 12:06:06.30	292.84	22.23	-28.8	-29.1	15.9	0.00e+00	0	43	102	1048576	18	3723
2026-01-23 12:06:07.31	293.10	22.18	-28.9	-29.4	15.7	0.00e+00	0	43	102	1048576	18	3820
2026-01-23 12:06:08.31	293.35	22.13	-28.9	-29.4	15.7	0.00e+00	0	43	102	1048576	18	3801
2026-01-23 12:06:09.31	293.60	22.08	-28.8	-29.3	15.8	0.00e+00	0	43	102	1048576	18	3782
2026-01-23 12:06:10.32	293.85	22.02	-28.6	-28.7	16.1	0.00e+00	0	43	102	1048576	18	3638
2026-01-23 12:06:11.32	294.09	21.97	-28.8	-29.1	15.9	0.00e+00	0	43	102	1048576	18	3737
2026-01-23 12:06:12.32	294.34	21.92	-28.9	-29.4	15.7	0.00e+00	0	43	102	1048576	18	3813
2026-01-23 12:06:13.33	294.59	21.87	-29.1	-30.0	15.3	0.00e+00	0	43	102	1048576	18	3967
2026-01-23 12:06:14.34	294.84	21.81	-29.1	-29.9	15.4	0.00e+00	0	43	102	1048576	18	3957
2026-01-23 12:06:15.34	295.08	21.76	-29.1	-29.9	15.4	0.00e+00	0	43	102	1048576	18	3936
2026-01-23 12:06:16.34	295.33	21.70	-29.0	-29.8	15.5	0.00e+00	0	43	102	1048576	18	3910
2026-01-23 12:06:17.35	295.57	21.65	-29.1	-29.9	15.4	0.00e+00	0	43	102	1048576	18	3957
2026-01-23 12:06:18.36	295.82	21.59	-29.1	-29.9	15.4	7.00e-07	0	43	102	1048576	18	3941
2026-01-23 12:06:19.36	296.06	21.54	-29.2	-30.1	15.3	0.00e+00	0	43	102	1048576	18	3990
2026-01-23 12:06:20.37	296.30	21.48	-29.2	-30.1	15.2	0.00e+00	0	43	102	1048576	18	4004
2026-01-23 12:06:21.37	296.54	21.42	-29.3	-30.3	15.1	7.00e-07	0	43	102	1048576	18	4044
2026-01-23 12:06:22.38	296.78	21.37	-29.2	-30.1	15.3	0.00e+00	0	43	102	1048576	18	4005
2026-01-23 12:06:23.38	297.02	21.31	-29.3	-30.3	15.1	0.00e+00	0	43	102	1048576	18	4068
2026-01-23 12:06:24.38	297.25	21.25	-29.2	-30.3	15.2	0.00e+00	0	43	102	1048576	18	4047
2026-01-23 12:06:25.39	297.49	21.20	-29.2	-30.1	15.3	0.00e+00	0	43	102	1048576	18	3993
2026-01-23 12:06:26.39	297.73	21.14	-29.1	-29.9	15.4	0.00e+00	0	43	102	1048576	18	3959
2026-01-23 12:06:27.39	297.96	21.08	-29.0	-29.7	15.5	0.00e+00	0	43	102	1048576	18	3886
2026-01-23 12:06:28.40	298.20	21.02	-29.1	-29.9	15.4	0.00e+00	0	43	102	1048576	18	3951
2026-01-23 12:06:29.41	298.43	20.96	-29.1	-29.8	15.4	0.00e+00	0	43	102	1048576	18	3921
2026-01-23 12:06:30.41	298.66	20.90	-29.4	-30.7	14.9	0.00e+00	0	43	102	1048576	18	4160
2026-01-23 12:06:31.41	298.89	20.84	-29.5	-30.5	14.7	7.00e-07	0	43	102	1048576	19	4012
2026-01-23 12:06:32.42	299.13	20.78	-29.7	-31.0	14.4	7.00e-07	0	43	102	1048576	19	4157
2026-01-23 12:06:33.42	299.35	20.72	-29.8	-31.1	14.3	7.00e-07	0	43	102	1048576	19	4189
2026-01-23 12:06:34.43	299.58	20.66	-29.8	-31.2	14.3	1.50e-06	0	43	102	1048576	19	4217
2026-01-23 12:06:35.44	299.81	20.60	-29.9	-31.5	14.1	7.00e-07	0	43	102	1048576	19	4308
2026-01-23 12:06:36.44	300.04	20.54	-30.1	-31.4	13.8	6.10e-06	0	43	102	1048576	20	4193
2026-01-23 12:06:37.45	300.27	20.47	-30.1	-31.6	13.7	6.10e-06	0	43	102	1048576	20	4242
2026-01-23 12:06:38.45	300.49	20.41	-30.1	-31.5	13.7	9.90e-06	0	43	102	1048576	20	4223
2026-01-23 12:06:39.46	300.72	20.35	-30.2	-31.7	13.6	6.80e-06	0	43	102	1048576	20	4283
2026-01-23 12:06:40.46	300.94	20.29	-30.1	-31.5	13.7	4.50e-06	0	43	102	1048576	20	4237
2026-01-23 12:06:41.46	301.16	20.23	-29.9	-30.8	14.2	3.80e-06	0	43	102	1048576	20	4020
2026-01-23 12:06:42.47	301.38	20.16	-29.7	-30.4	14.4	1.50e-06	0	43	102	1048576	20	3910
2026-01-23 12:06:43.46	301.60	20.10	-29.7	-30.5	14.4	7.00e-07	0	43	102	1048576	20	3922
2026-01-23 12:06:44.46	301.82	20.04	-29.8	-30.7	14.2	0.00e+00	0	43	102	1048576	20	3980
2026-01-23 12:06:45.46	302.04	19.97	-29.9	-30.9	14.1	3.80e-06	0	43	102	1048576	20	4053
2026-01-23 12:06:46.46	302.26	19.91	-30.0	-31.3	13.9	3.80e-06	0	43	102	1048576	20	4152
2026-01-23 12:06:47.47	302.48	19.84	-30.1	-31.5	13.6	3.80e-06	0	43	102	1048576	20	4233
2026-01-23 12:06:48.47	302.69	19.78	-30.2	-31.8	13.5	4.50e-06	0	43	102	1048576	20	4315
2026-01-23 12:06:49.48	302.91	19.72	-30.2	-31.8	13.5	8.30e-06	0	43	102	1048576	20	4304
2026-01-23 12:06:50.49	303.12	19.65	-30.1	-31.5	13.7	6.80e-06	0	43	102	1048576	20	4233
2026-01-23 12:06:51.49	303.34	19.58	-29.9	-31.0	14.0	6.10e-06	0	43	102	1048576	20	4071
2026-01-23 12:06:52.50	303.55	19.52	-30.0	-31.3	13.8	6.10e-06	0	43	102	1048576	20	4158
2026-01-23 12:06:53.50	303.76	19.45	-30.1	-31.6	13.6	7.60e-06	0	43	102	1048576	20	4243
2026-01-23 12:06:54.50	303.97	19.39	-30.4	-32.2	13.2	1.37e-05	0	43	102	1048576	20	4452
2026-01-23 12:06:55.50	304.18	19.32	-30.5	-32.5	13.0	3.43e-05	0	43	102	1048576	20	4544
2026-01-23 12:06:56.51	304.39	19.26	-30.6	-32.4	12.8	6.10e-05	0	43	102	1048576	21	4407
2026-01-23 12:06:57.51	304.60	19.19	-30.6	-32.2	12.8	6.33e-05	0	43	102	1048576	21	4367
2026-01-23 12:06:58.51	304.81	19.12	-30.4	-31.9	13.1	3.35e-05	0	43	102	1048576	21	4247
2026-01-23 12:06:59.52	305.01	19.06	-30.2	-31.3	13.4	2.21e-05	0	43	102	1048576	21	4085
2026-01-23 12:07:00.51	305.22	18.99	-30.3	-31.4	13.4	2.82e-05	0	43	102	1048576	21	4106
2026-01-23 12:07:01.50	305.42	18.92	-30.3	-31.5	13.3	2.13e-05	0	43	102	1048576	21	4149
2026-01-23 12:07:02.50	305.62	18.86	-30.4	-31.7	13.2	2.05e-05	0	43	102	1048576	21	4190
2026-01-23 12:07:03.51	305.83	18.79	-30.4	-31.8	13.1	3.66e-05	0	43	102	1048576	21	4219
2026-01-23 12:07:04.52	306.03	18.72	-30.5	-32.0	13.0	4.42e-05	0	43	102	1048576	21	4299
2026-01-23 12:07:05.52	306.23	18.65	-30.6	-32.4	12.8	7.78e-05	0	43	102	1048576	21	4413
2026-01-23 12:07:06.53	306.43	18.59	-30.5	-32.1	13.0	5.18e-05	0	43	102	1048576	21	4318
2026-01-23 12:07:07.54	306.63	18.52	-30.6	-32.5	12.7	5.79e-05	0	43	102	1048576	21	4455
2026-01-23 12:07:08.54	306.83	18.45	-30.8	-32.9	12.4	7.85e-05	0	43	102	1048576	21	4588
2026-01-23 12:07:09.54	307.03	18.38	-30.7	-32.5	12.6	8.92e-05	0	43	102	1048576	21	4463
2026-01-23 12:07:10.55	307.22	18.31	-30.5	-32.1	12.9	5.41e-05	0	43	102	1048576	21	4329
2026-01-23 12:07:11.55	307.42	18.24	-30.4	-31.8	13.1	2.36e-05	0	43	102	1048576	21	4225
2026-01-23 12:07:12.56	307.62	18.17	-30.4	-31.7	13.2	3.12e-05	0	43	102	1048576	21	4213
2026-01-23 12:07:13.56	307.81	18.11	-30.5	-32.2	12.9	4.04e-05	0	43	102	1048576	21	4347
2026-01-23 12:07:14.56	308.00	18.04	-30.7	-32.5	12.6	6.86e-05	0	43	102	1048576	21	4463
2026-01-23 12:07:15.56	308.19	17.97	-30.7	-32.5	12.6	1.20e-04	0	43	102	1048576	21	4470
2026-01-23 12:07:16.56	308.39	17.90	-30.4	-31.8	13.1	4.27e-05	0	43	102	1048576	21	4239
2026-01-23 12:07:17.56	308.58	17.83	-30.3	-31.7	13.3	1.67e-05	0	43	102	1048576	21	4201
2026-01-23 12:07:18.56	308.76	17.76	-30.2	-31.2	13.5	1.44e-05	0	43	102	1048576	21	4050
2026-01-23 12:07:19.57	308.96	17.69	-30.2	-31.4	13.4	1.29e-05	0	43	102	1048576	21	4096
2026-01-23 12:07:20.58	309.14	17.62	-30.3	-31.5	13.3	2.21e-05	0	43	102	1048576	21	4151
2026-01-23 12:07:21.58	309.33	17.55	-30.2	-31.4	13.4	9.10e-06	0	43	102	1048576	21	4115
2026-01-23 12:07:22.59	309.52	17.48	-30.3	-31.7	13.1	3.12e-05	0	43	102	1048576	21	4199
2026-01-23 12:07:23.59	309.70	17.41	-30.4	-31.9	13.0	4.88e-05	0	43	102	1048576	21	4263
2026-01-23 12:07:24.60	309.89	17.34	-30.4	-32.0	12.9	3.20e-05	0	43	102	1048576	21	4294
2026-01-23 12:07:25.60	310.07	17.27	-30.3	-31.7	13.2	1.90e-05	0	43	102	1048576	21	4203
2026-01-23 12:07:26.61	310.26	17.20	-30.1	-31.1	13.6	1.06e-05	0	43	102	1048576	21	4023
2026-01-23 12:07:27.61	310.44	17.13	-30.0	-30.8	13.7	2.20e-06	0	43	102	1048576	21	3940
2026-01-23 12:07:28.61	310.62	17.06	-29.9	-30.6	13.8	4.50e-06	0	43	102	1048576	21	3895
2026-01-23 12:07:29.62	310.80	16.99	-29.7	-30.6	14.2	0.00e+00	0	43	102	1048576	20	3966
2026-01-23 12:07:30.62	310.98	16.92	-29.7	-30.5	14.2	3.00e-06	0	43	102	1048576	20	3957
2026-01-23 12:07:31.63	311.16	16.85	-29.8	-30.8	14.1	3.00e-06	0	43	102	1048576	20	4029
2026-01-23 12:07:32.62	311.34	16.78	-30.0	-31.2	13.8	3.00e-06	0	43	102	1048576	20	4131
2026-01-23 12:07:33.62	311.51	16.71	-30.1	-31.6	13.5	6.10e-06	0	43	102	1048576	20	4277
2026-01-23 12:07:34.62	311.69	16.64	-30.2	-31.8	13.4	6.10e-06	0	43	102	1048576	20	4344
2026-01-23 12:07:35.62	311.87	16.57	-30.3	-32.0	13.2	2.05e-05	0	43	102	1048576	20	4389
2026-01-23 12:07:36.62	312.04	16.50	-30.4	-32.3	13.1	1.75e-05	0	43	102	1048576	20	4479
2026-01-23 12:07:37.62	312.21	16.43	-30.3	-32.2	13.1	2.05e-05	0	43	102	1048576	20	4461
2026-01-23 12:07:38.62	312.39	16.36	-30.3	-32.2	13.1	4.19e-05	0	43	102	1048576	20	4458
2026-01-23 12:07:39.62	312.56	16.29	-30.4	-32.5	13.0	5.79e-05	0	43	102	1048576	20	4545
2026-01-23 12:07:40.63	312.73	16.22	-30.7	-32.6	12.5	1.21e-04	0	43	102	1048576	21	4505
2026-01-23 12:07:41.64	312.90	16.14	-30.7	-32.8	12.3	1.51e-04	0	43	102	1048576	21	4559
2026-01-23 12:07:42.64	313.07	16.07	-31.0	-33.5	11.9	1.81e-04	0	43	102	1048576	21	4825
2026-01-23 12:07:43.64	313.24	16.00	-31.0	-33.2	11.8	6.16e-04	0	43	102	1048576	22	4623
2026-01-23 12:07:44.65	313.41	15.93	-31.0	-33.0	11.9	4.74e-04	0	43	102	1048576	22	4563
2026-01-23 12:07:45.65	313.58	15.86	-31.0	-33.0	11.9	4.68e-04	0	43	102	1048576	22	4556
2026-01-23 12:07:46.66	313.75	15.79	-30.8	-32.5	12.2	2.97e-04	0	43	102	1048576	22	4391
2026-01-23 12:07:47.66	313.91	15.72	-30.8	-32.5	12.2	1.91e-04	0	43	102	1048576	22	4380
2026-01-23 12:07:48.66	314.08	15.65	-30.9	-33.0	11.9	2.14e-04	0	43	102	1048576	22	4540
2026-01-23 12:07:49.66	314.24	15.58	-30.9	-32.7	12.0	3.64e-04	0	43	102	1048576	22	4466
2026-01-23 12:07:50.67	314.41	15.51	-30.8	-32.7	12.1	2.14e-04	0	43	102	1048576	22	4437
2026-01-23 12:07:51.67	314.57	15.44	-30.8	-32.6	12.1	2.24e-04	0	43	102	1048576	22	4427
2026-01-23 12:07:52.68	314.74	15.36	-31.0	-33.0	11.9	3.80e-04	0	43	102	1048576	22	4559
2026-01-23 12:07:53.68	314.90	15.29	-31.1	-33.5	11.6	5.00e-04	0	43	102	1048576	22	4718
2026-01-23 12:07:54.69	315.06	15.22	-31.2	-33.6	11.4	1.00e-03	0	43	102	1048576	22	4768
2026-01-23 12:07:55.69	315.22	15.15	-31.3	-34.1	11.0	1.03e-03	0	43	102	1048576	22	4981
2026-01-23 12:07:56.70	315.38	15.08	-31.2	-33.8	11.3	1.64e-03	0	43	102	1048576	22	4835
2026-01-23 12:07:57.71	315.54	15.01	-30.7	-32.4	12.2	5.26e-04	0	43	102	1048576	22	4342
2026-01-23 12:07:58.71	315.70	14.94	-30.3	-31.3	12.9	1.01e-04	0	43	102	1048576	22	3994
2026-01-23 12:07:59.72	315.86	14.87	-30.0	-30.8	13.6	9.10e-06	0	43	102	1048576	21	3948
2026-01-23 12:08:00.72	316.01	14.79	-29.7	-30.5	14.1	2.20e-06	0	43	102	1048576	20	3964
2026-01-23 12:08:01.73	316.17	14.72	-29.6	-30.3	14.2	7.00e-07	0	43	102	1048576	20	3894
2026-01-23 12:08:02.73	316.32	14.65	-29.7	-30.6	14.1	7.00e-07	0	43	102	1048576	20	3966
2026-01-23 12:08:03.73	316.48	14.58	-29.8	-30.7	13.9	7.00e-07	0	43	102	1048576	20	4005
2026-01-23 12:08:04.74	316.63	14.51	-30.0	-31.3	13.6	4.50e-06	0	43	102	1048576	20	4175
2026-01-23 12:08:05.74	316.78	14.44	-30.2	-31.7	13.3	1.06e-05	0	43	102	1048576	20	4314
2026-01-23 12:08:06.75	316.94	14.37	-30.3	-32.1	13.1	3.20e-05	0	43	102	1048576	20	4428
2026-01-23 12:08:07.75	317.09	14.30	-30.3	-32.2	13.0	4.19e-05	0	43	102	1048576	20	4462
2026-01-23 12:08:08.76	317.24	14.23	-30.3	-32.3	13.0	3.89e-05	0	43	102	1048576	20	4499
2026-01-23 12:08:09.76	317.39	14.16	-30.3	-32.2	13.0	3.43e-05	0	43	102	1048576	20	4481
2026-01-23 12:08:10.77	317.54	14.08	-30.3	-32.3	12.9	4.11e-05	0	43	102	1048576	20	4497
2026-01-23 12:08:11.77	317.69	14.01	-30.3	-32.1	13.0	4.34e-05	0	43	102	1048576	20	4449
2026-01-23 12:08:12.78	317.84	13.94	-30.3	-32.2	13.0	3.28e-05	0	43	102	1048576	20	4474
2026-01-23 12:08:13.79	317.99	13.87	-30.4	-32.6	12.7	7.70e-05	0	43	102	1048576	20	4593
2026-01-23 12:08:14.79	318.13	13.80	-30.6	-32.5	12.5	1.33e-04	0	43	102	1048576	21	4471
2026-01-23 12:08:15.80	318.28	13.73	-30.7	-32.9	12.2	2.27e-04	0	43	102	1048576	21	4620
2026-01-23 12:08:16.81	318.43	13.66	-31.0	-33.6	11.7	3.47e-04	0	43	102	1048576	21	4877
2026-01-23 12:08:17.81	318.57	13.59	-31.0	-33.3	11.5	7.16e-04	0	43	102	1048576	22	4660
2026-01-23 12:08:18.82	318.72	13.52	-31.2	-33.8	11.3	1.08e-03	0	43	102	1048576	22	4841
2026-01-23 12:08:19.82	318.86	13.45	-31.0	-33.2	11.6	7.89e-04	0	43	102	1048576	22	4646
2026-01-23 12:08:20.83	319.00	13.38	-30.8	-32.6	12.1	4.15e-04	0	43	102	1048576	22	4417
2026-01-23 12:08:21.84	319.15	13.31	-30.6	-31.9	12.5	1.32e-04	0	43	102	1048576	22	4192
2026-01-23 12:08:22.85	319.29	13.24	-30.4	-31.4	12.8	8.39e-05	0	43	102	1048576	22	4041
2026-01-23 12:08:23.85	319.43	13.16	-30.4	-31.4	12.8	4.65e-05	0	43	102	1048576	22	4049
2026-01-23 12:08:24.86	319.57	13.09	-30.3	-31.6	13.0	2.59e-05	0	43	102	1048576	21	4183
2026-01-23 12:08:25.87	319.71	13.02	-30.2	-31.4	13.2	2.05e-05	0	43	102	1048576	21	4129
2026-01-23 12:08:26.88	319.85	12.95	-30.3	-31.7	13.0	3.81e-05	0	43	102	1048576	21	4225
2026-01-23 12:08:27.88	319.99	12.88	-30.2	-31.5	13.0	4.04e-05	0	43	102	1048576	21	4175
2026-01-23 12:08:28.89	320.13	12.81	-30.4	-31.9	12.7	5.34e-05	0	43	102	1048576	21	4302
2026-01-23 12:08:29.89	320.26	12.74	-30.4	-31.9	12.8	7.85e-05	0	43	102	1048576	21	4292
2026-01-23 12:08:30.90	320.40	12.67	-30.5	-32.2	12.6	1.04e-04	0	43	102	1048576	21	4402
2026-01-23 12:08:31.91	320.54	12.60	-30.7	-32.9	12.1	1.84e-04	0	43	102	1048576	21	4608
2026-01-23 12:08:32.91	320.67	12.53	-30.5	-32.4	12.4	1.62e-04	0	43	102	1048576	21	4448
2026-01-23 12:08:33.92	320.81	12.46	-30.5	-32.3	12.5	1.63e-04	0	43	102	1048576	21	4429
2026-01-23 12:08:34.92	320.94	12.39	-30.5	-32.3	12.4	1.13e-04	0	43	102	1048576	21	4445
2026-01-23 12:08:35.93	321.07	12.32	-30.5	-32.3	12.5	1.27e-04	0	43	102	1048576	21	4433
2026-01-23 12:08:36.93	321.21	12.25	-30.7	-32.8	12.1	2.17e-04	0	43	102	1048576	21	4594
2026-01-23 12:08:37.93	321.34	12.18	-30.8	-33.1	11.9	3.40e-04	0	43	102	1048576	21	4695
2026-01-23 12:08:38.93	321.47	12.12	-30.9	-33.5	11.7	4.33e-04	0	43	102	1048576	21	4860
2026-01-23 12:08:39.93	321.60	12.05	-31.2	-33.8	11.1	1.31e-03	0	43	102	1048576	22	4860
2026-01-23 12:08:40.93	321.73	11.98	-31.2	-33.8	11.1	1.69e-03	0	43	102	1048576	22	4874
2026-01-23 12:08:41.93	321.86	11.91	-31.4	-34.6	10.5	1.84e-03	0	43	102	1048576	22	5205
2026-01-23 12:08:42.93	321.99	11.84	-31.4	-34.6	10.5	3.62e-03	0	43	102	1048576	22	5203
2026-01-23 12:08:43.93	322.12	11.77	-31.2	-34.1	10.9	1.82e-03	0	43	102	1048576	22	4978
2026-01-23 12:08:44.94	322.24	11.70	-31.3	-34.2	10.8	2.54e-03	0	43	102	1048576	22	5037
2026-01-23 12:08:45.94	322.37	11.63	-31.1	-33.5	11.3	2.07e-03	0	43	102	1048576	22	4779
2026-01-23 12:08:46.95	322.50	11.56	-31.1	-33.6	11.2	1.02e-03	0	43	102	1048576	22	4785
2026-01-23 12:08:47.95	322.63	11.50	-31.2	-33.8	11.1	1.39e-03	0	43	102	1048576	22	4864
2026-01-23 12:08:48.95	322.75	11.43	-30.8	-32.6	11.8	1.20e-03	0	43	102	1048576	22	4454
2026-01-23 12:08:49.96	322.88	11.36	-30.5	-31.9	12.5	1.91e-04	0	43	102	1048576	22	4202
2026-01-23 12:08:50.97	323.00	11.29	-30.3	-31.3	12.8	8.92e-05	0	43	102	1048576	22	4011
2026-01-23 12:08:51.98	323.13	11.22	-30.1	-31.2	13.1	3.20e-05	0	43	102	1048576	21	4092
2026-01-23 12:08:52.99	323.25	11.15	-30.1	-31.1	13.2	1.67e-05	0	43	102	1048576	21	4042
2026-01-23 12:08:53.99	323.37	11.08	-30.1	-31.1	13.2	1.75e-05	0	43	102	1048576	21	4072
2026-01-23 12:08:55.00	323.50	11.01	-30.1	-31.2	13.1	1.75e-05	0	43	102	1048576	21	4095
2026-01-23 12:08:56.01	323.62	10.95	-30.2	-31.5	12.9	2.97e-05	0	43	102	1048576	21	4190
2026-01-23 12:08:57.01	323.74	10.88	-30.2	-31.5	12.9	4.50e-05	0	43	102	1048576	21	4177
2026-01-23 12:08:58.02	323.86	10.81	-30.4	-32.0	12.6	5.72e-05	0	43	102	1048576	21	4338
2026-01-23 12:08:59.02	323.98	10.74	-30.3	-31.8	12.7	9.30e-05	0	43	102	1048576	21	4257
2026-01-23 12:09:00.03	324.10	10.67	-30.3	-31.8	12.7	6.56e-05	0	43	102	1048576	21	4283
2026-01-23 12:09:01.03	324.22	10.61	-30.4	-32.0	12.6	8.23e-05	0	43	102	1048576	21	4348
2026-01-23 12:09:02.04	324.34	10.54	-30.4	-32.0	12.5	1.06e-04	0	43	102	1048576	21	4345
2026-01-23 12:09:03.04	324.46	10.47	-30.4	-32.0	12.5	1.30e-04	0	43	102	1048576	21	4347
2026-01-23 12:09:04.05	324.57	10.40	-30.4	-31.9	12.6	1.12e-04	0	43	102	1048576	21	4325
2026-01-23 12:09:05.06	324.69	10.33	-30.4	-32.0	12.5	1.20e-04	0	43	102	1048576	21	4352
2026-01-23 12:09:06.06	324.81	10.27	-30.6	-32.6	12.1	1.65e-04	0	43	102	1048576	21	4550
2026-01-23 12:09:07.06	324.92	10.20	-30.6	-32.5	12.2	2.75e-04	0	43	102	1048576	21	4522
2026-01-23 12:09:08.06	325.04	10.13	-30.7	-32.9	11.9	2.90e-04	0	43	102	1048576	21	4647
2026-01-23 12:09:09.06	325.15	10.07	-30.7	-32.9	11.9	3.52e-04	0	43	102	1048576	21	4646
2026-01-23 12:09:10.06	325.27	10.00	-30.9	-33.6	11.4	7.51e-04	0	43	102	1048576	21	4905
2026-01-23 12:09:11.07	325.38	9.93	-30.9	-33.5	11.5	6.50e-04	0	43	102	1048576	21	4873
2026-01-23 12:09:12.08	325.50	9.87	-31.0	-33.7	11.3	8.81e-04	0	43	102	1048576	21	4966
2026-01-23 12:09:13.08	325.61	9.80	-31.0	-33.5	11.1	1.09e-03	0	43	102	1048576	22	4773
2026-01-23 12:09:14.09	325.72	9.73	-30.9	-33.2	11.3	1.20e-03	0	43	102	1048576	22	4668
2026-01-23 12:09:15.09	325.83	9.67	-30.9	-33.1	11.4	1.11e-03	0	43	102	1048576	22	4619
2026-01-23 12:09:16.09	325.94	9.60	-30.8	-32.8	11.6	9.56e-04	0	43	102	1048576	22	4543
2026-01-23 12:09:17.10	326.06	9.53	-30.8	-32.8	11.6	6.53e-04	0	43	102	1048576	22	4526
2026-01-23 12:09:18.10	326.17	9.47	-30.9	-33.1	11.4	8.38e-04	0	43	102	1048576	22	4635
2026-01-23 12:09:19.11	326.28	9.40	-30.7	-32.4	11.8	6.13e-04	0	43	102	1048576	22	4396
2026-01-23 12:09:20.11	326.39	9.33	-30.7	-32.5	11.8	4.15e-04	0	43	102	1048576	22	4422
2026-01-23 12:09:21.12	326.50	9.27	-30.7	-32.4	11.9	4.74e-04	0	43	102	1048576	22	4383
2026-01-23 12:09:22.12	326.60	9.20	-30.6	-32.3	11.9	3.95e-04	0	43	102	1048576	22	4348
2026-01-23 12:09:23.11	326.71	9.14	-30.7	-32.5	11.7	4.90e-04	0	43	102	1048576	22	4446
2026-01-23 12:09:24.12	326.82	9.07	-30.7	-32.5	11.7	4.49e-04	0	43	102	1048576	22	4440
2026-01-23 12:09:25.13	326.93	9.00	-30.8	-32.8	11.6	6.13e-04	0	43	102	1048576	22	4533
2026-01-23 12:09:26.13	327.03	8.94	-30.8	-32.9	11.5	9.28e-04	0	43	102	1048576	22	4568
2026-01-23 12:09:27.13	327.14	8.87	-30.9	-33.1	11.3	1.02e-03	0	43	102	1048576	22	4662
2026-01-23 12:09:28.13	327.25	8.81	-31.1	-33.8	10.8	1.45e-03	0	43	102	1048576	22	4890
2026-01-23 12:09:29.14	327.35	8.74	-31.0	-33.6	10.9	1.78e-03	0	43	102	1048576	22	4830
2026-01-23 12:09:30.14	327.46	8.68	-31.0	-33.6	10.9	1.87e-03	0	43	102	1048576	22	4856
2026-01-23 12:09:31.15	327.56	8.61	-31.1	-33.9	10.7	2.63e-03	0	43	102	1048576	22	4955
2026-01-23 12:09:32.15	327.66	8.55	-31.1	-33.7	10.8	2.78e-03	0	43	102	1048576	22	4888
2026-01-23 12:09:33.14	327.77	8.48	-31.1	-33.8	10.9	2.51e-03	0	43	102	1048576	22	4903
2026-01-23 12:09:34.15	327.87	8.42	-31.2	-34.2	10.5	3.69e-03	0	43	102	1048576	22	5083
2026-01-23 12:09:35.16	327.97	8.35	-30.9	-33.3	11.2	2.15e-03	0	43	102	1048576	22	4705
2026-01-23 12:09:36.17	328.08	8.29	-30.9	-33.2	11.2	1.45e-03	0	43	102	1048576	22	4699
2026-01-23 12:09:37.17	328.18	8.22	-30.9	-33.1	11.3	1.45e-03	0	43	102	1048576	22	4646
2026-01-23 12:09:38.18	328.28	8.16	-30.8	-32.9	11.4	1.02e-03	0	43	102	1048576	22	4562
2026-01-23 12:09:39.19	328.38	8.09	-30.9	-33.2	11.1	1.38e-03	0	43	102	1048576	22	4700
2026-01-23 12:09:40.19	328.48	8.03	-30.7	-32.7	11.5	9.69e-04	0	43	102	1048576	22	4531
2026-01-23 12:09:41.20	328.58	7.96	-30.9	-33.1	11.2	8.46e-04	0	43	102	1048576	22	4677
2026-01-23 12:09:42.21	328.68	7.90	-31.0	-33.5	10.9	1.69e-03	0	43	102	1048576	22	4798
2026-01-23 12:09:43.21	328.78	7.84	-30.9	-33.1	11.3	1.00e-03	0	43	102	1048576	22	4657
2026-01-23 12:09:44.22	328.88	7.77	-30.9	-33.1	11.2	1.10e-03	0	43	102	1048576	22	4658
2026-01-23 12:09:45.22	328.98	7.71	-30.8	-33.0	11.2	1.53e-03	0	43	102	1048576	22	4639
2026-01-23 12:09:46.23	329.08	7.64	-30.8	-32.9	11.3	1.14e-03	0	43	102	1048576	22	4597
2026-01-23 12:09:47.24	329.18	7.58	-30.8	-33.0	11.3	1.35e-03	0	43	102	1048576	22	4611
2026-01-23 12:09:48.24	329.27	7.52	-30.9	-33.1	11.2	1.41e-03	0	43	102	1048576	22	4681
2026-01-23 12:09:49.25	329.37	7.45	-31.0	-33.7	10.7	1.73e-03	0	43	102	1048576	22	4881
2026-01-23 12:09:50.25	329.47	7.39	-31.0	-33.5	10.9	2.07e-03	0	43	102	1048576	22	4815
2026-01-23 12:09:51.26	329.56	7.33	-31.0	-33.7	10.7	2.53e-03	0	43	102	1048576	22	4919
2026-01-23 12:09:52.26	329.66	7.26	-31.2	-34.3	10.2	4.38e-03	0	43	102	1048576	22	5173
2026-01-23 12:09:53.27	329.76	7.20	-31.2	-34.4	10.1	7.02e-03	0	43	102	1048576	22	5187
2026-01-23 12:09:54.27	329.85	7.14	-31.2	-34.3	10.2	6.50e-03	0	43	102	1048576	22	5139
2026-01-23 12:09:55.28	329.94	7.07	-31.3	-34.8	10.1	9.06e-03	0	43	102	1048576	22	5354
2026-01-23 12:09:56.28	330.04	7.01	-33.6	-45.9	3.8	1.49e+00	0	43	104	1048576	27	14874

#Closed at: 2026-01-23 12:09:57
#Recorded file [1 MB]: D:/data/31010_260123_145942.dat