passes_logs/2026/01/23/R2M6_AANII_01/R2M6_AANII_01__20260123_222637_SUOMI_NPP_rec.log

#Pass ID: 20260123_222637_SUOMI NPP
#Satellite: SUOMI NPP
#Configuration: NPP
#almurnet v.1.7.20240730
#Start time: 2026-01-23 22:26:37

#Version: 2.2.20231116
#Station: R2M6_AANII_01
#Location: 30.233357 lon 59.946436 lat
#TLE: 1 37849U 11061A   26022.92790088  .00000200  00000+0  11571-3 0  9994
#TLE: 2 37849  98.7820 324.9085 0002258  50.1112 310.0263 14.19528452737839

#Time	Az	El	Level	Level2	SNR	BER	BlckErr	Temp	State	Recorded	gain1	gain2
2026-01-23 22:26:37.29	34.65	6.99	-31.5	-35.7	5.2	1.18e+00	0	41	0	0	23	5808
2026-01-23 22:26:38.29	34.76	7.04	-32.3	-39.8	4.3	1.38e+00	0	41	104	0	24	8469
2026-01-23 22:26:39.29	34.88	7.10	-32.4	-39.6	5.3	6.21e-01	0	41	0	0	24	8243
2026-01-23 22:26:40.30	34.99	7.15	-32.3	-39.2	5.5	4.30e-01	0	41	102	1048576	24	7966
2026-01-23 22:26:41.30	35.11	7.20	-32.4	-39.6	5.3	5.53e-01	0	41	102	1048576	24	8256
2026-01-23 22:26:42.31	35.22	7.26	-32.2	-38.6	5.9	4.40e-01	0	41	102	1048576	24	7501
2026-01-23 22:26:43.31	35.34	7.31	-32.1	-37.8	6.4	3.09e-01	0	42	102	1048576	24	6950
2026-01-23 22:26:44.31	35.46	7.37	-32.0	-37.2	6.9	1.82e-01	0	41	102	1048576	24	6549
2026-01-23 22:26:45.32	35.58	7.42	-31.8	-36.6	7.7	1.09e-01	0	41	102	1048576	23	6280
2026-01-23 22:26:46.32	35.69	7.48	-31.6	-35.9	8.3	6.26e-02	0	42	102	1048576	23	5907
2026-01-23 22:26:47.33	35.81	7.53	-31.5	-35.2	8.8	3.42e-02	0	42	102	1048576	23	5548
2026-01-23 22:26:48.33	35.93	7.59	-31.2	-34.8	9.5	1.97e-02	0	41	102	1048576	22	5444
2026-01-23 22:26:49.34	36.05	7.64	-31.2	-34.6	9.7	1.12e-02	0	42	102	1048576	22	5335
2026-01-23 22:26:50.34	36.17	7.70	-31.3	-35.1	9.4	1.50e-02	0	42	102	1048576	22	5548
2026-01-23 22:26:51.34	36.29	7.75	-31.3	-35.2	9.3	2.32e-02	0	42	102	1048576	22	5610
2026-01-23 22:26:52.34	36.41	7.80	-31.1	-34.3	10.0	1.21e-02	0	42	102	1048576	22	5213
2026-01-23 22:26:53.35	36.53	7.86	-30.9	-33.5	10.6	5.33e-03	0	42	102	1048576	22	4871
2026-01-23 22:26:54.35	36.66	7.91	-30.6	-33.1	11.2	2.70e-03	0	42	102	1048576	21	4823
2026-01-23 22:26:55.35	36.78	7.97	-30.6	-33.0	11.3	1.09e-03	0	42	102	1048576	21	4779
2026-01-23 22:26:56.36	36.90	8.02	-30.4	-32.6	11.6	7.23e-04	0	42	102	1048576	21	4608
2026-01-23 22:26:57.37	37.02	8.08	-30.4	-33.0	11.7	8.73e-04	0	42	102	1048576	20	4863
2026-01-23 22:26:58.36	37.15	8.13	-30.4	-33.0	11.7	9.86e-04	0	42	102	1048576	20	4876
2026-01-23 22:26:59.36	37.27	8.19	-30.3	-32.7	11.9	5.23e-04	0	42	102	1048576	20	4739
2026-01-23 22:27:00.37	37.39	8.24	-30.3	-32.6	12.0	7.12e-04	0	42	102	1048576	20	4720
2026-01-23 22:27:01.38	37.52	8.30	-30.2	-32.4	12.2	6.60e-04	0	42	102	1048576	20	4615
2026-01-23 22:27:02.38	37.64	8.35	-30.3	-32.5	12.1	3.68e-04	0	42	102	1048576	20	4676
2026-01-23 22:27:03.39	37.77	8.41	-30.3	-32.5	12.0	2.65e-04	0	42	102	1048576	20	4655
2026-01-23 22:27:04.39	37.90	8.46	-30.4	-32.3	12.2	5.78e-04	0	42	102	1048576	21	4462
2026-01-23 22:27:05.39	38.02	8.51	-30.5	-32.7	11.8	3.33e-04	0	42	102	1048576	21	4615
2026-01-23 22:27:06.39	38.15	8.57	-30.5	-33.0	12.0	5.16e-04	0	42	102	1048576	20	4820
2026-01-23 22:27:07.39	38.28	8.62	-30.3	-32.6	12.2	5.11e-04	0	42	102	1048576	20	4690
2026-01-23 22:27:08.39	38.40	8.68	-30.4	-33.0	12.0	2.53e-04	0	42	102	1048576	20	4808
2026-01-23 22:27:09.39	38.53	8.73	-30.4	-32.8	12.1	5.48e-04	0	42	102	1048576	20	4762
2026-01-23 22:27:10.40	38.66	8.79	-30.5	-33.0	12.0	3.65e-04	0	42	102	1048576	20	4799
2026-01-23 22:27:11.40	38.79	8.84	-30.6	-32.8	11.8	5.58e-04	0	42	102	1048576	21	4655
2026-01-23 22:27:12.40	38.92	8.90	-30.5	-32.5	12.0	3.94e-04	0	42	102	1048576	21	4549
2026-01-23 22:27:13.40	39.05	8.95	-30.5	-32.6	12.0	3.51e-04	0	42	102	1048576	21	4571
2026-01-23 22:27:14.41	39.18	9.01	-30.5	-32.7	11.9	5.25e-04	0	42	102	1048576	21	4606
2026-01-23 22:27:15.41	39.31	9.06	-30.6	-33.0	11.6	6.69e-04	0	42	102	1048576	21	4715
2026-01-23 22:27:16.41	39.44	9.12	-30.6	-32.8	11.8	6.64e-04	0	43	102	1048576	21	4645
2026-01-23 22:27:17.41	39.57	9.17	-30.6	-32.8	11.7	5.85e-04	0	42	102	1048576	21	4666
2026-01-23 22:27:18.41	39.71	9.22	-30.6	-32.8	11.7	6.87e-04	0	42	102	1048576	21	4657
2026-01-23 22:27:19.42	39.84	9.28	-30.7	-33.2	11.5	5.78e-04	0	42	102	1048576	21	4795
2026-01-23 22:27:20.42	39.97	9.33	-30.7	-33.2	11.5	7.48e-04	0	43	102	1048576	21	4795
2026-01-23 22:27:21.42	40.11	9.39	-30.7	-33.2	11.5	7.30e-04	0	42	102	1048576	21	4782
2026-01-23 22:27:22.43	40.24	9.44	-30.8	-33.5	11.3	1.00e-03	0	42	102	1048576	21	4904
2026-01-23 22:27:23.43	40.38	9.50	-30.8	-33.5	11.3	1.53e-03	0	43	102	1048576	21	4919
2026-01-23 22:27:24.43	40.51	9.55	-30.7	-33.2	11.5	1.02e-03	0	43	102	1048576	21	4808
2026-01-23 22:27:25.43	40.65	9.61	-30.7	-33.2	11.5	7.31e-04	0	43	102	1048576	21	4793
2026-01-23 22:27:26.43	40.78	9.66	-30.7	-33.2	11.6	7.16e-04	0	43	102	1048576	21	4780
2026-01-23 22:27:27.42	40.92	9.71	-30.7	-33.1	11.6	8.34e-04	0	43	102	1048576	21	4764
2026-01-23 22:27:28.42	41.06	9.77	-30.5	-32.5	12.0	3.58e-04	0	43	102	1048576	21	4546
2026-01-23 22:27:29.42	41.19	9.82	-30.4	-32.2	12.3	2.70e-04	0	43	102	1048576	21	4436
2026-01-23 22:27:30.42	41.33	9.88	-30.3	-32.0	12.3	2.16e-04	0	42	102	1048576	21	4377
2026-01-23 22:27:31.43	41.47	9.93	-30.3	-31.9	12.4	1.50e-04	0	43	102	1048576	21	4344
2026-01-23 22:27:32.43	41.61	9.99	-30.2	-31.8	12.5	1.37e-04	0	43	102	1048576	21	4298
2026-01-23 22:27:33.43	41.75	10.04	-30.3	-32.0	12.3	1.43e-04	0	43	102	1048576	21	4380
2026-01-23 22:27:34.44	41.89	10.10	-30.3	-32.1	12.3	2.71e-04	0	43	102	1048576	21	4416
2026-01-23 22:27:35.44	42.03	10.15	-30.2	-31.6	12.6	9.61e-05	0	43	102	1048576	21	4250
2026-01-23 22:27:36.44	42.17	10.20	-30.2	-31.6	12.6	7.47e-05	0	43	102	1048576	21	4238
2026-01-23 22:27:37.45	42.32	10.26	-30.1	-31.5	12.7	1.28e-04	0	43	102	1048576	21	4203
2026-01-23 22:27:38.44	42.46	10.31	-30.2	-31.7	12.6	7.55e-05	0	43	102	1048576	21	4280
2026-01-23 22:27:39.45	42.60	10.37	-30.1	-31.4	12.8	2.30e-04	0	43	102	1048576	21	4188
2026-01-23 22:27:40.45	42.74	10.42	-30.0	-31.5	13.1	2.17e-04	0	43	102	1048576	20	4284
2026-01-23 22:27:41.46	42.89	10.47	-29.8	-31.1	13.3	2.28e-05	0	43	102	1048576	20	4170
2026-01-23 22:27:42.46	43.03	10.53	-29.8	-31.0	13.4	1.29e-05	0	43	102	1048576	20	4143
2026-01-23 22:27:43.46	43.18	10.58	-29.8	-30.9	13.5	2.05e-05	0	43	102	1048576	20	4100
2026-01-23 22:27:44.47	43.32	10.64	-29.6	-30.6	13.7	8.30e-06	0	43	102	1048576	20	4005
2026-01-23 22:27:45.47	43.47	10.69	-29.6	-30.6	13.7	1.44e-05	0	43	102	1048576	20	4010
2026-01-23 22:27:46.47	43.61	10.74	-29.5	-30.2	13.9	6.80e-06	0	43	102	1048576	20	3901
2026-01-23 22:27:47.48	43.76	10.80	-29.6	-30.5	13.7	2.20e-06	0	43	102	1048576	20	3983
2026-01-23 22:27:48.48	43.91	10.85	-29.7	-30.8	13.6	6.10e-06	0	43	102	1048576	20	4066
2026-01-23 22:27:49.49	44.06	10.91	-29.8	-31.0	13.4	1.44e-05	0	43	102	1048576	20	4124
2026-01-23 22:27:50.49	44.21	10.96	-30.0	-31.5	13.1	1.75e-05	0	43	102	1048576	20	4286
2026-01-23 22:27:51.49	44.36	11.01	-30.0	-31.7	13.0	3.05e-05	0	43	102	1048576	20	4341
2026-01-23 22:27:52.50	44.51	11.07	-30.2	-32.0	12.6	6.48e-05	0	43	102	1048576	20	4469
2026-01-23 22:27:53.51	44.66	11.12	-30.1	-31.9	12.8	5.34e-05	0	43	102	1048576	20	4433
2026-01-23 22:27:54.52	44.81	11.18	-30.1	-31.8	12.8	1.61e-04	0	43	102	1048576	20	4402
2026-01-23 22:27:55.52	44.96	11.23	-30.0	-31.6	13.0	2.89e-05	0	43	102	1048576	20	4326
2026-01-23 22:27:56.52	45.11	11.28	-29.8	-31.1	13.3	1.90e-05	0	43	102	1048576	20	4177
2026-01-23 22:27:57.53	45.27	11.34	-29.8	-31.0	13.5	6.25e-05	0	43	102	1048576	20	4150
2026-01-23 22:27:58.53	45.42	11.39	-29.9	-31.6	13.4	1.37e-05	0	43	102	1048576	19	4418
2026-01-23 22:27:59.53	45.57	11.44	-29.8	-31.6	13.4	9.90e-06	0	43	102	1048576	19	4411
2026-01-23 22:28:00.53	45.72	11.49	-29.9	-31.8	13.3	2.28e-05	0	43	102	1048576	19	4485
2026-01-23 22:28:01.54	45.88	11.55	-29.9	-31.4	13.2	2.89e-05	0	43	102	1048576	20	4264
2026-01-23 22:28:02.54	46.03	11.60	-29.8	-31.1	13.3	1.75e-05	0	43	102	1048576	20	4168
2026-01-23 22:28:03.54	46.19	11.65	-29.8	-30.9	13.5	1.29e-05	0	43	102	1048576	20	4111
2026-01-23 22:28:04.55	46.35	11.71	-29.9	-31.3	13.3	1.67e-05	0	43	102	1048576	20	4217
2026-01-23 22:28:05.55	46.50	11.76	-29.8	-31.1	13.4	1.83e-05	0	43	102	1048576	20	4163
2026-01-23 22:28:06.55	46.66	11.81	-29.9	-31.2	13.3	1.83e-05	0	43	102	1048576	20	4205
2026-01-23 22:28:07.55	46.82	11.86	-29.8	-31.0	13.5	1.98e-05	0	43	102	1048576	20	4134
2026-01-23 22:28:08.56	46.98	11.92	-29.9	-31.3	13.3	1.98e-05	0	43	102	1048576	20	4218
2026-01-23 22:28:09.56	47.14	11.97	-29.9	-31.2	13.4	1.29e-05	0	43	102	1048576	20	4178
2026-01-23 22:28:10.56	47.29	12.02	-29.9	-31.2	13.3	1.29e-05	0	43	102	1048576	20	4193
2026-01-23 22:28:11.57	47.46	12.07	-29.9	-31.3	13.2	1.83e-05	0	43	102	1048576	20	4236
2026-01-23 22:28:12.57	47.62	12.13	-29.9	-31.4	13.2	2.21e-05	0	43	102	1048576	20	4242
2026-01-23 22:28:13.57	47.78	12.18	-29.9	-31.4	13.2	2.51e-05	0	43	102	1048576	20	4243
2026-01-23 22:28:14.58	47.94	12.23	-30.0	-31.4	13.2	2.51e-05	0	43	102	1048576	20	4265
2026-01-23 22:28:15.58	48.10	12.28	-30.0	-31.7	13.0	1.33e-04	0	43	102	1048576	20	4335
2026-01-23 22:28:16.58	48.26	12.33	-29.9	-31.2	13.4	1.90e-05	0	43	102	1048576	20	4186
2026-01-23 22:28:17.58	48.43	12.39	-29.9	-31.2	13.3	1.67e-05	0	43	102	1048576	20	4202
2026-01-23 22:28:18.58	48.59	12.44	-30.0	-31.6	13.1	1.75e-05	0	43	102	1048576	20	4308
2026-01-23 22:28:19.58	48.75	12.49	-29.9	-31.2	13.4	1.75e-05	0	43	102	1048576	20	4204
2026-01-23 22:28:20.58	48.92	12.54	-29.9	-31.2	13.3	1.67e-05	0	43	102	1048576	20	4197
2026-01-23 22:28:21.58	49.08	12.59	-30.0	-31.4	13.2	1.52e-05	0	43	102	1048576	20	4248
2026-01-23 22:28:22.58	49.25	12.64	-30.0	-31.6	13.0	2.67e-05	0	43	102	1048576	20	4318
2026-01-23 22:28:23.59	49.42	12.69	-30.1	-31.7	13.1	2.97e-05	0	43	102	1048576	20	4330
2026-01-23 22:28:24.60	49.59	12.74	-30.0	-31.6	13.1	2.44e-05	0	43	102	1048576	20	4322
2026-01-23 22:28:25.61	49.75	12.80	-30.1	-31.8	12.9	3.35e-05	0	43	102	1048576	20	4358
2026-01-23 22:28:26.61	49.92	12.85	-30.2	-32.1	12.8	1.01e-04	0	43	102	1048576	20	4476
2026-01-23 22:28:27.61	50.09	12.90	-30.3	-32.5	12.5	1.16e-04	0	43	102	1048576	20	4611
2026-01-23 22:28:28.61	50.26	12.95	-30.2	-32.1	12.8	7.24e-05	0	43	102	1048576	20	4483
2026-01-23 22:28:29.62	50.43	13.00	-30.3	-32.2	12.7	8.46e-05	0	43	102	1048576	20	4498
2026-01-23 22:28:30.62	50.60	13.05	-30.3	-32.4	12.7	7.09e-05	0	43	102	1048576	20	4562
2026-01-23 22:28:31.62	50.77	13.10	-30.2	-32.1	12.8	8.62e-05	0	43	102	1048576	20	4483
2026-01-23 22:28:32.63	50.94	13.15	-30.1	-31.7	13.1	8.85e-05	0	43	102	1048576	20	4350
2026-01-23 22:28:33.63	51.12	13.20	-30.2	-32.0	12.9	6.33e-05	0	43	102	1048576	20	4432
2026-01-23 22:28:34.64	51.29	13.25	-30.2	-32.2	12.7	5.41e-05	0	43	102	1048576	20	4497
2026-01-23 22:28:35.64	51.46	13.30	-30.2	-32.0	12.9	6.25e-05	0	43	102	1048576	20	4446
2026-01-23 22:28:36.64	51.64	13.35	-30.4	-32.6	12.5	1.01e-04	0	43	102	1048576	20	4646
2026-01-23 22:28:37.64	51.81	13.40	-30.4	-32.7	12.5	1.34e-04	0	43	102	1048576	20	4656
2026-01-23 22:28:38.64	51.99	13.45	-30.5	-32.3	12.3	1.20e-04	0	43	102	1048576	21	4446
2026-01-23 22:28:39.64	52.16	13.49	-30.5	-32.5	12.3	2.42e-04	0	43	102	1048576	21	4514
2026-01-23 22:28:40.65	52.34	13.54	-30.7	-33.1	11.9	2.22e-04	0	43	102	1048576	21	4723
2026-01-23 22:28:41.66	52.52	13.59	-30.6	-32.7	12.1	4.46e-04	0	43	102	1048576	21	4583
2026-01-23 22:28:42.66	52.69	13.64	-30.6	-32.6	12.2	5.98e-04	0	43	102	1048576	21	4531
2026-01-23 22:28:43.67	52.87	13.69	-30.6	-32.6	12.2	2.91e-04	0	43	102	1048576	21	4542
2026-01-23 22:28:44.67	53.05	13.74	-30.6	-32.7	12.2	5.72e-04	0	43	102	1048576	21	4572
2026-01-23 22:28:45.68	53.23	13.79	-30.6	-32.5	12.3	6.16e-04	0	43	102	1048576	21	4514
2026-01-23 22:28:46.68	53.41	13.83	-30.6	-32.7	12.1	1.98e-04	0	44	102	1048576	21	4578
2026-01-23 22:28:47.68	53.59	13.88	-30.6	-32.6	12.1	4.60e-04	0	44	102	1048576	21	4526
2026-01-23 22:28:48.69	53.77	13.93	-30.7	-32.8	12.0	4.53e-04	0	43	102	1048576	21	4622
2026-01-23 22:28:49.69	53.95	13.98	-30.6	-32.8	12.1	3.55e-04	0	43	102	1048576	21	4597
2026-01-23 22:28:50.70	54.14	14.03	-30.6	-32.6	12.2	4.44e-04	0	44	102	1048576	21	4522
2026-01-23 22:28:51.70	54.32	14.07	-30.4	-32.1	12.6	3.62e-04	0	43	102	1048576	21	4380
2026-01-23 22:28:52.71	54.50	14.12	-30.5	-32.2	12.5	1.17e-04	0	43	102	1048576	21	4402
2026-01-23 22:28:53.72	54.69	14.17	-30.6	-32.7	12.1	2.11e-04	0	44	102	1048576	21	4571
2026-01-23 22:28:54.72	54.87	14.21	-30.7	-32.8	12.0	3.29e-04	0	43	102	1048576	21	4621
2026-01-23 22:28:55.72	55.06	14.26	-30.6	-32.8	12.1	2.86e-04	0	44	102	1048576	21	4600
2026-01-23 22:28:56.72	55.24	14.31	-30.6	-32.8	12.1	6.16e-04	0	44	102	1048576	21	4595
2026-01-23 22:28:57.72	55.43	14.35	-30.6	-32.6	12.2	7.32e-04	0	43	102	1048576	21	4550
2026-01-23 22:28:58.73	55.61	14.40	-30.5	-32.3	12.4	1.62e-04	0	44	102	1048576	21	4442
2026-01-23 22:28:59.73	55.80	14.44	-30.4	-32.1	12.5	1.41e-04	0	44	102	1048576	21	4370
2026-01-23 22:29:00.74	55.99	14.49	-30.5	-32.2	12.6	3.85e-04	0	44	102	1048576	21	4410
2026-01-23 22:29:01.74	56.18	14.53	-30.5	-32.3	12.4	8.92e-05	0	43	102	1048576	21	4434
2026-01-23 22:29:02.75	56.37	14.58	-30.6	-32.6	12.3	1.94e-04	0	43	102	1048576	21	4531
2026-01-23 22:29:03.75	56.56	14.62	-30.6	-32.7	12.2	2.50e-04	0	44	102	1048576	21	4554
2026-01-23 22:29:04.76	56.75	14.67	-30.7	-33.0	12.0	2.46e-04	0	43	102	1048576	21	4683
2026-01-23 22:29:05.76	56.94	14.71	-30.7	-33.0	11.9	3.52e-04	0	43	102	1048576	21	4695
2026-01-23 22:29:06.77	57.13	14.76	-30.7	-33.0	12.0	4.26e-04	0	43	102	1048576	21	4689
2026-01-23 22:29:07.77	57.32	14.80	-30.7	-33.0	12.0	3.95e-04	0	43	102	1048576	21	4666
2026-01-23 22:29:08.77	57.51	14.85	-30.7	-32.9	12.0	9.31e-04	0	43	102	1048576	21	4648
2026-01-23 22:29:09.78	57.71	14.89	-30.8	-33.2	11.9	2.48e-04	0	44	102	1048576	21	4732
2026-01-23 22:29:10.78	57.90	14.93	-30.8	-33.3	11.8	4.42e-04	0	44	102	1048576	21	4778
2026-01-23 22:29:11.79	58.09	14.98	-30.9	-33.4	11.7	8.73e-04	0	44	102	1048576	21	4821
2026-01-23 22:29:12.79	58.29	15.02	-30.9	-33.4	11.8	6.96e-04	0	43	102	1048576	21	4810
2026-01-23 22:29:13.80	58.48	15.06	-31.0	-33.2	11.4	8.35e-04	0	44	102	1048576	22	4669
2026-01-23 22:29:14.80	58.68	15.11	-31.1	-33.6	11.2	1.48e-03	0	44	102	1048576	22	4807
2026-01-23 22:29:15.80	58.88	15.15	-31.1	-33.5	11.3	1.27e-03	0	44	102	1048576	22	4764
2026-01-23 22:29:16.81	59.07	15.19	-30.9	-32.9	11.6	6.82e-04	0	43	102	1048576	22	4562
2026-01-23 22:29:17.81	59.27	15.23	-30.7	-32.3	12.1	4.52e-04	0	43	102	1048576	22	4346
2026-01-23 22:29:18.81	59.47	15.27	-30.8	-33.1	11.9	7.24e-04	0	43	102	1048576	21	4699
2026-01-23 22:29:19.82	59.67	15.31	-30.7	-32.7	12.1	2.78e-04	0	44	102	1048576	21	4578
2026-01-23 22:29:20.83	59.87	15.36	-30.7	-32.7	12.2	2.12e-04	0	44	102	1048576	21	4571
2026-01-23 22:29:21.83	60.06	15.40	-30.8	-33.2	12.0	4.20e-04	0	43	102	1048576	21	4731
2026-01-23 22:29:22.83	60.26	15.44	-30.8	-33.2	11.8	4.48e-04	0	44	102	1048576	21	4751
2026-01-23 22:29:23.83	60.46	15.48	-30.8	-33.3	11.9	3.96e-04	0	43	102	1048576	21	4764
2026-01-23 22:29:24.83	60.66	15.52	-31.1	-33.7	11.2	7.69e-04	0	44	102	1048576	22	4827
2026-01-23 22:29:25.83	60.86	15.56	-30.9	-33.1	11.6	1.09e-03	0	44	102	1048576	22	4604
2026-01-23 22:29:26.83	61.07	15.60	-30.7	-32.4	12.2	2.90e-04	0	44	102	1048576	22	4366
2026-01-23 22:29:27.83	61.27	15.63	-30.5	-31.7	12.6	1.36e-04	0	44	102	1048576	22	4157
2026-01-23 22:29:28.83	61.47	15.67	-30.3	-31.3	12.9	5.72e-05	0	43	102	1048576	22	4006
2026-01-23 22:29:29.84	61.67	15.71	-30.3	-31.8	12.8	4.88e-05	0	43	102	1048576	21	4267
2026-01-23 22:29:30.85	61.88	15.75	-30.2	-31.6	13.0	4.34e-05	0	44	102	1048576	21	4192
2026-01-23 22:29:31.85	62.08	15.79	-30.3	-31.7	13.0	2.67e-05	0	44	102	1048576	21	4220
2026-01-23 22:29:32.86	62.29	15.83	-30.2	-31.5	13.0	2.82e-05	0	44	102	1048576	21	4160
2026-01-23 22:29:33.87	62.50	15.86	-30.2	-31.4	13.2	1.37e-05	0	44	102	1048576	21	4128
2026-01-23 22:29:34.87	62.70	15.90	-30.0	-30.9	13.4	1.14e-05	0	44	102	1048576	21	4005
2026-01-23 22:29:35.88	62.91	15.94	-30.0	-30.8	13.4	1.29e-05	0	43	102	1048576	21	3973
2026-01-23 22:29:36.89	63.12	15.98	-30.0	-31.4	13.4	1.29e-05	0	44	102	1048576	20	4241
2026-01-23 22:29:37.89	63.33	16.01	-29.9	-31.2	13.2	6.80e-06	0	44	102	1048576	20	4177
2026-01-23 22:29:38.89	63.53	16.05	-29.9	-31.2	13.6	8.30e-06	0	44	102	1048576	20	4175
2026-01-23 22:29:39.89	63.74	16.08	-29.9	-31.2	13.6	9.10e-06	0	44	102	1048576	20	4151
2026-01-23 22:29:40.90	63.95	16.12	-29.9	-31.2	13.3	9.10e-06	0	44	102	1048576	20	4163
2026-01-23 22:29:41.90	64.16	16.15	-30.0	-31.4	13.3	1.52e-05	0	44	102	1048576	20	4231
2026-01-23 22:29:42.91	64.37	16.19	-30.2	-31.9	13.1	2.89e-05	0	43	102	1048576	20	4373
2026-01-23 22:29:43.91	64.58	16.22	-30.0	-31.4	13.4	1.98e-05	0	44	102	1048576	20	4222
2026-01-23 22:29:44.91	64.79	16.26	-29.9	-31.2	13.6	3.80e-06	0	44	102	1048576	20	4157
2026-01-23 22:29:45.92	65.00	16.29	-29.9	-31.2	13.6	4.50e-06	0	43	102	1048576	20	4163
2026-01-23 22:29:46.92	65.22	16.33	-29.9	-31.1	13.7	1.06e-05	0	44	102	1048576	20	4147
2026-01-23 22:29:47.93	65.43	16.36	-30.1	-31.6	13.3	8.30e-06	0	44	102	1048576	20	4293
2026-01-23 22:29:48.93	65.64	16.39	-30.1	-31.7	13.3	2.05e-05	0	43	102	1048576	20	4311
2026-01-23 22:29:49.94	65.86	16.42	-30.4	-32.5	12.9	3.01e-04	0	43	102	1048576	20	4574
2026-01-23 22:29:50.95	66.07	16.46	-30.5	-32.2	12.6	9.00e-05	0	44	102	1048576	21	4392
2026-01-23 22:29:51.95	66.28	16.49	-30.8	-33.1	11.9	1.46e-04	0	44	102	1048576	21	4709
2026-01-23 22:29:52.95	66.50	16.52	-30.7	-32.7	12.3	5.13e-04	0	43	102	1048576	21	4575
2026-01-23 22:29:53.95	66.71	16.55	-30.4	-32.6	12.6	4.23e-04	0	44	102	1048576	20	4636
2026-01-23 22:29:54.95	66.93	16.58	-30.4	-32.6	12.7	8.54e-05	0	44	102	1048576	20	4604
2026-01-23 22:29:55.96	67.15	16.61	-30.4	-32.1	12.7	7.70e-05	0	44	102	1048576	21	4346
2026-01-23 22:29:56.96	67.36	16.64	-30.6	-32.6	12.4	5.10e-04	0	43	102	1048576	21	4532
2026-01-23 22:29:57.97	67.58	16.67	-30.4	-32.0	12.8	8.16e-05	0	44	102	1048576	21	4312
2026-01-23 22:29:58.97	67.80	16.70	-30.3	-32.2	13.0	4.04e-05	0	44	102	1048576	20	4473
2026-01-23 22:29:59.97	68.01	16.73	-30.1	-31.6	13.3	3.72e-04	0	43	102	1048576	20	4298
2026-01-23 22:30:00.97	68.23	16.76	-30.0	-31.4	13.5	1.67e-05	0	44	102	1048576	20	4227
2026-01-23 22:30:01.98	68.45	16.79	-30.1	-31.7	13.3	1.06e-05	0	44	102	1048576	20	4320
2026-01-23 22:30:02.99	68.67	16.82	-29.9	-31.1	13.7	1.60e-05	0	44	102	1048576	20	4135
2026-01-23 22:30:03.99	68.89	16.84	-29.9	-31.2	13.6	2.20e-06	0	44	102	1048576	20	4178
2026-01-23 22:30:05.00	69.11	16.87	-30.1	-31.7	13.3	5.95e-05	0	44	102	1048576	20	4321
2026-01-23 22:30:06.00	69.33	16.90	-30.6	-32.5	12.4	4.19e-05	0	44	102	1048576	21	4481
2026-01-23 22:30:07.01	69.55	16.93	-30.5	-32.3	12.6	1.17e-04	0	44	102	1048576	21	4433
2026-01-23 22:30:08.01	69.77	16.95	-30.4	-32.1	12.7	1.80e-04	0	44	102	1048576	21	4349
2026-01-23 22:30:09.02	69.99	16.98	-30.3	-31.6	13.1	4.19e-05	0	44	102	1048576	21	4203
2026-01-23 22:30:10.03	70.22	17.00	-30.3	-31.6	13.0	3.96e-05	0	44	102	1048576	21	4210
2026-01-23 22:30:11.03	70.44	17.03	-30.2	-31.4	13.2	1.50e-04	0	44	102	1048576	21	4148
2026-01-23 22:30:12.03	70.66	17.05	-30.4	-31.9	12.9	1.07e-04	0	44	102	1048576	21	4290
2026-01-23 22:30:13.03	70.88	17.08	-30.3	-31.7	12.9	5.11e-05	0	44	102	1048576	21	4221
2026-01-23 22:30:14.04	71.11	17.10	-30.3	-31.6	13.0	2.47e-04	0	43	102	1048576	21	4214
2026-01-23 22:30:15.04	71.33	17.13	-30.4	-31.9	12.8	3.13e-04	0	44	102	1048576	21	4302
2026-01-23 22:30:16.05	71.55	17.15	-30.2	-31.2	13.4	4.50e-05	0	44	102	1048576	21	4076
2026-01-23 22:30:17.05	71.78	17.17	-29.9	-30.6	13.7	6.79e-05	0	44	102	1048576	21	3900
2026-01-23 22:30:18.05	72.00	17.19	-29.7	-30.5	14.1	2.67e-05	0	44	102	1048576	20	3963
2026-01-23 22:30:19.06	72.23	17.22	-29.7	-30.5	14.1	1.50e-06	0	44	102	1048576	20	3959
2026-01-23 22:30:20.07	72.45	17.24	-29.7	-30.5	14.1	1.12e-04	0	44	102	1048576	20	3970
2026-01-23 22:30:21.07	72.68	17.26	-29.9	-31.0	13.8	1.93e-04	0	44	102	1048576	20	4094
2026-01-23 22:30:22.08	72.90	17.28	-29.9	-31.1	13.7	9.10e-06	0	44	102	1048576	20	4131
2026-01-23 22:30:23.08	73.13	17.30	-30.1	-31.6	13.4	3.26e-04	0	44	102	1048576	20	4278
2026-01-23 22:30:24.09	73.36	17.32	-30.0	-31.4	13.5	2.87e-04	0	44	102	1048576	20	4215
2026-01-23 22:30:25.10	73.59	17.34	-29.9	-31.0	13.7	2.20e-06	0	44	102	1048576	20	4106
2026-01-23 22:30:26.10	73.81	17.36	-29.8	-30.9	13.9	1.98e-04	0	44	102	1048576	20	4055
2026-01-23 22:30:27.11	74.04	17.38	-30.0	-31.5	13.5	3.00e-06	0	44	102	1048576	20	4243
2026-01-23 22:30:28.12	74.27	17.39	-30.2	-31.8	13.2	1.75e-05	0	44	102	1048576	20	4351
2026-01-23 22:30:29.12	74.50	17.41	-30.2	-32.0	13.2	2.76e-04	0	44	102	1048576	20	4399
2026-01-23 22:30:30.13	74.73	17.43	-30.6	-32.5	12.5	8.39e-05	0	44	102	1048576	21	4489
2026-01-23 22:30:31.13	74.95	17.45	-30.7	-33.0	12.1	2.49e-04	0	44	102	1048576	21	4663
2026-01-23 22:30:32.13	75.18	17.46	-30.9	-33.6	11.7	5.39e-04	0	44	102	1048576	21	4878
2026-01-23 22:30:33.13	75.41	17.48	-31.0	-33.6	11.7	6.68e-04	0	44	102	1048576	21	4898
2026-01-23 22:30:34.14	75.64	17.50	-30.7	-33.0	12.0	3.75e-04	0	44	102	1048576	21	4654
2026-01-23 22:30:35.15	75.87	17.51	-30.7	-32.7	12.3	2.40e-04	0	44	102	1048576	21	4562
2026-01-23 22:30:36.15	76.10	17.53	-30.8	-33.0	12.2	2.43e-04	0	44	102	1048576	21	4653
2026-01-23 22:30:37.16	76.33	17.54	-30.9	-33.4	11.8	2.71e-04	0	44	102	1048576	21	4810
2026-01-23 22:30:38.16	76.56	17.55	-30.8	-33.2	12.0	3.76e-04	0	44	102	1048576	21	4752
2026-01-23 22:30:39.16	76.79	17.57	-30.9	-33.4	11.8	4.43e-04	0	44	102	1048576	21	4803
2026-01-23 22:30:40.17	77.02	17.58	-30.9	-33.3	11.9	3.48e-04	0	44	102	1048576	21	4766
2026-01-23 22:30:41.17	77.25	17.59	-30.7	-32.9	12.2	2.81e-04	0	44	102	1048576	21	4627
2026-01-23 22:30:42.17	77.48	17.61	-30.7	-32.7	12.3	4.62e-04	0	44	102	1048576	21	4569
2026-01-23 22:30:43.18	77.71	17.62	-30.8	-33.0	12.1	1.80e-04	0	44	102	1048576	21	4669
2026-01-23 22:30:44.18	77.94	17.63	-30.8	-33.3	11.8	4.28e-04	0	44	102	1048576	21	4765
2026-01-23 22:30:45.18	78.17	17.64	-30.7	-32.8	12.2	2.46e-04	0	44	102	1048576	21	4578
2026-01-23 22:30:46.19	78.40	17.65	-30.8	-33.1	12.0	2.23e-04	0	44	102	1048576	21	4694
2026-01-23 22:30:47.19	78.63	17.66	-30.6	-32.5	12.4	1.69e-04	0	44	102	1048576	21	4504
2026-01-23 22:30:48.19	78.87	17.67	-30.5	-32.2	12.6	1.19e-04	0	44	102	1048576	21	4400
2026-01-23 22:30:49.20	79.10	17.68	-30.4	-31.9	12.8	6.86e-05	0	44	102	1048576	21	4304
2026-01-23 22:30:50.21	79.33	17.69	-30.4	-32.1	12.7	7.78e-05	0	44	102	1048576	21	4339
2026-01-23 22:30:51.21	79.56	17.70	-30.4	-32.0	12.8	6.10e-05	0	44	102	1048576	21	4331
2026-01-23 22:30:52.22	79.80	17.70	-30.4	-32.0	12.8	5.26e-05	0	44	102	1048576	21	4335
2026-01-23 22:30:53.22	80.03	17.71	-30.4	-32.1	12.7	6.17e-05	0	44	102	1048576	21	4343
2026-01-23 22:30:54.23	80.26	17.72	-30.6	-32.6	12.3	1.33e-04	0	44	102	1048576	21	4538
2026-01-23 22:30:55.24	80.50	17.72	-30.5	-32.2	12.7	1.03e-04	0	44	102	1048576	21	4386
2026-01-23 22:30:56.25	80.73	17.73	-30.2	-31.5	13.1	4.73e-05	0	44	102	1048576	21	4174
2026-01-23 22:30:57.25	80.96	17.73	-30.2	-31.3	13.2	2.36e-05	0	44	102	1048576	21	4105
2026-01-23 22:30:58.25	81.19	17.74	-30.2	-31.4	13.2	2.36e-05	0	44	102	1048576	21	4141
2026-01-23 22:30:59.26	81.43	17.74	-30.2	-31.5	13.1	1.83e-05	0	44	102	1048576	21	4163
2026-01-23 22:31:00.26	81.66	17.75	-30.2	-31.5	13.1	2.82e-05	0	44	102	1048576	21	4166
2026-01-23 22:31:01.26	81.89	17.75	-30.4	-32.0	12.7	4.04e-05	0	44	102	1048576	21	4339
2026-01-23 22:31:02.26	82.13	17.76	-30.5	-32.2	12.7	6.40e-05	0	44	102	1048576	21	4380
2026-01-23 22:31:03.27	82.36	17.76	-30.5	-32.2	12.6	8.54e-05	0	44	102	1048576	21	4385
2026-01-23 22:31:04.27	82.59	17.76	-30.3	-31.6	13.0	4.57e-05	0	44	102	1048576	21	4214
2026-01-23 22:31:05.28	82.83	17.76	-30.3	-31.6	13.0	2.97e-05	0	44	102	1048576	21	4206
2026-01-23 22:31:06.28	83.06	17.76	-30.2	-31.3	13.2	4.80e-05	0	44	102	1048576	21	4122
2026-01-23 22:31:07.28	83.29	17.76	-29.9	-30.7	13.6	7.60e-06	0	44	102	1048576	21	3935
2026-01-23 22:31:08.28	83.52	17.77	-29.9	-30.6	13.6	8.30e-06	0	44	102	1048576	21	3899
2026-01-23 22:31:09.29	83.76	17.77	-30.0	-30.8	13.6	4.50e-06	0	44	102	1048576	21	3949
2026-01-23 22:31:10.29	83.99	17.76	-30.1	-31.1	13.3	1.05e-04	0	44	102	1048576	21	4057
2026-01-23 22:31:11.30	84.23	17.76	-30.2	-31.4	13.1	1.90e-05	0	44	102	1048576	21	4130
2026-01-23 22:31:12.30	84.46	17.76	-30.2	-31.6	13.1	3.28e-05	0	44	102	1048576	21	4193
2026-01-23 22:31:13.31	84.69	17.76	-30.3	-31.8	12.9	4.27e-05	0	44	102	1048576	21	4268
2026-01-23 22:31:14.31	84.93	17.76	-30.4	-31.9	12.9	1.32e-04	0	44	102	1048576	21	4283
2026-01-23 22:31:15.31	85.16	17.76	-30.4	-32.0	12.8	5.79e-05	0	44	102	1048576	21	4341
2026-01-23 22:31:16.32	85.39	17.75	-30.5	-32.2	12.6	6.79e-05	0	44	102	1048576	21	4394
2026-01-23 22:31:17.33	85.63	17.75	-30.6	-32.6	12.4	1.88e-04	0	44	102	1048576	21	4534
2026-01-23 22:31:18.33	85.86	17.75	-30.7	-32.8	12.2	1.99e-04	0	44	102	1048576	21	4591
2026-01-23 22:31:19.33	86.09	17.74	-30.8	-33.1	12.0	2.22e-04	0	44	102	1048576	21	4707
2026-01-23 22:31:20.34	86.33	17.74	-30.8	-33.1	11.9	3.47e-04	0	44	102	1048576	21	4703
2026-01-23 22:31:21.34	86.56	17.73	-30.9	-33.4	11.8	4.88e-04	0	44	102	1048576	21	4840
2026-01-23 22:31:22.35	86.79	17.72	-30.9	-33.6	11.6	5.71e-04	0	44	102	1048576	21	4895
2026-01-23 22:31:23.36	87.03	17.72	-30.9	-33.6	11.6	6.01e-04	0	44	102	1048576	21	4888
2026-01-23 22:31:24.36	87.26	17.71	-31.1	-33.6	11.3	7.59e-04	0	44	102	1048576	22	4806
2026-01-23 22:31:25.37	87.49	17.70	-31.1	-33.6	11.3	1.37e-03	0	44	102	1048576	22	4811
2026-01-23 22:31:26.38	87.73	17.70	-30.9	-33.0	11.7	7.76e-04	0	44	102	1048576	22	4576
2026-01-23 22:31:27.39	87.96	17.69	-30.7	-32.5	12.0	3.08e-04	0	44	102	1048576	22	4410
2026-01-23 22:31:28.39	88.19	17.68	-30.6	-32.0	12.4	1.69e-04	0	44	102	1048576	22	4234
2026-01-23 22:31:29.39	88.42	17.67	-30.4	-31.5	12.7	7.47e-05	0	44	102	1048576	22	4100
2026-01-23 22:31:30.40	88.66	17.66	-30.4	-31.5	12.8	8.01e-05	0	44	102	1048576	22	4077
2026-01-23 22:31:31.40	88.89	17.65	-30.5	-31.7	12.6	8.39e-05	0	44	102	1048576	22	4154
2026-01-23 22:31:32.40	89.12	17.64	-30.4	-31.5	12.8	9.15e-05	0	44	102	1048576	22	4077
2026-01-23 22:31:33.41	89.35	17.63	-30.1	-31.1	13.3	4.34e-05	0	44	102	1048576	21	4050
2026-01-23 22:31:34.41	89.58	17.62	-30.0	-30.9	13.4	1.44e-05	0	44	102	1048576	21	3991
2026-01-23 22:31:35.42	89.81	17.61	-29.9	-30.7	13.6	1.22e-05	0	44	102	1048576	21	3936
2026-01-23 22:31:36.42	90.04	17.59	-30.1	-31.1	13.4	1.75e-05	0	44	102	1048576	21	4047
2026-01-23 22:31:37.42	90.27	17.58	-30.0	-31.0	13.3	1.83e-05	0	44	102	1048576	21	4016
2026-01-23 22:31:38.43	90.51	17.57	-30.3	-31.6	12.9	2.89e-05	0	44	102	1048576	21	4214
2026-01-23 22:31:39.43	90.74	17.55	-30.5	-32.4	12.5	5.72e-05	0	44	102	1048576	21	4479
2026-01-23 22:31:40.43	90.96	17.54	-30.7	-33.0	12.0	2.48e-04	0	44	102	1048576	21	4684
2026-01-23 22:31:41.44	91.20	17.53	-30.6	-32.7	12.3	1.85e-04	0	44	102	1048576	21	4551
2026-01-23 22:31:42.44	91.43	17.51	-30.5	-32.4	12.4	1.75e-04	0	44	102	1048576	21	4467
2026-01-23 22:31:43.45	91.66	17.50	-30.6	-32.5	12.3	1.16e-04	0	44	102	1048576	21	4493
2026-01-23 22:31:44.45	91.88	17.48	-30.5	-32.5	12.4	1.58e-04	0	44	102	1048576	21	4520
2026-01-23 22:31:45.46	92.12	17.46	-30.6	-32.6	12.3	1.81e-04	0	44	102	1048576	21	4533
2026-01-23 22:31:46.47	92.35	17.45	-30.5	-32.3	12.5	1.72e-04	0	44	102	1048576	21	4426
2026-01-23 22:31:47.47	92.57	17.43	-30.4	-32.0	12.6	1.20e-04	0	44	102	1048576	21	4353
2026-01-23 22:31:48.48	92.80	17.41	-30.3	-31.9	12.7	8.23e-05	0	44	102	1048576	21	4302
2026-01-23 22:31:49.49	93.03	17.40	-30.3	-31.8	12.8	5.95e-05	0	44	102	1048576	21	4273
2026-01-23 22:31:50.49	93.26	17.38	-30.3	-31.9	12.7	6.48e-05	0	44	102	1048576	21	4295
2026-01-23 22:31:51.50	93.49	17.36	-30.3	-31.9	12.7	1.01e-04	0	44	102	1048576	21	4311
2026-01-23 22:31:52.50	93.72	17.34	-30.3	-31.7	12.8	1.35e-04	0	44	102	1048576	21	4258
2026-01-23 22:31:53.51	93.94	17.32	-30.2	-31.6	12.9	5.11e-05	0	44	102	1048576	21	4204
2026-01-23 22:31:54.51	94.17	17.30	-30.3	-31.7	12.9	5.41e-05	0	44	102	1048576	21	4244
2026-01-23 22:31:55.52	94.40	17.28	-30.4	-32.1	12.6	9.99e-05	0	44	102	1048576	21	4384
2026-01-23 22:31:56.52	94.62	17.26	-30.3	-31.9	12.7	1.05e-04	0	44	102	1048576	21	4294
2026-01-23 22:31:57.53	94.85	17.24	-30.5	-32.2	12.5	9.84e-05	0	44	102	1048576	21	4410
2026-01-23 22:31:58.53	95.07	17.22	-30.5	-32.3	12.4	1.35e-04	0	44	102	1048576	21	4452
2026-01-23 22:31:59.54	95.30	17.19	-30.6	-32.7	12.2	1.66e-04	0	44	102	1048576	21	4586
2026-01-23 22:32:00.55	95.53	17.17	-30.6	-32.6	12.2	3.58e-04	0	44	102	1048576	21	4535
2026-01-23 22:32:01.56	95.75	17.15	-30.4	-31.9	12.7	1.52e-04	0	44	102	1048576	21	4319
2026-01-23 22:32:02.56	95.98	17.13	-30.2	-31.4	13.0	9.30e-05	0	44	102	1048576	21	4158
2026-01-23 22:32:03.57	96.20	17.10	-30.0	-31.1	13.2	3.28e-05	0	44	102	1048576	21	4053
2026-01-23 22:32:04.57	96.43	17.08	-30.1	-31.2	13.1	3.66e-05	0	44	102	1048576	21	4091
2026-01-23 22:32:05.58	96.65	17.05	-30.0	-30.9	13.3	1.60e-05	0	44	102	1048576	21	4015
2026-01-23 22:32:06.58	96.87	17.03	-30.2	-31.6	12.9	2.21e-05	0	44	102	1048576	21	4210
2026-01-23 22:32:07.59	97.10	17.00	-30.2	-31.5	12.9	7.17e-05	0	44	102	1048576	21	4176
2026-01-23 22:32:08.59	97.32	16.98	-30.0	-31.1	13.2	2.82e-05	0	44	102	1048576	21	4051
2026-01-23 22:32:09.60	97.54	16.95	-29.8	-30.5	13.6	2.59e-05	0	44	102	1048576	21	3875
2026-01-23 22:32:10.60	97.76	16.93	-29.6	-30.5	14.0	2.20e-06	0	44	102	1048576	20	3966
2026-01-23 22:32:11.60	97.98	16.90	-29.6	-30.4	14.0	6.10e-06	0	44	102	1048576	20	3931
2026-01-23 22:32:12.60	98.20	16.87	-29.7	-30.5	13.9	2.20e-06	0	44	102	1048576	20	3970
2026-01-23 22:32:13.60	98.42	16.84	-29.7	-30.6	13.8	3.80e-06	0	44	102	1048576	20	4006
2026-01-23 22:32:14.60	98.64	16.82	-29.6	-30.4	14.0	0.00e+00	0	44	102	1048576	20	3936
2026-01-23 22:32:15.60	98.86	16.79	-29.7	-30.7	13.7	3.00e-06	0	44	102	1048576	20	4041
2026-01-23 22:32:16.61	99.08	16.76	-29.7	-30.5	13.9	7.60e-06	0	44	102	1048576	20	3980
2026-01-23 22:32:17.62	99.30	16.73	-29.6	-30.3	14.1	3.80e-06	0	44	102	1048576	20	3899
2026-01-23 22:32:18.62	99.52	16.70	-29.6	-30.4	14.0	4.50e-06	0	44	102	1048576	20	3954
2026-01-23 22:32:19.63	99.74	16.67	-29.7	-30.5	14.0	3.80e-06	0	44	102	1048576	20	3973
2026-01-23 22:32:20.64	99.95	16.64	-29.7	-30.5	13.9	6.80e-06	0	44	102	1048576	20	3982
2026-01-23 22:32:21.64	100.17	16.61	-29.7	-30.6	13.9	6.10e-06	0	44	102	1048576	20	3997
2026-01-23 22:32:22.64	100.39	16.58	-29.8	-31.0	13.6	6.80e-06	0	44	102	1048576	20	4117
2026-01-23 22:32:23.65	100.60	16.55	-29.9	-31.1	13.5	6.80e-06	0	44	102	1048576	20	4141
2026-01-23 22:32:24.65	100.82	16.52	-29.8	-30.8	13.7	9.90e-06	0	44	102	1048576	20	4067
2026-01-23 22:32:25.65	101.03	16.49	-29.7	-30.6	13.8	4.50e-06	0	44	102	1048576	20	4001
2026-01-23 22:32:26.65	101.25	16.46	-29.6	-30.5	13.9	5.30e-06	0	44	102	1048576	20	3976
2026-01-23 22:32:27.66	101.46	16.42	-29.7	-30.5	13.9	3.80e-06	0	44	102	1048576	20	3984
2026-01-23 22:32:28.66	101.68	16.39	-29.8	-30.8	13.7	5.30e-06	0	44	102	1048576	20	4068
2026-01-23 22:32:29.67	101.89	16.36	-29.8	-31.3	13.8	7.60e-06	0	44	102	1048576	19	4299
2026-01-23 22:32:30.67	102.10	16.32	-29.9	-31.6	13.6	1.06e-05	0	44	102	1048576	19	4385
2026-01-23 22:32:31.67	102.32	16.29	-29.9	-31.7	13.5	9.10e-06	0	44	102	1048576	19	4430
2026-01-23 22:32:32.68	102.53	16.26	-30.0	-31.9	13.4	9.10e-06	0	44	102	1048576	19	4478
2026-01-23 22:32:33.69	102.74	16.22	-29.8	-30.9	13.6	1.29e-05	0	44	102	1048576	20	4106
2026-01-23 22:32:34.69	102.95	16.19	-29.7	-30.6	13.8	4.50e-06	0	44	102	1048576	20	4009
2026-01-23 22:32:35.69	103.16	16.15	-29.6	-30.5	13.9	3.00e-06	0	44	102	1048576	20	3964
2026-01-23 22:32:36.70	103.37	16.12	-29.5	-30.2	14.1	3.00e-06	0	44	102	1048576	20	3882
2026-01-23 22:32:37.70	103.58	16.08	-29.5	-30.1	14.2	7.00e-07	0	44	102	1048576	20	3860
2026-01-23 22:32:38.70	103.79	16.04	-29.5	-30.1	14.1	7.00e-07	0	44	102	1048576	20	3853
2026-01-23 22:32:39.70	104.00	16.01	-29.5	-30.3	14.0	7.00e-07	0	44	102	1048576	20	3906
2026-01-23 22:32:40.70	104.21	15.97	-29.8	-31.5	13.6	3.00e-06	0	44	102	1048576	19	4362
2026-01-23 22:32:41.71	104.42	15.93	-29.9	-31.6	13.6	6.10e-06	0	44	102	1048576	19	4406
2026-01-23 22:32:42.71	104.62	15.90	-29.9	-31.8	13.4	9.10e-06	0	44	102	1048576	19	4454
2026-01-23 22:32:43.71	104.83	15.86	-29.8	-31.3	13.7	9.90e-06	0	44	102	1048576	19	4314
2026-01-23 22:32:44.71	105.04	15.82	-29.8	-31.5	13.6	1.22e-05	0	44	102	1048576	19	4355
2026-01-23 22:32:45.72	105.24	15.78	-29.9	-31.6	13.6	3.80e-06	0	44	102	1048576	19	4386
2026-01-23 22:32:46.72	105.45	15.75	-29.8	-30.8	13.7	1.14e-05	0	44	102	1048576	20	4083
2026-01-23 22:32:47.72	105.65	15.71	-29.9	-31.2	13.5	4.50e-06	0	44	102	1048576	20	4185
2026-01-23 22:32:48.73	105.86	15.67	-29.4	-31.0	13.1	2.44e-05	0	44	102	1048576	20	4346
2026-01-23 22:32:49.74	106.06	15.63	-30.3	-32.4	12.6	4.27e-05	0	44	102	1048576	20	4587
2026-01-23 22:32:50.74	106.26	15.59	-30.4	-32.8	12.4	1.43e-04	0	44	102	1048576	20	4701
2026-01-23 22:32:51.75	106.47	15.55	-30.6	-32.9	12.0	2.01e-04	0	44	102	1048576	21	4645
2026-01-23 22:32:52.76	106.67	15.51	-30.7	-32.9	11.9	3.17e-04	0	44	102	1048576	21	4664
2026-01-23 22:32:53.76	106.87	15.47	-30.6	-32.7	12.0	3.46e-04	0	44	102	1048576	21	4601
2026-01-23 22:32:54.76	107.07	15.43	-30.4	-32.3	12.4	3.78e-04	0	44	102	1048576	21	4435
2026-01-23 22:32:55.76	107.27	15.39	-30.2	-31.7	12.7	2.07e-04	0	44	102	1048576	21	4245
2026-01-23 22:32:56.77	107.47	15.35	-30.1	-31.3	13.0	3.96e-05	0	44	102	1048576	21	4133
2026-01-23 22:32:57.78	107.67	15.31	-30.1	-31.2	13.0	1.59e-04	0	44	102	1048576	21	4108
2026-01-23 22:32:58.78	107.87	15.26	-30.2	-31.5	12.8	1.36e-04	0	44	102	1048576	21	4189
2026-01-23 22:32:59.78	108.07	15.22	-30.0	-31.1	13.1	4.11e-05	0	44	102	1048576	21	4054
2026-01-23 22:33:00.78	108.27	15.18	-30.0	-31.0	13.2	1.29e-05	0	44	102	1048576	21	4040
2026-01-23 22:33:01.78	108.46	15.14	-29.9	-31.3	13.3	7.85e-05	0	44	102	1048576	20	4217
2026-01-23 22:33:02.78	108.66	15.10	-30.0	-31.5	13.1	2.13e-05	0	44	102	1048576	20	4289
2026-01-23 22:33:03.78	108.86	15.05	-30.2	-32.0	12.8	9.30e-05	0	44	102	1048576	20	4435
2026-01-23 22:33:04.78	109.05	15.01	-30.1	-31.9	12.9	1.22e-04	0	44	102	1048576	20	4405
2026-01-23 22:33:05.79	109.25	14.97	-30.2	-32.0	12.8	4.11e-05	0	44	102	1048576	20	4437
2026-01-23 22:33:06.80	109.44	14.92	-30.2	-32.1	12.8	1.50e-04	0	44	102	1048576	20	4461
2026-01-23 22:33:07.81	109.64	14.88	-30.3	-32.2	12.7	1.33e-04	0	44	102	1048576	20	4522
2026-01-23 22:33:08.81	109.83	14.84	-30.6	-32.8	11.9	1.85e-04	0	44	102	1048576	21	4629
2026-01-23 22:33:09.82	110.03	14.79	-30.8	-33.2	11.6	4.74e-04	0	44	102	1048576	21	4792
2026-01-23 22:33:10.82	110.22	14.75	-31.0	-33.9	11.2	7.76e-04	0	44	102	1048576	21	5035
2026-01-23 22:33:11.83	110.41	14.70	-31.0	-33.6	11.1	2.01e-03	0	44	102	1048576	22	4816
2026-01-23 22:33:12.83	110.60	14.66	-31.1	-33.7	11.0	2.54e-03	0	44	102	1048576	22	4879
2026-01-23 22:33:13.84	110.79	14.61	-31.0	-33.6	11.0	2.54e-03	0	44	102	1048576	22	4825
2026-01-23 22:33:14.85	110.99	14.57	-31.0	-33.6	11.0	1.62e-03	0	44	102	1048576	22	4842
2026-01-23 22:33:15.85	111.17	14.52	-31.0	-33.7	11.0	2.08e-03	0	44	102	1048576	22	4865
2026-01-23 22:33:16.85	111.36	14.48	-30.8	-33.0	11.4	1.89e-03	0	44	102	1048576	22	4611
2026-01-23 22:33:17.86	111.55	14.43	-30.7	-32.4	11.9	4.51e-04	0	44	102	1048576	22	4417
2026-01-23 22:33:18.87	111.74	14.38	-30.4	-32.2	12.3	5.03e-04	0	44	102	1048576	21	4437
2026-01-23 22:33:19.88	111.93	14.34	-30.3	-31.9	12.6	6.13e-04	0	44	102	1048576	21	4320
2026-01-23 22:33:20.88	112.12	14.29	-30.4	-32.2	12.3	1.69e-04	0	44	102	1048576	21	4435
2026-01-23 22:33:21.88	112.30	14.24	-30.2	-31.6	12.7	2.18e-04	0	44	102	1048576	21	4232
2026-01-23 22:33:22.89	112.49	14.20	-30.2	-31.7	12.6	2.20e-04	0	44	102	1048576	21	4276
2026-01-23 22:33:23.90	112.68	14.15	-30.2	-31.7	12.6	1.11e-04	0	44	102	1048576	21	4270
2026-01-23 22:33:24.90	112.86	14.10	-30.2	-31.6	12.7	8.85e-05	0	44	102	1048576	21	4236
2026-01-23 22:33:25.91	113.04	14.05	-30.2	-31.7	12.6	7.01e-05	0	44	102	1048576	21	4272
2026-01-23 22:33:26.91	113.23	14.01	-30.3	-32.0	12.4	6.56e-05	0	44	102	1048576	21	4367
2026-01-23 22:33:27.92	113.41	13.96	-30.4	-32.3	12.2	1.97e-04	0	44	102	1048576	21	4471
2026-01-23 22:33:28.91	113.59	13.91	-30.6	-32.8	11.9	3.70e-04	0	44	102	1048576	21	4652
2026-01-23 22:33:29.92	113.77	13.86	-30.6	-32.7	11.9	4.61e-04	0	44	102	1048576	21	4595
2026-01-23 22:33:30.93	113.96	13.82	-30.6	-32.8	11.8	7.19e-04	0	44	102	1048576	21	4647
2026-01-23 22:33:31.93	114.14	13.77	-30.6	-32.8	11.8	3.84e-04	0	44	102	1048576	21	4657
2026-01-23 22:33:32.94	114.32	13.72	-30.7	-33.0	11.7	3.94e-04	0	44	102	1048576	21	4729
2026-01-23 22:33:33.94	114.50	13.67	-30.6	-32.8	11.8	5.82e-04	0	44	102	1048576	21	4637
2026-01-23 22:33:34.95	114.68	13.62	-30.6	-32.7	11.9	4.23e-04	0	44	102	1048576	21	4599
2026-01-23 22:33:35.95	114.85	13.57	-30.6	-33.0	11.7	3.97e-04	0	44	102	1048576	21	4701
2026-01-23 22:33:36.95	115.03	13.52	-30.7	-33.1	11.5	5.19e-04	0	44	102	1048576	21	4743
2026-01-23 22:33:37.96	115.21	13.47	-30.6	-32.9	11.7	5.38e-04	0	44	102	1048576	21	4701
2026-01-23 22:33:38.96	115.38	13.42	-30.5	-32.7	11.9	5.08e-04	0	44	102	1048576	21	4601
2026-01-23 22:33:39.96	115.56	13.37	-30.4	-32.2	12.1	3.08e-04	0	44	102	1048576	21	4443
2026-01-23 22:33:40.98	115.74	13.32	-30.3	-32.0	12.3	2.76e-04	0	44	102	1048576	21	4367
2026-01-23 22:33:41.98	115.91	13.27	-30.1	-31.5	12.6	1.37e-04	0	44	102	1048576	21	4231
2026-01-23 22:33:42.99	116.09	13.22	-30.4	-32.8	12.1	2.56e-04	0	44	102	1048576	20	4739
2026-01-23 22:33:43.99	116.26	13.17	-30.3	-32.6	12.2	3.23e-04	0	44	102	1048576	20	4663
2026-01-23 22:33:45.00	116.43	13.12	-30.5	-32.7	11.9	2.70e-04	0	44	102	1048576	21	4608
2026-01-23 22:33:46.00	116.61	13.07	-30.5	-32.7	11.8	7.79e-04	0	44	102	1048576	21	4605
2026-01-23 22:33:47.01	116.78	13.02	-30.7	-33.2	11.4	1.04e-03	0	44	102	1048576	21	4816
2026-01-23 22:33:48.01	116.95	12.97	-30.2	-32.7	11.4	9.56e-04	0	44	102	1048576	21	4779
2026-01-23 22:33:49.02	117.12	12.92	-30.8	-33.4	11.2	1.28e-03	0	44	102	1048576	21	4894
2026-01-23 22:33:50.02	117.29	12.87	-30.5	-32.7	11.8	1.14e-03	0	44	102	1048576	21	4637
2026-01-23 22:33:51.03	117.46	12.82	-30.5	-32.5	11.8	5.87e-04	0	44	102	1048576	21	4548
2026-01-23 22:33:52.02	117.63	12.77	-30.3	-32.4	12.3	2.37e-04	0	44	102	1048576	20	4599
2026-01-23 22:33:53.03	117.80	12.71	-30.2	-32.1	12.5	1.26e-04	0	44	102	1048576	20	4496
2026-01-23 22:33:54.03	117.97	12.66	-30.1	-31.8	12.7	9.38e-05	0	44	102	1048576	20	4399
2026-01-23 22:33:55.04	118.14	12.61	-30.0	-31.7	12.7	3.51e-04	0	44	102	1048576	20	4384
2026-01-23 22:33:56.04	118.30	12.56	-30.1	-31.9	12.7	6.86e-05	0	44	102	1048576	20	4430
2026-01-23 22:33:57.04	118.47	12.51	-30.0	-31.7	12.8	5.87e-05	0	44	102	1048576	20	4383
2026-01-23 22:33:58.05	118.63	12.46	-30.2	-32.2	12.5	3.76e-04	0	44	102	1048576	20	4532
2026-01-23 22:33:59.05	118.80	12.40	-30.1	-31.8	12.7	8.46e-05	0	44	102	1048576	20	4419
2026-01-23 22:34:00.06	118.96	12.35	-30.2	-32.1	12.5	8.77e-05	0	44	102	1048576	20	4514
2026-01-23 22:34:01.06	119.13	12.30	-30.2	-32.1	12.5	1.56e-04	0	44	102	1048576	20	4514
2026-01-23 22:34:02.06	119.29	12.25	-30.1	-31.8	12.7	1.02e-04	0	44	102	1048576	20	4417
2026-01-23 22:34:03.07	119.45	12.19	-30.2	-32.2	12.5	1.29e-04	0	44	102	1048576	20	4533
2026-01-23 22:34:04.07	119.62	12.14	-30.1	-32.0	12.6	1.47e-04	0	44	102	1048576	20	4465
2026-01-23 22:34:05.07	119.78	12.09	-30.3	-32.4	12.3	1.33e-04	0	44	102	1048576	20	4628
2026-01-23 22:34:06.07	119.94	12.04	-30.5	-32.7	11.7	3.85e-04	0	44	102	1048576	21	4638
2026-01-23 22:34:07.07	120.10	11.99	-30.2	-31.8	12.3	2.43e-04	0	44	102	1048576	21	4336
2026-01-23 22:34:08.07	120.26	11.93	-30.2	-31.7	12.4	2.23e-04	0	44	102	1048576	21	4301
2026-01-23 22:34:09.07	120.42	11.88	-30.1	-31.6	12.5	1.82e-04	0	44	102	1048576	21	4261
2026-01-23 22:34:10.08	120.58	11.83	-30.2	-31.7	12.4	1.72e-04	0	44	102	1048576	21	4274
2026-01-23 22:34:11.07	120.73	11.77	-30.2	-32.2	12.4	1.17e-04	0	44	102	1048576	20	4536
2026-01-23 22:34:12.08	120.89	11.72	-30.1	-31.9	12.6	1.37e-04	0	44	102	1048576	20	4435
2026-01-23 22:34:13.08	121.05	11.67	-29.9	-31.4	12.9	1.43e-04	0	44	102	1048576	20	4286
2026-01-23 22:34:14.09	121.21	11.61	-30.0	-31.6	12.8	4.88e-05	0	44	102	1048576	20	4330
2026-01-23 22:34:15.09	121.36	11.56	-29.6	-30.7	13.4	1.49e-04	0	44	102	1048576	20	4060
2026-01-23 22:34:16.10	121.52	11.51	-29.5	-30.4	13.6	1.36e-04	0	44	102	1048576	20	3971
2026-01-23 22:34:17.11	121.67	11.45	-29.5	-30.2	13.7	6.10e-06	0	44	102	1048576	20	3931
2026-01-23 22:34:18.11	121.83	11.40	-29.5	-30.3	13.6	1.06e-05	0	44	102	1048576	20	3956
2026-01-23 22:34:19.11	121.98	11.35	-29.5	-30.2	13.6	2.67e-05	0	44	102	1048576	20	3934
2026-01-23 22:34:20.12	122.14	11.29	-29.5	-30.3	13.6	8.30e-06	0	44	102	1048576	20	3949
2026-01-23 22:34:21.13	122.29	11.24	-29.6	-30.5	13.4	1.83e-05	0	44	102	1048576	20	4009
2026-01-23 22:34:22.13	122.44	11.18	-29.8	-31.6	13.1	4.80e-05	0	44	102	1048576	19	4422
2026-01-23 22:34:23.13	122.59	11.13	-29.8	-31.7	13.0	3.89e-05	0	44	102	1048576	19	4477
2026-01-23 22:34:24.13	122.74	11.08	-29.9	-31.9	13.0	3.66e-05	0	44	102	1048576	19	4520
2026-01-23 22:34:25.14	122.90	11.02	-29.9	-31.9	12.9	4.50e-05	0	44	102	1048576	19	4551
2026-01-23 22:34:26.14	123.05	10.97	-30.0	-31.7	12.6	5.87e-05	0	44	102	1048576	20	4381
2026-01-23 22:34:27.15	123.20	10.91	-30.0	-31.8	12.5	1.21e-04	0	44	102	1048576	20	4415
2026-01-23 22:34:28.15	123.35	10.86	-29.9	-31.5	12.8	1.62e-04	0	44	102	1048576	20	4338
2026-01-23 22:34:29.16	123.50	10.80	-29.8	-31.2	13.0	4.80e-05	0	44	102	1048576	20	4219
2026-01-23 22:34:30.16	123.64	10.75	-29.9	-31.4	12.8	2.88e-04	0	44	102	1048576	20	4277
2026-01-23 22:34:31.17	123.79	10.70	-30.0	-31.7	12.6	4.07e-04	0	44	102	1048576	20	4395
2026-01-23 22:34:32.18	123.94	10.64	-30.0	-31.8	12.5	9.30e-05	0	44	102	1048576	20	4429
2026-01-23 22:34:33.19	124.09	10.59	-30.1	-31.9	12.5	5.66e-04	0	44	102	1048576	20	4458
2026-01-23 22:34:34.19	124.23	10.53	-30.1	-32.1	12.3	5.23e-04	0	44	102	1048576	20	4512
2026-01-23 22:34:35.19	124.38	10.48	-30.1	-32.1	12.4	1.61e-04	0	44	102	1048576	20	4520
2026-01-23 22:34:36.20	124.52	10.42	-30.2	-32.4	12.1	5.34e-04	0	44	102	1048576	20	4622
2026-01-23 22:34:37.20	124.67	10.37	-30.0	-31.8	12.5	4.25e-04	0	44	102	1048576	20	4427
2026-01-23 22:34:38.20	124.81	10.31	-30.0	-31.6	12.6	9.30e-05	0	44	102	1048576	20	4358
2026-01-23 22:34:39.21	124.95	10.26	-29.9	-31.6	12.7	8.16e-05	0	44	102	1048576	20	4351
2026-01-23 22:34:40.21	125.10	10.20	-29.9	-31.4	12.8	1.79e-04	0	44	102	1048576	20	4288
2026-01-23 22:34:41.22	125.24	10.15	-29.9	-31.5	12.7	5.87e-05	0	44	102	1048576	20	4328
2026-01-23 22:34:42.21	125.38	10.09	-30.1	-32.0	12.4	1.27e-04	0	44	102	1048576	20	4483
2026-01-23 22:34:43.21	125.52	10.04	-30.1	-32.1	12.3	1.50e-04	0	44	102	1048576	20	4529
2026-01-23 22:34:44.22	125.66	9.98	-30.3	-32.6	11.9	2.20e-04	0	44	102	1048576	20	4716
2026-01-23 22:34:45.22	125.80	9.93	-30.3	-32.7	11.9	3.71e-04	0	44	102	1048576	20	4762
2026-01-23 22:34:46.23	125.94	9.87	-30.4	-32.9	11.7	7.41e-04	0	44	102	1048576	20	4838
2026-01-23 22:34:47.23	126.08	9.82	-30.5	-32.9	11.4	8.15e-04	0	44	102	1048576	21	4722
2026-01-23 22:34:48.23	126.22	9.77	-30.5	-32.7	11.5	8.93e-04	0	44	102	1048576	21	4656
2026-01-23 22:34:49.24	126.36	9.71	-30.5	-32.8	11.4	1.02e-03	0	44	102	1048576	21	4710
2026-01-23 22:34:50.24	126.50	9.65	-30.4	-32.5	11.6	9.03e-04	0	44	102	1048576	21	4598
2026-01-23 22:34:51.25	126.63	9.60	-30.4	-32.4	11.7	6.23e-04	0	44	102	1048576	21	4557
2026-01-23 22:34:52.25	126.77	9.54	-30.3	-32.7	11.9	1.24e-03	0	44	102	1048576	20	4746
2026-01-23 22:34:53.26	126.91	9.49	-30.3	-32.6	11.9	3.86e-04	0	44	102	1048576	20	4694
2026-01-23 22:34:54.27	127.04	9.43	-30.2	-32.5	11.9	3.57e-04	0	44	102	1048576	20	4673
2026-01-23 22:34:55.27	127.18	9.38	-30.3	-32.8	11.7	5.77e-04	0	44	102	1048576	20	4792
2026-01-23 22:34:56.27	127.31	9.32	-30.3	-32.7	11.8	5.43e-04	0	44	102	1048576	20	4743
2026-01-23 22:34:57.28	127.45	9.27	-30.5	-32.8	11.4	9.39e-04	0	44	102	1048576	21	4696
2026-01-23 22:34:58.28	127.58	9.21	-30.6	-33.1	11.1	1.39e-03	0	44	102	1048576	21	4826
2026-01-23 22:34:59.29	127.72	9.16	-30.6	-33.2	11.1	1.43e-03	0	44	102	1048576	21	4847
2026-01-23 22:35:00.30	127.85	9.10	-30.6	-33.1	11.1	1.97e-03	0	44	102	1048576	21	4807
2026-01-23 22:35:01.30	127.98	9.05	-30.6	-33.3	11.0	2.13e-03	0	44	102	1048576	21	4887
2026-01-23 22:35:02.31	128.11	8.99	-30.6	-33.3	10.9	2.12e-03	0	44	102	1048576	21	4902
2026-01-23 22:35:03.31	128.25	8.94	-30.5	-33.0	11.2	2.37e-03	0	44	102	1048576	21	4792
2026-01-23 22:35:04.32	128.38	8.88	-30.5	-33.0	11.2	1.96e-03	0	44	102	1048576	21	4774
2026-01-23 22:35:05.31	128.51	8.83	-30.6	-33.3	10.9	1.48e-03	0	44	102	1048576	21	4888
2026-01-23 22:35:06.32	128.64	8.77	-30.6	-33.3	10.9	2.89e-03	0	44	102	1048576	21	4925
2026-01-23 22:35:07.33	128.77	8.72	-30.6	-33.4	10.8	2.29e-03	0	44	102	1048576	21	4945
2026-01-23 22:35:08.33	128.90	8.66	-30.7	-33.5	10.7	3.28e-03	0	44	102	1048576	21	4975
2026-01-23 22:35:09.33	129.02	8.61	-30.7	-33.7	10.6	2.72e-03	0	44	102	1048576	21	5064
2026-01-23 22:35:10.33	129.15	8.55	-30.8	-33.8	10.5	4.30e-03	0	44	102	1048576	21	5142
2026-01-23 22:35:11.34	129.28	8.49	-30.7	-33.6	10.5	4.44e-03	0	44	102	1048576	21	5037
2026-01-23 22:35:12.34	129.41	8.44	-30.8	-34.0	10.3	4.18e-03	0	44	102	1048576	21	5196
2026-01-23 22:35:13.34	129.53	8.38	-30.8	-34.1	10.2	6.23e-03	0	44	102	1048576	21	5263
2026-01-23 22:35:14.34	129.66	8.33	-30.8	-34.3	10.0	5.95e-03	0	44	102	1048576	21	5328
2026-01-23 22:35:15.34	129.78	8.27	-30.8	-34.1	10.2	7.38e-03	0	44	102	1048576	21	5258
2026-01-23 22:35:16.35	129.91	8.22	-30.7	-33.7	10.5	4.69e-03	0	44	102	1048576	21	5071
2026-01-23 22:35:17.35	130.03	8.16	-30.6	-33.4	10.7	2.36e-03	0	44	102	1048576	21	4964
2026-01-23 22:35:18.35	130.16	8.11	-30.5	-33.0	11.0	2.08e-03	0	44	102	1048576	21	4813
2026-01-23 22:35:19.36	130.28	8.05	-30.4	-32.7	11.1	1.68e-03	0	44	102	1048576	21	4731
2026-01-23 22:35:20.36	130.41	8.00	-30.4	-32.8	11.0	1.47e-03	0	44	102	1048576	21	4758
2026-01-23 22:35:21.36	130.53	7.94	-30.6	-33.4	10.6	2.99e-03	0	44	102	1048576	21	5007
2026-01-23 22:35:22.37	130.65	7.89	-30.6	-33.5	10.6	3.23e-03	0	44	102	1048576	21	5025
2026-01-23 22:35:23.37	130.77	7.83	-30.8	-34.1	10.1	8.07e-03	0	44	102	1048576	21	5301
2026-01-23 22:35:24.37	130.89	7.78	-30.8	-34.2	10.1	5.98e-03	0	44	102	1048576	21	5304
2026-01-23 22:35:25.38	131.02	7.72	-31.0	-34.9	9.5	1.09e-02	0	44	102	1048576	21	5622
2026-01-23 22:35:26.38	131.14	7.67	-30.9	-34.7	9.7	1.02e-02	0	44	102	1048576	21	5535
2026-01-23 22:35:27.38	131.26	7.61	-31.1	-34.9	9.1	1.67e-02	0	44	102	1048576	22	5551
2026-01-23 22:35:28.38	131.38	7.56	-31.1	-34.8	9.1	2.31e-02	0	44	102	1048576	22	5498
2026-01-23 22:35:29.38	131.50	7.50	-31.0	-34.3	9.5	1.83e-02	0	44	102	1048576	22	5290
2026-01-23 22:35:30.38	131.61	7.45	-31.0	-34.3	9.5	1.52e-02	0	44	102	1048576	22	5298
2026-01-23 22:35:31.39	131.73	7.39	-30.9	-34.0	9.7	1.23e-02	0	44	102	1048576	22	5163
2026-01-23 22:35:32.39	131.85	7.34	-30.9	-34.0	9.7	1.16e-02	0	44	102	1048576	22	5180
2026-01-23 22:35:33.39	131.97	7.28	-30.8	-34.4	9.7	1.39e-02	0	44	102	1048576	21	5443
2026-01-23 22:35:34.39	132.09	7.23	-30.7	-33.8	10.2	8.91e-03	0	44	102	1048576	21	5173
2026-01-23 22:35:35.40	132.20	7.17	-30.6	-33.5	10.5	4.83e-03	0	44	102	1048576	21	5030
2026-01-23 22:35:36.40	132.32	7.12	-30.6	-33.7	10.3	3.72e-03	0	44	102	1048576	21	5136
2026-01-23 22:35:37.41	132.44	7.06	-32.8	-45.1	3.7	4.43e-02	0	44	104	1048576	25	14909
2026-01-23 22:35:38.42	132.55	7.01	-33.2	-45.7	3.8	1.49e+00	0	44	104	1048576	26	15091
2026-01-23 22:35:39.42	132.67	6.95	-33.6	-46.0	3.8	1.49e+00	0	44	104	1048576	27	14987
2026-01-23 22:35:40.42	132.78	6.90	-33.9	-46.7	3.8	1.49e+00	0	44	104	1048576	27	15566
2026-01-23 22:35:41.43	132.90	6.84	-34.1	-46.4	3.8	1.49e+00	0	44	104	1048576	28	14884

#Closed at: 2026-01-23 22:35:41
#Recorded file [1 MB]: D:/data/31010_260124_012639.dat