passes_logs/2026/01/23/R2M6_AANII_01/R2M6_AANII_01__20260123_112913_NOAA_21_JPSS-2_rec.log

#Pass ID: 20260123_112913_NOAA 21 (JPSS-2)
#Satellite: NOAA 21 (JPSS-2)
#Configuration: NOAA 21
#almurnet v.1.7.20240730
#Start time: 2026-01-23 11:29:14

#Version: 2.2.20231116
#Station: R2M6_AANII_01
#Location: 30.233357 lon 59.946436 lat
#TLE: 1 54234U 22150A   26022.41365820  .00000211  00000+0  12084-3 0  9990
#TLE: 2 54234  98.7507 323.2240 0000658 234.5287 125.5828 14.19537645165864

#Time	Az	El	Level	Level2	SNR	BER	BlckErr	Temp	State	Recorded	gain1	gain2
2026-01-23 11:29:14.67	197.61	7.07	-29.5	-33.2	4.9	1.33e+00	0	40	0	0	19	5559
2026-01-23 11:29:15.67	197.68	7.14	-30.0	-34.5	4.7	1.39e+00	0	41	104	0	20	6058
2026-01-23 11:29:16.68	197.75	7.22	-30.0	-33.8	9.2	1.76e-02	0	40	0	0	20	5572
2026-01-23 11:29:17.68	197.82	7.29	-29.9	-33.5	9.3	2.06e-02	0	41	102	1048576	20	5456
2026-01-23 11:29:18.68	197.89	7.36	-29.5	-32.3	9.9	9.55e-03	0	41	102	1048576	20	5016
2026-01-23 11:29:19.68	197.96	7.43	-29.2	-32.1	10.1	7.02e-03	0	41	102	1048576	19	5066
2026-01-23 11:29:20.68	198.03	7.50	-28.9	-31.5	10.1	6.36e-03	0	41	102	1048576	19	4876
2026-01-23 11:29:21.69	198.11	7.57	-28.5	-31.1	10.2	6.33e-03	0	41	102	1048576	18	4898
2026-01-23 11:29:22.69	198.18	7.64	-28.1	-30.8	10.3	4.74e-03	0	41	102	1048576	17	4923
2026-01-23 11:29:23.70	198.25	7.71	-27.9	-30.4	10.1	5.84e-03	0	41	102	1048576	17	4832
2026-01-23 11:29:24.71	198.33	7.79	-27.7	-30.7	9.8	9.15e-03	0	40	102	1048576	16	5105
2026-01-23 11:29:25.72	198.40	7.86	-27.6	-30.5	9.8	1.02e-02	0	41	102	1048576	16	5030
2026-01-23 11:29:26.72	198.48	7.93	-27.7	-30.8	9.6	1.16e-02	0	40	102	1048576	16	5131
2026-01-23 11:29:27.73	198.55	8.00	-27.4	-30.3	9.3	1.59e-02	0	41	102	1048576	16	5060
2026-01-23 11:29:28.73	198.63	8.08	-26.6	-30.0	8.8	2.53e-02	0	41	102	1048576	14	5346
2026-01-23 11:29:29.74	198.70	8.15	-25.8	-29.4	8.1	5.16e-02	0	41	102	1048576	13	5437
2026-01-23 11:29:30.74	198.78	8.22	-25.1	-29.6	7.0	1.24e-01	0	41	102	1048576	11	6063
2026-01-23 11:29:31.74	198.85	8.29	-24.3	-29.4	6.1	2.86e-01	0	41	102	1048576	10	6444
2026-01-23 11:29:32.74	198.93	8.37	-24.1	-29.5	6.1	3.44e-01	0	41	102	1048576	9	6677
2026-01-23 11:29:33.74	199.01	8.44	-24.1	-29.3	6.2	2.95e-01	0	41	102	1048576	9	6566
2026-01-23 11:29:34.75	199.09	8.51	-24.1	-29.4	6.1	3.09e-01	0	41	102	1048576	9	6623
2026-01-23 11:29:35.75	199.16	8.59	-24.0	-29.4	5.9	3.36e-01	0	41	102	1048576	9	6693
2026-01-23 11:29:36.75	199.24	8.66	-23.8	-29.2	5.8	3.85e-01	0	41	102	1048576	9	6690
2026-01-23 11:29:37.75	199.32	8.74	-23.9	-29.1	5.9	3.71e-01	0	41	102	1048576	9	6576
2026-01-23 11:29:38.76	199.40	8.81	-24.3	-29.5	6.3	3.02e-01	0	41	102	1048576	9	6623
2026-01-23 11:29:39.76	199.48	8.89	-24.5	-29.8	6.6	2.08e-01	0	41	102	1048576	9	6638
2026-01-23 11:29:40.77	199.56	8.96	-24.7	-30.1	6.6	2.08e-01	0	41	102	1048576	9	6743
2026-01-23 11:29:41.77	199.64	9.03	-25.3	-30.4	7.4	1.42e-01	0	41	102	1048576	10	6485
2026-01-23 11:29:42.77	199.72	9.11	-25.8	-30.5	8.0	7.46e-02	0	41	102	1048576	11	6195
2026-01-23 11:29:43.77	199.80	9.18	-26.3	-30.5	9.1	2.69e-02	0	41	102	1048576	12	5800
2026-01-23 11:29:44.78	199.88	9.26	-26.9	-30.5	10.4	8.20e-03	0	41	102	1048576	13	5460
2026-01-23 11:29:45.78	199.96	9.34	-27.3	-30.5	11.1	2.21e-03	0	41	102	1048576	14	5207
2026-01-23 11:29:46.78	200.04	9.41	-27.5	-30.4	11.3	1.25e-03	0	41	102	1048576	15	5004
2026-01-23 11:29:47.78	200.12	9.49	-27.7	-30.7	11.4	1.03e-03	0	41	102	1048576	15	5088
2026-01-23 11:29:48.79	200.21	9.56	-28.2	-30.9	12.1	3.65e-04	0	41	102	1048576	16	4901
2026-01-23 11:29:49.79	200.29	9.64	-28.2	-30.9	12.2	2.10e-04	0	41	102	1048576	16	4898
2026-01-23 11:29:50.80	200.37	9.72	-28.4	-31.4	12.0	2.70e-04	0	41	102	1048576	16	5059
2026-01-23 11:29:51.80	200.46	9.79	-28.3	-31.1	12.2	2.37e-04	0	41	102	1048576	16	4941
2026-01-23 11:29:52.81	200.54	9.87	-28.2	-30.9	12.0	2.61e-04	0	41	102	1048576	16	4917
2026-01-23 11:29:53.82	200.63	9.95	-28.2	-31.1	11.5	6.76e-04	0	41	102	1048576	16	5019
2026-01-23 11:29:54.83	200.71	10.03	-28.2	-31.0	11.7	6.34e-04	0	41	102	1048576	16	4960
2026-01-23 11:29:55.83	200.80	10.10	-28.2	-30.8	12.2	2.32e-04	0	41	102	1048576	16	4861
2026-01-23 11:29:56.84	200.89	10.18	-28.2	-30.8	12.5	1.68e-04	0	41	102	1048576	16	4852
2026-01-23 11:29:57.84	200.97	10.26	-28.4	-31.1	12.6	8.46e-05	0	41	102	1048576	16	4912
2026-01-23 11:29:58.85	201.06	10.34	-28.6	-31.2	12.3	1.33e-04	0	41	102	1048576	17	4826
2026-01-23 11:29:59.85	201.15	10.41	-28.5	-30.8	12.7	8.16e-05	0	41	102	1048576	17	4694
2026-01-23 11:30:00.86	201.24	10.49	-28.4	-30.4	13.2	1.90e-05	0	41	102	1048576	17	4541
2026-01-23 11:30:01.86	201.33	10.57	-28.3	-30.2	13.4	1.29e-05	0	41	102	1048576	17	4475
2026-01-23 11:30:02.87	201.41	10.65	-28.2	-29.9	13.6	1.14e-05	0	41	102	1048576	17	4378
2026-01-23 11:30:03.87	201.50	10.73	-28.2	-29.9	13.6	6.80e-06	0	41	102	1048576	17	4386
2026-01-23 11:30:04.87	201.59	10.81	-28.1	-29.8	13.6	8.30e-06	0	41	102	1048576	17	4357
2026-01-23 11:30:05.88	201.68	10.89	-28.2	-30.1	13.4	1.37e-05	0	41	102	1048576	17	4450
2026-01-23 11:30:06.88	201.77	10.97	-28.1	-29.8	13.5	1.14e-05	0	41	102	1048576	17	4371
2026-01-23 11:30:07.88	201.87	11.05	-28.0	-29.6	13.6	9.10e-06	0	41	102	1048576	17	4316
2026-01-23 11:30:08.88	201.96	11.13	-28.0	-29.5	13.6	8.30e-06	0	41	102	1048576	17	4286
2026-01-23 11:30:09.88	202.05	11.21	-28.1	-29.8	13.3	7.60e-06	0	41	102	1048576	17	4388
2026-01-23 11:30:10.88	202.14	11.29	-28.0	-29.5	13.6	7.60e-06	0	41	102	1048576	17	4293
2026-01-23 11:30:11.89	202.23	11.37	-27.9	-29.3	13.7	7.60e-06	0	41	102	1048576	17	4241
2026-01-23 11:30:12.90	202.33	11.45	-27.9	-29.4	13.7	6.80e-06	0	41	102	1048576	17	4251
2026-01-23 11:30:13.90	202.42	11.53	-27.9	-29.3	13.7	3.80e-06	0	41	102	1048576	17	4244
2026-01-23 11:30:14.91	202.52	11.61	-28.0	-29.5	13.7	7.60e-06	0	41	102	1048576	17	4275
2026-01-23 11:30:15.91	202.61	11.69	-28.1	-29.7	13.5	9.10e-06	0	41	102	1048576	17	4354
2026-01-23 11:30:16.91	202.71	11.77	-28.0	-29.4	13.7	7.60e-06	0	41	102	1048576	17	4265
2026-01-23 11:30:17.92	202.81	11.85	-27.9	-29.4	13.8	4.50e-06	0	41	102	1048576	17	4248
2026-01-23 11:30:18.92	202.90	11.94	-28.0	-29.5	13.7	4.50e-06	0	41	102	1048576	17	4287
2026-01-23 11:30:19.92	203.00	12.02	-27.9	-29.3	13.9	6.10e-06	0	41	102	1048576	17	4214
2026-01-23 11:30:20.93	203.10	12.10	-27.9	-29.3	14.0	1.50e-06	0	41	102	1048576	17	4206
2026-01-23 11:30:21.92	203.19	12.18	-27.9	-29.3	14.0	0.00e+00	0	41	102	1048576	17	4208
2026-01-23 11:30:22.93	203.29	12.27	-28.0	-29.5	13.9	1.50e-06	0	41	102	1048576	17	4267
2026-01-23 11:30:23.93	203.39	12.35	-28.2	-29.8	13.7	4.50e-06	0	41	102	1048576	17	4351
2026-01-23 11:30:24.94	203.49	12.43	-28.0	-29.4	14.0	1.44e-05	0	41	102	1048576	17	4236
2026-01-23 11:30:25.94	203.59	12.52	-27.9	-29.2	14.2	1.50e-06	0	41	102	1048576	17	4184
2026-01-23 11:30:26.95	203.69	12.60	-27.9	-29.1	14.2	2.20e-06	0	41	102	1048576	17	4158
2026-01-23 11:30:27.96	203.80	12.68	-27.9	-29.1	14.2	2.20e-06	0	41	102	1048576	17	4160
2026-01-23 11:30:28.96	203.90	12.77	-28.0	-29.4	14.1	2.20e-06	0	41	102	1048576	17	4222
2026-01-23 11:30:29.97	204.00	12.85	-27.9	-29.1	14.3	0.00e+00	0	41	102	1048576	17	4146
2026-01-23 11:30:30.98	204.11	12.94	-28.0	-29.5	14.1	1.29e-05	0	42	102	1048576	17	4246
2026-01-23 11:30:31.97	204.21	13.02	-27.9	-29.1	14.3	7.00e-07	0	41	102	1048576	17	4138
2026-01-23 11:30:32.97	204.31	13.10	-27.8	-29.3	14.5	7.00e-07	0	41	102	1048576	16	4311
2026-01-23 11:30:33.97	204.42	13.19	-27.8	-29.5	14.4	6.80e-06	0	41	102	1048576	16	4353
2026-01-23 11:30:34.98	204.52	13.28	-28.0	-29.9	14.2	7.00e-07	0	42	102	1048576	16	4474
2026-01-23 11:30:35.98	204.63	13.36	-27.8	-29.4	14.4	0.00e+00	0	42	102	1048576	16	4335
2026-01-23 11:30:36.99	204.74	13.45	-27.8	-29.5	14.4	1.29e-05	0	41	102	1048576	16	4360
2026-01-23 11:30:37.99	204.84	13.53	-27.8	-29.5	14.4	7.00e-07	0	41	102	1048576	16	4352
2026-01-23 11:30:39.00	204.95	13.62	-27.8	-29.5	14.3	1.50e-06	0	42	102	1048576	16	4375
2026-01-23 11:30:40.00	205.06	13.70	-27.8	-29.4	14.4	8.30e-06	0	41	102	1048576	16	4342
2026-01-23 11:30:41.00	205.17	13.79	-27.8	-29.4	14.4	7.00e-07	0	41	102	1048576	16	4340
2026-01-23 11:30:42.01	205.28	13.88	-27.8	-29.4	14.5	7.00e-07	0	41	102	1048576	16	4335
2026-01-23 11:30:43.01	205.39	13.96	-27.8	-29.3	14.5	9.90e-06	0	41	102	1048576	16	4318
2026-01-23 11:30:44.01	205.50	14.05	-27.8	-29.4	14.6	0.00e+00	0	41	102	1048576	16	4322
2026-01-23 11:30:45.02	205.61	14.14	-27.8	-29.4	14.5	0.00e+00	0	41	102	1048576	16	4326
2026-01-23 11:30:46.02	205.72	14.23	-27.8	-29.3	14.6	7.00e-07	0	41	102	1048576	16	4302
2026-01-23 11:30:47.03	205.84	14.32	-27.9	-29.5	14.5	7.00e-07	0	41	102	1048576	16	4369
2026-01-23 11:30:48.03	205.95	14.40	-27.8	-29.3	14.6	0.00e+00	0	41	102	1048576	16	4311
2026-01-23 11:30:49.03	206.06	14.49	-27.8	-29.3	14.6	8.30e-06	0	42	102	1048576	16	4309
2026-01-23 11:30:50.04	206.18	14.58	-27.9	-29.6	14.4	0.00e+00	0	41	102	1048576	16	4374
2026-01-23 11:30:51.04	206.29	14.67	-27.8	-29.4	14.5	0.00e+00	0	41	102	1048576	16	4329
2026-01-23 11:30:52.04	206.41	14.76	-27.9	-29.7	14.3	0.00e+00	0	41	102	1048576	16	4421
2026-01-23 11:30:53.05	206.53	14.85	-27.8	-29.5	14.5	0.00e+00	0	42	102	1048576	16	4344
2026-01-23 11:30:54.05	206.64	14.94	-27.8	-29.4	14.5	0.00e+00	0	42	102	1048576	16	4320
2026-01-23 11:30:55.05	206.76	15.02	-27.8	-29.5	14.5	0.00e+00	0	42	102	1048576	16	4358
2026-01-23 11:30:56.06	206.88	15.11	-27.8	-29.3	14.6	0.00e+00	0	42	102	1048576	16	4302
2026-01-23 11:30:57.06	207.00	15.20	-27.8	-29.3	14.6	0.00e+00	0	41	102	1048576	16	4306
2026-01-23 11:30:58.06	207.12	15.29	-27.9	-29.6	14.4	7.00e-07	0	42	102	1048576	16	4380
2026-01-23 11:30:59.07	207.24	15.39	-27.8	-29.3	14.6	7.00e-07	0	42	102	1048576	16	4308
2026-01-23 11:31:00.08	207.36	15.48	-27.8	-29.5	14.5	7.00e-07	0	42	102	1048576	16	4362
2026-01-23 11:31:01.08	207.49	15.57	-27.8	-29.5	14.5	7.00e-07	0	42	102	1048576	16	4353
2026-01-23 11:31:02.09	207.61	15.66	-27.9	-29.7	14.4	1.50e-06	0	41	102	1048576	16	4409
2026-01-23 11:31:03.09	207.73	15.75	-28.0	-29.8	14.3	7.00e-07	0	42	102	1048576	16	4450
2026-01-23 11:31:04.09	207.86	15.84	-28.0	-29.8	14.4	7.00e-07	0	41	102	1048576	16	4438
2026-01-23 11:31:05.10	207.98	15.93	-28.0	-29.9	14.3	0.00e+00	0	41	102	1048576	16	4464
2026-01-23 11:31:06.10	208.11	16.02	-27.9	-29.7	14.4	1.50e-06	0	42	102	1048576	16	4424
2026-01-23 11:31:07.10	208.24	16.12	-28.0	-29.8	14.4	7.00e-07	0	42	102	1048576	16	4434
2026-01-23 11:31:08.11	208.36	16.21	-28.0	-29.8	14.4	0.00e+00	0	42	102	1048576	16	4434
2026-01-23 11:31:09.11	208.49	16.30	-27.9	-29.5	14.6	0.00e+00	0	42	102	1048576	16	4358
2026-01-23 11:31:10.11	208.62	16.39	-27.9	-29.5	14.6	7.00e-07	0	42	102	1048576	16	4361
2026-01-23 11:31:11.12	208.75	16.49	-27.9	-29.7	14.5	0.00e+00	0	42	102	1048576	16	4401
2026-01-23 11:31:12.11	208.88	16.58	-27.9	-29.7	14.5	7.00e-07	0	41	102	1048576	16	4408
2026-01-23 11:31:13.12	209.01	16.67	-28.0	-29.8	14.4	0.00e+00	0	41	102	1048576	16	4437
2026-01-23 11:31:14.13	209.15	16.77	-28.1	-30.1	14.3	0.00e+00	0	41	102	1048576	16	4514
2026-01-23 11:31:15.13	209.28	16.86	-28.1	-30.1	14.2	3.80e-06	0	41	102	1048576	16	4545
2026-01-23 11:31:16.14	209.41	16.96	-28.1	-30.2	14.2	0.00e+00	0	42	102	1048576	16	4544
2026-01-23 11:31:17.14	209.55	17.05	-28.2	-30.2	14.2	0.00e+00	0	41	102	1048576	16	4562
2026-01-23 11:31:18.15	209.68	17.15	-28.1	-30.2	14.2	0.00e+00	0	42	102	1048576	16	4558
2026-01-23 11:31:19.15	209.82	17.24	-28.1	-30.1	14.2	1.50e-06	0	42	102	1048576	16	4539
2026-01-23 11:31:20.16	209.96	17.34	-28.2	-30.3	14.2	4.50e-06	0	42	102	1048576	16	4590
2026-01-23 11:31:21.17	210.10	17.43	-28.1	-30.0	14.4	7.00e-07	0	42	102	1048576	16	4507
2026-01-23 11:31:22.18	210.23	17.53	-28.2	-30.3	14.2	2.20e-06	0	41	102	1048576	16	4593
2026-01-23 11:31:23.19	210.38	17.62	-27.9	-29.7	14.5	7.00e-07	0	42	102	1048576	16	4400
2026-01-23 11:31:24.19	210.52	17.72	-27.8	-29.3	14.8	6.80e-06	0	42	102	1048576	16	4290
2026-01-23 11:31:25.19	210.66	17.81	-27.8	-29.3	14.8	0.00e+00	0	42	102	1048576	16	4278
2026-01-23 11:31:26.19	210.80	17.91	-27.8	-29.3	14.8	0.00e+00	0	42	102	1048576	16	4289
2026-01-23 11:31:27.20	210.94	18.01	-27.7	-29.1	14.9	5.30e-06	0	42	102	1048576	16	4243
2026-01-23 11:31:28.20	211.09	18.10	-27.7	-29.2	14.9	0.00e+00	0	42	102	1048576	16	4250
2026-01-23 11:31:29.20	211.23	18.20	-27.8	-29.3	14.8	0.00e+00	0	42	102	1048576	16	4292
2026-01-23 11:31:30.21	211.38	18.30	-27.7	-29.2	14.8	0.00e+00	0	41	102	1048576	16	4260
2026-01-23 11:31:31.21	211.52	18.40	-27.7	-29.1	14.9	0.00e+00	0	42	102	1048576	16	4237
2026-01-23 11:31:32.22	211.67	18.49	-27.7	-29.2	14.9	0.00e+00	0	41	102	1048576	16	4253
2026-01-23 11:31:33.23	211.82	18.59	-27.8	-29.4	14.7	9.90e-06	0	42	102	1048576	16	4325
2026-01-23 11:31:34.23	211.97	18.69	-27.8	-29.4	14.8	7.00e-07	0	42	102	1048576	16	4327
2026-01-23 11:31:35.24	212.12	18.79	-27.8	-29.3	14.8	7.00e-07	0	42	102	1048576	16	4281
2026-01-23 11:31:36.25	212.27	18.89	-27.9	-29.5	14.7	0.00e+00	0	42	102	1048576	16	4340
2026-01-23 11:31:37.25	212.43	18.99	-28.0	-29.8	14.6	7.00e-07	0	42	102	1048576	16	4433
2026-01-23 11:31:38.26	212.58	19.08	-27.8	-29.3	14.8	7.00e-07	0	42	102	1048576	16	4297
2026-01-23 11:31:39.27	212.73	19.18	-27.8	-29.3	14.9	0.00e+00	0	42	102	1048576	16	4282
2026-01-23 11:31:40.26	212.89	19.28	-27.7	-29.2	14.9	0.00e+00	0	42	102	1048576	16	4261
2026-01-23 11:31:41.27	213.05	19.38	-27.8	-29.3	14.9	0.00e+00	0	42	102	1048576	16	4280
2026-01-23 11:31:42.27	213.20	19.48	-27.9	-29.5	14.7	3.80e-06	0	42	102	1048576	16	4346
2026-01-23 11:31:43.27	213.36	19.58	-27.6	-28.9	15.1	0.00e+00	0	41	102	1048576	16	4179
2026-01-23 11:31:44.26	213.52	19.68	-27.5	-28.6	15.3	0.00e+00	0	41	102	1048576	16	4083
2026-01-23 11:31:45.27	213.68	19.78	-27.4	-28.5	15.4	0.00e+00	0	41	102	1048576	16	4059
2026-01-23 11:31:46.27	213.84	19.88	-27.3	-28.3	15.4	0.00e+00	0	42	102	1048576	16	4015
2026-01-23 11:31:47.27	214.00	19.98	-27.4	-28.4	15.4	0.00e+00	0	41	102	1048576	16	4043
2026-01-23 11:31:48.28	214.16	20.08	-27.4	-28.4	15.4	0.00e+00	0	42	102	1048576	16	4035
2026-01-23 11:31:49.28	214.33	20.18	-27.4	-28.4	15.4	0.00e+00	0	42	102	1048576	16	4031
2026-01-23 11:31:50.28	214.49	20.28	-27.4	-28.5	15.3	0.00e+00	0	41	102	1048576	16	4072
2026-01-23 11:31:51.29	214.66	20.38	-27.3	-28.3	15.5	0.00e+00	0	42	102	1048576	16	4008
2026-01-23 11:31:52.30	214.83	20.48	-27.3	-28.2	15.5	0.00e+00	0	42	102	1048576	16	3982
2026-01-23 11:31:53.30	215.00	20.59	-27.3	-28.2	15.5	0.00e+00	0	42	102	1048576	16	3998
2026-01-23 11:31:54.31	215.17	20.69	-27.3	-28.3	15.5	0.00e+00	0	42	102	1048576	16	4014
2026-01-23 11:31:55.32	215.34	20.79	-27.3	-28.1	15.5	0.00e+00	0	42	102	1048576	16	3969
2026-01-23 11:31:56.32	215.51	20.89	-27.4	-28.4	15.4	0.00e+00	0	42	102	1048576	16	4034
2026-01-23 11:31:57.33	215.68	20.99	-27.5	-28.5	15.3	0.00e+00	0	41	102	1048576	16	4077
2026-01-23 11:31:58.33	215.86	21.10	-27.5	-28.7	15.2	0.00e+00	0	42	102	1048576	16	4136
2026-01-23 11:31:59.33	216.03	21.20	-27.3	-28.2	15.5	0.00e+00	0	42	102	1048576	16	3983
2026-01-23 11:32:00.33	216.21	21.30	-27.0	-28.0	15.8	0.00e+00	0	42	102	1048576	15	4049
2026-01-23 11:32:01.33	216.38	21.40	-26.9	-27.9	15.8	0.00e+00	0	42	102	1048576	15	4011
2026-01-23 11:32:02.33	216.56	21.51	-27.0	-28.0	15.7	0.00e+00	0	41	102	1048576	15	4058
2026-01-23 11:32:03.33	216.74	21.61	-27.0	-28.1	15.7	0.00e+00	0	42	102	1048576	15	4078
2026-01-23 11:32:04.33	216.92	21.71	-27.1	-28.3	15.6	0.00e+00	0	42	102	1048576	15	4115
2026-01-23 11:32:05.34	217.11	21.81	-26.8	-27.7	15.9	0.00e+00	0	42	102	1048576	15	3960
2026-01-23 11:32:06.35	217.29	21.92	-26.7	-28.0	16.1	0.00e+00	0	42	102	1048576	14	4140
2026-01-23 11:32:07.35	217.47	22.02	-26.8	-28.0	16.1	0.00e+00	0	42	102	1048576	14	4150
2026-01-23 11:32:08.35	217.66	22.12	-26.6	-27.6	16.3	0.00e+00	0	42	102	1048576	14	4050
2026-01-23 11:32:09.35	217.84	22.23	-26.6	-27.6	16.3	0.00e+00	0	42	102	1048576	14	4039
2026-01-23 11:32:10.35	218.03	22.33	-26.6	-27.6	16.2	0.00e+00	0	42	102	1048576	14	4058
2026-01-23 11:32:11.36	218.22	22.44	-26.7	-27.8	16.2	0.00e+00	0	42	102	1048576	14	4084
2026-01-23 11:32:12.36	218.41	22.54	-26.5	-27.4	16.4	0.00e+00	0	42	102	1048576	14	3997
2026-01-23 11:32:13.37	218.61	22.64	-26.6	-27.5	16.3	0.00e+00	0	42	102	1048576	14	4027
2026-01-23 11:32:14.38	218.80	22.75	-26.6	-27.6	16.3	0.00e+00	0	42	102	1048576	14	4036
2026-01-23 11:32:15.38	218.99	22.85	-26.4	-27.1	16.5	0.00e+00	0	42	102	1048576	14	3932
2026-01-23 11:32:16.39	219.19	22.96	-26.4	-27.2	16.5	0.00e+00	0	42	102	1048576	14	3933
2026-01-23 11:32:17.39	219.39	23.06	-26.4	-27.1	16.6	5.30e-06	0	42	102	1048576	14	3920
2026-01-23 11:32:18.39	219.58	23.17	-26.3	-27.0	16.7	0.00e+00	0	42	102	1048576	14	3881
2026-01-23 11:32:19.40	219.78	23.27	-26.3	-27.1	16.6	0.00e+00	0	42	102	1048576	14	3910
2026-01-23 11:32:20.40	219.98	23.38	-26.5	-27.4	16.4	4.50e-06	0	42	102	1048576	14	3985
2026-01-23 11:32:21.41	220.19	23.48	-26.5	-27.3	16.4	0.00e+00	0	42	102	1048576	14	3979
2026-01-23 11:32:22.41	220.39	23.59	-26.4	-27.1	16.6	0.00e+00	0	42	102	1048576	14	3919
2026-01-23 11:32:23.42	220.60	23.69	-26.4	-27.2	16.5	0.00e+00	0	42	102	1048576	14	3936
2026-01-23 11:32:24.42	220.80	23.80	-26.4	-27.2	16.5	0.00e+00	0	42	102	1048576	14	3954
2026-01-23 11:32:25.43	221.01	23.90	-26.4	-27.1	16.6	0.00e+00	0	42	102	1048576	14	3917
2026-01-23 11:32:26.43	221.22	24.01	-26.4	-27.1	16.6	6.80e-06	0	42	102	1048576	14	3914
2026-01-23 11:32:27.44	221.43	24.11	-26.3	-27.0	16.7	0.00e+00	0	42	102	1048576	14	3888
2026-01-23 11:32:28.44	221.64	24.22	-26.3	-26.9	16.7	0.00e+00	0	42	102	1048576	14	3874
2026-01-23 11:32:29.45	221.86	24.32	-26.3	-27.5	16.6	5.30e-06	0	42	102	1048576	13	4123
2026-01-23 11:32:30.45	222.07	24.43	-26.4	-27.7	16.5	0.00e+00	0	42	102	1048576	13	4188
2026-01-23 11:32:31.46	222.29	24.53	-26.4	-27.6	16.6	0.00e+00	0	42	102	1048576	13	4152
2026-01-23 11:32:32.46	222.50	24.64	-26.3	-27.5	16.6	6.10e-06	0	42	102	1048576	13	4133
2026-01-23 11:32:33.46	222.72	24.74	-26.4	-27.6	16.6	0.00e+00	0	42	102	1048576	13	4152
2026-01-23 11:32:34.47	222.94	24.85	-26.4	-27.7	16.5	0.00e+00	0	42	102	1048576	13	4179
2026-01-23 11:32:35.48	223.16	24.95	-26.4	-27.7	16.5	0.00e+00	0	42	102	1048576	13	4181
2026-01-23 11:32:36.48	223.39	25.06	-26.5	-27.9	16.4	0.00e+00	0	42	102	1048576	13	4232
2026-01-23 11:32:37.49	223.61	25.16	-26.6	-28.2	16.3	0.00e+00	0	42	102	1048576	13	4306
2026-01-23 11:32:38.49	223.84	25.27	-26.7	-28.5	16.1	0.00e+00	0	42	102	1048576	13	4392
2026-01-23 11:32:39.50	224.07	25.37	-26.8	-28.6	16.1	0.00e+00	0	42	102	1048576	13	4437
2026-01-23 11:32:40.51	224.30	25.48	-26.9	-28.7	16.0	0.00e+00	0	42	102	1048576	13	4447
2026-01-23 11:32:41.51	224.53	25.58	-26.9	-28.7	16.0	0.00e+00	0	42	102	1048576	13	4457
2026-01-23 11:32:42.52	224.76	25.69	-26.9	-28.7	16.0	0.00e+00	0	42	102	1048576	13	4448
2026-01-23 11:32:43.52	224.99	25.79	-26.8	-28.6	16.1	0.00e+00	0	42	102	1048576	13	4418
2026-01-23 11:32:44.53	225.23	25.90	-26.9	-28.8	16.0	0.00e+00	0	42	102	1048576	13	4477
2026-01-23 11:32:45.53	225.46	26.00	-26.9	-28.9	15.9	0.00e+00	0	42	102	1048576	13	4497
2026-01-23 11:32:46.53	225.70	26.11	-27.0	-29.0	15.9	0.00e+00	0	42	102	1048576	13	4538
2026-01-23 11:32:47.54	225.94	26.21	-27.2	-28.9	15.7	0.00e+00	0	42	102	1048576	14	4404
2026-01-23 11:32:48.54	226.18	26.32	-27.2	-29.0	15.6	0.00e+00	0	42	102	1048576	14	4414
2026-01-23 11:32:49.54	226.42	26.42	-27.2	-28.9	15.7	0.00e+00	0	42	102	1048576	14	4381
2026-01-23 11:32:50.55	226.67	26.52	-27.2	-28.9	15.7	0.00e+00	0	42	102	1048576	14	4394
2026-01-23 11:32:51.55	226.91	26.63	-27.2	-28.9	15.7	0.00e+00	0	42	102	1048576	14	4401
2026-01-23 11:32:52.55	227.16	26.73	-27.2	-29.0	15.6	0.00e+00	0	42	102	1048576	14	4428
2026-01-23 11:32:53.56	227.41	26.83	-27.2	-28.9	15.7	0.00e+00	0	42	102	1048576	14	4405
2026-01-23 11:32:54.56	227.66	26.94	-27.2	-29.0	15.7	0.00e+00	0	42	102	1048576	14	4425
2026-01-23 11:32:55.56	227.91	27.04	-27.2	-28.9	15.7	0.00e+00	0	42	102	1048576	14	4391
2026-01-23 11:32:56.57	228.16	27.14	-27.1	-28.7	15.8	0.00e+00	0	42	102	1048576	14	4343
2026-01-23 11:32:57.57	228.42	27.25	-27.1	-28.6	15.9	0.00e+00	0	42	102	1048576	14	4317
2026-01-23 11:32:58.58	228.68	27.35	-27.1	-28.7	15.9	0.00e+00	0	42	102	1048576	14	4344
2026-01-23 11:32:59.59	228.94	27.45	-27.1	-28.8	15.8	0.00e+00	0	42	102	1048576	14	4369
2026-01-23 11:33:00.59	229.19	27.55	-27.3	-29.1	15.6	0.00e+00	0	42	102	1048576	14	4447
2026-01-23 11:33:01.60	229.46	27.66	-27.4	-29.4	15.5	0.00e+00	0	42	102	1048576	14	4531
2026-01-23 11:33:02.61	229.72	27.76	-27.5	-29.1	15.3	0.00e+00	0	42	102	1048576	15	4334
2026-01-23 11:33:03.61	229.99	27.86	-27.7	-29.5	15.1	0.00e+00	0	42	102	1048576	15	4450
2026-01-23 11:33:04.62	230.25	27.96	-27.5	-29.2	15.3	0.00e+00	0	42	102	1048576	15	4373
2026-01-23 11:33:05.62	230.52	28.06	-27.5	-29.0	15.4	0.00e+00	0	42	102	1048576	15	4306
2026-01-23 11:33:06.63	230.79	28.16	-27.5	-29.0	15.4	0.00e+00	0	42	102	1048576	15	4312
2026-01-23 11:33:07.63	231.06	28.26	-27.4	-28.9	15.5	0.00e+00	0	42	102	1048576	15	4269
2026-01-23 11:33:08.64	231.34	28.36	-27.4	-29.0	15.4	0.00e+00	0	42	102	1048576	15	4296
2026-01-23 11:33:09.64	231.61	28.46	-27.3	-28.7	15.6	0.00e+00	0	42	102	1048576	15	4231
2026-01-23 11:33:10.64	231.89	28.56	-27.2	-28.5	15.8	6.10e-06	0	42	102	1048576	15	4160
2026-01-23 11:33:11.65	232.17	28.66	-27.2	-28.5	15.7	0.00e+00	0	42	102	1048576	15	4167
2026-01-23 11:33:12.66	232.45	28.76	-27.2	-28.5	15.7	0.00e+00	0	42	102	1048576	15	4173
2026-01-23 11:33:13.67	232.73	28.86	-27.3	-28.8	15.6	7.00e-07	0	42	102	1048576	15	4231
2026-01-23 11:33:14.68	233.02	28.95	-27.4	-28.8	15.6	0.00e+00	0	42	102	1048576	15	4243
2026-01-23 11:33:15.67	233.30	29.05	-27.5	-29.1	15.4	0.00e+00	0	42	102	1048576	15	4333
2026-01-23 11:33:16.68	233.59	29.15	-27.5	-29.1	15.4	3.00e-06	0	42	102	1048576	15	4327
2026-01-23 11:33:17.68	233.87	29.24	-27.5	-29.0	15.5	0.00e+00	0	42	102	1048576	15	4303
2026-01-23 11:33:18.69	234.16	29.34	-27.4	-28.8	15.6	0.00e+00	0	42	102	1048576	15	4253
2026-01-23 11:33:19.68	234.45	29.43	-27.4	-28.8	15.6	4.50e-06	0	42	102	1048576	15	4227
2026-01-23 11:33:20.68	234.74	29.53	-27.4	-28.9	15.6	0.00e+00	0	42	102	1048576	15	4266
2026-01-23 11:33:21.69	235.04	29.62	-27.4	-28.9	15.5	0.00e+00	0	42	102	1048576	15	4272
2026-01-23 11:33:22.69	235.34	29.72	-27.5	-29.0	15.5	0.00e+00	0	42	102	1048576	15	4298
2026-01-23 11:33:23.69	235.63	29.81	-27.4	-28.9	15.5	0.00e+00	0	42	102	1048576	15	4253
2026-01-23 11:33:24.69	235.93	29.90	-27.4	-28.7	15.6	0.00e+00	0	42	102	1048576	15	4217
2026-01-23 11:33:25.69	236.23	29.99	-27.4	-28.8	15.6	3.00e-06	0	42	102	1048576	15	4241
2026-01-23 11:33:26.69	236.54	30.08	-27.5	-29.1	15.4	0.00e+00	0	42	102	1048576	15	4324
2026-01-23 11:33:27.70	236.84	30.17	-27.5	-29.0	15.4	0.00e+00	0	42	102	1048576	15	4303
2026-01-23 11:33:28.70	237.15	30.27	-27.4	-28.9	15.6	0.00e+00	0	42	102	1048576	15	4262
2026-01-23 11:33:29.70	237.45	30.35	-27.4	-28.8	15.6	0.00e+00	0	42	102	1048576	15	4248
2026-01-23 11:33:30.71	237.77	30.44	-27.5	-29.0	15.5	0.00e+00	0	42	102	1048576	15	4303
2026-01-23 11:33:31.71	238.08	30.53	-27.4	-28.9	15.6	0.00e+00	0	42	102	1048576	15	4261
2026-01-23 11:33:32.72	238.39	30.62	-27.3	-28.6	15.7	0.00e+00	0	42	102	1048576	15	4198
2026-01-23 11:33:33.71	238.70	30.71	-27.2	-28.4	15.9	0.00e+00	0	42	102	1048576	15	4120
2026-01-23 11:33:34.72	239.02	30.79	-27.3	-28.6	15.7	0.00e+00	0	42	102	1048576	15	4186
2026-01-23 11:33:35.72	239.34	30.88	-27.2	-28.4	15.8	0.00e+00	0	42	102	1048576	15	4136
2026-01-23 11:33:36.72	239.66	30.96	-27.3	-28.6	15.7	0.00e+00	0	42	102	1048576	15	4195
2026-01-23 11:33:37.72	239.98	31.05	-27.2	-28.5	15.8	0.00e+00	0	42	102	1048576	15	4149
2026-01-23 11:33:38.73	240.30	31.13	-27.1	-28.1	16.0	0.00e+00	0	42	102	1048576	15	4056
2026-01-23 11:33:39.74	240.63	31.22	-27.1	-28.2	15.9	0.00e+00	0	42	102	1048576	15	4068
2026-01-23 11:33:40.74	240.96	31.30	-27.2	-28.3	15.9	0.00e+00	0	42	102	1048576	15	4100
2026-01-23 11:33:41.75	241.29	31.38	-27.3	-28.7	15.7	0.00e+00	0	42	102	1048576	15	4196
2026-01-23 11:33:42.75	241.61	31.46	-27.4	-28.8	15.6	0.00e+00	0	42	102	1048576	15	4250
2026-01-23 11:33:43.75	241.94	31.54	-27.6	-29.3	15.4	0.00e+00	0	42	102	1048576	15	4373
2026-01-23 11:33:44.76	242.28	31.62	-27.5	-29.1	15.4	7.00e-07	0	42	102	1048576	15	4312
2026-01-23 11:33:45.76	242.61	31.70	-27.4	-28.8	15.6	7.00e-07	0	42	102	1048576	15	4241
2026-01-23 11:33:46.77	242.95	31.77	-27.3	-28.6	15.8	0.00e+00	0	42	102	1048576	15	4186
2026-01-23 11:33:47.78	243.29	31.85	-27.3	-28.6	15.8	0.00e+00	0	42	102	1048576	15	4174
2026-01-23 11:33:48.78	243.63	31.93	-27.3	-28.6	15.8	0.00e+00	0	42	102	1048576	15	4177
2026-01-23 11:33:49.78	243.97	32.00	-27.4	-28.8	15.7	0.00e+00	0	42	102	1048576	15	4223
2026-01-23 11:33:50.78	244.31	32.07	-27.5	-29.0	15.5	0.00e+00	0	42	102	1048576	15	4303
2026-01-23 11:33:51.79	244.66	32.15	-27.8	-29.7	15.2	0.00e+00	0	42	102	1048576	15	4487
2026-01-23 11:33:52.80	245.00	32.22	-27.9	-30.0	14.9	7.00e-07	0	42	102	1048576	15	4594
2026-01-23 11:33:53.80	245.35	32.29	-28.2	-30.1	14.8	1.50e-06	0	42	102	1048576	16	4486
2026-01-23 11:33:54.81	245.70	32.36	-28.1	-30.0	14.9	0.00e+00	0	42	102	1048576	16	4468
2026-01-23 11:33:55.81	246.05	32.43	-28.1	-29.8	15.0	0.00e+00	0	42	102	1048576	16	4387
2026-01-23 11:33:56.82	246.40	32.50	-28.1	-29.8	15.0	0.00e+00	0	42	102	1048576	16	4403
2026-01-23 11:33:57.82	246.75	32.56	-28.3	-30.3	14.7	0.00e+00	0	42	102	1048576	16	4550
2026-01-23 11:33:58.82	247.11	32.63	-28.2	-30.1	14.8	0.00e+00	0	42	102	1048576	16	4485
2026-01-23 11:33:59.83	247.46	32.69	-28.1	-30.0	14.9	0.00e+00	0	42	102	1048576	16	4462
2026-01-23 11:34:00.83	247.82	32.76	-28.2	-30.0	14.9	0.00e+00	0	42	102	1048576	16	4458
2026-01-23 11:34:01.84	248.18	32.82	-28.2	-30.2	14.8	0.00e+00	0	42	102	1048576	16	4501
2026-01-23 11:34:02.84	248.54	32.88	-28.3	-30.2	14.8	0.00e+00	0	42	102	1048576	16	4526
2026-01-23 11:34:03.85	248.90	32.94	-28.0	-29.7	15.0	3.00e-06	0	42	102	1048576	16	4370
2026-01-23 11:34:04.86	249.26	33.00	-28.1	-29.8	15.0	0.00e+00	0	42	102	1048576	16	4393
2026-01-23 11:34:05.86	249.63	33.06	-28.1	-29.9	14.9	0.00e+00	0	42	102	1048576	16	4417
2026-01-23 11:34:06.86	249.99	33.12	-28.2	-30.1	14.8	1.50e-06	0	42	102	1048576	16	4500
2026-01-23 11:34:07.87	250.36	33.17	-28.3	-30.4	14.6	0.00e+00	0	42	102	1048576	16	4567
2026-01-23 11:34:08.87	250.72	33.23	-28.2	-30.1	14.8	0.00e+00	0	42	102	1048576	16	4497
2026-01-23 11:34:09.87	251.09	33.28	-28.1	-30.0	14.9	3.80e-06	0	42	102	1048576	16	4445
2026-01-23 11:34:10.87	251.46	33.33	-28.3	-30.3	14.7	0.00e+00	0	42	102	1048576	16	4539
2026-01-23 11:34:11.88	251.83	33.38	-28.1	-29.9	15.0	0.00e+00	0	42	102	1048576	16	4414
2026-01-23 11:34:12.88	252.20	33.43	-27.9	-29.4	15.2	6.80e-06	0	42	102	1048576	16	4294
2026-01-23 11:34:13.89	252.58	33.48	-28.0	-29.6	15.2	0.00e+00	0	42	102	1048576	16	4331
2026-01-23 11:34:14.89	252.95	33.53	-28.0	-29.6	15.1	0.00e+00	0	42	102	1048576	16	4340
2026-01-23 11:34:15.90	253.33	33.58	-28.0	-29.6	15.1	7.00e-07	0	42	102	1048576	16	4350
2026-01-23 11:34:16.90	253.70	33.62	-27.9	-29.5	15.2	0.00e+00	0	42	102	1048576	16	4300
2026-01-23 11:34:17.90	254.08	33.66	-28.0	-29.7	15.1	0.00e+00	0	42	102	1048576	16	4358
2026-01-23 11:34:18.91	254.46	33.71	-28.1	-29.8	15.0	6.10e-06	0	42	102	1048576	16	4396
2026-01-23 11:34:19.92	254.84	33.75	-28.1	-29.9	14.9	0.00e+00	0	42	102	1048576	16	4434
2026-01-23 11:34:20.92	255.22	33.79	-28.2	-30.1	14.8	0.00e+00	0	42	102	1048576	16	4472
2026-01-23 11:34:21.93	255.60	33.82	-28.0	-29.5	15.1	0.00e+00	0	42	102	1048576	16	4323
2026-01-23 11:34:22.94	255.98	33.86	-28.0	-29.7	15.1	0.00e+00	0	42	102	1048576	16	4365
2026-01-23 11:34:23.94	256.37	33.90	-28.0	-29.6	15.2	0.00e+00	0	42	102	1048576	16	4323
2026-01-23 11:34:24.95	256.75	33.93	-28.0	-29.8	15.1	0.00e+00	0	42	102	1048576	16	4384
2026-01-23 11:34:25.95	257.13	33.96	-28.1	-29.8	15.0	0.00e+00	0	42	102	1048576	16	4406
2026-01-23 11:34:26.96	257.52	33.99	-28.2	-30.0	14.9	0.00e+00	0	42	102	1048576	16	4458
2026-01-23 11:34:27.96	257.90	34.02	-28.2	-30.1	14.9	2.20e-06	0	42	102	1048576	16	4476
2026-01-23 11:34:28.96	258.29	34.05	-28.1	-29.9	15.0	7.00e-07	0	42	102	1048576	16	4420
2026-01-23 11:34:29.97	258.68	34.08	-28.2	-30.1	14.8	0.00e+00	0	42	102	1048576	16	4490
2026-01-23 11:34:30.97	259.06	34.11	-28.1	-29.9	14.9	7.00e-07	0	42	102	1048576	16	4434
2026-01-23 11:34:31.98	259.45	34.13	-28.2	-30.1	14.8	0.00e+00	0	42	102	1048576	16	4494
2026-01-23 11:34:32.99	259.85	34.15	-28.2	-30.0	14.9	2.20e-06	0	42	102	1048576	16	4468
2026-01-23 11:34:34.00	260.24	34.17	-28.1	-30.0	14.9	0.00e+00	0	42	102	1048576	16	4439
2026-01-23 11:34:35.00	260.63	34.19	-28.2	-30.2	14.8	0.00e+00	0	42	102	1048576	16	4501
2026-01-23 11:34:36.00	261.01	34.21	-28.1	-29.8	15.0	0.00e+00	0	42	102	1048576	16	4403
2026-01-23 11:34:37.00	261.40	34.23	-28.4	-30.7	14.5	0.00e+00	0	42	102	1048576	16	4644
2026-01-23 11:34:38.01	261.80	34.25	-28.3	-30.2	14.8	0.00e+00	0	42	102	1048576	16	4513
2026-01-23 11:34:39.01	262.18	34.26	-28.2	-30.1	14.9	0.00e+00	0	42	102	1048576	16	4492
2026-01-23 11:34:40.01	262.57	34.27	-28.2	-30.2	14.8	0.00e+00	0	42	102	1048576	16	4501
2026-01-23 11:34:41.02	262.97	34.28	-28.3	-30.4	14.7	0.00e+00	0	42	102	1048576	16	4554
2026-01-23 11:34:42.02	263.36	34.29	-28.5	-30.8	14.5	7.00e-07	0	42	102	1048576	16	4687
2026-01-23 11:34:43.02	263.75	34.30	-28.8	-30.9	14.1	0.00e+00	0	42	102	1048576	17	4626
2026-01-23 11:34:44.03	264.14	34.31	-28.6	-30.6	14.3	7.00e-07	0	42	102	1048576	17	4511
2026-01-23 11:34:45.03	264.54	34.31	-28.3	-29.9	14.7	0.00e+00	0	42	102	1048576	17	4317
2026-01-23 11:34:46.03	264.93	34.32	-28.2	-29.6	14.8	7.00e-07	0	42	102	1048576	17	4245
2026-01-23 11:34:47.04	265.32	34.32	-28.2	-29.7	14.8	0.00e+00	0	42	102	1048576	17	4246
2026-01-23 11:34:48.04	265.71	34.32	-28.4	-30.1	14.6	0.00e+00	0	42	102	1048576	17	4369
2026-01-23 11:34:49.04	266.10	34.32	-28.2	-29.6	14.8	0.00e+00	0	42	102	1048576	17	4235
2026-01-23 11:34:50.04	266.49	34.32	-28.4	-30.0	14.6	0.00e+00	0	42	102	1048576	17	4335
2026-01-23 11:34:51.03	266.88	34.32	-28.1	-29.3	15.0	0.00e+00	0	42	102	1048576	17	4148
2026-01-23 11:34:52.03	267.27	34.31	-28.0	-29.1	15.2	7.00e-07	0	42	102	1048576	17	4084
2026-01-23 11:34:53.04	267.67	34.30	-28.1	-29.3	15.0	0.00e+00	0	42	102	1048576	17	4156
2026-01-23 11:34:54.05	268.06	34.30	-28.3	-29.8	14.7	7.00e-07	0	42	102	1048576	17	4297
2026-01-23 11:34:55.06	268.45	34.29	-28.4	-30.2	14.5	0.00e+00	0	42	102	1048576	17	4387
2026-01-23 11:34:56.06	268.84	34.28	-28.6	-30.5	14.3	7.00e-07	0	42	102	1048576	17	4496
2026-01-23 11:34:57.07	269.24	34.26	-28.3	-29.8	14.7	7.60e-06	0	42	102	1048576	17	4286
2026-01-23 11:34:58.07	269.63	34.25	-28.2	-29.6	14.9	7.00e-07	0	42	102	1048576	17	4223
2026-01-23 11:34:59.08	270.02	34.23	-28.2	-29.6	14.9	0.00e+00	0	42	102	1048576	17	4234
2026-01-23 11:35:00.08	270.41	34.22	-28.1	-29.4	14.9	0.00e+00	0	42	102	1048576	17	4178
2026-01-23 11:35:01.08	270.80	34.20	-28.1	-29.3	15.0	0.00e+00	0	42	102	1048576	17	4145
2026-01-23 11:35:02.09	271.19	34.18	-28.2	-29.6	14.9	0.00e+00	0	42	102	1048576	17	4215
2026-01-23 11:35:03.09	271.58	34.16	-28.0	-29.1	15.2	3.00e-06	0	42	102	1048576	17	4093
2026-01-23 11:35:04.10	271.97	34.14	-28.0	-29.1	15.2	0.00e+00	0	42	102	1048576	17	4086
2026-01-23 11:35:05.10	272.35	34.11	-28.1	-29.4	15.0	0.00e+00	0	42	102	1048576	17	4175
2026-01-23 11:35:06.11	272.74	34.09	-28.0	-29.1	15.1	5.30e-06	0	42	102	1048576	17	4104
2026-01-23 11:35:07.11	273.13	34.06	-28.0	-29.2	15.1	0.00e+00	0	42	102	1048576	17	4109
2026-01-23 11:35:08.12	273.52	34.03	-28.1	-29.4	15.0	0.00e+00	0	42	102	1048576	17	4163
2026-01-23 11:35:09.12	273.90	34.00	-28.2	-29.6	14.9	0.00e+00	0	42	102	1048576	17	4219
2026-01-23 11:35:10.12	274.28	33.97	-28.3	-29.9	14.7	0.00e+00	0	42	102	1048576	17	4321
2026-01-23 11:35:11.13	274.67	33.94	-28.3	-29.9	14.7	0.00e+00	0	42	102	1048576	17	4329
2026-01-23 11:35:12.14	275.06	33.91	-28.3	-29.9	14.7	3.00e-06	0	42	102	1048576	17	4320
2026-01-23 11:35:13.14	275.44	33.87	-28.3	-29.9	14.7	0.00e+00	0	42	102	1048576	17	4303
2026-01-23 11:35:14.14	275.82	33.84	-28.4	-30.1	14.6	7.00e-07	0	42	102	1048576	17	4380
2026-01-23 11:35:15.14	276.19	33.80	-28.3	-29.9	14.7	7.00e-07	0	42	102	1048576	17	4307
2026-01-23 11:35:16.15	276.58	33.76	-28.3	-29.7	14.8	7.00e-07	0	42	102	1048576	17	4259
2026-01-23 11:35:17.16	276.96	33.72	-28.1	-29.3	15.0	0.00e+00	0	42	102	1048576	17	4158
2026-01-23 11:35:18.16	277.33	33.68	-28.2	-29.6	14.9	7.00e-07	0	42	102	1048576	17	4227
2026-01-23 11:35:19.17	277.71	33.64	-28.2	-29.5	14.9	0.00e+00	0	42	102	1048576	17	4205
2026-01-23 11:35:20.18	278.09	33.59	-28.2	-29.5	14.9	7.00e-07	0	42	102	1048576	17	4212
2026-01-23 11:35:21.18	278.46	33.55	-28.2	-29.6	14.9	0.00e+00	0	42	102	1048576	17	4230
2026-01-23 11:35:22.18	278.84	33.50	-28.0	-29.2	15.1	0.00e+00	0	42	102	1048576	17	4110
2026-01-23 11:35:23.19	279.21	33.45	-27.9	-28.9	15.3	0.00e+00	0	42	102	1048576	17	4032
2026-01-23 11:35:24.19	279.58	33.40	-28.0	-29.1	15.2	0.00e+00	0	42	102	1048576	17	4086
2026-01-23 11:35:25.19	279.95	33.35	-28.3	-29.8	14.8	0.00e+00	0	42	102	1048576	17	4285
2026-01-23 11:35:26.19	280.32	33.30	-28.2	-29.7	14.9	0.00e+00	0	42	102	1048576	17	4247
2026-01-23 11:35:27.20	280.69	33.25	-28.3	-29.7	14.8	7.00e-07	0	42	102	1048576	17	4253
2026-01-23 11:35:28.20	281.05	33.19	-28.0	-29.2	15.1	0.00e+00	0	42	102	1048576	17	4122
2026-01-23 11:35:29.21	281.42	33.14	-27.9	-29.0	15.2	0.00e+00	0	42	102	1048576	17	4054
2026-01-23 11:35:30.22	281.79	33.08	-27.9	-28.8	15.3	0.00e+00	0	42	102	1048576	17	4009
2026-01-23 11:35:31.23	282.15	33.02	-27.7	-29.1	15.0	1.16e-03	0	42	102	1048576	16	4258
2026-01-23 11:35:32.23	282.51	32.97	-27.7	-29.1	14.9	1.74e-03	0	42	102	1048576	16	4256
2026-01-23 11:35:33.24	282.88	32.91	-27.8	-29.3	14.5	1.65e-02	0	42	102	1048576	16	4316
2026-01-23 11:35:34.25	283.24	32.85	-27.5	-29.0	14.6	1.65e-02	0	42	102	1048576	16	4237
2026-01-23 11:35:35.25	283.60	32.78	-27.7	-29.3	14.5	1.64e-02	0	42	102	1048576	16	4335
2026-01-23 11:35:36.26	283.95	32.72	-27.9	-29.7	14.4	1.33e-02	0	42	102	1048576	16	4429
2026-01-23 11:35:37.26	284.31	32.66	-27.8	-29.5	14.7	4.86e-03	0	42	102	1048576	16	4348
2026-01-23 11:35:38.26	284.66	32.59	-27.9	-29.6	14.5	7.36e-03	0	42	102	1048576	16	4406
2026-01-23 11:35:39.26	285.01	32.53	-27.9	-29.6	14.4	1.51e-02	0	42	102	1048576	16	4377
2026-01-23 11:35:40.26	285.36	32.46	-28.0	-29.6	15.2	3.45e-03	0	42	102	1048576	16	4326
2026-01-23 11:35:41.26	285.71	32.39	-27.9	-29.4	15.3	0.00e+00	0	42	102	1048576	16	4267
2026-01-23 11:35:42.27	286.06	32.32	-28.0	-29.7	15.1	0.00e+00	0	42	102	1048576	16	4364
2026-01-23 11:35:43.28	286.41	32.25	-28.2	-30.1	14.9	0.00e+00	0	42	102	1048576	16	4472
2026-01-23 11:35:44.28	286.75	32.18	-28.2	-30.1	14.9	0.00e+00	0	42	102	1048576	16	4471
2026-01-23 11:35:45.29	287.10	32.11	-28.4	-30.6	14.6	7.00e-07	0	42	102	1048576	16	4624
2026-01-23 11:35:46.30	287.44	32.03	-28.5	-30.7	14.6	1.50e-06	0	42	102	1048576	16	4658
2026-01-23 11:35:47.30	287.78	31.96	-28.6	-30.5	14.4	1.50e-06	0	42	102	1048576	17	4493
2026-01-23 11:35:48.30	288.12	31.89	-28.5	-30.4	14.4	0.00e+00	0	42	102	1048576	17	4447
2026-01-23 11:35:49.31	288.46	31.81	-28.2	-29.6	14.9	0.00e+00	0	42	102	1048576	17	4215
2026-01-23 11:35:50.32	288.79	31.73	-28.1	-29.3	15.1	0.00e+00	0	42	102	1048576	17	4132
2026-01-23 11:35:51.32	289.13	31.66	-28.0	-29.1	15.2	0.00e+00	0	42	102	1048576	17	4082
2026-01-23 11:35:52.33	289.46	31.58	-28.0	-29.0	15.2	0.00e+00	0	42	102	1048576	17	4075
2026-01-23 11:35:53.33	289.79	31.50	-28.0	-29.2	15.1	0.00e+00	0	42	102	1048576	17	4102
2026-01-23 11:35:54.34	290.12	31.42	-28.1	-29.3	15.1	0.00e+00	0	42	102	1048576	17	4136
2026-01-23 11:35:55.33	290.45	31.34	-28.0	-29.2	15.1	0.00e+00	0	42	102	1048576	17	4121
2026-01-23 11:35:56.34	290.77	31.26	-28.1	-29.4	15.0	7.00e-07	0	42	102	1048576	17	4178
2026-01-23 11:35:57.34	291.10	31.17	-28.1	-29.4	15.0	0.00e+00	0	42	102	1048576	17	4167
2026-01-23 11:35:58.35	291.42	31.09	-27.7	-29.0	15.5	0.00e+00	0	42	102	1048576	16	4169
2026-01-23 11:35:59.35	291.74	31.01	-27.6	-28.7	15.7	0.00e+00	0	42	102	1048576	16	4078
2026-01-23 11:36:00.35	292.06	30.92	-27.5	-28.6	15.7	0.00e+00	0	42	102	1048576	16	4063
2026-01-23 11:36:01.36	292.38	30.84	-27.6	-28.7	15.7	0.00e+00	0	42	102	1048576	16	4101
2026-01-23 11:36:02.37	292.70	30.75	-27.6	-28.7	15.7	0.00e+00	0	42	102	1048576	16	4088
2026-01-23 11:36:03.37	293.01	30.66	-27.7	-29.0	15.5	0.00e+00	0	42	102	1048576	16	4161
2026-01-23 11:36:04.38	293.33	30.58	-27.7	-29.0	15.5	0.00e+00	0	42	102	1048576	16	4157
2026-01-23 11:36:05.38	293.64	30.49	-27.7	-28.9	15.6	7.00e-07	0	42	102	1048576	16	4129
2026-01-23 11:36:06.38	293.95	30.40	-27.4	-28.3	15.9	0.00e+00	0	42	102	1048576	16	3990
2026-01-23 11:36:07.39	294.26	30.31	-27.4	-28.2	15.9	0.00e+00	0	42	102	1048576	16	3964
2026-01-23 11:36:08.40	294.56	30.22	-27.4	-28.3	15.9	0.00e+00	0	42	102	1048576	16	3980
2026-01-23 11:36:09.41	294.87	30.13	-27.3	-28.1	16.0	0.00e+00	0	42	102	1048576	16	3942
2026-01-23 11:36:10.41	295.17	30.04	-27.1	-28.0	16.1	0.00e+00	0	42	102	1048576	15	4023
2026-01-23 11:36:11.40	295.47	29.95	-27.1	-28.0	16.2	0.00e+00	0	42	102	1048576	15	4023
2026-01-23 11:36:12.41	295.77	29.86	-27.0	-27.9	16.2	7.00e-07	0	42	102	1048576	15	4003
2026-01-23 11:36:13.41	296.07	29.76	-27.1	-28.1	16.1	0.00e+00	0	42	102	1048576	15	4042
2026-01-23 11:36:14.41	296.36	29.67	-27.2	-28.3	16.0	0.00e+00	0	42	102	1048576	15	4099
2026-01-23 11:36:15.41	296.66	29.58	-27.3	-28.6	15.8	0.00e+00	0	42	102	1048576	15	4187
2026-01-23 11:36:16.41	296.95	29.49	-27.4	-28.8	15.7	0.00e+00	0	42	102	1048576	15	4247
2026-01-23 11:36:17.41	297.24	29.39	-27.3	-28.6	15.8	0.00e+00	0	42	102	1048576	15	4178
2026-01-23 11:36:18.42	297.53	29.30	-27.2	-28.4	15.9	0.00e+00	0	42	102	1048576	15	4123
2026-01-23 11:36:19.42	297.82	29.20	-27.3	-28.5	15.9	0.00e+00	0	42	102	1048576	15	4144
2026-01-23 11:36:20.42	298.10	29.11	-27.3	-28.5	15.9	0.00e+00	0	42	102	1048576	15	4138
2026-01-23 11:36:21.43	298.39	29.01	-27.2	-28.3	16.0	0.00e+00	0	42	102	1048576	15	4097
2026-01-23 11:36:22.43	298.67	28.91	-27.2	-28.4	15.9	0.00e+00	0	42	102	1048576	15	4117
2026-01-23 11:36:23.43	298.95	28.82	-27.1	-28.1	16.1	0.00e+00	0	42	102	1048576	15	4045
2026-01-23 11:36:24.44	299.23	28.72	-26.9	-27.8	16.2	0.00e+00	0	42	102	1048576	15	3962
2026-01-23 11:36:25.44	299.51	28.62	-26.9	-27.7	16.3	0.00e+00	0	42	102	1048576	15	3932
2026-01-23 11:36:26.44	299.78	28.52	-26.9	-27.7	16.3	0.00e+00	0	42	102	1048576	15	3956
2026-01-23 11:36:27.45	300.06	28.42	-27.0	-28.0	16.1	0.00e+00	0	42	102	1048576	15	4015
2026-01-23 11:36:28.44	300.33	28.33	-27.2	-28.5	15.9	0.00e+00	0	42	102	1048576	15	4142
2026-01-23 11:36:29.45	300.60	28.23	-27.3	-28.6	15.8	0.00e+00	0	42	102	1048576	15	4175
2026-01-23 11:36:30.45	300.87	28.13	-27.0	-28.0	16.1	0.00e+00	0	42	102	1048576	15	4018
2026-01-23 11:36:31.45	301.14	28.03	-26.9	-27.6	16.3	0.00e+00	0	42	102	1048576	15	3930
2026-01-23 11:36:32.45	301.40	27.93	-26.9	-27.7	16.3	0.00e+00	0	42	102	1048576	15	3942
2026-01-23 11:36:33.45	301.66	27.83	-27.1	-28.1	16.1	0.00e+00	0	42	102	1048576	15	4032
2026-01-23 11:36:34.46	301.93	27.73	-27.2	-28.4	15.9	0.00e+00	0	42	102	1048576	15	4116
2026-01-23 11:36:35.47	302.19	27.62	-27.1	-28.2	16.0	0.00e+00	0	42	102	1048576	15	4076
2026-01-23 11:36:36.47	302.45	27.52	-27.0	-27.9	16.1	0.00e+00	0	42	102	1048576	15	3999
2026-01-23 11:36:37.48	302.71	27.42	-26.9	-27.8	16.2	0.00e+00	0	42	102	1048576	15	3965
2026-01-23 11:36:38.48	302.96	27.32	-27.1	-28.1	16.0	0.00e+00	0	42	102	1048576	15	4050
2026-01-23 11:36:39.49	303.22	27.22	-27.0	-28.0	16.2	0.00e+00	0	42	102	1048576	15	4009
2026-01-23 11:36:40.49	303.47	27.12	-27.1	-28.1	16.1	0.00e+00	0	42	102	1048576	15	4035
2026-01-23 11:36:41.49	303.72	27.01	-27.1	-28.1	16.0	0.00e+00	0	42	102	1048576	15	4056
2026-01-23 11:36:42.50	303.98	26.91	-26.8	-27.5	16.3	0.00e+00	0	42	102	1048576	15	3902
2026-01-23 11:36:43.50	304.22	26.81	-26.8	-27.9	16.4	7.00e-07	0	42	102	1048576	14	4099
2026-01-23 11:36:44.50	304.47	26.71	-26.8	-28.1	16.4	0.00e+00	0	42	102	1048576	14	4142
2026-01-23 11:36:45.50	304.71	26.60	-26.9	-28.2	16.3	0.00e+00	0	42	102	1048576	14	4168
2026-01-23 11:36:46.50	304.96	26.50	-27.0	-28.5	16.1	0.00e+00	0	42	102	1048576	14	4253
2026-01-23 11:36:47.51	305.20	26.40	-27.0	-28.5	16.1	0.00e+00	0	42	102	1048576	14	4251
2026-01-23 11:36:48.51	305.44	26.29	-26.8	-27.9	16.4	0.00e+00	0	42	102	1048576	14	4096
2026-01-23 11:36:49.51	305.68	26.19	-26.6	-27.6	16.6	0.00e+00	0	42	102	1048576	14	4016
2026-01-23 11:36:50.52	305.92	26.09	-26.6	-27.6	16.6	0.00e+00	0	42	102	1048576	14	4031
2026-01-23 11:36:51.53	306.16	25.98	-26.6	-27.6	16.6	0.00e+00	0	42	102	1048576	14	4023
2026-01-23 11:36:52.53	306.39	25.88	-26.7	-27.7	16.5	0.00e+00	0	42	102	1048576	14	4049
2026-01-23 11:36:53.54	306.62	25.77	-26.8	-28.0	16.4	0.00e+00	0	42	102	1048576	14	4116
2026-01-23 11:36:54.55	306.86	25.67	-26.9	-28.1	16.3	0.00e+00	0	42	102	1048576	14	4168
2026-01-23 11:36:55.54	307.08	25.57	-26.8	-28.0	16.3	0.00e+00	0	42	102	1048576	14	4133
2026-01-23 11:36:56.54	307.31	25.46	-27.0	-28.4	16.1	0.00e+00	0	42	102	1048576	14	4245
2026-01-23 11:36:57.55	307.54	25.36	-27.1	-28.6	16.0	0.00e+00	0	42	102	1048576	14	4295
2026-01-23 11:36:58.55	307.76	25.26	-27.2	-28.9	15.9	0.00e+00	0	42	102	1048576	14	4382
2026-01-23 11:36:59.56	307.99	25.15	-27.4	-29.2	15.7	0.00e+00	0	42	102	1048576	14	4465
2026-01-23 11:37:00.56	308.21	25.05	-27.4	-29.4	15.6	0.00e+00	0	42	102	1048576	14	4528
2026-01-23 11:37:01.57	308.43	24.94	-27.4	-29.4	15.6	7.00e-07	0	42	102	1048576	14	4509
2026-01-23 11:37:02.57	308.65	24.84	-27.4	-29.2	15.7	0.00e+00	0	42	102	1048576	14	4467
2026-01-23 11:37:03.58	308.87	24.73	-27.5	-29.5	15.5	0.00e+00	0	42	102	1048576	14	4533
2026-01-23 11:37:04.58	309.09	24.63	-27.6	-29.4	15.3	0.00e+00	0	42	102	1048576	15	4394
2026-01-23 11:37:05.59	309.31	24.52	-27.6	-29.3	15.3	0.00e+00	0	42	102	1048576	15	4381
2026-01-23 11:37:06.59	309.52	24.42	-27.7	-29.4	15.3	0.00e+00	0	42	102	1048576	15	4416
2026-01-23 11:37:07.59	309.73	24.32	-27.7	-29.5	15.2	0.00e+00	0	42	102	1048576	15	4425
2026-01-23 11:37:08.60	309.95	24.21	-27.5	-29.0	15.5	0.00e+00	0	42	102	1048576	15	4303
2026-01-23 11:37:09.60	310.16	24.11	-27.4	-28.8	15.6	0.00e+00	0	42	102	1048576	15	4226
2026-01-23 11:37:10.61	310.37	24.00	-27.3	-28.6	15.7	0.00e+00	0	42	102	1048576	15	4179
2026-01-23 11:37:11.61	310.57	23.90	-27.3	-28.7	15.7	0.00e+00	0	42	102	1048576	15	4205
2026-01-23 11:37:12.62	310.78	23.79	-27.2	-28.4	15.8	0.00e+00	0	42	102	1048576	15	4128
2026-01-23 11:37:13.62	310.98	23.69	-27.1	-28.1	16.0	0.00e+00	0	42	102	1048576	15	4044
2026-01-23 11:37:14.63	311.19	23.58	-27.0	-27.9	16.1	0.00e+00	0	42	102	1048576	15	3989
2026-01-23 11:37:15.63	311.39	23.48	-27.0	-27.9	16.1	0.00e+00	0	42	102	1048576	15	4007
2026-01-23 11:37:16.63	311.59	23.38	-27.0	-27.8	16.1	0.00e+00	0	42	102	1048576	15	3984
2026-01-23 11:37:17.64	311.79	23.27	-27.0	-27.9	16.1	0.00e+00	0	42	102	1048576	15	3999
2026-01-23 11:37:18.65	311.99	23.17	-26.9	-27.7	16.2	0.00e+00	0	42	102	1048576	15	3961
2026-01-23 11:37:19.65	312.19	23.07	-26.9	-27.8	16.1	0.00e+00	0	42	102	1048576	15	3970
2026-01-23 11:37:20.65	312.38	22.96	-27.0	-28.0	16.0	0.00e+00	0	42	102	1048576	15	4024
2026-01-23 11:37:21.66	312.58	22.86	-27.0	-28.0	16.0	0.00e+00	0	42	102	1048576	15	4031
2026-01-23 11:37:22.67	312.77	22.75	-27.0	-28.0	16.0	0.00e+00	0	42	102	1048576	15	4034
2026-01-23 11:37:23.68	312.96	22.65	-27.1	-28.2	15.9	0.00e+00	0	42	102	1048576	15	4083
2026-01-23 11:37:24.68	313.15	22.55	-27.1	-28.1	15.9	0.00e+00	0	42	102	1048576	15	4053
2026-01-23 11:37:25.69	313.34	22.44	-27.0	-28.0	16.0	0.00e+00	0	42	102	1048576	15	4026
2026-01-23 11:37:26.70	313.53	22.34	-27.1	-28.2	15.8	0.00e+00	0	42	102	1048576	15	4081
2026-01-23 11:37:27.70	313.72	22.24	-27.0	-28.0	15.9	0.00e+00	0	42	102	1048576	15	4044
2026-01-23 11:37:28.71	313.91	22.13	-27.1	-28.3	15.8	7.00e-07	0	42	102	1048576	15	4110
2026-01-23 11:37:29.71	314.09	22.03	-27.0	-28.0	15.9	0.00e+00	0	42	102	1048576	15	4048
2026-01-23 11:37:30.71	314.27	21.93	-27.0	-28.1	15.9	0.00e+00	0	42	102	1048576	15	4051
2026-01-23 11:37:31.72	314.46	21.83	-27.0	-28.0	15.9	0.00e+00	0	42	102	1048576	15	4034
2026-01-23 11:37:32.72	314.64	21.72	-27.0	-28.1	15.9	0.00e+00	0	42	102	1048576	15	4062
2026-01-23 11:37:33.72	314.82	21.62	-27.1	-28.2	15.9	0.00e+00	0	42	102	1048576	15	4074
2026-01-23 11:37:34.73	315.00	21.52	-27.2	-28.4	15.7	0.00e+00	0	42	102	1048576	15	4136
2026-01-23 11:37:35.73	315.17	21.42	-27.2	-28.4	15.7	0.00e+00	0	42	102	1048576	15	4128
2026-01-23 11:37:36.74	315.35	21.31	-27.2	-28.3	15.7	7.00e-07	0	42	102	1048576	15	4119
2026-01-23 11:37:37.74	315.52	21.21	-27.2	-28.3	15.7	0.00e+00	0	42	102	1048576	15	4116
2026-01-23 11:37:38.75	315.70	21.11	-27.2	-28.4	15.7	0.00e+00	0	42	102	1048576	15	4156
2026-01-23 11:37:39.75	315.87	21.01	-27.2	-28.4	15.7	0.00e+00	0	42	102	1048576	15	4155
2026-01-23 11:37:40.76	316.05	20.91	-27.1	-28.3	15.7	0.00e+00	0	42	102	1048576	15	4124
2026-01-23 11:37:41.77	316.22	20.81	-27.2	-28.4	15.6	7.00e-07	0	42	102	1048576	15	4163
2026-01-23 11:37:42.77	316.39	20.71	-27.2	-28.4	15.6	1.50e-06	0	42	102	1048576	15	4138
2026-01-23 11:37:43.77	316.55	20.61	-27.0	-28.1	15.7	7.00e-07	0	42	102	1048576	15	4092
2026-01-23 11:37:44.77	316.72	20.51	-27.1	-28.1	15.9	0.00e+00	0	42	102	1048576	15	4061
2026-01-23 11:37:45.78	316.89	20.41	-27.1	-28.1	15.9	0.00e+00	0	42	102	1048576	15	4055
2026-01-23 11:37:46.79	317.06	20.30	-27.0	-27.9	16.0	0.00e+00	0	42	102	1048576	15	4011
2026-01-23 11:37:47.80	317.22	20.20	-27.0	-28.0	15.9	0.00e+00	0	42	102	1048576	15	4038
2026-01-23 11:37:48.80	317.38	20.10	-26.9	-27.8	16.1	0.00e+00	0	42	102	1048576	15	3975
2026-01-23 11:37:49.81	317.55	20.00	-27.0	-27.9	16.0	0.00e+00	0	42	102	1048576	15	3999
2026-01-23 11:37:50.81	317.71	19.90	-27.0	-27.9	16.0	0.00e+00	0	42	102	1048576	15	3995
2026-01-23 11:37:51.82	317.87	19.80	-27.0	-28.0	15.9	0.00e+00	0	42	102	1048576	15	4024
2026-01-23 11:37:52.82	318.03	19.71	-27.1	-28.1	15.9	0.00e+00	0	42	102	1048576	15	4053
2026-01-23 11:37:53.82	318.19	19.61	-27.1	-28.1	15.9	0.00e+00	0	42	102	1048576	15	4059
2026-01-23 11:37:54.83	318.34	19.51	-27.1	-28.2	15.9	0.00e+00	0	42	102	1048576	15	4071
2026-01-23 11:37:55.84	318.50	19.41	-27.1	-28.2	15.8	0.00e+00	0	42	102	1048576	15	4097
2026-01-23 11:37:56.84	318.66	19.31	-27.1	-28.1	15.9	0.00e+00	0	42	102	1048576	15	4057
2026-01-23 11:37:57.85	318.81	19.21	-27.1	-28.1	15.9	0.00e+00	0	42	102	1048576	15	4063
2026-01-23 11:37:58.85	318.96	19.11	-27.0	-28.0	16.0	0.00e+00	0	42	102	1048576	15	4026
2026-01-23 11:37:59.86	319.12	19.02	-27.0	-28.1	15.9	0.00e+00	0	42	102	1048576	15	4052
2026-01-23 11:38:00.87	319.27	18.92	-27.0	-27.9	16.0	0.00e+00	0	42	102	1048576	15	4004
2026-01-23 11:38:01.87	319.42	18.82	-27.1	-28.1	15.8	0.00e+00	0	42	102	1048576	15	4068
2026-01-23 11:38:02.87	319.57	18.72	-27.1	-28.1	15.9	0.00e+00	0	42	102	1048576	15	4057
2026-01-23 11:38:03.88	319.72	18.63	-27.1	-28.1	15.8	0.00e+00	0	42	102	1048576	15	4071
2026-01-23 11:38:04.88	319.87	18.53	-27.0	-28.0	15.9	0.00e+00	0	42	102	1048576	15	4037
2026-01-23 11:38:05.89	320.01	18.43	-27.1	-28.1	15.8	0.00e+00	0	42	102	1048576	15	4061
2026-01-23 11:38:06.89	320.16	18.34	-27.0	-27.9	16.0	0.00e+00	0	42	102	1048576	15	3995
2026-01-23 11:38:07.90	320.31	18.24	-27.0	-28.0	15.9	0.00e+00	0	42	102	1048576	15	4033
2026-01-23 11:38:08.91	320.45	18.14	-27.0	-28.1	15.9	0.00e+00	0	42	102	1048576	15	4045
2026-01-23 11:38:09.91	320.59	18.05	-27.1	-28.1	15.8	0.00e+00	0	42	102	1048576	15	4060
2026-01-23 11:38:10.91	320.74	17.95	-27.0	-28.0	15.9	0.00e+00	0	42	102	1048576	15	4036
2026-01-23 11:38:11.91	320.88	17.86	-27.1	-28.2	15.8	0.00e+00	0	42	102	1048576	15	4078
2026-01-23 11:38:12.91	321.02	17.76	-27.1	-28.2	15.7	0.00e+00	0	42	102	1048576	15	4096
2026-01-23 11:38:13.92	321.16	17.67	-27.1	-28.2	15.8	0.00e+00	0	42	102	1048576	15	4077
2026-01-23 11:38:14.93	321.30	17.57	-27.2	-28.4	15.6	0.00e+00	0	42	102	1048576	15	4136
2026-01-23 11:38:15.93	321.44	17.48	-27.2	-28.4	15.7	0.00e+00	0	42	102	1048576	15	4129
2026-01-23 11:38:16.94	321.57	17.38	-27.3	-28.7	15.5	0.00e+00	0	42	102	1048576	15	4206
2026-01-23 11:38:17.95	321.71	17.29	-27.4	-28.8	15.4	0.00e+00	0	42	102	1048576	15	4239
2026-01-23 11:38:18.94	321.85	17.19	-27.4	-28.8	15.4	0.00e+00	0	42	102	1048576	15	4259
2026-01-23 11:38:19.95	321.98	17.10	-27.0	-28.6	14.6	1.52e-02	0	42	102	1048576	15	4302
2026-01-23 11:38:20.96	322.12	17.01	-27.2	-29.0	14.4	1.52e-02	0	42	102	1048576	15	4402
2026-01-23 11:38:21.96	322.25	16.91	-27.1	-28.8	14.5	1.56e-02	0	42	102	1048576	15	4381
2026-01-23 11:38:22.97	322.38	16.82	-27.0	-28.7	14.5	1.57e-02	0	42	102	1048576	15	4357
2026-01-23 11:38:23.97	322.51	16.73	-27.1	-28.8	14.4	1.59e-02	0	42	102	1048576	15	4403
2026-01-23 11:38:24.98	322.65	16.63	-27.1	-28.8	14.4	1.59e-02	0	42	102	1048576	15	4374
2026-01-23 11:38:25.98	322.78	16.54	-27.2	-29.0	14.3	1.59e-02	0	42	102	1048576	15	4434
2026-01-23 11:38:26.99	322.91	16.45	-27.3	-29.4	14.1	1.60e-02	0	42	102	1048576	15	4591
2026-01-23 11:38:28.00	323.04	16.36	-27.2	-29.0	14.2	1.60e-02	0	42	102	1048576	15	4467
2026-01-23 11:38:29.01	323.16	16.26	-27.2	-29.1	14.2	1.58e-02	0	42	102	1048576	15	4497
2026-01-23 11:38:30.01	323.29	16.17	-27.3	-29.3	14.1	1.55e-02	0	42	102	1048576	15	4522
2026-01-23 11:38:31.02	323.42	16.08	-27.2	-29.2	14.1	1.54e-02	0	42	102	1048576	15	4496
2026-01-23 11:38:32.03	323.54	15.99	-27.2	-29.1	14.2	1.54e-02	0	42	102	1048576	15	4484
2026-01-23 11:38:33.03	323.67	15.90	-27.2	-29.1	14.2	1.53e-02	0	42	102	1048576	15	4478
2026-01-23 11:38:34.04	323.79	15.81	-27.3	-29.3	14.2	1.55e-02	0	42	102	1048576	15	4502
2026-01-23 11:38:35.04	323.92	15.72	-27.2	-29.2	14.2	1.53e-02	0	42	102	1048576	15	4505
2026-01-23 11:38:36.05	324.04	15.63	-27.3	-29.3	14.2	1.54e-02	0	42	102	1048576	15	4530
2026-01-23 11:38:37.06	324.16	15.54	-27.4	-29.6	14.0	1.51e-02	0	42	102	1048576	15	4626
2026-01-23 11:38:38.06	324.28	15.45	-27.4	-29.5	14.0	1.50e-02	0	42	102	1048576	15	4598
2026-01-23 11:38:39.07	324.41	15.36	-27.5	-29.8	13.9	1.49e-02	0	42	102	1048576	15	4658
2026-01-23 11:38:40.07	324.52	15.27	-27.7	-30.0	13.8	1.48e-02	0	42	102	1048576	15	4733
2026-01-23 11:38:41.08	324.64	15.18	-27.7	-30.2	13.7	1.50e-02	0	42	102	1048576	15	4784
2026-01-23 11:38:42.08	324.76	15.09	-27.8	-30.3	13.7	1.47e-02	0	42	102	1048576	15	4826
2026-01-23 11:38:43.08	324.88	15.00	-27.8	-30.5	13.6	1.47e-02	0	42	102	1048576	15	4879
2026-01-23 11:38:44.09	325.00	14.91	-28.1	-30.5	13.5	1.49e-02	0	42	102	1048576	16	4754
2026-01-23 11:38:45.09	325.11	14.82	-28.5	-30.5	13.9	4.50e-06	0	42	102	1048576	17	4506
2026-01-23 11:38:46.09	325.23	14.74	-28.5	-30.4	14.0	1.50e-06	0	42	102	1048576	17	4481
2026-01-23 11:38:47.10	325.35	14.65	-28.5	-30.5	13.8	2.20e-06	0	42	102	1048576	17	4515
2026-01-23 11:38:48.11	325.46	14.56	-28.3	-29.9	14.1	2.20e-06	0	42	102	1048576	17	4349
2026-01-23 11:38:49.11	325.57	14.47	-28.3	-29.9	14.1	1.50e-06	0	42	102	1048576	17	4329
2026-01-23 11:38:50.11	325.69	14.38	-28.3	-29.9	14.0	3.80e-06	0	42	102	1048576	17	4335
2026-01-23 11:38:51.11	325.80	14.30	-28.2	-29.7	14.1	5.30e-06	0	42	102	1048576	17	4278
2026-01-23 11:38:52.12	325.91	14.21	-27.7	-29.8	13.4	1.59e-02	0	42	102	1048576	16	4573
2026-01-23 11:38:53.12	326.02	14.12	-28.0	-30.4	13.1	1.60e-02	0	42	102	1048576	16	4741
2026-01-23 11:38:54.12	326.13	14.04	-27.6	-29.8	13.4	1.54e-02	0	42	102	1048576	16	4620
2026-01-23 11:38:55.13	326.24	13.95	-27.6	-29.7	13.5	1.49e-02	0	42	102	1048576	16	4578
2026-01-23 11:38:56.14	326.35	13.87	-27.7	-29.9	13.2	1.51e-02	0	42	102	1048576	16	4674
2026-01-23 11:38:57.14	326.46	13.78	-27.7	-29.9	13.1	1.49e-02	0	42	102	1048576	16	4652
2026-01-23 11:38:58.15	326.57	13.69	-27.7	-30.0	13.0	1.50e-02	0	42	102	1048576	16	4677
2026-01-23 11:38:59.16	326.68	13.61	-27.7	-30.1	12.9	1.52e-02	0	42	102	1048576	16	4728
2026-01-23 11:39:00.15	326.79	13.52	-27.7	-30.2	12.8	1.52e-02	0	42	102	1048576	16	4765
2026-01-23 11:39:01.16	326.89	13.44	-27.7	-30.1	13.0	1.48e-02	0	42	102	1048576	16	4746
2026-01-23 11:39:02.16	327.00	13.35	-28.0	-30.5	13.0	1.50e-02	0	42	102	1048576	16	4800
2026-01-23 11:39:03.17	327.11	13.27	-27.9	-30.3	13.1	1.53e-02	0	42	102	1048576	16	4766
2026-01-23 11:39:04.18	327.21	13.18	-27.9	-30.2	13.2	1.50e-02	0	42	102	1048576	16	4732
2026-01-23 11:39:05.18	327.31	13.10	-27.9	-30.2	13.2	1.46e-02	0	42	102	1048576	16	4698
2026-01-23 11:39:06.19	327.42	13.02	-27.6	-30.0	13.2	1.49e-02	0	42	102	1048576	16	4723
2026-01-23 11:39:07.20	327.52	12.93	-27.8	-30.1	13.4	1.44e-02	0	42	102	1048576	16	4673
2026-01-23 11:39:08.20	327.63	12.85	-27.5	-29.8	13.5	1.48e-02	0	42	102	1048576	16	4692
2026-01-23 11:39:09.21	327.73	12.77	-27.8	-30.2	13.5	1.46e-02	0	42	102	1048576	16	4707
2026-01-23 11:39:10.21	327.83	12.68	-27.5	-29.8	13.5	1.45e-02	0	42	102	1048576	16	4687
2026-01-23 11:39:11.21	327.93	12.60	-27.6	-30.0	13.4	1.48e-02	0	42	102	1048576	16	4751
2026-01-23 11:39:12.22	328.03	12.52	-27.8	-30.1	13.4	1.44e-02	0	42	102	1048576	16	4699
2026-01-23 11:39:13.21	328.13	12.44	-27.5	-29.8	13.3	1.46e-02	0	42	102	1048576	16	4680
2026-01-23 11:39:14.22	328.23	12.35	-27.8	-30.1	13.3	1.46e-02	0	42	102	1048576	16	4699
2026-01-23 11:39:15.22	328.33	12.27	-27.6	-29.8	13.2	1.42e-02	0	42	102	1048576	16	4677
2026-01-23 11:39:16.22	328.43	12.19	-27.6	-30.0	13.0	1.47e-02	0	42	102	1048576	16	4751
2026-01-23 11:39:17.22	328.52	12.11	-27.5	-29.7	13.2	1.43e-02	0	42	102	1048576	16	4639
2026-01-23 11:39:18.23	328.62	12.03	-27.8	-30.0	13.3	1.43e-02	0	42	102	1048576	16	4658
2026-01-23 11:39:19.24	328.72	11.94	-27.8	-30.2	13.2	1.45e-02	0	42	102	1048576	16	4732
2026-01-23 11:39:20.25	328.82	11.86	-27.6	-29.8	13.3	1.41e-02	0	42	102	1048576	16	4626
2026-01-23 11:39:21.25	328.91	11.78	-27.8	-30.1	13.1	1.44e-02	0	42	102	1048576	16	4700
2026-01-23 11:39:22.26	329.01	11.70	-28.4	-30.7	13.6	9.10e-06	0	42	102	1048576	16	4698
2026-01-23 11:39:23.26	329.10	11.62	-28.4	-30.8	13.5	9.10e-06	0	42	102	1048576	16	4729
2026-01-23 11:39:24.27	329.20	11.54	-28.5	-30.4	13.6	1.14e-05	0	42	102	1048576	17	4504
2026-01-23 11:39:25.27	329.29	11.46	-28.5	-30.5	13.6	8.30e-06	0	42	102	1048576	17	4541
2026-01-23 11:39:26.27	329.38	11.38	-28.6	-30.8	13.5	9.90e-06	0	42	102	1048576	17	4606
2026-01-23 11:39:27.26	329.47	11.30	-28.6	-30.7	13.6	1.14e-05	0	42	102	1048576	17	4581
2026-01-23 11:39:28.26	329.57	11.22	-28.6	-30.7	13.6	4.50e-06	0	42	102	1048576	17	4583
2026-01-23 11:39:29.27	329.66	11.14	-28.6	-30.7	13.5	9.90e-06	0	42	102	1048576	17	4582
2026-01-23 11:39:30.27	329.75	11.07	-28.6	-30.8	13.5	9.10e-06	0	42	102	1048576	17	4607
2026-01-23 11:39:31.27	329.84	10.99	-28.7	-30.9	13.4	1.52e-05	0	42	102	1048576	17	4656
2026-01-23 11:39:32.27	329.93	10.91	-28.5	-30.6	13.6	6.10e-06	0	42	102	1048576	17	4555
2026-01-23 11:39:33.27	330.02	10.83	-28.5	-30.5	13.7	9.90e-06	0	42	102	1048576	17	4526
2026-01-23 11:39:34.27	330.11	10.75	-28.6	-30.7	13.6	9.90e-06	0	42	102	1048576	17	4584
2026-01-23 11:39:35.28	330.20	10.67	-28.6	-30.7	13.6	1.06e-05	0	42	102	1048576	17	4578
2026-01-23 11:39:36.28	330.29	10.60	-28.6	-30.6	13.6	9.90e-06	0	42	102	1048576	17	4576
2026-01-23 11:39:37.28	330.37	10.52	-28.6	-30.7	13.5	9.10e-06	0	42	102	1048576	17	4586
2026-01-23 11:39:38.29	330.46	10.44	-28.6	-30.7	13.5	1.22e-05	0	42	102	1048576	17	4603
2026-01-23 11:39:39.30	330.55	10.36	-28.6	-30.8	13.5	1.37e-05	0	42	102	1048576	17	4614
2026-01-23 11:39:40.30	330.64	10.29	-28.7	-31.0	13.4	1.06e-05	0	42	102	1048576	17	4691
2026-01-23 11:39:41.31	330.72	10.21	-28.6	-30.8	13.5	1.14e-05	0	42	102	1048576	17	4613
2026-01-23 11:39:42.31	330.81	10.13	-28.6	-30.8	13.5	1.22e-05	0	42	102	1048576	17	4630
2026-01-23 11:39:43.31	330.90	10.06	-28.7	-30.9	13.4	1.52e-05	0	42	102	1048576	17	4671
2026-01-23 11:39:44.32	330.98	9.98	-28.6	-30.8	13.5	1.14e-05	0	42	102	1048576	17	4638
2026-01-23 11:39:45.32	331.07	9.90	-28.6	-30.8	13.5	1.44e-05	0	42	102	1048576	17	4623
2026-01-23 11:39:46.33	331.15	9.83	-28.5	-30.6	13.6	3.80e-06	0	42	102	1048576	17	4568
2026-01-23 11:39:47.34	331.23	9.75	-28.6	-30.8	13.4	1.06e-05	0	42	102	1048576	17	4641
2026-01-23 11:39:48.35	331.32	9.67	-28.6	-30.8	13.4	1.83e-05	0	42	102	1048576	17	4644
2026-01-23 11:39:49.34	331.40	9.60	-28.5	-30.6	13.6	4.50e-06	0	42	102	1048576	17	4556
2026-01-23 11:39:50.35	331.48	9.52	-28.5	-30.6	13.6	1.29e-05	0	42	102	1048576	17	4566
2026-01-23 11:39:51.35	331.57	9.45	-28.5	-30.5	13.6	2.20e-06	0	42	102	1048576	17	4540
2026-01-23 11:39:52.35	331.65	9.37	-28.5	-30.6	13.6	1.60e-05	0	42	102	1048576	17	4554
2026-01-23 11:39:53.35	331.73	9.30	-28.6	-30.8	13.4	9.10e-06	0	42	102	1048576	17	4618
2026-01-23 11:39:54.36	331.81	9.22	-28.5	-30.6	13.5	5.30e-06	0	42	102	1048576	17	4584
2026-01-23 11:39:55.37	331.89	9.15	-28.7	-31.0	13.3	1.98e-05	0	42	102	1048576	17	4688
2026-01-23 11:39:56.38	331.97	9.08	-28.7	-30.9	13.4	1.22e-05	0	42	102	1048576	17	4670
2026-01-23 11:39:57.38	332.05	9.00	-28.7	-31.1	13.3	2.36e-05	0	42	102	1048576	17	4714
2026-01-23 11:39:58.39	332.13	8.93	-28.8	-31.3	13.1	2.74e-05	0	42	102	1048576	17	4780
2026-01-23 11:39:59.39	332.21	8.85	-28.9	-31.5	12.9	4.57e-05	0	42	102	1048576	17	4872
2026-01-23 11:40:00.39	332.29	8.78	-28.8	-31.3	13.0	3.28e-05	0	42	102	1048576	17	4794
2026-01-23 11:40:01.39	332.37	8.71	-28.9	-31.5	13.0	3.20e-05	0	42	102	1048576	17	4848
2026-01-23 11:40:02.40	332.45	8.63	-28.9	-31.6	12.9	3.20e-05	0	42	102	1048576	17	4883
2026-01-23 11:40:03.40	332.52	8.56	-29.0	-31.4	12.7	6.79e-05	0	42	102	1048576	18	4713
2026-01-23 11:40:04.41	332.60	8.49	-29.0	-31.2	12.8	6.25e-05	0	42	102	1048576	18	4647
2026-01-23 11:40:05.40	332.68	8.42	-29.0	-31.4	12.7	6.17e-05	0	42	102	1048576	18	4716
2026-01-23 11:40:06.41	332.76	8.34	-29.1	-31.5	12.6	7.78e-05	0	42	102	1048576	18	4748
2026-01-23 11:40:07.41	332.83	8.27	-29.1	-31.6	12.6	8.08e-05	0	42	102	1048576	18	4770
2026-01-23 11:40:08.41	332.91	8.20	-29.2	-31.8	12.5	1.30e-04	0	42	102	1048576	18	4843
2026-01-23 11:40:09.42	332.98	8.13	-29.1	-31.6	12.5	1.50e-04	0	42	102	1048576	18	4798
2026-01-23 11:40:10.43	333.06	8.05	-29.2	-31.7	12.5	1.37e-04	0	42	102	1048576	18	4813
2026-01-23 11:40:11.43	333.13	7.98	-29.3	-31.9	12.3	1.09e-04	0	42	102	1048576	18	4901
2026-01-23 11:40:12.43	333.21	7.91	-29.2	-31.8	12.5	1.53e-04	0	42	102	1048576	18	4845
2026-01-23 11:40:13.44	333.28	7.84	-29.1	-31.6	12.6	1.04e-04	0	42	102	1048576	18	4793
2026-01-23 11:40:14.44	333.36	7.77	-29.1	-31.6	12.5	1.26e-04	0	42	102	1048576	18	4771
2026-01-23 11:40:15.45	333.43	7.70	-29.2	-31.8	12.4	1.73e-04	0	42	102	1048576	18	4843
2026-01-23 11:40:16.46	333.50	7.63	-29.2	-31.8	12.4	1.59e-04	0	42	102	1048576	18	4865
2026-01-23 11:40:17.46	333.58	7.56	-29.2	-31.9	12.3	1.78e-04	0	42	102	1048576	18	4909
2026-01-23 11:40:18.47	333.65	7.48	-29.2	-31.8	12.3	1.83e-04	0	42	102	1048576	18	4853
2026-01-23 11:40:19.47	333.72	7.41	-29.3	-32.0	12.2	1.99e-04	0	42	102	1048576	18	4940
2026-01-23 11:40:20.47	333.79	7.34	-29.3	-32.1	12.1	3.05e-04	0	42	102	1048576	18	4963
2026-01-23 11:40:21.47	333.86	7.27	-29.3	-32.0	12.2	2.34e-04	0	42	102	1048576	18	4935
2026-01-23 11:40:22.47	333.94	7.21	-29.4	-32.4	11.9	3.16e-04	0	42	102	1048576	18	5080
2026-01-23 11:40:23.47	334.01	7.14	-29.5	-32.1	11.7	4.87e-04	0	42	102	1048576	19	4874
2026-01-23 11:40:24.48	334.08	7.07	-33.3	-45.2	3.8	2.64e-01	0	42	104	1048576	26	14166
2026-01-23 11:40:25.49	334.15	7.00	-33.7	-45.7	3.8	1.49e+00	0	42	104	1048576	27	14334
2026-01-23 11:40:26.50	334.22	6.93	-33.9	-46.2	3.8	1.49e+00	0	42	104	1048576	27	14777
2026-01-23 11:40:27.50	334.29	6.86	-34.0	-45.9	3.8	1.49e+00	0	42	104	1048576	28	14118

#Closed at: 2026-01-23 11:40:28
#Recorded file [1 MB]: D:/data/31010_260123_142916.dat