passes_logs/2026/01/23/R2M6_AANII_01/R2M6_AANII_01__20260123_062705_FENGYUN_3E_rec.log

#Pass ID: 20260123_062705_FENGYUN 3E
#Satellite: FENGYUN 3E
#Configuration: FENGYUN 3E
#almurnet v.1.7.20240730
#Start time: 2026-01-23 06:27:05

#Version: 2.2.20231116
#Station: R2M6_AANII_01
#Location: 30.233357 lon 59.946436 lat
#TLE: 1 49008U 21062A   26022.47529509  .00000460  00000+0  23724-3 0  9995
#TLE: 2 49008  98.7486  27.5157 0002334 123.7692 236.3707 14.19888297235908

#Time	Az	El	Level	Level2	SNR	BER	BlckErr	Temp	State	Recorded	gain1	gain2
2026-01-23 06:27:05.25	10.59	7.00	-30.3	-33.1	5.1	7.83e-01	0	40	0	0	20	5004
2026-01-23 06:27:06.24	10.51	7.06	-30.6	-33.6	5.0	7.90e-01	0	40	104	0	21	5076
2026-01-23 06:27:07.25	10.42	7.13	-30.5	-33.3	7.9	8.10e-02	0	40	0	0	21	4955
2026-01-23 06:27:08.26	10.33	7.19	-30.4	-33.5	8.1	5.29e-02	0	41	102	1048576	20	5158
2026-01-23 06:27:09.26	10.24	7.26	-30.5	-33.6	8.1	7.35e-02	0	41	102	1048576	20	5183
2026-01-23 06:27:10.27	10.15	7.33	-30.2	-32.9	8.5	4.16e-02	0	41	102	1048576	20	4910
2026-01-23 06:27:11.27	10.06	7.39	-30.1	-32.7	8.7	2.91e-02	0	41	102	1048576	20	4820
2026-01-23 06:27:12.27	9.97	7.46	-30.0	-32.7	9.1	2.07e-02	0	41	102	1048576	19	4916
2026-01-23 06:27:13.28	9.88	7.52	-29.9	-32.4	9.3	1.71e-02	0	41	102	1048576	19	4817
2026-01-23 06:27:14.28	9.79	7.59	-29.6	-31.7	9.8	1.24e-02	0	41	102	1048576	19	4574
2026-01-23 06:27:15.28	9.70	7.65	-29.1	-30.8	10.7	3.73e-03	0	41	102	1048576	18	4402
2026-01-23 06:27:16.29	9.61	7.72	-28.8	-30.6	11.2	8.02e-04	0	41	102	1048576	17	4418
2026-01-23 06:27:17.29	9.52	7.79	-29.0	-31.0	10.9	2.31e-03	0	41	102	1048576	17	4547
2026-01-23 06:27:18.30	9.43	7.85	-28.4	-29.6	11.8	6.84e-04	0	41	102	1048576	17	4133
2026-01-23 06:27:19.30	9.34	7.92	-27.9	-29.0	12.5	1.58e-04	0	41	102	1048576	16	4072
2026-01-23 06:27:20.31	9.24	7.99	-27.4	-27.8	13.2	3.54e-05	0	41	102	1048576	16	3760
2026-01-23 06:27:21.31	9.15	8.05	-27.1	-28.0	13.5	1.37e-05	0	41	102	1048576	14	4018
2026-01-23 06:27:22.32	9.06	8.12	-26.9	-28.1	13.8	9.10e-06	0	41	102	1048576	13	4143
2026-01-23 06:27:23.32	8.96	8.19	-27.0	-28.3	13.6	8.00e-06	0	41	102	1048576	13	4205
2026-01-23 06:27:24.33	8.87	8.25	-27.0	-28.4	13.5	1.02e-05	0	41	102	1048576	13	4230
2026-01-23 06:27:25.33	8.77	8.32	-27.0	-27.9	13.6	5.70e-06	0	41	102	1048576	14	3990
2026-01-23 06:27:26.33	8.68	8.39	-27.0	-27.8	13.6	6.80e-06	0	41	102	1048576	14	3965
2026-01-23 06:27:27.33	8.58	8.46	-27.0	-28.0	13.6	8.00e-06	0	41	102	1048576	14	4009
2026-01-23 06:27:28.34	8.48	8.52	-27.1	-28.0	13.5	1.37e-05	0	41	102	1048576	14	4020
2026-01-23 06:27:29.34	8.39	8.59	-27.1	-28.0	13.5	5.70e-06	0	41	102	1048576	14	4019
2026-01-23 06:27:30.34	8.29	8.66	-27.1	-28.2	13.4	5.70e-06	0	41	102	1048576	14	4053
2026-01-23 06:27:31.34	8.19	8.73	-27.4	-28.8	13.1	1.02e-05	0	41	102	1048576	14	4245
2026-01-23 06:27:32.34	8.09	8.79	-27.3	-28.5	13.3	3.20e-05	0	41	102	1048576	14	4140
2026-01-23 06:27:33.35	7.99	8.86	-27.0	-27.9	13.6	1.25e-05	0	41	102	1048576	14	3978
2026-01-23 06:27:34.35	7.90	8.93	-26.9	-28.2	13.7	3.40e-06	0	41	102	1048576	13	4172
2026-01-23 06:27:35.35	7.80	9.00	-27.0	-27.8	13.7	6.80e-06	0	41	102	1048576	14	3961
2026-01-23 06:27:36.36	7.70	9.07	-26.9	-28.1	13.8	3.40e-06	0	41	102	1048576	13	4149
2026-01-23 06:27:37.37	7.59	9.13	-26.8	-27.9	13.9	2.20e-06	0	41	102	1048576	13	4081
2026-01-23 06:27:38.37	7.49	9.20	-26.7	-27.8	14.0	1.10e-06	0	41	102	1048576	13	4054
2026-01-23 06:27:39.37	7.39	9.27	-26.7	-27.6	14.1	3.40e-06	0	41	102	1048576	13	4016
2026-01-23 06:27:40.38	7.29	9.34	-26.7	-27.7	14.1	1.10e-06	0	41	102	1048576	13	4028
2026-01-23 06:27:41.39	7.19	9.41	-26.7	-27.7	14.1	2.20e-06	0	41	102	1048576	13	4031
2026-01-23 06:27:42.38	7.08	9.48	-26.6	-27.4	14.2	5.70e-06	0	41	102	1048576	13	3967
2026-01-23 06:27:43.38	6.98	9.55	-26.5	-27.7	14.3	1.10e-06	0	42	102	1048576	12	4147
2026-01-23 06:27:44.38	6.88	9.62	-26.6	-27.4	14.3	5.70e-06	0	41	102	1048576	13	3958
2026-01-23 06:27:45.39	6.77	9.68	-26.6	-27.4	14.3	1.10e-06	0	42	102	1048576	13	3956
2026-01-23 06:27:46.40	6.66	9.75	-26.4	-27.5	14.5	1.10e-06	0	42	102	1048576	12	4098
2026-01-23 06:27:47.40	6.56	9.82	-26.5	-27.2	14.4	0.00e+00	0	41	102	1048576	13	3903
2026-01-23 06:27:48.39	6.45	9.89	-26.5	-27.6	14.4	2.20e-06	0	42	102	1048576	12	4122
2026-01-23 06:27:49.40	6.35	9.96	-26.5	-27.8	14.3	0.00e+00	0	42	102	1048576	12	4162
2026-01-23 06:27:50.41	6.24	10.03	-26.6	-27.4	14.3	0.00e+00	0	41	102	1048576	13	3957
2026-01-23 06:27:51.41	6.13	10.10	-26.5	-27.7	14.4	0.00e+00	0	42	102	1048576	12	4147
2026-01-23 06:27:52.42	6.02	10.17	-26.6	-27.6	14.2	0.00e+00	0	42	102	1048576	13	3998
2026-01-23 06:27:53.42	5.91	10.24	-26.5	-27.2	14.4	0.00e+00	0	42	102	1048576	13	3909
2026-01-23 06:27:54.43	5.80	10.31	-26.6	-27.4	14.3	0.00e+00	0	42	102	1048576	13	3947
2026-01-23 06:27:55.43	5.69	10.38	-26.6	-27.4	14.3	0.00e+00	0	42	102	1048576	13	3956
2026-01-23 06:27:56.43	5.58	10.45	-26.6	-27.6	14.2	1.10e-06	0	42	102	1048576	13	4002
2026-01-23 06:27:57.44	5.47	10.52	-26.7	-27.8	14.1	1.10e-06	0	42	102	1048576	13	4056
2026-01-23 06:27:58.44	5.36	10.59	-26.7	-27.7	14.2	0.00e+00	0	42	102	1048576	13	4025
2026-01-23 06:27:59.45	5.25	10.66	-26.7	-27.6	14.2	1.10e-06	0	42	102	1048576	13	4000
2026-01-23 06:28:00.45	5.13	10.73	-26.7	-27.7	14.1	1.10e-06	0	42	102	1048576	13	4031
2026-01-23 06:28:01.45	5.02	10.80	-26.8	-27.8	14.1	0.00e+00	0	42	102	1048576	13	4059
2026-01-23 06:28:02.45	4.91	10.87	-26.6	-27.4	14.3	1.10e-06	0	42	102	1048576	13	3964
2026-01-23 06:28:03.45	4.79	10.95	-26.6	-27.4	14.3	1.10e-06	0	42	102	1048576	13	3966
2026-01-23 06:28:04.46	4.68	11.02	-26.5	-27.7	14.5	1.10e-06	0	42	102	1048576	12	4138
2026-01-23 06:28:05.46	4.56	11.09	-25.7	-27.0	14.0	1.10e-06	0	42	102	1048576	12	4198
2026-01-23 06:28:06.46	4.45	11.16	-26.0	-27.2	12.2	0.00e+00	0	42	102	1048576	12	4129
2026-01-23 06:28:07.47	4.33	11.23	-26.4	-27.4	14.4	0.00e+00	0	42	102	1048576	12	4072
2026-01-23 06:28:08.47	4.21	11.30	-26.5	-27.8	14.3	2.20e-06	0	42	102	1048576	12	4167
2026-01-23 06:28:09.48	4.09	11.37	-26.4	-27.5	14.6	0.00e+00	0	42	102	1048576	12	4086
2026-01-23 06:28:10.48	3.97	11.44	-26.3	-27.3	14.7	2.20e-06	0	42	102	1048576	12	4030
2026-01-23 06:28:11.49	3.85	11.52	-26.1	-26.9	14.9	0.00e+00	0	42	102	1048576	12	3929
2026-01-23 06:28:12.50	3.73	11.59	-26.2	-27.0	14.9	0.00e+00	0	42	102	1048576	12	3948
2026-01-23 06:28:13.50	3.61	11.66	-26.1	-26.9	14.9	0.00e+00	0	42	102	1048576	12	3942
2026-01-23 06:28:14.51	3.49	11.73	-26.1	-26.7	15.0	1.85e-03	0	42	102	1048576	12	3900
2026-01-23 06:28:15.52	3.37	11.80	-26.1	-26.8	15.0	1.10e-06	0	42	102	1048576	12	3899
2026-01-23 06:28:16.53	3.25	11.88	-26.2	-27.0	14.9	1.11e-04	0	42	102	1048576	12	3950
2026-01-23 06:28:17.52	3.13	11.95	-26.1	-26.9	15.0	0.00e+00	0	42	102	1048576	12	3925
2026-01-23 06:28:18.53	3.00	12.02	-26.2	-27.1	14.8	1.82e-03	0	42	102	1048576	12	3989
2026-01-23 06:28:19.54	2.88	12.09	-26.3	-27.2	14.8	1.26e-04	0	42	102	1048576	12	4017
2026-01-23 06:28:20.54	2.75	12.17	-26.2	-27.1	14.8	0.00e+00	0	42	102	1048576	12	3979
2026-01-23 06:28:21.54	2.63	12.24	-26.2	-27.1	14.9	1.86e-03	0	42	102	1048576	12	3972
2026-01-23 06:28:22.54	2.50	12.31	-26.2	-27.1	14.9	1.18e-04	0	42	102	1048576	12	3984
2026-01-23 06:28:23.55	2.37	12.38	-26.3	-27.2	14.8	1.77e-03	0	42	102	1048576	12	4017
2026-01-23 06:28:24.55	2.25	12.46	-26.1	-26.9	15.0	1.75e-03	0	42	102	1048576	12	3924
2026-01-23 06:28:25.56	2.12	12.53	-26.2	-27.0	14.9	8.12e-05	0	42	102	1048576	12	3954
2026-01-23 06:28:26.57	1.99	12.60	-26.2	-27.1	14.9	1.71e-03	0	42	102	1048576	12	3973
2026-01-23 06:28:27.58	1.86	12.67	-26.0	-26.7	15.1	1.54e-03	0	42	102	1048576	12	3878
2026-01-23 06:28:28.59	1.73	12.75	-26.0	-26.6	15.2	4.50e-06	0	42	102	1048576	12	3858
2026-01-23 06:28:29.59	1.60	12.82	-26.0	-26.7	15.1	1.56e-03	0	42	102	1048576	12	3871
2026-01-23 06:28:30.59	1.47	12.89	-26.0	-26.6	15.2	0.00e+00	0	42	102	1048576	12	3861
2026-01-23 06:28:31.59	1.33	12.97	-25.9	-26.5	15.3	1.83e-05	0	42	102	1048576	12	3821
2026-01-23 06:28:32.60	1.20	13.04	-26.0	-27.2	15.2	1.64e-03	0	42	102	1048576	11	4096
2026-01-23 06:28:33.60	1.07	13.11	-26.1	-26.8	15.1	1.67e-03	0	42	102	1048576	12	3905
2026-01-23 06:28:34.61	0.93	13.19	-26.2	-27.1	14.9	2.05e-05	0	42	102	1048576	12	3990
2026-01-23 06:28:35.62	0.80	13.26	-26.2	-27.0	15.0	0.00e+00	0	42	102	1048576	12	3953
2026-01-23 06:28:36.63	0.66	13.33	-26.1	-26.8	15.1	1.57e-03	0	42	102	1048576	12	3900
2026-01-23 06:28:37.63	0.53	13.41	-26.0	-26.6	15.2	0.00e+00	0	42	102	1048576	12	3850
2026-01-23 06:28:38.63	0.39	13.48	-26.0	-27.1	15.2	0.00e+00	0	42	102	1048576	11	4087
2026-01-23 06:28:39.64	0.25	13.56	-26.0	-27.0	15.3	1.67e-03	0	42	102	1048576	11	4066
2026-01-23 06:28:40.65	0.11	13.63	-25.9	-26.9	15.4	0.00e+00	0	42	102	1048576	11	4017
2026-01-23 06:28:41.65	359.97	13.70	-25.9	-26.8	15.5	0.00e+00	0	42	102	1048576	11	3995
2026-01-23 06:28:42.66	359.83	13.78	-25.8	-26.7	15.5	0.00e+00	0	42	102	1048576	11	3974
2026-01-23 06:28:43.67	359.69	13.85	-25.8	-26.7	15.6	0.00e+00	0	42	102	1048576	11	3972
2026-01-23 06:28:44.67	359.55	13.93	-25.8	-26.7	15.6	0.00e+00	0	42	102	1048576	11	3972
2026-01-23 06:28:45.68	359.41	14.00	-25.7	-26.4	15.7	0.00e+00	0	42	102	1048576	11	3915
2026-01-23 06:28:46.68	359.27	14.07	-25.7	-26.5	15.6	1.10e-06	0	42	102	1048576	11	3939
2026-01-23 06:28:47.69	359.12	14.15	-25.6	-26.2	15.8	0.00e+00	0	42	102	1048576	11	3865
2026-01-23 06:28:48.68	358.98	14.22	-25.5	-25.9	16.0	0.00e+00	0	42	102	1048576	11	3797
2026-01-23 06:28:49.68	358.84	14.30	-25.4	-26.4	16.0	0.00e+00	0	42	102	1048576	10	4010
2026-01-23 06:28:50.68	358.69	14.37	-25.4	-25.8	16.0	0.00e+00	0	42	102	1048576	11	3766
2026-01-23 06:28:51.69	358.54	14.44	-25.4	-26.3	16.1	0.00e+00	0	42	102	1048576	10	3976
2026-01-23 06:28:52.69	358.40	14.52	-25.4	-26.3	16.1	0.00e+00	0	42	102	1048576	10	3974
2026-01-23 06:28:53.69	358.25	14.59	-25.4	-26.2	16.1	0.00e+00	0	42	102	1048576	10	3972
2026-01-23 06:28:54.69	358.10	14.67	-25.4	-26.3	16.1	0.00e+00	0	42	102	1048576	10	3993
2026-01-23 06:28:55.69	357.95	14.74	-25.5	-26.0	15.9	0.00e+00	0	42	102	1048576	11	3813
2026-01-23 06:28:56.70	357.80	14.81	-25.6	-26.1	15.9	0.00e+00	0	42	102	1048576	11	3835
2026-01-23 06:28:57.70	357.65	14.89	-25.6	-26.1	15.9	0.00e+00	0	43	102	1048576	11	3840
2026-01-23 06:28:58.70	357.50	14.96	-25.6	-26.1	15.9	0.00e+00	0	42	102	1048576	11	3832
2026-01-23 06:28:59.71	357.35	15.04	-25.6	-26.1	15.9	0.00e+00	0	42	102	1048576	11	3841
2026-01-23 06:29:00.72	357.19	15.11	-25.6	-26.2	15.8	1.10e-06	0	42	102	1048576	11	3859
2026-01-23 06:29:01.72	357.04	15.19	-25.6	-26.3	15.8	0.00e+00	0	42	102	1048576	11	3873
2026-01-23 06:29:02.73	356.89	15.26	-25.6	-26.1	15.9	0.00e+00	0	42	102	1048576	11	3837
2026-01-23 06:29:03.74	356.73	15.34	-25.6	-26.1	15.9	0.00e+00	0	42	102	1048576	11	3840
2026-01-23 06:29:04.74	356.57	15.41	-25.6	-26.3	15.8	0.00e+00	0	42	102	1048576	11	3879
2026-01-23 06:29:05.75	356.42	15.49	-25.6	-26.2	15.9	0.00e+00	0	42	102	1048576	11	3859
2026-01-23 06:29:06.75	356.26	15.56	-25.8	-26.6	15.7	0.00e+00	0	42	102	1048576	11	3954
2026-01-23 06:29:07.76	356.10	15.64	-25.7	-26.5	15.7	0.00e+00	0	42	102	1048576	11	3923
2026-01-23 06:29:08.76	355.94	15.71	-25.7	-26.4	15.8	0.00e+00	0	42	102	1048576	11	3896
2026-01-23 06:29:09.76	355.78	15.78	-25.6	-26.3	15.8	0.00e+00	0	42	102	1048576	11	3871
2026-01-23 06:29:10.76	355.62	15.86	-25.9	-26.8	15.6	0.00e+00	0	42	102	1048576	11	4012
2026-01-23 06:29:11.77	355.46	15.93	-25.7	-26.3	15.8	0.00e+00	0	43	102	1048576	11	3893
2026-01-23 06:29:12.78	355.29	16.01	-25.5	-25.9	16.1	0.00e+00	0	43	102	1048576	11	3776
2026-01-23 06:29:13.78	355.13	16.08	-25.5	-26.0	16.0	0.00e+00	0	42	102	1048576	11	3796
2026-01-23 06:29:14.79	354.96	16.16	-25.4	-25.8	16.1	0.00e+00	0	42	102	1048576	11	3757
2026-01-23 06:29:15.79	354.80	16.23	-25.4	-26.3	16.1	0.00e+00	0	43	102	1048576	10	3987
2026-01-23 06:29:16.80	354.63	16.31	-25.5	-26.4	16.1	0.00e+00	0	42	102	1048576	10	4014
2026-01-23 06:29:17.81	354.46	16.38	-25.4	-26.3	16.1	0.00e+00	0	42	102	1048576	10	3980
2026-01-23 06:29:18.81	354.30	16.46	-25.5	-26.5	16.0	0.00e+00	0	42	102	1048576	10	4046
2026-01-23 06:29:19.81	354.13	16.53	-25.3	-26.0	16.3	0.00e+00	0	42	102	1048576	10	3912
2026-01-23 06:29:20.81	353.96	16.60	-25.1	-25.6	16.5	0.00e+00	0	42	102	1048576	10	3808
2026-01-23 06:29:21.81	353.79	16.68	-24.9	-25.2	16.7	0.00e+00	0	43	102	1048576	10	3722
2026-01-23 06:29:22.82	353.62	16.75	-24.9	-25.2	16.7	0.00e+00	0	42	102	1048576	10	3729
2026-01-23 06:29:23.83	353.44	16.83	-24.9	-25.1	16.8	0.00e+00	0	43	102	1048576	10	3703
2026-01-23 06:29:24.83	353.27	16.90	-24.9	-25.7	16.7	0.00e+00	0	42	102	1048576	9	3946
2026-01-23 06:29:25.83	353.10	16.98	-24.9	-25.6	16.8	0.00e+00	0	42	102	1048576	9	3910
2026-01-23 06:29:26.83	352.93	17.05	-24.8	-25.5	16.8	0.00e+00	0	42	102	1048576	9	3897
2026-01-23 06:29:27.84	352.75	17.12	-24.8	-25.5	16.9	0.00e+00	0	42	102	1048576	9	3885
2026-01-23 06:29:28.85	352.57	17.20	-24.8	-25.5	16.9	0.00e+00	0	42	102	1048576	9	3885
2026-01-23 06:29:29.86	352.39	17.27	-24.8	-25.4	16.9	0.00e+00	0	42	102	1048576	9	3872
2026-01-23 06:29:30.86	352.21	17.35	-24.7	-25.3	16.5	0.00e+00	0	42	102	1048576	9	3852
2026-01-23 06:29:31.87	352.03	17.42	-24.9	-25.7	15.2	0.00e+00	0	42	102	1048576	9	3940
2026-01-23 06:29:32.88	351.85	17.50	-24.9	-25.7	16.7	0.00e+00	0	43	102	1048576	9	3935
2026-01-23 06:29:33.89	351.67	17.57	-25.0	-25.8	16.7	0.00e+00	0	42	102	1048576	9	3973
2026-01-23 06:29:34.90	351.49	17.64	-25.3	-25.9	16.4	0.00e+00	0	42	102	1048576	10	3894
2026-01-23 06:29:35.90	351.31	17.72	-25.1	-25.6	16.6	3.52e-04	0	43	102	1048576	10	3802
2026-01-23 06:29:36.91	351.12	17.79	-25.2	-25.7	16.5	0.00e+00	0	43	102	1048576	10	3850
2026-01-23 06:29:37.91	350.94	17.86	-25.0	-25.5	16.6	0.00e+00	0	42	102	1048576	10	3785
2026-01-23 06:29:38.92	350.75	17.94	-24.9	-25.2	16.7	8.25e-04	0	43	102	1048576	10	3733
2026-01-23 06:29:39.93	350.56	18.01	-24.9	-25.2	16.8	0.00e+00	0	43	102	1048576	10	3731
2026-01-23 06:29:40.93	350.38	18.09	-24.9	-25.6	16.8	9.19e-04	0	43	102	1048576	9	3919
2026-01-23 06:29:41.93	350.19	18.16	-24.9	-25.7	16.8	1.03e-03	0	43	102	1048576	9	3948
2026-01-23 06:29:42.94	350.00	18.23	-24.8	-25.5	16.9	0.00e+00	0	43	102	1048576	9	3883
2026-01-23 06:29:43.94	349.81	18.30	-24.8	-25.4	16.9	1.04e-03	0	43	102	1048576	9	3866
2026-01-23 06:29:44.95	349.62	18.38	-24.7	-25.2	17.1	6.86e-04	0	43	102	1048576	9	3821
2026-01-23 06:29:45.95	349.43	18.45	-24.7	-25.2	17.0	6.98e-05	0	43	102	1048576	9	3831
2026-01-23 06:29:46.95	349.23	18.52	-24.5	-24.8	17.3	9.27e-04	0	43	102	1048576	9	3740
2026-01-23 06:29:47.96	349.04	18.59	-24.5	-24.8	17.3	8.44e-04	0	43	102	1048576	9	3721
2026-01-23 06:29:48.97	348.84	18.67	-24.5	-24.8	17.3	1.10e-06	0	43	102	1048576	9	3743
2026-01-23 06:29:49.97	348.65	18.74	-24.7	-25.3	17.0	7.74e-04	0	43	102	1048576	9	3854
2026-01-23 06:29:50.97	348.45	18.81	-24.6	-24.9	17.2	6.06e-04	0	43	102	1048576	9	3761
2026-01-23 06:29:51.98	348.25	18.88	-24.6	-25.1	17.1	0.00e+00	0	43	102	1048576	9	3795
2026-01-23 06:29:52.98	348.05	18.95	-24.8	-25.5	16.9	3.78e-04	0	43	102	1048576	9	3890
2026-01-23 06:29:53.98	347.86	19.03	-24.8	-25.4	17.0	3.17e-04	0	43	102	1048576	9	3864
2026-01-23 06:29:54.99	347.65	19.10	-24.9	-25.7	16.8	0.00e+00	0	43	102	1048576	9	3950
2026-01-23 06:29:56.00	347.45	19.17	-24.9	-25.7	16.8	3.77e-05	0	42	102	1048576	9	3933
2026-01-23 06:29:57.01	347.25	19.24	-25.0	-26.0	16.6	0.00e+00	0	43	102	1048576	9	4009
2026-01-23 06:29:58.01	347.04	19.31	-25.4	-26.1	16.3	0.00e+00	0	42	102	1048576	10	3939
2026-01-23 06:29:59.02	346.84	19.38	-25.8	-26.6	15.8	0.00e+00	0	42	102	1048576	11	3939
2026-01-23 06:30:00.02	346.63	19.45	-25.4	-25.8	16.2	0.00e+00	0	43	102	1048576	11	3748
2026-01-23 06:30:01.03	346.43	19.52	-25.2	-25.3	16.5	0.00e+00	0	43	102	1048576	11	3645
2026-01-23 06:30:02.03	346.22	19.59	-25.0	-25.4	16.7	0.00e+00	0	43	102	1048576	10	3758
2026-01-23 06:30:03.03	346.01	19.66	-25.0	-25.4	16.7	0.00e+00	0	43	102	1048576	10	3769
2026-01-23 06:30:04.04	345.80	19.73	-25.1	-25.7	16.6	0.00e+00	0	43	102	1048576	10	3836
2026-01-23 06:30:05.05	345.59	19.80	-24.8	-25.5	16.9	0.00e+00	0	43	102	1048576	9	3897
2026-01-23 06:30:06.05	345.38	19.87	-24.9	-25.8	16.8	0.00e+00	0	43	102	1048576	9	3958
2026-01-23 06:30:07.05	345.17	19.94	-24.7	-25.2	17.1	0.00e+00	0	43	102	1048576	9	3831
2026-01-23 06:30:08.05	344.96	20.01	-24.6	-24.9	17.2	0.00e+00	0	43	102	1048576	9	3762
2026-01-23 06:30:09.05	344.74	20.08	-24.6	-25.0	17.2	0.00e+00	0	43	102	1048576	9	3784
2026-01-23 06:30:10.06	344.53	20.15	-24.6	-25.1	17.1	0.00e+00	0	43	102	1048576	9	3811
2026-01-23 06:30:11.06	344.31	20.21	-24.6	-25.0	17.2	0.00e+00	0	43	102	1048576	9	3777
2026-01-23 06:30:12.06	344.10	20.28	-24.9	-25.6	16.8	0.00e+00	0	43	102	1048576	9	3921
2026-01-23 06:30:13.07	343.88	20.35	-24.6	-25.0	17.2	0.00e+00	0	43	102	1048576	9	3776
2026-01-23 06:30:14.07	343.66	20.42	-24.5	-24.9	17.2	0.00e+00	0	43	102	1048576	9	3743
2026-01-23 06:30:15.07	343.44	20.48	-24.5	-24.9	17.2	0.00e+00	0	43	102	1048576	9	3758
2026-01-23 06:30:16.08	343.22	20.55	-24.6	-25.0	17.2	0.00e+00	0	43	102	1048576	9	3773
2026-01-23 06:30:17.08	343.00	20.62	-24.7	-25.3	17.0	0.00e+00	0	43	102	1048576	9	3851
2026-01-23 06:30:18.08	342.77	20.68	-24.6	-25.1	17.1	0.00e+00	0	43	102	1048576	9	3797
2026-01-23 06:30:19.09	342.55	20.75	-24.6	-25.0	17.2	0.00e+00	0	43	102	1048576	9	3781
2026-01-23 06:30:20.09	342.33	20.81	-24.7	-25.2	17.1	0.00e+00	0	43	102	1048576	9	3825
2026-01-23 06:30:21.09	342.10	20.88	-24.6	-25.0	17.2	0.00e+00	0	43	102	1048576	9	3771
2026-01-23 06:30:22.10	341.87	20.95	-24.5	-24.9	17.3	0.00e+00	0	43	102	1048576	9	3743
2026-01-23 06:30:23.11	341.64	21.01	-24.5	-24.8	17.3	0.00e+00	0	43	102	1048576	9	3737
2026-01-23 06:30:24.11	341.42	21.07	-24.4	-24.6	17.4	0.00e+00	0	43	102	1048576	9	3692
2026-01-23 06:30:25.11	341.19	21.14	-24.4	-24.5	17.5	0.00e+00	0	43	102	1048576	9	3666
2026-01-23 06:30:26.12	340.95	21.20	-24.4	-25.0	17.5	0.00e+00	0	43	102	1048576	8	3882
2026-01-23 06:30:27.13	340.72	21.27	-24.1	-24.5	17.7	0.00e+00	0	43	102	1048576	8	3768
2026-01-23 06:30:28.13	340.49	21.33	-24.0	-24.3	17.8	0.00e+00	0	43	102	1048576	8	3723
2026-01-23 06:30:29.14	340.25	21.39	-24.1	-24.6	17.7	0.00e+00	0	43	102	1048576	8	3779
2026-01-23 06:30:30.15	340.02	21.46	-23.9	-24.1	17.9	0.00e+00	0	43	102	1048576	8	3673
2026-01-23 06:30:31.15	339.78	21.52	-23.9	-24.0	18.0	0.00e+00	0	43	102	1048576	8	3662
2026-01-23 06:30:32.16	339.55	21.58	-23.9	-24.5	18.0	0.00e+00	0	43	102	1048576	7	3860
2026-01-23 06:30:33.16	339.31	21.64	-23.7	-24.1	18.2	0.00e+00	0	43	102	1048576	7	3767
2026-01-23 06:30:34.16	339.07	21.70	-23.8	-24.4	18.0	0.00e+00	0	43	102	1048576	7	3839
2026-01-23 06:30:35.16	338.83	21.76	-23.8	-24.3	18.0	0.00e+00	0	43	102	1048576	7	3829
2026-01-23 06:30:36.17	338.59	21.82	-23.9	-24.5	18.0	0.00e+00	0	43	102	1048576	7	3858
2026-01-23 06:30:37.17	338.35	21.88	-23.8	-24.4	18.0	0.00e+00	0	43	102	1048576	7	3849
2026-01-23 06:30:38.18	338.11	21.94	-24.0	-24.7	17.9	0.00e+00	0	43	102	1048576	7	3916
2026-01-23 06:30:39.18	337.87	22.00	-24.0	-24.7	17.8	0.00e+00	0	43	102	1048576	7	3924
2026-01-23 06:30:40.19	337.62	22.06	-24.2	-24.8	17.6	0.00e+00	0	43	102	1048576	8	3826
2026-01-23 06:30:41.20	337.37	22.12	-24.5	-25.3	17.3	0.00e+00	0	43	102	1048576	8	3964
2026-01-23 06:30:42.21	337.13	22.18	-24.3	-24.9	17.5	0.00e+00	0	43	102	1048576	8	3858
2026-01-23 06:30:43.20	336.88	22.23	-24.2	-24.8	17.6	0.00e+00	0	43	102	1048576	8	3825
2026-01-23 06:30:44.21	336.63	22.29	-24.2	-24.7	17.6	1.10e-06	0	43	102	1048576	8	3810
2026-01-23 06:30:45.20	336.39	22.34	-24.1	-24.5	17.7	0.00e+00	0	43	102	1048576	8	3766
2026-01-23 06:30:46.21	336.14	22.40	-24.1	-24.6	17.7	0.00e+00	0	43	102	1048576	8	3784
2026-01-23 06:30:47.22	335.89	22.46	-24.1	-24.5	17.7	0.00e+00	0	43	102	1048576	8	3761
2026-01-23 06:30:48.22	335.64	22.51	-24.2	-24.6	17.7	0.00e+00	0	43	102	1048576	8	3800
2026-01-23 06:30:49.23	335.38	22.57	-24.2	-24.8	17.6	1.10e-06	0	43	102	1048576	8	3828
2026-01-23 06:30:50.23	335.13	22.62	-24.0	-24.3	17.9	0.00e+00	0	42	102	1048576	8	3710
2026-01-23 06:30:51.23	334.88	22.67	-23.9	-24.2	18.0	0.00e+00	0	43	102	1048576	8	3687
2026-01-23 06:30:52.24	334.62	22.73	-24.0	-24.2	17.9	0.00e+00	0	43	102	1048576	8	3691
2026-01-23 06:30:53.24	334.37	22.78	-23.8	-24.4	18.0	0.00e+00	0	43	102	1048576	7	3840
2026-01-23 06:30:54.25	334.11	22.83	-23.9	-24.5	18.0	0.00e+00	0	43	102	1048576	7	3868
2026-01-23 06:30:55.25	333.85	22.88	-24.0	-24.3	17.8	0.00e+00	0	43	102	1048576	8	3726
2026-01-23 06:30:56.26	333.59	22.93	-23.4	-23.7	16.8	0.00e+00	0	43	102	1048576	8	3715
2026-01-23 06:30:57.27	333.33	22.98	-24.1	-24.4	17.8	0.00e+00	0	43	102	1048576	8	3744
2026-01-23 06:30:58.27	333.07	23.03	-24.1	-24.4	16.6	0.00e+00	0	43	102	1048576	8	3746
2026-01-23 06:30:59.27	332.81	23.08	-23.9	-24.1	17.8	0.00e+00	0	43	102	1048576	8	3688
2026-01-23 06:31:00.27	332.55	23.13	-24.0	-24.2	17.9	0.00e+00	0	43	102	1048576	8	3692
2026-01-23 06:31:01.28	332.29	23.18	-23.9	-24.1	18.0	1.29e-03	0	43	102	1048576	8	3668
2026-01-23 06:31:02.28	332.02	23.23	-23.7	-24.1	18.2	0.00e+00	0	43	102	1048576	7	3766
2026-01-23 06:31:03.29	331.76	23.28	-23.6	-23.9	18.3	0.00e+00	0	43	102	1048576	7	3739
2026-01-23 06:31:04.29	331.49	23.32	-23.6	-23.9	18.3	0.00e+00	0	43	102	1048576	7	3731
2026-01-23 06:31:05.30	331.23	23.37	-23.7	-24.1	18.2	0.00e+00	0	43	102	1048576	7	3782
2026-01-23 06:31:06.30	330.96	23.41	-23.6	-23.8	18.3	0.00e+00	0	43	102	1048576	7	3720
2026-01-23 06:31:07.31	330.69	23.46	-23.6	-23.9	18.3	0.00e+00	0	43	102	1048576	7	3732
2026-01-23 06:31:08.31	330.42	23.50	-23.8	-24.3	18.1	1.11e-03	0	43	102	1048576	7	3821
2026-01-23 06:31:09.31	330.16	23.55	-23.6	-24.0	18.2	0.00e+00	0	43	102	1048576	7	3756
2026-01-23 06:31:10.31	329.89	23.59	-23.7	-24.1	18.2	0.00e+00	0	43	102	1048576	7	3786
2026-01-23 06:31:11.31	329.62	23.63	-23.8	-24.3	18.0	1.16e-03	0	43	102	1048576	7	3825
2026-01-23 06:31:12.31	329.35	23.67	-23.8	-24.3	18.1	0.00e+00	0	43	102	1048576	7	3833
2026-01-23 06:31:13.31	329.08	23.71	-23.9	-24.5	18.0	1.34e-03	0	43	102	1048576	7	3876
2026-01-23 06:31:14.32	328.80	23.75	-23.7	-24.2	18.1	1.28e-03	0	43	102	1048576	7	3791
2026-01-23 06:31:15.32	328.53	23.79	-23.8	-24.4	18.0	0.00e+00	0	43	102	1048576	7	3835
2026-01-23 06:31:16.33	328.26	23.83	-23.9	-24.6	17.9	9.31e-04	0	43	102	1048576	7	3896
2026-01-23 06:31:17.34	327.98	23.87	-23.9	-24.5	18.0	7.79e-04	0	43	102	1048576	7	3882
2026-01-23 06:31:18.35	327.70	23.91	-24.0	-24.7	17.9	1.28e-04	0	43	102	1048576	7	3917
2026-01-23 06:31:19.35	327.43	23.95	-24.0	-24.7	17.9	6.68e-04	0	43	102	1048576	7	3923
2026-01-23 06:31:20.35	327.15	23.98	-23.9	-24.7	17.9	7.78e-04	0	43	102	1048576	7	3909
2026-01-23 06:31:21.36	326.87	24.02	-23.9	-24.6	18.0	1.96e-04	0	43	102	1048576	7	3885
2026-01-23 06:31:22.37	326.59	24.06	-23.9	-24.5	18.0	0.00e+00	0	43	102	1048576	7	3878
2026-01-23 06:31:23.37	326.31	24.09	-24.0	-24.8	17.8	9.41e-04	0	43	102	1048576	7	3942
2026-01-23 06:31:24.38	326.03	24.12	-24.2	-24.7	17.7	1.03e-04	0	43	102	1048576	8	3814
2026-01-23 06:31:25.38	325.75	24.16	-24.2	-24.7	17.6	0.00e+00	0	43	102	1048576	8	3818
2026-01-23 06:31:26.39	325.47	24.19	-24.1	-24.4	17.8	8.03e-04	0	43	102	1048576	8	3741
2026-01-23 06:31:27.39	325.19	24.22	-24.1	-24.4	17.8	0.00e+00	0	43	102	1048576	8	3747
2026-01-23 06:31:28.40	324.91	24.25	-24.2	-24.7	17.7	2.95e-04	0	43	102	1048576	8	3799
2026-01-23 06:31:29.40	324.63	24.28	-24.2	-24.7	17.6	0.00e+00	0	43	102	1048576	8	3819
2026-01-23 06:31:30.41	324.34	24.31	-24.1	-24.5	17.7	0.00e+00	0	43	102	1048576	8	3774
2026-01-23 06:31:31.42	324.06	24.34	-24.1	-24.5	17.8	3.07e-04	0	43	102	1048576	8	3759
2026-01-23 06:31:32.42	323.78	24.37	-24.2	-24.6	17.7	0.00e+00	0	43	102	1048576	8	3797
2026-01-23 06:31:33.43	323.49	24.40	-24.2	-24.6	17.7	0.00e+00	0	43	102	1048576	8	3799
2026-01-23 06:31:34.43	323.21	24.42	-23.9	-24.1	17.9	0.00e+00	0	43	102	1048576	8	3683
2026-01-23 06:31:35.44	322.92	24.45	-23.9	-24.2	17.9	0.00e+00	0	43	102	1048576	8	3687
2026-01-23 06:31:36.44	322.63	24.47	-23.9	-24.5	18.0	3.65e-04	0	43	102	1048576	7	3871
2026-01-23 06:31:37.44	322.35	24.50	-24.0	-24.7	17.9	0.00e+00	0	43	102	1048576	7	3913
2026-01-23 06:31:38.43	322.07	24.52	-23.8	-24.4	18.0	0.00e+00	0	43	102	1048576	7	3854
2026-01-23 06:31:39.43	321.78	24.55	-23.9	-24.5	18.0	0.00e+00	0	43	102	1048576	7	3864
2026-01-23 06:31:40.44	321.49	24.57	-23.9	-24.6	17.9	0.00e+00	0	43	102	1048576	7	3883
2026-01-23 06:31:41.44	321.20	24.59	-23.8	-24.3	18.1	0.00e+00	0	43	102	1048576	7	3828
2026-01-23 06:31:42.45	320.91	24.61	-23.7	-24.1	18.2	0.00e+00	0	43	102	1048576	7	3785
2026-01-23 06:31:43.46	320.62	24.63	-23.7	-24.2	18.1	0.00e+00	0	43	102	1048576	7	3795
2026-01-23 06:31:44.46	320.34	24.65	-23.8	-24.3	18.1	0.00e+00	0	43	102	1048576	7	3822
2026-01-23 06:31:45.46	320.05	24.67	-23.9	-24.6	17.9	0.00e+00	0	43	102	1048576	7	3899
2026-01-23 06:31:46.47	319.76	24.68	-23.9	-24.5	18.0	0.00e+00	0	43	102	1048576	7	3877
2026-01-23 06:31:47.47	319.47	24.70	-23.7	-24.1	18.2	0.00e+00	0	43	102	1048576	7	3773
2026-01-23 06:31:48.48	319.17	24.72	-23.8	-24.3	18.0	0.00e+00	0	43	102	1048576	7	3832
2026-01-23 06:31:49.49	318.88	24.73	-23.8	-24.3	18.1	0.00e+00	0	43	102	1048576	7	3811
2026-01-23 06:31:50.50	318.59	24.75	-23.6	-24.0	18.3	0.00e+00	0	43	102	1048576	7	3751
2026-01-23 06:31:51.50	318.30	24.76	-23.6	-23.8	18.3	0.00e+00	0	43	102	1048576	7	3718
2026-01-23 06:31:52.51	318.01	24.77	-23.5	-23.7	18.4	0.00e+00	0	43	102	1048576	7	3697
2026-01-23 06:31:53.51	317.71	24.78	-23.4	-23.6	18.5	0.00e+00	0	43	102	1048576	7	3658
2026-01-23 06:31:54.51	317.42	24.80	-23.4	-24.0	18.5	0.00e+00	0	43	102	1048576	6	3861
2026-01-23 06:31:55.51	317.13	24.81	-23.4	-23.9	18.5	0.00e+00	0	43	102	1048576	6	3837
2026-01-23 06:31:56.51	316.84	24.81	-23.4	-24.1	18.4	0.00e+00	0	43	102	1048576	6	3875
2026-01-23 06:31:57.52	316.55	24.82	-23.5	-24.2	18.4	0.00e+00	0	43	102	1048576	6	3896
2026-01-23 06:31:58.52	316.26	24.83	-23.5	-24.2	18.4	0.00e+00	0	43	102	1048576	6	3905
2026-01-23 06:31:59.53	315.96	24.84	-23.6	-23.9	18.3	0.00e+00	0	43	102	1048576	7	3736
2026-01-23 06:32:00.52	315.67	24.84	-23.6	-23.9	18.3	0.00e+00	0	43	102	1048576	7	3738
2026-01-23 06:32:01.53	315.38	24.85	-23.7	-24.1	18.2	0.00e+00	0	43	102	1048576	7	3777
2026-01-23 06:32:02.53	315.09	24.85	-23.7	-24.2	18.1	0.00e+00	0	43	102	1048576	7	3808
2026-01-23 06:32:03.53	314.79	24.86	-23.9	-24.5	18.0	0.00e+00	0	43	102	1048576	7	3867
2026-01-23 06:32:04.54	314.50	24.86	-23.8	-24.4	18.0	0.00e+00	0	43	102	1048576	7	3856
2026-01-23 06:32:05.55	314.20	24.86	-23.8	-24.3	18.1	0.00e+00	0	43	102	1048576	7	3817
2026-01-23 06:32:06.55	313.91	24.86	-23.7	-24.2	18.1	0.00e+00	0	43	102	1048576	7	3801
2026-01-23 06:32:07.56	313.62	24.87	-23.7	-24.1	18.2	0.00e+00	0	43	102	1048576	7	3778
2026-01-23 06:32:08.57	313.32	24.86	-23.7	-24.1	18.2	0.00e+00	0	43	102	1048576	7	3777
2026-01-23 06:32:09.57	313.03	24.86	-23.8	-24.4	18.0	0.00e+00	0	43	102	1048576	7	3849
2026-01-23 06:32:10.57	312.74	24.86	-23.8	-24.4	18.0	0.00e+00	0	43	102	1048576	7	3848
2026-01-23 06:32:11.58	312.44	24.86	-23.7	-24.2	18.1	0.00e+00	0	43	102	1048576	7	3805
2026-01-23 06:32:12.59	312.15	24.86	-23.7	-24.1	18.2	0.00e+00	0	43	102	1048576	7	3785
2026-01-23 06:32:13.59	311.85	24.85	-23.6	-24.0	18.3	0.00e+00	0	43	102	1048576	7	3747
2026-01-23 06:32:14.59	311.56	24.85	-23.7	-24.1	18.2	0.00e+00	0	43	102	1048576	7	3773
2026-01-23 06:32:15.60	311.27	24.84	-23.7	-24.2	18.2	0.00e+00	0	43	102	1048576	7	3801
2026-01-23 06:32:16.60	310.97	24.83	-23.7	-24.2	18.1	0.00e+00	0	43	102	1048576	7	3807
2026-01-23 06:32:17.60	310.68	24.83	-23.7	-24.0	18.2	0.00e+00	0	43	102	1048576	7	3766
2026-01-23 06:32:18.61	310.39	24.82	-23.6	-24.0	18.3	0.00e+00	0	43	102	1048576	7	3750
2026-01-23 06:32:19.61	310.10	24.81	-23.8	-24.3	18.1	0.00e+00	0	43	102	1048576	7	3832
2026-01-23 06:32:20.61	309.81	24.80	-24.0	-24.7	17.9	0.00e+00	0	43	102	1048576	7	3915
2026-01-23 06:32:21.62	309.51	24.79	-24.0	-24.7	17.9	0.00e+00	0	43	102	1048576	7	3911
2026-01-23 06:32:22.63	309.22	24.77	-23.9	-24.6	17.9	0.00e+00	0	43	102	1048576	7	3897
2026-01-23 06:32:23.63	308.93	24.76	-24.0	-24.7	17.9	0.00e+00	0	43	102	1048576	7	3913
2026-01-23 06:32:24.63	308.64	24.75	-23.9	-24.6	17.9	0.00e+00	0	43	102	1048576	7	3884
2026-01-23 06:32:25.64	308.34	24.73	-24.0	-24.8	17.8	0.00e+00	0	43	102	1048576	7	3952
2026-01-23 06:32:26.64	308.05	24.72	-24.0	-24.8	17.8	0.00e+00	0	43	102	1048576	7	3943
2026-01-23 06:32:27.63	307.77	24.70	-24.1	-24.6	17.7	0.00e+00	0	43	102	1048576	8	3786
2026-01-23 06:32:28.64	307.47	24.69	-24.5	-25.4	17.3	0.00e+00	0	43	102	1048576	8	3984
2026-01-23 06:32:29.65	307.18	24.67	-24.5	-24.8	17.4	0.00e+00	0	43	102	1048576	9	3726
2026-01-23 06:32:30.65	306.89	24.65	-24.0	-24.3	17.8	0.00e+00	0	43	102	1048576	8	3721
2026-01-23 06:32:31.66	306.60	24.63	-23.7	-24.1	18.2	0.00e+00	0	43	102	1048576	7	3776
2026-01-23 06:32:32.67	306.31	24.61	-23.5	-24.1	18.4	0.00e+00	0	43	102	1048576	6	3891
2026-01-23 06:32:33.67	306.02	24.59	-23.5	-24.3	18.3	1.44e-03	0	43	102	1048576	6	3923
2026-01-23 06:32:34.67	305.74	24.57	-23.6	-23.9	18.3	0.00e+00	0	43	102	1048576	7	3723
2026-01-23 06:32:35.68	305.45	24.55	-23.6	-24.4	18.3	6.92e-04	0	43	102	1048576	6	3948
2026-01-23 06:32:36.69	305.16	24.53	-23.5	-23.8	18.3	0.00e+00	0	43	102	1048576	7	3710
2026-01-23 06:32:37.70	304.87	24.50	-23.5	-23.7	18.3	0.00e+00	0	43	102	1048576	7	3698
2026-01-23 06:32:38.71	304.58	24.48	-23.5	-24.3	18.3	7.82e-04	0	43	102	1048576	6	3935
2026-01-23 06:32:39.70	304.30	24.45	-23.6	-23.9	18.2	0.00e+00	0	43	102	1048576	7	3738
2026-01-23 06:32:40.70	304.01	24.43	-23.7	-24.2	18.1	1.81e-03	0	43	102	1048576	7	3790
2026-01-23 06:32:41.71	303.73	24.40	-23.6	-24.0	18.2	3.94e-04	0	43	102	1048576	7	3747
2026-01-23 06:32:42.72	303.44	24.37	-23.4	-24.1	18.4	1.86e-03	0	43	102	1048576	6	3887
2026-01-23 06:32:43.72	303.16	24.35	-23.5	-24.1	18.4	1.86e-03	0	43	102	1048576	6	3887
2026-01-23 06:32:44.73	302.87	24.32	-23.4	-24.1	18.4	0.00e+00	0	43	102	1048576	6	3876
2026-01-23 06:32:45.74	302.59	24.29	-23.4	-24.1	18.4	1.87e-03	0	43	102	1048576	6	3875
2026-01-23 06:32:46.74	302.30	24.26	-23.5	-24.2	18.3	1.73e-03	0	43	102	1048576	6	3900
2026-01-23 06:32:47.75	302.02	24.23	-23.5	-24.1	18.4	1.17e-04	0	43	102	1048576	6	3895
2026-01-23 06:32:48.75	301.74	24.20	-23.5	-24.3	18.3	1.62e-03	0	43	102	1048576	6	3927
2026-01-23 06:32:49.75	301.46	24.16	-23.5	-24.3	18.3	0.00e+00	0	43	102	1048576	6	3931
2026-01-23 06:32:50.75	301.18	24.13	-23.5	-23.7	18.3	0.00e+00	0	43	102	1048576	7	3690
2026-01-23 06:32:51.75	300.90	24.10	-23.5	-23.8	18.3	1.68e-03	0	43	102	1048576	7	3711
2026-01-23 06:32:52.76	300.62	24.06	-23.4	-23.6	18.4	1.63e-03	0	43	102	1048576	7	3669
2026-01-23 06:32:53.77	300.34	24.03	-23.4	-23.5	18.4	0.00e+00	0	43	102	1048576	7	3650
2026-01-23 06:32:54.77	300.06	23.99	-23.4	-24.0	18.4	0.00e+00	0	43	102	1048576	6	3860
2026-01-23 06:32:55.78	299.78	23.95	-23.4	-24.0	18.4	1.47e-03	0	43	102	1048576	6	3862
2026-01-23 06:32:56.79	299.51	23.92	-23.5	-24.2	18.3	0.00e+00	0	43	102	1048576	6	3902
2026-01-23 06:32:57.79	299.23	23.88	-23.4	-24.0	18.4	3.20e-05	0	43	102	1048576	6	3868
2026-01-23 06:32:58.80	298.95	23.84	-23.5	-24.2	18.3	1.43e-03	0	43	102	1048576	6	3917
2026-01-23 06:32:59.80	298.68	23.80	-23.4	-24.1	18.4	0.00e+00	0	43	102	1048576	6	3885
2026-01-23 06:33:00.81	298.40	23.76	-23.5	-24.3	18.2	1.15e-03	0	43	102	1048576	6	3946
2026-01-23 06:33:01.81	298.13	23.72	-23.4	-24.1	18.4	0.00e+00	0	43	102	1048576	6	3877
2026-01-23 06:33:02.80	297.86	23.68	-23.5	-24.1	18.3	0.00e+00	0	43	102	1048576	6	3892
2026-01-23 06:33:03.81	297.59	23.64	-23.4	-24.1	18.3	0.00e+00	0	43	102	1048576	6	3892
2026-01-23 06:33:04.82	297.32	23.60	-23.5	-24.1	18.3	0.00e+00	0	43	102	1048576	6	3894
2026-01-23 06:33:05.82	297.05	23.55	-23.6	-23.9	18.2	0.00e+00	0	43	102	1048576	7	3744
2026-01-23 06:33:06.82	296.78	23.51	-24.0	-24.7	17.8	0.00e+00	0	43	102	1048576	7	3916
2026-01-23 06:33:07.83	296.51	23.46	-23.9	-24.5	17.9	0.00e+00	0	43	102	1048576	7	3863
2026-01-23 06:33:08.84	296.24	23.42	-23.9	-24.6	17.8	0.00e+00	0	43	102	1048576	7	3883
2026-01-23 06:33:09.83	295.97	23.38	-23.9	-24.6	17.8	0.00e+00	0	43	102	1048576	7	3888
2026-01-23 06:33:10.84	295.71	23.33	-23.9	-24.7	17.8	0.00e+00	0	43	102	1048576	7	3912
2026-01-23 06:33:11.85	295.44	23.28	-23.8	-24.4	17.9	0.00e+00	0	43	102	1048576	7	3854
2026-01-23 06:33:12.85	295.17	23.24	-23.8	-24.4	17.9	0.00e+00	0	43	102	1048576	7	3858
2026-01-23 06:33:13.86	294.91	23.19	-23.8	-24.3	18.0	0.00e+00	0	43	102	1048576	7	3830
2026-01-23 06:33:14.87	294.64	23.14	-23.6	-23.8	18.2	0.00e+00	0	43	102	1048576	7	3720
2026-01-23 06:33:15.87	294.38	23.09	-23.5	-23.7	18.3	0.00e+00	0	43	102	1048576	7	3687
2026-01-23 06:33:16.88	294.12	23.04	-23.5	-23.7	18.3	0.00e+00	0	43	102	1048576	7	3684
2026-01-23 06:33:17.88	293.86	22.99	-23.6	-23.8	18.2	0.00e+00	0	43	102	1048576	7	3722
2026-01-23 06:33:18.88	293.60	22.94	-23.7	-24.1	18.1	0.00e+00	0	43	102	1048576	7	3775
2026-01-23 06:33:19.89	293.34	22.89	-23.6	-23.9	18.1	0.00e+00	0	43	102	1048576	7	3735
2026-01-23 06:33:20.89	293.08	22.84	-23.5	-23.8	18.2	0.00e+00	0	43	102	1048576	7	3708
2026-01-23 06:33:21.90	292.82	22.78	-23.4	-23.6	18.3	0.00e+00	0	43	102	1048576	7	3666
2026-01-23 06:33:22.91	292.56	22.73	-23.5	-23.8	18.2	0.00e+00	0	43	102	1048576	7	3716
2026-01-23 06:33:23.91	292.31	22.68	-23.7	-24.1	18.1	0.00e+00	0	43	102	1048576	7	3772
2026-01-23 06:33:24.92	292.05	22.63	-23.5	-23.7	18.2	0.00e+00	0	43	102	1048576	7	3694
2026-01-23 06:33:25.92	291.80	22.57	-23.5	-23.8	18.2	0.00e+00	0	43	102	1048576	7	3720
2026-01-23 06:33:26.93	291.55	22.52	-23.6	-24.0	18.0	0.00e+00	0	43	102	1048576	7	3757
2026-01-23 06:33:27.93	291.29	22.46	-23.7	-24.1	18.0	0.00e+00	0	43	102	1048576	7	3772
2026-01-23 06:33:28.93	291.04	22.41	-23.7	-24.2	17.9	0.00e+00	0	43	102	1048576	7	3814
2026-01-23 06:33:29.93	290.79	22.35	-23.8	-24.4	17.8	0.00e+00	0	43	102	1048576	7	3854
2026-01-23 06:33:30.94	290.54	22.29	-23.7	-24.2	18.0	0.00e+00	0	43	102	1048576	7	3794
2026-01-23 06:33:31.94	290.30	22.24	-23.8	-24.4	17.8	0.00e+00	0	43	102	1048576	7	3852
2026-01-23 06:33:32.95	290.05	22.18	-23.6	-23.9	18.1	0.00e+00	0	43	102	1048576	7	3728
2026-01-23 06:33:33.95	289.80	22.12	-23.5	-23.7	18.2	0.00e+00	0	43	102	1048576	7	3688
2026-01-23 06:33:34.96	289.55	22.06	-23.6	-23.9	18.1	0.00e+00	0	43	102	1048576	7	3728
2026-01-23 06:33:35.96	289.31	22.00	-23.4	-23.5	18.3	0.00e+00	0	43	102	1048576	7	3654
2026-01-23 06:33:36.96	289.07	21.95	-23.4	-23.6	18.2	0.00e+00	0	43	102	1048576	7	3658
2026-01-23 06:33:37.97	288.82	21.89	-23.4	-24.0	18.2	0.00e+00	0	43	102	1048576	6	3870
2026-01-23 06:33:38.98	288.58	21.83	-23.5	-24.2	18.2	0.00e+00	0	43	102	1048576	6	3903
2026-01-23 06:33:39.98	288.34	21.77	-23.5	-24.1	18.2	0.00e+00	0	43	102	1048576	6	3896
2026-01-23 06:33:40.99	288.10	21.70	-23.6	-24.4	18.1	0.00e+00	0	43	102	1048576	6	3950
2026-01-23 06:33:42.00	287.86	21.64	-23.6	-23.9	18.1	0.00e+00	0	43	102	1048576	7	3731
2026-01-23 06:33:43.01	287.62	21.58	-23.6	-23.9	18.0	0.00e+00	0	43	102	1048576	7	3746
2026-01-23 06:33:44.02	287.38	21.52	-23.6	-24.0	18.0	0.00e+00	0	43	102	1048576	7	3766
2026-01-23 06:33:45.02	287.14	21.46	-23.7	-24.1	18.0	0.00e+00	0	43	102	1048576	7	3788
2026-01-23 06:33:46.03	286.90	21.39	-23.7	-24.2	17.9	0.00e+00	0	43	102	1048576	7	3816
2026-01-23 06:33:47.03	286.67	21.33	-23.6	-24.1	18.0	0.00e+00	0	43	102	1048576	7	3774
2026-01-23 06:33:48.04	286.44	21.27	-23.7	-24.1	17.9	0.00e+00	0	43	102	1048576	7	3784
2026-01-23 06:33:49.05	286.20	21.20	-23.8	-24.3	17.8	0.00e+00	0	43	102	1048576	7	3827
2026-01-23 06:33:50.05	285.97	21.14	-23.6	-23.9	18.0	0.00e+00	0	43	102	1048576	7	3744
2026-01-23 06:33:51.05	285.74	21.08	-23.6	-24.0	18.0	0.00e+00	0	43	102	1048576	7	3762
2026-01-23 06:33:52.05	285.51	21.01	-23.6	-23.9	18.0	0.00e+00	0	43	102	1048576	7	3727
2026-01-23 06:33:53.05	285.28	20.95	-23.6	-23.9	18.0	0.00e+00	0	43	102	1048576	7	3731
2026-01-23 06:33:54.06	285.06	20.88	-23.8	-24.4	17.6	0.00e+00	0	43	102	1048576	7	3857
2026-01-23 06:33:55.06	284.83	20.82	-23.7	-24.1	13.7	0.00e+00	0	43	102	1048576	7	3787
2026-01-23 06:33:56.06	284.60	20.75	-23.6	-24.0	18.0	0.00e+00	0	43	102	1048576	7	3751
2026-01-23 06:33:57.07	284.38	20.68	-23.7	-24.2	17.8	0.00e+00	0	43	102	1048576	7	3812
2026-01-23 06:33:58.08	284.15	20.62	-23.6	-24.0	18.0	1.17e-03	0	43	102	1048576	7	3761
2026-01-23 06:33:59.08	283.93	20.55	-23.6	-24.0	18.0	0.00e+00	0	43	102	1048576	7	3759
2026-01-23 06:34:00.08	283.71	20.48	-23.7	-24.1	17.9	0.00e+00	0	43	102	1048576	7	3780
2026-01-23 06:34:01.08	283.49	20.42	-23.7	-24.3	17.8	0.00e+00	0	43	102	1048576	7	3818
2026-01-23 06:34:02.08	283.27	20.35	-23.8	-24.4	17.8	0.00e+00	0	43	102	1048576	7	3851
2026-01-23 06:34:03.09	283.05	20.28	-23.8	-24.3	17.8	3.10e-04	0	43	102	1048576	7	3830
2026-01-23 06:34:04.09	282.83	20.21	-23.9	-24.5	17.7	0.00e+00	0	43	102	1048576	7	3883
2026-01-23 06:34:05.10	282.61	20.14	-24.0	-24.9	17.5	0.00e+00	0	43	102	1048576	7	3960
2026-01-23 06:34:06.10	282.40	20.08	-24.0	-24.7	17.6	1.10e-06	0	43	102	1048576	7	3922
2026-01-23 06:34:07.10	282.19	20.01	-24.0	-24.8	17.6	0.00e+00	0	43	102	1048576	7	3937
2026-01-23 06:34:08.10	281.97	19.94	-24.1	-25.0	17.4	0.00e+00	0	43	102	1048576	7	3994
2026-01-23 06:34:09.11	281.76	19.87	-23.9	-24.6	17.7	0.00e+00	0	43	102	1048576	7	3890
2026-01-23 06:34:10.11	281.55	19.80	-23.9	-24.5	17.7	2.44e-04	0	43	102	1048576	7	3878
2026-01-23 06:34:11.11	281.34	19.73	-24.0	-24.7	17.6	0.00e+00	0	43	102	1048576	7	3922
2026-01-23 06:34:12.11	281.13	19.66	-23.9	-24.5	17.6	0.00e+00	0	43	102	1048576	7	3887
2026-01-23 06:34:13.12	280.92	19.59	-23.9	-24.6	17.6	3.76e-04	0	43	102	1048576	7	3898
2026-01-23 06:34:14.13	280.71	19.52	-24.0	-24.7	17.5	0.00e+00	0	43	102	1048576	7	3933
2026-01-23 06:34:15.14	280.50	19.45	-24.0	-24.8	17.5	5.60e-05	0	43	102	1048576	7	3957
2026-01-23 06:34:16.15	280.29	19.38	-24.2	-24.6	17.4	0.00e+00	0	43	102	1048576	8	3805
2026-01-23 06:34:17.15	280.09	19.31	-24.3	-25.0	17.2	0.00e+00	0	43	102	1048576	8	3879
2026-01-23 06:34:18.16	279.88	19.24	-24.2	-24.7	17.3	2.01e-04	0	43	102	1048576	8	3825
2026-01-23 06:34:19.17	279.67	19.16	-24.1	-24.5	17.4	0.00e+00	0	43	102	1048576	8	3784
2026-01-23 06:34:20.17	279.47	19.09	-24.2	-24.7	17.3	0.00e+00	0	43	102	1048576	8	3817
2026-01-23 06:34:21.18	279.27	19.02	-24.3	-25.0	17.1	4.39e-04	0	43	102	1048576	8	3889
2026-01-23 06:34:22.19	279.07	18.95	-24.2	-24.7	17.3	0.00e+00	0	43	102	1048576	8	3819
2026-01-23 06:34:23.19	278.87	18.88	-24.2	-24.6	17.3	0.00e+00	0	43	102	1048576	8	3803
2026-01-23 06:34:24.20	278.67	18.80	-24.3	-24.9	17.1	2.20e-06	0	43	102	1048576	8	3865
2026-01-23 06:34:25.20	278.47	18.73	-24.2	-24.7	17.3	1.30e-03	0	43	102	1048576	8	3804
2026-01-23 06:34:26.21	278.27	18.66	-24.1	-24.6	17.3	0.00e+00	0	43	102	1048576	8	3797
2026-01-23 06:34:27.21	278.08	18.59	-24.2	-24.6	17.3	0.00e+00	0	43	102	1048576	8	3801
2026-01-23 06:34:28.21	277.88	18.52	-24.2	-24.7	17.3	1.54e-03	0	43	102	1048576	8	3814
2026-01-23 06:34:29.22	277.69	18.44	-24.2	-24.6	17.3	0.00e+00	0	43	102	1048576	8	3805
2026-01-23 06:34:30.22	277.50	18.37	-24.2	-24.7	17.3	0.00e+00	0	43	102	1048576	8	3816
2026-01-23 06:34:31.22	277.31	18.30	-24.2	-24.8	17.2	0.00e+00	0	43	102	1048576	8	3832
2026-01-23 06:34:32.23	277.11	18.22	-24.3	-24.9	17.2	0.00e+00	0	43	102	1048576	8	3869
2026-01-23 06:34:33.23	276.92	18.15	-24.4	-25.1	17.1	1.43e-03	0	43	102	1048576	8	3911
2026-01-23 06:34:34.24	276.73	18.08	-24.4	-25.2	17.0	0.00e+00	0	43	102	1048576	8	3930
2026-01-23 06:34:35.24	276.55	18.00	-24.5	-25.3	16.9	0.00e+00	0	43	102	1048576	8	3962
2026-01-23 06:34:36.24	276.36	17.93	-24.4	-25.2	17.0	0.00e+00	0	43	102	1048576	8	3949
2026-01-23 06:34:37.24	276.17	17.86	-24.5	-25.4	16.9	0.00e+00	0	43	102	1048576	8	3979
2026-01-23 06:34:38.25	275.99	17.78	-24.4	-25.2	17.0	0.00e+00	0	43	102	1048576	8	3942
2026-01-23 06:34:39.25	275.80	17.71	-24.4	-25.2	17.0	0.00e+00	0	43	102	1048576	8	3929
2026-01-23 06:34:40.26	275.62	17.63	-24.3	-25.0	17.1	0.00e+00	0	43	102	1048576	8	3887
2026-01-23 06:34:41.26	275.43	17.56	-24.4	-25.1	17.0	0.00e+00	0	43	102	1048576	8	3925
2026-01-23 06:34:42.26	275.25	17.49	-24.5	-25.4	16.9	0.00e+00	0	43	102	1048576	8	3974
2026-01-23 06:34:43.26	275.07	17.41	-24.5	-25.3	16.9	0.00e+00	0	43	102	1048576	8	3955
2026-01-23 06:34:44.26	274.89	17.34	-24.5	-25.4	16.9	0.00e+00	0	43	102	1048576	8	3990
2026-01-23 06:34:45.26	274.71	17.27	-24.6	-25.2	16.7	0.00e+00	0	43	102	1048576	9	3826
2026-01-23 06:34:46.26	274.54	17.19	-25.0	-25.9	16.4	0.00e+00	0	43	102	1048576	9	3988
2026-01-23 06:34:47.26	274.36	17.12	-24.9	-25.7	16.4	0.00e+00	0	43	102	1048576	9	3960
2026-01-23 06:34:48.27	274.18	17.04	-25.2	-25.8	16.1	0.00e+00	0	43	102	1048576	10	3863
2026-01-23 06:34:49.28	274.01	16.97	-24.9	-25.2	16.4	0.00e+00	0	43	102	1048576	10	3733
2026-01-23 06:34:50.28	273.83	16.89	-24.8	-25.6	16.5	0.00e+00	0	43	102	1048576	9	3925
2026-01-23 06:34:51.28	273.66	16.82	-24.9	-25.8	16.4	0.00e+00	0	43	102	1048576	9	3981
2026-01-23 06:34:52.29	273.48	16.74	-25.0	-25.8	16.3	0.00e+00	0	43	102	1048576	9	3982
2026-01-23 06:34:53.30	273.31	16.67	-25.0	-26.0	16.3	5.70e-06	0	43	102	1048576	9	4020
2026-01-23 06:34:54.30	273.14	16.59	-25.1	-26.1	16.2	0.00e+00	0	43	102	1048576	9	4051
2026-01-23 06:34:55.31	272.97	16.52	-25.3	-26.0	16.0	0.00e+00	0	43	102	1048576	10	3924
2026-01-23 06:34:56.31	272.80	16.45	-25.3	-26.1	16.0	2.20e-06	0	43	102	1048576	10	3948
2026-01-23 06:34:57.32	272.63	16.37	-25.4	-26.2	15.9	0.00e+00	0	43	102	1048576	10	3974
2026-01-23 06:34:58.32	272.46	16.30	-25.4	-26.4	15.8	0.00e+00	0	43	102	1048576	10	4012
2026-01-23 06:34:59.33	272.29	16.22	-25.2	-25.9	16.0	0.00e+00	0	43	102	1048576	10	3890
2026-01-23 06:35:00.34	272.13	16.14	-25.1	-25.6	16.2	0.00e+00	0	43	102	1048576	10	3812
2026-01-23 06:35:01.34	271.96	16.07	-25.0	-25.4	16.3	0.00e+00	0	43	102	1048576	10	3788
2026-01-23 06:35:02.34	271.80	16.00	-25.0	-25.4	16.3	0.00e+00	0	43	102	1048576	10	3779
2026-01-23 06:35:03.34	271.63	15.92	-24.9	-25.2	16.4	0.00e+00	0	43	102	1048576	10	3732
2026-01-23 06:35:04.35	271.47	15.85	-24.9	-25.7	16.4	0.00e+00	0	43	102	1048576	9	3956
2026-01-23 06:35:05.36	271.31	15.77	-25.0	-25.9	16.3	1.10e-06	0	43	102	1048576	9	4002
2026-01-23 06:35:06.36	271.15	15.70	-25.0	-26.0	16.2	0.00e+00	0	43	102	1048576	9	4036
2026-01-23 06:35:07.37	270.98	15.62	-25.1	-26.1	16.2	0.00e+00	0	43	102	1048576	9	4046
2026-01-23 06:35:08.38	270.82	15.55	-25.3	-26.0	16.0	0.00e+00	0	43	102	1048576	10	3933
2026-01-23 06:35:09.38	270.66	15.47	-25.4	-26.3	15.8	0.00e+00	0	43	102	1048576	10	3996
2026-01-23 06:35:10.39	270.51	15.40	-25.3	-26.0	15.9	0.00e+00	0	43	102	1048576	10	3925
2026-01-23 06:35:11.40	270.35	15.32	-25.3	-26.2	15.8	0.00e+00	0	43	102	1048576	10	3972
2026-01-23 06:35:12.40	270.19	15.25	-25.4	-26.2	15.8	0.00e+00	0	43	102	1048576	10	3980
2026-01-23 06:35:13.40	270.04	15.17	-25.3	-26.0	15.9	0.00e+00	0	43	102	1048576	10	3930
2026-01-23 06:35:14.40	269.88	15.10	-25.3	-26.1	15.9	0.00e+00	0	43	102	1048576	10	3941
2026-01-23 06:35:15.40	269.73	15.02	-25.3	-26.1	15.8	0.00e+00	0	43	102	1048576	10	3953
2026-01-23 06:35:16.41	269.57	14.95	-25.6	-26.7	15.5	0.00e+00	0	43	102	1048576	10	4089
2026-01-23 06:35:17.41	269.42	14.87	-25.7	-26.4	15.4	0.00e+00	0	43	102	1048576	11	3922
2026-01-23 06:35:18.42	269.27	14.80	-25.5	-26.1	15.6	0.00e+00	0	43	102	1048576	11	3836
2026-01-23 06:35:19.43	269.12	14.72	-25.6	-26.6	15.6	0.00e+00	0	43	102	1048576	10	4082
2026-01-23 06:35:20.43	268.97	14.65	-25.9	-26.8	15.2	0.00e+00	0	43	102	1048576	11	4020
2026-01-23 06:35:21.43	268.82	14.57	-26.0	-27.1	15.0	0.00e+00	0	43	102	1048576	11	4080
2026-01-23 06:35:22.44	268.67	14.50	-26.0	-27.0	15.1	0.00e+00	0	43	102	1048576	11	4074
2026-01-23 06:35:23.45	268.52	14.42	-25.9	-26.5	15.0	0.00e+00	0	43	102	1048576	12	3846
2026-01-23 06:35:24.45	268.37	14.35	-25.8	-26.8	14.2	0.00e+00	0	43	102	1048576	11	4007
2026-01-23 06:35:25.46	268.23	14.27	-25.7	-26.6	15.3	0.00e+00	0	43	102	1048576	11	3954
2026-01-23 06:35:26.46	268.08	14.20	-25.8	-26.6	15.3	0.00e+00	0	43	102	1048576	11	3966
2026-01-23 06:35:27.47	267.93	14.12	-25.7	-26.5	15.3	0.00e+00	0	43	102	1048576	11	3941
2026-01-23 06:35:28.47	267.79	14.05	-25.6	-26.3	15.4	0.00e+00	0	43	102	1048576	11	3894
2026-01-23 06:35:29.48	267.65	13.98	-25.5	-26.6	15.6	0.00e+00	0	43	102	1048576	10	4063
2026-01-23 06:35:30.48	267.50	13.90	-25.5	-26.6	15.6	2.24e-03	0	43	102	1048576	10	4060
2026-01-23 06:35:31.49	267.36	13.83	-25.6	-26.6	15.5	0.00e+00	0	43	102	1048576	10	4081
2026-01-23 06:35:32.50	267.22	13.75	-25.6	-26.2	15.5	2.25e-03	0	43	102	1048576	11	3862
2026-01-23 06:35:33.50	267.08	13.68	-25.5	-26.5	15.6	0.00e+00	0	43	102	1048576	10	4055
2026-01-23 06:35:34.51	266.94	13.60	-25.5	-26.4	15.6	1.46e-04	0	43	102	1048576	10	4028
2026-01-23 06:35:35.51	266.80	13.53	-25.5	-26.6	15.5	2.40e-03	0	43	102	1048576	10	4065
2026-01-23 06:35:36.51	266.66	13.46	-25.6	-26.7	15.3	0.00e+00	0	43	102	1048576	10	4099
2026-01-23 06:35:37.51	266.52	13.38	-25.6	-26.7	15.4	2.39e-04	0	43	102	1048576	10	4089
2026-01-23 06:35:38.51	266.39	13.31	-25.6	-26.3	15.3	2.29e-03	0	43	102	1048576	11	3904
2026-01-23 06:35:39.52	266.25	13.24	-25.8	-26.8	15.1	2.43e-03	0	43	102	1048576	11	4022
2026-01-23 06:35:40.53	266.11	13.16	-25.9	-27.0	15.0	1.72e-04	0	43	102	1048576	11	4060
2026-01-23 06:35:41.53	265.98	13.09	-25.9	-26.9	15.0	1.71e-05	0	43	102	1048576	11	4034
2026-01-23 06:35:42.53	265.84	13.01	-25.9	-27.0	14.9	2.10e-03	0	43	102	1048576	11	4077
2026-01-23 06:35:43.54	265.71	12.94	-25.9	-26.9	15.0	0.00e+00	0	43	102	1048576	11	4040
2026-01-23 06:35:44.54	265.58	12.87	-25.9	-26.9	15.0	1.96e-03	0	43	102	1048576	11	4052
2026-01-23 06:35:45.54	265.45	12.79	-26.0	-27.1	14.9	1.72e-03	0	43	102	1048576	11	4106
2026-01-23 06:35:46.55	265.31	12.72	-26.0	-26.7	14.8	0.00e+00	0	43	102	1048576	12	3900
2026-01-23 06:35:47.55	265.18	12.65	-26.1	-27.3	14.8	1.61e-03	0	43	102	1048576	11	4164
2026-01-23 06:35:48.55	265.05	12.58	-26.1	-26.9	14.7	1.71e-03	0	43	102	1048576	12	3934
2026-01-23 06:35:49.54	264.92	12.50	-26.1	-26.9	14.6	9.10e-06	0	43	102	1048576	12	3954
2026-01-23 06:35:50.55	264.79	12.43	-26.1	-26.9	14.6	1.67e-03	0	43	102	1048576	12	3960
2026-01-23 06:35:51.55	264.67	12.36	-26.1	-26.8	14.7	0.00e+00	0	43	102	1048576	12	3920
2026-01-23 06:35:52.56	264.54	12.28	-26.0	-27.2	14.8	1.88e-04	0	43	102	1048576	11	4121
2026-01-23 06:35:53.56	264.41	12.21	-25.9	-26.9	14.9	1.95e-03	0	43	102	1048576	11	4046
2026-01-23 06:35:54.56	264.29	12.14	-25.9	-26.8	15.0	0.00e+00	0	43	102	1048576	11	4029
2026-01-23 06:35:55.56	264.16	12.07	-25.7	-26.5	15.1	2.44e-04	0	43	102	1048576	11	3956
2026-01-23 06:35:56.56	264.04	11.99	-25.6	-26.4	15.2	0.00e+00	0	43	102	1048576	11	3914
2026-01-23 06:35:57.57	263.91	11.92	-25.7	-26.4	15.2	2.69e-03	0	43	102	1048576	11	3931
2026-01-23 06:35:58.58	263.79	11.85	-25.7	-26.4	15.2	9.76e-04	0	43	102	1048576	11	3932
2026-01-23 06:35:59.58	263.66	11.78	-25.7	-26.6	15.1	0.00e+00	0	43	102	1048576	11	3962
2026-01-23 06:36:00.58	263.54	11.70	-25.8	-26.8	15.0	3.48e-03	0	43	102	1048576	11	4016
2026-01-23 06:36:01.59	263.42	11.63	-26.0	-27.1	14.8	2.20e-06	0	43	102	1048576	11	4114
2026-01-23 06:36:02.59	263.30	11.56	-26.0	-26.7	14.6	1.10e-06	0	43	102	1048576	12	3910
2026-01-23 06:36:03.59	263.18	11.49	-26.1	-27.0	14.5	3.47e-03	0	43	102	1048576	12	3965
2026-01-23 06:36:04.60	263.05	11.42	-26.2	-27.2	14.4	5.70e-06	0	43	102	1048576	12	4037
2026-01-23 06:36:05.60	262.94	11.34	-26.2	-27.2	14.3	1.10e-06	0	43	102	1048576	12	4030
2026-01-23 06:36:06.61	262.82	11.27	-26.3	-27.4	14.2	1.10e-06	0	43	102	1048576	12	4076
2026-01-23 06:36:07.61	262.70	11.20	-26.3	-27.3	14.3	1.10e-06	0	43	102	1048576	12	4061
2026-01-23 06:36:08.61	262.58	11.13	-26.4	-27.7	14.1	1.10e-06	0	43	102	1048576	12	4155
2026-01-23 06:36:09.61	262.46	11.06	-26.4	-27.5	14.2	1.10e-06	0	43	102	1048576	12	4098
2026-01-23 06:36:10.62	262.35	10.99	-26.1	-27.0	14.5	0.00e+00	0	43	102	1048576	12	3973
2026-01-23 06:36:11.62	262.23	10.92	-26.0	-26.7	14.6	1.10e-06	0	43	102	1048576	12	3900
2026-01-23 06:36:12.63	262.11	10.84	-26.0	-26.8	14.6	0.00e+00	0	43	102	1048576	12	3919
2026-01-23 06:36:13.63	262.00	10.77	-26.0	-26.6	14.7	0.00e+00	0	43	102	1048576	12	3875
2026-01-23 06:36:14.63	261.88	10.70	-26.1	-27.3	14.6	1.10e-06	0	43	102	1048576	11	4164
2026-01-23 06:36:15.64	261.77	10.63	-26.0	-27.1	14.8	1.10e-06	0	43	102	1048576	11	4100
2026-01-23 06:36:16.64	261.66	10.56	-26.1	-27.3	14.6	0.00e+00	0	43	102	1048576	11	4152
2026-01-23 06:36:17.64	261.55	10.49	-26.0	-27.1	14.8	0.00e+00	0	43	102	1048576	11	4105
2026-01-23 06:36:18.64	261.43	10.42	-26.0	-27.3	14.6	0.00e+00	0	43	102	1048576	11	4160
2026-01-23 06:36:19.65	261.32	10.35	-26.0	-26.7	14.6	0.00e+00	0	43	102	1048576	12	3898
2026-01-23 06:36:20.65	261.21	10.28	-25.9	-27.1	14.7	0.00e+00	0	43	102	1048576	11	4096
2026-01-23 06:36:21.65	261.10	10.21	-25.9	-27.0	14.8	0.00e+00	0	43	102	1048576	11	4082
2026-01-23 06:36:22.66	260.99	10.14	-26.0	-27.2	14.6	0.00e+00	0	43	102	1048576	11	4124
2026-01-23 06:36:23.66	260.88	10.07	-25.9	-27.0	14.7	0.00e+00	0	43	102	1048576	11	4090
2026-01-23 06:36:24.66	260.77	10.00	-26.0	-27.1	14.7	0.00e+00	0	43	102	1048576	11	4100
2026-01-23 06:36:25.67	260.66	9.93	-26.0	-26.7	14.5	0.00e+00	0	43	102	1048576	12	3905
2026-01-23 06:36:26.67	260.55	9.86	-26.1	-27.0	14.4	0.00e+00	0	43	102	1048576	12	3986
2026-01-23 06:36:27.67	260.45	9.79	-26.2	-27.2	14.3	1.10e-06	0	43	102	1048576	12	4016
2026-01-23 06:36:28.67	260.34	9.72	-26.1	-26.9	14.4	0.00e+00	0	43	102	1048576	12	3949
2026-01-23 06:36:29.67	260.24	9.65	-26.4	-27.6	14.0	1.10e-06	0	43	102	1048576	12	4122
2026-01-23 06:36:30.68	260.13	9.58	-26.3	-27.5	14.1	3.40e-06	0	43	102	1048576	12	4104
2026-01-23 06:36:31.68	260.02	9.51	-26.2	-27.2	14.2	2.20e-06	0	43	102	1048576	12	4042
2026-01-23 06:36:32.68	259.92	9.44	-26.3	-27.4	14.1	2.20e-06	0	43	102	1048576	12	4085
2026-01-23 06:36:33.69	259.81	9.37	-26.3	-27.5	14.0	0.00e+00	0	43	102	1048576	12	4103
2026-01-23 06:36:34.69	259.71	9.30	-26.3	-27.4	14.1	1.10e-06	0	43	102	1048576	12	4074
2026-01-23 06:36:35.70	259.61	9.24	-26.2	-27.3	14.2	1.10e-06	0	43	102	1048576	12	4052
2026-01-23 06:36:36.70	259.50	9.17	-26.3	-27.4	14.1	2.20e-06	0	43	102	1048576	12	4097
2026-01-23 06:36:37.70	259.40	9.10	-26.3	-27.5	14.0	1.10e-06	0	43	102	1048576	12	4111
2026-01-23 06:36:38.71	259.30	9.03	-26.4	-27.7	13.9	5.70e-06	0	43	102	1048576	12	4156
2026-01-23 06:36:39.71	259.20	8.96	-26.4	-27.7	13.8	4.50e-06	0	43	102	1048576	12	4176
2026-01-23 06:36:40.71	259.10	8.89	-26.6	-28.0	13.7	0.00e+00	0	43	102	1048576	12	4249
2026-01-23 06:36:41.72	259.00	8.82	-26.5	-28.0	13.7	5.70e-06	0	43	102	1048576	12	4240
2026-01-23 06:36:42.72	258.90	8.76	-26.6	-27.7	13.6	1.02e-05	0	43	102	1048576	13	4056
2026-01-23 06:36:43.72	258.80	8.69	-26.8	-28.2	13.3	1.25e-05	0	43	102	1048576	13	4186
2026-01-23 06:36:44.72	258.70	8.62	-26.8	-28.0	13.4	2.05e-05	0	43	102	1048576	13	4139
2026-01-23 06:36:45.73	258.60	8.55	-26.6	-27.6	13.6	8.00e-06	0	43	102	1048576	13	4046
2026-01-23 06:36:46.73	258.50	8.48	-26.5	-27.5	13.7	1.14e-05	0	43	102	1048576	13	3997
2026-01-23 06:36:47.74	258.41	8.42	-26.6	-27.7	13.5	1.14e-05	0	43	102	1048576	13	4058
2026-01-23 06:36:48.73	258.31	8.35	-26.6	-27.6	13.6	1.02e-05	0	43	102	1048576	13	4047
2026-01-23 06:36:49.74	258.21	8.28	-26.6	-27.7	13.5	5.70e-06	0	43	102	1048576	13	4051
2026-01-23 06:36:50.74	258.12	8.22	-26.5	-27.4	13.7	1.02e-05	0	43	102	1048576	13	3970
2026-01-23 06:36:51.74	258.02	8.15	-26.4	-27.7	13.7	1.02e-05	0	43	102	1048576	12	4180
2026-01-23 06:36:52.75	257.93	8.08	-26.5	-27.8	13.7	1.10e-06	0	43	102	1048576	12	4196
2026-01-23 06:36:53.75	257.83	8.01	-26.3	-27.5	13.9	4.50e-06	0	43	102	1048576	12	4122
2026-01-23 06:36:54.75	257.74	7.95	-26.5	-27.8	13.7	9.10e-06	0	43	102	1048576	12	4201
2026-01-23 06:36:55.76	257.64	7.88	-26.3	-27.4	14.0	2.20e-06	0	43	102	1048576	12	4081
2026-01-23 06:36:56.76	257.55	7.81	-26.3	-27.5	13.9	3.40e-06	0	43	102	1048576	12	4119
2026-01-23 06:36:57.77	257.46	7.75	-26.2	-27.3	14.0	0.00e+00	0	43	102	1048576	12	4057
2026-01-23 06:36:58.77	257.36	7.68	-26.4	-27.6	13.9	3.40e-06	0	43	102	1048576	12	4130
2026-01-23 06:36:59.78	257.27	7.61	-26.4	-27.6	13.8	4.50e-06	0	43	102	1048576	12	4142
2026-01-23 06:37:00.79	257.18	7.55	-26.4	-27.7	13.7	2.20e-06	0	43	102	1048576	12	4166
2026-01-23 06:37:01.78	257.09	7.48	-26.4	-27.7	13.8	2.20e-06	0	43	102	1048576	12	4160
2026-01-23 06:37:02.78	257.00	7.41	-26.6	-28.0	13.5	2.20e-06	0	43	102	1048576	12	4248
2026-01-23 06:37:03.79	256.91	7.35	-26.6	-27.6	13.5	4.50e-06	0	43	102	1048576	13	4041
2026-01-23 06:37:04.80	256.82	7.28	-25.8	-26.9	13.2	1.25e-05	0	43	102	1048576	13	4062
2026-01-23 06:37:05.80	256.73	7.22	-26.8	-28.0	13.2	2.30e-04	0	43	102	1048576	13	4147
2026-01-23 06:37:06.80	256.64	7.15	-26.8	-28.2	13.2	1.25e-05	0	43	102	1048576	13	4192
2026-01-23 06:37:07.81	256.55	7.09	-26.9	-28.2	13.1	2.92e-03	0	43	102	1048576	13	4212
2026-01-23 06:37:08.81	256.46	7.02	-32.7	-41.6	3.8	8.47e-01	0	43	104	1048576	25	10000

#Closed at: 2026-01-23 06:37:09
#Recorded file [1 MB]: D:/data/31010_260123_092707.dat