passes_logs/2026/01/23/R2M6_AANII_01/R2M6_AANII_01__20260123_002506_SUOMI_NPP_rec.log

#Pass ID: 20260123_002506_SUOMI NPP
#Satellite: SUOMI NPP
#Configuration: NPP
#almurnet v.1.7.20240730
#Start time: 2026-01-23 00:25:07

#Version: 2.2.20231116
#Station: R2M6_AANII_01
#Location: 30.233357 lon 59.946436 lat
#TLE: 1 37849U 11061A   26022.50498765  .00000208  00000+0  11976-3 0  9992
#TLE: 2 37849  98.7820 324.4892 0002275  50.8149 309.3229 14.19528284737775

#Time	Az	El	Level	Level2	SNR	BER	BlckErr	Temp	State	Recorded	gain1	gain2
2026-01-23 00:25:07.51	18.20	7.06	-31.9	-38.9	4.4	1.41e+00	0	41	0	0	23	8013
2026-01-23 00:25:08.51	18.20	7.14	-31.9	-38.7	4.4	1.40e+00	0	42	104	0	23	7867
2026-01-23 00:25:09.52	18.20	7.22	-31.0	-37.6	5.8	4.01e-01	0	41	0	0	23	7754
2026-01-23 00:25:10.53	18.21	7.30	-31.0	-37.8	5.7	3.90e-01	0	42	0	1048576	23	7889
2026-01-23 00:25:11.52	18.21	7.37	-32.0	-38.8	5.6	4.16e-01	0	42	0	3145728	23	7919
2026-01-23 00:25:12.53	18.22	7.45	-31.9	-38.3	5.8	3.73e-01	0	42	0	5242880	23	7563
2026-01-23 00:25:13.53	18.22	7.53	-31.9	-38.4	5.8	3.72e-01	0	42	0	7340032	23	7595
2026-01-23 00:25:14.53	18.22	7.61	-31.9	-38.4	5.9	3.83e-01	0	42	0	9437184	23	7598
2026-01-23 00:25:15.54	18.23	7.69	-31.8	-37.9	6.2	3.19e-01	0	42	0	10485760	23	7244
2026-01-23 00:25:16.55	18.23	7.77	-31.7	-37.1	6.8	2.09e-01	0	42	0	12582912	23	6711
2026-01-23 00:25:17.55	18.24	7.85	-31.5	-36.3	7.5	1.14e-01	0	42	0	14680064	23	6222
2026-01-23 00:25:18.55	18.24	7.93	-31.4	-36.3	7.9	9.16e-02	0	42	0	16777216	22	6287
2026-01-23 00:25:19.56	18.25	8.01	-31.4	-36.1	8.0	6.60e-02	0	42	0	17825792	22	6198
2026-01-23 00:25:20.57	18.25	8.09	-31.4	-36.3	7.9	7.82e-02	0	42	0	19922944	22	6299
2026-01-23 00:25:21.57	18.25	8.17	-31.6	-36.3	7.5	9.87e-02	0	42	0	22020096	23	6242
2026-01-23 00:25:22.57	18.26	8.25	-31.6	-36.4	7.5	1.22e-01	0	42	0	24117248	23	6245
2026-01-23 00:25:23.58	18.26	8.33	-31.6	-36.6	7.3	1.18e-01	0	42	0	26214400	23	6362
2026-01-23 00:25:24.59	18.27	8.41	-31.6	-36.4	7.4	1.23e-01	0	42	0	28311552	23	6291
2026-01-23 00:25:25.59	18.27	8.49	-31.6	-36.4	7.5	1.11e-01	0	42	0	29360128	23	6271
2026-01-23 00:25:26.60	18.27	8.58	-31.6	-36.6	7.4	1.23e-01	0	42	0	31457280	23	6356
2026-01-23 00:25:27.61	18.28	8.66	-31.6	-36.5	7.4	1.15e-01	0	42	0	33554432	23	6279
2026-01-23 00:25:28.61	18.28	8.74	-31.6	-36.6	7.3	1.04e-01	0	42	0	35651584	23	6359
2026-01-23 00:25:29.60	18.29	8.82	-31.7	-36.9	7.1	1.55e-01	0	42	0	36700160	23	6522
2026-01-23 00:25:30.60	18.29	8.90	-31.6	-36.2	7.7	1.20e-01	0	42	0	38797312	23	6119
2026-01-23 00:25:31.60	18.29	8.99	-31.5	-35.8	8.0	7.20e-02	0	42	0	40894464	23	5903
2026-01-23 00:25:32.60	18.30	9.07	-31.3	-35.0	8.6	4.95e-02	0	42	0	42991616	23	5531
2026-01-23 00:25:33.60	18.30	9.15	-31.1	-34.8	9.2	3.12e-02	0	42	0	45088768	22	5475
2026-01-23 00:25:34.61	18.31	9.24	-30.9	-34.1	9.7	1.92e-02	0	42	0	46137344	22	5192
2026-01-23 00:25:35.61	18.31	9.32	-30.8	-33.7	10.0	1.10e-02	0	42	0	48234496	22	5019
2026-01-23 00:25:36.61	18.32	9.41	-30.7	-33.9	10.2	5.68e-03	0	42	0	50331648	21	5166
2026-01-23 00:25:37.62	18.32	9.49	-30.7	-33.7	10.4	7.72e-03	0	42	0	52428800	21	5108
2026-01-23 00:25:38.62	18.32	9.58	-30.7	-33.8	10.3	5.57e-03	0	43	0	54525952	21	5132
2026-01-23 00:25:39.62	18.33	9.66	-30.8	-34.3	9.9	6.47e-03	0	42	0	55574528	21	5368
2026-01-23 00:25:40.63	18.33	9.75	-30.8	-34.2	10.1	9.39e-03	0	42	0	57671680	21	5289
2026-01-23 00:25:41.63	18.34	9.83	-30.6	-33.5	10.6	4.56e-03	0	42	0	59768832	21	5006
2026-01-23 00:25:42.64	18.34	9.92	-30.6	-33.5	10.6	6.73e-03	0	42	0	61865984	21	4992
2026-01-23 00:25:43.63	18.34	10.01	-30.6	-33.3	10.7	3.26e-03	0	43	0	63963136	21	4937
2026-01-23 00:25:44.63	18.35	10.09	-30.7	-33.6	10.5	3.22e-03	0	43	0	65011712	21	5043
2026-01-23 00:25:45.64	18.35	10.18	-30.6	-33.5	10.6	7.26e-03	0	43	0	67108864	21	5025
2026-01-23 00:25:46.64	18.36	10.27	-30.5	-33.2	10.8	5.87e-03	0	43	0	69206016	21	4893
2026-01-23 00:25:47.63	18.36	10.36	-30.7	-33.6	10.5	4.11e-03	0	43	0	71303168	21	5032
2026-01-23 00:25:48.63	18.36	10.44	-30.6	-33.5	10.6	6.13e-03	0	43	0	73400320	21	4998
2026-01-23 00:25:49.63	18.37	10.53	-30.5	-33.1	10.9	5.31e-03	0	43	0	74448896	21	4863
2026-01-23 00:25:50.63	18.37	10.62	-30.5	-32.9	11.1	1.88e-03	0	43	0	76546048	21	4745
2026-01-23 00:25:51.64	18.38	10.71	-30.3	-33.0	11.3	4.11e-03	0	43	0	78643200	20	4903
2026-01-23 00:25:52.65	18.38	10.80	-30.3	-32.9	11.4	3.62e-03	0	43	0	80740352	20	4844
2026-01-23 00:25:53.65	18.39	10.89	-30.4	-33.1	11.3	1.43e-03	0	43	0	81788928	20	4924
2026-01-23 00:25:54.65	18.39	10.98	-30.3	-32.9	11.5	3.54e-03	0	43	0	83886080	20	4848
2026-01-23 00:25:55.65	18.39	11.07	-30.2	-32.7	11.6	3.22e-03	0	43	0	85983232	20	4778
2026-01-23 00:25:56.65	18.40	11.16	-30.2	-32.7	11.6	1.13e-03	0	43	0	88080384	20	4781
2026-01-23 00:25:57.66	18.40	11.25	-30.2	-32.7	11.6	3.19e-03	0	43	0	90177536	20	4761
2026-01-23 00:25:58.66	18.41	11.34	-30.3	-33.0	11.5	3.86e-03	0	43	0	91226112	20	4875
2026-01-23 00:25:59.67	18.41	11.44	-30.4	-33.1	11.3	1.65e-03	0	43	0	93323264	20	4916
2026-01-23 00:26:00.67	18.41	11.53	-30.3	-32.9	11.5	3.62e-03	0	43	0	95420416	20	4869
2026-01-23 00:26:01.67	18.42	11.62	-30.4	-33.1	11.3	3.75e-03	0	43	0	97517568	20	4944
2026-01-23 00:26:02.68	18.42	11.71	-30.3	-33.0	11.5	1.34e-03	0	43	0	99614720	20	4870
2026-01-23 00:26:03.68	18.43	11.81	-30.5	-33.0	11.1	4.04e-03	0	43	0	100663296	21	4801
2026-01-23 00:26:04.68	18.43	11.90	-30.6	-33.3	10.8	2.37e-03	0	43	0	102760448	21	4930
2026-01-23 00:26:05.68	18.43	11.99	-30.6	-33.4	10.8	2.44e-03	0	43	0	104857600	21	4955
2026-01-23 00:26:06.68	18.44	12.09	-30.5	-32.9	11.2	4.56e-03	0	43	0	106954752	21	4763
2026-01-23 00:26:07.69	18.44	12.18	-30.5	-33.0	11.1	4.58e-03	0	43	0	109051904	21	4799
2026-01-23 00:26:08.70	18.45	12.28	-30.4	-32.7	11.3	1.21e-03	0	43	0	110100480	21	4675
2026-01-23 00:26:09.70	18.45	12.37	-30.4	-33.1	11.4	3.83e-03	0	43	0	112197632	20	4932
2026-01-23 00:26:10.70	18.46	12.47	-30.4	-33.0	11.4	3.80e-03	0	43	0	114294784	20	4881
2026-01-23 00:26:11.70	18.46	12.57	-30.5	-32.9	11.2	1.08e-03	0	43	0	116391936	21	4756
2026-01-23 00:26:12.71	18.46	12.66	-30.7	-33.4	10.8	4.52e-03	0	43	0	118489088	21	4943
2026-01-23 00:26:13.71	18.47	12.76	-30.6	-33.3	10.9	4.91e-03	0	43	0	119537664	21	4897
2026-01-23 00:26:14.72	18.47	12.86	-30.4	-32.5	11.5	1.14e-03	0	43	0	121634816	21	4605
2026-01-23 00:26:15.72	18.48	12.96	-30.1	-32.3	12.0	4.83e-04	0	43	0	123731968	20	4624
2026-01-23 00:26:16.73	18.48	13.05	-30.0	-31.8	12.3	3.07e-03	0	43	0	125829120	20	4457
2026-01-23 00:26:17.73	18.48	13.15	-29.8	-31.4	12.7	4.47e-04	0	43	0	127926272	20	4319
2026-01-23 00:26:18.73	18.49	13.25	-29.6	-31.3	13.1	3.81e-05	0	43	0	128974848	19	4358
2026-01-23 00:26:19.74	18.49	13.35	-29.7	-31.5	13.0	3.58e-05	0	43	0	131072000	19	4427
2026-01-23 00:26:20.74	18.50	13.45	-29.7	-31.5	13.0	3.53e-04	0	43	0	133169152	19	4431
2026-01-23 00:26:21.75	18.50	13.55	-29.7	-31.3	13.2	3.43e-05	0	43	0	135266304	19	4350
2026-01-23 00:26:22.75	18.50	13.65	-29.6	-31.3	13.1	1.98e-05	0	43	0	136314880	19	4340
2026-01-23 00:26:23.75	18.51	13.75	-29.6	-31.2	13.2	3.20e-04	0	43	0	138412032	19	4318
2026-01-23 00:26:24.76	18.51	13.85	-29.7	-31.3	13.2	2.33e-03	0	43	0	140509184	19	4363
2026-01-23 00:26:25.76	18.52	13.96	-29.6	-31.1	13.3	1.37e-05	0	43	0	142606336	19	4281
2026-01-23 00:26:26.77	18.52	14.06	-29.6	-31.2	13.3	1.67e-05	0	43	0	144703488	19	4311
2026-01-23 00:26:27.77	18.52	14.16	-29.5	-30.9	13.4	2.68e-03	0	43	0	146800640	19	4220
2026-01-23 00:26:28.78	18.53	14.27	-29.3	-30.3	13.7	1.06e-05	0	43	0	147849216	19	4055
2026-01-23 00:26:29.79	18.53	14.37	-29.3	-30.8	13.8	4.50e-06	0	43	0	149946368	18	4289
2026-01-23 00:26:30.79	18.54	14.47	-29.2	-30.7	13.9	3.80e-06	0	43	0	152043520	18	4243
2026-01-23 00:26:31.80	18.54	14.58	-29.3	-30.9	13.8	3.80e-06	0	43	0	154140672	18	4330
2026-01-23 00:26:32.80	18.55	14.68	-29.4	-31.1	13.6	8.30e-06	0	43	0	155189248	18	4377
2026-01-23 00:26:33.80	18.55	14.79	-29.4	-31.0	13.7	6.10e-06	0	43	0	157286400	18	4353
2026-01-23 00:26:34.79	18.55	14.89	-29.3	-30.9	13.8	2.57e-03	0	43	0	159383552	18	4313
2026-01-23 00:26:35.80	18.56	15.00	-29.4	-31.2	13.6	6.10e-06	0	43	0	161480704	18	4399
2026-01-23 00:26:36.80	18.56	15.11	-29.3	-30.8	13.8	4.50e-06	0	43	0	163577856	18	4294
2026-01-23 00:26:37.81	18.57	15.21	-29.3	-30.9	13.8	3.00e-06	0	43	0	164626432	18	4301
2026-01-23 00:26:38.81	18.57	15.32	-29.4	-31.0	13.7	6.10e-06	0	43	0	166723584	18	4340
2026-01-23 00:26:39.81	18.57	15.43	-29.3	-30.9	13.8	6.10e-06	0	43	0	168820736	18	4318
2026-01-23 00:26:40.81	18.58	15.54	-29.4	-31.0	13.7	6.10e-06	0	43	0	170917888	18	4335
2026-01-23 00:26:41.81	18.58	15.65	-29.5	-31.0	13.4	6.80e-06	0	43	0	173015040	19	4247
2026-01-23 00:26:42.82	18.59	15.76	-29.7	-31.4	13.2	1.22e-05	0	43	0	174063616	19	4370
2026-01-23 00:26:43.83	18.59	15.87	-29.6	-31.1	13.4	2.44e-05	0	43	0	176160768	19	4269
2026-01-23 00:26:44.83	18.59	15.98	-29.5	-30.8	13.6	1.06e-05	0	43	0	178257920	19	4181
2026-01-23 00:26:45.83	18.60	16.09	-29.4	-31.1	13.7	5.30e-06	0	43	0	180355072	18	4361
2026-01-23 00:26:46.83	18.60	16.20	-29.4	-31.0	13.8	1.50e-06	0	43	0	182452224	18	4343
2026-01-23 00:26:47.84	18.61	16.31	-29.5	-31.3	13.6	5.30e-06	0	43	0	183500800	18	4426
2026-01-23 00:26:48.84	18.61	16.43	-29.4	-30.5	13.8	6.10e-06	0	43	0	185597952	19	4113
2026-01-23 00:26:49.84	18.61	16.54	-29.3	-30.8	13.9	3.00e-06	0	43	0	187695104	18	4269
2026-01-23 00:26:50.85	18.62	16.65	-29.4	-31.1	13.8	1.50e-06	0	43	0	189792256	18	4360
2026-01-23 00:26:51.85	18.62	16.77	-29.3	-30.7	14.0	3.00e-06	0	44	0	191889408	18	4253
2026-01-23 00:26:52.85	18.63	16.88	-29.3	-30.8	14.0	7.00e-07	0	43	0	192937984	18	4275
2026-01-23 00:26:53.84	18.63	17.00	-29.3	-30.9	13.9	3.00e-06	0	43	0	195035136	18	4309
2026-01-23 00:26:54.84	18.63	17.11	-29.2	-30.6	14.1	7.00e-07	0	43	0	197132288	18	4211
2026-01-23 00:26:55.84	18.64	17.23	-29.1	-30.2	14.3	1.50e-06	0	43	0	199229440	18	4103
2026-01-23 00:26:56.85	18.64	17.35	-28.1	-29.3	14.2	7.00e-07	0	43	0	200278016	18	4140
2026-01-23 00:26:57.85	18.65	17.46	-29.1	-30.7	14.3	7.00e-07	0	43	0	202375168	17	4349
2026-01-23 00:26:58.85	18.65	17.58	-29.2	-30.4	14.1	0.00e+00	0	44	0	204472320	18	4158
2026-01-23 00:26:59.85	18.65	17.70	-29.0	-30.5	12.9	1.50e-06	0	44	0	206569472	17	4273
2026-01-23 00:27:00.86	18.66	17.82	-29.1	-30.3	13.3	1.50e-06	0	44	0	208666624	18	4114
2026-01-23 00:27:01.87	18.66	17.94	-29.2	-30.4	14.3	7.00e-07	0	44	0	209715200	18	4165
2026-01-23 00:27:02.87	18.67	18.06	-29.1	-30.3	14.3	2.20e-06	0	43	0	211812352	18	4134
2026-01-23 00:27:03.87	18.67	18.18	-29.1	-30.3	14.3	7.00e-07	0	44	0	213909504	18	4130
2026-01-23 00:27:04.87	18.67	18.30	-29.3	-30.9	14.0	7.00e-07	0	43	0	216006656	18	4294
2026-01-23 00:27:05.88	18.68	18.43	-29.3	-30.7	14.1	2.38e-03	0	44	0	218103808	18	4242
2026-01-23 00:27:06.88	18.68	18.55	-29.3	-30.8	14.0	3.00e-06	0	44	0	219152384	18	4267
2026-01-23 00:27:07.88	18.69	18.67	-29.2	-30.6	14.1	1.50e-06	0	43	0	221249536	18	4214
2026-01-23 00:27:08.87	18.69	18.79	-29.3	-30.9	14.0	4.50e-06	0	43	0	223346688	18	4293
2026-01-23 00:27:09.88	18.69	18.92	-29.3	-30.8	14.0	2.46e-03	0	44	0	225443840	18	4261
2026-01-23 00:27:10.88	18.70	19.04	-29.3	-30.6	14.1	1.50e-06	0	43	0	227540992	18	4221
2026-01-23 00:27:11.88	18.70	19.17	-29.4	-31.1	13.9	3.00e-06	0	44	0	228589568	18	4353
2026-01-23 00:27:12.88	18.71	19.30	-29.4	-31.0	13.9	2.39e-03	0	44	0	230686720	18	4313
2026-01-23 00:27:13.89	18.71	19.43	-29.4	-30.9	14.0	3.80e-06	0	44	0	232783872	18	4304
2026-01-23 00:27:14.89	18.72	19.55	-29.5	-31.2	13.8	6.10e-06	0	44	0	234881024	18	4394
2026-01-23 00:27:15.90	18.72	19.68	-29.4	-31.1	13.8	3.80e-06	0	43	0	236978176	18	4368
2026-01-23 00:27:16.90	18.72	19.81	-29.6	-31.0	13.7	8.54e-05	0	43	0	238026752	19	4235
2026-01-23 00:27:17.90	18.73	19.94	-29.6	-31.1	13.6	5.30e-06	0	43	0	240123904	19	4271
2026-01-23 00:27:18.91	18.73	20.07	-29.5	-30.7	13.8	6.10e-06	0	43	0	242221056	19	4135
2026-01-23 00:27:19.91	18.74	20.20	-29.5	-30.7	13.8	5.79e-05	0	43	0	244318208	19	4140
2026-01-23 00:27:20.91	18.74	20.34	-29.4	-31.0	14.0	2.45e-03	0	43	0	245366784	18	4328
2026-01-23 00:27:21.91	18.74	20.47	-29.5	-30.7	13.8	5.30e-06	0	43	0	247463936	19	4136
2026-01-23 00:27:22.91	18.75	20.60	-29.5	-30.7	13.8	5.64e-05	0	43	0	249561088	19	4152
2026-01-23 00:27:23.91	18.75	20.73	-29.5	-31.2	13.8	2.38e-03	0	44	0	251658240	18	4374
2026-01-23 00:27:24.91	18.76	20.87	-29.6	-30.9	13.7	6.80e-06	0	43	0	253755392	19	4202
2026-01-23 00:27:25.91	18.76	21.00	-29.6	-31.1	13.6	9.10e-06	0	43	0	254803968	19	4260
2026-01-23 00:27:26.91	18.76	21.14	-29.6	-30.9	13.7	2.17e-03	0	43	0	256901120	19	4213
2026-01-23 00:27:27.92	18.77	21.28	-29.8	-31.5	13.4	2.44e-03	0	43	0	258998272	19	4383
2026-01-23 00:27:28.92	18.77	21.42	-29.8	-31.6	13.3	1.14e-05	0	44	0	261095424	19	4414
2026-01-23 00:27:29.92	18.78	21.55	-29.9	-31.7	13.2	2.45e-03	0	44	0	263192576	19	4447
2026-01-23 00:27:30.92	18.78	21.69	-29.8	-31.1	13.2	2.39e-03	0	43	0	264241152	20	4182
2026-01-23 00:27:31.93	18.78	21.84	-30.0	-31.7	12.8	8.01e-05	0	44	0	266338304	20	4378
2026-01-23 00:27:32.93	18.79	21.98	-30.0	-31.6	12.9	2.37e-03	0	43	0	268435456	20	4340
2026-01-23 00:27:33.93	18.79	22.12	-29.9	-31.5	13.0	2.19e-03	0	44	0	270532608	20	4290
2026-01-23 00:27:34.93	18.80	22.26	-30.0	-31.7	12.9	5.72e-05	0	43	0	272629760	20	4360
2026-01-23 00:27:35.94	18.80	22.40	-30.1	-31.9	12.7	5.79e-05	0	43	0	273678336	20	4437
2026-01-23 00:27:36.93	18.80	22.55	-30.1	-31.8	12.8	2.43e-03	0	43	0	275775488	20	4382
2026-01-23 00:27:37.94	18.81	22.69	-30.1	-31.9	12.7	5.03e-05	0	43	0	277872640	20	4416
2026-01-23 00:27:38.94	18.81	22.84	-30.2	-32.2	12.5	2.57e-03	0	43	0	279969792	20	4522
2026-01-23 00:27:39.94	18.82	22.98	-30.2	-32.1	12.6	2.49e-03	0	43	0	282066944	20	4480
2026-01-23 00:27:40.94	18.82	23.13	-30.3	-32.4	12.3	1.13e-04	0	44	0	283115520	20	4602
2026-01-23 00:27:41.94	18.82	23.28	-30.2	-32.2	12.5	2.51e-03	0	44	0	285212672	20	4536
2026-01-23 00:27:42.94	18.83	23.43	-30.2	-32.2	12.5	2.38e-03	0	44	0	287309824	20	4538
2026-01-23 00:27:43.94	18.83	23.58	-30.5	-32.6	11.9	2.98e-04	0	44	0	289406976	21	4570
2026-01-23 00:27:44.95	18.84	23.73	-30.5	-32.9	12.1	2.52e-03	0	44	0	290455552	20	4774
2026-01-23 00:27:45.95	18.84	23.88	-30.4	-32.8	12.1	2.79e-03	0	43	0	292552704	20	4752
2026-01-23 00:27:46.95	18.84	24.03	-30.7	-33.1	11.6	5.56e-04	0	44	0	294649856	21	4752
2026-01-23 00:27:47.95	18.85	24.19	-30.7	-33.2	11.5	3.07e-03	0	44	0	296747008	21	4795
2026-01-23 00:27:48.95	18.85	24.34	-30.9	-33.8	11.1	3.50e-03	0	44	0	298844160	21	5017
2026-01-23 00:27:49.95	18.86	24.50	-30.9	-33.1	11.3	2.19e-03	0	44	0	299892736	22	4662
2026-01-23 00:27:50.95	18.86	24.65	-30.6	-32.7	11.9	3.23e-03	0	44	0	301989888	21	4612
2026-01-23 00:27:51.96	18.86	24.81	-30.6	-32.7	11.9	2.59e-03	0	44	0	304087040	21	4609
2026-01-23 00:27:52.96	18.87	24.97	-30.5	-32.6	12.0	2.82e-04	0	44	0	306184192	21	4583
2026-01-23 00:27:53.97	18.87	25.13	-30.6	-32.7	11.9	3.73e-04	0	44	0	308281344	21	4611
2026-01-23 00:27:54.97	18.88	25.29	-30.6	-33.0	11.7	3.05e-03	0	43	0	309329920	21	4695
2026-01-23 00:27:55.97	18.88	25.45	-30.7	-33.0	11.7	3.95e-04	0	44	0	311427072	21	4699
2026-01-23 00:27:56.98	18.88	25.61	-30.7	-33.2	11.6	5.93e-04	0	44	0	313524224	21	4777
2026-01-23 00:27:57.98	18.89	25.77	-30.7	-33.2	11.5	3.63e-03	0	44	0	315621376	21	4782
2026-01-23 00:27:58.98	18.89	25.94	-30.8	-33.3	11.5	8.94e-04	0	44	0	317718528	21	4833
2026-01-23 00:27:59.98	18.90	26.10	-31.2	-34.1	10.6	3.72e-03	0	44	0	318767104	22	5058
2026-01-23 00:28:00.98	18.90	26.27	-31.0	-33.5	11.1	1.61e-03	0	44	0	320864256	22	4786
2026-01-23 00:28:01.98	18.90	26.44	-30.7	-32.6	11.7	9.31e-04	0	44	0	322961408	22	4478
2026-01-23 00:28:02.98	18.91	26.60	-30.6	-32.7	11.9	2.77e-03	0	44	0	325058560	21	4608
2026-01-23 00:28:03.99	18.91	26.77	-30.6	-32.7	11.9	4.68e-04	0	44	0	327155712	21	4614
2026-01-23 00:28:04.99	18.92	26.94	-30.6	-32.6	12.0	3.39e-04	0	44	0	328204288	21	4580
2026-01-23 00:28:06.00	18.92	27.12	-30.7	-33.0	11.7	3.03e-03	0	44	0	330301440	21	4715
2026-01-23 00:28:07.00	18.92	27.29	-30.5	-32.6	12.1	3.11e-03	0	44	0	332398592	21	4542
2026-01-23 00:28:08.00	18.93	27.46	-30.4	-32.3	12.3	2.68e-04	0	44	0	334495744	21	4449
2026-01-23 00:28:09.00	18.93	27.64	-30.5	-32.4	12.1	2.63e-03	0	44	0	335544320	21	4508
2026-01-23 00:28:10.01	18.94	27.81	-30.6	-32.7	12.0	2.65e-03	0	44	0	337641472	21	4586
2026-01-23 00:28:11.01	18.94	27.99	-30.8	-33.2	11.6	4.00e-04	0	44	0	339738624	21	4786
2026-01-23 00:28:12.02	18.94	28.17	-30.7	-33.1	11.7	5.00e-04	0	44	0	341835776	21	4732
2026-01-23 00:28:13.02	18.95	28.35	-30.7	-33.1	11.7	3.02e-03	0	44	0	343932928	21	4743
2026-01-23 00:28:14.02	18.95	28.53	-30.6	-32.7	12.0	2.99e-04	0	44	0	346030080	21	4599
2026-01-23 00:28:15.02	18.96	28.71	-30.4	-32.2	12.3	2.07e-04	0	44	0	347078656	21	4428
2026-01-23 00:28:16.03	18.96	28.90	-30.2	-31.6	12.8	6.22e-04	0	44	0	349175808	21	4226
2026-01-23 00:28:17.03	18.96	29.08	-30.3	-31.8	12.6	6.02e-05	0	44	0	351272960	21	4285
2026-01-23 00:28:18.03	18.97	29.26	-30.1	-31.9	12.9	6.17e-05	0	44	0	353370112	20	4409
2026-01-23 00:28:19.04	18.97	29.45	-30.0	-31.6	13.1	1.44e-05	0	44	0	354418688	20	4318
2026-01-23 00:28:20.04	18.98	29.64	-30.0	-31.5	13.3	2.28e-05	0	44	0	356515840	20	4271
2026-01-23 00:28:21.04	18.98	29.83	-29.8	-30.8	13.6	2.59e-05	0	44	0	358612992	20	4081
2026-01-23 00:28:22.04	18.98	30.02	-29.9	-31.1	13.4	1.14e-05	0	44	0	360710144	20	4153
2026-01-23 00:28:23.05	18.99	30.21	-29.8	-30.9	13.5	1.22e-05	0	44	0	362807296	20	4105
2026-01-23 00:28:24.05	18.99	30.40	-29.7	-30.7	13.7	2.43e-03	0	44	0	363855872	20	4029
2026-01-23 00:28:25.07	19.00	30.60	-30.2	-32.0	12.8	4.34e-05	0	44	0	365953024	20	4428
2026-01-23 00:28:26.07	19.00	30.80	-30.2	-32.0	13.0	4.95e-05	0	44	0	368050176	20	4436
2026-01-23 00:28:27.08	19.00	30.99	-30.2	-32.1	12.8	1.55e-03	0	44	0	370147328	20	4488
2026-01-23 00:28:28.08	19.01	31.19	-30.3	-32.4	12.6	8.92e-05	0	44	0	372244480	20	4578
2026-01-23 00:28:29.08	19.01	31.39	-30.2	-32.0	12.9	1.17e-04	0	44	0	373293056	20	4427
2026-01-23 00:28:30.09	19.02	31.59	-30.4	-32.1	12.4	6.79e-05	0	44	0	375390208	21	4384
2026-01-23 00:28:31.09	19.02	31.79	-30.3	-32.4	12.6	8.69e-05	0	44	0	377487360	20	4553
2026-01-23 00:28:32.10	19.03	32.00	-30.2	-32.0	12.8	5.11e-05	0	44	0	379584512	20	4431
2026-01-23 00:28:33.11	19.03	32.21	-30.3	-32.2	12.8	7.17e-05	0	44	0	381681664	20	4496
2026-01-23 00:28:34.11	19.03	32.41	-30.5	-32.3	12.3	8.16e-05	0	44	0	382730240	21	4427
2026-01-23 00:28:35.11	19.04	32.62	-30.6	-32.6	12.1	2.23e-04	0	44	0	384827392	21	4540
2026-01-23 00:28:36.11	19.04	32.83	-30.8	-33.3	11.7	3.37e-04	0	44	0	386924544	21	4803
2026-01-23 00:28:37.11	19.05	33.04	-31.0	-33.3	11.4	7.74e-04	0	44	0	389021696	22	4684
2026-01-23 00:28:38.11	19.05	33.25	-31.1	-33.6	11.2	1.34e-03	0	44	0	391118848	22	4789
2026-01-23 00:28:39.11	19.05	33.47	-31.0	-33.3	11.3	1.13e-03	0	44	0	392167424	22	4708
2026-01-23 00:28:40.11	19.06	33.68	-31.1	-33.7	11.1	9.86e-04	0	44	0	394264576	22	4835
2026-01-23 00:28:41.11	19.06	33.90	-30.8	-33.2	11.2	5.59e-04	0	44	0	396361728	21	4760
2026-01-23 00:28:42.11	19.07	34.11	-30.8	-33.3	11.2	3.46e-04	0	44	0	398458880	21	4783
2026-01-23 00:28:43.12	19.07	34.34	-30.5	-32.4	12.4	5.06e-04	0	44	0	400556032	21	4488
2026-01-23 00:28:44.12	19.07	34.56	-30.5	-32.4	12.2	1.66e-04	0	44	0	401604608	21	4478
2026-01-23 00:28:45.13	19.08	34.78	-30.6	-32.8	12.1	1.80e-04	0	44	0	403701760	21	4602
2026-01-23 00:28:46.13	19.08	35.01	-30.4	-32.2	12.5	2.12e-04	0	44	0	405798912	21	4394
2026-01-23 00:28:47.13	19.09	35.23	-30.3	-32.3	12.8	1.43e-04	0	44	0	407896064	20	4520
2026-01-23 00:28:48.13	19.09	35.46	-30.2	-31.9	13.0	3.79e-04	0	44	0	408944640	20	4391
2026-01-23 00:28:49.14	19.09	35.69	-29.7	-30.7	13.8	7.60e-06	0	44	0	411041792	20	4030
2026-01-23 00:28:50.14	19.10	35.92	-29.6	-30.9	14.1	5.30e-06	0	44	0	413138944	19	4173
2026-01-23 00:28:51.14	19.10	36.16	-29.4	-30.9	14.4	1.66e-03	0	44	0	415236096	18	4254
2026-01-23 00:28:52.15	19.11	36.39	-29.3	-30.4	14.7	0.00e+00	0	44	0	417333248	18	4126
2026-01-23 00:28:53.15	19.11	36.63	-29.1	-29.9	15.0	0.00e+00	0	44	0	418381824	18	3986
2026-01-23 00:28:54.15	19.11	36.87	-28.9	-30.0	15.3	0.00e+00	0	44	0	420478976	17	4092
2026-01-23 00:28:55.15	19.12	37.11	-29.0	-29.7	15.1	7.00e-07	0	44	0	422576128	18	3918
2026-01-23 00:28:56.16	19.12	37.35	-29.1	-30.1	14.9	0.00e+00	0	44	0	424673280	18	4029
2026-01-23 00:28:57.16	19.13	37.59	-28.8	-29.9	15.3	0.00e+00	0	44	0	426770432	17	4070
2026-01-23 00:28:58.17	19.13	37.84	-28.8	-29.7	15.5	3.80e-06	0	44	0	427819008	17	4019
2026-01-23 00:28:59.17	19.13	38.09	-28.7	-29.5	15.6	3.53e-04	0	44	0	429916160	17	3952
2026-01-23 00:29:00.17	19.14	38.33	-28.5	-29.5	15.8	0.00e+00	0	44	0	432013312	16	4056
2026-01-23 00:29:01.17	19.14	38.58	-28.5	-29.1	15.7	3.12e-05	0	44	0	434110464	17	3858
2026-01-23 00:29:02.17	19.15	38.84	-28.4	-29.3	16.0	1.75e-03	0	44	0	436207616	16	3996
2026-01-23 00:29:03.18	19.15	39.09	-28.5	-29.0	15.8	0.00e+00	0	44	0	437256192	17	3830
2026-01-23 00:29:04.18	19.16	39.35	-28.6	-29.3	15.7	0.00e+00	0	44	0	439353344	17	3907
2026-01-23 00:29:05.18	19.16	39.61	-28.9	-30.2	15.2	1.71e-03	0	44	0	441450496	17	4150
2026-01-23 00:29:06.18	19.16	39.87	-29.1	-30.1	14.9	1.76e-03	0	44	0	443547648	18	4038
2026-01-23 00:29:07.18	19.17	40.13	-29.1	-29.9	15.0	7.00e-07	0	44	0	445644800	18	3985
2026-01-23 00:29:08.18	19.17	40.39	-29.2	-30.3	14.8	1.79e-03	0	44	0	446693376	18	4080
2026-01-23 00:29:09.19	19.18	40.66	-29.1	-29.9	15.0	1.67e-03	0	44	0	448790528	18	3974
2026-01-23 00:29:10.19	19.18	40.93	-29.3	-30.5	14.7	0.00e+00	0	44	0	450887680	18	4149
2026-01-23 00:29:11.19	19.18	41.20	-29.5	-30.6	14.3	0.00e+00	0	44	0	452984832	19	4076
2026-01-23 00:29:12.20	19.19	41.47	-29.5	-31.0	14.5	1.43e-03	0	44	0	454033408	18	4283
2026-01-23 00:29:13.20	19.19	41.75	-29.8	-31.4	13.9	5.34e-05	0	44	0	456130560	19	4318
2026-01-23 00:29:14.21	19.20	42.03	-29.7	-31.0	14.1	2.20e-06	0	44	0	458227712	19	4201
2026-01-23 00:29:15.21	19.20	42.30	-29.9	-31.6	13.8	1.34e-03	0	44	0	460324864	19	4392
2026-01-23 00:29:16.21	19.20	42.58	-29.7	-30.6	14.0	4.27e-05	0	44	0	462422016	20	3990
2026-01-23 00:29:17.21	19.21	42.87	-29.7	-30.7	14.0	1.31e-03	0	44	0	464519168	20	4010
2026-01-23 00:29:18.22	19.21	43.15	-29.8	-31.4	13.9	1.28e-03	0	44	0	465567744	19	4301
2026-01-23 00:29:19.22	19.22	43.44	-29.9	-31.1	13.6	6.10e-05	0	44	0	467664896	20	4130
2026-01-23 00:29:20.22	19.22	43.73	-30.1	-31.5	13.4	1.25e-03	0	44	0	469762048	20	4269
2026-01-23 00:29:21.22	19.23	44.02	-29.9	-31.1	13.7	7.01e-05	0	44	0	471859200	20	4115
2026-01-23 00:29:22.23	19.23	44.31	-30.2	-31.9	13.3	1.75e-05	0	44	0	472907776	20	4373
2026-01-23 00:29:23.23	19.23	44.61	-30.2	-32.0	13.1	1.45e-03	0	44	0	475004928	20	4396
2026-01-23 00:29:24.23	19.24	44.91	-30.5	-32.3	12.6	1.55e-03	0	44	0	477102080	21	4413
2026-01-23 00:29:25.24	19.24	45.21	-30.9	-33.3	11.9	3.29e-04	0	44	0	479199232	21	4771
2026-01-23 00:29:26.24	19.25	45.51	-30.9	-33.4	11.8	2.02e-03	0	44	0	481296384	21	4813
2026-01-23 00:29:27.24	19.25	45.82	-30.9	-33.0	11.8	2.13e-03	0	44	0	482344960	22	4578
2026-01-23 00:29:28.25	19.26	46.13	-31.0	-33.0	11.7	5.58e-04	0	44	0	484442112	22	4582
2026-01-23 00:29:29.25	19.26	46.44	-31.0	-33.3	11.6	2.03e-03	0	44	0	486539264	22	4666
2026-01-23 00:29:30.26	19.26	46.75	-30.6	-32.6	12.3	1.68e-03	0	44	0	488636416	21	4531
2026-01-23 00:29:31.26	19.27	47.06	-31.0	-33.6	11.7	2.68e-04	0	44	0	490733568	21	4889
2026-01-23 00:29:32.26	19.27	47.38	-30.7	-32.9	12.2	1.50e-03	0	44	0	491782144	21	4620
2026-01-23 00:29:33.26	19.28	47.70	-30.7	-32.9	12.2	1.64e-03	0	44	0	493879296	21	4628
2026-01-23 00:29:34.26	19.28	48.02	-31.0	-33.1	11.7	4.64e-04	0	44	0	495976448	22	4598
2026-01-23 00:29:35.26	19.28	48.34	-30.9	-32.9	11.8	5.74e-04	0	44	0	498073600	22	4540
2026-01-23 00:29:36.26	19.29	48.67	-30.7	-32.8	12.3	1.33e-03	0	44	0	500170752	21	4584
2026-01-23 00:29:37.26	19.29	49.00	-30.8	-33.0	12.2	2.98e-04	0	44	0	501219328	21	4638
2026-01-23 00:29:38.26	19.30	49.33	-30.8	-33.0	12.3	1.32e-03	0	44	0	503316480	21	4643
2026-01-23 00:29:39.27	19.30	49.67	-30.5	-32.3	12.8	1.80e-04	0	44	0	505413632	21	4398
2026-01-23 00:29:40.26	19.31	50.00	-30.4	-31.9	12.9	1.14e-04	0	44	0	507510784	21	4286
2026-01-23 00:29:41.27	19.31	50.34	-30.5	-32.7	12.8	1.21e-03	0	44	0	509607936	20	4633
2026-01-23 00:29:42.27	19.32	50.68	-30.3	-31.7	13.0	2.97e-05	0	44	0	510656512	21	4234
2026-01-23 00:29:43.27	19.32	51.02	-30.1	-31.2	13.3	2.89e-05	0	44	0	512753664	21	4086
2026-01-23 00:29:44.27	19.32	51.37	-30.1	-31.5	13.5	1.57e-03	0	44	0	514850816	20	4258
2026-01-23 00:29:45.27	19.33	51.72	-29.3	-30.1	14.8	1.61e-03	0	44	0	516947968	19	3923
2026-01-23 00:29:46.27	19.33	52.07	-29.1	-29.6	15.1	0.00e+00	0	44	0	517996544	19	3777
2026-01-23 00:29:47.28	19.34	52.43	-29.1	-30.0	15.2	1.72e-03	0	44	0	520093696	18	3989
2026-01-23 00:29:48.27	19.34	52.78	-29.5	-30.5	14.5	1.69e-03	0	44	0	522190848	19	4023
2026-01-23 00:29:49.28	19.35	53.14	-29.4	-30.3	14.7	7.00e-07	0	44	0	524288000	19	3975
2026-01-23 00:29:50.28	19.35	53.50	-29.8	-31.3	14.0	0.00e+00	0	44	0	526385152	19	4283
2026-01-23 00:29:51.29	19.36	53.87	-30.1	-31.6	13.5	1.80e-03	0	44	0	527433728	20	4283
2026-01-23 00:29:52.29	19.36	54.24	-30.0	-31.2	13.6	1.06e-05	0	44	0	529530880	20	4163
2026-01-23 00:29:53.29	19.36	54.60	-29.8	-30.7	14.0	4.50e-06	0	44	0	531628032	20	4020
2026-01-23 00:29:54.30	19.37	54.98	-29.6	-30.7	14.6	1.65e-03	0	44	0	533725184	19	4091
2026-01-23 00:29:55.30	19.37	55.35	-29.3	-30.1	14.8	7.00e-07	0	44	0	535822336	19	3917
2026-01-23 00:29:56.30	19.38	55.73	-28.7	-29.1	15.7	0.00e+00	0	44	0	536870912	18	3752
2026-01-23 00:29:57.30	19.38	56.11	-28.5	-29.1	16.0	0.00e+00	0	44	0	538968064	17	3838
2026-01-23 00:29:58.31	19.39	56.50	-27.9	-27.7	16.8	0.00e+00	0	44	0	541065216	17	3492
2026-01-23 00:29:59.31	19.39	56.88	-28.0	-28.3	16.7	1.34e-03	0	44	0	543162368	16	3742
2026-01-23 00:30:00.30	19.40	57.27	-28.1	-28.6	16.5	0.00e+00	0	44	0	544210944	16	3814
2026-01-23 00:30:01.30	19.40	57.66	-28.6	-29.3	15.9	0.00e+00	0	44	0	546308096	17	3895
2026-01-23 00:30:02.30	19.41	58.05	-28.9	-30.0	15.5	1.36e-03	0	44	0	548405248	17	4078
2026-01-23 00:30:03.31	19.41	58.45	-29.4	-30.6	14.8	0.00e+00	0	44	0	550502400	18	4164
2026-01-23 00:30:04.31	19.42	58.85	-29.5	-30.5	14.6	0.00e+00	0	44	0	552599552	19	4046
2026-01-23 00:30:05.32	19.42	59.25	-29.3	-29.9	14.9	1.05e-03	0	44	0	554696704	19	3876
2026-01-23 00:30:06.31	19.43	59.65	-29.2	-30.1	15.1	0.00e+00	0	44	0	555745280	18	4002
2026-01-23 00:30:07.32	19.43	60.06	-28.5	-28.6	16.0	0.00e+00	0	44	0	557842432	18	3617
2026-01-23 00:30:08.33	19.44	60.48	-28.4	-28.8	16.2	0.00e+00	0	44	0	559939584	17	3749
2026-01-23 00:30:09.33	19.44	60.89	-28.1	-28.5	16.6	8.53e-04	0	44	0	562036736	16	3780
2026-01-23 00:30:10.33	19.45	61.30	-27.8	-27.8	17.1	0.00e+00	0	44	0	563085312	16	3602
2026-01-23 00:30:11.33	19.45	61.72	-27.6	-27.4	17.3	0.00e+00	0	44	0	565182464	16	3507
2026-01-23 00:30:12.33	19.46	62.14	-27.6	-27.9	17.2	0.00e+00	0	44	0	567279616	15	3721
2026-01-23 00:30:13.33	19.46	62.56	-27.5	-27.6	17.3	0.00e+00	0	44	0	569376768	15	3660
2026-01-23 00:30:14.34	19.47	62.99	-27.5	-27.7	17.2	0.00e+00	0	44	0	571473920	15	3692
2026-01-23 00:30:15.35	19.47	63.42	-27.9	-28.5	16.8	0.00e+00	0	44	0	572522496	15	3887
2026-01-23 00:30:16.35	19.48	63.85	-28.3	-28.9	16.5	0.00e+00	0	44	0	574619648	16	3879
2026-01-23 00:30:17.35	19.48	64.29	-28.4	-29.2	16.3	0.00e+00	0	44	0	576716800	16	3956
2026-01-23 00:30:18.35	19.49	64.72	-28.7	-29.5	15.9	0.00e+00	0	44	0	578813952	17	3934
2026-01-23 00:30:19.35	19.49	65.16	-29.0	-29.6	15.5	0.00e+00	0	44	0	580911104	18	3881
2026-01-23 00:30:20.36	19.50	65.60	-29.4	-30.5	14.9	0.00e+00	0	44	0	581959680	18	4129
2026-01-23 00:30:21.36	19.51	66.05	-29.9	-31.0	14.0	2.20e-06	0	44	0	584056832	20	4081
2026-01-23 00:30:22.37	19.51	66.50	-30.6	-32.2	12.9	1.37e-05	0	44	0	586153984	21	4373
2026-01-23 00:30:23.37	19.52	66.94	-30.4	-31.8	13.1	3.35e-05	0	44	0	588251136	21	4241
2026-01-23 00:30:24.37	19.52	67.39	-30.4	-31.8	13.1	2.51e-05	0	44	0	590348288	21	4247
2026-01-23 00:30:25.37	19.53	67.85	-30.3	-31.4	13.5	3.89e-05	0	44	0	591396864	21	4098
2026-01-23 00:30:26.38	19.54	68.31	-30.3	-31.4	13.5	7.60e-06	0	44	0	593494016	21	4109
2026-01-23 00:30:27.38	19.54	68.76	-31.1	-33.2	12.1	5.34e-05	0	44	0	595591168	22	4583
2026-01-23 00:30:28.39	19.55	69.23	-31.8	-34.8	10.5	1.82e-03	0	44	0	597688320	23	5134
2026-01-23 00:30:29.38	19.56	69.69	-31.0	-34.1	9.9	6.60e-03	0	44	0	599785472	24	5125
2026-01-23 00:30:30.38	19.56	70.15	-31.7	-34.5	10.7	3.62e-03	0	44	0	600834048	23	4980
2026-01-23 00:30:31.39	19.57	70.62	-31.8	-35.0	10.1	3.45e-03	0	44	0	602931200	23	5201
2026-01-23 00:30:32.39	19.58	71.09	-32.3	-36.3	8.8	8.67e-03	0	44	0	605028352	24	5696
2026-01-23 00:30:33.40	19.58	71.57	-32.6	-37.0	8.1	4.20e-02	0	44	0	607125504	25	5975
2026-01-23 00:30:34.40	19.59	72.04	-32.5	-36.8	8.0	9.09e-02	0	44	0	608174080	25	5902
2026-01-23 00:30:35.41	19.60	72.52	-32.1	-35.6	9.5	4.44e-02	0	44	0	610271232	24	5380
2026-01-23 00:30:36.41	19.61	73.00	-31.4	-33.3	11.2	1.89e-03	0	44	0	612368384	24	4449
2026-01-23 00:30:37.42	19.61	73.48	-31.2	-33.5	11.7	5.64e-04	0	44	0	614465536	22	4709
2026-01-23 00:30:38.43	19.62	73.97	-30.7	-32.8	12.6	2.25e-04	0	44	0	616562688	21	4538
2026-01-23 00:30:39.43	19.63	74.45	-29.8	-30.5	14.2	9.90e-06	0	44	0	618659840	20	3945
2026-01-23 00:30:40.43	19.64	74.93	-29.8	-31.0	14.5	1.10e-03	0	44	0	619708416	19	4158
2026-01-23 00:30:41.43	19.65	75.42	-30.7	-32.7	12.8	9.90e-06	0	44	0	621805568	21	4525
2026-01-23 00:30:42.43	19.66	75.91	-31.0	-33.0	12.1	1.25e-04	0	44	0	623902720	22	4515
2026-01-23 00:30:43.44	19.67	76.41	-30.9	-33.1	12.5	1.06e-03	0	44	0	625999872	21	4648
2026-01-23 00:30:44.44	19.68	76.90	-31.5	-34.0	11.1	1.50e-03	0	44	0	627048448	23	4802
2026-01-23 00:30:45.44	19.69	77.39	-31.7	-34.1	10.6	5.02e-03	0	44	0	629145600	24	4740
2026-01-23 00:30:46.44	19.71	77.89	-31.1	-32.6	12.1	1.33e-03	0	44	0	631242752	23	4304
2026-01-23 00:30:47.44	19.72	78.38	-31.2	-33.6	11.7	7.73e-04	0	44	0	633339904	22	4733
2026-01-23 00:30:48.45	19.73	78.89	-31.3	-33.2	11.6	9.16e-04	0	44	0	635437056	23	4504
2026-01-23 00:30:49.45	19.75	79.39	-30.9	-32.5	12.5	2.65e-04	0	44	0	636485632	22	4328
2026-01-23 00:30:50.45	19.76	79.89	-30.9	-32.7	12.4	6.25e-04	0	44	0	638582784	22	4416
2026-01-23 00:30:51.46	19.78	80.40	-31.3	-33.9	11.6	7.64e-04	0	44	0	640679936	22	4838
2026-01-23 00:30:52.46	19.80	80.90	-31.5	-34.3	11.4	8.73e-04	0	44	0	642777088	22	4997
2026-01-23 00:30:53.47	19.82	81.41	-31.7	-34.0	10.8	4.72e-03	0	44	0	644874240	24	4717
2026-01-23 00:30:54.47	19.84	81.92	-31.1	-32.6	12.1	1.55e-03	0	44	0	645922816	23	4301
2026-01-23 00:30:55.47	19.87	82.42	-30.2	-31.2	13.6	5.64e-05	0	44	0	648019968	21	4017
2026-01-23 00:30:56.47	19.90	82.93	-30.2	-31.3	13.7	6.80e-06	0	44	0	650117120	21	4051
2026-01-23 00:30:57.48	19.93	83.45	-30.7	-32.5	13.1	2.51e-05	0	44	0	652214272	21	4423
2026-01-23 00:30:58.49	19.97	83.96	-30.0	-31.0	14.1	3.97e-04	0	44	0	654311424	20	4066
2026-01-23 00:30:59.49	20.01	84.47	-30.1	-31.3	14.1	0.00e+00	0	44	0	655360000	20	4147
2026-01-23 00:31:00.49	20.06	84.98	-30.2	-31.7	13.7	7.60e-06	0	44	0	657457152	20	4286
2026-01-23 00:31:01.49	20.12	85.50	-30.2	-31.7	13.8	1.00e-03	0	44	0	659554304	20	4267
2026-01-23 00:31:02.49	20.20	86.01	-30.9	-33.0	12.6	5.84e-04	0	44	0	661651456	21	4592
2026-01-23 00:31:03.49	20.30	86.52	-31.6	-34.0	11.1	3.04e-04	0	44	0	663748608	23	4777
2026-01-23 00:31:04.49	20.43	87.04	-32.1	-35.4	9.9	5.79e-03	0	44	0	664797184	24	5237
2026-01-23 00:31:05.50	20.62	87.56	-32.3	-36.1	9.1	1.70e-02	0	44	0	666894336	24	5592
2026-01-23 00:31:06.51	20.91	88.07	-32.5	-36.2	8.7	2.88e-02	0	44	0	668991488	25	5539
2026-01-23 00:31:07.51	21.40	88.59	-32.2	-35.5	9.8	1.39e-02	0	44	0	671088640	24	5316
2026-01-23 00:31:08.52	22.48	89.11	-32.5	-36.4	8.7	2.83e-02	0	44	0	673185792	25	5647
2026-01-23 00:31:09.52	26.46	89.62	-31.8	-34.1	10.9	1.46e-02	0	44	0	674234368	24	4702
2026-01-23 00:31:10.53	182.46	89.85	-31.7	-34.4	11.2	2.11e-03	0	44	0	676331520	23	4903
2026-01-23 00:31:11.54	195.72	89.33	-33.9	-42.2	4.7	1.71e-01	0	44	0	678428672	27	9394
2026-01-23 00:31:12.54	197.40	88.82	-34.2	-46.0	3.8	1.49e+00	0	44	104	678428672	28	14067
2026-01-23 00:31:13.55	198.07	88.30	-34.1	-46.6	3.8	1.49e+00	0	44	104	678428672	28	15083
2026-01-23 00:31:14.55	198.43	87.78	-34.1	-45.1	3.8	1.49e+00	0	44	104	678428672	28	12852
2026-01-23 00:31:15.55	198.65	87.27	-32.9	-36.5	5.1	1.47e+00	0	44	104	678428672	27	5436
2026-01-23 00:31:16.55	198.81	86.75	-32.2	-34.8	10.1	1.01e+00	0	44	104	678428672	25	4877
2026-01-23 00:31:17.56	198.92	86.23	-31.3	-33.0	12.3	1.76e-03	0	44	0	678428672	23	4373
2026-01-23 00:31:18.57	199.01	85.72	-30.7	-31.9	13.3	3.05e-05	0	44	0	2097152	22	4103
2026-01-23 00:31:19.57	199.08	85.20	-30.6	-32.2	13.5	4.67e-04	0	44	0	4194304	21	4303
2026-01-23 00:31:20.57	199.13	84.69	-30.3	-31.3	14.0	6.10e-06	0	44	0	6291456	21	4047
2026-01-23 00:31:21.57	199.18	84.18	-30.2	-31.0	14.2	7.00e-07	0	44	0	7340032	21	3965
2026-01-23 00:31:22.57	199.22	83.67	-30.9	-33.1	12.9	5.00e-04	0	44	0	9437184	21	4608
2026-01-23 00:31:23.58	199.25	83.15	-31.5	-33.5	11.8	7.54e-04	0	44	0	11534336	23	4569
2026-01-23 00:31:24.58	199.28	82.64	-31.3	-33.1	12.2	1.75e-04	0	44	0	13631488	23	4402
2026-01-23 00:31:25.58	199.31	82.14	-31.7	-34.4	11.1	1.68e-03	0	44	0	15728640	23	4872
2026-01-23 00:31:26.59	199.33	81.62	-31.5	-34.1	11.9	6.71e-04	0	44	0	16777216	22	4857
2026-01-23 00:31:27.59	199.35	81.12	-32.4	-35.6	9.5	1.21e-02	0	44	0	18874368	25	5228
2026-01-23 00:31:28.60	199.37	80.61	-32.6	-36.5	8.8	5.47e-02	0	44	0	20971520	25	5634
2026-01-23 00:31:29.59	199.39	80.11	-31.7	-33.6	11.3	5.94e-03	0	44	0	23068672	24	4515
2026-01-23 00:31:30.59	199.41	79.61	-32.2	-35.5	10.0	7.71e-04	0	44	0	24117248	24	5246
2026-01-23 00:31:31.59	199.42	79.11	-32.3	-35.3	9.8	1.86e-02	0	44	0	26214400	25	5071
2026-01-23 00:31:32.59	199.44	78.61	-31.8	-34.0	11.1	4.47e-03	0	44	0	28311552	24	4644
2026-01-23 00:31:33.59	199.45	78.11	-32.2	-35.5	10.0	2.45e-03	0	44	0	30408704	24	5242
2026-01-23 00:31:34.59	199.46	77.61	-33.1	-38.1	7.3	6.78e-02	0	44	0	32505856	26	6375
2026-01-23 00:31:35.59	199.47	77.12	-32.7	-36.2	8.7	6.02e-02	0	44	0	33554432	26	5392
2026-01-23 00:31:36.59	199.49	76.62	-33.0	-37.7	7.5	7.11e-02	0	44	0	35651584	26	6202
2026-01-23 00:31:37.59	199.50	76.13	-32.8	-37.0	8.0	8.06e-02	0	44	0	37748736	26	5799
2026-01-23 00:31:38.59	199.51	75.64	-32.2	-34.9	10.0	1.55e-02	0	44	0	39845888	25	4929
2026-01-23 00:31:39.59	199.52	75.15	-32.4	-35.7	9.4	3.96e-03	0	44	0	41943040	25	5262
2026-01-23 00:31:40.59	199.52	74.67	-32.5	-36.3	8.9	2.80e-02	0	44	0	42991616	25	5544
2026-01-23 00:31:41.60	199.53	74.18	-31.8	-34.1	11.0	4.05e-03	0	44	0	45088768	24	4690
2026-01-23 00:31:42.60	199.54	73.69	-31.2	-32.8	12.4	2.01e-04	0	44	0	47185920	23	4321
2026-01-23 00:31:43.61	199.55	73.21	-32.5	-35.6	10.4	7.61e-04	0	44	0	49283072	24	5131
2026-01-23 00:31:44.62	199.56	72.72	-32.7	-37.1	8.3	3.75e-02	0	44	0	51380224	25	5964
2026-01-23 00:31:45.62	199.57	72.25	-32.5	-36.4	8.8	4.14e-02	0	44	0	52428800	25	5620
2026-01-23 00:31:46.62	199.57	71.77	-32.4	-35.7	9.4	2.72e-02	0	44	0	54525952	25	5286
2026-01-23 00:31:47.63	199.58	71.29	-32.5	-36.1	9.1	1.55e-02	0	44	0	56623104	25	5483
2026-01-23 00:31:48.63	199.59	70.82	-32.6	-36.5	8.8	3.10e-02	0	44	0	58720256	25	5676
2026-01-23 00:31:49.64	199.59	70.35	-32.5	-36.1	9.1	1.81e-02	0	44	0	60817408	25	5449
2026-01-23 00:31:50.64	199.60	69.88	-32.2	-34.9	10.0	2.97e-02	0	44	0	61865984	25	4933
2026-01-23 00:31:51.65	199.61	69.42	-31.2	-32.9	12.2	8.15e-04	0	44	0	63963136	23	4375
2026-01-23 00:31:52.65	199.61	68.95	-30.4	-31.1	13.7	2.51e-05	0	44	0	66060288	22	3889
2026-01-23 00:31:53.66	199.62	68.49	-30.4	-31.5	13.6	4.50e-06	0	44	0	68157440	21	4111
2026-01-23 00:31:54.67	199.63	68.03	-31.1	-33.1	12.4	8.77e-05	0	44	0	70254592	22	4525
2026-01-23 00:31:55.67	199.63	67.57	-31.3	-33.8	11.8	4.98e-04	0	44	0	71303168	22	4781
2026-01-23 00:31:56.67	199.64	67.12	-31.3	-33.6	12.1	4.42e-04	0	44	0	73400320	22	4691
2026-01-23 00:31:57.68	199.64	66.67	-31.4	-33.9	11.8	3.48e-04	0	44	0	75497472	22	4801
2026-01-23 00:31:58.68	199.65	66.22	-31.2	-33.4	12.1	1.72e-04	0	44	0	77594624	22	4634
2026-01-23 00:31:59.69	199.66	65.77	-30.9	-32.4	12.7	1.44e-04	0	44	0	78643200	22	4295
2026-01-23 00:32:00.69	199.66	65.33	-30.1	-30.9	14.0	2.13e-05	0	44	0	80740352	21	3939
2026-01-23 00:32:01.70	199.67	64.88	-29.8	-30.5	14.5	0.00e+00	0	44	0	82837504	20	3926
2026-01-23 00:32:02.70	199.67	64.45	-30.3	-32.0	13.7	3.80e-06	0	44	0	84934656	20	4345
2026-01-23 00:32:03.71	199.68	64.01	-30.8	-32.9	12.7	2.44e-05	0	44	0	87031808	21	4552
2026-01-23 00:32:04.71	199.68	63.58	-31.3	-33.7	11.9	2.53e-04	0	44	0	89128960	22	4754
2026-01-23 00:32:05.71	199.69	63.15	-30.6	-31.6	13.3	6.86e-05	0	44	0	90177536	22	4035
2026-01-23 00:32:06.72	199.69	62.72	-29.7	-30.4	14.7	0.00e+00	0	44	0	92274688	20	3886
2026-01-23 00:32:07.72	199.70	62.29	-29.4	-30.1	15.2	7.00e-07	0	44	0	94371840	19	3893
2026-01-23 00:32:08.72	199.70	61.87	-29.8	-31.1	14.6	1.50e-06	0	44	0	96468992	19	4160
2026-01-23 00:32:09.71	199.71	61.45	-30.5	-32.1	13.3	3.00e-06	0	44	0	97517568	21	4286
2026-01-23 00:32:10.72	199.71	61.03	-31.8	-34.8	10.8	3.36e-04	0	44	0	99614720	23	5092
2026-01-23 00:32:11.72	199.72	60.62	-32.3	-35.9	9.5	1.41e-02	0	44	0	101711872	24	5467
2026-01-23 00:32:12.72	199.72	60.21	-30.4	-31.8	12.4	3.29e-03	0	44	0	103809024	23	4204
2026-01-23 00:32:13.72	199.73	59.80	-29.9	-30.3	14.2	8.30e-06	0	44	0	105906176	21	3785
2026-01-23 00:32:14.73	199.73	59.39	-29.6	-30.1	14.8	0.00e+00	0	44	0	106954752	20	3823
2026-01-23 00:32:15.74	199.74	58.98	-28.9	-28.9	15.7	0.00e+00	0	44	0	109051904	19	3584
2026-01-23 00:32:16.74	199.74	58.58	-27.9	-27.4	17.1	0.00e+00	0	44	0	111149056	17	3415
2026-01-23 00:32:17.75	199.75	58.18	-28.3	-28.4	16.7	0.00e+00	0	44	0	113246208	17	3648
2026-01-23 00:32:18.75	199.75	57.78	-29.1	-30.0	15.6	0.00e+00	0	44	0	115343360	18	3953
2026-01-23 00:32:19.75	199.76	57.39	-29.2	-30.2	15.4	0.00e+00	0	44	0	116391936	18	4007
2026-01-23 00:32:20.75	199.76	57.00	-28.5	-28.5	16.3	7.00e-07	0	44	0	118489088	18	3588
2026-01-23 00:32:21.76	199.77	56.61	-28.6	-29.0	16.3	3.66e-04	0	44	0	120586240	17	3806
2026-01-23 00:32:22.76	199.77	56.23	-28.4	-28.7	16.5	0.00e+00	0	44	0	122683392	17	3734
2026-01-23 00:32:23.77	199.77	55.84	-28.1	-27.9	16.9	1.50e-06	0	44	0	124780544	17	3533
2026-01-23 00:32:24.77	199.78	55.46	-28.3	-29.0	16.6	6.57e-04	0	44	0	125829120	16	3900
2026-01-23 00:32:25.76	199.78	55.09	-29.4	-30.6	15.2	2.33e-04	0	44	0	127926272	18	4122
2026-01-23 00:32:26.77	199.79	54.71	-30.3	-32.0	13.6	0.00e+00	0	44	0	130023424	20	4368
2026-01-23 00:32:27.77	199.79	54.34	-30.5	-32.1	13.2	2.51e-05	0	44	0	132120576	21	4309
2026-01-23 00:32:28.76	199.80	53.97	-30.4	-32.3	13.3	3.01e-04	0	44	0	134217728	20	4458
2026-01-23 00:32:29.76	199.80	53.61	-30.1	-30.9	13.8	1.67e-05	0	44	0	135266304	21	3957
2026-01-23 00:32:30.76	199.80	53.24	-29.7	-30.4	14.5	3.80e-06	0	44	0	137363456	20	3909
2026-01-23 00:32:31.77	199.81	52.88	-29.9	-30.9	14.3	1.84e-04	0	44	0	139460608	20	4028
2026-01-23 00:32:32.78	199.81	52.52	-31.0	-32.9	12.3	1.28e-04	0	44	0	141557760	22	4491
2026-01-23 00:32:33.78	199.82	52.16	-32.0	-35.5	10.1	2.82e-03	0	44	0	142606336	23	5439
2026-01-23 00:32:34.79	199.82	51.81	-31.9	-34.7	10.3	1.32e-02	0	44	0	144703488	24	4999
2026-01-23 00:32:35.79	199.83	51.46	-31.0	-32.3	12.3	9.83e-04	0	44	0	146800640	23	4215
2026-01-23 00:32:36.79	199.83	51.11	-30.2	-31.1	13.6	1.90e-05	0	44	0	148897792	21	3996
2026-01-23 00:32:37.79	199.83	50.76	-29.8	-30.2	14.3	7.60e-06	0	44	0	150994944	21	3766
2026-01-23 00:32:38.80	199.84	50.42	-30.4	-31.8	13.4	6.80e-06	0	44	0	152043520	21	4214
2026-01-23 00:32:39.80	199.84	50.08	-30.3	-31.4	13.4	2.82e-04	0	44	0	154140672	21	4092
2026-01-23 00:32:40.80	199.85	49.74	-29.5	-29.9	14.7	3.80e-06	0	44	0	156237824	20	3776
2026-01-23 00:32:41.81	199.85	49.40	-29.5	-29.9	14.8	0.00e+00	0	44	0	158334976	20	3767
2026-01-23 00:32:42.81	199.86	49.07	-30.2	-31.7	13.8	4.04e-05	0	44	0	160432128	20	4268
2026-01-23 00:32:43.81	199.86	48.74	-31.6	-34.4	10.9	3.78e-04	0	44	0	161480704	23	4953
2026-01-23 00:32:44.81	199.86	48.41	-32.0	-35.1	9.7	1.07e-02	0	44	0	163577856	24	5159
2026-01-23 00:32:45.82	199.87	48.08	-31.2	-33.1	11.6	2.34e-03	0	44	0	165675008	23	4455
2026-01-23 00:32:46.82	199.87	47.76	-29.6	-30.2	14.5	6.10e-06	0	44	0	167772160	20	3849
2026-01-23 00:32:47.82	199.88	47.44	-29.0	-29.1	15.6	0.00e+00	0	44	0	169869312	19	3653
2026-01-23 00:32:48.83	199.88	47.12	-29.0	-29.1	15.6	0.00e+00	0	44	0	170917888	19	3655
2026-01-23 00:32:49.84	199.88	46.80	-29.3	-29.8	15.2	0.00e+00	0	44	0	173015040	19	3834
2026-01-23 00:32:50.84	199.89	46.48	-29.5	-30.5	14.8	0.00e+00	0	44	0	175112192	19	4006
2026-01-23 00:32:51.85	199.89	46.17	-30.6	-32.3	13.0	3.00e-06	0	44	0	177209344	21	4377
2026-01-23 00:32:52.84	199.90	45.86	-31.4	-34.2	11.2	6.23e-04	0	44	0	179306496	22	4953
2026-01-23 00:32:53.85	199.90	45.55	-31.7	-34.8	10.6	1.87e-03	0	44	0	180355072	23	5113
2026-01-23 00:32:54.86	199.90	45.25	-32.2	-36.1	9.2	1.41e-02	0	44	0	182452224	24	5619
2026-01-23 00:32:55.86	199.91	44.95	-32.1	-35.5	9.6	1.57e-02	0	44	0	184549376	24	5334
2026-01-23 00:32:56.86	199.91	44.65	-30.8	-32.0	12.4	1.29e-03	0	44	0	186646528	23	4099
2026-01-23 00:32:57.86	199.91	44.35	-30.2	-31.1	13.6	6.82e-04	0	44	0	187695104	21	4024
2026-01-23 00:32:58.87	199.92	44.05	-30.5	-32.1	13.0	5.67e-04	0	44	0	189792256	21	4323
2026-01-23 00:32:59.87	199.92	43.76	-30.6	-32.3	12.9	2.97e-05	0	44	0	191889408	21	4369
2026-01-23 00:33:00.88	199.93	43.47	-31.5	-34.5	11.0	1.07e-03	0	44	0	193986560	22	5080
2026-01-23 00:33:01.88	199.93	43.18	-31.4	-34.2	11.2	1.87e-03	0	44	0	196083712	22	4993
2026-01-23 00:33:02.89	199.93	42.89	-31.8	-35.0	10.3	3.97e-03	0	44	0	198180864	23	5216
2026-01-23 00:33:03.90	199.94	42.60	-31.6	-34.6	10.5	7.78e-03	0	44	0	199229440	23	5062
2026-01-23 00:33:04.90	199.94	42.32	-32.1	-35.8	9.2	5.35e-03	0	44	0	201326592	24	5527
2026-01-23 00:33:05.90	199.95	42.04	-32.4	-37.1	8.2	4.21e-02	0	44	0	203423744	24	6170
2026-01-23 00:33:06.91	199.95	41.76	-32.5	-36.7	8.0	7.37e-02	0	44	0	205520896	25	5864
2026-01-23 00:33:07.91	199.95	41.49	-32.3	-36.0	8.6	6.59e-02	0	44	0	206569472	25	5530
2026-01-23 00:33:08.92	199.96	41.21	-32.3	-35.8	8.9	2.00e-02	0	44	0	208666624	25	5407
2026-01-23 00:33:09.92	199.96	40.94	-31.6	-33.7	10.7	7.87e-03	0	44	0	210763776	24	4634
2026-01-23 00:33:10.93	199.97	40.67	-30.6	-31.8	12.8	1.33e-03	0	44	0	212860928	22	4156
2026-01-23 00:33:11.93	199.97	40.40	-30.4	-31.8	13.3	9.90e-06	0	44	0	214958080	21	4219
2026-01-23 00:33:12.93	199.97	40.13	-30.3	-32.0	13.3	1.14e-05	0	44	0	216006656	20	4398
2026-01-23 00:33:13.93	199.98	39.87	-30.6	-32.5	12.6	1.56e-03	0	44	0	218103808	21	4445
2026-01-23 00:33:14.93	199.98	39.61	-31.4	-34.2	11.2	1.97e-04	0	44	0	220200960	22	4986
2026-01-23 00:33:15.94	199.98	39.35	-31.9	-35.6	9.9	6.41e-03	0	44	0	222298112	23	5465
2026-01-23 00:33:16.93	199.99	39.09	-32.0	-35.2	9.7	1.89e-02	0	44	0	224395264	24	5216
2026-01-23 00:33:17.93	199.99	38.84	-32.3	-36.6	8.6	1.61e-02	0	44	0	225443840	24	5893
2026-01-23 00:33:18.94	200.00	38.58	-32.3	-36.5	8.7	4.54e-02	0	44	0	227540992	24	5838
2026-01-23 00:33:19.94	200.00	38.33	-32.1	-35.6	9.3	2.92e-02	0	44	0	229638144	24	5415
2026-01-23 00:33:20.95	200.00	38.08	-32.1	-35.6	9.3	1.74e-02	0	44	0	231735296	24	5421
2026-01-23 00:33:21.95	200.01	37.83	-32.0	-35.4	9.5	1.97e-02	0	44	0	233832448	24	5301
2026-01-23 00:33:22.95	200.01	37.58	-32.0	-35.4	9.5	1.80e-02	0	44	0	234881024	24	5320
2026-01-23 00:33:23.96	200.01	37.34	-31.8	-34.6	10.1	1.11e-02	0	44	0	236978176	24	4995
2026-01-23 00:33:24.97	200.02	37.09	-32.2	-36.1	9.0	1.07e-02	0	44	0	239075328	24	5649
2026-01-23 00:33:25.97	200.02	36.85	-31.7	-34.2	10.4	1.16e-02	0	44	0	241172480	24	4828
2026-01-23 00:33:26.97	200.03	36.61	-31.4	-33.2	11.1	2.47e-03	0	44	0	243269632	24	4444
2026-01-23 00:33:27.97	200.03	36.37	-31.2	-33.7	11.5	1.15e-03	0	44	0	244318208	22	4800
2026-01-23 00:33:28.98	200.03	36.14	-31.2	-33.5	11.6	2.78e-03	0	44	0	246415360	22	4727
2026-01-23 00:33:29.98	200.04	35.90	-31.2	-33.6	11.5	7.19e-04	0	44	0	248512512	22	4770
2026-01-23 00:33:30.98	200.04	35.67	-31.0	-33.0	11.9	4.15e-04	0	44	0	250609664	22	4554
2026-01-23 00:33:31.98	200.04	35.44	-31.0	-33.2	11.8	1.88e-03	0	44	0	252706816	22	4616
2026-01-23 00:33:32.98	200.05	35.21	-30.9	-32.8	12.2	3.86e-04	0	44	0	253755392	22	4473
2026-01-23 00:33:33.99	200.05	34.98	-31.6	-34.3	10.6	1.38e-03	0	44	0	255852544	23	4957
2026-01-23 00:33:35.00	200.05	34.75	-32.1	-35.9	9.2	8.50e-03	0	44	0	257949696	24	5544
2026-01-23 00:33:36.00	200.06	34.53	-32.5	-36.9	7.9	3.85e-02	0	44	0	260046848	25	5995
2026-01-23 00:33:37.00	200.06	34.31	-33.0	-39.5	6.1	2.34e-01	0	44	0	261095424	25	7601
2026-01-23 00:33:38.00	200.07	34.09	-33.2	-40.1	5.4	3.90e-01	0	44	0	263192576	26	7957
2026-01-23 00:33:39.00	200.07	33.87	-33.1	-39.8	5.6	5.17e-01	0	44	0	265289728	26	7735
2026-01-23 00:33:40.00	200.07	33.65	-32.7	-37.5	7.1	2.03e-01	0	44	0	267386880	26	6239
2026-01-23 00:33:41.01	200.08	33.43	-32.4	-36.7	8.0	6.79e-02	0	44	0	269484032	25	5871
2026-01-23 00:33:42.01	200.08	33.22	-31.8	-34.6	10.1	1.77e-02	0	44	0	270532608	24	4967
2026-01-23 00:33:43.01	200.08	33.00	-31.2	-33.3	11.4	1.53e-03	0	44	0	272629760	23	4552
2026-01-23 00:33:44.02	200.09	32.79	-31.0	-33.1	11.9	6.48e-04	0	44	0	274726912	22	4589
2026-01-23 00:33:45.02	200.09	32.58	-30.9	-32.9	12.0	5.34e-04	0	44	0	276824064	22	4510
2026-01-23 00:33:46.03	200.09	32.37	-31.0	-33.2	11.7	5.26e-04	0	44	0	278921216	22	4632
2026-01-23 00:33:47.03	200.10	32.16	-31.3	-34.0	11.2	1.13e-03	0	44	0	279969792	22	4928
2026-01-23 00:33:48.02	200.10	31.96	-31.4	-34.4	10.9	1.56e-03	0	44	0	282066944	22	5070
2026-01-23 00:33:49.03	200.11	31.75	-31.6	-34.6	10.4	3.03e-03	0	44	0	284164096	23	5065
2026-01-23 00:33:50.03	200.11	31.55	-31.8	-35.2	9.9	7.96e-03	0	44	0	286261248	23	5307
2026-01-23 00:33:51.03	200.11	31.35	-31.5	-34.2	10.6	5.82e-03	0	44	0	288358400	23	4900
2026-01-23 00:33:52.04	200.12	31.14	-31.5	-34.3	10.6	4.09e-03	0	44	0	289406976	23	4948
2026-01-23 00:33:53.03	200.12	30.95	-31.8	-35.3	9.8	4.31e-03	0	44	0	291504128	23	5378
2026-01-23 00:33:54.04	200.12	30.75	-31.8	-35.2	10.0	7.84e-03	0	44	0	293601280	23	5314
2026-01-23 00:33:55.03	200.13	30.55	-31.9	-35.8	9.5	8.38e-03	0	44	0	295698432	23	5596
2026-01-23 00:33:56.03	200.13	30.36	-32.0	-35.6	9.2	1.71e-02	0	44	0	297795584	24	5444
2026-01-23 00:33:57.04	200.13	30.16	-31.4	-35.8	8.4	3.86e-02	0	44	0	298844160	24	6010
2026-01-23 00:33:58.04	200.14	29.97	-32.6	-37.6	7.3	8.01e-02	0	44	0	300941312	25	6415
2026-01-23 00:33:59.05	200.14	29.78	-32.8	-38.5	6.6	1.73e-01	0	44	0	303038464	25	6978
2026-01-23 00:34:00.05	200.14	29.59	-33.0	-39.8	5.7	3.56e-01	0	44	0	305135616	25	7863
2026-01-23 00:34:01.05	200.15	29.40	-32.9	-39.7	5.7	4.06e-01	0	44	0	306184192	25	7795
2026-01-23 00:34:02.05	200.15	29.21	-32.8	-38.9	6.3	3.32e-01	0	44	0	308281344	25	7237
2026-01-23 00:34:03.05	200.16	29.03	-32.7	-38.3	6.7	2.31e-01	0	44	0	310378496	25	6856
2026-01-23 00:34:04.05	200.16	28.84	-32.6	-37.7	7.2	1.29e-01	0	44	0	312475648	25	6479
2026-01-23 00:34:05.05	200.16	28.66	-32.5	-37.2	7.5	1.21e-01	0	44	0	314572800	25	6186
2026-01-23 00:34:06.06	200.17	28.48	-32.0	-35.7	9.0	7.00e-02	0	44	0	315621376	24	5511
2026-01-23 00:34:07.06	200.17	28.30	-31.5	-34.4	10.4	1.00e-02	0	44	0	317718528	23	5034
2026-01-23 00:34:08.06	200.17	28.12	-31.0	-32.6	11.7	1.31e-03	0	44	0	319815680	23	4355
2026-01-23 00:34:09.06	200.18	27.94	-30.4	-31.9	12.7	1.78e-04	0	44	0	321912832	21	4315
2026-01-23 00:34:10.07	200.18	27.76	-30.1	-31.6	13.4	2.70e-03	0	44	0	324009984	20	4290
2026-01-23 00:34:11.07	200.18	27.58	-30.0	-31.4	13.5	9.90e-06	0	44	0	325058560	20	4236
2026-01-23 00:34:12.07	200.19	27.41	-29.9	-31.7	13.7	3.80e-06	0	44	0	327155712	19	4391
2026-01-23 00:34:13.07	200.19	27.23	-29.7	-31.1	14.1	9.90e-06	0	44	0	329252864	19	4232
2026-01-23 00:34:14.08	200.19	27.06	-29.7	-31.1	14.0	2.20e-06	0	44	0	331350016	19	4224
2026-01-23 00:34:15.09	200.20	26.88	-29.7	-31.0	14.1	7.00e-07	0	44	0	333447168	19	4190
2026-01-23 00:34:16.09	200.20	26.71	-29.9	-31.6	13.7	5.30e-06	0	44	0	334495744	19	4390
2026-01-23 00:34:17.10	200.20	26.54	-29.6	-30.8	14.3	2.20e-06	0	44	0	336592896	19	4133
2026-01-23 00:34:18.10	200.21	26.37	-29.3	-30.6	14.6	2.23e-03	0	44	0	338690048	18	4167
2026-01-23 00:34:19.09	200.21	26.21	-29.4	-30.9	14.5	3.80e-06	0	44	0	340787200	18	4249
2026-01-23 00:34:20.10	200.22	26.04	-29.4	-30.3	14.6	0.00e+00	0	44	0	342884352	19	3993
2026-01-23 00:34:21.10	200.22	25.87	-29.6	-30.7	14.3	2.46e-03	0	44	0	343932928	19	4104
2026-01-23 00:34:22.11	200.22	25.71	-29.6	-30.9	14.2	1.43e-03	0	44	0	346030080	19	4156
2026-01-23 00:34:23.11	200.23	25.54	-29.7	-31.0	14.1	3.00e-06	0	44	0	348127232	19	4195
2026-01-23 00:34:24.12	200.23	25.38	-29.8	-31.4	13.8	2.36e-03	0	44	0	350224384	19	4321
2026-01-23 00:34:25.12	200.23	25.22	-29.9	-31.2	13.6	2.21e-03	0	44	0	352321536	20	4174
2026-01-23 00:34:26.13	200.24	25.05	-30.3	-32.2	13.0	1.44e-05	0	44	0	353370112	20	4477
2026-01-23 00:34:27.13	200.24	24.89	-30.2	-31.9	13.1	2.24e-03	0	44	0	355467264	20	4380
2026-01-23 00:34:28.14	200.24	24.73	-30.2	-31.9	13.1	2.47e-03	0	44	0	357564416	20	4408
2026-01-23 00:34:29.13	200.25	24.58	-30.3	-32.1	12.9	2.20e-04	0	44	0	359661568	20	4479
2026-01-23 00:34:30.14	200.25	24.42	-30.1	-31.7	13.2	3.28e-05	0	44	0	361758720	20	4326
2026-01-23 00:34:31.14	200.25	24.26	-30.0	-31.5	13.3	2.25e-03	0	44	0	362807296	20	4285
2026-01-23 00:34:32.14	200.26	24.11	-29.8	-30.9	13.7	1.62e-04	0	44	0	364904448	20	4097
2026-01-23 00:34:33.15	200.26	23.95	-30.0	-31.6	13.3	7.60e-06	0	44	0	367001600	20	4300
2026-01-23 00:34:34.15	200.26	23.80	-29.9	-31.1	13.5	2.17e-03	0	44	0	369098752	20	4161
2026-01-23 00:34:35.15	200.27	23.65	-29.8	-30.9	13.7	1.78e-04	0	44	0	370147328	20	4085
2026-01-23 00:34:36.16	200.27	23.50	-30.0	-31.4	13.4	2.10e-03	0	44	0	372244480	20	4224
2026-01-23 00:34:37.17	200.27	23.34	-30.1	-31.7	13.2	2.36e-03	0	44	0	374341632	20	4330
2026-01-23 00:34:38.17	200.28	23.19	-30.2	-32.0	13.1	2.17e-04	0	44	0	376438784	20	4415
2026-01-23 00:34:39.18	200.28	23.04	-30.2	-32.0	12.9	2.21e-03	0	44	0	378535936	20	4442
2026-01-23 00:34:40.18	200.28	22.90	-30.4	-32.4	12.7	2.14e-03	0	44	0	379584512	20	4571
2026-01-23 00:34:41.18	200.29	22.75	-30.3	-32.4	12.7	2.66e-04	0	44	0	381681664	20	4559
2026-01-23 00:34:42.18	200.29	22.60	-30.4	-32.5	12.8	2.04e-03	0	44	0	383778816	20	4584
2026-01-23 00:34:43.19	200.30	22.46	-30.4	-32.5	12.7	1.98e-03	0	44	0	385875968	20	4578
2026-01-23 00:34:44.19	200.30	22.31	-30.1	-31.6	13.2	2.10e-04	0	44	0	387973120	20	4288
2026-01-23 00:34:45.20	200.30	22.17	-29.8	-31.3	13.8	1.67e-03	0	44	0	389021696	19	4296
2026-01-23 00:34:46.20	200.31	22.02	-29.4	-30.4	14.4	1.74e-03	0	44	0	391118848	19	4026
2026-01-23 00:34:47.20	200.31	21.88	-29.3	-30.5	14.6	1.80e-04	0	44	0	393216000	18	4144
2026-01-23 00:34:48.21	200.31	21.74	-29.3	-30.5	14.6	1.75e-03	0	44	0	395313152	18	4146
2026-01-23 00:34:49.21	200.32	21.60	-28.9	-29.5	15.2	1.67e-03	0	44	0	397410304	18	3873
2026-01-23 00:34:50.22	200.32	21.46	-29.0	-30.3	15.0	1.42e-04	0	44	0	398458880	17	4177
2026-01-23 00:34:51.22	200.32	21.32	-29.0	-29.7	15.0	6.10e-06	0	44	0	400556032	18	3927
2026-01-23 00:34:52.22	200.33	21.18	-28.9	-30.0	15.1	1.49e-03	0	44	0	402653184	17	4108
2026-01-23 00:34:53.23	200.33	21.04	-29.0	-29.7	15.1	1.59e-04	0	44	0	404750336	18	3928
2026-01-23 00:34:54.23	200.33	20.91	-28.9	-29.7	15.1	9.10e-06	0	44	0	406847488	18	3927
2026-01-23 00:34:55.24	200.34	20.77	-29.1	-30.0	14.9	1.24e-03	0	44	0	407896064	18	3999
2026-01-23 00:34:56.23	200.34	20.64	-29.2	-30.3	14.7	1.50e-04	0	44	0	409993216	18	4097
2026-01-23 00:34:57.24	200.34	20.50	-29.3	-30.6	14.4	1.02e-03	0	44	0	412090368	18	4178
2026-01-23 00:34:58.24	200.35	20.37	-29.3	-30.7	14.4	0.00e+00	0	44	0	414187520	18	4203
2026-01-23 00:34:59.24	200.35	20.23	-29.4	-30.4	14.3	1.79e-04	0	44	0	416284672	19	4035
2026-01-23 00:35:00.24	200.35	20.10	-29.4	-30.9	14.3	5.42e-04	0	44	0	417333248	18	4272
2026-01-23 00:35:01.24	200.36	19.97	-29.5	-31.0	14.3	7.00e-07	0	44	0	419430400	18	4300
2026-01-23 00:35:02.24	200.36	19.84	-29.6	-30.8	14.0	1.50e-06	0	44	0	421527552	19	4142
2026-01-23 00:35:03.25	200.36	19.71	-29.5	-30.6	14.2	3.49e-04	0	44	0	423624704	19	4090
2026-01-23 00:35:04.25	200.37	19.58	-29.6	-30.9	14.0	2.75e-04	0	44	0	424673280	19	4188
2026-01-23 00:35:05.26	200.37	19.45	-29.7	-31.1	13.9	6.10e-06	0	44	0	426770432	19	4245
2026-01-23 00:35:06.27	200.37	19.32	-29.5	-30.7	14.1	2.04e-04	0	44	0	428867584	19	4125
2026-01-23 00:35:07.27	200.38	19.19	-29.6	-31.0	13.9	1.90e-04	0	44	0	430964736	19	4209
2026-01-23 00:35:08.28	200.38	19.06	-29.7	-31.3	13.7	9.90e-06	0	44	0	433061888	19	4289
2026-01-23 00:35:09.28	200.38	18.94	-29.7	-31.1	13.8	7.60e-06	0	44	0	435159040	19	4253
2026-01-23 00:35:10.29	200.39	18.81	-29.9	-31.8	13.3	2.01e-04	0	44	0	436207616	19	4474
2026-01-23 00:35:11.29	200.39	18.68	-30.1	-31.7	13.0	3.43e-05	0	44	0	438304768	20	4354
2026-01-23 00:35:12.29	200.39	18.56	-30.2	-32.0	12.8	3.73e-05	0	44	0	440401920	20	4453
2026-01-23 00:35:13.29	200.40	18.44	-30.3	-32.4	12.6	5.95e-05	0	44	0	442499072	20	4571
2026-01-23 00:35:14.29	200.40	18.31	-30.3	-32.5	12.5	1.66e-04	0	44	0	443547648	20	4608
2026-01-23 00:35:15.29	200.40	18.19	-30.6	-32.7	12.0	2.33e-04	0	44	0	445644800	21	4590
2026-01-23 00:35:16.30	200.41	18.07	-30.7	-33.1	11.7	5.33e-04	0	44	0	447741952	21	4726
2026-01-23 00:35:17.30	200.41	17.95	-30.8	-33.6	11.5	6.51e-04	0	44	0	449839104	21	4913
2026-01-23 00:35:18.31	200.41	17.82	-30.8	-33.5	11.4	6.74e-04	0	44	0	451936256	21	4894
2026-01-23 00:35:19.31	200.42	17.70	-30.9	-33.8	11.2	1.24e-03	0	44	0	452984832	21	5021
2026-01-23 00:35:20.32	200.42	17.58	-30.8	-33.3	11.6	1.27e-03	0	44	0	455081984	21	4815
2026-01-23 00:35:21.32	200.42	17.46	-30.8	-33.5	11.4	1.01e-03	0	44	0	457179136	21	4896
2026-01-23 00:35:22.32	200.43	17.35	-30.8	-33.4	11.5	1.02e-03	0	44	0	459276288	21	4856
2026-01-23 00:35:23.32	200.43	17.23	-30.8	-33.5	11.5	7.54e-04	0	44	0	461373440	21	4881
2026-01-23 00:35:24.32	200.43	17.11	-30.9	-33.1	11.2	9.72e-04	0	44	0	462422016	22	4667
2026-01-23 00:35:25.32	200.44	16.99	-30.6	-32.8	11.9	5.69e-04	0	44	0	464519168	21	4618
2026-01-23 00:35:26.32	200.44	16.88	-30.5	-32.5	12.1	3.02e-04	0	44	0	466616320	21	4536
2026-01-23 00:35:27.33	200.44	16.76	-30.4	-32.2	12.2	2.09e-04	0	44	0	468713472	21	4441
2026-01-23 00:35:28.33	200.45	16.65	-30.3	-32.3	12.6	1.61e-04	0	44	0	470810624	20	4562
2026-01-23 00:35:29.32	200.45	16.53	-30.1	-31.9	12.8	9.23e-05	0	44	0	471859200	20	4426
2026-01-23 00:35:30.32	200.45	16.42	-30.2	-32.0	12.7	6.40e-05	0	44	0	473956352	20	4458
2026-01-23 00:35:31.32	200.46	16.31	-30.2	-32.0	12.8	9.76e-05	0	44	0	476053504	20	4456
2026-01-23 00:35:32.33	200.46	16.19	-30.1	-31.9	12.8	7.09e-05	0	44	0	478150656	20	4422
2026-01-23 00:35:33.33	200.46	16.08	-30.1	-31.8	12.9	5.03e-05	0	44	0	480247808	20	4375
2026-01-23 00:35:34.33	200.47	15.97	-30.0	-31.5	13.0	3.96e-05	0	44	0	481296384	20	4299
2026-01-23 00:35:35.33	200.47	15.86	-30.1	-31.7	12.9	4.65e-05	0	44	0	483393536	20	4366
2026-01-23 00:35:36.34	200.47	15.75	-30.1	-31.8	12.8	7.47e-05	0	44	0	485490688	20	4402
2026-01-23 00:35:37.35	200.48	15.63	-30.1	-31.9	12.8	6.25e-05	0	44	0	487587840	20	4413
2026-01-23 00:35:38.35	200.48	15.52	-30.3	-32.4	12.5	8.39e-05	0	44	0	488636416	20	4587
2026-01-23 00:35:39.35	200.48	15.42	-30.3	-32.4	12.4	1.26e-04	0	44	0	490733568	20	4596
2026-01-23 00:35:40.35	200.49	15.31	-30.4	-32.7	12.2	1.40e-04	0	44	0	492830720	20	4718
2026-01-23 00:35:41.36	200.49	15.20	-30.7	-33.0	11.7	3.32e-04	0	44	0	494927872	21	4722
2026-01-23 00:35:42.36	200.49	15.09	-30.8	-33.3	11.5	9.64e-04	0	44	0	497025024	21	4825
2026-01-23 00:35:43.36	200.50	14.98	-30.7	-33.0	11.6	7.12e-04	0	44	0	498073600	21	4729
2026-01-23 00:35:44.36	200.50	14.88	-30.8	-33.5	11.3	1.03e-03	0	44	0	500170752	21	4899
2026-01-23 00:35:45.37	200.50	14.77	-30.9	-33.7	11.2	1.32e-03	0	44	0	502267904	21	4976
2026-01-23 00:35:46.37	200.51	14.66	-31.1	-33.9	10.7	1.80e-03	0	44	0	504365056	22	4951
2026-01-23 00:35:47.37	200.51	14.56	-31.1	-33.8	10.7	3.26e-03	0	44	0	506462208	22	4941
2026-01-23 00:35:48.37	200.51	14.45	-31.1	-33.9	10.6	5.27e-03	0	44	0	507510784	22	4987
2026-01-23 00:35:49.37	200.52	14.35	-31.3	-34.7	10.0	4.82e-03	0	44	0	509607936	22	5321
2026-01-23 00:35:50.37	200.52	14.24	-31.2	-34.2	10.4	5.61e-03	0	44	0	511705088	22	5122
2026-01-23 00:35:51.37	200.52	14.14	-31.4	-34.9	10.0	5.71e-03	0	44	0	513802240	22	5380
2026-01-23 00:35:52.37	200.53	14.04	-31.5	-34.8	9.5	1.52e-02	0	44	0	515899392	23	5286
2026-01-23 00:35:53.38	200.53	13.93	-31.3	-34.6	10.2	6.92e-03	0	44	0	516947968	22	5248
2026-01-23 00:35:54.38	200.53	13.83	-31.3	-34.5	10.2	5.15e-03	0	44	0	519045120	22	5237
2026-01-23 00:35:55.39	200.54	13.73	-31.3	-34.5	10.1	7.05e-03	0	44	0	521142272	22	5230
2026-01-23 00:35:56.39	200.54	13.63	-31.2	-34.2	10.4	4.54e-03	0	44	0	523239424	22	5089
2026-01-23 00:35:57.40	200.54	13.52	-31.2	-34.2	10.4	3.75e-03	0	44	0	525336576	22	5098
2026-01-23 00:35:58.40	200.55	13.42	-31.0	-33.7	10.7	4.24e-03	0	44	0	526385152	22	4908
2026-01-23 00:35:59.40	200.55	13.32	-31.0	-34.2	10.8	5.16e-03	0	44	0	528482304	21	5182
2026-01-23 00:36:00.41	200.55	13.22	-31.1	-34.1	10.4	3.97e-03	0	44	0	530579456	22	5075
2026-01-23 00:36:01.41	200.56	13.12	-31.0	-33.6	10.8	3.48e-03	0	44	0	532676608	22	4884
2026-01-23 00:36:02.41	200.56	13.02	-31.0	-33.8	10.6	5.27e-03	0	44	0	534773760	22	4955
2026-01-23 00:36:03.42	200.56	12.92	-31.1	-34.1	10.4	7.30e-03	0	44	0	535822336	22	5087
2026-01-23 00:36:04.41	200.57	12.83	-31.0	-33.7	10.7	3.34e-03	0	44	0	537919488	22	4910
2026-01-23 00:36:05.41	200.57	12.73	-31.0	-34.2	10.7	4.53e-03	0	44	0	540016640	21	5193
2026-01-23 00:36:06.42	200.57	12.63	-30.9	-34.0	10.8	5.11e-03	0	44	0	542113792	21	5111
2026-01-23 00:36:07.42	200.58	12.53	-30.9	-33.9	10.8	2.18e-03	0	44	0	543162368	21	5100
2026-01-23 00:36:08.42	200.58	12.44	-30.9	-33.9	10.9	2.60e-03	0	44	0	545259520	21	5086
2026-01-23 00:36:09.43	200.58	12.34	-30.9	-33.8	10.9	4.81e-03	0	44	0	547356672	21	5066
2026-01-23 00:36:10.43	200.59	12.24	-30.8	-33.6	11.1	2.23e-03	0	44	0	549453824	21	4984
2026-01-23 00:36:11.43	200.59	12.15	-30.8	-33.8	10.9	2.69e-03	0	44	0	551550976	21	5039
2026-01-23 00:36:12.44	200.59	12.05	-30.9	-34.0	10.7	4.72e-03	0	44	0	552599552	21	5136
2026-01-23 00:36:13.44	200.60	11.96	-30.9	-34.1	10.7	3.05e-03	0	44	0	554696704	21	5171
2026-01-23 00:36:14.44	200.60	11.86	-30.9	-33.8	10.9	4.60e-03	0	44	0	556793856	21	5051
2026-01-23 00:36:15.44	200.60	11.77	-30.7	-33.3	11.2	1.58e-03	0	44	0	558891008	21	4854
2026-01-23 00:36:16.44	200.61	11.68	-30.8	-33.5	11.1	1.64e-03	0	44	0	560988160	21	4935
2026-01-23 00:36:17.45	200.61	11.58	-30.7	-33.4	11.1	3.95e-03	0	44	0	562036736	21	4915
2026-01-23 00:36:18.45	200.61	11.49	-30.6	-33.0	11.5	1.37e-03	0	44	0	564133888	21	4744
2026-01-23 00:36:19.45	200.62	11.40	-30.7	-33.3	11.2	1.34e-03	0	44	0	566231040	21	4874
2026-01-23 00:36:20.45	200.62	11.30	-30.7	-33.3	11.2	3.99e-03	0	44	0	568328192	21	4884
2026-01-23 00:36:21.45	200.62	11.21	-30.7	-33.2	11.3	3.17e-03	0	44	0	570425344	21	4819
2026-01-23 00:36:22.45	200.63	11.12	-30.7	-33.4	11.2	1.07e-03	0	44	0	571473920	21	4895
2026-01-23 00:36:23.46	200.63	11.03	-30.7	-33.3	11.2	3.93e-03	0	44	0	573571072	21	4856
2026-01-23 00:36:24.47	200.63	10.94	-30.6	-33.1	11.3	3.73e-03	0	44	0	575668224	21	4809
2026-01-23 00:36:25.47	200.63	10.85	-30.7	-33.2	11.3	1.43e-03	0	44	0	577765376	21	4836
2026-01-23 00:36:26.48	200.64	10.75	-30.5	-32.8	11.5	3.46e-03	0	44	0	579862528	21	4692
2026-01-23 00:36:27.48	200.64	10.66	-30.6	-32.9	11.4	3.25e-03	0	44	0	580911104	21	4738
2026-01-23 00:36:28.49	200.64	10.57	-30.6	-33.1	11.4	1.13e-03	0	44	0	583008256	21	4778
2026-01-23 00:36:29.49	200.65	10.49	-30.6	-33.0	11.3	3.45e-03	0	44	0	585105408	21	4776
2026-01-23 00:36:30.50	200.65	10.40	-30.6	-33.2	11.2	3.04e-03	0	44	0	587202560	21	4833
2026-01-23 00:36:31.50	200.65	10.31	-30.6	-33.2	11.3	1.11e-03	0	44	0	588251136	21	4823
2026-01-23 00:36:32.51	200.66	10.22	-30.4	-32.6	11.6	2.88e-03	0	44	0	590348288	21	4603
2026-01-23 00:36:33.51	200.66	10.13	-30.5	-32.7	11.6	3.48e-03	0	44	0	592445440	21	4661
2026-01-23 00:36:34.51	200.66	10.04	-30.5	-32.7	11.6	8.67e-04	0	44	0	594542592	21	4652
2026-01-23 00:36:35.51	200.67	9.96	-30.6	-33.0	11.3	3.17e-03	0	44	0	596639744	21	4749
2026-01-23 00:36:36.51	200.67	9.87	-30.6	-33.2	11.1	4.32e-03	0	44	0	597688320	21	4840
2026-01-23 00:36:37.52	200.67	9.78	-30.5	-32.8	11.4	1.08e-03	0	44	0	599785472	21	4684
2026-01-23 00:36:38.51	200.68	9.70	-30.5	-32.8	11.4	3.08e-03	0	44	0	601882624	21	4696
2026-01-23 00:36:39.52	200.68	9.61	-30.4	-32.6	11.5	9.31e-04	0	44	0	603979776	21	4614
