passes_logs/2026/01/23/R2M6_AANII_01/R2M6_AANII_01__20260123_085903_NOAA_20_JPSS-1_rec.log

#Pass ID: 20260123_085903_NOAA 20 (JPSS-1)
#Satellite: NOAA 20 (JPSS-1)
#Configuration: NOAA 20
#almurnet v.1.7.20240730
#Start time: 2026-01-23 08:59:04

#Version: 2.2.20231116
#Station: R2M6_AANII_01
#Location: 30.233357 lon 59.946436 lat
#TLE: 1 43013U 17073A   26022.44900781  .00000193  00000+0  11233-3 0  9999
#TLE: 2 43013  98.7645 323.3100 0001197  28.8413 331.2829 14.19538802423792

#Time	Az	El	Level	Level2	SNR	BER	BlckErr	Temp	State	Recorded	gain1	gain2
2026-01-23 08:59:04.96	118.80	7.07	-32.1	-39.6	4.6	1.38e+00	0	41	0	0	25	8527
2026-01-23 08:59:05.96	118.73	7.14	-32.1	-39.3	4.6	1.35e+00	0	41	104	0	25	8256
2026-01-23 08:59:06.96	118.67	7.21	-32.2	-39.7	6.0	3.02e-01	0	41	0	0	25	8484
2026-01-23 08:59:07.96	118.60	7.28	-32.2	-39.7	6.0	3.14e-01	0	41	102	1048576	25	8467
2026-01-23 08:59:08.97	118.53	7.36	-32.2	-39.5	6.1	3.21e-01	0	41	102	1048576	25	8367
2026-01-23 08:59:09.97	118.47	7.43	-32.2	-39.5	6.1	3.43e-01	0	41	102	1048576	25	8359
2026-01-23 08:59:10.98	118.40	7.50	-32.1	-38.6	6.8	2.54e-01	0	41	102	1048576	25	7610
2026-01-23 08:59:11.97	118.33	7.57	-31.8	-37.3	7.8	1.02e-01	0	41	102	1048576	25	6761
2026-01-23 08:59:12.98	118.26	7.64	-31.6	-36.8	8.6	5.12e-02	0	41	102	1048576	24	6516
2026-01-23 08:59:13.98	118.19	7.72	-31.4	-35.9	9.3	2.75e-02	0	41	102	1048576	24	6044
2026-01-23 08:59:14.99	118.12	7.79	-31.2	-35.8	9.8	1.06e-02	0	41	102	1048576	23	6077
2026-01-23 08:59:15.99	118.06	7.86	-31.2	-35.6	10.0	9.34e-03	0	41	102	1048576	23	5997
2026-01-23 08:59:16.99	117.99	7.94	-31.2	-35.5	10.1	7.29e-03	0	41	102	1048576	23	5949
2026-01-23 08:59:18.00	117.92	8.01	-31.2	-35.5	10.1	7.30e-03	0	41	102	1048576	23	5934
2026-01-23 08:59:19.01	117.84	8.08	-31.2	-35.7	10.0	8.07e-03	0	41	102	1048576	23	6027
2026-01-23 08:59:20.01	117.77	8.16	-31.2	-35.6	10.0	7.72e-03	0	41	102	1048576	23	5980
2026-01-23 08:59:21.01	117.70	8.23	-31.2	-35.6	10.0	7.76e-03	0	41	102	1048576	23	5994
2026-01-23 08:59:22.01	117.63	8.31	-31.1	-35.4	10.2	6.22e-03	0	42	102	1048576	23	5857
2026-01-23 08:59:23.01	117.56	8.38	-31.1	-35.3	10.3	5.12e-03	0	41	102	1048576	23	5815
2026-01-23 08:59:24.00	117.49	8.45	-31.1	-35.2	10.4	4.53e-03	0	41	102	1048576	23	5778
2026-01-23 08:59:25.00	117.42	8.53	-31.1	-35.1	10.5	4.30e-03	0	41	102	1048576	23	5742
2026-01-23 08:59:26.01	117.34	8.60	-31.0	-35.0	10.5	4.27e-03	0	41	102	1048576	23	5708
2026-01-23 08:59:27.02	117.27	8.68	-31.0	-35.1	10.5	4.22e-03	0	42	102	1048576	23	5728
2026-01-23 08:59:28.03	117.20	8.75	-31.1	-35.3	10.3	6.88e-03	0	41	102	1048576	23	5825
2026-01-23 08:59:29.04	117.12	8.83	-31.1	-35.1	10.4	8.81e-03	0	41	102	1048576	23	5748
2026-01-23 08:59:30.04	117.05	8.91	-31.1	-35.1	10.5	6.20e-03	0	41	102	1048576	23	5705
2026-01-23 08:59:31.05	116.97	8.98	-31.1	-35.1	10.6	3.64e-03	0	42	102	1048576	23	5704
2026-01-23 08:59:32.05	116.90	9.06	-31.2	-35.4	10.4	3.55e-03	0	42	102	1048576	23	5829
2026-01-23 08:59:33.06	116.82	9.13	-31.0	-34.7	11.0	2.83e-03	0	42	102	1048576	23	5496
2026-01-23 08:59:34.06	116.74	9.21	-30.9	-34.5	11.1	1.67e-03	0	42	102	1048576	23	5415
2026-01-23 08:59:35.07	116.67	9.29	-30.9	-34.5	11.1	1.57e-03	0	42	102	1048576	23	5427
2026-01-23 08:59:36.07	116.59	9.36	-31.0	-34.6	11.1	1.66e-03	0	42	102	1048576	23	5449
2026-01-23 08:59:37.07	116.51	9.44	-31.1	-34.9	10.9	2.11e-03	0	42	102	1048576	23	5583
2026-01-23 08:59:38.07	116.43	9.52	-31.0	-34.7	11.0	1.99e-03	0	42	102	1048576	23	5513
2026-01-23 08:59:39.07	116.36	9.59	-31.1	-34.9	10.9	1.99e-03	0	42	102	1048576	23	5572
2026-01-23 08:59:40.08	116.28	9.67	-31.1	-34.9	10.9	2.22e-03	0	42	102	1048576	23	5588
2026-01-23 08:59:41.08	116.20	9.75	-31.1	-35.0	10.8	2.95e-03	0	42	102	1048576	23	5625
2026-01-23 08:59:42.08	116.12	9.83	-31.0	-34.4	11.3	1.62e-03	0	42	102	1048576	23	5371
2026-01-23 08:59:43.08	116.04	9.90	-31.0	-34.6	11.1	1.26e-03	0	42	102	1048576	23	5447
2026-01-23 08:59:44.08	115.96	9.98	-31.1	-34.8	11.0	1.56e-03	0	42	102	1048576	23	5517
2026-01-23 08:59:45.09	115.88	10.06	-30.9	-34.3	11.4	1.17e-03	0	42	102	1048576	23	5306
2026-01-23 08:59:46.10	115.80	10.14	-30.9	-34.2	11.4	8.90e-04	0	42	102	1048576	23	5286
2026-01-23 08:59:47.10	115.71	10.22	-30.9	-34.3	11.4	9.00e-04	0	42	102	1048576	23	5291
2026-01-23 08:59:48.11	115.63	10.30	-31.0	-34.6	11.2	9.75e-04	0	42	102	1048576	23	5438
2026-01-23 08:59:49.12	115.55	10.38	-30.9	-34.3	11.4	1.03e-03	0	42	102	1048576	23	5320
2026-01-23 08:59:50.12	115.47	10.46	-30.9	-34.1	11.6	7.64e-04	0	42	102	1048576	23	5223
2026-01-23 08:59:51.13	115.38	10.54	-30.8	-34.0	11.7	5.78e-04	0	42	102	1048576	23	5182
2026-01-23 08:59:52.14	115.30	10.62	-30.7	-34.2	11.9	4.30e-04	0	42	102	1048576	22	5354
2026-01-23 08:59:53.14	115.21	10.70	-30.8	-34.2	11.9	3.45e-04	0	42	102	1048576	22	5351
2026-01-23 08:59:54.14	115.13	10.78	-30.8	-34.3	11.9	3.73e-04	0	42	102	1048576	22	5375
2026-01-23 08:59:55.14	115.04	10.86	-30.8	-34.2	11.9	3.81e-04	0	42	102	1048576	22	5360
2026-01-23 08:59:56.15	114.96	10.94	-30.8	-34.2	11.9	3.55e-04	0	42	102	1048576	22	5337
2026-01-23 08:59:57.15	114.87	11.02	-30.8	-34.4	11.9	3.75e-04	0	42	102	1048576	22	5412
2026-01-23 08:59:58.15	114.78	11.10	-30.7	-34.1	12.1	3.78e-04	0	42	102	1048576	22	5290
2026-01-23 08:59:59.16	114.69	11.18	-30.9	-34.5	11.7	4.21e-04	0	42	102	1048576	22	5476
2026-01-23 09:00:00.16	114.61	11.26	-30.9	-34.8	11.6	6.41e-04	0	42	102	1048576	22	5607
2026-01-23 09:00:01.16	114.52	11.34	-30.8	-34.2	12.0	5.50e-04	0	42	102	1048576	22	5361
2026-01-23 09:00:02.17	114.43	11.42	-30.8	-34.3	11.9	3.84e-04	0	42	102	1048576	22	5393
2026-01-23 09:00:03.18	114.34	11.51	-30.9	-34.5	11.8	4.78e-04	0	42	102	1048576	22	5475
2026-01-23 09:00:04.18	114.25	11.59	-30.9	-34.5	11.8	5.07e-04	0	42	102	1048576	22	5483
2026-01-23 09:00:05.18	114.16	11.67	-30.8	-34.2	12.0	3.58e-04	0	42	102	1048576	22	5355
2026-01-23 09:00:06.19	114.07	11.75	-30.7	-34.0	12.1	2.91e-04	0	42	102	1048576	22	5269
2026-01-23 09:00:07.19	113.98	11.84	-30.7	-34.1	12.1	2.87e-04	0	42	102	1048576	22	5305
2026-01-23 09:00:08.20	113.88	11.92	-30.7	-33.9	12.2	2.24e-04	0	42	102	1048576	22	5236
2026-01-23 09:00:09.20	113.79	12.00	-30.6	-33.8	12.3	1.69e-04	0	42	102	1048576	22	5174
2026-01-23 09:00:10.21	113.70	12.09	-30.7	-34.1	12.1	2.49e-04	0	42	102	1048576	22	5285
2026-01-23 09:00:11.21	113.60	12.17	-30.7	-34.1	12.1	2.12e-04	0	42	102	1048576	22	5285
2026-01-23 09:00:12.20	113.51	12.25	-30.8	-34.3	12.0	3.49e-04	0	42	102	1048576	22	5387
2026-01-23 09:00:13.21	113.41	12.34	-30.7	-34.1	12.2	2.96e-04	0	42	102	1048576	22	5284
2026-01-23 09:00:14.21	113.32	12.42	-30.8	-34.1	12.1	3.13e-04	0	43	102	1048576	22	5313
2026-01-23 09:00:15.21	113.22	12.50	-30.9	-34.6	11.8	4.52e-04	0	42	102	1048576	22	5497
2026-01-23 09:00:16.21	113.13	12.59	-30.7	-34.0	12.2	2.84e-04	0	42	102	1048576	22	5235
2026-01-23 09:00:17.22	113.03	12.67	-30.6	-33.6	12.5	1.50e-04	0	42	102	1048576	22	5112
2026-01-23 09:00:18.23	112.93	12.76	-30.6	-33.5	12.6	9.61e-05	0	42	102	1048576	22	5061
2026-01-23 09:00:19.23	112.83	12.85	-30.6	-33.6	12.5	1.13e-04	0	43	102	1048576	22	5092
2026-01-23 09:00:20.24	112.73	12.93	-30.6	-33.5	12.6	8.01e-05	0	42	102	1048576	22	5049
2026-01-23 09:00:21.24	112.63	13.02	-30.6	-33.7	12.5	1.03e-04	0	42	102	1048576	22	5123
2026-01-23 09:00:22.24	112.53	13.10	-30.6	-33.7	12.5	1.15e-04	0	42	102	1048576	22	5126
2026-01-23 09:00:23.25	112.43	13.19	-30.6	-33.6	12.6	9.76e-05	0	42	102	1048576	22	5080
2026-01-23 09:00:24.25	112.33	13.27	-30.5	-33.5	12.6	8.69e-05	0	43	102	1048576	22	5030
2026-01-23 09:00:25.25	112.23	13.36	-30.6	-33.5	12.7	5.41e-05	0	42	102	1048576	22	5037
2026-01-23 09:00:26.26	112.13	13.45	-30.6	-33.7	12.5	1.14e-04	0	42	102	1048576	22	5123
2026-01-23 09:00:27.26	112.03	13.54	-30.6	-33.6	12.6	8.54e-05	0	42	102	1048576	22	5066
2026-01-23 09:00:28.26	111.92	13.62	-30.6	-33.7	12.6	9.07e-05	0	42	102	1048576	22	5112
2026-01-23 09:00:29.27	111.82	13.71	-30.7	-33.7	12.6	1.29e-04	0	42	102	1048576	22	5131
2026-01-23 09:00:30.27	111.71	13.80	-30.5	-33.4	12.8	9.53e-05	0	42	102	1048576	22	5000
2026-01-23 09:00:31.28	111.61	13.89	-30.5	-33.3	12.8	4.65e-05	0	43	102	1048576	22	4971
2026-01-23 09:00:32.28	111.50	13.97	-30.5	-33.3	12.8	7.01e-05	0	43	102	1048576	22	4969
2026-01-23 09:00:33.28	111.39	14.06	-30.5	-33.3	12.9	4.88e-05	0	43	102	1048576	22	4953
2026-01-23 09:00:34.28	111.29	14.15	-30.6	-33.5	12.7	6.25e-05	0	43	102	1048576	22	5034
2026-01-23 09:00:35.28	111.18	14.24	-30.5	-33.4	12.8	7.24e-05	0	43	102	1048576	22	4983
2026-01-23 09:00:36.29	111.07	14.33	-30.6	-33.6	12.7	7.85e-05	0	43	102	1048576	22	5072
2026-01-23 09:00:37.29	110.96	14.42	-30.6	-33.7	12.6	1.21e-04	0	43	102	1048576	22	5096
2026-01-23 09:00:38.30	110.85	14.51	-30.6	-33.6	12.7	8.39e-05	0	43	102	1048576	22	5090
2026-01-23 09:00:39.30	110.74	14.60	-30.7	-33.8	12.5	9.15e-05	0	43	102	1048576	22	5148
2026-01-23 09:00:40.31	110.63	14.69	-30.7	-33.9	12.5	1.07e-04	0	43	102	1048576	22	5193
2026-01-23 09:00:41.31	110.51	14.78	-30.8	-34.0	12.4	1.62e-04	0	43	102	1048576	22	5241
2026-01-23 09:00:42.31	110.40	14.87	-30.8	-34.0	12.4	1.43e-04	0	43	102	1048576	22	5238
2026-01-23 09:00:43.31	110.29	14.96	-30.8	-34.0	12.4	1.33e-04	0	43	102	1048576	22	5223
2026-01-23 09:00:44.31	110.17	15.05	-30.8	-34.0	12.4	1.73e-04	0	43	102	1048576	22	5231
2026-01-23 09:00:45.31	110.06	15.14	-30.7	-33.7	12.6	1.24e-04	0	43	102	1048576	22	5121
2026-01-23 09:00:46.32	109.94	15.23	-30.7	-33.8	12.6	7.17e-05	0	43	102	1048576	22	5120
2026-01-23 09:00:47.32	109.83	15.32	-30.8	-34.0	12.5	1.55e-04	0	43	102	1048576	22	5225
2026-01-23 09:00:48.33	109.71	15.41	-30.8	-34.0	12.5	1.13e-04	0	43	102	1048576	22	5215
2026-01-23 09:00:49.34	109.59	15.50	-30.8	-34.1	12.4	1.32e-04	0	43	102	1048576	22	5255
2026-01-23 09:00:50.35	109.47	15.60	-30.8	-34.0	12.5	1.62e-04	0	43	102	1048576	22	5227
2026-01-23 09:00:51.35	109.35	15.69	-30.7	-33.7	12.6	1.17e-04	0	43	102	1048576	22	5106
2026-01-23 09:00:52.35	109.23	15.78	-30.7	-33.7	12.7	8.69e-05	0	43	102	1048576	22	5090
2026-01-23 09:00:53.36	109.11	15.88	-30.7	-33.9	12.6	7.17e-05	0	43	102	1048576	22	5161
2026-01-23 09:00:54.37	108.99	15.97	-30.8	-33.9	12.6	9.23e-05	0	43	102	1048576	22	5176
2026-01-23 09:00:55.37	108.86	16.06	-30.7	-33.9	12.6	8.92e-05	0	43	102	1048576	22	5154
2026-01-23 09:00:56.38	108.74	16.16	-30.8	-33.9	12.6	1.04e-04	0	43	102	1048576	22	5158
2026-01-23 09:00:57.38	108.62	16.25	-30.8	-34.0	12.5	9.38e-05	0	43	102	1048576	22	5197
2026-01-23 09:00:58.39	108.49	16.34	-30.8	-34.2	12.4	1.33e-04	0	43	102	1048576	22	5272
2026-01-23 09:00:59.38	108.37	16.44	-30.8	-34.1	12.5	1.24e-04	0	43	102	1048576	22	5245
2026-01-23 09:01:00.39	108.24	16.53	-30.9	-34.3	12.3	1.67e-04	0	43	102	1048576	22	5329
2026-01-23 09:01:01.39	108.11	16.63	-30.9	-34.4	12.2	2.39e-04	0	43	102	1048576	22	5387
2026-01-23 09:01:02.39	107.98	16.72	-30.9	-34.3	12.3	1.72e-04	0	43	102	1048576	22	5340
2026-01-23 09:01:03.39	107.86	16.81	-31.0	-34.5	12.2	2.21e-04	0	43	102	1048576	22	5406
2026-01-23 09:01:04.39	107.73	16.91	-31.0	-34.6	12.1	2.85e-04	0	43	102	1048576	22	5461
2026-01-23 09:01:05.40	107.60	17.00	-31.0	-34.5	12.2	2.48e-04	0	43	102	1048576	22	5403
2026-01-23 09:01:06.40	107.46	17.10	-31.0	-34.5	12.2	2.15e-04	0	43	102	1048576	22	5403
2026-01-23 09:01:07.41	107.33	17.20	-31.0	-34.6	12.1	2.03e-04	0	43	102	1048576	22	5448
2026-01-23 09:01:08.42	107.20	17.29	-31.0	-34.6	12.1	3.37e-04	0	43	102	1048576	22	5459
2026-01-23 09:01:09.42	107.06	17.39	-30.8	-34.1	12.4	1.52e-04	0	43	102	1048576	22	5242
2026-01-23 09:01:10.43	106.93	17.49	-30.7	-33.8	12.7	9.84e-05	0	43	102	1048576	22	5134
2026-01-23 09:01:11.43	106.79	17.58	-30.7	-33.8	12.7	7.55e-05	0	43	102	1048576	22	5140
2026-01-23 09:01:12.43	106.66	17.68	-30.7	-33.8	12.7	7.09e-05	0	43	102	1048576	22	5119
2026-01-23 09:01:13.43	106.52	17.78	-30.7	-33.8	12.7	8.23e-05	0	43	102	1048576	22	5144
2026-01-23 09:01:14.43	106.38	17.87	-30.7	-33.9	12.7	7.85e-05	0	43	102	1048576	22	5152
2026-01-23 09:01:15.43	106.24	17.97	-30.7	-33.7	12.8	7.24e-05	0	43	102	1048576	22	5096
2026-01-23 09:01:16.44	106.10	18.07	-30.6	-33.4	13.0	4.11e-05	0	43	102	1048576	22	4995
2026-01-23 09:01:17.44	105.96	18.17	-30.6	-33.4	13.0	3.35e-05	0	43	102	1048576	22	4963
2026-01-23 09:01:18.44	105.82	18.26	-30.6	-33.4	13.0	3.28e-05	0	43	102	1048576	22	4991
2026-01-23 09:01:19.44	105.68	18.36	-30.6	-33.4	13.0	2.82e-05	0	43	102	1048576	22	4989
2026-01-23 09:01:20.45	105.53	18.46	-30.6	-33.4	13.0	4.04e-05	0	43	102	1048576	22	4995
2026-01-23 09:01:21.46	105.38	18.56	-30.6	-33.3	13.0	5.11e-05	0	43	102	1048576	22	4951
2026-01-23 09:01:22.46	105.24	18.66	-30.5	-33.1	13.2	2.51e-05	0	43	102	1048576	22	4870
2026-01-23 09:01:23.46	105.09	18.76	-30.5	-33.2	13.2	2.21e-05	0	43	102	1048576	22	4888
2026-01-23 09:01:24.47	104.94	18.86	-30.5	-33.2	13.2	2.59e-05	0	43	102	1048576	22	4881
2026-01-23 09:01:25.48	104.79	18.96	-30.5	-33.0	13.3	1.67e-05	0	43	102	1048576	22	4822
2026-01-23 09:01:26.49	104.64	19.06	-30.5	-33.2	13.2	2.51e-05	0	43	102	1048576	22	4895
2026-01-23 09:01:27.49	104.49	19.16	-30.6	-33.4	13.0	4.19e-05	0	43	102	1048576	22	4961
2026-01-23 09:01:28.50	104.34	19.26	-30.5	-33.2	13.2	2.74e-05	0	43	102	1048576	22	4897
2026-01-23 09:01:29.50	104.19	19.36	-30.5	-33.2	13.2	2.51e-05	0	43	102	1048576	22	4884
2026-01-23 09:01:30.50	104.03	19.46	-30.5	-33.2	13.1	2.36e-05	0	43	102	1048576	22	4912
2026-01-23 09:01:31.51	103.88	19.56	-30.6	-33.4	13.0	4.50e-05	0	43	102	1048576	22	4972
2026-01-23 09:01:32.51	103.72	19.66	-30.6	-33.3	13.1	2.82e-05	0	43	102	1048576	22	4941
2026-01-23 09:01:33.52	103.56	19.76	-30.6	-33.5	13.0	2.21e-05	0	43	102	1048576	22	4998
2026-01-23 09:01:34.53	103.41	19.86	-30.6	-33.5	13.0	3.28e-05	0	43	102	1048576	22	5006
2026-01-23 09:01:35.53	103.25	19.97	-30.6	-33.4	13.1	5.79e-05	0	43	102	1048576	22	4955
2026-01-23 09:01:36.54	103.09	20.07	-30.4	-32.9	13.5	1.29e-05	0	43	102	1048576	22	4765
2026-01-23 09:01:37.54	102.92	20.17	-30.3	-32.6	13.6	4.50e-06	0	43	102	1048576	22	4664
2026-01-23 09:01:38.54	102.76	20.27	-30.3	-32.9	13.7	7.00e-07	0	43	102	1048576	21	4895
2026-01-23 09:01:39.55	102.60	20.37	-30.2	-32.8	13.8	6.10e-06	0	43	102	1048576	21	4856
2026-01-23 09:01:40.56	102.43	20.48	-30.3	-33.0	13.7	3.80e-06	0	43	102	1048576	21	4914
2026-01-23 09:01:41.56	102.27	20.58	-30.2	-32.9	13.8	5.30e-06	0	43	102	1048576	21	4870
2026-01-23 09:01:42.57	102.10	20.68	-30.1	-32.5	14.0	3.00e-06	0	43	102	1048576	21	4742
2026-01-23 09:01:43.57	101.93	20.78	-30.1	-32.6	14.0	1.50e-06	0	43	102	1048576	21	4764
2026-01-23 09:01:44.58	101.76	20.89	-30.2	-32.7	13.9	2.20e-06	0	43	102	1048576	21	4827
2026-01-23 09:01:45.58	101.59	20.99	-30.3	-33.0	13.7	4.50e-06	0	43	102	1048576	21	4919
2026-01-23 09:01:46.58	101.42	21.09	-30.3	-33.1	13.6	7.60e-06	0	43	102	1048576	21	4973
2026-01-23 09:01:47.58	101.25	21.20	-30.3	-33.0	13.7	9.10e-06	0	43	102	1048576	21	4909
2026-01-23 09:01:48.59	101.07	21.30	-30.3	-32.9	13.8	6.10e-06	0	43	102	1048576	21	4889
2026-01-23 09:01:49.59	100.90	21.40	-30.4	-33.4	13.5	5.30e-06	0	43	102	1048576	21	5058
2026-01-23 09:01:50.59	100.72	21.51	-30.5	-33.5	13.4	1.37e-05	0	43	102	1048576	21	5097
2026-01-23 09:01:51.59	100.55	21.61	-30.5	-33.7	13.3	9.10e-06	0	43	102	1048576	21	5177
2026-01-23 09:01:52.59	100.37	21.71	-30.6	-33.9	13.2	2.82e-05	0	43	102	1048576	21	5248
2026-01-23 09:01:53.59	100.19	21.82	-30.5	-33.7	13.3	1.37e-05	0	43	102	1048576	21	5186
2026-01-23 09:01:54.59	100.01	21.92	-30.6	-33.8	13.3	2.28e-05	0	43	102	1048576	21	5212
2026-01-23 09:01:55.59	99.83	22.03	-30.6	-33.9	13.2	1.83e-05	0	43	102	1048576	21	5259
2026-01-23 09:01:56.60	99.64	22.13	-30.7	-34.0	13.1	4.42e-05	0	43	102	1048576	21	5279
2026-01-23 09:01:57.60	99.46	22.24	-30.6	-33.9	13.2	1.98e-05	0	43	102	1048576	21	5241
2026-01-23 09:01:58.61	99.27	22.34	-30.7	-34.0	13.1	2.44e-05	0	43	102	1048576	21	5281
2026-01-23 09:01:59.62	99.08	22.45	-30.8	-34.2	13.0	3.28e-05	0	43	102	1048576	21	5373
2026-01-23 09:02:00.62	98.90	22.55	-30.8	-34.2	13.0	6.63e-05	0	43	102	1048576	21	5376
2026-01-23 09:02:01.62	98.71	22.66	-30.7	-34.1	13.1	4.27e-05	0	43	102	1048576	21	5318
2026-01-23 09:02:02.63	98.52	22.76	-30.7	-34.1	13.1	3.66e-05	0	43	102	1048576	21	5330
2026-01-23 09:02:03.63	98.32	22.87	-30.8	-34.3	12.9	4.73e-05	0	43	102	1048576	21	5420
2026-01-23 09:02:04.64	98.13	22.97	-30.8	-34.4	12.9	4.34e-05	0	43	102	1048576	21	5456
2026-01-23 09:02:05.63	97.94	23.08	-30.8	-34.5	12.9	6.56e-05	0	43	102	1048576	21	5473
2026-01-23 09:02:06.63	97.74	23.18	-30.9	-34.5	12.8	5.79e-05	0	43	102	1048576	21	5491
2026-01-23 09:02:07.64	97.54	23.29	-30.9	-34.7	12.7	6.25e-05	0	43	102	1048576	21	5544
2026-01-23 09:02:08.63	97.35	23.39	-30.8	-34.4	12.9	6.86e-05	0	43	102	1048576	21	5442
2026-01-23 09:02:09.64	97.14	23.50	-30.8	-34.3	13.1	2.97e-05	0	43	102	1048576	21	5375
2026-01-23 09:02:10.65	96.94	23.61	-30.8	-34.2	13.1	3.43e-05	0	43	102	1048576	21	5367
2026-01-23 09:02:11.65	96.74	23.71	-30.8	-34.3	13.0	4.11e-05	0	43	102	1048576	21	5391
2026-01-23 09:02:12.65	96.53	23.82	-30.8	-34.2	13.0	3.35e-05	0	43	102	1048576	21	5359
2026-01-23 09:02:13.66	96.33	23.92	-30.8	-34.2	13.1	2.97e-05	0	43	102	1048576	21	5351
2026-01-23 09:02:14.66	96.12	24.03	-30.7	-34.0	13.2	1.83e-05	0	43	102	1048576	21	5289
2026-01-23 09:02:15.67	95.91	24.13	-30.9	-34.6	12.9	3.12e-05	0	43	102	1048576	21	5499
2026-01-23 09:02:16.67	95.70	24.24	-30.8	-34.4	12.9	5.95e-05	0	43	102	1048576	21	5425
2026-01-23 09:02:17.67	95.49	24.35	-30.8	-34.2	13.1	3.43e-05	0	43	102	1048576	21	5357
2026-01-23 09:02:18.67	95.28	24.45	-30.7	-34.1	13.2	2.74e-05	0	43	102	1048576	21	5322
2026-01-23 09:02:19.68	95.06	24.56	-30.6	-33.9	13.3	1.60e-05	0	43	102	1048576	21	5218
2026-01-23 09:02:20.68	94.85	24.66	-30.6	-33.8	13.4	2.05e-05	0	43	102	1048576	21	5201
2026-01-23 09:02:21.69	94.63	24.77	-30.7	-33.9	13.3	9.10e-06	0	43	102	1048576	21	5235
2026-01-23 09:02:22.69	94.41	24.87	-30.6	-33.7	13.5	1.52e-05	0	43	102	1048576	21	5148
2026-01-23 09:02:23.70	94.19	24.98	-30.5	-33.5	13.6	9.10e-06	0	43	102	1048576	21	5055
2026-01-23 09:02:24.70	93.97	25.09	-30.4	-33.3	13.7	3.80e-06	0	43	102	1048576	21	4987
2026-01-23 09:02:25.70	93.74	25.19	-30.4	-33.3	13.8	3.80e-06	0	43	102	1048576	21	4985
2026-01-23 09:02:26.70	93.52	25.30	-30.4	-33.2	13.8	5.30e-06	0	43	102	1048576	21	4966
2026-01-23 09:02:27.70	93.29	25.40	-30.5	-33.5	13.6	6.10e-06	0	43	102	1048576	21	5068
2026-01-23 09:02:28.71	93.06	25.51	-30.5	-33.4	13.6	8.30e-06	0	43	102	1048576	21	5042
2026-01-23 09:02:29.71	92.84	25.61	-30.3	-33.0	13.9	3.80e-06	0	43	102	1048576	21	4903
2026-01-23 09:02:30.72	92.60	25.72	-30.4	-33.2	13.8	1.50e-06	0	43	102	1048576	21	4977
2026-01-23 09:02:31.73	92.37	25.82	-30.4	-33.1	13.9	5.30e-06	0	43	102	1048576	21	4939
2026-01-23 09:02:32.73	92.14	25.93	-30.4	-33.3	13.8	5.30e-06	0	43	102	1048576	21	4982
2026-01-23 09:02:33.74	91.90	26.03	-30.5	-33.4	13.7	6.10e-06	0	43	102	1048576	21	5026
2026-01-23 09:02:34.74	91.66	26.14	-30.5	-33.4	13.7	3.80e-06	0	43	102	1048576	21	5027
2026-01-23 09:02:35.74	91.42	26.24	-30.4	-33.1	13.9	3.00e-06	0	43	102	1048576	21	4909
2026-01-23 09:02:36.75	91.18	26.35	-30.3	-32.9	14.1	6.10e-06	0	43	102	1048576	21	4839
2026-01-23 09:02:37.75	90.94	26.45	-30.4	-33.0	14.0	3.00e-06	0	43	102	1048576	21	4881
2026-01-23 09:02:38.76	90.70	26.56	-30.5	-33.3	13.8	2.20e-06	0	43	102	1048576	21	5002
2026-01-23 09:02:39.76	90.45	26.66	-30.6	-33.6	13.6	4.50e-06	0	43	102	1048576	21	5115
2026-01-23 09:02:40.77	90.20	26.77	-30.6	-33.8	13.4	7.60e-06	0	43	102	1048576	21	5186
2026-01-23 09:02:41.77	89.96	26.87	-30.7	-34.0	13.3	1.52e-05	0	43	102	1048576	21	5273
2026-01-23 09:02:42.77	89.71	26.97	-30.6	-33.7	13.5	1.37e-05	0	43	102	1048576	21	5154
2026-01-23 09:02:43.78	89.45	27.08	-30.5	-33.4	13.8	2.20e-06	0	43	102	1048576	21	5018
2026-01-23 09:02:44.77	89.20	27.18	-30.5	-33.4	13.8	5.30e-06	0	43	102	1048576	21	5008
2026-01-23 09:02:45.78	88.95	27.28	-30.4	-33.0	14.0	2.20e-06	0	43	102	1048576	21	4890
2026-01-23 09:02:46.79	88.69	27.38	-30.6	-33.6	13.6	3.80e-06	0	43	102	1048576	21	5096
2026-01-23 09:02:47.80	88.43	27.49	-30.7	-34.1	13.3	1.90e-05	0	43	102	1048576	21	5274
2026-01-23 09:02:48.80	88.17	27.59	-30.9	-34.5	13.1	2.36e-05	0	43	102	1048576	21	5446
2026-01-23 09:02:49.81	87.91	27.69	-30.9	-34.6	13.0	3.66e-05	0	43	102	1048576	21	5491
2026-01-23 09:02:50.81	87.64	27.79	-31.0	-34.4	12.7	5.87e-05	0	43	102	1048576	22	5299
2026-01-23 09:02:51.82	87.38	27.89	-31.1	-34.7	12.6	9.00e-05	0	43	102	1048576	22	5409
2026-01-23 09:02:52.82	87.11	27.99	-31.1	-34.6	12.6	8.69e-05	0	43	102	1048576	22	5393
2026-01-23 09:02:53.82	86.84	28.09	-31.3	-35.1	12.3	1.24e-04	0	43	102	1048576	22	5573
2026-01-23 09:02:54.82	86.57	28.19	-31.3	-35.1	12.3	1.94e-04	0	43	102	1048576	22	5599
2026-01-23 09:02:55.82	86.30	28.29	-31.5	-35.6	12.0	2.38e-04	0	43	102	1048576	22	5803
2026-01-23 09:02:56.83	86.03	28.39	-31.5	-35.3	11.9	4.23e-04	0	43	102	1048576	23	5550
2026-01-23 09:02:57.83	85.75	28.49	-31.5	-35.3	11.8	4.20e-04	0	43	102	1048576	23	5563
2026-01-23 09:02:58.84	85.47	28.59	-31.5	-35.4	11.8	5.49e-04	0	43	102	1048576	23	5602
2026-01-23 09:02:59.84	85.20	28.69	-31.6	-35.6	11.6	4.70e-04	0	43	102	1048576	23	5712
2026-01-23 09:03:00.84	84.92	28.79	-31.7	-35.8	11.6	7.51e-04	0	43	102	1048576	23	5779
2026-01-23 09:03:01.85	84.63	28.88	-31.8	-36.2	11.3	9.28e-04	0	43	102	1048576	23	5946
2026-01-23 09:03:02.85	84.35	28.98	-31.8	-36.1	11.3	1.17e-03	0	43	102	1048576	23	5927
2026-01-23 09:03:03.86	84.06	29.08	-31.8	-36.1	11.3	1.17e-03	0	43	102	1048576	23	5938
2026-01-23 09:03:04.87	83.77	29.17	-31.8	-36.2	11.2	1.13e-03	0	43	102	1048576	23	5963
2026-01-23 09:03:05.87	83.49	29.27	-31.8	-36.3	11.1	1.47e-03	0	43	102	1048576	23	6028
2026-01-23 09:03:06.88	83.19	29.36	-31.8	-36.2	11.2	1.39e-03	0	43	102	1048576	23	5986
2026-01-23 09:03:07.89	82.90	29.46	-31.9	-36.5	11.0	1.90e-03	0	43	102	1048576	23	6128
2026-01-23 09:03:08.89	82.61	29.55	-32.0	-36.7	10.9	2.11e-03	0	43	102	1048576	23	6187
2026-01-23 09:03:09.90	82.31	29.65	-32.1	-36.6	10.6	2.96e-03	0	43	102	1048576	24	6033
2026-01-23 09:03:10.91	82.01	29.74	-32.2	-37.0	10.3	5.28e-03	0	43	102	1048576	24	6256
2026-01-23 09:03:11.91	81.71	29.83	-32.3	-37.3	10.0	6.95e-03	0	43	102	1048576	24	6428
2026-01-23 09:03:12.92	81.41	29.92	-32.4	-37.8	9.6	1.02e-02	0	43	102	1048576	24	6714
2026-01-23 09:03:13.92	81.11	30.01	-32.3	-37.5	9.9	9.51e-03	0	43	102	1048576	24	6519
2026-01-23 09:03:14.93	80.80	30.11	-32.2	-37.2	10.1	8.07e-03	0	43	102	1048576	24	6345
2026-01-23 09:03:15.92	80.50	30.19	-32.3	-37.3	10.1	6.42e-03	0	43	102	1048576	24	6403
2026-01-23 09:03:16.93	80.19	30.28	-32.3	-37.5	9.9	7.03e-03	0	43	102	1048576	24	6551
2026-01-23 09:03:17.94	79.88	30.37	-32.2	-37.0	10.2	6.27e-03	0	43	102	1048576	24	6242
2026-01-23 09:03:18.95	79.56	30.46	-32.0	-36.5	10.6	3.88e-03	0	43	102	1048576	24	5997
2026-01-23 09:03:19.95	79.25	30.55	-31.9	-36.0	11.0	2.27e-03	0	43	102	1048576	24	5779
2026-01-23 09:03:20.96	78.94	30.63	-32.0	-36.3	10.8	2.31e-03	0	43	102	1048576	24	5883
2026-01-23 09:03:21.97	78.62	30.72	-32.0	-36.3	10.9	2.55e-03	0	43	102	1048576	24	5912
2026-01-23 09:03:22.98	78.30	30.81	-32.0	-36.2	10.9	2.07e-03	0	43	102	1048576	24	5836
2026-01-23 09:03:23.98	77.98	30.89	-31.9	-36.1	11.0	1.98e-03	0	43	102	1048576	24	5816
2026-01-23 09:03:24.98	77.66	30.97	-31.9	-36.0	11.0	2.03e-03	0	43	102	1048576	24	5788
2026-01-23 09:03:25.98	77.34	31.05	-31.9	-36.1	11.0	1.79e-03	0	43	102	1048576	24	5797
2026-01-23 09:03:26.99	77.01	31.14	-31.9	-36.0	11.1	1.78e-03	0	43	102	1048576	24	5756
2026-01-23 09:03:27.99	76.68	31.22	-31.8	-35.6	11.3	1.30e-03	0	43	102	1048576	24	5586
2026-01-23 09:03:29.00	76.35	31.30	-31.7	-35.4	11.5	7.54e-04	0	43	102	1048576	24	5466
2026-01-23 09:03:30.01	76.02	31.38	-32.0	-36.1	11.0	1.23e-03	0	43	102	1048576	24	5826
2026-01-23 09:03:31.01	75.69	31.46	-31.8	-35.7	11.3	1.37e-03	0	43	102	1048576	24	5617
2026-01-23 09:03:32.01	75.36	31.53	-31.7	-35.3	11.5	8.54e-04	0	43	102	1048576	24	5438
2026-01-23 09:03:33.01	75.03	31.61	-31.7	-35.1	11.7	5.52e-04	0	43	102	1048576	24	5369
2026-01-23 09:03:34.02	74.69	31.69	-31.8	-35.5	11.4	8.25e-04	0	43	102	1048576	24	5546
2026-01-23 09:03:35.02	74.35	31.76	-31.8	-35.4	11.5	6.90e-04	0	43	102	1048576	24	5504
2026-01-23 09:03:36.02	74.02	31.83	-31.9	-35.8	11.3	8.28e-04	0	43	102	1048576	24	5641
2026-01-23 09:03:37.03	73.67	31.91	-31.8	-35.4	11.5	9.93e-04	0	43	102	1048576	24	5490
2026-01-23 09:03:38.03	73.33	31.98	-31.8	-35.6	11.4	8.21e-04	0	43	102	1048576	24	5575
2026-01-23 09:03:39.03	72.99	32.05	-31.9	-35.8	11.3	1.24e-03	0	43	102	1048576	24	5645
2026-01-23 09:03:40.04	72.64	32.12	-31.7	-35.2	11.7	1.05e-03	0	43	102	1048576	24	5370
2026-01-23 09:03:41.04	72.30	32.19	-31.6	-35.0	11.8	4.90e-04	0	43	102	1048576	24	5314
2026-01-23 09:03:42.04	71.95	32.26	-31.6	-35.0	11.8	5.03e-04	0	43	102	1048576	24	5316
2026-01-23 09:03:43.04	71.60	32.32	-31.8	-35.5	11.5	6.29e-04	0	43	102	1048576	24	5512
2026-01-23 09:03:44.04	71.25	32.39	-31.7	-35.3	11.7	7.14e-04	0	43	102	1048576	24	5423
2026-01-23 09:03:45.05	70.90	32.45	-31.6	-34.8	12.0	4.77e-04	0	43	102	1048576	24	5200
2026-01-23 09:03:46.05	70.54	32.52	-31.5	-34.7	12.0	3.56e-04	0	43	102	1048576	24	5178
2026-01-23 09:03:47.06	70.19	32.58	-31.7	-35.1	11.8	3.20e-04	0	43	102	1048576	24	5322
2026-01-23 09:03:48.07	69.83	32.64	-31.5	-34.4	12.3	1.79e-04	0	43	102	1048576	24	5073
2026-01-23 09:03:49.07	69.47	32.70	-31.3	-34.1	12.5	1.33e-04	0	43	102	1048576	24	4935
2026-01-23 09:03:50.07	69.11	32.76	-31.3	-34.5	12.5	1.22e-04	0	43	102	1048576	23	5221
2026-01-23 09:03:51.07	68.76	32.82	-31.4	-34.8	12.3	1.53e-04	0	43	102	1048576	23	5334
2026-01-23 09:03:52.08	68.39	32.87	-31.4	-34.8	12.3	2.07e-04	0	43	102	1048576	23	5323
2026-01-23 09:03:53.09	68.03	32.93	-31.4	-34.8	12.4	1.50e-04	0	43	102	1048576	23	5323
2026-01-23 09:03:54.10	67.66	32.98	-31.5	-35.0	12.2	1.96e-04	0	43	102	1048576	23	5408
2026-01-23 09:03:55.10	67.30	33.04	-31.4	-34.7	12.4	1.65e-04	0	43	102	1048576	23	5282
2026-01-23 09:03:56.10	66.93	33.09	-31.4	-34.8	12.3	1.52e-04	0	43	102	1048576	23	5314
2026-01-23 09:03:57.11	66.56	33.14	-31.2	-34.2	12.7	9.61e-05	0	43	102	1048576	23	5082
2026-01-23 09:03:58.11	66.19	33.19	-31.2	-34.1	12.8	5.41e-05	0	43	102	1048576	23	5076
2026-01-23 09:03:59.11	65.82	33.24	-31.2	-34.4	12.6	9.91e-05	0	43	102	1048576	23	5163
2026-01-23 09:04:00.12	65.45	33.28	-30.9	-33.4	13.2	6.02e-05	0	43	102	1048576	23	4796
2026-01-23 09:04:01.12	65.08	33.33	-30.7	-33.3	13.7	7.60e-06	0	43	102	1048576	22	4863
2026-01-23 09:04:02.13	64.70	33.37	-30.5	-32.9	13.9	4.50e-06	0	43	102	1048576	22	4736
2026-01-23 09:04:03.13	64.33	33.42	-30.7	-33.2	13.7	3.00e-06	0	43	102	1048576	22	4844
2026-01-23 09:04:04.13	63.96	33.46	-30.5	-32.9	14.0	4.50e-06	0	43	102	1048576	22	4715
2026-01-23 09:04:05.12	63.59	33.50	-30.7	-33.4	13.6	6.80e-06	0	43	102	1048576	22	4882
2026-01-23 09:04:06.13	63.21	33.54	-30.8	-33.7	13.5	8.30e-06	0	43	102	1048576	22	4993
2026-01-23 09:04:07.13	62.83	33.57	-30.9	-33.9	13.3	1.52e-05	0	43	102	1048576	22	5087
2026-01-23 09:04:08.13	62.45	33.61	-30.9	-33.8	13.3	1.14e-05	0	43	102	1048576	22	5045
2026-01-23 09:04:09.14	62.07	33.64	-30.9	-33.9	13.2	1.67e-05	0	43	102	1048576	22	5088
2026-01-23 09:04:10.15	61.69	33.68	-31.0	-34.2	13.1	1.98e-05	0	43	102	1048576	22	5188
2026-01-23 09:04:11.15	61.31	33.71	-31.0	-34.0	13.2	1.98e-05	0	43	102	1048576	22	5135
2026-01-23 09:04:12.15	60.93	33.74	-31.0	-34.1	13.1	2.21e-05	0	43	102	1048576	22	5156
2026-01-23 09:04:13.15	60.55	33.77	-31.2	-34.7	12.7	5.79e-05	0	43	102	1048576	22	5378
2026-01-23 09:04:14.16	60.16	33.80	-31.2	-34.7	12.8	7.55e-05	0	43	102	1048576	22	5398
2026-01-23 09:04:15.16	59.78	33.82	-31.3	-35.1	12.5	1.01e-04	0	43	102	1048576	22	5531
2026-01-23 09:04:16.16	59.40	33.85	-31.3	-34.9	12.6	8.54e-05	0	43	102	1048576	22	5469
2026-01-23 09:04:17.17	59.01	33.87	-31.4	-35.2	12.4	9.15e-05	0	43	102	1048576	22	5569
2026-01-23 09:04:18.17	58.63	33.89	-31.3	-35.1	12.5	1.19e-04	0	43	102	1048576	22	5551
2026-01-23 09:04:19.18	58.24	33.91	-31.4	-35.2	12.4	1.85e-04	0	43	102	1048576	22	5603
2026-01-23 09:04:20.19	57.85	33.93	-31.3	-34.9	12.6	1.23e-04	0	43	102	1048576	22	5484
2026-01-23 09:04:21.19	57.46	33.95	-31.2	-34.6	12.9	9.00e-05	0	43	102	1048576	22	5332
2026-01-23 09:04:22.19	57.08	33.96	-31.2	-34.6	12.9	3.58e-05	0	43	102	1048576	22	5326
2026-01-23 09:04:23.20	56.69	33.98	-31.2	-34.6	12.8	3.43e-05	0	43	102	1048576	22	5341
2026-01-23 09:04:24.20	56.30	33.99	-31.1	-34.4	13.0	4.73e-05	0	43	102	1048576	22	5251
2026-01-23 09:04:25.19	55.92	34.00	-31.3	-34.9	12.6	1.23e-04	0	43	102	1048576	22	5459
2026-01-23 09:04:26.20	55.53	34.01	-31.1	-34.5	12.8	5.87e-05	0	43	102	1048576	22	5283
2026-01-23 09:04:27.20	55.14	34.02	-31.1	-34.4	13.0	4.42e-05	0	43	102	1048576	22	5239
2026-01-23 09:04:28.21	54.75	34.03	-31.1	-34.4	12.9	3.12e-05	0	43	102	1048576	22	5270
2026-01-23 09:04:29.21	54.36	34.03	-31.3	-34.9	12.7	6.40e-05	0	43	102	1048576	22	5463
2026-01-23 09:04:30.22	53.97	34.04	-31.2	-34.6	12.7	5.41e-05	0	43	102	1048576	22	5362
2026-01-23 09:04:31.22	53.58	34.04	-31.0	-34.3	13.0	4.42e-05	0	43	102	1048576	22	5212
2026-01-23 09:04:32.23	53.19	34.04	-30.9	-33.9	13.2	2.28e-05	0	43	102	1048576	22	5079
2026-01-23 09:04:33.24	52.80	34.04	-30.9	-34.0	13.3	1.29e-05	0	43	102	1048576	22	5097
2026-01-23 09:04:34.24	52.41	34.04	-31.1	-34.4	13.0	3.35e-05	0	43	102	1048576	22	5269
2026-01-23 09:04:35.24	52.03	34.04	-31.0	-34.2	13.1	2.59e-05	0	43	102	1048576	22	5189
2026-01-23 09:04:36.25	51.64	34.03	-31.1	-34.4	13.0	2.97e-05	0	43	102	1048576	22	5248
2026-01-23 09:04:37.26	51.24	34.02	-31.3	-34.9	12.6	4.80e-05	0	43	102	1048576	22	5485
2026-01-23 09:04:38.26	50.86	34.02	-31.5	-35.1	12.1	1.96e-04	0	43	102	1048576	23	5460
2026-01-23 09:04:39.27	50.47	34.01	-31.5	-35.2	12.0	2.97e-04	0	43	102	1048576	23	5502
2026-01-23 09:04:40.27	50.08	34.00	-31.6	-35.4	11.9	3.23e-04	0	43	102	1048576	23	5588
2026-01-23 09:04:41.27	49.69	33.98	-31.6	-35.4	12.0	4.27e-04	0	43	102	1048576	23	5564
2026-01-23 09:04:42.27	49.31	33.97	-31.4	-34.9	12.3	2.37e-04	0	43	102	1048576	23	5350
2026-01-23 09:04:43.28	48.92	33.95	-31.4	-34.8	12.4	1.86e-04	0	43	102	1048576	23	5309
2026-01-23 09:04:44.28	48.53	33.94	-31.5	-35.1	12.1	2.05e-04	0	43	102	1048576	23	5449
2026-01-23 09:04:45.29	48.14	33.92	-31.5	-35.2	12.0	3.15e-04	0	43	102	1048576	23	5472
2026-01-23 09:04:46.29	47.76	33.90	-31.5	-35.1	12.1	1.82e-04	0	43	102	1048576	23	5448
2026-01-23 09:04:47.30	47.37	33.88	-31.5	-35.2	12.1	2.99e-04	0	43	102	1048576	23	5464
2026-01-23 09:04:48.31	46.98	33.85	-31.7	-35.7	11.8	3.23e-04	0	43	102	1048576	23	5694
2026-01-23 09:04:49.32	46.60	33.83	-31.8	-36.0	11.6	6.51e-04	0	43	102	1048576	23	5832
2026-01-23 09:04:50.32	46.22	33.80	-31.8	-36.0	11.5	8.46e-04	0	43	102	1048576	23	5817
2026-01-23 09:04:51.32	45.83	33.78	-31.7	-35.8	11.7	7.47e-04	0	43	102	1048576	23	5738
2026-01-23 09:04:52.31	45.46	33.75	-31.7	-35.8	11.7	6.32e-04	0	43	102	1048576	23	5742
2026-01-23 09:04:53.31	45.08	33.72	-31.8	-35.9	11.5	8.25e-04	0	43	102	1048576	23	5805
2026-01-23 09:04:54.31	44.70	33.69	-31.7	-35.8	11.6	5.42e-04	0	43	102	1048576	23	5754
2026-01-23 09:04:55.31	44.32	33.66	-31.7	-35.7	11.8	5.30e-04	0	43	102	1048576	23	5679
2026-01-23 09:04:56.31	43.94	33.62	-31.8	-36.0	11.4	8.77e-04	0	43	102	1048576	23	5857
2026-01-23 09:04:57.32	43.56	33.59	-31.8	-36.0	11.6	7.13e-04	0	43	102	1048576	23	5821
2026-01-23 09:04:58.33	43.18	33.55	-31.9	-36.2	11.3	8.72e-04	0	43	102	1048576	23	5931
2026-01-23 09:04:59.32	42.81	33.51	-31.9	-36.2	11.3	1.07e-03	0	43	102	1048576	23	5953
2026-01-23 09:05:00.32	42.43	33.47	-31.8	-36.1	11.4	1.18e-03	0	43	102	1048576	23	5890
2026-01-23 09:05:01.33	42.06	33.43	-31.9	-36.3	11.3	1.08e-03	0	43	102	1048576	23	5961
2026-01-23 09:05:02.34	41.68	33.39	-31.9	-36.3	11.3	1.11e-03	0	43	102	1048576	23	5958
2026-01-23 09:05:03.34	41.31	33.34	-31.9	-36.2	11.3	1.24e-03	0	43	102	1048576	23	5935
2026-01-23 09:05:04.35	40.94	33.30	-31.8	-35.9	11.5	9.25e-04	0	43	102	1048576	23	5809
2026-01-23 09:05:05.35	40.57	33.25	-31.7	-35.7	11.7	6.00e-04	0	43	102	1048576	23	5693
2026-01-23 09:05:06.35	40.20	33.21	-31.7	-35.7	11.7	5.55e-04	0	43	102	1048576	23	5694
2026-01-23 09:05:07.35	39.83	33.16	-31.8	-36.0	11.5	7.24e-04	0	43	102	1048576	23	5854
2026-01-23 09:05:08.36	39.46	33.11	-31.9	-36.2	11.4	1.17e-03	0	43	102	1048576	23	5923
2026-01-23 09:05:09.36	39.10	33.06	-31.8	-36.1	11.4	9.82e-04	0	43	102	1048576	23	5871
2026-01-23 09:05:10.36	38.73	33.00	-31.8	-35.9	11.5	8.77e-04	0	43	102	1048576	23	5810
2026-01-23 09:05:11.37	38.37	32.95	-31.7	-35.7	11.8	7.62e-04	0	43	102	1048576	23	5691
2026-01-23 09:05:12.37	38.00	32.89	-31.6	-35.4	11.9	4.81e-04	0	43	102	1048576	23	5565
2026-01-23 09:05:13.38	37.64	32.84	-31.6	-35.3	12.0	3.52e-04	0	43	102	1048576	23	5516
2026-01-23 09:05:14.38	37.28	32.78	-31.6	-35.3	12.0	3.21e-04	0	43	102	1048576	23	5508
2026-01-23 09:05:15.38	36.92	32.72	-31.6	-35.4	11.9	4.36e-04	0	43	102	1048576	23	5567
2026-01-23 09:05:16.39	36.56	32.66	-31.5	-35.1	12.1	3.33e-04	0	43	102	1048576	23	5464
2026-01-23 09:05:17.40	36.21	32.60	-31.5	-35.2	12.1	3.02e-04	0	43	102	1048576	23	5469
2026-01-23 09:05:18.41	35.85	32.54	-31.6	-35.3	12.0	3.49e-04	0	43	102	1048576	23	5516
2026-01-23 09:05:19.42	35.49	32.48	-31.4	-34.8	12.3	1.99e-04	0	43	102	1048576	23	5343
2026-01-23 09:05:20.41	35.15	32.41	-31.4	-34.8	12.3	1.56e-04	0	43	102	1048576	23	5320
2026-01-23 09:05:21.42	34.79	32.35	-31.4	-34.9	12.3	2.10e-04	0	43	102	1048576	23	5345
2026-01-23 09:05:22.43	34.44	32.28	-31.4	-34.9	12.3	1.88e-04	0	43	102	1048576	23	5345
2026-01-23 09:05:23.43	34.09	32.21	-31.5	-35.1	12.0	2.52e-04	0	43	102	1048576	23	5475
2026-01-23 09:05:24.44	33.75	32.14	-31.7	-35.7	11.7	4.90e-04	0	43	102	1048576	23	5689
2026-01-23 09:05:25.44	33.40	32.07	-31.8	-36.0	11.5	8.19e-04	0	43	102	1048576	23	5845
2026-01-23 09:05:26.44	33.06	32.00	-31.9	-36.3	11.2	1.18e-03	0	43	102	1048576	23	5998
2026-01-23 09:05:27.44	32.72	31.93	-31.9	-36.5	11.1	1.40e-03	0	43	102	1048576	23	6072
2026-01-23 09:05:28.45	32.38	31.86	-31.9	-36.6	11.0	1.68e-03	0	43	102	1048576	23	6199
2026-01-23 09:05:29.45	32.04	31.79	-31.9	-36.7	10.9	2.38e-03	0	43	102	1048576	23	6241
2026-01-23 09:05:30.46	31.70	31.71	-31.9	-36.7	10.8	2.24e-03	0	43	102	1048576	23	6231
2026-01-23 09:05:31.46	31.37	31.64	-32.0	-36.3	10.9	2.09e-03	0	43	102	1048576	24	5888
2026-01-23 09:05:32.47	31.03	31.56	-32.1	-36.6	10.7	2.76e-03	0	43	102	1048576	24	6015
2026-01-23 09:05:33.48	30.70	31.48	-32.0	-36.4	10.7	4.17e-03	0	43	102	1048576	24	5998
2026-01-23 09:05:34.48	30.37	31.41	-31.9	-36.1	10.9	2.67e-03	0	43	102	1048576	24	5868
2026-01-23 09:05:35.49	30.04	31.33	-31.9	-35.8	11.2	1.40e-03	0	43	102	1048576	24	5685
2026-01-23 09:05:36.49	29.71	31.25	-30.9	-35.4	11.1	1.45e-03	0	43	102	1048576	23	6051
2026-01-23 09:05:37.50	29.38	31.17	-29.1	-35.7	10.8	1.88e-03	0	44	102	1048576	19	7723
2026-01-23 09:05:38.51	29.05	31.09	-28.4	-35.6	10.5	3.15e-03	0	43	102	1048576	18	8318
2026-01-23 09:05:39.52	28.73	31.00	-30.0	-36.3	10.4	3.36e-03	0	43	102	1048576	20	7465
2026-01-23 09:05:40.52	28.41	30.92	-30.9	-36.6	10.6	4.10e-03	0	43	102	1048576	21	6986
2026-01-23 09:05:41.52	28.09	30.84	-30.9	-36.3	11.0	2.54e-03	0	43	102	1048576	21	6684
2026-01-23 09:05:42.52	27.78	30.75	-31.3	-36.3	11.1	1.63e-03	0	43	102	1048576	22	6373
2026-01-23 09:05:43.53	27.46	30.67	-31.6	-36.1	11.1	1.46e-03	0	43	102	1048576	23	6013
2026-01-23 09:05:44.54	27.14	30.58	-31.8	-36.4	11.0	1.47e-03	0	43	102	1048576	23	6103
2026-01-23 09:05:45.53	26.83	30.50	-31.9	-36.4	11.1	1.83e-03	0	43	102	1048576	23	6081
2026-01-23 09:05:46.53	26.52	30.41	-31.8	-36.3	11.1	1.57e-03	0	43	102	1048576	23	6036
2026-01-23 09:05:47.53	26.22	30.32	-31.8	-36.3	11.1	1.26e-03	0	43	102	1048576	23	6027
2026-01-23 09:05:48.54	25.91	30.23	-31.8	-36.3	11.1	1.79e-03	0	43	102	1048576	23	6024
2026-01-23 09:05:49.55	25.60	30.14	-31.7	-35.8	11.5	1.05e-03	0	43	102	1048576	23	5752
2026-01-23 09:05:50.54	25.30	30.05	-31.7	-35.6	11.6	6.44e-04	0	43	102	1048576	23	5692
2026-01-23 09:05:51.55	24.99	29.96	-31.6	-35.5	11.7	5.71e-04	0	43	102	1048576	23	5645
2026-01-23 09:05:52.55	24.69	29.87	-31.7	-35.7	11.6	7.48e-04	0	43	102	1048576	23	5718
2026-01-23 09:05:53.56	24.39	29.78	-31.7	-35.8	11.6	6.30e-04	0	43	102	1048576	23	5757
2026-01-23 09:05:54.57	24.10	29.69	-31.7	-35.9	11.4	8.11e-04	0	43	102	1048576	23	5824
2026-01-23 09:05:55.58	23.80	29.59	-31.7	-35.7	11.6	8.11e-04	0	43	102	1048576	23	5736
2026-01-23 09:05:56.58	23.51	29.50	-31.7	-35.7	11.6	6.64e-04	0	43	102	1048576	23	5701
2026-01-23 09:05:57.58	23.21	29.41	-31.6	-35.5	11.6	6.40e-04	0	43	102	1048576	23	5649
2026-01-23 09:05:58.58	22.92	29.31	-31.6	-35.6	11.6	6.51e-04	0	43	102	1048576	23	5681
2026-01-23 09:05:59.59	22.63	29.22	-31.6	-35.6	11.7	5.99e-04	0	43	102	1048576	23	5696
2026-01-23 09:06:00.59	22.35	29.12	-31.7	-35.9	11.4	7.72e-04	0	43	102	1048576	23	5822
2026-01-23 09:06:01.58	22.07	29.03	-31.8	-36.0	11.4	9.47e-04	0	43	102	1048576	23	5862
2026-01-23 09:06:02.59	21.78	28.93	-31.8	-36.0	11.4	1.19e-03	0	43	102	1048576	23	5867
2026-01-23 09:06:03.59	21.50	28.83	-31.7	-35.7	11.6	8.83e-04	0	43	102	1048576	23	5720
2026-01-23 09:06:04.60	21.22	28.74	-31.6	-35.6	11.7	7.07e-04	0	43	102	1048576	23	5668
2026-01-23 09:06:05.60	20.94	28.64	-31.6	-35.5	11.7	6.20e-04	0	43	102	1048576	23	5617
2026-01-23 09:06:06.60	20.67	28.54	-31.7	-35.7	11.6	6.29e-04	0	43	102	1048576	23	5719
2026-01-23 09:06:07.61	20.39	28.44	-31.7	-35.8	11.5	9.44e-04	0	43	102	1048576	23	5753
2026-01-23 09:06:08.62	20.12	28.34	-31.7	-35.8	11.5	9.11e-04	0	43	102	1048576	23	5778
2026-01-23 09:06:09.63	19.84	28.24	-31.6	-35.6	11.6	7.25e-04	0	43	102	1048576	23	5692
2026-01-23 09:06:10.63	19.57	28.14	-31.7	-35.7	11.6	7.00e-04	0	43	102	1048576	23	5719
2026-01-23 09:06:11.64	19.30	28.04	-31.6	-35.6	11.6	8.26e-04	0	43	102	1048576	23	5672
2026-01-23 09:06:12.64	19.04	27.94	-31.6	-35.4	11.7	5.51e-04	0	43	102	1048576	23	5616
2026-01-23 09:06:13.65	18.77	27.84	-31.5	-35.2	11.9	5.06e-04	0	43	102	1048576	23	5504
2026-01-23 09:06:14.65	18.51	27.74	-31.5	-35.3	11.8	4.00e-04	0	43	102	1048576	23	5567
2026-01-23 09:06:15.65	18.25	27.64	-31.3	-34.7	12.2	5.87e-04	0	43	102	1048576	23	5327
2026-01-23 09:06:16.66	17.99	27.54	-31.0	-33.8	12.8	1.06e-04	0	43	102	1048576	23	4950
2026-01-23 09:06:17.67	17.73	27.44	-30.8	-33.3	13.2	3.12e-05	0	43	102	1048576	23	4763
2026-01-23 09:06:18.67	17.47	27.34	-30.7	-33.3	13.4	1.83e-05	0	43	102	1048576	22	4891
2026-01-23 09:06:19.68	17.22	27.23	-30.6	-33.3	13.5	7.60e-06	0	44	102	1048576	22	4868
2026-01-23 09:06:20.69	16.96	27.13	-30.7	-33.4	13.4	1.44e-05	0	43	102	1048576	22	4897
2026-01-23 09:06:21.69	16.71	27.03	-30.6	-33.0	13.6	1.29e-05	0	43	102	1048576	22	4788
2026-01-23 09:06:22.69	16.46	26.92	-30.3	-32.4	14.0	4.50e-06	0	43	102	1048576	22	4569
2026-01-23 09:06:23.70	16.21	26.82	-30.2	-32.5	14.3	7.00e-07	0	43	102	1048576	21	4707
2026-01-23 09:06:24.71	15.97	26.72	-30.0	-32.0	14.5	7.00e-07	0	43	102	1048576	21	4555
2026-01-23 09:06:25.71	15.72	26.61	-29.9	-31.7	14.7	0.00e+00	0	43	102	1048576	21	4455
2026-01-23 09:06:26.71	15.48	26.51	-29.9	-31.8	14.7	7.00e-07	0	43	102	1048576	21	4497
2026-01-23 09:06:27.72	15.24	26.41	-29.9	-31.8	14.7	1.50e-06	0	43	102	1048576	21	4494
2026-01-23 09:06:28.72	15.00	26.30	-30.0	-32.1	14.5	0.00e+00	0	43	102	1048576	21	4580
2026-01-23 09:06:29.72	14.76	26.20	-29.9	-31.7	14.7	7.00e-07	0	43	102	1048576	21	4462
2026-01-23 09:06:30.73	14.52	26.09	-29.6	-31.7	15.0	0.00e+00	0	43	102	1048576	20	4550
2026-01-23 09:06:31.73	14.29	25.99	-29.4	-31.1	15.3	0.00e+00	0	43	102	1048576	20	4384
2026-01-23 09:06:32.74	14.05	25.88	-29.3	-30.9	15.5	0.00e+00	0	43	102	1048576	20	4308
2026-01-23 09:06:33.74	13.82	25.78	-29.4	-31.4	15.5	7.00e-07	0	43	102	1048576	19	4579
2026-01-23 09:06:34.74	13.59	25.68	-29.3	-31.4	15.5	0.00e+00	0	43	102	1048576	19	4549
2026-01-23 09:06:35.75	13.36	25.57	-29.4	-31.5	15.5	0.00e+00	0	44	102	1048576	19	4611
2026-01-23 09:06:36.75	13.14	25.47	-29.4	-31.5	15.4	0.00e+00	0	43	102	1048576	19	4613
2026-01-23 09:06:37.74	12.91	25.36	-29.4	-31.6	15.4	0.00e+00	0	43	102	1048576	19	4631
2026-01-23 09:06:38.75	12.69	25.26	-29.4	-31.6	15.4	0.00e+00	0	43	102	1048576	19	4620
2026-01-23 09:06:39.75	12.46	25.15	-29.4	-31.5	15.5	0.00e+00	0	43	102	1048576	19	4608
2026-01-23 09:06:40.76	12.24	25.05	-29.4	-31.6	15.4	0.00e+00	0	44	102	1048576	19	4629
2026-01-23 09:06:41.76	12.02	24.94	-29.3	-31.3	15.6	0.00e+00	0	43	102	1048576	19	4532
2026-01-23 09:06:42.76	11.80	24.84	-29.2	-31.2	15.7	0.00e+00	0	44	102	1048576	19	4498
2026-01-23 09:06:43.76	11.59	24.73	-29.2	-31.1	15.7	0.00e+00	0	44	102	1048576	19	4485
2026-01-23 09:06:44.77	11.37	24.63	-29.1	-30.9	15.8	0.00e+00	0	43	102	1048576	19	4410
2026-01-23 09:06:45.77	11.16	24.52	-29.2	-31.0	15.8	0.00e+00	0	43	102	1048576	19	4428
2026-01-23 09:06:46.77	10.95	24.42	-29.2	-31.0	15.8	0.00e+00	0	44	102	1048576	19	4427
2026-01-23 09:06:47.77	10.74	24.31	-29.2	-31.1	15.7	0.00e+00	0	43	102	1048576	19	4486
2026-01-23 09:06:48.77	10.53	24.21	-29.4	-31.4	15.5	0.00e+00	0	43	102	1048576	19	4577
2026-01-23 09:06:49.78	10.32	24.10	-29.4	-31.6	15.4	0.00e+00	0	43	102	1048576	19	4643
2026-01-23 09:06:50.78	10.11	23.99	-29.5	-31.8	15.2	0.00e+00	0	43	102	1048576	19	4706
2026-01-23 09:06:51.79	9.90	23.89	-29.5	-31.7	15.3	1.50e-06	0	43	102	1048576	19	4671
2026-01-23 09:06:52.79	9.70	23.78	-29.4	-31.6	15.4	0.00e+00	0	44	102	1048576	19	4616
2026-01-23 09:06:53.80	9.50	23.68	-29.5	-31.9	15.2	7.00e-07	0	43	102	1048576	19	4741
2026-01-23 09:06:54.80	9.30	23.57	-29.6	-32.0	15.1	0.00e+00	0	44	102	1048576	19	4766
2026-01-23 09:06:55.81	9.10	23.47	-29.6	-32.2	15.0	0.00e+00	0	43	102	1048576	19	4823
2026-01-23 09:06:56.82	8.90	23.36	-29.7	-32.4	14.9	0.00e+00	0	43	102	1048576	19	4891
2026-01-23 09:06:57.82	8.70	23.26	-29.7	-32.3	14.9	0.00e+00	0	43	102	1048576	19	4860
2026-01-23 09:06:58.83	8.50	23.15	-29.6	-32.1	15.0	0.00e+00	0	43	102	1048576	19	4798
2026-01-23 09:06:59.83	8.31	23.05	-29.7	-32.3	14.9	0.00e+00	0	43	102	1048576	19	4851
2026-01-23 09:07:00.83	8.12	22.94	-29.7	-32.4	14.9	7.00e-07	0	43	102	1048576	19	4892
2026-01-23 09:07:01.84	7.92	22.84	-29.7	-32.4	14.8	7.00e-07	0	43	102	1048576	19	4900
2026-01-23 09:07:02.84	7.73	22.73	-29.9	-32.8	14.6	0.00e+00	0	43	102	1048576	19	5052
2026-01-23 09:07:03.84	7.54	22.63	-29.8	-32.6	14.7	0.00e+00	0	44	102	1048576	19	4966
2026-01-23 09:07:04.85	7.35	22.52	-29.8	-32.6	14.7	7.00e-07	0	43	102	1048576	19	4981
2026-01-23 09:07:05.85	7.17	22.42	-29.8	-32.6	14.7	7.00e-07	0	43	102	1048576	19	4963
2026-01-23 09:07:06.85	6.98	22.31	-29.9	-32.9	14.6	0.00e+00	0	43	102	1048576	19	5063
2026-01-23 09:07:07.86	6.80	22.21	-29.9	-33.0	14.4	7.00e-07	0	43	102	1048576	19	5112
2026-01-23 09:07:08.86	6.62	22.11	-30.0	-33.0	14.4	0.00e+00	0	43	102	1048576	19	5124
2026-01-23 09:07:09.87	6.43	22.00	-29.9	-32.5	14.4	7.00e-07	0	43	102	1048576	20	4835
2026-01-23 09:07:10.87	6.25	21.90	-30.1	-32.9	14.2	7.00e-07	0	43	102	1048576	20	4957
2026-01-23 09:07:11.88	6.07	21.79	-30.0	-32.6	14.3	0.00e+00	0	43	102	1048576	20	4858
2026-01-23 09:07:12.88	5.90	21.69	-29.9	-32.3	14.5	0.00e+00	0	43	102	1048576	20	4767
2026-01-23 09:07:13.89	5.72	21.59	-30.0	-32.6	14.3	0.00e+00	0	43	102	1048576	20	4861
2026-01-23 09:07:14.90	5.54	21.48	-29.9	-32.5	14.3	1.50e-06	0	43	102	1048576	20	4833
2026-01-23 09:07:15.90	5.37	21.38	-30.2	-33.1	14.0	2.20e-06	0	43	102	1048576	20	5032
2026-01-23 09:07:16.90	5.20	21.28	-30.1	-32.8	14.2	1.50e-06	0	43	102	1048576	20	4945
2026-01-23 09:07:17.91	5.02	21.17	-30.3	-33.4	13.8	0.00e+00	0	43	102	1048576	20	5166
2026-01-23 09:07:18.91	4.85	21.07	-30.1	-33.0	14.0	3.80e-06	0	43	102	1048576	20	5014
2026-01-23 09:07:19.91	4.68	20.97	-30.0	-32.8	14.2	1.50e-06	0	43	102	1048576	20	4938
2026-01-23 09:07:20.92	4.51	20.86	-30.1	-32.8	14.2	2.20e-06	0	43	102	1048576	20	4951
2026-01-23 09:07:21.92	4.35	20.76	-30.1	-32.9	14.1	3.00e-06	0	43	102	1048576	20	4993
2026-01-23 09:07:22.93	4.18	20.66	-30.2	-33.1	14.0	2.20e-06	0	43	102	1048576	20	5061
2026-01-23 09:07:23.93	4.01	20.56	-30.2	-33.2	13.9	2.20e-06	0	43	102	1048576	20	5076
2026-01-23 09:07:24.93	3.85	20.46	-30.3	-33.4	13.8	2.20e-06	0	43	102	1048576	20	5158
2026-01-23 09:07:25.93	3.69	20.35	-30.3	-33.4	13.8	6.10e-06	0	43	102	1048576	20	5169
2026-01-23 09:07:26.93	3.53	20.25	-30.3	-33.6	13.6	8.30e-06	0	43	102	1048576	20	5244
2026-01-23 09:07:27.94	3.37	20.15	-30.3	-33.5	13.6	7.60e-06	0	43	102	1048576	20	5217
2026-01-23 09:07:28.94	3.21	20.05	-30.5	-34.0	13.4	1.14e-05	0	43	102	1048576	20	5382
2026-01-23 09:07:29.95	3.05	19.95	-30.4	-33.8	13.5	1.52e-05	0	43	102	1048576	20	5326
2026-01-23 09:07:30.96	2.89	19.85	-30.5	-34.0	13.4	1.14e-05	0	43	102	1048576	20	5381
2026-01-23 09:07:31.97	2.73	19.75	-30.5	-33.6	13.2	1.90e-05	0	43	102	1048576	21	5156
2026-01-23 09:07:32.98	2.57	19.64	-30.6	-33.9	13.1	2.36e-05	0	43	102	1048576	21	5259
2026-01-23 09:07:33.98	2.42	19.54	-30.6	-33.9	13.1	2.82e-05	0	43	102	1048576	21	5233
2026-01-23 09:07:34.98	2.27	19.45	-30.7	-34.0	13.0	2.97e-05	0	43	102	1048576	21	5291
2026-01-23 09:07:35.99	2.11	19.34	-30.7	-34.2	12.9	3.81e-05	0	43	102	1048576	21	5357
2026-01-23 09:07:36.99	1.96	19.25	-30.6	-33.8	13.1	3.89e-05	0	43	102	1048576	21	5230
2026-01-23 09:07:37.99	1.81	19.15	-30.7	-34.1	12.9	3.20e-05	0	43	102	1048576	21	5344
2026-01-23 09:07:39.00	1.66	19.05	-30.8	-34.4	12.7	5.41e-05	0	43	102	1048576	21	5466
2026-01-23 09:07:40.00	1.52	18.95	-30.7	-34.2	12.9	7.55e-05	0	43	102	1048576	21	5357
2026-01-23 09:07:41.01	1.37	18.85	-30.8	-34.4	12.7	6.33e-05	0	43	102	1048576	21	5448
2026-01-23 09:07:42.01	1.22	18.75	-31.0	-34.9	12.4	1.14e-04	0	44	102	1048576	21	5676
2026-01-23 09:07:43.02	1.08	18.65	-30.8	-34.5	12.6	1.36e-04	0	43	102	1048576	21	5510
2026-01-23 09:07:44.02	0.93	18.55	-30.8	-34.3	12.7	7.32e-05	0	43	102	1048576	21	5432
2026-01-23 09:07:45.03	0.79	18.45	-30.8	-34.4	12.7	7.09e-05	0	43	102	1048576	21	5450
2026-01-23 09:07:46.03	0.64	18.36	-30.8	-34.5	12.6	8.69e-05	0	43	102	1048576	21	5510
2026-01-23 09:07:47.04	0.50	18.26	-30.8	-34.5	12.6	6.25e-05	0	43	102	1048576	21	5519
2026-01-23 09:07:48.05	0.36	18.16	-30.7	-34.1	12.9	6.48e-05	0	43	102	1048576	21	5347
2026-01-23 09:07:49.05	0.22	18.06	-30.8	-34.5	12.6	7.47e-05	0	43	102	1048576	21	5509
2026-01-23 09:07:50.06	0.08	17.96	-30.7	-34.2	12.8	7.32e-05	0	43	102	1048576	21	5371
2026-01-23 09:07:51.07	359.94	17.87	-30.8	-34.3	12.7	6.63e-05	0	43	102	1048576	21	5428
2026-01-23 09:07:52.07	359.81	17.77	-30.8	-34.5	12.6	7.85e-05	0	43	102	1048576	21	5508
2026-01-23 09:07:53.08	359.67	17.67	-30.9	-34.6	12.6	8.01e-05	0	43	102	1048576	21	5540
2026-01-23 09:07:54.09	359.53	17.58	-30.9	-34.7	12.5	1.28e-04	0	43	102	1048576	21	5572
2026-01-23 09:07:55.09	359.40	17.48	-30.9	-34.8	12.4	1.50e-04	0	43	102	1048576	21	5615
2026-01-23 09:07:56.09	359.27	17.38	-30.9	-34.9	12.3	1.63e-04	0	43	102	1048576	21	5674
2026-01-23 09:07:57.09	359.13	17.29	-31.0	-35.0	12.2	1.81e-04	0	43	102	1048576	21	5730
2026-01-23 09:07:58.09	359.00	17.19	-31.0	-34.7	12.2	2.38e-04	0	43	102	1048576	22	5467
2026-01-23 09:07:59.10	358.87	17.10	-31.1	-34.8	12.0	2.25e-04	0	43	102	1048576	22	5511
2026-01-23 09:08:00.09	358.74	17.00	-31.2	-35.1	11.8	3.09e-04	0	43	102	1048576	22	5641
2026-01-23 09:08:01.10	358.61	16.91	-31.2	-35.2	11.8	5.26e-04	0	43	102	1048576	22	5685
2026-01-23 09:08:02.10	358.49	16.81	-31.1	-34.9	11.9	4.13e-04	0	43	102	1048576	22	5562
2026-01-23 09:08:03.11	358.36	16.72	-31.1	-34.8	12.0	3.23e-04	0	43	102	1048576	22	5533
2026-01-23 09:08:04.12	358.23	16.62	-31.1	-34.7	12.1	3.20e-04	0	43	102	1048576	22	5495
2026-01-23 09:08:05.12	358.10	16.53	-31.0	-34.6	12.1	2.64e-04	0	43	102	1048576	22	5461
2026-01-23 09:08:06.13	357.98	16.44	-31.0	-34.6	12.2	2.32e-04	0	43	102	1048576	22	5441
2026-01-23 09:08:07.14	357.85	16.34	-31.1	-34.9	11.9	3.53e-04	0	43	102	1048576	22	5547
2026-01-23 09:08:08.14	357.73	16.25	-30.8	-34.1	12.4	2.01e-04	0	43	102	1048576	22	5245
2026-01-23 09:08:09.14	357.61	16.16	-30.7	-33.7	12.8	8.08e-05	0	43	102	1048576	22	5067
2026-01-23 09:08:10.15	357.49	16.06	-30.6	-33.5	12.9	5.72e-05	0	43	102	1048576	22	4993
2026-01-23 09:08:11.16	357.36	15.97	-30.6	-33.5	12.9	3.89e-05	0	43	102	1048576	22	5013
2026-01-23 09:08:12.15	357.24	15.88	-30.7	-33.6	12.8	5.87e-05	0	43	102	1048576	22	5038
2026-01-23 09:08:13.14	357.13	15.79	-30.8	-33.9	12.6	5.79e-05	0	43	102	1048576	22	5148
2026-01-23 09:08:14.15	357.01	15.70	-30.8	-34.0	12.5	1.14e-04	0	43	102	1048576	22	5222
2026-01-23 09:08:15.14	356.89	15.61	-30.8	-34.1	12.5	1.14e-04	0	43	102	1048576	22	5236
2026-01-23 09:08:16.14	356.77	15.51	-30.9	-34.3	12.3	1.61e-04	0	43	102	1048576	22	5336
2026-01-23 09:08:17.15	356.66	15.42	-30.9	-34.2	12.3	1.98e-04	0	43	102	1048576	22	5278
2026-01-23 09:08:18.16	356.54	15.33	-30.9	-34.4	12.2	2.20e-04	0	43	102	1048576	22	5377
2026-01-23 09:08:19.16	356.42	15.24	-31.0	-34.8	11.9	3.07e-04	0	43	102	1048576	22	5525
2026-01-23 09:08:20.17	356.31	15.15	-31.0	-34.7	12.0	3.51e-04	0	44	102	1048576	22	5514
2026-01-23 09:08:21.18	356.19	15.06	-31.1	-34.9	11.8	4.29e-04	0	43	102	1048576	22	5584
2026-01-23 09:08:22.19	356.08	14.97	-31.0	-34.7	12.0	3.27e-04	0	43	102	1048576	22	5500
2026-01-23 09:08:23.19	355.97	14.88	-31.0	-34.7	12.0	3.04e-04	0	43	102	1048576	22	5494
2026-01-23 09:08:24.20	355.86	14.79	-31.0	-34.7	12.0	3.55e-04	0	43	102	1048576	22	5495
2026-01-23 09:08:25.21	355.75	14.70	-31.0	-34.7	11.9	3.75e-04	0	43	102	1048576	22	5518
2026-01-23 09:08:26.21	355.64	14.61	-30.9	-34.3	12.2	2.59e-04	0	43	102	1048576	22	5353
2026-01-23 09:08:27.22	355.52	14.52	-30.9	-34.3	12.2	2.11e-04	0	43	102	1048576	22	5324
2026-01-23 09:08:28.22	355.42	14.43	-30.8	-34.1	12.3	2.01e-04	0	43	102	1048576	22	5265
2026-01-23 09:08:29.23	355.31	14.34	-30.9	-34.2	12.3	1.65e-04	0	43	102	1048576	22	5310
2026-01-23 09:08:30.23	355.20	14.25	-30.9	-34.3	12.2	1.99e-04	0	43	102	1048576	22	5349
2026-01-23 09:08:31.24	355.09	14.16	-30.8	-34.1	12.3	1.91e-04	0	43	102	1048576	22	5267
2026-01-23 09:08:32.24	354.99	14.08	-30.9	-34.5	12.0	2.34e-04	0	43	102	1048576	22	5429
2026-01-23 09:08:33.25	354.88	13.99	-31.0	-34.7	11.8	4.04e-04	0	43	102	1048576	22	5530
2026-01-23 09:08:34.26	354.77	13.90	-30.8	-34.1	12.3	2.33e-04	0	43	102	1048576	22	5271
2026-01-23 09:08:35.26	354.67	13.81	-30.7	-33.7	12.5	1.32e-04	0	43	102	1048576	22	5120
2026-01-23 09:08:36.27	354.57	13.72	-30.7	-33.8	12.5	9.23e-05	0	43	102	1048576	22	5131
2026-01-23 09:08:37.27	354.46	13.64	-30.7	-33.9	12.5	1.41e-04	0	43	102	1048576	22	5167
2026-01-23 09:08:38.28	354.36	13.55	-30.8	-34.1	12.2	1.82e-04	0	43	102	1048576	22	5278
2026-01-23 09:08:39.28	354.26	13.46	-30.9	-34.4	12.1	2.53e-04	0	44	102	1048576	22	5370
2026-01-23 09:08:40.29	354.16	13.38	-30.8	-34.3	12.2	2.29e-04	0	44	102	1048576	22	5356
2026-01-23 09:08:41.30	354.06	13.29	-30.9	-34.6	11.9	3.26e-04	0	43	102	1048576	22	5458
2026-01-23 09:08:42.30	353.96	13.20	-31.0	-34.6	11.9	3.30e-04	0	43	102	1048576	22	5499
2026-01-23 09:08:43.31	353.86	13.12	-31.0	-34.9	11.7	5.31e-04	0	43	102	1048576	22	5606
2026-01-23 09:08:44.32	353.76	13.03	-31.0	-34.7	11.8	5.56e-04	0	43	102	1048576	22	5527
2026-01-23 09:08:45.32	353.66	12.95	-31.0	-34.6	11.9	4.63e-04	0	43	102	1048576	22	5476
2026-01-23 09:08:46.32	353.56	12.86	-31.0	-34.8	11.8	4.38e-04	0	43	102	1048576	22	5563
2026-01-23 09:08:47.33	353.46	12.78	-31.1	-35.0	11.6	5.98e-04	0	43	102	1048576	22	5662
2026-01-23 09:08:48.33	353.37	12.69	-31.2	-35.3	11.3	1.00e-03	0	44	102	1048576	22	5783
2026-01-23 09:08:49.33	353.27	12.61	-31.1	-35.0	11.5	8.93e-04	0	43	102	1048576	22	5680
2026-01-23 09:08:50.33	353.18	12.53	-31.1	-35.0	11.5	6.97e-04	0	43	102	1048576	22	5680
2026-01-23 09:08:51.33	353.08	12.44	-31.2	-35.3	11.3	9.14e-04	0	43	102	1048576	22	5786
2026-01-23 09:08:52.34	352.99	12.36	-31.2	-35.4	11.3	1.27e-03	0	43	102	1048576	22	5848
2026-01-23 09:08:53.34	352.90	12.27	-31.1	-35.2	11.4	1.03e-03	0	43	102	1048576	22	5743
2026-01-23 09:08:54.35	352.80	12.19	-31.1	-35.1	11.5	8.66e-04	0	43	102	1048576	22	5702
2026-01-23 09:08:55.35	352.71	12.11	-31.1	-35.2	11.4	9.38e-04	0	43	102	1048576	22	5751
2026-01-23 09:08:56.35	352.62	12.03	-31.1	-35.1	11.5	9.12e-04	0	43	102	1048576	22	5719
2026-01-23 09:08:57.36	352.53	11.94	-31.1	-35.2	11.4	9.54e-04	0	43	102	1048576	22	5770
2026-01-23 09:08:58.37	352.43	11.86	-31.2	-35.3	11.3	1.10e-03	0	43	102	1048576	22	5796
2026-01-23 09:08:59.38	352.34	11.78	-31.2	-35.4	11.2	1.21e-03	0	43	102	1048576	22	5863
2026-01-23 09:09:00.38	352.25	11.69	-31.3	-35.7	10.9	1.67e-03	0	43	102	1048576	22	5997
2026-01-23 09:09:01.39	352.16	11.61	-31.2	-35.5	11.2	1.54e-03	0	43	102	1048576	22	5893
2026-01-23 09:09:02.39	352.08	11.53	-31.2	-35.5	11.2	1.39e-03	0	43	102	1048576	22	5891
2026-01-23 09:09:03.39	351.99	11.45	-31.2	-35.6	11.1	1.51e-03	0	43	102	1048576	22	5953
2026-01-23 09:09:04.40	351.90	11.37	-31.3	-35.9	10.9	2.09e-03	0	43	102	1048576	22	6079
2026-01-23 09:09:05.40	351.81	11.29	-31.4	-36.0	10.7	3.22e-03	0	44	102	1048576	22	6147
2026-01-23 09:09:06.41	351.73	11.21	-31.2	-35.6	11.0	2.38e-03	0	44	102	1048576	22	5977
2026-01-23 09:09:07.42	351.64	11.12	-31.2	-35.5	11.1	1.83e-03	0	43	102	1048576	22	5895
2026-01-23 09:09:08.43	351.55	11.04	-31.2	-35.6	11.0	1.85e-03	0	43	102	1048576	22	5945
2026-01-23 09:09:09.43	351.47	10.96	-31.2	-35.5	11.0	1.57e-03	0	43	102	1048576	22	5932
2026-01-23 09:09:10.44	351.38	10.88	-31.3	-35.9	10.7	2.02e-03	0	43	102	1048576	22	6109
2026-01-23 09:09:11.44	351.30	10.80	-31.4	-36.1	10.7	3.40e-03	0	43	102	1048576	22	6181
2026-01-23 09:09:12.45	351.21	10.72	-31.3	-35.7	10.9	2.47e-03	0	43	102	1048576	22	6017
2026-01-23 09:09:13.46	351.13	10.64	-31.2	-35.5	11.0	2.13e-03	0	43	102	1048576	22	5928
2026-01-23 09:09:14.47	351.05	10.56	-31.2	-35.6	11.0	1.67e-03	0	43	102	1048576	22	5962
2026-01-23 09:09:15.47	350.96	10.48	-31.2	-35.6	10.9	2.21e-03	0	43	102	1048576	22	5970
2026-01-23 09:09:16.48	350.88	10.40	-31.3	-35.9	10.7	2.33e-03	0	43	102	1048576	22	6114
2026-01-23 09:09:17.47	350.80	10.33	-31.4	-36.1	10.6	3.51e-03	0	44	102	1048576	22	6213
2026-01-23 09:09:18.47	350.72	10.25	-31.4	-36.1	10.6	3.30e-03	0	43	102	1048576	22	6202
2026-01-23 09:09:19.48	350.64	10.17	-31.4	-36.3	10.4	4.73e-03	0	43	102	1048576	22	6309
2026-01-23 09:09:20.48	350.56	10.09	-31.4	-36.1	10.5	4.07e-03	0	43	102	1048576	22	6217
2026-01-23 09:09:21.48	350.48	10.01	-31.5	-36.2	10.1	5.29e-03	0	43	102	1048576	23	6143
2026-01-23 09:09:22.49	350.40	9.94	-31.6	-36.6	9.8	9.21e-03	0	43	102	1048576	23	6355
2026-01-23 09:09:23.49	350.32	9.86	-31.6	-36.5	9.8	9.61e-03	0	43	102	1048576	23	6323
2026-01-23 09:09:24.49	350.24	9.78	-31.7	-36.7	9.7	1.10e-02	0	43	102	1048576	23	6429
2026-01-23 09:09:25.49	350.17	9.70	-31.6	-36.7	9.7	1.27e-02	0	43	102	1048576	23	6437
2026-01-23 09:09:26.50	350.09	9.63	-31.6	-36.6	9.7	1.14e-02	0	43	102	1048576	23	6391
2026-01-23 09:09:27.51	350.01	9.55	-31.6	-36.7	9.7	1.12e-02	0	43	102	1048576	23	6426
2026-01-23 09:09:28.51	349.93	9.47	-31.6	-36.5	9.8	1.13e-02	0	43	102	1048576	23	6345
2026-01-23 09:09:29.52	349.86	9.40	-31.6	-36.7	9.6	1.13e-02	0	43	102	1048576	23	6428
2026-01-23 09:09:30.53	349.78	9.32	-31.7	-36.8	9.5	1.62e-02	0	44	102	1048576	23	6518
2026-01-23 09:09:31.54	349.70	9.24	-31.6	-36.5	9.8	1.17e-02	0	44	102	1048576	23	6308
2026-01-23 09:09:32.54	349.63	9.17	-31.5	-36.1	10.1	7.95e-03	0	43	102	1048576	23	6129
2026-01-23 09:09:33.55	349.56	9.09	-31.5	-36.1	10.1	6.24e-03	0	44	102	1048576	23	6130
2026-01-23 09:09:34.55	349.48	9.02	-31.4	-36.0	10.2	6.17e-03	0	44	102	1048576	23	6083
2026-01-23 09:09:35.55	349.41	8.94	-31.5	-36.1	10.1	6.24e-03	0	43	102	1048576	23	6133
2026-01-23 09:09:36.56	349.33	8.87	-31.5	-36.3	9.9	8.40e-03	0	43	102	1048576	23	6242
2026-01-23 09:09:37.56	349.26	8.79	-31.4	-35.9	10.2	6.60e-03	0	43	102	1048576	23	6049
2026-01-23 09:09:38.56	349.19	8.72	-31.5	-36.2	9.9	7.98e-03	0	43	102	1048576	23	6181
2026-01-23 09:09:39.56	349.12	8.64	-31.5	-36.2	9.9	9.46e-03	0	43	102	1048576	23	6183
2026-01-23 09:09:40.55	349.05	8.57	-31.5	-36.3	9.8	9.15e-03	0	43	102	1048576	23	6254
2026-01-23 09:09:41.56	348.97	8.49	-31.5	-36.4	9.7	1.07e-02	0	43	102	1048576	23	6287
2026-01-23 09:09:42.56	348.90	8.42	-31.5	-36.3	9.8	1.15e-02	0	43	102	1048576	23	6272
2026-01-23 09:09:43.57	348.83	8.35	-31.6	-36.8	9.4	1.19e-02	0	43	102	1048576	23	6549
2026-01-23 09:09:44.58	348.76	8.27	-31.6	-36.8	9.3	1.79e-02	0	44	102	1048576	23	6561
2026-01-23 09:09:45.59	348.69	8.20	-31.6	-36.8	9.4	1.50e-02	0	43	102	1048576	23	6564
2026-01-23 09:09:46.59	348.62	8.12	-31.7	-37.0	9.2	2.26e-02	0	43	102	1048576	23	6676
2026-01-23 09:09:47.59	348.55	8.05	-31.6	-36.9	9.3	1.57e-02	0	43	102	1048576	23	6601
2026-01-23 09:09:48.60	348.48	7.98	-31.6	-36.9	9.2	2.47e-02	0	44	102	1048576	23	6627
2026-01-23 09:09:49.60	348.42	7.90	-31.5	-36.6	9.5	1.64e-02	0	43	102	1048576	23	6439
2026-01-23 09:09:50.59	348.35	7.83	-31.6	-36.6	9.5	1.33e-02	0	44	102	1048576	23	6460
2026-01-23 09:09:51.60	348.28	7.76	-31.5	-36.5	9.5	1.59e-02	0	44	102	1048576	23	6394
2026-01-23 09:09:52.60	348.21	7.69	-31.5	-36.5	9.5	1.40e-02	0	44	102	1048576	23	6400
2026-01-23 09:09:53.61	348.15	7.61	-31.6	-36.7	9.3	1.36e-02	0	44	102	1048576	23	6514
2026-01-23 09:09:54.60	348.08	7.54	-31.6	-36.9	9.2	1.95e-02	0	44	102	1048576	23	6609
2026-01-23 09:09:55.60	348.01	7.47	-31.7	-37.3	8.8	2.43e-02	0	43	102	1048576	23	6870
2026-01-23 09:09:56.60	347.95	7.40	-31.7	-37.3	8.9	3.40e-02	0	44	102	1048576	23	6851
2026-01-23 09:09:57.61	347.88	7.33	-31.6	-36.7	9.3	2.06e-02	0	43	102	1048576	23	6538
2026-01-23 09:09:58.61	347.82	7.26	-31.5	-36.5	9.5	1.61e-02	0	44	102	1048576	23	6379
2026-01-23 09:09:59.62	347.75	7.19	-31.4	-36.3	9.6	1.25e-02	0	43	102	1048576	23	6290
2026-01-23 09:10:00.60	347.69	7.12	-31.5	-36.6	9.4	1.27e-02	0	44	102	1048576	23	6460
2026-01-23 09:10:01.61	347.62	7.04	-33.3	-47.1	3.8	3.49e-01	0	43	104	1048576	26	17681
2026-01-23 09:10:02.61	347.56	6.97	-33.6	-47.6	3.8	1.49e+00	0	44	104	1048576	27	18086

#Closed at: 2026-01-23 09:10:03
#Recorded file [1 MB]: D:/data/31010_260123_115906.dat