passes_logs/2026/01/23/R2M6_AANII_01/R2M6_AANII_01__20260123_121126_AQUA_rec.log

#Pass ID: 20260123_121126_AQUA
#Satellite: AQUA
#Configuration: AQUA
#almurnet v.1.7.20240730
#Start time: 2026-01-23 12:11:28

#Version: 2.2.20231116
#Station: R2M6_AANII_01
#Location: 30.233357 lon 59.946436 lat
#TLE: 1 27424U 02022A   26022.49486490  .00002153  00000+0  44069-3 0  9997
#TLE: 2 27424  98.4099 349.0485 0001970  69.5876  43.4746 14.61847233261984

#Time	Az	El	Level	Level2	SNR	BER	BlckErr	Temp	State	Recorded	gain1	gain2
2026-01-23 12:11:28.39	164.40	7.14	-31.5	-38.1	5.1	7.12e-01	0	42	0	0	25	7641
2026-01-23 12:11:29.39	164.42	7.22	-31.6	-38.1	5.0	7.07e-01	0	42	104	0	25	7599
2026-01-23 12:11:30.41	164.43	7.30	-31.6	-37.2	13.6	6.07e-01	0	42	0	0	25	6861
2026-01-23 12:11:31.41	164.44	7.39	-31.6	-37.3	13.6	6.10e-01	0	42	102	524288	25	6925
2026-01-23 12:11:32.41	164.45	7.47	-31.6	-37.3	13.5	6.07e-01	0	42	102	524288	25	6971
2026-01-23 12:11:33.42	164.46	7.55	-31.7	-37.5	13.4	6.08e-01	0	42	102	524288	25	7065
2026-01-23 12:11:34.43	164.48	7.64	-31.7	-37.8	13.2	6.11e-01	0	42	102	524288	25	7217
2026-01-23 12:11:35.43	164.49	7.72	-31.7	-37.6	13.4	6.09e-01	0	42	102	524288	25	7075
2026-01-23 12:11:36.44	164.50	7.81	-31.8	-38.2	12.9	6.09e-01	0	42	102	524288	25	7453
2026-01-23 12:11:37.44	164.52	7.89	-32.0	-38.8	12.4	6.10e-01	0	42	102	524288	25	7875
2026-01-23 12:11:38.45	164.53	7.98	-32.0	-38.7	12.5	6.13e-01	0	42	102	524288	25	7850
2026-01-23 12:11:39.45	164.54	8.07	-32.0	-38.9	12.3	6.10e-01	0	42	102	524288	25	7960
2026-01-23 12:11:40.46	164.55	8.15	-32.0	-38.6	12.6	6.09e-01	0	42	102	524288	25	7748
2026-01-23 12:11:41.45	164.57	8.24	-32.0	-38.8	12.4	6.11e-01	0	42	102	524288	25	7907
2026-01-23 12:11:42.46	164.58	8.33	-32.0	-39.0	12.3	6.11e-01	0	42	102	524288	25	8039
2026-01-23 12:11:43.46	164.59	8.41	-31.9	-38.5	12.8	6.13e-01	0	42	102	524288	25	7653
2026-01-23 12:11:44.46	164.61	8.50	-31.9	-38.5	12.7	6.10e-01	0	42	102	524288	25	7678
2026-01-23 12:11:45.46	164.62	8.59	-32.0	-38.6	12.6	6.11e-01	0	42	102	524288	25	7724
2026-01-23 12:11:46.46	164.63	8.68	-31.9	-38.1	13.0	6.09e-01	0	43	102	524288	25	7391
2026-01-23 12:11:47.47	164.65	8.77	-31.7	-37.2	13.8	6.10e-01	0	43	102	524288	25	6830
2026-01-23 12:11:48.47	164.66	8.85	-31.3	-36.4	14.7	6.08e-01	0	42	102	524288	24	6475
2026-01-23 12:11:49.48	164.67	8.94	-31.1	-35.7	15.4	6.06e-01	0	42	102	524288	24	6073
2026-01-23 12:11:50.48	164.69	9.03	-30.7	-34.7	16.3	6.06e-01	0	42	102	524288	23	5729
2026-01-23 12:11:51.49	164.70	9.12	-30.5	-34.2	16.7	6.08e-01	0	42	102	524288	23	5474
2026-01-23 12:11:52.49	164.71	9.21	-30.3	-34.1	17.1	6.04e-01	0	42	102	524288	22	5560
2026-01-23 12:11:53.49	164.73	9.30	-30.3	-33.8	17.3	6.07e-01	0	42	102	524288	22	5414
2026-01-23 12:11:54.49	164.74	9.40	-30.3	-34.0	17.3	6.07e-01	0	43	102	524288	22	5493
2026-01-23 12:11:55.49	164.75	9.49	-30.3	-34.0	17.2	6.06e-01	0	42	102	524288	22	5511
2026-01-23 12:11:56.50	164.77	9.58	-30.3	-34.1	17.2	6.06e-01	0	43	102	524288	22	5526
2026-01-23 12:11:57.50	164.78	9.67	-30.3	-34.0	17.3	6.07e-01	0	42	102	524288	22	5485
2026-01-23 12:11:58.50	164.80	9.76	-30.5	-34.5	16.9	6.06e-01	0	42	102	524288	22	5722
2026-01-23 12:11:59.50	164.81	9.86	-30.4	-34.2	17.1	6.08e-01	0	42	102	524288	22	5603
2026-01-23 12:12:00.49	164.82	9.95	-30.5	-34.5	16.9	6.07e-01	0	42	102	524288	22	5733
2026-01-23 12:12:01.49	164.84	10.04	-30.5	-34.7	16.8	6.08e-01	0	43	102	524288	22	5817
2026-01-23 12:12:02.50	164.85	10.14	-30.3	-34.0	17.3	6.07e-01	0	43	102	524288	22	5502
2026-01-23 12:12:03.49	164.87	10.23	-30.2	-33.6	17.6	6.06e-01	0	42	102	524288	22	5315
2026-01-23 12:12:04.49	164.88	10.33	-29.9	-32.8	18.1	6.05e-01	0	42	102	524288	22	5002
2026-01-23 12:12:05.50	164.90	10.42	-29.8	-32.9	18.3	6.05e-01	0	43	102	524288	21	5160
2026-01-23 12:12:06.51	164.91	10.52	-29.9	-33.3	18.1	6.06e-01	0	43	102	524288	21	5295
2026-01-23 12:12:07.52	164.93	10.62	-30.0	-33.4	18.1	6.07e-01	0	43	102	524288	21	5337
2026-01-23 12:12:08.52	164.94	10.71	-29.9	-33.3	18.2	6.08e-01	0	43	102	524288	21	5291
2026-01-23 12:12:09.52	164.96	10.81	-29.8	-32.8	18.4	6.07e-01	0	43	102	524288	21	5118
2026-01-23 12:12:10.53	164.97	10.91	-29.8	-32.9	18.4	6.08e-01	0	43	102	524288	21	5130
2026-01-23 12:12:11.53	164.99	11.00	-29.8	-33.0	18.3	6.05e-01	0	43	102	524288	21	5174
2026-01-23 12:12:12.53	165.00	11.10	-29.9	-33.0	18.3	6.06e-01	0	43	102	524288	21	5187
2026-01-23 12:12:13.53	165.02	11.20	-29.8	-33.0	18.4	6.08e-01	0	43	102	524288	21	5159
2026-01-23 12:12:14.54	165.03	11.30	-29.9	-33.1	18.3	6.05e-01	0	43	102	524288	21	5207
2026-01-23 12:12:15.55	165.05	11.40	-29.9	-33.1	18.3	6.06e-01	0	43	102	524288	21	5216
2026-01-23 12:12:16.55	165.06	11.50	-29.8	-32.7	18.6	6.08e-01	0	43	102	524288	21	5047
2026-01-23 12:12:17.56	165.08	11.60	-29.7	-32.5	18.7	6.06e-01	0	43	102	524288	21	4962
2026-01-23 12:12:18.56	165.10	11.70	-29.7	-32.5	18.7	6.07e-01	0	43	102	524288	21	4987
2026-01-23 12:12:19.56	165.11	11.81	-29.7	-32.5	18.8	6.06e-01	0	42	102	524288	21	4974
2026-01-23 12:12:20.57	165.13	11.91	-29.7	-32.5	18.7	6.07e-01	0	43	102	524288	21	4980
2026-01-23 12:12:21.58	165.14	12.01	-29.8	-32.8	18.6	6.05e-01	0	43	102	524288	21	5079
2026-01-23 12:12:22.58	165.16	12.11	-29.8	-32.7	18.7	6.06e-01	0	43	102	524288	21	5029
2026-01-23 12:12:23.59	165.18	12.22	-29.6	-32.3	18.9	6.09e-01	0	43	102	524288	21	4889
2026-01-23 12:12:24.60	165.19	12.32	-29.6	-32.1	19.0	6.07e-01	0	43	102	524288	21	4844
2026-01-23 12:12:25.59	165.21	12.43	-29.6	-32.3	18.9	6.05e-01	0	43	102	524288	21	4891
2026-01-23 12:12:26.60	165.23	12.53	-29.6	-32.1	19.0	6.06e-01	0	43	102	524288	21	4829
2026-01-23 12:12:27.60	165.24	12.64	-29.6	-32.2	19.1	6.07e-01	0	43	102	524288	21	4837
2026-01-23 12:12:28.61	165.26	12.74	-29.5	-32.0	19.1	6.05e-01	0	43	102	524288	21	4794
2026-01-23 12:12:29.62	165.28	12.85	-29.5	-31.8	19.2	6.04e-01	0	43	102	524288	21	4723
2026-01-23 12:12:30.63	165.29	12.96	-29.5	-31.8	19.3	6.06e-01	0	43	102	524288	21	4717
2026-01-23 12:12:31.63	165.31	13.07	-29.5	-31.8	19.3	6.07e-01	0	43	102	524288	21	4701
2026-01-23 12:12:32.62	165.33	13.17	-29.5	-31.8	19.3	6.07e-01	0	43	102	524288	21	4692
2026-01-23 12:12:33.62	165.34	13.28	-29.5	-31.8	19.3	6.07e-01	0	43	102	524288	21	4702
2026-01-23 12:12:34.62	165.36	13.39	-29.5	-31.8	19.4	6.06e-01	0	43	102	524288	21	4704
2026-01-23 12:12:35.63	165.38	13.50	-29.5	-31.9	19.3	6.07e-01	0	43	102	524288	21	4726
2026-01-23 12:12:36.63	165.40	13.61	-29.6	-32.0	19.2	6.04e-01	0	43	102	524288	21	4771
2026-01-23 12:12:37.63	165.42	13.72	-29.5	-32.0	19.3	6.06e-01	0	43	102	524288	21	4752
2026-01-23 12:12:38.63	165.43	13.83	-29.6	-32.2	19.1	6.06e-01	0	43	102	524288	21	4837
2026-01-23 12:12:39.64	165.45	13.94	-29.7	-32.3	19.0	6.07e-01	0	43	102	524288	21	4876
2026-01-23 12:12:40.65	165.47	14.06	-29.7	-32.4	19.0	6.07e-01	0	43	102	524288	21	4896
2026-01-23 12:12:41.65	165.49	14.17	-29.8	-32.5	19.0	6.05e-01	0	43	102	524288	21	4929
2026-01-23 12:12:42.66	165.51	14.29	-29.8	-32.6	19.0	6.08e-01	0	43	102	524288	21	4945
2026-01-23 12:12:43.65	165.52	14.40	-29.9	-32.9	18.8	6.07e-01	0	43	102	524288	21	5052
2026-01-23 12:12:44.66	165.54	14.51	-30.0	-33.0	18.7	6.08e-01	0	43	102	524288	21	5111
2026-01-23 12:12:45.67	165.56	14.63	-30.0	-33.1	18.7	6.08e-01	0	43	102	524288	21	5141
2026-01-23 12:12:46.67	165.58	14.75	-30.0	-33.2	18.6	6.07e-01	0	43	102	524288	21	5180
2026-01-23 12:12:47.68	165.60	14.86	-30.1	-33.2	18.5	6.06e-01	0	43	102	524288	21	5200
2026-01-23 12:12:48.68	165.62	14.98	-30.1	-33.3	18.5	6.06e-01	0	43	102	524288	21	5238
2026-01-23 12:12:49.68	165.64	15.10	-30.0	-33.3	18.5	6.06e-01	0	43	102	524288	21	5213
2026-01-23 12:12:50.69	165.66	15.22	-30.0	-33.2	18.6	6.09e-01	0	43	102	524288	21	5190
2026-01-23 12:12:51.69	165.68	15.34	-30.0	-33.2	18.5	6.06e-01	0	43	102	524288	21	5211
2026-01-23 12:12:52.69	165.70	15.46	-30.0	-33.2	18.5	6.06e-01	0	43	102	524288	21	5221
2026-01-23 12:12:53.69	165.72	15.58	-30.1	-33.6	18.3	6.07e-01	0	43	102	524288	21	5372
2026-01-23 12:12:54.70	165.74	15.70	-30.2	-33.7	18.2	6.05e-01	0	43	102	524288	21	5400
2026-01-23 12:12:55.70	165.76	15.82	-30.2	-33.8	18.2	6.06e-01	0	43	102	524288	21	5428
2026-01-23 12:12:56.71	165.78	15.94	-30.4	-34.2	18.0	6.08e-01	0	43	102	524288	21	5608
2026-01-23 12:12:57.71	165.80	16.07	-30.5	-34.5	17.7	6.07e-01	0	43	102	524288	21	5721
2026-01-23 12:12:58.72	165.82	16.19	-30.5	-34.6	17.8	6.07e-01	0	43	102	524288	21	5746
2026-01-23 12:12:59.73	165.84	16.32	-30.6	-34.4	17.6	6.07e-01	0	43	102	524288	22	5543
2026-01-23 12:13:00.73	165.86	16.44	-30.8	-34.8	17.3	6.08e-01	0	43	102	524288	22	5725
2026-01-23 12:13:01.74	165.88	16.57	-30.9	-35.1	17.1	6.06e-01	0	43	102	524288	22	5843
2026-01-23 12:13:02.74	165.90	16.70	-31.0	-35.3	17.0	6.04e-01	0	43	102	524288	22	5917
2026-01-23 12:13:03.74	165.92	16.82	-31.0	-35.2	17.1	6.06e-01	0	43	102	524288	22	5893
2026-01-23 12:13:04.75	165.95	16.95	-30.9	-35.2	17.1	6.04e-01	0	43	102	524288	22	5848
2026-01-23 12:13:05.75	165.97	17.08	-31.1	-35.2	16.8	6.06e-01	0	43	102	524288	23	5744
2026-01-23 12:13:06.75	165.99	17.21	-31.4	-36.1	16.2	6.06e-01	0	43	102	524288	23	6154
2026-01-23 12:13:07.76	166.01	17.34	-31.5	-36.3	16.0	6.06e-01	0	43	102	524288	23	6287
2026-01-23 12:13:08.76	166.03	17.47	-31.6	-36.6	15.9	6.08e-01	0	43	102	524288	23	6417
2026-01-23 12:13:09.76	166.06	17.60	-31.6	-36.0	15.9	6.07e-01	0	43	102	524288	24	6041
2026-01-23 12:13:10.77	166.08	17.74	-31.2	-34.8	16.7	6.07e-01	0	43	102	524288	24	5478
2026-01-23 12:13:11.77	166.10	17.87	-30.8	-34.1	17.6	6.08e-01	0	43	102	524288	23	5276
2026-01-23 12:13:12.77	166.12	18.00	-30.4	-33.0	18.3	6.06e-01	0	43	102	524288	23	4861
2026-01-23 12:13:13.77	166.15	18.14	-30.0	-32.5	18.9	6.07e-01	0	43	102	524288	22	4797
2026-01-23 12:13:14.78	166.17	18.28	-29.7	-32.2	19.4	6.06e-01	0	43	102	524288	21	4797
2026-01-23 12:13:15.78	166.19	18.41	-29.5	-31.6	19.7	6.05e-01	0	43	102	524288	21	4603
2026-01-23 12:13:16.79	166.22	18.55	-29.4	-31.3	19.9	6.08e-01	0	43	102	524288	21	4500
2026-01-23 12:13:17.79	166.24	18.69	-29.3	-31.6	20.0	6.06e-01	0	43	102	524288	20	4709
2026-01-23 12:13:18.78	166.27	18.83	-29.3	-31.7	20.0	6.07e-01	0	43	102	524288	20	4735
2026-01-23 12:13:19.78	166.29	18.97	-29.4	-31.8	20.0	6.05e-01	0	43	102	524288	20	4765
2026-01-23 12:13:20.78	166.31	19.11	-29.5	-32.1	19.8	6.05e-01	0	43	102	524288	20	4867
2026-01-23 12:13:21.78	166.34	19.25	-29.5	-32.1	19.8	6.07e-01	0	43	102	524288	20	4857
2026-01-23 12:13:22.79	166.36	19.39	-29.5	-32.1	19.8	6.06e-01	0	43	102	524288	20	4853
2026-01-23 12:13:23.79	166.39	19.54	-29.5	-32.2	19.7	6.06e-01	0	43	102	524288	20	4897
2026-01-23 12:13:24.78	166.41	19.68	-29.6	-32.3	19.7	6.04e-01	0	43	102	524288	20	4919
2026-01-23 12:13:25.78	166.44	19.83	-29.6	-32.5	19.6	6.06e-01	0	43	102	524288	20	4986
2026-01-23 12:13:26.78	166.47	19.97	-29.6	-32.5	19.6	6.06e-01	0	43	102	524288	20	4981
2026-01-23 12:13:27.78	166.49	20.12	-29.7	-32.5	19.6	6.06e-01	0	43	102	524288	20	4997
2026-01-23 12:13:28.78	166.52	20.27	-29.8	-32.8	19.5	6.07e-01	0	43	102	524288	20	5088
2026-01-23 12:13:29.78	166.54	20.42	-29.7	-32.7	19.5	6.06e-01	0	43	102	524288	20	5058
2026-01-23 12:13:30.77	166.57	20.56	-29.7	-32.7	19.5	6.05e-01	0	43	102	524288	20	5060
2026-01-23 12:13:31.78	166.60	20.72	-29.9	-33.0	19.3	6.07e-01	0	43	102	524288	20	5178
2026-01-23 12:13:32.78	166.62	20.87	-30.0	-33.3	19.1	6.06e-01	0	43	102	524288	20	5304
2026-01-23 12:13:33.78	166.65	21.02	-30.0	-33.4	19.1	6.06e-01	0	43	102	524288	20	5339
2026-01-23 12:13:34.78	166.68	21.18	-30.1	-33.7	18.9	6.07e-01	0	43	102	524288	20	5431
2026-01-23 12:13:35.79	166.71	21.33	-30.1	-33.1	19.0	6.05e-01	0	43	102	524288	21	5117
2026-01-23 12:13:36.79	166.74	21.49	-30.1	-33.2	18.9	6.06e-01	0	43	102	524288	21	5146
2026-01-23 12:13:37.80	166.77	21.65	-30.1	-33.2	18.9	6.09e-01	0	43	102	524288	21	5169
2026-01-23 12:13:38.80	166.79	21.81	-30.3	-33.6	18.7	6.08e-01	0	43	102	524288	21	5316
2026-01-23 12:13:39.81	166.82	21.97	-30.1	-33.3	18.8	6.07e-01	0	43	102	524288	21	5190
2026-01-23 12:13:40.80	166.85	22.13	-29.9	-32.6	19.3	6.08e-01	0	43	102	524288	21	4923
2026-01-23 12:13:41.80	166.88	22.29	-29.7	-32.1	19.6	6.05e-01	0	43	102	524288	21	4745
2026-01-23 12:13:42.81	166.91	22.45	-29.6	-31.8	19.8	6.06e-01	0	43	102	524288	21	4643
2026-01-23 12:13:43.81	166.94	22.62	-29.6	-31.8	19.8	6.05e-01	0	43	102	524288	21	4661
2026-01-23 12:13:44.81	166.97	22.78	-29.6	-31.8	19.8	6.04e-01	0	43	102	524288	21	4652
2026-01-23 12:13:45.81	167.00	22.95	-29.6	-31.9	19.7	6.04e-01	0	43	102	524288	21	4691
2026-01-23 12:13:46.82	167.03	23.11	-29.7	-32.0	19.7	6.09e-01	0	43	102	524288	21	4695
2026-01-23 12:13:47.82	167.07	23.28	-29.6	-31.9	19.7	6.07e-01	0	43	102	524288	21	4679
2026-01-23 12:13:48.82	167.10	23.45	-29.8	-32.2	19.6	6.07e-01	0	43	102	524288	21	4789
2026-01-23 12:13:49.83	167.13	23.63	-29.7	-32.1	19.6	6.07e-01	0	43	102	524288	21	4735
2026-01-23 12:13:50.83	167.16	23.80	-29.7	-32.0	19.7	6.07e-01	0	43	102	524288	21	4715
2026-01-23 12:13:51.83	167.19	23.97	-29.7	-32.1	19.6	6.08e-01	0	43	102	524288	21	4752
2026-01-23 12:13:52.83	167.23	24.15	-29.8	-32.4	19.5	6.07e-01	0	43	102	524288	21	4825
2026-01-23 12:13:53.83	167.26	24.32	-29.8	-32.4	19.5	6.08e-01	0	43	102	524288	21	4822
2026-01-23 12:13:54.82	167.29	24.50	-29.9	-32.5	19.4	6.05e-01	0	43	102	524288	21	4885
2026-01-23 12:13:55.82	167.33	24.67	-30.0	-32.9	19.2	6.06e-01	0	43	102	524288	21	5002
2026-01-23 12:13:56.82	167.36	24.85	-30.0	-32.8	19.2	6.06e-01	0	43	102	524288	21	4981
2026-01-23 12:13:57.84	167.40	25.04	-29.8	-32.4	19.5	6.06e-01	0	43	102	524288	21	4834
2026-01-23 12:13:58.84	167.43	25.22	-29.7	-32.1	19.7	6.06e-01	0	43	102	524288	21	4748
2026-01-23 12:13:59.84	167.47	25.41	-29.7	-32.0	19.8	6.07e-01	0	43	102	524288	21	4700
2026-01-23 12:14:00.84	167.50	25.59	-29.5	-31.7	20.0	6.05e-01	0	43	102	524288	21	4595
2026-01-23 12:14:01.83	167.54	25.78	-29.6	-31.8	19.9	6.03e-01	0	43	102	524288	21	4637
2026-01-23 12:14:02.83	167.58	25.96	-29.5	-31.7	20.0	6.06e-01	0	43	102	524288	21	4597
2026-01-23 12:14:03.83	167.61	26.15	-29.5	-31.6	20.1	6.04e-01	0	43	102	524288	21	4566
2026-01-23 12:14:04.84	167.65	26.35	-29.6	-31.8	20.0	6.07e-01	0	43	102	524288	21	4628
2026-01-23 12:14:05.85	167.69	26.54	-29.6	-31.8	19.9	6.08e-01	0	43	102	524288	21	4626
2026-01-23 12:14:06.85	167.73	26.73	-29.5	-31.6	20.0	6.07e-01	0	43	102	524288	21	4580
2026-01-23 12:14:07.84	167.77	26.93	-29.5	-31.4	20.2	6.06e-01	0	43	102	524288	21	4510
2026-01-23 12:14:08.85	167.81	27.13	-29.4	-31.2	20.3	6.07e-01	0	43	102	524288	21	4458
2026-01-23 12:14:09.85	167.85	27.32	-29.4	-31.3	20.3	6.07e-01	0	43	102	524288	21	4470
2026-01-23 12:14:10.85	167.89	27.52	-29.5	-31.6	20.1	6.08e-01	0	43	102	524288	21	4577
2026-01-23 12:14:11.85	167.93	27.72	-29.6	-31.7	20.0	6.06e-01	0	43	102	524288	21	4599
2026-01-23 12:14:12.85	167.97	27.93	-29.7	-32.1	19.8	6.06e-01	0	43	102	524288	21	4723
2026-01-23 12:14:13.85	168.01	28.13	-29.8	-32.2	19.7	6.05e-01	0	43	102	524288	21	4766
2026-01-23 12:14:14.85	168.05	28.34	-29.8	-32.4	19.6	6.07e-01	0	43	102	524288	21	4823
2026-01-23 12:14:15.86	168.10	28.55	-29.8	-32.2	19.7	6.04e-01	0	43	102	524288	21	4772
2026-01-23 12:14:16.86	168.14	28.76	-29.7	-32.1	19.8	6.07e-01	0	43	102	524288	21	4728
2026-01-23 12:14:17.85	168.18	28.97	-29.9	-32.4	19.7	6.07e-01	0	43	102	524288	21	4829
2026-01-23 12:14:18.86	168.23	29.18	-29.7	-32.1	19.8	6.05e-01	0	43	102	524288	21	4725
2026-01-23 12:14:19.87	168.27	29.40	-29.9	-32.6	19.5	6.07e-01	0	43	102	524288	21	4890
2026-01-23 12:14:20.87	168.32	29.62	-29.8	-32.2	19.8	6.06e-01	0	43	102	524288	21	4760
2026-01-23 12:14:21.88	168.37	29.84	-29.5	-31.5	20.2	6.07e-01	0	43	102	524288	21	4536
2026-01-23 12:14:22.88	168.41	30.06	-29.3	-31.5	20.5	6.07e-01	0	43	102	524288	20	4648
2026-01-23 12:14:23.88	168.46	30.28	-29.3	-31.6	20.5	6.04e-01	0	43	102	524288	20	4659
2026-01-23 12:14:24.89	168.51	30.50	-29.2	-31.3	20.6	6.06e-01	0	43	102	524288	20	4584
2026-01-23 12:14:25.89	168.56	30.73	-29.1	-31.1	20.8	6.06e-01	0	43	102	524288	20	4497
2026-01-23 12:14:26.89	168.61	30.96	-29.1	-31.1	20.8	6.06e-01	0	43	102	524288	20	4495
2026-01-23 12:14:27.89	168.66	31.19	-29.2	-31.2	20.7	6.04e-01	0	43	102	524288	20	4536
2026-01-23 12:14:28.89	168.71	31.42	-29.4	-31.7	20.4	6.08e-01	0	43	102	524288	20	4688
2026-01-23 12:14:29.89	168.76	31.65	-29.3	-31.5	20.5	6.07e-01	0	43	102	524288	20	4627
2026-01-23 12:14:30.88	168.81	31.88	-29.3	-31.4	20.6	6.05e-01	0	43	102	524288	20	4583
2026-01-23 12:14:31.89	168.86	32.12	-29.5	-31.8	20.4	6.04e-01	0	43	102	524288	20	4743
2026-01-23 12:14:32.89	168.92	32.36	-29.5	-31.9	20.3	6.04e-01	0	43	102	524288	20	4765
2026-01-23 12:14:33.89	168.97	32.60	-29.6	-32.1	20.2	6.07e-01	0	43	102	524288	20	4836
2026-01-23 12:14:34.89	169.03	32.85	-29.6	-32.1	20.2	6.06e-01	0	43	102	524288	20	4839
2026-01-23 12:14:35.90	169.08	33.09	-29.6	-32.1	20.2	6.06e-01	0	43	102	524288	20	4812
2026-01-23 12:14:36.90	169.14	33.34	-29.6	-32.2	20.2	6.09e-01	0	43	102	524288	20	4846
2026-01-23 12:14:37.91	169.20	33.59	-29.7	-32.3	20.1	6.06e-01	0	43	102	524288	20	4895
2026-01-23 12:14:38.91	169.26	33.84	-29.7	-32.5	20.0	6.06e-01	0	43	102	524288	20	4968
2026-01-23 12:14:39.92	169.32	34.10	-29.7	-32.5	20.0	6.09e-01	0	43	102	524288	20	4958
2026-01-23 12:14:40.92	169.38	34.36	-29.6	-32.3	20.1	6.06e-01	0	43	102	524288	20	4889
2026-01-23 12:14:41.92	169.44	34.61	-29.8	-32.6	19.9	6.07e-01	0	43	102	524288	20	4994
2026-01-23 12:14:42.93	169.50	34.88	-29.8	-32.8	19.8	6.05e-01	0	43	102	524288	20	5066
2026-01-23 12:14:43.93	169.56	35.14	-30.1	-33.5	19.4	6.06e-01	0	43	102	524288	20	5299
2026-01-23 12:14:44.93	169.63	35.41	-30.2	-33.3	19.2	6.07e-01	0	43	102	524288	21	5109
2026-01-23 12:14:45.94	169.69	35.68	-30.3	-33.3	19.2	6.05e-01	0	43	102	524288	21	5139
2026-01-23 12:14:46.94	169.76	35.95	-30.3	-33.3	19.2	6.05e-01	0	43	102	524288	21	5139
2026-01-23 12:14:47.94	169.83	36.22	-30.3	-33.4	19.2	6.06e-01	0	43	102	524288	21	5156
2026-01-23 12:14:48.94	169.90	36.49	-30.4	-33.6	19.0	6.08e-01	0	43	102	524288	21	5233
2026-01-23 12:14:49.95	169.97	36.77	-30.4	-33.7	19.0	6.06e-01	0	43	102	524288	21	5262
2026-01-23 12:14:50.96	170.04	37.06	-30.6	-34.3	18.7	6.07e-01	0	43	102	524288	21	5487
2026-01-23 12:14:51.96	170.11	37.34	-30.7	-34.0	18.6	6.05e-01	0	43	102	524288	22	5268
2026-01-23 12:14:52.97	170.18	37.63	-30.7	-34.1	18.5	6.08e-01	0	43	102	524288	22	5284
2026-01-23 12:14:53.97	170.26	37.91	-30.7	-34.1	18.5	6.06e-01	0	43	102	524288	22	5287
2026-01-23 12:14:54.98	170.33	38.21	-30.8	-34.3	18.3	6.05e-01	0	43	102	524288	22	5392
2026-01-23 12:14:55.99	170.41	38.50	-30.9	-34.4	18.3	6.06e-01	0	43	102	524288	22	5431
2026-01-23 12:14:56.99	170.49	38.80	-30.8	-34.4	18.3	6.05e-01	0	43	102	524288	22	5415
2026-01-23 12:14:58.00	170.57	39.10	-31.0	-34.8	18.1	6.05e-01	0	43	102	524288	22	5584
2026-01-23 12:14:58.99	170.65	39.39	-30.8	-34.4	18.3	6.07e-01	0	43	102	524288	22	5413
2026-01-23 12:14:59.99	170.73	39.70	-30.6	-33.8	18.6	6.03e-01	0	43	102	524288	22	5190
2026-01-23 12:15:00.99	170.82	40.00	-30.6	-33.7	18.8	6.07e-01	0	43	102	524288	22	5137
2026-01-23 12:15:01.99	170.90	40.31	-30.8	-34.2	18.5	6.05e-01	0	43	102	524288	22	5346
2026-01-23 12:15:03.00	170.99	40.63	-30.7	-34.0	18.6	6.06e-01	0	43	102	524288	22	5241
2026-01-23 12:15:04.00	171.08	40.94	-30.7	-34.0	18.6	6.05e-01	0	43	102	524288	22	5251
2026-01-23 12:15:05.00	171.17	41.26	-30.7	-34.0	18.6	6.06e-01	0	43	102	524288	22	5271
2026-01-23 12:15:06.01	171.27	41.58	-30.8	-34.3	18.4	6.03e-01	0	43	102	524288	22	5386
2026-01-23 12:15:07.01	171.36	41.90	-30.9	-34.5	18.3	6.02e-01	0	43	102	524288	22	5438
2026-01-23 12:15:08.01	171.46	42.23	-30.8	-34.3	18.4	6.05e-01	0	43	102	524288	22	5387
2026-01-23 12:15:09.02	171.56	42.56	-30.8	-34.2	18.4	6.05e-01	0	43	102	524288	22	5336
2026-01-23 12:15:10.03	171.66	42.90	-30.5	-33.6	18.8	6.07e-01	0	43	102	524288	22	5102
2026-01-23 12:15:11.03	171.76	43.23	-30.5	-33.5	18.9	6.06e-01	0	43	102	524288	22	5065
2026-01-23 12:15:12.04	171.87	43.57	-30.5	-33.4	18.9	6.05e-01	0	43	102	524288	22	5044
2026-01-23 12:15:13.05	171.97	43.92	-30.7	-34.0	18.5	6.07e-01	0	43	102	524288	22	5268
2026-01-23 12:15:14.05	172.08	44.26	-30.3	-32.9	19.2	6.07e-01	0	43	102	524288	22	4850
2026-01-23 12:15:15.06	172.19	44.61	-30.0	-32.1	19.7	6.07e-01	0	43	102	524288	22	4598
2026-01-23 12:15:16.06	172.31	44.96	-29.6	-31.5	20.4	6.05e-01	0	43	102	524288	21	4510
2026-01-23 12:15:17.06	172.42	45.31	-29.5	-31.4	20.5	6.07e-01	0	43	102	524288	21	4481
2026-01-23 12:15:18.06	172.54	45.67	-29.7	-31.9	20.2	6.07e-01	0	43	102	524288	21	4621
2026-01-23 12:15:19.06	172.66	46.03	-29.5	-31.3	20.5	6.07e-01	0	43	102	524288	21	4448
2026-01-23 12:15:20.07	172.79	46.40	-29.5	-31.5	20.4	6.06e-01	0	43	102	524288	21	4496
2026-01-23 12:15:21.07	172.92	46.76	-29.8	-32.1	20.0	6.07e-01	0	43	102	524288	21	4703
2026-01-23 12:15:22.08	173.05	47.14	-29.6	-31.7	20.3	6.05e-01	0	43	102	524288	21	4552
2026-01-23 12:15:23.08	173.18	47.51	-29.6	-31.6	20.3	6.05e-01	0	43	102	524288	21	4545
2026-01-23 12:15:24.09	173.32	47.89	-29.5	-31.3	20.6	6.06e-01	0	43	102	524288	21	4431
2026-01-23 12:15:25.10	173.46	48.27	-29.5	-31.4	20.5	6.07e-01	0	43	102	524288	21	4460
2026-01-23 12:15:26.10	173.60	48.65	-29.9	-32.3	19.9	6.08e-01	0	43	102	524288	21	4770
2026-01-23 12:15:27.11	173.75	49.04	-29.4	-31.5	20.7	6.09e-01	0	43	102	524288	20	4616
2026-01-23 12:15:28.11	173.90	49.43	-29.5	-31.9	20.5	6.07e-01	0	43	102	524288	20	4743
2026-01-23 12:15:29.11	174.06	49.83	-29.6	-32.1	20.4	6.06e-01	0	43	102	524288	20	4787
2026-01-23 12:15:30.12	174.22	50.23	-29.6	-32.2	20.3	6.07e-01	0	43	102	524288	20	4838
2026-01-23 12:15:31.12	174.38	50.63	-29.2	-31.1	20.9	6.05e-01	0	43	102	524288	20	4501
2026-01-23 12:15:32.12	174.55	51.03	-29.0	-30.6	21.3	6.08e-01	0	43	102	524288	20	4347
2026-01-23 12:15:33.13	174.72	51.44	-29.4	-31.7	20.7	6.08e-01	0	43	102	524288	20	4668
2026-01-23 12:15:34.13	174.90	51.85	-29.2	-31.1	20.9	6.06e-01	0	43	102	524288	20	4476
2026-01-23 12:15:35.14	175.08	52.27	-28.9	-30.8	21.5	6.08e-01	0	43	102	524288	19	4491
2026-01-23 12:15:36.14	175.26	52.68	-28.8	-30.7	21.6	6.06e-01	0	43	102	524288	19	4453
2026-01-23 12:15:37.14	175.46	53.10	-28.8	-30.7	21.6	6.05e-01	0	43	102	524288	19	4453
2026-01-23 12:15:38.14	175.65	53.53	-29.0	-31.1	21.4	6.05e-01	0	43	102	524288	19	4583
2026-01-23 12:15:39.14	175.85	53.95	-29.1	-31.4	21.2	6.05e-01	0	43	102	524288	19	4669
2026-01-23 12:15:40.15	176.07	54.39	-29.1	-31.4	21.2	6.04e-01	0	43	102	524288	19	4668
2026-01-23 12:15:41.15	176.28	54.82	-29.2	-31.5	21.2	6.07e-01	0	43	102	524288	19	4705
2026-01-23 12:15:42.15	176.50	55.26	-29.4	-32.1	20.8	6.06e-01	0	43	102	524288	19	4897
2026-01-23 12:15:43.15	176.73	55.70	-29.6	-32.1	20.5	6.06e-01	0	43	102	524288	20	4799
2026-01-23 12:15:44.15	176.97	56.14	-29.6	-32.0	20.6	6.07e-01	0	43	102	524288	20	4746
2026-01-23 12:15:45.16	177.21	56.59	-30.1	-32.9	19.7	6.05e-01	0	43	102	524288	21	4954
2026-01-23 12:15:46.16	177.46	57.04	-29.7	-31.8	20.3	6.06e-01	0	43	102	524288	21	4589
2026-01-23 12:15:47.16	177.72	57.49	-30.2	-33.0	19.7	6.05e-01	0	43	102	524288	21	4972
2026-01-23 12:15:48.17	178.00	57.95	-30.1	-32.8	19.8	6.07e-01	0	43	102	524288	21	4927
2026-01-23 12:15:49.17	178.27	58.41	-30.4	-33.6	19.3	6.06e-01	0	43	102	524288	21	5198
2026-01-23 12:15:50.18	178.56	58.88	-30.2	-33.0	19.7	6.07e-01	0	43	102	524288	21	4988
2026-01-23 12:15:51.18	178.86	59.35	-30.5	-33.9	19.1	6.06e-01	0	43	102	524288	21	5324
2026-01-23 12:15:52.18	179.17	59.81	-30.6	-34.0	19.1	6.05e-01	0	43	102	524288	21	5360
2026-01-23 12:15:53.18	179.49	60.29	-30.6	-33.7	19.0	6.07e-01	0	43	102	524288	22	5098
2026-01-23 12:15:54.18	179.82	60.76	-30.9	-34.3	18.7	6.06e-01	0	43	102	524288	22	5323
2026-01-23 12:15:55.18	180.17	61.24	-30.9	-34.4	18.5	6.07e-01	0	43	102	524288	22	5378
2026-01-23 12:15:56.19	180.53	61.72	-30.9	-34.3	18.6	6.07e-01	0	43	102	524288	22	5350
2026-01-23 12:15:57.20	180.91	62.21	-31.3	-35.0	17.9	6.04e-01	0	43	102	524288	23	5511
2026-01-23 12:15:58.20	181.29	62.69	-31.4	-35.3	17.6	6.07e-01	0	43	102	524288	23	5667
2026-01-23 12:15:59.21	181.70	63.18	-31.6	-35.6	17.2	6.05e-01	0	43	102	524288	24	5647
2026-01-23 12:16:00.21	182.12	63.67	-31.5	-35.2	17.4	6.07e-01	0	43	102	524288	24	5476
2026-01-23 12:16:01.22	182.56	64.17	-31.9	-36.4	16.6	6.06e-01	0	43	102	524288	24	6022
2026-01-23 12:16:02.22	183.02	64.66	-32.1	-36.4	16.3	6.05e-01	0	43	102	524288	25	5889
2026-01-23 12:16:03.23	183.50	65.16	-32.0	-36.2	16.5	6.04e-01	0	43	102	524288	25	5811
2026-01-23 12:16:04.23	184.00	65.66	-32.3	-37.1	15.9	6.06e-01	0	43	102	524288	25	6256
2026-01-23 12:16:05.23	184.53	66.16	-32.4	-37.6	15.5	6.06e-01	0	43	102	524288	25	6504
2026-01-23 12:16:06.24	185.08	66.66	-32.4	-37.4	15.6	6.06e-01	0	43	102	524288	25	6426
2026-01-23 12:16:07.24	185.65	67.17	-32.4	-37.6	15.6	6.07e-01	0	43	102	524288	25	6482
2026-01-23 12:16:08.24	186.25	67.67	-32.7	-37.8	15.0	6.06e-01	0	43	102	524288	26	6526
2026-01-23 12:16:09.25	186.89	68.17	-32.5	-37.3	15.3	6.06e-01	0	43	102	524288	26	6234
2026-01-23 12:16:10.25	187.56	68.68	-32.6	-37.7	14.9	6.06e-01	0	43	102	524288	26	6471
2026-01-23 12:16:11.26	188.26	69.19	-32.6	-37.4	15.4	6.07e-01	0	43	102	524288	26	6306
2026-01-23 12:16:12.26	189.00	69.69	-32.7	-38.1	14.9	6.07e-01	0	43	102	524288	26	6662
2026-01-23 12:16:13.27	189.78	70.20	-32.8	-38.3	14.6	6.10e-01	0	43	102	524288	26	6804
2026-01-23 12:16:14.27	190.60	70.70	-32.3	-36.6	15.9	6.06e-01	0	43	102	524288	26	5867
2026-01-23 12:16:15.27	191.47	71.20	-32.7	-38.0	15.1	6.09e-01	0	43	102	524288	26	6588
2026-01-23 12:16:16.28	192.40	71.70	-32.7	-37.7	15.1	6.07e-01	0	43	102	524288	26	6446
2026-01-23 12:16:17.29	193.38	72.20	-32.0	-35.6	16.7	6.07e-01	0	43	102	524288	26	5406
2026-01-23 12:16:18.29	194.41	72.70	-32.0	-35.5	16.8	6.06e-01	0	43	102	524288	26	5398
2026-01-23 12:16:19.30	195.51	73.19	-31.8	-35.4	17.2	6.06e-01	0	43	102	524288	25	5426
2026-01-23 12:16:20.29	196.66	73.67	-31.6	-34.7	17.5	6.06e-01	0	43	102	524288	25	5174
2026-01-23 12:16:21.30	197.91	74.16	-31.6	-34.8	17.6	6.06e-01	0	43	102	524288	25	5208
2026-01-23 12:16:22.31	199.24	74.64	-31.5	-34.4	17.9	6.05e-01	0	43	102	524288	25	5026
2026-01-23 12:16:23.31	200.65	75.11	-31.4	-34.5	18.0	6.05e-01	0	43	102	524288	24	5171
2026-01-23 12:16:24.32	202.17	75.57	-31.3	-34.3	18.2	6.06e-01	0	43	102	524288	24	5086
2026-01-23 12:16:25.32	203.77	76.03	-31.5	-34.9	17.8	6.07e-01	0	43	102	524288	24	5332
2026-01-23 12:16:26.32	205.48	76.47	-31.3	-34.4	18.2	6.06e-01	0	43	102	524288	24	5127
2026-01-23 12:16:27.33	207.33	76.91	-31.2	-34.1	18.4	6.08e-01	0	43	102	524288	24	5012
2026-01-23 12:16:28.33	209.29	77.33	-31.4	-34.6	18.0	6.05e-01	0	43	102	524288	24	5223
2026-01-23 12:16:29.33	211.38	77.73	-31.2	-34.1	18.4	6.07e-01	0	43	102	524288	24	5019
2026-01-23 12:16:30.34	213.64	78.12	-31.0	-33.6	18.7	6.04e-01	0	43	102	524288	24	4834
2026-01-23 12:16:31.34	216.03	78.50	-31.0	-33.5	18.6	6.07e-01	0	43	102	524288	24	4827
2026-01-23 12:16:32.35	218.60	78.85	-30.6	-33.0	19.2	6.07e-01	0	43	102	524288	23	4757
2026-01-23 12:16:33.35	221.31	79.18	-30.3	-32.8	19.7	6.06e-01	0	43	102	524288	22	4780
2026-01-23 12:16:34.35	224.19	79.48	-30.4	-33.0	19.6	6.06e-01	0	43	102	524288	22	4851
2026-01-23 12:16:35.35	227.24	79.76	-30.0	-32.0	20.1	6.07e-01	0	43	102	524288	22	4523
2026-01-23 12:16:36.36	230.48	80.01	-30.1	-32.6	20.0	6.07e-01	0	43	102	524288	21	4836
2026-01-23 12:16:37.36	233.84	80.22	-30.0	-32.4	20.2	6.05e-01	0	43	102	524288	21	4775
2026-01-23 12:16:38.36	237.35	80.41	-30.1	-32.6	20.0	6.05e-01	0	43	102	524288	21	4847
2026-01-23 12:16:39.37	241.01	80.55	-30.3	-33.2	19.7	6.06e-01	0	43	102	524288	21	5031
2026-01-23 12:16:40.38	244.78	80.66	-30.4	-33.6	19.4	6.06e-01	0	43	102	524288	21	5198
2026-01-23 12:16:41.38	248.57	80.72	-30.5	-33.7	19.3	6.05e-01	0	43	102	524288	21	5230
2026-01-23 12:16:42.38	252.41	80.75	-31.0	-34.5	18.9	6.05e-01	0	43	102	524288	22	5383
2026-01-23 12:16:43.39	256.29	80.73	-31.0	-34.0	18.7	6.05e-01	0	43	102	524288	23	5091
2026-01-23 12:16:44.39	260.10	80.68	-30.8	-33.4	19.1	6.07e-01	0	43	102	524288	23	4879
2026-01-23 12:16:45.39	263.84	80.58	-31.1	-34.1	18.7	6.05e-01	0	43	102	524288	23	5139
2026-01-23 12:16:46.39	267.50	80.44	-30.7	-33.1	19.3	6.07e-01	0	43	102	524288	23	4784
2026-01-23 12:16:47.40	271.07	80.27	-30.5	-32.8	19.5	6.07e-01	0	43	102	524288	23	4660
2026-01-23 12:16:48.40	274.46	80.06	-30.9	-33.7	18.9	6.06e-01	0	43	102	524288	23	4999
2026-01-23 12:16:49.41	277.74	79.82	-30.7	-33.2	19.2	6.07e-01	0	43	102	524288	23	4802
2026-01-23 12:16:50.41	280.82	79.55	-31.0	-34.1	18.6	6.07e-01	0	43	102	524288	23	5129
2026-01-23 12:16:51.42	283.77	79.25	-31.3	-34.9	18.0	6.07e-01	0	43	102	524288	23	5472
2026-01-23 12:16:52.42	286.52	78.93	-31.0	-34.1	18.6	6.05e-01	0	43	102	524288	23	5147
2026-01-23 12:16:53.43	289.13	78.58	-31.6	-35.7	17.6	6.07e-01	0	43	102	524288	23	5807
2026-01-23 12:16:54.43	291.55	78.21	-31.7	-35.7	17.3	6.06e-01	0	43	102	524288	24	5680
2026-01-23 12:16:55.44	293.84	77.82	-31.8	-36.0	17.1	6.05e-01	0	43	102	524288	24	5791
2026-01-23 12:16:56.45	295.99	77.42	-31.9	-36.1	17.0	6.08e-01	0	43	102	524288	24	5847
2026-01-23 12:16:57.46	297.99	77.00	-31.9	-36.1	17.0	6.06e-01	0	43	102	524288	24	5842
2026-01-23 12:16:58.47	299.86	76.56	-31.6	-35.2	17.6	6.05e-01	0	43	102	524288	24	5440
2026-01-23 12:16:59.48	301.61	76.12	-31.4	-34.8	17.8	6.06e-01	0	43	102	524288	24	5289
2026-01-23 12:17:00.47	303.22	75.67	-31.7	-35.5	17.3	6.08e-01	0	43	102	524288	24	5590
2026-01-23 12:17:01.48	304.76	75.21	-31.8	-36.1	16.9	6.06e-01	0	43	102	524288	24	5853
2026-01-23 12:17:02.48	306.18	74.74	-31.4	-34.6	17.9	6.07e-01	0	43	102	524288	24	5237
2026-01-23 12:17:03.48	307.51	74.27	-31.6	-35.2	17.5	6.07e-01	0	43	102	524288	24	5488
2026-01-23 12:17:04.48	308.77	73.79	-31.7	-35.6	17.2	6.06e-01	0	43	102	524288	24	5654
2026-01-23 12:17:05.49	309.96	73.30	-31.8	-35.9	17.0	6.06e-01	0	43	102	524288	24	5759
2026-01-23 12:17:06.49	311.07	72.81	-31.5	-35.0	17.6	6.05e-01	0	43	102	524288	24	5405
2026-01-23 12:17:07.50	312.12	72.32	-31.9	-36.1	16.9	6.06e-01	0	43	102	524288	24	5882
2026-01-23 12:17:08.50	313.10	71.82	-32.1	-36.9	16.3	6.07e-01	0	43	102	524288	24	6260
2026-01-23 12:17:09.50	314.03	71.32	-31.6	-35.3	17.4	6.04e-01	0	43	102	524288	24	5497
2026-01-23 12:17:10.50	314.91	70.83	-32.0	-36.6	16.5	6.08e-01	0	43	102	524288	24	6102
2026-01-23 12:17:11.51	315.75	70.32	-32.0	-36.7	16.4	6.08e-01	0	43	102	524288	24	6161
2026-01-23 12:17:12.51	316.53	69.82	-32.0	-36.8	16.3	6.06e-01	0	43	102	524288	24	6205
2026-01-23 12:17:13.51	317.28	69.32	-32.0	-36.7	16.4	6.05e-01	0	43	102	524288	24	6184
2026-01-23 12:17:14.52	317.99	68.81	-32.3	-37.0	15.9	6.06e-01	0	43	102	524288	25	6202
2026-01-23 12:17:15.51	318.66	68.31	-32.1	-36.6	16.2	6.08e-01	0	43	102	524288	25	5991
2026-01-23 12:17:16.52	319.30	67.81	-32.1	-36.6	16.1	6.07e-01	0	43	102	524288	25	6024
2026-01-23 12:17:17.52	319.91	67.31	-32.3	-37.0	15.8	6.06e-01	0	43	102	524288	25	6191
2026-01-23 12:17:18.52	320.49	66.81	-32.1	-36.4	16.2	6.08e-01	0	43	102	524288	25	5918
2026-01-23 12:17:19.53	321.05	66.30	-31.8	-35.5	16.9	6.04e-01	0	43	102	524288	25	5524
2026-01-23 12:17:20.53	321.58	65.80	-32.1	-36.4	16.2	6.08e-01	0	43	102	524288	25	5931
2026-01-23 12:17:21.54	322.09	65.30	-32.1	-36.6	16.1	6.08e-01	0	43	102	524288	25	6041
2026-01-23 12:17:22.54	322.57	64.81	-32.0	-36.3	16.3	6.08e-01	0	43	102	524288	25	5870
2026-01-23 12:17:23.55	323.04	64.31	-32.2	-36.8	15.9	6.05e-01	0	43	102	524288	25	6132
2026-01-23 12:17:24.55	323.48	63.82	-32.4	-37.4	15.5	6.07e-01	0	43	102	524288	25	6429
2026-01-23 12:17:25.55	323.90	63.33	-31.8	-35.5	16.8	6.08e-01	0	43	102	524288	25	5523
2026-01-23 12:17:26.56	324.31	62.84	-31.6	-35.0	17.1	6.06e-01	0	43	102	524288	25	5328
2026-01-23 12:17:27.57	324.71	62.35	-31.1	-34.0	18.1	6.06e-01	0	43	102	524288	24	5011
2026-01-23 12:17:28.58	325.09	61.87	-31.0	-33.8	18.2	6.07e-01	0	43	102	524288	24	4956
2026-01-23 12:17:29.58	325.45	61.39	-31.1	-34.0	18.1	6.06e-01	0	43	102	524288	24	5024
2026-01-23 12:17:30.59	325.80	60.91	-31.1	-34.0	18.1	6.05e-01	0	43	102	524288	24	5020
2026-01-23 12:17:31.59	326.14	60.43	-30.5	-32.8	19.1	6.07e-01	0	43	102	524288	23	4702
2026-01-23 12:17:32.60	326.46	59.96	-30.4	-33.0	19.3	6.07e-01	0	43	102	524288	22	4869
2026-01-23 12:17:33.60	326.77	59.49	-30.2	-32.7	19.5	6.04e-01	0	43	102	524288	22	4766
2026-01-23 12:17:34.60	327.07	59.02	-30.4	-33.2	19.2	6.05e-01	0	43	102	524288	22	4931
2026-01-23 12:17:35.60	327.36	58.56	-30.4	-33.0	19.4	6.06e-01	0	43	102	524288	22	4868
2026-01-23 12:17:36.62	327.65	58.10	-30.2	-32.6	19.5	6.06e-01	0	43	102	524288	22	4740
2026-01-23 12:17:37.61	327.92	57.64	-29.9	-31.8	20.0	6.07e-01	0	43	102	524288	22	4467
2026-01-23 12:17:38.62	328.18	57.19	-30.0	-32.1	19.8	6.08e-01	0	43	102	524288	22	4588
2026-01-23 12:17:39.62	328.43	56.74	-29.6	-31.6	20.4	6.07e-01	0	43	102	524288	21	4525
2026-01-23 12:17:40.63	328.68	56.29	-29.7	-31.8	20.3	6.05e-01	0	43	102	524288	21	4580
2026-01-23 12:17:41.64	328.92	55.84	-29.7	-31.8	20.3	6.08e-01	0	43	102	524288	21	4583
2026-01-23 12:17:42.64	329.15	55.40	-29.7	-31.9	20.2	6.09e-01	0	43	102	524288	21	4634
2026-01-23 12:17:43.65	329.38	54.96	-29.3	-31.4	20.7	6.08e-01	0	43	102	524288	20	4581
2026-01-23 12:17:44.65	329.59	54.53	-29.8	-32.7	20.0	6.06e-01	0	43	102	524288	20	5000
2026-01-23 12:17:45.66	329.81	54.10	-29.9	-32.9	19.9	6.07e-01	0	43	102	524288	20	5066
2026-01-23 12:17:46.66	330.01	53.67	-29.8	-32.5	20.2	6.03e-01	0	43	102	524288	20	4945
2026-01-23 12:17:47.66	330.21	53.25	-30.0	-33.2	19.8	6.06e-01	0	43	102	524288	20	5170
2026-01-23 12:17:48.66	330.40	52.83	-30.0	-32.6	19.8	6.07e-01	0	43	102	524288	21	4868
2026-01-23 12:17:49.67	330.59	52.41	-29.9	-32.3	19.9	6.07e-01	0	43	102	524288	21	4767
2026-01-23 12:17:50.67	330.77	52.00	-29.7	-31.8	20.2	6.06e-01	0	43	102	524288	21	4592
2026-01-23 12:17:51.67	330.95	51.59	-29.9	-32.3	19.9	6.05e-01	0	43	102	524288	21	4764
2026-01-23 12:17:52.68	331.12	51.18	-30.0	-32.5	19.7	6.05e-01	0	43	102	524288	21	4846
2026-01-23 12:17:53.68	331.29	50.78	-30.0	-32.6	19.8	6.06e-01	0	43	102	524288	21	4869
2026-01-23 12:17:54.68	331.45	50.38	-30.1	-32.9	19.6	6.05e-01	0	43	102	524288	21	4973
2026-01-23 12:17:55.68	331.61	49.98	-30.5	-33.8	19.0	6.04e-01	0	43	102	524288	21	5314
2026-01-23 12:17:56.69	331.77	49.59	-30.3	-33.5	19.2	6.05e-01	0	43	102	524288	21	5181
2026-01-23 12:17:57.70	331.92	49.19	-30.2	-33.1	19.4	6.06e-01	0	43	102	524288	21	5052
2026-01-23 12:17:58.70	332.07	48.81	-29.9	-32.4	19.8	6.06e-01	0	43	102	524288	21	4793
2026-01-23 12:17:59.71	332.22	48.42	-29.7	-31.9	20.2	6.06e-01	0	43	102	524288	21	4627
2026-01-23 12:18:00.71	332.36	48.04	-29.8	-32.2	20.0	6.07e-01	0	43	102	524288	21	4730
2026-01-23 12:18:01.72	332.50	47.66	-30.0	-32.6	19.7	6.06e-01	0	43	102	524288	21	4861
2026-01-23 12:18:02.73	332.63	47.29	-30.0	-32.6	19.7	6.05e-01	0	43	102	524288	21	4879
2026-01-23 12:18:03.74	332.76	46.92	-30.0	-32.6	19.7	6.06e-01	0	43	102	524288	21	4883
2026-01-23 12:18:04.74	332.89	46.55	-30.0	-32.6	19.7	6.04e-01	0	43	102	524288	21	4868
2026-01-23 12:18:05.75	333.02	46.19	-30.1	-32.9	19.5	6.05e-01	0	43	102	524288	21	4969
2026-01-23 12:18:06.75	333.14	45.83	-30.0	-32.6	19.7	6.05e-01	0	43	102	524288	21	4872
2026-01-23 12:18:07.76	333.26	45.47	-29.9	-32.4	19.8	6.06e-01	0	43	102	524288	21	4800
2026-01-23 12:18:08.76	333.38	45.11	-30.0	-32.6	19.7	6.06e-01	0	43	102	524288	21	4859
2026-01-23 12:18:09.77	333.49	44.76	-30.1	-32.9	19.5	6.08e-01	0	43	102	524288	21	4968
2026-01-23 12:18:10.77	333.60	44.41	-30.2	-33.1	19.4	6.07e-01	0	43	102	524288	21	5049
2026-01-23 12:18:11.78	333.72	44.07	-30.0	-32.5	19.7	6.06e-01	0	43	102	524288	21	4846
2026-01-23 12:18:12.78	333.82	43.73	-29.8	-32.2	19.9	6.07e-01	0	43	102	524288	21	4727
2026-01-23 12:18:13.79	333.93	43.39	-30.0	-32.6	19.7	6.05e-01	0	43	102	524288	21	4879
2026-01-23 12:18:14.80	334.03	43.05	-30.1	-33.0	19.4	6.07e-01	0	43	102	524288	21	4991
2026-01-23 12:18:15.81	334.13	42.72	-30.3	-33.3	19.2	6.06e-01	0	43	102	524288	21	5132
2026-01-23 12:18:16.81	334.23	42.39	-30.5	-33.8	19.0	6.06e-01	0	43	102	524288	21	5316
2026-01-23 12:18:17.81	334.33	42.06	-30.5	-33.9	18.9	6.06e-01	0	43	102	524288	21	5349
2026-01-23 12:18:18.82	334.43	41.74	-30.6	-34.2	18.8	6.09e-01	0	43	102	524288	21	5445
2026-01-23 12:18:19.83	334.52	41.41	-30.5	-33.4	18.9	6.06e-01	0	43	102	524288	22	5028
2026-01-23 12:18:20.84	334.61	41.09	-30.5	-33.4	18.9	6.07e-01	0	43	102	524288	22	5024
2026-01-23 12:18:21.84	334.70	40.78	-30.5	-33.4	18.9	6.06e-01	0	43	102	524288	22	5051
2026-01-23 12:18:22.85	334.79	40.47	-30.6	-33.7	18.7	6.06e-01	0	43	102	524288	22	5156
2026-01-23 12:18:23.85	334.88	40.16	-30.4	-33.3	19.0	6.05e-01	0	43	102	524288	22	4997
2026-01-23 12:18:24.86	334.96	39.85	-30.4	-33.1	19.1	6.07e-01	0	43	102	524288	22	4937
2026-01-23 12:18:25.87	335.05	39.55	-30.6	-33.7	18.7	6.07e-01	0	43	102	524288	22	5157
2026-01-23 12:18:26.87	335.13	39.25	-30.7	-33.9	18.6	6.07e-01	0	43	102	524288	22	5248
2026-01-23 12:18:27.87	335.21	38.95	-30.7	-33.9	18.6	6.07e-01	0	43	102	524288	22	5228
2026-01-23 12:18:28.87	335.29	38.65	-30.5	-33.6	18.8	6.05e-01	0	43	102	524288	22	5108
2026-01-23 12:18:29.87	335.36	38.36	-30.6	-33.7	18.7	6.07e-01	0	43	102	524288	22	5138
2026-01-23 12:18:30.88	335.44	38.07	-30.8	-34.2	18.4	6.05e-01	0	43	102	524288	22	5355
2026-01-23 12:18:31.88	335.52	37.78	-30.8	-34.2	18.3	6.09e-01	0	43	102	524288	22	5351
2026-01-23 12:18:32.89	335.59	37.50	-31.0	-34.8	18.0	6.07e-01	0	43	102	524288	22	5568
2026-01-23 12:18:33.89	335.66	37.22	-30.8	-34.3	18.3	6.04e-01	0	43	102	524288	22	5371
2026-01-23 12:18:34.90	335.74	36.93	-30.5	-33.4	18.8	6.07e-01	0	43	102	524288	22	5037
2026-01-23 12:18:35.90	335.81	36.66	-30.2	-32.6	19.3	6.06e-01	0	43	102	524288	22	4772
2026-01-23 12:18:36.91	335.87	36.38	-29.9	-32.0	19.7	6.06e-01	0	43	102	524288	22	4573
2026-01-23 12:18:37.91	335.94	36.11	-29.8	-32.1	19.9	6.04e-01	0	43	102	524288	21	4704
2026-01-23 12:18:38.92	336.01	35.84	-29.7	-32.0	20.0	6.06e-01	0	43	102	524288	21	4662
2026-01-23 12:18:39.92	336.08	35.57	-29.8	-32.1	19.9	6.06e-01	0	43	102	524288	21	4722
2026-01-23 12:18:40.92	336.14	35.30	-29.6	-31.7	20.2	6.04e-01	0	43	102	524288	21	4576
2026-01-23 12:18:41.93	336.20	35.04	-29.5	-31.4	20.3	6.08e-01	0	43	102	524288	21	4490
2026-01-23 12:18:42.94	336.27	34.78	-29.5	-31.3	20.3	6.07e-01	0	43	102	524288	21	4466
2026-01-23 12:18:43.94	336.33	34.52	-29.6	-31.6	20.2	6.06e-01	0	43	102	524288	21	4539
2026-01-23 12:18:44.94	336.39	34.26	-29.4	-31.2	20.5	6.07e-01	0	43	102	524288	21	4412
2026-01-23 12:18:45.95	336.45	34.01	-29.4	-31.3	20.4	6.07e-01	0	43	102	524288	21	4449
2026-01-23 12:18:46.96	336.51	33.75	-29.5	-31.5	20.3	6.06e-01	0	43	102	524288	21	4517
2026-01-23 12:18:47.97	336.57	33.50	-29.4	-31.2	20.4	6.08e-01	0	43	102	524288	21	4420
2026-01-23 12:18:48.97	336.63	33.26	-29.2	-31.1	20.8	6.07e-01	0	43	102	524288	20	4506
2026-01-23 12:18:49.98	336.68	33.01	-29.2	-31.1	20.7	6.07e-01	0	43	102	524288	20	4509
2026-01-23 12:18:50.98	336.74	32.77	-29.2	-31.3	20.7	6.07e-01	0	43	102	524288	20	4553
2026-01-23 12:18:51.98	336.79	32.53	-29.2	-31.1	20.8	6.06e-01	0	43	102	524288	20	4499
2026-01-23 12:18:52.98	336.85	32.29	-29.1	-31.0	20.8	6.08e-01	0	43	102	524288	20	4461
2026-01-23 12:18:53.99	336.90	32.05	-29.2	-31.1	20.7	6.04e-01	0	43	102	524288	20	4515
2026-01-23 12:18:54.99	336.95	31.81	-29.1	-31.0	20.8	6.07e-01	0	43	102	524288	20	4488
2026-01-23 12:18:55.99	337.01	31.58	-29.2	-31.3	20.6	6.07e-01	0	43	102	524288	20	4563
2026-01-23 12:18:57.00	337.06	31.35	-29.1	-31.0	20.8	6.08e-01	0	43	102	524288	20	4483
2026-01-23 12:18:58.01	337.11	31.12	-29.2	-31.3	20.6	6.05e-01	0	43	102	524288	20	4565
2026-01-23 12:18:59.01	337.16	30.89	-29.2	-31.1	20.7	6.07e-01	0	43	102	524288	20	4502
2026-01-23 12:19:00.01	337.21	30.67	-29.0	-30.8	20.9	6.06e-01	0	43	102	524288	20	4408
2026-01-23 12:19:01.01	337.26	30.44	-29.0	-30.6	21.0	6.06e-01	0	43	102	524288	20	4366
2026-01-23 12:19:02.02	337.30	30.22	-29.0	-30.6	21.0	6.07e-01	0	43	102	524288	20	4360
2026-01-23 12:19:03.02	337.35	30.00	-29.0	-30.6	20.9	6.06e-01	0	43	102	524288	20	4361
2026-01-23 12:19:04.03	337.40	29.78	-29.0	-30.8	20.9	6.05e-01	0	43	102	524288	20	4418
2026-01-23 12:19:05.03	337.44	29.56	-29.0	-30.8	20.9	6.04e-01	0	43	102	524288	20	4413
2026-01-23 12:19:06.04	337.49	29.35	-29.1	-31.0	20.8	6.07e-01	0	43	102	524288	20	4462
2026-01-23 12:19:07.04	337.54	29.13	-29.2	-31.4	20.5	6.08e-01	0	43	102	524288	20	4587
2026-01-23 12:19:08.05	337.58	28.92	-29.3	-31.5	20.4	6.04e-01	0	43	102	524288	20	4638
2026-01-23 12:19:09.05	337.62	28.71	-29.4	-31.8	20.2	6.06e-01	0	43	102	524288	20	4725
2026-01-23 12:19:10.05	337.67	28.51	-29.4	-31.8	20.2	6.08e-01	0	43	102	524288	20	4738
2026-01-23 12:19:11.06	337.71	28.30	-29.5	-32.0	20.1	6.05e-01	0	43	102	524288	20	4816
2026-01-23 12:19:12.07	337.75	28.09	-29.5	-31.9	20.1	6.06e-01	0	43	102	524288	20	4779
2026-01-23 12:19:13.07	337.79	27.89	-29.6	-32.1	20.0	6.06e-01	0	43	102	524288	20	4840
2026-01-23 12:19:14.07	337.84	27.69	-29.4	-31.7	20.3	6.07e-01	0	43	102	524288	20	4691
2026-01-23 12:19:15.08	337.88	27.49	-29.3	-31.4	20.5	6.07e-01	0	43	102	524288	20	4595
2026-01-23 12:19:16.09	337.92	27.29	-29.3	-31.4	20.4	6.06e-01	0	43	102	524288	20	4607
2026-01-23 12:19:17.09	337.96	27.09	-29.4	-31.7	20.3	6.05e-01	0	43	102	524288	20	4705
2026-01-23 12:19:18.09	338.00	26.90	-29.4	-31.7	20.3	6.06e-01	0	43	102	524288	20	4702
2026-01-23 12:19:19.09	338.04	26.70	-29.5	-31.9	20.1	6.05e-01	0	43	102	524288	20	4777
2026-01-23 12:19:20.10	338.07	26.51	-29.5	-31.9	20.1	6.04e-01	0	43	102	524288	20	4781
2026-01-23 12:19:21.11	338.11	26.32	-29.6	-32.2	20.0	6.04e-01	0	43	102	524288	20	4862
2026-01-23 12:19:22.12	338.15	26.13	-29.6	-32.2	20.0	6.07e-01	0	43	102	524288	20	4856
2026-01-23 12:19:23.13	338.19	25.94	-29.6	-32.3	19.9	6.05e-01	0	43	102	524288	20	4910
2026-01-23 12:19:24.14	338.23	25.75	-29.6	-32.2	20.0	6.07e-01	0	43	102	524288	20	4869
2026-01-23 12:19:25.14	338.26	25.56	-29.6	-32.2	20.0	6.06e-01	0	43	102	524288	20	4868
2026-01-23 12:19:26.14	338.30	25.38	-29.6	-32.3	19.9	6.07e-01	0	43	102	524288	20	4908
2026-01-23 12:19:27.15	338.33	25.20	-29.8	-32.7	19.7	6.08e-01	0	43	102	524288	20	5035
2026-01-23 12:19:28.15	338.37	25.02	-29.7	-32.5	19.8	6.07e-01	0	43	102	524288	20	4970
2026-01-23 12:19:29.16	338.40	24.84	-29.8	-32.8	19.5	6.08e-01	0	43	102	524288	20	5093
2026-01-23 12:19:30.16	338.44	24.66	-29.7	-32.7	19.7	6.06e-01	0	43	102	524288	20	5034
2026-01-23 12:19:31.16	338.47	24.48	-29.9	-33.0	19.4	6.06e-01	0	43	102	524288	20	5163
2026-01-23 12:19:32.17	338.51	24.30	-30.0	-33.2	19.3	6.05e-01	0	43	102	524288	20	5242
2026-01-23 12:19:33.17	338.54	24.13	-30.0	-33.3	19.2	6.07e-01	0	43	102	524288	20	5271
2026-01-23 12:19:34.17	338.57	23.96	-30.0	-33.4	19.2	6.03e-01	0	43	102	524288	20	5316
2026-01-23 12:19:35.18	338.61	23.78	-30.2	-33.3	18.9	6.04e-01	0	43	102	524288	21	5152
2026-01-23 12:19:36.17	338.64	23.62	-30.3	-33.6	18.7	6.05e-01	0	43	102	524288	21	5273
2026-01-23 12:19:37.18	338.67	23.44	-30.2	-33.3	18.9	6.05e-01	0	43	102	524288	21	5168
2026-01-23 12:19:38.19	338.70	23.28	-30.4	-33.8	18.6	6.02e-01	0	43	102	524288	21	5336
2026-01-23 12:19:39.19	338.74	23.11	-30.2	-33.4	18.8	6.02e-01	0	43	102	524288	21	5205
2026-01-23 12:19:40.20	338.77	22.94	-30.4	-33.9	18.5	6.04e-01	0	43	102	524288	21	5390
2026-01-23 12:19:41.21	338.80	22.78	-30.7	-34.2	18.1	6.02e-01	0	43	102	524288	22	5381
2026-01-23 12:19:42.21	338.83	22.61	-30.4	-33.5	18.5	6.04e-01	0	43	102	524288	22	5111
2026-01-23 12:19:43.21	338.86	22.45	-30.2	-32.8	18.8	6.03e-01	0	43	102	524288	22	4876
2026-01-23 12:19:44.21	338.89	22.29	-30.0	-32.4	19.1	6.04e-01	0	43	102	524288	22	4743
2026-01-23 12:19:45.22	338.92	22.13	-29.9	-32.2	19.3	6.04e-01	0	43	102	524288	22	4652
2026-01-23 12:19:46.22	338.95	21.97	-29.9	-32.1	19.3	6.02e-01	0	43	102	524288	22	4625
2026-01-23 12:19:47.23	338.98	21.81	-29.9	-32.0	19.3	6.02e-01	0	43	102	524288	22	4608
2026-01-23 12:19:48.24	339.01	21.65	-29.9	-32.5	19.3	6.02e-01	0	43	102	524288	21	4882
2026-01-23 12:19:49.24	339.04	21.50	-30.0	-32.9	19.0	6.07e-01	0	43	102	524288	21	5010
2026-01-23 12:19:50.24	339.06	21.34	-29.8	-32.3	19.4	6.03e-01	0	43	102	524288	21	4794
2026-01-23 12:19:51.25	339.09	21.19	-29.6	-31.9	19.7	6.03e-01	0	43	102	524288	21	4673
2026-01-23 12:19:52.26	339.12	21.03	-29.6	-31.7	19.8	6.05e-01	0	43	102	524288	21	4626
2026-01-23 12:19:53.26	339.15	20.88	-29.6	-31.8	19.7	6.03e-01	0	43	102	524288	21	4631
2026-01-23 12:19:54.27	339.18	20.73	-29.5	-31.6	19.8	6.03e-01	0	43	102	524288	21	4596
2026-01-23 12:19:55.28	339.20	20.58	-29.6	-31.7	19.8	6.04e-01	0	43	102	524288	21	4615
2026-01-23 12:19:56.29	339.23	20.43	-29.6	-31.9	19.7	6.02e-01	0	43	102	524288	21	4678
2026-01-23 12:19:57.29	339.26	20.28	-29.6	-31.7	19.7	6.03e-01	0	43	102	524288	21	4625
2026-01-23 12:19:58.30	339.29	20.13	-29.5	-31.5	19.9	6.02e-01	0	43	102	524288	21	4556
2026-01-23 12:19:59.30	339.31	19.99	-29.5	-31.6	19.8	6.02e-01	0	43	102	524288	21	4570
2026-01-23 12:20:00.30	339.34	19.84	-29.4	-31.4	19.9	6.01e-01	0	43	102	524288	21	4507
2026-01-23 12:20:01.31	339.36	19.70	-29.5	-31.5	19.9	6.04e-01	0	43	102	524288	21	4543
2026-01-23 12:20:02.32	339.39	19.55	-29.5	-31.7	19.7	6.02e-01	0	43	102	524288	21	4612
2026-01-23 12:20:03.32	339.41	19.41	-29.6	-31.8	19.6	6.04e-01	0	43	102	524288	21	4665
2026-01-23 12:20:04.33	339.44	19.27	-29.6	-31.7	19.7	6.02e-01	0	43	102	524288	21	4631
2026-01-23 12:20:05.33	339.47	19.13	-29.6	-31.9	19.6	6.03e-01	0	43	102	524288	21	4685
2026-01-23 12:20:06.34	339.49	18.98	-29.7	-32.0	19.5	6.02e-01	0	43	102	524288	21	4723
2026-01-23 12:20:07.35	339.52	18.84	-29.6	-31.8	19.6	6.02e-01	0	43	102	524288	21	4638
2026-01-23 12:20:08.35	339.54	18.71	-29.5	-31.7	19.7	6.03e-01	0	43	102	524288	21	4609
2026-01-23 12:20:09.35	339.56	18.57	-29.5	-31.7	19.7	6.03e-01	0	43	102	524288	21	4631
2026-01-23 12:20:10.36	339.59	18.43	-29.6	-32.0	19.5	6.04e-01	0	43	102	524288	21	4702
2026-01-23 12:20:11.37	339.61	18.30	-29.5	-31.6	19.7	6.04e-01	0	43	102	524288	21	4579
2026-01-23 12:20:12.38	339.64	18.16	-29.4	-31.4	19.9	6.03e-01	0	43	102	524288	21	4510
2026-01-23 12:20:13.38	339.66	18.03	-29.3	-31.6	20.0	6.01e-01	0	43	102	524288	20	4700
2026-01-23 12:20:14.38	339.68	17.89	-29.4	-31.8	19.9	6.02e-01	0	43	102	524288	20	4748
2026-01-23 12:20:15.39	339.71	17.76	-29.5	-32.1	19.8	6.03e-01	0	43	102	524288	20	4850
2026-01-23 12:20:16.40	339.73	17.63	-29.5	-32.1	19.7	6.06e-01	0	43	102	524288	20	4860
2026-01-23 12:20:17.40	339.75	17.50	-29.6	-32.3	19.6	6.02e-01	0	43	102	524288	20	4934
2026-01-23 12:20:18.40	339.77	17.37	-29.6	-32.5	19.5	6.02e-01	0	43	102	524288	20	5004
2026-01-23 12:20:19.41	339.80	17.24	-29.7	-32.5	19.5	6.04e-01	0	43	102	524288	20	5020
2026-01-23 12:20:20.41	339.82	17.11	-29.8	-32.9	19.3	6.04e-01	0	43	102	524288	20	5140
2026-01-23 12:20:21.41	339.84	16.98	-30.0	-33.3	19.0	6.01e-01	0	43	102	524288	20	5320
2026-01-23 12:20:22.42	339.86	16.85	-29.8	-33.0	19.2	6.04e-01	0	43	102	524288	20	5193
2026-01-23 12:20:23.42	339.89	16.73	-29.9	-33.3	19.0	6.04e-01	0	43	102	524288	20	5290
2026-01-23 12:20:24.42	339.91	16.60	-30.1	-33.7	18.7	6.02e-01	0	43	102	524288	20	5454
2026-01-23 12:20:25.43	339.93	16.48	-30.0	-33.6	18.8	6.04e-01	0	43	102	524288	20	5417
2026-01-23 12:20:26.44	339.95	16.35	-30.1	-33.3	18.6	6.03e-01	0	43	102	524288	21	5188
2026-01-23 12:20:27.45	339.97	16.23	-30.3	-33.7	18.4	6.03e-01	0	43	102	524288	21	5359
2026-01-23 12:20:28.45	339.99	16.11	-30.4	-34.2	18.1	6.04e-01	0	43	102	524288	21	5533
2026-01-23 12:20:29.46	340.01	15.98	-30.3	-33.8	18.4	6.03e-01	0	43	102	524288	21	5373
2026-01-23 12:20:30.46	340.03	15.86	-30.2	-33.4	18.5	6.03e-01	0	43	102	524288	21	5246
2026-01-23 12:20:31.46	340.05	15.74	-30.1	-33.3	18.6	6.04e-01	0	43	102	524288	21	5205
2026-01-23 12:20:32.46	340.08	15.62	-30.1	-33.3	18.6	6.02e-01	0	43	102	524288	21	5184
2026-01-23 12:20:33.47	340.10	15.50	-30.1	-33.4	18.6	6.03e-01	0	43	102	524288	21	5236
2026-01-23 12:20:34.47	340.12	15.38	-30.2	-33.5	18.4	6.02e-01	0	43	102	524288	21	5294
2026-01-23 12:20:35.48	340.14	15.26	-30.2	-33.6	18.4	6.03e-01	0	43	102	524288	21	5321
2026-01-23 12:20:36.48	340.16	15.15	-30.3	-33.8	18.2	6.00e-01	0	43	102	524288	21	5400
2026-01-23 12:20:37.48	340.18	15.03	-30.1	-33.2	18.6	6.03e-01	0	43	102	524288	21	5148
2026-01-23 12:20:38.49	340.20	14.91	-29.8	-32.5	19.1	6.04e-01	0	43	102	524288	21	4919
2026-01-23 12:20:39.49	340.22	14.80	-29.7	-32.2	19.3	6.03e-01	0	43	102	524288	21	4792
2026-01-23 12:20:40.49	340.23	14.68	-29.5	-31.8	19.5	6.01e-01	0	43	102	524288	21	4658
2026-01-23 12:20:41.50	340.25	14.57	-29.5	-31.7	19.5	6.03e-01	0	43	102	524288	21	4639
2026-01-23 12:20:42.51	340.27	14.45	-29.5	-31.7	19.5	6.02e-01	0	43	102	524288	21	4640
2026-01-23 12:20:43.51	340.29	14.34	-29.5	-31.6	19.6	6.03e-01	0	43	102	524288	21	4611
2026-01-23 12:20:44.52	340.31	14.22	-29.4	-31.6	19.6	6.02e-01	0	43	102	524288	21	4597
2026-01-23 12:20:45.53	340.33	14.11	-29.5	-31.6	19.6	6.03e-01	0	43	102	524288	21	4607
2026-01-23 12:20:46.53	340.35	14.00	-29.5	-31.6	19.6	6.04e-01	0	43	102	524288	21	4614
2026-01-23 12:20:47.54	340.37	13.89	-29.5	-31.6	19.5	6.01e-01	0	43	102	524288	21	4618
2026-01-23 12:20:48.54	340.39	13.78	-29.4	-31.5	19.6	6.02e-01	0	43	102	524288	21	4581
2026-01-23 12:20:49.54	340.40	13.67	-29.5	-31.7	19.5	6.04e-01	0	43	102	524288	21	4641
2026-01-23 12:20:50.54	340.42	13.56	-29.5	-31.7	19.4	6.01e-01	0	43	102	524288	21	4659
2026-01-23 12:20:51.55	340.44	13.45	-29.6	-32.0	19.2	6.03e-01	0	43	102	524288	21	4759
2026-01-23 12:20:52.55	340.46	13.34	-29.6	-32.0	19.2	6.01e-01	0	43	102	524288	21	4754
2026-01-23 12:20:53.55	340.48	13.23	-29.7	-32.2	19.2	6.02e-01	0	43	102	524288	21	4803
2026-01-23 12:20:54.56	340.49	13.13	-29.7	-32.2	19.1	6.00e-01	0	43	102	524288	21	4827
2026-01-23 12:20:55.55	340.51	13.02	-29.5	-31.9	19.4	6.03e-01	0	43	102	524288	21	4710
2026-01-23 12:20:56.55	340.53	12.92	-29.6	-31.9	19.3	6.03e-01	0	43	102	524288	21	4724
2026-01-23 12:20:57.56	340.55	12.81	-29.5	-31.8	19.3	6.05e-01	0	43	102	524288	21	4691
2026-01-23 12:20:58.56	340.56	12.70	-29.5	-31.8	19.3	6.05e-01	0	43	102	524288	21	4696
2026-01-23 12:20:59.56	340.58	12.60	-29.5	-31.8	19.4	6.02e-01	0	43	102	524288	21	4687
2026-01-23 12:21:00.56	340.60	12.50	-29.6	-32.1	19.2	6.02e-01	0	43	102	524288	21	4792
2026-01-23 12:21:01.57	340.62	12.39	-29.6	-32.0	19.2	6.04e-01	0	43	102	524288	21	4754
2026-01-23 12:21:02.57	340.63	12.29	-29.5	-31.9	19.2	6.03e-01	0	43	102	524288	21	4708
2026-01-23 12:21:03.57	340.65	12.19	-29.6	-31.9	19.2	6.05e-01	0	43	102	524288	21	4724
2026-01-23 12:21:04.58	340.67	12.08	-29.6	-32.0	19.2	6.01e-01	0	43	102	524288	21	4750
2026-01-23 12:21:05.58	340.68	11.98	-29.6	-32.0	19.2	6.05e-01	0	43	102	524288	21	4748
2026-01-23 12:21:06.59	340.70	11.88	-29.6	-32.1	19.1	6.03e-01	0	43	102	524288	21	4780
2026-01-23 12:21:07.60	340.72	11.78	-29.7	-32.2	19.1	6.04e-01	0	43	102	524288	21	4819
2026-01-23 12:21:08.61	340.73	11.68	-29.7	-32.3	18.9	6.03e-01	0	43	102	524288	21	4874
2026-01-23 12:21:09.61	340.75	11.58	-29.7	-32.4	18.9	6.01e-01	0	43	102	524288	21	4876
2026-01-23 12:21:10.62	340.77	11.48	-29.6	-32.1	19.1	6.01e-01	0	43	102	524288	21	4792
2026-01-23 12:21:11.62	340.78	11.38	-29.6	-32.2	19.0	6.05e-01	0	43	102	524288	21	4815
2026-01-23 12:21:12.63	340.80	11.28	-29.7	-32.2	19.0	6.03e-01	0	43	102	524288	21	4833
2026-01-23 12:21:13.64	340.81	11.18	-29.6	-32.1	19.0	6.04e-01	0	43	102	524288	21	4801
2026-01-23 12:21:14.64	340.83	11.08	-29.7	-32.4	18.9	6.02e-01	0	43	102	524288	21	4896
2026-01-23 12:21:15.64	340.85	10.99	-29.7	-32.3	18.9	6.03e-01	0	43	102	524288	21	4876
2026-01-23 12:21:16.64	340.86	10.89	-29.7	-32.3	18.9	6.02e-01	0	43	102	524288	21	4857
2026-01-23 12:21:17.65	340.88	10.79	-29.7	-32.4	18.8	6.05e-01	0	43	102	524288	21	4891
2026-01-23 12:21:18.65	340.89	10.70	-29.7	-32.4	18.8	6.02e-01	0	43	102	524288	21	4900
2026-01-23 12:21:19.66	340.91	10.60	-29.7	-32.4	18.8	6.02e-01	0	43	102	524288	21	4918
2026-01-23 12:21:20.66	340.92	10.51	-29.8	-32.5	18.7	6.02e-01	0	43	102	524288	21	4946
2026-01-23 12:21:21.67	340.94	10.41	-29.8	-32.6	18.7	6.01e-01	0	43	102	524288	21	4984
2026-01-23 12:21:22.67	340.96	10.32	-29.8	-32.6	18.7	6.02e-01	0	43	102	524288	21	4965
2026-01-23 12:21:23.67	340.97	10.22	-29.9	-32.8	18.6	6.04e-01	0	43	102	524288	21	5042
2026-01-23 12:21:24.68	340.99	10.13	-29.9	-33.0	18.4	6.02e-01	0	43	102	524288	21	5109
2026-01-23 12:21:25.68	341.00	10.04	-29.9	-32.8	18.5	6.03e-01	0	43	102	524288	21	5051
2026-01-23 12:21:26.68	341.02	9.94	-29.9	-32.9	18.4	6.03e-01	0	43	102	524288	21	5101
2026-01-23 12:21:27.69	341.03	9.85	-30.0	-33.3	18.3	6.04e-01	0	43	102	524288	21	5222
2026-01-23 12:21:28.69	341.05	9.76	-30.0	-33.2	18.2	6.03e-01	0	43	102	524288	21	5225
2026-01-23 12:21:29.70	341.06	9.67	-30.1	-33.5	18.1	6.02e-01	0	43	102	524288	21	5316
2026-01-23 12:21:30.71	341.07	9.57	-30.1	-33.5	18.1	6.02e-01	0	43	102	524288	21	5319
2026-01-23 12:21:31.71	341.09	9.48	-30.1	-33.6	18.0	6.04e-01	0	43	102	524288	21	5365
2026-01-23 12:21:32.72	341.10	9.39	-30.2	-33.9	17.8	5.99e-01	0	43	102	524288	21	5497
2026-01-23 12:21:33.73	341.12	9.30	-30.3	-33.9	17.7	6.04e-01	0	43	102	524288	21	5509
2026-01-23 12:21:34.73	341.13	9.21	-30.3	-34.0	17.7	6.02e-01	0	43	102	524288	21	5549
2026-01-23 12:21:35.73	341.15	9.12	-30.3	-34.0	17.6	6.03e-01	0	43	102	524288	21	5546
2026-01-23 12:21:36.73	341.16	9.03	-30.2	-33.9	17.8	6.01e-01	0	43	102	524288	21	5494
2026-01-23 12:21:37.74	341.18	8.94	-30.4	-34.3	17.5	6.02e-01	0	43	102	524288	21	5669
2026-01-23 12:21:38.74	341.19	8.86	-30.4	-34.4	17.4	6.01e-01	0	43	102	524288	21	5727
2026-01-23 12:21:39.74	341.20	8.77	-30.4	-34.5	17.4	6.02e-01	0	43	102	524288	21	5739
2026-01-23 12:21:40.74	341.22	8.68	-30.6	-35.0	17.1	6.02e-01	0	43	102	524288	21	5966
2026-01-23 12:21:41.74	341.23	8.59	-30.6	-34.5	17.0	6.03e-01	0	43	102	524288	22	5624
2026-01-23 12:21:42.74	341.25	8.51	-30.5	-34.3	17.2	6.02e-01	0	43	102	524288	22	5543
2026-01-23 12:21:43.75	341.26	8.42	-30.4	-34.1	17.3	6.03e-01	0	43	102	524288	22	5456
2026-01-23 12:21:44.75	341.27	8.33	-30.5	-34.2	17.2	6.02e-01	0	43	102	524288	22	5518
2026-01-23 12:21:45.75	341.29	8.25	-30.5	-34.2	17.2	6.02e-01	0	43	102	524288	22	5530
2026-01-23 12:21:46.76	341.30	8.16	-30.6	-34.6	16.9	6.01e-01	0	43	102	524288	22	5695
2026-01-23 12:21:47.76	341.31	8.08	-30.6	-34.6	16.9	6.04e-01	0	43	102	524288	22	5681
2026-01-23 12:21:48.76	341.33	7.99	-30.7	-34.9	16.7	6.02e-01	0	43	102	524288	22	5835
2026-01-23 12:21:49.77	341.34	7.91	-30.6	-34.7	16.8	6.01e-01	0	43	102	524288	22	5738
2026-01-23 12:21:50.78	341.36	7.82	-30.6	-34.7	16.8	6.02e-01	0	43	102	524288	22	5752
2026-01-23 12:21:51.78	341.37	7.74	-30.9	-35.5	16.2	6.02e-01	0	43	102	524288	22	6138
2026-01-23 12:21:52.79	341.38	7.65	-30.9	-35.5	16.2	6.00e-01	0	43	102	524288	22	6123
2026-01-23 12:21:53.80	341.40	7.57	-30.8	-35.1	16.5	6.04e-01	0	43	102	524288	22	5932
2026-01-23 12:21:54.80	341.41	7.49	-30.9	-35.6	16.2	6.03e-01	0	43	102	524288	22	6177
2026-01-23 12:21:55.80	341.42	7.40	-30.9	-35.4	16.2	6.02e-01	0	43	102	524288	22	6089
2026-01-23 12:21:56.80	341.43	7.32	-30.8	-35.2	16.4	6.04e-01	0	43	102	524288	22	6012
2026-01-23 12:21:57.81	341.45	7.24	-30.9	-35.6	16.1	6.02e-01	0	43	102	524288	22	6187
2026-01-23 12:21:58.82	341.46	7.16	-30.9	-35.5	16.1	6.02e-01	0	43	102	524288	22	6136
2026-01-23 12:21:59.81	341.47	7.08	-33.5	-52.5	3.8	7.41e-01	0	43	104	524288	27	32274
2026-01-23 12:22:00.81	341.49	6.99	-33.7	-52.9	3.8	7.47e-01	0	43	104	524288	28	32978
2026-01-23 12:22:01.82	341.50	6.91	-33.9	-53.4	3.8	7.49e-01	0	43	104	524288	28	33952
2026-01-23 12:22:02.83	341.51	6.83	-34.1	-53.3	3.8	7.46e-01	0	43	104	524288	29	32838

#Closed at: 2026-01-23 12:22:02
#Recorded file [0 MB]: D:/data/31010_260123_151130.dat