passes_logs/2026/01/23/R2M6_AANII_01/R2M6_AANII_01__20260123_005817_AQUA_rec.log

#Pass ID: 20260123_005817_AQUA
#Satellite: AQUA
#Configuration: AQUA
#almurnet v.1.7.20240730
#Start time: 2026-01-23 00:58:17

#Version: 2.2.20231116
#Station: R2M6_AANII_01
#Location: 30.233357 lon 59.946436 lat
#TLE: 1 27424U 02022A   26022.49486490  .00002153  00000+0  44069-3 0  9997
#TLE: 2 27424  98.4099 349.0485 0001970  69.5876  43.4746 14.61847233261984

#Time	Az	El	Level	Level2	SNR	BER	BlckErr	Temp	State	Recorded	gain1	gain2
2026-01-23 00:58:17.95	26.93	7.03	-34.7	-53.9	3.8	7.47e-01	0	44	0	0	30	32818
2026-01-23 00:58:18.95	27.00	7.10	-34.5	-51.6	3.9	7.43e-01	0	44	104	0	30	25892
2026-01-23 00:58:19.95	27.08	7.18	-34.4	-53.3	3.8	7.45e-01	0	44	104	0	30	31761
2026-01-23 00:58:20.96	27.16	7.25	-34.3	-53.0	3.8	7.43e-01	0	44	104	0	30	31094
2026-01-23 00:58:21.95	27.24	7.33	-34.1	-53.1	3.8	7.43e-01	0	44	104	0	29	32282
2026-01-23 00:58:22.96	27.32	7.40	-33.9	-52.8	3.8	7.45e-01	0	44	104	0	29	31733
2026-01-23 00:58:23.97	27.41	7.48	-33.4	-51.4	3.8	7.45e-01	0	44	104	0	28	28539
2026-01-23 00:58:24.97	27.49	7.55	-33.6	-52.7	3.8	7.47e-01	0	44	104	0	27	32615
2026-01-23 00:58:25.98	27.57	7.63	-33.6	-52.8	3.8	7.44e-01	0	44	104	0	27	32943
2026-01-23 00:58:26.98	27.65	7.70	-33.6	-52.9	3.8	7.46e-01	0	44	104	0	27	33124
2026-01-23 00:58:27.99	27.73	7.78	-33.5	-52.6	3.8	7.44e-01	0	44	104	0	27	32433
2026-01-23 00:58:28.99	27.82	7.85	-33.4	-52.1	3.8	7.48e-01	0	44	104	0	27	30723
2026-01-23 00:58:29.99	27.90	7.93	-33.3	-51.1	3.8	7.45e-01	0	44	104	0	27	27891
2026-01-23 00:58:31.00	27.98	8.01	-33.1	-49.7	3.8	7.41e-01	0	44	104	0	27	24554
2026-01-23 00:58:32.00	28.07	8.08	-32.8	-48.3	3.8	7.48e-01	0	44	104	0	27	21457
2026-01-23 00:58:33.00	28.15	8.16	-32.4	-47.4	3.8	7.42e-01	0	44	104	0	26	20265
2026-01-23 00:58:34.00	28.24	8.24	-32.1	-46.6	3.8	7.46e-01	0	44	104	0	25	19187
2026-01-23 00:58:35.01	28.32	8.31	-31.7	-45.2	3.8	7.43e-01	0	44	104	0	25	17173
2026-01-23 00:58:36.01	28.41	8.39	-31.4	-44.8	3.8	7.48e-01	0	44	104	0	24	16871
2026-01-23 00:58:37.01	28.50	8.47	-31.3	-44.5	3.8	7.45e-01	0	44	104	0	24	16460
2026-01-23 00:58:38.02	28.58	8.55	-31.1	-44.0	3.8	7.45e-01	0	44	104	0	24	15849
2026-01-23 00:58:39.02	28.67	8.62	-31.1	-44.6	3.8	7.47e-01	0	44	104	0	23	16964
2026-01-23 00:58:40.03	28.76	8.70	-31.2	-44.6	3.8	7.43e-01	0	44	104	0	23	16971
2026-01-23 00:58:41.03	28.85	8.78	-31.4	-45.2	3.8	7.45e-01	0	44	104	0	23	17646
2026-01-23 00:58:42.04	28.94	8.86	-31.6	-45.5	3.9	7.46e-01	0	44	104	0	24	17799
2026-01-23 00:58:43.05	29.03	8.94	-31.9	-46.5	3.8	7.45e-01	0	44	104	0	24	19345
2026-01-23 00:58:44.05	29.12	9.02	-32.2	-47.1	3.8	7.46e-01	0	44	104	0	25	19982
2026-01-23 00:58:45.06	29.21	9.10	-32.5	-48.4	3.8	7.47e-01	0	44	104	0	25	22310
2026-01-23 00:58:46.06	29.30	9.18	-32.6	-48.6	3.8	7.48e-01	0	44	104	0	25	22715
2026-01-23 00:58:47.06	29.39	9.26	-32.4	-47.7	3.8	7.41e-01	0	44	104	0	25	20980
2026-01-23 00:58:48.07	29.49	9.34	-32.2	-46.9	3.8	7.42e-01	0	44	104	0	25	19663
2026-01-23 00:58:49.07	29.58	9.42	-32.0	-46.7	3.8	7.43e-01	0	44	104	0	24	19600
2026-01-23 00:58:50.07	29.67	9.50	-31.7	-45.8	3.8	7.45e-01	0	44	104	0	24	18201
2026-01-23 00:58:51.07	29.76	9.58	-31.5	-45.2	3.8	7.46e-01	0	44	104	0	24	17430
2026-01-23 00:58:52.07	29.86	9.66	-31.8	-46.0	3.8	7.43e-01	0	44	104	0	24	18496
2026-01-23 00:58:53.07	29.95	9.74	-32.0	-46.7	3.8	7.44e-01	0	44	104	0	24	19606
2026-01-23 00:58:54.08	30.05	9.82	-32.3	-47.3	3.8	7.45e-01	0	44	104	0	25	20195
2026-01-23 00:58:55.09	30.15	9.91	-32.5	-48.1	3.8	7.48e-01	0	44	104	0	25	21588
2026-01-23 00:58:56.09	30.24	9.99	-32.7	-48.5	3.8	7.47e-01	0	44	104	0	26	22105
2026-01-23 00:58:57.10	30.34	10.07	-33.0	-49.5	3.8	7.45e-01	0	44	104	0	26	24121
2026-01-23 00:58:58.10	30.44	10.15	-32.9	-49.1	3.8	7.47e-01	0	44	104	0	26	23347
2026-01-23 00:58:59.10	30.54	10.24	-33.0	-49.5	3.8	7.45e-01	0	44	104	0	26	24164
2026-01-23 00:59:00.11	30.63	10.32	-33.0	-49.8	3.8	7.42e-01	0	44	104	0	26	24926
2026-01-23 00:59:01.12	30.73	10.40	-33.1	-50.1	3.8	7.42e-01	0	44	104	0	26	25384
2026-01-23 00:59:02.12	30.83	10.49	-33.1	-49.9	3.8	7.45e-01	0	44	104	0	27	24705
2026-01-23 00:59:03.13	30.94	10.57	-33.2	-50.1	3.8	7.44e-01	0	44	104	0	27	25272
2026-01-23 00:59:04.13	31.04	10.65	-33.2	-50.1	3.8	7.46e-01	0	44	104	0	27	25310
2026-01-23 00:59:05.13	31.14	10.74	-33.1	-49.7	3.8	7.42e-01	0	44	104	0	27	24340
2026-01-23 00:59:06.13	31.24	10.82	-33.0	-49.6	3.8	7.45e-01	0	44	104	0	26	24418
2026-01-23 00:59:07.13	31.34	10.91	-32.9	-49.1	3.8	7.44e-01	0	44	104	0	26	23310
2026-01-23 00:59:08.14	31.45	10.99	-32.8	-48.5	3.8	7.41e-01	0	44	104	0	26	22127
2026-01-23 00:59:09.15	31.55	11.08	-32.6	-48.0	3.8	7.46e-01	0	44	104	0	26	21149
2026-01-23 00:59:10.15	31.66	11.16	-32.6	-47.6	3.8	7.45e-01	0	44	104	0	26	20421
2026-01-23 00:59:11.16	31.76	11.25	-32.7	-48.4	3.8	7.42e-01	0	44	104	0	26	21795
2026-01-23 00:59:12.16	31.87	11.33	-32.9	-49.1	3.8	7.46e-01	0	44	104	0	26	23191
2026-01-23 00:59:13.17	31.98	11.42	-33.0	-49.6	3.8	7.44e-01	0	44	104	0	26	24309
2026-01-23 00:59:14.18	32.08	11.51	-33.1	-50.0	3.8	7.44e-01	0	44	104	0	26	25197
2026-01-23 00:59:15.19	32.19	11.60	-33.1	-49.8	3.8	7.47e-01	0	44	104	0	27	24387
2026-01-23 00:59:16.19	32.30	11.68	-33.2	-50.0	3.8	7.47e-01	0	44	104	0	27	24852
2026-01-23 00:59:17.19	32.41	11.77	-33.2	-50.2	3.8	7.47e-01	0	44	104	0	27	25305
2026-01-23 00:59:18.20	32.52	11.86	-33.3	-50.5	3.8	7.48e-01	0	44	104	0	27	26051
2026-01-23 00:59:19.20	32.63	11.94	-33.4	-50.9	3.8	7.43e-01	0	44	104	0	27	26913
2026-01-23 00:59:20.20	32.74	12.03	-33.5	-51.3	3.8	7.44e-01	0	44	104	0	27	27951
2026-01-23 00:59:21.21	32.85	12.12	-33.5	-51.8	3.8	7.44e-01	0	44	104	0	27	29330
2026-01-23 00:59:22.21	32.97	12.21	-33.6	-51.9	3.8	7.46e-01	0	44	104	0	27	29754
2026-01-23 00:59:23.21	33.08	12.30	-33.5	-51.2	3.8	7.45e-01	0	44	104	0	27	27738
2026-01-23 00:59:24.22	33.20	12.39	-33.3	-50.2	3.8	7.47e-01	0	44	104	0	27	25204
2026-01-23 00:59:25.23	33.31	12.48	-33.0	-48.9	3.8	7.44e-01	0	44	104	0	27	22454
2026-01-23 00:59:26.23	33.43	12.57	-32.8	-47.7	3.8	7.40e-01	0	44	104	0	27	20090
2026-01-23 00:59:27.24	33.54	12.66	-32.4	-46.9	3.8	7.45e-01	0	44	104	0	26	19174
2026-01-23 00:59:28.25	33.66	12.75	-32.1	-46.3	3.8	7.46e-01	0	44	104	0	25	18516
2026-01-23 00:59:29.25	33.78	12.84	-31.8	-45.2	3.8	7.45e-01	0	44	104	0	25	16937
2026-01-23 00:59:30.26	33.90	12.93	-31.5	-36.2	5.1	7.10e-01	0	44	104	0	25	6166
2026-01-23 00:59:31.27	34.02	13.02	-31.5	-36.1	15.7	6.02e-01	0	44	104	0	24	6074
2026-01-23 00:59:32.28	34.14	13.11	-31.6	-36.4	15.7	6.03e-01	0	44	0	524288	24	6209
2026-01-23 00:59:33.28	34.26	13.20	-31.6	-36.3	15.7	6.03e-01	0	44	0	2621440	24	6189
2026-01-23 00:59:34.28	34.38	13.30	-31.5	-35.9	16.1	6.02e-01	0	44	0	4194304	24	5975
2026-01-23 00:59:35.29	34.50	13.39	-30.6	-34.9	16.2	6.00e-01	0	44	0	6291456	24	5861
2026-01-23 00:59:36.28	34.63	13.48	-31.4	-36.0	16.2	6.02e-01	0	44	0	8388608	23	6124
2026-01-23 00:59:37.29	34.75	13.57	-31.4	-36.1	16.3	6.02e-01	0	44	0	9961472	23	6161
2026-01-23 00:59:38.30	34.88	13.67	-31.5	-36.4	16.0	6.05e-01	0	44	0	12058624	23	6320
2026-01-23 00:59:39.30	35.00	13.76	-31.8	-36.7	15.3	6.03e-01	0	44	0	13631488	24	6383
2026-01-23 00:59:40.30	35.13	13.85	-31.5	-35.7	16.2	6.02e-01	0	44	0	15728640	24	5862
2026-01-23 00:59:41.31	35.26	13.95	-31.0	-34.7	17.1	6.03e-01	0	44	0	17825792	23	5523
2026-01-23 00:59:42.31	35.38	14.04	-30.7	-33.8	17.9	6.02e-01	0	44	0	19398656	23	5159
2026-01-23 00:59:43.30	35.51	14.13	-30.4	-32.9	18.4	6.01e-01	0	44	0	21495808	23	4822
2026-01-23 00:59:44.31	35.64	14.23	-30.1	-32.6	18.9	6.00e-01	0	44	0	23068672	22	4829
2026-01-23 00:59:45.31	35.77	14.32	-29.9	-32.3	19.1	6.01e-01	0	44	0	25165824	22	4706
2026-01-23 00:59:46.32	35.91	14.42	-29.8	-32.4	19.4	6.03e-01	0	44	0	27262976	21	4841
2026-01-23 00:59:47.31	36.04	14.51	-29.8	-32.4	19.4	6.03e-01	0	44	0	28835840	21	4857
2026-01-23 00:59:48.32	36.17	14.61	-29.8	-32.5	19.3	6.01e-01	0	44	0	30932992	21	4884
2026-01-23 00:59:49.32	36.30	14.71	-29.8	-32.3	19.4	6.02e-01	0	44	0	32505856	21	4836
2026-01-23 00:59:50.32	36.44	14.80	-29.9	-32.6	19.3	6.01e-01	0	44	0	34603008	21	4924
2026-01-23 00:59:51.32	36.57	14.90	-29.9	-32.7	19.2	6.01e-01	0	44	0	36175872	21	4962
2026-01-23 00:59:52.33	36.71	15.00	-29.8	-32.5	19.3	6.01e-01	0	44	0	38273024	21	4894
2026-01-23 00:59:53.33	36.85	15.09	-30.0	-32.9	19.1	6.02e-01	0	44	0	40370176	21	5042
2026-01-23 00:59:54.33	36.99	15.19	-30.2	-33.4	18.8	6.02e-01	0	44	0	41943040	21	5200
2026-01-23 00:59:55.33	37.13	15.29	-30.1	-33.2	18.9	6.02e-01	0	44	0	44040192	21	5145
2026-01-23 00:59:56.34	37.27	15.39	-30.2	-33.5	18.7	6.05e-01	0	44	0	45613056	21	5250
2026-01-23 00:59:57.34	37.41	15.48	-30.3	-33.6	18.6	6.00e-01	0	44	0	47710208	21	5298
2026-01-23 00:59:58.34	37.55	15.58	-30.1	-33.3	18.8	5.99e-01	0	44	0	49283072	21	5172
2026-01-23 00:59:59.34	37.70	15.68	-30.1	-33.1	19.0	6.02e-01	0	44	0	51380224	21	5101
2026-01-23 01:00:00.35	37.84	15.78	-30.1	-33.2	18.9	6.02e-01	0	44	0	53477376	21	5131
2026-01-23 01:00:01.35	37.99	15.88	-30.1	-33.3	18.9	6.03e-01	0	44	0	55050240	21	5152
2026-01-23 01:00:02.36	38.13	15.98	-30.1	-33.1	19.0	6.03e-01	0	44	0	57147392	21	5111
2026-01-23 01:00:03.37	38.28	16.08	-30.2	-33.5	18.8	6.02e-01	0	44	0	59244544	21	5252
2026-01-23 01:00:04.37	38.43	16.18	-30.0	-32.8	19.2	6.03e-01	0	44	0	60817408	21	4994
2026-01-23 01:00:05.37	38.58	16.28	-29.8	-32.4	19.4	6.04e-01	0	44	0	62914560	21	4851
2026-01-23 01:00:06.37	38.73	16.38	-29.7	-32.1	19.6	6.00e-01	0	44	0	64487424	21	4752
2026-01-23 01:00:07.37	38.88	16.48	-29.7	-32.2	19.6	6.03e-01	0	44	0	66584576	21	4777
2026-01-23 01:00:08.37	39.03	16.58	-29.7	-32.1	19.6	6.02e-01	0	44	0	68157440	21	4741
2026-01-23 01:00:09.36	39.19	16.68	-29.7	-32.1	19.7	6.02e-01	0	44	0	70254592	21	4729
2026-01-23 01:00:10.36	39.34	16.79	-29.6	-31.9	19.8	6.02e-01	0	44	0	72351744	21	4683
2026-01-23 01:00:11.37	39.50	16.89	-29.7	-32.0	19.7	6.03e-01	0	44	0	73924608	21	4723
2026-01-23 01:00:12.38	39.66	16.99	-29.7	-32.2	19.7	6.00e-01	0	44	0	76021760	21	4761
2026-01-23 01:00:13.37	39.81	17.09	-29.6	-31.9	19.8	6.01e-01	0	44	0	77594624	21	4677
2026-01-23 01:00:14.37	39.97	17.20	-29.6	-31.8	19.8	6.01e-01	0	44	0	79691776	21	4630
2026-01-23 01:00:15.37	40.13	17.30	-29.7	-32.6	19.7	6.02e-01	0	44	0	81264640	20	5013
2026-01-23 01:00:16.37	40.29	17.40	-29.8	-32.7	19.6	6.04e-01	0	44	0	83361792	20	5069
2026-01-23 01:00:17.38	40.46	17.51	-29.7	-32.5	19.7	6.01e-01	0	44	0	85458944	20	4975
2026-01-23 01:00:18.38	40.62	17.61	-29.7	-32.6	19.7	6.02e-01	0	44	0	87031808	20	5028
2026-01-23 01:00:19.39	40.79	17.72	-29.8	-32.7	19.5	6.00e-01	0	44	0	89128960	20	5070
2026-01-23 01:00:20.39	40.95	17.82	-29.7	-32.5	19.8	5.99e-01	0	44	0	90701824	20	4979
2026-01-23 01:00:21.40	41.12	17.93	-29.7	-32.4	19.8	6.04e-01	0	44	0	92798976	20	4956
2026-01-23 01:00:22.39	41.29	18.03	-29.7	-32.5	19.8	6.03e-01	0	44	0	94371840	20	4969
2026-01-23 01:00:23.40	41.46	18.14	-29.7	-32.5	19.8	6.02e-01	0	44	0	96468992	20	4978
2026-01-23 01:00:24.40	41.63	18.24	-29.6	-32.3	19.9	6.00e-01	0	44	0	98566144	20	4902
2026-01-23 01:00:25.40	41.80	18.35	-29.6	-32.3	19.9	6.02e-01	0	44	0	100139008	20	4901
2026-01-23 01:00:26.41	41.97	18.46	-29.6	-32.4	19.9	6.03e-01	0	44	0	102236160	20	4928
2026-01-23 01:00:27.41	42.15	18.56	-29.7	-32.4	19.8	6.03e-01	0	44	0	104333312	20	4959
2026-01-23 01:00:28.41	42.32	18.67	-29.7	-32.5	19.8	6.01e-01	0	44	0	105906176	20	4995
2026-01-23 01:00:29.41	42.50	18.78	-29.6	-32.3	19.9	5.99e-01	0	44	0	108003328	20	4902
2026-01-23 01:00:30.41	42.68	18.88	-29.5	-32.1	20.0	6.04e-01	0	44	0	109576192	20	4847
2026-01-23 01:00:31.41	42.86	18.99	-29.6	-32.2	20.0	6.04e-01	0	44	0	111673344	20	4854
2026-01-23 01:00:32.42	43.04	19.10	-29.6	-32.2	20.0	6.03e-01	0	44	0	113246208	20	4859
2026-01-23 01:00:33.42	43.22	19.21	-29.6	-32.2	20.1	6.03e-01	0	44	0	115343360	20	4864
2026-01-23 01:00:34.42	43.41	19.32	-29.8	-32.7	19.7	6.02e-01	0	44	0	117440512	20	5034
2026-01-23 01:00:35.43	43.59	19.43	-29.8	-32.9	19.6	6.03e-01	0	44	0	119013376	20	5100
2026-01-23 01:00:36.43	43.78	19.54	-29.7	-32.5	19.8	6.01e-01	0	44	0	121110528	20	4971
2026-01-23 01:00:37.44	43.97	19.65	-29.7	-32.4	19.9	6.04e-01	0	44	0	122683392	20	4933
2026-01-23 01:00:38.43	44.16	19.75	-29.7	-32.4	19.9	6.03e-01	0	44	0	124780544	20	4932
2026-01-23 01:00:39.43	44.35	19.86	-29.6	-32.3	19.9	6.02e-01	0	44	0	126353408	20	4881
2026-01-23 01:00:40.43	44.54	19.97	-29.6	-32.2	20.0	6.03e-01	0	44	0	128450560	20	4881
2026-01-23 01:00:41.43	44.73	20.08	-29.6	-32.3	20.0	6.02e-01	0	44	0	130547712	20	4889
2026-01-23 01:00:42.44	44.93	20.19	-29.6	-32.4	20.0	6.02e-01	0	44	0	132120576	20	4922
2026-01-23 01:00:43.44	45.12	20.30	-29.5	-32.1	20.1	6.04e-01	0	44	0	134217728	20	4819
2026-01-23 01:00:44.45	45.32	20.42	-29.6	-32.2	20.1	6.01e-01	0	44	0	135790592	20	4867
2026-01-23 01:00:45.45	45.52	20.53	-29.6	-32.3	20.0	6.04e-01	0	44	0	137887744	20	4908
2026-01-23 01:00:46.45	45.72	20.64	-29.7	-32.5	19.9	6.04e-01	0	44	0	139460608	20	4972
2026-01-23 01:00:47.46	45.93	20.75	-29.7	-32.5	19.9	6.04e-01	0	44	0	141557760	20	4956
2026-01-23 01:00:48.46	46.13	20.86	-29.8	-32.7	19.7	6.03e-01	0	44	0	143654912	20	5036
2026-01-23 01:00:49.46	46.33	20.97	-29.8	-32.7	19.7	6.00e-01	0	44	0	145227776	20	5024
2026-01-23 01:00:50.47	46.54	21.09	-29.6	-32.3	20.0	6.04e-01	0	44	0	147324928	20	4903
2026-01-23 01:00:51.47	46.75	21.20	-29.6	-32.3	20.0	6.02e-01	0	44	0	149422080	20	4878
2026-01-23 01:00:52.48	46.96	21.31	-29.6	-32.3	19.9	6.03e-01	0	44	0	150994944	20	4891
2026-01-23 01:00:53.48	47.17	21.42	-29.7	-32.4	19.9	6.03e-01	0	44	0	153092096	20	4919
2026-01-23 01:00:54.49	47.39	21.54	-29.7	-32.4	19.9	6.02e-01	0	44	0	154664960	20	4937
2026-01-23 01:00:55.50	47.61	21.65	-29.8	-32.6	19.9	6.03e-01	0	44	0	156762112	20	5005
2026-01-23 01:00:56.50	47.82	21.76	-29.8	-32.7	19.7	6.01e-01	0	44	0	158334976	20	5043
2026-01-23 01:00:57.50	48.04	21.88	-29.8	-32.8	19.7	6.02e-01	0	44	0	160432128	20	5072
2026-01-23 01:00:58.51	48.26	21.99	-29.9	-33.0	19.6	6.03e-01	0	44	0	162529280	20	5159
2026-01-23 01:00:59.51	48.48	22.10	-29.9	-32.9	19.6	6.02e-01	0	44	0	164102144	20	5125
2026-01-23 01:01:00.52	48.71	22.22	-29.8	-32.8	19.7	6.03e-01	0	44	0	166199296	20	5066
2026-01-23 01:01:01.52	48.93	22.33	-29.9	-32.9	19.7	6.05e-01	0	44	0	167772160	20	5093
2026-01-23 01:01:02.52	49.16	22.45	-29.8	-32.8	19.7	6.00e-01	0	44	0	169869312	20	5077
2026-01-23 01:01:03.52	49.38	22.56	-29.7	-32.5	19.9	6.05e-01	0	44	0	171966464	20	4958
2026-01-23 01:01:04.52	49.61	22.67	-29.8	-32.7	19.8	6.01e-01	0	44	0	173539328	20	5022
2026-01-23 01:01:05.53	49.85	22.79	-29.8	-32.7	19.8	6.03e-01	0	44	0	175636480	20	5034
2026-01-23 01:01:06.53	50.08	22.90	-29.9	-32.9	19.7	6.02e-01	0	44	0	177209344	20	5111
2026-01-23 01:01:07.54	50.32	23.02	-29.9	-33.0	19.6	6.00e-01	0	44	0	179306496	20	5134
2026-01-23 01:01:08.54	50.55	23.13	-29.9	-33.0	19.6	6.02e-01	0	44	0	181403648	20	5128
2026-01-23 01:01:09.54	50.79	23.25	-29.8	-32.8	19.7	6.03e-01	0	44	0	182976512	20	5060
2026-01-23 01:01:10.55	51.03	23.36	-29.7	-32.4	20.0	6.04e-01	0	44	0	185073664	20	4939
2026-01-23 01:01:11.55	51.28	23.48	-29.8	-32.6	19.9	6.00e-01	0	44	0	186646528	20	4996
2026-01-23 01:01:12.56	51.52	23.59	-29.8	-32.7	19.8	6.05e-01	0	44	0	188743680	20	5023
2026-01-23 01:01:13.56	51.77	23.71	-29.8	-32.6	19.8	6.03e-01	0	44	0	190840832	20	5006
2026-01-23 01:01:14.57	52.02	23.82	-29.9	-32.9	19.7	6.04e-01	0	44	0	192413696	20	5114
2026-01-23 01:01:15.58	52.27	23.94	-30.0	-33.1	19.6	6.02e-01	0	44	0	194510848	20	5185
2026-01-23 01:01:16.58	52.52	24.05	-29.8	-32.8	19.7	6.03e-01	0	44	0	196083712	20	5075
2026-01-23 01:01:17.58	52.77	24.17	-29.8	-32.7	19.8	6.02e-01	0	44	0	198180864	20	5013
2026-01-23 01:01:18.58	53.03	24.28	-29.8	-32.7	19.8	6.01e-01	0	44	0	199753728	20	5016
2026-01-23 01:01:19.59	53.29	24.40	-29.8	-32.7	19.8	6.03e-01	0	44	0	201850880	20	5024
2026-01-23 01:01:20.60	53.55	24.51	-29.9	-32.8	19.8	6.04e-01	0	44	0	203948032	20	5055
2026-01-23 01:01:21.60	53.81	24.63	-29.8	-32.8	19.8	6.03e-01	0	44	0	205520896	20	5049
2026-01-23 01:01:22.60	54.07	24.74	-29.7	-32.6	19.9	6.03e-01	0	44	0	207618048	20	4978
2026-01-23 01:01:23.60	54.34	24.86	-29.9	-33.0	19.7	6.02e-01	0	44	0	209190912	20	5130
2026-01-23 01:01:24.61	54.61	24.97	-30.0	-32.8	19.5	6.02e-01	0	44	0	211288064	21	4953
2026-01-23 01:01:25.61	54.88	25.09	-29.9	-32.3	19.8	6.05e-01	0	44	0	213385216	21	4780
2026-01-23 01:01:26.61	55.15	25.20	-29.7	-32.0	20.0	6.02e-01	0	44	0	214958080	21	4677
2026-01-23 01:01:27.61	55.42	25.32	-29.8	-32.3	19.8	6.02e-01	0	44	0	217055232	21	4767
2026-01-23 01:01:28.61	55.70	25.43	-29.9	-32.3	19.8	6.04e-01	0	44	0	218628096	21	4793
2026-01-23 01:01:29.62	55.98	25.55	-29.8	-32.2	19.8	6.03e-01	0	44	0	220725248	21	4752
2026-01-23 01:01:30.62	56.25	25.66	-29.9	-32.4	19.7	6.03e-01	0	44	0	222822400	21	4808
2026-01-23 01:01:31.63	56.54	25.77	-29.9	-32.3	19.8	6.03e-01	0	44	0	224395264	21	4788
2026-01-23 01:01:32.63	56.82	25.89	-29.8	-32.1	20.0	6.00e-01	0	44	0	226492416	21	4701
2026-01-23 01:01:33.64	57.11	26.00	-29.8	-32.2	19.9	6.03e-01	0	44	0	228065280	21	4735
2026-01-23 01:01:34.65	57.40	26.12	-29.9	-32.5	19.7	6.03e-01	0	44	0	230162432	21	4848
2026-01-23 01:01:35.65	57.69	26.23	-29.9	-32.3	19.8	6.04e-01	0	44	0	231735296	21	4781
2026-01-23 01:01:36.65	57.98	26.34	-29.9	-32.4	19.8	6.03e-01	0	44	0	233832448	21	4804
2026-01-23 01:01:37.65	58.27	26.45	-30.0	-32.7	19.6	6.01e-01	0	44	0	235929600	21	4901
2026-01-23 01:01:38.65	58.57	26.56	-30.0	-32.7	19.5	6.04e-01	0	44	0	237502464	21	4919
2026-01-23 01:01:39.65	58.87	26.68	-30.2	-33.1	19.4	6.02e-01	0	44	0	239599616	21	5045
2026-01-23 01:01:40.65	59.17	26.79	-30.2	-33.1	19.4	6.03e-01	0	44	0	241172480	21	5042
2026-01-23 01:01:41.65	59.47	26.90	-30.1	-32.9	19.5	5.99e-01	0	44	0	243269632	21	4983
2026-01-23 01:01:42.66	59.78	27.01	-30.2	-33.1	19.4	6.03e-01	0	44	0	245366784	21	5030
2026-01-23 01:01:43.66	60.08	27.12	-30.1	-33.0	19.5	6.02e-01	0	44	0	246939648	21	4995
2026-01-23 01:01:44.67	60.40	27.23	-30.3	-33.4	19.2	6.01e-01	0	44	0	249036800	21	5140
2026-01-23 01:01:45.67	60.71	27.34	-30.1	-32.9	19.5	6.03e-01	0	44	0	250609664	21	4990
2026-01-23 01:01:46.68	61.02	27.45	-29.9	-33.0	19.7	6.03e-01	0	44	0	252706816	20	5126
2026-01-23 01:01:47.68	61.34	27.56	-30.0	-33.2	19.5	6.02e-01	0	44	0	254803968	20	5205
2026-01-23 01:01:48.68	61.66	27.67	-30.2	-33.2	19.3	6.01e-01	0	44	0	256376832	21	5083
2026-01-23 01:01:49.68	61.97	27.78	-30.4	-33.7	19.0	6.01e-01	0	44	0	258473984	21	5288
2026-01-23 01:01:50.69	62.30	27.89	-30.2	-33.3	19.2	6.03e-01	0	44	0	260046848	21	5143
2026-01-23 01:01:51.69	62.62	27.99	-30.0	-32.8	19.6	6.03e-01	0	44	0	262144000	21	4943
2026-01-23 01:01:52.69	62.95	28.10	-29.8	-32.8	19.8	6.01e-01	0	44	0	263716864	20	5064
2026-01-23 01:01:53.69	63.28	28.21	-29.9	-32.9	19.8	6.03e-01	0	44	0	265814016	20	5105
2026-01-23 01:01:54.70	63.61	28.31	-30.0	-33.3	19.5	6.03e-01	0	44	0	267911168	20	5275
2026-01-23 01:01:55.70	63.95	28.42	-30.0	-33.0	19.4	6.02e-01	0	44	0	269484032	21	5032
2026-01-23 01:01:56.70	64.28	28.52	-29.9	-33.2	19.5	6.03e-01	0	44	0	271581184	20	5236
2026-01-23 01:01:57.70	64.62	28.63	-29.9	-33.1	19.6	6.02e-01	0	44	0	273154048	20	5199
2026-01-23 01:01:58.71	64.96	28.73	-30.0	-33.3	19.5	6.02e-01	0	44	0	275251200	20	5272
2026-01-23 01:01:59.71	65.31	28.83	-30.0	-33.3	19.5	6.03e-01	0	44	0	277348352	20	5266
2026-01-23 01:02:00.71	65.65	28.93	-30.1	-33.5	19.4	6.04e-01	0	44	0	278921216	20	5360
2026-01-23 01:02:01.72	66.00	29.04	-30.0	-33.3	19.5	6.03e-01	0	44	0	281018368	20	5286
2026-01-23 01:02:02.72	66.35	29.14	-30.0	-33.4	19.4	6.04e-01	0	44	0	282591232	20	5345
2026-01-23 01:02:03.72	66.70	29.24	-29.8	-33.1	19.6	6.02e-01	0	44	0	284688384	20	5243
2026-01-23 01:02:04.72	67.05	29.33	-29.5	-32.6	19.8	6.05e-01	0	44	0	286261248	20	5100
2026-01-23 01:02:05.73	67.41	29.43	-29.3	-32.0	20.0	6.03e-01	0	44	0	288358400	20	4936
2026-01-23 01:02:06.73	67.77	29.53	-29.3	-32.0	20.1	6.03e-01	0	44	0	290455552	20	4903
2026-01-23 01:02:07.73	68.13	29.63	-29.5	-32.2	20.2	6.01e-01	0	44	0	292028416	20	4908
2026-01-23 01:02:08.74	68.49	29.72	-29.7	-32.4	20.1	6.03e-01	0	44	0	294125568	20	4928
2026-01-23 01:02:09.74	68.86	29.82	-29.7	-32.3	20.2	6.03e-01	0	44	0	295698432	20	4879
2026-01-23 01:02:10.74	69.23	29.91	-30.0	-32.9	20.2	6.02e-01	0	44	0	297795584	20	5067
2026-01-23 01:02:11.75	69.60	30.01	-29.8	-32.7	20.2	6.03e-01	0	44	0	299892736	20	4977
2026-01-23 01:02:12.76	69.97	30.10	-30.0	-33.0	20.0	6.02e-01	0	44	0	301465600	20	5083
2026-01-23 01:02:13.76	70.35	30.19	-29.9	-32.7	20.2	6.03e-01	0	44	0	303562752	20	4987
2026-01-23 01:02:14.77	70.73	30.28	-29.9	-32.8	20.1	6.01e-01	0	44	0	305135616	20	5020
2026-01-23 01:02:15.77	71.10	30.37	-30.0	-33.1	19.9	6.02e-01	0	44	0	307232768	20	5157
2026-01-23 01:02:16.77	71.48	30.46	-30.0	-33.0	20.0	6.01e-01	0	44	0	309329920	20	5105
2026-01-23 01:02:17.78	71.87	30.55	-29.8	-32.5	20.3	6.01e-01	0	44	0	310902784	20	4940
2026-01-23 01:02:18.78	72.25	30.63	-29.8	-32.5	20.4	6.03e-01	0	44	0	312999936	20	4916
2026-01-23 01:02:19.79	72.64	30.72	-29.7	-32.4	20.3	6.05e-01	0	44	0	314572800	20	4903
2026-01-23 01:02:20.79	73.03	30.80	-29.7	-32.2	20.4	5.99e-01	0	44	0	316669952	20	4843
2026-01-23 01:02:21.79	73.42	30.88	-29.8	-32.7	20.2	6.01e-01	0	44	0	318242816	20	4994
2026-01-23 01:02:22.79	73.81	30.97	-29.9	-32.8	20.2	6.03e-01	0	44	0	320339968	20	5026
2026-01-23 01:02:23.79	74.20	31.05	-29.9	-32.7	20.2	6.03e-01	0	44	0	322437120	20	5015
2026-01-23 01:02:24.80	74.60	31.13	-29.9	-32.9	20.1	6.03e-01	0	44	0	324009984	20	5060
2026-01-23 01:02:25.80	75.00	31.20	-29.8	-32.6	20.2	6.01e-01	0	44	0	326107136	20	4977
2026-01-23 01:02:26.80	75.40	31.28	-29.7	-32.3	20.4	6.00e-01	0	44	0	328204288	20	4869
2026-01-23 01:02:27.81	75.81	31.36	-29.8	-32.7	20.2	6.04e-01	0	44	0	329777152	20	4987
2026-01-23 01:02:28.81	76.21	31.43	-30.0	-33.0	20.0	6.00e-01	0	44	0	331874304	20	5101
2026-01-23 01:02:29.81	76.62	31.50	-29.6	-32.1	20.6	6.02e-01	0	44	0	333447168	20	4771
2026-01-23 01:02:30.82	77.03	31.58	-29.6	-32.0	20.6	6.05e-01	0	44	0	335544320	20	4757
2026-01-23 01:02:31.82	77.44	31.65	-29.7	-32.2	20.5	6.02e-01	0	44	0	337117184	20	4845
2026-01-23 01:02:32.83	77.85	31.71	-29.7	-32.3	20.4	6.04e-01	0	44	0	339214336	20	4861
2026-01-23 01:02:33.84	78.27	31.78	-29.6	-32.2	20.4	6.02e-01	0	44	0	341311488	20	4820
2026-01-23 01:02:34.83	78.68	31.85	-29.7	-32.4	20.4	6.02e-01	0	44	0	342884352	20	4892
2026-01-23 01:02:35.84	79.10	31.91	-29.7	-32.2	20.5	6.02e-01	0	44	0	344981504	20	4837
2026-01-23 01:02:36.84	79.52	31.98	-29.7	-32.3	20.5	6.01e-01	0	44	0	346554368	20	4850
2026-01-23 01:02:37.85	79.94	32.04	-29.7	-32.5	20.3	6.01e-01	0	44	0	348651520	20	4921
2026-01-23 01:02:38.85	80.37	32.10	-29.9	-32.8	20.2	6.02e-01	0	44	0	350224384	20	5031
2026-01-23 01:02:39.85	80.79	32.16	-29.6	-32.1	20.5	5.99e-01	0	44	0	352321536	20	4786
2026-01-23 01:02:40.85	81.21	32.21	-29.5	-31.8	20.7	6.01e-01	0	44	0	354418688	20	4704
2026-01-23 01:02:41.86	81.64	32.27	-29.7	-32.4	20.4	6.03e-01	0	44	0	355991552	20	4896
2026-01-23 01:02:42.86	82.07	32.32	-29.6	-32.1	20.5	6.01e-01	0	44	0	358088704	20	4796
2026-01-23 01:02:43.86	82.50	32.37	-29.7	-32.2	20.5	6.00e-01	0	44	0	360185856	20	4814
2026-01-23 01:02:44.87	82.93	32.42	-29.6	-32.1	20.6	6.01e-01	0	44	0	361758720	20	4778
2026-01-23 01:02:45.87	83.37	32.47	-29.6	-32.0	20.7	6.01e-01	0	44	0	363855872	20	4744
2026-01-23 01:02:46.87	83.80	32.52	-29.6	-32.2	20.5	6.02e-01	0	44	0	365428736	20	4810
2026-01-23 01:02:47.88	84.24	32.57	-29.6	-32.0	20.6	6.04e-01	0	44	0	367525888	20	4747
2026-01-23 01:02:48.89	84.68	32.61	-29.5	-31.7	20.8	6.01e-01	0	44	0	369098752	20	4659
2026-01-23 01:02:49.89	85.11	32.65	-29.6	-32.1	20.5	6.04e-01	0	44	0	371195904	20	4805
2026-01-23 01:02:50.89	85.55	32.69	-29.5	-31.8	20.7	6.02e-01	0	44	0	373293056	20	4702
2026-01-23 01:02:51.89	85.99	32.73	-29.6	-32.1	20.6	6.00e-01	0	44	0	374865920	20	4789
2026-01-23 01:02:52.89	86.43	32.77	-29.6	-32.0	20.5	6.01e-01	0	44	0	376963072	20	4765
2026-01-23 01:02:53.89	86.87	32.80	-29.5	-31.8	20.7	6.01e-01	0	44	0	378535936	20	4690
2026-01-23 01:02:54.89	87.31	32.84	-29.7	-32.2	20.5	6.06e-01	0	44	0	380633088	20	4833
2026-01-23 01:02:55.89	87.76	32.87	-29.8	-32.4	20.4	6.02e-01	0	44	0	382205952	20	4890
2026-01-23 01:02:56.89	88.20	32.90	-29.9	-32.7	20.2	6.01e-01	0	44	0	384303104	20	4994
2026-01-23 01:02:57.89	88.64	32.92	-29.9	-32.8	20.1	6.02e-01	0	44	0	386400256	20	5021
2026-01-23 01:02:58.88	89.08	32.95	-29.9	-32.9	20.1	6.03e-01	0	44	0	387973120	20	5044
2026-01-23 01:02:59.89	89.53	32.97	-30.4	-33.6	19.4	6.02e-01	0	44	0	390070272	21	5179
2026-01-23 01:03:00.89	89.98	33.00	-30.1	-32.9	19.8	6.01e-01	0	44	0	391643136	21	4926
2026-01-23 01:03:01.88	90.42	33.02	-29.9	-32.2	20.2	6.01e-01	0	44	0	393740288	21	4720
2026-01-23 01:03:02.88	90.87	33.04	-29.9	-32.4	20.1	6.02e-01	0	44	0	395313152	21	4761
2026-01-23 01:03:03.88	91.32	33.05	-29.8	-32.0	20.3	6.03e-01	0	44	0	397410304	21	4638
2026-01-23 01:03:04.89	91.77	33.07	-30.0	-32.6	19.9	6.03e-01	0	44	0	399507456	21	4846
2026-01-23 01:03:05.89	92.22	33.08	-29.9	-32.3	20.1	6.02e-01	0	44	0	401080320	21	4735
2026-01-23 01:03:06.90	92.68	33.09	-29.7	-31.8	20.4	5.99e-01	0	44	0	403177472	21	4584
2026-01-23 01:03:07.90	93.13	33.10	-29.5	-31.4	20.7	6.01e-01	0	44	0	404750336	21	4455
2026-01-23 01:03:08.90	93.58	33.11	-29.5	-31.3	20.7	6.01e-01	0	44	0	406847488	21	4429
2026-01-23 01:03:09.90	94.03	33.11	-29.5	-31.2	20.8	6.03e-01	0	44	0	408420352	21	4401
2026-01-23 01:03:10.90	94.48	33.12	-29.6	-32.1	20.5	6.02e-01	0	44	0	410517504	20	4795
2026-01-23 01:03:11.91	94.93	33.12	-29.4	-31.5	20.8	6.03e-01	0	44	0	412614656	20	4610
2026-01-23 01:03:12.92	95.39	33.12	-29.5	-31.9	20.6	6.02e-01	0	44	0	414187520	20	4744
2026-01-23 01:03:13.93	95.84	33.12	-29.4	-31.7	20.8	6.02e-01	0	44	0	416284672	20	4656
2026-01-23 01:03:14.93	96.29	33.11	-29.4	-31.6	20.8	6.01e-01	0	44	0	418381824	20	4626
2026-01-23 01:03:15.93	96.74	33.11	-29.7	-32.4	20.4	6.03e-01	0	44	0	419954688	20	4895
2026-01-23 01:03:16.94	97.20	33.10	-29.7	-32.3	20.4	6.03e-01	0	44	0	422051840	20	4847
2026-01-23 01:03:17.94	97.65	33.09	-29.7	-32.3	20.4	6.02e-01	0	44	0	423624704	20	4845
2026-01-23 01:03:18.94	98.10	33.08	-29.8	-32.7	20.2	6.03e-01	0	44	0	425721856	20	4983
2026-01-23 01:03:19.95	98.55	33.06	-29.5	-31.9	20.7	6.01e-01	0	44	0	427294720	20	4727
2026-01-23 01:03:20.95	99.00	33.05	-29.4	-31.6	20.8	6.02e-01	0	44	0	429391872	20	4623
2026-01-23 01:03:21.95	99.45	33.03	-29.6	-32.1	20.5	6.02e-01	0	44	0	431489024	20	4804
2026-01-23 01:03:22.96	99.90	33.01	-29.6	-32.0	20.6	6.03e-01	0	44	0	433061888	20	4769
2026-01-23 01:03:23.96	100.35	32.99	-29.7	-32.4	20.4	6.02e-01	0	44	0	435159040	20	4877
2026-01-23 01:03:24.97	100.80	32.97	-29.4	-31.5	20.8	6.04e-01	0	44	0	436731904	20	4598
2026-01-23 01:03:25.97	101.24	32.94	-29.4	-31.5	20.9	6.02e-01	0	44	0	438829056	20	4598
2026-01-23 01:03:26.97	101.69	32.92	-29.5	-31.8	20.7	6.03e-01	0	43	0	440926208	20	4699
2026-01-23 01:03:27.97	102.13	32.89	-29.4	-31.5	20.9	5.99e-01	0	44	0	442499072	20	4587
2026-01-23 01:03:28.97	102.58	32.86	-29.4	-31.7	20.8	6.01e-01	0	44	0	444596224	20	4644
2026-01-23 01:03:29.98	103.02	32.82	-29.3	-31.3	20.9	6.04e-01	0	44	0	446169088	20	4527
2026-01-23 01:03:30.98	103.47	32.79	-29.4	-31.6	20.8	6.01e-01	0	44	0	448266240	20	4638
2026-01-23 01:03:31.99	103.91	32.75	-29.4	-31.6	20.8	6.03e-01	0	44	0	450363392	20	4635
2026-01-23 01:03:32.99	104.35	32.72	-29.5	-31.8	20.7	6.02e-01	0	44	0	451936256	20	4693
2026-01-23 01:03:34.00	104.80	32.68	-29.2	-31.1	21.1	6.02e-01	0	44	0	454033408	20	4485
2026-01-23 01:03:35.00	105.23	32.64	-29.3	-31.2	21.0	6.04e-01	0	44	0	455606272	20	4514
2026-01-23 01:03:36.01	105.68	32.59	-29.3	-31.4	20.9	6.03e-01	0	44	0	457703424	20	4570
2026-01-23 01:03:37.01	106.11	32.55	-29.3	-31.3	20.9	6.02e-01	0	44	0	459800576	20	4529
2026-01-23 01:03:38.01	106.55	32.50	-29.3	-31.2	21.0	6.03e-01	0	44	0	461373440	20	4513
2026-01-23 01:03:39.01	106.98	32.46	-29.5	-31.8	20.7	6.05e-01	0	44	0	463470592	20	4698
2026-01-23 01:03:40.02	107.41	32.41	-29.4	-31.4	20.9	6.02e-01	0	44	0	465043456	20	4582
2026-01-23 01:03:41.02	107.84	32.35	-29.3	-31.4	20.9	6.02e-01	0	44	0	467140608	20	4585
2026-01-23 01:03:42.02	108.27	32.30	-29.4	-31.5	20.8	6.02e-01	0	44	0	468713472	20	4607
2026-01-23 01:03:43.03	108.71	32.25	-29.2	-31.0	21.1	6.01e-01	0	44	0	470810624	20	4446
2026-01-23 01:03:44.03	109.13	32.19	-29.3	-31.3	20.9	6.01e-01	0	44	0	472907776	20	4545
2026-01-23 01:03:45.04	109.56	32.13	-29.2	-31.1	21.1	6.02e-01	0	44	0	474480640	20	4473
2026-01-23 01:03:46.04	109.98	32.07	-29.4	-31.5	20.9	6.03e-01	0	44	0	476577792	20	4595
2026-01-23 01:03:47.05	110.41	32.01	-29.4	-31.5	20.9	6.04e-01	0	44	0	478150656	20	4594
2026-01-23 01:03:48.05	110.83	31.95	-29.2	-31.0	21.1	6.01e-01	0	44	0	480247808	20	4446
2026-01-23 01:03:49.05	111.25	31.89	-29.2	-31.1	21.0	6.03e-01	0	44	0	482344960	20	4480
2026-01-23 01:03:50.06	111.67	31.82	-29.2	-31.0	21.1	6.03e-01	0	44	0	483917824	20	4448
2026-01-23 01:03:51.06	112.08	31.76	-29.2	-31.0	21.1	6.02e-01	0	44	0	486014976	20	4454
2026-01-23 01:03:52.07	112.50	31.69	-29.4	-31.5	20.8	6.04e-01	0	44	0	487587840	20	4598
2026-01-23 01:03:53.07	112.91	31.62	-29.2	-31.1	21.0	6.02e-01	0	44	0	489684992	20	4487
2026-01-23 01:03:54.08	113.33	31.55	-29.1	-31.0	21.1	6.03e-01	0	44	0	491782144	20	4433
2026-01-23 01:03:55.08	113.73	31.47	-29.3	-31.3	20.9	6.02e-01	0	44	0	493355008	20	4533
2026-01-23 01:03:56.09	114.14	31.40	-29.2	-31.1	21.0	6.01e-01	0	44	0	495452160	20	4481
2026-01-23 01:03:57.10	114.55	31.32	-29.2	-31.2	20.9	6.02e-01	0	44	0	497025024	20	4514
2026-01-23 01:03:58.11	114.96	31.25	-29.4	-31.6	20.7	6.04e-01	0	44	0	499122176	20	4649
2026-01-23 01:03:59.11	115.36	31.17	-29.3	-31.4	20.9	6.03e-01	0	44	0	501219328	20	4566
2026-01-23 01:04:00.11	115.76	31.09	-29.2	-31.1	21.0	6.02e-01	0	44	0	502792192	20	4496
2026-01-23 01:04:01.11	116.15	31.01	-29.2	-31.1	21.0	6.04e-01	0	44	0	504889344	20	4492
2026-01-23 01:04:02.12	116.55	30.93	-29.2	-31.1	21.0	6.03e-01	0	44	0	506462208	20	4474
2026-01-23 01:04:03.12	116.94	30.85	-29.1	-30.9	21.0	6.05e-01	0	44	0	508559360	20	4416
2026-01-23 01:04:04.12	117.33	30.76	-29.2	-31.6	21.1	6.03e-01	0	44	0	510656512	19	4741
2026-01-23 01:04:05.12	117.72	30.68	-29.3	-31.9	20.9	6.02e-01	0	44	0	512229376	19	4848
2026-01-23 01:04:06.11	118.11	30.59	-29.3	-31.9	20.9	6.02e-01	0	44	0	514326528	19	4835
2026-01-23 01:04:07.12	118.49	30.51	-29.3	-31.7	21.0	6.02e-01	0	44	0	515899392	19	4789
2026-01-23 01:04:08.11	118.87	30.42	-29.3	-31.8	20.9	6.01e-01	0	44	0	517996544	19	4823
2026-01-23 01:04:09.11	119.25	30.33	-29.4	-32.0	20.8	6.00e-01	0	44	0	519569408	19	4874
2026-01-23 01:04:10.11	119.63	30.24	-29.4	-32.0	20.7	6.04e-01	0	44	0	521666560	19	4879
2026-01-23 01:04:11.11	120.00	30.15	-29.4	-32.0	20.8	6.02e-01	0	44	0	523763712	19	4879
2026-01-23 01:04:12.12	120.38	30.06	-29.5	-32.4	20.7	6.02e-01	0	44	0	525336576	19	5002
2026-01-23 01:04:13.12	120.75	29.96	-29.5	-32.3	20.6	6.03e-01	0	44	0	527433728	19	4993
2026-01-23 01:04:14.12	121.12	29.87	-29.3	-32.0	20.8	6.03e-01	0	44	0	529006592	19	4873
2026-01-23 01:04:15.12	121.49	29.78	-29.5	-32.3	20.7	6.01e-01	0	44	0	531103744	19	4974
2026-01-23 01:04:16.12	121.85	29.68	-29.5	-32.3	20.7	6.01e-01	0	44	0	532676608	19	4979
2026-01-23 01:04:17.12	122.22	29.58	-29.7	-32.3	20.3	6.02e-01	0	44	0	534773760	20	4880
2026-01-23 01:04:18.13	122.58	29.49	-29.9	-32.8	19.9	5.98e-01	0	44	0	536870912	20	5055
2026-01-23 01:04:19.13	122.94	29.39	-29.5	-32.0	20.5	6.01e-01	0	44	0	538443776	20	4756
2026-01-23 01:04:20.12	123.29	29.29	-29.5	-31.8	20.6	6.02e-01	0	44	0	540540928	20	4708
2026-01-23 01:04:21.13	123.65	29.19	-29.4	-31.6	20.6	6.04e-01	0	44	0	542113792	20	4663
2026-01-23 01:04:22.13	124.00	29.09	-29.4	-31.5	20.7	6.02e-01	0	44	0	544210944	20	4620
2026-01-23 01:04:23.12	124.35	28.99	-29.3	-31.3	20.8	6.03e-01	0	44	0	545783808	20	4562
2026-01-23 01:04:24.12	124.69	28.89	-29.4	-31.7	20.6	6.02e-01	0	44	0	547880960	20	4680
2026-01-23 01:04:25.12	125.04	28.78	-29.5	-32.0	20.4	6.00e-01	0	44	0	549978112	20	4771
2026-01-23 01:04:26.12	125.38	28.68	-29.5	-31.9	20.4	6.03e-01	0	44	0	551550976	20	4754
2026-01-23 01:04:27.13	125.72	28.58	-29.4	-31.5	20.7	6.06e-01	0	44	0	553648128	20	4627
2026-01-23 01:04:28.13	126.06	28.47	-29.5	-31.9	20.5	6.02e-01	0	44	0	555220992	20	4729
2026-01-23 01:04:29.13	126.40	28.37	-29.5	-31.8	20.5	6.04e-01	0	44	0	557318144	20	4716
2026-01-23 01:04:30.14	126.73	28.26	-29.4	-31.6	20.7	6.02e-01	0	44	0	558891008	20	4646
2026-01-23 01:04:31.14	127.07	28.15	-29.5	-31.8	20.5	6.00e-01	0	44	0	560988160	20	4707
2026-01-23 01:04:32.15	127.40	28.05	-29.5	-31.8	20.5	6.03e-01	0	44	0	563085312	20	4702
2026-01-23 01:04:33.15	127.72	27.94	-29.5	-32.0	20.4	6.03e-01	0	44	0	564658176	20	4761
2026-01-23 01:04:34.15	128.05	27.83	-29.7	-32.5	20.1	6.03e-01	0	44	0	566755328	20	4941
2026-01-23 01:04:35.15	128.37	27.72	-29.6	-32.1	20.3	6.01e-01	0	44	0	568328192	20	4802
2026-01-23 01:04:36.14	128.69	27.61	-29.4	-31.6	20.6	6.03e-01	0	44	0	570425344	20	4654
2026-01-23 01:04:37.15	129.01	27.50	-29.4	-31.7	20.6	6.03e-01	0	44	0	572522496	20	4689
2026-01-23 01:04:38.15	129.33	27.39	-29.6	-32.2	20.3	6.01e-01	0	44	0	574095360	20	4835
2026-01-23 01:04:39.16	129.64	27.28	-29.6	-32.1	20.4	6.02e-01	0	44	0	576192512	20	4800
2026-01-23 01:04:40.15	129.95	27.17	-29.6	-32.1	20.3	6.01e-01	0	44	0	577765376	20	4826
2026-01-23 01:04:41.16	130.26	27.06	-29.6	-32.1	20.3	6.01e-01	0	44	0	579862528	20	4816
2026-01-23 01:04:42.16	130.57	26.95	-29.6	-32.2	20.2	6.02e-01	0	44	0	581959680	20	4854
2026-01-23 01:04:43.16	130.87	26.84	-29.6	-32.1	20.2	6.01e-01	0	44	0	583532544	20	4802
2026-01-23 01:04:44.16	131.18	26.73	-29.6	-32.2	20.2	6.03e-01	0	44	0	585629696	20	4852
2026-01-23 01:04:45.17	131.48	26.61	-29.9	-32.9	19.8	6.02e-01	0	44	0	587202560	20	5097
2026-01-23 01:04:46.17	131.78	26.50	-29.9	-33.0	19.7	6.02e-01	0	44	0	589299712	20	5135
2026-01-23 01:04:47.18	132.08	26.39	-29.9	-32.8	19.8	6.05e-01	0	44	0	590872576	20	5073
2026-01-23 01:04:48.19	132.37	26.27	-29.9	-32.9	19.8	6.02e-01	0	44	0	592969728	20	5085
2026-01-23 01:04:49.19	132.67	26.16	-29.9	-33.0	19.7	6.03e-01	0	44	0	595066880	20	5141
2026-01-23 01:04:50.19	132.96	26.05	-29.9	-33.0	19.7	6.03e-01	0	44	0	596639744	20	5135
2026-01-23 01:04:51.19	133.24	25.93	-30.0	-33.4	19.5	6.03e-01	0	44	0	598736896	20	5282
2026-01-23 01:04:52.20	133.53	25.82	-29.8	-32.8	19.7	6.04e-01	0	44	0	600309760	20	5101
2026-01-23 01:04:53.20	133.81	25.70	-29.7	-32.5	19.9	6.03e-01	0	44	0	602406912	20	4993
2026-01-23 01:04:54.21	134.10	25.59	-29.6	-32.5	19.9	6.03e-01	0	44	0	604504064	20	4998
2026-01-23 01:04:55.21	134.38	25.47	-29.6	-32.5	19.9	6.04e-01	0	44	0	606076928	20	5012
2026-01-23 01:04:56.21	134.66	25.36	-29.7	-32.7	19.8	6.02e-01	0	44	0	608174080	20	5084
2026-01-23 01:04:57.21	134.93	25.24	-29.9	-33.1	19.5	6.00e-01	0	44	0	609746944	20	5230
2026-01-23 01:04:58.22	135.21	25.13	-29.8	-33.1	19.4	6.02e-01	0	44	0	611844096	20	5238
2026-01-23 01:04:59.22	135.48	25.01	-29.9	-33.2	19.4	6.02e-01	0	44	0	613941248	20	5290
2026-01-23 01:05:00.22	135.75	24.90	-29.7	-32.8	19.6	6.01e-01	0	44	0	615514112	20	5165
2026-01-23 01:05:01.23	136.02	24.78	-29.7	-32.9	19.5	6.01e-01	0	44	0	617611264	20	5175
2026-01-23 01:05:02.24	136.28	24.67	-29.9	-33.2	19.3	6.02e-01	0	44	0	619184128	20	5290
2026-01-23 01:05:03.24	136.55	24.55	-29.9	-33.2	19.3	6.02e-01	0	44	0	621281280	20	5295
2026-01-23 01:05:04.24	136.81	24.43	-30.0	-33.4	19.2	6.04e-01	0	44	0	622854144	20	5339
2026-01-23 01:05:05.25	137.07	24.32	-29.9	-33.1	19.4	5.99e-01	0	44	0	624951296	20	5231
2026-01-23 01:05:06.25	137.33	24.20	-29.8	-33.0	19.5	6.02e-01	0	44	0	627048448	20	5157
2026-01-23 01:05:07.25	137.58	24.09	-29.8	-32.8	19.6	6.03e-01	0	44	0	628621312	20	5104
2026-01-23 01:05:08.26	137.84	23.97	-29.8	-32.8	19.7	6.03e-01	0	44	0	630718464	20	5070
2026-01-23 01:05:09.26	138.09	23.86	-29.7	-32.6	19.8	6.01e-01	0	44	0	632291328	20	5000
2026-01-23 01:05:10.26	138.34	23.74	-29.8	-32.7	19.7	6.04e-01	0	44	0	634388480	20	5027
2026-01-23 01:05:11.25	138.58	23.63	-29.8	-32.8	19.7	6.02e-01	0	44	0	636485632	20	5061
2026-01-23 01:05:12.26	138.83	23.51	-29.8	-32.9	19.6	6.03e-01	0	44	0	638058496	20	5099
2026-01-23 01:05:13.25	139.07	23.39	-29.9	-33.0	19.3	6.02e-01	0	44	0	640155648	20	5144
2026-01-23 01:05:14.26	139.32	23.28	-29.7	-32.6	19.7	6.00e-01	0	44	0	641728512	20	5022
2026-01-23 01:05:15.26	139.56	23.16	-29.6	-32.4	19.8	6.04e-01	0	44	0	643825664	20	4971
2026-01-23 01:05:16.26	139.80	23.05	-29.6	-32.4	19.8	6.02e-01	0	44	0	645922816	20	4989
2026-01-23 01:05:17.26	140.03	22.93	-29.6	-32.3	19.8	6.03e-01	0	44	0	647495680	20	4952
2026-01-23 01:05:18.27	140.27	22.82	-29.6	-32.4	19.8	6.01e-01	0	44	0	649592832	20	4970
2026-01-23 01:05:19.28	140.51	22.70	-29.6	-32.5	19.8	6.02e-01	0	44	0	651165696	20	5007
2026-01-23 01:05:20.29	140.74	22.58	-29.5	-32.2	19.9	6.02e-01	0	44	0	653262848	20	4913
2026-01-23 01:05:21.29	140.97	22.47	-29.6	-32.2	19.9	6.00e-01	0	44	0	654835712	20	4903
2026-01-23 01:05:22.29	141.20	22.36	-29.6	-32.5	19.8	6.01e-01	0	44	0	656932864	20	4988
2026-01-23 01:05:23.30	141.43	22.24	-29.8	-32.9	19.5	6.01e-01	0	44	0	659030016	20	5154
2026-01-23 01:05:24.29	141.65	22.13	-29.8	-33.0	19.4	6.03e-01	0	44	0	660602880	20	5174
2026-01-23 01:05:25.30	141.87	22.01	-29.8	-32.9	19.5	6.03e-01	0	44	0	662700032	20	5146
2026-01-23 01:05:26.30	142.09	21.90	-29.9	-33.1	19.3	6.01e-01	0	44	0	664272896	20	5196
2026-01-23 01:05:27.30	142.31	21.78	-29.9	-33.2	19.3	6.04e-01	0	44	0	666370048	20	5239
2026-01-23 01:05:28.30	142.53	21.67	-29.9	-33.0	19.4	6.02e-01	0	44	0	667942912	20	5180
2026-01-23 01:05:29.30	142.75	21.56	-29.9	-33.0	19.4	6.02e-01	0	44	0	670040064	20	5187
2026-01-23 01:05:30.30	142.96	21.44	-29.9	-33.2	19.3	6.02e-01	0	44	0	672137216	20	5238
2026-01-23 01:05:31.31	143.18	21.33	-30.0	-33.4	19.1	6.02e-01	0	44	0	673710080	20	5327
2026-01-23 01:05:32.31	143.39	21.21	-29.8	-32.8	19.5	6.01e-01	0	44	0	675807232	20	5107
2026-01-23 01:05:33.31	143.60	21.10	-29.6	-32.5	19.7	6.03e-01	0	44	0	677904384	20	4987
2026-01-23 01:05:34.31	143.81	20.99	-29.6	-32.4	19.7	6.03e-01	0	44	0	679477248	20	4978
2026-01-23 01:05:35.31	144.01	20.88	-29.7	-32.6	19.6	6.04e-01	0	44	0	681574400	20	5035
2026-01-23 01:05:36.32	144.22	20.76	-29.6	-32.3	19.8	6.03e-01	0	44	0	683147264	20	4941
2026-01-23 01:05:37.32	144.42	20.65	-29.7	-32.5	19.6	6.02e-01	0	44	0	685244416	20	5018
2026-01-23 01:05:38.32	144.63	20.54	-29.7	-32.8	19.5	6.02e-01	0	44	0	686817280	20	5093
2026-01-23 01:05:39.33	144.83	20.43	-29.6	-32.4	19.6	6.03e-01	0	44	0	688914432	20	4991
2026-01-23 01:05:40.33	145.03	20.31	-29.6	-32.5	19.6	6.02e-01	0	44	0	691011584	20	5018
2026-01-23 01:05:41.33	145.22	20.20	-29.7	-32.7	19.5	6.04e-01	0	44	0	692584448	20	5089
2026-01-23 01:05:42.33	145.42	20.09	-29.6	-32.6	19.5	6.03e-01	0	44	0	694681600	20	5028
2026-01-23 01:05:43.33	145.62	19.98	-29.7	-32.7	19.5	6.04e-01	0	44	0	696254464	20	5063
2026-01-23 01:05:44.33	145.81	19.87	-29.8	-32.8	19.4	6.03e-01	0	44	0	698351616	20	5097
2026-01-23 01:05:45.33	146.00	19.76	-29.7	-32.7	19.5	6.02e-01	0	44	0	699924480	20	5065
2026-01-23 01:05:46.33	146.19	19.65	-29.8	-32.9	19.3	6.03e-01	0	44	0	702021632	20	5165
2026-01-23 01:05:47.33	146.38	19.54	-29.9	-33.1	19.1	6.02e-01	0	44	0	704118784	20	5253
2026-01-23 01:05:48.32	146.57	19.43	-29.7	-32.7	19.4	6.02e-01	0	44	0	705691648	20	5111
2026-01-23 01:05:49.33	146.75	19.32	-29.6	-32.5	19.5	6.03e-01	0	44	0	707788800	20	5048
2026-01-23 01:05:50.33	146.94	19.21	-29.6	-32.6	19.4	5.99e-01	0	44	0	709361664	20	5066
2026-01-23 01:05:51.33	147.12	19.10	-29.6	-32.9	19.6	6.01e-01	0	44	0	711458816	19	5283
2026-01-23 01:05:52.34	147.31	18.99	-29.5	-32.4	19.6	6.01e-01	0	44	0	713031680	20	4988
2026-01-23 01:05:53.34	147.49	18.89	-29.6	-32.4	19.6	6.04e-01	0	44	0	715128832	20	4992
2026-01-23 01:05:54.35	147.67	18.78	-29.6	-32.4	19.5	6.01e-01	0	44	0	717225984	20	4991
2026-01-23 01:05:55.35	147.85	18.67	-29.5	-32.3	19.6	6.03e-01	0	44	0	718798848	20	4934
2026-01-23 01:05:56.35	148.02	18.56	-29.5	-32.3	19.6	6.04e-01	0	44	0	720896000	20	4932
2026-01-23 01:05:57.36	148.20	18.45	-29.6	-32.5	19.5	6.01e-01	0	44	0	722993152	20	5006
2026-01-23 01:05:58.37	148.38	18.34	-29.6	-32.6	19.4	6.02e-01	0	44	0	724566016	20	5035
2026-01-23 01:05:59.37	148.55	18.24	-29.7	-32.7	19.3	6.02e-01	0	44	0	726663168	20	5097
2026-01-23 01:06:00.38	148.72	18.13	-29.7	-32.7	19.3	6.01e-01	0	44	0	728236032	20	5098
2026-01-23 01:06:01.38	148.89	18.02	-29.7	-32.8	19.2	6.02e-01	0	44	0	730333184	20	5152
2026-01-23 01:06:02.38	149.06	17.92	-29.7	-32.7	19.3	5.99e-01	0	44	0	731906048	20	5106
2026-01-23 01:06:03.39	149.23	17.81	-29.8	-32.9	19.2	6.02e-01	0	44	0	734003200	20	5172
2026-01-23 01:06:04.38	149.40	17.71	-29.7	-32.8	19.2	6.03e-01	0	44	0	736100352	20	5130
2026-01-23 01:06:05.38	149.56	17.60	-29.6	-32.6	19.4	6.02e-01	0	44	0	737673216	20	5069
2026-01-23 01:06:06.38	149.73	17.50	-29.6	-32.5	19.4	6.02e-01	0	44	0	739770368	20	5030
2026-01-23 01:06:07.38	149.89	17.39	-29.6	-32.5	19.3	6.03e-01	0	44	0	741343232	20	5047
2026-01-23 01:06:08.38	150.05	17.29	-29.7	-32.8	19.2	5.99e-01	0	44	0	743440384	20	5148
2026-01-23 01:06:09.38	150.21	17.18	-29.7	-33.0	19.0	6.02e-01	0	44	0	745013248	20	5213
2026-01-23 01:06:10.39	150.38	17.08	-29.6	-32.5	19.3	6.01e-01	0	44	0	747110400	20	5051
2026-01-23 01:06:11.40	150.54	16.97	-29.5	-32.2	19.5	6.04e-01	0	44	0	749207552	20	4950
2026-01-23 01:06:12.40	150.69	16.87	-29.5	-32.8	19.5	6.00e-01	0	44	0	750780416	19	5256
2026-01-23 01:06:13.40	150.85	16.77	-29.5	-32.9	19.4	6.00e-01	0	44	0	752877568	19	5307
2026-01-23 01:06:14.40	151.00	16.66	-29.5	-32.9	19.4	6.02e-01	0	44	0	754450432	19	5321
2026-01-23 01:06:15.41	151.16	16.56	-29.5	-32.3	19.4	6.03e-01	0	44	0	756547584	20	4972
2026-01-23 01:06:16.41	151.31	16.46	-29.4	-32.7	19.5	6.03e-01	0	44	0	758644736	19	5220
2026-01-23 01:06:17.41	151.47	16.36	-29.4	-32.7	19.4	6.02e-01	0	44	0	760217600	19	5227
2026-01-23 01:06:18.41	151.62	16.26	-29.5	-32.7	19.4	6.02e-01	0	44	0	762314752	19	5244
2026-01-23 01:06:19.41	151.77	16.15	-29.4	-32.5	19.6	6.03e-01	0	44	0	763887616	19	5164
2026-01-23 01:06:20.41	151.92	16.05	-29.4	-32.6	19.5	6.03e-01	0	44	0	765984768	19	5190
2026-01-23 01:06:21.42	152.07	15.95	-29.5	-32.8	19.4	6.02e-01	0	44	0	768081920	19	5246
2026-01-23 01:06:22.42	152.21	15.85	-29.4	-32.7	19.5	6.04e-01	0	44	0	769654784	19	5223
2026-01-23 01:06:23.42	152.36	15.75	-29.5	-32.9	19.3	6.02e-01	0	44	0	771751936	19	5296
2026-01-23 01:06:24.43	152.50	15.65	-29.5	-32.7	19.4	6.04e-01	0	44	0	773324800	19	5227
2026-01-23 01:06:25.43	152.65	15.55	-29.4	-32.7	19.4	6.02e-01	0	44	0	775421952	19	5229
2026-01-23 01:06:26.43	152.79	15.45	-29.5	-32.9	19.3	6.05e-01	0	44	0	776994816	19	5299
2026-01-23 01:06:27.44	152.93	15.35	-29.6	-32.6	19.1	6.02e-01	0	44	0	779091968	20	5114
2026-01-23 01:06:28.44	153.08	15.25	-29.6	-32.8	19.0	6.03e-01	0	44	0	781189120	20	5175
2026-01-23 01:06:29.45	153.22	15.15	-29.6	-32.7	19.0	6.01e-01	0	44	0	782761984	20	5164
2026-01-23 01:06:30.46	153.36	15.05	-29.5	-32.7	19.0	6.01e-01	0	44	0	784859136	20	5184
2026-01-23 01:06:31.46	153.50	14.96	-29.6	-33.3	18.9	6.02e-01	0	44	0	786432000	19	5565
2026-01-23 01:06:32.47	153.63	14.86	-29.6	-33.4	18.9	6.03e-01	0	44	0	788529152	19	5567
2026-01-23 01:06:33.47	153.77	14.76	-29.5	-32.6	19.0	6.04e-01	0	44	0	790626304	20	5185
2026-01-23 01:06:34.47	153.91	14.66	-29.4	-33.0	19.1	6.00e-01	0	44	0	792199168	19	5413
2026-01-23 01:06:35.46	154.04	14.57	-29.4	-33.0	19.1	6.03e-01	0	44	0	794296320	19	5426
2026-01-23 01:06:36.47	154.17	14.47	-29.5	-33.1	19.1	6.00e-01	0	44	0	795869184	19	5429
2026-01-23 01:06:37.47	154.31	14.38	-29.5	-33.0	19.2	6.03e-01	0	44	0	797966336	19	5381
2026-01-23 01:06:38.47	154.44	14.28	-29.6	-33.1	19.1	6.01e-01	0	44	0	799539200	19	5421
2026-01-23 01:06:39.47	154.57	14.18	-29.6	-32.8	18.9	6.01e-01	0	44	0	801636352	20	5207
2026-01-23 01:06:40.47	154.70	14.09	-29.7	-33.0	18.8	6.02e-01	0	44	0	803733504	20	5269
2026-01-23 01:06:41.48	154.83	13.99	-29.6	-32.7	19.0	6.03e-01	0	44	0	805306368	20	5142
2026-01-23 01:06:42.49	154.96	13.90	-29.5	-32.6	19.0	6.00e-01	0	44	0	807403520	20	5146
2026-01-23 01:06:43.49	155.09	13.80	-29.5	-32.6	19.0	6.02e-01	0	44	0	808976384	20	5127
2026-01-23 01:06:44.49	155.21	13.71	-29.5	-32.5	19.0	6.04e-01	0	44	0	811073536	20	5112
2026-01-23 01:06:45.49	155.34	13.62	-29.6	-33.2	19.0	6.03e-01	0	44	0	813170688	19	5476
2026-01-23 01:06:46.49	155.46	13.52	-29.5	-32.7	18.8	6.03e-01	0	44	0	814743552	20	5187
2026-01-23 01:06:47.49	155.59	13.43	-29.8	-33.4	18.5	6.03e-01	0	44	0	816840704	20	5456
2026-01-23 01:06:48.50	155.71	13.34	-29.9	-33.6	18.3	6.04e-01	0	44	0	818413568	20	5513
2026-01-23 01:06:49.50	155.83	13.24	-29.7	-33.0	18.8	6.02e-01	0	44	0	820510720	20	5258
2026-01-23 01:06:50.50	155.96	13.15	-29.5	-32.6	19.0	6.03e-01	0	44	0	822083584	20	5125
2026-01-23 01:06:51.50	156.08	13.06	-29.5	-33.1	19.1	6.04e-01	0	44	0	824180736	19	5408
2026-01-23 01:06:52.50	156.20	12.97	-29.6	-32.9	18.8	6.03e-01	0	44	0	826277888	20	5264
2026-01-23 01:06:53.50	156.32	12.88	-29.6	-33.0	18.7	6.04e-01	0	44	0	827850752	20	5299
2026-01-23 01:06:54.50	156.44	12.78	-29.6	-32.9	18.8	6.03e-01	0	44	0	829947904	20	5278
2026-01-23 01:06:55.50	156.55	12.69	-29.6	-33.0	18.7	6.03e-01	0	44	0	831520768	20	5332
2026-01-23 01:06:56.50	156.67	12.60	-29.6	-33.0	18.6	6.02e-01	0	44	0	833617920	20	5344
2026-01-23 01:06:57.50	156.79	12.51	-29.7	-33.3	18.4	6.01e-01	0	44	0	835715072	20	5472
2026-01-23 01:06:58.51	156.90	12.42	-29.7	-33.4	18.4	6.01e-01	0	44	0	837287936	20	5488
2026-01-23 01:06:59.52	157.02	12.33	-29.7	-33.3	18.5	6.00e-01	0	44	0	839385088	20	5441
2026-01-23 01:07:00.52	157.13	12.24	-29.7	-33.2	18.5	6.03e-01	0	44	0	840957952	20	5414
2026-01-23 01:07:01.53	157.25	12.15	-29.8	-33.5	18.3	6.02e-01	0	44	0	843055104	20	5524
2026-01-23 01:07:02.52	157.36	12.06	-29.9	-34.1	17.5	6.00e-01	0	44	0	845152256	19	5850
2026-01-23 01:07:03.52	157.47	11.97	-29.9	-33.8	18.3	6.07e-01	0	44	0	846725120	20	5664
2026-01-23 01:07:04.53	157.58	11.88	-29.9	-33.6	18.3	6.02e-01	0	44	0	848822272	20	5532
2026-01-23 01:07:05.53	157.70	11.80	-29.8	-33.5	17.9	6.06e-01	0	44	0	850395136	20	5462
2026-01-23 01:07:06.53	157.81	11.71	-29.8	-33.4	16.9	6.08e-01	0	44	0	852492288	20	5437
2026-01-23 01:07:07.54	157.92	11.62	-30.0	-33.8	18.2	6.01e-01	0	44	0	854065152	20	5577
2026-01-23 01:07:08.53	158.02	11.53	-29.9	-33.7	16.7	6.01e-01	0	44	0	856162304	20	5565
2026-01-23 01:07:09.53	158.13	11.45	-29.9	-33.6	18.3	6.03e-01	0	44	0	858259456	20	5489
2026-01-23 01:07:10.53	158.24	11.36	-29.9	-33.4	18.4	6.02e-01	0	44	0	859832320	20	5429
2026-01-23 01:07:11.53	158.34	11.27	-29.9	-33.4	18.4	6.03e-01	0	44	0	861929472	20	5417
2026-01-23 01:07:12.53	158.45	11.19	-30.0	-33.8	18.2	6.03e-01	0	44	0	863502336	20	5550
2026-01-23 01:07:13.54	158.56	11.10	-30.0	-33.3	18.1	6.04e-01	0	44	0	865599488	21	5270
2026-01-23 01:07:14.54	158.66	11.01	-29.8	-33.3	18.5	6.00e-01	0	44	0	867172352	20	5368
2026-01-23 01:07:15.54	158.77	10.93	-29.8	-33.3	18.4	6.02e-01	0	44	0	869269504	20	5388
2026-01-23 01:07:16.55	158.87	10.84	-29.8	-33.3	18.5	6.01e-01	0	44	0	871366656	20	5389
2026-01-23 01:07:17.55	158.97	10.76	-29.7	-33.2	18.5	6.02e-01	0	44	0	872939520	20	5346
2026-01-23 01:07:18.55	159.08	10.67	-29.6	-33.0	18.6	6.01e-01	0	44	0	875036672	20	5282
2026-01-23 01:07:19.56	159.18	10.59	-29.6	-32.9	18.6	6.02e-01	0	44	0	876609536	20	5281
2026-01-23 01:07:20.56	159.28	10.50	-29.6	-33.0	18.5	6.03e-01	0	44	0	878706688	20	5336
2026-01-23 01:07:21.57	159.38	10.42	-29.6	-33.1	18.5	6.03e-01	0	44	0	880803840	20	5351
2026-01-23 01:07:22.58	159.48	10.33	-29.7	-33.2	18.5	6.01e-01	0	44	0	882376704	20	5389
2026-01-23 01:07:23.58	159.58	10.25	-29.6	-33.0	18.5	6.03e-01	0	44	0	884473856	20	5330
2026-01-23 01:07:24.58	159.68	10.16	-29.7	-33.1	18.5	6.01e-01	0	44	0	886046720	20	5367
2026-01-23 01:07:25.59	159.78	10.08	-29.7	-33.1	18.4	6.03e-01	0	44	0	888143872	20	5372
2026-01-23 01:07:26.59	159.87	10.00	-29.7	-33.3	18.4	6.01e-01	0	44	0	890241024	20	5420
2026-01-23 01:07:27.60	159.97	9.91	-29.7	-33.3	18.3	6.06e-01	0	44	0	891813888	20	5433
2026-01-23 01:07:28.60	160.07	9.83	-29.8	-33.4	18.3	6.02e-01	0	44	0	893911040	20	5454
2026-01-23 01:07:29.61	160.17	9.75	-29.8	-33.5	18.2	6.01e-01	0	44	0	895483904	20	5485
2026-01-23 01:07:30.61	160.26	9.67	-29.8	-33.6	18.2	6.02e-01	0	44	0	897581056	20	5533
2026-01-23 01:07:31.62	160.36	9.58	-29.8	-33.4	18.2	6.03e-01	0	44	0	899678208	20	5496
2026-01-23 01:07:32.63	160.45	9.50	-29.9	-33.8	17.9	6.04e-01	0	44	0	901251072	20	5660
2026-01-23 01:07:33.63	160.54	9.42	-29.8	-33.7	18.0	6.01e-01	0	44	0	903348224	20	5625
2026-01-23 01:07:34.63	160.64	9.34	-29.7	-33.5	18.1	6.04e-01	0	44	0	904921088	20	5567
2026-01-23 01:07:35.64	160.73	9.26	-29.7	-33.6	18.0	6.00e-01	0	44	0	907018240	20	5607
2026-01-23 01:07:36.65	160.82	9.18	-29.8	-33.7	17.9	6.04e-01	0	44	0	908591104	20	5682
2026-01-23 01:07:37.65	160.91	9.10	-29.8	-33.8	17.8	6.01e-01	0	44	0	910688256	20	5713
2026-01-23 01:07:38.66	161.01	9.02	-29.7	-33.5	18.0	5.99e-01	0	44	0	912785408	20	5637
2026-01-23 01:07:39.66	161.10	8.94	-29.7	-33.7	17.8	6.02e-01	0	44	0	914358272	20	5696
2026-01-23 01:07:40.66	161.19	8.86	-29.7	-33.7	17.8	6.04e-01	0	44	0	916455424	20	5696
2026-01-23 01:07:41.66	161.28	8.78	-29.8	-34.0	17.6	6.03e-01	0	44	0	918552576	20	5840
2026-01-23 01:07:42.66	161.36	8.70	-29.8	-34.0	17.6	6.03e-01	0	44	0	920125440	20	5851
2026-01-23 01:07:43.67	161.45	8.62	-29.9	-34.2	17.5	6.01e-01	0	44	0	922222592	20	5885
2026-01-23 01:07:44.67	161.54	8.54	-29.9	-34.1	17.6	6.01e-01	0	44	0	923795456	20	5838
2026-01-23 01:07:45.68	161.63	8.46	-29.9	-33.9	17.8	6.01e-01	0	44	0	925892608	20	5700
2026-01-23 01:07:46.68	161.72	8.38	-29.9	-33.9	17.8	6.04e-01	0	44	0	927465472	20	5700
2026-01-23 01:07:47.68	161.80	8.30	-30.0	-34.1	17.7	6.03e-01	0	44	0	929562624	20	5776
2026-01-23 01:07:48.69	161.89	8.23	-30.0	-34.2	17.6	6.04e-01	0	44	0	931659776	20	5807
2026-01-23 01:07:49.70	161.98	8.15	-30.1	-33.9	17.5	6.03e-01	0	44	0	933232640	21	5597
2026-01-23 01:07:50.71	162.06	8.07	-30.0	-34.2	17.6	6.02e-01	0	44	0	935329792	20	5830
2026-01-23 01:07:51.70	162.15	7.99	-30.0	-34.1	17.7	6.00e-01	0	44	0	936902656	20	5763
2026-01-23 01:07:52.71	162.23	7.92	-30.0	-34.2	17.6	6.03e-01	0	44	0	938999808	20	5855
2026-01-23 01:07:53.72	162.31	7.84	-30.0	-34.1	17.6	6.02e-01	0	44	0	941096960	20	5820
2026-01-23 01:07:54.72	162.40	7.76	-30.0	-34.3	17.4	6.04e-01	0	44	0	942669824	20	5911
2026-01-23 01:07:55.72	162.48	7.69	-30.0	-33.8	17.5	6.01e-01	0	44	0	944766976	21	5555
2026-01-23 01:07:56.73	162.56	7.61	-30.0	-34.2	17.5	6.01e-01	0	44	0	946339840	20	5878
2026-01-23 01:07:57.73	162.64	7.53	-30.0	-34.3	17.4	6.04e-01	0	44	0	948436992	20	5911
2026-01-23 01:07:58.73	162.73	7.46	-30.1	-34.5	17.3	6.01e-01	0	44	0	950009856	20	6030
2026-01-23 01:07:59.73	162.81	7.38	-30.0	-34.5	17.2	6.02e-01	0	44	0	952107008	20	6041
2026-01-23 01:08:00.73	162.89	7.31	-30.0	-34.4	17.3	6.03e-01	0	44	0	954204160	20	5982
2026-01-23 01:08:01.73	162.97	7.23	-30.1	-34.6	17.1	6.04e-01	0	44	0	955777024	20	6102
2026-01-23 01:08:02.74	163.05	7.16	-30.1	-34.3	17.0	6.03e-01	0	44	0	957874176	21	5821
2026-01-23 01:08:03.74	163.13	7.08	-32.7	-52.2	3.6	7.44e-01	0	44	104	958922752	26	33657
2026-01-23 01:08:04.74	163.20	7.01	-32.7	-52.2	3.8	7.45e-01	0	44	104	958922752	27	34099
2026-01-23 01:08:05.75	163.28	6.93	-33.3	-52.9	3.8	7.45e-01	0	44	104	958922752	28	34288
2026-01-23 01:08:06.75	163.36	6.86	-34.2	-53.6	3.8	7.47e-01	0	44	104	958922752	29	33577

#Closed at: 2026-01-23 01:08:07
#Recorded file [958 MB]: D:/data/31010_260123_035931.dat