passes_logs/2026/01/23/R2M6_AANII_01/R2M6_AANII_01__20260123_020541_SUOMI_NPP_rec.log

#Pass ID: 20260123_020541_SUOMI NPP
#Satellite: SUOMI NPP
#Configuration: NPP
#almurnet v.1.7.20240730
#Start time: 2026-01-23 02:05:40

#Version: 2.2.20231116
#Station: R2M6_AANII_01
#Location: 30.233357 lon 59.946436 lat
#TLE: 1 37849U 11061A   26022.50498765  .00000208  00000+0  11976-3 0  9992
#TLE: 2 37849  98.7820 324.4892 0002275  50.8149 309.3229 14.19528284737775

#Time	Az	El	Level	Level2	SNR	BER	BlckErr	Temp	State	Recorded	gain1	gain2
2026-01-23 02:05:40.51	11.29	6.95	-32.6	-40.6	4.1	1.46e+00	0	41	0	0	25	9050
2026-01-23 02:05:41.51	11.22	7.02	-32.5	-39.8	4.2	1.43e+00	0	41	104	0	25	8302
2026-01-23 02:05:42.51	11.14	7.08	-32.5	-39.7	5.1	6.65e-01	0	42	0	0	25	8216
2026-01-23 02:05:43.51	11.06	7.15	-32.5	-39.7	5.1	6.38e-01	0	42	0	1048576	25	8255
2026-01-23 02:05:44.51	10.97	7.22	-32.5	-39.5	5.2	6.24e-01	0	42	0	3145728	25	8040
2026-01-23 02:05:45.51	10.89	7.29	-32.5	-39.4	5.2	5.85e-01	0	42	0	5242880	25	7968
2026-01-23 02:05:46.51	10.81	7.35	-32.5	-39.5	5.2	6.00e-01	0	42	0	7340032	25	8087
2026-01-23 02:05:47.51	10.73	7.42	-32.5	-39.2	5.4	5.53e-01	0	42	0	9437184	25	7837
2026-01-23 02:05:48.52	10.65	7.49	-32.5	-39.2	5.3	5.17e-01	0	42	0	10485760	25	7792
2026-01-23 02:05:49.52	10.57	7.56	-32.5	-39.1	5.4	5.44e-01	0	42	0	12582912	25	7735
2026-01-23 02:05:50.52	10.48	7.63	-32.4	-39.2	5.7	4.40e-01	0	42	0	14680064	24	7814
2026-01-23 02:05:51.53	10.40	7.69	-32.3	-38.1	6.4	2.65e-01	0	42	0	16777216	24	7048
2026-01-23 02:05:52.53	10.31	7.76	-31.9	-36.4	7.7	1.63e-01	0	42	0	17825792	24	6040
2026-01-23 02:05:53.53	10.23	7.83	-31.7	-35.6	8.3	5.55e-02	0	42	0	19922944	24	5594
2026-01-23 02:05:54.54	10.15	7.90	-31.6	-35.7	8.7	3.87e-02	0	42	0	22020096	23	5724
2026-01-23 02:05:55.54	10.06	7.97	-31.6	-35.5	8.8	3.10e-02	0	42	0	24117248	23	5643
2026-01-23 02:05:56.55	9.97	8.04	-31.5	-35.2	9.0	3.56e-02	0	42	0	26214400	23	5505
2026-01-23 02:05:57.55	9.89	8.11	-31.5	-35.0	9.2	2.34e-02	0	42	0	27262976	23	5390
2026-01-23 02:05:58.56	9.80	8.18	-31.4	-35.3	9.4	1.93e-02	0	42	0	29360128	22	5632
2026-01-23 02:05:59.56	9.71	8.25	-31.5	-35.5	9.2	1.87e-02	0	42	0	31457280	22	5731
2026-01-23 02:06:00.55	9.63	8.31	-31.3	-34.8	9.8	1.83e-02	0	42	0	33554432	22	5410
2026-01-23 02:06:01.56	9.54	8.38	-31.4	-35.1	9.6	1.62e-02	0	42	0	35651584	22	5515
2026-01-23 02:06:02.56	9.45	8.45	-31.3	-35.0	9.7	1.40e-02	0	42	0	36700160	22	5461
2026-01-23 02:06:03.56	9.36	8.52	-31.2	-34.5	10.0	1.48e-02	0	42	0	38797312	22	5271
2026-01-23 02:06:04.56	9.27	8.59	-31.0	-33.8	10.6	7.32e-03	0	42	0	40894464	22	4963
2026-01-23 02:06:05.56	9.19	8.66	-30.8	-33.2	11.0	3.40e-03	0	42	0	42991616	22	4741
2026-01-23 02:06:06.57	9.10	8.73	-30.8	-33.5	11.1	3.95e-03	0	42	0	45088768	21	4932
2026-01-23 02:06:07.57	9.00	8.80	-30.8	-33.6	11.1	4.20e-03	0	42	0	46137344	21	4980
2026-01-23 02:06:08.58	8.91	8.87	-30.8	-33.7	10.9	2.74e-03	0	42	0	48234496	21	5024
2026-01-23 02:06:09.58	8.82	8.94	-30.9	-33.8	10.9	4.86e-03	0	42	0	50331648	21	5045
2026-01-23 02:06:10.58	8.73	9.01	-31.0	-33.7	10.6	3.86e-03	0	42	0	52428800	22	4936
2026-01-23 02:06:11.58	8.64	9.08	-30.9	-33.6	10.8	2.71e-03	0	43	0	54525952	22	4870
2026-01-23 02:06:12.58	8.55	9.16	-31.0	-33.8	10.6	6.04e-03	0	42	0	55574528	22	4976
2026-01-23 02:06:13.58	8.45	9.23	-31.1	-34.0	10.4	7.23e-03	0	43	0	57671680	22	5053
2026-01-23 02:06:14.58	8.36	9.30	-31.1	-34.2	10.3	4.72e-03	0	42	0	59768832	22	5108
2026-01-23 02:06:15.58	8.27	9.37	-31.1	-34.2	10.3	7.15e-03	0	42	0	61865984	22	5130
2026-01-23 02:06:16.57	8.17	9.44	-31.1	-34.1	10.4	7.69e-03	0	43	0	62914560	22	5059
2026-01-23 02:06:17.58	8.08	9.51	-31.2	-34.4	10.2	5.38e-03	0	43	0	65011712	22	5184
2026-01-23 02:06:18.57	7.98	9.58	-31.3	-34.7	10.0	1.14e-02	0	43	0	67108864	22	5317
2026-01-23 02:06:19.57	7.89	9.65	-31.2	-34.4	10.2	8.75e-03	0	43	0	69206016	22	5183
2026-01-23 02:06:20.57	7.79	9.72	-31.4	-34.9	9.9	7.46e-03	0	43	0	71303168	22	5410
2026-01-23 02:06:21.58	7.69	9.80	-31.4	-34.8	9.9	1.15e-02	0	43	0	72351744	22	5381
2026-01-23 02:06:22.58	7.60	9.87	-31.3	-34.7	10.0	9.85e-03	0	43	0	74448896	22	5314
2026-01-23 02:06:23.59	7.50	9.94	-31.3	-34.6	10.1	7.68e-03	0	43	0	76546048	22	5278
2026-01-23 02:06:24.59	7.40	10.01	-31.2	-34.3	10.3	6.24e-03	0	43	0	78643200	22	5163
2026-01-23 02:06:25.60	7.30	10.09	-31.2	-34.3	10.3	4.81e-03	0	43	0	80740352	22	5133
2026-01-23 02:06:26.60	7.20	10.16	-31.2	-34.1	10.5	5.76e-03	0	43	0	81788928	22	5071
2026-01-23 02:06:27.60	7.10	10.23	-31.1	-34.1	10.5	7.42e-03	0	43	0	83886080	22	5038
2026-01-23 02:06:28.60	7.00	10.31	-31.2	-34.2	10.4	4.12e-03	0	43	0	85983232	22	5118
2026-01-23 02:06:29.60	6.90	10.38	-31.3	-34.5	10.2	5.20e-03	0	43	0	88080384	22	5220
2026-01-23 02:06:30.59	6.80	10.45	-31.4	-35.0	9.8	9.41e-03	0	43	0	90177536	22	5460
2026-01-23 02:06:31.60	6.70	10.52	-31.4	-34.6	9.7	1.27e-02	0	43	0	91226112	23	5204
2026-01-23 02:06:32.60	6.59	10.60	-31.2	-33.9	10.2	8.41e-03	0	43	0	93323264	23	4899
2026-01-23 02:06:33.60	6.49	10.67	-31.0	-33.8	10.8	6.35e-03	0	43	0	95420416	22	4927
2026-01-23 02:06:34.60	6.39	10.74	-30.8	-33.6	11.2	4.47e-03	0	43	0	97517568	21	4956
2026-01-23 02:06:35.60	6.28	10.82	-30.8	-33.7	11.2	1.15e-03	0	43	0	98566144	21	4974
2026-01-23 02:06:36.60	6.18	10.89	-30.8	-33.6	11.2	1.18e-03	0	43	0	100663296	21	4961
2026-01-23 02:06:37.59	6.07	10.96	-30.9	-33.7	11.1	3.64e-03	0	43	0	102760448	21	5003
2026-01-23 02:06:38.60	5.97	11.04	-30.9	-33.7	11.2	1.52e-03	0	43	0	104857600	21	4988
2026-01-23 02:06:39.61	5.86	11.11	-30.9	-33.8	11.1	1.29e-03	0	43	0	106954752	21	5013
2026-01-23 02:06:40.61	5.75	11.19	-30.9	-33.3	11.1	4.54e-03	0	43	0	108003328	22	4733
2026-01-23 02:06:41.62	5.64	11.26	-30.9	-33.3	11.1	1.66e-03	0	43	0	110100480	22	4740
2026-01-23 02:06:42.62	5.54	11.34	-31.1	-33.9	10.7	1.88e-03	0	43	0	112197632	22	4995
2026-01-23 02:06:43.61	5.43	11.41	-31.1	-33.8	10.7	2.90e-03	0	43	0	114294784	22	4943
2026-01-23 02:06:44.62	5.32	11.49	-31.0	-33.5	11.0	2.67e-03	0	43	0	116391936	22	4824
2026-01-23 02:06:45.62	5.21	11.56	-30.9	-33.8	11.1	1.53e-03	0	43	0	117440512	21	5031
2026-01-23 02:06:46.63	5.10	11.64	-30.9	-33.9	11.0	1.46e-03	0	43	0	119537664	21	5074
2026-01-23 02:06:47.63	4.99	11.71	-30.8	-33.5	11.3	1.48e-03	0	43	0	121634816	21	4912
2026-01-23 02:06:48.62	4.88	11.79	-30.9	-33.1	11.3	1.53e-03	0	43	0	123731968	22	4677
2026-01-23 02:06:49.63	4.76	11.86	-30.8	-33.6	11.3	1.27e-03	0	43	0	125829120	21	4945
2026-01-23 02:06:50.63	4.65	11.94	-30.9	-33.9	11.2	1.13e-03	0	43	0	126877696	21	5049
2026-01-23 02:06:51.63	4.54	12.01	-30.7	-33.3	11.5	3.99e-03	0	43	0	128974848	21	4822
2026-01-23 02:06:52.63	4.42	12.09	-30.8	-33.5	11.4	7.66e-04	0	43	0	131072000	21	4921
2026-01-23 02:06:53.63	4.31	12.17	-30.9	-33.8	11.2	8.70e-04	0	43	0	133169152	21	5013
2026-01-23 02:06:54.63	4.20	12.24	-30.9	-33.8	11.1	1.26e-03	0	43	0	135266304	21	5024
2026-01-23 02:06:55.64	4.08	12.32	-30.8	-33.4	11.4	1.22e-03	0	43	0	136314880	21	4874
2026-01-23 02:06:56.64	3.96	12.40	-30.9	-33.3	11.2	1.72e-03	0	43	0	138412032	22	4732
2026-01-23 02:06:57.64	3.85	12.47	-30.9	-33.7	11.3	1.32e-03	0	43	0	140509184	21	4964
2026-01-23 02:06:58.65	3.73	12.55	-30.9	-33.7	11.3	8.41e-04	0	43	0	142606336	21	4990
2026-01-23 02:06:59.65	3.61	12.63	-30.9	-33.7	11.3	1.08e-03	0	43	0	143654912	21	4974
2026-01-23 02:07:00.66	3.49	12.70	-30.9	-33.6	11.3	9.11e-04	0	43	0	145752064	21	4950
2026-01-23 02:07:01.67	3.37	12.78	-30.8	-33.6	11.4	8.22e-04	0	43	0	147849216	21	4939
2026-01-23 02:07:02.66	3.25	12.86	-30.8	-33.6	11.4	9.59e-04	0	43	0	149946368	21	4915
2026-01-23 02:07:03.66	3.13	12.93	-30.6	-32.8	11.9	8.64e-04	0	43	0	152043520	21	4633
2026-01-23 02:07:04.67	3.01	13.01	-30.8	-33.3	11.6	8.06e-04	0	43	0	153092096	21	4810
2026-01-23 02:07:05.67	2.88	13.09	-30.7	-33.2	11.7	6.51e-04	0	43	0	155189248	21	4771
2026-01-23 02:07:06.67	2.76	13.17	-30.6	-32.6	12.1	2.82e-04	0	43	0	157286400	21	4571
2026-01-23 02:07:07.68	2.64	13.24	-29.8	-31.7	12.3	1.81e-04	0	43	0	159383552	21	4472
2026-01-23 02:07:08.69	2.51	13.32	-29.7	-32.1	12.0	1.70e-03	0	43	0	161480704	20	4735
2026-01-23 02:07:09.69	2.39	13.40	-30.5	-32.9	12.0	1.88e-04	0	43	0	162529280	20	4750
2026-01-23 02:07:10.69	2.26	13.48	-30.6	-32.7	11.9	2.20e-04	0	43	0	164626432	21	4611
2026-01-23 02:07:11.69	2.14	13.56	-30.5	-32.5	11.5	4.54e-04	0	43	0	166723584	21	4507
2026-01-23 02:07:12.70	2.01	13.64	-30.5	-32.6	12.0	3.11e-04	0	44	0	168820736	21	4552
2026-01-23 02:07:13.70	1.88	13.71	-30.6	-32.7	12.1	2.24e-04	0	43	0	170917888	21	4577
2026-01-23 02:07:14.70	1.75	13.79	-30.6	-32.6	12.1	2.54e-04	0	43	0	171966464	21	4561
2026-01-23 02:07:15.71	1.62	13.87	-30.5	-32.4	12.3	2.60e-03	0	43	0	174063616	21	4499
2026-01-23 02:07:16.72	1.49	13.95	-30.6	-32.7	12.1	2.34e-04	0	43	0	176160768	21	4591
2026-01-23 02:07:17.72	1.36	14.03	-30.7	-33.1	11.9	2.68e-04	0	43	0	178257920	21	4715
2026-01-23 02:07:18.73	1.23	14.11	-30.7	-33.1	11.8	3.14e-03	0	44	0	180355072	21	4737
2026-01-23 02:07:19.73	1.10	14.19	-30.6	-32.7	12.1	4.70e-04	0	43	0	181403648	21	4594
2026-01-23 02:07:20.74	0.96	14.27	-30.8	-33.3	11.7	4.73e-04	0	44	0	183500800	21	4791
2026-01-23 02:07:21.75	0.83	14.35	-30.9	-33.6	11.5	6.18e-04	0	43	0	185597952	21	4928
2026-01-23 02:07:22.75	0.70	14.43	-30.9	-33.7	11.4	5.86e-04	0	43	0	187695104	21	4960
2026-01-23 02:07:23.75	0.56	14.51	-31.0	-33.5	11.2	1.10e-03	0	44	0	189792256	22	4781
2026-01-23 02:07:24.75	0.43	14.58	-31.0	-33.5	11.1	1.34e-03	0	43	0	190840832	22	4798
2026-01-23 02:07:25.75	0.29	14.66	-31.0	-33.5	11.3	1.35e-03	0	43	0	192937984	22	4771
2026-01-23 02:07:26.75	0.15	14.74	-30.9	-33.7	11.5	3.52e-03	0	43	0	195035136	21	4953
2026-01-23 02:07:27.76	0.01	14.82	-30.6	-32.7	12.1	7.13e-04	0	44	0	197132288	21	4590
2026-01-23 02:07:28.77	359.87	14.90	-30.8	-33.2	11.8	5.53e-04	0	44	0	199229440	21	4755
2026-01-23 02:07:29.77	359.73	14.98	-30.7	-33.0	11.9	3.04e-03	0	44	0	200278016	21	4700
2026-01-23 02:07:30.78	359.59	15.06	-30.7	-32.8	12.1	1.74e-04	0	44	0	202375168	21	4631
2026-01-23 02:07:31.78	359.45	15.14	-30.8	-33.3	11.8	3.03e-04	0	43	0	204472320	21	4780
2026-01-23 02:07:32.78	359.31	15.22	-30.7	-33.1	11.9	3.00e-03	0	44	0	206569472	21	4710
2026-01-23 02:07:33.78	359.17	15.30	-30.6	-32.5	12.2	2.56e-03	0	44	0	208666624	21	4530
2026-01-23 02:07:34.78	359.03	15.38	-30.4	-32.2	12.5	1.94e-04	0	44	0	209715200	21	4409
2026-01-23 02:07:35.79	358.88	15.47	-30.3	-32.2	12.8	2.38e-03	0	44	0	211812352	20	4507
2026-01-23 02:07:36.78	358.74	15.55	-30.4	-32.5	12.7	2.61e-03	0	44	0	213909504	20	4605
2026-01-23 02:07:37.78	358.59	15.63	-30.4	-32.5	12.6	2.24e-04	0	44	0	216006656	20	4622
2026-01-23 02:07:38.78	358.45	15.71	-30.3	-32.2	12.8	6.02e-05	0	44	0	217055232	20	4502
2026-01-23 02:07:39.78	358.30	15.79	-30.3	-32.2	12.8	2.41e-03	0	44	0	219152384	20	4500
2026-01-23 02:07:40.79	358.15	15.87	-30.2	-32.1	12.9	2.01e-04	0	44	0	221249536	20	4462
2026-01-23 02:07:41.79	358.00	15.95	-30.1	-31.7	13.2	2.51e-05	0	44	0	223346688	20	4335
2026-01-23 02:07:42.79	357.85	16.03	-30.1	-31.7	13.2	2.15e-03	0	43	0	225443840	20	4348
2026-01-23 02:07:43.79	357.70	16.11	-30.0	-31.6	13.4	2.27e-04	0	44	0	226492416	20	4294
2026-01-23 02:07:44.80	357.55	16.19	-30.4	-32.5	12.7	2.21e-03	0	44	0	228589568	20	4590
2026-01-23 02:07:45.80	357.40	16.27	-30.4	-32.5	12.7	7.93e-05	0	44	0	230686720	20	4600
2026-01-23 02:07:46.80	357.25	16.35	-30.3	-32.3	12.8	2.54e-04	0	44	0	232783872	20	4542
2026-01-23 02:07:47.80	357.09	16.44	-30.4	-32.6	12.7	2.48e-03	0	44	0	234881024	20	4632
2026-01-23 02:07:48.80	356.94	16.52	-30.5	-32.2	12.6	2.48e-03	0	44	0	235929600	21	4410
2026-01-23 02:07:49.81	356.78	16.60	-30.6	-32.6	12.3	3.33e-04	0	44	0	238026752	21	4551
2026-01-23 02:07:50.81	356.62	16.68	-30.6	-32.6	12.3	2.50e-03	0	44	0	240123904	21	4537
2026-01-23 02:07:51.81	356.47	16.76	-30.6	-32.6	12.4	2.36e-03	0	44	0	242221056	21	4540
2026-01-23 02:07:52.81	356.31	16.84	-30.7	-33.0	12.0	3.52e-04	0	44	0	244318208	21	4675
2026-01-23 02:07:53.82	356.15	16.93	-30.6	-32.5	12.4	2.35e-03	0	44	0	245366784	21	4493
2026-01-23 02:07:54.82	355.99	17.01	-30.5	-32.4	12.5	2.23e-03	0	44	0	247463936	21	4461
2026-01-23 02:07:55.82	355.83	17.09	-30.6	-32.6	12.4	2.04e-04	0	44	0	249561088	21	4520
2026-01-23 02:07:56.82	355.67	17.17	-30.6	-32.6	12.4	2.33e-03	0	44	0	251658240	21	4548
2026-01-23 02:07:57.83	355.50	17.25	-30.7	-32.8	12.1	2.16e-03	0	44	0	253755392	21	4617
2026-01-23 02:07:58.83	355.34	17.33	-30.8	-33.1	12.0	3.93e-04	0	44	0	254803968	21	4726
2026-01-23 02:07:59.83	355.18	17.42	-30.7	-33.0	12.0	2.97e-04	0	44	0	256901120	21	4669
2026-01-23 02:08:00.84	355.01	17.50	-30.7	-32.8	12.2	1.94e-03	0	44	0	258998272	21	4613
2026-01-23 02:08:01.84	354.84	17.58	-30.7	-32.8	12.2	3.48e-04	0	44	0	261095424	21	4606
2026-01-23 02:08:02.85	354.68	17.66	-30.6	-32.7	12.2	1.80e-03	0	44	0	262144000	21	4584
2026-01-23 02:08:03.85	354.51	17.74	-30.6	-32.6	12.3	1.77e-03	0	44	0	264241152	21	4556
2026-01-23 02:08:04.86	354.34	17.83	-30.8	-33.2	12.0	3.95e-04	0	44	0	266338304	21	4759
2026-01-23 02:08:05.86	354.17	17.91	-30.6	-32.7	12.2	1.91e-03	0	44	0	268435456	21	4567
2026-01-23 02:08:06.86	354.00	17.99	-30.4	-32.1	12.7	8.01e-05	0	44	0	270532608	21	4385
2026-01-23 02:08:07.86	353.83	18.07	-30.3	-31.8	13.0	2.36e-04	0	44	0	271581184	21	4269
2026-01-23 02:08:08.87	353.65	18.15	-30.3	-32.3	12.8	1.68e-03	0	44	0	273678336	20	4543
2026-01-23 02:08:09.87	353.48	18.24	-30.4	-32.6	12.8	6.71e-05	0	44	0	275775488	20	4625
2026-01-23 02:08:10.88	353.30	18.32	-30.5	-32.4	12.5	9.46e-05	0	44	0	277872640	21	4491
2026-01-23 02:08:11.88	353.13	18.40	-30.6	-32.7	12.3	1.82e-03	0	44	0	279969792	21	4586
2026-01-23 02:08:12.88	352.95	18.48	-30.7	-33.1	12.0	2.06e-03	0	44	0	281018368	21	4706
2026-01-23 02:08:13.88	352.77	18.56	-30.6	-32.6	12.3	2.06e-04	0	44	0	283115520	21	4549
2026-01-23 02:08:14.89	352.59	18.65	-30.8	-33.1	12.0	2.06e-03	0	44	0	285212672	21	4723
2026-01-23 02:08:15.89	352.41	18.73	-30.6	-32.7	12.4	1.94e-03	0	44	0	287309824	21	4561
2026-01-23 02:08:16.90	352.23	18.81	-30.8	-33.1	12.0	1.91e-04	0	44	0	289406976	21	4727
2026-01-23 02:08:17.91	352.05	18.89	-30.8	-33.1	12.0	3.21e-04	0	44	0	290455552	21	4722
2026-01-23 02:08:18.91	351.87	18.97	-30.9	-33.5	11.8	1.51e-03	0	44	0	292552704	21	4850
2026-01-23 02:08:19.91	351.68	19.06	-31.0	-33.7	11.7	4.92e-04	0	44	0	294649856	21	4911
2026-01-23 02:08:20.92	351.50	19.14	-31.1	-33.5	11.5	7.87e-04	0	44	0	296747008	22	4740
2026-01-23 02:08:21.92	351.31	19.22	-31.2	-33.9	11.2	1.37e-03	0	44	0	298844160	22	4910
2026-01-23 02:08:22.93	351.12	19.30	-31.4	-34.5	10.8	2.11e-03	0	44	0	299892736	22	5125
2026-01-23 02:08:23.93	350.94	19.38	-31.2	-34.0	11.2	1.16e-03	0	44	0	301989888	22	4929
2026-01-23 02:08:24.94	350.75	19.47	-31.0	-33.3	11.6	7.45e-04	0	44	0	304087040	22	4672
2026-01-23 02:08:25.94	350.56	19.55	-30.9	-32.8	12.0	3.48e-04	0	44	0	306184192	22	4499
2026-01-23 02:08:26.95	350.36	19.63	-30.9	-33.4	11.9	3.08e-04	0	44	0	308281344	21	4806
2026-01-23 02:08:27.96	350.17	19.71	-30.9	-33.5	11.8	3.89e-04	0	44	0	309329920	21	4854
2026-01-23 02:08:28.96	349.98	19.79	-30.7	-32.9	12.3	4.52e-04	0	44	0	311427072	21	4638
2026-01-23 02:08:29.97	349.78	19.87	-30.8	-33.1	12.1	2.62e-04	0	44	0	313524224	21	4700
2026-01-23 02:08:30.97	349.59	19.95	-30.8	-33.2	12.0	3.11e-04	0	44	0	315621376	21	4746
2026-01-23 02:08:31.97	349.39	20.04	-31.2	-34.0	11.2	4.52e-04	0	44	0	317718528	22	4951
2026-01-23 02:08:32.97	349.20	20.12	-31.0	-33.3	11.6	1.01e-03	0	44	0	318767104	22	4683
2026-01-23 02:08:33.97	349.00	20.20	-31.1	-33.6	11.5	7.25e-04	0	44	0	320864256	22	4768
2026-01-23 02:08:34.98	348.80	20.28	-31.3	-34.3	11.0	1.17e-03	0	44	0	322961408	22	5034
2026-01-23 02:08:35.99	348.60	20.36	-31.3	-33.9	11.3	1.41e-03	0	44	0	325058560	22	4906
2026-01-23 02:08:36.99	348.40	20.44	-31.1	-33.5	11.6	8.84e-04	0	44	0	327155712	22	4736
2026-01-23 02:08:37.99	348.19	20.52	-31.1	-33.5	11.6	7.61e-04	0	44	0	328204288	22	4723
2026-01-23 02:08:39.00	347.99	20.60	-31.0	-33.1	11.8	6.06e-04	0	44	0	330301440	22	4602
2026-01-23 02:08:40.00	347.78	20.68	-31.0	-33.2	11.7	4.42e-04	0	44	0	332398592	22	4645
2026-01-23 02:08:41.00	347.58	20.76	-30.9	-32.9	12.0	4.70e-04	0	44	0	334495744	22	4532
2026-01-23 02:08:42.00	347.37	20.84	-31.2	-33.6	11.6	3.71e-04	0	44	0	335544320	22	4770
2026-01-23 02:08:43.00	347.17	20.92	-30.8	-32.5	12.3	4.39e-04	0	44	0	337641472	22	4383
2026-01-23 02:08:44.01	346.95	21.00	-30.5	-31.7	12.9	6.48e-05	0	44	0	339738624	22	4127
2026-01-23 02:08:45.01	346.75	21.08	-30.4	-32.0	12.8	3.35e-05	0	44	0	341835776	21	4306
2026-01-23 02:08:46.01	346.53	21.16	-30.3	-31.6	13.2	1.90e-05	0	44	0	343932928	21	4178
2026-01-23 02:08:47.01	346.32	21.24	-30.6	-32.4	12.2	6.02e-05	0	44	0	346030080	21	4430
2026-01-23 02:08:48.02	346.11	21.32	-30.7	-32.9	12.3	1.75e-04	0	44	0	347078656	21	4618
2026-01-23 02:08:49.02	345.89	21.39	-30.9	-33.2	12.1	1.86e-04	0	44	0	349175808	21	4738
2026-01-23 02:08:50.02	345.68	21.47	-31.0	-33.2	11.8	3.76e-04	0	44	0	351272960	22	4613
2026-01-23 02:08:51.03	345.46	21.55	-30.9	-33.3	12.1	3.30e-04	0	44	0	353370112	21	4764
2026-01-23 02:08:52.04	345.24	21.63	-30.7	-32.7	12.4	2.10e-04	0	44	0	354418688	21	4562
2026-01-23 02:08:53.04	345.02	21.71	-30.4	-32.4	13.0	9.53e-05	0	44	0	356515840	20	4544
2026-01-23 02:08:54.04	344.80	21.79	-30.3	-32.2	13.1	2.10e-03	0	44	0	358612992	20	4482
2026-01-23 02:08:55.05	344.58	21.86	-30.0	-31.3	13.7	1.44e-05	0	44	0	360710144	20	4184
2026-01-23 02:08:56.06	344.36	21.94	-29.6	-30.7	14.4	3.00e-06	0	44	0	362807296	19	4103
2026-01-23 02:08:57.06	344.13	22.02	-29.5	-30.6	14.5	2.35e-03	0	44	0	363855872	19	4069
2026-01-23 02:08:58.06	343.91	22.09	-29.6	-30.9	14.3	7.00e-07	0	44	0	365953024	19	4160
2026-01-23 02:08:59.06	343.68	22.17	-29.5	-30.6	14.6	0.00e+00	0	44	0	368050176	19	4062
2026-01-23 02:09:00.06	343.46	22.25	-29.7	-31.0	14.3	0.00e+00	0	44	0	370147328	19	4202
2026-01-23 02:09:01.06	343.23	22.32	-29.8	-31.3	14.0	1.50e-06	0	44	0	372244480	19	4291
2026-01-23 02:09:02.06	343.00	22.40	-29.8	-31.4	14.0	1.50e-06	0	44	0	373293056	19	4306
2026-01-23 02:09:03.05	342.78	22.47	-29.9	-31.6	13.9	3.00e-06	0	44	0	375390208	19	4363
2026-01-23 02:09:04.06	342.54	22.55	-29.8	-31.5	14.0	7.00e-07	0	44	0	377487360	19	4333
2026-01-23 02:09:05.06	342.31	22.62	-29.8	-31.4	14.0	1.13e-03	0	44	0	379584512	19	4304
2026-01-23 02:09:06.06	342.08	22.70	-30.0	-31.4	13.7	3.80e-06	0	44	0	380633088	20	4220
2026-01-23 02:09:07.04	341.85	22.77	-30.1	-31.5	13.5	7.60e-06	0	44	0	382730240	20	4256
2026-01-23 02:09:08.04	341.61	22.84	-29.9	-31.2	13.8	2.59e-03	0	44	0	384827392	20	4151
2026-01-23 02:09:09.05	341.37	22.92	-29.7	-31.1	14.2	0.00e+00	0	44	0	386924544	19	4211
2026-01-23 02:09:10.05	341.14	22.99	-29.6	-30.7	14.5	7.00e-07	0	44	0	389021696	19	4094
2026-01-23 02:09:11.05	340.90	23.07	-29.5	-30.5	14.6	2.43e-03	0	44	0	391118848	19	4045
2026-01-23 02:09:12.05	340.66	23.14	-29.7	-30.9	14.3	2.21e-03	0	44	0	392167424	19	4158
2026-01-23 02:09:13.05	340.42	23.21	-29.6	-30.7	14.5	0.00e+00	0	44	0	394264576	19	4083
2026-01-23 02:09:14.06	340.17	23.28	-29.7	-31.1	14.3	2.23e-03	0	44	0	396361728	19	4199
2026-01-23 02:09:15.06	339.93	23.35	-30.0	-31.4	13.7	2.53e-03	0	44	0	398458880	20	4216
2026-01-23 02:09:16.06	339.68	23.43	-30.1	-31.6	13.6	6.10e-06	0	44	0	399507456	20	4284
2026-01-23 02:09:17.05	339.44	23.50	-30.0	-31.3	13.8	7.60e-06	0	44	0	401604608	20	4193
2026-01-23 02:09:18.05	339.20	23.57	-30.1	-31.6	13.6	2.58e-03	0	44	0	403701760	20	4260
2026-01-23 02:09:19.05	338.95	23.64	-29.7	-30.4	14.3	2.20e-06	0	44	0	405798912	20	3924
2026-01-23 02:09:20.05	338.70	23.71	-29.2	-30.2	15.1	7.00e-07	0	44	0	407896064	18	4037
2026-01-23 02:09:21.05	338.45	23.78	-28.8	-29.7	15.7	2.14e-03	0	44	0	408944640	17	4007
2026-01-23 02:09:22.06	338.20	23.84	-28.8	-29.9	15.6	0.00e+00	0	44	0	411041792	17	4048
2026-01-23 02:09:23.07	337.94	23.91	-29.1	-30.0	15.3	2.10e-03	0	44	0	413138944	18	3988
2026-01-23 02:09:24.07	337.69	23.98	-29.3	-30.4	15.0	0.00e+00	0	44	0	415236096	18	4112
2026-01-23 02:09:25.07	337.43	24.05	-29.6	-30.7	14.5	1.50e-06	0	44	0	417333248	19	4095
2026-01-23 02:09:26.07	337.18	24.12	-29.4	-30.9	14.7	2.44e-03	0	44	0	418381824	18	4240
2026-01-23 02:09:27.08	336.92	24.18	-29.6	-30.8	14.5	0.00e+00	0	44	0	420478976	19	4107
2026-01-23 02:09:28.08	336.66	24.25	-29.7	-30.9	14.4	7.00e-07	0	44	0	422576128	19	4143
2026-01-23 02:09:29.09	336.40	24.32	-29.3	-30.5	15.0	2.36e-03	0	44	0	424673280	18	4114
2026-01-23 02:09:30.08	336.14	24.38	-29.1	-30.1	15.2	2.12e-03	0	44	0	425721856	18	4012
2026-01-23 02:09:31.09	335.88	24.45	-29.2	-30.1	15.2	0.00e+00	0	44	0	427819008	18	4026
2026-01-23 02:09:32.10	335.61	24.51	-29.5	-30.5	14.6	2.14e-03	0	44	0	429916160	19	4048
2026-01-23 02:09:33.10	335.35	24.57	-29.7	-31.0	14.4	2.36e-03	0	44	0	432013312	19	4188
2026-01-23 02:09:34.10	335.09	24.64	-30.0	-31.2	13.9	1.50e-06	0	44	0	434110464	20	4150
2026-01-23 02:09:35.10	334.82	24.70	-30.0	-31.4	13.7	2.53e-03	0	44	0	435159040	20	4230
2026-01-23 02:09:36.10	334.55	24.76	-29.8	-31.1	14.2	2.38e-03	0	44	0	437256192	19	4221
2026-01-23 02:09:37.10	334.29	24.82	-29.5	-30.3	14.8	1.50e-06	0	44	0	439353344	19	3982
2026-01-23 02:09:38.10	334.02	24.89	-29.5	-30.4	14.8	2.24e-03	0	44	0	441450496	19	4006
2026-01-23 02:09:39.11	333.75	24.95	-29.5	-30.6	14.7	2.06e-03	0	44	0	443547648	19	4050
2026-01-23 02:09:40.11	333.48	25.01	-29.6	-30.7	14.5	1.60e-05	0	44	0	444596224	19	4083
2026-01-23 02:09:41.12	333.20	25.07	-29.8	-31.1	14.3	2.01e-03	0	44	0	446693376	19	4222
2026-01-23 02:09:42.12	332.93	25.13	-29.9	-31.5	14.1	2.10e-03	0	44	0	448790528	19	4315
2026-01-23 02:09:43.12	332.66	25.18	-29.8	-31.2	14.2	1.78e-04	0	44	0	450887680	19	4229
2026-01-23 02:09:44.13	332.38	25.24	-29.5	-30.5	14.8	2.21e-03	0	44	0	452984832	19	4022
2026-01-23 02:09:45.13	332.10	25.30	-29.4	-30.6	14.9	0.00e+00	0	44	0	454033408	18	4167
2026-01-23 02:09:46.14	331.82	25.36	-29.2	-30.2	15.1	1.63e-04	0	44	0	456130560	18	4038
2026-01-23 02:09:47.14	331.54	25.41	-29.2	-30.2	15.1	2.26e-03	0	44	0	458227712	18	4053
2026-01-23 02:09:48.14	331.27	25.47	-29.5	-30.5	14.7	2.04e-03	0	44	0	460324864	19	4035
2026-01-23 02:09:49.15	330.98	25.52	-29.8	-31.1	14.3	1.44e-04	0	44	0	462422016	19	4210
2026-01-23 02:09:50.15	330.70	25.58	-29.7	-30.8	14.5	1.96e-03	0	44	0	463470592	19	4130
2026-01-23 02:09:51.15	330.42	25.63	-29.6	-30.7	14.6	1.56e-03	0	44	0	465567744	19	4091
2026-01-23 02:09:52.16	330.14	25.68	-29.4	-30.2	14.8	0.00e+00	0	44	0	467664896	19	3956
2026-01-23 02:09:53.15	329.85	25.74	-29.3	-30.4	15.0	1.57e-03	0	44	0	469762048	18	4105
2026-01-23 02:09:54.15	329.57	25.79	-29.5	-30.9	14.8	2.04e-03	0	44	0	470810624	18	4237
2026-01-23 02:09:55.15	329.28	25.84	-29.4	-30.3	14.8	0.00e+00	0	44	0	472907776	19	3965
2026-01-23 02:09:56.16	329.00	25.89	-29.6	-30.6	14.6	0.00e+00	0	44	0	475004928	19	4053
2026-01-23 02:09:57.16	328.71	25.94	-29.8	-31.1	14.4	1.74e-03	0	44	0	477102080	19	4196
2026-01-23 02:09:58.16	328.42	25.99	-29.9	-31.5	14.1	2.71e-04	0	44	0	479199232	19	4314
2026-01-23 02:09:59.16	328.13	26.03	-30.1	-31.5	13.7	2.20e-06	0	44	0	481296384	20	4228
2026-01-23 02:10:00.16	327.84	26.08	-30.1	-31.4	13.8	3.80e-06	0	44	0	482344960	20	4206
2026-01-23 02:10:01.15	327.55	26.13	-29.9	-31.4	14.1	5.16e-04	0	44	0	484442112	19	4295
2026-01-23 02:10:02.16	327.26	26.17	-29.4	-30.1	14.9	0.00e+00	0	44	0	486539264	19	3920
2026-01-23 02:10:03.16	326.97	26.22	-29.0	-29.8	15.4	0.00e+00	0	44	0	488636416	18	3932
2026-01-23 02:10:04.16	326.67	26.26	-29.1	-29.9	15.4	5.72e-04	0	44	0	489684992	18	3950
2026-01-23 02:10:05.17	326.37	26.31	-29.4	-30.8	14.9	7.48e-04	0	44	0	491782144	18	4209
2026-01-23 02:10:06.17	326.08	26.35	-29.6	-30.6	14.6	7.00e-07	0	44	0	493879296	19	4068
2026-01-23 02:10:07.17	325.78	26.39	-29.8	-31.1	14.3	7.00e-07	0	44	0	495976448	19	4215
2026-01-23 02:10:08.17	325.49	26.43	-30.0	-31.2	13.9	1.21e-03	0	44	0	498073600	20	4149
2026-01-23 02:10:09.17	325.19	26.47	-29.9	-30.9	14.1	5.30e-06	0	44	0	499122176	20	4065
2026-01-23 02:10:10.18	324.89	26.51	-29.9	-31.1	13.8	3.00e-06	0	44	0	501219328	20	4129
2026-01-23 02:10:11.18	324.59	26.55	-30.0	-31.4	13.8	2.39e-03	0	44	0	503316480	20	4219
2026-01-23 02:10:12.18	324.29	26.59	-30.0	-31.3	13.8	4.50e-06	0	44	0	505413632	20	4178
2026-01-23 02:10:13.19	323.99	26.63	-30.2	-31.8	13.5	6.10e-06	0	44	0	507510784	20	4352
2026-01-23 02:10:14.19	323.69	26.66	-30.4	-32.4	13.1	1.44e-05	0	44	0	508559360	20	4530
2026-01-23 02:10:15.19	323.38	26.70	-30.6	-32.5	12.7	2.71e-03	0	44	0	510656512	21	4475
2026-01-23 02:10:16.19	323.08	26.73	-30.8	-33.0	12.4	1.06e-04	0	44	0	512753664	21	4627
2026-01-23 02:10:17.20	322.78	26.77	-30.6	-32.4	12.8	8.31e-05	0	44	0	514850816	21	4436
2026-01-23 02:10:18.20	322.47	26.80	-30.3	-31.6	13.4	9.21e-04	0	44	0	516947968	21	4174
2026-01-23 02:10:19.21	322.16	26.83	-30.1	-31.5	13.7	5.30e-06	0	44	0	517996544	20	4248
2026-01-23 02:10:20.21	321.86	26.86	-30.2	-31.8	13.6	8.30e-06	0	44	0	520093696	20	4312
2026-01-23 02:10:21.22	321.55	26.89	-30.3	-31.7	13.3	1.67e-05	0	44	0	522190848	21	4186
2026-01-23 02:10:22.22	321.24	26.92	-30.5	-32.1	13.0	2.13e-05	0	44	0	524288000	21	4349
2026-01-23 02:10:23.22	320.94	26.95	-30.7	-32.8	12.6	6.40e-05	0	44	0	526385152	21	4548
2026-01-23 02:10:24.23	320.63	26.98	-30.9	-33.3	12.2	1.85e-04	0	44	0	527433728	21	4737
2026-01-23 02:10:25.22	320.32	27.01	-30.9	-33.3	12.2	2.07e-04	0	44	0	529530880	21	4750
2026-01-23 02:10:26.22	320.01	27.03	-30.9	-32.7	12.2	2.64e-04	0	44	0	531628032	22	4430
2026-01-23 02:10:27.23	319.70	27.06	-30.9	-32.7	12.3	3.07e-04	0	44	0	533725184	22	4457
2026-01-23 02:10:28.24	319.39	27.08	-30.8	-33.0	12.4	2.05e-04	0	44	0	534773760	21	4632
2026-01-23 02:10:29.24	319.08	27.10	-30.9	-33.3	12.2	1.27e-04	0	44	0	536870912	21	4737
2026-01-23 02:10:30.24	318.77	27.13	-31.1	-33.2	12.0	3.87e-04	0	44	0	538968064	22	4614
2026-01-23 02:10:31.25	318.46	27.15	-30.7	-32.2	12.6	1.97e-04	0	44	0	541065216	22	4271
2026-01-23 02:10:32.26	318.14	27.17	-30.3	-31.6	13.3	2.13e-05	0	44	0	543162368	21	4195
2026-01-23 02:10:33.27	317.83	27.19	-30.4	-32.4	13.0	1.98e-05	0	44	0	544210944	20	4550
2026-01-23 02:10:34.27	317.52	27.21	-30.7	-32.9	12.5	6.40e-05	0	44	0	546308096	21	4594
2026-01-23 02:10:35.27	317.20	27.22	-30.8	-33.0	12.3	1.65e-04	0	44	0	548405248	21	4660
2026-01-23 02:10:36.28	316.89	27.24	-30.7	-32.8	12.5	1.51e-04	0	44	0	550502400	21	4592
2026-01-23 02:10:37.28	316.57	27.26	-30.1	-32.0	12.7	6.86e-05	0	44	0	552599552	21	4486
2026-01-23 02:10:38.29	316.26	27.27	-29.5	-31.5	12.5	4.57e-05	0	44	0	553648128	20	4517
2026-01-23 02:10:39.29	315.94	27.29	-30.3	-32.2	13.2	2.67e-05	0	44	0	555745280	20	4486
2026-01-23 02:10:40.29	315.63	27.30	-30.4	-32.4	11.9	2.05e-05	0	44	0	557842432	20	4540
2026-01-23 02:10:41.29	315.32	27.31	-30.6	-32.3	12.1	6.33e-05	0	44	0	559939584	21	4416
2026-01-23 02:10:42.29	315.00	27.32	-30.5	-32.2	12.8	5.87e-05	0	44	0	562036736	21	4385
2026-01-23 02:10:43.29	314.69	27.33	-30.4	-32.5	12.9	4.95e-05	0	44	0	563085312	20	4592
2026-01-23 02:10:44.29	314.37	27.34	-30.5	-32.7	12.9	5.11e-05	0	44	0	565182464	20	4633
2026-01-23 02:10:45.29	314.06	27.35	-30.7	-32.8	12.5	7.55e-05	0	44	0	567279616	21	4579
2026-01-23 02:10:46.30	313.74	27.36	-30.9	-33.3	12.1	2.62e-03	0	44	0	569376768	21	4778
2026-01-23 02:10:47.30	313.43	27.36	-31.0	-33.3	11.8	4.61e-04	0	44	0	571473920	22	4654
2026-01-23 02:10:48.31	313.11	27.37	-31.1	-33.5	11.6	7.34e-04	0	44	0	572522496	22	4743
2026-01-23 02:10:49.31	312.79	27.37	-31.1	-33.5	11.7	3.10e-03	0	44	0	574619648	22	4750
2026-01-23 02:10:50.32	312.47	27.38	-31.0	-33.3	11.8	5.24e-04	0	44	0	576716800	22	4652
2026-01-23 02:10:51.32	312.16	27.38	-31.0	-33.1	12.0	5.30e-04	0	44	0	578813952	22	4585
2026-01-23 02:10:52.33	311.84	27.38	-31.0	-33.1	11.9	3.49e-04	0	44	0	580911104	22	4585
2026-01-23 02:10:53.33	311.52	27.38	-30.8	-33.0	12.4	1.15e-03	0	44	0	581959680	21	4617
2026-01-23 02:10:54.34	311.20	27.38	-30.5	-32.5	13.1	5.64e-05	0	44	0	584056832	20	4569
2026-01-23 02:10:55.34	310.89	27.38	-30.4	-32.3	13.2	2.51e-05	0	44	0	586153984	20	4481
2026-01-23 02:10:56.34	310.57	27.38	-30.5	-32.1	13.0	1.44e-03	0	44	0	588251136	21	4329
2026-01-23 02:10:57.34	310.26	27.37	-30.7	-32.6	12.7	4.25e-04	0	44	0	589299712	21	4483
2026-01-23 02:10:58.34	309.94	27.37	-30.4	-31.9	13.2	4.57e-05	0	44	0	591396864	21	4268
2026-01-23 02:10:59.34	309.63	27.36	-30.4	-32.4	13.2	3.05e-05	0	44	0	593494016	20	4523
2026-01-23 02:11:00.35	309.31	27.36	-30.5	-32.3	12.9	4.30e-04	0	44	0	595591168	21	4382
2026-01-23 02:11:01.36	308.99	27.35	-30.8	-32.9	12.5	8.54e-05	0	44	0	597688320	21	4611
2026-01-23 02:11:02.36	308.68	27.34	-31.0	-33.0	12.1	2.23e-04	0	44	0	599785472	22	4548
2026-01-23 02:11:03.36	308.36	27.33	-30.8	-32.9	12.5	6.06e-04	0	44	0	600834048	21	4597
2026-01-23 02:11:04.37	308.04	27.32	-30.6	-32.3	12.9	2.62e-03	0	44	0	602931200	21	4411
2026-01-23 02:11:05.37	307.73	27.31	-30.4	-32.5	13.1	4.65e-05	0	44	0	605028352	20	4544
2026-01-23 02:11:06.38	307.41	27.30	-30.4	-32.0	13.1	2.96e-04	0	44	0	607125504	21	4286
2026-01-23 02:11:07.39	307.09	27.29	-30.5	-32.1	13.0	2.49e-03	0	44	0	608174080	21	4316
2026-01-23 02:11:08.40	306.78	27.27	-30.7	-32.5	12.7	2.42e-03	0	44	0	610271232	21	4471
2026-01-23 02:11:09.40	306.46	27.26	-30.8	-32.8	12.5	1.02e-04	0	44	0	612368384	21	4559
2026-01-23 02:11:10.40	306.15	27.24	-30.4	-31.9	13.2	2.40e-03	0	44	0	614465536	21	4253
2026-01-23 02:11:11.40	305.84	27.22	-30.4	-32.3	13.3	2.43e-03	0	44	0	616562688	20	4483
2026-01-23 02:11:12.40	305.53	27.21	-30.2	-31.9	13.4	1.52e-05	0	44	0	618659840	20	4351
2026-01-23 02:11:13.41	305.21	27.19	-30.6	-32.4	12.9	2.44e-03	0	44	0	619708416	21	4418
2026-01-23 02:11:14.41	304.90	27.17	-30.5	-32.0	13.1	2.33e-03	0	44	0	621805568	21	4308
2026-01-23 02:11:15.42	304.58	27.15	-30.4	-31.9	13.2	1.61e-04	0	44	0	623902720	21	4258
2026-01-23 02:11:16.42	304.27	27.13	-30.0	-31.4	13.7	2.25e-03	0	44	0	625999872	20	4216
2026-01-23 02:11:17.42	303.96	27.10	-29.8	-30.7	14.1	2.02e-03	0	44	0	627048448	20	3999
2026-01-23 02:11:18.42	303.65	27.08	-29.3	-29.5	15.0	8.08e-05	0	44	0	629145600	20	3665
2026-01-23 02:11:19.42	303.34	27.06	-29.2	-30.1	15.3	1.98e-03	0	44	0	631242752	18	4014
2026-01-23 02:11:20.41	303.04	27.03	-29.0	-29.8	15.5	2.23e-03	0	44	0	633339904	18	3925
2026-01-23 02:11:21.41	302.73	27.01	-28.8	-29.3	15.7	8.77e-05	0	44	0	635437056	18	3786
2026-01-23 02:11:22.42	302.42	26.98	-28.8	-29.6	15.8	1.99e-03	0	44	0	636485632	17	3973
2026-01-23 02:11:23.43	302.11	26.95	-29.1	-30.0	15.3	1.90e-03	0	44	0	638582784	18	3973
2026-01-23 02:11:24.43	301.80	26.92	-29.1	-29.9	15.4	1.66e-04	0	44	0	640679936	18	3966
2026-01-23 02:11:25.42	301.50	26.89	-29.0	-29.6	15.5	1.91e-03	0	44	0	642777088	18	3866
2026-01-23 02:11:26.43	301.19	26.86	-29.0	-29.6	15.5	2.01e-03	0	44	0	644874240	18	3881
2026-01-23 02:11:27.43	300.88	26.83	-29.1	-30.0	15.3	1.92e-04	0	44	0	645922816	18	3989
2026-01-23 02:11:28.44	300.57	26.80	-29.3	-30.6	14.9	1.98e-03	0	44	0	648019968	18	4151
2026-01-23 02:11:29.43	300.27	26.77	-29.7	-30.9	14.4	2.26e-03	0	44	0	650117120	19	4157
2026-01-23 02:11:30.44	299.97	26.73	-29.9	-31.4	14.1	1.50e-06	0	44	0	652214272	19	4290
2026-01-23 02:11:31.44	299.66	26.70	-29.8	-30.7	14.2	1.71e-03	0	44	0	653262848	20	4002
2026-01-23 02:11:32.43	299.36	26.66	-29.8	-31.2	14.4	1.86e-03	0	44	0	655360000	19	4223
2026-01-23 02:11:33.44	299.06	26.63	-29.7	-31.0	14.4	7.00e-07	0	44	0	657457152	19	4183
2026-01-23 02:11:34.44	298.76	26.59	-29.7	-30.8	14.5	2.21e-03	0	44	0	659554304	19	4113
2026-01-23 02:11:35.44	298.46	26.55	-29.6	-30.6	14.7	2.06e-03	0	44	0	661651456	19	4040
2026-01-23 02:11:36.43	298.16	26.51	-29.4	-30.1	15.0	2.20e-06	0	44	0	662700032	19	3915
2026-01-23 02:11:37.44	297.86	26.47	-29.4	-30.2	14.9	0.00e+00	0	44	0	664797184	19	3955
2026-01-23 02:11:38.44	297.56	26.43	-29.7	-31.0	14.4	2.33e-03	0	44	0	666894336	19	4179
2026-01-23 02:11:39.44	297.27	26.39	-29.6	-30.8	14.5	1.50e-06	0	44	0	668991488	19	4096
2026-01-23 02:11:40.44	296.97	26.35	-29.7	-30.9	14.6	2.33e-03	0	44	0	671088640	19	4124
2026-01-23 02:11:41.45	296.67	26.31	-29.8	-31.1	14.3	7.00e-07	0	44	0	672137216	19	4188
2026-01-23 02:11:42.45	296.38	26.26	-29.8	-31.1	14.4	0.00e+00	0	44	0	674234368	19	4198
2026-01-23 02:11:43.46	296.08	26.22	-30.0	-31.3	13.8	6.33e-04	0	44	0	676331520	20	4178
2026-01-23 02:11:44.46	295.79	26.17	-29.9	-30.9	14.1	4.50e-06	0	44	0	678428672	20	4046
2026-01-23 02:11:45.46	295.49	26.13	-29.8	-30.8	14.2	1.50e-06	0	44	0	680525824	20	4037
2026-01-23 02:11:46.47	295.20	26.08	-29.7	-30.8	14.5	2.00e-03	0	44	0	681574400	19	4119
2026-01-23 02:11:47.47	294.91	26.03	-29.6	-30.8	14.6	7.00e-07	0	44	0	683671552	19	4108
2026-01-23 02:11:48.47	294.62	25.99	-29.8	-31.1	14.4	0.00e+00	0	44	0	685768704	19	4189
2026-01-23 02:11:49.47	294.33	25.94	-30.0	-31.2	13.9	2.18e-03	0	44	0	687865856	20	4139
2026-01-23 02:11:50.48	294.04	25.89	-29.8	-31.1	14.4	1.55e-03	0	44	0	689963008	19	4187
2026-01-23 02:11:51.48	293.75	25.84	-29.8	-31.3	14.3	1.50e-06	0	44	0	691011584	19	4246
2026-01-23 02:11:52.48	293.47	25.79	-29.8	-31.3	14.1	0.00e+00	0	44	0	693108736	19	4257
2026-01-23 02:11:53.48	293.18	25.73	-29.8	-31.3	14.1	1.75e-03	0	44	0	695205888	19	4278
2026-01-23 02:11:54.48	292.90	25.68	-29.9	-31.6	14.0	1.50e-06	0	44	0	697303040	19	4355
2026-01-23 02:11:55.49	292.61	25.63	-30.2	-31.9	13.4	3.80e-06	0	44	0	698351616	20	4367
2026-01-23 02:11:56.49	292.33	25.58	-30.3	-32.0	13.3	2.36e-03	0	44	0	700448768	20	4405
2026-01-23 02:11:57.49	292.05	25.52	-30.2	-31.8	13.5	1.06e-05	0	44	0	702545920	20	4320
2026-01-23 02:11:58.50	291.76	25.47	-30.3	-32.1	13.3	1.44e-05	0	44	0	704643072	20	4418
2026-01-23 02:11:59.51	291.48	25.41	-30.6	-32.4	12.8	2.05e-05	0	44	0	706740224	21	4424
2026-01-23 02:12:00.51	291.20	25.35	-30.5	-32.2	12.8	4.27e-05	0	44	0	708837376	21	4370
2026-01-23 02:12:01.52	290.92	25.30	-30.5	-32.1	12.9	4.42e-05	0	44	0	709885952	21	4348
2026-01-23 02:12:02.52	290.65	25.24	-30.5	-32.3	12.8	5.18e-05	0	44	0	711983104	21	4418
2026-01-23 02:12:03.52	290.37	25.18	-30.3	-31.7	13.1	4.27e-05	0	44	0	714080256	21	4221
2026-01-23 02:12:04.53	290.10	25.12	-30.5	-32.6	12.8	3.66e-05	0	44	0	716177408	20	4616
2026-01-23 02:12:05.53	289.82	25.06	-30.4	-32.0	12.9	5.11e-05	0	44	0	717225984	21	4327
2026-01-23 02:12:06.53	289.55	25.00	-30.4	-32.0	13.0	2.97e-05	0	44	0	719323136	21	4305
2026-01-23 02:12:07.53	289.28	24.94	-30.6	-32.4	12.7	5.11e-05	0	44	0	721420288	21	4447
2026-01-23 02:12:08.52	289.01	24.88	-30.7	-32.9	12.3	1.13e-04	0	44	0	723517440	21	4606
2026-01-23 02:12:09.53	288.74	24.82	-30.7	-32.9	12.2	2.14e-04	0	44	0	725614592	21	4604
2026-01-23 02:12:10.53	288.47	24.76	-30.7	-32.7	12.4	1.27e-04	0	44	0	726663168	21	4565
2026-01-23 02:12:11.53	288.20	24.70	-30.5	-32.3	12.7	6.63e-05	0	44	0	728760320	21	4406
2026-01-23 02:12:12.53	287.94	24.64	-30.5	-32.4	12.6	6.56e-05	0	44	0	730857472	21	4442
2026-01-23 02:12:13.54	287.67	24.57	-30.5	-32.1	12.8	1.37e-04	0	44	0	732954624	21	4355
2026-01-23 02:12:14.54	287.41	24.51	-30.3	-31.7	13.1	2.74e-05	0	44	0	735051776	21	4230
2026-01-23 02:12:15.55	287.14	24.44	-30.2	-31.3	13.4	1.75e-05	0	44	0	736100352	21	4099
2026-01-23 02:12:16.56	286.88	24.38	-29.3	-30.9	13.4	6.80e-06	0	44	0	738197504	20	4316
2026-01-23 02:12:17.56	286.62	24.31	-30.4	-32.6	12.9	4.04e-05	0	44	0	740294656	20	4603
2026-01-23 02:12:18.56	286.36	24.25	-30.5	-32.7	11.9	3.50e-05	0	44	0	742391808	20	4655
2026-01-23 02:12:19.56	286.10	24.18	-30.6	-32.5	11.6	5.64e-05	0	44	0	744488960	21	4498
2026-01-23 02:12:20.57	285.84	24.11	-30.7	-32.8	12.2	1.54e-04	0	44	0	745537536	21	4612
2026-01-23 02:12:21.57	285.58	24.04	-30.7	-33.0	12.1	2.83e-04	0	44	0	747634688	21	4656
2026-01-23 02:12:22.57	285.33	23.98	-30.4	-32.6	12.7	1.69e-04	0	44	0	749731840	20	4630
2026-01-23 02:12:23.57	285.07	23.91	-30.1	-31.8	13.3	2.05e-05	0	44	0	751828992	20	4345
2026-01-23 02:12:24.57	284.82	23.84	-30.2	-31.8	13.3	2.38e-03	0	44	0	753926144	20	4363
2026-01-23 02:12:25.57	284.57	23.77	-30.3	-32.1	13.1	2.89e-05	0	44	0	754974720	20	4445
2026-01-23 02:12:26.57	284.32	23.70	-30.3	-32.1	13.1	2.36e-05	0	44	0	757071872	20	4467
2026-01-23 02:12:27.57	284.07	23.63	-30.5	-32.4	12.6	5.03e-05	0	44	0	759169024	21	4460
2026-01-23 02:12:28.57	283.82	23.56	-30.7	-32.9	12.2	1.95e-04	0	44	0	761266176	21	4627
2026-01-23 02:12:29.58	283.57	23.49	-30.8	-33.2	12.0	1.69e-04	0	44	0	762314752	21	4760
2026-01-23 02:12:30.58	283.32	23.42	-31.0	-33.4	11.5	7.54e-04	0	44	0	764411904	22	4725
2026-01-23 02:12:31.58	283.08	23.35	-30.7	-32.9	12.0	1.73e-03	0	44	0	766509056	21	4648
2026-01-23 02:12:32.58	282.83	23.28	-30.6	-32.6	12.4	2.65e-04	0	44	0	768606208	21	4527
2026-01-23 02:12:33.58	282.59	23.20	-30.4	-32.6	12.7	1.43e-04	0	44	0	770703360	20	4627
2026-01-23 02:12:34.59	282.35	23.13	-30.3	-32.2	13.1	4.80e-05	0	44	0	771751936	20	4486
2026-01-23 02:12:35.59	282.11	23.06	-30.1	-31.6	13.4	1.98e-05	0	44	0	773849088	20	4300
2026-01-23 02:12:36.58	281.87	22.99	-30.0	-31.3	13.5	9.10e-06	0	44	0	775946240	20	4212
2026-01-23 02:12:37.58	281.63	22.91	-30.1	-31.6	13.4	1.06e-05	0	44	0	778043392	20	4301
2026-01-23 02:12:38.58	281.39	22.84	-30.2	-31.9	13.2	3.12e-05	0	44	0	780140544	20	4404
2026-01-23 02:12:39.58	281.16	22.76	-30.1	-31.6	13.3	1.83e-05	0	44	0	781189120	20	4304
2026-01-23 02:12:40.59	280.92	22.69	-30.4	-32.6	12.7	3.35e-05	0	44	0	783286272	20	4624
2026-01-23 02:12:41.59	280.69	22.61	-30.7	-33.0	12.2	1.36e-04	0	44	0	785383424	21	4680
2026-01-23 02:12:42.59	280.46	22.54	-30.8	-33.3	11.9	4.61e-04	0	44	0	787480576	21	4786
2026-01-23 02:12:43.60	280.22	22.46	-30.8	-33.3	11.9	5.15e-04	0	44	0	788529152	21	4794
2026-01-23 02:12:44.60	279.99	22.39	-30.8	-33.1	12.0	3.37e-04	0	44	0	790626304	21	4731
2026-01-23 02:12:45.60	279.76	22.31	-30.7	-33.0	12.1	2.74e-04	0	44	0	792723456	21	4677
2026-01-23 02:12:46.60	279.53	22.24	-30.4	-31.9	12.9	3.38e-04	0	44	0	794820608	21	4305
2026-01-23 02:12:47.61	279.30	22.16	-29.8	-30.4	13.8	2.97e-05	0	44	0	796917760	21	3843
2026-01-23 02:12:48.61	279.08	22.08	-29.5	-30.6	14.4	8.01e-04	0	44	0	799014912	19	4071
2026-01-23 02:12:49.62	278.85	22.00	-29.2	-30.2	14.9	1.07e-03	0	44	0	800063488	18	4070
2026-01-23 02:12:50.62	278.63	21.93	-29.0	-29.8	15.2	0.00e+00	0	44	0	802160640	18	3956
2026-01-23 02:12:51.63	278.40	21.85	-29.2	-30.3	14.9	0.00e+00	0	44	0	804257792	18	4085
2026-01-23 02:12:52.62	278.18	21.77	-29.2	-30.4	14.7	2.10e-03	0	44	0	806354944	18	4118
2026-01-23 02:12:53.63	277.96	21.69	-29.3	-30.6	14.7	7.00e-07	0	44	0	807403520	18	4176
2026-01-23 02:12:54.63	277.74	21.62	-29.3	-30.7	14.6	7.00e-07	0	44	0	809500672	18	4220
2026-01-23 02:12:55.64	277.52	21.54	-29.4	-31.0	14.5	2.11e-03	0	44	0	811597824	18	4292
2026-01-23 02:12:56.64	277.31	21.46	-29.2	-30.4	14.8	3.50e-05	0	44	0	813694976	18	4117
2026-01-23 02:12:57.64	277.09	21.38	-29.3	-30.7	14.6	2.23e-03	0	44	0	815792128	18	4202
2026-01-23 02:12:58.64	276.87	21.30	-29.4	-30.9	14.5	0.00e+00	0	44	0	816840704	18	4255
2026-01-23 02:12:59.65	276.66	21.22	-29.4	-30.9	14.5	1.13e-04	0	44	0	818937856	18	4263
2026-01-23 02:13:00.65	276.45	21.14	-29.5	-30.6	14.4	2.53e-03	0	44	0	821035008	19	4086
2026-01-23 02:13:01.66	276.23	21.06	-29.3	-30.6	14.6	7.00e-07	0	44	0	823132160	18	4184
2026-01-23 02:13:02.66	276.02	20.98	-29.3	-30.6	14.6	8.16e-05	0	44	0	825229312	18	4192
2026-01-23 02:13:03.67	275.81	20.90	-29.3	-30.7	14.5	2.35e-03	0	44	0	826277888	18	4219
2026-01-23 02:13:04.67	275.60	20.82	-29.3	-30.6	14.5	2.17e-03	0	44	0	828375040	18	4191
2026-01-23 02:13:05.67	275.40	20.74	-29.4	-30.9	14.4	9.76e-05	0	44	0	830472192	18	4277
2026-01-23 02:13:06.67	275.19	20.66	-29.6	-30.9	14.1	2.28e-03	0	44	0	832569344	19	4181
2026-01-23 02:13:07.67	274.99	20.58	-29.5	-30.6	14.3	2.49e-03	0	44	0	834666496	19	4093
2026-01-23 02:13:08.67	274.78	20.50	-29.5	-30.7	14.2	2.78e-04	0	44	0	835715072	19	4125
2026-01-23 02:13:09.68	274.58	20.42	-29.5	-30.6	14.2	2.69e-03	0	44	0	837812224	19	4107
2026-01-23 02:13:10.68	274.38	20.34	-29.5	-30.8	14.2	2.67e-03	0	44	0	839909376	19	4151
2026-01-23 02:13:11.69	274.17	20.26	-29.8	-31.6	13.6	4.43e-04	0	44	0	842006528	19	4416
2026-01-23 02:13:12.68	273.98	20.18	-29.8	-31.6	13.6	2.60e-03	0	44	0	844103680	19	4406
2026-01-23 02:13:13.69	273.77	20.10	-30.0	-32.0	13.4	2.34e-03	0	44	0	845152256	19	4524
2026-01-23 02:13:14.69	273.58	20.02	-29.8	-31.0	13.6	6.71e-05	0	44	0	847249408	20	4126
2026-01-23 02:13:15.69	273.38	19.94	-29.7	-31.1	14.0	1.22e-05	0	44	0	849346560	19	4251
2026-01-23 02:13:16.70	273.18	19.85	-29.4	-30.4	14.4	1.80e-03	0	44	0	851443712	19	4047
2026-01-23 02:13:17.71	272.99	19.77	-29.4	-30.4	14.4	0.00e+00	0	44	0	853540864	19	4035
2026-01-23 02:13:18.71	272.79	19.69	-29.7	-31.0	14.0	1.40e-03	0	44	0	854589440	19	4217
2026-01-23 02:13:19.71	272.60	19.61	-29.6	-31.0	14.0	7.00e-07	0	44	0	856686592	19	4221
2026-01-23 02:13:20.72	272.41	19.53	-29.8	-31.6	13.6	7.60e-06	0	44	0	858783744	19	4389
2026-01-23 02:13:21.72	272.22	19.45	-29.8	-31.4	13.7	2.00e-03	0	44	0	860880896	19	4343
2026-01-23 02:13:22.72	272.03	19.36	-29.6	-31.0	14.0	4.50e-06	0	44	0	861929472	19	4202
2026-01-23 02:13:23.72	271.84	19.28	-29.3	-30.2	14.5	7.00e-07	0	44	0	864026624	19	3989
2026-01-23 02:13:24.72	271.65	19.20	-29.2	-30.3	14.8	2.07e-03	0	44	0	866123776	18	4098
2026-01-23 02:13:25.71	271.47	19.12	-29.0	-29.8	15.1	0.00e+00	0	44	0	868220928	18	3951
2026-01-23 02:13:26.72	271.28	19.04	-28.7	-29.2	15.5	0.00e+00	0	44	0	870318080	18	3793
2026-01-23 02:13:27.71	271.10	18.96	-28.7	-29.5	15.5	2.13e-03	0	44	0	871366656	17	3966
2026-01-23 02:13:28.72	270.92	18.87	-28.7	-29.6	15.5	2.01e-03	0	44	0	873463808	17	4005
2026-01-23 02:13:29.71	270.74	18.79	-28.7	-29.7	15.4	0.00e+00	0	44	0	875560960	17	4037
2026-01-23 02:13:30.71	270.56	18.71	-28.7	-29.6	15.5	0.00e+00	0	44	0	877658112	17	3997
2026-01-23 02:13:31.72	270.37	18.63	-28.7	-29.7	15.4	1.83e-03	0	44	0	879755264	17	4033
2026-01-23 02:13:32.72	270.19	18.55	-28.9	-30.0	15.2	0.00e+00	0	44	0	880803840	17	4117
2026-01-23 02:13:33.72	270.02	18.46	-29.1	-30.2	14.9	7.00e-07	0	44	0	882900992	18	4054
2026-01-23 02:13:34.73	269.84	18.38	-29.3	-30.6	14.6	2.26e-03	0	44	0	884998144	18	4173
2026-01-23 02:13:35.73	269.66	18.30	-29.4	-30.8	14.4	9.61e-05	0	44	0	887095296	18	4254
2026-01-23 02:13:36.73	269.49	18.22	-29.4	-30.7	14.5	0.00e+00	0	44	0	889192448	18	4218
2026-01-23 02:13:37.74	269.31	18.13	-29.3	-30.5	14.6	0.00e+00	0	44	0	890241024	18	4162
2026-01-23 02:13:38.74	269.14	18.05	-29.2	-30.5	14.6	7.00e-07	0	44	0	892338176	18	4145
2026-01-23 02:13:39.74	268.96	17.97	-29.3	-30.6	14.6	0.00e+00	0	44	0	894435328	18	4190
2026-01-23 02:13:40.74	268.79	17.89	-29.3	-30.7	14.5	1.50e-06	0	44	0	896532480	18	4215
2026-01-23 02:13:41.75	268.62	17.80	-29.3	-30.7	14.5	7.00e-07	0	44	0	898629632	18	4206
2026-01-23 02:13:42.76	268.45	17.72	-29.5	-30.7	14.2	7.00e-07	0	44	0	899678208	19	4114
2026-01-23 02:13:43.76	268.28	17.64	-29.8	-31.4	13.8	7.00e-07	0	44	0	901775360	19	4315
2026-01-23 02:13:44.77	268.11	17.56	-29.8	-31.5	13.7	5.30e-06	0	44	0	903872512	19	4373
2026-01-23 02:13:45.77	267.94	17.48	-29.9	-31.8	13.5	2.02e-03	0	44	0	905969664	19	4458
2026-01-23 02:13:46.78	267.78	17.39	-29.9	-31.2	13.5	6.80e-06	0	44	0	907018240	20	4189
2026-01-23 02:13:47.78	267.61	17.31	-29.7	-30.7	13.8	5.30e-06	0	44	0	909115392	20	4049
2026-01-23 02:13:48.79	267.45	17.23	-29.8	-31.5	13.6	9.90e-06	0	44	0	911212544	19	4352
2026-01-23 02:13:49.79	267.28	17.15	-29.8	-31.6	13.6	1.37e-05	0	44	0	913309696	19	4383
2026-01-23 02:13:50.80	267.12	17.06	-29.8	-31.5	13.6	6.10e-06	0	44	0	915406848	19	4360
2026-01-23 02:13:51.80	266.96	16.98	-29.8	-31.4	13.7	5.30e-06	0	44	0	917504000	19	4338
2026-01-23 02:13:52.80	266.80	16.90	-29.7	-31.3	13.8	7.00e-07	0	44	0	918552576	19	4301
2026-01-23 02:13:53.81	266.64	16.82	-29.8	-31.4	13.7	5.30e-06	0	44	0	920649728	19	4344
2026-01-23 02:13:54.81	266.48	16.74	-29.4	-30.5	14.3	6.10e-06	0	44	0	922746880	19	4063
2026-01-23 02:13:55.82	266.32	16.65	-29.1	-30.1	14.8	0.00e+00	0	44	0	924844032	18	4051
2026-01-23 02:13:56.82	266.16	16.57	-28.9	-29.6	15.1	0.00e+00	0	44	0	925892608	18	3899
2026-01-23 02:13:57.82	266.01	16.49	-28.8	-29.9	15.2	0.00e+00	0	44	0	927989760	17	4092
2026-01-23 02:13:58.82	265.85	16.41	-29.1	-30.1	14.8	0.00e+00	0	44	0	930086912	18	4049
2026-01-23 02:13:59.83	265.69	16.33	-29.2	-30.5	14.6	0.00e+00	0	44	0	932184064	18	4158
2026-01-23 02:14:00.83	265.54	16.25	-29.7	-31.1	13.9	4.50e-06	0	44	0	934281216	19	4253
2026-01-23 02:14:01.84	265.39	16.16	-29.8	-31.6	13.5	5.30e-06	0	44	0	935329792	19	4399
2026-01-23 02:14:02.84	265.23	16.08	-30.0	-31.6	13.1	1.22e-05	0	44	0	937426944	20	4320
2026-01-23 02:14:03.84	265.08	16.00	-30.0	-31.6	13.1	3.28e-05	0	44	0	939524096	20	4318
2026-01-23 02:14:04.84	264.93	15.92	-30.1	-32.0	13.0	3.12e-05	0	44	0	941621248	20	4433
2026-01-23 02:14:05.83	264.79	15.84	-29.1	-30.8	12.7	5.18e-05	0	44	0	943718400	20	4357
2026-01-23 02:14:06.83	264.64	15.76	-29.9	-31.7	12.4	1.37e-05	0	44	0	944766976	19	4442
2026-01-23 02:14:07.84	264.49	15.68	-29.9	-31.7	13.3	1.14e-05	0	44	0	946864128	19	4417
2026-01-23 02:14:08.84	264.34	15.60	-29.7	-31.3	12.9	8.30e-06	0	44	0	948961280	19	4312
2026-01-23 02:14:09.84	264.19	15.52	-29.9	-31.8	12.9	9.90e-06	0	44	0	951058432	19	4462
2026-01-23 02:14:10.84	264.05	15.44	-29.6	-31.0	13.9	9.10e-06	0	44	0	952107008	19	4216
2026-01-23 02:14:11.84	263.90	15.35	-30.0	-31.9	13.3	7.60e-06	0	44	0	954204160	19	4508
2026-01-23 02:14:12.84	263.76	15.27	-29.8	-31.4	13.5	1.60e-05	0	44	0	956301312	19	4356
2026-01-23 02:14:13.84	263.62	15.19	-29.5	-30.7	14.1	1.50e-06	0	44	0	958398464	19	4136
2026-01-23 02:14:14.85	263.47	15.11	-29.5	-31.0	14.2	7.00e-07	0	44	0	960495616	18	4319
2026-01-23 02:14:15.85	263.33	15.03	-29.5	-30.8	14.0	1.50e-06	0	44	0	961544192	19	4164
2026-01-23 02:14:16.86	263.19	14.95	-29.9	-31.7	13.4	1.37e-05	0	44	0	963641344	19	4436
2026-01-23 02:14:17.86	263.05	14.87	-29.9	-31.8	13.3	1.98e-05	0	44	0	965738496	19	4468
2026-01-23 02:14:18.86	262.91	14.79	-30.2	-32.1	12.8	2.74e-05	0	44	0	967835648	20	4479
2026-01-23 02:14:19.86	262.77	14.71	-30.2	-32.1	12.8	7.01e-05	0	44	0	969932800	20	4475
2026-01-23 02:14:20.87	262.63	14.63	-30.4	-32.7	12.4	5.58e-04	0	44	0	970981376	20	4700
2026-01-23 02:14:21.88	262.50	14.55	-30.3	-32.4	12.5	2.14e-04	0	44	0	973078528	20	4585
2026-01-23 02:14:22.88	262.36	14.47	-30.3	-32.4	12.5	1.07e-04	0	44	0	975175680	20	4607
2026-01-23 02:14:23.88	262.22	14.39	-30.4	-32.8	12.2	2.28e-03	0	44	0	977272832	20	4719
2026-01-23 02:14:24.88	262.09	14.31	-30.0	-31.6	13.1	2.13e-03	0	44	0	979369984	20	4328
2026-01-23 02:14:25.88	261.96	14.23	-29.7	-30.7	13.6	1.98e-05	0	44	0	980418560	20	4063
2026-01-23 02:14:26.89	261.82	14.15	-29.5	-30.6	14.1	5.30e-06	0	44	0	982515712	19	4113
2026-01-23 02:14:27.89	261.69	14.07	-29.4	-31.0	14.1	2.35e-03	0	44	0	984612864	18	4319
2026-01-23 02:14:28.90	261.56	13.99	-29.2	-30.5	14.4	3.80e-06	0	44	0	986710016	18	4182
2026-01-23 02:14:29.90	261.42	13.92	-29.4	-31.0	14.1	4.50e-06	0	44	0	988807168	18	4323
2026-01-23 02:14:30.90	261.29	13.84	-29.4	-30.6	14.0	2.66e-03	0	44	0	989855744	19	4097
2026-01-23 02:14:31.90	261.16	13.76	-29.7	-31.2	13.7	1.50e-04	0	44	0	991952896	19	4298
2026-01-23 02:14:32.91	261.03	13.68	-30.0	-31.7	13.0	1.44e-05	0	44	0	994050048	20	4370
2026-01-23 02:14:33.91	260.91	13.60	-29.9	-31.3	13.1	2.98e-03	0	44	0	996147200	20	4252
2026-01-23 02:14:34.92	260.78	13.52	-29.8	-31.1	13.3	2.56e-04	0	44	0	998244352	20	4191
2026-01-23 02:14:35.92	260.65	13.44	-29.6	-31.1	13.7	2.89e-03	0	44	0	999292928	19	4249
2026-01-23 02:14:36.92	260.52	13.37	-29.6	-31.0	13.7	9.10e-06	0	44	0	1001390080	19	4241
2026-01-23 02:14:37.92	260.40	13.29	-29.6	-31.0	13.8	1.05e-03	0	44	0	1003487232	19	4243
2026-01-23 02:14:38.91	260.28	13.21	-29.5	-31.2	14.0	3.57e-03	0	44	0	1005584384	18	4372
2026-01-23 02:14:39.91	260.15	13.13	-29.5	-30.9	13.8	7.00e-07	0	44	0	1007681536	19	4201
2026-01-23 02:14:40.92	260.03	13.05	-29.7	-31.2	13.6	2.17e-03	0	44	0	1008730112	19	4287
2026-01-23 02:14:41.92	259.90	12.98	-29.7	-31.2	13.6	4.36e-03	0	44	0	1010827264	19	4289
2026-01-23 02:14:42.93	259.78	12.90	-29.8	-31.6	13.3	4.25e-03	0	44	0	1012924416	19	4410
2026-01-23 02:14:43.94	259.66	12.82	-29.8	-31.6	13.3	1.52e-05	0	44	0	1015021568	19	4426
2026-01-23 02:14:44.94	259.54	12.74	-29.9	-31.3	13.1	4.57e-03	0	44	0	1016070144	20	4267
2026-01-23 02:14:45.95	259.42	12.67	-30.1	-31.9	12.7	4.74e-03	0	44	0	1018167296	20	4440
2026-01-23 02:14:46.95	259.30	12.59	-30.1	-32.0	12.6	2.08e-03	0	44	0	1020264448	20	4486
2026-01-23 02:14:47.96	259.18	12.51	-30.1	-31.9	12.7	4.63e-03	0	44	0	1022361600	20	4440
2026-01-23 02:14:48.96	259.06	12.43	-30.3	-32.5	12.3	4.17e-03	0	44	0	1024458752	20	4634
2026-01-23 02:14:49.96	258.94	12.36	-30.2	-32.4	12.3	1.55e-03	0	44	0	1026555904	20	4611
2026-01-23 02:14:50.96	258.82	12.28	-30.4	-32.9	12.0	3.55e-03	0	44	0	1027604480	20	4785
2026-01-23 02:14:51.97	258.71	12.20	-30.3	-32.6	12.2	3.26e-03	0	44	0	1029701632	20	4691
2026-01-23 02:14:52.97	258.59	12.13	-30.6	-32.9	11.6	1.05e-03	0	44	0	1031798784	21	4714
2026-01-23 02:14:53.97	258.47	12.05	-30.5	-32.7	11.7	3.61e-03	0	44	0	1033895936	21	4643
2026-01-23 02:14:54.97	258.36	11.98	-30.7	-33.3	11.3	3.62e-03	0	44	0	1034944512	21	4869
2026-01-23 02:14:55.98	258.24	11.90	-30.9	-33.7	11.1	1.41e-03	0	44	0	1037041664	21	4977
2026-01-23 02:14:56.99	258.13	11.82	-30.9	-33.8	11.0	3.86e-03	0	44	0	1039138816	21	5039
2026-01-23 02:14:57.98	258.02	11.75	-30.8	-33.5	11.2	1.51e-03	0	44	0	1041235968	21	4897
2026-01-23 02:14:58.98	257.91	11.67	-30.7	-33.3	11.5	1.22e-03	0	44	0	1043333120	21	4808
2026-01-23 02:14:59.99	257.79	11.60	-30.8	-33.3	11.4	1.49e-03	0	44	0	1044381696	21	4847
2026-01-23 02:15:01.00	257.68	11.52	-30.6	-33.0	11.6	6.97e-04	0	44	0	1046478848	21	4717
2026-01-23 02:15:02.01	257.57	11.45	-30.5	-32.7	11.9	5.27e-04	0	44	0	1048576000	21	4606
2026-01-23 02:15:03.01	257.46	11.37	-30.6	-32.8	11.8	3.13e-03	0	44	0	1050673152	21	4632
2026-01-23 02:15:04.02	257.35	11.29	-30.2	-31.6	12.5	3.31e-03	0	44	0	1052770304	21	4229
2026-01-23 02:15:05.02	257.24	11.22	-30.1	-31.3	12.8	7.62e-05	0	44	0	1053818880	21	4153
2026-01-23 02:15:06.02	257.13	11.15	-30.0	-31.6	12.9	3.14e-03	0	44	0	1055916032	20	4334
2026-01-23 02:15:07.01	257.03	11.07	-30.1	-31.8	12.7	2.89e-03	0	44	0	1058013184	20	4405
2026-01-23 02:15:08.01	256.92	11.00	-30.3	-32.4	12.4	1.21e-04	0	44	0	1060110336	20	4597
2026-01-23 02:15:09.02	256.81	10.92	-30.2	-32.2	12.5	1.59e-04	0	44	0	1062207488	20	4514
2026-01-23 02:15:10.02	256.71	10.85	-30.2	-32.1	12.5	2.54e-03	0	44	0	1063256064	20	4510
2026-01-23 02:15:11.03	256.60	10.77	-30.4	-32.7	12.1	2.13e-04	0	44	0	1065353216	20	4707
2026-01-23 02:15:12.03	256.49	10.70	-30.6	-32.9	11.6	4.59e-04	0	44	0	1067450368	21	4698
2026-01-23 02:15:13.03	256.39	10.63	-30.6	-32.8	11.7	3.99e-03	0	44	0	1069547520	21	4673
2026-01-23 02:15:14.03	256.29	10.55	-30.7	-33.3	11.3	2.39e-03	0	44	0	1071644672	21	4850
2026-01-23 02:15:15.03	256.18	10.48	-30.7	-33.1	11.5	1.23e-03	0	44	0	1072693248	21	4753
2026-01-23 02:15:16.03	256.08	10.41	-30.7	-33.2	11.4	1.05e-03	0	44	0	1074790400	21	4812
2026-01-23 02:15:17.04	255.98	10.33	-30.9	-33.8	10.9	3.43e-03	0	44	0	1076887552	21	5026
2026-01-23 02:15:18.04	255.88	10.26	-30.5	-32.8	11.6	7.62e-04	0	44	0	1078984704	21	4661
2026-01-23 02:15:19.05	255.77	10.19	-30.7	-33.1	11.4	8.01e-04	0	44	0	1080033280	21	4796
2026-01-23 02:15:20.05	255.67	10.11	-30.7	-33.3	11.3	1.05e-03	0	44	0	1082130432	21	4832
2026-01-23 02:15:21.05	255.57	10.04	-30.5	-32.6	11.7	5.90e-04	0	44	0	1084227584	21	4604
2026-01-23 02:15:22.06	255.47	9.97	-30.2	-32.4	12.2	3.08e-04	0	44	0	1086324736	20	4610
2026-01-23 02:15:23.06	255.37	9.89	-30.2	-32.1	12.4	1.39e-04	0	44	0	1088421888	20	4518
2026-01-23 02:15:24.05	255.27	9.82	-30.1	-32.0	12.5	3.70e-03	0	44	0	1089470464	20	4461
2026-01-23 02:15:25.05	255.18	9.75	-30.0	-31.7	12.7	8.46e-05	0	44	0	1091567616	20	4393
2026-01-23 02:15:26.05	255.08	9.68	-30.0	-31.7	12.6	8.92e-05	0	44	0	1093664768	20	4392
2026-01-23 02:15:27.05	254.98	9.61	-30.0	-31.8	12.6	8.16e-05	0	44	0	1095761920	20	4400
2026-01-23 02:15:28.05	254.89	9.53	-30.1	-32.0	12.5	1.17e-04	0	44	0	1097859072	20	4481
2026-01-23 02:15:29.06	254.79	9.46	-30.1	-32.1	12.4	1.51e-04	0	44	0	1098907648	20	4504
2026-01-23 02:15:30.06	254.69	9.39	-30.2	-32.4	12.1	1.85e-04	0	44	0	1101004800	20	4626
2026-01-23 02:15:31.06	254.60	9.32	-30.3	-32.7	12.0	2.83e-04	0	44	0	1103101952	20	4725
2026-01-23 02:15:32.06	254.50	9.25	-30.5	-32.7	11.5	5.90e-04	0	44	0	1105199104	21	4656
2026-01-23 02:15:33.07	254.41	9.18	-30.5	-32.7	11.5	6.32e-04	0	44	0	1107296256	21	4643
2026-01-23 02:15:34.07	254.31	9.11	-30.6	-33.0	11.3	9.95e-04	0	44	0	1108344832	21	4766
2026-01-23 02:15:35.07	254.22	9.03	-30.7	-33.3	11.1	1.61e-03	0	44	0	1110441984	21	4872
2026-01-23 02:15:36.07	254.13	8.96	-30.9	-33.9	10.7	1.91e-03	0	44	0	1112539136	21	5096
2026-01-23 02:15:37.07	254.04	8.89	-30.8	-33.7	10.8	2.17e-03	0	44	0	1114636288	21	5031
2026-01-23 02:15:38.07	253.94	8.82	-30.9	-33.9	10.7	2.33e-03	0	44	0	1116733440	21	5094
2026-01-23 02:15:39.07	253.85	8.75	-30.8	-33.8	10.8	2.71e-03	0	44	0	1117782016	21	5065
2026-01-23 02:15:40.07	253.76	8.68	-30.9	-34.0	10.7	2.73e-03	0	44	0	1119879168	21	5136
2026-01-23 02:15:41.08	253.67	8.61	-30.9	-33.9	10.6	2.98e-03	0	44	0	1121976320	21	5112
2026-01-23 02:15:42.07	253.58	8.54	-31.0	-33.8	10.5	3.93e-03	0	44	0	1124073472	22	4968
2026-01-23 02:15:43.07	253.49	8.47	-31.0	-33.9	10.3	4.69e-03	0	44	0	1125122048	22	5021
2026-01-23 02:15:44.08	253.40	8.40	-31.0	-33.8	10.4	4.97e-03	0	44	0	1127219200	22	4979
2026-01-23 02:15:45.08	253.31	8.33	-31.0	-34.3	10.3	4.03e-03	0	44	0	1129316352	21	5290
2026-01-23 02:15:46.09	253.22	8.26	-30.9	-33.7	10.4	4.38e-03	0	44	0	1131413504	22	4932
2026-01-23 02:15:47.09	253.13	8.19	-31.0	-33.9	10.3	4.67e-03	0	44	0	1133510656	22	5013
2026-01-23 02:15:48.09	253.05	8.12	-31.0	-34.0	10.2	4.86e-03	0	44	0	1134559232	22	5048
2026-01-23 02:15:49.09	252.96	8.05	-31.0	-33.9	10.2	5.57e-03	0	44	0	1136656384	22	5043
2026-01-23 02:15:50.09	252.87	7.99	-31.0	-34.1	10.1	5.73e-03	0	44	0	1138753536	22	5107
2026-01-23 02:15:51.09	252.79	7.92	-31.1	-34.4	9.8	7.62e-03	0	44	0	1140850688	22	5260
2026-01-23 02:15:52.10	252.70	7.85	-31.1	-34.1	10.0	8.62e-03	0	44	0	1142947840	22	5131
2026-01-23 02:15:53.10	252.62	7.78	-31.1	-34.3	9.8	1.00e-02	0	44	0	1143996416	22	5213
2026-01-23 02:15:54.10	252.53	7.71	-31.1	-34.4	9.7	1.26e-02	0	44	0	1146093568	22	5262
2026-01-23 02:15:55.10	252.45	7.64	-31.2	-34.9	9.4	1.19e-02	0	44	0	1148190720	22	5471
2026-01-23 02:15:56.10	252.36	7.57	-31.2	-34.6	8.8	1.32e-02	0	44	0	1150287872	22	5368
2026-01-23 02:15:57.10	252.28	7.51	-31.1	-34.5	9.1	1.24e-02	0	44	0	1151336448	22	5305
2026-01-23 02:15:58.10	252.19	7.44	-31.2	-34.8	9.4	1.54e-02	0	44	0	1153433600	22	5453
2026-01-23 02:15:59.10	252.11	7.37	-31.3	-35.3	9.1	2.23e-02	0	44	0	1155530752	22	5666
2026-01-23 02:16:00.11	252.03	7.30	-31.4	-35.7	8.7	2.92e-02	0	44	0	1157627904	22	5876
2026-01-23 02:16:01.11	251.95	7.23	-31.3	-35.3	9.0	2.76e-02	0	44	0	1159725056	22	5680
2026-01-23 02:16:02.11	251.86	7.17	-31.5	-35.5	8.4	3.41e-02	0	44	0	1161822208	23	5712
2026-01-23 02:16:03.12	251.78	7.10	-31.4	-35.5	8.8	3.28e-02	0	44	0	1162870784	22	5763
2026-01-23 02:16:04.12	251.70	7.03	-33.2	-45.6	3.8	1.49e+00	0	44	104	1163919360	26	15031
2026-01-23 02:16:05.13	251.62	6.96	-33.6	-45.9	3.8	1.49e+00	0	44	104	1163919360	27	14833

#Closed at: 2026-01-23 02:16:06
#Recorded file [1163 MB]: D:/data/31010_260123_050542.dat