passes_logs/2026/01/22/T1/T1__20260122_145638_FENGYUN_3E_rec.log

#Pass ID: 20260122_145638_FENGYUN 3E
#Satellite: FENGYUN 3E
#Configuration: FENGYUN 3E
#almurnet v.1.7.20251203
#Start time: 2026-01-22 14:56:38

#Version: 2.0.20230620
#Station: T1
#Location: 37.570604 lon 55.790049 lat
#TLE: 1 49008U 21062A   26021.55921410  .00000414  00000+0  21575-3 0  9991
#TLE: 2 49008  98.7483  26.6103 0002287 125.5068 234.6322 14.19887394235776

#Time	Az	El	Level	Level2	SNR	BER	BlckErr	Temp	State	Recorded	gain1	gain2
2026-01-22 14:56:38.34	183.57	5.01	-49.4	-60.7	3.8	8.48e-01	0	35	104	0	69	13086
2026-01-22 14:56:39.33	183.61	5.08	-49.4	-60.8	3.8	8.46e-01	0	35	104	0	69	13162
2026-01-22 14:56:40.32	183.65	5.14	-49.4	-60.8	3.8	8.47e-01	0	35	104	0	69	13168
2026-01-22 14:56:41.32	183.70	5.21	-49.3	-60.7	3.8	8.47e-01	0	35	104	0	69	13059
2026-01-22 14:56:42.31	183.74	5.28	-49.3	-60.6	3.8	8.47e-01	0	35	104	0	69	12926
2026-01-22 14:56:43.30	183.78	5.35	-49.3	-60.6	3.8	8.48e-01	0	36	104	0	69	12874
2026-01-22 14:56:44.29	183.82	5.42	-49.3	-60.5	3.8	8.46e-01	0	36	104	0	69	12771
2026-01-22 14:56:45.29	183.87	5.49	-49.3	-60.6	3.8	8.47e-01	0	36	104	0	69	12850
2026-01-22 14:56:46.28	183.91	5.56	-49.3	-60.6	3.8	8.46e-01	0	36	104	0	69	12848
2026-01-22 14:56:47.27	183.95	5.63	-49.3	-60.6	3.8	8.46e-01	0	36	104	0	69	12876
2026-01-22 14:56:48.27	184.00	5.70	-49.3	-60.7	3.8	8.47e-01	0	36	104	0	69	12972
2026-01-22 14:56:49.26	184.04	5.77	-49.3	-60.7	3.8	8.48e-01	0	36	104	0	69	12988
2026-01-22 14:56:50.25	184.09	5.84	-49.3	-60.7	3.8	8.47e-01	0	36	104	0	69	13045
2026-01-22 14:56:51.25	184.13	5.91	-49.3	-60.6	3.8	8.47e-01	0	36	104	0	69	12946
2026-01-22 14:56:52.24	184.17	5.98	-49.3	-60.6	3.8	8.46e-01	0	36	104	0	69	12868
2026-01-22 14:56:53.23	184.22	6.05	-49.3	-60.5	3.8	8.46e-01	0	36	104	0	69	12749
2026-01-22 14:56:54.23	184.26	6.13	-49.3	-60.4	3.8	8.47e-01	0	36	104	0	69	12610
2026-01-22 14:56:55.22	184.31	6.20	-49.2	-60.3	3.8	8.46e-01	0	36	104	0	69	12436
2026-01-22 14:56:56.21	184.35	6.27	-49.3	-60.3	3.8	8.47e-01	0	36	104	0	69	12493
2026-01-22 14:56:57.20	184.40	6.34	-49.3	-60.3	3.8	8.47e-01	0	36	104	0	69	12464
2026-01-22 14:56:58.20	184.45	6.41	-49.3	-60.5	3.8	8.45e-01	0	36	104	0	69	12740
2026-01-22 14:56:59.19	184.49	6.49	-49.3	-60.6	3.8	8.47e-01	0	36	104	0	69	12926
2026-01-22 14:57:00.18	184.54	6.56	-49.3	-60.6	3.8	8.46e-01	0	36	104	0	69	12888
2026-01-22 14:57:01.18	184.58	6.63	-49.3	-60.5	3.8	8.48e-01	0	36	104	0	69	12810
2026-01-22 14:57:02.17	184.63	6.70	-49.2	-60.0	3.8	8.47e-01	0	36	104	0	69	12017
2026-01-22 14:57:03.16	184.68	6.78	-49.2	-59.3	3.8	8.46e-01	0	36	104	0	69	11114
2026-01-22 14:57:04.15	184.72	6.85	-49.0	-58.5	3.8	8.46e-01	0	36	104	0	68	10715
2026-01-22 14:57:05.15	184.77	6.92	-48.9	-57.7	4.1	8.42e-01	0	36	0	0	68	9777
2026-01-22 14:57:06.14	184.82	7.00	-48.9	-57.4	4.1	8.39e-01	0	37	0	0	68	9443
2026-01-22 14:57:07.13	184.87	7.07	-48.9	-57.4	4.1	8.39e-01	0	36	0	0	68	9485
2026-01-22 14:57:08.13	184.92	7.14	-49.0	-58.2	3.8	8.44e-01	0	37	104	0	68	10365
2026-01-22 14:57:09.12	184.96	7.22	-49.2	-59.5	3.8	8.46e-01	0	37	104	0	68	12033
2026-01-22 14:57:10.12	185.01	7.29	-49.3	-60.7	3.8	8.47e-01	0	37	104	0	68	13828
2026-01-22 14:57:11.11	185.06	7.37	-49.3	-60.1	3.8	8.47e-01	0	37	104	0	68	12831
2026-01-22 14:57:12.10	185.11	7.44	-48.7	-56.5	4.4	8.42e-01	0	37	0	0	68	8512
2026-01-22 14:57:13.10	185.16	7.52	-47.6	-52.8	6.6	3.38e-01	0	37	0	2097152	66	6272
2026-01-22 14:57:14.09	185.21	7.59	-46.3	-49.9	9.6	3.47e-02	0	37	0	9437184	63	5296
2026-01-22 14:57:15.08	185.26	7.67	-44.9	-47.7	11.9	1.67e-03	0	37	0	15728640	60	4881
2026-01-22 14:57:16.07	185.31	7.74	-43.6	-45.7	13.8	5.70e-06	0	37	0	23068672	58	4371
2026-01-22 14:57:17.07	185.36	7.82	-42.1	-43.9	15.3	0.00e+00	0	37	0	30408704	55	4230
2026-01-22 14:57:18.06	185.41	7.89	-41.1	-42.8	16.4	0.00e+00	0	37	0	37748736	52	4434
2026-01-22 14:57:19.05	185.46	7.97	-40.3	-41.8	17.4	0.00e+00	0	37	0	45088768	51	4176
2026-01-22 14:57:20.05	185.51	8.05	-39.7	-41.2	18.0	0.00e+00	0	37	0	52428800	50	4099
2026-01-22 14:57:21.04	185.56	8.12	-39.4	-40.9	18.2	0.00e+00	0	37	0	59768832	49	4203
2026-01-22 14:57:22.03	185.61	8.20	-39.3	-40.8	18.3	0.00e+00	0	37	0	66060288	49	4151
2026-01-22 14:57:23.03	185.66	8.28	-39.3	-40.8	18.3	0.00e+00	0	37	0	73400320	49	4168
2026-01-22 14:57:24.02	185.72	8.35	-39.7	-41.2	17.9	0.00e+00	0	37	0	80740352	49	4362
2026-01-22 14:57:25.01	185.77	8.43	-40.0	-41.6	17.6	0.00e+00	0	37	0	88080384	49	4563
2026-01-22 14:57:26.01	185.82	8.51	-40.7	-42.3	16.9	0.00e+00	0	37	0	95420416	50	4702
2026-01-22 14:57:27.00	185.87	8.59	-41.4	-43.2	16.1	0.00e+00	0	37	0	102760448	52	4613
2026-01-22 14:57:27.99	185.93	8.67	-42.3	-44.2	15.1	0.00e+00	0	37	0	109051904	54	4645
2026-01-22 14:57:28.99	185.98	8.74	-43.7	-45.9	13.6	2.20e-06	0	37	0	116391936	56	5028
2026-01-22 14:57:29.98	186.03	8.82	-44.5	-47.0	12.4	8.81e-05	0	37	0	123731968	58	5099
2026-01-22 14:57:30.97	186.09	8.90	-45.5	-48.7	10.9	1.13e-03	0	37	0	131072000	60	5477
2026-01-22 14:57:31.96	186.14	8.98	-46.4	-50.1	9.3	1.31e-02	0	37	0	138412032	62	5770
2026-01-22 14:57:32.96	186.19	9.06	-47.1	-51.5	7.9	5.66e-02	0	37	0	145752064	63	6393
2026-01-22 14:57:33.95	186.25	9.14	-43.7	-45.9	13.6	2.63e-05	0	37	0	152043520	58	4473
2026-01-22 14:57:34.95	186.30	9.22	-42.7	-44.7	14.8	1.10e-06	0	37	0	159383552	56	4358
2026-01-22 14:57:35.94	186.36	9.30	-48.3	-55.3	4.9	3.11e-01	0	37	0	165675008	66	8305
2026-01-22 14:57:36.96	186.42	9.38	-46.8	-50.7	8.6	4.39e-02	0	37	0	169869312	64	5516
2026-01-22 14:57:37.95	186.47	9.46	-42.1	-43.9	15.5	0.00e+00	0	37	0	177209344	54	4467
2026-01-22 14:57:38.95	186.53	9.54	-41.9	-43.7	15.7	0.00e+00	0	37	0	184549376	54	4351
2026-01-22 14:57:39.94	186.58	9.62	-41.1	-42.8	16.5	0.00e+00	0	37	0	191889408	52	4406
2026-01-22 14:57:40.93	186.64	9.70	-40.9	-42.5	16.8	0.00e+00	0	37	0	198180864	52	4272
2026-01-22 14:57:41.93	186.70	9.79	-40.0	-41.6	17.7	0.00e+00	0	37	0	205520896	50	4305
2026-01-22 14:57:42.92	186.75	9.87	-39.9	-41.5	17.8	0.00e+00	0	37	0	212860928	50	4254
2026-01-22 14:57:43.92	186.81	9.95	-40.0	-41.5	17.8	0.00e+00	0	37	0	220200960	50	4289
2026-01-22 14:57:44.91	186.87	10.03	-39.6	-41.1	18.1	0.00e+00	0	37	0	227540992	49	4316
2026-01-22 14:57:45.90	186.93	10.11	-39.1	-40.5	18.7	0.00e+00	0	37	0	234881024	48	4284
2026-01-22 14:57:46.90	186.99	10.20	-38.8	-40.3	18.9	0.00e+00	0	37	0	242221056	48	4154
2026-01-22 14:57:47.90	187.05	10.28	-38.8	-40.2	18.9	0.00e+00	0	37	0	249561088	48	4145
2026-01-22 14:57:48.89	187.10	10.36	-38.8	-40.3	18.9	0.00e+00	0	37	0	255852544	48	4152
2026-01-22 14:57:49.89	187.16	10.45	-39.0	-40.5	18.7	0.00e+00	0	37	0	263192576	48	4251
2026-01-22 14:57:50.88	187.22	10.53	-38.7	-40.2	19.0	0.00e+00	0	37	0	270532608	48	4115
2026-01-22 14:57:51.94	187.29	10.62	-38.7	-40.2	19.0	0.00e+00	0	37	0	277872640	48	4112
2026-01-22 14:57:52.85	187.34	10.70	-38.6	-40.0	19.1	0.00e+00	0	37	0	285212672	48	4045
2026-01-22 14:57:53.85	187.40	10.78	-38.5	-40.0	18.9	0.00e+00	0	38	0	292552704	47	4243
2026-01-22 14:57:54.84	187.46	10.87	-38.1	-39.5	19.3	0.00e+00	0	38	0	298844160	47	4045
2026-01-22 14:57:55.84	187.53	10.95	-38.3	-39.8	19.1	0.00e+00	0	37	0	306184192	47	4153
2026-01-22 14:57:56.83	187.59	11.04	-38.3	-39.8	19.0	0.00e+00	0	37	0	313524224	47	4171
2026-01-22 14:57:57.83	187.65	11.13	-38.3	-39.8	19.0	0.00e+00	0	37	0	320864256	47	4169
2026-01-22 14:57:58.82	187.71	11.21	-38.3	-39.7	19.1	0.00e+00	0	37	0	328204288	47	4135
2026-01-22 14:57:59.81	187.78	11.30	-38.2	-39.7	19.2	0.00e+00	0	38	0	334495744	47	4117
2026-01-22 14:58:00.81	187.84	11.38	-38.3	-39.7	19.1	0.00e+00	0	37	0	341835776	46	4385
2026-01-22 14:58:01.80	187.90	11.47	-38.2	-39.7	19.2	0.00e+00	0	38	0	349175808	46	4346
2026-01-22 14:58:02.80	187.97	11.56	-38.2	-39.7	19.2	0.00e+00	0	38	0	356515840	46	4362
2026-01-22 14:58:03.79	188.03	11.64	-38.2	-39.7	19.2	0.00e+00	0	37	0	363855872	46	4354
2026-01-22 14:58:04.79	188.10	11.73	-38.2	-39.7	19.2	0.00e+00	0	38	0	371195904	46	4370
2026-01-22 14:58:05.78	188.16	11.82	-38.1	-39.6	19.3	0.00e+00	0	37	0	377487360	46	4306
2026-01-22 14:58:06.83	188.23	11.91	-38.1	-39.5	19.3	0.00e+00	0	38	0	385875968	46	4282
2026-01-22 14:58:07.82	188.29	12.00	-38.1	-39.5	19.3	0.00e+00	0	37	0	393216000	46	4279
2026-01-22 14:58:08.89	188.37	12.10	-38.1	-39.6	19.3	0.00e+00	0	38	0	400556032	46	4300
2026-01-22 14:58:09.74	188.42	12.17	-38.0	-39.5	19.4	0.00e+00	0	38	0	406847488	46	4250
2026-01-22 14:58:11.09	188.51	12.29	-38.1	-39.6	19.3	0.00e+00	0	38	0	416284672	46	4309
2026-01-22 14:58:11.80	188.56	12.36	-38.0	-39.5	19.4	0.00e+00	0	38	0	421527552	46	4261
2026-01-22 14:58:13.08	188.65	12.47	-37.9	-39.4	19.5	0.00e+00	0	38	0	430964736	46	4224
2026-01-22 14:58:13.82	188.70	12.54	-37.9	-39.4	19.4	0.00e+00	0	38	0	436207616	46	4236
2026-01-22 14:58:15.10	188.79	12.66	-37.9	-39.4	19.5	0.00e+00	0	38	0	445644800	46	4225
2026-01-22 14:58:15.81	188.84	12.72	-37.8	-39.3	19.6	0.00e+00	0	38	0	450887680	46	4151
2026-01-22 14:58:17.09	188.93	12.84	-38.0	-39.5	19.4	0.00e+00	0	37	0	460324864	46	4244
2026-01-22 14:58:17.82	188.98	12.91	-37.9	-39.4	19.5	0.00e+00	0	38	0	464519168	46	4209
2026-01-22 14:58:19.10	189.07	13.03	-37.8	-39.4	19.5	0.00e+00	0	38	0	473956352	46	4199
2026-01-22 14:58:19.82	189.12	13.09	-37.9	-39.4	19.4	0.00e+00	0	38	0	479199232	46	4234
2026-01-22 14:58:21.10	189.21	13.21	-38.1	-39.7	19.2	0.00e+00	0	38	0	488636416	46	4350
2026-01-22 14:58:21.83	189.26	13.28	-37.8	-39.4	19.5	0.00e+00	0	37	0	493879296	46	4206
2026-01-22 14:58:23.10	189.35	13.40	-37.7	-39.2	19.6	0.00e+00	0	38	0	503316480	46	4145
2026-01-22 14:58:23.85	189.41	13.47	-37.8	-39.3	19.5	0.00e+00	0	38	0	508559360	46	4173
2026-01-22 14:58:25.14	189.50	13.59	-37.6	-39.1	19.7	0.00e+00	0	38	0	517996544	46	4095
2026-01-22 14:58:25.85	189.55	13.66	-37.7	-39.2	19.6	0.00e+00	0	38	0	523239424	45	4364
2026-01-22 14:58:27.13	189.65	13.78	-37.6	-39.1	19.7	0.00e+00	0	38	0	531628032	45	4334
2026-01-22 14:58:27.85	189.70	13.85	-37.6	-39.1	19.7	0.00e+00	0	38	0	537919488	45	4316
2026-01-22 14:58:29.26	189.81	13.98	-37.6	-39.1	19.8	0.00e+00	0	38	0	547356672	45	4298
2026-01-22 14:58:29.97	189.86	14.05	-37.5	-39.0	19.8	0.00e+00	0	38	0	552599552	45	4264
2026-01-22 14:58:31.25	189.96	14.17	-37.5	-39.0	19.8	0.00e+00	0	38	0	562036736	45	4272
2026-01-22 14:58:31.96	190.01	14.24	-37.6	-39.1	19.8	0.00e+00	0	38	0	567279616	45	4307
2026-01-22 14:58:33.24	190.11	14.37	-37.4	-38.9	19.9	0.00e+00	0	38	0	576716800	45	4240
2026-01-22 14:58:33.98	190.17	14.44	-37.4	-38.9	19.9	0.00e+00	0	38	0	581959680	45	4213
2026-01-22 14:58:35.26	190.27	14.56	-37.4	-38.8	20.0	0.00e+00	0	38	0	591396864	45	4190
2026-01-22 14:58:35.97	190.33	14.63	-37.2	-38.7	20.1	0.00e+00	0	38	0	595591168	45	4109
2026-01-22 14:58:37.25	190.43	14.76	-37.2	-38.7	20.1	0.00e+00	0	38	0	605028352	45	4122
2026-01-22 14:58:37.98	190.48	14.83	-37.2	-38.7	20.1	0.00e+00	0	38	0	610271232	45	4121
2026-01-22 14:58:39.25	190.59	14.96	-37.2	-38.7	20.1	0.00e+00	0	38	0	619708416	45	4119
2026-01-22 14:58:39.98	190.64	15.03	-37.4	-38.8	20.1	0.00e+00	0	38	0	624951296	45	4173
2026-01-22 14:58:41.26	190.75	15.16	-37.1	-38.5	20.3	0.00e+00	0	38	0	634388480	45	4042
2026-01-22 14:58:41.99	190.81	15.23	-37.2	-38.6	20.2	0.00e+00	0	38	0	639631360	45	4080
2026-01-22 14:58:43.27	190.91	15.36	-37.1	-38.5	20.3	0.00e+00	0	38	0	649068544	44	4287
2026-01-22 14:58:44.10	190.98	15.44	-37.1	-38.6	20.3	0.00e+00	0	38	0	654311424	44	4298
2026-01-22 14:58:45.24	191.08	15.56	-36.9	-38.4	20.5	0.00e+00	0	38	0	662700032	44	4198
2026-01-22 14:58:46.09	191.15	15.65	-36.8	-38.3	20.5	0.00e+00	0	38	0	668991488	44	4148
2026-01-22 14:58:47.23	191.24	15.76	-36.7	-38.1	20.6	0.00e+00	0	38	0	677380096	44	4082
2026-01-22 14:58:48.08	191.31	15.85	-36.8	-38.2	20.6	0.00e+00	0	38	0	683671552	44	4132
2026-01-22 14:58:49.22	191.41	15.97	-36.9	-38.3	20.5	0.00e+00	0	38	0	692060160	44	4177
2026-01-22 14:58:50.07	191.48	16.05	-37.0	-38.4	20.4	0.00e+00	0	38	0	697303040	44	4217
2026-01-22 14:58:51.20	191.58	16.17	-36.8	-38.2	20.6	0.00e+00	0	38	0	705691648	44	4102
2026-01-22 14:58:52.06	191.66	16.26	-36.9	-38.3	20.5	0.00e+00	0	38	0	711983104	44	4166
2026-01-22 14:58:53.19	191.76	16.38	-36.7	-38.1	20.7	0.00e+00	0	38	0	720371712	44	4085
2026-01-22 14:58:54.04	191.83	16.47	-36.8	-38.2	20.6	0.00e+00	0	38	0	726663168	44	4101
2026-01-22 14:58:55.18	191.93	16.59	-36.7	-38.1	20.7	0.00e+00	0	38	0	735051776	44	4073
2026-01-22 14:58:56.03	192.01	16.68	-36.8	-38.2	20.6	0.00e+00	0	38	0	740294656	44	4114
2026-01-22 14:58:57.16	192.11	16.80	-36.6	-38.0	20.7	0.00e+00	0	38	0	748683264	44	4047
2026-01-22 14:58:58.19	192.20	16.91	-36.5	-37.8	20.8	0.00e+00	0	38	0	757071872	43	4188
2026-01-22 14:58:59.36	192.31	17.03	-36.4	-37.8	20.8	0.00e+00	0	38	0	764411904	43	4170
2026-01-22 14:59:00.21	192.39	17.12	-36.4	-37.7	20.9	0.00e+00	0	38	0	770703360	43	4133
2026-01-22 14:59:01.35	192.49	17.24	-36.4	-37.8	20.8	0.00e+00	0	38	0	779091968	43	4165
2026-01-22 14:59:02.30	192.58	17.35	-36.5	-37.9	20.6	0.00e+00	0	38	0	786432000	43	4228
2026-01-22 14:59:03.46	192.69	17.47	-36.5	-37.9	20.8	0.00e+00	0	38	0	794820608	43	4202
2026-01-22 14:59:04.32	192.77	17.57	-36.5	-37.8	20.9	0.00e+00	0	38	0	801112064	43	4175
2026-01-22 14:59:05.45	192.88	17.69	-36.4	-37.7	20.9	0.00e+00	0	38	0	808452096	43	4140
2026-01-22 14:59:06.30	192.96	17.78	-36.3	-37.7	21.0	0.00e+00	0	38	0	814743552	43	4103
2026-01-22 14:59:07.44	193.07	17.91	-36.4	-37.7	20.9	0.00e+00	0	38	0	823132160	43	4132
2026-01-22 14:59:08.29	193.15	18.00	-36.1	-37.5	21.1	0.00e+00	0	38	0	829423616	43	4013
2026-01-22 14:59:09.43	193.26	18.13	-36.3	-37.6	21.0	0.00e+00	0	38	0	837812224	42	4335
2026-01-22 14:59:10.28	193.35	18.22	-36.2	-37.5	21.1	0.00e+00	0	38	0	844103680	42	4291
2026-01-22 14:59:11.42	193.46	18.35	-36.1	-37.5	21.1	0.00e+00	0	38	0	851443712	42	4250
2026-01-22 14:59:12.27	193.55	18.45	-36.1	-37.4	21.2	0.00e+00	0	38	0	857735168	42	4237
2026-01-22 14:59:13.41	193.66	18.57	-36.0	-37.3	21.3	0.00e+00	0	38	0	866123776	42	4185
2026-01-22 14:59:14.26	193.75	18.67	-36.0	-37.3	21.3	0.00e+00	0	38	0	872415232	42	4158
2026-01-22 14:59:15.40	193.86	18.80	-36.0	-37.3	21.3	0.00e+00	0	38	0	880803840	42	4163
2026-01-22 14:59:16.25	193.95	18.90	-36.0	-37.3	21.3	0.00e+00	0	38	0	887095296	42	4168
2026-01-22 14:59:17.39	194.07	19.03	-36.0	-37.3	21.2	0.00e+00	0	38	0	895483904	42	4178
2026-01-22 14:59:18.24	194.16	19.12	-36.0	-37.3	21.2	0.00e+00	0	38	0	901775360	42	4178
2026-01-22 14:59:19.55	194.30	19.28	-35.9	-37.2	21.2	0.00e+00	0	38	0	910163968	41	4390
2026-01-22 14:59:20.27	194.37	19.36	-36.0	-37.3	21.2	0.00e+00	0	38	0	915406848	41	4435
2026-01-22 14:59:21.55	194.51	19.51	-36.0	-37.3	21.1	0.00e+00	0	38	0	924844032	41	4417
2026-01-22 14:59:22.26	194.58	19.59	-35.8	-37.2	21.3	0.00e+00	0	38	0	930086912	41	4348
2026-01-22 14:59:23.53	194.72	19.74	-35.9	-37.2	21.1	0.00e+00	0	38	0	939524096	41	4390
2026-01-22 14:59:24.29	194.81	19.83	-35.7	-37.0	21.4	0.00e+00	0	38	0	944766976	41	4260
2026-01-22 14:59:25.57	194.95	19.98	-35.8	-37.2	21.2	0.00e+00	0	38	0	954204160	41	4348
2026-01-22 14:59:26.28	195.02	20.06	-35.9	-37.2	21.2	0.00e+00	0	38	0	959447040	41	4389
2026-01-22 14:59:27.56	195.17	20.21	-35.9	-37.3	21.2	0.00e+00	0	38	0	968884224	41	4401
2026-01-22 14:59:28.27	195.25	20.30	-35.9	-37.3	21.1	0.00e+00	0	38	0	973078528	41	4407
2026-01-22 14:59:29.55	195.39	20.45	-35.8	-37.2	21.3	0.00e+00	0	38	0	982515712	41	4346
2026-01-22 14:59:30.28	195.48	20.54	-36.0	-37.4	21.0	0.00e+00	0	38	0	987758592	41	4452
2026-01-22 14:59:31.56	195.62	20.70	-36.1	-37.5	20.9	0.00e+00	0	38	0	997195776	41	4518
2026-01-22 14:59:32.28	195.71	20.78	-36.1	-37.5	20.9	0.00e+00	0	38	0	1002438656	41	4525
2026-01-22 14:59:33.56	195.86	20.94	-36.0	-37.4	21.0	0.00e+00	0	38	0	1011875840	41	4483
2026-01-22 14:59:34.27	195.94	21.02	-36.0	-37.5	20.9	0.00e+00	0	38	0	1017118720	41	4499
2026-01-22 14:59:35.55	196.09	21.18	-36.0	-37.5	20.9	0.00e+00	0	38	0	1026555904	42	4247
2026-01-22 14:59:36.28	196.18	21.27	-36.0	-37.4	21.0	0.00e+00	0	38	0	1030750208	42	4218
2026-01-22 14:59:37.66	196.34	21.44	-35.9	-37.3	21.1	0.00e+00	0	38	0	1041235968	42	4169
2026-01-22 14:59:38.64	196.46	21.56	-35.8	-37.2	21.2	0.00e+00	0	38	0	1048576000	42	4102
2026-01-22 14:59:39.94	196.62	21.73	-36.0	-37.5	20.9	0.00e+00	0	38	0	1058013184	42	4253
2026-01-22 14:59:40.66	196.71	21.82	-35.7	-37.1	21.3	0.00e+00	0	38	0	1063256064	41	4300
2026-01-22 14:59:42.26	196.91	22.02	-35.6	-37.0	21.4	0.00e+00	0	38	0	1074790400	41	4266
2026-01-22 14:59:42.83	196.98	22.09	-35.6	-37.0	21.3	0.00e+00	0	38	0	1078984704	41	4278
2026-01-22 14:59:44.53	197.20	22.31	-35.5	-36.9	21.5	0.00e+00	0	38	0	1091567616	41	4223
2026-01-22 14:59:45.10	197.27	22.38	-35.6	-37.0	21.3	0.00e+00	0	38	0	1094713344	41	4256
2026-01-22 14:59:46.85	197.50	22.60	-35.5	-36.8	21.5	0.00e+00	0	38	0	1107296256	41	4191
2026-01-22 14:59:47.42	197.57	22.68	-35.5	-36.9	21.5	0.00e+00	0	38	0	1111490560	41	4218
2026-01-22 14:59:49.11	197.79	22.89	-35.4	-36.7	21.6	0.00e+00	0	38	0	1124073472	41	4136
2026-01-22 14:59:49.84	197.89	22.99	-35.3	-36.6	21.7	0.00e+00	0	38	0	1129316352	41	4094
2026-01-22 14:59:51.12	198.06	23.15	-35.4	-36.7	21.7	0.00e+00	0	38	0	1138753536	41	4124
2026-01-22 14:59:51.83	198.16	23.25	-35.4	-36.7	21.6	0.00e+00	0	38	0	1143996416	41	4143
2026-01-22 14:59:53.14	198.34	23.42	-35.4	-36.7	21.6	0.00e+00	0	38	0	1153433600	41	4119
2026-01-22 14:59:53.85	198.43	23.51	-35.4	-36.8	21.6	0.00e+00	0	38	0	1158676480	41	4163
2026-01-22 14:59:55.13	198.61	23.68	-35.5	-36.8	21.5	0.00e+00	0	38	0	1167065088	41	4179
2026-01-22 14:59:56.18	198.76	23.82	-35.5	-36.9	21.5	0.00e+00	0	38	0	1174405120	41	4217
2026-01-22 14:59:57.15	198.90	23.95	-35.4	-36.7	21.6	0.00e+00	0	38	0	1181745152	41	4135
2026-01-22 14:59:58.51	199.09	24.13	-35.5	-36.8	21.6	0.00e+00	0	38	0	1192230912	41	4177
2026-01-22 14:59:59.22	199.19	24.23	-35.5	-36.8	21.6	0.00e+00	0	38	0	1196425216	41	4169
2026-01-22 15:00:00.83	199.42	24.45	-35.6	-37.0	21.5	0.00e+00	0	38	0	1207959552	41	4248
2026-01-22 15:00:01.40	199.51	24.52	-35.6	-36.9	21.5	0.00e+00	0	38	0	1213202432	40	4473
2026-01-22 15:00:03.10	199.76	24.76	-35.3	-36.6	21.8	0.00e+00	0	38	0	1224736768	40	4333
2026-01-22 15:00:03.75	199.86	24.84	-35.3	-36.6	21.8	0.00e+00	0	38	0	1229979648	40	4320
2026-01-22 15:00:05.17	200.07	25.04	-35.2	-36.4	21.9	0.00e+00	0	38	0	1239416832	40	4234
2026-01-22 15:00:05.88	200.18	25.14	-35.0	-36.3	22.0	0.00e+00	0	38	0	1244659712	40	4161
2026-01-22 15:00:07.17	200.38	25.32	-35.1	-36.3	22.0	0.00e+00	0	38	0	1254096896	40	4188
2026-01-22 15:00:07.88	200.48	25.41	-35.0	-36.3	22.0	0.00e+00	0	38	0	1259339776	40	4154
2026-01-22 15:00:09.17	200.69	25.59	-34.9	-36.2	22.1	0.00e+00	0	38	0	1268776960	40	4113
2026-01-22 15:00:09.90	200.80	25.70	-35.0	-36.3	22.0	0.00e+00	0	38	0	1274019840	40	4157
2026-01-22 15:00:11.18	201.00	25.88	-35.1	-36.4	21.9	0.00e+00	0	38	0	1283457024	40	4210
2026-01-22 15:00:11.91	201.12	25.98	-34.9	-36.2	22.0	0.00e+00	0	38	0	1288699904	40	4115
2026-01-22 15:00:13.19	201.33	26.16	-34.9	-36.2	22.0	0.00e+00	0	38	0	1298137088	40	4134
2026-01-22 15:00:13.91	201.44	26.26	-35.0	-36.3	21.9	0.00e+00	0	38	0	1303379968	40	4148
2026-01-22 15:00:15.19	201.65	26.45	-34.9	-36.2	22.0	0.00e+00	0	38	0	1312817152	40	4106
2026-01-22 15:00:15.92	201.77	26.55	-35.0	-36.3	21.9	0.00e+00	0	38	0	1317011456	40	4153
2026-01-22 15:00:17.20	201.99	26.73	-35.2	-36.5	21.7	0.00e+00	0	38	0	1326448640	40	4267
2026-01-22 15:00:18.19	202.16	26.88	-35.0	-36.3	21.9	0.00e+00	0	38	0	1333788672	40	4169
2026-01-22 15:00:19.47	202.37	27.06	-35.0	-36.2	21.9	0.00e+00	0	38	0	1343225856	40	4141
2026-01-22 15:00:20.20	202.50	27.17	-34.8	-36.1	22.0	0.00e+00	0	38	0	1348468736	40	4072
2026-01-22 15:00:21.48	202.72	27.35	-34.9	-36.2	22.0	0.00e+00	0	38	0	1357905920	40	4107
2026-01-22 15:00:22.20	202.85	27.46	-34.7	-36.0	22.2	0.00e+00	0	38	0	1363148800	40	4006
2026-01-22 15:00:23.48	203.07	27.65	-34.8	-36.0	22.2	0.00e+00	0	38	0	1371537408	40	4041
2026-01-22 15:00:24.21	203.20	27.76	-34.7	-36.0	22.2	0.00e+00	0	38	0	1377828864	40	4025
2026-01-22 15:00:25.49	203.43	27.94	-34.8	-36.0	22.2	0.00e+00	0	38	0	1387266048	40	4043
2026-01-22 15:00:26.21	203.56	28.05	-34.7	-36.0	22.2	0.00e+00	0	38	0	1391460352	40	4015
2026-01-22 15:00:27.49	203.80	28.24	-34.8	-36.1	22.2	0.00e+00	0	38	0	1400897536	40	4060
2026-01-22 15:00:28.23	203.94	28.35	-34.8	-36.1	22.2	0.00e+00	0	38	0	1406140416	40	4070
2026-01-22 15:00:29.51	204.17	28.54	-34.7	-36.0	22.3	0.00e+00	0	38	0	1415577600	40	4013
2026-01-22 15:00:30.24	204.31	28.65	-34.8	-36.0	22.3	0.00e+00	0	38	0	1420820480	40	4028
2026-01-22 15:00:31.52	204.55	28.85	-34.8	-36.0	22.2	0.00e+00	0	38	0	1430257664	40	4045
2026-01-22 15:00:32.23	204.69	28.95	-34.7	-36.0	22.3	0.00e+00	0	38	0	1435500544	40	4020
2026-01-22 15:00:33.50	204.94	29.15	-34.8	-36.0	22.4	0.00e+00	0	38	0	1444937728	39	4273
2026-01-22 15:00:34.23	205.08	29.26	-34.8	-36.1	22.3	0.00e+00	0	38	0	1449132032	39	4292
2026-01-22 15:00:35.51	205.33	29.45	-34.8	-36.1	22.3	0.00e+00	0	38	0	1458569216	39	4314
2026-01-22 15:00:36.22	205.47	29.56	-34.9	-36.2	22.3	0.00e+00	0	38	0	1463812096	39	4342
2026-01-22 15:00:37.73	205.78	29.79	-35.0	-36.2	22.2	0.00e+00	0	38	0	1475346432	39	4380
2026-01-22 15:00:38.44	205.92	29.90	-35.0	-36.3	22.1	0.00e+00	0	38	0	1480589312	39	4393
2026-01-22 15:00:39.72	206.18	30.10	-34.9	-36.2	22.1	0.00e+00	0	38	0	1488977920	39	4373
2026-01-22 15:00:40.45	206.33	30.21	-34.9	-36.2	22.2	0.00e+00	0	38	0	1494220800	39	4370
2026-01-22 15:00:41.72	206.60	30.41	-34.9	-36.2	22.2	0.00e+00	0	38	0	1503657984	39	4345
2026-01-22 15:00:42.45	206.75	30.53	-34.9	-36.2	22.1	0.00e+00	0	38	0	1508900864	39	4346
2026-01-22 15:00:43.73	207.03	30.73	-34.8	-36.1	22.2	0.00e+00	0	38	0	1518338048	39	4311
2026-01-22 15:00:44.47	207.18	30.84	-34.8	-36.1	22.2	0.00e+00	0	38	0	1523580928	39	4315
2026-01-22 15:00:45.75	207.46	31.04	-34.8	-36.1	22.2	0.00e+00	0	38	0	1533018112	39	4328
2026-01-22 15:00:46.47	207.62	31.16	-34.8	-36.1	22.1	0.00e+00	0	38	0	1538260992	39	4334
2026-01-22 15:00:47.75	207.90	31.36	-34.9	-36.2	22.0	0.00e+00	0	38	0	1547698176	39	4384
2026-01-22 15:00:48.48	208.07	31.47	-34.9	-36.2	22.1	0.00e+00	0	38	0	1552941056	39	4375
2026-01-22 15:00:49.75	208.35	31.68	-34.8	-36.2	22.1	0.00e+00	0	38	0	1561329664	39	4370
2026-01-22 15:00:50.48	208.52	31.79	-34.6	-36.0	22.2	0.00e+00	0	38	0	1566572544	39	4250
2026-01-22 15:00:51.76	208.81	32.00	-34.6	-35.9	22.3	0.00e+00	0	38	0	1576009728	39	4233
2026-01-22 15:00:52.58	209.00	32.13	-34.6	-35.9	22.3	0.00e+00	0	38	0	1582301184	39	4200
2026-01-22 15:00:53.72	209.27	32.31	-34.7	-36.0	22.2	0.00e+00	0	38	0	1590689792	39	4260
2026-01-22 15:00:54.57	209.47	32.45	-34.7	-36.0	22.2	0.00e+00	0	38	0	1596981248	39	4252
2026-01-22 15:00:55.70	209.74	32.63	-34.6	-35.9	22.3	0.00e+00	0	38	0	1604321280	39	4220
2026-01-22 15:00:56.81	210.01	32.81	-34.6	-35.9	22.3	0.00e+00	0	38	0	1612709888	39	4223
2026-01-22 15:00:57.85	210.26	32.97	-34.7	-35.9	22.3	0.00e+00	0	38	0	1620049920	39	4234
2026-01-22 15:00:58.81	210.50	33.13	-34.7	-36.0	22.2	0.00e+00	0	38	0	1627389952	39	4267
2026-01-22 15:00:59.81	210.75	33.29	-34.7	-35.9	22.3	0.00e+00	0	38	0	1634729984	39	4227
2026-01-22 15:01:00.80	211.00	33.45	-34.7	-36.0	22.3	0.00e+00	0	38	0	1642070016	39	4245
2026-01-22 15:01:01.80	211.25	33.61	-34.7	-35.9	22.3	0.00e+00	0	38	0	1648361472	39	4234
2026-01-22 15:01:02.79	211.51	33.78	-34.6	-35.8	22.3	0.00e+00	0	38	0	1655701504	39	4185
2026-01-22 15:01:03.79	211.76	33.94	-34.7	-35.9	22.3	0.00e+00	0	38	0	1663041536	39	4233
2026-01-22 15:01:04.78	212.02	34.10	-34.6	-35.8	22.4	0.00e+00	0	38	0	1670381568	39	4153
2026-01-22 15:01:05.77	212.28	34.26	-34.6	-35.8	22.4	0.00e+00	0	38	0	1677721600	39	4168
2026-01-22 15:01:06.77	212.55	34.43	-34.6	-35.9	22.3	0.00e+00	0	38	0	1684013056	39	4203
2026-01-22 15:01:07.77	212.82	34.59	-34.6	-35.9	22.4	0.00e+00	0	38	0	1691353088	39	4199
2026-01-22 15:01:08.76	213.09	34.75	-34.9	-36.1	22.2	0.00e+00	0	38	0	1698693120	39	4330
2026-01-22 15:01:09.93	213.41	34.94	-34.8	-36.1	22.3	0.00e+00	0	38	0	1707081728	39	4294
2026-01-22 15:01:10.83	213.66	35.09	-34.8	-36.1	22.3	0.00e+00	0	38	0	1713373184	39	4310
2026-01-22 15:01:11.86	213.95	35.26	-34.9	-36.2	22.2	0.00e+00	0	38	0	1721761792	39	4343
2026-01-22 15:01:12.85	214.23	35.43	-35.0	-36.3	22.1	0.00e+00	0	38	0	1728053248	39	4435
2026-01-22 15:01:13.84	214.51	35.59	-35.0	-36.3	22.0	0.00e+00	0	38	0	1735393280	40	4186
2026-01-22 15:01:14.84	214.80	35.75	-35.2	-36.5	21.8	0.00e+00	0	38	0	1742733312	40	4290
2026-01-22 15:01:15.83	215.09	35.92	-35.0	-36.2	22.1	0.00e+00	0	38	0	1750073344	40	4142
2026-01-22 15:01:16.82	215.38	36.08	-34.9	-36.2	22.1	0.00e+00	0	38	0	1757413376	40	4122
2026-01-22 15:01:17.82	215.68	36.24	-34.9	-36.2	22.2	0.00e+00	0	38	0	1764753408	40	4108
2026-01-22 15:01:18.81	215.98	36.41	-34.8	-36.1	22.3	0.00e+00	0	38	0	1771044864	40	4052
2026-01-22 15:01:19.81	216.28	36.57	-34.9	-36.2	22.1	0.00e+00	0	38	0	1778384896	40	4133
2026-01-22 15:01:20.80	216.58	36.73	-34.9	-36.1	22.2	0.00e+00	0	38	0	1785724928	40	4095
2026-01-22 15:01:21.84	216.90	36.91	-34.7	-36.0	22.3	0.00e+00	0	38	0	1793064960	40	4022
2026-01-22 15:01:22.82	217.21	37.07	-34.8	-36.0	22.2	0.00e+00	0	38	0	1800404992	40	4044
2026-01-22 15:01:23.88	217.55	37.24	-34.8	-36.1	22.1	0.00e+00	0	38	0	1807745024	40	4066
2026-01-22 15:01:24.76	217.83	37.39	-34.9	-36.2	22.1	0.00e+00	0	38	0	1814036480	40	4108
2026-01-22 15:01:26.07	218.25	37.60	-34.9	-36.2	22.0	0.00e+00	0	38	0	1823473664	40	4135
2026-01-22 15:01:26.79	218.48	37.72	-35.0	-36.3	21.9	0.00e+00	0	38	0	1829765120	40	4179
2026-01-22 15:01:28.27	218.97	37.96	-35.3	-36.6	21.7	0.00e+00	0	38	0	1840250880	40	4306
2026-01-22 15:01:29.25	219.30	38.12	-35.4	-36.7	21.6	0.00e+00	0	38	0	1846542336	40	4358
2026-01-22 15:01:30.54	219.73	38.33	-35.1	-36.3	21.9	0.00e+00	0	38	0	1855979520	40	4181
2026-01-22 15:01:31.25	219.97	38.45	-35.2	-36.4	21.9	0.00e+00	0	38	0	1861222400	40	4230
2026-01-22 15:01:32.53	220.41	38.65	-35.1	-36.4	21.9	0.00e+00	0	38	0	1870659584	40	4217
2026-01-22 15:01:33.26	220.66	38.77	-35.2	-36.4	21.9	0.00e+00	0	38	0	1875902464	40	4230
2026-01-22 15:01:34.54	221.11	38.98	-35.0	-36.3	22.1	0.00e+00	0	38	0	1885339648	40	4151
2026-01-22 15:01:35.26	221.37	39.09	-35.2	-36.4	22.0	0.00e+00	0	38	0	1890582528	40	4215
2026-01-22 15:01:36.54	221.83	39.30	-35.0	-36.3	22.1	0.00e+00	0	38	0	1900019712	40	4152
2026-01-22 15:01:37.25	222.08	39.41	-35.0	-36.3	22.1	0.00e+00	0	38	0	1904214016	40	4160
2026-01-22 15:01:38.53	222.55	39.62	-35.0	-36.2	22.2	0.00e+00	0	38	0	1913651200	40	4136
2026-01-22 15:01:39.25	222.81	39.73	-35.0	-36.3	22.1	0.00e+00	0	38	0	1918894080	40	4167
2026-01-22 15:01:40.53	223.29	39.94	-35.0	-36.2	22.2	0.00e+00	0	38	0	1928331264	40	4130
2026-01-22 15:01:41.24	223.55	40.05	-35.0	-36.3	22.2	0.00e+00	0	38	0	1933574144	40	4161
2026-01-22 15:01:42.52	224.04	40.25	-35.0	-36.3	22.1	0.00e+00	0	38	0	1943011328	40	4162
2026-01-22 15:01:43.24	224.31	40.36	-35.1	-36.4	22.0	0.00e+00	0	38	0	1948254208	40	4206
2026-01-22 15:01:44.52	224.81	40.56	-35.0	-36.3	22.0	0.00e+00	0	38	0	1956642816	40	4186
2026-01-22 15:01:45.24	225.09	40.67	-35.0	-36.3	22.0	0.00e+00	0	38	0	1962934272	40	4183
2026-01-22 15:01:46.74	225.68	40.90	-35.0	-36.3	22.0	0.00e+00	0	38	0	1973420032	40	4153
2026-01-22 15:01:47.45	225.96	41.01	-34.9	-36.3	22.0	0.00e+00	0	38	0	1978662912	40	4150
2026-01-22 15:01:48.73	226.47	41.21	-34.9	-36.2	22.1	0.00e+00	0	38	0	1987051520	40	4102
2026-01-22 15:01:49.47	226.77	41.32	-34.8	-36.1	22.1	0.00e+00	0	38	0	1992294400	40	4073
2026-01-22 15:01:50.75	227.30	41.51	-34.8	-36.0	22.2	0.00e+00	0	38	0	2001731584	40	4036
2026-01-22 15:01:51.47	227.59	41.62	-34.7	-36.0	22.2	0.00e+00	0	38	0	2006974464	40	4017
2026-01-22 15:01:52.75	228.13	41.81	-34.9	-36.1	22.2	0.00e+00	0	38	0	2016411648	40	4093
2026-01-22 15:01:53.47	228.43	41.91	-35.0	-36.2	22.2	0.00e+00	0	38	0	2021654528	40	4112
2026-01-22 15:01:54.75	228.97	42.10	-35.2	-36.4	22.0	0.00e+00	0	38	0	2031091712	40	4210
2026-01-22 15:01:55.48	229.28	42.21	-35.2	-36.4	22.1	0.00e+00	0	38	0	2036334592	40	4205
2026-01-22 15:01:56.76	229.84	42.39	-35.1	-36.3	22.2	0.00e+00	0	38	0	2045771776	40	4175
2026-01-22 15:01:57.59	230.20	42.51	-35.0	-36.2	22.3	0.00e+00	0	38	0	2052063232	40	4110
2026-01-22 15:01:59.03	230.83	42.71	-34.8	-36.0	22.5	0.00e+00	0	38	0	2061500416	40	4007
2026-01-22 15:01:59.74	231.15	42.81	-34.8	-36.0	22.4	0.00e+00	0	38	0	2066743296	40	4025
2026-01-22 15:02:01.21	231.80	43.01	-34.8	-36.0	22.4	0.00e+00	0	38	0	2077229056	40	4027
2026-01-22 15:02:01.92	232.13	43.11	-34.9	-36.2	22.3	0.00e+00	0	38	0	2082471936	40	4104
2026-01-22 15:02:03.26	232.74	43.29	-35.3	-36.6	21.9	0.00e+00	0	38	0	2091909120	40	4323
2026-01-22 15:02:03.97	233.06	43.39	-35.5	-36.9	21.7	0.00e+00	0	38	0	2097152000	40	4456
2026-01-22 15:02:05.26	233.66	43.56	-36.0	-36.9	22.4	0.00e+00	0	38	0	2106589184	41	4199
2026-01-22 15:02:05.97	233.99	43.65	-36.0	-36.8	22.4	0.00e+00	0	38	0	2111832064	41	4176
2026-01-22 15:02:07.24	234.59	43.81	-36.2	-37.1	22.2	0.00e+00	0	38	0	2121269248	42	4058
2026-01-22 15:02:07.97	234.94	43.90	-36.1	-37.0	22.3	0.00e+00	0	38	0	2126512128	42	4005
2026-01-22 15:02:09.25	235.55	44.06	-36.0	-36.9	22.4	0.00e+00	0	38	0	2135949312	42	3980
2026-01-22 15:02:09.96	235.89	44.15	-36.1	-37.0	22.3	0.00e+00	0	38	0	2141192192	42	4017
2026-01-22 15:02:11.24	236.52	44.31	-36.1	-36.9	22.3	0.00e+00	0	38	0	2150629376	42	3993
2026-01-22 15:02:11.95	236.86	44.39	-35.9	-36.7	22.4	0.00e+00	0	38	0	2154823680	42	3911
2026-01-22 15:02:13.23	237.50	44.54	-35.8	-36.6	22.6	0.00e+00	0	38	0	2164260864	42	3852
2026-01-22 15:02:13.94	237.85	44.63	-35.9	-36.7	22.5	0.00e+00	0	38	0	2169503744	42	3891
2026-01-22 15:02:15.22	238.49	44.77	-35.8	-36.6	22.6	0.00e+00	0	38	0	2178940928	42	3859
2026-01-22 15:02:16.10	238.93	44.87	-35.8	-36.6	22.6	0.00e+00	0	38	0	2185232384	42	3862
2026-01-22 15:02:17.24	239.51	44.99	-35.8	-36.7	22.4	0.00e+00	0	38	0	2193620992	42	3879
2026-01-22 15:02:18.09	239.95	45.08	-35.8	-36.6	22.6	0.00e+00	0	38	0	2199912448	42	3854
2026-01-22 15:02:19.23	240.53	45.20	-35.8	-36.6	22.7	0.00e+00	0	38	0	2207252480	42	3847
2026-01-22 15:02:20.08	240.97	45.29	-35.7	-36.5	22.7	0.00e+00	0	38	0	2213543936	42	3821
2026-01-22 15:02:21.22	241.57	45.41	-35.5	-36.3	22.9	0.00e+00	0	38	0	2221932544	41	3947
2026-01-22 15:02:22.07	242.01	45.49	-35.5	-36.4	22.8	0.00e+00	0	38	0	2228224000	41	3964
2026-01-22 15:02:23.21	242.61	45.60	-35.7	-36.5	22.7	0.00e+00	0	38	0	2236612608	41	4032
2026-01-22 15:02:24.06	243.06	45.68	-35.9	-36.7	22.6	0.00e+00	0	38	0	2242904064	41	4134
2026-01-22 15:02:25.30	243.73	45.79	-36.2	-37.1	22.2	0.00e+00	0	38	0	2251292672	41	4312
2026-01-22 15:02:26.16	244.19	45.87	-36.3	-37.2	22.1	0.00e+00	0	38	0	2257584128	42	4136
2026-01-22 15:02:27.29	244.80	45.96	-36.4	-37.3	22.0	0.00e+00	0	38	0	2265972736	42	4189
2026-01-22 15:02:28.14	245.26	46.03	-36.4	-37.3	21.9	0.00e+00	0	38	0	2272264192	42	4162
2026-01-22 15:02:29.41	245.95	46.14	-36.4	-37.2	22.1	0.00e+00	0	38	0	2280652800	42	4136
2026-01-22 15:02:30.19	246.38	46.20	-36.3	-37.2	22.1	0.00e+00	0	38	0	2286944256	42	4100
2026-01-22 15:02:31.38	247.03	46.29	-36.4	-37.3	22.1	0.00e+00	0	38	0	2295332864	42	4170
2026-01-22 15:02:32.23	247.51	46.35	-36.4	-37.2	22.1	0.00e+00	0	38	0	2301624320	42	4141
2026-01-22 15:02:33.37	248.14	46.43	-36.3	-37.2	22.1	0.00e+00	0	38	0	2310012928	42	4103
2026-01-22 15:02:34.22	248.61	46.48	-36.1	-36.9	22.3	0.00e+00	0	38	0	2316304384	42	3991
2026-01-22 15:02:35.36	249.25	46.56	-35.9	-36.8	22.5	0.00e+00	0	38	0	2323644416	42	3931
2026-01-22 15:02:36.21	249.73	46.61	-36.0	-36.8	22.4	0.00e+00	0	38	0	2329935872	42	3948
2026-01-22 15:02:37.35	250.37	46.67	-36.1	-36.9	22.3	0.00e+00	0	38	0	2338324480	42	3991
2026-01-22 15:02:38.20	250.86	46.72	-36.2	-37.0	22.3	0.00e+00	0	38	0	2344615936	42	4049
2026-01-22 15:02:39.34	251.51	46.78	-36.2	-37.0	22.2	0.00e+00	0	38	0	2353004544	42	4038
2026-01-22 15:02:40.19	251.99	46.82	-36.1	-36.9	22.3	0.00e+00	0	38	0	2359296000	42	4002
2026-01-22 15:02:41.32	252.64	46.87	-36.2	-37.0	22.3	0.00e+00	0	38	0	2366636032	42	4042
2026-01-22 15:02:42.18	253.13	46.91	-36.3	-37.1	22.2	0.00e+00	0	38	0	2372927488	42	4097
2026-01-22 15:02:43.31	253.78	46.96	-36.3	-37.1	22.2	0.00e+00	0	38	0	2381316096	42	4097
2026-01-22 15:02:44.17	254.28	46.99	-36.2	-37.1	22.2	0.00e+00	0	38	0	2387607552	42	4072
2026-01-22 15:02:45.30	254.93	47.03	-36.0	-36.8	22.4	0.00e+00	0	38	0	2395996160	42	3928
2026-01-22 15:02:46.16	255.43	47.05	-35.8	-36.6	22.7	0.00e+00	0	38	0	2402287616	42	3838
2026-01-22 15:02:47.29	256.08	47.09	-35.7	-36.5	22.7	0.00e+00	0	38	0	2410676224	42	3819
2026-01-22 15:02:48.18	256.60	47.11	-35.9	-36.8	22.5	0.00e+00	0	38	0	2416967680	42	3924
2026-01-22 15:02:49.52	257.38	47.14	-36.1	-37.0	22.3	0.00e+00	0	38	0	2426404864	42	4006
2026-01-22 15:02:50.23	257.79	47.15	-36.3	-37.2	22.1	0.00e+00	0	38	0	2431647744	42	4121
2026-01-22 15:02:51.70	258.65	47.17	-36.5	-37.3	22.0	0.00e+00	0	38	0	2442133504	42	4179
2026-01-22 15:02:52.66	259.21	47.18	-36.4	-37.3	22.0	0.00e+00	0	38	0	2449473536	42	4169
2026-01-22 15:02:53.97	259.98	47.19	-36.3	-37.2	22.1	0.00e+00	0	38	0	2457862144	42	4103
2026-01-22 15:02:54.68	260.39	47.19	-36.2	-37.0	22.3	0.00e+00	0	38	0	2464153600	42	4044
2026-01-22 15:02:55.96	261.14	47.19	-36.2	-37.1	22.3	0.00e+00	0	38	0	2472542208	42	4066
2026-01-22 15:02:56.70	261.58	47.19	-35.9	-36.7	22.5	0.00e+00	0	38	0	2477785088	42	3912
2026-01-22 15:02:57.98	262.32	47.18	-36.0	-36.8	22.4	0.00e+00	0	38	0	2487222272	42	3951
2026-01-22 15:02:58.72	262.76	47.18	-36.0	-36.8	22.5	0.00e+00	0	38	0	2492465152	42	3935
2026-01-22 15:03:00.00	263.50	47.16	-35.9	-36.7	22.5	0.00e+00	0	38	0	2501902336	42	3899
2026-01-22 15:03:00.71	263.92	47.15	-35.9	-36.8	22.4	0.00e+00	0	38	0	2507145216	42	3928
2026-01-22 15:03:02.04	264.69	47.13	-36.0	-36.8	22.5	0.00e+00	0	38	0	2516582400	42	3938
2026-01-22 15:03:02.75	265.11	47.11	-36.1	-36.9	22.3	0.00e+00	0	38	0	2521825280	42	4001
2026-01-22 15:03:04.03	265.85	47.08	-36.2	-37.1	22.2	0.00e+00	0	38	0	2531262464	42	4061
2026-01-22 15:03:04.77	266.28	47.06	-36.4	-37.2	22.1	0.00e+00	0	38	0	2536505344	42	4137
2026-01-22 15:03:06.16	267.08	47.02	-36.3	-37.2	22.1	0.00e+00	0	38	0	2545942528	42	4120
2026-01-22 15:03:06.87	267.49	46.99	-36.1	-37.0	22.3	0.00e+00	0	38	0	2551185408	42	4011
2026-01-22 15:03:08.15	268.23	46.94	-35.8	-36.6	22.6	0.00e+00	0	38	0	2560622592	42	3848
2026-01-22 15:03:09.19	268.83	46.90	-35.7	-36.5	22.7	0.00e+00	0	38	0	2567962624	42	3824
2026-01-22 15:03:10.50	269.58	46.84	-35.8	-36.6	22.6	0.00e+00	0	38	0	2577399808	42	3860
2026-01-22 15:03:11.21	269.98	46.81	-35.9	-36.8	22.5	0.00e+00	0	38	0	2582642688	42	3931
2026-01-22 15:03:12.83	270.90	46.72	-36.1	-36.9	22.3	0.00e+00	0	38	0	2595225600	42	4004
2026-01-22 15:03:13.40	271.23	46.69	-36.0	-36.8	22.3	0.00e+00	0	38	0	2598371328	42	3955
2026-01-22 15:03:15.11	272.19	46.59	-35.9	-36.8	22.5	0.00e+00	0	38	0	2610954240	42	3918
2026-01-22 15:03:15.68	272.51	46.56	-35.8	-36.6	22.6	0.00e+00	0	38	0	2615148544	42	3844
2026-01-22 15:03:17.38	273.46	46.45	-35.9	-36.8	22.5	0.00e+00	0	38	0	2627731456	42	3933
2026-01-22 15:03:17.95	273.78	46.41	-36.0	-36.9	22.4	0.00e+00	0	38	0	2631925760	42	3960
2026-01-22 15:03:19.66	274.73	46.29	-36.4	-37.2	22.1	0.00e+00	0	38	0	2643460096	42	4142
2026-01-22 15:03:20.23	275.04	46.25	-36.4	-37.2	22.0	0.00e+00	0	38	0	2647654400	42	4136
2026-01-22 15:03:21.93	275.98	46.12	-36.3	-37.2	22.1	0.00e+00	0	38	0	2660237312	42	4126
2026-01-22 15:03:22.50	276.29	46.07	-36.2	-37.1	22.2	0.00e+00	0	38	0	2664431616	42	4070
2026-01-22 15:03:24.20	277.21	45.93	-36.2	-37.1	22.2	0.00e+00	0	38	0	2677014528	42	4063
2026-01-22 15:03:24.77	277.51	45.88	-36.3	-37.1	22.2	0.00e+00	0	38	0	2681208832	42	4085
2026-01-22 15:03:26.65	278.52	45.72	-36.6	-37.6	21.8	0.00e+00	0	38	0	2694840320	42	4295
2026-01-22 15:03:27.22	278.82	45.66	-36.6	-37.5	21.8	0.00e+00	0	38	0	2697986048	42	4268
2026-01-22 15:03:28.92	279.72	45.50	-36.0	-36.9	22.4	0.00e+00	0	38	0	2710568960	42	3973
2026-01-22 15:03:29.49	280.02	45.45	-36.0	-36.8	22.4	0.00e+00	0	38	0	2714763264	42	3940
2026-01-22 15:03:31.20	280.91	45.28	-35.8	-36.6	22.5	0.00e+00	0	38	0	2727346176	42	3855
2026-01-22 15:03:31.76	281.20	45.22	-36.0	-36.8	22.5	0.00e+00	0	38	0	2731540480	42	3941
2026-01-22 15:03:33.47	282.08	45.04	-36.0	-36.9	22.4	0.00e+00	0	38	0	2743074816	42	3971
2026-01-22 15:03:34.04	282.37	44.98	-35.9	-36.8	22.5	0.00e+00	0	38	0	2748317696	42	3928
2026-01-22 15:03:35.74	283.23	44.79	-35.9	-36.8	22.5	0.00e+00	0	38	0	2759852032	42	3914
2026-01-22 15:03:36.36	283.54	44.72	-35.9	-36.7	22.5	0.00e+00	0	38	0	2764046336	42	3902
2026-01-22 15:03:37.93	284.32	44.54	-35.9	-36.7	22.5	0.00e+00	0	38	0	2775580672	42	3904
2026-01-22 15:03:38.63	284.66	44.46	-35.8	-36.7	22.6	0.00e+00	0	38	0	2780823552	42	3870
2026-01-22 15:03:40.15	285.41	44.28	-35.9	-36.8	22.5	0.00e+00	0	38	0	2792357888	42	3923
2026-01-22 15:03:40.86	285.75	44.19	-36.1	-36.9	22.3	0.00e+00	0	38	0	2796552192	42	4000
2026-01-22 15:03:42.17	286.38	44.03	-36.0	-36.8	22.5	0.00e+00	0	38	0	2805989376	42	3949
2026-01-22 15:03:42.88	286.72	43.95	-35.7	-36.5	22.6	0.00e+00	0	38	0	2811232256	42	3821
2026-01-22 15:03:44.16	287.33	43.78	-35.5	-36.3	22.9	0.00e+00	0	38	0	2820669440	41	3942
2026-01-22 15:03:44.89	287.67	43.69	-35.5	-36.3	22.9	0.00e+00	0	38	0	2825912320	41	3927
2026-01-22 15:03:46.16	288.26	43.53	-35.5	-36.3	22.9	0.00e+00	0	38	0	2835349504	41	3928
2026-01-22 15:03:46.89	288.60	43.43	-35.5	-36.4	22.7	0.00e+00	0	38	0	2840592384	41	3971
2026-01-22 15:03:48.17	289.19	43.26	-35.7	-36.6	22.7	0.00e+00	0	38	0	2850029568	41	4056
2026-01-22 15:03:48.88	289.51	43.16	-35.8	-36.6	22.5	0.00e+00	0	38	0	2854223872	41	4092
2026-01-22 15:03:50.18	290.10	42.99	-35.8	-36.6	22.5	0.00e+00	0	38	0	2863661056	41	4070
2026-01-22 15:03:50.89	290.41	42.89	-35.8	-36.7	22.4	0.00e+00	0	38	0	2869952512	41	4106
2026-01-22 15:03:52.17	290.98	42.71	-35.7	-36.6	22.5	0.00e+00	0	38	0	2878341120	41	4053
2026-01-22 15:03:52.88	291.29	42.61	-35.8	-36.7	22.4	0.00e+00	0	38	0	2883584000	41	4108
2026-01-22 15:03:54.16	291.85	42.43	-35.8	-36.7	22.4	0.00e+00	0	38	0	2893021184	41	4101
2026-01-22 15:03:55.04	292.23	42.31	-35.9	-36.7	22.4	0.00e+00	0	38	0	2899312640	41	4126
2026-01-22 15:03:56.18	292.72	42.14	-35.9	-36.7	22.5	0.00e+00	0	38	0	2907701248	41	4124
2026-01-22 15:03:57.03	293.08	42.02	-35.9	-36.7	22.4	0.00e+00	0	38	0	2913992704	41	4130
2026-01-22 15:03:58.17	293.56	41.85	-35.9	-36.8	22.3	0.00e+00	0	38	0	2921332736	41	4168
2026-01-22 15:03:59.02	293.92	41.73	-36.0	-36.8	22.3	0.00e+00	0	38	0	2927624192	41	4174
2026-01-22 15:04:00.16	294.39	41.56	-35.9	-36.7	22.3	0.00e+00	0	38	0	2936012800	41	4132
2026-01-22 15:04:01.01	294.73	41.43	-36.1	-36.9	22.1	0.00e+00	0	38	0	2942304256	41	4241
2026-01-22 15:04:02.15	295.20	41.26	-35.7	-36.5	22.5	0.00e+00	0	38	0	2950692864	41	4023
2026-01-22 15:04:03.00	295.54	41.13	-35.7	-36.5	22.6	0.00e+00	0	38	0	2956984320	41	4021
2026-01-22 15:04:04.14	295.99	40.96	-35.7	-36.5	22.6	0.00e+00	0	38	0	2965372928	41	4023
2026-01-22 15:04:05.33	296.46	40.78	-35.7	-36.6	22.6	0.00e+00	0	38	0	2973761536	41	4063
2026-01-22 15:04:06.19	296.80	40.64	-35.6	-36.4	22.7	0.00e+00	0	38	0	2980052992	41	3991
2026-01-22 15:04:07.32	297.23	40.47	-35.4	-36.3	22.9	0.00e+00	0	38	0	2987393024	41	3916
2026-01-22 15:04:08.17	297.56	40.34	-35.4	-36.2	22.9	0.00e+00	0	38	0	2993684480	41	3886
2026-01-22 15:04:09.31	297.99	40.16	-35.4	-36.3	22.8	0.00e+00	0	38	0	3002073088	41	3917
2026-01-22 15:04:10.16	298.31	40.03	-35.5	-36.3	22.7	0.00e+00	0	38	0	3008364544	41	3957
2026-01-22 15:04:11.30	298.74	39.85	-35.5	-36.3	22.8	0.00e+00	0	38	0	3016753152	41	3940
2026-01-22 15:04:12.15	299.05	39.71	-35.5	-36.3	22.8	0.00e+00	0	38	0	3023044608	41	3957
2026-01-22 15:04:13.29	299.47	39.53	-35.3	-36.2	22.8	0.00e+00	0	38	0	3031433216	41	3876
2026-01-22 15:04:14.14	299.77	39.40	-35.5	-36.3	22.8	0.00e+00	0	38	0	3037724672	41	3940
2026-01-22 15:04:15.32	300.20	39.21	-35.7	-36.5	22.6	0.00e+00	0	38	0	3046113280	41	4033
2026-01-22 15:04:16.17	300.50	39.07	-35.9	-36.7	22.4	0.00e+00	0	38	0	3051356160	41	4145
2026-01-22 15:04:17.42	300.94	38.87	-36.0	-36.8	22.3	0.00e+00	0	38	0	3060793344	41	4180
2026-01-22 15:04:18.27	301.23	38.73	-35.9	-36.8	22.2	0.00e+00	0	38	0	3067084800	41	4166
2026-01-22 15:04:19.41	301.62	38.55	-35.6	-36.5	22.6	0.00e+00	0	38	0	3075473408	41	4007
2026-01-22 15:04:20.26	301.91	38.41	-35.6	-36.5	22.6	0.00e+00	0	38	0	3081764864	41	4005
2026-01-22 15:04:21.52	302.34	38.21	-35.3	-36.1	22.9	0.00e+00	0	38	0	3090153472	41	3862
2026-01-22 15:04:22.29	302.59	38.08	-35.2	-36.1	23.0	0.00e+00	0	38	0	3096444928	41	3834
2026-01-22 15:04:23.57	303.02	37.88	-35.4	-36.2	22.8	0.00e+00	0	38	0	3104833536	41	3913
2026-01-22 15:04:24.28	303.25	37.76	-35.3	-36.1	23.0	0.00e+00	0	38	0	3110076416	41	3836
2026-01-22 15:04:25.77	303.73	37.52	-35.5	-36.3	22.7	0.00e+00	0	38	0	3120562176	41	3954
2026-01-22 15:04:26.48	303.96	37.40	-35.5	-36.4	22.7	0.00e+00	0	38	0	3125805056	41	3962
2026-01-22 15:04:27.82	304.38	37.18	-35.6	-36.4	22.7	0.00e+00	0	38	0	3136290816	41	3982
2026-01-22 15:04:28.53	304.61	37.07	-35.5	-36.3	22.8	0.00e+00	0	38	0	3140485120	41	3933
2026-01-22 15:04:29.81	305.00	36.86	-35.3	-36.1	22.9	0.00e+00	0	38	0	3149922304	41	3856
2026-01-22 15:04:30.55	305.23	36.74	-35.3	-36.1	22.9	0.00e+00	0	38	0	3155165184	41	3850
2026-01-22 15:04:31.83	305.62	36.53	-35.2	-36.1	22.9	0.00e+00	0	38	0	3164602368	41	3840
2026-01-22 15:04:32.55	305.84	36.41	-35.1	-35.9	23.1	0.00e+00	0	38	0	3169845248	41	3762
2026-01-22 15:04:33.83	306.22	36.20	-34.9	-35.7	23.3	0.00e+00	0	38	0	3179282432	40	3871
2026-01-22 15:04:34.56	306.44	36.08	-34.8	-35.5	23.3	0.00e+00	0	38	0	3184525312	40	3822
2026-01-22 15:04:35.84	306.81	35.87	-34.9	-35.7	23.2	0.00e+00	0	38	0	3193962496	40	3880
2026-01-22 15:04:36.56	307.02	35.75	-34.9	-35.7	23.1	0.00e+00	0	38	0	3199205376	40	3911
2026-01-22 15:04:37.84	307.39	35.54	-35.1	-36.0	23.0	0.00e+00	0	38	0	3208642560	40	4014
2026-01-22 15:04:38.58	307.60	35.42	-35.2	-36.0	22.9	0.00e+00	0	38	0	3213885440	40	4050
2026-01-22 15:04:39.86	307.96	35.21	-35.4	-36.2	22.8	0.00e+00	0	38	0	3223322624	40	4127
2026-01-22 15:04:40.62	308.17	35.09	-35.5	-36.3	22.8	0.00e+00	0	38	0	3228565504	40	4180
2026-01-22 15:04:41.90	308.52	34.88	-35.7	-36.6	22.6	0.00e+00	0	38	0	3238002688	40	4292
2026-01-22 15:04:42.68	308.74	34.75	-35.8	-36.6	22.6	0.00e+00	0	38	0	3243245568	41	4074
2026-01-22 15:04:44.26	309.16	34.49	-35.9	-36.8	22.4	0.00e+00	0	38	0	3254779904	41	4153
2026-01-22 15:04:44.87	309.32	34.39	-35.8	-36.6	22.5	0.00e+00	0	38	0	3258974208	41	4087
2026-01-22 15:04:46.43	309.74	34.14	-35.6	-36.5	22.7	0.00e+00	0	38	0	3270508544	41	4016
2026-01-22 15:04:47.08	309.91	34.03	-35.5	-36.3	22.8	0.00e+00	0	38	0	3274702848	41	3940
2026-01-22 15:04:48.50	310.27	33.80	-35.3	-36.1	23.0	0.00e+00	0	38	0	3285188608	41	3852
2026-01-22 15:04:49.21	310.45	33.69	-35.2	-36.0	22.9	0.00e+00	0	38	0	3290431488	41	3817
2026-01-22 15:04:50.49	310.78	33.48	-35.1	-36.0	22.6	0.00e+00	0	38	0	3299868672	40	4010
2026-01-22 15:04:51.20	310.96	33.37	-35.1	-35.9	23.2	0.00e+00	0	38	0	3305111552	40	3974
2026-01-22 15:04:52.48	311.27	33.16	-35.1	-35.9	23.2	0.00e+00	0	38	0	3313500160	40	3978
2026-01-22 15:04:53.22	311.46	33.04	-35.0	-35.8	23.2	0.00e+00	0	38	0	3318743040	40	3936
2026-01-22 15:04:54.50	311.77	32.84	-35.1	-35.9	23.2	0.00e+00	0	38	0	3328180224	40	3990
2026-01-22 15:04:55.21	311.94	32.72	-35.1	-35.9	23.1	0.00e+00	0	38	0	3333423104	40	3973
2026-01-22 15:04:56.59	312.27	32.50	-35.1	-35.9	23.2	0.00e+00	0	38	0	3343908864	40	3992
2026-01-22 15:04:57.30	312.44	32.39	-35.2	-36.0	23.1	0.00e+00	0	38	0	3349151744	40	4029
2026-01-22 15:04:58.58	312.74	32.19	-35.2	-36.0	23.0	0.00e+00	0	38	0	3357540352	40	4047
2026-01-22 15:04:59.30	312.90	32.07	-35.4	-36.2	22.9	0.00e+00	0	38	0	3362783232	40	4125
2026-01-22 15:05:00.58	313.20	31.87	-35.4	-36.2	22.9	0.00e+00	0	38	0	3372220416	40	4128
2026-01-22 15:05:01.31	313.36	31.75	-35.5	-36.3	22.7	0.00e+00	0	38	0	3377463296	40	4189
2026-01-22 15:05:02.76	313.69	31.52	-35.5	-36.4	22.7	0.00e+00	0	38	0	3387949056	40	4206
2026-01-22 15:05:03.47	313.85	31.41	-35.5	-36.4	22.7	0.00e+00	0	38	0	3393191936	40	4201
2026-01-22 15:05:04.75	314.13	31.21	-35.6	-36.4	22.6	0.00e+00	0	38	0	3402629120	40	4236
2026-01-22 15:05:05.47	314.29	31.10	-35.6	-36.4	22.7	0.00e+00	0	38	0	3407872000	40	4220
2026-01-22 15:05:06.75	314.57	30.90	-35.6	-36.4	22.7	0.00e+00	0	38	0	3417309184	40	4241
2026-01-22 15:05:07.46	314.72	30.79	-35.6	-36.4	22.7	0.00e+00	0	38	0	3422552064	40	4217
2026-01-22 15:05:08.76	314.99	30.59	-35.5	-36.4	22.7	0.00e+00	0	38	0	3430940672	40	4200
2026-01-22 15:05:09.46	315.14	30.48	-35.5	-36.3	22.7	0.00e+00	0	38	0	3436183552	40	4192
2026-01-22 15:05:10.77	315.41	30.28	-35.4	-36.3	22.8	0.00e+00	0	38	0	3445620736	40	4165
2026-01-22 15:05:11.48	315.56	30.17	-35.4	-36.3	22.6	0.00e+00	0	38	0	3450863616	40	4164
2026-01-22 15:05:12.76	315.82	29.97	-35.3	-36.2	22.8	0.00e+00	0	38	0	3460300800	40	4123
2026-01-22 15:05:13.49	315.97	29.86	-35.3	-36.2	22.9	0.00e+00	0	38	0	3465543680	40	4108
2026-01-22 15:05:14.77	316.23	29.66	-35.4	-36.3	22.8	0.00e+00	0	38	0	3474980864	40	4156
2026-01-22 15:05:15.57	316.39	29.54	-35.3	-36.2	22.8	0.00e+00	0	38	0	3480223744	40	4121
2026-01-22 15:05:16.71	316.61	29.37	-35.5	-36.3	22.7	0.00e+00	0	38	0	3488612352	40	4182
2026-01-22 15:05:17.75	316.82	29.21	-35.5	-36.4	22.7	0.00e+00	0	38	0	3495952384	40	4213
2026-01-22 15:05:18.70	317.00	29.07	-35.6	-36.5	22.6	0.00e+00	0	38	0	3503292416	40	4267
2026-01-22 15:05:19.95	317.24	28.88	-35.8	-36.6	22.5	0.00e+00	0	38	0	3512729600	41	4078
2026-01-22 15:05:20.83	317.41	28.75	-35.9	-36.7	22.4	0.00e+00	0	38	0	3517972480	41	4131
2026-01-22 15:05:22.14	317.65	28.55	-35.9	-36.8	22.4	0.00e+00	0	38	0	3528458240	41	4175
2026-01-22 15:05:22.85	317.78	28.45	-36.0	-36.8	22.3	0.00e+00	0	38	0	3533701120	41	4192
2026-01-22 15:05:24.13	318.02	28.26	-36.0	-36.8	22.3	0.00e+00	0	38	0	3542089728	41	4192
2026-01-22 15:05:24.84	318.15	28.15	-36.0	-36.8	22.3	0.00e+00	0	38	0	3547332608	41	4184
2026-01-22 15:05:26.12	318.38	27.96	-35.9	-36.8	22.4	0.00e+00	0	38	0	3556769792	41	4156
2026-01-22 15:05:26.84	318.51	27.86	-35.9	-36.8	22.3	0.00e+00	0	38	0	3562012672	41	4162
2026-01-22 15:05:28.12	318.74	27.67	-35.8	-36.7	22.4	0.00e+00	0	38	0	3571449856	41	4113
2026-01-22 15:05:28.94	318.88	27.55	-35.6	-36.5	22.6	0.00e+00	0	38	0	3577741312	41	4015
2026-01-22 15:05:30.08	319.08	27.38	-35.4	-36.2	22.9	0.00e+00	0	38	0	3585081344	41	3906
2026-01-22 15:05:30.93	319.23	27.26	-35.4	-36.2	22.8	0.00e+00	0	38	0	3591372800	41	3905
2026-01-22 15:05:32.07	319.42	27.10	-35.4	-36.2	22.9	0.00e+00	0	38	0	3599761408	41	3893
2026-01-22 15:05:32.92	319.57	26.97	-35.5	-36.3	22.8	0.00e+00	0	38	0	3606052864	41	3935
2026-01-22 15:05:34.06	319.76	26.81	-35.4	-36.2	22.8	0.00e+00	0	38	0	3614441472	41	3888
2026-01-22 15:05:34.91	319.90	26.69	-35.4	-36.2	22.8	0.00e+00	0	38	0	3619684352	41	3912
2026-01-22 15:05:36.05	320.09	26.53	-35.4	-36.3	22.8	0.00e+00	0	38	0	3628072960	41	3924
2026-01-22 15:05:36.90	320.23	26.41	-35.5	-36.3	22.7	0.00e+00	0	38	0	3634364416	41	3938
2026-01-22 15:05:38.04	320.42	26.25	-35.5	-36.3	22.7	0.00e+00	0	38	0	3642753024	41	3952
2026-01-22 15:05:38.89	320.56	26.13	-35.5	-36.4	22.7	0.00e+00	0	38	0	3649044480	41	3973
2026-01-22 15:05:40.03	320.74	25.97	-35.6	-36.5	22.6	0.00e+00	0	38	0	3657433088	41	4016
2026-01-22 15:05:40.88	320.87	25.85	-35.7	-36.5	22.6	0.00e+00	0	38	0	3663724544	41	4033
2026-01-22 15:05:42.02	321.05	25.69	-35.7	-36.5	22.5	0.00e+00	0	38	0	3671064576	41	4044
2026-01-22 15:05:42.87	321.19	25.57	-35.7	-36.6	22.5	0.00e+00	0	38	0	3677356032	41	4062
2026-01-22 15:05:44.01	321.36	25.41	-35.6	-36.5	22.6	0.00e+00	0	38	0	3685744640	41	4039
2026-01-22 15:05:44.86	321.49	25.30	-35.7	-36.6	22.5	0.00e+00	0	38	0	3692036096	41	4075
2026-01-22 15:05:45.99	321.66	25.14	-35.7	-36.6	22.4	0.00e+00	0	38	0	3700424704	41	4061
2026-01-22 15:05:46.84	321.79	25.02	-35.8	-36.7	22.4	0.00e+00	0	38	0	3706716160	41	4101
2026-01-22 15:05:47.98	321.96	24.87	-35.8	-36.7	22.4	0.00e+00	0	38	0	3714056192	41	4104
2026-01-22 15:05:48.83	322.09	24.75	-35.7	-36.6	22.5	0.00e+00	0	38	0	3720347648	41	4081
2026-01-22 15:05:49.97	322.26	24.60	-35.7	-36.6	22.5	0.00e+00	0	38	0	3728736256	41	4058
2026-01-22 15:05:50.82	322.38	24.48	-35.8	-36.6	22.4	0.00e+00	0	38	0	3735027712	41	4096
2026-01-22 15:05:52.11	322.57	24.31	-35.7	-36.6	22.5	0.00e+00	0	38	0	3744464896	41	4065
2026-01-22 15:05:52.83	322.67	24.22	-35.7	-36.5	22.5	0.00e+00	0	38	0	3749707776	41	4039
2026-01-22 15:05:54.10	322.85	24.05	-35.8	-36.6	22.4	0.00e+00	0	38	0	3759144960	41	4094
2026-01-22 15:05:54.84	322.96	23.95	-35.9	-36.7	22.4	0.00e+00	0	38	0	3764387840	41	4139
2026-01-22 15:05:56.12	323.14	23.78	-35.8	-36.7	22.4	0.00e+00	0	38	0	3772776448	41	4128
2026-01-22 15:05:56.86	323.24	23.68	-35.8	-36.7	22.4	0.00e+00	0	38	0	3779067904	41	4119
2026-01-22 15:05:58.14	323.41	23.51	-35.9	-36.8	22.3	0.00e+00	0	38	0	3788505088	41	4171
2026-01-22 15:05:58.88	323.52	23.42	-36.0	-36.9	22.3	0.00e+00	0	38	0	3793747968	41	4194
2026-01-22 15:06:00.16	323.69	23.25	-36.1	-37.0	22.2	0.00e+00	0	38	0	3802136576	41	4255
2026-01-22 15:06:00.88	323.79	23.16	-36.2	-37.1	22.0	0.00e+00	0	38	0	3807379456	41	4331
2026-01-22 15:06:02.15	323.96	22.99	-36.0	-36.9	22.0	0.00e+00	0	38	0	3816816640	41	4230
2026-01-22 15:06:02.88	324.05	22.90	-36.0	-36.9	22.2	0.00e+00	0	38	0	3822059520	41	4226
2026-01-22 15:06:04.16	324.22	22.74	-36.0	-36.9	22.2	0.00e+00	0	38	0	3831496704	41	4207
2026-01-22 15:06:05.10	324.34	22.62	-36.0	-36.8	22.3	0.00e+00	0	38	0	3837788160	41	4192
2026-01-22 15:06:06.40	324.51	22.45	-35.9	-36.8	22.3	0.00e+00	0	38	0	3847225344	41	4161
2026-01-22 15:06:07.11	324.60	22.36	-36.0	-36.8	22.3	0.00e+00	0	38	0	3852468224	41	4188
2026-01-22 15:06:08.75	324.81	22.15	-35.8	-36.7	22.4	0.00e+00	0	38	0	3865051136	41	4122
2026-01-22 15:06:09.32	324.88	22.08	-35.8	-36.7	22.4	0.00e+00	0	38	0	3868196864	41	4114
2026-01-22 15:06:11.02	325.09	21.87	-36.0	-36.8	22.2	0.00e+00	0	38	0	3880779776	41	4187
2026-01-22 15:06:11.59	325.16	21.80	-35.9	-36.7	22.2	0.00e+00	0	38	0	3884974080	41	4132
2026-01-22 15:06:13.30	325.37	21.59	-35.9	-36.8	22.2	0.00e+00	0	38	0	3897556992	41	4182
2026-01-22 15:06:13.87	325.44	21.52	-35.9	-36.8	22.3	0.00e+00	0	38	0	3901751296	41	4185
2026-01-22 15:06:15.58	325.65	21.31	-36.0	-36.9	22.2	0.00e+00	0	38	0	3913285632	41	4218
2026-01-22 15:06:16.15	325.71	21.24	-36.0	-36.9	22.1	0.00e+00	0	38	0	3917479936	41	4242
2026-01-22 15:06:17.85	325.91	21.03	-36.2	-37.1	22.0	0.00e+00	0	38	0	3930062848	41	4322
2026-01-22 15:06:18.42	325.98	20.96	-36.2	-37.1	22.0	0.00e+00	0	38	0	3934257152	41	4320
2026-01-22 15:06:20.13	326.18	20.76	-36.3	-37.1	22.0	0.00e+00	0	38	0	3946840064	41	4336
2026-01-22 15:06:20.91	326.27	20.66	-36.3	-37.2	21.9	0.00e+00	0	38	0	3952082944	42	4126
2026-01-22 15:06:22.19	326.42	20.51	-36.4	-37.3	21.8	0.00e+00	0	38	0	3961520128	42	4190
2026-01-22 15:06:23.13	326.52	20.40	-36.4	-37.3	21.7	0.00e+00	0	38	0	3968860160	42	4179
2026-01-22 15:06:24.13	326.63	20.28	-36.5	-37.4	21.8	0.00e+00	0	38	0	3975151616	42	4196
2026-01-22 15:06:25.12	326.75	20.16	-36.4	-37.3	21.8	0.00e+00	0	38	0	3982491648	42	4181
2026-01-22 15:06:26.12	326.86	20.05	-36.4	-37.3	21.9	0.00e+00	0	38	0	3989831680	42	4167
2026-01-22 15:06:27.11	326.97	19.93	-36.4	-37.3	21.8	0.00e+00	0	38	0	3997171712	42	4179
2026-01-22 15:06:28.10	327.07	19.81	-36.5	-37.4	21.8	0.00e+00	0	38	0	4004511744	42	4197
2026-01-22 15:06:29.10	327.18	19.70	-36.4	-37.3	21.8	0.00e+00	0	38	0	4011851776	42	4192
2026-01-22 15:06:30.10	327.29	19.58	-36.4	-37.3	21.8	0.00e+00	0	38	0	4018143232	42	4189
2026-01-22 15:06:31.09	327.40	19.47	-36.4	-37.3	21.8	0.00e+00	0	38	0	4025483264	42	4181
2026-01-22 15:06:32.09	327.50	19.35	-36.4	-37.3	21.8	0.00e+00	0	38	0	4032823296	42	4187
2026-01-22 15:06:33.14	327.61	19.23	-36.5	-37.4	21.8	0.00e+00	0	38	0	4040163328	42	4207
2026-01-22 15:06:34.07	327.71	19.13	-36.5	-37.4	21.8	0.00e+00	0	38	0	4047503360	42	4220
2026-01-22 15:06:35.19	327.83	19.00	-36.5	-37.4	21.7	0.00e+00	0	38	0	4055891968	42	4239
2026-01-22 15:06:36.05	327.91	18.90	-36.5	-37.4	21.8	0.00e+00	0	38	0	4061134848	42	4194
2026-01-22 15:06:37.18	328.03	18.77	-36.4	-37.3	21.8	0.00e+00	0	38	0	4069523456	42	4188
2026-01-22 15:06:38.04	328.12	18.68	-36.4	-37.4	21.8	0.00e+00	0	38	0	4075814912	42	4196
2026-01-22 15:06:39.17	328.23	18.55	-36.5	-37.5	21.7	0.00e+00	0	38	0	4084203520	42	4250
2026-01-22 15:06:40.03	328.32	18.46	-36.5	-37.4	21.7	0.00e+00	0	38	0	4090494976	42	4216
2026-01-22 15:06:41.16	328.43	18.33	-36.5	-37.4	21.7	0.00e+00	0	38	0	4098883584	42	4211
2026-01-22 15:06:42.01	328.51	18.24	-36.5	-37.4	21.7	0.00e+00	0	38	0	4104126464	42	4238
2026-01-22 15:06:43.15	328.63	18.11	-36.5	-37.4	21.7	0.00e+00	0	38	0	4112515072	42	4222
2026-01-22 15:06:44.00	328.71	18.02	-36.5	-37.5	21.7	0.00e+00	0	38	0	4118806528	42	4250
2026-01-22 15:06:45.14	328.82	17.89	-36.5	-37.4	21.7	0.00e+00	0	38	0	4127195136	42	4241
2026-01-22 15:06:46.37	328.94	17.76	-36.6	-37.6	21.3	0.00e+00	0	38	0	4135583744	42	4307
2026-01-22 15:06:47.23	329.02	17.67	-36.6	-37.5	21.6	0.00e+00	0	38	0	4141875200	42	4277
2026-01-22 15:06:48.71	329.16	17.51	-36.6	-37.5	21.6	0.00e+00	0	38	0	4153409536	42	4284
2026-01-22 15:06:49.43	329.23	17.43	-36.7	-37.6	21.5	0.00e+00	0	38	0	4157603840	42	4331
2026-01-22 15:06:50.70	329.34	17.29	-36.8	-37.7	21.5	0.00e+00	0	38	0	4167041024	42	4342
2026-01-22 15:06:51.42	329.41	17.22	-36.9	-37.8	21.3	0.00e+00	0	38	0	4172283904	43	4166
2026-01-22 15:06:52.69	329.53	17.08	-37.0	-37.9	21.3	0.00e+00	0	38	0	4181721088	43	4194
2026-01-22 15:06:53.51	329.60	16.99	-37.1	-38.0	21.2	0.00e+00	0	38	0	4188012544	43	4250
2026-01-22 15:06:54.65	329.71	16.87	-37.1	-38.1	21.1	0.00e+00	0	38	0	4195352576	43	4292
2026-01-22 15:06:55.50	329.78	16.78	-37.1	-38.0	21.2	0.00e+00	0	38	0	4201644032	43	4267
2026-01-22 15:06:56.64	329.89	16.67	-37.1	-38.0	21.2	0.00e+00	0	38	0	4210032640	43	4255
2026-01-22 15:06:57.49	329.96	16.58	-37.1	-38.1	21.1	0.00e+00	0	38	0	4216324096	43	4297
2026-01-22 15:06:58.63	330.06	16.46	-37.2	-38.1	21.0	0.00e+00	0	38	0	4224712704	43	4328
2026-01-22 15:06:59.48	330.14	16.37	-37.2	-38.2	21.0	0.00e+00	0	38	0	4231004160	43	4345
2026-01-22 15:07:00.62	330.24	16.25	-37.4	-38.4	21.0	0.00e+00	0	38	0	4238344192	44	4206
2026-01-22 15:07:01.83	330.34	16.13	-37.5	-38.5	20.9	0.00e+00	0	38	0	4247781376	44	4252
2026-01-22 15:07:02.68	330.41	16.04	-37.6	-38.5	20.8	0.00e+00	0	38	0	4254072832	44	4271
2026-01-22 15:07:03.82	330.51	15.92	-37.6	-38.6	20.8	0.00e+00	0	38	0	4261412864	44	4295
2026-01-22 15:07:04.67	330.58	15.84	-37.6	-38.6	20.8	0.00e+00	0	38	0	4267704320	44	4301
2026-01-22 15:07:05.81	330.68	15.72	-37.7	-38.6	20.7	0.00e+00	0	38	0	4276092928	44	4325
2026-01-22 15:07:06.66	330.75	15.64	-37.6	-38.6	20.8	0.00e+00	0	38	0	4282384384	44	4305
2026-01-22 15:07:07.79	330.84	15.52	-37.7	-38.7	20.7	0.00e+00	0	38	0	4290772992	44	4341
2026-01-22 15:07:08.65	330.92	15.44	-37.6	-38.6	20.5	0.00e+00	0	38	0	4297064448	44	4303
2026-01-22 15:07:09.78	331.01	15.32	-37.7	-38.7	20.7	0.00e+00	0	38	0	4305453056	44	4343
2026-01-22 15:07:10.64	331.08	15.24	-37.6	-38.6	20.8	0.00e+00	0	38	0	4311744512	44	4317
2026-01-22 15:07:11.77	331.17	15.13	-37.7	-38.7	20.7	0.00e+00	0	38	0	4319084544	44	4358
2026-01-22 15:07:12.63	331.24	15.04	-37.8	-38.8	20.5	0.00e+00	0	38	0	4325376000	45	4160
2026-01-22 15:07:13.76	331.33	14.93	-37.7	-38.6	20.7	0.00e+00	0	38	0	4333764608	45	4083
2026-01-22 15:07:14.61	331.40	14.85	-37.7	-38.7	20.7	0.00e+00	0	38	0	4340056064	45	4102
2026-01-22 15:07:15.75	331.49	14.74	-37.8	-38.7	20.6	0.00e+00	0	38	0	4348444672	45	4137
2026-01-22 15:07:16.60	331.56	14.65	-37.7	-38.7	20.6	0.00e+00	0	38	0	4354736128	45	4116
2026-01-22 15:07:17.74	331.65	14.54	-37.7	-38.7	20.6	0.00e+00	0	38	0	4363124736	45	4115
2026-01-22 15:07:18.59	331.71	14.46	-37.8	-38.7	20.6	0.00e+00	0	38	0	4368367616	45	4145
2026-01-22 15:07:20.16	331.83	14.31	-37.8	-38.7	20.5	0.00e+00	0	38	0	4379901952	45	4139
2026-01-22 15:07:20.80	331.88	14.25	-37.8	-38.7	20.5	0.00e+00	0	38	0	4385144832	45	4145
2026-01-22 15:07:22.22	331.99	14.11	-37.9	-38.8	20.5	0.00e+00	0	38	0	4394582016	45	4169
2026-01-22 15:07:22.93	332.04	14.05	-37.9	-38.9	20.4	0.00e+00	0	38	0	4399824896	45	4212
2026-01-22 15:07:24.21	332.14	13.92	-37.9	-38.9	20.4	0.00e+00	0	38	0	4409262080	45	4210
2026-01-22 15:07:24.94	332.19	13.85	-37.9	-38.9	20.4	0.00e+00	0	38	0	4414504960	45	4216
2026-01-22 15:07:26.22	332.29	13.73	-38.0	-39.0	20.3	0.00e+00	0	38	0	4423942144	45	4260
2026-01-22 15:07:26.94	332.34	13.67	-38.0	-39.0	20.3	0.00e+00	0	38	0	4429185024	45	4250
2026-01-22 15:07:28.22	332.44	13.55	-38.1	-39.1	20.2	0.00e+00	0	38	0	4437573632	45	4329
2026-01-22 15:07:29.01	332.49	13.47	-38.1	-39.1	20.2	0.00e+00	0	38	0	4443865088	45	4311
2026-01-22 15:07:30.19	332.58	13.36	-38.2	-39.2	20.1	0.00e+00	0	38	0	4452253696	45	4342
2026-01-22 15:07:31.20	332.65	13.27	-38.2	-39.2	20.1	0.00e+00	0	38	0	4459593728	45	4344
2026-01-22 15:07:32.37	332.74	13.16	-38.3	-39.3	20.0	0.00e+00	0	38	0	4467982336	46	4161
2026-01-22 15:07:33.25	332.80	13.08	-38.3	-39.3	20.0	0.00e+00	0	38	0	4474273792	46	4178
2026-01-22 15:07:34.39	332.88	12.98	-38.3	-39.3	20.0	0.00e+00	0	38	0	4482662400	46	4185
2026-01-22 15:07:35.24	332.94	12.90	-38.3	-39.3	20.0	0.00e+00	0	38	0	4488953856	46	4158
2026-01-22 15:07:36.60	333.04	12.78	-38.4	-39.4	19.9	0.00e+00	0	38	0	4498391040	46	4210
2026-01-22 15:07:37.30	333.08	12.71	-38.4	-39.4	19.9	0.00e+00	0	38	0	4503633920	46	4220
2026-01-22 15:07:38.59	333.17	12.60	-38.4	-39.4	19.9	0.00e+00	0	38	0	4513071104	46	4239
2026-01-22 15:07:39.31	333.22	12.53	-38.4	-39.4	19.9	0.00e+00	0	38	0	4518313984	46	4209
2026-01-22 15:07:40.59	333.31	12.42	-38.5	-39.5	19.9	0.00e+00	0	38	0	4527751168	46	4244
2026-01-22 15:07:41.32	333.36	12.35	-38.4	-39.4	19.8	0.00e+00	0	38	0	4532994048	46	4242
2026-01-22 15:07:42.60	333.45	12.24	-38.5	-39.5	19.8	0.00e+00	0	38	0	4542431232	46	4257
2026-01-22 15:07:43.31	333.49	12.17	-38.5	-39.5	19.8	0.00e+00	0	38	0	4546625536	46	4268
2026-01-22 15:07:44.59	333.58	12.06	-38.6	-39.6	19.7	0.00e+00	0	38	0	4556062720	46	4320
2026-01-22 15:07:45.33	333.63	11.99	-38.5	-39.5	19.8	0.00e+00	0	38	0	4561305600	46	4275
2026-01-22 15:07:46.60	333.71	11.88	-38.5	-39.6	19.7	0.00e+00	0	38	0	4570742784	46	4292
2026-01-22 15:07:47.32	333.76	11.82	-38.6	-39.6	19.7	0.00e+00	0	38	0	4575985664	46	4302
2026-01-22 15:07:48.59	333.84	11.71	-38.5	-39.6	19.7	0.00e+00	0	38	0	4585422848	46	4302
2026-01-22 15:07:49.30	333.89	11.65	-38.6	-39.6	19.6	0.00e+00	0	38	0	4590665728	46	4340
2026-01-22 15:07:50.58	333.97	11.54	-38.7	-39.8	19.5	0.00e+00	0	38	0	4600102912	46	4393
2026-01-22 15:07:51.31	334.02	11.47	-38.6	-39.6	19.6	0.00e+00	0	38	0	4604297216	46	4327
2026-01-22 15:07:52.59	334.10	11.36	-38.6	-39.6	19.7	0.00e+00	0	38	0	4613734400	46	4332
2026-01-22 15:07:53.31	334.15	11.30	-38.6	-39.6	19.6	0.00e+00	0	38	0	4618977280	46	4334
2026-01-22 15:07:54.60	334.23	11.19	-38.6	-39.7	19.6	0.00e+00	0	38	0	4628414464	46	4350
2026-01-22 15:07:55.31	334.27	11.13	-38.6	-39.6	19.6	0.00e+00	0	38	0	4633657344	46	4328
2026-01-22 15:07:56.59	334.35	11.02	-38.6	-39.7	19.6	0.00e+00	0	38	0	4643094528	46	4357
2026-01-22 15:07:57.33	334.40	10.96	-38.7	-39.7	19.6	0.00e+00	0	38	0	4648337408	46	4374
2026-01-22 15:07:58.61	334.48	10.85	-38.7	-39.7	19.5	0.00e+00	0	38	0	4657774592	46	4390
2026-01-22 15:07:59.32	334.52	10.79	-38.7	-39.8	19.5	0.00e+00	0	38	0	4663017472	46	4410
2026-01-22 15:08:00.60	334.60	10.68	-38.7	-39.8	19.5	0.00e+00	0	38	0	4671406080	47	4165
2026-01-22 15:08:01.52	334.66	10.60	-38.8	-39.8	19.5	0.00e+00	0	38	0	4678746112	47	4176
2026-01-22 15:08:02.52	334.72	10.52	-38.7	-39.8	19.5	0.00e+00	0	38	0	4686086144	47	4166
2026-01-22 15:08:03.51	334.78	10.44	-38.8	-39.9	19.4	0.00e+00	0	38	0	4692377600	47	4207
2026-01-22 15:08:04.51	334.84	10.36	-38.8	-39.9	19.3	0.00e+00	0	38	0	4699717632	47	4232
2026-01-22 15:08:05.50	334.90	10.27	-38.8	-39.9	19.3	0.00e+00	0	38	0	4707057664	47	4230
2026-01-22 15:08:06.50	334.96	10.19	-38.8	-39.9	19.3	0.00e+00	0	38	0	4714397696	47	4242
2026-01-22 15:08:07.49	335.01	10.11	-38.8	-39.9	19.3	0.00e+00	0	38	0	4721737728	47	4231
2026-01-22 15:08:08.49	335.07	10.03	-38.9	-40.1	19.2	0.00e+00	0	38	0	4729077760	47	4307
2026-01-22 15:08:09.48	335.13	9.95	-38.9	-40.0	19.2	0.00e+00	0	38	0	4735369216	47	4291
2026-01-22 15:08:10.48	335.19	9.86	-38.9	-40.1	19.2	0.00e+00	0	38	0	4742709248	47	4300
2026-01-22 15:08:11.55	335.25	9.78	-39.0	-40.1	19.0	0.00e+00	0	38	0	4751097856	47	4335
2026-01-22 15:08:12.40	335.30	9.71	-39.0	-40.1	19.1	0.00e+00	0	38	0	4757389312	47	4328
2026-01-22 15:08:13.54	335.36	9.62	-39.0	-40.2	19.0	0.00e+00	0	38	0	4765777920	47	4357
2026-01-22 15:08:14.40	335.41	9.55	-39.0	-40.2	19.0	0.00e+00	0	38	0	4771020800	47	4345
