passes_logs/2026/01/22/T1/T1__20260122_212646_NOAA_20_JPSS-1_rec.log

#Pass ID: 20260122_212646_NOAA 20 (JPSS-1)
#Satellite: NOAA 20 (JPSS-1)
#Configuration: NOAA 20
#almurnet v.1.7.20251203
#Start time: 2026-01-22 21:26:48

#Version: 2.0.20230620
#Station: T1
#Location: 37.570604 lon 55.790049 lat
#TLE: 1 43013U 17073A   26022.44900781  .00000193  00000+0  11233-3 0  9999
#TLE: 2 43013  98.7645 323.3100 0001197  28.8413 331.2829 14.19538802423792

#Time	Az	El	Level	Level2	SNR	BER	BlckErr	Temp	State	Recorded	gain1	gain2
2026-01-22 21:26:48.63	42.53	5.09	-49.2	-64.6	3.8	1.49e+00	0	38	0	0	70	20583
2026-01-22 21:26:49.63	42.65	5.13	-49.1	-64.5	3.8	1.49e+00	0	38	104	0	70	20519
2026-01-22 21:26:50.63	42.78	5.17	-49.2	-64.5	3.8	1.49e+00	0	38	104	0	70	20491
2026-01-22 21:26:51.62	42.91	5.21	-49.1	-64.5	3.8	1.49e+00	0	38	104	0	70	20483
2026-01-22 21:26:52.62	43.04	5.25	-49.1	-64.5	3.8	1.49e+00	0	38	104	0	70	20513
2026-01-22 21:26:53.61	43.16	5.28	-49.2	-64.5	3.8	1.49e+00	0	38	104	0	70	20474
2026-01-22 21:26:54.61	43.29	5.32	-49.1	-64.5	3.8	1.49e+00	0	38	104	0	70	20488
2026-01-22 21:26:55.60	43.42	5.36	-49.1	-64.5	3.8	1.49e+00	0	38	104	0	70	20417
2026-01-22 21:26:56.60	43.55	5.40	-49.1	-64.5	3.8	1.49e+00	0	38	104	0	70	20433
2026-01-22 21:26:57.60	43.68	5.44	-49.1	-64.5	3.8	1.49e+00	0	38	104	0	70	20348
2026-01-22 21:26:58.60	43.81	5.48	-49.1	-64.5	3.8	1.49e+00	0	38	104	0	70	20442
2026-01-22 21:26:59.59	43.94	5.51	-49.1	-64.5	3.8	1.49e+00	0	38	104	0	70	20470
2026-01-22 21:27:00.59	44.07	5.55	-49.1	-64.5	3.8	1.49e+00	0	39	104	0	70	20385
2026-01-22 21:27:01.59	44.20	5.59	-49.1	-64.5	3.8	1.49e+00	0	38	104	0	70	20407
2026-01-22 21:27:02.59	44.33	5.63	-49.1	-64.5	3.8	1.49e+00	0	38	104	0	70	20320
2026-01-22 21:27:03.58	44.46	5.66	-49.1	-64.5	3.8	1.49e+00	0	39	104	0	70	20363
2026-01-22 21:27:04.58	44.59	5.70	-49.1	-64.5	3.8	1.49e+00	0	38	104	0	70	20359
2026-01-22 21:27:05.57	44.72	5.74	-49.1	-64.5	3.8	1.49e+00	0	39	104	0	70	20417
2026-01-22 21:27:06.57	44.86	5.78	-49.1	-64.5	3.8	1.49e+00	0	39	104	0	70	20323
2026-01-22 21:27:07.56	44.99	5.81	-49.1	-64.5	3.8	1.49e+00	0	39	104	0	70	20347
2026-01-22 21:27:08.56	45.12	5.85	-49.1	-64.5	3.8	1.49e+00	0	39	104	0	70	20327
2026-01-22 21:27:09.56	45.26	5.89	-49.1	-64.5	3.8	1.49e+00	0	39	104	0	70	20331
2026-01-22 21:27:10.55	45.39	5.93	-49.1	-64.5	3.8	1.49e+00	0	39	104	0	70	20340
2026-01-22 21:27:11.56	45.52	5.96	-49.1	-64.5	3.8	1.49e+00	0	39	104	0	70	20348
2026-01-22 21:27:12.55	45.66	6.00	-49.1	-64.5	3.8	1.49e+00	0	39	104	0	70	20351
2026-01-22 21:27:13.55	45.79	6.04	-49.1	-64.5	3.8	1.49e+00	0	39	104	0	70	20324
2026-01-22 21:27:14.54	45.93	6.07	-49.1	-64.5	3.8	1.49e+00	0	39	104	0	70	20314
2026-01-22 21:27:15.54	46.06	6.11	-49.1	-64.4	3.8	1.49e+00	0	39	104	0	70	20238
2026-01-22 21:27:16.53	46.20	6.15	-49.1	-64.5	3.8	1.49e+00	0	39	104	0	70	20381
2026-01-22 21:27:17.53	46.33	6.18	-49.0	-64.5	3.8	1.49e+00	0	39	104	0	70	20320
2026-01-22 21:27:18.53	46.47	6.22	-49.1	-64.5	3.8	1.49e+00	0	39	104	0	70	20307
2026-01-22 21:27:19.53	46.61	6.26	-49.1	-64.5	3.8	1.49e+00	0	39	104	0	70	20380
2026-01-22 21:27:20.52	46.74	6.29	-49.1	-64.5	3.8	1.49e+00	0	39	104	0	70	20313
2026-01-22 21:27:21.52	46.88	6.33	-49.1	-64.4	3.8	1.49e+00	0	39	104	0	70	20286
2026-01-22 21:27:22.52	47.02	6.37	-49.0	-64.5	3.8	1.49e+00	0	39	104	0	70	20305
2026-01-22 21:27:23.51	47.16	6.40	-49.1	-64.5	3.8	1.49e+00	0	39	104	0	70	20314
2026-01-22 21:27:24.51	47.29	6.44	-49.1	-64.5	3.8	1.49e+00	0	39	104	0	70	20339
2026-01-22 21:27:25.50	47.43	6.47	-49.1	-64.5	3.8	1.49e+00	0	39	104	0	70	20347
2026-01-22 21:27:26.50	47.57	6.51	-49.1	-64.5	3.8	1.49e+00	0	39	104	0	70	20325
2026-01-22 21:27:27.49	47.71	6.55	-49.1	-64.4	3.8	1.49e+00	0	39	104	0	70	20249
2026-01-22 21:27:28.49	47.85	6.58	-49.1	-64.4	3.8	1.49e+00	0	39	104	0	70	20272
2026-01-22 21:27:29.49	47.99	6.62	-49.1	-64.4	3.8	1.49e+00	0	39	104	0	70	20292
2026-01-22 21:27:30.49	48.13	6.65	-49.1	-64.5	3.8	1.49e+00	0	40	104	0	70	20354
2026-01-22 21:27:31.48	48.27	6.69	-49.1	-64.4	3.8	1.49e+00	0	39	104	0	70	20264
2026-01-22 21:27:32.48	48.41	6.72	-49.1	-64.4	3.8	1.49e+00	0	39	104	0	70	20187
2026-01-22 21:27:33.47	48.55	6.76	-49.1	-64.5	3.8	1.49e+00	0	39	104	0	70	20318
2026-01-22 21:27:34.47	48.69	6.79	-49.1	-64.4	3.8	1.49e+00	0	39	104	0	70	20300
2026-01-22 21:27:35.47	48.84	6.83	-49.1	-64.5	3.8	1.49e+00	0	39	104	0	70	20321
2026-01-22 21:27:36.46	48.98	6.86	-49.1	-64.4	3.8	1.49e+00	0	39	104	0	70	20296
2026-01-22 21:27:37.46	49.12	6.90	-49.1	-64.4	3.8	1.49e+00	0	40	104	0	70	20300
2026-01-22 21:27:38.46	49.26	6.93	-49.1	-64.4	3.8	1.49e+00	0	39	104	0	70	20265
2026-01-22 21:27:39.45	49.41	6.97	-49.1	-64.4	3.8	1.49e+00	0	39	104	0	70	20267
2026-01-22 21:27:40.45	49.55	7.00	-49.1	-64.4	3.8	1.49e+00	0	39	104	0	70	20294
2026-01-22 21:27:41.44	49.69	7.04	-49.1	-64.5	3.8	1.49e+00	0	40	104	0	70	20353
2026-01-22 21:27:42.44	49.84	7.07	-49.1	-64.5	3.8	1.49e+00	0	40	104	0	70	20355
2026-01-22 21:27:43.43	49.98	7.10	-49.1	-64.4	3.8	1.49e+00	0	40	104	0	70	20283
2026-01-22 21:27:44.43	50.13	7.14	-49.1	-64.4	3.8	1.49e+00	0	40	104	0	70	20277
2026-01-22 21:27:45.42	50.27	7.17	-49.1	-64.5	3.8	1.49e+00	0	40	104	0	70	20334
2026-01-22 21:27:46.42	50.42	7.21	-49.1	-64.5	3.8	1.49e+00	0	39	104	0	70	20305
2026-01-22 21:27:47.42	50.56	7.24	-49.1	-64.5	3.8	1.49e+00	0	40	104	0	70	20305
2026-01-22 21:27:48.41	50.71	7.27	-49.1	-64.5	3.8	1.49e+00	0	40	104	0	70	20305
2026-01-22 21:27:49.41	50.85	7.31	-49.1	-64.4	3.8	1.49e+00	0	40	104	0	70	20264
2026-01-22 21:27:50.41	51.00	7.34	-49.1	-64.4	3.8	1.49e+00	0	40	104	0	70	20299
2026-01-22 21:27:51.40	51.15	7.37	-49.1	-64.5	3.8	1.49e+00	0	40	104	0	70	20304
2026-01-22 21:27:52.40	51.30	7.41	-49.1	-64.4	3.8	1.49e+00	0	40	104	0	70	20261
2026-01-22 21:27:53.40	51.44	7.44	-49.1	-64.4	3.8	1.49e+00	0	40	104	0	70	20290
2026-01-22 21:27:54.39	51.59	7.47	-49.1	-64.5	3.8	1.49e+00	0	40	104	0	70	20331
2026-01-22 21:27:55.39	51.74	7.51	-49.1	-64.5	3.8	1.49e+00	0	40	104	0	70	20307
2026-01-22 21:27:56.38	51.89	7.54	-49.1	-64.4	3.8	1.49e+00	0	40	104	0	70	20265
2026-01-22 21:27:57.38	52.04	7.57	-49.1	-64.4	3.8	1.49e+00	0	40	104	0	70	20291
2026-01-22 21:27:58.37	52.19	7.60	-49.1	-64.4	3.8	1.49e+00	0	40	104	0	70	20275
2026-01-22 21:27:59.37	52.34	7.64	-49.1	-64.4	3.8	1.49e+00	0	40	104	0	70	20246
2026-01-22 21:28:00.37	52.49	7.67	-49.1	-64.4	3.8	1.49e+00	0	39	104	0	70	20292
2026-01-22 21:28:01.37	52.64	7.70	-49.1	-64.4	3.8	1.49e+00	0	40	104	0	70	20252
2026-01-22 21:28:02.36	52.79	7.73	-49.1	-64.4	3.8	1.49e+00	0	40	104	0	70	20269
2026-01-22 21:28:03.36	52.94	7.76	-49.1	-64.4	3.8	1.49e+00	0	40	104	0	70	20215
2026-01-22 21:28:04.36	53.09	7.80	-49.1	-64.4	3.8	1.49e+00	0	40	104	0	70	20218
2026-01-22 21:28:05.36	53.24	7.83	-49.1	-64.4	3.8	1.49e+00	0	40	104	0	70	20246
2026-01-22 21:28:06.35	53.39	7.86	-49.1	-64.5	3.8	1.49e+00	0	40	104	0	70	20319
2026-01-22 21:28:07.35	53.55	7.89	-49.1	-64.4	3.8	1.49e+00	0	40	104	0	70	20263
2026-01-22 21:28:08.35	53.70	7.92	-49.1	-64.5	3.8	1.49e+00	0	40	104	0	70	20319
2026-01-22 21:28:09.34	53.85	7.95	-49.1	-64.4	3.8	1.49e+00	0	40	104	0	70	20289
2026-01-22 21:28:10.34	54.00	7.98	-49.1	-64.4	3.8	1.49e+00	0	40	104	0	70	20292
2026-01-22 21:28:11.34	54.16	8.01	-49.1	-64.5	3.8	1.49e+00	0	40	104	0	70	20344
2026-01-22 21:28:12.33	54.31	8.05	-49.1	-64.5	3.8	1.49e+00	0	40	104	0	70	20312
2026-01-22 21:28:13.33	54.47	8.08	-49.1	-64.5	3.8	1.49e+00	0	40	104	0	70	20358
2026-01-22 21:28:14.32	54.62	8.11	-49.1	-64.4	3.8	1.49e+00	0	40	104	0	70	20213
2026-01-22 21:28:15.32	54.78	8.14	-49.1	-64.4	3.8	1.49e+00	0	40	104	0	70	20292
2026-01-22 21:28:16.32	54.93	8.17	-49.1	-64.4	3.8	1.49e+00	0	40	104	0	70	20226
2026-01-22 21:28:17.31	55.09	8.20	-49.1	-64.4	3.8	1.49e+00	0	40	104	0	70	20208
2026-01-22 21:28:18.31	55.24	8.23	-49.1	-64.4	3.8	1.49e+00	0	40	104	0	70	20175
2026-01-22 21:28:19.31	55.40	8.26	-49.1	-64.3	3.8	1.49e+00	0	40	104	0	70	20021
2026-01-22 21:28:20.31	55.55	8.29	-49.1	-64.3	3.8	1.49e+00	0	40	104	0	70	19909
2026-01-22 21:28:21.30	55.71	8.31	-49.1	-64.3	3.8	1.49e+00	0	40	104	0	70	19869
2026-01-22 21:28:22.30	55.87	8.34	-49.1	-64.3	3.8	1.49e+00	0	40	104	0	70	19915
2026-01-22 21:28:23.30	56.03	8.37	-49.1	-64.3	3.8	1.49e+00	0	40	104	0	70	19968
2026-01-22 21:28:24.30	56.18	8.40	-49.1	-64.4	3.8	1.49e+00	0	40	104	0	70	20093
2026-01-22 21:28:25.29	56.34	8.43	-49.1	-64.4	3.8	1.49e+00	0	40	104	0	70	20098
2026-01-22 21:28:26.29	56.50	8.46	-49.1	-64.4	3.8	1.49e+00	0	40	104	0	70	20120
2026-01-22 21:28:27.29	56.66	8.49	-49.1	-64.4	3.8	1.49e+00	0	40	104	0	70	20217
2026-01-22 21:28:28.28	56.82	8.52	-49.1	-64.5	3.8	1.49e+00	0	40	104	0	70	20319
2026-01-22 21:28:29.28	56.98	8.54	-49.1	-64.5	3.8	1.49e+00	0	40	104	0	70	20309
2026-01-22 21:28:30.28	57.14	8.57	-49.1	-64.5	3.8	1.49e+00	0	40	104	0	70	20324
2026-01-22 21:28:31.27	57.29	8.60	-49.1	-64.4	3.8	1.49e+00	0	40	104	0	70	20108
2026-01-22 21:28:32.27	57.46	8.63	-49.1	-64.4	3.8	1.49e+00	0	40	104	0	70	20243
2026-01-22 21:28:33.27	57.62	8.66	-49.1	-64.4	3.8	1.49e+00	0	40	104	0	70	20209
2026-01-22 21:28:34.27	57.78	8.68	-49.1	-64.5	3.8	1.49e+00	0	40	104	0	70	20349
2026-01-22 21:28:35.26	57.94	8.71	-49.1	-64.5	3.8	1.49e+00	0	40	104	0	70	20358
2026-01-22 21:28:36.26	58.10	8.74	-49.1	-64.4	3.8	1.49e+00	0	40	104	0	70	20264
2026-01-22 21:28:37.26	58.26	8.76	-49.1	-64.4	3.8	1.49e+00	0	40	104	0	70	20298
2026-01-22 21:28:38.26	58.42	8.79	-49.1	-64.4	3.8	1.49e+00	0	40	104	0	70	20254
2026-01-22 21:28:39.25	58.58	8.82	-49.1	-64.3	3.8	1.49e+00	0	40	104	0	70	20019
2026-01-22 21:28:40.25	58.75	8.84	-49.1	-64.2	3.8	1.49e+00	0	40	104	0	70	19641
2026-01-22 21:28:41.25	58.91	8.87	-49.1	-64.0	3.8	1.49e+00	0	40	104	0	70	19218
2026-01-22 21:28:42.24	59.07	8.90	-49.0	-63.7	3.8	1.49e+00	0	40	104	0	70	18710
2026-01-22 21:28:43.24	59.24	8.92	-49.0	-63.4	3.8	1.49e+00	0	40	104	0	70	18053
2026-01-22 21:28:44.23	59.40	8.95	-48.9	-62.5	3.8	1.49e+00	0	40	104	0	69	17164
2026-01-22 21:28:45.23	59.56	8.97	-48.7	-59.8	4.5	1.43e+00	0	40	0	0	69	12658
2026-01-22 21:28:46.23	59.73	9.00	-48.3	-56.8	6.4	3.57e-01	0	40	0	2097152	68	9390
2026-01-22 21:28:47.22	59.89	9.02	-47.4	-53.7	9.1	5.99e-02	0	41	0	3145728	66	7429
2026-01-22 21:28:48.22	60.06	9.05	-49.0	-61.4	3.9	9.48e-01	0	40	104	4194304	69	15210
2026-01-22 21:28:49.22	60.22	9.07	-48.5	-59.0	4.8	4.38e-01	0	41	0	4194304	67	12913
2026-01-22 21:28:50.22	60.39	9.10	-47.1	-52.9	10.2	5.10e-03	0	40	0	6291456	66	6789
2026-01-22 21:28:51.22	60.55	9.12	-48.4	-57.5	5.8	4.60e-01	0	40	0	8388608	67	10829
2026-01-22 21:28:52.22	60.72	9.15	-45.1	-48.8	14.5	4.82e-03	0	40	0	9437184	62	5312
2026-01-22 21:28:53.22	60.89	9.17	-45.2	-48.9	14.4	7.00e-07	0	40	0	11534336	62	5356
2026-01-22 21:28:54.22	61.05	9.19	-44.8	-48.2	15.1	0.00e+00	0	40	0	13631488	61	5248
2026-01-22 21:28:55.22	61.22	9.22	-44.7	-48.2	15.1	0.00e+00	0	41	0	15728640	61	5225
2026-01-22 21:28:56.22	61.39	9.24	-44.6	-47.9	15.4	0.00e+00	0	40	0	17825792	61	5084
2026-01-22 21:28:57.22	61.55	9.26	-44.7	-48.0	15.2	0.00e+00	0	40	0	18874368	61	5138
2026-01-22 21:28:58.22	61.72	9.29	-44.6	-47.9	15.4	0.00e+00	0	40	0	20971520	61	5065
2026-01-22 21:28:59.23	61.89	9.31	-44.6	-47.8	15.5	0.00e+00	0	40	0	23068672	61	5029
2026-01-22 21:29:00.23	62.06	9.33	-44.6	-47.9	15.4	0.00e+00	0	40	0	25165824	61	5045
2026-01-22 21:29:01.23	62.23	9.36	-44.5	-47.7	15.5	0.00e+00	0	40	0	26214400	61	4979
2026-01-22 21:29:02.23	62.40	9.38	-44.5	-47.7	15.5	0.00e+00	0	40	0	28311552	61	4978
2026-01-22 21:29:03.24	62.57	9.40	-44.5	-47.7	15.6	0.00e+00	0	40	0	30408704	60	5260
2026-01-22 21:29:04.24	62.74	9.42	-44.5	-47.7	15.6	0.00e+00	0	40	0	32505856	60	5251
2026-01-22 21:29:05.24	62.91	9.44	-44.5	-47.7	15.6	0.00e+00	0	40	0	34603008	60	5228
2026-01-22 21:29:06.24	63.08	9.47	-44.5	-47.7	15.6	0.00e+00	0	40	0	35651584	60	5240
2026-01-22 21:29:07.24	63.25	9.49	-44.5	-47.7	15.6	0.00e+00	0	40	0	37748736	60	5227
2026-01-22 21:29:08.25	63.42	9.51	-44.4	-47.5	15.8	0.00e+00	0	40	0	39845888	60	5157
2026-01-22 21:29:09.25	63.59	9.53	-44.5	-47.7	15.6	0.00e+00	0	40	0	41943040	60	5253
2026-01-22 21:29:10.25	63.76	9.55	-44.5	-47.7	15.6	0.00e+00	0	40	0	44040192	60	5234
2026-01-22 21:29:11.25	63.93	9.57	-44.6	-47.8	15.5	0.00e+00	0	40	0	45088768	60	5301
2026-01-22 21:29:12.25	64.10	9.59	-44.6	-47.8	15.5	0.00e+00	0	40	0	47185920	60	5298
2026-01-22 21:29:13.25	64.27	9.61	-44.7	-47.9	15.4	0.00e+00	0	40	0	49283072	60	5400
2026-01-22 21:29:14.25	64.45	9.63	-44.6	-47.8	15.5	0.00e+00	0	40	0	51380224	60	5313
2026-01-22 21:29:15.26	64.62	9.65	-44.6	-47.8	15.5	0.00e+00	0	40	0	53477376	60	5316
2026-01-22 21:29:16.26	64.79	9.67	-44.7	-48.0	15.3	0.00e+00	0	40	0	54525952	60	5430
2026-01-22 21:29:17.26	64.97	9.69	-44.6	-47.9	15.5	0.00e+00	0	40	0	56623104	60	5356
2026-01-22 21:29:18.26	65.14	9.71	-44.6	-47.9	15.5	0.00e+00	0	40	0	58720256	60	5357
2026-01-22 21:29:19.26	65.31	9.73	-44.6	-47.8	15.5	0.00e+00	0	40	0	60817408	60	5314
2026-01-22 21:29:20.26	65.48	9.75	-44.6	-47.8	15.5	0.00e+00	0	40	0	62914560	60	5332
2026-01-22 21:29:21.26	65.66	9.77	-44.7	-47.9	15.4	0.00e+00	0	40	0	63963136	60	5396
2026-01-22 21:29:22.26	65.83	9.78	-44.7	-48.0	15.3	0.00e+00	0	40	0	66060288	60	5449
2026-01-22 21:29:23.26	66.00	9.80	-44.8	-48.1	15.2	0.00e+00	0	40	0	68157440	60	5514
2026-01-22 21:29:24.26	66.18	9.82	-44.9	-48.2	15.1	0.00e+00	0	40	0	70254592	60	5573
2026-01-22 21:29:25.26	66.35	9.84	-44.9	-48.2	15.1	0.00e+00	0	41	0	71303168	60	5591
2026-01-22 21:29:26.27	66.53	9.86	-44.9	-48.2	15.1	0.00e+00	0	40	0	73400320	60	5577
2026-01-22 21:29:27.27	66.70	9.87	-45.0	-48.3	15.0	0.00e+00	0	40	0	75497472	60	5647
2026-01-22 21:29:28.27	66.88	9.89	-44.9	-48.2	15.1	0.00e+00	0	41	0	77594624	60	5576
2026-01-22 21:29:29.27	67.05	9.91	-44.9	-48.3	15.1	0.00e+00	0	40	0	79691776	60	5607
2026-01-22 21:29:30.27	67.23	9.92	-44.9	-48.3	15.1	0.00e+00	0	40	0	80740352	60	5606
2026-01-22 21:29:31.27	67.40	9.94	-44.8	-48.2	15.1	0.00e+00	0	40	0	82837504	60	5585
2026-01-22 21:29:32.28	67.58	9.96	-44.9	-48.4	15.0	0.00e+00	0	40	0	84934656	60	5682
2026-01-22 21:29:33.28	67.76	9.97	-44.9	-48.4	15.0	0.00e+00	0	40	0	87031808	60	5660
2026-01-22 21:29:34.28	67.93	9.99	-44.9	-48.4	15.0	0.00e+00	0	40	0	89128960	60	5667
2026-01-22 21:29:35.28	68.11	10.00	-45.0	-48.5	14.8	0.00e+00	0	40	0	90177536	60	5745
2026-01-22 21:29:36.29	68.29	10.02	-45.1	-48.6	14.8	7.00e-07	0	40	0	92274688	60	5838
2026-01-22 21:29:37.29	68.46	10.03	-45.2	-48.7	14.6	0.00e+00	0	40	0	94371840	61	5588
2026-01-22 21:29:38.29	68.64	10.05	-45.3	-48.8	14.6	0.00e+00	0	40	0	96468992	61	5630
2026-01-22 21:29:39.29	68.82	10.06	-45.3	-48.9	14.5	7.00e-07	0	40	0	98566144	61	5672
2026-01-22 21:29:40.30	69.00	10.08	-45.3	-48.9	14.4	0.00e+00	0	40	0	99614720	61	5690
2026-01-22 21:29:41.30	69.17	10.09	-45.3	-48.9	14.4	0.00e+00	0	40	0	101711872	61	5692
2026-01-22 21:29:42.30	69.35	10.10	-45.3	-48.9	14.5	1.50e-06	0	40	0	103809024	61	5703
2026-01-22 21:29:43.30	69.53	10.12	-45.3	-48.9	14.5	0.00e+00	0	40	0	105906176	61	5688
2026-01-22 21:29:44.30	69.71	10.13	-45.3	-48.9	14.5	7.00e-07	0	41	0	108003328	61	5670
2026-01-22 21:29:45.30	69.88	10.14	-45.2	-48.7	14.6	7.00e-07	0	41	0	109051904	61	5576
2026-01-22 21:29:46.30	70.06	10.16	-45.2	-48.7	14.6	0.00e+00	0	41	0	111149056	61	5577
2026-01-22 21:29:47.30	70.24	10.17	-45.3	-48.8	14.6	0.00e+00	0	40	0	113246208	61	5639
2026-01-22 21:29:48.30	70.42	10.18	-45.1	-48.6	14.7	1.50e-06	0	40	0	115343360	61	5513
2026-01-22 21:29:49.30	70.60	10.19	-45.1	-48.6	14.6	0.00e+00	0	40	0	116391936	61	5492
2026-01-22 21:29:50.30	70.78	10.21	-45.0	-48.4	14.9	0.00e+00	0	41	0	118489088	61	5393
2026-01-22 21:29:51.30	70.96	10.22	-45.1	-48.6	14.8	0.00e+00	0	40	0	120586240	61	5475
2026-01-22 21:29:52.30	71.13	10.23	-45.0	-48.4	15.0	0.00e+00	0	41	0	122683392	61	5365
2026-01-22 21:29:53.30	71.31	10.24	-45.1	-48.5	14.9	0.00e+00	0	40	0	124780544	61	5457
2026-01-22 21:29:54.30	71.49	10.25	-45.0	-48.5	14.9	0.00e+00	0	40	0	125829120	61	5443
2026-01-22 21:29:55.30	71.67	10.26	-45.1	-48.7	14.7	1.50e-06	0	41	0	127926272	61	5533
2026-01-22 21:29:56.30	71.85	10.27	-45.2	-48.7	14.7	0.00e+00	0	41	0	130023424	61	5578
2026-01-22 21:29:57.30	72.03	10.28	-45.2	-48.8	14.7	0.00e+00	0	41	0	132120576	61	5595
2026-01-22 21:29:58.31	72.21	10.29	-45.1	-48.6	14.8	0.00e+00	0	40	0	134217728	61	5502
2026-01-22 21:29:59.31	72.39	10.30	-45.1	-48.6	14.8	7.00e-07	0	41	0	135266304	61	5520
2026-01-22 21:30:00.31	72.57	10.31	-45.0	-48.4	15.0	0.00e+00	0	41	0	137363456	61	5388
2026-01-22 21:30:01.31	72.75	10.32	-44.8	-48.1	15.3	7.00e-07	0	41	0	139460608	61	5211
2026-01-22 21:30:02.31	72.93	10.33	-44.8	-48.1	15.3	0.00e+00	0	40	0	141557760	61	5196
2026-01-22 21:30:03.31	73.11	10.34	-44.9	-48.2	15.2	0.00e+00	0	40	0	142606336	61	5254
2026-01-22 21:30:04.31	73.29	10.35	-44.9	-48.2	15.2	0.00e+00	0	41	0	144703488	61	5239
2026-01-22 21:30:05.32	73.48	10.36	-44.8	-48.0	15.4	0.00e+00	0	41	0	146800640	61	5141
2026-01-22 21:30:06.32	73.66	10.36	-44.6	-47.8	15.5	0.00e+00	0	41	0	148897792	61	5037
2026-01-22 21:30:07.32	73.84	10.37	-44.7	-48.0	15.4	0.00e+00	0	40	0	150994944	61	5128
2026-01-22 21:30:08.32	74.02	10.38	-44.6	-47.9	15.5	0.00e+00	0	40	0	152043520	61	5055
2026-01-22 21:30:09.33	74.20	10.39	-44.7	-48.0	15.4	0.00e+00	0	40	0	154140672	61	5123
2026-01-22 21:30:10.33	74.38	10.39	-44.6	-47.8	15.6	0.00e+00	0	40	0	156237824	61	5024
2026-01-22 21:30:11.33	74.56	10.40	-44.5	-47.8	15.6	0.00e+00	0	41	0	158334976	61	5027
2026-01-22 21:30:12.33	74.74	10.41	-44.6	-47.9	15.6	0.00e+00	0	40	0	160432128	61	5045
2026-01-22 21:30:13.34	74.93	10.41	-44.6	-47.9	15.5	0.00e+00	0	40	0	161480704	61	5085
2026-01-22 21:30:14.34	75.11	10.42	-44.7	-48.0	15.4	0.00e+00	0	41	0	163577856	61	5107
2026-01-22 21:30:15.34	75.29	10.42	-44.8	-48.1	15.3	0.00e+00	0	41	0	165675008	61	5171
2026-01-22 21:30:16.34	75.47	10.43	-44.8	-48.2	15.2	0.00e+00	0	40	0	167772160	61	5246
2026-01-22 21:30:17.34	75.65	10.43	-44.8	-48.1	15.3	0.00e+00	0	40	0	169869312	61	5185
2026-01-22 21:30:18.34	75.83	10.44	-44.8	-48.1	15.3	0.00e+00	0	41	0	170917888	61	5211
2026-01-22 21:30:19.34	76.02	10.44	-44.9	-48.1	15.3	0.00e+00	0	40	0	173015040	61	5213
2026-01-22 21:30:20.34	76.20	10.45	-44.8	-48.0	15.3	0.00e+00	0	41	0	175112192	61	5148
2026-01-22 21:30:21.34	76.38	10.45	-44.7	-47.9	15.5	0.00e+00	0	41	0	177209344	61	5097
2026-01-22 21:30:22.34	76.56	10.46	-44.7	-47.9	15.5	0.00e+00	0	40	0	179306496	61	5090
2026-01-22 21:30:23.35	76.74	10.46	-44.5	-47.7	15.7	0.00e+00	0	41	0	180355072	61	4940
2026-01-22 21:30:24.35	76.93	10.46	-44.3	-47.4	16.0	0.00e+00	0	41	0	182452224	60	5056
2026-01-22 21:30:25.35	77.11	10.47	-44.2	-47.2	16.2	0.00e+00	0	41	0	184549376	60	4964
2026-01-22 21:30:26.35	77.29	10.47	-44.1	-47.1	16.3	0.00e+00	0	41	0	186646528	60	4895
2026-01-22 21:30:27.35	77.47	10.47	-44.0	-47.0	16.4	0.00e+00	0	41	0	187695104	60	4835
2026-01-22 21:30:28.35	77.65	10.48	-44.0	-46.9	16.5	0.00e+00	0	41	0	189792256	59	5066
2026-01-22 21:30:29.36	77.84	10.48	-44.0	-46.9	16.4	0.00e+00	0	41	0	191889408	59	5088
2026-01-22 21:30:30.36	78.02	10.48	-44.0	-47.0	16.4	0.00e+00	0	41	0	193986560	59	5111
2026-01-22 21:30:31.36	78.20	10.48	-44.1	-47.1	16.3	0.00e+00	0	41	0	196083712	59	5168
2026-01-22 21:30:32.36	78.38	10.48	-44.0	-46.9	16.5	0.00e+00	0	40	0	197132288	59	5080
2026-01-22 21:30:33.36	78.57	10.48	-44.0	-46.9	16.5	0.00e+00	0	40	0	199229440	59	5075
2026-01-22 21:30:34.36	78.75	10.48	-44.0	-46.9	16.5	0.00e+00	0	41	0	201326592	59	5085
2026-01-22 21:30:35.36	78.93	10.48	-43.9	-46.8	16.6	0.00e+00	0	41	0	203423744	59	5031
2026-01-22 21:30:36.37	79.12	10.49	-43.7	-46.5	16.8	0.00e+00	0	41	0	205520896	59	4852
2026-01-22 21:30:37.37	79.30	10.49	-43.7	-46.4	16.9	0.00e+00	0	41	0	206569472	59	4811
2026-01-22 21:30:38.37	79.48	10.49	-43.7	-46.5	16.9	0.00e+00	0	41	0	208666624	59	4836
2026-01-22 21:30:39.37	79.66	10.48	-43.6	-46.3	17.0	0.00e+00	0	41	0	210763776	59	4738
2026-01-22 21:30:40.37	79.84	10.48	-43.5	-46.2	17.1	0.00e+00	0	40	0	212860928	58	4977
2026-01-22 21:30:41.38	80.03	10.48	-43.6	-46.4	17.1	0.00e+00	0	41	0	214958080	58	5044
2026-01-22 21:30:42.38	80.21	10.48	-43.6	-46.4	17.0	0.00e+00	0	41	0	216006656	58	5075
2026-01-22 21:30:43.38	80.39	10.48	-43.6	-46.4	17.0	0.00e+00	0	41	0	218103808	58	5081
2026-01-22 21:30:44.38	80.58	10.48	-43.6	-46.4	16.9	0.00e+00	0	41	0	220200960	58	5074
2026-01-22 21:30:45.38	80.76	10.48	-43.7	-46.5	16.9	0.00e+00	0	40	0	222298112	58	5129
2026-01-22 21:30:46.38	80.94	10.47	-43.8	-46.6	16.8	0.00e+00	0	41	0	223346688	58	5199
2026-01-22 21:30:47.38	81.12	10.47	-43.8	-46.6	16.7	0.00e+00	0	41	0	225443840	58	5215
2026-01-22 21:30:48.39	81.31	10.47	-43.8	-46.7	16.7	0.00e+00	0	41	0	227540992	58	5229
2026-01-22 21:30:49.39	81.49	10.47	-43.7	-46.6	16.8	0.00e+00	0	40	0	229638144	58	5201
2026-01-22 21:30:50.39	81.67	10.46	-43.7	-46.6	16.7	0.00e+00	0	41	0	231735296	58	5213
2026-01-22 21:30:51.39	81.85	10.46	-43.7	-46.6	16.8	0.00e+00	0	41	0	233832448	58	5191
2026-01-22 21:30:52.39	82.03	10.46	-43.7	-46.6	16.8	0.00e+00	0	41	0	234881024	58	5206
2026-01-22 21:30:53.39	82.22	10.45	-43.7	-46.6	16.8	0.00e+00	0	40	0	236978176	58	5169
2026-01-22 21:30:54.40	82.40	10.45	-43.7	-46.6	16.8	0.00e+00	0	41	0	239075328	58	5182
2026-01-22 21:30:55.40	82.58	10.44	-43.8	-46.7	16.7	0.00e+00	0	41	0	241172480	58	5228
2026-01-22 21:30:56.40	82.76	10.44	-43.7	-46.6	16.8	0.00e+00	0	41	0	242221056	58	5167
2026-01-22 21:30:57.40	82.94	10.43	-43.7	-46.6	16.8	0.00e+00	0	40	0	244318208	58	5172
2026-01-22 21:30:58.40	83.13	10.43	-43.7	-46.6	16.8	0.00e+00	0	41	0	246415360	58	5182
2026-01-22 21:30:59.41	83.31	10.42	-43.7	-46.6	16.8	0.00e+00	0	41	0	248512512	58	5197
2026-01-22 21:31:00.40	83.49	10.42	-43.7	-46.6	16.8	0.00e+00	0	41	0	250609664	58	5214
2026-01-22 21:31:01.40	83.67	10.41	-43.7	-46.6	16.7	0.00e+00	0	40	0	251658240	58	5214
2026-01-22 21:31:02.40	83.85	10.41	-43.7	-46.6	16.7	0.00e+00	0	41	0	253755392	58	5217
2026-01-22 21:31:03.41	84.04	10.40	-43.7	-46.6	16.8	0.00e+00	0	41	0	255852544	58	5206
2026-01-22 21:31:04.41	84.22	10.39	-43.7	-46.6	16.8	0.00e+00	0	41	0	257949696	58	5215
2026-01-22 21:31:05.41	84.40	10.38	-43.7	-46.6	16.8	0.00e+00	0	41	0	260046848	58	5174
2026-01-22 21:31:06.41	84.58	10.38	-43.7	-46.5	16.9	0.00e+00	0	41	0	261095424	58	5137
2026-01-22 21:31:07.41	84.76	10.37	-43.7	-46.6	16.8	0.00e+00	0	41	0	263192576	58	5200
2026-01-22 21:31:08.41	84.94	10.36	-43.7	-46.5	16.8	0.00e+00	0	41	0	265289728	58	5159
2026-01-22 21:31:09.41	85.12	10.35	-43.6	-46.5	16.9	0.00e+00	0	41	0	267386880	58	5120
2026-01-22 21:31:10.41	85.30	10.35	-43.6	-46.4	17.0	0.00e+00	0	41	0	268435456	58	5068
2026-01-22 21:31:11.42	85.49	10.34	-43.6	-46.4	17.0	0.00e+00	0	41	0	270532608	58	5057
2026-01-22 21:31:12.42	85.67	10.33	-43.7	-46.5	16.8	0.00e+00	0	41	0	272629760	58	5132
2026-01-22 21:31:13.42	85.85	10.32	-43.7	-46.6	16.8	0.00e+00	0	41	0	274726912	58	5173
2026-01-22 21:31:14.42	86.03	10.31	-43.6	-46.5	16.9	0.00e+00	0	41	0	276824064	58	5128
2026-01-22 21:31:15.42	86.21	10.30	-43.7	-46.6	16.8	0.00e+00	0	41	0	277872640	58	5196
2026-01-22 21:31:16.42	86.39	10.29	-43.8	-46.6	16.7	0.00e+00	0	41	0	279969792	58	5216
2026-01-22 21:31:17.42	86.57	10.28	-43.7	-46.6	16.8	0.00e+00	0	41	0	282066944	58	5175
2026-01-22 21:31:18.42	86.75	10.27	-43.8	-46.7	16.6	0.00e+00	0	41	0	284164096	58	5248
2026-01-22 21:31:19.42	86.93	10.26	-43.8	-46.7	16.7	0.00e+00	0	41	0	286261248	58	5224
2026-01-22 21:31:20.42	87.11	10.25	-43.8	-46.8	16.6	0.00e+00	0	41	0	287309824	58	5291
2026-01-22 21:31:21.42	87.29	10.24	-44.0	-46.9	16.4	0.00e+00	0	41	0	289406976	58	5389
2026-01-22 21:31:22.42	87.47	10.23	-44.0	-47.0	16.4	0.00e+00	0	40	0	291504128	58	5415
2026-01-22 21:31:23.42	87.64	10.22	-44.0	-47.0	16.4	0.00e+00	0	40	0	293601280	58	5442
2026-01-22 21:31:24.43	87.83	10.20	-44.0	-47.0	16.4	0.00e+00	0	41	0	295698432	58	5413
2026-01-22 21:31:25.42	88.00	10.19	-44.1	-47.1	16.3	0.00e+00	0	41	0	296747008	58	5465
2026-01-22 21:31:26.43	88.18	10.18	-44.1	-47.1	16.3	0.00e+00	0	41	0	298844160	58	5487
2026-01-22 21:31:27.43	88.36	10.17	-43.9	-46.9	16.5	0.00e+00	0	41	0	300941312	58	5342
2026-01-22 21:31:28.43	88.54	10.15	-43.9	-46.8	16.6	0.00e+00	0	41	0	303038464	58	5281
2026-01-22 21:31:29.43	88.72	10.14	-43.8	-46.7	16.7	0.00e+00	0	41	0	304087040	58	5229
2026-01-22 21:31:30.43	88.90	10.13	-43.7	-46.5	16.9	0.00e+00	0	41	0	306184192	58	5153
2026-01-22 21:31:31.43	89.08	10.12	-43.6	-46.5	16.9	0.00e+00	0	41	0	308281344	58	5102
2026-01-22 21:31:32.43	89.25	10.10	-43.8	-46.6	16.7	0.00e+00	0	41	0	310378496	58	5207
2026-01-22 21:31:33.44	89.43	10.09	-43.7	-46.6	16.8	0.00e+00	0	41	0	312475648	58	5170
2026-01-22 21:31:34.43	89.61	10.07	-43.9	-46.8	16.6	0.00e+00	0	41	0	313524224	58	5290
2026-01-22 21:31:35.44	89.79	10.06	-43.9	-46.8	16.6	0.00e+00	0	41	0	315621376	58	5283
2026-01-22 21:31:36.44	89.97	10.04	-43.9	-46.9	16.5	0.00e+00	0	41	0	317718528	58	5356
2026-01-22 21:31:37.44	90.14	10.03	-43.9	-46.9	16.5	0.00e+00	0	41	0	319815680	58	5348
2026-01-22 21:31:38.44	90.32	10.02	-43.9	-46.9	16.5	0.00e+00	0	41	0	321912832	58	5342
2026-01-22 21:31:39.44	90.50	10.00	-43.9	-46.8	16.6	0.00e+00	0	41	0	322961408	58	5309
2026-01-22 21:31:40.44	90.67	9.98	-43.9	-46.8	16.5	0.00e+00	0	41	0	325058560	58	5338
2026-01-22 21:31:41.44	90.85	9.97	-43.9	-46.8	16.5	0.00e+00	0	41	0	327155712	58	5333
2026-01-22 21:31:42.45	91.03	9.95	-44.0	-46.9	16.4	0.00e+00	0	40	0	329252864	58	5392
2026-01-22 21:31:43.45	91.20	9.94	-44.0	-46.9	16.5	0.00e+00	0	41	0	331350016	58	5391
2026-01-22 21:31:44.45	91.38	9.92	-44.0	-46.9	16.5	0.00e+00	0	41	0	332398592	58	5344
2026-01-22 21:31:45.45	91.55	9.90	-43.9	-46.7	16.7	0.00e+00	0	41	0	334495744	58	5267
2026-01-22 21:31:46.45	91.73	9.89	-43.9	-46.8	16.6	0.00e+00	0	41	0	336592896	58	5280
2026-01-22 21:31:47.45	91.91	9.87	-43.8	-46.7	16.7	0.00e+00	0	41	0	338690048	58	5226
2026-01-22 21:31:48.45	92.08	9.85	-43.7	-46.5	16.8	0.00e+00	0	41	0	340787200	58	5130
2026-01-22 21:31:49.45	92.26	9.83	-43.7	-46.5	16.8	0.00e+00	0	41	0	341835776	58	5122
2026-01-22 21:31:50.46	92.43	9.82	-43.8	-46.6	16.8	0.00e+00	0	41	0	343932928	58	5186
2026-01-22 21:31:51.46	92.61	9.80	-43.8	-46.7	16.7	0.00e+00	0	41	0	346030080	58	5236
2026-01-22 21:31:52.46	92.78	9.78	-43.7	-46.5	16.8	0.00e+00	0	41	0	348127232	58	5151
2026-01-22 21:31:53.46	92.95	9.76	-43.7	-46.5	16.9	0.00e+00	0	41	0	349175808	58	5121
2026-01-22 21:31:54.46	93.13	9.74	-43.7	-46.5	16.8	0.00e+00	0	41	0	351272960	58	5122
2026-01-22 21:31:55.46	93.30	9.72	-43.7	-46.5	16.8	0.00e+00	0	41	0	353370112	58	5153
2026-01-22 21:31:56.46	93.48	9.71	-43.7	-46.6	16.8	0.00e+00	0	41	0	355467264	58	5175
2026-01-22 21:31:57.46	93.65	9.69	-43.8	-46.6	16.7	0.00e+00	0	41	0	357564416	58	5209
2026-01-22 21:31:58.46	93.82	9.67	-43.8	-46.7	16.6	0.00e+00	0	41	0	358612992	58	5257
2026-01-22 21:31:59.46	93.99	9.65	-43.9	-46.8	16.6	0.00e+00	0	41	0	360710144	58	5291
2026-01-22 21:32:00.46	94.17	9.63	-43.9	-46.8	16.5	0.00e+00	0	41	0	362807296	58	5324
2026-01-22 21:32:01.46	94.34	9.61	-44.0	-47.0	16.3	0.00e+00	0	41	0	364904448	58	5421
2026-01-22 21:32:02.47	94.51	9.59	-43.9	-46.8	16.5	0.00e+00	0	41	0	367001600	58	5318
2026-01-22 21:32:03.47	94.69	9.57	-43.8	-46.7	16.6	0.00e+00	0	41	0	368050176	58	5240
2026-01-22 21:32:04.47	94.86	9.55	-43.9	-46.7	16.6	0.00e+00	0	41	0	370147328	58	5274
2026-01-22 21:32:05.47	95.03	9.52	-43.9	-46.8	16.6	0.00e+00	0	41	0	372244480	58	5281
2026-01-22 21:32:06.47	95.20	9.50	-43.8	-46.7	16.6	0.00e+00	0	41	0	374341632	58	5255
2026-01-22 21:32:07.46	95.37	9.48	-43.9	-46.8	16.5	0.00e+00	0	41	0	375390208	58	5333
2026-01-22 21:32:08.46	95.54	9.46	-43.9	-46.9	16.4	0.00e+00	0	41	0	377487360	58	5347
2026-01-22 21:32:09.46	95.71	9.44	-43.9	-46.9	16.4	0.00e+00	0	41	0	379584512	58	5362
2026-01-22 21:32:10.46	95.88	9.42	-43.9	-46.9	16.4	0.00e+00	0	41	0	381681664	58	5371
2026-01-22 21:32:11.46	96.05	9.39	-43.9	-46.8	16.5	0.00e+00	0	41	0	383778816	58	5319
2026-01-22 21:32:12.46	96.22	9.37	-43.8	-46.7	16.6	0.00e+00	0	41	0	384827392	58	5246
2026-01-22 21:32:13.46	96.39	9.35	-43.7	-46.6	16.7	0.00e+00	0	41	0	386924544	58	5188
2026-01-22 21:32:14.47	96.56	9.33	-43.6	-46.4	16.9	0.00e+00	0	41	0	389021696	58	5066
2026-01-22 21:32:15.47	96.73	9.30	-43.6	-46.4	16.9	0.00e+00	0	41	0	391118848	58	5070
2026-01-22 21:32:16.47	96.90	9.28	-43.7	-46.5	16.8	0.00e+00	0	41	0	393216000	58	5110
2026-01-22 21:32:17.47	97.07	9.26	-43.7	-46.5	16.8	0.00e+00	0	41	0	394264576	58	5132
2026-01-22 21:32:18.47	97.23	9.23	-43.8	-46.7	16.6	0.00e+00	0	41	0	396361728	58	5230
2026-01-22 21:32:19.48	97.40	9.21	-44.0	-46.9	16.5	0.00e+00	0	41	0	398458880	58	5343
2026-01-22 21:32:20.48	97.57	9.19	-44.1	-47.0	16.3	0.00e+00	0	41	0	400556032	58	5431
2026-01-22 21:32:21.48	97.74	9.16	-44.1	-47.1	16.2	0.00e+00	0	41	0	402653184	58	5468
2026-01-22 21:32:22.48	97.91	9.14	-44.1	-47.1	16.2	0.00e+00	0	41	0	403701760	58	5488
2026-01-22 21:32:23.48	98.07	9.11	-44.1	-47.1	16.1	0.00e+00	0	41	0	405798912	58	5498
2026-01-22 21:32:24.48	98.24	9.09	-44.1	-47.0	16.3	0.00e+00	0	41	0	407896064	58	5463
2026-01-22 21:32:25.48	98.41	9.06	-44.1	-47.1	16.3	0.00e+00	0	41	0	409993216	58	5465
2026-01-22 21:32:26.49	98.57	9.04	-44.1	-47.1	16.2	0.00e+00	0	41	0	412090368	58	5503
2026-01-22 21:32:27.49	98.74	9.01	-44.1	-47.1	16.2	0.00e+00	0	41	0	413138944	58	5491
2026-01-22 21:32:28.48	98.90	8.99	-44.2	-47.3	16.0	0.00e+00	0	41	0	415236096	59	5298
2026-01-22 21:32:29.48	99.07	8.96	-49.6	-64.8	3.8	1.08e+00	0	41	104	416284672	69	22299
2026-01-22 21:32:30.48	99.23	8.94	-49.7	-65.0	3.8	1.49e+00	0	41	104	416284672	70	21671
2026-01-22 21:32:31.47	99.40	8.91	-49.7	-65.1	3.8	1.49e+00	0	41	104	416284672	70	21842
2026-01-22 21:32:32.46	99.56	8.88	-49.7	-65.1	3.8	1.49e+00	0	41	104	416284672	70	21888
2026-01-22 21:32:33.46	99.72	8.86	-49.5	-65.2	3.8	1.49e+00	0	41	104	416284672	70	22099
2026-01-22 21:32:34.45	99.88	8.83	-49.6	-65.2	3.8	1.49e+00	0	41	104	416284672	70	22081
2026-01-22 21:32:35.45	100.05	8.81	-49.6	-65.2	3.8	1.49e+00	0	41	104	416284672	70	22187
2026-01-22 21:32:36.45	100.21	8.78	-49.6	-65.2	3.8	1.49e+00	0	41	104	416284672	70	22247
2026-01-22 21:32:37.44	100.37	8.75	-49.6	-65.3	3.8	1.49e+00	0	41	104	416284672	70	22329
2026-01-22 21:32:38.44	100.54	8.73	-49.6	-65.3	3.8	1.49e+00	0	41	104	416284672	70	22293
2026-01-22 21:32:39.44	100.70	8.70	-49.7	-65.3	3.8	1.49e+00	0	41	104	416284672	70	22405
2026-01-22 21:32:40.43	100.86	8.67	-49.6	-65.3	3.8	1.49e+00	0	41	104	416284672	70	22359
2026-01-22 21:32:41.43	101.02	8.64	-49.7	-65.3	3.8	1.49e+00	0	41	104	416284672	70	22394
2026-01-22 21:32:42.42	101.18	8.62	-49.7	-65.3	3.8	1.49e+00	0	41	104	416284672	70	22343
2026-01-22 21:32:43.42	101.34	8.59	-49.8	-65.3	3.8	1.49e+00	0	41	104	416284672	70	22427
2026-01-22 21:32:44.41	101.50	8.56	-49.9	-65.3	3.8	1.49e+00	0	41	104	416284672	70	22380
2026-01-22 21:32:45.41	101.66	8.53	-49.8	-65.3	3.8	1.49e+00	0	41	104	416284672	70	22452
2026-01-22 21:32:46.41	101.82	8.50	-49.6	-65.3	3.8	1.49e+00	0	41	104	416284672	70	22492
2026-01-22 21:32:47.40	101.98	8.47	-49.7	-65.3	3.8	1.49e+00	0	41	104	416284672	70	22412
2026-01-22 21:32:48.40	102.14	8.45	-49.8	-65.3	3.8	1.49e+00	0	41	104	416284672	70	22380
2026-01-22 21:32:49.39	102.30	8.42	-49.8	-65.3	3.8	1.49e+00	0	41	104	416284672	70	22364
2026-01-22 21:32:50.39	102.46	8.39	-49.9	-65.3	3.8	1.49e+00	0	41	104	416284672	70	22380
2026-01-22 21:32:51.39	102.61	8.36	-49.9	-65.2	3.8	1.49e+00	0	41	104	416284672	70	22258
2026-01-22 21:32:52.38	102.77	8.33	-49.9	-65.2	3.8	1.49e+00	0	41	104	416284672	70	22251
2026-01-22 21:32:53.38	102.93	8.30	-49.9	-65.3	3.8	1.49e+00	0	41	104	416284672	70	22263
2026-01-22 21:32:54.38	103.09	8.27	-49.9	-65.3	3.8	1.49e+00	0	41	104	416284672	70	22313
2026-01-22 21:32:55.37	103.24	8.24	-49.9	-65.2	3.8	1.49e+00	0	41	104	416284672	70	22227
2026-01-22 21:32:56.37	103.40	8.21	-49.9	-65.2	3.8	1.49e+00	0	41	104	416284672	70	22235
2026-01-22 21:32:57.36	103.56	8.18	-49.9	-65.3	3.8	1.49e+00	0	41	104	416284672	70	22286
2026-01-22 21:32:58.36	103.71	8.15	-49.9	-65.2	3.8	1.49e+00	0	41	104	416284672	70	22255
2026-01-22 21:32:59.35	103.87	8.12	-49.9	-65.2	3.8	1.49e+00	0	41	104	416284672	70	22148
2026-01-22 21:33:00.35	104.02	8.09	-49.9	-65.2	3.8	1.49e+00	0	41	104	416284672	70	22216
2026-01-22 21:33:01.35	104.18	8.06	-49.9	-65.2	3.8	1.49e+00	0	41	104	416284672	70	22237
2026-01-22 21:33:02.34	104.33	8.03	-49.9	-65.3	3.8	1.49e+00	0	41	104	416284672	70	22307
2026-01-22 21:33:03.34	104.49	8.00	-49.9	-65.2	3.8	1.49e+00	0	41	104	416284672	70	22252
2026-01-22 21:33:04.34	104.64	7.97	-49.9	-65.3	3.8	1.49e+00	0	41	104	416284672	70	22283
2026-01-22 21:33:05.33	104.80	7.93	-49.9	-65.2	3.8	1.49e+00	0	41	104	416284672	70	22237
2026-01-22 21:33:06.33	104.95	7.90	-49.9	-65.3	3.8	1.49e+00	0	41	104	416284672	70	22282
2026-01-22 21:33:07.33	105.10	7.87	-49.9	-65.2	3.8	1.49e+00	0	41	104	416284672	70	22261
2026-01-22 21:33:08.32	105.26	7.84	-49.9	-65.2	3.8	1.49e+00	0	41	104	416284672	70	22215
2026-01-22 21:33:09.32	105.41	7.81	-49.9	-65.2	3.8	1.49e+00	0	41	104	416284672	70	22258
2026-01-22 21:33:10.32	105.56	7.78	-49.9	-65.2	3.8	1.49e+00	0	41	104	416284672	70	22259
2026-01-22 21:33:11.31	105.71	7.74	-49.9	-65.2	3.8	1.49e+00	0	41	104	416284672	70	22225
2026-01-22 21:33:12.31	105.86	7.71	-49.9	-65.2	3.8	1.49e+00	0	41	104	416284672	70	22210
2026-01-22 21:33:13.31	106.02	7.68	-49.9	-65.2	3.8	1.49e+00	0	41	104	416284672	70	22242
2026-01-22 21:33:14.30	106.17	7.65	-49.9	-65.3	3.8	1.49e+00	0	41	104	416284672	70	22289
2026-01-22 21:33:15.30	106.32	7.61	-49.9	-65.2	3.8	1.49e+00	0	41	104	416284672	70	22250
2026-01-22 21:33:16.30	106.47	7.58	-49.9	-65.2	3.8	1.49e+00	0	41	104	416284672	70	22162
2026-01-22 21:33:17.29	106.62	7.55	-49.9	-65.2	3.8	1.49e+00	0	41	104	416284672	70	22217
2026-01-22 21:33:18.29	106.77	7.52	-49.9	-65.2	3.8	1.49e+00	0	41	104	416284672	70	22244
2026-01-22 21:33:19.29	106.92	7.48	-49.9	-65.2	3.8	1.49e+00	0	41	104	416284672	70	22214
2026-01-22 21:33:20.28	107.06	7.45	-49.9	-65.2	3.8	1.49e+00	0	41	104	416284672	70	22164
2026-01-22 21:33:21.28	107.21	7.42	-49.9	-65.2	3.8	1.49e+00	0	41	104	416284672	70	22227
2026-01-22 21:33:22.28	107.36	7.38	-49.9	-65.3	3.8	1.49e+00	0	41	104	416284672	70	22334
2026-01-22 21:33:23.28	107.51	7.35	-49.9	-65.2	3.8	1.49e+00	0	41	104	416284672	70	22239
2026-01-22 21:33:24.27	107.66	7.32	-49.9	-65.2	3.8	1.49e+00	0	41	104	416284672	70	22167
2026-01-22 21:33:25.27	107.81	7.28	-49.9	-65.2	3.8	1.49e+00	0	41	104	416284672	70	22121
2026-01-22 21:33:26.27	107.95	7.25	-49.9	-65.2	3.8	1.49e+00	0	41	104	416284672	70	22160
2026-01-22 21:33:27.27	108.10	7.21	-49.9	-65.2	3.8	1.49e+00	0	41	104	416284672	70	22158
2026-01-22 21:33:28.26	108.25	7.18	-49.9	-65.2	3.8	1.49e+00	0	41	104	416284672	70	22146
2026-01-22 21:33:29.26	108.39	7.15	-49.9	-65.2	3.8	1.49e+00	0	41	104	416284672	70	22131
2026-01-22 21:33:30.26	108.54	7.11	-49.8	-65.2	3.8	1.49e+00	0	41	104	416284672	70	22207
2026-01-22 21:33:31.25	108.68	7.08	-49.9	-65.2	3.8	1.49e+00	0	41	104	416284672	70	22173
2026-01-22 21:33:32.25	108.83	7.04	-49.9	-65.2	3.8	1.49e+00	0	41	104	416284672	70	22191
2026-01-22 21:33:33.24	108.97	7.01	-49.9	-65.2	3.8	1.49e+00	0	41	104	416284672	70	22196
2026-01-22 21:33:34.24	109.12	6.97	-49.9	-65.2	3.8	1.49e+00	0	41	104	416284672	70	22134
2026-01-22 21:33:35.24	109.26	6.94	-49.9	-65.2	3.8	1.49e+00	0	41	104	416284672	70	22167
2026-01-22 21:33:36.24	109.41	6.90	-49.8	-65.2	3.8	1.49e+00	0	41	104	416284672	70	22205
2026-01-22 21:33:37.23	109.55	6.87	-49.9	-65.2	3.8	1.49e+00	0	41	104	416284672	70	22230
2026-01-22 21:33:38.23	109.69	6.83	-49.9	-65.2	3.8	1.49e+00	0	41	104	416284672	70	22101
2026-01-22 21:33:39.23	109.84	6.80	-49.9	-65.2	3.8	1.49e+00	0	41	104	416284672	70	22170
2026-01-22 21:33:40.22	109.98	6.76	-49.9	-65.2	3.8	1.49e+00	0	41	104	416284672	70	22137
2026-01-22 21:33:41.22	110.12	6.73	-49.9	-65.2	3.8	1.49e+00	0	41	104	416284672	70	22122
2026-01-22 21:33:42.21	110.26	6.69	-49.9	-65.2	3.8	1.49e+00	0	41	104	416284672	70	22168
2026-01-22 21:33:43.21	110.40	6.66	-49.9	-65.2	3.8	1.49e+00	0	41	104	416284672	70	22115
2026-01-22 21:33:44.20	110.54	6.62	-49.9	-65.2	3.8	1.49e+00	0	41	104	416284672	70	22164
2026-01-22 21:33:45.19	110.68	6.58	-49.9	-65.2	3.8	1.49e+00	0	41	104	416284672	70	22190
2026-01-22 21:33:46.19	110.82	6.55	-49.9	-65.2	3.8	1.49e+00	0	41	104	416284672	70	22140
2026-01-22 21:33:47.19	110.96	6.51	-49.9	-65.2	3.8	1.49e+00	0	41	104	416284672	70	22121
2026-01-22 21:33:48.18	111.10	6.48	-49.9	-65.2	3.8	1.49e+00	0	41	104	416284672	70	22122
2026-01-22 21:33:49.18	111.24	6.44	-49.9	-65.2	3.8	1.49e+00	0	41	104	416284672	70	22161
2026-01-22 21:33:50.17	111.38	6.40	-49.9	-65.2	3.8	1.49e+00	0	41	104	416284672	70	22128
2026-01-22 21:33:51.17	111.52	6.37	-49.9	-65.2	3.8	1.49e+00	0	41	104	416284672	70	22097
2026-01-22 21:33:52.16	111.66	6.33	-49.9	-65.2	3.8	1.49e+00	0	41	104	416284672	70	22212
2026-01-22 21:33:53.15	111.79	6.29	-49.9	-65.2	3.8	1.49e+00	0	41	104	416284672	70	22140
2026-01-22 21:33:54.15	111.93	6.26	-49.9	-65.2	3.8	1.49e+00	0	41	104	416284672	70	22162
2026-01-22 21:33:55.14	112.07	6.22	-49.9	-65.2	3.8	1.49e+00	0	41	104	416284672	70	22220
2026-01-22 21:33:56.14	112.21	6.18	-49.9	-65.2	3.8	1.49e+00	0	41	104	416284672	70	22235
2026-01-22 21:33:57.13	112.34	6.15	-49.9	-65.2	3.8	1.49e+00	0	41	104	416284672	70	22247
2026-01-22 21:33:58.13	112.48	6.11	-49.9	-65.3	3.8	1.49e+00	0	41	104	416284672	70	22270
2026-01-22 21:33:59.12	112.61	6.07	-49.9	-65.2	3.8	1.49e+00	0	41	104	416284672	70	22186
2026-01-22 21:34:00.12	112.75	6.04	-49.9	-65.2	3.8	1.49e+00	0	41	104	416284672	70	22148
2026-01-22 21:34:01.11	112.89	6.00	-49.9	-65.2	3.8	1.49e+00	0	41	104	416284672	70	22193
2026-01-22 21:34:02.11	113.02	5.96	-49.9	-65.2	3.8	1.49e+00	0	41	104	416284672	70	22165
2026-01-22 21:34:03.11	113.16	5.92	-49.9	-65.2	3.8	1.49e+00	0	41	104	416284672	70	22084
2026-01-22 21:34:04.10	113.29	5.89	-49.9	-65.2	3.8	1.49e+00	0	41	104	416284672	70	22226
2026-01-22 21:34:05.10	113.42	5.85	-49.9	-65.2	3.8	1.49e+00	0	41	104	416284672	70	22150
2026-01-22 21:34:06.10	113.56	5.81	-49.9	-65.2	3.8	1.49e+00	0	41	104	416284672	70	22146
2026-01-22 21:34:07.09	113.69	5.77	-49.9	-65.2	3.8	1.49e+00	0	41	104	416284672	70	22113
2026-01-22 21:34:08.09	113.82	5.73	-49.9	-65.2	3.8	1.49e+00	0	41	104	416284672	70	22206
2026-01-22 21:34:09.08	113.96	5.70	-49.8	-65.2	3.8	1.49e+00	0	41	104	416284672	70	22133
2026-01-22 21:34:10.08	114.09	5.66	-49.9	-65.2	3.8	1.49e+00	0	41	104	416284672	70	22114
2026-01-22 21:34:11.07	114.22	5.62	-49.9	-65.2	3.8	1.49e+00	0	41	104	416284672	70	22213
2026-01-22 21:34:12.07	114.35	5.58	-49.9	-65.2	3.8	1.49e+00	0	41	104	416284672	70	22191
2026-01-22 21:34:13.07	114.48	5.54	-49.9	-65.2	3.8	1.49e+00	0	41	104	416284672	70	22198
2026-01-22 21:34:14.06	114.61	5.51	-49.9	-65.2	3.8	1.49e+00	0	41	104	416284672	70	22187
2026-01-22 21:34:15.06	114.75	5.47	-49.9	-
