passes_logs/2026/01/22/T1/T1__20260122_091523_NOAA_20_JPSS-1_rec.log

#Pass ID: 20260122_091523_NOAA 20 (JPSS-1)
#Satellite: NOAA 20 (JPSS-1)
#Configuration: NOAA 20
#almurnet v.1.7.20251203
#Start time: 2026-01-22 09:15:23

#Version: 2.0.20230620
#Station: T1
#Location: 37.570604 lon 55.790049 lat
#TLE: 1 43013U 17073A   26021.46221703  .00000173  00000+0  10299-3 0  9999
#TLE: 2 43013  98.7644 322.3335 0001238  29.7597 330.3649 14.19538314423652

#Time	Az	El	Level	Level2	SNR	BER	BlckErr	Temp	State	Recorded	gain1	gain2
2026-01-22 09:15:23.97	139.17	5.01	-49.8	-65.1	3.8	1.49e+00	0	35	0	0	71	20772
2026-01-22 09:15:24.96	139.13	5.08	-49.9	-65.1	3.8	1.49e+00	0	35	104	0	71	20744
2026-01-22 09:15:25.96	139.10	5.15	-49.9	-65.1	3.8	1.49e+00	0	35	104	0	71	20669
2026-01-22 09:15:26.95	139.06	5.22	-49.9	-65.1	3.8	1.49e+00	0	35	104	0	71	20646
2026-01-22 09:15:27.95	139.03	5.29	-49.8	-65.1	3.8	1.49e+00	0	35	104	0	71	20589
2026-01-22 09:15:28.95	138.99	5.36	-49.8	-65.0	3.8	1.49e+00	0	35	104	0	71	20429
2026-01-22 09:15:29.95	138.96	5.44	-49.9	-65.0	3.8	1.49e+00	0	35	104	0	71	20452
2026-01-22 09:15:30.95	138.92	5.51	-49.8	-65.0	3.8	1.49e+00	0	36	104	0	71	20419
2026-01-22 09:15:31.95	138.88	5.58	-49.8	-64.9	3.8	1.49e+00	0	36	104	0	71	20253
2026-01-22 09:15:32.94	138.85	5.65	-49.9	-64.9	3.8	1.49e+00	0	35	104	0	71	20246
2026-01-22 09:15:33.94	138.81	5.72	-49.8	-64.9	3.8	1.49e+00	0	35	104	0	71	20108
2026-01-22 09:15:34.94	138.78	5.79	-49.8	-64.8	3.8	1.49e+00	0	36	104	0	71	19922
2026-01-22 09:15:35.93	138.74	5.86	-49.8	-64.7	3.8	1.49e+00	0	36	104	0	71	19733
2026-01-22 09:15:36.93	138.70	5.94	-49.8	-64.6	3.8	1.49e+00	0	36	104	0	71	19527
2026-01-22 09:15:37.93	138.67	6.01	-49.8	-64.4	3.8	1.49e+00	0	36	104	0	71	19159
2026-01-22 09:15:38.93	138.63	6.08	-49.8	-64.3	3.8	1.49e+00	0	36	104	0	71	18762
2026-01-22 09:15:39.92	138.59	6.15	-49.8	-64.1	3.8	1.49e+00	0	36	104	0	71	18383
2026-01-22 09:15:40.92	138.55	6.23	-49.8	-64.0	3.8	1.49e+00	0	36	104	0	71	18201
2026-01-22 09:15:41.92	138.52	6.30	-49.8	-64.0	3.8	1.49e+00	0	36	104	0	71	18113
2026-01-22 09:15:42.91	138.48	6.37	-49.8	-63.9	3.8	1.49e+00	0	36	104	0	71	17969
2026-01-22 09:15:43.92	138.44	6.45	-49.8	-64.0	3.8	1.49e+00	0	36	104	0	71	18134
2026-01-22 09:15:44.91	138.40	6.52	-49.8	-64.1	3.8	1.49e+00	0	36	104	0	71	18510
2026-01-22 09:15:45.92	138.36	6.59	-49.8	-64.4	3.8	1.49e+00	0	36	104	0	71	19031
2026-01-22 09:15:46.92	138.32	6.67	-49.8	-64.7	3.8	1.49e+00	0	36	104	0	71	19810
2026-01-22 09:15:47.92	138.29	6.74	-49.8	-64.9	3.8	1.49e+00	0	36	104	0	71	20279
2026-01-22 09:15:48.91	138.25	6.82	-49.9	-65.1	3.8	1.49e+00	0	36	104	0	71	20656
2026-01-22 09:15:49.92	138.21	6.89	-49.8	-65.1	3.8	1.49e+00	0	36	104	0	71	20645
2026-01-22 09:15:50.92	138.17	6.97	-49.8	-64.9	3.8	1.49e+00	0	36	104	0	71	20262
2026-01-22 09:15:51.91	138.13	7.04	-49.8	-64.6	3.8	1.49e+00	0	36	104	0	71	19493
2026-01-22 09:15:52.91	138.09	7.12	-49.8	-64.2	3.8	1.49e+00	0	36	104	0	71	18570
2026-01-22 09:15:53.91	138.05	7.19	-49.8	-63.6	3.8	1.49e+00	0	36	104	0	71	17401
2026-01-22 09:15:54.91	138.01	7.27	-49.7	-63.1	3.8	1.49e+00	0	36	104	0	71	16424
2026-01-22 09:15:55.91	137.97	7.34	-49.7	-62.7	3.8	1.48e+00	0	36	104	0	71	15612
2026-01-22 09:15:56.90	137.92	7.42	-49.7	-62.1	3.9	1.47e+00	0	36	104	0	71	14624
2026-01-22 09:15:57.90	137.88	7.50	-49.6	-61.3	4.3	1.40e+00	0	36	0	0	71	13319
2026-01-22 09:15:58.90	137.84	7.57	-49.5	-60.3	4.7	1.22e+00	0	36	0	1048576	71	11824
2026-01-22 09:15:59.89	137.80	7.65	-49.3	-58.9	5.4	6.56e-01	0	36	0	3145728	70	10718
2026-01-22 09:16:00.89	137.76	7.73	-49.0	-57.3	6.6	3.24e-01	0	36	0	4194304	70	8915
2026-01-22 09:16:01.90	137.72	7.80	-48.7	-55.9	7.9	1.44e-01	0	36	0	6291456	69	7994
2026-01-22 09:16:02.89	137.67	7.88	-48.3	-54.5	9.3	2.63e-02	0	36	0	8388608	68	7232
2026-01-22 09:16:03.89	137.63	7.96	-47.6	-52.9	10.8	5.44e-03	0	36	0	10485760	67	6363
2026-01-22 09:16:04.89	137.59	8.04	-47.1	-51.8	11.8	1.14e-03	0	36	0	12582912	66	5979
2026-01-22 09:16:05.89	137.54	8.11	-46.7	-50.9	12.8	1.88e-04	0	37	0	13631488	65	5721
2026-01-22 09:16:06.88	137.50	8.19	-46.2	-50.1	13.6	9.90e-06	0	36	0	15728640	64	5496
2026-01-22 09:16:07.88	137.46	8.27	-46.0	-49.8	14.1	4.50e-06	0	37	0	17825792	63	5594
2026-01-22 09:16:08.88	137.41	8.35	-45.8	-49.4	14.4	0.00e+00	0	36	0	19922944	63	5376
2026-01-22 09:16:09.88	137.37	8.43	-45.7	-49.2	14.6	0.00e+00	0	36	0	22020096	63	5278
2026-01-22 09:16:10.88	137.33	8.51	-45.6	-49.1	14.8	7.00e-07	0	37	0	23068672	63	5171
2026-01-22 09:16:11.88	137.28	8.59	-45.9	-49.6	14.3	1.50e-06	0	37	0	25165824	63	5477
2026-01-22 09:16:12.87	137.24	8.67	-46.2	-50.0	13.8	1.50e-06	0	36	0	27262976	63	5775
2026-01-22 09:16:13.87	137.19	8.75	-46.5	-50.5	13.4	2.20e-06	0	37	0	29360128	63	6097
2026-01-22 09:16:14.87	137.15	8.83	-46.8	-51.3	12.5	4.27e-05	0	36	0	31457280	64	6294
2026-01-22 09:16:15.87	137.10	8.91	-47.3	-52.3	11.4	3.45e-04	0	37	0	32505856	65	6660
2026-01-22 09:16:16.87	137.05	8.99	-47.8	-53.5	10.2	3.96e-03	0	37	0	34603008	66	7213
2026-01-22 09:16:17.86	137.01	9.07	-48.3	-54.9	8.7	2.03e-02	0	37	0	36700160	67	8044
2026-01-22 09:16:18.86	136.96	9.15	-45.5	-49.0	14.8	1.45e-02	0	37	0	38797312	63	5129
2026-01-22 09:16:19.85	136.92	9.23	-48.6	-55.7	8.1	5.30e-06	0	37	0	39845888	67	8803
2026-01-22 09:16:20.85	136.87	9.31	-48.6	-55.8	8.1	4.94e-02	0	37	0	41943040	68	8382
2026-01-22 09:16:21.85	136.82	9.39	-46.0	-49.7	14.1	1.69e-02	0	37	0	44040192	63	5591
2026-01-22 09:16:22.84	136.77	9.48	-49.5	-60.8	4.5	9.52e-04	0	37	0	46137344	69	14084
2026-01-22 09:16:23.85	136.73	9.56	-46.2	-50.1	13.6	8.21e-02	0	37	0	46137344	64	5515
2026-01-22 09:16:24.84	136.68	9.64	-45.3	-48.6	15.3	0.00e+00	0	37	0	48234496	62	5187
2026-01-22 09:16:25.84	136.63	9.72	-44.9	-48.0	16.0	0.00e+00	0	37	0	49283072	61	5119
2026-01-22 09:16:26.84	136.58	9.81	-44.9	-47.9	16.0	0.00e+00	0	37	0	51380224	61	5100
2026-01-22 09:16:27.84	136.53	9.89	-44.8	-47.9	16.1	0.00e+00	0	37	0	53477376	61	5065
2026-01-22 09:16:28.84	136.48	9.97	-44.9	-48.0	16.0	0.00e+00	0	37	0	55574528	61	5132
2026-01-22 09:16:29.84	136.43	10.06	-44.9	-47.9	16.0	0.00e+00	0	37	0	57671680	61	5080
2026-01-22 09:16:30.84	136.38	10.14	-44.7	-47.7	16.3	0.00e+00	0	37	0	58720256	61	4938
2026-01-22 09:16:31.84	136.33	10.23	-44.8	-47.8	16.2	0.00e+00	0	37	0	60817408	61	5015
2026-01-22 09:16:32.84	136.28	10.31	-44.6	-47.6	16.4	0.00e+00	0	37	0	62914560	61	4892
2026-01-22 09:16:33.83	136.23	10.40	-44.5	-47.4	16.6	0.00e+00	0	37	0	65011712	61	4772
2026-01-22 09:16:34.83	136.18	10.48	-44.4	-47.2	16.8	0.00e+00	0	37	0	67108864	60	4956
2026-01-22 09:16:35.83	136.13	10.57	-44.4	-47.2	16.7	0.00e+00	0	37	0	68157440	60	4963
2026-01-22 09:16:36.83	136.08	10.65	-44.2	-47.0	16.9	0.00e+00	0	37	0	70254592	60	4854
2026-01-22 09:16:37.82	136.03	10.74	-44.2	-47.0	17.0	0.00e+00	0	37	0	72351744	60	4830
2026-01-22 09:16:38.82	135.97	10.83	-44.3	-47.1	16.9	0.00e+00	0	37	0	74448896	60	4871
2026-01-22 09:16:39.82	135.92	10.91	-44.2	-47.0	17.0	0.00e+00	0	37	0	75497472	60	4819
2026-01-22 09:16:40.82	135.87	11.00	-44.1	-46.8	17.2	0.00e+00	0	37	0	77594624	60	4728
2026-01-22 09:16:41.82	135.81	11.09	-44.1	-46.8	17.2	0.00e+00	0	37	0	79691776	60	4726
2026-01-22 09:16:42.82	135.76	11.17	-44.3	-47.0	17.0	0.00e+00	0	37	0	81788928	60	4854
2026-01-22 09:16:43.81	135.71	11.26	-44.1	-46.9	17.1	0.00e+00	0	37	0	83886080	60	4777
2026-01-22 09:16:44.81	135.65	11.35	-44.3	-47.1	16.9	0.00e+00	0	37	0	84934656	60	4900
2026-01-22 09:16:45.81	135.60	11.44	-44.4	-47.2	16.8	0.00e+00	0	37	0	87031808	60	4943
2026-01-22 09:16:46.81	135.54	11.53	-44.4	-47.2	16.8	0.00e+00	0	37	0	89128960	60	4969
2026-01-22 09:16:47.81	135.49	11.62	-44.4	-47.3	16.7	0.00e+00	0	37	0	91226112	60	5010
2026-01-22 09:16:48.80	135.43	11.70	-44.4	-47.3	16.8	0.00e+00	0	37	0	92274688	60	4987
2026-01-22 09:16:49.80	135.37	11.79	-44.3	-47.1	16.9	0.00e+00	0	37	0	94371840	60	4918
2026-01-22 09:16:50.80	135.32	11.88	-44.3	-47.1	16.9	0.00e+00	0	37	0	96468992	60	4897
2026-01-22 09:16:51.80	135.26	11.97	-44.1	-46.8	17.2	0.00e+00	0	37	0	98566144	60	4745
2026-01-22 09:16:52.80	135.20	12.07	-43.9	-46.6	17.5	0.00e+00	0	37	0	100663296	59	4871
2026-01-22 09:16:53.80	135.15	12.16	-44.0	-46.6	17.4	0.00e+00	0	37	0	101711872	59	4892
2026-01-22 09:16:54.80	135.09	12.25	-44.0	-46.6	17.3	0.00e+00	0	37	0	103809024	59	4923
2026-01-22 09:16:55.80	135.03	12.34	-44.0	-46.7	17.3	0.00e+00	0	37	0	105906176	59	4968
2026-01-22 09:16:56.79	134.97	12.43	-44.1	-46.8	17.2	0.00e+00	0	37	0	108003328	59	5011
2026-01-22 09:16:57.79	134.91	12.52	-44.1	-46.8	17.3	0.00e+00	0	37	0	110100480	59	4988
2026-01-22 09:16:58.79	134.85	12.61	-44.1	-46.8	17.2	0.00e+00	0	37	0	111149056	59	5000
2026-01-22 09:16:59.79	134.79	12.71	-44.1	-46.8	17.2	0.00e+00	0	37	0	113246208	59	4996
2026-01-22 09:17:00.78	134.73	12.80	-44.0	-46.6	17.4	0.00e+00	0	37	0	115343360	59	4924
2026-01-22 09:17:01.78	134.67	12.89	-43.8	-46.4	17.6	0.00e+00	0	37	0	117440512	59	4769
2026-01-22 09:17:02.78	134.61	12.99	-43.8	-46.3	17.7	0.00e+00	0	37	0	118489088	59	4753
2026-01-22 09:17:03.77	134.55	13.08	-43.8	-46.3	17.7	0.00e+00	0	37	0	120586240	59	4751
2026-01-22 09:17:04.77	134.49	13.17	-43.8	-46.3	17.7	0.00e+00	0	37	0	122683392	59	4752
2026-01-22 09:17:05.76	134.43	13.27	-43.5	-46.0	18.0	0.00e+00	0	37	0	124780544	59	4590
2026-01-22 09:17:06.76	134.36	13.36	-43.5	-45.9	18.1	0.00e+00	0	37	0	126877696	59	4543
2026-01-22 09:17:07.76	134.30	13.46	-43.6	-46.1	17.9	0.00e+00	0	37	0	127926272	58	4883
2026-01-22 09:17:08.75	134.24	13.55	-43.6	-46.1	17.9	0.00e+00	0	37	0	130023424	58	4905
2026-01-22 09:17:09.76	134.17	13.65	-43.6	-46.2	17.9	0.00e+00	0	37	0	132120576	58	4935
2026-01-22 09:17:10.75	134.11	13.75	-43.8	-46.5	17.6	0.00e+00	0	37	0	134217728	58	5107
2026-01-22 09:17:11.75	134.04	13.84	-43.9	-46.6	17.5	0.00e+00	0	37	0	135266304	58	5172
2026-01-22 09:17:12.74	133.98	13.94	-44.0	-46.7	17.4	0.00e+00	0	37	0	137363456	58	5219
2026-01-22 09:17:13.75	133.91	14.04	-43.9	-46.6	17.5	0.00e+00	0	37	0	139460608	58	5178
2026-01-22 09:17:14.75	133.85	14.14	-43.8	-46.5	17.6	0.00e+00	0	37	0	141557760	58	5102
2026-01-22 09:17:15.74	133.78	14.23	-43.8	-46.4	17.6	0.00e+00	0	37	0	143654912	58	5083
2026-01-22 09:17:16.74	133.71	14.33	-43.8	-46.4	17.7	0.00e+00	0	37	0	144703488	58	5069
2026-01-22 09:17:17.74	133.65	14.43	-43.8	-46.3	17.7	0.00e+00	0	37	0	146800640	58	5038
2026-01-22 09:17:18.74	133.58	14.53	-43.4	-45.9	18.1	0.00e+00	0	37	0	148897792	58	4774
2026-01-22 09:17:19.74	133.51	14.63	-43.3	-45.7	18.3	0.00e+00	0	37	0	150994944	58	4703
2026-01-22 09:17:20.74	133.44	14.73	-43.4	-45.8	18.2	0.00e+00	0	37	0	153092096	58	4732
2026-01-22 09:17:21.73	133.37	14.83	-43.4	-45.8	18.2	0.00e+00	0	37	0	154140672	58	4749
2026-01-22 09:17:22.73	133.30	14.93	-43.5	-46.0	18.1	0.00e+00	0	37	0	156237824	58	4840
2026-01-22 09:17:23.73	133.23	15.03	-43.6	-46.1	18.0	0.00e+00	0	37	0	158334976	58	4901
2026-01-22 09:17:24.73	133.16	15.13	-43.7	-46.3	17.8	0.00e+00	0	37	0	160432128	58	4994
2026-01-22 09:17:25.73	133.09	15.23	-43.7	-46.3	17.8	0.00e+00	0	37	0	162529280	58	5023
2026-01-22 09:17:26.73	133.02	15.34	-43.8	-46.4	17.7	0.00e+00	0	37	0	163577856	58	5055
2026-01-22 09:17:27.73	132.94	15.44	-43.8	-46.4	17.7	0.00e+00	0	37	0	165675008	58	5087
2026-01-22 09:17:28.73	132.87	15.54	-43.8	-46.5	17.6	0.00e+00	0	37	0	167772160	58	5102
2026-01-22 09:17:29.73	132.80	15.65	-43.7	-46.2	17.9	0.00e+00	0	37	0	169869312	58	4964
2026-01-22 09:17:30.73	132.72	15.75	-43.6	-46.1	18.0	0.00e+00	0	37	0	170917888	58	4875
2026-01-22 09:17:31.72	132.65	15.85	-43.7	-46.2	17.9	0.00e+00	0	37	0	173015040	58	4960
2026-01-22 09:17:32.72	132.57	15.96	-43.6	-46.1	18.0	0.00e+00	0	37	0	175112192	58	4913
2026-01-22 09:17:33.71	132.50	16.06	-43.6	-46.1	18.0	0.00e+00	0	37	0	177209344	58	4894
2026-01-22 09:17:34.71	132.42	16.17	-43.5	-46.0	18.0	0.00e+00	0	37	0	179306496	58	4853
2026-01-22 09:17:35.71	132.35	16.27	-43.6	-46.0	18.1	0.00e+00	0	37	0	180355072	58	4870
2026-01-22 09:17:36.71	132.27	16.38	-43.7	-46.3	17.8	0.00e+00	0	37	0	182452224	58	5023
2026-01-22 09:17:37.70	132.19	16.49	-43.7	-46.2	17.9	0.00e+00	0	37	0	184549376	58	4980
2026-01-22 09:17:38.70	132.11	16.59	-43.7	-46.3	17.8	0.00e+00	0	37	0	186646528	58	5006
2026-01-22 09:17:39.69	132.04	16.70	-43.7	-46.2	17.9	0.00e+00	0	38	0	187695104	58	4975
2026-01-22 09:17:40.70	131.95	16.81	-43.4	-45.9	18.2	0.00e+00	0	37	0	189792256	58	4787
2026-01-22 09:17:41.70	131.87	16.92	-43.5	-45.9	18.2	0.00e+00	0	37	0	191889408	58	4787
2026-01-22 09:17:42.68	131.80	17.02	-43.4	-45.8	18.3	0.00e+00	0	37	0	193986560	58	4715
2026-01-22 09:17:43.68	131.71	17.13	-43.3	-45.7	18.3	0.00e+00	0	37	0	196083712	58	4700
2026-01-22 09:17:44.68	131.63	17.24	-43.3	-45.7	18.4	0.00e+00	0	37	0	197132288	58	4666
2026-01-22 09:17:45.68	131.55	17.35	-43.5	-45.9	18.1	0.00e+00	0	37	0	199229440	58	4803
2026-01-22 09:17:46.68	131.47	17.46	-43.7	-46.2	17.9	0.00e+00	0	37	0	201326592	58	4960
2026-01-22 09:17:47.67	131.38	17.57	-43.8	-46.3	17.8	0.00e+00	0	37	0	203423744	58	5023
2026-01-22 09:17:48.67	131.30	17.68	-43.8	-46.3	17.8	0.00e+00	0	37	0	205520896	58	5018
2026-01-22 09:17:49.67	131.21	17.79	-43.8	-46.3	17.8	0.00e+00	0	38	0	206569472	58	5033
2026-01-22 09:17:50.67	131.13	17.91	-43.7	-46.1	18.0	0.00e+00	0	37	0	208666624	58	4925
2026-01-22 09:17:51.67	131.04	18.02	-43.6	-46.1	18.0	0.00e+00	0	37	0	210763776	58	4893
2026-01-22 09:17:52.67	130.95	18.13	-43.7	-46.2	17.9	0.00e+00	0	37	0	212860928	58	4968
2026-01-22 09:17:53.66	130.87	18.25	-43.7	-46.2	18.0	0.00e+00	0	37	0	213909504	58	4952
2026-01-22 09:17:54.66	130.78	18.36	-43.8	-46.4	17.7	0.00e+00	0	37	0	216006656	58	5068
2026-01-22 09:17:55.66	130.69	18.47	-43.9	-46.5	17.6	0.00e+00	0	37	0	218103808	58	5157
2026-01-22 09:17:56.66	130.60	18.59	-44.2	-46.8	17.3	0.00e+00	0	37	0	220200960	58	5336
2026-01-22 09:17:57.66	130.51	18.70	-44.2	-46.9	17.3	0.00e+00	0	37	0	222298112	59	5068
2026-01-22 09:17:58.66	130.42	18.82	-44.1	-46.7	17.4	0.00e+00	0	37	0	223346688	59	4976
2026-01-22 09:17:59.66	130.33	18.94	-44.0	-46.7	17.5	0.00e+00	0	38	0	225443840	59	4938
2026-01-22 09:18:00.65	130.23	19.05	-44.0	-46.6	17.6	0.00e+00	0	38	0	227540992	59	4879
2026-01-22 09:18:01.65	130.14	19.17	-43.9	-46.4	17.7	0.00e+00	0	38	0	229638144	59	4789
2026-01-22 09:18:02.65	130.05	19.29	-43.9	-46.5	17.6	0.00e+00	0	37	0	231735296	59	4851
2026-01-22 09:18:03.65	129.95	19.40	-44.1	-46.7	17.5	0.00e+00	0	37	0	232783872	59	4966
2026-01-22 09:18:04.65	129.86	19.52	-44.3	-47.0	17.2	0.00e+00	0	38	0	234881024	59	5125
2026-01-22 09:18:05.65	129.76	19.64	-44.4	-47.2	17.0	0.00e+00	0	38	0	236978176	59	5234
2026-01-22 09:18:06.65	129.66	19.76	-44.4	-47.1	17.1	0.00e+00	0	38	0	239075328	59	5183
2026-01-22 09:18:07.65	129.56	19.88	-44.4	-47.1	17.1	0.00e+00	0	38	0	240123904	59	5201
2026-01-22 09:18:08.64	129.47	20.00	-44.4	-47.1	17.1	0.00e+00	0	37	0	242221056	59	5207
2026-01-22 09:18:09.63	129.37	20.12	-44.2	-46.8	17.4	0.00e+00	0	38	0	244318208	59	5005
2026-01-22 09:18:10.63	129.27	20.24	-44.2	-46.9	17.3	0.00e+00	0	37	0	246415360	59	5060
2026-01-22 09:18:11.62	129.17	20.36	-44.2	-46.9	17.3	0.00e+00	0	37	0	248512512	59	5065
2026-01-22 09:18:12.62	129.06	20.49	-44.3	-47.0	17.2	0.00e+00	0	37	0	249561088	59	5110
2026-01-22 09:18:13.62	128.96	20.61	-44.5	-47.3	17.0	0.00e+00	0	37	0	251658240	59	5286
2026-01-22 09:18:14.62	128.86	20.73	-44.6	-47.3	16.9	0.00e+00	0	37	0	253755392	59	5339
2026-01-22 09:18:15.62	128.75	20.86	-44.4	-47.1	17.1	0.00e+00	0	38	0	255852544	59	5211
2026-01-22 09:18:16.62	128.65	20.98	-44.4	-47.1	17.1	0.00e+00	0	37	0	257949696	59	5193
2026-01-22 09:18:17.62	128.54	21.11	-44.3	-47.0	17.2	0.00e+00	0	38	0	258998272	59	5146
2026-01-22 09:18:18.61	128.44	21.23	-44.4	-47.1	17.1	0.00e+00	0	37	0	261095424	59	5204
2026-01-22 09:18:19.61	128.33	21.36	-44.4	-47.2	17.1	0.00e+00	0	38	0	263192576	59	5219
2026-01-22 09:18:20.61	128.22	21.49	-44.4	-47.1	17.1	0.00e+00	0	38	0	265289728	59	5206
2026-01-22 09:18:21.61	128.11	21.61	-44.6	-47.3	16.9	0.00e+00	0	37	0	266338304	59	5330
2026-01-22 09:18:22.61	128.00	21.74	-44.6	-47.4	16.9	0.00e+00	0	37	0	268435456	59	5350
2026-01-22 09:18:23.61	127.89	21.87	-44.5	-47.2	17.0	0.00e+00	0	38	0	270532608	59	5267
2026-01-22 09:18:24.60	127.77	22.00	-44.5	-47.3	16.9	0.00e+00	0	38	0	272629760	59	5308
2026-01-22 09:18:25.60	127.66	22.13	-44.4	-47.2	17.1	0.00e+00	0	37	0	274726912	59	5225
2026-01-22 09:18:26.59	127.55	22.25	-44.3	-47.1	17.1	0.00e+00	0	38	0	275775488	59	5203
2026-01-22 09:18:27.59	127.43	22.38	-44.2	-47.0	17.2	0.00e+00	0	37	0	277872640	59	5151
2026-01-22 09:18:28.59	127.32	22.52	-44.4	-47.2	17.1	0.00e+00	0	37	0	279969792	59	5222
2026-01-22 09:18:29.59	127.20	22.65	-44.3	-47.2	17.1	0.00e+00	0	37	0	282066944	59	5238
2026-01-22 09:18:30.58	127.08	22.78	-44.3	-47.1	17.1	0.00e+00	0	37	0	283115520	59	5183
2026-01-22 09:18:31.58	126.96	22.91	-44.1	-47.1	17.2	0.00e+00	0	38	0	285212672	59	5174
2026-01-22 09:18:32.58	126.84	23.04	-44.5	-47.3	17.0	0.00e+00	0	37	0	287309824	59	5290
2026-01-22 09:18:33.58	126.72	23.18	-44.5	-47.3	17.0	0.00e+00	0	38	0	289406976	59	5318
2026-01-22 09:18:34.58	126.60	23.31	-44.3	-47.3	17.0	0.00e+00	0	38	0	291504128	59	5291
2026-01-22 09:18:35.58	126.47	23.45	-44.5	-47.3	17.0	0.00e+00	0	37	0	292552704	59	5282
2026-01-22 09:18:36.58	126.35	23.58	-44.5	-47.3	16.9	0.00e+00	0	38	0	294649856	59	5340
2026-01-22 09:18:37.57	126.22	23.72	-44.4	-47.2	17.1	0.00e+00	0	37	0	296747008	59	5221
2026-01-22 09:18:38.57	126.09	23.85	-44.4	-47.1	17.1	0.00e+00	0	38	0	298844160	59	5211
2026-01-22 09:18:39.57	125.97	23.99	-44.5	-47.2	17.0	0.00e+00	0	37	0	300941312	59	5258
2026-01-22 09:18:40.57	125.84	24.13	-44.8	-47.6	16.7	0.00e+00	0	37	0	301989888	60	5214
2026-01-22 09:18:41.57	125.71	24.26	-44.7	-47.5	16.8	0.00e+00	0	38	0	304087040	60	5148
2026-01-22 09:18:42.57	125.57	24.40	-44.6	-47.4	16.9	0.00e+00	0	38	0	306184192	60	5089
2026-01-22 09:18:43.56	125.44	24.54	-44.6	-47.4	17.0	0.00e+00	0	38	0	308281344	60	5052
2026-01-22 09:18:44.56	125.31	24.68	-44.5	-47.2	17.1	0.00e+00	0	38	0	310378496	60	4983
2026-01-22 09:18:45.56	125.17	24.82	-44.4	-47.1	17.2	0.00e+00	0	37	0	311427072	60	4895
2026-01-22 09:18:46.56	125.04	24.96	-44.3	-46.9	17.3	0.00e+00	0	38	0	313524224	60	4800
2026-01-22 09:18:47.55	124.90	25.10	-44.5	-47.2	17.1	0.00e+00	0	37	0	315621376	60	4979
2026-01-22 09:18:48.55	124.76	25.24	-44.6	-47.5	16.9	0.00e+00	0	38	0	317718528	60	5112
2026-01-22 09:18:49.55	124.62	25.39	-44.7	-47.6	16.7	0.00e+00	0	37	0	318767104	60	5176
2026-01-22 09:18:50.55	124.48	25.53	-44.8	-47.7	16.7	0.00e+00	0	38	0	320864256	60	5244
2026-01-22 09:18:51.54	124.34	25.67	-44.6	-47.4	16.9	0.00e+00	0	37	0	322961408	60	5075
2026-01-22 09:18:52.54	124.19	25.82	-44.5	-47.3	17.0	0.00e+00	0	37	0	325058560	60	5016
2026-01-22 09:18:53.54	124.05	25.96	-44.5	-47.3	17.1	0.00e+00	0	38	0	327155712	60	4987
2026-01-22 09:18:54.53	123.90	26.11	-44.5	-47.2	17.2	0.00e+00	0	38	0	328204288	60	4927
2026-01-22 09:18:55.53	123.75	26.25	-44.6	-47.3	17.1	0.00e+00	0	37	0	330301440	60	5017
2026-01-22 09:18:56.52	123.61	26.40	-44.7	-47.5	16.8	0.00e+00	0	37	0	332398592	60	5122
2026-01-22 09:18:57.52	123.45	26.55	-44.6	-47.4	17.0	0.00e+00	0	38	0	334495744	60	5070
2026-01-22 09:18:58.52	123.30	26.69	-44.6	-47.4	17.0	0.00e+00	0	37	0	335544320	60	5047
2026-01-22 09:18:59.51	123.15	26.84	-44.5	-47.2	17.1	0.00e+00	0	38	0	337641472	60	4969
2026-01-22 09:19:00.51	122.99	26.99	-44.5	-47.2	17.2	0.00e+00	0	38	0	339738624	60	4936
2026-01-22 09:19:01.51	122.84	27.14	-44.5	-47.2	17.1	0.00e+00	0	37	0	341835776	60	4963
2026-01-22 09:19:02.51	122.68	27.29	-44.4	-47.1	17.3	0.00e+00	0	37	0	343932928	60	4903
2026-01-22 09:19:03.51	122.52	27.44	-44.4	-47.1	17.3	0.00e+00	0	38	0	344981504	60	4908
2026-01-22 09:19:04.50	122.36	27.59	-44.5	-47.2	17.2	0.00e+00	0	37	0	347078656	60	4928
2026-01-22 09:19:05.50	122.20	27.74	-44.5	-47.3	17.1	0.00e+00	0	37	0	349175808	60	4990
2026-01-22 09:19:06.50	122.03	27.89	-44.7	-47.4	17.0	0.00e+00	0	37	0	351272960	60	5077
2026-01-22 09:19:07.49	121.87	28.05	-44.9	-47.7	16.7	0.00e+00	0	37	0	352321536	60	5251
2026-01-22 09:19:08.49	121.70	28.20	-44.9	-47.7	16.7	0.00e+00	0	37	0	354418688	60	5259
2026-01-22 09:19:09.49	121.53	28.35	-44.6	-47.3	17.0	0.00e+00	0	38	0	356515840	60	5040
2026-01-22 09:19:10.48	121.36	28.51	-44.4	-47.1	17.2	0.00e+00	0	38	0	358612992	60	4916
2026-01-22 09:19:11.48	121.19	28.66	-44.4	-47.1	17.2	0.00e+00	0	38	0	360710144	60	4896
2026-01-22 09:19:12.47	121.01	28.82	-44.6	-47.3	17.0	0.00e+00	0	37	0	361758720	60	5032
2026-01-22 09:19:13.47	120.84	28.97	-44.6	-47.4	17.0	0.00e+00	0	38	0	363855872	60	5080
2026-01-22 09:19:14.47	120.66	29.13	-44.6	-47.3	17.1	0.00e+00	0	37	0	365953024	60	5030
2026-01-22 09:19:15.46	120.48	29.29	-44.4	-47.1	17.3	0.00e+00	0	37	0	368050176	60	4893
2026-01-22 09:19:16.46	120.30	29.45	-44.4	-47.1	17.2	0.00e+00	0	38	0	370147328	60	4922
2026-01-22 09:19:17.46	120.12	29.60	-44.5	-47.3	17.1	0.00e+00	0	38	0	371195904	60	5007
2026-01-22 09:19:18.46	119.93	29.76	-44.7	-47.5	16.9	0.00e+00	0	37	0	373293056	60	5128
2026-01-22 09:19:19.46	119.75	29.92	-44.6	-47.4	16.9	0.00e+00	0	38	0	375390208	60	5096
2026-01-22 09:19:20.46	119.56	30.08	-44.8	-47.7	16.7	0.00e+00	0	38	0	377487360	60	5236
2026-01-22 09:19:21.46	119.37	30.24	-44.9	-47.8	16.6	0.00e+00	0	38	0	379584512	60	5302
2026-01-22 09:19:22.46	119.17	30.41	-45.2	-48.2	16.3	0.00e+00	0	38	0	380633088	60	5535
2026-01-22 09:19:23.46	118.98	30.57	-45.5	-48.6	15.8	0.00e+00	0	38	0	382730240	61	5487
2026-01-22 09:19:24.46	118.78	30.73	-45.6	-48.7	15.7	0.00e+00	0	37	0	384827392	61	5572
2026-01-22 09:19:25.46	118.58	30.89	-45.8	-49.0	15.5	0.00e+00	0	38	0	386924544	62	5410
2026-01-22 09:19:26.46	118.38	31.06	-45.7	-48.8	15.7	0.00e+00	0	38	0	387973120	62	5337
2026-01-22 09:19:27.45	118.18	31.22	-45.7	-48.9	15.6	0.00e+00	0	38	0	390070272	62	5359
2026-01-22 09:19:28.44	117.98	31.38	-45.9	-49.1	15.3	0.00e+00	0	38	0	392167424	62	5507
2026-01-22 09:19:29.45	117.77	31.55	-46.0	-49.3	15.2	0.00e+00	0	37	0	394264576	62	5637
2026-01-22 09:19:30.44	117.56	31.71	-46.1	-49.5	15.0	7.00e-07	0	38	0	396361728	62	5767
2026-01-22 09:19:31.44	117.35	31.88	-46.1	-49.5	15.0	0.00e+00	0	38	0	397410304	62	5750
2026-01-22 09:19:32.44	117.14	32.05	-46.2	-49.6	14.9	0.00e+00	0	37	0	399507456	63	5503
2026-01-22 09:19:33.44	116.92	32.21	-46.0	-49.3	15.2	0.00e+00	0	37	0	401604608	63	5294
2026-01-22 09:19:34.44	116.70	32.38	-45.9	-49.2	15.3	0.00e+00	0	38	0	403701760	63	5221
2026-01-22 09:19:35.43	116.49	32.55	-46.1	-49.5	15.0	0.00e+00	0	37	0	404750336	63	5412
2026-01-22 09:19:36.43	116.26	32.72	-45.9	-49.2	15.3	0.00e+00	0	38	0	406847488	63	5252
2026-01-22 09:19:37.43	116.04	32.88	-45.8	-49.1	15.4	0.00e+00	0	38	0	408944640	63	5166
2026-01-22 09:19:38.43	115.81	33.05	-45.8	-49.0	15.5	0.00e+00	0	38	0	411041792	63	5144
2026-01-22 09:19:39.42	115.58	33.22	-45.7	-49.0	15.5	0.00e+00	0	37	0	413138944	63	5118
2026-01-22 09:19:40.42	115.35	33.39	-45.9	-49.2	15.2	0.00e+00	0	38	0	414187520	63	5278
2026-01-22 09:19:41.42	115.12	33.56	-45.9	-49.2	15.1	0.00e+00	0	38	0	416284672	63	5272
2026-01-22 09:19:42.42	114.88	33.73	-46.0	-49.4	15.1	0.00e+00	0	38	0	418381824	63	5341
2026-01-22 09:19:43.41	114.64	33.90	-45.9	-49.1	15.3	0.00e+00	0	38	0	420478976	63	5211
2026-01-22 09:19:44.41	114.40	34.08	-45.9	-49.1	15.4	0.00e+00	0	38	0	422576128	63	5203
2026-01-22 09:19:45.41	114.16	34.25	-45.9	-49.3	15.2	0.00e+00	0	38	0	423624704	63	5318
2026-01-22 09:19:46.41	113.91	34.42	-45.9	-49.3	15.2	0.00e+00	0	38	0	425721856	63	5323
2026-01-22 09:19:47.41	113.66	34.59	-45.8	-49.2	15.2	7.00e-07	0	38	0	427819008	63	5242
2026-01-22 09:19:48.41	113.41	34.77	-45.7	-48.9	15.5	0.00e+00	0	38	0	429916160	63	5095
2026-01-22 09:19:49.40	113.15	34.94	-45.6	-48.8	15.6	0.00e+00	0	38	0	430964736	63	5041
2026-01-22 09:19:50.40	112.90	35.11	-45.8	-49.1	15.4	0.00e+00	0	38	0	433061888	63	5191
2026-01-22 09:19:51.40	112.64	35.29	-45.9	-49.2	15.3	0.00e+00	0	38	0	435159040	63	5279
2026-01-22 09:19:52.40	112.37	35.46	-45.9	-49.2	15.3	0.00e+00	0	38	0	437256192	63	5240
2026-01-22 09:19:53.40	112.11	35.63	-45.6	-48.8	15.7	0.00e+00	0	38	0	439353344	63	4991
2026-01-22 09:19:54.40	111.84	35.81	-45.5	-48.5	16.0	0.00e+00	0	38	0	440401920	62	5148
2026-01-22 09:19:55.40	111.56	35.98	-45.5	-48.5	16.0	0.00e+00	0	38	0	442499072	62	5128
2026-01-22 09:19:56.40	111.29	36.16	-45.5	-48.6	15.9	0.00e+00	0	38	0	444596224	62	5181
2026-01-22 09:19:57.40	111.01	36.33	-45.3	-48.3	16.2	0.00e+00	0	38	0	446693376	62	4985
2026-01-22 09:19:58.40	110.73	36.51	-45.2	-48.2	16.3	0.00e+00	0	38	0	447741952	62	4957
2026-01-22 09:19:59.40	110.44	36.69	-45.2	-48.1	16.3	0.00e+00	0	37	0	449839104	62	4922
2026-01-22 09:20:00.40	110.16	36.86	-45.2	-48.2	16.3	0.00e+00	0	37	0	451936256	62	4980
2026-01-22 09:20:01.39	109.87	37.04	-45.2	-48.2	16.3	0.00e+00	0	37	0	454033408	62	4957
2026-01-22 09:20:02.39	109.58	37.21	-45.1	-48.0	16.5	0.00e+00	0	38	0	456130560	62	4844
2026-01-22 09:20:03.38	109.28	37.39	-45.0	-47.9	16.6	0.00e+00	0	38	0	457179136	61	5057
2026-01-22 09:20:04.38	108.98	37.56	-45.1	-48.0	16.4	0.00e+00	0	38	0	459276288	61	5140
2026-01-22 09:20:05.38	108.68	37.74	-45.1	-48.1	16.4	0.00e+00	0	37	0	461373440	61	5178
2026-01-22 09:20:06.38	108.37	37.91	-44.9	-47.8	16.6	0.00e+00	0	37	0	463470592	61	5017
2026-01-22 09:20:07.38	108.06	38.09	-44.8	-47.6	16.9	0.00e+00	0	38	0	465567744	61	4902
2026-01-22 09:20:08.37	107.75	38.26	-44.8	-47.6	16.9	0.00e+00	0	37	0	466616320	61	4893
2026-01-22 09:20:09.37	107.43	38.44	-45.0	-47.9	16.6	0.00e+00	0	38	0	468713472	61	5072
2026-01-22 09:20:10.37	107.11	38.62	-45.1	-48.1	16.3	0.00e+00	0	38	0	470810624	61	5180
2026-01-22 09:20:11.37	106.79	38.79	-45.1	-48.0	16.4	0.00e+00	0	38	0	472907776	61	5153
2026-01-22 09:20:12.36	106.47	38.97	-45.0	-47.8	16.6	0.00e+00	0	37	0	475004928	61	5034
2026-01-22 09:20:13.36	106.14	39.14	-45.2	-48.1	16.3	0.00e+00	0	38	0	476053504	61	5207
2026-01-22 09:20:14.36	105.80	39.32	-45.3	-48.3	16.2	0.00e+00	0	38	0	478150656	61	5293
2026-01-22 09:20:15.36	105.46	39.49	-45.3	-48.4	16.1	0.00e+00	0	38	0	480247808	61	5347
2026-01-22 09:20:16.36	105.12	39.67	-45.5	-48.6	15.9	0.00e+00	0	38	0	482344960	61	5528
2026-01-22 09:20:17.36	104.78	39.84	-45.5	-48.7	15.8	0.00e+00	0	38	0	483393536	61	5537
2026-01-22 09:20:18.36	104.43	40.02	-45.3	-48.3	16.1	0.00e+00	0	38	0	485490688	61	5314
2026-01-22 09:20:19.35	104.08	40.19	-45.1	-48.1	16.4	0.00e+00	0	38	0	487587840	61	5191
2026-01-22 09:20:20.35	103.72	40.36	-45.2	-48.3	16.2	0.00e+00	0	38	0	489684992	61	5306
2026-01-22 09:20:21.35	103.36	40.53	-45.5	-48.8	15.7	0.00e+00	0	38	0	491782144	61	5597
2026-01-22 09:20:22.34	103.00	40.70	-45.8	-49.0	15.4	0.00e+00	0	38	0	492830720	62	5459
2026-01-22 09:20:23.34	102.63	40.88	-45.9	-49.2	15.3	0.00e+00	0	38	0	494927872	62	5583
2026-01-22 09:20:24.34	102.26	41.05	-46.1	-49.4	15.2	0.00e+00	0	38	0	497025024	62	5679
2026-01-22 09:20:25.34	101.88	41.22	-45.9	-49.2	15.4	0.00e+00	0	38	0	499122176	62	5542
2026-01-22 09:20:26.33	101.51	41.39	-45.9	-49.2	15.3	0.00e+00	0	38	0	500170752	62	5579
2026-01-22 09:20:27.33	101.12	41.56	-46.1	-49.5	15.0	0.00e+00	0	38	0	502267904	62	5779
2026-01-22 09:20:28.33	100.73	41.72	-46.1	-49.5	15.0	0.00e+00	0	38	0	504365056	62	5746
2026-01-22 09:20:29.33	100.34	41.89	-46.0	-49.4	15.1	0.00e+00	0	38	0	506462208	63	5373
2026-01-22 09:20:30.33	99.94	42.06	-45.9	-49.2	15.3	0.00e+00	0	38	0	508559360	63	5253
2026-01-22 09:20:31.33	99.54	42.23	-45.6	-48.7	15.8	0.00e+00	0	38	0	509607936	63	4970
2026-01-22 09:20:32.32	99.14	42.39	-45.4	-48.5	16.1	0.00e+00	0	38	0	511705088	62	5106
2026-01-22 09:20:33.33	98.73	42.56	-45.1	-48.0	16.5	0.00e+00	0	38	0	513802240	62	4822
2026-01-22 09:20:34.32	98.32	42.72	-44.7	-47.5	17.0	0.00e+00	0	38	0	515899392	61	4839
2026-01-22 09:20:35.32	97.90	42.88	-44.4	-47.1	17.4	0.00e+00	0	37	0	517996544	60	4907
2026-01-22 09:20:36.32	97.48	43.04	-44.2	-46.8	17.6	0.00e+00	0	38	0	519045120	60	4745
2026-01-22 09:20:37.32	97.06	43.20	-44.0	-46.5	17.9	0.00e+00	0	38	0	521142272	59	4846
2026-01-22 09:20:38.31	96.63	43.36	-43.6	-46.1	18.3	0.00e+00	0	38	0	523239424	59	4616
2026-01-22 09:20:39.31	96.20	43.52	-43.5	-45.9	18.5	0.00e+00	0	38	0	525336576	58	4773
2026-01-22 09:20:40.31	95.76	43.68	-43.3	-45.7	18.6	0.00e+00	0	38	0	526385152	58	4686
2026-01-22 09:20:41.31	95.31	43.83	-43.3	-45.6	18.7	0.00e+00	0	38	0	528482304	58	4625
2026-01-22 09:20:42.31	94.87	43.99	-43.6	-46.0	18.4	0.00e+00	0	38	0	530579456	58	4853
2026-01-22 09:20:43.31	94.42	44.14	-43.7	-46.2	18.2	0.00e+00	0	38	0	532676608	58	4944
2026-01-22 09:20:44.30	93.96	44.29	-43.6	-46.1	18.3	0.00e+00	0	38	0	534773760	58	4892
2026-01-22 09:20:45.30	93.50	44.44	-43.6	-46.1	18.2	0.00e+00	0	38	0	535822336	58	4905
2026-01-22 09:20:46.29	93.04	44.59	-43.9	-46.4	18.0	0.00e+00	0	37	0	537919488	58	5078
2026-01-22 09:20:47.29	92.57	44.74	-43.9	-46.4	18.0	0.00e+00	0	38	0	540016640	58	5070
2026-01-22 09:20:48.29	92.10	44.88	-43.8	-46.3	18.1	0.00e+00	0	38	0	542113792	58	4988
2026-01-22 09:20:49.29	91.62	45.03	-43.7	-46.2	18.2	0.00e+00	0	38	0	544210944	58	4953
2026-01-22 09:20:50.28	91.15	45.17	-43.4	-45.7	18.6	0.00e+00	0	38	0	545259520	58	4705
2026-01-22 09:20:51.28	90.66	45.31	-43.4	-45.8	18.6	0.00e+00	0	38	0	547356672	58	4719
2026-01-22 09:20:52.28	90.17	45.45	-43.7	-46.2	18.2	0.00e+00	0	38	0	549453824	58	4947
2026-01-22 09:20:53.28	89.67	45.58	-44.0	-46.7	17.7	0.00e+00	0	38	0	551550976	58	5230
2026-01-22 09:20:54.28	89.18	45.72	-44.7	-47.6	16.9	0.00e+00	0	38	0	552599552	60	5191
2026-01-22 09:20:55.28	88.67	45.85	-45.0	-48.0	16.5	0.00e+00	0	37	0	554696704	60	5451
2026-01-22 09:20:56.27	88.17	45.98	-45.1	-48.1	16.4	0.00e+00	0	38	0	556793856	60	5517
2026-01-22 09:20:57.28	87.65	46.11	-45.0	-48.1	16.5	0.00e+00	0	38	0	558891008	60	5467
2026-01-22 09:20:58.27	87.14	46.23	-45.0	-48.1	16.5	0.00e+00	0	38	0	560988160	60	5495
2026-01-22 09:20:59.27	86.62	46.36	-45.1	-48.2	16.3	0.00e+00	0	38	0	562036736	60	5547
2026-01-22 09:21:00.27	86.10	46.48	-45.1	-48.1	16.4	0.00e+00	0	38	0	564133888	60	5516
2026-01-22 09:21:01.27	85.57	46.60	-45.2	-48.3	16.2	0.00e+00	0	38	0	566231040	61	5327
2026-01-22 09:21:02.26	85.04	46.72	-45.3	-48.4	16.1	0.00e+00	0	38	0	568328192	61	5393
2026-01-22 09:21:03.26	84.51	46.83	-45.4	-48.6	16.0	0.00e+00	0	38	0	570425344	61	5480
2026-01-22 09:21:04.26	83.97	46.94	-45.8	-49.2	15.4	0.00e+00	0	37	0	571473920	62	5553
2026-01-22 09:21:05.26	83.42	47.05	-46.1	-49.5	15.1	0.00e+00	0	37	0	573571072	62	5785
2026-01-22 09:21:06.26	82.87	47.16	-46.1	-49.5	15.1	0.00e+00	0	38	0	575668224	62	5783
2026-01-22 09:21:07.26	82.32	47.27	-46.1	-49.5	15.0	7.00e-07	0	38	0	577765376	62	5770
2026-01-22 09:21:08.26	81.77	47.37	-46.3	-49.9	14.7	0.00e+00	0	38	0	578813952	63	5668
2026-01-22 09:21:09.26	81.21	47.47	-46.4	-50.0	14.5	0.00e+00	0	38	0	580911104	63	5783
2026-01-22 09:21:10.25	80.65	47.56	-46.5	-50.1	14.4	0.00e+00	0	38	0	583008256	63	5839
2026-01-22 09:21:11.25	80.09	47.66	-46.6	-50.3	14.3	7.00e-07	0	38	0	585105408	63	5932
2026-01-22 09:21:12.25	79.52	47.75	-46.6	-50.4	14.1	2.20e-06	0	38	0	587202560	64	5699
2026-01-22 09:21:13.25	78.94	47.84	-46.9	-50.8	13.7	1.50e-06	0	38	0	588251136	64	5973
2026-01-22 09:21:14.24	78.37	47.92	-46.9	-50.7	13.8	6.80e-06	0	38	0	590348288	64	5921
2026-01-22 09:21:15.24	77.80	48.00	-46.6	-50.3	14.1	7.00e-07	0	38	0	592445440	64	5622
2026-01-22 09:21:16.24	77.21	48.08	-46.1	-49.5	14.9	7.00e-07	0	38	0	594542592	64	5151
2026-01-22 09:21:17.24	76.63	48.16	-46.0	-49.3	15.3	0.00e+00	0	38	0	595591168	63	5311
2026-01-22 09:21:18.23	76.05	48.23	-45.9	-49.1	15.4	0.00e+00	0	38	0	597688320	63	5217
2026-01-22 09:21:19.23	75.46	48.30	-45.9	-49.0	15.5	0.00e+00	0	38	0	599785472	63	5159
2026-01-22 09:21:20.23	74.87	48.37	-45.9	-49.1	15.5	0.00e+00	0	38	0	601882624	63	5208
2026-01-22 09:21:21.23	74.27	48.43	-46.1	-49.4	15.2	0.00e+00	0	38	0	603979776	63	5352
2026-01-22 09:21:22.22	73.68	48.49	-45.9	-49.2	15.4	0.00e+00	0	38	0	605028352	63	5219
2026-01-22 09:21:23.22	73.08	48.55	-45.8	-49.0	15.5	0.00e+00	0	38	0	607125504	63	5156
2026-01-22 09:21:24.21	72.48	48.60	-45.9	-49.2	15.5	0.00e+00	0	38	0	609222656	63	5228
2026-01-22 09:21:25.21	71.88	48.65	-46.0	-49.3	15.3	0.00e+00	0	38	0	611319808	63	5299
2026-01-22 09:21:26.21	71.27	48.70	-45.7	-48.9	15.7	0.00e+00	0	38	0	612368384	63	5047
2026-01-22 09:21:27.21	70.67	48.74	-45.5	-48.5	16.0	0.00e+00	0	38	0	614465536	62	5132
2026-01-22 09:21:28.20	70.06	48.78	-45.4	-48.4	16.2	0.00e+00	0	38	0	616562688	62	5095
2026-01-22 09:21:29.20	69.45	48.82	-45.3	-48.3	16.3	0.00e+00	0	38	0	618659840	62	4986
2026-01-22 09:21:30.20	68.84	48.85	-45.3	-48.2	16.3	0.00e+00	0	38	0	620756992	62	4976
2026-01-22 09:21:31.20	68.23	48.88	-45.3	-48.2	16.3	0.00e+00	0	38	0	621805568	62	4951
2026-01-22 09:21:32.20	67.61	48.90	-45.4	-48.4	16.2	0.00e+00	0	38	0	623902720	62	5070
2026-01-22 09:21:33.19	67.00	48.93	-45.5	-48.5	16.0	0.00e+00	0	38	0	625999872	62	5142
2026-01-22 09:21:34.19	66.39	48.95	-45.5	-48.5	16.1	0.00e+00	0	38	0	628097024	62	5142
2026-01-22 09:21:35.18	65.78	48.96	-45.3	-48.2	16.3	0.00e+00	0	38	0	630194176	62	4973
2026-01-22 09:21:36.18	65.16	48.97	-45.2	-48.1	16.4	0.00e+00	0	38	0	631242752	62	4906
2026-01-22 09:21:37.18	64.54	48.98	-45.3	-48.3	16.4	0.00e+00	0	38	0	633339904	62	4986
2026-01-22 09:21:38.18	63.92	48.99	-45.3	-48.2	16.4	0.00e+00	0	38	0	635437056	62	4937
2026-01-22 09:21:39.17	63.31	48.99	-45.3	-48.2	16.3	0.00e+00	0	38	0	637534208	62	4975
2026-01-22 09:21:40.17	62.69	48.98	-45.3	-48.2	16.4	0.00e+00	0	38	0	639631360	62	4979
2026-01-22 09:21:41.17	62.07	48.98	-45.4	-48.4	16.1	0.00e+00	0	38	0	640679936	62	5068
2026-01-22 09:21:42.17	61.46	48.97	-45.5	-48.6	16.0	0.00e+00	0	38	0	642777088	62	5167
2026-01-22 09:21:43.16	60.85	48.95	-45.3	-48.3	16.3	0.00e+00	0	38	0	644874240	62	5010
2026-01-22 09:21:44.16	60.23	48.94	-45.3	-48.3	16.2	0.00e+00	0	38	0	646971392	62	5034
2026-01-22 09:21:45.16	59.61	48.92	-45.3	-48.3	16.3	0.00e+00	0	38	0	648019968	62	5008
2026-01-22 09:21:46.16	59.00	48.89	-45.2	-48.1	16.5	0.00e+00	0	38	0	650117120	62	4882
2026-01-22 09:21:47.16	58.39	48.87	-45.3	-48.2	16.4	0.00e+00	0	38	0	652214272	62	4955
2026-01-22 09:21:48.16	57.77	48.84	-45.3	-48.2	16.4	0.00e+00	0	38	0	654311424	62	4954
2026-01-22 09:21:49.16	57.16	48.80	-45.3	-48.2	16.3	0.00e+00	0	38	0	656408576	62	4957
2026-01-22 09:21:50.15	56.56	48.76	-45.0	-47.8	16.6	0.00e+00	0	38	0	657457152	62	4756
2026-01-22 09:21:51.15	55.95	48.72	-45.2	-48.0	16.5	0.00e+00	0	38	0	659554304	62	4863
2026-01-22 09:21:52.15	55.34	48.68	-45.2	-48.1	16.5	0.00e+00	0	38	0	661651456	62	4901
2026-01-22 09:21:53.14	54.75	48.63	-45.2	-48.0	16.5	0.00e+00	0	38	0	663748608	62	4858
2026-01-22 09:21:54.14	54.14	48.58	-45.3	-48.2	16.4	0.00e+00	0	38	0	664797184	62	4965
2026-01-22 09:21:55.14	53.54	48.52	-45.4	-48.4	16.2	0.00e+00	0	38	0	666894336	62	5057
2026-01-22 09:21:56.13	52.95	48.47	-45.5	-48.5	16.1	0.00e+00	0	38	0	668991488	62	5134
2026-01-22 09:21:57.13	52.35	48.40	-45.2	-48.1	16.5	0.00e+00	0	38	0	671088640	62	4904
2026-01-22 09:21:58.13	51.76	48.34	-45.1	-47.9	16.6	0.00e+00	0	38	0	673185792	62	4805
2026-01-22 09:21:59.13	51.17	48.27	-45.2	-48.0	16.6	0.00e+00	0	38	0	674234368	62	4855
2026-01-22 09:22:00.13	50.58	48.20	-45.3	-48.3	16.3	0.00e+00	0	38	0	676331520	62	4992
2026-01-22 09:22:01.13	50.00	48.13	-45.2	-48.1	16.5	0.00e+00	0	38	0	678428672	62	4897
2026-01-22 09:22:02.12	49.42	48.05	-45.3	-48.2	16.4	0.00e+00	0	38	0	680525824	62	4978
2026-01-22 09:22:03.12	48.84	47.97	-45.4	-48.4	16.2	0.00e+00	0	38	0	682622976	62	5050
2026-01-22 09:22:04.11	48.27	47.89	-45.3	-48.3	16.2	0.00e+00	0	38	0	683671552	62	5011
2026-01-22 09:22:05.11	47.70	47.80	-45.3	-48.3	16.3	0.00e+00	0	38	0	685768704	62	5001
2026-01-22 09:22:06.11	47.13	47.71	-45.6	-48.7	15.9	0.00e+00	0	38	0	687865856	62	5224
2026-01-22 09:22:07.11	46.56	47.62	-45.8	-48.9	15.6	0.00e+00	0	38	0	689963008	62	5381
2026-01-22 09:22:08.11	46.00	47.52	-45.6	-48.7	15.9	0.00e+00	0	38	0	691011584	62	5237
2026-01-22 09:22:09.11	45.44	47.43	-45.4	-48.4	16.2	0.00e+00	0	38	0	693108736	62	5055
2026-01-22 09:22:10.11	44.88	47.33	-45.4	-48.4	16.2	0.00e+00	0	38	0	695205888	62	5082
2026-01-22 09:22:11.11	44.33	47.22	-45.6	-48.8	15.9	0.00e+00	0	38	0	697303040	62	5280
2026-01-22 09:22:12.11	43.78	47.12	-45.7	-48.9	15.8	0.00e+00	0	38	0	699400192	62	5362
2026-01-22 09:22:13.10	43.24	47.01	-45.8	-49.0	15.6	0.00e+00	0	38	0	700448768	62	5416
2026-01-22 09:22:14.10	42.70	46.90	-45.8	-49.1	15.5	0.00e+00	0	38	0	702545920	62	5477
2026-01-22 09:22:15.10	42.16	46.79	-45.4	-48.5	16.0	0.00e+00	0	38	0	704643072	62	5145
2026-01-22 09:22:16.10	41.63	46.67	-45.4	-48.4	16.2	0.00e+00	0	38	0	706740224	62	5067
2026-01-22 09:22:17.10	41.10	46.55	-45.3	-48.2	16.4	0.00e+00	0	38	0	708837376	62	4962
2026-01-22 09:22:18.10	40.57	46.43	-45.3	-48.3	16.3	0.00e+00	0	38	0	709885952	62	4984
2026-01-22 09:22:19.09	40.05	46.31	-45.1	-48.0	16.5	0.00e+00	0	38	0	711983104	62	4829
2026-01-22 09:22:20.09	39.54	46.18	-45.1	-47.9	16.7	0.00e+00	0	38	0	714080256	62	4805
2026-01-22 09:22:21.09	39.02	46.06	-45.0	-47.8	16.7	0.00e+00	0	38	0	716177408	62	4747
2026-01-22 09:22:22.09	38.52	45.93	-44.7	-47.4	17.1	0.00e+00	0	38	0	717225984	61	4807
2026-01-22 09:22:23.09	38.01	45.80	-44.6	-47.4	17.2	0.00e+00	0	38	0	719323136	61	4778
2026-01-22 09:22:24.09	37.51	45.66	-44.6	-47.4	17.1	0.00e+00	0	38	0	721420288	61	4782
2026-01-22 09:22:25.08	37.02	45.53	-44.5	-47.2	17.3	0.00e+00	0	38	0	723517440	61	4700
2026-01-22 09:22:26.08	36.53	45.39	-44.5	-47.2	17.4	0.00e+00	0	38	0	725614592	60	4935
2026-01-22 09:22:27.08	36.04	45.25	-44.3	-46.9	17.5	0.00e+00	0	38	0	726663168	60	4813
2026-01-22 09:22:28.08	35.56	45.11	-44.3	-47.0	17.5	0.00e+00	0	38	0	728760320	60	4849
2026-01-22 09:22:29.08	35.08	44.97	-44.3	-47.0	17.6	0.00e+00	0	38	0	730857472	60	4839
2026-01-22 09:22:30.08	34.60	44.83	-44.1	-46.7	17.8	0.00e+00	0	38	0	732954624	60	4701
2026-01-22 09:22:31.07	34.14	44.68	-44.0	-46.6	17.9	0.00e+00	0	38	0	735051776	60	4622
2026-01-22 09:22:32.07	33.67	44.53	-44.0	-46.5	17.9	0.00e+00	0	38	0	736100352	59	4863
2026-01-22 09:22:33.07	33.21	44.39	-44.0	-46.6	17.9	0.00e+00	0	38	0	738197504	59	4879
2026-01-22 09:22:34.07	32.75	44.24	-44.1	-46.6	17.8	0.00e+00	0	38	0	740294656	59	4894
2026-01-22 09:22:35.06	32.30	44.08	-44.2	-46.7	17.7	0.00e+00	0	38	0	742391808	59	4961
2026-01-22 09:22:36.06	31.86	43.93	-44.1	-46.7	17.8	0.00e+00	0	38	0	743440384	59	4935
2026-01-22 09:22:37.05	31.42	43.78	-44.1	-46.7	17.8	0.00e+00	0	38	0	745537536	59	4936
2026-01-22 09:22:38.05	30.98	43.62	-44.1	-46.6	17.8	0.00e+00	0	38	0	747634688	59	4910
2026-01-22 09:22:39.05	30.54	43.47	-44.1	-46.7	17.8	0.00e+00	0	38	0	749731840	59	4942
2026-01-22 09:22:40.05	30.11	43.31	-44.3	-46.9	17.6	0.00e+00	0	38	0	751828992	59	5055
2026-01-22 09:22:41.04	29.69	43.15	-44.6	-47.3	17.3	0.00e+00	0	38	0	752877568	59	5288
2026-01-22 09:22:42.04	29.26	42.99	-44.4	-47.1	17.4	0.00e+00	0	38	0	754974720	59	5174
2026-01-22 09:22:43.04	28.84	42.83	-44.5	-47.2	17.3	0.00e+00	0	38	0	757071872	59	5242
2026-01-22 09:22:44.04	28.43	42.66	-44.5	-47.2	17.4	0.00e+00	0	38	0	759169024	59	5227
2026-01-22 09:22:45.03	28.02	42.50	-44.4	-47.1	17.4	0.00e+00	0	38	0	760217600	59	5192
2026-01-22 09:22:46.04	27.61	42.34	-44.3	-46.9	17.6	0.00e+00	0	38	0	762314752	59	5083
2026-01-22 09:22:47.03	27.22	42.17	-44.2	-46.8	17.7	0.00e+00	0	38	0	764411904	59	5011
2026-01-22 09:22:48.03	26.82	42.01	-44.0	-46.5	17.9	0.00e+00	0	38	0	766509056	59	4866
2026-01-22 09:22:49.03	26.43	41.84	-44.1	-46.6	17.9	0.00e+00	0	38	0	768606208	59	4884
2026-01-22 09:22:50.03	26.04	41.67	-44.0	-46.5	18.0	0.00e+00	0	37	0	769654784	59	4835
2026-01-22 09:22:51.02	25.65	41.51	-44.0	-46.5	18.0	0.00e+00	0	38	0	771751936	59	4832
2026-01-22 09:22:52.03	25.27	41.34	-44.1	-46.6	17.8	0.00e+00	0	38	0	773849088	59	4926
2026-01-22 09:22:53.02	24.90	41.17	-44.4	-47.0	17.4	0.00e+00	0	38	0	775946240	59	5133
2026-01-22 09:22:54.01	24.53	41.00	-44.4	-47.0	17.4	0.00e+00	0	38	0	778043392	59	5143
2026-01-22 09:22:55.01	24.16	40.83	-44.2	-46.8	17.6	0.00e+00	0	38	0	779091968	59	5035
2026-01-22 09:22:56.01	23.79	40.66	-44.2	-46.8	17.6	0.00e+00	0	38	0	781189120	59	5011
2026-01-22 09:22:57.00	23.43	40.49	-44.4	-47.0	17.5	0.00e+00	0	38	0	783286272	59	5110
2026-01-22 09:22:58.00	23.08	40.31	-44.6	-47.3	17.1	0.00e+00	0	38	0	785383424	59	5337
2026-01-22 09:22:59.00	22.72	40.14	-44.8	-47.6	17.0	0.00e+00	0	38	0	786432000	60	5170
2026-01-22 09:22:59.99	22.37	39.97	-45.0	-47.9	16.7	0.00e+00	0	38	0	788529152	60	5370
2026-01-22 09:23:00.99	22.03	39.80	-45.3	-48.3	16.2	0.00e+00	0	38	0	790626304	61	5320
2026-01-22 09:23:01.99	21.69	39.62	-45.3	-48.5	16.1	0.00e+00	0	38	0	792723456	61	5410
2026-01-22 09:23:02.99	21.35	39.45	-45.4	-48.5	16.1	0.00e+00	0	38	0	794820608	61	5412
2026-01-22 09:23:03.98	21.01	39.28	-45.3	-48.4	16.2	0.00e+00	0	38	0	795869184	61	5392
2026-01-22 09:23:04.98	20.68	39.10	-45.6	-48.8	15.8	0.00e+00	0	38	0	797966336	61	5610
2026-01-22 09:23:05.98	20.35	38.93	-45.9	-49.2	15.5	0.00e+00	0	38	0	800063488	62	5555
2026-01-22 09:23:06.98	20.03	38.75	-45.8	-49.0	15.6	7.00e-07	0	38	0	802160640	62	5440
2026-01-22 09:23:07.98	19.71	38.58	-45.5	-48.7	15.9	0.00e+00	0	38	0	804257792	62	5231
2026-01-22 09:23:08.98	19.39	38.40	-45.4	-48.5	16.1	0.00e+00	0	38	0	805306368	62	5128
2026-01-22 09:23:09.98	19.08	38.23	-45.7	-48.9	15.7	0.00e+00	0	38	0	807403520	62	5390
2026-01-22 09:23:10.98	18.77	38.05	-45.9	-49.2	15.3	0.00e+00	0	38	0	809500672	62	5581
2026-01-22 09:23:11.98	18.46	37.88	-45.9	-49.3	15.2	0.00e+00	0	38	0	811597824	62	5641
2026-01-22 09:23:12.98	18.15	37.70	-45.8	-49.3	15.2	0.00e+00	0	38	0	812646400	62	5625
2026-01-22 09:23:13.97	17.86	37.53	-45.7	-49.2	15.4	0.00e+00	0	38	0	814743552	62	5552
2026-01-22 09:23:14.97	17.56	37.35	-45.8	-49.3	15.2	0.00e+00	0	38	0	816840704	62	5647
2026-01-22 09:23:15.97	17.26	37.18	-46.1	-49.7	14.9	0.00e+00	0	38	0	818937856	62	5906
2026-01-22 09:23:16.97	16.97	37.00	-46.0	-49.5	15.1	0.00e+00	0	38	0	821035008	62	5748
2026-01-22 09:23:17.97	16.68	36.83	-46.2	-49.7	14.9	0.00e+00	0	38	0	822083584	63	5566
2026-01-22 09:23:18.97	16.40	36.65	-46.3	-49.9	14.7	0.00e+00	0	38	0	824180736	63	5686
2026-01-22 09:23:19.96	16.12	36.48	-46.5	-50.2	14.4	7.00e-07	0	38	0	826277888	63	5911
2026-01-22 09:23:20.96	15.84	36.30	-46.4	-50.0	14.6	7.00e-07	0	38	0	828375040	63	5727
2026-01-22 09:23:21.96	15.57	36.13	-46.2	-49.6	15.0	0.00e+00	0	38	0	830472192	63	5515
2026-01-22 09:23:22.96	15.29	35.96	-45.9	-49.2	15.3	0.00e+00	0	38	0	831520768	63	5251
2026-01-22 09:23:23.96	15.02	35.78	-45.9	-49.2	15.3	0.00e+00	0	38	0	833617920	63	5268
2026-01-22 09:23:24.96	14.75	35.61	-45.9	-49.2	15.4	0.00e+00	0	38	0	835715072	63	5249
2026-01-22 09:23:25.96	14.49	35.43	-46.0	-49.3	15.3	0.00e+00	0	38	0	837812224	63	5320
2026-01-22 09:23:26.96	14.23	35.26	-46.1	-49.5	15.1	0.00e+00	0	38	0	838860800	63	5427
2026-01-22 09:23:27.96	13.97	35.09	-46.2	-49.7	14.9	7.00e-07	0	38	0	840957952	63	5564
2026-01-22 09:23:28.95	13.72	34.92	-46.3	-49.8	14.8	7.00e-07	0	38	0	843055104	63	5631
2026-01-22 09:23:29.95	13.46	34.74	-46.4	-49.9	14.7	7.00e-07	0	38	0	845152256	63	5683
2026-01-22 09:23:30.95	13.21	34.57	-46.1	-49.5	15.1	0.00e+00	0	38	0	847249408	63	5409
2026-01-22 09:23:31.95	12.97	34.40	-45.9	-49.2	15.4	0.00e+00	0	38	0	848297984	63	5220
2026-01-22 09:23:32.94	12.72	34.23	-45.8	-49.1	15.5	0.00e+00	0	38	0	850395136	63	5165
2026-01-22 09:23:33.94	12.48	34.06	-45.9	-49.1	15.5	0.00e+00	0	37	0	852492288	63	5188
2026-01-22 09:23:34.94	12.24	33.89	-45.9	-49.3	15.3	0.00e+00	0	38	0	854589440	63	5286
2026-01-22 09:23:35.94	12.00	33.72	-46.0	-49.4	15.2	0.00e+00	0	38	0	856686592	63	5358
2026-01-22 09:23:36.94	11.77	33.55	-45.8	-49.2	15.3	0.00e+00	0	38	0	857735168	63	5220
2026-01-22 09:23:37.94	11.54	33.38	-45.7	-49.0	15.5	0.00e+00	0	38	0	859832320	63	5155
2026-01-22 09:23:38.94	11.31	33.21	-45.5	-48.8	15.8	0.00e+00	0	38	0	861929472	62	5333
2026-01-22 09:23:39.94	11.08	33.04	-45.3	-48.5	16.1	0.00e+00	0	38	0	864026624	62	5138
2026-01-22 09:23:40.93	10.85	32.87	-45.3	-48.5	16.0	0.00e+00	0	38	0	865075200	62	5138
2026-01-22 09:23:41.93	10.63	32.71	-45.5	-48.7	15.9	0.00e+00	0	38	0	867172352	62	5237
2026-01-22 09:23:42.93	10.41	32.54	-45.6	-48.8	15.7	0.00e+00	0	38	0	869269504	62	5333
2026-01-22 09:23:43.93	10.19	32.37	-45.6	-48.7	15.8	0.00e+00	0	38	0	871366656	62	5279
2026-01-22 09:23:44.93	9.98	32.20	-45.7	-48.9	15.6	0.00e+00	0	38	0	873463808	62	5399
2026-01-22 09:23:45.92	9.77	32.04	-45.9	-49.2	15.4	0.00e+00	0	38	0	874512384	62	5556
2026-01-22 09:23:46.92	9.55	31.87	-45.9	-49.2	15.4	0.00e+00	0	38	0	876609536	62	5547
2026-01-22 09:23:47.92	9.34	31.71	-45.9	-49.3	15.3	0.00e+00	0	38	0	878706688	62	5609
2026-01-22 09:23:48.92	9.14	31.54	-45.9	-49.2	15.3	0.00e+00	0	38	0	880803840	62	5565
2026-01-22 09:23:49.91	8.93	31.38	-45.9	-49.2	15.3	0.00e+00	0	38	0	882900992	62	5557
2026-01-22 09:23:50.91	8.73	31.22	-45.9	-49.3	15.3	0.00e+00	0	38	0	883949568	62	5593
2026-01-22 09:23:51.92	8.53	31.05	-46.0	-49.4	15.2	0.00e+00	0	38	0	886046720	62	5688
2026-01-22 09:23:52.92	8.33	30.89	-46.1	-49.5	15.0	0.00e+00	0	38	0	888143872	62	5787
2026-01-22 09:23:53.91	8.13	30.73	-46.1	-49.6	15.0	0.00e+00	0	38	0	890241024	62	5831
2026-01-22 09:23:54.91	7.94	30.57	-46.0	-49.5	15.1	0.00e+00	0	38	0	891289600	63	5410
2026-01-22 09:23:55.91	7.75	30.41	-45.9	-49.2	15.3	0.00e+00	0	38	0	893386752	63	5271
2026-01-22 09:23:56.91	7.55	30.25	-45.9	-49.4	15.2	0.00e+00	0	38	0	895483904	63	5359
2026-01-22 09:23:57.91	7.37	30.09	-45.8	-49.2	15.4	0.00e+00	0	38	0	897581056	63	5221
2026-01-22 09:23:58.91	7.18	29.93	-45.8	-49.1	15.4	0.00e+00	0	38	0	899678208	63	5200
2026-01-22 09:23:59.91	6.99	29.77	-45.8	-49.1	15.5	0.00e+00	0	38	0	900726784	63	5181
2026-01-22 09:24:00.91	6.81	29.61	-45.8	-49.2	15.4	0.00e+00	0	38	0	902823936	63	5219
2026-01-22 09:24:01.91	6.63	29.45	-45.9	-49.2	15.3	0.00e+00	0	38	0	904921088	63	5267
2026-01-22 09:24:02.91	6.45	29.30	-45.9	-49.2	15.4	0.00e+00	0	38	0	907018240	63	5278
2026-01-22 09:24:03.91	6.27	29.14	-45.7	-49.0	15.5	0.00e+00	0	38	0	908066816	63	5139
2026-01-22 09:24:04.91	6.09	28.98	-45.6	-48.8	15.7	0.00e+00	0	38	0	910163968	63	5026
2026-01-22 09:24:05.90	5.92	28.83	-45.5	-48.6	15.9	0.00e+00	0	38	0	912261120	62	5201
2026-01-22 09:24:06.90	5.75	28.67	-45.3	-48.3	16.2	0.00e+00	0	38	0	914358272	62	5041
2026-01-22 09:24:07.90	5.58	28.52	-45.3	-48.3	16.2	0.00e+00	0	38	0	916455424	62	5027
2026-01-22 09:24:08.89	5.41	28.37	-45.1	-48.1	16.5	0.00e+00	0	38	0	917504000	62	4881
2026-01-22 09:24:09.89	5.24	28.21	-45.2	-48.3	16.3	0.00e+00	0	38	0	919601152	62	4986
2026-01-22 09:24:10.88	5.08	28.06	-45.1	-48.1	16.4	0.00e+00	0	38	0	921698304	62	4886
2026-01-22 09:24:11.88	4.91	27.91	-45.2	-48.1	16.4	0.00e+00	0	38	0	923795456	62	4910
2026-01-22 09:24:12.88	4.75	27.76	-45.0	-47.9	16.6	0.00e+00	0	38	0	925892608	62	4812
2026-01-22 09:24:13.88	4.59	27.61	-45.0	-47.8	16.7	0.00e+00	0	38	0	926941184	61	5036
2026-01-22 09:24:14.88	4.43	27.46	-44.9	-47.7	16.7	0.00e+00	0	38	0	929038336	61	4960
2026-01-22 09:24:15.88	4.27	27.31	-44.8	-47.6	16.9	0.00e+00	0	38	0	931135488	61	4890
2026-01-22 09:24:16.88	4.11	27.16	-44.8	-47.6	16.9	0.00e+00	0	38	0	933232640	61	4881
2026-01-22 09:24:17.88	3.96	27.01	-44.9	-47.7	16.7	0.00e+00	0	38	0	935329792	61	4980
2026-01-22 09:24:18.87	3.80	26.86	-44.8	-47.5	16.9	0.00e+00	0	38	0	936378368	61	4862
2026-01-22 09:24:19.87	3.65	26.72	-44.8	-47.6	16.9	0.00e+00	0	38	0	938475520	61	4878
2026-01-22 09:24:20.87	3.50	26.57	-44.8	-47.7	16.8	0.00e+00	0	38	0	940572672	61	4929
2026-01-22 09:24:21.87	3.35	26.42	-44.7	-47.6	16.9	0.00e+00	0	38	0	942669824	61	4874
2026-01-22 09:24:22.86	3.20	26.28	-44.7	-47.6	16.9	0.00e+00	0	38	0	943718400	61	4884
2026-01-22 09:24:23.87	3.06	26.13	-44.7	-47.5	17.0	0.00e+00	0	38	0	945815552	61	4855
2026-01-22 09:24:24.87	2.91	25.99	-44.7	-47.6	16.9	0.00e+00	0	38	0	947912704	61	4889
2026-01-22 09:24:25.87	2.77	25.84	-44.7	-47.6	16.9	0.00e+00	0	38	0	950009856	61	4896
2026-01-22 09:24:26.87	2.62	25.70	-44.6	-47.4	17.1	0.00e+00	0	38	0	952107008	61	4765
2026-01-22 09:24:27.87	2.48	25.56	-44.5	-47.3	17.2	0.00e+00	0	38	0	953155584	61	4721
2026-01-22 09:24:28.86	2.34	25.41	-44.5	-47.3	17.2	0.00e+00	0	38	0	955252736	61	4710
2026-01-22 09:24:29.86	2.20	25.27	-44.3	-47.0	17.4	0.00e+00	0	38	0	957349888	60	4851
2026-01-22 09:24:30.86	2.07	25.13	-44.2	-47.0	17.5	0.00e+00	0	38	0	959447040	60	4819
2026-01-22 09:24:31.86	1.93	24.99	-44.3	-47.1	17.4	0.00e+00	0	38	0	960495616	60	4891
2026-01-22 09:24:32.86	1.79	24.85	-44.3	-47.1	17.3	0.00e+00	0	38	0	962592768	60	4911
2026-01-22 09:24:33.86	1.66	24.71	-44.3	-47.1	17.3	0.00e+00	0	38	0	964689920	60	4920
2026-01-22 09:24:34.86	1.53	24.57	-44.4	-47.2	17.2	0.00e+00	0	38	0	966787072	60	4954
2026-01-22 09:24:35.85	1.40	24.44	-44.6	-47.4	17.0	0.00e+00	0	38	0	968884224	60	5095
2026-01-22 09:24:36.85	1.27	24.30	-44.7	-47.6	16.8	0.00e+00	0	38	0	969932800	60	5185
2026-01-22 09:24:37.85	1.14	24.16	-44.7	-47.6	16.8	0.00e+00	0	38	0	972029952	60	5212
2026-01-22 09:24:38.84	1.01	24.03	-44.7	-47.6	16.9	0.00e+00	0	38	0	974127104	60	5170
2026-01-22 09:24:39.84	0.88	23.89	-44.6	-47.5	16.9	0.00e+00	0	38	0	976224256	60	5122
2026-01-22 09:24:40.84	0.76	23.75	-44.6	-47.4	17.0	0.00e+00	0	38	0	978321408	60	5093
2026-01-22 09:24:41.84	0.63	23.62	-44.6	-47.4	17.0	0.00e+00	0	38	0	979369984	60	5081
2026-01-22 09:24:42.84	0.51	23.48	-44.4	-47.2	17.2	0.00e+00	0	38	0	981467136	60	4972
2026-01-22 09:24:43.84	0.39	23.35	-44.4	-47.2	17.2	0.00e+00	0	37	0	983564288	60	4942
2026-01-22 09:24:44.84	0.27	23.22	-44.4	-47.2	17.3	0.00e+00	0	38	0	985661440	60	4937
2026-01-22 09:24:45.83	0.15	23.08	-44.4	-47.2	17.2	0.00e+00	0	38	0	986710016	60	4950
2026-01-22 09:24:46.83	0.03	22.95	-44.3	-47.1	17.3	0.00e+00	0	38	0	988807168	60	4910
2026-01-22 09:24:47.84	359.91	22.82	-44.2	-47.1	17.3	0.00e+00	0	38	0	990904320	60	4878
2026-01-22 09:24:48.84	359.79	22.69	-44.4	-47.2	17.2	0.00e+00	0	38	0	993001472	60	4983
2026-01-22 09:24:49.83	359.67	22.56	-44.3	-47.1	17.3	0.00e+00	0	38	0	995098624	60	4922
2026-01-22 09:24:50.83	359.56	22.43	-44.3	-47.1	17.3	0.00e+00	0	38	0	996147200	60	4908
2026-01-22 09:24:51.83	359.45	22.30	-44.5	-47.3	17.1	0.00e+00	0	38	0	998244352	60	4998
2026-01-22 09:24:52.82	359.33	22.17	-44.5	-47.3	17.1	0.00e+00	0	38	0	1000341504	60	5013
2026-01-22 09:24:53.82	359.22	22.04	-44.4	-47.2	17.2	0.00e+00	0	38	0	1002438656	60	4957
2026-01-22 09:24:54.82	359.11	21.91	-44.5	-47.3	17.1	0.00e+00	0	38	0	1004535808	60	5005
2026-01-22 09:24:55.82	359.00	21.79	-44.5	-47.4	17.0	0.00e+00	0	38	0	1005584384	60	5058
2026-01-22 09:24:56.82	358.89	21.66	-44.5	-47.4	17.0	0.00e+00	0	38	0	1007681536	60	5056
2026-01-22 09:24:57.82	358.78	21.53	-44.4	-47.3	17.1	0.00e+00	0	38	0	1009778688	60	5003
2026-01-22 09:24:58.82	358.67	21.41	-44.5	-47.4	17.0	0.00e+00	0	38	0	1011875840	60	5052
2026-01-22 09:24:59.82	358.57	21.28	-44.5	-47.3	17.1	0.00e+00	0	38	0	1013972992	60	5012
2026-01-22 09:25:00.82	358.46	21.16	-44.5	-47.3	17.1	0.00e+00	0	38	0	1015021568	60	5022
2026-01-22 09:25:01.81	358.36	21.03	-44.5	-47.3	17.1	0.00e+00	0	38	0	1017118720	60	5018
2026-01-22 09:25:02.81	358.25	20.91	-44.5	-47.3	17.2	0.00e+00	0	38	0	1019215872	60	4986
2026-01-22 09:25:03.81	358.15	20.79	-44.5	-47.3	17.1	0.00e+00	0	37	0	1021313024	60	4994
2026-01-22 09:25:04.80	358.05	20.67	-44.5	-47.3	17.1	0.00e+00	0	38	0	1022361600	60	5030
2026-01-22 09:25:05.80	357.95	20.54	-44.5	-47.3	17.1	0.00e+00	0	38	0	1024458752	60	5025
2026-01-22 09:25:06.80	357.84	20.42	-44.5	-47.4	17.0	0.00e+00	0	38	0	1026555904	60	5065
2026-01-22 09:25:07.79	357.75	20.30	-44.6	-47.5	16.9	0.00e+00	0	38	0	1028653056	60	5113
2026-01-22 09:25:08.79	357.65	20.18	-44.6	-47.5	16.9	0.00e+00	0	38	0	1030750208	60	5158
2026-01-22 09:25:09.79	357.55	20.06	-44.7	-47.6	16.8	0.00e+00	0	38	0	1031798784	60	5187
2026-01-22 09:25:10.79	357.45	19.94	-44.8	-47.7	16.7	0.00e+00	0	38	0	1033895936	60	5245
2026-01-22 09:25:11.79	357.35	19.82	-44.8	-47.7	16.7	0.00e+00	0	38	0	1035993088	60	5257
2026-01-22 09:25:12.78	357.26	19.70	-44.9	-47.8	16.6	0.00e+00	0	38	0	1038090240	60	5324
2026-01-22 09:25:13.78	357.16	19.58	-44.9	-47.8	16.6	0.00e+00	0	38	0	1039138816	60	5328
2026-01-22 09:25:14.78	357.07	19.47	-45.0	-48.0	16.4	0.00e+00	0	38	0	1041235968	60	5432
2026-01-22 09:25:15.78	356.98	19.35	-44.8	-47.9	16.5	0.00e+00	0	38	0	1043333120	60	5362
2026-01-22 09:25:16.77	356.88	19.23	-44.9	-48.0	16.4	0.00e+00	0	38	0	1045430272	60	5438
2026-01-22 09:25:17.77	356.79	19.12	-44.8	-48.0	16.4	0.00e+00	0	38	0	1047527424	60	5464
2026-01-22 09:25:18.77	356.70	19.00	-44.7	-47.9	16.6	0.00e+00	0	38	0	1048576000	60	5348
2026-01-22 09:25:19.77	356.61	18.88	-44.6	-47.8	16.6	0.00e+00	0	38	0	1050673152	60	5336
2026-01-22 09:25:20.77	356.52	18.77	-44.5	-47.6	16.8	0.00e+00	0	38	0	1052770304	60	5191
2026-01-22 09:25:21.76	356.43	18.66	-44.4	-47.4	17.0	0.00e+00	0	38	0	1054867456	60	5050
2026-01-22 09:25:22.76	356.34	18.54	-44.4	-47.3	17.1	0.00e+00	0	38	0	1056964608	60	5021
2026-01-22 09:25:23.76	356.25	18.43	-44.4	-47.2	17.1	0.00e+00	0	38	0	1058013184	60	4978
2026-01-22 09:25:24.75	356.17	18.32	-44.3	-47.1	17.2	0.00e+00	0	38	0	1060110336	60	4920
2026-01-22 09:25:25.75	356.08	18.20	-44.3	-47.1	17.2	0.00e+00	0	38	0	1062207488	60	4908
2026-01-22 09:25:26.75	355.99	18.09	-44.3	-47.1	17.2	0.00e+00	0	38	0	1064304640	60	4892
2026-01-22 09:25:27.75	355.91	17.98	-44.4	-47.2	17.1	0.00e+00	0	38	0	1065353216	60	4978
2026-01-22 09:25:28.74	355.82	17.87	-44.3	-47.2	17.1	0.00e+00	0	38	0	1067450368	60	4975
2026-01-22 09:25:29.74	355.74	17.76	-44.2	-47.1	17.2	0.00e+00	0	38	0	1069547520	60	4921
2026-01-22 09:25:30.74	355.66	17.65	-44.3	-47.2	17.1	0.00e+00	0	38	0	1071644672	60	4978
2026-01-22 09:25:31.73	355.58	17.54	-44.4	-47.4	16.9	0.00e+00	0	38	0	1073741824	60	5088
2026-01-22 09:25:32.72	355.49	17.43	-44.3	-47.3	17.0	0.00e+00	0	38	0	1074790400	60	5041
2026-01-22 09:25:33.73	355.41	17.32	-44.3	-47.3	17.1	0.00e+00	0	38	0	1076887552	60	5005
2026-01-22 09:25:34.73	355.33	17.21	-44.5	-47.5	16.9	0.00e+00	0	38	0	1078984704	60	5121
2026-01-22 09:25:35.72	355.25	17.10	-44.6	-47.6	16.7	0.00e+00	0	38	0	1081081856	60	5177
2026-01-22 09:25:36.72	355.17	16.99	-44.6	-47.6	16.8	0.00e+00	0	38	0	1083179008	60	5179
2026-01-22 09:25:37.72	355.09	16.89	-44.8	-47.8	16.6	0.00e+00	0	38	0	1084227584	60	5328
2026-01-22 09:25:38.72	355.01	16.78	-44.8	-48.0	16.4	0.00e+00	0	38	0	1086324736	60	5418
2026-01-22 09:25:39.72	354.94	16.67	-44.7	-47.8	16.6	0.00e+00	0	38	0	1088421888	60	5306
2026-01-22 09:25:40.71	354.86	16.57	-44.7	-47.8	16.5	0.00e+00	0	38	0	1090519040	60	5340
2026-01-22 09:25:41.71	354.78	16.46	-44.9	-48.1	16.3	0.00e+00	0	38	0	1091567616	60	5471
2026-01-22 09:25:42.71	354.71	16.35	-44.9	-48.1	16.3	0.00e+00	0	38	0	1093664768	60	5467
2026-01-22 09:25:43.71	354.63	16.25	-45.0	-48.2	16.2	0.00e+00	0	38	0	1095761920	60	5552
2026-01-22 09:25:44.70	354.56	16.14	-45.0	-48.3	16.1	0.00e+00	0	38	0	1097859072	60	5618
2026-01-22 09:25:45.70	354.48	16.04	-45.0	-48.3	16.1	0.00e+00	0	38	0	1099956224	60	5624
2026-01-22 09:25:46.70	354.41	15.94	-45.0	-48.3	16.0	0.00e+00	0	38	0	1101004800	60	5629
2026-01-22 09:25:47.69	354.34	15.83	-45.0	-48.4	15.9	0.00e+00	0	38	0	1103101952	60	5698
2026-01-22 09:25:48.69	354.26	15.73	-44.9	-48.2	16.1	0.00e+00	0	38	0	1105199104	60	5581
2026-01-22 09:25:49.68	354.19	15.63	-45.1	-48.4	16.0	0.00e+00	0	38	0	1107296256	60	5668
2026-01-22 09:25:50.68	354.12	15.53	-45.0	-48.3	16.0	0.00e+00	0	38	0	1108344832	60	5640
2026-01-22 09:25:51.68	354.05	15.42	-45.1	-48.4	16.0	0.00e+00	0	38	0	1110441984	60	5662
2026-01-22 09:25:52.68	353.98	15.32	-45.1	-48.4	16.0	0.00e+00	0	38	0	1112539136	61	5342
2026-01-22 09:25:53.67	353.91	15.22	-44.9	-48.2	16.1	0.00e+00	0	38	0	1114636288	61	5254
2026-01-22 09:25:54.67	353.84	15.12	-45.0	-48.3	16.0	0.00e+00	0	38	0	1116733440	61	5311
2026-01-22 09:25:55.67	353.77	15.02	-44.9	-48.2	16.2	0.00e+00	0	38	0	1117782016	61	5221
2026-01-22 09:25:56.67	353.70	14.92	-44.9	-48.2	16.1	0.00e+00	0	38	0	1119879168	61	5241
2026-01-22 09:25:57.67	353.63	14.82	-44.9	-48.1	16.1	0.00e+00	0	38	0	1121976320	61	5203
2026-01-22 09:25:58.67	353.56	14.72	-44.9	-48.2	16.1	0.00e+00	0	38	0	1124073472	61	5253
2026-01-22 09:25:59.66	353.50	14.62	-45.0	-48.3	16.0	0.00e+00	0	38	0	1126170624	61	5318
2026-01-22 09:26:00.66	353.43	14.52	-45.0	-48.3	16.0	0.00e+00	0	38	0	1127219200	61	5314
2026-01-22 09:26:01.66	353.36	14.42	-45.0	-48.3	16.0	0.00e+00	0	38	0	1129316352	61	5340
2026-01-22 09:26:02.65	353.30	14.33	-45.1	-48.4	16.0	0.00e+00	0	38	0	1131413504	61	5346
2026-01-22 09:26:03.65	353.23	14.23	-45.2	-48.4	15.9	0.00e+00	0	38	0	1133510656	61	5348
2026-01-22 09:26:04.65	353.17	14.13	-45.2	-48.4	15.9	0.00e+00	0	38	0	1134559232	61	5380
2026-01-22 09:26:05.64	353.10	14.04	-45.1	-48.4	15.9	0.00e+00	0	38	0	1136656384	61	5357
2026-01-22 09:26:06.64	353.04	13.94	-45.0	-48.4	15.9	0.00e+00	0	38	0	1138753536	61	5396
2026-01-22 09:26:07.64	352.97	13.84	-45.0	-48.5	15.9	0.00e+00	0	38	0	1140850688	61	5403
2026-01-22 09:26:08.63	352.91	13.75	-44.9	-48.3	16.0	0.00e+00	0	38	0	1142947840	61	5312
2026-01-22 09:26:09.63	352.85	13.65	-44.9	-48.3	16.0	0.00e+00	0	38	0	1143996416	61	5314
2026-01-22 09:26:10.63	352.79	13.56	-45.0	-48.3	16.0	0.00e+00	0	38	0	1146093568	61	5323
2026-01-22 09:26:11.63	352.72	13.46	-44.9	-48.3	16.0	0.00e+00	0	38	0	1148190720	61	5313
2026-01-22 09:26:12.63	352.66	13.37	-44.8	-48.3	16.0	0.00e+00	0	38	0	1150287872	61	5336
2026-01-22 09:26:13.63	352.60	13.27	-44.5	-48.2	16.1	0.00e+00	0	38	0	1151336448	61	5235
2026-01-22 09:26:14.63	352.54	13.18	-44.5	-48.2	16.1	0.00e+00	0	38	0	1153433600	61	5245
2026-01-22 09:26:15.63	352.48	13.09	-44.4	-48.3	16.0	0.00e+00	0	38	0	1155530752	60	5656
2026-01-22 09:26:16.63	352.42	12.99	-44.3	-48.4	15.9	0.00e+00	0	38	0	1157627904	60	5663
2026-01-22 09:26:17.62	352.36	12.90	-44.1	-48.2	16.1	0.00e+00	0	38	0	1159725056	60	5531
2026-01-22 09:26:18.62	352.30	12.81	-44.1	-48.0	16.2	0.00e+00	0	38	0	1160773632	59	5738
2026-01-22 09:26:19.62	352.24	12.71	-44.1	-48.0	16.2	0.00e+00	0	38	0	1162870784	59	5787
2026-01-22 09:26:20.62	352.18	12.62	-44.1	-48.0	16.3	0.00e+00	0	38	0	1164967936	59	5733
2026-01-22 09:26:21.62	352.13	12.53	-44.2	-48.0	16.2	0.00e+00	0	38	0	1167065088	59	5750
2026-01-22 09:26:22.61	352.07	12.44	-44.3	-48.0	16.2	0.00e+00	0	38	0	1169162240	59	5785
2026-01-22 09:26:23.61	352.01	12.35	-44.5	-48.2	16.0	0.00e+00	0	38	0	1170210816	59	5918
2026-01-22 09:26:24.60	351.95	12.26	-44.4	-48.1	16.1	0.00e+00	0	38	0	1172307968	59	5824
2026-01-22 09:26:25.60	351.90	12.17	-44.6	-48.3	16.0	0.00e+00	0	38	0	1174405120	59	5936
2026-01-22 09:26:26.60	351.84	12.08	-44.6	-48.3	15.9	0.00e+00	0	38	0	1176502272	59	5976
2026-01-22 09:26:27.60	351.79	11.99	-44.7	-48.5	15.8	0.00e+00	0	38	0	1177550848	59	6089
2026-01-22 09:26:28.60	351.73	11.90	-44.7	-48.8	15.4	0.00e+00	0	38	0	1179648000	60	5964
2026-01-22 09:26:29.59	351.68	11.81	-44.6	-48.6	15.6	0.00e+00	0	38	0	1181745152	60	5839
2026-01-22 09:26:30.59	351.62	11.72	-44.5	-48.7	15.6	0.00e+00	0	38	0	1183842304	60	5862
2026-01-22 09:26:31.59	351.57	11.63	-44.6	-48.9	15.4	0.00e+00	0	38	0	1185939456	60	6005
2026-01-22 09:26:32.59	351.51	11.54	-44.5	-48.6	15.6	0.00e+00	0	38	0	1186988032	60	5828
2026-01-22 09:26:33.59	351.46	11.46	-44.6	-49.0	15.3	0.00e+00	0	38	0	1189085184	60	6062
2026-01-22 09:26:34.58	351.41	11.37	-44.5	-49.0	15.3	0.00e+00	0	38	0	1191182336	60	6099
2026-01-22 09:26:35.58	351.35	11.28	-44.4	-48.9	15.4	0.00e+00	0	38	0	1193279488	60	6011
2026-01-22 09:26:36.58	351.30	11.19	-44.1	-48.8	15.4	0.00e+00	0	37	0	1195376640	60	5986
2026-01-22 09:26:37.59	351.25	11.11	-44.0	-48.9	15.2	7.00e-07	0	38	0	1196425216	59	6402
2026-01-22 09:26:38.59	351.20	11.02	-43.9	-48.8	15.3	7.00e-07	0	38	0	1198522368	59	6337
2026-01-22 09:26:39.59	351.14	10.93	-43.7	-48.9	15.3	0.00e+00	0	38	0	1200619520	59	6375
2026-01-22 09:26:40.58	351.09	10.85	-43.5	-48.9	15.3	0.00e+00	0	38	0	1202716672	58	6748
2026-01-22 09:26:41.58	351.04	10.76	-43.4	-48.8	15.3	0.00e+00	0	38	0	1203765248	58	6712
2026-01-22 09:26:42.58	350.99	10.68	-43.4	-48.8	15.4	0.00e+00	0	38	0	1205862400	58	6648
2026-01-22 09:26:43.57	350.94	10.59	-43.4	-48.8	15.4	0.00e+00	0	38	0	1207959552	58	6651
2026-01-22 09:26:44.57	350.89	10.51	-43.6	-48.8	15.4	0.00e+00	0	38	0	1210056704	58	6668
2026-01-22 09:26:45.57	350.84	10.42	-43.6	-48.7	15.4	0.00e+00	0	38	0	1212153856	58	6634
2026-01-22 09:26:46.57	350.79	10.34	-43.7	-48.8	15.4	0.00e+00	0	38	0	1213202432	58	6682
2026-01-22 09:26:47.57	350.74	10.25	-43.7	-48.7	15.4	0.00e+00	0	38	0	1215299584	58	6608
2026-01-22 09:26:48.56	350.69	10.17	-44.1	-48.7	15.5	0.00e+00	0	38	0	1217396736	58	6578
2026-01-22 09:26:49.56	350.65	10.09	-44.2	-48.6	15.5	0.00e+00	0	38	0	1219493888	59	6191
2026-01-22 09:26:50.56	350.60	10.00	-44.2	-48.6	15.5	0.00e+00	0	37	0	1221591040	59	6180
2026-01-22 09:26:51.56	350.55	9.92	-44.5	-48.8	15.3	0.00e+00	0	38	0	1222639616	59	6319
