passes_logs/2026/01/22/T1/T1__20260122_071844_SUOMI_NPP_rec.log

#Pass ID: 20260122_071844_SUOMI NPP
#Satellite: SUOMI NPP
#Configuration: NPP
#almurnet v.1.7.20251203
#Start time: 2026-01-22 07:18:46

#Version: 2.0.20230620
#Station: T1
#Location: 37.570604 lon 55.790049 lat
#TLE: 1 37849U 11061A   26021.51818991  .00000201  00000+0  11636-3 0  9995
#TLE: 2 37849  98.7819 323.5108 0002300  52.3548 307.7836 14.19527793737637

#Time	Az	El	Level	Level2	SNR	BER	BlckErr	Temp	State	Recorded	gain1	gain2
2026-01-22 07:18:46.24	71.21	5.09	-49.7	-65.0	3.8	1.49e+00	0	35	0	0	71	20416
2026-01-22 07:18:47.23	71.08	5.13	-49.7	-65.0	3.8	1.49e+00	0	35	104	0	71	20414
2026-01-22 07:18:48.22	70.96	5.17	-49.7	-65.0	3.8	1.49e+00	0	35	104	0	71	20437
2026-01-22 07:18:49.21	70.83	5.21	-49.7	-65.0	3.8	1.49e+00	0	35	104	0	71	20380
2026-01-22 07:18:50.21	70.71	5.25	-49.7	-65.0	3.8	1.49e+00	0	35	104	0	71	20396
2026-01-22 07:18:51.20	70.58	5.29	-49.7	-65.0	3.8	1.49e+00	0	35	104	0	71	20387
2026-01-22 07:18:52.19	70.46	5.34	-49.7	-65.0	3.8	1.49e+00	0	35	104	0	71	20314
2026-01-22 07:18:53.19	70.33	5.38	-49.7	-65.0	3.8	1.49e+00	0	36	104	0	71	20388
2026-01-22 07:18:54.18	70.20	5.42	-49.7	-65.0	3.8	1.49e+00	0	35	104	0	71	20328
2026-01-22 07:18:55.17	70.08	5.46	-49.7	-65.0	3.8	1.49e+00	0	35	104	0	71	20396
2026-01-22 07:18:56.17	69.95	5.50	-49.7	-65.0	3.8	1.49e+00	0	36	104	0	71	20339
2026-01-22 07:18:57.16	69.82	5.54	-49.7	-65.0	3.8	1.49e+00	0	35	104	0	71	20433
2026-01-22 07:18:58.15	69.69	5.58	-49.7	-64.9	3.8	1.49e+00	0	35	104	0	71	20297
2026-01-22 07:18:59.15	69.56	5.62	-49.7	-65.0	3.8	1.49e+00	0	36	104	0	71	20347
2026-01-22 07:19:00.14	69.43	5.65	-49.7	-65.0	3.8	1.49e+00	0	36	104	0	71	20439
2026-01-22 07:19:01.13	69.31	5.69	-49.7	-65.0	3.8	1.49e+00	0	36	104	0	71	20379
2026-01-22 07:19:02.12	69.18	5.73	-49.7	-65.0	3.8	1.49e+00	0	36	104	0	71	20383
2026-01-22 07:19:03.12	69.05	5.77	-49.7	-65.0	3.8	1.49e+00	0	36	104	0	71	20352
2026-01-22 07:19:04.11	68.92	5.81	-49.7	-65.0	3.8	1.49e+00	0	36	104	0	71	20358
2026-01-22 07:19:05.10	68.79	5.85	-49.7	-65.0	3.8	1.49e+00	0	36	104	0	71	20360
2026-01-22 07:19:06.10	68.65	5.89	-49.7	-64.9	3.8	1.49e+00	0	36	104	0	71	20299
2026-01-22 07:19:07.09	68.52	5.93	-49.7	-64.9	3.8	1.49e+00	0	36	104	0	71	20265
2026-01-22 07:19:08.08	68.39	5.97	-49.7	-64.9	3.8	1.49e+00	0	36	104	0	71	20253
2026-01-22 07:19:09.08	68.26	6.01	-49.7	-64.9	3.8	1.49e+00	0	36	104	0	71	20297
2026-01-22 07:19:10.07	68.13	6.05	-49.7	-64.9	3.8	1.49e+00	0	36	104	0	71	20183
2026-01-22 07:19:11.06	67.99	6.09	-49.7	-64.9	3.8	1.49e+00	0	36	104	0	71	20236
2026-01-22 07:19:12.05	67.86	6.12	-49.7	-64.9	3.8	1.49e+00	0	36	104	0	71	20241
2026-01-22 07:19:13.05	67.73	6.16	-49.7	-64.9	3.8	1.49e+00	0	36	104	0	71	20191
2026-01-22 07:19:14.04	67.59	6.20	-49.7	-64.9	3.8	1.49e+00	0	36	104	0	71	20301
2026-01-22 07:19:15.03	67.46	6.24	-49.7	-64.9	3.8	1.49e+00	0	36	104	0	71	20285
2026-01-22 07:19:16.02	67.32	6.28	-49.7	-65.0	3.8	1.49e+00	0	36	104	0	71	20412
2026-01-22 07:19:17.02	67.19	6.32	-49.7	-64.9	3.8	1.49e+00	0	36	104	0	71	20278
2026-01-22 07:19:18.01	67.05	6.35	-49.7	-65.0	3.8	1.49e+00	0	36	104	0	71	20335
2026-01-22 07:19:19.00	66.92	6.39	-49.7	-65.0	3.8	1.49e+00	0	36	104	0	71	20344
2026-01-22 07:19:20.00	66.78	6.43	-49.7	-65.0	3.8	1.49e+00	0	36	104	0	71	20319
2026-01-22 07:19:20.99	66.65	6.47	-49.7	-65.0	3.8	1.49e+00	0	36	104	0	71	20372
2026-01-22 07:19:21.98	66.51	6.51	-49.7	-65.0	3.8	1.49e+00	0	36	104	0	71	20349
2026-01-22 07:19:22.97	66.37	6.54	-49.7	-65.0	3.8	1.49e+00	0	36	104	0	71	20323
2026-01-22 07:19:23.97	66.23	6.58	-49.7	-65.0	3.8	1.49e+00	0	36	104	0	71	20317
2026-01-22 07:19:24.96	66.10	6.62	-49.7	-65.0	3.8	1.49e+00	0	36	104	0	71	20340
2026-01-22 07:19:25.95	65.96	6.66	-49.7	-64.9	3.8	1.49e+00	0	36	104	0	71	20293
2026-01-22 07:19:26.95	65.82	6.69	-49.7	-64.9	3.8	1.49e+00	0	36	104	0	71	20237
2026-01-22 07:19:27.94	65.68	6.73	-49.7	-64.9	3.8	1.49e+00	0	36	104	0	71	20301
2026-01-22 07:19:28.93	65.54	6.77	-49.7	-64.9	3.8	1.49e+00	0	36	104	0	71	20236
2026-01-22 07:19:29.93	65.40	6.81	-49.7	-65.0	3.8	1.49e+00	0	37	104	0	71	20334
2026-01-22 07:19:30.92	65.26	6.84	-49.7	-64.9	3.8	1.49e+00	0	36	104	0	71	20225
2026-01-22 07:19:31.91	65.12	6.88	-49.7	-65.0	3.8	1.49e+00	0	36	104	0	71	20309
2026-01-22 07:19:32.91	64.98	6.92	-49.7	-64.9	3.8	1.49e+00	0	36	104	0	71	20225
2026-01-22 07:19:33.90	64.84	6.95	-49.7	-64.9	3.8	1.49e+00	0	36	104	0	71	20225
2026-01-22 07:19:34.89	64.70	6.99	-49.7	-64.9	3.8	1.49e+00	0	37	104	0	71	20187
2026-01-22 07:19:35.89	64.56	7.03	-49.7	-65.0	3.8	1.49e+00	0	37	104	0	71	20308
2026-01-22 07:19:36.88	64.41	7.06	-49.7	-64.9	3.8	1.49e+00	0	37	104	0	71	20243
2026-01-22 07:19:37.87	64.27	7.10	-49.7	-65.0	3.8	1.49e+00	0	36	104	0	71	20372
2026-01-22 07:19:38.87	64.13	7.13	-49.7	-65.0	3.8	1.49e+00	0	37	104	0	71	20409
2026-01-22 07:19:39.86	63.99	7.17	-49.7	-64.9	3.8	1.49e+00	0	37	104	0	71	20209
2026-01-22 07:19:40.85	63.84	7.21	-49.7	-64.9	3.8	1.49e+00	0	37	104	0	71	20263
2026-01-22 07:19:41.85	63.70	7.24	-49.7	-64.9	3.8	1.49e+00	0	37	104	0	71	20286
2026-01-22 07:19:42.84	63.55	7.28	-49.7	-65.0	3.8	1.49e+00	0	37	104	0	71	20322
2026-01-22 07:19:43.83	63.41	7.31	-49.7	-64.9	3.8	1.49e+00	0	37	104	0	71	20242
2026-01-22 07:19:44.83	63.26	7.35	-49.7	-64.9	3.8	1.49e+00	0	37	104	0	71	20207
2026-01-22 07:19:45.82	63.12	7.38	-49.7	-65.0	3.8	1.49e+00	0	37	104	0	71	20324
2026-01-22 07:19:46.81	62.97	7.42	-49.7	-64.9	3.8	1.49e+00	0	37	104	0	71	20147
2026-01-22 07:19:47.81	62.83	7.45	-49.7	-64.9	3.8	1.49e+00	0	37	104	0	71	20180
2026-01-22 07:19:48.80	62.68	7.49	-49.7	-64.9	3.8	1.49e+00	0	37	104	0	71	20175
2026-01-22 07:19:49.79	62.53	7.52	-49.7	-64.9	3.8	1.49e+00	0	37	104	0	71	20106
2026-01-22 07:19:50.79	62.39	7.56	-49.7	-64.9	3.8	1.49e+00	0	37	104	0	71	20117
2026-01-22 07:19:51.78	62.24	7.59	-49.7	-64.9	3.8	1.49e+00	0	37	104	0	71	20082
2026-01-22 07:19:52.77	62.09	7.62	-49.7	-64.8	3.8	1.49e+00	0	37	104	0	71	19921
2026-01-22 07:19:53.77	61.94	7.66	-49.7	-64.8	3.8	1.49e+00	0	37	104	0	71	19866
2026-01-22 07:19:54.76	61.79	7.69	-49.7	-64.7	3.8	1.49e+00	0	37	104	0	71	19827
2026-01-22 07:19:55.75	61.65	7.73	-49.7	-64.7	3.8	1.49e+00	0	37	104	0	71	19654
2026-01-22 07:19:56.75	61.50	7.76	-49.7	-64.7	3.8	1.49e+00	0	37	104	0	71	19690
2026-01-22 07:19:57.74	61.35	7.79	-49.7	-64.7	3.8	1.49e+00	0	37	104	0	71	19726
2026-01-22 07:19:58.73	61.20	7.83	-49.7	-64.7	3.8	1.49e+00	0	37	104	0	71	19827
2026-01-22 07:19:59.73	61.05	7.86	-49.7	-64.8	3.8	1.49e+00	0	37	104	0	71	20011
2026-01-22 07:20:00.72	60.90	7.89	-49.7	-64.9	3.8	1.49e+00	0	37	104	0	71	20124
2026-01-22 07:20:01.71	60.74	7.93	-49.7	-64.8	3.8	1.49e+00	0	37	104	0	71	20023
2026-01-22 07:20:02.71	60.59	7.96	-49.7	-64.8	3.8	1.49e+00	0	37	104	0	71	20011
2026-01-22 07:20:03.70	60.44	7.99	-49.7	-64.8	3.8	1.49e+00	0	37	104	0	71	19863
2026-01-22 07:20:04.69	60.29	8.03	-49.7	-64.7	3.8	1.49e+00	0	37	104	0	71	19703
2026-01-22 07:20:05.69	60.14	8.06	-49.7	-64.6	3.8	1.49e+00	0	37	104	0	71	19518
2026-01-22 07:20:06.68	59.98	8.09	-49.7	-64.6	3.8	1.49e+00	0	37	104	0	71	19514
2026-01-22 07:20:07.67	59.83	8.12	-49.7	-64.6	3.8	1.49e+00	0	37	104	0	71	19612
2026-01-22 07:20:08.67	59.68	8.15	-49.7	-64.8	3.8	1.49e+00	0	37	104	0	71	19876
2026-01-22 07:20:09.66	59.52	8.19	-49.7	-64.8	3.8	1.49e+00	0	37	104	0	71	20052
2026-01-22 07:20:10.65	59.37	8.22	-49.7	-64.9	3.8	1.49e+00	0	37	104	0	71	20236
2026-01-22 07:20:11.65	59.21	8.25	-49.7	-64.9	3.8	1.49e+00	0	37	104	0	71	20218
2026-01-22 07:20:12.64	59.06	8.28	-49.7	-64.8	3.8	1.49e+00	0	37	104	0	71	20010
2026-01-22 07:20:13.63	58.91	8.31	-49.7	-64.7	3.8	1.49e+00	0	37	104	0	71	19711
2026-01-22 07:20:14.63	58.75	8.34	-49.7	-64.5	3.8	1.49e+00	0	37	104	0	71	19202
2026-01-22 07:20:15.62	58.59	8.37	-49.7	-64.3	3.8	1.49e+00	0	37	104	0	71	18808
2026-01-22 07:20:16.62	58.44	8.40	-49.7	-64.3	3.8	1.49e+00	0	37	104	0	71	18810
2026-01-22 07:20:17.61	58.28	8.43	-49.7	-64.4	3.8	1.49e+00	0	37	104	0	71	19091
2026-01-22 07:20:18.60	58.12	8.47	-49.7	-64.7	3.8	1.49e+00	0	37	104	0	71	19633
2026-01-22 07:20:19.60	57.97	8.50	-49.7	-64.8	3.8	1.49e+00	0	37	104	0	71	20043
2026-01-22 07:20:20.59	57.81	8.53	-49.7	-64.9	3.8	1.49e+00	0	37	104	0	71	20169
2026-01-22 07:20:21.58	57.65	8.56	-49.7	-64.9	3.8	1.49e+00	0	37	104	0	71	20124
2026-01-22 07:20:22.58	57.49	8.59	-49.7	-64.6	3.8	1.49e+00	0	37	104	0	71	19495
2026-01-22 07:20:23.57	57.34	8.61	-49.6	-64.0	3.8	1.49e+00	0	37	104	0	71	18103
2026-01-22 07:20:24.56	57.18	8.64	-49.6	-63.1	3.8	1.49e+00	0	37	104	0	71	16395
2026-01-22 07:20:25.56	57.02	8.67	-49.6	-62.9	3.8	1.49e+00	0	37	104	0	71	15958
2026-01-22 07:20:26.55	56.86	8.70	-49.6	-63.7	3.8	1.49e+00	0	37	104	0	71	17565
2026-01-22 07:20:27.54	56.70	8.73	-49.7	-64.8	3.8	1.49e+00	0	37	104	0	71	19845
2026-01-22 07:20:28.54	56.54	8.76	-49.6	-62.6	3.8	1.49e+00	0	37	104	0	71	15473
2026-01-22 07:20:29.53	56.38	8.79	-48.9	-57.5	6.2	6.87e-01	0	37	0	1048576	69	9677
2026-01-22 07:20:30.52	56.22	8.82	-48.0	-54.2	9.4	7.21e-02	0	37	0	2097152	68	6986
2026-01-22 07:20:31.52	56.06	8.84	-46.8	-51.6	11.9	4.32e-03	0	37	0	4194304	65	6162
2026-01-22 07:20:32.51	55.89	8.87	-46.1	-50.2	13.3	6.79e-05	0	37	0	6291456	64	5585
2026-01-22 07:20:33.50	55.73	8.90	-45.8	-49.7	13.9	3.80e-06	0	37	0	8388608	63	5565
2026-01-22 07:20:34.50	55.57	8.93	-45.7	-49.4	14.2	2.20e-06	0	37	0	9437184	63	5391
2026-01-22 07:20:35.49	55.41	8.96	-46.1	-50.1	13.6	2.20e-06	0	37	0	11534336	63	5804
2026-01-22 07:20:36.49	55.25	8.98	-46.8	-51.5	12.0	1.12e-04	0	37	0	13631488	64	6444
2026-01-22 07:20:37.48	55.08	9.01	-47.7	-53.5	10.0	2.09e-03	0	37	0	15728640	65	7634
2026-01-22 07:20:38.47	54.92	9.04	-48.3	-55.3	8.0	3.49e-02	0	37	0	17825792	67	8463
2026-01-22 07:20:39.54	54.74	9.07	-46.9	-51.6	11.8	2.16e-02	0	37	0	19922944	65	6202
2026-01-22 07:20:40.39	54.60	9.09	-47.3	-52.5	11.3	7.09e-05	0	37	0	20971520	65	6821
2026-01-22 07:20:41.53	54.42	9.12	-48.2	-54.5	8.7	1.15e+00	0	37	0	23068672	68	7222
2026-01-22 07:20:42.38	54.28	9.14	-45.7	-49.5	14.2	2.89e-05	0	37	0	24117248	63	5409
2026-01-22 07:20:43.52	54.09	9.17	-46.5	-50.9	12.4	1.42e-01	0	37	0	26214400	65	5698
2026-01-22 07:20:44.37	53.95	9.19	-45.3	-48.9	14.8	0.00e+00	0	37	0	28311552	62	5369
2026-01-22 07:20:45.51	53.76	9.22	-45.2	-48.7	14.9	1.50e-06	0	37	0	30408704	62	5245
2026-01-22 07:20:46.37	53.61	9.24	-45.1	-48.5	15.1	0.00e+00	0	37	0	31457280	62	5157
2026-01-22 07:20:47.50	53.42	9.27	-44.9	-48.3	15.3	0.00e+00	0	37	0	33554432	61	5310
2026-01-22 07:20:48.36	53.28	9.29	-44.9	-48.2	15.4	0.00e+00	0	37	0	35651584	61	5270
2026-01-22 07:20:49.49	53.09	9.32	-44.7	-48.0	15.6	0.00e+00	0	37	0	37748736	61	5124
2026-01-22 07:20:50.34	52.95	9.34	-45.0	-48.3	15.3	0.00e+00	0	37	0	38797312	61	5317
2026-01-22 07:20:51.48	52.76	9.37	-45.0	-48.4	15.3	0.00e+00	0	37	0	40894464	61	5341
2026-01-22 07:20:52.33	52.61	9.39	-45.0	-48.4	15.2	0.00e+00	0	37	0	42991616	61	5346
2026-01-22 07:20:53.58	52.40	9.42	-44.7	-48.0	15.6	0.00e+00	0	38	0	45088768	61	5141
2026-01-22 07:20:54.43	52.26	9.44	-44.5	-47.7	15.9	0.00e+00	0	37	0	47185920	61	4970
2026-01-22 07:20:55.57	52.07	9.47	-44.6	-47.8	15.7	0.00e+00	0	37	0	49283072	61	5003
2026-01-22 07:20:56.42	51.92	9.49	-44.9	-48.3	15.4	0.00e+00	0	37	0	50331648	61	5293
2026-01-22 07:20:57.57	51.73	9.51	-44.9	-48.4	15.2	0.00e+00	0	37	0	52428800	61	5381
2026-01-22 07:20:58.42	51.58	9.53	-45.0	-48.6	15.1	0.00e+00	0	37	0	54525952	61	5468
2026-01-22 07:20:59.56	51.39	9.56	-45.3	-48.9	14.7	0.00e+00	0	37	0	56623104	61	5706
2026-01-22 07:21:00.41	51.24	9.58	-45.0	-48.5	15.1	0.00e+00	0	37	0	57671680	61	5457
2026-01-22 07:21:01.55	51.05	9.60	-44.9	-48.4	15.2	0.00e+00	0	37	0	59768832	61	5373
2026-01-22 07:21:02.40	50.90	9.62	-45.0	-48.5	15.1	0.00e+00	0	38	0	61865984	61	5403
2026-01-22 07:21:03.54	50.71	9.65	-45.0	-48.4	15.2	0.00e+00	0	38	0	63963136	61	5364
2026-01-22 07:21:04.39	50.56	9.66	-44.9	-48.2	15.4	0.00e+00	0	37	0	66060288	61	5272
2026-01-22 07:21:05.53	50.37	9.69	-44.9	-48.3	15.3	0.00e+00	0	38	0	67108864	61	5315
2026-01-22 07:21:06.38	50.22	9.71	-45.0	-48.5	15.2	0.00e+00	0	37	0	69206016	61	5430
2026-01-22 07:21:07.52	50.02	9.73	-45.0	-48.4	15.2	0.00e+00	0	37	0	71303168	61	5371
2026-01-22 07:21:08.37	49.88	9.75	-44.9	-48.3	15.3	0.00e+00	0	38	0	73400320	61	5304
2026-01-22 07:21:09.57	49.67	9.77	-45.1	-48.6	15.0	0.00e+00	0	37	0	75497472	61	5505
2026-01-22 07:21:10.43	49.52	9.79	-45.1	-48.7	15.0	0.00e+00	0	37	0	76546048	61	5537
2026-01-22 07:21:11.56	49.33	9.81	-45.2	-48.7	14.9	0.00e+00	0	37	0	78643200	61	5564
2026-01-22 07:21:12.42	49.18	9.83	-45.2	-48.8	14.8	7.00e-07	0	37	0	80740352	61	5627
2026-01-22 07:21:13.55	48.98	9.85	-45.0	-48.5	15.1	0.00e+00	0	37	0	82837504	61	5427
2026-01-22 07:21:14.41	48.83	9.87	-45.0	-48.4	15.2	0.00e+00	0	37	0	83886080	61	5356
2026-01-22 07:21:15.54	48.63	9.89	-45.1	-48.6	15.1	0.00e+00	0	37	0	85983232	61	5483
2026-01-22 07:21:16.40	48.48	9.91	-45.1	-48.7	15.0	0.00e+00	0	37	0	88080384	61	5538
2026-01-22 07:21:17.53	48.29	9.93	-45.3	-48.9	14.7	0.00e+00	0	38	0	90177536	61	5694
2026-01-22 07:21:18.38	48.14	9.94	-45.1	-48.5	15.1	0.00e+00	0	37	0	91226112	61	5455
2026-01-22 07:21:19.52	47.94	9.96	-44.6	-47.9	15.7	0.00e+00	0	37	0	94371840	61	5061
2026-01-22 07:21:20.37	47.79	9.98	-44.5	-47.7	15.9	0.00e+00	0	37	0	95420416	61	4940
2026-01-22 07:21:21.51	47.59	10.00	-44.4	-47.6	16.1	0.00e+00	0	38	0	97517568	60	5176
2026-01-22 07:21:22.36	47.44	10.01	-44.4	-47.6	16.0	0.00e+00	0	37	0	99614720	60	5195
2026-01-22 07:21:23.50	47.24	10.03	-44.6	-47.9	15.7	0.00e+00	0	38	0	101711872	60	5369
2026-01-22 07:21:24.35	47.09	10.05	-44.6	-47.8	15.9	0.00e+00	0	38	0	102760448	60	5312
2026-01-22 07:21:25.49	46.89	10.06	-44.7	-47.9	15.7	0.00e+00	0	37	0	104857600	60	5394
2026-01-22 07:21:26.34	46.74	10.08	-44.8	-48.1	15.6	0.00e+00	0	37	0	106954752	60	5473
2026-01-22 07:21:27.48	46.54	10.10	-44.8	-48.0	15.5	0.00e+00	0	37	0	109051904	60	5464
2026-01-22 07:21:28.33	46.39	10.11	-44.7	-47.9	15.7	0.00e+00	0	37	0	110100480	60	5383
2026-01-22 07:21:29.61	46.16	10.13	-44.7	-47.9	15.7	0.00e+00	0	37	0	113246208	60	5366
2026-01-22 07:21:30.32	46.03	10.14	-44.6	-47.9	15.8	0.00e+00	0	37	0	114294784	60	5347
2026-01-22 07:21:31.60	45.81	10.16	-44.5	-47.7	15.9	0.00e+00	0	37	0	116391936	60	5237
2026-01-22 07:21:32.33	45.68	10.17	-44.4	-47.5	16.1	0.00e+00	0	38	0	117440512	60	5119
2026-01-22 07:21:33.61	45.45	10.19	-44.5	-47.6	16.0	0.00e+00	0	37	0	120586240	60	5204
2026-01-22 07:21:34.32	45.32	10.20	-44.4	-47.5	16.0	0.00e+00	0	38	0	121634816	60	5155
2026-01-22 07:21:35.60	45.10	10.22	-44.4	-47.5	16.1	0.00e+00	0	37	0	123731968	60	5126
2026-01-22 07:21:36.31	44.97	10.23	-44.5	-47.6	16.0	0.00e+00	0	37	0	125829120	60	5203
2026-01-22 07:21:37.59	44.74	10.24	-44.6	-47.8	15.8	0.00e+00	0	37	0	127926272	60	5321
2026-01-22 07:21:38.46	44.59	10.26	-44.6	-47.8	15.8	0.00e+00	0	37	0	128974848	60	5285
2026-01-22 07:21:39.60	44.38	10.27	-44.6	-47.8	15.8	0.00e+00	0	37	0	131072000	60	5290
2026-01-22 07:21:40.45	44.23	10.28	-44.6	-47.8	15.8	0.00e+00	0	37	0	133169152	60	5292
2026-01-22 07:21:41.59	44.02	10.30	-44.3	-47.4	16.2	0.00e+00	0	37	0	135266304	60	5085
2026-01-22 07:21:42.44	43.87	10.31	-44.2	-47.3	16.3	0.00e+00	0	38	0	137363456	60	5007
2026-01-22 07:21:43.58	43.67	10.32	-44.3	-47.4	16.2	0.00e+00	0	38	0	139460608	60	5092
2026-01-22 07:21:44.77	43.45	10.33	-44.2	-47.3	16.4	0.00e+00	0	37	0	141557760	60	4994
2026-01-22 07:21:45.79	43.27	10.34	-44.3	-47.4	16.3	0.00e+00	0	37	0	143654912	60	5055
2026-01-22 07:21:46.98	43.06	10.36	-44.2	-47.3	16.3	0.00e+00	0	37	0	145752064	60	5030
2026-01-22 07:21:47.83	42.90	10.37	-44.4	-47.5	16.2	0.00e+00	0	38	0	146800640	60	5119
2026-01-22 07:21:48.97	42.70	10.38	-44.3	-47.4	16.2	0.00e+00	0	37	0	148897792	60	5089
2026-01-22 07:21:49.82	42.55	10.39	-44.3	-47.4	16.2	0.00e+00	0	37	0	150994944	60	5072
2026-01-22 07:21:50.96	42.34	10.40	-44.4	-47.5	16.2	0.00e+00	0	38	0	153092096	60	5132
2026-01-22 07:21:51.81	42.19	10.41	-44.3	-47.5	16.2	0.00e+00	0	38	0	154140672	60	5111
2026-01-22 07:21:52.94	41.98	10.42	-44.4	-47.6	16.1	0.00e+00	0	38	0	156237824	60	5178
2026-01-22 07:21:53.79	41.83	10.43	-44.3	-47.4	16.2	0.00e+00	0	37	0	158334976	60	5080
2026-01-22 07:21:54.93	41.62	10.44	-44.2	-47.3	16.4	0.00e+00	0	38	0	160432128	60	5020
2026-01-22 07:21:55.78	41.47	10.44	-44.1	-47.0	16.6	0.00e+00	0	37	0	161480704	60	4866
2026-01-22 07:21:56.92	41.26	10.45	-44.0	-46.9	16.8	0.00e+00	0	38	0	163577856	59	5052
2026-01-22 07:21:57.77	41.11	10.46	-43.8	-46.7	16.9	0.00e+00	0	37	0	165675008	59	4932
2026-01-22 07:21:58.91	40.90	10.47	-43.8	-46.7	16.9	0.00e+00	0	37	0	167772160	59	4933
2026-01-22 07:21:59.76	40.75	10.47	-43.8	-46.7	16.9	0.00e+00	0	37	0	168820736	59	4939
2026-01-22 07:22:01.09	40.51	10.48	-43.8	-46.6	16.9	0.00e+00	0	38	0	171966464	59	4912
2026-01-22 07:22:01.80	40.38	10.49	-43.8	-46.6	17.0	0.00e+00	0	38	0	173015040	59	4918
2026-01-22 07:22:03.08	40.14	10.50	-43.7	-46.5	17.1	0.00e+00	0	38	0	175112192	59	4826
2026-01-22 07:22:03.82	40.01	10.50	-43.5	-46.2	17.3	0.00e+00	0	38	0	177209344	59	4673
2026-01-22 07:22:05.10	39.78	10.51	-43.4	-46.1	17.4	0.00e+00	0	37	0	179306496	58	4908
2026-01-22 07:22:05.83	39.64	10.51	-43.4	-46.0	17.5	0.00e+00	0	37	0	180355072	58	4861
2026-01-22 07:22:07.11	39.41	10.52	-43.5	-46.2	17.3	0.00e+00	0	37	0	183500800	58	4970
2026-01-22 07:22:07.87	39.27	10.53	-43.5	-46.3	17.3	0.00e+00	0	38	0	184549376	58	5008
2026-01-22 07:22:09.15	39.04	10.53	-43.6	-46.4	17.1	0.00e+00	0	38	0	186646528	58	5100
2026-01-22 07:22:09.87	38.91	10.54	-43.7	-46.6	16.9	0.00e+00	0	38	0	188743680	58	5195
2026-01-22 07:22:11.15	38.68	10.54	-43.8	-46.7	16.8	0.00e+00	0	37	0	190840832	58	5277
2026-01-22 07:22:11.86	38.55	10.54	-43.8	-46.7	16.8	0.00e+00	0	38	0	191889408	58	5274
2026-01-22 07:22:13.14	38.31	10.55	-43.9	-46.8	16.7	0.00e+00	0	38	0	193986560	58	5336
2026-01-22 07:22:13.85	38.18	10.55	-43.9	-46.9	16.7	0.00e+00	0	38	0	196083712	58	5367
2026-01-22 07:22:15.13	37.95	10.56	-44.1	-47.0	16.6	0.00e+00	0	37	0	198180864	58	5454
2026-01-22 07:22:15.86	37.82	10.56	-44.0	-47.0	16.6	0.00e+00	0	38	0	199229440	58	5407
2026-01-22 07:22:17.13	37.58	10.56	-44.0	-46.9	16.6	0.00e+00	0	38	0	202375168	58	5399
2026-01-22 07:22:17.85	37.45	10.56	-44.0	-46.9	16.7	0.00e+00	0	37	0	203423744	58	5400
2026-01-22 07:22:19.22	37.20	10.57	-43.8	-46.7	16.9	0.00e+00	0	38	0	205520896	58	5266
2026-01-22 07:22:19.93	37.07	10.57	-43.8	-46.7	16.9	0.00e+00	0	37	0	207618048	58	5263
2026-01-22 07:22:21.22	36.84	10.57	-43.8	-46.7	16.9	0.00e+00	0	37	0	209715200	58	5229
2026-01-22 07:22:21.93	36.71	10.57	-43.8	-46.7	16.9	0.00e+00	0	37	0	210763776	58	5233
2026-01-22 07:22:23.21	36.48	10.57	-43.9	-46.9	16.7	0.00e+00	0	38	0	212860928	58	5365
2026-01-22 07:22:23.92	36.35	10.57	-43.9	-47.0	16.6	0.00e+00	0	38	0	214958080	58	5410
2026-01-22 07:22:25.20	36.11	10.57	-44.0	-47.2	16.5	0.00e+00	0	38	0	217055232	58	5531
2026-01-22 07:22:25.91	35.98	10.57	-44.1	-47.2	16.4	0.00e+00	0	37	0	218103808	58	5580
2026-01-22 07:22:27.19	35.75	10.57	-44.1	-47.2	16.4	0.00e+00	0	38	0	221249536	59	5242
2026-01-22 07:22:27.90	35.62	10.57	-44.0	-47.0	16.6	0.00e+00	0	37	0	222298112	59	5148
2026-01-22 07:22:29.18	35.38	10.57	-43.9	-46.9	16.7	0.00e+00	0	38	0	224395264	59	5046
2026-01-22 07:22:29.99	35.24	10.57	-43.7	-46.6	17.0	0.00e+00	0	38	0	225443840	59	4881
2026-01-22 07:22:31.12	35.03	10.57	-43.8	-46.6	16.9	0.00e+00	0	38	0	228589568	59	4924
2026-01-22 07:22:32.20	34.83	10.57	-44.0	-46.9	16.7	0.00e+00	0	38	0	230686720	59	5085
2026-01-22 07:22:33.22	34.65	10.57	-44.0	-46.9	16.7	0.00e+00	0	37	0	231735296	59	5079
2026-01-22 07:22:34.39	34.43	10.56	-44.2	-47.2	16.4	0.00e+00	0	38	0	233832448	59	5222
2026-01-22 07:22:35.24	34.28	10.56	-44.3	-47.3	16.3	0.00e+00	0	38	0	235929600	59	5330
2026-01-22 07:22:36.58	34.03	10.56	-44.4	-47.6	16.1	0.00e+00	0	38	0	238026752	59	5472
2026-01-22 07:22:37.29	33.91	10.56	-44.3	-47.4	16.2	0.00e+00	0	38	0	240123904	59	5387
2026-01-22 07:22:38.78	33.63	10.55	-44.4	-47.6	15.9	0.00e+00	0	38	0	242221056	59	5516
2026-01-22 07:22:39.49	33.50	10.55	-44.3	-47.5	16.1	0.00e+00	0	38	0	244318208	59	5415
2026-01-22 07:22:40.77	33.27	10.54	-44.3	-47.5	16.1	0.00e+00	0	38	0	246415360	59	5451
2026-01-22 07:22:41.50	33.14	10.54	-44.4	-47.6	16.1	0.00e+00	0	38	0	247463936	59	5483
2026-01-22 07:22:42.78	32.90	10.54	-44.2	-47.3	16.3	0.00e+00	0	38	0	249561088	59	5307
2026-01-22 07:22:43.49	32.78	10.53	-44.1	-47.2	16.4	0.00e+00	0	38	0	251658240	59	5250
2026-01-22 07:22:44.77	32.54	10.53	-44.1	-47.2	16.4	0.00e+00	0	38	0	253755392	59	5258
2026-01-22 07:22:45.48	32.41	10.52	-44.1	-47.2	16.3	0.00e+00	0	38	0	254803968	59	5272
2026-01-22 07:22:46.76	32.18	10.52	-44.1	-47.2	16.3	0.00e+00	0	38	0	257949696	59	5262
2026-01-22 07:22:47.48	32.05	10.51	-44.2	-47.4	16.2	0.00e+00	0	37	0	258998272	59	5388
2026-01-22 07:22:48.76	31.82	10.50	-44.4	-47.6	16.1	0.00e+00	0	38	0	261095424	59	5479
2026-01-22 07:22:49.47	31.69	10.50	-44.4	-47.6	16.0	0.00e+00	0	37	0	262144000	59	5479
2026-01-22 07:22:50.75	31.46	10.49	-44.4	-47.6	16.0	0.00e+00	0	38	0	265289728	59	5491
2026-01-22 07:22:51.48	31.32	10.49	-44.5	-47.8	15.8	0.00e+00	0	38	0	266338304	59	5613
2026-01-22 07:22:52.76	31.09	10.48	-44.5	-47.7	15.9	0.00e+00	0	38	0	268435456	59	5561
2026-01-22 07:22:53.48	30.96	10.47	-44.6	-47.8	15.8	0.00e+00	0	37	0	270532608	59	5629
2026-01-22 07:22:54.76	30.73	10.46	-44.6	-47.9	15.7	0.00e+00	0	37	0	272629760	60	5387
2026-01-22 07:22:55.47	30.60	10.46	-44.6	-47.8	15.8	0.00e+00	0	38	0	273678336	60	5319
2026-01-22 07:22:56.75	30.37	10.44	-44.7	-48.0	15.7	0.00e+00	0	38	0	275775488	60	5409
2026-01-22 07:22:57.48	30.24	10.44	-44.6	-47.8	15.8	0.00e+00	0	38	0	277872640	60	5325
2026-01-22 07:22:58.76	30.01	10.43	-44.6	-47.9	15.8	0.00e+00	0	38	0	279969792	60	5374
2026-01-22 07:22:59.48	29.88	10.42	-44.5	-47.8	15.9	0.00e+00	0	38	0	281018368	60	5285
2026-01-22 07:23:00.76	29.64	10.41	-44.4	-47.7	16.0	0.00e+00	0	37	0	284164096	60	5225
2026-01-22 07:23:01.49	29.51	10.40	-44.6	-47.9	15.8	0.00e+00	0	37	0	285212672	60	5353
2026-01-22 07:23:02.76	29.28	10.39	-44.5	-47.8	15.9	0.00e+00	0	38	0	287309824	60	5285
2026-01-22 07:23:03.57	29.14	10.38	-44.6	-48.0	15.8	0.00e+00	0	38	0	289406976	60	5417
2026-01-22 07:23:04.71	28.93	10.37	-44.4	-47.6	16.0	0.00e+00	0	38	0	291504128	60	5211
2026-01-22 07:23:05.56	28.78	10.36	-44.4	-47.5	16.1	0.00e+00	0	38	0	292552704	60	5158
2026-01-22 07:23:06.70	28.57	10.35	-44.1	-47.2	16.4	0.00e+00	0	38	0	294649856	60	4949
2026-01-22 07:23:07.55	28.42	10.34	-44.0	-47.0	16.6	0.00e+00	0	38	0	296747008	60	4851
2026-01-22 07:23:08.69	28.22	10.33	-44.0	-46.9	16.6	0.00e+00	0	37	0	298844160	59	5090
2026-01-22 07:23:09.54	28.06	10.32	-43.9	-46.8	16.8	0.00e+00	0	38	0	299892736	59	5021
2026-01-22 07:23:10.68	27.86	10.30	-43.8	-46.7	16.9	0.00e+00	0	38	0	301989888	59	4940
2026-01-22 07:23:11.53	27.71	10.29	-43.9	-46.8	16.7	0.00e+00	0	38	0	304087040	59	5040
2026-01-22 07:23:12.67	27.50	10.28	-44.0	-47.0	16.6	0.00e+00	0	38	0	306184192	59	5113
2026-01-22 07:23:13.52	27.35	10.27	-44.1	-47.1	16.5	0.00e+00	0	37	0	307232768	59	5199
2026-01-22 07:23:14.66	27.15	10.25	-44.1	-47.1	16.5	0.00e+00	0	38	0	309329920	59	5200
2026-01-22 07:23:15.51	27.00	10.24	-44.2	-47.3	16.3	0.00e+00	0	37	0	311427072	59	5300
2026-01-22 07:23:16.65	26.79	10.22	-44.1	-47.2	16.4	0.00e+00	0	38	0	313524224	59	5243
2026-01-22 07:23:17.50	26.64	10.21	-44.1	-47.2	16.4	0.00e+00	0	38	0	315621376	59	5231
2026-01-22 07:23:18.63	26.44	10.20	-44.1	-47.2	16.5	0.00e+00	0	38	0	316669952	59	5227
2026-01-22 07:23:19.61	26.27	10.18	-44.2	-47.4	16.2	0.00e+00	0	37	0	318767104	59	5383
2026-01-22 07:23:20.61	26.09	10.17	-44.1	-47.3	16.3	0.00e+00	0	38	0	320864256	59	5314
2026-01-22 07:23:21.60	25.91	10.15	-44.1	-47.4	16.3	0.00e+00	0	38	0	322961408	59	5349
2026-01-22 07:23:22.84	25.70	10.13	-44.0	-47.2	16.5	0.00e+00	0	38	0	325058560	59	5222
2026-01-22 07:23:23.72	25.54	10.12	-44.0	-47.1	16.5	0.00e+00	0	38	0	327155712	59	5188
2026-01-22 07:23:24.86	25.34	10.10	-43.8	-46.9	16.6	0.00e+00	0	38	0	329252864	59	5048
2026-01-22 07:23:25.79	25.17	10.09	-43.8	-46.8	16.8	0.00e+00	0	38	0	330301440	59	5015
2026-01-22 07:23:26.98	24.96	10.07	-44.0	-47.0	16.6	0.00e+00	0	38	0	332398592	59	5143
2026-01-22 07:23:27.83	24.81	10.06	-43.9	-46.9	16.7	0.00e+00	0	38	0	334495744	59	5064
2026-01-22 07:23:28.97	24.61	10.04	-44.3	-47.5	16.1	0.00e+00	0	38	0	336592896	59	5451
2026-01-22 07:23:29.82	24.46	10.02	-44.2	-47.4	16.2	0.00e+00	0	38	0	338690048	59	5374
2026-01-22 07:23:30.95	24.27	10.00	-44.5	-47.9	15.7	0.00e+00	0	38	0	340787200	59	5678
2026-01-22 07:23:31.81	24.12	9.99	-44.5	-47.9	15.7	0.00e+00	0	38	0	341835776	59	5710
2026-01-22 07:23:32.94	23.92	9.97	-44.6	-48.0	15.6	0.00e+00	0	38	0	343932928	59	5777
2026-01-22 07:23:33.80	23.77	9.95	-44.5	-47.8	15.8	0.00e+00	0	38	0	346030080	59	5654
2026-01-22 07:23:34.93	23.57	9.93	-44.5	-47.8	15.8	0.00e+00	0	38	0	348127232	59	5616
2026-01-22 07:23:35.78	23.42	9.92	-44.5	-47.9	15.8	0.00e+00	0	38	0	349175808	60	5346
2026-01-22 07:23:36.92	23.22	9.90	-44.3	-47.4	16.2	0.00e+00	0	38	0	351272960	60	5096
2026-01-22 07:23:37.78	23.07	9.88	-44.1	-47.3	16.3	0.00e+00	0	38	0	353370112	60	5023
2026-01-22 07:23:39.01	22.86	9.86	-44.2	-47.6	16.0	0.00e+00	0	38	0	355467264	60	5201
2026-01-22 07:23:39.86	22.71	9.84	-44.1	-47.5	16.1	0.00e+00	0	38	0	356515840	60	5114
2026-01-22 07:23:41.08	22.50	9.82	-43.8	-47.1	16.4	0.00e+00	0	38	0	359661568	59	5206
2026-01-22 07:23:41.93	22.35	9.80	-43.7	-47.1	16.5	0.00e+00	0	38	0	360710144	59	5167
2026-01-22 07:23:43.10	22.15	9.77	-43.7	-47.1	16.5	0.00e+00	0	38	0	362807296	59	5204
2026-01-22 07:23:43.95	22.01	9.76	-43.6	-47.1	16.5	0.00e+00	0	38	0	364904448	59	5186
2026-01-22 07:23:45.12	21.80	9.73	-43.7	-47.3	16.3	0.00e+00	0	37	0	367001600	59	5285
2026-01-22 07:23:45.97	21.66	9.72	-43.7	-47.2	16.4	0.00e+00	0	38	0	368050176	59	5225
2026-01-22 07:23:47.11	21.46	9.69	-43.6	-47.1	16.5	0.00e+00	0	38	0	370147328	59	5185
2026-01-22 07:23:47.96	21.32	9.67	-43.7	-47.1	16.4	0.00e+00	0	38	0	372244480	59	5197
2026-01-22 07:23:49.10	21.12	9.65	-43.7	-47.2	16.4	0.00e+00	0	38	0	374341632	59	5243
2026-01-22 07:23:49.96	20.97	9.63	-43.6	-47.0	16.5	0.00e+00	0	38	0	376438784	59	5151
2026-01-22 07:23:51.09	20.78	9.61	-43.6	-47.2	16.4	0.00e+00	0	38	0	378535936	59	5239
2026-01-22 07:23:52.06	20.62	9.58	-43.6	-47.2	16.3	0.00e+00	0	38	0	379584512	59	5268
2026-01-22 07:23:53.05	20.45	9.56	-43.7	-47.3	16.3	0.00e+00	0	38	0	381681664	59	5285
2026-01-22 07:23:54.04	20.28	9.54	-43.7	-47.2	16.3	0.00e+00	0	38	0	383778816	59	5248
2026-01-22 07:23:55.04	20.11	9.52	-43.8	-47.3	16.3	0.00e+00	0	38	0	385875968	59	5318
2026-01-22 07:23:56.03	19.94	9.49	-43.9	-47.3	16.2	0.00e+00	0	38	0	386924544	59	5339
2026-01-22 07:23:57.03	19.77	9.47	-43.8	-47.2	16.4	0.00e+00	0	38	0	389021696	59	5249
2026-01-22 07:23:58.02	19.61	9.45	-43.9	-47.3	16.3	0.00e+00	0	38	0	391118848	59	5280
2026-01-22 07:23:59.02	19.44	9.42	-44.0	-47.3	16.2	0.00e+00	0	38	0	393216000	59	5336
2026-01-22 07:24:00.01	19.27	9.40	-44.0	-47.2	16.4	0.00e+00	0	38	0	395313152	59	5245
2026-01-22 07:24:01.01	19.10	9.38	-44.1	-47.3	16.2	0.00e+00	0	38	0	396361728	59	5324
2026-01-22 07:24:02.01	18.94	9.35	-43.9	-47.1	16.5	0.00e+00	0	38	0	398458880	59	5172
2026-01-22 07:24:03.00	18.77	9.33	-44.0	-47.2	16.4	0.00e+00	0	38	0	400556032	59	5226
2026-01-22 07:24:04.00	18.60	9.30	-44.0	-47.1	16.4	0.00e+00	0	38	0	402653184	59	5204
2026-01-22 07:24:04.99	18.44	9.28	-44.1	-47.3	16.3	0.00e+00	0	38	0	403701760	59	5295
2026-01-22 07:24:05.99	18.27	9.25	-44.1	-47.3	16.2	0.00e+00	0	38	0	405798912	59	5313
2026-01-22 07:24:06.98	18.11	9.23	-44.1	-47.2	16.4	0.00e+00	0	38	0	407896064	59	5239
2026-01-22 07:24:07.97	17.94	9.20	-44.2	-47.4	16.2	0.00e+00	0	38	0	409993216	59	5383
2026-01-22 07:24:08.97	17.78	9.18	-44.2	-47.4	16.1	0.00e+00	0	38	0	412090368	59	5353
2026-01-22 07:24:09.96	17.61	9.15	-44.1	-47.3	16.3	0.00e+00	0	38	0	413138944	59	5287
2026-01-22 07:24:10.96	17.45	9.13	-44.2	-47.4	16.1	0.00e+00	0	38	0	415236096	59	5400
2026-01-22 07:24:11.95	17.29	9.10	-44.2	-47.5	16.0	0.00e+00	0	38	0	417333248	59	5455
2026-01-22 07:24:12.95	17.12	9.07	-44.1	-47.4	16.1	0.00e+00	0	38	0	419430400	59	5386
2026-01-22 07:24:13.94	16.96	9.05	-43.9	-47.2	16.3	0.00e+00	0	38	0	420478976	59	5256
2026-01-22 07:24:14.94	16.79	9.02	-43.9	-47.3	16.2	0.00e+00	0	38	0	422576128	59	5305
2026-01-22 07:24:15.93	16.63	8.99	-48.4	-58.0	6.2	4.98e-03	0	38	0	424673280	67	11463
2026-01-22 07:24:16.92	16.47	8.97	-49.2	-65.2	3.8	1.49e+00	0	38	104	424673280	69	23369
2026-01-22 07:24:17.92	16.31	8.94	-49.7	-65.3	3.8	1.49e+00	0	38	104	424673280	69	23758
2026-01-22 07:24:18.91	16.15	8.91	-49.6	-65.4	3.8	1.49e+00	0	38	104	424673280	70	22709
2026-01-22 07:24:19.91	15.99	8.88	-49.5	-65.5	3.8	1.49e+00	0	38	104	424673280	70	22783
2026-01-22 07:24:20.90	15.82	8.86	-50.1	-65.5	3.8	1.49e+00	0	38	104	424673280	70	22902
2026-01-22 07:24:21.89	15.66	8.83	-50.2	-65.6	3.8	1.49e+00	0	38	104	424673280	71	21786
2026-01-22 07:24:22.88	15.51	8.80	-50.1	-65.6	3.8	1.49e+00	0	38	104	424673280	71	21883
2026-01-22 07:24:23.88	15.34	8.77	-50.0	-65.6	3.8	1.49e+00	0	38	104	424673280	71	21884
2026-01-22 07:24:24.87	15.19	8.74	-50.3	-65.6	3.8	1.49e+00	0	38	104	424673280	71	21959
2026-01-22 07:24:25.86	15.03	8.71	-50.0	-65.6	3.8	1.49e+00	0	38	104	424673280	71	21999
2026-01-22 07:24:26.86	14.87	8.69	-50.4	-65.7	3.8	1.49e+00	0	38	104	424673280	71	22113
2026-01-22 07:24:27.85	14.71	8.66	-50.2	-65.7	3.8	1.49e+00	0	38	104	424673280	71	22138
2026-01-22 07:24:28.84	14.55	8.63	-50.3	-65.7	3.8	1.49e+00	0	38	104	424673280	71	22193
2026-01-22 07:24:29.84	14.39	8.60	-50.4	-65.7	3.8	1.49e+00	0	37	104	424673280	71	22214
2026-01-22 07:24:30.83	14.23	8.57	-50.3	-65.7	3.8	1.49e+00	0	38	104	424673280	71	22188
2026-01-22 07:24:31.82	14.08	8.54	-50.4	-65.7	3.8	1.49e+00	0	38	104	424673280	71	22153
2026-01-22 07:24:32.82	13.92	8.51	-50.4	-65.7	3.8	1.49e+00	0	38	104	424673280	71	22059
2026-01-22 07:24:33.81	13.76	8.48	-50.3	-65.7	3.8	1.49e+00	0	38	104	424673280	71	22127
2026-01-22 07:24:34.80	13.61	8.45	-50.4	-65.7	3.8	1.49e+00	0	38	104	424673280	71	22084
2026-01-22 07:24:35.80	13.45	8.42	-50.3	-65.7	3.8	1.49e+00	0	38	104	424673280	71	22096
2026-01-22 07:24:36.79	13.30	8.39	-50.4	-65.7	3.8	1.49e+00	0	38	104	424673280	71	22035
2026-01-22 07:24:37.78	13.14	8.36	-50.4	-65.7	3.8	1.49e+00	0	38	104	424673280	71	22016
2026-01-22 07:24:38.78	12.98	8.33	-50.1	-65.6	3.8	1.49e+00	0	38	104	424673280	71	21964
2026-01-22 07:24:39.77	12.83	8.29	-50.3	-65.6	3.8	1.49e+00	0	38	104	424673280	71	21990
2026-01-22 07:24:40.76	12.68	8.26	-50.2	-65.6	3.8	1.49e+00	0	38	104	424673280	71	21870
2026-01-22 07:24:41.76	12.52	8.23	-50.2	-65.6	3.8	1.49e+00	0	37	104	424673280	71	21932
2026-01-22 07:24:42.75	12.37	8.20	-50.2	-65.6	3.8	1.49e+00	0	38	104	424673280	71	21855
2026-01-22 07:24:43.74	12.22	8.17	-50.2	-65.6	3.8	1.49e+00	0	38	104	424673280	71	21856
2026-01-22 07:24:44.74	12.06	8.14	-50.2	-65.6	3.8	1.49e+00	0	38	104	424673280	71	21820
2026-01-22 07:24:45.73	11.91	8.10	-50.2	-65.6	3.8	1.49e+00	0	38	104	424673280	71	21864
2026-01-22 07:24:46.72	11.76	8.07	-50.2	-65.6	3.8	1.49e+00	0	38	104	424673280	71	21886
2026-01-22 07:24:47.72	11.60	8.04	-50.2	-65.6	3.8	1.49e+00	0	38	104	424673280	71	21809
2026-01-22 07:24:48.71	11.45	8.01	-50.2	-65.6	3.8	1.49e+00	0	38	104	424673280	71	21946
2026-01-22 07:24:49.71	11.30	7.98	-50.2	-65.6	3.8	1.49e+00	0	38	104	424673280	71	21779
2026-01-22 07:24:50.70	11.15	7.94	-50.2	-65.5	3.8	1.49e+00	0	38	104	424673280	71	21729
2026-01-22 07:24:51.69	11.00	7.91	-50.2	-65.6	3.8	1.49e+00	0	38	104	424673280	71	21878
2026-01-22 07:24:52.69	10.85	7.88	-50.1	-65.6	3.8	1.49e+00	0	38	104	424673280	71	21826
2026-01-22 07:24:53.68	10.70	7.84	-50.2	-65.6	3.8	1.49e+00	0	38	104	424673280	71	21765
2026-01-22 07:24:54.67	10.55	7.81	-50.2	-65.6	3.8	1.49e+00	0	38	104	424673280	71	21828
2026-01-22 07:24:55.67	10.40	7.78	-50.1	-65.6	3.8	1.49e+00	0	38	104	424673280	71	21778
2026-01-22 07:24:56.66	10.25	7.74	-50.2	-65.6	3.8	1.49e+00	0	38	104	424673280	71	21892
2026-01-22 07:24:57.65	10.11	7.71	-50.1	-65.6	3.8	1.49e+00	0	38	104	424673280	71	21808
2026-01-22 07:24:58.65	9.96	7.68	-50.1	-65.6	3.8	1.49e+00	0	38	104	424673280	71	21845
2026-01-22 07:24:59.64	9.81	7.64	-50.1	-65.6	3.8	1.49e+00	0	38	104	424673280	71	21760
2026-01-22 07:25:00.63	9.66	7.61	-50.1	-65.6	3.8	1.49e+00	0	38	104	424673280	71	21846
2026-01-22 07:25:01.63	9.51	7.57	-50.2	-65.6	3.8	1.49e+00	0	38	104	424673280	71	21860
2026-01-22 07:25:02.62	9.37	7.54	-50.2	-65.5	3.8	1.49e+00	0	38	104	424673280	71	21692
2026-01-22 07:25:03.62	9.22	7.50	-50.1	-65.5	3.8	1.49e+00	0	38	104	424673280	71	21750
2026-01-22 07:25:04.61	9.08	7.47	-50.2	-65.6	3.8	1.49e+00	0	38	104	424673280	71	21838
2026-01-22 07:25:05.60	8.93	7.43	-50.2	-65.6	3.8	1.49e+00	0	38	104	424673280	71	21863
2026-01-22 07:25:06.60	8.78	7.40	-50.1	-65.6	3.8	1.49e+00	0	38	104	424673280	71	21820
2026-01-22 07:25:07.59	8.64	7.36	-50.2	-65.6	3.8	1.49e+00	0	38	104	424673280	71	21793
2026-01-22 07:25:08.58	8.50	7.33	-50.1	-65.6	3.8	1.49e+00	0	38	104	424673280	71	21827
2026-01-22 07:25:09.58	8.35	7.29	-50.1	-65.6	3.8	1.49e+00	0	38	104	424673280	71	21890
2026-01-22 07:25:10.57	8.21	7.26	-50.1	-65.6	3.8	1.49e+00	0	38	104	424673280	71	21822
2026-01-22 07:25:11.56	8.06	7.22	-50.1	-65.6	3.8	1.49e+00	0	38	104	424673280	71	21787
2026-01-22 07:25:12.56	7.92	7.19	-50.1	-65.5	3.8	1.49e+00	0	38	104	424673280	71	21725
2026-01-22 07:25:13.55	7.78	7.15	-50.1	-65.6	3.8	1.49e+00	0	38	104	424673280	71	21807
2026-01-22 07:25:14.54	7.64	7.12	-50.1	-65.5	3.8	1.49e+00	0	38	104	424673280	71	21750
2026-01-22 07:25:15.54	7.49	7.08	-50.1	-65.6	3.8	1.49e+00	0	38	104	424673280	71	21831
2026-01-22 07:25:16.53	7.35	7.04	-50.1	-65.6	3.8	1.49e+00	0	38	104	424673280	71	21784
2026-01-22 07:25:17.52	7.21	7.01	-50.1	-65.6	3.8	1.49e+00	0	38	104	424673280	71	21863
2026-01-22 07:25:18.52	7.07	6.97	-50.1	-65.6	3.8	1.49e+00	0	38	104	424673280	71	21780
2026-01-22 07:25:19.51	6.93	6.93	-50.1	-65.6	3.8	1.49e+00	0	38	104	424673280	71	21836
2026-01-22 07:25:20.50	6.79	6.90	-50.2	-65.6	3.8	1.49e+00	0	38	104	424673280	71	21816
2026-01-22 07:25:21.50	6.65	6.86	-50.1	-65.6	3.8	1.49e+00	0	38	104	424673280	71	21816
2026-01-22 07:25:22.49	6.51	6.82	-50.2	-65.6	3.8	1.49e+00	0	38	104	424673280	71	21842
2026-01-22 07:25:23.48	6.37	6.79	-50.1	-65.6	3.8	1.49e+00	0	38	104	424673280	71	21832
2026-01-22 07:25:24.48	6.23	6.75	-50.1	-65.6	3.8	1.49e+00	0	38	104	424673280	71	21789
2026-01-22 07:25:25.47	6.09	6.71	-50.2	-65.6	3.8	1.49e+00	0	38	104	424673280	71	21860
2026-01-22 07:25:26.46	5.96	6.68	-50.2	-65.6	3.8	1.49e+00	0	38	104	424673280	71	21825
2026-01-22 07:25:27.46	5.82	6.64	-50.1	-65.6	3.8	1.49e+00	0	38	104	424673280	71	21880
2026-01-22 07:25:28.45	5.68	6.60	-50.2	-65.6	3.8	1.49e+00	0	38	104	424673280	71	21819
2026-01-22 07:25:29.44	5.54	6.56	-50.1	-65.6	3.8	1.49e+00	0	38	104	424673280	71	21856
2026-01-22 07:25:30.43	5.41	6.53	-50.2	-65.5	3.8	1.49e+00	0	38	104	424673280	71	21731
2026-01-22 07:25:31.43	5.27	6.49	-50.2	-65.6	3.8	1.49e+00	0	38	104	424673280	71	21854
2026-01-22 07:25:32.42	5.14	6.45	-50.1	-65.6	3.8	1.49e+00	0	38	104	424673280	71	21779
2026-01-22 07:25:33.41	5.00	6.41	-50.2	-65.6	3.8	1.49e+00	0	38	104	424673280	71	21851
2026-01-22 07:25:34.41	4.86	6.37	-50.2	-65.6	3.8	1.49e+00	0	38	104	424673280	71	21797
2026-01-22 07:25:35.40	4.73	6.34	-50.2	-65.6	3.8	1.49e+00	0	38	104	424673280	71	21838
2026-01-22 07:25:36.39	4.60	6.30	-50.2	-65.6	3.8	1.49e+00	0	38	104	424673280	71	21858
2026-01-22 07:25:37.39	4.46	6.26	-50.2	-65.6	3.8	1.49e+00	0	38	104	424673280	71	21812
2026-01-22 07:25:38.38	4.33	6.22	-50.2	-65.6	3.8	1.49e+00	0	38	104	424673280	71	21852
2026-01-22 07:25:39.37	4.20	6.18	-50.1	-65.6	3.8	1.49e+00	0	38	104	424673280	71	21825
2026-01-22 07:25:40.37	4.06	6.14	-50.2	-65.6	3.8	1.49e+00	0	38	104	424673280	71	21858
2026-01-22 07:25:41.36	3.93	6.11	-50.2	-65.6	3.8	1.49e+00	0	38	104	424673280	71	21756
2026-01-22 07:25:42.35	3.80	6.07	-50.1	-65.5	3.8	1.49e+00	0	38	104	424673280	71	21728
2026-01-22 07:25:43.35	3.66	6.03	-50.2	-65.6	3.8	1.49e+00	0	38	104	424673280	71	21797
2026-01-22 07:25:44.34	3.53	5.99	-50.2	-65.6	3.8	1.49e+00	0	38	104	424673280	71	21835
2026-01-22 07:25:45.33	3.40	5.95	-50.2	-65.5	3.8	1.49e+00	0	38	104	424673280	71	21721
2026-01-22 07:25:46.33	3.27	5.91	-50.2	-65.6	3.8	1.49e+00	0	38	104	424673280	71	21862
2026-01-22 07:25:47.32	3.14	5.87	-50.1	-65.6	3.8	1.49e+00	0	38	104	424673280	71	21834
2026-01-22 07:25:48.31	3.01	5.83	-50.2	-65.6	3.8	1.49e+00	0	38	104	424673280	71	21796
2026-01-22 07:25:49.31	2.88	5.79	-50.2	-65.6	3.8	1.49e+00	0	38	104	424673280	71	21825
2026-01-22 07:25:50.30	2.75	5.76	-50.1	-65.6	3.8	1.49e+00	0	38	104	424673280	71	21848
2026-01-22 07:25:51.29	2.62	5.72	-50.2	-65.6	3.8	1.49e+00	0	38	104	424673280	71	21842
2026-01-22 07:25:52.28	2.50	5.68	-50.2	-65.6	3.8	1.49e+00	0	38	104	424673280	71	21818
2026-01-22 07:25:53.28	2.37	5.64	-50.2	-65.6	3.8	1.49e+00	0	38	104	424673280	71	21796
2026-01-22 07:25:54.27	2.24	5.60	-50.1	-65.6	3.8	1.49e+00	0	38	104	424673280	71	21848
2026-01-22 07:25:55.26	2.11	5.56	-50.2	-65.6	3.8	1.49e+00	0	38	104	424673280	71	21769
2026-01-22 07:25:56.26	1.98	5.52	-50.2	-65.6	3.8	1.49e+00	0	38	104	424673280	71	21810
2026-01-22 07:25:57.25	1.86	5.48	-50.2	-65.6	3.8	1.49e+00	0	38	104	424673280	71	21880
2026-01-22 07:25:58.24	1.73	5.44	-50.2	-65.6	3.8	1.49e+00	0	38	104	424673280	71	21794
2026-01-22 07:25:59.24	1.60	5.40	-50.1	-65.6	3.8	1.49e+00	0	38	104	424673280	71	21792
2026-01-22 07:26:00.23	1.48	5.36	-50.2	-65.6	3.8	1.49e+00	0	38	104	424673280	71	21915
2026-01-22 07:26:01.22	1.35	5.32	-50.1	-65.6	3.8	1.49e+00	0	38	104	424673280	71	21849
2026-01-22 07:26:02.22	1.23	5.28	-50.2	-65.6	3.8	1.49e+00	0	38	104	424673280	71	21883
2026-01-22 07:26:03.21	1.10	5.24	-50.2	-65.6	3.8	1.49e+00	0	38	104	424673280	71	21829
2026-01-22 07:26:04.20	0.98	5.20	-50.2	-65.6	3.8	1.49e+00	0	38	104	424673280	71	21865
2026-01-22 07:26:05.19	0.86	5.16	-50.2	-65.6	3.8	1.49e+00	0	38	104	424673280	71	21823
2026-01-22 07:26:06.19	0.73	5.12	-50.1	-65.6	3.8	1.49e+00	0	38	104	424673280	71	21841
2026-01-22 07:26:07.18	0.61	5.08	-50.1	-65.6	3.8	1.49e+00	0	38	104	424673280	71	21766
2026-01-22 07:26:08.17	0.49	5.04	-50.1	-65.6	3.8	1.49e+00	0	38	104	424673280	71	21827
2026-01-22 07:26:09.17	0.36	4.99	-50.1	-65.6	3.8	1.49e+00	0	38	104	424673280	71	21770

#Closed at: 2026-01-22 07:26:10
#Recorded file [424 MB]: D:/Data/31040_260122_101846.dat