passes_logs/2026/01/22/T1/T1__20260122_105555_NOAA_20_JPSS-1_rec.log

#Pass ID: 20260122_105555_NOAA 20 (JPSS-1)
#Satellite: NOAA 20 (JPSS-1)
#Configuration: NOAA 20
#almurnet v.1.7.20251203
#Start time: 2026-01-22 10:55:57

#Version: 2.0.20230620
#Station: T1
#Location: 37.570604 lon 55.790049 lat
#TLE: 1 43013U 17073A   26021.46221703  .00000173  00000+0  10299-3 0  9999
#TLE: 2 43013  98.7644 322.3335 0001238  29.7597 330.3649 14.19538314423652

#Time	Az	El	Level	Level2	SNR	BER	BlckErr	Temp	State	Recorded	gain1	gain2
2026-01-22 10:55:57.04	192.42	5.10	-49.1	-65.0	3.8	1.49e+00	0	35	0	0	70	21645
2026-01-22 10:55:58.03	192.48	5.17	-49.0	-65.0	3.8	1.49e+00	0	35	104	0	69	22826
2026-01-22 10:55:59.03	192.54	5.23	-49.0	-64.9	3.8	1.49e+00	0	35	104	0	69	22705
2026-01-22 10:56:00.02	192.60	5.30	-49.0	-64.9	3.8	1.49e+00	0	35	104	0	69	22633
2026-01-22 10:56:01.01	192.65	5.37	-49.0	-64.8	3.8	1.49e+00	0	35	104	0	69	22404
2026-01-22 10:56:02.01	192.71	5.44	-49.0	-64.7	3.8	1.49e+00	0	35	104	0	69	22142
2026-01-22 10:56:03.00	192.77	5.50	-49.0	-64.7	3.8	1.49e+00	0	35	104	0	69	22054
2026-01-22 10:56:03.99	192.83	5.57	-49.0	-64.6	3.8	1.49e+00	0	36	104	0	69	21938
2026-01-22 10:56:04.98	192.89	5.64	-49.0	-64.4	3.8	1.49e+00	0	35	104	0	69	21482
2026-01-22 10:56:05.98	192.95	5.70	-49.0	-64.5	3.8	1.49e+00	0	36	104	0	69	21665
2026-01-22 10:56:06.97	193.01	5.77	-49.0	-64.5	3.8	1.49e+00	0	36	104	0	69	21697
2026-01-22 10:56:07.96	193.07	5.84	-49.0	-64.5	3.8	1.49e+00	0	36	104	0	69	21569
2026-01-22 10:56:08.96	193.13	5.91	-49.0	-64.6	3.8	1.49e+00	0	36	104	0	69	21926
2026-01-22 10:56:09.95	193.19	5.98	-49.0	-64.7	3.8	1.49e+00	0	36	104	0	69	22124
2026-01-22 10:56:10.94	193.25	6.04	-49.0	-64.7	3.8	1.49e+00	0	36	104	0	69	22195
2026-01-22 10:56:11.94	193.31	6.11	-49.0	-64.8	3.8	1.49e+00	0	36	104	0	69	22263
2026-01-22 10:56:12.93	193.37	6.18	-49.0	-64.7	3.8	1.49e+00	0	36	104	0	69	22124
2026-01-22 10:56:13.92	193.43	6.25	-49.0	-64.6	3.8	1.49e+00	0	36	104	0	69	21947
2026-01-22 10:56:14.92	193.49	6.32	-48.9	-64.5	3.8	1.49e+00	0	36	104	0	69	21711
2026-01-22 10:56:15.91	193.55	6.39	-48.9	-64.5	3.8	1.49e+00	0	36	104	0	69	21606
2026-01-22 10:56:16.90	193.61	6.46	-48.9	-64.4	3.8	1.49e+00	0	36	104	0	69	21486
2026-01-22 10:56:17.89	193.68	6.53	-49.0	-64.6	3.8	1.49e+00	0	36	104	0	69	21795
2026-01-22 10:56:18.89	193.74	6.60	-48.9	-64.5	3.8	1.49e+00	0	36	104	0	69	21711
2026-01-22 10:56:19.88	193.80	6.67	-48.9	-64.6	3.8	1.49e+00	0	36	104	0	69	21982
2026-01-22 10:56:20.88	193.87	6.74	-49.0	-64.7	3.8	1.49e+00	0	36	104	0	69	22222
2026-01-22 10:56:21.87	193.93	6.81	-49.0	-64.8	3.8	1.49e+00	0	36	104	0	69	22375
2026-01-22 10:56:22.86	193.99	6.88	-49.0	-64.8	3.8	1.49e+00	0	36	104	0	69	22451
2026-01-22 10:56:23.86	194.06	6.95	-49.0	-64.7	3.8	1.49e+00	0	36	104	0	69	22222
2026-01-22 10:56:24.85	194.12	7.02	-49.0	-64.5	3.8	1.49e+00	0	36	104	0	69	21587
2026-01-22 10:56:25.84	194.19	7.09	-48.9	-64.0	3.8	1.49e+00	0	36	104	0	69	20483
2026-01-22 10:56:26.84	194.25	7.16	-48.9	-63.6	3.8	1.49e+00	0	36	104	0	69	19475
2026-01-22 10:56:27.83	194.32	7.23	-48.9	-63.2	3.8	1.49e+00	0	36	104	0	69	18581
2026-01-22 10:56:28.82	194.38	7.30	-48.9	-63.1	3.8	1.49e+00	0	36	104	0	69	18430
2026-01-22 10:56:29.82	194.45	7.38	-48.9	-63.3	3.8	1.49e+00	0	36	104	0	69	18891
2026-01-22 10:56:30.81	194.51	7.45	-48.9	-64.1	3.8	1.49e+00	0	36	104	0	69	20596
2026-01-22 10:56:31.80	194.58	7.52	-49.0	-64.8	3.8	1.49e+00	0	36	104	0	69	22504
2026-01-22 10:56:32.80	194.65	7.59	-49.0	-64.7	3.8	1.49e+00	0	36	104	0	69	22181
2026-01-22 10:56:33.79	194.71	7.66	-48.9	-62.8	3.8	1.49e+00	0	36	104	0	69	17765
2026-01-22 10:56:34.79	194.78	7.74	-48.6	-59.6	4.9	1.18e+00	0	36	0	0	69	12318
2026-01-22 10:56:35.78	194.85	7.81	-48.2	-56.8	6.9	3.78e-01	0	36	0	2097152	68	9411
2026-01-22 10:56:36.77	194.92	7.88	-47.5	-54.4	9.0	8.19e-02	0	36	0	4194304	67	7608
2026-01-22 10:56:37.77	194.99	7.95	-46.9	-52.5	11.0	4.50e-03	0	36	0	6291456	65	6833
2026-01-22 10:56:38.76	195.06	8.03	-46.3	-51.2	12.3	4.14e-04	0	36	0	7340032	64	6239
2026-01-22 10:56:39.76	195.12	8.10	-45.9	-50.2	13.4	6.17e-05	0	36	0	9437184	63	5923
2026-01-22 10:56:40.75	195.19	8.17	-45.5	-49.5	14.2	2.20e-06	0	36	0	11534336	63	5439
2026-01-22 10:56:41.74	195.26	8.25	-45.3	-49.1	14.6	1.50e-06	0	37	0	13631488	62	5483
2026-01-22 10:56:42.74	195.33	8.32	-45.2	-48.9	14.8	7.00e-07	0	37	0	14680064	62	5382
2026-01-22 10:56:43.73	195.40	8.40	-45.3	-49.1	14.6	7.00e-07	0	37	0	16777216	62	5483
2026-01-22 10:56:44.72	195.47	8.47	-45.5	-49.5	14.2	7.00e-07	0	37	0	18874368	62	5751
2026-01-22 10:56:45.72	195.55	8.55	-45.8	-50.0	13.7	3.00e-06	0	37	0	20971520	62	6127
2026-01-22 10:56:46.71	195.62	8.62	-46.2	-50.9	12.8	1.67e-05	0	37	0	23068672	63	6377
2026-01-22 10:56:47.70	195.69	8.69	-46.6	-51.9	11.7	1.34e-04	0	37	0	24117248	64	6744
2026-01-22 10:56:48.70	195.76	8.77	-47.1	-53.1	10.4	2.97e-03	0	37	0	26214400	64	7786
2026-01-22 10:56:49.69	195.83	8.84	-47.6	-54.6	8.8	1.51e-02	0	37	0	28311552	65	8718
2026-01-22 10:56:50.69	195.91	8.92	-47.9	-56.0	7.4	6.32e-02	0	37	0	30408704	66	9709
2026-01-22 10:56:51.68	195.98	9.00	-48.2	-57.5	6.1	1.65e-01	0	37	0	31457280	67	10890
2026-01-22 10:56:52.67	196.05	9.07	-47.3	-53.4	10.0	2.51e-01	0	37	0	33554432	66	7162
2026-01-22 10:56:53.67	196.13	9.15	-48.9	-60.6	4.6	1.98e-02	0	37	0	35651584	68	14678
2026-01-22 10:56:54.66	196.20	9.22	-48.3	-56.8	6.9	1.47e+00	0	37	0	35651584	68	9461
2026-01-22 10:56:55.66	196.28	9.30	-47.1	-52.9	10.5	7.16e-02	0	37	0	37748736	66	6767
2026-01-22 10:56:56.65	196.35	9.38	-48.5	-59.4	5.0	1.08e-02	0	37	0	39845888	67	13525
2026-01-22 10:56:57.65	196.43	9.45	-47.7	-54.7	8.5	1.45e+00	0	37	0	39845888	67	7863
2026-01-22 10:56:58.64	196.50	9.53	-46.0	-50.4	13.3	4.49e-04	0	37	0	40894464	64	5665
2026-01-22 10:56:59.63	196.58	9.61	-46.1	-50.3	13.5	9.90e-06	0	37	0	42991616	63	5938
2026-01-22 10:57:00.63	196.66	9.68	-46.0	-50.1	13.8	4.50e-06	0	37	0	45088768	63	5809
2026-01-22 10:57:01.62	196.73	9.76	-45.8	-49.8	14.1	3.00e-06	0	37	0	47185920	63	5602
2026-01-22 10:57:02.62	196.81	9.84	-45.8	-49.7	14.1	3.80e-06	0	37	0	49283072	63	5563
2026-01-22 10:57:03.61	196.89	9.92	-45.6	-49.4	14.5	7.00e-07	0	37	0	50331648	63	5347
2026-01-22 10:57:04.61	196.97	10.00	-45.6	-49.5	14.3	0.00e+00	0	37	0	52428800	63	5415
2026-01-22 10:57:05.60	197.05	10.07	-45.3	-49.0	14.8	0.00e+00	0	37	0	54525952	62	5423
2026-01-22 10:57:06.80	197.14	10.17	-44.9	-48.4	15.4	0.00e+00	0	37	0	56623104	61	5352
2026-01-22 10:57:07.70	197.21	10.24	-44.7	-48.1	15.7	0.00e+00	0	37	0	58720256	61	5168
2026-01-22 10:57:09.00	197.32	10.34	-44.6	-48.0	15.6	0.00e+00	0	37	0	60817408	61	5141
2026-01-22 10:57:09.71	197.38	10.40	-44.5	-47.8	15.6	0.00e+00	0	37	0	61865984	61	5033
2026-01-22 10:57:11.24	197.50	10.52	-44.4	-47.8	15.5	0.00e+00	0	37	0	65011712	60	5282
2026-01-22 10:57:11.95	197.56	10.58	-44.3	-47.6	15.6	0.00e+00	0	37	0	66060288	60	5207
2026-01-22 10:57:13.31	197.67	10.69	-44.2	-47.4	15.9	0.00e+00	0	37	0	69206016	60	5077
2026-01-22 10:57:14.02	197.73	10.74	-44.2	-47.4	16.0	0.00e+00	0	37	0	70254592	60	5071
2026-01-22 10:57:15.30	197.84	10.85	-44.1	-47.4	15.8	0.00e+00	0	37	0	72351744	60	5078
2026-01-22 10:57:16.03	197.90	10.91	-44.0	-47.3	15.9	0.00e+00	0	37	0	73400320	60	5034
2026-01-22 10:57:17.30	198.00	11.01	-44.0	-47.4	15.9	0.00e+00	0	37	0	76546048	60	5045
2026-01-22 10:57:18.03	198.07	11.07	-44.0	-47.3	16.0	0.00e+00	0	37	0	77594624	59	5288
2026-01-22 10:57:19.31	198.18	11.17	-44.0	-47.2	16.3	0.00e+00	0	37	0	79691776	59	5249
2026-01-22 10:57:20.03	198.24	11.23	-44.0	-47.2	16.4	0.00e+00	0	37	0	81788928	59	5220
2026-01-22 10:57:21.31	198.35	11.34	-43.9	-47.1	16.5	0.00e+00	0	37	0	83886080	59	5162
2026-01-22 10:57:22.04	198.41	11.40	-43.9	-47.0	16.6	0.00e+00	0	37	0	84934656	59	5103
2026-01-22 10:57:23.31	198.52	11.50	-43.9	-46.9	16.7	0.00e+00	0	37	0	88080384	59	5074
2026-01-22 10:57:24.09	198.59	11.57	-43.9	-46.9	16.6	0.00e+00	0	37	0	89128960	59	5086
2026-01-22 10:57:25.37	198.70	11.67	-43.9	-46.9	16.7	0.00e+00	0	37	0	91226112	59	5092
2026-01-22 10:57:26.08	198.76	11.73	-43.9	-46.9	16.6	0.00e+00	0	37	0	92274688	59	5087
2026-01-22 10:57:27.72	198.91	11.87	-43.8	-47.0	16.2	0.00e+00	0	37	0	95420416	59	5108
2026-01-22 10:57:28.29	198.96	11.92	-43.8	-47.0	16.0	0.00e+00	0	37	0	96468992	59	5119
2026-01-22 10:57:29.99	199.11	12.06	-43.6	-46.9	15.4	0.00e+00	0	37	0	100663296	59	5081
2026-01-22 10:57:30.56	199.16	12.11	-43.5	-46.9	15.1	0.00e+00	0	37	0	100663296	59	5084
2026-01-22 10:57:32.27	199.32	12.25	-43.5	-46.9	15.2	0.00e+00	0	37	0	104857600	59	5070
2026-01-22 10:57:32.84	199.37	12.30	-43.5	-46.8	15.2	0.00e+00	0	37	0	105906176	59	5034
2026-01-22 10:57:34.54	199.53	12.45	-43.6	-46.9	15.3	0.00e+00	0	37	0	109051904	58	5354
2026-01-22 10:57:35.11	199.58	12.49	-43.7	-46.9	15.6	0.00e+00	0	37	0	110100480	58	5357
2026-01-22 10:57:36.81	199.74	12.64	-43.8	-46.9	15.9	0.00e+00	0	37	0	113246208	58	5377
2026-01-22 10:57:37.38	199.79	12.69	-43.9	-47.0	15.8	0.00e+00	0	37	0	114294784	58	5407
2026-01-22 10:57:39.09	199.96	12.84	-43.7	-46.7	16.2	0.00e+00	0	37	0	117440512	58	5240
2026-01-22 10:57:39.65	200.01	12.88	-43.7	-46.7	16.3	0.00e+00	0	37	0	118489088	58	5247
2026-01-22 10:57:41.36	200.17	13.03	-43.9	-46.8	16.4	0.00e+00	0	37	0	121634816	58	5296
2026-01-22 10:57:41.93	200.23	13.08	-43.8	-46.7	16.6	0.00e+00	0	37	0	122683392	58	5226
2026-01-22 10:57:43.62	200.39	13.23	-43.8	-46.6	16.8	0.00e+00	0	37	0	125829120	58	5191
2026-01-22 10:57:44.19	200.45	13.28	-43.8	-46.6	16.9	0.00e+00	0	37	0	126877696	58	5205
2026-01-22 10:57:46.16	200.64	13.45	-43.7	-46.4	17.1	0.00e+00	0	37	0	130023424	58	5084
2026-01-22 10:57:46.73	200.70	13.50	-43.6	-46.4	17.2	0.00e+00	0	37	0	131072000	58	5052
2026-01-22 10:57:48.74	200.90	13.68	-43.6	-46.4	17.0	0.00e+00	0	37	0	135266304	58	5060
2026-01-22 10:57:49.31	200.96	13.73	-43.6	-46.4	17.0	0.00e+00	0	37	0	136314880	58	5059
2026-01-22 10:57:51.01	201.13	13.88	-43.7	-46.5	16.9	0.00e+00	0	37	0	139460608	58	5145
2026-01-22 10:57:51.58	201.19	13.93	-43.7	-46.5	16.9	0.00e+00	0	37	0	140509184	58	5153
2026-01-22 10:57:53.29	201.36	14.08	-43.7	-46.4	17.1	0.00e+00	0	37	0	143654912	58	5093
2026-01-22 10:57:53.86	201.42	14.14	-43.6	-46.3	17.3	0.00e+00	0	37	0	144703488	58	5041
2026-01-22 10:57:55.56	201.60	14.29	-43.8	-46.6	17.3	0.00e+00	0	37	0	147849216	58	5160
2026-01-22 10:57:56.13	201.66	14.34	-43.7	-46.4	17.4	0.00e+00	0	37	0	148897792	58	5079
2026-01-22 10:57:57.84	201.84	14.49	-43.5	-46.2	17.7	0.00e+00	0	37	0	152043520	58	4928
2026-01-22 10:57:58.41	201.90	14.55	-43.4	-46.0	17.9	0.00e+00	0	37	0	153092096	58	4819
2026-01-22 10:58:00.11	202.08	14.70	-43.5	-46.1	17.9	0.00e+00	0	37	0	156237824	58	4876
2026-01-22 10:58:00.68	202.14	14.75	-43.5	-46.1	17.9	0.00e+00	0	37	0	157286400	58	4879
2026-01-22 10:58:02.64	202.35	14.93	-43.4	-46.0	17.9	0.00e+00	0	37	0	161480704	58	4846
2026-01-22 10:58:03.52	202.45	15.01	-43.4	-46.0	17.9	0.00e+00	0	37	0	162529280	58	4845
2026-01-22 10:58:04.66	202.57	15.12	-43.4	-46.0	17.8	0.00e+00	0	37	0	164626432	58	4860
2026-01-22 10:58:05.84	202.71	15.23	-43.4	-46.0	17.8	0.00e+00	0	37	0	167772160	58	4842
2026-01-22 10:58:06.69	202.80	15.31	-43.3	-45.9	17.9	0.00e+00	0	37	0	168820736	58	4770
2026-01-22 10:58:07.83	202.93	15.41	-43.4	-46.0	17.8	0.00e+00	0	37	0	170917888	58	4835
2026-01-22 10:58:08.68	203.02	15.49	-43.4	-46.1	17.7	0.00e+00	0	37	0	173015040	58	4881
2026-01-22 10:58:09.82	203.15	15.60	-43.6	-46.2	17.6	0.00e+00	0	37	0	175112192	58	4957
2026-01-22 10:58:10.67	203.25	15.68	-43.6	-46.2	17.6	0.00e+00	0	37	0	176160768	58	4952
2026-01-22 10:58:11.81	203.38	15.79	-43.6	-46.1	17.7	0.00e+00	0	37	0	178257920	58	4926
2026-01-22 10:58:12.66	203.48	15.87	-43.5	-46.1	17.8	0.00e+00	0	37	0	180355072	58	4880
2026-01-22 10:58:13.80	203.61	15.98	-43.6	-46.2	17.7	0.00e+00	0	37	0	182452224	58	4930
2026-01-22 10:58:14.65	203.71	16.06	-43.5	-46.0	17.9	0.00e+00	0	37	0	183500800	58	4860
2026-01-22 10:58:15.99	203.87	16.19	-43.5	-46.1	17.9	0.00e+00	0	37	0	186646528	58	4878
2026-01-22 10:58:16.71	203.95	16.25	-43.5	-46.1	17.9	0.00e+00	0	37	0	187695104	58	4883
2026-01-22 10:58:17.99	204.11	16.38	-43.5	-46.0	17.9	0.00e+00	0	37	0	189792256	58	4869
2026-01-22 10:58:18.71	204.19	16.45	-43.5	-46.0	18.0	0.00e+00	0	37	0	191889408	58	4850
2026-01-22 10:58:19.99	204.35	16.57	-43.5	-46.1	17.9	0.00e+00	0	37	0	193986560	58	4873
2026-01-22 10:58:20.71	204.43	16.64	-43.5	-46.0	17.9	0.00e+00	0	37	0	195035136	58	4865
2026-01-22 10:58:21.99	204.59	16.76	-43.6	-46.1	17.9	0.00e+00	0	37	0	197132288	58	4893
2026-01-22 10:58:22.72	204.68	16.83	-43.6	-46.2	17.8	0.00e+00	0	37	0	199229440	58	4948
2026-01-22 10:58:23.99	204.84	16.96	-43.7	-46.2	17.8	0.00e+00	0	37	0	201326592	58	4981
2026-01-22 10:58:24.72	204.93	17.03	-43.7	-46.2	17.8	0.00e+00	0	37	0	202375168	58	4978
2026-01-22 10:58:26.00	205.09	17.15	-43.8	-46.3	17.7	0.00e+00	0	37	0	205520896	58	5041
2026-01-22 10:58:26.71	205.18	17.22	-43.8	-46.4	17.7	0.00e+00	0	37	0	206569472	58	5049
2026-01-22 10:58:27.99	205.34	17.35	-43.8	-46.4	17.7	0.00e+00	0	37	0	208666624	58	5042
2026-01-22 10:58:28.72	205.43	17.42	-43.7	-46.3	17.7	0.00e+00	0	37	0	209715200	58	5021
2026-01-22 10:58:29.99	205.60	17.55	-43.7	-46.3	17.7	0.00e+00	0	37	0	212860928	58	5035
2026-01-22 10:58:30.73	205.69	17.62	-43.8	-46.4	17.6	0.00e+00	0	38	0	213909504	58	5060
2026-01-22 10:58:32.01	205.86	17.75	-43.8	-46.4	17.6	0.00e+00	0	38	0	216006656	58	5099
2026-01-22 10:58:32.75	205.96	17.82	-43.9	-46.5	17.4	0.00e+00	0	37	0	218103808	58	5157
2026-01-22 10:58:34.21	206.15	17.97	-43.9	-46.5	17.5	0.00e+00	0	37	0	220200960	58	5146
2026-01-22 10:58:34.92	206.24	18.04	-43.9	-46.5	17.5	0.00e+00	0	37	0	222298112	58	5152
2026-01-22 10:58:36.23	206.42	18.17	-43.9	-46.6	17.5	0.00e+00	0	37	0	224395264	58	5168
2026-01-22 10:58:36.94	206.51	18.24	-43.9	-46.6	17.4	0.00e+00	0	37	0	225443840	58	5204
2026-01-22 10:58:38.22	206.69	18.37	-43.9	-46.5	17.5	0.00e+00	0	37	0	227540992	58	5135
2026-01-22 10:58:38.94	206.78	18.45	-44.0	-46.6	17.4	0.00e+00	0	38	0	229638144	58	5209
2026-01-22 10:58:40.22	206.96	18.58	-44.0	-46.7	17.3	0.00e+00	0	37	0	231735296	58	5266
2026-01-22 10:58:40.95	207.06	18.65	-43.9	-46.6	17.5	0.00e+00	0	37	0	232783872	58	5173
2026-01-22 10:58:42.22	207.24	18.78	-44.0	-46.7	17.3	0.00e+00	0	37	0	235929600	58	5260
2026-01-22 10:58:42.97	207.34	18.86	-44.1	-46.8	17.3	0.00e+00	0	37	0	236978176	58	5280
2026-01-22 10:58:44.25	207.52	18.99	-44.1	-46.8	17.2	0.00e+00	0	38	0	239075328	58	5330
2026-01-22 10:58:44.97	207.62	19.06	-44.2	-46.9	17.2	0.00e+00	0	37	0	241172480	58	5355
2026-01-22 10:58:46.25	207.81	19.20	-44.2	-46.9	17.2	0.00e+00	0	37	0	243269632	59	5052
2026-01-22 10:58:46.96	207.91	19.27	-44.2	-46.9	17.2	0.00e+00	0	37	0	244318208	59	5054
2026-01-22 10:58:48.24	208.09	19.40	-44.2	-46.9	17.2	0.00e+00	0	37	0	246415360	59	5069
2026-01-22 10:58:48.97	208.20	19.48	-44.3	-47.0	17.0	0.00e+00	0	38	0	248512512	59	5146
2026-01-22 10:58:50.25	208.39	19.61	-44.3	-47.1	17.0	0.00e+00	0	37	0	250609664	59	5164
2026-01-22 10:58:50.99	208.50	19.69	-44.3	-47.1	17.0	0.00e+00	0	37	0	251658240	59	5173
2026-01-22 10:58:52.26	208.69	19.82	-44.3	-47.0	17.1	0.00e+00	0	37	0	254803968	59	5138
2026-01-22 10:58:53.20	208.83	19.92	-44.4	-47.2	16.9	0.00e+00	0	37	0	255852544	59	5252
2026-01-22 10:58:54.49	209.02	20.06	-44.5	-47.2	16.8	0.00e+00	0	37	0	258998272	59	5272
2026-01-22 10:58:55.20	209.13	20.13	-44.4	-47.2	16.9	0.00e+00	0	37	0	260046848	59	5275
2026-01-22 10:58:56.84	209.38	20.30	-44.5	-47.3	16.8	0.00e+00	0	37	0	263192576	59	5326
2026-01-22 10:58:57.41	209.47	20.37	-44.5	-47.4	16.8	0.00e+00	0	37	0	264241152	59	5355
2026-01-22 10:58:59.12	209.73	20.55	-44.5	-47.3	16.8	0.00e+00	0	38	0	267386880	59	5328
2026-01-22 10:58:59.68	209.82	20.61	-44.4	-47.2	16.9	0.00e+00	0	37	0	268435456	59	5267
2026-01-22 10:59:01.39	210.09	20.79	-44.2	-46.9	17.1	0.00e+00	0	37	0	271581184	59	5097
2026-01-22 10:59:01.95	210.18	20.85	-44.2	-46.9	17.2	0.00e+00	0	37	0	272629760	59	5087
2026-01-22 10:59:03.66	210.45	21.03	-44.2	-46.9	17.1	0.00e+00	0	37	0	275775488	59	5087
2026-01-22 10:59:04.35	210.56	21.11	-44.2	-47.0	17.1	0.00e+00	0	37	0	276824064	59	5105
2026-01-22 10:59:05.77	210.79	21.26	-44.1	-46.9	17.3	0.00e+00	0	37	0	279969792	59	5044
2026-01-22 10:59:06.48	210.91	21.34	-44.2	-46.9	17.2	0.00e+00	0	37	0	281018368	59	5091
2026-01-22 10:59:07.76	211.12	21.48	-44.2	-47.0	17.2	0.00e+00	0	37	0	283115520	59	5106
2026-01-22 10:59:08.60	211.26	21.57	-44.3	-47.0	17.1	0.00e+00	0	38	0	285212672	59	5137
2026-01-22 10:59:09.73	211.45	21.69	-44.2	-47.0	17.1	0.00e+00	0	38	0	287309824	59	5111
2026-01-22 10:59:10.59	211.59	21.79	-44.3	-47.0	17.1	0.00e+00	0	38	0	288358400	59	5129
2026-01-22 10:59:11.72	211.78	21.91	-44.3	-47.1	17.0	0.00e+00	0	38	0	290455552	59	5178
2026-01-22 10:59:12.58	211.93	22.00	-44.3	-47.0	17.1	0.00e+00	0	38	0	292552704	59	5132
2026-01-22 10:59:13.71	212.13	22.13	-44.2	-46.9	17.2	0.00e+00	0	38	0	294649856	59	5076
2026-01-22 10:59:14.57	212.27	22.22	-44.3	-47.0	17.1	0.00e+00	0	38	0	295698432	59	5132
2026-01-22 10:59:15.71	212.47	22.35	-44.3	-47.1	17.1	0.00e+00	0	38	0	298844160	59	5164
2026-01-22 10:59:16.56	212.62	22.44	-44.3	-47.0	17.1	0.00e+00	0	37	0	299892736	59	5155
2026-01-22 10:59:17.69	212.82	22.57	-44.2	-46.9	17.2	0.00e+00	0	37	0	301989888	59	5099
2026-01-22 10:59:18.55	212.97	22.66	-44.2	-46.9	17.2	0.00e+00	0	38	0	304087040	59	5079
2026-01-22 10:59:19.68	213.18	22.79	-44.2	-46.9	17.2	0.00e+00	0	38	0	306184192	59	5087
2026-01-22 10:59:20.65	213.35	22.90	-44.1	-46.8	17.2	0.00e+00	0	37	0	307232768	59	5041
2026-01-22 10:59:21.80	213.56	23.03	-44.2	-46.9	17.2	0.00e+00	0	38	0	309329920	59	5059
2026-01-22 10:59:22.65	213.72	23.12	-44.2	-46.9	17.2	0.00e+00	0	38	0	311427072	59	5088
2026-01-22 10:59:23.99	213.96	23.27	-44.2	-47.0	17.1	0.00e+00	0	37	0	313524224	59	5119
2026-01-22 10:59:24.70	214.09	23.35	-44.2	-46.8	17.3	0.00e+00	0	38	0	315621376	59	5035
2026-01-22 10:59:25.98	214.33	23.50	-44.1	-46.8	17.3	0.00e+00	0	37	0	317718528	59	5012
2026-01-22 10:59:26.69	214.47	23.57	-44.1	-46.7	17.4	0.00e+00	0	38	0	318767104	59	4967
2026-01-22 10:59:28.24	214.76	23.75	-44.1	-46.8	17.3	0.00e+00	0	38	0	321912832	59	5000
2026-01-22 10:59:28.95	214.90	23.83	-44.0	-46.6	17.5	0.00e+00	0	38	0	322961408	59	4926
2026-01-22 10:59:30.23	215.14	23.97	-44.0	-46.6	17.5	0.00e+00	0	38	0	325058560	59	4901
2026-01-22 10:59:30.97	215.29	24.06	-43.9	-46.6	17.6	0.00e+00	0	38	0	327155712	59	4885
2026-01-22 10:59:32.25	215.54	24.20	-43.9	-46.5	17.6	0.00e+00	0	38	0	329252864	59	4836
2026-01-22 10:59:32.96	215.68	24.28	-43.9	-46.5	17.6	0.00e+00	0	38	0	330301440	59	4848
2026-01-22 10:59:34.24	215.93	24.43	-44.0	-46.6	17.5	0.00e+00	0	37	0	333447168	59	4901
2026-01-22 10:59:34.95	216.07	24.51	-43.9	-46.5	17.6	0.00e+00	0	38	0	334495744	59	4844
2026-01-22 10:59:36.23	216.33	24.66	-43.8	-46.4	17.7	0.00e+00	0	37	0	336592896	59	4782
2026-01-22 10:59:37.00	216.49	24.74	-43.8	-46.4	17.7	0.00e+00	0	37	0	338690048	59	4805
2026-01-22 10:59:38.28	216.75	24.89	-43.8	-46.3	17.8	0.00e+00	0	37	0	340787200	59	4749
2026-01-22 10:59:39.08	216.91	24.98	-43.6	-46.1	18.0	0.00e+00	0	37	0	341835776	59	4611
2026-01-22 10:59:40.50	217.20	25.14	-43.5	-46.0	18.2	0.00e+00	0	38	0	344981504	58	4822
2026-01-22 10:59:41.21	217.35	25.23	-43.4	-45.9	18.2	0.00e+00	0	38	0	346030080	58	4797
2026-01-22 10:59:42.49	217.62	25.37	-43.4	-45.8	18.3	0.00e+00	0	37	0	348127232	58	4742
2026-01-22 10:59:43.20	217.77	25.45	-43.4	-45.8	18.3	0.00e+00	0	38	0	350224384	58	4757
2026-01-22 10:59:44.48	218.04	25.60	-43.3	-45.8	18.3	0.00e+00	0	37	0	352321536	58	4736
2026-01-22 10:59:45.19	218.20	25.68	-43.4	-45.9	18.2	0.00e+00	0	37	0	353370112	58	4802
2026-01-22 10:59:46.47	218.47	25.83	-43.4	-45.8	18.3	0.00e+00	0	37	0	356515840	58	4727
2026-01-22 10:59:47.18	218.63	25.91	-43.4	-45.9	18.3	0.00e+00	0	38	0	357564416	58	4767
2026-01-22 10:59:48.46	218.91	26.06	-43.4	-45.9	18.3	0.00e+00	0	38	0	359661568	58	4762
2026-01-22 10:59:49.19	219.07	26.14	-43.4	-45.9	18.2	0.00e+00	0	38	0	360710144	58	4776
2026-01-22 10:59:50.47	219.35	26.29	-43.3	-45.8	18.3	0.00e+00	0	38	0	363855872	58	4715
2026-01-22 10:59:51.19	219.52	26.37	-43.3	-45.8	18.4	0.00e+00	0	38	0	364904448	58	4715
2026-01-22 10:59:52.47	219.80	26.52	-43.3	-45.8	18.3	0.00e+00	0	38	0	367001600	58	4733
2026-01-22 10:59:53.18	219.96	26.60	-43.4	-45.8	18.3	0.00e+00	0	37	0	368050176	58	4753
2026-01-22 10:59:54.46	220.26	26.75	-43.4	-45.9	18.2	0.00e+00	0	38	0	371195904	58	4796
2026-01-22 10:59:55.20	220.43	26.84	-43.5	-46.0	18.2	0.00e+00	0	37	0	372244480	58	4836
2026-01-22 10:59:56.56	220.74	26.99	-43.5	-46.0	18.1	0.00e+00	0	37	0	375390208	58	4842
2026-01-22 10:59:57.27	220.91	27.08	-43.6	-46.0	18.1	0.00e+00	0	38	0	376438784	58	4867
2026-01-22 10:59:58.61	221.22	27.23	-43.7	-46.2	18.0	0.00e+00	0	38	0	378535936	58	4932
2026-01-22 10:59:59.32	221.39	27.31	-43.6	-46.1	18.0	0.00e+00	0	37	0	379584512	58	4884
2026-01-22 11:00:00.60	221.70	27.46	-43.7	-46.3	17.8	0.00e+00	0	38	0	382730240	58	4997
2026-01-22 11:00:01.69	221.96	27.59	-43.9	-46.5	17.7	0.00e+00	0	37	0	384827392	58	5118
2026-01-22 11:00:02.82	222.24	27.72	-44.0	-46.6	17.6	0.00e+00	0	38	0	386924544	58	5177
2026-01-22 11:00:03.85	222.49	27.83	-43.9	-46.5	17.6	0.00e+00	0	37	0	389021696	58	5149
2026-01-22 11:00:04.84	222.73	27.95	-44.0	-46.6	17.6	0.00e+00	0	38	0	390070272	58	5177
2026-01-22 11:00:06.06	223.03	28.09	-43.9	-46.5	17.6	0.00e+00	0	38	0	393216000	58	5136
2026-01-22 11:00:06.93	223.25	28.19	-43.9	-46.5	17.7	0.00e+00	0	37	0	394264576	58	5116
2026-01-22 11:00:08.06	223.54	28.32	-43.8	-46.4	17.7	0.00e+00	0	38	0	396361728	58	5051
2026-01-22 11:00:09.00	223.77	28.43	-43.9	-46.5	17.6	0.00e+00	0	38	0	398458880	58	5138
2026-01-22 11:00:09.99	224.03	28.54	-44.1	-46.8	17.4	0.00e+00	0	38	0	400556032	58	5283
2026-01-22 11:00:10.98	224.28	28.65	-44.2	-46.8	17.3	0.00e+00	0	38	0	401604608	59	5032
2026-01-22 11:00:11.98	224.54	28.77	-44.3	-47.0	17.1	0.00e+00	0	38	0	403701760	59	5157
2026-01-22 11:00:12.97	224.80	28.88	-44.5	-47.2	16.9	0.00e+00	0	38	0	405798912	59	5279
2026-01-22 11:00:13.96	225.06	28.99	-44.6	-47.4	16.8	0.00e+00	0	37	0	407896064	59	5342
2026-01-22 11:00:14.96	225.32	29.11	-44.6	-47.4	16.8	0.00e+00	0	37	0	408944640	59	5357
2026-01-22 11:00:15.95	225.59	29.22	-44.8	-47.7	16.6	0.00e+00	0	38	0	411041792	60	5227
2026-01-22 11:00:16.95	225.86	29.33	-44.9	-47.8	16.4	0.00e+00	0	37	0	413138944	60	5307
2026-01-22 11:00:17.94	226.12	29.44	-45.1	-48.2	16.1	0.00e+00	0	37	0	415236096	60	5543
2026-01-22 11:00:18.94	226.39	29.56	-45.3	-48.4	15.9	0.00e+00	0	37	0	417333248	61	5343
2026-01-22 11:00:19.96	226.67	29.67	-45.4	-48.6	15.7	0.00e+00	0	38	0	418381824	61	5471
2026-01-22 11:00:20.99	226.96	29.79	-45.4	-48.5	15.7	0.00e+00	0	38	0	420478976	61	5452
2026-01-22 11:00:21.98	227.23	29.90	-45.3	-48.5	15.8	0.00e+00	0	38	0	422576128	61	5413
2026-01-22 11:00:22.98	227.51	30.01	-45.1	-48.2	16.1	0.00e+00	0	37	0	424673280	61	5239
2026-01-22 11:00:23.97	227.79	30.12	-45.1	-48.2	16.1	0.00e+00	0	38	0	426770432	61	5242
2026-01-22 11:00:24.97	228.07	30.23	-45.3	-48.4	15.8	0.00e+00	0	38	0	427819008	61	5391
2026-01-22 11:00:25.96	228.35	30.34	-45.5	-48.7	15.5	0.00e+00	0	38	0	429916160	61	5565
2026-01-22 11:00:26.95	228.64	30.45	-45.7	-49.0	15.3	0.00e+00	0	37	0	432013312	62	5430
2026-01-22 11:00:27.95	228.93	30.56	-46.0	-49.5	14.8	0.00e+00	0	37	0	434110464	62	5762
2026-01-22 11:00:28.94	229.22	30.67	-46.3	-49.9	14.4	0.00e+00	0	38	0	435159040	63	5688
2026-01-22 11:00:29.94	229.51	30.78	-46.6	-50.4	13.9	3.00e-06	0	38	0	437256192	63	6001
2026-01-22 11:00:30.93	229.80	30.89	-46.7	-50.5	13.6	5.30e-06	0	38	0	439353344	64	5785
2026-01-22 11:00:31.93	230.10	31.00	-46.9	-51.0	13.2	1.14e-05	0	38	0	441450496	64	6099
2026-01-22 11:00:32.92	230.39	31.10	-47.0	-51.3	12.9	3.12e-05	0	38	0	443547648	64	6303
2026-01-22 11:00:33.92	230.69	31.21	-47.0	-51.4	12.8	7.40e-05	0	38	0	444596224	64	6388
2026-01-22 11:00:34.92	230.99	31.32	-47.1	-51.5	12.7	6.63e-05	0	38	0	446693376	64	6460
2026-01-22 11:00:35.91	231.30	31.42	-47.0	-51.3	12.9	6.56e-05	0	38	0	448790528	64	6311
2026-01-22 11:00:36.91	231.60	31.53	-47.0	-51.2	13.0	4.19e-05	0	38	0	450887680	64	6221
2026-01-22 11:00:37.96	231.93	31.64	-46.8	-50.9	13.3	2.82e-05	0	38	0	452984832	64	6036
2026-01-22 11:00:38.86	232.21	31.74	-47.0	-51.2	13.0	1.67e-05	0	38	0	454033408	64	6238
2026-01-22 11:00:39.97	232.55	31.85	-47.1	-51.4	12.8	7.01e-05	0	38	0	456130560	64	6351
2026-01-22 11:00:40.82	232.82	31.94	-47.2	-51.5	12.6	6.94e-05	0	38	0	458227712	64	6482
2026-01-22 11:00:41.96	233.18	32.06	-47.0	-51.3	12.8	7.24e-05	0	38	0	460324864	65	5964
2026-01-22 11:00:42.81	233.45	32.15	-46.9	-51.0	13.1	5.18e-05	0	38	0	461373440	65	5782
2026-01-22 11:00:43.94	233.81	32.26	-46.8	-50.7	13.4	1.52e-05	0	38	0	463470592	65	5591
2026-01-22 11:00:44.79	234.09	32.35	-46.7	-50.6	13.6	2.20e-06	0	38	0	465567744	65	5499
2026-01-22 11:00:45.93	234.46	32.46	-46.6	-50.5	13.7	1.06e-05	0	38	0	467664896	65	5446
2026-01-22 11:00:46.78	234.73	32.55	-46.8	-50.8	13.4	9.90e-06	0	38	0	468713472	65	5647
2026-01-22 11:00:47.92	235.11	32.66	-46.9	-51.0	13.1	1.06e-05	0	38	0	470810624	65	5772
2026-01-22 11:00:48.77	235.39	32.75	-46.8	-51.0	13.3	2.44e-05	0	38	0	472907776	65	5724
2026-01-22 11:00:50.00	235.80	32.87	-46.9	-51.1	13.1	1.67e-05	0	38	0	475004928	65	5804
2026-01-22 11:00:50.86	236.08	32.95	-46.6	-50.6	13.6	1.44e-05	0	38	0	477102080	65	5477
2026-01-22 11:00:52.00	236.47	33.06	-46.5	-50.4	13.8	6.80e-06	0	38	0	479199232	65	5377
2026-01-22 11:00:52.85	236.75	33.14	-46.5	-50.3	13.9	8.30e-06	0	38	0	480247808	64	5630
2026-01-22 11:00:53.98	237.14	33.25	-46.4	-50.0	14.2	2.20e-06	0	38	0	482344960	64	5447
2026-01-22 11:00:54.84	237.43	33.33	-46.3	-49.9	14.3	7.00e-07	0	38	0	484442112	64	5367
2026-01-22 11:00:55.97	237.82	33.44	-46.2	-49.8	14.4	1.50e-06	0	38	0	486539264	64	5317
2026-01-22 11:00:56.82	238.11	33.52	-46.3	-49.9	14.3	7.00e-07	0	38	0	487587840	64	5371
2026-01-22 11:00:57.96	238.51	33.62	-46.3	-49.9	14.3	1.50e-06	0	38	0	489684992	64	5358
2026-01-22 11:00:58.81	238.81	33.70	-46.1	-49.7	14.6	1.50e-06	0	38	0	491782144	64	5231
2026-01-22 11:00:59.95	239.21	33.80	-46.0	-49.4	14.9	0.00e+00	0	38	0	493879296	63	5356
2026-01-22 11:01:00.80	239.51	33.88	-45.7	-48.9	15.3	7.00e-07	0	38	0	494927872	63	5081
2026-01-22 11:01:01.94	239.91	33.98	-45.6	-48.8	15.5	0.00e+00	0	38	0	497025024	63	5033
2026-01-22 11:01:02.79	240.22	34.05	-45.5	-48.7	15.7	0.00e+00	0	38	0	499122176	62	5224
2026-01-22 11:01:03.93	240.63	34.15	-45.7	-48.9	15.4	0.00e+00	0	38	0	501219328	62	5358
2026-01-22 11:01:04.78	240.93	34.22	-45.7	-49.0	15.3	0.00e+00	0	38	0	503316480	62	5442
2026-01-22 11:01:06.04	241.39	34.33	-45.8	-49.2	15.1	0.00e+00	0	38	0	505413632	62	5562
2026-01-22 11:01:06.85	241.68	34.40	-45.7	-48.9	15.4	0.00e+00	0	38	0	506462208	62	5401
2026-01-22 11:01:08.09	242.14	34.50	-45.4	-48.5	15.8	0.00e+00	0	38	0	508559360	62	5142
2026-01-22 11:01:08.95	242.46	34.57	-45.2	-48.1	16.1	0.00e+00	0	38	0	510656512	62	4922
2026-01-22 11:01:10.08	242.87	34.66	-45.1	-48.0	16.2	0.00e+00	0	38	0	512753664	62	4864
2026-01-22 11:01:10.93	243.19	34.73	-45.0	-47.9	16.4	0.00e+00	0	38	0	514850816	61	5067
2026-01-22 11:01:12.07	243.62	34.81	-44.8	-47.7	16.6	0.00e+00	0	38	0	516947968	61	4927
2026-01-22 11:01:12.93	243.94	34.88	-44.6	-47.4	16.8	0.00e+00	0	38	0	517996544	61	4793
2026-01-22 11:01:14.06	244.37	34.96	-44.7	-47.5	16.8	0.00e+00	0	38	0	520093696	61	4847
2026-01-22 11:01:15.03	244.73	35.04	-44.6	-47.4	16.8	0.00e+00	0	38	0	522190848	61	4811
2026-01-22 11:01:16.02	245.11	35.11	-44.6	-47.4	16.9	0.00e+00	0	38	0	524288000	61	4780
2026-01-22 11:01:17.01	245.49	35.18	-44.6	-47.4	16.9	0.00e+00	0	38	0	525336576	61	4813
2026-01-22 11:01:18.01	245.87	35.25	-44.8	-47.7	16.6	0.00e+00	0	38	0	527433728	61	4948
2026-01-22 11:01:19.00	246.25	35.32	-44.9	-47.8	16.5	0.00e+00	0	38	0	529530880	61	4996
2026-01-22 11:01:20.00	246.64	35.39	-44.8	-47.7	16.5	0.00e+00	0	38	0	531628032	61	4966
2026-01-22 11:01:20.99	247.03	35.45	-44.7	-47.6	16.7	0.00e+00	0	38	0	532676608	61	4907
2026-01-22 11:01:21.99	247.42	35.52	-44.8	-47.6	16.6	0.00e+00	0	38	0	534773760	61	4924
2026-01-22 11:01:22.98	247.80	35.58	-44.9	-47.8	16.5	0.00e+00	0	38	0	536870912	61	5010
2026-01-22 11:01:23.98	248.20	35.64	-44.9	-47.8	16.5	0.00e+00	0	38	0	538968064	61	5023
2026-01-22 11:01:24.97	248.59	35.70	-44.8	-47.8	16.5	0.00e+00	0	38	0	541065216	61	4984
2026-01-22 11:01:25.96	248.98	35.76	-44.8	-47.7	16.6	0.00e+00	0	38	0	542113792	61	4964
2026-01-22 11:01:26.99	249.39	35.82	-44.7	-47.6	16.7	0.00e+00	0	38	0	544210944	61	4875
2026-01-22 11:01:27.98	249.78	35.88	-44.6	-47.4	16.8	0.00e+00	0	38	0	546308096	61	4802
2026-01-22 11:01:28.98	250.18	35.94	-44.6	-47.4	16.9	0.00e+00	0	38	0	548405248	61	4785
2026-01-22 11:01:29.97	250.58	35.99	-44.6	-47.5	16.8	0.00e+00	0	38	0	550502400	61	4825
2026-01-22 11:01:30.97	250.98	36.04	-44.7	-47.5	16.8	0.00e+00	0	38	0	551550976	61	4840
2026-01-22 11:01:31.96	251.38	36.09	-44.7	-47.5	16.8	0.00e+00	0	38	0	553648128	61	4835
2026-01-22 11:01:32.96	251.79	36.14	-44.4	-47.1	17.2	0.00e+00	0	38	0	555745280	60	4897
2026-01-22 11:01:33.95	252.19	36.19	-44.2	-46.9	17.4	0.00e+00	0	38	0	557842432	60	4775
2026-01-22 11:01:34.95	252.60	36.24	-44.1	-46.8	17.5	0.00e+00	0	38	0	559939584	60	4709
2026-01-22 11:01:35.94	253.00	36.28	-44.1	-46.8	17.5	0.00e+00	0	38	0	560988160	60	4731
2026-01-22 11:01:36.93	253.41	36.32	-44.1	-46.7	17.6	0.00e+00	0	38	0	563085312	60	4656
2026-01-22 11:01:37.93	253.82	36.37	-44.0	-46.5	17.7	0.00e+00	0	38	0	565182464	59	4853
2026-01-22 11:01:38.93	254.23	36.41	-44.1	-46.8	17.5	0.00e+00	0	38	0	567279616	59	4993
2026-01-22 11:01:39.92	254.64	36.45	-44.3	-47.0	17.3	0.00e+00	0	38	0	568328192	59	5130
2026-01-22 11:01:40.95	255.07	36.48	-44.3	-47.0	17.2	0.00e+00	0	38	0	570425344	59	5128
2026-01-22 11:01:41.97	255.49	36.52	-44.5	-47.3	17.0	0.00e+00	0	38	0	572522496	59	5300
2026-01-22 11:01:42.97	255.90	36.55	-44.9	-47.8	16.5	0.00e+00	0	38	0	574619648	60	5327
2026-01-22 11:01:43.96	256.32	36.59	-45.2	-48.3	16.1	0.00e+00	0	38	0	576716800	61	5314
2026-01-22 11:01:44.96	256.73	36.62	-45.6	-48.9	15.4	0.00e+00	0	38	0	577765376	61	5680
2026-01-22 11:01:45.95	257.15	36.65	-45.8	-49.1	15.2	0.00e+00	0	38	0	579862528	62	5519
2026-01-22 11:01:46.95	257.57	36.67	-46.0	-49.4	15.0	0.00e+00	0	38	0	581959680	62	5686
2026-01-22 11:01:47.95	257.99	36.70	-45.8	-49.2	15.2	7.00e-07	0	38	0	584056832	62	5570
2026-01-22 11:01:48.94	258.40	36.72	-45.6	-48.9	15.4	0.00e+00	0	38	0	585105408	62	5383
2026-01-22 11:01:49.93	258.82	36.75	-45.2	-48.3	16.0	0.00e+00	0	37	0	587202560	62	5022
2026-01-22 11:01:50.93	259.24	36.77	-45.3	-48.4	16.0	0.00e+00	0	38	0	589299712	62	5064
2026-01-22 11:01:51.92	259.66	36.79	-45.5	-48.6	15.7	0.00e+00	0	38	0	591396864	62	5204
2026-01-22 11:01:52.92	260.08	36.80	-45.8	-49.2	15.2	0.00e+00	0	38	0	593494016	62	5544
2026-01-22 11:01:53.91	260.50	36.82	-45.9	-49.4	15.0	0.00e+00	0	38	0	594542592	62	5690
2026-01-22 11:01:54.91	260.92	36.83	-45.7	-49.1	15.2	0.00e+00	0	38	0	596639744	62	5496
2026-01-22 11:01:55.90	261.34	36.84	-45.8	-49.1	15.2	0.00e+00	0	38	0	598736896	62	5520
2026-01-22 11:01:56.89	261.76	36.86	-46.0	-49.4	15.0	0.00e+00	0	38	0	600834048	62	5679
2026-01-22 11:01:57.93	262.20	36.86	-46.0	-49.5	14.8	0.00e+00	0	37	0	602931200	62	5784
2026-01-22 11:01:58.96	262.63	36.87	-46.1	-49.7	14.7	7.00e-07	0	38	0	603979776	63	5564
2026-01-22 11:01:59.97	263.06	36.88	-46.0	-49.5	14.8	0.00e+00	0	38	0	606076928	63	5455
2026-01-22 11:02:00.96	263.48	36.88	-45.8	-49.2	15.1	0.00e+00	0	38	0	608174080	63	5238
2026-01-22 11:02:01.96	263.90	36.88	-45.7	-49.0	15.3	0.00e+00	0	38	0	610271232	63	5103
2026-01-22 11:02:02.95	264.32	36.88	-45.8	-49.2	15.2	0.00e+00	0	38	0	612368384	63	5225
2026-01-22 11:02:03.95	264.75	36.88	-46.0	-49.4	14.9	0.00e+00	0	38	0	613416960	63	5388
2026-01-22 11:02:04.94	265.17	36.88	-46.2	-49.7	14.6	0.00e+00	0	38	0	615514112	63	5591
2026-01-22 11:02:05.93	265.59	36.87	-46.1	-49.7	14.6	0.00e+00	0	38	0	617611264	63	5571
2026-01-22 11:02:06.93	266.01	36.87	-45.8	-49.2	15.2	0.00e+00	0	38	0	619708416	63	5234
2026-01-22 11:02:07.92	266.43	36.86	-45.3	-48.4	15.9	0.00e+00	0	38	0	620756992	62	5091
2026-01-22 11:02:08.92	266.85	36.85	-45.0	-47.9	16.4	0.00e+00	0	38	0	622854144	62	4800
2026-01-22 11:02:09.91	267.27	36.84	-45.0	-47.9	16.5	0.00e+00	0	38	0	624951296	61	5070
2026-01-22 11:02:10.91	267.70	36.82	-45.2	-48.2	16.1	0.00e+00	0	38	0	627048448	61	5265
2026-01-22 11:02:11.90	268.11	36.81	-45.5	-48.6	15.7	0.00e+00	0	38	0	629145600	61	5526
2026-01-22 11:02:12.90	268.54	36.79	-45.4	-48.6	15.7	0.00e+00	0	38	0	630194176	61	5494
2026-01-22 11:02:13.95	268.98	36.77	-45.0	-48.0	16.3	0.00e+00	0	38	0	632291328	61	5155
2026-01-22 11:02:14.87	269.36	36.75	-44.7	-47.5	16.8	0.00e+00	0	38	0	634388480	61	4858
2026-01-22 11:02:15.86	269.78	36.73	-44.3	-47.1	17.2	0.00e+00	0	38	0	636485632	60	4873
2026-01-22 11:02:16.86	270.20	36.71	-44.1	-46.8	17.5	0.00e+00	0	38	0	637534208	60	4708
2026-01-22 11:02:17.85	270.62	36.68	-44.2	-46.9	17.4	0.00e+00	0	38	0	639631360	60	4804
2026-01-22 11:02:18.85	271.03	36.65	-44.6	-47.4	16.9	0.00e+00	0	38	0	641728512	60	5071
2026-01-22 11:02:19.85	271.45	36.63	-44.9	-47.9	16.4	0.00e+00	0	37	0	643825664	60	5344
2026-01-22 11:02:20.84	271.86	36.60	-45.1	-48.1	16.2	0.00e+00	0	38	0	645922816	60	5516
2026-01-22 11:02:21.83	272.28	36.56	-45.0	-48.0	16.2	0.00e+00	0	38	0	646971392	61	5157
2026-01-22 11:02:22.83	272.69	36.53	-44.8	-47.6	16.7	0.00e+00	0	38	0	649068544	61	4906
2026-01-22 11:02:23.82	273.10	36.50	-44.8	-47.6	16.7	0.00e+00	0	38	0	651165696	61	4901
2026-01-22 11:02:24.82	273.51	36.46	-44.8	-47.6	16.7	0.00e+00	0	38	0	653262848	61	4919
2026-01-22 11:02:25.81	273.92	36.42	-44.9	-47.8	16.5	0.00e+00	0	38	0	654311424	61	5013
2026-01-22 11:02:26.81	274.33	36.38	-44.9	-47.9	16.4	0.00e+00	0	38	0	656408576	61	5045
2026-01-22 11:02:27.83	274.75	36.34	-45.0	-48.0	16.3	0.00e+00	0	38	0	658505728	61	5117
2026-01-22 11:02:28.87	275.18	36.30	-45.3	-48.3	16.0	0.00e+00	0	38	0	660602880	61	5305
2026-01-22 11:02:29.83	275.57	36.25	-45.5	-48.7	15.6	0.00e+00	0	38	0	662700032	61	5551
2026-01-22 11:02:30.94	276.02	36.20	-45.9	-49.2	15.1	0.00e+00	0	38	0	664797184	62	5569
2026-01-22 11:02:31.79	276.37	36.16	-46.2	-49.7	14.7	0.00e+00	0	38	0	665845760	62	5882
2026-01-22 11:02:32.93	276.83	36.10	-46.4	-50.0	14.3	3.00e-06	0	38	0	667942912	63	5760
2026-01-22 11:02:33.78	277.17	36.06	-46.2	-49.8	14.5	7.00e-07	0	38	0	670040064	63	5630
2026-01-22 11:02:34.92	277.63	36.00	-45.9	-49.3	15.0	0.00e+00	0	38	0	672137216	63	5288
2026-01-22 11:02:35.77	277.97	35.96	-45.7	-49.0	15.4	0.00e+00	0	38	0	673185792	63	5114
2026-01-22 11:02:36.91	278.43	35.89	-45.6	-48.8	15.5	0.00e+00	0	38	0	675282944	63	5030
2026-01-22 11:02:37.76	278.77	35.85	-45.7	-48.9	15.5	0.00e+00	0	38	0	677380096	63	5059
2026-01-22 11:02:38.90	279.22	35.78	-45.9	-49.3	15.1	0.00e+00	0	38	0	679477248	63	5284
2026-01-22 11:02:39.75	279.56	35.73	-45.9	-49.3	15.0	0.00e+00	0	38	0	680525824	63	5319
2026-01-22 11:02:40.89	280.01	35.66	-45.5	-48.7	15.6	7.00e-07	0	38	0	682622976	63	4956
2026-01-22 11:02:41.74	280.34	35.61	-45.4	-48.4	15.8	0.00e+00	0	38	0	684720128	62	5096
2026-01-22 11:02:42.88	280.79	35.54	-45.5	-48.6	15.7	0.00e+00	0	38	0	686817280	62	5204
2026-01-22 11:02:43.73	281.12	35.48	-45.8	-49.1	15.3	0.00e+00	0	38	0	687865856	62	5487
2026-01-22 11:02:44.98	281.60	35.40	-45.8	-49.0	15.3	0.00e+00	0	38	0	691011584	62	5461
2026-01-22 11:02:45.83	281.93	35.34	-45.4	-48.6	15.7	0.00e+00	0	38	0	692060160	62	5177
2026-01-22 11:02:47.03	282.39	35.26	-44.8	-47.7	16.5	0.00e+00	0	38	0	694157312	61	4969
2026-01-22 11:02:47.88	282.72	35.20	-44.6	-47.4	16.9	0.00e+00	0	38	0	696254464	61	4797
2026-01-22 11:02:49.10	283.18	35.11	-44.6	-47.4	16.9	0.00e+00	0	38	0	698351616	61	4796
2026-01-22 11:02:50.37	283.66	35.02	-44.6	-47.4	16.9	0.00e+00	0	38	0	700448768	61	4795
2026-01-22 11:02:51.09	283.94	34.97	-44.8	-47.6	16.7	0.00e+00	0	38	0	702545920	61	4906
2026-01-22 11:02:52.37	284.42	34.87	-44.9	-47.7	16.6	0.00e+00	0	38	0	704643072	61	4983
2026-01-22 11:02:53.08	284.68	34.82	-44.6	-47.5	16.8	0.00e+00	0	38	0	705691648	61	4819
2026-01-22 11:02:54.36	285.16	34.72	-44.5	-47.2	17.0	0.00e+00	0	38	0	707788800	61	4701
2026-01-22 11:02:55.07	285.42	34.66	-44.4	-47.2	17.1	0.00e+00	0	38	0	709885952	60	4943
2026-01-22 11:02:56.35	285.90	34.56	-44.5	-47.3	17.1	0.00e+00	0	38	0	711983104	60	4988
2026-01-22 11:02:57.07	286.16	34.50	-44.4	-47.2	17.1	0.00e+00	0	38	0	713031680	60	4948
2026-01-22 11:02:58.34	286.62	34.40	-44.0	-46.7	17.6	0.00e+00	0	38	0	716177408	60	4653
2026-01-22 11:02:59.08	286.89	34.34	-43.9	-46.4	17.8	0.00e+00	0	38	0	717225984	59	4800
2026-01-22 11:03:00.36	287.36	34.23	-43.9	-46.5	17.7	0.00e+00	0	38	0	719323136	59	4827
2026-01-22 11:03:01.07	287.61	34.17	-44.1	-46.7	17.5	0.00e+00	0	38	0	720371712	59	4954
2026-01-22 11:03:02.35	288.07	34.06	-44.6	-47.3	16.9	0.00e+00	0	38	0	723517440	59	5340
2026-01-22 11:03:03.06	288.32	34.00	-44.8	-47.6	16.7	0.00e+00	0	38	0	724566016	60	5209
2026-01-22 11:03:04.34	288.78	33.89	-44.8	-47.7	16.6	0.00e+00	0	38	0	726663168	60	5273
2026-01-22 11:03:05.08	289.04	33.82	-44.7	-47.6	16.7	0.00e+00	0	38	0	728760320	60	5164
2026-01-22 11:03:06.36	289.48	33.71	-44.7	-47.5	16.8	0.00e+00	0	38	0	730857472	60	5112
2026-01-22 11:03:07.07	289.73	33.64	-44.7	-47.5	16.8	0.00e+00	0	38	0	731906048	60	5149
2026-01-22 11:03:08.35	290.18	33.52	-44.7	-47.5	16.8	0.00e+00	0	38	0	735051776	60	5136
2026-01-22 11:03:09.09	290.43	33.46	-44.8	-47.6	16.7	0.00e+00	0	38	0	736100352	60	5194
2026-01-22 11:03:10.37	290.87	33.34	-44.7	-47.6	16.7	0.00e+00	0	37	0	738197504	60	5181
2026-01-22 11:03:11.08	291.11	33.27	-44.7	-47.5	16.8	0.00e+00	0	38	0	739246080	60	5126
2026-01-22 11:03:12.45	291.58	33.14	-44.3	-47.0	17.2	0.00e+00	0	38	0	742391808	60	4862
2026-01-22 11:03:13.17	291.82	33.07	-44.2	-46.9	17.4	0.00e+00	0	38	0	743440384	60	4775
2026-01-22 11:03:14.44	292.24	32.95	-44.5	-47.3	17.0	0.00e+00	0	38	0	745537536	60	5002
2026-01-22 11:03:15.17	292.49	32.88	-44.9	-47.8	16.5	0.00e+00	0	38	0	747634688	60	5328
2026-01-22 11:03:16.56	292.95	32.74	-45.3	-48.4	15.9	0.00e+00	0	38	0	749731840	61	5362
2026-01-22 11:03:17.27	293.18	32.67	-45.3	-48.4	15.9	0.00e+00	0	38	0	750780416	61	5371
2026-01-22 11:03:18.55	293.60	32.55	-45.2	-48.4	15.9	0.00e+00	0	38	0	753926144	61	5357
2026-01-22 11:03:19.26	293.83	32.47	-45.2	-48.3	16.0	0.00e+00	0	38	0	754974720	61	5324
2026-01-22 11:03:20.54	294.24	32.35	-45.3	-48.4	15.9	0.00e+00	0	37	0	757071872	61	5400
2026-01-22 11:03:21.28	294.48	32.27	-45.8	-49.2	15.2	0.00e+00	0	38	0	759169024	62	5534
2026-01-22 11:03:22.72	294.94	32.12	-46.6	-50.5	13.8	7.00e-07	0	38	0	761266176	63	6076
2026-01-22 11:03:23.43	295.16	32.05	-46.7	-50.6	13.6	3.80e-06	0	38	0	762314752	64	5851
2026-01-22 11:03:24.71	295.56	31.92	-46.4	-50.1	14.1	2.20e-06	0	38	0	765460480	64	5515
2026-01-22 11:03:25.43	295.79	31.84	-46.0	-49.5	14.7	2.20e-06	0	38	0	766509056	64	5115
2026-01-22 11:03:26.71	296.19	31.71	-45.3	-48.4	15.9	0.00e+00	0	38	0	768606208	62	5077
2026-01-22 11:03:27.45	296.41	31.63	-45.1	-48.2	16.1	0.00e+00	0	38	0	770703360	62	4940
2026-01-22 11:03:28.73	296.81	31.50	-45.3	-48.4	15.9	0.00e+00	0	38	0	772800512	62	5048
2026-01-22 11:03:29.46	297.03	31.42	-45.5	-48.7	15.6	0.00e+00	0	38	0	773849088	62	5251
2026-01-22 11:03:30.74	297.42	31.29	-45.7	-49.0	15.3	0.00e+00	0	38	0	775946240	62	5443
2026-01-22 11:03:31.46	297.63	31.21	-45.2	-48.3	15.9	0.00e+00	0	38	0	778043392	62	5029
2026-01-22 11:03:32.74	298.01	31.07	-44.5	-47.3	16.9	0.00e+00	0	38	0	780140544	61	4741
2026-01-22 11:03:33.48	298.23	30.99	-44.5	-47.3	17.0	0.00e+00	0	38	0	781189120	60	4991
2026-01-22 11:03:34.76	298.61	30.85	-44.3	-47.0	17.2	0.00e+00	0	38	0	784334848	60	4857
2026-01-22 11:03:35.49	298.82	30.77	-44.7	-47.6	16.7	0.00e+00	0	38	0	785383424	60	5184
2026-01-22 11:03:36.77	299.20	30.64	-45.5	-48.7	15.6	0.00e+00	0	38	0	787480576	61	5575
2026-01-22 11:03:37.48	299.40	30.56	-45.8	-49.2	15.1	0.00e+00	0	38	0	789577728	62	5532
2026-01-22 11:03:38.75	299.77	30.42	-45.5	-48.7	15.6	0.00e+00	0	38	0	791674880	62	5275
2026-01-22 11:03:39.50	299.98	30.34	-45.1	-48.1	16.2	0.00e+00	0	38	0	792723456	62	4926
2026-01-22 11:03:40.78	300.34	30.20	-44.8	-47.7	16.5	0.00e+00	0	38	0	794820608	61	4968
2026-01-22 11:03:41.52	300.55	30.11	-44.9	-47.9	16.4	0.00e+00	0	38	0	796917760	61	5054
2026-01-22 11:03:42.80	300.91	29.97	-45.7	-49.1	15.3	0.00e+00	0	38	0	799014912	61	5796
2026-01-22 11:03:43.51	301.11	29.89	-46.1	-49.7	14.5	0.00e+00	0	38	0	800063488	62	5923
2026-01-22 11:03:44.80	301.46	29.75	-46.3	-50.0	14.3	1.50e-06	0	38	0	803209216	63	5763
2026-01-22 11:03:45.51	301.65	29.67	-45.7	-49.1	15.2	1.50e-06	0	38	0	804257792	63	5194
2026-01-22 11:03:46.79	302.00	29.53	-44.7	-47.5	16.6	0.00e+00	0	38	0	806354944	61	4861
2026-01-22 11:03:47.53	302.20	29.44	-44.4	-47.2	17.0	0.00e+00	0	38	0	808452096	60	4959
2026-01-22 11:03:48.81	302.55	29.30	-44.6	-47.4	16.8	0.00e+00	0	38	0	810549248	60	5077
2026-01-22 11:03:49.52	302.73	29.22	-44.7	-47.6	16.7	0.00e+00	0	38	0	811597824	60	5186
2026-01-22 11:03:50.80	303.07	29.07	-45.5	-48.7	15.5	0.00e+00	0	38	0	813694976	61	5587
2026-01-22 11:03:51.52	303.26	28.99	-45.9	-49.3	15.0	7.00e-07	0	38	0	815792128	62	5640
2026-01-22 11:03:52.80	303.60	28.85	-45.4	-48.5	15.7	0.00e+00	0	37	0	817889280	62	5131
2026-01-22 11:03:53.53	303.78	28.77	-44.8	-47.7	16.5	0.00e+00	0	38	0	818937856	61	4959
2026-01-22 11:03:54.81	304.11	28.62	-44.2	-47.0	17.3	0.00e+00	0	38	0	822083584	60	4821
2026-01-22 11:03:55.53	304.30	28.54	-44.3	-47.0	17.2	0.00e+00	0	38	0	823132160	60	4866
2026-01-22 11:03:56.82	304.62	28.39	-44.7	-47.7	16.6	0.00e+00	0	38	0	825229312	60	5233
2026-01-22 11:03:57.55	304.81	28.31	-45.3	-48.4	15.8	0.00e+00	0	38	0	827326464	61	5400
2026-01-22 11:03:58.83	305.13	28.16	-46.2	-49.9	14.4	0.00e+00	0	38	0	829423616	63	5657
2026-01-22 11:03:59.61	305.32	28.07	-46.2	-49.9	14.4	1.50e-06	0	38	0	830472192	63	5661
2026-01-22 11:04:01.22	305.72	27.89	-45.4	-48.6	15.6	0.00e+00	0	38	0	833617920	62	5179
2026-01-22 11:04:01.80	305.86	27.82	-45.0	-48.0	16.2	0.00e+00	0	38	0	834666496	62	4840
2026-01-22 11:04:03.37	306.24	27.64	-44.5	-47.4	16.9	0.00e+00	0	38	0	837812224	61	4766
2026-01-22 11:04:04.00	306.39	27.57	-44.5	-47.3	16.9	0.00e+00	0	38	0	838860800	61	4735
2026-01-22 11:04:05.53	306.76	27.40	-45.2	-48.4	15.9	0.00e+00	0	38	0	842006528	61	5353
2026-01-22 11:04:06.25	306.93	27.32	-45.6	-49.0	15.3	0.00e+00	0	38	0	843055104	61	5752
2026-01-22 11:04:07.52	307.23	27.17	-45.6	-49.0	15.2	0.00e+00	0	38	0	845152256	62	5443
2026-01-22 11:04:08.24	307.39	27.09	-45.2	-48.4	15.9	0.00e+00	0	38	0	847249408	62	5067
2026-01-22 11:04:09.52	307.69	26.94	-44.5	-47.3	16.9	0.00e+00	0	38	0	849346560	60	4997
2026-01-22 11:04:10.23	307.86	26.86	-44.3	-47.0	17.2	0.00e+00	0	38	0	850395136	60	4861
2026-01-22 11:04:11.51	308.15	26.71	-43.8	-46.4	17.8	0.00e+00	0	38	0	852492288	59	4776
2026-01-22 11:04:12.23	308.31	26.63	-43.8	-46.3	17.8	0.00e+00	0	38	0	854589440	59	4741
2026-01-22 11:04:13.62	308.62	26.47	-44.6	-47.4	16.8	0.00e+00	0	38	0	856686592	59	5345
2026-01-22 11:04:14.33	308.78	26.39	-44.7	-47.6	16.6	0.00e+00	0	38	0	857735168	60	5200
2026-01-22 11:04:15.67	309.08	26.24	-44.7	-47.7	16.6	0.00e+00	0	38	0	860880896	60	5222
2026-01-22 11:04:16.38	309.24	26.16	-44.4	-47.1	17.1	0.00e+00	0	38	0	861929472	60	4914
2026-01-22 11:04:17.72	309.53	26.00	-43.7	-46.3	17.9	0.00e+00	0	38	0	865075200	59	4711
2026-01-22 11:04:18.44	309.69	25.92	-43.5	-46.0	18.1	0.00e+00	0	38	0	866123776	59	4569
2026-01-22 11:04:19.78	309.98	25.77	-43.5	-46.0	18.1	0.00e+00	0	38	0	868220928	58	4869
2026-01-22 11:04:20.49	310.13	25.69	-43.6	-46.1	18.1	0.00e+00	0	38	0	869269504	58	4903
2026-01-22 11:04:21.86	310.42	25.53	-44.0	-46.7	17.5	0.00e+00	0	38	0	872415232	58	5221
2026-01-22 11:04:22.57	310.57	25.45	-44.2	-47.0	17.2	0.00e+00	0	38	0	873463808	59	5101
2026-01-22 11:04:23.85	310.84	25.30	-44.3	-47.1	17.1	0.00e+00	0	38	0	876609536	59	5179
2026-01-22 11:04:24.58	310.99	25.22	-44.1	-46.8	17.4	0.00e+00	0	38	0	877658112	59	5022
2026-01-22 11:04:25.86	311.25	25.07	-43.7	-46.3	17.9	0.00e+00	0	38	0	879755264	59	4714
2026-01-22 11:04:26.58	311.40	24.99	-43.3	-45.8	18.3	0.00e+00	0	38	0	880803840	58	4710
2026-01-22 11:04:27.86	311.66	24.85	-43.0	-45.4	18.7	0.00e+00	0	38	0	883949568	57	4777
2026-01-22 11:04:28.58	311.81	24.77	-42.7	-45.0	19.0	0.00e+00	0	38	0	884998144	57	4596
2026-01-22 11:04:29.86	312.07	24.62	-42.5	-44.9	19.1	0.00e+00	0	38	0	887095296	57	4510
2026-01-22 11:04:30.60	312.21	24.54	-42.7	-45.1	19.0	0.00e+00	0	38	0	889192448	57	4634
2026-01-22 11:04:32.17	312.52	24.36	-42.9	-45.4	18.7	0.00e+00	0	38	0	891289600	57	4781
2026-01-22 11:04:32.81	312.65	24.29	-43.0	-45.5	18.6	0.00e+00	0	38	0	893386752	57	4824
2026-01-22 11:04:34.36	312.95	24.11	-42.7	-45.1	19.0	0.00e+00	0	38	0	895483904	57	4621
2026-01-22 11:04:35.07	313.09	24.03	-42.5	-44.9	19.1	0.00e+00	0	38	0	897581056	57	4529
2026-01-22 11:04:36.35	313.33	23.89	-42.2	-44.5	19.6	0.00e+00	0	38	0	899678208	56	4551
2026-01-22 11:04:37.07	313.47	23.81	-42.2	-44.4	19.6	0.00e+00	0	38	0	900726784	56	4522
2026-01-22 11:04:38.35	313.71	23.67	-42.1	-44.3	19.7	0.00e+00	0	38	0	902823936	56	4479
2026-01-22 11:04:39.08	313.85	23.59	-42.1	-44.4	19.6	0.00e+00	0	38	0	904921088	56	4502
2026-01-22 11:04:40.36	314.09	23.44	-42.4	-44.6	19.4	0.00e+00	0	38	0	907018240	56	4648
2026-01-22 11:04:41.07	314.22	23.36	-42.5	-44.7	19.3	0.00e+00	0	38	0	908066816	56	4688
2026-01-22 11:04:42.48	314.48	23.21	-42.6	-44.9	19.1	0.00e+00	0	38	0	911212544	56	4789
2026-01-22 11:04:43.19	314.61	23.13	-42.5	-44.8	19.3	0.00e+00	0	38	0	912261120	56	4711
2026-01-22 11:04:44.47	314.84	22.99	-42.3	-44.5	19.5	0.00e+00	0	38	0	914358272	56	4589
2026-01-22 11:04:45.18	314.97	22.91	-42.2	-44.5	19.5	0.00e+00	0	38	0	916455424	56	4558
2026-01-22 11:04:46.58	315.22	22.75	-42.1	-44.3	19.6	0.00e+00	0	38	0	918552576	56	4484
2026-01-22 11:04:47.29	315.35	22.68	-41.8	-44.0	19.8	0.00e+00	0	38	0	919601152	55	4562
2026-01-22 11:04:48.58	315.57	22.53	-41.5	-43.7	20.1	0.00e+00	0	38	0	922746880	55	4404
2026-01-22 11:04:49.29	315.70	22.46	-41.5	-43.7	20.1	0.00e+00	0	38	0	923795456	55	4416
2026-01-22 11:04:50.65	315.94	22.31	-41.7	-43.9	19.9	0.00e+00	0	38	0	925892608	55	4534
2026-01-22 11:04:51.36	316.06	22.23	-41.8	-44.1	19.8	0.00e+00	0	38	0	927989760	55	4602
2026-01-22 11:04:52.64	316.28	22.09	-42.0	-44.3	19.5	0.00e+00	0	38	0	930086912	55	4736
2026-01-22 11:04:53.37	316.40	22.01	-42.1	-44.4	19.4	0.00e+00	0	38	0	931135488	55	4786
2026-01-22 11:04:54.65	316.62	21.87	-42.1	-44.4	19.4	0.00e+00	0	38	0	934281216	55	4796
2026-01-22 11:04:55.39	316.74	21.79	-42.1	-44.4	19.4	0.00e+00	0	38	0	935329792	55	4784
2026-01-22 11:04:56.67	316.96	21.65	-42.1	-44.4	19.5	0.00e+00	0	37	0	937426944	55	4766
2026-01-22 11:04:57.39	317.08	21.57	-41.9	-44.2	19.6	0.00e+00	0	38	0	938475520	55	4666
2026-01-22 11:04:58.67	317.29	21.44	-41.8	-44.0	19.8	0.00e+00	0	38	0	941621248	55	4594
2026-01-22 11:04:59.38	317.40	21.36	-41.8	-44.0	19.8	0.00e+00	0	38	0	942669824	55	4570
2026-01-22 11:05:00.66	317.61	21.22	-41.8	-44.1	19.7	0.00e+00	0	38	0	944766976	55	4616
2026-01-22 11:05:01.50	317.75	21.13	-41.9	-44.2	19.6	0.00e+00	0	37	0	946864128	55	4673
2026-01-22 11:05:02.64	317.93	21.01	-42.3	-44.6	19.2	0.00e+00	0	38	0	948961280	55	4891
2026-01-22 11:05:03.49	318.06	20.92	-42.3	-44.7	19.2	0.00e+00	0	38	0	950009856	55	4942
2026-01-22 11:05:04.63	318.24	20.80	-42.6	-45.0	18.9	0.00e+00	0	38	0	952107008	55	5131
2026-01-22 11:05:05.48	318.38	20.71	-42.6	-45.0	18.8	0.00e+00	0	38	0	954204160	55	5159
2026-01-22 11:05:06.61	318.55	20.59	-42.5	-45.0	18.9	0.00e+00	0	38	0	956301312	55	5142
2026-01-22 11:05:07.47	318.69	20.50	-42.5	-45.1	18.8	0.00e+00	0	38	0	957349888	55	5174
2026-01-22 11:05:08.60	318.86	20.38	-42.4	-45.0	18.9	0.00e+00	0	38	0	960495616	55	5105
2026-01-22 11:05:09.45	318.99	20.29	-42.4	-45.0	18.9	0.00e+00	0	38	0	961544192	55	5122
2026-01-22 11:05:10.59	319.16	20.17	-42.2	-44.8	19.1	0.00e+00	0	38	0	963641344	55	4985
2026-01-22 11:05:11.44	319.29	20.08	-42.1	-44.5	19.3	0.00e+00	0	38	0	965738496	55	4857
2026-01-22 11:05:12.58	319.46	19.96	-42.2	-44.6	19.2	0.00e+00	0	38	0	967835648	55	4881
2026-01-22 11:05:13.43	319.59	19.88	-42.2	-44.6	19.2	0.00e+00	0	38	0	968884224	55	4890
2026-01-22 11:05:14.57	319.76	19.76	-42.4	-44.8	19.0	0.00e+00	0	38	0	970981376	55	4999
2026-01-22 11:05:15.42	319.88	19.67	-42.4	-44.7	19.1	0.00e+00	0	38	0	973078528	55	4969
2026-01-22 11:05:16.55	320.05	19.55	-42.5	-44.9	19.0	0.00e+00	0	38	0	975175680	55	5063
2026-01-22 11:05:17.41	320.17	19.46	-42.5	-44.9	18.9	0.00e+00	0	38	0	976224256	55	5097
2026-01-22 11:05:18.55	320.34	19.35	-42.6	-45.0	18.8	0.00e+00	0	38	0	978321408	55	5155
2026-01-22 11:05:19.40	320.46	19.26	-42.6	-45.1	18.8	0.00e+00	0	38	0	980418560	55	5175
2026-01-22 11:05:20.53	320.62	19.14	-42.6	-45.0	18.8	0.00e+00	0	38	0	982515712	55	5144
2026-01-22 11:05:21.39	320.74	19.06	-42.8	-45.3	18.7	0.00e+00	0	38	0	983564288	56	5016
2026-01-22 11:05:22.52	320.90	18.94	-42.9	-45.4	18.6	0.00e+00	0	38	0	985661440	56	5076
2026-01-22 11:05:23.38	321.02	18.85	-42.8	-45.2	18.8	0.00e+00	0	38	0	987758592	56	4940
2026-01-22 11:05:24.51	321.17	18.74	-42.8	-45.3	18.8	0.00e+00	0	38	0	989855744	56	4997
2026-01-22 11:05:25.37	321.29	18.65	-42.9	-45.4	18.6	0.00e+00	0	38	0	991952896	56	5050
2026-01-22 11:05:26.50	321.45	18.54	-42.9	-45.3	18.7	0.00e+00	0	38	0	994050048	56	5040
2026-01-22 11:05:27.36	321.56	18.45	-43.0	-45.5	18.5	0.00e+00	0	38	0	995098624	56	5123
2026-01-22 11:05:28.49	321.72	18.34	-43.0	-45.5	18.5	0.00e+00	0	38	0	997195776	56	5132
2026-01-22 11:05:29.34	321.83	18.25	-43.0	-45.6	18.4	0.00e+00	0	38	0	999292928	56	5163
2026-01-22 11:05:30.48	321.98	18.14	-43.2	-45.7	18.3	0.00e+00	0	38	0	1001390080	57	4978
2026-01-22 11:05:31.33	322.10	18.05	-43.1	-45.6	18.4	0.00e+00	0	38	0	1002438656	57	4890
2026-01-22 11:05:32.47	322.25	17.94	-43.0	-45.5	18.5	0.00e+00	0	38	0	1004535808	57	4822
2026-01-22 11:05:33.32	322.36	17.86	-43.0	-45.5	18.4	0.00e+00	0	38	0	1006632960	57	4858
2026-01-22 11:05:34.46	322.51	17.74	-43.1	-45.6	18.4	0.00e+00	0	38	0	1008730112	57	4898
2026-01-22 11:05:35.31	322.62	17.66	-43.2	-45.8	18.2	0.00e+00	0	38	0	1009778688	57	5010
2026-01-22 11:05:36.49	322.77	17.54	-43.5	-46.1	17.9	0.00e+00	0	38	0	1011875840	57	5204
2026-01-22 11:05:37.35	322.88	17.46	-43.6	-46.3	17.7	0.00e+00	0	38	0	1013972992	57	5315
2026-01-22 11:05:38.49	323.02	17.35	-44.0	-46.9	17.2	0.00e+00	0	38	0	1016070144	58	5347
2026-01-22 11:05:39.34	323.13	17.27	-44.1	-47.1	17.0	0.00e+00	0	38	0	1017118720	58	5470
2026-01-22 11:05:40.60	323.29	17.14	-44.4	-47.4	16.7	0.00e+00	0	38	0	1020264448	59	5372
2026-01-22 11:05:41.39	323.39	17.07	-44.5	-47.6	16.5	0.00e+00	0	38	0	1021313024	59	5478
2026-01-22 11:05:42.58	323.53	16.95	-44.4	-47.4	16.6	0.00e+00	0	37	0	1023410176	59	5359
2026-01-22 11:05:43.43	323.64	16.87	-44.5	-47.4	16.7	0.00e+00	0	38	0	1025507328	59	5363
2026-01-22 11:05:44.71	323.79	16.75	-44.2	-46.9	17.1	0.00e+00	0	38	0	1027604480	59	5078
2026-01-22 11:05:45.42	323.88	16.68	-44.1	-46.8	17.3	0.00e+00	0	38	0	1028653056	59	4992
2026-01-22 11:05:46.70	324.03	16.56	-43.9	-46.5	17.5	0.00e+00	0	38	0	1031798784	59	4853
2026-01-22 11:05:47.42	324.12	16.49	-43.8	-46.5	17.5	0.00e+00	0	38	0	1032847360	59	4819
2026-01-22 11:05:48.70	324.27	16.37	-43.7	-46.3	17.7	0.00e+00	0	38	0	1034944512	59	4753
2026-01-22 11:05:49.43	324.36	16.30	-43.7	-46.3	17.7	0.00e+00	0	38	0	1037041664	59	4734
2026-01-22 11:05:50.71	324.51	16.18	-43.7	-46.3	17.7	0.00e+00	0	38	0	1039138816	59	4752
2026-01-22 11:05:51.51	324.60	16.10	-43.8	-46.6	17.5	0.00e+00	0	38	0	1040187392	59	4880
2026-01-22 11:05:52.65	324.74	15.99	-43.9	-46.8	17.2	0.00e+00	0	38	0	1042284544	59	5019
2026-01-22 11:05:53.50	324.83	15.91	-44.0	-47.0	17.0	0.00e+00	0	38	0	1044381696	59	5136
2026-01-22 11:05:54.64	324.97	15.81	-44.0	-47.2	16.9	0.00e+00	0	38	0	1046478848	59	5232
2026-01-22 11:05:55.49	325.06	15.73	-44.0	-47.2	16.8	0.00e+00	0	38	0	1047527424	59	5279
2026-01-22 11:05:56.63	325.19	15.62	-43.9	-47.2	16.8	0.00e+00	0	38	0	1049624576	59	5246
2026-01-22 11:05:57.80	325.32	15.51	-44.0	-47.3	16.8	0.00e+00	0	38	0	1052770304	59	5289
2026-01-22 11:05:58.83	325.44	15.42	-43.9	-47.2	16.9	0.00e+00	0	38	0	1053818880	59	5222
2026-01-22 11:05:59.99	325.57	15.31	-43.8	-46.9	17.1	0.00e+00	0	38	0	1055916032	59	5082
2026-01-22 11:06:00.85	325.66	15.23	-43.7	-46.8	17.2	0.00e+00	0	38	0	1058013184	59	5025
2026-01-22 11:06:01.99	325.79	15.13	-43.7	-46.6	17.3	0.00e+00	0	38	0	1060110336	59	4919
2026-01-22 11:06:02.84	325.88	15.05	-43.6	-46.4	17.6	0.00e+00	0	38	0	1061158912	59	4784
2026-01-22 11:06:03.98	326.01	14.95	-43.4	-46.2	17.8	0.00e+00	0	38	0	1064304640	58	4955
2026-01-22 11:06:04.83	326.10	14.87	-43.5	-46.3	17.7	0.00e+00	0	38	0	1065353216	58	4984
2026-01-22 11:06:05.96	326.22	14.77	-43.6	-46.4	17.6	0.00e+00	0	38	0	1067450368	58	5070
2026-01-22 11:06:06.82	326.31	14.69	-43.6	-46.4	17.6	0.00e+00	0	38	0	1069547520	58	5079
2026-01-22 11:06:07.95	326.43	14.59	-43.7	-46.6	17.4	0.00e+00	0	38	0	1071644672	58	5182
2026-01-22 11:06:08.80	326.52	14.51	-43.8	-46.7	17.2	0.00e+00	0	38	0	1072693248	58	5270
2026-01-22 11:06:09.94	326.64	14.41	-43.9	-47.0	17.0	0.00e+00	0	38	0	1074790400	58	5403
2026-01-22 11:06:10.79	326.73	14.33	-44.0	-47.1	16.9	0.00e+00	0	38	0	1076887552	58	5496
2026-01-22 11:06:12.01	326.86	14.22	-44.2	-47.3	16.7	0.00e+00	0	38	0	1078984704	58	5625
2026-01-22 11:06:12.86	326.94	14.15	-44.2	-47.3	16.7	0.00e+00	0	38	0	1080033280	59	5324
2026-01-22 11:06:14.08	327.07	14.04	-44.3	-47.5	16.4	0.00e+00	0	38	0	1083179008	59	5463
2026-01-22 11:06:14.93	327.16	13.97	-44.2	-47.4	16.6	0.00e+00	0	38	0	1084227584	59	5359
2026-01-22 11:06:16.07	327.27	13.87	-44.2	-47.3	16.6	0.00e+00	0	38	0	1086324736	59	5340
2026-01-22 11:06:16.94	327.36	13.79	-44.2	-47.2	16.7	0.00e+00	0	38	0	1088421888	59	5274
2026-01-22 11:06:18.08	327.47	13.69	-43.9	-46.8	17.1	0.00e+00	0	38	0	1090519040	59	5038
2026-01-22 11:06:19.02	327.57	13.61	-43.9	-46.7	17.2	0.00e+00	0	38	0	1091567616	59	4966
2026-01-22 11:06:20.02	327.67	13.52	-43.7	-46.5	17.5	0.00e+00	0	38	0	1093664768	59	4842
2026-01-22 11:06:21.01	327.76	13.43	-43.6	-46.4	17.6	0.00e+00	0	38	0	1095761920	59	4760
2026-01-22 11:06:22.01	327.86	13.35	-43.6	-46.3	17.6	0.00e+00	0	38	0	1097859072	59	4744
2026-01-22 11:06:23.01	327.96	13.26	-43.5	-46.2	17.8	0.00e+00	0	38	0	1099956224	59	4652
2026-01-22 11:06:24.00	328.05	13.18	-43.4	-46.0	17.9	0.00e+00	0	38	0	1101004800	58	4854
2026-01-22 11:06:24.99	328.15	13.09	-43.4	-46.0	17.9	0.00e+00	0	38	0	1103101952	58	4858
2026-01-22 11:06:25.99	328.25	13.00	-43.4	-46.0	17.9	0.00e+00	0	38	0	1105199104	58	4859
2026-01-22 11:06:26.98	328.34	12.92	-43.5	-46.2	17.8	0.00e+00	0	38	0	1107296256	58	4930
2026-01-22 11:06:27.98	328.44	12.83	-43.5	-46.2	17.7	0.00e+00	0	38	0	1108344832	58	4939
2026-01-22 11:06:28.97	328.53	12.75	-43.6	-46.4	17.6	0.00e+00	0	38	0	1110441984	58	5047
2026-01-22 11:06:29.97	328.62	12.67	-43.7	-46.5	17.4	0.00e+00	0	38	0	1112539136	58	5109
2026-01-22 11:06:30.96	328.71	12.58	-43.7	-46.5	17.4	0.00e+00	0	38	0	1114636288	58	5125
2026-01-22 11:06:31.96	328.81	12.50	-43.8	-46.6	17.4	0.00e+00	0	38	0	1116733440	58	5163
2026-01-22 11:06:32.95	328.90	12.41	-43.8	-46.7	17.3	0.00e+00	0	38	0	1117782016	58	5226
2026-01-22 11:06:33.94	328.99	12.33	-43.9	-46.8	17.1	0.00e+00	0	38	0	1119879168	58	5289
2026-01-22 11:06:34.94	329.08	12.25	-44.0	-46.9	17.1	0.00e+00	0	38	0	1121976320	58	5346
2026-01-22 11:06:35.94	329.17	12.16	-44.0	-46.9	17.0	0.00e+00	0	38	0	1124073472	58	5366
2026-01-22 11:06:36.93	329.26	12.08	-44.1	-47.0	17.0	0.00e+00	0	38	0	1125122048	58	5417
2026-01-22 11:06:37.93	329.35	12.00	-44.1	-46.9	17.0	0.00e+00	0	38	0	1127219200	58	5402
2026-01-22 11:06:38.92	329.44	11.92	-44.0	-46.8	17.1	0.00e+00	0	38	0	1129316352	58	5309
2026-01-22 11:06:39.91	329.53	11.83	-44.0	-46.9	17.1	0.00e+00	0	38	0	1131413504	58	5348
2026-01-22 11:06:40.91	329.62	11.75	-43.9	-46.7	17.2	0.00e+00	0	38	0	1133510656	58	5255
2026-01-22 11:06:41.90	329.70	11.67	-43.9	-46.7	17.2	0.00e+00	0	38	0	1134559232	58	5253
2026-01-22 11:06:42.90	329.79	11.59	-43.8	-46.6	17.3	0.00e+00	0	38	0	1136656384	58	5213
2026-01-22 11:06:43.89	329.88	11.51	-43.7	-46.5	17.4	0.00e+00	0	38	0	1138753536	58	5146
2026-01-22 11:06:44.97	329.97	11.42	-43.7	-46.5	17.4	0.00e+00	0	38	0	1140850688	58	5122
2026-01-22 11:06:45.83	330.04	11.35	-43.8	-46.5	17.4	0.00e+00	0	38	0	1141899264	58	5142
2026-01-22 11:06:46.97	330.14	11.26	-43.7	-46.4	17.4	0.00e+00	0	38	0	1143996416	58	5080
2026-01-22 11:06:47.83	330.21	11.19	-43.7	-46.4	17.4	0.00e+00	0	38	0	1146093568	58	5098
2026-01-22 11:06:48.96	330.31	11.10	-43.7	-46.4	17.5	0.00e+00	0	38	0	1148190720	58	5075
2026-01-22 11:06:49.82	330.38	11.03	-43.7	-46.4	17.4	0.00e+00	0	38	0	1150287872	58	5093
2026-01-22 11:06:50.95	330.48	10.94	-43.7	-46.5	17.3	0.00e+00	0	38	0	1152385024	58	5128
2026-01-22 11:06:51.81	330.55	10.87	-43.8	-46.5	17.4	0.00e+00	0	38	0	1153433600	58	5127
2026-01-22 11:06:52.94	330.64	10.78	-43.8	-46.5	17.3	0.00e+00	0	38	0	1155530752	58	5142
2026-01-22 11:06:53.80	330.71	10.71	-43.9	-46.6	17.2	0.00e+00	0	38	0	1157627904	58	5208
2026-01-22 11:06:54.94	330.81	10.62	-44.0	-46.8	17.0	0.00e+00	0	38	0	1159725056	58	5322
2026-01-22 11:06:55.79	330.88	10.55	-44.0	-46.8	17.0	0.00e+00	0	38	0	1160773632	58	5292
2026-01-22 11:06:56.92	330.97	10.46	-44.1	-46.9	16.9	0.00e+00	0	38	0	1162870784	58	5398
2026-01-22 11:06:57.78	331.04	10.39	-44.1	-47.0	16.9	0.00e+00	0	38	0	1164967936	58	5409
2026-01-22 11:06:58.92	331.13	10.31	-44.1	-47.0	16.9	0.00e+00	0	38	0	1167065088	58	5412
2026-01-22 11:06:59.77	331.20	10.24	-44.1	-47.0	16.8	0.00e+00	0	38	0	1168113664	58	5434
2026-01-22 11:07:01.10	331.30	10.13	-44.0	-47.0	16.9	0.00e+00	0	38	0	1171259392	58	5407
2026-01-22 11:07:01.81	331.36	10.08	-44.1	-47.0	16.8	0.00e+00	0	38	0	1172307968	58	5416
2026-01-22 11:07:03.09	331.46	9.98	-44.0	-47.0	16.8	0.00e+00	0	38	0	1174405120	58	5420
2026-01-22 11:07:03.80	331.52	9.92	-44.1	-47.0	16.8	0.00e+00	0	38	0	1176502272	58	5426
2026-01-22 11:07:05.08	331.62	9.83	-44.1	-47.0	16.8	0.00e+00	0	38	0	1178599424	58	5444
2026-01-22 11:07:05.79	331.67	9.77	-44.1	-47.1	16.7	0.00e+00	0	38	0	1179648000	58	5502
2026-01-22 11:07:07.07	331.77	9.67	-44.0	-47.0	16.8	0.00e+00	0	38	0	1181745152	59	5117
2026-01-22 11:07:07.92	331.84	9.61	-44.1	-47.1	16.7	0.00e+00	0	38	0	1183842304	59	5170
2026-01-22 11:07:09.06	331.92	9.52	-44.1	-47.1	16.6	0.00e+00	0	38	0	1185939456	59	5205
2026-01-22 11:07:09.91	331.99	9.46	-44.1	-47.1	16.6	0.00e+00	0	38	0	1186988032	59	5218
2026-01-22 11:07:11.05	332.08	9.37	-44.1	-47.1	16.6	0.00e+00	0	38	0	1190133760	59	5209
2026-01-22 11:07:11.90	332.14	9.30	-44.0	-47.0	16.8	0.00e+00	0	38	0	1191182336	59	5129
2026-01-22 11:07:13.04	332.23	9.22	-44.1	-47.1	16.7	0.00e+00	0	38	0	1193279488	59	5178
2026-01-22 11:07:13.89	332.29	9.15	-44.1	-47.0	16.7	0.00e+00	0	38	0	1195376640	59	5139
2026-01-22 11:07:15.02	332.37	9.07	-44.1	-47.1	16.6	0.00e+00	0	38	0	1197473792	59	5210
2026-01-22 11:07:15.87	332.44	9.00	-48.2	-56.1	8.1	0.00e+00	0	38	0	1198522368	66	9772
2026-01-22 11:07:17.01	332.52	8.92	-49.7	-65.1	3.8	1.49e+00	0	38	104	1198522368	70	21815
2026-01-22 11:07:17.86	332.58	8.86	-49.8	-65.3	3.8	1.49e+00	0	38	104	1198522368	70	22500
2026-01-22 11:07:19.00	332.67	8.77	-49.5	-65.5	3.8	1.49e+00	0	38	104	1198522368	70	22879
2026-01-22 11:07:19.85	332.73	8.71	-49.6	-65.6	3.8	1.49e+00	0	38	104	1198522368	70	23102
2026-01-22 11:07:20.98	332.81	8.62	-49.8	-65.7	3.8	1.49e+00	0	38	104	1198522368	70	23337
2026-01-22 11:07:21.83	332.87	8.56	-49.9	-65.7	3.8	1.49e+00	0	38	104	1198522368	70	23362
2026-01-22 11:07:22.97	332.95	8.48	-50.2	-65.7	3.8	1.49e+00	0	38	104	1198522368	71	22078
2026-01-22 11:07:23.82	333.01	8.41	-49.3	-65.7	3.8	1.49e+00	0	38	104	1198522368	70	23538
2026-01-22 11:07:24.96	333.09	8.33	-50.0	-65.7	3.8	1.49e+00	0	38	104	1198522368	71	22164
2026-01-22 11:07:25.81	333.15	8.27	-50.3	-65.7	3.8	1.49e+00	0	38	104	1198522368	71	22210
2026-01-22 11:07:26.94	333.23	8.18	-50.4	-65.7	3.8	1.49e+00	0	38	104	1198522368	71	22152
2026-01-22 11:07:27.79	333.29	8.12	-50.3	-65.7	3.8	1.49e+00	0	38	104	1198522368	71	22195
2026-01-22 11:07:28.93	333.37	8.04	-50.4	-65.8	3.8	1.49e+00	0	38	104	1198522368	71	22278
2026-01-22 11:07:29.78	333.43	7.98	-50.4	-65.7	3.8	1.49e+00	0	38	104	1198522368	71	22248
2026-01-22 11:07:30.91	333.51	7.90	-50.5	-65.7	3.8	1.49e+00	0	38	104	1198522368	71	22249
2026-01-22 11:07:31.77	333.57	7.83	-50.5	-65.7	3.8	1.49e+00	0	38	104	1198522368	71	22212
2026-01-22 11:07:32.90	333.64	7.75	-50.4	-65.7	3.8	1.49e+00	0	38	104	1198522368	71	22160
2026-01-22 11:07:33.75	333.70	7.69	-50.5	-65.7	3.8	1.49e+00	0	38	104	1198522368	71	22188
2026-01-22 11:07:34.89	333.78	7.61	-50.4	-65.7	3.8	1.49e+00	0	38	104	1198522368	71	22125
