passes_logs/2026/01/22/T1/T1__20260122_114736_NOAA_21_JPSS-2_rec.log

#Pass ID: 20260122_114736_NOAA 21 (JPSS-2)
#Satellite: NOAA 21 (JPSS-2)
#Configuration: NOAA 21
#almurnet v.1.7.20251203
#Start time: 2026-01-22 11:47:36

#Version: 2.0.20230620
#Station: T1
#Location: 37.570604 lon 55.790049 lat
#TLE: 1 54234U 22150A   26021.42686626  .00000211  00000+0  12107-3 0  9996
#TLE: 2 54234  98.7506 322.2490 0000636 241.9299 118.1812 14.19537149165725

#Time	Az	El	Level	Level2	SNR	BER	BlckErr	Temp	State	Recorded	gain1	gain2
2026-01-22 11:47:36.90	223.08	5.04	-49.8	-63.0	3.8	1.49e+00	0	35	0	0	71	16166
2026-01-22 11:47:37.89	223.18	5.09	-49.8	-62.9	3.8	1.49e+00	0	35	104	0	71	16013
2026-01-22 11:47:38.88	223.28	5.14	-49.8	-62.9	3.8	1.49e+00	0	35	104	0	71	16067
2026-01-22 11:47:39.87	223.39	5.20	-49.8	-62.9	3.8	1.49e+00	0	35	104	0	71	16067
2026-01-22 11:47:40.87	223.49	5.25	-49.8	-62.9	3.8	1.49e+00	0	35	104	0	71	16071
2026-01-22 11:47:41.86	223.59	5.30	-49.8	-62.9	3.8	1.49e+00	0	35	104	0	71	16079
2026-01-22 11:47:42.85	223.70	5.35	-49.8	-62.9	3.8	1.49e+00	0	35	104	0	71	16091
2026-01-22 11:47:43.85	223.80	5.41	-49.8	-62.9	3.8	1.49e+00	0	35	104	0	71	16092
2026-01-22 11:47:44.84	223.91	5.46	-49.8	-62.9	3.8	1.49e+00	0	35	104	0	71	16067
2026-01-22 11:47:45.83	224.01	5.51	-49.8	-62.9	3.8	1.49e+00	0	35	104	0	71	16122
2026-01-22 11:47:46.83	224.12	5.57	-49.8	-62.9	3.8	1.49e+00	0	35	104	0	71	16087
2026-01-22 11:47:47.82	224.23	5.62	-49.8	-62.9	3.8	1.49e+00	0	36	104	0	71	16003
2026-01-22 11:47:48.82	224.33	5.67	-49.8	-62.9	3.8	1.49e+00	0	36	104	0	71	16008
2026-01-22 11:47:49.81	224.44	5.72	-49.7	-62.9	3.8	1.49e+00	0	35	104	0	71	15977
2026-01-22 11:47:50.80	224.55	5.78	-49.7	-62.9	3.8	1.49e+00	0	36	104	0	71	16000
2026-01-22 11:47:51.80	224.66	5.83	-49.7	-62.8	3.8	1.49e+00	0	36	104	0	71	15915
2026-01-22 11:47:52.79	224.76	5.88	-49.7	-62.9	3.8	1.49e+00	0	36	104	0	71	16005
2026-01-22 11:47:53.79	224.87	5.94	-49.8	-62.9	3.8	1.49e+00	0	36	104	0	71	15958
2026-01-22 11:47:54.78	224.98	5.99	-49.8	-62.8	3.8	1.49e+00	0	36	104	0	71	15882
2026-01-22 11:47:55.77	225.09	6.04	-49.7	-62.8	3.8	1.49e+00	0	36	104	0	71	15932
2026-01-22 11:47:56.77	225.20	6.10	-49.8	-62.8	3.8	1.49e+00	0	36	104	0	71	15866
2026-01-22 11:47:57.76	225.31	6.15	-49.8	-62.8	3.8	1.49e+00	0	36	104	0	71	15930
2026-01-22 11:47:58.75	225.42	6.20	-49.7	-62.8	3.8	1.49e+00	0	36	104	0	71	15850
2026-01-22 11:47:59.75	225.53	6.25	-49.8	-62.8	3.8	1.49e+00	0	36	104	0	71	15924
2026-01-22 11:48:00.74	225.64	6.31	-49.7	-62.8	3.8	1.49e+00	0	36	104	0	71	15827
2026-01-22 11:48:01.73	225.75	6.36	-49.7	-62.8	3.8	1.49e+00	0	36	104	0	71	15770
2026-01-22 11:48:02.72	225.87	6.41	-49.7	-62.8	3.8	1.49e+00	0	36	104	0	71	15788
2026-01-22 11:48:03.71	225.98	6.47	-49.7	-62.8	3.8	1.49e+00	0	36	104	0	71	15809
2026-01-22 11:48:04.71	226.09	6.52	-49.7	-62.7	3.8	1.49e+00	0	36	104	0	71	15725
2026-01-22 11:48:05.70	226.20	6.57	-49.7	-62.8	3.8	1.49e+00	0	36	104	0	71	15762
2026-01-22 11:48:06.69	226.32	6.63	-49.7	-62.7	3.8	1.49e+00	0	36	104	0	71	15752
2026-01-22 11:48:07.69	226.43	6.68	-49.7	-62.8	3.8	1.49e+00	0	36	104	0	71	15853
2026-01-22 11:48:08.68	226.55	6.73	-49.7	-62.7	3.8	1.49e+00	0	36	104	0	71	15728
2026-01-22 11:48:09.66	226.66	6.79	-49.7	-62.8	3.8	1.49e+00	0	36	104	0	71	15783
2026-01-22 11:48:10.65	226.77	6.84	-49.7	-62.7	3.8	1.49e+00	0	36	104	0	71	15674
2026-01-22 11:48:11.65	226.89	6.89	-49.7	-62.7	3.8	1.49e+00	0	36	104	0	71	15585
2026-01-22 11:48:12.64	227.01	6.94	-49.7	-62.5	3.8	1.49e+00	0	36	104	0	71	15389
2026-01-22 11:48:13.63	227.12	7.00	-49.7	-62.5	3.8	1.49e+00	0	37	104	0	71	15399
2026-01-22 11:48:14.63	227.24	7.05	-49.7	-62.5	3.8	1.49e+00	0	36	104	0	71	15338
2026-01-22 11:48:15.62	227.36	7.10	-49.7	-62.6	3.8	1.49e+00	0	36	104	0	71	15520
2026-01-22 11:48:16.62	227.47	7.16	-49.7	-62.7	3.8	1.49e+00	0	36	104	0	71	15728
2026-01-22 11:48:17.61	227.59	7.21	-49.7	-62.8	3.8	1.49e+00	0	37	104	0	71	15870
2026-01-22 11:48:18.61	227.71	7.27	-49.7	-62.9	3.8	1.49e+00	0	37	104	0	71	15956
2026-01-22 11:48:19.60	227.83	7.32	-49.7	-62.8	3.8	1.49e+00	0	37	104	0	71	15862
2026-01-22 11:48:20.59	227.95	7.37	-49.7	-62.8	3.8	1.49e+00	0	37	104	0	71	15919
2026-01-22 11:48:21.59	228.07	7.43	-49.7	-62.7	3.8	1.49e+00	0	37	104	0	71	15684
2026-01-22 11:48:22.58	228.19	7.48	-49.7	-62.7	3.8	1.49e+00	0	37	104	0	71	15734
2026-01-22 11:48:23.57	228.31	7.53	-49.7	-62.7	3.8	1.49e+00	0	37	104	0	71	15643
2026-01-22 11:48:24.57	228.43	7.59	-49.7	-62.7	3.8	1.49e+00	0	37	104	0	71	15717
2026-01-22 11:48:25.56	228.55	7.64	-49.7	-62.8	3.8	1.49e+00	0	37	104	0	71	15853
2026-01-22 11:48:26.55	228.67	7.69	-49.7	-62.8	3.8	1.49e+00	0	37	104	0	71	15922
2026-01-22 11:48:27.55	228.80	7.75	-49.7	-62.8	3.8	1.49e+00	0	37	104	0	71	15865
2026-01-22 11:48:28.54	228.92	7.80	-49.7	-62.8	3.8	1.49e+00	0	37	104	0	71	15802
2026-01-22 11:48:29.53	229.04	7.85	-49.7	-62.8	3.8	1.49e+00	0	37	104	0	71	15878
2026-01-22 11:48:30.53	229.17	7.91	-49.7	-62.8	3.8	1.49e+00	0	37	104	0	71	15885
2026-01-22 11:48:31.52	229.29	7.96	-49.7	-62.8	3.8	1.49e+00	0	37	104	0	71	15859
2026-01-22 11:48:32.51	229.41	8.01	-49.7	-62.4	3.8	1.49e+00	0	37	104	0	71	15069
2026-01-22 11:48:33.51	229.54	8.07	-49.6	-61.6	3.8	1.49e+00	0	37	104	0	71	13797
2026-01-22 11:48:34.50	229.67	8.12	-49.5	-60.5	4.0	1.49e+00	0	37	104	0	71	12176
2026-01-22 11:48:35.49	229.79	8.17	-49.5	-60.3	3.9	1.48e+00	0	37	104	0	71	11874
2026-01-22 11:48:36.49	229.92	8.23	-49.6	-61.4	3.8	1.49e+00	0	37	104	0	71	13482
2026-01-22 11:48:37.48	230.04	8.28	-49.7	-62.6	3.8	1.49e+00	0	37	104	0	71	15414
2026-01-22 11:48:38.47	230.17	8.33	-49.6	-62.1	3.8	1.49e+00	0	37	104	0	71	14592
2026-01-22 11:48:39.46	230.30	8.39	-49.1	-57.5	4.8	1.46e+00	0	37	104	0	70	9119
2026-01-22 11:48:40.46	230.43	8.44	-47.7	-53.1	8.2	1.51e-01	0	37	0	0	67	6513
2026-01-22 11:48:41.45	230.56	8.49	-46.2	-50.0	11.4	3.27e-03	0	37	0	0	64	5423
2026-01-22 11:48:42.44	230.68	8.55	-45.0	-48.0	13.5	2.36e-05	0	37	0	0	62	4835
2026-01-22 11:48:43.44	230.81	8.60	-44.1	-46.7	14.8	7.00e-07	0	37	0	0	60	4679
2026-01-22 11:48:44.43	230.94	8.65	-43.5	-45.9	15.5	0.00e+00	0	37	0	0	59	4517
2026-01-22 11:48:45.42	231.07	8.71	-43.3	-45.6	15.8	0.00e+00	0	37	0	0	58	4641
2026-01-22 11:48:46.42	231.21	8.76	-43.5	-45.9	15.5	0.00e+00	0	37	0	0	58	4792
2026-01-22 11:48:47.41	231.34	8.81	-44.1	-46.7	14.7	0.00e+00	0	37	0	0	58	5266
2026-01-22 11:48:48.41	231.47	8.87	-45.0	-47.9	13.6	2.20e-06	0	37	0	0	60	5393
2026-01-22 11:48:49.40	231.60	8.92	-46.0	-49.5	12.0	1.11e-04	0	37	0	0	62	5780
2026-01-22 11:48:50.39	231.73	8.97	-47.0	-51.4	10.0	3.73e-03	0	37	0	0	64	6378
2026-01-22 11:48:51.39	231.87	9.02	-47.6	-52.7	8.6	3.85e-02	0	37	0	0	65	6987
2026-01-22 11:48:52.38	232.00	9.08	-48.1	-54.0	7.5	5.02e-02	0	37	0	0	66	7640
2026-01-22 11:48:53.38	232.14	9.13	-48.8	-57.1	4.2	1.49e+00	0	37	104	0	69	9199
2026-01-22 11:48:54.37	232.27	9.18	-46.4	-50.2	11.1	8.32e-03	0	37	0	0	64	5543
2026-01-22 11:48:55.36	232.40	9.24	-45.1	-48.1	13.7	7.00e-07	0	37	0	0	60	5476
2026-01-22 11:48:56.36	232.54	9.29	-48.5	-54.9	6.6	5.21e-01	0	37	0	0	68	7568
2026-01-22 11:48:57.42	232.69	9.35	-43.7	-46.2	15.4	0.00e+00	0	37	0	0	59	4684
2026-01-22 11:48:58.36	232.81	9.40	-43.7	-46.2	15.4	0.00e+00	0	37	0	0	59	4653
2026-01-22 11:48:59.36	232.95	9.45	-43.1	-45.4	16.2	0.00e+00	0	37	0	0	58	4502
2026-01-22 11:49:00.35	233.09	9.50	-42.6	-44.8	16.8	0.00e+00	0	37	0	0	57	4444
2026-01-22 11:49:01.52	233.25	9.57	-42.2	-44.3	17.2	0.00e+00	0	37	0	0	56	4464
2026-01-22 11:49:02.37	233.37	9.61	-42.1	-44.2	17.4	0.00e+00	0	37	0	0	56	4394
2026-01-22 11:49:03.51	233.53	9.67	-41.8	-43.8	17.5	0.00e+00	0	37	0	0	55	4470
2026-01-22 11:49:04.36	233.65	9.72	-41.7	-43.8	17.6	0.00e+00	0	37	0	0	55	4443
2026-01-22 11:49:05.50	233.81	9.78	-41.7	-43.7	17.6	0.00e+00	0	37	0	0	55	4420
2026-01-22 11:49:06.35	233.93	9.82	-41.8	-43.8	17.6	0.00e+00	0	37	0	0	55	4469
2026-01-22 11:49:07.49	234.09	9.88	-41.7	-43.7	17.7	0.00e+00	0	37	0	0	55	4395
2026-01-22 11:49:08.34	234.21	9.93	-41.7	-43.7	17.7	0.00e+00	0	37	0	0	55	4400
2026-01-22 11:49:09.48	234.38	9.99	-41.7	-43.7	17.6	0.00e+00	0	37	0	0	55	4438
2026-01-22 11:49:10.33	234.50	10.03	-41.6	-43.6	17.8	0.00e+00	0	37	0	0	55	4347
2026-01-22 11:49:11.47	234.66	10.09	-41.7	-43.7	17.7	0.00e+00	0	37	0	0	55	4406
2026-01-22 11:49:12.32	234.78	10.14	-41.7	-43.7	17.7	0.00e+00	0	37	0	0	55	4399
2026-01-22 11:49:13.46	234.95	10.20	-41.7	-43.6	17.7	0.00e+00	0	37	0	0	55	4384
2026-01-22 11:49:14.31	235.07	10.24	-41.7	-43.7	17.7	0.00e+00	0	37	0	0	55	4405
2026-01-22 11:49:15.48	235.24	10.30	-41.7	-43.7	17.6	0.00e+00	0	37	0	0	55	4417
2026-01-22 11:49:16.33	235.37	10.35	-41.7	-43.7	17.6	0.00e+00	0	37	0	0	55	4427
2026-01-22 11:49:17.46	235.53	10.41	-41.7	-43.7	17.6	0.00e+00	0	37	0	0	55	4419
2026-01-22 11:49:18.31	235.66	10.45	-41.7	-43.7	17.6	0.00e+00	0	37	0	0	55	4438
2026-01-22 11:49:19.58	235.85	10.52	-41.8	-43.8	17.6	0.00e+00	0	37	0	0	55	4453
2026-01-22 11:49:20.37	235.96	10.56	-41.8	-43.8	17.6	0.00e+00	0	37	0	0	55	4483
2026-01-22 11:49:21.68	236.16	10.63	-41.8	-43.8	17.6	0.00e+00	0	37	0	0	55	4464
2026-01-22 11:49:22.39	236.27	10.67	-41.7	-43.7	17.6	0.00e+00	0	37	0	0	55	4427
2026-01-22 11:49:23.67	236.46	10.73	-41.6	-43.6	17.8	0.00e+00	0	37	0	0	55	4360
2026-01-22 11:49:24.39	236.57	10.77	-41.7	-43.6	17.7	0.00e+00	0	37	0	0	55	4383
2026-01-22 11:49:25.67	236.76	10.84	-41.6	-43.6	17.8	0.00e+00	0	37	0	0	55	4369
2026-01-22 11:49:26.38	236.87	10.87	-41.6	-43.6	17.8	0.00e+00	0	37	0	0	55	4371
2026-01-22 11:49:27.66	237.06	10.94	-41.5	-43.4	18.0	0.00e+00	0	37	0	0	55	4286
2026-01-22 11:49:28.38	237.17	10.98	-41.5	-43.4	18.0	0.00e+00	0	37	0	0	54	4512
2026-01-22 11:49:29.66	237.37	11.04	-41.4	-43.3	18.1	0.00e+00	0	37	0	0	54	4487
2026-01-22 11:49:30.54	237.50	11.09	-41.3	-43.2	18.2	0.00e+00	0	37	0	0	54	4426
2026-01-22 11:49:31.68	237.68	11.15	-41.2	-43.1	18.3	0.00e+00	0	38	0	0	54	4355
2026-01-22 11:49:32.72	237.84	11.20	-41.3	-43.2	18.2	0.00e+00	0	37	0	0	54	4402
2026-01-22 11:49:33.67	237.99	11.25	-41.2	-43.1	18.2	0.00e+00	0	37	0	0	54	4373
2026-01-22 11:49:34.92	238.18	11.32	-41.2	-43.1	18.2	0.00e+00	0	37	0	0	54	4383
2026-01-22 11:49:35.80	238.32	11.36	-41.3	-43.2	18.2	0.00e+00	0	38	0	0	54	4393
2026-01-22 11:49:37.09	238.52	11.43	-41.3	-43.2	18.1	0.00e+00	0	37	0	0	54	4437
2026-01-22 11:49:37.82	238.64	11.46	-41.3	-43.2	18.2	0.00e+00	0	37	0	0	54	4404
2026-01-22 11:49:39.10	238.84	11.53	-41.2	-43.1	18.2	0.00e+00	0	37	0	0	54	4368
2026-01-22 11:49:39.82	238.95	11.57	-41.3	-43.2	18.2	0.00e+00	0	37	0	0	54	4402
2026-01-22 11:49:41.10	239.16	11.63	-41.4	-43.3	18.1	0.00e+00	0	37	0	0	54	4458
2026-01-22 11:49:41.84	239.28	11.67	-41.3	-43.2	18.1	0.00e+00	0	37	0	0	54	4406
2026-01-22 11:49:43.12	239.48	11.73	-41.4	-43.3	18.0	0.00e+00	0	37	0	0	54	4461
2026-01-22 11:49:43.84	239.60	11.77	-41.4	-43.4	18.0	0.00e+00	0	37	0	0	54	4498
2026-01-22 11:49:45.12	239.80	11.83	-41.3	-43.2	18.2	0.00e+00	0	37	0	0	54	4393
2026-01-22 11:49:45.86	239.92	11.87	-41.3	-43.2	18.2	0.00e+00	0	37	0	0	54	4441
2026-01-22 11:49:47.14	240.13	11.94	-41.3	-43.2	18.2	0.00e+00	0	37	0	0	54	4430
2026-01-22 11:49:47.96	240.27	11.98	-41.3	-43.2	18.3	0.00e+00	0	38	0	0	54	4406
2026-01-22 11:49:49.10	240.45	12.03	-41.3	-43.2	18.2	0.00e+00	0	37	0	0	54	4426
2026-01-22 11:49:49.95	240.59	12.08	-41.2	-43.1	18.4	0.00e+00	0	38	0	0	54	4351
2026-01-22 11:49:51.08	240.78	12.13	-41.2	-43.1	18.3	0.00e+00	0	37	0	0	54	4371
2026-01-22 11:49:52.19	240.96	12.19	-41.2	-43.0	18.4	0.00e+00	0	37	0	0	54	4338
2026-01-22 11:49:53.22	241.13	12.24	-41.1	-43.0	18.5	0.00e+00	0	37	0	0	54	4294
2026-01-22 11:49:54.21	241.30	12.29	-41.1	-43.0	18.4	0.00e+00	0	37	0	0	54	4304
2026-01-22 11:49:55.41	241.50	12.35	-41.1	-43.0	18.4	0.00e+00	0	37	0	0	54	4322
2026-01-22 11:49:56.30	241.65	12.39	-41.1	-43.0	18.4	0.00e+00	0	38	0	0	54	4303
2026-01-22 11:49:57.43	241.83	12.45	-41.1	-43.0	18.4	0.00e+00	0	37	0	0	54	4313
2026-01-22 11:49:58.29	241.98	12.49	-41.1	-43.0	18.5	0.00e+00	0	37	0	0	54	4305
2026-01-22 11:49:59.42	242.17	12.54	-40.9	-42.8	18.6	0.00e+00	0	37	0	0	53	4451
2026-01-22 11:50:00.27	242.32	12.59	-41.0	-42.9	18.5	0.00e+00	0	37	0	0	53	4500
2026-01-22 11:50:01.41	242.51	12.64	-40.9	-42.8	18.6	0.00e+00	0	38	0	0	53	4455
2026-01-22 11:50:02.26	242.65	12.68	-41.0	-42.9	18.5	0.00e+00	0	37	0	0	53	4499
2026-01-22 11:50:03.40	242.85	12.74	-41.1	-43.0	18.4	0.00e+00	0	37	0	0	53	4552
2026-01-22 11:50:04.25	243.00	12.78	-41.0	-42.8	18.6	0.00e+00	0	38	0	0	53	4468
2026-01-22 11:50:05.39	243.19	12.83	-41.0	-42.9	18.5	0.00e+00	0	38	0	0	53	4505
2026-01-22 11:50:06.24	243.34	12.87	-41.0	-42.9	18.5	0.00e+00	0	38	0	0	53	4515
2026-01-22 11:50:07.38	243.54	12.93	-41.2	-43.0	18.4	0.00e+00	0	37	0	0	53	4592
2026-01-22 11:50:08.23	243.68	12.97	-41.1	-43.0	18.4	0.00e+00	0	38	0	0	53	4561
2026-01-22 11:50:09.37	243.88	13.02	-41.1	-43.0	18.5	0.00e+00	0	37	0	0	53	4578
2026-01-22 11:50:10.22	244.03	13.06	-41.1	-43.0	18.5	0.00e+00	0	37	0	0	53	4557
2026-01-22 11:50:11.36	244.23	13.12	-41.2	-43.1	18.4	0.00e+00	0	37	0	0	53	4606
2026-01-22 11:50:12.21	244.38	13.16	-41.1	-42.9	18.5	0.00e+00	0	38	0	0	53	4531
2026-01-22 11:50:13.57	244.62	13.22	-41.1	-43.0	18.5	0.00e+00	0	37	0	0	53	4553
2026-01-22 11:50:14.28	244.75	13.25	-41.0	-42.8	18.6	0.00e+00	0	38	0	0	53	4491
2026-01-22 11:50:15.75	245.01	13.32	-41.1	-42.9	18.5	0.00e+00	0	38	0	0	53	4527
2026-01-22 11:50:16.46	245.14	13.35	-41.1	-42.9	18.5	0.00e+00	0	37	0	0	53	4541
2026-01-22 11:50:17.74	245.37	13.41	-41.0	-42.9	18.6	0.00e+00	0	37	0	0	53	4495
2026-01-22 11:50:18.49	245.50	13.45	-41.1	-42.9	18.4	0.00e+00	0	37	0	0	53	4541
2026-01-22 11:50:19.77	245.73	13.51	-41.1	-43.0	18.4	0.00e+00	0	37	0	0	53	4582
2026-01-22 11:50:20.48	245.86	13.54	-41.2	-43.1	18.3	0.00e+00	0	38	0	0	53	4613
2026-01-22 11:50:21.76	246.09	13.60	-41.2	-43.1	18.3	0.00e+00	0	38	0	0	53	4625
2026-01-22 11:50:22.47	246.22	13.63	-41.4	-43.3	18.2	0.00e+00	0	37	0	0	53	4706
2026-01-22 11:50:23.75	246.45	13.69	-41.3	-43.2	18.2	0.00e+00	0	37	0	0	53	4696
2026-01-22 11:50:24.47	246.59	13.72	-41.3	-43.2	18.2	0.00e+00	0	37	0	0	53	4692
2026-01-22 11:50:25.76	246.82	13.78	-41.4	-43.3	18.1	0.00e+00	0	37	0	0	53	4749
2026-01-22 11:50:26.48	246.95	13.81	-41.4	-43.3	18.1	0.00e+00	0	37	0	0	53	4747
2026-01-22 11:50:27.76	247.19	13.87	-41.3	-43.2	18.3	0.00e+00	0	37	0	0	53	4659
2026-01-22 11:50:28.55	247.34	13.90	-41.3	-43.2	18.3	0.00e+00	0	37	0	0	53	4670
2026-01-22 11:50:29.73	247.55	13.95	-41.3	-43.2	18.2	0.00e+00	0	38	0	0	53	4690
2026-01-22 11:50:30.59	247.71	13.99	-41.2	-43.1	18.3	0.00e+00	0	38	0	0	53	4622
2026-01-22 11:50:31.72	247.93	14.04	-41.1	-43.0	18.5	0.00e+00	0	37	0	0	53	4549
2026-01-22 11:50:32.58	248.09	14.08	-41.1	-43.0	18.5	0.00e+00	0	38	0	0	53	4555
2026-01-22 11:50:33.71	248.30	14.12	-41.1	-43.0	18.4	0.00e+00	0	37	0	0	53	4579
2026-01-22 11:50:34.57	248.46	14.16	-41.1	-43.0	18.5	0.00e+00	0	38	0	0	53	4554
2026-01-22 11:50:35.70	248.67	14.21	-41.1	-42.9	18.5	0.00e+00	0	37	0	0	53	4535
2026-01-22 11:50:36.55	248.83	14.25	-41.2	-43.1	18.4	0.00e+00	0	37	0	0	53	4612
2026-01-22 11:50:37.69	249.05	14.29	-41.3	-43.1	18.3	0.00e+00	0	37	0	0	53	4650
2026-01-22 11:50:38.54	249.21	14.33	-41.3	-43.3	18.2	0.00e+00	0	37	0	0	53	4706
2026-01-22 11:50:39.68	249.43	14.38	-41.3	-43.2	18.2	0.00e+00	0	38	0	0	53	4703
2026-01-22 11:50:40.53	249.59	14.41	-41.3	-43.2	18.3	0.00e+00	0	38	0	0	53	4677
2026-01-22 11:50:41.67	249.81	14.46	-41.2	-43.1	18.4	0.00e+00	0	37	0	0	53	4613
2026-01-22 11:50:42.52	249.97	14.50	-41.3	-43.2	18.3	0.00e+00	0	37	0	0	53	4683
2026-01-22 11:50:43.66	250.19	14.54	-41.1	-43.0	18.5	0.00e+00	0	37	0	0	53	4579
2026-01-22 11:50:44.51	250.36	14.58	-41.1	-42.9	18.5	0.00e+00	0	38	0	0	53	4542
2026-01-22 11:50:45.65	250.58	14.62	-41.0	-42.8	18.7	0.00e+00	0	38	0	0	53	4472
2026-01-22 11:50:46.63	250.77	14.66	-41.0	-42.9	18.6	0.00e+00	0	38	0	0	53	4504
2026-01-22 11:50:47.62	250.96	14.70	-41.0	-42.9	18.6	0.00e+00	0	38	0	0	53	4499
2026-01-22 11:50:48.82	251.20	14.75	-41.0	-42.9	18.6	0.00e+00	0	38	0	0	53	4494
2026-01-22 11:50:49.71	251.37	14.78	-41.0	-42.9	18.5	0.00e+00	0	38	0	0	53	4509
2026-01-22 11:50:51.02	251.63	14.84	-41.0	-42.9	18.5	0.00e+00	0	37	0	0	53	4523
2026-01-22 11:50:51.73	251.77	14.86	-41.1	-42.9	18.5	0.00e+00	0	37	0	0	53	4537
2026-01-22 11:50:53.21	252.06	14.92	-41.2	-43.0	18.4	0.00e+00	0	37	0	0	53	4597
2026-01-22 11:50:53.92	252.20	14.95	-41.1	-43.0	18.4	0.00e+00	0	38	0	0	53	4569
2026-01-22 11:50:55.27	252.47	15.00	-41.0	-42.9	18.5	0.00e+00	0	38	0	0	53	4523
2026-01-22 11:50:56.26	252.67	15.04	-41.0	-42.9	18.6	0.00e+00	0	38	0	0	53	4524
2026-01-22 11:50:57.25	252.86	15.07	-41.1	-43.0	18.5	0.00e+00	0	38	0	0	53	4582
2026-01-22 11:50:58.25	253.06	15.11	-41.0	-42.9	18.6	0.00e+00	0	37	0	0	53	4523
2026-01-22 11:50:59.24	253.26	15.15	-40.9	-42.7	18.8	0.00e+00	0	37	0	0	53	4429
2026-01-22 11:51:00.24	253.46	15.18	-40.8	-42.7	18.8	0.00e+00	0	38	0	0	53	4395
2026-01-22 11:51:01.23	253.66	15.22	-40.9	-42.7	18.7	0.00e+00	0	37	0	0	53	4434
2026-01-22 11:51:02.22	253.86	15.26	-40.9	-42.7	18.7	0.00e+00	0	37	0	0	53	4434
2026-01-22 11:51:03.25	254.07	15.29	-40.8	-42.6	18.8	0.00e+00	0	38	0	0	53	4368
2026-01-22 11:51:04.28	254.28	15.33	-40.8	-42.6	18.8	0.00e+00	0	38	0	0	53	4376
2026-01-22 11:51:05.27	254.48	15.36	-40.8	-42.7	18.8	0.00e+00	0	38	0	0	53	4402
2026-01-22 11:51:06.36	254.70	15.40	-40.9	-42.7	18.7	0.00e+00	0	37	0	0	53	4418
2026-01-22 11:51:07.22	254.88	15.43	-40.8	-42.7	18.8	0.00e+00	0	37	0	0	53	4403
2026-01-22 11:51:08.57	255.16	15.48	-40.9	-42.7	18.7	0.00e+00	0	37	0	0	53	4435
2026-01-22 11:51:09.28	255.30	15.50	-40.8	-42.6	18.9	0.00e+00	0	38	0	0	53	4371
2026-01-22 11:51:10.56	255.57	15.55	-40.8	-42.6	18.8	0.00e+00	0	38	0	0	53	4372
2026-01-22 11:51:11.29	255.72	15.57	-40.7	-42.6	18.9	0.00e+00	0	38	0	0	53	4349
2026-01-22 11:51:12.57	255.98	15.61	-40.6	-42.4	19.0	0.00e+00	0	38	0	0	53	4290
2026-01-22 11:51:13.28	256.13	15.64	-40.5	-42.3	19.1	0.00e+00	0	38	0	0	53	4224
2026-01-22 11:51:14.56	256.39	15.68	-40.5	-42.2	19.1	0.00e+00	0	38	0	0	52	4441
2026-01-22 11:51:15.28	256.54	15.70	-40.5	-42.3	19.0	0.00e+00	0	38	0	0	52	4489
2026-01-22 11:51:16.56	256.81	15.74	-40.6	-42.4	19.0	0.00e+00	0	37	0	0	52	4504
2026-01-22 11:51:17.29	256.96	15.77	-40.6	-42.4	19.0	0.00e+00	0	37	0	0	52	4525
2026-01-22 11:51:18.57	257.23	15.81	-40.7	-42.5	18.9	0.00e+00	0	38	0	0	52	4583
2026-01-22 11:51:19.45	257.42	15.83	-40.7	-42.5	18.9	0.00e+00	0	38	0	0	52	4573
2026-01-22 11:51:20.59	257.65	15.87	-40.7	-42.5	18.9	0.00e+00	0	37	0	0	52	4575
2026-01-22 11:51:21.63	257.87	15.90	-40.7	-42.5	18.9	0.00e+00	0	38	0	0	52	4576
2026-01-22 11:51:22.58	258.07	15.93	-40.6	-42.4	19.0	0.00e+00	0	37	0	0	52	4525
2026-01-22 11:51:23.57	258.28	15.96	-40.6	-42.5	19.0	0.00e+00	0	38	0	0	52	4548
2026-01-22 11:51:24.82	258.55	15.99	-40.5	-42.3	19.1	0.00e+00	0	38	0	0	52	4462
2026-01-22 11:51:25.69	258.73	16.02	-40.4	-42.2	19.1	0.00e+00	0	38	0	0	52	4437
2026-01-22 11:51:26.98	259.01	16.05	-40.5	-42.3	19.1	0.00e+00	0	38	0	0	52	4469
2026-01-22 11:51:27.69	259.16	16.07	-40.5	-42.3	19.1	0.00e+00	0	38	0	0	52	4450
2026-01-22 11:51:29.18	259.48	16.12	-40.4	-42.2	19.2	0.00e+00	0	38	0	0	52	4413
2026-01-22 11:51:29.89	259.63	16.14	-40.4	-42.2	19.2	0.00e+00	0	37	0	0	52	4420
2026-01-22 11:51:31.21	259.91	16.17	-40.3	-42.0	19.3	0.00e+00	0	38	0	0	52	4324
2026-01-22 11:51:31.92	260.06	16.19	-40.3	-42.1	19.3	0.00e+00	0	38	0	0	52	4356
2026-01-22 11:51:33.20	260.34	16.22	-40.3	-42.1	19.3	0.00e+00	0	38	0	0	52	4356
2026-01-22 11:51:33.93	260.50	16.24	-40.4	-42.2	19.2	0.00e+00	0	38	0	0	52	4415
2026-01-22 11:51:35.21	260.77	16.28	-40.3	-42.1	19.3	0.00e+00	0	38	0	0	52	4360
2026-01-22 11:51:35.92	260.93	16.29	-40.3	-42.1	19.3	0.00e+00	0	38	0	0	52	4356
2026-01-22 11:51:37.20	261.20	16.33	-40.4	-42.2	19.2	0.00e+00	0	38	0	0	52	4410
2026-01-22 11:51:37.93	261.36	16.34	-40.4	-42.2	19.2	0.00e+00	0	38	0	0	52	4403
2026-01-22 11:51:39.21	261.64	16.37	-40.5	-42.3	19.1	0.00e+00	0	37	0	0	52	4469
2026-01-22 11:51:39.98	261.81	16.39	-40.5	-42.3	19.1	0.00e+00	0	38	0	0	52	4442
2026-01-22 11:51:41.26	262.09	16.42	-40.4	-42.1	19.2	0.00e+00	0	37	0	0	52	4384
2026-01-22 11:51:41.97	262.24	16.44	-40.3	-42.1	19.3	0.00e+00	0	38	0	0	52	4342
2026-01-22 11:51:43.25	262.52	16.47	-40.2	-42.0	19.3	0.00e+00	0	38	0	0	52	4321
2026-01-22 11:51:43.96	262.68	16.48	-40.2	-42.0	19.3	0.00e+00	0	37	0	0	52	4312
2026-01-22 11:51:45.24	262.96	16.51	-40.3	-42.0	19.2	0.00e+00	0	38	0	0	52	4335
2026-01-22 11:51:45.95	263.11	16.53	-40.3	-42.1	19.2	0.00e+00	0	38	0	0	52	4342
2026-01-22 11:51:47.25	263.40	16.55	-40.3	-42.0	19.3	0.00e+00	0	38	0	0	52	4339
2026-01-22 11:51:47.96	263.55	16.57	-40.3	-42.1	19.3	0.00e+00	0	37	0	0	52	4346
2026-01-22 11:51:49.24	263.84	16.60	-40.3	-42.0	19.3	0.00e+00	0	38	0	0	52	4333
2026-01-22 11:51:49.96	263.99	16.61	-40.2	-42.0	19.4	0.00e+00	0	38	0	0	52	4319
2026-01-22 11:51:51.24	264.28	16.64	-40.2	-41.9	19.5	0.00e+00	0	37	0	0	52	4285
2026-01-22 11:51:51.96	264.44	16.65	-40.2	-42.0	19.4	0.00e+00	0	38	0	0	52	4307
2026-01-22 11:51:53.24	264.72	16.67	-40.3	-42.1	19.3	0.00e+00	0	38	0	0	52	4372
2026-01-22 11:51:53.96	264.88	16.69	-40.3	-42.1	19.2	0.00e+00	0	38	0	0	52	4364
2026-01-22 11:51:55.24	265.16	16.71	-40.3	-42.1	19.2	0.00e+00	0	38	0	0	52	4373
2026-01-22 11:51:55.98	265.33	16.72	-40.4	-42.2	19.2	0.00e+00	0	38	0	0	52	4432
2026-01-22 11:51:57.26	265.61	16.74	-40.5	-42.3	19.1	0.00e+00	0	38	0	0	52	4493
2026-01-22 11:51:57.97	265.77	16.76	-40.5	-42.3	19.1	0.00e+00	0	37	0	0	52	4475
2026-01-22 11:51:59.26	266.06	16.78	-40.5	-42.3	19.1	0.00e+00	0	38	0	0	52	4462
2026-01-22 11:51:59.97	266.22	16.79	-40.3	-42.1	19.3	0.00e+00	0	38	0	0	52	4383
2026-01-22 11:52:01.25	266.50	16.81	-40.3	-42.1	19.3	0.00e+00	0	38	0	0	52	4351
2026-01-22 11:52:01.96	266.66	16.82	-40.3	-42.0	19.3	0.00e+00	0	38	0	0	52	4336
2026-01-22 11:52:03.24	266.95	16.84	-40.3	-42.1	19.2	0.00e+00	0	37	0	0	52	4357
2026-01-22 11:52:03.95	267.11	16.85	-40.4	-42.2	19.1	0.00e+00	0	38	0	0	52	4407
2026-01-22 11:52:05.23	267.39	16.87	-40.5	-42.3	19.1	0.00e+00	0	38	0	0	52	4449
2026-01-22 11:52:06.21	267.61	16.88	-40.5	-42.3	19.1	0.00e+00	0	38	0	0	52	4453
2026-01-22 11:52:07.21	267.84	16.89	-40.6	-42.4	19.0	0.00e+00	0	38	0	0	52	4533
2026-01-22 11:52:08.53	268.13	16.91	-40.6	-42.4	19.0	0.00e+00	0	38	0	0	52	4529
2026-01-22 11:52:09.24	268.29	16.92	-40.5	-42.3	19.2	0.00e+00	0	38	0	0	52	4464
2026-01-22 11:52:10.52	268.58	16.93	-40.3	-42.1	19.3	0.00e+00	0	38	0	0	52	4376
2026-01-22 11:52:11.24	268.74	16.94	-40.2	-42.0	19.4	0.00e+00	0	38	0	0	52	4314
2026-01-22 11:52:12.51	269.03	16.96	-40.3	-42.1	19.3	0.00e+00	0	38	0	0	52	4356
2026-01-22 11:52:13.24	269.19	16.96	-40.3	-42.0	19.3	0.00e+00	0	38	0	0	52	4330
2026-01-22 11:52:14.52	269.48	16.98	-40.4	-42.2	19.2	0.00e+00	0	38	0	0	52	4407
2026-01-22 11:52:15.25	269.65	16.98	-40.4	-42.2	19.2	0.00e+00	0	38	0	0	52	4420
2026-01-22 11:52:16.53	269.94	17.00	-40.5	-42.2	19.2	0.00e+00	0	38	0	0	52	4439
2026-01-22 11:52:17.26	270.10	17.00	-40.4	-42.2	19.3	0.00e+00	0	38	0	0	52	4408
2026-01-22 11:52:18.62	270.41	17.01	-40.3	-42.1	19.4	0.00e+00	0	38	0	0	52	4371
2026-01-22 11:52:19.33	270.57	17.02	-40.4	-42.2	19.3	0.00e+00	0	38	0	0	52	4397
2026-01-22 11:52:20.61	270.86	17.03	-40.4	-42.1	19.3	0.00e+00	0	38	0	0	52	4383
2026-01-22 11:52:21.34	271.03	17.03	-40.4	-42.2	19.2	0.00e+00	0	38	0	0	52	4399
2026-01-22 11:52:22.73	271.34	17.04	-40.3	-42.1	19.2	0.00e+00	0	38	0	0	52	4375
2026-01-22 11:52:23.44	271.50	17.05	-40.4	-42.2	19.2	0.00e+00	0	38	0	0	52	4405
2026-01-22 11:52:24.72	271.79	17.06	-40.6	-42.4	19.0	0.00e+00	0	38	0	0	52	4498
2026-01-22 11:52:25.44	271.96	17.06	-40.5	-42.3	19.1	0.00e+00	0	38	0	0	52	4477
2026-01-22 11:52:26.72	272.25	17.07	-40.5	-42.2	19.1	0.00e+00	0	38	0	0	52	4436
2026-01-22 11:52:27.45	272.41	17.07	-40.5	-42.3	19.0	0.00e+00	0	38	0	0	52	4485
2026-01-22 11:52:28.72	272.70	17.07	-40.4	-42.2	19.1	0.00e+00	0	38	0	0	52	4414
2026-01-22 11:52:29.45	272.87	17.08	-40.5	-42.3	19.1	0.00e+00	0	38	0	0	52	4446
2026-01-22 11:52:30.73	273.16	17.08	-40.4	-42.2	19.2	0.00e+00	0	38	0	0	52	4395
2026-01-22 11:52:31.46	273.32	17.08	-40.4	-42.2	19.2	0.00e+00	0	38	0	0	52	4395
2026-01-22 11:52:32.74	273.62	17.09	-40.5	-42.3	19.1	0.00e+00	0	38	0	0	52	4473
2026-01-22 11:52:33.45	273.78	17.09	-40.3	-42.1	19.2	0.00e+00	0	38	0	0	52	4385
2026-01-22 11:52:34.73	274.07	17.09	-40.4	-42.2	19.2	0.00e+00	0	38	0	0	52	4407
2026-01-22 11:52:35.47	274.24	17.09	-40.4	-42.1	19.3	0.00e+00	0	38	0	0	52	4381
2026-01-22 11:52:36.75	274.53	17.09	-40.3	-42.1	19.2	0.00e+00	0	38	0	0	52	4364
2026-01-22 11:52:37.55	274.71	17.09	-40.3	-42.0	19.3	0.00e+00	0	38	0	0	52	4327
2026-01-22 11:52:38.68	274.97	17.09	-40.4	-42.2	19.2	0.00e+00	0	38	0	0	52	4393
2026-01-22 11:52:39.73	275.20	17.09	-40.4	-42.1	19.2	0.00e+00	0	38	0	0	52	4382
2026-01-22 11:52:40.69	275.42	17.09	-40.4	-42.2	19.2	0.00e+00	0	38	0	0	52	4423
2026-01-22 11:52:41.68	275.65	17.09	-40.4	-42.1	19.2	0.00e+00	0	38	0	0	52	4387
2026-01-22 11:52:42.68	275.87	17.09	-40.3	-42.1	19.3	0.00e+00	0	38	0	0	52	4370
2026-01-22 11:52:43.67	276.10	17.08	-40.4	-42.2	19.2	0.00e+00	0	38	0	0	52	4403
2026-01-22 11:52:44.67	276.33	17.08	-40.4	-42.1	19.2	0.00e+00	0	38	0	0	52	4385
2026-01-22 11:52:45.66	276.55	17.08	-40.4	-42.2	19.2	0.00e+00	0	37	0	0	52	4399
2026-01-22 11:52:46.66	276.78	17.07	-40.4	-42.2	19.1	0.00e+00	0	38	0	0	52	4433
2026-01-22 11:52:47.65	277.00	17.07	-40.4	-42.2	19.1	0.00e+00	0	38	0	0	52	4422
2026-01-22 11:52:48.65	277.23	17.07	-40.5	-42.2	19.1	0.00e+00	0	38	0	0	52	4438
2026-01-22 11:52:49.64	277.46	17.06	-40.5	-42.3	19.1	0.00e+00	0	38	0	0	52	4456
2026-01-22 11:52:50.71	277.70	17.05	-40.6	-42.4	19.0	0.00e+00	0	38	0	0	52	4521
2026-01-22 11:52:51.60	277.90	17.05	-40.5	-42.3	19.0	0.00e+00	0	38	0	0	52	4475
2026-01-22 11:52:52.74	278.16	17.04	-40.4	-42.2	19.1	0.00e+00	0	38	0	0	52	4437
2026-01-22 11:52:53.59	278.35	17.04	-40.4	-42.2	19.1	0.00e+00	0	38	0	0	52	4433
2026-01-22 11:52:54.73	278.61	17.03	-40.4	-42.1	19.1	0.00e+00	0	38	0	0	52	4389
2026-01-22 11:52:55.58	278.80	17.02	-40.4	-42.2	19.1	0.00e+00	0	38	0	0	52	4406
2026-01-22 11:52:56.72	279.06	17.01	-40.5	-42.3	19.1	0.00e+00	0	38	0	0	52	4470
2026-01-22 11:52:57.78	279.30	17.00	-40.5	-42.3	19.1	0.00e+00	0	38	0	0	52	4488
2026-01-22 11:52:58.83	279.54	16.99	-40.6	-42.4	19.0	0.00e+00	0	38	0	0	52	4512
2026-01-22 11:52:59.84	279.76	16.99	-40.4	-42.2	19.2	0.00e+00	0	38	0	0	52	4422
2026-01-22 11:53:00.84	279.99	16.98	-40.4	-42.1	19.3	0.00e+00	0	38	0	0	52	4379
2026-01-22 11:53:01.83	280.21	16.97	-40.3	-42.1	19.3	0.00e+00	0	38	0	0	52	4369
2026-01-22 11:53:02.83	280.44	16.95	-40.4	-42.2	19.2	0.00e+00	0	38	0	0	52	4392
2026-01-22 11:53:03.82	280.66	16.94	-40.4	-42.2	19.2	0.00e+00	0	38	0	0	52	4425
2026-01-22 11:53:04.82	280.89	16.93	-40.5	-42.3	19.2	0.00e+00	0	38	0	0	52	4445
2026-01-22 11:53:05.81	281.11	16.92	-40.4	-42.2	19.3	0.00e+00	0	38	0	0	52	4397
2026-01-22 11:53:06.81	281.33	16.91	-40.4	-42.1	19.3	0.00e+00	0	38	0	0	52	4384
2026-01-22 11:53:07.80	281.56	16.90	-40.3	-42.1	19.3	0.00e+00	0	38	0	0	52	4362
2026-01-22 11:53:08.79	281.78	16.88	-40.3	-42.1	19.3	0.00e+00	0	38	0	0	52	4357
2026-01-22 11:53:09.79	282.00	16.87	-40.4	-42.2	19.2	0.00e+00	0	38	0	0	52	4413
2026-01-22 11:53:10.78	282.22	16.86	-40.5	-42.3	19.1	0.00e+00	0	38	0	0	52	4452
2026-01-22 11:53:11.81	282.45	16.84	-40.6	-42.4	18.9	0.00e+00	0	38	0	0	52	4524
2026-01-22 11:53:12.84	282.68	16.83	-40.6	-42.4	18.9	0.00e+00	0	38	0	0	52	4516
2026-01-22 11:53:13.86	282.91	16.81	-40.6	-42.5	18.9	0.00e+00	0	38	0	0	52	4562
2026-01-22 11:53:14.86	283.13	16.80	-40.6	-42.4	19.0	0.00e+00	0	38	0	0	52	4503
2026-01-22 11:53:15.92	283.37	16.78	-40.4	-42.2	19.2	0.00e+00	0	38	0	0	52	4392
2026-01-22 11:53:16.83	283.57	16.76	-40.5	-42.3	19.1	0.00e+00	0	38	0	0	52	4454
2026-01-22 11:53:17.97	283.83	16.74	-40.5	-42.3	19.0	0.00e+00	0	38	0	0	52	4480
2026-01-22 11:53:18.82	284.01	16.73	-40.6	-42.5	18.9	0.00e+00	0	38	0	0	52	4556
2026-01-22 11:53:19.96	284.27	16.71	-40.8	-42.6	18.8	0.00e+00	0	38	0	0	52	4637
2026-01-22 11:53:20.81	284.46	16.69	-40.8	-42.7	18.7	0.00e+00	0	38	0	0	52	4677
2026-01-22 11:53:21.95	284.71	16.67	-40.8	-42.7	18.7	0.00e+00	0	38	0	0	52	4680
2026-01-22 11:53:22.81	284.90	16.66	-40.8	-42.7	18.7	0.00e+00	0	38	0	0	52	4673
2026-01-22 11:53:23.94	285.15	16.64	-40.8	-42.6	18.8	0.00e+00	0	38	0	0	52	4618
2026-01-22 11:53:24.80	285.34	16.62	-40.7	-42.5	18.8	0.00e+00	0	38	0	0	52	4587
2026-01-22 11:53:25.93	285.59	16.60	-40.6	-42.4	18.9	0.00e+00	0	38	0	0	52	4534
2026-01-22 11:53:26.78	285.77	16.58	-40.6	-42.4	18.9	0.00e+00	0	38	0	0	52	4514
2026-01-22 11:53:27.92	286.02	16.56	-40.6	-42.4	18.9	0.00e+00	0	38	0	0	52	4501
2026-01-22 11:53:28.77	286.21	16.54	-40.6	-42.4	18.9	0.00e+00	0	38	0	0	52	4518
2026-01-22 11:53:29.96	286.47	16.51	-40.5	-42.3	19.0	0.00e+00	0	38	0	0	52	4455
2026-01-22 11:53:30.81	286.65	16.49	-40.5	-42.3	19.0	0.00e+00	0	38	0	0	52	4456
2026-01-22 11:53:32.01	286.92	16.47	-40.5	-42.2	19.1	0.00e+00	0	38	0	0	52	4436
2026-01-22 11:53:32.86	287.10	16.45	-40.5	-42.3	19.0	0.00e+00	0	38	0	0	52	4450
2026-01-22 11:53:34.00	287.35	16.42	-40.5	-42.3	19.0	0.00e+00	0	38	0	0	52	4442
2026-01-22 11:53:34.85	287.53	16.40	-40.6	-42.4	18.9	0.00e+00	0	38	0	0	52	4498
2026-01-22 11:53:36.10	287.81	16.37	-40.7	-42.6	18.7	0.00e+00	0	38	0	0	52	4601
2026-01-22 11:53:36.95	287.99	16.35	-40.8	-42.6	18.7	0.00e+00	0	38	0	0	52	4617
2026-01-22 11:53:38.09	288.24	16.33	-40.7	-42.5	18.9	0.00e+00	0	38	0	0	52	4569
2026-01-22 11:53:38.94	288.42	16.30	-40.7	-42.5	18.8	0.00e+00	0	38	0	0	52	4581
2026-01-22 11:53:40.08	288.67	16.28	-40.6	-42.4	18.9	0.00e+00	0	38	0	0	52	4535
2026-01-22 11:53:40.93	288.85	16.25	-40.6	-42.4	18.9	0.00e+00	0	38	0	0	52	4506
2026-01-22 11:53:42.07	289.09	16.22	-40.5	-42.3	19.0	0.00e+00	0	38	0	0	52	4464
2026-01-22 11:53:43.03	289.30	16.20	-40.5	-42.3	19.0	0.00e+00	0	38	0	0	52	4490
2026-01-22 11:53:44.03	289.51	16.17	-40.5	-42.3	19.0	0.00e+00	0	37	0	0	52	4477
2026-01-22 11:53:45.02	289.72	16.15	-40.6	-42.4	18.9	0.00e+00	0	38	0	0	52	4518
2026-01-22 11:53:46.02	289.94	16.12	-40.6	-42.4	18.9	0.00e+00	0	38	0	0	52	4538
2026-01-22 11:53:47.01	290.15	16.09	-40.6	-42.5	18.9	0.00e+00	0	38	0	0	52	4552
2026-01-22 11:53:48.01	290.36	16.06	-40.6	-42.4	19.0	0.00e+00	0	38	0	0	52	4515
2026-01-22 11:53:49.00	290.57	16.04	-40.6	-42.4	19.0	0.00e+00	0	38	0	0	52	4500
2026-01-22 11:53:50.00	290.78	16.01	-40.7	-42.5	18.9	0.00e+00	0	38	0	0	52	4565
2026-01-22 11:53:50.99	290.99	15.98	-40.5	-42.3	19.0	0.00e+00	0	38	0	0	52	4474
2026-01-22 11:53:51.99	291.20	15.95	-40.6	-42.4	19.0	0.00e+00	0	38	0	0	52	4496
2026-01-22 11:53:52.98	291.41	15.92	-40.6	-42.4	18.9	0.00e+00	0	38	0	0	52	4532
2026-01-22 11:53:53.98	291.62	15.89	-40.5	-42.3	19.0	0.00e+00	0	38	0	0	52	4463
2026-01-22 11:53:54.98	291.83	15.86	-40.5	-42.3	19.0	0.00e+00	0	38	0	0	52	4479
2026-01-22 11:53:55.97	292.04	15.83	-40.5	-42.3	19.1	0.00e+00	0	38	0	0	52	4450
2026-01-22 11:53:56.97	292.25	15.80	-40.4	-42.1	19.2	0.00e+00	0	38	0	0	52	4382
2026-01-22 11:53:57.96	292.45	15.77	-40.4	-42.2	19.1	0.00e+00	0	38	0	0	52	4419
2026-01-22 11:53:58.96	292.66	15.74	-40.5	-42.3	19.0	0.00e+00	0	38	0	0	52	4472
2026-01-22 11:53:59.95	292.87	15.71	-40.5	-42.3	19.1	0.00e+00	0	38	0	0	52	4444
2026-01-22 11:54:00.95	293.07	15.67	-40.5	-42.3	19.0	0.00e+00	0	38	0	0	52	4476
2026-01-22 11:54:01.94	293.28	15.64	-40.5	-42.3	19.1	0.00e+00	0	38	0	0	52	4447
2026-01-22 11:54:02.94	293.49	15.61	-40.4	-42.2	19.2	0.00e+00	0	38	0	0	52	4412
2026-01-22 11:54:03.93	293.69	15.58	-40.5	-42.3	19.0	0.00e+00	0	38	0	0	52	4456
2026-01-22 11:54:04.93	293.89	15.54	-40.4	-42.2	19.2	0.00e+00	0	38	0	0	52	4393
2026-01-22 11:54:05.92	294.10	15.51	-40.3	-42.1	19.2	0.00e+00	0	38	0	0	52	4363
2026-01-22 11:54:06.91	294.30	15.48	-40.4	-42.2	19.1	0.00e+00	0	38	0	0	52	4399
2026-01-22 11:54:07.93	294.51	15.44	-40.4	-42.2	19.1	0.00e+00	0	38	0	0	52	4397
2026-01-22 11:54:08.95	294.72	15.41	-40.4	-42.1	19.1	0.00e+00	0	38	0	0	52	4387
2026-01-22 11:54:09.95	294.92	15.37	-40.4	-42.2	19.1	0.00e+00	0	38	0	0	52	4432
2026-01-22 11:54:10.94	295.12	15.34	-40.5	-42.3	19.0	0.00e+00	0	38	0	0	52	4468
2026-01-22 11:54:11.94	295.32	15.30	-40.6	-42.4	19.0	0.00e+00	0	38	0	0	52	4508
2026-01-22 11:54:12.93	295.52	15.27	-40.7	-42.5	18.9	0.00e+00	0	38	0	0	52	4572
2026-01-22 11:54:13.93	295.72	15.23	-40.7	-42.5	18.9	0.00e+00	0	38	0	0	52	4592
2026-01-22 11:54:14.92	295.92	15.19	-40.8	-42.6	18.7	0.00e+00	0	38	0	0	52	4638
2026-01-22 11:54:15.92	296.12	15.16	-40.7	-42.6	18.8	0.00e+00	0	38	0	0	52	4606
2026-01-22 11:54:16.91	296.32	15.12	-40.7	-42.5	18.9	0.00e+00	0	38	0	0	52	4560
2026-01-22 11:54:17.91	296.52	15.08	-40.7	-42.5	18.8	0.00e+00	0	38	0	0	52	4580
2026-01-22 11:54:18.90	296.71	15.05	-40.7	-42.6	18.8	0.00e+00	0	38	0	0	52	4603
2026-01-22 11:54:19.90	296.91	15.01	-40.7	-42.5	18.8	0.00e+00	0	38	0	0	52	4593
2026-01-22 11:54:20.90	297.11	14.97	-40.5	-42.3	19.0	0.00e+00	0	38	0	0	52	4477
2026-01-22 11:54:21.89	297.31	14.93	-40.5	-42.3	19.0	0.00e+00	0	38	0	0	52	4461
2026-01-22 11:54:22.89	297.50	14.90	-40.6	-42.4	18.9	0.00e+00	0	38	0	0	52	4513
2026-01-22 11:54:23.88	297.70	14.86	-40.5	-42.3	18.9	0.00e+00	0	38	0	0	52	4493
2026-01-22 11:54:24.88	297.89	14.82	-40.6	-42.4	18.9	0.00e+00	0	38	0	0	52	4512
2026-01-22 11:54:25.92	298.10	14.78	-40.7	-42.5	18.8	0.00e+00	0	38	0	0	52	4559
2026-01-22 11:54:26.91	298.29	14.74	-40.7	-42.5	18.9	0.00e+00	0	38	0	0	52	4563
2026-01-22 11:54:27.91	298.48	14.70	-40.7	-42.6	18.7	0.00e+00	0	38	0	0	52	4615
2026-01-22 11:54:28.90	298.68	14.66	-40.8	-42.6	18.8	0.00e+00	0	38	0	0	52	4617
2026-01-22 11:54:29.90	298.87	14.62	-40.7	-42.6	18.8	0.00e+00	0	38	0	0	52	4606
2026-01-22 11:54:30.89	299.06	14.58	-40.7	-42.5	18.8	0.00e+00	0	38	0	0	52	4591
2026-01-22 11:54:31.89	299.25	14.54	-40.7	-42.5	18.8	0.00e+00	0	38	0	0	52	4594
2026-01-22 11:54:32.88	299.44	14.50	-40.7	-42.5	18.9	0.00e+00	0	38	0	0	52	4555
2026-01-22 11:54:33.87	299.63	14.46	-40.6	-42.5	18.8	0.00e+00	0	38	0	0	52	4551
2026-01-22 11:54:34.87	299.82	14.42	-40.6	-42.4	18.9	0.00e+00	0	38	0	0	52	4502
2026-01-22 11:54:35.87	300.01	14.38	-40.6	-42.4	18.8	0.00e+00	0	38	0	0	52	4516
2026-01-22 11:54:36.86	300.20	14.34	-40.6	-42.4	18.8	0.00e+00	0	38	0	0	52	4524
2026-01-22 11:54:37.85	300.39	14.30	-40.7	-42.5	18.8	0.00e+00	0	38	0	0	52	4565
2026-01-22 11:54:38.85	300.58	14.25	-40.7	-42.6	18.7	0.00e+00	0	37	0	0	52	4609
2026-01-22 11:54:39.98	300.79	14.21	-40.7	-42.5	18.8	0.00e+00	0	38	0	0	52	4576
2026-01-22 11:54:40.84	300.95	14.17	-40.7	-42.6	18.8	0.00e+00	0	38	0	0	52	4602
2026-01-22 11:54:41.97	301.16	14.12	-40.8	-42.6	18.7	0.00e+00	0	38	0	0	52	4647
2026-01-22 11:54:42.82	301.32	14.09	-40.9	-42.7	18.6	0.00e+00	0	38	0	0	52	4703
2026-01-22 11:54:43.96	301.53	14.04	-41.0	-42.8	18.5	0.00e+00	0	38	0	0	52	4756
2026-01-22 11:54:44.81	301.69	14.00	-41.1	-42.9	18.4	0.00e+00	0	38	0	0	52	4809
2026-01-22 11:54:45.95	301.90	13.95	-41.0	-42.9	18.5	0.00e+00	0	37	0	0	52	4762
2026-01-22 11:54:46.80	302.06	13.91	-41.0	-42.9	18.5	0.00e+00	0	38	0	0	52	4766
2026-01-22 11:54:47.94	302.27	13.86	-40.9	-42.7	18.6	0.00e+00	0	37	0	0	52	4697
2026-01-22 11:54:48.79	302.42	13.83	-40.9	-42.8	18.5	0.00e+00	0	38	0	0	52	4712
2026-01-22 11:54:49.97	302.64	13.77	-40.8	-42.6	18.6	0.00e+00	0	38	0	0	52	4648
2026-01-22 11:54:50.83	302.80	13.74	-40.8	-42.7	18.6	0.00e+00	0	37	0	0	52	4659
2026-01-22 11:54:52.03	303.01	13.68	-40.9	-42.7	18.5	0.00e+00	0	38	0	0	52	4681
2026-01-22 11:54:52.88	303.17	13.64	-41.0	-42.8	18.4	0.00e+00	0	37	0	0	52	4758
2026-01-22 11:54:54.02	303.37	13.59	-41.0	-42.9	18.4	0.00e+00	0	38	0	0	52	4786
2026-01-22 11:54:54.87	303.53	13.55	-41.2	-43.1	18.2	0.00e+00	0	38	0	0	52	4907
2026-01-22 11:54:56.01	303.73	13.50	-41.1	-43.0	18.3	0.00e+00	0	38	0	0	53	4576
2026-01-22 11:54:56.86	303.88	13.46	-41.2	-43.1	18.2	0.00e+00	0	38	0	0	53	4631
2026-01-22 11:54:58.00	304.09	13.41	-41.2	-43.1	18.2	0.00e+00	0	38	0	0	53	4627
2026-01-22 11:54:58.85	304.24	13.37	-41.2	-43.2	18.2	0.00e+00	0	38	0	0	53	4660
2026-01-22 11:54:59.99	304.44	13.32	-41.4	-43.4	18.0	0.00e+00	0	38	0	0	53	4770
2026-01-22 11:55:00.84	304.59	13.28	-41.4	-43.3	18.0	0.00e+00	0	38	0	0	53	4758
2026-01-22 11:55:01.98	304.79	13.23	-41.4	-43.4	17.9	0.00e+00	0	38	0	0	53	4782
2026-01-22 11:55:02.83	304.94	13.19	-41.5	-43.4	17.9	0.00e+00	0	38	0	0	53	4797
2026-01-22 11:55:03.97	305.14	13.14	-41.4	-43.3	17.9	0.00e+00	0	38	0	0	53	4746
2026-01-22 11:55:04.82	305.29	13.10	-41.4	-43.4	17.9	0.00e+00	0	38	0	0	53	4760
2026-01-22 11:55:05.96	305.49	13.04	-41.2	-43.1	18.1	0.00e+00	0	38	0	0	53	4650
2026-01-22 11:55:06.81	305.64	13.00	-41.2	-43.1	18.2	0.00e+00	0	38	0	0	53	4605
2026-01-22 11:55:07.95	305.83	12.95	-41.1	-43.0	18.2	0.00e+00	0	38	0	0	53	4577
2026-01-22 11:55:08.80	305.98	12.91	-41.1	-43.0	18.2	0.00e+00	0	38	0	0	53	4590
2026-01-22 11:55:09.94	306.18	12.86	-41.2	-43.1	18.1	0.00e+00	0	38	0	0	53	4645
2026-01-22 11:55:10.79	306.32	12.82	-41.3	-43.2	18.0	0.00e+00	0	38	0	0	53	4692
2026-01-22 11:55:11.93	306.52	12.76	-41.3	-43.2	18.1	0.00e+00	0	38	0	0	53	4697
2026-01-22 11:55:12.78	306.66	12.72	-41.3	-43.3	18.0	0.00e+00	0	37	0	0	53	4708
2026-01-22 11:55:13.91	306.85	12.67	-41.5	-43.5	17.9	0.00e+00	0	38	0	0	53	4834
2026-01-22 11:55:14.77	307.00	12.63	-41.5	-43.5	17.9	0.00e+00	0	38	0	0	53	4820
2026-01-22 11:55:15.90	307.19	12.57	-41.6	-43.6	17.7	0.00e+00	0	38	0	0	53	4915
2026-01-22 11:55:16.75	307.33	12.53	-41.5	-43.5	17.8	0.00e+00	0	38	0	0	53	4851
2026-01-22 11:55:17.89	307.53	12.47	-41.6	-43.5	17.8	0.00e+00	0	38	0	0	53	4866
2026-01-22 11:55:18.74	307.67	12.43	-41.6	-43.5	17.7	0.00e+00	0	38	0	0	53	4864
2026-01-22 11:55:19.88	307.86	12.38	-41.6	-43.6	17.6	0.00e+00	0	38	0	0	53	4896
2026-01-22 11:55:20.73	308.00	12.34	-41.6	-43.6	17.6	0.00e+00	0	38	0	0	53	4906
2026-01-22 11:55:21.98	308.21	12.27	-41.7	-43.7	17.5	0.00e+00	0	38	0	0	54	4695
2026-01-22 11:55:22.83	308.35	12.23	-41.6	-43.6	17.5	0.00e+00	0	38	0	0	54	4649
2026-01-22 11:55:24.01	308.54	12.18	-41.5	-43.6	17.6	0.00e+00	0	38	0	0	54	4599
2026-01-22 11:55:24.87	308.68	12.13	-41.5	-43.5	17.6	0.00e+00	0	38	0	0	54	4596
2026-01-22 11:55:26.00	308.87	12.08	-41.6	-43.6	17.6	0.00e+00	0	38	0	0	54	4642
2026-01-22 11:55:26.85	309.01	12.03	-41.5	-43.5	17.7	0.00e+00	0	37	0	0	54	4595
2026-01-22 11:55:28.08	309.20	11.97	-41.6	-43.7	17.6	0.00e+00	0	38	0	0	54	4664
2026-01-22 11:55:28.94	309.34	11.93	-41.6	-43.7	17.6	0.00e+00	0	38	0	0	54	4659
2026-01-22 11:55:30.14	309.54	11.87	-41.7	-43.8	17.5	0.00e+00	0	38	0	0	54	4754
2026-01-22 11:55:30.99	309.67	11.83	-41.8	-43.9	17.4	0.00e+00	0	38	0	0	54	4768
2026-01-22 11:55:32.13	309.86	11.77	-41.8	-43.9	17.4	0.00e+00	0	38	0	0	54	4775
2026-01-22 11:55:32.98	309.99	11.73	-41.8	-43.9	17.4	0.00e+00	0	38	0	0	54	4789
2026-01-22 11:55:34.12	310.17	11.67	-41.9	-44.0	17.3	0.00e+00	0	38	0	0	54	4816
2026-01-22 11:55:35.00	310.31	11.63	-41.9	-44.0	17.3	0.00e+00	0	38	0	0	54	4865
2026-01-22 11:55:36.14	310.49	11.57	-41.9	-44.0	17.3	0.00e+00	0	38	0	0	54	4827
2026-01-22 11:55:36.99	310.63	11.53	-41.9	-44.0	17.2	0.00e+00	0	38	0	0	54	4852
2026-01-22 11:55:38.13	310.81	11.47	-42.0	-44.1	17.1	0.00e+00	0	38	0	0	54	4925
2026-01-22 11:55:39.15	310.97	11.42	-42.0	-44.1	17.2	0.00e+00	0	38	0	0	54	4875
2026-01-22 11:55:40.15	311.12	11.37	-41.9	-44.0	17.3	0.00e+00	0	38	0	0	54	4821
2026-01-22 11:55:41.14	311.28	11.32	-41.9	-44.0	17.3	0.00e+00	0	38	0	0	54	4829
2026-01-22 11:55:42.14	311.43	11.27	-41.9	-43.9	17.3	0.00e+00	0	38	0	0	54	4806
2026-01-22 11:55:43.42	311.63	11.20	-41.7	-43.8	17.5	0.00e+00	0	38	0	0	54	4730
2026-01-22 11:55:44.20	311.75	11.16	-41.7	-43.8	17.5	0.00e+00	0	38	0	0	54	4712
2026-01-22 11:55:45.40	311.93	11.10	-41.8	-43.9	17.4	0.00e+00	0	38	0	0	54	4761
2026-01-22 11:55:46.26	312.06	11.06	-41.7	-43.7	17.5	0.00e+00	0	38	0	0	54	4694
2026-01-22 11:55:47.39	312.24	11.00	-41.8	-43.8	17.4	0.00e+00	0	38	0	0	54	4739
2026-01-22 11:55:48.25	312.37	10.95	-41.8	-43.9	17.4	0.00e+00	0	38	0	0	54	4779
2026-01-22 11:55:49.38	312.54	10.90	-41.8	-43.8	17.4	0.00e+00	0	38	0	0	54	4739
2026-01-22 11:55:50.23	312.66	10.85	-41.7	-43.8	17.4	0.00e+00	0	38	0	0	54	4726
2026-01-22 11:55:51.37	312.84	10.79	-41.8	-43.9	17.3	0.00e+00	0	38	0	0	54	4788
2026-01-22 11:55:52.22	312.96	10.75	-41.7	-43.8	17.5	0.00e+00	0	38	0	0	54	4715
2026-01-22 11:55:53.36	313.13	10.69	-41.8	-43.9	17.4	0.00e+00	0	38	0	0	54	4761
2026-01-22 11:55:54.21	313.26	10.65	-41.8	-43.9	17.4	0.00e+00	0	38	0	0	54	4763
2026-01-22 11:55:55.35	313.43	10.59	-41.9	-44.0	17.3	0.00e+00	0	38	0	0	54	4817
2026-01-22 11:55:56.20	313.55	10.54	-41.8	-43.9	17.3	0.00e+00	0	38	0	0	54	4801
2026-01-22 11:55:57.34	313.72	10.48	-41.9	-44.0	17.2	0.00e+00	0	38	0	0	54	4820
2026-01-22 11:55:58.19	313.85	10.44	-41.8	-43.9	17.3	0.00e+00	0	38	0	0	54	4806
2026-01-22 11:55:59.33	314.01	10.38	-41.9	-44.0	17.3	0.00e+00	0	38	0	0	54	4817
2026-01-22 11:56:00.18	314.14	10.34	-41.9	-44.0	17.3	0.00e+00	0	38	0	0	54	4819
2026-01-22 11:56:01.32	314.30	10.28	-42.0	-44.1	17.1	0.00e+00	0	38	0	0	54	4871
2026-01-22 11:56:02.17	314.42	10.23	-42.0	-44.1	17.1	0.00e+00	0	38	0	0	54	4891
2026-01-22 11:56:03.31	314.59	10.17	-42.0	-44.1	17.1	0.00e+00	0	38	0	0	54	4907
2026-01-22 11:56:04.16	314.71	10.13	-42.1	-44.2	17.1	0.00e+00	0	38	0	0	54	4952
2026-01-22 11:56:05.30	314.87	10.07	-42.1	-44.3	17.0	0.00e+00	0	38	0	0	54	4999
2026-01-22 11:56:06.15	315.00	10.03	-42.1	-44.2	17.1	0.00e+00	0	38	0	0	54	4961
2026-01-22 11:56:07.28	315.16	9.97	-42.1	-44.2	17.0	0.00e+00	0	38	0	0	54	4982
2026-01-22 11:56:08.14	315.28	9.92	-42.1	-44.2	17.0	0.00e+00	0	38	0	0	54	4953
2026-01-22 11:56:09.31	315.44	9.86	-42.0	-44.1	17.1	0.00e+00	0	38	0	0	54	4924
2026-01-22 11:56:10.16	315.56	9.81	-42.1	-44.2	17.0	0.00e+00	0	38	0	0	54	4971
2026-01-22 11:56:11.30	315.72	9.76	-42.0	-44.2	17.1	0.00e+00	0	38	0	0	54	4932
2026-01-22 11:56:12.15	315.84	9.71	-42.0	-44.2	17.0	0.00e+00	0	38	0	0	54	4944
2026-01-22 11:56:13.29	316.00	9.65	-42.1	-44.3	17.0	0.00e+00	0	38	0	0	55	4730
2026-01-22 11:56:14.14	316.12	9.61	-42.2	-44.4	16.9	0.00e+00	0	38	0	0	55	4768
2026-01-22 11:56:15.28	316.28	9.55	-42.3	-44.5	16.8	0.00e+00	0	38	0	0	55	4815
2026-01-22 11:56:16.13	316.39	9.50	-42.2	-44.4	16.9	0.00e+00	0	38	0	0	55	4769
2026-01-22 11:56:17.47	316.58	9.43	-42.1	-44.3	17.0	0.00e+00	0	38	0	0	55	4707
2026-01-22 11:56:18.18	316.67	9.39	-42.1	-44.3	17.0	0.00e+00	0	38	0	0	55	4721
2026-01-22 11:56:19.46	316.85	9.33	-42.0	-44.1	17.1	0.00e+00	0	38	0	0	55	4649
2026-01-22 11:56:20.17	316.94	9.29	-42.0	-44.1	17.1	0.00e+00	0	38	0	0	55	4623
2026-01-22 11:56:21.45	317.12	9.22	-41.9	-44.0	17.2	0.00e+00	0	38	0	0	55	4586
2026-01-22 11:56:22.16	317.21	9.18	-41.9	-44.0	17.1	0.00e+00	0	38	0	0	55	4590
2026-01-22 11:56:23.44	317.39	9.12	-42.1	-44.2	17.0	0.00e+00	0	38	0	0	55	4678
2026-01-22 11:56:24.15	317.48	9.08	-42.1	-44.2	16.9	0.00e+00	0	38	0	0	55	4687
2026-01-22 11:56:25.43	317.65	9.01	-42.3	-44.5	16.8	0.00e+00	0	38	0	0	55	4831
2026-01-22 11:56:26.14	317.75	8.97	-49.5	-62.7	3.8	1.35e+00	0	38	104	0	69	17678
2026-01-22 11:56:27.42	317.92	8.90	-49.6	-63.1	3.8	1.49e+00	0	38	104	0	70	17336
2026-01-22 11:56:28.14	318.01	8.87	-50.0	-63.2	3.8	1.49e+00	0	38	104	0	70	17514
2026-01-22 11:56:29.43	318.18	8.80	-50.2	-63.3	3.8	1.49e+00	0	38	104	0	70	17883
2026-01-22 11:56:30.14	318.27	8.76	-50.2	-63.4	3.8	1.49e+00	0	38	104	0	71	16902
2026-01-22 11:56:31.42	318.44	8.69	-50.3	-63.4	3.8	1.49e+00	0	38	104	0	71	17019
2026-01-22 11:56:32.14	318.53	8.65	-50.3	-63.4	3.8	1.49e+00	0	38	104	0	71	17067
2026-01-22 11:56:33.42	318.70	8.59	-50.3	-63.5	3.8	1.49e+00	0	38	104	0	71	17111
2026-01-22 11:56:34.13	318.79	8.55	-50.3	-63.5	3.8	1.49e+00	0	38	104	0	71	17167
2026-01-22 11:56:35.41	318.96	8.48	-50.2	-63.5	3.8	1.49e+00	0	38	104	0	71	17096
2026-01-22 11:56:36.12	319.05	8.44	-50.3	-63.5	3.8	1.49e+00	0	38	104	0	71	17169
2026-01-22 11:56:37.40	319.21	8.38	-50.3	-63.5	3.8	1.49e+00	0	38	104	0	71	17198
2026-01-22 11:56:38.10	319.30	8.34	-50.5	-63.5	3.8	1.49e+00	0	38	104	0	71	17154
2026-01-22 11:56:39.40	319.47	8.27	-50.5	-63.5	3.8	1.49e+00	0	38	104	0	71	17192
2026-01-22 11:56:40.11	319.56	8.23	-50.1	-63.5	3.8	1.49e+00	0	38	104	0	71	17248
2026-01-22 11:56:41.38	319.72	8.16	-50.5	-63.5	3.8	1.49e+00	0	38	104	0	71	17194
2026-01-22 11:56:42.09	319.81	8.13	-50.4	-63.5	3.8	1.49e+00	0	38	104	0	71	17186
2026-01-22 11:56:43.37	319.97	8.06	-50.4	-63.5	3.8	1.49e+00	0	38	104	0	71	17190
2026-01-22 11:56:44.08	320.06	8.02	-50.3	-63.4	3.8	1.49e+00	0	38	104	0	71	17033
2026-01-22 11:56:45.37	320.22	7.95	-50.3	-63.4	3.8	1.49e+00	0	38	104	0	71	17057
2026-01-22 11:56:46.08	320.30	7.91	-50.2	-63.4	3.8	1.49e+00	0	38	104	0	71	17023
2026-01-22 11:56:47.36	320.46	7.85	-50.2	-63.4	3.8	1.49e+00	0	38	104	0	71	17013
2026-01-22 11:56:48.08	320.55	7.81	-50.2	-63.4	3.8	1.49e+00	0	38	104	0	71	16926
2026-01-22 11:56:49.36	320.71	7.74	-50.2	-63.4	3.8	1.49e+00	0	38	104	0	71	16982
2026-01-22 11:56:50.07	320.79	7.70	-50.2	-63.4	3.8	1.49e+00	0	38	104	0	71	17000
2026-01-22 11:56:51.36	320.95	7.63	-50.2	-63.4	3.8	1.49e+00	0	38	104	0	71	17019
2026-01-22 11:56:52.07	321.04	7.60	-50.2	-63.4	3.8	1.49e+00	0	38	104	0	71	16989
2026-01-22 11:56:53.35	321.19	7.53	-50.2	-63.4	3.8	1.49e+00	0	38	104	0	71	17005
2026-01-22 11:56:54.06	321.28	7.49	-50.2	-63.4	3.8	1.49e+00	0	38	104	0	71	16998
2026-01-22 11:56:55.33	321.43	7.42	-50.2	-63.4	3.8	1.49e+00	0	38	104	0	71	17003
2026-01-22 11:56:56.04	321.52	7.39	-50.2	-63.4	3.8	1.49e+00	0	38	104	0	71	16958
2026-01-22 11:56:57.32	321.67	7.32	-50.3	-63.4	3.8	1.49e+00	0	38	104	0	71	17053
2026-01-22 11:56:58.04	321.75	7.28	-50.2	-63.4	3.8	1.49e+00	0	38	104	0	71	17015
2026-01-22 11:56:59.32	321.91	7.21	-50.2	-63.4	3.8	1.49e+00	0	38	104	0	71	17058
2026-01-22 11:57:00.03	321.99	7.17	-50.2	-63.4	3.8	1.49e+00	0	38	104	0	71	17050
2026-01-22 11:57:01.31	322.14	7.11	-50.2	-63.4	3.8	1.49e+00	0	38	104	0	71	16941
2026-01-22 11:57:02.02	322.22	7.07	-50.2	-63.4	3.8	1.49e+00	0	38	104	0	71	16992
2026-01-22 11:57:03.29	322.37	7.00	-50.2	-63.4	3.8	1.49e+00	0	38	104	0	71	16963
2026-01-22 11:57:04.00	322.45	6.96	-50.2	-63.4	3.8	1.49e+00	0	38	104	0	71	16997
2026-01-22 11:57:05.28	322.60	6.90	-50.1	-63.4	3.8	1.49e+00	0	38	104	0	71	16991
2026-01-22 11:57:05.99	322.69	6.86	-50.2	-63.4	3.8	1.49e+00	0	38	104	0	71	17028
2026-01-22 11:57:07.26	322.83	6.79	-50.2	-63.4	3.8	1.49e+00	0	38	104	0	71	16941
2026-01-22 11:57:07.97	322.91	6.75	-50.2	-63.4	3.8	1.49e+00	0	38	104	0	71	17025
2026-01-22 11:57:09.25	323.06	6.69	-50.1	-63.4	3.8	1.49e+00	0	38	104	0	71	16987
2026-01-22 11:57:09.96	323.14	6.65	-50.2	-63.4	3.8	1.49e+00	0	38	104	0	71	16997
2026-01-22 11:57:11.24	323.29	6.58	-50.2	-63.4	3.8	1.49e+00	0	38	104	0	71	16926
2026-01-22 11:57:11.95	323.37	6.54	-50.2	-63.4	3.8	1.49e+00	0	38	104	0	71	16941
2026-01-22 11:57:13.22	323.51	6.48	-50.2	-63.4	3.8	1.49e+00	0	38	104	0	71	16951
2026-01-22 11:57:13.93	323.59	6.44	-50.2	-63.3	3.8	1.49e+00	0	38	104	0	71	16881
2026-01-22 11:57:15.22	323.73	6.37	-50.2	-63.4	3.8	1.49e+00	0	38	104	0	71	16945
2026-01-22 11:57:15.93	323.81	6.33	-50.2	-63.3	3.8	1.49e+00	0	38	104	0	71	16868
2026-01-22 11:57:17.21	323.96	6.27	-50.2	-63.3	3.8	1.49e+00	0	38	104	0	71	16873
2026-01-22 11:57:17.92	324.04	6.23	-50.2	-63.4	3.8	1.49e+00	0	38	104	0	71	16893
2026-01-22 11:57:19.20	324.18	6.16	-50.2	-63.4	3.8	1.49e+00	0	38	104	0	71	16932
2026-01-22 11:57:19.91	324.25	6.12	-50.2	-63.3	3.8	1.49e+00	0	38	104	0	71	16877
2026-01-22 11:57:21.18	324.39	6.06	-50.2	-63.4	3.8	1.49e+00	0	38	104	0	71	16911
2026-01-22 11:57:21.89	324.47	6.02	-50.2	-63.3	3.8	1.49e+00	0	38	104	0	71	16882
2026-01-22 11:57:23.17	324.61	5.95	-50.2	-63.4	3.8	1.49e+00	0	38	104	0	71	16936
2026-01-22 11:57:23.88	324.69	5.91	-50.2	-63.3	3.8	1.49e+00	0	38	104	0	71	16866
2026-01-22 11:57:25.16	324.83	5.85	-50.2	-63.3	3.8	1.49e+00	0	38	104	0	71	16883
2026-01-22 11:57:25.87	324.90	5.81	-50.2	-63.4	3.8	1.49e+00	0	38	104	0	71	16900
2026-01-22 11:57:27.14	325.04	5.74	-50.2	-63.4	3.8	1.49e+00	0	38	104	0	71	16904
2026-01-22 11:57:27.85	325.12	5.71	-50.2	-63.4	3.8	1.49e+00	0	38	104	0	71	16913
2026-01-22 11:57:29.13	325.25	5.64	-50.2	-63.4	3.8	1.49e+00	0	38	104	0	71	16921
2026-01-22 11:57:29.84	325.33	5.60	-50.2	-63.4	3.8	1.49e+00	0	38	104	0	71	16926
2026-01-22 11:57:31.12	325.47	5.53	-50.2	-63.3	3.8	1.49e+00	0	38	104	0	71	16886
2026-01-22 11:57:31.83	325.54	5.50	-50.2	-63.4	3.8	1.49e+00	0	38	104	0	71	16925
2026-01-22 11:57:33.10	325.67	5.43	-50.2	-63.3	3.8	1.49e+00	0	38	104	0	71	16887
2026-01-22 11:57:33.83	325.75	5.39	-50.2	-63.4	3.8	1.49e+00	0	38	104	0	71	16928
2026-01-22 11:57:35.11	325.88	5.32	-50.2	-63.3	3.8	1.49e+00	0	38	104	0	71	16865
2026-01-22 11:57:35.82	325.96	5.29	-50.2	-63.4	3.8	1.49e+00	0	38	104	0	71	16890
2026-01-22 11:57:37.09	326.09	5.22	-50.2	-63.4	3.8	1.49e+00	0	38	104	0	71	16923
2026-01-22 11:57:37.80	326.16	5.18	-50.2	-63.3	3.8	1.49e+00	0	38	104	0	71	16876
2026-01-22 11:57:39.08	326.30	5.12	-50.2	-63.3	3.8	1.49e+00	0	38	104	0	71	16869
2026-01-22 11:57:39.82	326.37	5.08	-50.2	-63.3	3.8	1.49e+00	0	38	104	0	71	16863
2026-01-22 11:57:41.09	326.50	5.01	-50.2	-63.4	3.8	1.49e+00	0	38	104	0	71	16907
2026-01-22 11:57:41.80	326.58	4.98	-50.2	-63.3	3.8	1.49e+00	0	38	104	0	71	16862

#Closed at: 2026-01-22 11:57:43
#Recorded file [0 MB]: D:/Data/31040_260122_144736.dat