passes_logs/2026/01/22/T1/T1__20260122_234352_FENGYUN_3D_rec.log

#Pass ID: 20260122_234352_FENGYUN 3D
#Satellite: FENGYUN 3D
#Configuration: FENGYUN 3D
#almurnet v.1.7.20251203
#Start time: 2026-01-22 23:43:51

#Version: 2.0.20230620
#Station: T1
#Location: 37.570604 lon 55.790049 lat
#TLE: 1 43010U 17072A   26022.47411728  .00000617  00000+0  31375-3 0  9996
#TLE: 2 43010  98.9952 354.4060 0002481  95.7964 264.3494 14.19699924424319

#Time	Az	El	Level	Level2	SNR	BER	BlckErr	Temp	State	Recorded	gain1	gain2
2026-01-22 23:43:51.77	38.53	4.99	-49.1	-61.4	3.8	8.46e-01	0	36	0	0	70	14373
2026-01-22 23:43:52.75	38.64	5.04	-49.1	-61.4	3.8	8.47e-01	0	36	104	0	70	14278
2026-01-22 23:43:53.75	38.76	5.08	-49.1	-61.4	3.8	8.47e-01	0	36	104	0	70	14331
2026-01-22 23:43:54.74	38.88	5.13	-49.1	-61.4	3.8	8.47e-01	0	36	104	0	70	14334
2026-01-22 23:43:55.73	38.99	5.17	-49.1	-61.4	3.8	8.45e-01	0	36	104	0	70	14291
2026-01-22 23:43:56.73	39.11	5.22	-49.1	-61.4	3.8	8.48e-01	0	36	104	0	70	14325
2026-01-22 23:43:57.72	39.23	5.26	-49.1	-61.4	3.8	8.47e-01	0	36	104	0	70	14317
2026-01-22 23:43:58.71	39.34	5.31	-49.1	-61.5	3.8	8.47e-01	0	36	104	0	70	14386
2026-01-22 23:43:59.71	39.46	5.35	-49.1	-61.4	3.8	8.48e-01	0	36	104	0	70	14295
2026-01-22 23:44:00.70	39.58	5.40	-49.1	-61.4	3.8	8.48e-01	0	36	104	0	70	14282
2026-01-22 23:44:01.69	39.70	5.44	-49.1	-61.4	3.8	8.48e-01	0	36	104	0	70	14251
2026-01-22 23:44:02.69	39.82	5.49	-49.1	-61.4	3.8	8.46e-01	0	36	104	0	70	14292
2026-01-22 23:44:03.68	39.94	5.53	-49.1	-61.4	3.8	8.48e-01	0	36	104	0	70	14292
2026-01-22 23:44:04.68	40.06	5.58	-49.1	-61.4	3.8	8.46e-01	0	36	104	0	70	14324
2026-01-22 23:44:05.67	40.18	5.62	-49.1	-61.4	3.8	8.48e-01	0	36	104	0	70	14278
2026-01-22 23:44:06.66	40.30	5.67	-49.1	-61.4	3.8	8.47e-01	0	36	104	0	70	14308
2026-01-22 23:44:07.66	40.42	5.71	-49.1	-61.4	3.8	8.46e-01	0	36	104	0	70	14264
2026-01-22 23:44:08.65	40.54	5.75	-49.1	-61.4	3.8	8.47e-01	0	37	104	0	70	14298
2026-01-22 23:44:09.64	40.67	5.80	-49.1	-61.4	3.8	8.46e-01	0	36	104	0	70	14228
2026-01-22 23:44:10.64	40.79	5.84	-49.1	-61.4	3.8	8.48e-01	0	37	104	0	70	14257
2026-01-22 23:44:11.63	40.91	5.89	-49.1	-61.4	3.8	8.46e-01	0	37	104	0	70	14221
2026-01-22 23:44:12.62	41.03	5.93	-49.1	-61.4	3.8	8.47e-01	0	37	104	0	70	14242
2026-01-22 23:44:13.62	41.16	5.98	-49.1	-61.4	3.8	8.47e-01	0	36	104	0	70	14233
2026-01-22 23:44:14.61	41.28	6.02	-49.1	-61.4	3.8	8.47e-01	0	37	104	0	70	14258
2026-01-22 23:44:15.61	41.41	6.07	-49.1	-61.4	3.8	8.46e-01	0	37	104	0	70	14239
2026-01-22 23:44:16.60	41.53	6.11	-49.1	-61.3	3.8	8.47e-01	0	37	104	0	70	14185
2026-01-22 23:44:17.59	41.66	6.15	-49.1	-61.4	3.8	8.46e-01	0	37	104	0	70	14274
2026-01-22 23:44:18.59	41.78	6.20	-49.1	-61.4	3.8	8.47e-01	0	37	104	0	70	14269
2026-01-22 23:44:19.58	41.91	6.24	-49.1	-61.4	3.8	8.47e-01	0	37	104	0	70	14260
2026-01-22 23:44:20.58	42.03	6.29	-49.1	-61.4	3.8	8.47e-01	0	37	104	0	70	14318
2026-01-22 23:44:21.57	42.16	6.33	-49.1	-61.4	3.8	8.47e-01	0	37	104	0	70	14259
2026-01-22 23:44:22.56	42.28	6.37	-49.1	-61.4	3.8	8.48e-01	0	37	104	0	70	14252
2026-01-22 23:44:23.56	42.41	6.42	-49.1	-61.4	3.8	8.48e-01	0	37	104	0	70	14255
2026-01-22 23:44:24.55	42.54	6.46	-49.1	-61.4	3.8	8.48e-01	0	37	104	0	70	14238
2026-01-22 23:44:25.54	42.67	6.51	-49.1	-61.4	3.8	8.47e-01	0	37	104	0	70	14233
2026-01-22 23:44:26.54	42.80	6.55	-49.1	-61.3	3.8	8.47e-01	0	37	104	0	70	14209
2026-01-22 23:44:27.53	42.92	6.59	-49.1	-61.4	3.8	8.47e-01	0	37	104	0	70	14274
2026-01-22 23:44:28.53	43.05	6.64	-49.1	-61.4	3.8	8.47e-01	0	37	104	0	70	14247
2026-01-22 23:44:29.52	43.18	6.68	-49.1	-61.4	3.8	8.46e-01	0	37	104	0	70	14257
2026-01-22 23:44:30.51	43.31	6.73	-49.1	-61.4	3.8	8.47e-01	0	37	104	0	70	14227
2026-01-22 23:44:31.50	43.44	6.77	-49.1	-61.4	3.8	8.48e-01	0	37	104	0	70	14219
2026-01-22 23:44:32.50	43.57	6.81	-49.1	-61.4	3.8	8.46e-01	0	37	104	0	70	14211
2026-01-22 23:44:33.49	43.70	6.86	-49.1	-61.4	3.8	8.47e-01	0	37	104	0	70	14228
2026-01-22 23:44:34.49	43.84	6.90	-49.1	-61.4	3.8	8.48e-01	0	37	104	0	70	14240
2026-01-22 23:44:35.48	43.97	6.94	-49.1	-61.3	3.8	8.47e-01	0	37	104	0	70	14192
2026-01-22 23:44:36.47	44.10	6.99	-49.1	-61.3	3.8	8.47e-01	0	37	104	0	70	14201
2026-01-22 23:44:37.46	44.23	7.03	-49.1	-61.4	3.8	8.47e-01	0	37	104	0	70	14247
2026-01-22 23:44:38.46	44.36	7.07	-49.1	-61.4	3.8	8.48e-01	0	37	104	0	70	14241
2026-01-22 23:44:39.45	44.50	7.12	-49.1	-61.4	3.8	8.47e-01	0	37	104	0	70	14302
2026-01-22 23:44:40.45	44.63	7.16	-49.1	-61.3	3.8	8.46e-01	0	37	104	0	70	14208
2026-01-22 23:44:41.44	44.76	7.20	-49.1	-61.4	3.8	8.46e-01	0	37	104	0	70	14231
2026-01-22 23:44:42.43	44.90	7.25	-49.1	-61.3	3.8	8.47e-01	0	37	104	0	70	14186
2026-01-22 23:44:43.42	45.03	7.29	-49.1	-61.3	3.8	8.48e-01	0	37	104	0	70	14204
2026-01-22 23:44:44.42	45.17	7.33	-49.1	-61.4	3.8	8.48e-01	0	37	104	0	70	14270
2026-01-22 23:44:45.41	45.30	7.38	-49.1	-61.4	3.8	8.48e-01	0	37	104	0	70	14244
2026-01-22 23:44:46.40	45.44	7.42	-49.1	-61.4	3.8	8.47e-01	0	38	104	0	70	14246
2026-01-22 23:44:47.40	45.57	7.46	-49.1	-61.4	3.8	8.46e-01	0	38	104	0	70	14219
2026-01-22 23:44:48.39	45.71	7.50	-49.1	-61.4	3.8	8.46e-01	0	37	104	0	70	14222
2026-01-22 23:44:49.39	45.85	7.55	-49.1	-61.3	3.8	8.47e-01	0	38	104	0	70	14146
2026-01-22 23:44:50.38	45.98	7.59	-49.1	-61.3	3.8	8.46e-01	0	37	104	0	70	14182
2026-01-22 23:44:51.37	46.12	7.63	-49.1	-61.3	3.8	8.47e-01	0	37	104	0	70	14099
2026-01-22 23:44:52.37	46.26	7.67	-49.1	-61.3	3.8	8.48e-01	0	38	104	0	70	14133
2026-01-22 23:44:53.36	46.40	7.72	-49.0	-61.2	3.8	8.45e-01	0	38	104	0	70	13923
2026-01-22 23:44:54.35	46.54	7.76	-49.1	-61.1	3.8	8.46e-01	0	38	104	0	70	13865
2026-01-22 23:44:55.35	46.68	7.80	-49.1	-61.1	3.8	8.47e-01	0	38	104	0	70	13870
2026-01-22 23:44:56.34	46.82	7.84	-49.0	-61.1	3.8	8.47e-01	0	38	104	0	70	13822
2026-01-22 23:44:57.33	46.96	7.89	-49.0	-61.1	3.8	8.47e-01	0	38	104	0	70	13833
2026-01-22 23:44:58.33	47.10	7.93	-49.0	-61.2	3.8	8.46e-01	0	38	104	0	70	13894
2026-01-22 23:44:59.32	47.24	7.97	-49.1	-61.3	3.8	8.47e-01	0	38	104	0	70	14054
2026-01-22 23:45:00.31	47.38	8.01	-49.1	-61.3	3.8	8.47e-01	0	38	104	0	70	14146
2026-01-22 23:45:01.30	47.52	8.05	-49.1	-61.4	3.8	8.48e-01	0	38	104	0	70	14263
2026-01-22 23:45:02.30	47.66	8.09	-49.1	-61.4	3.8	8.47e-01	0	38	104	0	70	14278
2026-01-22 23:45:03.29	47.80	8.14	-49.1	-61.4	3.8	8.47e-01	0	38	104	0	70	14309
2026-01-22 23:45:04.28	47.95	8.18	-49.1	-61.4	3.8	8.46e-01	0	38	104	0	70	14247
2026-01-22 23:45:05.28	48.09	8.22	-49.1	-61.3	3.8	8.45e-01	0	38	104	0	70	14179
2026-01-22 23:45:06.27	48.23	8.26	-49.1	-61.2	3.8	8.48e-01	0	38	104	0	70	14044
2026-01-22 23:45:07.26	48.38	8.30	-49.0	-61.1	3.8	8.47e-01	0	38	104	0	70	13802
2026-01-22 23:45:08.25	48.52	8.34	-49.1	-61.1	3.8	8.45e-01	0	38	104	0	70	13739
2026-01-22 23:45:09.25	48.67	8.38	-49.0	-61.1	3.8	8.47e-01	0	38	104	0	70	13784
2026-01-22 23:45:10.24	48.81	8.43	-49.1	-61.2	3.8	8.48e-01	0	38	104	0	70	13991
2026-01-22 23:45:11.23	48.96	8.47	-49.1	-61.3	3.8	8.47e-01	0	38	104	0	70	14123
2026-01-22 23:45:12.23	49.10	8.51	-49.1	-61.3	3.8	8.47e-01	0	38	104	0	70	14192
2026-01-22 23:45:13.22	49.25	8.55	-49.1	-61.3	3.8	8.46e-01	0	38	104	0	70	14185
2026-01-22 23:45:14.22	49.40	8.59	-49.1	-61.4	3.8	8.47e-01	0	38	104	0	70	14239
2026-01-22 23:45:15.21	49.54	8.63	-49.1	-61.3	3.8	8.46e-01	0	38	104	0	70	14073
2026-01-22 23:45:16.20	49.69	8.67	-49.0	-61.1	3.8	8.46e-01	0	38	104	0	70	13780
2026-01-22 23:45:17.19	49.84	8.71	-49.0	-60.7	3.8	8.47e-01	0	38	104	0	70	13199
2026-01-22 23:45:18.19	49.99	8.75	-49.0	-60.3	3.8	8.47e-01	0	38	104	0	70	12632
2026-01-22 23:45:19.18	50.14	8.79	-48.9	-60.0	3.8	8.47e-01	0	38	104	0	69	12813
2026-01-22 23:45:20.17	50.28	8.83	-48.9	-59.6	3.8	8.47e-01	0	38	104	0	69	12288
2026-01-22 23:45:21.17	50.44	8.87	-48.7	-58.5	4.0	8.46e-01	0	38	104	0	69	10843
2026-01-22 23:45:22.16	50.58	8.91	-48.3	-56.2	4.8	8.25e-01	0	38	0	0	68	8799
2026-01-22 23:45:23.15	50.73	8.95	-47.2	-52.8	7.0	3.97e-01	0	38	0	2097152	66	6694
2026-01-22 23:45:24.15	50.89	8.99	-45.7	-49.6	10.3	1.72e-02	0	38	0	8388608	63	5515
2026-01-22 23:45:25.14	51.04	9.03	-44.0	-47.0	13.0	3.62e-04	0	38	0	13631488	60	4860
2026-01-22 23:45:26.13	51.19	9.07	-44.4	-47.5	12.6	2.04e-04	0	38	0	18874368	59	5438
2026-01-22 23:45:27.29	51.37	9.11	-47.2	-52.6	7.3	3.08e-01	0	38	0	26214400	66	6522
2026-01-22 23:45:28.14	51.50	9.15	-41.4	-43.8	16.1	0.00e+00	0	38	0	30408704	54	4715
2026-01-22 23:45:29.28	51.67	9.19	-45.2	-48.8	11.1	5.91e-02	0	38	0	36700160	62	5294
2026-01-22 23:45:30.13	51.80	9.23	-39.9	-42.0	17.9	0.00e+00	0	38	0	41943040	51	4583
2026-01-22 23:45:31.27	51.98	9.27	-40.6	-42.7	17.2	0.00e+00	0	38	0	48234496	51	4977
2026-01-22 23:45:32.12	52.11	9.30	-40.4	-42.6	17.3	0.00e+00	0	38	0	53477376	51	4891
2026-01-22 23:45:33.26	52.29	9.35	-40.1	-42.3	17.7	0.00e+00	0	38	0	59768832	51	4724
2026-01-22 23:45:34.11	52.42	9.38	-40.1	-42.3	17.7	0.00e+00	0	38	0	63963136	51	4714
2026-01-22 23:45:35.32	52.61	9.43	-40.1	-42.2	17.7	0.00e+00	0	38	0	71303168	51	4697
2026-01-22 23:45:36.17	52.74	9.46	-39.5	-41.6	18.3	0.00e+00	0	38	0	75497472	51	4366
2026-01-22 23:45:37.37	52.93	9.51	-39.2	-41.2	18.7	0.00e+00	0	38	0	82837504	50	4402
2026-01-22 23:45:38.22	53.06	9.54	-39.0	-40.9	18.9	0.00e+00	0	38	0	87031808	49	4544
2026-01-22 23:45:39.42	53.25	9.59	-39.0	-41.0	18.9	0.00e+00	0	38	0	94371840	49	4556
2026-01-22 23:45:40.27	53.39	9.62	-39.0	-41.0	18.8	0.00e+00	0	38	0	98566144	49	4589
2026-01-22 23:45:41.41	53.57	9.66	-39.0	-41.0	18.8	0.00e+00	0	38	0	104857600	49	4574
2026-01-22 23:45:42.26	53.70	9.69	-39.1	-41.1	18.8	0.00e+00	0	38	0	110100480	49	4610
2026-01-22 23:45:43.40	53.89	9.74	-39.0	-41.1	18.8	0.00e+00	0	38	0	116391936	49	4601
2026-01-22 23:45:44.25	54.02	9.77	-39.0	-41.0	18.9	0.00e+00	0	38	0	121634816	49	4573
2026-01-22 23:45:45.39	54.20	9.81	-38.9	-40.9	18.9	0.00e+00	0	38	0	127926272	49	4521
2026-01-22 23:45:46.24	54.34	9.84	-38.8	-40.8	19.1	0.00e+00	0	38	0	132120576	49	4453
2026-01-22 23:45:47.38	54.53	9.88	-38.8	-40.7	19.1	0.00e+00	0	38	0	138412032	49	4434
2026-01-22 23:45:48.23	54.66	9.92	-38.8	-40.8	19.1	0.00e+00	0	38	0	143654912	49	4452
2026-01-22 23:45:49.37	54.85	9.96	-38.6	-40.6	19.3	0.00e+00	0	38	0	149946368	49	4348
2026-01-22 23:45:50.22	54.98	9.99	-38.6	-40.5	19.3	0.00e+00	0	38	0	155189248	49	4320
2026-01-22 23:45:51.36	55.17	10.03	-38.6	-40.5	19.3	0.00e+00	0	38	0	161480704	49	4336
2026-01-22 23:45:52.21	55.31	10.06	-38.5	-40.5	19.3	0.00e+00	0	38	0	165675008	49	4306
2026-01-22 23:45:53.68	55.55	10.12	-38.6	-40.5	19.3	0.00e+00	0	38	0	174063616	49	4337
2026-01-22 23:45:54.39	55.67	10.14	-38.6	-40.6	19.3	0.00e+00	0	38	0	178257920	49	4343
2026-01-22 23:45:55.67	55.88	10.19	-38.7	-40.7	19.2	0.00e+00	0	38	0	185597952	49	4414
2026-01-22 23:45:56.38	55.99	10.21	-38.7	-40.6	19.2	0.00e+00	0	38	0	189792256	49	4385
2026-01-22 23:45:57.66	56.20	10.26	-38.6	-40.5	19.3	0.00e+00	0	38	0	196083712	49	4339
2026-01-22 23:45:58.40	56.33	10.28	-38.6	-40.5	19.3	0.00e+00	0	38	0	200278016	49	4334
2026-01-22 23:45:59.68	56.54	10.33	-38.6	-40.5	19.3	0.00e+00	0	38	0	207618048	49	4329
2026-01-22 23:46:00.44	56.67	10.36	-38.6	-40.5	19.3	0.00e+00	0	38	0	211812352	49	4327
2026-01-22 23:46:01.72	56.88	10.40	-38.5	-40.4	19.4	0.00e+00	0	38	0	219152384	49	4286
2026-01-22 23:46:02.58	57.02	10.43	-38.5	-40.4	19.4	0.00e+00	0	38	0	224395264	48	4513
2026-01-22 23:46:03.71	57.21	10.47	-38.5	-40.4	19.4	0.00e+00	0	38	0	230686720	48	4530
2026-01-22 23:46:04.57	57.36	10.50	-38.4	-40.4	19.5	0.00e+00	0	38	0	235929600	48	4501
2026-01-22 23:46:05.70	57.55	10.54	-38.4	-40.3	19.5	0.00e+00	0	38	0	242221056	48	4479
2026-01-22 23:46:06.55	57.69	10.57	-38.5	-40.4	19.5	0.00e+00	0	38	0	246415360	48	4513
2026-01-22 23:46:07.69	57.88	10.61	-38.4	-40.4	19.5	0.00e+00	0	38	0	252706816	48	4505
2026-01-22 23:46:08.54	58.03	10.63	-38.5	-40.4	19.4	0.00e+00	0	38	0	257949696	48	4536
2026-01-22 23:46:09.68	58.22	10.67	-38.5	-40.4	19.4	0.00e+00	0	38	0	264241152	48	4542
2026-01-22 23:46:10.53	58.36	10.70	-38.6	-40.6	19.3	0.00e+00	0	38	0	269484032	48	4603
2026-01-22 23:46:11.67	58.56	10.74	-38.6	-40.6	19.3	0.00e+00	0	38	0	275775488	48	4610
2026-01-22 23:46:12.53	58.71	10.77	-38.7	-40.7	19.2	0.00e+00	0	38	0	279969792	48	4662
2026-01-22 23:46:13.66	58.90	10.80	-38.8	-40.7	19.2	0.00e+00	0	38	0	286261248	48	4702
2026-01-22 23:46:14.52	59.05	10.83	-38.7	-40.6	19.3	0.00e+00	0	38	0	291504128	48	4637
2026-01-22 23:46:15.66	59.24	10.87	-38.6	-40.5	19.4	0.00e+00	0	38	0	297795584	48	4590
2026-01-22 23:46:16.51	59.39	10.90	-38.4	-40.3	19.6	0.00e+00	0	38	0	303038464	48	4485
2026-01-22 23:46:17.65	59.59	10.93	-38.5	-40.4	19.5	0.00e+00	0	38	0	309329920	48	4507
2026-01-22 23:46:18.82	59.79	10.97	-38.4	-40.3	19.6	0.00e+00	0	38	0	315621376	48	4461
2026-01-22 23:46:19.67	59.94	11.00	-38.4	-40.3	19.6	0.00e+00	0	38	0	320864256	48	4477
2026-01-22 23:46:20.80	60.13	11.03	-38.4	-40.3	19.6	0.00e+00	0	38	0	327155712	48	4460
2026-01-22 23:46:21.65	60.28	11.06	-38.4	-40.4	19.5	0.00e+00	0	38	0	331350016	48	4511
2026-01-22 23:46:22.79	60.48	11.10	-38.5	-40.4	19.4	0.00e+00	0	38	0	337641472	48	4544
2026-01-22 23:46:23.64	60.63	11.12	-38.5	-40.5	19.4	0.00e+00	0	38	0	342884352	48	4550
2026-01-22 23:46:24.78	60.83	11.16	-38.5	-40.5	19.4	0.00e+00	0	38	0	349175808	48	4575
2026-01-22 23:46:25.63	60.98	11.18	-38.5	-40.5	19.4	0.00e+00	0	38	0	354418688	48	4559
2026-01-22 23:46:26.77	61.18	11.22	-38.4	-40.4	19.5	0.00e+00	0	38	0	360710144	48	4529
2026-01-22 23:46:27.62	61.33	11.24	-38.4	-40.3	19.6	0.00e+00	0	38	0	364904448	48	4473
2026-01-22 23:46:28.76	61.53	11.28	-38.3	-40.3	19.6	0.00e+00	0	38	0	371195904	48	4453
2026-01-22 23:46:29.61	61.68	11.30	-38.4	-40.3	19.6	0.00e+00	0	38	0	376438784	48	4472
2026-01-22 23:46:30.75	61.88	11.34	-38.3	-40.3	19.6	0.00e+00	0	38	0	382730240	48	4450
2026-01-22 23:46:31.70	62.05	11.36	-38.4	-40.4	19.5	0.00e+00	0	38	0	387973120	48	4503
2026-01-22 23:46:32.87	62.26	11.40	-38.5	-40.5	19.4	0.00e+00	0	38	0	394264576	48	4548
2026-01-22 23:46:33.75	62.42	11.42	-38.5	-40.4	19.4	0.00e+00	0	38	0	399507456	48	4545
2026-01-22 23:46:34.89	62.62	11.46	-38.5	-40.5	19.4	0.00e+00	0	38	0	405798912	48	4576
2026-01-22 23:46:35.80	62.79	11.48	-38.5	-40.5	19.4	0.00e+00	0	38	0	411041792	48	4559
2026-01-22 23:46:36.97	63.00	11.51	-38.4	-40.4	19.5	0.00e+00	0	38	0	418381824	48	4510
2026-01-22 23:46:37.83	63.15	11.54	-38.5	-40.4	19.5	0.00e+00	0	38	0	422576128	48	4538
2026-01-22 23:46:38.96	63.36	11.57	-38.4	-40.3	19.6	0.00e+00	0	38	0	428867584	48	4469
2026-01-22 23:46:39.82	63.51	11.59	-38.4	-40.3	19.5	0.00e+00	0	38	0	434110464	48	4489
2026-01-22 23:46:40.95	63.72	11.62	-38.3	-40.2	19.7	0.00e+00	0	38	0	440401920	48	4421
2026-01-22 23:46:41.81	63.87	11.65	-38.2	-40.1	19.8	0.00e+00	0	38	0	444596224	48	4373
2026-01-22 23:46:42.95	64.08	11.68	-38.2	-40.1	19.8	0.00e+00	0	38	0	450887680	48	4376
2026-01-22 23:46:43.80	64.23	11.70	-38.2	-40.1	19.8	0.00e+00	0	38	0	456130560	48	4373
2026-01-22 23:46:44.94	64.44	11.73	-38.1	-40.0	19.9	0.00e+00	0	38	0	462422016	48	4294
2026-01-22 23:46:45.79	64.60	11.75	-38.0	-39.9	20.0	0.00e+00	0	38	0	467664896	48	4253
2026-01-22 23:46:46.92	64.80	11.78	-37.9	-39.7	19.9	0.00e+00	0	38	0	473956352	47	4436
2026-01-22 23:46:47.78	64.96	11.81	-37.8	-39.7	19.9	0.00e+00	0	38	0	478150656	47	4414
2026-01-22 23:46:48.91	65.17	11.83	-37.8	-39.7	20.0	0.00e+00	0	38	0	484442112	47	4403
2026-01-22 23:46:49.78	65.33	11.86	-37.8	-39.7	19.9	0.00e+00	0	38	0	489684992	47	4423
2026-01-22 23:46:51.09	65.57	11.89	-37.8	-39.7	19.9	0.00e+00	0	38	0	497025024	47	4437
2026-01-22 23:46:51.80	65.70	11.91	-37.8	-39.7	20.0	0.00e+00	0	38	0	501219328	47	4402
2026-01-22 23:46:53.08	65.94	11.94	-37.8	-39.7	19.9	0.00e+00	0	38	0	508559360	47	4423
2026-01-22 23:46:53.80	66.07	11.96	-37.8	-39.7	20.0	0.00e+00	0	38	0	512753664	47	4408
2026-01-22 23:46:55.07	66.31	11.99	-37.8	-39.7	19.9	0.00e+00	0	38	0	520093696	47	4421
2026-01-22 23:46:55.88	66.46	12.00	-37.9	-39.8	19.9	0.00e+00	0	38	0	524288000	47	4458
2026-01-22 23:46:57.01	66.67	12.03	-37.8	-39.6	20.0	0.00e+00	0	38	0	530579456	47	4385
2026-01-22 23:46:57.86	66.83	12.05	-37.6	-39.5	20.1	0.00e+00	0	38	0	534773760	47	4318
2026-01-22 23:46:59.00	67.04	12.08	-37.6	-39.5	20.2	0.00e+00	0	38	0	542113792	47	4292
2026-01-22 23:46:59.85	67.20	12.10	-37.5	-39.4	20.2	0.00e+00	0	38	0	546308096	47	4260
2026-01-22 23:47:00.99	67.41	12.12	-37.5	-39.4	20.2	0.00e+00	0	38	0	552599552	47	4266
2026-01-22 23:47:01.84	67.57	12.14	-37.5	-39.4	20.2	0.00e+00	0	38	0	557842432	47	4264
2026-01-22 23:47:03.03	67.79	12.17	-37.6	-39.5	20.1	0.00e+00	0	38	0	564133888	47	4307
2026-01-22 23:47:03.88	67.95	12.19	-37.7	-39.5	20.1	0.00e+00	0	38	0	569376768	47	4338
2026-01-22 23:47:05.02	68.17	12.21	-37.7	-39.6	20.0	0.00e+00	0	38	0	575668224	47	4377
2026-01-22 23:47:05.87	68.33	12.23	-37.8	-39.7	19.9	0.00e+00	0	38	0	580911104	47	4416
2026-01-22 23:47:07.07	68.55	12.25	-37.9	-39.8	19.9	0.00e+00	0	38	0	587202560	47	4457
2026-01-22 23:47:07.92	68.72	12.27	-37.9	-39.8	19.9	0.00e+00	0	38	0	592445440	47	4459
2026-01-22 23:47:09.12	68.94	12.30	-37.9	-39.9	19.8	0.00e+00	0	38	0	598736896	47	4497
2026-01-22 23:47:09.97	69.10	12.31	-37.9	-39.8	19.9	0.00e+00	0	38	0	603979776	47	4460
2026-01-22 23:47:11.11	69.32	12.34	-37.9	-39.8	19.8	0.00e+00	0	38	0	609222656	47	4469
2026-01-22 23:47:12.40	69.57	12.36	-37.9	-39.8	19.8	0.00e+00	0	38	0	616562688	47	4492
2026-01-22 23:47:13.12	69.70	12.38	-37.9	-39.8	19.8	0.00e+00	0	38	0	620756992	47	4483
2026-01-22 23:47:14.40	69.95	12.40	-37.9	-39.8	19.8	0.00e+00	0	38	0	628097024	47	4490
2026-01-22 23:47:15.11	70.08	12.41	-37.9	-39.8	19.8	0.00e+00	0	38	0	632291328	47	4480
2026-01-22 23:47:16.39	70.33	12.44	-37.9	-39.8	19.8	0.00e+00	0	38	0	639631360	47	4465
2026-01-22 23:47:17.10	70.46	12.45	-37.9	-39.8	19.8	0.00e+00	0	38	0	643825664	47	4485
2026-01-22 23:47:18.53	70.74	12.48	-37.9	-39.8	19.9	0.00e+00	0	38	0	651165696	47	4460
2026-01-22 23:47:19.24	70.87	12.49	-37.8	-39.7	20.0	0.00e+00	0	38	0	655360000	47	4411
2026-01-22 23:47:20.52	71.12	12.51	-37.8	-39.8	19.9	0.00e+00	0	38	0	662700032	47	4458
2026-01-22 23:47:21.23	71.26	12.52	-37.9	-39.8	19.9	0.00e+00	0	38	0	666894336	47	4467
2026-01-22 23:47:22.66	71.53	12.55	-37.9	-39.8	19.8	0.00e+00	0	38	0	674234368	47	4486
2026-01-22 23:47:23.37	71.67	12.56	-37.9	-39.9	19.8	0.00e+00	0	38	0	678428672	47	4508
2026-01-22 23:47:24.65	71.92	12.58	-37.9	-39.9	19.8	0.00e+00	0	38	0	685768704	47	4498
2026-01-22 23:47:25.36	72.05	12.59	-37.9	-39.8	19.9	0.00e+00	0	38	0	689963008	47	4474
2026-01-22 23:47:26.75	72.32	12.61	-38.0	-39.9	19.8	0.00e+00	0	38	0	697303040	47	4507
2026-01-22 23:47:27.46	72.46	12.62	-37.9	-39.8	19.9	0.00e+00	0	38	0	701497344	47	4455
2026-01-22 23:47:28.74	72.71	12.64	-37.8	-39.7	20.0	0.00e+00	0	38	0	708837376	47	4420
2026-01-22 23:47:29.46	72.85	12.65	-37.8	-39.8	19.9	0.00e+00	0	38	0	713031680	47	4442
2026-01-22 23:47:30.74	73.10	12.67	-37.8	-39.7	19.9	0.00e+00	0	38	0	720371712	47	4424
2026-01-22 23:47:31.46	73.24	12.68	-37.8	-39.7	19.9	0.00e+00	0	38	0	724566016	47	4438
2026-01-22 23:47:32.74	73.49	12.70	-37.8	-39.7	19.9	0.00e+00	0	38	0	731906048	47	4432
2026-01-22 23:47:33.47	73.63	12.71	-37.8	-39.7	19.9	0.00e+00	0	38	0	736100352	47	4430
2026-01-22 23:47:34.75	73.88	12.73	-37.9	-39.8	19.9	0.00e+00	0	38	0	742391808	47	4457
2026-01-22 23:47:35.47	74.02	12.74	-37.8	-39.7	20.0	0.00e+00	0	38	0	746586112	47	4395
2026-01-22 23:47:36.75	74.27	12.75	-37.7	-39.6	20.1	0.00e+00	0	38	0	753926144	47	4363
2026-01-22 23:47:37.56	74.43	12.76	-37.8	-39.7	20.0	0.00e+00	0	38	0	758120448	47	4395
2026-01-22 23:47:38.70	74.65	12.78	-37.6	-39.5	20.1	0.00e+00	0	38	0	765460480	47	4324
2026-01-22 23:47:39.55	74.82	12.79	-37.7	-39.5	20.1	0.00e+00	0	38	0	769654784	47	4333
2026-01-22 23:47:40.69	75.04	12.80	-37.5	-39.4	20.2	0.00e+00	0	38	0	775946240	47	4274
2026-01-22 23:47:41.54	75.21	12.81	-37.6	-39.5	20.2	0.00e+00	0	38	0	781189120	47	4303
2026-01-22 23:47:42.68	75.43	12.82	-37.7	-39.5	20.1	0.00e+00	0	38	0	787480576	47	4332
2026-01-22 23:47:43.53	75.60	12.83	-37.7	-39.6	20.0	0.00e+00	0	38	0	792723456	47	4366
2026-01-22 23:47:44.67	75.82	12.84	-37.7	-39.6	20.0	0.00e+00	0	38	0	799014912	47	4371
2026-01-22 23:47:45.52	75.99	12.85	-37.7	-39.6	20.0	0.00e+00	0	38	0	803209216	47	4389
2026-01-22 23:47:46.66	76.21	12.86	-37.7	-39.6	20.1	0.00e+00	0	38	0	809500672	47	4366
2026-01-22 23:47:47.52	76.38	12.87	-37.6	-39.5	20.1	0.00e+00	0	38	0	814743552	47	4330
2026-01-22 23:47:48.65	76.61	12.88	-37.6	-39.5	20.1	0.00e+00	0	38	0	821035008	47	4328
2026-01-22 23:47:49.51	76.77	12.89	-37.6	-39.5	20.1	0.00e+00	0	38	0	825229312	47	4312
2026-01-22 23:47:50.65	77.00	12.90	-37.7	-39.6	20.1	0.00e+00	0	38	0	832569344	47	4346
2026-01-22 23:47:51.50	77.17	12.90	-37.8	-39.7	20.0	0.00e+00	0	38	0	836763648	47	4441
2026-01-22 23:47:52.64	77.39	12.91	-37.7	-39.6	20.1	0.00e+00	0	38	0	843055104	47	4355
2026-01-22 23:47:53.49	77.56	12.92	-37.7	-39.6	20.1	0.00e+00	0	38	0	848297984	47	4345
2026-01-22 23:47:54.62	77.78	12.93	-37.6	-39.5	20.1	0.00e+00	0	38	0	854589440	47	4327
2026-01-22 23:47:55.48	77.95	12.93	-37.6	-39.5	20.1	0.00e+00	0	38	0	859832320	47	4335
2026-01-22 23:47:56.61	78.18	12.94	-37.7	-39.6	20.1	0.00e+00	0	38	0	866123776	47	4362
2026-01-22 23:47:57.47	78.35	12.95	-37.7	-39.6	20.0	0.00e+00	0	38	0	870318080	47	4390
2026-01-22 23:47:58.60	78.57	12.95	-37.7	-39.7	20.0	0.00e+00	0	38	0	876609536	47	4395
2026-01-22 23:47:59.46	78.74	12.96	-37.7	-39.6	20.0	0.00e+00	0	38	0	881852416	47	4377
2026-01-22 23:48:00.59	78.97	12.96	-37.7	-39.6	20.1	0.00e+00	0	38	0	888143872	47	4364
2026-01-22 23:48:01.44	79.14	12.97	-37.7	-39.6	20.1	0.00e+00	0	38	0	893386752	47	4373
2026-01-22 23:48:02.58	79.36	12.97	-37.7	-39.6	20.1	0.00e+00	0	38	0	899678208	47	4368
2026-01-22 23:48:03.43	79.53	12.98	-37.6	-39.5	20.2	0.00e+00	0	38	0	903872512	47	4309
2026-01-22 23:48:04.57	79.76	12.98	-37.7	-39.6	20.1	0.00e+00	0	38	0	910163968	47	4347
2026-01-22 23:48:05.42	79.93	12.99	-37.6	-39.5	20.1	0.00e+00	0	38	0	915406848	47	4335
2026-01-22 23:48:06.56	80.15	12.99	-37.7	-39.6	20.0	0.00e+00	0	38	0	921698304	47	4386
2026-01-22 23:48:07.41	80.32	12.99	-37.8	-39.7	20.0	0.00e+00	0	38	0	926941184	47	4414
2026-01-22 23:48:08.55	80.55	13.00	-37.9	-39.8	19.9	0.00e+00	0	38	0	933232640	47	4450
2026-01-22 23:48:09.40	80.72	13.00	-37.8	-39.8	19.9	0.00e+00	0	38	0	937426944	47	4444
2026-01-22 23:48:10.52	80.94	13.00	-37.9	-39.8	19.9	0.00e+00	0	38	0	943718400	47	4492
2026-01-22 23:48:11.38	81.11	13.00	-37.8	-39.8	19.9	0.00e+00	0	38	0	948961280	47	4459
2026-01-22 23:48:12.51	81.34	13.00	-37.8	-39.8	19.9	0.00e+00	0	38	0	955252736	47	4456
2026-01-22 23:48:13.36	81.50	13.01	-37.8	-39.8	19.9	0.00e+00	0	38	0	960495616	47	4468
2026-01-22 23:48:14.62	81.76	13.01	-37.8	-39.7	19.9	0.00e+00	0	38	0	966787072	47	4429
2026-01-22 23:48:15.42	81.91	13.01	-37.8	-39.7	19.9	0.00e+00	0	38	0	972029952	47	4428
2026-01-22 23:48:16.56	82.14	13.01	-37.6	-39.5	20.1	0.00e+00	0	38	0	978321408	47	4336
2026-01-22 23:48:17.41	82.31	13.01	-37.6	-39.5	20.1	0.00e+00	0	38	0	982515712	47	4332
2026-01-22 23:48:18.55	82.54	13.01	-37.6	-39.6	20.1	0.00e+00	0	38	0	989855744	47	4343
2026-01-22 23:48:19.40	82.71	13.01	-37.7	-39.6	20.0	0.00e+00	0	38	0	994050048	47	4391
2026-01-22 23:48:20.54	82.93	13.01	-37.8	-39.8	19.9	0.00e+00	0	38	0	1000341504	47	4446
2026-01-22 23:48:21.39	83.10	13.01	-37.8	-39.7	19.9	0.00e+00	0	38	0	1005584384	47	4439
2026-01-22 23:48:22.53	83.33	13.00	-37.9	-39.9	19.8	0.00e+00	0	38	0	1011875840	47	4503
2026-01-22 23:48:23.38	83.50	13.00	-37.8	-39.8	19.8	0.00e+00	0	38	0	1016070144	47	4468
2026-01-22 23:48:24.52	83.73	13.00	-37.9	-39.9	19.8	0.00e+00	0	38	0	1023410176	47	4498
2026-01-22 23:48:25.37	83.89	13.00	-37.8	-39.8	19.9	0.00e+00	0	38	0	1027604480	47	4456
2026-01-22 23:48:26.51	84.12	13.00	-37.9	-39.8	19.8	0.00e+00	0	38	0	1033895936	47	4489
2026-01-22 23:48:27.36	84.29	12.99	-37.8	-39.7	20.0	0.00e+00	0	38	0	1039138816	47	4432
2026-01-22 23:48:28.50	84.52	12.99	-37.8	-39.7	20.0	0.00e+00	0	38	0	1045430272	47	4434
2026-01-22 23:48:29.35	84.69	12.99	-37.8	-39.7	19.9	0.00e+00	0	38	0	1050673152	47	4439
2026-01-22 23:48:30.59	84.93	12.98	-37.9	-39.9	19.8	0.00e+00	0	38	0	1056964608	47	4498
2026-01-22 23:48:31.85	85.18	12.98	-37.9	-39.9	19.8	0.00e+00	0	38	0	1064304640	47	4494
2026-01-22 23:48:32.63	85.34	12.97	-37.9	-39.8	19.9	0.00e+00	0	38	0	1068498944	47	4476
2026-01-22 23:48:33.90	85.59	12.97	-37.9	-39.9	19.8	0.00e+00	0	38	0	1075838976	47	4505
2026-01-22 23:48:34.62	85.73	12.96	-37.9	-39.8	19.9	0.00e+00	0	38	0	1080033280	47	4461
2026-01-22 23:48:35.89	85.98	12.95	-37.8	-39.7	19.9	0.00e+00	0	38	0	1086324736	47	4437
2026-01-22 23:48:36.61	86.13	12.95	-37.9	-39.8	19.9	0.00e+00	0	38	0	1090519040	47	4467
2026-01-22 23:48:37.89	86.38	12.94	-37.9	-39.8	19.9	0.00e+00	0	38	0	1097859072	47	4478
2026-01-22 23:48:38.60	86.52	12.94	-37.9	-39.8	19.9	0.00e+00	0	38	0	1102053376	47	4467
2026-01-22 23:48:39.88	86.78	12.93	-37.8	-39.8	19.9	0.00e+00	0	38	0	1109393408	47	4459
2026-01-22 23:48:40.61	86.92	12.92	-37.8	-39.7	19.9	0.00e+00	0	38	0	1113587712	47	4435
2026-01-22 23:48:42.03	87.20	12.91	-37.8	-39.7	19.9	0.00e+00	0	38	0	1120927744	47	4435
2026-01-22 23:48:42.74	87.34	12.91	-37.8	-39.7	19.9	0.00e+00	0	38	0	1125122048	47	4438
2026-01-22 23:48:44.02	87.59	12.90	-37.8	-39.7	19.9	0.00e+00	0	38	0	1132462080	47	4438
2026-01-22 23:48:44.73	87.73	12.89	-37.9	-39.8	19.9	0.00e+00	0	38	0	1136656384	47	4466
2026-01-22 23:48:46.13	88.01	12.88	-37.9	-39.8	19.9	0.00e+00	0	38	0	1143996416	47	4461
2026-01-22 23:48:46.84	88.15	12.87	-37.8	-39.8	19.9	0.00e+00	0	38	0	1148190720	47	4444
2026-01-22 23:48:48.12	88.40	12.86	-37.8	-39.7	20.0	0.00e+00	0	38	0	1155530752	47	4393
2026-01-22 23:48:49.23	88.62	12.85	-37.8	-39.8	19.9	0.00e+00	0	38	0	1161822208	47	4447
2026-01-22 23:48:50.38	88.85	12.84	-37.8	-39.7	20.0	0.00e+00	0	38	0	1168113664	47	4422
2026-01-22 23:48:51.39	89.05	12.83	-37.8	-39.8	19.9	0.00e+00	0	38	0	1174405120	47	4454
2026-01-22 23:48:52.38	89.24	12.82	-37.9	-39.8	19.9	0.00e+00	0	38	0	1179648000	47	4471
2026-01-22 23:48:53.38	89.44	12.81	-37.9	-39.8	19.9	0.00e+00	0	38	0	1184890880	47	4468
2026-01-22 23:48:54.37	89.63	12.79	-37.8	-39.7	20.0	0.00e+00	0	38	0	1191182336	47	4409
2026-01-22 23:48:55.37	89.83	12.78	-37.8	-39.7	20.0	0.00e+00	0	38	0	1196425216	47	4410
2026-01-22 23:48:56.36	90.02	12.77	-37.7	-39.5	20.1	0.00e+00	0	38	0	1201668096	47	4340
2026-01-22 23:48:57.36	90.22	12.76	-37.6	-39.5	20.1	0.00e+00	0	38	0	1207959552	47	4331
2026-01-22 23:48:58.35	90.41	12.75	-37.6	-39.5	20.1	0.00e+00	0	38	0	1213202432	47	4324
2026-01-22 23:48:59.35	90.61	12.73	-37.7	-39.6	20.1	0.00e+00	0	38	0	1218445312	47	4355
2026-01-22 23:49:00.34	90.80	12.72	-37.8	-39.7	20.0	0.00e+00	0	38	0	1224736768	47	4400
2026-01-22 23:49:01.33	91.00	12.71	-37.8	-39.7	20.0	0.00e+00	0	38	0	1229979648	47	4406
2026-01-22 23:49:02.39	91.20	12.69	-37.8	-39.7	20.0	0.00e+00	0	38	0	1236271104	47	4406
2026-01-22 23:49:03.25	91.37	12.68	-37.9	-39.8	19.9	0.00e+00	0	38	0	1240465408	47	4453
2026-01-22 23:49:04.57	91.63	12.66	-37.9	-39.8	19.9	0.00e+00	0	38	0	1247805440	47	4462
2026-01-22 23:49:05.28	91.77	12.65	-37.9	-39.8	19.8	0.00e+00	0	38	0	1251999744	47	4483
2026-01-22 23:49:06.57	92.02	12.63	-37.9	-39.8	19.8	0.00e+00	0	38	0	1259339776	47	4479
2026-01-22 23:49:07.29	92.16	12.62	-37.9	-39.9	19.8	0.00e+00	0	38	0	1263534080	47	4499
2026-01-22 23:49:08.58	92.41	12.60	-37.9	-39.9	19.8	0.00e+00	0	38	0	1270874112	47	4503
2026-01-22 23:49:09.29	92.55	12.59	-38.0	-39.9	19.8	0.00e+00	0	38	0	1275068416	47	4536
2026-01-22 23:49:10.57	92.79	12.57	-38.1	-40.1	19.6	0.00e+00	0	38	0	1282408448	47	4604
2026-01-22 23:49:11.28	92.93	12.56	-38.1	-40.0	19.7	0.00e+00	0	38	0	1285554176	47	4572
2026-01-22 23:49:12.56	93.18	12.54	-38.1	-40.1	19.6	0.00e+00	0	38	0	1292894208	47	4601
2026-01-22 23:49:13.29	93.32	12.52	-38.1	-40.1	19.6	0.00e+00	0	38	0	1297088512	47	4607
2026-01-22 23:49:14.56	93.56	12.50	-38.2	-40.1	19.5	0.00e+00	0	38	0	1304428544	47	4650
2026-01-22 23:49:15.27	93.70	12.49	-38.2	-40.2	19.5	0.00e+00	0	38	0	1308622848	47	4655
2026-01-22 23:49:16.65	93.97	12.47	-38.2	-40.1	19.5	0.00e+00	0	38	0	1315962880	47	4631
2026-01-22 23:49:17.36	94.10	12.45	-38.2	-40.1	19.6	0.00e+00	0	38	0	1320157184	47	4630
2026-01-22 23:49:18.64	94.35	12.43	-38.2	-40.1	19.6	0.00e+00	0	38	0	1327497216	47	4611
2026-01-22 23:49:19.35	94.48	12.42	-38.3	-40.2	19.5	0.00e+00	0	38	0	1330642944	47	4686
2026-01-22 23:49:20.75	94.75	12.39	-38.3	-40.3	19.5	0.00e+00	0	38	0	1339031552	47	4715
2026-01-22 23:49:21.47	94.89	12.38	-38.2	-40.1	19.6	0.00e+00	0	38	0	1343225856	47	4626
2026-01-22 23:49:22.74	95.13	12.35	-38.2	-40.1	19.6	0.00e+00	0	38	0	1350565888	47	4639
2026-01-22 23:49:23.45	95.27	12.34	-38.2	-40.1	19.6	0.00e+00	0	38	0	1354760192	47	4651
2026-01-22 23:49:24.83	95.53	12.31	-38.2	-40.2	19.5	0.00e+00	0	38	0	1362100224	47	4672
2026-01-22 23:49:25.54	95.67	12.30	-38.2	-40.2	19.5	0.00e+00	0	38	0	1366294528	47	4662
2026-01-22 23:49:26.82	95.91	12.27	-38.2	-40.1	19.6	0.00e+00	0	38	0	1373634560	47	4647
2026-01-22 23:49:27.53	96.04	12.25	-38.2	-40.1	19.6	0.00e+00	0	38	0	1376780288	47	4621
2026-01-22 23:49:28.81	96.29	12.23	-38.2	-40.1	19.6	0.00e+00	0	38	0	1384120320	47	4640
2026-01-22 23:49:29.55	96.43	12.21	-38.2	-40.1	19.6	0.00e+00	0	38	0	1388314624	47	4619
2026-01-22 23:49:30.83	96.67	12.18	-38.1	-40.1	19.6	0.00e+00	0	38	0	1395654656	47	4620
2026-01-22 23:49:31.54	96.80	12.17	-38.2	-40.1	19.5	0.00e+00	0	38	0	1399848960	47	4647
2026-01-22 23:49:32.81	97.04	12.14	-38.2	-40.2	19.5	0.00e+00	0	38	0	1407188992	47	4658
2026-01-22 23:49:33.54	97.18	12.12	-38.2	-40.1	19.6	0.00e+00	0	38	0	1411383296	47	4645
2026-01-22 23:49:34.82	97.42	12.10	-38.2	-40.1	19.6	0.00e+00	0	38	0	1418723328	47	4624
2026-01-22 23:49:35.54	97.55	12.08	-38.2	-40.1	19.6	0.00e+00	0	38	0	1421869056	47	4623
2026-01-22 23:49:36.82	97.79	12.05	-38.2	-40.1	19.6	0.00e+00	0	38	0	1429209088	47	4620
2026-01-22 23:49:37.56	97.93	12.03	-38.1	-40.0	19.6	0.00e+00	0	38	0	1433403392	47	4593
2026-01-22 23:49:38.84	98.17	12.00	-38.2	-40.2	19.5	0.00e+00	0	38	0	1440743424	47	4654
2026-01-22 23:49:39.68	98.33	11.98	-38.3	-40.3	19.4	0.00e+00	0	38	0	1445986304	47	4720
2026-01-22 23:49:40.82	98.54	11.95	-38.4	-40.4	19.3	0.00e+00	0	38	0	1452277760	47	4762
2026-01-22 23:49:41.67	98.70	11.93	-38.4	-40.4	19.3	0.00e+00	0	38	0	1456472064	47	4763
2026-01-22 23:49:42.81	98.91	11.91	-38.4	-40.4	19.3	0.00e+00	0	38	0	1463812096	47	4770
2026-01-22 23:49:43.66	99.07	11.88	-38.4	-40.4	19.3	0.00e+00	0	38	0	1468006400	47	4764
2026-01-22 23:49:44.79	99.28	11.86	-38.4	-40.4	19.3	0.00e+00	0	38	0	1474297856	47	4792
2026-01-22 23:49:45.64	99.43	11.83	-38.5	-40.4	19.3	0.00e+00	0	38	0	1479540736	47	4804
2026-01-22 23:49:46.86	99.66	11.80	-38.3	-40.2	19.5	0.00e+00	0	38	0	1485832192	47	4694
2026-01-22 23:49:47.71	99.81	11.78	-38.3	-40.2	19.4	0.00e+00	0	38	0	1491075072	47	4702
2026-01-22 23:49:48.91	100.03	11.75	-38.3	-40.3	19.4	0.00e+00	0	38	0	1497366528	47	4730
2026-01-22 23:49:49.76	100.19	11.73	-38.4	-40.3	19.4	0.00e+00	0	38	0	1502609408	47	4746
2026-01-22 23:49:50.96	100.41	11.70	-38.4	-40.4	19.3	0.00e+00	0	38	0	1508900864	47	4773
2026-01-22 23:49:51.82	100.57	11.67	-38.3	-40.3	19.4	0.00e+00	0	38	0	1514143744	47	4728
2026-01-22 23:49:53.02	100.79	11.64	-38.4	-40.3	19.4	0.00e+00	0	38	0	1520435200	47	4726
2026-01-22 23:49:53.87	100.94	11.62	-38.3	-40.3	19.4	0.00e+00	0	38	0	1525678080	47	4726
2026-01-22 23:49:55.07	101.16	11.58	-38.3	-40.2	19.5	0.00e+00	0	38	0	1531969536	47	4681
2026-01-22 23:49:55.92	101.31	11.56	-38.2	-40.1	19.5	0.00e+00	0	38	0	1537212416	47	4645
2026-01-22 23:49:57.06	101.52	11.53	-38.3	-40.2	19.4	0.00e+00	0	38	0	1543503872	47	4699
2026-01-22 23:49:57.91	101.67	11.50	-38.3	-40.3	19.4	0.00e+00	0	38	0	1548746752	47	4730
2026-01-22 23:49:59.04	101.88	11.47	-38.4	-40.4	19.3	0.00e+00	0	38	0	1553989632	47	4768
2026-01-22 23:49:59.90	102.03	11.45	-38.5	-40.5	19.2	0.00e+00	0	38	0	1559232512	47	4837
2026-01-22 23:50:01.03	102.23	11.41	-38.5	-40.4	19.2	0.00e+00	0	38	0	1565523968	47	4808
2026-01-22 23:50:01.89	102.39	11.39	-38.4	-40.4	19.3	0.00e+00	0	38	0	1570766848	47	4780
2026-01-22 23:50:03.02	102.59	11.36	-38.4	-40.4	19.3	0.00e+00	0	38	0	1577058304	47	4795
2026-01-22 23:50:03.88	102.74	11.33	-38.4	-40.4	19.3	0.00e+00	0	38	0	1581252608	47	4781
2026-01-22 23:50:05.01	102.95	11.30	-38.4	-40.4	19.3	0.00e+00	0	38	0	1588592640	47	4765
2026-01-22 23:50:05.86	103.10	11.27	-38.5	-40.5	19.2	0.00e+00	0	38	0	1592786944	47	4830
2026-01-22 23:50:07.00	103.30	11.24	-38.6	-40.5	19.2	0.00e+00	0	38	0	1599078400	47	4862
2026-01-22 23:50:07.86	103.45	11.21	-38.6	-40.5	19.2	0.00e+00	0	38	0	1604321280	47	4863
2026-01-22 23:50:08.99	103.65	11.18	-38.6	-40.6	19.1	0.00e+00	0	38	0	1610612736	47	4916
2026-01-22 23:50:09.85	103.80	11.15	-38.8	-40.7	19.2	0.00e+00	0	38	0	1614807040	48	4704
2026-01-22 23:50:11.03	104.01	11.11	-38.7	-40.7	19.2	0.00e+00	0	38	0	1622147072	48	4664
2026-01-22 23:50:11.89	104.16	11.09	-38.8	-40.8	19.2	0.00e+00	0	38	0	1626341376	48	4714
2026-01-22 23:50:13.10	104.37	11.05	-38.8	-40.7	19.2	0.00e+00	0	38	0	1633681408	48	4705
2026-01-22 23:50:13.96	104.52	11.02	-38.7	-40.6	19.3	0.00e+00	0	38	0	1638924288	48	4645
2026-01-22 23:50:15.09	104.72	10.99	-38.7	-40.6	19.3	0.00e+00	0	38	0	1645215744	48	4639
2026-01-22 23:50:15.95	104.87	10.96	-38.8	-40.8	19.1	0.00e+00	0	38	0	1649410048	48	4716
2026-01-22 23:50:17.08	105.07	10.92	-38.7	-40.7	19.2	0.00e+00	0	38	0	1655701504	48	4676
2026-01-22 23:50:17.99	105.23	10.89	-38.8	-40.7	19.1	0.00e+00	0	38	0	1660944384	48	4704
2026-01-22 23:50:19.03	105.41	10.86	-38.8	-40.8	19.1	0.00e+00	0	38	0	1667235840	48	4746
2026-01-22 23:50:20.02	105.58	10.83	-38.9	-40.9	19.0	0.00e+00	0	38	0	1672478720	48	4772
2026-01-22 23:50:21.01	105.75	10.79	-38.9	-40.9	19.1	0.00e+00	0	38	0	1677721600	48	4760
2026-01-22 23:50:22.01	105.92	10.76	-38.9	-40.8	19.1	0.00e+00	0	38	0	1684013056	48	4749
2026-01-22 23:50:23.00	106.09	10.73	-38.9	-40.9	19.0	0.00e+00	0	38	0	1689255936	48	4762
2026-01-22 23:50:23.99	106.26	10.69	-38.8	-40.8	19.1	0.00e+00	0	38	0	1694498816	48	4728
2026-01-22 23:50:24.99	106.43	10.66	-38.9	-40.8	19.1	0.00e+00	0	38	0	1700790272	48	4746
2026-01-22 23:50:25.98	106.60	10.63	-38.8	-40.8	19.1	0.00e+00	0	38	0	1706033152	48	4723
2026-01-22 23:50:26.98	106.77	10.59	-38.9	-40.9	19.0	0.00e+00	0	38	0	1711276032	48	4770
2026-01-22 23:50:27.97	106.94	10.56	-38.9	-40.9	19.0	0.00e+00	0	38	0	1717567488	48	4761
2026-01-22 23:50:28.97	107.11	10.53	-38.9	-40.8	19.0	0.00e+00	0	38	0	1722810368	48	4758
2026-01-22 23:50:29.96	107.28	10.49	-38.9	-40.9	19.0	0.00e+00	0	38	0	1728053248	48	4782
2026-01-22 23:50:30.96	107.44	10.46	-39.0	-41.0	18.9	0.00e+00	0	38	0	1734344704	48	4863
2026-01-22 23:50:31.95	107.61	10.42	-39.0	-41.0	18.9	0.00e+00	0	38	0	1739587584	48	4848
2026-01-22 23:50:32.95	107.78	10.39	-39.0	-41.1	18.8	0.00e+00	0	38	0	1745879040	48	4873
2026-01-22 23:50:33.94	107.94	10.35	-39.0	-41.1	18.8	0.00e+00	0	38	0	1751121920	48	4874
2026-01-22 23:50:34.94	108.11	10.32	-39.0	-41.0	18.9	0.00e+00	0	38	0	1756364800	48	4860
2026-01-22 23:50:35.93	108.28	10.28	-39.1	-41.1	18.8	0.00e+00	0	38	0	1761607680	48	4917
2026-01-22 23:50:36.93	108.44	10.25	-39.0	-41.0	18.9	0.00e+00	0	38	0	1767899136	48	4863
2026-01-22 23:50:37.92	108.61	10.21	-39.0	-41.0	18.9	0.00e+00	0	38	0	1773142016	48	4852
2026-01-22 23:50:38.92	108.77	10.17	-39.0	-41.0	18.9	0.00e+00	0	38	0	1778384896	48	4858
2026-01-22 23:50:39.91	108.94	10.14	-39.0	-41.0	18.9	0.00e+00	0	38	0	1784676352	48	4821
2026-01-22 23:50:40.90	109.10	10.10	-39.0	-41.0	18.9	0.00e+00	0	38	0	1789919232	48	4860
2026-01-22 23:50:41.90	109.26	10.07	-39.0	-41.0	18.9	0.00e+00	0	38	0	1796210688	48	4852
2026-01-22 23:50:42.94	109.43	10.03	-39.0	-41.0	18.9	0.00e+00	0	38	0	1801453568	48	4839
2026-01-22 23:50:43.89	109.59	9.99	-39.1	-41.1	18.8	0.00e+00	0	38	0	1806696448	48	4880
2026-01-22 23:50:44.88	109.75	9.96	-38.9	-40.9	18.9	0.00e+00	0	38	0	1811939328	48	4793
2026-01-22 23:50:45.88	109.91	9.92	-39.0	-41.0	18.8	0.00e+00	0	38	0	1818230784	48	4869
2026-01-22 23:50:46.88	110.08	9.88	-39.0	-41.2	18.7	0.00e+00	0	38	0	1823473664	48	4972
2026-01-22 23:50:47.87	110.24	9.85	-38.7	-41.1	18.8	0.00e+00	0	38	0	1828716544	48	4900
2026-01-22 23:50:48.86	110.40	9.81	-38.7	-41.1	18.7	0.00e+00	0	38	0	1835008000	48	4916
2026-01-22 23:50:49.86	110.56	9.77	-38.9	-41.3	18.6	0.00e+00	0	38	0	1840250880	48	4999
2026-01-22 23:50:50.85	110.72	9.73	-39.1	-41.4	18.5	0.00e+00	0	38	0	1846542336	48	5071
2026-01-22 23:50:51.85	110.88	9.70	-39.2	-41.4	18.4	0.00e+00	0	38	0	1851785216	49	4803
2026-01-22 23:50:52.84	111.04	9.66	-39.3	-41.5	18.4	0.00e+00	0	38	0	1857028096	49	4819
2026-01-22 23:50:53.84	111.20	9.62	-39.4	-41.5	18.3	0.00e+00	0	38	0	1862270976	49	4865
2026-01-22 23:50:54.86	111.36	9.58	-39.6	-41.7	18.2	0.00e+00	0	38	0	1868562432	49	4942
2026-01-22 23:50:55.86	111.52	9.54	-39.5	-41.6	18.3	0.00e+00	0	38	0	1873805312	49	4879
2026-01-22 23:50:56.86	111.67	9.50	-39.4	-41.5	18.4	0.00e+00	0	38	0	1880096768	49	4816
2026-01-22 23:50:57.93	111.84	9.46	-39.4	-41.4	18.4	0.00e+00	0	38	0	1885339648	49	4797
2026-01-22 23:50:58.82	111.98	9.43	-39.4	-41.5	18.4	0.00e+00	0	38	0	1890582528	49	4815
2026-01-22 23:50:59.95	112.16	9.38	-39.4	-41.5	18.4	0.00e+00	0	38	0	1896873984	49	4819
2026-01-22 23:51:00.81	112.30	9.35	-39.4	-41.4	18.4	0.00e+00	0	38	0	1902116864	49	4804
2026-01-22 23:51:01.94	112.47	9.31	-39.4	-41.4	18.4	0.00e+00	0	38	0	1908408320	49	4810
2026-01-22 23:51:02.80	112.61	9.27	-39.5	-41.6	18.3	0.00e+00	0	38	0	1912602624	49	4890
2026-01-22 23:51:03.93	112.78	9.23	-39.6	-41.6	18.2	0.00e+00	0	38	0	1919942656	49	4906
2026-01-22 23:51:04.78	112.91	9.19	-39.6	-41.6	18.2	0.00e+00	0	38	0	1924136960	49	4923
2026-01-22 23:51:05.92	113.09	9.15	-39.6	-41.7	18.2	0.00e+00	0	38	0	1930428416	49	4929
2026-01-22 23:51:06.77	113.22	9.11	-39.6	-41.6	18.2	0.00e+00	0	38	0	1935671296	49	4916
2026-01-22 23:51:07.97	113.41	9.07	-39.6	-41.7	18.2	0.00e+00	0	38	0	1941962752	49	4955
2026-01-22 23:51:08.83	113.54	9.03	-39.6	-41.8	18.1	0.00e+00	0	38	0	1947205632	49	4986
2026-01-22 23:51:10.01	113.72	8.98	-49.3	-61.2	3.8	4.05e-01	0	38	104	1952448512	69	14778
2026-01-22 23:51:10.86	113.85	8.95	-49.6	-61.5	3.8	8.47e-01	0	38	104	1952448512	69	15357
2026-01-22 23:51:12.00	114.02	8.90	-49.7	-61.9	3.8	8.47e-01	0	38	104	1952448512	70	15215
2026-01-22 23:51:12.85	114.15	8.87	-49.9	-62.0	3.8	8.47e-01	0	38	104	1952448512	70	15308
2026-01-22 23:51:13.98	114.32	8.82	-49.9	-62.0	3.8	8.48e-01	0	38	104	1952448512	70	15342
2026-01-22 23:51:14.83	114.45	8.79	-49.8	-62.1	3.8	8.48e-01	0	38	104	1952448512	70	15494
2026-01-22 23:51:15.97	114.62	8.74	-49.9	-62.1	3.8	8.47e-01	0	38	104	1952448512	70	15546
2026-01-22 23:51:16.82	114.75	8.71	-49.9	-62.1	3.8	8.47e-01	0	38	104	1952448512	70	15514
2026-01-22 23:51:17.96	114.92	8.66	-49.9	-62.2	3.8	8.46e-01	0	38	104	1952448512	70	15593
2026-01-22 23:51:18.81	115.05	8.63	-49.7	-62.1	3.8	8.46e-01	0	38	104	1952448512	70	15492
2026-01-22 23:51:19.94	115.22	8.58	-49.6	-62.2	3.8	8.45e-01	0	38	104	1952448512	70	15615
2026-01-22 23:51:20.79	115.34	8.54	-49.6	-62.2	3.8	8.47e-01	0	38	104	1952448512	70	15646
2026-01-22 23:51:21.93	115.51	8.50	-49.7	-62.2	3.8	8.47e-01	0	38	104	1952448512	70	15644
2026-01-22 23:51:22.78	115.64	8.46	-49.6	-62.2	3.8	8.48e-01	0	38	104	1952448512	70	15615
2026-01-22 23:51:23.92	115.81	8.41	-49.7	-62.2	3.8	8.47e-01	0	38	104	1952448512	70	15620
2026-01-22 23:51:24.77	115.93	8.38	-49.7	-62.2	3.8	8.47e-01	0	38	104	1952448512	70	15616
2026-01-22 23:51:25.90	116.10	8.33	-49.6	-62.2	3.8	8.47e-01	0	38	104	1952448512	70	15633
2026-01-22 23:51:26.76	116.22	8.30	-49.6	-62.2	3.8	8.46e-01	0	38	104	1952448512	70	15633
2026-01-22 23:51:27.89	116.39	8.25	-49.7	-62.2	3.8	8.47e-01	0	38	104	1952448512	70	15651
2026-01-22 23:51:28.74	116.51	8.21	-49.6	-62.1	3.8	8.46e-01	0	38	104	1952448512	70	15567
2026-01-22 23:51:29.88	116.68	8.16	-49.8	-62.2	3.8	8.46e-01	0	38	104	1952448512	70	15611
2026-01-22 23:51:30.73	116.80	8.13	-49.8	-62.1	3.8	8.46e-01	0	38	104	1952448512	70	15528
2026-01-22 23:51:31.86	116.96	8.08	-49.8	-62.1	3.8	8.46e-01	0	38	104	1952448512	70	15525
2026-01-22 23:51:32.71	117.08	8.04	-49.8	-62.1	3.8	8.47e-01	0	38	104	1952448512	70	15552
2026-01-22 23:51:33.85	117.25	8.00	-49.8	-62.1	3.8	8.48e-01	0	38	104	1952448512	70	15552
2026-01-22 23:51:34.70	117.37	7.96	-49.8	-62.1	3.8	8.48e-01	0	38	104	1952448512	70	15486
2026-01-22 23:51:35.84	117.53	7.91	-49.8	-62.1	3.8	8.47e-01	0	38	104	1952448512	70	15509
2026-01-22 23:51:36.69	117.65	7.87	-49.8	-62.1	3.8	8.47e-01	0	38	104	1952448512	70	15482
2026-01-22 23:51:37.83	117.81	7.83	-49.8	-62.1	3.8	8.47e-01	0	38	104	1952448512	70	15500
2026-01-22 23:51:38.68	117.93	7.79	-49.8	-62.1	3.8	8.46e-01	0	38	104	1952448512	70	15493
2026-01-22 23:51:39.81	118.09	7.74	-49.8	-62.1	3.8	8.47e-01	0	38	104	1952448512	70	15478
2026-01-22 23:51:40.67	118.21	7.70	-49.8	-62.1	3.8	8.47e-01	0	38	104	1952448512	70	15481
2026-01-22 23:51:41.80	118.37	7.65	-49.8	-62.1	3.8	8.47e-01	0	38	104	1952448512	70	15471
2026-01-22 23:51:42.65	118.49	7.62	-49.8	-62.1	3.8	8.46e-01	0	38	104	1952448512	70	15454
2026-01-22 23:51:43.79	118.65	7.57	-49.8	-62.1	3.8	8.47e-01	0	38	104	1952448512	70	15453
2026-01-22 23:51:44.64	118.77	7.53	-49.8	-62.1	3.8	8.46e-01	0	38	104	1952448512	70	15442
2026-01-22 23:51:45.77	118.92	7.48	-49.8	-62.1	3.8	8.46e-01	0	38	104	1952448512	70	15478
2026-01-22 23:51:46.63	119.04	7.45	-49.8	-62.1	3.8	8.48e-01	0	38	104	1952448512	70	15414
2026-01-22 23:51:47.76	119.20	7.40	-49.8	-62.1	3.8	8.48e-01	0	38	104	1952448512	70	15429
2026-01-22 23:51:48.61	119.32	7.36	-49.8	-62.1	3.8	8.48e-01	0	38	104	1952448512	70	15473
2026-01-22 23:51:49.75	119.47	7.31	-49.8	-62.1	3.8	8.47e-01	0	38	104	1952448512	70	15433
2026-01-22 23:51:50.60	119.59	7.27	-49.8	-62.1	3.8	8.47e-01	0	38	104	1952448512	70	15466
2026-01-22 23:51:51.73	119.74	7.22	-49.8	-62.1	3.8	8.47e-01	0	38	104	1952448512	70	15418
2026-01-22 23:51:52.58	119.86	7.19	-49.8	-62.1	3.8	8.48e-01	0	38	104	1952448512	70	15417
2026-01-22 23:51:53.72	120.01	7.14	-49.8	-62.1	3.8	8.47e-01	0	38	104	1952448512	70	15438
2026-01-22 23:51:54.57	120.13	7.10	-49.8	-62.1	3.8	8.47e-01	0	38	104	1952448512	70	15490
2026-01-22 23:51:55.71	120.28	7.05	-49.8	-62.1	3.8	8.46e-01	0	38	104	1952448512	70	15477
2026-01-22 23:51:56.56	120.39	7.01	-49.8	-62.1	3.8	8.47e-01	0	38	104	1952448512	70	15453
2026-01-22 23:51:57.70	120.55	6.96	-49.8	-62.1	3.8	8.46e-01	0	38	104	1952448512	70	15441
2026-01-22 23:51:58.55	120.66	6.92	-49.8	-62.1	3.8	8.46e-01	0	38	104	1952448512	70	15405
2026-01-22 23:51:59.68	120.81	6.87	-49.8	-62.0	3.8	8.47e-01	0	39	104	1952448512	70	15355
2026-01-22 23:52:00.53	120.92	6.84	-49.8	-62.1	3.8	8.46e-01	0	38	104	1952448512	70	15429
2026-01-22 23:52:01.67	121.07	6.78	-49.8	-62.1	3.8	8.47e-01	0	38	104	1952448512	70	15440
2026-01-22 23:52:02.52	121.19	6.75	-49.8	-62.1	3.8	8.48e-01	0	38	104	1952448512	70	15414
2026-01-22 23:52:03.65	121.33	6.70	-49.8	-62.1	3.8	8.48e-01	0	38	104	1952448512	70	15403
2026-01-22 23:52:04.50	121.45	6.66	-49.8	-62.0	3.8	8.47e-01	0	38	104	1952448512	70	15392
2026-01-22 23:52:05.64	121.60	6.61	-49.8	-62.1	3.8	8.47e-01	0	38	104	1952448512	70	15452
2026-01-22 23:52:06.49	121.71	6.57	-49.8	-62.1	3.8	8.47e-01	0	38	104	1952448512	70	15463
2026-01-22 23:52:07.63	121.85	6.52	-49.8	-62.0	3.8	8.46e-01	0	38	104	1952448512	70	15385
2026-01-22 23:52:08.48	121.96	6.48	-49.8	-62.1	3.8	8.47e-01	0	38	104	1952448512	70	15450
2026-01-22 23:52:09.61	122.11	6.43	-49.8	-62.1	3.8	8.47e-01	0	38	104	1952448512	70	15431
2026-01-22 23:52:10.47	122.22	6.39	-49.8	-62.1	3.8	8.47e-01	0	38	104	1952448512	70	15427
2026-01-22 23:52:11.60	122.37	6.34	-49.8	-62.0	3.8	8.47e-01	0	38	104	1952448512	70	15401
2026-01-22 23:52:12.45	122.48	6.30	-49.8	-62.0	3.8	8.48e-01	0	38	104	1952448512	70	15388
2026-01-22 23:52:13.59	122.62	6.25	-49.8	-62.1	3.8	8.47e-01	0	39	104	1952448512	70	15447
2026-01-22 23:52:14.44	122.73	6.21	-49.8	-62.1	3.8	8.47e-01	0	38	104	1952448512	70	15451
2026-01-22 23:52:15.58	122.87	6.16	-49.8	-62.0	3.8	8.46e-01	0	38	104	1952448512	70	15401
2026-01-22 23:52:16.43	122.98	6.12	-49.8	-62.0	3.8	8.46e-01	0	38	104	1952448512	70	15375
2026-01-22 23:52:17.56	123.12	6.07	-49.8	-62.1	3.8	8.46e-01	0	38	104	1952448512	70	15494
2026-01-22 23:52:18.41	123.23	6.04	-49.8	-62.0	3.8	8.47e-01	0	39	104	1952448512	70	15389
2026-01-22 23:52:19.55	123.37	5.98	-49.8	-62.1	3.8	8.46e-01	0	38	104	1952448512	70	15417
2026-01-22 23:52:20.40	123.48	5.95	-49.8	-62.1	3.8	8.47e-01	0	38	104	1952448512	70	15445
2026-01-22 23:52:21.54	123.62	5.89	-49.8	-62.1	3.8	8.47e-01	0	38	104	1952448512	70	15456
2026-01-22 23:52:22.39	123.73	5.86	-49.8	-62.1	3.8	8.47e-01	0	38	104	1952448512	70	15414
2026-01-22 23:52:23.52	123.87	5.80	-49.8	-62.1	3.8	8.47e-01	0	38	104	1952448512	70	15427
2026-01-22 23:52:24.37	123.97	5.77	-49.8	-62.1	3.8	8.47e-01	0	38	104	1952448512	70	15456
2026-01-22 23:52:25.51	124.11	5.71	-49.8	-62.0	3.8	8.48e-01	0	38	104	1952448512	70	15375
2026-01-22 23:52:26.36	124.22	5.68	-49.8	-62.1	3.8	8.47e-01	0	38	104	1952448512	70	15424
2026-01-22 23:52:27.50	124.36	5.62	-49.8	-62.1	3.8	8.47e-01	0	38	104	1952448512	70	15403
2026-01-22 23:52:28.35	124.46	5.58	-49.8	-62.1	3.8	8.46e-01	0	39	104	1952448512	70	15488
2026-01-22 23:52:29.48	124.60	5.53	-49.8	-62.1	3.8	8.46e-01	0	39	104	1952448512	70	15424
2026-01-22 23:52:30.33	124.70	5.49	-49.8	-62.0	3.8	8.46e-01	0	39	104	1952448512	70	15379
2026-01-22 23:52:31.47	124.84	5.44	-49.8	-62.1	3.8	8.48e-01	0	38	104	1952448512	70	15455
2026-01-22 23:52:32.32	124.94	5.40	-49.8	-62.1	3.8	8.47e-01	0	38	104	1952448512	70	15404
2026-01-22 23:52:33.46	125.08	5.35	-49.8	-62.0	3.8	8.47e-01	0	38	104	1952448512	70	15381
2026-01-22 23:52:34.31	125.18	5.31	-49.8	-62.0	3.8	8.47e-01	0	38	104	1952448512	70	15400
2026-01-22 23:52:35.44	125.32	5.26	-49.8	-62.1	3.8	8.45e-01	0	38	104	1952448512	70	15405
2026-01-22 23:52:36.29	125.42	5.22	-49.8	-62.0	3.8	8.46e-01	0	38	104	1952448512	70	15399
2026-01-22 23:52:37.43	125.55	5.17	-49.8	-62.0	3.8	8.48e-01	0	38	104	1952448512	70	15364
2026-01-22 23:52:38.28	125.65	5.13	-49.8	-62.0	3.8	8.47e-01	0	38	104	1952448512	70	15289
2026-01-22 23:52:39.41	125.79	5.08	-49.7	-62.0	3.8	8.46e-01	0	38	104	1952448512	70	15381
2026-01-22 23:52:40.27	125.89	5.04	-49.7	-62.0	3.8	8.47e-01	0	38	104	1952448512	70	15379
2026-01-22 23:52:41.40	126.02	4.99	-49.8	-62.1	3.8	8.47e-01	0	38	104	1952448512	70	15408
2026-01-22 23:52:42.25	126.12	4.95	-49.7	-62.0	3.8	8.47e-01	0	38	104	1952448512	70	15379

#Closed at: 2026-01-22 23:52:43
#Recorded file [1952 MB]: D:/Data/31040_260123_024351.dat