passes_logs/2026/01/22/T1/T1__20260122_100503_NOAA_21_JPSS-2_rec.log

#Pass ID: 20260122_100503_NOAA 21 (JPSS-2)
#Satellite: NOAA 21 (JPSS-2)
#Configuration: NOAA 21
#almurnet v.1.7.20251203
#Start time: 2026-01-22 10:05:04

#Version: 2.0.20230620
#Station: T1
#Location: 37.570604 lon 55.790049 lat
#TLE: 1 54234U 22150A   26021.42686626  .00000211  00000+0  12107-3 0  9996
#TLE: 2 54234  98.7506 322.2490 0000636 241.9299 118.1812 14.19537149165725

#Time	Az	El	Level	Level2	SNR	BER	BlckErr	Temp	State	Recorded	gain1	gain2
2026-01-22 10:05:04.60	165.18	5.06	-50.1	-63.3	3.8	1.49e+00	0	35	0	0	71	16727
2026-01-22 10:05:05.59	165.19	5.13	-48.4	-62.4	3.8	1.49e+00	0	35	104	0	67	19078
2026-01-22 10:05:06.59	165.20	5.20	-48.4	-62.4	3.8	1.49e+00	0	35	104	0	67	19093
2026-01-22 10:05:07.59	165.21	5.27	-48.4	-62.4	3.8	1.49e+00	0	35	104	0	67	19081
2026-01-22 10:05:08.58	165.22	5.34	-48.4	-62.4	3.8	1.49e+00	0	35	104	0	67	19057
2026-01-22 10:05:09.58	165.23	5.42	-48.4	-62.5	3.8	1.49e+00	0	35	104	0	67	19251
2026-01-22 10:05:10.58	165.24	5.49	-48.6	-62.7	3.8	1.49e+00	0	35	104	0	68	18639
2026-01-22 10:05:11.58	165.25	5.56	-48.7	-62.8	3.8	1.49e+00	0	35	104	0	68	18889
2026-01-22 10:05:12.57	165.27	5.64	-48.6	-62.9	3.8	1.49e+00	0	35	104	0	68	19081
2026-01-22 10:05:13.57	165.28	5.71	-48.7	-63.0	3.8	1.49e+00	0	35	104	0	68	19241
2026-01-22 10:05:14.56	165.29	5.78	-48.7	-63.0	3.8	1.49e+00	0	35	104	0	68	19278
2026-01-22 10:05:15.56	165.30	5.86	-48.7	-63.0	3.8	1.49e+00	0	35	104	0	68	19181
2026-01-22 10:05:16.55	165.31	5.93	-48.7	-62.8	3.8	1.49e+00	0	35	104	0	68	18851
2026-01-22 10:05:17.55	165.32	6.00	-48.6	-62.6	3.8	1.49e+00	0	35	104	0	68	18418
2026-01-22 10:05:18.55	165.33	6.08	-48.7	-62.4	3.8	1.49e+00	0	35	104	0	68	17920
2026-01-22 10:05:19.54	165.34	6.15	-48.6	-62.1	3.8	1.49e+00	0	36	104	0	68	17404
2026-01-22 10:05:20.54	165.35	6.23	-48.6	-61.9	3.8	1.49e+00	0	36	104	0	68	17050
2026-01-22 10:05:21.54	165.36	6.30	-48.6	-61.7	3.8	1.49e+00	0	36	104	0	68	16576
2026-01-22 10:05:22.53	165.37	6.38	-48.6	-61.7	3.8	1.49e+00	0	35	104	0	68	16528
2026-01-22 10:05:23.53	165.38	6.45	-48.6	-61.6	3.8	1.49e+00	0	36	104	0	68	16400
2026-01-22 10:05:24.53	165.39	6.53	-48.8	-61.9	3.8	1.49e+00	0	36	104	0	68	16968
2026-01-22 10:05:25.52	165.41	6.60	-48.7	-61.9	3.8	1.49e+00	0	36	104	0	68	17067
2026-01-22 10:05:26.52	165.42	6.68	-48.7	-62.2	3.8	1.49e+00	0	36	104	0	68	17572
2026-01-22 10:05:27.52	165.43	6.76	-48.6	-62.5	3.8	1.49e+00	0	36	104	0	68	18113
2026-01-22 10:05:28.51	165.44	6.83	-48.6	-62.7	3.8	1.49e+00	0	36	104	0	68	18617
2026-01-22 10:05:29.51	165.45	6.91	-48.7	-62.9	3.8	1.49e+00	0	36	104	0	68	19033
2026-01-22 10:05:30.51	165.46	6.99	-48.7	-63.0	3.8	1.49e+00	0	36	104	0	68	19250
2026-01-22 10:05:31.50	165.47	7.06	-48.8	-63.1	3.8	1.49e+00	0	36	104	0	68	19397
2026-01-22 10:05:32.50	165.48	7.14	-48.8	-63.0	3.8	1.49e+00	0	36	104	0	68	19382
2026-01-22 10:05:33.49	165.49	7.22	-48.9	-63.0	3.8	1.49e+00	0	36	104	0	68	19282
2026-01-22 10:05:34.49	165.51	7.30	-48.8	-62.9	3.8	1.49e+00	0	36	104	0	68	19073
2026-01-22 10:05:35.49	165.52	7.38	-48.8	-62.6	3.8	1.49e+00	0	36	104	0	68	18468
2026-01-22 10:05:36.48	165.53	7.45	-48.7	-62.0	3.8	1.49e+00	0	36	104	0	68	17207
2026-01-22 10:05:37.48	165.54	7.53	-48.4	-61.1	3.9	1.49e+00	0	36	104	0	68	15471
2026-01-22 10:05:38.48	165.55	7.61	-48.4	-59.2	4.2	1.47e+00	0	36	104	0	68	12498
2026-01-22 10:05:39.47	165.56	7.69	-48.3	-57.5	5.0	8.26e-01	0	36	0	0	68	10249
2026-01-22 10:05:40.47	165.58	7.77	-48.0	-56.0	5.9	3.92e-01	0	36	0	0	68	8616
2026-01-22 10:05:41.47	165.59	7.85	-47.5	-54.3	7.3	1.76e-01	0	36	0	0	66	7941
2026-01-22 10:05:42.47	165.60	7.93	-47.0	-53.0	8.5	5.80e-02	0	36	0	0	66	6816
2026-01-22 10:05:43.46	165.61	8.01	-46.6	-51.9	9.7	1.74e-02	0	36	0	0	65	6357
2026-01-22 10:05:44.46	165.62	8.09	-46.2	-51.1	10.5	4.77e-03	0	36	0	0	64	6169
2026-01-22 10:05:45.46	165.64	8.17	-46.0	-50.4	11.2	1.51e-03	0	36	0	0	64	5679
2026-01-22 10:05:46.45	165.65	8.25	-45.8	-50.0	11.7	7.08e-04	0	36	0	0	63	5723
2026-01-22 10:05:47.45	165.66	8.33	-45.6	-49.7	12.0	3.11e-04	0	36	0	0	63	5542
2026-01-22 10:05:48.44	165.67	8.41	-45.5	-49.5	12.2	2.11e-04	0	36	0	0	63	5452
2026-01-22 10:05:49.44	165.68	8.49	-45.6	-49.6	12.1	2.78e-04	0	36	0	0	63	5509
2026-01-22 10:05:50.44	165.70	8.58	-45.8	-50.0	11.6	3.87e-04	0	36	0	0	63	5783
2026-01-22 10:05:51.44	165.71	8.66	-46.0	-50.4	11.3	9.34e-04	0	36	0	0	63	6044
2026-01-22 10:05:52.43	165.72	8.74	-46.3	-51.2	10.5	2.74e-03	0	36	0	0	63	6607
2026-01-22 10:05:53.43	165.73	8.82	-46.6	-52.1	9.5	1.08e-02	0	36	0	0	64	6900
2026-01-22 10:05:54.43	165.75	8.91	-47.1	-53.3	8.2	4.32e-02	0	37	0	0	64	7970
2026-01-22 10:05:55.42	165.76	8.99	-47.4	-54.7	6.9	1.41e-01	0	36	0	0	65	8778
2026-01-22 10:05:56.43	165.77	9.07	-46.6	-52.5	8.9	3.05e-01	0	36	0	0	65	6827
2026-01-22 10:05:57.43	165.78	9.16	-46.0	-51.3	10.6	3.80e-06	0	36	0	0	62	7098
2026-01-22 10:05:58.43	165.80	9.24	-47.8	-57.6	4.6	1.48e+00	0	37	104	0	67	10995
2026-01-22 10:05:59.43	165.81	9.33	-44.2	-47.9	13.8	3.42e-04	0	37	0	0	60	5344
2026-01-22 10:06:00.43	165.82	9.41	-44.4	-48.2	13.7	7.00e-07	0	36	0	0	59	5872
2026-01-22 10:06:01.43	165.83	9.50	-46.6	-53.3	8.0	1.48e+00	0	37	104	0	65	7538
2026-01-22 10:06:02.43	165.85	9.58	-42.4	-45.1	16.6	1.77e-02	0	37	0	0	56	4880
2026-01-22 10:06:03.43	165.86	9.67	-42.3	-44.9	16.8	0.00e+00	0	37	0	0	56	4767
2026-01-22 10:06:04.44	165.87	9.76	-41.8	-44.3	17.2	0.00e+00	0	36	0	0	55	4708
2026-01-22 10:06:05.44	165.89	9.84	-41.8	-44.3	17.2	0.00e+00	0	37	0	0	55	4711
2026-01-22 10:06:06.43	165.90	9.93	-41.7	-44.0	17.5	0.00e+00	0	37	0	0	55	4584
2026-01-22 10:06:07.44	165.91	10.02	-41.4	-43.7	17.8	0.00e+00	0	37	0	0	54	4663
2026-01-22 10:06:08.44	165.93	10.10	-41.5	-43.7	17.8	0.00e+00	0	37	0	0	54	4690
2026-01-22 10:06:09.44	165.94	10.19	-41.6	-43.9	17.6	0.00e+00	0	37	0	0	54	4789
2026-01-22 10:06:10.44	165.95	10.28	-41.5	-43.7	17.8	0.00e+00	0	37	0	0	54	4689
2026-01-22 10:06:11.44	165.97	10.37	-41.5	-43.6	17.9	0.00e+00	0	37	0	0	54	4621
2026-01-22 10:06:12.44	165.98	10.46	-41.5	-43.6	18.0	0.00e+00	0	37	0	0	54	4602
2026-01-22 10:06:13.45	165.99	10.55	-41.4	-43.5	18.0	0.00e+00	0	37	0	0	54	4547
2026-01-22 10:06:14.45	166.01	10.64	-41.5	-43.5	18.0	0.00e+00	0	37	0	0	54	4560
2026-01-22 10:06:15.45	166.02	10.73	-41.4	-43.4	18.1	0.00e+00	0	37	0	0	54	4494
2026-01-22 10:06:16.45	166.04	10.82	-41.5	-43.5	18.0	1.66e-02	0	37	0	0	54	4565
2026-01-22 10:06:17.45	166.05	10.91	-41.4	-43.4	18.1	0.00e+00	0	37	0	0	54	4525
2026-01-22 10:06:18.45	166.06	11.00	-41.3	-43.2	18.3	0.00e+00	0	37	0	0	54	4426
2026-01-22 10:06:19.45	166.08	11.09	-41.3	-43.3	18.2	1.06e-02	0	37	0	0	54	4446
2026-01-22 10:06:20.45	166.09	11.18	-41.3	-43.3	18.2	0.00e+00	0	37	0	0	54	4463
2026-01-22 10:06:21.45	166.11	11.27	-41.3	-43.3	18.2	0.00e+00	0	37	0	0	54	4455
2026-01-22 10:06:22.45	166.12	11.36	-41.3	-43.2	18.3	0.00e+00	0	37	0	0	54	4421
2026-01-22 10:06:23.45	166.13	11.45	-41.3	-43.2	18.3	0.00e+00	0	37	0	0	54	4421
2026-01-22 10:06:24.46	166.15	11.55	-41.3	-43.2	18.4	0.00e+00	0	37	0	0	54	4402
2026-01-22 10:06:25.45	166.16	11.64	-41.2	-43.1	18.4	0.00e+00	0	37	0	0	54	4366
2026-01-22 10:06:26.45	166.18	11.73	-41.1	-43.0	18.5	0.00e+00	0	37	0	0	54	4324
2026-01-22 10:06:27.45	166.19	11.83	-41.2	-43.1	18.5	0.00e+00	0	37	0	0	54	4341
2026-01-22 10:06:28.45	166.21	11.92	-41.0	-42.9	18.6	0.00e+00	0	37	0	0	54	4246
2026-01-22 10:06:29.45	166.22	12.02	-41.1	-43.0	18.6	0.00e+00	0	37	0	0	54	4294
2026-01-22 10:06:30.45	166.24	12.11	-41.0	-42.9	18.6	0.00e+00	0	37	0	0	54	4248
2026-01-22 10:06:31.45	166.25	12.21	-41.0	-42.9	18.6	0.00e+00	0	37	0	0	53	4518
2026-01-22 10:06:32.45	166.27	12.30	-40.9	-42.8	18.7	0.00e+00	0	37	0	0	53	4480
2026-01-22 10:06:33.45	166.28	12.40	-41.0	-42.9	18.6	0.00e+00	0	37	0	0	53	4528
2026-01-22 10:06:34.45	166.30	12.49	-40.9	-42.8	18.7	0.00e+00	0	37	0	0	53	4463
2026-01-22 10:06:35.45	166.31	12.59	-41.0	-42.9	18.6	0.00e+00	0	37	0	0	53	4522
2026-01-22 10:06:36.45	166.33	12.69	-41.0	-43.0	18.5	0.00e+00	0	37	0	0	53	4557
2026-01-22 10:06:37.46	166.34	12.79	-41.0	-42.9	18.6	0.00e+00	0	37	0	0	53	4532
2026-01-22 10:06:38.46	166.36	12.88	-41.1	-43.0	18.5	0.00e+00	0	37	0	0	53	4596
2026-01-22 10:06:39.46	166.37	12.98	-41.0	-42.9	18.6	0.00e+00	0	37	0	0	53	4517
2026-01-22 10:06:40.46	166.39	13.08	-40.9	-42.8	18.7	0.00e+00	0	37	0	0	53	4486
2026-01-22 10:06:41.46	166.41	13.18	-41.0	-42.9	18.6	0.00e+00	0	37	0	0	53	4509
2026-01-22 10:06:42.46	166.42	13.28	-40.9	-42.8	18.8	0.00e+00	0	37	0	0	53	4443
2026-01-22 10:06:43.46	166.44	13.38	-40.9	-42.7	18.8	0.00e+00	0	37	0	0	53	4430
2026-01-22 10:06:44.46	166.45	13.48	-40.9	-42.8	18.7	0.00e+00	0	37	0	0	53	4458
2026-01-22 10:06:45.46	166.47	13.58	-40.8	-42.7	18.9	0.00e+00	0	37	0	0	53	4395
2026-01-22 10:06:46.46	166.49	13.68	-40.9	-42.8	18.7	0.00e+00	0	37	0	0	53	4453
2026-01-22 10:06:47.46	166.50	13.78	-41.0	-42.9	18.7	0.00e+00	0	37	0	0	53	4499
2026-01-22 10:06:48.46	166.52	13.88	-40.9	-42.8	18.7	0.00e+00	0	37	0	0	53	4482
2026-01-22 10:06:49.46	166.54	13.99	-40.8	-42.6	18.9	0.00e+00	0	37	0	0	53	4386
2026-01-22 10:06:50.46	166.55	14.09	-40.7	-42.6	18.9	0.00e+00	0	37	0	0	53	4367
2026-01-22 10:06:51.47	166.57	14.19	-40.7	-42.6	18.9	0.00e+00	0	37	0	0	53	4352
2026-01-22 10:06:52.47	166.59	14.30	-40.8	-42.7	18.8	0.00e+00	0	37	0	0	53	4415
2026-01-22 10:06:53.47	166.60	14.40	-40.7	-42.6	18.9	0.00e+00	0	37	0	0	53	4348
2026-01-22 10:06:54.47	166.62	14.51	-40.8	-42.7	18.9	0.00e+00	0	37	0	0	53	4393
2026-01-22 10:06:55.47	166.64	14.61	-40.8	-42.6	18.9	0.00e+00	0	37	0	0	53	4368
2026-01-22 10:06:56.47	166.65	14.72	-40.8	-42.7	18.9	0.00e+00	0	37	0	0	53	4393
2026-01-22 10:06:57.47	166.67	14.82	-40.8	-42.7	18.8	0.00e+00	0	37	0	0	53	4414
2026-01-22 10:06:58.47	166.69	14.93	-40.8	-42.6	18.9	0.00e+00	0	37	0	0	53	4387
2026-01-22 10:06:59.47	166.71	15.03	-40.7	-42.6	19.0	0.00e+00	0	37	0	0	53	4353
2026-01-22 10:07:00.47	166.72	15.14	-40.8	-42.7	18.9	0.00e+00	0	37	0	0	53	4393
2026-01-22 10:07:01.48	166.74	15.25	-40.8	-42.6	18.9	0.00e+00	0	37	0	0	53	4381
2026-01-22 10:07:02.48	166.76	15.36	-40.8	-42.6	18.9	0.00e+00	0	37	0	0	53	4375
2026-01-22 10:07:03.48	166.78	15.47	-40.8	-42.6	18.9	0.00e+00	0	37	0	0	53	4387
2026-01-22 10:07:04.48	166.79	15.58	-40.9	-42.7	18.8	0.00e+00	0	37	0	0	53	4428
2026-01-22 10:07:05.49	166.81	15.69	-40.9	-42.7	18.9	0.00e+00	0	37	0	0	53	4418
2026-01-22 10:07:06.48	166.83	15.80	-40.8	-42.6	18.9	0.00e+00	0	37	0	0	53	4369
2026-01-22 10:07:07.48	166.85	15.91	-40.8	-42.6	19.0	0.00e+00	0	37	0	0	53	4360
2026-01-22 10:07:08.48	166.87	16.02	-40.8	-42.6	19.0	0.00e+00	0	37	0	0	53	4369
2026-01-22 10:07:09.49	166.89	16.13	-40.8	-42.6	19.0	0.00e+00	0	37	0	0	53	4366
2026-01-22 10:07:10.49	166.91	16.24	-40.9	-42.7	18.9	0.00e+00	0	37	0	0	53	4421
2026-01-22 10:07:11.49	166.92	16.36	-40.9	-42.8	18.8	0.00e+00	0	37	0	0	53	4451
2026-01-22 10:07:12.49	166.94	16.47	-40.8	-42.7	18.9	0.00e+00	0	37	0	0	53	4406
2026-01-22 10:07:13.49	166.96	16.58	-40.9	-42.8	18.8	0.00e+00	0	37	0	0	53	4444
2026-01-22 10:07:14.49	166.98	16.70	-40.9	-42.7	18.8	0.00e+00	0	37	0	0	53	4439
2026-01-22 10:07:15.50	167.00	16.81	-40.8	-42.6	18.9	0.00e+00	0	37	0	0	53	4390
2026-01-22 10:07:16.50	167.02	16.93	-40.8	-42.7	18.9	0.00e+00	0	37	0	0	53	4402
2026-01-22 10:07:17.50	167.04	17.05	-40.9	-42.8	18.8	0.00e+00	0	37	0	0	53	4457
2026-01-22 10:07:18.49	167.06	17.16	-40.8	-42.7	18.9	0.00e+00	0	37	0	0	53	4415
2026-01-22 10:07:19.49	167.08	17.28	-40.9	-42.8	18.9	0.00e+00	0	37	0	0	53	4442
2026-01-22 10:07:20.49	167.10	17.40	-41.0	-42.9	18.8	0.00e+00	0	37	0	0	53	4498
2026-01-22 10:07:21.49	167.12	17.51	-40.9	-42.8	18.8	0.00e+00	0	37	0	0	53	4466
2026-01-22 10:07:22.50	167.14	17.63	-40.9	-42.8	18.8	0.00e+00	0	37	0	0	53	4464
2026-01-22 10:07:23.50	167.16	17.75	-40.9	-42.8	18.8	0.00e+00	0	37	0	0	53	4462
2026-01-22 10:07:24.50	167.18	17.87	-41.0	-42.9	18.8	0.00e+00	0	37	0	0	53	4499
2026-01-22 10:07:25.50	167.20	17.99	-40.9	-42.8	18.9	0.00e+00	0	37	0	0	53	4457
2026-01-22 10:07:26.50	167.22	18.12	-41.0	-42.8	18.8	0.00e+00	0	37	0	0	53	4484
2026-01-22 10:07:27.50	167.24	18.24	-40.9	-42.7	18.9	0.00e+00	0	37	0	0	53	4433
2026-01-22 10:07:28.50	167.26	18.36	-40.9	-42.8	18.9	0.00e+00	0	37	0	0	53	4442
2026-01-22 10:07:29.50	167.29	18.48	-41.0	-42.8	18.8	0.00e+00	0	37	0	0	53	4484
2026-01-22 10:07:30.51	167.31	18.61	-40.9	-42.7	18.9	0.00e+00	0	37	0	0	53	4437
2026-01-22 10:07:31.51	167.33	18.73	-40.9	-42.7	18.9	0.00e+00	0	37	0	0	53	4429
2026-01-22 10:07:32.51	167.35	18.86	-40.9	-42.8	18.9	0.00e+00	0	37	0	0	53	4450
2026-01-22 10:07:33.52	167.37	18.98	-40.8	-42.7	18.9	0.00e+00	0	37	0	0	53	4392
2026-01-22 10:07:34.51	167.39	19.11	-40.8	-42.7	18.9	0.00e+00	0	37	0	0	53	4400
2026-01-22 10:07:35.51	167.42	19.23	-40.8	-42.6	19.0	0.00e+00	0	37	0	0	53	4380
2026-01-22 10:07:36.51	167.44	19.36	-40.8	-42.6	19.0	0.00e+00	0	37	0	0	53	4382
2026-01-22 10:07:37.52	167.46	19.49	-40.7	-42.6	19.0	0.00e+00	0	37	0	0	53	4351
2026-01-22 10:07:38.52	167.48	19.62	-40.7	-42.6	19.0	0.00e+00	0	37	0	0	53	4346
2026-01-22 10:07:39.52	167.51	19.75	-40.7	-42.5	19.1	0.00e+00	0	37	0	0	53	4318
2026-01-22 10:07:40.52	167.53	19.88	-40.5	-42.3	19.2	0.00e+00	0	37	0	0	53	4222
2026-01-22 10:07:41.52	167.55	20.01	-40.5	-42.3	19.2	0.00e+00	0	37	0	0	53	4231
2026-01-22 10:07:42.51	167.58	20.14	-40.5	-42.3	19.2	0.00e+00	0	37	0	0	53	4229
2026-01-22 10:07:43.51	167.60	20.27	-40.3	-42.1	19.5	0.00e+00	0	37	0	0	52	4349
2026-01-22 10:07:44.52	167.62	20.41	-40.3	-42.0	19.5	0.00e+00	0	37	0	0	52	4340
2026-01-22 10:07:45.52	167.65	20.54	-40.3	-42.0	19.5	0.00e+00	0	37	0	0	52	4321
2026-01-22 10:07:46.52	167.67	20.67	-40.3	-42.0	19.5	0.00e+00	0	37	0	0	52	4325
2026-01-22 10:07:47.52	167.70	20.81	-40.3	-42.0	19.5	0.00e+00	0	38	0	0	52	4335
2026-01-22 10:07:48.52	167.72	20.94	-40.0	-41.7	19.8	0.00e+00	0	37	0	0	52	4182
2026-01-22 10:07:49.52	167.74	21.08	-40.0	-41.7	19.9	0.00e+00	0	37	0	0	51	4419
2026-01-22 10:07:50.52	167.77	21.22	-39.9	-41.6	20.0	0.00e+00	0	37	0	0	51	4365
2026-01-22 10:07:51.53	167.79	21.36	-39.9	-41.6	19.9	0.00e+00	0	38	0	0	51	4390
2026-01-22 10:07:52.52	167.82	21.49	-39.8	-41.5	20.0	0.00e+00	0	37	0	0	51	4316
2026-01-22 10:07:53.52	167.84	21.63	-39.9	-41.6	20.0	0.00e+00	0	38	0	0	51	4370
2026-01-22 10:07:54.52	167.87	21.77	-39.7	-41.4	20.1	0.00e+00	0	37	0	0	51	4266
2026-01-22 10:07:55.52	167.90	21.91	-39.7	-41.4	20.2	0.00e+00	0	37	0	0	51	4255
2026-01-22 10:07:56.52	167.92	22.06	-39.7	-41.4	20.1	0.00e+00	0	37	0	0	51	4278
2026-01-22 10:07:57.53	167.95	22.20	-39.7	-41.4	20.1	0.00e+00	0	38	0	0	51	4259
2026-01-22 10:07:58.53	167.97	22.34	-39.5	-41.2	20.3	0.00e+00	0	37	0	0	51	4167
2026-01-22 10:07:59.53	168.00	22.49	-39.6	-41.3	20.2	0.00e+00	0	37	0	0	51	4207
2026-01-22 10:08:00.54	168.03	22.63	-39.5	-41.2	20.3	0.00e+00	0	37	0	0	51	4167
2026-01-22 10:08:01.53	168.05	22.78	-39.6	-41.3	20.3	0.00e+00	0	37	0	0	51	4203
2026-01-22 10:08:02.53	168.08	22.92	-39.5	-41.1	20.4	0.00e+00	0	37	0	0	51	4141
2026-01-22 10:08:03.54	168.11	23.07	-39.4	-41.0	20.5	0.00e+00	0	37	0	0	50	4320
2026-01-22 10:08:04.54	168.14	23.22	-39.4	-41.0	20.4	0.00e+00	0	37	0	0	50	4338
2026-01-22 10:08:05.54	168.17	23.37	-39.4	-41.0	20.5	0.00e+00	0	37	0	0	50	4310
2026-01-22 10:08:06.54	168.19	23.52	-39.3	-40.9	20.5	0.00e+00	0	37	0	0	50	4273
2026-01-22 10:08:07.54	168.22	23.67	-39.2	-40.9	20.6	0.00e+00	0	37	0	0	50	4249
2026-01-22 10:08:08.54	168.25	23.82	-39.3	-41.0	20.5	0.00e+00	0	37	0	0	50	4294
2026-01-22 10:08:09.54	168.28	23.98	-39.3	-40.9	20.6	0.00e+00	0	37	0	0	50	4281
2026-01-22 10:08:10.54	168.31	24.13	-39.3	-40.9	20.6	0.00e+00	0	37	0	0	50	4276
2026-01-22 10:08:11.54	168.34	24.28	-39.3	-40.9	20.6	0.00e+00	0	37	0	0	50	4277
2026-01-22 10:08:12.54	168.37	24.44	-39.3	-40.9	20.6	0.00e+00	0	37	0	0	50	4286
2026-01-22 10:08:13.55	168.40	24.60	-39.3	-41.0	20.5	0.00e+00	0	37	0	0	50	4310
2026-01-22 10:08:14.55	168.43	24.75	-39.4	-41.1	20.5	0.00e+00	0	37	0	0	50	4348
2026-01-22 10:08:15.55	168.46	24.91	-39.5	-41.1	20.4	0.00e+00	0	37	0	0	50	4373
2026-01-22 10:08:16.55	168.49	25.07	-39.5	-41.1	20.4	0.00e+00	0	37	0	0	50	4385
2026-01-22 10:08:17.55	168.52	25.23	-39.6	-41.2	20.4	0.00e+00	0	37	0	0	50	4421
2026-01-22 10:08:18.54	168.55	25.39	-39.6	-41.3	20.3	0.00e+00	0	37	0	0	50	4446
2026-01-22 10:08:19.54	168.58	25.55	-39.7	-41.3	20.3	0.00e+00	0	37	0	0	50	4493
2026-01-22 10:08:20.54	168.62	25.71	-39.8	-41.5	20.2	0.00e+00	0	37	0	0	50	4554
2026-01-22 10:08:21.54	168.65	25.88	-39.9	-41.6	20.1	0.00e+00	0	37	0	0	50	4617
2026-01-22 10:08:22.55	168.68	26.04	-40.0	-41.7	20.0	0.00e+00	0	37	0	0	50	4675
2026-01-22 10:08:23.55	168.71	26.21	-40.1	-41.8	19.9	0.00e+00	0	37	0	0	50	4746
2026-01-22 10:08:24.55	168.75	26.38	-40.3	-42.0	19.7	0.00e+00	0	37	0	0	51	4587
2026-01-22 10:08:25.55	168.78	26.54	-40.4	-42.2	19.6	0.00e+00	0	37	0	0	51	4659
2026-01-22 10:08:26.55	168.81	26.71	-40.5	-42.2	19.5	0.00e+00	0	37	0	0	51	4694
2026-01-22 10:08:27.56	168.85	26.89	-40.7	-42.4	19.4	0.00e+00	0	37	0	0	51	4804
2026-01-22 10:08:28.56	168.88	27.06	-40.8	-42.6	19.2	0.00e+00	0	37	0	0	52	4604
2026-01-22 10:08:29.56	168.92	27.23	-40.8	-42.6	19.1	0.00e+00	0	37	0	0	52	4613
2026-01-22 10:08:30.56	168.95	27.40	-41.0	-42.8	18.9	0.00e+00	0	37	0	0	52	4742
2026-01-22 10:08:31.57	168.99	27.58	-41.0	-42.8	18.9	0.00e+00	0	37	0	0	52	4740
2026-01-22 10:08:32.57	169.02	27.75	-41.1	-42.9	18.8	0.00e+00	0	38	0	0	52	4784
2026-01-22 10:08:33.57	169.06	27.93	-41.1	-43.0	18.8	0.00e+00	0	37	0	0	52	4830
2026-01-22 10:08:34.57	169.10	28.11	-41.1	-43.0	18.7	0.00e+00	0	37	0	0	52	4831
2026-01-22 10:08:35.57	169.13	28.29	-41.1	-43.0	18.8	0.00e+00	0	37	0	0	53	4559
2026-01-22 10:08:36.57	169.17	28.47	-41.1	-43.0	18.8	0.00e+00	0	37	0	0	53	4547
2026-01-22 10:08:37.58	169.21	28.65	-40.9	-42.7	19.0	0.00e+00	0	37	0	0	53	4433
2026-01-22 10:08:38.58	169.25	28.83	-40.8	-42.6	19.1	0.00e+00	0	38	0	0	53	4354
2026-01-22 10:08:39.58	169.29	29.02	-40.8	-42.6	19.0	0.00e+00	0	37	0	0	53	4383
2026-01-22 10:08:40.59	169.33	29.20	-40.8	-42.5	19.1	0.00e+00	0	38	0	0	53	4331
2026-01-22 10:08:41.59	169.36	29.39	-40.7	-42.5	19.2	0.00e+00	0	37	0	0	53	4326
2026-01-22 10:08:42.59	169.40	29.57	-40.6	-42.4	19.3	0.00e+00	0	37	0	0	53	4247
2026-01-22 10:08:43.59	169.44	29.76	-40.6	-42.3	19.4	0.00e+00	0	37	0	0	53	4235
2026-01-22 10:08:44.59	169.49	29.95	-40.5	-42.3	19.4	0.00e+00	0	37	0	0	53	4212
2026-01-22 10:08:45.59	169.53	30.14	-40.5	-42.2	19.4	0.00e+00	0	37	0	0	53	4179
2026-01-22 10:08:46.59	169.57	30.34	-40.4	-42.2	19.5	0.00e+00	0	37	0	0	52	4403
2026-01-22 10:08:47.59	169.61	30.53	-40.5	-42.3	19.4	0.00e+00	0	37	0	0	52	4468
2026-01-22 10:08:48.60	169.65	30.73	-40.5	-42.3	19.4	0.00e+00	0	37	0	0	52	4462
2026-01-22 10:08:49.60	169.70	30.92	-40.5	-42.2	19.4	0.00e+00	0	37	0	0	52	4436
2026-01-22 10:08:50.60	169.74	31.12	-40.2	-41.9	19.7	0.00e+00	0	37	0	0	52	4281
2026-01-22 10:08:51.60	169.78	31.32	-40.2	-41.9	19.7	0.00e+00	0	37	0	0	52	4263
2026-01-22 10:08:52.60	169.83	31.52	-40.2	-41.9	19.7	0.00e+00	0	37	0	0	52	4273
2026-01-22 10:08:53.60	169.87	31.72	-40.0	-41.7	19.8	0.00e+00	0	38	0	0	52	4193
2026-01-22 10:08:54.60	169.92	31.92	-40.0	-41.7	19.9	0.00e+00	0	38	0	0	52	4176
2026-01-22 10:08:55.61	169.96	32.13	-40.1	-41.8	19.8	0.00e+00	0	38	0	0	52	4201
2026-01-22 10:08:56.61	170.01	32.33	-40.1	-41.8	19.8	0.00e+00	0	37	0	0	52	4200
2026-01-22 10:08:57.62	170.06	32.54	-40.1	-41.8	19.8	0.00e+00	0	37	0	0	52	4230
2026-01-22 10:08:58.62	170.11	32.75	-40.1	-41.8	19.7	0.00e+00	0	37	0	0	52	4223
2026-01-22 10:08:59.62	170.15	32.96	-40.2	-41.9	19.8	0.00e+00	0	37	0	0	52	4250
2026-01-22 10:09:00.62	170.20	33.17	-40.3	-42.0	19.6	0.00e+00	0	37	0	0	52	4315
2026-01-22 10:09:01.62	170.25	33.38	-40.4	-42.1	19.5	0.00e+00	0	37	0	0	52	4382
2026-01-22 10:09:02.62	170.30	33.60	-40.3	-42.0	19.6	0.00e+00	0	37	0	0	52	4296
2026-01-22 10:09:03.63	170.35	33.82	-40.4	-42.2	19.5	0.00e+00	0	37	0	0	52	4395
2026-01-22 10:09:04.63	170.40	34.03	-40.6	-42.3	19.3	0.00e+00	0	37	0	0	52	4457
2026-01-22 10:09:05.63	170.46	34.25	-40.7	-42.4	19.2	0.00e+00	0	37	0	0	52	4532
2026-01-22 10:09:06.63	170.51	34.47	-40.8	-42.6	19.1	0.00e+00	0	37	0	0	52	4613
2026-01-22 10:09:07.64	170.56	34.70	-40.9	-42.6	19.1	0.00e+00	0	37	0	0	52	4647
2026-01-22 10:09:08.64	170.62	34.92	-41.1	-42.9	18.9	0.00e+00	0	37	0	0	52	4780
2026-01-22 10:09:09.64	170.67	35.14	-41.2	-43.0	18.8	0.00e+00	0	37	0	0	52	4827
2026-01-22 10:09:10.64	170.73	35.37	-41.2	-43.0	18.7	0.00e+00	0	37	0	0	53	4590
2026-01-22 10:09:11.64	170.78	35.60	-41.4	-43.3	18.5	0.00e+00	0	37	0	0	53	4712
2026-01-22 10:09:12.65	170.84	35.83	-41.5	-43.4	18.4	0.00e+00	0	37	0	0	53	4796
2026-01-22 10:09:13.65	170.90	36.06	-41.5	-43.4	18.4	0.00e+00	0	37	0	0	53	4792
2026-01-22 10:09:14.65	170.96	36.29	-41.8	-43.6	18.2	0.00e+00	0	37	0	0	54	4646
2026-01-22 10:09:15.65	171.01	36.53	-41.6	-43.5	18.3	0.00e+00	0	37	0	0	54	4583
2026-01-22 10:09:16.65	171.07	36.76	-41.9	-43.9	18.0	0.00e+00	0	37	0	0	54	4765
2026-01-22 10:09:17.65	171.14	37.00	-41.8	-43.7	18.0	0.00e+00	0	38	0	0	54	4705
2026-01-22 10:09:18.65	171.20	37.24	-42.0	-44.0	17.9	0.00e+00	0	37	0	0	54	4816
2026-01-22 10:09:19.65	171.26	37.48	-42.1	-44.1	17.8	0.00e+00	0	37	0	0	54	4911
2026-01-22 10:09:20.65	171.32	37.73	-42.3	-44.3	17.6	0.00e+00	0	38	0	0	55	4709
2026-01-22 10:09:21.66	171.39	37.97	-42.2	-44.2	17.7	0.00e+00	0	37	0	0	55	4687
2026-01-22 10:09:22.65	171.45	38.22	-42.2	-44.3	17.7	0.00e+00	0	38	0	0	55	4707
2026-01-22 10:09:23.65	171.52	38.47	-42.1	-44.1	17.8	0.00e+00	0	37	0	0	55	4629
2026-01-22 10:09:24.65	171.59	38.72	-42.2	-44.2	17.7	0.00e+00	0	37	0	0	55	4690
2026-01-22 10:09:25.65	171.65	38.97	-41.9	-43.9	18.0	0.00e+00	0	38	0	0	55	4495
2026-01-22 10:09:26.65	171.72	39.22	-41.8	-43.8	18.1	0.00e+00	0	37	0	0	55	4445
2026-01-22 10:09:27.65	171.79	39.48	-41.8	-43.8	18.2	0.00e+00	0	37	0	0	55	4447
2026-01-22 10:09:28.66	171.86	39.74	-41.9	-43.8	18.1	0.00e+00	0	37	0	0	55	4469
2026-01-22 10:09:29.66	171.94	40.00	-42.0	-43.9	18.0	0.00e+00	0	37	0	0	55	4526
2026-01-22 10:09:30.66	172.01	40.26	-42.0	-43.9	18.0	0.00e+00	0	37	0	0	55	4541
2026-01-22 10:09:31.66	172.08	40.52	-42.0	-44.0	17.9	0.00e+00	0	37	0	0	55	4552
2026-01-22 10:09:32.66	172.16	40.78	-42.3	-44.3	17.6	0.00e+00	0	37	0	0	55	4719
2026-01-22 10:09:33.66	172.24	41.05	-42.2	-44.1	17.7	0.00e+00	0	37	0	0	55	4636
2026-01-22 10:09:34.66	172.32	41.32	-42.3	-44.3	17.6	0.00e+00	0	37	0	0	55	4710
2026-01-22 10:09:35.66	172.39	41.59	-42.5	-44.5	17.3	0.00e+00	0	38	0	0	55	4850
2026-01-22 10:09:36.66	172.48	41.86	-42.7	-44.8	17.2	0.00e+00	0	38	0	0	56	4709
2026-01-22 10:09:37.67	172.56	42.14	-42.9	-44.9	17.1	0.00e+00	0	37	0	0	56	4802
2026-01-22 10:09:38.67	172.64	42.42	-43.0	-45.1	16.9	0.00e+00	0	37	0	0	56	4915
2026-01-22 10:09:39.67	172.73	42.70	-43.1	-45.2	16.8	0.00e+00	0	38	0	0	56	4977
2026-01-22 10:09:40.67	172.81	42.98	-43.4	-45.6	16.5	0.00e+00	0	38	0	0	57	4892
2026-01-22 10:09:41.67	172.90	43.26	-43.5	-45.7	16.3	0.00e+00	0	37	0	0	57	4978
2026-01-22 10:09:42.67	172.99	43.54	-43.8	-46.1	16.0	0.00e+00	0	37	0	0	58	4883
2026-01-22 10:09:43.68	173.08	43.83	-43.8	-46.1	16.0	0.00e+00	0	38	0	0	58	4876
2026-01-22 10:09:44.67	173.17	44.12	-43.8	-46.0	16.1	0.00e+00	0	37	0	0	58	4857
2026-01-22 10:09:45.68	173.27	44.41	-43.8	-46.0	16.1	0.00e+00	0	37	0	0	58	4863
2026-01-22 10:09:46.68	173.36	44.71	-43.7	-45.9	16.2	0.00e+00	0	37	0	0	58	4807
2026-01-22 10:09:47.68	173.46	45.00	-43.6	-45.8	16.3	0.00e+00	0	37	0	0	58	4743
2026-01-22 10:09:48.68	173.56	45.30	-43.7	-45.9	16.3	0.00e+00	0	38	0	0	58	4808
2026-01-22 10:09:49.69	173.66	45.60	-43.8	-46.2	16.1	0.00e+00	0	38	0	0	58	4932
2026-01-22 10:09:50.68	173.76	45.90	-43.9	-46.3	16.0	0.00e+00	0	37	0	0	58	5002
2026-01-22 10:09:51.69	173.87	46.21	-44.0	-46.4	15.8	0.00e+00	0	38	0	0	58	5060
2026-01-22 10:09:52.69	173.97	46.51	-44.0	-46.3	15.8	0.00e+00	0	37	0	0	58	5002
2026-01-22 10:09:53.69	174.08	46.82	-43.8	-46.1	16.0	0.00e+00	0	38	0	0	58	4910
2026-01-22 10:09:54.69	174.19	47.13	-43.8	-46.1	16.0	0.00e+00	0	37	0	0	58	4901
2026-01-22 10:09:55.70	174.31	47.45	-43.6	-45.9	16.3	0.00e+00	0	38	0	0	58	4763
2026-01-22 10:09:56.70	174.42	47.76	-43.3	-45.5	16.6	0.00e+00	0	38	0	0	58	4568
2026-01-22 10:09:57.70	174.54	48.08	-43.2	-45.3	16.8	0.00e+00	0	37	0	0	58	4455
2026-01-22 10:09:58.69	174.66	48.39	-43.0	-45.1	17.0	0.00e+00	0	37	0	0	58	4350
2026-01-22 10:09:59.69	174.78	48.71	-42.9	-45.0	17.1	0.00e+00	0	38	0	0	57	4581
2026-01-22 10:10:00.69	174.91	49.04	-42.7	-44.7	17.4	0.00e+00	0	37	0	0	57	4435
2026-01-22 10:10:01.70	175.03	49.37	-42.2	-44.2	17.9	0.00e+00	0	37	0	0	56	4415
2026-01-22 10:10:02.69	175.16	49.69	-42.1	-44.1	18.0	0.00e+00	0	37	0	0	56	4342
2026-01-22 10:10:03.70	175.30	50.02	-41.9	-43.8	18.1	0.00e+00	0	38	0	0	55	4453
2026-01-22 10:10:04.70	175.43	50.36	-41.8	-43.7	18.2	0.00e+00	0	38	0	0	55	4410
2026-01-22 10:10:05.70	175.57	50.69	-41.8	-43.7	18.2	0.00e+00	0	37	0	0	55	4440
2026-01-22 10:10:06.70	175.71	51.03	-41.9	-43.8	18.2	0.00e+00	0	37	0	0	55	4445
2026-01-22 10:10:07.70	175.86	51.37	-41.7	-43.6	18.3	0.00e+00	0	38	0	0	55	4371
2026-01-22 10:10:08.70	176.01	51.71	-41.8	-43.7	18.2	0.00e+00	0	38	0	0	55	4423
2026-01-22 10:10:09.70	176.16	52.05	-41.8	-43.7	18.2	0.00e+00	0	38	0	0	55	4408
2026-01-22 10:10:10.70	176.31	52.40	-41.8	-43.7	18.2	0.00e+00	0	37	0	0	55	4419
2026-01-22 10:10:11.70	176.47	52.75	-41.7	-43.5	18.4	0.00e+00	0	37	0	0	55	4310
2026-01-22 10:10:12.70	176.63	53.10	-41.3	-43.1	18.7	0.00e+00	0	38	0	0	54	4379
2026-01-22 10:10:13.71	176.80	53.45	-41.2	-43.0	18.8	0.00e+00	0	38	0	0	54	4312
2026-01-22 10:10:14.71	176.97	53.81	-41.1	-42.9	18.9	0.00e+00	0	38	0	0	54	4278
2026-01-22 10:10:15.71	177.14	54.17	-41.1	-43.0	18.9	0.00e+00	0	37	0	0	54	4299
2026-01-22 10:10:16.71	177.32	54.52	-40.9	-42.8	19.0	0.00e+00	0	37	0	0	53	4442
2026-01-22 10:10:17.71	177.51	54.89	-40.9	-42.7	19.1	0.00e+00	0	38	0	0	53	4418
2026-01-22 10:10:18.71	177.69	55.25	-40.6	-42.3	19.5	0.00e+00	0	37	0	0	53	4236
2026-01-22 10:10:19.72	177.89	55.62	-40.4	-42.2	19.5	0.00e+00	0	38	0	0	52	4392
2026-01-22 10:10:20.72	178.09	55.99	-40.4	-42.1	19.6	0.00e+00	0	37	0	0	52	4375
2026-01-22 10:10:21.72	178.29	56.36	-40.6	-42.4	19.3	0.00e+00	0	38	0	0	52	4510
2026-01-22 10:10:22.72	178.50	56.73	-41.0	-42.8	19.0	0.00e+00	0	38	0	0	52	4715
2026-01-22 10:10:23.72	178.71	57.10	-41.0	-42.8	19.0	0.00e+00	0	38	0	0	52	4742
2026-01-22 10:10:24.72	178.93	57.48	-40.8	-42.6	19.2	0.00e+00	0	37	0	0	52	4619
2026-01-22 10:10:25.72	179.15	57.86	-40.6	-42.4	19.4	0.00e+00	0	37	0	0	52	4518
2026-01-22 10:10:26.72	179.39	58.24	-40.5	-42.3	19.5	0.00e+00	0	37	0	0	52	4444
2026-01-22 10:10:27.72	179.62	58.62	-40.4	-42.1	19.6	0.00e+00	0	37	0	0	52	4355
2026-01-22 10:10:28.72	179.87	59.01	-40.3	-42.0	19.5	0.00e+00	0	38	0	0	52	4338
2026-01-22 10:10:29.72	180.12	59.39	-40.2	-41.9	19.6	0.00e+00	0	37	0	0	52	4253
2026-01-22 10:10:30.72	180.38	59.78	-40.0	-41.7	19.9	0.00e+00	0	37	0	0	51	4398
2026-01-22 10:10:31.72	180.65	60.17	-39.7	-41.3	20.3	0.00e+00	0	37	0	0	51	4242
2026-01-22 10:10:32.72	180.93	60.57	-39.6	-41.3	20.3	0.00e+00	0	38	0	0	51	4214
2026-01-22 10:10:33.72	181.21	60.96	-39.5	-41.1	20.5	0.00e+00	0	38	0	0	50	4374
2026-01-22 10:10:34.72	181.51	61.36	-39.6	-41.2	20.4	0.00e+00	0	38	0	0	50	4413
2026-01-22 10:10:35.73	181.81	61.76	-39.5	-41.1	20.4	0.00e+00	0	38	0	0	50	4381
2026-01-22 10:10:36.73	182.12	62.16	-39.5	-41.1	20.4	0.00e+00	0	38	0	0	50	4380
2026-01-22 10:10:37.73	182.45	62.56	-39.4	-41.1	20.5	0.00e+00	0	38	0	0	50	4341
2026-01-22 10:10:38.73	182.78	62.96	-39.3	-40.9	20.6	0.00e+00	0	38	0	0	50	4286
2026-01-22 10:10:39.73	183.13	63.36	-39.2	-40.8	20.8	0.00e+00	0	38	0	0	50	4214
2026-01-22 10:10:40.73	183.48	63.77	-39.0	-40.6	20.9	0.00e+00	0	38	0	0	50	4132
2026-01-22 10:10:41.73	183.85	64.18	-39.1	-40.7	20.8	0.00e+00	0	38	0	0	50	4185
2026-01-22 10:10:42.73	184.24	64.58	-39.0	-40.6	21.0	0.00e+00	0	38	0	0	49	4361
2026-01-22 10:10:43.73	184.63	64.99	-38.5	-40.0	21.3	0.00e+00	0	38	0	0	49	4097
2026-01-22 10:10:44.73	185.05	65.40	-38.6	-40.1	21.1	0.00e+00	0	37	0	0	48	4388
2026-01-22 10:10:45.73	185.47	65.82	-38.9	-40.5	20.9	0.00e+00	0	38	0	0	48	4573
2026-01-22 10:10:46.73	185.92	66.23	-39.2	-40.8	20.8	0.00e+00	0	38	0	0	49	4471
2026-01-22 10:10:47.73	186.38	66.64	-39.3	-40.9	20.6	0.00e+00	0	37	0	0	49	4523
2026-01-22 10:10:48.73	186.85	67.05	-39.0	-40.6	20.8	0.00e+00	0	38	0	0	49	4366
2026-01-22 10:10:49.74	187.36	67.47	-38.6	-40.2	21.1	0.00e+00	0	37	0	0	49	4179
2026-01-22 10:10:50.74	187.88	67.89	-38.7	-40.3	21.0	0.00e+00	0	37	0	0	49	4206
2026-01-22 10:10:51.74	188.41	68.30	-38.9	-40.5	21.0	0.00e+00	0	37	0	0	49	4298
2026-01-22 10:10:52.74	188.98	68.72	-39.0	-40.6	20.6	0.00e+00	0	38	0	0	49	4378
2026-01-22 10:10:53.75	189.57	69.14	-39.1	-40.7	20.4	0.00e+00	0	38	0	0	49	4430
2026-01-22 10:10:54.75	190.18	69.55	-39.0	-40.6	20.7	0.00e+00	0	38	0	0	49	4346
2026-01-22 10:10:55.75	190.82	69.96	-38.9	-40.5	20.9	0.00e+00	0	37	0	0	49	4302
2026-01-22 10:10:56.75	191.48	70.38	-39.0	-40.6	20.8	0.00e+00	0	38	0	0	49	4387
2026-01-22 10:10:57.75	192.18	70.79	-38.7	-40.3	21.1	0.00e+00	0	37	0	0	49	4201
2026-01-22 10:10:58.74	192.91	71.20	-38.7	-40.3	20.9	0.00e+00	0	38	0	0	49	4236
2026-01-22 10:10:59.74	193.67	71.61	-39.1	-40.7	20.6	0.00e+00	0	38	0	0	49	4428
2026-01-22 10:11:00.75	194.48	72.02	-39.2	-40.9	20.6	0.00e+00	0	38	0	0	49	4494
2026-01-22 10:11:01.75	195.32	72.43	-39.6	-41.3	20.4	0.00e+00	0	37	0	0	49	4728
2026-01-22 10:11:02.74	196.19	72.83	-39.6	-41.3	20.5	0.00e+00	0	38	0	0	50	4472
2026-01-22 10:11:03.74	197.12	73.23	-39.4	-41.1	20.6	0.00e+00	0	38	0	0	50	4361
2026-01-22 10:11:04.75	198.10	73.63	-39.0	-40.6	21.0	0.00e+00	0	38	0	0	50	4141
2026-01-22 10:11:05.75	199.13	74.03	-39.0	-40.6	20.9	0.00e+00	0	38	0	0	49	4371
2026-01-22 10:11:06.75	200.20	74.42	-39.0	-40.7	20.8	0.00e+00	0	38	0	0	49	4401
2026-01-22 10:11:07.75	201.34	74.81	-38.9	-40.5	21.1	0.00e+00	0	38	0	0	49	4326
2026-01-22 10:11:08.75	202.54	75.19	-38.8	-40.3	21.2	0.00e+00	0	38	0	0	49	4235
2026-01-22 10:11:09.75	203.80	75.57	-38.8	-40.4	21.3	0.00e+00	0	38	0	0	49	4254
2026-01-22 10:11:10.76	205.14	75.94	-38.9	-40.5	21.2	0.00e+00	0	38	0	0	49	4309
2026-01-22 10:11:11.75	206.54	76.30	-39.0	-40.6	21.0	0.00e+00	0	38	0	0	49	4380
2026-01-22 10:11:12.76	208.03	76.66	-39.1	-40.7	21.0	0.00e+00	0	38	0	0	49	4427
2026-01-22 10:11:13.76	209.60	77.01	-39.1	-40.7	20.9	0.00e+00	0	38	0	0	49	4437
2026-01-22 10:11:14.76	211.26	77.35	-38.8	-40.4	21.1	0.00e+00	0	37	0	0	49	4263
2026-01-22 10:11:15.76	213.00	77.68	-38.4	-40.0	21.5	0.00e+00	0	38	0	0	48	4319
2026-01-22 10:11:16.76	214.84	78.00	-38.4	-40.0	21.5	0.00e+00	0	38	0	0	48	4307
2026-01-22 10:11:17.76	216.79	78.30	-38.6	-40.2	21.4	0.00e+00	0	37	0	0	48	4406
2026-01-22 10:11:18.76	218.84	78.59	-38.6	-40.2	21.3	0.00e+00	0	37	0	0	48	4396
2026-01-22 10:11:19.77	221.01	78.87	-38.6	-40.2	21.2	0.00e+00	0	38	0	0	48	4420
2026-01-22 10:11:20.77	223.28	79.14	-38.5	-40.1	21.3	0.00e+00	0	38	0	0	48	4348
2026-01-22 10:11:21.77	225.65	79.38	-38.4	-40.0	21.2	0.00e+00	0	38	0	0	48	4295
2026-01-22 10:11:22.77	228.14	79.61	-38.8	-40.4	20.9	0.00e+00	0	38	0	0	48	4509
2026-01-22 10:11:23.77	230.73	79.82	-39.2	-40.8	20.7	0.00e+00	0	38	0	0	49	4477
2026-01-22 10:11:24.78	233.45	80.00	-39.2	-40.8	20.7	0.00e+00	0	37	0	0	49	4477
2026-01-22 10:11:25.78	236.25	80.17	-39.0	-40.6	20.8	0.00e+00	0	37	0	0	49	4365
2026-01-22 10:11:26.78	239.13	80.31	-39.0	-40.6	21.0	0.00e+00	0	38	0	0	49	4356
2026-01-22 10:11:27.78	242.09	80.42	-38.7	-40.3	21.2	0.00e+00	0	38	0	0	49	4209
2026-01-22 10:11:28.78	245.12	80.51	-38.9	-40.5	21.0	0.00e+00	0	38	0	0	49	4308
2026-01-22 10:11:29.78	248.19	80.57	-38.9	-40.5	21.0	0.00e+00	0	37	0	0	49	4292
2026-01-22 10:11:30.79	251.33	80.61	-39.0	-40.6	20.9	0.00e+00	0	38	0	0	49	4373
2026-01-22 10:11:31.79	254.45	80.62	-39.1	-40.7	20.9	0.00e+00	0	38	0	0	49	4428
2026-01-22 10:11:32.79	257.57	80.60	-39.4	-41.1	20.7	0.00e+00	0	38	0	0	49	4635
2026-01-22 10:11:33.79	260.67	80.55	-39.4	-41.0	20.7	0.00e+00	0	37	0	0	49	4591
2026-01-22 10:11:34.79	263.73	80.48	-39.1	-40.8	20.9	0.00e+00	0	38	0	0	49	4448
2026-01-22 10:11:35.79	266.73	80.38	-39.0	-40.6	21.0	0.00e+00	0	38	0	0	49	4374
2026-01-22 10:11:36.80	269.69	80.25	-38.8	-40.4	21.1	0.00e+00	0	38	0	0	49	4286
2026-01-22 10:11:37.80	272.54	80.11	-38.4	-39.9	21.6	0.00e+00	0	37	0	0	48	4265
2026-01-22 10:11:38.80	275.29	79.93	-38.4	-40.0	21.4	0.00e+00	0	37	0	0	48	4313
2026-01-22 10:11:39.80	277.95	79.74	-39.0	-40.6	20.9	0.00e+00	0	37	0	0	48	4643
2026-01-22 10:11:40.80	280.50	79.52	-39.1	-40.8	20.9	0.00e+00	0	38	0	0	49	4458
2026-01-22 10:11:41.81	282.97	79.29	-39.4	-41.0	20.7	0.00e+00	0	38	0	0	49	4579
2026-01-22 10:11:42.81	285.30	79.04	-40.1	-41.8	20.0	0.00e+00	0	38	0	0	50	4717
2026-01-22 10:11:43.81	287.52	78.77	-39.9	-41.6	20.2	0.00e+00	0	37	0	0	51	4379
2026-01-22 10:11:44.81	289.63	78.49	-39.0	-40.6	21.1	0.00e+00	0	37	0	0	50	4120
2026-01-22 10:11:45.81	291.64	78.19	-38.9	-40.5	21.2	0.00e+00	0	38	0	0	49	4313
2026-01-22 10:11:46.81	293.54	77.88	-38.9	-40.5	21.0	0.00e+00	0	37	0	0	49	4295
2026-01-22 10:11:47.81	295.35	77.56	-38.9	-40.5	21.0	0.00e+00	0	37	0	0	49	4311
2026-01-22 10:11:48.81	297.06	77.22	-38.4	-40.0	21.3	0.00e+00	0	37	0	0	48	4311
2026-01-22 10:11:49.82	298.69	76.88	-38.6	-40.2	21.1	0.00e+00	0	37	0	0	48	4405
2026-01-22 10:11:50.82	300.22	76.53	-38.9	-40.4	20.6	0.00e+00	0	37	0	0	48	4544
2026-01-22 10:11:51.82	301.68	76.17	-39.1	-40.7	20.5	0.00e+00	0	38	0	0	48	4700
2026-01-22 10:11:52.82	303.05	75.80	-39.2	-40.8	20.7	0.00e+00	0	37	0	0	49	4492
2026-01-22 10:11:53.83	304.37	75.43	-39.4	-41.1	20.6	0.00e+00	0	38	0	0	49	4613
2026-01-22 10:11:54.83	305.60	75.05	-39.4	-41.0	20.7	0.00e+00	0	38	0	0	49	4598
2026-01-22 10:11:55.83	306.78	74.66	-38.9	-40.5	21.1	0.00e+00	0	37	0	0	49	4320
2026-01-22 10:11:56.83	307.89	74.27	-38.8	-40.4	21.1	0.00e+00	0	37	0	0	49	4248
2026-01-22 10:11:57.83	308.95	73.88	-39.2	-40.9	20.6	0.00e+00	0	38	0	0	49	4508
2026-01-22 10:11:58.83	309.95	73.49	-39.3	-41.0	20.7	0.00e+00	0	37	0	0	49	4546
2026-01-22 10:11:59.83	310.90	73.09	-39.3	-40.9	20.7	0.00e+00	0	37	0	0	49	4544
2026-01-22 10:12:00.84	311.82	72.68	-39.5	-41.2	20.6	0.00e+00	0	37	0	0	49	4654
2026-01-22 10:12:01.84	312.69	72.28	-39.2	-40.8	21.0	0.00e+00	0	38	0	0	49	4451
2026-01-22 10:12:02.84	313.51	71.87	-38.5	-40.1	21.4	0.00e+00	0	38	0	0	49	4117
2026-01-22 10:12:03.85	314.30	71.46	-38.3	-39.8	21.6	0.00e+00	0	38	0	0	48	4237
2026-01-22 10:12:04.85	315.05	71.05	-38.2	-39.8	21.7	0.00e+00	0	38	0	0	48	4196
2026-01-22 10:12:05.85	315.77	70.64	-38.0	-39.5	21.7	0.00e+00	0	38	0	0	47	4314
2026-01-22 10:12:06.85	316.45	70.22	-38.5	-40.1	20.9	0.00e+00	0	38	0	0	47	4617
2026-01-22 10:12:07.85	317.11	69.81	-39.4	-41.1	20.3	0.00e+00	0	38	0	0	49	4628
2026-01-22 10:12:08.86	317.74	69.39	-39.6	-41.2	20.3	0.00e+00	0	37	0	0	50	4425
2026-01-22 10:12:09.85	318.34	68.98	-39.4	-41.1	20.5	0.00e+00	0	37	0	0	50	4345
2026-01-22 10:12:10.85	318.91	68.57	-38.8	-40.4	21.1	0.00e+00	0	38	0	0	49	4249
2026-01-22 10:12:11.85	319.47	68.16	-38.4	-39.9	21.5	0.00e+00	0	38	0	0	48	4260
2026-01-22 10:12:12.85	320.00	67.74	-38.4	-39.9	21.6	0.00e+00	0	38	0	0	48	4265
2026-01-22 10:12:13.85	320.50	67.33	-38.9	-40.5	21.1	0.00e+00	0	38	0	0	48	4561
2026-01-22 10:12:14.85	320.99	66.92	-39.5	-41.1	20.6	0.00e+00	0	38	0	0	49	4626
2026-01-22 10:12:15.85	321.47	66.50	-39.6	-41.2	20.4	0.00e+00	0	38	0	0	49	4689
2026-01-22 10:12:16.85	321.92	66.09	-39.4	-41.1	20.5	0.00e+00	0	37	0	0	49	4607
2026-01-22 10:12:17.85	322.36	65.68	-39.2	-40.8	20.5	0.00e+00	0	38	0	0	49	4477
2026-01-22 10:12:18.86	322.78	65.27	-39.0	-40.7	20.7	0.00e+00	0	38	0	0	49	4396
2026-01-22 10:12:19.86	323.19	64.86	-38.5	-40.1	21.4	0.00e+00	0	37	0	0	49	4109
2026-01-22 10:12:20.86	323.58	64.45	-38.9	-40.4	21.2	0.00e+00	0	38	0	0	48	4536
2026-01-22 10:12:21.86	323.96	64.05	-40.1	-41.8	20.0	0.00e+00	0	38	0	0	50	4736
2026-01-22 10:12:22.86	324.32	63.64	-41.0	-42.9	18.9	0.00e+00	0	37	0	0	52	4804
2026-01-22 10:12:23.86	324.67	63.24	-40.7	-42.6	18.9	0.00e+00	0	38	0	0	52	4627
2026-01-22 10:12:24.87	325.02	62.83	-40.1	-41.8	19.6	0.00e+00	0	38	0	0	52	4217
2026-01-22 10:12:25.87	325.35	62.43	-39.5	-41.2	20.4	0.00e+00	0	38	0	0	51	4169
2026-01-22 10:12:26.87	325.67	62.03	-39.4	-41.0	20.6	0.00e+00	0	38	0	0	50	4337
2026-01-22 10:12:27.87	325.97	61.63	-39.4	-41.0	20.8	0.00e+00	0	38	0	0	50	4315
2026-01-22 10:12:28.87	326.27	61.24	-40.0	-41.6	20.3	0.00e+00	0	38	0	0	50	4640
2026-01-22 10:12:29.87	326.56	60.84	-40.7	-42.5	19.5	0.00e+00	0	38	0	0	52	4549
2026-01-22 10:12:30.88	326.85	60.45	-41.5	-43.4	18.6	0.00e+00	0	37	0	0	53	4773
2026-01-22 10:12:31.88	327.12	60.06	-42.0	-44.0	18.1	0.00e+00	0	38	0	0	54	4825
2026-01-22 10:12:32.88	327.39	59.67	-41.3	-43.1	18.5	0.00e+00	0	38	0	0	54	4371
2026-01-22 10:12:33.89	327.65	59.28	-40.4	-42.2	19.2	0.00e+00	0	38	0	0	52	4394
2026-01-22 10:12:34.89	327.90	58.89	-39.4	-41.0	20.3	0.00e+00	0	38	0	0	51	4095
2026-01-22 10:12:35.89	328.14	58.51	-39.2	-40.7	20.7	0.00e+00	0	37	0	0	50	4190
2026-01-22 10:12:36.90	328.38	58.13	-39.5	-41.2	20.3	0.00e+00	0	38	0	0	50	4395
2026-01-22 10:12:37.90	328.61	57.75	-40.5	-42.2	19.6	0.00e+00	0	37	0	0	51	4701
2026-01-22 10:12:38.90	328.83	57.37	-41.5	-43.3	18.6	0.00e+00	0	38	0	0	53	4755
2026-01-22 10:12:39.90	329.05	57.00	-42.4	-44.4	17.6	0.00e+00	0	38	0	0	55	4813
2026-01-22 10:12:40.91	329.26	56.62	-43.1	-45.3	16.9	0.00e+00	0	37	0	0	56	5024
2026-01-22 10:12:41.91	329.46	56.25	-43.2	-45.5	16.4	0.00e+00	0	38	0	0	57	4842
2026-01-22 10:12:42.91	329.66	55.88	-42.5	-44.7	16.7	0.00e+00	0	38	0	0	57	4416
2026-01-22 10:12:43.91	329.86	55.52	-41.3	-43.2	18.1	0.00e+00	0	38	0	0	54	4441
2026-01-22 10:12:44.91	330.05	55.15	-40.2	-41.9	19.6	0.00e+00	0	38	0	0	52	4263
2026-01-22 10:12:45.91	330.24	54.79	-40.1	-41.8	19.9	0.00e+00	0	38	0	0	52	4198
2026-01-22 10:12:46.92	330.42	54.43	-40.1	-41.8	20.1	0.00e+00	0	38	0	0	51	4447
2026-01-22 10:12:47.92	330.60	54.07	-40.7	-42.4	19.5	0.00e+00	0	38	0	0	51	4814
2026-01-22 10:12:48.92	330.77	53.72	-41.1	-42.9	19.0	0.00e+00	0	38	0	0	52	4809
2026-01-22 10:12:49.92	330.94	53.36	-41.3	-43.2	18.8	0.00e+00	0	38	0	0	53	4680
2026-01-22 10:12:50.92	331.10	53.01	-41.5	-43.4	18.6	0.00e+00	0	38	0	0	53	4791
2026-01-22 10:12:51.92	331.26	52.67	-42.1	-44.1	18.0	0.00e+00	0	38	0	0	54	4886
2026-01-22 10:12:52.92	331.42	52.32	-42.4	-44.5	17.6	0.00e+00	0	37	0	0	55	4818
2026-01-22 10:12:53.92	331.57	51.98	-42.4	-44.4	17.5	0.00e+00	0	37	0	0	55	4810
2026-01-22 10:12:54.92	331.72	51.64	-42.1	-44.0	17.8	0.00e+00	0	38	0	0	55	4582
2026-01-22 10:12:55.93	331.87	51.29	-41.5	-43.4	18.4	0.00e+00	0	38	0	0	55	4248
2026-01-22 10:12:56.93	332.01	50.96	-41.1	-42.9	18.9	0.00e+00	0	38	0	0	54	4270
2026-01-22 10:12:57.93	332.16	50.62	-41.2	-43.0	19.0	0.00e+00	0	38	0	0	54	4301
2026-01-22 10:12:58.93	332.29	50.29	-41.4	-43.3	18.7	0.00e+00	0	38	0	0	54	4458
2026-01-22 10:12:59.92	332.43	49.96	-41.7	-43.6	18.4	0.00e+00	0	38	0	0	54	4633
2026-01-22 10:13:00.93	332.56	49.63	-41.8	-43.7	18.3	0.00e+00	0	38	0	0	54	4695
2026-01-22 10:13:01.93	332.69	49.31	-42.0	-44.0	18.0	0.00e+00	0	38	0	0	54	4837
2026-01-22 10:13:02.93	332.81	48.98	-42.2	-44.1	17.7	0.00e+00	0	37	0	0	55	4647
2026-01-22 10:13:03.94	332.94	48.66	-42.2	-44.1	17.7	0.00e+00	0	37	0	0	55	4627
2026-01-22 10:13:04.94	333.06	48.34	-42.2	-44.1	17.7	0.00e+00	0	38	0	0	55	4622
2026-01-22 10:13:05.95	333.18	48.02	-42.4	-44.4	17.5	0.00e+00	0	38	0	0	55	4774
2026-01-22 10:13:06.95	333.30	47.70	-42.6	-44.7	17.3	0.00e+00	0	38	0	0	55	4947
2026-01-22 10:13:07.95	333.41	47.39	-42.9	-45.0	17.2	0.00e+00	0	38	0	0	56	4825
2026-01-22 10:13:08.95	333.52	47.08	-43.0	-45.1	17.1	0.00e+00	0	38	0	0	56	4918
2026-01-22 10:13:09.96	333.64	46.77	-42.7	-44.8	17.3	0.00e+00	0	38	0	0	56	4747
2026-01-22 10:13:10.96	333.74	46.46	-42.4	-44.4	17.7	0.00e+00	0	38	0	0	56	4540
2026-01-22 10:13:11.96	333.85	46.16	-42.2	-44.2	17.8	0.00e+00	0	38	0	0	56	4419
2026-01-22 10:13:12.96	333.95	45.86	-42.8	-44.9	17.2	0.00e+00	0	37	0	0	56	4781
2026-01-22 10:13:13.96	334.06	45.56	-43.2	-45.5	16.8	0.00e+00	0	38	0	0	57	4816
2026-01-22 10:13:14.96	334.16	45.26	-43.7	-46.0	16.3	0.00e+00	0	38	0	0	58	4861
2026-01-22 10:13:15.97	334.26	44.96	-44.0	-46.4	15.8	0.00e+00	0	38	0	0	58	5068
2026-01-22 10:13:16.97	334.35	44.67	-44.1	-46.4	15.6	0.00e+00	0	38	0	0	58	5096
2026-01-22 10:13:17.97	334.45	44.38	-44.1	-46.5	15.3	0.00e+00	0	38	0	0	58	5147
2026-01-22 10:13:18.97	334.54	44.09	-44.2	-46.7	15.1	0.00e+00	0	38	0	0	59	4932
2026-01-22 10:13:19.97	334.63	43.80	-44.0	-46.4	15.7	0.00e+00	0	38	0	0	59	4770
2026-01-22 10:13:20.97	334.72	43.52	-43.3	-45.5	16.7	0.00e+00	0	38	0	0	58	4564
2026-01-22 10:13:21.98	334.81	43.23	-42.7	-44.8	17.4	0.00e+00	0	37	0	0	57	4474
2026-01-22 10:13:22.98	334.90	42.95	-42.3	-44.3	17.9	0.00e+00	0	37	0	0	56	4471
2026-01-22 10:13:23.98	334.99	42.67	-42.2	-44.2	18.0	0.00e+00	0	37	0	0	56	4403
2026-01-22 10:13:24.98	335.07	42.40	-42.3	-44.4	17.9	0.00e+00	0	38	0	0	56	4495
2026-01-22 10:13:25.98	335.15	42.12	-42.4	-44.4	17.7	0.00e+00	0	38	0	0	56	4536
2026-01-22 10:13:26.98	335.24	41.85	-42.4	-44.4	17.8	0.00e+00	0	38	0	0	56	4516
2026-01-22 10:13:27.98	335.32	41.58	-42.4	-44.5	17.7	0.00e+00	0	38	0	0	56	4546
2026-01-22 10:13:28.99	335.40	41.31	-42.2	-44.1	17.9	0.00e+00	0	38	0	0	56	4390
2026-01-22 10:13:29.99	335.47	41.04	-42.1	-44.0	18.0	0.00e+00	0	38	0	0	56	4328
2026-01-22 10:13:30.99	335.55	40.78	-42.3	-44.2	17.9	0.00e+00	0	38	0	0	56	4432
2026-01-22 10:13:31.99	335.63	40.51	-42.8	-44.8	17.3	0.00e+00	0	37	0	0	56	4758
2026-01-22 10:13:32.99	335.70	40.25	-43.2	-45.3	17.0	0.00e+00	0	38	0	0	57	4729
2026-01-22 10:13:33.99	335.77	39.99	-43.5	-45.7	16.5	0.00e+00	0	38	0	0	57	4974
2026-01-22 10:13:34.99	335.85	39.74	-43.6	-45.9	16.4	0.00e+00	0	38	0	0	57	5045
2026-01-22 10:13:35.99	335.92	39.48	-43.7	-46.0	16.3	0.00e+00	0	38	0	0	58	4843
2026-01-22 10:13:36.99	335.99	39.23	-43.6	-45.9	16.4	0.00e+00	0	38	0	0	58	4764
2026-01-22 10:13:37.99	336.06	38.97	-43.7	-46.0	16.3	0.00e+00	0	38	0	0	58	4823
2026-01-22 10:13:39.00	336.12	38.72	-43.4	-45.7	16.5	0.00e+00	0	38	0	0	58	4656
2026-01-22 10:13:40.00	336.19	38.47	-42.7	-44.8	17.3	0.00e+00	0	37	0	0	57	4475
2026-01-22 10:13:41.00	336.26	38.23	-42.4	-44.4	17.7	0.00e+00	0	38	0	0	56	4511
2026-01-22 10:13:42.00	336.32	37.98	-42.0	-43.9	18.2	0.00e+00	0	38	0	0	56	4256
2026-01-22 10:13:43.00	336.39	37.74	-41.7	-43.6	18.3	0.00e+00	0	38	0	0	55	4378
2026-01-22 10:13:44.01	336.45	37.50	-41.7	-43.5	18.4	0.00e+00	0	38	0	0	55	4335
2026-01-22 10:13:45.00	336.51	37.26	-41.3	-43.1	18.7	0.00e+00	0	38	0	0	54	4381
2026-01-22 10:13:46.00	336.57	37.02	-41.4	-43.2	18.6	0.00e+00	0	38	0	0	54	4426
2026-01-22 10:13:47.01	336.64	36.78	-41.5	-43.3	18.6	0.00e+00	0	38	0	0	54	4487
2026-01-22 10:13:48.01	336.70	36.55	-41.5	-43.3	18.6	0.00e+00	0	38	0	0	54	4487
2026-01-22 10:13:49.01	336.75	36.31	-41.5	-43.4	18.5	0.00e+00	0	38	0	0	54	4512
2026-01-22 10:13:50.01	336.81	36.08	-41.5	-43.3	18.5	0.00e+00	0	38	0	0	54	4492
2026-01-22 10:13:51.01	336.87	35.85	-41.2	-43.0	18.8	0.00e+00	0	38	0	0	54	4321
2026-01-22 10:13:52.01	336.93	35.63	-41.1	-42.9	18.9	0.00e+00	0	38	0	0	54	4265
2026-01-22 10:13:53.01	336.98	35.40	-41.1	-43.0	18.7	0.00e+00	0	38	0	0	54	4323
2026-01-22 10:13:54.01	337.04	35.17	-41.2	-43.2	18.6	0.00e+00	0	38	0	0	54	4397
2026-01-22 10:13:55.01	337.09	34.95	-41.3	-43.3	18.5	0.00e+00	0	38	0	0	54	4444
2026-01-22 10:13:56.01	337.15	34.73	-41.5	-43.5	18.4	0.00e+00	0	38	0	0	54	4571
2026-01-22 10:13:57.01	337.20	34.51	-41.4	-43.3	18.5	0.00e+00	0	38	0	0	54	4492
2026-01-22 10:13:58.01	337.25	34.29	-41.4	-43.4	18.5	0.00e+00	0	38	0	0	54	4521
2026-01-22 10:13:59.02	337.31	34.07	-41.5	-43.5	18.4	0.00e+00	0	38	0	0	54	4572
2026-01-22 10:14:00.01	337.36	33.86	-41.7	-43.7	18.2	0.00e+00	0	38	0	0	54	4658
2026-01-22 10:14:01.02	337.41	33.64	-41.6	-43.5	18.5	0.00e+00	0	38	0	0	54	4560
2026-01-22 10:14:02.02	337.46	33.43	-41.7	-43.6	18.4	0.00e+00	0	38	0	0	54	4612
2026-01-22 10:14:03.01	337.51	33.22	-41.6	-43.5	18.4	0.00e+00	0	38	0	0	54	4576
2026-01-22 10:14:04.01	337.56	33.01	-41.2	-43.1	18.8	0.00e+00	0	38	0	0	54	4347
2026-01-22 10:14:05.02	337.61	32.80	-41.0	-42.9	19.0	0.00e+00	0	38	0	0	54	4245
2026-01-22 10:14:06.02	337.65	32.59	-40.8	-42.6	19.1	0.00e+00	0	38	0	0	53	4356
2026-01-22 10:14:07.02	337.70	32.39	-40.7	-42.5	19.1	0.00e+00	0	38	0	0	53	4318
2026-01-22 10:14:08.02	337.75	32.18	-40.5	-42.3	19.3	0.00e+00	0	38	0	0	53	4194
2026-01-22 10:14:09.02	337.79	31.98	-40.4	-42.2	19.4	0.00e+00	0	38	0	0	52	4408
2026-01-22 10:14:10.02	337.84	31.78	-40.4	-42.2	19.4	0.00e+00	0	38	0	0	52	4424
2026-01-22 10:14:11.02	337.88	31.58	-40.3	-42.2	19.4	0.00e+00	0	38	0	0	52	4398
2026-01-22 10:14:12.02	337.93	31.38	-40.4	-42.2	19.4	0.00e+00	0	38	0	0	52	4428
2026-01-22 10:14:13.03	337.97	31.18	-40.3	-42.2	19.5	0.00e+00	0	38	0	0	52	4396
2026-01-22 10:14:14.03	338.02	30.99	-40.0	-41.8	19.9	0.00e+00	0	38	0	0	51	4449
2026-01-22 10:14:15.03	338.06	30.79	-39.8	-41.6	20.0	0.00e+00	0	38	0	0	51	4368
2026-01-22 10:14:16.03	338.10	30.60	-39.9	-41.7	19.9	0.00e+00	0	38	0	0	51	4409
2026-01-22 10:14:17.03	338.15	30.41	-40.1	-41.8	19.8	0.00e+00	0	38	0	0	51	4491
2026-01-22 10:14:18.03	338.19	30.21	-40.2	-41.9	19.7	0.00e+00	0	38	0	0	51	4534
2026-01-22 10:14:19.04	338.23	30.02	-40.2	-42.0	19.8	0.00e+00	0	38	0	0	51	4554
2026-01-22 10:14:20.04	338.27	29.83	-40.4	-42.1	19.7	0.00e+00	0	38	0	0	51	4636
2026-01-22 10:14:21.04	338.31	29.65	-40.4	-42.1	19.7	0.00e+00	0	38	0	0	51	4639
2026-01-22 10:14:22.05	338.35	29.46	-40.3	-42.1	19.7	0.00e+00	0	38	0	0	51	4618
2026-01-22 10:14:23.05	338.39	29.27	-40.5	-42.3	19.6	0.00e+00	0	38	0	0	51	4712
2026-01-22 10:14:24.05	338.43	29.09	-40.6	-42.4	19.5	0.00e+00	0	38	0	0	51	4771
2026-01-22 10:14:25.05	338.47	28.91	-40.6	-42.4	19.4	0.00e+00	0	38	0	0	52	4506
2026-01-22 10:14:26.05	338.51	28.73	-40.7	-42.5	19.3	0.00e+00	0	38	0	0	52	4569
2026-01-22 10:14:27.05	338.55	28.55	-40.8	-42.7	19.2	0.00e+00	0	38	0	0	52	4655
2026-01-22 10:14:28.05	338.58	28.37	-41.0	-42.8	19.0	0.00e+00	0	38	0	0	52	4746
2026-01-22 10:14:29.05	338.62	28.19	-41.0	-42.8	19.0	0.00e+00	0	37	0	0	52	4754
2026-01-22 10:14:30.05	338.66	28.01	-41.1	-42.9	19.0	0.00e+00	0	38	0	0	52	4801
2026-01-22 10:14:31.05	338.69	27.84	-41.1	-42.9	19.0	0.00e+00	0	38	0	0	52	4807
2026-01-22 10:14:32.05	338.73	27.66	-41.0	-42.9	19.0	0.00e+00	0	38	0	0	52	4771
2026-01-22 10:14:33.05	338.77	27.49	-40.9	-42.8	19.1	0.00e+00	0	38	0	0	52	4711
2026-01-22 10:14:34.05	338.80	27.32	-40.7	-42.6	19.2	0.00e+00	0	38	0	0	52	4632
2026-01-22 10:14:35.05	338.84	27.15	-40.7	-42.6	19.3	0.00e+00	0	38	0	0	52	4611
2026-01-22 10:14:36.06	338.87	26.98	-40.6	-42.5	19.3	0.00e+00	0	38	0	0	52	4583
2026-01-22 10:14:37.06	338.91	26.81	-40.6	-42.5	19.3	0.00e+00	0	38	0	0	52	4576
2026-01-22 10:14:38.06	338.94	26.64	-40.6	-42.5	19.2	0.00e+00	0	38	0	0	52	4577
2026-01-22 10:14:39.06	338.97	26.47	-40.7	-42.6	19.2	0.00e+00	0	38	0	0	52	4605
2026-01-22 10:14:40.06	339.01	26.31	-40.5	-42.4	19.3	0.00e+00	0	38	0	0	52	4512
2026-01-22 10:14:41.06	339.04	26.14	-40.5	-42.3	19.3	0.00e+00	0	38	0	0	52	4484
2026-01-22 10:14:42.06	339.07	25.98	-40.5	-42.3	19.4	0.00e+00	0	38	0	0	52	4454
2026-01-22 10:14:43.06	339.11	25.81	-40.5	-42.3	19.3	0.00e+00	0	38	0	0	52	4479
2026-01-22 10:14:44.06	339.14	25.65	-40.3	-42.1	19.5	0.00e+00	0	38	0	0	52	4369
2026-01-22 10:14:45.06	339.17	25.49	-40.4	-42.2	19.4	0.00e+00	0	38	0	0	52	4403
2026-01-22 10:14:46.06	339.20	25.33	-40.5	-42.3	19.3	0.00e+00	0	38	0	0	52	4455
2026-01-22 10:14:47.06	339.24	25.17	-40.4	-42.3	19.3	0.00e+00	0	38	0	0	52	4444
2026-01-22 10:14:48.06	339.27	25.01	-40.4	-42.2	19.3	0.00e+00	0	38	0	0	52	4439
2026-01-22 10:14:49.06	339.30	24.86	-40.4	-42.3	19.3	0.00e+00	0	38	0	0	52	4460
2026-01-22 10:14:50.07	339.33	24.70	-40.4	-42.2	19.3	0.00e+00	0	38	0	0	52	4430
2026-01-22 10:14:51.07	339.36	24.54	-40.4	-42.2	19.3	0.00e+00	0	38	0	0	52	4436
2026-01-22 10:14:52.06	339.39	24.39	-40.3	-42.2	19.4	0.00e+00	0	38	0	0	52	4406
2026-01-22 10:14:53.07	339.42	24.24	-40.4	-42.2	19.3	0.00e+00	0	38	0	0	52	4439
2026-01-22 10:14:54.07	339.45	24.08	-40.3	-42.2	19.4	0.00e+00	0	38	0	0	52	4416
2026-01-22 10:14:55.07	339.48	23.93	-40.3	-42.2	19.4	0.00e+00	0	38	0	0	52	4396
2026-01-22 10:14:56.07	339.51	23.78	-40.2	-42.1	19.5	0.00e+00	0	38	0	0	52	4344
2026-01-22 10:14:57.07	339.54	23.63	-40.3	-42.1	19.4	0.00e+00	0	38	0	0	52	4370
2026-01-22 10:14:58.07	339.57	23.48	-40.3	-42.1	19.4	0.00e+00	0	38	0	0	52	4364
2026-01-22 10:14:59.08	339.59	23.33	-40.3	-42.0	19.4	0.00e+00	0	38	0	0	52	4339
2026-01-22 10:15:00.08	339.62	23.19	-40.2	-42.0	19.4	0.00e+00	0	38	0	0	52	4319
2026-01-22 10:15:01.08	339.65	23.04	-40.3	-42.1	19.4	0.00e+00	0	38	0	0	52	4345
2026-01-22 10:15:02.08	339.68	22.89	-40.3	-42.1	19.3	0.00e+00	0	38	0	0	52	4376
2026-01-22 10:15:03.08	339.71	22.75	-40.3	-42.1	19.4	0.00e+00	0	38	0	0	52	4348
2026-01-22 10:15:04.08	339.73	22.60	-40.0	-41.8	19.6	0.00e+00	0	38	0	0	52	4233
2026-01-22 10:15:05.08	339.76	22.46	-40.0	-41.8	19.6	0.00e+00	0	38	0	0	52	4223
2026-01-22 10:15:06.08	339.79	22.32	-40.0	-41.9	19.6	0.00e+00	0	38	0	0	52	4252
2026-01-22 10:15:07.08	339.81	22.18	-40.0	-41.9	19.7	0.00e+00	0	38	0	0	51	4505
2026-01-22 10:15:08.09	339.84	22.03	-40.1	-42.0	19.6	0.00e+00	0	38	0	0	51	4558
2026-01-22 10:15:09.09	339.87	21.89	-40.1	-42.0	19.6	0.00e+00	0	38	0	0	51	4559
2026-01-22 10:15:10.09	339.89	21.76	-40.1	-41.9	19.7	0.00e+00	0	38	0	0	51	4537
2026-01-22 10:15:11.09	339.92	21.62	-40.0	-41.9	19.8	0.00e+00	0	38	0	0	51	4501
2026-01-22 10:15:12.09	339.95	21.48	-40.1	-42.0	19.7	0.00e+00	0	38	0	0	51	4559
2026-01-22 10:15:13.09	339.97	21.34	-40.1	-41.9	19.8	0.00e+00	0	38	0	0	51	4520
2026-01-22 10:15:14.09	340.00	21.21	-40.1	-41.9	19.8	0.00e+00	0	38	0	0	51	4516
2026-01-22 10:15:15.10	340.02	21.07	-40.2	-42.0	19.7	0.00e+00	0	38	0	0	51	4549
2026-01-22 10:15:16.09	340.05	20.93	-40.1	-41.9	19.8	0.00e+00	0	38	0	0	51	4498
2026-01-22 10:15:17.10	340.07	20.80	-40.1	-41.8	19.9	0.00e+00	0	38	0	0	51	4483
2026-01-22 10:15:18.10	340.10	20.67	-40.1	-41.8	19.9	0.00e+00	0	38	0	0	51	4480
2026-01-22 10:15:19.10	340.12	20.53	-40.0	-41.8	19.9	0.00e+00	0	38	0	0	51	4463
2026-01-22 10:15:20.10	340.14	20.40	-40.2	-42.0	19.7	0.00e+00	0	38	0	0	51	4552
2026-01-22 10:15:21.10	340.17	20.27	-40.1	-41.8	19.8	0.00e+00	0	38	0	0	51	4493
2026-01-22 10:15:22.10	340.19	20.14	-40.1	-41.9	19.8	0.00e+00	0	38	0	0	51	4524
2026-01-22 10:15:23.11	340.22	20.01	-40.2	-42.0	19.7	0.00e+00	0	38	0	0	51	4570
2026-01-22 10:15:24.11	340.24	19.88	-40.2	-42.0	19.7	0.00e+00	0	38	0	0	51	4569
2026-01-22 10:15:25.11	340.26	19.75	-40.3	-42.1	19.6	0.00e+00	0	38	0	0	51	4618
2026-01-22 10:15:26.11	340.29	19.62	-40.3	-42.2	19.5	0.00e+00	0	38	0	0	51	4663
2026-01-22 10:15:27.12	340.31	19.49	-40.5	-42.3	19.5	0.00e+00	0	38	0	0	51	4724
2026-01-22 10:15:28.12	340.33	19.37	-40.6	-42.4	19.4	0.00e+00	0	38	0	0	51	4776
2026-01-22 10:15:29.12	340.36	19.24	-40.6	-42.4	19.3	0.00e+00	0	38	0	0	52	4528
2026-01-22 10:15:30.12	340.38	19.11	-40.7	-42.5	19.2	0.00e+00	0	38	0	0	52	4563
2026-01-22 10:15:31.12	340.40	18.99	-40.8	-42.6	19.2	0.00e+00	0	38	0	0	52	4605
2026-01-22 10:15:32.12	340.42	18.87	-40.8	-42.6	19.1	0.00e+00	0	38	0	0	52	4618
2026-01-22 10:15:33.12	340.45	18.74	-40.9	-42.8	19.0	0.00e+00	0	38	0	0	52	4713
2026-01-22 10:15:34.13	340.47	18.62	-40.9	-42.7	19.0	0.00e+00	0	38	0	0	52	4701
2026-01-22 10:15:35.13	340.49	18.50	-40.9	-42.8	19.0	0.00e+00	0	38	0	0	52	4720
2026-01-22 10:15:36.13	340.51	18.37	-41.0	-42.9	18.9	0.00e+00	0	38	0	0	52	4773
2026-01-22 10:15:37.13	340.53	18.25	-41.0	-42.9	18.9	0.00e+00	0	38	0	0	52	4782
2026-01-22 10:15:38.13	340.56	18.13	-41.0	-42.9	18.8	0.00e+00	0	38	0	0	52	4786
2026-01-22 10:15:39.13	340.58	18.01	-41.1	-43.1	18.7	0.00e+00	0	38	0	0	52	4873
2026-01-22 10:15:40.14	340.60	17.89	-41.1	-43.0	18.7	0.00e+00	0	38	0	0	52	4828
2026-01-22 10:15:41.14	340.62	17.77	-41.0	-42.9	18.8	0.00e+00	0	38	0	0	52	4796
2026-01-22 10:15:42.14	340.64	17.66	-40.9	-42.9	18.8	0.00e+00	0	38	0	0	52	4775
2026-01-22 10:15:43.14	340.66	17.54	-41.0	-42.9	18.7	0.00e+00	0	38	0	0	52	4798
2026-01-22 10:15:44.14	340.68	17.42	-41.0	-43.0	18.7	0.00e+00	0	38	0	0	52	4826
2026-01-22 10:15:45.14	340.70	17.30	-41.1	-43.1	18.6	0.00e+00	0	38	0	0	52	4894
2026-01-22 10:15:46.14	340.72	17.19	-41.1	-43.1	18.6	0.00e+00	0	38	0	0	52	4904
2026-01-22 10:15:47.14	340.74	17.07	-41.2	-43.1	18.5	0.00e+00	0	38	0	0	52	4916
2026-01-22 10:15:48.14	340.76	16.96	-41.1	-43.1	18.6	0.00e+00	0	38	0	0	52	4900
2026-01-22 10:15:49.14	340.78	16.84	-41.2	-43.1	18.5	0.00e+00	0	38	0	0	53	4649
2026-01-22 10:15:50.15	340.80	16.73	-41.2	-43.1	18.5	0.00e+00	0	38	0	0	53	4649
2026-01-22 10:15:51.15	340.82	16.62	-41.2	-43.2	18.4	0.00e+00	0	38	0	0	53	4689
2026-01-22 10:15:52.15	340.84	16.50	-41.2	-43.2	18.4	0.00e+00	0	38	0	0	53	4694
2026-01-22 10:15:53.15	340.86	16.39	-41.2	-43.2	18.4	0.00e+00	0	38	0	0	53	4675
2026-01-22 10:15:54.15	340.88	16.28	-41.2	-43.2	18.4	0.00e+00	0	38	0	0	53	4695
2026-01-22 10:15:55.16	340.90	16.17	-41.2	-43.3	18.3	0.00e+00	0	38	0	0	53	4729
2026-01-22 10:15:56.16	340.92	16.06	-41.3	-43.3	18.3	0.00e+00	0	38	0	0	53	4741
2026-01-22 10:15:57.16	340.94	15.95	-41.2	-43.3	18.3	0.00e+00	0	38	0	0	53	4741
2026-01-22 10:15:58.16	340.96	15.84	-41.1	-43.2	18.3	0.00e+00	0	38	0	0	53	4697
2026-01-22 10:15:59.16	340.98	15.73	-41.1	-43.2	18.4	0.00e+00	0	38	0	0	53	4696
2026-01-22 10:16:00.16	341.00	15.62	-41.1	-43.2	18.3	0.00e+00	0	38	0	0	53	4687
2026-01-22 10:16:01.17	341.02	15.51	-41.1	-43.2	18.4	0.00e+00	0	38	0	0	53	4670
2026-01-22 10:16:02.17	341.03	15.40	-41.1	-43.2	18.4	0.00e+00	0	38	0	0	53	4692
2026-01-22 10:16:03.17	341.05	15.29	-41.2	-43.2	18.3	0.00e+00	0	38	0	0	53	4698
2026-01-22 10:16:04.17	341.07	15.19	-41.2	-43.3	18.2	0.00e+00	0	38	0	0	53	4734
2026-01-22 10:16:05.17	341.09	15.08	-41.2	-43.2	18.3	0.00e+00	0	38	0	0	53	4705
2026-01-22 10:16:06.17	341.11	14.97	-41.2	-43.3	18.3	0.00e+00	0	38	0	0	53	4708
2026-01-22 10:16:07.17	341.13	14.87	-41.2	-43.2	18.3	0.00e+00	0	38	0	0	53	4675
2026-01-22 10:16:08.17	341.14	14.76	-41.2	-43.2	18.3	0.00e+00	0	38	0	0	53	4697
2026-01-22 10:16:09.17	341.16	14.66	-41.3	-43.3	18.3	0.00e+00	0	38	0	0	53	4714
2026-01-22 10:16:10.17	341.18	14.56	-41.3	-43.3	18.3	0.00e+00	0	38	0	0	53	4722
2026-01-22 10:16:11.18	341.20	14.45	-41.3	-43.3	18.2	0.00e+00	0	38	0	0	53	4740
2026-01-22 10:16:12.18	341.21	14.35	-41.3	-43.4	18.2	0.00e+00	0	38	0	0	53	4763
2026-01-22 10:16:13.17	341.23	14.25	-41.3	-43.3	18.2	0.00e+00	0	38	0	0	53	4740
2026-01-22 10:16:14.18	341.25	14.14	-41.4	-43.5	18.1	0.00e+00	0	38	0	0	53	4827
2026-01-22 10:16:15.18	341.27	14.04	-41.4	-43.5	18.1	0.00e+00	0	38	0	0	53	4828
2026-01-22 10:16:16.18	341.28	13.94	-41.4	-43.6	18.0	0.00e+00	0	38	0	0	53	4885
2026-01-22 10:16:17.18	341.30	13.84	-41.3	-43.5	18.1	0.00e+00	0	38	0	0	53	4838
2026-01-22 10:16:18.18	341.32	13.74	-41.2	-43.4	18.2	0.00e+00	0	38	0	0	53	4779
2026-01-22 10:16:19.18	341.34	13.64	-41.3	-43.5	18.1	0.00e+00	0	38	0	0	53	4836
2026-01-22 10:16:20.18	341.35	13.54	-41.3	-43.5	18.0	0.00e+00	0	38	0	0	53	4860
2026-01-22 10:16:21.18	341.37	13.44	-41.2	-43.5	18.1	0.00e+00	0	38	0	0	53	4818
2026-01-22 10:16:22.18	341.39	13.34	-41.2	-43.4	18.1	0.00e+00	0	38	0	0	53	4814
2026-01-22 10:16:23.19	341.40	13.24	-41.2	-43.4	18.2	0.00e+00	0	38	0	0	53	4796
2026-01-22 10:16:24.19	341.42	13.14	-41.3	-43.5	18.1	0.00e+00	0	38	0	0	53	4821
2026-01-22 10:16:25.19	341.44	13.04	-41.2	-43.4	18.2	0.00e+00	0	38	0	0	53	4786
2026-01-22 10:16:26.19	341.45	12.95	-41.3	-43.5	18.1	0.00e+00	0	38	0	0	53	4815
2026-01-22 10:16:27.19	341.47	12.85	-41.3	-43.4	18.1	0.00e+00	0	38	0	0	53	4789
2026-01-22 10:16:28.19	341.48	12.75	-41.4	-43.5	18.1	0.00e+00	0	38	0	0	53	4846
2026-01-22 10:16:29.20	341.50	12.66	-41.4	-43.6	18.0	0.00e+00	0	38	0	0	53	4877
2026-01-22 10:16:30.19	341.52	12.56	-41.4	-43.5	18.0	0.00e+00	0	38	0	0	53	4855
2026-01-22 10:16:31.19	341.53	12.47	-41.4	-43.5	18.1	0.00e+00	0	38	0	0	53	4830
2026-01-22 10:16:32.20	341.55	12.37	-41.4	-43.5	18.1	0.00e+00	0	38	0	0	53	4842
2026-01-22 10:16:33.20	341.56	12.27	-41.3	-43.5	18.1	0.00e+00	0	38	0	0	53	4815
2026-01-22 10:16:34.20	341.58	12.18	-41.5	-43.6	18.0	0.00e+00	0	38	0	0	53	4916
2026-01-22 10:16:35.20	341.60	12.09	-41.3	-43.4	18.1	0.00e+00	0	38	0	0	53	4809
2026-01-22 10:16:36.20	341.61	11.99	-41.5	-43.7	17.9	0.00e+00	0	38	0	0	53	4927
2026-01-22 10:16:37.21	341.63	11.90	-41.4	-43.5	18.1	0.00e+00	0	38	0	0	53	4837
2026-01-22 10:16:38.21	341.64	11.81	-41.3	-43.5	18.1	0.00e+00	0	38	0	0	53	4824
2026-01-22 10:16:39.21	341.66	11.71	-41.3	-43.5	18.1	0.00e+00	0	38	0	0	53	4821
2026-01-22 10:16:40.21	341.67	11.62	-41.4	-43.6	18.0	0.00e+00	0	38	0	0	53	4871
2026-01-22 10:16:41.22	341.69	11.53	-41.2	-43.4	18.1	0.00e+00	0	38	0	0	53	4787
2026-01-22 10:16:42.22	341.70	11.44	-41.3	-43.4	18.1	0.00e+00	0	38	0	0	53	4797
2026-01-22 10:16:43.22	341.72	11.34	-41.3	-43.5	18.0	0.00e+00	0	38	0	0	53	4832
2026-01-22 10:16:44.22	341.73	11.25	-41.3	-43.4	18.1	0.00e+00	0	38	0	0	53	4814
2026-01-22 10:16:45.22	341.75	11.16	-41.4	-43.6	18.0	0.00e+00	0	38	0	0	53	4879
2026-01-22 10:16:46.22	341.76	11.07	-41.4	-43.6	17.9	0.00e+00	0	38	0	0	53	4902
2026-01-22 10:16:47.22	341.78	10.98	-41.5	-43.7	17.9	0.00e+00	0	38	0	0	53	4940
2026-01-22 10:16:48.22	341.79	10.89	-41.4	-43.6	18.0	0.00e+00	0	38	0	0	53	4877
2026-01-22 10:16:49.22	341.81	10.80	-41.2	-43.4	18.1	0.00e+00	0	38	0	0	53	4785
2026-01-22 10:16:50.22	341.82	10.72	-41.3	-43.5	18.0	0.00e+00	0	38	0	0	53	4833
2026-01-22 10:16:51.22	341.84	10.63	-41.4	-43.6	18.0	0.00e+00	0	38	0	0	53	4875
2026-01-22 10:16:52.22	341.85	10.54	-41.4	-43.6	17.9	0.00e+00	0	38	0	0	53	4888
2026-01-22 10:16:53.22	341.87	10.45	-41.6	-43.8	17.8	0.00e+00	0	38	0	0	53	4990
2026-01-22 10:16:54.23	341.88	10.36	-41.5	-43.8	17.8	0.00e+00	0	38	0	0	53	4994
2026-01-22 10:16:55.23	341.90	10.28	-41.6	-43.8	17.7	0.00e+00	0	38	0	0	53	5041
2026-01-22 10:16:56.23	341.91	10.19	-41.6	-43.9	17.6	0.00e+00	0	38	0	0	54	4795
2026-01-22 10:16:57.23	341.93	10.10	-41.4	-43.7	17.8	0.00e+00	0	38	0	0	54	4695
2026-01-22 10:16:58.23	341.94	10.02	-41.5	-43.8	17.7	0.00e+00	0	37	0	0	54	4735
2026-01-22 10:16:59.23	341.95	9.93	-41.5	-43.9	17.7	0.00e+00	0	38	0	0	54	4760
2026-01-22 10:17:00.24	341.97	9.84	-41.5	-43.9	17.7	0.00e+00	0	38	0	0	54	4782
2026-01-22 10:17:01.24	341.98	9.76	-41.5	-43.9	17.6	0.00e+00	0	38	0	0	54	4793
2026-01-22 10:17:02.24	342.00	9.67	-41.4	-43.9	17.6	0.00e+00	0	37	0	0	54	4806
2026-01-22 10:17:03.24	342.01	9.59	-41.4	-44.0	17.5	0.00e+00	0	38	0	0	54	4848
2026-01-22 10:17:04.24	342.02	9.50	-41.4	-44.0	17.5	0.00e+00	0	38	0	0	54	4867
2026-01-22 10:17:05.24	342.04	9.42	-41.4	-44.1	17.5	0.00e+00	0	38	0	0	54	4890
2026-01-22 10:17:06.24	342.05	9.33	-41.4	-44.1	17.5	0.00e+00	0	38	0	0	54	4875
2026-01-22 10:17:07.24	342.06	9.25	-41.4	-44.1	17.4	0.00e+00	0	38	0	0	54	4905
2026-01-22 10:17:08.25	342.08	9.17	-41.4	-44.2	17.4	0.00e+00	0	38	0	0	54	4951
2026-01-22 10:17:09.25	342.09	9.08	-41.4	-44.2	17.4	0.00e+00	0	38	0	0	54	4928
2026-01-22 10:17:10.25	342.11	9.00	-41.5	-44.3	17.3	0.00e+00	0	38	0	0	54	5007
2026-01-22 10:17:11.25	342.12	8.92	-48.9	-62.5	3.8	2.66e-01	0	37	104	0	68	18120
2026-01-22 10:17:12.24	342.13	8.84	-49.3	-63.2	3.8	1.49e+00	0	38	104	0	69	18714
2026-01-22 10:17:13.24	342.15	8.75	-49.3	-63.4	3.8	1.49e+00	0	38	104	0	69	19069
2026-01-22 10:17:14.24	342.16	8.67	-49.9	-63.5	3.8	1.49e+00	0	38	104	0	71	17104
2026-01-22 10:17:15.23	342.17	8.59	-49.4	-63.6	3.8	1.49e+00	0	38	104	0	69	19411
2026-01-22 10:17:16.23	342.19	8.51	-49.8	-63.6	3.8	1.49e+00	0	38	104	0	71	17332
2026-01-22 10:17:17.23	342.20	8.43	-50.0	-63.7	3.8	1.49e+00	0	38	104	0	71	17524
2026-01-22 10:17:18.22	342.21	8.35	-50.4	-63.7	3.8	1.49e+00	0	38	104	0	71	17529
2026-01-22 10:17:19.22	342.22	8.27	-50.6	-63.8	3.8	1.49e+00	0	38	104	0	71	17688
2026-01-22 10:17:20.21	342.24	8.19	-50.3	-63.7	3.8	1.49e+00	0	38	104	0	71	17645
2026-01-22 10:17:21.21	342.25	8.11	-50.3	-63.7	3.8	1.49e+00	0	38	104	0	71	17615
2026-01-22 10:17:22.21	342.26	8.03	-50.5	-63.8	3.8	1.49e+00	0	38	104	0	71	17736
2026-01-22 10:17:23.20	342.28	7.95	-50.6	-63.7	3.8	1.49e+00	0	38	104	0	71	17661
2026-01-22 10:17:24.20	342.29	7.87	-50.6	-63.7	3.8	1.49e+00	0	38	104	0	72	16626
2026-01-22 10:17:25.20	342.30	7.79	-50.4	-63.7	3.8	1.49e+00	0	38	104	0	72	16622
2026-01-22 10:17:26.19	342.31	7.71	-50.5	-63.7	3.8	1.49e+00	0	38	104	0	72	16592
2026-01-22 10:17:27.19	342.33	7.63	-50.5	-63.7	3.8	1.49e+00	0	38	104	0	72	16635
2026-01-22 10:17:28.19	342.34	7.56	-50.5	-63.7	3.8	1.49e+00	0	38	104	0	72	16623
2026-01-22 10:17:29.18	342.35	7.48	-50.6	-63.7	3.8	1.49e+00	0	38	104	0	72	16593
2026-01-22 10:17:30.18	342.37	7.40	-50.6	-63.7	3.8	1.49e+00	0	38	104	0	72	16623
2026-01-22 10:17:31.18	342.38	7.32	-50.6	-63.7	3.8	1.49e+00	0	38	104	0	72	16579
2026-01-22 10:17:32.18	342.39	7.25	-50.7	-63.7	3.8	1.49e+00	0	38	104	0	72	16576
2026-01-22 10:17:33.17	342.40	7.17	-50.6	-63.7	3.8	1.49e+00	0	38	104	0	72	16532
2026-01-22 10:17:34.17	342.41	7.09	-50.6	-63.7	3.8	1.49e+00	0	38	104	0	72	16508
2026-01-22 10:17:35.16	342.43	7.02	-50.6	-63.7	3.8	1.49e+00	0	38	104	0	72	16535
2026-01-22 10:17:36.16	342.44	6.94	-50.5	-63.6	3.8	1.49e+00	0	38	104	0	72	16488
2026-01-22 10:17:37.16	342.45	6.86	-50.5	-63.6	3.8	1.49e+00	0	38	104	0	72	16462
