passes_logs/2026/01/22/T1/T1__20260122_022523_SUOMI_NPP_rec.log

#Pass ID: 20260122_022523_SUOMI NPP
#Satellite: SUOMI NPP
#Configuration: NPP
#almurnet v.1.7.20251203
#Start time: 2026-01-22 02:25:23

#Version: 2.0.20230620
#Station: T1
#Location: 37.570604 lon 55.790049 lat
#TLE: 1 37849U 11061A   26021.51818991  .00000201  00000+0  11636-3 0  9995
#TLE: 2 37849  98.7819 323.5108 0002300  52.3548 307.7836 14.19527793737637

#Time	Az	El	Level	Level2	SNR	BER	BlckErr	Temp	State	Recorded	gain1	gain2
2026-01-22 02:25:23.18	0.67	5.01	-45.8	-65.4	3.8	1.49e+00	0	35	0	0	62	35991
2026-01-22 02:25:24.16	0.56	5.05	-45.8	-65.4	3.8	1.49e+00	0	35	104	0	62	35956
2026-01-22 02:25:25.16	0.44	5.09	-45.8	-65.4	3.8	1.49e+00	0	35	104	0	62	36092
2026-01-22 02:25:26.15	0.32	5.14	-45.8	-65.4	3.8	1.49e+00	0	35	104	0	62	35980
2026-01-22 02:25:27.14	0.20	5.18	-45.8	-65.4	3.8	1.49e+00	0	35	104	0	62	35949
2026-01-22 02:25:28.14	0.08	5.23	-45.8	-65.4	3.8	1.49e+00	0	35	104	0	62	35984
2026-01-22 02:25:29.13	359.96	5.27	-45.8	-65.4	3.8	1.49e+00	0	35	104	0	62	35950
2026-01-22 02:25:30.12	359.84	5.31	-45.8	-65.4	3.8	1.49e+00	0	36	104	0	62	36009
2026-01-22 02:25:31.12	359.72	5.36	-45.8	-65.4	3.8	1.49e+00	0	36	104	0	62	36000
2026-01-22 02:25:32.11	359.60	5.40	-45.8	-65.4	3.8	1.49e+00	0	36	104	0	62	35997
2026-01-22 02:25:33.10	359.48	5.44	-45.8	-65.4	3.8	1.49e+00	0	36	104	0	62	36002
2026-01-22 02:25:34.09	359.36	5.49	-45.8	-65.5	3.8	1.49e+00	0	36	104	0	62	36111
2026-01-22 02:25:35.09	359.24	5.53	-45.8	-65.4	3.8	1.49e+00	0	36	104	0	62	35975
2026-01-22 02:25:36.08	359.12	5.57	-45.9	-65.4	3.8	1.49e+00	0	36	104	0	62	35916
2026-01-22 02:25:37.07	359.00	5.62	-45.8	-65.4	3.8	1.49e+00	0	36	104	0	62	35984
2026-01-22 02:25:38.07	358.87	5.66	-45.8	-65.4	3.8	1.49e+00	0	36	104	0	62	36020
2026-01-22 02:25:39.06	358.75	5.70	-45.8	-65.4	3.8	1.49e+00	0	36	104	0	62	36001
2026-01-22 02:25:40.05	358.63	5.74	-45.8	-65.4	3.8	1.49e+00	0	36	104	0	62	36026
2026-01-22 02:25:41.05	358.50	5.79	-45.8	-65.4	3.8	1.49e+00	0	36	104	0	62	36061
2026-01-22 02:25:42.04	358.38	5.83	-45.8	-65.4	3.8	1.49e+00	0	36	104	0	62	36011
2026-01-22 02:25:43.03	358.25	5.87	-45.8	-65.4	3.8	1.49e+00	0	36	104	0	62	36011
2026-01-22 02:25:44.03	358.13	5.92	-45.8	-65.4	3.8	1.49e+00	0	36	104	0	62	35947
2026-01-22 02:25:45.02	358.00	5.96	-45.8	-65.4	3.8	1.49e+00	0	36	104	0	62	36007
2026-01-22 02:25:46.01	357.88	6.00	-45.8	-65.4	3.8	1.49e+00	0	36	104	0	62	35993
2026-01-22 02:25:47.01	357.75	6.05	-45.8	-65.4	3.8	1.49e+00	0	36	104	0	62	35993
2026-01-22 02:25:48.00	357.62	6.09	-45.8	-65.4	3.8	1.49e+00	0	36	104	0	62	36061
2026-01-22 02:25:48.99	357.50	6.13	-45.8	-65.4	3.8	1.49e+00	0	36	104	0	62	36010
2026-01-22 02:25:49.99	357.37	6.17	-45.8	-65.4	3.8	1.49e+00	0	36	104	0	62	36042
2026-01-22 02:25:50.98	357.24	6.22	-45.8	-65.4	3.8	1.49e+00	0	36	104	0	62	36065
2026-01-22 02:25:51.97	357.11	6.26	-45.8	-65.4	3.8	1.49e+00	0	36	104	0	62	36018
2026-01-22 02:25:52.97	356.98	6.30	-45.8	-65.4	3.8	1.49e+00	0	36	104	0	62	35847
2026-01-22 02:25:53.96	356.86	6.34	-45.8	-65.4	3.8	1.49e+00	0	36	104	0	62	36049
2026-01-22 02:25:54.95	356.73	6.38	-45.8	-65.4	3.8	1.49e+00	0	36	104	0	62	35978
2026-01-22 02:25:55.95	356.60	6.43	-45.8	-65.4	3.8	1.49e+00	0	36	104	0	62	36034
2026-01-22 02:25:56.94	356.47	6.47	-45.8	-65.5	3.8	1.49e+00	0	36	104	0	62	36127
2026-01-22 02:25:57.93	356.34	6.51	-45.8	-65.4	3.8	1.49e+00	0	36	104	0	62	36005
2026-01-22 02:25:58.93	356.20	6.55	-45.8	-65.4	3.8	1.49e+00	0	36	104	0	62	35967
2026-01-22 02:25:59.92	356.07	6.59	-45.8	-65.4	3.8	1.49e+00	0	36	104	0	62	35967
2026-01-22 02:26:00.91	355.94	6.64	-45.8	-65.4	3.8	1.49e+00	0	36	104	0	62	35809
2026-01-22 02:26:01.91	355.81	6.68	-45.8	-65.4	3.8	1.49e+00	0	36	104	0	62	35815
2026-01-22 02:26:02.90	355.68	6.72	-45.8	-65.4	3.8	1.49e+00	0	37	104	0	62	35797
2026-01-22 02:26:03.89	355.54	6.76	-45.8	-65.4	3.8	1.49e+00	0	36	104	0	62	35795
2026-01-22 02:26:04.89	355.41	6.80	-45.8	-65.4	3.8	1.49e+00	0	36	104	0	62	35859
2026-01-22 02:26:05.88	355.28	6.84	-45.8	-65.4	3.8	1.49e+00	0	37	104	0	62	35762
2026-01-22 02:26:06.87	355.14	6.88	-45.8	-65.4	3.8	1.49e+00	0	37	104	0	62	35861
2026-01-22 02:26:07.87	355.01	6.93	-45.8	-65.4	3.8	1.49e+00	0	37	104	0	62	35854
2026-01-22 02:26:08.86	354.87	6.97	-45.8	-65.4	3.8	1.49e+00	0	37	104	0	62	35770
2026-01-22 02:26:09.85	354.74	7.01	-45.8	-65.4	3.8	1.49e+00	0	37	104	0	62	35821
2026-01-22 02:26:10.85	354.60	7.05	-45.8	-65.3	3.8	1.49e+00	0	37	104	0	62	35663
2026-01-22 02:26:11.84	354.47	7.09	-45.8	-65.4	3.8	1.49e+00	0	37	104	0	62	35785
2026-01-22 02:26:12.83	354.33	7.13	-45.8	-65.4	3.8	1.49e+00	0	37	104	0	62	35714
2026-01-22 02:26:13.83	354.19	7.17	-45.7	-65.4	3.8	1.49e+00	0	37	104	0	62	35852
2026-01-22 02:26:14.82	354.06	7.21	-45.8	-65.4	3.8	1.49e+00	0	37	104	0	62	35860
2026-01-22 02:26:15.81	353.92	7.25	-45.8	-65.4	3.8	1.49e+00	0	37	104	0	62	35802
2026-01-22 02:26:16.81	353.78	7.29	-45.8	-65.4	3.8	1.49e+00	0	37	104	0	62	35943
2026-01-22 02:26:17.80	353.64	7.33	-45.8	-65.4	3.8	1.49e+00	0	37	104	0	62	35920
2026-01-22 02:26:18.80	353.50	7.37	-45.8	-65.4	3.8	1.49e+00	0	37	104	0	62	35850
2026-01-22 02:26:19.79	353.37	7.41	-45.8	-65.4	3.8	1.49e+00	0	37	104	0	62	35992
2026-01-22 02:26:20.78	353.23	7.45	-45.8	-65.4	3.8	1.49e+00	0	37	104	0	62	35849
2026-01-22 02:26:21.78	353.09	7.49	-45.8	-65.4	3.8	1.49e+00	0	37	104	0	62	35895
2026-01-22 02:26:22.77	352.95	7.53	-45.8	-65.4	3.8	1.49e+00	0	37	104	0	62	36016
2026-01-22 02:26:23.76	352.81	7.57	-45.8	-65.4	3.8	1.49e+00	0	37	104	0	62	35816
2026-01-22 02:26:24.76	352.66	7.61	-45.8	-65.4	3.8	1.49e+00	0	37	104	0	62	35958
2026-01-22 02:26:25.75	352.52	7.65	-45.8	-65.4	3.8	1.49e+00	0	37	104	0	62	36006
2026-01-22 02:26:26.74	352.38	7.69	-45.8	-65.4	3.8	1.49e+00	0	37	104	0	62	35793
2026-01-22 02:26:27.74	352.24	7.73	-45.8	-65.4	3.8	1.49e+00	0	37	104	0	62	36088
2026-01-22 02:26:28.73	352.10	7.77	-45.8	-65.4	3.8	1.49e+00	0	37	104	0	62	35949
2026-01-22 02:26:29.72	351.95	7.81	-45.8	-65.4	3.8	1.49e+00	0	37	104	0	62	35830
2026-01-22 02:26:30.72	351.81	7.85	-45.8	-65.3	3.8	1.49e+00	0	37	104	0	62	35652
2026-01-22 02:26:31.71	351.67	7.89	-45.8	-65.3	3.8	1.49e+00	0	37	104	0	62	35392
2026-01-22 02:26:32.70	351.52	7.92	-45.8	-65.2	3.8	1.49e+00	0	37	104	0	62	35086
2026-01-22 02:26:33.70	351.38	7.96	-45.8	-65.1	3.8	1.49e+00	0	37	104	0	62	34774
2026-01-22 02:26:34.69	351.23	8.00	-45.7	-65.1	3.8	1.49e+00	0	37	104	0	62	34771
2026-01-22 02:26:35.69	351.09	8.04	-45.8	-65.2	3.8	1.49e+00	0	37	104	0	62	35118
2026-01-22 02:26:36.68	350.94	8.08	-45.8	-65.3	3.8	1.49e+00	0	37	104	0	62	35309
2026-01-22 02:26:37.67	350.80	8.12	-45.8	-65.3	3.8	1.49e+00	0	37	104	0	62	35557
2026-01-22 02:26:38.66	350.65	8.15	-45.8	-65.4	3.8	1.49e+00	0	37	104	0	62	35711
2026-01-22 02:26:39.66	350.50	8.19	-45.8	-65.3	3.8	1.49e+00	0	37	104	0	62	35606
2026-01-22 02:26:40.65	350.36	8.23	-45.8	-65.3	3.8	1.49e+00	0	37	104	0	62	35555
2026-01-22 02:26:41.64	350.21	8.27	-45.8	-65.3	3.8	1.49e+00	0	37	104	0	62	35447
2026-01-22 02:26:42.64	350.06	8.31	-45.8	-65.2	3.8	1.49e+00	0	37	104	0	62	35271
2026-01-22 02:26:43.63	349.91	8.34	-45.8	-65.2	3.8	1.49e+00	0	37	104	0	62	35155
2026-01-22 02:26:44.62	349.76	8.38	-45.8	-65.3	3.8	1.49e+00	0	37	104	0	62	35490
2026-01-22 02:26:45.62	349.61	8.42	-45.8	-65.3	3.8	1.49e+00	0	37	104	0	62	35552
2026-01-22 02:26:46.61	349.46	8.45	-45.8	-65.2	3.8	1.49e+00	0	37	104	0	62	35004
2026-01-22 02:26:47.61	349.31	8.49	-45.8	-64.8	3.8	1.49e+00	0	37	104	0	62	33391
2026-01-22 02:26:48.60	349.16	8.53	-45.7	-64.3	3.8	1.49e+00	0	37	104	0	62	31484
2026-01-22 02:26:49.59	349.01	8.56	-45.7	-63.7	3.8	1.49e+00	0	37	104	0	62	29512
2026-01-22 02:26:50.59	348.86	8.60	-45.7	-63.4	3.8	1.49e+00	0	37	104	0	62	28358
2026-01-22 02:26:51.58	348.71	8.64	-45.7	-62.9	4.0	1.48e+00	0	37	104	0	62	26834
2026-01-22 02:26:52.57	348.56	8.67	-45.7	-62.7	3.9	1.48e+00	0	37	104	0	62	26388
2026-01-22 02:26:53.56	348.41	8.71	-45.7	-62.3	4.1	1.47e+00	0	37	104	0	62	25255
2026-01-22 02:26:54.56	348.25	8.75	-45.7	-61.9	4.2	1.41e+00	0	37	0	0	62	23855
2026-01-22 02:26:55.55	348.10	8.78	-45.7	-61.5	4.3	1.36e+00	0	37	0	0	62	22920
2026-01-22 02:26:56.54	347.95	8.82	-45.6	-60.8	4.5	1.26e+00	0	37	0	1048576	62	21087
2026-01-22 02:26:57.54	347.79	8.85	-45.6	-59.5	5.2	7.11e-01	0	37	0	3145728	62	18136
2026-01-22 02:26:58.53	347.64	8.89	-45.5	-57.6	6.5	3.42e-01	0	37	0	5242880	62	14648
2026-01-22 02:26:59.52	347.48	8.92	-45.2	-55.4	8.5	1.05e-01	0	37	0	6291456	62	11413
2026-01-22 02:27:00.51	347.33	8.96	-44.7	-52.7	11.2	1.34e-02	0	37	0	8388608	61	8825
2026-01-22 02:27:01.51	347.17	8.99	-44.2	-50.9	13.0	7.62e-05	0	38	0	10485760	60	7630
2026-01-22 02:27:02.50	347.02	9.03	-43.9	-49.5	14.4	0.00e+00	0	37	0	12582912	59	6842
2026-01-22 02:27:03.50	346.86	9.06	-44.5	-51.1	13.1	0.00e+00	0	37	0	14680064	60	7802
2026-01-22 02:27:04.49	346.70	9.10	-44.3	-50.9	13.0	9.51e-02	0	37	0	15728640	60	7629
2026-01-22 02:27:05.49	346.55	9.13	-44.6	-52.0	12.3	6.40e-05	0	37	0	17825792	60	8565
2026-01-22 02:27:06.48	346.39	9.17	-45.9	-57.1	6.9	8.55e-01	0	37	0	19922944	63	13045
2026-01-22 02:27:07.47	346.23	9.20	-45.3	-53.6	10.5	5.95e-03	0	37	0	22020096	62	9262
2026-01-22 02:27:08.47	346.07	9.23	-45.2	-53.4	10.5	4.49e-03	0	37	0	23068672	62	9034
2026-01-22 02:27:09.46	345.92	9.27	-45.2	-53.0	11.0	2.63e-03	0	37	0	25165824	62	8647
2026-01-22 02:27:10.46	345.76	9.30	-44.6	-51.2	12.8	3.30e-04	0	37	0	27262976	61	7413
2026-01-22 02:27:11.46	345.60	9.33	-44.1	-49.8	14.2	1.22e-05	0	38	0	29360128	60	6694
2026-01-22 02:27:12.45	345.44	9.37	-43.7	-48.6	15.3	0.00e+00	0	38	0	31457280	59	6159
2026-01-22 02:27:13.44	345.28	9.40	-43.4	-47.9	16.0	0.00e+00	0	38	0	32505856	58	6052
2026-01-22 02:27:14.44	345.12	9.43	-43.3	-47.5	16.4	7.00e-07	0	38	0	34603008	58	5731
2026-01-22 02:27:15.43	344.96	9.47	-43.4	-47.4	16.4	0.00e+00	0	37	0	36700160	58	5701
2026-01-22 02:27:16.43	344.79	9.50	-43.5	-47.3	16.5	0.00e+00	0	37	0	38797312	58	5656
2026-01-22 02:27:17.49	344.62	9.53	-43.4	-47.3	16.5	0.00e+00	0	37	0	40894464	58	5628
2026-01-22 02:27:18.36	344.48	9.56	-43.2	-47.1	16.8	0.00e+00	0	37	0	41943040	58	5485
2026-01-22 02:27:19.70	344.26	9.60	-43.0	-46.8	17.0	0.00e+00	0	37	0	45088768	57	5636
2026-01-22 02:27:20.41	344.14	9.63	-42.9	-46.9	16.9	0.00e+00	0	38	0	46137344	57	5704
2026-01-22 02:27:21.69	343.93	9.67	-42.9	-47.0	16.8	0.00e+00	0	38	0	48234496	57	5765
2026-01-22 02:27:22.40	343.82	9.69	-42.9	-47.1	16.8	0.00e+00	0	37	0	49283072	57	5799
2026-01-22 02:27:23.68	343.61	9.73	-43.1	-47.3	16.6	0.00e+00	0	37	0	52428800	57	5950
2026-01-22 02:27:24.40	343.49	9.75	-43.1	-47.2	16.6	0.00e+00	0	37	0	53477376	57	5918
2026-01-22 02:27:25.68	343.28	9.79	-43.4	-47.3	16.6	0.00e+00	0	37	0	55574528	57	5975
2026-01-22 02:27:26.43	343.15	9.82	-43.5	-47.4	16.5	0.00e+00	0	37	0	57671680	57	6035
2026-01-22 02:27:27.70	342.94	9.85	-43.5	-47.2	16.6	0.00e+00	0	37	0	59768832	57	5913
2026-01-22 02:27:28.57	342.80	9.88	-43.6	-47.3	16.6	0.00e+00	0	37	0	60817408	57	5970
2026-01-22 02:27:29.71	342.61	9.92	-43.6	-47.2	16.7	0.00e+00	0	38	0	62914560	57	5914
2026-01-22 02:27:30.56	342.46	9.94	-43.4	-47.0	16.9	0.00e+00	0	37	0	65011712	57	5740
2026-01-22 02:27:31.70	342.27	9.97	-43.4	-47.0	16.9	0.00e+00	0	37	0	67108864	57	5759
2026-01-22 02:27:32.56	342.13	10.00	-43.5	-47.1	16.8	0.00e+00	0	37	0	68157440	57	5799
2026-01-22 02:27:33.69	341.94	10.03	-43.7	-47.3	16.6	0.00e+00	0	38	0	71303168	58	5606
2026-01-22 02:27:34.55	341.79	10.06	-43.9	-47.5	16.4	0.00e+00	0	37	0	72351744	58	5781
2026-01-22 02:27:35.69	341.60	10.09	-44.2	-47.9	16.0	0.00e+00	0	38	0	74448896	59	5703
2026-01-22 02:27:36.54	341.46	10.12	-44.4	-48.1	15.8	0.00e+00	0	38	0	76546048	59	5840
2026-01-22 02:27:37.68	341.26	10.15	-44.7	-48.6	15.4	0.00e+00	0	38	0	78643200	60	5810
2026-01-22 02:27:38.54	341.12	10.17	-44.7	-48.5	15.5	0.00e+00	0	37	0	79691776	60	5727
2026-01-22 02:27:39.67	340.92	10.21	-44.7	-48.4	15.6	0.00e+00	0	38	0	81788928	60	5680
2026-01-22 02:27:40.52	340.78	10.23	-44.5	-48.0	15.9	0.00e+00	0	38	0	83886080	60	5447
2026-01-22 02:27:41.66	340.58	10.26	-44.4	-47.9	16.1	0.00e+00	0	38	0	85983232	60	5359
2026-01-22 02:27:42.51	340.44	10.28	-44.2	-47.6	16.3	0.00e+00	0	38	0	87031808	60	5216
2026-01-22 02:27:43.65	340.24	10.32	-44.3	-47.6	16.4	0.00e+00	0	38	0	89128960	60	5197
2026-01-22 02:27:44.69	340.06	10.34	-44.4	-47.8	16.2	0.00e+00	0	37	0	91226112	60	5283
2026-01-22 02:27:45.84	339.87	10.37	-44.6	-47.9	16.0	0.00e+00	0	38	0	93323264	60	5388
2026-01-22 02:27:46.69	339.72	10.40	-44.9	-48.4	15.6	0.00e+00	0	38	0	95420416	60	5695
2026-01-22 02:27:47.83	339.52	10.43	-45.0	-48.4	15.5	0.00e+00	0	38	0	97517568	60	5713
2026-01-22 02:27:48.68	339.37	10.45	-45.0	-48.6	15.4	0.00e+00	0	38	0	98566144	60	5818
2026-01-22 02:27:49.82	339.18	10.48	-44.9	-48.6	15.4	0.00e+00	0	37	0	100663296	60	5813
2026-01-22 02:27:50.67	339.03	10.50	-44.7	-48.4	15.6	0.00e+00	0	38	0	102760448	60	5717
2026-01-22 02:27:51.81	338.83	10.53	-44.5	-48.3	15.8	0.00e+00	0	37	0	104857600	60	5607
2026-01-22 02:27:52.66	338.68	10.55	-44.3	-48.1	15.9	0.00e+00	0	37	0	105906176	60	5485
2026-01-22 02:27:53.80	338.48	10.58	-44.3	-47.9	16.1	0.00e+00	0	38	0	108003328	60	5373
2026-01-22 02:27:54.65	338.33	10.60	-44.1	-47.6	16.4	0.00e+00	0	38	0	110100480	60	5203
2026-01-22 02:27:55.79	338.13	10.63	-44.3	-47.7	16.3	0.00e+00	0	38	0	112197632	60	5244
2026-01-22 02:27:56.64	337.98	10.65	-44.2	-47.5	16.5	0.00e+00	0	38	0	114294784	60	5112
2026-01-22 02:27:57.78	337.78	10.68	-44.1	-47.5	16.5	0.00e+00	0	37	0	116391936	60	5128
2026-01-22 02:27:58.63	337.63	10.70	-43.9	-47.1	16.7	0.00e+00	0	38	0	117440512	59	5218
2026-01-22 02:27:59.89	337.41	10.73	-43.7	-46.9	17.0	0.00e+00	0	38	0	119537664	59	5054
2026-01-22 02:28:00.70	337.27	10.75	-43.5	-46.6	17.3	0.00e+00	0	38	0	121634816	58	5195
2026-01-22 02:28:01.83	337.07	10.77	-43.3	-46.4	17.4	0.00e+00	0	38	0	123731968	58	5088
2026-01-22 02:28:02.69	336.91	10.79	-43.3	-46.4	17.4	0.00e+00	0	38	0	124780544	58	5099
2026-01-22 02:28:04.00	336.68	10.82	-43.4	-46.5	17.3	0.00e+00	0	38	0	127926272	58	5147
2026-01-22 02:28:04.71	336.56	10.84	-43.4	-46.6	17.3	0.00e+00	0	38	0	128974848	58	5196
2026-01-22 02:28:06.21	336.29	10.87	-43.5	-46.7	17.2	0.00e+00	0	38	0	132120576	58	5243
2026-01-22 02:28:06.92	336.16	10.89	-43.6	-46.7	17.1	0.00e+00	0	38	0	133169152	58	5275
2026-01-22 02:28:08.26	335.92	10.92	-43.7	-46.8	17.1	0.00e+00	0	38	0	135266304	58	5312
2026-01-22 02:28:08.97	335.79	10.93	-43.7	-46.8	17.1	0.00e+00	0	38	0	137363456	58	5303
2026-01-22 02:28:10.32	335.55	10.96	-43.6	-46.7	17.2	0.00e+00	0	38	0	139460608	58	5221
2026-01-22 02:28:11.02	335.43	10.97	-43.7	-46.6	17.2	0.00e+00	0	38	0	140509184	58	5209
2026-01-22 02:28:12.32	335.19	11.00	-43.9	-46.8	17.1	0.00e+00	0	38	0	143654912	58	5296
2026-01-22 02:28:13.03	335.06	11.01	-43.9	-46.8	17.1	0.00e+00	0	38	0	144703488	58	5292
2026-01-22 02:28:14.31	334.83	11.04	-44.1	-47.1	16.9	0.00e+00	0	38	0	146800640	59	5167
2026-01-22 02:28:15.05	334.70	11.05	-44.3	-47.3	16.6	0.00e+00	0	38	0	147849216	59	5319
2026-01-22 02:28:16.33	334.47	11.08	-44.5	-47.7	16.3	0.00e+00	0	38	0	150994944	59	5533
2026-01-22 02:28:17.07	334.33	11.09	-44.7	-48.0	16.1	0.00e+00	0	38	0	152043520	60	5411
2026-01-22 02:28:18.54	334.07	11.12	-44.8	-48.1	15.9	0.00e+00	0	38	0	155189248	60	5522
2026-01-22 02:28:19.25	333.94	11.13	-44.9	-48.2	15.8	0.00e+00	0	37	0	156237824	60	5582
2026-01-22 02:28:20.53	333.70	11.16	-44.8	-48.2	15.8	0.00e+00	0	38	0	158334976	60	5560
2026-01-22 02:28:21.25	333.57	11.17	-44.8	-48.1	15.9	0.00e+00	0	38	0	160432128	60	5526
2026-01-22 02:28:22.53	333.34	11.19	-44.7	-48.0	16.1	0.00e+00	0	38	0	162529280	60	5410
2026-01-22 02:28:23.25	333.21	11.21	-44.7	-48.0	16.0	0.00e+00	0	38	0	163577856	60	5423
2026-01-22 02:28:24.53	332.97	11.23	-44.7	-48.0	16.1	0.00e+00	0	37	0	165675008	60	5406
2026-01-22 02:28:25.24	332.84	11.24	-44.6	-47.9	16.1	0.00e+00	0	38	0	167772160	60	5379
2026-01-22 02:28:26.52	332.61	11.26	-44.7	-48.1	16.0	0.00e+00	0	38	0	169869312	60	5471
2026-01-22 02:28:27.25	332.47	11.27	-44.8	-48.2	15.8	0.00e+00	0	38	0	170917888	60	5543
2026-01-22 02:28:28.53	332.24	11.30	-44.9	-48.4	15.7	0.00e+00	0	38	0	174063616	60	5666
2026-01-22 02:28:29.25	332.11	11.31	-45.0	-48.4	15.7	0.00e+00	0	38	0	175112192	60	5687
2026-01-22 02:28:30.53	331.87	11.33	-45.1	-48.6	15.5	0.00e+00	0	38	0	177209344	60	5797
2026-01-22 02:28:31.25	331.74	11.34	-45.1	-48.5	15.5	0.00e+00	0	38	0	178257920	60	5783
2026-01-22 02:28:32.53	331.50	11.36	-45.0	-48.3	15.7	0.00e+00	0	38	0	181403648	60	5642
2026-01-22 02:28:33.25	331.37	11.37	-45.0	-48.4	15.7	0.00e+00	0	38	0	182452224	60	5685
2026-01-22 02:28:34.53	331.13	11.39	-44.8	-48.0	16.0	0.00e+00	0	38	0	184549376	60	5446
2026-01-22 02:28:35.26	331.00	11.40	-44.7	-47.8	16.2	0.00e+00	0	38	0	186646528	60	5310
2026-01-22 02:28:36.54	330.76	11.42	-44.7	-47.8	16.2	0.00e+00	0	38	0	188743680	60	5313
2026-01-22 02:28:37.25	330.63	11.43	-44.4	-47.4	16.6	0.00e+00	0	37	0	189792256	60	5096
2026-01-22 02:28:38.66	330.36	11.44	-44.5	-47.5	16.5	0.00e+00	0	38	0	192937984	60	5111
2026-01-22 02:28:39.37	330.23	11.45	-44.5	-47.5	16.4	0.00e+00	0	37	0	193986560	60	5151
2026-01-22 02:28:40.71	329.98	11.47	-44.7	-47.8	16.2	0.00e+00	0	38	0	196083712	60	5319
2026-01-22 02:28:41.42	329.85	11.48	-44.6	-47.8	16.2	0.00e+00	0	38	0	198180864	60	5323
2026-01-22 02:28:42.70	329.61	11.50	-44.7	-47.9	16.1	0.00e+00	0	38	0	200278016	60	5368
2026-01-22 02:28:43.41	329.48	11.50	-44.7	-47.9	16.1	0.00e+00	0	38	0	201326592	60	5380
2026-01-22 02:28:44.69	329.24	11.52	-44.7	-47.9	16.1	0.00e+00	0	38	0	204472320	60	5367
2026-01-22 02:28:45.41	329.11	11.53	-44.5	-47.5	16.5	0.00e+00	0	38	0	205520896	60	5142
2026-01-22 02:28:46.69	328.87	11.54	-44.3	-47.4	16.6	0.00e+00	0	38	0	207618048	60	5050
2026-01-22 02:28:47.40	328.73	11.55	-44.4	-47.4	16.6	0.00e+00	0	38	0	208666624	60	5084
2026-01-22 02:28:48.68	328.49	11.56	-44.3	-47.3	16.6	0.00e+00	0	38	0	211812352	60	5020
2026-01-22 02:28:49.39	328.36	11.57	-44.3	-47.4	16.6	0.00e+00	0	38	0	212860928	60	5073
2026-01-22 02:28:50.67	328.12	11.58	-44.3	-47.4	16.6	0.00e+00	0	37	0	214958080	60	5085
2026-01-22 02:28:51.51	327.96	11.59	-44.5	-47.6	16.4	0.00e+00	0	38	0	217055232	60	5200
2026-01-22 02:28:52.65	327.75	11.60	-44.4	-47.5	16.5	0.00e+00	0	38	0	219152384	60	5111
2026-01-22 02:28:53.69	327.55	11.61	-44.4	-47.5	16.5	0.00e+00	0	38	0	221249536	60	5150
2026-01-22 02:28:54.83	327.34	11.62	-44.4	-47.5	16.5	0.00e+00	0	38	0	223346688	60	5129
2026-01-22 02:28:55.68	327.18	11.63	-44.4	-47.7	16.3	0.00e+00	0	38	0	224395264	60	5236
2026-01-22 02:28:57.07	326.92	11.64	-44.0	-47.1	16.8	0.00e+00	0	38	0	227540992	59	5203
2026-01-22 02:28:57.79	326.78	11.64	-43.9	-47.0	16.9	0.00e+00	0	38	0	228589568	59	5154
2026-01-22 02:28:59.24	326.51	11.65	-43.8	-46.9	16.9	0.00e+00	0	38	0	231735296	59	5098
2026-01-22 02:28:59.95	326.37	11.66	-43.7	-46.8	17.1	0.00e+00	0	38	0	232783872	59	5030
2026-01-22 02:29:01.26	326.13	11.67	-43.7	-46.8	17.1	0.00e+00	0	38	0	234881024	59	5024
2026-01-22 02:29:01.97	325.99	11.67	-43.8	-47.0	16.9	0.00e+00	0	38	0	235929600	59	5148
2026-01-22 02:29:03.25	325.75	11.68	-43.9	-47.1	16.8	0.00e+00	0	38	0	239075328	59	5178
2026-01-22 02:29:03.96	325.62	11.68	-43.9	-47.1	16.8	0.00e+00	0	38	0	240123904	59	5199
2026-01-22 02:29:05.24	325.37	11.69	-44.1	-47.4	16.5	0.00e+00	0	38	0	242221056	59	5399
2026-01-22 02:29:05.96	325.24	11.70	-44.1	-47.5	16.5	0.00e+00	0	38	0	244318208	59	5446
2026-01-22 02:29:07.24	325.00	11.70	-44.2	-47.7	16.3	0.00e+00	0	38	0	246415360	59	5535
2026-01-22 02:29:07.96	324.86	11.71	-44.1	-47.5	16.4	0.00e+00	0	38	0	247463936	59	5441
2026-01-22 02:29:09.23	324.62	11.71	-44.0	-47.4	16.6	0.00e+00	0	38	0	249561088	59	5346
2026-01-22 02:29:09.96	324.48	11.71	-43.9	-47.1	16.9	0.00e+00	0	38	0	251658240	59	5161
2026-01-22 02:29:11.24	324.24	11.72	-43.7	-46.8	17.1	0.00e+00	0	38	0	253755392	59	5007
2026-01-22 02:29:12.08	324.08	11.72	-43.6	-46.7	17.2	0.00e+00	0	38	0	255852544	59	4955
2026-01-22 02:29:13.50	323.81	11.73	-43.4	-46.4	17.4	0.00e+00	0	38	0	257949696	58	5100
2026-01-22 02:29:14.21	323.67	11.73	-43.4	-46.4	17.5	0.00e+00	0	38	0	258998272	58	5071
2026-01-22 02:29:15.49	323.43	11.73	-43.4	-46.3	17.5	0.00e+00	0	38	0	262144000	58	5036
2026-01-22 02:29:16.20	323.30	11.73	-43.5	-46.3	17.5	0.00e+00	0	38	0	263192576	58	5036
2026-01-22 02:29:17.48	323.05	11.73	-43.6	-46.3	17.5	0.00e+00	0	38	0	265289728	58	5025
2026-01-22 02:29:18.21	322.92	11.74	-43.6	-46.3	17.5	0.00e+00	0	38	0	266338304	58	5017
2026-01-22 02:29:19.49	322.67	11.74	-43.7	-46.4	17.5	0.00e+00	0	38	0	269484032	58	5094
2026-01-22 02:29:20.20	322.54	11.74	-43.7	-46.4	17.5	0.00e+00	0	38	0	270532608	58	5045
2026-01-22 02:29:21.48	322.29	11.74	-43.7	-46.5	17.4	0.00e+00	0	38	0	272629760	58	5123
2026-01-22 02:29:22.20	322.16	11.74	-43.8	-46.6	17.3	0.00e+00	0	38	0	274726912	58	5208
2026-01-22 02:29:23.48	321.91	11.74	-44.0	-46.9	17.0	0.00e+00	0	38	0	276824064	58	5381
2026-01-22 02:29:24.21	321.78	11.74	-44.0	-47.1	16.9	0.00e+00	0	38	0	277872640	58	5473
2026-01-22 02:29:25.49	321.53	11.74	-44.1	-47.2	16.7	0.00e+00	0	38	0	279969792	59	5270
2026-01-22 02:29:26.20	321.40	11.74	-44.2	-47.2	16.7	0.00e+00	0	38	0	282066944	59	5276
2026-01-22 02:29:27.47	321.16	11.74	-44.0	-47.0	16.8	0.00e+00	0	38	0	284164096	59	5153
2026-01-22 02:29:28.19	321.02	11.74	-44.1	-47.1	16.9	0.00e+00	0	38	0	285212672	59	5164
2026-01-22 02:29:29.62	320.75	11.73	-43.9	-46.9	17.0	0.00e+00	0	38	0	288358400	59	5061
2026-01-22 02:29:30.33	320.61	11.73	-43.9	-46.8	17.1	0.00e+00	0	38	0	289406976	59	5012
2026-01-22 02:29:31.61	320.37	11.73	-43.7	-46.6	17.3	0.00e+00	0	38	0	291504128	59	4895
2026-01-22 02:29:32.67	320.17	11.72	-43.8	-46.8	17.1	0.00e+00	0	38	0	293601280	59	5018
2026-01-22 02:29:33.85	319.95	11.72	-43.7	-46.7	17.2	0.00e+00	0	38	0	295698432	59	4956
2026-01-22 02:29:34.70	319.79	11.72	-43.9	-46.9	17.0	0.00e+00	0	38	0	297795584	59	5085
2026-01-22 02:29:35.84	319.57	11.71	-43.9	-46.9	17.0	0.00e+00	0	37	0	299892736	59	5090
2026-01-22 02:29:36.70	319.41	11.71	-44.0	-47.1	16.8	0.00e+00	0	37	0	300941312	59	5199
2026-01-22 02:29:37.83	319.19	11.71	-44.2	-47.4	16.5	0.00e+00	0	38	0	304087040	59	5363
2026-01-22 02:29:38.69	319.03	11.70	-44.3	-47.5	16.4	0.00e+00	0	38	0	305135616	59	5448
2026-01-22 02:29:39.82	318.82	11.70	-44.4	-47.5	16.4	0.00e+00	0	37	0	307232768	59	5460
2026-01-22 02:29:40.67	318.65	11.69	-44.4	-47.5	16.4	0.00e+00	0	37	0	309329920	59	5442
2026-01-22 02:29:41.89	318.42	11.68	-44.3	-47.3	16.6	0.00e+00	0	38	0	311427072	59	5299
2026-01-22 02:29:42.74	318.26	11.68	-44.3	-47.2	16.7	0.00e+00	0	38	0	312475648	59	5267
2026-01-22 02:29:43.88	318.05	11.67	-44.2	-47.2	16.7	0.00e+00	0	38	0	314572800	59	5255
2026-01-22 02:29:44.73	317.89	11.67	-44.2	-47.2	16.8	0.00e+00	0	38	0	316669952	59	5228
2026-01-22 02:29:45.99	317.65	11.66	-44.4	-47.4	16.6	0.00e+00	0	38	0	318767104	59	5348
2026-01-22 02:29:46.81	317.49	11.65	-44.3	-47.3	16.6	0.00e+00	0	38	0	320864256	59	5319
2026-01-22 02:29:47.95	317.28	11.64	-44.5	-47.5	16.4	0.00e+00	0	38	0	322961408	59	5446
2026-01-22 02:29:48.80	317.12	11.64	-44.6	-47.7	16.2	0.00e+00	0	38	0	324009984	59	5560
2026-01-22 02:29:50.08	316.88	11.63	-44.6	-47.8	16.2	0.00e+00	0	38	0	326107136	60	5321
2026-01-22 02:29:50.79	316.74	11.62	-44.6	-47.8	16.2	0.00e+00	0	38	0	328204288	60	5318
2026-01-22 02:29:52.07	316.50	11.61	-44.4	-47.6	16.3	0.00e+00	0	38	0	330301440	60	5209
2026-01-22 02:29:52.78	316.37	11.60	-44.4	-47.6	16.3	0.00e+00	0	38	0	331350016	60	5207
2026-01-22 02:29:54.06	316.13	11.59	-44.3	-47.4	16.6	0.00e+00	0	37	0	334495744	60	5043
2026-01-22 02:29:54.78	315.99	11.58	-44.3	-47.4	16.6	0.00e+00	0	38	0	335544320	60	5058
2026-01-22 02:29:56.06	315.75	11.57	-44.1	-47.1	16.8	0.00e+00	0	38	0	337641472	60	4917
2026-01-22 02:29:56.96	315.58	11.56	-44.1	-47.0	16.9	0.00e+00	0	38	0	339738624	60	4858
2026-01-22 02:29:58.06	315.38	11.55	-44.0	-46.9	17.0	0.00e+00	0	38	0	341835776	59	5074
2026-01-22 02:29:58.92	315.22	11.54	-44.1	-47.0	16.9	0.00e+00	0	38	0	342884352	59	5129
2026-01-22 02:30:00.05	315.00	11.53	-44.2	-47.2	16.8	0.00e+00	0	38	0	344981504	59	5223
2026-01-22 02:30:00.90	314.85	11.52	-44.4	-47.4	16.5	0.00e+00	0	38	0	347078656	59	5358
2026-01-22 02:30:02.04	314.63	11.51	-44.6	-47.7	16.3	0.00e+00	0	37	0	349175808	59	5562
2026-01-22 02:30:02.89	314.47	11.50	-44.6	-47.8	16.2	0.00e+00	0	38	0	350224384	60	5286
2026-01-22 02:30:04.13	314.24	11.48	-44.8	-48.0	16.0	0.00e+00	0	38	0	353370112	60	5429
2026-01-22 02:30:04.98	314.08	11.47	-44.6	-47.8	16.1	0.00e+00	0	38	0	354418688	60	5321
2026-01-22 02:30:06.12	313.87	11.46	-44.7	-47.9	16.0	0.00e+00	0	38	0	356515840	60	5401
2026-01-22 02:30:06.97	313.71	11.45	-44.6	-47.8	16.1	0.00e+00	0	38	0	358612992	60	5337
2026-01-22 02:30:08.10	313.50	11.43	-44.6	-47.8	16.2	0.00e+00	0	38	0	360710144	60	5338
2026-01-22 02:30:08.95	313.34	11.42	-44.6	-47.8	16.2	0.00e+00	0	38	0	361758720	60	5322
2026-01-22 02:30:10.09	313.13	11.40	-44.8	-47.9	16.1	0.00e+00	0	38	0	363855872	60	5376
2026-01-22 02:30:10.99	312.97	11.39	-44.7	-47.9	16.0	0.00e+00	0	38	0	365953024	60	5357
2026-01-22 02:30:12.03	312.77	11.38	-44.7	-47.8	16.2	0.00e+00	0	38	0	368050176	60	5289
2026-01-22 02:30:13.02	312.59	11.36	-44.9	-48.1	16.0	0.00e+00	0	38	0	369098752	60	5468
2026-01-22 02:30:14.02	312.40	11.35	-44.7	-47.8	16.2	0.00e+00	0	38	0	371195904	60	5290
2026-01-22 02:30:15.01	312.22	11.33	-44.6	-47.8	16.2	0.00e+00	0	38	0	373293056	60	5302
2026-01-22 02:30:16.01	312.04	11.31	-44.6	-47.7	16.3	0.00e+00	0	38	0	375390208	60	5269
2026-01-22 02:30:17.01	311.85	11.30	-44.7	-47.9	16.1	0.00e+00	0	38	0	377487360	60	5402
2026-01-22 02:30:18.00	311.67	11.28	-44.7	-47.8	16.2	0.00e+00	0	38	0	378535936	60	5339
2026-01-22 02:30:19.00	311.49	11.27	-44.6	-47.8	16.2	0.00e+00	0	38	0	380633088	60	5307
2026-01-22 02:30:20.00	311.30	11.25	-44.5	-47.5	16.5	0.00e+00	0	38	0	382730240	60	5142
2026-01-22 02:30:20.99	311.12	11.23	-44.5	-47.5	16.5	0.00e+00	0	38	0	384827392	60	5134
2026-01-22 02:30:21.98	310.94	11.22	-44.7	-47.8	16.2	0.00e+00	0	38	0	385875968	60	5286
2026-01-22 02:30:22.98	310.76	11.20	-44.8	-47.9	16.1	0.00e+00	0	38	0	387973120	60	5375
2026-01-22 02:30:23.98	310.57	11.18	-44.9	-48.1	15.9	0.00e+00	0	38	0	390070272	60	5472
2026-01-22 02:30:24.97	310.39	11.16	-44.9	-48.1	15.9	0.00e+00	0	38	0	392167424	60	5513
2026-01-22 02:30:25.97	310.21	11.14	-44.9	-48.1	15.9	0.00e+00	0	38	0	394264576	60	5500
2026-01-22 02:30:26.96	310.03	11.13	-44.8	-47.9	16.1	0.00e+00	0	38	0	395313152	60	5359
2026-01-22 02:30:27.96	309.85	11.11	-44.9	-48.1	15.9	0.00e+00	0	38	0	397410304	60	5505
2026-01-22 02:30:28.95	309.67	11.09	-44.8	-48.0	16.0	0.00e+00	0	38	0	399507456	60	5438
2026-01-22 02:30:29.95	309.49	11.07	-44.9	-48.1	15.9	0.00e+00	0	38	0	401604608	60	5493
2026-01-22 02:30:30.94	309.31	11.05	-44.9	-48.1	15.8	0.00e+00	0	38	0	402653184	60	5525
2026-01-22 02:30:31.93	309.13	11.03	-45.0	-48.2	15.8	0.00e+00	0	38	0	404750336	60	5574
2026-01-22 02:30:32.93	308.95	11.01	-45.0	-48.3	15.7	0.00e+00	0	38	0	406847488	60	5633
2026-01-22 02:30:33.92	308.77	10.99	-45.0	-48.2	15.8	0.00e+00	0	38	0	408944640	60	5552
2026-01-22 02:30:34.92	308.59	10.97	-44.9	-48.1	15.9	0.00e+00	0	38	0	411041792	60	5500
2026-01-22 02:30:35.91	308.41	10.95	-44.7	-47.8	16.1	0.00e+00	0	38	0	412090368	60	5339
2026-01-22 02:30:36.94	308.22	10.93	-44.6	-47.8	16.2	0.00e+00	0	38	0	414187520	60	5290
2026-01-22 02:30:37.96	308.04	10.90	-44.7	-47.9	16.1	0.00e+00	0	38	0	416284672	60	5354
2026-01-22 02:30:38.96	307.86	10.88	-44.7	-48.0	16.0	0.00e+00	0	38	0	418381824	60	5407
2026-01-22 02:30:39.95	307.69	10.86	-45.0	-48.3	15.7	0.00e+00	0	38	0	420478976	60	5628
2026-01-22 02:30:40.95	307.51	10.84	-45.2	-48.6	15.5	0.00e+00	0	38	0	421527552	61	5479
2026-01-22 02:30:41.94	307.33	10.82	-45.4	-49.0	15.1	0.00e+00	0	38	0	423624704	61	5727
2026-01-22 02:30:42.94	307.15	10.79	-45.3	-48.8	15.2	0.00e+00	0	38	0	425721856	61	5593
2026-01-22 02:30:43.93	306.98	10.77	-45.5	-48.9	15.1	0.00e+00	0	38	0	427819008	61	5710
2026-01-22 02:30:44.93	306.80	10.75	-45.4	-48.8	15.2	7.00e-07	0	38	0	429916160	61	5654
2026-01-22 02:30:45.92	306.62	10.72	-45.0	-48.1	15.8	0.00e+00	0	38	0	430964736	61	5204
2026-01-22 02:30:46.91	306.45	10.70	-44.8	-48.0	16.0	0.00e+00	0	38	0	433061888	61	5103
2026-01-22 02:30:47.91	306.27	10.68	-44.9	-48.1	15.9	0.00e+00	0	38	0	435159040	61	5179
2026-01-22 02:30:48.90	306.10	10.65	-44.8	-47.9	16.1	0.00e+00	0	38	0	437256192	61	5048
2026-01-22 02:30:49.90	305.92	10.63	-44.8	-47.9	16.1	0.00e+00	0	38	0	438304768	61	5048
2026-01-22 02:30:50.89	305.75	10.61	-44.8	-47.8	16.1	0.00e+00	0	38	0	440401920	61	5035
2026-01-22 02:30:51.90	305.57	10.58	-44.9	-48.0	16.0	0.00e+00	0	38	0	442499072	61	5123
2026-01-22 02:30:52.90	305.39	10.55	-44.7	-47.7	16.2	0.00e+00	0	38	0	444596224	61	4947
2026-01-22 02:30:53.89	305.22	10.53	-44.9	-48.1	15.9	0.00e+00	0	38	0	446693376	61	5171
2026-01-22 02:30:54.89	305.04	10.50	-45.0	-48.2	15.8	0.00e+00	0	38	0	447741952	61	5255
2026-01-22 02:30:55.96	304.86	10.48	-44.9	-48.0	15.9	0.00e+00	0	38	0	449839104	61	5139
2026-01-22 02:30:56.82	304.71	10.45	-45.0	-48.2	15.8	0.00e+00	0	38	0	451936256	61	5236
2026-01-22 02:30:58.18	304.47	10.42	-44.8	-48.0	16.0	0.00e+00	0	38	0	454033408	61	5112
2026-01-22 02:30:58.89	304.35	10.40	-44.8	-48.0	16.0	0.00e+00	0	38	0	455081984	61	5124
2026-01-22 02:31:00.17	304.13	10.37	-44.8	-48.0	16.0	0.00e+00	0	38	0	458227712	61	5111
2026-01-22 02:31:00.89	304.00	10.35	-44.9	-48.2	15.8	0.00e+00	0	38	0	459276288	61	5223
2026-01-22 02:31:02.17	303.78	10.31	-44.8	-47.9	16.0	0.00e+00	0	38	0	461373440	61	5070
2026-01-22 02:31:02.90	303.66	10.29	-44.9	-48.1	15.9	0.00e+00	0	38	0	463470592	61	5164
2026-01-22 02:31:04.18	303.44	10.26	-44.9	-48.2	15.8	0.00e+00	0	37	0	465567744	61	5228
2026-01-22 02:31:04.89	303.32	10.24	-44.8	-48.1	15.9	0.00e+00	0	38	0	466616320	61	5171
2026-01-22 02:31:06.17	303.10	10.20	-44.9	-48.1	15.7	0.00e+00	0	38	0	469762048	61	5186
2026-01-22 02:31:06.90	302.97	10.18	-44.9	-48.2	15.7	0.00e+00	0	38	0	470810624	61	5267
2026-01-22 02:31:08.17	302.76	10.14	-44.9	-48.2	15.8	0.00e+00	0	38	0	472907776	61	5251
2026-01-22 02:31:09.09	302.60	10.12	-44.8	-48.0	16.0	0.00e+00	0	38	0	475004928	61	5117
2026-01-22 02:31:10.38	302.38	10.08	-44.9	-48.1	15.8	0.00e+00	0	38	0	477102080	61	5201
2026-01-22 02:31:11.09	302.26	10.06	-44.9	-48.2	15.8	0.00e+00	0	38	0	478150656	61	5237
2026-01-22 02:31:12.72	301.98	10.01	-44.8	-48.0	15.9	0.00e+00	0	38	0	481296384	61	5120
2026-01-22 02:31:13.29	301.89	10.00	-45.0	-48.2	15.7	0.00e+00	0	38	0	482344960	61	5244
2026-01-22 02:31:15.20	301.57	9.94	-44.8	-47.9	16.0	0.00e+00	0	38	0	486539264	61	5064
2026-01-22 02:31:16.12	301.41	9.91	-44.9	-48.1	15.8	0.00e+00	0	38	0	487587840	61	5202
2026-01-22 02:31:17.11	301.25	9.88	-44.9	-48.1	15.8	0.00e+00	0	38	0	489684992	61	5178
2026-01-22 02:31:18.11	301.08	9.85	-44.9	-48.1	15.8	0.00e+00	0	38	0	491782144	61	5181
2026-01-22 02:31:19.10	300.92	9.82	-45.0	-48.2	15.6	0.00e+00	0	38	0	493879296	61	5279
2026-01-22 02:31:20.14	300.74	9.79	-45.2	-48.5	15.4	0.00e+00	0	38	0	494927872	61	5437
2026-01-22 02:31:21.14	300.58	9.76	-45.3	-48.7	15.3	0.00e+00	0	38	0	497025024	61	5540
2026-01-22 02:31:22.13	300.41	9.73	-45.3	-48.6	15.3	0.00e+00	0	38	0	499122176	61	5484
2026-01-22 02:31:23.13	300.25	9.69	-45.2	-48.5	15.4	0.00e+00	0	38	0	501219328	61	5451
2026-01-22 02:31:24.12	300.08	9.66	-45.1	-48.4	15.5	0.00e+00	0	38	0	503316480	61	5386
2026-01-22 02:31:25.12	299.92	9.63	-45.2	-48.6	15.3	0.00e+00	0	38	0	504365056	61	5481
2026-01-22 02:31:26.11	299.76	9.60	-45.3	-48.7	15.2	0.00e+00	0	38	0	506462208	61	5545
2026-01-22 02:31:27.11	299.59	9.57	-45.1	-48.4	15.5	0.00e+00	0	38	0	508559360	61	5387
2026-01-22 02:31:28.10	299.43	9.54	-45.0	-48.1	15.8	7.00e-07	0	38	0	510656512	61	5207
2026-01-22 02:31:29.10	299.27	9.50	-45.0	-48.2	15.7	0.00e+00	0	38	0	511705088	61	5245
2026-01-22 02:31:30.09	299.11	9.47	-45.1	-48.3	15.6	0.00e+00	0	38	0	513802240	61	5337
2026-01-22 02:31:31.09	298.95	9.44	-45.1	-48.3	15.6	0.00e+00	0	38	0	515899392	61	5328
2026-01-22 02:31:32.08	298.78	9.41	-45.2	-48.4	15.5	0.00e+00	0	38	0	517996544	61	5379
2026-01-22 02:31:33.08	298.62	9.37	-45.0	-48.2	15.7	0.00e+00	0	38	0	520093696	61	5264
2026-01-22 02:31:34.09	298.46	9.34	-45.2	-48.5	15.4	0.00e+00	0	38	0	521142272	61	5462
2026-01-22 02:31:35.09	298.30	9.31	-45.2	-48.5	15.4	0.00e+00	0	38	0	523239424	61	5433
2026-01-22 02:31:36.16	298.13	9.27	-45.3	-48.7	15.1	0.00e+00	0	38	0	525336576	61	5575
2026-01-22 02:31:37.02	297.99	9.24	-45.2	-48.5	15.4	0.00e+00	0	38	0	527433728	61	5416
2026-01-22 02:31:38.15	297.81	9.20	-45.2	-48.4	15.4	0.00e+00	0	38	0	529530880	61	5398
2026-01-22 02:31:39.13	297.65	9.17	-45.1	-48.4	15.5	0.00e+00	0	38	0	530579456	61	5372
2026-01-22 02:31:40.13	297.49	9.13	-45.1	-48.3	15.5	0.00e+00	0	38	0	532676608	61	5336
2026-01-22 02:31:41.12	297.34	9.10	-45.2	-48.6	15.3	0.00e+00	0	38	0	534773760	61	5473
2026-01-22 02:31:42.12	297.18	9.06	-45.0	-48.2	15.6	0.00e+00	0	38	0	536870912	61	5272
2026-01-22 02:31:43.11	297.02	9.03	-45.0	-48.2	15.7	0.00e+00	0	38	0	538968064	61	5221
2026-01-22 02:31:44.44	296.81	8.98	-50.3	-65.4	3.8	1.09e+00	0	38	104	540016640	71	21496
2026-01-22 02:31:45.18	296.70	8.96	-50.5	-65.7	3.8	1.49e+00	0	38	104	540016640	71	22082
2026-01-22 02:31:46.77	296.45	8.90	-50.5	-65.9	3.8	1.49e+00	0	38	104	540016640	71	22594
2026-01-22 02:31:47.34	296.36	8.88	-50.6	-65.9	3.8	1.49e+00	0	38	104	540016640	72	21361
2026-01-22 02:31:49.27	296.06	8.81	-50.7	-66.0	3.8	1.49e+00	0	38	104	540016640	72	21602
2026-01-22 02:31:49.83	295.97	8.79	-50.7	-66.0	3.8	1.49e+00	0	38	104	540016640	72	21630
2026-01-22 02:31:51.54	295.71	8.73	-50.7	-66.1	3.8	1.49e+00	0	38	104	540016640	72	21756
2026-01-22 02:31:52.10	295.62	8.71	-50.7	-66.1	3.8	1.49e+00	0	38	104	540016640	72	21856
2026-01-22 02:31:53.81	295.36	8.65	-50.8	-66.1	3.8	1.49e+00	0	38	104	540016640	72	21810
2026-01-22 02:31:54.37	295.27	8.63	-50.6	-66.1	3.8	1.49e+00	0	38	104	540016640	72	21805
2026-01-22 02:31:56.08	295.01	8.56	-50.8	-66.1	3.8	1.49e+00	0	38	104	540016640	72	21902
2026-01-22 02:31:56.65	294.92	8.54	-50.7	-66.1	3.8	1.49e+00	0	38	104	540016640	72	21911
2026-01-22 02:31:58.35	294.67	8.48	-50.7	-66.1	3.8	1.49e+00	0	38	104	540016640	72	21884
2026-01-22 02:31:58.92	294.58	8.46	-50.7	-66.1	3.8	1.49e+00	0	38	104	540016640	72	21908
2026-01-22 02:32:00.62	294.32	8.40	-50.7	-66.1	3.8	1.49e+00	0	38	104	540016640	72	21798
2026-01-22 02:32:01.19	294.24	8.37	-50.6	-66.0	3.8	1.49e+00	0	38	104	540016640	72	21725
2026-01-22 02:32:03.12	293.95	8.30	-50.6	-66.0	3.8	1.49e+00	0	38	104	540016640	72	21753
2026-01-22 02:32:04.04	293.81	8.27	-50.5	-66.0	3.8	1.49e+00	0	38	104	540016640	72	21705
2026-01-22 02:32:05.03	293.66	8.23	-50.5	-66.0	3.8	1.49e+00	0	38	104	540016640	72	21673
2026-01-22 02:32:06.03	293.51	8.19	-50.5	-66.0	3.8	1.49e+00	0	38	104	540016640	72	21560
2026-01-22 02:32:07.02	293.37	8.15	-50.5	-66.0	3.8	1.49e+00	0	38	104	540016640	72	21644
2026-01-22 02:32:08.01	293.22	8.12	-50.5	-66.0	3.8	1.49e+00	0	38	104	540016640	72	21640
2026-01-22 02:32:09.01	293.07	8.08	-50.4	-66.0	3.8	1.49e+00	0	38	104	540016640	72	21542
2026-01-22 02:32:10.00	292.93	8.04	-50.4	-66.0	3.8	1.49e+00	0	38	104	540016640	72	21657
2026-01-22 02:32:10.99	292.78	8.00	-50.5	-66.0	3.8	1.49e+00	0	38	104	540016640	72	21623
2026-01-22 02:32:11.98	292.63	7.96	-50.4	-66.0	3.8	1.49e+00	0	38	104	540016640	72	21576
2026-01-22 02:32:12.98	292.49	7.92	-50.5	-66.0	3.8	1.49e+00	0	38	104	540016640	72	21626
2026-01-22 02:32:13.97	292.34	7.88	-50.5	-66.0	3.8	1.49e+00	0	38	104	540016640	72	21557
2026-01-22 02:32:14.97	292.20	7.85	-50.5	-65.9	3.8	1.49e+00	0	38	104	540016640	72	21469
2026-01-22 02:32:15.96	292.06	7.81	-50.4	-66.0	3.8	1.49e+00	0	38	104	540016640	72	21574
2026-01-22 02:32:16.95	291.91	7.77	-50.4	-66.0	3.8	1.49e+00	0	38	104	540016640	72	21676
2026-01-22 02:32:17.95	291.77	7.73	-50.4	-66.0	3.8	1.49e+00	0	38	104	540016640	72	21636
2026-01-22 02:32:18.94	291.63	7.69	-50.4	-65.9	3.8	1.49e+00	0	38	104	540016640	72	21490
2026-01-22 02:32:19.93	291.48	7.65	-50.4	-65.9	3.8	1.49e+00	0	38	104	540016640	72	21486
2026-01-22 02:32:20.92	291.34	7.61	-50.4	-66.0	3.8	1.49e+00	0	38	104	540016640	72	21590
2026-01-22 02:32:21.92	291.20	7.57	-50.4	-66.0	3.8	1.49e+00	0	38	104	540016640	72	21546
2026-01-22 02:32:22.91	291.06	7.53	-50.4	-65.9	3.8	1.49e+00	0	38	104	540016640	72	21372
2026-01-22 02:32:23.90	290.92	7.49	-50.4	-65.9	3.8	1.49e+00	0	38	104	540016640	72	21434
2026-01-22 02:32:24.90	290.78	7.45	-50.4	-65.9	3.8	1.49e+00	0	38	104	540016640	72	21450
2026-01-22 02:32:25.89	290.64	7.41	-50.4	-65.9	3.8	1.49e+00	0	38	104	540016640	72	21493
2026-01-22 02:32:26.88	290.50	7.37	-50.4	-66.0	3.8	1.49e+00	0	38	104	540016640	72	21526
2026-01-22 02:32:27.88	290.36	7.33	-50.4	-66.0	3.8	1.49e+00	0	38	104	540016640	72	21548
2026-01-22 02:32:28.87	290.22	7.29	-50.4	-65.9	3.8	1.49e+00	0	38	104	540016640	72	21461
2026-01-22 02:32:29.86	290.08	7.25	-50.4	-65.9	3.8	1.49e+00	0	38	104	540016640	72	21466
2026-01-22 02:32:30.86	289.94	7.21	-50.4	-66.0	3.8	1.49e+00	0	38	104	540016640	72	21515
2026-01-22 02:32:31.85	289.81	7.17	-50.4	-66.0	3.8	1.49e+00	0	38	104	540016640	72	21517
2026-01-22 02:32:32.84	289.67	7.13	-50.4	-65.9	3.8	1.49e+00	0	38	104	540016640	72	21424
2026-01-22 02:32:33.84	289.53	7.09	-50.4	-65.9	3.8	1.49e+00	0	38	104	540016640	72	21492
2026-01-22 02:32:34.83	289.39	7.05	-50.4	-66.0	3.8	1.49e+00	0	38	104	540016640	72	21533
2026-01-22 02:32:35.82	289.26	7.01	-50.4	-65.9	3.8	1.49e+00	0	38	104	540016640	72	21476
2026-01-22 02:32:36.82	289.12	6.96	-50.4	-65.9	3.8	1.49e+00	0	38	104	540016640	72	21433
2026-01-22 02:32:37.81	288.99	6.92	-50.4	-65.9	3.8	1.49e+00	0	38	104	540016640	72	21420
2026-01-22 02:32:38.80	288.85	6.88	-50.4	-65.9	3.8	1.49e+00	0	38	104	540016640	72	21428
2026-01-22 02:32:39.80	288.72	6.84	-50.4	-66.0	3.8	1.49e+00	0	38	104	540016640	72	21534
2026-01-22 02:32:40.79	288.58	6.80	-50.4	-65.9	3.8	1.49e+00	0	38	104	540016640	72	21444
2026-01-22 02:32:41.78	288.45	6.76	-50.4	-65.9	3.8	1.49e+00	0	38	104	540016640	72	21472
2026-01-22 02:32:42.78	288.32	6.72	-50.4	-65.9	3.8	1.49e+00	0	38	104	540016640	72	21491
2026-01-22 02:32:43.77	288.18	6.67	-50.4	-65.9	3.8	1.49e+00	0	38	104	540016640	72	21501
2026-01-22 02:32:44.76	288.05	6.63	-50.4	-65.9	3.8	1.49e+00	0	38	104	540016640	72	21441
2026-01-22 02:32:45.76	287.92	6.59	-50.4	-65.9	3.8	1.49e+00	0	38	104	540016640	72	21473
2026-01-22 02:32:46.75	287.79	6.55	-50.4	-66.0	3.8	1.49e+00	0	38	104	540016640	72	21523
2026-01-22 02:32:47.74	287.65	6.51	-50.4	-65.9	3.8	1.49e+00	0	38	104	540016640	72	21453
2026-01-22 02:32:48.74	287.52	6.46	-50.4	-65.9	3.8	1.49e+00	0	38	104	540016640	72	21502
2026-01-22 02:32:49.73	287.39	6.42	-50.4	-66.0	3.8	1.49e+00	0	38	104	540016640	72	21531
2026-01-22 02:32:50.72	287.26	6.38	-50.4	-65.9	3.8	1.49e+00	0	38	104	540016640	72	21456
2026-01-22 02:32:51.72	287.13	6.34	-50.4	-65.9	3.8	1.49e+00	0	38	104	540016640	72	21489
2026-01-22 02:32:52.71	287.00	6.30	-50.4	-65.9	3.8	1.49e+00	0	38	104	540016640	72	21358
2026-01-22 02:32:53.70	286.87	6.25	-50.4	-65.9	3.8	1.49e+00	0	38	104	540016640	72	21457
2026-01-22 02:32:54.70	286.74	6.21	-50.4	-65.9	3.8	1.49e+00	0	38	104	540016640	72	21398
2026-01-22 02:32:55.69	286.62	6.17	-50.4	-65.9	3.8	1.49e+00	0	38	104	540016640	72	21461
2026-01-22 02:32:56.68	286.49	6.13	-50.4	-65.9	3.8	1.49e+00	0	38	104	540016640	72	21503
2026-01-22 02:32:57.68	286.36	6.08	-50.4	-65.9	3.8	1.49e+00	0	38	104	540016640	72	21500
2026-01-22 02:32:58.67	286.23	6.04	-50.4	-65.9	3.8	1.49e+00	0	38	104	540016640	72	21446
2026-01-22 02:32:59.66	286.11	6.00	-50.4	-65.9	3.8	1.49e+00	0	38	104	540016640	72	21485
2026-01-22 02:33:00.66	285.98	5.96	-50.4	-66.0	3.8	1.49e+00	0	38	104	540016640	72	21575
2026-01-22 02:33:01.65	285.85	5.91	-50.4	-65.9	3.8	1.49e+00	0	38	104	540016640	72	21437
2026-01-22 02:33:02.64	285.73	5.87	-50.4	-65.9	3.8	1.49e+00	0	38	104	540016640	72	21428
2026-01-22 02:33:03.64	285.60	5.83	-50.4	-65.9	3.8	1.49e+00	0	38	104	540016640	72	21413
2026-01-22 02:33:04.63	285.48	5.78	-50.4	-65.9	3.8	1.49e+00	0	38	104	540016640	72	21500
2026-01-22 02:33:05.62	285.35	5.74	-50.4	-65.9	3.8	1.49e+00	0	38	104	540016640	72	21401
2026-01-22 02:33:06.62	285.23	5.70	-50.4	-65.9	3.8	1.49e+00	0	38	104	540016640	72	21373
2026-01-22 02:33:07.61	285.10	5.65	-50.4	-66.0	3.8	1.49e+00	0	38	104	540016640	72	21507
2026-01-22 02:33:08.60	284.98	5.61	-50.4	-66.0	3.8	1.49e+00	0	38	104	540016640	72	21526
2026-01-22 02:33:09.60	284.86	5.57	-50.4	-65.9	3.8	1.49e+00	0	38	104	540016640	72	21455
2026-01-22 02:33:10.59	284.73	5.53	-50.4	-65.9	3.8	1.49e+00	0	38	104	540016640	72	21330
2026-01-22 02:33:11.58	284.61	5.48	-50.4	-65.9	3.8	1.49e+00	0	38	104	540016640	72	21416
2026-01-22 02:33:12.58	284.49	5.44	-50.4	-65.9	3.8	1.49e+00	0	38	104	540016640	72	21472
2026-01-22 02:33:13.57	284.37	5.39	-50.4	-65.9	3.8	1.49e+00	0	38	104	540016640	72	21340
2026-01-22 02:33:14.56	284.25	5.35	-50.4	-65.9	3.8	1.49e+00	0	38	104	540016640	72	21413
2026-01-22 02:33:15.56	284.12	5.31	-50.4	-65.9	3.8	1.49e+00	0	38	104	540016640	72	21444
2026-01-22 02:33:16.55	284.00	5.26	-50.4	-65.9	3.8	1.49e+00	0	38	104	540016640	72	21436
2026-01-22 02:33:17.55	283.88	5.22	-50.4	-65.9	3.8	1.49e+00	0	38	104	540016640	72	21436
2026-01-22 02:33:18.54	283.76	5.18	-50.4	-65.9	3.8	1.49e+00	0	38	104	540016640	72	21427
2026-01-22 02:33:19.53	283.64	5.13	-50.4	-65.9	3.8	1.49e+00	0	38	104	540016640	72	21436
2026-01-22 02:33:20.53	283.52	5.09	-50.4	-65.9	3.8	1.49e+00	0	38	104	540016640	72	21504
2026-01-22 02:33:21.52	283.41	5.05	-50.4	-65.9	3.8	1.49e+00	0	38	104	540016640	72	21422
2026-01-22 02:33:22.51	283.29	5.00	-50.4	-66.0	3.8	1.49e+00	0	38	104	540016640	72	21550

#Closed at: 2026-01-22 02:33:23
#Recorded file [540 MB]: D:/Data/31040_260122_052523.dat